passes_logs/2026/01/15/R2M6_AANII_01/R2M6_AANII_01__20260115_112917_NOAA_20_JPSS-1_rec.log

#Pass ID: 20260115_112917_NOAA 20 (JPSS-1)
#Satellite: NOAA 20 (JPSS-1)
#Configuration: NOAA 20
#almurnet v.1.7.20240730
#Start time: 2026-01-15 11:29:18

#Version: 2.2.20231116
#Station: R2M6_AANII_01
#Location: 30.233357 lon 59.946436 lat
#TLE: 1 43013U 17073A   26014.13176244  .00000049  00000+0  44136-4 0  9994
#TLE: 2 43013  98.7634 315.0803 0001538  40.6488 319.4803 14.19535812422619

#Time	Az	El	Level	Level2	SNR	BER	BlckErr	Temp	State	Recorded	gain1	gain2
2026-01-15 11:29:18.27	197.60	7.03	-31.0	-36.1	5.1	1.22e+00	0	41	0	0	23	6476
2026-01-15 11:29:19.27	197.68	7.10	-31.6	-38.6	4.8	1.32e+00	0	41	104	0	23	8064
2026-01-15 11:29:20.27	197.75	7.17	-31.5	-37.8	7.5	1.19e-01	0	41	0	0	23	7472
2026-01-15 11:29:21.27	197.82	7.24	-31.7	-38.8	6.9	1.67e-01	0	41	0	1048576	23	8101
2026-01-15 11:29:22.27	197.89	7.32	-31.4	-37.5	7.8	9.71e-02	0	41	0	3145728	23	7209
2026-01-15 11:29:23.27	197.96	7.39	-31.1	-36.8	7.9	7.80e-02	0	41	0	5242880	23	6924
2026-01-15 11:29:24.27	198.03	7.46	-30.1	-36.0	7.6	8.09e-02	0	41	0	7340032	21	7098
2026-01-15 11:29:25.27	198.11	7.53	-29.2	-35.5	7.2	1.30e-01	0	41	0	9437184	19	7440
2026-01-15 11:29:26.27	198.18	7.60	-27.8	-34.4	6.3	1.79e-01	0	41	0	10485760	17	7693
2026-01-15 11:29:27.27	198.25	7.67	-27.3	-34.1	6.1	2.88e-01	0	41	0	12582912	16	7922
2026-01-15 11:29:28.27	198.32	7.74	-26.2	-34.1	5.5	4.33e-01	0	41	0	14680064	13	8937
2026-01-15 11:29:29.27	198.40	7.81	-25.7	-34.0	5.3	5.31e-01	0	41	0	16777216	12	9286
2026-01-15 11:29:30.27	198.47	7.89	-25.6	-33.8	5.1	6.32e-01	0	41	0	17825792	12	9308
2026-01-15 11:29:31.27	198.55	7.96	-25.6	-33.7	5.2	5.89e-01	0	42	0	19922944	12	9135
2026-01-15 11:29:32.27	198.62	8.03	-25.3	-33.4	5.0	6.37e-01	0	41	0	22020096	12	9171
2026-01-15 11:29:33.27	198.70	8.10	-25.3	-34.0	4.9	7.38e-01	0	41	0	24117248	11	9825
2026-01-15 11:29:34.28	198.77	8.18	-25.7	-34.4	5.3	6.13e-01	0	42	0	26214400	11	9809
2026-01-15 11:29:35.28	198.85	8.25	-25.8	-34.6	5.2	6.75e-01	0	42	0	27262976	11	9959
2026-01-15 11:29:36.28	198.93	8.32	-26.6	-34.5	5.8	4.44e-01	0	42	0	29360128	13	8951
2026-01-15 11:29:37.28	199.00	8.40	-26.9	-35.0	5.9	4.31e-01	0	42	0	31457280	13	9181
2026-01-15 11:29:38.29	199.08	8.47	-28.0	-35.7	6.4	2.58e-01	0	42	0	33554432	15	8718
2026-01-15 11:29:39.29	199.16	8.54	-28.3	-35.4	6.8	2.01e-01	0	41	0	35651584	16	8144
2026-01-15 11:29:40.29	199.24	8.62	-28.7	-35.1	7.6	1.10e-01	0	42	0	36700160	17	7518
2026-01-15 11:29:41.29	199.31	8.69	-29.6	-36.0	7.6	7.92e-02	0	42	0	38797312	19	7493
2026-01-15 11:29:42.29	199.39	8.76	-29.5	-35.3	8.1	6.11e-02	0	42	0	40894464	19	7036
2026-01-15 11:29:43.29	199.47	8.84	-29.5	-35.0	8.4	4.86e-02	0	42	0	42991616	19	6838
2026-01-15 11:29:44.29	199.55	8.91	-29.4	-34.9	8.5	4.27e-02	0	42	0	45088768	19	6742
2026-01-15 11:29:45.28	199.63	8.99	-29.5	-35.0	8.6	4.42e-02	0	42	0	46137344	19	6758
2026-01-15 11:29:46.28	199.71	9.06	-29.7	-35.0	9.2	2.43e-02	0	42	0	48234496	19	6646
2026-01-15 11:29:47.28	199.79	9.14	-29.8	-34.9	10.0	1.18e-02	0	42	0	50331648	19	6416
2026-01-15 11:29:48.29	199.87	9.21	-30.0	-34.4	10.5	6.15e-03	0	42	0	52428800	20	5980
2026-01-15 11:29:49.29	199.95	9.29	-29.9	-34.4	10.3	4.81e-03	0	42	0	53477376	20	6040
2026-01-15 11:29:50.29	200.04	9.36	-30.0	-34.6	10.2	6.28e-03	0	42	0	55574528	20	6130
2026-01-15 11:29:51.30	200.12	9.44	-30.1	-34.5	10.8	3.86e-03	0	42	0	57671680	20	5966
2026-01-15 11:29:52.30	200.20	9.51	-30.1	-34.3	11.3	1.36e-03	0	42	0	59768832	20	5821
2026-01-15 11:29:53.30	200.28	9.59	-30.2	-34.4	11.2	1.35e-03	0	42	0	61865984	20	5867
2026-01-15 11:29:54.30	200.37	9.67	-30.3	-34.7	11.0	1.45e-03	0	42	0	62914560	20	5985
2026-01-15 11:29:55.30	200.45	9.74	-30.3	-34.6	11.1	1.56e-03	0	42	0	65011712	20	5956
2026-01-15 11:29:56.30	200.53	9.82	-30.2	-34.3	11.5	8.30e-04	0	42	0	67108864	20	5781
2026-01-15 11:29:57.31	200.62	9.90	-30.1	-34.1	11.8	6.76e-04	0	42	0	69206016	20	5655
2026-01-15 11:29:58.31	200.71	9.97	-30.1	-34.0	11.9	4.71e-04	0	42	0	71303168	20	5601
2026-01-15 11:29:59.31	200.79	10.05	-30.1	-34.0	11.8	4.56e-04	0	42	0	72351744	20	5621
2026-01-15 11:30:00.31	200.88	10.13	-30.1	-33.9	11.9	4.68e-04	0	42	0	74448896	20	5566
2026-01-15 11:30:01.31	200.96	10.20	-30.0	-33.7	12.1	3.94e-04	0	42	0	76546048	20	5480
2026-01-15 11:30:02.31	201.05	10.28	-30.1	-33.8	12.1	3.01e-04	0	42	0	78643200	20	5514
2026-01-15 11:30:03.31	201.14	10.36	-30.0	-33.6	12.2	2.46e-04	0	42	0	79691776	20	5453
2026-01-15 11:30:04.32	201.23	10.44	-30.1	-33.7	12.2	2.75e-04	0	42	0	81788928	20	5473
2026-01-15 11:30:05.31	201.31	10.52	-30.1	-33.6	12.4	1.94e-04	0	42	0	83886080	20	5412
2026-01-15 11:30:06.31	201.40	10.59	-30.1	-33.7	12.4	1.35e-04	0	42	0	85983232	20	5433
2026-01-15 11:30:07.32	201.49	10.67	-30.2	-33.9	12.3	1.57e-04	0	42	0	88080384	20	5506
2026-01-15 11:30:08.33	201.58	10.75	-30.1	-33.7	12.5	1.63e-04	0	42	0	90177536	20	5438
2026-01-15 11:30:09.33	201.67	10.83	-30.1	-33.5	12.6	8.01e-05	0	42	0	91226112	20	5352
2026-01-15 11:30:10.34	201.76	10.91	-30.1	-33.5	12.7	6.56e-05	0	42	0	93323264	20	5339
2026-01-15 11:30:11.34	201.85	10.99	-30.2	-33.7	12.5	1.18e-04	0	42	0	95420416	20	5425
2026-01-15 11:30:12.34	201.95	11.07	-30.2	-33.7	12.5	1.27e-04	0	43	0	97517568	20	5407
2026-01-15 11:30:13.34	202.04	11.15	-30.2	-33.7	12.4	1.31e-04	0	42	0	98566144	20	5438
2026-01-15 11:30:14.34	202.13	11.23	-30.2	-33.8	12.4	1.29e-04	0	42	0	100663296	20	5470
2026-01-15 11:30:15.34	202.22	11.31	-30.2	-33.9	12.4	1.97e-04	0	42	0	102760448	20	5482
2026-01-15 11:30:16.35	202.32	11.39	-30.2	-33.8	12.4	1.42e-04	0	42	0	104857600	20	5469
2026-01-15 11:30:17.35	202.41	11.47	-30.2	-33.7	12.5	1.11e-04	0	42	0	106954752	20	5415
2026-01-15 11:30:18.35	202.50	11.55	-30.2	-33.7	12.6	9.53e-05	0	43	0	108003328	20	5395
2026-01-15 11:30:19.35	202.60	11.63	-30.2	-33.8	12.6	1.02e-04	0	42	0	110100480	20	5420
2026-01-15 11:30:20.34	202.69	11.71	-30.1	-33.6	12.7	9.15e-05	0	42	0	112197632	20	5355
2026-01-15 11:30:21.34	202.79	11.80	-30.2	-33.7	12.6	7.32e-05	0	42	0	114294784	20	5406
2026-01-15 11:30:22.33	202.88	11.88	-30.1	-33.5	12.8	7.40e-05	0	42	0	116391936	20	5296
2026-01-15 11:30:23.33	202.98	11.96	-30.1	-33.4	12.9	5.95e-05	0	42	0	117440512	20	5279
2026-01-15 11:30:24.34	203.08	12.04	-30.1	-33.4	12.9	5.56e-05	0	42	0	119537664	20	5266
2026-01-15 11:30:25.34	203.18	12.12	-30.0	-33.3	12.9	3.12e-05	0	42	0	121634816	20	5226
2026-01-15 11:30:26.34	203.28	12.20	-30.1	-33.4	12.9	5.26e-05	0	42	0	123731968	20	5288
2026-01-15 11:30:27.35	203.38	12.29	-30.0	-33.2	13.0	3.73e-05	0	42	0	124780544	20	5203
2026-01-15 11:30:28.35	203.48	12.37	-30.1	-33.4	12.9	4.27e-05	0	43	0	126877696	20	5263
2026-01-15 11:30:29.35	203.58	12.45	-30.1	-33.5	12.8	5.11e-05	0	43	0	128974848	20	5335
2026-01-15 11:30:30.35	203.68	12.54	-30.1	-33.6	12.7	9.68e-05	0	43	0	131072000	20	5357
2026-01-15 11:30:31.35	203.78	12.62	-30.0	-33.3	13.0	5.72e-05	0	43	0	133169152	20	5230
2026-01-15 11:30:32.35	203.88	12.70	-29.9	-32.8	13.3	2.51e-05	0	43	0	134217728	20	5032
2026-01-15 11:30:33.34	203.98	12.79	-29.9	-32.9	13.3	1.90e-05	0	43	0	136314880	20	5090
2026-01-15 11:30:34.35	204.08	12.87	-29.9	-32.9	13.2	1.98e-05	0	43	0	138412032	20	5086
2026-01-15 11:30:35.35	204.19	12.96	-29.9	-33.0	13.2	2.97e-05	0	43	0	140509184	20	5123
2026-01-15 11:30:36.35	204.29	13.04	-29.7	-32.5	13.5	2.59e-05	0	43	0	142606336	20	4914
2026-01-15 11:30:37.35	204.40	13.12	-29.7	-32.2	13.7	3.80e-06	0	43	0	143654912	20	4836
2026-01-15 11:30:38.35	204.50	13.21	-29.7	-32.2	13.7	3.00e-06	0	43	0	145752064	20	4823
2026-01-15 11:30:39.36	204.61	13.30	-29.7	-32.3	13.7	5.30e-06	0	43	0	147849216	20	4843
2026-01-15 11:30:40.36	204.71	13.38	-29.7	-32.4	13.7	6.10e-06	0	43	0	149946368	20	4876
2026-01-15 11:30:41.36	204.82	13.47	-29.7	-32.3	13.7	3.00e-06	0	43	0	152043520	20	4861
2026-01-15 11:30:42.36	204.93	13.55	-29.8	-32.4	13.7	5.30e-06	0	43	0	153092096	20	4897
2026-01-15 11:30:43.36	205.04	13.64	-29.8	-32.6	13.6	5.30e-06	0	43	0	155189248	20	4962
2026-01-15 11:30:44.36	205.14	13.72	-29.8	-32.5	13.7	9.10e-06	0	43	0	157286400	20	4920
2026-01-15 11:30:45.36	205.25	13.81	-29.9	-32.7	13.5	6.80e-06	0	43	0	159383552	20	4976
2026-01-15 11:30:46.35	205.36	13.90	-29.8	-32.5	13.6	9.10e-06	0	43	0	160432128	20	4933
2026-01-15 11:30:47.35	205.47	13.98	-29.9	-32.8	13.5	1.67e-05	0	43	0	162529280	20	5009
2026-01-15 11:30:48.35	205.58	14.07	-29.8	-32.4	13.7	5.30e-06	0	43	0	164626432	20	4892
2026-01-15 11:30:49.35	205.70	14.16	-29.7	-32.2	13.9	1.50e-06	0	42	0	166723584	20	4819
2026-01-15 11:30:50.34	205.81	14.24	-29.8	-32.4	13.8	3.80e-06	0	43	0	168820736	20	4868
2026-01-15 11:30:51.34	205.92	14.33	-29.8	-32.5	13.7	4.50e-06	0	43	0	169869312	20	4895
2026-01-15 11:30:52.35	206.03	14.42	-29.8	-32.5	13.7	4.50e-06	0	43	0	171966464	20	4903
2026-01-15 11:30:53.34	206.15	14.51	-29.9	-32.7	13.6	6.10e-06	0	43	0	174063616	20	4984
2026-01-15 11:30:54.34	206.26	14.59	-29.9	-32.7	13.6	9.90e-06	0	43	0	176160768	20	4968
2026-01-15 11:30:55.35	206.38	14.68	-29.9	-32.7	13.6	9.10e-06	0	43	0	178257920	20	4988
2026-01-15 11:30:56.35	206.50	14.77	-29.9	-32.8	13.6	6.80e-06	0	43	0	179306496	20	5007
2026-01-15 11:30:57.34	206.61	14.86	-29.9	-32.8	13.6	9.10e-06	0	43	0	181403648	20	5023
2026-01-15 11:30:58.34	206.73	14.95	-29.9	-32.7	13.6	5.30e-06	0	43	0	183500800	20	4958
2026-01-15 11:30:59.34	206.85	15.04	-29.9	-32.7	13.6	6.80e-06	0	43	0	185597952	20	4992
2026-01-15 11:31:00.35	206.97	15.13	-29.9	-32.8	13.6	6.10e-06	0	43	0	186646528	20	5004
2026-01-15 11:31:01.34	207.09	15.22	-29.9	-32.7	13.7	6.10e-06	0	43	0	188743680	20	4981
2026-01-15 11:31:02.35	207.21	15.31	-29.9	-32.6	13.7	4.50e-06	0	43	0	190840832	20	4930
2026-01-15 11:31:03.35	207.33	15.40	-29.9	-32.7	13.7	3.80e-06	0	43	0	192937984	20	4965
2026-01-15 11:31:04.36	207.45	15.49	-29.9	-32.8	13.6	2.20e-06	0	43	0	195035136	20	5002
2026-01-15 11:31:05.36	207.57	15.58	-29.9	-32.6	13.7	4.50e-06	0	43	0	196083712	20	4934
2026-01-15 11:31:06.36	207.70	15.67	-30.0	-32.9	13.6	6.80e-06	0	43	0	198180864	20	5037
2026-01-15 11:31:07.37	207.82	15.76	-30.0	-32.9	13.6	6.80e-06	0	43	0	200278016	20	5040
2026-01-15 11:31:08.37	207.95	15.85	-29.8	-32.6	13.8	1.50e-06	0	43	0	202375168	20	4921
2026-01-15 11:31:09.38	208.07	15.95	-29.9	-32.6	13.8	9.90e-06	0	43	0	204472320	20	4949
2026-01-15 11:31:10.38	208.20	16.04	-29.9	-32.7	13.7	7.60e-06	0	43	0	205520896	20	4952
2026-01-15 11:31:11.39	208.33	16.13	-29.9	-32.8	13.6	7.60e-06	0	43	0	207618048	20	5014
2026-01-15 11:31:12.39	208.46	16.22	-30.0	-33.0	13.5	1.22e-05	0	43	0	209715200	20	5087
2026-01-15 11:31:13.39	208.58	16.32	-30.0	-33.0	13.5	5.30e-06	0	43	0	211812352	20	5082
2026-01-15 11:31:14.40	208.71	16.41	-30.1	-33.1	13.4	1.22e-05	0	43	0	213909504	20	5134
2026-01-15 11:31:15.40	208.84	16.50	-30.1	-33.3	13.3	1.44e-05	0	43	0	214958080	20	5202
2026-01-15 11:31:16.39	208.97	16.59	-30.2	-33.4	13.3	2.13e-05	0	43	0	217055232	20	5225
2026-01-15 11:31:17.40	209.11	16.69	-30.2	-33.4	13.3	1.44e-05	0	43	0	219152384	20	5235
2026-01-15 11:31:18.40	209.24	16.78	-30.3	-33.7	13.1	2.21e-05	0	43	0	221249536	20	5343
2026-01-15 11:31:19.40	209.37	16.87	-30.3	-33.8	13.1	2.89e-05	0	43	0	223346688	20	5368
2026-01-15 11:31:20.40	209.51	16.97	-30.4	-34.0	12.9	4.95e-05	0	43	0	224395264	20	5467
2026-01-15 11:31:21.40	209.64	17.06	-30.4	-34.0	12.9	3.58e-05	0	43	0	226492416	20	5480
2026-01-15 11:31:22.40	209.78	17.16	-30.4	-33.7	12.8	7.78e-05	0	43	0	228589568	21	5234
2026-01-15 11:31:23.40	209.91	17.25	-30.4	-33.6	12.9	6.33e-05	0	43	0	230686720	21	5206
2026-01-15 11:31:24.40	210.05	17.35	-30.4	-33.7	12.8	5.18e-05	0	43	0	232783872	21	5247
2026-01-15 11:31:25.40	210.19	17.44	-30.5	-33.9	12.7	6.40e-05	0	43	0	233832448	21	5322
2026-01-15 11:31:26.40	210.33	17.54	-30.5	-33.9	12.7	8.54e-05	0	43	0	235929600	21	5314
2026-01-15 11:31:27.40	210.47	17.63	-30.6	-34.1	12.5	9.53e-05	0	43	0	238026752	21	5399
2026-01-15 11:31:28.39	210.61	17.73	-30.6	-34.2	12.5	1.48e-04	0	43	0	240123904	21	5439
2026-01-15 11:31:29.39	210.75	17.82	-30.6	-34.1	12.5	1.11e-04	0	43	0	241172480	21	5398
2026-01-15 11:31:30.40	210.89	17.92	-30.6	-34.1	12.6	1.11e-04	0	43	0	243269632	21	5384
2026-01-15 11:31:31.39	211.03	18.01	-30.6	-34.3	12.4	1.06e-04	0	43	0	245366784	21	5458
2026-01-15 11:31:32.39	211.18	18.11	-30.7	-34.4	12.3	1.89e-04	0	43	0	247463936	21	5521
2026-01-15 11:31:33.39	211.32	18.21	-30.6	-34.1	12.5	1.33e-04	0	43	0	249561088	21	5400
2026-01-15 11:31:34.39	211.47	18.30	-30.5	-33.9	12.7	1.01e-04	0	43	0	250609664	21	5313
2026-01-15 11:31:35.39	211.61	18.40	-30.6	-34.1	12.6	6.94e-05	0	43	0	252706816	21	5376
2026-01-15 11:31:36.39	211.76	18.50	-30.6	-34.0	12.7	1.16e-04	0	43	0	254803968	21	5337
2026-01-15 11:31:37.39	211.91	18.59	-30.5	-33.8	12.9	7.17e-05	0	43	0	256901120	21	5248
2026-01-15 11:31:38.40	212.06	18.69	-30.5	-33.9	12.7	5.56e-05	0	43	0	258998272	21	5301
2026-01-15 11:31:39.40	212.21	18.79	-30.6	-34.0	12.7	1.02e-04	0	43	0	260046848	21	5338
2026-01-15 11:31:40.40	212.36	18.89	-30.6	-34.2	12.6	7.55e-05	0	43	0	262144000	21	5414
2026-01-15 11:31:41.39	212.51	18.99	-30.6	-34.2	12.5	1.30e-04	0	43	0	264241152	21	5419
2026-01-15 11:31:42.39	212.67	19.08	-30.5	-33.9	12.7	7.85e-05	0	43	0	266338304	21	5321
2026-01-15 11:31:43.39	212.82	19.18	-30.5	-33.9	12.8	7.24e-05	0	43	0	267386880	21	5306
2026-01-15 11:31:44.40	212.98	19.28	-30.5	-33.8	12.8	8.16e-05	0	43	0	269484032	21	5263
2026-01-15 11:31:45.40	213.13	19.38	-30.5	-34.0	12.7	6.25e-05	0	43	0	271581184	21	5325
2026-01-15 11:31:46.40	213.29	19.48	-30.5	-33.7	12.9	6.63e-05	0	43	0	273678336	21	5237
2026-01-15 11:31:47.40	213.45	19.58	-30.4	-33.6	13.0	4.88e-05	0	43	0	275775488	21	5175
2026-01-15 11:31:48.40	213.61	19.68	-30.5	-33.7	12.9	4.80e-05	0	43	0	276824064	21	5221
2026-01-15 11:31:49.41	213.77	19.78	-30.5	-33.7	12.9	5.34e-05	0	43	0	278921216	21	5205
2026-01-15 11:31:50.41	213.93	19.88	-30.5	-33.9	12.8	6.25e-05	0	43	0	281018368	21	5289
2026-01-15 11:31:51.41	214.09	19.98	-30.5	-33.8	12.8	5.72e-05	0	43	0	283115520	21	5272
2026-01-15 11:31:52.42	214.26	20.08	-30.5	-33.9	12.8	5.26e-05	0	43	0	285212672	21	5286
2026-01-15 11:31:53.42	214.42	20.18	-30.5	-33.8	12.8	5.95e-05	0	43	0	286261248	21	5263
2026-01-15 11:31:54.42	214.59	20.28	-30.5	-33.9	12.8	5.41e-05	0	43	0	288358400	21	5278
2026-01-15 11:31:55.42	214.76	20.38	-30.5	-33.7	12.9	6.25e-05	0	43	0	290455552	21	5220
2026-01-15 11:31:56.42	214.92	20.48	-30.4	-33.4	13.1	3.20e-05	0	43	0	292552704	21	5124
2026-01-15 11:31:57.42	215.09	20.58	-30.3	-33.3	13.2	3.66e-05	0	43	0	294649856	21	5086
2026-01-15 11:31:58.42	215.26	20.69	-30.2	-32.9	13.4	1.90e-05	0	43	0	295698432	21	4930
2026-01-15 11:31:59.42	215.43	20.79	-30.2	-32.8	13.6	9.90e-06	0	43	0	297795584	21	4870
2026-01-15 11:32:00.40	215.60	20.89	-30.1	-32.7	13.6	7.60e-06	0	43	0	299892736	21	4848
2026-01-15 11:32:01.40	215.77	20.99	-30.1	-32.6	13.7	7.60e-06	0	43	0	301989888	21	4800
2026-01-15 11:32:02.40	215.95	21.09	-30.0	-32.3	13.9	4.50e-06	0	43	0	303038464	21	4698
2026-01-15 11:32:03.40	216.12	21.19	-29.9	-32.2	14.0	4.50e-06	0	43	0	305135616	21	4659
2026-01-15 11:32:04.40	216.30	21.29	-30.0	-32.3	13.9	1.50e-06	0	43	0	307232768	21	4689
2026-01-15 11:32:05.41	216.48	21.40	-30.0	-32.3	13.9	4.50e-06	0	43	0	309329920	21	4688
2026-01-15 11:32:06.41	216.66	21.50	-29.9	-32.0	14.1	3.80e-06	0	43	0	311427072	21	4612
2026-01-15 11:32:07.41	216.84	21.60	-29.8	-31.8	14.2	1.50e-06	0	43	0	312475648	21	4537
2026-01-15 11:32:08.42	217.02	21.71	-29.8	-32.3	14.3	7.00e-07	0	43	0	314572800	20	4788
2026-01-15 11:32:09.43	217.20	21.81	-29.7	-32.2	14.3	0.00e+00	0	43	0	316669952	20	4755
2026-01-15 11:32:10.43	217.39	21.91	-29.6	-31.7	14.6	7.00e-07	0	43	0	318767104	20	4594
2026-01-15 11:32:11.43	217.57	22.01	-29.6	-31.7	14.7	0.00e+00	0	43	0	320864256	20	4600
2026-01-15 11:32:12.43	217.76	22.12	-29.6	-31.9	14.5	0.00e+00	0	43	0	321912832	20	4657
2026-01-15 11:32:13.43	217.94	22.22	-29.6	-31.9	14.5	2.20e-06	0	43	0	324009984	20	4661
2026-01-15 11:32:14.43	218.13	22.32	-29.4	-31.4	14.8	0.00e+00	0	43	0	326107136	20	4503
2026-01-15 11:32:15.43	218.32	22.43	-29.4	-31.3	14.8	0.00e+00	0	43	0	328204288	20	4482
2026-01-15 11:32:16.43	218.51	22.53	-29.4	-31.3	14.9	0.00e+00	0	43	0	330301440	20	4463
2026-01-15 11:32:17.43	218.70	22.64	-29.4	-31.2	15.0	0.00e+00	0	43	0	331350016	20	4433
2026-01-15 11:32:18.43	218.90	22.74	-29.3	-31.0	15.0	7.00e-07	0	43	0	333447168	20	4392
2026-01-15 11:32:19.43	219.09	22.84	-29.3	-31.5	15.1	0.00e+00	0	43	0	335544320	19	4634
2026-01-15 11:32:20.43	219.29	22.95	-29.3	-31.5	15.1	0.00e+00	0	43	0	337641472	19	4646
2026-01-15 11:32:21.44	219.48	23.05	-29.2	-31.3	15.3	0.00e+00	0	43	0	339738624	19	4561
2026-01-15 11:32:22.44	219.68	23.16	-29.3	-31.5	15.2	0.00e+00	0	43	0	340787200	19	4633
2026-01-15 11:32:23.44	219.88	23.26	-29.2	-31.3	15.2	3.80e-06	0	43	0	342884352	19	4573
2026-01-15 11:32:24.44	220.08	23.36	-29.2	-31.3	15.3	0.00e+00	0	43	0	344981504	19	4578
2026-01-15 11:32:25.44	220.28	23.47	-29.2	-31.3	15.3	0.00e+00	0	43	0	347078656	19	4578
2026-01-15 11:32:26.44	220.49	23.57	-29.3	-31.4	15.2	0.00e+00	0	43	0	348127232	19	4619
2026-01-15 11:32:27.45	220.69	23.68	-29.2	-31.2	15.3	0.00e+00	0	43	0	350224384	19	4551
2026-01-15 11:32:28.44	220.90	23.78	-29.2	-31.1	15.4	0.00e+00	0	43	0	352321536	19	4516
2026-01-15 11:32:29.44	221.11	23.89	-29.1	-31.1	15.4	0.00e+00	0	43	0	354418688	19	4503
2026-01-15 11:32:30.44	221.31	23.99	-29.1	-31.0	15.5	0.00e+00	0	43	0	356515840	19	4477
2026-01-15 11:32:31.44	221.52	24.10	-29.1	-31.0	15.5	0.00e+00	0	43	0	357564416	19	4472
2026-01-15 11:32:32.44	221.74	24.20	-29.1	-31.1	15.4	0.00e+00	0	43	0	359661568	19	4503
2026-01-15 11:32:33.44	221.95	24.30	-29.1	-31.1	15.4	0.00e+00	0	43	0	361758720	19	4501
2026-01-15 11:32:34.44	222.16	24.41	-29.1	-30.9	15.5	0.00e+00	0	43	0	363855872	19	4449
2026-01-15 11:32:35.44	222.38	24.51	-29.0	-30.9	15.6	7.00e-07	0	43	0	365953024	19	4430
2026-01-15 11:32:36.45	222.60	24.62	-29.1	-30.9	15.6	0.00e+00	0	43	0	367001600	19	4438
2026-01-15 11:32:37.45	222.82	24.72	-29.0	-30.6	15.7	0.00e+00	0	43	0	369098752	19	4368
2026-01-15 11:32:38.45	223.04	24.83	-29.1	-31.0	15.5	0.00e+00	0	43	0	371195904	19	4479
2026-01-15 11:32:39.46	223.26	24.93	-29.0	-30.8	15.6	0.00e+00	0	43	0	373293056	19	4403
2026-01-15 11:32:40.46	223.48	25.04	-29.0	-30.8	15.7	0.00e+00	0	43	0	374341632	19	4402
2026-01-15 11:32:41.47	223.71	25.14	-29.0	-30.7	15.7	7.00e-07	0	43	0	376438784	19	4376
2026-01-15 11:32:42.47	223.93	25.25	-29.1	-31.0	15.5	0.00e+00	0	43	0	378535936	19	4464
2026-01-15 11:32:43.46	224.16	25.35	-29.3	-31.5	15.2	0.00e+00	0	43	0	380633088	19	4637
2026-01-15 11:32:44.46	224.39	25.46	-29.4	-31.8	15.0	2.20e-06	0	43	0	382730240	19	4730
2026-01-15 11:32:45.47	224.62	25.56	-29.5	-31.9	14.9	0.00e+00	0	43	0	384827392	19	4780
2026-01-15 11:32:46.47	224.85	25.67	-29.5	-32.0	14.9	0.00e+00	0	43	0	385875968	19	4803
2026-01-15 11:32:47.47	225.08	25.77	-29.6	-32.1	14.8	1.50e-06	0	43	0	387973120	19	4842
2026-01-15 11:32:48.48	225.32	25.88	-29.5	-32.0	14.9	0.00e+00	0	43	0	390070272	19	4804
2026-01-15 11:32:49.48	225.56	25.98	-29.5	-32.0	14.9	0.00e+00	0	43	0	392167424	19	4802
2026-01-15 11:32:50.48	225.79	26.08	-29.6	-32.3	14.7	7.00e-07	0	43	0	393216000	19	4906
2026-01-15 11:32:51.48	226.03	26.19	-29.7	-32.4	14.7	0.00e+00	0	43	0	395313152	19	4921
2026-01-15 11:32:52.49	226.28	26.29	-29.6	-32.1	14.8	0.00e+00	0	43	0	397410304	19	4835
2026-01-15 11:32:53.49	226.52	26.40	-29.7	-32.5	14.7	7.00e-07	0	43	0	399507456	19	4957
2026-01-15 11:32:54.49	226.76	26.50	-29.8	-32.8	14.4	1.50e-06	0	43	0	401604608	19	5063
2026-01-15 11:32:55.49	227.01	26.60	-30.0	-33.2	14.2	2.20e-06	0	43	0	402653184	19	5208
2026-01-15 11:32:56.49	227.25	26.70	-30.1	-33.1	13.9	3.80e-06	0	43	0	404750336	20	5063
2026-01-15 11:32:57.50	227.50	26.81	-30.1	-33.2	13.8	4.50e-06	0	43	0	406847488	20	5103
2026-01-15 11:32:58.50	227.75	26.91	-30.1	-33.0	13.9	6.10e-06	0	44	0	408944640	20	5034
2026-01-15 11:32:59.49	228.00	27.01	-30.0	-32.7	14.1	3.00e-06	0	43	0	411041792	20	4934
2026-01-15 11:33:00.50	228.26	27.12	-30.1	-33.1	13.9	2.20e-06	0	43	0	412090368	20	5070
2026-01-15 11:33:01.50	228.51	27.22	-30.3	-33.5	13.7	6.80e-06	0	43	0	414187520	20	5200
2026-01-15 11:33:02.51	228.77	27.32	-30.4	-33.8	13.4	1.44e-05	0	43	0	416284672	20	5332
2026-01-15 11:33:03.51	229.03	27.42	-30.5	-34.1	13.3	1.44e-05	0	43	0	418381824	20	5449
2026-01-15 11:33:04.51	229.29	27.52	-30.6	-33.8	13.1	1.44e-05	0	44	0	420478976	21	5245
2026-01-15 11:33:05.51	229.55	27.62	-30.8	-34.5	12.7	4.95e-05	0	43	0	421527552	21	5518
2026-01-15 11:33:06.51	229.81	27.73	-30.9	-34.8	12.5	1.62e-04	0	43	0	423624704	21	5631
2026-01-15 11:33:07.52	230.08	27.83	-30.7	-34.2	12.8	1.02e-04	0	43	0	425721856	21	5389
2026-01-15 11:33:08.52	230.35	27.93	-30.7	-34.2	12.8	5.72e-05	0	43	0	427819008	21	5388
2026-01-15 11:33:09.52	230.61	28.03	-30.8	-34.4	12.7	5.03e-05	0	43	0	429916160	21	5459
2026-01-15 11:33:10.51	230.88	28.13	-30.9	-34.7	12.6	9.30e-05	0	43	0	430964736	21	5571
2026-01-15 11:33:11.52	231.15	28.23	-30.9	-34.9	12.4	1.26e-04	0	43	0	433061888	21	5670
2026-01-15 11:33:12.51	231.42	28.32	-31.0	-34.5	12.3	1.69e-04	0	43	0	435159040	22	5404
2026-01-15 11:33:13.52	231.70	28.42	-31.1	-34.7	12.2	1.73e-04	0	44	0	437256192	22	5496
2026-01-15 11:33:14.52	231.98	28.52	-31.0	-34.6	12.3	2.36e-04	0	43	0	438304768	22	5447
2026-01-15 11:33:15.53	232.26	28.62	-31.0	-34.5	12.3	1.79e-04	0	43	0	440401920	22	5387
2026-01-15 11:33:16.53	232.54	28.72	-31.1	-34.7	12.2	2.17e-04	0	43	0	442499072	22	5461
2026-01-15 11:33:17.53	232.82	28.82	-31.3	-35.3	11.9	2.16e-04	0	43	0	444596224	22	5717
2026-01-15 11:33:18.53	233.10	28.91	-31.4	-35.7	11.6	7.26e-04	0	43	0	446693376	22	5891
2026-01-15 11:33:19.53	233.38	29.01	-31.5	-35.6	11.2	7.28e-04	0	43	0	447741952	23	5754
2026-01-15 11:33:20.53	233.67	29.11	-31.6	-36.0	11.0	2.16e-03	0	43	0	449839104	23	5919
2026-01-15 11:33:21.53	233.96	29.20	-31.9	-36.7	10.4	3.31e-03	0	44	0	451936256	23	6298
2026-01-15 11:33:22.53	234.25	29.30	-32.0	-36.7	10.1	6.61e-03	0	43	0	454033408	24	6179
2026-01-15 11:33:23.54	234.54	29.39	-32.1	-37.1	9.7	9.30e-03	0	43	0	456130560	24	6400
2026-01-15 11:33:24.54	234.83	29.49	-32.2	-37.5	9.5	1.23e-02	0	43	0	457179136	24	6597
2026-01-15 11:33:25.54	235.13	29.58	-32.2	-37.6	9.5	1.54e-02	0	43	0	459276288	24	6638
2026-01-15 11:33:26.54	235.42	29.67	-32.2	-37.5	9.5	1.38e-02	0	44	0	461373440	24	6561
2026-01-15 11:33:27.55	235.72	29.77	-32.2	-37.4	9.5	1.43e-02	0	43	0	463470592	24	6558
2026-01-15 11:33:28.56	236.03	29.86	-32.2	-37.4	9.6	1.35e-02	0	43	0	465567744	24	6563
2026-01-15 11:33:29.56	236.33	29.95	-32.3	-37.9	9.2	1.76e-02	0	44	0	466616320	24	6830
2026-01-15 11:33:30.56	236.63	30.04	-32.5	-38.5	8.8	2.69e-02	0	44	0	468713472	24	7164
2026-01-15 11:33:31.56	236.93	30.13	-32.6	-38.5	8.3	4.43e-02	0	43	0	470810624	25	7084
2026-01-15 11:33:32.56	237.24	30.22	-32.7	-38.7	8.1	5.29e-02	0	43	0	472907776	25	7224
2026-01-15 11:33:33.56	237.55	30.31	-32.7	-39.1	7.9	7.66e-02	0	43	0	473956352	25	7496
2026-01-15 11:33:34.55	237.85	30.40	-32.8	-39.1	7.9	7.56e-02	0	44	0	476053504	25	7512
2026-01-15 11:33:35.56	238.17	30.49	-32.8	-39.5	7.6	1.03e-01	0	43	0	478150656	25	7723
2026-01-15 11:33:36.56	238.48	30.58	-32.8	-39.5	7.6	8.26e-02	0	43	0	480247808	25	7749
2026-01-15 11:33:37.55	238.79	30.66	-32.7	-39.0	8.0	9.29e-02	0	43	0	482344960	25	7418
2026-01-15 11:33:38.56	239.11	30.75	-32.5	-38.1	8.7	5.55e-02	0	43	0	483393536	25	6823
2026-01-15 11:33:39.56	239.43	30.83	-32.3	-37.0	9.5	1.80e-02	0	43	0	485490688	25	6242
2026-01-15 11:33:40.56	239.75	30.92	-32.0	-36.0	10.3	9.10e-03	0	43	0	487587840	25	5731
2026-01-15 11:33:41.56	240.07	31.00	-31.9	-35.6	10.6	4.76e-03	0	43	0	489684992	25	5539
2026-01-15 11:33:42.56	240.39	31.08	-31.9	-35.6	10.6	3.60e-03	0	43	0	491782144	25	5531
2026-01-15 11:33:43.56	240.71	31.17	-32.0	-36.2	10.2	5.28e-03	0	43	0	492830720	25	5817
2026-01-15 11:33:44.56	241.04	31.25	-32.1	-36.4	10.0	6.62e-03	0	43	0	494927872	25	5892
2026-01-15 11:33:45.57	241.37	31.33	-32.0	-36.1	10.2	7.04e-03	0	43	0	497025024	25	5765
2026-01-15 11:33:46.57	241.70	31.41	-31.7	-35.5	11.0	3.12e-03	0	43	0	499122176	24	5588
2026-01-15 11:33:47.56	242.03	31.49	-31.5	-34.9	11.5	1.21e-03	0	43	0	500170752	24	5317
2026-01-15 11:33:48.56	242.36	31.57	-31.2	-34.6	12.1	5.48e-04	0	43	0	502267904	23	5280
2026-01-15 11:33:49.56	242.69	31.64	-31.1	-34.3	12.3	2.14e-04	0	43	0	504365056	23	5168
2026-01-15 11:33:50.57	243.03	31.72	-31.1	-34.2	12.4	1.75e-04	0	43	0	506462208	23	5121
2026-01-15 11:33:51.57	243.37	31.80	-31.1	-34.2	12.4	2.28e-04	0	43	0	508559360	23	5126
2026-01-15 11:33:52.57	243.71	31.87	-31.1	-34.2	12.4	1.37e-04	0	43	0	510656512	23	5130
2026-01-15 11:33:53.56	244.04	31.95	-31.2	-34.5	12.1	2.05e-04	0	43	0	511705088	23	5241
2026-01-15 11:33:54.56	244.38	32.02	-31.2	-34.5	12.1	2.55e-04	0	43	0	513802240	23	5245
2026-01-15 11:33:55.56	244.73	32.09	-31.3	-34.6	12.1	2.68e-04	0	43	0	515899392	23	5292
2026-01-15 11:33:56.56	245.07	32.16	-31.2	-34.6	12.1	2.71e-04	0	43	0	517996544	23	5283
2026-01-15 11:33:57.56	245.42	32.23	-31.2	-34.5	12.1	3.04e-04	0	43	0	519045120	23	5260
2026-01-15 11:33:58.56	245.76	32.30	-31.0	-33.8	12.6	1.75e-04	0	43	0	521142272	23	4988
2026-01-15 11:33:59.54	246.11	32.37	-30.9	-33.7	12.7	8.16e-05	0	44	0	523239424	23	4928
2026-01-15 11:34:00.54	246.46	32.44	-31.0	-33.7	12.7	6.33e-05	0	43	0	525336576	23	4952
2026-01-15 11:34:01.54	246.81	32.50	-30.9	-33.7	12.6	8.31e-05	0	43	0	527433728	23	4956
2026-01-15 11:34:02.54	247.16	32.57	-30.9	-33.7	12.7	8.23e-05	0	43	0	528482304	23	4958
2026-01-15 11:34:03.54	247.51	32.63	-30.9	-33.7	12.7	7.17e-05	0	44	0	530579456	23	4931
2026-01-15 11:34:04.54	247.87	32.70	-30.8	-33.4	12.9	6.02e-05	0	43	0	532676608	23	4830
2026-01-15 11:34:05.54	248.23	32.76	-30.9	-33.5	12.8	4.34e-05	0	43	0	534773760	23	4886
2026-01-15 11:34:06.55	248.59	32.82	-31.0	-33.8	12.6	6.40e-05	0	43	0	536870912	23	4990
2026-01-15 11:34:07.55	248.95	32.88	-31.0	-33.7	12.7	1.14e-04	0	43	0	537919488	23	4958
2026-01-15 11:34:08.56	249.31	32.94	-30.9	-33.5	12.8	5.26e-05	0	43	0	540016640	23	4888
2026-01-15 11:34:09.56	249.67	33.00	-31.0	-33.9	12.5	8.23e-05	0	43	0	542113792	23	5007
2026-01-15 11:34:10.56	250.04	33.05	-31.1	-34.1	12.4	1.06e-04	0	43	0	544210944	23	5094
2026-01-15 11:34:11.56	250.40	33.11	-31.2	-34.5	12.2	1.67e-04	0	43	0	545259520	23	5242
2026-01-15 11:34:12.56	250.77	33.16	-31.3	-34.7	12.0	2.94e-04	0	43	0	547356672	23	5342
2026-01-15 11:34:13.56	251.14	33.21	-31.4	-35.0	11.8	4.45e-04	0	43	0	549453824	23	5479
2026-01-15 11:34:14.57	251.51	33.27	-31.7	-35.9	11.2	8.46e-04	0	43	0	551550976	23	5871
2026-01-15 11:34:15.57	251.88	33.32	-31.7	-36.0	11.1	1.91e-03	0	44	0	553648128	23	5926
2026-01-15 11:34:16.58	252.25	33.37	-31.7	-35.9	11.1	1.43e-03	0	43	0	554696704	23	5874
2026-01-15 11:34:17.58	252.62	33.42	-31.8	-36.3	10.8	1.63e-03	0	43	0	556793856	23	6078
2026-01-15 11:34:18.58	252.99	33.46	-32.0	-36.9	10.5	3.94e-03	0	44	0	558891008	23	6332
2026-01-15 11:34:19.58	253.37	33.51	-32.0	-36.8	10.1	4.37e-03	0	43	0	560988160	24	6187
2026-01-15 11:34:20.59	253.75	33.55	-32.1	-37.0	10.0	8.33e-03	0	43	0	563085312	24	6293
2026-01-15 11:34:21.58	254.12	33.59	-32.1	-36.7	10.2	7.42e-03	0	43	0	564133888	24	6153
2026-01-15 11:34:22.59	254.50	33.64	-31.9	-36.2	10.6	3.64e-03	0	43	0	566231040	24	5880
2026-01-15 11:34:23.59	254.88	33.68	-31.7	-35.6	11.0	1.66e-03	0	43	0	568328192	24	5634
2026-01-15 11:34:24.59	255.25	33.72	-31.7	-35.6	11.1	1.62e-03	0	43	0	570425344	24	5599
2026-01-15 11:34:25.59	255.63	33.75	-31.8	-35.8	10.9	2.18e-03	0	43	0	572522496	24	5694
2026-01-15 11:34:26.59	256.01	33.79	-31.9	-36.1	10.7	2.26e-03	0	44	0	573571072	24	5830
2026-01-15 11:34:27.59	256.39	33.83	-32.0	-36.4	10.5	3.89e-03	0	43	0	575668224	24	5981
2026-01-15 11:34:28.59	256.78	33.86	-32.0	-36.5	10.4	3.95e-03	0	43	0	577765376	24	6047
2026-01-15 11:34:29.59	257.16	33.89	-31.9	-36.2	10.6	5.39e-03	0	43	0	579862528	24	5907
2026-01-15 11:34:30.60	257.55	33.92	-31.7	-35.5	11.1	1.81e-03	0	43	0	581959680	24	5568
2026-01-15 11:34:31.60	257.93	33.95	-31.5	-34.7	11.7	8.03e-04	0	43	0	583008256	24	5222
2026-01-15 11:34:32.60	258.31	33.98	-31.4	-34.4	11.9	4.45e-04	0	43	0	585105408	24	5125
2026-01-15 11:34:33.60	258.70	34.01	-31.5	-34.9	11.6	7.08e-04	0	43	0	587202560	24	5301
2026-01-15 11:34:34.61	259.09	34.03	-31.6	-35.2	11.4	9.90e-04	0	43	0	589299712	24	5429
2026-01-15 11:34:35.61	259.48	34.06	-31.7	-35.3	11.3	1.02e-03	0	43	0	590348288	24	5497
2026-01-15 11:34:36.61	259.86	34.08	-31.7	-35.4	11.2	1.14e-03	0	43	0	592445440	24	5530
2026-01-15 11:34:37.61	260.25	34.10	-31.6	-35.2	11.3	1.32e-03	0	43	0	594542592	24	5449
2026-01-15 11:34:38.62	260.64	34.12	-31.5	-34.8	11.6	7.94e-04	0	43	0	596639744	24	5254
2026-01-15 11:34:39.62	261.03	34.14	-31.4	-34.7	11.7	6.38e-04	0	43	0	598736896	24	5212
2026-01-15 11:34:40.62	261.42	34.16	-31.5	-34.8	11.6	5.85e-04	0	43	0	599785472	24	5250
2026-01-15 11:34:41.62	261.81	34.17	-31.6	-35.3	11.3	1.02e-03	0	43	0	601882624	24	5481
2026-01-15 11:34:42.62	262.20	34.19	-31.8	-35.7	11.1	1.53e-03	0	43	0	603979776	24	5653
2026-01-15 11:34:43.62	262.59	34.20	-31.7	-35.5	11.2	1.81e-03	0	43	0	606076928	24	5558
2026-01-15 11:34:44.63	262.98	34.21	-31.5	-34.9	11.5	9.96e-04	0	43	0	608174080	24	5312
2026-01-15 11:34:45.63	263.37	34.22	-31.3	-34.3	12.0	4.29e-04	0	43	0	609222656	24	5066
2026-01-15 11:34:46.63	263.76	34.23	-31.3	-34.6	12.1	2.93e-04	0	44	0	611319808	23	5293
2026-01-15 11:34:47.63	264.15	34.23	-31.2	-34.5	12.2	2.55e-04	0	44	0	613416960	23	5253
2026-01-15 11:34:48.62	264.54	34.24	-31.3	-34.8	12.0	2.20e-04	0	43	0	615514112	23	5370
2026-01-15 11:34:49.63	264.93	34.24	-31.5	-35.2	11.8	5.10e-04	0	43	0	617611264	23	5519
2026-01-15 11:34:50.62	265.32	34.25	-31.5	-35.4	11.6	5.16e-04	0	43	0	618659840	23	5608
2026-01-15 11:34:51.63	265.71	34.25	-31.8	-36.1	11.1	1.15e-03	0	43	0	620756992	23	5960
2026-01-15 11:34:52.63	266.11	34.25	-31.8	-36.2	11.0	2.33e-03	0	43	0	622854144	23	5976
2026-01-15 11:34:53.62	266.49	34.24	-31.6	-35.8	11.3	1.54e-03	0	44	0	624951296	23	5792
2026-01-15 11:34:54.63	266.89	34.24	-31.5	-35.4	11.6	8.31e-04	0	43	0	625999872	23	5601
2026-01-15 11:34:55.62	267.27	34.24	-31.5	-35.3	11.6	6.45e-04	0	43	0	628097024	23	5584
2026-01-15 11:34:56.62	267.66	34.23	-31.4	-35.1	11.8	4.62e-04	0	43	0	630194176	23	5492
2026-01-15 11:34:57.62	268.05	34.22	-31.3	-34.6	12.2	4.63e-04	0	44	0	632291328	23	5272
2026-01-15 11:34:58.62	268.44	34.21	-31.2	-34.5	12.3	1.93e-04	0	44	0	634388480	23	5216
2026-01-15 11:34:59.62	268.83	34.20	-31.3	-34.7	12.1	2.54e-04	0	43	0	635437056	23	5319
2026-01-15 11:35:00.61	269.22	34.19	-31.3	-34.6	12.1	2.88e-04	0	44	0	637534208	23	5281
2026-01-15 11:35:01.62	269.61	34.18	-31.2	-34.4	12.3	2.09e-04	0	43	0	639631360	23	5188
2026-01-15 11:35:02.61	270.00	34.16	-31.0	-33.7	12.9	7.55e-05	0	44	0	641728512	23	4919
2026-01-15 11:35:03.61	270.39	34.15	-30.8	-33.3	13.0	3.96e-05	0	44	0	643825664	23	4783
2026-01-15 11:35:04.60	270.77	34.13	-30.7	-33.5	13.2	3.66e-05	0	44	0	644874240	22	4961
2026-01-15 11:35:05.60	271.16	34.11	-30.7	-33.3	13.3	1.67e-05	0	43	0	646971392	22	4893
2026-01-15 11:35:06.60	271.55	34.09	-30.7	-33.4	13.2	2.51e-05	0	43	0	649068544	22	4940
2026-01-15 11:35:07.61	271.94	34.07	-30.7	-33.6	13.2	2.59e-05	0	44	0	651165696	22	4987
2026-01-15 11:35:08.61	272.32	34.04	-30.9	-34.1	12.7	4.73e-05	0	44	0	653262848	22	5198
2026-01-15 11:35:09.61	272.71	34.02	-31.3	-35.3	12.1	1.82e-04	0	43	0	654311424	22	5667
2026-01-15 11:35:10.61	273.09	33.99	-31.7	-36.0	11.1	5.67e-04	0	44	0	656408576	23	5885
2026-01-15 11:35:11.61	273.48	33.96	-31.9	-36.5	10.8	2.51e-03	0	43	0	658505728	23	6133
2026-01-15 11:35:12.61	273.86	33.93	-31.8	-36.4	10.9	3.09e-03	0	44	0	660602880	23	6072
2026-01-15 11:35:13.61	274.24	33.90	-31.6	-35.5	11.5	1.62e-03	0	43	0	661651456	23	5672
2026-01-15 11:35:14.61	274.63	33.87	-31.5	-35.4	11.6	8.46e-04	0	44	0	663748608	23	5616
2026-01-15 11:35:15.61	275.01	33.84	-31.5	-35.3	11.6	6.77e-04	0	43	0	665845760	23	5598
2026-01-15 11:35:16.61	275.39	33.80	-31.5	-35.3	11.6	8.05e-04	0	43	0	667942912	23	5559
2026-01-15 11:35:17.61	275.77	33.77	-31.6	-35.5	11.5	6.13e-04	0	43	0	670040064	23	5675
2026-01-15 11:35:18.61	276.15	33.73	-31.7	-35.8	11.2	1.38e-03	0	43	0	671088640	23	5811
2026-01-15 11:35:19.61	276.53	33.69	-31.8	-36.1	11.0	1.46e-03	0	43	0	673185792	23	5963
2026-01-15 11:35:20.61	276.90	33.65	-31.8	-36.1	11.1	2.01e-03	0	44	0	675282944	23	5927
2026-01-15 11:35:21.61	277.28	33.61	-31.4	-35.1	11.8	1.02e-03	0	43	0	677380096	23	5477
2026-01-15 11:35:22.61	277.65	33.57	-31.4	-34.9	11.9	4.00e-04	0	44	0	679477248	23	5419
2026-01-15 11:35:23.61	278.03	33.52	-31.6	-35.7	11.5	5.86e-04	0	44	0	680525824	23	5730
2026-01-15 11:35:24.61	278.40	33.48	-31.8	-36.2	11.0	1.27e-03	0	44	0	682622976	23	5988
2026-01-15 11:35:25.61	278.77	33.43	-31.8	-36.4	10.9	2.31e-03	0	44	0	684720128	23	6069
2026-01-15 11:35:26.62	279.15	33.39	-31.8	-36.3	11.0	2.27e-03	0	44	0	686817280	23	6009
2026-01-15 11:35:27.62	279.52	33.34	-32.0	-36.9	10.5	2.99e-03	0	43	0	687865856	23	6312
2026-01-15 11:35:28.61	279.88	33.29	-31.9	-36.2	10.7	4.01e-03	0	44	0	689963008	24	5892
2026-01-15 11:35:29.61	280.25	33.24	-31.9	-36.0	10.8	2.81e-03	0	44	0	692060160	24	5806
2026-01-15 11:35:30.61	280.62	33.18	-32.0	-36.4	10.6	3.45e-03	0	43	0	694157312	24	5955
2026-01-15 11:35:31.61	280.98	33.13	-32.1	-36.9	10.2	4.41e-03	0	43	0	696254464	24	6214
2026-01-15 11:35:32.61	281.35	33.08	-32.1	-36.9	10.1	6.38e-03	0	43	0	697303040	24	6218
2026-01-15 11:35:33.61	281.71	33.02	-32.1	-36.9	10.1	6.52e-03	0	44	0	699400192	24	6213
2026-01-15 11:35:34.61	282.07	32.96	-31.9	-36.1	10.7	4.34e-03	0	43	0	701497344	24	5821
2026-01-15 11:35:35.61	282.43	32.91	-31.6	-35.1	11.5	1.79e-03	0	44	0	703594496	24	5367
2026-01-15 11:35:36.61	282.79	32.85	-31.5	-34.8	11.7	5.62e-04	0	43	0	705691648	24	5263
2026-01-15 11:35:37.60	283.15	32.79	-31.5	-34.9	11.6	6.78e-04	0	43	0	706740224	24	5285
2026-01-15 11:35:38.61	283.51	32.72	-31.7	-35.4	11.2	8.77e-04	0	43	0	708837376	24	5531
2026-01-15 11:35:39.61	283.86	32.66	-31.8	-35.6	11.0	1.93e-03	0	43	0	710934528	24	5623
2026-01-15 11:35:40.61	284.22	32.60	-31.9	-36.0	10.8	1.91e-03	0	43	0	713031680	24	5777
2026-01-15 11:35:41.60	284.57	32.53	-31.8	-35.9	10.9	2.87e-03	0	43	0	715128832	24	5727
2026-01-15 11:35:42.61	284.92	32.47	-31.7	-35.4	11.2	1.66e-03	0	43	0	716177408	24	5522
2026-01-15 11:35:43.61	285.27	32.40	-31.6	-35.1	11.4	8.92e-04	0	44	0	718274560	24	5379
2026-01-15 11:35:44.61	285.62	32.33	-31.7	-35.3	11.3	9.03e-04	0	43	0	720371712	24	5493
2026-01-15 11:35:45.62	285.97	32.26	-31.7	-35.6	11.0	1.68e-03	0	43	0	722468864	24	5602
2026-01-15 11:35:46.62	286.31	32.20	-31.8	-35.7	11.0	1.64e-03	0	43	0	723517440	24	5666
2026-01-15 11:35:47.62	286.66	32.12	-31.8	-35.9	10.9	2.46e-03	0	43	0	725614592	24	5739
2026-01-15 11:35:48.62	287.00	32.05	-31.8	-35.8	10.9	2.10e-03	0	43	0	727711744	24	5701
2026-01-15 11:35:49.63	287.35	31.98	-31.8	-35.6	11.1	2.01e-03	0	43	0	729808896	24	5619
2026-01-15 11:35:50.63	287.68	31.91	-31.7	-35.5	11.2	1.62e-03	0	43	0	731906048	24	5552
2026-01-15 11:35:51.63	288.02	31.83	-31.7	-35.3	11.4	1.70e-03	0	44	0	732954624	24	5456
2026-01-15 11:35:52.63	288.36	31.76	-31.5	-34.7	11.7	8.12e-04	0	43	0	735051776	24	5231
2026-01-15 11:35:53.63	288.69	31.68	-31.4	-34.3	12.0	4.16e-04	0	44	0	737148928	24	5077
2026-01-15 11:35:54.63	289.03	31.60	-31.3	-34.3	12.0	3.20e-04	0	44	0	739246080	24	5068
2026-01-15 11:35:55.63	289.36	31.53	-31.3	-34.3	12.0	3.20e-04	0	43	0	741343232	24	5040
2026-01-15 11:35:56.63	289.69	31.45	-31.4	-34.3	12.0	2.94e-04	0	43	0	742391808	24	5076
2026-01-15 11:35:57.63	290.02	31.37	-31.4	-34.5	11.8	3.92e-04	0	43	0	744488960	24	5133
2026-01-15 11:35:58.63	290.34	31.29	-31.6	-35.2	11.4	5.58e-04	0	43	0	746586112	24	5448
2026-01-15 11:35:59.63	290.67	31.21	-31.9	-35.9	10.9	1.86e-03	0	43	0	748683264	24	5753
2026-01-15 11:36:00.63	290.99	31.13	-32.0	-36.5	10.5	3.51e-03	0	43	0	749731840	24	6036
2026-01-15 11:36:01.63	291.31	31.04	-32.0	-36.3	10.5	4.38e-03	0	43	0	751828992	24	5940
2026-01-15 11:36:02.63	291.64	30.96	-31.8	-35.8	11.0	2.50e-03	0	44	0	753926144	24	5702
2026-01-15 11:36:03.64	291.96	30.88	-31.7	-35.5	11.1	1.53e-03	0	44	0	756023296	24	5567
2026-01-15 11:36:04.64	292.27	30.79	-31.9	-36.0	10.9	1.58e-03	0	43	0	758120448	24	5771
2026-01-15 11:36:05.64	292.59	30.71	-31.9	-36.0	10.8	2.97e-03	0	43	0	759169024	24	5780
2026-01-15 11:36:06.64	292.90	30.62	-31.8	-35.8	10.9	2.23e-03	0	43	0	761266176	24	5705
2026-01-15 11:36:07.64	293.22	30.53	-31.8	-35.7	11.1	1.78e-03	0	43	0	763363328	24	5625
2026-01-15 11:36:08.65	293.53	30.45	-31.7	-35.4	11.3	1.39e-03	0	43	0	765460480	24	5501
2026-01-15 11:36:09.65	293.84	30.36	-31.6	-35.2	11.4	1.05e-03	0	43	0	767557632	24	5429
2026-01-15 11:36:10.65	294.15	30.27	-31.7	-35.3	11.4	9.66e-04	0	43	0	768606208	24	5449
2026-01-15 11:36:11.66	294.45	30.18	-31.7	-35.3	11.4	1.05e-03	0	43	0	770703360	24	5463
2026-01-15 11:36:12.66	294.76	30.09	-31.7	-35.6	11.2	1.21e-03	0	43	0	772800512	24	5594
2026-01-15 11:36:13.67	295.06	30.00	-32.0	-36.3	10.7	2.59e-03	0	43	0	774897664	24	5919
2026-01-15 11:36:14.67	295.36	29.91	-32.0	-36.5	10.5	3.92e-03	0	43	0	776994816	24	6012
2026-01-15 11:36:15.67	295.66	29.82	-32.1	-36.7	10.3	5.24e-03	0	43	0	778043392	24	6131
2026-01-15 11:36:16.67	295.96	29.73	-32.0	-36.5	10.4	4.70e-03	0	43	0	780140544	24	6035
2026-01-15 11:36:17.68	296.26	29.63	-32.0	-36.2	10.6	3.41e-03	0	43	0	782237696	24	5905
2026-01-15 11:36:18.67	296.55	29.54	-32.1	-36.6	10.4	3.81e-03	0	43	0	784334848	24	6094
2026-01-15 11:36:19.67	296.84	29.45	-32.0	-36.5	10.4	4.78e-03	0	43	0	786432000	24	6047
2026-01-15 11:36:20.68	297.13	29.35	-32.0	-36.3	10.6	3.84e-03	0	43	0	787480576	24	5913
2026-01-15 11:36:21.67	297.42	29.26	-31.7	-35.3	11.3	1.90e-03	0	43	0	789577728	24	5475
2026-01-15 11:36:22.67	297.71	29.16	-31.4	-34.6	11.8	7.35e-04	0	43	0	791674880	24	5164
2026-01-15 11:36:23.68	298.00	29.07	-31.2	-34.4	12.3	3.02e-04	0	43	0	793772032	23	5192
2026-01-15 11:36:24.67	298.28	28.97	-31.1	-34.0	12.7	1.14e-04	0	43	0	794820608	23	5043
2026-01-15 11:36:25.67	298.56	28.88	-31.1	-33.9	12.6	8.16e-05	0	43	0	796917760	23	5013
2026-01-15 11:36:26.67	298.84	28.78	-31.2	-34.5	12.3	9.30e-05	0	43	0	799014912	23	5228
2026-01-15 11:36:27.67	299.12	28.68	-31.5	-35.3	11.7	4.44e-04	0	43	0	801112064	23	5564
2026-01-15 11:36:28.67	299.40	28.59	-31.5	-35.4	11.5	7.11e-04	0	44	0	803209216	23	5638
2026-01-15 11:36:29.68	299.67	28.49	-31.5	-35.4	11.6	6.61e-04	0	43	0	804257792	23	5603
2026-01-15 11:36:30.68	299.95	28.39	-31.4	-35.1	11.8	7.45e-04	0	43	0	806354944	23	5477
2026-01-15 11:36:31.68	300.22	28.29	-31.4	-35.0	11.9	3.68e-04	0	43	0	808452096	23	5425
2026-01-15 11:36:32.68	300.49	28.19	-31.5	-35.3	11.7	4.38e-04	0	43	0	810549248	23	5564
2026-01-15 11:36:33.68	300.76	28.09	-31.7	-35.8	11.4	7.23e-04	0	43	0	812646400	23	5799
2026-01-15 11:36:34.69	301.03	27.99	-31.8	-36.2	11.0	1.68e-03	0	43	0	813694976	23	5980
2026-01-15 11:36:35.69	301.29	27.89	-31.6	-35.5	11.5	1.50e-03	0	44	0	815792128	23	5669
2026-01-15 11:36:36.68	301.56	27.80	-31.2	-34.5	12.2	4.97e-04	0	44	0	817889280	23	5245
2026-01-15 11:36:37.69	301.82	27.69	-30.9	-33.5	12.9	1.22e-04	0	43	0	819986432	23	4865
2026-01-15 11:36:38.69	302.08	27.59	-30.8	-33.7	13.1	2.21e-05	0	44	0	822083584	22	5016
2026-01-15 11:36:39.69	302.34	27.49	-30.7	-33.5	13.2	2.21e-05	0	44	0	823132160	22	4971
2026-01-15 11:36:40.70	302.60	27.39	-30.9	-34.1	12.9	3.50e-05	0	43	0	825229312	22	5192
2026-01-15 11:36:41.69	302.85	27.29	-31.2	-34.7	12.4	1.44e-04	0	43	0	827326464	22	5445
2026-01-15 11:36:42.70	303.11	27.19	-31.2	-34.9	12.3	1.77e-04	0	43	0	829423616	22	5494
2026-01-15 11:36:43.69	303.36	27.09	-31.0	-34.4	12.6	1.51e-04	0	43	0	830472192	22	5308
2026-01-15 11:36:44.69	303.61	26.99	-30.7	-33.4	13.3	4.04e-05	0	43	0	832569344	22	4917
2026-01-15 11:36:45.69	303.86	26.89	-30.4	-32.7	13.8	7.00e-07	0	44	0	834666496	22	4666
2026-01-15 11:36:46.69	304.11	26.78	-30.6	-33.2	13.5	3.80e-06	0	43	0	836763648	22	4842
2026-01-15 11:36:47.70	304.36	26.68	-30.8	-33.6	13.1	2.36e-05	0	44	0	838860800	22	5012
2026-01-15 11:36:48.71	304.61	26.58	-31.3	-35.1	12.2	1.11e-04	0	43	0	839909376	22	5600
2026-01-15 11:36:49.70	304.85	26.48	-31.7	-35.9	11.2	8.37e-04	0	44	0	842006528	23	5838
2026-01-15 11:36:50.70	305.09	26.37	-32.0	-36.8	10.5	2.37e-03	0	43	0	844103680	23	6289
2026-01-15 11:36:51.70	305.33	26.27	-31.8	-35.9	10.8	3.57e-03	0	44	0	846200832	24	5748
2026-01-15 11:36:52.71	305.57	26.17	-31.5	-34.9	11.5	1.28e-03	0	43	0	848297984	24	5325
2026-01-15 11:36:53.71	305.81	26.06	-31.3	-34.5	12.2	4.55e-04	0	43	0	849346560	23	5258
2026-01-15 11:36:54.71	306.04	25.96	-31.1	-34.0	12.5	1.73e-04	0	44	0	851443712	23	5055
2026-01-15 11:36:55.72	306.28	25.86	-31.1	-34.3	12.4	1.40e-04	0	43	0	853540864	23	5147
2026-01-15 11:36:56.71	306.51	25.75	-31.2	-34.4	12.3	2.27e-04	0	44	0	855638016	23	5222
2026-01-15 11:36:57.71	306.74	25.65	-31.4	-35.0	11.8	2.24e-04	0	44	0	857735168	23	5459
2026-01-15 11:36:58.71	306.97	25.55	-31.3	-34.7	12.0	4.58e-04	0	43	0	858783744	23	5341
2026-01-15 11:36:59.71	307.20	25.44	-31.0	-33.7	12.7	1.24e-04	0	43	0	860880896	23	4935
2026-01-15 11:37:00.72	307.43	25.34	-30.5	-33.1	13.5	2.74e-05	0	43	0	862978048	22	4802
2026-01-15 11:37:01.72	307.66	25.23	-30.3	-32.4	13.9	3.80e-06	0	43	0	865075200	22	4576
2026-01-15 11:37:02.73	307.88	25.13	-30.4	-32.6	13.8	5.30e-06	0	43	0	867172352	22	4638
2026-01-15 11:37:03.74	308.11	25.03	-30.5	-32.9	13.6	6.80e-06	0	43	0	868220928	22	4749
2026-01-15 11:37:04.74	308.33	24.92	-30.9	-34.0	12.9	1.75e-05	0	43	0	870318080	22	5138
2026-01-15 11:37:05.75	308.55	24.82	-31.1	-34.5	12.5	9.76e-05	0	43	0	872415232	22	5350
2026-01-15 11:37:06.75	308.77	24.71	-31.1	-34.6	12.5	1.25e-04	0	44	0	874512384	22	5405
2026-01-15 11:37:07.76	308.99	24.61	-30.8	-33.9	12.9	1.06e-04	0	44	0	876609536	22	5112
2026-01-15 11:37:08.76	309.20	24.50	-30.4	-32.8	13.7	1.52e-05	0	44	0	877658112	22	4709
2026-01-15 11:37:09.76	309.42	24.40	-30.2	-32.7	14.0	2.20e-06	0	43	0	879755264	21	4802
2026-01-15 11:37:10.76	309.63	24.30	-30.2	-32.6	14.1	1.50e-06	0	43	0	881852416	21	4746
2026-01-15 11:37:11.76	309.84	24.19	-30.2	-32.6	14.1	0.00e+00	0	44	0	883949568	21	4751
2026-01-15 11:37:12.76	310.05	24.09	-30.5	-33.3	13.6	4.50e-06	0	44	0	884998144	21	5010
2026-01-15 11:37:13.76	310.26	23.99	-30.6	-33.9	13.3	2.28e-05	0	43	0	887095296	21	5213
2026-01-15 11:37:14.75	310.46	23.88	-30.7	-34.1	13.0	2.67e-05	0	43	0	889192448	21	5315
2026-01-15 11:37:15.75	310.67	23.78	-30.6	-33.9	13.2	3.35e-05	0	44	0	891289600	21	5215
2026-01-15 11:37:16.75	310.87	23.68	-30.4	-33.1	13.7	1.37e-05	0	43	0	893386752	21	4948
2026-01-15 11:37:17.75	311.08	23.57	-30.2	-32.7	14.0	1.50e-06	0	44	0	894435328	21	4792
2026-01-15 11:37:18.76	311.28	23.47	-30.3	-32.8	13.9	9.10e-06	0	43	0	896532480	21	4830
2026-01-15 11:37:19.76	311.48	23.36	-30.5	-33.6	13.4	6.10e-06	0	44	0	898629632	21	5103
2026-01-15 11:37:20.77	311.68	23.26	-30.7	-34.1	13.0	2.13e-05	0	43	0	900726784	21	5323
2026-01-15 11:37:21.77	311.88	23.16	-30.8	-34.5	12.8	5.72e-05	0	43	0	902823936	21	5462
2026-01-15 11:37:22.77	312.08	23.05	-31.0	-34.9	12.5	9.91e-05	0	43	0	903872512	21	5658
2026-01-15 11:37:23.77	312.27	22.95	-31.0	-34.4	12.5	1.09e-04	0	44	0	905969664	22	5309
2026-01-15 11:37:24.77	312.47	22.85	-30.9	-34.2	12.6	1.15e-04	0	44	0	908066816	22	5249
2026-01-15 11:37:25.78	312.66	22.74	-30.8	-33.9	12.9	6.94e-05	0	44	0	910163968	22	5118
2026-01-15 11:37:26.78	312.85	22.64	-30.7	-33.6	13.0	4.34e-05	0	43	0	912261120	22	5018
2026-01-15 11:37:27.79	313.05	22.54	-30.7	-33.6	13.0	4.11e-05	0	43	0	913309696	22	5036
2026-01-15 11:37:28.79	313.24	22.43	-30.6	-33.3	13.2	3.58e-05	0	44	0	915406848	22	4914
2026-01-15 11:37:29.78	313.42	22.33	-30.8	-33.9	12.9	3.20e-05	0	43	0	917504000	22	5124
2026-01-15 11:37:30.79	313.61	22.23	-30.7	-33.5	13.1	7.17e-05	0	44	0	919601152	22	4973
2026-01-15 11:37:31.79	313.80	22.13	-30.5	-32.9	13.5	1.90e-05	0	43	0	920649728	22	4779
2026-01-15 11:37:32.79	313.98	22.02	-30.3	-32.5	13.7	6.80e-06	0	43	0	922746880	22	4632
2026-01-15 11:37:33.79	314.16	21.92	-30.2	-32.6	14.0	4.50e-06	0	43	0	924844032	21	4751
2026-01-15 11:37:34.79	314.35	21.82	-30.1	-32.5	14.0	2.20e-06	0	44	0	926941184	21	4740
2026-01-15 11:37:35.79	314.53	21.72	-29.9	-31.9	14.4	4.50e-06	0	43	0	929038336	21	4543
2026-01-15 11:37:36.80	314.71	21.61	-29.7	-31.8	14.8	7.00e-07	0	43	0	931135488	20	4620
2026-01-15 11:37:37.80	314.89	21.51	-29.5	-31.4	15.0	1.50e-06	0	43	0	932184064	20	4476
2026-01-15 11:37:38.81	315.07	21.41	-29.5	-31.3	15.1	0.00e+00	0	43	0	934281216	20	4465
2026-01-15 11:37:39.82	315.24	21.31	-29.6	-31.7	14.8	0.00e+00	0	43	0	936378368	20	4579
2026-01-15 11:37:40.82	315.42	21.21	-29.5	-31.5	14.9	7.00e-07	0	44	0	938475520	20	4515
2026-01-15 11:37:41.82	315.59	21.11	-29.7	-32.0	14.6	0.00e+00	0	43	0	939524096	20	4681
2026-01-15 11:37:42.83	315.77	21.00	-29.6	-31.7	14.8	7.00e-07	0	44	0	941621248	20	4570
2026-01-15 11:37:43.83	315.94	20.90	-29.5	-31.3	15.0	0.00e+00	0	43	0	943718400	20	4461
2026-01-15 11:37:44.83	316.11	20.80	-29.4	-31.1	15.2	0.00e+00	0	44	0	945815552	20	4406
2026-01-15 11:37:45.83	316.28	20.70	-29.3	-31.0	15.2	0.00e+00	0	44	0	947912704	20	4367
2026-01-15 11:37:46.84	316.45	20.60	-29.4	-31.1	15.2	0.00e+00	0	44	0	948961280	20	4403
2026-01-15 11:37:47.84	316.62	20.50	-29.4	-31.1	15.3	0.00e+00	0	44	0	951058432	20	4374
2026-01-15 11:37:48.83	316.78	20.40	-29.3	-31.0	15.2	0.00e+00	0	44	0	953155584	20	4357
2026-01-15 11:37:49.84	316.95	20.30	-29.4	-31.5	15.3	0.00e+00	0	44	0	955252736	19	4614
2026-01-15 11:37:50.84	317.11	20.20	-29.3	-31.5	15.3	0.00e+00	0	43	0	957349888	19	4612
2026-01-15 11:37:51.83	317.28	20.10	-29.4	-31.6	15.2	0.00e+00	0	43	0	958398464	19	4637
2026-01-15 11:37:52.84	317.44	20.00	-29.4	-31.6	15.2	0.00e+00	0	43	0	960495616	19	4641
2026-01-15 11:37:53.84	317.60	19.90	-29.5	-31.8	15.1	0.00e+00	0	44	0	962592768	19	4706
2026-01-15 11:37:54.84	317.76	19.80	-29.5	-31.9	15.1	0.00e+00	0	43	0	964689920	19	4730
2026-01-15 11:37:55.84	317.92	19.71	-29.6	-32.2	14.8	0.00e+00	0	44	0	966787072	19	4841
2026-01-15 11:37:56.85	318.08	19.61	-29.5	-31.8	15.1	0.00e+00	0	44	0	967835648	19	4715
2026-01-15 11:37:57.86	318.24	19.51	-29.4	-31.6	15.2	0.00e+00	0	43	0	969932800	19	4659
2026-01-15 11:37:58.85	318.39	19.41	-29.4	-31.6	15.2	7.00e-07	0	43	0	972029952	19	4647
2026-01-15 11:37:59.85	318.55	19.31	-29.5	-31.9	15.0	0.00e+00	0	43	0	974127104	19	4756
2026-01-15 11:38:00.86	318.71	19.21	-29.4	-31.6	15.2	0.00e+00	0	44	0	975175680	19	4647
2026-01-15 11:38:01.87	318.86	19.11	-29.4	-31.7	15.1	0.00e+00	0	43	0	977272832	19	4680
2026-01-15 11:38:02.87	319.01	19.02	-29.4	-31.7	15.1	0.00e+00	0	43	0	979369984	19	4670
2026-01-15 11:38:03.87	319.16	18.92	-29.4	-31.8	15.1	0.00e+00	0	44	0	981467136	19	4705
2026-01-15 11:38:04.88	319.32	18.82	-29.7	-32.3	14.8	0.00e+00	0	43	0	983564288	19	4882
2026-01-15 11:38:05.88	319.47	18.73	-29.7	-32.3	14.7	1.50e-06	0	44	0	984612864	19	4888
2026-01-15 11:38:06.89	319.62	18.63	-29.7	-32.4	14.7	7.00e-07	0	44	0	986710016	19	4916
2026-01-15 11:38:07.89	319.76	18.53	-30.0	-33.2	14.2	3.00e-06	0	43	0	988807168	19	5190
2026-01-15 11:38:08.90	319.91	18.43	-29.8	-32.3	14.4	1.50e-06	0	44	0	990904320	20	4781
2026-01-15 11:38:09.90	320.06	18.34	-29.8	-32.3	14.3	1.50e-06	0	44	0	993001472	20	4797
2026-01-15 11:38:10.90	320.20	18.24	-29.9	-32.6	14.2	1.50e-06	0	44	0	994050048	20	4876
2026-01-15 11:38:11.90	320.35	18.15	-29.8	-32.3	14.3	7.00e-07	0	43	0	996147200	20	4788
2026-01-15 11:38:12.91	320.49	18.05	-29.9	-32.4	14.3	0.00e+00	0	44	0	998244352	20	4825
2026-01-15 11:38:13.91	320.63	17.95	-29.8	-32.3	14.4	1.50e-06	0	44	0	1000341504	20	4766
2026-01-15 11:38:14.91	320.78	17.86	-29.8	-32.3	14.3	1.50e-06	0	43	0	1002438656	20	4789
2026-01-15 11:38:15.91	320.92	17.76	-29.8	-32.2	14.4	1.50e-06	0	43	0	1003487232	20	4764
2026-01-15 11:38:16.91	321.06	17.67	-29.8	-32.2	14.4	7.00e-07	0	44	0	1005584384	20	4743
2026-01-15 11:38:17.91	321.20	17.58	-30.0	-32.7	14.1	7.00e-07	0	43	0	1007681536	20	4905
2026-01-15 11:38:18.91	321.33	17.48	-30.0	-32.6	14.1	7.00e-07	0	43	0	1009778688	20	4893
2026-01-15 11:38:19.91	321.47	17.39	-29.9	-32.5	14.2	1.50e-06	0	43	0	1011875840	20	4870
2026-01-15 11:38:20.91	321.61	17.29	-30.0	-32.7	14.1	3.00e-06	0	43	0	1012924416	20	4934
2026-01-15 11:38:21.91	321.74	17.20	-30.0	-32.8	14.0	1.50e-06	0	43	0	1015021568	20	4949
2026-01-15 11:38:22.91	321.88	17.11	-30.0	-32.9	13.9	3.00e-06	0	43	0	1017118720	20	4986
2026-01-15 11:38:23.91	322.01	17.01	-30.0	-32.8	14.0	1.50e-06	0	43	0	1019215872	20	4951
2026-01-15 11:38:24.91	322.15	16.92	-30.1	-32.9	14.0	3.80e-06	0	44	0	1021313024	20	4991
2026-01-15 11:38:25.90	322.28	16.83	-30.0	-32.9	14.0	1.50e-06	0	43	0	1022361600	20	4988
2026-01-15 11:38:26.90	322.41	16.74	-30.0	-32.8	14.0	1.50e-06	0	43	0	1024458752	20	4963
2026-01-15 11:38:27.91	322.54	16.64	-30.2	-33.2	13.7	9.10e-06	0	44	0	1026555904	20	5124
2026-01-15 11:38:28.91	322.67	16.55	-30.2	-33.2	13.7	5.30e-06	0	44	0	1028653056	20	5121
2026-01-15 11:38:29.92	322.80	16.46	-30.3	-33.5	13.5	8.30e-06	0	44	0	1029701632	20	5225
2026-01-15 11:38:30.92	322.93	16.37	-30.4	-33.8	13.3	1.60e-05	0	44	0	1031798784	20	5337
2026-01-15 11:38:31.92	323.06	16.28	-30.4	-33.9	13.3	1.67e-05	0	43	0	1033895936	20	5362
2026-01-15 11:38:32.92	323.19	16.18	-30.5	-33.8	13.0	3.05e-05	0	43	0	1035993088	21	5211
2026-01-15 11:38:33.92	323.31	16.09	-30.7	-34.2	12.7	7.17e-05	0	43	0	1038090240	21	5384
2026-01-15 11:38:34.91	323.44	16.00	-30.7	-34.2	12.7	7.55e-05	0	43	0	1039138816	21	5388
2026-01-15 11:38:35.91	323.56	15.91	-30.7	-34.2	12.6	8.31e-05	0	44	0	1041235968	21	5407
2026-01-15 11:38:36.92	323.69	15.82	-30.7	-34.3	12.6	7.55e-05	0	44	0	1043333120	21	5416
2026-01-15 11:38:37.92	323.81	15.73	-30.9	-34.7	12.4	1.24e-04	0	43	0	1045430272	21	5602
2026-01-15 11:38:38.92	323.93	15.64	-30.8	-34.5	12.5	1.50e-04	0	44	0	1047527424	21	5527
2026-01-15 11:38:39.92	324.06	15.55	-30.8	-34.5	12.4	1.05e-04	0	43	0	1048576000	21	5528
2026-01-15 11:38:40.92	324.18	15.46	-30.8	-34.6	12.4	1.52e-04	0	43	0	1050673152	21	5563
2026-01-15 11:38:41.92	324.30	15.37	-30.9	-34.8	12.2	2.30e-04	0	44	0	1052770304	21	5648
2026-01-15 11:38:42.93	324.42	15.28	-30.9	-34.7	12.3	1.69e-04	0	44	0	1054867456	21	5597
2026-01-15 11:38:43.93	324.54	15.19	-30.9	-34.7	12.3	2.20e-04	0	44	0	1055916032	21	5623
2026-01-15 11:38:44.94	324.66	15.10	-30.8	-34.5	12.4	1.53e-04	0	43	0	1058013184	21	5520
2026-01-15 11:38:45.94	324.78	15.02	-30.9	-34.7	12.3	1.37e-04	0	44	0	1060110336	21	5615
2026-01-15 11:38:46.94	324.89	14.93	-30.7	-34.3	12.6	1.46e-04	0	44	0	1062207488	21	5417
2026-01-15 11:38:47.94	325.01	14.84	-30.6	-33.9	12.9	5.95e-05	0	43	0	1064304640	21	5253
2026-01-15 11:38:48.94	325.13	14.75	-30.6	-34.0	12.8	6.86e-05	0	44	0	1065353216	21	5298
2026-01-15 11:38:49.94	325.24	14.66	-30.5	-33.5	13.1	4.73e-05	0	43	0	1067450368	21	5127
2026-01-15 11:38:50.94	325.36	14.58	-30.4	-33.4	13.2	2.28e-05	0	44	0	1069547520	21	5074
2026-01-15 11:38:51.94	325.47	14.49	-30.5	-33.6	12.9	3.58e-05	0	43	0	1071644672	21	5175
2026-01-15 11:38:52.94	325.58	14.40	-30.4	-33.3	13.2	2.97e-05	0	43	0	1073741824	21	5062
2026-01-15 11:38:53.94	325.70	14.32	-30.4	-33.5	13.1	2.05e-05	0	43	0	1074790400	21	5126
2026-01-15 11:38:54.94	325.81	14.23	-30.4	-33.5	13.1	2.67e-05	0	43	0	1076887552	21	5108
2026-01-15 11:38:55.95	325.92	14.14	-30.5	-33.6	13.0	3.05e-05	0	43	0	1078984704	21	5150
2026-01-15 11:38:56.95	326.03	14.06	-30.6	-34.1	12.7	5.11e-05	0	44	0	1081081856	21	5364
2026-01-15 11:38:57.95	326.14	13.97	-30.6	-34.0	12.7	7.09e-05	0	43	0	1083179008	21	5337
2026-01-15 11:38:58.95	326.25	13.88	-30.7	-34.2	12.6	8.62e-05	0	44	0	1084227584	21	5393
2026-01-15 11:38:59.95	326.36	13.80	-30.9	-34.7	12.2	1.36e-04	0	43	0	1086324736	21	5625
2026-01-15 11:39:00.95	326.47	13.71	-30.7	-34.3	12.5	1.75e-04	0	44	0	1088421888	21	5435
2026-01-15 11:39:01.95	326.58	13.63	-30.8	-34.5	12.4	9.99e-05	0	43	0	1090519040	21	5510
2026-01-15 11:39:02.95	326.68	13.54	-30.7	-34.3	12.5	1.48e-04	0	43	0	1092616192	21	5467
2026-01-15 11:39:03.96	326.79	13.46	-30.7	-34.2	12.6	1.02e-04	0	43	0	1093664768	21	5417
2026-01-15 11:39:04.95	326.90	13.37	-30.8	-34.6	12.3	1.81e-04	0	43	0	1095761920	21	5589
2026-01-15 11:39:05.96	327.00	13.29	-30.5	-33.8	12.8	1.05e-04	0	43	0	1097859072	21	5255
2026-01-15 11:39:06.96	327.11	13.21	-30.5	-33.6	12.9	3.96e-05	0	44	0	1099956224	21	5171
2026-01-15 11:39:07.96	327.21	13.12	-30.5	-33.8	12.8	5.41e-05	0	44	0	1101004800	21	5235
2026-01-15 11:39:08.97	327.32	13.04	-30.3	-33.2	13.2	2.74e-05	0	44	0	1103101952	21	5008
2026-01-15 11:39:09.97	327.42	12.95	-30.3	-33.2	13.2	1.44e-05	0	43	0	1105199104	21	5036
2026-01-15 11:39:10.97	327.52	12.87	-30.3	-33.3	13.1	2.89e-05	0	43	0	1107296256	21	5052
2026-01-15 11:39:11.98	327.63	12.79	-30.4	-33.6	13.0	4.34e-05	0	43	0	1109393408	21	5153
2026-01-15 11:39:12.98	327.73	12.70	-30.4	-33.5	12.9	4.80e-05	0	43	0	1110441984	21	5143
2026-01-15 11:39:13.98	327.83	12.62	-30.6	-34.2	12.5	6.17e-05	0	43	0	1112539136	21	5402
2026-01-15 11:39:14.98	327.93	12.54	-30.6	-34.0	12.6	9.38e-05	0	44	0	1114636288	21	5354
2026-01-15 11:39:15.98	328.03	12.46	-30.8	-34.6	12.2	1.68e-04	0	43	0	1116733440	21	5569
2026-01-15 11:39:16.99	328.13	12.37	-30.7	-34.3	12.4	1.74e-04	0	44	0	1118830592	21	5474
2026-01-15 11:39:17.99	328.23	12.29	-30.9	-34.9	12.0	1.81e-04	0	44	0	1119879168	21	5713
2026-01-15 11:39:18.99	328.33	12.21	-30.8	-34.6	12.2	2.75e-04	0	43	0	1121976320	21	5590
2026-01-15 11:39:20.00	328.43	12.13	-30.7	-34.4	12.3	2.33e-04	0	43	0	1124073472	21	5515
2026-01-15 11:39:21.00	328.52	12.05	-30.8	-34.6	12.2	1.81e-04	0	43	0	1126170624	21	5589
2026-01-15 11:39:22.00	328.62	11.97	-30.7	-34.4	12.2	2.02e-04	0	43	0	1128267776	21	5523
2026-01-15 11:39:23.00	328.72	11.89	-30.8	-34.7	12.1	2.23e-04	0	43	0	1129316352	21	5618
2026-01-15 11:39:24.01	328.81	11.80	-30.9	-34.9	11.9	2.77e-04	0	44	0	1131413504	21	5722
2026-01-15 11:39:25.01	328.91	11.72	-30.7	-34.3	12.3	1.89e-04	0	43	0	1133510656	21	5460
2026-01-15 11:39:26.01	329.00	11.64	-30.6	-34.0	12.5	1.22e-04	0	43	0	1135607808	21	5353
2026-01-15 11:39:27.01	329.10	11.56	-30.5	-33.8	12.7	1.02e-04	0	44	0	1137704960	21	5272
2026-01-15 11:39:28.00	329.19	11.49	-30.4	-33.6	12.8	6.40e-05	0	43	0	1138753536	21	5179
2026-01-15 11:39:29.01	329.28	11.40	-30.5	-33.8	12.7	8.23e-05	0	44	0	1140850688	21	5280
2026-01-15 11:39:30.01	329.38	11.33	-30.4	-33.4	12.9	6.79e-05	0	43	0	1142947840	21	5124
2026-01-15 11:39:31.02	329.47	11.25	-30.3	-33.3	13.0	4.04e-05	0	43	0	1145044992	21	5070
2026-01-15 11:39:32.02	329.56	11.17	-30.4	-33.5	12.8	5.34e-05	0	43	0	1146093568	21	5156
2026-01-15 11:39:33.02	329.65	11.09	-30.3	-33.2	13.0	4.57e-05	0	44	0	1148190720	21	5050
2026-01-15 11:39:34.03	329.75	11.01	-30.4	-33.5	12.8	3.66e-05	0	43	0	1150287872	21	5170
2026-01-15 11:39:35.03	329.84	10.93	-30.4	-33.5	12.8	5.56e-05	0	43	0	1152385024	21	5153
2026-01-15 11:39:36.03	329.93	10.85	-30.4	-33.6	12.8	5.79e-05	0	44	0	1154482176	21	5197
2026-01-15 11:39:37.03	330.02	10.77	-30.5	-33.8	12.6	7.93e-05	0	43	0	1155530752	21	5258
2026-01-15 11:39:38.04	330.11	10.69	-30.5	-33.9	12.6	1.04e-04	0	44	0	1157627904	21	5310
2026-01-15 11:39:39.04	330.20	10.62	-30.5	-33.9	12.5	1.03e-04	0	44	0	1159725056	21	5335
2026-01-15 11:39:40.04	330.28	10.54	-30.6	-34.2	12.3	1.62e-04	0	44	0	1161822208	21	5460
2026-01-15 11:39:41.04	330.37	10.46	-30.7	-34.4	12.2	1.94e-04	0	44	0	1163919360	21	5524
2026-01-15 11:39:42.04	330.46	10.39	-30.8	-34.7	11.9	2.82e-04	0	44	0	1164967936	21	5676
2026-01-15 11:39:43.04	330.55	10.31	-30.7	-34.4	12.2	2.74e-04	0	44	0	1167065088	21	5514
2026-01-15 11:39:44.04	330.63	10.23	-30.6	-34.2	12.3	2.14e-04	0	44	0	1169162240	21	5449
2026-01-15 11:39:45.04	330.72	10.16	-30.6	-34.2	12.3	2.04e-04	0	43	0	1171259392	21	5428
2026-01-15 11:39:46.04	330.80	10.08	-30.6	-34.1	12.4	1.46e-04	0	44	0	1173356544	21	5391
2026-01-15 11:39:47.04	330.89	10.00	-30.6	-34.3	12.2	1.84e-04	0	43	0	1174405120	21	5498
2026-01-15 11:39:48.04	330.97	9.93	-30.5	-34.0	12.4	1.81e-04	0	43	0	1176502272	21	5374
2026-01-15 11:39:49.03	331.06	9.85	-30.5	-34.0	12.4	1.25e-04	0	44	0	1178599424	21	5356
2026-01-15 11:39:50.04	331.14	9.78	-30.5	-33.9	12.5	1.07e-04	0	44	0	1180696576	21	5339
2026-01-15 11:39:51.04	331.23	9.70	-30.5	-33.9	12.5	1.29e-04	0	43	0	1181745152	21	5309
2026-01-15 11:39:52.03	331.31	9.63	-30.6	-34.1	12.3	1.37e-04	0	43	0	1183842304	21	5425
2026-01-15 11:39:53.04	331.39	9.55	-30.6	-34.3	12.2	1.78e-04	0	44	0	1185939456	21	5476
2026-01-15 11:39:54.03	331.47	9.48	-30.6	-34.2	12.3	1.99e-04	0	43	0	1188036608	21	5445
2026-01-15 11:39:55.03	331.56	9.40	-30.7	-34.4	12.1	1.87e-04	0	43	0	1190133760	21	5526
2026-01-15 11:39:56.03	331.64	9.33	-30.7	-34.4	12.1	2.51e-04	0	43	0	1191182336	21	5549
2026-01-15 11:39:57.03	331.72	9.25	-30.7	-34.6	12.0	3.46e-04	0	44	0	1193279488	21	5619
2026-01-15 11:39:58.03	331.80	9.18	-30.7	-34.6	11.9	2.94e-04	0	44	0	1195376640	21	5618
2026-01-15 11:39:59.04	331.88	9.10	-30.6	-34.2	12.2	2.77e-04	0	43	0	1197473792	21	5456
2026-01-15 11:40:00.03	331.96	9.03	-30.6	-34.1	12.3	1.72e-04	0	44	0	1199570944	21	5410
2026-01-15 11:40:01.03	332.04	8.96	-30.6	-34.3	12.2	2.20e-04	0	44	0	1200619520	21	5491
2026-01-15 11:40:02.03	332.12	8.88	-30.6	-34.3	12.1	2.34e-04	0	43	0	1202716672	21	5504
2026-01-15 11:40:03.04	332.20	8.81	-30.6	-34.2	12.2	2.60e-04	0	44	0	1204813824	21	5472
2026-01-15 11:40:04.05	332.28	8.73	-30.7	-34.6	11.9	3.61e-04	0	43	0	1206910976	21	5640
2026-01-15 11:40:05.05	332.36	8.66	-30.7	-34.6	11.9	3.71e-04	0	43	0	1209008128	21	5622
2026-01-15 11:40:06.05	332.43	8.59	-30.8	-34.8	11.8	3.36e-04	0	43	0	1210056704	21	5712
2026-01-15 11:40:07.05	332.51	8.52	-30.7	-34.6	11.9	4.69e-04	0	43	0	1212153856	21	5637
2026-01-15 11:40:08.06	332.59	8.44	-30.7	-34.7	11.8	4.32e-04	0	43	0	1214251008	21	5686
2026-01-15 11:40:09.06	332.67	8.37	-30.7	-34.7	11.8	4.48e-04	0	43	0	1216348160	21	5680
2026-01-15 11:40:10.06	332.74	8.30	-30.9	-35.1	11.4	8.54e-04	0	43	0	1218445312	21	5879
2026-01-15 11:40:11.05	332.82	8.23	-30.8	-35.0	11.6	6.96e-04	0	44	0	1219493888	21	5808
2026-01-15 11:40:12.06	332.89	8.15	-30.7	-34.7	11.7	7.35e-04	0	43	0	1221591040	21	5694
2026-01-15 11:40:13.06	332.97	8.08	-30.7	-34.7	11.7	5.51e-04	0	44	0	1223688192	21	5680
2026-01-15 11:40:14.05	333.04	8.01	-30.8	-34.8	11.7	5.06e-04	0	44	0	1225785344	21	5743
2026-01-15 11:40:15.05	333.12	7.94	-30.8	-34.8	11.6	6.09e-04	0	43	0	1226833920	21	5747
2026-01-15 11:40:16.05	333.19	7.87	-30.7	-34.7	11.7	6.02e-04	0	44	0	1228931072	21	5680
2026-01-15 11:40:17.06	333.27	7.80	-30.7	-34.6	11.8	5.31e-04	0	44	0	1231028224	21	5641
2026-01-15 11:40:18.07	333.34	7.73	-30.7	-34.6	11.7	5.04e-04	0	44	0	1233125376	21	5667
2026-01-15 11:40:19.07	333.41	7.66	-30.7	-34.7	11.6	4.70e-04	0	43	0	1235222528	21	5719
2026-01-15 11:40:20.06	333.49	7.59	-30.7	-34.6	11.7	5.26e-04	0	44	0	1236271104	21	5637
2026-01-15 11:40:21.07	333.56	7.52	-30.8	-35.0	11.4	8.26e-04	0	43	0	1238368256	21	5826
2026-01-15 11:40:22.08	333.63	7.44	-30.8	-34.9	11.5	7.52e-04	0	44	0	1240465408	21	5810
2026-01-15 11:40:23.08	333.70	7.37	-30.7	-34.7	11.6	7.10e-04	0	44	0	1242562560	21	5717
2026-01-15 11:40:24.08	333.78	7.30	-30.7	-34.7	11.6	6.38e-04	0	43	0	1244659712	21	5704
2026-01-15 11:40:25.08	333.85	7.23	-30.8	-34.9	11.4	8.97e-04	0	43	0	1245708288	21	5815
2026-01-15 11:40:26.08	333.92	7.17	-30.8	-35.1	11.3	8.81e-04	0	44	0	1247805440	21	5903
2026-01-15 11:40:27.08	333.99	7.10	-30.8	-35.1	11.2	1.28e-03	0	44	0	1249902592	21	5918
2026-01-15 11:40:28.08	334.06	7.03	-33.5	-47.8	3.8	1.49e+00	0	43	104	1250951168	26	18724

#Closed at: 2026-01-15 11:40:28
#Recorded file [1250 MB]: D:/data/31010_260115_142920.dat