passes_logs/2026/01/15/R2M6_AANII_01/R2M6_AANII_01__20260115_053928_FENGYUN_3E_rec.log

#Pass ID: 20260115_053928_FENGYUN 3E
#Satellite: FENGYUN 3E
#Configuration: FENGYUN 3E
#almurnet v.1.7.20240730
#Start time: 2026-01-15 05:39:30

#Version: 2.2.20231116
#Station: R2M6_AANII_01
#Location: 30.233357 lon 59.946436 lat
#TLE: 1 49008U 21062A   26014.30102361 -.00000015  00000+0  13743-4 0  9999
#TLE: 2 49008  98.7489  19.4380 0001989 137.7844 222.3486 14.19884630234745

#Time	Az	El	Level	Level2	SNR	BER	BlckErr	Temp	State	Recorded	gain1	gain2
2026-01-15 05:39:30.16	13.35	7.12	-31.7	-36.3	4.4	8.23e-01	0	41	0	0	23	6120
2026-01-15 05:39:31.17	13.30	7.20	-31.7	-36.0	4.5	8.19e-01	0	41	104	0	23	5929
2026-01-15 05:39:32.17	13.25	7.27	-31.6	-35.8	5.9	3.86e-01	0	41	0	0	23	5809
2026-01-15 05:39:33.17	13.19	7.35	-31.5	-35.9	6.1	2.92e-01	0	41	0	7340032	22	5969
2026-01-15 05:39:34.17	13.14	7.42	-31.6	-36.1	6.0	3.32e-01	0	41	0	14680064	22	6057
2026-01-15 05:39:35.17	13.09	7.49	-31.6	-36.1	6.1	3.06e-01	0	41	0	20971520	22	6032
2026-01-15 05:39:36.16	13.04	7.57	-31.7	-35.9	5.9	4.98e-01	0	41	0	28311552	23	5847
2026-01-15 05:39:37.17	12.99	7.64	-31.4	-35.5	6.4	2.53e-01	0	41	0	35651584	22	5745
2026-01-15 05:39:38.17	12.93	7.72	-30.9	-33.7	7.6	1.31e-01	0	42	0	42991616	22	4990
2026-01-15 05:39:39.18	12.88	7.79	-30.5	-33.1	8.4	6.61e-02	0	41	0	50331648	21	4828
2026-01-15 05:39:40.19	12.83	7.87	-29.8	-31.7	9.6	1.65e-02	0	42	0	56623104	20	4463
2026-01-15 05:39:41.19	12.77	7.95	-29.4	-31.0	10.4	5.91e-03	0	42	0	63963136	19	4336
2026-01-15 05:39:42.20	12.72	8.02	-29.1	-30.7	11.0	2.36e-03	0	42	0	71303168	18	4351
2026-01-15 05:39:43.21	12.66	8.10	-28.5	-29.8	11.8	7.51e-04	0	42	0	78643200	17	4185
2026-01-15 05:39:44.21	12.61	8.17	-28.2	-29.5	12.4	7.20e-04	0	42	0	85983232	16	4188
2026-01-15 05:39:45.21	12.55	8.25	-27.8	-28.7	12.8	5.72e-05	0	42	0	93323264	16	3993
2026-01-15 05:39:46.22	12.50	8.33	-27.5	-28.6	13.1	3.66e-05	0	42	0	100663296	15	4050
2026-01-15 05:39:47.22	12.44	8.40	-27.5	-28.9	13.1	2.74e-05	0	42	0	108003328	14	4248
2026-01-15 05:39:48.23	12.39	8.48	-27.4	-28.8	13.2	3.08e-05	0	42	0	115343360	14	4227
2026-01-15 05:39:49.23	12.33	8.56	-27.5	-29.0	13.1	3.31e-05	0	42	0	122683392	14	4276
2026-01-15 05:39:50.24	12.27	8.64	-27.5	-29.0	13.1	3.54e-05	0	42	0	130023424	14	4265
2026-01-15 05:39:51.24	12.22	8.71	-27.3	-28.5	13.4	1.83e-05	0	42	0	137363456	14	4141
2026-01-15 05:39:52.24	12.16	8.79	-27.5	-28.9	13.2	2.05e-05	0	42	0	143654912	14	4247
2026-01-15 05:39:53.24	12.10	8.87	-27.5	-28.9	13.3	1.71e-05	0	42	0	150994944	14	4233
2026-01-15 05:39:54.24	12.05	8.95	-27.6	-28.6	13.1	3.43e-05	0	42	0	158334976	15	4064
2026-01-15 05:39:55.24	11.99	9.03	-27.4	-28.7	13.4	2.28e-05	0	42	0	165675008	14	4179
2026-01-15 05:39:56.24	11.93	9.10	-27.4	-28.8	13.3	2.86e-05	0	42	0	173015040	14	4203
2026-01-15 05:39:57.24	11.87	9.18	-27.3	-28.4	13.5	6.80e-06	0	42	0	180355072	14	4110
2026-01-15 05:39:58.24	11.81	9.26	-27.2	-28.3	13.6	1.14e-05	0	42	0	187695104	14	4090
2026-01-15 05:39:59.25	11.75	9.34	-27.3	-28.6	13.5	1.48e-05	0	42	0	195035136	14	4160
2026-01-15 05:40:00.25	11.69	9.42	-27.4	-28.8	13.3	1.71e-05	0	42	0	201326592	14	4216
2026-01-15 05:40:01.26	11.63	9.50	-27.3	-28.5	13.5	1.60e-05	0	42	0	208666624	14	4129
2026-01-15 05:40:02.25	11.57	9.58	-27.1	-28.1	13.7	4.50e-06	0	42	0	216006656	14	4032
2026-01-15 05:40:03.25	11.51	9.66	-27.1	-28.0	13.8	6.80e-06	0	42	0	223346688	14	4008
2026-01-15 05:40:04.26	11.45	9.74	-27.2	-28.2	13.7	5.70e-06	0	42	0	230686720	14	4041
2026-01-15 05:40:05.26	11.39	9.82	-27.2	-28.2	13.7	1.02e-05	0	42	0	238026752	14	4054
2026-01-15 05:40:06.27	11.32	9.90	-27.0	-27.9	13.9	3.40e-06	0	42	0	245366784	14	3979
2026-01-15 05:40:07.27	11.26	9.98	-27.1	-28.4	13.8	0.00e+00	0	42	0	252706816	13	4217
2026-01-15 05:40:08.27	11.20	10.07	-27.1	-28.1	13.8	4.50e-06	0	42	0	260046848	14	4009
2026-01-15 05:40:09.27	11.14	10.15	-26.9	-27.7	14.0	6.80e-06	0	42	0	267386880	14	3916
2026-01-15 05:40:10.28	11.07	10.23	-27.0	-28.4	13.9	2.20e-06	0	43	0	274726912	13	4203
2026-01-15 05:40:11.28	11.01	10.31	-26.2	-27.4	12.3	1.10e-06	0	42	0	282066944	13	4154
2026-01-15 05:40:12.29	10.94	10.39	-27.1	-28.5	11.5	8.00e-06	0	43	0	288358400	13	4253
2026-01-15 05:40:13.29	10.88	10.48	-27.2	-28.2	13.7	8.00e-06	0	42	0	295698432	14	4052
2026-01-15 05:40:14.30	10.81	10.56	-27.4	-28.7	13.5	1.60e-05	0	43	0	303038464	14	4178
2026-01-15 05:40:15.30	10.75	10.64	-27.2	-28.3	13.7	4.50e-06	0	42	0	310378496	14	4086
2026-01-15 05:40:16.31	10.68	10.73	-27.3	-28.4	13.6	1.48e-05	0	42	0	317718528	14	4111
2026-01-15 05:40:17.31	10.62	10.81	-27.0	-28.4	13.9	9.10e-06	0	43	0	325058560	13	4199
2026-01-15 05:40:18.31	10.55	10.89	-27.0	-28.3	14.0	2.07e-03	0	43	0	332398592	13	4197
2026-01-15 05:40:19.32	10.48	10.98	-27.1	-27.9	14.0	5.70e-06	0	43	0	339738624	14	3971
2026-01-15 05:40:20.32	10.41	11.06	-26.9	-28.0	14.1	1.99e-03	0	43	0	347078656	13	4108
2026-01-15 05:40:21.33	10.35	11.15	-26.9	-28.0	14.2	0.00e+00	0	43	0	354418688	13	4094
2026-01-15 05:40:22.34	10.28	11.23	-26.8	-27.8	14.3	1.92e-04	0	43	0	361758720	13	4042
2026-01-15 05:40:23.34	10.21	11.32	-26.8	-27.9	14.2	1.84e-03	0	43	0	369098752	13	4083
2026-01-15 05:40:24.35	10.14	11.40	-26.8	-27.7	14.4	1.10e-06	0	43	0	375390208	13	4033
2026-01-15 05:40:25.35	10.07	11.49	-26.8	-27.9	14.2	1.75e-04	0	43	0	382730240	13	4080
2026-01-15 05:40:26.35	10.00	11.57	-26.7	-27.5	14.5	1.84e-03	0	43	0	390070272	13	3988
2026-01-15 05:40:27.35	9.93	11.66	-27.0	-28.2	14.1	1.84e-03	0	43	0	397410304	13	4164
2026-01-15 05:40:28.35	9.86	11.75	-26.8	-27.9	14.2	1.56e-04	0	43	0	404750336	13	4084
2026-01-15 05:40:29.36	9.79	11.83	-26.7	-27.6	14.5	2.20e-06	0	43	0	412090368	13	3988
2026-01-15 05:40:30.35	9.72	11.92	-27.0	-28.3	14.1	1.68e-03	0	43	0	419430400	13	4168
2026-01-15 05:40:31.36	9.64	12.01	-26.9	-28.2	14.1	8.81e-05	0	43	0	426770432	13	4152
2026-01-15 05:40:32.36	9.57	12.09	-26.8	-27.8	14.4	1.73e-03	0	43	0	433061888	13	4048
2026-01-15 05:40:33.36	9.50	12.18	-26.8	-27.8	14.3	1.82e-03	0	43	0	440401920	13	4062
2026-01-15 05:40:34.35	9.43	12.27	-26.7	-27.7	14.4	1.05e-04	0	43	0	447741952	13	4026
2026-01-15 05:40:35.36	9.35	12.36	-26.7	-27.7	14.4	1.90e-03	0	43	0	455081984	13	4024
2026-01-15 05:40:36.36	9.28	12.45	-26.6	-27.4	14.6	1.85e-03	0	43	0	462422016	13	3956
2026-01-15 05:40:37.36	9.20	12.53	-26.7	-27.6	14.5	1.29e-04	0	43	0	469762048	13	3992
2026-01-15 05:40:38.37	9.13	12.62	-26.4	-27.6	14.8	1.78e-03	0	43	0	477102080	12	4096
2026-01-15 05:40:39.37	9.05	12.71	-26.1	-26.8	15.2	0.00e+00	0	43	0	484442112	12	3888
2026-01-15 05:40:40.38	8.97	12.80	-26.4	-27.5	14.9	1.22e-04	0	43	0	491782144	12	4063
2026-01-15 05:40:41.38	8.90	12.89	-26.4	-27.5	14.8	1.65e-03	0	43	0	499122176	12	4087
2026-01-15 05:40:42.39	8.82	12.98	-26.3	-27.2	15.0	5.08e-04	0	43	0	506462208	12	3998
2026-01-15 05:40:43.39	8.74	13.07	-26.2	-27.1	15.1	1.17e-04	0	43	0	513802240	12	3971
2026-01-15 05:40:44.40	8.66	13.17	-25.8	-26.8	14.8	0.00e+00	0	43	0	520093696	12	4071
2026-01-15 05:40:45.40	8.58	13.26	-26.3	-27.3	15.0	1.82e-03	0	43	0	527433728	12	4027
2026-01-15 05:40:46.40	8.50	13.35	-26.1	-26.9	15.2	7.32e-05	0	43	0	534773760	12	3907
2026-01-15 05:40:47.41	8.42	13.44	-26.1	-26.7	15.3	0.00e+00	0	43	0	542113792	12	3875
2026-01-15 05:40:48.41	8.34	13.53	-26.1	-26.8	15.2	0.00e+00	0	43	0	549453824	12	3909
2026-01-15 05:40:49.41	8.26	13.62	-26.0	-26.4	15.5	0.00e+00	0	43	0	556793856	12	3810
2026-01-15 05:40:50.42	8.18	13.72	-26.2	-27.0	15.2	1.05e-03	0	43	0	564133888	12	3955
2026-01-15 05:40:51.42	8.10	13.81	-26.3	-27.3	15.0	0.00e+00	0	43	0	571473920	12	4024
2026-01-15 05:40:52.43	8.02	13.90	-26.4	-27.5	14.9	1.10e-06	0	43	0	578813952	12	4068
2026-01-15 05:40:53.43	7.93	13.99	-26.2	-26.9	15.3	1.35e-04	0	43	0	586153984	12	3917
2026-01-15 05:40:54.44	7.85	14.09	-25.9	-26.4	15.5	0.00e+00	0	43	0	593494016	12	3806
2026-01-15 05:40:55.44	7.76	14.18	-25.9	-26.4	15.6	0.00e+00	0	43	0	599785472	12	3791
2026-01-15 05:40:56.45	7.68	14.28	-26.0	-27.0	15.6	6.06e-05	0	43	0	607125504	11	4051
2026-01-15 05:40:57.45	7.59	14.37	-25.9	-26.9	15.6	0.00e+00	0	43	0	614465536	11	4028
2026-01-15 05:40:58.46	7.51	14.47	-26.0	-27.0	15.6	2.20e-06	0	43	0	621805568	11	4058
2026-01-15 05:40:59.47	7.42	14.56	-25.9	-26.7	15.8	4.50e-06	0	43	0	629145600	11	3974
2026-01-15 05:41:00.47	7.33	14.66	-26.0	-26.5	15.5	0.00e+00	0	43	0	636485632	12	3831
2026-01-15 05:41:01.47	7.25	14.75	-25.8	-26.1	15.7	4.46e-05	0	43	0	643825664	12	3730
2026-01-15 05:41:02.47	7.16	14.85	-26.0	-27.1	15.6	0.00e+00	0	43	0	651165696	11	4062
2026-01-15 05:41:03.48	7.07	14.95	-26.0	-27.0	15.6	0.00e+00	0	43	0	658505728	11	4054
2026-01-15 05:41:04.48	6.98	15.04	-26.1	-27.1	15.5	8.00e-06	0	43	0	665845760	11	4082
2026-01-15 05:41:05.48	6.89	15.14	-25.9	-26.4	15.6	0.00e+00	0	43	0	673185792	12	3793
2026-01-15 05:41:06.49	6.80	15.24	-25.9	-26.8	15.7	0.00e+00	0	43	0	680525824	11	3995
2026-01-15 05:41:07.49	6.71	15.33	-25.9	-26.9	15.7	0.00e+00	0	43	0	686817280	11	4021
2026-01-15 05:41:08.49	6.61	15.43	-25.9	-26.8	15.7	0.00e+00	0	43	0	694157312	11	3997
2026-01-15 05:41:09.50	6.52	15.53	-25.9	-26.9	15.7	0.00e+00	0	43	0	701497344	11	4009
2026-01-15 05:41:10.51	6.43	15.63	-25.7	-26.4	16.0	6.80e-06	0	43	0	708837376	11	3895
2026-01-15 05:41:11.52	6.33	15.73	-25.7	-26.3	16.0	1.36e-04	0	43	0	716177408	11	3886
2026-01-15 05:41:12.52	6.24	15.83	-25.7	-26.5	15.9	0.00e+00	0	43	0	723517440	11	3915
2026-01-15 05:41:13.53	6.14	15.93	-25.9	-26.8	15.8	2.45e-04	0	43	0	730857472	11	3988
2026-01-15 05:41:14.53	6.05	16.03	-25.8	-26.6	15.9	0.00e+00	0	43	0	738197504	11	3952
2026-01-15 05:41:15.53	5.95	16.13	-25.6	-26.1	16.1	0.00e+00	0	43	0	745537536	11	3824
2026-01-15 05:41:16.53	5.85	16.23	-25.4	-25.8	16.3	1.76e-04	0	43	0	752877568	11	3754
2026-01-15 05:41:17.54	5.76	16.33	-25.4	-26.1	16.4	0.00e+00	0	43	0	760217600	10	3938
2026-01-15 05:41:18.55	5.66	16.43	-25.4	-26.2	16.4	0.00e+00	0	43	0	767557632	10	3953
2026-01-15 05:41:19.55	5.56	16.53	-25.4	-26.2	16.4	0.00e+00	0	43	0	773849088	10	3963
2026-01-15 05:41:20.55	5.46	16.63	-25.4	-26.3	16.3	0.00e+00	0	43	0	781189120	10	3976
2026-01-15 05:41:21.55	5.36	16.74	-25.4	-25.7	16.4	0.00e+00	0	43	0	788529152	11	3728
2026-01-15 05:41:22.56	5.25	16.84	-25.4	-25.8	16.3	0.00e+00	0	43	0	795869184	11	3747
2026-01-15 05:41:23.57	5.15	16.94	-25.4	-26.3	16.3	7.89e-05	0	43	0	803209216	10	3977
2026-01-15 05:41:24.57	5.05	17.05	-25.4	-26.3	16.3	0.00e+00	0	43	0	810549248	10	3972
2026-01-15 05:41:25.58	4.95	17.15	-25.3	-26.0	16.5	0.00e+00	0	43	0	817889280	10	3912
2026-01-15 05:41:26.57	4.84	17.25	-25.3	-26.1	16.5	0.00e+00	0	43	0	825229312	10	3916
2026-01-15 05:41:27.57	4.74	17.36	-25.3	-26.0	16.5	0.00e+00	0	43	0	832569344	10	3905
2026-01-15 05:41:28.58	4.63	17.46	-25.2	-25.8	16.6	0.00e+00	0	43	0	839909376	10	3862
2026-01-15 05:41:29.58	4.52	17.57	-25.2	-25.8	16.6	0.00e+00	0	43	0	847249408	10	3860
2026-01-15 05:41:30.59	4.42	17.67	-25.3	-26.0	16.5	0.00e+00	0	43	0	853540864	10	3908
2026-01-15 05:41:31.58	4.31	17.78	-25.0	-25.5	16.8	0.00e+00	0	43	0	860880896	10	3784
2026-01-15 05:41:32.58	4.20	17.88	-25.1	-25.6	16.7	0.00e+00	0	43	0	868220928	10	3809
2026-01-15 05:41:33.58	4.09	17.99	-25.1	-25.6	16.8	0.00e+00	0	43	0	875560960	10	3798
2026-01-15 05:41:34.58	3.98	18.09	-25.2	-25.8	16.7	0.00e+00	0	43	0	882900992	10	3854
2026-01-15 05:41:35.58	3.87	18.20	-25.2	-25.9	16.6	0.00e+00	0	43	0	890241024	10	3873
2026-01-15 05:41:36.59	3.76	18.31	-25.1	-25.6	16.8	0.00e+00	0	43	0	897581056	10	3798
2026-01-15 05:41:37.59	3.65	18.42	-25.2	-25.7	16.7	0.00e+00	0	43	0	904921088	10	3835
2026-01-15 05:41:38.59	3.53	18.52	-25.1	-25.6	16.8	0.00e+00	0	43	0	912261120	10	3797
2026-01-15 05:41:39.58	3.42	18.63	-25.0	-25.8	16.9	0.00e+00	0	44	0	918552576	9	3965
2026-01-15 05:41:40.59	3.30	18.74	-25.0	-25.8	16.9	0.00e+00	0	43	0	925892608	9	3972
2026-01-15 05:41:41.59	3.19	18.85	-24.9	-25.6	17.0	0.00e+00	0	43	0	933232640	9	3903
2026-01-15 05:41:42.59	3.07	18.96	-25.0	-25.4	16.9	0.00e+00	0	43	0	940572672	10	3751
2026-01-15 05:41:43.60	2.95	19.07	-24.9	-25.2	17.0	0.00e+00	0	43	0	947912704	10	3708
2026-01-15 05:41:44.61	2.83	19.18	-24.9	-25.7	17.0	0.00e+00	0	43	0	955252736	9	3932
2026-01-15 05:41:45.61	2.71	19.29	-24.9	-25.7	17.0	0.00e+00	0	43	0	962592768	9	3944
2026-01-15 05:41:46.62	2.59	19.40	-24.7	-25.2	17.2	0.00e+00	0	43	0	969932800	9	3828
2026-01-15 05:41:47.62	2.47	19.51	-24.7	-25.2	17.2	0.00e+00	0	44	0	977272832	9	3816
2026-01-15 05:41:48.62	2.35	19.62	-24.0	-24.5	16.8	0.00e+00	0	43	0	984612864	9	3854
2026-01-15 05:41:49.62	2.22	19.74	-24.8	-25.5	13.3	0.00e+00	0	43	0	991952896	9	3881
2026-01-15 05:41:50.62	2.10	19.85	-24.8	-25.4	15.8	3.83e-04	0	43	0	999292928	9	3867
2026-01-15 05:41:51.63	1.97	19.96	-24.8	-25.4	17.2	0.00e+00	0	43	0	1005584384	9	3862
2026-01-15 05:41:52.63	1.85	20.07	-25.1	-26.0	16.8	0.00e+00	0	43	0	1012924416	9	4022
2026-01-15 05:41:53.64	1.72	20.19	-24.8	-25.5	17.2	0.00e+00	0	43	0	1020264448	9	3888
2026-01-15 05:41:54.64	1.59	20.30	-24.8	-25.5	17.1	0.00e+00	0	44	0	1027604480	9	3897
2026-01-15 05:41:55.65	1.46	20.42	-24.9	-25.6	17.1	1.63e-03	0	43	0	1034944512	9	3908
2026-01-15 05:41:56.65	1.33	20.53	-24.9	-25.6	17.1	0.00e+00	0	43	0	1042284544	9	3922
2026-01-15 05:41:57.65	1.20	20.65	-24.6	-25.0	17.4	0.00e+00	0	43	0	1049624576	9	3767
2026-01-15 05:41:58.66	1.07	20.76	-24.5	-24.9	17.4	0.00e+00	0	43	0	1056964608	9	3750
2026-01-15 05:41:59.65	0.94	20.88	-24.6	-25.0	17.4	0.00e+00	0	43	0	1063256064	9	3770
2026-01-15 05:42:00.66	0.80	20.99	-24.4	-24.7	17.6	2.51e-05	0	43	0	1070596096	9	3702
2026-01-15 05:42:01.67	0.66	21.11	-24.4	-25.0	17.6	0.00e+00	0	43	0	1078984704	8	3885
2026-01-15 05:42:02.66	0.53	21.22	-24.2	-24.7	17.8	1.62e-03	0	43	0	1085276160	8	3807
2026-01-15 05:42:03.67	0.39	21.34	-24.2	-24.7	17.8	9.15e-05	0	43	0	1092616192	8	3812
2026-01-15 05:42:04.67	0.25	21.46	-24.1	-24.6	17.9	0.00e+00	0	43	0	1099956224	8	3777
2026-01-15 05:42:05.66	0.12	21.58	-24.2	-24.7	17.8	1.49e-03	0	43	0	1107296256	8	3811
2026-01-15 05:42:06.67	359.97	21.69	-24.1	-24.5	17.9	0.00e+00	0	43	0	1114636288	8	3767
2026-01-15 05:42:07.68	359.83	21.81	-24.1	-24.4	18.0	1.52e-03	0	43	0	1121976320	8	3749
2026-01-15 05:42:08.68	359.69	21.93	-24.3	-24.8	17.8	1.44e-03	0	44	0	1129316352	8	3832
2026-01-15 05:42:09.68	359.55	22.05	-24.4	-25.0	17.7	9.61e-05	0	44	0	1136656384	8	3880
2026-01-15 05:42:10.69	359.40	22.17	-24.4	-25.1	17.6	1.41e-03	0	43	0	1143996416	8	3912
2026-01-15 05:42:11.69	359.25	22.29	-24.5	-25.2	17.6	1.54e-03	0	43	0	1150287872	8	3931
2026-01-15 05:42:12.70	359.10	22.41	-24.4	-25.1	17.7	8.92e-05	0	43	0	1157627904	8	3898
2026-01-15 05:42:13.70	358.96	22.53	-24.6	-24.9	17.4	1.59e-03	0	43	0	1164967936	9	3758
2026-01-15 05:42:14.70	358.81	22.65	-24.7	-25.3	17.3	1.46e-03	0	43	0	1172307968	9	3845
2026-01-15 05:42:15.70	358.66	22.78	-24.7	-25.2	17.4	1.03e-04	0	43	0	1179648000	9	3810
2026-01-15 05:42:16.71	358.50	22.90	-24.8	-25.4	17.2	1.48e-03	0	43	0	1186988032	9	3871
2026-01-15 05:42:17.71	358.35	23.02	-24.7	-25.3	17.3	1.41e-03	0	43	0	1194328064	9	3842
2026-01-15 05:42:18.71	358.20	23.14	-24.5	-24.9	17.5	1.07e-04	0	43	0	1201668096	9	3749
2026-01-15 05:42:19.71	358.04	23.26	-24.6	-25.1	17.4	0.00e+00	0	43	0	1207959552	9	3801
2026-01-15 05:42:20.71	357.88	23.39	-24.4	-24.6	17.6	1.52e-03	0	44	0	1215299584	9	3693
2026-01-15 05:42:21.71	357.73	23.51	-24.3	-24.8	17.8	1.70e-04	0	44	0	1222639616	8	3833
2026-01-15 05:42:22.71	357.57	23.63	-24.3	-24.8	17.8	1.49e-03	0	44	0	1229979648	8	3836
2026-01-15 05:42:23.72	357.40	23.76	-24.0	-24.3	18.1	1.43e-03	0	44	0	1237319680	8	3711
2026-01-15 05:42:24.72	357.24	23.88	-24.1	-24.5	18.0	0.00e+00	0	43	0	1244659712	8	3758
2026-01-15 05:42:25.73	357.08	24.01	-24.1	-24.5	18.0	1.31e-03	0	44	0	1251999744	8	3751
2026-01-15 05:42:26.72	356.91	24.13	-24.1	-24.4	18.0	0.00e+00	0	43	0	1259339776	8	3745
2026-01-15 05:42:27.73	356.75	24.26	-24.1	-24.9	18.0	1.27e-04	0	43	0	1266679808	7	3948
2026-01-15 05:42:28.73	356.58	24.38	-24.0	-24.8	18.0	1.13e-03	0	43	0	1274019840	7	3938
2026-01-15 05:42:29.73	356.41	24.51	-24.1	-24.5	18.0	0.00e+00	0	43	0	1281359872	8	3756
2026-01-15 05:42:30.73	356.24	24.64	-24.1	-24.5	18.0	4.57e-05	0	43	0	1288699904	8	3769
2026-01-15 05:42:31.73	356.07	24.76	-24.1	-24.5	18.0	0.00e+00	0	43	0	1294991360	8	3751
2026-01-15 05:42:32.74	355.90	24.89	-24.3	-25.0	17.8	0.00e+00	0	43	0	1302331392	8	3864
2026-01-15 05:42:33.74	355.72	25.02	-24.3	-24.8	17.9	6.80e-06	0	44	0	1309671424	8	3823
2026-01-15 05:42:34.74	355.55	25.15	-24.1	-24.6	18.0	0.00e+00	0	43	0	1317011456	8	3775
2026-01-15 05:42:35.74	355.37	25.27	-24.1	-24.5	18.0	1.03e-03	0	44	0	1324351488	8	3750
2026-01-15 05:42:36.74	355.19	25.40	-24.1	-24.5	18.0	0.00e+00	0	44	0	1331691520	8	3756
2026-01-15 05:42:37.75	355.01	25.53	-24.1	-24.5	18.0	0.00e+00	0	43	0	1339031552	8	3749
2026-01-15 05:42:38.75	354.83	25.66	-24.2	-24.6	17.9	0.00e+00	0	44	0	1346371584	8	3791
2026-01-15 05:42:39.75	354.64	25.79	-24.4	-25.2	17.7	0.00e+00	0	43	0	1353711616	8	3915
2026-01-15 05:42:40.75	354.46	25.92	-24.4	-25.0	17.8	0.00e+00	0	44	0	1360003072	8	3880
2026-01-15 05:42:41.76	354.27	26.05	-24.4	-25.1	17.7	0.00e+00	0	44	0	1367343104	8	3895
2026-01-15 05:42:42.76	354.08	26.18	-24.4	-25.1	17.7	0.00e+00	0	44	0	1375731712	8	3904
2026-01-15 05:42:43.77	353.89	26.31	-24.5	-25.2	17.7	0.00e+00	0	43	0	1382023168	8	3922
2026-01-15 05:42:44.77	353.70	26.44	-24.5	-24.8	17.6	0.00e+00	0	43	0	1389363200	9	3717
2026-01-15 05:42:45.77	353.51	26.57	-24.4	-24.5	17.8	0.00e+00	0	43	0	1396703232	9	3664
2026-01-15 05:42:46.77	353.31	26.71	-24.3	-24.8	17.9	0.00e+00	0	44	0	1404043264	8	3828
2026-01-15 05:42:47.76	353.12	26.84	-24.2	-24.7	17.9	0.00e+00	0	43	0	1411383296	8	3801
2026-01-15 05:42:48.77	352.92	26.97	-24.1	-24.5	18.0	0.00e+00	0	44	0	1418723328	8	3771
2026-01-15 05:42:49.77	352.72	27.10	-24.2	-24.7	17.9	0.00e+00	0	43	0	1426063360	8	3806
2026-01-15 05:42:50.77	352.52	27.23	-24.0	-24.3	18.2	0.00e+00	0	43	0	1433403392	8	3703
2026-01-15 05:42:51.77	352.32	27.36	-23.8	-23.8	18.4	0.00e+00	0	44	0	1439694848	8	3608
2026-01-15 05:42:52.78	352.11	27.50	-23.8	-24.4	18.3	0.00e+00	0	44	0	1447034880	7	3832
2026-01-15 05:42:53.78	351.90	27.63	-23.9	-24.4	18.3	0.00e+00	0	43	0	1454374912	7	3850
2026-01-15 05:42:54.79	351.70	27.77	-23.9	-24.6	18.2	0.00e+00	0	44	0	1461714944	7	3886
2026-01-15 05:42:55.79	351.49	27.90	-24.1	-24.4	18.1	0.00e+00	0	44	0	1469054976	8	3738
2026-01-15 05:42:56.80	351.27	28.03	-24.1	-24.5	18.1	0.00e+00	0	44	0	1476395008	8	3752
2026-01-15 05:42:57.80	351.06	28.17	-24.0	-24.3	18.1	0.00e+00	0	43	0	1483735040	8	3724
2026-01-15 05:42:58.80	350.84	28.30	-24.0	-24.3	18.2	1.94e-05	0	44	0	1491075072	8	3708
2026-01-15 05:42:59.81	350.62	28.44	-24.0	-24.6	18.2	0.00e+00	0	44	0	1498415104	7	3896
2026-01-15 05:43:00.81	350.41	28.57	-23.9	-24.5	18.3	4.23e-05	0	44	0	1505755136	7	3877
2026-01-15 05:43:01.82	350.18	28.71	-23.9	-24.6	18.2	1.25e-05	0	44	0	1513095168	7	3901
2026-01-15 05:43:02.82	349.96	28.84	-24.1	-24.9	18.1	0.00e+00	0	44	0	1520435200	7	3962
2026-01-15 05:43:03.83	349.73	28.98	-23.9	-24.6	18.2	8.46e-05	0	44	0	1526726656	7	3892
2026-01-15 05:43:04.82	349.51	29.11	-24.0	-24.7	18.2	1.10e-04	0	44	0	1534066688	7	3916
2026-01-15 05:43:05.83	349.28	29.25	-24.1	-24.4	18.1	0.00e+00	0	44	0	1541406720	8	3747
2026-01-15 05:43:06.83	349.05	29.38	-24.0	-24.7	18.2	2.57e-04	0	43	0	1548746752	7	3905
2026-01-15 05:43:07.84	348.82	29.52	-23.8	-24.3	18.4	0.00e+00	0	44	0	1556086784	7	3826
2026-01-15 05:43:08.85	348.58	29.66	-24.0	-24.7	18.2	0.00e+00	0	44	0	1563426816	7	3914
2026-01-15 05:43:09.85	348.34	29.79	-23.7	-24.1	18.5	0.00e+00	0	43	0	1570766848	7	3779
2026-01-15 05:43:10.85	348.10	29.93	-23.7	-24.2	18.4	3.42e-04	0	44	0	1578106880	7	3788
2026-01-15 05:43:11.85	347.86	30.07	-23.6	-23.8	18.6	0.00e+00	0	44	0	1585446912	7	3713
2026-01-15 05:43:12.86	347.62	30.20	-23.7	-24.2	18.5	0.00e+00	0	44	0	1591738368	7	3786
2026-01-15 05:43:13.86	347.37	30.34	-23.6	-23.9	18.6	2.73e-04	0	44	0	1599078400	7	3736
2026-01-15 05:43:14.86	347.13	30.47	-23.7	-24.0	18.5	0.00e+00	0	44	0	1607467008	7	3756
2026-01-15 05:43:15.87	346.88	30.61	-23.8	-24.4	18.4	0.00e+00	0	44	0	1613758464	7	3841
2026-01-15 05:43:16.86	346.63	30.75	-23.7	-24.2	18.5	0.00e+00	0	44	0	1621098496	7	3795
2026-01-15 05:43:17.87	346.37	30.88	-23.7	-24.2	18.5	0.00e+00	0	44	0	1628438528	7	3794
2026-01-15 05:43:18.87	346.12	31.02	-23.8	-24.2	18.4	3.19e-04	0	44	0	1635778560	7	3794
2026-01-15 05:43:19.87	345.86	31.16	-23.7	-24.2	18.5	0.00e+00	0	44	0	1643118592	7	3783
2026-01-15 05:43:20.87	345.60	31.29	-23.7	-24.1	18.5	0.00e+00	0	44	0	1650458624	7	3774
2026-01-15 05:43:21.88	345.34	31.43	-23.7	-24.2	18.5	0.00e+00	0	44	0	1657798656	7	3798
2026-01-15 05:43:22.88	345.07	31.57	-23.7	-24.2	18.5	0.00e+00	0	44	0	1665138688	7	3786
2026-01-15 05:43:23.90	344.80	31.70	-23.8	-24.3	18.4	1.10e-06	0	44	0	1671430144	7	3820
2026-01-15 05:43:24.90	344.53	31.84	-23.8	-24.3	18.4	0.00e+00	0	44	0	1678770176	7	3810
2026-01-15 05:43:25.90	344.26	31.98	-23.9	-24.5	18.3	0.00e+00	0	44	0	1686110208	7	3859
2026-01-15 05:43:26.91	343.99	32.11	-23.7	-24.1	18.5	0.00e+00	0	44	0	1693450240	7	3766
2026-01-15 05:43:27.91	343.71	32.25	-23.8	-24.2	18.5	0.00e+00	0	44	0	1700790272	7	3793
2026-01-15 05:43:28.92	343.43	32.39	-23.7	-24.2	18.5	0.00e+00	0	44	0	1708130304	7	3790
2026-01-15 05:43:29.92	343.15	32.52	-23.8	-24.3	18.4	0.00e+00	0	44	0	1715470336	7	3820
2026-01-15 05:43:30.92	342.87	32.66	-23.7	-24.2	18.5	0.00e+00	0	44	0	1722810368	7	3790
2026-01-15 05:43:31.92	342.58	32.79	-23.7	-24.1	18.5	0.00e+00	0	44	0	1730150400	7	3765
2026-01-15 05:43:32.93	342.29	32.93	-24.0	-24.7	18.2	0.00e+00	0	44	0	1737490432	7	3915
2026-01-15 05:43:33.93	342.00	33.06	-23.8	-24.4	18.4	0.00e+00	0	44	0	1744830464	7	3833
2026-01-15 05:43:34.94	341.71	33.20	-23.7	-24.2	18.5	0.00e+00	0	44	0	1752170496	7	3781
2026-01-15 05:43:35.93	341.42	33.33	-23.8	-24.3	18.4	0.00e+00	0	44	0	1758461952	7	3816
2026-01-15 05:43:36.94	341.12	33.46	-23.9	-24.6	18.3	0.00e+00	0	44	0	1765801984	7	3876
2026-01-15 05:43:37.95	340.81	33.60	-23.6	-23.8	18.7	0.00e+00	0	44	0	1773142016	7	3699
2026-01-15 05:43:38.95	340.51	33.73	-23.4	-23.5	18.9	0.00e+00	0	44	0	1780482048	7	3633
2026-01-15 05:43:39.96	340.20	33.87	-23.4	-23.5	18.9	0.00e+00	0	44	0	1787822080	7	3627
2026-01-15 05:43:40.97	339.89	34.00	-23.6	-23.9	18.6	0.00e+00	0	44	0	1795162112	7	3729
2026-01-15 05:43:41.97	339.58	34.13	-23.1	-22.8	19.2	0.00e+00	0	44	0	1802502144	7	3493
2026-01-15 05:43:42.98	339.27	34.26	-23.5	-24.3	18.7	9.46e-04	0	44	0	1809842176	6	3912
2026-01-15 05:43:43.98	338.95	34.39	-23.4	-24.0	18.8	0.00e+00	0	44	0	1817182208	6	3848
2026-01-15 05:43:44.99	338.63	34.53	-23.7	-24.2	18.5	0.00e+00	0	44	0	1824522240	7	3790
2026-01-15 05:43:45.98	338.32	34.66	-23.6	-23.9	18.7	1.14e-03	0	44	0	1831862272	7	3731
2026-01-15 05:43:46.98	337.99	34.78	-23.7	-24.2	18.5	0.00e+00	0	44	0	1839202304	7	3783
2026-01-15 05:43:47.98	337.67	34.91	-23.9	-24.5	18.4	0.00e+00	0	44	0	1845493760	7	3857
2026-01-15 05:43:48.98	337.34	35.04	-23.8	-24.3	18.4	0.00e+00	0	43	0	1852833792	7	3824
2026-01-15 05:43:49.98	337.01	35.17	-23.5	-23.8	18.7	0.00e+00	0	44	0	1860173824	7	3699
2026-01-15 05:43:50.99	336.67	35.30	-23.4	-23.5	18.9	0.00e+00	0	44	0	1867513856	7	3633
2026-01-15 05:43:51.99	336.34	35.43	-23.4	-23.5	18.9	0.00e+00	0	44	0	1874853888	7	3633
2026-01-15 05:43:53.00	336.00	35.55	-23.5	-23.7	18.7	1.00e-03	0	44	0	1882193920	7	3685
2026-01-15 05:43:54.00	335.65	35.68	-23.5	-23.7	18.8	0.00e+00	0	44	0	1889533952	7	3692
2026-01-15 05:43:55.00	335.31	35.80	-23.8	-24.3	18.5	0.00e+00	0	44	0	1896873984	7	3809
2026-01-15 05:43:56.00	334.96	35.93	-24.0	-24.7	18.3	1.02e-03	0	44	0	1903165440	7	3903
2026-01-15 05:43:57.01	334.61	36.05	-23.9	-24.5	18.4	0.00e+00	0	44	0	1910505472	7	3855
2026-01-15 05:43:58.01	334.26	36.18	-23.9	-24.6	18.3	7.85e-04	0	44	0	1917845504	7	3875
2026-01-15 05:43:59.02	333.90	36.30	-24.1	-24.5	18.2	8.63e-04	0	44	0	1925185536	8	3751
2026-01-15 05:44:00.02	333.55	36.42	-24.3	-24.9	17.9	0.00e+00	0	44	0	1932525568	8	3859
2026-01-15 05:44:01.02	333.19	36.54	-24.1	-24.4	18.2	3.78e-04	0	44	0	1939865600	8	3739
2026-01-15 05:44:02.02	332.82	36.66	-24.3	-24.9	17.9	5.60e-04	0	44	0	1947205632	8	3842
2026-01-15 05:44:03.02	332.46	36.78	-24.0	-24.2	18.3	0.00e+00	0	44	0	1954545664	8	3687
2026-01-15 05:44:04.03	332.09	36.90	-23.8	-24.2	18.5	8.24e-04	0	44	0	1961885696	7	3801
2026-01-15 05:44:05.03	331.72	37.01	-23.7	-24.0	18.6	6.98e-04	0	44	0	1969225728	7	3754
2026-01-15 05:44:06.02	331.35	37.13	-23.9	-24.5	18.4	0.00e+00	0	44	0	1976565760	7	3867
2026-01-15 05:44:07.03	330.97	37.24	-23.8	-24.3	18.5	0.00e+00	0	44	0	1983905792	7	3813
2026-01-15 05:44:08.04	330.58	37.36	-23.6	-23.8	18.7	2.20e-06	0	44	0	1990197248	7	3706
2026-01-15 05:44:09.04	330.20	37.47	-23.4	-23.5	18.8	0.00e+00	0	44	0	1997537280	7	3642
2026-01-15 05:44:10.04	329.82	37.58	-23.4	-23.6	18.8	0.00e+00	0	44	0	2004877312	7	3650
2026-01-15 05:44:11.04	329.43	37.69	-23.8	-24.3	18.5	9.10e-06	0	44	0	2012217344	7	3810
2026-01-15 05:44:12.05	329.04	37.80	-23.6	-23.9	18.6	0.00e+00	0	44	0	2019557376	7	3730
2026-01-15 05:44:13.05	328.65	37.91	-23.8	-24.2	18.5	1.77e-04	0	44	0	2026897408	7	3798
2026-01-15 05:44:14.05	328.25	38.02	-24.1	-24.5	18.1	3.84e-04	0	44	0	2034237440	8	3767
2026-01-15 05:44:15.05	327.86	38.13	-24.5	-25.2	17.7	0.00e+00	0	44	0	2041577472	8	3932
2026-01-15 05:44:16.06	327.45	38.23	-24.3	-24.9	17.9	8.52e-04	0	44	0	2047868928	8	3856
2026-01-15 05:44:17.06	327.05	38.33	-24.2	-24.6	18.1	0.00e+00	0	44	0	2055208960	8	3770
2026-01-15 05:44:18.06	326.65	38.44	-24.2	-24.5	18.1	0.00e+00	0	44	0	2062548992	8	3766
2026-01-15 05:44:19.07	326.23	38.54	-24.2	-24.7	18.0	0.00e+00	0	44	0	2069889024	8	3814
2026-01-15 05:44:20.08	325.82	38.64	-23.9	-23.9	18.4	0.00e+00	0	44	0	2077229056	8	3636
2026-01-15 05:44:21.08	325.41	38.74	-24.0	-24.2	18.3	0.00e+00	0	44	0	2084569088	8	3693
2026-01-15 05:44:22.08	324.99	38.83	-23.8	-24.2	18.5	0.00e+00	0	44	0	2091909120	7	3794
2026-01-15 05:44:23.08	324.57	38.93	-24.1	-24.4	18.1	1.31e-03	0	44	0	2099249152	8	3743
2026-01-15 05:44:24.08	324.15	39.02	-24.0	-24.2	18.3	0.00e+00	0	44	0	2106589184	8	3682
2026-01-15 05:44:25.08	323.73	39.11	-23.7	-24.2	18.5	0.00e+00	0	44	0	2113929216	7	3790
2026-01-15 05:44:26.09	323.30	39.20	-23.8	-24.2	18.5	1.31e-03	0	44	0	2121269248	7	3802
2026-01-15 05:44:27.08	322.88	39.29	-23.9	-24.5	16.8	0.00e+00	0	44	0	2128609280	7	3874
2026-01-15 05:44:28.08	322.45	39.38	-24.2	-24.6	18.1	0.00e+00	0	44	0	2134900736	8	3785
2026-01-15 05:44:29.09	322.01	39.46	-24.5	-25.4	17.7	0.00e+00	0	44	0	2142240768	8	3958
2026-01-15 05:44:30.08	321.58	39.55	-24.3	-24.9	17.9	0.00e+00	0	44	0	2149580800	8	3849
2026-01-15 05:44:31.08	321.15	39.63	-24.2	-24.7	18.0	1.49e-04	0	44	0	2156920832	8	3807
2026-01-15 05:44:32.08	320.71	39.71	-24.1	-24.5	18.1	0.00e+00	0	44	0	2164260864	8	3754
2026-01-15 05:44:33.08	320.27	39.79	-24.2	-24.6	18.1	0.00e+00	0	44	0	2171600896	8	3778
2026-01-15 05:44:34.08	319.83	39.87	-24.0	-24.2	18.3	0.00e+00	0	44	0	2178940928	8	3698
2026-01-15 05:44:35.08	319.38	39.94	-24.1	-24.4	18.2	0.00e+00	0	44	0	2186280960	8	3726
2026-01-15 05:44:36.08	318.93	40.01	-24.1	-24.5	18.1	1.25e-05	0	44	0	2193620992	8	3761
2026-01-15 05:44:37.08	318.49	40.09	-23.7	-24.0	18.6	0.00e+00	0	44	0	2199912448	7	3750
2026-01-15 05:44:38.08	318.03	40.16	-23.5	-23.6	18.8	0.00e+00	0	44	0	2207252480	7	3662
2026-01-15 05:44:39.09	317.58	40.22	-23.4	-23.5	18.9	9.72e-05	0	44	0	2214592512	7	3633
2026-01-15 05:44:40.09	317.12	40.29	-23.5	-23.7	18.7	0.00e+00	0	44	0	2221932544	7	3681
2026-01-15 05:44:41.08	316.67	40.35	-23.7	-24.0	18.6	0.00e+00	0	44	0	2229272576	7	3754
2026-01-15 05:44:42.09	316.21	40.42	-23.9	-24.5	18.3	0.00e+00	0	44	0	2236612608	7	3858
2026-01-15 05:44:43.10	315.74	40.48	-23.9	-24.4	18.4	0.00e+00	0	44	0	2243952640	7	3844
2026-01-15 05:44:44.10	315.28	40.54	-24.2	-24.6	18.1	0.00e+00	0	44	0	2251292672	8	3780
2026-01-15 05:44:45.10	314.82	40.59	-24.2	-24.7	18.0	0.00e+00	0	44	0	2257584128	8	3815
2026-01-15 05:44:46.10	314.35	40.64	-24.2	-24.8	18.0	3.77e-05	0	44	0	2264924160	8	3819
2026-01-15 05:44:47.11	313.88	40.70	-24.2	-24.8	18.0	0.00e+00	0	44	0	2272264192	8	3816
2026-01-15 05:44:48.11	313.41	40.75	-24.4	-25.1	17.8	0.00e+00	0	44	0	2279604224	8	3905
2026-01-15 05:44:49.11	312.94	40.79	-24.1	-24.4	18.1	1.52e-04	0	44	0	2286944256	8	3741
2026-01-15 05:44:50.11	312.47	40.84	-23.8	-23.9	18.4	0.00e+00	0	44	0	2294284288	8	3624
2026-01-15 05:44:51.11	312.00	40.88	-23.7	-24.1	18.5	1.56e-04	0	44	0	2301624320	7	3778
2026-01-15 05:44:52.11	311.52	40.92	-23.7	-24.1	18.6	1.94e-04	0	44	0	2308964352	7	3768
2026-01-15 05:44:53.11	311.05	40.96	-23.8	-24.3	18.5	0.00e+00	0	44	0	2316304384	7	3808
2026-01-15 05:44:54.11	310.57	41.00	-23.7	-24.2	18.5	2.20e-04	0	44	0	2322595840	7	3789
2026-01-15 05:44:55.11	310.10	41.03	-23.8	-24.3	18.4	2.23e-04	0	44	0	2329935872	7	3819
2026-01-15 05:44:56.11	309.62	41.07	-23.9	-24.5	18.3	0.00e+00	0	44	0	2338324480	7	3866
2026-01-15 05:44:57.12	309.14	41.10	-23.8	-24.3	18.5	2.77e-04	0	44	0	2344615936	7	3809
2026-01-15 05:44:58.12	308.66	41.13	-23.7	-24.1	18.5	2.51e-04	0	44	0	2351955968	7	3777
2026-01-15 05:44:59.12	308.17	41.15	-23.8	-24.2	18.5	0.00e+00	0	44	0	2359296000	7	3795
2026-01-15 05:45:00.13	307.69	41.17	-24.0	-24.8	18.2	0.00e+00	0	44	0	2366636032	7	3932
2026-01-15 05:45:01.13	307.21	41.20	-23.7	-24.1	18.5	1.52e-04	0	44	0	2373976064	7	3779
2026-01-15 05:45:02.13	306.72	41.21	-23.6	-23.9	18.6	0.00e+00	0	44	0	2381316096	7	3723
2026-01-15 05:45:03.14	306.24	41.23	-23.6	-23.8	18.7	0.00e+00	0	44	0	2388656128	7	3704
2026-01-15 05:45:04.15	305.75	41.25	-23.6	-23.8	18.7	4.57e-05	0	44	0	2395996160	7	3711
2026-01-15 05:45:05.15	305.26	41.26	-23.6	-24.0	18.6	0.00e+00	0	44	0	2403336192	7	3747
2026-01-15 05:45:06.16	304.77	41.27	-23.6	-24.0	18.6	0.00e+00	0	44	0	2409627648	7	3746
2026-01-15 05:45:07.17	304.28	41.27	-23.7	-24.0	18.5	0.00e+00	0	44	0	2418016256	7	3761
2026-01-15 05:45:08.17	303.80	41.28	-23.8	-24.2	18.5	0.00e+00	0	44	0	2425356288	7	3805
2026-01-15 05:45:09.17	303.31	41.28	-23.7	-24.1	18.5	0.00e+00	0	44	0	2431647744	7	3776
2026-01-15 05:45:10.17	302.83	41.28	-23.3	-23.4	18.9	0.00e+00	0	44	0	2438987776	7	3609
2026-01-15 05:45:11.17	302.34	41.28	-23.2	-23.7	19.0	0.00e+00	0	44	0	2446327808	6	3773
2026-01-15 05:45:12.18	301.85	41.27	-23.3	-23.8	19.0	0.00e+00	0	44	0	2453667840	6	3804
2026-01-15 05:45:13.18	301.37	41.27	-23.4	-24.1	18.8	0.00e+00	0	44	0	2461007872	6	3870
2026-01-15 05:45:14.19	300.88	41.26	-23.4	-23.9	18.9	0.00e+00	0	44	0	2468347904	6	3837
2026-01-15 05:45:15.19	300.40	41.25	-23.4	-24.0	18.9	0.00e+00	0	44	0	2475687936	6	3860
2026-01-15 05:45:16.20	299.91	41.23	-23.5	-23.7	18.7	0.00e+00	0	44	0	2483027968	7	3686
2026-01-15 05:45:17.20	299.42	41.22	-23.3	-23.4	18.9	0.00e+00	0	44	0	2489319424	7	3613
2026-01-15 05:45:18.20	298.94	41.20	-23.3	-23.3	19.0	0.00e+00	0	44	0	2496659456	7	3593
2026-01-15 05:45:19.21	298.45	41.18	-23.4	-23.5	18.8	0.00e+00	0	44	0	2503999488	7	3647
2026-01-15 05:45:20.21	297.97	41.15	-23.4	-23.9	18.9	0.00e+00	0	44	0	2511339520	6	3839
2026-01-15 05:45:21.21	297.49	41.13	-23.4	-24.1	18.8	0.00e+00	0	44	0	2518679552	6	3867
2026-01-15 05:45:22.22	297.01	41.10	-23.4	-23.9	18.9	0.00e+00	0	44	0	2526019584	6	3833
2026-01-15 05:45:23.22	296.53	41.07	-23.4	-24.1	18.8	0.00e+00	0	44	0	2533359616	6	3870
2026-01-15 05:45:24.22	296.05	41.04	-23.7	-24.0	18.6	0.00e+00	0	44	0	2540699648	7	3760
2026-01-15 05:45:25.22	295.57	41.00	-23.8	-24.3	18.5	0.00e+00	0	44	0	2548039680	7	3806
2026-01-15 05:45:26.22	295.09	40.97	-23.5	-23.7	18.7	0.00e+00	0	44	0	2555379712	7	3686
2026-01-15 05:45:27.23	294.61	40.93	-23.4	-23.6	18.8	0.00e+00	0	44	0	2562719744	7	3650
2026-01-15 05:45:28.22	294.14	40.89	-23.5	-23.7	18.7	0.00e+00	0	44	0	2570059776	7	3675
2026-01-15 05:45:29.23	293.67	40.84	-23.4	-23.4	18.9	0.00e+00	0	44	0	2576351232	7	3616
2026-01-15 05:45:30.23	293.20	40.80	-23.4	-23.4	18.8	0.00e+00	0	44	0	2583691264	7	3620
2026-01-15 05:45:31.23	292.72	40.75	-23.6	-23.9	18.6	0.00e+00	0	44	0	2591031296	7	3723
2026-01-15 05:45:32.24	292.25	40.70	-23.5	-23.7	18.7	0.00e+00	0	44	0	2598371328	7	3690
2026-01-15 05:45:33.25	291.78	40.65	-23.1	-23.4	16.1	0.00e+00	0	44	0	2605711360	7	3718
2026-01-15 05:45:34.25	291.31	40.60	-23.3	-23.7	13.6	0.00e+00	0	44	0	2613051392	6	3791
2026-01-15 05:45:35.25	290.85	40.54	-23.2	-23.6	19.0	0.00e+00	0	44	0	2620391424	6	3766
2026-01-15 05:45:36.25	290.39	40.48	-23.2	-23.6	19.0	1.08e-03	0	44	0	2627731456	6	3755
2026-01-15 05:45:37.26	289.92	40.42	-23.5	-24.1	18.7	0.00e+00	0	44	0	2634022912	6	3883
2026-01-15 05:45:38.26	289.46	40.36	-23.2	-23.6	19.1	0.00e+00	0	44	0	2641362944	6	3755
2026-01-15 05:45:39.26	289.00	40.30	-23.2	-23.5	19.1	0.00e+00	0	44	0	2648702976	6	3744
2026-01-15 05:45:40.26	288.55	40.23	-23.2	-23.5	19.0	0.00e+00	0	44	0	2656043008	6	3748
2026-01-15 05:45:41.26	288.09	40.16	-23.1	-23.4	19.1	0.00e+00	0	44	0	2663383040	6	3713
2026-01-15 05:45:42.26	287.64	40.09	-23.1	-23.4	19.1	0.00e+00	0	44	0	2670723072	6	3724
2026-01-15 05:45:43.26	287.19	40.02	-23.0	-23.2	19.2	2.71e-04	0	44	0	2678063104	6	3680
2026-01-15 05:45:44.27	286.74	39.95	-23.0	-23.2	19.2	0.00e+00	0	44	0	2685403136	6	3681
2026-01-15 05:45:45.26	286.30	39.87	-23.1	-23.4	19.1	0.00e+00	0	44	0	2692743168	6	3720
2026-01-15 05:45:46.27	285.85	39.80	-23.2	-23.5	19.1	0.00e+00	0	44	0	2700083200	6	3736
2026-01-15 05:45:47.27	285.41	39.72	-23.3	-23.7	19.0	0.00e+00	0	44	0	2707423232	6	3789
2026-01-15 05:45:48.27	284.97	39.64	-23.4	-24.0	18.8	1.23e-04	0	44	0	2714763264	6	3856
2026-01-15 05:45:49.27	284.53	39.55	-23.5	-24.3	18.7	2.40e-04	0	44	0	2721054720	6	3917
2026-01-15 05:45:50.27	284.10	39.47	-23.6	-24.3	18.6	0.00e+00	0	44	0	2728394752	6	3932
2026-01-15 05:45:51.28	283.66	39.38	-23.6	-24.3	18.6	2.08e-04	0	44	0	2735734784	6	3924
2026-01-15 05:45:52.28	283.23	39.30	-23.6	-24.0	18.6	4.51e-04	0	44	0	2743074816	7	3739
2026-01-15 05:45:53.28	282.80	39.21	-23.8	-24.4	18.4	0.00e+00	0	44	0	2750414848	7	3837
2026-01-15 05:45:54.29	282.37	39.12	-24.0	-24.7	18.2	1.01e-03	0	44	0	2757754880	7	3901
2026-01-15 05:45:55.30	281.94	39.02	-23.6	-24.0	18.6	0.00e+00	0	44	0	2765094912	7	3742
2026-01-15 05:45:56.30	281.52	38.93	-23.8	-24.3	18.4	0.00e+00	0	44	0	2772434944	7	3812
2026-01-15 05:45:57.30	281.10	38.83	-23.8	-24.4	18.3	1.12e-03	0	44	0	2779774976	7	3847
2026-01-15 05:45:58.30	280.69	38.74	-23.9	-24.5	18.2	8.83e-04	0	44	0	2786066432	7	3864
2026-01-15 05:45:59.31	280.27	38.64	-23.9	-24.6	18.3	0.00e+00	0	44	0	2793406464	7	3880
2026-01-15 05:46:00.31	279.86	38.54	-23.9	-24.6	18.3	2.55e-04	0	44	0	2801795072	7	3883
2026-01-15 05:46:01.32	279.44	38.44	-23.9	-24.6	18.1	3.78e-04	0	44	0	2808086528	7	3902
2026-01-15 05:46:02.32	279.04	38.34	-24.1	-24.9	18.1	0.00e+00	0	44	0	2815426560	7	3967
2026-01-15 05:46:03.32	278.64	38.23	-24.3	-24.8	17.9	7.63e-04	0	44	0	2822766592	8	3831
2026-01-15 05:46:04.33	278.23	38.13	-23.9	-24.0	18.3	9.83e-04	0	44	0	2830106624	8	3648
2026-01-15 05:46:05.33	277.83	38.02	-23.7	-23.5	18.5	0.00e+00	0	44	0	2837446656	8	3547
2026-01-15 05:46:06.34	277.43	37.91	-23.5	-23.8	18.6	1.31e-03	0	44	0	2844786688	7	3701
2026-01-15 05:46:07.34	277.04	37.80	-23.5	-23.7	18.7	0.00e+00	0	44	0	2852126720	7	3670
2026-01-15 05:46:08.35	276.65	37.69	-23.5	-23.7	18.6	0.00e+00	0	44	0	2859466752	7	3673
2026-01-15 05:46:09.35	276.26	37.58	-23.6	-23.9	18.5	9.34e-04	0	44	0	2865758208	7	3735
2026-01-15 05:46:10.36	275.87	37.47	-23.3	-23.3	18.8	0.00e+00	0	44	0	2873098240	7	3607
2026-01-15 05:46:11.36	275.49	37.36	-23.2	-23.1	18.9	0.00e+00	0	44	0	2881486848	7	3557
2026-01-15 05:46:12.37	275.10	37.24	-23.3	-23.7	18.9	0.00e+00	0	44	0	2887778304	6	3784
2026-01-15 05:46:13.37	274.73	37.13	-23.3	-23.9	18.7	0.00e+00	0	44	0	2895118336	6	3825
2026-01-15 05:46:14.38	274.35	37.01	-23.3	-23.9	18.8	0.00e+00	0	44	0	2902458368	6	3829
2026-01-15 05:46:15.38	273.98	36.89	-23.4	-24.1	18.6	0.00e+00	0	44	0	2909798400	6	3877
2026-01-15 05:46:16.38	273.61	36.77	-23.5	-24.2	18.6	1.20e-03	0	44	0	2917138432	6	3912
2026-01-15 05:46:17.38	273.24	36.65	-23.3	-23.8	18.7	0.00e+00	0	44	0	2924478464	6	3799
2026-01-15 05:46:18.38	272.88	36.54	-23.2	-23.6	18.9	0.00e+00	0	44	0	2931818496	6	3774
2026-01-15 05:46:19.39	272.51	36.41	-23.3	-23.8	18.8	0.00e+00	0	44	0	2939158528	6	3805
2026-01-15 05:46:20.39	272.15	36.29	-23.2	-23.6	18.9	0.00e+00	0	44	0	2946498560	6	3771
2026-01-15 05:46:21.40	271.79	36.17	-23.3	-23.7	18.8	0.00e+00	0	44	0	2952790016	6	3788
2026-01-15 05:46:22.40	271.44	36.04	-23.4	-24.0	18.7	0.00e+00	0	44	0	2960130048	6	3861
2026-01-15 05:46:23.41	271.09	35.92	-23.6	-23.9	18.5	0.00e+00	0	44	0	2967470080	7	3723
2026-01-15 05:46:24.41	270.74	35.80	-23.3	-23.2	18.7	3.89e-05	0	44	0	2974810112	7	3566
2026-01-15 05:46:25.42	270.39	35.67	-23.3	-23.8	18.8	0.00e+00	0	44	0	2982150144	6	3808
2026-01-15 05:46:26.42	270.05	35.54	-23.3	-23.8	18.8	1.38e-04	0	44	0	2989490176	6	3803
2026-01-15 05:46:27.43	269.71	35.41	-23.2	-23.6	18.9	0.00e+00	0	44	0	2996830208	6	3770
2026-01-15 05:46:28.44	269.37	35.29	-23.2	-23.6	18.9	0.00e+00	0	44	0	3004170240	6	3767
2026-01-15 05:46:29.44	269.03	35.16	-23.2	-23.6	18.9	1.68e-04	0	44	0	3011510272	6	3755
2026-01-15 05:46:30.43	268.70	35.03	-23.1	-23.4	19.0	0.00e+00	0	44	0	3018850304	6	3723
2026-01-15 05:46:31.44	268.37	34.90	-23.1	-23.4	19.0	0.00e+00	0	44	0	3026190336	6	3718
2026-01-15 05:46:32.44	268.05	34.77	-23.1	-23.5	18.9	0.00e+00	0	44	0	3033530368	6	3749
2026-01-15 05:46:33.44	267.72	34.64	-23.0	-23.8	19.0	3.68e-04	0	44	0	3039821824	5	3918
2026-01-15 05:46:34.44	267.40	34.51	-23.4	-24.0	18.6	0.00e+00	0	44	0	3047161856	6	3856
2026-01-15 05:46:35.45	267.08	34.38	-23.5	-23.7	18.6	0.00e+00	0	44	0	3054501888	7	3699
2026-01-15 05:46:36.45	266.76	34.25	-23.6	-24.4	18.5	6.03e-04	0	44	0	3061841920	6	3952
2026-01-15 05:46:37.45	266.45	34.11	-23.8	-24.3	18.3	0.00e+00	0	44	0	3069181952	7	3816
2026-01-15 05:46:38.46	266.14	33.98	-23.5	-23.7	18.6	3.11e-04	0	44	0	3076521984	7	3691
2026-01-15 05:46:39.46	265.83	33.85	-23.3	-23.3	18.8	1.74e-04	0	44	0	3083862016	7	3600
2026-01-15 05:46:40.46	265.52	33.71	-23.2	-23.6	18.8	0.00e+00	0	44	0	3091202048	6	3771
2026-01-15 05:46:41.47	265.22	33.58	-23.2	-23.5	18.9	3.40e-06	0	44	0	3098542080	6	3751
2026-01-15 05:46:42.47	264.91	33.45	-23.1	-23.3	19.0	0.00e+00	0	44	0	3105882112	6	3695
2026-01-15 05:46:43.48	264.61	33.31	-23.0	-23.2	19.1	0.00e+00	0	44	0	3113222144	6	3669
2026-01-15 05:46:44.48	264.32	33.18	-22.9	-23.0	19.2	3.40e-06	0	44	0	3119513600	6	3630
2026-01-15 05:46:45.48	264.02	33.04	-22.9	-23.0	19.2	0.00e+00	0	44	0	3126853632	6	3628
2026-01-15 05:46:46.49	263.73	32.90	-23.0	-23.1	19.1	0.00e+00	0	44	0	3134193664	6	3645
2026-01-15 05:46:47.48	263.45	32.77	-23.0	-23.1	19.1	3.12e-04	0	44	0	3141533696	6	3663
2026-01-15 05:46:48.49	263.16	32.63	-23.1	-23.5	18.9	4.15e-04	0	44	0	3148873728	6	3734
2026-01-15 05:46:49.49	262.87	32.50	-23.2	-23.6	18.8	0.00e+00	0	44	0	3156213760	6	3761
2026-01-15 05:46:50.49	262.59	32.36	-23.0	-23.2	19.1	0.00e+00	0	44	0	3163553792	6	3674
2026-01-15 05:46:51.49	262.31	32.23	-22.9	-23.5	19.1	8.08e-04	0	44	0	3170893824	5	3858
2026-01-15 05:46:52.49	262.04	32.09	-23.1	-23.8	19.0	0.00e+00	0	44	0	3178233856	5	3912
2026-01-15 05:46:53.49	261.76	31.95	-23.2	-23.7	18.7	8.60e-04	0	44	0	3184525312	6	3788
2026-01-15 05:46:54.49	261.49	31.82	-23.4	-24.0	18.6	8.97e-04	0	44	0	3191865344	6	3852
2026-01-15 05:46:55.50	261.22	31.68	-23.5	-24.2	18.5	0.00e+00	0	44	0	3199205376	6	3905
2026-01-15 05:46:56.50	260.95	31.54	-23.4	-23.9	18.7	8.42e-04	0	44	0	3206545408	6	3847
2026-01-15 05:46:57.50	260.68	31.41	-23.3	-23.7	18.8	0.00e+00	0	44	0	3213885440	6	3799
2026-01-15 05:46:58.51	260.42	31.27	-23.3	-23.7	18.7	0.00e+00	0	44	0	3221225472	6	3793
2026-01-15 05:46:59.51	260.16	31.13	-23.3	-23.7	18.8	0.00e+00	0	44	0	3228565504	6	3796
2026-01-15 05:47:00.52	259.90	30.99	-23.1	-23.4	18.9	0.00e+00	0	44	0	3235905536	6	3717
2026-01-15 05:47:01.52	259.64	30.86	-23.2	-23.5	18.8	0.00e+00	0	44	0	3243245568	6	3744
2026-01-15 05:47:02.53	259.38	30.72	-23.2	-23.5	18.8	0.00e+00	0	44	0	3250585600	6	3751
2026-01-15 05:47:03.53	259.13	30.58	-23.2	-23.5	18.9	0.00e+00	0	44	0	3257925632	6	3738
2026-01-15 05:47:04.53	258.88	30.45	-23.2	-23.7	18.8	0.00e+00	0	44	0	3264217088	6	3781
2026-01-15 05:47:05.54	258.63	30.31	-23.3	-23.7	18.7	0.00e+00	0	44	0	3271557120	6	3798
2026-01-15 05:47:06.54	258.39	30.17	-23.4	-24.0	18.6	0.00e+00	0	44	0	3278897152	6	3860
2026-01-15 05:47:07.54	258.14	30.04	-23.4	-24.1	18.5	1.10e-06	0	44	0	3286237184	6	3871
2026-01-15 05:47:08.55	257.90	29.90	-23.6	-24.4	18.4	0.00e+00	0	44	0	3293577216	6	3959
2026-01-15 05:47:09.55	257.66	29.76	-23.6	-24.0	18.3	0.00e+00	0	44	0	3300917248	7	3758
2026-01-15 05:47:10.56	257.42	29.62	-23.7	-24.1	18.3	0.00e+00	0	44	0	3308257280	7	3779
2026-01-15 05:47:11.57	257.18	29.49	-23.6	-23.9	18.4	0.00e+00	0	44	0	3315597312	7	3728
2026-01-15 05:47:12.57	256.95	29.35	-23.4	-23.6	18.5	0.00e+00	0	44	0	3322937344	7	3673
2026-01-15 05:47:13.57	256.72	29.21	-23.5	-23.7	18.5	0.00e+00	0	44	0	3330277376	7	3677
2026-01-15 05:47:14.57	256.49	29.08	-23.4	-23.5	16.7	0.00e+00	0	44	0	3337617408	7	3652
2026-01-15 05:47:15.57	256.26	28.94	-23.4	-23.5	18.5	0.00e+00	0	44	0	3344957440	7	3642
2026-01-15 05:47:16.58	256.03	28.81	-23.5	-23.8	18.4	0.00e+00	0	44	0	3351248896	7	3700
2026-01-15 05:47:17.58	255.81	28.67	-23.5	-23.7	18.4	0.00e+00	0	44	0	3358588928	7	3692
2026-01-15 05:47:18.58	255.59	28.54	-23.6	-24.0	18.3	0.00e+00	0	44	0	3365928960	7	3747
2026-01-15 05:47:19.58	255.37	28.40	-23.6	-23.9	18.3	0.00e+00	0	44	0	3373268992	7	3727
2026-01-15 05:47:20.58	255.15	28.27	-23.6	-23.9	18.4	0.00e+00	0	44	0	3380609024	7	3724
2026-01-15 05:47:21.59	254.93	28.13	-23.6	-23.9	18.3	8.12e-04	0	44	0	3387949056	7	3734
2026-01-15 05:47:22.58	254.72	28.00	-23.5	-23.8	18.4	0.00e+00	0	44	0	3395289088	7	3697
2026-01-15 05:47:23.58	254.51	27.86	-23.4	-23.4	18.5	7.72e-04	0	44	0	3402629120	7	3627
2026-01-15 05:47:24.59	254.30	27.73	-23.4	-23.9	18.5	0.00e+00	0	44	0	3409969152	6	3836
2026-01-15 05:47:25.59	254.09	27.59	-23.4	-24.1	18.5	0.00e+00	0	44	0	3416260608	6	3876
2026-01-15 05:47:26.59	253.88	27.46	-23.5	-24.3	18.4	7.40e-04	0	44	0	3423600640	6	3916
2026-01-15 05:47:27.60	253.67	27.32	-23.6	-24.0	18.3	0.00e+00	0	44	0	3430940672	7	3750
2026-01-15 05:47:28.60	253.47	27.19	-23.7	-24.1	18.2	0.00e+00	0	44	0	3438280704	7	3783
2026-01-15 05:47:29.60	253.27	27.06	-23.7	-24.2	18.2	9.34e-04	0	44	0	3445620736	7	3800
2026-01-15 05:47:30.60	253.07	26.93	-23.7	-24.1	18.2	0.00e+00	0	44	0	3452960768	7	3769
2026-01-15 05:47:31.60	252.87	26.79	-23.7	-24.1	18.2	3.66e-05	0	44	0	3460300800	7	3776
2026-01-15 05:47:32.60	252.67	26.66	-23.7	-24.2	18.1	0.00e+00	0	44	0	3467640832	7	3807
2026-01-15 05:47:33.61	252.48	26.53	-23.7	-24.1	18.2	1.34e-03	0	44	0	3473932288	7	3774
2026-01-15 05:47:34.61	252.28	26.40	-23.4	-24.1	18.4	1.05e-04	0	44	0	3481272320	6	3879
2026-01-15 05:47:35.62	252.09	26.27	-23.4	-24.1	18.4	1.28e-03	0	44	0	3489660928	6	3885
2026-01-15 05:47:36.62	251.90	26.13	-23.5	-24.2	18.4	1.22e-03	0	44	0	3495952384	6	3910
2026-01-15 05:47:37.62	251.71	26.00	-23.6	-23.9	18.3	2.51e-05	0	44	0	3503292416	7	3728
2026-01-15 05:47:38.63	251.52	25.87	-23.6	-24.0	18.2	9.44e-04	0	44	0	3510632448	7	3762
2026-01-15 05:47:39.63	251.33	25.74	-23.7	-24.2	18.1	7.98e-04	0	44	0	3517972480	7	3802
2026-01-15 05:47:40.64	251.15	25.61	-23.7	-24.2	18.1	1.10e-06	0	44	0	3525312512	7	3810
2026-01-15 05:47:41.65	250.96	25.48	-23.7	-24.1	18.2	6.27e-04	0	44	0	3532652544	7	3783
2026-01-15 05:47:42.65	250.78	25.35	-23.7	-24.2	18.1	2.20e-06	0	44	0	3539992576	7	3801
2026-01-15 05:47:43.66	250.60	25.22	-23.6	-24.0	18.2	0.00e+00	0	44	0	3547332608	7	3753
2026-01-15 05:47:44.66	250.42	25.09	-23.3	-23.4	18.5	1.10e-06	0	44	0	3554672640	7	3613
2026-01-15 05:47:45.67	250.24	24.96	-23.2	-23.1	18.7	1.07e-04	0	44	0	3562012672	7	3555
2026-01-15 05:47:46.68	250.07	24.83	-23.3	-23.3	18.6	0.00e+00	0	44	0	3569352704	7	3592
2026-01-15 05:47:47.68	249.89	24.71	-23.3	-23.8	18.5	0.00e+00	0	44	0	3576692736	6	3816
2026-01-15 05:47:48.69	249.72	24.58	-23.5	-24.1	18.4	1.27e-03	0	44	0	3582984192	6	3892
2026-01-15 05:47:49.68	249.55	24.45	-23.7	-24.2	18.1	0.00e+00	0	44	0	3590324224	7	3797
2026-01-15 05:47:50.69	249.38	24.32	-23.8	-24.4	18.0	0.00e+00	0	44	0	3597664256	7	3837
2026-01-15 05:47:51.69	249.21	24.20	-23.9	-24.6	17.9	1.90e-03	0	44	0	3605004288	7	3891
2026-01-15 05:47:52.70	249.04	24.07	-23.9	-24.6	17.9	0.00e+00	0	44	0	3612344320	7	3885
2026-01-15 05:47:53.70	248.88	23.95	-23.8	-24.4	18.0	1.11e-03	0	44	0	3619684352	7	3840
2026-01-15 05:47:54.70	248.71	23.82	-23.8	-24.4	17.9	0.00e+00	0	44	0	3627024384	7	3852
2026-01-15 05:47:55.70	248.55	23.70	-23.7	-24.2	18.1	0.00e+00	0	44	0	3634364416	7	3812
2026-01-15 05:47:56.71	248.39	23.57	-23.8	-24.3	18.0	2.08e-03	0	44	0	3640655872	7	3818
2026-01-15 05:47:57.70	248.23	23.45	-23.7	-24.1	18.1	0.00e+00	0	44	0	3647995904	7	3789
2026-01-15 05:47:58.71	248.07	23.32	-23.5	-24.2	18.3	0.00e+00	0	44	0	3655335936	6	3911
2026-01-15 05:47:59.71	247.91	23.20	-23.5	-24.2	18.3	0.00e+00	0	44	0	3662675968	6	3905
2026-01-15 05:48:00.71	247.75	23.08	-23.5	-24.2	18.3	0.00e+00	0	44	0	3670016000	6	3905
2026-01-15 05:48:01.72	247.60	22.95	-23.5	-24.2	18.3	0.00e+00	0	44	0	3677356032	6	3906
2026-01-15 05:48:02.72	247.44	22.83	-23.4	-24.1	18.4	0.00e+00	0	44	0	3684696064	6	3875
2026-01-15 05:48:03.72	247.29	22.71	-23.4	-24.1	18.4	0.00e+00	0	44	0	3692036096	6	3878
2026-01-15 05:48:04.73	247.14	22.58	-23.4	-24.0	18.4	0.00e+00	0	44	0	3699376128	6	3856
2026-01-15 05:48:05.73	246.99	22.46	-23.5	-24.3	18.2	0.00e+00	0	44	0	3706716160	6	3938
2026-01-15 05:48:06.74	246.84	22.34	-23.5	-24.3	18.2	0.00e+00	0	44	0	3714056192	6	3931
2026-01-15 05:48:07.74	246.69	22.22	-23.6	-23.9	18.1	0.00e+00	0	44	0	3721396224	7	3727
2026-01-15 05:48:08.74	246.54	22.10	-23.8	-24.5	17.9	0.00e+00	0	44	0	3727687680	7	3861
2026-01-15 05:48:09.74	246.40	21.98	-23.9	-24.6	17.8	0.00e+00	0	44	0	3735027712	7	3892
2026-01-15 05:48:10.75	246.25	21.86	-23.7	-24.2	16.4	0.00e+00	0	44	0	3742367744	7	3807
2026-01-15 05:48:11.75	246.11	21.74	-23.9	-24.5	17.7	0.00e+00	0	44	0	3749707776	7	3870
2026-01-15 05:48:12.76	245.96	21.62	-23.8	-24.3	18.0	0.00e+00	0	44	0	3757047808	7	3829
2026-01-15 05:48:13.76	245.82	21.50	-23.6	-23.9	18.1	0.00e+00	0	44	0	3764387840	7	3730
2026-01-15 05:48:14.77	245.68	21.38	-23.6	-23.9	18.2	0.00e+00	0	44	0	3771727872	7	3724
2026-01-15 05:48:15.77	245.54	21.27	-23.7	-24.1	18.1	0.00e+00	0	44	0	3779067904	7	3772
2026-01-15 05:48:16.77	245.41	21.15	-23.5	-23.8	18.2	0.00e+00	0	44	0	3786407936	7	3713
2026-01-15 05:48:17.77	245.27	21.03	-23.5	-23.7	18.3	0.00e+00	0	44	0	3793747968	7	3681
2026-01-15 05:48:18.78	245.13	20.91	-23.5	-23.8	18.2	0.00e+00	0	44	0	3801088000	7	3714
2026-01-15 05:48:19.78	245.00	20.80	-23.7	-24.2	18.0	0.00e+00	0	44	0	3808428032	7	3795
2026-01-15 05:48:20.79	244.86	20.68	-23.8	-24.4	17.8	6.05e-04	0	44	0	3814719488	7	3852
2026-01-15 05:48:21.79	244.73	20.57	-24.0	-24.9	17.6	0.00e+00	0	44	0	3822059520	7	3970
2026-01-15 05:48:22.80	244.60	20.45	-24.3	-24.8	17.4	0.00e+00	0	44	0	3829399552	8	3845
2026-01-15 05:48:23.81	244.46	20.33	-24.5	-25.4	17.1	8.11e-04	0	44	0	3836739584	8	3985
2026-01-15 05:48:24.81	244.33	20.22	-24.5	-24.8	17.1	0.00e+00	0	44	0	3844079616	9	3748
2026-01-15 05:48:25.81	244.21	20.11	-24.5	-25.4	17.1	8.34e-04	0	44	0	3851419648	8	3972
2026-01-15 05:48:26.81	244.08	19.99	-24.6	-25.5	17.1	7.29e-04	0	44	0	3858759680	8	4002
2026-01-15 05:48:27.81	243.95	19.88	-24.5	-25.3	17.2	0.00e+00	0	44	0	3866099712	8	3952
2026-01-15 05:48:28.81	243.83	19.77	-24.6	-25.0	17.1	7.04e-04	0	44	0	3873439744	9	3769
2026-01-15 05:48:29.82	243.70	19.65	-24.7	-25.3	16.9	6.25e-04	0	44	0	3880779776	9	3853
2026-01-15 05:48:30.81	243.58	19.54	-24.7	-25.2	16.9	0.00e+00	0	44	0	3888119808	9	3838
2026-01-15 05:48:31.82	243.45	19.43	-24.6	-25.0	17.0	3.68e-04	0	44	0	3894411264	9	3789
2026-01-15 05:48:32.82	243.33	19.32	-24.7	-25.3	16.9	4.08e-04	0	44	0	3901751296	9	3843
2026-01-15 05:48:33.83	243.21	19.21	-24.7	-25.4	16.8	0.00e+00	0	44	0	3909091328	9	3871
2026-01-15 05:48:34.83	243.09	19.09	-24.9	-25.6	16.7	3.65e-04	0	44	0	3916431360	9	3933
2026-01-15 05:48:35.83	242.97	18.98	-24.9	-25.7	16.6	3.13e-04	0	44	0	3923771392	9	3961
2026-01-15 05:48:36.84	242.85	18.87	-24.9	-25.7	16.6	0.00e+00	0	44	0	3931111424	9	3948
2026-01-15 05:48:37.84	242.73	18.76	-24.8	-25.6	16.6	0.00e+00	0	44	0	3938451456	9	3919
2026-01-15 05:48:38.84	242.62	18.65	-24.9	-25.6	16.7	2.66e-04	0	44	0	3945791488	9	3929
2026-01-15 05:48:39.84	242.50	18.55	-25.0	-25.9	16.5	0.00e+00	0	44	0	3953131520	9	4011
2026-01-15 05:48:40.85	242.38	18.44	-24.8	-25.4	16.7	2.12e-04	0	44	0	3959422976	9	3886
2026-01-15 05:48:41.86	242.27	18.33	-24.7	-25.2	16.9	2.63e-04	0	44	0	3966763008	9	3826
2026-01-15 05:48:42.87	242.15	18.22	-24.6	-25.1	16.9	0.00e+00	0	44	0	3975151616	9	3797
2026-01-15 05:48:43.87	242.04	18.11	-24.7	-25.3	16.8	2.86e-04	0	44	0	3981443072	9	3854
2026-01-15 05:48:44.87	241.93	18.00	-24.6	-25.1	16.9	0.00e+00	0	44	0	3988783104	9	3799
2026-01-15 05:48:45.88	241.82	17.90	-24.7	-25.3	16.8	0.00e+00	0	44	0	3996123136	9	3855
2026-01-15 05:48:46.88	241.71	17.79	-24.6	-25.1	16.9	0.00e+00	0	44	0	4003463168	9	3812
2026-01-15 05:48:47.88	241.60	17.68	-24.7	-25.2	16.8	0.00e+00	0	44	0	4010803200	9	3826
2026-01-15 05:48:48.88	241.49	17.58	-24.7	-25.3	16.8	0.00e+00	0	44	0	4018143232	9	3854
2026-01-15 05:48:49.88	241.38	17.47	-24.7	-25.3	16.8	0.00e+00	0	44	0	4025483264	9	3856
2026-01-15 05:48:50.88	241.27	17.37	-24.8	-25.5	16.7	0.00e+00	0	44	0	4032823296	9	3904
2026-01-15 05:48:51.88	241.17	17.26	-24.9	-25.7	16.5	0.00e+00	0	44	0	4039114752	9	3960
2026-01-15 05:48:52.88	241.06	17.16	-24.9	-25.7	16.5	0.00e+00	0	44	0	4046454784	9	3957
2026-01-15 05:48:53.89	240.96	17.05	-24.8	-25.6	16.5	0.00e+00	0	44	0	4053794816	9	3915
2026-01-15 05:48:54.89	240.85	16.95	-24.4	-25.3	16.2	0.00e+00	0	44	0	4061134848	9	3991
2026-01-15 05:48:55.89	240.75	16.85	-24.4	-25.2	11.8	0.00e+00	0	44	0	4068474880	9	3955
2026-01-15 05:48:56.89	240.65	16.74	-25.0	-26.0	13.4	7.32e-05	0	44	0	4075814912	9	4027
2026-01-15 05:48:57.89	240.54	16.64	-25.0	-26.0	16.4	0.00e+00	0	44	0	4083154944	9	4017
2026-01-15 05:48:58.90	240.44	16.54	-25.1	-25.7	16.2	0.00e+00	0	44	0	4090494976	10	3852
2026-01-15 05:48:59.90	240.34	16.44	-25.3	-26.0	16.1	0.00e+00	0	44	0	4097835008	10	3904
2026-01-15 05:49:00.91	240.24	16.33	-25.2	-25.9	16.1	0.00e+00	0	44	0	4104126464	10	3889
2026-01-15 05:49:01.91	240.14	16.23	-25.2	-26.0	16.1	2.28e-03	0	44	0	4111466496	10	3907
2026-01-15 05:49:02.91	240.04	16.13	-25.4	-26.3	15.9	0.00e+00	0	44	0	4118806528	10	3991
2026-01-15 05:49:03.91	239.95	16.03	-25.3	-26.1	16.0	9.42e-04	0	44	0	4126146560	10	3937
2026-01-15 05:49:04.92	239.85	15.93	-25.3	-26.0	16.1	0.00e+00	0	44	0	4133486592	10	3910
2026-01-15 05:49:05.92	239.75	15.83	-25.3	-26.0	16.1	0.00e+00	0	44	0	4140826624	10	3925
2026-01-15 05:49:06.92	239.66	15.73	-25.4	-26.3	15.9	8.14e-04	0	44	0	4148166656	10	3998
2026-01-15 05:49:07.92	239.56	15.63	-25.4	-26.3	15.9	0.00e+00	0	44	0	4155506688	10	3977
2026-01-15 05:49:08.92	239.47	15.53	-25.4	-26.3	15.9	1.45e-03	0	44	0	4162846720	10	3981
2026-01-15 05:49:09.93	239.37	15.43	-25.6	-26.7	15.7	3.84e-04	0	44	0	4170186752	10	4080
2026-01-15 05:49:10.94	239.28	15.33	-25.5	-26.4	15.8	0.00e+00	0	44	0	4177526784	10	4024
2026-01-15 05:49:11.94	239.18	15.23	-25.4	-26.2	15.9	4.63e-04	0	44	0	4184866816	10	3978
2026-01-15 05:49:12.93	239.09	15.14	-25.4	-26.4	15.8	0.00e+00	0	44	0	4191158272	10	4011
2026-01-15 05:49:13.93	239.00	15.04	-25.4	-26.3	15.8	0.00e+00	0	44	0	4198498304	10	4000
2026-01-15 05:49:14.94	238.91	14.94	-25.5	-26.6	15.7	1.83e-05	0	44	0	4205838336	10	4058
2026-01-15 05:49:15.94	238.82	14.85	-25.5	-26.4	15.8	1.19e-04	0	44	0	4213178368	10	4013
2026-01-15 05:49:16.95	238.73	14.75	-25.6	-26.7	15.7	3.32e-04	0	44	0	4220518400	10	4086
2026-01-15 05:49:17.95	238.64	14.65	-25.6	-26.1	15.7	7.74e-04	0	44	0	4227858432	11	3846
2026-01-15 05:49:18.94	238.55	14.56	-25.5	-26.1	15.7	4.50e-06	0	44	0	4235198464	11	3829
2026-01-15 05:49:19.94	238.47	14.46	-25.7	-26.4	15.5	9.37e-04	0	44	0	4242538496	11	3906
2026-01-15 05:49:20.95	238.38	14.37	-25.6	-26.3	15.5	1.11e-03	0	44	0	4248829952	11	3890
2026-01-15 05:49:21.95	238.29	14.27	-25.7	-26.5	15.4	0.00e+00	0	44	0	4256169984	11	3943
2026-01-15 05:49:22.96	238.20	14.18	-25.9	-26.8	15.3	1.51e-03	0	44	0	4263510016	11	4023
2026-01-15 05:49:23.96	238.12	14.08	-25.8	-26.8	15.3	1.54e-03	0	44	0	4270850048	11	3999
2026-01-15 05:49:24.97	238.03	13.99	-26.0	-27.2	15.1	0.00e+00	0	44	0	4278190080	11	4100
2026-01-15 05:49:25.97	237.95	13.89	-26.0	-27.2	15.0	0.00e+00	0	44	0	4285530112	11	4123
2026-01-15 05:49:26.98	237.86	13.80	-26.1	-26.8	14.8	1.67e-03	0	44	0	4292870144	12	3924
2026-01-15 05:49:27.98	237.78	13.71	-26.3	-27.3	14.6	0.00e+00	0	44	0	4300210176	12	4053
2026-01-15 05:49:28.98	237.70	13.61	-26.2	-27.1	14.7	1.88e-03	0	44	0	4307550208	12	3999
2026-01-15 05:49:29.98	237.62	13.52	-26.3	-27.3	14.6	2.13e-03	0	44	0	4314890240	12	4037
2026-01-15 05:49:30.98	237.54	13.43	-26.3	-27.3	14.6	1.10e-06	0	44	0	4322230272	12	4037
2026-01-15 05:49:31.99	237.45	13.34	-26.4	-27.5	14.5	2.10e-03	0	44	0	4329570304	12	4090
2026-01-15 05:49:33.00	237.37	13.24	-26.2	-27.2	14.6	0.00e+00	0	44	0	4335861760	12	4016
2026-01-15 05:49:34.01	237.29	13.15	-26.1	-26.9	14.8	0.00e+00	0	44	0	4343201792	12	3935
2026-01-15 05:49:35.01	237.21	13.06	-26.2	-27.0	14.7	1.10e-06	0	44	0	4351590400	12	3971
2026-01-15 05:49:36.01	237.13	12.97	-26.0	-26.7	14.9	1.10e-06	0	44	0	4357881856	12	3897
2026-01-15 05:49:37.01	237.05	12.88	-26.1	-26.8	14.8	0.00e+00	0	44	0	4365221888	12	3916
2026-01-15 05:49:38.01	236.98	12.79	-26.2	-27.1	14.7	0.00e+00	0	44	0	4372561920	12	3977
2026-01-15 05:49:39.01	236.90	12.70	-26.1	-26.9	14.8	0.00e+00	0	44	0	4379901952	12	3940
2026-01-15 05:49:40.01	236.82	12.61	-26.1	-26.9	14.8	1.10e-06	0	44	0	4387241984	12	3931
2026-01-15 05:49:41.01	236.74	12.52	-25.9	-26.5	15.0	0.00e+00	0	44	0	4394582016	12	3841
2026-01-15 05:49:42.01	236.67	12.43	-26.1	-26.8	14.8	0.00e+00	0	44	0	4400873472	12	3907
2026-01-15 05:49:43.01	236.59	12.34	-26.0	-26.6	14.9	0.00e+00	0	44	0	4408213504	12	3871
2026-01-15 05:49:44.01	236.52	12.25	-26.0	-27.2	15.0	0.00e+00	0	44	0	4415553536	11	4105
2026-01-15 05:49:45.01	236.44	12.16	-26.0	-27.1	15.0	0.00e+00	0	44	0	4422893568	11	4078
2026-01-15 05:49:46.01	236.37	12.08	-26.1	-27.3	14.9	0.00e+00	0	44	0	4430233600	11	4144
2026-01-15 05:49:47.02	236.29	11.99	-26.3	-27.2	14.5	0.00e+00	0	44	0	4437573632	12	4026
2026-01-15 05:49:48.02	236.22	11.90	-26.6	-27.5	14.1	3.40e-06	0	44	0	4444913664	13	3995
2026-01-15 05:49:49.03	236.15	11.81	-26.4	-27.1	14.3	0.00e+00	0	44	0	4452253696	13	3878
2026-01-15 05:49:50.03	236.07	11.73	-26.2	-27.0	14.6	0.00e+00	0	44	0	4459593728	12	3976
2026-01-15 05:49:51.03	236.00	11.64	-26.3	-27.3	14.4	2.20e-06	0	44	0	4466933760	12	4056
2026-01-15 05:49:52.03	235.93	11.55	-26.4	-27.6	14.3	0.00e+00	0	44	0	4474273792	12	4134
2026-01-15 05:49:53.03	235.86	11.47	-26.5	-27.7	14.2	1.10e-06	0	44	0	4480565248	12	4145
2026-01-15 05:49:54.03	235.79	11.38	-26.5	-27.8	14.1	3.40e-06	0	44	0	4487905280	12	4184
2026-01-15 05:49:55.03	235.72	11.30	-26.6	-28.0	14.1	1.10e-06	0	44	0	4495245312	12	4222
2026-01-15 05:49:56.03	235.65	11.21	-26.5	-27.3	14.2	3.40e-06	0	44	0	4502585344	13	3931
2026-01-15 05:49:57.03	235.58	11.12	-26.6	-27.6	14.0	3.40e-06	0	44	0	4509925376	13	4012
2026-01-15 05:49:58.03	235.51	11.04	-26.6	-27.5	14.0	4.50e-06	0	44	0	4517265408	13	3998
2026-01-15 05:49:59.03	235.44	10.96	-26.9	-28.2	13.6	5.70e-06	0	44	0	4524605440	13	4189
2026-01-15 05:50:00.03	235.37	10.87	-26.6	-27.6	14.0	6.80e-06	0	44	0	4531945472	13	4008
2026-01-15 05:50:01.04	235.31	10.79	-26.4	-27.1	14.1	0.00e+00	0	44	0	4539285504	13	3900
2026-01-15 05:50:02.04	235.24	10.70	-26.3	-27.3	14.4	1.10e-06	0	44	0	4545576960	12	4044
2026-01-15 05:50:03.04	235.17	10.62	-26.4	-27.6	14.2	1.10e-06	0	44	0	4552916992	12	4117
2026-01-15 05:50:04.05	235.10	10.53	-26.7	-27.8	13.8	3.40e-06	0	44	0	4560257024	13	4064
2026-01-15 05:50:05.05	235.04	10.45	-26.6	-27.5	14.0	5.70e-06	0	44	0	4567597056	13	4003
2026-01-15 05:50:06.06	234.97	10.37	-26.6	-27.6	13.9	2.20e-06	0	44	0	4574937088	13	4006
2026-01-15 05:50:07.06	234.91	10.28	-26.7	-27.6	13.9	1.34e-04	0	44	0	4582277120	13	4013
2026-01-15 05:50:08.06	234.84	10.20	-26.6	-27.6	14.0	2.20e-06	0	44	0	4589617152	13	4010
2026-01-15 05:50:09.06	234.78	10.12	-27.0	-28.3	13.5	1.14e-05	0	44	0	4596957184	13	4207
2026-01-15 05:50:10.06	234.71	10.04	-26.8	-28.0	13.7	6.80e-06	0	44	0	4603248640	13	4119
2026-01-15 05:50:11.07	234.65	9.96	-26.9	-28.1	13.6	1.37e-04	0	44	0	4611637248	13	4147
2026-01-15 05:50:12.07	234.58	9.87	-26.9	-28.2	13.6	1.02e-05	0	44	0	4618977280	13	4169
2026-01-15 05:50:13.08	234.52	9.79	-27.1	-28.2	13.3	1.60e-05	0	44	0	4625268736	14	4064
2026-01-15 05:50:14.08	234.46	9.71	-26.9	-28.2	13.5	1.15e-04	0	44	0	4632608768	13	4190
2026-01-15 05:50:15.09	234.39	9.63	-26.7	-27.8	13.7	8.00e-06	0	44	0	4639948800	13	4085
2026-01-15 05:50:16.09	234.33	9.55	-26.8	-27.9	13.8	8.01e-05	0	44	0	4647288832	13	4094
2026-01-15 05:50:17.10	234.27	9.47	-26.8	-27.9	13.7	1.18e-04	0	44	0	4654628864	13	4099
2026-01-15 05:50:18.10	234.21	9.39	-26.7	-27.8	13.7	1.02e-05	0	44	0	4661968896	13	4082
2026-01-15 05:50:19.10	234.15	9.31	-26.7	-27.8	13.8	1.26e-04	0	44	0	4669308928	13	4064
2026-01-15 05:50:20.10	234.09	9.23	-26.7	-27.8	13.7	1.12e-04	0	44	0	4676648960	13	4079
2026-01-15 05:50:21.11	234.03	9.15	-26.8	-28.0	13.6	1.02e-05	0	44	0	4683988992	13	4135
2026-01-15 05:50:22.12	233.97	9.07	-26.8	-27.9	13.7	1.35e-04	0	44	0	4691329024	13	4096
2026-01-15 05:50:23.12	233.91	8.99	-26.7	-27.8	13.7	1.44e-04	0	44	0	4698669056	13	4083
2026-01-15 05:50:24.12	233.85	8.91	-26.8	-27.9	13.6	8.00e-06	0	44	0	4706009088	13	4114
2026-01-15 05:50:25.12	233.79	8.83	-26.9	-28.2	13.5	1.93e-04	0	44	0	4712300544	13	4190
2026-01-15 05:50:26.13	233.73	8.75	-26.8	-28.0	13.6	1.86e-04	0	44	0	4719640576	13	4123
2026-01-15 05:50:27.13	233.67	8.68	-26.8	-27.9	13.6	8.00e-06	0	44	0	4726980608	13	4110
2026-01-15 05:50:28.13	233.61	8.60	-26.8	-28.0	13.6	1.02e-05	0	44	0	4734320640	13	4129
2026-01-15 05:50:29.14	233.55	8.52	-26.9	-28.2	13.4	1.93e-04	0	44	0	4741660672	13	4179
2026-01-15 05:50:30.15	233.50	8.44	-26.7	-27.8	13.7	4.50e-06	0	44	0	4749000704	13	4074
2026-01-15 05:50:31.15	233.44	8.36	-26.9	-28.2	13.4	2.09e-04	0	44	0	4756340736	13	4186
2026-01-15 05:50:32.15	233.38	8.29	-26.6	-27.6	13.8	1.90e-04	0	44	0	4763680768	13	4027
2026-01-15 05:50:33.15	233.33	8.21	-26.9	-28.1	13.4	1.83e-05	0	44	0	4771020800	13	4169
2026-01-15 05:50:34.15	233.27	8.13	-26.8	-28.0	13.5	1.77e-04	0	44	0	4777312256	13	4122
2026-01-15 05:50:35.16	233.21	8.06	-26.8	-28.0	13.5	2.07e-04	0	44	0	4784652288	13	4128
2026-01-15 05:50:36.16	233.16	7.98	-26.8	-28.0	13.5	1.37e-05	0	44	0	4793040896	13	4142
2026-01-15 05:50:37.17	233.10	7.90	-26.6	-27.6	13.7	1.88e-04	0	44	0	4799332352	13	4030
2026-01-15 05:50:38.18	233.05	7.83	-26.2	-27.4	12.8	8.00e-06	0	44	0	4806672384	13	4161
2026-01-15 05:50:39.17	232.99	7.75	-26.8	-28.0	13.2	1.60e-05	0	44	0	4814012416	13	4130
2026-01-15 05:50:40.18	232.94	7.68	-26.8	-27.9	13.2	1.37e-05	0	44	0	4821352448	13	4101
2026-01-15 05:50:41.18	232.88	7.60	-26.7	-27.8	13.5	1.94e-05	0	44	0	4828692480	13	4073
2026-01-15 05:50:42.18	232.83	7.53	-26.7	-27.8	13.6	1.60e-04	0	44	0	4836032512	13	4074
2026-01-15 05:50:43.18	232.78	7.45	-26.7	-27.7	13.6	8.00e-06	0	44	0	4843372544	13	4062
2026-01-15 05:50:44.19	232.72	7.38	-26.9	-28.2	13.3	1.14e-05	0	44	0	4850712576	13	4199
2026-01-15 05:50:45.19	232.67	7.30	-26.7	-27.8	13.5	8.00e-06	0	44	0	4857004032	13	4092
2026-01-15 05:50:46.19	232.62	7.23	-26.8	-28.0	13.4	2.63e-05	0	44	0	4864344064	13	4133
2026-01-15 05:50:47.19	232.57	7.15	-26.6	-27.6	13.6	1.61e-03	0	44	0	4871684096	13	4042
2026-01-15 05:50:48.20	232.51	7.08	-27.7	-29.1	12.3	2.51e-05	0	44	0	4879024128	15	4224
2026-01-15 05:50:49.20	232.46	7.00	-33.2	-42.8	3.8	8.46e-01	0	44	104	4880072704	26	10815

#Closed at: 2026-01-15 05:50:49
#Recorded file [4880 MB]: D:/data/31010_260115_083932.dat