passes_logs/2026/01/15/R2M6_AANII_01/R2M6_AANII_01__20260115_110809_SUOMI_NPP_rec.log

#Pass ID: 20260115_110809_SUOMI NPP
#Satellite: SUOMI NPP
#Configuration: NPP
#almurnet v.1.7.20240730
#Start time: 2026-01-15 11:08:11

#Version: 2.2.20231116
#Station: R2M6_AANII_01
#Location: 30.233357 lon 59.946436 lat
#TLE: 1 37849U 11061A   26014.11719687  .00000048  00000+0  43625-4 0  9998
#TLE: 2 37849  98.7809 316.1734 0002474  65.2440 294.8994 14.19525043736585

#Time	Az	El	Level	Level2	SNR	BER	BlckErr	Temp	State	Recorded	gain1	gain2
2026-01-15 11:08:11.18	183.63	7.09	-31.2	-34.8	5.3	1.23e+00	0	41	0	0	22	5438
2026-01-15 11:08:12.17	183.68	7.17	-31.6	-35.2	5.0	1.29e+00	0	41	104	0	24	5493
2026-01-15 11:08:13.17	183.73	7.24	-31.8	-36.3	7.5	8.50e-02	0	41	0	0	24	6038
2026-01-15 11:08:14.17	183.77	7.32	-31.5	-35.0	8.5	7.10e-02	0	41	0	1048576	24	5387
2026-01-15 11:08:15.17	183.82	7.39	-31.3	-34.1	9.2	2.46e-02	0	41	0	3145728	24	4959
2026-01-15 11:08:16.18	183.87	7.47	-31.2	-34.2	9.6	1.99e-02	0	41	0	5242880	23	5080
2026-01-15 11:08:17.18	183.92	7.55	-31.2	-34.1	9.7	1.42e-02	0	41	0	7340032	23	5021
2026-01-15 11:08:18.17	183.96	7.62	-31.3	-34.6	9.2	1.59e-02	0	41	0	8388608	23	5249
2026-01-15 11:08:19.18	184.01	7.70	-31.3	-34.5	9.3	1.49e-02	0	41	0	10485760	23	5221
2026-01-15 11:08:20.18	184.06	7.77	-31.1	-33.9	9.8	1.24e-02	0	41	0	12582912	23	4968
2026-01-15 11:08:21.17	184.11	7.85	-31.2	-34.1	9.7	1.07e-02	0	41	0	14680064	23	5033
2026-01-15 11:08:22.17	184.16	7.93	-31.3	-34.3	9.6	1.16e-02	0	41	0	16777216	23	5100
2026-01-15 11:08:23.17	184.21	8.00	-31.3	-34.3	9.5	1.19e-02	0	41	0	17825792	23	5124
2026-01-15 11:08:24.17	184.26	8.08	-31.3	-34.4	9.5	1.14e-02	0	41	0	19922944	23	5147
2026-01-15 11:08:25.18	184.31	8.16	-31.3	-34.5	9.4	1.83e-02	0	41	0	22020096	23	5189
2026-01-15 11:08:26.17	184.36	8.24	-31.3	-34.3	9.6	1.31e-02	0	41	0	24117248	23	5098
2026-01-15 11:08:27.18	184.41	8.32	-31.0	-33.4	10.3	9.47e-03	0	42	0	26214400	23	4728
2026-01-15 11:08:28.18	184.46	8.39	-30.8	-32.6	10.9	2.55e-03	0	42	0	27262976	23	4436
2026-01-15 11:08:29.18	184.51	8.47	-30.9	-33.5	10.6	2.13e-03	0	42	0	29360128	22	4854
2026-01-15 11:08:30.19	184.56	8.55	-30.9	-33.4	10.7	3.44e-03	0	42	0	31457280	22	4815
2026-01-15 11:08:31.19	184.61	8.63	-30.9	-33.3	10.8	2.88e-03	0	41	0	33554432	22	4793
2026-01-15 11:08:32.19	184.67	8.71	-30.9	-33.4	10.7	2.02e-03	0	42	0	35651584	22	4813
2026-01-15 11:08:33.19	184.72	8.79	-30.8	-33.1	10.9	2.53e-03	0	42	0	36700160	22	4703
2026-01-15 11:08:34.19	184.77	8.87	-30.6	-32.5	11.4	1.43e-03	0	42	0	38797312	22	4491
2026-01-15 11:08:35.19	184.82	8.95	-30.6	-32.6	11.3	1.06e-03	0	42	0	40894464	22	4520
2026-01-15 11:08:36.19	184.88	9.03	-30.6	-32.6	11.3	1.13e-03	0	42	0	42991616	22	4520
2026-01-15 11:08:37.20	184.93	9.11	-30.6	-32.5	11.5	6.42e-04	0	42	0	45088768	22	4470
2026-01-15 11:08:38.20	184.98	9.19	-30.5	-32.3	11.6	8.37e-04	0	42	0	46137344	22	4394
2026-01-15 11:08:39.21	185.04	9.27	-30.5	-32.2	11.7	6.28e-04	0	42	0	48234496	22	4366
2026-01-15 11:08:40.21	185.09	9.35	-30.5	-32.1	11.7	6.04e-04	0	42	0	50331648	22	4350
2026-01-15 11:08:41.22	185.14	9.43	-30.6	-32.4	11.5	6.08e-04	0	42	0	52428800	22	4427
2026-01-15 11:08:42.22	185.20	9.52	-30.6	-32.4	11.5	1.13e-03	0	42	0	53477376	22	4451
2026-01-15 11:08:43.23	185.25	9.60	-30.5	-32.0	11.8	6.22e-04	0	42	0	55574528	22	4302
2026-01-15 11:08:44.23	185.31	9.68	-30.6	-32.3	11.6	6.87e-04	0	42	0	57671680	22	4394
2026-01-15 11:08:45.23	185.36	9.76	-30.4	-31.7	12.0	4.95e-04	0	42	0	59768832	22	4206
2026-01-15 11:08:46.23	185.42	9.84	-30.4	-31.8	12.0	3.92e-04	0	42	0	61865984	22	4222
2026-01-15 11:08:47.24	185.48	9.93	-30.4	-31.9	11.9	3.49e-04	0	42	0	62914560	22	4260
2026-01-15 11:08:48.24	185.53	10.01	-30.6	-32.5	11.5	6.54e-04	0	42	0	65011712	22	4464
2026-01-15 11:08:49.23	185.59	10.09	-30.4	-32.0	11.9	5.20e-04	0	42	0	67108864	22	4282
2026-01-15 11:08:50.23	185.65	10.18	-30.3	-31.5	12.2	2.69e-04	0	42	0	69206016	22	4147
2026-01-15 11:08:51.23	185.70	10.26	-30.3	-32.1	12.1	1.68e-04	0	42	0	71303168	21	4403
2026-01-15 11:08:52.24	185.76	10.35	-30.3	-32.0	12.2	2.86e-04	0	42	0	72351744	21	4378
2026-01-15 11:08:53.24	185.82	10.43	-30.2	-31.8	12.4	1.89e-04	0	42	0	74448896	21	4311
2026-01-15 11:08:54.24	185.88	10.51	-30.1	-31.5	12.6	8.01e-05	0	42	0	76546048	21	4200
2026-01-15 11:08:55.24	185.93	10.60	-30.2	-31.8	12.4	1.72e-04	0	42	0	78643200	21	4298
2026-01-15 11:08:56.25	185.99	10.69	-30.1	-31.3	12.6	1.04e-04	0	42	0	80740352	21	4166
2026-01-15 11:08:57.25	186.05	10.77	-30.0	-31.1	12.8	7.47e-05	0	42	0	81788928	21	4106
2026-01-15 11:08:58.24	186.11	10.86	-29.9	-30.8	13.0	5.56e-05	0	42	0	83886080	21	4009
2026-01-15 11:08:59.24	186.17	10.94	-29.9	-31.3	13.0	2.05e-05	0	42	0	85983232	20	4227
2026-01-15 11:09:00.24	186.23	11.03	-29.9	-31.2	13.1	2.97e-05	0	42	0	88080384	20	4220
2026-01-15 11:09:01.24	186.29	11.11	-29.8	-31.1	13.2	2.74e-05	0	42	0	90177536	20	4178
2026-01-15 11:09:02.24	186.35	11.20	-29.9	-31.3	13.0	2.74e-05	0	42	0	91226112	20	4247
2026-01-15 11:09:03.24	186.41	11.29	-29.9	-31.2	13.1	2.51e-05	0	42	0	93323264	20	4206
2026-01-15 11:09:04.25	186.48	11.38	-29.8	-31.0	13.3	2.36e-05	0	42	0	95420416	20	4148
2026-01-15 11:09:05.25	186.54	11.46	-29.8	-31.2	13.1	2.82e-05	0	42	0	97517568	20	4201
2026-01-15 11:09:06.26	186.60	11.55	-29.9	-31.4	13.1	2.67e-05	0	42	0	98566144	20	4258
2026-01-15 11:09:07.26	186.66	11.64	-29.9	-31.2	13.2	3.35e-05	0	42	0	100663296	20	4213
2026-01-15 11:09:08.25	186.72	11.73	-29.9	-31.4	13.0	2.21e-05	0	42	0	102760448	20	4272
2026-01-15 11:09:09.26	186.79	11.82	-29.9	-31.4	13.1	4.04e-05	0	42	0	104857600	20	4272
2026-01-15 11:09:10.26	186.85	11.91	-29.9	-31.4	13.1	3.50e-05	0	42	0	106954752	20	4259
2026-01-15 11:09:11.26	186.92	12.00	-30.0	-31.5	13.0	3.73e-05	0	42	0	108003328	20	4304
2026-01-15 11:09:12.25	186.98	12.08	-30.0	-31.5	13.0	4.57e-05	0	42	0	110100480	20	4279
2026-01-15 11:09:13.25	187.04	12.17	-30.0	-31.5	13.0	3.28e-05	0	42	0	112197632	20	4296
2026-01-15 11:09:14.25	187.11	12.26	-30.0	-31.7	12.8	3.89e-05	0	42	0	114294784	20	4372
2026-01-15 11:09:15.25	187.17	12.36	-30.0	-31.5	13.0	6.63e-05	0	42	0	116391936	20	4294
2026-01-15 11:09:16.25	187.24	12.45	-30.0	-31.5	13.0	3.05e-05	0	42	0	117440512	20	4288
2026-01-15 11:09:17.25	187.31	12.54	-29.9	-31.3	13.1	3.05e-05	0	42	0	119537664	20	4232
2026-01-15 11:09:18.25	187.37	12.63	-29.9	-31.3	13.1	2.97e-05	0	42	0	121634816	20	4238
2026-01-15 11:09:19.26	187.44	12.72	-29.9	-31.4	13.0	2.82e-05	0	42	0	123731968	20	4280
2026-01-15 11:09:20.27	187.51	12.81	-30.1	-31.7	12.9	3.96e-05	0	43	0	124780544	20	4368
2026-01-15 11:09:21.26	187.57	12.91	-30.1	-32.0	12.7	4.95e-05	0	42	0	126877696	20	4445
2026-01-15 11:09:22.27	187.64	13.00	-30.2	-32.1	12.6	7.85e-05	0	43	0	128974848	20	4499
2026-01-15 11:09:23.26	187.71	13.09	-30.1	-31.8	12.9	7.85e-05	0	42	0	131072000	20	4377
2026-01-15 11:09:24.26	187.78	13.19	-30.2	-32.0	12.8	5.56e-05	0	42	0	133169152	20	4452
2026-01-15 11:09:25.27	187.85	13.28	-30.3	-32.3	12.6	8.92e-05	0	42	0	134217728	20	4564
2026-01-15 11:09:26.27	187.92	13.37	-30.2	-32.1	12.7	7.70e-05	0	43	0	136314880	20	4463
2026-01-15 11:09:27.27	187.99	13.47	-30.2	-32.1	12.7	7.62e-05	0	42	0	138412032	20	4489
2026-01-15 11:09:28.27	188.06	13.56	-30.2	-32.2	12.7	8.01e-05	0	43	0	140509184	20	4503
2026-01-15 11:09:29.27	188.13	13.66	-30.3	-32.4	12.6	7.01e-05	0	43	0	142606336	20	4590
2026-01-15 11:09:30.27	188.20	13.75	-30.3	-32.5	12.5	1.07e-04	0	42	0	143654912	20	4611
2026-01-15 11:09:31.28	188.28	13.85	-30.5	-32.4	12.2	1.85e-04	0	43	0	145752064	21	4499
2026-01-15 11:09:32.28	188.35	13.95	-30.3	-31.8	12.7	1.65e-04	0	43	0	147849216	21	4285
2026-01-15 11:09:33.28	188.42	14.04	-30.1	-31.3	12.9	3.58e-05	0	43	0	149946368	21	4134
2026-01-15 11:09:34.28	188.49	14.14	-30.0	-30.9	13.2	2.59e-05	0	43	0	152043520	21	4022
2026-01-15 11:09:35.28	188.57	14.24	-29.8	-30.5	13.5	1.60e-05	0	43	0	153092096	21	3899
2026-01-15 11:09:36.27	188.64	14.33	-29.7	-30.8	13.7	8.30e-06	0	42	0	155189248	20	4055
2026-01-15 11:09:37.27	188.72	14.43	-29.7	-30.8	13.6	9.10e-06	0	43	0	157286400	20	4064
2026-01-15 11:09:38.27	188.79	14.53	-29.7	-30.8	13.7	7.60e-06	0	43	0	159383552	20	4065
2026-01-15 11:09:39.27	188.87	14.63	-29.8	-30.9	13.6	6.10e-06	0	43	0	160432128	20	4101
2026-01-15 11:09:40.27	188.94	14.73	-29.7	-30.6	13.8	6.10e-06	0	43	0	162529280	20	4005
2026-01-15 11:09:41.27	189.02	14.82	-29.6	-30.4	14.0	7.60e-06	0	43	0	164626432	20	3950
2026-01-15 11:09:42.27	189.10	14.92	-29.6	-30.5	13.9	1.50e-06	0	43	0	166723584	20	3967
2026-01-15 11:09:43.28	189.17	15.03	-29.6	-30.3	14.0	7.00e-07	0	43	0	168820736	20	3929
2026-01-15 11:09:44.28	189.25	15.13	-29.6	-30.3	14.0	4.50e-06	0	43	0	169869312	20	3924
2026-01-15 11:09:45.28	189.33	15.23	-29.6	-30.4	13.9	2.20e-06	0	43	0	171966464	20	3951
2026-01-15 11:09:46.28	189.41	15.33	-29.7	-30.6	13.8	3.00e-06	0	43	0	174063616	20	4008
2026-01-15 11:09:47.28	189.49	15.43	-29.6	-30.3	14.0	9.90e-06	0	43	0	176160768	20	3910
2026-01-15 11:09:48.29	189.57	15.53	-29.7	-30.7	13.7	3.80e-06	0	43	0	178257920	20	4043
2026-01-15 11:09:49.29	189.65	15.63	-29.7	-30.7	13.7	3.80e-06	0	43	0	179306496	20	4042
2026-01-15 11:09:50.29	189.73	15.74	-29.4	-30.0	14.2	4.50e-06	0	43	0	181403648	20	3825
2026-01-15 11:09:51.29	189.81	15.84	-29.3	-30.0	14.6	7.00e-07	0	43	0	183500800	19	3904
2026-01-15 11:09:52.29	189.90	15.94	-29.3	-30.0	14.6	7.00e-07	0	43	0	185597952	19	3927
2026-01-15 11:09:53.30	189.98	16.05	-29.3	-30.1	14.5	0.00e+00	0	43	0	187695104	19	3940
2026-01-15 11:09:54.30	190.06	16.15	-29.3	-30.0	14.6	7.00e-07	0	43	0	188743680	19	3921
2026-01-15 11:09:55.30	190.15	16.26	-29.4	-30.3	14.5	0.00e+00	0	43	0	190840832	19	3991
2026-01-15 11:09:56.31	190.23	16.36	-29.3	-30.0	14.6	2.20e-06	0	43	0	192937984	19	3924
2026-01-15 11:09:57.31	190.32	16.47	-29.3	-30.0	14.6	7.00e-07	0	43	0	195035136	19	3925
2026-01-15 11:09:58.31	190.40	16.57	-29.4	-30.2	14.5	7.00e-07	0	43	0	197132288	19	3966
2026-01-15 11:09:59.31	190.49	16.68	-29.4	-30.3	14.5	6.80e-06	0	43	0	198180864	19	3985
2026-01-15 11:10:00.32	190.58	16.79	-29.3	-30.1	14.5	0.00e+00	0	43	0	200278016	19	3939
2026-01-15 11:10:01.32	190.66	16.89	-29.5	-30.6	14.3	1.50e-06	0	43	0	202375168	19	4063
2026-01-15 11:10:02.32	190.75	17.00	-29.3	-30.0	14.6	9.10e-06	0	43	0	204472320	19	3922
2026-01-15 11:10:03.32	190.84	17.11	-29.4	-30.3	14.5	7.00e-07	0	43	0	205520896	19	3981
2026-01-15 11:10:04.32	190.93	17.22	-29.4	-30.2	14.5	0.00e+00	0	43	0	207618048	19	3963
2026-01-15 11:10:05.32	191.02	17.32	-29.3	-29.9	14.7	8.30e-06	0	43	0	209715200	19	3891
2026-01-15 11:10:06.32	191.11	17.43	-29.3	-30.0	14.7	7.00e-07	0	43	0	211812352	19	3916
2026-01-15 11:10:07.33	191.20	17.54	-29.2	-29.9	14.8	7.00e-07	0	43	0	213909504	19	3865
2026-01-15 11:10:08.34	191.29	17.65	-29.2	-29.8	14.8	5.30e-06	0	43	0	214958080	19	3861
2026-01-15 11:10:09.34	191.38	17.76	-29.2	-29.8	14.9	0.00e+00	0	43	0	217055232	19	3841
2026-01-15 11:10:10.33	191.48	17.87	-29.1	-29.4	15.1	0.00e+00	0	43	0	219152384	19	3752
2026-01-15 11:10:11.34	191.57	17.99	-29.0	-29.3	15.2	0.00e+00	0	43	0	221249536	19	3715
2026-01-15 11:10:12.34	191.67	18.10	-29.1	-29.4	15.1	0.00e+00	0	43	0	223346688	19	3742
2026-01-15 11:10:13.34	191.76	18.21	-29.1	-29.5	15.0	7.00e-07	0	43	0	224395264	19	3771
2026-01-15 11:10:14.33	191.85	18.32	-29.1	-29.5	15.1	0.00e+00	0	43	0	226492416	19	3778
2026-01-15 11:10:15.33	191.95	18.43	-29.1	-29.5	15.1	0.00e+00	0	43	0	228589568	19	3776
2026-01-15 11:10:16.33	192.05	18.55	-29.2	-29.7	14.9	0.00e+00	0	43	0	230686720	19	3833
2026-01-15 11:10:17.32	192.14	18.66	-29.2	-29.9	14.9	4.50e-06	0	43	0	231735296	19	3864
2026-01-15 11:10:18.32	192.24	18.77	-29.3	-29.9	14.8	0.00e+00	0	43	0	233832448	19	3883
2026-01-15 11:10:19.33	192.34	18.89	-29.4	-30.3	14.6	0.00e+00	0	43	0	235929600	19	3986
2026-01-15 11:10:20.32	192.44	19.00	-29.4	-30.4	14.5	2.20e-06	0	43	0	238026752	19	4003
2026-01-15 11:10:21.32	192.54	19.12	-29.3	-30.1	14.7	0.00e+00	0	43	0	240123904	19	3930
2026-01-15 11:10:22.32	192.64	19.24	-29.4	-30.3	14.6	0.00e+00	0	43	0	241172480	19	3980
2026-01-15 11:10:23.33	192.75	19.35	-29.4	-30.1	14.7	5.30e-06	0	43	0	243269632	19	3943
2026-01-15 11:10:24.33	192.85	19.47	-29.4	-30.3	14.6	0.00e+00	0	43	0	245366784	19	3976
2026-01-15 11:10:25.33	192.95	19.59	-29.4	-30.2	14.7	0.00e+00	0	43	0	247463936	19	3940
2026-01-15 11:10:26.33	193.06	19.70	-29.4	-30.1	14.7	7.00e-07	0	43	0	249561088	19	3933
2026-01-15 11:10:27.34	193.16	19.82	-29.3	-29.9	14.9	0.00e+00	0	43	0	250609664	19	3878
2026-01-15 11:10:28.34	193.27	19.94	-29.3	-29.9	14.9	0.00e+00	0	43	0	252706816	19	3878
2026-01-15 11:10:29.34	193.37	20.06	-29.3	-29.9	14.8	1.50e-06	0	43	0	254803968	19	3879
2026-01-15 11:10:30.34	193.48	20.18	-29.2	-29.8	14.9	0.00e+00	0	43	0	256901120	19	3829
2026-01-15 11:10:31.34	193.59	20.30	-29.2	-29.8	14.9	0.00e+00	0	43	0	258998272	19	3847
2026-01-15 11:10:32.34	193.70	20.42	-29.2	-29.6	15.1	1.50e-06	0	43	0	260046848	19	3787
2026-01-15 11:10:33.34	193.81	20.54	-29.2	-29.7	15.0	0.00e+00	0	43	0	262144000	19	3824
2026-01-15 11:10:34.35	193.92	20.67	-29.2	-29.7	15.1	0.00e+00	0	43	0	264241152	19	3806
2026-01-15 11:10:35.34	194.03	20.79	-29.2	-29.7	15.1	0.00e+00	0	43	0	266338304	19	3809
2026-01-15 11:10:36.34	194.14	20.91	-29.1	-29.5	15.2	0.00e+00	0	43	0	268435456	19	3761
2026-01-15 11:10:37.35	194.26	21.04	-29.0	-29.2	15.3	0.00e+00	0	43	0	269484032	19	3699
2026-01-15 11:10:38.35	194.37	21.16	-29.1	-29.5	15.2	0.00e+00	0	43	0	271581184	19	3752
2026-01-15 11:10:39.35	194.49	21.28	-28.8	-28.8	15.6	0.00e+00	0	43	0	273678336	19	3586
2026-01-15 11:10:40.35	194.60	21.41	-29.0	-29.3	15.3	0.00e+00	0	43	0	275775488	19	3705
2026-01-15 11:10:41.35	194.72	21.53	-29.1	-29.5	15.2	0.00e+00	0	43	0	277872640	19	3753
2026-01-15 11:10:42.36	194.84	21.66	-29.0	-29.1	15.4	0.00e+00	0	43	0	278921216	19	3661
2026-01-15 11:10:43.35	194.96	21.78	-29.0	-29.1	15.4	0.00e+00	0	43	0	281018368	19	3664
2026-01-15 11:10:44.35	195.08	21.91	-29.1	-29.4	15.2	0.00e+00	0	43	0	283115520	19	3745
2026-01-15 11:10:45.35	195.20	22.04	-29.1	-29.4	15.2	0.00e+00	0	43	0	285212672	19	3737
2026-01-15 11:10:46.35	195.32	22.17	-29.1	-29.4	15.3	0.00e+00	0	43	0	286261248	19	3732
2026-01-15 11:10:47.36	195.44	22.30	-29.2	-29.8	15.0	0.00e+00	0	43	0	288358400	19	3832
2026-01-15 11:10:48.36	195.57	22.42	-29.4	-30.1	14.8	0.00e+00	0	43	0	290455552	19	3933
2026-01-15 11:10:49.36	195.69	22.55	-29.1	-29.4	15.2	0.00e+00	0	43	0	292552704	19	3748
2026-01-15 11:10:50.36	195.82	22.68	-29.0	-29.2	15.4	0.00e+00	0	43	0	294649856	19	3690
2026-01-15 11:10:51.36	195.94	22.81	-29.0	-29.3	15.3	0.00e+00	0	43	0	295698432	19	3706
2026-01-15 11:10:52.36	196.07	22.94	-29.0	-29.2	15.4	0.00e+00	0	43	0	297795584	19	3693
2026-01-15 11:10:53.36	196.20	23.08	-29.0	-29.3	15.3	0.00e+00	0	43	0	299892736	19	3719
2026-01-15 11:10:54.36	196.33	23.21	-29.1	-29.4	15.3	0.00e+00	0	43	0	301989888	19	3736
2026-01-15 11:10:55.36	196.46	23.34	-29.1	-29.4	15.3	0.00e+00	0	43	0	304087040	19	3724
2026-01-15 11:10:56.36	196.59	23.47	-29.2	-29.6	15.2	0.00e+00	0	43	0	305135616	19	3787
2026-01-15 11:10:57.36	196.72	23.61	-29.3	-29.9	15.0	7.00e-07	0	43	0	307232768	19	3853
2026-01-15 11:10:58.36	196.86	23.74	-29.2	-29.7	15.1	0.00e+00	0	43	0	309329920	19	3812
2026-01-15 11:10:59.36	196.99	23.87	-29.3	-29.9	14.9	0.00e+00	0	43	0	311427072	19	3861
2026-01-15 11:11:00.36	197.13	24.01	-29.3	-30.0	14.9	0.00e+00	0	43	0	312475648	19	3893
2026-01-15 11:11:01.37	197.27	24.15	-29.4	-30.3	14.7	0.00e+00	0	43	0	314572800	19	3968
2026-01-15 11:11:02.37	197.41	24.28	-29.6	-30.7	14.5	0.00e+00	0	43	0	316669952	19	4096
2026-01-15 11:11:03.38	197.55	24.42	-29.4	-30.3	14.7	7.00e-07	0	43	0	318767104	19	3974
2026-01-15 11:11:04.37	197.69	24.56	-29.5	-30.5	14.6	0.00e+00	0	43	0	320864256	19	4028
2026-01-15 11:11:05.37	197.83	24.69	-29.5	-30.5	14.6	0.00e+00	0	43	0	321912832	19	4025
2026-01-15 11:11:06.36	197.97	24.83	-29.7	-31.0	14.3	0.00e+00	0	43	0	324009984	19	4167
2026-01-15 11:11:07.36	198.11	24.97	-29.5	-30.4	14.7	0.00e+00	0	43	0	326107136	19	3994
2026-01-15 11:11:08.36	198.26	25.11	-29.6	-30.7	14.5	0.00e+00	0	43	0	328204288	19	4102
2026-01-15 11:11:09.36	198.41	25.25	-29.5	-30.6	14.6	0.00e+00	0	43	0	330301440	19	4044
2026-01-15 11:11:10.36	198.56	25.39	-29.7	-30.9	14.4	0.00e+00	0	43	0	331350016	19	4144
2026-01-15 11:11:11.36	198.71	25.53	-29.6	-30.8	14.5	1.50e-06	0	43	0	333447168	19	4110
2026-01-15 11:11:12.36	198.86	25.67	-29.5	-30.6	14.6	0.00e+00	0	43	0	335544320	19	4044
2026-01-15 11:11:13.37	199.01	25.82	-29.7	-30.9	14.4	7.00e-07	0	43	0	337641472	19	4157
2026-01-15 11:11:14.38	199.17	25.96	-29.7	-30.9	14.4	7.00e-07	0	43	0	339738624	19	4145
2026-01-15 11:11:15.38	199.32	26.10	-29.7	-31.0	14.3	7.00e-07	0	43	0	340787200	19	4172
2026-01-15 11:11:16.38	199.48	26.25	-29.7	-31.0	14.4	7.00e-07	0	43	0	342884352	19	4186
2026-01-15 11:11:17.38	199.63	26.39	-29.9	-31.4	14.1	7.00e-07	0	43	0	344981504	19	4293
2026-01-15 11:11:18.39	199.79	26.54	-29.8	-31.1	14.3	7.00e-07	0	43	0	347078656	19	4214
2026-01-15 11:11:19.38	199.95	26.68	-29.7	-31.0	14.3	7.00e-07	0	43	0	349175808	19	4183
2026-01-15 11:11:20.38	200.12	26.83	-29.9	-31.6	14.0	7.00e-07	0	43	0	350224384	19	4341
2026-01-15 11:11:21.37	200.28	26.97	-30.0	-31.6	14.1	7.00e-07	0	43	0	352321536	19	4355
2026-01-15 11:11:22.37	200.44	27.12	-29.6	-30.8	14.5	1.50e-06	0	43	0	354418688	19	4103
2026-01-15 11:11:23.37	200.61	27.27	-29.6	-30.7	14.6	0.00e+00	0	43	0	356515840	19	4090
2026-01-15 11:11:24.37	200.78	27.42	-29.8	-31.3	14.2	1.50e-06	0	43	0	357564416	19	4257
2026-01-15 11:11:25.38	200.95	27.57	-29.9	-30.8	14.1	3.80e-06	0	43	0	359661568	20	4034
2026-01-15 11:11:26.38	201.12	27.72	-30.0	-31.4	13.9	1.50e-06	0	43	0	361758720	20	4185
2026-01-15 11:11:27.38	201.29	27.87	-30.1	-31.6	13.7	6.80e-06	0	43	0	363855872	20	4259
2026-01-15 11:11:28.38	201.46	28.02	-30.0	-31.3	13.8	1.37e-05	0	43	0	365953024	20	4176
2026-01-15 11:11:29.38	201.64	28.17	-30.3	-31.9	13.4	9.90e-06	0	43	0	367001600	20	4362
2026-01-15 11:11:30.38	201.82	28.32	-30.4	-31.9	13.1	2.97e-05	0	43	0	369098752	21	4250
2026-01-15 11:11:31.38	202.00	28.47	-30.6	-32.2	12.9	2.97e-05	0	43	0	371195904	21	4374
2026-01-15 11:11:32.39	202.18	28.62	-30.7	-32.5	12.8	1.05e-04	0	43	0	373293056	21	4458
2026-01-15 11:11:33.39	202.36	28.78	-30.8	-32.9	12.5	1.11e-04	0	43	0	375390208	21	4590
2026-01-15 11:11:34.39	202.55	28.93	-30.9	-33.1	12.4	1.63e-04	0	43	0	376438784	21	4675
2026-01-15 11:11:35.39	202.73	29.09	-30.9	-33.1	12.3	2.16e-04	0	43	0	378535936	21	4677
2026-01-15 11:11:36.40	202.92	29.24	-31.0	-32.9	12.2	1.39e-04	0	43	0	380633088	22	4505
2026-01-15 11:11:37.40	203.11	29.40	-30.9	-32.7	12.3	2.15e-04	0	43	0	382730240	22	4438
2026-01-15 11:11:38.40	203.30	29.55	-30.7	-32.2	12.7	1.12e-04	0	43	0	384827392	22	4268
2026-01-15 11:11:39.40	203.49	29.71	-30.8	-32.5	12.5	1.41e-04	0	43	0	385875968	22	4357
2026-01-15 11:11:40.40	203.69	29.87	-30.9	-32.8	12.3	1.61e-04	0	43	0	387973120	22	4457
2026-01-15 11:11:41.41	203.89	30.02	-31.0	-33.0	12.1	3.41e-04	0	43	0	390070272	22	4535
2026-01-15 11:11:42.42	204.09	30.18	-31.0	-33.0	12.1	2.51e-04	0	43	0	392167424	22	4537
2026-01-15 11:11:43.41	204.29	30.34	-31.0	-33.0	12.2	2.97e-04	0	43	0	393216000	22	4536
2026-01-15 11:11:44.41	204.49	30.50	-30.9	-32.7	12.3	2.71e-04	0	43	0	395313152	22	4431
2026-01-15 11:11:45.41	204.69	30.66	-30.8	-32.5	12.5	1.74e-04	0	43	0	397410304	22	4358
2026-01-15 11:11:46.42	204.90	30.82	-30.8	-32.3	12.6	1.60e-04	0	43	0	399507456	22	4295
2026-01-15 11:11:47.42	205.11	30.98	-30.8	-32.4	12.6	1.18e-04	0	43	0	401604608	22	4335
2026-01-15 11:11:48.42	205.32	31.14	-31.0	-32.9	12.3	1.44e-04	0	43	0	402653184	22	4487
2026-01-15 11:11:49.43	205.53	31.30	-31.2	-33.4	11.9	1.69e-04	0	43	0	404750336	22	4645
2026-01-15 11:11:50.43	205.75	31.47	-31.2	-33.6	11.8	6.45e-04	0	43	0	406847488	22	4735
2026-01-15 11:11:51.43	205.96	31.63	-31.2	-33.5	11.6	6.66e-04	0	43	0	408944640	22	4699
2026-01-15 11:11:52.44	206.19	31.79	-31.3	-33.7	11.7	9.83e-04	0	43	0	411041792	22	4779
2026-01-15 11:11:53.43	206.40	31.95	-31.2	-33.5	11.8	7.76e-04	0	43	0	412090368	22	4694
2026-01-15 11:11:54.43	206.63	32.12	-31.0	-32.9	12.3	1.97e-04	0	43	0	414187520	22	4482
2026-01-15 11:11:55.43	206.85	32.28	-30.9	-32.6	12.5	8.08e-05	0	43	0	416284672	22	4379
2026-01-15 11:11:56.43	207.08	32.44	-30.8	-32.5	12.6	1.26e-04	0	43	0	418381824	22	4339
2026-01-15 11:11:57.44	207.31	32.61	-30.5	-31.5	13.2	4.11e-05	0	43	0	420478976	22	4024
2026-01-15 11:11:58.44	207.54	32.78	-30.7	-32.1	12.8	2.05e-05	0	43	0	421527552	22	4231
2026-01-15 11:11:59.44	207.78	32.94	-30.8	-32.4	12.8	7.78e-05	0	43	0	423624704	22	4301
2026-01-15 11:12:00.45	208.02	33.11	-31.0	-32.8	12.3	7.09e-05	0	43	0	425721856	22	4460
2026-01-15 11:12:01.45	208.26	33.28	-31.1	-33.3	12.1	3.07e-04	0	43	0	427819008	22	4607
2026-01-15 11:12:02.45	208.50	33.44	-31.1	-33.3	12.0	2.30e-04	0	43	0	429916160	22	4611
2026-01-15 11:12:03.45	208.74	33.61	-31.2	-33.5	11.9	5.16e-04	0	43	0	430964736	22	4710
2026-01-15 11:12:04.45	208.99	33.78	-31.2	-33.4	11.9	3.81e-04	0	43	0	433061888	22	4664
2026-01-15 11:12:05.45	209.24	33.94	-31.2	-33.5	11.9	3.30e-04	0	43	0	435159040	22	4683
2026-01-15 11:12:06.45	209.49	34.11	-30.7	-32.1	12.8	9.23e-05	0	43	0	437256192	22	4218
2026-01-15 11:12:07.46	209.75	34.28	-30.5	-31.6	13.3	3.73e-05	0	43	0	438304768	22	4067
2026-01-15 11:12:08.46	210.00	34.45	-30.0	-30.6	14.1	2.20e-06	0	43	0	440401920	21	3871
2026-01-15 11:12:09.46	210.26	34.62	-30.0	-30.7	14.0	3.00e-06	0	43	0	442499072	21	3883
2026-01-15 11:12:10.47	210.53	34.79	-30.1	-31.0	13.9	2.20e-06	0	43	0	444596224	21	3975
2026-01-15 11:12:11.47	210.79	34.96	-30.2	-31.3	13.7	7.00e-07	0	43	0	446693376	21	4058
2026-01-15 11:12:12.47	211.06	35.13	-30.4	-31.7	13.5	6.80e-06	0	43	0	447741952	21	4190
2026-01-15 11:12:13.47	211.33	35.30	-30.5	-31.9	13.3	2.21e-05	0	43	0	449839104	21	4236
2026-01-15 11:12:14.47	211.60	35.47	-30.6	-32.4	13.0	2.59e-05	0	43	0	451936256	21	4390
2026-01-15 11:12:15.48	211.88	35.64	-30.6	-32.1	13.2	1.75e-05	0	43	0	454033408	21	4305
2026-01-15 11:12:16.48	212.16	35.81	-30.5	-32.0	13.2	2.05e-05	0	43	0	456130560	21	4276
2026-01-15 11:12:17.48	212.44	35.98	-30.6	-32.2	13.1	2.74e-05	0	43	0	457179136	21	4341
2026-01-15 11:12:18.48	212.72	36.15	-30.4	-31.7	13.5	1.44e-05	0	43	0	459276288	21	4166
2026-01-15 11:12:19.48	213.01	36.32	-30.7	-32.4	13.1	1.60e-05	0	43	0	461373440	21	4400
2026-01-15 11:12:20.49	213.30	36.50	-30.6	-32.3	13.1	3.89e-05	0	43	0	463470592	21	4378
2026-01-15 11:12:21.49	213.60	36.67	-30.6	-32.1	13.2	6.25e-05	0	43	0	465567744	21	4310
2026-01-15 11:12:22.50	213.90	36.84	-30.4	-31.8	13.4	1.60e-05	0	43	0	466616320	21	4207
2026-01-15 11:12:23.50	214.20	37.01	-30.3	-31.5	13.6	4.50e-06	0	43	0	468713472	21	4129
2026-01-15 11:12:24.50	214.50	37.18	-30.3	-31.3	13.7	3.00e-06	0	43	0	470810624	21	4062
2026-01-15 11:12:25.50	214.81	37.35	-29.9	-30.5	14.3	7.00e-07	0	43	0	472907776	21	3834
2026-01-15 11:12:26.49	215.11	37.52	-29.7	-30.4	14.7	7.00e-07	0	43	0	475004928	20	3891
2026-01-15 11:12:27.49	215.42	37.70	-29.8	-30.6	14.4	7.00e-07	0	43	0	476053504	20	3943
2026-01-15 11:12:28.49	215.74	37.87	-29.5	-29.8	15.0	1.50e-06	0	43	0	478150656	20	3744
2026-01-15 11:12:29.49	216.06	38.04	-29.3	-29.4	15.2	0.00e+00	0	43	0	480247808	20	3642
2026-01-15 11:12:30.50	216.38	38.21	-29.3	-29.8	15.3	0.00e+00	0	43	0	482344960	19	3817
2026-01-15 11:12:31.50	216.71	38.38	-29.4	-30.0	15.1	0.00e+00	0	44	0	483393536	19	3879
2026-01-15 11:12:32.51	217.04	38.55	-29.5	-30.3	15.0	0.00e+00	0	43	0	485490688	19	3958
2026-01-15 11:12:33.51	217.37	38.72	-29.7	-30.7	14.8	7.00e-07	0	43	0	487587840	19	4069
2026-01-15 11:12:34.51	217.71	38.89	-29.7	-30.7	14.8	0.00e+00	0	43	0	489684992	19	4070
2026-01-15 11:12:35.50	218.04	39.06	-29.7	-30.8	14.8	7.00e-07	0	43	0	491782144	19	4081
2026-01-15 11:12:36.50	218.38	39.23	-29.7	-30.7	14.8	7.00e-07	0	43	0	492830720	19	4053
2026-01-15 11:12:37.51	218.73	39.40	-29.8	-31.1	14.5	0.00e+00	0	43	0	494927872	19	4173
2026-01-15 11:12:38.50	219.08	39.57	-29.8	-31.1	14.6	0.00e+00	0	43	0	497025024	19	4177
2026-01-15 11:12:39.50	219.43	39.74	-29.9	-31.3	14.5	0.00e+00	0	43	0	499122176	19	4233
2026-01-15 11:12:40.51	219.79	39.91	-30.0	-31.0	14.3	7.00e-07	0	43	0	501219328	20	4058
2026-01-15 11:12:41.51	220.15	40.08	-30.2	-31.6	13.8	2.20e-06	0	43	0	502267904	20	4225
2026-01-15 11:12:42.52	220.52	40.24	-30.4	-32.1	13.6	9.90e-06	0	43	0	504365056	20	4382
2026-01-15 11:12:43.51	220.89	40.41	-30.7	-32.4	13.1	3.89e-05	0	43	0	506462208	21	4401
2026-01-15 11:12:44.51	221.26	40.58	-30.7	-32.5	13.0	3.05e-05	0	43	0	508559360	21	4419
2026-01-15 11:12:45.52	221.64	40.74	-30.7	-32.6	12.8	4.65e-05	0	43	0	510656512	21	4467
2026-01-15 11:12:46.52	222.02	40.91	-30.4	-31.6	13.6	1.37e-05	0	43	0	511705088	21	4131
2026-01-15 11:12:47.52	222.40	41.07	-30.1	-31.0	14.0	3.00e-06	0	43	0	513802240	21	3957
2026-01-15 11:12:48.52	222.79	41.24	-30.0	-30.7	14.1	7.00e-07	0	43	0	515899392	21	3887
2026-01-15 11:12:49.51	223.17	41.40	-30.4	-31.6	13.6	2.20e-06	0	43	0	517996544	21	4139
2026-01-15 11:12:50.52	223.57	41.56	-30.7	-32.5	13.0	6.80e-06	0	43	0	519045120	21	4429
2026-01-15 11:12:51.52	223.97	41.72	-30.9	-32.6	12.5	1.71e-04	0	43	0	521142272	22	4384
2026-01-15 11:12:52.51	224.37	41.88	-30.6	-31.8	13.1	4.50e-05	0	43	0	523239424	22	4111
2026-01-15 11:12:53.51	224.77	42.04	-30.1	-30.9	14.1	3.00e-06	0	43	0	525336576	21	3925
2026-01-15 11:12:54.51	225.18	42.20	-29.9	-30.2	14.4	7.00e-07	0	43	0	527433728	21	3757
2026-01-15 11:12:55.50	225.59	42.36	-30.2	-31.1	13.9	1.50e-06	0	43	0	528482304	21	4002
2026-01-15 11:12:56.51	226.02	42.52	-30.5	-32.0	13.3	8.30e-06	0	43	0	530579456	21	4257
2026-01-15 11:12:57.50	226.44	42.67	-30.7	-32.4	13.2	3.05e-05	0	43	0	532676608	21	4378
2026-01-15 11:12:58.50	226.86	42.83	-30.7	-32.5	12.9	3.12e-05	0	43	0	534773760	21	4426
2026-01-15 11:12:59.51	227.30	42.98	-30.8	-32.7	13.0	5.34e-05	0	43	0	536870912	21	4493
2026-01-15 11:13:00.51	227.73	43.13	-30.8	-32.6	12.9	5.64e-05	0	43	0	537919488	21	4457
2026-01-15 11:13:01.50	228.17	43.28	-30.7	-32.5	13.0	5.26e-05	0	43	0	540016640	21	4438
2026-01-15 11:13:02.50	228.61	43.43	-30.2	-31.2	13.9	2.67e-05	0	43	0	542113792	21	4013
2026-01-15 11:13:03.50	229.05	43.58	-30.2	-31.1	13.8	8.30e-06	0	43	0	544210944	21	4001
2026-01-15 11:13:04.50	229.51	43.73	-30.4	-31.5	13.7	9.90e-06	0	43	0	545259520	21	4104
2026-01-15 11:13:05.50	229.96	43.88	-30.8	-32.6	13.1	2.89e-05	0	43	0	547356672	21	4438
2026-01-15 11:13:06.50	230.42	44.02	-31.0	-33.1	12.6	5.64e-05	0	43	0	549453824	21	4635
2026-01-15 11:13:07.50	230.88	44.17	-31.2	-33.2	12.2	1.44e-04	0	43	0	551550976	22	4567
2026-01-15 11:13:08.50	231.35	44.31	-31.1	-32.9	12.5	2.30e-04	0	43	0	553648128	22	4460
2026-01-15 11:13:09.50	231.82	44.45	-30.9	-32.6	12.7	1.94e-04	0	43	0	554696704	22	4351
2026-01-15 11:13:10.50	232.30	44.59	-30.7	-31.8	13.1	4.88e-05	0	43	0	556793856	22	4116
2026-01-15 11:13:11.51	232.78	44.72	-30.0	-30.6	14.1	1.06e-05	0	43	0	558891008	21	3847
2026-01-15 11:13:12.51	233.27	44.86	-29.9	-30.4	14.4	2.20e-06	0	43	0	560988160	21	3794
2026-01-15 11:13:13.51	233.75	44.99	-30.4	-31.5	13.7	3.00e-06	0	43	0	563085312	21	4114
2026-01-15 11:13:14.51	234.25	45.12	-30.8	-32.7	12.9	2.21e-05	0	43	0	564133888	21	4488
2026-01-15 11:13:15.52	234.75	45.26	-30.6	-32.1	13.4	3.81e-05	0	43	0	566231040	21	4280
2026-01-15 11:13:16.52	235.25	45.38	-30.3	-31.3	13.9	6.10e-06	0	43	0	568328192	21	4046
2026-01-15 11:13:17.52	235.75	45.51	-30.7	-32.4	13.2	5.30e-06	0	44	0	570425344	21	4379
2026-01-15 11:13:18.52	236.26	45.63	-31.3	-33.7	12.0	1.31e-04	0	43	0	572522496	22	4715
2026-01-15 11:13:19.52	236.77	45.75	-32.1	-35.2	10.1	6.87e-04	0	43	0	573571072	24	5129
2026-01-15 11:13:20.52	237.29	45.87	-31.8	-34.0	11.0	3.81e-03	0	43	0	575668224	24	4670
2026-01-15 11:13:21.53	237.81	45.99	-31.7	-33.7	11.3	1.26e-03	0	43	0	577765376	24	4548
2026-01-15 11:13:22.53	238.33	46.11	-31.9	-34.6	10.7	1.11e-03	0	43	0	579862528	24	4873
2026-01-15 11:13:23.54	238.87	46.22	-32.1	-35.3	10.1	5.63e-03	0	43	0	581959680	24	5158
2026-01-15 11:13:24.54	239.40	46.33	-32.2	-35.4	10.1	5.35e-03	0	43	0	583008256	24	5225
2026-01-15 11:13:25.54	239.93	46.44	-32.0	-34.8	10.5	4.55e-03	0	43	0	585105408	24	4945
2026-01-15 11:13:26.54	240.47	46.55	-31.9	-34.6	10.6	3.43e-03	0	43	0	587202560	24	4866
2026-01-15 11:13:27.54	241.01	46.65	-32.2	-35.5	10.1	5.17e-03	0	43	0	589299712	24	5271
2026-01-15 11:13:28.54	241.55	46.75	-32.3	-35.9	9.7	9.53e-03	0	44	0	590348288	24	5445
2026-01-15 11:13:29.54	242.10	46.85	-32.9	-37.8	7.9	2.02e-02	0	43	0	592445440	25	6316
2026-01-15 11:13:30.54	242.65	46.94	-33.0	-37.7	7.4	8.39e-02	0	43	0	594542592	26	6159
2026-01-15 11:13:31.54	243.21	47.04	-32.6	-35.9	8.9	6.52e-02	0	43	0	596639744	26	5258
2026-01-15 11:13:32.54	243.77	47.13	-32.0	-34.3	10.5	1.16e-02	0	43	0	598736896	25	4682
2026-01-15 11:13:33.54	244.33	47.21	-32.2	-35.1	10.0	5.17e-03	0	44	0	599785472	25	4983
2026-01-15 11:13:34.55	244.90	47.30	-32.4	-35.6	9.5	9.79e-03	0	43	0	601882624	25	5191
2026-01-15 11:13:35.54	245.46	47.38	-32.5	-35.9	9.2	1.51e-02	0	43	0	603979776	25	5360
2026-01-15 11:13:36.55	246.04	47.46	-31.9	-33.8	10.9	6.84e-03	0	43	0	606076928	25	4484
2026-01-15 11:13:37.54	246.61	47.53	-31.3	-32.9	12.2	2.49e-04	0	43	0	608174080	23	4363
2026-01-15 11:13:38.54	247.18	47.61	-31.5	-33.5	11.8	1.59e-04	0	44	0	609222656	23	4573
2026-01-15 11:13:39.54	247.76	47.68	-31.9	-34.5	10.8	1.63e-03	0	43	0	611319808	24	4850
2026-01-15 11:13:40.54	248.34	47.75	-32.2	-35.6	9.9	5.83e-03	0	44	0	613416960	24	5306
2026-01-15 11:13:41.53	248.92	47.81	-32.2	-35.3	10.1	7.65e-03	0	43	0	615514112	24	5176
2026-01-15 11:13:42.53	249.50	47.87	-32.0	-34.8	10.4	5.75e-03	0	43	0	617611264	24	4962
2026-01-15 11:13:43.54	250.10	47.93	-31.9	-34.5	10.6	5.01e-03	0	43	0	618659840	24	4822
2026-01-15 11:13:44.54	250.69	47.98	-31.7	-33.8	11.2	1.03e-03	0	43	0	620756992	24	4581
2026-01-15 11:13:45.54	251.28	48.03	-31.6	-33.3	11.5	4.56e-04	0	43	0	622854144	24	4401
2026-01-15 11:13:46.55	251.88	48.08	-31.4	-33.3	12.0	2.82e-04	0	43	0	624951296	23	4486
2026-01-15 11:13:47.55	252.48	48.13	-31.4	-33.2	12.0	3.39e-04	0	43	0	625999872	23	4466
2026-01-15 11:13:48.55	253.07	48.17	-31.8	-34.6	11.1	7.71e-04	0	43	0	628097024	23	4959
2026-01-15 11:13:49.54	253.67	48.21	-32.2	-35.5	10.0	7.21e-03	0	43	0	630194176	24	5269
2026-01-15 11:13:50.55	254.27	48.24	-32.3	-35.7	9.8	6.51e-03	0	43	0	632291328	24	5335
2026-01-15 11:13:51.55	254.87	48.28	-31.7	-33.8	11.2	3.26e-03	0	43	0	634388480	24	4581
2026-01-15 11:13:52.54	255.47	48.31	-31.7	-33.8	11.3	1.05e-03	0	43	0	635437056	24	4564
2026-01-15 11:13:53.55	256.08	48.33	-32.2	-35.5	10.1	1.11e-03	0	43	0	637534208	24	5250
2026-01-15 11:13:54.55	256.69	48.35	-32.4	-35.7	9.4	1.59e-02	0	43	0	639631360	25	5257
2026-01-15 11:13:55.55	257.29	48.37	-32.1	-34.6	10.4	8.26e-03	0	43	0	641728512	25	4799
2026-01-15 11:13:56.54	257.89	48.39	-31.5	-33.2	11.7	1.16e-03	0	43	0	643825664	24	4374
2026-01-15 11:13:57.55	258.50	48.40	-31.4	-33.0	11.8	3.33e-04	0	43	0	644874240	24	4288
2026-01-15 11:13:58.55	259.11	48.41	-31.6	-33.5	11.5	9.22e-04	0	43	0	646971392	24	4473
2026-01-15 11:13:59.55	259.72	48.41	-31.4	-32.9	11.9	8.08e-04	0	44	0	649068544	24	4268
2026-01-15 11:14:00.56	260.33	48.41	-31.0	-32.3	12.6	2.21e-04	0	43	0	651165696	23	4152
2026-01-15 11:14:01.57	260.94	48.41	-31.2	-32.8	12.4	9.61e-05	0	43	0	652214272	23	4306
2026-01-15 11:14:02.56	261.55	48.41	-31.5	-33.7	11.8	4.73e-04	0	43	0	654311424	23	4616
2026-01-15 11:14:03.57	262.16	48.40	-31.8	-34.4	11.2	1.36e-03	0	43	0	656408576	23	4882
2026-01-15 11:14:04.57	262.77	48.39	-31.2	-32.7	12.3	6.14e-04	0	43	0	658505728	23	4289
2026-01-15 11:14:05.57	263.37	48.37	-30.2	-31.0	14.1	1.75e-05	0	44	0	660602880	21	3964
2026-01-15 11:14:06.57	263.98	48.35	-30.2	-31.0	14.2	2.20e-06	0	43	0	661651456	21	3958
2026-01-15 11:14:07.56	264.58	48.33	-30.7	-32.3	13.4	3.80e-06	0	43	0	663748608	21	4335
2026-01-15 11:14:08.57	265.18	48.30	-31.0	-32.6	12.8	6.02e-05	0	43	0	665845760	22	4338
2026-01-15 11:14:09.57	265.79	48.28	-31.0	-32.6	12.8	7.09e-05	0	43	0	667942912	22	4330
2026-01-15 11:14:10.57	266.39	48.24	-31.1	-32.9	12.6	1.04e-04	0	43	0	670040064	22	4460
2026-01-15 11:14:11.56	266.98	48.21	-31.7	-34.1	11.5	6.48e-04	0	43	0	671088640	23	4789
2026-01-15 11:14:12.57	267.59	48.17	-31.1	-32.5	12.4	5.86e-04	0	43	0	673185792	23	4225
2026-01-15 11:14:13.56	268.18	48.13	-29.9	-30.4	14.5	1.06e-05	0	43	0	675282944	21	3775
2026-01-15 11:14:14.56	268.77	48.08	-29.8	-30.6	14.7	7.00e-07	0	43	0	677380096	20	3919
2026-01-15 11:14:15.56	269.37	48.03	-30.4	-32.1	13.8	3.00e-06	0	43	0	679477248	20	4372
2026-01-15 11:14:16.56	269.96	47.98	-31.1	-32.8	12.7	2.05e-05	0	43	0	680525824	22	4412
2026-01-15 11:14:17.55	270.54	47.93	-31.2	-33.1	12.6	1.20e-04	0	44	0	682622976	22	4509
2026-01-15 11:14:18.56	271.13	47.87	-31.6	-34.0	11.5	6.55e-04	0	44	0	684720128	23	4735
2026-01-15 11:14:19.56	271.72	47.81	-31.5	-33.8	11.7	4.36e-04	0	43	0	686817280	23	4649
2026-01-15 11:14:20.56	272.30	47.75	-31.7	-34.1	11.4	6.40e-04	0	43	0	687865856	23	4783
2026-01-15 11:14:21.57	272.89	47.68	-31.5	-33.6	11.9	1.06e-03	0	43	0	689963008	23	4578
2026-01-15 11:14:22.57	273.47	47.61	-31.4	-33.3	12.0	6.49e-04	0	44	0	692060160	23	4490
2026-01-15 11:14:23.57	274.04	47.53	-31.4	-33.4	11.9	3.29e-04	0	43	0	694157312	23	4523
2026-01-15 11:14:24.58	274.62	47.46	-31.8	-34.6	11.1	8.18e-04	0	43	0	696254464	23	4960
2026-01-15 11:14:25.58	275.19	47.38	-31.8	-34.6	11.1	1.65e-03	0	43	0	697303040	23	4971
2026-01-15 11:14:26.59	275.76	47.30	-31.4	-33.2	12.1	9.46e-04	0	43	0	699400192	23	4452
2026-01-15 11:14:27.60	276.33	47.21	-31.1	-32.4	12.7	1.30e-04	0	44	0	701497344	23	4176
2026-01-15 11:14:28.59	276.89	47.12	-30.8	-32.1	13.1	2.51e-05	0	43	0	703594496	22	4195
2026-01-15 11:14:29.60	277.45	47.03	-30.6	-31.6	13.5	1.90e-05	0	43	0	705691648	22	4033
2026-01-15 11:14:30.59	278.00	46.94	-30.1	-30.7	14.4	7.00e-07	0	43	0	706740224	21	3854
2026-01-15 11:14:31.59	278.55	46.85	-29.9	-30.1	14.8	0.00e+00	0	43	0	708837376	21	3703
2026-01-15 11:14:32.59	279.10	46.75	-30.6	-32.2	13.4	7.60e-06	0	43	0	710934528	21	4294
2026-01-15 11:14:33.58	279.63	46.65	-31.6	-33.8	11.7	2.66e-04	0	44	0	713031680	23	4655
2026-01-15 11:14:34.59	280.18	46.54	-31.9	-34.3	11.0	1.82e-03	0	43	0	715128832	24	4762
2026-01-15 11:14:35.59	280.72	46.44	-30.8	-31.5	13.2	1.16e-04	0	43	0	716177408	23	3906
2026-01-15 11:14:36.60	281.26	46.33	-30.5	-31.1	13.8	5.30e-06	0	44	0	718274560	22	3886
2026-01-15 11:14:37.60	281.78	46.22	-30.5	-31.7	13.8	0.00e+00	0	43	0	720371712	21	4144
2026-01-15 11:14:38.60	282.31	46.11	-30.6	-32.1	13.5	8.30e-06	0	43	0	722468864	21	4259
2026-01-15 11:14:39.60	282.83	45.99	-31.0	-32.7	12.8	2.74e-05	0	43	0	724566016	22	4378
2026-01-15 11:14:40.61	283.36	45.87	-31.1	-32.8	12.7	4.65e-05	0	43	0	725614592	22	4395
2026-01-15 11:14:41.61	283.87	45.76	-31.1	-33.0	12.5	9.00e-05	0	43	0	727711744	22	4454
2026-01-15 11:14:42.61	284.38	45.63	-31.2	-33.1	12.5	1.18e-04	0	44	0	729808896	22	4501
2026-01-15 11:14:43.61	284.89	45.51	-32.1	-34.9	10.6	1.04e-03	0	43	0	731906048	24	4983
2026-01-15 11:14:44.61	285.39	45.39	-32.3	-35.9	9.8	9.45e-03	0	43	0	732954624	24	5424
2026-01-15 11:14:45.61	285.89	45.26	-31.6	-33.4	11.6	8.59e-03	0	43	0	735051776	24	4441
2026-01-15 11:14:46.61	286.38	45.13	-30.9	-31.8	13.1	6.56e-05	0	43	0	737148928	23	3996
2026-01-15 11:14:47.61	286.87	45.00	-30.7	-31.8	13.4	1.60e-05	0	43	0	739246080	22	4093
2026-01-15 11:14:48.61	287.36	44.86	-31.0	-32.7	12.8	1.52e-05	0	43	0	741343232	22	4378
2026-01-15 11:14:49.61	287.84	44.73	-31.4	-33.2	12.1	3.28e-04	0	43	0	742391808	23	4462
2026-01-15 11:14:50.61	288.32	44.59	-30.9	-31.9	13.0	1.62e-04	0	43	0	744488960	23	4033
2026-01-15 11:14:51.61	288.80	44.46	-29.9	-30.3	14.6	6.80e-06	0	43	0	746586112	21	3749
2026-01-15 11:14:52.61	289.27	44.32	-29.3	-29.7	15.6	0.00e+00	0	43	0	748683264	19	3762
2026-01-15 11:14:53.61	289.73	44.17	-29.5	-30.3	15.3	0.00e+00	0	43	0	750780416	19	3914
2026-01-15 11:14:54.61	290.20	44.03	-30.0	-31.1	14.5	0.00e+00	0	43	0	751828992	20	4063
2026-01-15 11:14:55.61	290.65	43.89	-30.2	-31.4	14.2	0.00e+00	0	43	0	753926144	20	4162
2026-01-15 11:14:56.60	291.10	43.74	-29.4	-29.5	15.3	0.00e+00	0	43	0	756023296	20	3643
2026-01-15 11:14:57.61	291.56	43.60	-28.4	-28.1	16.8	0.00e+00	0	44	0	758120448	18	3468
2026-01-15 11:14:58.61	292.00	43.45	-28.2	-28.1	17.1	0.00e+00	0	43	0	760217600	17	3571
2026-01-15 11:14:59.61	292.44	43.30	-28.8	-29.5	16.4	0.00e+00	0	43	0	761266176	17	3901
2026-01-15 11:15:00.61	292.88	43.15	-29.1	-29.6	15.9	0.00e+00	0	44	0	763363328	18	3851
2026-01-15 11:15:01.61	293.32	42.99	-28.7	-28.8	16.4	0.00e+00	0	43	0	765460480	18	3649
2026-01-15 11:15:02.61	293.74	42.84	-28.1	-27.8	17.3	0.00e+00	0	43	0	767557632	17	3496
2026-01-15 11:15:03.61	294.17	42.69	-28.3	-28.3	17.0	0.00e+00	0	44	0	768606208	17	3606
2026-01-15 11:15:04.61	294.59	42.53	-29.0	-29.6	16.0	0.00e+00	0	43	0	770703360	18	3827
2026-01-15 11:15:05.61	295.01	42.38	-29.7	-30.6	15.1	0.00e+00	0	43	0	772800512	19	4017
2026-01-15 11:15:06.61	295.42	42.22	-29.5	-30.2	15.4	0.00e+00	0	44	0	774897664	19	3889
2026-01-15 11:15:07.61	295.83	42.06	-28.8	-28.4	16.3	0.00e+00	0	44	0	776994816	19	3462
2026-01-15 11:15:08.61	296.24	41.90	-28.3	-27.9	16.9	0.00e+00	0	43	0	778043392	18	3434
2026-01-15 11:15:09.61	296.64	41.74	-28.6	-28.6	16.6	0.00e+00	0	43	0	780140544	18	3588
2026-01-15 11:15:10.61	297.04	41.58	-29.2	-29.8	15.8	0.00e+00	0	43	0	782237696	18	3897
2026-01-15 11:15:11.61	297.43	41.42	-30.0	-31.0	14.6	0.00e+00	0	43	0	784334848	20	4037
2026-01-15 11:15:12.62	297.82	41.25	-30.5	-31.8	13.7	8.30e-06	0	43	0	786432000	21	4176
2026-01-15 11:15:13.62	298.21	41.09	-29.8	-30.0	14.8	0.00e+00	0	44	0	787480576	21	3695
2026-01-15 11:15:14.62	298.59	40.93	-29.7	-30.2	14.9	7.00e-07	0	43	0	789577728	20	3820
2026-01-15 11:15:15.62	298.97	40.76	-30.1	-31.3	14.3	0.00e+00	0	43	0	791674880	20	4118
2026-01-15 11:15:16.62	299.34	40.60	-30.9	-32.8	13.0	9.90e-06	0	43	0	793772032	21	4512
2026-01-15 11:15:17.61	299.71	40.43	-31.1	-33.0	12.6	1.39e-04	0	43	0	794820608	22	4452
2026-01-15 11:15:18.61	300.08	40.27	-30.8	-32.2	13.1	9.61e-05	0	43	0	796917760	22	4210
2026-01-15 11:15:19.62	300.44	40.10	-30.9	-32.3	13.1	3.66e-05	0	43	0	799014912	22	4256
2026-01-15 11:15:20.61	300.80	39.94	-31.3	-33.4	12.4	6.94e-05	0	43	0	801112064	22	4589
2026-01-15 11:15:21.61	301.15	39.77	-31.5	-34.0	11.9	2.43e-04	0	43	0	803209216	22	4802
2026-01-15 11:15:22.61	301.51	39.60	-31.8	-34.5	11.3	1.27e-03	0	43	0	804257792	23	4904
2026-01-15 11:15:23.60	301.85	39.43	-31.8	-34.6	11.1	1.62e-03	0	43	0	806354944	23	4963
2026-01-15 11:15:24.60	302.20	39.27	-32.1	-35.1	10.5	3.36e-03	0	44	0	808452096	24	5053
2026-01-15 11:15:25.61	302.54	39.09	-32.0	-34.7	10.6	5.33e-03	0	43	0	810549248	24	4915
2026-01-15 11:15:26.60	302.88	38.93	-31.7	-33.6	11.4	1.78e-03	0	44	0	812646400	24	4511
2026-01-15 11:15:27.61	303.21	38.76	-31.6	-33.3	11.7	6.19e-04	0	44	0	813694976	24	4392
2026-01-15 11:15:28.61	303.55	38.59	-31.2	-32.8	12.4	2.71e-04	0	43	0	815792128	23	4316
2026-01-15 11:15:29.61	303.87	38.42	-31.8	-34.4	11.3	5.70e-04	0	43	0	817889280	23	4880
2026-01-15 11:15:30.61	304.20	38.25	-32.6	-36.2	9.2	2.40e-03	0	43	0	819986432	25	5462
2026-01-15 11:15:31.62	304.52	38.08	-32.8	-37.2	8.3	4.50e-02	0	44	0	822083584	25	5981
2026-01-15 11:15:32.63	304.84	37.90	-32.3	-35.3	9.8	2.28e-02	0	43	0	823132160	25	5070
2026-01-15 11:15:33.63	305.16	37.73	-31.9	-33.9	10.9	4.85e-03	0	43	0	825229312	25	4524
2026-01-15 11:15:34.63	305.47	37.56	-31.7	-33.7	11.4	1.15e-03	0	43	0	827326464	24	4521
2026-01-15 11:15:35.63	305.78	37.39	-31.9	-34.2	11.1	1.49e-03	0	43	0	829423616	24	4711
2026-01-15 11:15:36.63	306.08	37.22	-32.4	-36.1	9.6	4.33e-03	0	43	0	831520768	24	5502
2026-01-15 11:15:37.64	306.39	37.05	-33.1	-38.0	7.4	7.58e-02	0	43	0	832569344	26	6310
2026-01-15 11:15:38.64	306.69	36.88	-33.1	-37.8	7.5	1.76e-01	0	43	0	834666496	26	6192
2026-01-15 11:15:39.64	306.98	36.71	-32.1	-34.4	10.4	3.53e-02	0	43	0	836763648	25	4737
2026-01-15 11:15:40.64	307.27	36.54	-31.1	-32.3	12.6	1.28e-03	0	43	0	838860800	23	4171
2026-01-15 11:15:41.65	307.57	36.37	-30.5	-31.3	13.6	1.37e-05	0	44	0	839909376	22	3938
2026-01-15 11:15:42.65	307.85	36.20	-30.8	-32.0	13.3	9.90e-06	0	44	0	842006528	22	4132
2026-01-15 11:15:43.66	308.14	36.03	-31.1	-33.1	12.5	4.65e-05	0	43	0	844103680	22	4488
2026-01-15 11:15:44.66	308.42	35.86	-31.6	-34.1	11.5	3.55e-04	0	43	0	846200832	23	4760
2026-01-15 11:15:45.66	308.70	35.69	-32.4	-36.3	9.4	7.54e-03	0	43	0	848297984	24	5621
2026-01-15 11:15:46.66	308.97	35.52	-32.7	-36.6	8.8	3.72e-02	0	43	0	849346560	25	5678
2026-01-15 11:15:47.66	309.24	35.35	-31.9	-34.0	10.8	2.06e-02	0	44	0	851443712	25	4562
2026-01-15 11:15:48.66	309.51	35.18	-31.1	-32.5	12.4	3.36e-04	0	43	0	853540864	23	4227
2026-01-15 11:15:49.66	309.78	35.01	-30.8	-31.7	13.1	5.26e-05	0	43	0	855638016	23	3971
2026-01-15 11:15:50.66	310.05	34.84	-31.1	-33.0	12.6	2.82e-05	0	43	0	857735168	22	4456
2026-01-15 11:15:51.65	310.30	34.68	-31.3	-33.4	12.2	2.19e-04	0	43	0	858783744	22	4628
2026-01-15 11:15:52.66	310.57	34.51	-31.6	-34.0	11.4	4.71e-04	0	43	0	860880896	23	4744
2026-01-15 11:15:53.65	310.82	34.34	-31.9	-35.0	10.7	1.98e-03	0	43	0	862978048	23	5110
2026-01-15 11:15:54.66	311.08	34.17	-31.9	-34.6	10.7	3.41e-03	0	44	0	865075200	24	4863
2026-01-15 11:15:55.66	311.33	34.01	-31.5	-33.1	11.7	8.32e-04	0	43	0	867172352	24	4343
2026-01-15 11:15:56.66	311.57	33.84	-31.0	-32.1	12.8	1.01e-04	0	44	0	868220928	23	4088
2026-01-15 11:15:57.66	311.82	33.67	-30.9	-31.9	12.9	4.42e-05	0	43	0	870318080	23	4026
2026-01-15 11:15:58.66	312.06	33.51	-30.9	-31.8	13.0	5.26e-05	0	44	0	872415232	23	4007
2026-01-15 11:15:59.66	312.31	33.34	-30.9	-32.3	13.0	3.12e-05	0	44	0	874512384	22	4247
2026-01-15 11:16:00.66	312.54	33.18	-31.5	-34.0	11.8	7.85e-05	0	43	0	875560960	22	4836
2026-01-15 11:16:01.65	312.78	33.01	-32.0	-35.2	10.6	2.37e-03	0	43	0	877658112	23	5195
2026-01-15 11:16:02.66	313.01	32.85	-32.3	-35.8	9.8	5.34e-03	0	44	0	879755264	24	5378
2026-01-15 11:16:03.66	313.25	32.68	-31.9	-34.6	10.6	7.84e-03	0	43	0	881852416	24	4875
2026-01-15 11:16:04.66	313.48	32.52	-31.2	-32.8	12.2	7.81e-04	0	44	0	883949568	23	4336
2026-01-15 11:16:05.66	313.70	32.36	-30.8	-31.7	13.0	5.56e-05	0	43	0	884998144	23	3979
2026-01-15 11:16:06.66	313.93	32.19	-30.5	-31.4	13.6	1.29e-05	0	44	0	887095296	22	3971
2026-01-15 11:16:07.66	314.15	32.03	-30.3	-30.8	13.9	7.60e-06	0	43	0	889192448	22	3815
2026-01-15 11:16:08.65	314.37	31.87	-30.2	-31.0	14.1	3.00e-06	0	43	0	891289600	21	3951
2026-01-15 11:16:09.65	314.59	31.71	-30.6	-32.1	13.4	3.00e-06	0	43	0	893386752	21	4281
2026-01-15 11:16:10.65	314.80	31.55	-31.4	-33.8	11.9	4.42e-05	0	43	0	894435328	22	4772
2026-01-15 11:16:11.65	315.02	31.39	-31.7	-34.2	11.2	9.99e-04	0	43	0	896532480	23	4835
2026-01-15 11:16:12.64	315.23	31.23	-31.7	-34.4	11.1	1.52e-03	0	44	0	898629632	23	4888
2026-01-15 11:16:13.65	315.44	31.07	-31.4	-33.4	11.8	9.71e-04	0	43	0	900726784	23	4556
2026-01-15 11:16:14.65	315.65	30.91	-31.1	-32.4	12.4	3.22e-04	0	44	0	901775360	23	4222
2026-01-15 11:16:15.65	315.85	30.75	-30.9	-31.9	12.8	6.48e-05	0	43	0	903872512	23	4037
2026-01-15 11:16:16.65	316.06	30.59	-30.6	-31.7	13.3	2.28e-05	0	43	0	905969664	22	4059
2026-01-15 11:16:17.65	316.26	30.43	-30.0	-30.5	14.3	3.80e-06	0	44	0	908066816	21	3828
2026-01-15 11:16:18.66	316.46	30.27	-29.6	-30.0	14.9	7.00e-07	0	44	0	910163968	20	3785
2026-01-15 11:16:19.67	316.66	30.11	-29.5	-29.7	15.1	0.00e+00	0	43	0	911212544	20	3688
2026-01-15 11:16:20.67	316.86	29.96	-29.5	-29.8	15.1	0.00e+00	0	43	0	913309696	20	3724
2026-01-15 11:16:21.66	317.05	29.80	-29.6	-30.1	14.9	0.00e+00	0	44	0	915406848	20	3800
2026-01-15 11:16:22.67	317.25	29.65	-29.9	-30.9	14.4	0.00e+00	0	43	0	917504000	20	4017
2026-01-15 11:16:23.67	317.44	29.49	-29.8	-30.6	14.6	0.00e+00	0	43	0	919601152	20	3929
2026-01-15 11:16:24.67	317.63	29.34	-29.8	-30.7	14.5	7.00e-07	0	43	0	920649728	20	3954
2026-01-15 11:16:25.68	317.82	29.18	-30.2	-31.7	14.0	1.50e-06	0	44	0	922746880	20	4245
2026-01-15 11:16:26.67	318.00	29.03	-30.6	-32.1	13.3	9.10e-06	0	43	0	924844032	21	4287
2026-01-15 11:16:27.67	318.18	28.88	-30.7	-32.5	13.1	4.04e-05	0	43	0	926941184	21	4413
2026-01-15 11:16:28.68	318.37	28.72	-31.1	-33.1	12.4	7.01e-05	0	43	0	929038336	22	4501
2026-01-15 11:16:29.68	318.55	28.57	-31.3	-33.7	12.0	2.06e-04	0	43	0	930086912	22	4732
2026-01-15 11:16:30.68	318.73	28.42	-31.2	-32.9	12.2	4.60e-04	0	43	0	932184064	23	4370
2026-01-15 11:16:31.69	318.91	28.27	-31.0	-32.3	12.6	2.07e-04	0	44	0	934281216	23	4158
2026-01-15 11:16:32.69	319.08	28.12	-31.0	-32.2	12.7	9.84e-05	0	44	0	936378368	23	4134
2026-01-15 11:16:33.70	319.26	27.97	-30.8	-31.7	12.9	5.03e-05	0	43	0	938475520	23	3998
2026-01-15 11:16:34.70	319.43	27.82	-31.0	-32.7	12.6	4.95e-05	0	44	0	939524096	22	4371
2026-01-15 11:16:35.70	319.60	27.67	-30.8	-32.3	12.9	8.85e-05	0	44	0	941621248	22	4241
2026-01-15 11:16:36.71	319.77	27.52	-30.9	-32.5	12.7	3.20e-05	0	44	0	943718400	22	4322
2026-01-15 11:16:37.72	319.94	27.37	-30.8	-32.3	12.9	7.24e-05	0	44	0	945815552	22	4245
2026-01-15 11:16:38.71	320.11	27.23	-30.9	-32.6	12.7	5.95e-05	0	43	0	946864128	22	4341
2026-01-15 11:16:39.72	320.27	27.08	-31.3	-33.6	12.0	2.42e-04	0	44	0	948961280	22	4701
2026-01-15 11:16:40.72	320.44	26.93	-31.2	-33.3	12.2	4.31e-04	0	43	0	951058432	22	4567
2026-01-15 11:16:41.72	320.60	26.79	-30.7	-31.8	13.1	7.17e-05	0	44	0	953155584	22	4104
2026-01-15 11:16:42.73	320.76	26.64	-30.1	-30.8	14.2	8.30e-06	0	43	0	955252736	21	3904
2026-01-15 11:16:43.72	320.92	26.50	-29.8	-30.4	14.7	0.00e+00	0	44	0	956301312	20	3893
2026-01-15 11:16:44.72	321.08	26.36	-29.6	-30.0	14.9	0.00e+00	0	44	0	958398464	20	3775
2026-01-15 11:16:45.73	321.23	26.21	-29.5	-29.8	15.0	0.00e+00	0	44	0	960495616	20	3716
2026-01-15 11:16:46.73	321.39	26.07	-29.5	-29.7	15.1	0.00e+00	0	43	0	962592768	20	3699
2026-01-15 11:16:47.74	321.54	25.93	-29.7	-30.3	14.7	0.00e+00	0	43	0	964689920	20	3850
2026-01-15 11:16:48.73	321.70	25.79	-29.7	-30.3	14.8	0.00e+00	0	44	0	965738496	20	3853
2026-01-15 11:16:49.73	321.85	25.65	-30.1	-31.3	14.1	7.00e-07	0	44	0	967835648	20	4151
2026-01-15 11:16:50.74	322.00	25.50	-30.2	-31.7	13.9	4.50e-06	0	44	0	969932800	20	4271
2026-01-15 11:16:51.74	322.15	25.36	-30.7	-32.4	13.1	6.80e-06	0	44	0	972029952	21	4389
2026-01-15 11:16:52.74	322.29	25.22	-30.9	-33.1	12.6	5.56e-05	0	43	0	974127104	21	4632
2026-01-15 11:16:53.74	322.44	25.09	-30.8	-32.8	12.8	7.93e-05	0	43	0	975175680	21	4513
2026-01-15 11:16:54.75	322.59	24.95	-31.2	-33.3	12.2	1.46e-04	0	44	0	977272832	22	4581
2026-01-15 11:16:55.75	322.73	24.81	-31.0	-32.9	12.5	3.01e-04	0	44	0	979369984	22	4474
2026-01-15 11:16:56.75	322.87	24.67	-31.0	-32.6	12.6	5.03e-05	0	44	0	981467136	22	4373
2026-01-15 11:16:57.76	323.01	24.53	-31.0	-32.8	12.4	1.23e-04	0	43	0	983564288	22	4420
2026-01-15 11:16:58.75	323.15	24.40	-30.7	-31.9	13.0	6.94e-05	0	44	0	984612864	22	4153
2026-01-15 11:16:59.75	323.29	24.26	-30.8	-32.3	12.8	2.36e-05	0	43	0	986710016	22	4281
2026-01-15 11:17:00.75	323.43	24.13	-31.0	-32.9	12.4	1.08e-04	0	44	0	988807168	22	4466
2026-01-15 11:17:01.75	323.56	24.00	-31.0	-32.8	12.5	1.33e-04	0	44	0	990904320	22	4419
2026-01-15 11:17:02.75	323.70	23.86	-31.3	-33.6	11.9	2.48e-04	0	43	0	991952896	22	4711
2026-01-15 11:17:03.75	323.83	23.73	-31.5	-33.7	11.4	8.19e-04	0	44	0	994050048	23	4681
2026-01-15 11:17:04.76	323.97	23.59	-31.7	-34.6	10.8	1.10e-03	0	44	0	996147200	23	4992
2026-01-15 11:17:05.76	324.10	23.46	-31.8	-34.8	10.7	2.42e-03	0	44	0	998244352	23	5072
2026-01-15 11:17:06.77	324.23	23.33	-31.7	-34.5	10.8	2.85e-03	0	44	0	1000341504	23	4990
2026-01-15 11:17:07.77	324.36	23.20	-31.7	-34.6	10.7	2.91e-03	0	44	0	1001390080	23	5022
2026-01-15 11:17:08.77	324.49	23.07	-31.7	-34.6	10.7	2.79e-03	0	43	0	1003487232	23	5008
2026-01-15 11:17:09.77	324.62	22.94	-31.5	-33.7	11.4	1.95e-03	0	43	0	1005584384	23	4671
2026-01-15 11:17:10.77	324.75	22.81	-31.4	-33.6	11.5	9.95e-04	0	43	0	1007681536	23	4638
2026-01-15 11:17:11.77	324.87	22.68	-31.6	-34.0	11.2	1.15e-03	0	43	0	1009778688	23	4789
2026-01-15 11:17:12.77	325.00	22.55	-31.7	-34.5	10.9	1.35e-03	0	43	0	1010827264	23	4952
2026-01-15 11:17:13.78	325.12	22.42	-31.7	-34.5	10.9	2.10e-03	0	43	0	1012924416	23	4953
2026-01-15 11:17:14.78	325.24	22.29	-31.8	-34.8	10.6	3.42e-03	0	43	0	1015021568	23	5097
2026-01-15 11:17:15.79	325.37	22.17	-31.8	-34.8	10.6	5.55e-03	0	43	0	1017118720	23	5077
2026-01-15 11:17:16.79	325.49	22.04	-31.7	-34.5	10.8	2.84e-03	0	44	0	1019215872	23	4974
2026-01-15 11:17:17.79	325.61	21.91	-32.0	-35.0	10.1	5.39e-03	0	44	0	1020264448	24	5092
2026-01-15 11:17:18.80	325.73	21.79	-31.6	-33.7	11.0	3.57e-03	0	44	0	1022361600	24	4576
2026-01-15 11:17:19.80	325.85	21.66	-31.6	-33.7	11.0	1.45e-03	0	44	0	1024458752	24	4598
2026-01-15 11:17:20.80	325.96	21.54	-31.2	-33.1	11.8	1.08e-03	0	43	0	1026555904	23	4453
2026-01-15 11:17:21.81	326.08	21.41	-30.6	-31.7	13.0	1.19e-04	0	43	0	1028653056	22	4091
2026-01-15 11:17:22.81	326.19	21.29	-30.3	-31.0	13.5	2.44e-05	0	43	0	1029701632	22	3903
2026-01-15 11:17:23.81	326.31	21.17	-29.9	-30.4	14.2	1.50e-06	0	43	0	1031798784	21	3815
2026-01-15 11:17:24.81	326.42	21.04	-29.6	-30.2	14.6	7.00e-07	0	43	0	1033895936	20	3842
2026-01-15 11:17:25.81	326.54	20.92	-29.8	-30.7	14.3	0.00e+00	0	44	0	1035993088	20	3978
2026-01-15 11:17:26.82	326.65	20.80	-29.3	-29.4	15.1	0.00e+00	0	44	0	1037041664	20	3632
2026-01-15 11:17:27.82	326.76	20.68	-29.2	-29.7	15.3	0.00e+00	0	44	0	1039138816	19	3780
2026-01-15 11:17:28.82	326.87	20.56	-29.4	-30.1	15.1	0.00e+00	0	44	0	1041235968	19	3903
2026-01-15 11:17:29.82	326.98	20.44	-29.4	-30.1	15.0	0.00e+00	0	43	0	1043333120	19	3899
2026-01-15 11:17:30.83	327.09	20.32	-29.7	-31.0	14.5	0.00e+00	0	44	0	1045430272	19	4141
2026-01-15 11:17:31.83	327.20	20.20	-29.9	-31.3	14.3	7.00e-07	0	44	0	1047527424	19	4236
2026-01-15 11:17:32.83	327.30	20.08	-30.2	-31.7	13.6	2.20e-06	0	43	0	1048576000	20	4269
2026-01-15 11:17:33.84	327.41	19.96	-30.6	-32.2	12.9	3.58e-05	0	44	0	1050673152	21	4344
2026-01-15 11:17:34.84	327.52	19.84	-30.8	-32.8	12.5	6.10e-05	0	43	0	1052770304	21	4558
2026-01-15 11:17:35.84	327.62	19.72	-31.0	-32.9	12.2	1.77e-04	0	43	0	1054867456	22	4476
2026-01-15 11:17:36.85	327.73	19.61	-31.3	-33.8	11.6	6.37e-04	0	44	0	1055916032	22	4797
2026-01-15 11:17:37.86	327.83	19.49	-31.3	-33.8	11.6	6.16e-04	0	43	0	1058013184	22	4811
2026-01-15 11:17:38.86	327.93	19.37	-31.4	-34.2	11.3	6.48e-04	0	43	0	1060110336	22	4960
2026-01-15 11:17:39.84	328.03	19.26	-31.4	-34.1	11.3	9.90e-04	0	44	0	1062207488	22	4910
2026-01-15 11:17:40.85	328.13	19.14	-31.4	-34.1	11.4	9.31e-04	0	43	0	1064304640	22	4932
2026-01-15 11:17:41.85	328.23	19.03	-31.4	-33.7	11.2	1.45e-03	0	44	0	1065353216	23	4669
2026-01-15 11:17:42.85	328.33	18.92	-31.2	-32.9	11.8	5.96e-04	0	43	0	1067450368	23	4395
2026-01-15 11:17:43.86	328.43	18.80	-31.0	-32.5	12.1	3.52e-04	0	44	0	1069547520	23	4259
2026-01-15 11:17:44.86	328.53	18.69	-31.0	-32.3	12.2	3.53e-04	0	44	0	1071644672	23	4213
2026-01-15 11:17:45.86	328.63	18.58	-31.0	-32.4	12.1	2.17e-04	0	44	0	1073741824	23	4247
2026-01-15 11:17:46.87	328.72	18.46	-31.0	-32.4	12.1	2.10e-04	0	44	0	1074790400	23	4242
2026-01-15 11:17:47.87	328.82	18.35	-30.7	-32.1	12.7	7.55e-05	0	43	0	1076887552	22	4212
2026-01-15 11:17:48.87	328.92	18.24	-30.7	-32.0	12.8	7.85e-05	0	44	0	1078984704	22	4198
2026-01-15 11:17:49.88	329.01	18.13	-30.8	-32.4	12.5	6.94e-05	0	44	0	1081081856	22	4311
2026-01-15 11:17:50.88	329.11	18.02	-30.7	-32.2	12.7	8.46e-05	0	43	0	1083179008	22	4256
2026-01-15 11:17:51.88	329.20	17.91	-30.5	-31.5	13.1	5.18e-05	0	43	0	1084227584	22	4046
2026-01-15 11:17:52.88	329.29	17.80	-30.7	-32.1	12.7	6.02e-05	0	44	0	1086324736	22	4231
2026-01-15 11:17:53.88	329.38	17.69	-30.9	-32.6	12.4	1.10e-04	0	43	0	1088421888	22	4388
2026-01-15 11:17:54.88	329.47	17.58	-31.2	-33.6	11.7	3.07e-04	0	44	0	1090519040	22	4728
2026-01-15 11:17:55.88	329.57	17.47	-31.1	-33.3	11.8	3.84e-04	0	43	0	1092616192	22	4640
2026-01-15 11:17:56.88	329.66	17.36	-31.1	-33.2	11.9	3.79e-04	0	43	0	1093664768	22	4610
2026-01-15 11:17:57.88	329.75	17.25	-31.1	-33.4	11.8	3.59e-04	0	44	0	1095761920	22	4668
2026-01-15 11:17:58.88	329.83	17.15	-31.3	-33.8	11.5	6.51e-04	0	44	0	1097859072	22	4824
2026-01-15 11:17:59.88	329.92	17.04	-31.3	-34.0	11.3	9.22e-04	0	43	0	1099956224	22	4901
2026-01-15 11:18:00.88	330.01	16.93	-31.5	-34.1	10.9	1.90e-03	0	43	0	1101004800	23	4861
2026-01-15 11:18:01.87	330.10	16.83	-31.6	-34.5	10.6	3.74e-03	0	44	0	1103101952	23	4993
2026-01-15 11:18:02.87	330.18	16.72	-31.7	-34.9	10.3	3.31e-03	0	43	0	1105199104	23	5158
2026-01-15 11:18:03.88	330.27	16.62	-31.8	-35.2	10.0	5.11e-03	0	43	0	1107296256	23	5309
2026-01-15 11:18:04.88	330.36	16.51	-31.7	-34.7	10.4	5.13e-03	0	44	0	1109393408	23	5093
2026-01-15 11:18:05.88	330.44	16.41	-31.6	-34.5	10.5	4.57e-03	0	44	0	1110441984	23	4997
2026-01-15 11:18:06.88	330.52	16.31	-31.9	-35.3	10.0	5.31e-03	0	43	0	1112539136	23	5345
2026-01-15 11:18:07.88	330.61	16.20	-31.5	-34.1	10.9	5.63e-03	0	44	0	1114636288	23	4870
2026-01-15 11:18:08.87	330.69	16.10	-31.6	-34.4	10.6	3.29e-03	0	44	0	1116733440	23	4986
2026-01-15 11:18:09.88	330.77	16.00	-31.5	-34.1	10.9	3.54e-03	0	43	0	1118830592	23	4835
2026-01-15 11:18:10.89	330.86	15.89	-31.3	-33.6	11.2	1.71e-03	0	43	0	1119879168	23	4658
2026-01-15 11:18:11.90	330.94	15.79	-31.3	-33.4	11.3	1.10e-03	0	43	0	1121976320	23	4607
2026-01-15 11:18:12.90	331.02	15.69	-31.1	-32.8	11.8	6.81e-04	0	44	0	1124073472	23	4371
2026-01-15 11:18:13.90	331.10	15.59	-31.0	-32.4	12.0	4.03e-04	0	43	0	1126170624	23	4263
2026-01-15 11:18:14.90	331.18	15.49	-31.0	-32.4	12.1	3.29e-04	0	43	0	1128267776	23	4241
2026-01-15 11:18:15.89	331.26	15.39	-30.7	-32.2	12.5	1.84e-04	0	43	0	1129316352	22	4279
2026-01-15 11:18:16.89	331.34	15.29	-30.7	-32.1	12.6	9.23e-05	0	43	0	1131413504	22	4236
2026-01-15 11:18:17.89	331.42	15.19	-30.7	-32.2	12.5	9.68e-05	0	43	0	1133510656	22	4269
2026-01-15 11:18:18.90	331.50	15.09	-30.7	-32.1	12.5	9.15e-05	0	43	0	1135607808	22	4240
2026-01-15 11:18:19.90	331.57	14.99	-30.8	-32.5	12.3	1.35e-04	0	43	0	1136656384	22	4363
2026-01-15 11:18:20.90	331.65	14.89	-30.6	-31.9	12.6	1.15e-04	0	43	0	1138753536	22	4188
2026-01-15 11:18:21.90	331.73	14.79	-30.4	-31.4	13.0	4.19e-05	0	43	0	1140850688	22	4039
2026-01-15 11:18:22.91	331.80	14.69	-30.4	-31.3	13.0	4.34e-05	0	44	0	1142947840	22	4003
2026-01-15 11:18:23.91	331.88	14.59	-30.3	-31.1	13.2	4.80e-05	0	43	0	1145044992	22	3940
2026-01-15 11:18:24.91	331.96	14.50	-30.6	-31.8	12.7	3.96e-05	0	43	0	1146093568	22	4144
2026-01-15 11:18:25.91	332.03	14.40	-30.5	-31.6	12.8	5.79e-05	0	43	0	1148190720	22	4087
2026-01-15 11:18:26.92	332.11	14.30	-30.4	-31.3	13.1	2.82e-05	0	44	0	1150287872	22	4002
2026-01-15 11:18:27.92	332.18	14.21	-30.5	-31.5	12.9	3.89e-05	0	43	0	1152385024	22	4062
2026-01-15 11:18:28.93	332.25	14.11	-30.5	-31.6	12.8	4.73e-05	0	43	0	1154482176	22	4089
2026-01-15 11:18:29.93	332.33	14.01	-30.5	-31.7	12.7	4.04e-05	0	43	0	1155530752	22	4137
2026-01-15 11:18:30.93	332.40	13.92	-30.6	-32.0	12.5	9.38e-05	0	43	0	1157627904	22	4228
2026-01-15 11:18:31.93	332.47	13.82	-30.6	-31.9	12.6	9.46e-05	0	44	0	1159725056	22	4185
2026-01-15 11:18:32.93	332.54	13.73	-30.8	-32.6	12.1	1.81e-04	0	43	0	1161822208	22	4405
2026-01-15 11:18:33.94	332.61	13.63	-30.8	-32.4	12.2	2.14e-04	0	44	0	1163919360	22	4354
2026-01-15 11:18:34.94	332.68	13.54	-30.6	-32.1	12.4	1.52e-04	0	43	0	1164967936	22	4258
2026-01-15 11:18:35.94	332.76	13.45	-30.7	-32.3	12.3	2.44e-04	0	43	0	1167065088	22	4320
2026-01-15 11:18:36.94	332.82	13.35	-30.6	-32.1	12.4	1.94e-04	0	43	0	1169162240	22	4255
2026-01-15 11:18:37.95	332.90	13.26	-30.7	-32.2	12.4	1.54e-04	0	43	0	1171259392	22	4275
2026-01-15 11:18:38.95	332.96	13.17	-30.7	-32.3	12.2	1.85e-04	0	43	0	1173356544	22	4324
2026-01-15 11:18:39.95	333.03	13.07	-30.5	-31.7	12.7	1.43e-04	0	44	0	1174405120	22	4142
2026-01-15 11:18:40.95	333.10	12.98	-30.6	-31.9	12.5	1.10e-04	0	43	0	1176502272	22	4195
2026-01-15 11:18:41.96	333.17	12.89	-30.6	-32.1	12.4	1.39e-04	0	43	0	1178599424	22	4253
2026-01-15 11:18:42.96	333.24	12.80	-30.5	-31.8	12.6	8.92e-05	0	43	0	1180696576	22	4165
2026-01-15 11:18:43.96	333.30	12.71	-30.6	-31.9	12.5	9.76e-05	0	43	0	1181745152	22	4208
2026-01-15 11:18:44.97	333.37	12.62	-30.5	-31.8	12.6	1.09e-04	0	43	0	1183842304	22	4168
2026-01-15 11:18:45.97	333.44	12.53	-30.6	-31.9	12.5	1.02e-04	0	44	0	1185939456	22	4185
2026-01-15 11:18:46.97	333.50	12.44	-30.7	-32.3	12.2	2.08e-04	0	43	0	1188036608	22	4315
2026-01-15 11:18:47.98	333.57	12.34	-30.5	-31.8	12.6	2.43e-04	0	44	0	1190133760	22	4159
2026-01-15 11:18:48.97	333.64	12.26	-30.6	-32.1	12.4	1.06e-04	0	43	0	1191182336	22	4249
2026-01-15 11:18:49.97	333.70	12.17	-30.7	-32.3	12.2	1.63e-04	0	43	0	1193279488	22	4315
2026-01-15 11:18:50.97	333.76	12.08	-30.8	-32.5	12.1	1.83e-04	0	43	0	1195376640	22	4397
2026-01-15 11:18:51.97	333.83	11.99	-30.7	-32.4	12.1	2.95e-04	0	43	0	1197473792	22	4346
2026-01-15 11:18:52.97	333.89	11.90	-30.7	-32.3	12.2	2.04e-04	0	43	0	1199570944	22	4334
2026-01-15 11:18:53.97	333.96	11.81	-30.8	-32.6	12.0	2.07e-04	0	43	0	1200619520	22	4419
2026-01-15 11:18:54.97	334.02	11.73	-30.8	-32.7	11.9	4.02e-04	0	43	0	1202716672	22	4481
2026-01-15 11:18:55.97	334.08	11.64	-30.8	-32.8	11.9	5.13e-04	0	44	0	1204813824	22	4491
2026-01-15 11:18:56.97	334.14	11.55	-30.9	-33.1	11.6	4.60e-04	0	43	0	1206910976	22	4593
2026-01-15 11:18:57.97	334.21	11.46	-30.9	-33.0	11.7	5.98e-04	0	44	0	1207959552	22	4569
2026-01-15 11:18:58.97	334.27	11.38	-30.9	-33.1	11.6	5.58e-04	0	43	0	1210056704	22	4606
2026-01-15 11:18:59.97	334.33	11.29	-31.2	-33.7	11.1	1.26e-03	0	43	0	1212153856	22	4845
2026-01-15 11:19:00.96	334.39	11.21	-31.2	-33.8	11.0	1.48e-03	0	43	0	1214251008	22	4892
2026-01-15 11:19:01.97	334.45	11.12	-31.2	-34.1	10.9	1.34e-03	0	43	0	1216348160	22	4980
2026-01-15 11:19:02.98	334.51	11.03	-31.2	-33.7	11.1	1.96e-03	0	43	0	1218445312	22	4850
2026-01-15 11:19:03.98	334.57	10.95	-31.1	-33.5	11.3	1.65e-03	0	43	0	1219493888	22	4754
2026-01-15 11:19:04.98	334.63	10.86	-31.2	-33.9	11.0	1.59e-03	0	43	0	1221591040	22	4908
2026-01-15 11:19:05.98	334.69	10.78	-31.2	-34.0	10.9	1.59e-03	0	44	0	1223688192	22	4973
2026-01-15 11:19:06.98	334.75	10.69	-31.3	-34.2	10.7	2.54e-03	0	43	0	1225785344	22	5039
2026-01-15 11:19:07.98	334.81	10.61	-31.2	-34.0	10.9	3.26e-03	0	44	0	1226833920	22	4955
2026-01-15 11:19:08.98	334.87	10.53	-31.3	-34.3	10.6	2.60e-03	0	44	0	1228931072	22	5085
2026-01-15 11:19:09.98	334.93	10.44	-31.3	-34.2	10.8	2.68e-03	0	44	0	1231028224	22	5020
2026-01-15 11:19:10.98	334.98	10.36	-31.3	-34.3	10.7	2.77e-03	0	43	0	1233125376	22	5066
2026-01-15 11:19:11.98	335.04	10.28	-31.2	-34.0	10.9	2.33e-03	0	43	0	1235222528	22	4970
2026-01-15 11:19:12.98	335.10	10.19	-31.3	-34.3	10.6	2.81e-03	0	43	0	1236271104	22	5071
2026-01-15 11:19:13.99	335.16	10.11	-31.3	-34.3	10.6	3.16e-03	0	43	0	1238368256	22	5076
2026-01-15 11:19:14.99	335.21	10.03	-31.3	-34.4	10.5	3.06e-03	0	43	0	1240465408	22	5125
2026-01-15 11:19:15.99	335.27	9.94	-31.2	-34.0	10.8	3.15e-03	0	43	0	1242562560	22	4977
2026-01-15 11:19:17.00	335.33	9.86	-31.1	-33.6	11.1	2.20e-03	0	43	0	1244659712	22	4831
2026-01-15 11:19:18.00	335.38	9.78	-31.2	-33.8	10.9	2.02e-03	0	43	0	1245708288	22	4910
2026-01-15 11:19:19.00	335.44	9.70	-31.1	-33.7	11.0	1.85e-03	0	44	0	1247805440	22	4855
2026-01-15 11:19:20.01	335.49	9.62	-31.2	-33.9	10.9	1.79e-03	0	43	0	1249902592	22	4914
2026-01-15 11:19:21.02	335.55	9.54	-31.0	-33.4	11.2	1.48e-03	0	43	0	1251999744	22	4759
2026-01-15 11:19:22.02	335.60	9.46	-31.1	-33.7	10.9	1.71e-03	0	43	0	1253048320	22	4876
2026-01-15 11:19:23.02	335.66	9.37	-31.1	-33.6	11.0	1.79e-03	0	43	0	1255145472	22	4831
2026-01-15 11:19:24.03	335.71	9.29	-31.1	-33.7	11.0	1.67e-03	0	44	0	1257242624	22	4856
2026-01-15 11:19:25.02	335.77	9.21	-31.1	-33.6	11.0	2.29e-03	0	43	0	1259339776	22	4830
2026-01-15 11:19:26.03	335.82	9.13	-31.1	-33.7	11.0	1.98e-03	0	43	0	1261436928	22	4851
2026-01-15 11:19:27.03	335.87	9.05	-31.0	-33.5	11.1	1.43e-03	0	43	0	1263534080	22	4798
2026-01-15 11:19:28.04	335.93	8.98	-31.1	-33.8	10.8	2.16e-03	0	43	0	1264582656	22	4916
2026-01-15 11:19:29.04	335.98	8.90	-31.0	-33.5	11.0	1.94e-03	0	44	0	1266679808	22	4794
2026-01-15 11:19:30.04	336.03	8.82	-31.0	-33.5	11.0	1.79e-03	0	43	0	1268776960	22	4779
2026-01-15 11:19:31.05	336.08	8.74	-31.1	-33.6	11.0	1.76e-03	0	43	0	1270874112	22	4841
2026-01-15 11:19:32.05	336.14	8.66	-31.0	-33.6	11.0	1.85e-03	0	43	0	1271922688	22	4824
2026-01-15 11:19:33.05	336.19	8.58	-31.0	-33.4	11.1	1.90e-03	0	44	0	1274019840	22	4767
2026-01-15 11:19:34.05	336.24	8.50	-31.0	-33.4	11.1	1.45e-03	0	43	0	1276116992	22	4763
2026-01-15 11:19:35.05	336.29	8.43	-31.0	-33.5	11.0	1.46e-03	0	44	0	1278214144	22	4791
