passes_logs/2026/01/15/R2M6_AANII_01/R2M6_AANII_01__20260115_134821_FENGYUN_3D_rec.log

#Pass ID: 20260115_134821_FENGYUN 3D
#Satellite: FENGYUN 3D
#Configuration: FENGYUN 3D
#almurnet v.1.7.20240730
#Start time: 2026-01-15 13:48:21

#Version: 2.2.20231116
#Station: R2M6_AANII_01
#Location: 30.233357 lon 59.946436 lat
#TLE: 1 43010U 17072A   26014.65117763 -.00000217  00000+0 -80772-4 0  9993
#TLE: 2 43010  98.9933 346.4618 0002330 108.4699 251.6730 14.19694700423204

#Time	Az	El	Level	Level2	SNR	BER	BlckErr	Temp	State	Recorded	gain1	gain2
2026-01-15 13:48:21.67	206.88	7.00	-27.9	-29.9	5.8	7.62e-01	0	43	0	0	16	4521
2026-01-15 13:48:22.66	206.97	7.07	-29.4	-32.7	5.5	7.74e-01	0	43	104	0	18	5235
2026-01-15 13:48:23.66	207.05	7.13	-29.2	-31.9	11.1	2.38e-03	0	43	0	0	18	4945
2026-01-15 13:48:24.65	207.14	7.20	-29.3	-32.3	10.8	1.67e-03	0	43	0	5242880	18	5083
2026-01-15 13:48:25.65	207.23	7.26	-29.0	-31.5	11.4	8.37e-04	0	43	0	10485760	18	4802
2026-01-15 13:48:26.65	207.31	7.33	-28.8	-31.0	11.7	3.16e-04	0	43	0	16777216	18	4641
2026-01-15 13:48:27.64	207.40	7.40	-28.3	-30.2	12.5	9.84e-05	0	43	0	22020096	17	4481
2026-01-15 13:48:28.64	207.49	7.46	-27.9	-29.3	13.1	2.05e-05	0	43	0	27262976	17	4213
2026-01-15 13:48:29.63	207.58	7.53	-27.6	-29.0	13.6	6.80e-06	0	43	0	33554432	16	4248
2026-01-15 13:48:30.63	207.67	7.60	-27.4	-28.5	13.9	1.10e-06	0	43	0	38797312	16	4115
2026-01-15 13:48:31.64	207.76	7.66	-27.2	-28.6	14.0	0.00e+00	0	43	0	44040192	15	4249
2026-01-15 13:48:32.64	207.85	7.73	-27.0	-28.2	14.2	4.50e-06	0	43	0	50331648	15	4140
2026-01-15 13:48:33.64	207.94	7.80	-27.5	-29.3	13.6	6.80e-06	0	43	0	55574528	15	4438
2026-01-15 13:48:34.64	208.03	7.87	-27.2	-28.6	14.0	2.20e-06	0	43	0	61865984	15	4250
2026-01-15 13:48:35.63	208.12	7.93	-27.1	-28.4	14.1	0.00e+00	0	43	0	67108864	15	4196
2026-01-15 13:48:36.63	208.21	8.00	-26.8	-27.7	14.5	0.00e+00	0	43	0	72351744	15	4002
2026-01-15 13:48:37.64	208.30	8.07	-26.8	-28.1	14.6	0.00e+00	0	43	0	78643200	14	4206
2026-01-15 13:48:38.64	208.40	8.14	-26.7	-28.1	14.6	1.10e-06	0	43	0	83886080	14	4213
2026-01-15 13:48:39.65	208.49	8.20	-26.7	-27.9	14.7	0.00e+00	0	43	0	89128960	14	4165
2026-01-15 13:48:40.65	208.58	8.27	-26.5	-27.4	15.0	0.00e+00	0	43	0	95420416	14	4031
2026-01-15 13:48:41.65	208.68	8.34	-26.7	-28.0	14.7	1.10e-06	0	43	0	100663296	14	4180
2026-01-15 13:48:42.66	208.77	8.41	-26.9	-28.4	14.5	0.00e+00	0	43	0	105906176	14	4278
2026-01-15 13:48:43.65	208.86	8.48	-26.7	-28.0	14.7	0.00e+00	0	43	0	112197632	14	4186
2026-01-15 13:48:44.66	208.96	8.55	-26.7	-27.9	14.8	0.00e+00	0	43	0	117440512	14	4158
2026-01-15 13:48:45.66	209.06	8.62	-26.9	-28.5	14.4	0.00e+00	0	43	0	123731968	14	4317
2026-01-15 13:48:46.66	209.15	8.68	-26.9	-28.4	14.5	0.00e+00	0	43	0	128974848	14	4287
2026-01-15 13:48:47.66	209.25	8.75	-26.8	-28.1	14.6	0.00e+00	0	43	0	134217728	14	4218
2026-01-15 13:48:48.65	209.34	8.82	-26.9	-28.4	14.5	0.00e+00	0	43	0	140509184	14	4291
2026-01-15 13:48:49.66	209.44	8.89	-26.7	-28.0	14.8	0.00e+00	0	43	0	145752064	14	4168
2026-01-15 13:48:50.66	209.54	8.96	-26.8	-28.2	14.7	0.00e+00	0	43	0	150994944	14	4224
2026-01-15 13:48:51.67	209.64	9.03	-26.7	-28.1	14.7	0.00e+00	0	43	0	157286400	14	4200
2026-01-15 13:48:52.67	209.74	9.10	-26.7	-28.1	14.7	0.00e+00	0	43	0	162529280	14	4196
2026-01-15 13:48:53.67	209.84	9.17	-26.6	-27.8	14.9	0.00e+00	0	43	0	168820736	14	4122
2026-01-15 13:48:54.68	209.94	9.24	-26.6	-27.7	14.9	0.00e+00	0	43	0	174063616	14	4110
2026-01-15 13:48:55.68	210.04	9.31	-26.6	-27.8	14.9	0.00e+00	0	43	0	179306496	14	4126
2026-01-15 13:48:56.68	210.14	9.38	-26.5	-27.6	15.0	1.10e-06	0	43	0	185597952	14	4074
2026-01-15 13:48:57.68	210.24	9.45	-26.6	-27.8	14.9	0.00e+00	0	43	0	190840832	14	4116
2026-01-15 13:48:58.68	210.34	9.52	-26.5	-27.6	15.0	0.00e+00	0	43	0	197132288	14	4064
2026-01-15 13:48:59.69	210.44	9.59	-26.6	-27.7	14.9	0.00e+00	0	43	0	202375168	14	4106
2026-01-15 13:49:00.69	210.54	9.66	-26.8	-28.3	14.6	0.00e+00	0	43	0	207618048	14	4251
2026-01-15 13:49:01.68	210.64	9.73	-26.7	-27.9	14.8	0.00e+00	0	43	0	213909504	14	4150
2026-01-15 13:49:02.68	210.75	9.80	-26.5	-27.5	15.1	0.00e+00	0	43	0	219152384	14	4047
2026-01-15 13:49:03.68	210.85	9.87	-26.4	-27.4	15.2	0.00e+00	0	43	0	224395264	14	4014
2026-01-15 13:49:04.68	210.96	9.94	-26.4	-27.3	15.2	0.00e+00	0	43	0	230686720	14	4000
2026-01-15 13:49:05.68	211.06	10.02	-26.5	-27.5	15.1	0.00e+00	0	43	0	235929600	14	4058
2026-01-15 13:49:06.68	211.17	10.09	-26.4	-27.3	15.2	0.00e+00	0	43	0	241172480	14	3996
2026-01-15 13:49:07.69	211.27	10.16	-26.3	-27.6	15.3	0.00e+00	0	43	0	247463936	13	4171
2026-01-15 13:49:08.69	211.38	10.23	-26.3	-27.7	15.3	0.00e+00	0	43	0	252706816	13	4195
2026-01-15 13:49:09.69	211.48	10.30	-26.2	-27.3	15.5	0.00e+00	0	43	0	258998272	13	4106
2026-01-15 13:49:10.69	211.59	10.37	-26.2	-27.5	15.4	0.00e+00	0	43	0	264241152	13	4145
2026-01-15 13:49:11.70	211.70	10.45	-26.2	-27.4	15.5	0.00e+00	0	43	0	269484032	13	4133
2026-01-15 13:49:12.70	211.81	10.52	-26.4	-27.8	15.2	0.00e+00	0	43	0	275775488	13	4221
2026-01-15 13:49:13.71	211.92	10.59	-26.1	-27.2	15.6	0.00e+00	0	43	0	281018368	13	4072
2026-01-15 13:49:14.71	212.03	10.66	-26.3	-27.5	15.4	0.00e+00	0	43	0	286261248	13	4136
2026-01-15 13:49:15.71	212.14	10.74	-26.2	-27.2	15.6	0.00e+00	0	43	0	292552704	13	4082
2026-01-15 13:49:16.70	212.25	10.81	-26.3	-27.5	15.4	0.00e+00	0	43	0	297795584	13	4135
2026-01-15 13:49:17.71	212.36	10.88	-26.1	-27.1	15.6	0.00e+00	0	43	0	303038464	13	4049
2026-01-15 13:49:18.71	212.47	10.95	-26.2	-27.3	15.5	1.10e-06	0	43	0	309329920	13	4102
2026-01-15 13:49:19.71	212.58	11.03	-26.2	-27.2	15.6	0.00e+00	0	43	0	314572800	13	4083
2026-01-15 13:49:20.71	212.69	11.10	-26.0	-26.8	15.8	0.00e+00	0	43	0	320864256	13	3975
2026-01-15 13:49:21.71	212.81	11.17	-26.0	-26.9	15.8	0.00e+00	0	43	0	326107136	13	3994
2026-01-15 13:49:22.71	212.92	11.25	-25.9	-26.7	15.9	0.00e+00	0	43	0	331350016	13	3945
2026-01-15 13:49:23.72	213.03	11.32	-26.2	-27.4	15.5	0.00e+00	0	43	0	337641472	13	4112
2026-01-15 13:49:24.72	213.15	11.39	-26.1	-27.1	15.7	0.00e+00	0	43	0	342884352	13	4035
2026-01-15 13:49:25.72	213.26	11.47	-26.3	-27.5	15.4	0.00e+00	0	44	0	348127232	13	4141
2026-01-15 13:49:26.72	213.38	11.54	-26.2	-27.3	15.6	0.00e+00	0	43	0	354418688	13	4094
2026-01-15 13:49:27.73	213.50	11.62	-26.0	-26.8	15.8	0.00e+00	0	43	0	359661568	13	3974
2026-01-15 13:49:28.74	213.62	11.69	-25.9	-26.7	15.9	0.00e+00	0	44	0	365953024	13	3940
2026-01-15 13:49:29.73	213.73	11.76	-25.9	-26.6	16.0	0.00e+00	0	43	0	371195904	13	3921
2026-01-15 13:49:30.73	213.85	11.84	-25.9	-26.7	15.9	0.00e+00	0	43	0	376438784	13	3947
2026-01-15 13:49:31.74	213.97	11.91	-26.3	-27.6	15.5	0.00e+00	0	43	0	382730240	13	4162
2026-01-15 13:49:32.74	214.09	11.99	-26.3	-27.5	15.5	0.00e+00	0	43	0	387973120	13	4141
2026-01-15 13:49:33.74	214.21	12.06	-26.0	-26.9	15.8	0.00e+00	0	44	0	394264576	13	3998
2026-01-15 13:49:34.74	214.33	12.14	-26.0	-26.9	15.9	0.00e+00	0	43	0	399507456	13	3993
2026-01-15 13:49:35.73	214.45	12.21	-26.0	-26.9	15.9	0.00e+00	0	43	0	404750336	13	3981
2026-01-15 13:49:36.72	214.57	12.28	-26.1	-27.1	15.8	0.00e+00	0	44	0	411041792	13	4033
2026-01-15 13:49:37.73	214.69	12.36	-26.1	-27.1	15.7	0.00e+00	0	43	0	416284672	13	4037
2026-01-15 13:49:38.73	214.81	12.43	-25.9	-26.8	15.9	0.00e+00	0	43	0	421527552	13	3953
2026-01-15 13:49:39.73	214.94	12.51	-25.9	-26.8	15.9	0.00e+00	0	44	0	427819008	13	3961
2026-01-15 13:49:40.74	215.06	12.59	-25.9	-26.7	16.0	0.00e+00	0	43	0	433061888	13	3935
2026-01-15 13:49:41.74	215.19	12.66	-26.0	-27.0	15.8	0.00e+00	0	44	0	438304768	13	4003
2026-01-15 13:49:42.74	215.31	12.74	-25.9	-26.6	16.0	0.00e+00	0	44	0	444596224	13	3925
2026-01-15 13:49:43.74	215.44	12.81	-25.7	-26.8	16.2	0.00e+00	0	43	0	449839104	12	4068
2026-01-15 13:49:44.75	215.56	12.89	-25.7	-26.8	16.2	0.00e+00	0	43	0	456130560	12	4067
2026-01-15 13:49:45.76	215.69	12.97	-25.9	-27.2	16.0	0.00e+00	0	44	0	461373440	12	4177
2026-01-15 13:49:46.76	215.82	13.04	-25.8	-27.0	16.1	0.00e+00	0	43	0	466616320	12	4126
2026-01-15 13:49:47.76	215.95	13.12	-25.9	-27.1	16.1	0.00e+00	0	44	0	472907776	12	4138
2026-01-15 13:49:48.77	216.08	13.19	-25.9	-27.3	16.0	0.00e+00	0	43	0	478150656	12	4188
2026-01-15 13:49:49.77	216.21	13.27	-25.9	-27.1	16.1	0.00e+00	0	43	0	483393536	12	4134
2026-01-15 13:49:50.77	216.34	13.35	-25.8	-27.0	16.2	0.00e+00	0	43	0	489684992	12	4126
2026-01-15 13:49:51.77	216.47	13.42	-25.8	-26.9	16.2	0.00e+00	0	44	0	494927872	12	4098
2026-01-15 13:49:52.76	216.60	13.50	-25.8	-27.0	16.1	0.00e+00	0	43	0	500170752	12	4121
2026-01-15 13:49:53.76	216.73	13.58	-25.7	-26.6	16.3	0.00e+00	0	43	0	506462208	12	4023
2026-01-15 13:49:54.76	216.86	13.65	-25.5	-26.3	16.5	0.00e+00	0	44	0	511705088	12	3951
2026-01-15 13:49:55.76	217.00	13.73	-25.5	-26.3	16.5	0.00e+00	0	44	0	517996544	12	3951
2026-01-15 13:49:56.76	217.13	13.81	-25.4	-26.1	16.7	0.00e+00	0	44	0	523239424	12	3880
2026-01-15 13:49:57.77	217.27	13.89	-25.3	-26.4	16.8	0.00e+00	0	44	0	528482304	11	4059
2026-01-15 13:49:58.77	217.40	13.96	-25.4	-26.6	16.7	0.00e+00	0	43	0	534773760	11	4119
2026-01-15 13:49:59.78	217.54	14.04	-25.4	-26.6	16.8	0.00e+00	0	43	0	540016640	11	4106
2026-01-15 13:50:00.78	217.68	14.12	-25.5	-26.7	16.7	0.00e+00	0	44	0	546308096	11	4152
2026-01-15 13:50:01.79	217.82	14.20	-25.7	-27.1	16.5	0.00e+00	0	43	0	551550976	11	4250
2026-01-15 13:50:02.79	217.96	14.27	-25.7	-27.2	16.4	0.00e+00	0	43	0	556793856	11	4273
2026-01-15 13:50:03.79	218.09	14.35	-25.6	-27.0	16.5	0.00e+00	0	44	0	563085312	11	4232
2026-01-15 13:50:04.80	218.24	14.43	-25.5	-26.9	16.6	0.00e+00	0	43	0	568328192	11	4190
2026-01-15 13:50:05.80	218.38	14.51	-25.6	-27.0	16.6	0.00e+00	0	44	0	573571072	11	4219
2026-01-15 13:50:06.79	218.52	14.59	-25.4	-26.5	16.9	0.00e+00	0	43	0	579862528	11	4084
2026-01-15 13:50:07.79	218.66	14.66	-25.3	-26.3	16.9	0.00e+00	0	43	0	585105408	11	4042
2026-01-15 13:50:08.79	218.80	14.74	-25.5	-26.7	16.7	0.00e+00	0	44	0	591396864	11	4148
2026-01-15 13:50:09.79	218.94	14.82	-25.3	-26.4	16.9	0.00e+00	0	44	0	596639744	11	4068
2026-01-15 13:50:10.79	219.09	14.90	-25.3	-26.3	17.0	0.00e+00	0	43	0	601882624	11	4037
2026-01-15 13:50:11.79	219.23	14.98	-25.5	-26.7	16.7	0.00e+00	0	44	0	608174080	11	4154
2026-01-15 13:50:12.80	219.38	15.06	-25.4	-26.5	16.9	0.00e+00	0	44	0	613416960	11	4093
2026-01-15 13:50:13.80	219.53	15.14	-25.2	-26.1	17.1	0.00e+00	0	44	0	618659840	11	3986
2026-01-15 13:50:14.81	219.67	15.21	-25.2	-26.0	17.1	0.00e+00	0	44	0	624951296	11	3981
2026-01-15 13:50:15.81	219.82	15.29	-25.2	-26.1	17.1	0.00e+00	0	43	0	630194176	11	4000
2026-01-15 13:50:16.81	219.97	15.37	-25.1	-25.8	17.3	0.00e+00	0	43	0	635437056	11	3918
2026-01-15 13:50:17.81	220.12	15.45	-25.0	-25.8	17.3	0.00e+00	0	43	0	641728512	11	3914
2026-01-15 13:50:18.81	220.27	15.53	-25.2	-26.1	17.1	0.00e+00	0	43	0	646971392	11	4001
2026-01-15 13:50:19.81	220.42	15.61	-25.2	-26.0	17.2	0.00e+00	0	44	0	653262848	11	3965
2026-01-15 13:50:20.81	220.57	15.69	-25.1	-25.8	17.3	0.00e+00	0	43	0	658505728	11	3923
2026-01-15 13:50:21.81	220.72	15.77	-25.2	-26.0	17.2	0.00e+00	0	44	0	663748608	11	3964
2026-01-15 13:50:22.82	220.88	15.85	-25.1	-25.9	17.2	0.00e+00	0	43	0	670040064	11	3947
2026-01-15 13:50:23.82	221.03	15.93	-25.2	-26.0	17.2	0.00e+00	0	43	0	675282944	11	3969
2026-01-15 13:50:24.82	221.19	16.01	-25.1	-25.9	17.2	0.00e+00	0	43	0	680525824	11	3949
2026-01-15 13:50:25.82	221.34	16.09	-25.2	-26.0	17.2	0.00e+00	0	44	0	686817280	11	3974
2026-01-15 13:50:26.82	221.50	16.17	-25.0	-25.7	17.4	0.00e+00	0	43	0	692060160	11	3885
2026-01-15 13:50:27.83	221.66	16.25	-24.9	-25.5	17.4	0.00e+00	0	44	0	698351616	11	3846
2026-01-15 13:50:28.83	221.82	16.33	-24.9	-25.5	17.5	0.00e+00	0	44	0	703594496	11	3843
2026-01-15 13:50:29.84	221.98	16.41	-24.8	-25.3	17.6	0.00e+00	0	44	0	709885952	11	3788
2026-01-15 13:50:30.84	222.14	16.49	-24.9	-25.4	17.5	0.00e+00	0	44	0	715128832	11	3817
2026-01-15 13:50:31.84	222.30	16.57	-24.8	-25.3	17.6	0.00e+00	0	43	0	720371712	11	3788
2026-01-15 13:50:32.84	222.46	16.65	-24.9	-25.4	17.6	0.00e+00	0	43	0	726663168	11	3818
2026-01-15 13:50:33.84	222.62	16.73	-24.8	-25.3	17.6	0.00e+00	0	44	0	731906048	11	3788
2026-01-15 13:50:34.84	222.78	16.81	-24.8	-25.7	17.7	0.00e+00	0	43	0	737148928	10	4001
2026-01-15 13:50:35.84	222.95	16.89	-24.7	-25.6	17.7	0.00e+00	0	43	0	743440384	10	3967
2026-01-15 13:50:36.84	223.11	16.97	-24.7	-25.5	17.8	0.00e+00	0	43	0	748683264	10	3947
2026-01-15 13:50:37.85	223.28	17.05	-24.9	-26.0	17.5	0.00e+00	0	43	0	753926144	10	4062
2026-01-15 13:50:38.85	223.44	17.13	-24.9	-25.9	17.5	0.00e+00	0	43	0	760217600	10	4059
2026-01-15 13:50:39.85	223.61	17.21	-24.8	-25.8	17.6	0.00e+00	0	44	0	765460480	10	4017
2026-01-15 13:50:40.85	223.78	17.29	-24.9	-26.0	17.5	0.00e+00	0	43	0	771751936	10	4080
2026-01-15 13:50:41.85	223.95	17.37	-24.8	-25.7	17.6	0.00e+00	0	43	0	776994816	10	4004
2026-01-15 13:50:42.85	224.12	17.45	-24.8	-25.8	17.6	0.00e+00	0	43	0	782237696	10	4021
2026-01-15 13:50:43.85	224.29	17.53	-24.7	-25.5	17.6	0.00e+00	0	43	0	788529152	10	3963
2026-01-15 13:50:44.85	224.46	17.61	-24.9	-25.9	17.4	0.00e+00	0	43	0	793772032	10	4062
2026-01-15 13:50:45.85	224.63	17.69	-24.8	-25.7	17.6	0.00e+00	0	43	0	799014912	10	3997
2026-01-15 13:50:46.85	224.81	17.77	-24.7	-25.6	17.6	1.10e-06	0	43	0	805306368	10	3988
2026-01-15 13:50:47.86	224.98	17.85	-24.8	-25.7	17.5	3.40e-06	0	44	0	810549248	10	4012
2026-01-15 13:50:48.85	225.16	17.93	-24.6	-25.4	17.6	2.20e-06	0	44	0	815792128	10	3933
2026-01-15 13:50:49.86	225.33	18.01	-24.5	-25.1	17.7	2.05e-05	0	44	0	822083584	10	3862
2026-01-15 13:50:50.87	225.51	18.09	-24.6	-25.3	17.8	0.00e+00	0	44	0	827326464	10	3909
2026-01-15 13:50:51.87	225.69	18.17	-24.6	-25.3	17.7	2.20e-06	0	43	0	833617920	10	3899
2026-01-15 13:50:52.88	225.87	18.25	-24.6	-25.3	17.7	2.20e-06	0	44	0	838860800	10	3899
2026-01-15 13:50:53.89	226.05	18.33	-24.5	-25.2	17.4	3.66e-05	0	44	0	845152256	10	3884
2026-01-15 13:50:54.89	226.23	18.41	-24.6	-25.4	17.5	1.05e-04	0	43	0	850395136	10	3951
2026-01-15 13:50:55.90	226.42	18.50	-24.5	-25.2	17.6	1.10e-06	0	44	0	855638016	10	3914
2026-01-15 13:50:56.90	226.60	18.58	-24.4	-25.1	17.6	1.83e-05	0	44	0	861929472	10	3887
2026-01-15 13:50:57.90	226.78	18.66	-24.5	-25.2	17.1	4.82e-04	0	44	0	867172352	10	3913
2026-01-15 13:50:58.90	226.97	18.74	-24.4	-25.0	17.0	5.45e-03	0	44	0	872415232	10	3860
2026-01-15 13:50:59.90	227.15	18.82	-24.5	-25.0	18.1	0.00e+00	0	43	0	878706688	10	3830
2026-01-15 13:51:00.91	227.34	18.90	-24.6	-25.3	17.9	0.00e+00	0	43	0	883949568	10	3907
2026-01-15 13:51:01.91	227.53	18.98	-24.7	-25.4	17.9	0.00e+00	0	44	0	889192448	10	3931
2026-01-15 13:51:02.91	227.72	19.06	-24.8	-25.8	17.7	0.00e+00	0	43	0	895483904	10	4025
2026-01-15 13:51:03.91	227.91	19.14	-24.7	-25.5	17.9	0.00e+00	0	44	0	900726784	10	3953
2026-01-15 13:51:04.92	228.10	19.22	-24.5	-25.0	18.1	0.00e+00	0	43	0	907018240	10	3829
2026-01-15 13:51:05.92	228.29	19.30	-24.4	-24.9	18.2	0.00e+00	0	43	0	912261120	10	3807
2026-01-15 13:51:06.92	228.48	19.38	-24.4	-24.9	18.2	0.00e+00	0	44	0	917504000	10	3812
2026-01-15 13:51:07.93	228.68	19.46	-24.3	-24.7	18.3	0.00e+00	0	44	0	923795456	10	3756
2026-01-15 13:51:08.92	228.87	19.54	-24.3	-24.7	18.3	0.00e+00	0	44	0	929038336	10	3760
2026-01-15 13:51:09.93	229.07	19.62	-24.1	-24.8	18.4	0.00e+00	0	44	0	935329792	9	3895
2026-01-15 13:51:10.93	229.26	19.70	-24.2	-25.0	18.4	0.00e+00	0	43	0	940572672	9	3939
2026-01-15 13:51:11.93	229.46	19.78	-24.2	-25.0	18.4	0.00e+00	0	44	0	945815552	9	3940
2026-01-15 13:51:12.93	229.66	19.86	-24.3	-25.1	18.3	0.00e+00	0	44	0	952107008	9	3946
2026-01-15 13:51:13.93	229.86	19.94	-24.3	-25.1	18.4	0.00e+00	0	44	0	957349888	9	3950
2026-01-15 13:51:14.92	230.06	20.02	-24.1	-24.8	18.5	0.00e+00	0	44	0	962592768	9	3889
2026-01-15 13:51:15.93	230.26	20.10	-24.1	-24.7	18.5	0.00e+00	0	44	0	968884224	9	3872
2026-01-15 13:51:16.93	230.46	20.17	-24.3	-25.1	18.3	0.00e+00	0	44	0	974127104	9	3957
2026-01-15 13:51:17.94	230.67	20.25	-24.1	-24.8	18.5	0.00e+00	0	44	0	980418560	9	3876
2026-01-15 13:51:18.94	230.87	20.33	-24.2	-24.9	18.4	0.00e+00	0	43	0	985661440	9	3916
2026-01-15 13:51:19.94	231.08	20.41	-24.2	-24.9	18.4	0.00e+00	0	44	0	990904320	9	3925
2026-01-15 13:51:20.94	231.28	20.49	-24.4	-25.3	18.2	0.00e+00	0	43	0	997195776	9	4020
2026-01-15 13:51:21.94	231.49	20.57	-24.4	-25.3	18.2	0.00e+00	0	43	0	1002438656	9	4020
2026-01-15 13:51:22.94	231.70	20.65	-24.4	-25.3	18.3	0.00e+00	0	44	0	1007681536	9	4002
2026-01-15 13:51:23.95	231.91	20.73	-24.2	-25.1	18.4	0.00e+00	0	44	0	1013972992	9	3951
2026-01-15 13:51:24.95	232.12	20.81	-24.4	-25.2	18.3	0.00e+00	0	44	0	1019215872	9	3991
2026-01-15 13:51:25.96	232.33	20.88	-24.5	-25.6	18.1	0.00e+00	0	43	0	1024458752	9	4067
2026-01-15 13:51:26.96	232.54	20.96	-24.4	-25.3	18.3	0.00e+00	0	44	0	1030750208	9	3997
2026-01-15 13:51:27.97	232.76	21.04	-24.6	-25.7	18.0	0.00e+00	0	44	0	1035993088	9	4109
2026-01-15 13:51:28.96	232.97	21.12	-24.4	-25.4	18.2	0.00e+00	0	44	0	1042284544	9	4033
2026-01-15 13:51:29.96	233.19	21.19	-24.3	-25.2	18.3	0.00e+00	0	44	0	1047527424	9	3972
2026-01-15 13:51:30.96	233.41	21.27	-24.4	-25.3	18.3	0.00e+00	0	44	0	1052770304	9	3996
2026-01-15 13:51:31.96	233.62	21.35	-24.4	-25.4	18.2	0.00e+00	0	43	0	1059061760	9	4040
2026-01-15 13:51:32.96	233.84	21.43	-24.4	-25.3	18.2	0.00e+00	0	43	0	1064304640	9	4013
2026-01-15 13:51:33.97	234.06	21.50	-24.6	-25.9	18.0	0.00e+00	0	43	0	1069547520	9	4150
2026-01-15 13:51:34.97	234.29	21.58	-24.4	-25.4	18.2	0.00e+00	0	43	0	1075838976	9	4030
2026-01-15 13:51:35.96	234.50	21.66	-24.1	-24.8	18.5	0.00e+00	0	44	0	1081081856	9	3882
2026-01-15 13:51:36.96	234.73	21.73	-23.9	-24.3	18.8	0.00e+00	0	44	0	1086324736	9	3775
2026-01-15 13:51:37.97	234.95	21.81	-23.8	-24.5	19.0	0.00e+00	0	44	0	1092616192	8	3915
2026-01-15 13:51:38.97	235.18	21.88	-23.5	-24.0	19.2	0.00e+00	0	43	0	1097859072	8	3806
2026-01-15 13:51:39.97	235.41	21.96	-23.6	-24.2	19.1	0.00e+00	0	44	0	1104150528	8	3860
2026-01-15 13:51:40.98	235.64	22.04	-23.7	-24.4	19.0	0.00e+00	0	44	0	1109393408	8	3897
2026-01-15 13:51:41.98	235.86	22.11	-23.8	-24.6	18.9	0.00e+00	0	43	0	1115684864	8	3958
2026-01-15 13:51:42.99	236.10	22.19	-23.8	-24.5	18.9	0.00e+00	0	43	0	1120927744	8	3922
2026-01-15 13:51:43.99	236.33	22.26	-23.8	-24.5	19.0	0.00e+00	0	44	0	1126170624	8	3914
2026-01-15 13:51:45.00	236.56	22.33	-23.9	-24.9	18.8	0.00e+00	0	44	0	1132462080	8	4013
2026-01-15 13:51:46.00	236.79	22.41	-23.8	-24.5	19.0	0.00e+00	0	44	0	1137704960	8	3917
2026-01-15 13:51:46.99	237.02	22.48	-23.8	-24.7	18.9	0.00e+00	0	43	0	1142947840	8	3961
2026-01-15 13:51:48.00	237.26	22.56	-23.9	-24.8	18.8	0.00e+00	0	44	0	1149239296	8	3984
2026-01-15 13:51:49.00	237.50	22.63	-24.0	-25.0	18.7	0.00e+00	0	44	0	1154482176	8	4048
2026-01-15 13:51:49.99	237.73	22.70	-24.0	-25.0	18.7	0.00e+00	0	43	0	1159725056	8	4042
2026-01-15 13:51:50.99	237.97	22.77	-24.1	-25.2	18.6	0.00e+00	0	44	0	1166016512	8	4096
2026-01-15 13:51:51.99	238.21	22.85	-24.1	-25.2	18.6	0.00e+00	0	44	0	1171259392	8	4099
2026-01-15 13:51:52.99	238.45	22.92	-24.6	-25.7	18.2	0.00e+00	0	44	0	1177550848	9	4103
2026-01-15 13:51:53.99	238.69	22.99	-23.9	-24.4	18.8	0.00e+00	0	43	0	1182793728	9	3783
2026-01-15 13:51:55.00	238.94	23.06	-23.7	-24.3	19.1	0.00e+00	0	44	0	1188036608	8	3877
2026-01-15 13:51:55.99	239.18	23.13	-23.4	-23.8	19.3	0.00e+00	0	43	0	1194328064	8	3764
2026-01-15 13:51:57.00	239.43	23.20	-23.5	-23.9	19.3	0.00e+00	0	43	0	1199570944	8	3775
2026-01-15 13:51:58.00	239.67	23.27	-23.7	-24.3	19.1	0.00e+00	0	44	0	1204813824	8	3864
2026-01-15 13:51:59.00	239.92	23.34	-23.6	-24.1	19.2	0.00e+00	0	43	0	1211105280	8	3818
2026-01-15 13:52:00.00	240.17	23.41	-23.8	-24.5	19.0	0.00e+00	0	44	0	1216348160	8	3925
2026-01-15 13:52:01.00	240.41	23.48	-23.8	-24.5	19.0	0.00e+00	0	43	0	1221591040	8	3918
2026-01-15 13:52:02.00	240.67	23.55	-23.9	-24.8	18.8	0.00e+00	0	44	0	1227882496	8	3995
2026-01-15 13:52:03.00	240.92	23.62	-23.8	-24.6	19.0	0.00e+00	0	43	0	1233125376	8	3934
2026-01-15 13:52:04.01	241.17	23.69	-23.7	-24.4	19.1	0.00e+00	0	44	0	1239416832	8	3891
2026-01-15 13:52:05.00	241.42	23.76	-23.8	-24.6	19.0	0.00e+00	0	44	0	1244659712	8	3932
2026-01-15 13:52:06.00	241.68	23.82	-23.5	-24.0	19.3	0.00e+00	0	44	0	1249902592	8	3792
2026-01-15 13:52:07.00	241.93	23.89	-23.2	-24.0	18.6	0.00e+00	0	44	0	1256194048	7	3917
2026-01-15 13:52:08.01	242.19	23.96	-23.2	-24.0	18.8	0.00e+00	0	44	0	1261436928	7	3947
2026-01-15 13:52:09.02	242.45	24.02	-23.1	-23.9	17.1	2.29e-04	0	44	0	1266679808	7	3952
2026-01-15 13:52:10.02	242.71	24.09	-22.7	-24.3	15.9	1.34e-02	0	43	0	1272971264	6	4289
2026-01-15 13:52:11.02	242.97	24.15	-21.9	-24.2	15.1	3.09e-02	0	43	0	1278214144	4	4678
2026-01-15 13:52:12.02	243.23	24.22	-20.6	-24.3	14.9	3.36e-02	0	43	0	1283457024	1	5479
2026-01-15 13:52:13.03	243.49	24.28	-18.2	-22.2	14.8	3.79e-02	0	43	0	1289748480	0	5703
2026-01-15 13:52:14.03	243.76	24.35	-17.7	-21.7	14.5	3.93e-02	0	44	0	1294991360	0	5715
2026-01-15 13:52:15.03	244.02	24.41	-16.0	-20.1	13.7	4.60e-02	0	43	0	1301282816	0	5775
2026-01-15 13:52:16.04	244.29	24.48	-16.9	-21.5	13.5	5.43e-02	0	43	0	1306525696	0	6117
2026-01-15 13:52:17.04	244.55	24.54	-17.6	-21.9	13.9	4.16e-02	0	43	0	1312817152	0	5953
2026-01-15 13:52:18.04	244.82	24.60	-16.4	-21.1	13.7	4.64e-02	0	43	0	1318060032	0	6192
2026-01-15 13:52:19.04	245.09	24.66	-16.1	-20.6	13.4	5.28e-02	0	44	0	1323302912	0	6095
2026-01-15 13:52:20.04	245.36	24.72	-15.4	-20.7	11.4	3.36e-01	0	43	0	1327497216	0	6648
2026-01-15 13:52:21.05	245.63	24.78	-26.7	-32.0	10.2	4.80e-01	0	44	0	1329594368	0	6646
2026-01-15 13:52:22.05	245.90	24.84	-18.4	-23.5	9.7	4.86e-01	0	44	0	1330642944	0	6477
2026-01-15 13:52:23.05	246.17	24.90	-37.9	-43.8	11.2	4.59e-01	0	43	0	1332740096	0	7055
2026-01-15 13:52:24.06	246.45	24.96	-23.0	-28.2	10.8	4.37e-01	0	44	0	1334837248	0	6551
2026-01-15 13:52:25.06	246.72	25.02	-15.4	-21.1	10.8	4.42e-01	0	44	0	1336934400	0	6944
2026-01-15 13:52:26.06	247.00	25.08	-15.5	-21.6	10.4	4.58e-01	0	44	0	1339031552	0	7233
2026-01-15 13:52:27.07	247.28	25.13	-36.4	-41.6	10.4	3.84e-01	0	44	0	1342177280	0	6541
2026-01-15 13:52:28.06	247.55	25.19	-24.9	-30.9	10.6	4.46e-01	0	43	0	1344274432	0	7181
2026-01-15 13:52:29.06	247.83	25.25	-26.2	-31.5	10.3	4.03e-01	0	43	0	1346371584	0	6661
2026-01-15 13:52:30.07	248.11	25.30	-20.3	-25.9	10.7	4.41e-01	0	44	0	1348468736	0	6904
2026-01-15 13:52:31.07	248.39	25.36	-19.3	-24.9	10.7	4.29e-01	0	44	0	1350565888	0	6838
2026-01-15 13:52:32.07	248.67	25.41	-15.6	-21.9	11.6	4.15e-01	0	44	0	1353711616	0	7428
2026-01-15 13:52:33.07	248.95	25.47	-15.2	-22.1	11.5	3.63e-01	0	44	0	1355808768	0	7943
2026-01-15 13:52:34.07	249.24	25.52	-30.8	-38.0	11.6	2.37e-01	0	43	0	1360003072	0	8207
2026-01-15 13:52:35.07	249.52	25.57	-16.1	-22.5	13.4	5.36e-02	0	44	0	1365245952	0	7527
2026-01-15 13:52:36.07	249.80	25.62	-18.0	-23.9	14.0	4.14e-02	0	44	0	1370488832	0	7039
2026-01-15 13:52:37.07	250.09	25.67	-19.7	-25.8	13.8	3.92e-02	0	44	0	1376780288	0	7291
2026-01-15 13:52:38.07	250.38	25.72	-20.6	-26.0	14.0	3.93e-02	0	44	0	1382023168	0	6708
2026-01-15 13:52:39.07	250.66	25.77	-20.8	-25.1	14.6	3.51e-02	0	44	0	1388314624	1	5935
2026-01-15 13:52:40.07	250.95	25.82	-21.4	-25.2	14.0	3.89e-02	0	44	0	1393557504	3	5625
2026-01-15 13:52:41.08	251.24	25.87	-21.8	-24.9	14.4	3.29e-02	0	43	0	1398800384	3	5178
2026-01-15 13:52:42.08	251.53	25.92	-22.2	-25.1	14.6	3.91e-02	0	44	0	1405091840	4	5023
2026-01-15 13:52:43.09	251.83	25.97	-22.8	-25.2	15.0	3.11e-02	0	43	0	1410334720	5	4730
2026-01-15 13:52:44.09	252.12	26.01	-23.5	-25.3	14.9	3.17e-02	0	44	0	1416626176	7	4422
2026-01-15 13:52:45.09	252.41	26.06	-24.3	-26.0	15.0	2.68e-02	0	43	0	1421869056	8	4411
2026-01-15 13:52:46.10	252.71	26.10	-23.9	-25.1	16.2	1.17e-03	0	43	0	1427111936	8	4117
2026-01-15 13:52:47.10	253.00	26.15	-23.3	-23.7	17.2	1.07e-04	0	44	0	1433403392	8	3749
2026-01-15 13:52:48.10	253.30	26.19	-23.1	-23.8	17.7	5.70e-06	0	44	0	1438646272	7	3877
2026-01-15 13:52:49.10	253.59	26.23	-23.3	-24.0	16.5	5.26e-04	0	43	0	1443889152	7	3932
2026-01-15 13:52:50.10	253.89	26.28	-23.0	-23.7	17.0	2.14e-04	0	43	0	1450180608	7	3901
2026-01-15 13:52:51.10	254.18	26.32	-23.5	-24.6	15.5	1.27e-02	0	44	0	1455423488	7	4113
2026-01-15 13:52:52.10	254.48	26.36	-22.9	-23.6	16.0	1.64e-02	0	44	0	1460666368	7	3895
2026-01-15 13:52:53.10	254.78	26.40	-23.0	-23.7	15.8	9.27e-03	0	44	0	1466957824	7	3917
2026-01-15 13:52:54.10	255.08	26.44	-22.9	-23.6	15.5	2.83e-02	0	44	0	1472200704	7	3893
2026-01-15 13:52:55.10	255.38	26.48	-23.2	-24.1	15.3	1.67e-02	0	44	0	1478492160	7	4025
2026-01-15 13:52:56.10	255.68	26.51	-23.3	-24.5	19.5	3.03e-02	0	43	0	1483735040	6	4138
2026-01-15 13:52:57.10	255.98	26.55	-23.1	-24.1	19.7	0.00e+00	0	44	0	1488977920	6	4051
2026-01-15 13:52:58.10	256.28	26.59	-23.2	-24.3	19.6	0.00e+00	0	44	0	1495269376	6	4098
2026-01-15 13:52:59.11	256.59	26.62	-23.0	-23.9	19.8	0.00e+00	0	43	0	1500512256	6	3989
2026-01-15 13:53:00.10	256.89	26.66	-22.9	-23.8	18.7	0.00e+00	0	44	0	1505755136	6	3984
2026-01-15 13:53:01.11	257.20	26.69	-22.8	-23.7	15.5	6.26e-03	0	44	0	1512046592	6	4005
2026-01-15 13:53:02.11	257.50	26.72	-22.3	-23.4	15.0	3.44e-02	0	44	0	1517289472	6	4111
2026-01-15 13:53:03.10	257.80	26.75	-21.6	-23.7	15.2	3.37e-02	0	44	0	1523580928	4	4593
2026-01-15 13:53:04.10	258.11	26.79	-20.3	-23.9	15.1	3.29e-02	0	44	0	1528823808	1	5415
2026-01-15 13:53:05.10	258.41	26.82	-18.9	-22.6	14.4	3.57e-02	0	44	0	1534066688	0	5513
2026-01-15 13:53:06.10	258.72	26.85	-18.4	-22.8	13.9	3.24e-02	0	43	0	1540358144	0	5951
2026-01-15 13:53:07.10	259.03	26.87	-18.1	-22.8	13.0	3.62e-02	0	44	0	1545601024	0	6176
2026-01-15 13:53:08.10	259.34	26.90	-18.0	-23.1	12.8	3.60e-02	0	43	0	1550843904	0	6451
2026-01-15 13:53:09.10	259.65	26.93	-17.6	-22.1	12.7	3.87e-02	0	44	0	1557135360	0	6088
2026-01-15 13:53:10.10	259.95	26.95	-17.3	-21.8	12.6	3.99e-02	0	44	0	1562378240	0	6058
2026-01-15 13:53:11.10	260.26	26.98	-17.0	-22.0	12.3	4.66e-02	0	44	0	1567621120	0	6438
2026-01-15 13:53:12.10	260.57	27.00	-17.7	-22.3	12.7	4.27e-02	0	44	0	1573912576	0	6099
2026-01-15 13:53:13.10	260.88	27.03	-18.6	-22.7	13.7	3.54e-02	0	43	0	1579155456	0	5725
2026-01-15 13:53:14.11	261.20	27.05	-19.6	-24.4	14.9	3.52e-02	0	43	0	1585446912	0	6290
2026-01-15 13:53:15.11	261.51	27.07	-20.7	-24.7	15.0	3.25e-02	0	43	0	1590689792	1	5718
2026-01-15 13:53:16.11	261.82	27.09	-21.9	-25.2	15.0	3.64e-02	0	43	0	1595932672	3	5275
2026-01-15 13:53:17.11	262.13	27.11	-22.3	-24.5	16.0	2.64e-02	0	44	0	1602224128	4	4623
2026-01-15 13:53:18.11	262.44	27.13	-23.1	-24.7	16.6	9.57e-03	0	43	0	1607467008	6	4313
2026-01-15 13:53:19.11	262.76	27.15	-23.9	-25.4	17.1	1.66e-04	0	44	0	1612709888	7	4292
2026-01-15 13:53:20.11	263.07	27.17	-23.7	-24.9	17.8	1.10e-06	0	44	0	1619001344	7	4139
2026-01-15 13:53:21.12	263.39	27.19	-24.1	-25.3	16.8	1.25e-05	0	43	0	1624244224	8	4135
2026-01-15 13:53:22.12	263.70	27.20	-24.3	-25.8	15.9	1.67e-03	0	44	0	1629487104	8	4277
2026-01-15 13:53:23.12	264.01	27.22	-23.7	-24.7	17.9	1.83e-05	0	43	0	1635778560	8	4050
2026-01-15 13:53:24.12	264.33	27.23	-23.3	-24.2	17.4	0.00e+00	0	44	0	1641021440	8	4002
2026-01-15 13:53:25.12	264.64	27.24	-23.1	-24.3	16.0	1.50e-02	0	43	0	1647312896	7	4168
2026-01-15 13:53:26.13	264.96	27.25	-23.2	-24.6	16.1	1.00e-03	0	44	0	1652555776	7	4221
2026-01-15 13:53:27.13	265.28	27.27	-23.3	-24.6	16.3	2.76e-03	0	44	0	1658847232	7	4194
2026-01-15 13:53:28.13	265.59	27.28	-23.1	-24.0	15.7	4.50e-03	0	44	0	1664090112	7	3983
2026-01-15 13:53:29.14	265.91	27.28	-23.2	-23.8	19.7	0.00e+00	0	43	0	1669332992	7	3852
2026-01-15 13:53:30.14	266.23	27.29	-22.9	-23.2	19.9	0.00e+00	0	44	0	1675624448	7	3734
2026-01-15 13:53:31.14	266.54	27.30	-22.9	-23.2	20.0	0.00e+00	0	43	0	1680867328	7	3724
2026-01-15 13:53:32.15	266.86	27.31	-22.9	-23.2	20.0	0.00e+00	0	44	0	1686110208	7	3721
2026-01-15 13:53:33.15	267.18	27.31	-23.0	-23.5	19.8	0.00e+00	0	43	0	1692401664	7	3785
2026-01-15 13:53:34.15	267.49	27.32	-23.3	-24.1	19.5	0.00e+00	0	44	0	1697644544	7	3926
2026-01-15 13:53:35.16	267.81	27.32	-23.4	-24.3	19.4	0.00e+00	0	44	0	1702887424	7	3978
2026-01-15 13:53:36.16	268.13	27.32	-23.1	-23.7	19.7	0.00e+00	0	44	0	1709178880	7	3833
2026-01-15 13:53:37.16	268.44	27.33	-23.2	-23.8	19.7	0.00e+00	0	44	0	1714421760	7	3858
2026-01-15 13:53:38.16	268.76	27.33	-23.3	-24.0	19.6	0.00e+00	0	44	0	1720713216	7	3903
2026-01-15 13:53:39.16	269.08	27.33	-23.1	-23.6	19.8	0.00e+00	0	44	0	1725956096	7	3803
2026-01-15 13:53:40.17	269.39	27.33	-23.0	-23.5	19.8	0.00e+00	0	44	0	1731198976	7	3785
2026-01-15 13:53:41.17	269.71	27.32	-23.2	-23.8	19.6	0.00e+00	0	43	0	1737490432	7	3862
2026-01-15 13:53:42.18	270.03	27.32	-23.2	-23.8	19.6	0.00e+00	0	44	0	1742733312	7	3871
2026-01-15 13:53:43.18	270.35	27.32	-23.6	-24.6	19.2	0.00e+00	0	43	0	1749024768	7	4067
2026-01-15 13:53:44.18	270.66	27.31	-23.3	-24.1	19.5	0.00e+00	0	44	0	1754267648	7	3939
2026-01-15 13:53:45.18	270.98	27.31	-23.1	-23.7	19.7	0.00e+00	0	43	0	1759510528	7	3835
2026-01-15 13:53:46.18	271.29	27.30	-23.0	-23.3	19.9	0.00e+00	0	43	0	1765801984	7	3753
2026-01-15 13:53:47.18	271.61	27.29	-23.0	-23.3	19.9	0.00e+00	0	43	0	1771044864	7	3751
2026-01-15 13:53:48.18	271.92	27.29	-22.9	-23.3	19.9	0.00e+00	0	43	0	1776287744	7	3747
2026-01-15 13:53:49.18	272.24	27.28	-22.8	-23.1	20.0	0.00e+00	0	43	0	1782579200	7	3702
2026-01-15 13:53:50.19	272.56	27.27	-22.9	-23.2	20.0	0.00e+00	0	43	0	1787822080	7	3722
2026-01-15 13:53:51.19	272.87	27.25	-22.8	-23.0	20.0	0.00e+00	0	44	0	1794113536	7	3692
2026-01-15 13:53:52.19	273.19	27.24	-23.0	-23.5	19.8	0.00e+00	0	44	0	1799356416	7	3786
2026-01-15 13:53:53.20	273.50	27.23	-22.9	-23.3	19.9	0.00e+00	0	44	0	1804599296	7	3744
2026-01-15 13:53:54.21	273.82	27.22	-22.9	-23.1	20.0	0.00e+00	0	44	0	1810890752	7	3703
2026-01-15 13:53:55.22	274.14	27.20	-22.8	-23.1	20.0	2.20e-06	0	43	0	1816133632	7	3696
2026-01-15 13:53:56.22	274.45	27.19	-22.8	-23.0	20.0	0.00e+00	0	43	0	1821376512	7	3692
2026-01-15 13:53:57.22	274.76	27.17	-22.9	-23.2	19.9	0.00e+00	0	43	0	1827667968	7	3731
2026-01-15 13:53:58.22	275.08	27.15	-23.0	-23.5	19.8	0.00e+00	0	43	0	1832910848	7	3780
2026-01-15 13:53:59.22	275.39	27.13	-22.8	-23.1	20.0	0.00e+00	0	43	0	1839202304	7	3691
2026-01-15 13:54:00.22	275.70	27.12	-22.8	-23.0	20.1	0.00e+00	0	44	0	1844445184	7	3678
2026-01-15 13:54:01.23	276.02	27.09	-22.9	-23.2	19.9	0.00e+00	0	43	0	1849688064	7	3729
2026-01-15 13:54:02.23	276.33	27.07	-23.0	-23.5	19.8	0.00e+00	0	44	0	1855979520	7	3787
2026-01-15 13:54:03.23	276.64	27.05	-23.1	-23.6	19.7	0.00e+00	0	43	0	1861222400	7	3822
2026-01-15 13:54:04.24	276.95	27.03	-23.1	-23.7	19.7	0.00e+00	0	44	0	1867513856	7	3834
2026-01-15 13:54:05.24	277.26	27.01	-23.1	-23.6	19.7	0.00e+00	0	44	0	1872756736	7	3817
2026-01-15 13:54:06.24	277.57	26.98	-23.1	-23.6	19.7	0.00e+00	0	44	0	1877999616	7	3826
2026-01-15 13:54:07.25	277.88	26.96	-23.1	-23.7	19.7	0.00e+00	0	43	0	1884291072	7	3832
2026-01-15 13:54:08.24	278.19	26.93	-23.1	-23.7	19.7	0.00e+00	0	43	0	1889533952	7	3828
2026-01-15 13:54:09.24	278.50	26.90	-23.1	-23.7	19.7	0.00e+00	0	43	0	1894776832	7	3836
2026-01-15 13:54:10.24	278.80	26.88	-23.0	-23.5	19.8	0.00e+00	0	44	0	1901068288	7	3790
2026-01-15 13:54:11.24	279.11	26.85	-23.0	-23.5	19.8	0.00e+00	0	44	0	1906311168	7	3782
2026-01-15 13:54:12.23	279.42	26.82	-23.1	-23.5	19.8	0.00e+00	0	44	0	1911554048	7	3797
2026-01-15 13:54:13.24	279.72	26.79	-22.9	-23.2	20.0	0.00e+00	0	44	0	1917845504	7	3721
2026-01-15 13:54:14.24	280.03	26.76	-22.8	-23.4	20.1	0.00e+00	0	44	0	1923088384	6	3889
2026-01-15 13:54:15.23	280.33	26.73	-23.0	-23.8	19.9	0.00e+00	0	44	0	1929379840	6	3977
2026-01-15 13:54:16.23	280.63	26.69	-23.0	-23.9	19.8	0.00e+00	0	44	0	1934622720	6	4001
2026-01-15 13:54:17.23	280.94	26.66	-23.1	-24.2	19.7	0.00e+00	0	44	0	1939865600	6	4062
2026-01-15 13:54:18.24	281.24	26.62	-23.2	-24.2	19.7	0.00e+00	0	43	0	1946157056	6	4079
2026-01-15 13:54:19.24	281.55	26.59	-23.2	-24.3	19.6	0.00e+00	0	43	0	1951399936	6	4093
2026-01-15 13:54:20.23	281.84	26.55	-23.1	-24.1	19.7	0.00e+00	0	43	0	1956642816	6	4046
2026-01-15 13:54:21.23	282.15	26.52	-23.1	-24.2	19.7	0.00e+00	0	44	0	1962934272	6	4061
2026-01-15 13:54:22.23	282.45	26.48	-23.1	-24.2	19.7	0.00e+00	0	43	0	1968177152	6	4064
2026-01-15 13:54:23.23	282.74	26.44	-23.2	-24.4	19.6	0.00e+00	0	43	0	1973420032	6	4128
2026-01-15 13:54:24.23	283.04	26.40	-23.3	-24.4	19.6	0.00e+00	0	44	0	1979711488	6	4132
2026-01-15 13:54:25.23	283.34	26.36	-23.3	-24.6	19.5	0.00e+00	0	43	0	1984954368	6	4172
2026-01-15 13:54:26.22	283.64	26.32	-23.1	-24.1	19.8	0.00e+00	0	44	0	1991245824	6	4032
2026-01-15 13:54:27.23	283.94	26.28	-23.0	-23.9	19.9	0.00e+00	0	44	0	1996488704	6	3985
2026-01-15 13:54:28.22	284.23	26.24	-23.0	-23.9	19.9	0.00e+00	0	43	0	2001731584	6	3981
2026-01-15 13:54:29.22	284.52	26.20	-23.0	-23.9	19.8	0.00e+00	0	43	0	2006974464	6	3987
2026-01-15 13:54:30.22	284.82	26.15	-23.1	-24.1	19.7	0.00e+00	0	43	0	2013265920	6	4049
2026-01-15 13:54:31.22	285.11	26.11	-23.2	-24.4	19.6	0.00e+00	0	44	0	2018508800	6	4118
2026-01-15 13:54:32.23	285.41	26.07	-23.4	-24.7	19.4	0.00e+00	0	44	0	2024800256	6	4195
2026-01-15 13:54:33.23	285.70	26.02	-23.4	-24.8	19.4	0.00e+00	0	43	0	2030043136	6	4215
2026-01-15 13:54:34.23	285.99	25.97	-23.5	-24.5	19.2	0.00e+00	0	44	0	2035286016	7	4043
2026-01-15 13:54:35.23	286.28	25.93	-23.7	-24.8	19.1	0.00e+00	0	44	0	2041577472	7	4109
2026-01-15 13:54:36.23	286.57	25.88	-23.7	-24.8	19.1	0.00e+00	0	44	0	2046820352	7	4103
2026-01-15 13:54:37.23	286.86	25.83	-23.8	-25.0	19.0	0.00e+00	0	44	0	2053111808	7	4154
2026-01-15 13:54:38.23	287.14	25.78	-23.9	-25.3	18.8	0.00e+00	0	43	0	2058354688	7	4230
2026-01-15 13:54:39.23	287.43	25.73	-23.7	-24.9	19.1	0.00e+00	0	44	0	2063597568	7	4124
2026-01-15 13:54:40.23	287.71	25.68	-23.6	-24.6	19.2	0.00e+00	0	44	0	2069889024	7	4063
2026-01-15 13:54:41.23	288.00	25.63	-23.6	-24.7	19.2	0.00e+00	0	44	0	2075131904	7	4076
2026-01-15 13:54:42.23	288.28	25.58	-23.6	-24.7	19.2	0.00e+00	0	44	0	2080374784	7	4090
2026-01-15 13:54:43.24	288.57	25.53	-23.8	-25.1	19.0	0.00e+00	0	44	0	2086666240	7	4169
2026-01-15 13:54:44.24	288.85	25.48	-23.4	-24.3	19.4	0.00e+00	0	44	0	2091909120	7	3971
2026-01-15 13:54:45.25	289.13	25.42	-23.2	-23.8	19.6	0.00e+00	0	44	0	2097152000	7	3856
2026-01-15 13:54:46.25	289.42	25.37	-23.2	-23.8	19.6	0.00e+00	0	44	0	2103443456	7	3870
2026-01-15 13:54:47.25	289.69	25.31	-23.4	-24.2	19.5	0.00e+00	0	44	0	2108686336	7	3946
2026-01-15 13:54:48.25	289.97	25.26	-23.4	-24.2	19.4	0.00e+00	0	44	0	2114977792	7	3963
2026-01-15 13:54:49.25	290.25	25.20	-23.5	-24.4	19.4	0.00e+00	0	44	0	2120220672	7	4000
2026-01-15 13:54:50.25	290.53	25.15	-23.5	-24.5	19.3	0.00e+00	0	44	0	2125463552	7	4036
2026-01-15 13:54:51.26	290.80	25.09	-23.6	-24.6	19.2	0.00e+00	0	44	0	2131755008	7	4063
2026-01-15 13:54:52.26	291.08	25.03	-23.5	-24.4	19.4	0.00e+00	0	44	0	2136997888	7	3993
2026-01-15 13:54:53.27	291.35	24.97	-23.4	-24.2	19.4	0.00e+00	0	44	0	2142240768	7	3965
2026-01-15 13:54:54.27	291.63	24.92	-23.5	-24.4	19.3	0.00e+00	0	44	0	2148532224	7	3997
2026-01-15 13:54:55.27	291.90	24.86	-23.5	-24.4	19.3	0.00e+00	0	44	0	2153775104	7	4001
2026-01-15 13:54:56.28	292.17	24.80	-23.5	-24.5	19.2	0.00e+00	0	44	0	2160066560	7	4039
2026-01-15 13:54:57.28	292.44	24.74	-23.6	-24.6	19.2	0.00e+00	0	44	0	2165309440	7	4060
2026-01-15 13:54:58.29	292.71	24.67	-23.7	-24.9	19.1	0.00e+00	0	44	0	2170552320	7	4127
2026-01-15 13:54:59.28	292.98	24.61	-23.6	-24.6	19.2	0.00e+00	0	44	0	2176843776	7	4064
2026-01-15 13:55:00.28	293.24	24.55	-23.5	-24.5	19.3	0.00e+00	0	44	0	2182086656	7	4020
2026-01-15 13:55:01.29	293.51	24.49	-23.6	-24.6	19.3	0.00e+00	0	44	0	2188378112	7	4043
2026-01-15 13:55:02.29	293.77	24.43	-23.7	-24.8	19.1	0.00e+00	0	44	0	2193620992	7	4100
2026-01-15 13:55:03.30	294.04	24.36	-23.5	-24.5	19.3	0.00e+00	0	44	0	2198863872	7	4028
2026-01-15 13:55:04.30	294.30	24.30	-23.7	-24.8	19.1	0.00e+00	0	44	0	2205155328	7	4106
2026-01-15 13:55:05.30	294.56	24.24	-23.8	-25.1	19.0	0.00e+00	0	44	0	2210398208	7	4168
2026-01-15 13:55:06.30	294.82	24.17	-23.7	-24.9	19.1	0.00e+00	0	44	0	2215641088	7	4127
2026-01-15 13:55:07.31	295.08	24.11	-23.6	-24.7	19.2	0.00e+00	0	43	0	2221932544	7	4073
2026-01-15 13:55:08.30	295.34	24.04	-23.7	-24.8	19.2	0.00e+00	0	44	0	2227175424	7	4087
2026-01-15 13:55:09.31	295.60	23.98	-23.6	-24.6	19.2	0.00e+00	0	44	0	2232418304	7	4044
2026-01-15 13:55:10.31	295.85	23.91	-23.5	-24.4	19.3	0.00e+00	0	44	0	2238709760	7	4003
2026-01-15 13:55:11.30	296.11	23.84	-23.6	-24.7	19.2	0.00e+00	0	44	0	2243952640	7	4081
2026-01-15 13:55:12.31	296.36	23.78	-23.8	-25.0	19.0	0.00e+00	0	44	0	2250244096	7	4148
2026-01-15 13:55:13.30	296.61	23.71	-23.8	-25.2	18.9	0.00e+00	0	44	0	2255486976	7	4198
2026-01-15 13:55:14.31	296.87	23.64	-23.9	-25.3	18.9	0.00e+00	0	44	0	2260729856	7	4228
2026-01-15 13:55:15.30	297.11	23.57	-24.0	-25.5	18.8	0.00e+00	0	44	0	2267021312	7	4271
2026-01-15 13:55:16.30	297.36	23.51	-23.9	-25.4	18.8	0.00e+00	0	44	0	2272264192	7	4254
2026-01-15 13:55:17.31	297.62	23.44	-23.8	-25.1	19.0	0.00e+00	0	44	0	2277507072	7	4169
2026-01-15 13:55:18.31	297.86	23.37	-23.8	-25.0	19.0	0.00e+00	0	43	0	2283798528	7	4156
2026-01-15 13:55:19.31	298.11	23.30	-23.8	-25.0	19.0	0.00e+00	0	44	0	2289041408	7	4158
2026-01-15 13:55:20.31	298.35	23.23	-23.7	-24.8	19.1	0.00e+00	0	44	0	2294284288	7	4112
2026-01-15 13:55:21.31	298.60	23.16	-23.6	-24.7	19.2	0.00e+00	0	43	0	2300575744	7	4066
2026-01-15 13:55:22.31	298.84	23.09	-23.8	-25.0	19.0	0.00e+00	0	44	0	2305818624	7	4145
2026-01-15 13:55:23.31	299.08	23.02	-23.8	-25.1	19.0	0.00e+00	0	44	0	2312110080	7	4176
2026-01-15 13:55:24.31	299.32	22.95	-24.1	-25.3	18.7	0.00e+00	0	44	0	2317352960	8	4105
2026-01-15 13:55:25.31	299.56	22.87	-24.1	-25.3	18.6	0.00e+00	0	44	0	2322595840	8	4118
2026-01-15 13:55:26.31	299.80	22.80	-24.3	-25.7	18.4	0.00e+00	0	43	0	2328887296	8	4214
2026-01-15 13:55:27.31	300.04	22.73	-24.2	-25.4	18.5	0.00e+00	0	44	0	2334130176	8	4156
2026-01-15 13:55:28.32	300.28	22.66	-24.2	-25.4	18.6	0.00e+00	0	44	0	2339373056	8	4144
2026-01-15 13:55:29.31	300.51	22.59	-24.2	-25.5	18.5	0.00e+00	0	44	0	2345664512	8	4160
2026-01-15 13:55:30.32	300.75	22.51	-24.1	-25.3	18.7	0.00e+00	0	43	0	2350907392	8	4103
2026-01-15 13:55:31.31	300.98	22.44	-24.2	-25.4	18.6	0.00e+00	0	43	0	2357198848	8	4134
2026-01-15 13:55:32.31	301.21	22.37	-24.2	-25.3	18.6	0.00e+00	0	43	0	2362441728	8	4123
2026-01-15 13:55:33.31	301.44	22.29	-24.2	-25.4	18.6	0.00e+00	0	44	0	2367684608	8	4130
2026-01-15 13:55:34.32	301.67	22.22	-24.1	-25.3	18.6	0.00e+00	0	44	0	2373976064	8	4117
2026-01-15 13:55:35.32	301.90	22.14	-24.1	-25.3	18.6	0.00e+00	0	43	0	2379218944	8	4112
2026-01-15 13:55:36.33	302.13	22.07	-24.3	-25.6	18.4	0.00e+00	0	43	0	2385510400	8	4193
2026-01-15 13:55:37.33	302.36	21.99	-24.3	-25.7	18.4	0.00e+00	0	43	0	2390753280	8	4207
2026-01-15 13:55:38.33	302.58	21.92	-24.3	-25.6	18.5	0.00e+00	0	44	0	2395996160	8	4182
2026-01-15 13:55:39.33	302.81	21.84	-24.2	-25.5	18.5	0.00e+00	0	44	0	2402287616	8	4159
2026-01-15 13:55:40.33	303.03	21.77	-24.3	-25.6	18.4	0.00e+00	0	44	0	2407530496	8	4200
2026-01-15 13:55:41.33	303.26	21.69	-24.2	-25.5	18.5	0.00e+00	0	44	0	2412773376	8	4156
2026-01-15 13:55:42.33	303.48	21.62	-24.3	-25.7	18.4	0.00e+00	0	44	0	2419064832	8	4203
2026-01-15 13:55:43.33	303.70	21.54	-24.3	-25.6	18.4	0.00e+00	0	43	0	2424307712	8	4191
2026-01-15 13:55:44.33	303.92	21.46	-24.1	-25.1	18.7	0.00e+00	0	44	0	2430599168	8	4069
2026-01-15 13:55:45.34	304.14	21.39	-24.0	-25.1	18.7	1.10e-06	0	44	0	2435842048	8	4057
2026-01-15 13:55:46.33	304.35	21.31	-24.1	-25.2	18.7	0.00e+00	0	43	0	2441084928	8	4083
2026-01-15 13:55:47.33	304.57	21.24	-24.3	-25.7	18.4	0.00e+00	0	43	0	2447376384	8	4224
2026-01-15 13:55:48.33	304.78	21.16	-24.2	-25.5	18.5	0.00e+00	0	44	0	2452619264	8	4168
2026-01-15 13:55:49.33	305.00	21.08	-24.4	-25.8	18.3	0.00e+00	0	44	0	2457862144	8	4240
2026-01-15 13:55:50.33	305.21	21.00	-24.4	-26.0	18.3	0.00e+00	0	43	0	2464153600	8	4282
2026-01-15 13:55:51.33	305.42	20.93	-24.4	-25.8	18.3	0.00e+00	0	44	0	2469396480	8	4235
2026-01-15 13:55:52.33	305.63	20.85	-24.4	-25.4	18.2	0.00e+00	0	44	0	2474639360	9	4035
2026-01-15 13:55:53.34	305.84	20.77	-24.5	-25.6	18.2	0.00e+00	0	43	0	2480930816	9	4083
2026-01-15 13:55:54.34	306.05	20.69	-24.5	-25.6	18.2	0.00e+00	0	43	0	2486173696	9	4080
2026-01-15 13:55:55.35	306.26	20.62	-24.7	-25.9	18.0	0.00e+00	0	43	0	2492465152	9	4156
2026-01-15 13:55:56.34	306.47	20.54	-24.6	-25.8	18.1	0.00e+00	0	44	0	2497708032	9	4124
2026-01-15 13:55:57.34	306.67	20.46	-24.7	-26.1	18.0	0.00e+00	0	44	0	2502950912	9	4197
2026-01-15 13:55:58.35	306.88	20.38	-24.8	-26.1	17.9	0.00e+00	0	43	0	2509242368	9	4214
2026-01-15 13:55:59.35	307.08	20.30	-24.7	-26.1	17.9	0.00e+00	0	44	0	2514485248	9	4194
2026-01-15 13:56:00.36	307.29	20.22	-24.8	-26.3	17.8	0.00e+00	0	43	0	2519728128	9	4256
2026-01-15 13:56:01.35	307.49	20.15	-24.9	-26.4	17.7	0.00e+00	0	44	0	2526019584	9	4282
2026-01-15 13:56:02.36	307.69	20.07	-25.1	-26.4	17.5	0.00e+00	0	44	0	2531262464	10	4169
2026-01-15 13:56:03.36	307.89	19.99	-25.2	-26.5	17.4	0.00e+00	0	43	0	2536505344	10	4215
2026-01-15 13:56:04.36	308.09	19.91	-25.0	-26.1	17.6	0.00e+00	0	44	0	2542796800	10	4107
2026-01-15 13:56:05.36	308.29	19.83	-24.9	-25.9	17.7	0.00e+00	0	44	0	2548039680	10	4051
2026-01-15 13:56:06.36	308.48	19.75	-24.8	-25.8	17.8	0.00e+00	0	44	0	2554331136	10	4019
2026-01-15 13:56:07.36	308.68	19.67	-25.0	-26.0	17.7	0.00e+00	0	43	0	2559574016	10	4071
2026-01-15 13:56:08.37	308.88	19.59	-24.9	-26.0	17.7	0.00e+00	0	43	0	2564816896	10	4062
2026-01-15 13:56:09.37	309.07	19.51	-24.7	-25.6	17.9	0.00e+00	0	43	0	2571108352	10	3960
2026-01-15 13:56:10.37	309.26	19.43	-24.7	-25.5	17.9	0.00e+00	0	44	0	2576351232	10	3948
2026-01-15 13:56:11.37	309.45	19.35	-24.8	-25.6	17.9	0.00e+00	0	43	0	2582642688	10	3962
2026-01-15 13:56:12.37	309.64	19.28	-24.8	-25.6	17.9	0.00e+00	0	44	0	2587885568	10	3972
2026-01-15 13:56:13.37	309.83	19.20	-24.8	-25.8	17.8	0.00e+00	0	44	0	2593128448	10	4006
2026-01-15 13:56:14.37	310.02	19.12	-25.0	-26.1	17.6	0.00e+00	0	44	0	2598371328	10	4090
2026-01-15 13:56:15.37	310.21	19.04	-25.1	-26.3	17.5	0.00e+00	0	44	0	2604662784	10	4156
2026-01-15 13:56:16.36	310.40	18.96	-25.3	-26.7	17.3	0.00e+00	0	44	0	2609905664	10	4259
2026-01-15 13:56:17.36	310.58	18.88	-25.7	-27.1	16.8	0.00e+00	0	44	0	2616197120	11	4232
2026-01-15 13:56:18.37	310.77	18.80	-25.2	-26.1	17.4	0.00e+00	0	44	0	2621440000	11	3978
2026-01-15 13:56:19.37	310.95	18.72	-25.1	-26.0	17.4	0.00e+00	0	44	0	2627731456	11	3949
2026-01-15 13:56:20.38	311.14	18.64	-25.1	-25.8	17.5	0.00e+00	0	44	0	2632974336	11	3923
2026-01-15 13:56:21.38	311.32	18.56	-25.1	-25.9	17.4	0.00e+00	0	44	0	2638217216	11	3930
2026-01-15 13:56:22.38	311.50	18.48	-25.1	-25.7	17.5	0.00e+00	0	44	0	2644508672	11	3892
2026-01-15 13:56:23.38	311.68	18.40	-25.0	-25.7	17.5	0.00e+00	0	44	0	2649751552	11	3894
2026-01-15 13:56:24.37	311.86	18.32	-25.2	-26.0	17.4	0.00e+00	0	44	0	2654994432	11	3958
2026-01-15 13:56:25.37	312.04	18.24	-25.2	-26.1	17.3	0.00e+00	0	44	0	2660237312	11	3994
2026-01-15 13:56:26.37	312.22	18.16	-25.3	-26.4	17.2	0.00e+00	0	44	0	2666528768	11	4055
2026-01-15 13:56:27.38	312.39	18.08	-25.5	-26.7	17.0	0.00e+00	0	43	0	2671771648	11	4139
2026-01-15 13:56:28.38	312.57	18.00	-25.4	-26.4	17.1	0.00e+00	0	44	0	2678063104	11	4055
2026-01-15 13:56:29.38	312.74	17.92	-25.4	-26.5	17.1	0.00e+00	0	43	0	2683305984	11	4089
2026-01-15 13:56:30.38	312.92	17.84	-25.4	-26.6	17.1	0.00e+00	0	44	0	2689597440	11	4095
2026-01-15 13:56:31.39	313.09	17.76	-25.3	-26.3	17.2	0.00e+00	0	44	0	2694840320	11	4032
2026-01-15 13:56:32.39	313.27	17.68	-25.4	-26.4	17.1	0.00e+00	0	43	0	2700083200	11	4059
2026-01-15 13:56:33.39	313.44	17.60	-25.5	-26.7	17.0	0.00e+00	0	44	0	2706374656	11	4129
2026-01-15 13:56:34.39	313.61	17.52	-25.5	-26.7	17.0	0.00e+00	0	43	0	2711617536	11	4136
2026-01-15 13:56:35.40	313.78	17.44	-25.6	-27.0	16.8	0.00e+00	0	44	0	2716860416	11	4208
2026-01-15 13:56:36.40	313.95	17.36	-25.5	-26.6	17.0	0.00e+00	0	43	0	2723151872	11	4122
2026-01-15 13:56:37.40	314.11	17.28	-25.5	-26.7	16.9	0.00e+00	0	44	0	2728394752	11	4147
2026-01-15 13:56:38.40	314.28	17.20	-25.5	-26.7	16.9	0.00e+00	0	44	0	2733637632	11	4145
2026-01-15 13:56:39.40	314.45	17.12	-25.4	-26.6	17.0	0.00e+00	0	44	0	2739929088	11	4114
2026-01-15 13:56:40.40	314.61	17.04	-25.5	-26.8	16.9	0.00e+00	0	44	0	2745171968	11	4174
2026-01-15 13:56:41.41	314.78	16.96	-25.7	-27.1	16.7	0.00e+00	0	44	0	2751463424	11	4242
2026-01-15 13:56:42.41	314.94	16.88	-25.6	-26.9	16.8	0.00e+00	0	43	0	2756706304	11	4193
2026-01-15 13:56:43.41	315.11	16.81	-25.5	-26.8	16.9	0.00e+00	0	43	0	2761949184	11	4157
2026-01-15 13:56:44.41	315.27	16.73	-25.6	-27.0	16.8	0.00e+00	0	44	0	2768240640	11	4217
2026-01-15 13:56:45.41	315.43	16.65	-25.5	-26.7	16.9	0.00e+00	0	43	0	2773483520	11	4144
2026-01-15 13:56:46.40	315.59	16.57	-25.6	-26.9	16.8	0.00e+00	0	44	0	2778726400	11	4203
2026-01-15 13:56:47.41	315.75	16.49	-25.5	-26.7	16.9	0.00e+00	0	44	0	2785017856	11	4149
2026-01-15 13:56:48.41	315.91	16.41	-25.5	-26.7	16.9	0.00e+00	0	44	0	2790260736	11	4129
2026-01-15 13:56:49.41	316.06	16.33	-25.4	-26.6	16.9	0.00e+00	0	44	0	2795503616	11	4102
2026-01-15 13:56:50.42	316.22	16.25	-25.4	-26.5	17.0	0.00e+00	0	44	0	2801795072	11	4086
2026-01-15 13:56:51.40	316.38	16.17	-25.5	-26.7	16.9	0.00e+00	0	44	0	2807037952	11	4131
2026-01-15 13:56:52.40	316.53	16.09	-25.5	-26.7	16.8	0.00e+00	0	44	0	2813329408	11	4150
2026-01-15 13:56:53.41	316.69	16.01	-25.5	-26.7	16.9	0.00e+00	0	44	0	2818572288	11	4130
2026-01-15 13:56:54.41	316.84	15.94	-25.6	-27.0	16.7	0.00e+00	0	43	0	2823815168	11	4211
2026-01-15 13:56:55.41	317.00	15.86	-25.7	-27.2	16.6	0.00e+00	0	44	0	2830106624	11	4260
2026-01-15 13:56:56.42	317.15	15.78	-25.7	-27.1	16.7	0.00e+00	0	44	0	2835349504	11	4238
2026-01-15 13:56:57.43	317.30	15.70	-25.7	-27.3	16.6	0.00e+00	0	44	0	2841640960	11	4290
2026-01-15 13:56:58.42	317.45	15.62	-25.8	-27.3	16.6	0.00e+00	0	44	0	2846883840	11	4297
2026-01-15 13:56:59.43	317.60	15.54	-25.8	-27.3	16.5	0.00e+00	0	44	0	2852126720	11	4308
2026-01-15 13:57:00.42	317.75	15.46	-25.8	-27.5	16.5	0.00e+00	0	44	0	2857369600	11	4343
2026-01-15 13:57:01.41	317.90	15.39	-25.9	-27.5	16.4	0.00e+00	0	44	0	2863661056	11	4364
2026-01-15 13:57:02.42	318.05	15.31	-25.8	-26.9	16.4	0.00e+00	0	44	0	2868903936	12	4090
2026-01-15 13:57:03.42	318.19	15.23	-25.8	-26.8	16.5	0.00e+00	0	44	0	2875195392	12	4065
2026-01-15 13:57:04.42	318.34	15.15	-25.7	-26.8	16.5	0.00e+00	0	44	0	2880438272	12	4049
2026-01-15 13:57:05.42	318.49	15.07	-25.7	-26.7	16.5	0.00e+00	0	44	0	2886729728	12	4039
2026-01-15 13:57:06.42	318.63	15.00	-25.8	-26.8	16.5	0.00e+00	0	44	0	2891972608	12	4060
2026-01-15 13:57:07.43	318.78	14.92	-25.8	-26.9	16.4	0.00e+00	0	44	0	2897215488	12	4088
2026-01-15 13:57:08.42	318.92	14.84	-26.1	-27.5	16.1	0.00e+00	0	44	0	2903506944	12	4236
2026-01-15 13:57:09.42	319.06	14.76	-26.0	-27.4	16.1	0.00e+00	0	44	0	2908749824	12	4221
2026-01-15 13:57:10.43	319.20	14.68	-26.1	-27.6	16.0	0.00e+00	0	44	0	2913992704	12	4281
2026-01-15 13:57:11.42	319.34	14.61	-25.9	-27.2	16.3	0.00e+00	0	44	0	2919235584	12	4159
2026-01-15 13:57:12.42	319.48	14.53	-26.0	-27.4	16.1	0.00e+00	0	44	0	2925527040	12	4208
2026-01-15 13:57:13.42	319.62	14.45	-26.1	-27.5	16.1	0.00e+00	0	44	0	2930769920	12	4234
2026-01-15 13:57:14.42	319.76	14.38	-26.1	-27.5	16.0	0.00e+00	0	44	0	2937061376	12	4253
2026-01-15 13:57:15.42	319.90	14.30	-26.0	-27.4	16.1	0.00e+00	0	44	0	2942304256	12	4208
2026-01-15 13:57:16.42	320.04	14.22	-26.2	-27.7	15.9	0.00e+00	0	44	0	2947547136	12	4310
2026-01-15 13:57:17.42	320.17	14.15	-26.1	-27.5	16.0	0.00e+00	0	44	0	2953838592	12	4238
2026-01-15 13:57:18.43	320.31	14.07	-26.2	-27.8	15.9	0.00e+00	0	44	0	2959081472	12	4314
2026-01-15 13:57:19.42	320.45	13.99	-26.1	-27.7	15.9	0.00e+00	0	43	0	2965372928	12	4284
2026-01-15 13:57:20.43	320.58	13.91	-26.2	-27.9	15.8	0.00e+00	0	44	0	2970615808	12	4346
2026-01-15 13:57:21.43	320.72	13.84	-26.1	-27.6	15.9	0.00e+00	0	44	0	2975858688	12	4259
2026-01-15 13:57:22.44	320.85	13.76	-26.2	-27.8	15.9	0.00e+00	0	44	0	2982150144	12	4315
2026-01-15 13:57:23.44	320.98	13.68	-26.1	-27.5	16.0	0.00e+00	0	44	0	2987393024	12	4250
2026-01-15 13:57:24.44	321.12	13.61	-26.2	-27.7	15.9	0.00e+00	0	44	0	2992635904	12	4281
2026-01-15 13:57:25.45	321.25	13.53	-26.1	-27.4	16.0	0.00e+00	0	44	0	2998927360	12	4225
2026-01-15 13:57:26.45	321.38	13.46	-26.1	-27.5	15.9	1.10e-06	0	44	0	3004170240	12	4254
2026-01-15 13:57:27.45	321.51	13.38	-26.2	-27.7	15.8	1.10e-06	0	44	0	3010461696	12	4290
2026-01-15 13:57:28.46	321.64	13.30	-26.2	-27.8	15.8	0.00e+00	0	44	0	3015704576	12	4319
2026-01-15 13:57:29.46	321.77	13.23	-26.1	-27.6	15.9	0.00e+00	0	43	0	3020947456	12	4260
2026-01-15 13:57:30.46	321.90	13.15	-26.3	-28.1	15.6	0.00e+00	0	44	0	3027238912	12	4408
2026-01-15 13:57:31.46	322.03	13.08	-26.3	-28.0	15.7	0.00e+00	0	44	0	3032481792	12	4383
2026-01-15 13:57:32.46	322.15	13.00	-26.2	-27.7	15.8	0.00e+00	0	44	0	3037724672	12	4312
2026-01-15 13:57:33.47	322.28	12.93	-26.3	-28.0	15.7	0.00e+00	0	43	0	3044016128	12	4375
2026-01-15 13:57:34.47	322.41	12.85	-26.4	-28.2	15.6	0.00e+00	0	44	0	3049259008	12	4449
2026-01-15 13:57:35.47	322.53	12.78	-26.4	-27.7	15.6	0.00e+00	0	44	0	3055550464	13	4176
2026-01-15 13:57:36.47	322.66	12.70	-26.3	-27.5	15.6	0.00e+00	0	44	0	3060793344	13	4149
2026-01-15 13:57:37.48	322.78	12.63	-26.4	-27.6	15.6	0.00e+00	0	44	0	3066036224	13	4173
2026-01-15 13:57:38.48	322.91	12.55	-26.3	-27.5	15.6	0.00e+00	0	44	0	3072327680	13	4141
2026-01-15 13:57:39.48	323.03	12.48	-26.4	-27.8	15.5	0.00e+00	0	43	0	3077570560	13	4201
2026-01-15 13:57:40.47	323.15	12.40	-26.3	-27.6	15.6	0.00e+00	0	44	0	3083862016	13	4161
2026-01-15 13:57:41.48	323.27	12.33	-26.2	-27.2	15.8	0.00e+00	0	44	0	3089104896	13	4062
2026-01-15 13:57:42.48	323.39	12.25	-26.1	-27.0	15.9	0.00e+00	0	44	0	3094347776	13	4019
2026-01-15 13:57:43.49	323.52	12.18	-26.4	-27.7	15.5	0.00e+00	0	43	0	3100639232	13	4196
2026-01-15 13:57:44.48	323.63	12.11	-26.2	-27.2	15.8	0.00e+00	0	44	0	3105882112	13	4066
2026-01-15 13:57:45.48	323.75	12.03	-26.2	-27.3	15.7	1.10e-06	0	44	0	3111124992	13	4075
2026-01-15 13:57:46.48	323.87	11.96	-26.2	-27.3	15.7	1.10e-06	0	44	0	3117416448	13	4089
2026-01-15 13:57:47.48	323.99	11.88	-26.2	-27.2	15.7	0.00e+00	0	43	0	3122659328	13	4070
2026-01-15 13:57:48.49	324.11	11.81	-26.2	-27.3	15.7	0.00e+00	0	44	0	3127902208	13	4091
2026-01-15 13:57:49.49	324.23	11.74	-26.2	-27.4	15.7	0.00e+00	0	44	0	3134193664	13	4104
2026-01-15 13:57:50.49	324.34	11.66	-26.3	-27.6	15.6	0.00e+00	0	43	0	3139436544	13	4151
2026-01-15 13:57:51.50	324.46	11.59	-26.3	-27.6	15.6	0.00e+00	0	44	0	3145728000	13	4152
2026-01-15 13:57:52.50	324.58	11.52	-26.2	-27.3	15.7	0.00e+00	0	44	0	3150970880	13	4094
2026-01-15 13:57:53.49	324.69	11.44	-26.2	-27.4	15.7	0.00e+00	0	43	0	3156213760	13	4106
2026-01-15 13:57:54.50	324.80	11.37	-26.5	-28.0	15.3	0.00e+00	0	44	0	3162505216	13	4267
2026-01-15 13:57:55.50	324.92	11.30	-26.5	-27.9	15.4	0.00e+00	0	43	0	3167748096	13	4245
2026-01-15 13:57:56.50	325.03	11.23	-26.3	-27.5	15.6	0.00e+00	0	44	0	3172990976	13	4135
2026-01-15 13:57:57.49	325.14	11.15	-26.4	-27.8	15.4	0.00e+00	0	44	0	3179282432	13	4218
2026-01-15 13:57:58.49	325.25	11.08	-26.5	-27.9	15.3	0.00e+00	0	43	0	3184525312	13	4259
2026-01-15 13:57:59.50	325.37	11.01	-26.5	-27.9	15.3	0.00e+00	0	43	0	3189768192	13	4244
2026-01-15 13:58:00.50	325.48	10.94	-26.5	-28.0	15.3	0.00e+00	0	44	0	3196059648	13	4264
2026-01-15 13:58:01.50	325.59	10.86	-26.6	-28.1	15.2	0.00e+00	0	44	0	3201302528	13	4304
2026-01-15 13:58:02.50	325.70	10.79	-26.6	-28.3	15.1	0.00e+00	0	43	0	3207593984	13	4350
2026-01-15 13:58:03.51	325.81	10.72	-26.9	-28.8	14.8	0.00e+00	0	43	0	3212836864	13	4498
2026-01-15 13:58:04.51	325.92	10.65	-26.7	-28.4	15.0	0.00e+00	0	44	0	3218079744	13	4389
2026-01-15 13:58:05.51	326.03	10.58	-26.8	-28.7	14.9	0.00e+00	0	44	0	3224371200	13	4487
2026-01-15 13:58:06.51	326.13	10.51	-26.9	-28.9	14.7	0.00e+00	0	44	0	3229614080	13	4521
2026-01-15 13:58:07.52	326.24	10.43	-26.8	-28.7	14.9	0.00e+00	0	44	0	3234856960	13	4467
2026-01-15 13:58:08.53	326.35	10.36	-26.8	-28.6	14.9	0.00e+00	0	44	0	3241148416	13	4438
2026-01-15 13:58:09.53	326.46	10.29	-26.9	-28.8	14.8	0.00e+00	0	44	0	3246391296	13	4495
2026-01-15 13:58:10.54	326.56	10.22	-26.7	-28.3	15.0	0.00e+00	0	44	0	3252682752	13	4367
2026-01-15 13:58:11.54	326.67	10.15	-26.9	-29.0	14.7	0.00e+00	0	44	0	3257925632	13	4567
2026-01-15 13:58:12.54	326.78	10.08	-27.1	-28.9	14.4	0.00e+00	0	44	0	3264217088	14	4412
2026-01-15 13:58:13.54	326.88	10.01	-27.1	-28.9	14.5	0.00e+00	0	44	0	3269459968	14	4406
2026-01-15 13:58:14.55	326.98	9.94	-27.2	-29.0	14.4	0.00e+00	0	44	0	3274702848	14	4454
2026-01-15 13:58:15.55	327.09	9.87	-27.2	-29.2	14.3	0.00e+00	0	43	0	3280994304	14	4493
2026-01-15 13:58:16.55	327.19	9.80	-27.3	-28.9	14.2	3.40e-06	0	43	0	3286237184	15	4299
2026-01-15 13:58:17.55	327.29	9.73	-27.2	-28.6	14.3	1.10e-06	0	44	0	3291480064	15	4224
2026-01-15 13:58:18.55	327.40	9.66	-27.2	-28.5	14.4	0.00e+00	0	43	0	3297771520	15	4198
2026-01-15 13:58:19.55	327.50	9.59	-27.1	-28.4	14.4	1.10e-06	0	44	0	3303014400	15	4181
2026-01-15 13:58:20.56	327.60	9.52	-27.3	-28.8	14.2	0.00e+00	0	44	0	3308257280	15	4272
2026-01-15 13:58:21.56	327.70	9.45	-27.1	-28.3	14.4	0.00e+00	0	44	0	3314548736	15	4154
2026-01-15 13:58:22.57	327.80	9.38	-27.1	-28.3	14.5	1.10e-06	0	44	0	3319791616	15	4155
2026-01-15 13:58:23.56	327.90	9.31	-27.5	-29.2	13.9	4.50e-06	0	44	0	3326083072	15	4387
2026-01-15 13:58:24.57	328.00	9.24	-27.4	-29.1	14.0	0.00e+00	0	44	0	3331325952	15	4353
2026-01-15 13:58:25.57	328.10	9.17	-27.4	-29.1	14.0	1.10e-06	0	44	0	3336568832	15	4356
2026-01-15 13:58:26.56	328.20	9.10	-27.0	-28.1	14.5	0.00e+00	0	44	0	3342860288	15	4102
2026-01-15 13:58:27.56	328.30	9.03	-27.3	-28.9	14.1	1.10e-06	0	44	0	3348103168	15	4299
2026-01-15 13:58:28.56	328.39	8.96	-27.3	-28.8	14.1	0.00e+00	0	44	0	3353346048	15	4276
2026-01-15 13:58:29.56	328.49	8.90	-27.3	-28.8	14.1	3.40e-06	0	43	0	3359637504	15	4284
2026-01-15 13:58:30.56	328.59	8.83	-27.3	-28.8	14.1	0.00e+00	0	44	0	3364880384	15	4275
2026-01-15 13:58:31.55	328.68	8.76	-27.3	-28.9	14.1	1.10e-06	0	44	0	3370123264	15	4300
2026-01-15 13:58:32.56	328.78	8.69	-27.5	-29.2	13.9	0.00e+00	0	44	0	3376414720	15	4403
2026-01-15 13:58:33.56	328.88	8.62	-27.3	-28.8	14.1	1.10e-06	0	44	0	3381657600	15	4288
2026-01-15 13:58:34.56	328.97	8.56	-27.3	-28.8	14.1	0.00e+00	0	44	0	3387949056	15	4287
2026-01-15 13:58:35.56	329.06	8.49	-27.4	-29.1	13.9	3.40e-06	0	44	0	3393191936	15	4376
2026-01-15 13:58:36.55	329.16	8.42	-27.4	-29.1	14.0	1.10e-06	0	44	0	3398434816	15	4362
2026-01-15 13:58:37.56	329.25	8.35	-27.5	-29.3	13.8	2.20e-06	0	44	0	3404726272	15	4421
2026-01-15 13:58:38.56	329.35	8.28	-27.9	-30.1	13.3	3.40e-06	0	44	0	3409969152	15	4676
2026-01-15 13:58:39.56	329.44	8.22	-27.9	-30.1	13.3	8.00e-06	0	43	0	3415212032	15	4684
2026-01-15 13:58:40.56	329.53	8.15	-27.7	-29.8	13.5	1.10e-06	0	43	0	3421503488	15	4581
2026-01-15 13:58:41.55	329.62	8.08	-27.9	-30.3	13.1	3.40e-06	0	44	0	3426746368	15	4751
2026-01-15 13:58:42.55	329.71	8.02	-27.8	-30.0	13.4	5.70e-06	0	43	0	3431989248	15	4642
2026-01-15 13:58:43.56	329.81	7.95	-27.9	-29.8	13.4	1.60e-05	0	44	0	3438280704	16	4455
2026-01-15 13:58:44.56	329.90	7.88	-28.0	-29.9	13.3	8.00e-06	0	44	0	3443523584	16	4483
2026-01-15 13:58:45.56	329.99	7.82	-28.2	-30.4	12.9	3.54e-05	0	44	0	3449815040	16	4651
2026-01-15 13:58:46.55	330.08	7.75	-28.0	-30.1	13.2	1.94e-05	0	43	0	3455057920	16	4538
2026-01-15 13:58:47.56	330.17	7.68	-28.1	-30.3	13.0	4.11e-05	0	44	0	3460300800	16	4609
2026-01-15 13:58:48.56	330.26	7.62	-27.8	-29.5	13.5	1.37e-05	0	43	0	3466592256	16	4382
2026-01-15 13:58:49.55	330.35	7.55	-27.9	-29.7	13.3	8.00e-06	0	44	0	3471835136	16	4437
2026-01-15 13:58:50.55	330.43	7.49	-27.9	-29.6	13.4	1.14e-05	0	44	0	3477078016	16	4416
2026-01-15 13:58:51.55	330.52	7.42	-27.8	-29.6	13.4	8.00e-06	0	44	0	3483369472	16	4406
2026-01-15 13:58:52.55	330.61	7.35	-27.8	-29.5	13.5	5.70e-06	0	44	0	3488612352	16	4369
2026-01-15 13:58:53.55	330.70	7.29	-27.8	-29.6	13.4	6.80e-06	0	44	0	3493855232	16	4387
2026-01-15 13:58:54.56	330.79	7.22	-27.8	-29.5	13.5	1.71e-05	0	44	0	3500146688	16	4362
2026-01-15 13:58:55.57	330.87	7.16	-27.9	-29.8	13.3	1.02e-05	0	44	0	3505389568	16	4469
2026-01-15 13:58:56.57	330.96	7.09	-33.2	-43.6	3.8	1.68e-04	0	44	104	3510632448	26	12048
2026-01-15 13:58:57.58	331.05	7.02	-33.5	-44.5	3.8	8.45e-01	0	44	104	3510632448	27	12826
2026-01-15 13:58:58.58	331.13	6.96	-33.8	-45.1	3.8	8.46e-01	0	44	104	3510632448	27	13263

#Closed at: 2026-01-15 13:58:59
#Recorded file [3510 MB]: D:/data/31010_260115_164823.dat