passes_logs/2026/01/15/R2M6_AANII_01/R2M6_AANII_01__20260115_233641_NOAA_20_JPSS-1_rec.log

#Pass ID: 20260115_233641_NOAA 20 (JPSS-1)
#Satellite: NOAA 20 (JPSS-1)
#Configuration: NOAA 20
#almurnet v.1.7.20240730
#Start time: 2026-01-15 23:36:40

#Version: 2.2.20231116
#Station: R2M6_AANII_01
#Location: 30.233357 lon 59.946436 lat
#TLE: 1 43013U 17073A   26015.47098083  .00000029  00000+0  34851-4 0  9997
#TLE: 2 43013  98.7636 316.4053 0001479  38.6686 321.4595 14.19536048422808

#Time	Az	El	Level	Level2	SNR	BER	BlckErr	Temp	State	Recorded	gain1	gain2
2026-01-15 23:36:40.72	22.46	6.97	-31.4	-37.9	5.0	1.27e+00	0	41	0	0	22	7609
2026-01-15 23:36:41.71	22.50	7.04	-31.5	-38.1	4.9	1.29e+00	0	41	104	0	23	7677
2026-01-15 23:36:42.72	22.55	7.12	-31.8	-39.5	6.3	2.07e-01	0	41	0	0	23	8702
2026-01-15 23:36:43.71	22.59	7.19	-31.8	-39.1	6.6	1.95e-01	0	41	0	1048576	23	8360
2026-01-15 23:36:44.72	22.64	7.27	-31.6	-38.3	7.2	1.79e-01	0	41	0	3145728	23	7768
2026-01-15 23:36:45.71	22.68	7.34	-32.0	-40.4	5.5	2.59e-01	0	41	0	5242880	24	9444
2026-01-15 23:36:46.71	22.73	7.42	-31.9	-39.8	6.2	3.50e-01	0	41	0	7340032	23	8936
2026-01-15 23:36:47.72	22.77	7.49	-31.8	-39.0	6.8	2.04e-01	0	41	0	9437184	23	8298
2026-01-15 23:36:48.72	22.82	7.57	-31.6	-38.2	7.4	1.57e-01	0	41	0	10485760	23	7703
2026-01-15 23:36:49.72	22.87	7.64	-31.4	-37.1	8.3	8.00e-02	0	41	0	12582912	23	6921
2026-01-15 23:36:50.73	22.91	7.72	-31.4	-37.3	8.1	7.67e-02	0	41	0	14680064	23	7045
2026-01-15 23:36:51.72	22.96	7.79	-31.4	-37.8	8.2	4.50e-02	0	41	0	16777216	22	7452
2026-01-15 23:36:52.72	23.01	7.87	-31.4	-37.8	8.2	4.98e-02	0	41	0	17825792	22	7466
2026-01-15 23:36:53.72	23.05	7.95	-31.5	-37.5	8.0	7.58e-02	0	41	0	19922944	23	7216
2026-01-15 23:36:54.72	23.10	8.02	-31.3	-37.1	8.7	3.51e-02	0	41	0	22020096	22	7007
2026-01-15 23:36:55.72	23.15	8.10	-31.1	-36.4	9.2	3.03e-02	0	41	0	24117248	22	6619
2026-01-15 23:36:56.72	23.20	8.18	-31.0	-36.0	9.5	1.49e-02	0	42	0	26214400	22	6407
2026-01-15 23:36:57.73	23.25	8.26	-30.8	-35.8	10.1	7.58e-03	0	42	0	27262976	21	6386
2026-01-15 23:36:58.73	23.29	8.33	-30.8	-35.7	10.1	9.28e-03	0	42	0	29360128	21	6351
2026-01-15 23:36:59.73	23.34	8.41	-30.7	-35.2	10.6	5.95e-03	0	42	0	31457280	21	6075
2026-01-15 23:37:00.73	23.39	8.49	-30.9	-36.0	9.9	7.01e-03	0	42	0	33554432	21	6505
2026-01-15 23:37:01.73	23.44	8.57	-30.8	-35.8	10.1	6.94e-03	0	42	0	35651584	21	6366
2026-01-15 23:37:02.73	23.49	8.64	-30.6	-35.1	10.7	3.81e-03	0	42	0	36700160	21	6002
2026-01-15 23:37:03.73	23.54	8.72	-30.4	-34.2	11.3	2.44e-03	0	42	0	38797312	21	5614
2026-01-15 23:37:04.73	23.59	8.80	-30.4	-34.4	11.3	1.19e-03	0	42	0	40894464	21	5665
2026-01-15 23:37:05.73	23.64	8.88	-30.3	-34.5	11.5	9.70e-04	0	42	0	42991616	20	5857
2026-01-15 23:37:06.73	23.69	8.96	-30.5	-34.7	11.1	1.02e-03	0	42	0	45088768	21	5824
2026-01-15 23:37:07.74	23.74	9.04	-30.4	-34.4	11.2	1.43e-03	0	42	0	46137344	21	5693
2026-01-15 23:37:08.74	23.79	9.12	-30.4	-34.8	11.3	1.20e-03	0	42	0	48234496	20	5967
2026-01-15 23:37:09.74	23.84	9.20	-30.5	-34.6	11.1	1.26e-03	0	42	0	50331648	21	5781
2026-01-15 23:37:10.75	23.89	9.28	-30.8	-35.5	10.4	2.76e-03	0	42	0	52428800	21	6225
2026-01-15 23:37:11.75	23.94	9.36	-30.2	-34.8	10.6	3.94e-03	0	42	0	53477376	21	6130
2026-01-15 23:37:12.75	24.00	9.44	-30.7	-35.2	10.7	3.14e-03	0	42	0	55574528	21	6043
2026-01-15 23:37:13.75	24.05	9.52	-30.7	-35.3	10.6	2.86e-03	0	42	0	57671680	21	6096
2026-01-15 23:37:14.76	24.10	9.61	-31.0	-36.2	9.8	7.00e-03	0	42	0	59768832	21	6572
2026-01-15 23:37:15.77	24.15	9.69	-30.0	-34.6	10.0	1.06e-02	0	42	0	61865984	22	6118
2026-01-15 23:37:16.76	24.21	9.77	-30.8	-35.5	10.3	5.65e-03	0	42	0	62914560	21	6218
2026-01-15 23:37:17.76	24.26	9.85	-30.8	-35.4	10.5	3.18e-03	0	42	0	65011712	21	6172
2026-01-15 23:37:18.75	24.31	9.93	-30.9	-36.1	9.9	5.59e-03	0	42	0	67108864	21	6485
2026-01-15 23:37:19.76	24.37	10.01	-31.1	-36.1	9.6	8.74e-03	0	42	0	69206016	22	6399
2026-01-15 23:37:20.76	24.42	10.10	-31.3	-36.9	9.1	1.40e-02	0	42	0	71303168	22	6864
2026-01-15 23:37:21.76	24.47	10.18	-31.1	-36.2	9.6	1.69e-02	0	42	0	72351744	22	6434
2026-01-15 23:37:22.76	24.53	10.26	-30.9	-36.0	10.1	7.80e-03	0	42	0	74448896	21	6461
2026-01-15 23:37:23.76	24.58	10.35	-30.9	-36.0	10.2	6.55e-03	0	42	0	76546048	21	6438
2026-01-15 23:37:24.77	24.64	10.43	-31.2	-36.4	9.5	7.54e-03	0	42	0	78643200	22	6556
2026-01-15 23:37:25.77	24.69	10.52	-31.2	-36.2	9.7	1.46e-02	0	42	0	79691776	22	6448
2026-01-15 23:37:26.77	24.75	10.60	-31.2	-36.3	9.6	1.27e-02	0	42	0	81788928	22	6494
2026-01-15 23:37:27.77	24.81	10.68	-31.1	-35.9	9.8	9.94e-03	0	42	0	83886080	22	6301
2026-01-15 23:37:28.78	24.86	10.77	-31.1	-36.1	9.7	1.29e-02	0	42	0	85983232	22	6378
2026-01-15 23:37:29.78	24.92	10.85	-31.2	-36.6	9.4	1.29e-02	0	42	0	88080384	22	6635
2026-01-15 23:37:30.79	24.98	10.94	-31.4	-37.0	9.1	2.19e-02	0	42	0	90177536	22	6897
2026-01-15 23:37:31.79	25.03	11.03	-31.1	-35.8	10.0	1.47e-02	0	42	0	91226112	22	6232
2026-01-15 23:37:32.79	25.09	11.11	-30.9	-35.6	10.5	5.01e-03	0	42	0	93323264	21	6241
2026-01-15 23:37:33.79	25.15	11.20	-30.7	-35.1	10.9	2.85e-03	0	42	0	95420416	21	5976
2026-01-15 23:37:34.80	25.21	11.29	-30.5	-34.5	11.3	2.13e-03	0	42	0	97517568	21	5676
2026-01-15 23:37:35.80	25.27	11.37	-30.3	-34.5	11.7	1.92e-03	0	42	0	98566144	20	5787
2026-01-15 23:37:36.80	25.32	11.46	-30.4	-34.6	11.6	5.80e-04	0	42	0	100663296	20	5849
2026-01-15 23:37:37.80	25.38	11.55	-30.3	-34.3	11.8	6.22e-04	0	42	0	102760448	20	5722
2026-01-15 23:37:38.80	25.44	11.63	-30.2	-34.0	12.1	1.72e-03	0	42	0	104857600	20	5557
2026-01-15 23:37:39.80	25.50	11.72	-29.9	-33.2	12.6	3.79e-04	0	43	0	106954752	20	5230
2026-01-15 23:37:40.79	25.56	11.81	-29.8	-33.4	12.9	5.79e-05	0	43	0	108003328	19	5422
2026-01-15 23:37:41.80	25.62	11.90	-29.9	-33.6	12.8	5.79e-05	0	43	0	110100480	19	5484
2026-01-15 23:37:42.80	25.68	11.99	-29.9	-33.6	12.8	4.97e-04	0	43	0	112197632	19	5510
2026-01-15 23:37:43.80	25.74	12.08	-29.9	-33.5	12.9	7.16e-04	0	43	0	114294784	19	5455
2026-01-15 23:37:44.80	25.81	12.17	-29.9	-33.1	12.7	5.79e-05	0	43	0	116391936	20	5211
2026-01-15 23:37:45.81	25.87	12.26	-30.1	-33.6	12.4	5.70e-04	0	43	0	117440512	20	5407
2026-01-15 23:37:46.81	25.93	12.35	-30.1	-33.5	12.5	8.95e-04	0	43	0	119537664	20	5374
2026-01-15 23:37:47.82	25.99	12.44	-30.2	-33.8	12.3	1.13e-04	0	42	0	121634816	20	5483
2026-01-15 23:37:48.80	26.05	12.53	-30.0	-33.5	12.5	6.86e-04	0	43	0	123731968	20	5346
2026-01-15 23:37:49.81	26.12	12.62	-29.9	-33.5	12.9	6.03e-04	0	43	0	124780544	19	5475
2026-01-15 23:37:50.81	26.18	12.71	-29.9	-33.7	12.8	3.05e-05	0	43	0	126877696	19	5518
2026-01-15 23:37:51.82	26.25	12.80	-30.0	-33.2	12.7	8.23e-05	0	43	0	128974848	20	5255
2026-01-15 23:37:52.81	26.31	12.89	-30.0	-33.3	12.7	6.35e-04	0	43	0	131072000	20	5279
2026-01-15 23:37:53.81	26.37	12.99	-29.9	-33.2	12.8	1.17e-04	0	42	0	133169152	20	5223
2026-01-15 23:37:54.81	26.44	13.08	-30.0	-33.6	12.9	4.73e-05	0	43	0	134217728	19	5503
2026-01-15 23:37:55.81	26.50	13.17	-30.0	-33.3	12.7	7.97e-04	0	43	0	136314880	20	5282
2026-01-15 23:37:56.80	26.57	13.26	-30.0	-33.7	12.9	3.81e-04	0	43	0	138412032	19	5519
2026-01-15 23:37:57.80	26.64	13.36	-29.9	-33.1	12.9	6.61e-04	0	43	0	140509184	20	5184
2026-01-15 23:37:58.80	26.70	13.45	-30.0	-33.2	12.8	5.03e-05	0	43	0	142606336	20	5231
2026-01-15 23:37:59.79	26.77	13.54	-29.9	-33.1	12.8	6.32e-04	0	43	0	143654912	20	5208
2026-01-15 23:38:00.79	26.84	13.64	-29.8	-33.1	13.2	8.17e-04	0	43	0	145752064	19	5287
2026-01-15 23:38:01.79	26.90	13.73	-29.8	-33.3	13.1	1.61e-03	0	43	0	147849216	19	5368
2026-01-15 23:38:02.79	26.97	13.83	-29.7	-32.9	13.4	7.99e-04	0	43	0	149946368	19	5210
2026-01-15 23:38:03.79	27.04	13.92	-29.5	-32.5	13.7	9.00e-04	0	43	0	152043520	19	5049
2026-01-15 23:38:04.79	27.11	14.02	-29.5	-32.7	13.8	1.29e-03	0	43	0	153092096	18	5261
2026-01-15 23:38:05.79	27.18	14.12	-29.4	-32.7	13.9	4.69e-04	0	43	0	155189248	18	5244
2026-01-15 23:38:06.79	27.25	14.21	-29.5	-32.4	13.7	6.68e-04	0	43	0	157286400	19	5037
2026-01-15 23:38:07.79	27.32	14.31	-29.6	-32.6	13.6	1.21e-03	0	43	0	159383552	19	5082
2026-01-15 23:38:08.79	27.39	14.41	-29.6	-32.6	13.6	4.89e-04	0	43	0	160432128	19	5096
2026-01-15 23:38:09.79	27.46	14.50	-29.6	-32.6	13.6	4.39e-04	0	43	0	162529280	19	5089
2026-01-15 23:38:10.79	27.53	14.60	-29.6	-32.7	13.6	9.63e-04	0	43	0	164626432	19	5118
2026-01-15 23:38:11.79	27.60	14.70	-29.6	-32.7	13.6	5.23e-04	0	43	0	166723584	19	5119
2026-01-15 23:38:12.79	27.68	14.80	-29.8	-33.2	13.3	9.90e-06	0	43	0	168820736	19	5312
2026-01-15 23:38:13.79	27.75	14.90	-29.8	-33.3	13.2	9.40e-04	0	43	0	169869312	19	5371
2026-01-15 23:38:14.79	27.82	15.00	-29.8	-33.3	13.2	3.91e-04	0	43	0	171966464	19	5362
2026-01-15 23:38:15.79	27.90	15.10	-29.9	-33.4	13.1	3.94e-04	0	43	0	174063616	19	5383
2026-01-15 23:38:16.78	27.97	15.20	-29.9	-33.5	13.0	4.45e-04	0	43	0	176160768	19	5459
2026-01-15 23:38:17.78	28.04	15.30	-29.8	-32.8	13.2	2.75e-04	0	43	0	178257920	20	5050
2026-01-15 23:38:18.78	28.12	15.40	-29.8	-33.2	13.3	4.64e-04	0	43	0	179306496	19	5304
2026-01-15 23:38:19.78	28.19	15.50	-29.8	-33.1	13.4	4.75e-04	0	43	0	181403648	19	5259
2026-01-15 23:38:20.79	28.27	15.60	-30.0	-33.6	13.0	3.81e-05	0	43	0	183500800	19	5473
2026-01-15 23:38:21.79	28.35	15.70	-29.8	-33.2	13.3	5.62e-04	0	43	0	185597952	19	5312
2026-01-15 23:38:22.79	28.43	15.81	-29.6	-32.7	13.6	5.18e-04	0	43	0	186646528	19	5113
2026-01-15 23:38:23.79	28.50	15.91	-29.5	-32.3	13.9	5.30e-06	0	43	0	188743680	19	4982
2026-01-15 23:38:24.79	28.58	16.01	-29.4	-32.5	14.1	5.71e-04	0	43	0	190840832	18	5166
2026-01-15 23:38:25.79	28.66	16.12	-29.5	-32.7	14.0	9.41e-04	0	43	0	192937984	18	5218
2026-01-15 23:38:26.79	28.74	16.22	-29.3	-32.3	14.2	3.21e-04	0	43	0	195035136	18	5077
2026-01-15 23:38:27.79	28.82	16.32	-29.3	-32.2	14.3	8.35e-04	0	43	0	196083712	18	5062
2026-01-15 23:38:28.78	28.90	16.43	-29.4	-32.5	14.1	1.36e-03	0	43	0	198180864	18	5150
2026-01-15 23:38:29.78	28.98	16.53	-29.4	-32.5	14.1	7.01e-04	0	43	0	200278016	18	5141
2026-01-15 23:38:30.79	29.06	16.64	-29.4	-32.5	14.1	2.20e-06	0	43	0	202375168	18	5141
2026-01-15 23:38:31.79	29.14	16.74	-29.5	-32.3	13.9	1.96e-03	0	43	0	204472320	19	4974
2026-01-15 23:38:32.79	29.22	16.85	-29.7	-32.7	13.7	1.02e-03	0	43	0	205520896	19	5117
2026-01-15 23:38:33.79	29.31	16.96	-29.6	-32.5	13.8	6.10e-06	0	43	0	207618048	19	5023
2026-01-15 23:38:34.80	29.39	17.07	-29.5	-32.4	13.9	7.45e-04	0	43	0	209715200	19	5004
2026-01-15 23:38:35.80	29.48	17.17	-29.5	-32.4	13.9	1.34e-03	0	43	0	211812352	19	4985
2026-01-15 23:38:36.81	29.56	17.28	-29.6	-32.6	13.8	6.45e-04	0	43	0	213909504	19	5075
2026-01-15 23:38:37.80	29.65	17.39	-29.6	-32.5	13.9	3.00e-06	0	43	0	214958080	19	5034
2026-01-15 23:38:38.81	29.73	17.50	-29.6	-32.6	13.8	8.48e-04	0	43	0	217055232	19	5069
2026-01-15 23:38:39.81	29.82	17.61	-29.8	-33.0	13.5	6.43e-04	0	43	0	219152384	19	5230
2026-01-15 23:38:40.81	29.91	17.72	-29.7	-32.7	13.8	6.10e-06	0	43	0	221249536	19	5105
2026-01-15 23:38:41.81	29.99	17.83	-29.6	-32.5	13.9	6.10e-06	0	43	0	222298112	19	5029
2026-01-15 23:38:42.82	30.08	17.94	-29.5	-32.2	14.1	3.97e-04	0	43	0	224395264	19	4928
2026-01-15 23:38:43.82	30.17	18.05	-29.5	-32.7	14.0	3.00e-06	0	43	0	226492416	18	5224
2026-01-15 23:38:44.83	30.26	18.17	-29.5	-32.7	14.1	7.00e-07	0	43	0	228589568	18	5221
2026-01-15 23:38:45.83	30.35	18.28	-29.5	-32.4	14.0	2.88e-04	0	43	0	230686720	19	4991
2026-01-15 23:38:46.83	30.44	18.39	-29.7	-32.7	13.7	2.74e-04	0	43	0	232783872	19	5116
2026-01-15 23:38:47.82	30.53	18.50	-29.5	-32.4	14.0	5.30e-06	0	43	0	233832448	19	4981
2026-01-15 23:38:48.82	30.62	18.61	-29.5	-32.3	14.0	7.00e-07	0	43	0	235929600	19	4955
2026-01-15 23:38:49.82	30.72	18.73	-29.5	-32.4	14.0	4.51e-04	0	43	0	238026752	19	4983
2026-01-15 23:38:50.83	30.81	18.84	-29.6	-32.5	13.9	3.00e-06	0	43	0	240123904	19	5047
2026-01-15 23:38:51.82	30.90	18.96	-29.7	-32.7	13.8	2.20e-06	0	43	0	241172480	19	5104
2026-01-15 23:38:52.82	31.00	19.07	-29.7	-32.7	13.8	6.80e-06	0	43	0	243269632	19	5085
2026-01-15 23:38:53.82	31.09	19.19	-29.7	-32.8	13.8	5.45e-04	0	43	0	245366784	19	5125
2026-01-15 23:38:54.82	31.19	19.30	-29.7	-32.7	13.8	6.10e-06	0	43	0	247463936	19	5105
2026-01-15 23:38:55.82	31.29	19.42	-29.7	-32.7	13.8	1.50e-06	0	43	0	249561088	19	5102
2026-01-15 23:38:56.82	31.38	19.54	-29.8	-33.1	13.6	4.50e-06	0	43	0	250609664	19	5237
2026-01-15 23:38:57.82	31.48	19.66	-29.8	-33.1	13.6	4.52e-04	0	43	0	252706816	19	5247
2026-01-15 23:38:58.82	31.58	19.77	-29.9	-33.4	13.4	1.29e-05	0	43	0	254803968	19	5355
2026-01-15 23:38:59.82	31.68	19.89	-29.8	-33.0	13.6	1.44e-05	0	43	0	256901120	19	5222
2026-01-15 23:39:00.83	31.78	20.01	-29.7	-32.8	13.8	4.29e-04	0	43	0	258998272	19	5123
2026-01-15 23:39:01.83	31.88	20.13	-29.7	-32.6	13.9	4.50e-06	0	43	0	260046848	19	5066
2026-01-15 23:39:02.83	31.98	20.25	-29.8	-32.9	13.7	6.10e-06	0	43	0	262144000	19	5185
2026-01-15 23:39:03.84	32.09	20.37	-29.7	-32.8	13.8	1.62e-04	0	43	0	264241152	19	5137
2026-01-15 23:39:04.84	32.19	20.49	-29.9	-33.2	13.5	3.80e-06	0	43	0	266338304	19	5280
2026-01-15 23:39:05.84	32.30	20.62	-29.7	-32.9	13.7	9.90e-06	0	43	0	267386880	19	5159
2026-01-15 23:39:06.84	32.40	20.74	-29.7	-32.6	14.0	2.20e-06	0	43	0	269484032	19	5071
2026-01-15 23:39:07.84	32.51	20.86	-29.6	-32.5	14.0	2.24e-04	0	43	0	271581184	19	5005
2026-01-15 23:39:08.84	32.61	20.98	-29.7	-32.6	13.9	2.20e-06	0	43	0	273678336	19	5062
2026-01-15 23:39:09.84	32.72	21.11	-29.7	-32.8	13.8	7.60e-06	0	43	0	275775488	19	5144
2026-01-15 23:39:10.84	32.83	21.23	-29.8	-33.1	13.7	5.30e-06	0	43	0	276824064	19	5221
2026-01-15 23:39:11.84	32.94	21.36	-29.8	-32.8	13.8	6.10e-06	0	43	0	278921216	19	5143
2026-01-15 23:39:12.85	33.05	21.48	-29.7	-32.6	14.0	4.50e-06	0	43	0	281018368	19	5054
2026-01-15 23:39:13.84	33.16	21.61	-29.7	-32.6	13.9	2.20e-06	0	43	0	283115520	19	5057
2026-01-15 23:39:14.84	33.27	21.73	-29.8	-33.0	13.7	3.00e-06	0	43	0	285212672	19	5192
2026-01-15 23:39:15.84	33.38	21.86	-29.7	-32.8	13.9	1.06e-05	0	43	0	286261248	19	5109
2026-01-15 23:39:16.84	33.50	21.99	-29.8	-32.9	13.8	2.20e-06	0	43	0	288358400	19	5160
2026-01-15 23:39:17.84	33.61	22.11	-29.7	-32.7	13.9	4.50e-06	0	43	0	290455552	19	5079
2026-01-15 23:39:18.84	33.73	22.24	-29.6	-32.4	14.1	1.50e-06	0	43	0	292552704	19	4967
2026-01-15 23:39:19.84	33.84	22.37	-29.6	-32.5	14.1	1.50e-06	0	43	0	294649856	19	5006
2026-01-15 23:39:20.84	33.96	22.50	-29.6	-32.5	14.1	1.50e-06	0	43	0	295698432	19	5009
2026-01-15 23:39:21.84	34.08	22.63	-29.7	-32.7	13.9	3.00e-06	0	43	0	297795584	19	5092
2026-01-15 23:39:22.84	34.20	22.76	-29.8	-32.9	13.8	3.00e-06	0	43	0	299892736	19	5166
2026-01-15 23:39:23.84	34.32	22.89	-29.7	-32.7	14.0	3.00e-06	0	43	0	301989888	19	5071
2026-01-15 23:39:24.84	34.44	23.02	-29.6	-32.4	14.1	0.00e+00	0	43	0	303038464	19	4981
2026-01-15 23:39:25.84	34.56	23.15	-29.5	-32.4	14.1	3.00e-06	0	43	0	305135616	19	4978
2026-01-15 23:39:26.84	34.68	23.29	-29.6	-32.3	14.2	3.00e-06	0	43	0	307232768	19	4932
2026-01-15 23:39:27.83	34.80	23.42	-29.6	-32.6	13.6	1.50e-06	0	43	0	309329920	19	5084
2026-01-15 23:39:28.83	34.93	23.55	-29.6	-32.4	13.5	5.29e-04	0	43	0	311427072	19	4992
2026-01-15 23:39:29.83	35.05	23.69	-29.7	-32.8	13.9	3.80e-06	0	43	0	312475648	19	5109
2026-01-15 23:39:30.83	35.18	23.82	-29.6	-32.5	13.9	3.80e-06	0	43	0	314572800	19	5024
2026-01-15 23:39:31.83	35.31	23.96	-29.6	-32.5	14.1	7.00e-07	0	43	0	316669952	19	5014
2026-01-15 23:39:32.82	35.44	24.09	-29.8	-32.8	13.9	1.50e-06	0	43	0	318767104	19	5128
2026-01-15 23:39:33.82	35.57	24.23	-29.7	-32.7	14.0	6.10e-06	0	43	0	320864256	19	5089
2026-01-15 23:39:34.82	35.70	24.37	-29.8	-32.9	13.8	3.00e-06	0	43	0	321912832	19	5160
2026-01-15 23:39:35.82	35.83	24.50	-29.8	-33.0	13.8	9.10e-06	0	43	0	324009984	19	5195
2026-01-15 23:39:36.82	35.96	24.64	-29.9	-33.3	13.6	7.60e-06	0	43	0	326107136	19	5304
2026-01-15 23:39:37.81	36.10	24.78	-29.9	-33.1	13.7	6.10e-06	0	43	0	328204288	19	5236
2026-01-15 23:39:38.81	36.23	24.92	-29.7	-32.8	13.9	7.60e-06	0	43	0	329252864	19	5095
2026-01-15 23:39:39.81	36.37	25.06	-29.8	-32.8	13.9	5.72e-05	0	44	0	331350016	19	5109
2026-01-15 23:39:40.81	36.51	25.20	-29.8	-32.8	13.9	6.10e-06	0	43	0	333447168	19	5120
2026-01-15 23:39:41.82	36.65	25.34	-29.9	-33.1	13.7	3.80e-06	0	43	0	335544320	19	5244
2026-01-15 23:39:42.82	36.79	25.48	-29.8	-33.0	13.8	7.60e-06	0	44	0	337641472	19	5180
2026-01-15 23:39:43.81	36.93	25.62	-29.7	-32.6	14.1	3.80e-06	0	43	0	338690048	19	5027
2026-01-15 23:39:44.82	37.07	25.77	-29.7	-32.6	14.1	1.50e-06	0	43	0	340787200	19	5054
2026-01-15 23:39:45.82	37.22	25.91	-29.7	-32.8	14.0	3.00e-06	0	43	0	342884352	19	5100
2026-01-15 23:39:46.82	37.36	26.06	-29.8	-32.9	13.9	1.50e-06	0	43	0	344981504	19	5146
2026-01-15 23:39:47.82	37.51	26.20	-29.9	-33.1	13.8	1.06e-05	0	43	0	346030080	19	5207
2026-01-15 23:39:48.82	37.66	26.35	-29.9	-33.2	13.7	6.80e-06	0	43	0	348127232	19	5261
2026-01-15 23:39:49.81	37.81	26.49	-30.0	-33.4	13.6	4.50e-06	0	44	0	350224384	19	5332
2026-01-15 23:39:50.81	37.96	26.64	-30.0	-33.0	13.5	1.52e-05	0	43	0	352321536	20	5091
2026-01-15 23:39:51.81	38.11	26.78	-30.1	-33.2	13.3	1.60e-05	0	43	0	354418688	20	5176
2026-01-15 23:39:52.81	38.26	26.93	-30.1	-33.2	13.3	2.28e-05	0	43	0	355467264	20	5167
2026-01-15 23:39:53.81	38.42	27.08	-30.2	-33.6	13.1	1.11e-04	0	43	0	357564416	20	5321
2026-01-15 23:39:54.81	38.57	27.23	-30.3	-33.7	13.0	3.73e-05	0	43	0	359661568	20	5343
2026-01-15 23:39:55.82	38.73	27.38	-30.3	-33.9	12.9	4.19e-05	0	43	0	361758720	20	5417
2026-01-15 23:39:56.82	38.89	27.53	-30.3	-33.7	13.0	1.33e-04	0	44	0	363855872	20	5352
2026-01-15 23:39:57.82	39.05	27.68	-30.3	-33.9	12.9	3.12e-05	0	43	0	364904448	20	5439
2026-01-15 23:39:58.82	39.22	27.83	-30.4	-34.0	12.7	7.70e-05	0	43	0	367001600	20	5478
2026-01-15 23:39:59.83	39.38	27.98	-30.4	-34.2	12.7	5.72e-05	0	43	0	369098752	20	5525
2026-01-15 23:40:00.83	39.55	28.14	-30.5	-34.3	12.6	3.23e-04	0	43	0	371195904	20	5607
2026-01-15 23:40:01.83	39.71	28.29	-30.6	-34.1	12.4	4.15e-04	0	43	0	373293056	21	5385
2026-01-15 23:40:02.83	39.88	28.44	-30.7	-34.6	12.1	1.56e-04	0	44	0	374341632	21	5595
2026-01-15 23:40:03.84	40.05	28.60	-30.7	-34.5	12.2	7.66e-04	0	43	0	376438784	21	5566
2026-01-15 23:40:04.84	40.22	28.75	-30.8	-34.8	11.9	1.24e-03	0	43	0	378535936	21	5714
2026-01-15 23:40:05.84	40.40	28.91	-30.9	-35.1	11.8	4.31e-04	0	44	0	380633088	21	5821
2026-01-15 23:40:06.84	40.57	29.06	-30.9	-35.1	11.7	4.73e-04	0	43	0	382730240	21	5835
2026-01-15 23:40:07.84	40.75	29.22	-31.1	-35.1	11.4	1.10e-03	0	43	0	383778816	22	5736
2026-01-15 23:40:08.84	40.93	29.38	-31.2	-35.5	11.1	1.19e-03	0	43	0	385875968	22	5904
2026-01-15 23:40:09.84	41.11	29.54	-31.2	-35.4	11.2	1.53e-03	0	44	0	387973120	22	5836
2026-01-15 23:40:10.84	41.29	29.69	-31.2	-35.6	11.1	1.53e-03	0	44	0	390070272	22	5946
2026-01-15 23:40:11.85	41.47	29.86	-31.2	-35.5	11.1	1.54e-03	0	44	0	392167424	22	5891
2026-01-15 23:40:12.85	41.66	30.01	-31.3	-35.7	11.0	1.70e-03	0	43	0	393216000	22	5998
2026-01-15 23:40:13.85	41.85	30.17	-31.3	-35.6	11.1	1.77e-03	0	44	0	395313152	22	5960
2026-01-15 23:40:14.86	42.04	30.34	-31.2	-35.5	11.2	1.44e-03	0	44	0	397410304	22	5881
2026-01-15 23:40:15.86	42.23	30.50	-31.3	-35.6	11.1	1.47e-03	0	43	0	399507456	22	5938
2026-01-15 23:40:16.86	42.42	30.66	-31.3	-35.6	11.1	1.77e-03	0	43	0	400556032	22	5931
2026-01-15 23:40:17.86	42.61	30.82	-31.3	-35.9	10.9	2.03e-03	0	43	0	402653184	22	6078
2026-01-15 23:40:18.86	42.81	30.99	-31.3	-35.7	11.1	1.96e-03	0	44	0	404750336	22	5999
2026-01-15 23:40:19.87	43.01	31.15	-31.2	-35.4	11.3	1.23e-03	0	43	0	406847488	22	5845
2026-01-15 23:40:20.87	43.21	31.31	-31.2	-35.4	11.3	1.20e-03	0	43	0	408944640	22	5842
2026-01-15 23:40:21.87	43.41	31.48	-31.2	-35.3	11.4	1.02e-03	0	43	0	409993216	22	5774
2026-01-15 23:40:22.86	43.61	31.64	-31.1	-35.2	11.4	9.22e-04	0	43	0	412090368	22	5736
2026-01-15 23:40:23.86	43.82	31.81	-31.2	-35.4	11.3	9.59e-04	0	43	0	414187520	22	5851
2026-01-15 23:40:24.86	44.03	31.97	-31.2	-35.3	11.4	1.07e-03	0	43	0	416284672	22	5781
2026-01-15 23:40:25.87	44.24	32.14	-31.0	-34.6	11.9	6.03e-04	0	43	0	418381824	22	5496
2026-01-15 23:40:26.87	44.45	32.31	-30.8	-34.1	12.2	3.08e-04	0	43	0	419430400	22	5258
2026-01-15 23:40:27.87	44.67	32.48	-30.7	-33.9	12.4	2.10e-04	0	44	0	421527552	22	5199
2026-01-15 23:40:28.88	44.89	32.65	-30.7	-33.9	12.4	1.20e-04	0	43	0	423624704	22	5193
2026-01-15 23:40:29.88	45.11	32.82	-30.5	-33.4	12.8	1.25e-04	0	43	0	425721856	22	4981
2026-01-15 23:40:30.89	45.33	32.99	-30.4	-32.9	13.0	4.50e-05	0	44	0	427819008	22	4824
2026-01-15 23:40:31.89	45.55	33.16	-30.3	-33.4	13.0	7.85e-05	0	44	0	428867584	21	5092
2026-01-15 23:40:32.88	45.78	33.33	-30.2	-33.0	13.4	1.98e-05	0	44	0	430964736	21	4941
2026-01-15 23:40:33.89	46.01	33.50	-30.1	-32.7	13.5	1.14e-05	0	44	0	433061888	21	4862
2026-01-15 23:40:34.88	46.24	33.67	-30.1	-32.7	13.6	5.30e-06	0	44	0	435159040	21	4851
2026-01-15 23:40:35.89	46.47	33.84	-30.2	-32.8	13.4	9.10e-06	0	43	0	437256192	21	4890
2026-01-15 23:40:36.89	46.71	34.01	-30.1	-32.5	13.6	2.97e-05	0	44	0	438304768	21	4792
2026-01-15 23:40:37.88	46.94	34.19	-30.0	-32.3	13.8	9.90e-06	0	44	0	440401920	21	4700
2026-01-15 23:40:38.88	47.18	34.36	-29.7	-32.1	14.2	3.00e-06	0	43	0	442499072	20	4757
2026-01-15 23:40:39.88	47.43	34.53	-29.7	-32.0	14.3	1.75e-05	0	44	0	444596224	20	4715
2026-01-15 23:40:40.88	47.67	34.71	-29.8	-32.3	14.1	2.21e-05	0	44	0	445644800	20	4820
2026-01-15 23:40:41.88	47.92	34.88	-29.9	-32.5	14.0	2.20e-06	0	44	0	447741952	20	4883
2026-01-15 23:40:42.88	48.17	35.05	-29.8	-32.5	14.0	4.50e-06	0	43	0	449839104	20	4862
2026-01-15 23:40:43.88	48.42	35.23	-29.9	-32.5	14.0	3.00e-06	0	44	0	451936256	20	4878
2026-01-15 23:40:44.88	48.68	35.41	-30.1	-33.1	13.6	7.60e-06	0	44	0	454033408	20	5090
2026-01-15 23:40:45.87	48.94	35.58	-30.1	-33.2	13.6	1.37e-05	0	44	0	455081984	20	5143
2026-01-15 23:40:46.88	49.20	35.76	-30.3	-33.7	13.2	8.30e-06	0	44	0	457179136	20	5318
2026-01-15 23:40:47.89	49.47	35.94	-30.3	-33.8	13.2	1.75e-05	0	44	0	459276288	20	5349
2026-01-15 23:40:48.89	49.74	36.11	-30.5	-33.8	12.8	5.03e-05	0	44	0	461373440	21	5264
2026-01-15 23:40:49.89	50.01	36.29	-30.8	-34.7	12.3	1.03e-04	0	44	0	463470592	21	5601
2026-01-15 23:40:50.89	50.28	36.47	-30.3	-33.3	13.2	9.53e-05	0	44	0	464519168	21	5046
2026-01-15 23:40:51.89	50.55	36.64	-29.9	-32.1	14.0	7.60e-06	0	43	0	466616320	21	4621
2026-01-15 23:40:52.89	50.83	36.82	-29.6	-31.7	14.5	1.50e-06	0	44	0	468713472	20	4613
2026-01-15 23:40:53.89	51.12	37.00	-29.3	-31.1	15.0	0.00e+00	0	44	0	470810624	20	4398
2026-01-15 23:40:54.89	51.40	37.18	-29.3	-31.6	15.0	0.00e+00	0	44	0	471859200	19	4655
2026-01-15 23:40:55.89	51.69	37.36	-29.3	-31.6	15.0	7.00e-07	0	43	0	473956352	19	4663
2026-01-15 23:40:56.89	51.98	37.53	-29.6	-32.3	14.6	0.00e+00	0	44	0	476053504	19	4918
2026-01-15 23:40:57.89	52.27	37.71	-29.7	-32.5	14.5	7.00e-07	0	44	0	478150656	19	4959
2026-01-15 23:40:58.88	52.57	37.89	-29.8	-32.8	14.2	0.00e+00	0	44	0	480247808	19	5093
2026-01-15 23:40:59.89	52.87	38.07	-29.7	-32.4	14.5	7.00e-07	0	44	0	481296384	19	4937
2026-01-15 23:41:00.88	53.17	38.25	-29.5	-32.1	14.7	1.50e-06	0	44	0	483393536	19	4815
2026-01-15 23:41:01.89	53.48	38.43	-29.4	-31.8	15.0	0.00e+00	0	44	0	485490688	19	4722
2026-01-15 23:41:02.88	53.79	38.61	-29.4	-31.8	14.9	7.00e-07	0	44	0	487587840	19	4724
2026-01-15 23:41:03.89	54.11	38.79	-29.3	-31.4	15.1	0.00e+00	0	44	0	489684992	19	4604
2026-01-15 23:41:04.89	54.43	38.97	-29.4	-31.7	14.9	0.00e+00	0	44	0	490733568	19	4703
2026-01-15 23:41:05.89	54.75	39.15	-29.4	-31.8	14.9	7.00e-07	0	43	0	492830720	19	4722
2026-01-15 23:41:06.89	55.07	39.32	-29.6	-32.2	14.6	7.00e-07	0	43	0	494927872	19	4869
2026-01-15 23:41:07.89	55.40	39.50	-29.6	-32.2	14.6	1.67e-05	0	43	0	497025024	19	4870
2026-01-15 23:41:08.88	55.73	39.68	-29.8	-32.7	14.3	7.00e-07	0	44	0	499122176	19	5053
2026-01-15 23:41:09.89	56.07	39.86	-29.7	-32.6	14.4	0.00e+00	0	44	0	500170752	19	4989
2026-01-15 23:41:10.89	56.41	40.04	-29.7	-32.5	14.5	7.00e-07	0	44	0	502267904	19	4971
2026-01-15 23:41:11.90	56.75	40.22	-29.8	-32.8	14.3	7.00e-07	0	43	0	504365056	19	5083
2026-01-15 23:41:12.90	57.10	40.40	-29.9	-33.1	14.1	1.50e-06	0	44	0	506462208	19	5182
2026-01-15 23:41:13.90	57.45	40.58	-30.0	-32.8	13.9	2.20e-06	0	44	0	507510784	20	4967
2026-01-15 23:41:14.89	57.80	40.75	-30.1	-33.1	13.7	1.50e-06	0	44	0	509607936	20	5097
2026-01-15 23:41:15.90	58.16	40.93	-30.0	-33.0	13.8	5.30e-06	0	44	0	511705088	20	5029
2026-01-15 23:41:16.91	58.53	41.11	-30.3	-33.5	13.5	6.80e-06	0	44	0	513802240	20	5246
2026-01-15 23:41:17.91	58.89	41.29	-30.5	-34.1	13.1	1.98e-05	0	44	0	515899392	20	5462
2026-01-15 23:41:18.91	59.26	41.46	-30.5	-33.7	13.0	9.61e-05	0	43	0	516947968	21	5201
2026-01-15 23:41:19.92	59.64	41.64	-30.6	-34.0	12.8	4.65e-05	0	44	0	519045120	21	5311
2026-01-15 23:41:20.91	60.01	41.81	-30.5	-33.7	13.0	4.34e-05	0	44	0	521142272	21	5216
2026-01-15 23:41:21.91	60.39	41.99	-30.5	-33.8	13.0	3.81e-05	0	44	0	523239424	21	5239
2026-01-15 23:41:22.91	60.78	42.16	-30.6	-34.1	12.8	4.88e-05	0	44	0	525336576	21	5351
2026-01-15 23:41:23.91	61.17	42.33	-30.7	-34.3	12.6	8.77e-05	0	43	0	526385152	21	5425
2026-01-15 23:41:24.91	61.56	42.51	-30.9	-34.8	12.3	1.22e-04	0	43	0	528482304	21	5632
2026-01-15 23:41:25.92	61.97	42.68	-30.9	-34.8	12.3	1.80e-04	0	44	0	530579456	21	5630
2026-01-15 23:41:26.93	62.37	42.85	-30.9	-34.8	12.3	1.48e-04	0	43	0	532676608	21	5642
2026-01-15 23:41:27.93	62.78	43.02	-30.9	-34.9	12.2	1.98e-04	0	43	0	534773760	21	5671
2026-01-15 23:41:28.93	63.19	43.19	-30.6	-34.0	12.9	1.30e-04	0	44	0	535822336	21	5310
2026-01-15 23:41:29.93	63.61	43.36	-30.7	-34.3	12.7	8.01e-05	0	44	0	537919488	21	5448
2026-01-15 23:41:30.93	64.03	43.53	-30.6	-33.8	13.0	5.79e-05	0	44	0	540016640	21	5234
2026-01-15 23:41:31.93	64.45	43.70	-30.6	-33.9	12.9	3.81e-05	0	43	0	542113792	21	5283
2026-01-15 23:41:32.93	64.88	43.86	-30.6	-34.0	12.9	4.11e-05	0	44	0	544210944	21	5308
2026-01-15 23:41:33.93	65.31	44.03	-30.8	-34.6	12.4	1.27e-04	0	44	0	545259520	21	5552
2026-01-15 23:41:34.93	65.75	44.19	-30.8	-34.7	12.5	1.25e-04	0	44	0	547356672	21	5597
2026-01-15 23:41:35.93	66.19	44.35	-30.8	-34.5	12.5	1.14e-04	0	44	0	549453824	21	5524
2026-01-15 23:41:36.93	66.64	44.52	-30.7	-34.4	12.6	1.04e-04	0	44	0	551550976	21	5476
2026-01-15 23:41:37.94	67.10	44.68	-30.8	-34.6	12.5	1.24e-04	0	44	0	552599552	21	5557
2026-01-15 23:41:38.94	67.55	44.84	-30.5	-33.7	13.1	6.71e-05	0	44	0	554696704	21	5187
2026-01-15 23:41:39.94	68.01	44.99	-30.3	-33.1	13.4	1.37e-05	0	43	0	556793856	21	4975
2026-01-15 23:41:40.93	68.47	45.15	-30.3	-33.0	13.6	6.80e-06	0	44	0	558891008	21	4930
2026-01-15 23:41:41.93	68.94	45.30	-30.4	-33.4	13.3	1.29e-05	0	44	0	560988160	21	5081
2026-01-15 23:41:42.93	69.42	45.46	-30.7	-34.2	12.7	3.81e-05	0	44	0	562036736	21	5390
2026-01-15 23:41:43.94	69.90	45.61	-30.6	-33.9	12.9	6.17e-05	0	43	0	564133888	21	5286
2026-01-15 23:41:44.94	70.38	45.76	-30.4	-33.5	13.3	2.67e-05	0	43	0	566231040	21	5104
2026-01-15 23:41:45.95	70.87	45.91	-30.4	-33.3	13.4	2.13e-05	0	44	0	568328192	21	5026
2026-01-15 23:41:46.95	71.37	46.06	-30.6	-33.8	13.0	2.67e-05	0	44	0	570425344	21	5241
2026-01-15 23:41:47.95	71.86	46.20	-30.5	-33.6	13.2	2.28e-05	0	44	0	571473920	21	5139
2026-01-15 23:41:48.95	72.36	46.34	-30.4	-33.4	13.3	1.37e-05	0	44	0	573571072	21	5054
2026-01-15 23:41:49.95	72.87	46.48	-30.7	-34.1	12.8	3.58e-05	0	44	0	575668224	21	5334
2026-01-15 23:41:50.95	73.38	46.62	-31.1	-34.8	12.0	5.56e-04	0	44	0	577765376	22	5508
2026-01-15 23:41:51.95	73.89	46.76	-30.9	-34.7	12.4	2.27e-04	0	44	0	578813952	21	5581
2026-01-15 23:41:52.96	74.42	46.90	-31.0	-34.7	12.1	2.17e-04	0	44	0	580911104	22	5484
2026-01-15 23:41:53.96	74.94	47.03	-31.3	-35.3	11.6	4.92e-04	0	44	0	583008256	22	5752
2026-01-15 23:41:54.96	75.47	47.16	-31.1	-34.8	12.0	3.68e-04	0	44	0	585105408	22	5520
2026-01-15 23:41:55.97	76.01	47.29	-31.0	-34.7	12.1	3.15e-04	0	44	0	587202560	22	5460
2026-01-15 23:41:56.96	76.54	47.42	-31.1	-34.8	12.1	2.43e-04	0	44	0	588251136	22	5526
2026-01-15 23:41:57.96	77.08	47.54	-31.1	-34.7	12.1	3.42e-04	0	44	0	590348288	22	5498
2026-01-15 23:41:58.97	77.63	47.66	-31.2	-35.3	11.7	3.53e-04	0	44	0	592445440	22	5716
2026-01-15 23:41:59.96	78.17	47.78	-31.0	-34.6	12.1	3.97e-04	0	44	0	594542592	22	5459
2026-01-15 23:42:00.97	78.73	47.90	-31.0	-34.6	12.1	2.63e-04	0	43	0	596639744	22	5431
2026-01-15 23:42:01.97	79.29	48.02	-31.3	-35.5	11.5	5.23e-04	0	44	0	597688320	22	5843
2026-01-15 23:42:02.97	79.85	48.13	-31.4	-35.8	11.3	9.14e-04	0	44	0	599785472	22	5982
2026-01-15 23:42:03.97	80.42	48.24	-31.3	-35.1	11.4	1.13e-03	0	44	0	601882624	23	5536
2026-01-15 23:42:04.97	80.99	48.34	-31.1	-34.5	11.9	5.51e-04	0	44	0	603979776	23	5297
2026-01-15 23:42:05.97	81.56	48.45	-30.9	-33.8	12.4	2.13e-04	0	44	0	606076928	23	5004
2026-01-15 23:42:06.97	82.14	48.55	-30.9	-34.3	12.5	9.46e-05	0	43	0	607125504	22	5316
2026-01-15 23:42:07.96	82.72	48.64	-30.8	-34.0	12.6	9.00e-05	0	44	0	609222656	22	5210
2026-01-15 23:42:08.97	83.31	48.74	-30.9	-34.1	12.5	1.43e-04	0	44	0	611319808	22	5240
2026-01-15 23:42:09.97	83.90	48.83	-31.1	-34.8	12.1	1.98e-04	0	44	0	613416960	22	5510
2026-01-15 23:42:10.97	84.49	48.92	-31.0	-34.6	12.3	1.95e-04	0	44	0	614465536	22	5419
2026-01-15 23:42:11.96	85.08	49.01	-31.0	-34.5	12.3	2.04e-04	0	44	0	616562688	22	5383
2026-01-15 23:42:12.96	85.67	49.09	-30.6	-33.3	13.0	8.54e-05	0	44	0	618659840	22	4941
2026-01-15 23:42:13.96	86.28	49.17	-30.5	-33.0	13.3	2.21e-05	0	44	0	620756992	22	4835
2026-01-15 23:42:14.96	86.88	49.24	-30.4	-33.4	13.3	4.34e-04	0	43	0	622854144	21	5093
2026-01-15 23:42:15.97	87.49	49.32	-30.6	-33.9	12.9	3.37e-04	0	44	0	624951296	21	5276
2026-01-15 23:42:16.97	88.11	49.39	-30.7	-34.2	12.8	4.04e-05	0	44	0	625999872	21	5382
2026-01-15 23:42:17.97	88.72	49.46	-30.7	-34.3	12.8	7.85e-05	0	44	0	628097024	21	5410
2026-01-15 23:42:18.96	89.33	49.52	-30.3	-33.2	13.5	1.90e-05	0	44	0	630194176	21	4983
2026-01-15 23:42:19.97	89.95	49.58	-30.1	-32.6	13.8	7.60e-06	0	44	0	632291328	21	4794
2026-01-15 23:42:20.96	90.57	49.63	-30.2	-32.9	13.7	5.30e-06	0	44	0	633339904	21	4884
2026-01-15 23:42:21.97	91.20	49.69	-30.3	-33.1	13.6	6.25e-05	0	44	0	635437056	21	4958
2026-01-15 23:42:22.97	91.82	49.74	-30.2	-32.9	13.7	7.00e-07	0	44	0	637534208	21	4873
2026-01-15 23:42:23.96	92.44	49.78	-30.2	-33.4	13.7	9.10e-06	0	44	0	639631360	20	5166
2026-01-15 23:42:24.97	93.08	49.83	-30.0	-32.7	14.1	2.46e-04	0	44	0	641728512	20	4921
2026-01-15 23:42:25.97	93.71	49.87	-29.6	-31.8	14.7	1.50e-06	0	43	0	642777088	20	4616
2026-01-15 23:42:26.97	94.34	49.90	-29.6	-31.8	14.7	6.40e-05	0	44	0	644874240	20	4610
2026-01-15 23:42:27.97	94.97	49.93	-29.6	-31.6	14.8	0.00e+00	0	44	0	646971392	20	4548
2026-01-15 23:42:28.97	95.61	49.96	-29.7	-32.0	14.6	0.00e+00	0	44	0	649068544	20	4700
2026-01-15 23:42:29.98	96.25	49.99	-29.3	-30.9	15.2	1.90e-05	0	44	0	651165696	20	4350
2026-01-15 23:42:30.98	96.89	50.01	-29.4	-31.7	15.1	0.00e+00	0	44	0	652214272	19	4683
2026-01-15 23:42:31.97	97.52	50.02	-29.6	-32.2	14.9	7.00e-07	0	43	0	654311424	19	4841
2026-01-15 23:42:32.98	98.16	50.04	-30.0	-32.7	14.1	3.73e-05	0	44	0	656408576	20	4936
2026-01-15 23:42:33.98	98.80	50.05	-30.2	-33.4	13.7	1.24e-04	0	43	0	658505728	20	5180
2026-01-15 23:42:34.98	99.44	50.05	-30.2	-33.4	13.7	1.06e-05	0	44	0	659554304	20	5191
2026-01-15 23:42:35.98	100.08	50.05	-30.0	-32.8	14.1	4.95e-05	0	44	0	661651456	20	4962
2026-01-15 23:42:36.98	100.72	50.05	-30.0	-32.6	14.2	2.20e-06	0	44	0	663748608	20	4906
2026-01-15 23:42:37.98	101.36	50.05	-30.1	-33.1	13.8	0.00e+00	0	44	0	665845760	20	5065
2026-01-15 23:42:38.98	102.00	50.04	-30.1	-33.1	13.9	4.50e-06	0	43	0	667942912	20	5065
2026-01-15 23:42:39.98	102.64	50.03	-30.0	-32.9	14.0	1.50e-06	0	43	0	668991488	20	4998
2026-01-15 23:42:40.98	103.28	50.01	-30.0	-32.8	14.1	4.50e-06	0	44	0	671088640	20	4945
2026-01-15 23:42:41.98	103.91	49.99	-30.2	-33.2	13.8	2.20e-06	0	44	0	673185792	20	5104
2026-01-15 23:42:42.98	104.55	49.97	-30.4	-33.8	13.4	9.10e-06	0	44	0	675282944	20	5329
2026-01-15 23:42:43.99	105.19	49.94	-30.6	-33.8	13.1	3.28e-05	0	44	0	677380096	21	5227
2026-01-15 23:42:44.99	105.82	49.91	-30.3	-33.0	13.6	2.74e-05	0	44	0	678428672	21	4938
2026-01-15 23:42:45.98	106.45	49.87	-30.0	-32.4	14.0	3.00e-06	0	44	0	680525824	21	4708
2026-01-15 23:42:46.98	107.08	49.83	-30.3	-33.1	13.5	2.20e-06	0	44	0	682622976	21	4959
2026-01-15 23:42:47.99	107.72	49.79	-30.5	-33.6	13.2	8.30e-06	0	44	0	684720128	21	5132
2026-01-15 23:42:48.99	108.35	49.75	-30.5	-33.6	13.2	2.36e-05	0	43	0	686817280	21	5130
2026-01-15 23:42:49.99	108.97	49.70	-30.0	-32.3	13.9	7.60e-06	0	44	0	687865856	21	4687
2026-01-15 23:42:50.99	109.60	49.65	-29.9	-32.1	14.2	3.00e-06	0	44	0	689963008	21	4625
2026-01-15 23:42:51.99	110.22	49.59	-30.3	-33.1	13.6	7.00e-07	0	44	0	692060160	21	4960
2026-01-15 23:42:52.99	110.84	49.53	-30.7	-34.2	12.8	2.67e-05	0	44	0	694157312	21	5394
2026-01-15 23:42:53.99	111.45	49.47	-30.8	-34.4	12.6	9.91e-05	0	44	0	695205888	21	5480
2026-01-15 23:42:54.98	112.06	49.40	-30.6	-33.8	13.1	4.42e-05	0	44	0	697303040	21	5222
2026-01-15 23:42:55.98	112.67	49.33	-30.6	-33.8	13.1	3.43e-05	0	44	0	699400192	21	5244
2026-01-15 23:42:56.98	113.28	49.26	-30.9	-34.7	12.5	4.73e-05	0	44	0	701497344	21	5602
2026-01-15 23:42:57.99	113.89	49.18	-31.7	-36.4	10.6	5.39e-04	0	44	0	703594496	23	6133
2026-01-15 23:42:59.00	114.50	49.10	-32.0	-36.7	10.0	8.93e-03	0	44	0	704643072	24	6194
2026-01-15 23:43:00.00	115.10	49.02	-31.8	-35.9	10.5	5.61e-03	0	44	0	706740224	24	5822
2026-01-15 23:43:01.00	115.70	48.94	-31.6	-35.4	11.0	2.66e-03	0	44	0	708837376	24	5593
2026-01-15 23:43:02.00	116.29	48.85	-31.8	-36.1	10.4	1.69e-03	0	44	0	710934528	24	5916
2026-01-15 23:43:03.00	116.88	48.75	-32.2	-37.5	9.5	8.05e-03	0	44	0	713031680	24	6639
2026-01-15 23:43:04.00	117.47	48.66	-32.7	-39.0	7.8	5.52e-02	0	44	0	714080256	25	7438
2026-01-15 23:43:05.00	118.05	48.56	-32.3	-37.3	9.1	4.66e-02	0	44	0	716177408	25	6409
2026-01-15 23:43:06.00	118.63	48.46	-31.8	-35.6	10.6	5.54e-03	0	44	0	718274560	25	5569
2026-01-15 23:43:07.00	119.21	48.36	-31.8	-36.2	10.4	3.32e-03	0	44	0	720371712	24	5952
2026-01-15 23:43:07.99	119.77	48.25	-32.3	-38.1	9.0	1.44e-02	0	44	0	721420288	24	6991
2026-01-15 23:43:08.99	120.34	48.14	-32.4	-38.3	8.7	3.58e-02	0	43	0	723517440	24	7132
2026-01-15 23:43:09.99	120.90	48.03	-31.9	-36.6	10.1	1.31e-02	0	44	0	725614592	24	6138
2026-01-15 23:43:10.99	121.46	47.92	-31.5	-35.1	11.2	2.24e-03	0	44	0	727711744	24	5431
2026-01-15 23:43:11.99	122.02	47.80	-31.6	-35.4	11.0	1.10e-03	0	44	0	729808896	24	5580
2026-01-15 23:43:12.99	122.57	47.68	-31.9	-36.5	10.2	5.05e-03	0	44	0	730857472	24	6072
2026-01-15 23:43:14.00	123.12	47.56	-32.0	-36.6	10.0	1.09e-02	0	44	0	732954624	24	6167
2026-01-15 23:43:15.00	123.67	47.44	-31.2	-34.6	11.8	2.25e-03	0	43	0	735051776	23	5331
2026-01-15 23:43:16.01	124.21	47.31	-30.7	-33.5	13.0	1.41e-04	0	44	0	737148928	22	5003
2026-01-15 23:43:17.01	124.74	47.18	-30.9	-34.1	12.6	6.71e-05	0	44	0	739246080	22	5241
2026-01-15 23:43:18.01	125.27	47.05	-31.2	-35.0	12.0	1.88e-04	0	44	0	740294656	22	5588
2026-01-15 23:43:19.01	125.80	46.92	-31.0	-34.6	12.2	2.61e-04	0	44	0	742391808	22	5430
2026-01-15 23:43:20.02	126.32	46.78	-30.8	-33.9	12.7	1.04e-04	0	44	0	744488960	22	5156
2026-01-15 23:43:21.01	126.84	46.64	-30.8	-33.9	12.7	6.10e-05	0	44	0	746586112	22	5145
2026-01-15 23:43:22.01	127.35	46.50	-31.1	-34.7	12.1	1.01e-04	0	44	0	748683264	22	5481
2026-01-15 23:43:23.01	127.86	46.36	-31.0	-34.6	12.3	1.94e-04	0	44	0	749731840	22	5421
2026-01-15 23:43:24.02	128.36	46.22	-30.8	-34.0	12.7	1.27e-04	0	44	0	751828992	22	5185
2026-01-15 23:43:25.01	128.86	46.07	-30.5	-33.1	13.3	4.42e-05	0	43	0	753926144	22	4843
2026-01-15 23:43:26.01	129.35	45.93	-30.2	-32.8	13.8	8.30e-06	0	44	0	756023296	21	4847
2026-01-15 23:43:27.01	129.84	45.78	-30.5	-33.7	13.3	1.60e-05	0	44	0	757071872	21	5160
2026-01-15 23:43:28.01	130.32	45.63	-30.7	-34.1	13.0	3.05e-05	0	44	0	759169024	21	5332
2026-01-15 23:43:29.01	130.80	45.48	-30.8	-34.6	12.6	6.02e-05	0	44	0	761266176	21	5542
2026-01-15 23:43:30.02	131.29	45.32	-31.0	-34.9	12.3	1.17e-04	0	44	0	763363328	21	5675
2026-01-15 23:43:31.01	131.75	45.17	-30.8	-33.9	12.7	9.30e-05	0	44	0	765460480	22	5164
2026-01-15 23:43:32.01	132.22	45.01	-30.8	-34.1	12.5	9.15e-05	0	43	0	766509056	22	5250
2026-01-15 23:43:33.02	132.68	44.85	-31.2	-35.2	11.9	2.32e-04	0	44	0	768606208	22	5722
2026-01-15 23:43:34.02	133.14	44.69	-30.8	-34.0	12.6	1.86e-04	0	43	0	770703360	22	5209
2026-01-15 23:43:35.02	133.60	44.53	-30.4	-32.9	13.3	2.82e-05	0	44	0	772800512	22	4793
2026-01-15 23:43:36.02	134.04	44.37	-30.5	-33.1	13.2	1.83e-05	0	43	0	774897664	22	4877
2026-01-15 23:43:37.02	134.49	44.21	-30.7	-34.2	12.8	4.34e-05	0	44	0	775946240	21	5400
2026-01-15 23:43:38.02	134.93	44.04	-30.4	-33.4	13.3	1.98e-05	0	44	0	778043392	21	5067
2026-01-15 23:43:39.02	135.36	43.88	-30.2	-32.8	13.7	8.30e-06	0	43	0	780140544	21	4868
2026-01-15 23:43:40.03	135.80	43.71	-30.1	-33.1	13.8	3.80e-06	0	43	0	782237696	20	5078
2026-01-15 23:43:41.03	136.22	43.54	-30.1	-33.1	13.9	3.80e-06	0	44	0	784334848	20	5080
2026-01-15 23:43:42.03	136.64	43.37	-30.2	-33.3	13.7	3.80e-06	0	44	0	785383424	20	5134
2026-01-15 23:43:43.03	137.06	43.20	-30.5	-33.6	13.1	8.30e-06	0	44	0	787480576	21	5164
2026-01-15 23:43:44.02	137.47	43.04	-30.8	-34.5	12.6	7.17e-05	0	44	0	789577728	21	5488
2026-01-15 23:43:45.03	137.88	42.86	-30.9	-34.8	12.4	1.62e-04	0	44	0	791674880	21	5645
2026-01-15 23:43:46.03	138.29	42.69	-30.5	-33.5	13.2	8.77e-05	0	44	0	793772032	21	5119
2026-01-15 23:43:47.04	138.69	42.52	-30.3	-32.9	13.6	8.30e-06	0	44	0	794820608	21	4910
2026-01-15 23:43:48.04	139.09	42.34	-29.6	-33.2	13.2	1.90e-05	0	44	0	796917760	20	5458
2026-01-15 23:43:49.04	139.48	42.17	-30.9	-34.7	12.4	4.88e-05	0	44	0	799014912	21	5592
2026-01-15 23:43:50.04	139.87	42.00	-31.0	-34.6	11.6	1.84e-04	0	44	0	801112064	22	5460
2026-01-15 23:43:51.04	140.25	41.82	-31.1	-34.7	11.7	2.47e-04	0	44	0	802160640	22	5473
2026-01-15 23:43:52.04	140.63	41.64	-30.9	-34.2	12.5	1.95e-04	0	44	0	804257792	22	5262
2026-01-15 23:43:53.04	141.01	41.47	-30.6	-34.0	12.9	8.54e-05	0	44	0	806354944	21	5304
2026-01-15 23:43:54.04	141.38	41.29	-30.8	-34.4	12.6	5.42e-04	0	44	0	808452096	21	5467
2026-01-15 23:43:55.04	141.74	41.11	-30.9	-34.8	12.4	1.34e-04	0	44	0	810549248	21	5622
2026-01-15 23:43:56.04	142.11	40.94	-31.3	-35.5	11.6	3.45e-04	0	44	0	811597824	22	5834
2026-01-15 23:43:57.04	142.47	40.76	-31.3	-35.5	11.6	6.33e-04	0	44	0	813694976	22	5856
2026-01-15 23:43:58.04	142.82	40.58	-31.2	-35.3	11.7	6.99e-04	0	44	0	815792128	22	5732
2026-01-15 23:43:59.05	143.18	40.40	-31.0	-34.6	12.2	3.40e-04	0	44	0	817889280	22	5425
2026-01-15 23:44:00.05	143.53	40.22	-31.0	-34.6	12.2	1.89e-04	0	44	0	819986432	22	5453
2026-01-15 23:44:01.06	143.87	40.04	-31.5	-35.7	11.2	1.03e-03	0	44	0	821035008	23	5813
2026-01-15 23:44:02.06	144.21	39.86	-31.8	-36.8	10.2	4.03e-03	0	44	0	823132160	23	6385
2026-01-15 23:44:03.06	144.55	39.68	-32.2	-37.5	9.2	1.09e-02	0	44	0	825229312	24	6656
2026-01-15 23:44:04.06	144.88	39.50	-32.3	-38.2	8.8	2.39e-02	0	44	0	827326464	24	7062
2026-01-15 23:44:05.06	145.21	39.32	-32.4	-38.5	8.4	4.86e-02	0	44	0	829423616	24	7297
2026-01-15 23:44:06.07	145.54	39.14	-32.1	-37.2	9.5	2.59e-02	0	44	0	830472192	24	6481
2026-01-15 23:44:07.07	145.86	38.96	-31.7	-36.0	10.4	7.51e-03	0	43	0	832569344	24	5860
2026-01-15 23:44:08.07	146.18	38.78	-31.6	-36.0	10.8	3.79e-03	0	44	0	834666496	23	5989
2026-01-15 23:44:09.08	146.50	38.60	-31.7	-36.3	10.5	2.66e-03	0	44	0	836763648	23	6112
2026-01-15 23:44:10.08	146.81	38.42	-32.0	-37.2	9.8	5.71e-03	0	44	0	838860800	23	6614
2026-01-15 23:44:11.08	147.12	38.24	-32.4	-38.6	8.4	3.79e-02	0	44	0	839909376	24	7332
2026-01-15 23:44:12.07	147.42	38.06	-32.2	-37.5	9.2	3.94e-02	0	44	0	842006528	24	6682
2026-01-15 23:44:13.08	147.73	37.88	-31.5	-35.1	11.0	6.17e-03	0	44	0	844103680	24	5455
2026-01-15 23:44:14.07	148.02	37.70	-30.9	-34.2	12.4	6.77e-04	0	44	0	846200832	22	5287
2026-01-15 23:44:15.07	148.32	37.52	-30.7	-34.2	12.7	2.11e-03	0	44	0	847249408	21	5393
2026-01-15 23:44:16.07	148.61	37.34	-31.2	-35.1	11.8	2.14e-04	0	44	0	849346560	22	5655
2026-01-15 23:44:17.07	148.90	37.16	-31.5	-35.8	11.0	9.80e-04	0	44	0	851443712	23	5897
2026-01-15 23:44:18.06	149.18	36.98	-32.3	-38.2	8.7	7.79e-03	0	44	0	853540864	24	7126
2026-01-15 23:44:19.07	149.47	36.80	-32.6	-39.1	7.6	7.80e-02	0	44	0	855638016	25	7581
2026-01-15 23:44:20.07	149.75	36.63	-32.4	-37.9	8.4	7.10e-02	0	44	0	856686592	25	6841
2026-01-15 23:44:21.08	150.03	36.45	-31.9	-36.5	9.9	2.52e-02	0	44	0	858783744	24	6129
2026-01-15 23:44:22.09	150.31	36.26	-31.7	-35.9	10.5	3.67e-03	0	44	0	860880896	24	5816
2026-01-15 23:44:23.09	150.58	36.09	-31.8	-36.6	10.2	7.40e-03	0	44	0	862978048	23	6300
2026-01-15 23:44:24.09	150.85	35.91	-31.7	-36.4	10.4	4.04e-03	0	44	0	865075200	23	6203
2026-01-15 23:44:25.10	151.11	35.73	-32.1	-37.3	9.3	1.20e-02	0	44	0	866123776	24	6581
2026-01-15 23:44:26.10	151.38	35.55	-32.7	-39.5	7.3	7.45e-02	0	44	0	868220928	25	7868
2026-01-15 23:44:27.10	151.64	35.38	-32.8	-40.1	6.7	2.02e-01	0	44	0	870318080	25	8394
2026-01-15 23:44:28.10	151.89	35.20	-32.5	-38.7	7.8	1.35e-01	0	44	0	872415232	25	7341
2026-01-15 23:44:29.10	152.15	35.02	-32.1	-37.5	9.2	3.58e-02	0	44	0	874512384	24	6665
2026-01-15 23:44:30.09	152.40	34.85	-31.9	-37.1	9.8	1.12e-02	0	44	0	875560960	23	6556
2026-01-15 23:44:31.10	152.65	34.67	-32.0	-37.3	9.7	1.04e-02	0	44	0	877658112	23	6685
2026-01-15 23:44:32.09	152.89	34.50	-31.8	-36.7	10.1	1.01e-02	0	44	0	879755264	23	6342
2026-01-15 23:44:33.09	153.14	34.33	-31.9	-37.3	9.7	1.02e-02	0	44	0	881852416	23	6659
2026-01-15 23:44:34.09	153.38	34.15	-32.3	-38.4	8.6	2.24e-02	0	44	0	882900992	24	7205
2026-01-15 23:44:35.10	153.62	33.98	-32.8	-40.1	6.8	7.20e-02	0	44	0	884998144	25	8314
2026-01-15 23:44:36.10	153.85	33.80	-32.6	-39.1	7.5	1.35e-01	0	44	0	887095296	25	7570
2026-01-15 23:44:37.10	154.09	33.63	-32.1	-36.7	9.3	4.19e-02	0	44	0	889192448	25	6149
2026-01-15 23:44:38.10	154.32	33.46	-31.5	-35.1	11.0	7.65e-03	0	44	0	891289600	24	5451
2026-01-15 23:44:39.09	154.55	33.29	-31.1	-34.4	11.9	7.48e-04	0	44	0	892338176	23	5256
2026-01-15 23:44:40.10	154.77	33.12	-31.0	-34.1	12.1	3.28e-04	0	44	0	894435328	23	5128
2026-01-15 23:44:41.10	155.00	32.94	-31.0	-34.7	12.0	5.91e-04	0	44	0	896532480	22	5488
2026-01-15 23:44:42.10	155.22	32.77	-31.4	-35.8	11.2	4.28e-04	0	44	0	898629632	22	5973
2026-01-15 23:44:43.10	155.44	32.60	-32.1	-37.2	9.4	8.03e-03	0	44	0	900726784	24	6491
2026-01-15 23:44:44.10	155.66	32.43	-32.2	-37.6	9.1	1.90e-02	0	44	0	901775360	24	6754
2026-01-15 23:44:45.10	155.87	32.27	-32.6	-39.1	7.5	6.28e-02	0	44	0	903872512	25	7620
2026-01-15 23:44:46.10	156.09	32.10	-32.5	-38.6	7.9	8.58e-02	0	44	0	905969664	25	7269
2026-01-15 23:44:47.10	156.30	31.93	-32.2	-37.9	8.8	4.94e-02	0	44	0	908066816	24	6904
2026-01-15 23:44:48.09	156.50	31.76	-31.8	-36.2	10.1	1.92e-02	0	44	0	909115392	24	5997
2026-01-15 23:44:49.09	156.71	31.60	-31.3	-34.5	11.3	1.70e-03	0	44	0	911212544	24	5227
2026-01-15 23:44:50.09	156.92	31.43	-30.9	-34.2	12.2	1.83e-03	0	44	0	913309696	22	5314
2026-01-15 23:44:51.09	157.12	31.27	-30.6	-34.0	12.7	1.40e-03	0	44	0	915406848	21	5340
2026-01-15 23:44:52.09	157.32	31.10	-30.7	-34.2	12.6	7.47e-05	0	44	0	917504000	21	5424
2026-01-15 23:44:53.09	157.52	30.94	-30.7	-34.4	12.4	1.54e-03	0	44	0	918552576	21	5504
2026-01-15 23:44:54.09	157.71	30.77	-31.1	-35.2	11.6	1.74e-03	0	44	0	920649728	22	5736
2026-01-15 23:44:55.08	157.91	30.61	-31.4	-36.1	10.9	1.34e-03	0	44	0	922746880	22	6155
2026-01-15 23:44:56.09	158.10	30.45	-31.7	-36.5	10.3	4.33e-03	0	44	0	924844032	23	6251
2026-01-15 23:44:57.10	158.29	30.28	-31.9	-37.3	9.6	1.14e-02	0	44	0	926941184	23	6697
2026-01-15 23:44:58.10	158.48	30.12	-31.8	-36.8	10.0	1.04e-02	0	44	0	927989760	23	6425
2026-01-15 23:44:59.11	158.67	29.96	-31.7	-36.6	10.1	8.69e-03	0	44	0	930086912	23	6327
2026-01-15 23:45:00.10	158.86	29.80	-31.6	-36.2	10.4	5.00e-03	0	44	0	932184064	23	6118
2026-01-15 23:45:01.11	159.04	29.64	-31.4	-35.6	10.8	3.26e-03	0	44	0	934281216	23	5829
2026-01-15 23:45:02.11	159.22	29.48	-31.3	-35.7	11.1	4.69e-03	0	44	0	936378368	22	5955
2026-01-15 23:45:03.11	159.40	29.32	-31.0	-34.9	11.7	5.48e-04	0	44	0	937426944	22	5618
2026-01-15 23:45:04.12	159.58	29.16	-31.1	-35.2	11.5	7.67e-04	0	44	0	939524096	22	5727
2026-01-15 23:45:05.12	159.76	29.00	-31.0	-34.8	11.8	2.56e-03	0	44	0	941621248	22	5545
2026-01-15 23:45:06.12	159.94	28.85	-31.3	-35.7	11.1	1.24e-03	0	44	0	943718400	22	6001
2026-01-15 23:45:07.12	160.11	28.69	-31.3	-35.7	11.1	1.69e-03	0	44	0	944766976	22	5995
2026-01-15 23:45:08.13	160.28	28.53	-31.5	-36.3	10.7	4.86e-03	0	44	0	946864128	22	6250
2026-01-15 23:45:09.13	160.45	28.38	-31.6	-36.3	10.3	7.40e-03	0	44	0	948961280	23	6199
2026-01-15 23:45:10.13	160.62	28.22	-31.4	-35.4	10.9	3.37e-03	0	44	0	951058432	23	5747
2026-01-15 23:45:11.13	160.79	28.07	-31.2	-35.3	11.4	1.46e-03	0	44	0	953155584	22	5777
2026-01-15 23:45:12.13	160.95	27.92	-31.0	-34.7	11.8	2.83e-03	0	44	0	954204160	22	5527
2026-01-15 23:45:13.13	161.12	27.76	-30.7	-34.3	12.4	1.51e-04	0	44	0	956301312	21	5467
2026-01-15 23:45:14.14	161.28	27.61	-30.6	-34.0	12.6	3.61e-04	0	44	0	958398464	21	5332
2026-01-15 23:45:15.14	161.44	27.46	-30.5	-33.9	12.7	2.46e-03	0	44	0	960495616	21	5311
2026-01-15 23:45:16.14	161.60	27.31	-30.6	-34.0	12.6	3.57e-04	0	44	0	962592768	21	5350
2026-01-15 23:45:17.15	161.76	27.15	-30.3	-33.7	13.2	1.99e-04	0	44	0	963641344	20	5352
2026-01-15 23:45:18.16	161.92	27.00	-30.4	-34.0	13.0	3.73e-05	0	44	0	965738496	20	5444
2026-01-15 23:45:19.16	162.07	26.85	-30.6	-34.1	12.5	4.20e-04	0	44	0	967835648	21	5409
2026-01-15 23:45:20.16	162.23	26.71	-30.8	-34.8	12.1	2.59e-04	0	44	0	969932800	21	5679
2026-01-15 23:45:21.16	162.38	26.56	-30.7	-34.4	12.3	2.08e-04	0	44	0	972029952	21	5542
2026-01-15 23:45:22.17	162.53	26.41	-30.9	-35.1	11.8	7.15e-04	0	44	0	973078528	21	5858
2026-01-15 23:45:23.17	162.68	26.26	-30.9	-35.1	11.8	3.88e-04	0	44	0	975175680	21	5866
2026-01-15 23:45:24.17	162.83	26.12	-31.0	-35.4	11.6	5.82e-04	0	44	0	977272832	21	5981
2026-01-15 23:45:25.17	162.98	25.97	-31.1	-35.3	11.3	1.00e-03	0	44	0	979369984	22	5836
2026-01-15 23:45:26.17	163.12	25.83	-31.2	-35.7	11.0	4.39e-03	0	44	0	981467136	22	6043
2026-01-15 23:45:27.16	163.27	25.68	-31.1	-35.2	11.4	1.27e-03	0	44	0	982515712	22	5777
2026-01-15 23:45:28.17	163.41	25.54	-30.9	-34.6	11.8	7.64e-04	0	44	0	984612864	22	5510
2026-01-15 23:45:29.16	163.55	25.40	-30.7	-34.6	12.1	5.90e-04	0	44	0	986710016	21	5655
2026-01-15 23:45:30.17	163.69	25.25	-30.5	-34.0	12.6	2.30e-03	0	44	0	988807168	21	5352
2026-01-15 23:45:31.17	163.83	25.11	-30.3	-33.4	13.0	4.27e-05	0	44	0	990904320	21	5122
2026-01-15 23:45:32.18	163.97	24.97	-30.1	-33.3	13.4	2.19e-04	0	44	0	991952896	20	5171
2026-01-15 23:45:33.18	164.11	24.83	-30.2	-33.4	13.3	1.44e-05	0	43	0	994050048	20	5224
2026-01-15 23:45:34.18	164.24	24.69	-30.4	-34.0	12.9	3.66e-05	0	44	0	996147200	20	5473
2026-01-15 23:45:35.18	164.38	24.55	-30.2	-33.5	13.2	3.81e-05	0	44	0	998244352	20	5272
2026-01-15 23:45:36.19	164.51	24.41	-30.2	-33.4	13.3	1.83e-05	0	44	0	999292928	20	5237
2026-01-15 23:45:37.19	164.65	24.27	-30.2	-33.6	13.2	1.52e-05	0	44	0	1001390080	20	5311
2026-01-15 23:45:38.19	164.78	24.13	-30.3	-33.7	13.0	3.05e-05	0	44	0	1003487232	20	5367
2026-01-15 23:45:39.18	164.91	23.99	-30.3	-33.8	13.0	4.42e-05	0	43	0	1005584384	20	5421
2026-01-15 23:45:40.18	165.03	23.86	-30.3	-34.0	12.8	3.17e-04	0	44	0	1007681536	20	5474
2026-01-15 23:45:41.18	165.16	23.72	-30.3	-33.8	12.9	3.96e-05	0	44	0	1008730112	20	5419
2026-01-15 23:45:42.18	165.29	23.59	-30.3	-34.0	12.8	3.89e-05	0	44	0	1010827264	20	5494
2026-01-15 23:45:43.18	165.41	23.45	-30.2	-33.7	13.0	3.50e-04	0	44	0	1012924416	20	5356
2026-01-15 23:45:44.19	165.54	23.32	-30.3	-33.8	13.0	3.35e-05	0	44	0	1015021568	20	5416
2026-01-15 23:45:45.19	165.66	23.18	-30.3	-33.9	12.9	3.50e-05	0	43	0	1017118720	20	5460
2026-01-15 23:45:46.20	165.79	23.05	-30.3	-33.9	12.9	5.03e-05	0	44	0	1018167296	20	5457
2026-01-15 23:45:47.20	165.91	22.91	-30.1	-33.4	13.2	3.04e-04	0	44	0	1020264448	20	5242
2026-01-15 23:45:48.20	166.03	22.78	-30.0	-33.0	13.4	8.30e-06	0	44	0	1022361600	20	5115
2026-01-15 23:45:49.21	166.15	22.65	-30.0	-33.2	13.3	1.06e-05	0	44	0	1024458752	20	5173
2026-01-15 23:45:50.21	166.27	22.52	-30.0	-33.2	13.3	3.38e-04	0	44	0	1026555904	20	5161
2026-01-15 23:45:51.21	166.39	22.39	-30.0	-33.1	13.4	7.60e-06	0	44	0	1027604480	20	5129
2026-01-15 23:45:52.22	166.51	22.26	-30.2	-33.6	13.0	3.20e-05	0	44	0	1029701632	20	5342
2026-01-15 23:45:53.22	166.62	22.13	-30.0	-32.9	13.5	1.90e-05	0	43	0	1031798784	20	5063
2026-01-15 23:45:54.22	166.74	22.00	-29.2	-32.1	13.5	8.30e-06	0	44	0	1033895936	20	5060
2026-01-15 23:45:55.21	166.85	21.87	-30.0	-33.4	13.4	1.37e-05	0	44	0	1034944512	19	5338
2026-01-15 23:45:56.21	166.96	21.74	-30.1	-33.4	12.5	1.67e-05	0	44	0	1037041664	20	5227
2026-01-15 23:45:57.21	167.07	21.62	-30.2	-33.6	12.9	2.89e-05	0	44	0	1039138816	20	5314
2026-01-15 23:45:58.22	167.19	21.49	-30.4	-34.0	12.5	4.19e-05	0	43	0	1041235968	20	5488
2026-01-15 23:45:59.21	167.30	21.36	-30.4	-34.2	12.7	7.24e-05	0	44	0	1043333120	20	5553
2026-01-15 23:46:00.22	167.41	21.24	-30.5	-34.0	12.5	1.16e-04	0	43	0	1044381696	21	5373
2026-01-15 23:46:01.21	167.52	21.11	-30.5	-34.0	12.5	2.26e-03	0	44	0	1046478848	21	5357
2026-01-15 23:46:02.22	167.62	20.99	-30.5	-34.0	12.4	1.40e-04	0	44	0	1048576000	21	5382
2026-01-15 23:46:03.22	167.73	20.86	-30.5	-33.9	12.5	1.39e-04	0	44	0	1050673152	21	5355
2026-01-15 23:46:04.23	167.84	20.74	-30.6	-34.3	12.3	2.36e-03	0	44	0	1052770304	21	5486
2026-01-15 23:46:05.22	167.94	20.62	-30.6	-34.1	12.3	1.54e-04	0	44	0	1053818880	21	5420
2026-01-15 23:46:06.23	168.05	20.49	-30.6	-34.1	12.4	1.38e-04	0	44	0	1055916032	21	5418
2026-01-15 23:46:07.23	168.15	20.37	-30.6	-34.3	12.2	1.98e-04	0	44	0	1058013184	21	5481
2026-01-15 23:46:08.23	168.26	20.25	-30.3	-33.8	12.8	2.06e-03	0	44	0	1060110336	20	5420
2026-01-15 23:46:09.23	168.36	20.13	-30.1	-33.2	13.3	2.51e-05	0	44	0	1062207488	20	5156
2026-01-15 23:46:10.22	168.46	20.01	-29.9	-33.3	13.6	6.80e-06	0	44	0	1063256064	19	5319
2026-01-15 23:46:11.22	168.56	19.89	-29.9	-33.2	13.7	1.22e-05	0	44	0	1065353216	19	5256
2026-01-15 23:46:12.22	168.66	19.77	-29.9	-33.1	13.8	2.10e-04	0	44	0	1067450368	19	5231
2026-01-15 23:46:13.22	168.76	19.65	-30.0	-32.9	13.5	9.90e-06	0	44	0	1069547520	20	5045
2026-01-15 23:46:14.22	168.86	19.53	-29.8	-33.0	13.8	6.10e-06	0	43	0	1071644672	19	5180
2026-01-15 23:46:15.22	168.95	19.41	-29.8	-32.8	13.9	2.39e-04	0	44	0	1072693248	19	5109
2026-01-15 23:46:16.22	169.05	19.29	-29.9	-33.2	13.4	9.90e-06	0	43	0	1074790400	19	5267
2026-01-15 23:46:17.22	169.15	19.18	-29.9	-33.2	13.7	6.80e-06	0	44	0	1076887552	19	5273
2026-01-15 23:46:18.22	169.24	19.06	-29.9	-33.1	13.6	4.50e-04	0	44	0	1078984704	19	5247
2026-01-15 23:46:19.22	169.34	18.94	-30.0	-33.0	13.4	2.30e-03	0	44	0	1080033280	20	5105
2026-01-15 23:46:20.22	169.43	18.83	-30.1	-33.5	13.1	2.05e-05	0	44	0	1082130432	20	5269
2026-01-15 23:46:21.22	169.53	18.71	-30.2	-33.6	13.0	3.35e-05	0	44	0	1084227584	20	5329
2026-01-15 23:46:22.23	169.62	18.60	-30.3	-33.9	12.8	2.28e-03	0	44	0	1086324736	20	5435
2026-01-15 23:46:23.23	169.71	18.48	-30.2	-33.7	12.9	2.08e-03	0	43	0	1088421888	20	5381
2026-01-15 23:46:24.23	169.80	18.37	-30.3	-33.9	12.8	5.26e-05	0	44	0	1089470464	20	5445
2026-01-15 23:46:25.23	169.89	18.26	-30.5	-34.3	12.5	2.47e-03	0	44	0	1091567616	20	5638
2026-01-15 23:46:26.23	169.98	18.14	-30.3	-33.9	12.8	2.39e-03	0	44	0	1093664768	20	5447
2026-01-15 23:46:27.23	170.07	18.03	-30.3	-33.8	12.8	5.41e-05	0	43	0	1095761920	20	5415
2026-01-15 23:46:28.23	170.16	17.92	-30.3	-33.8	12.8	6.86e-05	0	43	0	1097859072	20	5419
2026-01-15 23:46:29.23	170.25	17.81	-30.0	-33.2	13.2	2.24e-03	0	44	0	1098907648	20	5158
2026-01-15 23:46:30.23	170.34	17.69	-30.0	-32.9	13.4	2.33e-04	0	44	0	1101004800	20	5069
2026-01-15 23:46:31.23	170.43	17.58	-30.0	-33.4	13.5	7.60e-06	0	44	0	1103101952	19	5354
2026-01-15 23:46:32.23	170.51	17.47	-29.9	-33.3	13.5	2.03e-03	0	44	0	1105199104	19	5311
2026-01-15 23:46:33.23	170.60	17.36	-29.8	-33.0	13.7	2.05e-04	0	44	0	1106247680	19	5203
2026-01-15 23:46:34.24	170.68	17.25	-29.9	-33.2	13.6	2.03e-03	0	44	0	1108344832	19	5269
2026-01-15 23:46:35.24	170.77	17.14	-29.5	-32.3	14.2	3.80e-06	0	44	0	1110441984	19	4941
2026-01-15 23:46:36.25	170.85	17.03	-29.3	-32.2	14.5	3.68e-04	0	44	0	1112539136	18	5039
2026-01-15 23:46:37.25	170.94	16.93	-29.2	-31.9	14.7	2.12e-03	0	44	0	1114636288	18	4925
2026-01-15 23:46:38.25	171.02	16.82	-29.3	-32.2	14.5	7.00e-07	0	44	0	1115684864	18	5039
2026-01-15 23:46:39.26	171.10	16.71	-29.5	-32.2	14.2	3.71e-04	0	44	0	1117782016	19	4940
2026-01-15 23:46:40.25	171.18	16.60	-29.7	-32.7	13.9	1.95e-03	0	44	0	1119879168	19	5102
2026-01-15 23:46:41.25	171.27	16.50	-29.8	-33.2	13.5	1.88e-03	0	44	0	1121976320	19	5292
2026-01-15 23:46:42.25	171.35	16.39	-29.6	-32.6	13.9	1.29e-05	0	44	0	1124073472	19	5082
2026-01-15 23:46:43.25	171.43	16.29	-29.6	-32.7	13.8	2.07e-03	0	44	0	1125122048	19	5113
2026-01-15 23:46:44.25	171.51	16.18	-29.7	-32.9	13.6	1.89e-03	0	44	0	1127219200	19	5201
2026-01-15 23:46:45.26	171.59	16.08	-29.8	-33.0	13.6	2.55e-04	0	44	0	1129316352	19	5226
2026-01-15 23:46:46.26	171.66	15.97	-29.7	-32.9	13.6	2.20e-03	0	43	0	1131413504	19	5198
2026-01-15 23:46:47.27	171.74	15.87	-29.8	-33.0	13.6	1.80e-03	0	44	0	1133510656	19	5234
2026-01-15 23:46:48.27	171.82	15.76	-30.0	-33.6	13.2	3.81e-04	0	44	0	1134559232	19	5468
2026-01-15 23:46:49.27	171.90	15.66	-29.9	-33.5	13.3	2.05e-03	0	44	0	1136656384	19	5451
2026-01-15 23:46:50.27	171.98	15.56	-30.1	-33.5	12.9	1.77e-03	0	44	0	1138753536	20	5324
2026-01-15 23:46:51.28	172.05	15.45	-30.2	-33.8	12.6	5.03e-04	0	44	0	1140850688	20	5484
2026-01-15 23:46:52.28	172.13	15.35	-30.2	-34.0	12.5	1.81e-03	0	44	0	1142947840	20	5584
2026-01-15 23:46:53.28	172.20	15.25	-30.2	-34.0	12.5	1.98e-03	0	44	0	1143996416	20	5567
2026-01-15 23:46:54.28	172.28	15.15	-30.3	-34.1	12.4	7.05e-04	0	44	0	1146093568	20	5601
2026-01-15 23:46:55.28	172.35	15.05	-30.3	-34.3	12.3	1.99e-03	0	44	0	1148190720	20	5677
2026-01-15 23:46:56.29	172.43	14.94	-30.2	-34.1	12.4	1.40e-04	0	44	0	1150287872	20	5600
2026-01-15 23:46:57.29	172.50	14.84	-30.3	-34.1	12.4	7.25e-04	0	44	0	1152385024	20	5622
2026-01-15 23:46:58.30	172.57	14.74	-30.3	-34.1	12.4	2.13e-03	0	44	0	1153433600	20	5611
2026-01-15 23:46:59.30	172.64	14.64	-30.3	-34.1	12.4	1.66e-04	0	43	0	1155530752	20	5604
2026-01-15 23:47:00.29	172.72	14.55	-30.4	-34.3	12.3	8.42e-04	0	44	0	1157627904	20	5697
2026-01-15 23:47:01.30	172.79	14.45	-30.2	-33.9	12.6	2.09e-03	0	44	0	1159725056	20	5485
2026-01-15 23:47:02.30	172.86	14.35	-30.1	-33.6	12.7	1.86e-03	0	44	0	1160773632	20	5384
2026-01-15 23:47:03.31	172.93	14.25	-30.0	-33.3	12.9	4.35e-04	0	44	0	1162870784	20	5268
2026-01-15 23:47:04.30	173.00	14.15	-30.0	-33.3	13.0	2.08e-03	0	44	0	1164967936	20	5244
2026-01-15 23:47:05.30	173.07	14.05	-30.1	-33.5	12.8	1.58e-03	0	44	0	1167065088	20	5340
2026-01-15 23:47:06.31	173.14	13.96	-30.0	-33.2	13.0	3.68e-04	0	44	0	1169162240	20	5209
2026-01-15 23:47:07.31	173.21	13.86	-30.0	-33.3	13.0	3.24e-04	0	44	0	1170210816	20	5242
2026-01-15 23:47:08.32	173.28	13.76	-29.9	-32.9	13.2	1.23e-03	0	44	0	1172307968	20	5086
2026-01-15 23:47:09.32	173.34	13.67	-29.8	-33.1	13.6	3.45e-04	0	44	0	1174405120	19	5242
2026-01-15 23:47:10.33	173.41	13.57	-30.0	-33.6	13.2	2.33e-04	0	44	0	1176502272	19	5434
2026-01-15 23:47:11.32	173.48	13.48	-30.1	-33.4	12.9	9.80e-04	0	44	0	1178599424	20	5296
2026-01-15 23:47:12.32	173.54	13.38	-30.3	-34.0	12.5	4.81e-04	0	44	0	1179648000	20	5536
2026-01-15 23:47:13.32	173.61	13.29	-30.4	-34.4	12.2	3.83e-04	0	44	0	1181745152	20	5680
2026-01-15 23:47:14.33	173.68	13.19	-30.3	-34.0	12.5	1.50e-04	0	44	0	1183842304	20	5527
2026-01-15 23:47:15.32	173.74	13.10	-30.3	-33.9	12.5	4.57e-04	0	44	0	1185939456	20	5498
2026-01-15 23:47:16.32	173.81	13.01	-30.4	-34.2	12.3	1.51e-03	0	44	0	1186988032	20	5627
2026-01-15 23:47:17.32	173.87	12.91	-30.4	-34.3	12.2	1.97e-04	0	44	0	1189085184	20	5650
2026-01-15 23:47:18.32	173.94	12.82	-30.4	-34.2	12.3	3.68e-04	0	44	0	1191182336	20	5629
2026-01-15 23:47:19.31	174.00	12.73	-30.2	-33.7	12.6	1.54e-03	0	44	0	1193279488	20	5407
2026-01-15 23:47:20.32	174.06	12.63	-30.1	-33.6	12.7	6.25e-05	0	44	0	1195376640	20	5365
2026-01-15 23:47:21.33	174.13	12.54	-30.3	-34.0	12.5	2.97e-04	0	43	0	1197473792	20	5517
2026-01-15 23:47:22.32	174.19	12.45	-30.2	-33.8	12.6	1.67e-03	0	44	0	1198522368	20	5447
2026-01-15 23:47:23.33	174.25	12.36	-30.4	-34.4	12.1	1.91e-04	0	44	0	1200619520	20	5716
2026-01-15 23:47:24.33	174.31	12.27	-30.5	-34.2	11.9	7.13e-04	0	44	0	1202716672	21	5526
2026-01-15 23:47:25.33	174.38	12.18	-30.4	-34.4	12.1	5.39e-04	0	44	0	1204813824	20	5719
2026-01-15 23:47:26.33	174.44	12.09	-30.6	-34.4	11.8	1.76e-03	0	44	0	1205862400	21	5595
2026-01-15 23:47:27.34	174.50	12.00	-30.7	-34.9	11.4	9.12e-04	0	44	0	1207959552	21	5807
2026-01-15 23:47:28.34	174.56	11.91	-30.6	-34.5	11.7	9.97e-04	0	44	0	1210056704	21	5635
2026-01-15 23:47:29.34	174.62	11.82	-30.5	-34.3	11.8	3.78e-04	0	44	0	1212153856	21	5545
2026-01-15 23:47:30.35	174.68	11.73	-30.5	-34.1	12.0	3.84e-04	0	44	0	1214251008	21	5464
2026-01-15 23:47:31.35	174.74	11.64	-30.5	-34.1	11.9	7.85e-04	0	44	0	1215299584	21	5478
2026-01-15 23:47:32.35	174.80	11.55	-30.5	-34.6	11.9	3.00e-04	0	44	0	1217396736	20	5806
2026-01-15 23:47:33.35	174.86	11.46	-30.6	-34.6	11.6	7.80e-04	0	44	0	1219493888	21	5675
2026-01-15 23:47:34.35	174.92	11.37	-30.7	-34.8	11.4	1.03e-03	0	44	0	1221591040	21	5784
2026-01-15 23:47:35.36	174.98	11.28	-30.6	-34.7	11.5	7.51e-04	0	43	0	1223688192	21	5717
2026-01-15 23:47:36.35	175.03	11.20	-30.7	-34.8	11.4	1.32e-03	0	44	0	1224736768	21	5780
2026-01-15 23:47:37.35	175.09	11.11	-30.5	-34.3	11.7	5.32e-04	0	43	0	1226833920	21	5588
2026-01-15 23:47:38.35	175.15	11.02	-30.6	-34.5	11.6	7.32e-04	0	44	0	1228931072	21	5653
2026-01-15 23:47:39.36	175.20	10.94	-30.8	-35.2	11.1	1.48e-03	0	44	0	1231028224	21	6001
2026-01-15 23:47:40.35	175.26	10.85	-30.7	-34.8	11.4	1.50e-03	0	44	0	1232076800	21	5811
2026-01-15 23:47:41.36	175.32	10.76	-30.7	-35.0	11.3	9.12e-04	0	44	0	1234173952	21	5867
2026-01-15 23:47:42.36	175.37	10.68	-30.9	-35.5	10.8	2.39e-03	0	44	0	1236271104	21	6110
2026-01-15 23:47:43.36	175.43	10.59	-30.7	-34.8	11.3	1.57e-03	0	44	0	1238368256	21	5795
2026-01-15 23:47:44.37	175.49	10.51	-30.6	-34.7	11.4	8.76e-04	0	44	0	1240465408	21	5742
2026-01-15 23:47:45.37	175.54	10.42	-30.5	-34.4	11.6	7.75e-04	0	44	0	1242562560	21	5613
2026-01-15 23:47:46.38	175.60	10.34	-30.6	-34.8	11.4	9.12e-04	0	44	0	1243611136	21	5787
2026-01-15 23:47:47.37	175.65	10.25	-30.7	-34.8	11.3	1.52e-03	0	44	0	1245708288	21	5815
2026-01-15 23:47:48.37	175.70	10.17	-30.6	-34.5	11.5	1.07e-03	0	44	0	1247805440	21	5686
2026-01-15 23:47:49.37	175.76	10.09	-30.5	-34.4	11.6	1.15e-03	0	44	0	1249902592	21	5620
2026-01-15 23:47:50.38	175.81	10.00	-30.5	-34.2	11.7	6.66e-04	0	44	0	1250951168	21	5560
2026-01-15 23:47:51.38	175.87	9.92	-30.5	-34.2	11.7	7.18e-04	0	44	0	1253048320	21	5544
2026-01-15 23:47:52.38	175.92	9.83	-29.4	-33.7	11.6	4.14e-04	0	44	0	1255145472	20	5896
2026-01-15 23:47:53.37	175.97	9.75	-30.3	-34.3	12.0	4.36e-04	0	44	0	1257242624	20	5666
2026-01-15 23:47:54.38	176.02	9.67	-30.6	-34.6	11.3	6.77e-04	0	44	0	1259339776	21	5700
2026-01-15 23:47:55.37	176.08	9.59	-30.6	-34.8	10.8	1.69e-03	0	44	0	1260388352	21	5828
2026-01-15 23:47:56.37	176.13	9.51	-30.4	-34.0	11.8	9.47e-04	0	44	0	1262485504	21	5476
2026-01-15 23:47:57.37	176.18	9.42	-30.4	-33.9	11.8	7.33e-04	0	44	0	1264582656	21	5432
2026-01-15 23:47:58.37	176.23	9.34	-30.2	-33.9	12.2	2.55e-04	0	43	0	1266679808	20	5524
2026-01-15 23:47:59.37	176.28	9.26	-30.3	-34.2	11.9	2.84e-04	0	44	0	1267728384	20	5677
2026-01-15 23:48:00.37	176.33	9.18	-30.4	-34.6	11.7	7.83e-04	0	44	0	1269825536	20	5832
2026-01-15 23:48:01.38	176.38	9.10	-30.3	-34.4	11.9	3.78e-04	0	44	0	1271922688	20	5730
2026-01-15 23:48:02.38	176.43	9.02	-30.4	-34.5	11.7	4.71e-04	0	44	0	1274019840	20	5813
2026-01-15 23:48:03.37	176.48	8.94	-30.4	-34.7	11.6	5.00e-04	0	44	0	1276116992	20	5861
2026-01-15 23:48:04.37	176.53	8.86	-30.6	-34.8	11.2	3.08e-03	0	43	0	1277165568	21	5834
2026-01-15 23:48:05.37	176.58	8.78	-30.7	-35.2	10.9	2.52e-03	0	43	0	1279262720	21	5991
2026-01-15 23:48:06.37	176.63	8.70	-30.7	-35.1	10.9	1.81e-03	0	44	0	1281359872	21	5946
2026-01-15 23:48:07.37	176.68	8.62	-30.7	-35.2	10.9	2.27e-03	0	43	0	1283457024	21	6025
2026-01-15 23:48:08.38	176.73	8.54	-30.8	-35.3	10.8	2.91e-03	0	44	0	1285554176	21	6064
