passes_logs/2026/01/15/R2M6_AANII_01/R2M6_AANII_01__20260115_004528_NOAA_21_JPSS-2_rec.log

#Pass ID: 20260115_004528_NOAA 21 (JPSS-2)
#Satellite: NOAA 21 (JPSS-2)
#Configuration: NOAA 21
#almurnet v.1.7.20240730
#Start time: 2026-01-15 00:45:28

#Version: 2.2.20231116
#Station: R2M6_AANII_01
#Location: 30.233357 lon 59.946436 lat
#TLE: 1 54234U 22150A   26014.16688770  .00000052  00000+0  45394-4 0  9999
#TLE: 2 54234  98.7497 315.0767 0000655 297.6997  62.4113 14.19534648164696

#Time	Az	El	Level	Level2	SNR	BER	BlckErr	Temp	State	Recorded	gain1	gain2
2026-01-15 00:45:28.23	16.08	6.94	-31.3	-36.7	4.6	1.41e+00	0	43	0	0	22	6675
2026-01-15 00:45:29.22	16.06	7.02	-31.9	-38.5	4.3	1.43e+00	0	42	104	0	23	7673
2026-01-15 00:45:30.22	16.04	7.10	-31.9	-37.5	6.7	2.37e-01	0	42	0	0	23	6873
2026-01-15 00:45:31.23	16.02	7.17	-31.7	-36.9	7.2	1.19e-01	0	42	0	2097152	23	6506
2026-01-15 00:45:32.23	16.01	7.25	-31.8	-37.1	7.1	1.61e-01	0	42	0	6291456	23	6628
2026-01-15 00:45:33.23	15.99	7.33	-31.6	-36.3	7.7	9.95e-02	0	42	0	9437184	23	6179
2026-01-15 00:45:34.24	15.97	7.41	-31.4	-35.6	8.2	5.92e-02	0	42	0	12582912	23	5832
2026-01-15 00:45:35.24	15.95	7.48	-31.1	-35.2	8.9	3.37e-02	0	43	0	15728640	22	5739
2026-01-15 00:45:36.24	15.93	7.56	-30.8	-34.6	9.6	1.40e-02	0	43	0	18874368	21	5599
2026-01-15 00:45:37.24	15.91	7.64	-30.9	-34.9	9.5	1.28e-02	0	42	0	22020096	21	5717
2026-01-15 00:45:38.25	15.89	7.72	-30.7	-34.4	9.9	1.01e-02	0	42	0	24117248	21	5479
2026-01-15 00:45:39.25	15.87	7.80	-30.8	-34.4	9.8	9.45e-03	0	42	0	27262976	21	5498
2026-01-15 00:45:40.25	15.85	7.87	-30.7	-34.2	10.0	7.79e-03	0	43	0	30408704	21	5412
2026-01-15 00:45:41.26	15.83	7.95	-30.8	-34.7	9.6	1.18e-02	0	43	0	33554432	21	5615
2026-01-15 00:45:42.27	15.81	8.03	-30.7	-34.2	10.0	8.64e-03	0	43	0	36700160	21	5386
2026-01-15 00:45:43.27	15.79	8.11	-30.8	-34.7	9.7	1.03e-02	0	42	0	39845888	21	5634
2026-01-15 00:45:44.28	15.77	8.19	-31.3	-35.6	8.7	3.22e-02	0	43	0	42991616	22	5913
2026-01-15 00:45:45.28	15.75	8.27	-31.0	-34.5	9.5	1.61e-02	0	42	0	47185920	22	5428
2026-01-15 00:45:46.29	15.73	8.36	-31.1	-35.0	9.2	1.77e-02	0	43	0	49283072	22	5608
2026-01-15 00:45:47.28	15.71	8.44	-31.1	-35.1	9.1	2.39e-02	0	43	0	52428800	22	5663
2026-01-15 00:45:48.29	15.69	8.52	-30.8	-34.1	9.8	1.29e-02	0	43	0	55574528	22	5253
2026-01-15 00:45:49.29	15.66	8.60	-30.7	-34.2	10.1	7.15e-03	0	43	0	58720256	21	5384
2026-01-15 00:45:50.30	15.64	8.68	-30.8	-34.3	10.0	7.23e-03	0	43	0	61865984	21	5448
2026-01-15 00:45:51.30	15.62	8.76	-30.8	-34.4	10.0	7.58e-03	0	43	0	65011712	21	5476
2026-01-15 00:45:52.30	15.60	8.84	-30.9	-34.8	9.7	1.25e-02	0	43	0	68157440	21	5645
2026-01-15 00:45:53.29	15.58	8.92	-30.8	-34.6	9.9	8.76e-03	0	43	0	71303168	21	5565
2026-01-15 00:45:54.29	15.56	9.01	-30.9	-34.6	9.8	1.18e-02	0	43	0	74448896	21	5566
2026-01-15 00:45:55.30	15.53	9.09	-30.8	-34.3	10.1	6.76e-03	0	43	0	77594624	21	5433
2026-01-15 00:45:56.30	15.51	9.17	-30.4	-33.3	10.8	3.53e-03	0	43	0	80740352	21	5029
2026-01-15 00:45:57.30	15.49	9.26	-30.0	-32.8	11.5	1.23e-03	0	43	0	83886080	20	4944
2026-01-15 00:45:58.30	15.47	9.34	-29.8	-32.2	11.8	5.64e-04	0	43	0	87031808	20	4744
2026-01-15 00:45:59.31	15.44	9.42	-29.4	-31.6	12.6	1.13e-04	0	43	0	90177536	19	4657
2026-01-15 00:46:00.31	15.42	9.51	-29.3	-32.0	12.7	7.40e-05	0	43	0	93323264	18	4883
2026-01-15 00:46:01.31	15.40	9.59	-29.6	-32.2	12.3	1.59e-04	0	43	0	96468992	19	4839
2026-01-15 00:46:02.31	15.38	9.68	-29.5	-32.0	12.3	1.87e-04	0	43	0	99614720	19	4782
2026-01-15 00:46:03.31	15.35	9.76	-29.4	-32.2	12.6	9.99e-05	0	43	0	102760448	18	4955
2026-01-15 00:46:04.32	15.33	9.85	-29.5	-31.9	12.4	1.30e-04	0	43	0	105906176	19	4747
2026-01-15 00:46:05.33	15.31	9.93	-29.8	-32.7	11.9	2.97e-04	0	43	0	109051904	19	5032
2026-01-15 00:46:06.33	15.28	10.02	-29.9	-32.9	11.8	5.80e-04	0	43	0	112197632	19	5079
2026-01-15 00:46:07.33	15.26	10.10	-29.6	-32.0	12.4	1.80e-04	0	43	0	115343360	19	4784
2026-01-15 00:46:08.32	15.23	10.19	-29.4	-31.5	12.7	1.01e-04	0	43	0	118489088	19	4626
2026-01-15 00:46:09.33	15.21	10.28	-29.3	-32.0	12.8	5.11e-05	0	43	0	121634816	18	4875
2026-01-15 00:46:10.33	15.19	10.36	-29.4	-32.1	12.7	9.91e-05	0	43	0	124780544	18	4921
2026-01-15 00:46:11.34	15.16	10.45	-29.3	-31.8	12.9	5.03e-05	0	43	0	127926272	18	4797
2026-01-15 00:46:12.34	15.14	10.54	-28.3	-30.5	13.3	2.13e-05	0	43	0	131072000	18	4611
2026-01-15 00:46:13.35	15.11	10.63	-28.0	-30.3	12.4	1.06e-05	0	43	0	134217728	17	4696
2026-01-15 00:46:14.34	15.09	10.71	-28.7	-30.9	13.3	5.30e-06	0	43	0	137363456	17	4629
2026-01-15 00:46:15.35	15.06	10.80	-28.7	-30.9	12.1	9.10e-06	0	43	0	140509184	17	4646
2026-01-15 00:46:16.34	15.04	10.89	-28.6	-30.6	13.7	5.30e-06	0	43	0	143654912	17	4535
2026-01-15 00:46:17.35	15.01	10.98	-28.8	-31.2	13.5	1.14e-05	0	43	0	146800640	17	4735
2026-01-15 00:46:18.34	14.98	11.07	-28.7	-30.9	13.7	6.80e-06	0	43	0	149946368	17	4632
2026-01-15 00:46:19.34	14.96	11.16	-28.7	-31.0	13.7	3.90e-03	0	43	0	153092096	17	4651
2026-01-15 00:46:20.34	14.93	11.25	-29.0	-31.0	13.4	1.75e-05	0	43	0	156237824	18	4570
2026-01-15 00:46:21.35	14.91	11.34	-28.7	-30.8	13.8	6.80e-06	0	43	0	159383552	17	4592
2026-01-15 00:46:22.35	14.88	11.43	-28.6	-30.6	13.9	3.00e-06	0	43	0	162529280	17	4556
2026-01-15 00:46:23.35	14.85	11.52	-28.5	-30.5	14.0	5.30e-06	0	43	0	165675008	17	4504
2026-01-15 00:46:24.35	14.83	11.61	-28.6	-30.5	14.0	4.31e-03	0	43	0	168820736	17	4520
2026-01-15 00:46:25.35	14.80	11.70	-28.5	-30.4	14.1	0.00e+00	0	43	0	171966464	17	4484
2026-01-15 00:46:26.36	14.77	11.80	-28.6	-30.6	14.0	2.20e-06	0	43	0	175112192	17	4547
2026-01-15 00:46:27.36	14.74	11.89	-28.5	-30.4	14.1	1.50e-06	0	43	0	178257920	17	4475
2026-01-15 00:46:28.36	14.72	11.98	-28.5	-30.8	14.2	1.50e-06	0	43	0	181403648	16	4716
2026-01-15 00:46:29.37	14.69	12.08	-28.4	-30.6	14.3	4.49e-04	0	43	0	184549376	16	4655
2026-01-15 00:46:30.37	14.66	12.17	-28.5	-30.5	14.1	3.95e-03	0	43	0	187695104	17	4503
2026-01-15 00:46:31.37	14.63	12.26	-28.7	-30.7	13.9	3.00e-06	0	43	0	190840832	17	4577
2026-01-15 00:46:32.37	14.60	12.36	-28.7	-30.8	13.9	3.80e-06	0	43	0	193986560	17	4587
2026-01-15 00:46:33.38	14.57	12.45	-28.7	-30.8	13.9	4.46e-03	0	43	0	197132288	17	4597
2026-01-15 00:46:34.39	14.55	12.55	-28.5	-30.5	14.1	4.25e-03	0	43	0	200278016	17	4491
2026-01-15 00:46:35.39	14.52	12.64	-28.5	-30.5	14.1	5.26e-04	0	43	0	203423744	17	4491
2026-01-15 00:46:36.39	14.49	12.74	-28.5	-30.4	14.1	4.21e-03	0	43	0	206569472	17	4479
2026-01-15 00:46:37.39	14.46	12.83	-28.6	-30.5	14.1	1.50e-06	0	43	0	209715200	17	4513
2026-01-15 00:46:38.39	14.43	12.93	-28.5	-30.4	14.2	5.46e-04	0	43	0	212860928	17	4467
2026-01-15 00:46:39.40	14.40	13.03	-28.5	-30.8	14.2	3.93e-03	0	43	0	216006656	16	4706
2026-01-15 00:46:40.40	14.37	13.12	-28.6	-30.5	14.1	4.27e-03	0	43	0	219152384	17	4511
2026-01-15 00:46:41.41	14.34	13.22	-28.4	-30.7	14.3	4.90e-04	0	43	0	222298112	16	4676
2026-01-15 00:46:42.41	14.31	13.32	-28.4	-30.7	14.3	2.20e-06	0	43	0	225443840	16	4683
2026-01-15 00:46:43.42	14.28	13.42	-28.2	-30.5	14.3	4.06e-03	0	43	0	228589568	16	4679
2026-01-15 00:46:44.42	14.24	13.52	-28.7	-30.8	13.5	5.03e-04	0	43	0	231735296	17	4585
2026-01-15 00:46:45.42	14.21	13.62	-28.7	-30.7	14.0	4.27e-03	0	43	0	234881024	17	4570
2026-01-15 00:46:46.43	14.18	13.72	-28.5	-30.3	14.2	3.92e-03	0	43	0	238026752	17	4442
2026-01-15 00:46:47.43	14.15	13.82	-28.5	-30.4	14.2	1.12e-03	0	43	0	241172480	17	4466
2026-01-15 00:46:48.43	14.12	13.92	-28.5	-30.4	14.3	1.50e-06	0	43	0	244318208	17	4458
2026-01-15 00:46:49.43	14.08	14.02	-28.5	-30.4	14.2	4.41e-03	0	43	0	247463936	17	4469
2026-01-15 00:46:50.44	14.05	14.12	-28.5	-30.4	14.2	4.38e-04	0	43	0	250609664	17	4468
2026-01-15 00:46:51.44	14.02	14.22	-28.4	-30.5	14.5	4.32e-03	0	43	0	253755392	16	4614
2026-01-15 00:46:52.45	13.99	14.32	-28.5	-30.4	14.3	4.23e-03	0	43	0	256901120	17	4458
2026-01-15 00:46:53.45	13.95	14.42	-28.4	-30.6	14.4	6.45e-04	0	43	0	260046848	16	4646
2026-01-15 00:46:54.45	13.92	14.53	-28.2	-30.1	14.7	4.20e-03	0	43	0	263192576	16	4497
2026-01-15 00:46:55.45	13.88	14.63	-28.2	-30.0	14.8	3.88e-03	0	43	0	266338304	16	4472
2026-01-15 00:46:56.46	13.85	14.73	-28.1	-29.8	14.9	3.79e-04	0	43	0	269484032	16	4411
2026-01-15 00:46:57.46	13.82	14.84	-28.1	-29.9	14.9	0.00e+00	0	43	0	272629760	16	4425
2026-01-15 00:46:58.46	13.78	14.94	-28.1	-30.0	14.8	6.64e-04	0	43	0	275775488	16	4451
2026-01-15 00:46:59.47	13.75	15.05	-28.0	-29.6	15.0	6.40e-04	0	43	0	277872640	16	4357
2026-01-15 00:47:00.47	13.71	15.15	-27.8	-29.7	15.1	4.34e-03	0	44	0	281018368	15	4482
2026-01-15 00:47:01.48	13.68	15.26	-27.9	-29.9	15.0	4.28e-03	0	43	0	284164096	15	4553
2026-01-15 00:47:02.47	13.64	15.36	-27.8	-29.7	15.1	7.19e-04	0	43	0	287309824	15	4487
2026-01-15 00:47:03.48	13.60	15.47	-27.8	-29.8	15.0	0.00e+00	0	44	0	290455552	15	4526
2026-01-15 00:47:04.48	13.57	15.58	-27.9	-29.9	15.0	6.88e-04	0	43	0	293601280	15	4538
2026-01-15 00:47:05.48	13.53	15.69	-27.8	-29.7	15.1	7.07e-04	0	43	0	297795584	15	4490
2026-01-15 00:47:06.49	13.49	15.80	-27.8	-29.6	15.1	3.94e-03	0	43	0	300941312	15	4478
2026-01-15 00:47:07.49	13.46	15.90	-27.8	-29.7	15.1	7.23e-04	0	43	0	303038464	15	4488
2026-01-15 00:47:08.49	13.42	16.01	-27.8	-29.7	15.1	7.98e-04	0	43	0	306184192	15	4493
2026-01-15 00:47:09.49	13.38	16.12	-27.9	-29.9	15.0	0.00e+00	0	43	0	309329920	15	4559
2026-01-15 00:47:10.50	13.34	16.23	-27.9	-29.9	15.0	7.30e-04	0	43	0	312475648	15	4546
2026-01-15 00:47:11.50	13.30	16.34	-27.8	-29.7	15.1	4.53e-04	0	43	0	315621376	15	4477
2026-01-15 00:47:12.50	13.27	16.45	-27.8	-29.8	15.1	0.00e+00	0	43	0	318767104	15	4514
2026-01-15 00:47:13.50	13.23	16.56	-27.8	-29.8	15.1	8.29e-04	0	43	0	321912832	15	4516
2026-01-15 00:47:14.50	13.19	16.68	-27.9	-29.9	15.0	7.09e-04	0	43	0	325058560	15	4553
2026-01-15 00:47:15.50	13.15	16.79	-27.8	-29.8	15.1	0.00e+00	0	43	0	328204288	15	4511
2026-01-15 00:47:16.50	13.11	16.90	-27.8	-29.8	15.1	0.00e+00	0	43	0	331350016	15	4503
2026-01-15 00:47:17.50	13.07	17.01	-27.8	-29.8	15.1	7.07e-04	0	43	0	334495744	15	4522
2026-01-15 00:47:18.50	13.03	17.13	-27.9	-29.9	15.1	0.00e+00	0	43	0	337641472	15	4536
2026-01-15 00:47:19.50	12.99	17.24	-27.9	-29.9	15.0	6.44e-04	0	43	0	340787200	15	4561
2026-01-15 00:47:20.50	12.94	17.36	-27.9	-29.9	15.1	6.99e-04	0	43	0	343932928	15	4533
2026-01-15 00:47:21.51	12.90	17.47	-27.9	-30.1	14.9	0.00e+00	0	43	0	347078656	15	4597
2026-01-15 00:47:22.51	12.86	17.59	-28.1	-30.0	14.9	6.10e-04	0	43	0	350224384	16	4439
2026-01-15 00:47:23.51	12.82	17.71	-28.0	-29.7	15.0	6.09e-04	0	43	0	353370112	16	4372
2026-01-15 00:47:24.51	12.77	17.82	-27.9	-29.9	15.1	0.00e+00	0	43	0	356515840	15	4541
2026-01-15 00:47:25.51	12.73	17.94	-27.9	-30.1	15.0	6.00e-04	0	43	0	359661568	15	4598
2026-01-15 00:47:26.51	12.69	18.06	-27.9	-30.0	15.0	0.00e+00	0	44	0	362807296	15	4559
2026-01-15 00:47:27.51	12.64	18.18	-28.2	-30.1	14.8	0.00e+00	0	43	0	365953024	16	4493
2026-01-15 00:47:28.52	12.60	18.30	-28.3	-30.3	14.7	6.02e-04	0	43	0	369098752	16	4548
2026-01-15 00:47:29.53	12.55	18.42	-28.2	-30.2	14.8	5.95e-04	0	43	0	372244480	16	4507
2026-01-15 00:47:30.53	12.51	18.54	-28.3	-30.3	14.7	0.00e+00	0	44	0	375390208	16	4532
2026-01-15 00:47:31.53	12.46	18.66	-28.1	-29.9	15.0	0.00e+00	0	43	0	378535936	16	4430
2026-01-15 00:47:32.53	12.42	18.78	-28.1	-29.8	15.1	0.00e+00	0	43	0	381681664	16	4387
2026-01-15 00:47:33.54	12.37	18.90	-27.9	-30.0	15.1	0.00e+00	0	43	0	384827392	15	4560
2026-01-15 00:47:34.54	12.32	19.02	-27.9	-29.9	15.1	6.98e-04	0	43	0	387973120	15	4551
2026-01-15 00:47:35.54	12.28	19.15	-27.9	-30.0	15.1	6.58e-04	0	43	0	391118848	15	4563
2026-01-15 00:47:36.55	12.23	19.27	-27.8	-29.8	15.2	0.00e+00	0	43	0	394264576	15	4511
2026-01-15 00:47:37.55	12.18	19.40	-27.9	-30.0	15.0	0.00e+00	0	43	0	397410304	15	4568
2026-01-15 00:47:38.55	12.13	19.52	-27.8	-29.8	15.2	0.00e+00	0	43	0	400556032	15	4522
2026-01-15 00:47:39.56	12.08	19.65	-27.8	-29.7	15.3	0.00e+00	0	43	0	403701760	15	4470
2026-01-15 00:47:40.56	12.04	19.77	-27.8	-29.7	15.3	4.32e-04	0	43	0	406847488	15	4471
2026-01-15 00:47:41.56	11.99	19.90	-27.7	-29.6	15.3	0.00e+00	0	43	0	409993216	15	4447
2026-01-15 00:47:42.56	11.94	20.03	-27.9	-30.0	15.1	0.00e+00	0	44	0	413138944	15	4560
2026-01-15 00:47:43.56	11.89	20.16	-28.1	-29.8	15.1	0.00e+00	0	43	0	416284672	16	4400
2026-01-15 00:47:44.57	11.83	20.29	-27.8	-29.3	15.4	0.00e+00	0	43	0	419430400	16	4240
2026-01-15 00:47:45.58	11.78	20.42	-27.5	-29.1	15.6	0.00e+00	0	43	0	422576128	15	4301
2026-01-15 00:47:46.58	11.73	20.55	-27.5	-29.1	15.7	0.00e+00	0	44	0	425721856	15	4300
2026-01-15 00:47:47.59	11.68	20.68	-27.6	-29.2	15.6	0.00e+00	0	43	0	428867584	15	4335
2026-01-15 00:47:48.59	11.62	20.81	-27.5	-28.9	15.7	0.00e+00	0	43	0	432013312	15	4265
2026-01-15 00:47:49.59	11.57	20.94	-27.3	-29.1	15.9	0.00e+00	0	43	0	435159040	14	4433
2026-01-15 00:47:50.60	11.52	21.07	-27.3	-29.1	15.9	0.00e+00	0	43	0	438304768	14	4431
2026-01-15 00:47:51.60	11.46	21.21	-27.3	-29.1	15.9	0.00e+00	0	44	0	441450496	14	4417
2026-01-15 00:47:52.60	11.41	21.34	-27.2	-29.0	16.0	0.00e+00	0	44	0	444596224	14	4384
2026-01-15 00:47:53.61	11.35	21.48	-27.1	-28.7	16.1	0.00e+00	0	44	0	447741952	14	4311
2026-01-15 00:47:54.61	11.30	21.61	-27.2	-28.9	16.1	0.00e+00	0	43	0	450887680	14	4353
2026-01-15 00:47:55.61	11.24	21.75	-27.1	-28.7	16.2	0.00e+00	0	43	0	454033408	14	4310
2026-01-15 00:47:56.61	11.18	21.89	-26.9	-28.2	16.4	0.00e+00	0	43	0	457179136	14	4171
2026-01-15 00:47:57.62	11.13	22.02	-26.9	-28.8	16.4	0.00e+00	0	43	0	460324864	13	4438
2026-01-15 00:47:58.62	11.07	22.16	-26.8	-28.5	16.5	0.00e+00	0	43	0	463470592	13	4368
2026-01-15 00:47:59.63	11.01	22.30	-26.2	-27.9	16.1	0.00e+00	0	43	0	466616320	13	4372
2026-01-15 00:48:00.63	10.95	22.44	-26.8	-28.5	14.4	0.00e+00	0	44	0	469762048	13	4377
2026-01-15 00:48:01.64	10.89	22.58	-26.7	-28.3	16.6	0.00e+00	0	43	0	472907776	13	4315
2026-01-15 00:48:02.64	10.83	22.72	-26.6	-28.0	15.8	0.00e+00	0	43	0	476053504	13	4232
2026-01-15 00:48:03.64	10.77	22.87	-26.6	-28.1	16.7	0.00e+00	0	43	0	479199232	13	4253
2026-01-15 00:48:04.64	10.71	23.01	-26.6	-27.9	16.8	0.00e+00	0	43	0	482344960	13	4215
2026-01-15 00:48:05.64	10.64	23.15	-26.5	-27.8	16.9	0.00e+00	0	44	0	485490688	13	4171
2026-01-15 00:48:06.63	10.58	23.29	-26.5	-28.2	16.9	0.00e+00	0	43	0	488636416	12	4398
2026-01-15 00:48:07.64	10.52	23.44	-26.5	-27.8	16.9	7.00e-07	0	43	0	491782144	13	4187
2026-01-15 00:48:08.64	10.45	23.59	-26.5	-27.8	16.9	3.29e-03	0	43	0	494927872	13	4174
2026-01-15 00:48:09.64	10.39	23.73	-26.6	-28.0	16.8	0.00e+00	0	44	0	498073600	13	4222
2026-01-15 00:48:10.65	10.32	23.88	-26.6	-27.9	16.9	0.00e+00	0	44	0	501219328	13	4201
2026-01-15 00:48:11.66	10.26	24.03	-26.5	-27.8	16.9	0.00e+00	0	44	0	504365056	13	4185
2026-01-15 00:48:12.66	10.19	24.18	-26.6	-28.0	16.8	3.68e-03	0	44	0	507510784	13	4225
2026-01-15 00:48:13.66	10.12	24.33	-26.6	-28.0	16.8	0.00e+00	0	44	0	510656512	13	4226
2026-01-15 00:48:14.67	10.06	24.48	-26.7	-28.1	16.8	0.00e+00	0	43	0	513802240	13	4254
2026-01-15 00:48:15.67	9.99	24.63	-26.6	-27.9	16.9	0.00e+00	0	43	0	516947968	13	4214
2026-01-15 00:48:16.68	9.92	24.79	-26.6	-28.0	16.8	0.00e+00	0	44	0	520093696	13	4231
2026-01-15 00:48:17.68	9.85	24.94	-26.7	-28.2	16.7	3.38e-03	0	43	0	523239424	13	4280
2026-01-15 00:48:18.68	9.78	25.09	-26.8	-28.5	16.6	3.82e-03	0	43	0	526385152	13	4358
2026-01-15 00:48:19.69	9.70	25.25	-26.8	-28.5	16.6	0.00e+00	0	43	0	529530880	13	4362
2026-01-15 00:48:20.69	9.63	25.40	-26.8	-28.4	16.6	0.00e+00	0	44	0	532676608	13	4335
2026-01-15 00:48:21.70	9.56	25.56	-26.9	-28.6	16.5	0.00e+00	0	43	0	535822336	13	4402
2026-01-15 00:48:22.70	9.49	25.72	-26.9	-28.7	16.5	0.00e+00	0	43	0	538968064	13	4416
2026-01-15 00:48:23.70	9.41	25.88	-27.0	-28.4	16.4	2.73e-03	0	44	0	542113792	14	4228
2026-01-15 00:48:24.71	9.34	26.04	-27.2	-28.8	16.2	2.76e-03	0	44	0	545259520	14	4332
2026-01-15 00:48:25.71	9.26	26.20	-27.2	-28.9	16.2	0.00e+00	0	44	0	548405248	14	4356
2026-01-15 00:48:26.71	9.18	26.36	-27.3	-29.0	16.1	5.18e-05	0	43	0	551550976	14	4380
2026-01-15 00:48:27.72	9.10	26.52	-27.4	-29.2	16.0	3.22e-03	0	44	0	554696704	14	4438
2026-01-15 00:48:28.72	9.03	26.68	-27.4	-29.2	16.0	0.00e+00	0	44	0	556793856	14	4443
2026-01-15 00:48:29.73	8.95	26.85	-27.4	-29.3	15.9	3.15e-03	0	43	0	559939584	14	4479
2026-01-15 00:48:30.73	8.87	27.01	-27.5	-29.0	15.8	3.16e-03	0	43	0	564133888	15	4283
2026-01-15 00:48:31.74	8.78	27.18	-27.8	-29.6	15.5	0.00e+00	0	43	0	567279616	15	4429
2026-01-15 00:48:32.74	8.70	27.35	-27.7	-29.4	15.6	2.84e-03	0	43	0	570425344	15	4383
2026-01-15 00:48:33.74	8.62	27.51	-27.6	-29.3	15.7	2.72e-03	0	44	0	573571072	15	4341
2026-01-15 00:48:34.74	8.53	27.68	-27.6	-29.3	15.6	0.00e+00	0	43	0	576716800	15	4403
2026-01-15 00:48:35.75	8.45	27.85	-27.7	-29.5	15.5	2.80e-03	0	44	0	578813952	15	4421
2026-01-15 00:48:36.76	8.36	28.02	-27.8	-29.7	15.2	0.00e+00	0	44	0	581959680	15	4480
2026-01-15 00:48:37.75	8.28	28.19	-27.9	-29.8	15.3	1.61e-04	0	44	0	585105408	15	4507
2026-01-15 00:48:38.76	8.19	28.37	-27.9	-30.0	15.3	3.30e-03	0	43	0	588251136	15	4551
2026-01-15 00:48:39.76	8.10	28.54	-27.9	-29.9	15.4	3.40e-03	0	44	0	591396864	15	4519
2026-01-15 00:48:40.75	8.01	28.71	-27.9	-30.0	15.3	0.00e+00	0	44	0	594542592	15	4552
2026-01-15 00:48:41.76	7.92	28.89	-27.9	-29.8	15.4	0.00e+00	0	43	0	597688320	15	4512
2026-01-15 00:48:42.76	7.83	29.07	-27.9	-30.0	15.4	1.14e-04	0	43	0	600834048	15	4547
2026-01-15 00:48:43.76	7.74	29.24	-27.9	-29.9	15.4	0.00e+00	0	44	0	603979776	15	4532
2026-01-15 00:48:44.77	7.64	29.42	-27.9	-30.0	15.3	2.80e-03	0	44	0	607125504	15	4558
2026-01-15 00:48:45.77	7.55	29.60	-27.9	-29.8	15.4	2.59e-03	0	44	0	610271232	15	4498
2026-01-15 00:48:46.77	7.45	29.78	-27.7	-29.4	15.7	0.00e+00	0	44	0	613416960	15	4375
2026-01-15 00:48:47.77	7.35	29.96	-27.6	-29.1	15.8	0.00e+00	0	44	0	616562688	15	4296
2026-01-15 00:48:48.77	7.25	30.15	-27.6	-29.1	15.8	2.37e-03	0	44	0	619708416	15	4309
2026-01-15 00:48:49.78	7.15	30.33	-27.5	-29.0	15.9	0.00e+00	0	44	0	622854144	15	4268
2026-01-15 00:48:50.79	7.05	30.52	-27.5	-29.1	15.9	0.00e+00	0	43	0	625999872	15	4286
2026-01-15 00:48:51.79	6.95	30.70	-27.5	-29.1	15.9	0.00e+00	0	44	0	629145600	15	4285
2026-01-15 00:48:52.79	6.85	30.89	-27.7	-29.3	15.7	1.70e-04	0	44	0	632291328	15	4358
2026-01-15 00:48:53.79	6.74	31.08	-27.6	-29.1	15.8	0.00e+00	0	44	0	635437056	15	4310
2026-01-15 00:48:54.80	6.64	31.27	-27.4	-28.8	16.0	1.27e-04	0	44	0	638582784	15	4222
2026-01-15 00:48:55.80	6.53	31.46	-27.6	-29.1	15.9	0.00e+00	0	44	0	641728512	15	4298
2026-01-15 00:48:56.80	6.42	31.65	-27.6	-29.1	15.9	0.00e+00	0	44	0	644874240	15	4302
2026-01-15 00:48:57.81	6.31	31.85	-27.6	-29.2	15.8	1.87e-04	0	43	0	648019968	15	4323
2026-01-15 00:48:58.81	6.20	32.04	-27.7	-29.4	15.8	1.90e-04	0	44	0	651165696	15	4370
2026-01-15 00:48:59.82	6.09	32.24	-27.7	-29.4	15.7	0.00e+00	0	44	0	654311424	15	4373
2026-01-15 00:49:00.82	5.97	32.43	-27.9	-29.8	15.5	0.00e+00	0	44	0	657457152	15	4482
2026-01-15 00:49:01.82	5.86	32.63	-27.7	-29.5	15.7	4.39e-04	0	44	0	660602880	15	4405
2026-01-15 00:49:02.82	5.74	32.83	-27.7	-29.4	15.7	0.00e+00	0	44	0	663748608	15	4366
2026-01-15 00:49:03.82	5.62	33.03	-27.7	-29.5	15.7	4.23e-04	0	44	0	666894336	15	4408
2026-01-15 00:49:04.83	5.50	33.23	-27.8	-29.6	15.6	3.68e-04	0	44	0	670040064	15	4432
2026-01-15 00:49:05.83	5.38	33.43	-27.8	-29.7	15.5	0.00e+00	0	44	0	673185792	15	4471
2026-01-15 00:49:06.83	5.26	33.63	-28.0	-30.0	15.4	3.19e-04	0	44	0	676331520	15	4556
2026-01-15 00:49:07.83	5.14	33.84	-28.2	-30.1	15.3	3.07e-04	0	44	0	679477248	16	4445
2026-01-15 00:49:08.84	5.01	34.04	-28.3	-30.3	15.1	0.00e+00	0	44	0	682622976	16	4514
2026-01-15 00:49:09.84	4.88	34.25	-28.4	-30.4	15.1	2.70e-04	0	44	0	685768704	16	4555
2026-01-15 00:49:10.84	4.75	34.46	-28.4	-30.4	15.1	2.10e-04	0	44	0	688914432	16	4554
2026-01-15 00:49:11.84	4.62	34.67	-28.4	-30.5	15.0	0.00e+00	0	44	0	692060160	16	4576
2026-01-15 00:49:12.85	4.49	34.88	-28.5	-30.1	14.9	1.91e-04	0	44	0	695205888	17	4353
2026-01-15 00:49:13.85	4.35	35.09	-28.6	-30.3	14.9	1.68e-04	0	44	0	698351616	17	4409
2026-01-15 00:49:14.86	4.22	35.31	-28.8	-30.9	14.6	7.00e-07	0	44	0	701497344	17	4572
2026-01-15 00:49:15.85	4.08	35.52	-28.8	-31.0	14.5	2.21e-05	0	44	0	704643072	17	4602
2026-01-15 00:49:16.86	3.94	35.74	-29.1	-31.1	14.1	7.00e-07	0	44	0	707788800	18	4545
2026-01-15 00:49:17.87	3.80	35.95	-29.4	-31.7	13.8	3.00e-06	0	44	0	710934528	18	4727
2026-01-15 00:49:18.87	3.65	36.17	-29.5	-31.5	13.6	9.90e-06	0	44	0	714080256	19	4547
2026-01-15 00:49:19.87	3.51	36.39	-29.7	-32.0	13.3	1.14e-05	0	44	0	717225984	19	4684
2026-01-15 00:49:20.88	3.36	36.61	-29.8	-32.2	13.2	2.67e-05	0	44	0	720371712	19	4773
2026-01-15 00:49:21.87	3.21	36.83	-29.8	-32.2	13.2	1.83e-05	0	44	0	723517440	19	4760
2026-01-15 00:49:22.88	3.06	37.06	-29.8	-32.2	13.2	1.75e-05	0	44	0	726663168	19	4755
2026-01-15 00:49:23.88	2.90	37.28	-29.7	-31.9	13.3	1.37e-05	0	44	0	729808896	19	4678
2026-01-15 00:49:24.89	2.74	37.51	-29.9	-32.5	13.1	3.28e-05	0	44	0	732954624	19	4844
2026-01-15 00:49:25.90	2.58	37.74	-29.6	-31.9	13.4	1.52e-05	0	44	0	736100352	19	4663
2026-01-15 00:49:26.90	2.42	37.97	-29.5	-31.5	13.6	4.50e-06	0	44	0	739246080	19	4533
2026-01-15 00:49:27.90	2.26	38.20	-29.4	-31.3	13.7	1.06e-05	0	44	0	742391808	19	4483
2026-01-15 00:49:28.91	2.09	38.43	-29.4	-31.4	13.7	3.80e-06	0	44	0	745537536	19	4511
2026-01-15 00:49:29.91	1.92	38.66	-29.5	-31.5	13.6	6.10e-06	0	44	0	748683264	19	4539
2026-01-15 00:49:30.91	1.75	38.89	-29.3	-30.9	14.0	3.80e-06	0	44	0	751828992	19	4366
2026-01-15 00:49:31.91	1.58	39.13	-29.1	-30.5	14.3	1.50e-06	0	44	0	754974720	19	4232
2026-01-15 00:49:32.91	1.41	39.36	-29.2	-31.2	14.1	3.80e-06	0	44	0	758120448	18	4556
2026-01-15 00:49:33.92	1.23	39.60	-29.0	-30.7	14.4	0.00e+00	0	44	0	761266176	18	4414
2026-01-15 00:49:34.92	1.04	39.84	-28.8	-30.3	14.6	7.00e-07	0	44	0	764411904	18	4301
2026-01-15 00:49:35.92	0.86	40.08	-28.8	-30.8	14.6	7.00e-07	0	44	0	767557632	17	4551
2026-01-15 00:49:36.93	0.67	40.32	-28.9	-31.1	14.5	0.00e+00	0	44	0	770703360	17	4627
2026-01-15 00:49:37.93	0.48	40.57	-29.3	-31.5	13.9	2.20e-06	0	44	0	773849088	18	4653
2026-01-15 00:49:38.94	0.29	40.81	-29.3	-31.5	13.9	0.00e+00	0	44	0	776994816	18	4647
2026-01-15 00:49:39.95	0.09	41.06	-29.3	-31.6	13.9	5.30e-06	0	44	0	780140544	18	4670
2026-01-15 00:49:40.95	359.89	41.31	-29.1	-31.1	14.2	2.20e-06	0	44	0	783286272	18	4522
2026-01-15 00:49:41.96	359.69	41.56	-28.9	-30.6	14.5	1.50e-06	0	44	0	786432000	18	4383
2026-01-15 00:49:42.96	359.49	41.81	-28.8	-30.8	14.6	0.00e+00	0	44	0	789577728	17	4540
2026-01-15 00:49:43.96	359.28	42.06	-28.9	-31.1	14.5	9.90e-06	0	44	0	792723456	17	4638
2026-01-15 00:49:44.97	359.07	42.31	-29.1	-31.0	14.3	2.20e-06	0	44	0	795869184	18	4478
2026-01-15 00:49:45.97	358.85	42.56	-29.4	-31.7	13.9	0.00e+00	0	44	0	799014912	18	4697
2026-01-15 00:49:46.97	358.63	42.82	-28.7	-30.9	13.5	2.55e-03	0	44	0	802160640	19	4602
2026-01-15 00:49:47.98	358.41	43.07	-29.6	-32.3	11.8	1.14e-05	0	44	0	805306368	18	4901
2026-01-15 00:49:48.98	358.18	43.33	-29.8	-32.2	13.2	2.36e-05	0	44	0	808452096	19	4750
2026-01-15 00:49:49.98	357.95	43.59	-29.8	-32.3	13.1	2.59e-05	0	44	0	811597824	19	4799
2026-01-15 00:49:50.98	357.72	43.85	-29.9	-32.5	13.0	4.04e-05	0	44	0	814743552	19	4873
2026-01-15 00:49:51.98	357.49	44.11	-30.0	-32.6	13.0	2.58e-04	0	44	0	817889280	19	4905
2026-01-15 00:49:52.99	357.24	44.37	-30.1	-32.5	12.7	3.92e-03	0	44	0	821035008	20	4749
2026-01-15 00:49:53.99	357.00	44.63	-30.4	-33.2	12.3	1.47e-04	0	44	0	824180736	20	4973
2026-01-15 00:49:55.00	356.75	44.90	-30.2	-32.8	12.5	1.47e-04	0	44	0	827326464	20	4851
2026-01-15 00:49:55.99	356.50	45.16	-29.9	-32.1	13.0	6.10e-05	0	44	0	830472192	20	4608
2026-01-15 00:49:57.00	356.24	45.43	-29.9	-32.4	13.1	3.85e-03	0	44	0	833617920	19	4806
2026-01-15 00:49:58.00	355.98	45.70	-29.9	-32.5	13.1	1.64e-04	0	44	0	836763648	19	4839
2026-01-15 00:49:59.01	355.71	45.97	-29.7	-31.9	13.4	2.28e-05	0	44	0	839909376	19	4671
2026-01-15 00:50:00.01	355.44	46.23	-29.7	-32.1	13.3	1.22e-05	0	44	0	843055104	19	4712
2026-01-15 00:50:01.01	355.16	46.50	-29.6	-31.7	13.6	1.52e-05	0	44	0	846200832	19	4596
2026-01-15 00:50:02.02	354.88	46.78	-29.5	-31.6	13.6	3.18e-03	0	44	0	849346560	19	4550
2026-01-15 00:50:03.01	354.59	47.05	-29.5	-31.4	13.7	3.03e-03	0	44	0	852492288	19	4511
2026-01-15 00:50:04.02	354.30	47.32	-29.5	-31.5	13.6	1.88e-04	0	44	0	855638016	19	4539
2026-01-15 00:50:05.02	354.00	47.60	-29.3	-31.6	13.9	4.50e-06	0	44	0	857735168	18	4670
2026-01-15 00:50:06.02	353.70	47.87	-29.3	-31.6	14.0	3.24e-03	0	44	0	860880896	18	4655
2026-01-15 00:50:07.02	353.40	48.15	-29.3	-31.6	13.9	1.81e-04	0	44	0	864026624	18	4655
2026-01-15 00:50:08.03	353.08	48.43	-29.2	-31.4	14.0	3.45e-03	0	44	0	867172352	18	4593
2026-01-15 00:50:09.03	352.76	48.71	-29.1	-31.1	14.2	3.32e-03	0	44	0	870318080	18	4521
2026-01-15 00:50:10.03	352.44	48.98	-29.3	-31.6	13.9	3.00e-06	0	44	0	873463808	18	4660
2026-01-15 00:50:11.04	352.11	49.27	-29.3	-31.6	13.9	3.53e-03	0	44	0	877658112	18	4660
2026-01-15 00:50:12.04	351.77	49.55	-29.7	-32.0	13.4	3.40e-03	0	44	0	879755264	19	4698
2026-01-15 00:50:13.04	351.43	49.83	-29.8	-32.2	13.2	2.36e-05	0	44	0	882900992	19	4756
2026-01-15 00:50:14.04	351.08	50.11	-29.9	-32.5	13.1	3.51e-03	0	44	0	886046720	19	4857
2026-01-15 00:50:15.05	350.72	50.39	-29.8	-32.3	13.2	3.92e-03	0	44	0	889192448	19	4794
2026-01-15 00:50:16.05	350.36	50.67	-29.9	-32.0	13.0	4.04e-05	0	44	0	892338176	20	4597
2026-01-15 00:50:17.05	349.99	50.96	-29.9	-32.4	13.2	4.04e-03	0	44	0	895483904	19	4809
2026-01-15 00:50:18.05	349.61	51.24	-29.8	-32.3	13.2	3.82e-03	0	44	0	898629632	19	4777
2026-01-15 00:50:19.05	349.23	51.52	-29.6	-31.7	13.5	5.79e-05	0	44	0	901775360	19	4593
2026-01-15 00:50:20.04	348.84	51.80	-29.6	-31.7	13.5	3.31e-03	0	44	0	904921088	19	4592
2026-01-15 00:50:21.04	348.45	52.09	-29.5	-31.4	13.7	9.10e-06	0	44	0	908066816	19	4507
2026-01-15 00:50:22.05	348.03	52.37	-29.0	-30.3	14.4	2.20e-06	0	44	0	911212544	19	4178
2026-01-15 00:50:23.05	347.62	52.66	-28.8	-30.5	14.6	1.08e-03	0	44	0	914358272	18	4331
2026-01-15 00:50:24.05	347.20	52.94	-29.0	-31.2	14.5	1.24e-03	0	44	0	917504000	17	4667
2026-01-15 00:50:25.06	346.76	53.23	-29.0	-30.9	14.4	7.00e-07	0	44	0	920649728	18	4450
2026-01-15 00:50:26.05	346.33	53.51	-29.2	-31.3	14.1	7.00e-07	0	44	0	923795456	18	4594
2026-01-15 00:50:27.05	345.88	53.80	-29.2	-31.4	14.1	2.80e-03	0	44	0	926941184	18	4608
2026-01-15 00:50:28.06	345.42	54.08	-29.0	-30.8	14.4	7.00e-07	0	44	0	930086912	18	4436
2026-01-15 00:50:29.06	344.95	54.37	-28.5	-30.3	15.0	3.54e-03	0	44	0	933232640	17	4392
2026-01-15 00:50:30.06	344.48	54.65	-28.5	-30.2	15.0	7.00e-07	0	44	0	936378368	17	4372
2026-01-15 00:50:31.06	343.99	54.93	-28.8	-30.8	14.7	0.00e+00	0	44	0	939524096	17	4549
2026-01-15 00:50:32.07	343.49	55.22	-28.4	-29.8	15.2	0.00e+00	0	44	0	942669824	17	4268
2026-01-15 00:50:33.07	342.99	55.50	-28.6	-30.4	14.9	2.84e-03	0	44	0	945815552	17	4419
2026-01-15 00:50:34.08	342.47	55.78	-28.7	-30.6	14.8	1.50e-06	0	44	0	948961280	17	4482
2026-01-15 00:50:35.08	341.94	56.06	-28.6	-30.4	14.9	0.00e+00	0	44	0	952107008	17	4435
2026-01-15 00:50:36.08	341.40	56.34	-28.2	-30.0	15.4	0.00e+00	0	44	0	955252736	16	4414
2026-01-15 00:50:37.08	340.86	56.62	-28.1	-29.7	15.6	0.00e+00	0	44	0	958398464	16	4339
2026-01-15 00:50:38.09	340.29	56.90	-28.2	-29.9	15.5	0.00e+00	0	44	0	961544192	16	4397
2026-01-15 00:50:39.09	339.72	57.17	-28.6	-30.3	14.9	3.34e-03	0	44	0	964689920	17	4406
2026-01-15 00:50:40.10	339.13	57.45	-28.5	-30.2	15.0	7.00e-07	0	44	0	967835648	17	4366
2026-01-15 00:50:41.10	338.54	57.72	-28.3	-29.8	15.2	0.00e+00	0	44	0	970981376	17	4247
2026-01-15 00:50:42.10	337.93	57.99	-28.0	-29.6	15.6	0.00e+00	0	44	0	974127104	16	4309
2026-01-15 00:50:43.11	337.31	58.26	-27.6	-28.7	16.1	0.00e+00	0	44	0	977272832	16	4058
2026-01-15 00:50:44.12	336.67	58.53	-27.3	-28.5	16.2	0.00e+00	0	44	0	980418560	15	4128
2026-01-15 00:50:45.12	336.02	58.80	-27.8	-29.6	15.6	0.00e+00	0	44	0	983564288	15	4422
2026-01-15 00:50:46.13	335.36	59.06	-27.6	-29.1	15.9	0.00e+00	0	44	0	986710016	15	4303
2026-01-15 00:50:47.13	334.69	59.32	-27.3	-28.5	16.2	0.00e+00	0	44	0	989855744	15	4135
2026-01-15 00:50:48.13	334.01	59.58	-27.0	-27.7	16.7	0.00e+00	0	44	0	993001472	15	3940
2026-01-15 00:50:49.13	333.31	59.83	-26.9	-27.5	16.8	0.00e+00	0	44	0	996147200	15	3881
2026-01-15 00:50:50.13	332.60	60.08	-26.8	-28.5	16.8	0.00e+00	0	44	0	999292928	13	4344
2026-01-15 00:50:51.13	331.87	60.33	-26.8	-28.3	16.8	0.00e+00	0	44	0	1002438656	13	4312
2026-01-15 00:50:52.13	331.13	60.58	-26.7	-28.2	16.9	0.00e+00	0	44	0	1005584384	13	4272
2026-01-15 00:50:53.14	330.37	60.82	-26.8	-28.5	16.8	0.00e+00	0	44	0	1008730112	13	4348
2026-01-15 00:50:54.15	329.59	61.06	-26.9	-28.7	16.7	0.00e+00	0	44	0	1011875840	13	4410
2026-01-15 00:50:55.15	328.81	61.30	-26.7	-28.3	16.9	0.00e+00	0	44	0	1015021568	13	4288
2026-01-15 00:50:56.15	328.01	61.53	-26.7	-28.3	16.9	0.00e+00	0	44	0	1018167296	13	4293
2026-01-15 00:50:57.16	327.19	61.75	-26.7	-28.2	16.9	0.00e+00	0	44	0	1021313024	13	4286
2026-01-15 00:50:58.16	326.36	61.98	-26.8	-28.5	16.8	0.00e+00	0	44	0	1024458752	13	4356
2026-01-15 00:50:59.16	325.51	62.19	-27.0	-28.3	16.6	0.00e+00	0	44	0	1027604480	14	4204
2026-01-15 00:51:00.17	324.65	62.41	-26.5	-27.8	17.1	0.00e+00	0	44	0	1030750208	13	4174
2026-01-15 00:51:01.17	323.77	62.62	-26.7	-28.2	17.0	0.00e+00	0	44	0	1033895936	13	4268
2026-01-15 00:51:02.18	322.87	62.82	-27.0	-28.4	16.6	0.00e+00	0	44	0	1037041664	14	4202
2026-01-15 00:51:03.19	321.96	63.02	-26.9	-28.1	16.8	0.00e+00	0	44	0	1040187392	14	4122
2026-01-15 00:51:04.19	321.04	63.21	-26.8	-27.9	16.9	0.00e+00	0	44	0	1043333120	14	4081
2026-01-15 00:51:05.20	320.10	63.40	-26.6	-27.4	17.1	0.00e+00	0	44	0	1046478848	14	3955
2026-01-15 00:51:06.20	319.15	63.58	-26.5	-27.6	17.2	0.00e+00	0	44	0	1049624576	13	4129
2026-01-15 00:51:07.21	318.17	63.75	-26.4	-27.6	17.2	0.00e+00	0	44	0	1052770304	13	4117
2026-01-15 00:51:08.21	317.19	63.92	-26.6	-27.9	17.0	0.00e+00	0	44	0	1055916032	13	4201
2026-01-15 00:51:09.22	316.19	64.08	-26.9	-28.6	16.7	0.00e+00	0	44	0	1059061760	13	4391
2026-01-15 00:51:10.22	315.19	64.24	-26.8	-28.4	16.8	0.00e+00	0	44	0	1062207488	13	4326
2026-01-15 00:51:11.22	314.17	64.38	-26.7	-28.2	17.0	0.00e+00	0	44	0	1065353216	13	4265
2026-01-15 00:51:12.22	313.14	64.52	-26.8	-28.4	16.8	0.00e+00	0	44	0	1068498944	13	4326
2026-01-15 00:51:13.22	312.09	64.65	-26.5	-27.6	17.2	0.00e+00	0	44	0	1071644672	13	4129
2026-01-15 00:51:14.23	311.02	64.78	-26.2	-27.0	17.6	0.00e+00	0	44	0	1074790400	13	3965
2026-01-15 00:51:15.23	309.96	64.90	-25.9	-26.3	17.9	0.00e+00	0	44	0	1077936128	13	3808
2026-01-15 00:51:16.23	308.88	65.01	-25.8	-26.8	17.9	0.00e+00	0	44	0	1081081856	12	4019
2026-01-15 00:51:17.24	307.78	65.11	-26.5	-27.7	17.1	0.00e+00	0	44	0	1084227584	13	4153
2026-01-15 00:51:18.24	306.68	65.20	-26.5	-27.8	17.1	0.00e+00	0	44	0	1087373312	13	4160
2026-01-15 00:51:19.24	305.57	65.29	-26.5	-27.8	17.1	0.00e+00	0	44	0	1090519040	13	4172
2026-01-15 00:51:20.25	304.44	65.37	-26.7	-28.2	16.9	0.00e+00	0	44	0	1093664768	13	4285
2026-01-15 00:51:21.25	303.32	65.44	-26.6	-27.9	17.1	0.00e+00	0	44	0	1096810496	13	4201
2026-01-15 00:51:22.26	302.18	65.50	-26.4	-27.5	17.3	0.00e+00	0	44	0	1099956224	13	4082
2026-01-15 00:51:23.27	301.03	65.55	-26.3	-27.8	17.3	0.00e+00	0	44	0	1103101952	12	4286
2026-01-15 00:51:24.28	299.88	65.59	-26.8	-28.4	16.8	0.00e+00	0	44	0	1106247680	13	4322
2026-01-15 00:51:25.28	298.74	65.62	-27.3	-29.1	16.1	0.00e+00	0	44	0	1109393408	14	4412
2026-01-15 00:51:26.28	297.59	65.65	-26.9	-28.1	16.7	0.00e+00	0	44	0	1112539136	14	4128
2026-01-15 00:51:27.28	296.44	65.66	-26.1	-27.0	17.5	0.00e+00	0	44	0	1115684864	13	3956
2026-01-15 00:51:28.28	295.29	65.67	-26.4	-27.5	17.3	0.00e+00	0	44	0	1118830592	13	4084
2026-01-15 00:51:29.28	294.14	65.67	-26.8	-28.3	16.8	0.00e+00	0	44	0	1121976320	13	4311
2026-01-15 00:51:30.28	292.99	65.66	-27.0	-28.4	16.6	0.00e+00	0	44	0	1125122048	14	4211
2026-01-15 00:51:31.29	291.82	65.64	-26.6	-27.6	16.9	1.70e-03	0	44	0	1128267776	14	4003
2026-01-15 00:51:32.29	290.68	65.61	-26.6	-28.0	17.0	0.00e+00	0	44	0	1131413504	13	4225
2026-01-15 00:51:33.30	289.52	65.57	-26.9	-28.6	16.7	0.00e+00	0	44	0	1134559232	13	4384
2026-01-15 00:51:34.30	288.39	65.52	-26.8	-28.3	16.8	0.00e+00	0	44	0	1137704960	13	4317
2026-01-15 00:51:35.31	287.24	65.47	-26.5	-27.7	17.1	7.00e-07	0	44	0	1140850688	13	4145
2026-01-15 00:51:36.31	286.11	65.40	-26.9	-28.6	16.6	0.00e+00	0	44	0	1143996416	13	4376
2026-01-15 00:51:37.32	284.98	65.33	-27.1	-28.6	16.3	0.00e+00	0	44	0	1147142144	14	4277
2026-01-15 00:51:38.33	283.86	65.25	-26.4	-27.5	17.2	0.00e+00	0	44	0	1150287872	13	4099
2026-01-15 00:51:39.33	282.75	65.16	-26.7	-28.1	16.9	0.00e+00	0	44	0	1153433600	13	4247
2026-01-15 00:51:40.34	281.65	65.06	-27.4	-29.2	16.1	0.00e+00	0	44	0	1156579328	14	4424
2026-01-15 00:51:41.34	280.56	64.95	-27.9	-29.9	15.4	3.61e-03	0	44	0	1159725056	15	4544
2026-01-15 00:51:42.34	279.49	64.84	-28.2	-30.0	15.2	0.00e+00	0	44	0	1162870784	16	4428
2026-01-15 00:51:43.35	278.42	64.72	-27.1	-28.1	16.4	3.44e-03	0	44	0	1166016512	15	4032
2026-01-15 00:51:44.35	277.36	64.59	-26.6	-28.1	16.9	0.00e+00	0	44	0	1169162240	13	4241
2026-01-15 00:51:45.35	276.32	64.45	-26.7	-28.1	16.9	0.00e+00	0	44	0	1172307968	13	4253
2026-01-15 00:51:46.35	275.30	64.31	-26.9	-28.7	16.6	3.90e-03	0	44	0	1175453696	13	4404
2026-01-15 00:51:47.36	274.27	64.16	-27.2	-28.9	16.2	3.91e-03	0	44	0	1178599424	14	4341
2026-01-15 00:51:48.35	273.28	64.00	-27.5	-29.5	15.9	2.15e-04	0	44	0	1180696576	14	4518
2026-01-15 00:51:49.36	272.29	63.84	-27.7	-29.5	15.6	0.00e+00	0	44	0	1183842304	15	4401
2026-01-15 00:51:50.37	271.31	63.66	-27.2	-28.8	16.3	3.35e-03	0	44	0	1186988032	14	4315
2026-01-15 00:51:51.37	270.35	63.49	-26.7	-27.8	16.7	7.00e-07	0	44	0	1190133760	14	4048
2026-01-15 00:51:52.37	269.41	63.30	-26.8	-28.4	16.7	3.27e-03	0	44	0	1193279488	13	4328
2026-01-15 00:51:53.38	268.47	63.11	-27.2	-28.8	16.2	3.85e-03	0	44	0	1196425216	14	4315
2026-01-15 00:51:54.39	267.55	62.92	-27.3	-29.0	16.1	0.00e+00	0	44	0	1200619520	14	4374
2026-01-15 00:51:55.39	266.65	62.72	-26.7	-28.1	16.8	0.00e+00	0	44	0	1203765248	13	4253
2026-01-15 00:51:56.39	265.76	62.51	-26.5	-27.8	17.0	3.60e-03	0	44	0	1205862400	13	4174
2026-01-15 00:51:57.39	264.90	62.30	-26.6	-28.0	16.8	0.00e+00	0	44	0	1209008128	13	4230
2026-01-15 00:51:58.40	264.03	62.08	-26.7	-28.1	16.8	3.68e-03	0	44	0	1212153856	13	4263
2026-01-15 00:51:59.40	263.20	61.86	-26.5	-27.8	16.9	3.29e-03	0	44	0	1215299584	13	4170
2026-01-15 00:52:00.40	262.37	61.64	-26.6	-28.0	16.9	0.00e+00	0	44	0	1218445312	13	4226
2026-01-15 00:52:01.40	261.57	61.41	-26.8	-28.5	16.6	3.36e-03	0	44	0	1221591040	13	4375
2026-01-15 00:52:02.40	260.77	61.18	-26.7	-28.3	16.7	3.84e-03	0	44	0	1224736768	13	4311
2026-01-15 00:52:03.40	259.99	60.94	-26.5	-27.8	17.0	0.00e+00	0	44	0	1227882496	13	4181
2026-01-15 00:52:04.41	259.22	60.70	-26.6	-27.9	17.0	3.84e-03	0	44	0	1231028224	13	4192
2026-01-15 00:52:05.42	258.47	60.45	-27.1	-28.5	16.5	0.00e+00	0	44	0	1234173952	14	4235
2026-01-15 00:52:06.42	257.73	60.21	-27.1	-28.5	16.4	9.99e-05	0	44	0	1237319680	14	4242
2026-01-15 00:52:07.42	257.01	59.96	-27.4	-29.2	16.0	3.18e-03	0	44	0	1240465408	14	4436
2026-01-15 00:52:08.43	256.30	59.70	-27.6	-29.1	15.8	3.11e-03	0	44	0	1243611136	15	4308
2026-01-15 00:52:09.43	255.61	59.44	-27.1	-28.1	16.3	0.00e+00	0	44	0	1246756864	15	4031
2026-01-15 00:52:10.43	254.93	59.18	-26.7	-27.6	16.8	0.00e+00	0	44	0	1249902592	14	4014
2026-01-15 00:52:11.44	254.26	58.92	-26.9	-28.7	16.5	0.00e+00	0	44	0	1253048320	13	4412
2026-01-15 00:52:12.44	253.60	58.66	-27.6	-29.1	15.7	0.00e+00	0	44	0	1256194048	15	4310
2026-01-15 00:52:13.45	252.96	58.39	-27.9	-30.0	15.2	4.09e-03	0	44	0	1259339776	15	4554
2026-01-15 00:52:14.46	252.33	58.12	-28.7	-30.6	14.4	1.50e-06	0	44	0	1262485504	17	4515
2026-01-15 00:52:15.46	251.71	57.85	-28.7	-30.8	14.3	1.50e-06	0	44	0	1265631232	17	4567
2026-01-15 00:52:16.47	251.11	57.57	-28.5	-30.2	14.6	3.43e-05	0	44	0	1268776960	17	4385
2026-01-15 00:52:17.47	250.52	57.30	-28.0	-29.5	15.3	1.23e-04	0	44	0	1271922688	16	4301
2026-01-15 00:52:18.47	249.94	57.02	-27.4	-28.2	16.0	0.00e+00	0	44	0	1275068416	16	3965
2026-01-15 00:52:19.47	249.37	56.75	-27.0	-28.3	16.4	0.00e+00	0	44	0	1278214144	14	4192
2026-01-15 00:52:20.48	248.81	56.47	-27.1	-28.7	16.2	0.00e+00	0	44	0	1281359872	14	4295
2026-01-15 00:52:21.48	248.27	56.19	-27.8	-29.7	15.4	0.00e+00	0	44	0	1284505600	15	4471
2026-01-15 00:52:22.49	247.73	55.90	-28.1	-29.8	15.1	1.14e-04	0	44	0	1287651328	16	4391
2026-01-15 00:52:23.49	247.21	55.62	-27.3	-28.5	15.9	5.30e-06	0	44	0	1290797056	15	4148
2026-01-15 00:52:24.49	246.70	55.34	-27.0	-28.4	16.3	0.00e+00	0	44	0	1293942784	14	4236
2026-01-15 00:52:25.49	246.20	55.06	-26.8	-28.5	16.5	0.00e+00	0	44	0	1297088512	13	4360
2026-01-15 00:52:26.49	245.71	54.78	-26.6	-28.1	16.7	0.00e+00	0	44	0	1300234240	13	4244
2026-01-15 00:52:27.50	245.22	54.49	-26.7	-28.3	16.7	0.00e+00	0	44	0	1303379968	13	4302
2026-01-15 00:52:28.50	244.75	54.20	-27.4	-29.3	15.9	0.00e+00	0	44	0	1306525696	14	4465
2026-01-15 00:52:29.50	244.29	53.92	-28.4	-30.6	14.7	0.00e+00	0	44	0	1309671424	16	4626
2026-01-15 00:52:30.51	243.83	53.63	-28.9	-31.2	14.0	1.50e-06	0	44	0	1312817152	17	4707
2026-01-15 00:52:31.51	243.38	53.35	-29.0	-31.0	13.7	2.20e-06	0	44	0	1315962880	18	4529
2026-01-15 00:52:32.52	242.94	53.06	-28.6	-30.6	14.0	7.00e-07	0	44	0	1319108608	17	4504
2026-01-15 00:52:33.51	242.52	52.78	-28.4	-30.1	14.5	7.00e-07	0	44	0	1322254336	17	4348
2026-01-15 00:52:34.52	242.10	52.49	-28.6	-30.4	14.4	7.00e-07	0	44	0	1325400064	17	4445
2026-01-15 00:52:35.51	241.69	52.21	-28.8	-30.8	14.2	2.20e-06	0	44	0	1328545792	17	4575
2026-01-15 00:52:36.51	241.29	51.92	-28.9	-31.1	14.0	7.00e-07	0	44	0	1331691520	17	4676
2026-01-15 00:52:37.52	240.89	51.63	-29.2	-31.4	13.7	6.80e-06	0	44	0	1334837248	18	4637
2026-01-15 00:52:38.52	240.50	51.35	-29.5	-32.1	13.3	2.13e-05	0	44	0	1337982976	18	4865
2026-01-15 00:52:39.53	240.12	51.06	-30.1	-32.7	12.2	1.38e-04	0	44	0	1341128704	20	4877
2026-01-15 00:52:40.53	239.74	50.78	-30.6	-33.5	11.4	8.33e-04	0	44	0	1344274432	21	5046
2026-01-15 00:52:41.54	239.37	50.49	-30.6	-33.6	11.2	1.31e-03	0	44	0	1347420160	21	5080
2026-01-15 00:52:42.54	239.01	50.21	-30.1	-32.3	12.0	5.61e-04	0	44	0	1350565888	21	4607
2026-01-15 00:52:43.54	238.66	49.93	-29.5	-31.1	13.1	6.63e-05	0	44	0	1353711616	20	4330
2026-01-15 00:52:44.55	238.31	49.64	-29.0	-30.5	13.9	6.10e-06	0	44	0	1356857344	19	4258
2026-01-15 00:52:45.56	237.97	49.36	-29.2	-31.0	13.6	5.30e-06	0	44	0	1360003072	19	4396
2026-01-15 00:52:46.56	237.63	49.08	-29.5	-31.7	13.2	1.98e-05	0	44	0	1363148800	19	4632
2026-01-15 00:52:47.56	237.31	48.80	-30.3	-33.2	11.8	1.27e-04	0	44	0	1366294528	20	5033
2026-01-15 00:52:48.57	236.98	48.52	-30.8	-34.1	10.9	1.98e-03	0	44	0	1369440256	21	5278
2026-01-15 00:52:49.57	236.67	48.24	-30.9	-34.3	10.8	2.19e-03	0	44	0	1372585984	21	5347
2026-01-15 00:52:50.57	236.36	47.96	-31.1	-34.3	10.6	3.94e-03	0	44	0	1375731712	22	5240
2026-01-15 00:52:51.57	236.05	47.68	-31.0	-34.1	10.7	2.92e-03	0	44	0	1378877440	22	5145
2026-01-15 00:52:52.57	235.75	47.41	-30.9	-34.5	10.6	2.73e-03	0	44	0	1382023168	21	5415
2026-01-15 00:52:53.57	235.46	47.13	-31.0	-34.3	10.5	3.97e-03	0	44	0	1385168896	22	5214
2026-01-15 00:52:54.57	235.17	46.86	-31.0	-34.1	10.6	3.56e-03	0	44	0	1388314624	22	5155
2026-01-15 00:52:55.57	234.89	46.59	-30.5	-33.3	11.4	1.73e-03	0	44	0	1391460352	21	4969
2026-01-15 00:52:56.57	234.61	46.32	-29.7	-31.7	12.7	1.26e-04	0	44	0	1394606080	20	4533
2026-01-15 00:52:57.58	234.33	46.04	-29.6	-31.3	12.8	6.25e-05	0	44	0	1397751808	20	4419
2026-01-15 00:52:58.58	234.06	45.77	-29.9	-32.7	12.3	2.46e-04	0	44	0	1400897536	19	4973
2026-01-15 00:52:59.58	233.80	45.50	-30.1	-32.7	11.9	4.59e-04	0	44	0	1404043264	20	4849
2026-01-15 00:53:00.59	233.54	45.23	-30.1	-32.8	12.0	2.97e-04	0	44	0	1407188992	20	4908
2026-01-15 00:53:01.60	233.28	44.97	-30.0	-32.5	12.2	1.81e-04	0	44	0	1410334720	20	4800
2026-01-15 00:53:02.60	233.03	44.70	-30.0	-32.5	12.2	2.10e-04	0	44	0	1413480448	20	4804
2026-01-15 00:53:03.60	232.78	44.44	-29.7	-31.6	12.8	9.23e-05	0	44	0	1416626176	20	4502
2026-01-15 00:53:04.60	232.54	44.17	-29.4	-31.4	13.3	2.74e-05	0	44	0	1419771904	19	4529
2026-01-15 00:53:05.61	232.30	43.91	-29.1	-31.2	13.7	7.60e-06	0	44	0	1422917632	18	4572
2026-01-15 00:53:06.61	232.06	43.65	-29.2	-31.4	13.5	7.60e-06	0	44	0	1426063360	18	4641
2026-01-15 00:53:07.61	231.83	43.39	-29.4	-32.0	13.1	1.52e-05	0	44	0	1429209088	18	4838
2026-01-15 00:53:08.62	231.60	43.13	-29.2	-31.5	13.5	1.60e-05	0	44	0	1432354816	18	4687
2026-01-15 00:53:09.62	231.38	42.87	-28.8	-30.5	14.1	2.20e-06	0	44	0	1435500544	18	4363
2026-01-15 00:53:10.62	231.16	42.62	-28.7	-30.7	14.3	0.00e+00	0	44	0	1438646272	17	4547
2026-01-15 00:53:11.62	230.94	42.36	-29.1	-31.2	13.7	6.80e-06	0	44	0	1441792000	18	4579
2026-01-15 00:53:12.62	230.73	42.11	-29.6	-32.0	12.8	4.04e-05	0	44	0	1444937728	19	4743
2026-01-15 00:53:13.62	230.52	41.86	-30.1	-32.8	11.8	3.75e-04	0	44	0	1448083456	20	4905
2026-01-15 00:53:14.63	230.31	41.61	-30.2	-33.0	11.8	4.36e-04	0	44	0	1451229184	20	4989
2026-01-15 00:53:15.63	230.10	41.36	-30.1	-32.7	12.0	3.40e-03	0	44	0	1454374912	20	4880
2026-01-15 00:53:16.63	229.90	41.11	-29.7	-32.3	12.7	1.43e-04	0	44	0	1457520640	19	4835
2026-01-15 00:53:17.64	229.71	40.86	-29.2	-30.9	13.5	1.75e-05	0	44	0	1460666368	19	4391
2026-01-15 00:53:18.63	229.51	40.62	-28.8	-30.6	14.0	1.50e-06	0	44	0	1463812096	18	4399
2026-01-15 00:53:19.64	229.32	40.37	-28.9	-30.7	14.0	2.20e-06	0	44	0	1466957824	18	4444
2026-01-15 00:53:20.64	229.13	40.13	-28.8	-30.5	14.1	7.00e-07	0	44	0	1470103552	18	4370
2026-01-15 00:53:21.64	228.95	39.89	-28.8	-30.9	14.1	2.25e-03	0	44	0	1473249280	17	4601
2026-01-15 00:53:22.64	228.76	39.65	-28.7	-30.8	14.2	7.00e-07	0	44	0	1476395008	17	4570
2026-01-15 00:53:23.64	228.58	39.41	-28.7	-30.7	14.3	7.00e-07	0	44	0	1479540736	17	4534
2026-01-15 00:53:24.65	228.40	39.17	-28.7	-30.9	14.2	3.80e-06	0	44	0	1481637888	17	4598
2026-01-15 00:53:25.66	228.23	38.93	-29.0	-31.0	13.8	2.83e-03	0	44	0	1484783616	18	4529
2026-01-15 00:53:26.66	228.06	38.70	-29.1	-31.3	13.7	6.10e-06	0	44	0	1487929344	18	4614
2026-01-15 00:53:27.66	227.89	38.46	-29.4	-31.9	13.3	1.37e-05	0	44	0	1491075072	18	4815
2026-01-15 00:53:28.66	227.72	38.23	-29.3	-31.8	13.3	2.28e-05	0	44	0	1494220800	18	4779
2026-01-15 00:53:29.66	227.55	38.00	-29.3	-31.8	13.3	2.13e-05	0	44	0	1497366528	18	4778
2026-01-15 00:53:30.67	227.39	37.77	-29.4	-31.9	13.3	3.48e-03	0	44	0	1500512256	18	4823
2026-01-15 00:53:31.68	227.23	37.54	-29.3	-31.7	13.4	3.69e-03	0	44	0	1503657984	18	4757
2026-01-15 00:53:32.68	227.07	37.31	-29.3	-31.7	13.4	1.37e-05	0	44	0	1506803712	18	4749
2026-01-15 00:53:33.68	226.91	37.09	-29.1	-31.2	13.6	1.22e-05	0	44	0	1509949440	18	4611
2026-01-15 00:53:34.69	226.76	36.86	-29.1	-31.2	13.6	3.25e-03	0	44	0	1513095168	18	4596
2026-01-15 00:53:35.68	226.61	36.64	-28.9	-30.7	13.9	2.20e-06	0	44	0	1516240896	18	4442
2026-01-15 00:53:36.68	226.46	36.42	-28.9	-31.3	13.8	3.15e-03	0	44	0	1519386624	17	4747
2026-01-15 00:53:37.69	226.31	36.19	-28.8	-30.9	14.0	3.07e-03	0	44	0	1522532352	17	4622
2026-01-15 00:53:38.69	226.17	35.98	-28.6	-30.6	14.2	0.00e+00	0	44	0	1525678080	17	4526
2026-01-15 00:53:39.69	226.02	35.76	-28.6	-30.5	14.3	3.12e-03	0	44	0	1528823808	17	4501
2026-01-15 00:53:40.70	225.88	35.54	-28.7	-30.8	14.1	3.43e-03	0	44	0	1531969536	17	4585
2026-01-15 00:53:41.70	225.74	35.32	-28.7	-30.8	14.2	1.50e-06	0	44	0	1535115264	17	4569
2026-01-15 00:53:42.70	225.60	35.11	-28.7	-30.8	14.2	3.20e-03	0	44	0	1538260992	17	4575
2026-01-15 00:53:43.71	225.47	34.89	-28.6	-30.6	14.2	3.01e-03	0	44	0	1541406720	17	4535
2026-01-15 00:53:44.71	225.33	34.68	-28.6	-30.5	14.3	1.50e-06	0	44	0	1544552448	17	4503
2026-01-15 00:53:45.72	225.20	34.47	-28.8	-31.0	14.1	3.11e-03	0	44	0	1547698176	17	4639
2026-01-15 00:53:46.72	225.07	34.26	-29.0	-31.4	13.8	2.97e-03	0	44	0	1550843904	17	4779
2026-01-15 00:53:47.72	224.94	34.05	-29.2	-31.4	13.5	8.30e-06	0	44	0	1553989632	18	4679
2026-01-15 00:53:48.73	224.81	33.84	-29.2	-31.4	13.5	2.88e-03	0	44	0	1557135360	18	4666
2026-01-15 00:53:49.73	224.69	33.64	-28.8	-31.0	14.0	3.00e-06	0	44	0	1560281088	17	4647
2026-01-15 00:53:50.73	224.56	33.44	-28.4	-30.1	14.5	1.50e-06	0	44	0	1563426816	17	4377
2026-01-15 00:53:51.73	224.44	33.23	-28.3	-30.3	14.7	3.28e-03	0	44	0	1566572544	16	4555
2026-01-15 00:53:52.74	224.32	33.03	-28.0	-29.7	15.0	3.20e-03	0	44	0	1569718272	16	4377
2026-01-15 00:53:53.74	224.20	32.83	-27.7	-29.1	15.4	0.00e+00	0	44	0	1572864000	16	4186
2026-01-15 00:53:54.75	224.08	32.63	-27.4	-28.8	15.7	0.00e+00	0	44	0	1576009728	15	4222
2026-01-15 00:53:55.75	223.96	32.43	-27.2	-28.9	15.9	1.98e-04	0	44	0	1579155456	14	4371
2026-01-15 00:53:56.76	223.85	32.23	-27.2	-29.0	15.8	0.00e+00	0	44	0	1582301184	14	4395
2026-01-15 00:53:57.76	223.73	32.03	-27.3	-29.2	15.7	2.64e-03	0	44	0	1585446912	14	4450
2026-01-15 00:53:58.77	223.62	31.84	-27.5	-29.1	15.4	0.00e+00	0	44	0	1588592640	15	4321
2026-01-15 00:53:59.77	223.51	31.64	-27.8	-29.7	15.1	0.00e+00	0	44	0	1591738368	15	4481
2026-01-15 00:54:00.78	223.40	31.45	-27.8	-29.7	15.1	2.85e-04	0	44	0	1594884096	15	4509
2026-01-15 00:54:01.78	223.29	31.26	-27.6	-29.4	15.3	3.42e-04	0	44	0	1598029824	15	4399
2026-01-15 00:54:02.79	223.18	31.06	-27.8	-29.7	15.1	0.00e+00	0	44	0	1601175552	15	4489
2026-01-15 00:54:03.79	223.08	30.88	-27.8	-29.8	15.0	0.00e+00	0	44	0	1604321280	15	4533
2026-01-15 00:54:04.79	222.97	30.69	-27.9	-29.9	15.0	2.30e-04	0	44	0	1607467008	15	4566
2026-01-15 00:54:05.80	222.87	30.50	-27.7	-29.6	15.2	0.00e+00	0	44	0	1610612736	15	4466
2026-01-15 00:54:06.80	222.77	30.31	-27.6	-29.4	15.3	1.90e-04	0	44	0	1613758464	15	4407
2026-01-15 00:54:07.81	222.67	30.13	-27.7	-29.5	15.2	1.50e-04	0	44	0	1616904192	15	4438
2026-01-15 00:54:08.82	222.57	29.94	-27.6	-29.2	15.4	0.00e+00	0	44	0	1620049920	15	4350
2026-01-15 00:54:09.82	222.47	29.76	-27.4	-28.9	15.5	1.04e-04	0	44	0	1623195648	15	4277
2026-01-15 00:54:10.82	222.37	29.58	-27.5	-29.1	15.4	5.03e-05	0	44	0	1626341376	15	4317
2026-01-15 00:54:11.83	222.28	29.40	-27.5	-29.1	15.4	0.00e+00	0	44	0	1629487104	15	4325
2026-01-15 00:54:12.83	222.18	29.22	-27.5	-29.5	15.5	3.00e-06	0	43	0	1632632832	14	4542
2026-01-15 00:54:13.83	222.09	29.04	-27.5	-29.5	15.4	2.20e-06	0	44	0	1635778560	14	4558
2026-01-15 00:54:14.84	221.99	28.86	-27.4	-29.4	15.5	0.00e+00	0	43	0	1638924288	14	4525
2026-01-15 00:54:15.85	221.90	28.68	-27.4	-29.4	15.5	0.00e+00	0	44	0	1642070016	14	4527
2026-01-15 00:54:16.85	221.81	28.51	-27.3	-29.3	15.6	0.00e+00	0	44	0	1645215744	14	4488
2026-01-15 00:54:17.86	221.72	28.33	-27.3	-29.2	15.6	0.00e+00	0	44	0	1648361472	14	4457
2026-01-15 00:54:18.86	221.63	28.16	-27.3	-29.1	15.7	0.00e+00	0	44	0	1651507200	14	4446
2026-01-15 00:54:19.87	221.54	27.98	-27.2	-28.9	15.8	0.00e+00	0	44	0	1654652928	14	4379
2026-01-15 00:54:20.87	221.46	27.81	-27.2	-28.9	15.8	0.00e+00	0	44	0	1657798656	14	4368
2026-01-15 00:54:21.87	221.37	27.64	-27.0	-28.5	16.0	0.00e+00	0	44	0	1660944384	14	4274
2026-01-15 00:54:22.87	221.29	27.47	-26.8	-28.1	16.2	0.00e+00	0	44	0	1664090112	14	4162
2026-01-15 00:54:23.87	221.20	27.30	-26.8	-28.0	16.3	0.00e+00	0	44	0	1667235840	14	4143
2026-01-15 00:54:24.88	221.12	27.13	-27.0	-28.9	16.0	0.00e+00	0	44	0	1670381568	13	4511
2026-01-15 00:54:25.89	221.04	26.97	-26.9	-28.3	16.1	0.00e+00	0	44	0	1673527296	14	4229
2026-01-15 00:54:26.89	220.96	26.80	-27.1	-28.8	15.8	0.00e+00	0	44	0	1676673024	14	4363
2026-01-15 00:54:27.90	220.87	26.64	-27.1	-28.6	15.9	1.29e-04	0	44	0	1679818752	14	4316
2026-01-15 00:54:28.90	220.79	26.47	-27.2	-28.9	15.7	0.00e+00	0	44	0	1682964480	14	4397
2026-01-15 00:54:29.90	220.72	26.31	-27.2	-28.9	15.7	0.00e+00	0	44	0	1686110208	14	4383
2026-01-15 00:54:30.90	220.64	26.15	-27.2	-29.0	15.7	0.00e+00	0	44	0	1689255936	14	4429
2026-01-15 00:54:31.90	220.56	25.99	-27.2	-28.9	15.7	1.98e-04	0	44	0	1692401664	14	4381
2026-01-15 00:54:32.91	220.48	25.83	-27.1	-28.8	15.8	0.00e+00	0	44	0	1695547392	14	4356
2026-01-15 00:54:33.90	220.41	25.67	-27.0	-28.6	15.9	0.00e+00	0	44	0	1698693120	14	4302
2026-01-15 00:54:34.91	220.33	25.51	-27.1	-28.8	15.8	0.00e+00	0	44	0	1701838848	14	4356
2026-01-15 00:54:35.91	220.26	25.35	-27.0	-28.4	16.0	0.00e+00	0	44	0	1704984576	14	4263
2026-01-15 00:54:36.92	220.19	25.19	-26.8	-28.5	16.2	0.00e+00	0	44	0	1708130304	13	4397
2026-01-15 00:54:37.92	220.12	25.04	-26.8	-28.4	16.2	3.70e-04	0	44	0	1711276032	13	4371
2026-01-15 00:54:38.91	220.04	24.88	-26.8	-28.6	16.2	0.00e+00	0	44	0	1714421760	13	4412
2026-01-15 00:54:39.92	219.97	24.73	-26.7	-28.3	16.3	0.00e+00	0	44	0	1717567488	13	4333
2026-01-15 00:54:40.92	219.90	24.58	-26.7	-28.4	16.3	0.00e+00	0	44	0	1720713216	13	4346
2026-01-15 00:54:41.93	219.83	24.42	-26.7	-28.2	16.3	0.00e+00	0	44	0	1723858944	13	4309
2026-01-15 00:54:42.93	219.76	24.27	-26.8	-28.6	16.1	2.20e-06	0	44	0	1727004672	13	4404
2026-01-15 00:54:43.93	219.70	24.12	-26.9	-28.7	16.0	0.00e+00	0	44	0	1730150400	13	4453
2026-01-15 00:54:44.94	219.63	23.97	-27.1	-28.6	15.8	0.00e+00	0	44	0	1733296128	14	4314
2026-01-15 00:54:45.94	219.56	23.82	-27.3	-29.1	15.6	0.00e+00	0	44	0	1736441856	14	4437
2026-01-15 00:54:46.95	219.49	23.67	-27.2	-29.0	15.6	0.00e+00	0	44	0	1739587584	14	4414
2026-01-15 00:54:47.95	219.43	23.52	-27.2	-29.0	15.6	2.20e-06	0	44	0	1742733312	14	4412
2026-01-15 00:54:48.95	219.36	23.38	-27.3	-29.2	15.5	0.00e+00	0	44	0	1745879040	14	4459
2026-01-15 00:54:49.95	219.30	23.23	-27.2	-29.0	15.7	0.00e+00	0	44	0	1749024768	14	4401
2026-01-15 00:54:50.95	219.24	23.09	-27.1	-28.7	15.8	5.30e-06	0	44	0	1752170496	14	4339
2026-01-15 00:54:51.95	219.17	22.94	-27.2	-29.1	15.6	0.00e+00	0	44	0	1755316224	14	4437
2026-01-15 00:54:52.96	219.11	22.80	-27.2	-28.9	15.7	0.00e+00	0	44	0	1758461952	14	4376
2026-01-15 00:54:53.96	219.05	22.66	-27.1	-28.7	15.7	4.50e-06	0	44	0	1761607680	14	4332
2026-01-15 00:54:54.97	218.99	22.51	-27.1	-28.7	15.7	0.00e+00	0	44	0	1764753408	14	4345
2026-01-15 00:54:55.97	218.93	22.37	-26.3	-28.0	15.7	0.00e+00	0	44	0	1767899136	14	4371
2026-01-15 00:54:56.96	218.87	22.23	-27.2	-29.0	13.9	6.80e-06	0	44	0	1771044864	14	4416
2026-01-15 00:54:57.97	218.81	22.09	-27.2	-28.9	13.7	0.00e+00	0	44	0	1774190592	14	4403
2026-01-15 00:54:58.97	218.75	21.95	-27.2	-29.0	15.5	0.00e+00	0	44	0	1777336320	14	4425
2026-01-15 00:54:59.98	218.69	21.81	-27.3	-29.1	15.5	5.30e-06	0	44	0	1779433472	14	4451
2026-01-15 00:55:00.97	218.63	21.68	-27.2	-29.1	15.5	0.00e+00	0	44	0	1782579200	14	4442
2026-01-15 00:55:01.98	218.58	21.54	-27.2	-28.9	15.6	0.00e+00	0	44	0	1785724928	14	4407
2026-01-15 00:55:02.98	218.52	21.40	-27.3	-29.2	15.4	7.00e-07	0	44	0	1788870656	14	4490
2026-01-15 00:55:03.99	218.46	21.27	-27.2	-28.9	15.6	0.00e+00	0	44	0	1793064960	14	4386
2026-01-15 00:55:04.99	218.41	21.13	-27.1	-28.7	15.7	4.19e-04	0	44	0	1796210688	14	4334
2026-01-15 00:55:05.99	218.35	21.00	-27.1	-28.7	15.7	2.17e-03	0	44	0	1799356416	14	4340
2026-01-15 00:55:07.00	218.30	20.86	-27.0	-28.6	15.8	0.00e+00	0	44	0	1802502144	14	4301
2026-01-15 00:55:08.00	218.24	20.73	-27.5	-29.1	15.8	0.00e+00	0	44	0	1804599296	14	4332
2026-01-15 00:55:09.00	218.19	20.60	-27.0	-28.6	15.8	3.13e-04	0	44	0	1807745024	14	4301
2026-01-15 00:55:10.01	218.13	20.47	-27.0	-28.5	15.8	6.06e-04	0	44	0	1810890752	14	4275
2026-01-15 00:55:11.01	218.08	20.34	-27.0	-29.0	15.8	2.17e-04	0	44	0	1814036480	13	4535
2026-01-15 00:55:12.01	218.03	20.21	-27.0	-28.5	15.8	0.00e+00	0	44	0	1817182208	14	4294
2026-01-15 00:55:13.01	217.98	20.08	-27.1	-28.7	15.7	0.00e+00	0	44	0	1820327936	14	4330
2026-01-15 00:55:14.01	217.93	19.95	-27.0	-28.6	15.8	1.14e-04	0	44	0	1823473664	14	4308
2026-01-15 00:55:15.02	217.88	19.82	-27.1	-28.8	15.6	1.59e-04	0	44	0	1826619392	14	4375
2026-01-15 00:55:16.02	217.82	19.69	-27.2	-28.9	15.5	1.59e-04	0	44	0	1829765120	14	4405
2026-01-15 00:55:17.03	217.77	19.56	-27.3	-29.2	15.4	0.00e+00	0	44	0	1832910848	14	4470
2026-01-15 00:55:18.03	217.72	19.44	-27.2	-29.0	15.5	0.00e+00	0	44	0	1836056576	14	4438
2026-01-15 00:55:19.03	217.68	19.31	-27.3	-29.3	15.3	1.68e-04	0	44	0	1839202304	14	4521
2026-01-15 00:55:20.03	217.63	19.19	-27.4	-29.4	15.2	1.50e-06	0	44	0	1842348032	14	4548
2026-01-15 00:55:21.03	217.58	19.06	-27.4	-29.5	15.2	2.92e-04	0	44	0	1845493760	14	4568
2026-01-15 00:55:22.04	217.53	18.94	-27.5	-29.2	15.0	3.82e-04	0	44	0	1848639488	15	4379
2026-01-15 00:55:23.04	217.48	18.82	-27.7	-29.5	14.9	6.48e-05	0	44	0	1851785216	15	4476
2026-01-15 00:55:24.04	217.44	18.69	-27.5	-29.2	15.0	4.81e-04	0	44	0	1854930944	15	4388
2026-01-15 00:55:25.05	217.39	18.57	-27.5	-29.1	15.1	4.79e-04	0	44	0	1858076672	15	4346
2026-01-15 00:55:26.05	217.34	18.45	-27.4	-29.1	15.1	1.14e-05	0	44	0	1861222400	15	4336
2026-01-15 00:55:27.05	217.30	18.33	-27.5	-29.1	15.1	5.30e-04	0	44	0	1864368128	15	4354
2026-01-15 00:55:28.05	217.25	18.21	-27.5	-29.6	15.1	6.23e-04	0	44	0	1867513856	14	4593
2026-01-15 00:55:29.05	217.21	18.09	-27.5	-29.2	15.0	7.00e-07	0	44	0	1870659584	15	4388
2026-01-15 00:55:30.06	217.16	17.97	-27.4	-29.0	15.1	7.35e-04	0	44	0	1873805312	15	4324
2026-01-15 00:55:31.06	217.12	17.85	-27.5	-29.2	15.0	8.65e-04	0	44	0	1876951040	15	4367
2026-01-15 00:55:32.06	217.07	17.73	-27.5	-29.2	15.0	6.10e-05	0	44	0	1880096768	15	4377
2026-01-15 00:55:33.07	217.03	17.61	-27.6	-29.4	14.9	0.00e+00	0	44	0	1883242496	15	4424
2026-01-15 00:55:34.07	216.99	17.50	-27.6	-29.5	14.8	0.00e+00	0	44	0	1886388224	15	4449
2026-01-15 00:55:35.08	216.94	17.38	-27.6	-29.4	14.9	3.00e-06	0	44	0	1889533952	15	4439
2026-01-15 00:55:36.07	216.90	17.26	-27.6	-29.4	14.9	8.73e-04	0	44	0	1892679680	15	4431
2026-01-15 00:55:37.08	216.86	17.15	-27.8	-29.9	14.5	8.22e-04	0	44	0	1895825408	15	4591
2026-01-15 00:55:38.09	216.81	17.03	-27.7	-29.7	14.7	0.00e+00	0	44	0	1898971136	15	4525
2026-01-15 00:55:39.09	216.77	16.92	-27.7	-29.6	14.7	0.00e+00	0	44	0	1902116864	15	4507
2026-01-15 00:55:40.10	216.73	16.80	-27.9	-30.1	14.4	5.03e-04	0	44	0	1905262592	15	4654
2026-01-15 00:55:41.10	216.69	16.69	-27.9	-30.0	14.5	4.04e-05	0	44	0	1908408320	15	4616
2026-01-15 00:55:42.10	216.65	16.58	-27.8	-29.8	14.6	6.60e-04	0	44	0	1911554048	15	4549
2026-01-15 00:55:43.10	216.61	16.46	-27.9	-30.1	14.4	1.50e-06	0	44	0	1914699776	15	4653
2026-01-15 00:55:44.11	216.57	16.35	-27.8	-29.9	14.5	7.00e-07	0	44	0	1917845504	15	4593
2026-01-15 00:55:45.11	216.53	16.24	-27.9	-30.1	14.4	5.36e-04	0	44	0	1920991232	15	4639
2026-01-15 00:55:46.11	216.49	16.13	-27.9	-30.1	14.4	4.37e-04	0	44	0	1924136960	15	4648
2026-01-15 00:55:47.11	216.45	16.02	-27.9	-30.2	14.3	3.80e-06	0	44	0	1927282688	15	4669
2026-01-15 00:55:48.12	216.41	15.91	-27.9	-30.2	14.4	7.00e-07	0	44	0	1930428416	15	4668
2026-01-15 00:55:49.12	216.37	15.80	-27.9	-30.2	14.3	0.00e+00	0	44	0	1933574144	15	4685
2026-01-15 00:55:50.12	216.34	15.69	-27.9	-30.2	14.3	1.06e-05	0	44	0	1936719872	15	4687
2026-01-15 00:55:51.12	216.30	15.58	-28.0	-30.3	14.3	4.20e-04	0	44	0	1939865600	15	4718
2026-01-15 00:55:52.11	216.26	15.48	-28.2	-30.3	14.1	7.69e-04	0	44	0	1943011328	16	4589
2026-01-15 00:55:53.11	216.22	15.37	-28.4	-30.7	13.9	3.80e-06	0	44	0	1946157056	16	4710
2026-01-15 00:55:54.11	216.19	15.26	-28.4	-30.9	13.8	6.10e-06	0	44	0	1949302784	16	4765
2026-01-15 00:55:55.12	216.15	15.15	-28.5	-31.0	13.7	3.71e-04	0	44	0	1952448512	16	4790
2026-01-15 00:55:56.12	216.11	15.05	-28.4	-30.7	13.9	9.90e-06	0	44	0	1955594240	16	4722
2026-01-15 00:55:57.12	216.08	14.94	-28.5	-30.6	13.6	7.74e-04	0	44	0	1958739968	17	4571
2026-01-15 00:55:58.12	216.04	14.84	-28.8	-31.2	13.3	1.60e-05	0	44	0	1961885696	17	4745
2026-01-15 00:55:59.12	216.01	14.73	-28.4	-30.3	13.8	9.10e-06	0	44	0	1965031424	17	4490
2026-01-15 00:56:00.12	215.97	14.63	-28.4	-30.8	13.8	1.08e-04	0	44	0	1968177152	16	4739
2026-01-15 00:56:01.13	215.94	14.52	-28.4	-30.9	13.7	6.17e-05	0	44	0	1971322880	16	4764
2026-01-15 00:56:02.13	215.90	14.42	-28.3	-30.5	13.9	1.50e-06	0	44	0	1974468608	16	4642
2026-01-15 00:56:03.13	215.87	14.32	-28.1	-30.0	14.2	2.20e-06	0	44	0	1977614336	16	4501
2026-01-15 00:56:04.13	215.83	14.22	-28.0	-29.9	14.3	2.20e-06	0	44	0	1980760064	16	4455
2026-01-15 00:56:05.14	215.80	14.11	-28.0	-29.7	14.4	7.00e-07	0	44	0	1983905792	16	4415
2026-01-15 00:56:06.14	215.77	14.01	-28.0	-30.3	14.2	2.20e-06	0	44	0	1987051520	15	4722
2026-01-15 00:56:07.13	215.73	13.91	-27.9	-30.1	14.3	1.50e-06	0	44	0	1990197248	15	4641
2026-01-15 00:56:08.14	215.70	13.81	-28.0	-30.3	14.2	1.50e-06	0	44	0	1993342976	15	4716
2026-01-15 00:56:09.14	215.67	13.71	-27.9	-30.2	14.2	1.50e-06	0	44	0	1996488704	15	4681
2026-01-15 00:56:10.14	215.63	13.61	-28.2	-30.3	14.0	2.20e-06	0	44	0	1999634432	16	4576
2026-01-15 00:56:11.14	215.60	13.51	-28.5	-31.0	13.6	3.00e-06	0	44	0	2002780160	16	4806
2026-01-15 00:56:12.14	215.57	13.41	-28.2	-30.3	14.0	2.20e-06	0	44	0	2005925888	16	4608
2026-01-15 00:56:13.15	215.54	13.31	-28.1	-30.1	14.1	3.00e-06	0	44	0	2009071616	16	4536
2026-01-15 00:56:14.15	215.50	13.21	-28.0	-30.0	14.2	2.20e-06	0	44	0	2012217344	16	4488
2026-01-15 00:56:15.15	215.47	13.11	-27.9	-30.2	14.2	1.50e-06	0	44	0	2015363072	15	4682
2026-01-15 00:56:16.15	215.44	13.01	-27.9	-30.2	14.2	7.00e-07	0	44	0	2018508800	15	4678
2026-01-15 00:56:17.15	215.41	12.92	-28.0	-30.3	14.1	7.00e-07	0	44	0	2021654528	15	4725
2026-01-15 00:56:18.15	215.38	12.82	-27.9	-30.1	14.2	7.00e-07	0	44	0	2024800256	15	4655
2026-01-15 00:56:19.15	215.35	12.72	-27.9	-30.1	14.2	2.20e-06	0	44	0	2027945984	15	4666
2026-01-15 00:56:20.16	215.32	12.63	-27.9	-30.3	14.1	1.50e-06	0	44	0	2031091712	15	4716
2026-01-15 00:56:21.16	215.29	12.53	-27.9	-30.2	14.2	0.00e+00	0	44	0	2033188864	15	4675
2026-01-15 00:56:22.17	215.26	12.43	-27.9	-30.2	14.1	1.50e-06	0	44	0	2036334592	15	4689
2026-01-15 00:56:23.17	215.23	12.34	-28.2	-30.3	14.0	3.00e-06	0	44	0	2039480320	16	4585
2026-01-15 00:56:24.17	215.20	12.24	-28.4	-30.8	13.6	8.30e-06	0	44	0	2042626048	16	4751
2026-01-15 00:56:25.17	215.17	12.15	-28.2	-30.4	13.8	1.22e-05	0	44	0	2045771776	16	4634
2026-01-15 00:56:26.18	215.14	12.06	-28.0	-30.0	14.1	3.80e-06	0	44	0	2048917504	16	4501
2026-01-15 00:56:27.18	215.11	11.96	-27.9	-30.2	14.1	2.20e-06	0	44	0	2052063232	15	4683
2026-01-15 00:56:28.19	215.08	11.87	-27.9	-30.2	14.1	3.80e-06	0	44	0	2055208960	15	4698
2026-01-15 00:56:29.19	215.05	11.77	-28.2	-30.3	13.9	5.30e-06	0	44	0	2058354688	16	4589
2026-01-15 00:56:30.19	215.02	11.68	-28.0	-30.0	14.1	3.00e-06	0	44	0	2061500416	16	4493
2026-01-15 00:56:31.19	215.00	11.59	-28.2	-30.3	13.9	3.00e-06	0	44	0	2064646144	16	4596
2026-01-15 00:56:32.19	214.97	11.50	-28.0	-30.0	14.1	3.80e-06	0	44	0	2067791872	16	4513
2026-01-15 00:56:33.19	214.94	11.41	-28.1	-30.1	14.0	1.50e-06	0	44	0	2070937600	16	4546
2026-01-15 00:56:34.19	214.91	11.31	-27.9	-30.2	14.0	4.50e-06	0	44	0	2074083328	15	4696
2026-01-15 00:56:35.19	214.89	11.22	-27.9	-30.3	14.0	2.20e-06	0	44	0	2077229056	15	4709
2026-01-15 00:56:36.20	214.86	11.13	-28.1	-30.2	13.9	3.80e-06	0	44	0	2080374784	16	4577
2026-01-15 00:56:37.20	214.83	11.04	-28.1	-30.0	14.0	6.10e-06	0	44	0	2083520512	16	4522
2026-01-15 00:56:38.21	214.80	10.95	-28.1	-30.1	14.0	1.50e-06	0	44	0	2086666240	16	4548
2026-01-15 00:56:39.22	214.78	10.86	-28.2	-30.3	13.8	4.50e-06	0	44	0	2089811968	16	4601
2026-01-15 00:56:40.22	214.75	10.77	-28.1	-30.2	13.9	8.30e-06	0	44	0	2092957696	16	4562
2026-01-15 00:56:41.23	214.72	10.68	-28.2	-30.5	13.7	6.80e-06	0	44	0	2096103424	16	4663
2026-01-15 00:56:42.23	214.70	10.59	-28.2	-30.4	13.7	3.00e-06	0	44	0	2099249152	16	4649
2026-01-15 00:56:43.23	214.67	10.50	-28.3	-30.7	13.5	1.06e-05	0	44	0	2102394880	16	4745
2026-01-15 00:56:44.24	214.65	10.42	-28.4	-30.9	13.4	7.60e-06	0	44	0	2105540608	16	4793
2026-01-15 00:56:45.24	214.62	10.33	-28.2	-30.5	13.7	9.10e-06	0	43	0	2108686336	16	4663
2026-01-15 00:56:46.24	214.60	10.24	-28.3	-30.6	13.6	6.80e-06	0	44	0	2111832064	16	4695
2026-01-15 00:56:47.25	214.57	10.15	-28.4	-31.0	13.4	9.10e-06	0	44	0	2114977792	16	4819
2026-01-15 00:56:48.25	214.54	10.07	-27.5	-29.9	13.4	8.30e-06	0	44	0	2118123520	16	4783
2026-01-15 00:56:49.26	214.52	9.98	-28.5	-30.6	13.2	1.75e-05	0	44	0	2121269248	17	4598
2026-01-15 00:56:50.26	214.49	9.89	-28.4	-30.3	13.0	1.44e-05	0	44	0	2124414976	17	4498
2026-01-15 00:56:51.27	214.47	9.81	-28.3	-30.6	13.3	7.60e-06	0	44	0	2127560704	16	4707
2026-01-15 00:56:52.27	214.45	9.72	-28.3	-30.8	13.5	1.29e-05	0	44	0	2130706432	16	4759
2026-01-15 00:56:53.27	214.42	9.63	-28.4	-30.8	13.4	9.10e-06	0	44	0	2133852160	16	4769
2026-01-15 00:56:54.28	214.40	9.55	-28.5	-31.0	13.3	1.55e-03	0	44	0	2136997888	16	4847
