passes_logs/2026/01/15/R2M6_AANII_01/R2M6_AANII_01__20260115_021410_FENGYUN_3D_rec.log

#Pass ID: 20260115_021410_FENGYUN 3D
#Satellite: FENGYUN 3D
#Configuration: FENGYUN 3D
#almurnet v.1.7.20240730
#Start time: 2026-01-15 02:14:11

#Version: 2.2.20231116
#Station: R2M6_AANII_01
#Location: 30.233357 lon 59.946436 lat
#TLE: 1 43010U 17072A   26014.22831475  .00000226  00000+0  12883-3 0  9994
#TLE: 2 43010  98.9934 346.0326 0002309 109.2304 250.9121 14.19696287423146

#Time	Az	El	Level	Level2	SNR	BER	BlckErr	Temp	State	Recorded	gain1	gain2
2026-01-15 02:14:11.65	19.66	7.09	-28.8	-31.6	5.6	7.82e-01	0	41	0	0	17	4990
2026-01-15 02:14:12.65	19.67	7.17	-28.8	-31.5	5.6	7.79e-01	0	41	104	0	17	4942
2026-01-15 02:14:13.65	19.69	7.25	-28.7	-31.3	11.5	7.41e-04	0	41	0	0	17	4882
2026-01-15 02:14:14.65	19.70	7.32	-28.8	-31.6	11.4	6.18e-04	0	41	0	5242880	17	4967
2026-01-15 02:14:15.65	19.72	7.40	-28.8	-31.7	11.3	1.06e-03	0	41	0	10485760	17	5009
2026-01-15 02:14:16.66	19.73	7.48	-28.9	-31.9	11.2	8.46e-04	0	41	0	16777216	17	5068
2026-01-15 02:14:17.66	19.75	7.56	-29.2	-32.1	10.8	1.68e-03	0	41	0	22020096	18	5025
2026-01-15 02:14:18.66	19.76	7.64	-29.1	-31.8	11.0	1.92e-03	0	42	0	28311552	18	4908
2026-01-15 02:14:19.66	19.78	7.72	-28.7	-31.3	11.6	6.83e-04	0	42	0	33554432	17	4856
2026-01-15 02:14:20.66	19.79	7.79	-28.3	-30.7	12.2	1.93e-03	0	41	0	38797312	16	4789
2026-01-15 02:14:21.66	19.81	7.87	-27.8	-29.7	12.9	4.80e-05	0	42	0	45088768	16	4466
2026-01-15 02:14:22.66	19.82	7.95	-27.5	-29.4	13.2	2.40e-05	0	42	0	50331648	15	4507
2026-01-15 02:14:23.67	19.84	8.03	-27.1	-29.1	13.7	6.80e-06	0	42	0	55574528	14	4517
2026-01-15 02:14:24.67	19.85	8.11	-27.0	-28.7	13.9	2.20e-06	0	42	0	61865984	14	4390
2026-01-15 02:14:25.67	19.87	8.19	-26.9	-29.1	13.9	1.34e-03	0	41	0	67108864	13	4641
2026-01-15 02:14:26.67	19.88	8.27	-26.8	-28.9	14.1	0.00e+00	0	42	0	73400320	13	4556
2026-01-15 02:14:27.68	19.90	8.35	-27.1	-29.0	13.7	1.44e-04	0	42	0	78643200	14	4491
2026-01-15 02:14:28.68	19.92	8.44	-27.0	-28.7	14.0	1.10e-06	0	42	0	83886080	14	4385
2026-01-15 02:14:29.68	19.93	8.52	-26.7	-28.7	14.3	1.45e-03	0	42	0	90177536	13	4499
2026-01-15 02:14:30.68	19.95	8.60	-26.6	-28.3	14.5	0.00e+00	0	42	0	95420416	13	4381
2026-01-15 02:14:31.69	19.96	8.68	-26.5	-28.1	14.6	0.00e+00	0	42	0	100663296	13	4336
2026-01-15 02:14:32.70	19.98	8.76	-26.5	-28.0	14.7	1.26e-03	0	42	0	106954752	13	4315
2026-01-15 02:14:33.71	19.99	8.85	-25.8	-27.4	14.6	0.00e+00	0	42	0	112197632	13	4305
2026-01-15 02:14:34.71	20.01	8.93	-26.4	-27.9	14.4	1.20e-03	0	42	0	118489088	13	4274
2026-01-15 02:14:35.72	20.03	9.01	-26.6	-28.4	14.5	0.00e+00	0	42	0	123731968	13	4415
2026-01-15 02:14:36.73	20.04	9.10	-26.6	-28.3	14.3	1.14e-04	0	42	0	128974848	13	4377
2026-01-15 02:14:37.73	20.06	9.18	-26.4	-28.0	14.7	1.33e-03	0	42	0	135266304	13	4293
2026-01-15 02:14:38.74	20.08	9.26	-26.3	-28.1	14.9	1.28e-03	0	42	0	140509184	12	4448
2026-01-15 02:14:39.74	20.09	9.35	-26.3	-28.1	14.9	6.98e-05	0	42	0	146800640	12	4451
2026-01-15 02:14:40.75	20.11	9.43	-26.3	-28.1	14.9	0.00e+00	0	42	0	152043520	12	4447
2026-01-15 02:14:41.76	20.12	9.52	-26.4	-28.4	14.7	1.22e-03	0	42	0	158334976	12	4532
2026-01-15 02:14:42.76	20.14	9.60	-26.4	-28.3	14.8	2.75e-04	0	42	0	163577856	12	4503
2026-01-15 02:14:43.75	20.16	9.69	-26.4	-28.3	14.8	1.21e-03	0	42	0	168820736	12	4512
2026-01-15 02:14:44.76	20.17	9.77	-26.5	-28.2	14.6	1.31e-03	0	42	0	175112192	13	4353
2026-01-15 02:14:45.76	20.19	9.86	-26.5	-28.0	14.7	2.96e-04	0	42	0	180355072	13	4302
2026-01-15 02:14:46.77	20.21	9.94	-26.4	-28.4	14.8	1.34e-03	0	42	0	185597952	12	4513
2026-01-15 02:14:47.77	20.23	10.03	-26.4	-27.9	14.8	1.28e-03	0	42	0	191889408	13	4271
2026-01-15 02:14:48.78	20.24	10.12	-26.3	-28.1	15.0	5.95e-05	0	42	0	197132288	12	4431
2026-01-15 02:14:49.78	20.26	10.20	-26.2	-28.0	15.1	2.55e-04	0	42	0	202375168	12	4406
2026-01-15 02:14:50.78	20.28	10.29	-26.4	-28.3	14.9	1.18e-03	0	42	0	208666624	12	4484
2026-01-15 02:14:51.78	20.29	10.38	-26.3	-28.1	15.0	3.77e-05	0	42	0	213909504	12	4442
2026-01-15 02:14:52.78	20.31	10.47	-26.2	-28.0	15.1	1.47e-03	0	42	0	220200960	12	4409
2026-01-15 02:14:53.78	20.33	10.55	-26.1	-27.7	15.2	1.25e-03	0	42	0	225443840	12	4320
2026-01-15 02:14:54.78	20.35	10.64	-26.2	-27.9	15.1	2.94e-04	0	42	0	230686720	12	4372
2026-01-15 02:14:55.79	20.36	10.73	-26.1	-27.6	15.3	1.11e-03	0	42	0	236978176	12	4305
2026-01-15 02:14:56.79	20.38	10.82	-25.9	-27.3	15.5	0.00e+00	0	42	0	242221056	12	4219
2026-01-15 02:14:57.79	20.40	10.91	-26.0	-27.5	15.4	2.20e-06	0	42	0	247463936	12	4258
2026-01-15 02:14:58.79	20.42	11.00	-26.0	-27.9	15.5	1.13e-03	0	42	0	253755392	11	4487
2026-01-15 02:14:59.80	20.43	11.09	-25.9	-27.3	15.5	0.00e+00	0	42	0	258998272	12	4215
2026-01-15 02:15:00.80	20.45	11.18	-26.0	-27.5	15.4	0.00e+00	0	42	0	264241152	12	4262
2026-01-15 02:15:01.81	20.47	11.27	-26.0	-27.4	15.5	3.51e-04	0	42	0	270532608	12	4240
2026-01-15 02:15:02.81	20.49	11.36	-26.0	-27.4	15.5	1.17e-03	0	43	0	275775488	12	4233
2026-01-15 02:15:03.82	20.51	11.46	-26.0	-27.5	15.4	3.26e-04	0	42	0	282066944	12	4274
2026-01-15 02:15:04.82	20.52	11.55	-26.0	-27.5	15.4	1.12e-03	0	42	0	287309824	12	4274
2026-01-15 02:15:05.83	20.54	11.64	-26.0	-27.5	15.4	0.00e+00	0	42	0	293601280	12	4277
2026-01-15 02:15:06.83	20.56	11.73	-26.2	-27.9	15.2	3.28e-04	0	42	0	298844160	12	4389
2026-01-15 02:15:07.84	20.58	11.83	-26.1	-27.8	15.3	3.24e-04	0	43	0	304087040	12	4340
2026-01-15 02:15:08.84	20.60	11.92	-26.1	-27.7	15.4	0.00e+00	0	43	0	310378496	12	4312
2026-01-15 02:15:09.85	20.62	12.01	-26.1	-27.8	15.3	0.00e+00	0	42	0	315621376	12	4343
2026-01-15 02:15:10.86	20.64	12.11	-26.4	-28.3	15.0	3.47e-04	0	43	0	321912832	12	4491
2026-01-15 02:15:11.86	20.66	12.20	-26.2	-27.9	15.2	0.00e+00	0	42	0	327155712	12	4386
2026-01-15 02:15:12.86	20.67	12.30	-26.1	-27.8	15.3	3.64e-04	0	43	0	332398592	12	4341
2026-01-15 02:15:13.85	20.69	12.39	-26.1	-27.8	15.3	3.24e-04	0	43	0	337641472	12	4344
2026-01-15 02:15:14.86	20.71	12.49	-26.1	-27.7	15.4	0.00e+00	0	43	0	343932928	12	4307
2026-01-15 02:15:15.86	20.73	12.58	-26.3	-28.0	15.2	3.36e-04	0	43	0	349175808	12	4417
2026-01-15 02:15:16.87	20.75	12.68	-26.2	-27.8	15.3	3.40e-04	0	43	0	355467264	12	4345
2026-01-15 02:15:17.86	20.77	12.78	-26.0	-27.5	15.5	0.00e+00	0	43	0	360710144	12	4263
2026-01-15 02:15:18.86	20.79	12.87	-26.0	-27.4	15.6	3.66e-04	0	43	0	367001600	12	4243
2026-01-15 02:15:19.86	20.81	12.97	-26.0	-27.5	15.5	4.10e-04	0	43	0	372244480	12	4259
2026-01-15 02:15:20.86	20.83	13.07	-26.0	-27.3	15.6	0.00e+00	0	43	0	377487360	12	4226
2026-01-15 02:15:21.87	20.85	13.17	-26.0	-27.3	15.6	3.72e-04	0	43	0	383778816	12	4212
2026-01-15 02:15:22.87	20.87	13.26	-26.0	-27.5	15.5	3.83e-04	0	43	0	389021696	12	4258
2026-01-15 02:15:23.88	20.89	13.36	-25.9	-27.2	15.7	0.00e+00	0	43	0	394264576	12	4193
2026-01-15 02:15:24.89	20.91	13.46	-26.0	-27.3	15.6	3.63e-04	0	43	0	400556032	12	4226
2026-01-15 02:15:25.89	20.93	13.56	-25.9	-27.7	15.8	3.29e-04	0	43	0	405798912	11	4424
2026-01-15 02:15:26.90	20.95	13.66	-25.9	-27.7	15.8	0.00e+00	0	43	0	411041792	11	4435
2026-01-15 02:15:27.90	20.97	13.76	-26.0	-27.5	15.6	3.92e-04	0	43	0	417333248	12	4254
2026-01-15 02:15:28.90	20.99	13.86	-26.2	-27.9	15.3	3.83e-04	0	43	0	422576128	12	4388
2026-01-15 02:15:29.90	21.01	13.97	-26.0	-27.5	15.6	0.00e+00	0	43	0	428867584	12	4253
2026-01-15 02:15:30.90	21.03	14.07	-25.9	-27.3	15.7	0.00e+00	0	43	0	434110464	12	4200
2026-01-15 02:15:31.90	21.06	14.17	-25.9	-27.8	15.7	3.87e-04	0	43	0	439353344	11	4447
2026-01-15 02:15:32.91	21.08	14.27	-25.9	-27.6	15.8	0.00e+00	0	43	0	445644800	11	4405
2026-01-15 02:15:33.92	21.10	14.38	-25.9	-27.6	15.8	3.46e-04	0	43	0	450887680	11	4414
2026-01-15 02:15:34.93	21.12	14.48	-25.8	-27.4	16.0	0.00e+00	0	43	0	457179136	11	4360
2026-01-15 02:15:35.93	21.14	14.59	-25.9	-27.6	15.9	0.00e+00	0	43	0	462422016	11	4398
2026-01-15 02:15:36.92	21.16	14.69	-25.8	-27.4	16.0	3.68e-04	0	43	0	467664896	11	4340
2026-01-15 02:15:37.92	21.18	14.79	-25.6	-26.9	16.2	0.00e+00	0	43	0	473956352	11	4218
2026-01-15 02:15:38.92	21.21	14.90	-25.4	-26.6	16.5	0.00e+00	0	43	0	479199232	11	4117
2026-01-15 02:15:39.92	21.23	15.00	-25.4	-26.6	16.5	0.00e+00	0	43	0	484442112	11	4123
2026-01-15 02:15:40.92	21.25	15.11	-25.5	-27.2	16.4	3.04e-04	0	43	0	490733568	10	4412
2026-01-15 02:15:41.93	21.27	15.22	-25.2	-26.7	16.7	0.00e+00	0	43	0	495976448	10	4277
2026-01-15 02:15:42.93	21.29	15.32	-25.2	-26.6	16.7	2.91e-04	0	43	0	502267904	10	4238
2026-01-15 02:15:43.93	21.32	15.43	-25.2	-26.6	16.7	3.51e-04	0	43	0	507510784	10	4231
2026-01-15 02:15:44.93	21.34	15.54	-25.3	-26.9	16.6	0.00e+00	0	43	0	512753664	10	4308
2026-01-15 02:15:45.93	21.36	15.65	-25.1	-26.5	16.8	3.03e-04	0	43	0	519045120	10	4218
2026-01-15 02:15:46.93	21.38	15.76	-25.0	-26.1	17.0	0.00e+00	0	43	0	524288000	10	4122
2026-01-15 02:15:47.93	21.41	15.87	-24.9	-25.9	17.1	0.00e+00	0	43	0	529530880	10	4060
2026-01-15 02:15:48.93	21.43	15.98	-24.8	-25.9	17.1	0.00e+00	0	43	0	535822336	10	4046
2026-01-15 02:15:49.93	21.45	16.09	-24.8	-26.2	17.2	0.00e+00	0	43	0	541065216	9	4242
2026-01-15 02:15:50.93	21.48	16.20	-24.8	-26.2	17.2	0.00e+00	0	43	0	546308096	9	4252
2026-01-15 02:15:51.94	21.50	16.31	-24.7	-26.0	17.3	0.00e+00	0	43	0	552599552	9	4194
2026-01-15 02:15:52.93	21.52	16.42	-24.6	-25.9	17.4	2.85e-04	0	43	0	557842432	9	4175
2026-01-15 02:15:53.93	21.55	16.53	-24.7	-26.0	17.4	0.00e+00	0	43	0	564133888	9	4186
2026-01-15 02:15:54.94	21.57	16.65	-24.7	-26.1	17.3	2.89e-04	0	43	0	569376768	9	4230
2026-01-15 02:15:55.93	21.60	16.76	-24.9	-26.6	17.0	0.00e+00	0	43	0	574619648	9	4344
2026-01-15 02:15:56.94	21.62	16.87	-24.8	-26.4	17.2	0.00e+00	0	43	0	580911104	9	4292
2026-01-15 02:15:57.94	21.65	16.99	-24.9	-26.4	17.2	0.00e+00	0	43	0	586153984	9	4294
2026-01-15 02:15:58.94	21.67	17.10	-24.8	-26.3	17.2	0.00e+00	0	43	0	591396864	9	4282
2026-01-15 02:15:59.95	21.69	17.22	-25.0	-26.3	17.0	0.00e+00	0	43	0	597688320	10	4148
2026-01-15 02:16:00.95	21.72	17.34	-24.9	-26.0	17.1	0.00e+00	0	43	0	602931200	10	4091
2026-01-15 02:16:01.95	21.74	17.45	-25.1	-26.4	16.9	0.00e+00	0	43	0	608174080	10	4186
2026-01-15 02:16:02.95	21.77	17.57	-24.9	-26.1	17.1	0.00e+00	0	43	0	614465536	10	4108
2026-01-15 02:16:03.96	21.80	17.69	-24.7	-25.7	17.2	0.00e+00	0	43	0	619708416	10	3998
2026-01-15 02:16:04.96	21.82	17.81	-24.7	-26.0	17.4	0.00e+00	0	43	0	625999872	9	4180
2026-01-15 02:16:05.96	21.85	17.93	-24.6	-25.9	17.4	0.00e+00	0	43	0	631242752	9	4181
2026-01-15 02:16:06.96	21.87	18.05	-24.8	-26.2	17.3	9.04e-04	0	43	0	637534208	9	4251
2026-01-15 02:16:07.96	21.90	18.17	-24.9	-26.5	17.1	0.00e+00	0	43	0	642777088	9	4323
2026-01-15 02:16:08.96	21.92	18.29	-24.9	-26.4	17.2	0.00e+00	0	43	0	648019968	9	4293
2026-01-15 02:16:09.97	21.95	18.41	-24.9	-26.6	17.1	0.00e+00	0	43	0	654311424	9	4350
2026-01-15 02:16:10.97	21.98	18.53	-24.8	-26.3	17.2	0.00e+00	0	43	0	659554304	9	4277
2026-01-15 02:16:11.97	22.00	18.65	-24.8	-26.2	17.3	0.00e+00	0	43	0	664797184	9	4254
2026-01-15 02:16:12.98	22.03	18.78	-24.7	-26.1	17.3	0.00e+00	0	43	0	671088640	9	4226
2026-01-15 02:16:13.98	22.06	18.90	-24.9	-26.6	17.1	9.96e-04	0	43	0	676331520	9	4345
2026-01-15 02:16:14.98	22.09	19.03	-24.8	-26.2	17.3	0.00e+00	0	43	0	681574400	9	4245
2026-01-15 02:16:15.99	22.11	19.15	-24.5	-25.7	17.5	0.00e+00	0	43	0	687865856	9	4131
2026-01-15 02:16:17.00	22.14	19.28	-24.4	-25.4	17.7	0.00e+00	0	43	0	693108736	9	4042
2026-01-15 02:16:18.00	22.17	19.40	-24.3	-25.3	17.8	0.00e+00	0	43	0	699400192	9	4013
2026-01-15 02:16:19.01	22.20	19.53	-24.4	-25.4	17.7	7.95e-04	0	43	0	704643072	9	4041
2026-01-15 02:16:20.01	22.23	19.66	-24.2	-25.1	17.9	0.00e+00	0	43	0	710934528	9	3958
2026-01-15 02:16:21.02	22.26	19.79	-24.4	-25.3	17.8	0.00e+00	0	43	0	716177408	9	4025
2026-01-15 02:16:22.03	22.28	19.92	-24.1	-25.3	18.1	0.00e+00	0	43	0	721420288	8	4128
2026-01-15 02:16:23.03	22.31	20.05	-24.0	-25.0	18.2	8.14e-04	0	43	0	727711744	8	4059
2026-01-15 02:16:24.03	22.34	20.18	-24.0	-25.1	18.2	0.00e+00	0	43	0	732954624	8	4072
2026-01-15 02:16:25.04	22.37	20.31	-23.9	-24.9	18.3	8.19e-04	0	43	0	738197504	8	4029
2026-01-15 02:16:26.04	22.40	20.44	-24.0	-25.0	18.2	7.63e-04	0	43	0	744488960	8	4047
2026-01-15 02:16:27.05	22.43	20.58	-23.9	-24.9	18.3	0.00e+00	0	43	0	749731840	8	4018
2026-01-15 02:16:28.05	22.46	20.71	-23.9	-24.8	18.3	7.14e-04	0	43	0	754974720	8	4014
2026-01-15 02:16:29.05	22.49	20.84	-23.9	-24.9	18.3	7.55e-04	0	43	0	761266176	8	4041
2026-01-15 02:16:30.06	22.52	20.98	-23.9	-24.8	18.4	0.00e+00	0	43	0	766509056	8	4001
2026-01-15 02:16:31.06	22.55	21.11	-23.9	-24.9	18.3	7.32e-04	0	43	0	772800512	8	4024
2026-01-15 02:16:32.06	22.58	21.25	-24.1	-25.3	18.1	8.24e-04	0	43	0	778043392	8	4115
2026-01-15 02:16:33.06	22.61	21.39	-23.9	-24.9	18.3	0.00e+00	0	43	0	784334848	8	4025
2026-01-15 02:16:34.07	22.65	21.53	-24.0	-25.0	18.3	8.33e-04	0	43	0	789577728	8	4052
2026-01-15 02:16:35.07	22.68	21.66	-24.1	-25.3	18.1	7.99e-04	0	43	0	794820608	8	4125
2026-01-15 02:16:36.08	22.71	21.80	-23.9	-24.9	18.3	0.00e+00	0	43	0	801112064	8	4017
2026-01-15 02:16:37.08	22.74	21.94	-23.8	-25.0	18.5	8.65e-04	0	43	0	806354944	7	4172
2026-01-15 02:16:38.09	22.78	22.08	-23.8	-25.2	18.4	9.47e-04	0	43	0	811597824	7	4210
2026-01-15 02:16:39.09	22.81	22.23	-23.8	-25.0	18.5	0.00e+00	0	43	0	817889280	7	4171
2026-01-15 02:16:40.08	22.84	22.37	-23.7	-24.8	18.6	8.96e-04	0	43	0	823132160	7	4125
2026-01-15 02:16:41.08	22.87	22.51	-23.6	-24.8	18.6	0.00e+00	0	43	0	829423616	7	4112
2026-01-15 02:16:42.09	22.91	22.65	-23.6	-24.8	18.6	0.00e+00	0	43	0	834666496	7	4112
2026-01-15 02:16:43.09	22.94	22.80	-23.7	-25.0	18.5	0.00e+00	0	43	0	839909376	7	4172
2026-01-15 02:16:44.09	22.98	22.94	-23.7	-24.9	18.6	1.04e-03	0	43	0	846200832	7	4138
2026-01-15 02:16:45.09	23.01	23.09	-23.7	-24.9	18.6	0.00e+00	0	43	0	851443712	7	4137
2026-01-15 02:16:46.09	23.04	23.24	-23.7	-24.9	18.6	0.00e+00	0	43	0	856686592	7	4128
2026-01-15 02:16:47.09	23.08	23.38	-23.7	-24.9	18.6	9.78e-04	0	43	0	862978048	7	4139
2026-01-15 02:16:48.10	23.11	23.53	-23.8	-25.2	18.5	0.00e+00	0	43	0	868220928	7	4210
2026-01-15 02:16:49.10	23.15	23.68	-23.7	-24.9	18.6	1.02e-03	0	43	0	873463808	7	4129
2026-01-15 02:16:50.11	23.19	23.83	-23.6	-24.7	18.7	0.00e+00	0	43	0	879755264	7	4079
2026-01-15 02:16:51.11	23.22	23.99	-23.6	-24.7	18.7	0.00e+00	0	43	0	884998144	7	4093
2026-01-15 02:16:52.11	23.26	24.14	-23.5	-24.5	18.8	0.00e+00	0	43	0	891289600	7	4029
2026-01-15 02:16:53.11	23.29	24.29	-23.5	-24.5	18.8	0.00e+00	0	43	0	896532480	7	4046
2026-01-15 02:16:54.11	23.33	24.44	-23.6	-24.8	18.7	0.00e+00	0	43	0	902823936	7	4105
2026-01-15 02:16:55.12	23.37	24.60	-23.4	-24.3	18.9	0.00e+00	0	44	0	908066816	7	3993
2026-01-15 02:16:56.12	23.41	24.76	-23.3	-24.1	19.1	9.91e-04	0	43	0	913309696	7	3936
2026-01-15 02:16:57.12	23.44	24.91	-23.3	-24.1	19.0	0.00e+00	0	43	0	919601152	7	3946
2026-01-15 02:16:58.12	23.48	25.07	-23.2	-23.9	19.2	0.00e+00	0	43	0	924844032	7	3895
2026-01-15 02:16:59.12	23.52	25.23	-23.2	-23.9	19.1	0.00e+00	0	43	0	930086912	7	3900
2026-01-15 02:17:00.12	23.56	25.39	-23.3	-24.2	19.0	0.00e+00	0	43	0	936378368	7	3962
2026-01-15 02:17:01.12	23.60	25.55	-23.2	-23.9	19.2	0.00e+00	0	43	0	941621248	7	3903
2026-01-15 02:17:02.12	23.64	25.71	-23.3	-24.0	19.1	0.00e+00	0	43	0	946864128	7	3925
2026-01-15 02:17:03.12	23.68	25.87	-23.4	-24.2	19.0	0.00e+00	0	43	0	953155584	7	3964
2026-01-15 02:17:04.13	23.72	26.03	-23.3	-24.1	19.1	0.00e+00	0	43	0	958398464	7	3953
2026-01-15 02:17:05.13	23.76	26.20	-23.4	-24.3	19.0	0.00e+00	0	43	0	964689920	7	4004
2026-01-15 02:17:06.13	23.80	26.36	-23.4	-24.3	19.0	0.00e+00	0	43	0	969932800	7	3989
2026-01-15 02:17:07.13	23.84	26.53	-23.5	-24.5	18.9	0.00e+00	0	43	0	975175680	7	4039
2026-01-15 02:17:08.13	23.89	26.70	-23.6	-24.7	18.8	0.00e+00	0	43	0	981467136	7	4103
2026-01-15 02:17:09.13	23.93	26.87	-23.5	-24.4	18.9	0.00e+00	0	43	0	986710016	7	4029
2026-01-15 02:17:10.13	23.97	27.03	-23.4	-24.2	19.0	0.00e+00	0	43	0	991952896	7	3978
2026-01-15 02:17:11.13	24.01	27.20	-23.4	-24.2	19.1	0.00e+00	0	43	0	998244352	7	3972
2026-01-15 02:17:12.14	24.06	27.38	-23.5	-24.4	18.9	0.00e+00	0	43	0	1003487232	7	4024
2026-01-15 02:17:13.14	24.10	27.55	-23.3	-24.7	19.1	0.00e+00	0	43	0	1008730112	6	4202
2026-01-15 02:17:14.14	24.15	27.72	-23.3	-24.7	19.1	0.00e+00	0	44	0	1015021568	6	4192
2026-01-15 02:17:15.14	24.19	27.90	-23.2	-24.4	19.2	0.00e+00	0	43	0	1020264448	6	4122
2026-01-15 02:17:16.13	24.24	28.07	-23.2	-24.4	19.2	0.00e+00	0	43	0	1026555904	6	4136
2026-01-15 02:17:17.13	24.28	28.25	-23.3	-24.7	19.1	0.00e+00	0	44	0	1031798784	6	4193
2026-01-15 02:17:18.13	24.33	28.43	-23.2	-24.3	19.3	0.00e+00	0	43	0	1037041664	6	4112
2026-01-15 02:17:19.13	24.38	28.61	-23.1	-24.2	19.3	0.00e+00	0	43	0	1043333120	6	4087
2026-01-15 02:17:20.13	24.42	28.79	-23.3	-24.5	19.2	0.00e+00	0	44	0	1048576000	6	4147
2026-01-15 02:17:21.13	24.47	28.97	-23.2	-24.4	19.2	0.00e+00	0	43	0	1053818880	6	4116
2026-01-15 02:17:22.13	24.52	29.15	-23.2	-24.3	19.3	0.00e+00	0	43	0	1060110336	6	4102
2026-01-15 02:17:23.14	24.57	29.33	-23.3	-24.5	19.2	0.00e+00	0	43	0	1065353216	6	4160
2026-01-15 02:17:24.15	24.62	29.52	-23.3	-24.7	19.1	0.00e+00	0	43	0	1070596096	6	4197
2026-01-15 02:17:25.15	24.67	29.71	-23.5	-24.9	19.0	0.00e+00	0	43	0	1076887552	6	4251
2026-01-15 02:17:26.15	24.72	29.89	-23.4	-24.9	19.0	0.00e+00	0	43	0	1082130432	6	4245
2026-01-15 02:17:27.16	24.77	30.09	-23.5	-24.9	19.0	0.00e+00	0	43	0	1088421888	6	4259
2026-01-15 02:17:28.16	24.82	30.28	-23.5	-24.9	19.0	0.00e+00	0	43	0	1093664768	6	4255
2026-01-15 02:17:29.16	24.87	30.47	-23.5	-24.9	19.0	0.00e+00	0	44	0	1099956224	6	4261
2026-01-15 02:17:30.16	24.93	30.66	-23.6	-24.6	18.9	0.00e+00	0	43	0	1105199104	7	4064
2026-01-15 02:17:31.15	24.98	30.85	-23.7	-24.9	18.8	0.00e+00	0	43	0	1110441984	7	4145
2026-01-15 02:17:32.16	25.03	31.05	-23.4	-24.3	19.1	0.00e+00	0	43	0	1116733440	7	3990
2026-01-15 02:17:33.16	25.09	31.24	-23.2	-23.9	19.3	0.00e+00	0	44	0	1121976320	7	3899
2026-01-15 02:17:34.17	25.14	31.44	-23.2	-23.8	19.4	0.00e+00	0	44	0	1127219200	7	3861
2026-01-15 02:17:35.18	25.20	31.64	-23.2	-24.3	19.3	0.00e+00	0	44	0	1133510656	6	4105
2026-01-15 02:17:36.18	25.25	31.84	-23.1	-24.1	19.5	0.00e+00	0	43	0	1138753536	6	4043
2026-01-15 02:17:37.18	25.31	32.04	-23.1	-24.0	19.5	0.00e+00	0	44	0	1143996416	6	4032
2026-01-15 02:17:38.18	25.37	32.25	-23.1	-24.1	19.5	0.00e+00	0	44	0	1150287872	6	4048
2026-01-15 02:17:39.19	25.43	32.45	-22.9	-23.8	19.6	0.00e+00	0	43	0	1155530752	6	3978
2026-01-15 02:17:40.19	25.49	32.66	-23.0	-24.0	19.5	0.00e+00	0	44	0	1161822208	6	4017
2026-01-15 02:17:41.19	25.55	32.87	-23.2	-24.3	19.4	0.00e+00	0	43	0	1167065088	6	4099
2026-01-15 02:17:42.20	25.61	33.08	-23.3	-24.5	19.3	0.00e+00	0	43	0	1172307968	6	4149
2026-01-15 02:17:43.20	25.67	33.29	-23.4	-24.7	19.2	0.00e+00	0	43	0	1178599424	6	4205
2026-01-15 02:17:44.20	25.73	33.50	-23.5	-24.5	19.0	0.00e+00	0	43	0	1183842304	7	4040
2026-01-15 02:17:45.20	25.79	33.71	-23.3	-24.1	19.2	0.00e+00	0	43	0	1189085184	7	3944
2026-01-15 02:17:46.20	25.86	33.92	-23.2	-23.9	19.3	0.00e+00	0	43	0	1195376640	7	3896
2026-01-15 02:17:47.21	25.92	34.14	-23.2	-23.8	19.4	0.00e+00	0	44	0	1200619520	7	3859
2026-01-15 02:17:48.22	25.99	34.36	-22.9	-23.3	19.7	0.00e+00	0	44	0	1206910976	7	3749
2026-01-15 02:17:49.22	26.05	34.58	-22.8	-23.0	19.8	0.00e+00	0	44	0	1212153856	7	3684
2026-01-15 02:17:50.22	26.12	34.80	-22.7	-23.3	19.9	0.00e+00	0	43	0	1217396736	6	3853
2026-01-15 02:17:51.23	26.19	35.02	-22.5	-22.8	20.2	0.00e+00	0	43	0	1223688192	6	3742
2026-01-15 02:17:52.23	26.25	35.25	-22.6	-23.0	20.1	0.00e+00	0	43	0	1228931072	6	3790
2026-01-15 02:17:53.23	26.32	35.47	-22.8	-23.6	19.8	0.00e+00	0	43	0	1235222528	6	3924
2026-01-15 02:17:54.23	26.39	35.70	-22.8	-23.6	19.8	0.00e+00	0	44	0	1240465408	6	3929
2026-01-15 02:17:55.23	26.47	35.92	-23.2	-24.3	19.4	0.00e+00	0	44	0	1245708288	6	4098
2026-01-15 02:17:56.23	26.54	36.15	-23.1	-24.2	19.5	0.00e+00	0	43	0	1251999744	6	4067
2026-01-15 02:17:57.23	26.61	36.38	-23.3	-24.7	19.0	0.00e+00	0	44	0	1257242624	6	4190
2026-01-15 02:17:58.24	26.68	36.62	-23.4	-24.8	19.2	2.20e-06	0	43	0	1262485504	6	4221
2026-01-15 02:17:59.24	26.76	36.85	-23.1	-24.2	19.5	0.00e+00	0	44	0	1268776960	6	4080
2026-01-15 02:18:00.24	26.84	37.09	-23.0	-24.0	19.6	0.00e+00	0	44	0	1274019840	6	4022
2026-01-15 02:18:01.24	26.91	37.33	-23.1	-24.0	19.6	0.00e+00	0	44	0	1279262720	6	4036
2026-01-15 02:18:02.25	26.99	37.57	-22.9	-23.8	19.7	0.00e+00	0	43	0	1285554176	6	3975
2026-01-15 02:18:03.26	27.07	37.81	-23.0	-23.9	19.7	0.00e+00	0	44	0	1290797056	6	3991
2026-01-15 02:18:04.25	27.15	38.05	-23.1	-24.1	19.6	0.00e+00	0	44	0	1297088512	6	4037
2026-01-15 02:18:05.25	27.23	38.30	-23.1	-24.1	19.6	0.00e+00	0	43	0	1302331392	6	4039
2026-01-15 02:18:06.26	27.32	38.55	-23.3	-24.6	19.3	0.00e+00	0	44	0	1308622848	6	4162
2026-01-15 02:18:07.27	27.40	38.80	-23.0	-23.8	19.7	0.00e+00	0	43	0	1313865728	6	3984
2026-01-15 02:18:08.27	27.49	39.05	-22.7	-23.3	20.0	0.00e+00	0	43	0	1319108608	6	3866
2026-01-15 02:18:09.27	27.57	39.30	-22.6	-23.2	20.0	0.00e+00	0	43	0	1325400064	6	3824
2026-01-15 02:18:10.28	27.66	39.55	-22.6	-23.2	20.0	1.32e-04	0	43	0	1330642944	6	3827
2026-01-15 02:18:11.28	27.75	39.81	-22.7	-23.3	20.0	0.00e+00	0	43	0	1335885824	6	3855
2026-01-15 02:18:12.28	27.84	40.06	-22.6	-23.0	20.1	1.27e-04	0	44	0	1342177280	6	3792
2026-01-15 02:18:13.28	27.93	40.32	-22.6	-23.0	20.1	0.00e+00	0	44	0	1347420160	6	3787
2026-01-15 02:18:14.29	28.03	40.59	-22.7	-23.2	20.0	0.00e+00	0	43	0	1352663040	6	3844
2026-01-15 02:18:15.29	28.12	40.85	-22.8	-23.6	19.9	2.01e-04	0	43	0	1358954496	6	3920
2026-01-15 02:18:16.29	28.22	41.11	-23.0	-23.9	19.7	2.18e-04	0	44	0	1364197376	6	4005
2026-01-15 02:18:17.29	28.31	41.38	-23.0	-23.9	19.7	0.00e+00	0	43	0	1370488832	6	4004
2026-01-15 02:18:18.30	28.41	41.65	-23.0	-23.8	19.7	0.00e+00	0	43	0	1375731712	6	3985
2026-01-15 02:18:19.31	28.52	41.92	-22.9	-23.8	19.8	2.48e-04	0	44	0	1382023168	6	3970
2026-01-15 02:18:20.30	28.62	42.19	-23.0	-23.8	19.7	0.00e+00	0	43	0	1387266048	6	3985
2026-01-15 02:18:21.30	28.72	42.46	-23.0	-23.9	19.7	2.84e-04	0	43	0	1392508928	6	3991
2026-01-15 02:18:22.31	28.83	42.74	-23.1	-24.2	19.6	2.97e-04	0	44	0	1398800384	6	4061
2026-01-15 02:18:23.31	28.94	43.02	-23.0	-23.8	19.7	0.00e+00	0	43	0	1404043264	6	3978
2026-01-15 02:18:24.31	29.05	43.30	-23.0	-24.0	19.7	3.16e-04	0	43	0	1409286144	6	4019
2026-01-15 02:18:25.30	29.16	43.58	-23.2	-24.4	19.5	0.00e+00	0	44	0	1414529024	6	4115
2026-01-15 02:18:26.31	29.27	43.86	-23.3	-24.5	19.4	0.00e+00	0	44	0	1420820480	6	4132
2026-01-15 02:18:27.31	29.39	44.15	-23.4	-24.7	19.3	2.94e-04	0	43	0	1426063360	6	4199
2026-01-15 02:18:28.30	29.50	44.43	-23.5	-24.4	19.2	2.75e-04	0	44	0	1432354816	7	4022
2026-01-15 02:18:29.31	29.62	44.73	-23.4	-24.2	19.3	0.00e+00	0	44	0	1437597696	7	3960
2026-01-15 02:18:30.31	29.74	45.02	-23.4	-24.2	19.3	3.11e-04	0	43	0	1443889152	7	3973
2026-01-15 02:18:31.32	29.87	45.31	-23.5	-24.4	19.3	2.45e-04	0	43	0	1449132032	7	4009
2026-01-15 02:18:32.32	29.99	45.61	-23.3	-24.1	19.4	0.00e+00	0	43	0	1454374912	7	3928
2026-01-15 02:18:33.33	30.12	45.91	-23.3	-24.0	19.4	2.04e-04	0	43	0	1460666368	7	3922
2026-01-15 02:18:34.33	30.25	46.21	-23.3	-23.9	19.5	1.83e-04	0	43	0	1465909248	7	3894
2026-01-15 02:18:35.34	30.39	46.52	-23.2	-23.8	19.6	0.00e+00	0	44	0	1471152128	7	3865
2026-01-15 02:18:36.34	30.52	46.82	-23.2	-23.8	19.6	2.92e-04	0	43	0	1477443584	7	3871
2026-01-15 02:18:37.35	30.66	47.13	-23.3	-24.5	19.5	0.00e+00	0	43	0	1482686464	6	4140
2026-01-15 02:18:38.35	30.80	47.44	-23.4	-24.8	19.3	0.00e+00	0	43	0	1487929344	6	4213
2026-01-15 02:18:39.36	30.95	47.75	-23.6	-24.6	19.1	0.00e+00	0	44	0	1494220800	7	4069
2026-01-15 02:18:40.36	31.10	48.06	-23.6	-24.8	19.1	6.97e-04	0	43	0	1499463680	7	4104
2026-01-15 02:18:41.37	31.25	48.38	-23.3	-24.0	19.5	0.00e+00	0	44	0	1505755136	7	3915
2026-01-15 02:18:42.37	31.40	48.69	-22.9	-23.7	19.9	7.12e-04	0	43	0	1510998016	6	3939
2026-01-15 02:18:43.37	31.55	49.01	-22.9	-23.7	19.9	0.00e+00	0	44	0	1517289472	6	3944
2026-01-15 02:18:44.38	31.71	49.34	-23.1	-24.2	19.6	0.00e+00	0	43	0	1522532352	6	4074
2026-01-15 02:18:45.37	31.88	49.66	-23.4	-24.9	19.3	6.76e-04	0	44	0	1527775232	6	4234
2026-01-15 02:18:46.38	32.04	49.98	-23.5	-24.4	19.3	0.00e+00	0	43	0	1534066688	7	4017
2026-01-15 02:18:47.38	32.21	50.31	-23.6	-24.8	19.1	0.00e+00	0	44	0	1539309568	7	4101
2026-01-15 02:18:48.39	32.39	50.64	-23.8	-25.2	18.9	0.00e+00	0	44	0	1544552448	7	4201
2026-01-15 02:18:49.40	32.56	50.98	-23.8	-25.1	19.0	0.00e+00	0	44	0	1550843904	7	4177
2026-01-15 02:18:50.39	32.74	51.31	-23.9	-25.2	18.9	0.00e+00	0	43	0	1556086784	7	4208
2026-01-15 02:18:51.40	32.93	51.65	-23.9	-25.3	18.8	0.00e+00	0	44	0	1561329664	7	4232
2026-01-15 02:18:52.40	33.12	51.98	-23.9	-25.2	18.9	6.29e-04	0	44	0	1567621120	7	4206
2026-01-15 02:18:53.40	33.31	52.32	-23.8	-25.0	19.0	0.00e+00	0	44	0	1572864000	7	4152
2026-01-15 02:18:54.41	33.51	52.67	-23.9	-25.3	18.9	0.00e+00	0	43	0	1579155456	7	4240
2026-01-15 02:18:55.41	33.71	53.01	-24.4	-25.8	18.4	0.00e+00	0	43	0	1584398336	8	4248
2026-01-15 02:18:56.41	33.91	53.36	-24.8	-26.2	17.9	0.00e+00	0	43	0	1590689792	9	4228
2026-01-15 02:18:57.41	34.13	53.70	-24.8	-26.1	18.0	0.00e+00	0	44	0	1595932672	9	4205
2026-01-15 02:18:58.41	34.34	54.05	-24.3	-25.2	18.5	0.00e+00	0	44	0	1601175552	9	3974
2026-01-15 02:18:59.41	34.56	54.41	-24.2	-24.8	18.7	0.00e+00	0	43	0	1607467008	9	3887
2026-01-15 02:19:00.41	34.79	54.76	-24.4	-25.8	18.4	0.00e+00	0	43	0	1612709888	8	4237
2026-01-15 02:19:01.41	35.02	55.11	-24.6	-25.8	18.2	0.00e+00	0	43	0	1617952768	9	4116
2026-01-15 02:19:02.42	35.26	55.48	-24.5	-25.5	18.3	0.00e+00	0	44	0	1624244224	9	4057
2026-01-15 02:19:03.43	35.51	55.84	-24.7	-26.0	18.1	0.00e+00	0	43	0	1629487104	9	4172
2026-01-15 02:19:04.43	35.76	56.20	-25.0	-26.0	17.8	0.00e+00	0	44	0	1635778560	10	4076
2026-01-15 02:19:05.43	36.02	56.56	-24.8	-25.7	18.0	0.00e+00	0	44	0	1641021440	10	3987
2026-01-15 02:19:06.43	36.28	56.93	-24.6	-25.2	18.2	0.00e+00	0	44	0	1646264320	10	3880
2026-01-15 02:19:07.44	36.56	57.30	-24.3	-25.1	18.5	0.00e+00	0	44	0	1652555776	9	3942
2026-01-15 02:19:08.43	36.83	57.66	-24.0	-24.4	18.9	0.00e+00	0	44	0	1657798656	9	3797
2026-01-15 02:19:09.44	37.12	58.04	-24.3	-25.6	18.5	0.00e+00	0	44	0	1663041536	8	4201
2026-01-15 02:19:10.43	37.41	58.41	-24.1	-25.2	18.7	0.00e+00	0	43	0	1669332992	8	4088
2026-01-15 02:19:11.44	37.72	58.78	-23.5	-23.9	19.4	0.00e+00	0	43	0	1674575872	8	3790
2026-01-15 02:19:12.44	38.03	59.16	-23.5	-24.5	19.3	0.00e+00	0	44	0	1679818752	7	4027
2026-01-15 02:19:13.44	38.35	59.54	-23.7	-24.9	19.1	0.00e+00	0	44	0	1686110208	7	4137
2026-01-15 02:19:14.45	38.68	59.92	-23.3	-24.1	19.5	0.00e+00	0	44	0	1691353088	7	3929
2026-01-15 02:19:15.45	39.02	60.30	-22.9	-23.6	20.0	0.00e+00	0	44	0	1697644544	6	3927
2026-01-15 02:19:16.46	39.37	60.68	-22.9	-23.8	20.0	0.00e+00	0	43	0	1702887424	6	3959
2026-01-15 02:19:17.47	39.73	61.07	-23.1	-24.1	19.8	0.00e+00	0	44	0	1709178880	6	4055
2026-01-15 02:19:18.47	40.10	61.45	-23.2	-24.4	19.7	0.00e+00	0	44	0	1714421760	6	4110
2026-01-15 02:19:19.48	40.49	61.84	-23.1	-24.1	19.8	0.00e+00	0	44	0	1719664640	6	4047
2026-01-15 02:19:20.47	40.88	62.22	-22.7	-23.3	20.2	0.00e+00	0	44	0	1725956096	6	3850
2026-01-15 02:19:21.47	41.29	62.61	-22.5	-22.9	20.4	0.00e+00	0	44	0	1731198976	6	3767
2026-01-15 02:19:22.48	41.71	63.00	-22.6	-23.6	20.3	0.00e+00	0	44	0	1736441856	5	4033
2026-01-15 02:19:23.48	42.15	63.39	-22.8	-23.9	20.2	0.00e+00	0	44	0	1742733312	5	4107
2026-01-15 02:19:24.49	42.60	63.79	-22.6	-23.6	20.3	0.00e+00	0	44	0	1747976192	5	4043
2026-01-15 02:19:25.48	43.06	64.17	-22.8	-24.0	20.1	0.00e+00	0	43	0	1753219072	5	4135
2026-01-15 02:19:26.49	43.54	64.57	-22.9	-23.8	20.0	0.00e+00	0	44	0	1759510528	6	3973
2026-01-15 02:19:27.50	44.05	64.96	-22.6	-23.0	20.4	0.00e+00	0	43	0	1764753408	6	3790
2026-01-15 02:19:28.51	44.56	65.36	-22.4	-23.1	20.6	0.00e+00	0	44	0	1771044864	5	3925
2026-01-15 02:19:29.51	45.10	65.75	-22.5	-23.4	20.4	0.00e+00	0	44	0	1776287744	5	3986
2026-01-15 02:19:30.51	45.65	66.14	-22.8	-24.0	20.1	0.00e+00	0	44	0	1782579200	5	4138
2026-01-15 02:19:31.51	46.22	66.54	-22.6	-23.7	20.3	0.00e+00	0	43	0	1787822080	5	4060
2026-01-15 02:19:32.52	46.82	66.93	-22.4	-23.2	20.5	0.00e+00	0	44	0	1793064960	5	3937
2026-01-15 02:19:33.51	47.43	67.32	-22.8	-24.0	20.2	0.00e+00	0	44	0	1799356416	5	4133
2026-01-15 02:19:34.52	48.08	67.71	-22.9	-23.6	20.1	0.00e+00	0	44	0	1804599296	6	3930
2026-01-15 02:19:35.52	48.74	68.10	-22.4	-22.6	20.6	0.00e+00	0	43	0	1809842176	6	3684
2026-01-15 02:19:36.52	49.43	68.49	-22.3	-23.0	20.6	0.00e+00	0	44	0	1816133632	5	3901
2026-01-15 02:19:37.52	50.15	68.88	-22.3	-23.0	20.6	0.00e+00	0	44	0	1821376512	5	3886
2026-01-15 02:19:38.52	50.89	69.26	-22.1	-22.6	20.9	0.00e+00	0	43	0	1826619392	5	3790
2026-01-15 02:19:39.53	51.68	69.65	-22.2	-22.6	20.0	0.00e+00	0	44	0	1832910848	5	3791
2026-01-15 02:19:40.53	52.48	70.03	-22.6	-23.5	20.4	0.00e+00	0	44	0	1838153728	5	4027
2026-01-15 02:19:41.53	53.33	70.41	-22.1	-22.6	19.3	0.00e+00	0	44	0	1844445184	5	3806
2026-01-15 02:19:42.53	54.20	70.79	-22.3	-22.9	20.7	1.14e-05	0	44	0	1849688064	5	3861
2026-01-15 02:19:43.53	55.12	71.17	-22.5	-23.5	20.4	0.00e+00	0	44	0	1854930944	5	4012
2026-01-15 02:19:44.53	56.07	71.54	-22.2	-22.6	20.8	3.09e-04	0	44	0	1861222400	5	3811
2026-01-15 02:19:45.53	57.07	71.90	-22.0	-22.8	21.0	0.00e+00	0	44	0	1866465280	4	3940
2026-01-15 02:19:46.53	58.10	72.27	-22.2	-23.4	20.7	0.00e+00	0	44	0	1871708160	4	4090
2026-01-15 02:19:47.53	59.19	72.62	-21.9	-22.6	21.1	0.00e+00	0	44	0	1877999616	4	3921
2026-01-15 02:19:48.54	60.33	72.98	-21.5	-22.3	21.6	0.00e+00	0	44	0	1883242496	3	3951
2026-01-15 02:19:49.54	61.51	73.33	-21.7	-22.6	21.4	0.00e+00	0	44	0	1888485376	3	4022
2026-01-15 02:19:50.54	62.74	73.67	-22.0	-22.9	20.9	0.00e+00	0	44	0	1894776832	4	3990
2026-01-15 02:19:51.54	64.03	74.01	-21.8	-22.4	21.2	7.28e-04	0	44	0	1900019712	4	3875
2026-01-15 02:19:52.53	65.36	74.33	-21.3	-21.8	21.8	0.00e+00	0	44	0	1906311168	3	3831
2026-01-15 02:19:53.54	66.78	74.66	-21.5	-22.2	21.6	0.00e+00	0	44	0	1911554048	3	3923
2026-01-15 02:19:54.55	68.26	74.97	-21.5	-22.4	21.5	1.71e-05	0	44	0	1916796928	3	3973
2026-01-15 02:19:55.55	69.79	75.28	-21.1	-21.6	21.9	0.00e+00	0	44	0	1923088384	3	3778
2026-01-15 02:19:56.55	71.39	75.57	-21.3	-22.0	21.8	6.19e-04	0	44	0	1928331264	3	3868
2026-01-15 02:19:57.55	73.05	75.85	-21.5	-22.4	21.6	0.00e+00	0	44	0	1933574144	3	3961
2026-01-15 02:19:58.56	74.80	76.13	-21.5	-22.4	21.5	0.00e+00	0	44	0	1939865600	3	3973
2026-01-15 02:19:59.57	76.62	76.39	-21.4	-22.1	21.7	0.00e+00	0	44	0	1945108480	3	3916
2026-01-15 02:20:00.57	78.49	76.63	-21.3	-21.8	21.8	5.27e-04	0	44	0	1951399936	3	3837
2026-01-15 02:20:01.57	80.44	76.86	-21.4	-22.2	21.7	0.00e+00	0	43	0	1956642816	3	3920
2026-01-15 02:20:02.58	82.47	77.08	-21.2	-21.7	21.9	0.00e+00	0	44	0	1961885696	3	3802
2026-01-15 02:20:03.58	84.55	77.28	-20.7	-21.1	22.4	2.14e-04	0	44	0	1968177152	2	3786
2026-01-15 02:20:04.58	86.70	77.47	-21.0	-21.9	22.0	0.00e+00	0	44	0	1973420032	2	3952
2026-01-15 02:20:05.59	88.93	77.64	-21.3	-22.3	21.8	2.86e-04	0	44	0	1979711488	2	4060
2026-01-15 02:20:06.58	91.18	77.79	-21.2	-22.1	21.9	5.70e-04	0	44	0	1984954368	2	4020
2026-01-15 02:20:07.58	93.50	77.92	-21.6	-22.4	21.6	0.00e+00	0	44	0	1990197248	3	3978
2026-01-15 02:20:08.59	95.89	78.03	-21.8	-23.0	21.3	3.26e-04	0	44	0	1996488704	3	4126
2026-01-15 02:20:09.59	98.30	78.12	-21.7	-22.8	21.4	2.72e-04	0	44	0	2001731584	3	4068
2026-01-15 02:20:10.59	100.75	78.19	-21.8	-22.9	21.4	0.00e+00	0	44	0	2006974464	3	4076
2026-01-15 02:20:11.59	103.22	78.24	-21.7	-22.6	21.5	5.37e-05	0	44	0	2013265920	3	4025
2026-01-15 02:20:12.60	105.73	78.26	-21.5	-22.3	21.7	7.24e-04	0	44	0	2018508800	3	3934
2026-01-15 02:20:13.60	108.23	78.27	-21.3	-21.9	21.8	0.00e+00	0	44	0	2023751680	3	3861
2026-01-15 02:20:14.61	110.74	78.25	-21.4	-22.0	21.8	1.76e-04	0	44	0	2030043136	3	3874
2026-01-15 02:20:15.60	113.20	78.21	-21.1	-21.5	22.1	1.86e-04	0	44	0	2035286016	3	3754
2026-01-15 02:20:16.60	115.66	78.15	-21.3	-21.8	21.9	0.00e+00	0	44	0	2041577472	3	3833
2026-01-15 02:20:17.61	118.11	78.07	-21.5	-22.3	21.7	1.01e-04	0	44	0	2046820352	3	3959
2026-01-15 02:20:18.61	120.50	77.97	-21.4	-22.0	21.8	0.00e+00	0	44	0	2053111808	3	3885
2026-01-15 02:20:19.61	122.85	77.85	-21.6	-22.4	21.7	0.00e+00	0	44	0	2058354688	3	3969
2026-01-15 02:20:20.61	125.14	77.71	-21.5	-22.3	21.4	1.10e-06	0	44	0	2063597568	3	3966
2026-01-15 02:20:21.62	127.40	77.55	-21.2	-21.7	21.7	9.10e-06	0	44	0	2069889024	3	3828
2026-01-15 02:20:22.62	129.58	77.37	-21.2	-21.7	21.7	0.00e+00	0	44	0	2075131904	3	3818
2026-01-15 02:20:23.63	131.72	77.18	-21.2	-21.8	21.6	0.00e+00	0	44	0	2080374784	3	3838
2026-01-15 02:20:24.63	133.76	76.97	-21.3	-22.0	21.6	2.01e-04	0	44	0	2086666240	3	3886
2026-01-15 02:20:25.63	135.74	76.74	-21.5	-22.3	21.5	0.00e+00	0	44	0	2091909120	3	3953
2026-01-15 02:20:26.62	137.63	76.51	-21.2	-21.8	21.7	2.85e-04	0	44	0	2097152000	3	3841
2026-01-15 02:20:27.63	139.48	76.25	-21.2	-21.7	21.8	4.57e-05	0	44	0	2103443456	3	3811
2026-01-15 02:20:28.63	141.25	75.98	-21.4	-22.2	21.5	0.00e+00	0	44	0	2108686336	3	3937
2026-01-15 02:20:29.63	142.95	75.71	-21.4	-22.2	21.5	2.13e-04	0	44	0	2114977792	3	3945
2026-01-15 02:20:30.64	144.59	75.41	-21.2	-21.8	21.7	0.00e+00	0	44	0	2120220672	3	3842
2026-01-15 02:20:31.64	146.15	75.12	-21.4	-22.2	21.5	0.00e+00	0	44	0	2125463552	3	3950
2026-01-15 02:20:32.64	147.65	74.81	-21.8	-22.9	21.2	0.00e+00	0	44	0	2131755008	3	4116
2026-01-15 02:20:33.64	149.09	74.49	-21.6	-22.7	21.3	2.48e-04	0	44	0	2136997888	3	4053
2026-01-15 02:20:34.64	150.46	74.16	-21.8	-22.9	21.2	0.00e+00	0	44	0	2142240768	3	4110
2026-01-15 02:20:35.65	151.79	73.83	-21.9	-22.8	21.0	0.00e+00	0	44	0	2148532224	4	3968
2026-01-15 02:20:36.65	153.05	73.49	-21.8	-22.4	21.1	6.21e-04	0	44	0	2153775104	4	3888
2026-01-15 02:20:37.65	154.26	73.14	-21.7	-22.4	21.2	0.00e+00	0	44	0	2159017984	4	3865
2026-01-15 02:20:38.65	155.41	72.79	-22.0	-22.8	21.0	6.00e-04	0	44	0	2165309440	4	3968
2026-01-15 02:20:39.65	156.52	72.44	-22.1	-23.1	20.8	0.00e+00	0	44	0	2170552320	4	4042
2026-01-15 02:20:40.65	157.58	72.07	-22.2	-23.3	20.7	0.00e+00	0	44	0	2176843776	4	4098
2026-01-15 02:20:41.65	158.60	71.71	-22.4	-23.8	20.5	0.00e+00	0	44	0	2182086656	4	4214
2026-01-15 02:20:42.66	159.58	71.33	-22.2	-23.3	20.7	1.03e-04	0	44	0	2188378112	4	4086
2026-01-15 02:20:43.67	160.52	70.96	-22.2	-23.3	20.7	0.00e+00	0	44	0	2193620992	4	4091
2026-01-15 02:20:44.67	161.42	70.58	-22.3	-23.5	20.6	1.83e-05	0	44	0	2198863872	4	4146
2026-01-15 02:20:45.68	162.28	70.20	-21.9	-22.8	21.0	2.93e-04	0	44	0	2205155328	4	3960
2026-01-15 02:20:46.68	163.11	69.82	-21.9	-22.7	21.0	0.00e+00	0	44	0	2210398208	4	3935
2026-01-15 02:20:47.68	163.90	69.43	-22.2	-23.2	20.7	0.00e+00	0	44	0	2215641088	4	4074
2026-01-15 02:20:48.68	164.66	69.05	-22.4	-23.8	20.5	0.00e+00	0	44	0	2221932544	4	4205
2026-01-15 02:20:49.68	165.39	68.66	-22.5	-23.5	20.4	0.00e+00	0	44	0	2227175424	5	4016
2026-01-15 02:20:50.68	166.09	68.27	-22.6	-23.7	20.3	0.00e+00	0	44	0	2232418304	5	4064
2026-01-15 02:20:51.69	166.78	67.88	-22.4	-23.3	20.4	0.00e+00	0	44	0	2238709760	5	3983
2026-01-15 02:20:52.69	167.43	67.48	-22.5	-23.5	20.4	0.00e+00	0	44	0	2243952640	5	4037
2026-01-15 02:20:53.70	168.06	67.09	-22.4	-23.2	20.6	0.00e+00	0	44	0	2250244096	5	3949
2026-01-15 02:20:54.70	168.66	66.70	-22.3	-22.9	20.7	0.00e+00	0	44	0	2255486976	5	3883
2026-01-15 02:20:55.70	169.25	66.30	-22.6	-23.6	20.3	0.00e+00	0	43	0	2260729856	5	4054
2026-01-15 02:20:56.70	169.81	65.91	-22.7	-23.9	20.2	0.00e+00	0	44	0	2267021312	5	4118
2026-01-15 02:20:57.71	170.35	65.51	-22.6	-23.7	20.3	0.00e+00	0	44	0	2272264192	5	4066
2026-01-15 02:20:58.71	170.88	65.12	-22.5	-23.4	20.4	0.00e+00	0	44	0	2278555648	5	3997
2026-01-15 02:20:59.72	171.39	64.72	-22.6	-23.6	20.3	0.00e+00	0	44	0	2283798528	5	4034
2026-01-15 02:21:00.72	171.87	64.33	-22.6	-23.6	20.3	0.00e+00	0	44	0	2289041408	5	4039
2026-01-15 02:21:01.73	172.35	63.94	-22.6	-23.7	20.2	0.00e+00	0	44	0	2295332864	5	4078
2026-01-15 02:21:02.74	172.81	63.54	-22.6	-23.6	20.3	0.00e+00	0	44	0	2300575744	5	4035
2026-01-15 02:21:03.73	173.25	63.15	-22.6	-23.6	20.3	0.00e+00	0	44	0	2305818624	5	4053
2026-01-15 02:21:04.74	173.68	62.76	-22.8	-24.0	20.1	0.00e+00	0	44	0	2312110080	5	4149
2026-01-15 02:21:05.74	174.09	62.37	-22.8	-24.1	20.0	0.00e+00	0	44	0	2317352960	5	4183
2026-01-15 02:21:06.74	174.49	61.98	-22.9	-24.4	19.9	0.00e+00	0	44	0	2323644416	5	4239
2026-01-15 02:21:07.74	174.88	61.60	-22.9	-23.7	20.0	0.00e+00	0	44	0	2328887296	6	3959
2026-01-15 02:21:08.74	175.25	61.21	-22.9	-23.7	20.0	0.00e+00	0	44	0	2334130176	6	3966
2026-01-15 02:21:09.74	175.62	60.83	-23.2	-24.3	19.7	0.00e+00	0	44	0	2340421632	6	4096
2026-01-15 02:21:10.74	175.97	60.44	-23.4	-24.7	19.5	0.00e+00	0	44	0	2345664512	6	4214
2026-01-15 02:21:11.74	176.32	60.06	-23.3	-24.7	19.6	0.00e+00	0	44	0	2350907392	6	4192
2026-01-15 02:21:12.74	176.65	59.68	-23.4	-24.7	19.5	0.00e+00	0	44	0	2357198848	6	4212
2026-01-15 02:21:13.75	176.98	59.30	-23.7	-24.9	19.2	0.00e+00	0	44	0	2362441728	7	4137
2026-01-15 02:21:14.75	177.29	58.92	-23.8	-25.2	19.0	0.00e+00	0	43	0	2367684608	7	4221
2026-01-15 02:21:15.75	177.60	58.55	-24.0	-25.6	18.8	0.00e+00	0	44	0	2373976064	7	4317
2026-01-15 02:21:16.75	177.90	58.17	-23.8	-24.7	19.0	0.00e+00	0	44	0	2379218944	8	3982
2026-01-15 02:21:17.76	178.19	57.80	-23.6	-24.3	19.2	0.00e+00	0	44	0	2385510400	8	3877
2026-01-15 02:21:18.77	178.47	57.42	-23.6	-24.8	19.2	0.00e+00	0	44	0	2390753280	7	4115
2026-01-15 02:21:19.77	178.75	57.05	-23.8	-25.1	19.1	0.00e+00	0	44	0	2397044736	7	4185
2026-01-15 02:21:20.78	179.02	56.68	-23.9	-25.3	18.9	0.00e+00	0	44	0	2402287616	7	4248
2026-01-15 02:21:21.78	179.28	56.32	-23.9	-25.3	18.9	0.00e+00	0	44	0	2407530496	7	4239
2026-01-15 02:21:22.79	179.53	55.95	-23.8	-25.1	19.0	0.00e+00	0	44	0	2413821952	7	4188
2026-01-15 02:21:23.79	179.78	55.59	-23.8	-25.1	19.0	0.00e+00	0	44	0	2419064832	7	4184
2026-01-15 02:21:24.80	180.02	55.23	-24.1	-25.2	18.8	0.00e+00	0	44	0	2424307712	8	4090
2026-01-15 02:21:25.80	180.26	54.87	-24.0	-25.0	18.8	0.00e+00	0	44	0	2430599168	8	4059
2026-01-15 02:21:26.81	180.49	54.51	-24.2	-25.4	18.6	0.00e+00	0	44	0	2435842048	8	4157
2026-01-15 02:21:27.80	180.71	54.16	-24.1	-25.3	18.7	0.00e+00	0	44	0	2441084928	8	4137
2026-01-15 02:21:28.81	180.93	53.80	-24.0	-25.0	18.8	0.00e+00	0	44	0	2447376384	8	4053
2026-01-15 02:21:29.82	181.15	53.45	-23.9	-24.9	18.9	0.00e+00	0	44	0	2452619264	8	4036
2026-01-15 02:21:30.82	181.36	53.10	-24.2	-25.4	18.6	0.00e+00	0	44	0	2458910720	8	4141
2026-01-15 02:21:31.82	181.56	52.76	-24.1	-25.4	18.6	0.00e+00	0	44	0	2464153600	8	4142
2026-01-15 02:21:32.81	181.76	52.42	-24.3	-25.6	16.7	0.00e+00	0	44	0	2470445056	8	4217
2026-01-15 02:21:33.82	181.95	52.07	-23.9	-24.9	18.8	0.00e+00	0	44	0	2475687936	8	4035
2026-01-15 02:21:34.83	182.14	51.73	-23.5	-24.4	18.1	0.00e+00	0	44	0	2480930816	7	4016
2026-01-15 02:21:35.84	182.33	51.39	-23.3	-24.0	19.4	0.00e+00	0	44	0	2487222272	7	3908
2026-01-15 02:21:36.85	182.52	51.05	-23.4	-24.3	19.4	0.00e+00	0	44	0	2492465152	7	3982
2026-01-15 02:21:37.85	182.69	50.72	-23.5	-24.4	19.3	0.00e+00	0	44	0	2497708032	7	4020
2026-01-15 02:21:38.85	182.87	50.39	-23.6	-24.8	19.1	0.00e+00	0	44	0	2503999488	7	4117
2026-01-15 02:21:39.85	183.04	50.06	-23.6	-24.7	19.1	0.00e+00	0	43	0	2509242368	7	4106
2026-01-15 02:21:40.84	183.20	49.73	-23.4	-24.3	19.3	0.00e+00	0	44	0	2515533824	7	4004
2026-01-15 02:21:41.84	183.37	49.41	-23.4	-24.3	19.4	0.00e+00	0	44	0	2520776704	7	3992
2026-01-15 02:21:42.85	183.53	49.08	-23.5	-24.5	19.3	0.00e+00	0	44	0	2526019584	7	4034
2026-01-15 02:21:43.85	183.68	48.76	-23.2	-24.4	19.6	0.00e+00	0	44	0	2532311040	6	4127
2026-01-15 02:21:44.85	183.84	48.45	-23.0	-24.0	19.7	3.16e-04	0	44	0	2537553920	6	4041
2026-01-15 02:21:45.85	183.99	48.13	-23.0	-23.9	19.8	0.00e+00	0	44	0	2542796800	6	4005
2026-01-15 02:21:46.86	184.14	47.81	-23.1	-24.1	19.7	2.39e-04	0	44	0	2549088256	6	4061
2026-01-15 02:21:47.86	184.28	47.50	-23.0	-23.9	19.7	2.25e-04	0	44	0	2554331136	6	4023
2026-01-15 02:21:48.86	184.42	47.19	-22.9	-23.7	19.9	0.00e+00	0	44	0	2560622592	6	3958
2026-01-15 02:21:49.86	184.56	46.88	-22.9	-23.9	19.8	2.52e-04	0	44	0	2565865472	6	4000
2026-01-15 02:21:50.86	184.70	46.58	-23.1	-24.2	19.6	0.00e+00	0	44	0	2571108352	6	4083
2026-01-15 02:21:51.87	184.83	46.27	-23.0	-23.9	19.7	0.00e+00	0	44	0	2577399808	6	4009
2026-01-15 02:21:52.87	184.97	45.97	-22.9	-23.7	19.9	0.00e+00	0	44	0	2582642688	6	3960
2026-01-15 02:21:53.87	185.09	45.67	-23.0	-23.9	19.7	3.13e-04	0	44	0	2588934144	6	4010
2026-01-15 02:21:54.87	185.22	45.37	-22.9	-23.8	19.8	0.00e+00	0	44	0	2594177024	6	3970
2026-01-15 02:21:55.87	185.35	45.08	-22.9	-23.8	19.8	0.00e+00	0	44	0	2599419904	6	3989
2026-01-15 02:21:56.87	185.47	44.78	-23.1	-24.2	19.6	4.39e-04	0	44	0	2605711360	6	4083
2026-01-15 02:21:57.87	185.59	44.49	-23.0	-24.0	19.7	0.00e+00	0	44	0	2610954240	6	4035
2026-01-15 02:21:58.88	185.71	44.20	-22.8	-23.7	19.8	6.35e-04	0	44	0	2616197120	6	3963
2026-01-15 02:21:59.88	185.82	43.91	-22.8	-23.6	19.8	6.29e-04	0	44	0	2622488576	6	3932
2026-01-15 02:22:00.89	185.94	43.62	-22.8	-23.7	19.8	0.00e+00	0	44	0	2627731456	6	3954
2026-01-15 02:22:01.88	186.05	43.34	-22.7	-23.3	20.0	6.17e-04	0	44	0	2632974336	6	3875
2026-01-15 02:22:02.89	186.16	43.06	-22.7	-23.8	20.0	0.00e+00	0	44	0	2639265792	5	4093
2026-01-15 02:22:03.90	186.27	42.78	-22.7	-23.8	20.0	0.00e+00	0	44	0	2644508672	5	4098
2026-01-15 02:22:04.90	186.38	42.50	-22.8	-24.0	19.9	6.41e-04	0	44	0	2650800128	5	4146
2026-01-15 02:22:05.90	186.48	42.22	-22.8	-24.0	19.8	6.28e-04	0	44	0	2656043008	5	4163
2026-01-15 02:22:06.91	186.58	41.95	-22.8	-24.2	19.8	0.00e+00	0	44	0	2662334464	5	4194
2026-01-15 02:22:07.91	186.69	41.67	-22.8	-24.2	19.8	5.87e-04	0	44	0	2667577344	5	4199
2026-01-15 02:22:08.92	186.79	41.40	-22.9	-24.4	19.7	5.90e-04	0	44	0	2672820224	5	4244
2026-01-15 02:22:09.92	186.88	41.13	-22.8	-24.1	19.8	0.00e+00	0	44	0	2679111680	5	4173
2026-01-15 02:22:10.92	186.98	40.87	-22.7	-23.8	19.4	5.95e-04	0	43	0	2684354560	5	4118
2026-01-15 02:22:11.92	187.08	40.60	-22.7	-24.0	19.0	0.00e+00	0	44	0	2689597440	5	4139
2026-01-15 02:22:12.93	187.17	40.34	-22.9	-24.3	19.7	0.00e+00	0	44	0	2695888896	5	4223
2026-01-15 02:22:13.93	187.26	40.08	-22.8	-24.0	19.7	6.82e-04	0	44	0	2701131776	5	4165
2026-01-15 02:22:14.94	187.35	39.82	-22.7	-23.8	19.9	6.67e-04	0	44	0	2706374656	5	4092
2026-01-15 02:22:15.93	187.44	39.56	-22.7	-23.8	19.9	0.00e+00	0	44	0	2712666112	5	4096
2026-01-15 02:22:16.93	187.53	39.31	-22.6	-23.7	20.0	0.00e+00	0	44	0	2717908992	5	4082
2026-01-15 02:22:17.94	187.62	39.05	-22.7	-23.8	19.9	6.05e-04	0	44	0	2724200448	5	4114
2026-01-15 02:22:18.94	187.70	38.80	-22.6	-23.6	20.0	0.00e+00	0	44	0	2729443328	5	4054
2026-01-15 02:22:19.94	187.79	38.55	-22.5	-23.5	20.0	4.22e-04	0	44	0	2734686208	5	4039
2026-01-15 02:22:20.94	187.87	38.30	-22.7	-23.9	19.9	3.52e-04	0	44	0	2740977664	5	4118
2026-01-15 02:22:21.93	187.95	38.06	-22.5	-23.5	20.0	0.00e+00	0	44	0	2746220544	5	4041
2026-01-15 02:22:22.94	188.03	37.81	-22.5	-23.6	20.0	3.12e-04	0	44	0	2751463424	5	4045
2026-01-15 02:22:23.94	188.11	37.57	-22.6	-23.6	20.0	0.00e+00	0	44	0	2757754880	5	4053
2026-01-15 02:22:24.95	188.19	37.33	-22.6	-23.7	19.9	0.00e+00	0	44	0	2762997760	5	4083
2026-01-15 02:22:25.95	188.27	37.09	-22.5	-23.5	20.0	8.01e-05	0	44	0	2768240640	5	4025
2026-01-15 02:22:26.96	188.35	36.85	-22.4	-23.3	20.1	1.25e-04	0	44	0	2774532096	5	3990
2026-01-15 02:22:27.95	188.42	36.62	-22.5	-23.5	20.0	0.00e+00	0	44	0	2779774976	5	4026
2026-01-15 02:22:28.96	188.49	36.38	-22.4	-23.3	20.1	0.00e+00	0	44	0	2786066432	5	3985
2026-01-15 02:22:29.96	188.57	36.15	-22.5	-23.4	20.1	9.15e-05	0	44	0	2791309312	5	4009
2026-01-15 02:22:30.96	188.64	35.92	-22.7	-23.8	19.9	0.00e+00	0	44	0	2797600768	5	4101
2026-01-15 02:22:31.96	188.71	35.69	-22.8	-24.1	19.7	2.25e-04	0	44	0	2802843648	5	4192
2026-01-15 02:22:32.96	188.78	35.46	-22.9	-24.4	19.6	1.29e-04	0	44	0	2808086528	5	4254
2026-01-15 02:22:33.96	188.85	35.23	-23.0	-24.1	19.5	0.00e+00	0	44	0	2814377984	6	4081
2026-01-15 02:22:34.97	188.92	35.01	-23.2	-24.4	19.3	9.15e-05	0	44	0	2819620864	6	4161
2026-01-15 02:22:35.98	188.99	34.78	-23.1	-24.2	19.4	0.00e+00	0	44	0	2824863744	6	4108
2026-01-15 02:22:36.98	189.05	34.56	-23.1	-24.2	19.4	0.00e+00	0	44	0	2831155200	6	4097
2026-01-15 02:22:37.98	189.12	34.34	-23.2	-24.3	19.3	6.98e-05	0	44	0	2836398080	6	4125
2026-01-15 02:22:38.98	189.18	34.12	-23.2	-24.5	19.3	0.00e+00	0	44	0	2841640960	6	4159
2026-01-15 02:22:39.99	189.25	33.90	-23.0	-24.1	19.5	0.00e+00	0	44	0	2847932416	6	4065
2026-01-15 02:22:40.99	189.31	33.69	-22.8	-23.6	19.7	0.00e+00	0	44	0	2853175296	6	3951
2026-01-15 02:22:42.00	189.38	33.47	-22.8	-23.5	19.7	6.06e-05	0	44	0	2859466752	6	3926
2026-01-15 02:22:43.00	189.44	33.26	-22.8	-23.7	19.7	0.00e+00	0	44	0	2864709632	6	3956
2026-01-15 02:22:44.00	189.50	33.05	-22.8	-23.6	19.7	7.09e-05	0	44	0	2869952512	6	3946
2026-01-15 02:22:45.00	189.56	32.84	-22.8	-23.7	19.7	5.95e-05	0	44	0	2876243968	6	3958
2026-01-15 02:22:46.00	189.62	32.63	-22.8	-23.5	19.7	0.00e+00	0	44	0	2881486848	6	3921
2026-01-15 02:22:47.00	189.68	32.42	-22.8	-23.6	19.7	6.63e-05	0	44	0	2886729728	6	3943
2026-01-15 02:22:48.00	189.73	32.22	-22.9	-23.8	19.6	0.00e+00	0	44	0	2893021184	6	3995
2026-01-15 02:22:49.00	189.79	32.01	-23.0	-23.9	19.5	0.00e+00	0	44	0	2898264064	6	4016
2026-01-15 02:22:50.00	189.85	31.81	-23.0	-24.0	19.5	0.00e+00	0	44	0	2903506944	6	4041
2026-01-15 02:22:51.00	189.91	31.61	-23.1	-24.2	19.4	2.74e-05	0	44	0	2909798400	6	4080
2026-01-15 02:22:52.01	189.96	31.41	-23.1	-24.2	19.4	0.00e+00	0	44	0	2915041280	6	4081
2026-01-15 02:22:53.01	190.02	31.21	-23.1	-24.3	19.3	1.17e-04	0	44	0	2921332736	6	4121
2026-01-15 02:22:54.01	190.07	31.01	-23.1	-24.2	19.3	1.38e-04	0	44	0	2926575616	6	4103
2026-01-15 02:22:55.01	190.12	30.81	-23.2	-24.4	19.3	0.00e+00	0	44	0	2932867072	6	4134
2026-01-15 02:22:56.01	190.18	30.62	-23.3	-24.6	19.2	1.33e-04	0	44	0	2938109952	6	4199
2026-01-15 02:22:57.01	190.23	30.42	-23.2	-24.4	19.3	1.19e-04	0	44	0	2943352832	6	4146
2026-01-15 02:22:58.01	190.28	30.23	-23.2	-24.5	19.2	0.00e+00	0	44	0	2949644288	6	4161
2026-01-15 02:22:59.01	190.33	30.04	-23.4	-24.8	19.1	1.46e-04	0	44	0	2954887168	6	4237
2026-01-15 02:23:00.01	190.38	29.85	-23.2	-24.5	19.2	1.19e-04	0	44	0	2960130048	6	4162
2026-01-15 02:23:01.01	190.43	29.66	-23.2	-24.4	19.3	0.00e+00	0	44	0	2966421504	6	4136
2026-01-15 02:23:02.01	190.48	29.48	-23.3	-24.6	19.1	1.27e-04	0	44	0	2971664384	6	4196
2026-01-15 02:23:03.01	190.53	29.29	-23.2	-24.4	19.3	1.35e-04	0	44	0	2976907264	6	4137
2026-01-15 02:23:04.02	190.58	29.10	-23.1	-24.3	19.3	0.00e+00	0	44	0	2983198720	6	4105
2026-01-15 02:23:05.02	190.63	28.92	-23.1	-24.3	19.3	1.17e-04	0	44	0	2988441600	6	4106
2026-01-15 02:23:06.02	190.68	28.74	-23.1	-24.3	19.3	1.32e-04	0	44	0	2994733056	6	4113
2026-01-15 02:23:07.02	190.72	28.56	-23.2	-24.4	19.2	0.00e+00	0	44	0	2999975936	6	4142
2026-01-15 02:23:08.03	190.77	28.37	-23.1	-24.3	19.3	1.22e-04	0	44	0	3005218816	6	4119
2026-01-15 02:23:09.03	190.82	28.20	-23.2	-24.5	19.2	1.48e-04	0	44	0	3011510272	6	4155
2026-01-15 02:23:10.03	190.86	28.02	-23.4	-24.8	19.0	0.00e+00	0	44	0	3016753152	6	4237
2026-01-15 02:23:11.04	190.91	27.84	-23.6	-24.7	18.9	1.23e-04	0	44	0	3021996032	7	4106
2026-01-15 02:23:12.04	190.95	27.66	-23.8	-25.2	18.6	1.65e-04	0	44	0	3028287488	7	4238
2026-01-15 02:23:13.04	191.00	27.49	-23.6	-24.7	18.8	0.00e+00	0	44	0	3033530368	7	4104
2026-01-15 02:23:14.05	191.04	27.31	-23.4	-24.3	19.0	1.11e-04	0	44	0	3038773248	7	4000
2026-01-15 02:23:15.05	191.08	27.14	-23.3	-24.1	19.1	1.30e-04	0	44	0	3045064704	7	3964
2026-01-15 02:23:16.06	191.13	26.97	-23.4	-24.3	19.0	0.00e+00	0	44	0	3050307584	7	4014
2026-01-15 02:23:17.06	191.17	26.80	-23.3	-24.2	19.1	1.17e-04	0	44	0	3056599040	7	3968
2026-01-15 02:23:18.05	191.21	26.63	-23.5	-24.5	18.9	1.04e-04	0	44	0	3061841920	7	4056
2026-01-15 02:23:19.06	191.25	26.46	-23.3	-24.1	19.2	0.00e+00	0	44	0	3068133376	7	3945
2026-01-15 02:23:20.05	191.29	26.30	-23.1	-23.6	19.4	9.49e-05	0	44	0	3073376256	7	3834
2026-01-15 02:23:21.05	191.34	26.13	-23.0	-24.0	19.4	7.32e-05	0	44	0	3078619136	6	4029
2026-01-15 02:23:22.06	191.38	25.96	-23.1	-24.1	19.4	0.00e+00	0	44	0	3084910592	6	4071
2026-01-15 02:23:23.06	191.42	25.80	-23.0	-24.1	19.4	0.00e+00	0	44	0	3090153472	6	4065
2026-01-15 02:23:24.06	191.46	25.64	-23.2	-24.4	19.2	6.63e-05	0	44	0	3095396352	6	4144
2026-01-15 02:23:25.06	191.50	25.47	-23.2	-24.3	19.2	0.00e+00	0	44	0	3101687808	6	4125
2026-01-15 02:23:26.07	191.53	25.31	-23.4	-24.7	19.0	8.81e-05	0	44	0	3106930688	6	4226
2026-01-15 02:23:27.07	191.57	25.15	-23.3	-24.6	19.1	2.20e-06	0	44	0	3112173568	6	4186
2026-01-15 02:23:28.08	191.61	24.99	-23.5	-24.6	18.9	0.00e+00	0	44	0	3118465024	7	4068
2026-01-15 02:23:29.08	191.65	24.83	-23.5	-24.5	18.9	4.92e-05	0	44	0	3123707904	7	4049
2026-01-15 02:23:30.09	191.69	24.67	-23.4	-24.5	18.9	1.10e-06	0	44	0	3129999360	7	4047
2026-01-15 02:23:31.09	191.72	24.52	-23.6	-24.7	18.8	0.00e+00	0	44	0	3135242240	7	4108
2026-01-15 02:23:32.09	191.76	24.36	-23.1	-24.0	17.5	0.00e+00	0	44	0	3140485120	7	4021
2026-01-15 02:23:33.10	191.80	24.20	-23.7	-24.9	17.1	2.97e-05	0	44	0	3146776576	7	4167
2026-01-15 02:23:34.10	191.84	24.05	-23.6	-24.7	13.5	0.00e+00	0	44	0	3152019456	7	4116
2026-01-15 02:23:35.11	191.87	23.90	-23.6	-24.7	18.7	0.00e+00	0	44	0	3158310912	7	4111
2026-01-15 02:23:36.11	191.91	23.74	-23.6	-24.7	18.8	1.44e-04	0	44	0	3163553792	7	4117
2026-01-15 02:23:37.12	191.94	23.59	-23.6	-24.9	18.7	0.00e+00	0	44	0	3168796672	7	4153
2026-01-15 02:23:38.11	191.98	23.44	-23.7	-25.1	18.6	1.60e-05	0	44	0	3175088128	7	4201
2026-01-15 02:23:39.12	192.01	23.29	-23.6	-24.8	18.7	1.10e-06	0	44	0	3180331008	7	4124
2026-01-15 02:23:40.12	192.05	23.14	-23.6	-24.8	18.7	0.00e+00	0	44	0	3185573888	7	4120
2026-01-15 02:23:41.12	192.08	23.00	-23.8	-25.1	18.6	1.16e-03	0	44	0	3191865344	7	4211
2026-01-15 02:23:42.13	192.11	22.85	-23.6	-24.8	18.7	0.00e+00	0	44	0	3197108224	7	4127
2026-01-15 02:23:43.13	192.15	22.70	-23.8	-25.2	18.5	1.06e-03	0	44	0	3203399680	7	4221
2026-01-15 02:23:44.13	192.18	22.56	-23.6	-24.8	18.7	0.00e+00	0	44	0	3208642560	7	4123
2026-01-15 02:23:45.13	192.21	22.41	-23.5	-24.5	18.8	1.76e-04	0	44	0	3213885440	7	4053
2026-01-15 02:23:46.13	192.25	22.27	-23.5	-24.5	18.8	0.00e+00	0	44	0	3220176896	7	4057
2026-01-15 02:23:47.14	192.28	22.13	-23.6	-24.8	18.7	2.20e-06	0	44	0	3225419776	7	4120
2026-01-15 02:23:48.14	192.31	21.98	-23.5	-24.6	18.8	1.74e-04	0	43	0	3230662656	7	4078
2026-01-15 02:23:49.15	192.34	21.84	-23.6	-24.7	18.7	0.00e+00	0	44	0	3236954112	7	4094
2026-01-15 02:23:50.15	192.38	21.70	-23.6	-24.7	18.7	1.05e-03	0	44	0	3242196992	7	4101
2026-01-15 02:23:51.15	192.41	21.56	-23.8	-25.1	18.5	0.00e+00	0	44	0	3247439872	7	4209
2026-01-15 02:23:52.15	192.44	21.42	-23.7	-24.9	18.6	9.25e-04	0	44	0	3253731328	7	4156
2026-01-15 02:23:53.16	192.47	21.28	-23.7	-25.0	18.6	8.40e-04	0	44	0	3258974208	7	4168
2026-01-15 02:23:54.16	192.50	21.15	-23.8	-25.1	18.5	1.75e-04	0	44	0	3265265664	7	4200
2026-01-15 02:23:55.17	192.53	21.01	-23.8	-25.2	18.5	8.39e-04	0	44	0	3270508544	7	4236
2026-01-15 02:23:56.16	192.56	20.87	-23.8	-25.2	18.5	0.00e+00	0	44	0	3276800000	7	4217
2026-01-15 02:23:57.17	192.59	20.74	-23.9	-25.4	18.4	1.64e-04	0	44	0	3282042880	7	4274
2026-01-15 02:23:58.17	192.62	20.60	-23.9	-25.3	18.4	7.72e-04	0	44	0	3287285760	7	4263
2026-01-15 02:23:59.18	192.65	20.47	-24.1	-25.2	18.2	8.38e-04	0	44	0	3293577216	8	4125
2026-01-15 02:24:00.19	192.68	20.33	-24.0	-25.1	18.3	1.70e-04	0	44	0	3298820096	8	4100
2026-01-15 02:24:01.18	192.71	20.20	-24.1	-25.3	18.2	7.90e-04	0	44	0	3304062976	8	4147
2026-01-15 02:24:02.18	192.74	20.07	-24.1	-25.4	18.1	8.02e-04	0	44	0	3310354432	8	4159
2026-01-15 02:24:03.19	192.77	19.94	-24.2	-25.6	18.0	5.72e-05	0	44	0	3315597312	8	4215
2026-01-15 02:24:04.18	192.79	19.81	-24.2	-25.5	18.0	6.92e-04	0	44	0	3320840192	8	4194
2026-01-15 02:24:05.19	192.82	19.68	-24.2	-25.6	18.0	6.27e-04	0	44	0	3327131648	8	4219
2026-01-15 02:24:06.19	192.85	19.55	-24.3	-25.7	17.9	1.59e-04	0	44	0	3332374528	8	4243
2026-01-15 02:24:07.19	192.88	19.42	-24.4	-26.0	17.8	5.22e-04	0	44	0	3338665984	8	4334
2026-01-15 02:24:08.19	192.91	19.30	-24.4	-25.9	17.8	4.45e-04	0	44	0	3343908864	8	4304
2026-01-15 02:24:09.19	192.93	19.17	-24.4	-26.1	17.7	1.51e-04	0	44	0	3349151744	8	4345
2026-01-15 02:24:10.20	192.96	19.04	-24.4	-26.1	17.7	0.00e+00	0	44	0	3355443200	8	4349
2026-01-15 02:24:11.20	192.99	18.92	-24.5	-25.8	17.6	4.11e-04	0	44	0	3360686080	9	4155
2026-01-15 02:24:12.20	193.01	18.79	-24.6	-25.8	17.6	1.35e-04	0	44	0	3365928960	9	4164
2026-01-15 02:24:13.21	193.04	18.66	-24.6	-25.8	17.6	3.60e-04	0	44	0	3372220416	9	4169
2026-01-15 02:24:14.21	193.07	18.54	-24.7	-26.2	17.4	3.44e-04	0	44	0	3377463296	9	4258
2026-01-15 02:24:15.21	193.09	18.42	-24.7	-26.2	17.4	0.00e+00	0	44	0	3383754752	9	4257
2026-01-15 02:24:16.22	193.12	18.29	-24.8	-26.4	17.3	3.19e-04	0	44	0	3388997632	9	4310
2026-01-15 02:24:17.22	193.15	18.17	-24.8	-26.4	17.3	0.00e+00	0	44	0	3394240512	9	4306
2026-01-15 02:24:18.22	193.17	18.05	-24.9	-26.6	17.2	1.19e-04	0	44	0	3400531968	9	4369
2026-01-15 02:24:19.22	193.20	17.93	-24.9	-26.5	17.2	0.00e+00	0	44	0	3405774848	9	4345
2026-01-15 02:24:20.22	193.22	17.81	-25.0	-26.3	17.1	0.00e+00	0	44	0	3412066304	10	4186
2026-01-15 02:24:21.23	193.25	17.69	-25.3	-27.0	16.8	1.06e-04	0	44	0	3417309184	10	4346
2026-01-15 02:24:22.23	193.27	17.57	-25.4	-27.2	16.6	0.00e+00	0	44	0	3422552064	10	4419
2026-01-15 02:24:23.24	193.30	17.45	-25.4	-27.1	16.7	3.17e-04	0	44	0	3428843520	10	4383
2026-01-15 02:24:24.23	193.32	17.33	-25.5	-27.3	16.6	0.00e+00	0	44	0	3434086400	10	4440
2026-01-15 02:24:25.24	193.35	17.22	-25.4	-27.2	16.6	3.44e-04	0	44	0	3439329280	10	4408
2026-01-15 02:24:26.24	193.37	17.10	-25.5	-26.9	16.5	4.50e-06	0	44	0	3445620736	11	4229
2026-01-15 02:24:27.25	193.39	16.98	-25.7	-27.3	16.3	0.00e+00	0	44	0	3450863616	11	4325
2026-01-15 02:24:28.25	193.42	16.87	-25.7	-27.3	16.3	4.36e-04	0	44	0	3456106496	11	4318
2026-01-15 02:24:29.25	193.44	16.75	-25.9	-27.7	16.0	0.00e+00	0	44	0	3462397952	11	4445
2026-01-15 02:24:30.25	193.47	16.64	-25.7	-27.2	16.3	1.11e-04	0	44	0	3467640832	11	4297
2026-01-15 02:24:31.25	193.49	16.52	-25.5	-26.8	16.5	0.00e+00	0	44	0	3473932288	11	4193
2026-01-15 02:24:32.26	193.51	16.41	-25.4	-26.7	16.6	0.00e+00	0	44	0	3479175168	11	4167
2026-01-15 02:24:33.26	193.54	16.30	-25.4	-26.7	16.5	0.00e+00	0	44	0	3485466624	11	4174
2026-01-15 02:24:34.27	193.56	16.18	-25.4	-26.7	16.6	0.00e+00	0	44	0	3490709504	11	4165
2026-01-15 02:24:35.27	193.58	16.07	-25.3	-26.5	16.6	6.80e-06	0	44	0	3495952384	11	4118
2026-01-15 02:24:36.28	193.61	15.96	-25.3	-26.4	16.7	0.00e+00	0	44	0	3502243840	11	4086
2026-01-15 02:24:37.29	193.63	15.85	-25.3	-26.5	16.7	0.00e+00	0	44	0	3507486720	11	4104
2026-01-15 02:24:38.29	193.65	15.74	-25.4	-26.6	16.6	6.80e-06	0	44	0	3512729600	11	4150
2026-01-15 02:24:39.29	193.67	15.63	-25.4	-26.5	16.6	0.00e+00	0	44	0	3519021056	11	4123
2026-01-15 02:24:40.29	193.70	15.52	-25.3	-26.5	16.7	0.00e+00	0	44	0	3524263936	11	4102
2026-01-15 02:24:41.30	193.72	15.41	-25.3	-27.0	16.6	8.00e-06	0	44	0	3529506816	10	4358
2026-01-15 02:24:42.30	193.74	15.30	-25.4	-27.1	16.6	0.00e+00	0	44	0	3535798272	10	4388
2026-01-15 02:24:43.31	193.76	15.19	-25.4	-26.7	16.5	0.00e+00	0	44	0	3541041152	11	4171
2026-01-15 02:24:44.31	193.78	15.08	-25.4	-26.6	16.6	0.00e+00	0	44	0	3547332608	11	4128
2026-01-15 02:24:45.31	193.80	14.97	-25.4	-26.6	16.5	0.00e+00	0	44	0	3552575488	11	4147
2026-01-15 02:24:46.31	193.83	14.87	-25.5	-26.8	16.5	0.00e+00	0	44	0	3558866944	11	4179
2026-01-15 02:24:47.31	193.85	14.76	-25.4	-26.6	16.6	3.40e-06	0	44	0	3564109824	11	4142
2026-01-15 02:24:48.32	193.87	14.66	-25.4	-26.7	16.5	0.00e+00	0	44	0	3569352704	11	4162
2026-01-15 02:24:49.33	193.89	14.55	-25.4	-27.2	16.5	0.00e+00	0	44	0	3575644160	10	4407
2026-01-15 02:24:50.33	193.91	14.44	-25.5	-27.3	16.5	1.10e-06	0	44	0	3580887040	10	4427
2026-01-15 02:24:51.33	193.93	14.34	-25.4	-26.7	16.5	0.00e+00	0	44	0	3586129920	11	4152
2026-01-15 02:24:52.34	193.95	14.24	-25.4	-26.6	16.5	0.00e+00	0	44	0	3592421376	11	4143
2026-01-15 02:24:53.34	193.97	14.13	-25.4	-26.6	16.5	0.00e+00	0	44	0	3597664256	11	4150
2026-01-15 02:24:54.35	193.99	14.03	-25.4	-26.6	16.5	0.00e+00	0	44	0	3602907136	11	4138
2026-01-15 02:24:55.35	194.01	13.93	-25.5	-27.2	16.4	0.00e+00	0	44	0	3609198592	10	4425
2026-01-15 02:24:56.34	194.03	13.82	-25.5	-27.2	16.5	0.00e+00	0	44	0	3614441472	10	4413
2026-01-15 02:24:57.35	194.05	13.72	-25.6	-27.1	16.3	0.00e+00	0	44	0	3620732928	11	4264
2026-01-15 02:24:58.35	194.07	13.62	-25.7	-27.3	16.1	0.00e+00	0	44	0	3625975808	11	4328
2026-01-15 02:24:59.35	194.09	13.52	-25.5	-26.9	16.4	0.00e+00	0	44	0	3631218688	11	4213
2026-01-15 02:25:00.35	194.11	13.42	-25.5	-26.8	16.4	0.00e+00	0	44	0	3637510144	11	4190
2026-01-15 02:25:01.36	194.13	13.32	-25.5	-26.9	16.4	0.00e+00	0	44	0	3642753024	11	4205
2026-01-15 02:25:02.36	194.15	13.22	-25.5	-26.9	16.3	0.00e+00	0	44	0	3649044480	11	4217
2026-01-15 02:25:03.37	194.17	13.12	-25.6	-27.0	16.3	0.00e+00	0	44	0	3654287360	11	4240
2026-01-15 02:25:04.37	194.19	13.02	-25.6	-27.0	16.3	0.00e+00	0	44	0	3659530240	11	4236
2026-01-15 02:25:05.37	194.21	12.92	-25.6	-27.0	16.3	0.00e+00	0	44	0	3665821696	11	4240
2026-01-15 02:25:06.38	194.23	12.82	-25.6	-27.0	16.3	0.00e+00	0	44	0	3671064576	11	4248
2026-01-15 02:25:07.38	194.25	12.73	-25.6	-27.1	16.2	0.00e+00	0	44	0	3677356032	11	4283
2026-01-15 02:25:08.38	194.27	12.63	-25.7	-27.2	16.2	0.00e+00	0	44	0	3682598912	11	4287
2026-01-15 02:25:09.39	194.28	12.53	-25.6	-27.1	16.2	0.00e+00	0	44	0	3687841792	11	4268
2026-01-15 02:25:10.39	194.30	12.44	-25.7	-27.2	16.1	0.00e+00	0	44	0	3694133248	11	4300
2026-01-15 02:25:11.39	194.32	12.34	-25.7	-27.4	16.0	0.00e+00	0	44	0	3699376128	11	4340
2026-01-15 02:25:12.39	194.34	12.24	-25.7	-27.4	16.0	0.00e+00	0	44	0	3704619008	11	4341
2026-01-15 02:25:13.40	194.36	12.15	-25.8	-27.5	16.0	0.00e+00	0	44	0	3710910464	11	4373
2026-01-15 02:25:14.40	194.38	12.05	-25.7	-27.2	16.1	0.00e+00	0	44	0	3716153344	11	4306
2026-01-15 02:25:15.40	194.39	11.96	-25.8	-27.5	15.9	0.00e+00	0	44	0	3721396224	11	4380
2026-01-15 02:25:16.40	194.41	11.86	-25.8	-27.5	15.9	0.00e+00	0	44	0	3727687680	11	4390
2026-01-15 02:25:17.41	194.43	11.77	-25.8	-27.6	15.9	0.00e+00	0	44	0	3732930560	11	4412
2026-01-15 02:25:18.40	194.45	11.68	-25.8	-27.6	15.9	0.00e+00	0	44	0	3739222016	11	4411
2026-01-15 02:25:19.41	194.47	11.58	-25.9	-27.7	15.8	0.00e+00	0	44	0	3744464896	11	4446
2026-01-15 02:25:20.41	194.48	11.49	-25.9	-27.7	15.8	0.00e+00	0	44	0	3750756352	11	4449
2026-01-15 02:25:21.41	194.50	11.40	-25.9	-27.8	15.7	0.00e+00	0	44	0	3755999232	11	4479
2026-01-15 02:25:22.42	194.52	11.30	-25.9	-27.8	15.8	1.18e-03	0	44	0	3761242112	11	4450
2026-01-15 02:25:23.42	194.54	11.21	-26.0	-27.9	15.7	0.00e+00	0	44	0	3767533568	11	4490
2026-01-15 02:25:24.42	194.55	11.12	-26.1	-27.7	15.5	0.00e+00	0	44	0	3772776448	12	4321
2026-01-15 02:25:25.42	194.57	11.03	-26.1	-27.7	15.4	0.00e+00	0	44	0	3778019328	12	4340
2026-01-15 02:25:26.42	194.59	10.94	-26.0	-27.4	15.6	0.00e+00	0	44	0	3784310784	12	4255
2026-01-15 02:25:27.43	194.60	10.85	-26.0	-27.5	15.5	1.14e-03	0	44	0	3789553664	12	4276
2026-01-15 02:25:28.43	194.62	10.76	-26.1	-27.6	15.4	0.00e+00	0	44	0	3794796544	12	4312
2026-01-15 02:25:29.44	194.64	10.67	-26.1	-27.6	15.5	0.00e+00	0	44	0	3801088000	12	4309
2026-01-15 02:25:30.44	194.66	10.58	-26.1	-27.8	15.3	0.00e+00	0	44	0	3806330880	12	4361
2026-01-15 02:25:31.44	194.67	10.49	-26.1	-27.8	15.3	0.00e+00	0	44	0	3812622336	12	4367
2026-01-15 02:25:32.44	194.69	10.40	-26.2	-27.9	15.3	0.00e+00	0	44	0	3817865216	12	4391
2026-01-15 02:25:33.45	194.71	10.31	-26.3	-28.3	15.1	0.00e+00	0	44	0	3823108096	12	4494
2026-01-15 02:25:34.45	194.72	10.22	-26.3	-28.2	15.1	1.06e-03	0	44	0	3829399552	12	4476
2026-01-15 02:25:35.45	194.74	10.14	-26.5	-28.6	14.9	0.00e+00	0	44	0	3834642432	12	4595
2026-01-15 02:25:36.45	194.75	10.05	-26.7	-28.5	14.6	1.03e-03	0	44	0	3839885312	13	4448
2026-01-15 02:25:37.46	194.77	9.96	-26.7	-28.6	14.6	1.10e-06	0	44	0	3846176768	13	4473
2026-01-15 02:25:38.46	194.79	9.87	-26.6	-28.4	14.7	5.49e-05	0	44	0	3851419648	13	4410
2026-01-15 02:25:39.46	194.80	9.79	-26.6	-28.3	14.6	1.02e-03	0	44	0	3857711104	13	4381
2026-01-15 02:25:40.47	194.82	9.70	-26.7	-28.5	14.6	1.03e-03	0	44	0	3862953984	13	4456
2026-01-15 02:25:41.47	194.83	9.61	-26.7	-28.5	14.6	7.09e-05	0	44	0	3868196864	13	4442
