passes_logs/2026/01/15/R2M6_AANII_01/R2M6_AANII_01__20260115_075025_SUOMI_NPP_rec.log

#Pass ID: 20260115_075025_SUOMI NPP
#Satellite: SUOMI NPP
#Configuration: NPP
#almurnet v.1.7.20240730
#Start time: 2026-01-15 07:50:26

#Version: 2.2.20231116
#Station: R2M6_AANII_01
#Location: 30.233357 lon 59.946436 lat
#TLE: 1 37849U 11061A   26014.11719687  .00000048  00000+0  43625-4 0  9998
#TLE: 2 37849  98.7809 316.1734 0002474  65.2440 294.8994 14.19525043736585

#Time	Az	El	Level	Level2	SNR	BER	BlckErr	Temp	State	Recorded	gain1	gain2
2026-01-15 07:50:26.84	80.53	7.05	-32.6	-39.8	4.1	1.44e+00	0	41	0	0	26	8286
2026-01-15 07:50:27.85	80.42	7.10	-32.4	-38.3	4.4	1.36e+00	0	41	104	0	26	7077
2026-01-15 07:50:28.85	80.30	7.16	-32.3	-37.7	6.0	3.91e-01	0	41	0	0	26	6666
2026-01-15 07:50:29.85	80.18	7.21	-32.3	-37.9	5.9	3.60e-01	0	41	0	1048576	26	6820
2026-01-15 07:50:30.85	80.06	7.26	-32.4	-38.1	5.7	4.02e-01	0	41	0	3145728	26	6960
2026-01-15 07:50:31.85	79.95	7.32	-32.4	-38.2	5.7	3.67e-01	0	41	0	5242880	26	7011
2026-01-15 07:50:32.86	79.83	7.37	-32.5	-39.0	5.2	4.69e-01	0	41	0	7340032	26	7560
2026-01-15 07:50:33.87	79.70	7.43	-32.5	-38.5	5.5	5.66e-01	0	41	0	9437184	26	7238
2026-01-15 07:50:34.87	79.59	7.48	-32.3	-37.6	6.1	3.68e-01	0	41	0	10485760	26	6614
2026-01-15 07:50:35.87	79.47	7.54	-32.2	-37.1	6.8	2.74e-01	0	41	0	12582912	25	6326
2026-01-15 07:50:36.87	79.34	7.59	-32.0	-36.3	7.4	1.29e-01	0	41	0	14680064	25	5872
2026-01-15 07:50:37.88	79.22	7.64	-31.7	-35.3	8.5	6.21e-02	0	41	0	16777216	24	5464
2026-01-15 07:50:38.88	79.10	7.70	-31.4	-34.2	9.5	2.21e-02	0	41	0	17825792	24	4957
2026-01-15 07:50:39.88	78.98	7.75	-31.4	-34.2	9.5	1.31e-02	0	41	0	19922944	24	4966
2026-01-15 07:50:40.88	78.86	7.81	-31.6	-34.8	9.0	1.54e-02	0	42	0	22020096	24	5230
2026-01-15 07:50:41.88	78.73	7.86	-31.6	-34.9	8.9	2.59e-02	0	41	0	24117248	24	5252
2026-01-15 07:50:42.88	78.61	7.91	-31.6	-34.8	9.0	2.14e-02	0	42	0	26214400	24	5218
2026-01-15 07:50:43.89	78.49	7.97	-31.6	-35.1	8.8	2.69e-02	0	41	0	27262976	24	5339
2026-01-15 07:50:44.89	78.36	8.02	-31.7	-35.1	8.9	3.29e-02	0	42	0	29360128	24	5339
2026-01-15 07:50:45.89	78.24	8.08	-31.5	-34.5	9.3	2.09e-02	0	42	0	31457280	24	5081
2026-01-15 07:50:46.89	78.11	8.13	-31.5	-34.6	9.2	1.94e-02	0	42	0	33554432	24	5119
2026-01-15 07:50:47.90	77.98	8.19	-31.4	-34.3	9.5	1.78e-02	0	42	0	35651584	24	4981
2026-01-15 07:50:48.90	77.86	8.24	-31.7	-35.5	8.5	2.33e-02	0	42	0	36700160	24	5550
2026-01-15 07:50:49.91	77.73	8.29	-31.5	-34.9	9.0	3.71e-02	0	42	0	38797312	24	5267
2026-01-15 07:50:50.90	77.60	8.35	-31.4	-34.4	9.3	1.97e-02	0	42	0	40894464	24	5063
2026-01-15 07:50:51.90	77.48	8.40	-31.3	-34.0	9.6	1.45e-02	0	42	0	42991616	24	4909
2026-01-15 07:50:52.91	77.35	8.46	-31.3	-33.9	9.8	1.10e-02	0	42	0	45088768	24	4831
2026-01-15 07:50:53.91	77.22	8.51	-31.2	-33.9	10.2	6.21e-03	0	42	0	46137344	23	4930
2026-01-15 07:50:54.91	77.09	8.56	-31.2	-33.9	10.2	5.78e-03	0	42	0	48234496	23	4906
2026-01-15 07:50:55.91	76.96	8.62	-31.1	-33.6	10.4	5.27e-03	0	42	0	50331648	23	4809
2026-01-15 07:50:56.91	76.83	8.67	-31.1	-33.7	10.2	5.22e-03	0	42	0	52428800	23	4864
2026-01-15 07:50:57.92	76.70	8.72	-31.2	-34.0	10.1	6.19e-03	0	42	0	54525952	23	4972
2026-01-15 07:50:58.92	76.57	8.78	-31.3	-34.3	9.9	9.51e-03	0	42	0	55574528	23	5095
2026-01-15 07:50:59.92	76.44	8.83	-31.4	-34.5	9.7	1.21e-02	0	42	0	57671680	23	5176
2026-01-15 07:51:00.92	76.30	8.89	-31.3	-34.3	9.9	8.50e-03	0	42	0	59768832	23	5099
2026-01-15 07:51:01.92	76.17	8.94	-31.3	-34.4	9.8	9.06e-03	0	42	0	61865984	23	5110
2026-01-15 07:51:02.91	76.04	8.99	-31.1	-33.5	10.5	6.32e-03	0	42	0	62914560	23	4784
2026-01-15 07:51:03.92	75.90	9.05	-30.9	-33.0	10.9	2.83e-03	0	42	0	65011712	23	4569
2026-01-15 07:51:04.92	75.77	9.10	-31.2	-33.8	10.3	3.33e-03	0	42	0	67108864	23	4886
2026-01-15 07:51:05.93	75.63	9.15	-31.3	-34.1	10.1	6.22e-03	0	42	0	69206016	23	5012
2026-01-15 07:51:06.93	75.50	9.21	-31.3	-34.2	10.0	8.74e-03	0	42	0	71303168	23	5034
2026-01-15 07:51:07.92	75.37	9.26	-31.2	-33.8	10.3	4.98e-03	0	42	0	72351744	23	4889
2026-01-15 07:51:08.93	75.23	9.31	-31.3	-34.3	10.1	4.97e-03	0	42	0	74448896	23	5056
2026-01-15 07:51:09.93	75.09	9.37	-31.2	-33.8	10.4	4.28e-03	0	42	0	76546048	23	4852
2026-01-15 07:51:10.93	74.95	9.42	-31.1	-33.7	10.5	4.15e-03	0	42	0	78643200	23	4826
2026-01-15 07:51:11.93	74.82	9.47	-31.1	-33.7	10.5	5.16e-03	0	42	0	80740352	23	4834
2026-01-15 07:51:12.93	74.68	9.53	-31.3	-34.3	10.0	5.53e-03	0	42	0	81788928	23	5079
2026-01-15 07:51:13.93	74.54	9.58	-31.4	-34.5	9.9	7.62e-03	0	42	0	83886080	23	5151
2026-01-15 07:51:14.94	74.40	9.63	-31.4	-34.7	9.7	9.34e-03	0	42	0	85983232	23	5235
2026-01-15 07:51:15.94	74.26	9.69	-31.4	-34.4	9.9	9.05e-03	0	42	0	88080384	23	5134
2026-01-15 07:51:16.95	74.12	9.74	-31.5	-35.0	9.5	8.66e-03	0	42	0	90177536	23	5363
2026-01-15 07:51:17.95	73.98	9.79	-31.4	-34.7	9.7	1.16e-02	0	42	0	91226112	23	5264
2026-01-15 07:51:18.96	73.84	9.85	-31.4	-34.7	9.7	9.92e-03	0	42	0	93323264	23	5246
2026-01-15 07:51:19.96	73.69	9.90	-31.5	-35.0	9.5	1.55e-02	0	42	0	95420416	23	5400
2026-01-15 07:51:20.96	73.55	9.95	-31.6	-35.3	9.3	1.76e-02	0	42	0	97517568	23	5494
2026-01-15 07:51:21.96	73.41	10.00	-31.4	-34.7	9.7	1.46e-02	0	42	0	99614720	23	5263
2026-01-15 07:51:22.97	73.26	10.06	-31.4	-34.7	9.7	1.16e-02	0	42	0	100663296	23	5251
2026-01-15 07:51:23.97	73.12	10.11	-31.5	-34.9	9.6	1.23e-02	0	42	0	102760448	23	5340
2026-01-15 07:51:24.97	72.98	10.16	-31.4	-34.6	9.8	1.01e-02	0	42	0	104857600	23	5208
2026-01-15 07:51:25.97	72.83	10.22	-31.4	-34.5	9.8	9.38e-03	0	42	0	106954752	23	5171
2026-01-15 07:51:26.98	72.68	10.27	-31.4	-34.5	9.9	9.04e-03	0	43	0	108003328	23	5157
2026-01-15 07:51:27.98	72.54	10.32	-31.3	-34.1	10.2	6.27e-03	0	43	0	110100480	23	4991
2026-01-15 07:51:28.98	72.39	10.37	-31.4	-34.4	10.0	7.75e-03	0	42	0	112197632	23	5113
2026-01-15 07:51:29.98	72.25	10.43	-31.2	-33.8	10.5	5.97e-03	0	42	0	114294784	23	4838
2026-01-15 07:51:30.99	72.10	10.48	-31.0	-33.3	10.9	2.48e-03	0	42	0	116391936	23	4649
2026-01-15 07:51:31.99	71.95	10.53	-31.2	-33.7	10.6	3.13e-03	0	42	0	117440512	23	4828
2026-01-15 07:51:32.99	71.80	10.58	-31.1	-33.4	10.8	3.15e-03	0	42	0	119537664	23	4693
2026-01-15 07:51:34.00	71.65	10.63	-31.1	-33.4	10.8	2.13e-03	0	43	0	121634816	23	4707
2026-01-15 07:51:35.00	71.50	10.69	-31.1	-33.3	10.8	2.79e-03	0	42	0	123731968	23	4678
2026-01-15 07:51:36.00	71.35	10.74	-31.1	-33.4	10.8	2.40e-03	0	43	0	125829120	23	4702
2026-01-15 07:51:37.00	71.20	10.79	-31.1	-33.5	10.7	2.59e-03	0	43	0	126877696	23	4731
2026-01-15 07:51:38.00	71.05	10.84	-31.0	-33.1	11.0	1.98e-03	0	42	0	128974848	23	4572
2026-01-15 07:51:39.01	70.89	10.89	-30.9	-32.8	11.2	1.59e-03	0	43	0	131072000	23	4470
2026-01-15 07:51:40.01	70.74	10.94	-31.0	-33.2	11.0	1.84e-03	0	43	0	133169152	23	4625
2026-01-15 07:51:41.01	70.59	11.00	-30.9	-32.8	11.2	1.96e-03	0	43	0	135266304	23	4480
2026-01-15 07:51:42.01	70.44	11.05	-31.1	-33.3	10.8	1.87e-03	0	43	0	136314880	23	4685
2026-01-15 07:51:43.02	70.28	11.10	-31.2	-33.7	10.6	2.36e-03	0	43	0	138412032	23	4823
2026-01-15 07:51:44.02	70.13	11.15	-30.9	-32.7	11.3	2.14e-03	0	42	0	140509184	23	4429
2026-01-15 07:51:45.03	69.97	11.20	-30.5	-32.0	12.1	3.62e-04	0	43	0	142606336	22	4302
2026-01-15 07:51:46.03	69.81	11.25	-30.5	-32.1	12.1	2.26e-04	0	43	0	144703488	22	4334
2026-01-15 07:51:47.02	69.66	11.30	-30.5	-32.2	12.0	2.85e-04	0	43	0	145752064	22	4361
2026-01-15 07:51:48.03	69.50	11.35	-30.9	-33.2	11.4	4.64e-04	0	43	0	147849216	22	4699
2026-01-15 07:51:49.03	69.34	11.40	-30.8	-33.0	11.5	9.99e-04	0	43	0	149946368	22	4625
2026-01-15 07:51:50.03	69.19	11.45	-30.8	-32.9	11.5	7.39e-04	0	43	0	152043520	22	4609
2026-01-15 07:51:51.04	69.03	11.50	-30.8	-32.9	11.6	6.87e-04	0	43	0	153092096	22	4600
2026-01-15 07:51:52.03	68.87	11.55	-31.0	-33.6	11.1	1.60e-03	0	43	0	155189248	22	4858
2026-01-15 07:51:53.03	68.71	11.60	-30.9	-33.3	11.3	1.35e-03	0	42	0	157286400	22	4730
2026-01-15 07:51:54.04	68.55	11.66	-30.9	-33.4	11.2	1.08e-03	0	43	0	159383552	22	4766
2026-01-15 07:51:55.04	68.39	11.70	-30.9	-33.5	11.1	1.34e-03	0	43	0	161480704	22	4818
2026-01-15 07:51:56.04	68.23	11.75	-30.8	-32.9	11.6	8.25e-04	0	43	0	162529280	22	4602
2026-01-15 07:51:57.04	68.06	11.80	-30.6	-32.5	11.9	5.75e-04	0	43	0	164626432	22	4460
2026-01-15 07:51:58.04	67.90	11.85	-30.5	-31.9	12.3	2.30e-04	0	43	0	166723584	22	4254
2026-01-15 07:51:59.04	67.74	11.90	-30.2	-31.7	12.8	9.53e-05	0	43	0	168820736	21	4269
2026-01-15 07:52:00.05	67.57	11.95	-30.4	-32.2	12.4	1.21e-04	0	43	0	170917888	21	4438
2026-01-15 07:52:01.06	67.41	12.00	-30.3	-32.1	12.5	1.24e-04	0	43	0	171966464	21	4401
2026-01-15 07:52:02.06	67.24	12.05	-30.4	-32.1	12.5	1.36e-04	0	43	0	174063616	21	4415
2026-01-15 07:52:03.06	67.08	12.10	-30.3	-32.0	12.6	8.62e-05	0	43	0	176160768	21	4370
2026-01-15 07:52:04.06	66.91	12.15	-30.3	-32.0	12.6	9.30e-05	0	43	0	178257920	21	4363
2026-01-15 07:52:05.06	66.75	12.20	-30.2	-31.8	12.7	9.91e-05	0	43	0	180355072	21	4302
2026-01-15 07:52:06.06	66.58	12.25	-30.2	-31.7	12.8	5.95e-05	0	43	0	181403648	21	4263
2026-01-15 07:52:07.06	66.41	12.29	-30.2	-31.7	12.8	6.02e-05	0	43	0	183500800	21	4281
2026-01-15 07:52:08.07	66.24	12.34	-30.2	-31.8	12.7	5.26e-05	0	43	0	185597952	21	4313
2026-01-15 07:52:09.07	66.08	12.39	-30.4	-32.4	12.4	1.23e-04	0	43	0	187695104	21	4499
2026-01-15 07:52:10.08	65.91	12.44	-30.4	-32.4	12.4	1.36e-04	0	43	0	189792256	21	4503
2026-01-15 07:52:11.08	65.74	12.49	-30.5	-32.6	12.2	1.94e-04	0	43	0	190840832	21	4582
2026-01-15 07:52:12.08	65.57	12.53	-30.5	-32.5	12.3	1.87e-04	0	43	0	192937984	21	4548
2026-01-15 07:52:13.08	65.40	12.58	-30.6	-32.8	12.0	2.60e-04	0	43	0	195035136	21	4646
2026-01-15 07:52:14.09	65.22	12.63	-30.6	-33.0	11.9	3.73e-04	0	43	0	197132288	21	4714
2026-01-15 07:52:15.09	65.05	12.68	-30.6	-32.8	12.0	4.03e-04	0	43	0	198180864	21	4661
2026-01-15 07:52:16.09	64.88	12.72	-30.4	-32.2	12.5	1.43e-04	0	43	0	200278016	21	4439
2026-01-15 07:52:17.09	64.71	12.77	-30.2	-31.5	12.9	5.95e-05	0	43	0	202375168	21	4218
2026-01-15 07:52:18.09	64.53	12.82	-30.1	-31.4	13.1	3.96e-05	0	43	0	204472320	21	4172
2026-01-15 07:52:19.09	64.36	12.86	-30.0	-31.1	13.2	2.13e-05	0	43	0	206569472	21	4089
2026-01-15 07:52:20.09	64.19	12.91	-29.9	-30.9	13.4	9.10e-06	0	43	0	207618048	21	4027
2026-01-15 07:52:21.09	64.01	12.95	-29.9	-30.8	13.4	1.83e-05	0	43	0	209715200	21	4000
2026-01-15 07:52:22.10	63.83	13.00	-30.0	-31.0	13.3	1.67e-05	0	43	0	211812352	21	4043
2026-01-15 07:52:23.11	63.66	13.05	-29.8	-30.7	13.6	1.37e-05	0	43	0	213909504	21	3952
2026-01-15 07:52:24.11	63.48	13.09	-29.8	-31.0	13.7	6.10e-06	0	43	0	216006656	20	4126
2026-01-15 07:52:25.12	63.30	13.14	-29.9	-31.2	13.5	1.29e-05	0	43	0	217055232	20	4195
2026-01-15 07:52:26.12	63.12	13.18	-30.0	-31.4	13.4	1.60e-05	0	43	0	219152384	20	4262
2026-01-15 07:52:27.12	62.94	13.23	-30.2	-32.0	13.1	1.67e-05	0	43	0	221249536	20	4432
2026-01-15 07:52:28.12	62.76	13.27	-30.2	-32.1	13.0	4.80e-05	0	43	0	223346688	20	4461
2026-01-15 07:52:29.12	62.59	13.32	-30.3	-32.4	12.8	4.88e-05	0	43	0	225443840	20	4571
2026-01-15 07:52:30.13	62.40	13.36	-30.2	-32.1	13.0	3.89e-05	0	43	0	226492416	20	4477
2026-01-15 07:52:31.14	62.22	13.41	-30.2	-32.1	13.0	3.81e-05	0	43	0	228589568	20	4484
2026-01-15 07:52:32.13	62.04	13.45	-30.4	-32.6	12.6	6.02e-05	0	43	0	230686720	20	4659
2026-01-15 07:52:33.14	61.86	13.49	-30.5	-32.8	12.5	1.06e-04	0	43	0	232783872	20	4739
2026-01-15 07:52:34.14	61.68	13.54	-30.4	-32.6	12.6	8.54e-05	0	43	0	234881024	20	4633
2026-01-15 07:52:35.15	61.49	13.58	-30.4	-32.6	12.6	1.14e-04	0	43	0	235929600	20	4663
2026-01-15 07:52:36.14	61.31	13.62	-30.4	-32.7	12.6	8.01e-05	0	43	0	238026752	20	4672
2026-01-15 07:52:37.15	61.13	13.67	-30.7	-32.9	12.2	1.24e-04	0	43	0	240123904	21	4659
2026-01-15 07:52:38.15	60.94	13.71	-30.8	-33.3	11.9	3.40e-04	0	43	0	242221056	21	4779
2026-01-15 07:52:39.15	60.76	13.75	-30.7	-32.9	12.1	2.01e-04	0	43	0	244318208	21	4649
2026-01-15 07:52:40.15	60.57	13.79	-30.8	-33.3	11.8	3.20e-04	0	43	0	245366784	21	4813
2026-01-15 07:52:41.15	60.39	13.84	-30.8	-33.4	11.8	4.10e-04	0	43	0	247463936	21	4825
2026-01-15 07:52:42.15	60.20	13.88	-31.0	-33.9	11.5	5.34e-04	0	43	0	249561088	21	5025
2026-01-15 07:52:43.15	60.01	13.92	-31.0	-33.5	11.4	8.27e-04	0	43	0	251658240	22	4801
2026-01-15 07:52:44.15	59.82	13.96	-31.0	-33.5	11.4	9.63e-04	0	43	0	253755392	22	4770
2026-01-15 07:52:45.16	59.63	14.00	-30.8	-32.8	11.9	8.31e-04	0	43	0	254803968	22	4545
2026-01-15 07:52:46.16	59.45	14.04	-30.6	-32.2	12.4	2.27e-04	0	43	0	256901120	22	4314
2026-01-15 07:52:47.16	59.26	14.08	-30.3	-31.4	12.9	6.94e-05	0	43	0	258998272	22	4053
2026-01-15 07:52:48.16	59.07	14.12	-30.1	-31.3	13.3	2.21e-05	0	43	0	261095424	21	4128
2026-01-15 07:52:49.17	58.88	14.16	-30.1	-31.4	13.3	1.83e-05	0	43	0	262144000	21	4138
2026-01-15 07:52:50.17	58.69	14.20	-30.1	-31.3	13.2	1.98e-05	0	43	0	264241152	21	4112
2026-01-15 07:52:51.17	58.49	14.24	-30.2	-31.5	13.1	2.28e-05	0	43	0	266338304	21	4185
2026-01-15 07:52:52.18	58.30	14.28	-30.1	-31.3	13.3	2.13e-05	0	43	0	268435456	21	4108
2026-01-15 07:52:53.17	58.11	14.32	-30.2	-31.6	13.1	3.20e-05	0	43	0	270532608	21	4214
2026-01-15 07:52:54.18	57.92	14.36	-30.4	-32.1	12.8	3.58e-05	0	43	0	271581184	21	4370
2026-01-15 07:52:55.17	57.73	14.40	-30.4	-32.0	12.9	4.65e-05	0	43	0	273678336	21	4323
2026-01-15 07:52:56.18	57.53	14.44	-30.6	-32.7	12.4	1.57e-04	0	43	0	275775488	21	4555
2026-01-15 07:52:57.18	57.34	14.48	-30.4	-32.1	12.8	5.95e-05	0	43	0	277872640	21	4371
2026-01-15 07:52:58.18	57.14	14.51	-30.3	-31.7	13.1	4.04e-05	0	43	0	279969792	21	4237
2026-01-15 07:52:59.18	56.95	14.55	-30.1	-31.2	13.4	1.75e-05	0	43	0	281018368	21	4085
2026-01-15 07:53:00.19	56.75	14.59	-30.1	-31.1	13.4	1.22e-05	0	43	0	283115520	21	4062
2026-01-15 07:53:01.19	56.55	14.63	-30.1	-31.2	13.4	6.80e-06	0	43	0	285212672	21	4095
2026-01-15 07:53:02.19	56.36	14.66	-30.3	-31.8	13.0	2.51e-05	0	43	0	287309824	21	4267
2026-01-15 07:53:03.19	56.16	14.70	-30.3	-31.7	13.0	3.89e-05	0	43	0	288358400	21	4230
2026-01-15 07:53:04.19	55.96	14.74	-30.3	-31.7	13.0	2.97e-05	0	43	0	290455552	21	4252
2026-01-15 07:53:05.20	55.76	14.77	-30.4	-32.1	12.8	5.18e-05	0	43	0	292552704	21	4365
2026-01-15 07:53:06.20	55.56	14.81	-30.3	-31.9	12.9	5.34e-05	0	43	0	294649856	21	4304
2026-01-15 07:53:07.20	55.36	14.84	-30.4	-32.2	12.7	5.49e-05	0	43	0	296747008	21	4398
2026-01-15 07:53:08.20	55.16	14.88	-30.5	-32.4	12.6	9.91e-05	0	43	0	298844160	21	4460
2026-01-15 07:53:09.21	54.96	14.91	-30.2	-31.6	13.2	5.11e-05	0	43	0	299892736	21	4199
2026-01-15 07:53:10.21	54.76	14.95	-29.9	-30.6	13.8	5.30e-06	0	43	0	301989888	21	3922
2026-01-15 07:53:11.21	54.56	14.98	-29.7	-30.5	14.2	1.50e-06	0	43	0	304087040	20	3969
2026-01-15 07:53:12.22	54.36	15.01	-29.7	-30.5	14.2	7.00e-07	0	43	0	306184192	20	3952
2026-01-15 07:53:13.22	54.16	15.05	-29.5	-30.1	14.5	1.50e-06	0	43	0	307232768	20	3843
2026-01-15 07:53:14.23	53.95	15.08	-29.7	-30.6	14.2	1.50e-06	0	43	0	309329920	20	4003
2026-01-15 07:53:15.23	53.75	15.11	-29.5	-30.1	14.5	0.00e+00	0	43	0	311427072	20	3847
2026-01-15 07:53:16.24	53.54	15.15	-29.6	-30.4	14.3	0.00e+00	0	43	0	313524224	20	3924
2026-01-15 07:53:17.24	53.34	15.18	-29.8	-30.8	14.0	3.80e-06	0	43	0	315621376	20	4056
2026-01-15 07:53:18.24	53.14	15.21	-29.8	-30.7	14.1	3.00e-06	0	43	0	316669952	20	4025
2026-01-15 07:53:19.25	52.93	15.24	-29.9	-31.0	13.9	7.00e-07	0	43	0	318767104	20	4111
2026-01-15 07:53:20.25	52.72	15.27	-30.1	-31.6	13.5	6.80e-06	0	43	0	320864256	20	4296
2026-01-15 07:53:21.26	52.52	15.30	-30.3	-32.1	13.2	3.12e-05	0	43	0	322961408	20	4447
2026-01-15 07:53:22.26	52.31	15.33	-30.0	-31.4	13.7	1.75e-05	0	43	0	325058560	20	4210
2026-01-15 07:53:23.26	52.11	15.36	-29.9	-31.2	13.8	1.14e-05	0	43	0	326107136	20	4154
2026-01-15 07:53:24.25	51.90	15.39	-29.9	-31.0	13.9	5.30e-06	0	43	0	328204288	20	4108
2026-01-15 07:53:25.25	51.69	15.42	-30.0	-31.3	13.7	9.10e-06	0	43	0	330301440	20	4190
2026-01-15 07:53:26.25	51.49	15.45	-30.0	-31.3	13.7	5.30e-06	0	43	0	332398592	20	4198
2026-01-15 07:53:27.25	51.28	15.48	-30.0	-31.5	13.6	9.10e-06	0	43	0	334495744	20	4255
2026-01-15 07:53:28.26	51.07	15.51	-30.2	-32.1	13.1	1.98e-05	0	43	0	335544320	20	4436
2026-01-15 07:53:29.26	50.86	15.54	-30.4	-32.4	13.0	3.43e-05	0	43	0	337641472	20	4543
2026-01-15 07:53:30.26	50.65	15.57	-30.6	-32.5	12.6	6.94e-05	0	43	0	339738624	21	4479
2026-01-15 07:53:31.26	50.44	15.59	-30.4	-31.9	12.9	5.34e-05	0	43	0	341835776	21	4291
2026-01-15 07:53:32.26	50.23	15.62	-30.2	-31.4	13.3	1.60e-05	0	43	0	343932928	21	4154
2026-01-15 07:53:33.26	50.02	15.65	-30.2	-31.4	13.3	2.28e-05	0	43	0	344981504	21	4143
2026-01-15 07:53:34.26	49.81	15.67	-30.2	-31.4	13.3	2.36e-05	0	43	0	347078656	21	4138
2026-01-15 07:53:35.27	49.60	15.70	-30.3	-31.6	13.1	2.44e-05	0	43	0	349175808	21	4212
2026-01-15 07:53:36.27	49.39	15.72	-30.3	-31.8	13.0	1.83e-05	0	43	0	351272960	21	4250
2026-01-15 07:53:37.27	49.18	15.75	-30.5	-32.2	12.7	8.31e-05	0	43	0	352321536	21	4375
2026-01-15 07:53:38.27	48.96	15.77	-30.3	-31.7	13.1	2.82e-05	0	43	0	354418688	21	4229
2026-01-15 07:53:39.27	48.75	15.80	-30.3	-31.6	13.1	4.04e-05	0	43	0	356515840	21	4214
2026-01-15 07:53:40.28	48.54	15.82	-30.3	-31.8	13.0	3.35e-05	0	43	0	358612992	21	4252
2026-01-15 07:53:41.28	48.32	15.85	-30.4	-32.0	12.9	4.42e-05	0	43	0	360710144	21	4338
2026-01-15 07:53:42.28	48.11	15.87	-30.4	-32.0	12.9	4.50e-05	0	43	0	361758720	21	4321
2026-01-15 07:53:43.28	47.90	15.89	-30.2	-31.5	13.2	2.97e-05	0	43	0	363855872	21	4186
2026-01-15 07:53:44.29	47.68	15.92	-30.2	-31.4	13.3	1.75e-05	0	43	0	365953024	21	4137
2026-01-15 07:53:45.29	47.47	15.94	-30.2	-31.5	13.3	1.90e-05	0	43	0	368050176	21	4153
2026-01-15 07:53:46.29	47.25	15.96	-30.2	-31.5	13.2	1.98e-05	0	43	0	370147328	21	4172
2026-01-15 07:53:47.29	47.04	15.98	-30.3	-31.6	13.1	1.90e-05	0	43	0	371195904	21	4210
2026-01-15 07:53:48.29	46.82	16.00	-30.2	-31.3	13.3	1.29e-05	0	43	0	373293056	21	4118
2026-01-15 07:53:49.30	46.60	16.02	-30.2	-31.4	13.3	2.89e-05	0	43	0	375390208	21	4147
2026-01-15 07:53:50.30	46.39	16.04	-30.0	-30.9	13.6	9.90e-06	0	43	0	377487360	21	3981
2026-01-15 07:53:51.30	46.17	16.06	-29.9	-30.5	13.9	4.50e-06	0	43	0	379584512	21	3887
2026-01-15 07:53:52.31	45.95	16.08	-29.9	-31.2	13.7	4.50e-06	0	43	0	380633088	20	4160
2026-01-15 07:53:53.31	45.74	16.10	-30.0	-31.4	13.6	6.10e-06	0	43	0	382730240	20	4217
2026-01-15 07:53:54.32	45.52	16.12	-30.1	-31.7	13.4	1.06e-05	0	43	0	384827392	20	4340
2026-01-15 07:53:55.32	45.30	16.14	-30.4	-32.4	12.9	2.82e-05	0	43	0	386924544	20	4561
2026-01-15 07:53:56.32	45.08	16.16	-30.3	-32.4	12.9	3.12e-05	0	43	0	389021696	20	4558
2026-01-15 07:53:57.33	44.86	16.17	-30.4	-32.7	12.8	3.66e-05	0	43	0	390070272	20	4658
2026-01-15 07:53:58.33	44.65	16.19	-30.2	-32.2	13.1	3.12e-05	0	43	0	392167424	20	4487
2026-01-15 07:53:59.33	44.43	16.21	-30.3	-32.3	13.0	3.05e-05	0	43	0	394264576	20	4546
2026-01-15 07:54:00.33	44.21	16.22	-30.4	-32.5	12.8	6.63e-05	0	43	0	396361728	20	4608
2026-01-15 07:54:01.34	43.99	16.24	-30.5	-32.4	12.6	7.24e-05	0	43	0	397410304	21	4492
2026-01-15 07:54:02.34	43.77	16.25	-30.7	-33.0	12.2	1.69e-04	0	43	0	399507456	21	4670
2026-01-15 07:54:03.35	43.55	16.27	-30.7	-33.0	12.3	1.75e-04	0	43	0	401604608	21	4671
2026-01-15 07:54:04.35	43.33	16.28	-30.8	-33.2	12.0	2.89e-04	0	43	0	403701760	21	4775
2026-01-15 07:54:05.36	43.11	16.30	-30.7	-33.1	12.1	1.81e-04	0	43	0	405798912	21	4710
2026-01-15 07:54:06.36	42.89	16.31	-30.8	-33.1	12.1	2.65e-04	0	43	0	407896064	21	4738
2026-01-15 07:54:07.37	42.66	16.32	-30.9	-33.4	11.9	3.36e-04	0	43	0	408944640	21	4849
2026-01-15 07:54:08.37	42.44	16.34	-31.0	-33.8	11.7	4.03e-04	0	43	0	411041792	21	4970
2026-01-15 07:54:09.38	42.22	16.35	-30.9	-33.2	11.7	6.50e-04	0	43	0	413138944	22	4647
2026-01-15 07:54:10.39	42.00	16.36	-30.6	-32.0	12.5	2.65e-04	0	43	0	415236096	22	4268
2026-01-15 07:54:11.39	41.78	16.37	-30.4	-31.7	12.8	6.33e-05	0	43	0	416284672	22	4168
2026-01-15 07:54:12.39	41.56	16.38	-30.4	-31.6	12.8	5.64e-05	0	43	0	418381824	22	4126
2026-01-15 07:54:13.39	41.34	16.39	-30.4	-31.5	12.8	6.10e-05	0	43	0	420478976	22	4115
2026-01-15 07:54:14.40	41.11	16.40	-30.4	-31.6	12.8	4.57e-05	0	43	0	422576128	22	4142
2026-01-15 07:54:15.40	40.89	16.41	-30.5	-31.7	12.8	7.24e-05	0	43	0	424673280	22	4179
2026-01-15 07:54:16.41	40.67	16.42	-30.3	-31.7	13.0	6.25e-05	0	43	0	425721856	21	4261
2026-01-15 07:54:17.41	40.45	16.43	-30.3	-31.8	13.0	4.11e-05	0	43	0	427819008	21	4263
2026-01-15 07:54:18.41	40.23	16.44	-30.4	-32.2	12.7	4.88e-05	0	43	0	429916160	21	4390
2026-01-15 07:54:19.42	40.00	16.45	-30.3	-31.9	12.9	5.26e-05	0	43	0	432013312	21	4294
2026-01-15 07:54:20.42	39.78	16.46	-30.3	-31.9	13.0	3.96e-05	0	43	0	434110464	21	4289
2026-01-15 07:54:21.43	39.56	16.46	-30.4	-31.9	12.9	5.11e-05	0	43	0	435159040	21	4308
2026-01-15 07:54:22.43	39.33	16.47	-30.3	-31.7	13.1	3.20e-05	0	43	0	437256192	21	4223
2026-01-15 07:54:23.44	39.11	16.48	-30.3	-31.8	12.9	3.66e-05	0	43	0	439353344	21	4275
2026-01-15 07:54:24.44	38.89	16.48	-30.3	-31.8	13.0	3.43e-05	0	43	0	441450496	21	4258
2026-01-15 07:54:25.45	38.66	16.49	-30.3	-31.6	13.1	2.51e-05	0	43	0	443547648	21	4216
2026-01-15 07:54:26.45	38.44	16.49	-30.3	-31.8	13.0	2.51e-05	0	43	0	444596224	21	4278
2026-01-15 07:54:27.46	38.21	16.50	-30.6	-32.5	12.6	7.17e-05	0	43	0	446693376	21	4495
2026-01-15 07:54:28.46	37.99	16.50	-30.7	-32.7	12.3	2.17e-04	0	43	0	448790528	21	4576
2026-01-15 07:54:29.46	37.77	16.51	-30.6	-32.7	12.4	1.47e-04	0	43	0	450887680	21	4567
2026-01-15 07:54:30.46	37.55	16.51	-30.7	-32.9	12.2	1.88e-04	0	43	0	452984832	21	4647
2026-01-15 07:54:31.46	37.32	16.51	-30.7	-33.0	12.3	2.43e-04	0	43	0	454033408	21	4670
2026-01-15 07:54:32.47	37.10	16.51	-30.5	-32.3	12.7	7.09e-05	0	43	0	456130560	21	4436
2026-01-15 07:54:33.47	36.88	16.52	-30.3	-31.7	13.0	5.56e-05	0	43	0	458227712	21	4240
2026-01-15 07:54:34.47	36.65	16.52	-30.2	-31.3	13.3	2.28e-05	0	43	0	460324864	21	4126
2026-01-15 07:54:35.48	36.43	16.52	-30.2	-31.4	13.2	1.67e-05	0	43	0	462422016	21	4151
2026-01-15 07:54:36.48	36.21	16.52	-30.2	-31.3	13.3	1.90e-05	0	43	0	463470592	21	4120
2026-01-15 07:54:37.49	35.98	16.52	-30.2	-31.5	13.2	1.22e-05	0	43	0	465567744	21	4164
2026-01-15 07:54:38.49	35.76	16.52	-30.3	-31.7	13.1	1.98e-05	0	43	0	467664896	21	4238
2026-01-15 07:54:39.50	35.53	16.52	-30.3	-31.8	12.9	2.74e-05	0	43	0	469762048	21	4279
2026-01-15 07:54:40.50	35.31	16.52	-30.8	-33.3	12.0	7.40e-05	0	43	0	471859200	21	4755
2026-01-15 07:54:41.50	35.09	16.52	-30.8	-33.2	12.1	2.68e-04	0	43	0	472907776	21	4723
2026-01-15 07:54:42.51	34.86	16.51	-30.9	-33.0	11.9	4.86e-04	0	43	0	475004928	22	4572
2026-01-15 07:54:43.51	34.64	16.51	-30.7	-32.4	12.3	1.57e-04	0	43	0	477102080	22	4386
2026-01-15 07:54:44.52	34.41	16.51	-31.0	-33.2	11.7	5.23e-04	0	43	0	479199232	22	4639
2026-01-15 07:54:45.51	34.19	16.50	-31.1	-33.4	11.6	5.13e-04	0	43	0	481296384	22	4732
2026-01-15 07:54:46.52	33.97	16.50	-31.1	-33.6	11.5	1.16e-03	0	43	0	482344960	22	4785
2026-01-15 07:54:47.52	33.75	16.50	-31.1	-33.7	11.4	9.22e-04	0	43	0	484442112	22	4830
2026-01-15 07:54:48.52	33.52	16.49	-31.0	-33.3	11.6	7.46e-04	0	43	0	486539264	22	4684
2026-01-15 07:54:49.52	33.30	16.49	-31.0	-33.3	11.6	4.70e-04	0	43	0	488636416	22	4685
2026-01-15 07:54:50.52	33.08	16.48	-31.0	-33.3	11.6	6.70e-04	0	43	0	489684992	22	4692
2026-01-15 07:54:51.52	32.86	16.47	-30.8	-32.6	12.1	3.52e-04	0	43	0	491782144	22	4455
2026-01-15 07:54:52.53	32.63	16.47	-30.5	-31.9	12.5	1.64e-04	0	43	0	493879296	22	4229
2026-01-15 07:54:53.53	32.41	16.46	-30.5	-32.0	12.5	1.36e-04	0	43	0	495976448	22	4244
2026-01-15 07:54:54.53	32.19	16.45	-30.4	-31.6	12.8	7.40e-05	0	43	0	498073600	22	4133
2026-01-15 07:54:55.54	31.97	16.45	-30.5	-31.8	12.7	7.17e-05	0	43	0	499122176	22	4196
2026-01-15 07:54:56.54	31.74	16.44	-30.4	-31.7	12.8	7.40e-05	0	43	0	501219328	22	4143
2026-01-15 07:54:57.55	31.52	16.43	-30.3	-31.3	13.0	4.88e-05	0	43	0	503316480	22	4043
2026-01-15 07:54:58.55	31.30	16.42	-30.3	-31.6	13.1	2.51e-05	0	43	0	505413632	21	4209
2026-01-15 07:54:59.55	31.08	16.41	-30.2	-31.6	13.2	2.97e-05	0	43	0	507510784	21	4191
2026-01-15 07:55:00.56	30.85	16.40	-30.2	-31.6	13.2	2.05e-05	0	43	0	508559360	21	4197
2026-01-15 07:55:01.56	30.63	16.39	-30.3	-31.6	13.1	2.89e-05	0	43	0	510656512	21	4204
2026-01-15 07:55:02.56	30.41	16.38	-30.3	-31.7	13.1	2.28e-05	0	43	0	512753664	21	4245
2026-01-15 07:55:03.57	30.19	16.37	-30.4	-32.1	12.8	4.27e-05	0	43	0	514850816	21	4356
2026-01-15 07:55:04.58	29.97	16.36	-30.5	-32.4	12.6	6.56e-05	0	43	0	516947968	21	4464
2026-01-15 07:55:05.58	29.75	16.34	-30.5	-32.3	12.7	5.79e-05	0	43	0	517996544	21	4409
2026-01-15 07:55:06.58	29.53	16.33	-30.4	-31.8	12.9	5.79e-05	0	43	0	520093696	21	4276
2026-01-15 07:55:07.59	29.30	16.32	-30.0	-30.9	13.6	3.20e-05	0	43	0	522190848	21	3998
2026-01-15 07:55:08.58	29.09	16.30	-29.8	-30.8	14.0	4.50e-06	0	43	0	524288000	20	4036
2026-01-15 07:55:09.58	28.87	16.29	-29.7	-30.7	14.1	1.50e-06	0	43	0	526385152	20	4021
2026-01-15 07:55:10.59	28.65	16.28	-29.6	-30.4	14.2	0.00e+00	0	43	0	527433728	20	3931
2026-01-15 07:55:11.59	28.43	16.26	-29.8	-30.7	14.0	3.00e-06	0	43	0	529530880	20	4014
2026-01-15 07:55:12.59	28.21	16.25	-29.9	-31.1	13.8	6.80e-06	0	43	0	531628032	20	4141
2026-01-15 07:55:13.59	27.99	16.23	-29.8	-30.8	14.0	4.50e-06	0	43	0	533725184	20	4050
2026-01-15 07:55:14.59	27.77	16.22	-29.8	-30.8	14.0	3.00e-06	0	43	0	534773760	20	4047
2026-01-15 07:55:15.60	27.55	16.20	-29.9	-31.0	13.9	3.00e-06	0	44	0	536870912	20	4106
2026-01-15 07:55:16.60	27.33	16.18	-29.8	-30.8	14.0	3.80e-06	0	43	0	538968064	20	4043
2026-01-15 07:55:17.60	27.12	16.16	-29.8	-30.8	14.0	3.80e-06	0	43	0	541065216	20	4033
2026-01-15 07:55:18.61	26.90	16.15	-29.9	-31.1	13.8	2.20e-06	0	43	0	543162368	20	4135
2026-01-15 07:55:19.61	26.68	16.13	-30.1	-31.5	13.5	5.30e-06	0	43	0	544210944	20	4253
2026-01-15 07:55:20.61	26.46	16.11	-30.0	-31.5	13.5	7.60e-06	0	43	0	546308096	20	4238
2026-01-15 07:55:21.61	26.25	16.09	-30.1	-31.6	13.5	8.30e-06	0	43	0	548405248	20	4280
2026-01-15 07:55:22.62	26.03	16.07	-30.1	-31.6	13.4	1.60e-05	0	43	0	550502400	20	4296
2026-01-15 07:55:23.63	25.81	16.05	-30.2	-31.9	13.3	3.28e-05	0	43	0	552599552	20	4375
2026-01-15 07:55:24.63	25.59	16.03	-30.2	-31.4	13.3	6.40e-05	0	43	0	553648128	21	4121
2026-01-15 07:55:25.63	25.38	16.01	-30.2	-31.3	13.4	9.10e-06	0	43	0	555745280	21	4101
2026-01-15 07:55:26.63	25.16	15.99	-30.6	-32.5	12.5	6.48e-05	0	44	0	557842432	21	4495
2026-01-15 07:55:27.63	24.95	15.97	-30.4	-31.9	13.0	1.49e-04	0	43	0	559939584	21	4294
2026-01-15 07:55:28.63	24.73	15.95	-30.5	-32.1	12.8	5.72e-05	0	43	0	562036736	21	4355
2026-01-15 07:55:29.64	24.52	15.93	-30.6	-32.6	12.5	1.25e-04	0	43	0	563085312	21	4530
2026-01-15 07:55:30.64	24.30	15.91	-30.3	-31.6	13.2	4.65e-05	0	43	0	565182464	21	4178
2026-01-15 07:55:31.64	24.09	15.88	-30.0	-30.9	13.6	1.37e-05	0	43	0	567279616	21	3991
2026-01-15 07:55:32.65	23.88	15.86	-30.0	-30.8	13.6	3.00e-06	0	44	0	569376768	21	3953
2026-01-15 07:55:33.65	23.66	15.84	-29.9	-30.7	13.7	5.30e-06	0	43	0	571473920	21	3930
2026-01-15 07:55:34.66	23.45	15.81	-29.9	-30.5	13.8	3.00e-06	0	43	0	572522496	21	3875
2026-01-15 07:55:35.66	23.24	15.79	-29.9	-30.7	13.7	4.50e-06	0	43	0	574619648	21	3917
2026-01-15 07:55:36.67	23.02	15.76	-29.9	-30.6	13.8	1.50e-06	0	43	0	576716800	21	3894
2026-01-15 07:55:37.67	22.81	15.74	-29.7	-30.4	14.2	3.80e-06	0	44	0	578813952	20	3940
2026-01-15 07:55:38.67	22.60	15.71	-29.7	-30.5	14.1	7.00e-07	0	43	0	580911104	20	3967
2026-01-15 07:55:39.67	22.39	15.69	-29.8	-30.9	13.9	5.30e-06	0	43	0	581959680	20	4088
2026-01-15 07:55:40.68	22.18	15.66	-30.0	-31.4	13.6	3.00e-06	0	43	0	584056832	20	4215
2026-01-15 07:55:41.68	21.97	15.63	-30.1	-31.6	13.5	6.10e-06	0	43	0	586153984	20	4274
2026-01-15 07:55:42.69	21.76	15.61	-30.2	-32.0	13.2	1.75e-05	0	44	0	588251136	20	4414
2026-01-15 07:55:43.69	21.55	15.58	-30.2	-32.0	13.1	2.28e-05	0	44	0	589299712	20	4428
2026-01-15 07:55:44.69	21.34	15.55	-30.2	-32.1	13.1	4.88e-05	0	43	0	591396864	20	4439
2026-01-15 07:55:45.69	21.13	15.52	-30.3	-32.2	13.0	3.35e-05	0	43	0	593494016	20	4485
2026-01-15 07:55:46.69	20.92	15.50	-30.4	-31.9	12.8	5.41e-05	0	43	0	595591168	21	4308
2026-01-15 07:55:47.70	20.71	15.47	-30.3	-31.7	13.0	2.82e-05	0	43	0	597688320	21	4228
2026-01-15 07:55:48.70	20.50	15.44	-30.6	-32.6	12.4	7.32e-05	0	43	0	599785472	21	4536
2026-01-15 07:55:49.71	20.30	15.41	-30.7	-32.9	12.2	2.16e-04	0	43	0	600834048	21	4630
2026-01-15 07:55:50.72	20.09	15.38	-30.7	-32.9	12.2	3.42e-04	0	43	0	602931200	21	4636
2026-01-15 07:55:51.72	19.88	15.35	-30.7	-32.9	12.2	2.60e-04	0	43	0	605028352	21	4626
2026-01-15 07:55:52.73	19.67	15.32	-30.6	-32.8	12.2	2.68e-04	0	43	0	607125504	21	4589
2026-01-15 07:55:53.73	19.47	15.29	-30.7	-33.0	12.1	2.17e-04	0	43	0	608174080	21	4662
2026-01-15 07:55:54.73	19.26	15.26	-30.6	-32.6	12.4	2.18e-04	0	43	0	610271232	21	4530
2026-01-15 07:55:55.73	19.06	15.23	-30.5	-32.2	12.6	1.07e-04	0	43	0	612368384	21	4403
2026-01-15 07:55:56.74	18.85	15.19	-30.5	-32.3	12.6	7.78e-05	0	43	0	614465536	21	4433
2026-01-15 07:55:57.74	18.65	15.16	-30.6	-32.6	12.4	1.12e-04	0	43	0	616562688	21	4530
2026-01-15 07:55:58.74	18.45	15.13	-30.6	-32.5	12.4	1.89e-04	0	43	0	617611264	21	4492
2026-01-15 07:55:59.74	18.25	15.10	-30.5	-32.4	12.5	1.40e-04	0	43	0	619708416	21	4455
2026-01-15 07:56:00.74	18.04	15.07	-30.5	-32.2	12.6	1.14e-04	0	43	0	621805568	21	4413
2026-01-15 07:56:01.74	17.84	15.03	-30.5	-32.3	12.5	1.02e-04	0	43	0	623902720	21	4428
2026-01-15 07:56:02.74	17.64	15.00	-30.7	-32.8	12.2	1.73e-04	0	43	0	625999872	21	4616
2026-01-15 07:56:03.74	17.44	14.97	-30.6	-32.6	12.4	1.60e-04	0	43	0	627048448	21	4526
2026-01-15 07:56:04.74	17.24	14.93	-30.7	-32.8	12.2	1.25e-04	0	44	0	629145600	21	4600
2026-01-15 07:56:05.75	17.04	14.90	-30.5	-32.4	12.5	3.28e-04	0	43	0	631242752	21	4468
2026-01-15 07:56:06.76	16.84	14.86	-30.2	-31.5	13.1	5.34e-05	0	43	0	633339904	21	4168
2026-01-15 07:56:07.76	16.64	14.83	-30.0	-30.9	13.5	2.51e-05	0	43	0	635437056	21	3990
2026-01-15 07:56:08.76	16.44	14.79	-29.8	-30.8	13.9	6.10e-06	0	43	0	636485632	20	4048
2026-01-15 07:56:09.77	16.24	14.76	-29.8	-30.9	13.8	2.20e-06	0	43	0	638582784	20	4092
2026-01-15 07:56:10.77	16.04	14.72	-29.9	-31.0	13.8	3.80e-06	0	43	0	640679936	20	4116
2026-01-15 07:56:11.77	15.85	14.68	-29.7	-30.7	13.9	3.80e-06	0	44	0	642777088	20	4037
2026-01-15 07:56:12.77	15.65	14.65	-29.7	-30.7	14.0	3.80e-06	0	43	0	644874240	20	4016
2026-01-15 07:56:13.78	15.45	14.61	-29.9	-31.1	13.7	2.20e-06	0	43	0	645922816	20	4142
2026-01-15 07:56:14.77	15.26	14.57	-29.9	-31.2	13.6	8.30e-06	0	43	0	648019968	20	4176
2026-01-15 07:56:15.77	15.06	14.54	-30.0	-31.5	13.4	1.52e-05	0	43	0	650117120	20	4272
2026-01-15 07:56:16.77	14.87	14.50	-30.2	-31.8	13.2	2.05e-05	0	43	0	652214272	20	4360
2026-01-15 07:56:17.77	14.68	14.46	-30.2	-32.0	13.1	2.74e-05	0	43	0	653262848	20	4427
2026-01-15 07:56:18.77	14.48	14.42	-30.4	-32.6	12.7	5.64e-05	0	43	0	655360000	20	4618
2026-01-15 07:56:19.78	14.29	14.38	-30.5	-32.5	12.4	1.20e-04	0	43	0	657457152	21	4498
2026-01-15 07:56:20.78	14.10	14.35	-30.8	-33.2	11.8	3.23e-04	0	43	0	659554304	21	4739
2026-01-15 07:56:21.79	13.90	14.31	-30.9	-33.5	11.6	6.02e-04	0	44	0	661651456	21	4874
2026-01-15 07:56:22.79	13.71	14.27	-31.0	-33.4	11.4	7.63e-04	0	43	0	662700032	22	4746
2026-01-15 07:56:23.80	13.52	14.23	-31.1	-33.7	11.2	1.20e-03	0	43	0	664797184	22	4863
2026-01-15 07:56:24.80	13.33	14.19	-31.0	-33.3	11.4	1.04e-03	0	43	0	666894336	22	4714
2026-01-15 07:56:25.81	13.14	14.15	-30.9	-32.9	11.7	7.47e-04	0	44	0	668991488	22	4568
2026-01-15 07:56:26.81	12.95	14.11	-30.7	-32.4	12.1	2.82e-04	0	43	0	671088640	22	4377
2026-01-15 07:56:27.81	12.76	14.07	-30.7	-32.4	12.1	2.37e-04	0	43	0	672137216	22	4383
2026-01-15 07:56:28.81	12.57	14.03	-30.7	-32.5	12.1	2.91e-04	0	43	0	674234368	22	4406
2026-01-15 07:56:29.82	12.38	13.99	-30.9	-33.1	11.6	3.68e-04	0	43	0	676331520	22	4612
2026-01-15 07:56:30.82	12.19	13.94	-30.8	-32.8	11.8	4.83e-04	0	43	0	678428672	22	4506
2026-01-15 07:56:31.82	12.01	13.90	-30.9	-33.0	11.7	3.87e-04	0	43	0	680525824	22	4582
2026-01-15 07:56:32.83	11.82	13.86	-30.8	-32.8	11.8	4.40e-04	0	43	0	681574400	22	4516
2026-01-15 07:56:33.83	11.63	13.82	-31.0	-33.3	11.5	7.70e-04	0	43	0	683671552	22	4705
2026-01-15 07:56:34.84	11.45	13.78	-30.9	-33.1	11.6	9.20e-04	0	43	0	685768704	22	4638
2026-01-15 07:56:35.84	11.26	13.73	-30.8	-32.6	11.9	4.71e-04	0	43	0	687865856	22	4465
2026-01-15 07:56:36.85	11.08	13.69	-30.7	-32.4	12.3	2.78e-04	0	43	0	689963008	22	4372
2026-01-15 07:56:37.85	10.89	13.65	-30.7	-32.3	12.1	2.21e-04	0	43	0	691011584	22	4362
2026-01-15 07:56:38.86	10.71	13.61	-30.6	-32.2	12.1	1.69e-04	0	44	0	693108736	22	4332
2026-01-15 07:56:39.86	10.53	13.56	-30.8	-32.8	11.8	3.49e-04	0	43	0	695205888	22	4531
2026-01-15 07:56:40.87	10.34	13.52	-30.7	-32.5	12.0	4.10e-04	0	43	0	697303040	22	4430
2026-01-15 07:56:41.87	10.16	13.48	-30.7	-32.3	12.1	2.69e-04	0	43	0	699400192	22	4364
2026-01-15 07:56:42.87	9.98	13.43	-30.6	-32.0	12.3	2.29e-04	0	43	0	700448768	22	4267
2026-01-15 07:56:43.87	9.80	13.39	-30.5	-31.9	12.4	1.50e-04	0	43	0	702545920	22	4213
2026-01-15 07:56:44.87	9.62	13.34	-30.5	-32.0	12.2	1.33e-04	0	43	0	704643072	22	4249
2026-01-15 07:56:45.88	9.44	13.30	-30.3	-31.3	12.8	1.11e-04	0	44	0	706740224	22	4033
2026-01-15 07:56:46.88	9.26	13.25	-30.2	-31.7	12.9	4.73e-05	0	43	0	708837376	21	4235
2026-01-15 07:56:47.88	9.09	13.21	-30.4	-32.0	12.6	6.48e-05	0	43	0	709885952	21	4350
2026-01-15 07:56:48.88	8.91	13.17	-30.3	-32.0	12.7	5.56e-05	0	43	0	711983104	21	4336
2026-01-15 07:56:49.89	8.73	13.12	-30.7	-32.9	12.1	1.80e-04	0	43	0	714080256	21	4641
2026-01-15 07:56:50.90	8.55	13.07	-30.7	-33.0	12.0	3.68e-04	0	43	0	716177408	21	4695
2026-01-15 07:56:51.90	8.38	13.03	-31.1	-33.7	11.2	1.07e-03	0	43	0	718274560	22	4846
2026-01-15 07:56:52.90	8.20	12.98	-30.8	-32.8	11.7	1.25e-03	0	44	0	719323136	22	4544
2026-01-15 07:56:53.91	8.02	12.94	-30.9	-33.0	11.6	6.40e-04	0	43	0	721420288	22	4586
2026-01-15 07:56:54.91	7.85	12.89	-30.7	-32.6	11.8	4.47e-04	0	43	0	723517440	22	4484
2026-01-15 07:56:55.92	7.68	12.84	-30.5	-32.1	12.2	3.42e-04	0	43	0	725614592	22	4296
2026-01-15 07:56:56.92	7.50	12.80	-30.6	-32.2	12.1	3.20e-04	0	43	0	726663168	22	4330
2026-01-15 07:56:57.92	7.33	12.75	-30.5	-32.0	12.3	1.77e-04	0	43	0	728760320	22	4253
2026-01-15 07:56:58.92	7.16	12.70	-30.6	-32.1	12.2	2.08e-04	0	43	0	730857472	22	4287
2026-01-15 07:56:59.92	6.99	12.66	-30.4	-31.6	12.5	1.46e-04	0	43	0	732954624	22	4156
2026-01-15 07:57:00.92	6.82	12.61	-30.4	-31.8	12.4	9.84e-05	0	43	0	735051776	22	4199
2026-01-15 07:57:01.93	6.64	12.56	-30.4	-31.7	12.4	1.01e-04	0	43	0	736100352	22	4182
2026-01-15 07:57:02.93	6.48	12.52	-30.6	-32.3	12.1	1.65e-04	0	44	0	738197504	22	4374
2026-01-15 07:57:03.93	6.31	12.47	-30.8	-32.9	11.6	4.25e-04	0	43	0	740294656	22	4564
2026-01-15 07:57:04.94	6.14	12.42	-31.1	-33.9	10.9	1.72e-03	0	43	0	742391808	22	4970
2026-01-15 07:57:05.94	5.97	12.37	-31.5	-35.2	9.9	4.69e-03	0	43	0	744488960	22	5514
2026-01-15 07:57:06.94	5.80	12.32	-31.7	-35.4	9.4	8.40e-03	0	43	0	745537536	23	5515
2026-01-15 07:57:07.94	5.63	12.28	-31.9	-36.3	8.7	2.81e-02	0	43	0	747634688	23	5962
2026-01-15 07:57:08.95	5.47	12.23	-31.9	-36.2	8.7	4.12e-02	0	43	0	749731840	23	5940
2026-01-15 07:57:09.95	5.30	12.18	-31.9	-35.7	8.7	4.42e-02	0	43	0	751828992	24	5586
2026-01-15 07:57:10.95	5.14	12.13	-31.8	-35.5	8.9	2.98e-02	0	43	0	753926144	24	5481
2026-01-15 07:57:11.95	4.97	12.08	-31.8	-35.4	8.9	2.66e-02	0	43	0	754974720	24	5457
2026-01-15 07:57:12.95	4.81	12.03	-31.5	-34.4	9.7	1.63e-02	0	43	0	757071872	24	4983
2026-01-15 07:57:13.95	4.64	11.98	-31.5	-34.2	9.9	1.01e-02	0	43	0	759169024	24	4914
2026-01-15 07:57:14.94	4.48	11.94	-31.5	-34.3	9.8	1.19e-02	0	43	0	761266176	24	4956
2026-01-15 07:57:15.94	4.32	11.89	-31.5	-34.2	9.9	8.93e-03	0	43	0	762314752	24	4895
2026-01-15 07:57:16.95	4.16	11.84	-31.4	-33.8	10.2	5.53e-03	0	43	0	764411904	24	4748
2026-01-15 07:57:17.94	4.00	11.79	-31.3	-34.0	10.4	4.11e-03	0	43	0	766509056	23	4927
2026-01-15 07:57:18.94	3.84	11.74	-31.2	-33.8	10.6	3.81e-03	0	43	0	768606208	23	4831
2026-01-15 07:57:19.94	3.68	11.69	-31.1	-33.4	10.8	3.13e-03	0	43	0	770703360	23	4691
2026-01-15 07:57:20.94	3.52	11.64	-31.3	-33.8	10.6	2.99e-03	0	43	0	771751936	23	4835
2026-01-15 07:57:21.95	3.36	11.59	-31.0	-33.0	11.1	1.92e-03	0	43	0	773849088	23	4531
2026-01-15 07:57:22.95	3.20	11.54	-30.9	-32.5	11.4	8.19e-04	0	43	0	775946240	23	4361
2026-01-15 07:57:23.95	3.04	11.49	-30.8	-32.8	11.6	6.48e-04	0	43	0	778043392	22	4527
2026-01-15 07:57:24.96	2.88	11.44	-30.9	-33.1	11.4	7.54e-04	0	44	0	780140544	22	4640
2026-01-15 07:57:25.96	2.72	11.39	-31.0	-33.6	11.1	1.32e-03	0	43	0	781189120	22	4818
2026-01-15 07:57:26.97	2.57	11.34	-31.1	-33.9	10.8	2.00e-03	0	43	0	783286272	22	4958
2026-01-15 07:57:27.96	2.41	11.29	-31.2	-34.1	10.7	2.75e-03	0	43	0	785383424	22	5026
2026-01-15 07:57:28.97	2.26	11.24	-31.1	-33.9	10.8	2.46e-03	0	43	0	787480576	22	4976
2026-01-15 07:57:29.97	2.10	11.18	-31.1	-33.9	10.8	2.98e-03	0	43	0	789577728	22	4949
2026-01-15 07:57:30.97	1.95	11.13	-31.1	-33.8	10.9	2.66e-03	0	43	0	790626304	22	4919
2026-01-15 07:57:31.97	1.79	11.08	-31.2	-34.0	10.8	2.14e-03	0	43	0	792723456	22	4991
2026-01-15 07:57:32.98	1.64	11.03	-31.2	-34.2	10.7	2.69e-03	0	43	0	794820608	22	5058
2026-01-15 07:57:33.98	1.49	10.98	-31.1	-33.7	11.0	3.31e-03	0	44	0	796917760	22	4861
2026-01-15 07:57:34.98	1.33	10.93	-30.8	-32.9	11.5	9.19e-04	0	44	0	799014912	22	4598
2026-01-15 07:57:35.98	1.18	10.88	-30.7	-32.6	11.7	6.26e-04	0	43	0	800063488	22	4467
2026-01-15 07:57:36.97	1.03	10.83	-30.7	-32.6	11.8	5.39e-04	0	43	0	802160640	22	4473
2026-01-15 07:57:37.98	0.88	10.78	-30.7	-32.5	11.8	4.89e-04	0	43	0	804257792	22	4452
2026-01-15 07:57:38.98	0.73	10.72	-30.7	-32.5	11.8	4.01e-04	0	43	0	806354944	22	4429
2026-01-15 07:57:39.99	0.58	10.67	-30.6	-32.4	11.8	3.63e-04	0	44	0	807403520	22	4423
2026-01-15 07:57:40.99	0.43	10.62	-30.7	-32.6	11.7	5.08e-04	0	44	0	809500672	22	4470
2026-01-15 07:57:42.00	0.28	10.57	-30.8	-32.8	11.5	6.21e-04	0	43	0	811597824	22	4566
2026-01-15 07:57:43.00	0.14	10.52	-30.8	-32.9	11.4	7.06e-04	0	43	0	813694976	22	4601
2026-01-15 07:57:44.00	359.99	10.46	-31.0	-33.6	11.0	1.31e-03	0	43	0	815792128	22	4839
2026-01-15 07:57:45.01	359.84	10.41	-31.0	-33.5	11.1	1.46e-03	0	43	0	816840704	22	4791
2026-01-15 07:57:46.01	359.70	10.36	-31.1	-33.9	10.8	1.89e-03	0	43	0	818937856	22	4949
2026-01-15 07:57:47.01	359.55	10.31	-31.1	-33.9	10.7	3.04e-03	0	43	0	821035008	22	4976
2026-01-15 07:57:48.01	359.41	10.25	-31.1	-33.7	10.9	2.49e-03	0	43	0	823132160	22	4894
2026-01-15 07:57:49.01	359.26	10.20	-31.0	-33.6	11.0	1.89e-03	0	43	0	825229312	22	4839
2026-01-15 07:57:50.01	359.12	10.15	-31.1	-33.9	10.8	2.38e-03	0	43	0	826277888	22	4968
2026-01-15 07:57:51.01	358.97	10.10	-31.0	-33.4	11.2	1.96e-03	0	43	0	828375040	22	4769
2026-01-15 07:57:52.02	358.83	10.04	-30.9	-33.0	11.3	1.25e-03	0	43	0	830472192	22	4635
2026-01-15 07:57:53.03	358.69	9.99	-30.8	-32.9	11.5	9.89e-04	0	43	0	832569344	22	4583
2026-01-15 07:57:54.03	358.54	9.94	-30.8	-33.0	11.4	8.38e-04	0	44	0	834666496	22	4627
2026-01-15 07:57:55.03	358.40	9.89	-30.7	-32.6	11.7	7.59e-04	0	43	0	835715072	22	4467
2026-01-15 07:57:56.03	358.26	9.83	-30.8	-32.9	11.5	7.93e-04	0	44	0	837812224	22	4595
2026-01-15 07:57:57.04	358.12	9.78	-30.6	-32.3	11.9	5.15e-04	0	43	0	839909376	22	4386
2026-01-15 07:57:58.04	357.98	9.73	-30.4	-31.7	12.3	2.53e-04	0	43	0	842006528	22	4178
2026-01-15 07:57:59.04	357.84	9.67	-30.2	-31.7	12.6	1.23e-04	0	43	0	844103680	21	4279
2026-01-15 07:58:00.04	357.70	9.62	-30.2	-31.6	12.7	9.15e-05	0	43	0	845152256	21	4242
2026-01-15 07:58:01.04	357.57	9.57	-30.0	-31.2	12.9	4.34e-05	0	43	0	847249408	21	4111
2026-01-15 07:58:02.05	357.43	9.52	-29.9	-30.9	13.1	3.73e-05	0	43	0	849346560	21	4016
2026-01-15 07:58:03.05	357.29	9.46	-30.0	-31.1	13.1	4.11e-05	0	43	0	851443712	21	4066
2026-01-15 07:58:04.05	357.15	9.41	-30.0	-31.0	13.1	2.89e-05	0	44	0	853540864	21	4040
2026-01-15 07:58:05.06	357.02	9.36	-30.0	-31.1	13.0	1.98e-05	0	43	0	854589440	21	4075
2026-01-15 07:58:06.05	356.88	9.30	-30.1	-31.2	12.9	4.95e-05	0	43	0	856686592	21	4132
2026-01-15 07:58:07.05	356.75	9.25	-30.1	-31.4	12.8	6.10e-05	0	44	0	858783744	21	4174
2026-01-15 07:58:08.06	356.61	9.20	-30.3	-32.0	12.4	1.03e-04	0	43	0	860880896	21	4377
2026-01-15 07:58:09.06	356.48	9.14	-30.3	-32.0	12.4	1.59e-04	0	44	0	861929472	21	4372
2026-01-15 07:58:10.06	356.34	9.09	-30.4	-32.2	12.2	1.94e-04	0	44	0	864026624	21	4441
2026-01-15 07:58:11.06	356.21	9.04	-30.5	-32.5	12.0	2.57e-04	0	44	0	866123776	21	4545
2026-01-15 07:58:12.06	356.08	8.98	-30.4	-32.3	12.1	3.01e-04	0	44	0	868220928	21	4458
2026-01-15 07:58:13.06	355.95	8.93	-30.3	-32.0	12.4	1.91e-04	0	43	0	870318080	21	4369
2026-01-15 07:58:14.06	355.81	8.88	-30.2	-31.8	12.5	1.21e-04	0	44	0	871366656	21	4318
2026-01-15 07:58:15.07	355.68	8.82	-30.4	-32.1	12.2	1.96e-04	0	44	0	873463808	21	4404
2026-01-15 07:58:16.07	355.55	8.77	-30.2	-31.5	12.6	8.69e-05	0	43	0	875560960	21	4228
2026-01-15 07:58:17.07	355.42	8.71	-30.1	-31.5	12.7	7.78e-05	0	43	0	877658112	21	4213
2026-01-15 07:58:18.08	355.29	8.66	-30.2	-31.6	12.6	1.07e-04	0	43	0	879755264	21	4243
2026-01-15 07:58:19.08	355.16	8.61	-30.2	-31.7	12.5	8.23e-05	0	43	0	880803840	21	4292
2026-01-15 07:58:20.08	355.03	8.55	-30.3	-31.9	12.4	1.17e-04	0	43	0	882900992	21	4349
2026-01-15 07:58:21.09	354.90	8.50	-30.3	-32.0	12.3	1.56e-04	0	43	0	884998144	21	4380
2026-01-15 07:58:22.09	354.78	8.44	-30.4	-32.4	12.0	1.85e-04	0	43	0	887095296	21	4528
2026-01-15 07:58:23.09	354.65	8.39	-30.6	-32.8	11.7	4.22e-04	0	44	0	889192448	21	4669
2026-01-15 07:58:24.09	354.52	8.34	-30.5	-32.6	11.9	6.06e-04	0	43	0	890241024	21	4570
2026-01-15 07:58:25.10	354.40	8.28	-30.5	-32.5	11.9	3.10e-04	0	43	0	892338176	21	4548
2026-01-15 07:58:26.10	354.27	8.23	-30.5	-32.8	11.7	4.36e-04	0	44	0	894435328	21	4647
2026-01-15 07:58:27.11	354.14	8.18	-30.5	-32.7	11.7	6.01e-04	0	43	0	896532480	21	4642
2026-01-15 07:58:28.11	354.02	8.12	-30.6	-32.9	11.6	5.85e-04	0	43	0	898629632	21	4712
2026-01-15 07:58:29.12	353.89	8.07	-30.7	-33.4	11.2	1.28e-03	0	43	0	899678208	21	4879
2026-01-15 07:58:30.13	353.77	8.01	-30.7	-33.2	11.4	9.45e-04	0	43	0	901775360	21	4817
2026-01-15 07:58:31.13	353.64	7.96	-30.6	-33.0	11.5	8.65e-04	0	43	0	903872512	21	4726
2026-01-15 07:58:32.14	353.52	7.90	-30.7	-33.2	11.4	9.12e-04	0	43	0	905969664	21	4796
2026-01-15 07:58:33.14	353.40	7.85	-30.8	-33.6	11.1	1.51e-03	0	43	0	907018240	21	4958
2026-01-15 07:58:34.15	353.28	7.80	-30.7	-33.3	11.2	1.48e-03	0	43	0	909115392	21	4868
2026-01-15 07:58:35.15	353.15	7.74	-30.9	-33.8	10.9	1.36e-03	0	44	0	911212544	21	5046
2026-01-15 07:58:36.16	353.03	7.69	-30.9	-34.1	10.7	3.22e-03	0	43	0	913309696	21	5172
2026-01-15 07:58:37.16	352.91	7.63	-30.8	-33.6	11.0	2.41e-03	0	43	0	915406848	21	4997
2026-01-15 07:58:38.16	352.79	7.58	-30.7	-33.3	11.3	1.75e-03	0	43	0	917504000	21	4847
2026-01-15 07:58:39.16	352.67	7.53	-30.6	-32.9	11.5	9.16e-04	0	43	0	918552576	21	4705
2026-01-15 07:58:40.16	352.55	7.47	-30.6	-32.9	11.5	7.72e-04	0	43	0	920649728	21	4714
2026-01-15 07:58:41.16	352.43	7.42	-30.6	-32.8	11.6	7.41e-04	0	43	0	922746880	21	4679
2026-01-15 07:58:42.16	352.32	7.36	-30.5	-32.6	11.8	5.61e-04	0	43	0	924844032	21	4602
2026-01-15 07:58:43.17	352.20	7.31	-30.3	-32.1	12.1	3.25e-04	0	43	0	925892608	21	4426
2026-01-15 07:58:44.17	352.08	7.26	-30.2	-31.9	12.2	1.98e-04	0	43	0	927989760	21	4365
2026-01-15 07:58:45.16	351.96	7.20	-30.3	-32.1	12.0	1.93e-04	0	43	0	930086912	21	4439
2026-01-15 07:58:46.17	351.85	7.15	-30.3	-32.1	12.1	2.27e-04	0	43	0	932184064	21	4415
2026-01-15 07:58:47.17	351.73	7.09	-30.4	-32.5	11.9	4.80e-04	0	44	0	934281216	21	4548
2026-01-15 07:58:48.17	351.62	7.04	-33.5	-46.2	3.8	1.49e+00	0	43	104	934281216	26	15539

#Closed at: 2026-01-15 07:58:49
#Recorded file [934 MB]: D:/data/31010_260115_105028.dat