passes_logs/2026/01/15/R2M6_AANII_01/R2M6_AANII_01__20260115_025553_SUOMI_NPP_rec.log

#Pass ID: 20260115_025553_SUOMI NPP
#Satellite: SUOMI NPP
#Configuration: NPP
#almurnet v.1.7.20240730
#Start time: 2026-01-15 02:55:53

#Version: 2.2.20231116
#Station: R2M6_AANII_01
#Location: 30.233357 lon 59.946436 lat
#TLE: 1 37849U 11061A   26014.11719687  .00000048  00000+0  43625-4 0  9998
#TLE: 2 37849  98.7809 316.1734 0002474  65.2440 294.8994 14.19525043736585

#Time	Az	El	Level	Level2	SNR	BER	BlckErr	Temp	State	Recorded	gain1	gain2
2026-01-15 02:55:53.88	8.58	7.04	-32.9	-41.9	3.9	1.48e+00	0	41	0	0	26	10081
2026-01-15 02:55:54.88	8.46	7.10	-32.7	-40.3	4.2	1.42e+00	0	41	104	0	25	8683
2026-01-15 02:55:55.88	8.35	7.15	-32.7	-40.3	4.9	7.35e-01	0	41	0	0	25	8626
2026-01-15 02:55:56.88	8.24	7.21	-32.8	-40.6	4.8	7.48e-01	0	41	0	1048576	25	8878
2026-01-15 02:55:57.88	8.12	7.26	-32.8	-40.5	4.8	7.62e-01	0	41	0	3145728	25	8743
2026-01-15 02:55:58.88	8.01	7.32	-32.7	-40.3	4.9	7.32e-01	0	41	0	5242880	25	8570
2026-01-15 02:55:59.88	7.89	7.37	-32.8	-40.3	4.9	7.24e-01	0	41	0	7340032	25	8633
2026-01-15 02:56:00.89	7.77	7.43	-32.7	-40.1	5.0	6.97e-01	0	41	0	9437184	25	8454
2026-01-15 02:56:01.89	7.66	7.48	-32.6	-39.3	5.5	5.97e-01	0	41	0	10485760	25	7732
2026-01-15 02:56:02.89	7.54	7.54	-32.5	-38.3	6.1	4.21e-01	0	41	0	12582912	25	7062
2026-01-15 02:56:03.89	7.42	7.59	-32.2	-37.4	7.1	1.78e-01	0	42	0	14680064	24	6532
2026-01-15 02:56:04.90	7.31	7.65	-32.1	-36.8	7.6	9.98e-02	0	42	0	16777216	24	6201
2026-01-15 02:56:05.90	7.19	7.70	-31.8	-36.2	8.5	5.95e-02	0	41	0	17825792	23	5916
2026-01-15 02:56:06.91	7.07	7.76	-31.6	-35.4	9.1	2.56e-02	0	42	0	19922944	23	5522
2026-01-15 02:56:07.91	6.95	7.82	-31.6	-35.2	9.3	2.29e-02	0	42	0	22020096	23	5430
2026-01-15 02:56:08.91	6.83	7.87	-31.5	-34.8	9.6	1.57e-02	0	42	0	24117248	23	5258
2026-01-15 02:56:09.91	6.71	7.93	-31.5	-34.7	9.7	1.52e-02	0	42	0	26214400	23	5233
2026-01-15 02:56:10.92	6.59	7.98	-31.6	-35.0	9.5	1.25e-02	0	42	0	27262976	23	5368
2026-01-15 02:56:11.92	6.47	8.04	-31.5	-34.8	9.6	1.35e-02	0	42	0	29360128	23	5276
2026-01-15 02:56:12.93	6.34	8.09	-31.6	-35.0	9.4	1.51e-02	0	42	0	31457280	23	5359
2026-01-15 02:56:13.93	6.22	8.15	-31.4	-34.7	9.7	1.20e-02	0	42	0	33554432	23	5209
2026-01-15 02:56:14.93	6.10	8.20	-31.5	-34.7	9.7	1.28e-02	0	42	0	35651584	23	5213
2026-01-15 02:56:15.94	5.98	8.26	-31.4	-35.0	9.9	1.35e-02	0	42	0	36700160	22	5437
2026-01-15 02:56:16.94	5.85	8.31	-31.5	-35.2	9.7	9.46e-03	0	42	0	38797312	22	5522
2026-01-15 02:56:17.95	5.73	8.37	-31.5	-34.8	9.6	1.16e-02	0	42	0	40894464	23	5293
2026-01-15 02:56:18.95	5.60	8.42	-31.5	-34.9	9.6	1.48e-02	0	42	0	42991616	23	5292
2026-01-15 02:56:19.96	5.48	8.48	-31.5	-35.2	9.7	1.46e-02	0	42	0	45088768	22	5528
2026-01-15 02:56:20.97	5.35	8.54	-31.5	-34.9	9.5	1.01e-02	0	42	0	46137344	23	5328
2026-01-15 02:56:21.96	5.23	8.59	-31.5	-34.7	9.7	1.13e-02	0	42	0	48234496	23	5205
2026-01-15 02:56:22.97	5.10	8.65	-31.6	-35.0	9.6	1.50e-02	0	42	0	50331648	23	5334
2026-01-15 02:56:23.97	4.97	8.70	-31.4	-34.5	9.9	1.10e-02	0	42	0	52428800	23	5139
2026-01-15 02:56:24.96	4.85	8.76	-31.3	-34.6	10.2	6.28e-03	0	42	0	54525952	22	5250
2026-01-15 02:56:25.96	4.72	8.81	-31.3	-34.7	10.2	9.24e-03	0	42	0	55574528	22	5276
2026-01-15 02:56:26.96	4.59	8.87	-31.4	-34.7	10.2	6.97e-03	0	42	0	57671680	22	5283
2026-01-15 02:56:27.97	4.46	8.92	-31.3	-34.4	10.4	5.49e-03	0	42	0	59768832	22	5146
2026-01-15 02:56:28.97	4.33	8.98	-31.3	-34.4	10.4	4.42e-03	0	42	0	61865984	22	5162
2026-01-15 02:56:29.97	4.20	9.03	-31.3	-34.4	10.4	4.01e-03	0	42	0	62914560	22	5187
2026-01-15 02:56:30.98	4.07	9.09	-31.2	-34.3	10.5	4.15e-03	0	42	0	65011712	22	5109
2026-01-15 02:56:31.98	3.94	9.14	-31.3	-34.5	10.3	5.02e-03	0	42	0	67108864	22	5223
2026-01-15 02:56:32.99	3.81	9.20	-31.2	-34.3	10.5	4.77e-03	0	42	0	69206016	22	5128
2026-01-15 02:56:33.99	3.68	9.25	-31.2	-34.1	10.7	3.30e-03	0	42	0	71303168	22	5018
2026-01-15 02:56:35.00	3.54	9.31	-31.2	-34.2	10.6	3.01e-03	0	42	0	73400320	22	5075
2026-01-15 02:56:36.01	3.41	9.36	-31.4	-34.8	10.1	4.81e-03	0	42	0	74448896	22	5322
2026-01-15 02:56:37.01	3.28	9.42	-31.3	-34.5	10.3	8.98e-03	0	42	0	76546048	22	5203
2026-01-15 02:56:38.01	3.14	9.47	-31.4	-35.0	10.1	5.11e-03	0	42	0	78643200	22	5396
2026-01-15 02:56:39.02	3.01	9.53	-31.4	-34.7	10.2	6.47e-03	0	43	0	80740352	22	5286
2026-01-15 02:56:40.02	2.87	9.58	-31.3	-34.4	10.4	5.79e-03	0	42	0	81788928	22	5170
2026-01-15 02:56:41.03	2.73	9.64	-31.3	-34.6	10.3	4.25e-03	0	42	0	83886080	22	5244
2026-01-15 02:56:42.03	2.60	9.69	-31.4	-34.8	10.2	5.04e-03	0	42	0	85983232	22	5344
2026-01-15 02:56:43.04	2.46	9.75	-31.4	-34.8	10.2	5.87e-03	0	43	0	88080384	22	5329
2026-01-15 02:56:44.04	2.32	9.80	-31.4	-34.9	10.0	6.56e-03	0	42	0	90177536	22	5382
2026-01-15 02:56:45.05	2.19	9.86	-31.3	-34.3	10.5	5.66e-03	0	42	0	91226112	22	5120
2026-01-15 02:56:46.05	2.05	9.91	-31.2	-34.1	10.7	3.13e-03	0	43	0	93323264	22	5036
2026-01-15 02:56:47.05	1.91	9.97	-31.2	-34.1	10.7	2.86e-03	0	43	0	95420416	22	5021
2026-01-15 02:56:48.05	1.77	10.02	-31.2	-34.2	10.7	3.31e-03	0	43	0	97517568	22	5059
2026-01-15 02:56:49.05	1.63	10.07	-31.2	-34.1	10.7	3.20e-03	0	42	0	99614720	22	5027
2026-01-15 02:56:50.05	1.49	10.13	-31.3	-34.3	10.6	3.00e-03	0	42	0	100663296	22	5094
2026-01-15 02:56:51.06	1.35	10.18	-31.3	-34.5	10.5	3.23e-03	0	42	0	102760448	22	5192
2026-01-15 02:56:52.06	1.21	10.24	-31.3	-34.6	10.4	4.23e-03	0	42	0	104857600	22	5214
2026-01-15 02:56:53.06	1.07	10.29	-31.4	-34.7	10.3	4.32e-03	0	42	0	106954752	22	5271
2026-01-15 02:56:54.06	0.92	10.35	-31.4	-34.7	10.3	4.33e-03	0	43	0	109051904	22	5281
2026-01-15 02:56:55.07	0.78	10.40	-31.3	-34.5	10.5	4.13e-03	0	42	0	110100480	22	5183
2026-01-15 02:56:56.07	0.64	10.45	-31.2	-34.2	10.7	3.50e-03	0	43	0	112197632	22	5049
2026-01-15 02:56:57.07	0.49	10.51	-31.3	-34.3	10.6	3.40e-03	0	43	0	114294784	22	5098
2026-01-15 02:56:58.08	0.35	10.56	-31.3	-34.3	10.6	3.08e-03	0	43	0	116391936	22	5111
2026-01-15 02:56:59.09	0.20	10.62	-31.3	-34.4	10.6	3.00e-03	0	43	0	118489088	22	5128
2026-01-15 02:57:00.09	0.05	10.67	-31.3	-34.6	10.4	3.28e-03	0	42	0	119537664	22	5233
2026-01-15 02:57:01.09	359.91	10.73	-31.4	-34.7	10.3	8.21e-03	0	43	0	121634816	22	5263
2026-01-15 02:57:02.09	359.76	10.78	-31.4	-34.9	10.2	6.36e-03	0	43	0	123731968	22	5340
2026-01-15 02:57:03.09	359.61	10.83	-31.4	-34.8	10.2	5.68e-03	0	43	0	125829120	22	5314
2026-01-15 02:57:04.09	359.47	10.89	-31.4	-34.7	10.3	6.71e-03	0	43	0	127926272	22	5273
2026-01-15 02:57:05.09	359.32	10.94	-31.4	-34.7	10.3	5.86e-03	0	43	0	128974848	22	5288
2026-01-15 02:57:06.10	359.17	10.99	-31.4	-34.7	10.3	5.25e-03	0	43	0	131072000	22	5279
2026-01-15 02:57:07.10	359.02	11.05	-31.4	-34.6	10.4	4.59e-03	0	43	0	133169152	22	5226
2026-01-15 02:57:08.11	358.87	11.10	-31.4	-34.9	10.2	5.95e-03	0	43	0	135266304	22	5347
2026-01-15 02:57:09.11	358.72	11.15	-31.5	-35.0	10.1	6.12e-03	0	43	0	136314880	22	5385
2026-01-15 02:57:10.12	358.56	11.21	-31.5	-34.6	10.0	6.36e-03	0	43	0	138412032	23	5148
2026-01-15 02:57:11.13	358.41	11.26	-31.7	-35.3	9.6	8.49e-03	0	43	0	140509184	23	5425
2026-01-15 02:57:12.12	358.26	11.31	-31.7	-35.3	9.6	1.50e-02	0	43	0	142606336	23	5430
2026-01-15 02:57:13.12	358.11	11.37	-31.8	-35.5	9.4	1.56e-02	0	43	0	144703488	23	5536
2026-01-15 02:57:14.13	357.95	11.42	-31.8	-35.4	9.5	1.74e-02	0	43	0	145752064	23	5478
2026-01-15 02:57:15.13	357.80	11.47	-31.7	-35.3	9.6	1.51e-02	0	43	0	147849216	23	5452
2026-01-15 02:57:16.13	357.64	11.52	-31.8	-35.5	9.4	1.44e-02	0	43	0	149946368	23	5525
2026-01-15 02:57:17.13	357.49	11.58	-31.5	-34.4	10.2	8.58e-03	0	43	0	152043520	23	5035
2026-01-15 02:57:18.14	357.33	11.63	-31.4	-34.7	10.4	6.88e-03	0	43	0	154140672	22	5266
2026-01-15 02:57:19.14	357.18	11.68	-31.4	-34.6	10.5	6.58e-03	0	43	0	155189248	22	5201
2026-01-15 02:57:20.15	357.02	11.73	-31.4	-34.6	10.4	3.64e-03	0	43	0	157286400	22	5211
2026-01-15 02:57:21.15	356.86	11.79	-31.4	-34.8	10.4	4.44e-03	0	43	0	159383552	22	5298
2026-01-15 02:57:22.15	356.70	11.84	-31.4	-34.6	10.5	7.72e-03	0	43	0	161480704	22	5225
2026-01-15 02:57:23.15	356.54	11.89	-31.5	-34.9	10.3	4.96e-03	0	43	0	163577856	22	5324
2026-01-15 02:57:24.16	356.38	11.94	-31.4	-34.6	10.5	4.87e-03	0	43	0	164626432	22	5226
2026-01-15 02:57:25.16	356.22	11.99	-31.3	-34.3	10.8	5.24e-03	0	43	0	166723584	22	5086
2026-01-15 02:57:26.16	356.06	12.05	-31.3	-34.3	10.7	2.66e-03	0	43	0	168820736	22	5101
2026-01-15 02:57:27.16	355.90	12.10	-30.5	-33.6	10.7	2.32e-03	0	43	0	170917888	22	5119
2026-01-15 02:57:28.17	355.74	12.15	-31.2	-34.1	10.8	2.40e-03	0	43	0	173015040	22	5014
2026-01-15 02:57:29.17	355.58	12.20	-31.3	-34.4	10.7	3.31e-03	0	43	0	174063616	22	5121
2026-01-15 02:57:30.18	355.41	12.25	-31.3	-34.2	10.6	5.58e-03	0	43	0	176160768	22	5053
2026-01-15 02:57:31.18	355.25	12.30	-31.2	-34.2	10.7	2.96e-03	0	43	0	178257920	22	5051
2026-01-15 02:57:32.18	355.09	12.35	-31.2	-34.0	10.9	2.43e-03	0	43	0	180355072	22	4991
2026-01-15 02:57:33.18	354.92	12.40	-31.2	-34.0	10.9	3.99e-03	0	43	0	182452224	22	4979
2026-01-15 02:57:34.19	354.76	12.45	-31.2	-33.9	11.0	1.90e-03	0	43	0	183500800	22	4952
2026-01-15 02:57:35.19	354.59	12.51	-30.8	-33.4	11.6	1.01e-03	0	43	0	185597952	21	4845
2026-01-15 02:57:36.19	354.43	12.56	-30.6	-32.8	12.0	2.27e-03	0	43	0	187695104	21	4630
2026-01-15 02:57:37.19	354.26	12.61	-30.4	-32.2	12.5	1.97e-03	0	43	0	189792256	21	4426
2026-01-15 02:57:38.19	354.09	12.66	-30.5	-32.4	12.4	1.40e-04	0	43	0	191889408	21	4468
2026-01-15 02:57:39.19	353.93	12.71	-30.5	-32.5	12.4	1.98e-03	0	43	0	192937984	21	4517
2026-01-15 02:57:40.19	353.76	12.76	-30.7	-32.9	12.0	1.98e-03	0	43	0	195035136	21	4658
2026-01-15 02:57:41.19	353.59	12.81	-30.7	-33.0	12.0	5.58e-04	0	43	0	197132288	21	4682
2026-01-15 02:57:42.20	353.42	12.86	-30.6	-32.8	12.1	2.19e-03	0	43	0	199229440	21	4624
2026-01-15 02:57:43.20	353.25	12.90	-30.6	-32.6	12.3	1.78e-03	0	43	0	200278016	21	4546
2026-01-15 02:57:44.21	353.07	12.95	-30.6	-32.7	12.2	4.49e-04	0	43	0	202375168	21	4574
2026-01-15 02:57:45.21	352.90	13.00	-30.4	-32.8	12.5	1.91e-03	0	43	0	204472320	20	4707
2026-01-15 02:57:46.21	352.73	13.05	-30.5	-32.4	12.4	1.83e-03	0	43	0	206569472	21	4485
2026-01-15 02:57:47.21	352.56	13.10	-30.6	-32.6	12.3	3.37e-04	0	43	0	208666624	21	4546
2026-01-15 02:57:48.21	352.39	13.15	-30.7	-32.9	12.1	1.66e-03	0	43	0	209715200	21	4648
2026-01-15 02:57:49.22	352.21	13.20	-30.5	-32.3	12.5	1.82e-03	0	43	0	211812352	21	4454
2026-01-15 02:57:50.22	352.04	13.25	-30.6	-32.5	12.4	2.51e-04	0	43	0	213909504	21	4522
2026-01-15 02:57:51.22	351.86	13.29	-30.6	-32.6	12.3	1.13e-03	0	43	0	216006656	21	4550
2026-01-15 02:57:52.23	351.69	13.34	-30.5	-32.5	12.4	3.62e-04	0	43	0	218103808	21	4508
2026-01-15 02:57:53.23	351.51	13.39	-30.6	-32.6	12.4	1.75e-04	0	43	0	219152384	21	4526
2026-01-15 02:57:54.23	351.33	13.44	-30.6	-32.6	12.3	1.21e-03	0	43	0	221249536	21	4549
2026-01-15 02:57:55.24	351.16	13.49	-30.5	-32.7	12.6	2.90e-04	0	43	0	223346688	20	4685
2026-01-15 02:57:56.24	350.98	13.53	-30.6	-32.7	12.2	1.62e-04	0	43	0	225443840	21	4593
2026-01-15 02:57:57.25	350.80	13.58	-30.8	-33.4	11.8	2.12e-03	0	43	0	227540992	21	4825
2026-01-15 02:57:58.25	350.62	13.63	-30.8	-33.3	11.7	2.13e-03	0	43	0	228589568	21	4811
2026-01-15 02:57:59.25	350.44	13.67	-30.9	-33.5	11.7	4.94e-04	0	43	0	230686720	21	4859
2026-01-15 02:58:00.25	350.26	13.72	-30.9	-33.7	11.5	2.97e-03	0	43	0	232783872	21	4944
2026-01-15 02:58:01.25	350.08	13.77	-30.9	-33.5	11.7	2.58e-03	0	43	0	234881024	21	4866
2026-01-15 02:58:02.26	349.90	13.81	-30.9	-33.6	11.7	5.85e-04	0	43	0	236978176	21	4898
2026-01-15 02:58:03.26	349.72	13.86	-30.9	-33.4	11.8	8.54e-04	0	43	0	238026752	21	4851
2026-01-15 02:58:04.27	349.53	13.90	-30.7	-33.0	12.0	2.59e-03	0	43	0	240123904	21	4688
2026-01-15 02:58:05.28	349.35	13.95	-30.6	-32.6	12.4	4.14e-04	0	43	0	242221056	21	4535
2026-01-15 02:58:06.27	349.17	13.99	-30.4	-32.6	12.6	2.30e-04	0	43	0	244318208	20	4639
2026-01-15 02:58:07.27	348.98	14.04	-30.3	-32.4	12.8	2.16e-03	0	43	0	245366784	20	4562
2026-01-15 02:58:08.28	348.80	14.08	-30.3	-32.4	12.8	1.64e-04	0	43	0	247463936	20	4562
2026-01-15 02:58:09.29	348.61	14.13	-30.2	-31.9	13.2	1.92e-04	0	43	0	249561088	20	4398
2026-01-15 02:58:10.29	348.42	14.17	-29.8	-31.0	13.7	1.56e-04	0	43	0	251658240	20	4117
2026-01-15 02:58:11.29	348.24	14.22	-29.7	-30.7	13.9	2.74e-05	0	43	0	253755392	20	4029
2026-01-15 02:58:12.30	348.05	14.26	-29.8	-31.3	13.9	1.59e-04	0	43	0	254803968	19	4287
2026-01-15 02:58:13.30	347.86	14.31	-29.7	-31.0	14.1	1.81e-04	0	43	0	256901120	19	4196
2026-01-15 02:58:14.31	347.67	14.35	-29.8	-31.3	13.9	1.50e-06	0	43	0	258998272	19	4300
2026-01-15 02:58:15.31	347.48	14.39	-30.0	-31.8	13.6	9.00e-04	0	43	0	261095424	19	4446
2026-01-15 02:58:16.32	347.29	14.44	-30.0	-31.5	13.5	1.50e-04	0	43	0	263192576	20	4261
2026-01-15 02:58:17.32	347.10	14.48	-30.3	-32.1	13.1	2.67e-05	0	43	0	264241152	20	4468
2026-01-15 02:58:18.33	346.91	14.52	-30.4	-32.4	12.9	7.00e-04	0	43	0	266338304	20	4570
2026-01-15 02:58:19.34	346.72	14.56	-30.4	-32.4	12.8	1.68e-04	0	43	0	268435456	20	4567
2026-01-15 02:58:20.34	346.53	14.61	-30.3	-32.2	13.0	3.50e-05	0	43	0	270532608	20	4479
2026-01-15 02:58:21.35	346.33	14.65	-30.2	-32.1	13.0	1.62e-04	0	43	0	272629760	20	4452
2026-01-15 02:58:22.35	346.14	14.69	-30.3	-32.2	13.0	2.89e-05	0	43	0	273678336	20	4493
2026-01-15 02:58:23.35	345.95	14.73	-30.3	-32.3	13.0	4.57e-05	0	43	0	275775488	20	4519
2026-01-15 02:58:24.35	345.76	14.77	-30.3	-32.2	13.0	1.95e-04	0	43	0	277872640	20	4486
2026-01-15 02:58:25.36	345.56	14.81	-30.3	-32.3	13.0	2.13e-03	0	43	0	279969792	20	4521
2026-01-15 02:58:26.36	345.37	14.85	-30.4	-32.1	12.8	7.32e-05	0	43	0	282066944	21	4351
2026-01-15 02:58:27.37	345.17	14.89	-30.2	-31.9	13.2	1.91e-04	0	43	0	283115520	20	4405
2026-01-15 02:58:28.38	344.97	14.94	-30.2	-31.9	13.2	1.46e-04	0	43	0	285212672	20	4375
2026-01-15 02:58:29.38	344.78	14.97	-30.3	-32.1	13.1	2.28e-05	0	43	0	287309824	20	4462
2026-01-15 02:58:30.39	344.58	15.01	-30.3	-32.3	13.0	1.99e-04	0	43	0	289406976	20	4509
2026-01-15 02:58:31.39	344.38	15.05	-30.4	-32.5	12.7	2.41e-04	0	43	0	291504128	20	4597
2026-01-15 02:58:32.39	344.18	15.09	-30.5	-32.7	12.7	5.64e-05	0	43	0	292552704	20	4657
2026-01-15 02:58:33.40	343.98	15.13	-30.5	-32.4	12.6	9.00e-05	0	44	0	294649856	21	4451
2026-01-15 02:58:34.39	343.79	15.17	-30.5	-32.3	12.6	2.72e-04	0	43	0	296747008	21	4429
2026-01-15 02:58:35.40	343.59	15.21	-30.5	-32.4	12.6	8.92e-05	0	43	0	298844160	21	4452
2026-01-15 02:58:36.40	343.39	15.25	-30.5	-32.3	12.7	7.32e-05	0	43	0	300941312	21	4417
2026-01-15 02:58:37.39	343.19	15.28	-30.3	-31.6	13.2	1.78e-04	0	43	0	301989888	21	4185
2026-01-15 02:58:38.39	342.99	15.32	-30.0	-30.9	13.6	1.83e-05	0	43	0	304087040	21	4000
2026-01-15 02:58:39.39	342.79	15.36	-30.0	-31.3	13.7	5.30e-06	0	43	0	306184192	20	4197
2026-01-15 02:58:40.40	342.58	15.39	-30.0	-31.4	13.6	7.60e-06	0	43	0	308281344	20	4216
2026-01-15 02:58:41.40	342.38	15.43	-30.2	-31.8	13.3	1.22e-05	0	43	0	310378496	20	4349
2026-01-15 02:58:42.40	342.18	15.46	-30.4	-32.6	12.8	8.31e-05	0	43	0	311427072	20	4617
2026-01-15 02:58:43.41	341.97	15.50	-30.4	-32.4	12.9	4.73e-05	0	43	0	313524224	20	4541
2026-01-15 02:58:44.41	341.77	15.54	-30.2	-31.9	13.2	2.28e-05	0	43	0	315621376	20	4408
2026-01-15 02:58:45.41	341.56	15.57	-29.2	-31.0	13.0	1.54e-04	0	43	0	317718528	20	4379
2026-01-15 02:58:46.41	341.36	15.61	-30.0	-31.4	13.5	1.22e-05	0	43	0	318767104	20	4219
2026-01-15 02:58:47.42	341.15	15.64	-30.0	-31.3	12.2	6.10e-06	0	43	0	320864256	20	4184
2026-01-15 02:58:48.42	340.95	15.67	-30.0	-31.4	12.4	1.46e-04	0	43	0	322961408	20	4230
2026-01-15 02:58:49.43	340.74	15.71	-29.9	-31.2	13.7	1.22e-04	0	43	0	325058560	20	4153
2026-01-15 02:58:50.43	340.53	15.74	-30.0	-31.4	13.5	6.80e-06	0	44	0	327155712	20	4224
2026-01-15 02:58:51.43	340.32	15.77	-30.1	-31.6	13.4	8.30e-06	0	43	0	328204288	20	4288
2026-01-15 02:58:52.44	340.12	15.81	-30.1	-31.6	13.5	3.20e-05	0	43	0	330301440	20	4292
2026-01-15 02:58:53.44	339.91	15.84	-30.0	-31.4	13.6	2.62e-03	0	43	0	332398592	20	4230
2026-01-15 02:58:54.44	339.70	15.87	-30.0	-31.4	13.6	9.10e-06	0	44	0	334495744	20	4237
2026-01-15 02:58:55.45	339.49	15.90	-29.8	-31.0	13.8	3.80e-06	0	43	0	336592896	20	4093
2026-01-15 02:58:56.45	339.28	15.93	-29.7	-31.0	14.2	2.45e-03	0	43	0	337641472	19	4178
2026-01-15 02:58:57.46	339.07	15.97	-29.6	-30.7	14.4	7.00e-07	0	43	0	339738624	19	4099
2026-01-15 02:58:58.46	338.86	16.00	-29.6	-30.9	14.3	7.00e-07	0	43	0	341835776	19	4146
2026-01-15 02:58:59.47	338.64	16.03	-29.7	-31.0	14.3	1.50e-06	0	43	0	343932928	19	4168
2026-01-15 02:59:00.47	338.43	16.06	-29.8	-31.3	14.1	2.46e-03	0	44	0	346030080	19	4277
2026-01-15 02:59:01.47	338.22	16.09	-29.7	-31.1	14.2	1.50e-06	0	43	0	347078656	19	4216
2026-01-15 02:59:02.47	338.01	16.11	-29.7	-30.9	14.3	7.00e-07	0	44	0	349175808	19	4163
2026-01-15 02:59:03.48	337.80	16.14	-29.7	-31.0	14.3	2.37e-03	0	43	0	351272960	19	4172
2026-01-15 02:59:04.49	337.58	16.17	-29.6	-30.8	14.4	1.30e-04	0	44	0	353370112	19	4125
2026-01-15 02:59:05.49	337.37	16.20	-29.6	-30.8	14.4	7.00e-07	0	43	0	355467264	19	4118
2026-01-15 02:59:06.50	337.15	16.23	-29.7	-31.0	14.4	2.11e-03	0	44	0	356515840	19	4167
2026-01-15 02:59:07.50	336.94	16.26	-29.9	-31.4	14.0	4.65e-05	0	44	0	358612992	19	4313
2026-01-15 02:59:08.51	336.72	16.28	-30.0	-31.2	13.7	3.80e-06	0	44	0	360710144	20	4157
2026-01-15 02:59:09.51	336.51	16.31	-30.2	-31.8	13.4	8.30e-06	0	43	0	362807296	20	4342
2026-01-15 02:59:10.51	336.29	16.34	-30.3	-32.1	13.2	3.50e-05	0	44	0	364904448	20	4433
2026-01-15 02:59:11.51	336.08	16.36	-30.1	-31.6	13.5	2.52e-03	0	43	0	365953024	20	4272
2026-01-15 02:59:12.52	335.86	16.39	-30.0	-31.2	13.7	8.30e-06	0	43	0	368050176	20	4164
2026-01-15 02:59:13.53	335.64	16.41	-30.0	-31.4	13.7	5.30e-06	0	43	0	370147328	20	4226
2026-01-15 02:59:14.53	335.42	16.44	-30.1	-31.6	13.1	2.39e-03	0	43	0	372244480	20	4272
2026-01-15 02:59:15.54	335.20	16.46	-30.1	-31.5	13.1	4.50e-05	0	43	0	374341632	20	4248
2026-01-15 02:59:16.55	334.98	16.48	-30.2	-31.8	13.3	1.37e-05	0	43	0	375390208	20	4350
2026-01-15 02:59:17.55	334.77	16.51	-30.3	-32.0	13.2	2.29e-03	0	43	0	377487360	20	4422
2026-01-15 02:59:18.54	334.55	16.53	-30.4	-32.4	13.0	2.55e-03	0	43	0	379584512	20	4529
2026-01-15 02:59:19.55	334.33	16.55	-30.5	-32.3	12.7	5.11e-05	0	44	0	381681664	21	4409
2026-01-15 02:59:20.56	334.11	16.58	-30.3	-32.3	13.1	2.64e-03	0	44	0	383778816	20	4488
2026-01-15 02:59:21.56	333.89	16.60	-30.3	-32.2	13.1	2.43e-03	0	43	0	384827392	20	4477
2026-01-15 02:59:22.56	333.67	16.62	-30.3	-32.1	13.2	2.59e-05	0	43	0	386924544	20	4432
2026-01-15 02:59:23.56	333.45	16.64	-30.3	-32.1	13.2	2.63e-03	0	43	0	389021696	20	4437
2026-01-15 02:59:24.56	333.23	16.66	-30.3	-32.0	13.2	2.23e-03	0	43	0	391118848	20	4418
2026-01-15 02:59:25.56	333.01	16.68	-30.2	-31.8	13.4	1.60e-05	0	44	0	392167424	20	4340
2026-01-15 02:59:26.57	332.79	16.70	-30.1	-31.6	13.5	9.10e-06	0	43	0	394264576	20	4283
2026-01-15 02:59:27.57	332.57	16.72	-30.1	-31.5	13.6	2.50e-03	0	43	0	396361728	20	4250
2026-01-15 02:59:28.58	332.34	16.74	-30.0	-31.3	13.7	8.30e-06	0	43	0	398458880	20	4193
2026-01-15 02:59:29.59	332.12	16.76	-30.1	-31.6	13.5	2.45e-03	0	43	0	400556032	20	4274
2026-01-15 02:59:30.59	331.90	16.78	-30.1	-31.6	13.5	2.48e-03	0	43	0	402653184	20	4275
2026-01-15 02:59:31.59	331.68	16.79	-29.9	-31.1	13.8	5.30e-06	0	43	0	403701760	20	4133
2026-01-15 02:59:32.60	331.45	16.81	-30.0	-31.7	13.9	2.32e-03	0	44	0	405798912	19	4404
2026-01-15 02:59:33.60	331.23	16.83	-30.0	-31.2	13.7	3.94e-04	0	43	0	407896064	20	4162
2026-01-15 02:59:34.60	331.01	16.84	-29.9	-31.0	13.9	6.10e-06	0	44	0	409993216	20	4102
2026-01-15 02:59:35.61	330.78	16.86	-29.7	-31.1	14.1	2.12e-03	0	43	0	411041792	19	4212
2026-01-15 02:59:36.60	330.56	16.87	-29.7	-31.1	14.2	2.41e-03	0	44	0	413138944	19	4208
2026-01-15 02:59:37.61	330.34	16.89	-29.9	-31.4	14.0	3.80e-06	0	43	0	415236096	19	4316
2026-01-15 02:59:38.61	330.11	16.90	-29.8	-31.0	13.9	2.43e-03	0	43	0	417333248	20	4093
2026-01-15 02:59:39.61	329.89	16.92	-30.0	-31.5	13.5	2.45e-03	0	43	0	419430400	20	4261
2026-01-15 02:59:40.61	329.66	16.93	-30.1	-31.7	13.4	1.06e-05	0	43	0	420478976	20	4317
2026-01-15 02:59:41.62	329.44	16.94	-30.2	-31.9	13.2	2.62e-03	0	43	0	422576128	20	4387
2026-01-15 02:59:42.62	329.21	16.96	-30.2	-31.9	13.2	2.24e-03	0	43	0	424673280	20	4396
2026-01-15 02:59:43.62	328.99	16.97	-30.4	-32.5	12.9	3.35e-05	0	44	0	426770432	20	4573
2026-01-15 02:59:44.63	328.76	16.98	-30.4	-32.5	12.9	5.09e-04	0	44	0	428867584	20	4591
2026-01-15 02:59:45.63	328.54	16.99	-30.4	-32.4	12.9	2.62e-03	0	44	0	429916160	20	4566
2026-01-15 02:59:46.63	328.31	17.00	-30.5	-32.4	12.6	5.72e-05	0	43	0	432013312	21	4471
2026-01-15 02:59:47.64	328.08	17.01	-30.7	-32.9	12.2	5.64e-04	0	43	0	434110464	21	4643
2026-01-15 02:59:48.64	327.86	17.02	-30.8	-33.3	12.0	2.93e-03	0	44	0	436207616	21	4774
2026-01-15 02:59:49.64	327.63	17.03	-30.9	-33.5	11.8	4.49e-04	0	44	0	438304768	21	4859
2026-01-15 02:59:50.64	327.41	17.04	-30.9	-33.5	11.8	5.71e-04	0	43	0	439353344	21	4863
2026-01-15 02:59:51.64	327.18	17.05	-30.8	-33.2	12.0	5.21e-04	0	44	0	441450496	21	4743
2026-01-15 02:59:52.64	326.95	17.06	-30.9	-33.4	11.8	5.50e-04	0	43	0	443547648	21	4830
2026-01-15 02:59:53.64	326.73	17.07	-30.8	-33.3	11.9	7.31e-04	0	44	0	445644800	21	4782
2026-01-15 02:59:54.65	326.50	17.08	-30.7	-32.8	12.3	5.54e-04	0	43	0	447741952	21	4617
2026-01-15 02:59:55.65	326.27	17.08	-30.5	-32.3	12.6	1.30e-04	0	44	0	448790528	21	4450
2026-01-15 02:59:56.66	326.04	17.09	-30.4	-32.5	12.8	2.69e-03	0	43	0	450887680	20	4600
2026-01-15 02:59:57.66	325.82	17.10	-30.3	-32.4	12.9	3.49e-04	0	43	0	452984832	20	4551
2026-01-15 02:59:58.67	325.59	17.10	-30.4	-32.4	12.9	4.88e-05	0	43	0	455081984	20	4568
2026-01-15 02:59:59.67	325.36	17.11	-30.5	-32.2	12.7	2.74e-03	0	44	0	456130560	21	4412
2026-01-15 03:00:00.67	325.14	17.11	-30.3	-32.3	13.0	4.27e-05	0	44	0	458227712	20	4535
2026-01-15 03:00:01.67	324.91	17.11	-30.3	-32.4	12.9	3.20e-05	0	44	0	460324864	20	4554
2026-01-15 03:00:02.67	324.68	17.12	-30.3	-32.3	13.0	4.88e-05	0	43	0	462422016	20	4534
2026-01-15 03:00:03.67	324.45	17.12	-30.2	-32.0	13.0	2.47e-03	0	44	0	464519168	20	4434
2026-01-15 03:00:04.68	324.22	17.12	-30.2	-32.0	13.2	3.05e-05	0	44	0	465567744	20	4423
2026-01-15 03:00:05.68	324.00	17.13	-30.1	-31.6	13.5	2.50e-04	0	43	0	467664896	20	4279
2026-01-15 03:00:06.68	323.77	17.13	-29.9	-31.1	13.8	1.48e-03	0	43	0	469762048	20	4128
2026-01-15 03:00:07.68	323.54	17.13	-29.8	-30.8	14.0	3.00e-06	0	44	0	471859200	20	4043
2026-01-15 03:00:08.69	323.31	17.13	-29.9	-31.1	13.8	4.00e-04	0	43	0	473956352	20	4149
2026-01-15 03:00:09.68	323.09	17.13	-30.0	-31.4	13.6	4.14e-04	0	44	0	475004928	20	4241
2026-01-15 03:00:10.69	322.86	17.13	-30.2	-31.8	13.3	1.29e-05	0	44	0	477102080	20	4366
2026-01-15 03:00:11.70	322.63	17.13	-30.4	-32.4	13.0	2.96e-04	0	44	0	479199232	20	4532
2026-01-15 03:00:12.70	322.40	17.13	-30.6	-32.7	12.4	2.44e-04	0	44	0	481296384	21	4550
2026-01-15 03:00:13.70	322.18	17.13	-30.7	-32.8	12.4	1.77e-04	0	44	0	483393536	21	4594
2026-01-15 03:00:14.71	321.95	17.13	-30.7	-32.8	12.3	1.48e-04	0	44	0	484442112	21	4576
2026-01-15 03:00:15.71	321.72	17.12	-30.6	-32.5	12.5	1.57e-04	0	44	0	486539264	21	4479
2026-01-15 03:00:16.71	321.49	17.12	-30.6	-32.7	12.4	9.38e-05	0	44	0	488636416	21	4568
2026-01-15 03:00:17.71	321.26	17.12	-30.4	-32.1	12.7	9.68e-05	0	44	0	490733568	21	4359
2026-01-15 03:00:18.72	321.03	17.11	-30.2	-32.0	13.2	3.28e-05	0	43	0	492830720	20	4427
2026-01-15 03:00:19.72	320.81	17.11	-30.0	-31.5	13.5	1.90e-05	0	44	0	493879296	20	4259
2026-01-15 03:00:20.72	320.58	17.11	-29.8	-30.9	13.9	4.34e-05	0	44	0	495976448	20	4085
2026-01-15 03:00:21.72	320.35	17.10	-29.9	-31.6	13.9	3.80e-06	0	44	0	498073600	19	4369
2026-01-15 03:00:22.72	320.13	17.09	-29.9	-31.5	13.9	3.80e-06	0	44	0	500170752	19	4346
2026-01-15 03:00:23.73	319.90	17.09	-30.1	-31.6	13.4	1.90e-04	0	44	0	501219328	20	4289
2026-01-15 03:00:24.73	319.67	17.08	-30.2	-31.9	13.2	2.13e-05	0	44	0	503316480	20	4383
2026-01-15 03:00:25.74	319.44	17.08	-30.3	-32.6	12.7	3.43e-05	0	44	0	505413632	20	4701
2026-01-15 03:00:26.74	319.22	17.07	-30.2	-32.2	12.0	4.72e-04	0	44	0	507510784	21	4524
2026-01-15 03:00:27.74	318.99	17.06	-30.8	-33.3	11.7	2.97e-04	0	43	0	509607936	21	4770
2026-01-15 03:00:28.75	318.76	17.05	-30.8	-33.2	11.6	4.07e-04	0	44	0	510656512	21	4764
2026-01-15 03:00:29.75	318.54	17.04	-30.9	-33.6	11.5	6.05e-04	0	44	0	512753664	21	4913
2026-01-15 03:00:30.75	318.31	17.03	-31.0	-33.2	11.7	7.15e-04	0	44	0	514850816	22	4662
2026-01-15 03:00:31.75	318.08	17.02	-30.9	-33.5	11.8	4.29e-04	0	44	0	516947968	21	4845
2026-01-15 03:00:32.76	317.86	17.01	-30.7	-33.1	12.1	3.62e-04	0	44	0	519045120	21	4702
2026-01-15 03:00:33.75	317.63	17.00	-30.6	-32.6	12.4	2.23e-04	0	43	0	520093696	21	4541
2026-01-15 03:00:34.75	317.41	16.99	-30.5	-32.5	12.5	2.45e-03	0	44	0	522190848	21	4498
2026-01-15 03:00:35.76	317.18	16.98	-30.3	-32.2	12.9	7.62e-05	0	43	0	524288000	20	4488
2026-01-15 03:00:36.76	316.96	16.97	-30.1	-31.9	13.2	2.97e-05	0	44	0	526385152	20	4397
2026-01-15 03:00:37.77	316.73	16.96	-30.2	-31.9	13.2	2.67e-05	0	44	0	528482304	20	4400
2026-01-15 03:00:38.77	316.50	16.94	-30.3	-32.3	12.9	3.66e-05	0	44	0	529530880	20	4537
2026-01-15 03:00:39.77	316.28	16.93	-30.2	-32.0	13.2	3.66e-05	0	44	0	531628032	20	4427
2026-01-15 03:00:40.78	316.05	16.92	-30.3	-32.3	13.0	2.44e-05	0	44	0	533725184	20	4526
2026-01-15 03:00:41.78	315.83	16.90	-30.3	-32.2	13.1	2.44e-03	0	44	0	535822336	20	4476
2026-01-15 03:00:42.78	315.60	16.89	-30.2	-32.1	13.1	2.36e-05	0	44	0	537919488	20	4438
2026-01-15 03:00:43.78	315.38	16.87	-30.3	-32.3	13.0	3.58e-05	0	43	0	538968064	20	4505
2026-01-15 03:00:44.79	315.16	16.86	-30.2	-31.9	13.0	2.25e-03	0	44	0	541065216	20	4402
2026-01-15 03:00:45.79	314.93	16.84	-30.3	-32.2	13.0	4.40e-04	0	44	0	543162368	20	4486
2026-01-15 03:00:46.80	314.71	16.83	-30.3	-32.3	13.0	4.34e-05	0	44	0	545259520	20	4514
2026-01-15 03:00:47.80	314.48	16.81	-30.5	-32.2	12.7	3.20e-04	0	44	0	547356672	21	4381
2026-01-15 03:00:48.80	314.26	16.79	-30.5	-32.7	12.7	2.62e-04	0	43	0	548405248	20	4635
2026-01-15 03:00:49.81	314.04	16.77	-30.3	-32.1	13.1	4.73e-05	0	44	0	550502400	20	4457
2026-01-15 03:00:50.81	313.82	16.76	-30.0	-31.3	13.6	4.40e-04	0	43	0	552599552	20	4208
2026-01-15 03:00:51.81	313.59	16.74	-29.7	-31.1	14.1	1.65e-04	0	44	0	554696704	19	4236
2026-01-15 03:00:52.81	313.37	16.72	-29.5	-30.6	14.5	2.34e-03	0	44	0	555745280	19	4070
2026-01-15 03:00:53.82	313.15	16.70	-29.4	-30.9	14.6	7.00e-07	0	44	0	557842432	18	4243
2026-01-15 03:00:54.82	312.93	16.68	-29.4	-30.7	14.7	5.68e-04	0	44	0	559939584	18	4198
2026-01-15 03:00:55.83	312.71	16.66	-29.4	-30.9	14.6	2.22e-03	0	44	0	562036736	18	4245
2026-01-15 03:00:56.83	312.49	16.64	-29.4	-30.4	14.6	2.39e-03	0	44	0	564133888	19	4018
2026-01-15 03:00:57.83	312.27	16.62	-29.5	-30.6	14.5	0.00e+00	0	44	0	566231040	19	4063
2026-01-15 03:00:58.83	312.05	16.60	-29.5	-30.4	14.5	2.35e-03	0	44	0	567279616	19	4032
2026-01-15 03:00:59.83	311.83	16.57	-29.8	-31.2	14.1	2.20e-03	0	44	0	569376768	19	4235
2026-01-15 03:01:00.84	311.61	16.55	-29.7	-31.0	14.2	1.50e-06	0	44	0	571473920	19	4173
2026-01-15 03:01:01.84	311.39	16.53	-29.7	-31.1	14.1	2.23e-03	0	44	0	573571072	19	4224
2026-01-15 03:01:02.84	311.17	16.51	-29.9	-31.4	14.0	2.16e-03	0	44	0	574619648	19	4320
2026-01-15 03:01:03.85	310.95	16.48	-29.9	-31.1	13.7	6.02e-05	0	43	0	576716800	20	4144
2026-01-15 03:01:04.85	310.73	16.46	-30.0	-31.4	13.6	8.30e-06	0	44	0	578813952	20	4231
2026-01-15 03:01:05.85	310.51	16.43	-30.1	-31.6	13.4	2.47e-03	0	44	0	580911104	20	4301
2026-01-15 03:01:06.85	310.30	16.41	-30.3	-32.2	13.1	2.27e-04	0	44	0	583008256	20	4474
2026-01-15 03:01:07.85	310.08	16.38	-30.2	-31.8	13.3	2.37e-03	0	43	0	584056832	20	4356
2026-01-15 03:01:08.86	309.86	16.36	-30.0	-31.4	13.5	2.02e-03	0	44	0	586153984	20	4238
2026-01-15 03:01:09.86	309.65	16.33	-30.2	-31.8	13.2	1.94e-04	0	44	0	588251136	20	4374
2026-01-15 03:01:10.87	309.43	16.31	-30.2	-31.8	13.3	1.72e-03	0	44	0	590348288	20	4358
2026-01-15 03:01:11.87	309.21	16.28	-30.2	-31.9	13.2	2.82e-05	0	44	0	592445440	20	4396
2026-01-15 03:01:12.87	309.00	16.25	-30.1	-31.6	13.5	1.44e-05	0	44	0	593494016	20	4277
2026-01-15 03:01:13.87	308.79	16.23	-30.0	-31.7	13.7	2.09e-03	0	44	0	595591168	19	4421
2026-01-15 03:01:14.87	308.57	16.20	-30.0	-31.8	13.7	2.39e-03	0	44	0	597688320	19	4423
2026-01-15 03:01:15.88	308.36	16.17	-29.9	-31.2	13.7	2.20e-06	0	44	0	599785472	20	4156
2026-01-15 03:01:16.88	308.14	16.14	-30.2	-32.0	13.2	2.37e-03	0	44	0	600834048	20	4400
2026-01-15 03:01:17.88	307.93	16.11	-29.9	-31.6	13.5	2.39e-03	0	44	0	602931200	19	4377
2026-01-15 03:01:18.89	307.72	16.08	-29.9	-31.2	13.6	2.20e-06	0	44	0	605028352	20	4183
2026-01-15 03:01:19.89	307.50	16.05	-29.9	-31.2	13.6	2.32e-03	0	44	0	607125504	20	4166
2026-01-15 03:01:20.89	307.29	16.02	-29.9	-31.5	13.8	2.17e-03	0	44	0	609222656	19	4352
2026-01-15 03:01:21.89	307.08	15.99	-29.9	-31.5	13.9	1.71e-04	0	44	0	611319808	19	4349
2026-01-15 03:01:22.89	306.87	15.96	-29.8	-31.4	14.0	2.12e-03	0	44	0	612368384	19	4317
2026-01-15 03:01:23.89	306.66	15.93	-30.0	-31.3	13.6	2.37e-03	0	44	0	614465536	20	4193
2026-01-15 03:01:24.89	306.45	15.90	-29.9	-31.2	13.7	1.36e-04	0	44	0	616562688	20	4163
2026-01-15 03:01:25.90	306.24	15.87	-30.0	-31.4	13.5	2.12e-04	0	44	0	618659840	20	4244
2026-01-15 03:01:26.90	306.03	15.84	-30.1	-31.8	13.2	2.22e-03	0	44	0	619708416	20	4350
2026-01-15 03:01:27.91	305.82	15.80	-30.0	-31.6	13.3	1.14e-05	0	44	0	621805568	20	4286
2026-01-15 03:01:28.91	305.61	15.77	-30.5	-32.0	13.5	2.59e-04	0	44	0	623902720	20	4276
2026-01-15 03:01:29.91	305.41	15.74	-30.0	-31.5	13.4	2.08e-03	0	44	0	625999872	20	4259
2026-01-15 03:01:30.91	305.20	15.71	-30.2	-32.0	13.0	3.20e-05	0	44	0	628097024	20	4420
2026-01-15 03:01:31.91	304.99	15.67	-30.1	-31.9	13.1	2.29e-03	0	44	0	629145600	20	4397
2026-01-15 03:01:32.91	304.79	15.64	-30.3	-32.2	12.9	3.94e-04	0	44	0	631242752	20	4510
2026-01-15 03:01:33.92	304.58	15.60	-30.4	-32.6	12.6	6.56e-05	0	44	0	633339904	20	4647
2026-01-15 03:01:34.92	304.37	15.57	-30.5	-32.4	12.5	2.86e-03	0	44	0	635437056	21	4484
2026-01-15 03:01:35.93	304.17	15.53	-30.5	-32.3	12.5	4.22e-04	0	44	0	637534208	21	4449
2026-01-15 03:01:36.93	303.96	15.50	-30.6	-32.8	12.2	2.22e-04	0	44	0	638582784	21	4604
2026-01-15 03:01:37.93	303.76	15.46	-30.5	-32.5	12.4	2.96e-03	0	44	0	640679936	21	4489
2026-01-15 03:01:38.93	303.56	15.43	-30.5	-32.8	12.5	2.46e-03	0	44	0	642777088	20	4710
2026-01-15 03:01:39.94	303.35	15.39	-30.5	-32.5	12.4	1.33e-04	0	44	0	644874240	21	4493
2026-01-15 03:01:40.94	303.15	15.35	-30.6	-32.5	12.3	2.43e-03	0	44	0	646971392	21	4519
2026-01-15 03:01:41.94	302.95	15.32	-30.6	-32.8	12.2	2.66e-03	0	44	0	648019968	21	4600
2026-01-15 03:01:42.94	302.75	15.28	-30.5	-32.4	12.4	1.43e-04	0	44	0	650117120	21	4464
2026-01-15 03:01:43.95	302.55	15.24	-30.3	-32.4	12.8	1.39e-03	0	44	0	652214272	20	4571
2026-01-15 03:01:44.96	302.34	15.20	-30.4	-32.7	12.6	7.70e-04	0	44	0	654311424	20	4651
2026-01-15 03:01:45.95	302.15	15.17	-30.5	-32.8	12.5	1.16e-04	0	44	0	656408576	20	4698
2026-01-15 03:01:46.95	301.95	15.13	-30.6	-32.7	12.2	1.34e-03	0	44	0	657457152	21	4573
2026-01-15 03:01:47.96	301.75	15.09	-30.8	-33.3	11.8	3.27e-04	0	44	0	659554304	21	4803
2026-01-15 03:01:48.97	301.55	15.05	-30.7	-33.0	12.0	3.58e-04	0	44	0	661651456	21	4682
2026-01-15 03:01:49.97	301.35	15.01	-30.4	-32.7	12.5	1.36e-03	0	44	0	663748608	20	4663
2026-01-15 03:01:50.97	301.15	14.97	-30.2	-32.0	13.0	1.32e-03	0	44	0	664797184	20	4434
2026-01-15 03:01:51.98	300.95	14.93	-29.9	-31.2	13.5	2.82e-05	0	44	0	666894336	20	4183
2026-01-15 03:01:52.98	300.76	14.89	-29.9	-31.6	13.6	1.16e-03	0	44	0	668991488	19	4399
2026-01-15 03:01:53.98	300.56	14.85	-29.8	-31.5	13.7	1.14e-03	0	44	0	671088640	19	4349
2026-01-15 03:01:54.99	300.36	14.81	-30.0	-31.5	13.4	1.50e-06	0	44	0	673185792	20	4271
2026-01-15 03:01:55.99	300.17	14.77	-30.2	-32.1	13.0	9.62e-04	0	44	0	674234368	20	4448
2026-01-15 03:01:56.99	299.98	14.73	-29.9	-31.3	13.5	1.07e-03	0	44	0	676331520	20	4216
2026-01-15 03:01:57.99	299.78	14.69	-29.9	-31.1	13.6	1.37e-05	0	44	0	678428672	20	4154
2026-01-15 03:01:58.98	299.59	14.65	-30.1	-31.7	13.2	1.06e-05	0	44	0	680525824	20	4322
2026-01-15 03:01:59.99	299.40	14.60	-29.9	-31.3	13.4	1.40e-03	0	43	0	682622976	20	4225
2026-01-15 03:02:01.00	299.21	14.56	-29.8	-30.9	13.7	8.30e-06	0	44	0	683671552	20	4103
2026-01-15 03:02:02.00	299.01	14.52	-30.0	-31.9	13.5	1.36e-03	0	44	0	685768704	19	4481
2026-01-15 03:02:03.00	298.82	14.48	-30.2	-32.0	13.0	1.21e-03	0	44	0	687865856	20	4434
2026-01-15 03:02:04.00	298.63	14.43	-30.3	-32.2	12.8	3.20e-05	0	43	0	689963008	20	4526
2026-01-15 03:02:05.01	298.44	14.39	-30.6	-32.6	12.2	6.96e-04	0	44	0	692060160	21	4553
2026-01-15 03:02:06.01	298.25	14.35	-30.6	-32.8	12.1	2.20e-04	0	44	0	693108736	21	4624
2026-01-15 03:02:07.02	298.06	14.30	-30.7	-33.0	11.9	3.13e-04	0	44	0	695205888	21	4686
2026-01-15 03:02:08.02	297.88	14.26	-30.6	-32.7	12.1	5.28e-04	0	44	0	697303040	21	4598
2026-01-15 03:02:09.03	297.69	14.21	-30.6	-32.8	12.0	4.80e-04	0	44	0	699400192	21	4637
2026-01-15 03:02:10.03	297.50	14.17	-30.5	-32.6	12.2	2.16e-04	0	44	0	701497344	21	4568
2026-01-15 03:02:11.04	297.31	14.13	-30.5	-32.4	12.3	4.12e-04	0	44	0	702545920	21	4488
2026-01-15 03:02:12.04	297.13	14.08	-30.6	-32.6	12.2	4.97e-04	0	43	0	704643072	21	4565
2026-01-15 03:02:13.04	296.94	14.04	-30.8	-33.2	11.8	4.19e-04	0	43	0	706740224	21	4765
2026-01-15 03:02:14.05	296.76	13.99	-30.6	-32.7	12.1	9.67e-04	0	44	0	708837376	21	4588
2026-01-15 03:02:15.05	296.57	13.95	-30.4	-32.1	12.4	1.38e-03	0	44	0	710934528	21	4404
2026-01-15 03:02:16.06	296.39	13.90	-30.5	-32.5	12.3	1.88e-04	0	44	0	711983104	21	4525
2026-01-15 03:02:17.06	296.20	13.85	-29.4	-31.9	12.3	1.47e-03	0	44	0	714080256	20	4760
2026-01-15 03:02:18.06	296.02	13.81	-30.5	-32.4	12.4	1.30e-03	0	43	0	716177408	21	4488
2026-01-15 03:02:19.06	295.84	13.76	-30.5	-33.0	12.0	2.07e-04	0	44	0	718274560	20	4785
2026-01-15 03:02:20.06	295.66	13.72	-30.4	-32.8	11.7	2.01e-04	0	44	0	720371712	20	4738
2026-01-15 03:02:21.07	295.48	13.67	-30.3	-32.4	12.5	8.29e-04	0	44	0	721420288	20	4592
2026-01-15 03:02:22.07	295.30	13.62	-30.3	-32.4	12.4	5.79e-05	0	44	0	723517440	20	4573
2026-01-15 03:02:23.07	295.12	13.58	-30.3	-32.3	12.6	1.06e-03	0	43	0	725614592	20	4547
2026-01-15 03:02:24.08	294.94	13.53	-30.3	-32.4	12.6	1.43e-03	0	44	0	727711744	20	4572
2026-01-15 03:02:25.08	294.76	13.48	-30.5	-32.6	12.1	1.72e-04	0	44	0	728760320	21	4553
2026-01-15 03:02:26.09	294.58	13.43	-30.4	-32.7	12.4	1.65e-03	0	44	0	730857472	20	4692
2026-01-15 03:02:27.09	294.40	13.38	-30.4	-32.8	12.3	3.69e-04	0	44	0	732954624	20	4720
2026-01-15 03:02:28.10	294.23	13.34	-30.5	-32.9	12.2	1.81e-04	0	44	0	735051776	20	4782
2026-01-15 03:02:29.09	294.05	13.29	-30.6	-32.7	12.0	1.28e-03	0	44	0	737148928	21	4617
2026-01-15 03:02:30.10	293.88	13.24	-30.7	-32.9	11.8	6.94e-04	0	44	0	738197504	21	4688
2026-01-15 03:02:31.11	293.70	13.19	-30.2	-32.3	12.6	1.93e-04	0	44	0	740294656	20	4542
2026-01-15 03:02:32.10	293.53	13.14	-30.0	-31.5	13.1	1.57e-03	0	44	0	742391808	20	4293
2026-01-15 03:02:33.10	293.35	13.10	-29.8	-31.5	13.5	1.71e-03	0	44	0	744488960	19	4393
2026-01-15 03:02:34.11	293.18	13.05	-29.9	-31.3	13.2	9.58e-04	0	44	0	746586112	20	4220
2026-01-15 03:02:35.11	293.01	13.00	-30.1	-31.8	12.9	2.03e-03	0	44	0	747634688	20	4393
2026-01-15 03:02:36.11	292.83	12.95	-30.1	-32.0	12.8	2.02e-03	0	44	0	749731840	20	4446
2026-01-15 03:02:37.11	292.66	12.90	-30.3	-32.4	12.5	1.26e-03	0	44	0	751828992	20	4585
2026-01-15 03:02:38.12	292.49	12.85	-30.6	-32.9	11.8	1.00e-03	0	44	0	753926144	21	4687
2026-01-15 03:02:39.11	292.32	12.80	-30.5	-32.7	12.0	1.47e-03	0	44	0	756023296	21	4605
2026-01-15 03:02:40.11	292.15	12.75	-30.4	-32.3	12.1	2.43e-04	0	44	0	757071872	21	4498
2026-01-15 03:02:41.11	291.98	12.70	-30.5	-33.0	12.1	6.87e-04	0	44	0	759169024	20	4807
2026-01-15 03:02:42.12	291.81	12.65	-30.5	-32.5	12.0	4.29e-04	0	44	0	761266176	21	4560
2026-01-15 03:02:43.12	291.65	12.60	-30.5	-32.7	11.9	3.89e-04	0	44	0	763363328	21	4594
2026-01-15 03:02:44.13	291.48	12.55	-30.3	-32.6	12.4	1.10e-03	0	43	0	765460480	20	4665
2026-01-15 03:02:45.13	291.31	12.50	-30.5	-32.9	12.2	1.46e-04	0	44	0	766509056	20	4770
2026-01-15 03:02:46.13	291.15	12.45	-30.3	-32.5	12.4	1.57e-04	0	44	0	768606208	20	4628
2026-01-15 03:02:47.13	290.98	12.40	-30.5	-32.9	12.1	2.25e-03	0	44	0	770703360	20	4779
2026-01-15 03:02:48.13	290.82	12.35	-30.5	-32.7	12.0	4.16e-04	0	44	0	772800512	21	4606
2026-01-15 03:02:49.14	290.65	12.30	-30.7	-33.3	11.4	5.36e-04	0	44	0	774897664	21	4859
2026-01-15 03:02:50.15	290.49	12.24	-30.9	-33.4	10.9	1.77e-03	0	44	0	775946240	22	4800
2026-01-15 03:02:51.15	290.32	12.19	-31.4	-34.9	9.9	5.85e-03	0	44	0	778043392	22	5416
2026-01-15 03:02:52.16	290.16	12.14	-31.6	-35.2	9.3	1.54e-02	0	44	0	780140544	23	5490
2026-01-15 03:02:53.16	290.00	12.09	-31.7	-35.8	8.8	2.54e-02	0	44	0	782237696	23	5773
2026-01-15 03:02:54.17	289.83	12.04	-31.9	-36.7	8.2	4.71e-02	0	44	0	783286272	23	6222
2026-01-15 03:02:55.17	289.67	11.99	-32.0	-36.9	8.0	6.92e-02	0	44	0	785383424	23	6361
2026-01-15 03:02:56.17	289.51	11.93	-32.0	-36.4	8.0	7.17e-02	0	44	0	787480576	24	5981
2026-01-15 03:02:57.17	289.35	11.88	-31.8	-36.1	8.6	4.52e-02	0	44	0	789577728	23	5891
2026-01-15 03:02:58.18	289.19	11.83	-31.9	-36.4	8.4	3.88e-02	0	44	0	791674880	23	6069
2026-01-15 03:02:59.18	289.03	11.78	-31.8	-36.1	8.5	5.02e-02	0	44	0	793772032	23	5930
2026-01-15 03:03:00.19	288.87	11.72	-31.6	-35.3	9.2	3.41e-02	0	44	0	794820608	23	5522
2026-01-15 03:03:01.19	288.72	11.67	-31.5	-34.8	9.5	2.21e-02	0	44	0	796917760	23	5302
2026-01-15 03:03:02.20	288.56	11.62	-31.3	-34.7	10.0	1.16e-02	0	44	0	799014912	22	5346
2026-01-15 03:03:03.20	288.40	11.57	-31.3	-34.8	10.0	7.50e-03	0	44	0	801112064	22	5350
2026-01-15 03:03:04.20	288.25	11.51	-31.2	-34.5	10.2	7.41e-03	0	44	0	802160640	22	5228
2026-01-15 03:03:05.20	288.09	11.46	-31.1	-34.1	10.5	6.93e-03	0	44	0	804257792	22	5070
2026-01-15 03:03:06.20	287.94	11.41	-30.9	-33.4	10.9	3.10e-03	0	44	0	806354944	22	4809
2026-01-15 03:03:07.21	287.78	11.36	-30.8	-33.6	11.1	1.96e-03	0	44	0	808452096	21	4978
2026-01-15 03:03:08.21	287.63	11.30	-30.7	-33.4	11.3	2.46e-03	0	43	0	810549248	21	4879
2026-01-15 03:03:09.21	287.48	11.25	-30.6	-33.1	11.5	9.93e-04	0	44	0	811597824	21	4781
2026-01-15 03:03:10.21	287.32	11.20	-30.8	-33.6	11.2	2.21e-03	0	44	0	813694976	21	4955
2026-01-15 03:03:11.22	287.17	11.14	-30.8	-33.7	11.1	2.61e-03	0	44	0	815792128	21	4998
2026-01-15 03:03:12.22	287.02	11.09	-30.8	-33.6	11.1	1.68e-03	0	44	0	817889280	21	4968
2026-01-15 03:03:13.22	286.87	11.04	-31.0	-34.2	10.7	3.43e-03	0	44	0	819986432	21	5220
2026-01-15 03:03:14.22	286.72	10.98	-30.9	-33.9	10.9	2.31e-03	0	44	0	821035008	21	5102
2026-01-15 03:03:15.22	286.57	10.93	-31.0	-33.7	10.7	2.71e-03	0	44	0	823132160	22	4923
2026-01-15 03:03:16.22	286.42	10.88	-31.0	-33.7	10.6	6.18e-03	0	44	0	825229312	22	4932
2026-01-15 03:03:17.23	286.27	10.82	-30.9	-33.9	10.9	5.16e-03	0	44	0	827326464	21	5079
2026-01-15 03:03:18.23	286.12	10.77	-30.7	-33.5	11.1	1.58e-03	0	43	0	828375040	21	4932
2026-01-15 03:03:19.24	285.97	10.71	-30.7	-33.4	11.2	3.96e-03	0	44	0	830472192	21	4898
2026-01-15 03:03:20.24	285.83	10.66	-30.8	-33.8	11.0	4.42e-03	0	43	0	832569344	21	5042
2026-01-15 03:03:21.25	285.68	10.61	-30.8	-33.8	10.9	2.24e-03	0	44	0	834666496	21	5068
2026-01-15 03:03:22.25	285.53	10.55	-30.0	-32.6	10.9	4.21e-03	0	44	0	836763648	21	4876
2026-01-15 03:03:23.25	285.39	10.50	-30.7	-33.2	10.8	3.62e-03	0	44	0	838860800	21	4824
2026-01-15 03:03:24.25	285.24	10.44	-30.6	-33.0	11.5	8.54e-04	0	44	0	839909376	21	4759
2026-01-15 03:03:25.25	285.10	10.39	-30.6	-32.8	11.1	6.65e-04	0	44	0	842006528	21	4687
2026-01-15 03:03:26.25	284.96	10.34	-30.7	-33.2	11.0	3.05e-03	0	44	0	844103680	21	4798
2026-01-15 03:03:27.26	284.81	10.28	-30.7	-33.2	11.4	9.32e-04	0	44	0	846200832	21	4802
2026-01-15 03:03:28.26	284.67	10.23	-30.8	-33.8	10.8	1.77e-03	0	44	0	847249408	21	5051
2026-01-15 03:03:29.27	284.53	10.17	-30.7	-33.4	11.2	3.57e-03	0	44	0	849346560	21	4888
2026-01-15 03:03:30.27	284.39	10.12	-30.7	-33.2	11.3	1.51e-03	0	44	0	851443712	21	4848
2026-01-15 03:03:31.28	284.24	10.06	-30.7	-33.6	11.1	2.00e-03	0	43	0	853540864	21	4976
2026-01-15 03:03:32.28	284.10	10.01	-30.8	-33.7	10.9	2.14e-03	0	44	0	855638016	21	5042
2026-01-15 03:03:33.28	283.96	9.95	-30.9	-34.0	10.7	2.97e-03	0	44	0	856686592	21	5166
2026-01-15 03:03:34.28	283.83	9.90	-30.8	-33.8	10.9	5.24e-03	0	44	0	858783744	21	5056
2026-01-15 03:03:35.28	283.69	9.84	-30.8	-33.8	10.8	2.42e-03	0	43	0	860880896	21	5076
2026-01-15 03:03:36.29	283.55	9.79	-30.9	-33.9	10.7	2.69e-03	0	43	0	862978048	21	5128
2026-01-15 03:03:37.29	283.41	9.73	-30.8	-33.7	11.0	5.40e-03	0	44	0	865075200	21	5006
2026-01-15 03:03:38.30	283.27	9.68	-30.9	-33.9	10.8	4.94e-03	0	44	0	866123776	21	5116
2026-01-15 03:03:39.30	283.13	9.62	-30.8	-33.8	10.8	3.00e-03	0	44	0	868220928	21	5067
2026-01-15 03:03:40.31	283.00	9.57	-30.7	-33.4	11.1	5.36e-03	0	44	0	870318080	21	4925
2026-01-15 03:03:41.31	282.86	9.51	-30.8	-33.6	10.9	4.39e-03	0	44	0	872415232	21	5004
2026-01-15 03:03:42.32	282.73	9.46	-30.9	-33.9	10.6	3.47e-03	0	44	0	874512384	21	5136
2026-01-15 03:03:43.32	282.59	9.40	-30.6	-33.2	11.2	2.05e-03	0	43	0	875560960	21	4836
2026-01-15 03:03:44.31	282.46	9.35	-30.5	-33.2	11.6	3.72e-03	0	44	0	877658112	20	4915
2026-01-15 03:03:45.32	282.32	9.29	-30.3	-32.3	11.8	5.88e-04	0	44	0	879755264	21	4507
2026-01-15 03:03:46.33	282.19	9.24	-30.2	-32.5	12.1	3.58e-04	0	44	0	881852416	20	4663
2026-01-15 03:03:47.33	282.06	9.18	-30.0	-31.9	12.5	1.79e-04	0	44	0	883949568	20	4463
2026-01-15 03:03:48.33	281.93	9.13	-29.9	-31.6	12.7	8.62e-05	0	44	0	884998144	20	4356
2026-01-15 03:03:49.33	281.79	9.07	-29.9	-31.9	12.8	2.02e-03	0	44	0	887095296	19	4557
2026-01-15 03:03:50.32	281.66	9.02	-29.8	-31.6	13.1	3.73e-05	0	44	0	889192448	19	4445
2026-01-15 03:03:51.33	281.53	8.96	-29.7	-31.5	13.1	1.84e-04	0	44	0	891289600	19	4424
2026-01-15 03:03:52.32	281.40	8.91	-29.8	-31.8	12.9	1.31e-03	0	44	0	892338176	19	4522
2026-01-15 03:03:53.40	281.26	8.85	-29.8	-31.8	12.9	2.89e-05	0	44	0	894435328	19	4527
2026-01-15 03:03:54.26	281.15	8.80	-29.9	-32.0	12.8	6.63e-05	0	44	0	896532480	19	4579
2026-01-15 03:03:55.41	281.01	8.74	-30.0	-31.9	12.5	1.66e-03	0	44	0	898629632	20	4455
2026-01-15 03:03:56.26	280.90	8.69	-30.1	-32.0	12.4	1.89e-03	0	44	0	899678208	20	4502
2026-01-15 03:03:57.41	280.75	8.63	-30.1	-32.0	12.3	1.62e-04	0	43	0	901775360	20	4512
2026-01-15 03:03:58.26	280.64	8.58	-30.0	-31.9	12.4	1.83e-04	0	44	0	903872512	20	4475
2026-01-15 03:03:59.41	280.50	8.52	-30.0	-31.8	12.5	2.35e-03	0	44	0	905969664	20	4434
2026-01-15 03:04:00.27	280.39	8.47	-30.0	-31.7	12.5	1.35e-04	0	43	0	908066816	20	4402
2026-01-15 03:04:01.41	280.25	8.41	-29.9	-32.0	12.7	1.17e-04	0	44	0	910163968	19	4573
2026-01-15 03:04:02.27	280.14	8.36	-29.9	-31.5	12.7	2.24e-03	0	43	0	911212544	20	4346
2026-01-15 03:04:03.42	280.00	8.30	-29.8	-31.2	12.8	6.17e-05	0	44	0	913309696	20	4248
2026-01-15 03:04:04.28	279.89	8.25	-29.9	-32.0	12.7	6.02e-05	0	44	0	915406848	19	4569
2026-01-15 03:04:05.43	279.75	8.18	-29.9	-32.0	12.7	2.13e-03	0	44	0	917504000	19	4575
2026-01-15 03:04:06.29	279.64	8.14	-29.9	-32.0	12.7	7.93e-05	0	43	0	918552576	19	4603
2026-01-15 03:04:07.43	279.50	8.07	-29.9	-31.7	12.5	2.14e-03	0	44	0	920649728	20	4405
2026-01-15 03:04:08.28	279.40	8.03	-30.0	-31.8	12.4	8.46e-05	0	44	0	922746880	20	4460
2026-01-15 03:04:09.43	279.26	7.96	-29.0	-30.9	12.4	1.27e-04	0	44	0	924844032	20	4442
2026-01-15 03:04:10.29	279.15	7.92	-30.1	-32.1	12.1	1.80e-03	0	43	0	925892608	20	4551
2026-01-15 03:04:11.43	279.02	7.85	-30.1	-32.1	11.9	1.63e-03	0	44	0	929038336	20	4555
2026-01-15 03:04:12.30	278.91	7.81	-30.2	-32.6	11.8	2.61e-04	0	44	0	930086912	20	4719
2026-01-15 03:04:13.44	278.78	7.74	-30.4	-33.0	11.0	1.26e-03	0	44	0	932184064	20	4888
2026-01-15 03:04:14.30	278.67	7.69	-30.2	-32.6	11.8	6.89e-04	0	44	0	934281216	20	4727
2026-01-15 03:04:15.45	278.54	7.63	-30.3	-32.8	11.5	4.84e-04	0	44	0	936378368	20	4795
2026-01-15 03:04:16.32	278.43	7.58	-30.3	-32.9	11.6	8.89e-04	0	43	0	937426944	20	4854
2026-01-15 03:04:17.46	278.30	7.52	-30.3	-32.7	11.7	7.56e-04	0	43	0	939524096	20	4764
2026-01-15 03:04:18.33	278.20	7.47	-30.3	-32.9	11.6	5.71e-04	0	44	0	941621248	20	4858
2026-01-15 03:04:19.48	278.06	7.41	-30.4	-33.2	11.4	4.12e-03	0	44	0	943718400	20	4956
2026-01-15 03:04:20.34	277.96	7.36	-30.4	-33.2	11.3	1.48e-03	0	44	0	944766976	20	4967
2026-01-15 03:04:21.48	277.83	7.30	-30.4	-33.2	11.3	1.50e-03	0	44	0	946864128	20	4968
2026-01-15 03:04:22.33	277.73	7.25	-30.6	-33.4	10.7	1.62e-03	0	44	0	948961280	21	4986
2026-01-15 03:04:23.48	277.60	7.19	-30.8	-33.9	10.4	5.73e-03	0	44	0	951058432	21	5159
2026-01-15 03:04:24.34	277.50	7.14	-29.7	-32.6	10.5	3.01e-03	0	44	0	953155584	21	4999
2026-01-15 03:04:25.48	277.37	7.08	-32.8	-43.7	4.1	2.69e-03	0	43	0	955252736	25	12592
2026-01-15 03:04:26.34	277.27	7.03	-33.2	-45.6	3.8	1.49e+00	0	44	104	955252736	26	15092
2026-01-15 03:04:27.48	277.14	6.97	-33.7	-46.2	3.8	1.49e+00	0	44	104	955252736	27	15106

#Closed at: 2026-01-15 03:04:28
#Recorded file [955 MB]: D:/data/31010_260115_055555.dat