passes_logs/2026/01/15/R2M6_AANII_01/R2M6_AANII_01__20260115_103815_NOAA_21_JPSS-2_rec.log

#Pass ID: 20260115_103815_NOAA 21 (JPSS-2)
#Satellite: NOAA 21 (JPSS-2)
#Configuration: NOAA 21
#almurnet v.1.7.20240730
#Start time: 2026-01-15 10:38:29

#Version: 2.2.20231116
#Station: R2M6_AANII_01
#Location: 30.233357 lon 59.946436 lat
#TLE: 1 54234U 22150A   26014.16688770  .00000052  00000+0  45394-4 0  9999
#TLE: 2 54234  98.7497 315.0767 0000655 297.6997  62.4113 14.19534648164696

#Time	Az	El	Level	Level2	SNR	BER	BlckErr	Temp	State	Recorded	gain1	gain2
2026-01-15 10:38:29.22	170.41	8.09	-33.9	-44.9	3.8	8.46e-01	0	43	0	0	28	12784
2026-01-15 10:38:30.21	170.43	8.17	-34.4	-46.1	3.8	1.49e+00	0	43	104	0	29	13885
2026-01-15 10:38:31.21	170.46	8.25	-34.3	-46.1	3.8	1.49e+00	0	43	104	0	29	13915
2026-01-15 10:38:32.21	170.48	8.33	-34.4	-46.1	3.8	1.49e+00	0	43	104	0	29	13887
2026-01-15 10:38:33.21	170.51	8.41	-34.4	-46.1	3.8	1.49e+00	0	43	104	0	29	13905
2026-01-15 10:38:34.21	170.53	8.50	-34.4	-46.2	3.8	1.49e+00	0	44	104	0	29	13924
2026-01-15 10:38:35.21	170.55	8.58	-34.4	-46.1	3.8	1.49e+00	0	43	104	0	29	13920
2026-01-15 10:38:36.22	170.58	8.66	-34.4	-46.1	3.8	1.49e+00	0	43	104	0	29	13830
2026-01-15 10:38:37.22	170.60	8.74	-34.3	-46.1	3.8	1.49e+00	0	43	104	0	29	13901
2026-01-15 10:38:38.22	170.63	8.82	-34.4	-46.1	3.8	1.49e+00	0	43	104	0	29	13869
2026-01-15 10:38:39.22	170.65	8.91	-34.4	-46.1	3.8	1.49e+00	0	43	104	0	29	13836
2026-01-15 10:38:40.23	170.68	8.99	-34.3	-46.0	3.8	1.49e+00	0	44	104	0	29	13813
2026-01-15 10:38:41.23	170.71	9.07	-34.3	-46.0	3.8	1.49e+00	0	43	104	0	29	13829
2026-01-15 10:38:42.23	170.73	9.16	-34.3	-46.0	3.8	1.49e+00	0	43	104	0	29	13818
2026-01-15 10:38:43.24	170.76	9.24	-34.3	-46.0	3.8	1.49e+00	0	43	104	0	29	13787
2026-01-15 10:38:44.24	170.78	9.32	-34.3	-46.0	3.8	1.49e+00	0	43	104	0	29	13813
2026-01-15 10:38:45.24	170.81	9.41	-34.3	-46.0	3.8	1.49e+00	0	43	104	0	29	13765
2026-01-15 10:38:46.25	170.83	9.49	-34.3	-45.9	3.8	1.49e+00	0	43	104	0	29	13702
2026-01-15 10:38:47.26	170.86	9.58	-34.3	-46.0	3.8	1.49e+00	0	43	104	0	29	13798
2026-01-15 10:38:48.26	170.89	9.67	-34.3	-46.0	3.8	1.49e+00	0	43	104	0	29	13807
2026-01-15 10:38:49.27	170.91	9.75	-34.3	-46.0	3.8	1.49e+00	0	43	104	0	29	13778
2026-01-15 10:38:50.27	170.94	9.84	-34.3	-45.9	3.8	1.49e+00	0	43	104	0	29	13766
2026-01-15 10:38:51.27	170.97	9.92	-34.2	-45.8	3.8	1.49e+00	0	43	104	0	29	13680
2026-01-15 10:38:52.28	170.99	10.01	-34.2	-45.8	3.8	1.49e+00	0	43	104	0	29	13637
2026-01-15 10:38:53.28	171.02	10.10	-34.1	-45.6	3.8	1.49e+00	0	43	104	0	29	13507
2026-01-15 10:38:54.28	171.05	10.18	-34.0	-45.4	3.8	1.49e+00	0	43	104	0	29	13390
2026-01-15 10:38:55.28	171.07	10.27	-33.9	-45.2	3.8	1.49e+00	0	43	104	0	29	13258
2026-01-15 10:38:56.28	171.10	10.36	-33.9	-45.2	3.8	1.49e+00	0	43	104	0	29	13162
2026-01-15 10:38:57.29	171.13	10.45	-33.9	-45.1	3.8	1.49e+00	0	43	104	0	29	13089
2026-01-15 10:38:58.29	171.16	10.53	-33.9	-45.2	3.8	1.49e+00	0	43	104	0	29	13156
2026-01-15 10:38:59.29	171.19	10.62	-33.9	-45.1	3.8	1.49e+00	0	43	104	0	29	13109
2026-01-15 10:39:00.30	171.21	10.71	-33.8	-45.0	3.8	1.49e+00	0	43	104	0	29	13055
2026-01-15 10:39:01.30	171.24	10.80	-33.8	-44.9	3.8	1.49e+00	0	43	104	0	29	12969
2026-01-15 10:39:02.31	171.27	10.89	-33.6	-45.0	3.8	1.49e+00	0	43	104	0	28	13250
2026-01-15 10:39:03.32	171.30	10.98	-33.2	-43.8	3.8	1.49e+00	0	43	104	0	27	12225
2026-01-15 10:39:04.32	171.33	11.07	-32.5	-39.4	4.1	1.49e+00	0	43	104	0	26	8015
2026-01-15 10:39:05.33	171.36	11.16	-32.1	-38.1	4.8	1.45e+00	0	43	104	0	25	7138
2026-01-15 10:39:06.33	171.39	11.25	-31.9	-36.5	6.8	2.21e-01	0	43	0	0	25	6138
2026-01-15 10:39:07.33	171.41	11.35	-31.6	-36.0	7.5	1.19e-01	0	43	0	3145728	24	5978
2026-01-15 10:39:08.33	171.44	11.44	-31.3	-35.3	8.4	5.51e-02	0	43	0	6291456	23	5709
2026-01-15 10:39:09.33	171.47	11.53	-30.8	-33.9	9.3	2.78e-02	0	43	0	9437184	23	5122
2026-01-15 10:39:10.33	171.50	11.62	-30.2	-32.9	10.6	5.34e-03	0	43	0	12582912	21	4949
2026-01-15 10:39:11.34	171.53	11.71	-29.8	-32.3	11.4	1.48e-03	0	43	0	15728640	20	4840
2026-01-15 10:39:12.35	171.56	11.81	-29.4	-31.5	11.9	4.69e-04	0	43	0	18874368	20	4555
2026-01-15 10:39:13.35	171.59	11.90	-29.1	-31.1	12.6	1.20e-04	0	43	0	22020096	19	4524
2026-01-15 10:39:14.35	171.62	11.99	-28.7	-30.6	13.2	1.98e-05	0	43	0	25165824	18	4477
2026-01-15 10:39:15.35	171.65	12.09	-28.4	-29.9	13.6	2.05e-05	0	43	0	28311552	18	4262
2026-01-15 10:39:16.35	171.68	12.18	-28.2	-29.8	13.9	1.37e-05	0	43	0	31457280	17	4346
2026-01-15 10:39:17.36	171.72	12.28	-28.1	-29.7	14.0	3.00e-06	0	43	0	34603008	17	4304
2026-01-15 10:39:18.36	171.75	12.37	-28.1	-29.7	14.0	3.00e-06	0	43	0	37748736	17	4328
2026-01-15 10:39:19.37	171.78	12.47	-28.2	-29.9	13.9	3.00e-06	0	43	0	40894464	17	4376
2026-01-15 10:39:20.36	171.81	12.56	-28.4	-30.3	13.6	4.50e-06	0	43	0	44040192	17	4500
2026-01-15 10:39:21.36	171.84	12.66	-28.7	-31.1	13.2	2.13e-05	0	43	0	47185920	17	4741
2026-01-15 10:39:22.36	171.87	12.76	-29.1	-31.6	12.6	7.93e-05	0	43	0	50331648	18	4778
2026-01-15 10:39:23.36	171.90	12.85	-29.5	-32.5	12.0	2.30e-04	0	43	0	53477376	18	5118
2026-01-15 10:39:24.36	171.94	12.95	-29.4	-31.9	12.0	3.73e-04	0	43	0	56623104	19	4794
2026-01-15 10:39:25.37	171.97	13.05	-29.2	-31.3	12.5	1.12e-04	0	43	0	59768832	19	4580
2026-01-15 10:39:26.36	172.00	13.14	-29.2	-31.4	12.4	2.04e-04	0	43	0	62914560	19	4628
2026-01-15 10:39:27.36	172.03	13.24	-28.9	-30.6	12.9	7.47e-05	0	43	0	66060288	19	4374
2026-01-15 10:39:28.36	172.07	13.34	-28.5	-30.2	13.5	1.75e-05	0	43	0	69206016	18	4345
2026-01-15 10:39:29.35	172.10	13.44	-28.2	-30.0	13.9	3.80e-06	0	43	0	71303168	17	4397
2026-01-15 10:39:30.34	172.13	13.54	-28.1	-29.7	14.0	4.50e-06	0	43	0	74448896	17	4332
2026-01-15 10:39:31.35	172.16	13.64	-28.2	-29.8	14.0	4.50e-06	0	43	0	77594624	17	4357
2026-01-15 10:39:32.35	172.20	13.74	-28.1	-29.7	14.1	3.00e-06	0	43	0	80740352	17	4311
2026-01-15 10:39:33.35	172.23	13.84	-28.0	-29.5	14.2	2.20e-06	0	43	0	83886080	17	4258
2026-01-15 10:39:34.35	172.27	13.94	-27.9	-29.3	14.3	7.00e-07	0	43	0	87031808	17	4189
2026-01-15 10:39:35.35	172.30	14.04	-27.9	-29.2	14.3	7.00e-07	0	43	0	90177536	17	4177
2026-01-15 10:39:36.35	172.33	14.14	-27.9	-29.1	14.4	1.50e-06	0	43	0	93323264	17	4141
2026-01-15 10:39:37.35	172.37	14.25	-27.9	-29.2	14.4	7.00e-07	0	43	0	96468992	17	4185
2026-01-15 10:39:38.35	172.40	14.35	-28.0	-29.5	14.2	5.30e-06	0	43	0	99614720	17	4262
2026-01-15 10:39:39.35	172.44	14.45	-27.8	-29.0	14.5	0.00e+00	0	43	0	102760448	17	4118
2026-01-15 10:39:40.35	172.47	14.56	-27.7	-29.1	14.7	0.00e+00	0	43	0	105906176	16	4264
2026-01-15 10:39:41.36	172.51	14.66	-27.8	-29.5	14.5	7.00e-07	0	43	0	109051904	16	4361
2026-01-15 10:39:42.36	172.55	14.76	-28.0	-29.9	14.3	7.00e-07	0	43	0	112197632	16	4504
2026-01-15 10:39:43.37	172.58	14.87	-27.8	-29.4	14.6	0.00e+00	0	43	0	115343360	16	4342
2026-01-15 10:39:44.37	172.62	14.98	-27.8	-29.4	14.6	0.00e+00	0	43	0	118489088	16	4334
2026-01-15 10:39:45.38	172.66	15.08	-27.9	-29.7	14.4	1.50e-06	0	43	0	121634816	16	4433
2026-01-15 10:39:46.38	172.69	15.19	-27.8	-29.4	14.6	0.00e+00	0	43	0	124780544	16	4348
2026-01-15 10:39:47.39	172.73	15.30	-27.7	-29.3	14.7	1.50e-06	0	43	0	127926272	16	4316
2026-01-15 10:39:48.39	172.77	15.40	-27.8	-29.5	14.6	7.00e-07	0	43	0	131072000	16	4373
2026-01-15 10:39:49.40	172.80	15.51	-27.7	-29.1	14.7	0.00e+00	0	43	0	134217728	16	4269
2026-01-15 10:39:50.40	172.84	15.62	-27.4	-28.4	15.2	0.00e+00	0	43	0	137363456	16	4079
2026-01-15 10:39:51.41	172.88	15.73	-27.4	-28.5	15.1	0.00e+00	0	43	0	140509184	16	4086
2026-01-15 10:39:52.41	172.92	15.84	-27.3	-28.4	15.2	0.00e+00	0	43	0	143654912	16	4065
2026-01-15 10:39:53.42	172.96	15.95	-27.3	-28.4	15.2	7.00e-07	0	43	0	146800640	16	4059
2026-01-15 10:39:54.42	173.00	16.06	-27.1	-28.4	15.3	0.00e+00	0	43	0	149946368	15	4178
2026-01-15 10:39:55.42	173.04	16.17	-27.1	-28.4	15.3	0.00e+00	0	43	0	153092096	15	4172
2026-01-15 10:39:56.42	173.07	16.28	-27.2	-28.5	15.3	0.00e+00	0	43	0	156237824	15	4186
2026-01-15 10:39:57.42	173.11	16.39	-27.2	-28.5	15.3	0.00e+00	0	43	0	159383552	15	4202
2026-01-15 10:39:58.43	173.15	16.51	-27.2	-28.5	15.3	0.00e+00	0	43	0	162529280	15	4182
2026-01-15 10:39:59.43	173.19	16.62	-27.3	-28.7	15.2	0.00e+00	0	43	0	165675008	15	4237
2026-01-15 10:40:00.43	173.23	16.73	-27.4	-29.0	15.1	0.00e+00	0	43	0	168820736	15	4330
2026-01-15 10:40:01.43	173.27	16.84	-27.2	-28.5	15.4	0.00e+00	0	43	0	171966464	15	4179
2026-01-15 10:40:02.44	173.32	16.96	-27.1	-28.3	15.5	0.00e+00	0	43	0	175112192	15	4131
2026-01-15 10:40:03.44	173.36	17.07	-27.1	-28.3	15.5	0.00e+00	0	43	0	178257920	15	4124
2026-01-15 10:40:04.45	173.40	17.19	-27.2	-28.4	15.4	0.00e+00	0	43	0	181403648	15	4150
2026-01-15 10:40:05.45	173.44	17.31	-27.2	-28.4	15.4	0.00e+00	0	43	0	184549376	15	4165
2026-01-15 10:40:06.46	173.48	17.42	-27.1	-28.4	15.5	0.00e+00	0	43	0	187695104	15	4149
2026-01-15 10:40:07.46	173.53	17.54	-27.2	-28.6	15.3	0.00e+00	0	43	0	190840832	15	4211
2026-01-15 10:40:08.47	173.57	17.66	-27.3	-28.7	15.3	0.00e+00	0	43	0	193986560	15	4233
2026-01-15 10:40:09.47	173.61	17.78	-27.2	-28.5	15.4	0.00e+00	0	43	0	197132288	15	4173
2026-01-15 10:40:10.47	173.65	17.90	-27.2	-28.6	15.4	7.00e-07	0	43	0	200278016	15	4193
2026-01-15 10:40:11.47	173.70	18.01	-27.2	-28.5	15.4	0.00e+00	0	43	0	203423744	15	4168
2026-01-15 10:40:12.47	173.74	18.13	-27.2	-28.5	15.4	0.00e+00	0	43	0	206569472	15	4173
2026-01-15 10:40:13.48	173.79	18.25	-27.2	-28.6	15.4	0.00e+00	0	43	0	209715200	15	4196
2026-01-15 10:40:14.48	173.83	18.38	-27.2	-28.4	15.5	0.00e+00	0	43	0	212860928	15	4150
2026-01-15 10:40:15.48	173.88	18.50	-27.2	-28.5	15.5	1.29e-05	0	43	0	216006656	15	4166
2026-01-15 10:40:16.48	173.92	18.62	-27.3	-28.6	15.4	0.00e+00	0	43	0	219152384	15	4199
2026-01-15 10:40:17.48	173.97	18.74	-27.2	-28.5	15.4	0.00e+00	0	43	0	222298112	15	4174
2026-01-15 10:40:18.49	174.01	18.86	-27.3	-28.6	15.4	0.00e+00	0	43	0	225443840	15	4208
2026-01-15 10:40:19.50	174.06	18.99	-27.3	-28.7	15.4	0.00e+00	0	43	0	228589568	15	4221
2026-01-15 10:40:20.49	174.11	19.11	-27.2	-28.5	15.4	0.00e+00	0	43	0	231735296	15	4180
2026-01-15 10:40:21.50	174.15	19.24	-27.4	-28.8	15.3	1.14e-05	0	43	0	234881024	15	4255
2026-01-15 10:40:22.50	174.20	19.36	-27.4	-28.9	15.2	0.00e+00	0	43	0	238026752	15	4280
2026-01-15 10:40:23.50	174.25	19.49	-27.3	-28.7	15.3	0.00e+00	0	43	0	241172480	15	4236
2026-01-15 10:40:24.50	174.30	19.62	-27.3	-28.7	15.4	1.06e-05	0	43	0	244318208	15	4225
2026-01-15 10:40:25.51	174.35	19.75	-27.4	-28.8	15.3	0.00e+00	0	43	0	247463936	15	4255
2026-01-15 10:40:26.52	174.39	19.87	-27.5	-29.1	15.1	0.00e+00	0	43	0	250609664	15	4343
2026-01-15 10:40:27.52	174.44	20.00	-27.6	-29.3	15.0	1.37e-05	0	43	0	253755392	15	4401
2026-01-15 10:40:28.53	174.49	20.13	-27.7	-29.6	14.9	7.00e-07	0	43	0	256901120	15	4468
2026-01-15 10:40:29.53	174.54	20.26	-27.6	-29.5	14.9	0.00e+00	0	43	0	260046848	15	4440
2026-01-15 10:40:30.54	174.59	20.40	-27.6	-29.3	15.0	9.90e-06	0	43	0	263192576	15	4380
2026-01-15 10:40:31.53	174.64	20.53	-27.5	-29.2	15.1	0.00e+00	0	43	0	266338304	15	4368
2026-01-15 10:40:32.53	174.70	20.66	-27.7	-29.5	14.9	0.00e+00	0	43	0	269484032	15	4452
2026-01-15 10:40:33.53	174.75	20.79	-27.4	-28.8	15.3	0.00e+00	0	43	0	272629760	15	4259
2026-01-15 10:40:34.53	174.80	20.92	-27.1	-28.3	15.6	0.00e+00	0	44	0	275775488	15	4123
2026-01-15 10:40:35.53	174.85	21.06	-27.0	-28.1	15.7	0.00e+00	0	43	0	278921216	15	4068
2026-01-15 10:40:36.53	174.90	21.19	-27.0	-28.1	15.7	1.14e-05	0	43	0	282066944	15	4058
2026-01-15 10:40:37.53	174.96	21.33	-27.0	-27.9	15.8	0.00e+00	0	43	0	285212672	15	4023
2026-01-15 10:40:38.53	175.01	21.46	-26.9	-27.7	15.9	0.00e+00	0	43	0	288358400	15	3964
2026-01-15 10:40:39.53	175.07	21.60	-26.9	-27.8	15.9	0.00e+00	0	43	0	291504128	15	3991
2026-01-15 10:40:40.53	175.12	21.74	-26.9	-27.7	16.0	0.00e+00	0	43	0	294649856	15	3971
2026-01-15 10:40:41.53	175.18	21.88	-26.8	-27.6	16.0	0.00e+00	0	43	0	297795584	15	3946
2026-01-15 10:40:42.54	175.23	22.02	-26.9	-27.7	16.0	0.00e+00	0	43	0	300941312	15	3953
2026-01-15 10:40:43.54	175.29	22.16	-26.7	-27.8	16.2	0.00e+00	0	43	0	304087040	14	4093
2026-01-15 10:40:44.55	175.34	22.30	-26.6	-27.7	16.3	0.00e+00	0	43	0	307232768	14	4052
2026-01-15 10:40:45.55	175.40	22.44	-26.5	-27.4	16.4	0.00e+00	0	43	0	310378496	14	3993
2026-01-15 10:40:46.55	175.46	22.58	-26.4	-27.2	16.5	0.00e+00	0	43	0	313524224	14	3952
2026-01-15 10:40:47.54	175.52	22.72	-26.4	-27.3	16.5	0.00e+00	0	43	0	316669952	14	3951
2026-01-15 10:40:48.55	175.57	22.87	-26.7	-27.9	16.2	0.00e+00	0	43	0	319815680	14	4120
2026-01-15 10:40:49.56	175.63	23.01	-26.6	-27.7	16.3	0.00e+00	0	43	0	322961408	14	4069
2026-01-15 10:40:50.56	175.69	23.16	-26.6	-27.5	16.4	0.00e+00	0	43	0	325058560	14	4004
2026-01-15 10:40:51.55	175.75	23.30	-26.5	-27.5	16.4	0.00e+00	0	43	0	328204288	14	4000
2026-01-15 10:40:52.56	175.81	23.45	-26.5	-27.4	16.4	0.00e+00	0	43	0	331350016	14	3987
2026-01-15 10:40:53.55	175.87	23.60	-26.7	-27.8	16.2	0.00e+00	0	43	0	334495744	14	4082
2026-01-15 10:40:54.55	175.94	23.74	-26.7	-27.7	16.3	0.00e+00	0	43	0	337641472	14	4073
2026-01-15 10:40:55.55	176.00	23.89	-26.6	-27.7	16.3	0.00e+00	0	43	0	340787200	14	4052
2026-01-15 10:40:56.56	176.06	24.04	-26.5	-27.3	16.5	0.00e+00	0	43	0	343932928	14	3964
2026-01-15 10:40:57.56	176.12	24.19	-26.6	-27.5	16.4	0.00e+00	0	43	0	347078656	14	4011
2026-01-15 10:40:58.57	176.19	24.35	-26.6	-27.7	16.3	0.00e+00	0	43	0	350224384	14	4058
2026-01-15 10:40:59.57	176.25	24.50	-26.5	-27.3	16.5	0.00e+00	0	43	0	353370112	14	3973
2026-01-15 10:41:00.58	176.32	24.66	-26.3	-26.9	16.7	0.00e+00	0	43	0	356515840	14	3868
2026-01-15 10:41:01.58	176.38	24.81	-26.3	-27.5	16.7	0.00e+00	0	43	0	359661568	13	4122
2026-01-15 10:41:02.59	176.45	24.97	-26.3	-27.5	16.7	0.00e+00	0	43	0	362807296	13	4108
2026-01-15 10:41:03.59	176.52	25.12	-26.2	-27.3	16.8	0.00e+00	0	43	0	365953024	13	4054
2026-01-15 10:41:04.59	176.59	25.28	-26.2	-27.3	16.8	0.00e+00	0	43	0	369098752	13	4066
2026-01-15 10:41:05.59	176.65	25.44	-26.4	-27.6	16.6	0.00e+00	0	43	0	372244480	13	4156
2026-01-15 10:41:06.60	176.72	25.60	-26.5	-27.9	16.5	0.00e+00	0	43	0	375390208	13	4213
2026-01-15 10:41:07.60	176.79	25.76	-26.5	-27.9	16.5	0.00e+00	0	43	0	378535936	13	4216
2026-01-15 10:41:08.60	176.86	25.92	-26.6	-28.1	16.4	0.00e+00	0	43	0	381681664	13	4273
2026-01-15 10:41:09.60	176.93	26.08	-26.7	-28.3	16.3	0.00e+00	0	43	0	384827392	13	4329
2026-01-15 10:41:10.61	177.01	26.24	-26.8	-28.5	16.2	0.00e+00	0	43	0	387973120	13	4393
2026-01-15 10:41:11.61	177.08	26.40	-26.8	-28.6	16.1	0.00e+00	0	43	0	391118848	13	4410
2026-01-15 10:41:12.61	177.15	26.57	-26.9	-28.8	16.1	0.00e+00	0	43	0	394264576	13	4455
2026-01-15 10:41:13.61	177.22	26.73	-27.0	-28.5	15.9	0.00e+00	0	43	0	397410304	14	4282
2026-01-15 10:41:14.62	177.30	26.90	-27.1	-28.7	15.8	0.00e+00	0	43	0	400556032	14	4335
2026-01-15 10:41:15.62	177.37	27.07	-27.2	-29.0	15.7	0.00e+00	0	43	0	403701760	14	4407
2026-01-15 10:41:16.62	177.45	27.24	-27.3	-29.1	15.6	0.00e+00	0	43	0	406847488	14	4428
2026-01-15 10:41:17.63	177.53	27.41	-27.3	-29.2	15.6	0.00e+00	0	43	0	409993216	14	4450
2026-01-15 10:41:18.63	177.60	27.58	-27.4	-29.3	15.5	0.00e+00	0	43	0	413138944	14	4500
2026-01-15 10:41:19.63	177.68	27.75	-27.4	-29.4	15.5	0.00e+00	0	43	0	416284672	14	4518
2026-01-15 10:41:20.64	177.76	27.92	-27.4	-29.3	15.5	0.00e+00	0	43	0	419430400	14	4482
2026-01-15 10:41:21.64	177.84	28.10	-27.4	-29.3	15.6	0.00e+00	0	43	0	422576128	14	4484
2026-01-15 10:41:22.65	177.92	28.27	-27.4	-29.4	15.4	0.00e+00	0	43	0	425721856	14	4533
2026-01-15 10:41:23.64	178.00	28.44	-27.5	-29.1	15.4	0.00e+00	0	43	0	428867584	15	4318
2026-01-15 10:41:24.64	178.09	28.62	-27.5	-29.1	15.4	0.00e+00	0	43	0	432013312	15	4319
2026-01-15 10:41:25.64	178.17	28.80	-27.7	-29.5	15.1	0.00e+00	0	43	0	435159040	15	4451
2026-01-15 10:41:26.63	178.25	28.97	-27.6	-29.4	15.2	7.00e-07	0	43	0	438304768	15	4400
2026-01-15 10:41:27.63	178.34	29.15	-27.4	-28.8	15.6	7.00e-07	0	43	0	441450496	15	4227
2026-01-15 10:41:28.64	178.42	29.34	-27.2	-28.4	15.8	0.00e+00	0	43	0	444596224	15	4123
2026-01-15 10:41:29.64	178.51	29.52	-27.3	-28.5	15.7	7.00e-07	0	43	0	447741952	15	4164
2026-01-15 10:41:30.64	178.60	29.70	-27.2	-28.3	15.8	0.00e+00	0	43	0	450887680	15	4106
2026-01-15 10:41:31.64	178.69	29.88	-27.2	-28.4	15.8	0.00e+00	0	43	0	454033408	15	4133
2026-01-15 10:41:32.63	178.78	30.07	-27.1	-28.2	15.9	0.00e+00	0	43	0	457179136	15	4088
2026-01-15 10:41:33.63	178.87	30.25	-27.1	-28.2	15.9	0.00e+00	0	43	0	460324864	15	4077
2026-01-15 10:41:34.63	178.96	30.44	-27.1	-28.1	16.0	0.00e+00	0	43	0	463470592	15	4052
2026-01-15 10:41:35.64	179.05	30.63	-27.1	-28.1	16.0	0.00e+00	0	43	0	466616320	15	4061
2026-01-15 10:41:36.63	179.15	30.82	-27.1	-28.2	15.9	0.00e+00	0	43	0	469762048	15	4084
2026-01-15 10:41:37.64	179.24	31.01	-27.1	-28.2	15.9	0.00e+00	0	43	0	472907776	15	4090
2026-01-15 10:41:38.64	179.34	31.20	-27.2	-28.4	15.8	0.00e+00	0	43	0	476053504	15	4144
2026-01-15 10:41:39.65	179.44	31.40	-27.3	-28.6	15.7	0.00e+00	0	43	0	479199232	15	4190
2026-01-15 10:41:40.65	179.53	31.59	-27.3	-28.5	15.7	0.00e+00	0	43	0	482344960	15	4167
2026-01-15 10:41:41.65	179.63	31.79	-27.3	-28.5	15.7	1.50e-06	0	43	0	485490688	15	4167
2026-01-15 10:41:42.66	179.73	31.99	-27.3	-28.5	15.7	0.00e+00	0	43	0	488636416	15	4158
2026-01-15 10:41:43.66	179.84	32.18	-27.3	-28.6	15.7	0.00e+00	0	43	0	491782144	15	4174
2026-01-15 10:41:44.66	179.94	32.38	-27.2	-28.4	15.8	0.00e+00	0	43	0	494927872	15	4136
2026-01-15 10:41:45.66	180.04	32.58	-27.2	-28.3	15.9	0.00e+00	0	43	0	498073600	15	4107
2026-01-15 10:41:46.67	180.15	32.79	-27.3	-28.5	15.7	0.00e+00	0	43	0	501219328	15	4160
2026-01-15 10:41:47.67	180.26	32.99	-27.3	-28.5	15.7	0.00e+00	0	43	0	504365056	15	4160
2026-01-15 10:41:48.67	180.36	33.19	-27.3	-28.6	15.7	0.00e+00	0	43	0	507510784	15	4168
2026-01-15 10:41:49.68	180.47	33.40	-27.5	-29.0	15.5	0.00e+00	0	43	0	510656512	15	4293
2026-01-15 10:41:50.69	180.58	33.61	-27.7	-29.5	15.2	0.00e+00	0	43	0	513802240	15	4430
2026-01-15 10:41:51.69	180.70	33.82	-27.8	-29.6	15.1	0.00e+00	0	43	0	516947968	15	4471
2026-01-15 10:41:52.69	180.81	34.03	-27.9	-30.1	14.9	0.00e+00	0	43	0	520093696	15	4602
2026-01-15 10:41:53.68	180.92	34.24	-28.2	-30.0	14.8	4.50e-06	0	43	0	523239424	16	4470
2026-01-15 10:41:54.68	181.04	34.45	-28.2	-30.0	14.8	0.00e+00	0	43	0	526385152	16	4467
2026-01-15 10:41:55.68	181.16	34.66	-28.3	-30.4	14.6	0.00e+00	0	43	0	529530880	16	4582
2026-01-15 10:41:56.68	181.28	34.87	-28.3	-30.3	14.7	0.00e+00	0	43	0	532676608	16	4538
2026-01-15 10:41:57.68	181.40	35.09	-28.2	-30.1	14.8	0.00e+00	0	43	0	535822336	16	4482
2026-01-15 10:41:58.69	181.52	35.31	-28.2	-30.2	14.8	0.00e+00	0	43	0	538968064	16	4511
2026-01-15 10:41:59.70	181.65	35.53	-28.4	-30.6	14.5	0.00e+00	0	43	0	542113792	16	4627
2026-01-15 10:42:00.70	181.77	35.75	-28.5	-30.3	14.4	0.00e+00	0	43	0	545259520	17	4445
2026-01-15 10:42:01.71	181.90	35.97	-28.6	-30.5	14.3	0.00e+00	0	43	0	548405248	17	4507
2026-01-15 10:42:02.72	182.03	36.20	-28.6	-30.7	14.2	1.50e-06	0	43	0	551550976	17	4538
2026-01-15 10:42:03.72	182.16	36.42	-28.8	-31.0	14.0	3.00e-06	0	43	0	554696704	17	4645
2026-01-15 10:42:04.72	182.29	36.65	-28.7	-30.8	14.1	2.20e-06	0	43	0	557842432	17	4579
2026-01-15 10:42:05.73	182.43	36.88	-28.7	-30.8	14.1	3.80e-06	0	43	0	560988160	17	4591
2026-01-15 10:42:06.73	182.56	37.11	-28.7	-30.8	14.1	3.00e-06	0	43	0	564133888	17	4569
2026-01-15 10:42:07.73	182.70	37.34	-28.7	-30.8	14.2	7.00e-07	0	43	0	567279616	17	4572
2026-01-15 10:42:08.74	182.84	37.57	-28.8	-31.1	14.0	3.00e-06	0	43	0	570425344	17	4669
2026-01-15 10:42:09.74	182.98	37.80	-28.9	-31.2	13.9	4.50e-06	0	43	0	573571072	17	4704
2026-01-15 10:42:10.74	183.13	38.04	-28.7	-30.8	14.1	4.50e-06	0	43	0	576716800	17	4573
2026-01-15 10:42:11.74	183.27	38.27	-28.6	-30.6	14.2	1.50e-06	0	43	0	578813952	17	4532
2026-01-15 10:42:12.73	183.42	38.51	-28.7	-30.9	14.1	1.50e-06	0	43	0	581959680	17	4606
2026-01-15 10:42:13.74	183.57	38.75	-28.8	-31.0	14.0	3.80e-06	0	43	0	585105408	17	4632
2026-01-15 10:42:14.74	183.72	38.99	-28.8	-30.9	14.0	3.80e-06	0	43	0	588251136	17	4626
2026-01-15 10:42:15.75	183.88	39.23	-28.8	-31.1	14.0	4.50e-06	0	43	0	591396864	17	4667
2026-01-15 10:42:16.74	184.03	39.47	-28.6	-30.6	14.3	7.00e-07	0	43	0	594542592	17	4514
2026-01-15 10:42:17.74	184.19	39.71	-28.5	-30.4	14.4	2.20e-06	0	43	0	597688320	17	4451
2026-01-15 10:42:18.74	184.35	39.96	-28.5	-30.2	14.5	7.00e-07	0	43	0	600834048	17	4400
2026-01-15 10:42:19.74	184.52	40.21	-28.6	-30.6	14.3	1.50e-06	0	43	0	603979776	17	4517
2026-01-15 10:42:20.74	184.68	40.46	-28.7	-30.7	14.2	7.00e-07	0	43	0	607125504	17	4556
2026-01-15 10:42:21.74	184.85	40.71	-28.9	-31.3	13.9	3.00e-06	0	43	0	610271232	17	4724
2026-01-15 10:42:22.75	185.02	40.96	-29.2	-31.5	13.5	7.60e-06	0	43	0	613416960	18	4668
2026-01-15 10:42:23.75	185.20	41.21	-29.3	-31.6	13.3	2.13e-05	0	43	0	616562688	18	4704
2026-01-15 10:42:24.75	185.37	41.47	-29.6	-31.9	12.9	1.83e-05	0	43	0	619708416	19	4713
2026-01-15 10:42:25.76	185.55	41.73	-29.6	-32.0	12.9	5.18e-05	0	43	0	622854144	19	4738
2026-01-15 10:42:26.76	185.74	41.98	-29.7	-32.2	12.8	6.94e-05	0	43	0	625999872	19	4804
2026-01-15 10:42:27.76	185.92	42.24	-29.5	-31.8	13.0	4.65e-05	0	43	0	629145600	19	4661
2026-01-15 10:42:28.76	186.11	42.50	-29.7	-32.3	12.7	5.56e-05	0	43	0	632291328	19	4841
2026-01-15 10:42:29.76	186.30	42.77	-29.7	-32.1	12.8	5.49e-05	0	43	0	635437056	19	4767
2026-01-15 10:42:30.76	186.49	43.03	-29.6	-31.9	13.0	5.72e-05	0	43	0	638582784	19	4709
2026-01-15 10:42:31.76	186.69	43.29	-29.5	-31.8	13.0	4.50e-05	0	43	0	641728512	19	4681
2026-01-15 10:42:32.76	186.89	43.56	-29.7	-32.3	12.7	4.88e-05	0	43	0	644874240	19	4828
2026-01-15 10:42:33.77	187.10	43.83	-29.8	-32.5	12.5	1.06e-04	0	43	0	648019968	19	4892
2026-01-15 10:42:34.76	187.30	44.10	-29.9	-32.3	12.3	1.27e-04	0	43	0	651165696	20	4736
2026-01-15 10:42:35.76	187.51	44.37	-30.1	-32.7	12.1	2.12e-04	0	44	0	654311424	20	4857
2026-01-15 10:42:36.77	187.73	44.64	-30.1	-32.7	12.1	2.89e-04	0	43	0	657457152	20	4865
2026-01-15 10:42:37.78	187.95	44.92	-30.1	-32.7	12.1	3.26e-04	0	43	0	660602880	20	4865
2026-01-15 10:42:38.79	188.17	45.20	-30.1	-32.9	12.0	2.31e-04	0	43	0	663748608	20	4920
2026-01-15 10:42:39.79	188.40	45.48	-30.1	-32.8	12.0	2.89e-04	0	43	0	666894336	20	4891
2026-01-15 10:42:40.80	188.63	45.76	-30.2	-33.1	11.8	3.88e-04	0	43	0	670040064	20	4989
2026-01-15 10:42:41.80	188.86	46.04	-30.2	-32.9	11.9	4.57e-04	0	43	0	673185792	20	4928
2026-01-15 10:42:42.81	189.10	46.32	-30.1	-32.7	12.0	3.62e-04	0	43	0	676331520	20	4878
2026-01-15 10:42:43.81	189.34	46.60	-29.9	-32.3	12.3	1.82e-04	0	43	0	679477248	20	4741
2026-01-15 10:42:44.80	189.59	46.88	-29.8	-32.0	12.5	1.52e-04	0	43	0	682622976	20	4622
2026-01-15 10:42:45.81	189.84	47.17	-29.7	-31.7	12.6	7.01e-05	0	43	0	685768704	20	4546
2026-01-15 10:42:46.81	190.09	47.46	-29.9	-32.1	12.4	9.84e-05	0	43	0	688914432	20	4668
2026-01-15 10:42:47.82	190.35	47.75	-29.6	-31.4	12.9	7.55e-05	0	43	0	692060160	20	4449
2026-01-15 10:42:48.82	190.62	48.04	-29.6	-31.5	12.9	4.19e-05	0	43	0	695205888	20	4475
2026-01-15 10:42:49.82	190.89	48.33	-29.3	-30.8	13.3	2.59e-05	0	43	0	698351616	20	4251
2026-01-15 10:42:50.82	191.16	48.62	-29.3	-31.2	13.4	1.90e-05	0	43	0	701497344	19	4477
2026-01-15 10:42:51.83	191.44	48.92	-29.5	-31.7	13.1	3.05e-05	0	43	0	704643072	19	4637
2026-01-15 10:42:52.83	191.73	49.21	-29.4	-31.4	13.3	2.67e-05	0	43	0	707788800	19	4550
2026-01-15 10:42:53.83	192.02	49.51	-29.3	-31.2	13.4	9.90e-06	0	43	0	710934528	19	4493
2026-01-15 10:42:54.84	192.32	49.81	-29.5	-31.6	13.2	2.51e-05	0	43	0	714080256	19	4609
2026-01-15 10:42:55.84	192.62	50.10	-29.7	-32.2	12.9	5.34e-05	0	43	0	717225984	19	4783
2026-01-15 10:42:56.84	192.93	50.40	-29.9	-32.4	12.4	1.15e-04	0	43	0	720371712	20	4747
2026-01-15 10:42:57.84	193.24	50.70	-29.8	-31.9	12.6	9.76e-05	0	43	0	723517440	20	4601
2026-01-15 10:42:58.85	193.56	51.01	-29.3	-31.3	13.4	1.37e-05	0	43	0	726663168	19	4512
2026-01-15 10:42:59.85	193.89	51.31	-29.0	-30.5	13.8	3.00e-06	0	43	0	729808896	19	4274
2026-01-15 10:43:00.86	194.23	51.61	-28.8	-30.1	14.1	1.50e-06	0	44	0	732954624	19	4145
2026-01-15 10:43:01.86	194.57	51.92	-28.7	-30.3	14.3	7.00e-07	0	43	0	736100352	18	4317
2026-01-15 10:43:02.86	194.91	52.22	-28.7	-30.3	14.3	0.00e+00	0	43	0	739246080	18	4326
2026-01-15 10:43:03.86	195.27	52.53	-28.7	-30.2	14.3	2.20e-06	0	44	0	742391808	18	4304
2026-01-15 10:43:04.86	195.63	52.84	-28.7	-30.3	14.4	7.00e-07	0	43	0	745537536	18	4312
2026-01-15 10:43:05.87	196.00	53.15	-28.9	-30.8	14.0	2.20e-06	0	43	0	748683264	18	4460
2026-01-15 10:43:06.87	196.38	53.45	-28.5	-29.7	14.6	0.00e+00	0	44	0	751828992	18	4156
2026-01-15 10:43:07.88	196.76	53.77	-28.4	-29.5	14.8	7.00e-07	0	44	0	754974720	18	4105
2026-01-15 10:43:08.88	197.16	54.07	-28.5	-29.8	14.6	0.00e+00	0	44	0	758120448	18	4170
2026-01-15 10:43:09.87	197.55	54.38	-28.7	-30.3	14.3	0.00e+00	0	44	0	761266176	18	4317
2026-01-15 10:43:10.87	197.96	54.69	-28.7	-30.2	14.4	0.00e+00	0	44	0	764411904	18	4310
2026-01-15 10:43:11.88	198.39	55.00	-28.4	-29.6	14.7	0.00e+00	0	44	0	767557632	18	4133
2026-01-15 10:43:12.88	198.81	55.31	-28.3	-29.4	14.9	0.00e+00	0	44	0	770703360	18	4066
2026-01-15 10:43:13.89	199.26	55.63	-28.3	-29.4	14.8	0.00e+00	0	44	0	773849088	18	4058
2026-01-15 10:43:14.89	199.70	55.94	-28.2	-29.5	15.1	7.00e-07	0	44	0	776994816	17	4198
2026-01-15 10:43:15.90	200.16	56.25	-28.5	-30.2	14.7	0.00e+00	0	44	0	780140544	17	4408
2026-01-15 10:43:16.90	200.63	56.56	-28.6	-30.5	14.5	7.00e-07	0	44	0	783286272	17	4488
2026-01-15 10:43:17.90	201.11	56.88	-28.6	-30.5	14.5	0.00e+00	0	44	0	786432000	17	4484
2026-01-15 10:43:18.90	201.60	57.19	-28.7	-30.7	14.4	1.50e-06	0	44	0	789577728	17	4538
2026-01-15 10:43:19.90	202.10	57.50	-28.5	-30.4	14.6	0.00e+00	0	44	0	792723456	17	4448
2026-01-15 10:43:20.91	202.61	57.81	-28.3	-29.9	14.9	0.00e+00	0	44	0	795869184	17	4295
2026-01-15 10:43:21.91	203.14	58.12	-28.3	-29.7	15.0	0.00e+00	0	44	0	799014912	17	4251
2026-01-15 10:43:22.92	203.68	58.43	-28.3	-29.8	14.9	0.00e+00	0	44	0	802160640	17	4258
2026-01-15 10:43:23.92	204.23	58.74	-27.9	-28.8	15.5	0.00e+00	0	44	0	805306368	17	4005
2026-01-15 10:43:24.92	204.79	59.05	-28.2	-29.5	15.1	0.00e+00	0	44	0	808452096	17	4179
2026-01-15 10:43:25.92	205.36	59.35	-27.9	-28.9	15.5	0.00e+00	0	44	0	811597824	17	4023
2026-01-15 10:43:26.93	205.95	59.66	-27.6	-28.6	15.9	0.00e+00	0	44	0	814743552	16	4059
2026-01-15 10:43:27.93	206.55	59.96	-26.9	-27.7	16.4	0.00e+00	0	44	0	817889280	15	3935
2026-01-15 10:43:28.94	207.18	60.27	-26.5	-27.3	16.9	0.00e+00	0	44	0	821035008	14	3938
2026-01-15 10:43:29.94	207.81	60.57	-26.4	-27.0	17.2	0.00e+00	0	44	0	824180736	14	3859
2026-01-15 10:43:30.95	208.46	60.87	-26.3	-27.4	17.1	0.00e+00	0	44	0	827326464	13	4066
2026-01-15 10:43:31.95	209.12	61.17	-26.5	-27.9	16.9	0.00e+00	0	44	0	830472192	13	4195
2026-01-15 10:43:32.95	209.79	61.47	-27.0	-28.5	16.3	0.00e+00	0	44	0	832569344	14	4252
2026-01-15 10:43:33.95	210.49	61.76	-26.8	-28.0	16.6	0.00e+00	0	44	0	835715072	14	4123
2026-01-15 10:43:34.95	211.20	62.05	-26.3	-26.9	17.1	0.00e+00	0	44	0	838860800	14	3850
2026-01-15 10:43:35.95	211.92	62.34	-26.2	-27.1	17.3	0.00e+00	0	44	0	842006528	13	3991
2026-01-15 10:43:36.96	212.67	62.63	-26.4	-27.5	17.1	0.00e+00	0	44	0	845152256	13	4097
2026-01-15 10:43:37.96	213.43	62.91	-26.2	-27.1	17.3	0.00e+00	0	44	0	848297984	13	3992
2026-01-15 10:43:38.96	214.21	63.19	-26.1	-27.0	17.4	0.00e+00	0	44	0	851443712	13	3962
2026-01-15 10:43:39.97	215.02	63.47	-26.2	-27.2	17.3	0.00e+00	0	44	0	854589440	13	4012
2026-01-15 10:43:40.97	215.83	63.74	-26.0	-26.7	17.5	0.00e+00	0	44	0	857735168	13	3897
2026-01-15 10:43:41.98	216.67	64.01	-26.0	-26.7	17.4	0.00e+00	0	44	0	860880896	13	3897
2026-01-15 10:43:42.99	217.54	64.28	-26.2	-27.2	17.2	0.00e+00	0	44	0	864026624	13	4026
2026-01-15 10:43:43.99	218.41	64.54	-25.6	-26.3	17.9	0.00e+00	0	44	0	867172352	12	3908
2026-01-15 10:43:45.00	219.31	64.80	-25.5	-26.2	18.0	0.00e+00	0	44	0	870318080	12	3876
2026-01-15 10:43:46.00	220.23	65.05	-25.7	-26.6	17.7	0.00e+00	0	44	0	873463808	12	3972
2026-01-15 10:43:47.01	221.17	65.29	-26.0	-27.2	17.4	0.00e+00	0	44	0	876609536	12	4128
2026-01-15 10:43:48.01	222.13	65.53	-26.4	-28.1	17.0	0.00e+00	0	44	0	879755264	12	4371
2026-01-15 10:43:49.01	223.10	65.77	-26.3	-27.8	17.1	0.00e+00	0	44	0	882900992	12	4304
2026-01-15 10:43:50.01	224.10	66.00	-26.0	-27.3	17.5	0.00e+00	0	44	0	886046720	12	4141
2026-01-15 10:43:51.01	225.12	66.22	-26.1	-27.3	17.4	0.00e+00	0	44	0	889192448	12	4169
2026-01-15 10:43:52.01	226.16	66.44	-26.2	-27.7	17.2	0.00e+00	0	44	0	892338176	12	4270
2026-01-15 10:43:53.01	227.22	66.65	-25.8	-26.8	17.8	0.00e+00	0	44	0	895483904	12	4025
2026-01-15 10:43:54.01	228.30	66.85	-26.1	-27.4	17.5	0.00e+00	0	44	0	898629632	12	4174
2026-01-15 10:43:55.01	229.40	67.05	-26.0	-27.2	17.6	0.00e+00	0	44	0	901775360	12	4147
2026-01-15 10:43:56.01	230.52	67.24	-26.1	-27.4	17.4	0.00e+00	0	44	0	904921088	12	4194
2026-01-15 10:43:57.01	231.66	67.42	-25.7	-26.6	17.8	0.00e+00	0	44	0	908066816	12	3992
2026-01-15 10:43:58.00	232.81	67.59	-25.6	-26.4	18.0	0.00e+00	0	44	0	911212544	12	3927
2026-01-15 10:43:59.01	234.00	67.76	-25.7	-26.6	17.9	0.00e+00	0	44	0	914358272	12	3976
2026-01-15 10:44:00.01	235.20	67.92	-25.7	-26.5	17.9	0.00e+00	0	44	0	917504000	12	3957
2026-01-15 10:44:01.01	236.41	68.06	-25.7	-26.5	17.9	0.00e+00	0	44	0	920649728	12	3955
2026-01-15 10:44:02.01	237.65	68.20	-25.6	-26.2	18.0	0.00e+00	0	44	0	923795456	12	3891
2026-01-15 10:44:03.02	238.91	68.34	-25.5	-26.2	18.1	0.00e+00	0	44	0	926941184	12	3883
2026-01-15 10:44:04.02	240.18	68.46	-26.1	-27.5	17.4	0.00e+00	0	44	0	930086912	12	4207
2026-01-15 10:44:05.03	241.47	68.57	-26.1	-27.3	17.4	0.00e+00	0	44	0	933232640	12	4172
2026-01-15 10:44:06.03	242.76	68.67	-26.0	-27.3	17.6	0.00e+00	0	44	0	936378368	12	4153
2026-01-15 10:44:07.03	244.07	68.76	-25.8	-26.9	17.7	0.00e+00	0	44	0	939524096	12	4044
2026-01-15 10:44:08.03	245.39	68.84	-25.9	-27.0	17.6	0.00e+00	0	44	0	942669824	12	4072
2026-01-15 10:44:09.03	246.72	68.91	-26.5	-27.8	16.9	0.00e+00	0	44	0	945815552	13	4183
2026-01-15 10:44:10.03	248.05	68.97	-26.5	-27.9	16.9	7.00e-07	0	44	0	948961280	13	4212
2026-01-15 10:44:11.03	249.40	69.02	-26.5	-27.9	16.9	0.00e+00	0	44	0	952107008	13	4208
2026-01-15 10:44:12.03	250.75	69.06	-26.5	-27.9	17.0	0.00e+00	0	44	0	955252736	13	4206
2026-01-15 10:44:13.03	252.11	69.09	-26.6	-28.0	16.9	1.50e-06	0	44	0	958398464	13	4219
2026-01-15 10:44:14.03	253.46	69.11	-26.5	-27.8	17.0	0.00e+00	0	44	0	961544192	13	4175
2026-01-15 10:44:15.03	254.82	69.11	-26.2	-27.2	17.3	0.00e+00	0	44	0	964689920	13	4016
2026-01-15 10:44:16.04	256.20	69.11	-26.2	-27.0	17.4	2.20e-06	0	44	0	967835648	13	3976
2026-01-15 10:44:17.04	257.56	69.09	-26.7	-28.2	16.7	0.00e+00	0	44	0	970981376	13	4301
2026-01-15 10:44:18.04	258.91	69.07	-26.6	-28.0	16.8	0.00e+00	0	44	0	974127104	13	4249
2026-01-15 10:44:19.05	260.28	69.03	-26.6	-27.9	16.9	1.50e-06	0	44	0	977272832	13	4205
2026-01-15 10:44:20.06	261.64	68.98	-26.3	-27.2	17.3	0.00e+00	0	44	0	980418560	13	4029
2026-01-15 10:44:21.06	262.98	68.92	-26.7	-28.2	16.8	0.00e+00	0	44	0	983564288	13	4289
2026-01-15 10:44:22.05	264.29	68.85	-26.5	-27.8	17.0	3.80e-06	0	44	0	986710016	13	4188
2026-01-15 10:44:23.06	265.62	68.77	-26.9	-28.6	16.6	0.00e+00	0	44	0	989855744	13	4401
2026-01-15 10:44:24.06	266.93	68.68	-26.5	-27.8	17.0	0.00e+00	0	44	0	993001472	13	4168
2026-01-15 10:44:25.07	268.24	68.58	-26.1	-26.9	17.4	0.00e+00	0	44	0	996147200	13	3952
2026-01-15 10:44:26.06	269.51	68.47	-26.1	-26.9	17.5	0.00e+00	0	44	0	999292928	13	3936
2026-01-15 10:44:27.06	270.78	68.36	-25.9	-26.4	17.7	0.00e+00	0	44	0	1002438656	13	3828
2026-01-15 10:44:28.06	272.03	68.23	-26.2	-27.0	17.5	5.30e-06	0	44	0	1005584384	13	3962
2026-01-15 10:44:29.06	273.27	68.09	-26.2	-27.1	17.4	0.00e+00	0	44	0	1008730112	13	3979
2026-01-15 10:44:30.06	274.48	67.94	-26.5	-27.7	17.1	0.00e+00	0	44	0	1011875840	13	4154
2026-01-15 10:44:31.07	275.70	67.79	-26.5	-27.8	17.1	0.00e+00	0	44	0	1015021568	13	4175
2026-01-15 10:44:32.07	276.88	67.62	-25.9	-26.5	17.7	0.00e+00	0	44	0	1018167296	13	3856
2026-01-15 10:44:33.07	278.04	67.45	-25.6	-26.4	18.0	0.00e+00	0	44	0	1021313024	12	3922
2026-01-15 10:44:34.08	279.19	67.27	-26.0	-27.2	17.6	0.00e+00	0	44	0	1024458752	12	4136
2026-01-15 10:44:35.08	280.32	67.08	-26.2	-27.5	17.5	0.00e+00	0	44	0	1027604480	12	4219
2026-01-15 10:44:36.09	281.43	66.88	-26.6	-27.9	17.0	0.00e+00	0	44	0	1030750208	13	4213
2026-01-15 10:44:37.09	282.51	66.68	-26.9	-28.7	16.6	0.00e+00	0	44	0	1033895936	13	4412
2026-01-15 10:44:38.09	283.57	66.47	-26.8	-28.5	16.7	0.00e+00	0	44	0	1037041664	13	4374
2026-01-15 10:44:39.08	284.60	66.26	-26.7	-28.3	16.8	0.00e+00	0	44	0	1040187392	13	4313
2026-01-15 10:44:40.09	285.63	66.03	-26.5	-27.7	17.1	0.00e+00	0	44	0	1043333120	13	4153
2026-01-15 10:44:41.09	286.63	65.81	-26.7	-28.2	16.9	0.00e+00	0	44	0	1046478848	13	4268
2026-01-15 10:44:42.09	287.61	65.57	-26.9	-28.6	16.6	0.00e+00	0	44	0	1049624576	13	4403
2026-01-15 10:44:43.10	288.57	65.33	-26.9	-28.8	16.5	0.00e+00	0	44	0	1052770304	13	4440
2026-01-15 10:44:44.10	289.51	65.09	-27.0	-28.3	16.5	0.00e+00	0	44	0	1055916032	14	4197
2026-01-15 10:44:45.11	290.44	64.83	-27.1	-28.7	16.3	0.00e+00	0	44	0	1059061760	14	4298
2026-01-15 10:44:46.11	291.33	64.58	-27.4	-29.2	16.0	0.00e+00	0	44	0	1061158912	14	4434
2026-01-15 10:44:47.12	292.22	64.32	-26.8	-27.9	16.8	0.00e+00	0	44	0	1064304640	14	4081
2026-01-15 10:44:48.12	293.07	64.05	-26.6	-27.4	17.0	0.00e+00	0	44	0	1068498944	14	3963
2026-01-15 10:44:49.13	293.92	63.78	-26.7	-27.7	16.8	0.00e+00	0	44	0	1071644672	14	4047
2026-01-15 10:44:50.13	294.73	63.51	-26.9	-28.2	16.5	0.00e+00	0	44	0	1074790400	14	4184
2026-01-15 10:44:51.13	295.53	63.24	-26.8	-27.9	16.7	0.00e+00	0	44	0	1077936128	14	4101
2026-01-15 10:44:52.14	296.32	62.96	-26.4	-27.0	17.2	0.00e+00	0	44	0	1081081856	14	3869
2026-01-15 10:44:53.14	297.08	62.68	-25.9	-26.9	16.9	0.00e+00	0	44	0	1084227584	13	4032
2026-01-15 10:44:54.15	297.83	62.39	-25.0	-27.3	15.3	0.00e+00	0	44	0	1086324736	11	4665
2026-01-15 10:44:55.15	298.56	62.10	-25.4	-28.5	14.4	0.00e+00	0	44	0	1089470464	11	5141
2026-01-15 10:44:56.14	299.26	61.82	-26.2	-29.5	14.0	2.20e-06	0	44	0	1092616192	12	5271
2026-01-15 10:44:57.15	299.97	61.52	-26.8	-29.3	15.2	0.00e+00	0	44	0	1095761920	13	4772
2026-01-15 10:44:58.15	300.64	61.23	-26.8	-28.7	16.2	0.00e+00	0	44	0	1098907648	13	4468
2026-01-15 10:44:59.15	301.30	60.93	-26.3	-27.5	16.8	0.00e+00	0	44	0	1102053376	13	4135
2026-01-15 10:45:00.16	301.96	60.63	-26.4	-27.6	16.8	0.00e+00	0	44	0	1105199104	13	4166
2026-01-15 10:45:01.16	302.59	60.33	-26.7	-28.3	16.7	0.00e+00	0	44	0	1108344832	13	4319
2026-01-15 10:45:02.16	303.21	60.03	-27.0	-28.5	16.4	0.00e+00	0	44	0	1111490560	14	4266
2026-01-15 10:45:03.17	303.81	59.72	-27.9	-30.0	15.3	0.00e+00	0	44	0	1114636288	15	4566
2026-01-15 10:45:04.17	304.40	59.42	-28.2	-30.1	15.2	0.00e+00	0	44	0	1117782016	16	4474
2026-01-15 10:45:05.17	304.98	59.11	-28.1	-29.7	15.4	0.00e+00	0	44	0	1120927744	16	4363
2026-01-15 10:45:06.17	305.54	58.81	-27.9	-29.4	15.6	0.00e+00	0	44	0	1124073472	16	4258
2026-01-15 10:45:07.17	306.09	58.50	-28.0	-29.6	15.5	0.00e+00	0	44	0	1127219200	16	4323
2026-01-15 10:45:08.18	306.63	58.19	-28.6	-30.4	14.7	0.00e+00	0	44	0	1130364928	17	4433
2026-01-15 10:45:09.18	307.15	57.88	-28.7	-30.6	14.7	0.00e+00	0	44	0	1133510656	17	4504
2026-01-15 10:45:10.17	307.66	57.58	-28.9	-31.1	14.3	7.00e-07	0	44	0	1136656384	17	4643
2026-01-15 10:45:11.18	308.17	57.26	-28.6	-30.5	14.8	0.00e+00	0	44	0	1139802112	17	4460
2026-01-15 10:45:12.18	308.66	56.96	-28.6	-30.5	14.7	3.00e-06	0	44	0	1142947840	17	4459
2026-01-15 10:45:13.19	309.14	56.64	-28.2	-29.6	15.2	0.00e+00	0	44	0	1146093568	17	4198
2026-01-15 10:45:14.18	309.61	56.34	-27.7	-28.8	15.9	0.00e+00	0	44	0	1149239296	16	4109
2026-01-15 10:45:15.19	310.07	56.02	-27.8	-29.0	15.8	0.00e+00	0	44	0	1152385024	16	4168
2026-01-15 10:45:16.19	310.52	55.71	-28.6	-30.4	14.8	0.00e+00	0	44	0	1155530752	17	4429
2026-01-15 10:45:17.19	310.96	55.40	-29.5	-32.0	13.5	9.10e-06	0	44	0	1158676480	18	4802
2026-01-15 10:45:18.18	311.38	55.10	-29.3	-31.7	13.7	9.90e-06	0	44	0	1161822208	18	4718
2026-01-15 10:45:19.19	311.80	54.78	-29.9	-32.1	12.8	4.27e-05	0	44	0	1164967936	20	4641
2026-01-15 10:45:20.19	312.21	54.48	-29.9	-32.1	12.7	7.93e-05	0	44	0	1168113664	20	4644
2026-01-15 10:45:21.19	312.62	54.17	-29.7	-31.6	12.9	7.09e-05	0	44	0	1171259392	20	4476
2026-01-15 10:45:22.19	313.01	53.86	-29.1	-30.5	14.0	8.30e-06	0	44	0	1174405120	19	4247
2026-01-15 10:45:23.20	313.40	53.55	-28.3	-29.2	15.1	0.00e+00	0	44	0	1177550848	18	3997
2026-01-15 10:45:24.20	313.78	53.24	-28.1	-29.3	15.4	0.00e+00	0	44	0	1180696576	17	4118
2026-01-15 10:45:25.20	314.15	52.94	-28.4	-29.9	15.0	0.00e+00	0	44	0	1183842304	17	4277
2026-01-15 10:45:26.21	314.51	52.63	-28.4	-30.0	14.9	0.00e+00	0	44	0	1186988032	17	4315
2026-01-15 10:45:27.21	314.87	52.32	-29.1	-31.1	14.1	6.80e-06	0	44	0	1190133760	18	4529
2026-01-15 10:45:28.22	315.22	52.02	-29.6	-31.8	13.4	1.14e-05	0	44	0	1193279488	19	4638
2026-01-15 10:45:29.22	315.56	51.71	-30.4	-33.3	12.0	2.94e-04	0	44	0	1196425216	20	5053
2026-01-15 10:45:30.22	315.89	51.41	-30.4	-33.3	11.9	3.46e-04	0	44	0	1199570944	20	5055
2026-01-15 10:45:31.23	316.22	51.11	-30.2	-32.8	12.2	4.63e-04	0	44	0	1202716672	20	4865
2026-01-15 10:45:32.23	316.54	50.81	-29.4	-30.9	13.4	2.82e-05	0	44	0	1205862400	20	4271
2026-01-15 10:45:33.23	316.86	50.51	-29.1	-30.7	13.9	7.60e-06	0	44	0	1209008128	19	4303
2026-01-15 10:45:34.23	317.17	50.21	-28.8	-29.9	14.4	7.00e-07	0	44	0	1212153856	19	4071
2026-01-15 10:45:35.23	317.47	49.91	-28.4	-29.4	15.0	0.00e+00	0	44	0	1215299584	18	4056
2026-01-15 10:45:36.23	317.77	49.62	-28.7	-30.0	14.7	1.50e-06	0	44	0	1218445312	18	4213
2026-01-15 10:45:37.23	318.06	49.32	-29.3	-31.6	13.8	2.20e-06	0	44	0	1221591040	18	4678
2026-01-15 10:45:38.24	318.34	49.03	-29.8	-32.2	13.1	1.60e-05	0	44	0	1224736768	19	4783
2026-01-15 10:45:39.24	318.62	48.74	-30.3	-33.2	12.1	1.93e-04	0	44	0	1227882496	20	5020
2026-01-15 10:45:40.25	318.90	48.44	-30.4	-33.3	12.0	2.87e-04	0	44	0	1231028224	20	5044
2026-01-15 10:45:41.25	319.17	48.15	-30.1	-32.6	12.5	1.56e-04	0	44	0	1234173952	20	4795
2026-01-15 10:45:42.25	319.44	47.86	-29.9	-32.0	12.8	4.65e-05	0	44	0	1237319680	20	4605
2026-01-15 10:45:43.26	319.70	47.57	-29.9	-32.1	12.7	8.01e-05	0	44	0	1240465408	20	4624
2026-01-15 10:45:44.27	319.96	47.29	-29.7	-31.6	13.0	3.66e-05	0	44	0	1243611136	20	4468
2026-01-15 10:45:45.27	320.21	47.00	-29.9	-32.2	12.7	4.34e-05	0	44	0	1246756864	20	4652
2026-01-15 10:45:46.28	320.46	46.72	-30.0	-32.4	12.6	1.04e-04	0	44	0	1249902592	20	4715
2026-01-15 10:45:47.28	320.70	46.43	-29.9	-32.1	12.8	5.72e-05	0	44	0	1253048320	20	4633
2026-01-15 10:45:48.28	320.94	46.15	-30.0	-32.2	12.7	7.24e-05	0	44	0	1256194048	20	4668
2026-01-15 10:45:49.28	321.17	45.88	-30.3	-33.0	12.2	1.49e-04	0	44	0	1259339776	20	4933
2026-01-15 10:45:50.29	321.40	45.60	-30.4	-33.4	12.0	2.53e-04	0	44	0	1262485504	20	5086
2026-01-15 10:45:51.29	321.63	45.32	-30.8	-33.9	11.3	1.16e-03	0	44	0	1265631232	21	5130
2026-01-15 10:45:52.29	321.85	45.05	-30.9	-34.2	11.2	1.15e-03	0	44	0	1268776960	21	5257
2026-01-15 10:45:53.29	322.07	44.77	-31.2	-34.6	10.4	4.02e-03	0	44	0	1271922688	22	5326
2026-01-15 10:45:54.30	322.29	44.50	-31.3	-34.8	10.3	4.35e-03	0	44	0	1275068416	22	5395
2026-01-15 10:45:55.29	322.50	44.23	-31.3	-35.0	10.3	7.25e-03	0	44	0	1278214144	22	5465
2026-01-15 10:45:56.29	322.70	43.96	-30.8	-33.4	11.3	1.53e-03	0	44	0	1281359872	22	4845
2026-01-15 10:45:57.29	322.91	43.69	-30.3	-32.1	12.1	3.68e-04	0	44	0	1284505600	22	4419
2026-01-15 10:45:58.29	323.11	43.43	-30.1	-32.2	12.4	1.27e-04	0	44	0	1287651328	21	4555
2026-01-15 10:45:59.29	323.31	43.17	-30.2	-32.3	12.3	1.94e-04	0	44	0	1290797056	21	4594
2026-01-15 10:46:00.30	323.50	42.90	-30.4	-32.7	12.0	2.34e-04	0	44	0	1293942784	21	4733
2026-01-15 10:46:01.30	323.69	42.64	-30.7	-33.6	11.5	6.36e-04	0	44	0	1297088512	21	5033
2026-01-15 10:46:02.31	323.88	42.38	-30.4	-32.9	11.9	5.16e-04	0	44	0	1300234240	21	4778
2026-01-15 10:46:03.31	324.07	42.12	-29.9	-31.5	12.7	1.06e-04	0	44	0	1303379968	21	4358
2026-01-15 10:46:04.31	324.25	41.86	-29.3	-30.6	13.6	1.98e-05	0	44	0	1306525696	20	4192
2026-01-15 10:46:05.31	324.43	41.61	-29.1	-30.7	14.0	2.20e-06	0	44	0	1309671424	19	4306
2026-01-15 10:46:06.32	324.61	41.35	-29.1	-30.6	14.0	1.50e-06	0	44	0	1312817152	19	4281
2026-01-15 10:46:07.32	324.78	41.10	-29.1	-30.6	13.9	2.20e-06	0	44	0	1315962880	19	4288
2026-01-15 10:46:08.32	324.96	40.85	-29.1	-30.6	14.0	5.30e-06	0	44	0	1319108608	19	4277
2026-01-15 10:46:09.32	325.13	40.60	-29.2	-30.9	13.8	4.50e-06	0	44	0	1322254336	19	4360
2026-01-15 10:46:10.32	325.29	40.35	-29.5	-31.6	13.4	1.29e-05	0	44	0	1325400064	19	4586
2026-01-15 10:46:11.33	325.46	40.10	-29.7	-32.1	13.1	1.83e-05	0	44	0	1328545792	19	4748
2026-01-15 10:46:12.34	325.62	39.85	-29.8	-32.3	13.0	5.87e-05	0	44	0	1331691520	19	4807
2026-01-15 10:46:13.34	325.78	39.61	-29.9	-32.6	12.8	5.79e-05	0	44	0	1334837248	19	4902
2026-01-15 10:46:14.34	325.94	39.37	-30.0	-32.7	12.7	7.78e-05	0	44	0	1336934400	19	4951
2026-01-15 10:46:15.35	326.09	39.13	-29.9	-32.6	12.8	7.09e-05	0	44	0	1340080128	19	4910
2026-01-15 10:46:16.35	326.25	38.89	-30.0	-32.7	12.7	6.33e-05	0	44	0	1343225856	19	4946
2026-01-15 10:46:17.35	326.40	38.65	-30.3	-33.0	12.1	1.59e-04	0	44	0	1346371584	20	4946
2026-01-15 10:46:18.35	326.54	38.41	-30.5	-33.2	11.7	6.86e-04	0	44	0	1349517312	21	4887
2026-01-15 10:46:19.36	326.69	38.18	-30.1	-32.2	12.2	2.55e-04	0	44	0	1352663040	21	4581
2026-01-15 10:46:20.36	326.84	37.94	-29.7	-31.7	12.9	7.40e-05	0	44	0	1355808768	20	4521
2026-01-15 10:46:21.37	326.98	37.71	-29.3	-31.1	13.6	1.83e-05	0	44	0	1358954496	19	4444
2026-01-15 10:46:22.37	327.12	37.48	-28.9	-30.2	14.2	7.00e-07	0	44	0	1362100224	19	4163
2026-01-15 10:46:23.37	327.26	37.25	-28.6	-29.9	14.6	0.00e+00	0	44	0	1365245952	18	4193
2026-01-15 10:46:24.36	327.39	37.02	-28.3	-29.3	15.0	0.00e+00	0	44	0	1368391680	18	4032
2026-01-15 10:46:25.36	327.53	36.80	-28.2	-29.5	15.1	0.00e+00	0	44	0	1371537408	17	4189
2026-01-15 10:46:26.37	327.66	36.57	-28.0	-29.1	15.4	0.00e+00	0	44	0	1374683136	17	4073
2026-01-15 10:46:27.37	327.79	36.35	-28.0	-29.2	15.3	0.00e+00	0	44	0	1377828864	17	4100
2026-01-15 10:46:28.37	327.92	36.13	-28.0	-29.1	15.3	0.00e+00	0	44	0	1380974592	17	4094
2026-01-15 10:46:29.38	328.05	35.90	-28.1	-29.3	15.3	0.00e+00	0	44	0	1384120320	17	4126
2026-01-15 10:46:30.37	328.18	35.69	-28.1	-29.4	15.2	0.00e+00	0	44	0	1387266048	17	4150
2026-01-15 10:46:31.38	328.30	35.47	-28.1	-29.3	15.2	0.00e+00	0	44	0	1390411776	17	4124
2026-01-15 10:46:32.38	328.42	35.25	-28.2	-29.5	15.1	0.00e+00	0	44	0	1393557504	17	4181
2026-01-15 10:46:33.38	328.55	35.03	-28.2	-29.6	15.1	0.00e+00	0	44	0	1396703232	17	4222
2026-01-15 10:46:34.39	328.67	34.82	-28.2	-29.6	15.0	7.00e-07	0	44	0	1399848960	17	4217
2026-01-15 10:46:35.39	328.79	34.60	-28.1	-29.2	15.2	0.00e+00	0	44	0	1402994688	17	4111
2026-01-15 10:46:36.39	328.90	34.39	-28.1	-29.3	15.2	0.00e+00	0	44	0	1406140416	17	4133
2026-01-15 10:46:37.40	329.02	34.18	-28.4	-30.0	14.8	0.00e+00	0	44	0	1409286144	17	4332
2026-01-15 10:46:38.40	329.13	33.97	-28.7	-30.6	14.5	0.00e+00	0	44	0	1412431872	17	4511
2026-01-15 10:46:39.40	329.24	33.77	-29.0	-31.3	14.1	0.00e+00	0	44	0	1415577600	17	4730
2026-01-15 10:46:40.40	329.36	33.56	-29.0	-31.0	14.1	1.50e-06	0	44	0	1418723328	18	4504
2026-01-15 10:46:41.40	329.47	33.36	-29.1	-31.1	13.9	3.00e-06	0	44	0	1421869056	18	4559
2026-01-15 10:46:42.40	329.57	33.15	-29.0	-31.0	13.9	3.00e-06	0	44	0	1425014784	18	4525
2026-01-15 10:46:43.41	329.68	32.95	-28.8	-30.4	14.3	1.50e-06	0	44	0	1428160512	18	4343
2026-01-15 10:46:44.41	329.79	32.75	-28.6	-29.9	14.6	7.00e-07	0	44	0	1431306240	18	4203
2026-01-15 10:46:45.41	329.89	32.55	-28.4	-29.5	14.9	0.00e+00	0	44	0	1434451968	18	4086
2026-01-15 10:46:46.42	330.00	32.35	-28.2	-29.5	15.1	0.00e+00	0	44	0	1437597696	17	4191
2026-01-15 10:46:47.42	330.10	32.15	-27.8	-28.7	15.5	0.00e+00	0	44	0	1440743424	17	3970
2026-01-15 10:46:48.43	330.20	31.95	-27.6	-28.6	15.8	0.00e+00	0	44	0	1443889152	16	4066
2026-01-15 10:46:49.44	330.30	31.75	-27.8	-29.2	15.5	0.00e+00	0	44	0	1447034880	16	4214
2026-01-15 10:46:50.44	330.40	31.56	-27.9	-29.5	15.4	0.00e+00	0	44	0	1450180608	16	4292
2026-01-15 10:46:51.45	330.50	31.37	-27.7	-29.0	15.6	7.00e-07	0	44	0	1453326336	16	4169
2026-01-15 10:46:52.46	330.60	31.17	-27.6	-28.8	15.8	0.00e+00	0	44	0	1456472064	16	4100
2026-01-15 10:46:53.46	330.69	30.98	-27.5	-28.4	16.0	0.00e+00	0	44	0	1459617792	16	3995
2026-01-15 10:46:54.46	330.79	30.79	-27.4	-28.3	16.0	0.00e+00	0	44	0	1462763520	16	3975
2026-01-15 10:46:55.46	330.88	30.61	-27.5	-28.4	16.0	0.00e+00	0	44	0	1465909248	16	4007
2026-01-15 10:46:56.46	330.97	30.42	-27.4	-28.3	16.0	0.00e+00	0	44	0	1469054976	16	3982
2026-01-15 10:46:57.46	331.06	30.23	-27.4	-28.2	16.0	0.00e+00	0	44	0	1472200704	16	3968
2026-01-15 10:46:58.47	331.15	30.05	-27.5	-28.4	15.9	0.00e+00	0	44	0	1475346432	16	4002
2026-01-15 10:46:59.46	331.24	29.87	-27.5	-28.4	15.9	0.00e+00	0	44	0	1478492160	16	4019
2026-01-15 10:47:00.47	331.33	29.68	-27.4	-28.3	15.9	0.00e+00	0	44	0	1481637888	16	3982
2026-01-15 10:47:01.47	331.42	29.50	-27.6	-28.6	15.8	0.00e+00	0	44	0	1484783616	16	4056
2026-01-15 10:47:02.47	331.50	29.32	-27.6	-28.7	15.7	0.00e+00	0	44	0	1487929344	16	4095
2026-01-15 10:47:03.47	331.59	29.14	-27.7	-29.0	15.6	0.00e+00	0	44	0	1491075072	16	4169
2026-01-15 10:47:04.48	331.68	28.96	-27.8	-29.2	15.5	0.00e+00	0	44	0	1494220800	16	4219
2026-01-15 10:47:05.49	331.76	28.79	-27.9	-29.4	15.4	0.00e+00	0	44	0	1497366528	16	4276
2026-01-15 10:47:06.50	331.84	28.61	-27.9	-29.4	15.3	0.00e+00	0	44	0	1500512256	16	4277
2026-01-15 10:47:07.50	331.93	28.43	-28.0	-29.6	15.3	0.00e+00	0	44	0	1503657984	16	4322
2026-01-15 10:47:08.51	332.01	28.26	-28.0	-29.7	15.2	0.00e+00	0	44	0	1506803712	16	4347
2026-01-15 10:47:09.51	332.09	28.09	-28.2	-30.0	15.0	0.00e+00	0	44	0	1509949440	16	4436
2026-01-15 10:47:10.51	332.17	27.91	-28.2	-30.1	15.0	0.00e+00	0	44	0	1513095168	16	4471
2026-01-15 10:47:11.52	332.25	27.74	-28.2	-30.0	15.0	0.00e+00	0	44	0	1516240896	16	4460
2026-01-15 10:47:12.52	332.32	27.57	-28.2	-30.0	15.0	0.00e+00	0	44	0	1519386624	16	4448
2026-01-15 10:47:13.52	332.40	27.40	-28.1	-29.9	15.0	0.00e+00	0	44	0	1522532352	16	4428
2026-01-15 10:47:14.52	332.48	27.24	-27.9	-29.3	15.4	0.00e+00	0	44	0	1525678080	16	4262
2026-01-15 10:47:15.53	332.55	27.07	-27.8	-29.2	15.4	0.00e+00	0	44	0	1528823808	16	4220
2026-01-15 10:47:16.53	332.63	26.90	-27.9	-29.4	15.4	0.00e+00	0	44	0	1531969536	16	4273
2026-01-15 10:47:17.53	332.70	26.74	-27.8	-29.2	15.4	0.00e+00	0	44	0	1535115264	16	4236
2026-01-15 10:47:18.54	332.78	26.57	-27.7	-29.0	15.5	0.00e+00	0	44	0	1538260992	16	4183
2026-01-15 10:47:19.54	332.85	26.41	-27.7	-29.0	15.5	0.00e+00	0	44	0	1541406720	16	4174
2026-01-15 10:47:20.54	332.92	26.25	-27.6	-28.8	15.6	0.00e+00	0	44	0	1544552448	16	4112
2026-01-15 10:47:21.55	332.99	26.09	-27.6	-28.8	15.6	0.00e+00	0	44	0	1547698176	16	4130
2026-01-15 10:47:22.55	333.06	25.93	-27.7	-29.1	15.5	0.00e+00	0	44	0	1550843904	16	4189
2026-01-15 10:47:23.55	333.13	25.77	-27.7	-29.0	15.5	0.00e+00	0	44	0	1553989632	16	4160
2026-01-15 10:47:24.56	333.20	25.61	-27.5	-28.5	15.8	0.00e+00	0	44	0	1557135360	16	4041
2026-01-15 10:47:25.55	333.27	25.45	-27.3	-28.1	16.0	0.00e+00	0	44	0	1560281088	16	3943
2026-01-15 10:47:26.55	333.34	25.30	-27.3	-28.1	16.0	0.00e+00	0	44	0	1563426816	16	3929
2026-01-15 10:47:27.56	333.41	25.14	-27.4	-28.3	15.9	0.00e+00	0	44	0	1566572544	16	3973
2026-01-15 10:47:28.56	333.48	24.98	-27.3	-28.1	16.0	0.00e+00	0	44	0	1569718272	16	3936
2026-01-15 10:47:29.56	333.54	24.83	-26.9	-27.7	16.4	0.00e+00	0	44	0	1572864000	15	3931
2026-01-15 10:47:30.56	333.61	24.68	-26.9	-27.7	16.3	0.00e+00	0	44	0	1576009728	15	3946
2026-01-15 10:47:31.57	333.67	24.52	-27.0	-28.0	16.1	0.00e+00	0	44	0	1579155456	15	4010
2026-01-15 10:47:32.57	333.74	24.37	-27.2	-28.3	15.9	0.00e+00	0	44	0	1582301184	15	4107
2026-01-15 10:47:33.58	333.80	24.22	-27.2	-28.4	15.9	0.00e+00	0	44	0	1585446912	15	4131
2026-01-15 10:47:34.57	333.86	24.07	-27.0	-28.0	16.2	0.00e+00	0	44	0	1588592640	15	4017
2026-01-15 10:47:35.58	333.93	23.92	-27.0	-27.9	16.2	0.00e+00	0	44	0	1591738368	15	3996
2026-01-15 10:47:36.58	333.99	23.78	-27.1	-28.1	16.1	0.00e+00	0	44	0	1594884096	15	4043
2026-01-15 10:47:37.59	334.05	23.63	-27.1	-28.2	16.0	0.00e+00	0	44	0	1598029824	15	4071
2026-01-15 10:47:38.59	334.11	23.48	-27.2	-28.5	15.9	0.00e+00	0	44	0	1601175552	15	4140
2026-01-15 10:47:39.60	334.17	23.33	-27.3	-28.5	15.9	0.00e+00	0	44	0	1604321280	15	4150
2026-01-15 10:47:40.60	334.23	23.19	-27.3	-28.5	15.8	0.00e+00	0	44	0	1607467008	15	4161
2026-01-15 10:47:41.60	334.29	23.05	-27.3	-28.6	15.8	0.00e+00	0	44	0	1610612736	15	4187
2026-01-15 10:47:42.61	334.35	22.90	-27.3	-28.7	15.8	0.00e+00	0	44	0	1612709888	15	4202
2026-01-15 10:47:43.61	334.41	22.76	-27.4	-28.8	15.7	0.00e+00	0	44	0	1615855616	15	4234
2026-01-15 10:47:44.61	334.47	22.62	-27.5	-29.0	15.5	0.00e+00	0	44	0	1619001344	15	4287
2026-01-15 10:47:45.60	334.53	22.48	-27.4	-28.8	15.7	0.00e+00	0	44	0	1622147072	15	4239
2026-01-15 10:47:46.61	334.58	22.34	-27.3	-28.7	15.7	0.00e+00	0	44	0	1625292800	15	4203
2026-01-15 10:47:47.61	334.64	22.20	-27.3	-28.7	15.7	0.00e+00	0	44	0	1628438528	15	4203
2026-01-15 10:47:48.61	334.70	22.06	-27.3	-28.6	15.7	0.00e+00	0	44	0	1631584256	15	4185
2026-01-15 10:47:49.61	334.75	21.92	-27.4	-28.9	15.6	0.00e+00	0	44	0	1634729984	15	4265
2026-01-15 10:47:50.61	334.81	21.78	-27.6	-29.2	15.4	0.00e+00	0	44	0	1637875712	15	4346
2026-01-15 10:47:51.62	334.86	21.65	-27.5	-29.1	15.5	0.00e+00	0	44	0	1641021440	15	4310
2026-01-15 10:47:52.61	334.92	21.51	-27.5	-29.1	15.5	7.00e-07	0	44	0	1644167168	15	4314
2026-01-15 10:47:53.62	334.97	21.38	-27.5	-29.0	15.5	0.00e+00	0	44	0	1647312896	15	4279
2026-01-15 10:47:54.63	335.02	21.24	-27.6	-29.2	15.4	0.00e+00	0	44	0	1650458624	15	4348
2026-01-15 10:47:55.63	335.08	21.11	-27.5	-29.1	15.4	0.00e+00	0	44	0	1653604352	15	4329
2026-01-15 10:47:56.63	335.13	20.97	-27.5	-29.1	15.4	0.00e+00	0	44	0	1656750080	15	4330
2026-01-15 10:47:57.64	335.18	20.84	-27.5	-29.2	15.4	0.00e+00	0	44	0	1659895808	15	4340
2026-01-15 10:47:58.64	335.23	20.71	-27.7	-29.6	15.2	0.00e+00	0	44	0	1663041536	15	4450
2026-01-15 10:47:59.64	335.29	20.58	-27.7	-29.4	15.2	0.00e+00	0	44	0	1666187264	15	4417
2026-01-15 10:48:00.64	335.34	20.45	-27.5	-29.0	15.5	0.00e+00	0	44	0	1669332992	15	4297
2026-01-15 10:48:01.64	335.39	20.32	-27.3	-28.7	15.6	0.00e+00	0	44	0	1672478720	15	4208
2026-01-15 10:48:02.65	335.44	20.19	-27.3	-28.7	15.6	0.00e+00	0	44	0	1675624448	15	4207
2026-01-15 10:48:03.65	335.49	20.06	-27.3	-28.6	15.7	0.00e+00	0	44	0	1678770176	15	4188
2026-01-15 10:48:04.65	335.54	19.93	-27.4	-28.8	15.6	0.00e+00	0	44	0	1681915904	15	4247
2026-01-15 10:48:05.66	335.59	19.81	-27.4	-28.9	15.5	0.00e+00	0	44	0	1685061632	15	4255
2026-01-15 10:48:06.66	335.64	19.68	-27.5	-29.0	15.5	0.00e+00	0	44	0	1688207360	15	4288
2026-01-15 10:48:07.67	335.68	19.55	-27.5	-29.0	15.4	0.00e+00	0	44	0	1691353088	15	4300
2026-01-15 10:48:08.68	335.73	19.43	-27.5	-29.0	15.5	0.00e+00	0	44	0	1694498816	15	4299
2026-01-15 10:48:09.68	335.78	19.30	-27.5	-29.1	15.4	0.00e+00	0	44	0	1697644544	15	4330
2026-01-15 10:48:10.68	335.83	19.18	-27.5	-29.2	15.4	0.00e+00	0	44	0	1700790272	15	4340
2026-01-15 10:48:11.69	335.87	19.05	-27.5	-29.1	15.3	0.00e+00	0	44	0	1703936000	15	4342
2026-01-15 10:48:12.69	335.92	18.93	-27.6	-29.3	15.3	0.00e+00	0	44	0	1707081728	15	4373
2026-01-15 10:48:13.70	335.97	18.81	-27.6	-29.3	15.3	0.00e+00	0	44	0	1710227456	15	4385
2026-01-15 10:48:14.70	336.01	18.69	-27.6	-29.4	15.2	0.00e+00	0	44	0	1713373184	15	4413
2026-01-15 10:48:15.70	336.06	18.56	-27.6	-29.4	15.2	0.00e+00	0	44	0	1716518912	15	4407
2026-01-15 10:48:16.71	336.11	18.44	-27.6	-29.3	15.2	0.00e+00	0	44	0	1719664640	15	4395
2026-01-15 10:48:17.71	336.15	18.32	-27.6	-29.4	15.2	0.00e+00	0	44	0	1722810368	15	4426
2026-01-15 10:48:18.70	336.19	18.21	-27.7	-29.6	15.1	0.00e+00	0	44	0	1725956096	15	4472
2026-01-15 10:48:19.71	336.24	18.09	-27.7	-29.4	15.2	0.00e+00	0	44	0	1729101824	15	4426
2026-01-15 10:48:20.71	336.28	17.97	-27.6	-29.4	15.2	0.00e+00	0	44	0	1732247552	15	4415
2026-01-15 10:48:21.72	336.33	17.85	-27.7	-29.5	15.1	0.00e+00	0	44	0	1735393280	15	4445
2026-01-15 10:48:22.73	336.37	17.73	-27.7	-29.5	15.1	7.00e-07	0	44	0	1738539008	15	4445
2026-01-15 10:48:23.73	336.41	17.61	-27.7	-29.5	15.1	0.00e+00	0	44	0	1741684736	15	4441
2026-01-15 10:48:24.73	336.46	17.50	-27.8	-29.7	15.0	0.00e+00	0	44	0	1744830464	15	4496
2026-01-15 10:48:25.73	336.50	17.38	-27.8	-29.8	14.9	0.00e+00	0	44	0	1747976192	15	4533
2026-01-15 10:48:26.73	336.54	17.27	-27.9	-30.0	14.8	0.00e+00	0	44	0	1751121920	15	4585
2026-01-15 10:48:27.73	336.58	17.15	-27.8	-29.9	14.8	0.00e+00	0	44	0	1754267648	15	4563
2026-01-15 10:48:28.74	336.62	17.04	-28.0	-30.2	14.7	0.00e+00	0	44	0	1757413376	15	4637
2026-01-15 10:48:29.74	336.67	16.93	-28.3	-30.4	14.4	7.00e-07	0	44	0	1760559104	16	4595
2026-01-15 10:48:30.74	336.71	16.81	-28.3	-30.5	14.4	0.00e+00	0	44	0	1763704832	16	4604
2026-01-15 10:48:31.74	336.75	16.70	-28.4	-30.7	14.3	1.50e-06	0	44	0	1766850560	16	4669
2026-01-15 10:48:32.75	336.79	16.59	-28.4	-30.6	14.3	0.00e+00	0	44	0	1769996288	16	4650
2026-01-15 10:48:33.76	336.83	16.48	-28.4	-30.6	14.3	7.00e-07	0	44	0	1773142016	16	4659
2026-01-15 10:48:34.76	336.87	16.37	-28.5	-30.4	14.1	7.00e-07	0	44	0	1776287744	17	4470
2026-01-15 10:48:35.76	336.91	16.26	-28.6	-30.7	13.9	1.50e-06	0	44	0	1779433472	17	4573
2026-01-15 10:48:36.76	336.95	16.15	-28.6	-30.7	13.9	3.80e-06	0	44	0	1782579200	17	4560
2026-01-15 10:48:37.77	336.99	16.04	-28.3	-30.0	14.3	2.20e-06	0	44	0	1785724928	17	4363
2026-01-15 10:48:38.77	337.03	15.93	-28.2	-29.6	14.5	7.00e-07	0	44	0	1788870656	17	4252
2026-01-15 10:48:39.77	337.07	15.82	-28.1	-29.5	14.6	7.00e-07	0	44	0	1792016384	17	4213
2026-01-15 10:48:40.78	337.10	15.71	-28.1	-29.5	14.6	0.00e+00	0	44	0	1795162112	17	4211
2026-01-15 10:48:41.78	337.14	15.60	-28.1	-29.4	14.7	0.00e+00	0	44	0	1798307840	17	4185
2026-01-15 10:48:42.78	337.18	15.50	-28.2	-29.7	14.5	0.00e+00	0	44	0	1801453568	17	4270
2026-01-15 10:48:43.79	337.22	15.39	-28.1	-29.5	14.6	0.00e+00	0	44	0	1804599296	17	4211
2026-01-15 10:48:44.79	337.26	15.28	-28.0	-29.3	14.7	0.00e+00	0	44	0	1807745024	17	4155
2026-01-15 10:48:45.80	337.29	15.18	-28.1	-29.4	14.7	0.00e+00	0	44	0	1810890752	17	4188
2026-01-15 10:48:46.80	337.33	15.07	-28.1	-29.4	14.7	0.00e+00	0	44	0	1814036480	17	4188
2026-01-15 10:48:47.80	337.37	14.97	-28.2	-29.6	14.5	7.00e-07	0	44	0	1817182208	17	4259
2026-01-15 10:48:48.80	337.40	14.86	-28.2	-29.7	14.5	0.00e+00	0	44	0	1820327936	17	4264
2026-01-15 10:48:49.81	337.44	14.76	-28.2	-29.6	14.5	7.00e-07	0	44	0	1823473664	17	4260
2026-01-15 10:48:50.81	337.48	14.65	-28.2	-29.7	14.4	1.50e-06	0	44	0	1826619392	17	4276
2026-01-15 10:48:51.81	337.51	14.55	-28.3	-30.0	14.3	0.00e+00	0	44	0	1829765120	17	4377
2026-01-15 10:48:52.81	337.55	14.45	-28.3	-30.0	14.3	1.50e-06	0	44	0	1832910848	17	4359
2026-01-15 10:48:53.82	337.58	14.35	-28.2	-29.7	14.4	0.00e+00	0	44	0	1836056576	17	4282
2026-01-15 10:48:54.83	337.62	14.24	-28.3	-29.9	14.3	0.00e+00	0	44	0	1839202304	17	4346
2026-01-15 10:48:55.82	337.65	14.14	-28.3	-29.8	14.4	7.00e-07	0	44	0	1842348032	17	4313
2026-01-15 10:48:56.83	337.69	14.04	-28.3	-29.9	14.3	7.00e-07	0	44	0	1845493760	17	4340
2026-01-15 10:48:57.83	337.72	13.94	-28.2	-29.6	14.5	1.50e-06	0	44	0	1848639488	17	4247
2026-01-15 10:48:58.83	337.76	13.84	-28.2	-29.6	14.5	1.50e-06	0	44	0	1851785216	17	4251
2026-01-15 10:48:59.83	337.79	13.74	-28.4	-30.1	14.2	7.00e-07	0	44	0	1854930944	17	4398
2026-01-15 10:49:00.83	337.83	13.64	-28.3	-29.8	14.3	7.00e-07	0	44	0	1858076672	17	4318
2026-01-15 10:49:01.84	337.86	13.54	-28.2	-29.6	14.5	0.00e+00	0	44	0	1861222400	17	4253
2026-01-15 10:49:02.84	337.89	13.44	-28.2	-29.8	14.3	7.00e-07	0	44	0	1864368128	17	4307
2026-01-15 10:49:03.85	337.93	13.35	-28.2	-29.6	14.4	0.00e+00	0	44	0	1867513856	17	4264
2026-01-15 10:49:04.85	337.96	13.25	-28.1	-29.4	14.6	0.00e+00	0	44	0	1870659584	17	4211
2026-01-15 10:49:05.85	337.99	13.15	-28.2	-29.6	14.4	0.00e+00	0	44	0	1873805312	17	4265
2026-01-15 10:49:06.85	338.03	13.05	-28.1	-29.5	14.5	7.00e-07	0	44	0	1876951040	17	4221
2026-01-15 10:49:07.86	338.06	12.96	-28.1	-29.5	14.5	7.00e-07	0	44	0	1880096768	17	4235
2026-01-15 10:49:08.86	338.09	12.86	-28.1	-29.5	14.5	7.00e-07	0	44	0	1883242496	17	4231
2026-01-15 10:49:09.86	338.12	12.77	-28.1	-29.6	14.4	2.20e-06	0	44	0	1886388224	17	4246
2026-01-15 10:49:10.86	338.16	12.67	-28.2	-29.6	14.4	0.00e+00	0	44	0	1888485376	17	4262
2026-01-15 10:49:11.87	338.19	12.57	-28.2	-29.7	14.3	7.00e-07	0	44	0	1891631104	17	4289
2026-01-15 10:49:12.87	338.22	12.48	-28.2	-29.8	14.3	0.00e+00	0	44	0	1894776832	17	4307
2026-01-15 10:49:13.87	338.25	12.39	-28.2	-29.7	14.3	0.00e+00	0	44	0	1898971136	17	4281
2026-01-15 10:49:14.88	338.28	12.29	-28.2	-29.8	14.3	1.50e-06	0	44	0	1902116864	17	4302
2026-01-15 10:49:15.88	338.32	12.20	-28.4	-30.3	14.0	4.50e-06	0	44	0	1905262592	17	4444
2026-01-15 10:49:16.88	338.35	12.10	-28.3	-30.0	14.1	3.00e-06	0	44	0	1908408320	17	4385
2026-01-15 10:49:17.89	338.38	12.01	-28.5	-30.5	13.8	3.00e-06	0	44	0	1911554048	17	4525
2026-01-15 10:49:18.90	338.41	11.92	-28.3	-30.0	14.1	2.20e-06	0	44	0	1913651200	17	4366
2026-01-15 10:49:19.90	338.44	11.83	-28.3	-29.9	14.2	2.20e-06	0	44	0	1916796928	17	4340
2026-01-15 10:49:20.90	338.47	11.73	-28.4	-30.2	14.0	3.00e-06	0	44	0	1919942656	17	4447
2026-01-15 10:49:21.91	338.50	11.64	-28.4	-30.2	14.0	3.00e-06	0	44	0	1923088384	17	4445
2026-01-15 10:49:22.91	338.53	11.55	-28.4	-30.3	14.0	2.20e-06	0	44	0	1926234112	17	4451
2026-01-15 10:49:23.91	338.56	11.46	-28.4	-30.2	14.0	5.30e-06	0	44	0	1929379840	17	4431
2026-01-15 10:49:24.91	338.59	11.37	-28.4	-30.1	14.1	3.00e-06	0	44	0	1932525568	17	4410
2026-01-15 10:49:25.91	338.62	11.28	-28.4	-30.2	14.0	7.00e-07	0	44	0	1935671296	17	4445
2026-01-15 10:49:26.91	338.65	11.19	-28.4	-30.3	13.9	3.80e-06	0	44	0	1938817024	17	4464
2026-01-15 10:49:27.91	338.68	11.10	-28.4	-30.3	13.9	7.00e-07	0	44	0	1941962752	17	4455
2026-01-15 10:49:28.92	338.71	11.01	-28.5	-30.5	13.8	3.00e-06	0	44	0	1945108480	17	4536
2026-01-15 10:49:29.92	338.74	10.92	-28.4	-30.2	13.9	4.50e-06	0	44	0	1948254208	17	4438
2026-01-15 10:49:30.92	338.77	10.83	-28.3	-29.9	14.1	1.50e-06	0	44	0	1951399936	17	4352
2026-01-15 10:49:31.92	338.79	10.74	-28.5	-30.4	13.8	3.80e-06	0	44	0	1954545664	17	4480
2026-01-15 10:49:32.92	338.82	10.66	-28.5	-30.4	13.8	4.50e-06	0	44	0	1957691392	17	4486
2026-01-15 10:49:33.93	338.85	10.57	-28.5	-30.4	13.8	5.30e-06	0	44	0	1960837120	17	4503
2026-01-15 10:49:34.93	338.88	10.48	-28.5	-30.5	13.7	3.00e-06	0	44	0	1963982848	17	4522
2026-01-15 10:49:35.94	338.91	10.39	-28.5	-30.4	13.8	1.50e-06	0	44	0	1967128576	17	4491
2026-01-15 10:49:36.93	338.94	10.31	-28.6	-30.7	13.6	6.80e-06	0	44	0	1970274304	17	4589
2026-01-15 10:49:37.94	338.96	10.22	-28.6	-30.8	13.6	6.10e-06	0	44	0	1973420032	17	4619
2026-01-15 10:49:38.94	338.99	10.13	-28.6	-30.7	13.6	8.30e-06	0	44	0	1976565760	17	4593
2026-01-15 10:49:39.94	339.02	10.05	-28.6	-30.7	13.6	7.60e-06	0	44	0	1979711488	17	4602
2026-01-15 10:49:40.94	339.05	9.96	-28.7	-30.9	13.5	1.06e-05	0	44	0	1982857216	17	4655
2026-01-15 10:49:41.95	339.07	9.88	-28.6	-30.8	13.5	1.44e-05	0	44	0	1986002944	17	4636
2026-01-15 10:49:42.95	339.10	9.79	-28.8	-31.2	13.3	1.52e-05	0	44	0	1989148672	17	4746
2026-01-15 10:49:43.95	339.13	9.71	-28.7	-31.1	13.3	1.83e-05	0	44	0	1992294400	17	4711
2026-01-15 10:49:44.96	339.16	9.62	-28.7	-31.1	13.3	1.60e-05	0	44	0	1995440128	17	4718
2026-01-15 10:49:45.96	339.18	9.54	-28.8	-31.4	13.2	1.67e-05	0	44	0	1998585856	17	4812
2026-01-15 10:49:46.96	339.21	9.45	-28.9	-31.5	13.0	3.12e-05	0	44	0	2001731584	17	4857
2026-01-15 10:49:47.97	339.24	9.37	-29.0	-31.3	12.9	4.95e-05	0	44	0	2004877312	18	4667
2026-01-15 10:49:48.97	339.26	9.29	-29.0	-31.1	13.0	3.50e-05	0	44	0	2008023040	18	4626
2026-01-15 10:49:49.97	339.29	9.20	-29.0	-31.2	12.9	3.50e-05	0	44	0	2011168768	18	4654
2026-01-15 10:49:50.97	339.31	9.12	-29.0	-31.2	12.9	4.19e-05	0	44	0	2014314496	18	4635
2026-01-15 10:49:51.98	339.34	9.04	-29.1	-31.5	12.7	6.02e-05	0	44	0	2017460224	18	4756
2026-01-15 10:49:52.99	339.37	8.96	-29.1	-31.6	12.6	7.17e-05	0	44	0	2020605952	18	4780
2026-01-15 10:49:53.99	339.39	8.87	-29.2	-31.8	12.5	1.04e-04	0	44	0	2023751680	18	4840
