passes_logs/2026/01/15/R2M6_AANII_01/R2M6_AANII_01__20260115_102821_FENGYUN_3D_rec.log

#Pass ID: 20260115_102821_FENGYUN 3D
#Satellite: FENGYUN 3D
#Configuration: FENGYUN 3D
#almurnet v.1.7.20240730
#Start time: 2026-01-15 10:32:21

#Version: 2.2.20231116
#Station: R2M6_AANII_01
#Location: 30.233357 lon 59.946436 lat
#TLE: 1 43010U 17072A   26014.22831475  .00000226  00000+0  12883-3 0  9994
#TLE: 2 43010  98.9934 346.0326 0002309 109.2304 250.9121 14.19696287423146

#Time	Az	El	Level	Level2	SNR	BER	BlckErr	Temp	State	Recorded	gain1	gain2
2026-01-15 10:32:21.07	61.85	22.98	-34.3	-53.6	3.8	7.45e-01	0	43	0	0	29	33235
2026-01-15 10:32:22.06	61.59	23.02	-34.3	-45.1	3.8	8.45e-01	0	43	104	0	29	12523
2026-01-15 10:32:23.06	61.32	23.06	-34.3	-45.1	3.8	8.46e-01	0	43	104	0	29	12543
2026-01-15 10:32:24.07	61.05	23.11	-34.3	-45.1	3.8	8.45e-01	0	43	104	0	29	12556
2026-01-15 10:32:25.08	60.79	23.15	-34.3	-45.1	3.8	8.46e-01	0	43	104	0	29	12523
2026-01-15 10:32:26.07	60.52	23.19	-34.3	-45.2	3.8	8.46e-01	0	43	104	0	29	12580
2026-01-15 10:32:27.06	60.26	23.22	-34.3	-45.2	3.8	8.47e-01	0	43	104	0	29	12625
2026-01-15 10:32:28.06	59.99	23.26	-34.3	-45.2	3.8	8.46e-01	0	43	104	0	29	12580
2026-01-15 10:32:29.05	59.72	23.30	-34.3	-45.1	3.8	8.47e-01	0	43	104	0	29	12560
2026-01-15 10:32:30.04	59.46	23.34	-34.3	-45.2	3.8	8.46e-01	0	43	104	0	29	12584
2026-01-15 10:32:31.03	59.19	23.37	-34.3	-45.1	3.8	8.47e-01	0	43	104	0	29	12543
2026-01-15 10:32:32.03	58.92	23.41	-34.3	-45.1	3.8	8.45e-01	0	43	104	0	29	12561
2026-01-15 10:32:33.02	58.65	23.44	-34.3	-45.1	3.8	8.46e-01	0	43	104	0	29	12551
2026-01-15 10:32:34.03	58.37	23.48	-34.3	-45.2	3.8	8.45e-01	0	43	104	0	29	12555
2026-01-15 10:32:35.03	58.10	23.51	-34.3	-45.1	3.8	8.46e-01	0	43	104	0	29	12534
2026-01-15 10:32:36.03	57.83	23.55	-34.3	-45.2	3.8	8.46e-01	0	43	104	0	29	12625
2026-01-15 10:32:37.03	57.55	23.58	-34.4	-45.4	3.8	8.45e-01	0	43	104	0	29	12758
2026-01-15 10:32:38.02	57.28	23.61	-34.5	-45.6	3.8	8.46e-01	0	43	104	0	29	12885
2026-01-15 10:32:39.02	57.01	23.64	-34.5	-45.6	3.8	8.46e-01	0	43	104	0	29	12857
2026-01-15 10:32:40.03	56.73	23.67	-34.4	-45.5	3.8	8.46e-01	0	43	104	0	29	12806
2026-01-15 10:32:41.04	56.45	23.70	-34.4	-45.5	3.8	8.47e-01	0	43	104	0	29	12855
2026-01-15 10:32:42.03	56.18	23.73	-34.4	-45.5	3.8	8.46e-01	0	43	104	0	29	12816
2026-01-15 10:32:43.03	55.90	23.76	-34.4	-45.4	3.8	8.48e-01	0	43	104	0	29	12755
2026-01-15 10:32:44.03	55.62	23.79	-34.4	-45.4	3.8	8.45e-01	0	43	104	0	29	12715
2026-01-15 10:32:45.03	55.34	23.82	-34.4	-45.4	3.8	8.47e-01	0	43	104	0	29	12732
2026-01-15 10:32:46.02	55.07	23.84	-34.4	-45.3	3.8	8.46e-01	0	43	104	0	29	12693
2026-01-15 10:32:47.03	54.79	23.87	-34.3	-45.2	3.8	8.45e-01	0	43	104	0	29	12553
2026-01-15 10:32:48.03	54.51	23.89	-34.3	-45.1	3.8	8.46e-01	0	43	104	0	29	12442
2026-01-15 10:32:49.02	54.23	23.92	-34.2	-44.7	3.8	8.46e-01	0	43	104	0	29	12056
2026-01-15 10:32:50.02	53.95	23.94	-34.2	-44.7	3.8	8.45e-01	0	43	104	0	29	12182
2026-01-15 10:32:51.02	53.67	23.96	-34.1	-44.6	3.8	8.45e-01	0	44	104	0	29	12045
2026-01-15 10:32:52.03	53.39	23.99	-34.1	-44.7	3.8	8.47e-01	0	43	104	0	29	12229
2026-01-15 10:32:53.03	53.10	24.01	-34.1	-44.7	3.8	8.46e-01	0	43	104	0	29	12269
2026-01-15 10:32:54.04	52.82	24.03	-34.1	-44.7	3.8	8.45e-01	0	43	104	0	29	12185
2026-01-15 10:32:55.04	52.54	24.05	-34.1	-44.7	3.8	8.46e-01	0	43	104	0	29	12196
2026-01-15 10:32:56.05	52.25	24.07	-34.1	-44.7	3.8	8.47e-01	0	43	104	0	29	12219
2026-01-15 10:32:57.06	51.97	24.09	-34.1	-44.5	3.8	8.46e-01	0	43	104	0	29	11996
2026-01-15 10:32:58.06	51.68	24.11	-34.0	-44.0	3.8	8.47e-01	0	43	104	0	29	11393
2026-01-15 10:32:59.05	51.40	24.12	-33.9	-43.4	3.8	8.45e-01	0	43	104	0	29	10701
2026-01-15 10:33:00.06	51.11	24.14	-33.9	-43.2	3.8	8.46e-01	0	43	104	0	29	10432
2026-01-15 10:33:01.06	50.83	24.15	-33.9	-43.1	3.8	8.44e-01	0	43	104	0	29	10337
2026-01-15 10:33:02.06	50.55	24.17	-33.9	-43.1	3.8	8.46e-01	0	44	104	0	29	10397
2026-01-15 10:33:03.07	50.26	24.18	-33.9	-43.3	3.8	8.45e-01	0	44	104	0	29	10537
2026-01-15 10:33:04.07	49.97	24.20	-33.9	-43.3	3.8	8.46e-01	0	43	104	0	29	10589
2026-01-15 10:33:05.07	49.69	24.21	-33.9	-43.0	3.8	8.46e-01	0	43	104	0	29	10276
2026-01-15 10:33:06.08	49.40	24.22	-33.9	-42.7	3.8	8.46e-01	0	43	104	0	29	9965
2026-01-15 10:33:07.09	49.11	24.23	-33.9	-43.3	3.8	8.45e-01	0	43	104	0	29	10586
2026-01-15 10:33:08.09	48.83	24.24	-34.0	-44.3	3.8	8.46e-01	0	43	104	0	29	11742
2026-01-15 10:33:09.09	48.54	24.25	-34.0	-44.2	3.8	8.46e-01	0	43	104	0	29	11603
2026-01-15 10:33:10.10	48.25	24.26	-33.9	-43.0	3.8	8.45e-01	0	43	104	0	29	10241
2026-01-15 10:33:11.10	47.96	24.27	-33.8	-42.2	3.8	8.46e-01	0	43	104	0	29	9427
2026-01-15 10:33:12.11	47.68	24.27	-33.2	-39.3	4.2	8.40e-01	0	43	104	0	28	7244
2026-01-15 10:33:13.11	47.39	24.28	-31.5	-34.4	8.8	7.37e-01	0	44	104	0	24	5048
2026-01-15 10:33:14.12	47.10	24.29	-29.0	-30.6	13.1	1.56e-04	0	43	0	1048576	19	4285
2026-01-15 10:33:15.12	46.81	24.29	-26.7	-27.8	15.9	0.00e+00	0	43	0	7340032	14	4091
2026-01-15 10:33:16.12	46.53	24.30	-26.3	-27.0	16.4	0.00e+00	0	43	0	12582912	14	3866
2026-01-15 10:33:17.12	46.24	24.30	-26.7	-27.9	15.9	0.00e+00	0	44	0	17825792	14	4093
2026-01-15 10:33:18.12	45.95	24.30	-26.3	-27.0	16.4	0.00e+00	0	43	0	24117248	14	3869
2026-01-15 10:33:19.12	45.67	24.30	-26.0	-26.7	16.8	0.00e+00	0	43	0	29360128	13	3912
2026-01-15 10:33:20.13	45.38	24.30	-25.7	-26.6	17.1	0.00e+00	0	43	0	35651584	12	3996
2026-01-15 10:33:21.13	45.09	24.30	-25.5	-26.2	17.3	0.00e+00	0	43	0	40894464	12	3891
2026-01-15 10:33:22.13	44.80	24.30	-25.6	-26.3	17.2	0.00e+00	0	44	0	46137344	12	3928
2026-01-15 10:33:23.13	44.51	24.30	-25.0	-25.6	17.9	0.00e+00	0	43	0	52428800	11	3859
2026-01-15 10:33:24.13	44.23	24.30	-24.5	-24.9	18.5	0.00e+00	0	43	0	57671680	10	3803
2026-01-15 10:33:25.14	43.94	24.30	-24.1	-24.7	18.9	0.00e+00	0	44	0	62914560	9	3866
2026-01-15 10:33:26.14	43.65	24.29	-23.8	-24.1	19.2	0.00e+00	0	44	0	69206016	9	3716
2026-01-15 10:33:27.15	43.36	24.29	-23.7	-24.3	19.3	0.00e+00	0	43	0	74448896	8	3874
2026-01-15 10:33:28.15	43.08	24.28	-24.1	-25.1	18.9	0.00e+00	0	43	0	79691776	8	4065
2026-01-15 10:33:29.15	42.79	24.28	-23.9	-24.7	19.2	0.00e+00	0	43	0	85983232	8	3950
2026-01-15 10:33:30.16	42.50	24.27	-24.2	-25.3	18.8	0.00e+00	0	43	0	91226112	8	4106
2026-01-15 10:33:31.16	42.21	24.26	-23.9	-24.7	19.1	0.00e+00	0	43	0	97517568	8	3969
2026-01-15 10:33:32.16	41.93	24.25	-23.7	-24.3	19.4	0.00e+00	0	43	0	102760448	8	3873
2026-01-15 10:33:33.16	41.64	24.24	-23.6	-24.2	19.4	0.00e+00	0	43	0	108003328	8	3847
2026-01-15 10:33:34.17	41.35	24.23	-23.7	-24.4	19.3	0.00e+00	0	43	0	114294784	8	3892
2026-01-15 10:33:35.17	41.07	24.22	-23.7	-24.3	19.3	0.00e+00	0	43	0	119537664	8	3877
2026-01-15 10:33:36.16	40.79	24.21	-23.6	-24.2	19.4	0.00e+00	0	43	0	124780544	8	3845
2026-01-15 10:33:37.17	40.50	24.20	-23.6	-24.0	19.5	0.00e+00	0	43	0	131072000	8	3811
2026-01-15 10:33:38.18	40.21	24.18	-23.5	-24.0	19.5	0.00e+00	0	44	0	136314880	8	3798
2026-01-15 10:33:39.18	39.93	24.17	-23.3	-23.6	19.7	0.00e+00	0	43	0	142606336	8	3704
2026-01-15 10:33:40.19	39.64	24.16	-23.3	-23.5	19.8	0.00e+00	0	43	0	147849216	8	3694
2026-01-15 10:33:41.19	39.35	24.14	-23.4	-23.8	19.6	0.00e+00	0	44	0	153092096	8	3754
2026-01-15 10:33:42.20	39.07	24.12	-23.4	-23.8	19.6	0.00e+00	0	44	0	159383552	8	3746
2026-01-15 10:33:43.20	38.78	24.11	-23.5	-23.9	19.6	0.00e+00	0	43	0	164626432	8	3785
2026-01-15 10:33:44.21	38.50	24.09	-23.3	-23.6	19.7	0.00e+00	0	43	0	170917888	8	3712
2026-01-15 10:33:45.21	38.22	24.07	-23.2	-23.7	19.9	0.00e+00	0	43	0	176160768	7	3842
2026-01-15 10:33:46.22	37.93	24.05	-23.1	-23.6	20.0	0.00e+00	0	43	0	181403648	7	3801
2026-01-15 10:33:47.22	37.65	24.03	-23.3	-24.1	19.7	0.00e+00	0	43	0	187695104	7	3928
2026-01-15 10:33:48.23	37.36	24.01	-23.3	-24.0	19.7	0.00e+00	0	43	0	192937984	7	3900
2026-01-15 10:33:49.23	37.08	23.99	-23.4	-24.2	19.6	0.00e+00	0	43	0	199229440	7	3951
2026-01-15 10:33:50.23	36.80	23.97	-23.4	-24.3	19.6	0.00e+00	0	43	0	204472320	7	3976
2026-01-15 10:33:51.24	36.52	23.94	-23.5	-24.4	19.5	0.00e+00	0	43	0	209715200	7	3998
2026-01-15 10:33:52.24	36.24	23.92	-23.5	-24.5	19.5	0.00e+00	0	43	0	216006656	7	4020
2026-01-15 10:33:53.24	35.96	23.90	-23.5	-24.3	19.6	0.00e+00	0	43	0	221249536	7	3985
2026-01-15 10:33:54.25	35.68	23.87	-23.5	-24.3	19.5	0.00e+00	0	43	0	226492416	7	3983
2026-01-15 10:33:55.24	35.40	23.85	-23.6	-24.7	19.3	0.00e+00	0	43	0	232783872	7	4075
2026-01-15 10:33:56.25	35.12	23.82	-23.7	-24.8	19.3	0.00e+00	0	43	0	238026752	7	4100
2026-01-15 10:33:57.25	34.84	23.79	-23.7	-24.9	19.3	0.00e+00	0	43	0	244318208	7	4127
2026-01-15 10:33:58.25	34.57	23.76	-23.8	-25.1	19.2	0.00e+00	0	43	0	249561088	7	4179
2026-01-15 10:33:59.23	34.29	23.74	-23.7	-24.8	19.3	0.00e+00	0	43	0	254803968	7	4110
2026-01-15 10:34:00.23	34.02	23.71	-23.7	-24.8	19.3	0.00e+00	0	43	0	261095424	7	4103
2026-01-15 10:34:01.23	33.74	23.68	-23.7	-25.0	19.2	0.00e+00	0	44	0	266338304	7	4139
2026-01-15 10:34:02.23	33.47	23.65	-23.6	-24.7	19.3	0.00e+00	0	43	0	271581184	7	4079
2026-01-15 10:34:03.24	33.19	23.61	-23.8	-25.0	19.2	0.00e+00	0	43	0	277872640	7	4139
2026-01-15 10:34:04.24	32.92	23.58	-23.6	-24.6	19.4	0.00e+00	0	43	0	283115520	7	4048
2026-01-15 10:34:05.24	32.64	23.55	-23.4	-24.2	19.6	0.00e+00	0	43	0	288358400	7	3961
2026-01-15 10:34:06.24	32.37	23.52	-23.4	-24.3	19.6	0.00e+00	0	44	0	294649856	7	3970
2026-01-15 10:34:07.24	32.10	23.48	-23.4	-24.2	19.6	0.00e+00	0	43	0	299892736	7	3947
2026-01-15 10:34:08.25	31.82	23.45	-23.5	-24.4	19.5	0.00e+00	0	43	0	306184192	7	3990
2026-01-15 10:34:09.26	31.55	23.41	-23.6	-24.6	19.4	0.00e+00	0	43	0	311427072	7	4042
2026-01-15 10:34:10.26	31.28	23.38	-23.6	-24.7	19.3	0.00e+00	0	43	0	317718528	7	4083
2026-01-15 10:34:11.26	31.01	23.34	-23.7	-24.8	19.3	0.00e+00	0	43	0	322961408	7	4098
2026-01-15 10:34:12.27	30.74	23.30	-23.7	-24.9	19.3	0.00e+00	0	43	0	328204288	7	4116
2026-01-15 10:34:13.27	30.47	23.26	-23.7	-24.8	19.3	0.00e+00	0	43	0	334495744	7	4108
2026-01-15 10:34:14.28	30.20	23.23	-23.7	-24.8	19.3	0.00e+00	0	44	0	339738624	7	4103
2026-01-15 10:34:15.28	29.93	23.19	-23.7	-24.9	19.3	0.00e+00	0	44	0	344981504	7	4113
2026-01-15 10:34:16.28	29.66	23.15	-23.6	-24.6	19.4	0.00e+00	0	44	0	351272960	7	4050
2026-01-15 10:34:17.28	29.40	23.11	-23.5	-24.5	19.5	0.00e+00	0	43	0	356515840	7	4014
2026-01-15 10:34:18.29	29.13	23.07	-23.5	-24.4	19.5	0.00e+00	0	43	0	362807296	7	4003
2026-01-15 10:34:19.29	28.87	23.02	-23.4	-24.3	19.6	0.00e+00	0	43	0	368050176	7	3965
2026-01-15 10:34:20.29	28.60	22.98	-23.5	-24.4	19.5	0.00e+00	0	43	0	373293056	7	4013
2026-01-15 10:34:21.30	28.34	22.94	-23.6	-24.6	19.4	0.00e+00	0	43	0	379584512	7	4036
2026-01-15 10:34:22.30	28.07	22.90	-23.6	-24.6	19.4	0.00e+00	0	43	0	384827392	7	4045
2026-01-15 10:34:23.31	27.81	22.85	-23.6	-24.7	19.3	0.00e+00	0	43	0	391118848	7	4085
2026-01-15 10:34:24.31	27.55	22.81	-23.7	-25.0	19.2	0.00e+00	0	43	0	396361728	7	4140
2026-01-15 10:34:25.31	27.29	22.76	-23.8	-25.1	19.1	0.00e+00	0	44	0	401604608	7	4188
2026-01-15 10:34:26.32	27.03	22.72	-23.9	-25.3	19.1	0.00e+00	0	44	0	407896064	7	4214
2026-01-15 10:34:27.31	26.77	22.67	-23.8	-25.2	19.1	0.00e+00	0	44	0	413138944	7	4189
2026-01-15 10:34:28.32	26.51	22.62	-23.9	-24.8	19.0	0.00e+00	0	43	0	418381824	8	3997
2026-01-15 10:34:29.32	26.26	22.58	-23.7	-24.4	19.3	0.00e+00	0	43	0	424673280	8	3888
2026-01-15 10:34:30.32	26.00	22.53	-23.7	-24.3	19.3	0.00e+00	0	44	0	429916160	8	3868
2026-01-15 10:34:31.33	25.74	22.48	-23.8	-24.5	19.2	0.00e+00	0	43	0	436207616	8	3916
2026-01-15 10:34:32.33	25.49	22.43	-23.7	-24.5	19.2	0.00e+00	0	44	0	441450496	8	3907
2026-01-15 10:34:33.33	25.23	22.38	-23.7	-24.3	19.3	0.00e+00	0	44	0	446693376	8	3859
2026-01-15 10:34:34.34	24.98	22.33	-23.7	-24.3	19.3	0.00e+00	0	43	0	452984832	8	3875
2026-01-15 10:34:35.34	24.73	22.28	-23.8	-24.5	19.2	0.00e+00	0	44	0	458227712	8	3912
2026-01-15 10:34:36.35	24.47	22.23	-23.8	-24.5	19.2	0.00e+00	0	43	0	464519168	8	3914
2026-01-15 10:34:37.35	24.22	22.18	-23.8	-24.6	19.1	0.00e+00	0	44	0	469762048	8	3939
2026-01-15 10:34:38.35	23.97	22.13	-23.8	-24.5	19.1	0.00e+00	0	44	0	475004928	8	3927
2026-01-15 10:34:39.36	23.72	22.08	-23.7	-24.4	19.3	0.00e+00	0	44	0	481296384	8	3881
2026-01-15 10:34:40.36	23.47	22.02	-23.7	-24.4	19.3	0.00e+00	0	43	0	486539264	8	3882
2026-01-15 10:34:41.36	23.23	21.97	-23.6	-24.2	19.3	0.00e+00	0	44	0	491782144	8	3856
2026-01-15 10:34:42.36	22.98	21.92	-23.7	-24.3	19.3	0.00e+00	0	43	0	498073600	8	3877
2026-01-15 10:34:43.36	22.74	21.86	-23.7	-24.3	19.3	0.00e+00	0	43	0	503316480	8	3869
2026-01-15 10:34:44.36	22.49	21.81	-23.6	-24.1	19.4	0.00e+00	0	44	0	509607936	8	3820
2026-01-15 10:34:45.37	22.25	21.75	-23.6	-24.1	19.4	0.00e+00	0	44	0	514850816	8	3828
2026-01-15 10:34:46.37	22.00	21.70	-23.6	-24.2	19.3	0.00e+00	0	43	0	520093696	8	3854
2026-01-15 10:34:47.38	21.76	21.64	-23.6	-24.2	19.3	0.00e+00	0	43	0	526385152	8	3849
2026-01-15 10:34:48.37	21.52	21.59	-23.8	-24.6	19.1	0.00e+00	0	44	0	531628032	8	3936
2026-01-15 10:34:49.37	21.28	21.53	-23.8	-24.5	19.2	0.00e+00	0	44	0	536870912	8	3921
2026-01-15 10:34:50.37	21.04	21.47	-23.8	-24.5	19.2	0.00e+00	0	43	0	543162368	8	3918
2026-01-15 10:34:51.38	20.80	21.42	-23.7	-24.3	19.2	0.00e+00	0	44	0	548405248	8	3877
2026-01-15 10:34:52.38	20.56	21.36	-23.7	-24.4	19.2	0.00e+00	0	43	0	553648128	8	3887
2026-01-15 10:34:53.39	20.32	21.30	-23.8	-24.6	19.1	0.00e+00	0	44	0	559939584	8	3934
2026-01-15 10:34:54.39	20.09	21.24	-24.0	-24.9	18.9	0.00e+00	0	44	0	565182464	8	4019
2026-01-15 10:34:55.39	19.85	21.18	-24.1	-25.3	18.7	0.00e+00	0	44	0	571473920	8	4109
2026-01-15 10:34:56.39	19.62	21.12	-24.2	-25.4	18.7	0.00e+00	0	43	0	576716800	8	4146
2026-01-15 10:34:57.40	19.39	21.06	-24.2	-25.4	18.7	0.00e+00	0	44	0	583008256	8	4132
2026-01-15 10:34:58.39	19.16	21.00	-24.2	-25.3	18.7	0.00e+00	0	44	0	588251136	8	4112
2026-01-15 10:34:59.39	18.93	20.94	-24.3	-25.7	18.5	0.00e+00	0	43	0	593494016	8	4205
2026-01-15 10:35:00.39	18.70	20.88	-24.5	-25.5	18.3	0.00e+00	0	43	0	599785472	9	4052
2026-01-15 10:35:01.39	18.47	20.82	-24.5	-25.5	18.3	0.00e+00	0	44	0	605028352	9	4060
2026-01-15 10:35:02.40	18.24	20.76	-24.4	-25.4	18.4	0.00e+00	0	43	0	610271232	9	4030
2026-01-15 10:35:03.41	18.01	20.70	-24.4	-25.3	18.5	0.00e+00	0	44	0	616562688	9	3999
2026-01-15 10:35:04.41	17.78	20.64	-24.4	-25.4	18.4	0.00e+00	0	43	0	621805568	9	4027
2026-01-15 10:35:05.40	17.56	20.57	-24.6	-25.7	18.3	0.00e+00	0	43	0	627048448	9	4096
2026-01-15 10:35:06.41	17.33	20.51	-24.4	-25.4	18.4	0.00e+00	0	43	0	633339904	9	4025
2026-01-15 10:35:07.42	17.11	20.45	-24.4	-25.3	18.4	0.00e+00	0	43	0	638582784	9	4013
2026-01-15 10:35:08.42	16.88	20.38	-24.6	-25.7	18.3	0.00e+00	0	43	0	644874240	9	4090
2026-01-15 10:35:09.43	16.66	20.32	-24.5	-25.6	18.3	0.00e+00	0	43	0	650117120	9	4074
2026-01-15 10:35:10.43	16.44	20.26	-24.4	-25.4	18.4	0.00e+00	0	43	0	655360000	9	4017
2026-01-15 10:35:11.44	16.22	20.19	-24.4	-25.3	18.4	0.00e+00	0	44	0	661651456	9	3998
2026-01-15 10:35:12.44	16.00	20.13	-24.5	-25.4	18.3	0.00e+00	0	43	0	666894336	9	4031
2026-01-15 10:35:13.45	15.78	20.06	-24.5	-25.6	18.3	0.00e+00	0	44	0	673185792	9	4068
2026-01-15 10:35:14.45	15.56	20.00	-24.5	-25.6	18.3	0.00e+00	0	43	0	678428672	9	4070
2026-01-15 10:35:15.46	15.34	19.93	-24.6	-25.7	18.2	0.00e+00	0	43	0	683671552	9	4092
2026-01-15 10:35:16.46	15.13	19.87	-24.6	-25.8	18.2	0.00e+00	0	44	0	689963008	9	4109
2026-01-15 10:35:17.47	14.91	19.80	-24.6	-25.7	18.2	0.00e+00	0	43	0	695205888	9	4098
2026-01-15 10:35:18.47	14.70	19.73	-24.8	-26.1	18.0	0.00e+00	0	43	0	700448768	9	4197
2026-01-15 10:35:19.46	14.49	19.67	-24.8	-26.2	17.9	0.00e+00	0	43	0	706740224	9	4237
2026-01-15 10:35:20.46	14.28	19.60	-25.0	-26.2	17.7	0.00e+00	0	43	0	711983104	10	4124
2026-01-15 10:35:21.47	14.06	19.54	-25.2	-26.7	17.5	0.00e+00	0	44	0	718274560	10	4232
2026-01-15 10:35:22.48	13.85	19.47	-25.2	-26.5	17.5	0.00e+00	0	44	0	723517440	10	4177
2026-01-15 10:35:23.48	13.64	19.40	-25.0	-26.0	17.8	0.00e+00	0	43	0	728760320	10	4063
2026-01-15 10:35:24.49	13.43	19.33	-24.9	-25.9	17.8	0.00e+00	0	43	0	735051776	10	4042
2026-01-15 10:35:25.50	13.23	19.26	-24.9	-26.0	17.8	0.00e+00	0	43	0	740294656	10	4062
2026-01-15 10:35:26.51	13.02	19.20	-25.0	-26.0	17.8	0.00e+00	0	43	0	746586112	10	4077
2026-01-15 10:35:27.52	12.81	19.13	-24.8	-25.8	17.9	0.00e+00	0	44	0	751828992	10	4007
2026-01-15 10:35:28.52	12.61	19.06	-24.7	-25.5	18.0	0.00e+00	0	44	0	757071872	10	3949
2026-01-15 10:35:29.53	12.40	18.99	-24.6	-25.3	18.1	0.00e+00	0	43	0	763363328	10	3900
2026-01-15 10:35:30.53	12.20	18.92	-24.7	-25.5	18.0	0.00e+00	0	44	0	768606208	10	3936
2026-01-15 10:35:31.53	12.00	18.85	-24.7	-25.5	18.0	0.00e+00	0	44	0	773849088	10	3952
2026-01-15 10:35:32.54	11.80	18.78	-24.7	-25.5	18.0	0.00e+00	0	43	0	780140544	10	3941
2026-01-15 10:35:33.54	11.60	18.72	-24.8	-25.8	17.9	0.00e+00	0	43	0	785383424	10	4012
2026-01-15 10:35:34.54	11.40	18.65	-24.9	-25.8	17.8	0.00e+00	0	44	0	791674880	10	4026
2026-01-15 10:35:35.54	11.20	18.58	-24.8	-25.8	17.8	0.00e+00	0	44	0	796917760	10	4018
2026-01-15 10:35:36.53	11.01	18.51	-24.8	-25.6	17.9	0.00e+00	0	43	0	802160640	10	3966
2026-01-15 10:35:37.54	10.81	18.44	-24.7	-25.5	17.9	0.00e+00	0	43	0	808452096	10	3953
2026-01-15 10:35:38.54	10.61	18.37	-24.7	-25.5	18.0	0.00e+00	0	43	0	813694976	10	3946
2026-01-15 10:35:39.54	10.42	18.30	-24.7	-25.4	18.0	0.00e+00	0	43	0	819986432	10	3917
2026-01-15 10:35:40.55	10.23	18.23	-24.8	-25.7	17.9	0.00e+00	0	43	0	825229312	10	3996
2026-01-15 10:35:41.56	10.03	18.16	-24.8	-25.6	17.9	0.00e+00	0	43	0	830472192	10	3967
2026-01-15 10:35:42.57	9.84	18.09	-24.8	-25.8	17.8	0.00e+00	0	43	0	836763648	10	4007
2026-01-15 10:35:43.57	9.65	18.02	-24.9	-25.8	17.8	0.00e+00	0	43	0	842006528	10	4027
2026-01-15 10:35:44.57	9.46	17.94	-24.9	-25.9	17.8	0.00e+00	0	43	0	847249408	10	4052
2026-01-15 10:35:45.57	9.27	17.87	-25.6	-27.0	16.9	0.00e+00	0	43	0	853540864	11	4201
2026-01-15 10:35:46.57	9.08	17.80	-25.5	-26.6	17.1	0.00e+00	0	43	0	858783744	11	4109
2026-01-15 10:35:47.58	8.90	17.73	-25.1	-25.9	17.5	0.00e+00	0	44	0	865075200	11	3931
2026-01-15 10:35:48.58	8.71	17.66	-25.2	-26.0	17.5	0.00e+00	0	43	0	870318080	11	3950
2026-01-15 10:35:49.59	8.52	17.59	-25.1	-25.8	17.5	0.00e+00	0	43	0	875560960	11	3907
2026-01-15 10:35:50.59	8.34	17.52	-25.1	-25.9	17.5	0.00e+00	0	43	0	881852416	11	3926
2026-01-15 10:35:51.60	8.16	17.45	-25.1	-25.9	17.5	0.00e+00	0	43	0	887095296	11	3920
2026-01-15 10:35:52.59	7.97	17.37	-25.3	-26.3	17.3	0.00e+00	0	43	0	893386752	11	4035
2026-01-15 10:35:53.60	7.79	17.30	-25.4	-26.4	17.2	0.00e+00	0	43	0	898629632	11	4054
2026-01-15 10:35:54.60	7.61	17.23	-25.1	-25.9	17.5	0.00e+00	0	43	0	903872512	11	3936
2026-01-15 10:35:55.60	7.43	17.16	-25.0	-25.7	17.6	0.00e+00	0	43	0	910163968	11	3895
2026-01-15 10:35:56.61	7.25	17.09	-25.1	-25.7	17.6	0.00e+00	0	43	0	915406848	11	3898
2026-01-15 10:35:57.62	7.07	17.01	-25.1	-25.8	17.5	0.00e+00	0	43	0	920649728	11	3919
2026-01-15 10:35:58.62	6.90	16.94	-25.2	-26.0	17.4	0.00e+00	0	43	0	926941184	11	3970
2026-01-15 10:35:59.63	6.72	16.87	-25.2	-26.0	17.4	0.00e+00	0	43	0	932184064	11	3953
2026-01-15 10:36:00.63	6.54	16.80	-25.1	-25.9	17.5	0.00e+00	0	43	0	938475520	11	3933
2026-01-15 10:36:01.63	6.37	16.73	-25.2	-26.0	17.4	0.00e+00	0	43	0	943718400	11	3951
2026-01-15 10:36:02.63	6.19	16.65	-25.2	-26.0	17.4	0.00e+00	0	43	0	948961280	11	3950
2026-01-15 10:36:03.63	6.02	16.58	-25.2	-26.0	17.4	0.00e+00	0	43	0	955252736	11	3955
2026-01-15 10:36:04.63	5.85	16.51	-25.2	-26.0	17.4	0.00e+00	0	44	0	960495616	11	3949
2026-01-15 10:36:05.63	5.68	16.44	-25.2	-26.0	17.4	0.00e+00	0	44	0	965738496	11	3958
2026-01-15 10:36:06.63	5.51	16.36	-25.1	-25.9	17.5	0.00e+00	0	43	0	972029952	11	3927
2026-01-15 10:36:07.63	5.34	16.29	-25.2	-26.0	17.4	0.00e+00	0	43	0	977272832	11	3947
2026-01-15 10:36:08.64	5.17	16.22	-25.1	-25.8	17.5	0.00e+00	0	43	0	982515712	11	3909
2026-01-15 10:36:09.64	5.00	16.15	-25.1	-25.8	17.5	0.00e+00	0	43	0	988807168	11	3906
2026-01-15 10:36:10.64	4.84	16.07	-25.2	-26.0	17.4	0.00e+00	0	43	0	994050048	11	3947
2026-01-15 10:36:11.64	4.67	16.00	-25.2	-26.1	17.3	0.00e+00	0	43	0	1000341504	11	3971
2026-01-15 10:36:12.64	4.50	15.93	-25.3	-26.2	17.3	0.00e+00	0	44	0	1005584384	11	4012
2026-01-15 10:36:13.65	4.34	15.86	-25.4	-26.5	17.1	0.00e+00	0	44	0	1011875840	11	4082
2026-01-15 10:36:14.65	4.18	15.78	-25.4	-26.5	17.1	0.00e+00	0	43	0	1017118720	11	4087
2026-01-15 10:36:15.66	4.01	15.71	-25.4	-26.5	17.1	0.00e+00	0	43	0	1022361600	11	4087
2026-01-15 10:36:16.67	3.85	15.64	-25.5	-26.7	16.9	0.00e+00	0	44	0	1028653056	11	4141
2026-01-15 10:36:17.66	3.69	15.56	-25.5	-26.7	17.0	0.00e+00	0	43	0	1033895936	11	4138
2026-01-15 10:36:18.66	3.53	15.49	-25.5	-26.8	16.9	0.00e+00	0	43	0	1039138816	11	4155
2026-01-15 10:36:19.66	3.37	15.42	-25.7	-27.1	16.8	0.00e+00	0	44	0	1045430272	11	4240
2026-01-15 10:36:20.67	3.21	15.35	-25.6	-26.9	16.9	0.00e+00	0	43	0	1050673152	11	4187
2026-01-15 10:36:21.67	3.05	15.27	-25.5	-26.6	17.0	0.00e+00	0	43	0	1055916032	11	4111
2026-01-15 10:36:22.67	2.89	15.20	-25.4	-26.5	17.0	0.00e+00	0	43	0	1062207488	11	4095
2026-01-15 10:36:23.67	2.74	15.13	-25.5	-26.6	17.0	0.00e+00	0	44	0	1067450368	11	4114
2026-01-15 10:36:24.68	2.58	15.05	-25.5	-26.8	16.9	0.00e+00	0	44	0	1073741824	11	4155
2026-01-15 10:36:25.68	2.42	14.98	-25.6	-26.9	16.9	0.00e+00	0	43	0	1078984704	11	4182
2026-01-15 10:36:26.68	2.27	14.91	-25.6	-27.0	16.8	0.00e+00	0	43	0	1084227584	11	4216
2026-01-15 10:36:27.69	2.12	14.84	-25.7	-27.1	16.8	0.00e+00	0	43	0	1090519040	11	4233
2026-01-15 10:36:28.70	1.96	14.76	-25.7	-27.1	16.7	0.00e+00	0	43	0	1095761920	11	4247
2026-01-15 10:36:29.71	1.81	14.69	-25.8	-27.4	16.5	0.00e+00	0	43	0	1102053376	11	4329
2026-01-15 10:36:30.71	1.66	14.62	-25.8	-27.3	16.6	0.00e+00	0	43	0	1107296256	11	4286
2026-01-15 10:36:31.72	1.51	14.54	-25.7	-27.1	16.7	0.00e+00	0	43	0	1112539136	11	4231
2026-01-15 10:36:32.73	1.36	14.47	-25.7	-27.1	16.7	0.00e+00	0	43	0	1118830592	11	4241
2026-01-15 10:36:33.74	1.21	14.40	-25.8	-27.3	16.6	0.00e+00	0	44	0	1124073472	11	4287
2026-01-15 10:36:34.74	1.06	14.32	-25.7	-27.2	16.7	0.00e+00	0	43	0	1129316352	11	4253
2026-01-15 10:36:35.74	0.91	14.25	-25.8	-27.3	16.6	0.00e+00	0	43	0	1135607808	11	4307
2026-01-15 10:36:36.75	0.76	14.18	-25.8	-27.4	16.5	0.00e+00	0	43	0	1140850688	11	4310
2026-01-15 10:36:37.75	0.62	14.10	-25.7	-27.2	16.6	0.00e+00	0	43	0	1147142144	11	4281
2026-01-15 10:36:38.74	0.47	14.03	-25.7	-27.2	16.6	0.00e+00	0	43	0	1152385024	11	4270
2026-01-15 10:36:39.75	0.33	13.96	-25.8	-27.3	16.6	0.00e+00	0	43	0	1158676480	11	4307
2026-01-15 10:36:40.75	0.18	13.89	-26.0	-27.3	16.2	0.00e+00	0	43	0	1163919360	12	4181
2026-01-15 10:36:41.76	0.04	13.81	-26.1	-27.4	16.1	0.00e+00	0	43	0	1169162240	12	4221
2026-01-15 10:36:42.76	359.90	13.74	-25.9	-27.1	16.3	0.00e+00	0	44	0	1175453696	12	4131
2026-01-15 10:36:43.77	359.75	13.67	-25.8	-26.8	16.5	0.00e+00	0	43	0	1180696576	12	4061
2026-01-15 10:36:44.77	359.61	13.60	-25.8	-26.9	16.4	0.00e+00	0	43	0	1185939456	12	4091
2026-01-15 10:36:45.77	359.47	13.52	-25.9	-27.0	16.4	0.00e+00	0	43	0	1192230912	12	4116
2026-01-15 10:36:46.78	359.33	13.45	-25.8	-26.9	16.4	0.00e+00	0	43	0	1197473792	12	4083
2026-01-15 10:36:47.78	359.19	13.38	-25.9	-27.0	16.4	0.00e+00	0	43	0	1202716672	12	4113
2026-01-15 10:36:48.78	359.06	13.31	-25.9	-27.0	16.3	0.00e+00	0	43	0	1209008128	12	4113
2026-01-15 10:36:49.79	358.92	13.24	-25.9	-27.2	16.2	0.00e+00	0	44	0	1214251008	12	4148
2026-01-15 10:36:50.79	358.78	13.16	-25.9	-27.1	16.3	0.00e+00	0	43	0	1220542464	12	4135
2026-01-15 10:36:51.80	358.64	13.09	-25.9	-27.1	16.3	0.00e+00	0	43	0	1225785344	12	4120
2026-01-15 10:36:52.80	358.51	13.02	-25.9	-27.2	16.2	0.00e+00	0	43	0	1232076800	12	4155
2026-01-15 10:36:53.80	358.37	12.95	-26.0	-27.3	16.2	0.00e+00	0	44	0	1237319680	12	4198
2026-01-15 10:36:54.80	358.24	12.88	-26.2	-27.7	15.9	0.00e+00	0	44	0	1242562560	12	4297
2026-01-15 10:36:55.81	358.11	12.80	-26.1	-27.5	16.1	1.10e-06	0	44	0	1248854016	12	4232
2026-01-15 10:36:56.81	357.97	12.73	-26.0	-27.2	16.2	0.00e+00	0	43	0	1254096896	12	4170
2026-01-15 10:36:57.81	357.84	12.66	-25.9	-27.2	16.2	0.00e+00	0	43	0	1259339776	12	4159
2026-01-15 10:36:58.81	357.71	12.59	-25.9	-27.0	16.3	0.00e+00	0	43	0	1265631232	12	4116
2026-01-15 10:36:59.81	357.58	12.52	-25.9	-27.1	16.2	0.00e+00	0	43	0	1270874112	12	4137
2026-01-15 10:37:00.81	357.45	12.45	-26.0	-27.3	16.1	0.00e+00	0	43	0	1276116992	12	4189
2026-01-15 10:37:01.82	357.32	12.37	-26.1	-27.5	16.1	0.00e+00	0	43	0	1282408448	12	4229
2026-01-15 10:37:02.83	357.19	12.30	-26.1	-27.6	16.0	0.00e+00	0	44	0	1287651328	12	4263
2026-01-15 10:37:03.83	357.06	12.23	-26.2	-27.8	15.9	0.00e+00	0	43	0	1293942784	12	4319
2026-01-15 10:37:04.84	356.93	12.16	-26.3	-28.0	15.8	0.00e+00	0	43	0	1299185664	12	4374
2026-01-15 10:37:05.84	356.81	12.09	-26.4	-28.1	15.7	0.00e+00	0	43	0	1304428544	12	4419
2026-01-15 10:37:06.84	356.68	12.02	-26.4	-28.2	15.6	0.00e+00	0	43	0	1310720000	12	4432
2026-01-15 10:37:07.85	356.55	11.94	-26.4	-28.3	15.6	0.00e+00	0	43	0	1315962880	12	4458
2026-01-15 10:37:08.85	356.43	11.87	-26.7	-28.4	15.2	0.00e+00	0	43	0	1322254336	13	4371
2026-01-15 10:37:09.85	356.31	11.80	-26.8	-28.6	15.1	0.00e+00	0	44	0	1327497216	13	4433
2026-01-15 10:37:10.86	356.18	11.73	-26.6	-28.1	15.3	0.00e+00	0	44	0	1332740096	13	4290
2026-01-15 10:37:11.86	356.06	11.66	-26.4	-27.8	15.5	0.00e+00	0	43	0	1339031552	13	4207
2026-01-15 10:37:12.87	355.93	11.59	-26.3	-27.6	15.6	0.00e+00	0	44	0	1344274432	13	4162
2026-01-15 10:37:13.86	355.81	11.52	-26.4	-27.7	15.6	0.00e+00	0	43	0	1349517312	13	4195
2026-01-15 10:37:14.87	355.69	11.45	-26.6	-28.2	15.3	0.00e+00	0	43	0	1355808768	13	4308
2026-01-15 10:37:15.88	355.57	11.38	-26.5	-27.9	15.5	0.00e+00	0	44	0	1361051648	13	4229
2026-01-15 10:37:16.88	355.45	11.31	-26.5	-27.8	15.5	0.00e+00	0	43	0	1367343104	13	4225
2026-01-15 10:37:17.89	355.33	11.24	-26.5	-27.9	15.5	0.00e+00	0	43	0	1372585984	13	4233
2026-01-15 10:37:18.88	355.21	11.17	-26.4	-27.8	15.5	0.00e+00	0	43	0	1377828864	13	4222
2026-01-15 10:37:19.88	355.09	11.10	-26.4	-27.7	15.5	0.00e+00	0	43	0	1384120320	13	4192
2026-01-15 10:37:20.89	354.98	11.03	-26.5	-27.9	15.4	0.00e+00	0	43	0	1389363200	13	4243
2026-01-15 10:37:21.89	354.86	10.96	-26.4	-27.8	15.5	0.00e+00	0	43	0	1394606080	13	4203
2026-01-15 10:37:22.89	354.74	10.89	-26.5	-27.9	15.4	0.00e+00	0	44	0	1400897536	13	4243
2026-01-15 10:37:23.90	354.62	10.82	-26.5	-28.0	15.3	0.00e+00	0	43	0	1406140416	13	4279
2026-01-15 10:37:24.91	354.51	10.75	-26.7	-28.3	15.2	0.00e+00	0	44	0	1412431872	13	4361
2026-01-15 10:37:25.90	354.39	10.68	-26.6	-28.1	15.3	0.00e+00	0	43	0	1417674752	13	4292
2026-01-15 10:37:26.90	354.28	10.61	-26.7	-28.5	15.1	0.00e+00	0	43	0	1422917632	13	4405
2026-01-15 10:37:27.90	354.17	10.54	-26.9	-28.9	14.8	0.00e+00	0	44	0	1429209088	13	4535
2026-01-15 10:37:28.89	354.06	10.47	-26.8	-28.6	15.0	0.00e+00	0	44	0	1434451968	13	4437
2026-01-15 10:37:29.90	353.94	10.40	-26.7	-28.4	15.1	0.00e+00	0	43	0	1440743424	13	4375
2026-01-15 10:37:30.90	353.83	10.33	-26.7	-28.4	15.1	0.00e+00	0	43	0	1445986304	13	4392
2026-01-15 10:37:31.90	353.72	10.26	-26.7	-28.3	15.1	0.00e+00	0	43	0	1451229184	13	4363
2026-01-15 10:37:32.91	353.61	10.19	-26.7	-28.5	15.0	1.10e-06	0	43	0	1457520640	13	4409
2026-01-15 10:37:33.91	353.50	10.12	-26.7	-28.5	15.0	0.00e+00	0	43	0	1462763520	13	4399
2026-01-15 10:37:34.91	353.39	10.05	-26.8	-28.5	15.0	0.00e+00	0	43	0	1468006400	13	4419
2026-01-15 10:37:35.91	353.28	9.99	-26.7	-28.4	15.1	0.00e+00	0	43	0	1474297856	13	4395
2026-01-15 10:37:36.92	353.17	9.92	-26.7	-28.5	15.0	0.00e+00	0	44	0	1479540736	13	4405
2026-01-15 10:37:37.92	353.06	9.85	-26.8	-28.6	14.9	0.00e+00	0	43	0	1484783616	13	4441
2026-01-15 10:37:38.92	352.95	9.78	-26.6	-28.2	15.2	0.00e+00	0	44	0	1491075072	13	4330
2026-01-15 10:37:39.93	352.84	9.71	-26.7	-28.4	15.1	0.00e+00	0	44	0	1496317952	13	4373
2026-01-15 10:37:40.93	352.74	9.64	-26.8	-28.6	14.9	0.00e+00	0	43	0	1502609408	13	4457
2026-01-15 10:37:41.94	352.63	9.57	-26.9	-28.9	14.7	0.00e+00	0	43	0	1507852288	13	4524
2026-01-15 10:37:42.94	352.52	9.51	-27.0	-28.7	14.6	0.00e+00	0	43	0	1514143744	14	4361
2026-01-15 10:37:43.94	352.42	9.44	-27.0	-28.7	14.6	1.10e-06	0	44	0	1519386624	14	4367
2026-01-15 10:37:44.95	352.31	9.37	-27.0	-28.7	14.6	0.00e+00	0	43	0	1524629504	14	4354
2026-01-15 10:37:45.95	352.21	9.30	-27.2	-29.0	14.4	0.00e+00	0	44	0	1530920960	14	4454
2026-01-15 10:37:46.95	352.11	9.23	-27.0	-28.7	14.5	1.10e-06	0	43	0	1536163840	14	4360
2026-01-15 10:37:47.96	352.00	9.16	-27.2	-29.0	14.4	0.00e+00	0	43	0	1541406720	14	4433
2026-01-15 10:37:48.96	351.90	9.10	-27.0	-28.6	14.6	0.00e+00	0	44	0	1547698176	14	4327
2026-01-15 10:37:49.96	351.80	9.03	-26.9	-28.4	14.7	1.10e-06	0	43	0	1552941056	14	4286
2026-01-15 10:37:50.97	351.69	8.96	-27.0	-28.6	14.6	0.00e+00	0	43	0	1559232512	14	4344
2026-01-15 10:37:51.97	351.59	8.89	-27.1	-28.9	14.5	0.00e+00	0	43	0	1564475392	14	4409
2026-01-15 10:37:52.97	351.49	8.83	-27.1	-28.9	14.4	0.00e+00	0	43	0	1569718272	14	4417
2026-01-15 10:37:53.97	351.39	8.76	-27.2	-29.0	14.4	0.00e+00	0	43	0	1576009728	14	4450
2026-01-15 10:37:54.97	351.29	8.69	-27.4	-29.5	14.1	0.00e+00	0	43	0	1581252608	14	4589
2026-01-15 10:37:55.98	351.19	8.63	-27.2	-29.0	14.4	0.00e+00	0	43	0	1586495488	14	4446
2026-01-15 10:37:56.98	351.09	8.56	-27.1	-28.8	14.5	0.00e+00	0	44	0	1592786944	14	4398
2026-01-15 10:37:57.99	350.99	8.49	-27.1	-29.0	14.3	0.00e+00	0	43	0	1598029824	14	4434
2026-01-15 10:37:58.99	350.90	8.43	-27.1	-28.8	14.5	0.00e+00	0	43	0	1604321280	14	4386
2026-01-15 10:38:00.00	350.80	8.36	-27.2	-29.1	14.3	0.00e+00	0	44	0	1609564160	14	4465
2026-01-15 10:38:01.00	350.70	8.29	-27.3	-29.3	14.1	0.00e+00	0	43	0	1614807040	14	4547
2026-01-15 10:38:02.00	350.61	8.23	-27.3	-29.3	14.2	0.00e+00	0	43	0	1621098496	14	4534
2026-01-15 10:38:03.01	350.51	8.16	-27.1	-28.8	14.4	0.00e+00	0	44	0	1626341376	14	4405
2026-01-15 10:38:04.01	350.41	8.09	-27.2	-29.1	14.2	0.00e+00	0	44	0	1632632832	14	4471
2026-01-15 10:38:05.01	350.32	8.03	-27.2	-29.1	14.2	1.10e-06	0	44	0	1637875712	14	4479
2026-01-15 10:38:06.01	350.22	7.96	-27.3	-29.4	14.1	0.00e+00	0	44	0	1643118592	14	4552
2026-01-15 10:38:07.01	350.13	7.90	-27.2	-29.0	14.3	0.00e+00	0	43	0	1649410048	14	4449
2026-01-15 10:38:08.02	350.03	7.83	-27.1	-29.0	14.3	0.00e+00	0	44	0	1654652928	14	4440
2026-01-15 10:38:09.02	349.94	7.76	-27.1	-28.8	14.4	1.10e-06	0	44	0	1659895808	14	4386
2026-01-15 10:38:10.02	349.85	7.70	-27.1	-28.8	14.4	1.10e-06	0	43	0	1666187264	14	4384
2026-01-15 10:38:11.03	349.75	7.63	-27.0	-28.6	14.5	0.00e+00	0	43	0	1671430144	14	4342
2026-01-15 10:38:12.03	349.66	7.57	-27.1	-28.9	14.3	0.00e+00	0	43	0	1676673024	14	4408
2026-01-15 10:38:13.04	349.57	7.50	-27.3	-29.3	14.0	0.00e+00	0	44	0	1682964480	14	4551
2026-01-15 10:38:14.04	349.48	7.44	-27.3	-29.3	14.1	0.00e+00	0	43	0	1688207360	14	4528
2026-01-15 10:38:15.04	349.39	7.37	-27.2	-29.1	14.1	1.10e-06	0	43	0	1694498816	14	4486
2026-01-15 10:38:16.04	349.30	7.31	-27.5	-29.3	13.7	1.10e-06	0	43	0	1699741696	15	4437
2026-01-15 10:38:17.04	349.21	7.24	-27.3	-28.9	14.0	1.10e-06	0	43	0	1706033152	15	4307
2026-01-15 10:38:18.04	349.12	7.18	-27.1	-28.5	14.2	1.10e-06	0	43	0	1711276032	15	4208
2026-01-15 10:38:19.04	349.03	7.11	-27.1	-28.5	14.2	0.00e+00	0	44	0	1716518912	15	4203
2026-01-15 10:38:20.05	348.94	7.05	-33.1	-42.0	3.9	8.42e-01	0	44	104	1719664640	26	9998
2026-01-15 10:38:21.06	348.85	6.98	-33.7	-44.4	3.8	8.46e-01	0	44	104	1719664640	27	12424
2026-01-15 10:38:22.06	348.76	6.92	-33.9	-45.4	3.8	8.46e-01	0	44	104	1719664640	27	13464

#Closed at: 2026-01-15 10:38:22
#Recorded file [1719 MB]: D:/data/31010_260115_133313.dat