passes_logs/2026/01/15/R2M6_AANII_01/R2M6_AANII_01__20260115_231607_SUOMI_NPP_rec.log

#Pass ID: 20260115_231607_SUOMI NPP
#Satellite: SUOMI NPP
#Configuration: NPP
#almurnet v.1.7.20240730
#Start time: 2026-01-15 23:16:08

#Version: 2.2.20231116
#Station: R2M6_AANII_01
#Location: 30.233357 lon 59.946436 lat
#TLE: 1 37849U 11061A   26015.52691075  .00000052  00000+0  45753-4 0  9993
#TLE: 2 37849  98.7811 317.5709 0002448  62.7632 297.3794 14.19525354736784

#Time	Az	El	Level	Level2	SNR	BER	BlckErr	Temp	State	Recorded	gain1	gain2
2026-01-15 23:16:08.84	25.79	7.12	-31.8	-36.8	5.0	1.27e+00	0	41	0	0	23	6401
2026-01-15 23:16:09.84	25.86	7.19	-32.2	-38.2	4.6	1.39e+00	0	41	104	0	24	7197
2026-01-15 23:16:10.84	25.93	7.26	-32.3	-38.8	5.8	2.69e-01	0	41	0	0	24	7610
2026-01-15 23:16:11.85	26.00	7.33	-32.3	-38.5	6.0	3.30e-01	0	41	0	1048576	24	7397
2026-01-15 23:16:12.85	26.07	7.40	-32.1	-37.6	6.6	2.14e-01	0	41	0	3145728	24	6772
2026-01-15 23:16:13.85	26.14	7.47	-31.9	-36.7	7.7	1.18e-01	0	41	0	5242880	23	6316
2026-01-15 23:16:14.86	26.21	7.54	-31.7	-36.1	8.2	6.06e-02	0	41	0	7340032	23	5964
2026-01-15 23:16:15.85	26.28	7.61	-31.5	-35.0	9.1	2.69e-02	0	41	0	9437184	23	5409
2026-01-15 23:16:16.85	26.35	7.69	-31.5	-35.1	9.1	2.72e-02	0	42	0	10485760	23	5446
2026-01-15 23:16:17.86	26.42	7.76	-31.4	-34.8	9.2	2.37e-02	0	41	0	12582912	23	5321
2026-01-15 23:16:18.86	26.50	7.83	-31.5	-35.2	9.0	2.80e-02	0	41	0	14680064	23	5519
2026-01-15 23:16:19.87	26.57	7.90	-31.4	-34.6	9.4	2.18e-02	0	41	0	16777216	23	5248
2026-01-15 23:16:20.87	26.64	7.97	-31.4	-34.8	9.4	1.36e-02	0	41	0	17825792	23	5295
2026-01-15 23:16:21.87	26.71	8.04	-31.5	-34.9	9.2	1.93e-02	0	42	0	19922944	23	5367
2026-01-15 23:16:22.87	26.79	8.12	-31.4	-35.1	9.4	1.52e-02	0	41	0	22020096	22	5525
2026-01-15 23:16:23.87	26.86	8.19	-31.4	-34.8	9.3	1.65e-02	0	42	0	24117248	23	5292
2026-01-15 23:16:24.87	26.93	8.26	-31.5	-34.9	9.3	1.59e-02	0	42	0	26214400	23	5328
2026-01-15 23:16:25.87	27.01	8.33	-31.6	-35.4	8.9	3.05e-02	0	42	0	27262976	23	5584
2026-01-15 23:16:26.87	27.08	8.41	-31.5	-35.1	9.2	2.51e-02	0	42	0	29360128	23	5438
2026-01-15 23:16:27.87	27.16	8.48	-31.3	-34.4	9.7	2.44e-02	0	42	0	31457280	23	5125
2026-01-15 23:16:28.87	27.23	8.55	-31.2	-34.3	10.2	6.28e-03	0	42	0	33554432	22	5142
2026-01-15 23:16:29.87	27.31	8.63	-31.0	-33.6	10.8	3.04e-03	0	41	0	35651584	22	4858
2026-01-15 23:16:30.86	27.38	8.70	-30.9	-33.9	10.8	1.81e-03	0	42	0	36700160	21	5090
2026-01-15 23:16:31.87	27.46	8.77	-30.8	-33.7	11.1	2.82e-03	0	41	0	38797312	21	4982
2026-01-15 23:16:32.87	27.54	8.85	-31.1	-34.1	10.4	2.51e-03	0	42	0	40894464	22	5065
2026-01-15 23:16:33.87	27.61	8.92	-31.0	-33.5	10.8	2.90e-03	0	42	0	42991616	22	4835
2026-01-15 23:16:34.88	27.69	9.00	-30.9	-33.2	11.0	3.07e-03	0	42	0	45088768	22	4722
2026-01-15 23:16:35.88	27.77	9.07	-30.7	-32.6	11.5	9.03e-04	0	42	0	46137344	22	4471
2026-01-15 23:16:36.88	27.85	9.15	-30.5	-32.7	11.8	6.89e-04	0	42	0	48234496	21	4601
2026-01-15 23:16:37.89	27.93	9.22	-30.6	-32.9	11.6	7.51e-04	0	42	0	50331648	21	4696
2026-01-15 23:16:38.89	28.01	9.30	-30.5	-32.4	12.0	4.26e-04	0	42	0	52428800	21	4511
2026-01-15 23:16:39.89	28.09	9.37	-30.5	-32.7	11.8	3.11e-04	0	42	0	54525952	21	4605
2026-01-15 23:16:40.90	28.17	9.45	-30.8	-33.5	11.2	9.02e-04	0	42	0	55574528	21	4896
2026-01-15 23:16:41.90	28.25	9.52	-30.5	-32.6	11.9	8.76e-04	0	42	0	57671680	21	4579
2026-01-15 23:16:42.90	28.33	9.60	-30.5	-32.5	12.0	3.55e-04	0	42	0	59768832	21	4544
2026-01-15 23:16:43.91	28.41	9.67	-30.5	-33.0	12.0	1.95e-04	0	42	0	61865984	20	4790
2026-01-15 23:16:44.91	28.49	9.75	-30.3	-32.0	12.3	3.09e-04	0	42	0	62914560	21	4382
2026-01-15 23:16:45.91	28.57	9.83	-30.4	-32.9	12.1	2.82e-04	0	42	0	65011712	20	4755
2026-01-15 23:16:46.91	28.65	9.90	-30.4	-32.8	12.1	2.76e-04	0	42	0	67108864	20	4734
2026-01-15 23:16:47.91	28.74	9.98	-30.3	-32.5	12.4	2.29e-04	0	42	0	69206016	20	4615
2026-01-15 23:16:48.91	28.82	10.06	-30.4	-32.7	12.3	2.18e-04	0	42	0	71303168	20	4688
2026-01-15 23:16:49.91	28.90	10.13	-30.4	-32.7	12.2	2.75e-04	0	42	0	72351744	20	4700
2026-01-15 23:16:50.92	28.99	10.21	-30.4	-32.8	12.2	1.57e-04	0	42	0	74448896	20	4720
2026-01-15 23:16:51.92	29.07	10.29	-30.6	-32.7	11.9	1.87e-04	0	42	0	76546048	21	4615
2026-01-15 23:16:52.92	29.16	10.37	-30.7	-33.1	11.6	4.49e-04	0	42	0	78643200	21	4760
2026-01-15 23:16:53.92	29.24	10.44	-30.5	-32.4	12.0	4.21e-04	0	42	0	80740352	21	4510
2026-01-15 23:16:54.93	29.33	10.52	-30.4	-32.1	12.2	2.06e-04	0	42	0	81788928	21	4387
2026-01-15 23:16:55.92	29.41	10.60	-30.2	-32.0	12.4	9.38e-05	0	42	0	83886080	20	4463
2026-01-15 23:16:56.93	29.50	10.68	-30.0	-31.6	13.0	3.43e-05	0	42	0	85983232	20	4330
2026-01-15 23:16:57.93	29.59	10.76	-30.1	-31.7	13.0	2.74e-05	0	42	0	88080384	20	4344
2026-01-15 23:16:58.93	29.67	10.84	-30.1	-31.7	12.9	5.79e-05	0	42	0	90177536	20	4360
2026-01-15 23:16:59.93	29.76	10.91	-30.0	-31.5	13.1	6.48e-05	0	42	0	91226112	20	4292
2026-01-15 23:17:00.93	29.85	10.99	-29.9	-31.2	13.3	2.05e-05	0	42	0	93323264	20	4199
2026-01-15 23:17:01.93	29.94	11.07	-30.0	-31.5	13.1	2.13e-05	0	43	0	95420416	20	4280
2026-01-15 23:17:02.93	30.03	11.15	-30.0	-31.5	13.2	2.44e-05	0	42	0	97517568	20	4269
2026-01-15 23:17:03.93	30.11	11.23	-29.9	-31.8	13.4	1.37e-05	0	42	0	98566144	19	4459
2026-01-15 23:17:04.92	30.20	11.31	-30.0	-31.4	13.2	1.60e-05	0	43	0	100663296	20	4248
2026-01-15 23:17:05.93	30.29	11.39	-29.2	-30.6	13.2	4.04e-05	0	42	0	102760448	20	4237
2026-01-15 23:17:06.93	30.39	11.47	-30.1	-31.8	12.8	1.47e-04	0	42	0	104857600	20	4377
2026-01-15 23:17:07.94	30.48	11.55	-30.0	-31.4	13.2	3.20e-05	0	42	0	106954752	20	4247
2026-01-15 23:17:08.94	30.57	11.63	-30.2	-31.9	12.9	3.81e-05	0	43	0	108003328	20	4426
2026-01-15 23:17:09.95	30.66	11.72	-30.0	-31.7	13.0	1.12e-03	0	42	0	110100480	20	4331
2026-01-15 23:17:10.95	30.75	11.80	-30.2	-32.0	12.9	5.34e-04	0	42	0	112197632	20	4427
2026-01-15 23:17:11.95	30.85	11.88	-30.2	-32.0	12.8	6.48e-05	0	42	0	114294784	20	4444
2026-01-15 23:17:12.95	30.94	11.96	-30.3	-32.5	12.5	7.78e-05	0	43	0	116391936	20	4596
2026-01-15 23:17:13.96	31.04	12.04	-30.4	-32.7	12.4	9.06e-04	0	43	0	117440512	20	4662
2026-01-15 23:17:14.96	31.13	12.12	-30.4	-32.7	12.4	9.46e-05	0	42	0	119537664	20	4676
2026-01-15 23:17:15.96	31.23	12.21	-30.2	-32.0	12.8	9.76e-05	0	43	0	121634816	20	4455
2026-01-15 23:17:16.96	31.32	12.29	-30.2	-31.9	12.8	4.90e-04	0	43	0	123731968	20	4416
2026-01-15 23:17:17.96	31.42	12.37	-30.2	-32.2	12.7	6.02e-05	0	43	0	125829120	20	4488
2026-01-15 23:17:18.96	31.52	12.45	-30.1	-31.8	13.0	4.42e-05	0	43	0	126877696	20	4373
2026-01-15 23:17:19.96	31.61	12.54	-30.1	-31.9	13.0	2.89e-05	0	43	0	128974848	20	4398
2026-01-15 23:17:20.96	31.71	12.62	-30.0	-31.6	13.2	6.43e-04	0	43	0	131072000	20	4289
2026-01-15 23:17:21.96	31.81	12.70	-29.9	-31.3	13.4	2.51e-05	0	43	0	133169152	20	4213
2026-01-15 23:17:22.96	31.91	12.79	-30.0	-31.4	13.3	1.29e-05	0	43	0	135266304	20	4230
2026-01-15 23:17:23.97	32.01	12.87	-30.0	-31.4	13.3	5.07e-04	0	43	0	136314880	20	4241
2026-01-15 23:17:24.97	32.11	12.96	-29.8	-31.4	13.7	6.10e-06	0	43	0	138412032	19	4320
2026-01-15 23:17:25.97	32.21	13.04	-29.9	-31.5	13.6	3.80e-06	0	43	0	140509184	19	4367
2026-01-15 23:17:26.97	32.31	13.13	-29.9	-31.7	13.5	8.30e-06	0	43	0	142606336	19	4414
2026-01-15 23:17:27.97	32.41	13.21	-29.9	-31.7	13.6	5.58e-04	0	43	0	143654912	19	4406
2026-01-15 23:17:28.98	32.51	13.30	-29.9	-31.7	13.6	6.02e-05	0	43	0	145752064	19	4406
2026-01-15 23:17:29.97	32.62	13.38	-29.8	-31.0	13.6	1.22e-05	0	43	0	147849216	20	4117
2026-01-15 23:17:30.97	32.72	13.47	-29.7	-31.1	14.0	7.11e-04	0	43	0	149946368	19	4218
2026-01-15 23:17:31.97	32.82	13.55	-29.8	-31.5	13.7	2.97e-04	0	43	0	152043520	19	4344
2026-01-15 23:17:32.97	32.93	13.64	-29.9	-31.6	13.6	6.80e-06	0	43	0	153092096	19	4390
2026-01-15 23:17:33.97	33.03	13.72	-29.8	-31.4	13.7	7.25e-04	0	43	0	155189248	19	4330
2026-01-15 23:17:34.97	33.14	13.81	-29.8	-31.4	13.7	3.34e-04	0	43	0	157286400	19	4332
2026-01-15 23:17:35.96	33.24	13.90	-29.9	-31.6	13.7	6.10e-06	0	43	0	159383552	19	4375
2026-01-15 23:17:36.96	33.35	13.98	-29.9	-31.6	13.7	8.30e-06	0	43	0	161480704	19	4382
2026-01-15 23:17:37.96	33.46	14.07	-30.0	-31.4	13.4	3.36e-04	0	43	0	162529280	20	4241
2026-01-15 23:17:38.96	33.56	14.16	-30.2	-31.9	13.1	3.07e-04	0	43	0	164626432	20	4377
2026-01-15 23:17:39.97	33.67	14.24	-30.1	-31.8	13.2	3.68e-04	0	43	0	166723584	20	4365
2026-01-15 23:17:40.96	33.78	14.33	-30.3	-32.1	12.9	3.97e-04	0	43	0	168820736	20	4471
2026-01-15 23:17:41.96	33.89	14.42	-30.2	-32.1	13.0	4.07e-04	0	43	0	169869312	20	4440
2026-01-15 23:17:42.97	34.00	14.51	-30.3	-32.3	12.8	7.15e-04	0	43	0	171966464	20	4515
2026-01-15 23:17:43.96	34.11	14.60	-30.6	-32.6	12.3	1.28e-04	0	43	0	174063616	21	4524
2026-01-15 23:17:44.97	34.23	14.69	-30.6	-32.7	12.2	6.11e-04	0	43	0	176160768	21	4558
2026-01-15 23:17:45.97	34.34	14.77	-30.7	-32.9	12.1	9.28e-04	0	43	0	178257920	21	4648
2026-01-15 23:17:46.96	34.45	14.86	-30.8	-33.2	11.9	6.24e-04	0	43	0	179306496	21	4744
2026-01-15 23:17:47.97	34.56	14.95	-30.7	-32.8	12.2	5.80e-04	0	43	0	181403648	21	4585
2026-01-15 23:17:48.96	34.68	15.04	-30.6	-32.5	12.4	7.67e-04	0	43	0	183500800	21	4503
2026-01-15 23:17:49.97	34.79	15.13	-30.4	-32.1	12.7	2.80e-04	0	43	0	185597952	21	4356
2026-01-15 23:17:50.98	34.91	15.22	-30.6	-32.5	12.4	1.02e-04	0	43	0	187695104	21	4485
2026-01-15 23:17:51.98	35.03	15.31	-30.5	-32.1	12.6	4.09e-04	0	43	0	188743680	21	4364
2026-01-15 23:17:52.98	35.14	15.40	-30.7	-32.7	12.3	1.36e-04	0	43	0	190840832	21	4552
2026-01-15 23:17:53.98	35.26	15.49	-30.5	-32.1	12.6	3.45e-04	0	43	0	192937984	21	4365
2026-01-15 23:17:54.97	35.38	15.58	-30.2	-31.5	13.1	2.27e-04	0	43	0	195035136	21	4166
2026-01-15 23:17:55.98	35.50	15.67	-30.3	-31.6	13.1	3.58e-05	0	43	0	197132288	21	4192
2026-01-15 23:17:56.98	35.62	15.77	-30.3	-31.7	13.0	1.85e-04	0	43	0	198180864	21	4228
2026-01-15 23:17:57.99	35.74	15.86	-30.4	-31.8	12.9	1.74e-04	0	43	0	200278016	21	4268
2026-01-15 23:17:58.98	35.86	15.95	-30.4	-31.8	12.9	3.20e-05	0	43	0	202375168	21	4270
2026-01-15 23:17:59.99	35.98	16.04	-30.4	-32.0	12.9	1.51e-04	0	43	0	204472320	21	4306
2026-01-15 23:18:00.98	36.10	16.13	-30.5	-32.3	12.6	1.57e-04	0	43	0	205520896	21	4428
2026-01-15 23:18:01.99	36.23	16.23	-30.4	-32.0	12.8	5.87e-05	0	43	0	207618048	21	4324
2026-01-15 23:18:02.99	36.35	16.32	-30.5	-32.2	12.7	2.02e-04	0	43	0	209715200	21	4370
2026-01-15 23:18:03.98	36.48	16.41	-30.4	-32.0	12.9	2.14e-04	0	43	0	211812352	21	4313
2026-01-15 23:18:04.99	36.60	16.51	-30.5	-32.3	12.6	6.25e-05	0	43	0	213909504	21	4394
2026-01-15 23:18:05.99	36.73	16.60	-30.6	-32.4	12.7	2.58e-04	0	43	0	214958080	21	4430
2026-01-15 23:18:06.99	36.86	16.69	-30.4	-31.9	13.0	3.14e-04	0	43	0	217055232	21	4269
2026-01-15 23:18:07.99	36.98	16.79	-30.5	-32.1	12.8	6.79e-05	0	43	0	219152384	21	4337
2026-01-15 23:18:08.99	37.11	16.88	-30.3	-31.6	13.1	1.75e-04	0	43	0	221249536	21	4187
2026-01-15 23:18:09.99	37.24	16.97	-30.4	-31.9	13.0	1.75e-04	0	43	0	223346688	21	4265
2026-01-15 23:18:11.00	37.37	17.07	-30.2	-31.4	13.3	6.33e-05	0	43	0	224395264	21	4138
2026-01-15 23:18:12.00	37.50	17.16	-30.3	-31.6	13.1	3.12e-05	0	43	0	226492416	21	4199
2026-01-15 23:18:13.00	37.64	17.26	-30.4	-31.8	13.0	1.25e-04	0	43	0	228589568	21	4252
2026-01-15 23:18:14.01	37.77	17.36	-30.2	-31.5	13.2	2.82e-05	0	43	0	230686720	21	4147
2026-01-15 23:18:15.01	37.90	17.45	-30.3	-31.6	13.2	1.04e-04	0	43	0	232783872	21	4181
2026-01-15 23:18:16.01	38.04	17.55	-30.4	-31.8	13.0	3.50e-05	0	43	0	233832448	21	4254
2026-01-15 23:18:17.01	38.17	17.64	-30.4	-31.9	13.0	4.27e-05	0	43	0	235929600	21	4271
2026-01-15 23:18:18.02	38.31	17.74	-30.4	-32.0	12.9	7.32e-05	0	43	0	238026752	21	4316
2026-01-15 23:18:19.03	38.45	17.84	-30.7	-32.7	12.5	9.15e-05	0	43	0	240123904	21	4544
2026-01-15 23:18:20.03	38.58	17.93	-30.7	-32.7	12.4	1.15e-04	0	43	0	242221056	21	4547
2026-01-15 23:18:21.04	38.72	18.03	-30.7	-32.7	12.5	1.07e-04	0	43	0	243269632	21	4537
2026-01-15 23:18:22.04	38.86	18.13	-30.7	-32.9	12.3	2.22e-04	0	43	0	245366784	21	4587
2026-01-15 23:18:23.04	39.00	18.23	-30.7	-32.6	12.5	1.31e-04	0	43	0	247463936	21	4518
2026-01-15 23:18:24.03	39.14	18.32	-30.6	-32.5	12.6	1.34e-04	0	43	0	249561088	21	4474
2026-01-15 23:18:25.04	39.29	18.42	-30.7	-32.8	12.4	3.21e-04	0	43	0	251658240	21	4565
2026-01-15 23:18:26.04	39.43	18.52	-30.6	-32.4	12.7	1.07e-04	0	43	0	252706816	21	4443
2026-01-15 23:18:27.03	39.57	18.62	-30.8	-32.9	12.4	1.32e-04	0	43	0	254803968	21	4587
2026-01-15 23:18:28.03	39.72	18.71	-30.7	-32.6	12.5	1.72e-04	0	43	0	256901120	21	4518
2026-01-15 23:18:29.03	39.86	18.81	-30.7	-32.6	12.6	9.61e-05	0	43	0	258998272	21	4489
2026-01-15 23:18:30.03	40.01	18.91	-30.5	-32.0	13.0	5.87e-05	0	43	0	260046848	21	4309
2026-01-15 23:18:31.03	40.15	19.01	-30.6	-32.4	12.7	5.26e-05	0	43	0	262144000	21	4431
2026-01-15 23:18:32.03	40.30	19.11	-30.7	-32.6	12.6	1.08e-04	0	43	0	264241152	21	4499
2026-01-15 23:18:33.03	40.45	19.21	-30.7	-32.6	12.6	1.03e-04	0	43	0	266338304	21	4505
2026-01-15 23:18:34.04	40.60	19.31	-30.7	-32.7	12.5	8.46e-05	0	43	0	268435456	21	4520
2026-01-15 23:18:35.04	40.75	19.41	-30.6	-32.4	12.8	8.85e-05	0	43	0	269484032	21	4435
2026-01-15 23:18:36.03	40.91	19.51	-30.5	-32.1	12.9	7.70e-05	0	43	0	271581184	21	4334
2026-01-15 23:18:37.04	41.06	19.61	-30.7	-32.7	12.6	5.41e-05	0	43	0	273678336	21	4513
2026-01-15 23:18:38.04	41.21	19.71	-30.6	-32.4	12.7	6.63e-05	0	43	0	275775488	21	4434
2026-01-15 23:18:39.04	41.37	19.81	-30.7	-32.8	12.5	7.01e-05	0	43	0	277872640	21	4546
2026-01-15 23:18:40.04	41.52	19.91	-30.8	-32.8	12.5	9.53e-05	0	43	0	278921216	21	4574
2026-01-15 23:18:41.03	41.68	20.01	-30.8	-32.9	12.4	1.56e-04	0	43	0	281018368	21	4587
2026-01-15 23:18:42.03	41.84	20.11	-30.6	-32.3	12.8	1.08e-04	0	43	0	283115520	21	4378
2026-01-15 23:18:43.02	41.99	20.21	-30.5	-32.0	13.1	3.96e-05	0	43	0	285212672	21	4292
2026-01-15 23:18:44.03	42.16	20.32	-30.3	-32.1	13.3	2.67e-05	0	43	0	286261248	20	4416
2026-01-15 23:18:45.03	42.32	20.42	-30.4	-32.4	13.0	2.97e-05	0	43	0	288358400	20	4519
2026-01-15 23:18:46.03	42.48	20.52	-30.3	-32.1	13.3	3.28e-05	0	43	0	290455552	20	4430
2026-01-15 23:18:47.02	42.64	20.62	-30.1	-31.4	13.7	2.20e-06	0	43	0	292552704	20	4181
2026-01-15 23:18:48.02	42.81	20.73	-29.9	-30.9	14.0	6.10e-06	0	43	0	294649856	20	4065
2026-01-15 23:18:49.02	42.97	20.83	-29.9	-31.4	14.2	3.00e-06	0	43	0	295698432	19	4291
2026-01-15 23:18:50.02	43.14	20.93	-29.7	-30.5	14.3	0.00e+00	0	43	0	297795584	20	3937
2026-01-15 23:18:51.03	43.31	21.04	-29.6	-30.1	14.6	0.00e+00	0	43	0	299892736	20	3825
2026-01-15 23:18:52.02	43.47	21.14	-29.7	-31.0	14.5	0.00e+00	0	43	0	301989888	19	4150
2026-01-15 23:18:53.03	43.64	21.24	-29.5	-30.3	14.9	0.00e+00	0	43	0	304087040	19	3958
2026-01-15 23:18:54.03	43.81	21.35	-29.4	-30.1	15.0	0.00e+00	0	43	0	305135616	19	3910
2026-01-15 23:18:55.03	43.99	21.45	-29.7	-31.0	14.5	0.00e+00	0	43	0	307232768	19	4147
2026-01-15 23:18:56.03	44.16	21.55	-29.5	-30.3	14.9	0.00e+00	0	43	0	309329920	19	3947
2026-01-15 23:18:57.02	44.33	21.66	-29.2	-29.6	15.3	0.00e+00	0	43	0	311427072	19	3769
2026-01-15 23:18:58.03	44.51	21.76	-29.2	-29.6	15.3	0.00e+00	0	43	0	312475648	19	3769
2026-01-15 23:18:59.02	44.68	21.87	-29.3	-29.9	15.1	0.00e+00	0	43	0	314572800	19	3842
2026-01-15 23:19:00.03	44.86	21.97	-29.2	-29.6	15.3	0.00e+00	0	43	0	316669952	19	3767
2026-01-15 23:19:01.03	45.04	22.08	-29.3	-29.8	15.2	0.00e+00	0	43	0	318767104	19	3842
2026-01-15 23:19:02.03	45.22	22.18	-29.3	-29.9	15.1	0.00e+00	0	43	0	320864256	19	3854
2026-01-15 23:19:03.04	45.40	22.29	-28.7	-29.2	15.2	0.00e+00	0	43	0	321912832	19	3808
2026-01-15 23:19:04.04	45.59	22.39	-29.3	-30.0	15.1	0.00e+00	0	43	0	324009984	19	3865
2026-01-15 23:19:05.05	45.77	22.50	-29.4	-30.0	15.1	0.00e+00	0	43	0	326107136	19	3883
2026-01-15 23:19:06.04	45.95	22.60	-29.4	-30.0	15.1	0.00e+00	0	43	0	328204288	19	3885
2026-01-15 23:19:07.04	46.14	22.71	-29.3	-30.0	15.1	2.21e-05	0	43	0	330301440	19	3867
2026-01-15 23:19:08.05	46.33	22.82	-29.3	-29.9	15.2	0.00e+00	0	43	0	331350016	19	3840
2026-01-15 23:19:09.05	46.52	22.92	-29.4	-30.1	15.0	7.00e-07	0	43	0	333447168	19	3914
2026-01-15 23:19:10.05	46.71	23.03	-29.3	-30.0	15.1	7.00e-07	0	43	0	335544320	19	3863
2026-01-15 23:19:11.06	46.90	23.14	-29.3	-29.8	15.3	0.00e+00	0	43	0	337641472	19	3808
2026-01-15 23:19:12.05	47.09	23.24	-29.5	-30.4	14.9	0.00e+00	0	43	0	339738624	19	3993
2026-01-15 23:19:13.05	47.28	23.35	-29.3	-29.9	15.2	0.00e+00	0	43	0	340787200	19	3838
2026-01-15 23:19:14.05	47.48	23.45	-29.4	-30.0	15.1	0.00e+00	0	43	0	342884352	19	3862
2026-01-15 23:19:15.05	47.67	23.56	-29.5	-30.3	14.9	0.00e+00	0	43	0	344981504	19	3962
2026-01-15 23:19:16.05	47.87	23.67	-29.2	-29.7	15.3	0.00e+00	0	43	0	347078656	19	3798
2026-01-15 23:19:17.06	48.07	23.78	-29.0	-29.1	15.6	0.00e+00	0	43	0	349175808	19	3634
2026-01-15 23:19:18.06	48.27	23.88	-28.7	-28.9	16.1	0.00e+00	0	43	0	350224384	18	3680
2026-01-15 23:19:19.07	48.48	23.99	-28.8	-29.0	16.0	0.00e+00	0	43	0	352321536	18	3707
2026-01-15 23:19:20.06	48.68	24.10	-28.7	-28.8	16.1	0.00e+00	0	43	0	354418688	18	3664
2026-01-15 23:19:21.07	48.88	24.20	-28.7	-28.8	16.1	0.00e+00	0	43	0	356515840	18	3663
2026-01-15 23:19:22.07	49.09	24.31	-28.7	-28.8	16.1	0.00e+00	0	43	0	357564416	18	3659
2026-01-15 23:19:23.07	49.29	24.42	-28.8	-29.0	16.0	0.00e+00	0	43	0	359661568	18	3709
2026-01-15 23:19:24.07	49.50	24.53	-28.9	-29.3	15.8	1.52e-05	0	44	0	361758720	18	3786
2026-01-15 23:19:25.08	49.71	24.64	-28.9	-29.4	15.8	7.00e-07	0	43	0	363855872	18	3810
2026-01-15 23:19:26.08	49.93	24.74	-29.0	-29.7	15.6	0.00e+00	0	43	0	365953024	18	3894
2026-01-15 23:19:27.08	50.14	24.85	-29.1	-29.9	15.5	0.00e+00	0	43	0	367001600	18	3931
2026-01-15 23:19:28.08	50.35	24.96	-29.0	-29.7	15.6	0.00e+00	0	43	0	369098752	18	3873
2026-01-15 23:19:29.08	50.57	25.07	-29.1	-29.8	15.6	0.00e+00	0	43	0	371195904	18	3905
2026-01-15 23:19:30.08	50.78	25.17	-29.2	-30.2	15.2	0.00e+00	0	43	0	373293056	18	4024
2026-01-15 23:19:31.08	51.00	25.28	-29.1	-29.8	15.5	7.00e-07	0	43	0	375390208	18	3922
2026-01-15 23:19:32.08	51.22	25.39	-29.1	-30.0	15.5	0.00e+00	0	43	0	376438784	18	3956
2026-01-15 23:19:33.08	51.44	25.50	-29.2	-30.1	15.4	0.00e+00	0	43	0	378535936	18	3991
2026-01-15 23:19:34.08	51.67	25.60	-29.1	-29.9	15.5	0.00e+00	0	43	0	380633088	18	3932
2026-01-15 23:19:35.08	51.89	25.71	-29.2	-30.0	15.4	0.00e+00	0	43	0	382730240	18	3957
2026-01-15 23:19:36.08	52.12	25.82	-29.1	-29.8	15.6	3.20e-05	0	43	0	384827392	18	3907
2026-01-15 23:19:37.08	52.34	25.93	-29.2	-30.1	15.4	0.00e+00	0	43	0	385875968	18	3983
2026-01-15 23:19:38.09	52.57	26.04	-29.1	-29.9	15.5	0.00e+00	0	43	0	387973120	18	3928
2026-01-15 23:19:39.10	52.81	26.14	-29.3	-30.4	15.2	0.00e+00	0	43	0	390070272	18	4062
2026-01-15 23:19:40.10	53.04	26.25	-29.4	-30.6	15.0	6.86e-05	0	43	0	392167424	18	4138
2026-01-15 23:19:41.10	53.27	26.36	-29.5	-30.2	15.0	0.00e+00	0	43	0	394264576	19	3936
2026-01-15 23:19:42.10	53.51	26.47	-29.3	-30.4	15.2	4.60e-04	0	43	0	395313152	18	4067
2026-01-15 23:19:43.10	53.74	26.57	-29.4	-30.5	15.2	3.28e-04	0	43	0	397410304	18	4083
2026-01-15 23:19:44.10	53.98	26.68	-29.6	-30.6	14.8	0.00e+00	0	43	0	399507456	19	4014
2026-01-15 23:19:45.10	54.22	26.79	-29.5	-30.4	15.0	9.68e-05	0	43	0	401604608	19	3978
2026-01-15 23:19:46.10	54.46	26.90	-29.7	-30.9	14.7	3.80e-06	0	44	0	402653184	19	4106
2026-01-15 23:19:47.10	54.70	27.00	-29.9	-31.2	14.5	0.00e+00	0	43	0	404750336	19	4219
2026-01-15 23:19:48.10	54.95	27.11	-29.9	-30.9	14.3	2.20e-06	0	43	0	406847488	20	4036
2026-01-15 23:19:49.10	55.19	27.22	-30.1	-31.3	14.0	2.20e-06	0	43	0	408944640	20	4133
2026-01-15 23:19:50.10	55.44	27.32	-30.3	-31.8	13.7	7.60e-06	0	43	0	411041792	20	4287
2026-01-15 23:19:51.10	55.69	27.43	-30.2	-31.7	13.9	6.80e-06	0	43	0	412090368	20	4255
2026-01-15 23:19:52.10	55.94	27.53	-30.3	-32.0	13.6	3.80e-06	0	43	0	414187520	20	4353
2026-01-15 23:19:53.10	56.19	27.64	-30.5	-31.9	13.3	1.52e-05	0	43	0	416284672	21	4233
2026-01-15 23:19:54.10	56.45	27.75	-30.6	-32.1	13.2	1.06e-05	0	43	0	418381824	21	4305
2026-01-15 23:19:55.09	56.70	27.85	-30.6	-32.2	13.1	3.28e-05	0	43	0	420478976	21	4335
2026-01-15 23:19:56.10	56.96	27.96	-30.6	-32.1	13.2	2.28e-05	0	43	0	421527552	21	4309
2026-01-15 23:19:57.10	57.22	28.06	-30.5	-32.0	13.3	2.21e-05	0	43	0	423624704	21	4280
2026-01-15 23:19:58.11	57.48	28.17	-30.7	-32.5	13.0	2.51e-05	0	43	0	425721856	21	4416
2026-01-15 23:19:59.11	57.75	28.27	-30.8	-32.6	12.9	3.35e-05	0	43	0	427819008	21	4465
2026-01-15 23:20:00.11	58.01	28.38	-30.9	-33.0	12.7	4.65e-05	0	43	0	429916160	21	4586
2026-01-15 23:20:01.11	58.28	28.48	-31.1	-33.1	12.3	2.14e-04	0	43	0	430964736	22	4528
2026-01-15 23:20:02.12	58.55	28.59	-31.1	-33.2	12.1	1.67e-04	0	43	0	433061888	22	4559
2026-01-15 23:20:03.12	58.82	28.69	-31.3	-33.7	11.8	4.85e-04	0	43	0	435159040	22	4729
2026-01-15 23:20:04.12	59.09	28.80	-31.5	-33.7	11.4	1.26e-03	0	43	0	437256192	23	4660
2026-01-15 23:20:05.12	59.36	28.90	-31.8	-34.7	10.8	1.63e-03	0	43	0	438304768	23	5028
2026-01-15 23:20:06.11	59.63	29.00	-31.8	-34.9	10.7	2.20e-03	0	44	0	440401920	23	5105
2026-01-15 23:20:07.11	59.91	29.10	-31.7	-34.5	10.9	2.50e-03	0	43	0	442499072	23	4956
2026-01-15 23:20:08.11	60.19	29.21	-31.7	-34.3	11.0	1.81e-03	0	43	0	444596224	23	4887
2026-01-15 23:20:09.12	60.47	29.31	-31.8	-34.7	10.9	1.98e-03	0	43	0	446693376	23	5026
2026-01-15 23:20:10.11	60.75	29.41	-31.7	-34.4	11.0	2.99e-03	0	43	0	447741952	23	4897
2026-01-15 23:20:11.11	61.03	29.51	-31.8	-34.8	10.7	1.94e-03	0	43	0	449839104	23	5080
2026-01-15 23:20:12.11	61.32	29.61	-31.9	-35.2	10.5	4.62e-03	0	43	0	451936256	23	5221
2026-01-15 23:20:13.11	61.60	29.71	-31.9	-35.0	10.5	2.78e-03	0	43	0	454033408	23	5166
2026-01-15 23:20:14.11	61.89	29.81	-31.9	-35.0	10.6	2.60e-03	0	43	0	456130560	23	5157
2026-01-15 23:20:15.12	62.18	29.91	-31.8	-34.6	10.9	3.47e-03	0	43	0	457179136	23	4981
2026-01-15 23:20:16.12	62.48	30.01	-32.1	-35.3	10.0	4.90e-03	0	43	0	459276288	24	5203
2026-01-15 23:20:17.12	62.77	30.11	-32.2	-35.7	9.7	9.54e-03	0	43	0	461373440	24	5370
2026-01-15 23:20:18.12	63.06	30.21	-32.6	-36.4	8.8	1.95e-02	0	44	0	463470592	25	5631
2026-01-15 23:20:19.13	63.37	30.31	-32.5	-36.2	9.0	2.68e-02	0	43	0	464519168	25	5515
2026-01-15 23:20:20.13	63.66	30.40	-32.6	-36.7	8.6	3.49e-02	0	43	0	466616320	25	5734
2026-01-15 23:20:21.13	63.97	30.50	-32.4	-35.8	9.2	2.76e-02	0	43	0	468713472	25	5321
2026-01-15 23:20:22.13	64.27	30.60	-32.3	-35.7	9.3	2.31e-02	0	44	0	470810624	25	5270
2026-01-15 23:20:23.13	64.57	30.69	-32.3	-35.5	9.5	1.95e-02	0	44	0	472907776	25	5181
2026-01-15 23:20:24.13	64.88	30.79	-32.4	-36.2	9.3	1.63e-02	0	44	0	473956352	24	5624
2026-01-15 23:20:25.12	65.18	30.88	-32.6	-36.6	8.6	3.10e-02	0	44	0	476053504	25	5716
2026-01-15 23:20:26.12	65.49	30.97	-32.5	-36.4	8.9	3.00e-02	0	43	0	478150656	25	5612
2026-01-15 23:20:27.12	65.80	31.07	-32.2	-35.3	9.7	1.62e-02	0	43	0	480247808	25	5105
2026-01-15 23:20:28.12	66.12	31.16	-32.3	-35.4	9.6	1.50e-02	0	44	0	482344960	25	5166
2026-01-15 23:20:29.13	66.44	31.25	-32.4	-35.7	9.3	1.70e-02	0	44	0	483393536	25	5297
2026-01-15 23:20:30.13	66.75	31.35	-32.1	-35.2	10.0	1.03e-02	0	44	0	485490688	24	5169
2026-01-15 23:20:31.13	67.07	31.44	-31.8	-34.2	10.7	5.04e-03	0	44	0	487587840	24	4767
2026-01-15 23:20:32.14	67.40	31.53	-31.5	-33.4	11.4	1.87e-03	0	44	0	489684992	24	4451
2026-01-15 23:20:33.14	67.72	31.62	-31.4	-33.1	11.7	5.35e-04	0	44	0	491782144	24	4342
2026-01-15 23:20:34.15	68.04	31.71	-31.4	-33.1	11.7	5.74e-04	0	44	0	492830720	24	4339
2026-01-15 23:20:35.15	68.37	31.79	-31.3	-33.0	12.1	3.99e-04	0	44	0	494927872	23	4398
2026-01-15 23:20:36.16	68.70	31.88	-31.8	-34.8	10.7	1.94e-03	0	43	0	497025024	23	5063
2026-01-15 23:20:37.16	69.03	31.97	-32.0	-34.9	10.4	3.94e-03	0	44	0	499122176	24	5024
2026-01-15 23:20:38.16	69.36	32.05	-32.1	-35.0	10.2	5.12e-03	0	44	0	501219328	24	5076
2026-01-15 23:20:39.17	69.70	32.14	-32.0	-34.9	10.3	8.17e-03	0	44	0	502267904	24	5023
2026-01-15 23:20:40.17	70.03	32.22	-31.9	-34.6	10.6	4.63e-03	0	44	0	504365056	24	4899
2026-01-15 23:20:41.17	70.37	32.31	-31.7	-33.7	11.1	2.58e-03	0	44	0	506462208	24	4565
2026-01-15 23:20:42.17	70.71	32.39	-31.4	-33.0	11.7	9.37e-04	0	44	0	508559360	24	4303
2026-01-15 23:20:43.17	71.05	32.47	-31.2	-32.9	12.1	5.01e-04	0	44	0	510656512	23	4357
2026-01-15 23:20:44.17	71.39	32.55	-31.0	-32.4	12.5	1.33e-04	0	44	0	511705088	23	4191
2026-01-15 23:20:45.17	71.73	32.63	-30.9	-32.6	12.6	8.77e-05	0	44	0	513802240	22	4342
2026-01-15 23:20:46.18	72.08	32.71	-31.5	-33.8	11.5	5.30e-04	0	44	0	515899392	23	4695
2026-01-15 23:20:47.18	72.42	32.79	-32.0	-35.2	10.6	2.46e-03	0	44	0	517996544	23	5241
2026-01-15 23:20:48.18	72.77	32.86	-32.3	-35.9	9.6	6.76e-03	0	43	0	519045120	24	5459
2026-01-15 23:20:49.19	73.12	32.94	-32.2	-35.4	10.0	1.21e-02	0	44	0	521142272	24	5221
2026-01-15 23:20:50.19	73.47	33.02	-32.0	-34.9	10.3	5.42e-03	0	44	0	523239424	24	5024
2026-01-15 23:20:51.19	73.83	33.09	-32.0	-34.8	10.4	4.76e-03	0	43	0	525336576	24	4994
2026-01-15 23:20:52.19	74.18	33.16	-32.0	-35.0	10.3	5.23e-03	0	43	0	527433728	24	5068
2026-01-15 23:20:53.20	74.54	33.24	-31.9	-34.5	10.5	4.14e-03	0	43	0	528482304	24	4887
2026-01-15 23:20:54.20	74.90	33.31	-31.8	-34.2	10.9	2.04e-03	0	43	0	530579456	24	4741
2026-01-15 23:20:55.20	75.26	33.38	-31.8	-34.3	10.9	1.65e-03	0	43	0	532676608	24	4792
2026-01-15 23:20:56.20	75.62	33.45	-32.0	-35.1	10.2	2.58e-03	0	44	0	534773760	24	5094
2026-01-15 23:20:57.19	75.98	33.51	-32.5	-36.2	9.0	1.66e-02	0	44	0	536870912	25	5510
2026-01-15 23:20:58.19	76.34	33.58	-32.9	-37.7	7.7	5.04e-02	0	44	0	537919488	25	6307
2026-01-15 23:20:59.19	76.70	33.64	-33.0	-38.0	7.3	9.06e-02	0	44	0	540016640	26	6361
2026-01-15 23:21:00.20	77.07	33.71	-32.9	-37.6	7.5	1.07e-01	0	44	0	542113792	26	6159
2026-01-15 23:21:01.20	77.44	33.77	-32.9	-37.6	7.4	1.00e-01	0	43	0	544210944	26	6136
2026-01-15 23:21:02.19	77.81	33.83	-33.0	-37.7	7.4	1.11e-01	0	44	0	546308096	26	6195
2026-01-15 23:21:03.20	78.18	33.90	-32.9	-37.2	7.6	9.84e-02	0	43	0	547356672	26	5953
2026-01-15 23:21:04.20	78.55	33.95	-33.0	-38.0	7.2	1.08e-01	0	44	0	549453824	26	6366
2026-01-15 23:21:05.20	78.93	34.01	-33.1	-38.6	6.7	1.51e-01	0	44	0	551550976	26	6731
2026-01-15 23:21:06.21	79.30	34.07	-32.9	-37.9	7.5	1.45e-01	0	44	0	553648128	25	6439
2026-01-15 23:21:07.21	79.68	34.13	-32.5	-36.2	8.9	3.60e-02	0	44	0	555745280	25	5533
2026-01-15 23:21:08.21	80.06	34.18	-32.2	-35.0	9.8	1.73e-02	0	43	0	556793856	25	4995
2026-01-15 23:21:09.21	80.44	34.24	-32.4	-36.5	9.1	1.83e-02	0	44	0	558891008	24	5744
2026-01-15 23:21:10.20	80.81	34.29	-32.8	-37.7	7.9	4.00e-02	0	44	0	560988160	25	6276
2026-01-15 23:21:11.21	81.20	34.34	-32.9	-38.0	7.5	8.12e-02	0	44	0	563085312	25	6448
2026-01-15 23:21:12.21	81.58	34.39	-33.0	-37.9	7.3	1.15e-01	0	44	0	564133888	26	6346
2026-01-15 23:21:13.21	81.96	34.44	-32.8	-36.8	8.1	8.09e-02	0	43	0	566231040	26	5736
2026-01-15 23:21:14.21	82.35	34.48	-32.8	-37.3	8.0	5.99e-02	0	44	0	568328192	25	6085
2026-01-15 23:21:15.22	82.73	34.53	-32.8	-37.6	8.0	8.82e-02	0	43	0	570425344	25	6209
2026-01-15 23:21:16.22	83.12	34.57	-32.7	-36.8	8.4	5.82e-02	0	44	0	572522496	25	5817
2026-01-15 23:21:17.22	83.51	34.62	-32.4	-35.8	9.2	2.36e-02	0	43	0	573571072	25	5345
2026-01-15 23:21:18.22	83.90	34.66	-32.2	-35.0	9.9	1.32e-02	0	44	0	575668224	25	4960
2026-01-15 23:21:19.22	84.29	34.70	-32.2	-34.9	9.9	7.69e-03	0	43	0	577765376	25	4954
2026-01-15 23:21:20.22	84.68	34.74	-32.4	-35.8	9.3	1.09e-02	0	44	0	579862528	25	5340
2026-01-15 23:21:21.22	85.07	34.77	-32.6	-36.4	8.8	3.14e-02	0	44	0	581959680	25	5603
2026-01-15 23:21:22.22	85.46	34.81	-32.5	-36.0	9.1	2.73e-02	0	44	0	583008256	25	5399
2026-01-15 23:21:23.22	85.85	34.84	-32.7	-37.2	8.2	4.31e-02	0	43	0	585105408	25	5978
2026-01-15 23:21:24.21	86.24	34.88	-32.7	-36.9	8.4	3.85e-02	0	43	0	587202560	25	5863
2026-01-15 23:21:25.21	86.64	34.91	-32.8	-37.4	8.0	5.43e-02	0	44	0	589299712	25	6116
2026-01-15 23:21:26.22	87.04	34.94	-33.0	-37.9	7.3	8.21e-02	0	44	0	590348288	26	6297
2026-01-15 23:21:27.21	87.43	34.97	-32.9	-37.5	7.6	1.08e-01	0	44	0	592445440	26	6094
2026-01-15 23:21:28.21	87.82	34.99	-32.8	-36.8	8.2	6.44e-02	0	44	0	594542592	26	5703
2026-01-15 23:21:29.21	88.22	35.02	-32.7	-36.2	8.7	4.25e-02	0	43	0	596639744	26	5398
2026-01-15 23:21:30.21	88.62	35.04	-32.6	-36.1	8.7	3.53e-02	0	44	0	598736896	26	5373
2026-01-15 23:21:31.21	89.02	35.07	-32.7	-36.2	8.6	3.66e-02	0	43	0	599785472	26	5432
2026-01-15 23:21:32.20	89.41	35.09	-32.9	-37.4	7.7	6.76e-02	0	43	0	601882624	26	6026
2026-01-15 23:21:33.21	89.82	35.11	-32.9	-37.0	8.0	6.59e-02	0	44	0	603979776	26	5836
2026-01-15 23:21:34.20	90.21	35.12	-33.1	-38.3	7.0	8.25e-02	0	44	0	606076928	26	6521
2026-01-15 23:21:35.20	90.61	35.14	-33.1	-38.2	7.2	1.36e-01	0	44	0	608174080	26	6492
2026-01-15 23:21:36.20	91.01	35.16	-33.2	-38.5	7.0	1.97e-01	0	44	0	609222656	26	6678
2026-01-15 23:21:37.21	91.42	35.17	-33.3	-39.6	6.1	2.44e-01	0	44	0	611319808	26	7368
2026-01-15 23:21:38.22	91.82	35.18	-33.4	-40.0	5.9	3.83e-01	0	44	0	613416960	26	7691
2026-01-15 23:21:39.22	92.23	35.19	-33.6	-40.7	5.1	5.64e-01	0	44	0	615514112	27	8177
2026-01-15 23:21:40.22	92.63	35.20	-33.5	-40.3	5.2	6.43e-01	0	44	0	617611264	27	7831
2026-01-15 23:21:41.22	93.03	35.21	-33.3	-38.5	6.5	4.77e-01	0	44	0	618659840	27	6608
2026-01-15 23:21:42.22	93.43	35.21	-32.9	-36.8	7.7	1.11e-01	0	44	0	620756992	27	5638
2026-01-15 23:21:43.22	93.83	35.22	-32.3	-34.8	9.7	2.69e-02	0	44	0	622854144	26	4807
2026-01-15 23:21:44.23	94.24	35.22	-31.9	-34.1	10.6	8.18e-03	0	44	0	624951296	25	4641
2026-01-15 23:21:45.23	94.64	35.22	-31.7	-33.8	11.1	2.01e-03	0	44	0	625999872	24	4577
2026-01-15 23:21:46.23	95.05	35.22	-31.7	-33.7	11.3	1.34e-03	0	44	0	628097024	24	4572
2026-01-15 23:21:47.23	95.45	35.22	-31.7	-33.7	11.2	1.50e-03	0	44	0	630194176	24	4564
2026-01-15 23:21:48.24	95.86	35.22	-31.7	-33.7	11.3	1.34e-03	0	44	0	632291328	24	4560
2026-01-15 23:21:49.23	96.25	35.21	-31.7	-33.9	11.1	1.25e-03	0	44	0	634388480	24	4633
2026-01-15 23:21:50.23	96.66	35.20	-32.2	-35.4	10.1	3.42e-03	0	44	0	635437056	24	5221
2026-01-15 23:21:51.23	97.06	35.20	-32.7	-37.0	8.5	1.99e-02	0	43	0	637534208	25	5884
2026-01-15 23:21:52.23	97.46	35.19	-33.2	-38.5	6.9	1.42e-01	0	44	0	639631360	26	6647
2026-01-15 23:21:53.24	97.87	35.17	-33.0	-37.7	7.4	1.60e-01	0	44	0	641728512	26	6187
2026-01-15 23:21:54.25	98.27	35.16	-32.6	-35.9	8.8	8.99e-02	0	44	0	643825664	26	5285
2026-01-15 23:21:55.25	98.67	35.15	-32.2	-35.0	10.0	1.09e-02	0	44	0	644874240	25	4954
2026-01-15 23:21:56.26	99.08	35.13	-32.1	-34.5	10.3	5.60e-03	0	44	0	646971392	25	4765
2026-01-15 23:21:57.26	99.48	35.11	-32.1	-34.7	10.1	5.58e-03	0	44	0	649068544	25	4856
2026-01-15 23:21:58.26	99.88	35.09	-32.2	-35.0	9.8	1.02e-02	0	44	0	651165696	25	4981
2026-01-15 23:21:59.26	100.28	35.07	-31.9	-34.1	10.6	4.62e-03	0	44	0	653262848	25	4604
2026-01-15 23:22:00.26	100.68	35.05	-31.7	-33.9	11.1	2.15e-03	0	44	0	654311424	24	4608
2026-01-15 23:22:01.25	101.07	35.03	-31.9	-34.6	10.7	1.30e-03	0	44	0	656408576	24	4893
2026-01-15 23:22:02.25	101.47	35.00	-32.6	-36.4	8.9	1.41e-02	0	44	0	658505728	25	5584
2026-01-15 23:22:03.25	101.87	34.98	-33.0	-38.0	7.3	8.27e-02	0	44	0	660602880	26	6351
2026-01-15 23:22:04.26	102.27	34.95	-33.4	-39.7	6.0	3.22e-01	0	44	0	662700032	26	7506
2026-01-15 23:22:05.26	102.66	34.92	-33.2	-38.7	6.7	3.21e-01	0	44	0	663748608	26	6773
2026-01-15 23:22:06.26	103.06	34.89	-32.7	-36.6	8.3	7.22e-02	0	44	0	665845760	26	5601
2026-01-15 23:22:07.26	103.45	34.86	-32.6	-35.9	8.8	3.64e-02	0	44	0	667942912	26	5281
2026-01-15 23:22:08.26	103.84	34.82	-32.9	-37.4	7.7	5.48e-02	0	44	0	670040064	26	6011
2026-01-15 23:22:09.26	104.24	34.79	-33.2	-38.8	6.6	1.74e-01	0	44	0	671088640	26	6884
2026-01-15 23:22:10.26	104.63	34.75	-33.3	-39.4	6.2	2.81e-01	0	43	0	673185792	26	7213
2026-01-15 23:22:11.25	105.02	34.71	-32.8	-37.0	8.0	1.87e-01	0	44	0	675282944	26	5821
2026-01-15 23:22:12.26	105.41	34.67	-32.6	-35.9	8.8	6.67e-02	0	43	0	677380096	26	5297
2026-01-15 23:22:13.26	105.80	34.63	-32.8	-36.7	8.3	4.00e-02	0	44	0	679477248	26	5653
2026-01-15 23:22:14.26	106.19	34.59	-33.2	-38.8	6.7	1.03e-01	0	44	0	680525824	26	6820
2026-01-15 23:22:15.26	106.58	34.55	-33.2	-38.9	6.4	2.08e-01	0	44	0	682622976	26	6945
2026-01-15 23:22:16.26	106.96	34.50	-32.8	-37.1	7.8	1.13e-01	0	44	0	684720128	26	5865
2026-01-15 23:22:17.26	107.35	34.45	-32.7	-36.5	8.4	4.33e-02	0	44	0	686817280	26	5550
2026-01-15 23:22:18.26	107.73	34.41	-32.9	-37.2	7.8	7.32e-02	0	44	0	688914432	26	5955
2026-01-15 23:22:19.26	108.11	34.36	-33.2	-38.7	6.6	1.46e-01	0	44	0	689963008	26	6815
2026-01-15 23:22:20.27	108.50	34.31	-33.4	-39.9	6.0	3.63e-01	0	44	0	692060160	26	7640
2026-01-15 23:22:21.27	108.88	34.25	-33.5	-40.4	5.5	3.58e-01	0	44	0	694157312	26	8013
2026-01-15 23:22:22.27	109.26	34.20	-33.2	-39.0	6.4	2.96e-01	0	44	0	696254464	26	6985
2026-01-15 23:22:23.28	109.64	34.15	-32.9	-37.2	7.8	1.09e-01	0	44	0	697303040	26	5947
2026-01-15 23:22:24.27	110.01	34.09	-32.8	-36.9	8.0	6.38e-02	0	44	0	699400192	26	5749
2026-01-15 23:22:25.27	110.39	34.03	-32.8	-36.7	8.2	4.34e-02	0	44	0	701497344	26	5657
2026-01-15 23:22:26.28	110.77	33.98	-33.0	-37.7	7.4	1.01e-01	0	44	0	703594496	26	6204
2026-01-15 23:22:27.28	111.14	33.92	-32.7	-36.7	8.2	6.27e-02	0	44	0	705691648	26	5658
2026-01-15 23:22:28.28	111.51	33.86	-32.4	-35.3	9.3	2.60e-02	0	44	0	706740224	26	5016
2026-01-15 23:22:29.27	111.88	33.79	-32.0	-34.4	10.3	9.06e-03	0	44	0	708837376	25	4747
2026-01-15 23:22:30.28	112.25	33.73	-31.9	-34.1	10.5	3.02e-03	0	44	0	710934528	25	4642
2026-01-15 23:22:31.28	112.62	33.67	-32.3	-35.3	9.6	5.31e-03	0	44	0	713031680	25	5110
2026-01-15 23:22:32.27	112.98	33.60	-32.1	-34.9	9.9	7.51e-03	0	44	0	715128832	25	4935
2026-01-15 23:22:33.27	113.35	33.54	-32.0	-34.8	10.3	6.81e-03	0	44	0	716177408	24	4969
2026-01-15 23:22:34.28	113.71	33.47	-31.5	-33.3	11.4	1.38e-03	0	44	0	718274560	24	4432
2026-01-15 23:22:35.28	114.08	33.40	-31.2	-32.9	12.1	5.27e-04	0	44	0	720371712	23	4361
2026-01-15 23:22:36.28	114.44	33.33	-31.3	-33.2	11.9	4.21e-04	0	44	0	722468864	23	4478
2026-01-15 23:22:37.29	114.80	33.26	-31.8	-34.8	10.7	1.65e-03	0	44	0	724566016	23	5074
2026-01-15 23:22:38.28	115.15	33.19	-31.8	-34.6	10.8	1.82e-03	0	44	0	725614592	23	5006
2026-01-15 23:22:39.28	115.51	33.11	-31.6	-34.0	11.3	1.81e-03	0	43	0	727711744	23	4752
2026-01-15 23:22:40.28	115.86	33.04	-31.2	-32.9	12.1	5.19e-04	0	44	0	729808896	23	4377
2026-01-15 23:22:41.28	116.21	32.96	-31.1	-32.5	12.4	2.01e-04	0	44	0	731906048	23	4239
2026-01-15 23:22:42.28	116.57	32.89	-31.1	-32.6	12.2	1.61e-04	0	44	0	732954624	23	4291
2026-01-15 23:22:43.28	116.91	32.81	-31.5	-33.9	11.4	3.80e-04	0	44	0	735051776	23	4743
2026-01-15 23:22:44.27	117.26	32.73	-32.0	-35.3	10.4	2.01e-03	0	44	0	737148928	23	5293
2026-01-15 23:22:45.28	117.61	32.66	-31.9	-34.5	10.5	4.58e-03	0	44	0	739246080	24	4889
2026-01-15 23:22:46.28	117.95	32.58	-31.1	-32.7	12.2	1.71e-03	0	44	0	741343232	23	4326
2026-01-15 23:22:47.28	118.30	32.50	-30.4	-31.1	13.6	2.74e-05	0	44	0	742391808	22	3901
2026-01-15 23:22:48.27	118.63	32.41	-30.2	-31.1	13.9	4.50e-06	0	44	0	744488960	21	4009
2026-01-15 23:22:49.27	118.97	32.33	-30.5	-32.1	13.2	3.00e-06	0	44	0	746586112	21	4290
2026-01-15 23:22:50.27	119.31	32.25	-30.8	-32.8	12.8	4.57e-05	0	44	0	748683264	21	4525
2026-01-15 23:22:51.28	119.65	32.16	-30.9	-32.5	12.7	1.07e-04	0	44	0	750780416	22	4335
2026-01-15 23:22:52.28	119.98	32.08	-30.7	-31.9	13.1	5.11e-05	0	44	0	751828992	22	4132
2026-01-15 23:22:53.28	120.32	31.99	-30.5	-31.5	13.4	2.28e-05	0	44	0	753926144	22	4017
2026-01-15 23:22:54.28	120.65	31.91	-30.8	-32.3	12.7	4.88e-05	0	44	0	756023296	22	4265
2026-01-15 23:22:55.28	120.98	31.82	-30.9	-32.6	12.6	4.34e-05	0	44	0	758120448	22	4360
2026-01-15 23:22:56.28	121.30	31.73	-31.2	-33.5	12.0	3.91e-04	0	44	0	760217600	22	4698
2026-01-15 23:22:57.28	121.63	31.64	-31.2	-33.6	11.9	7.97e-04	0	44	0	761266176	22	4707
2026-01-15 23:22:58.28	121.95	31.55	-31.0	-32.9	12.3	4.83e-04	0	44	0	763363328	22	4489
2026-01-15 23:22:59.28	122.27	31.46	-30.1	-31.0	13.8	2.28e-05	0	43	0	765460480	21	3977
2026-01-15 23:23:00.28	122.59	31.37	-29.5	-30.0	14.8	0.00e+00	0	44	0	767557632	20	3779
2026-01-15 23:23:01.28	122.91	31.28	-29.8	-30.6	14.4	0.00e+00	0	44	0	768606208	20	3962
2026-01-15 23:23:02.28	123.23	31.19	-30.2	-31.7	13.8	2.20e-06	0	44	0	770703360	20	4286
2026-01-15 23:23:03.28	123.54	31.10	-30.8	-32.7	12.8	2.13e-05	0	44	0	772800512	21	4501
2026-01-15 23:23:04.28	123.86	31.00	-31.0	-32.9	12.3	1.92e-04	0	44	0	774897664	22	4476
2026-01-15 23:23:05.28	124.17	30.91	-30.7	-32.1	12.8	8.16e-05	0	44	0	776994816	22	4230
2026-01-15 23:23:06.27	124.48	30.81	-30.3	-31.3	13.7	1.14e-05	0	43	0	778043392	21	4069
2026-01-15 23:23:07.28	124.79	30.72	-29.9	-30.5	14.2	2.20e-06	0	44	0	780140544	21	3833
2026-01-15 23:23:08.27	125.09	30.62	-30.3	-31.5	13.6	4.50e-06	0	43	0	782237696	21	4115
2026-01-15 23:23:09.27	125.39	30.53	-30.7	-32.4	13.0	2.28e-05	0	44	0	784334848	21	4398
2026-01-15 23:23:10.27	125.70	30.43	-31.0	-32.9	12.3	1.19e-04	0	44	0	786432000	22	4485
2026-01-15 23:23:11.28	126.00	30.33	-30.7	-32.1	12.8	9.99e-05	0	44	0	787480576	22	4216
2026-01-15 23:23:12.27	126.30	30.23	-30.2	-31.2	13.8	1.75e-05	0	44	0	789577728	21	4035
2026-01-15 23:23:13.27	126.59	30.14	-29.5	-29.9	14.8	7.00e-07	0	44	0	791674880	20	3767
2026-01-15 23:23:14.27	126.89	30.04	-29.2	-29.6	15.5	0.00e+00	0	44	0	793772032	19	3760
2026-01-15 23:23:15.27	127.18	29.94	-29.6	-30.5	14.9	0.00e+00	0	44	0	794820608	19	4012
2026-01-15 23:23:16.27	127.48	29.84	-30.0	-31.2	14.0	3.00e-06	0	43	0	796917760	20	4129
2026-01-15 23:23:17.28	127.77	29.74	-30.6	-32.3	13.0	4.50e-06	0	44	0	799014912	21	4368
2026-01-15 23:23:18.28	128.06	29.64	-30.4	-31.7	13.4	6.25e-05	0	44	0	801112064	21	4182
2026-01-15 23:23:19.28	128.34	29.53	-29.7	-30.3	14.6	7.00e-07	0	43	0	803209216	20	3873
2026-01-15 23:23:20.28	128.63	29.43	-29.4	-29.6	14.9	0.00e+00	0	44	0	804257792	20	3694
2026-01-15 23:23:21.28	128.91	29.33	-29.6	-30.1	14.7	0.00e+00	0	44	0	806354944	20	3818
2026-01-15 23:23:22.28	129.19	29.23	-30.1	-31.4	13.9	4.50e-06	0	44	0	808452096	20	4184
2026-01-15 23:23:23.29	129.47	29.13	-30.7	-32.4	12.9	2.74e-05	0	44	0	810549248	21	4419
2026-01-15 23:23:24.29	129.75	29.02	-31.2	-33.4	11.9	2.10e-04	0	44	0	812646400	22	4659
2026-01-15 23:23:25.28	130.03	28.92	-30.6	-31.7	13.1	9.00e-05	0	44	0	813694976	22	4098
2026-01-15 23:23:26.28	130.30	28.82	-29.8	-30.2	14.3	7.00e-07	0	44	0	815792128	21	3762
2026-01-15 23:23:27.29	130.58	28.71	-29.6	-30.1	14.7	7.00e-07	0	44	0	817889280	20	3812
2026-01-15 23:23:28.29	130.85	28.61	-29.8	-30.7	14.4	3.58e-05	0	44	0	819986432	20	3989
2026-01-15 23:23:29.29	131.12	28.50	-30.4	-32.3	13.3	9.90e-06	0	44	0	822083584	20	4463
2026-01-15 23:23:30.29	131.38	28.40	-31.1	-33.1	12.1	1.40e-04	0	44	0	823132160	22	4563
2026-01-15 23:23:31.30	131.65	28.29	-31.2	-33.4	11.9	4.18e-04	0	44	0	825229312	22	4652
2026-01-15 23:23:32.30	131.92	28.19	-31.0	-32.9	12.2	4.77e-04	0	44	0	827326464	22	4483
2026-01-15 23:23:33.30	132.18	28.08	-30.7	-32.1	12.8	1.01e-04	0	44	0	829423616	22	4220
2026-01-15 23:23:34.30	132.44	27.97	-30.7	-31.9	12.9	7.17e-05	0	44	0	831520768	22	4170
2026-01-15 23:23:35.30	132.70	27.87	-30.7	-32.5	12.8	3.30e-04	0	44	0	832569344	21	4433
2026-01-15 23:23:36.31	132.96	27.76	-31.1	-33.3	12.0	2.35e-04	0	44	0	834666496	22	4618
2026-01-15 23:23:37.31	133.21	27.65	-31.2	-33.7	11.7	5.64e-04	0	44	0	836763648	22	4750
2026-01-15 23:23:38.31	133.47	27.55	-31.4	-34.2	11.4	9.38e-04	0	44	0	838860800	22	4952
2026-01-15 23:23:39.31	133.72	27.44	-31.3	-33.9	11.5	8.32e-04	0	44	0	839909376	22	4870
2026-01-15 23:23:40.31	133.97	27.33	-30.9	-33.2	12.3	4.71e-04	0	43	0	842006528	21	4680
2026-01-15 23:23:41.30	134.22	27.23	-31.0	-33.0	12.0	2.21e-04	0	43	0	844103680	22	4537
2026-01-15 23:23:42.30	134.46	27.12	-31.0	-33.1	12.1	2.46e-04	0	44	0	846200832	22	4567
2026-01-15 23:23:43.31	134.71	27.01	-31.5	-34.2	10.8	2.71e-03	0	44	0	848297984	23	4922
2026-01-15 23:23:44.30	134.95	26.91	-31.8	-35.4	10.0	3.77e-03	0	44	0	849346560	23	5424
2026-01-15 23:23:45.30	135.20	26.80	-32.2	-36.4	8.7	2.08e-02	0	44	0	851443712	24	5858
2026-01-15 23:23:46.30	135.44	26.69	-31.8	-35.2	10.0	1.76e-02	0	43	0	853540864	23	5366
2026-01-15 23:23:47.30	135.68	26.58	-31.2	-33.2	11.5	3.02e-03	0	43	0	855638016	23	4545
2026-01-15 23:23:48.30	135.91	26.47	-30.4	-31.5	13.1	2.00e-04	0	44	0	857735168	22	4058
2026-01-15 23:23:49.30	136.15	26.37	-30.1	-31.2	13.6	1.47e-04	0	43	0	858783744	21	4059
2026-01-15 23:23:50.30	136.38	26.26	-30.0	-31.3	13.8	1.80e-04	0	44	0	860880896	20	4190
2026-01-15 23:23:51.31	136.62	26.15	-30.4	-32.3	13.2	1.06e-05	0	44	0	862978048	20	4482
2026-01-15 23:23:52.31	136.85	26.04	-30.9	-33.1	12.3	4.34e-05	0	44	0	865075200	21	4677
2026-01-15 23:23:53.32	137.08	25.93	-30.8	-32.8	12.4	4.86e-04	0	44	0	867172352	21	4574
2026-01-15 23:23:54.32	137.31	25.82	-30.2	-31.4	13.4	4.04e-05	0	44	0	868220928	21	4116
2026-01-15 23:23:55.32	137.54	25.71	-29.5	-29.9	14.7	5.30e-06	0	44	0	870318080	20	3790
2026-01-15 23:23:56.32	137.76	25.61	-29.1	-29.5	15.2	0.00e+00	0	44	0	872415232	19	3768
2026-01-15 23:23:57.33	137.99	25.50	-28.8	-28.8	15.7	0.00e+00	0	44	0	874512384	19	3586
2026-01-15 23:23:58.33	138.21	25.39	-28.8	-29.7	15.7	7.00e-07	0	44	0	875560960	17	4000
2026-01-15 23:23:59.32	138.43	25.28	-28.9	-30.0	15.6	3.49e-04	0	44	0	877658112	17	4084
2026-01-15 23:24:00.32	138.65	25.17	-29.1	-30.1	15.2	0.00e+00	0	44	0	879755264	18	4009
2026-01-15 23:24:01.32	138.87	25.06	-29.5	-30.6	14.7	5.60e-04	0	44	0	881852416	19	4071
2026-01-15 23:24:02.32	139.08	24.96	-29.6	-30.7	14.5	0.00e+00	0	44	0	883949568	19	4091
2026-01-15 23:24:03.32	139.30	24.85	-29.6	-30.6	14.6	0.00e+00	0	44	0	884998144	19	4077
2026-01-15 23:24:04.31	139.51	24.74	-29.7	-30.8	14.4	1.09e-03	0	44	0	887095296	19	4131
2026-01-15 23:24:05.32	139.73	24.63	-29.8	-31.2	14.2	1.00e-03	0	43	0	889192448	19	4220
2026-01-15 23:24:06.32	139.94	24.52	-29.9	-31.4	14.1	7.00e-07	0	44	0	891289600	19	4293
2026-01-15 23:24:07.32	140.15	24.41	-29.8	-31.2	14.2	1.15e-03	0	44	0	893386752	19	4247
2026-01-15 23:24:08.32	140.35	24.31	-29.9	-31.5	14.0	1.31e-03	0	43	0	894435328	19	4335
2026-01-15 23:24:09.32	140.56	24.20	-30.1	-31.5	13.6	3.00e-06	0	44	0	896532480	20	4247
2026-01-15 23:24:10.33	140.77	24.09	-30.1	-31.5	13.6	1.61e-03	0	44	0	898629632	20	4237
2026-01-15 23:24:11.32	140.97	23.98	-29.8	-31.3	14.1	1.55e-03	0	43	0	900726784	19	4259
2026-01-15 23:24:12.32	141.17	23.87	-29.7	-30.9	14.4	7.00e-07	0	44	0	901775360	19	4134
2026-01-15 23:24:13.32	141.37	23.77	-29.7	-30.9	14.3	1.76e-03	0	44	0	903872512	19	4150
2026-01-15 23:24:14.32	141.57	23.66	-29.6	-30.8	14.4	1.86e-03	0	44	0	905969664	19	4108
2026-01-15 23:24:15.33	141.77	23.55	-29.2	-29.6	15.2	0.00e+00	0	44	0	908066816	19	3780
2026-01-15 23:24:16.33	141.97	23.44	-28.9	-29.5	15.5	1.97e-03	0	44	0	910163968	18	3839
2026-01-15 23:24:17.33	142.17	23.34	-28.9	-30.1	15.4	1.91e-03	0	44	0	911212544	17	4104
2026-01-15 23:24:18.34	142.36	23.23	-29.4	-30.8	14.7	0.00e+00	0	43	0	913309696	18	4208
2026-01-15 23:24:19.34	142.55	23.12	-29.6	-30.8	14.4	1.85e-03	0	44	0	915406848	19	4127
2026-01-15 23:24:20.34	142.75	23.01	-29.7	-31.0	14.3	1.85e-03	0	44	0	917504000	19	4184
2026-01-15 23:24:21.34	142.94	22.91	-29.7	-31.0	14.2	7.00e-07	0	43	0	919601152	19	4187
2026-01-15 23:24:22.34	143.13	22.80	-29.6	-30.8	14.4	1.97e-03	0	44	0	920649728	19	4112
2026-01-15 23:24:23.34	143.31	22.69	-29.5	-30.5	14.5	1.50e-06	0	44	0	922746880	19	4031
2026-01-15 23:24:24.34	143.50	22.59	-29.5	-30.5	14.5	7.00e-07	0	44	0	924844032	19	4037
2026-01-15 23:24:25.35	143.69	22.48	-29.5	-30.6	14.4	1.93e-03	0	44	0	926941184	19	4087
2026-01-15 23:24:26.34	143.87	22.37	-29.1	-30.0	15.1	1.79e-03	0	44	0	929038336	18	3993
2026-01-15 23:24:27.34	144.05	22.27	-29.1	-30.1	15.1	2.51e-05	0	44	0	930086912	18	4020
2026-01-15 23:24:28.35	144.24	22.16	-29.4	-30.8	14.5	1.76e-03	0	44	0	932184064	18	4253
2026-01-15 23:24:29.35	144.42	22.06	-29.1	-30.1	15.0	1.72e-03	0	44	0	934281216	18	4042
2026-01-15 23:24:30.35	144.60	21.95	-29.2	-30.4	14.8	0.00e+00	0	44	0	936378368	18	4133
2026-01-15 23:24:31.34	144.77	21.85	-29.5	-30.6	14.4	2.05e-03	0	44	0	938475520	19	4073
2026-01-15 23:24:32.34	144.95	21.74	-29.5	-30.6	14.4	2.26e-03	0	44	0	939524096	19	4083
2026-01-15 23:24:33.34	145.13	21.63	-29.5	-30.5	14.4	2.21e-05	0	44	0	941621248	19	4051
2026-01-15 23:24:34.34	145.30	21.53	-29.4	-30.9	14.5	2.20e-06	0	44	0	943718400	18	4249
2026-01-15 23:24:35.34	145.48	21.42	-29.3	-30.6	14.7	2.18e-03	0	44	0	945815552	18	4166
2026-01-15 23:24:36.34	145.65	21.32	-29.3	-30.4	14.8	0.00e+00	0	43	0	946864128	18	4117
2026-01-15 23:24:37.35	145.82	21.21	-29.5	-30.6	14.5	0.00e+00	0	44	0	948961280	19	4066
2026-01-15 23:24:38.35	145.99	21.11	-29.5	-30.5	14.5	7.00e-07	0	44	0	951058432	19	4038
2026-01-15 23:24:39.35	146.16	21.01	-29.3	-29.9	14.8	0.00e+00	0	44	0	953155584	19	3880
2026-01-15 23:24:40.35	146.33	20.90	-29.6	-30.7	14.3	2.02e-03	0	44	0	955252736	19	4109
2026-01-15 23:24:41.35	146.50	20.80	-29.6	-30.8	14.3	1.50e-06	0	44	0	956301312	19	4117
2026-01-15 23:24:42.35	146.66	20.70	-29.7	-31.1	14.1	4.19e-05	0	44	0	958398464	19	4227
2026-01-15 23:24:43.34	146.83	20.59	-30.0	-31.8	13.6	2.28e-03	0	44	0	960495616	19	4430
2026-01-15 23:24:44.34	146.99	20.49	-29.8	-31.4	13.8	7.60e-06	0	44	0	962592768	19	4315
2026-01-15 23:24:45.34	147.15	20.39	-29.9	-31.7	13.7	7.00e-07	0	44	0	964689920	19	4401
2026-01-15 23:24:46.34	147.31	20.28	-29.9	-31.2	13.6	2.31e-03	0	44	0	965738496	20	4162
2026-01-15 23:24:47.34	147.47	20.18	-29.7	-30.9	14.1	2.08e-03	0	43	0	967835648	19	4164
2026-01-15 23:24:48.34	147.63	20.08	-29.5	-30.6	14.3	1.50e-06	0	44	0	969932800	19	4079
2026-01-15 23:24:49.35	147.79	19.98	-29.3	-30.5	14.7	1.06e-03	0	44	0	972029952	18	4137
2026-01-15 23:24:50.34	147.95	19.88	-29.4	-30.9	14.4	2.28e-03	0	44	0	974127104	18	4264
2026-01-15 23:24:51.35	148.11	19.77	-29.5	-30.5	14.3	4.50e-06	0	44	0	975175680	19	4068
2026-01-15 23:24:52.35	148.26	19.67	-29.3	-30.5	14.6	7.00e-07	0	44	0	977272832	18	4157
2026-01-15 23:24:53.35	148.42	19.57	-29.5	-30.7	14.2	2.20e-03	0	43	0	979369984	19	4126
2026-01-15 23:24:54.36	148.57	19.47	-29.7	-31.2	13.9	8.30e-06	0	44	0	981467136	19	4283
2026-01-15 23:24:55.36	148.72	19.37	-29.6	-30.9	14.1	1.50e-06	0	44	0	982515712	19	4177
2026-01-15 23:24:56.36	148.88	19.27	-29.8	-31.3	13.8	2.20e-06	0	44	0	984612864	19	4291
2026-01-15 23:24:57.37	149.03	19.16	-29.8	-31.4	13.8	1.16e-04	0	43	0	986710016	19	4324
2026-01-15 23:24:58.37	149.18	19.06	-30.0	-31.9	13.5	2.20e-06	0	44	0	988807168	19	4482
2026-01-15 23:24:59.37	149.33	18.96	-30.2	-32.0	13.0	5.79e-05	0	44	0	990904320	20	4435
2026-01-15 23:25:00.37	149.47	18.86	-30.1	-31.9	13.1	4.57e-05	0	44	0	991952896	20	4391
2026-01-15 23:25:01.37	149.62	18.77	-30.2	-32.2	12.9	5.41e-05	0	44	0	994050048	20	4492
2026-01-15 23:25:02.37	149.77	18.67	-30.4	-32.2	12.5	1.58e-04	0	44	0	996147200	21	4430
2026-01-15 23:25:03.36	149.91	18.57	-30.4	-32.2	12.5	1.79e-04	0	44	0	998244352	21	4400
2026-01-15 23:25:04.36	150.05	18.47	-30.5	-32.4	12.3	2.59e-03	0	44	0	1000341504	21	4498
2026-01-15 23:25:05.36	150.20	18.37	-30.5	-32.8	12.4	1.01e-04	0	44	0	1001390080	20	4728
2026-01-15 23:25:06.36	150.34	18.27	-30.3	-32.3	12.8	9.30e-05	0	44	0	1003487232	20	4531
2026-01-15 23:25:07.36	150.48	18.17	-30.3	-32.4	12.7	9.46e-05	0	44	0	1005584384	20	4585
2026-01-15 23:25:08.36	150.62	18.08	-30.3	-32.4	12.7	9.53e-05	0	44	0	1007681536	20	4559
2026-01-15 23:25:09.36	150.76	17.98	-30.2	-32.2	12.8	8.92e-05	0	44	0	1009778688	20	4499
2026-01-15 23:25:10.36	150.90	17.88	-30.4	-32.6	12.4	1.64e-04	0	44	0	1010827264	20	4669
2026-01-15 23:25:11.37	151.04	17.78	-30.5	-32.9	12.2	2.82e-03	0	44	0	1012924416	20	4759
2026-01-15 23:25:12.37	151.18	17.68	-30.7	-33.0	11.8	4.08e-04	0	44	0	1015021568	21	4701
2026-01-15 23:25:13.37	151.31	17.59	-30.7	-33.1	11.7	4.62e-04	0	44	0	1017118720	21	4753
2026-01-15 23:25:14.37	151.45	17.49	-30.7	-33.0	11.7	4.60e-04	0	44	0	1018167296	21	4690
2026-01-15 23:25:15.37	151.58	17.40	-30.8	-33.2	11.6	8.49e-04	0	44	0	1020264448	21	4783
2026-01-15 23:25:16.37	151.71	17.30	-30.7	-33.1	11.7	5.59e-04	0	44	0	1022361600	21	4753
2026-01-15 23:25:17.37	151.85	17.20	-30.6	-32.8	11.9	7.46e-04	0	44	0	1024458752	21	4636
2026-01-15 23:25:18.37	151.98	17.11	-30.4	-32.3	12.3	3.04e-04	0	44	0	1026555904	21	4452
2026-01-15 23:25:19.37	152.11	17.01	-30.3	-32.4	12.5	1.96e-04	0	44	0	1027604480	20	4580
2026-01-15 23:25:20.37	152.24	16.92	-30.1	-31.8	12.9	6.79e-05	0	44	0	1029701632	20	4391
2026-01-15 23:25:21.37	152.37	16.82	-29.8	-31.0	13.4	9.10e-06	0	44	0	1031798784	20	4145
2026-01-15 23:25:22.38	152.50	16.73	-29.9	-31.7	13.3	1.44e-05	0	44	0	1033895936	19	4446
2026-01-15 23:25:23.38	152.63	16.63	-29.9	-31.7	13.3	9.10e-06	0	44	0	1035993088	19	4431
2026-01-15 23:25:24.38	152.76	16.54	-29.7	-31.2	13.6	1.14e-05	0	44	0	1037041664	19	4294
2026-01-15 23:25:25.38	152.88	16.44	-29.7	-31.3	13.6	1.29e-05	0	44	0	1039138816	19	4333
2026-01-15 23:25:26.38	153.01	16.35	-29.8	-31.6	13.4	1.60e-05	0	44	0	1041235968	19	4430
2026-01-15 23:25:27.38	153.13	16.26	-30.0	-31.6	13.0	3.66e-05	0	44	0	1043333120	20	4341
2026-01-15 23:25:28.39	153.26	16.16	-30.1	-32.1	12.6	5.03e-05	0	43	0	1044381696	20	4495
2026-01-15 23:25:29.39	153.38	16.07	-29.3	-31.2	12.7	6.94e-05	0	44	0	1046478848	20	4478
2026-01-15 23:25:30.39	153.50	15.98	-30.2	-32.3	12.0	1.73e-04	0	44	0	1048576000	20	4570
2026-01-15 23:25:31.39	153.63	15.88	-30.2	-32.5	11.3	1.43e-04	0	44	0	1050673152	20	4659
2026-01-15 23:25:32.39	153.75	15.79	-30.3	-32.7	12.0	2.39e-04	0	44	0	1052770304	20	4735
2026-01-15 23:25:33.39	153.87	15.70	-30.2	-32.6	11.6	2.94e-04	0	44	0	1054867456	20	4700
2026-01-15 23:25:34.39	153.99	15.61	-30.2	-32.4	12.2	2.17e-04	0	44	0	1055916032	20	4643
2026-01-15 23:25:35.39	154.11	15.51	-30.1	-32.2	12.4	1.50e-04	0	44	0	1058013184	20	4566
2026-01-15 23:25:36.39	154.23	15.42	-30.0	-31.7	12.8	5.72e-05	0	44	0	1060110336	20	4398
2026-01-15 23:25:37.38	154.34	15.33	-29.5	-31.9	12.6	5.56e-05	0	44	0	1062207488	19	4768
2026-01-15 23:25:38.39	154.46	15.24	-30.2	-32.3	12.2	1.52e-04	0	44	0	1063256064	20	4578
2026-01-15 23:25:39.38	154.58	15.15	-30.2	-32.3	11.4	2.61e-03	0	44	0	1065353216	20	4573
2026-01-15 23:25:40.38	154.69	15.06	-30.5	-32.7	11.3	3.94e-04	0	44	0	1067450368	21	4611
2026-01-15 23:25:41.38	154.81	14.97	-30.1	-32.0	12.7	2.47e-04	0	44	0	1069547520	20	4465
2026-01-15 23:25:42.37	154.92	14.88	-30.1	-31.9	12.6	6.02e-05	0	44	0	1071644672	20	4426
2026-01-15 23:25:43.37	155.03	14.79	-30.2	-32.3	12.5	6.86e-05	0	43	0	1072693248	20	4545
2026-01-15 23:25:44.37	155.15	14.70	-30.2	-32.2	12.5	9.61e-05	0	44	0	1074790400	20	4532
2026-01-15 23:25:45.37	155.26	14.61	-30.2	-32.0	12.7	8.54e-05	0	44	0	1076887552	20	4472
2026-01-15 23:25:46.37	155.37	14.52	-30.0	-31.7	13.0	2.50e-03	0	44	0	1078984704	20	4348
2026-01-15 23:25:47.36	155.48	14.43	-30.2	-32.1	12.6	6.25e-05	0	44	0	1080033280	20	4492
2026-01-15 23:25:48.36	155.59	14.35	-30.2	-32.0	12.7	1.07e-04	0	44	0	1082130432	20	4463
2026-01-15 23:25:49.37	155.70	14.26	-29.9	-31.7	13.3	3.89e-05	0	44	0	1084227584	19	4438
2026-01-15 23:25:50.37	155.81	14.17	-30.0	-32.0	13.1	3.14e-04	0	43	0	1086324736	19	4537
2026-01-15 23:25:51.36	155.92	14.08	-30.0	-31.6	13.0	3.66e-05	0	44	0	1088421888	20	4324
2026-01-15 23:25:52.36	156.03	13.99	-29.9	-31.6	13.4	1.37e-05	0	44	0	1089470464	19	4422
2026-01-15 23:25:53.36	156.13	13.90	-29.9	-31.9	13.2	1.90e-04	0	44	0	1091567616	19	4495
2026-01-15 23:25:54.36	156.24	13.82	-29.8	-31.6	13.3	3.35e-05	0	44	0	1093664768	19	4429
2026-01-15 23:25:55.35	156.34	13.73	-29.9	-31.8	13.2	1.98e-05	0	44	0	1095761920	19	4477
2026-01-15 23:25:56.36	156.45	13.64	-29.9	-32.0	13.0	2.82e-05	0	44	0	1097859072	19	4570
2026-01-15 23:25:57.35	156.55	13.56	-30.0	-32.0	13.0	2.31e-03	0	44	0	1098907648	19	4582
2026-01-15 23:25:58.35	156.66	13.47	-30.2	-32.4	12.4	7.40e-05	0	44	0	1101004800	20	4612
2026-01-15 23:25:59.35	156.76	13.38	-30.2	-32.5	12.2	1.38e-04	0	44	0	1103101952	20	4664
2026-01-15 23:26:00.34	156.87	13.30	-30.2	-32.3	12.4	2.27e-03	0	44	0	1105199104	20	4604
2026-01-15 23:26:01.34	156.97	13.21	-30.4	-33.2	11.7	1.21e-03	0	44	0	1106247680	20	4928
2026-01-15 23:26:02.35	157.07	13.13	-30.5	-32.9	11.5	6.19e-04	0	44	0	1108344832	21	4760
2026-01-15 23:26:03.35	157.17	13.04	-30.6	-33.3	11.2	7.79e-04	0	44	0	1110441984	21	4907
2026-01-15 23:26:04.34	157.27	12.96	-30.9	-34.1	10.7	5.59e-03	0	44	0	1112539136	21	5207
2026-01-15 23:26:05.34	157.37	12.87	-30.9	-34.2	10.6	3.28e-03	0	44	0	1114636288	21	5262
2026-01-15 23:26:06.35	157.47	12.79	-31.1	-34.3	10.2	3.40e-03	0	44	0	1115684864	22	5200
2026-01-15 23:26:07.35	157.57	12.70	-31.1	-34.4	10.0	9.92e-03	0	44	0	1117782016	22	5254
2026-01-15 23:26:08.35	157.67	12.62	-31.0	-34.1	10.3	5.28e-03	0	44	0	1119879168	22	5101
2026-01-15 23:26:09.35	157.77	12.53	-31.1	-34.4	10.1	5.90e-03	0	44	0	1121976320	22	5255
2026-01-15 23:26:10.35	157.87	12.45	-31.0	-34.1	10.3	6.75e-03	0	44	0	1124073472	22	5111
2026-01-15 23:26:11.35	157.96	12.37	-31.1	-34.3	10.2	6.14e-03	0	43	0	1125122048	22	5197
2026-01-15 23:26:12.35	158.06	12.28	-31.2	-34.6	9.9	9.99e-03	0	44	0	1127219200	22	5329
2026-01-15 23:26:13.35	158.16	12.20	-31.0	-33.9	10.6	6.34e-03	0	44	0	1129316352	22	5006
2026-01-15 23:26:14.35	158.25	12.12	-31.1	-34.1	10.3	4.68e-03	0	44	0	1131413504	22	5112
2026-01-15 23:26:15.36	158.35	12.03	-31.0	-33.8	10.5	7.03e-03	0	44	0	1133510656	22	4982
2026-01-15 23:26:16.36	158.44	11.95	-30.7	-33.4	11.1	2.41e-03	0	44	0	1134559232	21	4923
2026-01-15 23:26:17.36	158.54	11.87	-30.7	-33.4	11.2	1.16e-03	0	44	0	1136656384	21	4890
2026-01-15 23:26:18.37	158.63	11.79	-30.6	-33.0	11.5	3.13e-03	0	44	0	1138753536	21	4759
2026-01-15 23:26:19.37	158.72	11.70	-30.8	-33.7	11.0	3.48e-03	0	44	0	1140850688	21	5001
2026-01-15 23:26:20.37	158.82	11.62	-31.0	-33.7	10.7	3.14e-03	0	44	0	1141899264	22	4914
2026-01-15 23:26:21.37	158.91	11.54	-30.5	-32.8	11.6	3.54e-03	0	44	0	1143996416	21	4693
2026-01-15 23:26:22.36	159.00	11.46	-30.4	-32.8	11.9	2.81e-03	0	44	0	1146093568	20	4771
2026-01-15 23:26:23.36	159.09	11.38	-30.3	-32.7	12.0	5.21e-04	0	44	0	1148190720	20	4739
2026-01-15 23:26:24.37	159.18	11.30	-30.3	-32.7	12.0	3.61e-04	0	44	0	1150287872	20	4743
2026-01-15 23:26:25.36	159.27	11.22	-30.5	-32.8	11.6	2.83e-03	0	44	0	1151336448	21	4686
2026-01-15 23:26:26.36	159.36	11.14	-30.2	-32.5	12.2	6.26e-04	0	44	0	1153433600	20	4664
2026-01-15 23:26:27.36	159.45	11.06	-30.2	-32.5	12.1	3.01e-04	0	44	0	1155530752	20	4695
2026-01-15 23:26:28.37	159.54	10.97	-30.4	-33.0	11.7	2.89e-03	0	44	0	1157627904	20	4882
2026-01-15 23:26:29.37	159.63	10.90	-30.5	-32.9	11.4	1.13e-03	0	44	0	1159725056	21	4743
2026-01-15 23:26:30.37	159.71	10.82	-30.4	-33.3	11.5	3.34e-03	0	43	0	1160773632	20	5006
2026-01-15 23:26:31.37	159.80	10.74	-30.3	-33.0	11.7	3.04e-03	0	44	0	1162870784	20	4901
2026-01-15 23:26:32.36	159.89	10.66	-30.3	-33.1	11.6	6.45e-04	0	44	0	1164967936	20	4941
2026-01-15 23:26:33.36	159.97	10.58	-30.6	-33.3	11.1	3.71e-03	0	44	0	1167065088	21	4934
2026-01-15 23:26:34.37	160.06	10.50	-30.4	-33.1	11.6	1.00e-03	0	44	0	1168113664	20	4922
2026-01-15 23:26:35.38	160.15	10.42	-30.3	-32.7	11.9	5.65e-04	0	44	0	1170210816	20	4757
2026-01-15 23:26:36.38	160.23	10.34	-30.3	-32.7	11.9	2.74e-03	0	44	0	1172307968	20	4781
2026-01-15 23:26:37.37	160.32	10.26	-30.3	-33.0	11.7	2.96e-03	0	44	0	1174405120	20	4865
2026-01-15 23:26:38.38	160.40	10.18	-30.3	-32.9	11.7	7.66e-04	0	44	0	1176502272	20	4848
2026-01-15 23:26:39.38	160.48	10.11	-30.6	-33.2	11.1	3.71e-03	0	44	0	1177550848	21	4866
2026-01-15 23:26:40.39	160.57	10.03	-30.5	-32.9	11.4	3.43e-03	0	44	0	1179648000	21	4744
2026-01-15 23:26:41.39	160.65	9.95	-30.4	-32.6	11.5	7.70e-04	0	44	0	1181745152	21	4658
2026-01-15 23:26:42.40	160.73	9.87	-30.4	-33.1	11.6	3.57e-03	0	44	0	1183842304	20	4925
2026-01-15 23:26:43.40	160.82	9.80	-30.4	-33.3	11.4	3.40e-03	0	44	0	1185939456	20	4997
2026-01-15 23:26:44.40	160.90	9.72	-30.5	-33.1	11.2	1.46e-03	0	44	0	1186988032	21	4843
2026-01-15 23:26:45.40	160.98	9.64	-30.5	-33.5	11.2	3.70e-03	0	44	0	1189085184	20	5110
2026-01-15 23:26:46.40	161.06	9.56	-30.5	-33.3	11.1	4.75e-03	0	44	0	1191182336	21	4937
2026-01-15 23:26:47.40	161.14	9.49	-30.5	-33.2	11.0	1.93e-03	0	43	0	1193279488	21	4908
2026-01-15 23:26:48.40	161.22	9.41	-30.6	-33.4	10.9	1.79e-03	0	44	0	1195376640	21	4978
2026-01-15 23:26:49.39	161.30	9.34	-30.6	-33.7	10.6	6.66e-03	0	44	0	1196425216	21	5107
2026-01-15 23:26:50.39	161.38	9.26	-30.4	-32.9	11.2	2.37e-03	0	43	0	1198522368	21	4815
2026-01-15 23:26:51.39	161.46	9.19	-30.6	-33.6	10.7	4.40e-03	0	44	0	1200619520	21	5072
2026-01-15 23:26:52.39	161.54	9.11	-30.7	-34.0	10.5	5.13e-03	0	43	0	1202716672	21	5216
2026-01-15 23:26:53.39	161.61	9.03	-30.5	-33.3	10.9	3.47e-03	0	44	0	1204813824	21	4944
2026-01-15 23:26:54.40	161.69	8.96	-30.7	-33.7	10.7	5.16e-03	0	44	0	1205862400	21	5098
2026-01-15 23:26:55.40	161.77	8.88	-30.7	-33.6	10.7	2.87e-03	0	44	0	1207959552	21	5051
2026-01-15 23:26:56.40	161.85	8.81	-30.8	-34.0	10.4	3.52e-03	0	44	0	1210056704	21	5207
2026-01-15 23:26:57.39	161.92	8.74	-30.9	-34.3	10.2	9.29e-03	0	44	0	1212153856	21	5348
2026-01-15 23:26:58.40	162.00	8.66	-31.0	-34.3	9.8	9.36e-03	0	44	0	1213202432	22	5248
2026-01-15 23:26:59.40	162.07	8.59	-31.0	-34.3	9.9	1.26e-02	0	44	0	1215299584	22	5235
2026-01-15 23:27:00.39	162.15	8.51	-31.0	-34.3	9.8	1.07e-02	0	44	0	1217396736	22	5240
2026-01-15 23:27:01.38	162.22	8.44	-30.9	-34.4	10.1	9.87e-03	0	44	0	1219493888	21	5376
2026-01-15 23:27:02.38	162.30	8.37	-31.0	-34.3	9.9	7.85e-03	0	44	0	1221591040	22	5218
2026-01-15 23:27:03.39	162.37	8.29	-31.0	-34.2	9.9	8.77e-03	0	44	0	1222639616	22	5213
2026-01-15 23:27:04.39	162.45	8.22	-31.2	-34.8	9.4	1.03e-02	0	44	0	1224736768	22	5478
2026-01-15 23:27:05.39	162.52	8.15	-31.2	-35.1	9.1	2.56e-02	0	44	0	1226833920	22	5618
2026-01-15 23:27:06.39	162.59	8.07	-30.9	-34.0	10.0	1.35e-02	0	44	0	1228931072	22	5134
2026-01-15 23:27:07.39	162.67	8.00	-30.9	-34.0	10.0	1.30e-02	0	44	0	1231028224	22	5117
2026-01-15 23:27:08.39	162.74	7.93	-31.0	-34.1	9.9	8.24e-03	0	44	0	1232076800	22	5177
2026-01-15 23:27:09.39	162.81	7.85	-30.7	-33.7	10.6	3.49e-03	0	44	0	1234173952	21	5094
2026-01-15 23:27:10.40	162.88	7.78	-30.8	-34.2	10.1	5.17e-03	0	44	0	1236271104	21	5312
2026-01-15 23:27:11.40	162.96	7.71	-30.8	-34.3	10.1	7.49e-03	0	43	0	1238368256	21	5354
2026-01-15 23:27:12.40	163.03	7.64	-30.8	-34.2	10.1	9.91e-03	0	44	0	1240465408	21	5319
2026-01-15 23:27:13.41	163.10	7.57	-30.8	-34.3	10.0	4.78e-03	0	44	0	1241513984	21	5378
2026-01-15 23:27:14.42	163.17	7.49	-30.9	-34.1	9.8	1.15e-02	0	44	0	1243611136	22	5187
2026-01-15 23:27:15.42	163.24	7.42	-30.8	-34.4	9.9	1.41e-02	0	44	0	1245708288	21	5414
2026-01-15 23:27:16.42	163.31	7.35	-31.0	-35.0	9.4	1.37e-02	0	44	0	1247805440	21	5744
2026-01-15 23:27:17.42	163.38	7.28	-31.0	-34.7	9.2	1.91e-02	0	44	0	1248854016	22	5522
2026-01-15 23:27:18.42	163.45	7.21	-31.1	-34.9	9.1	1.77e-02	0	44	0	1250951168	22	5601
2026-01-15 23:27:19.42	163.52	7.14	-31.2	-35.3	8.7	2.60e-02	0	44	0	1253048320	22	5774
2026-01-15 23:27:20.42	163.59	7.07	-32.8	-45.3	3.6	1.09e-01	0	44	104	1255145472	25	15221
2026-01-15 23:27:21.42	163.66	7.00	-32.3	-44.9	3.8	1.49e+00	0	44	104	1255145472	25	15400
2026-01-15 23:27:22.42	163.72	6.93	-33.5	-46.2	3.8	1.49e+00	0	44	104	1255145472	26	15550

#Closed at: 2026-01-15 23:27:22
#Recorded file [1255 MB]: D:/data/31010_260116_021610.dat