passes_logs/2026/01/15/R2M6_AANII_01/R2M6_AANII_01__20260115_120653_FENGYUN_3D_rec.log

#Pass ID: 20260115_120653_FENGYUN 3D
#Satellite: FENGYUN 3D
#Configuration: FENGYUN 3D
#almurnet v.1.7.20240730
#Start time: 2026-01-15 12:10:11

#Version: 2.2.20231116
#Station: R2M6_AANII_01
#Location: 30.233357 lon 59.946436 lat
#TLE: 1 43010U 17072A   26014.22831475  .00000226  00000+0  12883-3 0  9994
#TLE: 2 43010  98.9934 346.0326 0002309 109.2304 250.9121 14.19696287423146

#Time	Az	El	Level	Level2	SNR	BER	BlckErr	Temp	State	Recorded	gain1	gain2
2026-01-15 12:10:11.09	148.14	30.62	-33.9	-53.1	3.8	7.45e-01	0	43	0	0	28	32892
2026-01-15 12:10:12.09	148.09	30.81	-34.3	-45.1	3.8	8.47e-01	0	43	104	0	29	12513
2026-01-15 12:10:13.08	148.04	31.00	-34.3	-45.2	3.8	8.46e-01	0	43	104	0	29	12546
2026-01-15 12:10:14.07	147.99	31.20	-34.4	-45.2	3.8	8.47e-01	0	43	104	0	29	12586
2026-01-15 12:10:15.06	147.94	31.40	-34.4	-45.3	3.8	8.45e-01	0	43	104	0	29	12668
2026-01-15 12:10:16.06	147.89	31.60	-34.4	-45.3	3.8	8.47e-01	0	43	104	0	29	12689
2026-01-15 12:10:17.05	147.83	31.80	-34.4	-45.4	3.8	8.47e-01	0	43	104	0	29	12758
2026-01-15 12:10:18.05	147.78	32.00	-34.4	-45.3	3.8	8.46e-01	0	43	104	0	29	12696
2026-01-15 12:10:19.04	147.72	32.20	-34.4	-45.3	3.8	8.46e-01	0	43	104	0	29	12639
2026-01-15 12:10:20.04	147.67	32.41	-34.4	-45.3	3.8	8.46e-01	0	43	104	0	29	12629
2026-01-15 12:10:21.03	147.61	32.61	-34.3	-45.2	3.8	8.46e-01	0	43	104	0	29	12594
2026-01-15 12:10:22.03	147.56	32.82	-34.3	-45.2	3.8	8.45e-01	0	43	104	0	29	12611
2026-01-15 12:10:23.03	147.50	33.03	-34.3	-45.2	3.8	8.45e-01	0	43	104	0	29	12541
2026-01-15 12:10:24.03	147.44	33.24	-34.3	-45.2	3.8	8.46e-01	0	43	104	0	29	12573
2026-01-15 12:10:25.02	147.38	33.45	-34.3	-45.1	3.8	8.45e-01	0	43	104	0	29	12494
2026-01-15 12:10:26.01	147.32	33.66	-34.3	-45.1	3.8	8.47e-01	0	43	104	0	29	12504
2026-01-15 12:10:27.01	147.26	33.88	-34.3	-45.1	3.8	8.46e-01	0	43	104	0	29	12481
2026-01-15 12:10:28.00	147.20	34.09	-34.3	-45.1	3.8	8.45e-01	0	43	104	0	29	12534
2026-01-15 12:10:29.00	147.14	34.31	-34.3	-45.1	3.8	8.46e-01	0	43	104	0	29	12501
2026-01-15 12:10:29.99	147.07	34.53	-34.4	-45.3	3.8	8.45e-01	0	43	104	0	29	12668
2026-01-15 12:10:30.98	147.01	34.75	-34.4	-45.5	3.8	8.46e-01	0	43	104	0	29	12803
2026-01-15 12:10:31.98	146.94	34.97	-34.5	-45.6	3.8	8.46e-01	0	43	104	0	29	12872
2026-01-15 12:10:32.97	146.88	35.19	-34.5	-45.7	3.8	8.45e-01	0	43	104	0	29	12939
2026-01-15 12:10:33.97	146.81	35.42	-34.5	-45.6	3.8	8.47e-01	0	43	104	0	29	12893
2026-01-15 12:10:34.95	146.74	35.64	-34.5	-45.6	3.8	8.46e-01	0	44	104	0	29	12921
2026-01-15 12:10:35.94	146.67	35.87	-34.5	-45.5	3.8	8.47e-01	0	43	104	0	29	12815
2026-01-15 12:10:36.94	146.60	36.10	-34.4	-45.4	3.8	8.47e-01	0	43	104	0	29	12772
2026-01-15 12:10:37.94	146.53	36.33	-34.3	-45.2	3.8	8.47e-01	0	43	104	0	29	12628
2026-01-15 12:10:38.94	146.46	36.56	-34.2	-45.0	3.8	8.47e-01	0	44	104	0	29	12495
2026-01-15 12:10:39.94	146.39	36.80	-34.2	-44.8	3.8	8.44e-01	0	44	104	0	29	12269
2026-01-15 12:10:40.94	146.31	37.03	-33.9	-42.8	3.8	8.46e-01	0	43	104	0	29	9961
2026-01-15 12:10:41.93	146.24	37.27	-33.9	-42.5	3.8	8.45e-01	0	43	104	0	29	9698
2026-01-15 12:10:42.92	146.16	37.51	-33.9	-42.5	3.8	8.45e-01	0	43	104	0	29	9651
2026-01-15 12:10:43.92	146.08	37.75	-33.9	-42.7	3.9	8.46e-01	0	44	104	0	29	9844
2026-01-15 12:10:44.91	146.00	37.99	-33.9	-42.4	3.8	8.45e-01	0	43	104	0	29	9632
2026-01-15 12:10:45.91	145.92	38.24	-33.8	-41.5	4.0	8.43e-01	0	44	104	0	29	8799
2026-01-15 12:10:46.91	145.84	38.48	-33.7	-41.6	3.9	8.43e-01	0	44	104	0	28	8907
2026-01-15 12:10:47.90	145.76	38.73	-33.7	-41.3	4.2	8.36e-01	0	43	104	0	28	8691
2026-01-15 12:10:48.89	145.67	38.98	-33.8	-42.0	4.1	8.39e-01	0	43	0	0	28	9278
2026-01-15 12:10:49.89	145.59	39.23	-33.9	-43.2	3.8	8.45e-01	0	43	104	0	28	10460
2026-01-15 12:10:50.89	145.50	39.48	-34.0	-44.4	3.8	8.45e-01	0	44	104	0	28	11883
2026-01-15 12:10:51.88	145.41	39.74	-34.1	-45.2	3.8	8.45e-01	0	44	104	0	28	12899
2026-01-15 12:10:52.88	145.32	40.00	-34.1	-45.4	3.8	8.47e-01	0	44	104	0	28	13108
2026-01-15 12:10:53.87	145.23	40.25	-34.1	-45.4	3.8	8.46e-01	0	44	104	0	28	13096
2026-01-15 12:10:54.87	145.14	40.51	-34.1	-45.4	3.8	8.46e-01	0	44	104	0	28	13110
2026-01-15 12:10:55.86	145.05	40.77	-34.1	-45.0	3.8	8.46e-01	0	43	104	0	28	12649
2026-01-15 12:10:56.86	144.95	41.04	-33.9	-43.0	3.8	8.46e-01	0	44	104	0	28	10291
2026-01-15 12:10:57.86	144.85	41.31	-33.5	-40.1	4.5	8.33e-01	0	43	104	0	28	7767
2026-01-15 12:10:58.85	144.75	41.57	-33.0	-38.1	5.8	6.84e-01	0	44	0	0	27	6453
2026-01-15 12:10:59.85	144.65	41.84	-32.3	-36.1	7.2	2.42e-01	0	43	0	5242880	26	5544
2026-01-15 12:11:00.85	144.55	42.11	-30.5	-32.9	10.7	9.64e-03	0	44	0	11534336	22	4702
2026-01-15 12:11:01.85	144.44	42.39	-27.9	-28.9	14.7	1.71e-05	0	43	0	16777216	17	4039
2026-01-15 12:11:02.85	144.34	42.67	-25.7	-26.6	17.1	0.00e+00	0	44	0	22020096	12	3991
2026-01-15 12:11:03.84	144.23	42.94	-24.6	-25.2	18.3	0.00e+00	0	44	0	28311552	10	3877
2026-01-15 12:11:04.85	144.12	43.22	-24.5	-25.5	18.5	0.00e+00	0	43	0	33554432	9	4059
2026-01-15 12:11:05.83	144.01	43.50	-24.7	-26.0	18.2	0.00e+00	0	43	0	38797312	9	4192
2026-01-15 12:11:06.83	143.89	43.78	-24.5	-25.6	18.4	0.00e+00	0	44	0	45088768	9	4091
2026-01-15 12:11:07.82	143.77	44.07	-24.3	-25.2	18.6	0.00e+00	0	44	0	50331648	9	3993
2026-01-15 12:11:08.82	143.66	44.36	-24.5	-25.5	18.4	0.00e+00	0	44	0	55574528	9	4069
2026-01-15 12:11:09.81	143.54	44.64	-24.2	-25.0	18.7	0.00e+00	0	44	0	61865984	9	3937
2026-01-15 12:11:10.81	143.41	44.93	-24.1	-24.8	18.8	0.00e+00	0	44	0	67108864	9	3887
2026-01-15 12:11:11.81	143.29	45.23	-24.3	-25.1	18.7	0.00e+00	0	44	0	72351744	9	3965
2026-01-15 12:11:12.81	143.16	45.52	-24.4	-25.4	18.4	0.00e+00	0	43	0	78643200	9	4049
2026-01-15 12:11:13.81	143.03	45.82	-24.8	-26.3	18.0	0.00e+00	0	43	0	83886080	9	4264
2026-01-15 12:11:14.80	142.90	46.12	-24.6	-25.8	18.3	0.00e+00	0	44	0	89128960	9	4137
2026-01-15 12:11:15.80	142.76	46.42	-23.8	-24.5	19.2	0.00e+00	0	44	0	95420416	8	3941
2026-01-15 12:11:16.80	142.62	46.72	-23.3	-23.5	19.7	0.00e+00	0	43	0	100663296	8	3707
2026-01-15 12:11:17.80	142.48	47.03	-23.1	-23.6	19.9	0.00e+00	0	43	0	106954752	7	3809
2026-01-15 12:11:18.80	142.33	47.34	-23.2	-23.7	19.8	0.00e+00	0	43	0	112197632	7	3856
2026-01-15 12:11:19.80	142.19	47.65	-23.4	-24.2	19.6	0.00e+00	0	44	0	117440512	7	3962
2026-01-15 12:11:20.79	142.04	47.96	-23.6	-24.7	19.3	0.00e+00	0	43	0	123731968	7	4085
2026-01-15 12:11:21.78	141.89	48.27	-23.5	-24.5	19.4	0.00e+00	0	43	0	128974848	7	4033
2026-01-15 12:11:22.77	141.73	48.58	-23.4	-24.3	19.6	0.00e+00	0	44	0	134217728	7	3988
2026-01-15 12:11:23.77	141.57	48.90	-23.5	-24.5	19.4	0.00e+00	0	44	0	139460608	7	4042
2026-01-15 12:11:24.76	141.41	49.22	-23.6	-24.8	19.3	0.00e+00	0	44	0	145752064	7	4101
2026-01-15 12:11:25.75	141.25	49.54	-23.8	-25.1	19.1	0.00e+00	0	44	0	150994944	7	4181
2026-01-15 12:11:26.74	141.08	49.86	-24.0	-25.5	19.0	0.00e+00	0	44	0	157286400	7	4284
2026-01-15 12:11:27.73	140.90	50.18	-24.0	-25.0	19.0	0.00e+00	0	44	0	162529280	8	4061
2026-01-15 12:11:28.73	140.73	50.51	-24.0	-25.1	18.9	0.00e+00	0	44	0	167772160	8	4074
2026-01-15 12:11:29.72	140.55	50.84	-24.0	-25.0	19.0	0.00e+00	0	43	0	173015040	8	4050
2026-01-15 12:11:30.71	140.36	51.16	-23.9	-24.9	19.0	0.00e+00	0	44	0	179306496	8	4016
2026-01-15 12:11:31.71	140.17	51.50	-24.3	-25.7	18.6	0.00e+00	0	43	0	184549376	8	4228
2026-01-15 12:11:32.72	139.98	51.84	-24.8	-26.2	18.1	0.00e+00	0	44	0	189792256	9	4226
2026-01-15 12:11:33.72	139.78	52.18	-24.8	-26.3	18.1	0.00e+00	0	44	0	196083712	9	4261
2026-01-15 12:11:34.71	139.57	52.51	-24.7	-26.0	18.2	0.00e+00	0	43	0	201326592	9	4182
2026-01-15 12:11:35.70	139.37	52.85	-24.7	-26.0	18.3	0.00e+00	0	44	0	207618048	9	4177
2026-01-15 12:11:36.69	139.16	53.19	-24.7	-26.1	18.2	0.00e+00	0	44	0	212860928	9	4213
2026-01-15 12:11:37.69	138.94	53.54	-24.8	-26.1	18.2	0.00e+00	0	44	0	218103808	9	4214
2026-01-15 12:11:38.69	138.71	53.89	-24.8	-26.1	18.2	0.00e+00	0	43	0	223346688	9	4214
2026-01-15 12:11:39.68	138.49	54.23	-25.0	-26.6	18.0	0.00e+00	0	44	0	229638144	9	4345
2026-01-15 12:11:40.67	138.25	54.58	-25.1	-26.4	17.8	0.00e+00	0	44	0	234881024	10	4172
2026-01-15 12:11:41.68	138.01	54.94	-25.0	-26.2	17.8	0.00e+00	0	44	0	240123904	10	4123
2026-01-15 12:11:42.68	137.76	55.30	-24.7	-25.5	18.1	0.00e+00	0	44	0	246415360	10	3937
2026-01-15 12:11:43.68	137.51	55.65	-24.6	-25.4	18.2	0.00e+00	0	44	0	251658240	10	3917
2026-01-15 12:11:44.67	137.25	56.01	-24.7	-25.5	18.1	0.00e+00	0	44	0	257949696	10	3954
2026-01-15 12:11:45.66	136.99	56.37	-24.5	-25.0	18.5	0.00e+00	0	44	0	263192576	10	3822
2026-01-15 12:11:46.66	136.71	56.73	-24.7	-25.6	18.2	0.00e+00	0	43	0	268435456	10	3976
2026-01-15 12:11:47.67	136.43	57.10	-24.4	-24.9	18.6	0.00e+00	0	43	0	274726912	10	3813
2026-01-15 12:11:48.65	136.14	57.46	-23.8	-24.1	19.2	0.00e+00	0	43	0	279969792	9	3730
2026-01-15 12:11:49.64	135.85	57.82	-23.7	-24.5	19.3	0.00e+00	0	44	0	285212672	8	3921
2026-01-15 12:11:50.63	135.55	58.19	-23.9	-24.9	19.1	0.00e+00	0	44	0	290455552	8	4021
2026-01-15 12:11:51.62	135.23	58.55	-23.7	-24.4	19.4	0.00e+00	0	44	0	296747008	8	3892
2026-01-15 12:11:52.62	134.91	58.93	-23.5	-24.0	19.6	0.00e+00	0	44	0	301989888	8	3804
2026-01-15 12:11:53.63	134.58	59.30	-23.7	-24.5	19.3	0.00e+00	0	44	0	308281344	8	3927
2026-01-15 12:11:54.62	134.24	59.67	-23.7	-24.3	19.4	0.00e+00	0	44	0	313524224	8	3883
2026-01-15 12:11:55.63	133.88	60.05	-23.4	-23.7	19.7	0.00e+00	0	43	0	318767104	8	3736
2026-01-15 12:11:56.63	133.52	60.43	-23.7	-24.4	19.4	0.00e+00	0	43	0	325058560	8	3893
2026-01-15 12:11:57.63	133.14	60.81	-24.1	-25.3	18.9	0.00e+00	0	43	0	330301440	8	4121
2026-01-15 12:11:58.63	132.76	61.19	-24.2	-25.4	18.9	0.00e+00	0	43	0	335544320	8	4156
2026-01-15 12:11:59.63	132.36	61.57	-24.2	-25.5	18.9	0.00e+00	0	44	0	341835776	8	4161
2026-01-15 12:12:00.63	131.95	61.95	-24.4	-25.8	18.7	0.00e+00	0	43	0	347078656	8	4244
2026-01-15 12:12:01.63	131.53	62.34	-24.3	-25.1	18.7	0.00e+00	0	44	0	353370112	9	3973
2026-01-15 12:12:02.64	131.08	62.72	-23.8	-24.1	19.3	0.00e+00	0	43	0	358612992	9	3737
2026-01-15 12:12:03.65	130.63	63.11	-23.6	-24.2	19.5	0.00e+00	0	44	0	364904448	8	3842
2026-01-15 12:12:04.65	130.16	63.49	-23.7	-24.4	19.4	0.00e+00	0	43	0	370147328	8	3914
2026-01-15 12:12:05.65	129.68	63.88	-23.5	-23.9	19.6	0.00e+00	0	44	0	375390208	8	3789
2026-01-15 12:12:06.65	129.18	64.26	-23.5	-23.9	19.7	0.00e+00	0	44	0	381681664	8	3775
2026-01-15 12:12:07.65	128.67	64.65	-23.2	-23.9	19.9	0.00e+00	0	44	0	386924544	7	3889
2026-01-15 12:12:08.65	128.13	65.04	-23.2	-23.8	19.9	0.00e+00	0	44	0	392167424	7	3873
2026-01-15 12:12:09.65	127.58	65.42	-23.0	-23.6	20.0	0.00e+00	0	44	0	398458880	7	3816
2026-01-15 12:12:10.65	127.01	65.81	-22.8	-23.0	20.3	0.00e+00	0	44	0	403701760	7	3696
2026-01-15 12:12:11.65	126.42	66.19	-22.5	-22.9	20.6	0.00e+00	0	44	0	408944640	6	3762
2026-01-15 12:12:12.66	125.80	66.58	-22.9	-23.7	20.1	0.00e+00	0	44	0	415236096	6	3965
2026-01-15 12:12:13.66	125.16	66.96	-22.9	-23.8	20.1	0.00e+00	0	44	0	420478976	6	3995
2026-01-15 12:12:14.66	124.50	67.34	-22.4	-22.7	20.7	0.00e+00	0	44	0	426770432	6	3724
2026-01-15 12:12:15.67	123.81	67.73	-22.4	-22.6	20.7	0.00e+00	0	44	0	432013312	6	3701
2026-01-15 12:12:16.67	123.10	68.11	-22.4	-22.6	20.7	0.00e+00	0	44	0	437256192	6	3713
2026-01-15 12:12:17.68	122.35	68.49	-22.2	-22.8	20.9	0.00e+00	0	44	0	443547648	5	3851
2026-01-15 12:12:18.67	121.59	68.86	-22.1	-22.5	21.0	0.00e+00	0	44	0	448790528	5	3792
2026-01-15 12:12:19.67	120.79	69.24	-22.3	-23.1	20.7	0.00e+00	0	44	0	454033408	5	3915
2026-01-15 12:12:20.68	119.95	69.61	-22.3	-23.0	20.7	0.00e+00	0	44	0	460324864	5	3911
2026-01-15 12:12:21.67	119.10	69.98	-22.1	-22.5	21.0	0.00e+00	0	44	0	465567744	5	3786
2026-01-15 12:12:22.68	118.19	70.35	-22.2	-22.8	20.9	0.00e+00	0	44	0	470810624	5	3863
2026-01-15 12:12:23.69	117.25	70.71	-22.2	-22.9	20.8	0.00e+00	0	44	0	477102080	5	3877
2026-01-15 12:12:24.69	116.28	71.07	-22.2	-22.8	20.9	0.00e+00	0	44	0	482344960	5	3856
2026-01-15 12:12:25.69	115.27	71.43	-22.5	-23.3	20.6	0.00e+00	0	43	0	488636416	5	3987
2026-01-15 12:12:26.69	114.21	71.78	-22.4	-23.3	20.6	0.00e+00	0	44	0	493879296	5	3970
2026-01-15 12:12:27.69	113.12	72.12	-22.3	-23.1	20.7	0.00e+00	0	44	0	499122176	5	3922
2026-01-15 12:12:28.69	111.98	72.46	-22.5	-23.4	20.6	0.00e+00	0	44	0	505413632	5	4006
2026-01-15 12:12:29.68	110.80	72.79	-22.7	-23.8	20.4	0.00e+00	0	44	0	510656512	5	4087
2026-01-15 12:12:30.69	109.55	73.12	-22.3	-23.1	20.8	0.00e+00	0	44	0	515899392	5	3916
2026-01-15 12:12:31.69	108.26	73.44	-22.1	-22.5	21.0	0.00e+00	0	44	0	522190848	5	3790
2026-01-15 12:12:32.69	106.92	73.76	-22.3	-23.0	20.8	0.00e+00	0	44	0	527433728	5	3913
2026-01-15 12:12:33.69	105.52	74.06	-22.1	-22.5	21.0	0.00e+00	0	44	0	532676608	5	3799
2026-01-15 12:12:34.70	104.05	74.36	-21.7	-22.2	21.4	0.00e+00	0	44	0	538968064	4	3829
2026-01-15 12:12:35.70	102.54	74.65	-21.7	-22.2	21.4	0.00e+00	0	44	0	544210944	4	3826
2026-01-15 12:12:36.70	100.97	74.92	-21.7	-22.2	21.4	0.00e+00	0	44	0	550502400	4	3838
2026-01-15 12:12:37.70	99.34	75.19	-21.5	-21.8	21.6	0.00e+00	0	44	0	555745280	4	3739
2026-01-15 12:12:38.70	97.65	75.44	-21.7	-22.1	21.4	0.00e+00	0	44	0	562036736	4	3811
2026-01-15 12:12:39.70	95.90	75.68	-21.5	-21.8	21.2	0.00e+00	0	44	0	567279616	4	3737
2026-01-15 12:12:40.71	94.07	75.91	-21.3	-21.5	21.6	0.00e+00	0	44	0	572522496	4	3663
2026-01-15 12:12:41.71	92.20	76.13	-21.3	-21.5	21.7	0.00e+00	0	44	0	578813952	4	3660
2026-01-15 12:12:42.72	90.24	76.33	-21.5	-21.8	21.8	0.00e+00	0	44	0	584056832	4	3724
2026-01-15 12:12:43.72	88.26	76.52	-21.3	-21.9	21.9	0.00e+00	0	44	0	589299712	3	3842
2026-01-15 12:12:44.72	86.21	76.68	-21.3	-21.9	21.9	0.00e+00	0	44	0	595591168	3	3854
2026-01-15 12:12:45.72	84.12	76.84	-21.2	-21.7	22.2	0.00e+00	0	44	0	600834048	3	3807
2026-01-15 12:12:46.73	81.95	76.97	-21.2	-21.7	22.1	0.00e+00	0	44	0	606076928	3	3819
2026-01-15 12:12:47.73	79.77	77.09	-21.1	-21.4	22.3	0.00e+00	0	44	0	612368384	3	3733
2026-01-15 12:12:48.73	77.54	77.19	-21.2	-21.7	22.2	0.00e+00	0	44	0	617611264	3	3806
2026-01-15 12:12:49.73	75.29	77.27	-21.5	-22.2	21.9	0.00e+00	0	44	0	623902720	3	3939
2026-01-15 12:12:50.73	73.01	77.33	-21.1	-21.5	22.3	0.00e+00	0	44	0	629145600	3	3759
2026-01-15 12:12:51.73	70.71	77.37	-21.1	-21.5	22.3	0.00e+00	0	44	0	634388480	3	3755
2026-01-15 12:12:52.73	68.40	77.38	-21.3	-21.8	22.1	0.00e+00	0	44	0	640679936	3	3844
2026-01-15 12:12:53.73	66.09	77.38	-20.9	-21.1	22.4	0.00e+00	0	44	0	645922816	3	3683
2026-01-15 12:12:54.73	63.78	77.36	-20.8	-21.0	22.5	0.00e+00	0	44	0	651165696	3	3642
2026-01-15 12:12:55.74	61.46	77.32	-21.2	-21.8	22.2	0.00e+00	0	44	0	657457152	3	3820
2026-01-15 12:12:56.74	59.18	77.26	-21.1	-21.5	22.2	0.00e+00	0	44	0	662700032	3	3754
2026-01-15 12:12:57.74	56.92	77.18	-21.1	-21.4	22.3	0.00e+00	0	44	0	667942912	3	3734
2026-01-15 12:12:58.74	54.70	77.08	-21.3	-21.9	22.0	0.00e+00	0	44	0	674234368	3	3845
2026-01-15 12:12:59.74	52.52	76.97	-20.9	-21.1	22.5	0.00e+00	0	44	0	679477248	3	3665
2026-01-15 12:13:00.74	50.38	76.83	-20.8	-20.9	22.6	0.00e+00	0	44	0	685768704	3	3622
2026-01-15 12:13:01.73	48.31	76.68	-21.1	-21.5	22.3	0.00e+00	0	44	0	691011584	3	3754
2026-01-15 12:13:02.74	46.25	76.51	-20.9	-21.1	22.4	0.00e+00	0	44	0	696254464	3	3667
2026-01-15 12:13:03.75	44.24	76.32	-20.9	-21.0	22.5	0.00e+00	0	44	0	702545920	3	3656
2026-01-15 12:13:04.75	42.31	76.12	-21.1	-21.5	22.3	0.00e+00	0	44	0	707788800	3	3771
2026-01-15 12:13:05.74	40.46	75.91	-21.1	-21.6	22.2	0.00e+00	0	44	0	714080256	3	3773
2026-01-15 12:13:06.74	38.65	75.68	-21.2	-21.7	22.2	0.00e+00	0	44	0	719323136	3	3809
2026-01-15 12:13:07.75	36.88	75.44	-21.5	-22.2	22.0	0.00e+00	0	43	0	724566016	3	3928
2026-01-15 12:13:08.76	35.18	75.18	-21.4	-22.0	22.0	0.00e+00	0	44	0	730857472	3	3865
2026-01-15 12:13:09.76	33.55	74.91	-21.6	-22.6	21.7	0.00e+00	0	44	0	736100352	3	4010
2026-01-15 12:13:10.75	32.00	74.64	-21.3	-21.8	22.2	0.00e+00	0	43	0	741343232	3	3827
2026-01-15 12:13:11.75	30.49	74.35	-21.5	-22.3	21.9	0.00e+00	0	44	0	747634688	3	3932
2026-01-15 12:13:12.76	29.03	74.06	-21.9	-23.1	21.5	0.00e+00	0	44	0	752877568	3	4148
2026-01-15 12:13:13.76	27.63	73.75	-21.8	-22.4	21.6	0.00e+00	0	44	0	759169024	4	3846
2026-01-15 12:13:14.76	26.29	73.44	-21.8	-22.4	21.6	0.00e+00	0	43	0	764411904	4	3859
2026-01-15 12:13:15.76	25.00	73.12	-22.0	-22.8	21.4	0.00e+00	0	44	0	769654784	4	3951
2026-01-15 12:13:16.76	23.77	72.79	-22.3	-23.4	21.1	0.00e+00	0	44	0	775946240	4	4088
2026-01-15 12:13:17.76	22.58	72.46	-22.2	-23.2	21.2	0.00e+00	0	44	0	781189120	4	4043
2026-01-15 12:13:18.76	21.44	72.12	-22.2	-23.3	21.1	0.00e+00	0	44	0	786432000	4	4064
2026-01-15 12:13:19.77	20.33	71.77	-22.5	-23.8	20.8	0.00e+00	0	44	0	792723456	4	4193
2026-01-15 12:13:20.77	19.28	71.42	-22.2	-22.8	21.1	0.00e+00	0	44	0	797966336	5	3840
2026-01-15 12:13:21.77	18.27	71.07	-22.2	-22.7	21.2	0.00e+00	0	44	0	803209216	5	3820
2026-01-15 12:13:22.77	17.30	70.71	-22.3	-23.0	21.0	0.00e+00	0	44	0	809500672	5	3879
2026-01-15 12:13:23.77	16.37	70.35	-22.6	-23.6	20.7	0.00e+00	0	44	0	814743552	5	4041
2026-01-15 12:13:24.76	15.49	69.99	-22.6	-23.5	20.7	0.00e+00	0	44	0	821035008	5	4010
2026-01-15 12:13:25.77	14.62	69.61	-22.1	-22.5	21.2	0.00e+00	0	44	0	826277888	5	3771
2026-01-15 12:13:26.77	13.79	69.24	-22.2	-22.8	21.1	0.00e+00	0	44	0	831520768	5	3833
2026-01-15 12:13:27.77	12.99	68.87	-22.6	-23.5	20.7	0.00e+00	0	44	0	837812224	5	4022
2026-01-15 12:13:28.77	12.22	68.49	-22.6	-23.7	20.6	0.00e+00	0	44	0	843055104	5	4046
2026-01-15 12:13:29.78	11.48	68.11	-22.2	-22.8	21.1	0.00e+00	0	44	0	848297984	5	3834
2026-01-15 12:13:30.79	10.76	67.73	-22.5	-23.3	20.9	0.00e+00	0	44	0	854589440	5	3961
2026-01-15 12:13:31.79	10.08	67.35	-22.8	-24.0	20.5	0.00e+00	0	44	0	859832320	5	4124
2026-01-15 12:13:32.79	9.42	66.97	-22.4	-23.1	20.9	0.00e+00	0	44	0	865075200	5	3916
2026-01-15 12:13:33.79	8.78	66.58	-22.1	-22.5	21.2	0.00e+00	0	44	0	871366656	5	3777
2026-01-15 12:13:34.78	8.18	66.21	-22.5	-23.3	20.8	0.00e+00	0	44	0	876609536	5	3958
2026-01-15 12:13:35.78	7.58	65.82	-22.7	-23.9	20.6	0.00e+00	0	44	0	882900992	5	4097
2026-01-15 12:13:36.79	7.01	65.43	-22.8	-24.1	20.4	0.00e+00	0	43	0	888143872	5	4144
2026-01-15 12:13:37.79	6.46	65.05	-22.7	-23.8	20.6	0.00e+00	0	44	0	893386752	5	4066
2026-01-15 12:13:38.79	5.92	64.66	-22.6	-23.5	20.7	0.00e+00	0	44	0	899678208	5	3995
2026-01-15 12:13:39.80	5.40	64.28	-22.6	-23.6	20.7	0.00e+00	0	44	0	904921088	5	4017
2026-01-15 12:13:40.79	4.91	63.90	-22.8	-24.0	20.5	0.00e+00	0	44	0	911212544	5	4121
2026-01-15 12:13:41.80	4.42	63.51	-23.0	-24.3	20.3	0.00e+00	0	44	0	916455424	5	4208
2026-01-15 12:13:42.80	3.96	63.12	-23.1	-24.0	20.3	0.00e+00	0	43	0	921698304	6	4008
2026-01-15 12:13:43.81	3.50	62.74	-23.2	-24.2	20.1	0.00e+00	0	44	0	927989760	6	4059
2026-01-15 12:13:44.81	3.07	62.35	-23.0	-24.0	20.2	0.00e+00	0	44	0	933232640	6	4005
2026-01-15 12:13:45.81	2.64	61.97	-22.8	-23.4	20.5	0.00e+00	0	43	0	938475520	6	3862
2026-01-15 12:13:46.81	2.23	61.59	-22.8	-23.5	20.5	0.00e+00	0	44	0	944766976	6	3882
2026-01-15 12:13:47.81	1.84	61.21	-23.2	-24.3	20.1	0.00e+00	0	44	0	950009856	6	4080
2026-01-15 12:13:48.82	1.45	60.83	-23.7	-24.9	19.6	0.00e+00	0	44	0	956301312	7	4116
2026-01-15 12:13:49.82	1.08	60.45	-23.6	-24.7	19.7	0.00e+00	0	44	0	961544192	7	4068
2026-01-15 12:13:50.82	0.71	60.08	-23.6	-24.6	19.7	0.00e+00	0	44	0	966787072	7	4037
2026-01-15 12:13:51.82	0.36	59.70	-23.8	-25.0	19.5	0.00e+00	0	44	0	973078528	7	4160
2026-01-15 12:13:52.83	0.02	59.32	-23.9	-25.2	19.4	0.00e+00	0	44	0	978321408	7	4197
2026-01-15 12:13:53.83	359.68	58.95	-23.7	-24.8	19.6	0.00e+00	0	44	0	983564288	7	4108
2026-01-15 12:13:54.84	359.36	58.57	-23.7	-24.9	19.5	0.00e+00	0	44	0	989855744	7	4116
2026-01-15 12:13:55.84	359.04	58.21	-23.8	-25.2	19.4	0.00e+00	0	44	0	995098624	7	4187
2026-01-15 12:13:56.84	358.74	57.84	-23.7	-24.9	19.5	0.00e+00	0	44	0	1001390080	7	4130
2026-01-15 12:13:57.84	358.44	57.47	-23.6	-24.5	19.7	0.00e+00	0	43	0	1006632960	7	4030
2026-01-15 12:13:58.84	358.15	57.11	-23.9	-25.3	19.3	0.00e+00	0	43	0	1011875840	7	4219
2026-01-15 12:13:59.85	357.87	56.74	-24.5	-25.6	18.7	0.00e+00	0	44	0	1018167296	9	4061
2026-01-15 12:14:00.85	357.60	56.38	-25.0	-26.5	18.2	0.00e+00	0	44	0	1023410176	9	4315
2026-01-15 12:14:01.86	357.33	56.01	-24.7	-25.4	18.6	0.00e+00	0	43	0	1029701632	10	3908
2026-01-15 12:14:02.86	357.07	55.66	-24.5	-25.1	18.7	0.00e+00	0	43	0	1034944512	10	3827
2026-01-15 12:14:03.85	356.82	55.30	-24.7	-25.4	18.6	0.00e+00	0	44	0	1040187392	10	3904
2026-01-15 12:14:04.85	356.57	54.95	-24.5	-25.0	18.8	0.00e+00	0	44	0	1046478848	10	3809
2026-01-15 12:14:05.86	356.33	54.59	-24.1	-24.7	19.1	0.00e+00	0	43	0	1051721728	9	3848
2026-01-15 12:14:06.86	356.09	54.24	-24.0	-24.3	19.3	0.00e+00	0	44	0	1056964608	9	3759
2026-01-15 12:14:07.87	355.86	53.89	-24.2	-24.9	19.1	0.00e+00	0	44	0	1063256064	9	3885
2026-01-15 12:14:08.87	355.64	53.54	-24.2	-24.8	19.1	0.00e+00	0	44	0	1068498944	9	3875
2026-01-15 12:14:09.87	355.42	53.20	-24.2	-25.0	19.0	0.00e+00	0	44	0	1073741824	9	3921
2026-01-15 12:14:10.87	355.21	52.85	-24.0	-24.5	19.3	0.00e+00	0	43	0	1080033280	9	3798
2026-01-15 12:14:11.88	355.00	52.51	-24.0	-24.4	19.3	0.00e+00	0	44	0	1085276160	9	3775
2026-01-15 12:14:12.88	354.80	52.17	-24.1	-24.7	19.1	0.00e+00	0	43	0	1091567616	9	3848
2026-01-15 12:14:13.89	354.60	51.83	-24.0	-24.4	19.3	0.00e+00	0	44	0	1096810496	9	3777
2026-01-15 12:14:14.89	354.40	51.49	-23.8	-24.0	19.5	0.00e+00	0	44	0	1103101952	9	3686
2026-01-15 12:14:15.90	354.21	51.16	-23.8	-24.6	19.4	0.00e+00	0	44	0	1108344832	8	3928
2026-01-15 12:14:16.91	354.03	50.82	-23.8	-24.5	19.5	0.00e+00	0	43	0	1113587712	8	3909
2026-01-15 12:14:17.91	353.84	50.49	-23.8	-24.5	19.5	0.00e+00	0	43	0	1119879168	8	3912
2026-01-15 12:14:18.92	353.67	50.16	-23.7	-24.3	19.5	0.00e+00	0	44	0	1125122048	8	3882
2026-01-15 12:14:19.91	353.49	49.84	-23.7	-24.3	19.6	0.00e+00	0	44	0	1130364928	8	3854
2026-01-15 12:14:20.92	353.32	49.52	-23.9	-24.6	19.4	0.00e+00	0	44	0	1136656384	8	3945
2026-01-15 12:14:21.92	353.16	49.20	-23.6	-24.1	19.6	0.00e+00	0	43	0	1141899264	8	3820
2026-01-15 12:14:22.92	353.00	48.88	-23.5	-24.0	19.7	0.00e+00	0	43	0	1147142144	8	3789
2026-01-15 12:14:23.92	352.84	48.56	-23.5	-23.9	19.7	0.00e+00	0	44	0	1153433600	8	3779
2026-01-15 12:14:24.93	352.68	48.24	-23.5	-24.0	19.7	0.00e+00	0	43	0	1158676480	8	3806
2026-01-15 12:14:25.93	352.53	47.93	-23.4	-23.7	19.8	0.00e+00	0	44	0	1164967936	8	3739
2026-01-15 12:14:26.93	352.38	47.62	-23.5	-23.8	19.8	0.00e+00	0	44	0	1170210816	8	3754
2026-01-15 12:14:27.93	352.23	47.31	-23.6	-24.2	19.6	0.00e+00	0	43	0	1175453696	8	3849
2026-01-15 12:14:28.93	352.09	47.00	-23.6	-24.1	19.6	0.00e+00	0	44	0	1181745152	8	3829
2026-01-15 12:14:29.93	351.95	46.70	-23.6	-24.2	19.6	0.00e+00	0	43	0	1186988032	8	3840
2026-01-15 12:14:30.94	351.81	46.39	-23.4	-23.7	19.8	0.00e+00	0	44	0	1192230912	8	3741
2026-01-15 12:14:31.94	351.68	46.09	-23.2	-23.8	19.9	0.00e+00	0	43	0	1198522368	7	3865
2026-01-15 12:14:32.94	351.54	45.80	-23.2	-23.9	20.0	0.00e+00	0	43	0	1203765248	7	3870
2026-01-15 12:14:33.94	351.41	45.50	-23.1	-23.6	20.1	0.00e+00	0	44	0	1210056704	7	3810
2026-01-15 12:14:34.94	351.29	45.21	-23.2	-23.7	20.0	0.00e+00	0	44	0	1215299584	7	3837
2026-01-15 12:14:35.94	351.16	44.91	-23.2	-23.8	20.0	0.00e+00	0	44	0	1220542464	7	3851
2026-01-15 12:14:36.93	351.04	44.63	-23.3	-24.0	19.9	0.00e+00	0	44	0	1226833920	7	3909
2026-01-15 12:14:37.94	350.92	44.33	-23.3	-24.1	19.8	0.00e+00	0	44	0	1232076800	7	3932
2026-01-15 12:14:38.94	350.80	44.05	-23.4	-24.2	19.7	0.00e+00	0	44	0	1237319680	7	3957
2026-01-15 12:14:39.94	350.69	43.76	-23.4	-24.2	19.8	0.00e+00	0	44	0	1243611136	7	3947
2026-01-15 12:14:40.95	350.57	43.48	-23.4	-24.3	19.7	0.00e+00	0	44	0	1248854016	7	3978
2026-01-15 12:14:41.95	350.46	43.20	-23.5	-24.4	19.7	0.00e+00	0	43	0	1255145472	7	3999
2026-01-15 12:14:42.95	350.35	42.92	-23.3	-24.0	19.8	0.00e+00	0	44	0	1260388352	7	3910
2026-01-15 12:14:43.95	350.24	42.64	-23.3	-24.0	19.9	0.00e+00	0	44	0	1265631232	7	3908
2026-01-15 12:14:44.95	350.14	42.37	-23.3	-24.0	19.8	0.00e+00	0	44	0	1271922688	7	3915
2026-01-15 12:14:45.95	350.03	42.10	-23.1	-23.7	20.0	0.00e+00	0	44	0	1277165568	7	3838
2026-01-15 12:14:46.95	349.93	41.82	-23.1	-23.6	20.1	0.00e+00	0	44	0	1283457024	7	3806
2026-01-15 12:14:47.95	349.83	41.56	-23.1	-23.5	20.0	1.10e-06	0	44	0	1288699904	7	3803
2026-01-15 12:14:48.95	349.73	41.29	-23.2	-23.8	19.9	0.00e+00	0	43	0	1293942784	7	3855
2026-01-15 12:14:49.95	349.63	41.02	-22.9	-23.2	20.2	0.00e+00	0	44	0	1300234240	7	3714
2026-01-15 12:14:50.95	349.54	40.76	-22.8	-23.0	20.3	0.00e+00	0	44	0	1305477120	7	3685
2026-01-15 12:14:51.95	349.44	40.50	-23.0	-23.3	20.2	0.00e+00	0	44	0	1310720000	7	3744
2026-01-15 12:14:52.95	349.35	40.24	-22.7	-23.3	20.4	0.00e+00	0	44	0	1317011456	6	3854
2026-01-15 12:14:53.95	349.26	39.98	-22.7	-23.2	20.5	0.00e+00	0	44	0	1322254336	6	3832
2026-01-15 12:14:54.95	349.17	39.72	-22.8	-23.4	20.4	0.00e+00	0	44	0	1327497216	6	3870
2026-01-15 12:14:55.95	349.08	39.47	-23.1	-24.1	20.0	0.00e+00	0	43	0	1333788672	6	4042
2026-01-15 12:14:56.95	349.00	39.22	-23.3	-24.5	19.8	0.00e+00	0	44	0	1339031552	6	4137
2026-01-15 12:14:57.96	348.91	38.96	-23.2	-24.2	19.9	0.00e+00	0	44	0	1345323008	6	4076
2026-01-15 12:14:58.96	348.83	38.71	-23.1	-24.0	20.0	0.00e+00	0	44	0	1350565888	6	4025
2026-01-15 12:14:59.95	348.75	38.47	-23.1	-24.2	20.0	0.00e+00	0	44	0	1355808768	6	4062
2026-01-15 12:15:00.95	348.67	38.22	-23.1	-24.0	20.0	0.00e+00	0	44	0	1362100224	6	4030
2026-01-15 12:15:01.95	348.59	37.98	-23.1	-24.0	20.0	0.00e+00	0	44	0	1367343104	6	4026
2026-01-15 12:15:02.94	348.51	37.74	-23.4	-24.6	19.7	0.00e+00	0	44	0	1372585984	6	4173
2026-01-15 12:15:03.95	348.43	37.50	-23.0	-23.9	20.1	0.00e+00	0	44	0	1378877440	6	3992
2026-01-15 12:15:04.96	348.35	37.26	-22.7	-23.3	20.4	0.00e+00	0	44	0	1384120320	6	3856
2026-01-15 12:15:05.96	348.28	37.02	-22.7	-23.2	20.4	0.00e+00	0	43	0	1389363200	6	3821
2026-01-15 12:15:06.96	348.20	36.78	-22.7	-23.3	20.4	0.00e+00	0	44	0	1395654656	6	3842
2026-01-15 12:15:07.97	348.13	36.55	-22.7	-23.3	20.4	0.00e+00	0	44	0	1400897536	6	3839
2026-01-15 12:15:08.97	348.06	36.32	-22.9	-23.6	20.2	0.00e+00	0	44	0	1407188992	6	3924
2026-01-15 12:15:09.97	347.99	36.08	-22.9	-23.6	20.2	0.00e+00	0	43	0	1412431872	6	3919
2026-01-15 12:15:10.97	347.92	35.86	-22.9	-23.7	20.2	0.00e+00	0	44	0	1417674752	6	3950
2026-01-15 12:15:11.98	347.85	35.63	-23.0	-23.9	20.0	0.00e+00	0	44	0	1423966208	6	4002
2026-01-15 12:15:12.98	347.78	35.40	-23.1	-24.0	20.0	0.00e+00	0	44	0	1429209088	6	4025
2026-01-15 12:15:13.98	347.72	35.18	-23.1	-24.2	19.9	0.00e+00	0	44	0	1434451968	6	4069
2026-01-15 12:15:14.98	347.65	34.95	-23.2	-24.3	19.8	0.00e+00	0	43	0	1440743424	6	4099
2026-01-15 12:15:15.98	347.59	34.73	-23.3	-24.6	19.7	0.00e+00	0	44	0	1445986304	6	4158
2026-01-15 12:15:16.99	347.52	34.51	-23.3	-24.5	19.8	0.00e+00	0	44	0	1451229184	6	4138
2026-01-15 12:15:17.99	347.46	34.29	-23.3	-24.6	19.7	0.00e+00	0	44	0	1457520640	6	4155
2026-01-15 12:15:18.98	347.40	34.08	-23.5	-24.9	19.5	0.00e+00	0	44	0	1462763520	6	4249
2026-01-15 12:15:19.99	347.34	33.86	-23.3	-24.1	19.7	0.00e+00	0	43	0	1469054976	7	3921
2026-01-15 12:15:20.99	347.27	33.65	-23.2	-23.8	19.8	0.00e+00	0	44	0	1474297856	7	3866
2026-01-15 12:15:21.99	347.22	33.43	-23.2	-23.8	19.8	0.00e+00	0	43	0	1479540736	7	3862
2026-01-15 12:15:22.99	347.16	33.22	-23.1	-23.7	19.9	0.00e+00	0	43	0	1485832192	7	3834
2026-01-15 12:15:23.99	347.10	33.01	-23.2	-23.9	19.8	0.00e+00	0	43	0	1491075072	7	3885
2026-01-15 12:15:25.00	347.04	32.80	-23.2	-23.7	19.9	0.00e+00	0	44	0	1497366528	7	3848
2026-01-15 12:15:25.99	346.99	32.60	-23.2	-23.7	19.9	0.00e+00	0	43	0	1502609408	7	3844
2026-01-15 12:15:27.00	346.93	32.39	-23.2	-23.8	19.9	0.00e+00	0	44	0	1507852288	7	3852
2026-01-15 12:15:28.00	346.88	32.19	-23.3	-24.1	19.7	0.00e+00	0	44	0	1514143744	7	3926
2026-01-15 12:15:28.99	346.82	31.99	-23.3	-24.0	19.8	0.00e+00	0	43	0	1519386624	7	3901
2026-01-15 12:15:29.99	346.77	31.78	-23.3	-24.1	19.7	0.00e+00	0	43	0	1524629504	7	3922
2026-01-15 12:15:30.99	346.72	31.58	-23.5	-24.4	19.5	0.00e+00	0	44	0	1530920960	7	4003
2026-01-15 12:15:31.99	346.66	31.39	-23.2	-23.9	19.8	0.00e+00	0	43	0	1536163840	7	3894
2026-01-15 12:15:32.99	346.61	31.19	-23.2	-23.7	19.9	0.00e+00	0	44	0	1542455296	7	3845
2026-01-15 12:15:34.00	346.56	30.99	-23.1	-23.6	19.9	0.00e+00	0	44	0	1547698176	7	3819
2026-01-15 12:15:35.00	346.51	30.80	-23.3	-24.0	19.8	0.00e+00	0	44	0	1552941056	7	3905
2026-01-15 12:15:36.01	346.46	30.60	-23.1	-23.6	19.9	0.00e+00	0	43	0	1559232512	7	3818
2026-01-15 12:15:37.01	346.41	30.41	-23.1	-23.5	20.0	0.00e+00	0	43	0	1564475392	7	3796
2026-01-15 12:15:38.01	346.37	30.22	-23.1	-23.6	19.9	0.00e+00	0	43	0	1569718272	7	3807
2026-01-15 12:15:39.01	346.32	30.03	-23.0	-23.3	20.0	0.00e+00	0	43	0	1576009728	7	3753
2026-01-15 12:15:40.02	346.27	29.84	-23.1	-23.5	19.9	0.00e+00	0	43	0	1581252608	7	3801
2026-01-15 12:15:41.02	346.22	29.65	-23.1	-23.6	19.9	0.00e+00	0	44	0	1586495488	7	3818
2026-01-15 12:15:42.02	346.18	29.47	-23.2	-23.8	19.8	0.00e+00	0	44	0	1592786944	7	3856
2026-01-15 12:15:43.02	346.13	29.28	-23.2	-23.8	19.8	0.00e+00	0	44	0	1598029824	7	3858
2026-01-15 12:15:44.02	346.09	29.10	-23.2	-23.9	19.8	0.00e+00	0	44	0	1604321280	7	3882
2026-01-15 12:15:45.02	346.05	28.91	-23.3	-24.1	19.7	0.00e+00	0	44	0	1609564160	7	3938
2026-01-15 12:15:46.01	346.00	28.73	-23.3	-24.1	19.6	0.00e+00	0	44	0	1614807040	7	3939
2026-01-15 12:15:47.01	345.96	28.55	-23.5	-24.4	19.5	0.00e+00	0	43	0	1621098496	7	4013
2026-01-15 12:15:48.02	345.92	28.37	-23.4	-24.3	19.5	0.00e+00	0	44	0	1626341376	7	3982
2026-01-15 12:15:49.02	345.88	28.20	-23.5	-24.4	19.5	0.00e+00	0	44	0	1631584256	7	4009
2026-01-15 12:15:50.01	345.83	28.02	-23.4	-24.3	19.5	0.00e+00	0	43	0	1637875712	7	3986
2026-01-15 12:15:51.01	345.79	27.85	-23.5	-24.4	19.5	0.00e+00	0	44	0	1643118592	7	4014
2026-01-15 12:15:52.01	345.75	27.67	-23.4	-24.3	19.5	0.00e+00	0	43	0	1648361472	7	3993
2026-01-15 12:15:53.00	345.71	27.50	-23.5	-24.4	19.5	0.00e+00	0	43	0	1654652928	7	4000
2026-01-15 12:15:54.01	345.67	27.33	-23.4	-24.2	19.6	0.00e+00	0	44	0	1659895808	7	3955
2026-01-15 12:15:55.01	345.63	27.15	-23.4	-24.3	19.5	0.00e+00	0	44	0	1666187264	7	3968
2026-01-15 12:15:56.02	345.60	26.98	-23.5	-24.5	19.4	0.00e+00	0	43	0	1671430144	7	4021
2026-01-15 12:15:57.02	345.56	26.81	-23.6	-24.7	19.3	0.00e+00	0	44	0	1676673024	7	4064
2026-01-15 12:15:58.01	345.52	26.65	-23.5	-24.5	19.4	0.00e+00	0	44	0	1682964480	7	4021
2026-01-15 12:15:59.01	345.48	26.48	-23.6	-24.7	19.3	0.00e+00	0	44	0	1688207360	7	4069
2026-01-15 12:16:00.01	345.45	26.31	-23.5	-24.5	19.4	0.00e+00	0	44	0	1693450240	7	4015
2026-01-15 12:16:01.02	345.41	26.15	-23.6	-24.6	19.3	0.00e+00	0	44	0	1699741696	7	4049
2026-01-15 12:16:02.03	345.37	25.98	-23.5	-24.5	19.4	0.00e+00	0	44	0	1704984576	7	4020
2026-01-15 12:16:03.03	345.34	25.82	-23.9	-25.3	19.0	0.00e+00	0	44	0	1710227456	7	4224
2026-01-15 12:16:04.02	345.30	25.66	-23.8	-25.1	19.1	0.00e+00	0	44	0	1716518912	7	4162
2026-01-15 12:16:05.03	345.27	25.49	-23.9	-25.3	19.0	0.00e+00	0	44	0	1721761792	7	4227
2026-01-15 12:16:06.02	345.23	25.34	-23.7	-24.9	19.2	0.00e+00	0	44	0	1728053248	7	4126
2026-01-15 12:16:07.02	345.20	25.18	-23.6	-24.7	19.3	0.00e+00	0	44	0	1733296128	7	4073
2026-01-15 12:16:08.01	345.17	25.02	-23.5	-24.5	19.4	0.00e+00	0	44	0	1738539008	7	4029
2026-01-15 12:16:09.01	345.13	24.86	-23.5	-24.5	19.4	0.00e+00	0	44	0	1744830464	7	4026
2026-01-15 12:16:10.01	345.10	24.71	-23.6	-24.6	19.4	0.00e+00	0	44	0	1750073344	7	4050
2026-01-15 12:16:11.01	345.07	24.55	-23.7	-24.8	19.2	0.00e+00	0	44	0	1755316224	7	4093
2026-01-15 12:16:12.01	345.04	24.40	-23.6	-24.8	19.2	0.00e+00	0	44	0	1761607680	7	4094
2026-01-15 12:16:13.02	345.00	24.24	-23.8	-25.0	19.1	0.00e+00	0	44	0	1766850560	7	4154
2026-01-15 12:16:14.02	344.97	24.09	-23.7	-24.9	19.2	0.00e+00	0	44	0	1772093440	7	4122
2026-01-15 12:16:15.03	344.94	23.93	-23.7	-25.0	19.1	0.00e+00	0	44	0	1778384896	7	4142
2026-01-15 12:16:16.03	344.91	23.78	-23.8	-25.0	19.1	0.00e+00	0	44	0	1783627776	7	4151
2026-01-15 12:16:17.04	344.88	23.63	-23.7	-25.0	19.1	0.00e+00	0	43	0	1789919232	7	4142
2026-01-15 12:16:18.04	344.85	23.48	-23.8	-25.1	19.0	0.00e+00	0	44	0	1795162112	7	4188
2026-01-15 12:16:19.04	344.82	23.33	-23.8	-25.1	19.0	0.00e+00	0	44	0	1800404992	7	4171
2026-01-15 12:16:20.04	344.79	23.19	-23.8	-25.1	19.1	0.00e+00	0	44	0	1806696448	7	4163
2026-01-15 12:16:21.04	344.76	23.04	-23.9	-25.3	18.9	0.00e+00	0	44	0	1811939328	7	4225
2026-01-15 12:16:22.03	344.73	22.90	-23.8	-25.2	19.0	0.00e+00	0	43	0	1817182208	7	4201
2026-01-15 12:16:23.03	344.70	22.75	-23.9	-25.3	18.9	0.00e+00	0	44	0	1823473664	7	4236
2026-01-15 12:16:24.04	344.68	22.60	-24.3	-25.6	18.5	0.00e+00	0	44	0	1828716544	8	4186
2026-01-15 12:16:25.05	344.65	22.46	-24.0	-25.1	18.8	0.00e+00	0	44	0	1835008000	8	4049
2026-01-15 12:16:26.05	344.62	22.32	-23.9	-24.8	18.9	0.00e+00	0	44	0	1840250880	8	3986
2026-01-15 12:16:27.05	344.59	22.18	-24.0	-24.9	18.9	0.00e+00	0	44	0	1845493760	8	4020
2026-01-15 12:16:28.05	344.57	22.03	-24.0	-25.0	18.8	0.00e+00	0	44	0	1851785216	8	4032
2026-01-15 12:16:29.06	344.54	21.89	-24.2	-25.3	18.7	0.00e+00	0	44	0	1857028096	8	4116
2026-01-15 12:16:30.06	344.51	21.75	-24.1	-25.2	18.7	0.00e+00	0	44	0	1863319552	8	4089
2026-01-15 12:16:31.06	344.49	21.61	-24.2	-25.4	18.6	0.00e+00	0	44	0	1868562432	8	4147
2026-01-15 12:16:32.06	344.46	21.48	-24.2	-25.3	18.6	0.00e+00	0	44	0	1873805312	8	4118
2026-01-15 12:16:33.06	344.43	21.34	-24.2	-25.4	18.6	0.00e+00	0	44	0	1880096768	8	4138
2026-01-15 12:16:34.07	344.41	21.20	-24.3	-25.6	18.5	0.00e+00	0	44	0	1885339648	8	4192
2026-01-15 12:16:35.07	344.38	21.06	-24.3	-25.6	18.5	0.00e+00	0	44	0	1890582528	8	4199
2026-01-15 12:16:36.08	344.36	20.93	-24.3	-25.6	18.5	0.00e+00	0	44	0	1896873984	8	4199
2026-01-15 12:16:37.08	344.33	20.79	-24.4	-25.8	18.4	0.00e+00	0	44	0	1902116864	8	4235
2026-01-15 12:16:38.08	344.31	20.66	-24.4	-25.9	18.3	0.00e+00	0	44	0	1907359744	8	4261
2026-01-15 12:16:39.08	344.29	20.53	-24.5	-26.0	18.3	0.00e+00	0	44	0	1913651200	8	4289
2026-01-15 12:16:40.08	344.26	20.39	-24.5	-25.7	18.2	0.00e+00	0	44	0	1918894080	9	4092
2026-01-15 12:16:41.08	344.24	20.26	-24.8	-26.3	17.9	0.00e+00	0	44	0	1925185536	9	4252
2026-01-15 12:16:42.08	344.21	20.13	-24.6	-25.9	18.1	0.00e+00	0	44	0	1930428416	9	4153
2026-01-15 12:16:43.09	344.19	20.00	-24.7	-26.0	18.0	0.00e+00	0	44	0	1935671296	9	4188
2026-01-15 12:16:44.09	344.17	19.87	-24.8	-26.1	17.9	0.00e+00	0	44	0	1941962752	9	4214
2026-01-15 12:16:45.09	344.15	19.74	-24.8	-26.2	17.8	0.00e+00	0	44	0	1947205632	9	4244
2026-01-15 12:16:46.10	344.12	19.61	-24.9	-26.3	17.8	0.00e+00	0	44	0	1953497088	9	4261
2026-01-15 12:16:47.11	344.10	19.48	-25.1	-26.3	17.6	0.00e+00	0	44	0	1958739968	10	4143
2026-01-15 12:16:48.11	344.08	19.36	-25.0	-26.2	17.6	0.00e+00	0	44	0	1963982848	10	4110
2026-01-15 12:16:49.11	344.06	19.23	-24.9	-25.9	17.8	0.00e+00	0	44	0	1970274304	10	4050
2026-01-15 12:16:50.11	344.03	19.10	-24.9	-25.9	17.8	0.00e+00	0	44	0	1975517184	10	4036
2026-01-15 12:16:51.10	344.01	18.98	-24.9	-25.9	17.8	0.00e+00	0	44	0	1980760064	10	4041
2026-01-15 12:16:52.10	343.99	18.86	-25.0	-26.2	17.6	0.00e+00	0	44	0	1987051520	10	4122
2026-01-15 12:16:53.11	343.97	18.73	-24.9	-25.9	17.8	0.00e+00	0	44	0	1992294400	10	4044
2026-01-15 12:16:54.10	343.95	18.61	-24.9	-26.0	17.7	0.00e+00	0	44	0	1998585856	10	4069
2026-01-15 12:16:55.11	343.93	18.49	-25.0	-26.1	17.7	0.00e+00	0	44	0	2003828736	10	4086
2026-01-15 12:16:56.12	343.91	18.36	-25.0	-26.2	17.6	0.00e+00	0	44	0	2009071616	10	4125
2026-01-15 12:16:57.12	343.89	18.24	-25.0	-26.0	17.7	0.00e+00	0	44	0	2015363072	10	4080
2026-01-15 12:16:58.13	343.87	18.12	-25.1	-26.3	17.5	0.00e+00	0	44	0	2020605952	10	4143
2026-01-15 12:16:59.13	343.85	18.00	-25.0	-26.2	17.6	0.00e+00	0	44	0	2025848832	10	4114
2026-01-15 12:17:00.13	343.83	17.88	-25.1	-26.3	17.5	0.00e+00	0	44	0	2032140288	10	4154
2026-01-15 12:17:01.13	343.81	17.76	-25.1	-26.4	17.5	0.00e+00	0	44	0	2037383168	10	4165
2026-01-15 12:17:02.14	343.79	17.64	-25.1	-26.4	17.5	1.10e-06	0	44	0	2042626048	10	4177
2026-01-15 12:17:03.14	343.77	17.52	-25.2	-26.7	17.3	0.00e+00	0	44	0	2048917504	10	4236
2026-01-15 12:17:04.14	343.75	17.41	-25.2	-26.5	17.4	0.00e+00	0	44	0	2054160384	10	4190
2026-01-15 12:17:05.15	343.73	17.29	-25.2	-26.5	17.4	0.00e+00	0	44	0	2060451840	10	4199
2026-01-15 12:17:06.15	343.71	17.17	-25.3	-26.7	17.3	0.00e+00	0	44	0	2065694720	10	4238
2026-01-15 12:17:07.15	343.70	17.06	-25.2	-26.6	17.4	0.00e+00	0	43	0	2071986176	10	4211
2026-01-15 12:17:08.15	343.68	16.94	-25.3	-26.7	17.3	0.00e+00	0	44	0	2077229056	10	4238
2026-01-15 12:17:09.16	343.66	16.83	-25.4	-26.9	17.2	0.00e+00	0	44	0	2082471936	10	4305
2026-01-15 12:17:10.16	343.64	16.71	-25.4	-27.0	17.1	0.00e+00	0	44	0	2088763392	10	4331
2026-01-15 12:17:11.16	343.62	16.60	-25.5	-26.7	17.0	0.00e+00	0	44	0	2094006272	11	4141
2026-01-15 12:17:12.16	343.61	16.48	-25.6	-26.9	16.9	0.00e+00	0	44	0	2099249152	11	4175
2026-01-15 12:17:13.16	343.59	16.37	-25.9	-27.5	16.6	0.00e+00	0	43	0	2105540608	11	4335
2026-01-15 12:17:14.16	343.57	16.26	-25.7	-27.2	16.7	0.00e+00	0	44	0	2110783488	11	4268
2026-01-15 12:17:15.17	343.55	16.15	-25.6	-27.0	16.8	0.00e+00	0	44	0	2117074944	11	4213
2026-01-15 12:17:16.17	343.54	16.04	-25.7	-27.1	16.8	0.00e+00	0	44	0	2122317824	11	4234
2026-01-15 12:17:17.18	343.52	15.93	-25.9	-27.5	16.5	0.00e+00	0	44	0	2127560704	11	4341
2026-01-15 12:17:18.18	343.50	15.82	-25.7	-27.2	16.7	0.00e+00	0	44	0	2133852160	11	4278
2026-01-15 12:17:19.18	343.49	15.71	-25.6	-27.0	16.8	0.00e+00	0	44	0	2139095040	11	4209
2026-01-15 12:17:20.18	343.47	15.60	-25.8	-27.3	16.6	0.00e+00	0	44	0	2144337920	11	4295
2026-01-15 12:17:21.19	343.45	15.49	-25.9	-27.7	16.4	0.00e+00	0	44	0	2150629376	11	4395
2026-01-15 12:17:22.19	343.44	15.38	-25.8	-27.4	16.6	0.00e+00	0	44	0	2155872256	11	4318
2026-01-15 12:17:23.19	343.42	15.27	-26.0	-27.3	16.3	0.00e+00	0	44	0	2162163712	12	4174
2026-01-15 12:17:24.20	343.41	15.16	-26.1	-27.6	16.1	0.00e+00	0	44	0	2167406592	12	4265
2026-01-15 12:17:25.20	343.39	15.06	-25.8	-26.9	16.4	0.00e+00	0	44	0	2172649472	12	4089
2026-01-15 12:17:26.20	343.38	14.95	-26.0	-27.4	16.2	0.00e+00	0	44	0	2178940928	12	4220
2026-01-15 12:17:27.20	343.36	14.85	-26.2	-27.8	16.0	0.00e+00	0	44	0	2184183808	12	4319
2026-01-15 12:17:28.21	343.35	14.74	-25.9	-27.2	16.3	0.00e+00	0	44	0	2190475264	12	4158
2026-01-15 12:17:29.21	343.33	14.63	-26.1	-27.4	16.1	0.00e+00	0	44	0	2195718144	12	4222
2026-01-15 12:17:30.21	343.32	14.53	-26.0	-27.3	16.2	0.00e+00	0	44	0	2200961024	12	4187
2026-01-15 12:17:31.22	343.30	14.43	-25.9	-27.2	16.3	0.00e+00	0	44	0	2207252480	12	4157
2026-01-15 12:17:32.22	343.29	14.32	-25.9	-27.0	16.3	0.00e+00	0	44	0	2212495360	12	4122
2026-01-15 12:17:33.22	343.27	14.22	-26.0	-27.3	16.2	0.00e+00	0	44	0	2217738240	12	4185
2026-01-15 12:17:34.22	343.26	14.12	-26.0	-27.3	16.2	0.00e+00	0	44	0	2224029696	12	4198
2026-01-15 12:17:35.23	343.24	14.01	-26.1	-27.5	16.1	0.00e+00	0	44	0	2229272576	12	4242
2026-01-15 12:17:36.23	343.23	13.91	-25.9	-27.0	16.3	0.00e+00	0	44	0	2234515456	12	4117
2026-01-15 12:17:37.23	343.21	13.81	-25.9	-27.0	16.3	0.00e+00	0	44	0	2240806912	12	4120
2026-01-15 12:17:38.24	343.20	13.71	-26.0	-27.3	16.2	0.00e+00	0	44	0	2246049792	12	4192
2026-01-15 12:17:39.24	343.19	13.61	-25.9	-27.1	16.3	0.00e+00	0	44	0	2252341248	12	4142
2026-01-15 12:17:40.24	343.17	13.51	-26.0	-27.3	16.1	0.00e+00	0	44	0	2257584128	12	4199
2026-01-15 12:17:41.24	343.16	13.41	-26.0	-27.3	16.1	0.00e+00	0	44	0	2263875584	12	4193
2026-01-15 12:17:42.25	343.15	13.31	-26.0	-27.4	16.1	0.00e+00	0	44	0	2269118464	12	4212
2026-01-15 12:17:43.25	343.13	13.21	-25.9	-27.2	16.2	0.00e+00	0	44	0	2274361344	12	4154
2026-01-15 12:17:44.25	343.12	13.11	-25.9	-27.1	16.2	0.00e+00	0	43	0	2280652800	12	4137
2026-01-15 12:17:45.25	343.11	13.01	-25.9	-27.1	16.2	0.00e+00	0	44	0	2285895680	12	4142
2026-01-15 12:17:46.25	343.09	12.92	-25.9	-27.1	16.2	0.00e+00	0	44	0	2291138560	12	4140
2026-01-15 12:17:47.26	343.08	12.82	-25.9	-27.2	16.2	0.00e+00	0	44	0	2297430016	12	4163
2026-01-15 12:17:48.26	343.07	12.72	-26.0	-27.4	16.1	0.00e+00	0	43	0	2302672896	12	4205
2026-01-15 12:17:49.26	343.05	12.63	-26.0	-27.4	16.1	0.00e+00	0	44	0	2307915776	12	4211
2026-01-15 12:17:50.26	343.04	12.53	-26.1	-27.6	15.9	0.00e+00	0	44	0	2314207232	12	4268
2026-01-15 12:17:51.26	343.03	12.43	-26.0	-27.3	16.1	0.00e+00	0	44	0	2319450112	12	4192
2026-01-15 12:17:52.26	343.02	12.34	-26.0	-27.4	16.1	0.00e+00	0	44	0	2325741568	12	4209
2026-01-15 12:17:53.26	343.01	12.24	-26.1	-27.5	15.9	1.10e-06	0	44	0	2330984448	12	4244
2026-01-15 12:17:54.26	342.99	12.15	-26.0	-27.4	16.0	0.00e+00	0	44	0	2336227328	12	4229
2026-01-15 12:17:55.26	342.98	12.05	-26.1	-27.5	15.9	0.00e+00	0	44	0	2342518784	12	4258
2026-01-15 12:17:56.26	342.97	11.96	-26.1	-27.6	15.9	0.00e+00	0	44	0	2347761664	12	4285
2026-01-15 12:17:57.27	342.96	11.87	-26.2	-27.7	15.8	0.00e+00	0	44	0	2353004544	12	4301
2026-01-15 12:17:58.27	342.95	11.77	-26.1	-27.6	15.9	0.00e+00	0	44	0	2359296000	12	4277
2026-01-15 12:17:59.28	342.93	11.68	-26.2	-27.7	15.8	0.00e+00	0	44	0	2364538880	12	4300
2026-01-15 12:18:00.28	342.92	11.59	-26.1	-27.7	15.9	0.00e+00	0	43	0	2369781760	12	4287
2026-01-15 12:18:01.27	342.91	11.50	-26.2	-27.8	15.8	0.00e+00	0	44	0	2376073216	12	4330
2026-01-15 12:18:02.26	342.90	11.41	-26.2	-27.9	15.7	0.00e+00	0	44	0	2381316096	12	4349
2026-01-15 12:18:03.26	342.89	11.31	-26.2	-27.8	15.8	0.00e+00	0	44	0	2387607552	12	4325
2026-01-15 12:18:04.27	342.88	11.22	-26.2	-27.9	15.7	0.00e+00	0	44	0	2392850432	12	4362
2026-01-15 12:18:05.28	342.87	11.13	-26.2	-27.8	15.7	0.00e+00	0	44	0	2398093312	12	4330
2026-01-15 12:18:06.28	342.86	11.04	-26.3	-28.0	15.6	0.00e+00	0	44	0	2404384768	12	4393
2026-01-15 12:18:07.28	342.85	10.95	-26.3	-27.9	15.7	0.00e+00	0	44	0	2409627648	12	4361
2026-01-15 12:18:08.28	342.83	10.86	-26.3	-28.0	15.6	0.00e+00	0	44	0	2414870528	12	4396
2026-01-15 12:18:09.29	342.82	10.77	-26.3	-28.1	15.5	0.00e+00	0	44	0	2421161984	12	4429
2026-01-15 12:18:10.29	342.81	10.68	-26.3	-28.1	15.5	0.00e+00	0	43	0	2426404864	12	4414
2026-01-15 12:18:11.30	342.80	10.59	-26.3	-28.0	15.6	0.00e+00	0	44	0	2432696320	12	4392
2026-01-15 12:18:12.30	342.79	10.50	-26.4	-28.2	15.5	0.00e+00	0	44	0	2437939200	12	4428
2026-01-15 12:18:13.30	342.78	10.41	-26.4	-27.9	15.4	0.00e+00	0	44	0	2443182080	13	4233
2026-01-15 12:18:14.29	342.77	10.33	-26.4	-27.8	15.4	0.00e+00	0	44	0	2449473536	13	4211
2026-01-15 12:18:15.29	342.76	10.24	-26.5	-27.9	15.3	0.00e+00	0	44	0	2454716416	13	4255
2026-01-15 12:18:16.29	342.75	10.15	-26.5	-28.0	15.3	0.00e+00	0	44	0	2459959296	13	4260
2026-01-15 12:18:17.29	342.74	10.07	-26.5	-28.0	15.3	0.00e+00	0	44	0	2466250752	13	4282
2026-01-15 12:18:18.29	342.73	9.98	-26.6	-28.2	15.2	0.00e+00	0	44	0	2471493632	13	4338
2026-01-15 12:18:19.28	342.72	9.89	-26.6	-28.3	15.1	0.00e+00	0	44	0	2476736512	13	4348
2026-01-15 12:18:20.29	342.71	9.81	-26.8	-28.6	14.9	0.00e+00	0	44	0	2483027968	13	4442
2026-01-15 12:18:21.29	342.70	9.72	-26.9	-28.8	14.8	0.00e+00	0	44	0	2488270848	13	4509
2026-01-15 12:18:22.29	342.69	9.64	-26.9	-28.8	14.8	0.00e+00	0	44	0	2494562304	13	4513
2026-01-15 12:18:23.29	342.68	9.55	-27.0	-29.1	14.6	1.10e-06	0	44	0	2499805184	13	4578
2026-01-15 12:18:24.30	342.68	9.47	-27.1	-28.9	14.4	0.00e+00	0	44	0	2505048064	14	4415
2026-01-15 12:18:25.31	342.67	9.38	-26.9	-28.3	14.8	0.00e+00	0	44	0	2511339520	14	4242
2026-01-15 12:18:26.31	342.66	9.30	-26.9	-28.5	14.7	0.00e+00	0	43	0	2516582400	14	4297
2026-01-15 12:18:27.32	342.65	9.21	-26.9	-28.5	14.7	1.10e-06	0	44	0	2522873856	14	4295
2026-01-15 12:18:28.32	342.64	9.13	-26.9	-28.3	14.8	1.10e-06	0	44	0	2528116736	14	4246
2026-01-15 12:18:29.32	342.63	9.04	-26.8	-28.1	14.9	0.00e+00	0	44	0	2533359616	14	4194
2026-01-15 12:18:30.32	342.62	8.96	-26.8	-28.2	14.8	0.00e+00	0	44	0	2539651072	14	4228
2026-01-15 12:18:31.33	342.61	8.88	-26.9	-28.3	14.8	0.00e+00	0	44	0	2544893952	14	4243
2026-01-15 12:18:32.33	342.60	8.80	-26.8	-28.2	14.8	0.00e+00	0	44	0	2550136832	14	4219
2026-01-15 12:18:33.33	342.59	8.71	-26.9	-28.4	14.7	0.00e+00	0	44	0	2556428288	14	4280
2026-01-15 12:18:34.34	342.59	8.63	-26.9	-28.3	14.7	0.00e+00	0	43	0	2561671168	14	4257
2026-01-15 12:18:35.35	342.58	8.55	-26.9	-28.3	14.7	1.10e-06	0	44	0	2567962624	14	4263
2026-01-15 12:18:36.35	342.57	8.47	-26.9	-28.4	14.6	0.00e+00	0	44	0	2573205504	14	4292
2026-01-15 12:18:37.35	342.56	8.38	-26.9	-28.4	14.6	1.10e-06	0	44	0	2578448384	14	4283
2026-01-15 12:18:38.35	342.55	8.30	-26.9	-28.5	14.6	3.40e-06	0	44	0	2584739840	14	4303
2026-01-15 12:18:39.36	342.54	8.22	-27.0	-28.6	14.5	0.00e+00	0	44	0	2589982720	14	4333
2026-01-15 12:18:40.36	342.54	8.14	-26.9	-28.5	14.5	1.10e-06	0	43	0	2596274176	14	4326
2026-01-15 12:18:41.35	342.53	8.06	-27.0	-28.8	14.4	0.00e+00	0	44	0	2601517056	14	4386
2026-01-15 12:18:42.35	342.52	7.98	-27.2	-29.0	14.2	3.40e-06	0	44	0	2606759936	14	4458
2026-01-15 12:18:43.35	342.51	7.90	-27.1	-28.8	14.3	3.40e-06	0	44	0	2613051392	14	4404
2026-01-15 12:18:44.35	342.50	7.82	-27.0	-28.6	14.5	4.50e-06	0	43	0	2618294272	14	4340
2026-01-15 12:18:45.36	342.50	7.74	-27.2	-29.0	14.2	1.10e-06	0	44	0	2623537152	14	4452
2026-01-15 12:18:46.36	342.49	7.66	-27.4	-29.5	13.9	3.40e-06	0	44	0	2629828608	14	4592
2026-01-15 12:18:47.36	342.48	7.59	-27.3	-29.4	14.0	5.70e-06	0	44	0	2635071488	14	4558
2026-01-15 12:18:48.36	342.47	7.51	-27.4	-29.5	13.9	3.40e-06	0	44	0	2640314368	14	4610
2026-01-15 12:18:49.36	342.47	7.43	-27.4	-29.6	13.8	6.80e-06	0	44	0	2646605824	14	4634
2026-01-15 12:18:50.36	342.46	7.35	-27.3	-28.8	14.0	5.70e-06	0	44	0	2651848704	15	4295
2026-01-15 12:18:51.36	342.45	7.27	-27.5	-29.2	13.7	8.00e-06	0	44	0	2658140160	15	4416
2026-01-15 12:18:52.36	342.44	7.20	-27.4	-29.0	13.9	1.37e-05	0	44	0	2663383040	15	4355
2026-01-15 12:18:53.35	342.44	7.12	-32.0	-38.1	6.3	1.51e-03	0	44	0	2668625920	23	7311
2026-01-15 12:18:54.35	342.43	7.04	-33.5	-45.0	3.8	8.47e-01	0	44	104	2668625920	26	13563

#Closed at: 2026-01-15 12:18:55
#Recorded file [2668 MB]: D:/data/31010_260115_151058.dat