passes_logs/2026/01/15/R2M6_AANII_01/R2M6_AANII_01__20260115_122103_NOAA_21_JPSS-2_rec.log

#Pass ID: 20260115_122103_NOAA 21 (JPSS-2)
#Satellite: NOAA 21 (JPSS-2)
#Configuration: NOAA 21
#almurnet v.1.7.20240730
#Start time: 2026-01-15 12:23:06

#Version: 2.2.20231116
#Station: R2M6_AANII_01
#Location: 30.233357 lon 59.946436 lat
#TLE: 1 54234U 22150A   26014.16688770  .00000052  00000+0  45394-4 0  9999
#TLE: 2 54234  98.7497 315.0767 0000655 297.6997  62.4113 14.19534648164696

#Time	Az	El	Level	Level2	SNR	BER	BlckErr	Temp	State	Recorded	gain1	gain2
2026-01-15 12:23:06.72	246.79	13.43	-33.8	-43.5	3.8	8.46e-01	0	44	0	0	27	10964
2026-01-15 12:23:07.72	246.97	13.48	-34.4	-45.7	3.8	1.49e+00	0	44	104	0	30	13130
2026-01-15 12:23:08.73	247.15	13.52	-34.5	-45.8	3.8	1.49e+00	0	44	104	0	30	13191
2026-01-15 12:23:09.73	247.33	13.57	-34.5	-45.9	3.8	1.49e+00	0	44	104	0	30	13295
2026-01-15 12:23:10.73	247.51	13.62	-34.5	-45.9	3.8	1.49e+00	0	44	104	0	30	13344
2026-01-15 12:23:11.74	247.69	13.66	-34.6	-45.9	3.8	1.49e+00	0	44	104	0	30	13303
2026-01-15 12:23:12.74	247.87	13.71	-34.5	-45.9	3.8	1.49e+00	0	44	104	0	30	13342
2026-01-15 12:23:13.74	248.05	13.76	-34.5	-45.9	3.8	1.49e+00	0	44	104	0	30	13320
2026-01-15 12:23:14.74	248.23	13.80	-34.5	-45.8	3.8	1.49e+00	0	44	104	0	30	13293
2026-01-15 12:23:15.75	248.42	13.85	-34.5	-45.8	3.8	1.49e+00	0	44	104	0	30	13288
2026-01-15 12:23:16.74	248.60	13.89	-34.5	-45.8	3.8	1.49e+00	0	44	104	0	30	13275
2026-01-15 12:23:17.74	248.78	13.94	-34.5	-45.8	3.8	1.49e+00	0	44	104	0	30	13254
2026-01-15 12:23:18.74	248.97	13.98	-34.5	-45.8	3.8	1.49e+00	0	44	104	0	30	13282
2026-01-15 12:23:19.74	249.15	14.03	-34.4	-45.8	3.8	1.49e+00	0	44	104	0	30	13237
2026-01-15 12:23:20.74	249.34	14.07	-34.5	-45.7	3.8	1.49e+00	0	44	104	0	30	13196
2026-01-15 12:23:21.74	249.53	14.12	-34.4	-45.7	3.8	1.49e+00	0	44	104	0	30	13156
2026-01-15 12:23:22.73	249.71	14.16	-34.4	-45.7	3.8	1.49e+00	0	44	104	0	30	13213
2026-01-15 12:23:23.73	249.90	14.20	-34.5	-45.8	3.8	1.49e+00	0	44	104	0	30	13214
2026-01-15 12:23:24.73	250.09	14.25	-34.5	-45.8	3.8	1.49e+00	0	44	104	0	30	13202
2026-01-15 12:23:25.73	250.27	14.29	-34.4	-45.7	3.8	1.49e+00	0	44	104	0	30	13158
2026-01-15 12:23:26.73	250.46	14.33	-34.4	-45.7	3.8	1.49e+00	0	44	104	0	30	13194
2026-01-15 12:23:27.74	250.65	14.38	-34.4	-45.6	3.8	1.49e+00	0	44	104	0	30	13088
2026-01-15 12:23:28.74	250.84	14.42	-34.4	-45.6	3.8	1.49e+00	0	44	104	0	30	13084
2026-01-15 12:23:29.74	251.03	14.46	-34.4	-45.6	3.8	1.49e+00	0	44	104	0	30	13103
2026-01-15 12:23:30.75	251.23	14.51	-34.4	-45.5	3.8	1.49e+00	0	44	104	0	30	13022
2026-01-15 12:23:31.74	251.42	14.55	-34.3	-45.5	3.8	1.49e+00	0	44	104	0	30	12975
2026-01-15 12:23:32.75	251.61	14.59	-34.3	-45.4	3.8	1.49e+00	0	44	104	0	30	12948
2026-01-15 12:23:33.74	251.80	14.63	-34.2	-45.7	3.8	1.49e+00	0	44	104	0	29	13574
2026-01-15 12:23:34.74	251.99	14.67	-34.2	-45.7	3.8	1.49e+00	0	44	104	0	29	13581
2026-01-15 12:23:35.74	252.19	14.72	-34.2	-45.7	3.8	1.49e+00	0	44	104	0	29	13527
2026-01-15 12:23:36.75	252.38	14.76	-34.1	-45.6	3.8	1.49e+00	0	44	104	0	29	13493
2026-01-15 12:23:37.75	252.58	14.80	-34.1	-45.5	3.8	1.49e+00	0	44	104	0	29	13371
2026-01-15 12:23:38.75	252.77	14.84	-33.9	-44.9	3.8	1.49e+00	0	44	104	0	29	12796
2026-01-15 12:23:39.76	252.97	14.88	-33.8	-45.1	3.8	1.49e+00	0	44	104	0	28	13270
2026-01-15 12:23:40.76	253.17	14.92	-33.6	-44.4	3.8	1.49e+00	0	44	104	0	28	12572
2026-01-15 12:23:41.76	253.36	14.96	-33.6	-44.4	3.8	1.49e+00	0	44	104	0	28	12554
2026-01-15 12:23:42.76	253.56	15.00	-33.6	-44.4	3.8	1.49e+00	0	44	104	0	28	12565
2026-01-15 12:23:43.77	253.76	15.04	-33.6	-44.5	3.8	1.49e+00	0	44	104	0	28	12625
2026-01-15 12:23:44.77	253.96	15.08	-33.6	-44.5	3.8	1.49e+00	0	44	104	0	28	12685
2026-01-15 12:23:45.77	254.16	15.12	-33.6	-44.6	3.8	1.49e+00	0	44	104	0	28	12735
2026-01-15 12:23:46.77	254.36	15.16	-33.6	-44.6	3.8	1.49e+00	0	44	104	0	28	12730
2026-01-15 12:23:47.77	254.56	15.19	-33.6	-44.5	3.8	1.49e+00	0	44	104	0	28	12696
2026-01-15 12:23:48.77	254.76	15.23	-33.6	-44.5	3.8	1.49e+00	0	44	104	0	28	12643
2026-01-15 12:23:49.77	254.96	15.27	-33.6	-44.5	3.8	1.49e+00	0	44	104	0	28	12636
2026-01-15 12:23:50.77	255.16	15.31	-33.6	-44.7	3.8	1.49e+00	0	44	104	0	28	12882
2026-01-15 12:23:51.78	255.36	15.35	-33.6	-45.1	3.8	1.49e+00	0	44	104	0	28	13436
2026-01-15 12:23:52.78	255.56	15.38	-33.6	-44.7	3.8	1.49e+00	0	44	104	0	28	12970
2026-01-15 12:23:53.78	255.77	15.42	-33.3	-42.4	3.8	1.49e+00	0	44	104	0	28	10178
2026-01-15 12:23:54.79	255.97	15.46	-32.8	-39.6	4.2	1.46e+00	0	44	104	0	26	7902
2026-01-15 12:23:55.79	256.17	15.49	-31.7	-35.8	8.0	9.57e-02	0	44	104	0	24	5734
2026-01-15 12:23:56.79	256.38	15.53	-30.7	-33.6	10.3	6.95e-03	0	44	0	2097152	22	5028
2026-01-15 12:23:57.78	256.58	15.56	-29.8	-31.6	12.0	8.13e-04	0	44	0	5242880	21	4439
2026-01-15 12:23:58.78	256.79	15.60	-29.3	-31.3	12.9	7.62e-05	0	44	0	8388608	19	4535
2026-01-15 12:23:59.79	256.99	15.63	-29.1	-30.9	13.1	3.12e-05	0	44	0	11534336	19	4433
2026-01-15 12:24:00.79	257.20	15.67	-29.4	-31.7	12.6	6.40e-05	0	44	0	14680064	19	4683
2026-01-15 12:24:01.80	257.41	15.70	-29.7	-32.4	12.2	2.15e-04	0	44	0	17825792	19	4906
2026-01-15 12:24:02.80	257.62	15.74	-29.5	-31.8	12.6	1.72e-04	0	44	0	20971520	19	4706
2026-01-15 12:24:03.81	257.82	15.77	-29.5	-31.9	12.5	9.07e-05	0	44	0	24117248	19	4752
2026-01-15 12:24:04.81	258.03	15.81	-29.4	-31.5	12.8	8.23e-05	0	44	0	27262976	19	4620
2026-01-15 12:24:05.81	258.24	15.84	-29.1	-30.8	13.2	2.51e-05	0	44	0	30408704	19	4397
2026-01-15 12:24:06.81	258.45	15.87	-29.0	-30.6	13.3	2.44e-05	0	44	0	33554432	19	4335
2026-01-15 12:24:07.81	258.66	15.90	-28.9	-30.5	13.5	1.22e-05	0	44	0	36700160	19	4291
2026-01-15 12:24:08.81	258.87	15.94	-29.0	-30.6	13.4	1.22e-05	0	44	0	39845888	19	4343
2026-01-15 12:24:09.81	259.08	15.97	-29.1	-30.7	13.3	2.89e-05	0	44	0	42991616	19	4374
2026-01-15 12:24:10.81	259.29	16.00	-28.8	-30.5	13.7	1.22e-05	0	44	0	46137344	18	4415
2026-01-15 12:24:11.81	259.50	16.03	-28.4	-29.6	14.2	2.20e-06	0	44	0	49283072	18	4155
2026-01-15 12:24:12.81	259.71	16.06	-28.1	-29.5	14.6	1.29e-05	0	44	0	52428800	17	4216
2026-01-15 12:24:13.81	259.92	16.09	-27.9	-29.0	14.9	0.00e+00	0	44	0	55574528	17	4079
2026-01-15 12:24:14.81	260.13	16.12	-27.8	-29.2	15.0	0.00e+00	0	44	0	58720256	16	4253
2026-01-15 12:24:15.82	260.35	16.15	-27.7	-29.1	15.1	9.90e-06	0	44	0	61865984	16	4223
2026-01-15 12:24:16.82	260.56	16.18	-27.9	-29.4	14.9	0.00e+00	0	44	0	65011712	16	4307
2026-01-15 12:24:17.83	260.78	16.21	-27.8	-29.2	15.1	0.00e+00	0	44	0	68157440	16	4251
2026-01-15 12:24:18.83	260.99	16.24	-27.8	-29.3	15.0	0.00e+00	0	44	0	71303168	16	4273
2026-01-15 12:24:19.83	261.20	16.27	-27.9	-29.6	14.8	7.00e-07	0	44	0	74448896	16	4350
2026-01-15 12:24:20.84	261.42	16.30	-27.8	-29.2	15.1	0.00e+00	0	44	0	77594624	16	4254
2026-01-15 12:24:21.83	261.63	16.33	-27.6	-28.9	15.2	0.00e+00	0	44	0	80740352	16	4151
2026-01-15 12:24:22.83	261.85	16.35	-27.6	-28.8	15.3	0.00e+00	0	44	0	83886080	16	4128
2026-01-15 12:24:23.83	262.07	16.38	-27.7	-29.0	15.2	0.00e+00	0	44	0	87031808	16	4184
2026-01-15 12:24:24.83	262.28	16.41	-27.6	-28.8	15.3	0.00e+00	0	44	0	90177536	16	4139
2026-01-15 12:24:25.83	262.50	16.43	-27.6	-28.7	15.3	0.00e+00	0	44	0	93323264	16	4118
2026-01-15 12:24:26.84	262.72	16.46	-27.6	-28.8	15.3	0.00e+00	0	44	0	96468992	16	4129
2026-01-15 12:24:27.83	262.93	16.49	-27.8	-29.3	15.0	0.00e+00	0	44	0	99614720	16	4277
2026-01-15 12:24:28.84	263.15	16.51	-27.6	-28.9	15.3	0.00e+00	0	44	0	102760448	16	4153
2026-01-15 12:24:29.85	263.37	16.54	-27.6	-28.9	15.3	0.00e+00	0	44	0	105906176	16	4162
2026-01-15 12:24:30.85	263.59	16.56	-27.7	-29.0	15.2	0.00e+00	0	44	0	109051904	16	4190
2026-01-15 12:24:31.86	263.81	16.59	-27.7	-29.1	15.2	0.00e+00	0	44	0	111149056	16	4219
2026-01-15 12:24:32.86	264.03	16.61	-27.6	-28.9	15.3	0.00e+00	0	44	0	114294784	16	4151
2026-01-15 12:24:33.86	264.25	16.63	-27.6	-28.7	15.4	0.00e+00	0	44	0	117440512	16	4111
2026-01-15 12:24:34.86	264.47	16.66	-27.6	-28.9	15.3	0.00e+00	0	44	0	120586240	16	4149
2026-01-15 12:24:35.86	264.69	16.68	-27.6	-28.9	15.3	0.00e+00	0	44	0	123731968	16	4145
2026-01-15 12:24:36.87	264.91	16.70	-27.8	-29.2	15.1	0.00e+00	0	44	0	126877696	16	4241
2026-01-15 12:24:37.87	265.13	16.72	-27.8	-29.2	15.1	0.00e+00	0	44	0	130023424	16	4231
2026-01-15 12:24:38.88	265.35	16.75	-27.8	-29.4	15.0	0.00e+00	0	44	0	134217728	16	4284
2026-01-15 12:24:39.88	265.57	16.77	-27.7	-29.1	15.2	0.00e+00	0	44	0	136314880	16	4214
2026-01-15 12:24:40.88	265.80	16.79	-27.7	-29.0	15.2	0.00e+00	0	44	0	139460608	16	4186
2026-01-15 12:24:41.88	266.02	16.81	-27.8	-29.2	15.1	0.00e+00	0	44	0	142606336	16	4249
2026-01-15 12:24:42.87	266.24	16.83	-27.7	-29.0	15.3	0.00e+00	0	44	0	145752064	16	4172
2026-01-15 12:24:43.88	266.46	16.85	-27.7	-28.9	15.3	0.00e+00	0	44	0	148897792	16	4160
2026-01-15 12:24:44.88	266.68	16.87	-27.7	-29.0	15.2	0.00e+00	0	44	0	152043520	16	4197
2026-01-15 12:24:45.89	266.91	16.89	-27.7	-29.1	15.2	0.00e+00	0	44	0	155189248	16	4203
2026-01-15 12:24:46.89	267.13	16.90	-27.7	-29.1	15.1	0.00e+00	0	44	0	158334976	16	4211
2026-01-15 12:24:47.90	267.36	16.92	-27.7	-29.0	15.2	0.00e+00	0	44	0	161480704	16	4182
2026-01-15 12:24:48.89	267.58	16.94	-27.7	-29.1	15.2	0.00e+00	0	44	0	164626432	16	4206
2026-01-15 12:24:49.90	267.80	16.96	-27.7	-29.0	15.2	0.00e+00	0	44	0	167772160	16	4190
2026-01-15 12:24:50.90	268.03	16.97	-27.6	-28.9	15.3	0.00e+00	0	44	0	170917888	16	4151
2026-01-15 12:24:51.90	268.25	16.99	-27.7	-29.1	15.2	0.00e+00	0	44	0	174063616	16	4204
2026-01-15 12:24:52.90	268.48	17.01	-27.6	-28.9	15.3	0.00e+00	0	44	0	177209344	16	4143
2026-01-15 12:24:53.91	268.70	17.02	-27.7	-29.1	15.2	0.00e+00	0	44	0	180355072	16	4213
2026-01-15 12:24:54.91	268.93	17.04	-27.8	-29.3	15.1	0.00e+00	0	44	0	183500800	16	4271
2026-01-15 12:24:55.92	269.16	17.05	-27.9	-29.6	14.9	0.00e+00	0	44	0	186646528	16	4358
2026-01-15 12:24:56.92	269.38	17.07	-27.9	-29.6	14.9	0.00e+00	0	44	0	189792256	16	4344
2026-01-15 12:24:57.92	269.61	17.08	-28.1	-29.9	14.7	0.00e+00	0	44	0	192937984	16	4443
2026-01-15 12:24:58.92	269.83	17.09	-28.0	-29.7	14.8	7.00e-07	0	44	0	196083712	16	4394
2026-01-15 12:24:59.92	270.06	17.11	-27.9	-29.5	14.9	0.00e+00	0	44	0	199229440	16	4336
2026-01-15 12:25:00.93	270.29	17.12	-27.9	-29.4	15.0	7.00e-07	0	44	0	202375168	16	4298
2026-01-15 12:25:01.93	270.51	17.13	-27.8	-29.3	15.1	0.00e+00	0	44	0	205520896	16	4261
2026-01-15 12:25:02.93	270.74	17.14	-27.8	-29.2	15.1	0.00e+00	0	44	0	208666624	16	4254
2026-01-15 12:25:03.93	270.97	17.16	-27.9	-29.5	14.9	7.00e-07	0	44	0	211812352	16	4329
2026-01-15 12:25:04.94	271.20	17.17	-27.9	-29.4	15.0	0.00e+00	0	44	0	214958080	16	4288
2026-01-15 12:25:05.95	271.43	17.18	-27.9	-29.4	15.0	0.00e+00	0	44	0	218103808	16	4295
2026-01-15 12:25:06.95	271.65	17.19	-27.8	-29.3	15.1	0.00e+00	0	44	0	221249536	16	4277
2026-01-15 12:25:07.95	271.88	17.20	-27.9	-29.5	15.0	0.00e+00	0	44	0	224395264	16	4317
2026-01-15 12:25:08.95	272.11	17.21	-27.7	-29.0	15.2	0.00e+00	0	44	0	227540992	16	4183
2026-01-15 12:25:09.95	272.34	17.22	-27.6	-28.7	15.4	0.00e+00	0	44	0	230686720	16	4102
2026-01-15 12:25:10.96	272.56	17.22	-27.7	-28.9	15.3	0.00e+00	0	44	0	233832448	16	4158
2026-01-15 12:25:11.95	272.79	17.23	-27.5	-28.6	15.5	0.00e+00	0	44	0	236978176	16	4082
2026-01-15 12:25:12.96	273.02	17.24	-27.8	-29.2	15.1	0.00e+00	0	44	0	240123904	16	4230
2026-01-15 12:25:13.95	273.25	17.25	-27.7	-29.0	15.3	0.00e+00	0	44	0	243269632	16	4190
2026-01-15 12:25:14.96	273.48	17.25	-27.7	-28.9	15.3	9.10e-06	0	44	0	246415360	16	4156
2026-01-15 12:25:15.96	273.70	17.26	-27.8	-29.2	15.1	0.00e+00	0	44	0	249561088	16	4234
2026-01-15 12:25:16.96	273.93	17.27	-27.7	-29.1	15.2	0.00e+00	0	44	0	252706816	16	4207
2026-01-15 12:25:17.97	274.16	17.27	-27.8	-29.2	15.1	0.00e+00	0	44	0	255852544	16	4253
2026-01-15 12:25:18.97	274.39	17.28	-27.8	-29.3	15.0	0.00e+00	0	44	0	258998272	16	4279
2026-01-15 12:25:19.97	274.62	17.28	-27.8	-29.2	15.1	0.00e+00	0	44	0	262144000	16	4250
2026-01-15 12:25:20.98	274.85	17.28	-27.8	-29.3	15.1	7.00e-07	0	44	0	265289728	16	4255
2026-01-15 12:25:21.98	275.08	17.29	-28.0	-29.6	14.9	0.00e+00	0	44	0	268435456	16	4363
2026-01-15 12:25:22.98	275.31	17.29	-27.8	-29.4	15.0	0.00e+00	0	44	0	271581184	16	4286
2026-01-15 12:25:23.98	275.54	17.29	-27.8	-29.3	15.1	1.50e-06	0	44	0	274726912	16	4253
2026-01-15 12:25:24.99	275.77	17.30	-27.8	-29.4	15.1	0.00e+00	0	44	0	277872640	16	4285
2026-01-15 12:25:25.99	276.00	17.30	-27.7	-29.1	15.2	0.00e+00	0	44	0	281018368	16	4202
2026-01-15 12:25:26.98	276.22	17.30	-27.8	-29.3	15.1	0.00e+00	0	44	0	284164096	16	4258
2026-01-15 12:25:27.98	276.45	17.30	-27.7	-29.0	15.2	0.00e+00	0	44	0	287309824	16	4196
2026-01-15 12:25:28.98	276.68	17.30	-27.6	-28.8	15.3	0.00e+00	0	44	0	290455552	16	4137
2026-01-15 12:25:29.99	276.91	17.30	-27.6	-28.8	15.3	2.20e-06	0	44	0	293601280	16	4132
2026-01-15 12:25:30.99	277.14	17.30	-27.6	-28.8	15.4	0.00e+00	0	44	0	296747008	16	4127
2026-01-15 12:25:31.99	277.37	17.30	-27.6	-28.8	15.3	0.00e+00	0	44	0	299892736	16	4140
2026-01-15 12:25:32.99	277.60	17.30	-27.7	-29.0	15.2	0.00e+00	0	44	0	303038464	16	4176
2026-01-15 12:25:33.99	277.83	17.30	-27.6	-28.7	15.4	0.00e+00	0	44	0	306184192	16	4104
2026-01-15 12:25:35.00	278.06	17.30	-27.7	-28.9	15.3	0.00e+00	0	44	0	309329920	16	4168
2026-01-15 12:25:36.00	278.29	17.29	-27.6	-28.8	15.3	0.00e+00	0	44	0	312475648	16	4141
2026-01-15 12:25:37.00	278.51	17.29	-27.7	-29.1	15.2	0.00e+00	0	44	0	315621376	16	4200
2026-01-15 12:25:38.00	278.74	17.29	-27.7	-29.1	15.2	0.00e+00	0	44	0	318767104	16	4215
2026-01-15 12:25:39.00	278.97	17.28	-27.8	-29.2	15.1	3.00e-06	0	44	0	321912832	16	4251
2026-01-15 12:25:40.00	279.20	17.28	-27.7	-29.0	15.2	0.00e+00	0	44	0	325058560	16	4189
2026-01-15 12:25:41.00	279.43	17.27	-27.7	-29.1	15.2	0.00e+00	0	44	0	328204288	16	4215
2026-01-15 12:25:42.00	279.66	17.27	-27.7	-29.1	15.2	0.00e+00	0	44	0	331350016	16	4215
2026-01-15 12:25:43.00	279.88	17.26	-27.8	-29.2	15.1	0.00e+00	0	44	0	334495744	16	4249
2026-01-15 12:25:44.00	280.11	17.26	-27.7	-29.1	15.2	0.00e+00	0	44	0	337641472	16	4204
2026-01-15 12:25:45.00	280.34	17.25	-27.8	-29.2	15.1	0.00e+00	0	44	0	339738624	16	4230
2026-01-15 12:25:46.00	280.57	17.24	-27.8	-29.3	15.1	0.00e+00	0	44	0	342884352	16	4259
2026-01-15 12:25:47.00	280.80	17.24	-27.8	-29.3	15.1	0.00e+00	0	44	0	346030080	16	4256
2026-01-15 12:25:48.00	281.02	17.23	-27.8	-29.3	15.1	0.00e+00	0	44	0	349175808	16	4266
2026-01-15 12:25:49.00	281.25	17.22	-27.9	-29.4	15.0	0.00e+00	0	44	0	352321536	16	4305
2026-01-15 12:25:50.00	281.48	17.21	-27.7	-29.0	15.2	0.00e+00	0	44	0	355467264	16	4194
2026-01-15 12:25:51.00	281.71	17.20	-27.7	-29.1	15.2	0.00e+00	0	44	0	358612992	16	4201
2026-01-15 12:25:52.00	281.93	17.19	-27.8	-29.4	15.1	0.00e+00	0	44	0	361758720	16	4284
2026-01-15 12:25:53.01	282.16	17.18	-27.8	-29.2	15.1	0.00e+00	0	44	0	364904448	16	4247
2026-01-15 12:25:54.00	282.39	17.17	-27.9	-29.5	14.9	0.00e+00	0	44	0	368050176	16	4339
2026-01-15 12:25:55.01	282.62	17.16	-27.8	-29.4	15.0	0.00e+00	0	44	0	371195904	16	4288
2026-01-15 12:25:56.01	282.84	17.15	-27.8	-29.2	15.1	0.00e+00	0	44	0	374341632	16	4235
2026-01-15 12:25:57.01	283.07	17.14	-27.8	-29.2	15.1	0.00e+00	0	44	0	377487360	16	4247
2026-01-15 12:25:58.00	283.29	17.13	-27.8	-29.2	15.2	0.00e+00	0	44	0	380633088	16	4231
2026-01-15 12:25:59.00	283.52	17.12	-27.7	-29.1	15.1	0.00e+00	0	44	0	383778816	16	4221
2026-01-15 12:26:00.01	283.75	17.10	-27.8	-29.3	15.1	7.00e-07	0	44	0	386924544	16	4256
2026-01-15 12:26:01.01	283.97	17.09	-27.9	-29.4	15.1	0.00e+00	0	44	0	390070272	16	4290
2026-01-15 12:26:02.01	284.20	17.08	-27.9	-29.5	14.9	0.00e+00	0	44	0	393216000	16	4323
2026-01-15 12:26:03.01	284.42	17.06	-28.0	-29.6	14.9	0.00e+00	0	44	0	396361728	16	4348
2026-01-15 12:26:04.01	284.65	17.05	-27.9	-29.5	14.9	0.00e+00	0	44	0	399507456	16	4325
2026-01-15 12:26:05.01	284.87	17.03	-27.9	-29.6	14.9	0.00e+00	0	44	0	402653184	16	4346
2026-01-15 12:26:06.01	285.10	17.02	-28.0	-29.6	14.9	0.00e+00	0	44	0	405798912	16	4356
2026-01-15 12:26:07.01	285.32	17.00	-27.8	-29.2	15.1	0.00e+00	0	44	0	408944640	16	4226
2026-01-15 12:26:08.02	285.55	16.99	-27.9	-29.4	15.0	0.00e+00	0	44	0	412090368	16	4306
2026-01-15 12:26:09.03	285.77	16.97	-28.2	-30.1	14.6	7.00e-07	0	44	0	415236096	16	4484
2026-01-15 12:26:10.03	286.00	16.95	-28.0	-29.8	14.8	0.00e+00	0	44	0	418381824	16	4402
2026-01-15 12:26:11.04	286.22	16.94	-28.0	-29.7	14.8	0.00e+00	0	44	0	421527552	16	4390
2026-01-15 12:26:12.04	286.45	16.92	-28.2	-30.2	14.5	0.00e+00	0	44	0	424673280	16	4539
2026-01-15 12:26:13.03	286.67	16.90	-28.1	-29.9	14.7	2.20e-06	0	44	0	427819008	16	4452
2026-01-15 12:26:14.03	286.89	16.88	-28.0	-29.7	14.8	0.00e+00	0	44	0	430964736	16	4394
2026-01-15 12:26:15.03	287.11	16.86	-27.9	-29.6	14.9	0.00e+00	0	44	0	434110464	16	4346
2026-01-15 12:26:16.04	287.33	16.84	-27.8	-29.3	15.0	0.00e+00	0	44	0	437256192	16	4274
2026-01-15 12:26:17.04	287.56	16.82	-27.8	-29.3	15.0	0.00e+00	0	44	0	440401920	16	4269
2026-01-15 12:26:18.04	287.78	16.80	-27.8	-29.2	15.1	0.00e+00	0	44	0	443547648	16	4234
2026-01-15 12:26:19.03	288.00	16.78	-27.8	-29.2	15.1	0.00e+00	0	44	0	446693376	16	4230
2026-01-15 12:26:20.04	288.22	16.76	-27.8	-29.2	15.1	0.00e+00	0	44	0	449839104	16	4239
2026-01-15 12:26:21.03	288.44	16.74	-27.6	-28.9	15.3	0.00e+00	0	44	0	452984832	16	4146
2026-01-15 12:26:22.03	288.66	16.72	-27.6	-28.9	15.3	0.00e+00	0	44	0	456130560	16	4150
2026-01-15 12:26:23.04	288.88	16.70	-27.7	-29.1	15.1	0.00e+00	0	44	0	459276288	16	4208
2026-01-15 12:26:24.05	289.10	16.67	-27.7	-28.9	15.3	0.00e+00	0	44	0	462422016	16	4158
2026-01-15 12:26:25.05	289.32	16.65	-27.7	-29.0	15.2	0.00e+00	0	44	0	465567744	16	4198
2026-01-15 12:26:26.05	289.54	16.63	-27.8	-29.3	15.0	0.00e+00	0	44	0	468713472	16	4274
2026-01-15 12:26:27.05	289.76	16.61	-27.9	-29.4	15.0	0.00e+00	0	44	0	471859200	16	4310
2026-01-15 12:26:28.06	289.98	16.58	-27.8	-29.4	15.0	0.00e+00	0	44	0	475004928	16	4289
2026-01-15 12:26:29.07	290.20	16.56	-27.9	-29.6	14.9	0.00e+00	0	44	0	478150656	16	4342
2026-01-15 12:26:30.07	290.42	16.53	-28.0	-29.8	14.7	0.00e+00	0	44	0	481296384	16	4418
2026-01-15 12:26:31.08	290.64	16.51	-27.9	-29.4	15.0	0.00e+00	0	44	0	484442112	16	4286
2026-01-15 12:26:32.09	290.85	16.48	-27.8	-29.2	15.1	0.00e+00	0	44	0	487587840	16	4247
2026-01-15 12:26:33.09	291.07	16.46	-27.7	-29.1	15.1	7.00e-07	0	44	0	490733568	16	4218
2026-01-15 12:26:34.09	291.29	16.43	-27.8	-29.2	15.1	0.00e+00	0	44	0	493879296	16	4230
2026-01-15 12:26:35.09	291.50	16.40	-27.8	-29.3	15.0	0.00e+00	0	44	0	497025024	16	4265
2026-01-15 12:26:36.09	291.72	16.38	-27.8	-29.2	15.1	0.00e+00	0	44	0	500170752	16	4239
2026-01-15 12:26:37.09	291.93	16.35	-27.8	-29.3	15.0	0.00e+00	0	44	0	503316480	16	4274
2026-01-15 12:26:38.10	292.15	16.32	-27.9	-29.4	15.0	0.00e+00	0	44	0	506462208	16	4300
2026-01-15 12:26:39.11	292.37	16.29	-27.9	-29.6	14.8	0.00e+00	0	44	0	509607936	16	4353
2026-01-15 12:26:40.10	292.58	16.27	-27.8	-29.3	15.0	0.00e+00	0	44	0	512753664	16	4278
2026-01-15 12:26:41.11	292.79	16.24	-27.8	-29.3	15.0	7.00e-07	0	44	0	515899392	16	4278
2026-01-15 12:26:42.10	293.00	16.21	-27.8	-29.2	15.1	0.00e+00	0	44	0	519045120	16	4236
2026-01-15 12:26:43.10	293.22	16.18	-27.8	-29.4	15.0	7.00e-07	0	44	0	522190848	16	4286
2026-01-15 12:26:44.10	293.43	16.15	-27.9	-29.4	15.0	0.00e+00	0	44	0	525336576	16	4294
2026-01-15 12:26:45.11	293.64	16.12	-27.8	-29.3	15.0	0.00e+00	0	44	0	528482304	16	4258
2026-01-15 12:26:46.11	293.85	16.09	-27.9	-29.5	14.9	0.00e+00	0	44	0	531628032	16	4320
2026-01-15 12:26:47.12	294.07	16.06	-27.7	-29.1	15.2	7.00e-07	0	44	0	534773760	16	4208
2026-01-15 12:26:48.12	294.28	16.03	-27.6	-28.8	15.3	0.00e+00	0	44	0	537919488	16	4143
2026-01-15 12:26:49.12	294.49	16.00	-27.7	-28.9	15.2	0.00e+00	0	44	0	541065216	16	4173
2026-01-15 12:26:50.12	294.70	15.96	-27.7	-28.9	15.3	7.00e-07	0	44	0	544210944	16	4165
2026-01-15 12:26:51.13	294.91	15.93	-27.7	-29.0	15.2	0.00e+00	0	44	0	547356672	16	4194
2026-01-15 12:26:52.12	295.11	15.90	-27.7	-29.0	15.2	0.00e+00	0	44	0	550502400	16	4179
2026-01-15 12:26:53.13	295.32	15.87	-27.6	-28.9	15.2	1.50e-06	0	44	0	553648128	16	4162
2026-01-15 12:26:54.12	295.53	15.84	-27.6	-28.8	15.3	0.00e+00	0	44	0	556793856	16	4140
2026-01-15 12:26:55.13	295.74	15.80	-27.6	-28.8	15.3	0.00e+00	0	44	0	559939584	16	4119
2026-01-15 12:26:56.12	295.94	15.77	-27.7	-28.9	15.2	0.00e+00	0	44	0	562036736	16	4171
2026-01-15 12:26:57.12	296.15	15.74	-27.5	-28.6	15.4	0.00e+00	0	44	0	565182464	16	4086
2026-01-15 12:26:58.11	296.35	15.70	-27.5	-28.7	15.4	0.00e+00	0	44	0	568328192	16	4096
2026-01-15 12:26:59.10	296.56	15.67	-27.5	-28.6	15.4	0.00e+00	0	44	0	571473920	16	4092
2026-01-15 12:27:00.10	296.76	15.63	-27.7	-28.9	15.2	0.00e+00	0	44	0	574619648	16	4168
2026-01-15 12:27:01.10	296.97	15.60	-27.6	-28.8	15.3	0.00e+00	0	44	0	577765376	16	4123
2026-01-15 12:27:02.10	297.17	15.56	-27.7	-28.9	15.2	5.30e-06	0	44	0	580911104	16	4160
2026-01-15 12:27:03.10	297.38	15.53	-27.6	-28.8	15.3	0.00e+00	0	44	0	584056832	16	4143
2026-01-15 12:27:04.10	297.58	15.49	-27.7	-29.1	15.1	0.00e+00	0	44	0	587202560	16	4224
2026-01-15 12:27:05.11	297.78	15.46	-27.7	-29.1	15.2	0.00e+00	0	44	0	590348288	16	4202
2026-01-15 12:27:06.11	297.99	15.42	-27.7	-29.1	15.1	0.00e+00	0	44	0	593494016	16	4212
2026-01-15 12:27:07.12	298.19	15.38	-27.9	-29.4	14.9	0.00e+00	0	44	0	596639744	16	4293
2026-01-15 12:27:08.12	298.39	15.35	-28.0	-29.7	14.8	2.20e-06	0	44	0	599785472	16	4389
2026-01-15 12:27:09.12	298.59	15.31	-27.8	-29.3	15.0	0.00e+00	0	44	0	602931200	16	4265
2026-01-15 12:27:10.12	298.79	15.27	-27.8	-29.3	15.0	0.00e+00	0	44	0	606076928	16	4268
2026-01-15 12:27:11.13	298.99	15.23	-27.9	-29.4	14.9	0.00e+00	0	44	0	609222656	16	4293
2026-01-15 12:27:12.13	299.19	15.19	-27.8	-29.2	15.1	0.00e+00	0	44	0	612368384	16	4239
2026-01-15 12:27:13.13	299.39	15.16	-27.8	-29.2	15.0	0.00e+00	0	44	0	615514112	16	4234
2026-01-15 12:27:14.14	299.59	15.12	-27.9	-29.5	14.9	0.00e+00	0	44	0	618659840	16	4336
2026-01-15 12:27:15.14	299.79	15.08	-27.9	-29.4	14.9	0.00e+00	0	44	0	621805568	16	4312
2026-01-15 12:27:16.15	299.99	15.04	-28.0	-29.8	14.7	0.00e+00	0	44	0	624951296	16	4420
2026-01-15 12:27:17.15	300.18	15.00	-27.9	-29.4	14.9	0.00e+00	0	44	0	628097024	16	4288
2026-01-15 12:27:18.16	300.38	14.96	-27.8	-29.2	15.0	0.00e+00	0	44	0	631242752	16	4252
2026-01-15 12:27:19.16	300.58	14.92	-27.8	-29.2	15.1	0.00e+00	0	44	0	634388480	16	4231
2026-01-15 12:27:20.16	300.77	14.88	-27.8	-29.3	15.0	0.00e+00	0	44	0	637534208	16	4258
2026-01-15 12:27:21.16	300.97	14.84	-27.8	-29.3	15.0	0.00e+00	0	44	0	640679936	16	4264
2026-01-15 12:27:22.16	301.16	14.80	-27.9	-29.5	14.9	0.00e+00	0	44	0	643825664	16	4334
2026-01-15 12:27:23.15	301.35	14.76	-27.7	-29.2	15.1	0.00e+00	0	44	0	646971392	16	4235
2026-01-15 12:27:24.16	301.55	14.72	-27.7	-28.9	15.2	0.00e+00	0	44	0	650117120	16	4164
2026-01-15 12:27:25.16	301.74	14.68	-27.7	-29.0	15.2	0.00e+00	0	44	0	653262848	16	4182
2026-01-15 12:27:26.16	301.93	14.64	-27.6	-28.9	15.2	0.00e+00	0	44	0	656408576	16	4152
2026-01-15 12:27:27.15	302.12	14.60	-27.7	-29.1	15.1	0.00e+00	0	44	0	659554304	16	4224
2026-01-15 12:27:28.15	302.31	14.55	-27.7	-29.0	15.1	0.00e+00	0	44	0	662700032	16	4188
2026-01-15 12:27:29.15	302.51	14.51	-27.8	-29.3	15.0	0.00e+00	0	44	0	665845760	16	4257
2026-01-15 12:27:30.15	302.70	14.47	-27.8	-29.2	15.0	0.00e+00	0	44	0	668991488	16	4256
2026-01-15 12:27:31.15	302.88	14.43	-27.9	-29.4	14.9	0.00e+00	0	44	0	672137216	16	4312
2026-01-15 12:27:32.15	303.07	14.38	-27.8	-29.4	14.9	1.50e-06	0	44	0	675282944	16	4294
2026-01-15 12:27:33.15	303.26	14.34	-28.0	-29.6	14.8	0.00e+00	0	44	0	678428672	16	4361
2026-01-15 12:27:34.16	303.45	14.30	-27.9	-29.6	14.8	1.50e-06	0	44	0	681574400	16	4353
2026-01-15 12:27:35.16	303.64	14.25	-28.0	-29.7	14.8	0.00e+00	0	44	0	684720128	16	4370
2026-01-15 12:27:36.16	303.83	14.21	-27.9	-29.5	14.9	0.00e+00	0	44	0	687865856	16	4329
2026-01-15 12:27:37.16	304.01	14.17	-27.9	-29.6	14.8	0.00e+00	0	44	0	691011584	16	4364
2026-01-15 12:27:38.16	304.20	14.12	-28.0	-29.7	14.7	0.00e+00	0	44	0	694157312	16	4385
2026-01-15 12:27:39.16	304.38	14.08	-27.8	-29.3	15.0	0.00e+00	0	44	0	697303040	16	4262
2026-01-15 12:27:40.16	304.57	14.04	-27.8	-29.2	15.1	0.00e+00	0	44	0	700448768	16	4234
2026-01-15 12:27:41.16	304.75	13.99	-27.8	-29.2	15.0	7.00e-07	0	44	0	703594496	16	4255
2026-01-15 12:27:42.16	304.94	13.95	-27.8	-29.2	15.0	0.00e+00	0	44	0	706740224	16	4253
2026-01-15 12:27:43.16	305.12	13.90	-27.8	-29.3	14.9	0.00e+00	0	44	0	709885952	16	4272
2026-01-15 12:27:44.17	305.30	13.86	-27.9	-29.5	14.8	0.00e+00	0	44	0	713031680	16	4323
2026-01-15 12:27:45.17	305.48	13.81	-28.0	-29.7	14.7	0.00e+00	0	44	0	716177408	16	4393
2026-01-15 12:27:46.17	305.67	13.77	-28.1	-29.9	14.6	0.00e+00	0	44	0	719323136	16	4442
2026-01-15 12:27:47.18	305.85	13.72	-28.2	-30.1	14.5	7.00e-07	0	44	0	722468864	16	4509
2026-01-15 12:27:48.18	306.03	13.67	-28.2	-30.3	14.4	0.00e+00	0	44	0	725614592	16	4562
2026-01-15 12:27:49.17	306.21	13.63	-28.3	-30.5	14.3	2.20e-06	0	44	0	728760320	16	4614
2026-01-15 12:27:50.18	306.39	13.58	-28.2	-30.3	14.4	7.00e-07	0	44	0	731906048	16	4558
2026-01-15 12:27:51.18	306.57	13.54	-28.3	-30.4	14.3	0.00e+00	0	44	0	735051776	16	4608
2026-01-15 12:27:52.19	306.75	13.49	-28.4	-30.6	14.1	2.20e-06	0	44	0	738197504	16	4672
2026-01-15 12:27:53.19	306.92	13.44	-28.2	-30.2	14.4	0.00e+00	0	44	0	741343232	16	4523
2026-01-15 12:27:54.19	307.10	13.40	-28.1	-29.9	14.5	7.00e-07	0	44	0	744488960	16	4460
2026-01-15 12:27:55.19	307.28	13.35	-28.1	-29.9	14.6	7.00e-07	0	44	0	747634688	16	4436
2026-01-15 12:27:56.19	307.45	13.30	-28.1	-30.0	14.5	0.00e+00	0	44	0	749731840	16	4486
2026-01-15 12:27:57.18	307.63	13.25	-28.0	-29.8	14.6	7.00e-07	0	44	0	752877568	16	4420
2026-01-15 12:27:58.18	307.80	13.21	-28.1	-29.9	14.6	1.50e-06	0	44	0	756023296	16	4451
2026-01-15 12:27:59.18	307.98	13.16	-28.1	-30.0	14.6	7.00e-07	0	44	0	759169024	16	4467
2026-01-15 12:28:00.18	308.15	13.11	-28.1	-30.0	14.5	0.00e+00	0	44	0	762314752	16	4481
2026-01-15 12:28:01.18	308.32	13.06	-28.2	-30.2	14.4	1.50e-06	0	44	0	765460480	16	4550
2026-01-15 12:28:02.18	308.50	13.02	-28.3	-30.5	14.3	3.00e-06	0	44	0	768606208	16	4616
2026-01-15 12:28:03.18	308.67	12.97	-28.2	-30.3	14.3	3.00e-06	0	44	0	771751936	16	4563
2026-01-15 12:28:04.18	308.84	12.92	-28.3	-30.4	14.3	1.50e-06	0	44	0	774897664	16	4604
2026-01-15 12:28:05.19	309.01	12.87	-28.3	-30.4	14.2	2.20e-06	0	44	0	778043392	16	4609
2026-01-15 12:28:06.19	309.18	12.82	-28.3	-30.5	14.2	7.00e-07	0	44	0	781189120	16	4640
2026-01-15 12:28:07.20	309.35	12.77	-28.4	-30.7	14.1	7.00e-07	0	44	0	784334848	16	4702
2026-01-15 12:28:08.21	309.53	12.73	-28.4	-30.6	14.1	7.00e-07	0	44	0	787480576	16	4661
2026-01-15 12:28:09.21	309.69	12.68	-28.4	-30.7	14.1	1.50e-06	0	44	0	790626304	16	4686
2026-01-15 12:28:10.21	309.86	12.63	-28.4	-30.8	14.0	2.20e-06	0	44	0	793772032	16	4714
2026-01-15 12:28:11.21	310.03	12.58	-28.4	-30.6	14.1	2.20e-06	0	44	0	796917760	16	4655
2026-01-15 12:28:12.21	310.20	12.53	-28.3	-30.5	14.2	7.00e-07	0	44	0	800063488	16	4637
2026-01-15 12:28:13.21	310.36	12.48	-28.4	-30.7	14.0	6.10e-06	0	44	0	803209216	16	4706
2026-01-15 12:28:14.21	310.53	12.43	-28.3	-30.6	14.1	1.50e-06	0	44	0	806354944	16	4651
2026-01-15 12:28:15.21	310.70	12.38	-28.4	-30.6	14.1	0.00e+00	0	44	0	809500672	16	4659
2026-01-15 12:28:16.21	310.86	12.33	-28.4	-30.7	14.0	7.00e-07	0	44	0	812646400	16	4702
2026-01-15 12:28:17.21	311.03	12.28	-28.4	-30.6	14.1	2.20e-06	0	44	0	815792128	16	4662
2026-01-15 12:28:18.22	311.19	12.23	-28.5	-30.9	14.0	2.20e-06	0	44	0	818937856	16	4755
2026-01-15 12:28:19.22	311.35	12.18	-28.7	-30.9	13.6	2.20e-06	0	44	0	822083584	17	4642
2026-01-15 12:28:20.22	311.52	12.13	-28.9	-31.4	13.3	1.60e-05	0	44	0	825229312	17	4799
2026-01-15 12:28:21.22	311.68	12.08	-28.7	-30.9	13.6	9.90e-06	0	44	0	828375040	17	4648
2026-01-15 12:28:22.22	311.84	12.03	-28.6	-30.6	13.8	7.60e-06	0	44	0	831520768	17	4545
2026-01-15 12:28:23.22	312.00	11.98	-28.5	-30.4	13.9	3.80e-06	0	44	0	834666496	17	4494
2026-01-15 12:28:24.22	312.16	11.93	-28.6	-30.6	13.8	5.30e-06	0	44	0	837812224	17	4546
2026-01-15 12:28:25.22	312.32	11.88	-28.6	-30.6	13.8	3.00e-06	0	44	0	840957952	17	4563
2026-01-15 12:28:26.23	312.48	11.83	-28.7	-30.9	13.6	6.10e-06	0	44	0	844103680	17	4639
2026-01-15 12:28:27.23	312.64	11.78	-28.6	-30.7	13.7	8.30e-06	0	44	0	847249408	17	4579
2026-01-15 12:28:28.24	312.80	11.73	-28.6	-30.7	13.7	3.80e-06	0	44	0	850395136	17	4576
2026-01-15 12:28:29.23	312.96	11.68	-28.6	-30.7	13.7	8.30e-06	0	44	0	853540864	17	4584
2026-01-15 12:28:30.23	313.12	11.62	-28.6	-30.7	13.7	9.90e-06	0	44	0	856686592	17	4575
2026-01-15 12:28:31.24	313.28	11.57	-28.6	-30.7	13.7	3.00e-06	0	44	0	859832320	17	4585
2026-01-15 12:28:32.24	313.43	11.52	-28.6	-30.7	13.7	9.10e-06	0	44	0	862978048	17	4585
2026-01-15 12:28:33.24	313.59	11.47	-28.7	-30.8	13.6	7.60e-06	0	44	0	866123776	17	4623
2026-01-15 12:28:34.24	313.74	11.42	-28.7	-31.0	13.6	9.10e-06	0	44	0	869269504	17	4674
2026-01-15 12:28:35.24	313.90	11.37	-28.8	-31.2	13.4	9.10e-06	0	44	0	872415232	17	4729
2026-01-15 12:28:36.24	314.05	11.32	-28.8	-31.1	13.5	9.90e-06	0	44	0	875560960	17	4708
2026-01-15 12:28:37.24	314.21	11.26	-28.8	-31.1	13.5	8.30e-06	0	44	0	878706688	17	4696
2026-01-15 12:28:38.24	314.36	11.21	-28.7	-31.0	13.5	6.10e-06	0	44	0	881852416	17	4666
2026-01-15 12:28:39.24	314.51	11.16	-28.7	-30.8	13.6	1.14e-05	0	44	0	884998144	17	4622
2026-01-15 12:28:40.24	314.67	11.11	-28.6	-30.7	13.7	8.30e-06	0	44	0	888143872	17	4581
2026-01-15 12:28:41.24	314.82	11.06	-28.7	-30.9	13.6	6.10e-06	0	44	0	891289600	17	4634
2026-01-15 12:28:42.25	314.97	11.01	-28.7	-31.0	13.5	1.60e-05	0	44	0	894435328	17	4672
2026-01-15 12:28:43.25	315.12	10.95	-28.7	-30.9	13.6	1.22e-05	0	44	0	897581056	17	4633
2026-01-15 12:28:44.25	315.27	10.90	-28.7	-31.0	13.5	9.10e-06	0	44	0	900726784	17	4666
2026-01-15 12:28:45.26	315.42	10.85	-28.7	-31.0	13.5	7.60e-06	0	44	0	903872512	17	4661
2026-01-15 12:28:46.26	315.57	10.80	-28.6	-30.8	13.6	3.80e-06	0	44	0	907018240	17	4603
2026-01-15 12:28:47.26	315.72	10.74	-28.7	-30.9	13.6	1.14e-05	0	44	0	910163968	17	4644
2026-01-15 12:28:48.26	315.87	10.69	-28.6	-30.6	13.7	6.80e-06	0	44	0	913309696	17	4560
2026-01-15 12:28:49.27	316.02	10.64	-28.6	-30.7	13.7	5.30e-06	0	44	0	916455424	17	4568
2026-01-15 12:28:50.27	316.16	10.59	-28.6	-30.7	13.7	4.50e-06	0	44	0	919601152	17	4573
2026-01-15 12:28:51.27	316.31	10.53	-28.7	-31.0	13.5	8.30e-06	0	44	0	922746880	17	4676
2026-01-15 12:28:52.26	316.45	10.48	-28.7	-30.9	13.5	1.06e-05	0	44	0	925892608	17	4650
2026-01-15 12:28:53.27	316.60	10.43	-28.7	-30.9	13.5	1.06e-05	0	44	0	929038336	17	4659
2026-01-15 12:28:54.27	316.75	10.38	-28.6	-30.8	13.6	8.30e-06	0	44	0	931135488	17	4621
2026-01-15 12:28:55.28	316.89	10.32	-28.7	-31.1	13.4	1.29e-05	0	44	0	935329792	17	4697
2026-01-15 12:28:56.28	317.04	10.27	-28.7	-31.0	13.5	9.90e-06	0	44	0	938475520	17	4688
2026-01-15 12:28:57.29	317.18	10.22	-28.7	-31.1	13.4	1.52e-05	0	44	0	941621248	17	4698
2026-01-15 12:28:58.29	317.32	10.17	-28.8	-31.3	13.3	1.60e-05	0	44	0	944766976	17	4769
2026-01-15 12:28:59.29	317.47	10.11	-28.8	-31.1	13.4	1.67e-05	0	44	0	947912704	17	4726
2026-01-15 12:29:00.29	317.61	10.06	-28.8	-31.2	13.3	1.37e-05	0	44	0	951058432	17	4742
2026-01-15 12:29:01.29	317.75	10.01	-28.9	-31.5	13.2	2.97e-05	0	44	0	954204160	17	4845
2026-01-15 12:29:02.29	317.89	9.95	-29.0	-31.2	13.0	4.11e-05	0	44	0	956301312	18	4631
2026-01-15 12:29:03.29	318.03	9.90	-28.9	-31.0	13.1	2.89e-05	0	44	0	959447040	18	4584
2026-01-15 12:29:04.29	318.17	9.85	-28.9	-31.0	13.2	3.43e-05	0	44	0	962592768	18	4575
2026-01-15 12:29:05.29	318.31	9.79	-28.9	-30.9	13.2	3.66e-05	0	44	0	965738496	18	4555
2026-01-15 12:29:06.29	318.45	9.74	-28.9	-30.9	13.2	1.83e-05	0	44	0	968884224	18	4532
2026-01-15 12:29:07.29	318.59	9.69	-28.8	-30.8	13.2	2.13e-05	0	44	0	972029952	18	4516
2026-01-15 12:29:08.30	318.73	9.64	-28.9	-30.9	13.2	2.21e-05	0	44	0	975175680	18	4542
2026-01-15 12:29:09.30	318.87	9.58	-28.8	-30.8	13.3	2.21e-05	0	44	0	978321408	18	4497
2026-01-15 12:29:10.31	319.00	9.53	-28.9	-30.9	13.2	2.67e-05	0	44	0	981467136	18	4532
2026-01-15 12:29:11.31	319.14	9.48	-28.9	-31.0	13.1	3.28e-05	0	44	0	984612864	18	4571
2026-01-15 12:29:12.31	319.28	9.42	-28.9	-30.9	13.2	3.05e-05	0	44	0	987758592	18	4541
2026-01-15 12:29:13.31	319.41	9.37	-28.9	-31.1	13.1	2.74e-05	0	44	0	990904320	18	4592
2026-01-15 12:29:14.30	319.55	9.32	-29.0	-31.3	12.9	3.50e-05	0	44	0	994050048	18	4662
2026-01-15 12:29:15.31	319.68	9.26	-28.9	-31.0	13.1	2.74e-05	0	44	0	997195776	18	4576
2026-01-15 12:29:16.30	319.82	9.21	-28.9	-31.0	13.1	3.58e-05	0	44	0	1000341504	18	4581
2026-01-15 12:29:17.30	319.95	9.16	-28.8	-30.9	13.2	2.97e-05	0	44	0	1003487232	18	4536
2026-01-15 12:29:18.31	320.08	9.10	-28.8	-30.8	13.2	1.98e-05	0	44	0	1006632960	18	4509
2026-01-15 12:29:19.31	320.22	9.05	-28.9	-30.9	13.2	2.82e-05	0	44	0	1009778688	18	4540
2026-01-15 12:29:20.32	320.35	9.00	-28.8	-30.8	13.2	1.83e-05	0	44	0	1012924416	18	4524
2026-01-15 12:29:21.32	320.48	8.94	-28.9	-31.0	13.1	2.97e-05	0	44	0	1016070144	18	4564
2026-01-15 12:29:22.32	320.61	8.89	-28.9	-31.0	13.1	2.13e-05	0	44	0	1019215872	18	4564
2026-01-15 12:29:23.33	320.75	8.83	-28.8	-30.8	13.2	2.89e-05	0	44	0	1022361600	18	4511
2026-01-15 12:29:24.33	320.88	8.78	-28.8	-30.7	13.3	2.21e-05	0	44	0	1025507328	18	4488
2026-01-15 12:29:25.33	321.01	8.73	-28.8	-30.7	13.2	2.36e-05	0	44	0	1028653056	18	4498
2026-01-15 12:29:26.33	321.14	8.67	-28.9	-31.0	13.1	2.36e-05	0	44	0	1031798784	18	4570
2026-01-15 12:29:27.34	321.27	8.62	-28.9	-30.9	13.1	3.05e-05	0	44	0	1034944512	18	4541
2026-01-15 12:29:28.34	321.40	8.57	-28.9	-31.0	13.0	3.43e-05	0	44	0	1038090240	18	4571
2026-01-15 12:29:29.34	321.52	8.51	-29.0	-31.3	12.9	4.57e-05	0	44	0	1041235968	18	4671
2026-01-15 12:29:30.34	321.65	8.46	-29.2	-31.6	12.6	1.07e-04	0	44	0	1044381696	18	4784
2026-01-15 12:29:31.35	321.78	8.41	-29.0	-31.2	12.9	4.34e-05	0	44	0	1047527424	18	4642
2026-01-15 12:29:32.36	321.91	8.35	-29.0	-31.2	12.9	4.27e-05	0	44	0	1050673152	18	4645
2026-01-15 12:29:33.36	322.03	8.30	-29.1	-31.4	12.8	5.41e-05	0	44	0	1053818880	18	4708
2026-01-15 12:29:34.36	322.16	8.24	-29.1	-31.4	12.8	4.88e-05	0	44	0	1056964608	18	4703
2026-01-15 12:29:35.36	322.29	8.19	-29.2	-31.8	12.5	1.07e-04	0	44	0	1060110336	18	4839
2026-01-15 12:29:36.36	322.41	8.14	-29.3	-31.9	12.4	1.20e-04	0	44	0	1063256064	18	4885
2026-01-15 12:29:37.37	322.54	8.08	-29.3	-32.0	12.4	1.22e-04	0	44	0	1066401792	18	4913
2026-01-15 12:29:38.37	322.66	8.03	-29.2	-31.8	12.5	1.30e-04	0	44	0	1069547520	18	4851
2026-01-15 12:29:39.37	322.79	7.98	-29.4	-32.3	12.2	2.11e-04	0	44	0	1072693248	18	5017
2026-01-15 12:29:40.38	322.91	7.92	-29.3	-32.1	12.3	1.56e-04	0	44	0	1075838976	18	4948
2026-01-15 12:29:41.37	323.03	7.87	-29.4	-32.2	12.2	2.22e-04	0	44	0	1078984704	18	5003
2026-01-15 12:29:42.38	323.16	7.82	-29.4	-32.2	12.2	1.91e-04	0	44	0	1082130432	18	5006
2026-01-15 12:29:43.37	323.28	7.76	-29.4	-32.2	12.2	2.60e-04	0	44	0	1085276160	18	4983
2026-01-15 12:29:44.38	323.40	7.71	-29.5	-32.5	12.0	2.90e-04	0	44	0	1088421888	18	5101
2026-01-15 12:29:45.38	323.52	7.66	-29.5	-32.1	12.0	3.46e-04	0	44	0	1091567616	19	4841
2026-01-15 12:29:46.39	323.64	7.60	-29.7	-32.5	11.6	6.98e-04	0	44	0	1094713344	19	4997
2026-01-15 12:29:47.38	323.76	7.55	-29.5	-32.0	12.0	3.95e-04	0	44	0	1097859072	19	4828
2026-01-15 12:29:48.39	323.88	7.49	-29.6	-32.3	11.8	5.77e-04	0	44	0	1101004800	19	4927
2026-01-15 12:29:49.39	324.00	7.44	-29.5	-32.2	11.8	4.50e-04	0	44	0	1104150528	19	4881
2026-01-15 12:29:50.39	324.12	7.39	-29.6	-32.4	11.7	4.51e-04	0	44	0	1107296256	19	4972
2026-01-15 12:29:51.40	324.24	7.33	-29.6	-32.3	11.8	5.34e-04	0	44	0	1110441984	19	4913
2026-01-15 12:29:52.40	324.36	7.28	-29.6	-32.4	11.7	5.71e-04	0	44	0	1113587712	19	4949
2026-01-15 12:29:53.41	324.48	7.23	-29.8	-32.7	11.5	8.17e-04	0	44	0	1116733440	19	5077
2026-01-15 12:29:54.41	324.59	7.17	-29.8	-32.9	11.3	1.08e-03	0	44	0	1119879168	19	5149
2026-01-15 12:29:55.41	324.71	7.12	-29.9	-33.1	11.2	1.15e-03	0	44	0	1123024896	19	5216
2026-01-15 12:29:56.41	324.83	7.07	-31.5	-36.3	8.5	1.26e-03	0	44	0	1126170624	22	6319
2026-01-15 12:29:57.41	324.94	7.01	-33.7	-45.6	3.8	1.49e+00	0	44	104	1126170624	27	14305
2026-01-15 12:29:58.41	325.06	6.96	-34.0	-46.3	3.8	1.49e+00	0	44	104	1126170624	27	14869

#Closed at: 2026-01-15 12:29:59
#Recorded file [1126 MB]: D:/data/31010_260115_152355.dat