passes_logs/2026/01/15/R2M6_AANII_01/R2M6_AANII_01__20260115_013556_NOAA_20_JPSS-1_rec.log

#Pass ID: 20260115_013556_NOAA 20 (JPSS-1)
#Satellite: NOAA 20 (JPSS-1)
#Configuration: NOAA 20
#almurnet v.1.7.20240730
#Start time: 2026-01-15 01:35:56

#Version: 2.2.20231116
#Station: R2M6_AANII_01
#Location: 30.233357 lon 59.946436 lat
#TLE: 1 43013U 17073A   26014.13176244  .00000049  00000+0  44136-4 0  9994
#TLE: 2 43013  98.7634 315.0803 0001538  40.6488 319.4803 14.19535812422619

#Time	Az	El	Level	Level2	SNR	BER	BlckErr	Temp	State	Recorded	gain1	gain2
2026-01-15 01:35:56.14	12.68	6.98	-32.5	-40.8	4.5	1.37e+00	0	41	0	0	24	9427
2026-01-15 01:35:57.13	12.62	7.05	-32.5	-40.9	4.5	1.37e+00	0	41	104	0	24	9532
2026-01-15 01:35:58.14	12.56	7.12	-32.5	-40.7	6.0	3.55e-01	0	41	0	0	24	9253
2026-01-15 01:35:59.14	12.49	7.20	-32.5	-40.5	6.1	2.93e-01	0	41	0	1048576	24	9060
2026-01-15 01:36:00.13	12.43	7.27	-32.5	-40.3	6.0	3.36e-01	0	41	0	3145728	25	8809
2026-01-15 01:36:01.14	12.37	7.34	-32.5	-40.4	5.9	3.65e-01	0	41	0	5242880	25	8890
2026-01-15 01:36:02.15	12.31	7.41	-32.5	-40.0	6.1	3.37e-01	0	41	0	7340032	25	8589
2026-01-15 01:36:03.15	12.25	7.48	-32.5	-39.8	6.4	2.71e-01	0	41	0	9437184	25	8362
2026-01-15 01:36:04.15	12.18	7.56	-32.4	-39.5	6.6	2.15e-01	0	41	0	10485760	25	8137
2026-01-15 01:36:05.15	12.12	7.63	-32.4	-39.9	6.7	2.18e-01	0	41	0	12582912	24	8464
2026-01-15 01:36:06.16	12.06	7.70	-32.5	-40.0	6.6	2.10e-01	0	41	0	14680064	24	8623
2026-01-15 01:36:07.16	11.99	7.78	-32.6	-40.3	6.1	2.90e-01	0	41	0	16777216	25	8731
2026-01-15 01:36:08.16	11.93	7.85	-32.4	-39.1	6.9	2.43e-01	0	41	0	17825792	25	7814
2026-01-15 01:36:09.15	11.86	7.92	-32.2	-38.7	7.7	1.04e-01	0	41	0	19922944	24	7568
2026-01-15 01:36:10.15	11.80	7.99	-32.0	-37.8	8.4	6.29e-02	0	41	0	22020096	24	6982
2026-01-15 01:36:11.16	11.73	8.07	-31.8	-37.3	9.2	3.15e-02	0	41	0	24117248	23	6759
2026-01-15 01:36:12.17	11.67	8.14	-31.5	-36.2	10.0	1.72e-02	0	42	0	26214400	23	6172
2026-01-15 01:36:13.16	11.60	8.22	-31.3	-35.5	10.6	4.53e-03	0	42	0	27262976	23	5821
2026-01-15 01:36:14.16	11.54	8.29	-31.2	-35.6	10.9	5.77e-03	0	41	0	29360128	22	5974
2026-01-15 01:36:15.17	11.47	8.37	-31.3	-36.0	10.7	5.69e-03	0	42	0	31457280	22	6152
2026-01-15 01:36:16.17	11.40	8.44	-31.3	-36.0	10.6	3.70e-03	0	42	0	33554432	22	6178
2026-01-15 01:36:17.17	11.33	8.52	-31.2	-35.7	10.9	5.27e-03	0	42	0	35651584	22	6016
2026-01-15 01:36:18.17	11.27	8.59	-31.2	-35.7	10.9	5.28e-03	0	41	0	36700160	22	6011
2026-01-15 01:36:19.18	11.20	8.67	-31.3	-35.9	10.7	2.75e-03	0	42	0	38797312	22	6125
2026-01-15 01:36:20.18	11.13	8.74	-31.2	-35.6	10.9	2.12e-03	0	42	0	40894464	22	5986
2026-01-15 01:36:21.19	11.06	8.82	-31.3	-35.7	10.9	4.77e-03	0	41	0	42991616	22	6014
2026-01-15 01:36:22.19	10.99	8.89	-31.4	-36.3	10.4	3.75e-03	0	42	0	45088768	22	6328
2026-01-15 01:36:23.19	10.92	8.97	-31.2	-35.6	11.0	2.39e-03	0	42	0	46137344	22	5945
2026-01-15 01:36:24.20	10.85	9.05	-31.1	-35.0	11.4	2.19e-03	0	42	0	48234496	22	5689
2026-01-15 01:36:25.20	10.78	9.12	-31.0	-35.0	11.4	1.32e-03	0	42	0	50331648	22	5665
2026-01-15 01:36:26.21	10.71	9.20	-31.0	-34.9	11.5	7.80e-04	0	42	0	52428800	22	5621
2026-01-15 01:36:27.21	10.64	9.28	-31.0	-34.9	11.5	8.27e-04	0	42	0	54525952	22	5636
2026-01-15 01:36:28.21	10.57	9.35	-31.1	-35.2	11.3	1.26e-03	0	42	0	55574528	22	5746
2026-01-15 01:36:29.22	10.49	9.43	-31.2	-35.4	11.2	4.35e-03	0	42	0	57671680	22	5859
2026-01-15 01:36:30.23	10.42	9.51	-31.1	-35.2	11.3	1.16e-03	0	42	0	59768832	22	5761
2026-01-15 01:36:31.23	10.35	9.59	-31.1	-35.1	11.4	9.06e-04	0	42	0	61865984	22	5705
2026-01-15 01:36:32.23	10.27	9.66	-31.1	-35.1	11.4	3.95e-03	0	42	0	62914560	22	5728
2026-01-15 01:36:33.23	10.20	9.74	-31.1	-35.2	11.4	1.05e-03	0	42	0	65011712	22	5738
2026-01-15 01:36:34.23	10.13	9.82	-31.1	-35.1	11.4	1.09e-03	0	42	0	67108864	22	5725
2026-01-15 01:36:35.24	10.05	9.90	-31.1	-35.0	11.5	3.26e-03	0	42	0	69206016	22	5666
2026-01-15 01:36:36.24	9.98	9.98	-31.1	-35.1	11.5	8.29e-04	0	42	0	71303168	22	5711
2026-01-15 01:36:37.24	9.90	10.05	-31.1	-35.0	11.5	7.87e-04	0	42	0	73400320	22	5678
2026-01-15 01:36:38.25	9.82	10.13	-31.1	-35.1	11.5	9.55e-04	0	42	0	74448896	22	5702
2026-01-15 01:36:39.25	9.75	10.21	-31.0	-34.9	11.6	3.32e-03	0	42	0	76546048	22	5625
2026-01-15 01:36:40.25	9.67	10.29	-31.0	-34.9	11.6	7.61e-04	0	42	0	78643200	22	5623
2026-01-15 01:36:41.26	9.59	10.37	-31.0	-34.9	11.6	6.23e-04	0	42	0	80740352	22	5614
2026-01-15 01:36:42.26	9.52	10.45	-31.1	-35.0	11.5	7.77e-04	0	42	0	81788928	22	5675
2026-01-15 01:36:43.26	9.44	10.53	-31.1	-35.0	11.6	6.53e-04	0	42	0	83886080	22	5635
2026-01-15 01:36:44.27	9.36	10.61	-31.0	-34.9	11.6	6.96e-04	0	42	0	85983232	22	5610
2026-01-15 01:36:45.27	9.28	10.69	-31.2	-35.3	11.4	8.35e-04	0	42	0	88080384	22	5780
2026-01-15 01:36:46.27	9.20	10.77	-31.3	-35.7	11.1	1.64e-03	0	42	0	90177536	22	5971
2026-01-15 01:36:47.28	9.12	10.85	-31.1	-35.1	11.5	9.07e-04	0	42	0	91226112	22	5704
2026-01-15 01:36:48.28	9.04	10.94	-31.2	-35.4	11.2	9.93e-04	0	42	0	93323264	22	5850
2026-01-15 01:36:49.29	8.96	11.02	-31.3	-35.6	11.1	1.54e-03	0	42	0	95420416	22	5953
2026-01-15 01:36:50.29	8.88	11.10	-31.1	-35.2	11.4	1.01e-03	0	42	0	97517568	22	5734
2026-01-15 01:36:51.30	8.80	11.18	-31.1	-34.9	11.7	7.03e-04	0	42	0	99614720	22	5634
2026-01-15 01:36:52.30	8.71	11.26	-31.1	-35.0	11.6	6.55e-04	0	42	0	100663296	22	5654
2026-01-15 01:36:53.30	8.63	11.34	-31.0	-34.8	11.8	5.10e-04	0	42	0	102760448	22	5559
2026-01-15 01:36:54.31	8.55	11.43	-30.9	-35.0	11.9	3.39e-04	0	42	0	104857600	21	5784
2026-01-15 01:36:55.31	8.46	11.51	-30.8	-34.7	12.2	2.89e-04	0	42	0	106954752	21	5616
2026-01-15 01:36:56.31	8.38	11.59	-30.8	-34.6	12.3	2.29e-04	0	42	0	109051904	21	5579
2026-01-15 01:36:57.31	8.30	11.67	-30.8	-34.7	12.2	2.04e-04	0	43	0	110100480	21	5638
2026-01-15 01:36:58.31	8.21	11.76	-30.8	-34.7	12.2	2.31e-04	0	42	0	112197632	21	5603
2026-01-15 01:36:59.32	8.12	11.84	-30.8	-34.5	12.3	1.77e-04	0	42	0	114294784	21	5546
2026-01-15 01:37:00.32	8.04	11.92	-30.8	-34.5	12.4	1.52e-04	0	42	0	116391936	21	5520
2026-01-15 01:37:01.32	7.95	12.01	-30.8	-34.5	12.4	1.53e-04	0	43	0	118489088	21	5536
2026-01-15 01:37:02.32	7.86	12.09	-30.8	-34.6	12.3	1.46e-04	0	42	0	119537664	21	5579
2026-01-15 01:37:03.33	7.78	12.18	-30.8	-34.7	12.2	2.04e-04	0	42	0	121634816	21	5632
2026-01-15 01:37:04.33	7.69	12.26	-29.9	-33.6	12.3	1.33e-04	0	43	0	123731968	21	5523
2026-01-15 01:37:05.33	7.60	12.35	-30.8	-34.5	11.6	1.50e-04	0	42	0	125829120	21	5545
2026-01-15 01:37:06.34	7.51	12.43	-30.8	-34.6	12.3	1.56e-04	0	43	0	127926272	21	5569
2026-01-15 01:37:07.33	7.42	12.51	-30.9	-34.8	11.4	1.88e-04	0	43	0	128974848	21	5659
2026-01-15 01:37:08.34	7.33	12.60	-30.8	-34.7	12.2	2.75e-04	0	43	0	131072000	21	5641
2026-01-15 01:37:09.34	7.24	12.69	-30.9	-34.9	12.0	2.46e-04	0	43	0	133169152	21	5729
2026-01-15 01:37:10.34	7.15	12.77	-30.9	-35.0	12.0	2.60e-03	0	42	0	135266304	21	5774
2026-01-15 01:37:11.35	7.06	12.86	-30.7	-34.5	12.3	2.10e-04	0	43	0	136314880	21	5608
2026-01-15 01:37:12.35	6.96	12.94	-30.5	-34.4	12.3	1.91e-04	0	42	0	138412032	21	5617
2026-01-15 01:37:13.36	6.87	13.03	-30.4	-34.8	12.2	2.35e-04	0	43	0	140509184	20	5968
2026-01-15 01:37:14.36	6.78	13.12	-30.4	-34.8	12.2	2.38e-03	0	43	0	142606336	20	5964
2026-01-15 01:37:15.36	6.68	13.20	-30.3	-34.4	12.5	1.41e-04	0	43	0	144703488	20	5800
2026-01-15 01:37:16.36	6.59	13.29	-30.4	-34.6	12.5	1.11e-04	0	43	0	145752064	20	5822
2026-01-15 01:37:17.36	6.49	13.38	-30.5	-34.7	12.4	2.63e-03	0	43	0	147849216	20	5883
2026-01-15 01:37:18.36	6.40	13.47	-30.6	-34.4	12.4	1.38e-04	0	43	0	149946368	21	5574
2026-01-15 01:37:19.36	6.30	13.55	-30.6	-34.1	12.6	1.15e-04	0	43	0	152043520	21	5404
2026-01-15 01:37:20.36	6.20	13.64	-30.7	-34.2	12.6	6.86e-05	0	43	0	154140672	21	5422
2026-01-15 01:37:21.36	6.10	13.73	-30.7	-34.3	12.6	2.55e-04	0	43	0	155189248	21	5458
2026-01-15 01:37:22.37	6.00	13.82	-30.7	-34.2	12.6	9.00e-05	0	43	0	157286400	21	5422
2026-01-15 01:37:23.37	5.91	13.91	-30.8	-34.5	12.5	9.53e-05	0	43	0	159383552	21	5550
2026-01-15 01:37:24.37	5.81	14.00	-30.8	-34.6	12.4	4.02e-04	0	43	0	161480704	21	5582
2026-01-15 01:37:25.38	5.71	14.09	-30.6	-34.2	12.7	1.33e-03	0	43	0	163577856	21	5412
2026-01-15 01:37:26.38	5.60	14.18	-30.6	-34.1	12.7	7.70e-05	0	43	0	164626432	21	5369
2026-01-15 01:37:27.39	5.50	14.27	-30.6	-34.0	12.8	2.84e-04	0	43	0	166723584	21	5347
2026-01-15 01:37:28.39	5.40	14.36	-30.6	-33.9	12.9	2.57e-03	0	43	0	168820736	21	5304
2026-01-15 01:37:29.40	5.30	14.45	-30.7	-34.2	12.7	7.78e-05	0	43	0	170917888	21	5415
2026-01-15 01:37:30.40	5.19	14.54	-30.6	-33.9	12.9	5.41e-05	0	43	0	173015040	21	5275
2026-01-15 01:37:31.41	5.09	14.63	-30.6	-33.9	12.9	2.90e-03	0	43	0	174063616	21	5291
2026-01-15 01:37:32.42	4.98	14.72	-30.6	-34.0	12.8	2.78e-03	0	43	0	176160768	21	5332
2026-01-15 01:37:33.42	4.88	14.81	-30.7	-34.4	12.6	5.72e-05	0	43	0	178257920	21	5467
2026-01-15 01:37:34.43	4.77	14.90	-30.8	-34.5	12.5	2.84e-03	0	43	0	180355072	21	5512
2026-01-15 01:37:35.43	4.66	15.00	-30.8	-34.5	12.6	2.52e-03	0	43	0	181403648	21	5503
2026-01-15 01:37:36.43	4.56	15.09	-30.8	-34.6	12.5	9.99e-05	0	43	0	183500800	21	5553
2026-01-15 01:37:37.43	4.45	15.18	-30.9	-34.7	12.4	2.55e-03	0	43	0	185597952	21	5585
2026-01-15 01:37:38.44	4.34	15.27	-30.9	-34.7	12.5	2.79e-03	0	43	0	187695104	21	5568
2026-01-15 01:37:39.43	4.23	15.36	-30.9	-34.8	12.4	3.35e-04	0	43	0	189792256	21	5622
2026-01-15 01:37:40.43	4.12	15.46	-30.9	-34.8	12.4	1.85e-04	0	43	0	190840832	21	5620
2026-01-15 01:37:41.44	4.01	15.55	-30.9	-34.8	12.4	2.77e-03	0	43	0	192937984	21	5628
2026-01-15 01:37:42.44	3.90	15.64	-31.0	-34.6	12.2	4.45e-04	0	43	0	195035136	22	5433
2026-01-15 01:37:43.45	3.78	15.74	-30.7	-34.2	12.8	2.81e-03	0	43	0	197132288	21	5385
2026-01-15 01:37:44.45	3.67	15.83	-30.6	-34.0	13.0	2.49e-03	0	43	0	199229440	21	5298
2026-01-15 01:37:45.45	3.56	15.92	-30.6	-33.8	13.1	2.23e-04	0	43	0	200278016	21	5196
2026-01-15 01:37:46.46	3.44	16.02	-30.6	-33.9	13.1	2.41e-03	0	43	0	202375168	21	5242
2026-01-15 01:37:47.45	3.33	16.11	-30.6	-33.8	13.1	2.77e-03	0	43	0	204472320	21	5209
2026-01-15 01:37:48.45	3.21	16.21	-30.6	-33.8	13.1	2.43e-04	0	43	0	206569472	21	5218
2026-01-15 01:37:49.46	3.09	16.30	-30.7	-34.0	13.0	2.64e-03	0	43	0	208666624	21	5300
2026-01-15 01:37:50.47	2.97	16.40	-30.7	-34.3	12.8	2.67e-03	0	43	0	209715200	21	5399
2026-01-15 01:37:51.47	2.86	16.50	-30.7	-34.2	12.9	2.49e-04	0	43	0	211812352	21	5363
2026-01-15 01:37:52.48	2.74	16.59	-30.8	-34.3	12.8	2.66e-03	0	43	0	213909504	21	5418
2026-01-15 01:37:53.48	2.62	16.69	-30.7	-34.1	13.0	2.47e-03	0	43	0	216006656	21	5316
2026-01-15 01:37:54.48	2.50	16.78	-30.7	-34.0	13.0	4.04e-05	0	43	0	218103808	21	5277
2026-01-15 01:37:55.49	2.37	16.88	-30.7	-34.0	13.0	2.35e-03	0	43	0	219152384	21	5268
2026-01-15 01:37:56.49	2.25	16.98	-30.7	-34.0	13.0	2.71e-03	0	43	0	221249536	21	5286
2026-01-15 01:37:57.50	2.13	17.08	-30.8	-34.3	12.8	4.95e-05	0	43	0	223346688	21	5406
2026-01-15 01:37:58.51	2.00	17.17	-30.8	-34.4	12.8	2.78e-03	0	43	0	225443840	21	5452
2026-01-15 01:37:59.52	1.88	17.27	-30.6	-33.9	13.1	2.55e-03	0	43	0	227540992	21	5246
2026-01-15 01:38:00.52	1.75	17.37	-30.6	-33.8	13.2	1.70e-04	0	43	0	228589568	21	5191
2026-01-15 01:38:01.52	1.62	17.47	-30.6	-33.8	13.2	2.36e-05	0	43	0	230686720	21	5188
2026-01-15 01:38:02.53	1.49	17.57	-30.5	-33.6	13.3	2.34e-03	0	43	0	232783872	21	5116
2026-01-15 01:38:03.53	1.37	17.66	-30.6	-33.7	13.2	1.50e-04	0	43	0	234881024	21	5179
2026-01-15 01:38:04.53	1.24	17.76	-30.6	-33.8	13.3	1.98e-05	0	43	0	236978176	21	5186
2026-01-15 01:38:05.53	1.11	17.86	-30.5	-33.6	13.4	1.29e-05	0	43	0	238026752	21	5116
2026-01-15 01:38:06.53	0.98	17.96	-30.6	-33.8	13.3	2.07e-04	0	43	0	240123904	21	5183
2026-01-15 01:38:07.54	0.84	18.06	-30.6	-33.7	13.3	1.83e-05	0	43	0	242221056	21	5142
2026-01-15 01:38:08.54	0.71	18.16	-30.7	-33.9	13.1	2.59e-05	0	43	0	244318208	21	5253
2026-01-15 01:38:09.54	0.58	18.26	-30.6	-33.8	13.2	2.03e-04	0	43	0	246415360	21	5207
2026-01-15 01:38:10.55	0.44	18.36	-30.6	-33.7	13.3	2.56e-03	0	43	0	247463936	21	5173
2026-01-15 01:38:11.55	0.31	18.46	-30.6	-33.8	13.2	2.05e-05	0	43	0	249561088	21	5214
2026-01-15 01:38:12.55	0.17	18.56	-30.6	-33.8	13.2	1.98e-05	0	43	0	251658240	21	5202
2026-01-15 01:38:13.55	0.04	18.66	-30.7	-33.9	13.2	2.40e-03	0	43	0	253755392	21	5234
2026-01-15 01:38:14.56	359.90	18.77	-30.7	-34.0	13.1	3.89e-05	0	43	0	254803968	21	5276
2026-01-15 01:38:15.57	359.76	18.87	-30.7	-34.0	13.1	3.12e-05	0	43	0	256901120	21	5292
2026-01-15 01:38:16.57	359.62	18.97	-30.8	-34.4	12.9	1.99e-04	0	43	0	258998272	21	5430
2026-01-15 01:38:17.57	359.47	19.07	-30.8	-34.5	12.9	2.70e-03	0	43	0	261095424	21	5454
2026-01-15 01:38:18.58	359.33	19.17	-30.9	-34.5	12.8	6.10e-05	0	43	0	263192576	21	5466
2026-01-15 01:38:19.58	359.19	19.28	-30.7	-34.1	13.0	1.72e-04	0	43	0	264241152	21	5323
2026-01-15 01:38:20.58	359.05	19.38	-30.7	-34.1	13.0	2.43e-03	0	43	0	266338304	21	5321
2026-01-15 01:38:21.58	358.90	19.48	-30.8	-34.3	13.0	4.88e-05	0	43	0	268435456	21	5386
2026-01-15 01:38:22.59	358.75	19.59	-30.8	-34.3	12.9	3.58e-05	0	43	0	270532608	21	5397
2026-01-15 01:38:23.59	358.61	19.69	-30.9	-34.6	12.8	2.46e-04	0	43	0	272629760	21	5508
2026-01-15 01:38:24.58	358.46	19.79	-31.1	-34.5	12.5	2.83e-04	0	43	0	273678336	22	5362
2026-01-15 01:38:25.58	358.31	19.89	-31.0	-34.4	12.6	7.85e-05	0	43	0	275775488	22	5320
2026-01-15 01:38:26.59	358.16	20.00	-31.0	-34.5	12.5	1.17e-04	0	43	0	277872640	22	5347
2026-01-15 01:38:27.59	358.01	20.10	-31.1	-34.7	12.4	1.51e-04	0	43	0	279969792	22	5442
2026-01-15 01:38:28.60	357.86	20.21	-31.1	-34.5	12.6	1.04e-04	0	43	0	282066944	22	5353
2026-01-15 01:38:29.60	357.70	20.31	-31.1	-34.6	12.5	1.20e-04	0	43	0	283115520	22	5404
2026-01-15 01:38:30.60	357.55	20.42	-31.0	-34.4	12.6	1.43e-04	0	43	0	285212672	22	5294
2026-01-15 01:38:31.60	357.39	20.52	-31.0	-34.3	12.7	8.08e-05	0	43	0	287309824	22	5273
2026-01-15 01:38:32.61	357.24	20.63	-30.9	-34.6	12.8	6.94e-05	0	43	0	289406976	21	5520
2026-01-15 01:38:33.61	357.08	20.73	-31.0	-34.4	12.6	6.63e-05	0	43	0	291504128	22	5317
2026-01-15 01:38:34.61	356.92	20.84	-31.0	-34.2	12.8	4.13e-04	0	43	0	292552704	22	5239
2026-01-15 01:38:35.61	356.76	20.94	-30.9	-34.7	12.8	6.94e-05	0	43	0	294649856	21	5543
2026-01-15 01:38:36.62	356.60	21.05	-31.0	-34.4	12.6	7.32e-05	0	43	0	296747008	22	5332
2026-01-15 01:38:37.62	356.44	21.16	-31.2	-34.8	12.4	3.38e-04	0	43	0	298844160	22	5467
2026-01-15 01:38:38.63	356.27	21.27	-31.0	-34.3	12.7	9.00e-05	0	43	0	300941312	22	5268
2026-01-15 01:38:39.62	356.11	21.37	-30.9	-34.0	12.9	5.56e-05	0	43	0	301989888	22	5162
2026-01-15 01:38:40.63	355.94	21.48	-30.9	-34.4	12.9	3.12e-05	0	43	0	304087040	21	5436
2026-01-15 01:38:41.63	355.78	21.59	-31.0	-34.7	12.8	3.61e-04	0	43	0	306184192	21	5534
2026-01-15 01:38:42.62	355.61	21.69	-31.0	-34.2	12.8	7.93e-05	0	43	0	308281344	22	5227
2026-01-15 01:38:43.63	355.44	21.80	-30.9	-34.4	13.0	4.11e-05	0	43	0	309329920	21	5394
2026-01-15 01:38:44.63	355.27	21.91	-30.8	-34.4	13.0	3.43e-05	0	43	0	311427072	21	5408
2026-01-15 01:38:45.64	355.10	22.02	-29.7	-33.4	12.5	4.19e-05	0	43	0	313524224	21	5496
2026-01-15 01:38:46.64	354.92	22.12	-30.9	-34.4	12.6	5.03e-05	0	43	0	315621376	21	5410
2026-01-15 01:38:47.64	354.75	22.23	-30.8	-34.1	13.2	3.20e-05	0	43	0	317718528	21	5294
2026-01-15 01:38:48.64	354.58	22.34	-30.7	-33.9	13.3	2.08e-03	0	43	0	318767104	21	5220
2026-01-15 01:38:49.64	354.40	22.45	-30.7	-33.9	13.3	1.98e-05	0	43	0	320864256	21	5214
2026-01-15 01:38:50.64	354.22	22.56	-30.8	-34.3	13.1	1.67e-05	0	43	0	322961408	21	5364
2026-01-15 01:38:51.64	354.04	22.67	-30.8	-34.2	13.1	4.34e-05	0	43	0	325058560	21	5343
2026-01-15 01:38:52.64	353.86	22.77	-30.6	-33.6	13.5	1.60e-05	0	43	0	327155712	21	5095
2026-01-15 01:38:53.64	353.68	22.88	-30.5	-33.4	13.7	9.10e-06	0	43	0	328204288	21	5036
2026-01-15 01:38:54.64	353.50	22.99	-30.6	-33.6	13.6	1.29e-05	0	43	0	330301440	21	5082
2026-01-15 01:38:55.64	353.32	23.10	-30.6	-33.6	13.6	1.79e-03	0	43	0	332398592	21	5088
2026-01-15 01:38:56.64	353.13	23.21	-30.6	-33.6	13.5	6.10e-06	0	43	0	334495744	21	5106
2026-01-15 01:38:57.64	352.95	23.32	-30.6	-33.7	13.6	1.37e-05	0	43	0	336592896	21	5117
2026-01-15 01:38:58.65	352.76	23.43	-30.6	-33.6	13.6	6.80e-06	0	43	0	337641472	21	5103
2026-01-15 01:38:59.65	352.57	23.54	-30.7	-33.9	13.4	1.92e-04	0	43	0	339738624	21	5195
2026-01-15 01:39:00.65	352.38	23.65	-30.7	-33.8	13.4	1.29e-05	0	43	0	341835776	21	5170
2026-01-15 01:39:01.66	352.18	23.76	-30.7	-33.8	13.5	1.14e-05	0	43	0	343932928	21	5163
2026-01-15 01:39:02.67	351.99	23.87	-30.6	-33.7	13.5	9.99e-05	0	43	0	346030080	21	5134
2026-01-15 01:39:03.67	351.79	23.98	-30.6	-33.7	13.5	1.06e-05	0	43	0	347078656	21	5147
2026-01-15 01:39:04.67	351.60	24.09	-30.7	-33.8	13.5	6.80e-06	0	43	0	349175808	21	5179
2026-01-15 01:39:05.67	351.40	24.21	-30.7	-34.0	13.3	1.52e-05	0	43	0	351272960	21	5256
2026-01-15 01:39:06.68	351.20	24.32	-30.8	-34.1	13.3	1.58e-03	0	43	0	353370112	21	5296
2026-01-15 01:39:07.69	351.00	24.43	-30.9	-34.4	13.1	1.44e-05	0	43	0	354418688	21	5404
2026-01-15 01:39:08.69	350.79	24.54	-31.0	-34.6	13.0	3.66e-05	0	43	0	356515840	21	5474
2026-01-15 01:39:09.70	350.59	24.65	-31.1	-34.6	12.7	1.94e-03	0	43	0	358612992	22	5364
2026-01-15 01:39:10.70	350.38	24.76	-31.1	-34.6	12.6	2.03e-03	0	43	0	360710144	22	5375
2026-01-15 01:39:11.70	350.18	24.87	-31.3	-35.0	12.4	8.77e-05	0	43	0	362807296	22	5534
2026-01-15 01:39:12.71	349.97	24.99	-31.3	-35.0	12.4	2.32e-03	0	43	0	363855872	22	5514
2026-01-15 01:39:13.72	349.76	25.10	-31.4	-35.3	12.2	2.24e-03	0	43	0	365953024	22	5664
2026-01-15 01:39:14.72	349.55	25.21	-31.4	-35.3	12.2	2.55e-04	0	43	0	368050176	22	5638
2026-01-15 01:39:15.73	349.33	25.32	-31.3	-35.1	12.3	2.18e-03	0	43	0	370147328	22	5584
2026-01-15 01:39:16.73	349.12	25.43	-31.4	-35.3	12.2	2.24e-03	0	43	0	372244480	22	5660
2026-01-15 01:39:17.73	348.90	25.54	-31.5	-35.6	12.0	4.88e-04	0	43	0	373293056	22	5782
2026-01-15 01:39:18.74	348.68	25.66	-31.6	-35.6	11.7	4.05e-04	0	43	0	375390208	23	5665
2026-01-15 01:39:19.74	348.47	25.77	-31.7	-35.7	11.6	2.48e-03	0	43	0	377487360	23	5727
2026-01-15 01:39:20.74	348.25	25.88	-31.7	-35.9	11.4	9.35e-04	0	43	0	379584512	23	5827
2026-01-15 01:39:21.75	348.02	25.99	-31.7	-35.8	11.5	1.97e-03	0	43	0	381681664	23	5761
2026-01-15 01:39:22.76	347.80	26.10	-31.6	-35.4	11.7	1.10e-03	0	43	0	382730240	23	5584
2026-01-15 01:39:23.76	347.57	26.21	-31.5	-35.2	11.9	4.65e-04	0	43	0	384827392	23	5493
2026-01-15 01:39:24.76	347.35	26.33	-31.5	-35.1	11.9	4.28e-04	0	43	0	386924544	23	5476
2026-01-15 01:39:25.77	347.12	26.44	-31.4	-34.9	12.2	4.00e-04	0	43	0	389021696	23	5366
2026-01-15 01:39:26.77	346.89	26.55	-31.5	-35.1	12.0	2.87e-04	0	43	0	391118848	23	5481
2026-01-15 01:39:27.77	346.66	26.66	-31.5	-35.3	11.9	4.34e-04	0	43	0	392167424	23	5543
2026-01-15 01:39:28.78	346.42	26.77	-31.6	-35.4	11.7	4.15e-04	0	43	0	394264576	23	5611
2026-01-15 01:39:29.78	346.19	26.88	-31.6	-35.4	11.8	4.88e-04	0	43	0	396361728	23	5607
2026-01-15 01:39:30.77	345.95	26.99	-31.6	-35.5	11.7	5.26e-04	0	43	0	398458880	23	5641
2026-01-15 01:39:31.78	345.71	27.10	-31.6	-35.4	11.8	9.38e-04	0	43	0	400556032	23	5578
2026-01-15 01:39:32.77	345.48	27.21	-31.5	-35.3	11.8	4.15e-04	0	43	0	401604608	23	5540
2026-01-15 01:39:33.77	345.23	27.32	-31.6	-35.4	11.8	2.29e-03	0	43	0	403701760	23	5600
2026-01-15 01:39:34.78	344.99	27.44	-31.7	-35.8	11.5	2.45e-03	0	43	0	405798912	23	5759
2026-01-15 01:39:35.77	344.75	27.54	-31.6	-35.5	11.7	8.02e-04	0	43	0	407896064	23	5655
2026-01-15 01:39:36.77	344.50	27.65	-31.6	-35.3	11.9	2.49e-03	0	43	0	408944640	23	5546
2026-01-15 01:39:37.77	344.25	27.76	-31.5	-35.1	12.0	2.20e-03	0	43	0	411041792	23	5448
2026-01-15 01:39:38.78	344.00	27.88	-31.5	-35.1	12.0	2.97e-04	0	43	0	413138944	23	5443
2026-01-15 01:39:39.78	343.75	27.99	-31.5	-35.5	12.0	7.41e-04	0	43	0	415236096	22	5742
2026-01-15 01:39:40.78	343.50	28.09	-31.6	-35.4	11.8	2.53e-03	0	43	0	417333248	23	5576
2026-01-15 01:39:41.79	343.24	28.20	-31.7	-35.7	11.6	5.28e-04	0	43	0	418381824	23	5712
2026-01-15 01:39:42.79	342.98	28.31	-31.7	-35.6	11.6	2.43e-03	0	43	0	420478976	23	5688
2026-01-15 01:39:43.79	342.72	28.42	-31.5	-35.3	11.9	1.72e-03	0	43	0	422576128	23	5519
2026-01-15 01:39:44.79	342.46	28.53	-31.4	-35.0	12.1	3.26e-04	0	43	0	424673280	23	5401
2026-01-15 01:39:45.79	342.20	28.64	-31.5	-35.2	11.9	2.14e-03	0	43	0	426770432	23	5505
2026-01-15 01:39:46.79	341.94	28.75	-31.5	-35.1	12.0	9.61e-04	0	43	0	427819008	23	5438
2026-01-15 01:39:47.80	341.67	28.86	-31.5	-35.2	11.9	3.66e-04	0	43	0	429916160	23	5509
2026-01-15 01:39:48.80	341.40	28.96	-31.5	-35.2	12.0	2.40e-03	0	43	0	432013312	23	5496
2026-01-15 01:39:49.80	341.13	29.07	-31.5	-35.1	12.0	1.27e-03	0	43	0	434110464	23	5470
2026-01-15 01:39:50.80	340.86	29.18	-31.5	-35.0	12.1	2.79e-04	0	43	0	436207616	23	5424
2026-01-15 01:39:51.81	340.59	29.29	-31.5	-35.1	12.0	3.02e-03	0	43	0	437256192	23	5448
2026-01-15 01:39:52.80	340.31	29.39	-31.6	-35.6	11.7	1.88e-03	0	43	0	439353344	23	5653
2026-01-15 01:39:53.81	340.03	29.50	-31.7	-35.9	11.5	8.65e-04	0	43	0	441450496	23	5793
2026-01-15 01:39:54.80	339.76	29.60	-31.8	-36.1	11.4	3.37e-03	0	43	0	443547648	23	5890
2026-01-15 01:39:55.80	339.48	29.71	-31.8	-36.2	11.3	1.77e-03	0	43	0	445644800	23	5934
2026-01-15 01:39:56.80	339.20	29.81	-31.9	-36.4	11.2	1.34e-03	0	43	0	446693376	23	6029
2026-01-15 01:39:57.81	338.91	29.92	-32.0	-36.7	10.9	2.44e-03	0	43	0	448790528	23	6164
2026-01-15 01:39:58.81	338.62	30.02	-32.0	-36.3	10.8	3.35e-03	0	43	0	450887680	24	5887
2026-01-15 01:39:59.80	338.34	30.12	-32.3	-37.3	10.1	3.35e-03	0	44	0	452984832	24	6381
2026-01-15 01:40:00.80	338.05	30.23	-32.3	-37.4	10.0	8.26e-03	0	43	0	454033408	24	6438
2026-01-15 01:40:01.81	337.75	30.33	-32.5	-37.6	9.4	1.05e-02	0	43	0	456130560	25	6471
2026-01-15 01:40:02.81	337.46	30.43	-32.6	-37.7	9.3	1.63e-02	0	43	0	458227712	25	6528
2026-01-15 01:40:03.81	337.17	30.53	-32.6	-37.9	9.1	2.03e-02	0	43	0	460324864	25	6643
2026-01-15 01:40:04.82	336.87	30.64	-32.5	-37.6	9.4	2.11e-02	0	43	0	462422016	25	6445
2026-01-15 01:40:05.82	336.57	30.74	-32.6	-37.9	9.3	1.57e-02	0	43	0	463470592	25	6622
2026-01-15 01:40:06.82	336.27	30.84	-32.7	-38.1	9.1	1.87e-02	0	43	0	465567744	25	6708
2026-01-15 01:40:07.82	335.96	30.94	-32.7	-38.3	8.9	2.61e-02	0	43	0	467664896	25	6821
2026-01-15 01:40:08.83	335.66	31.04	-32.7	-38.3	8.9	2.89e-02	0	43	0	469762048	25	6863
2026-01-15 01:40:09.83	335.35	31.14	-32.8	-38.6	8.7	3.35e-02	0	43	0	471859200	25	7032
2026-01-15 01:40:10.83	335.04	31.23	-32.8	-38.6	8.8	4.19e-02	0	43	0	472907776	25	7046
2026-01-15 01:40:11.83	334.73	31.33	-32.8	-38.7	8.7	3.43e-02	0	43	0	475004928	25	7088
2026-01-15 01:40:12.84	334.41	31.43	-32.9	-39.0	8.4	3.85e-02	0	43	0	477102080	25	7301
2026-01-15 01:40:13.84	334.10	31.52	-32.8	-38.7	8.6	4.12e-02	0	43	0	479199232	25	7079
2026-01-15 01:40:14.85	333.78	31.62	-32.8	-38.5	8.7	3.50e-02	0	43	0	481296384	25	6980
2026-01-15 01:40:15.86	333.46	31.71	-32.7	-38.3	8.9	2.83e-02	0	43	0	482344960	25	6854
2026-01-15 01:40:16.86	333.14	31.81	-32.8	-38.5	8.7	3.43e-02	0	43	0	484442112	25	6999
2026-01-15 01:40:17.86	332.82	31.90	-32.9	-38.9	8.5	3.84e-02	0	43	0	486539264	25	7219
2026-01-15 01:40:18.86	332.50	31.99	-33.0	-39.5	8.1	5.02e-02	0	43	0	488636416	25	7607
2026-01-15 01:40:19.87	332.17	32.09	-33.0	-38.8	8.1	6.74e-02	0	43	0	490733568	26	7035
2026-01-15 01:40:20.87	331.84	32.18	-33.0	-39.1	7.9	7.26e-02	0	44	0	491782144	26	7271
2026-01-15 01:40:21.87	331.51	32.27	-33.0	-39.0	8.0	7.09e-02	0	43	0	493879296	26	7183
2026-01-15 01:40:22.87	331.18	32.36	-33.0	-39.1	8.0	6.38e-02	0	43	0	495976448	26	7206
2026-01-15 01:40:23.87	330.85	32.44	-33.0	-39.2	7.8	7.22e-02	0	43	0	498073600	26	7280
2026-01-15 01:40:24.87	330.51	32.53	-33.0	-39.0	8.1	6.35e-02	0	43	0	499122176	26	7143
2026-01-15 01:40:25.87	330.18	32.62	-32.9	-38.9	8.5	5.02e-02	0	43	0	501219328	25	7226
2026-01-15 01:40:26.88	329.83	32.71	-32.7	-38.1	9.0	3.87e-02	0	43	0	503316480	25	6710
2026-01-15 01:40:27.88	329.49	32.79	-32.6	-37.8	9.3	2.06e-02	0	43	0	505413632	25	6579
2026-01-15 01:40:28.88	329.15	32.87	-32.5	-37.5	9.5	1.51e-02	0	43	0	507510784	25	6405
2026-01-15 01:40:29.88	328.81	32.96	-32.6	-37.9	9.3	1.45e-02	0	43	0	508559360	25	6583
2026-01-15 01:40:30.88	328.46	33.04	-32.5	-37.4	9.7	1.29e-02	0	43	0	510656512	25	6311
2026-01-15 01:40:31.88	328.12	33.12	-32.6	-37.7	9.4	1.35e-02	0	43	0	512753664	25	6471
2026-01-15 01:40:32.88	327.77	33.20	-32.5	-37.3	9.7	1.64e-02	0	43	0	514850816	25	6278
2026-01-15 01:40:33.88	327.42	33.28	-32.4	-37.5	9.9	1.02e-02	0	43	0	516947968	24	6511
2026-01-15 01:40:34.88	327.06	33.36	-32.5	-37.8	9.7	9.95e-03	0	43	0	517996544	24	6681
2026-01-15 01:40:35.89	326.71	33.44	-32.3	-37.2	9.6	7.70e-03	0	43	0	520093696	24	6339
2026-01-15 01:40:36.90	326.35	33.51	-32.3	-37.2	9.8	7.24e-03	0	43	0	522190848	24	6327
2026-01-15 01:40:37.90	325.99	33.59	-32.3	-37.1	10.2	6.51e-03	0	43	0	524288000	24	6293
2026-01-15 01:40:38.90	325.63	33.66	-32.2	-36.7	10.4	5.07e-03	0	43	0	526385152	24	6103
2026-01-15 01:40:39.90	325.27	33.73	-32.0	-36.3	10.9	3.52e-03	0	43	0	527433728	24	5875
2026-01-15 01:40:40.90	324.91	33.81	-32.0	-36.1	11.0	2.10e-03	0	44	0	529530880	24	5782
2026-01-15 01:40:41.91	324.54	33.88	-31.9	-36.2	11.2	1.42e-03	0	43	0	531628032	23	5940
2026-01-15 01:40:42.91	324.18	33.95	-31.7	-35.7	11.7	1.22e-03	0	44	0	533725184	23	5700
2026-01-15 01:40:43.92	323.80	34.01	-31.6	-35.5	11.8	9.17e-04	0	43	0	535822336	23	5631
2026-01-15 01:40:44.92	323.44	34.08	-31.5	-35.3	12.0	1.28e-03	0	43	0	536870912	23	5523
2026-01-15 01:40:45.93	323.06	34.15	-31.6	-35.5	11.8	7.74e-04	0	43	0	538968064	23	5604
2026-01-15 01:40:46.93	322.69	34.21	-31.5	-35.1	12.1	8.54e-04	0	43	0	541065216	23	5427
2026-01-15 01:40:47.94	322.31	34.28	-31.4	-35.3	12.3	2.65e-03	0	43	0	543162368	22	5650
2026-01-15 01:40:48.94	321.94	34.34	-31.4	-35.4	12.2	2.33e-04	0	43	0	545259520	22	5672
2026-01-15 01:40:49.94	321.56	34.40	-31.4	-35.2	12.4	3.94e-04	0	43	0	546308096	22	5605
2026-01-15 01:40:50.94	321.19	34.46	-31.4	-35.4	12.2	1.94e-04	0	43	0	548405248	22	5705
2026-01-15 01:40:51.94	320.81	34.52	-31.3	-34.9	12.5	2.30e-03	0	43	0	550502400	22	5486
2026-01-15 01:40:52.95	320.42	34.57	-31.5	-35.5	12.2	3.52e-04	0	43	0	552599552	22	5702
2026-01-15 01:40:53.95	320.04	34.63	-31.3	-35.0	12.5	2.01e-04	0	43	0	554696704	22	5510
2026-01-15 01:40:54.95	319.66	34.68	-31.2	-34.7	12.7	2.59e-03	0	43	0	555745280	22	5400
2026-01-15 01:40:55.95	319.27	34.73	-31.1	-34.4	12.9	4.80e-05	0	43	0	557842432	22	5287
2026-01-15 01:40:56.96	318.89	34.79	-31.1	-34.3	13.0	3.43e-05	0	43	0	559939584	22	5234
2026-01-15 01:40:57.96	318.50	34.84	-31.2	-34.6	12.7	1.95e-03	0	43	0	562036736	22	5350
2026-01-15 01:40:58.97	318.11	34.88	-31.1	-34.3	12.9	1.66e-04	0	43	0	563085312	22	5227
2026-01-15 01:40:59.97	317.72	34.93	-31.2	-34.6	12.8	4.42e-05	0	43	0	565182464	22	5342
2026-01-15 01:41:00.97	317.33	34.98	-31.1	-34.5	12.8	8.62e-05	0	43	0	567279616	22	5304
2026-01-15 01:41:01.98	316.93	35.02	-31.0	-34.1	13.1	4.04e-05	0	43	0	569376768	22	5132
2026-01-15 01:41:02.98	316.54	35.06	-30.9	-34.4	13.2	1.94e-03	0	43	0	571473920	21	5391
2026-01-15 01:41:03.98	316.15	35.11	-30.6	-33.5	13.8	1.57e-04	0	43	0	572522496	21	5027
2026-01-15 01:41:04.98	315.75	35.15	-30.4	-33.6	14.0	2.70e-04	0	43	0	574619648	20	5178
2026-01-15 01:41:05.98	315.36	35.18	-30.4	-33.5	14.1	7.00e-07	0	43	0	576716800	20	5151
2026-01-15 01:41:06.98	314.96	35.22	-30.4	-33.6	14.1	2.20e-06	0	43	0	578813952	20	5176
2026-01-15 01:41:07.98	314.57	35.26	-30.4	-33.5	14.1	1.50e-06	0	43	0	580911104	20	5165
2026-01-15 01:41:08.97	314.17	35.29	-30.4	-33.6	14.0	3.52e-04	0	43	0	581959680	20	5193
2026-01-15 01:41:09.98	313.77	35.32	-30.2	-33.0	14.4	1.19e-03	0	43	0	584056832	20	4986
2026-01-15 01:41:10.98	313.37	35.35	-30.1	-32.6	14.7	0.00e+00	0	44	0	586153984	20	4839
2026-01-15 01:41:11.98	312.97	35.38	-30.0	-32.5	14.8	1.99e-03	0	43	0	588251136	20	4785
2026-01-15 01:41:12.98	312.57	35.41	-30.1	-32.7	14.7	2.31e-03	0	43	0	590348288	20	4873
2026-01-15 01:41:13.99	312.16	35.43	-29.9	-32.4	14.7	3.36e-04	0	44	0	591396864	20	4785
2026-01-15 01:41:14.99	311.76	35.46	-29.9	-32.9	14.8	0.00e+00	0	43	0	593494016	19	5087
2026-01-15 01:41:15.99	311.36	35.48	-29.9	-32.8	14.9	1.84e-03	0	43	0	595591168	19	5026
2026-01-15 01:41:16.99	310.96	35.50	-29.9	-32.3	14.8	1.84e-04	0	43	0	597688320	20	4732
2026-01-15 01:41:18.00	310.55	35.52	-30.1	-32.7	14.6	0.00e+00	0	44	0	599785472	20	4878
2026-01-15 01:41:19.00	310.14	35.54	-30.0	-32.4	14.8	2.05e-03	0	43	0	600834048	20	4778
2026-01-15 01:41:20.00	309.74	35.55	-30.1	-32.8	14.6	1.74e-04	0	43	0	602931200	20	4905
2026-01-15 01:41:21.01	309.33	35.57	-30.4	-33.5	14.1	2.15e-03	0	43	0	605028352	20	5154
2026-01-15 01:41:22.00	308.93	35.58	-30.4	-33.5	14.2	2.43e-03	0	43	0	607125504	20	5150
2026-01-15 01:41:23.01	308.52	35.59	-30.6	-33.5	13.8	1.98e-04	0	43	0	608174080	21	5040
2026-01-15 01:41:24.01	308.11	35.60	-30.8	-34.1	13.4	2.42e-03	0	43	0	610271232	21	5281
2026-01-15 01:41:25.00	307.71	35.61	-30.7	-33.8	13.6	2.40e-03	0	43	0	612368384	21	5144
2026-01-15 01:41:26.01	307.30	35.62	-30.9	-34.3	13.3	1.20e-04	0	44	0	614465536	21	5330
2026-01-15 01:41:27.01	306.89	35.62	-30.8	-34.1	13.4	2.35e-03	0	43	0	616562688	21	5273
2026-01-15 01:41:28.02	306.48	35.62	-30.8	-34.0	13.5	2.18e-03	0	44	0	617611264	21	5224
2026-01-15 01:41:29.01	306.08	35.63	-30.9	-34.3	13.3	1.46e-04	0	44	0	619708416	21	5360
2026-01-15 01:41:30.01	305.67	35.63	-30.7	-33.8	13.6	2.12e-03	0	43	0	621805568	21	5150
2026-01-15 01:41:31.01	305.27	35.62	-30.7	-33.9	13.5	2.38e-03	0	43	0	623902720	21	5205
2026-01-15 01:41:32.01	304.86	35.62	-30.8	-34.2	13.3	4.73e-05	0	43	0	625999872	21	5304
2026-01-15 01:41:33.01	304.45	35.61	-30.9	-34.4	13.2	2.37e-03	0	43	0	627048448	21	5389
2026-01-15 01:41:34.01	304.05	35.61	-30.8	-34.2	13.3	2.31e-03	0	43	0	629145600	21	5313
2026-01-15 01:41:35.01	303.64	35.60	-30.8	-34.2	13.3	1.67e-05	0	43	0	631242752	21	5315
2026-01-15 01:41:36.02	303.23	35.59	-30.9	-34.2	13.3	2.05e-05	0	43	0	633339904	21	5312
2026-01-15 01:41:37.02	302.83	35.58	-30.8	-34.2	13.3	2.04e-03	0	43	0	635437056	21	5303
2026-01-15 01:41:38.03	302.42	35.56	-30.9	-34.4	13.2	1.44e-05	0	43	0	636485632	21	5374
2026-01-15 01:41:39.03	302.01	35.55	-30.8	-34.0	13.5	1.06e-05	0	43	0	638582784	21	5227
2026-01-15 01:41:40.02	301.61	35.53	-30.8	-34.1	13.4	2.15e-03	0	43	0	640679936	21	5282
2026-01-15 01:41:41.03	301.20	35.51	-30.9	-34.5	13.2	2.05e-05	0	43	0	642777088	21	5420
2026-01-15 01:41:42.03	300.80	35.49	-31.1	-34.3	12.9	2.39e-03	0	44	0	643825664	22	5245
2026-01-15 01:41:43.03	300.40	35.47	-31.3	-34.9	12.5	6.94e-05	0	44	0	645922816	22	5493
2026-01-15 01:41:44.03	299.99	35.45	-31.2	-34.7	12.7	1.88e-04	0	43	0	648019968	22	5391
2026-01-15 01:41:45.04	299.59	35.42	-31.1	-34.3	12.9	1.15e-03	0	44	0	650117120	22	5240
2026-01-15 01:41:46.04	299.19	35.40	-30.9	-34.0	13.1	3.28e-05	0	44	0	652214272	22	5119
2026-01-15 01:41:47.05	298.78	35.37	-31.0	-34.3	13.0	3.89e-05	0	44	0	653262848	22	5226
2026-01-15 01:41:48.06	298.38	35.34	-31.3	-35.1	12.3	6.92e-04	0	43	0	655360000	22	5579
2026-01-15 01:41:49.06	297.98	35.31	-31.5	-35.1	11.8	5.82e-04	0	43	0	657457152	23	5451
2026-01-15 01:41:50.06	297.58	35.28	-31.6	-35.3	11.9	3.52e-04	0	43	0	659554304	23	5557
2026-01-15 01:41:51.06	297.18	35.24	-31.8	-36.1	11.2	2.65e-03	0	43	0	661651456	23	5881
2026-01-15 01:41:52.07	296.78	35.21	-31.7	-35.7	11.5	2.90e-03	0	43	0	662700032	23	5728
2026-01-15 01:41:53.07	296.38	35.17	-31.7	-35.8	11.6	7.63e-04	0	44	0	664797184	23	5734
2026-01-15 01:41:54.08	295.99	35.13	-31.7	-35.7	11.6	7.09e-04	0	44	0	666894336	23	5732
2026-01-15 01:41:55.08	295.59	35.09	-31.5	-35.3	12.0	2.33e-03	0	43	0	668991488	23	5526
2026-01-15 01:41:56.08	295.20	35.05	-31.5	-35.2	12.0	2.98e-04	0	43	0	671088640	23	5480
2026-01-15 01:41:57.09	294.80	35.00	-31.6	-35.3	11.8	3.62e-04	0	44	0	672137216	23	5548
2026-01-15 01:41:58.09	294.41	34.96	-31.4	-34.9	12.2	2.40e-04	0	43	0	674234368	23	5366
2026-01-15 01:41:59.09	294.02	34.91	-31.6	-35.3	11.9	3.76e-04	0	44	0	676331520	23	5529
2026-01-15 01:42:00.09	293.63	34.87	-31.8	-36.0	11.4	7.03e-04	0	43	0	678428672	23	5853
2026-01-15 01:42:01.10	293.24	34.82	-32.1	-36.6	10.7	2.11e-03	0	44	0	680525824	24	6019
2026-01-15 01:42:02.10	292.85	34.77	-32.1	-36.7	10.5	3.97e-03	0	44	0	681574400	24	6104
2026-01-15 01:42:03.11	292.46	34.71	-32.2	-37.0	10.3	5.54e-03	0	44	0	683671552	24	6239
2026-01-15 01:42:04.10	292.08	34.66	-31.9	-36.0	11.0	2.85e-03	0	43	0	685768704	24	5766
2026-01-15 01:42:05.11	291.70	34.61	-31.7	-35.7	11.6	1.10e-03	0	43	0	687865856	23	5701
2026-01-15 01:42:06.11	291.32	34.55	-31.5	-35.2	11.9	6.37e-04	0	43	0	689963008	23	5517
2026-01-15 01:42:07.11	290.94	34.49	-31.6	-35.3	11.8	4.78e-04	0	43	0	691011584	23	5556
2026-01-15 01:42:08.11	290.56	34.43	-31.5	-35.1	12.0	3.38e-04	0	43	0	693108736	23	5460
2026-01-15 01:42:09.11	290.18	34.37	-31.6	-35.4	11.7	9.88e-04	0	43	0	695205888	23	5609
2026-01-15 01:42:10.12	289.80	34.31	-31.5	-35.3	11.9	4.87e-04	0	43	0	697303040	23	5542
2026-01-15 01:42:11.11	289.43	34.25	-31.7	-35.8	11.5	5.78e-04	0	43	0	698351616	23	5761
2026-01-15 01:42:12.12	289.05	34.19	-31.8	-35.9	11.4	8.60e-04	0	44	0	700448768	23	5824
2026-01-15 01:42:13.12	288.68	34.12	-31.9	-36.4	11.1	1.82e-03	0	44	0	702545920	23	6052
2026-01-15 01:42:14.12	288.31	34.06	-31.8	-36.1	11.2	1.33e-03	0	44	0	704643072	23	5914
2026-01-15 01:42:15.12	287.94	33.99	-31.6	-35.4	11.8	9.49e-04	0	43	0	706740224	23	5595
2026-01-15 01:42:16.12	287.57	33.92	-31.4	-35.4	12.1	3.65e-04	0	43	0	707788800	22	5705
2026-01-15 01:42:17.13	287.20	33.85	-31.4	-35.3	12.2	2.66e-04	0	43	0	709885952	22	5645
2026-01-15 01:42:18.13	286.84	33.78	-31.2	-34.8	12.5	2.00e-04	0	43	0	711983104	22	5457
2026-01-15 01:42:19.13	286.48	33.71	-31.2	-34.7	12.6	9.30e-05	0	44	0	714080256	22	5421
2026-01-15 01:42:20.13	286.12	33.63	-31.1	-34.6	12.6	8.85e-05	0	43	0	716177408	22	5367
2026-01-15 01:42:21.13	285.76	33.56	-31.1	-34.5	12.7	2.82e-04	0	43	0	717225984	22	5320
2026-01-15 01:42:22.14	285.40	33.48	-31.1	-34.6	12.6	6.94e-05	0	43	0	719323136	22	5360
2026-01-15 01:42:23.14	285.04	33.41	-31.1	-34.5	12.6	9.15e-05	0	43	0	721420288	22	5331
2026-01-15 01:42:24.14	284.69	33.33	-31.1	-34.5	12.7	9.91e-05	0	43	0	723517440	22	5324
2026-01-15 01:42:25.14	284.33	33.25	-31.2	-34.7	12.6	7.24e-05	0	43	0	725614592	22	5415
2026-01-15 01:42:26.15	283.98	33.17	-30.2	-33.9	12.4	8.92e-05	0	44	0	726663168	22	5478
2026-01-15 01:42:27.15	283.63	33.09	-31.3	-35.2	11.9	1.90e-04	0	43	0	728760320	22	5634
2026-01-15 01:42:28.14	283.29	33.01	-31.4	-35.4	12.1	2.82e-04	0	43	0	730857472	22	5712
2026-01-15 01:42:29.14	282.94	32.92	-31.4	-35.3	12.1	2.58e-04	0	43	0	732954624	22	5668
2026-01-15 01:42:30.14	282.60	32.84	-31.4	-35.5	12.0	2.78e-04	0	43	0	734003200	22	5760
2026-01-15 01:42:31.14	282.26	32.76	-31.4	-35.4	12.1	4.17e-04	0	43	0	736100352	22	5705
2026-01-15 01:42:32.14	281.92	32.67	-31.5	-35.3	11.7	4.03e-04	0	43	0	738197504	23	5563
2026-01-15 01:42:33.14	281.58	32.59	-31.7	-36.0	11.2	7.92e-04	0	43	0	740294656	23	5863
2026-01-15 01:42:34.15	281.24	32.50	-31.7	-35.7	11.4	1.12e-03	0	43	0	742391808	23	5749
2026-01-15 01:42:35.15	280.90	32.41	-31.7	-35.8	11.4	9.94e-04	0	43	0	743440384	23	5788
2026-01-15 01:42:36.15	280.57	32.32	-31.7	-36.0	11.2	1.11e-03	0	43	0	745537536	23	5872
2026-01-15 01:42:37.15	280.24	32.23	-31.8	-36.2	11.1	2.04e-03	0	43	0	747634688	23	5977
2026-01-15 01:42:38.16	279.91	32.14	-31.9	-36.4	10.9	2.08e-03	0	43	0	749731840	23	6079
2026-01-15 01:42:39.17	279.58	32.05	-31.7	-35.9	11.2	2.01e-03	0	43	0	751828992	23	5841
2026-01-15 01:42:40.17	279.25	31.95	-31.7	-35.8	11.4	1.15e-03	0	43	0	752877568	23	5792
2026-01-15 01:42:41.17	278.93	31.86	-31.7	-35.8	11.4	9.10e-04	0	43	0	754974720	23	5788
2026-01-15 01:42:42.18	278.60	31.77	-31.7	-35.9	11.3	1.19e-03	0	43	0	757071872	23	5840
2026-01-15 01:42:43.19	278.28	31.67	-31.7	-35.9	11.3	1.26e-03	0	43	0	759169024	23	5831
2026-01-15 01:42:44.19	277.96	31.58	-32.0	-36.8	10.6	5.30e-03	0	43	0	761266176	23	6247
2026-01-15 01:42:45.19	277.64	31.48	-31.9	-36.6	10.7	3.13e-03	0	43	0	762314752	23	6195
2026-01-15 01:42:46.19	277.33	31.39	-32.1	-36.7	10.3	3.81e-03	0	43	0	764411904	24	6121
2026-01-15 01:42:47.19	277.02	31.29	-32.2	-37.0	10.1	9.22e-03	0	43	0	766509056	24	6261
2026-01-15 01:42:48.19	276.71	31.19	-32.0	-36.6	10.5	6.85e-03	0	43	0	768606208	24	6060
2026-01-15 01:42:49.19	276.40	31.09	-31.9	-36.1	10.7	3.93e-03	0	43	0	770703360	24	5850
2026-01-15 01:42:50.19	276.09	30.99	-31.8	-36.2	11.0	2.44e-03	0	44	0	771751936	23	5981
2026-01-15 01:42:51.18	275.79	30.90	-31.6	-35.7	11.3	3.57e-03	0	43	0	773849088	23	5776
2026-01-15 01:42:52.19	275.48	30.79	-31.6	-35.7	11.4	1.09e-03	0	43	0	775946240	23	5765
2026-01-15 01:42:53.18	275.18	30.69	-31.6	-35.6	11.4	8.68e-04	0	43	0	778043392	23	5729
2026-01-15 01:42:54.19	274.88	30.59	-31.6	-35.8	11.4	3.62e-03	0	43	0	779091968	23	5787
2026-01-15 01:42:55.19	274.58	30.49	-31.6	-35.6	11.4	1.12e-03	0	43	0	781189120	23	5700
2026-01-15 01:42:56.18	274.29	30.39	-31.6	-35.7	11.4	1.05e-03	0	43	0	783286272	23	5757
2026-01-15 01:42:57.19	274.00	30.29	-31.6	-35.7	11.4	1.16e-03	0	43	0	785383424	23	5778
2026-01-15 01:42:58.19	273.70	30.18	-31.6	-35.6	11.4	9.23e-04	0	43	0	787480576	23	5747
2026-01-15 01:42:59.19	273.41	30.08	-31.6	-35.6	11.5	2.74e-03	0	43	0	789577728	23	5711
2026-01-15 01:43:00.19	273.13	29.98	-31.5	-35.3	11.6	6.64e-04	0	43	0	790626304	23	5599
2026-01-15 01:43:01.20	272.84	29.87	-31.5	-35.5	11.5	7.70e-04	0	43	0	792723456	23	5673
2026-01-15 01:43:02.20	272.55	29.77	-31.5	-35.5	11.4	2.89e-03	0	43	0	794820608	23	5681
2026-01-15 01:43:03.19	272.27	29.66	-31.5	-35.5	11.4	8.89e-04	0	43	0	796917760	23	5666
2026-01-15 01:43:04.20	271.99	29.55	-31.8	-36.2	10.9	1.68e-03	0	43	0	797966336	23	5991
2026-01-15 01:43:05.20	271.71	29.45	-31.7	-36.0	11.1	4.05e-03	0	43	0	800063488	23	5930
2026-01-15 01:43:06.21	271.43	29.34	-31.8	-36.4	10.8	4.40e-03	0	43	0	802160640	23	6103
2026-01-15 01:43:07.21	271.16	29.23	-31.8	-36.4	10.9	2.70e-03	0	43	0	804257792	23	6086
2026-01-15 01:43:08.21	270.88	29.13	-31.7	-36.0	11.1	3.91e-03	0	44	0	806354944	23	5912
2026-01-15 01:43:09.21	270.61	29.02	-31.6	-35.6	11.3	3.76e-03	0	43	0	807403520	23	5739
2026-01-15 01:43:10.22	270.34	28.91	-31.5	-35.2	11.6	7.90e-04	0	43	0	809500672	23	5565
2026-01-15 01:43:11.21	270.07	28.80	-31.3	-35.1	12.0	2.41e-03	0	43	0	811597824	22	5625
2026-01-15 01:43:12.22	269.81	28.69	-31.3	-35.4	11.9	2.38e-03	0	43	0	813694976	22	5719
2026-01-15 01:43:13.22	269.54	28.59	-31.4	-35.5	11.8	4.52e-04	0	43	0	815792128	22	5770
2026-01-15 01:43:14.22	269.28	28.48	-31.3	-35.1	12.1	3.71e-04	0	43	0	816840704	22	5615
2026-01-15 01:43:15.23	269.02	28.37	-31.2	-34.9	12.2	2.43e-03	0	43	0	818937856	22	5524
2026-01-15 01:43:16.23	268.76	28.26	-31.2	-35.0	12.2	2.01e-04	0	43	0	821035008	22	5545
2026-01-15 01:43:17.23	268.50	28.15	-31.2	-34.8	12.3	2.33e-03	0	43	0	823132160	22	5476
2026-01-15 01:43:18.24	268.24	28.04	-30.9	-34.5	12.8	2.39e-03	0	43	0	825229312	21	5462
2026-01-15 01:43:19.25	267.99	27.93	-30.7	-34.0	13.1	3.73e-05	0	43	0	826277888	21	5266
2026-01-15 01:43:20.25	267.73	27.82	-30.7	-34.0	13.1	1.68e-03	0	44	0	828375040	21	5282
2026-01-15 01:43:21.25	267.48	27.71	-30.8	-34.2	13.0	2.82e-05	0	43	0	830472192	21	5339
2026-01-15 01:43:22.26	267.23	27.59	-30.9	-34.6	12.8	6.48e-05	0	43	0	832569344	21	5533
2026-01-15 01:43:23.26	266.99	27.48	-30.9	-34.7	12.7	8.85e-05	0	43	0	834666496	21	5551
2026-01-15 01:43:24.27	266.74	27.37	-30.9	-34.7	12.6	9.53e-05	0	43	0	835715072	21	5576
2026-01-15 01:43:25.27	266.50	27.26	-31.1	-34.6	12.5	1.22e-04	0	43	0	837812224	22	5384
2026-01-15 01:43:26.27	266.26	27.15	-31.0	-34.5	12.4	1.63e-04	0	43	0	839909376	22	5371
2026-01-15 01:43:27.27	266.02	27.04	-30.7	-33.9	13.2	7.24e-04	0	43	0	842006528	21	5240
2026-01-15 01:43:28.28	265.78	26.93	-30.4	-33.2	13.6	8.30e-06	0	43	0	843055104	21	4960
2026-01-15 01:43:29.29	265.54	26.82	-30.1	-32.9	14.2	1.72e-03	0	43	0	845152256	20	4957
2026-01-15 01:43:30.29	265.30	26.70	-30.0	-32.7	14.2	2.61e-03	0	43	0	847249408	20	4904
2026-01-15 01:43:31.29	265.07	26.59	-30.1	-33.0	14.0	2.20e-06	0	43	0	849346560	20	5013
2026-01-15 01:43:32.29	264.84	26.48	-29.8	-32.2	14.6	0.00e+00	0	43	0	851443712	20	4727
2026-01-15 01:43:33.29	264.61	26.37	-29.9	-32.8	14.6	3.19e-03	0	43	0	852492288	19	5025
2026-01-15 01:43:34.29	264.38	26.26	-29.9	-32.5	14.4	1.52e-03	0	43	0	854589440	20	4830
2026-01-15 01:43:35.29	264.15	26.15	-29.8	-32.6	14.6	0.00e+00	0	43	0	856686592	19	4985
2026-01-15 01:43:36.29	263.93	26.03	-29.6	-32.0	15.0	2.30e-03	0	44	0	858783744	19	4774
2026-01-15 01:43:37.28	263.71	25.92	-29.4	-31.7	15.2	2.03e-03	0	43	0	860880896	19	4670
2026-01-15 01:43:38.28	263.49	25.81	-29.3	-31.9	15.4	2.11e-03	0	43	0	861929472	18	4846
2026-01-15 01:43:39.29	263.26	25.70	-29.3	-31.8	15.5	0.00e+00	0	43	0	864026624	18	4801
2026-01-15 01:43:40.28	263.05	25.59	-29.3	-31.8	15.5	0.00e+00	0	43	0	866123776	18	4803
2026-01-15 01:43:41.28	262.83	25.48	-29.1	-31.5	15.7	0.00e+00	0	43	0	868220928	18	4720
2026-01-15 01:43:42.28	262.61	25.37	-29.2	-31.6	15.5	0.00e+00	0	43	0	869269504	18	4759
2026-01-15 01:43:43.29	262.40	25.25	-29.4	-32.0	15.3	0.00e+00	0	43	0	871366656	18	4898
2026-01-15 01:43:44.29	262.19	25.14	-29.2	-31.7	15.5	1.24e-03	0	43	0	873463808	18	4778
2026-01-15 01:43:45.30	261.97	25.03	-29.3	-32.0	15.4	0.00e+00	0	43	0	875560960	18	4869
2026-01-15 01:43:46.30	261.76	24.92	-29.4	-32.0	15.3	0.00e+00	0	43	0	877658112	18	4894
2026-01-15 01:43:47.30	261.56	24.81	-29.2	-31.8	15.5	1.84e-03	0	43	0	879755264	18	4808
2026-01-15 01:43:48.30	261.35	24.69	-29.2	-31.6	15.5	1.85e-03	0	43	0	880803840	18	4771
2026-01-15 01:43:49.31	261.14	24.58	-29.3	-31.9	15.4	0.00e+00	0	43	0	882900992	18	4847
2026-01-15 01:43:50.31	260.94	24.47	-29.4	-31.6	15.2	1.50e-06	0	43	0	884998144	19	4651
2026-01-15 01:43:51.31	260.74	24.36	-29.2	-31.7	15.5	1.97e-03	0	43	0	887095296	18	4800
2026-01-15 01:43:52.31	260.54	24.25	-29.3	-32.0	15.3	0.00e+00	0	44	0	888143872	18	4899
2026-01-15 01:43:53.32	260.33	24.14	-29.3	-31.8	15.4	1.50e-06	0	43	0	890241024	18	4833
2026-01-15 01:43:54.32	260.14	24.03	-29.3	-32.0	15.3	0.00e+00	0	43	0	892338176	18	4879
2026-01-15 01:43:55.32	259.94	23.91	-29.4	-32.2	15.2	4.86e-04	0	43	0	894435328	18	4944
2026-01-15 01:43:56.32	259.74	23.80	-29.5	-32.3	15.1	1.50e-06	0	43	0	896532480	18	5005
2026-01-15 01:43:57.32	259.55	23.69	-29.6	-32.2	14.8	0.00e+00	0	43	0	897581056	19	4854
2026-01-15 01:43:58.32	259.36	23.58	-29.7	-32.3	14.8	7.02e-04	0	44	0	899678208	19	4892
2026-01-15 01:43:59.32	259.17	23.47	-29.4	-31.7	15.1	0.00e+00	0	43	0	901775360	19	4682
2026-01-15 01:44:00.32	258.98	23.36	-29.4	-32.2	15.1	0.00e+00	0	43	0	903872512	18	4979
2026-01-15 01:44:01.33	258.79	23.25	-29.6	-32.2	14.8	0.00e+00	0	43	0	905969664	19	4833
2026-01-15 01:44:02.33	258.60	23.14	-29.7	-32.5	14.6	4.92e-04	0	44	0	907018240	19	4957
2026-01-15 01:44:03.34	258.41	23.03	-29.8	-32.6	14.6	0.00e+00	0	44	0	909115392	19	4986
2026-01-15 01:44:04.34	258.23	22.92	-29.9	-33.0	14.3	7.00e-07	0	43	0	911212544	19	5121
2026-01-15 01:44:05.35	258.04	22.81	-30.0	-33.1	14.2	3.00e-06	0	44	0	913309696	19	5186
2026-01-15 01:44:06.35	257.86	22.70	-30.1	-33.0	13.9	4.50e-06	0	43	0	915406848	20	5032
2026-01-15 01:44:07.35	257.68	22.59	-30.2	-33.3	13.7	1.06e-05	0	43	0	916455424	20	5146
2026-01-15 01:44:08.35	257.50	22.48	-29.9	-32.5	14.2	6.10e-06	0	44	0	918552576	20	4859
2026-01-15 01:44:09.35	257.33	22.37	-29.7	-32.6	14.5	0.00e+00	0	44	0	920649728	19	4976
2026-01-15 01:44:10.34	257.15	22.27	-29.6	-32.2	14.8	0.00e+00	0	43	0	922746880	19	4848
2026-01-15 01:44:11.35	256.97	22.16	-29.5	-32.0	14.9	4.50e-06	0	44	0	924844032	19	4788
2026-01-15 01:44:12.35	256.80	22.05	-29.5	-32.0	14.9	0.00e+00	0	44	0	925892608	19	4781
2026-01-15 01:44:13.35	256.63	21.94	-29.5	-32.0	14.9	0.00e+00	0	43	0	927989760	19	4771
2026-01-15 01:44:14.36	256.45	21.83	-29.5	-31.8	15.0	2.20e-06	0	44	0	930086912	19	4726
2026-01-15 01:44:15.36	256.28	21.72	-29.6	-32.1	14.8	0.00e+00	0	43	0	932184064	19	4833
2026-01-15 01:44:16.36	256.11	21.62	-29.7	-32.5	14.6	7.00e-07	0	43	0	933232640	19	4954
2026-01-15 01:44:17.36	255.95	21.51	-29.7	-32.4	14.7	7.00e-07	0	44	0	935329792	19	4918
2026-01-15 01:44:18.37	255.78	21.40	-29.7	-32.5	14.6	0.00e+00	0	43	0	937426944	19	4962
2026-01-15 01:44:19.37	255.61	21.29	-29.7	-32.5	14.6	0.00e+00	0	44	0	939524096	19	4945
2026-01-15 01:44:20.37	255.45	21.19	-29.8	-32.6	14.5	1.50e-06	0	44	0	941621248	19	4998
2026-01-15 01:44:21.37	255.28	21.08	-29.8	-32.7	14.4	3.00e-06	0	43	0	942669824	19	5033
2026-01-15 01:44:22.38	255.12	20.97	-29.7	-32.4	14.6	0.00e+00	0	44	0	944766976	19	4909
2026-01-15 01:44:23.38	254.96	20.87	-28.6	-31.2	14.7	7.00e-07	0	44	0	946864128	19	4858
2026-01-15 01:44:24.39	254.80	20.76	-29.7	-32.4	14.6	0.00e+00	0	43	0	948961280	19	4922
2026-01-15 01:44:25.39	254.64	20.65	-29.8	-32.6	14.4	0.00e+00	0	43	0	951058432	19	5009
2026-01-15 01:44:26.40	254.48	20.55	-29.8	-32.7	14.3	2.15e-03	0	43	0	952107008	19	5034
2026-01-15 01:44:27.40	254.32	20.44	-30.0	-33.2	14.0	3.00e-06	0	43	0	954204160	19	5222
2026-01-15 01:44:28.40	254.17	20.34	-30.0	-33.2	14.1	3.00e-06	0	43	0	956301312	19	5223
2026-01-15 01:44:29.41	254.01	20.23	-30.0	-32.7	14.0	2.79e-03	0	44	0	958398464	20	4946
2026-01-15 01:44:30.41	253.86	20.12	-30.0	-32.7	14.0	3.00e-06	0	43	0	960495616	20	4949
2026-01-15 01:44:31.41	253.71	20.02	-29.9	-32.7	14.0	3.80e-06	0	43	0	961544192	20	4929
2026-01-15 01:44:32.42	253.55	19.91	-30.0	-32.8	14.0	1.50e-06	0	43	0	963641344	20	4960
2026-01-15 01:44:33.42	253.40	19.81	-30.1	-33.0	13.8	1.17e-03	0	44	0	965738496	20	5055
2026-01-15 01:44:34.42	253.25	19.71	-30.1	-33.2	13.7	2.20e-06	0	44	0	967835648	20	5111
2026-01-15 01:44:35.43	253.10	19.60	-30.1	-33.1	13.7	4.50e-06	0	44	0	969932800	20	5082
2026-01-15 01:44:36.44	252.95	19.50	-30.1	-33.2	13.6	2.12e-03	0	43	0	970981376	20	5127
2026-01-15 01:44:37.44	252.81	19.39	-30.2	-33.4	13.5	1.36e-03	0	44	0	973078528	20	5209
2026-01-15 01:44:38.44	252.66	19.29	-30.3	-33.7	13.3	1.37e-05	0	44	0	975175680	20	5308
2026-01-15 01:44:39.45	252.52	19.19	-30.3	-33.7	13.3	2.60e-03	0	43	0	977272832	20	5316
2026-01-15 01:44:40.45	252.37	19.09	-30.3	-33.8	13.2	3.36e-03	0	43	0	979369984	20	5358
2026-01-15 01:44:41.45	252.23	18.98	-30.4	-33.9	13.1	3.20e-05	0	44	0	980418560	20	5406
2026-01-15 01:44:42.46	252.09	18.88	-30.3	-33.8	13.2	1.90e-05	0	44	0	982515712	20	5350
2026-01-15 01:44:43.46	251.95	18.78	-30.4	-34.0	13.1	3.36e-03	0	43	0	984612864	20	5431
2026-01-15 01:44:44.47	251.81	18.68	-30.3	-33.8	13.1	3.04e-03	0	44	0	986710016	20	5363
2026-01-15 01:44:45.47	251.67	18.57	-30.4	-33.8	13.2	2.51e-05	0	44	0	987758592	20	5365
2026-01-15 01:44:46.47	251.53	18.47	-30.3	-33.7	13.2	2.94e-03	0	44	0	989855744	20	5338
2026-01-15 01:44:47.47	251.40	18.37	-30.4	-34.1	13.0	4.48e-03	0	44	0	991952896	20	5471
2026-01-15 01:44:48.47	251.26	18.27	-30.6	-33.9	12.7	5.34e-05	0	43	0	994050048	21	5292
2026-01-15 01:44:49.47	251.13	18.17	-30.6	-34.0	12.7	1.05e-04	0	44	0	996147200	21	5337
2026-01-15 01:44:50.48	250.99	18.07	-30.4	-34.1	13.0	4.33e-03	0	43	0	997195776	20	5481
2026-01-15 01:44:51.48	250.86	17.97	-30.5	-34.1	12.9	4.04e-04	0	44	0	999292928	20	5500
2026-01-15 01:44:52.49	250.72	17.87	-30.6	-34.0	12.7	5.79e-05	0	44	0	1001390080	21	5317
2026-01-15 01:44:53.49	250.59	17.77	-30.7	-34.4	12.4	3.31e-03	0	44	0	1003487232	21	5497
2026-01-15 01:44:54.49	250.46	17.67	-30.8	-34.5	12.3	1.14e-03	0	44	0	1005584384	21	5554
2026-01-15 01:44:55.49	250.33	17.57	-30.7	-34.3	12.4	2.83e-03	0	44	0	1006632960	21	5474
2026-01-15 01:44:56.49	250.20	17.47	-30.8	-34.6	12.2	3.33e-03	0	44	0	1008730112	21	5579
2026-01-15 01:44:57.50	250.08	17.38	-30.7	-34.5	12.3	1.18e-03	0	44	0	1010827264	21	5544
2026-01-15 01:44:58.51	249.95	17.28	-30.8	-34.6	12.2	3.36e-03	0	44	0	1012924416	21	5605
2026-01-15 01:44:59.51	249.82	17.18	-30.8	-34.7	12.1	3.78e-04	0	44	0	1015021568	21	5621
2026-01-15 01:45:00.51	249.70	17.08	-30.7	-34.2	12.5	1.68e-03	0	44	0	1016070144	21	5442
2026-01-15 01:45:01.51	249.57	16.98	-30.6	-34.0	12.6	3.18e-03	0	44	0	1018167296	21	5346
2026-01-15 01:45:02.52	249.45	16.89	-30.5	-33.9	12.7	2.85e-03	0	44	0	1020264448	21	5296
2026-01-15 01:45:03.52	249.32	16.79	-30.6	-34.0	12.6	1.87e-03	0	44	0	1022361600	21	5342
2026-01-15 01:45:04.52	249.20	16.69	-30.6	-34.0	12.6	2.97e-03	0	44	0	1024458752	21	5353
2026-01-15 01:45:05.52	249.08	16.60	-30.7	-34.5	12.2	3.54e-03	0	44	0	1025507328	21	5546
2026-01-15 01:45:06.52	248.96	16.50	-30.7	-34.5	12.2	1.79e-03	0	44	0	1027604480	21	5538
2026-01-15 01:45:07.53	248.84	16.40	-30.8	-34.6	12.1	3.28e-03	0	44	0	1029701632	21	5617
2026-01-15 01:45:08.53	248.72	16.31	-30.8	-34.6	12.1	3.63e-03	0	43	0	1031798784	21	5619
2026-01-15 01:45:09.53	248.60	16.21	-30.8	-34.6	12.2	1.22e-03	0	44	0	1032847360	21	5599
2026-01-15 01:45:10.53	248.49	16.12	-30.7	-34.5	12.2	2.99e-03	0	44	0	1034944512	21	5541
2026-01-15 01:45:11.53	248.37	16.02	-30.8	-34.7	12.1	3.27e-03	0	44	0	1037041664	21	5630
2026-01-15 01:45:12.54	248.25	15.93	-30.8	-34.7	12.1	1.09e-03	0	44	0	1039138816	21	5635
2026-01-15 01:45:13.54	248.14	15.83	-30.7	-34.3	12.3	1.79e-04	0	43	0	1041235968	21	5466
2026-01-15 01:45:14.54	248.02	15.74	-30.7	-34.3	12.4	3.32e-03	0	44	0	1043333120	21	5461
2026-01-15 01:45:15.55	247.91	15.64	-30.6	-34.3	12.4	9.22e-04	0	43	0	1044381696	21	5455
2026-01-15 01:45:16.55	247.80	15.55	-30.6	-34.2	12.4	2.84e-03	0	44	0	1046478848	21	5433
2026-01-15 01:45:17.55	247.68	15.46	-30.6	-34.1	12.5	5.59e-04	0	44	0	1048576000	21	5385
2026-01-15 01:45:18.54	247.57	15.36	-30.6	-34.1	12.5	8.29e-04	0	43	0	1050673152	21	5391
2026-01-15 01:45:19.55	247.46	15.27	-30.6	-34.0	12.5	2.90e-03	0	44	0	1051721728	21	5372
2026-01-15 01:45:20.55	247.35	15.18	-30.5	-34.0	12.5	5.40e-04	0	44	0	1053818880	21	5348
2026-01-15 01:45:21.55	247.24	15.08	-30.5	-33.9	12.6	7.75e-04	0	44	0	1055916032	21	5331
2026-01-15 01:45:22.55	247.13	14.99	-30.6	-34.2	12.4	2.92e-03	0	44	0	1058013184	21	5433
2026-01-15 01:45:23.55	247.03	14.90	-30.7	-34.4	12.2	3.51e-03	0	44	0	1060110336	21	5510
2026-01-15 01:45:24.56	246.92	14.81	-30.7	-34.4	12.2	3.90e-04	0	44	0	1061158912	21	5527
2026-01-15 01:45:25.56	246.81	14.72	-30.7	-34.5	12.1	3.42e-03	0	44	0	1063256064	21	5588
2026-01-15 01:45:26.56	246.71	14.63	-30.8	-34.6	12.0	3.32e-03	0	44	0	1065353216	21	5635
2026-01-15 01:45:27.56	246.60	14.53	-30.7	-34.6	12.0	4.50e-04	0	43	0	1067450368	21	5613
2026-01-15 01:45:28.57	246.49	14.44	-30.7	-34.4	12.2	2.41e-04	0	44	0	1069547520	21	5509
2026-01-15 01:45:29.57	246.39	14.35	-30.6	-34.2	12.3	2.96e-03	0	44	0	1070596096	21	5459
2026-01-15 01:45:30.58	246.29	14.26	-30.6	-34.3	12.3	8.15e-04	0	44	0	1072693248	21	5485
2026-01-15 01:45:31.58	246.18	14.17	-30.6	-34.2	12.3	1.98e-04	0	44	0	1074790400	21	5459
2026-01-15 01:45:32.58	246.08	14.08	-30.5	-34.0	12.4	3.04e-03	0	43	0	1076887552	21	5373
2026-01-15 01:45:33.59	245.98	13.99	-30.5	-34.0	12.4	5.14e-04	0	44	0	1077936128	21	5365
2026-01-15 01:45:34.59	245.88	13.90	-30.6	-34.3	12.2	1.97e-04	0	44	0	1080033280	21	5487
2026-01-15 01:45:35.59	245.78	13.81	-30.6	-34.2	12.3	3.75e-04	0	44	0	1082130432	21	5442
2026-01-15 01:45:36.59	245.68	13.72	-30.6	-34.1	12.3	3.07e-04	0	44	0	1084227584	21	5400
2026-01-15 01:45:37.59	245.58	13.64	-30.6	-34.2	12.3	1.61e-04	0	44	0	1086324736	21	5454
2026-01-15 01:45:38.59	245.48	13.55	-30.6	-34.1	12.3	2.09e-04	0	44	0	1088421888	21	5427
2026-01-15 01:45:39.60	245.38	13.46	-30.6	-34.3	12.1	3.33e-04	0	44	0	1089470464	21	5503
2026-01-15 01:45:40.60	245.29	13.37	-30.7	-34.5	12.0	2.94e-03	0	44	0	1091567616	21	5578
2026-01-15 01:45:41.61	245.19	13.28	-30.7	-34.6	11.9	5.27e-04	0	44	0	1093664768	21	5647
2026-01-15 01:45:42.60	245.09	13.20	-30.8	-34.7	11.9	5.45e-04	0	44	0	1095761920	21	5672
2026-01-15 01:45:43.60	245.00	13.11	-30.7	-34.5	12.0	3.75e-03	0	44	0	1096810496	21	5597
2026-01-15 01:45:44.60	244.90	13.02	-30.6	-34.4	12.0	3.01e-04	0	43	0	1098907648	21	5540
2026-01-15 01:45:45.61	244.81	12.93	-30.6	-34.4	12.1	3.66e-04	0	44	0	1101004800	21	5523
2026-01-15 01:45:46.61	244.71	12.85	-30.6	-34.2	12.1	2.84e-04	0	44	0	1103101952	21	5482
2026-01-15 01:45:47.62	244.62	12.76	-30.7	-34.5	12.0	3.22e-04	0	44	0	1105199104	21	5592
2026-01-15 01:45:48.62	244.53	12.67	-30.6	-34.2	12.1	3.10e-04	0	43	0	1106247680	21	5481
2026-01-15 01:45:49.62	244.44	12.59	-30.6	-34.2	12.2	2.57e-04	0	44	0	1108344832	21	5460
2026-01-15 01:45:50.62	244.34	12.50	-30.5	-34.1	12.3	3.73e-04	0	44	0	1110441984	21	5428
2026-01-15 01:45:51.62	244.25	12.42	-30.6	-34.2	12.1	2.10e-04	0	44	0	1112539136	21	5465
2026-01-15 01:45:52.62	244.16	12.33	-30.6	-34.3	12.0	3.04e-04	0	43	0	1114636288	21	5527
2026-01-15 01:45:53.63	244.07	12.25	-30.7	-34.6	11.8	7.98e-04	0	44	0	1115684864	21	5665
2026-01-15 01:45:54.64	243.98	12.16	-30.7	-34.7	11.8	4.18e-04	0	44	0	1117782016	21	5705
2026-01-15 01:45:55.64	243.89	12.08	-30.7	-34.6	11.8	5.48e-04	0	43	0	1119879168	21	5665
2026-01-15 01:45:56.64	243.81	11.99	-30.7	-34.5	11.9	7.47e-04	0	44	0	1121976320	21	5602
2026-01-15 01:45:57.64	243.72	11.91	-30.7	-34.6	11.8	5.03e-04	0	44	0	1124073472	21	5651
2026-01-15 01:45:58.65	243.63	11.82	-30.8	-34.9	11.6	5.74e-04	0	44	0	1125122048	21	5758
2026-01-15 01:45:59.65	243.54	11.74	-30.8	-35.0	11.5	9.86e-04	0	44	0	1127219200	21	5818
2026-01-15 01:46:00.66	243.46	11.66	-30.8	-35.0	11.5	1.14e-03	0	43	0	1129316352	21	5811
2026-01-15 01:46:01.66	243.37	11.57	-30.8	-35.1	11.5	8.51e-04	0	44	0	1131413504	21	5869
2026-01-15 01:46:02.67	243.28	11.49	-30.8	-35.1	11.4	9.18e-04	0	44	0	1133510656	21	5877
2026-01-15 01:46:03.67	243.20	11.41	-30.9	-35.4	11.2	1.33e-03	0	44	0	1134559232	21	6002
2026-01-15 01:46:04.68	243.11	11.32	-30.9	-35.4	11.2	1.04e-03	0	44	0	1136656384	21	6009
2026-01-15 01:46:05.68	243.03	11.24	-31.0	-35.5	11.1	1.46e-03	0	44	0	1138753536	21	6054
2026-01-15 01:46:06.68	242.95	11.16	-30.9	-35.4	11.2	1.37e-03	0	44	0	1140850688	21	6008
2026-01-15 01:46:07.68	242.86	11.08	-31.1	-35.4	10.9	1.52e-03	0	44	0	1141899264	22	5898
2026-01-15 01:46:08.69	242.78	10.99	-31.3	-36.1	10.3	4.30e-03	0	44	0	1143996416	22	6269
2026-01-15 01:46:09.70	242.70	10.91	-31.2	-35.8	10.5	6.07e-03	0	44	0	1146093568	22	6128
2026-01-15 01:46:10.70	242.62	10.83	-31.0	-35.3	10.9	3.22e-03	0	44	0	1148190720	22	5857
2026-01-15 01:46:11.70	242.54	10.75	-31.0	-35.2	10.9	1.91e-03	0	43	0	1150287872	22	5833
2026-01-15 01:46:12.71	242.46	10.67	-31.0	-35.6	11.0	1.85e-03	0	44	0	1152385024	21	6109
2026-01-15 01:46:13.71	242.38	10.59	-31.1	-35.4	10.8	2.78e-03	0	44	0	1153433600	22	5926
2026-01-15 01:46:14.71	242.30	10.51	-31.2	-35.8	10.5	3.69e-03	0	44	0	1155530752	22	6110
2026-01-15 01:46:15.72	242.22	10.43	-31.1	-35.6	10.6	3.80e-03	0	44	0	1157627904	22	6054
2026-01-15 01:46:16.73	242.14	10.35	-31.2	-35.8	10.5	3.58e-03	0	44	0	1159725056	22	6113
2026-01-15 01:46:17.73	242.06	10.27	-31.3	-36.1	10.2	4.43e-03	0	44	0	1160773632	22	6306
2026-01-15 01:46:18.73	241.98	10.19	-31.2	-35.9	10.3	8.72e-03	0	44	0	1162870784	22	6211
2026-01-15 01:46:19.73	241.90	10.11	-31.3	-36.2	10.1	5.32e-03	0	44	0	1164967936	22	6326
2026-01-15 01:46:20.74	241.83	10.03	-31.2	-36.0	10.2	7.80e-03	0	44	0	1167065088	22	6237
2026-01-15 01:46:21.74	241.75	9.95	-31.1	-35.6	10.6	6.65e-03	0	43	0	1169162240	22	6021
2026-01-15 01:46:22.74	241.67	9.87	-31.0	-35.4	10.7	3.03e-03	0	44	0	1170210816	22	5948
2026-01-15 01:46:23.74	241.60	9.79	-31.1	-35.6	10.6	3.13e-03	0	43	0	1172307968	22	6050
2026-01-15 01:46:24.75	241.52	9.71	-31.1	-35.5	10.6	5.04e-03	0	44	0	1174405120	22	5995
2026-01-15 01:46:25.75	241.45	9.64	-31.1	-35.6	10.5	5.73e-03	0	44	0	1176502272	22	6055
2026-01-15 01:46:26.75	241.37	9.56	-31.1	-35.5	10.6	4.22e-03	0	44	0	1178599424	22	5982
2026-01-15 01:46:27.76	241.30	9.48	-31.0	-35.4	10.6	3.36e-03	0	44	0	1179648000	22	5934
2026-01-15 01:46:28.76	241.23	9.40	-30.9	-35.5	10.8	4.50e-03	0	44	0	1181745152	21	6131
2026-01-15 01:46:29.76	241.15	9.32	-31.1	-35.7	10.5	3.32e-03	0	44	0	1183842304	22	6074
2026-01-15 01:46:30.76	241.08	9.25	-31.1	-35.6	10.4	4.74e-03	0	44	0	1185939456	22	6078
2026-01-15 01:46:31.77	241.01	9.17	-31.1	-35.7	10.3	6.86e-03	0	44	0	1188036608	22	6126
2026-01-15 01:46:32.77	240.93	9.09	-31.2	-36.2	10.0	6.60e-03	0	44	0	1189085184	22	6362
2026-01-15 01:46:33.78	240.86	9.02	-31.2	-36.2	10.0	8.08e-03	0	43	0	1191182336	22	6352
2026-01-15 01:46:34.78	240.79	8.94	-31.2	-36.2	9.9	8.74e-03	0	44	0	1193279488	22	6391
2026-01-15 01:46:35.78	240.72	8.86	-31.5	-37.0	9.3	1.24e-02	0	44	0	1195376640	22	6824
2026-01-15 01:46:36.79	240.65	8.79	-31.4	-36.9	9.4	2.26e-02	0	44	0	1197473792	22	6743
2026-01-15 01:46:37.79	240.58	8.71	-31.3	-36.5	9.7	1.48e-02	0	44	0	1198522368	22	6553
2026-01-15 01:46:38.79	240.51	8.63	-31.3	-36.3	9.8	1.03e-02	0	44	0	1200619520	22	6439
2026-01-15 01:46:39.78	240.44	8.56	-31.2	-36.2	9.9	1.30e-02	0	44	0	1202716672	22	6373
2026-01-15 01:46:40.78	240.37	8.48	-31.3	-36.3	9.8	1.16e-02	0	44	0	1204813824	22	6432
2026-01-15 01:46:41.79	240.30	8.41	-31.3	-36.3	9.8	9.37e-03	0	44	0	1205862400	22	6447
2026-01-15 01:46:42.79	240.24	8.33	-31.3	-36.6	9.6	1.52e-02	0	44	0	1207959552	22	6592
2026-01-15 01:46:43.79	240.17	8.26	-31.3	-36.4	9.7	1.58e-02	0	44	0	1210056704	22	6482
2026-01-15 01:46:44.80	240.10	8.18	-31.3	-36.5	9.6	1.13e-02	0	44	0	1212153856	22	6564
2026-01-15 01:46:45.80	240.03	8.11	-31.4	-36.9	9.3	2.09e-02	0	44	0	1214251008	22	6785
2026-01-15 01:46:46.81	239.97	8.04	-31.4	-36.8	9.4	2.09e-02	0	44	0	1215299584	22	6746
2026-01-15 01:46:47.81	239.90	7.96	-31.2	-36.4	9.7	1.47e-02	0	44	0	1217396736	22	6509
2026-01-15 01:46:48.80	239.83	7.89	-31.2	-36.1	9.9	1.22e-02	0	44	0	1219493888	22	6364
2026-01-15 01:46:49.81	239.77	7.81	-31.3	-36.6	9.5	1.59e-02	0	44	0	1221591040	22	6638
2026-01-15 01:46:50.81	239.70	7.74	-31.3	-36.4	9.6	1.44e-02	0	44	0	1223688192	22	6535
2026-01-15 01:46:51.81	239.64	7.67	-31.2	-36.3	9.7	1.40e-02	0	43	0	1224736768	22	6488
2026-01-15 01:46:52.82	239.57	7.59	-31.3	-36.7	9.4	1.91e-02	0	44	0	1226833920	22	6696
2026-01-15 01:46:53.82	239.51	7.52	-31.3	-36.5	9.5	1.52e-02	0	44	0	1228931072	22	6616
2026-01-15 01:46:54.82	239.44	7.45	-31.3	-36.7	9.4	1.72e-02	0	44	0	1231028224	22	6687
2026-01-15 01:46:55.82	239.38	7.38	-31.3	-36.8	9.3	2.01e-02	0	44	0	1233125376	22	6736
2026-01-15 01:46:56.83	239.32	7.30	-31.3	-36.6	9.4	1.64e-02	0	44	0	1234173952	22	6637
2026-01-15 01:46:57.83	239.25	7.23	-31.5	-37.5	8.7	2.44e-02	0	44	0	1236271104	22	7172
2026-01-15 01:46:58.83	239.19	7.16	-31.4	-37.2	8.9	3.68e-02	0	44	0	1238368256	22	7028
2026-01-15 01:46:59.83	239.13	7.09	-31.4	-37.2	8.9	3.18e-02	0	43	0	1240465408	22	6999
2026-01-15 01:47:00.84	239.07	7.01	-33.1	-46.9	3.8	8.03e-01	0	44	104	1241513984	26	17710
2026-01-15 01:47:01.84	239.00	6.94	-33.5	-48.0	3.8	1.49e+00	0	44	104	1241513984	26	19204
2026-01-15 01:47:02.85	238.94	6.87	-33.8	-48.1	3.8	1.49e+00	0	44	104	1241513984	27	18791

#Closed at: 2026-01-15 01:47:03
#Recorded file [1241 MB]: D:/data/31010_260115_043558.dat