passes_logs/2026/01/15/R2M6_AANII_01/R2M6_AANII_01__20260115_011511_SUOMI_NPP_rec.log

#Pass ID: 20260115_011511_SUOMI NPP
#Satellite: SUOMI NPP
#Configuration: NPP
#almurnet v.1.7.20240730
#Start time: 2026-01-15 01:15:12

#Version: 2.2.20231116
#Station: R2M6_AANII_01
#Location: 30.233357 lon 59.946436 lat
#TLE: 1 37849U 11061A   26014.11719687  .00000048  00000+0  43625-4 0  9998
#TLE: 2 37849  98.7809 316.1734 0002474  65.2440 294.8994 14.19525043736585

#Time	Az	El	Level	Level2	SNR	BER	BlckErr	Temp	State	Recorded	gain1	gain2
2026-01-15 01:15:12.85	14.28	7.10	-32.0	-37.1	4.9	1.30e+00	0	41	0	0	23	6505
2026-01-15 01:15:13.85	14.24	7.17	-32.2	-37.5	4.8	1.33e+00	0	41	104	0	24	6623
2026-01-15 01:15:14.85	14.20	7.25	-32.2	-37.3	7.1	1.53e-01	0	41	0	0	24	6511
2026-01-15 01:15:15.85	14.16	7.32	-32.3	-38.0	6.6	1.87e-01	0	41	0	1048576	24	6987
2026-01-15 01:15:16.86	14.11	7.40	-32.3	-37.8	6.8	1.92e-01	0	41	0	3145728	24	6784
2026-01-15 01:15:17.86	14.07	7.48	-32.1	-37.1	7.3	1.51e-01	0	41	0	5242880	24	6369
2026-01-15 01:15:18.86	14.03	7.55	-32.1	-36.8	7.6	9.90e-02	0	41	0	7340032	24	6202
2026-01-15 01:15:19.86	13.99	7.63	-31.9	-36.1	8.2	7.22e-02	0	41	0	9437184	24	5826
2026-01-15 01:15:20.87	13.95	7.71	-32.0	-36.3	8.0	6.54e-02	0	41	0	10485760	24	5907
2026-01-15 01:15:21.88	13.90	7.78	-32.0	-36.3	8.0	6.46e-02	0	41	0	12582912	24	5912
2026-01-15 01:15:22.87	13.86	7.86	-32.2	-37.0	7.5	8.42e-02	0	41	0	14680064	24	6313
2026-01-15 01:15:23.87	13.82	7.94	-32.0	-36.5	7.8	1.05e-01	0	41	0	16777216	24	6032
2026-01-15 01:15:24.87	13.78	8.01	-31.1	-35.3	8.7	5.79e-02	0	41	0	17825792	23	5874
2026-01-15 01:15:25.88	13.73	8.09	-32.1	-36.0	9.1	2.36e-02	0	41	0	19922944	23	5684
2026-01-15 01:15:26.88	13.69	8.17	-31.4	-34.8	9.9	8.42e-03	0	41	0	22020096	22	5340
2026-01-15 01:15:27.88	13.65	8.25	-31.1	-34.0	9.9	5.62e-03	0	41	0	24117248	22	4988
2026-01-15 01:15:28.88	13.60	8.32	-30.9	-33.8	10.8	2.07e-03	0	41	0	26214400	21	5009
2026-01-15 01:15:29.89	13.56	8.40	-30.8	-33.3	11.4	9.06e-04	0	41	0	27262976	21	4842
2026-01-15 01:15:30.89	13.51	8.48	-30.9	-33.7	11.2	9.17e-04	0	41	0	29360128	21	4988
2026-01-15 01:15:31.90	13.47	8.56	-30.8	-33.5	11.3	1.33e-03	0	41	0	31457280	21	4892
2026-01-15 01:15:32.90	13.42	8.64	-30.8	-33.3	11.4	1.57e-03	0	42	0	33554432	21	4821
2026-01-15 01:15:33.91	13.38	8.72	-30.9	-33.8	11.2	1.16e-03	0	42	0	35651584	21	4997
2026-01-15 01:15:34.91	13.33	8.80	-30.8	-33.3	11.5	1.13e-03	0	42	0	36700160	21	4830
2026-01-15 01:15:35.91	13.28	8.88	-30.8	-33.4	11.5	1.20e-03	0	42	0	38797312	21	4847
2026-01-15 01:15:36.92	13.24	8.96	-31.0	-33.6	11.1	4.61e-03	0	42	0	40894464	22	4824
2026-01-15 01:15:37.92	13.19	9.04	-30.9	-33.6	11.3	1.61e-03	0	42	0	42991616	21	4939
2026-01-15 01:15:38.92	13.14	9.12	-30.8	-33.3	11.6	1.03e-03	0	42	0	45088768	21	4808
2026-01-15 01:15:39.92	13.10	9.20	-30.6	-32.8	11.9	3.02e-03	0	42	0	46137344	21	4640
2026-01-15 01:15:40.93	13.05	9.28	-30.6	-32.7	12.0	3.77e-04	0	42	0	48234496	21	4593
2026-01-15 01:15:41.93	13.00	9.36	-30.6	-32.7	12.0	2.33e-04	0	42	0	50331648	21	4599
2026-01-15 01:15:42.94	12.95	9.45	-30.5	-32.5	12.1	2.76e-03	0	42	0	52428800	21	4544
2026-01-15 01:15:43.94	12.91	9.53	-30.6	-32.7	12.0	3.13e-03	0	42	0	54525952	21	4613
2026-01-15 01:15:44.94	12.86	9.61	-30.5	-32.4	12.2	3.68e-04	0	42	0	55574528	21	4494
2026-01-15 01:15:45.95	12.81	9.69	-30.5	-32.9	12.2	2.14e-04	0	42	0	57671680	20	4770
2026-01-15 01:15:46.96	12.76	9.77	-30.6	-32.6	12.1	2.79e-03	0	42	0	59768832	21	4569
2026-01-15 01:15:47.96	12.71	9.86	-30.4	-32.1	12.5	5.30e-04	0	42	0	61865984	21	4395
2026-01-15 01:15:48.96	12.66	9.94	-30.3	-32.5	12.5	1.37e-04	0	42	0	63963136	20	4602
2026-01-15 01:15:49.97	12.61	10.02	-30.5	-32.8	12.3	2.54e-03	0	42	0	65011712	20	4727
2026-01-15 01:15:50.96	12.56	10.11	-30.4	-32.7	12.4	4.78e-04	0	42	0	67108864	20	4665
2026-01-15 01:15:51.97	12.51	10.19	-30.3	-32.5	12.6	9.46e-05	0	42	0	69206016	20	4609
2026-01-15 01:15:52.96	12.46	10.27	-30.5	-32.5	12.2	2.86e-03	0	42	0	71303168	21	4523
2026-01-15 01:15:53.96	12.41	10.36	-30.4	-32.6	12.5	4.87e-04	0	42	0	73400320	20	4653
2026-01-15 01:15:54.96	12.36	10.44	-30.4	-32.6	12.5	2.76e-03	0	42	0	74448896	20	4648
2026-01-15 01:15:55.96	12.30	10.53	-30.6	-32.8	12.0	1.86e-04	0	42	0	76546048	21	4610
2026-01-15 01:15:56.96	12.25	10.61	-30.4	-32.1	12.5	5.29e-04	0	42	0	78643200	21	4404
2026-01-15 01:15:57.96	12.20	10.70	-30.4	-32.6	12.5	2.81e-03	0	42	0	80740352	20	4658
2026-01-15 01:15:58.97	12.15	10.78	-30.3	-32.3	12.7	2.46e-03	0	42	0	81788928	20	4542
2026-01-15 01:15:59.97	12.09	10.87	-30.3	-32.3	12.7	3.51e-04	0	42	0	83886080	20	4557
2026-01-15 01:16:00.98	12.04	10.96	-30.3	-32.5	12.6	2.45e-03	0	42	0	85983232	20	4595
2026-01-15 01:16:01.99	11.98	11.04	-30.2	-32.2	12.9	2.75e-03	0	42	0	88080384	20	4491
2026-01-15 01:16:02.99	11.93	11.13	-30.4	-32.5	12.5	6.63e-05	0	42	0	90177536	20	4588
2026-01-15 01:16:03.99	11.88	11.22	-30.3	-32.4	12.7	2.78e-03	0	42	0	91226112	20	4586
2026-01-15 01:16:04.99	11.82	11.30	-30.5	-32.7	12.4	2.70e-03	0	42	0	93323264	20	4689
2026-01-15 01:16:05.99	11.77	11.39	-30.7	-32.8	12.0	5.34e-04	0	42	0	95420416	21	4628
2026-01-15 01:16:06.99	11.71	11.48	-30.6	-32.6	12.2	2.90e-03	0	42	0	97517568	21	4545
2026-01-15 01:16:08.00	11.65	11.57	-30.7	-33.1	12.0	2.86e-03	0	42	0	99614720	21	4699
2026-01-15 01:16:09.00	11.60	11.66	-30.6	-32.5	12.3	5.84e-04	0	42	0	100663296	21	4516
2026-01-15 01:16:10.01	11.54	11.74	-30.3	-32.4	12.7	1.75e-03	0	42	0	102760448	20	4571
2026-01-15 01:16:11.01	11.48	11.83	-30.4	-32.3	12.5	2.94e-03	0	42	0	104857600	21	4438
2026-01-15 01:16:12.01	11.43	11.92	-30.4	-32.7	12.5	4.97e-04	0	42	0	106954752	20	4705
2026-01-15 01:16:13.01	11.37	12.01	-30.3	-32.7	12.4	2.87e-03	0	43	0	109051904	20	4752
2026-01-15 01:16:14.02	11.31	12.10	-30.3	-32.9	12.2	3.19e-03	0	43	0	110100480	20	4859
2026-01-15 01:16:15.02	11.25	12.19	-30.3	-32.7	12.3	5.43e-04	0	42	0	112197632	20	4781
2026-01-15 01:16:16.02	11.19	12.28	-30.3	-32.8	12.2	2.88e-03	0	42	0	114294784	20	4821
2026-01-15 01:16:17.02	11.13	12.37	-30.4	-32.9	12.3	4.34e-04	0	42	0	116391936	20	4809
2026-01-15 01:16:18.02	11.07	12.46	-30.7	-33.3	11.7	6.04e-04	0	43	0	118489088	21	4862
2026-01-15 01:16:19.02	11.01	12.56	-30.5	-32.4	12.4	2.81e-03	0	42	0	119537664	21	4482
2026-01-15 01:16:20.03	10.95	12.65	-30.3	-32.3	12.9	2.81e-03	0	42	0	121634816	20	4517
2026-01-15 01:16:21.03	10.89	12.74	-30.2	-32.1	13.0	4.71e-04	0	43	0	123731968	20	4461
2026-01-15 01:16:22.03	10.83	12.83	-30.0	-31.5	13.3	2.66e-03	0	43	0	125829120	20	4282
2026-01-15 01:16:23.04	10.77	12.93	-30.0	-31.6	13.4	2.61e-03	0	43	0	126877696	20	4305
2026-01-15 01:16:24.03	10.71	13.02	-30.1	-31.8	13.2	2.46e-04	0	43	0	128974848	20	4370
2026-01-15 01:16:25.04	10.64	13.11	-30.0	-31.6	13.4	2.47e-03	0	43	0	131072000	20	4290
2026-01-15 01:16:26.04	10.58	13.21	-30.2	-31.9	13.2	2.36e-03	0	42	0	133169152	20	4401
2026-01-15 01:16:27.04	10.52	13.30	-29.9	-31.3	13.5	2.40e-04	0	43	0	135266304	20	4203
2026-01-15 01:16:28.05	10.45	13.39	-29.9	-31.1	13.6	1.44e-05	0	43	0	136314880	20	4156
2026-01-15 01:16:29.05	10.39	13.49	-30.0	-31.6	13.4	2.57e-03	0	43	0	138412032	20	4292
2026-01-15 01:16:30.05	10.32	13.58	-29.9	-31.7	13.7	2.20e-04	0	43	0	140509184	19	4421
2026-01-15 01:16:31.06	10.26	13.68	-29.9	-31.6	13.8	4.50e-06	0	43	0	142606336	19	4392
2026-01-15 01:16:32.06	10.19	13.77	-29.9	-31.3	13.5	2.71e-03	0	43	0	144703488	20	4210
2026-01-15 01:16:33.06	10.13	13.87	-29.8	-31.4	13.9	2.17e-04	0	43	0	145752064	19	4325
2026-01-15 01:16:34.06	10.06	13.97	-29.8	-31.5	13.8	7.00e-07	0	43	0	147849216	19	4377
2026-01-15 01:16:35.07	9.99	14.06	-29.8	-31.5	13.8	3.78e-04	0	43	0	149946368	19	4365
2026-01-15 01:16:36.07	9.92	14.16	-29.8	-31.3	14.0	5.03e-04	0	43	0	152043520	19	4296
2026-01-15 01:16:37.07	9.86	14.26	-30.0	-31.3	13.6	2.22e-03	0	43	0	154140672	20	4209
2026-01-15 01:16:38.08	9.79	14.36	-29.9	-31.5	13.9	2.37e-04	0	43	0	155189248	19	4356
2026-01-15 01:16:39.08	9.72	14.45	-30.0	-31.2	13.7	2.39e-04	0	43	0	157286400	20	4173
2026-01-15 01:16:40.09	9.65	14.55	-30.0	-31.3	13.6	2.46e-03	0	43	0	159383552	20	4197
2026-01-15 01:16:41.09	9.58	14.65	-29.9	-31.1	13.8	2.68e-04	0	43	0	161480704	20	4128
2026-01-15 01:16:42.09	9.51	14.75	-29.9	-31.6	13.8	3.38e-04	0	43	0	163577856	19	4366
2026-01-15 01:16:43.09	9.44	14.85	-29.9	-31.0	13.9	2.45e-03	0	43	0	164626432	20	4109
2026-01-15 01:16:44.09	9.37	14.95	-30.0	-31.4	13.6	2.26e-03	0	43	0	166723584	20	4228
2026-01-15 01:16:45.09	9.29	15.05	-30.0	-31.4	13.6	2.20e-04	0	43	0	168820736	20	4237
2026-01-15 01:16:46.10	9.22	15.15	-29.8	-30.9	13.9	4.50e-06	0	43	0	170917888	20	4079
2026-01-15 01:16:47.09	9.15	15.25	-29.9	-31.5	13.9	2.41e-03	0	43	0	171966464	19	4356
2026-01-15 01:16:48.10	9.08	15.35	-29.9	-31.2	13.7	2.21e-04	0	43	0	174063616	20	4151
2026-01-15 01:16:49.10	9.00	15.45	-29.9	-31.6	13.9	1.50e-06	0	43	0	176160768	19	4359
2026-01-15 01:16:50.10	8.93	15.56	-29.8	-31.3	14.1	8.92e-05	0	43	0	178257920	19	4284
2026-01-15 01:16:51.10	8.85	15.66	-30.0	-31.7	13.8	2.05e-05	0	43	0	180355072	19	4404
2026-01-15 01:16:52.11	8.78	15.76	-29.9	-31.1	13.8	7.60e-06	0	43	0	181403648	20	4123
2026-01-15 01:16:53.11	8.70	15.87	-29.9	-31.5	14.0	6.94e-05	0	43	0	183500800	19	4339
2026-01-15 01:16:54.12	8.62	15.97	-30.0	-31.7	13.9	2.32e-04	0	43	0	185597952	19	4403
2026-01-15 01:16:55.12	8.55	16.07	-29.9	-31.4	14.1	1.50e-06	0	43	0	187695104	19	4303
2026-01-15 01:16:56.12	8.47	16.18	-29.8	-31.4	14.0	2.88e-04	0	43	0	189792256	19	4301
2026-01-15 01:16:57.12	8.39	16.28	-29.9	-31.4	14.0	2.86e-04	0	43	0	190840832	19	4309
2026-01-15 01:16:58.12	8.31	16.39	-30.0	-31.3	13.7	7.00e-07	0	43	0	192937984	20	4182
2026-01-15 01:16:59.13	8.23	16.49	-30.0	-31.5	13.6	9.99e-05	0	43	0	195035136	20	4238
2026-01-15 01:17:00.13	8.15	16.60	-30.0	-31.3	13.7	6.80e-06	0	43	0	197132288	20	4177
2026-01-15 01:17:01.13	8.07	16.71	-30.1	-31.5	13.6	8.30e-06	0	43	0	199229440	20	4252
2026-01-15 01:17:02.13	7.99	16.81	-30.1	-31.6	13.5	4.57e-05	0	43	0	200278016	20	4280
2026-01-15 01:17:03.13	7.91	16.92	-30.1	-31.5	13.6	1.40e-04	0	43	0	202375168	20	4251
2026-01-15 01:17:04.14	7.82	17.03	-30.3	-32.2	13.2	1.14e-05	0	43	0	204472320	20	4464
2026-01-15 01:17:05.13	7.74	17.13	-30.2	-31.8	13.4	8.16e-05	0	43	0	206569472	20	4343
2026-01-15 01:17:06.14	7.66	17.24	-30.2	-31.7	13.5	1.14e-05	0	43	0	208666624	20	4312
2026-01-15 01:17:07.15	7.57	17.35	-30.1	-31.6	13.6	1.06e-05	0	43	0	209715200	20	4274
2026-01-15 01:17:08.14	7.49	17.46	-30.1	-31.5	13.6	4.50e-06	0	43	0	211812352	20	4245
2026-01-15 01:17:09.15	7.40	17.57	-30.0	-31.3	13.8	1.14e-05	0	43	0	213909504	20	4186
2026-01-15 01:17:10.16	7.31	17.68	-30.1	-32.0	13.6	4.50e-06	0	43	0	216006656	19	4497
2026-01-15 01:17:11.16	7.23	17.79	-30.2	-31.8	13.3	1.60e-04	0	43	0	218103808	20	4338
2026-01-15 01:17:12.16	7.14	17.90	-30.1	-31.5	12.4	9.10e-06	0	43	0	219152384	20	4230
2026-01-15 01:17:13.16	7.05	18.01	-30.3	-32.0	12.3	5.30e-06	0	43	0	221249536	20	4378
2026-01-15 01:17:14.16	6.96	18.13	-30.1	-31.6	13.6	9.10e-06	0	43	0	223346688	20	4277
2026-01-15 01:17:15.16	6.87	18.24	-30.1	-31.6	13.6	1.22e-05	0	43	0	225443840	20	4249
2026-01-15 01:17:16.16	6.78	18.35	-30.0	-31.4	13.8	8.30e-06	0	43	0	226492416	20	4193
2026-01-15 01:17:17.17	6.69	18.46	-30.0	-31.3	13.8	5.30e-06	0	43	0	228589568	20	4174
2026-01-15 01:17:18.17	6.60	18.58	-30.0	-31.1	14.0	2.36e-03	0	43	0	230686720	20	4120
2026-01-15 01:17:19.18	6.51	18.69	-30.1	-31.6	13.6	3.80e-06	0	43	0	232783872	20	4276
2026-01-15 01:17:20.18	6.41	18.81	-30.3	-32.1	13.4	9.10e-06	0	43	0	234881024	20	4420
2026-01-15 01:17:21.18	6.32	18.92	-30.3	-32.1	13.3	6.80e-06	0	43	0	235929600	20	4428
2026-01-15 01:17:22.19	6.22	19.04	-30.4	-32.2	13.3	8.30e-06	0	43	0	238026752	20	4445
2026-01-15 01:17:23.19	6.13	19.15	-30.4	-32.4	13.1	2.59e-05	0	43	0	240123904	20	4525
2026-01-15 01:17:24.19	6.03	19.27	-30.4	-32.3	13.2	1.83e-05	0	43	0	242221056	20	4480
2026-01-15 01:17:25.20	5.93	19.39	-30.4	-32.2	13.3	2.55e-03	0	43	0	244318208	20	4460
2026-01-15 01:17:26.20	5.84	19.50	-30.6	-32.3	12.9	4.34e-05	0	43	0	245366784	21	4391
2026-01-15 01:17:27.21	5.74	19.62	-30.5	-32.1	13.0	6.02e-05	0	43	0	247463936	21	4348
2026-01-15 01:17:28.22	5.64	19.74	-30.5	-32.2	13.0	2.31e-03	0	43	0	249561088	21	4372
2026-01-15 01:17:29.22	5.54	19.86	-30.4	-32.0	13.1	1.62e-04	0	43	0	251658240	21	4282
2026-01-15 01:17:30.23	5.44	19.98	-30.4	-31.9	13.2	3.58e-05	0	43	0	253755392	21	4261
2026-01-15 01:17:31.23	5.33	20.10	-30.2	-31.9	13.5	2.05e-05	0	43	0	254803968	20	4368
2026-01-15 01:17:32.23	5.23	20.22	-30.3	-32.0	13.4	1.91e-04	0	43	0	256901120	20	4392
2026-01-15 01:17:33.24	5.13	20.34	-30.2	-31.8	13.6	1.60e-05	0	43	0	258998272	20	4316
2026-01-15 01:17:34.24	5.02	20.46	-30.2	-31.7	13.6	1.67e-05	0	43	0	261095424	20	4298
2026-01-15 01:17:35.24	4.92	20.58	-30.2	-31.9	13.5	1.76e-04	0	43	0	263192576	20	4362
2026-01-15 01:17:36.24	4.81	20.70	-30.5	-32.2	13.0	2.39e-03	0	43	0	264241152	21	4353
2026-01-15 01:17:37.25	4.70	20.83	-30.5	-32.5	13.0	3.58e-05	0	43	0	266338304	20	4565
2026-01-15 01:17:38.24	4.60	20.95	-30.3	-32.1	13.4	2.67e-05	0	43	0	268435456	20	4430
2026-01-15 01:17:39.25	4.49	21.07	-30.5	-32.0	13.1	2.29e-03	0	43	0	270532608	21	4313
2026-01-15 01:17:40.25	4.38	21.20	-30.4	-32.4	13.1	2.61e-03	0	43	0	272629760	20	4532
2026-01-15 01:17:41.25	4.27	21.32	-30.3	-32.2	13.4	2.28e-05	0	43	0	273678336	20	4436
2026-01-15 01:17:42.25	4.16	21.44	-30.4	-32.3	13.3	2.64e-03	0	43	0	275775488	20	4489
2026-01-15 01:17:43.25	4.05	21.57	-30.5	-32.0	13.2	2.61e-03	0	43	0	277872640	21	4297
2026-01-15 01:17:44.25	3.93	21.70	-30.6	-32.3	13.0	1.52e-05	0	43	0	279969792	21	4394
2026-01-15 01:17:45.25	3.82	21.82	-30.5	-32.0	13.1	2.13e-05	0	43	0	281018368	21	4302
2026-01-15 01:17:46.25	3.70	21.95	-30.3	-32.0	13.6	2.29e-03	0	43	0	283115520	20	4374
2026-01-15 01:17:47.26	3.59	22.08	-30.4	-31.8	13.4	1.64e-04	0	43	0	285212672	21	4216
2026-01-15 01:17:48.26	3.47	22.20	-30.5	-32.0	13.2	1.90e-05	0	43	0	287309824	21	4282
2026-01-15 01:17:49.26	3.35	22.33	-30.5	-32.4	13.3	2.55e-03	0	43	0	289406976	20	4511
2026-01-15 01:17:50.26	3.23	22.46	-30.8	-32.7	12.8	2.01e-04	0	43	0	290455552	21	4503
2026-01-15 01:17:51.26	3.11	22.59	-30.7	-32.6	12.8	2.67e-03	0	43	0	292552704	21	4483
2026-01-15 01:17:52.27	2.99	22.72	-30.7	-32.6	12.9	2.63e-03	0	43	0	294649856	21	4463
2026-01-15 01:17:53.26	2.87	22.85	-30.7	-32.5	12.9	1.94e-04	0	43	0	296747008	21	4427
2026-01-15 01:17:54.27	2.74	22.98	-30.7	-32.5	12.8	2.63e-03	0	43	0	298844160	21	4446
2026-01-15 01:17:55.27	2.62	23.11	-30.7	-32.6	12.9	6.02e-05	0	43	0	299892736	21	4476
2026-01-15 01:17:56.27	2.50	23.25	-30.8	-32.8	12.7	1.96e-04	0	43	0	301989888	21	4539
2026-01-15 01:17:57.26	2.37	23.38	-30.8	-32.8	12.8	2.53e-03	0	43	0	304087040	21	4518
2026-01-15 01:17:58.26	2.24	23.51	-30.9	-33.1	12.5	2.86e-03	0	43	0	306184192	21	4632
2026-01-15 01:17:59.26	2.11	23.64	-30.9	-32.6	12.6	2.39e-04	0	43	0	308281344	22	4380
2026-01-15 01:18:00.28	1.98	23.78	-31.0	-33.3	12.4	2.70e-03	0	43	0	309329920	21	4729
2026-01-15 01:18:01.28	1.85	23.91	-30.8	-32.8	12.7	2.60e-03	0	43	0	311427072	21	4534
2026-01-15 01:18:02.28	1.72	24.05	-30.6	-32.2	13.1	1.62e-04	0	43	0	313524224	21	4343
2026-01-15 01:18:03.28	1.59	24.18	-30.7	-32.6	12.8	2.55e-03	0	43	0	315621376	21	4476
2026-01-15 01:18:04.28	1.45	24.32	-30.7	-32.6	12.9	2.35e-03	0	43	0	317718528	21	4472
2026-01-15 01:18:05.28	1.32	24.46	-30.8	-32.7	12.8	1.35e-04	0	43	0	318767104	21	4526
2026-01-15 01:18:06.28	1.18	24.59	-30.9	-33.2	12.5	2.48e-03	0	43	0	320864256	21	4684
2026-01-15 01:18:07.28	1.04	24.73	-31.1	-33.1	12.3	2.82e-03	0	43	0	322961408	22	4541
2026-01-15 01:18:08.28	0.90	24.87	-31.2	-33.4	12.0	1.94e-04	0	43	0	325058560	22	4666
2026-01-15 01:18:09.29	0.76	25.01	-31.3	-33.8	11.8	4.16e-04	0	43	0	326107136	22	4789
2026-01-15 01:18:10.29	0.62	25.15	-31.3	-33.7	11.7	3.25e-03	0	43	0	328204288	22	4773
2026-01-15 01:18:11.29	0.47	25.29	-31.4	-34.0	11.5	8.19e-04	0	43	0	330301440	22	4887
2026-01-15 01:18:12.30	0.33	25.43	-31.6	-34.3	11.0	3.45e-03	0	43	0	332398592	23	4899
2026-01-15 01:18:13.30	0.18	25.57	-31.5	-33.9	11.4	3.90e-03	0	43	0	334495744	23	4743
2026-01-15 01:18:14.31	0.03	25.71	-31.4	-34.0	11.7	8.54e-04	0	43	0	335544320	22	4881
2026-01-15 01:18:15.30	359.89	25.85	-31.3	-33.7	11.8	2.83e-03	0	43	0	337641472	22	4769
2026-01-15 01:18:16.31	359.74	26.00	-31.0	-33.0	12.3	2.52e-04	0	43	0	339738624	22	4529
2026-01-15 01:18:17.31	359.58	26.14	-30.8	-32.4	12.7	2.49e-04	0	43	0	341835776	22	4310
2026-01-15 01:18:18.31	359.43	26.28	-30.6	-32.2	13.1	2.55e-03	0	44	0	343932928	21	4323
2026-01-15 01:18:19.32	359.28	26.43	-30.4	-31.7	13.5	1.75e-05	0	43	0	344981504	21	4186
2026-01-15 01:18:20.32	359.12	26.58	-30.3	-31.5	13.6	1.14e-05	0	43	0	347078656	21	4132
2026-01-15 01:18:21.32	358.96	26.72	-30.3	-31.4	13.8	2.36e-03	0	43	0	349175808	21	4072
2026-01-15 01:18:22.32	358.81	26.87	-30.1	-31.4	14.0	2.19e-03	0	43	0	351272960	20	4191
2026-01-15 01:18:23.33	358.64	27.01	-30.1	-31.4	14.0	3.00e-06	0	43	0	353370112	20	4185
2026-01-15 01:18:24.33	358.48	27.16	-30.2	-31.5	14.0	2.13e-03	0	43	0	354418688	20	4212
2026-01-15 01:18:25.33	358.32	27.31	-30.2	-31.7	13.9	2.48e-03	0	43	0	356515840	20	4280
2026-01-15 01:18:26.34	358.15	27.46	-30.4	-31.8	13.5	8.30e-06	0	43	0	358612992	21	4196
2026-01-15 01:18:27.34	357.99	27.61	-30.8	-32.7	12.9	2.89e-05	0	43	0	360710144	21	4481
2026-01-15 01:18:28.34	357.82	27.75	-30.7	-32.6	13.0	2.44e-03	0	43	0	362807296	21	4476
2026-01-15 01:18:29.34	357.65	27.90	-30.7	-32.5	13.1	2.84e-04	0	43	0	363855872	21	4416
2026-01-15 01:18:30.35	357.48	28.06	-30.7	-32.5	13.1	3.89e-05	0	43	0	365953024	21	4445
2026-01-15 01:18:31.35	357.31	28.21	-30.6	-32.4	13.1	4.11e-05	0	43	0	368050176	21	4394
2026-01-15 01:18:32.35	357.13	28.36	-30.5	-31.9	13.4	2.59e-04	0	43	0	370147328	21	4251
2026-01-15 01:18:33.35	356.96	28.51	-30.6	-32.3	13.1	1.14e-05	0	43	0	371195904	21	4355
2026-01-15 01:18:34.36	356.78	28.66	-30.6	-32.3	13.1	4.65e-05	0	43	0	373293056	21	4371
2026-01-15 01:18:35.35	356.60	28.81	-30.8	-32.7	12.8	3.08e-04	0	43	0	375390208	21	4511
2026-01-15 01:18:36.35	356.42	28.97	-31.0	-33.3	12.5	2.53e-03	0	43	0	377487360	21	4709
2026-01-15 01:18:37.35	356.23	29.12	-31.0	-32.9	12.5	8.16e-05	0	43	0	379584512	22	4472
2026-01-15 01:18:38.36	356.05	29.28	-31.2	-33.5	12.1	1.80e-04	0	43	0	380633088	22	4661
2026-01-15 01:18:39.36	355.86	29.43	-31.2	-33.5	12.0	2.60e-03	0	43	0	382730240	22	4693
2026-01-15 01:18:40.36	355.67	29.59	-31.4	-34.0	11.7	4.20e-04	0	43	0	384827392	22	4852
2026-01-15 01:18:41.36	355.48	29.74	-31.6	-34.0	11.4	1.12e-03	0	43	0	386924544	23	4765
2026-01-15 01:18:42.36	355.29	29.90	-31.1	-33.1	12.3	6.08e-04	0	43	0	389021696	22	4538
2026-01-15 01:18:43.36	355.10	30.05	-31.2	-33.4	12.1	2.84e-04	0	43	0	390070272	22	4634
2026-01-15 01:18:44.37	354.90	30.21	-31.1	-33.0	12.4	1.43e-04	0	43	0	392167424	22	4491
2026-01-15 01:18:45.37	354.70	30.37	-31.3	-33.7	12.0	1.30e-04	0	43	0	394264576	22	4725
2026-01-15 01:18:46.37	354.50	30.53	-31.3	-33.6	12.1	2.37e-03	0	43	0	396361728	22	4695
2026-01-15 01:18:47.37	354.30	30.69	-31.4	-34.1	11.7	3.89e-04	0	43	0	398458880	22	4880
2026-01-15 01:18:48.37	354.10	30.85	-31.5	-33.9	11.5	5.25e-04	0	44	0	399507456	23	4716
2026-01-15 01:18:49.38	353.89	31.01	-31.5	-33.7	11.6	9.77e-04	0	43	0	401604608	23	4652
2026-01-15 01:18:50.38	353.68	31.17	-31.1	-32.7	12.3	4.55e-04	0	43	0	403701760	23	4302
2026-01-15 01:18:51.38	353.47	31.33	-31.3	-33.5	12.0	3.25e-04	0	43	0	405798912	22	4686
2026-01-15 01:18:52.39	353.26	31.49	-31.1	-33.1	12.4	3.17e-04	0	43	0	407896064	22	4521
2026-01-15 01:18:53.39	353.04	31.65	-31.3	-33.6	12.1	2.88e-04	0	43	0	408944640	22	4695
2026-01-15 01:18:54.40	352.82	31.82	-31.1	-33.2	12.3	1.77e-04	0	43	0	411041792	22	4573
2026-01-15 01:18:55.40	352.60	31.98	-31.4	-33.9	11.9	4.82e-04	0	43	0	413138944	22	4820
2026-01-15 01:18:56.40	352.38	32.14	-31.6	-34.1	11.3	4.78e-04	0	43	0	415236096	23	4785
2026-01-15 01:18:57.40	352.16	32.30	-31.8	-34.6	11.0	1.87e-03	0	43	0	416284672	23	4973
2026-01-15 01:18:58.40	351.93	32.47	-31.8	-34.1	11.0	4.03e-03	0	43	0	418381824	24	4704
2026-01-15 01:18:59.41	351.70	32.63	-31.8	-34.6	11.0	2.89e-03	0	43	0	420478976	23	4974
2026-01-15 01:19:00.42	351.47	32.80	-31.7	-34.5	11.1	1.63e-03	0	43	0	422576128	23	4959
2026-01-15 01:19:01.42	351.24	32.96	-31.7	-34.5	11.1	1.19e-03	0	43	0	424673280	23	4933
2026-01-15 01:19:02.42	351.00	33.13	-31.7	-34.4	11.1	1.41e-03	0	43	0	425721856	23	4930
2026-01-15 01:19:03.43	350.76	33.29	-31.7	-34.5	11.0	2.19e-03	0	43	0	427819008	23	4951
2026-01-15 01:19:04.43	350.52	33.46	-31.5	-33.8	11.6	1.25e-03	0	43	0	429916160	23	4682
2026-01-15 01:19:05.43	350.28	33.63	-31.6	-34.0	11.4	1.02e-03	0	43	0	432013312	23	4757
2026-01-15 01:19:06.43	350.04	33.79	-30.8	-32.9	11.7	1.01e-03	0	43	0	434110464	23	4616
2026-01-15 01:19:07.44	349.78	33.96	-31.6	-34.1	11.3	1.45e-03	0	43	0	435159040	23	4806
2026-01-15 01:19:08.44	349.53	34.13	-31.7	-34.4	10.7	1.21e-03	0	43	0	437256192	23	4889
2026-01-15 01:19:09.45	349.28	34.29	-31.8	-34.6	10.3	1.52e-03	0	43	0	439353344	23	4971
2026-01-15 01:19:10.45	349.02	34.46	-31.5	-33.7	11.5	1.48e-03	0	43	0	441450496	23	4645
2026-01-15 01:19:11.45	348.77	34.63	-31.5	-34.1	11.3	6.58e-04	0	43	0	443547648	22	4890
2026-01-15 01:19:12.46	348.50	34.80	-31.5	-33.9	11.5	6.48e-04	0	43	0	444596224	23	4730
2026-01-15 01:19:13.46	348.24	34.97	-31.6	-34.0	11.5	7.88e-04	0	43	0	446693376	23	4752
2026-01-15 01:19:14.46	347.97	35.13	-31.5	-33.9	11.7	5.13e-04	0	43	0	448790528	23	4733
2026-01-15 01:19:15.47	347.70	35.30	-31.5	-33.8	11.6	1.02e-03	0	43	0	450887680	23	4681
2026-01-15 01:19:16.47	347.43	35.47	-31.4	-33.5	11.8	3.55e-04	0	43	0	452984832	23	4572
2026-01-15 01:19:17.47	347.15	35.64	-31.5	-33.7	11.6	1.70e-03	0	43	0	454033408	23	4653
2026-01-15 01:19:18.47	346.88	35.81	-31.2	-33.3	12.3	4.25e-04	0	43	0	456130560	22	4591
2026-01-15 01:19:19.47	346.60	35.98	-31.4	-33.9	11.8	4.41e-04	0	43	0	458227712	22	4832
2026-01-15 01:19:20.47	346.31	36.15	-31.6	-34.0	11.4	1.41e-03	0	43	0	460324864	23	4768
2026-01-15 01:19:21.48	346.02	36.32	-31.8	-34.7	10.9	2.65e-03	0	43	0	462422016	23	5049
2026-01-15 01:19:22.48	345.73	36.49	-32.2	-35.8	9.7	3.55e-03	0	43	0	463470592	24	5424
2026-01-15 01:19:23.49	345.44	36.66	-32.0	-35.0	10.2	4.39e-03	0	43	0	465567744	24	5093
2026-01-15 01:19:24.49	345.14	36.83	-32.0	-35.1	10.3	5.97e-03	0	43	0	467664896	24	5125
2026-01-15 01:19:25.49	344.84	37.00	-31.7	-34.1	10.9	4.88e-03	0	43	0	469762048	24	4740
2026-01-15 01:19:26.50	344.54	37.17	-31.8	-35.0	10.7	2.67e-03	0	43	0	470810624	23	5166
2026-01-15 01:19:27.50	344.23	37.34	-31.8	-34.8	10.9	3.74e-03	0	43	0	472907776	23	5074
2026-01-15 01:19:28.51	343.92	37.51	-31.6	-34.2	11.2	1.09e-03	0	43	0	475004928	23	4841
2026-01-15 01:19:29.51	343.61	37.68	-31.5	-34.3	11.6	9.57e-04	0	43	0	477102080	22	4971
2026-01-15 01:19:30.51	343.29	37.85	-31.5	-33.9	11.5	6.33e-04	0	43	0	479199232	23	4722
2026-01-15 01:19:31.51	342.97	38.01	-31.5	-33.7	11.6	4.58e-04	0	43	0	481296384	23	4659
2026-01-15 01:19:32.51	342.65	38.18	-31.5	-34.2	11.6	3.08e-03	0	43	0	482344960	22	4929
2026-01-15 01:19:33.51	342.33	38.35	-31.6	-34.1	11.5	5.59e-04	0	43	0	484442112	23	4800
2026-01-15 01:19:34.51	342.00	38.52	-31.8	-34.6	11.0	1.59e-03	0	43	0	486539264	23	5012
2026-01-15 01:19:35.51	341.67	38.69	-31.8	-34.7	11.0	4.13e-03	0	44	0	488636416	23	5015
2026-01-15 01:19:36.52	341.33	38.85	-31.8	-34.8	10.9	3.67e-03	0	43	0	489684992	23	5079
2026-01-15 01:19:37.51	340.99	39.02	-31.7	-34.4	11.0	2.53e-03	0	43	0	491782144	23	4920
2026-01-15 01:19:38.51	340.65	39.19	-31.8	-34.8	10.9	4.36e-03	0	43	0	493879296	23	5071
2026-01-15 01:19:39.51	340.30	39.35	-31.8	-34.8	10.9	4.88e-03	0	43	0	495976448	23	5052
2026-01-15 01:19:40.52	339.95	39.52	-32.0	-34.8	10.5	2.21e-03	0	44	0	498073600	24	4992
2026-01-15 01:19:41.52	339.60	39.69	-32.0	-34.7	10.5	5.86e-03	0	43	0	499122176	24	4950
2026-01-15 01:19:42.52	339.24	39.85	-32.0	-35.3	10.5	5.76e-03	0	43	0	501219328	23	5275
2026-01-15 01:19:43.52	338.88	40.02	-32.0	-34.9	10.5	3.32e-03	0	43	0	503316480	24	5029
2026-01-15 01:19:44.52	338.52	40.18	-32.2	-35.7	9.9	9.55e-03	0	43	0	505413632	24	5368
2026-01-15 01:19:45.53	338.14	40.34	-32.3	-36.0	9.6	1.49e-02	0	43	0	507510784	24	5528
2026-01-15 01:19:46.54	337.77	40.51	-31.9	-34.7	10.5	7.49e-03	0	43	0	508559360	24	4967
2026-01-15 01:19:47.54	337.39	40.67	-31.6	-34.3	11.1	2.30e-03	0	43	0	510656512	23	4909
2026-01-15 01:19:48.53	337.02	40.83	-31.4	-34.1	11.6	2.28e-03	0	43	0	512753664	22	4927
2026-01-15 01:19:49.54	336.63	40.99	-31.4	-34.1	11.6	4.98e-04	0	43	0	514850816	22	4922
2026-01-15 01:19:50.54	336.24	41.15	-31.4	-34.0	11.6	2.28e-03	0	43	0	515899392	22	4900
2026-01-15 01:19:51.55	335.85	41.31	-31.4	-34.2	11.6	2.33e-03	0	43	0	517996544	22	4970
2026-01-15 01:19:52.55	335.45	41.47	-31.5	-33.8	11.6	6.94e-04	0	43	0	520093696	23	4700
2026-01-15 01:19:53.55	335.05	41.63	-31.5	-33.9	11.6	2.24e-03	0	44	0	522190848	23	4715
2026-01-15 01:19:54.56	334.65	41.79	-31.4	-33.5	11.7	8.28e-04	0	44	0	524288000	23	4588
2026-01-15 01:19:55.56	334.24	41.94	-31.4	-33.4	11.9	4.26e-04	0	43	0	526385152	23	4567
2026-01-15 01:19:56.56	333.83	42.10	-31.6	-34.2	11.3	1.15e-03	0	44	0	527433728	23	4828
2026-01-15 01:19:57.57	333.41	42.25	-31.9	-34.9	10.8	3.38e-03	0	43	0	529530880	23	5114
2026-01-15 01:19:58.57	332.99	42.41	-32.0	-34.7	10.6	3.73e-03	0	44	0	531628032	24	4960
2026-01-15 01:19:59.57	332.57	42.56	-31.8	-34.3	10.9	4.07e-03	0	44	0	533725184	24	4802
2026-01-15 01:20:00.57	332.14	42.71	-31.9	-35.2	10.6	3.53e-03	0	43	0	534773760	23	5220
2026-01-15 01:20:01.57	331.71	42.86	-32.0	-35.0	10.3	5.68e-03	0	43	0	536870912	24	5082
2026-01-15 01:20:02.57	331.28	43.00	-31.9	-34.7	10.6	4.83e-03	0	43	0	538968064	24	4978
2026-01-15 01:20:03.58	330.83	43.15	-31.8	-34.8	10.8	3.79e-03	0	43	0	541065216	23	5098
2026-01-15 01:20:04.58	330.39	43.30	-31.5	-33.9	11.4	1.87e-03	0	44	0	543162368	23	4753
2026-01-15 01:20:05.58	329.94	43.44	-31.2	-33.4	12.2	9.31e-04	0	43	0	544210944	22	4638
2026-01-15 01:20:06.58	329.49	43.58	-30.8	-32.7	13.1	9.93e-04	0	44	0	546308096	21	4478
2026-01-15 01:20:07.59	329.03	43.72	-30.8	-32.7	13.1	2.67e-05	0	44	0	548405248	21	4476
2026-01-15 01:20:08.59	328.57	43.86	-30.7	-32.3	13.3	2.44e-05	0	44	0	550502400	21	4337
2026-01-15 01:20:09.59	328.11	44.00	-31.0	-33.1	12.9	2.00e-03	0	44	0	552599552	21	4615
2026-01-15 01:20:10.59	327.64	44.14	-31.6	-33.9	11.6	5.30e-04	0	43	0	553648128	23	4710
2026-01-15 01:20:11.59	327.17	44.27	-32.0	-35.0	10.4	3.51e-03	0	43	0	555745280	24	5052
2026-01-15 01:20:12.60	326.69	44.41	-32.1	-35.5	10.0	8.56e-03	0	43	0	557842432	24	5274
2026-01-15 01:20:13.60	326.21	44.54	-31.9	-34.6	10.7	3.35e-03	0	43	0	559939584	24	4920
2026-01-15 01:20:14.60	325.73	44.67	-31.4	-33.7	11.6	4.20e-03	0	43	0	562036736	23	4660
2026-01-15 01:20:15.61	325.24	44.79	-30.8	-32.4	12.7	2.19e-04	0	43	0	563085312	22	4300
2026-01-15 01:20:16.62	324.74	44.92	-30.7	-32.4	13.1	6.40e-05	0	43	0	565182464	21	4416
2026-01-15 01:20:17.61	324.25	45.04	-30.4	-31.8	13.4	2.35e-03	0	43	0	567279616	21	4214
2026-01-15 01:20:18.62	323.75	45.16	-30.6	-32.3	13.2	1.91e-04	0	44	0	569376768	21	4379
2026-01-15 01:20:19.62	323.25	45.28	-30.3	-32.0	13.7	4.50e-06	0	43	0	571473920	20	4374
2026-01-15 01:20:20.62	322.74	45.40	-30.2	-31.6	14.0	2.06e-03	0	44	0	572522496	20	4235
2026-01-15 01:20:21.62	322.23	45.51	-29.9	-31.0	14.4	1.71e-03	0	44	0	574619648	20	4053
2026-01-15 01:20:22.62	321.71	45.63	-29.7	-30.5	14.7	0.00e+00	0	43	0	576716800	20	3912
2026-01-15 01:20:23.62	321.20	45.74	-29.8	-30.7	14.5	7.00e-07	0	44	0	578813952	20	3974
2026-01-15 01:20:24.62	320.68	45.85	-30.4	-31.7	13.7	2.14e-03	0	43	0	579862528	21	4180
2026-01-15 01:20:25.63	320.15	45.95	-30.4	-31.8	13.5	1.14e-05	0	43	0	581959680	21	4219
2026-01-15 01:20:26.63	319.62	46.06	-31.1	-33.0	12.4	4.88e-05	0	43	0	584056832	22	4522
2026-01-15 01:20:27.63	319.09	46.16	-31.6	-34.3	11.1	1.99e-03	0	43	0	586153984	23	4904
2026-01-15 01:20:28.63	318.55	46.25	-31.8	-35.0	10.7	2.10e-03	0	43	0	588251136	23	5190
2026-01-15 01:20:29.64	318.01	46.35	-32.1	-35.7	9.7	4.07e-03	0	44	0	589299712	24	5390
2026-01-15 01:20:30.65	317.46	46.44	-32.2	-35.7	9.7	1.34e-02	0	43	0	591396864	24	5434
2026-01-15 01:20:31.65	316.91	46.53	-32.6	-37.2	8.2	1.65e-02	0	44	0	593494016	25	6054
2026-01-15 01:20:32.65	316.37	46.62	-32.3	-35.8	9.1	3.81e-02	0	44	0	595591168	25	5405
2026-01-15 01:20:33.66	315.81	46.71	-31.9	-34.3	10.3	1.17e-02	0	44	0	597688320	25	4737
2026-01-15 01:20:34.66	315.26	46.79	-31.4	-33.2	11.4	2.04e-03	0	44	0	598736896	24	4436
2026-01-15 01:20:35.66	314.70	46.87	-31.4	-33.7	11.6	5.92e-04	0	44	0	600834048	23	4668
2026-01-15 01:20:36.67	314.13	46.95	-31.5	-33.9	11.4	5.07e-04	0	44	0	602931200	23	4782
2026-01-15 01:20:37.67	313.57	47.02	-31.6	-34.5	11.0	8.77e-04	0	44	0	605028352	23	5000
2026-01-15 01:20:38.67	313.01	47.09	-31.9	-35.2	10.4	4.50e-03	0	43	0	607125504	23	5266
2026-01-15 01:20:39.67	312.44	47.16	-31.8	-34.3	10.8	2.42e-03	0	43	0	608174080	24	4791
2026-01-15 01:20:40.67	311.87	47.22	-31.6	-33.7	11.3	1.50e-03	0	44	0	610271232	24	4584
2026-01-15 01:20:41.68	311.29	47.29	-31.6	-34.0	11.4	1.61e-03	0	43	0	612368384	23	4786
2026-01-15 01:20:42.68	310.71	47.34	-31.5	-33.8	11.5	1.19e-03	0	44	0	614465536	23	4699
2026-01-15 01:20:43.68	310.14	47.40	-31.6	-34.1	11.4	5.82e-04	0	44	0	616562688	23	4811
2026-01-15 01:20:44.68	309.56	47.45	-31.2	-32.9	12.2	8.30e-04	0	44	0	617611264	23	4378
2026-01-15 01:20:45.68	308.98	47.50	-31.4	-34.1	11.8	3.19e-04	0	43	0	619708416	22	4890
2026-01-15 01:20:46.68	308.39	47.55	-31.2	-33.6	12.1	3.49e-04	0	43	0	621805568	22	4704
2026-01-15 01:20:47.68	307.81	47.59	-30.9	-32.6	12.7	1.40e-04	0	44	0	623902720	22	4371
2026-01-15 01:20:48.68	307.22	47.63	-30.7	-32.7	12.9	4.80e-05	0	43	0	624951296	21	4520
2026-01-15 01:20:49.69	306.63	47.67	-31.1	-33.2	12.1	1.67e-04	0	43	0	627048448	22	4614
2026-01-15 01:20:50.69	306.04	47.70	-31.3	-33.3	11.8	1.22e-03	0	44	0	629145600	23	4562
2026-01-15 01:20:51.69	305.45	47.73	-31.4	-33.6	11.7	8.14e-04	0	43	0	631242752	23	4650
2026-01-15 01:20:52.69	304.86	47.76	-30.9	-32.1	12.7	3.91e-04	0	43	0	633339904	23	4139
2026-01-15 01:20:53.69	304.27	47.78	-30.8	-32.5	12.6	7.32e-05	0	44	0	634388480	22	4393
2026-01-15 01:20:54.69	303.68	47.80	-30.7	-32.2	12.8	5.79e-05	0	44	0	636485632	22	4296
2026-01-15 01:20:55.70	303.08	47.82	-30.4	-31.4	13.2	7.93e-05	0	43	0	638582784	22	4032
2026-01-15 01:20:56.70	302.48	47.83	-30.2	-31.3	13.7	1.50e-06	0	43	0	640679936	21	4085
2026-01-15 01:20:57.70	301.89	47.84	-29.9	-31.1	14.2	7.00e-07	0	43	0	642777088	20	4108
2026-01-15 01:20:58.70	301.29	47.85	-30.2	-31.9	13.7	0.00e+00	0	43	0	643825664	20	4365
2026-01-15 01:20:59.70	300.70	47.85	-30.6	-32.4	13.0	2.28e-05	0	43	0	645922816	21	4449
2026-01-15 01:21:00.71	300.10	47.85	-30.9	-33.3	12.4	6.94e-05	0	43	0	648019968	21	4748
2026-01-15 01:21:01.71	299.50	47.85	-31.1	-33.5	11.9	2.27e-04	0	43	0	650117120	22	4742
2026-01-15 01:21:02.71	298.91	47.84	-31.5	-34.3	10.8	9.17e-04	0	43	0	652214272	23	4978
2026-01-15 01:21:03.72	298.31	47.83	-31.1	-33.1	11.8	1.54e-03	0	43	0	653262848	23	4511
2026-01-15 01:21:04.72	297.71	47.82	-30.6	-32.2	12.6	2.36e-04	0	44	0	655360000	22	4312
2026-01-15 01:21:05.72	297.12	47.80	-30.3	-31.8	13.3	2.97e-05	0	43	0	657457152	21	4273
2026-01-15 01:21:06.72	296.53	47.78	-30.5	-32.3	13.0	1.72e-04	0	43	0	659554304	21	4417
2026-01-15 01:21:07.72	295.93	47.75	-30.2	-31.4	13.5	1.22e-04	0	44	0	661651456	21	4131
2026-01-15 01:21:08.72	295.34	47.73	-29.8	-30.9	14.2	0.00e+00	0	43	0	662700032	20	4065
2026-01-15 01:21:09.73	294.75	47.70	-29.9	-31.0	14.2	6.17e-05	0	43	0	664797184	20	4110
2026-01-15 01:21:10.73	294.16	47.66	-30.2	-31.8	13.7	1.30e-04	0	43	0	666894336	20	4352
2026-01-15 01:21:11.73	293.57	47.63	-30.2	-31.8	13.6	9.10e-06	0	43	0	668991488	20	4329
2026-01-15 01:21:12.73	292.98	47.59	-29.7	-30.7	14.3	2.45e-04	0	44	0	670040064	20	4000
2026-01-15 01:21:13.73	292.40	47.54	-29.3	-30.0	15.1	2.14e-04	0	44	0	672137216	19	3913
2026-01-15 01:21:14.73	291.82	47.50	-29.2	-29.9	15.2	0.00e+00	0	43	0	674234368	19	3866
2026-01-15 01:21:15.73	291.24	47.45	-29.6	-30.8	14.6	0.00e+00	0	43	0	676331520	19	4136
2026-01-15 01:21:16.74	290.65	47.39	-30.3	-32.2	13.4	4.04e-05	0	44	0	678428672	20	4474
2026-01-15 01:21:17.75	290.07	47.34	-30.7	-33.0	12.4	2.21e-05	0	44	0	679477248	21	4682
2026-01-15 01:21:18.75	289.49	47.28	-30.7	-32.9	12.5	1.40e-04	0	43	0	681574400	21	4664
2026-01-15 01:21:19.76	288.91	47.21	-30.8	-33.1	12.5	9.83e-04	0	43	0	683671552	21	4692
2026-01-15 01:21:20.77	288.34	47.15	-30.8	-33.2	12.4	1.55e-03	0	43	0	685768704	21	4740
2026-01-15 01:21:21.77	287.77	47.08	-31.1	-33.4	11.9	3.38e-04	0	43	0	687865856	22	4707
2026-01-15 01:21:22.77	287.20	47.01	-30.7	-32.9	12.6	2.75e-04	0	44	0	688914432	21	4605
2026-01-15 01:21:23.77	286.64	46.93	-30.6	-32.5	12.9	1.07e-03	0	44	0	691011584	21	4481
2026-01-15 01:21:24.78	286.08	46.86	-30.7	-32.7	12.8	1.06e-04	0	43	0	693108736	21	4546
2026-01-15 01:21:25.78	285.52	46.78	-31.1	-33.5	12.0	9.30e-05	0	43	0	695205888	22	4720
2026-01-15 01:21:26.78	284.96	46.69	-31.2	-33.6	11.8	8.83e-04	0	43	0	697303040	22	4762
2026-01-15 01:21:27.79	284.41	46.61	-30.8	-32.4	12.7	1.38e-04	0	43	0	698351616	22	4335
2026-01-15 01:21:28.79	283.86	46.52	-30.4	-31.2	13.4	4.50e-05	0	43	0	700448768	22	3974
2026-01-15 01:21:29.79	283.31	46.43	-30.7	-32.1	12.8	3.43e-05	0	44	0	702545920	22	4245
2026-01-15 01:21:30.80	282.77	46.33	-30.9	-32.6	12.6	2.48e-04	0	44	0	704643072	22	4419
2026-01-15 01:21:31.80	282.23	46.24	-31.1	-33.4	12.0	1.12e-03	0	44	0	706740224	22	4687
2026-01-15 01:21:32.80	281.69	46.14	-31.0	-33.1	12.3	2.69e-04	0	43	0	707788800	22	4588
2026-01-15 01:21:33.80	281.16	46.04	-31.1	-33.3	12.1	1.94e-04	0	44	0	709885952	22	4649
2026-01-15 01:21:34.80	280.63	45.93	-31.2	-33.6	11.8	2.81e-03	0	44	0	711983104	22	4758
2026-01-15 01:21:35.81	280.10	45.83	-31.8	-35.4	10.1	3.47e-03	0	43	0	714080256	23	5407
2026-01-15 01:21:36.82	279.58	45.72	-31.7	-34.8	10.5	4.01e-03	0	43	0	716177408	23	5147
2026-01-15 01:21:37.82	279.06	45.61	-31.5	-34.2	11.0	4.10e-03	0	43	0	717225984	23	4923
2026-01-15 01:21:38.83	278.54	45.49	-31.2	-33.8	11.7	2.96e-03	0	43	0	719323136	22	4842
2026-01-15 01:21:39.82	278.03	45.38	-31.3	-33.4	11.6	9.01e-04	0	43	0	721420288	23	4620
2026-01-15 01:21:40.83	277.52	45.26	-31.1	-33.4	11.8	2.78e-03	0	43	0	723517440	22	4687
2026-01-15 01:21:41.83	277.02	45.14	-30.4	-31.8	13.3	2.55e-03	0	44	0	725614592	21	4251
2026-01-15 01:21:42.84	276.52	45.02	-30.2	-31.5	13.6	6.10e-06	0	44	0	726663168	21	4135
2026-01-15 01:21:43.83	276.02	44.89	-31.0	-33.5	12.3	1.72e-03	0	44	0	728760320	21	4822
2026-01-15 01:21:44.83	275.53	44.77	-30.9	-32.7	12.5	1.01e-03	0	44	0	730857472	22	4431
2026-01-15 01:21:45.82	275.05	44.64	-30.6	-31.9	13.0	5.95e-05	0	43	0	732954624	22	4191
2026-01-15 01:21:46.83	274.56	44.51	-30.5	-32.1	13.1	1.22e-04	0	44	0	734003200	21	4352
2026-01-15 01:21:47.83	274.08	44.38	-30.7	-32.6	12.8	7.70e-05	0	43	0	736100352	21	4509
2026-01-15 01:21:48.84	273.60	44.25	-30.2	-31.3	13.6	4.04e-05	0	44	0	738197504	21	4099
2026-01-15 01:21:49.84	273.13	44.11	-30.2	-31.8	13.8	1.51e-03	0	44	0	740294656	20	4316
2026-01-15 01:21:50.85	272.66	43.97	-30.8	-33.1	12.4	1.93e-03	0	43	0	742391808	21	4663
2026-01-15 01:21:51.85	272.20	43.83	-30.9	-33.3	12.3	1.14e-04	0	43	0	743440384	21	4768
2026-01-15 01:21:52.85	271.74	43.70	-30.4	-31.9	13.2	2.41e-03	0	43	0	745537536	21	4285
2026-01-15 01:21:53.86	271.28	43.55	-30.0	-31.4	14.0	1.50e-06	0	43	0	747634688	20	4195
2026-01-15 01:21:54.86	270.83	43.41	-30.1	-31.6	14.0	3.00e-06	0	43	0	749731840	20	4245
2026-01-15 01:21:55.86	270.38	43.27	-30.5	-32.1	13.3	2.33e-03	0	43	0	751828992	21	4302
2026-01-15 01:21:56.86	269.94	43.12	-30.0	-31.1	14.4	2.10e-03	0	43	0	752877568	20	4116
2026-01-15 01:21:57.87	269.49	42.97	-29.5	-30.4	15.0	0.00e+00	0	44	0	754974720	19	3985
2026-01-15 01:21:58.87	269.06	42.82	-29.4	-30.2	15.1	1.96e-03	0	44	0	757071872	19	3928
2026-01-15 01:21:59.87	268.63	42.67	-29.8	-31.0	14.6	2.24e-03	0	44	0	759169024	19	4162
2026-01-15 01:22:00.87	268.20	42.52	-29.5	-30.3	15.1	0.00e+00	0	44	0	761266176	19	3945
2026-01-15 01:22:01.88	267.77	42.37	-29.3	-30.3	15.4	2.18e-03	0	44	0	762314752	18	4041
2026-01-15 01:22:02.88	267.35	42.22	-29.5	-30.5	15.0	2.17e-03	0	44	0	764411904	19	4002
2026-01-15 01:22:03.88	266.94	42.06	-30.1	-31.5	14.0	3.00e-06	0	43	0	766509056	20	4200
2026-01-15 01:22:04.89	266.52	41.90	-29.7	-30.4	14.6	0.00e+00	0	44	0	768606208	20	3908
2026-01-15 01:22:05.89	266.11	41.75	-29.3	-30.0	15.2	2.04e-03	0	43	0	770703360	19	3882
2026-01-15 01:22:06.90	265.71	41.59	-29.3	-29.8	15.3	3.50e-05	0	43	0	771751936	19	3830
2026-01-15 01:22:07.90	265.31	41.43	-29.5	-30.4	14.9	0.00e+00	0	43	0	773849088	19	4005
2026-01-15 01:22:08.89	264.92	41.27	-29.5	-30.5	15.0	0.00e+00	0	43	0	775946240	19	4007
2026-01-15 01:22:09.89	264.53	41.11	-30.0	-31.7	14.3	5.87e-05	0	44	0	778043392	19	4355
2026-01-15 01:22:10.90	264.13	40.95	-30.4	-32.3	13.5	2.41e-03	0	43	0	779091968	20	4470
2026-01-15 01:22:11.91	263.75	40.79	-31.1	-33.2	12.1	9.68e-05	0	43	0	781189120	22	4600
2026-01-15 01:22:12.91	263.37	40.63	-30.7	-32.5	12.6	3.24e-04	0	43	0	783286272	21	4442
2026-01-15 01:22:13.91	262.99	40.46	-30.0	-31.2	14.1	2.43e-03	0	43	0	785383424	20	4127
2026-01-15 01:22:14.91	262.62	40.30	-29.7	-30.3	14.5	0.00e+00	0	43	0	787480576	20	3883
2026-01-15 01:22:15.91	262.25	40.14	-30.0	-31.5	14.2	7.00e-07	0	44	0	788529152	19	4316
2026-01-15 01:22:16.92	261.88	39.97	-29.9	-30.8	14.3	2.07e-03	0	44	0	790626304	20	4024
2026-01-15 01:22:17.92	261.52	39.81	-30.3	-31.9	13.7	5.30e-06	0	44	0	792723456	20	4342
2026-01-15 01:22:18.92	261.16	39.64	-30.0	-31.6	14.2	3.80e-06	0	44	0	794820608	19	4344
2026-01-15 01:22:19.92	260.81	39.47	-30.3	-32.0	13.6	8.30e-06	0	44	0	796917760	20	4385
2026-01-15 01:22:20.93	260.46	39.31	-30.3	-31.9	13.5	2.07e-03	0	44	0	797966336	20	4368
2026-01-15 01:22:21.93	260.11	39.14	-29.9	-31.0	14.1	9.10e-06	0	44	0	800063488	20	4087
2026-01-15 01:22:22.93	259.77	38.97	-29.6	-30.7	14.7	3.80e-06	0	44	0	802160640	19	4063
2026-01-15 01:22:23.93	259.43	38.80	-30.0	-31.6	14.1	1.97e-03	0	44	0	804257792	19	4344
2026-01-15 01:22:24.93	259.09	38.64	-30.5	-32.1	13.1	4.07e-04	0	43	0	806354944	21	4310
2026-01-15 01:22:25.94	258.76	38.47	-31.1	-33.2	12.1	1.83e-04	0	43	0	807403520	22	4613
2026-01-15 01:22:26.94	258.43	38.30	-30.8	-32.3	12.7	2.82e-04	0	44	0	809500672	22	4287
2026-01-15 01:22:27.94	258.10	38.13	-30.5	-31.6	13.3	3.50e-05	0	44	0	811597824	22	4061
2026-01-15 01:22:28.93	257.78	37.96	-30.0	-30.6	14.0	1.67e-05	0	44	0	813694976	21	3864
2026-01-15 01:22:29.93	257.47	37.79	-30.4	-32.2	13.5	2.20e-06	0	43	0	815792128	20	4426
2026-01-15 01:22:30.93	257.15	37.62	-30.2	-31.8	13.8	9.10e-06	0	43	0	816840704	20	4291
2026-01-15 01:22:31.94	256.84	37.45	-30.3	-32.0	13.6	5.30e-06	0	44	0	818937856	20	4364
2026-01-15 01:22:32.94	256.53	37.28	-30.4	-32.3	13.4	8.30e-06	0	44	0	821035008	20	4453
2026-01-15 01:22:33.95	256.22	37.11	-30.8	-32.9	12.7	3.50e-05	0	44	0	823132160	21	4571
2026-01-15 01:22:34.95	255.92	36.94	-31.0	-33.1	12.2	2.32e-04	0	43	0	824180736	22	4538
2026-01-15 01:22:35.95	255.62	36.77	-31.3	-33.8	11.8	7.39e-04	0	43	0	826277888	22	4789
2026-01-15 01:22:36.96	255.32	36.60	-31.0	-32.9	12.4	2.68e-04	0	44	0	828375040	22	4475
2026-01-15 01:22:37.96	255.02	36.43	-30.9	-32.5	12.6	1.04e-04	0	44	0	830472192	22	4366
2026-01-15 01:22:38.96	254.73	36.26	-31.5	-34.1	11.2	8.23e-04	0	44	0	832569344	23	4815
2026-01-15 01:22:39.96	254.45	36.09	-31.9	-35.3	10.3	2.64e-03	0	43	0	833617920	23	5322
2026-01-15 01:22:40.97	254.16	35.92	-32.2	-35.9	9.4	1.14e-02	0	44	0	835715072	24	5513
2026-01-15 01:22:41.97	253.88	35.75	-32.0	-35.3	9.8	1.39e-02	0	43	0	837812224	24	5252
2026-01-15 01:22:42.98	253.60	35.58	-32.3	-36.2	9.1	1.44e-02	0	44	0	839909376	24	5673
2026-01-15 01:22:43.99	253.32	35.41	-32.3	-36.5	8.9	2.13e-02	0	44	0	842006528	24	5800
2026-01-15 01:22:44.98	253.05	35.24	-32.7	-37.6	7.7	7.66e-02	0	43	0	843055104	25	6310
2026-01-15 01:22:45.98	252.78	35.07	-32.4	-36.0	9.0	3.61e-02	0	44	0	845152256	25	5460
2026-01-15 01:22:46.99	252.51	34.90	-31.8	-34.3	10.7	9.30e-03	0	43	0	847249408	24	4804
2026-01-15 01:22:47.99	252.25	34.73	-31.4	-33.5	11.6	1.61e-03	0	44	0	849346560	23	4605
2026-01-15 01:22:48.99	251.99	34.57	-31.8	-34.7	10.6	2.17e-03	0	43	0	851443712	23	5081
2026-01-15 01:22:49.99	251.73	34.40	-31.2	-34.9	9.4	6.64e-03	0	44	0	852492288	24	5515
2026-01-15 01:22:50.99	251.47	34.23	-32.8	-37.7	7.7	3.25e-02	0	44	0	854589440	25	6349
2026-01-15 01:22:51.99	251.22	34.06	-32.7	-37.3	7.7	6.91e-02	0	44	0	856686592	25	6118
2026-01-15 01:22:52.99	250.97	33.90	-32.4	-36.8	8.3	2.49e-02	0	44	0	858783744	24	5926
2026-01-15 01:22:54.00	250.72	33.73	-32.3	-36.1	9.2	2.31e-02	0	44	0	860880896	24	5622
2026-01-15 01:22:55.00	250.47	33.56	-32.3	-36.1	9.1	1.53e-02	0	44	0	861929472	24	5589
2026-01-15 01:22:56.00	250.23	33.39	-32.2	-35.8	9.3	1.35e-02	0	44	0	864026624	24	5446
2026-01-15 01:22:57.00	249.99	33.23	-32.1	-35.6	9.6	1.37e-02	0	44	0	866123776	24	5363
2026-01-15 01:22:58.01	249.75	33.06	-32.1	-35.4	9.8	1.21e-02	0	44	0	868220928	24	5288
2026-01-15 01:22:59.01	249.51	32.89	-32.1	-35.4	9.8	7.42e-03	0	44	0	870318080	24	5268
2026-01-15 01:23:00.02	249.28	32.73	-32.1	-35.4	9.8	1.03e-02	0	44	0	871366656	24	5289
2026-01-15 01:23:01.02	249.05	32.56	-31.7	-34.7	10.7	4.30e-03	0	44	0	873463808	23	5067
2026-01-15 01:23:02.03	248.82	32.40	-31.4	-34.0	11.5	3.51e-03	0	44	0	875560960	22	4885
2026-01-15 01:23:03.03	248.59	32.23	-30.9	-32.6	12.4	3.29e-04	0	43	0	877658112	22	4386
2026-01-15 01:23:04.03	248.37	32.07	-30.8	-33.0	12.6	3.45e-04	0	43	0	878706688	21	4608
2026-01-15 01:23:05.04	248.14	31.91	-30.9	-33.1	12.5	6.79e-05	0	44	0	880803840	21	4653
2026-01-15 01:23:06.04	247.92	31.74	-30.9	-33.1	12.5	5.61e-04	0	44	0	882900992	21	4664
2026-01-15 01:23:07.03	247.71	31.58	-31.3	-33.9	11.6	1.63e-04	0	44	0	884998144	22	4851
2026-01-15 01:23:08.04	247.49	31.42	-31.7	-34.7	10.6	1.60e-03	0	44	0	887095296	23	5083
2026-01-15 01:23:09.04	247.28	31.26	-31.7	-34.6	10.7	6.45e-03	0	43	0	888143872	23	5053
2026-01-15 01:23:10.05	247.07	31.09	-31.7	-34.8	10.4	8.77e-03	0	44	0	890241024	23	5132
2026-01-15 01:23:11.05	246.86	30.93	-31.5	-33.9	11.1	2.70e-03	0	44	0	892338176	23	4788
2026-01-15 01:23:12.05	246.65	30.77	-31.4	-34.2	11.3	1.22e-03	0	43	0	894435328	22	4995
2026-01-15 01:23:13.05	246.45	30.61	-31.3	-33.9	11.5	3.86e-03	0	44	0	896532480	22	4869
2026-01-15 01:23:14.05	246.25	30.46	-31.4	-34.4	11.2	7.23e-04	0	44	0	897581056	22	5038
2026-01-15 01:23:15.06	246.04	30.30	-31.6	-34.3	10.9	3.01e-03	0	44	0	899678208	23	4907
2026-01-15 01:23:16.06	245.85	30.14	-31.4	-34.1	11.5	4.62e-03	0	44	0	901775360	22	4908
2026-01-15 01:23:17.06	245.65	29.98	-31.0	-32.9	12.3	3.38e-03	0	43	0	903872512	22	4464
2026-01-15 01:23:18.06	245.45	29.82	-31.0	-33.3	12.4	1.27e-04	0	44	0	905969664	21	4693
2026-01-15 01:23:19.07	245.26	29.66	-31.1	-33.1	12.2	2.76e-03	0	44	0	907018240	22	4525
2026-01-15 01:23:20.07	245.07	29.51	-31.2	-33.6	11.9	2.92e-03	0	44	0	909115392	22	4701
2026-01-15 01:23:21.06	244.88	29.35	-31.2	-33.4	12.1	4.31e-04	0	44	0	911212544	22	4639
2026-01-15 01:23:22.06	244.70	29.20	-31.7	-34.3	11.0	7.92e-04	0	44	0	913309696	23	4887
2026-01-15 01:23:23.06	244.51	29.04	-32.0	-35.1	10.0	9.21e-03	0	43	0	915406848	24	5138
2026-01-15 01:23:24.06	244.33	28.89	-31.9	-34.7	10.3	5.68e-03	0	44	0	916455424	24	4942
2026-01-15 01:23:25.06	244.15	28.74	-31.8	-34.9	10.6	3.53e-03	0	44	0	918552576	23	5112
2026-01-15 01:23:26.06	243.97	28.58	-31.6	-34.3	11.0	2.75e-03	0	44	0	920649728	23	4868
2026-01-15 01:23:27.06	243.79	28.43	-31.7	-34.4	10.8	2.51e-03	0	43	0	922746880	23	4943
2026-01-15 01:23:28.07	243.61	28.28	-31.1	-33.3	12.0	2.92e-03	0	43	0	924844032	22	4601
2026-01-15 01:23:29.07	243.44	28.13	-31.3	-33.8	11.6	3.78e-04	0	43	0	925892608	22	4792
2026-01-15 01:23:30.08	243.26	27.97	-30.8	-32.3	12.7	2.85e-04	0	44	0	927989760	22	4271
2026-01-15 01:23:31.08	243.09	27.82	-30.6	-32.1	13.1	1.93e-03	0	44	0	930086912	21	4305
2026-01-15 01:23:32.08	242.92	27.67	-30.5	-32.5	13.3	1.72e-03	0	44	0	932184064	20	4511
2026-01-15 01:23:33.09	242.75	27.52	-31.1	-33.1	12.2	1.49e-04	0	44	0	933232640	22	4537
2026-01-15 01:23:34.09	242.58	27.37	-31.1	-33.3	12.1	1.60e-03	0	44	0	935329792	22	4609
2026-01-15 01:23:35.09	242.42	27.22	-31.6	-34.2	11.0	1.93e-03	0	44	0	937426944	23	4866
2026-01-15 01:23:36.10	242.25	27.07	-31.8	-35.0	10.4	2.83e-03	0	44	0	939524096	23	5186
2026-01-15 01:23:37.10	242.09	26.93	-31.9	-35.4	10.1	5.50e-03	0	44	0	941621248	23	5343
2026-01-15 01:23:38.10	241.93	26.78	-32.0	-35.1	9.9	6.79e-03	0	43	0	942669824	24	5160
2026-01-15 01:23:39.11	241.77	26.63	-31.9	-34.9	10.1	7.18e-03	0	43	0	944766976	24	5050
2026-01-15 01:23:40.11	241.61	26.49	-32.0	-35.1	9.9	8.73e-03	0	43	0	946864128	24	5162
2026-01-15 01:23:41.11	241.46	26.34	-31.3	-32.8	11.6	2.86e-03	0	43	0	948961280	24	4289
2026-01-15 01:23:42.12	241.30	26.20	-31.2	-32.8	11.9	9.92e-04	0	43	0	951058432	23	4366
2026-01-15 01:23:43.12	241.15	26.05	-31.0	-32.9	12.2	1.87e-04	0	43	0	952107008	22	4498
2026-01-15 01:23:44.13	240.99	25.91	-31.2	-33.4	12.0	2.23e-04	0	44	0	954204160	22	4657
2026-01-15 01:23:45.13	240.84	25.76	-31.1	-33.1	12.1	9.15e-04	0	44	0	956301312	22	4561
2026-01-15 01:23:46.13	240.70	25.62	-31.3	-33.8	11.6	1.21e-03	0	44	0	958398464	22	4814
2026-01-15 01:23:47.13	240.55	25.48	-31.6	-34.3	10.9	2.56e-03	0	44	0	960495616	23	4906
2026-01-15 01:23:48.14	240.40	25.34	-31.8	-35.0	10.4	3.46e-03	0	44	0	961544192	23	5201
2026-01-15 01:23:49.14	240.26	25.20	-31.5	-34.1	11.0	5.38e-03	0	44	0	963641344	23	4840
2026-01-15 01:23:50.15	240.11	25.06	-31.3	-33.7	11.6	7.90e-04	0	44	0	965738496	22	4782
2026-01-15 01:23:51.16	239.97	24.91	-30.9	-32.6	12.4	5.15e-04	0	43	0	967835648	22	4398
2026-01-15 01:23:52.16	239.83	24.78	-30.6	-32.4	12.9	1.79e-03	0	44	0	969932800	21	4399
2026-01-15 01:23:53.17	239.68	24.64	-30.7	-32.7	12.7	7.70e-05	0	43	0	970981376	21	4505
2026-01-15 01:23:54.17	239.55	24.50	-31.0	-32.8	12.3	2.48e-04	0	43	0	973078528	22	4455
2026-01-15 01:23:55.17	239.41	24.36	-31.3	-33.8	11.6	1.46e-03	0	43	0	975175680	22	4821
2026-01-15 01:23:56.17	239.27	24.22	-31.5	-34.1	10.9	2.31e-03	0	44	0	977272832	23	4849
2026-01-15 01:23:57.17	239.14	24.09	-31.8	-34.8	10.6	2.41e-03	0	44	0	979369984	23	5121
2026-01-15 01:23:58.18	239.00	23.95	-31.9	-35.2	10.2	5.81e-03	0	44	0	980418560	23	5275
2026-01-15 01:23:59.18	238.87	23.81	-31.7	-34.7	10.5	6.21e-03	0	44	0	982515712	23	5065
2026-01-15 01:24:00.18	238.74	23.68	-31.4	-33.6	11.3	1.56e-03	0	44	0	984612864	23	4660
2026-01-15 01:24:01.19	238.61	23.54	-31.0	-33.1	12.1	4.49e-04	0	43	0	986710016	22	4551
2026-01-15 01:24:02.20	238.48	23.41	-30.7	-32.6	12.6	1.33e-03	0	44	0	987758592	21	4491
2026-01-15 01:24:03.20	238.35	23.28	-30.6	-32.2	12.9	5.64e-05	0	44	0	989855744	21	4360
2026-01-15 01:24:04.20	238.22	23.14	-30.4	-31.6	13.3	1.60e-05	0	44	0	991952896	21	4173
2026-01-15 01:24:05.20	238.10	23.01	-30.4	-32.3	13.2	1.79e-03	0	44	0	994050048	20	4468
2026-01-15 01:24:06.21	237.97	22.88	-30.2	-31.7	13.6	9.99e-05	0	44	0	996147200	20	4293
2026-01-15 01:24:07.22	237.85	22.75	-30.2	-31.6	13.7	9.10e-06	0	44	0	998244352	20	4257
2026-01-15 01:24:08.21	237.72	22.62	-30.2	-31.7	13.6	1.22e-05	0	43	0	999292928	20	4294
2026-01-15 01:24:09.22	237.60	22.49	-30.3	-32.2	13.3	2.63e-04	0	44	0	1001390080	20	4433
2026-01-15 01:24:10.22	237.48	22.36	-30.4	-32.4	13.1	1.67e-05	0	43	0	1003487232	20	4524
2026-01-15 01:24:11.22	237.36	22.23	-30.5	-32.1	13.0	2.28e-05	0	43	0	1005584384	21	4318
2026-01-15 01:24:12.22	237.24	22.10	-30.6	-32.4	12.8	3.20e-05	0	43	0	1006632960	21	4417
2026-01-15 01:24:13.22	237.13	21.97	-30.9	-33.1	12.3	1.94e-04	0	44	0	1008730112	21	4659
2026-01-15 01:24:14.23	237.01	21.84	-30.8	-33.1	12.3	1.39e-04	0	43	0	1010827264	21	4648
2026-01-15 01:24:15.23	236.89	21.71	-30.7	-32.6	12.6	1.33e-04	0	43	0	1012924416	21	4489
2026-01-15 01:24:16.23	236.78	21.59	-30.8	-32.9	12.4	1.08e-03	0	44	0	1015021568	21	4602
2026-01-15 01:24:17.23	236.67	21.46	-30.8	-32.9	12.4	1.14e-04	0	44	0	1016070144	21	4612
2026-01-15 01:24:18.23	236.55	21.34	-30.6	-32.4	12.8	1.26e-04	0	43	0	1018167296	21	4432
2026-01-15 01:24:19.24	236.44	21.21	-30.4	-31.8	13.1	4.88e-05	0	43	0	1020264448	21	4241
2026-01-15 01:24:20.24	236.33	21.09	-30.2	-31.8	13.4	2.05e-05	0	44	0	1022361600	20	4338
2026-01-15 01:24:21.25	236.22	20.96	-29.3	-30.7	13.6	1.37e-05	0	44	0	1024458752	20	4220
2026-01-15 01:24:22.26	236.11	20.84	-30.1	-31.6	13.6	6.80e-06	0	43	0	1025507328	20	4250
2026-01-15 01:24:23.26	236.00	20.71	-30.3	-31.9	13.3	4.20e-04	0	43	0	1027604480	20	4359
2026-01-15 01:24:24.25	235.89	20.59	-30.1	-31.6	13.5	6.80e-06	0	44	0	1029701632	20	4266
2026-01-15 01:24:25.26	235.79	20.47	-30.5	-32.5	13.0	3.20e-05	0	43	0	1031798784	20	4545
2026-01-15 01:24:26.25	235.68	20.35	-30.6	-32.4	12.6	5.56e-05	0	44	0	1032847360	21	4429
2026-01-15 01:24:27.25	235.58	20.23	-30.9	-33.3	12.1	7.26e-04	0	44	0	1034944512	21	4755
2026-01-15 01:24:28.25	235.47	20.11	-31.2	-33.5	11.6	4.67e-04	0	44	0	1037041664	22	4728
2026-01-15 01:24:29.25	235.37	19.99	-31.4	-34.2	11.1	1.27e-03	0	43	0	1039138816	22	4999
2026-01-15 01:24:30.26	235.27	19.87	-31.6	-34.4	10.6	3.12e-03	0	44	0	1041235968	23	4987
2026-01-15 01:24:31.26	235.17	19.75	-31.5	-34.2	10.8	2.47e-03	0	43	0	1043333120	23	4886
2026-01-15 01:24:32.27	235.06	19.63	-31.5	-34.2	10.7	2.86e-03	0	44	0	1044381696	23	4907
2026-01-15 01:24:33.27	234.96	19.51	-31.3	-34.0	11.3	1.74e-03	0	43	0	1046478848	22	4892
2026-01-15 01:24:34.28	234.86	19.39	-31.2	-33.6	11.5	9.25e-04	0	43	0	1048576000	22	4749
2026-01-15 01:24:35.28	234.77	19.27	-31.2	-33.7	11.4	8.22e-04	0	43	0	1050673152	22	4790
2026-01-15 01:24:36.28	234.67	19.16	-31.2	-33.6	11.5	8.23e-04	0	44	0	1051721728	22	4780
2026-01-15 01:24:37.28	234.57	19.04	-31.0	-33.2	11.7	5.69e-04	0	44	0	1053818880	22	4634
2026-01-15 01:24:38.29	234.48	18.92	-31.1	-33.3	11.7	5.50e-04	0	43	0	1055916032	22	4655
2026-01-15 01:24:39.30	234.38	18.81	-30.3	-32.5	11.8	5.12e-04	0	43	0	1058013184	22	4622
2026-01-15 01:24:40.30	234.29	18.69	-30.0	-32.4	11.5	5.10e-04	0	44	0	1060110336	21	4782
2026-01-15 01:24:41.30	234.19	18.58	-31.1	-33.3	11.2	4.74e-04	0	43	0	1061158912	22	4668
2026-01-15 01:24:42.30	234.10	18.46	-31.2	-33.7	10.6	8.13e-04	0	44	0	1063256064	22	4812
2026-01-15 01:24:43.30	234.01	18.35	-31.0	-33.6	11.2	5.65e-04	0	44	0	1065353216	21	4888
2026-01-15 01:24:44.30	233.92	18.24	-30.9	-33.4	11.8	4.32e-04	0	43	0	1067450368	21	4797
2026-01-15 01:24:45.30	233.82	18.12	-31.0	-33.5	11.8	4.48e-04	0	43	0	1069547520	21	4839
2026-01-15 01:24:46.31	233.73	18.01	-30.9	-33.4	11.9	3.93e-04	0	44	0	1070596096	21	4794
2026-01-15 01:24:47.31	233.64	17.90	-30.9	-33.4	11.9	5.43e-04	0	43	0	1072693248	21	4798
2026-01-15 01:24:48.31	233.56	17.79	-31.0	-33.1	11.7	5.23e-04	0	43	0	1074790400	22	4611
2026-01-15 01:24:49.31	233.47	17.68	-31.0	-33.0	11.8	6.00e-04	0	44	0	1076887552	22	4574
2026-01-15 01:24:50.32	233.38	17.57	-30.9	-32.8	12.0	4.33e-04	0	43	0	1078984704	22	4507
2026-01-15 01:24:51.33	233.29	17.45	-31.0	-33.1	11.7	5.39e-04	0	44	0	1080033280	22	4616
2026-01-15 01:24:52.33	233.20	17.35	-31.1	-33.4	11.5	6.77e-04	0	44	0	1082130432	22	4702
2026-01-15 01:24:53.33	233.12	17.24	-30.9	-33.0	11.8	6.93e-04	0	44	0	1084227584	22	4566
2026-01-15 01:24:54.33	233.03	17.13	-31.1	-33.7	11.3	2.85e-03	0	44	0	1086324736	22	4821
2026-01-15 01:24:55.34	232.95	17.02	-31.1	-33.6	11.3	1.01e-03	0	44	0	1088421888	22	4803
2026-01-15 01:24:56.34	232.87	16.91	-31.0	-33.2	11.6	7.48e-04	0	44	0	1089470464	22	4642
2026-01-15 01:24:57.35	232.78	16.80	-31.0	-33.6	11.7	6.64e-04	0	44	0	1091567616	21	4892
2026-01-15 01:24:58.35	232.70	16.69	-30.9	-33.5	11.7	3.13e-03	0	44	0	1093664768	21	4869
2026-01-15 01:24:59.36	232.62	16.59	-31.1	-33.4	11.4	9.03e-04	0	43	0	1095761920	22	4728
2026-01-15 01:25:00.36	232.54	16.48	-31.1	-33.7	11.2	1.33e-03	0	43	0	1097859072	22	4828
2026-01-15 01:25:01.37	232.45	16.37	-30.9	-33.4	11.7	3.25e-03	0	43	0	1098907648	21	4824
2026-01-15 01:25:02.37	232.37	16.27	-30.8	-33.1	12.0	3.29e-04	0	44	0	1101004800	21	4703
2026-01-15 01:25:03.37	232.30	16.16	-30.9	-33.6	11.6	5.03e-04	0	44	0	1103101952	21	4882
2026-01-15 01:25:04.38	232.22	16.06	-31.1	-33.7	11.2	3.51e-03	0	44	0	1105199104	22	4815
2026-01-15 01:25:05.38	232.14	15.95	-31.2	-33.8	11.1	1.63e-03	0	43	0	1106247680	22	4882
2026-01-15 01:25:06.38	232.06	15.85	-31.2	-34.0	11.0	1.35e-03	0	44	0	1108344832	22	4976
2026-01-15 01:25:07.38	231.98	15.74	-31.4	-34.4	10.6	3.31e-03	0	44	0	1110441984	22	5129
2026-01-15 01:25:08.38	231.91	15.64	-31.3	-34.3	10.8	2.52e-03	0	44	0	1112539136	22	5061
2026-01-15 01:25:09.39	231.83	15.54	-31.4	-34.6	10.5	5.63e-03	0	44	0	1114636288	22	5206
2026-01-15 01:25:10.40	231.75	15.43	-31.5	-34.4	10.3	5.96e-03	0	43	0	1115684864	23	5030
2026-01-15 01:25:11.40	231.68	15.33	-31.4	-34.2	10.4	4.11e-03	0	44	0	1117782016	23	4950
2026-01-15 01:25:12.40	231.60	15.23	-31.5	-34.9	10.3	7.21e-03	0	43	0	1119879168	22	5317
2026-01-15 01:25:13.40	231.53	15.13	-31.5	-34.6	10.1	9.37e-03	0	43	0	1121976320	23	5108
2026-01-15 01:25:14.41	231.46	15.03	-31.5	-34.5	10.2	5.15e-03	0	43	0	1124073472	23	5086
2026-01-15 01:25:15.41	231.38	14.93	-31.6	-34.9	9.9	1.02e-02	0	44	0	1125122048	23	5256
2026-01-15 01:25:16.41	231.31	14.83	-31.7	-35.0	9.8	1.45e-02	0	44	0	1127219200	23	5294
2026-01-15 01:25:17.41	231.24	14.73	-31.5	-34.4	10.2	7.98e-03	0	44	0	1129316352	23	5044
2026-01-15 01:25:18.41	231.17	14.63	-31.5	-34.5	10.2	8.80e-03	0	44	0	1131413504	23	5056
2026-01-15 01:25:19.41	231.10	14.53	-31.4	-34.7	10.3	7.72e-03	0	44	0	1133510656	22	5263
2026-01-15 01:25:20.41	231.03	14.43	-31.3	-34.4	10.6	4.36e-03	0	44	0	1134559232	22	5127
2026-01-15 01:25:21.41	230.96	14.33	-31.3	-34.4	10.6	6.33e-03	0	43	0	1136656384	22	5148
2026-01-15 01:25:22.42	230.89	14.23	-31.2	-33.8	11.0	4.60e-03	0	44	0	1138753536	22	4897
2026-01-15 01:25:23.42	230.82	14.13	-31.1	-33.7	11.1	1.66e-03	0	44	0	1140850688	22	4864
2026-01-15 01:25:24.42	230.75	14.04	-31.2	-34.1	10.8	4.58e-03	0	44	0	1142947840	22	5016
2026-01-15 01:25:25.43	230.68	13.94	-31.2	-33.9	10.9	5.76e-03	0	43	0	1143996416	22	4935
2026-01-15 01:25:26.43	230.61	13.84	-30.9	-33.7	11.4	1.51e-03	0	44	0	1146093568	21	4938
2026-01-15 01:25:27.43	230.54	13.75	-30.9	-33.5	11.5	3.59e-03	0	44	0	1148190720	21	4879
2026-01-15 01:25:28.44	230.48	13.65	-30.9	-33.2	11.4	4.03e-03	0	44	0	1150287872	22	4683
2026-01-15 01:25:29.44	230.41	13.55	-30.7	-32.6	11.8	7.93e-04	0	44	0	1151336448	22	4450
2026-01-15 01:25:30.44	230.34	13.46	-30.8	-33.2	11.7	3.15e-03	0	44	0	1153433600	21	4779
2026-01-15 01:25:31.45	230.28	13.36	-30.7	-33.1	11.8	3.01e-03	0	44	0	1155530752	21	4724
2026-01-15 01:25:32.45	230.21	13.27	-30.8	-33.2	11.7	7.97e-04	0	43	0	1157627904	21	4765
2026-01-15 01:25:33.45	230.15	13.17	-30.9	-33.6	11.4	3.43e-03	0	43	0	1159725056	21	4915
2026-01-15 01:25:34.46	230.08	13.08	-30.7	-33.2	11.7	3.45e-03	0	44	0	1161822208	21	4751
2026-01-15 01:25:35.46	230.02	12.99	-30.5	-32.5	12.2	3.16e-04	0	44	0	1162870784	21	4516
2026-01-15 01:25:36.47	229.96	12.89	-30.4	-32.3	12.3	2.97e-03	0	43	0	1164967936	21	4438
2026-01-15 01:25:37.47	229.89	12.80	-30.5	-32.5	12.2	2.87e-03	0	43	0	1167065088	21	4529
2026-01-15 01:25:38.47	229.83	12.71	-30.6	-32.7	12.0	2.97e-04	0	44	0	1169162240	21	4609
2026-01-15 01:25:39.48	229.77	12.61	-30.6	-32.7	12.0	2.90e-03	0	44	0	1170210816	21	4577
2026-01-15 01:25:40.48	229.71	12.52	-30.7	-33.2	11.7	2.81e-03	0	44	0	1172307968	21	4765
2026-01-15 01:25:41.48	229.65	12.43	-30.8	-33.4	11.6	9.23e-04	0	44	0	1174405120	21	4832
2026-01-15 01:25:42.48	229.59	12.34	-30.8	-33.3	11.6	6.64e-04	0	43	0	1176502272	21	4802
2026-01-15 01:25:43.49	229.53	12.25	-30.8	-33.2	11.7	3.31e-03	0	44	0	1178599424	21	4779
2026-01-15 01:25:44.49	229.47	12.15	-30.8	-33.4	11.5	1.34e-03	0	43	0	1179648000	21	4849
2026-01-15 01:25:45.49	229.41	12.06	-30.9	-33.6	11.3	1.31e-03	0	44	0	1181745152	21	4905
2026-01-15 01:25:46.50	229.35	11.97	-30.9	-33.7	11.2	1.13e-03	0	43	0	1183842304	21	4984
2026-01-15 01:25:47.50	229.29	11.88	-31.0	-33.5	11.0	1.71e-03	0	43	0	1185939456	22	4814
2026-01-15 01:25:48.50	229.23	11.79	-31.1	-33.8	10.8	2.21e-03	0	43	0	1188036608	22	4912
2026-01-15 01:25:49.50	229.17	11.70	-30.9	-33.8	11.2	1.49e-03	0	43	0	1189085184	21	4991
2026-01-15 01:25:50.51	229.11	11.61	-31.1	-33.9	10.8	2.42e-03	0	44	0	1191182336	22	4948
2026-01-15 01:25:51.50	229.06	11.53	-31.2	-34.1	10.7	5.79e-03	0	43	0	1193279488	22	5029
2026-01-15 01:25:52.51	229.00	11.44	-31.1	-33.8	10.8	2.47e-03	0	43	0	1195376640	22	4939
2026-01-15 01:25:53.52	228.94	11.35	-31.2	-34.1	10.6	2.97e-03	0	43	0	1197473792	22	5030
2026-01-15 01:25:54.52	228.88	11.26	-31.1	-34.0	10.7	6.22e-03	0	43	0	1198522368	22	4986
2026-01-15 01:25:55.52	228.83	11.17	-31.1	-34.0	10.7	3.89e-03	0	43	0	1200619520	22	4984
2026-01-15 01:25:56.53	228.77	11.09	-31.2	-34.1	10.5	4.27e-03	0	43	0	1202716672	22	5042
2026-01-15 01:25:57.53	228.72	11.00	-31.2	-34.1	10.5	3.88e-03	0	43	0	1204813824	22	5035
2026-01-15 01:25:58.53	228.66	10.91	-31.1	-34.0	10.6	3.71e-03	0	44	0	1206910976	22	4998
2026-01-15 01:25:59.53	228.61	10.83	-31.2	-34.3	10.5	3.27e-03	0	43	0	1207959552	22	5144
2026-01-15 01:26:00.53	228.55	10.74	-31.2	-34.1	10.5	3.80e-03	0	43	0	1210056704	22	5066
2026-01-15 01:26:01.53	228.50	10.65	-31.1	-34.0	10.6	5.08e-03	0	43	0	1212153856	22	5001
2026-01-15 01:26:02.53	228.45	10.57	-31.1	-33.8	10.6	3.53e-03	0	43	0	1214251008	22	4954
2026-01-15 01:26:03.53	228.39	10.48	-31.0	-33.7	10.7	3.81e-03	0	43	0	1215299584	22	4914
2026-01-15 01:26:04.53	228.34	10.40	-31.0	-33.6	10.8	2.55e-03	0	44	0	1217396736	22	4860
2026-01-15 01:26:05.54	228.29	10.31	-31.2	-34.2	10.4	4.05e-03	0	44	0	1219493888	22	5094
2026-01-15 01:26:06.54	228.23	10.23	-31.1	-33.9	10.6	4.47e-03	0	44	0	1221591040	22	4976
2026-01-15 01:26:07.55	228.18	10.14	-31.0	-33.5	10.8	2.94e-03	0	44	0	1223688192	22	4838
2026-01-15 01:26:08.55	228.13	10.06	-31.1	-34.0	10.5	3.93e-03	0	44	0	1224736768	22	5044
2026-01-15 01:26:09.56	228.08	9.97	-31.1	-34.0	10.5	3.67e-03	0	44	0	1226833920	22	5031
2026-01-15 01:26:10.56	228.03	9.89	-31.1	-34.1	10.4	4.47e-03	0	43	0	1228931072	22	5074
2026-01-15 01:26:11.56	227.98	9.81	-31.1	-33.9	10.5	4.72e-03	0	44	0	1231028224	22	4993
2026-01-15 01:26:12.56	227.93	9.72	-31.1	-34.1	10.4	4.54e-03	0	43	0	1233125376	22	5072
2026-01-15 01:26:13.56	227.88	9.64	-31.1	-34.2	10.3	4.52e-03	0	44	0	1234173952	22	5102
2026-01-15 01:26:14.56	227.83	9.56	-31.1	-34.2	10.3	3.95e-03	0	44	0	1236271104	22	5102
2026-01-15 01:26:15.56	227.78	9.48	-31.2	-34.3	10.2	5.93e-03	0	44	0	1238368256	22	5141
2026-01-15 01:26:16.56	227.73	9.39	-31.2	-34.5	10.0	7.59e-03	0	44	0	1240465408	22	5246
2026-01-15 01:26:17.56	227.68	9.31	-31.2	-34.3	10.1	7.37e-03	0	44	0	1242562560	22	5156
2026-01-15 01:26:18.56	227.63	9.23	-31.2	-34.6	9.9	6.71e-03	0	44	0	1243611136	22	5299
2026-01-15 01:26:19.57	227.58	9.15	-31.2	-34.4	10.1	9.08e-03	0	44	0	1245708288	22	5208
2026-01-15 01:26:20.58	227.53	9.07	-31.3	-34.8	9.8	7.69e-03	0	44	0	1247805440	22	5371
2026-01-15 01:26:21.57	227.49	8.99	-31.1	-34.1	10.2	6.75e-03	0	44	0	1249902592	22	5084
2026-01-15 01:26:22.57	227.44	8.91	-31.2	-34.6	9.9	8.71e-03	0	44	0	1251999744	22	5284
2026-01-15 01:26:23.58	227.39	8.83	-29.5	-32.7	10.1	1.02e-02	0	44	0	1253048320	21	5223
2026-01-15 01:26:24.58	227.34	8.75	-31.2	-34.5	9.6	7.62e-03	0	43	0	1255145472	22	5285
2026-01-15 01:26:25.59	227.30	8.67	-31.2	-34.6	9.7	1.06e-02	0	43	0	1257242624	22	5335
2026-01-15 01:26:26.59	227.25	8.59	-31.3	-34.8	9.5	9.35e-03	0	44	0	1259339776	22	5393
2026-01-15 01:26:27.59	227.20	8.51	-31.3	-35.1	9.4	1.18e-02	0	44	0	1260388352	22	5537
2026-01-15 01:26:28.60	227.16	8.43	-31.4	-35.4	9.2	2.06e-02	0	44	0	1262485504	22	5672
2026-01-15 01:26:29.60	227.11	8.35	-31.3	-35.0	9.5	1.62e-02	0	44	0	1264582656	22	5488
2026-01-15 01:26:30.60	227.07	8.27	-31.5	-35.8	8.9	2.22e-02	0	44	0	1266679808	22	5872
2026-01-15 01:26:31.60	227.02	8.19	-31.6	-35.5	8.6	2.99e-02	0	44	0	1268776960	23	5674
2026-01-15 01:26:32.60	226.98	8.11	-31.6	-35.6	8.6	4.91e-02	0	44	0	1269825536	23	5693
2026-01-15 01:26:33.60	226.93	8.04	-31.4	-35.4	9.1	2.78e-02	0	44	0	1271922688	22	5725
2026-01-15 01:26:34.61	226.89	7.96	-31.5	-35.2	8.9	2.51e-02	0	43	0	1274019840	23	5520
2026-01-15 01:26:35.61	226.84	7.88	-31.5	-35.5	8.6	2.90e-02	0	43	0	1276116992	23	5682
2026-01-15 01:26:36.62	226.80	7.80	-31.5	-35.6	8.5	5.11e-02	0	44	0	1278214144	23	5713
2026-01-15 01:26:37.62	226.75	7.73	-31.6	-35.9	8.2	3.97e-02	0	43	0	1279262720	23	5899
2026-01-15 01:26:38.62	226.71	7.65	-31.6	-35.8	8.3	5.99e-02	0	44	0	1281359872	23	5836
2026-01-15 01:26:39.62	226.67	7.57	-31.5	-35.5	8.6	3.83e-02	0	43	0	1283457024	23	5662
2026-01-15 01:26:40.63	226.62	7.49	-31.4	-34.9	9.0	2.65e-02	0	44	0	1285554176	23	5396
2026-01-15 01:26:41.63	226.58	7.42	-31.2	-34.8	9.5	1.72e-02	0	44	0	1287651328	22	5415
