passes_logs/2026/01/15/R2M6_AANII_01/R2M6_AANII_01__20260115_035440_FENGYUN_3D_rec.log

#Pass ID: 20260115_035440_FENGYUN 3D
#Satellite: FENGYUN 3D
#Configuration: FENGYUN 3D
#almurnet v.1.7.20240730
#Start time: 2026-01-15 03:54:42

#Version: 2.2.20231116
#Station: R2M6_AANII_01
#Location: 30.233357 lon 59.946436 lat
#TLE: 1 43010U 17072A   26014.22831475  .00000226  00000+0  12883-3 0  9994
#TLE: 2 43010  98.9934 346.0326 0002309 109.2304 250.9121 14.19696287423146

#Time	Az	El	Level	Level2	SNR	BER	BlckErr	Temp	State	Recorded	gain1	gain2
2026-01-15 03:54:42.30	12.27	7.14	-31.2	-35.7	4.9	8.04e-01	0	41	0	0	22	6075
2026-01-15 03:54:43.29	12.20	7.21	-31.2	-35.9	4.9	8.05e-01	0	41	104	0	22	6178
2026-01-15 03:54:44.29	12.12	7.28	-31.2	-35.8	7.4	1.47e-01	0	41	0	0	22	6072
2026-01-15 03:54:45.29	12.05	7.35	-31.3	-35.8	7.4	1.25e-01	0	41	0	5242880	22	6080
2026-01-15 03:54:46.29	11.98	7.42	-31.3	-35.9	7.4	1.34e-01	0	41	0	10485760	22	6102
2026-01-15 03:54:47.29	11.91	7.49	-31.2	-35.5	7.6	1.19e-01	0	41	0	16777216	22	5918
2026-01-15 03:54:48.29	11.83	7.56	-30.8	-34.3	8.5	6.53e-02	0	41	0	22020096	22	5383
2026-01-15 03:54:49.30	11.76	7.63	-30.3	-33.3	9.6	2.05e-02	0	41	0	27262976	21	5071
2026-01-15 03:54:50.30	11.68	7.70	-29.8	-33.0	10.3	7.02e-03	0	41	0	33554432	19	5156
2026-01-15 03:54:51.31	11.61	7.77	-29.3	-31.6	11.4	1.50e-03	0	41	0	38797312	19	4686
2026-01-15 03:54:52.32	11.53	7.84	-28.9	-31.6	12.1	5.12e-04	0	41	0	45088768	17	4885
2026-01-15 03:54:53.32	11.46	7.91	-28.7	-31.1	12.4	1.84e-04	0	42	0	50331648	17	4731
2026-01-15 03:54:54.32	11.38	7.99	-29.0	-31.7	12.1	4.20e-04	0	42	0	55574528	17	4926
2026-01-15 03:54:55.32	11.30	8.06	-29.0	-31.7	12.1	4.36e-04	0	42	0	61865984	17	4925
2026-01-15 03:54:56.32	11.23	8.13	-29.0	-31.3	12.0	4.53e-04	0	42	0	67108864	18	4687
2026-01-15 03:54:57.31	11.15	8.20	-29.1	-31.4	11.9	5.18e-04	0	42	0	73400320	18	4733
2026-01-15 03:54:58.32	11.07	8.27	-29.0	-31.4	12.0	2.90e-03	0	42	0	78643200	18	4703
2026-01-15 03:54:59.33	10.99	8.34	-28.8	-31.3	12.4	2.31e-04	0	42	0	83886080	17	4782
2026-01-15 03:55:00.32	10.92	8.42	-28.7	-31.1	12.5	6.13e-04	0	42	0	90177536	17	4739
2026-01-15 03:55:01.33	10.84	8.49	-28.8	-31.4	12.3	2.47e-04	0	42	0	95420416	17	4827
2026-01-15 03:55:02.33	10.76	8.56	-29.1	-31.4	12.0	5.33e-04	0	42	0	100663296	18	4706
2026-01-15 03:55:03.33	10.68	8.63	-28.6	-30.7	12.7	5.09e-04	0	42	0	106954752	17	4596
2026-01-15 03:55:04.33	10.60	8.71	-28.1	-30.2	13.4	4.00e-05	0	42	0	112197632	16	4545
2026-01-15 03:55:05.33	10.52	8.78	-27.7	-29.7	13.7	1.91e-03	0	42	0	117440512	15	4542
2026-01-15 03:55:06.33	10.44	8.85	-27.5	-29.3	14.0	5.70e-06	0	42	0	123731968	15	4415
2026-01-15 03:55:07.34	10.36	8.92	-27.4	-29.5	14.2	1.85e-03	0	42	0	128974848	14	4584
2026-01-15 03:55:08.35	10.27	9.00	-27.4	-29.4	14.3	6.51e-04	0	42	0	135266304	14	4557
2026-01-15 03:55:09.35	10.19	9.07	-27.4	-29.5	14.2	2.32e-04	0	42	0	140509184	14	4589
2026-01-15 03:55:10.36	10.11	9.15	-27.4	-29.4	14.3	1.52e-03	0	42	0	146800640	14	4559
2026-01-15 03:55:11.35	10.03	9.22	-27.3	-29.3	14.3	3.40e-06	0	42	0	152043520	14	4531
2026-01-15 03:55:12.36	9.94	9.29	-27.3	-29.2	14.4	1.72e-04	0	42	0	157286400	14	4490
2026-01-15 03:55:13.36	9.86	9.37	-27.2	-29.1	14.5	0.00e+00	0	42	0	163577856	14	4457
2026-01-15 03:55:14.36	9.78	9.44	-27.2	-29.0	14.5	1.56e-03	0	42	0	168820736	14	4438
2026-01-15 03:55:15.36	9.69	9.52	-27.2	-29.1	14.5	1.57e-04	0	42	0	174063616	14	4468
2026-01-15 03:55:16.36	9.61	9.59	-27.4	-29.4	14.3	1.55e-03	0	42	0	180355072	14	4568
2026-01-15 03:55:17.36	9.52	9.67	-27.3	-29.3	14.4	1.46e-03	0	42	0	185597952	14	4537
2026-01-15 03:55:18.37	9.43	9.74	-27.3	-29.3	14.4	1.30e-04	0	42	0	190840832	14	4527
2026-01-15 03:55:19.37	9.35	9.82	-27.5	-29.1	14.2	1.50e-03	0	42	0	197132288	15	4361
2026-01-15 03:55:20.38	9.26	9.89	-27.3	-29.3	14.4	1.66e-03	0	42	0	202375168	14	4520
2026-01-15 03:55:21.38	9.17	9.97	-27.2	-29.1	14.5	1.19e-04	0	42	0	208666624	14	4469
2026-01-15 03:55:22.39	9.08	10.04	-27.3	-29.2	14.5	1.65e-03	0	42	0	213909504	14	4493
2026-01-15 03:55:23.39	8.99	10.12	-27.2	-29.0	14.6	1.72e-03	0	42	0	219152384	14	4425
2026-01-15 03:55:24.39	8.91	10.20	-27.1	-28.8	14.7	1.61e-04	0	42	0	225443840	14	4376
2026-01-15 03:55:25.39	8.82	10.27	-26.7	-28.3	14.8	0.00e+00	0	42	0	230686720	14	4348
2026-01-15 03:55:26.40	8.73	10.35	-27.1	-28.7	14.8	1.58e-03	0	42	0	235929600	14	4358
2026-01-15 03:55:27.40	8.64	10.42	-27.0	-28.6	14.8	1.65e-04	0	42	0	242221056	14	4324
2026-01-15 03:55:28.40	8.54	10.50	-27.1	-28.8	14.7	1.54e-03	0	42	0	247463936	14	4387
2026-01-15 03:55:29.40	8.45	10.58	-27.1	-28.9	14.7	1.68e-03	0	42	0	253755392	14	4397
2026-01-15 03:55:30.41	8.36	10.65	-27.1	-28.7	14.8	1.36e-04	0	42	0	258998272	14	4347
2026-01-15 03:55:31.41	8.27	10.73	-27.0	-28.6	14.9	1.78e-03	0	42	0	264241152	14	4324
2026-01-15 03:55:32.42	8.17	10.81	-27.1	-28.8	14.8	0.00e+00	0	42	0	270532608	14	4373
2026-01-15 03:55:33.42	8.08	10.89	-26.9	-28.4	15.0	1.61e-04	0	43	0	275775488	14	4256
2026-01-15 03:55:34.42	7.99	10.96	-27.1	-28.7	14.8	1.25e-04	0	42	0	282066944	14	4346
2026-01-15 03:55:35.42	7.89	11.04	-27.1	-28.7	14.8	1.65e-03	0	42	0	287309824	14	4346
2026-01-15 03:55:36.43	7.80	11.12	-26.9	-28.4	15.0	1.50e-04	0	43	0	292552704	14	4253
2026-01-15 03:55:37.43	7.70	11.20	-26.9	-28.9	15.0	7.20e-05	0	43	0	298844160	13	4515
2026-01-15 03:55:38.43	7.61	11.28	-26.9	-28.9	15.0	1.63e-03	0	42	0	304087040	13	4514
2026-01-15 03:55:39.44	7.51	11.36	-27.0	-28.6	14.9	2.17e-05	0	43	0	309329920	14	4318
2026-01-15 03:55:40.44	7.41	11.43	-27.0	-28.6	14.9	1.57e-03	0	42	0	315621376	14	4316
2026-01-15 03:55:41.44	7.31	11.51	-27.1	-28.8	14.8	0.00e+00	0	42	0	320864256	14	4382
2026-01-15 03:55:42.44	7.22	11.59	-27.0	-28.6	14.9	0.00e+00	0	43	0	326107136	14	4309
2026-01-15 03:55:43.44	7.12	11.67	-27.1	-28.8	14.8	9.10e-06	0	43	0	332398592	14	4383
2026-01-15 03:55:44.45	7.02	11.75	-27.2	-28.9	14.8	0.00e+00	0	43	0	337641472	14	4399
2026-01-15 03:55:45.46	6.92	11.83	-27.0	-28.5	15.0	3.66e-05	0	43	0	343932928	14	4282
2026-01-15 03:55:46.46	6.82	11.91	-26.9	-28.8	15.1	5.72e-05	0	42	0	349175808	13	4482
2026-01-15 03:55:47.46	6.72	11.99	-26.7	-28.4	15.3	1.48e-05	0	43	0	355467264	13	4384
2026-01-15 03:55:48.46	6.61	12.07	-26.8	-28.5	15.3	3.77e-05	0	43	0	360710144	13	4403
2026-01-15 03:55:49.46	6.51	12.15	-26.8	-28.5	15.3	4.57e-05	0	43	0	365953024	13	4411
2026-01-15 03:55:50.47	6.41	12.23	-26.8	-28.5	15.3	0.00e+00	0	43	0	372244480	13	4396
2026-01-15 03:55:51.48	6.30	12.31	-26.7	-28.4	15.3	7.20e-05	0	43	0	377487360	13	4363
2026-01-15 03:55:52.48	6.20	12.39	-26.6	-28.2	15.4	1.03e-04	0	43	0	382730240	13	4320
2026-01-15 03:55:53.48	6.10	12.47	-26.7	-28.3	15.4	0.00e+00	0	43	0	389021696	13	4357
2026-01-15 03:55:54.49	5.99	12.55	-26.7	-28.4	15.4	8.12e-05	0	43	0	394264576	13	4362
2026-01-15 03:55:55.49	5.88	12.64	-26.7	-28.3	15.4	4.23e-05	0	43	0	399507456	13	4352
2026-01-15 03:55:56.50	5.78	12.72	-26.8	-28.6	15.2	0.00e+00	0	43	0	405798912	13	4427
2026-01-15 03:55:57.51	5.67	12.80	-26.8	-28.6	15.3	2.74e-05	0	43	0	411041792	13	4425
2026-01-15 03:55:58.52	5.56	12.88	-26.6	-28.2	15.5	1.83e-05	0	43	0	417333248	13	4314
2026-01-15 03:55:59.52	5.45	12.96	-26.5	-28.0	15.6	0.00e+00	0	43	0	422576128	13	4248
2026-01-15 03:56:00.52	5.34	13.05	-26.4	-27.8	15.7	0.00e+00	0	43	0	428867584	13	4203
2026-01-15 03:56:01.52	5.24	13.13	-26.5	-27.9	15.7	0.00e+00	0	43	0	434110464	13	4226
2026-01-15 03:56:02.52	5.13	13.21	-26.4	-28.1	15.8	0.00e+00	0	43	0	439353344	12	4411
2026-01-15 03:56:03.53	5.01	13.29	-26.3	-28.1	15.8	0.00e+00	0	43	0	445644800	12	4397
2026-01-15 03:56:04.53	4.90	13.38	-26.4	-28.1	15.8	0.00e+00	0	43	0	450887680	12	4413
2026-01-15 03:56:05.54	4.79	13.46	-26.3	-28.0	15.9	0.00e+00	0	43	0	456130560	12	4373
2026-01-15 03:56:06.54	4.68	13.54	-26.3	-28.1	15.9	0.00e+00	0	43	0	462422016	12	4384
2026-01-15 03:56:07.54	4.56	13.63	-26.4	-28.1	15.9	0.00e+00	0	43	0	467664896	12	4385
2026-01-15 03:56:08.55	4.45	13.71	-26.4	-28.2	15.8	0.00e+00	0	43	0	472907776	12	4421
2026-01-15 03:56:09.55	4.33	13.79	-26.5	-28.0	15.7	0.00e+00	0	43	0	479199232	13	4255
2026-01-15 03:56:10.56	4.22	13.88	-26.7	-28.3	15.5	0.00e+00	0	43	0	484442112	13	4343
2026-01-15 03:56:11.56	4.10	13.96	-26.6	-28.2	15.5	0.00e+00	0	43	0	490733568	13	4304
2026-01-15 03:56:12.57	3.99	14.05	-26.4	-27.7	15.8	0.00e+00	0	43	0	495976448	13	4177
2026-01-15 03:56:13.56	3.87	14.13	-26.3	-28.0	15.9	0.00e+00	0	43	0	502267904	12	4370
2026-01-15 03:56:14.57	3.75	14.21	-26.5	-28.4	15.8	0.00e+00	0	43	0	507510784	12	4467
2026-01-15 03:56:15.58	3.63	14.30	-26.7	-28.4	15.5	0.00e+00	0	43	0	512753664	13	4355
2026-01-15 03:56:16.58	3.51	14.38	-26.7	-28.4	15.5	0.00e+00	0	43	0	519045120	13	4354
2026-01-15 03:56:17.58	3.39	14.47	-26.6	-28.1	15.7	0.00e+00	0	43	0	524288000	13	4276
2026-01-15 03:56:18.59	3.27	14.56	-26.7	-28.3	15.5	0.00e+00	0	43	0	529530880	13	4346
2026-01-15 03:56:19.60	3.15	14.64	-26.8	-28.5	15.4	0.00e+00	0	43	0	535822336	13	4399
2026-01-15 03:56:20.61	3.02	14.73	-26.6	-28.1	15.7	0.00e+00	0	43	0	541065216	13	4277
2026-01-15 03:56:21.60	2.90	14.81	-26.4	-27.7	15.9	0.00e+00	0	43	0	547356672	13	4170
2026-01-15 03:56:22.61	2.78	14.90	-26.4	-28.1	15.9	0.00e+00	0	43	0	552599552	12	4393
2026-01-15 03:56:23.61	2.65	14.98	-26.2	-27.7	16.2	0.00e+00	0	43	0	557842432	12	4290
2026-01-15 03:56:24.62	2.53	15.07	-26.0	-27.4	16.3	0.00e+00	0	43	0	564133888	12	4209
2026-01-15 03:56:25.61	2.40	15.16	-26.0	-27.2	16.4	0.00e+00	0	43	0	569376768	12	4168
2026-01-15 03:56:26.62	2.27	15.24	-26.0	-27.3	16.4	0.00e+00	0	43	0	575668224	12	4194
2026-01-15 03:56:27.62	2.15	15.33	-25.4	-26.6	16.2	0.00e+00	0	43	0	580911104	12	4139
2026-01-15 03:56:28.62	2.02	15.42	-26.1	-27.6	12.4	0.00e+00	0	43	0	586153984	12	4256
2026-01-15 03:56:29.63	1.89	15.50	-26.1	-27.6	16.2	0.00e+00	0	43	0	592445440	12	4251
2026-01-15 03:56:30.64	1.76	15.59	-26.1	-27.5	16.1	1.43e-03	0	43	0	597688320	12	4242
2026-01-15 03:56:31.64	1.63	15.68	-26.0	-27.3	16.4	0.00e+00	0	43	0	602931200	12	4187
2026-01-15 03:56:32.65	1.50	15.77	-26.0	-27.2	16.4	8.12e-05	0	43	0	609222656	12	4163
2026-01-15 03:56:33.65	1.36	15.85	-26.0	-27.7	16.5	0.00e+00	0	43	0	614465536	11	4410
2026-01-15 03:56:34.65	1.23	15.94	-25.9	-27.6	16.6	0.00e+00	0	43	0	619708416	11	4362
2026-01-15 03:56:35.65	1.10	16.03	-25.9	-27.5	16.6	0.00e+00	0	43	0	625999872	11	4346
2026-01-15 03:56:36.64	0.96	16.12	-25.8	-27.3	16.7	0.00e+00	0	43	0	631242752	11	4295
2026-01-15 03:56:37.65	0.83	16.21	-25.6	-27.0	16.9	1.41e-03	0	43	0	637534208	11	4205
2026-01-15 03:56:38.65	0.69	16.29	-25.6	-26.9	17.0	0.00e+00	0	43	0	642777088	11	4178
2026-01-15 03:56:39.65	0.55	16.38	-25.6	-26.9	17.0	1.33e-03	0	43	0	649068544	11	4176
2026-01-15 03:56:40.66	0.42	16.47	-25.7	-27.1	16.9	0.00e+00	0	43	0	654311424	11	4221
2026-01-15 03:56:41.66	0.28	16.56	-25.7	-27.2	16.9	0.00e+00	0	43	0	659554304	11	4255
2026-01-15 03:56:42.66	0.14	16.65	-25.7	-27.2	16.8	1.57e-03	0	43	0	665845760	11	4258
2026-01-15 03:56:43.66	360.00	16.74	-25.8	-27.4	16.7	0.00e+00	0	43	0	671088640	11	4327
2026-01-15 03:56:44.67	359.86	16.83	-25.8	-27.4	16.7	1.48e-04	0	43	0	676331520	11	4325
2026-01-15 03:56:45.66	359.71	16.92	-25.8	-27.4	16.7	0.00e+00	0	43	0	682622976	11	4305
2026-01-15 03:56:46.67	359.57	17.01	-25.8	-27.3	16.8	1.39e-03	0	43	0	687865856	11	4277
2026-01-15 03:56:47.67	359.43	17.10	-25.7	-27.2	16.9	1.52e-04	0	43	0	693108736	11	4255
2026-01-15 03:56:48.67	359.28	17.19	-25.6	-26.9	17.0	1.33e-03	0	43	0	699400192	11	4193
2026-01-15 03:56:49.68	359.14	17.28	-25.7	-27.1	16.9	1.53e-03	0	43	0	704643072	11	4223
2026-01-15 03:56:50.68	358.99	17.37	-25.6	-26.9	17.0	0.00e+00	0	43	0	710934528	11	4173
2026-01-15 03:56:51.69	358.84	17.46	-25.6	-26.9	17.0	1.50e-03	0	43	0	716177408	11	4168
2026-01-15 03:56:52.69	358.69	17.55	-25.5	-26.6	17.2	7.55e-05	0	43	0	721420288	11	4117
2026-01-15 03:56:53.69	358.54	17.64	-25.4	-26.5	17.3	1.48e-04	0	43	0	727711744	11	4075
2026-01-15 03:56:54.70	358.39	17.73	-25.4	-26.6	17.2	1.35e-03	0	43	0	732954624	11	4095
2026-01-15 03:56:55.69	358.24	17.82	-25.4	-26.4	17.3	1.30e-03	0	43	0	738197504	11	4050
2026-01-15 03:56:56.70	358.09	17.91	-25.3	-26.8	17.4	1.64e-04	0	43	0	744488960	10	4264
2026-01-15 03:56:57.70	357.94	18.00	-25.3	-26.8	17.4	0.00e+00	0	43	0	749731840	10	4277
2026-01-15 03:56:58.70	357.78	18.09	-25.3	-26.7	17.4	1.32e-03	0	43	0	756023296	10	4231
2026-01-15 03:56:59.71	357.63	18.18	-25.2	-26.6	17.5	1.72e-04	0	43	0	761266176	10	4227
2026-01-15 03:57:00.71	357.47	18.28	-25.2	-26.6	17.5	1.39e-03	0	43	0	766509056	10	4229
2026-01-15 03:57:01.71	357.32	18.37	-25.2	-26.6	17.5	1.36e-03	0	43	0	772800512	10	4218
2026-01-15 03:57:02.72	357.16	18.46	-25.2	-26.6	17.5	2.49e-04	0	43	0	778043392	10	4211
2026-01-15 03:57:03.72	357.00	18.55	-25.3	-26.7	17.4	1.38e-03	0	43	0	784334848	10	4247
2026-01-15 03:57:04.73	356.84	18.64	-25.3	-26.7	17.4	0.00e+00	0	43	0	789577728	10	4252
2026-01-15 03:57:05.73	356.68	18.74	-25.3	-26.8	17.4	2.02e-04	0	43	0	794820608	10	4265
2026-01-15 03:57:06.74	356.51	18.83	-25.4	-26.9	17.3	1.18e-03	0	43	0	801112064	10	4307
2026-01-15 03:57:07.74	356.35	18.92	-25.3	-26.7	17.5	1.25e-03	0	43	0	806354944	10	4241
2026-01-15 03:57:08.75	356.19	19.01	-25.1	-26.4	17.6	0.00e+00	0	43	0	812646400	10	4168
2026-01-15 03:57:09.75	356.02	19.11	-25.1	-26.4	17.6	0.00e+00	0	43	0	817889280	10	4168
2026-01-15 03:57:10.76	355.85	19.20	-25.0	-26.2	17.7	1.19e-03	0	43	0	823132160	10	4107
2026-01-15 03:57:11.77	355.69	19.29	-25.0	-26.1	17.8	0.00e+00	0	43	0	829423616	10	4088
2026-01-15 03:57:12.78	355.52	19.39	-25.1	-26.3	17.7	1.11e-03	0	43	0	834666496	10	4125
2026-01-15 03:57:13.78	355.35	19.48	-24.9	-25.9	17.9	0.00e+00	0	43	0	839909376	10	4036
2026-01-15 03:57:14.78	355.18	19.57	-24.8	-25.7	18.0	1.29e-04	0	43	0	846200832	10	3980
2026-01-15 03:57:15.78	355.01	19.66	-24.7	-26.1	18.1	0.00e+00	0	43	0	851443712	9	4190
2026-01-15 03:57:16.78	354.84	19.76	-24.7	-26.0	18.1	0.00e+00	0	43	0	857735168	9	4178
2026-01-15 03:57:17.78	354.66	19.85	-24.8	-26.2	18.0	1.60e-04	0	43	0	862978048	9	4233
2026-01-15 03:57:18.79	354.49	19.94	-24.8	-26.3	18.0	0.00e+00	0	43	0	868220928	9	4245
2026-01-15 03:57:19.79	354.31	20.04	-25.0	-26.5	17.9	9.07e-04	0	43	0	874512384	9	4306
2026-01-15 03:57:20.79	354.14	20.13	-25.0	-26.5	17.8	0.00e+00	0	43	0	879755264	9	4315
2026-01-15 03:57:21.79	353.96	20.22	-25.0	-26.2	17.8	0.00e+00	0	43	0	884998144	10	4117
2026-01-15 03:57:22.80	353.78	20.32	-25.1	-26.4	17.7	0.00e+00	0	43	0	891289600	10	4161
2026-01-15 03:57:23.80	353.60	20.41	-25.0	-26.2	17.8	0.00e+00	0	43	0	896532480	10	4112
2026-01-15 03:57:24.80	353.42	20.50	-25.0	-26.0	17.9	0.00e+00	0	43	0	902823936	10	4063
2026-01-15 03:57:25.80	353.24	20.60	-25.0	-26.2	17.8	0.00e+00	0	43	0	908066816	10	4104
2026-01-15 03:57:26.80	353.05	20.69	-24.8	-25.7	18.0	0.00e+00	0	43	0	913309696	10	3991
2026-01-15 03:57:27.80	352.87	20.78	-24.7	-25.9	18.2	0.00e+00	0	43	0	919601152	9	4140
2026-01-15 03:57:28.80	352.69	20.88	-24.7	-25.9	18.2	0.00e+00	0	43	0	924844032	9	4147
2026-01-15 03:57:29.80	352.50	20.97	-24.7	-25.9	18.2	9.10e-06	0	44	0	931135488	9	4140
2026-01-15 03:57:30.81	352.31	21.06	-24.7	-26.0	18.1	5.70e-06	0	43	0	936378368	9	4180
2026-01-15 03:57:31.81	352.12	21.16	-24.9	-26.3	17.9	0.00e+00	0	43	0	941621248	9	4264
2026-01-15 03:57:32.81	351.93	21.25	-24.9	-26.4	17.9	1.42e-04	0	43	0	947912704	9	4281
2026-01-15 03:57:33.82	351.74	21.35	-25.0	-26.6	17.8	2.15e-04	0	43	0	953155584	9	4327
2026-01-15 03:57:34.82	351.55	21.44	-24.9	-25.9	17.9	0.00e+00	0	43	0	958398464	10	4050
2026-01-15 03:57:35.82	351.35	21.53	-24.9	-25.9	17.9	2.14e-04	0	43	0	964689920	10	4033
2026-01-15 03:57:36.83	351.16	21.63	-24.9	-26.3	18.0	1.33e-04	0	43	0	969932800	9	4261
2026-01-15 03:57:37.84	350.96	21.72	-24.9	-26.3	18.0	0.00e+00	0	43	0	976224256	9	4248
2026-01-15 03:57:38.84	350.76	21.82	-24.8	-26.2	18.1	1.83e-05	0	43	0	981467136	9	4226
2026-01-15 03:57:39.84	350.57	21.91	-24.9	-26.4	17.9	2.74e-05	0	43	0	986710016	9	4273
2026-01-15 03:57:40.84	350.37	22.00	-24.7	-26.1	18.1	0.00e+00	0	44	0	993001472	9	4190
2026-01-15 03:57:41.84	350.17	22.10	-24.6	-25.7	18.3	0.00e+00	0	43	0	998244352	9	4094
2026-01-15 03:57:42.85	349.96	22.19	-24.5	-25.6	18.3	0.00e+00	0	43	0	1003487232	9	4086
2026-01-15 03:57:43.85	349.76	22.28	-24.7	-25.9	18.2	0.00e+00	0	43	0	1009778688	9	4161
2026-01-15 03:57:44.86	349.55	22.38	-24.5	-25.7	18.3	0.00e+00	0	43	0	1015021568	9	4088
2026-01-15 03:57:45.86	349.35	22.47	-24.6	-25.8	18.2	0.00e+00	0	43	0	1021313024	9	4128
2026-01-15 03:57:46.87	349.14	22.56	-24.6	-25.7	18.3	0.00e+00	0	43	0	1026555904	9	4097
2026-01-15 03:57:47.86	348.93	22.66	-24.7	-25.9	18.2	0.00e+00	0	43	0	1031798784	9	4138
2026-01-15 03:57:48.87	348.72	22.75	-24.8	-26.2	18.1	0.00e+00	0	43	0	1038090240	9	4220
2026-01-15 03:57:49.87	348.51	22.84	-24.6	-25.8	18.3	0.00e+00	0	43	0	1043333120	9	4122
2026-01-15 03:57:50.87	348.30	22.94	-24.5	-25.5	18.5	0.00e+00	0	43	0	1049624576	9	4038
2026-01-15 03:57:51.88	348.08	23.03	-24.4	-25.4	18.5	0.00e+00	0	43	0	1054867456	9	4019
2026-01-15 03:57:52.89	347.87	23.12	-24.5	-25.6	18.4	0.00e+00	0	43	0	1060110336	9	4073
2026-01-15 03:57:53.89	347.65	23.22	-24.4	-25.4	18.5	0.00e+00	0	43	0	1066401792	9	4015
2026-01-15 03:57:54.90	347.43	23.31	-24.3	-25.1	18.6	0.00e+00	0	43	0	1071644672	9	3950
2026-01-15 03:57:55.90	347.21	23.40	-24.2	-24.9	18.7	0.00e+00	0	43	0	1077936128	9	3905
2026-01-15 03:57:56.90	347.00	23.49	-24.2	-24.9	18.7	0.00e+00	0	43	0	1083179008	9	3912
2026-01-15 03:57:57.90	346.77	23.59	-24.0	-24.5	18.9	0.00e+00	0	43	0	1088421888	9	3812
2026-01-15 03:57:58.90	346.55	23.68	-23.9	-24.4	19.0	0.00e+00	0	43	0	1094713344	9	3774
2026-01-15 03:57:59.90	346.33	23.77	-24.0	-24.5	19.0	0.00e+00	0	43	0	1099956224	9	3817
2026-01-15 03:58:00.89	346.11	23.86	-24.0	-25.0	19.0	0.00e+00	0	44	0	1105199104	8	4031
2026-01-15 03:58:01.89	345.88	23.95	-24.2	-25.4	18.8	0.00e+00	0	43	0	1111490560	8	4137
2026-01-15 03:58:02.89	345.65	24.04	-24.1	-25.3	18.8	0.00e+00	0	43	0	1116733440	8	4107
2026-01-15 03:58:03.90	345.42	24.14	-24.2	-25.3	18.8	0.00e+00	0	44	0	1121976320	8	4109
2026-01-15 03:58:04.90	345.19	24.23	-24.3	-25.5	18.7	0.00e+00	0	43	0	1128267776	8	4164
2026-01-15 03:58:05.90	344.96	24.32	-24.2	-25.4	18.8	0.00e+00	0	43	0	1133510656	8	4124
2026-01-15 03:58:06.90	344.73	24.41	-24.2	-25.4	18.8	0.00e+00	0	43	0	1138753536	8	4132
2026-01-15 03:58:07.90	344.49	24.50	-24.1	-25.2	18.8	0.00e+00	0	43	0	1145044992	8	4095
2026-01-15 03:58:08.90	344.26	24.59	-24.0	-24.9	19.0	0.00e+00	0	43	0	1150287872	8	4022
2026-01-15 03:58:09.90	344.02	24.68	-24.0	-24.9	19.0	0.00e+00	0	43	0	1155530752	8	4008
2026-01-15 03:58:10.90	343.78	24.77	-24.1	-25.1	18.9	0.00e+00	0	43	0	1161822208	8	4068
2026-01-15 03:58:11.91	343.54	24.86	-23.9	-24.8	19.0	0.00e+00	0	43	0	1167065088	8	3998
2026-01-15 03:58:12.91	343.30	24.95	-23.8	-24.7	19.1	0.00e+00	0	43	0	1173356544	8	3957
2026-01-15 03:58:13.91	343.05	25.04	-23.9	-24.7	19.1	0.00e+00	0	43	0	1178599424	8	3965
2026-01-15 03:58:14.91	342.81	25.13	-23.8	-24.6	14.1	0.00e+00	0	43	0	1184890880	8	3951
2026-01-15 03:58:15.91	342.56	25.21	-23.8	-24.7	14.5	0.00e+00	0	43	0	1190133760	8	3954
2026-01-15 03:58:16.91	342.32	25.30	-24.0	-24.9	19.0	0.00e+00	0	43	0	1195376640	8	4020
2026-01-15 03:58:17.91	342.07	25.39	-23.7	-24.9	19.1	0.00e+00	0	43	0	1201668096	7	4124
2026-01-15 03:58:18.92	341.82	25.48	-23.6	-24.7	19.4	0.00e+00	0	43	0	1206910976	7	4061
2026-01-15 03:58:19.92	341.57	25.57	-23.7	-24.8	19.3	0.00e+00	0	44	0	1212153856	7	4090
2026-01-15 03:58:20.93	341.31	25.65	-23.6	-24.6	19.4	0.00e+00	0	43	0	1218445312	7	4058
2026-01-15 03:58:21.94	341.06	25.74	-23.7	-24.9	19.2	5.12e-04	0	44	0	1223688192	7	4124
2026-01-15 03:58:22.94	340.80	25.83	-23.7	-24.9	19.2	0.00e+00	0	43	0	1228931072	7	4121
2026-01-15 03:58:23.95	340.54	25.91	-23.8	-25.1	19.2	1.16e-03	0	44	0	1235222528	7	4166
2026-01-15 03:58:24.95	340.28	26.00	-23.8	-25.2	19.1	0.00e+00	0	43	0	1240465408	7	4193
2026-01-15 03:58:25.95	340.02	26.09	-23.9	-25.2	19.1	0.00e+00	0	43	0	1246756864	7	4211
2026-01-15 03:58:26.96	339.76	26.17	-23.8	-25.1	19.2	0.00e+00	0	44	0	1251999744	7	4169
2026-01-15 03:58:27.97	339.49	26.26	-23.8	-25.1	19.1	0.00e+00	0	44	0	1258291200	7	4178
2026-01-15 03:58:28.97	339.23	26.34	-23.7	-24.9	19.3	0.00e+00	0	44	0	1263534080	7	4123
2026-01-15 03:58:29.98	338.96	26.42	-23.7	-24.8	19.3	0.00e+00	0	44	0	1268776960	7	4101
2026-01-15 03:58:30.98	338.70	26.51	-23.8	-25.0	19.2	1.10e-03	0	43	0	1275068416	7	4153
2026-01-15 03:58:31.99	338.43	26.59	-23.6	-24.6	19.4	0.00e+00	0	43	0	1280311296	7	4037
2026-01-15 03:58:32.99	338.16	26.67	-23.6	-24.6	19.4	9.81e-04	0	44	0	1285554176	7	4052
2026-01-15 03:58:33.99	337.88	26.75	-23.8	-25.0	19.2	8.98e-04	0	44	0	1291845632	7	4154
2026-01-15 03:58:34.99	337.61	26.84	-23.9	-25.2	19.1	0.00e+00	0	44	0	1297088512	7	4206
2026-01-15 03:58:36.00	337.34	26.92	-23.9	-25.3	19.1	7.72e-04	0	43	0	1302331392	7	4234
2026-01-15 03:58:37.00	337.06	27.00	-23.8	-25.0	19.2	8.30e-04	0	44	0	1308622848	7	4144
2026-01-15 03:58:38.01	336.78	27.08	-23.6	-24.7	19.4	0.00e+00	0	44	0	1313865728	7	4073
2026-01-15 03:58:39.01	336.50	27.16	-23.7	-24.8	19.3	7.35e-04	0	43	0	1320157184	7	4096
2026-01-15 03:58:40.01	336.22	27.24	-23.5	-24.3	19.6	6.36e-04	0	43	0	1325400064	7	3984
2026-01-15 03:58:41.02	335.94	27.32	-23.4	-24.3	19.6	6.98e-05	0	43	0	1331691520	7	3977
2026-01-15 03:58:42.02	335.66	27.39	-23.4	-24.3	19.6	4.83e-04	0	44	0	1336934400	7	3972
2026-01-15 03:58:43.03	335.37	27.47	-23.3	-24.6	19.7	3.81e-04	0	43	0	1342177280	6	4150
2026-01-15 03:58:44.03	335.09	27.55	-23.3	-24.5	19.7	1.18e-04	0	43	0	1348468736	6	4135
2026-01-15 03:58:45.04	334.80	27.63	-23.5	-24.9	19.5	6.24e-04	0	44	0	1353711616	6	4244
2026-01-15 03:58:46.04	334.51	27.70	-23.3	-24.5	19.7	6.65e-04	0	43	0	1358954496	6	4138
2026-01-15 03:58:47.04	334.22	27.78	-23.3	-24.5	19.7	1.03e-04	0	44	0	1365245952	6	4146
2026-01-15 03:58:48.04	333.93	27.85	-23.4	-24.8	19.6	2.76e-04	0	43	0	1370488832	6	4212
2026-01-15 03:58:49.05	333.64	27.92	-23.4	-24.7	19.6	1.60e-04	0	43	0	1376780288	6	4191
2026-01-15 03:58:50.06	333.34	28.00	-23.4	-24.8	19.5	2.04e-04	0	44	0	1382023168	6	4217
2026-01-15 03:58:51.06	333.05	28.07	-23.7	-24.8	19.3	0.00e+00	0	44	0	1387266048	7	4099
2026-01-15 03:58:52.06	332.75	28.14	-24.0	-25.4	19.0	7.14e-04	0	43	0	1393557504	7	4253
2026-01-15 03:58:53.07	332.45	28.21	-23.8	-25.1	19.1	0.00e+00	0	43	0	1398800384	7	4168
2026-01-15 03:58:54.07	332.15	28.28	-23.7	-24.8	19.3	7.44e-04	0	44	0	1405091840	7	4100
2026-01-15 03:58:55.07	331.85	28.35	-23.6	-24.6	19.4	8.31e-04	0	43	0	1410334720	7	4052
2026-01-15 03:58:56.07	331.55	28.42	-23.5	-24.4	19.5	0.00e+00	0	43	0	1415577600	7	3998
2026-01-15 03:58:57.07	331.25	28.49	-23.5	-24.5	19.5	7.36e-04	0	43	0	1421869056	7	4026
2026-01-15 03:58:58.07	330.94	28.56	-23.3	-24.1	19.7	0.00e+00	0	44	0	1427111936	7	3927
2026-01-15 03:58:59.08	330.64	28.62	-23.4	-24.7	19.6	2.40e-04	0	44	0	1432354816	6	4180
2026-01-15 03:59:00.08	330.33	28.69	-23.3	-24.5	19.7	0.00e+00	0	44	0	1438646272	6	4143
2026-01-15 03:59:01.09	330.02	28.76	-23.4	-24.7	19.6	0.00e+00	0	43	0	1443889152	6	4175
2026-01-15 03:59:02.10	329.71	28.82	-23.3	-24.5	19.7	0.00e+00	0	44	0	1450180608	6	4140
2026-01-15 03:59:03.10	329.40	28.89	-23.4	-24.8	19.6	0.00e+00	0	44	0	1455423488	6	4203
2026-01-15 03:59:04.11	329.08	28.95	-23.5	-24.9	19.6	0.00e+00	0	44	0	1460666368	6	4227
2026-01-15 03:59:05.11	328.77	29.01	-23.4	-24.8	19.6	0.00e+00	0	43	0	1466957824	6	4210
2026-01-15 03:59:06.11	328.46	29.07	-23.4	-24.7	19.6	8.03e-04	0	44	0	1472200704	6	4199
2026-01-15 03:59:07.10	328.14	29.13	-23.4	-24.8	19.6	0.00e+00	0	44	0	1478492160	6	4213
2026-01-15 03:59:08.11	327.82	29.19	-23.6	-24.6	19.4	0.00e+00	0	43	0	1483735040	7	4053
2026-01-15 03:59:09.11	327.51	29.25	-23.8	-25.1	19.2	1.97e-04	0	44	0	1488977920	7	4174
2026-01-15 03:59:10.12	327.18	29.31	-23.6	-24.6	19.5	0.00e+00	0	44	0	1495269376	7	4047
2026-01-15 03:59:11.12	326.86	29.37	-23.8	-25.0	19.2	2.66e-04	0	43	0	1500512256	7	4151
2026-01-15 03:59:12.12	326.54	29.42	-23.8	-25.0	19.2	2.80e-04	0	44	0	1505755136	7	4158
2026-01-15 03:59:13.12	326.22	29.48	-23.9	-25.4	19.0	0.00e+00	0	43	0	1512046592	7	4238
2026-01-15 03:59:14.12	325.90	29.53	-24.0	-25.5	19.0	1.59e-04	0	43	0	1517289472	7	4265
2026-01-15 03:59:15.12	325.57	29.58	-24.0	-25.0	19.0	0.00e+00	0	44	0	1522532352	8	4047
2026-01-15 03:59:16.13	325.25	29.64	-24.1	-25.1	18.9	0.00e+00	0	44	0	1528823808	8	4067
2026-01-15 03:59:17.13	324.92	29.69	-23.8	-24.6	19.2	0.00e+00	0	43	0	1534066688	8	3930
2026-01-15 03:59:18.14	324.59	29.74	-23.5	-24.5	19.5	0.00e+00	0	44	0	1540358144	7	4027
2026-01-15 03:59:19.14	324.26	29.79	-23.4	-24.3	19.6	0.00e+00	0	43	0	1545601024	7	3969
2026-01-15 03:59:20.14	323.93	29.84	-23.4	-24.2	19.6	0.00e+00	0	43	0	1550843904	7	3953
2026-01-15 03:59:21.14	323.60	29.88	-23.5	-24.4	19.5	2.20e-06	0	43	0	1557135360	7	3992
2026-01-15 03:59:22.14	323.27	29.93	-23.7	-24.8	19.3	0.00e+00	0	43	0	1562378240	7	4103
2026-01-15 03:59:23.14	322.94	29.98	-23.5	-24.3	19.6	1.12e-04	0	44	0	1567621120	7	3987
2026-01-15 03:59:24.15	322.60	30.02	-23.3	-24.0	19.7	1.34e-04	0	43	0	1573912576	7	3914
2026-01-15 03:59:25.16	322.26	30.06	-23.3	-23.9	19.8	0.00e+00	0	44	0	1579155456	7	3890
2026-01-15 03:59:26.16	321.93	30.11	-23.4	-24.1	19.6	1.80e-04	0	43	0	1585446912	7	3941
2026-01-15 03:59:27.17	321.59	30.15	-23.4	-24.2	19.7	2.22e-04	0	44	0	1590689792	7	3950
2026-01-15 03:59:28.17	321.25	30.19	-23.3	-24.0	19.8	0.00e+00	0	44	0	1595932672	7	3900
2026-01-15 03:59:29.17	320.91	30.23	-23.2	-24.4	19.8	0.00e+00	0	43	0	1602224128	6	4111
2026-01-15 03:59:30.18	320.57	30.27	-23.2	-24.4	19.8	2.60e-04	0	43	0	1607467008	6	4107
2026-01-15 03:59:31.18	320.23	30.30	-22.9	-23.7	20.1	0.00e+00	0	43	0	1613758464	6	3938
2026-01-15 03:59:32.18	319.89	30.34	-22.8	-23.4	20.2	2.46e-04	0	44	0	1619001344	6	3884
2026-01-15 03:59:33.18	319.55	30.37	-22.9	-23.7	20.1	2.31e-04	0	43	0	1624244224	6	3948
2026-01-15 03:59:34.19	319.21	30.41	-22.9	-23.8	20.1	0.00e+00	0	44	0	1630535680	6	3967
2026-01-15 03:59:35.20	318.86	30.44	-23.0	-23.9	20.0	8.23e-05	0	44	0	1635778560	6	3996
2026-01-15 03:59:36.20	318.52	30.47	-22.9	-23.7	20.1	0.00e+00	0	43	0	1642070016	6	3952
2026-01-15 03:59:37.20	318.17	30.50	-22.9	-23.7	20.1	0.00e+00	0	43	0	1647312896	6	3946
2026-01-15 03:59:38.21	317.82	30.53	-22.9	-23.8	20.1	0.00e+00	0	43	0	1652555776	6	3960
2026-01-15 03:59:39.22	317.48	30.56	-23.1	-24.1	19.9	0.00e+00	0	44	0	1658847232	6	4042
2026-01-15 03:59:40.22	317.13	30.59	-23.2	-24.3	19.8	0.00e+00	0	43	0	1664090112	6	4099
2026-01-15 03:59:41.23	316.78	30.61	-23.2	-24.4	19.8	0.00e+00	0	44	0	1669332992	6	4111
2026-01-15 03:59:42.23	316.43	30.64	-23.1	-24.0	19.9	1.12e-04	0	43	0	1675624448	6	4027
2026-01-15 03:59:43.24	316.08	30.66	-23.0	-23.9	20.0	0.00e+00	0	44	0	1680867328	6	3978
2026-01-15 03:59:44.24	315.73	30.69	-23.0	-24.0	20.0	9.84e-05	0	44	0	1687158784	6	4011
2026-01-15 03:59:45.24	315.39	30.71	-22.9	-23.7	20.1	0.00e+00	0	44	0	1692401664	6	3950
2026-01-15 03:59:46.25	315.03	30.73	-22.9	-23.7	20.1	0.00e+00	0	44	0	1698693120	6	3950
2026-01-15 03:59:47.25	314.69	30.75	-22.9	-24.2	20.1	0.00e+00	0	43	0	1703936000	5	4190
2026-01-15 03:59:48.25	314.34	30.76	-23.0	-24.3	20.0	0.00e+00	0	43	0	1709178880	5	4204
2026-01-15 03:59:49.25	313.99	30.78	-22.9	-24.3	20.1	0.00e+00	0	43	0	1715470336	5	4194
2026-01-15 03:59:50.26	313.63	30.79	-22.5	-23.6	17.2	0.00e+00	0	43	0	1720713216	5	4099
2026-01-15 03:59:51.26	313.28	30.81	-22.8	-24.0	14.4	2.28e-05	0	43	0	1725956096	5	4122
2026-01-15 03:59:52.26	312.93	30.82	-22.8	-24.1	20.2	0.00e+00	0	44	0	1732247552	5	4149
2026-01-15 03:59:53.27	312.58	30.83	-22.9	-24.2	19.7	0.00e+00	0	43	0	1737490432	5	4188
2026-01-15 03:59:54.28	312.22	30.84	-22.9	-24.1	20.1	0.00e+00	0	44	0	1742733312	5	4157
2026-01-15 03:59:55.28	311.87	30.85	-23.0	-24.0	20.0	0.00e+00	0	43	0	1749024768	6	4011
2026-01-15 03:59:56.28	311.52	30.86	-23.1	-24.0	20.0	9.14e-04	0	44	0	1754267648	6	4020
2026-01-15 03:59:57.28	311.16	30.87	-23.1	-24.1	19.9	0.00e+00	0	43	0	1760559104	6	4052
2026-01-15 03:59:58.29	310.81	30.87	-23.1	-24.1	19.9	0.00e+00	0	43	0	1765801984	6	4038
2026-01-15 03:59:59.29	310.46	30.88	-23.1	-24.0	20.0	0.00e+00	0	44	0	1771044864	6	4026
2026-01-15 04:00:00.30	310.10	30.88	-23.1	-24.1	19.9	1.12e-03	0	44	0	1777336320	6	4053
2026-01-15 04:00:01.30	309.75	30.88	-23.0	-23.8	20.1	0.00e+00	0	44	0	1782579200	6	3975
2026-01-15 04:00:02.30	309.40	30.88	-23.0	-23.9	20.0	0.00e+00	0	44	0	1788870656	6	4002
2026-01-15 04:00:03.30	309.04	30.88	-23.0	-24.0	20.0	9.54e-04	0	43	0	1794113536	6	4008
2026-01-15 04:00:04.31	308.69	30.88	-23.0	-23.9	20.0	0.00e+00	0	43	0	1799356416	6	3998
2026-01-15 04:00:05.31	308.33	30.88	-23.1	-24.1	19.9	8.00e-04	0	44	0	1805647872	6	4047
2026-01-15 04:00:06.31	307.98	30.87	-23.1	-24.1	19.9	0.00e+00	0	44	0	1810890752	6	4044
2026-01-15 04:00:07.32	307.63	30.87	-23.2	-24.4	19.8	1.27e-04	0	44	0	1816133632	6	4103
2026-01-15 04:00:08.32	307.27	30.86	-23.2	-24.4	19.8	1.11e-03	0	44	0	1822425088	6	4105
2026-01-15 04:00:09.32	306.92	30.85	-23.0	-23.9	20.0	0.00e+00	0	43	0	1827667968	6	3982
2026-01-15 04:00:10.33	306.57	30.84	-23.0	-23.8	20.1	1.27e-04	0	44	0	1833959424	6	3966
2026-01-15 04:00:11.33	306.22	30.83	-23.0	-23.9	20.0	0.00e+00	0	44	0	1839202304	6	3994
2026-01-15 04:00:12.33	305.86	30.82	-23.0	-23.8	20.1	1.05e-03	0	44	0	1844445184	6	3979
2026-01-15 04:00:13.34	305.51	30.81	-23.0	-23.9	20.0	6.98e-05	0	43	0	1850736640	6	3995
2026-01-15 04:00:14.34	305.16	30.79	-23.1	-24.1	19.9	1.14e-03	0	43	0	1855979520	6	4033
2026-01-15 04:00:15.35	304.80	30.78	-22.9	-23.8	20.1	1.26e-03	0	43	0	1861222400	6	3963
2026-01-15 04:00:16.35	304.45	30.76	-22.9	-23.7	20.1	0.00e+00	0	43	0	1867513856	6	3943
2026-01-15 04:00:17.35	304.10	30.74	-22.9	-23.7	20.1	1.29e-03	0	43	0	1872756736	6	3942
2026-01-15 04:00:18.36	303.75	30.72	-23.0	-23.8	20.1	1.16e-03	0	44	0	1879048192	6	3972
2026-01-15 04:00:19.35	303.41	30.70	-23.1	-24.0	19.9	1.03e-04	0	43	0	1884291072	6	4020
2026-01-15 04:00:20.35	303.06	30.68	-23.1	-24.2	19.9	1.00e-03	0	43	0	1890582528	6	4064
2026-01-15 04:00:21.36	302.71	30.66	-23.2	-24.4	19.8	8.82e-04	0	44	0	1895825408	6	4107
2026-01-15 04:00:22.37	302.35	30.64	-22.9	-23.7	20.1	0.00e+00	0	44	0	1901068288	6	3934
2026-01-15 04:00:23.37	302.01	30.61	-22.7	-23.3	20.3	9.18e-04	0	44	0	1907359744	6	3846
2026-01-15 04:00:24.38	301.66	30.59	-22.8	-23.4	20.2	1.10e-03	0	43	0	1912602624	6	3876
2026-01-15 04:00:25.38	301.31	30.56	-22.9	-23.7	20.1	0.00e+00	0	44	0	1917845504	6	3947
2026-01-15 04:00:26.38	300.97	30.53	-23.0	-24.0	20.0	1.17e-03	0	43	0	1924136960	6	4023
2026-01-15 04:00:27.38	300.62	30.50	-23.1	-24.1	19.9	1.08e-03	0	44	0	1929379840	6	4036
2026-01-15 04:00:28.38	300.28	30.47	-22.9	-23.7	20.1	1.94e-05	0	44	0	1934622720	6	3951
2026-01-15 04:00:29.38	299.93	30.44	-22.9	-23.7	20.1	9.61e-04	0	44	0	1940914176	6	3938
2026-01-15 04:00:30.38	299.59	30.41	-22.9	-23.7	20.1	0.00e+00	0	44	0	1946157056	6	3946
2026-01-15 04:00:31.39	299.25	30.37	-22.9	-23.7	20.1	7.43e-05	0	44	0	1952448512	6	3941
2026-01-15 04:00:32.39	298.90	30.34	-23.0	-24.0	20.0	0.00e+00	0	43	0	1957691392	6	4012
2026-01-15 04:00:33.40	298.56	30.30	-23.1	-24.0	19.9	1.04e-03	0	43	0	1962934272	6	4028
2026-01-15 04:00:34.40	298.22	30.26	-23.1	-24.1	19.9	1.21e-04	0	44	0	1969225728	6	4050
2026-01-15 04:00:35.39	297.88	30.23	-23.2	-24.3	19.8	0.00e+00	0	44	0	1974468608	6	4083
2026-01-15 04:00:36.40	297.54	30.19	-23.2	-24.2	19.8	7.01e-04	0	44	0	1980760064	6	4065
2026-01-15 04:00:37.41	297.20	30.15	-23.0	-23.9	20.0	0.00e+00	0	44	0	1986002944	6	3994
2026-01-15 04:00:38.41	296.87	30.10	-23.0	-23.9	20.0	7.29e-04	0	44	0	1991245824	6	4000
2026-01-15 04:00:39.42	296.53	30.06	-22.9	-23.8	20.1	0.00e+00	0	44	0	1997537280	6	3958
2026-01-15 04:00:40.43	296.19	30.02	-22.3	-23.0	19.8	0.00e+00	0	44	0	2002780160	6	3880
2026-01-15 04:00:41.43	295.85	29.97	-22.8	-23.5	19.3	0.00e+00	0	44	0	2008023040	6	3888
2026-01-15 04:00:42.44	295.52	29.93	-22.8	-23.4	20.2	0.00e+00	0	44	0	2014314496	6	3882
2026-01-15 04:00:43.44	295.19	29.88	-22.7	-23.3	19.5	8.12e-05	0	44	0	2019557376	6	3863
2026-01-15 04:00:44.44	294.86	29.83	-22.8	-23.5	20.1	0.00e+00	0	44	0	2025848832	6	3910
2026-01-15 04:00:45.45	294.52	29.78	-22.9	-23.7	20.1	0.00e+00	0	44	0	2031091712	6	3943
2026-01-15 04:00:46.45	294.19	29.73	-22.9	-23.8	20.0	0.00e+00	0	44	0	2037383168	6	3954
2026-01-15 04:00:47.45	293.87	29.68	-23.2	-24.2	19.8	0.00e+00	0	43	0	2042626048	6	4067
2026-01-15 04:00:48.46	293.54	29.63	-23.3	-24.4	19.7	0.00e+00	0	44	0	2047868928	6	4117
2026-01-15 04:00:49.46	293.21	29.58	-23.2	-24.4	19.7	0.00e+00	0	43	0	2054160384	6	4111
2026-01-15 04:00:50.46	292.88	29.53	-23.3	-24.6	19.6	0.00e+00	0	43	0	2059403264	6	4171
2026-01-15 04:00:51.46	292.56	29.47	-23.4	-24.7	19.5	0.00e+00	0	44	0	2064646144	6	4201
2026-01-15 04:00:52.47	292.24	29.41	-23.3	-24.5	19.7	0.00e+00	0	43	0	2070937600	6	4140
2026-01-15 04:00:53.47	291.91	29.36	-23.3	-24.4	19.7	0.00e+00	0	44	0	2076180480	6	4117
2026-01-15 04:00:54.48	291.59	29.30	-23.3	-24.5	19.7	0.00e+00	0	44	0	2081423360	6	4133
2026-01-15 04:00:55.47	291.27	29.24	-23.3	-24.6	19.6	0.00e+00	0	43	0	2087714816	6	4158
2026-01-15 04:00:56.48	290.95	29.18	-23.3	-24.4	19.7	0.00e+00	0	44	0	2092957696	6	4125
2026-01-15 04:00:57.48	290.64	29.12	-23.2	-24.4	19.7	0.00e+00	0	43	0	2099249152	6	4121
2026-01-15 04:00:58.48	290.32	29.06	-23.1	-24.1	19.8	0.00e+00	0	44	0	2104492032	6	4045
2026-01-15 04:00:59.49	290.00	29.00	-23.0	-24.0	19.9	0.00e+00	0	44	0	2109734912	6	4010
2026-01-15 04:01:00.49	289.69	28.94	-23.1	-24.2	19.8	0.00e+00	0	44	0	2116026368	6	4056
2026-01-15 04:01:01.49	289.38	28.88	-23.2	-24.3	19.7	0.00e+00	0	44	0	2121269248	6	4093
2026-01-15 04:01:02.50	289.06	28.81	-23.1	-24.2	19.8	0.00e+00	0	44	0	2127560704	6	4062
2026-01-15 04:01:03.50	288.75	28.75	-23.2	-24.3	19.8	0.00e+00	0	44	0	2132803584	6	4083
2026-01-15 04:01:04.51	288.44	28.68	-23.2	-24.3	19.7	0.00e+00	0	44	0	2138046464	6	4094
2026-01-15 04:01:05.51	288.14	28.62	-23.2	-24.4	19.7	0.00e+00	0	44	0	2144337920	6	4113
2026-01-15 04:01:06.52	287.83	28.55	-23.2	-24.2	19.7	0.00e+00	0	44	0	2149580800	6	4075
2026-01-15 04:01:07.52	287.52	28.48	-23.1	-24.0	19.9	0.00e+00	0	44	0	2154823680	6	4024
2026-01-15 04:01:08.53	287.22	28.41	-23.2	-24.3	19.7	0.00e+00	0	44	0	2161115136	6	4098
2026-01-15 04:01:09.54	286.91	28.34	-23.5	-24.5	19.3	0.00e+00	0	44	0	2166358016	7	4038
2026-01-15 04:01:10.54	286.61	28.27	-23.6	-24.7	19.3	0.00e+00	0	44	0	2172649472	7	4073
2026-01-15 04:01:11.54	286.31	28.20	-23.3	-24.1	19.6	0.00e+00	0	44	0	2177892352	7	3923
2026-01-15 04:01:12.54	286.01	28.13	-23.1	-23.6	19.8	0.00e+00	0	44	0	2183135232	7	3817
2026-01-15 04:01:13.55	285.71	28.06	-23.1	-23.6	19.8	5.83e-05	0	44	0	2189426688	7	3815
2026-01-15 04:01:14.55	285.42	27.98	-23.1	-24.0	19.9	1.20e-04	0	44	0	2194669568	6	4023
2026-01-15 04:01:15.55	285.12	27.91	-23.0	-23.9	19.9	0.00e+00	0	44	0	2200961024	6	3986
2026-01-15 04:01:16.56	284.83	27.84	-23.0	-24.0	19.9	2.48e-04	0	44	0	2206203904	6	4013
2026-01-15 04:01:17.56	284.54	27.76	-23.1	-24.1	19.8	2.63e-04	0	44	0	2211446784	6	4033
2026-01-15 04:01:18.57	284.25	27.69	-23.2	-24.3	19.7	0.00e+00	0	44	0	2217738240	6	4091
2026-01-15 04:01:19.58	283.95	27.61	-23.2	-24.3	19.7	0.00e+00	0	44	0	2222981120	6	4087
2026-01-15 04:01:20.58	283.67	27.53	-23.1	-24.0	19.9	6.75e-05	0	44	0	2228224000	6	4022
2026-01-15 04:01:21.58	283.38	27.46	-23.0	-24.0	19.9	0.00e+00	0	44	0	2234515456	6	4023
2026-01-15 04:01:22.58	283.10	27.38	-23.0	-23.9	19.9	0.00e+00	0	44	0	2239758336	6	3999
2026-01-15 04:01:23.59	282.81	27.30	-23.0	-23.8	19.9	0.00e+00	0	44	0	2246049792	6	3976
2026-01-15 04:01:24.59	282.53	27.22	-23.1	-24.0	19.8	0.00e+00	0	44	0	2251292672	6	4021
2026-01-15 04:01:25.60	282.25	27.14	-23.1	-24.1	19.8	0.00e+00	0	44	0	2256535552	6	4038
2026-01-15 04:01:26.60	281.97	27.06	-22.9	-23.7	19.1	0.00e+00	0	44	0	2262827008	6	3948
2026-01-15 04:01:27.60	281.69	26.98	-23.1	-24.1	19.8	0.00e+00	0	44	0	2268069888	6	4054
2026-01-15 04:01:28.61	281.41	26.90	-23.2	-24.4	19.4	0.00e+00	0	44	0	2274361344	6	4105
2026-01-15 04:01:29.62	281.14	26.82	-23.3	-24.6	19.5	0.00e+00	0	44	0	2279604224	6	4160
2026-01-15 04:01:30.62	280.86	26.74	-23.3	-24.6	19.5	0.00e+00	0	44	0	2284847104	6	4173
2026-01-15 04:01:31.62	280.59	26.65	-23.3	-24.6	19.5	0.00e+00	0	44	0	2291138560	6	4156
2026-01-15 04:01:32.63	280.32	26.57	-23.2	-24.4	19.6	6.86e-05	0	43	0	2296381440	6	4108
2026-01-15 04:01:33.63	280.05	26.49	-23.2	-24.4	19.6	0.00e+00	0	44	0	2301624320	6	4104
2026-01-15 04:01:34.63	279.78	26.41	-23.3	-24.5	19.5	7.89e-05	0	44	0	2307915776	6	4136
2026-01-15 04:01:35.64	279.51	26.32	-23.3	-24.5	19.5	1.46e-03	0	44	0	2313158656	6	4141
2026-01-15 04:01:36.64	279.25	26.24	-23.3	-24.5	19.5	0.00e+00	0	44	0	2319450112	6	4140
2026-01-15 04:01:37.64	278.99	26.15	-23.3	-24.5	19.5	1.46e-03	0	44	0	2324692992	6	4154
2026-01-15 04:01:38.65	278.72	26.07	-23.3	-24.5	19.5	0.00e+00	0	44	0	2329935872	6	4151
2026-01-15 04:01:39.65	278.46	25.98	-23.3	-24.4	19.5	7.43e-05	0	44	0	2336227328	6	4128
2026-01-15 04:01:40.65	278.20	25.89	-23.3	-24.5	19.5	5.03e-05	0	44	0	2341470208	6	4149
2026-01-15 04:01:41.66	277.94	25.81	-23.2	-24.3	19.6	0.00e+00	0	43	0	2347761664	6	4097
2026-01-15 04:01:42.67	277.68	25.72	-23.1	-24.0	19.8	1.09e-04	0	44	0	2353004544	6	4026
2026-01-15 04:01:43.67	277.43	25.63	-23.1	-24.2	19.7	0.00e+00	0	44	0	2358247424	6	4060
2026-01-15 04:01:44.67	277.18	25.55	-23.3	-24.4	19.5	1.31e-03	0	44	0	2364538880	6	4128
2026-01-15 04:01:45.67	276.92	25.46	-23.3	-24.6	19.4	0.00e+00	0	44	0	2369781760	6	4181
2026-01-15 04:01:46.67	276.67	25.37	-23.4	-24.7	19.4	1.24e-03	0	44	0	2375024640	6	4199
2026-01-15 04:01:47.68	276.42	25.28	-23.4	-24.7	19.4	1.19e-03	0	44	0	2381316096	6	4201
2026-01-15 04:01:48.68	276.17	25.19	-23.5	-24.5	19.2	0.00e+00	0	44	0	2386558976	7	4041
2026-01-15 04:01:49.69	275.93	25.10	-23.9	-25.2	18.9	8.26e-04	0	44	0	2392850432	7	4212
2026-01-15 04:01:50.69	275.68	25.01	-23.7	-24.4	19.1	0.00e+00	0	44	0	2398093312	8	3900
2026-01-15 04:01:51.68	275.44	24.93	-23.6	-24.1	19.2	0.00e+00	0	44	0	2403336192	8	3819
2026-01-15 04:01:52.68	275.20	24.84	-23.6	-24.6	19.2	3.55e-04	0	44	0	2409627648	7	4057
2026-01-15 04:01:53.69	274.95	24.74	-23.6	-24.7	19.1	3.25e-04	0	44	0	2414870528	7	4085
2026-01-15 04:01:54.68	274.72	24.66	-23.6	-24.7	19.1	0.00e+00	0	44	0	2420113408	7	4086
2026-01-15 04:01:55.69	274.48	24.56	-23.8	-25.1	18.9	7.23e-04	0	44	0	2426404864	7	4169
2026-01-15 04:01:56.69	274.24	24.47	-23.8	-25.2	18.9	7.24e-04	0	44	0	2431647744	7	4203
2026-01-15 04:01:57.70	274.00	24.38	-24.1	-25.3	18.6	3.40e-06	0	44	0	2436890624	8	4105
2026-01-15 04:01:58.71	273.77	24.29	-23.9	-24.8	18.9	7.13e-04	0	44	0	2443182080	8	3993
2026-01-15 04:01:59.71	273.54	24.20	-23.5	-24.0	19.2	3.89e-04	0	44	0	2448424960	8	3808
2026-01-15 04:02:00.71	273.30	24.11	-23.3	-23.6	19.5	0.00e+00	0	43	0	2454716416	8	3704
2026-01-15 04:02:01.71	273.07	24.02	-23.2	-23.9	19.5	2.46e-04	0	44	0	2459959296	7	3888
2026-01-15 04:02:02.71	272.85	23.92	-23.2	-23.9	19.5	5.12e-04	0	43	0	2466250752	7	3883
2026-01-15 04:02:03.71	272.62	23.83	-23.4	-24.3	19.3	0.00e+00	0	43	0	2471493632	7	3982
2026-01-15 04:02:04.72	272.39	23.74	-23.5	-24.4	19.3	0.00e+00	0	44	0	2476736512	7	4003
2026-01-15 04:02:05.72	272.17	23.65	-23.6	-24.6	19.1	1.15e-03	0	44	0	2483027968	7	4064
2026-01-15 04:02:06.73	271.94	23.55	-23.5	-24.5	19.2	0.00e+00	0	44	0	2488270848	7	4035
2026-01-15 04:02:07.73	271.72	23.46	-23.5	-24.5	19.2	9.53e-04	0	44	0	2493513728	7	4021
2026-01-15 04:02:08.73	271.50	23.37	-23.5	-24.6	19.2	7.16e-04	0	44	0	2499805184	7	4042
2026-01-15 04:02:09.73	271.28	23.28	-23.6	-24.6	19.1	0.00e+00	0	44	0	2505048064	7	4053
2026-01-15 04:02:10.73	271.06	23.18	-23.6	-24.6	19.1	5.07e-04	0	44	0	2510290944	7	4063
2026-01-15 04:02:11.74	270.84	23.09	-23.5	-24.6	19.2	0.00e+00	0	43	0	2516582400	7	4044
2026-01-15 04:02:12.74	270.63	23.00	-23.5	-24.6	19.2	0.00e+00	0	44	0	2521825280	7	4044
2026-01-15 04:02:13.74	270.41	22.90	-23.6	-24.7	19.1	0.00e+00	0	44	0	2528116736	7	4081
2026-01-15 04:02:14.75	270.20	22.81	-23.6	-24.8	19.1	0.00e+00	0	44	0	2533359616	7	4094
2026-01-15 04:02:15.75	269.99	22.72	-23.7	-24.9	19.0	0.00e+00	0	44	0	2539651072	7	4132
2026-01-15 04:02:16.75	269.78	22.62	-23.8	-25.1	18.9	0.00e+00	0	44	0	2544893952	7	4179
2026-01-15 04:02:17.75	269.57	22.53	-23.8	-25.0	18.9	8.93e-04	0	44	0	2550136832	7	4164
2026-01-15 04:02:18.76	269.36	22.43	-23.8	-25.0	18.9	0.00e+00	0	44	0	2556428288	7	4164
2026-01-15 04:02:19.77	269.15	22.34	-23.8	-25.0	18.9	0.00e+00	0	44	0	2561671168	7	4147
2026-01-15 04:02:20.77	268.95	22.25	-23.8	-25.1	18.9	0.00e+00	0	44	0	2566914048	7	4186
2026-01-15 04:02:21.78	268.74	22.15	-23.9	-25.3	18.8	0.00e+00	0	44	0	2573205504	7	4218
2026-01-15 04:02:22.78	268.54	22.06	-24.0	-25.4	18.7	0.00e+00	0	44	0	2578448384	7	4265
2026-01-15 04:02:23.79	268.34	21.96	-23.9	-25.3	18.8	0.00e+00	0	44	0	2583691264	7	4225
2026-01-15 04:02:24.79	268.14	21.87	-23.8	-25.1	18.8	3.66e-05	0	44	0	2589982720	7	4188
2026-01-15 04:02:25.79	267.94	21.78	-23.9	-25.3	18.7	2.20e-06	0	43	0	2595225600	7	4240
2026-01-15 04:02:26.79	267.74	21.68	-23.8	-25.2	18.8	0.00e+00	0	44	0	2601517056	7	4192
2026-01-15 04:02:27.80	267.54	21.59	-23.8	-25.1	18.8	0.00e+00	0	44	0	2606759936	7	4186
2026-01-15 04:02:28.80	267.35	21.49	-24.0	-25.5	18.6	3.40e-06	0	44	0	2613051392	7	4281
2026-01-15 04:02:29.81	267.15	21.40	-24.0	-25.1	18.6	0.00e+00	0	44	0	2618294272	8	4062
2026-01-15 04:02:30.81	266.96	21.30	-24.0	-25.0	18.6	0.00e+00	0	44	0	2623537152	8	4052
2026-01-15 04:02:31.81	266.77	21.21	-24.1	-25.2	18.5	7.24e-04	0	44	0	2629828608	8	4101
2026-01-15 04:02:32.81	266.58	21.12	-23.9	-24.8	18.8	0.00e+00	0	44	0	2635071488	8	3998
2026-01-15 04:02:33.81	266.39	21.02	-23.8	-25.0	18.8	6.86e-04	0	44	0	2640314368	7	4162
2026-01-15 04:02:34.81	266.20	20.93	-23.8	-25.1	18.8	6.80e-06	0	44	0	2646605824	7	4190
2026-01-15 04:02:35.82	266.01	20.83	-23.9	-25.2	18.7	0.00e+00	0	44	0	2651848704	7	4213
2026-01-15 04:02:36.82	265.82	20.74	-23.9	-25.4	18.7	2.48e-04	0	44	0	2657091584	7	4258
2026-01-15 04:02:37.83	265.64	20.65	-24.0	-25.4	18.6	2.20e-06	0	43	0	2663383040	7	4266
2026-01-15 04:02:38.83	265.45	20.55	-24.0	-25.1	18.6	0.00e+00	0	44	0	2668625920	8	4066
2026-01-15 04:02:39.83	265.27	20.46	-24.2	-25.4	18.4	0.00e+00	0	44	0	2674917376	8	4132
2026-01-15 04:02:40.83	265.09	20.36	-24.1	-25.2	18.5	4.04e-04	0	44	0	2680160256	8	4098
2026-01-15 04:02:41.84	264.91	20.27	-24.2	-25.5	18.4	0.00e+00	0	44	0	2685403136	8	4164
2026-01-15 04:02:42.83	264.73	20.18	-24.1	-25.3	18.5	0.00e+00	0	44	0	2691694592	8	4118
2026-01-15 04:02:43.84	264.55	20.08	-24.1	-25.2	18.5	2.77e-04	0	44	0	2696937472	8	4099
2026-01-15 04:02:44.85	264.37	19.99	-24.1	-25.3	18.4	0.00e+00	0	44	0	2702180352	8	4123
2026-01-15 04:02:45.85	264.20	19.90	-24.3	-25.6	18.3	1.51e-04	0	44	0	2708471808	8	4191
2026-01-15 04:02:46.86	264.02	19.80	-24.2	-25.4	18.4	0.00e+00	0	44	0	2713714688	8	4141
2026-01-15 04:02:47.86	263.85	19.71	-24.2	-25.4	18.4	0.00e+00	0	44	0	2720006144	8	4145
2026-01-15 04:02:48.87	263.67	19.61	-24.2	-25.5	18.3	0.00e+00	0	44	0	2725249024	8	4166
2026-01-15 04:02:49.88	263.50	19.52	-24.3	-25.6	18.3	0.00e+00	0	44	0	2730491904	8	4193
2026-01-15 04:02:50.88	263.33	19.43	-24.3	-25.7	18.2	0.00e+00	0	44	0	2736783360	8	4222
2026-01-15 04:02:51.89	263.16	19.33	-24.4	-25.8	18.2	0.00e+00	0	44	0	2742026240	8	4256
2026-01-15 04:02:52.89	262.99	19.24	-24.4	-25.9	18.1	0.00e+00	0	44	0	2748317696	8	4261
2026-01-15 04:02:53.90	262.82	19.15	-24.5	-25.7	18.0	0.00e+00	0	44	0	2753560576	9	4105
2026-01-15 04:02:54.90	262.65	19.05	-24.8	-26.3	17.7	1.57e-04	0	44	0	2759852032	9	4259
2026-01-15 04:02:55.90	262.49	18.96	-24.6	-25.8	17.9	2.33e-04	0	44	0	2765094912	9	4120
2026-01-15 04:02:56.90	262.33	18.87	-24.4	-25.3	18.2	0.00e+00	0	44	0	2770337792	9	4011
2026-01-15 04:02:57.90	262.16	18.78	-24.3	-25.1	18.3	2.46e-04	0	44	0	2776629248	9	3957
2026-01-15 04:02:58.91	262.00	18.68	-24.3	-25.6	18.2	2.48e-04	0	44	0	2781872128	8	4206
2026-01-15 04:02:59.91	261.84	18.59	-24.4	-25.8	18.1	0.00e+00	0	44	0	2787115008	8	4249
2026-01-15 04:03:00.92	261.68	18.50	-24.5	-26.0	18.1	0.00e+00	0	44	0	2793406464	8	4306
2026-01-15 04:03:01.92	261.52	18.41	-24.5	-25.6	18.0	1.73e-04	0	44	0	2798649344	9	4089
2026-01-15 04:03:02.93	261.36	18.31	-24.6	-25.8	17.9	0.00e+00	0	44	0	2803892224	9	4138
2026-01-15 04:03:03.94	261.20	18.22	-24.6	-25.8	17.9	1.21e-04	0	44	0	2810183680	9	4135
2026-01-15 04:03:04.94	261.04	18.13	-24.7	-26.0	17.8	1.07e-04	0	44	0	2815426560	9	4179
2026-01-15 04:03:05.95	260.88	18.04	-24.7	-26.1	17.7	0.00e+00	0	44	0	2821718016	9	4213
2026-01-15 04:03:06.95	260.73	17.95	-24.8	-26.1	17.7	2.86e-05	0	44	0	2826960896	9	4224
2026-01-15 04:03:07.96	260.58	17.85	-24.8	-26.2	17.6	0.00e+00	0	44	0	2833252352	9	4246
2026-01-15 04:03:08.96	260.42	17.76	-24.8	-26.2	17.7	0.00e+00	0	44	0	2838495232	9	4225
2026-01-15 04:03:09.97	260.27	17.67	-24.9	-26.4	17.6	1.21e-03	0	44	0	2843738112	9	4278
2026-01-15 04:03:10.97	260.12	17.58	-24.8	-26.2	17.7	0.00e+00	0	44	0	2850029568	9	4227
2026-01-15 04:03:11.98	259.97	17.49	-24.8	-26.2	17.6	0.00e+00	0	44	0	2855272448	9	4239
2026-01-15 04:03:12.99	259.82	17.40	-24.9	-26.5	17.5	0.00e+00	0	44	0	2860515328	9	4313
2026-01-15 04:03:13.99	259.67	17.31	-24.9	-26.4	17.5	0.00e+00	0	44	0	2866806784	9	4285
2026-01-15 04:03:15.00	259.52	17.21	-25.0	-26.6	17.4	0.00e+00	0	44	0	2872049664	9	4349
2026-01-15 04:03:15.99	259.38	17.13	-25.0	-26.2	17.4	0.00e+00	0	44	0	2877292544	10	4116
2026-01-15 04:03:16.99	259.23	17.04	-25.1	-26.4	17.3	7.04e-04	0	44	0	2883584000	10	4164
2026-01-15 04:03:17.99	259.09	16.95	-25.0	-26.2	17.4	0.00e+00	0	44	0	2888826880	10	4132
2026-01-15 04:03:19.00	258.94	16.86	-25.2	-26.6	17.2	1.26e-03	0	44	0	2895118336	10	4220
2026-01-15 04:03:20.00	258.80	16.77	-25.1	-26.3	17.3	1.23e-03	0	44	0	2900361216	10	4160
2026-01-15 04:03:21.01	258.66	16.68	-25.0	-26.2	17.4	1.20e-04	0	44	0	2906652672	10	4118
2026-01-15 04:03:22.01	258.52	16.59	-25.1	-26.4	17.3	1.33e-03	0	44	0	2911895552	10	4169
2026-01-15 04:03:23.02	258.37	16.50	-25.3	-26.8	17.0	6.84e-04	0	44	0	2917138432	10	4271
2026-01-15 04:03:24.03	258.23	16.41	-25.2	-26.5	17.2	1.22e-04	0	44	0	2923429888	10	4210
2026-01-15 04:03:25.03	258.09	16.32	-25.2	-26.7	17.1	0.00e+00	0	44	0	2928672768	10	4242
2026-01-15 04:03:26.03	257.96	16.23	-25.3	-26.9	17.0	1.27e-03	0	44	0	2933915648	10	4294
2026-01-15 04:03:27.03	257.82	16.14	-25.5	-27.2	16.8	0.00e+00	0	44	0	2940207104	10	4377
2026-01-15 04:03:28.04	257.68	16.05	-25.4	-27.0	16.9	1.12e-03	0	44	0	2945449984	10	4342
2026-01-15 04:03:29.04	257.55	15.96	-25.4	-27.0	16.9	1.06e-03	0	44	0	2950692864	10	4327
2026-01-15 04:03:30.05	257.41	15.87	-25.5	-26.8	16.8	0.00e+00	0	44	0	2956984320	11	4162
2026-01-15 04:03:31.05	257.28	15.79	-25.3	-26.4	16.9	1.16e-03	0	44	0	2962227200	11	4063
2026-01-15 04:03:32.05	257.15	15.70	-25.3	-26.7	17.0	1.16e-03	0	44	0	2968518656	10	4258
2026-01-15 04:03:33.06	257.01	15.61	-25.3	-26.7	17.0	0.00e+00	0	44	0	2973761536	10	4261
2026-01-15 04:03:34.05	256.88	15.52	-25.5	-27.1	16.8	1.39e-03	0	44	0	2980052992	10	4364
2026-01-15 04:03:35.06	256.75	15.43	-25.3	-26.8	17.0	1.44e-03	0	44	0	2985295872	10	4268
2026-01-15 04:03:36.06	256.62	15.35	-25.3	-26.8	17.0	6.86e-05	0	44	0	2990538752	10	4274
2026-01-15 04:03:37.06	256.49	15.26	-25.4	-27.0	16.9	3.50e-04	0	44	0	2996830208	10	4328
2026-01-15 04:03:38.07	256.36	15.17	-25.4	-27.0	16.8	1.50e-03	0	44	0	3002073088	10	4335
2026-01-15 04:03:39.07	256.24	15.09	-25.5	-27.2	16.7	0.00e+00	0	44	0	3007315968	10	4378
2026-01-15 04:03:40.07	256.11	15.00	-25.4	-27.1	16.8	1.59e-03	0	44	0	3013607424	10	4366
2026-01-15 04:03:41.07	255.99	14.91	-25.4	-27.1	16.8	1.86e-03	0	44	0	3018850304	10	4373
2026-01-15 04:03:42.07	255.86	14.83	-25.5	-26.8	16.7	6.33e-04	0	44	0	3024093184	11	4167
2026-01-15 04:03:43.08	255.73	14.74	-25.7	-27.1	16.5	2.20e-03	0	44	0	3030384640	11	4252
2026-01-15 04:03:44.09	255.61	14.65	-25.5	-26.7	16.7	0.00e+00	0	44	0	3035627520	11	4131
2026-01-15 04:03:45.09	255.49	14.57	-25.4	-26.9	16.9	7.47e-04	0	44	0	3041918976	10	4318
2026-01-15 04:03:46.10	255.36	14.48	-25.5	-26.8	16.7	0.00e+00	0	44	0	3047161856	11	4157
2026-01-15 04:03:47.10	255.24	14.40	-25.7	-27.1	16.5	2.24e-03	0	44	0	3053453312	11	4238
2026-01-15 04:03:48.11	255.12	14.31	-25.8	-27.3	16.3	0.00e+00	0	44	0	3058696192	11	4310
2026-01-15 04:03:49.11	255.00	14.23	-25.8	-27.3	16.3	0.00e+00	0	44	0	3063939072	11	4316
2026-01-15 04:03:50.12	254.88	14.14	-25.9	-27.5	16.2	2.25e-03	0	44	0	3070230528	11	4370
2026-01-15 04:03:51.12	254.76	14.06	-25.9	-27.6	16.2	0.00e+00	0	44	0	3075473408	11	4379
2026-01-15 04:03:52.13	254.64	13.97	-25.9	-27.2	16.1	2.13e-03	0	44	0	3080716288	12	4167
2026-01-15 04:03:53.12	254.53	13.89	-25.9	-27.6	16.2	0.00e+00	0	44	0	3087007744	11	4391
2026-01-15 04:03:54.13	254.41	13.80	-26.1	-27.5	15.9	4.95e-04	0	44	0	3092250624	12	4245
2026-01-15 04:03:55.12	254.29	13.72	-26.3	-28.0	15.6	0.00e+00	0	44	0	3097493504	12	4379
2026-01-15 04:03:56.13	254.18	13.64	-26.0	-27.3	16.0	0.00e+00	0	44	0	3103784960	12	4207
2026-01-15 04:03:57.13	254.06	13.55	-25.9	-27.7	16.1	4.81e-04	0	44	0	3109027840	11	4404
2026-01-15 04:03:58.12	253.95	13.47	-26.1	-27.6	15.8	0.00e+00	0	44	0	3115319296	12	4275
2026-01-15 04:03:59.13	253.84	13.39	-26.3	-28.0	15.6	2.14e-03	0	43	0	3120562176	12	4386
2026-01-15 04:04:00.14	253.72	13.30	-26.1	-27.7	15.8	0.00e+00	0	44	0	3125805056	12	4292
2026-01-15 04:04:01.14	253.61	13.22	-26.1	-27.5	15.8	0.00e+00	0	44	0	3132096512	12	4251
2026-01-15 04:04:02.14	253.50	13.14	-26.1	-27.7	15.7	0.00e+00	0	44	0	3137339392	12	4302
2026-01-15 04:04:03.15	253.39	13.05	-26.1	-27.6	15.8	0.00e+00	0	44	0	3143630848	12	4290
2026-01-15 04:04:04.16	253.28	12.97	-26.2	-27.8	15.7	0.00e+00	0	44	0	3148873728	12	4330
2026-01-15 04:04:05.17	253.17	12.89	-26.3	-28.0	15.6	0.00e+00	0	44	0	3154116608	12	4375
2026-01-15 04:04:06.17	253.06	12.80	-26.1	-27.6	15.7	0.00e+00	0	44	0	3160408064	12	4279
2026-01-15 04:04:07.17	252.95	12.72	-25.9	-27.2	16.0	0.00e+00	0	44	0	3165650944	12	4184
2026-01-15 04:04:08.18	252.84	12.64	-25.9	-27.6	16.1	0.00e+00	0	44	0	3171942400	11	4385
2026-01-15 04:04:09.18	252.73	12.56	-26.0	-27.4	15.9	0.00e+00	0	44	0	3177185280	12	4220
2026-01-15 04:04:10.18	252.63	12.48	-26.1	-27.7	15.7	0.00e+00	0	44	0	3182428160	12	4294
2026-01-15 04:04:11.19	252.52	12.40	-26.0	-27.3	15.9	0.00e+00	0	44	0	3188719616	12	4196
2026-01-15 04:04:12.20	252.41	12.31	-26.0	-27.3	15.8	0.00e+00	0	44	0	3193962496	12	4198
2026-01-15 04:04:13.21	252.31	12.23	-25.9	-27.3	15.9	0.00e+00	0	44	0	3200253952	12	4184
2026-01-15 04:04:14.21	252.20	12.15	-26.0	-27.4	15.9	0.00e+00	0	44	0	3205496832	12	4218
2026-01-15 04:04:15.22	252.10	12.07	-26.0	-27.4	15.8	1.10e-06	0	44	0	3210739712	12	4237
2026-01-15 04:04:16.23	252.00	11.99	-26.1	-27.6	15.7	0.00e+00	0	44	0	3217031168	12	4288
2026-01-15 04:04:17.23	251.89	11.91	-26.2	-27.8	15.6	0.00e+00	0	44	0	3222274048	12	4327
2026-01-15 04:04:18.24	251.79	11.83	-26.2	-27.9	15.6	0.00e+00	0	44	0	3227516928	12	4354
2026-01-15 04:04:19.25	251.69	11.75	-26.3	-28.0	15.5	1.10e-06	0	44	0	3233808384	12	4394
2026-01-15 04:04:20.25	251.59	11.67	-26.4	-28.2	15.4	0.00e+00	0	44	0	3239051264	12	4452
2026-01-15 04:04:21.26	251.49	11.59	-26.4	-28.2	15.3	0.00e+00	0	44	0	3245342720	12	4459
2026-01-15 04:04:22.26	251.39	11.51	-26.3	-28.0	15.5	0.00e+00	0	44	0	3250585600	12	4387
2026-01-15 04:04:23.27	251.29	11.43	-26.2	-27.9	15.5	0.00e+00	0	44	0	3256877056	12	4356
2026-01-15 04:04:24.27	251.19	11.35	-26.2	-27.9	15.5	1.70e-04	0	44	0	3262119936	12	4352
2026-01-15 04:04:25.26	251.09	11.27	-26.2	-27.9	15.5	0.00e+00	0	44	0	3267362816	12	4355
2026-01-15 04:04:26.27	251.00	11.19	-26.3	-28.1	15.4	0.00e+00	0	44	0	3273654272	12	4417
2026-01-15 04:04:27.27	250.90	11.11	-26.5	-27.9	15.2	9.49e-05	0	44	0	3278897152	13	4251
2026-01-15 04:04:28.28	250.80	11.04	-26.3	-28.1	15.4	0.00e+00	0	44	0	3284140032	12	4411
2026-01-15 04:04:29.28	250.71	10.96	-26.4	-28.3	15.3	0.00e+00	0	44	0	3290431488	12	4483
2026-01-15 04:04:30.29	250.61	10.88	-26.3	-28.0	15.4	2.20e-06	0	44	0	3295674368	12	4393
2026-01-15 04:04:31.29	250.52	10.80	-26.4	-28.4	15.2	3.32e-04	0	44	0	3300917248	12	4505
2026-01-15 04:04:32.29	250.42	10.72	-26.5	-28.0	15.1	0.00e+00	0	44	0	3307208704	13	4288
2026-01-15 04:04:33.28	250.33	10.65	-26.7	-28.4	14.9	3.50e-04	0	44	0	3312451584	13	4381
2026-01-15 04:04:34.29	250.24	10.57	-26.6	-28.3	14.9	3.51e-04	0	44	0	3318743040	13	4374
2026-01-15 04:04:35.30	250.14	10.49	-26.7	-28.5	14.8	0.00e+00	0	44	0	3323985920	13	4428
2026-01-15 04:04:36.30	250.05	10.42	-26.8	-28.6	14.7	3.50e-04	0	44	0	3330277376	13	4458
2026-01-15 04:04:37.29	249.96	10.34	-26.6	-28.2	15.0	3.55e-04	0	44	0	3335520256	13	4349
2026-01-15 04:04:38.30	249.87	10.26	-26.7	-28.4	14.8	0.00e+00	0	44	0	3340763136	13	4407
2026-01-15 04:04:39.30	249.78	10.19	-26.7	-28.4	14.8	3.23e-04	0	44	0	3347054592	13	4407
2026-01-15 04:04:40.30	249.69	10.11	-26.9	-28.9	14.6	3.25e-04	0	44	0	3352297472	13	4532
2026-01-15 04:04:41.30	249.60	10.03	-27.1	-28.8	14.3	1.10e-06	0	44	0	3357540352	14	4398
2026-01-15 04:04:42.30	249.51	9.96	-26.7	-27.9	14.9	2.35e-04	0	44	0	3363831808	14	4147
2026-01-15 04:04:43.30	249.42	9.88	-25.8	-27.5	14.5	2.35e-04	0	44	0	3369074688	13	4354
2026-01-15 04:04:44.30	249.33	9.81	-26.8	-28.6	14.4	0.00e+00	0	44	0	3374317568	13	4450
2026-01-15 04:04:45.31	249.24	9.73	-26.7	-28.4	12.9	1.85e-04	0	44	0	3380609024	13	4384
2026-01-15 04:04:46.31	249.16	9.66	-26.5	-28.5	14.7	2.18e-04	0	44	0	3385851904	12	4524
2026-01-15 04:04:47.31	249.07	9.58	-26.5	-28.5	15.0	0.00e+00	0	44	0	3392143360	12	4537
2026-01-15 04:04:48.31	248.98	9.51	-26.6	-28.2	14.9	1.62e-04	0	44	0	3397386240	13	4353
2026-01-15 04:04:49.32	248.90	9.43	-26.6	-28.3	14.9	1.59e-04	0	44	0	3402629120	13	4356
2026-01-15 04:04:50.33	248.81	9.35	-26.6	-28.4	14.8	2.20e-06	0	44	0	3408920576	13	4386
2026-01-15 04:04:51.33	248.72	9.28	-26.7	-28.5	14.7	1.97e-03	0	44	0	3414163456	13	4435
2026-01-15 04:04:52.34	248.64	9.21	-26.9	-28.8	14.5	2.17e-04	0	43	0	3419406336	13	4514
2026-01-15 04:04:53.34	248.55	9.13	-26.8	-28.6	14.6	9.37e-04	0	44	0	3425697792	13	4465
2026-01-15 04:04:54.34	248.47	9.06	-27.1	-28.8	14.2	2.29e-04	0	44	0	3430940672	14	4413
2026-01-15 04:04:55.35	248.39	8.98	-27.1	-29.0	14.1	2.48e-04	0	44	0	3437232128	14	4449
2026-01-15 04:04:56.35	248.30	8.91	-26.8	-28.7	14.5	8.86e-04	0	44	0	3442475008	13	4498
2026-01-15 04:04:57.35	248.22	8.84	-26.9	-29.0	14.4	2.32e-04	0	44	0	3447717888	13	4570
2026-01-15 04:04:58.36	248.14	8.76	-27.1	-28.8	14.2	2.59e-03	0	44	0	3454009344	14	4414
2026-01-15 04:04:59.37	248.06	8.69	-27.2	-29.0	14.0	8.00e-06	0	44	0	3459252224	14	4465
2026-01-15 04:05:00.37	247.98	8.62	-27.0	-28.8	14.2	2.51e-03	0	44	0	3465543680	14	4396
2026-01-15 04:05:01.37	247.90	8.54	-27.2	-29.2	13.9	1.09e-04	0	44	0	3470786560	14	4515
2026-01-15 04:05:02.37	247.82	8.47	-27.0	-28.8	14.2	9.65e-04	0	44	0	3476029440	14	4395
2026-01-15 04:05:03.38	247.73	8.40	-26.8	-28.7	14.5	2.46e-03	0	44	0	3482320896	13	4484
2026-01-15 04:05:04.37	247.66	8.32	-26.9	-28.9	14.4	2.55e-04	0	44	0	3487563776	13	4545
2026-01-15 04:05:05.37	247.58	8.25	-27.0	-28.8	14.2	8.70e-04	0	44	0	3492806656	14	4397
2026-01-15 04:05:06.38	247.50	8.18	-27.2	-29.2	13.9	2.28e-04	0	44	0	3499098112	14	4525
2026-01-15 04:05:07.38	247.42	8.11	-27.2	-29.1	13.9	1.90e-03	0	44	0	3504340992	14	4502
2026-01-15 04:05:08.39	247.34	8.04	-27.2	-29.1	14.0	4.73e-04	0	44	0	3509583872	14	4486
2026-01-15 04:05:09.39	247.26	7.96	-27.1	-28.8	14.1	1.68e-03	0	44	0	3515875328	14	4412
2026-01-15 04:05:10.39	247.19	7.89	-27.1	-28.9	14.0	1.73e-03	0	44	0	3521118208	14	4433
2026-01-15 04:05:11.39	247.11	7.82	-27.1	-28.9	14.1	2.48e-04	0	44	0	3527409664	14	4427
2026-01-15 04:05:12.39	247.03	7.75	-27.2	-29.3	13.8	1.08e-03	0	44	0	3532652544	14	4543
2026-01-15 04:05:13.39	246.96	7.68	-27.2	-29.2	13.9	1.01e-03	0	44	0	3538944000	14	4517
2026-01-15 04:05:14.40	246.88	7.61	-27.3	-29.5	13.7	1.30e-04	0	44	0	3544186880	14	4612
2026-01-15 04:05:15.40	246.81	7.54	-27.2	-29.2	13.8	1.03e-03	0	44	0	3549429760	14	4535
2026-01-15 04:05:16.41	246.73	7.47	-27.2	-29.1	13.9	1.11e-03	0	44	0	3555721216	14	4496
2026-01-15 04:05:17.42	246.66	7.40	-27.2	-29.1	13.8	9.10e-06	0	44	0	3560964096	14	4512
2026-01-15 04:05:18.42	246.58	7.33	-27.1	-29.1	13.9	1.30e-03	0	44	0	3566206976	14	4484
2026-01-15 04:05:19.42	246.51	7.26	-27.3	-29.3	13.7	1.51e-03	0	44	0	3572498432	14	4561
2026-01-15 04:05:20.42	246.44	7.19	-27.3	-29.5	13.6	1.25e-05	0	44	0	3577741312	14	4610
2026-01-15 04:05:21.42	246.36	7.12	-27.3	-29.5	13.6	1.61e-03	0	44	0	3582984192	14	4628
2026-01-15 04:05:22.42	246.29	7.05	-32.8	-42.9	4.0	1.60e-03	0	44	0	3589275648	25	11552
2026-01-15 04:05:23.42	246.22	6.98	-33.3	-44.7	3.8	8.46e-01	0	44	104	3589275648	26	13310
2026-01-15 04:05:24.43	246.15	6.91	-33.7	-44.9	3.8	8.47e-01	0	44	104	3589275648	27	13114
2026-01-15 04:05:25.43	246.07	6.84	-33.9	-45.4	3.8	8.46e-01	0	44	104	3589275648	27	13445

#Closed at: 2026-01-15 04:05:25
#Recorded file [3589 MB]: D:/data/31010_260115_065444.dat