passes_logs/2026/01/15/R2M6_AANII_01/R2M6_AANII_01__20260115_081012_NOAA_20_JPSS-1_rec.log

#Pass ID: 20260115_081012_NOAA 20 (JPSS-1)
#Satellite: NOAA 20 (JPSS-1)
#Configuration: NOAA 20
#almurnet v.1.7.20240730
#Start time: 2026-01-15 08:10:12

#Version: 2.2.20231116
#Station: R2M6_AANII_01
#Location: 30.233357 lon 59.946436 lat
#TLE: 1 43013U 17073A   26014.13176244  .00000049  00000+0  44136-4 0  9994
#TLE: 2 43013  98.7634 315.0803 0001538  40.6488 319.4803 14.19535812422619

#Time	Az	El	Level	Level2	SNR	BER	BlckErr	Temp	State	Recorded	gain1	gain2
2026-01-15 08:10:12.81	93.40	7.02	-31.5	-45.0	3.8	1.49e+00	0	41	0	0	24	17032
2026-01-15 08:10:13.81	93.30	7.08	-31.4	-44.8	3.8	1.49e+00	0	41	104	0	24	16824
2026-01-15 08:10:14.81	93.20	7.15	-31.4	-44.7	3.8	1.49e+00	0	41	104	0	24	16701
2026-01-15 08:10:15.82	93.10	7.21	-31.3	-44.6	3.8	1.49e+00	0	41	104	0	24	16587
2026-01-15 08:10:16.81	93.00	7.27	-31.4	-44.7	3.8	1.49e+00	0	41	104	0	24	16746
2026-01-15 08:10:17.82	92.89	7.33	-31.4	-44.8	3.8	1.49e+00	0	41	104	0	24	16720
2026-01-15 08:10:18.83	92.79	7.39	-31.6	-45.0	3.8	1.49e+00	0	41	104	0	24	16841
2026-01-15 08:10:19.83	92.68	7.45	-31.8	-44.9	3.8	1.49e+00	0	41	104	0	24	16330
2026-01-15 08:10:20.83	92.58	7.51	-31.9	-44.4	3.8	1.49e+00	0	41	104	0	24	15283
2026-01-15 08:10:21.83	92.47	7.57	-32.0	-43.8	3.8	1.49e+00	0	41	104	0	24	13964
2026-01-15 08:10:22.84	92.37	7.63	-32.2	-43.3	4.1	1.47e+00	0	41	104	0	24	12901
2026-01-15 08:10:23.85	92.26	7.70	-32.3	-42.6	4.1	1.24e+00	0	41	104	0	24	11748
2026-01-15 08:10:24.85	92.16	7.76	-32.3	-41.5	5.1	1.43e+00	0	41	104	0	24	10370
2026-01-15 08:10:25.85	92.05	7.82	-32.2	-40.6	5.7	4.35e-01	0	41	0	0	24	9432
2026-01-15 08:10:26.85	91.94	7.88	-32.2	-40.1	6.0	3.73e-01	0	41	0	2097152	24	8964
2026-01-15 08:10:27.85	91.83	7.94	-32.2	-40.3	6.0	3.66e-01	0	42	0	4194304	24	9112
2026-01-15 08:10:28.85	91.73	8.00	-32.2	-40.1	6.1	3.66e-01	0	41	0	6291456	24	8944
2026-01-15 08:10:29.85	91.62	8.07	-32.3	-40.5	5.9	2.88e-01	0	42	0	7340032	24	9219
2026-01-15 08:10:30.85	91.51	8.13	-32.3	-40.3	6.0	3.71e-01	0	41	0	9437184	24	9037
2026-01-15 08:10:31.85	91.40	8.19	-32.2	-39.5	6.6	2.76e-01	0	41	0	11534336	24	8369
2026-01-15 08:10:32.85	91.29	8.25	-32.0	-38.5	7.3	1.52e-01	0	41	0	13631488	24	7649
2026-01-15 08:10:33.86	91.18	8.31	-31.7	-37.4	8.1	6.79e-02	0	41	0	15728640	24	6915
2026-01-15 08:10:34.87	91.07	8.37	-31.6	-36.7	8.7	4.09e-02	0	42	0	16777216	24	6496
2026-01-15 08:10:35.87	90.96	8.44	-31.5	-36.3	9.0	2.92e-02	0	42	0	18874368	24	6290
2026-01-15 08:10:36.87	90.84	8.50	-31.5	-36.2	9.1	2.24e-02	0	42	0	20971520	24	6223
2026-01-15 08:10:37.88	90.73	8.56	-31.5	-36.3	9.0	2.05e-02	0	41	0	23068672	24	6272
2026-01-15 08:10:38.88	90.62	8.62	-31.5	-36.2	9.2	2.48e-02	0	42	0	25165824	24	6204
2026-01-15 08:10:39.88	90.50	8.69	-31.3	-35.7	9.6	1.48e-02	0	42	0	26214400	24	5934
2026-01-15 08:10:40.88	90.39	8.75	-31.4	-36.0	9.3	1.65e-02	0	42	0	28311552	24	6097
2026-01-15 08:10:41.88	90.28	8.81	-31.4	-35.9	9.5	1.56e-02	0	42	0	30408704	24	6010
2026-01-15 08:10:42.89	90.16	8.87	-31.4	-35.8	9.6	1.29e-02	0	42	0	32505856	24	5989
2026-01-15 08:10:43.89	90.05	8.93	-31.4	-35.8	9.5	1.46e-02	0	42	0	33554432	24	5990
2026-01-15 08:10:44.89	89.93	9.00	-31.4	-35.7	9.7	1.14e-02	0	42	0	35651584	24	5898
2026-01-15 08:10:45.89	89.81	9.06	-31.5	-36.0	9.5	1.21e-02	0	42	0	37748736	24	6041
2026-01-15 08:10:46.90	89.70	9.12	-31.4	-35.6	9.8	1.02e-02	0	42	0	39845888	24	5836
2026-01-15 08:10:47.91	89.58	9.18	-31.2	-35.4	10.3	6.77e-03	0	42	0	41943040	23	5853
2026-01-15 08:10:48.91	89.46	9.25	-31.0	-34.8	10.8	3.81e-03	0	42	0	42991616	23	5567
2026-01-15 08:10:49.91	89.34	9.31	-31.0	-34.7	10.9	2.21e-03	0	42	0	45088768	23	5506
2026-01-15 08:10:50.91	89.22	9.37	-31.0	-34.9	10.8	2.25e-03	0	42	0	47185920	23	5589
2026-01-15 08:10:51.92	89.10	9.44	-31.1	-35.0	10.8	3.00e-03	0	42	0	49283072	23	5633
2026-01-15 08:10:52.93	88.98	9.50	-31.1	-35.0	10.7	2.78e-03	0	42	0	51380224	23	5655
2026-01-15 08:10:53.93	88.86	9.56	-31.2	-35.3	10.5	3.59e-03	0	42	0	52428800	23	5786
2026-01-15 08:10:54.94	88.74	9.62	-31.0	-34.6	11.0	2.74e-03	0	42	0	54525952	23	5471
2026-01-15 08:10:55.94	88.62	9.69	-30.9	-34.4	11.2	1.50e-03	0	42	0	56623104	23	5382
2026-01-15 08:10:56.94	88.50	9.75	-31.1	-34.8	11.0	1.73e-03	0	42	0	58720256	23	5535
2026-01-15 08:10:57.94	88.37	9.81	-31.2	-35.1	10.7	2.36e-03	0	42	0	60817408	23	5683
2026-01-15 08:10:58.95	88.25	9.88	-31.1	-34.8	11.0	2.07e-03	0	42	0	61865984	23	5522
2026-01-15 08:10:59.95	88.12	9.94	-31.0	-34.6	11.1	1.72e-03	0	42	0	63963136	23	5453
2026-01-15 08:11:00.95	88.00	10.00	-31.1	-34.8	10.9	1.97e-03	0	42	0	66060288	23	5557
2026-01-15 08:11:01.95	87.88	10.06	-31.0	-34.6	11.1	1.92e-03	0	42	0	68157440	23	5449
2026-01-15 08:11:02.95	87.75	10.13	-31.0	-34.5	11.2	1.57e-03	0	42	0	70254592	23	5421
2026-01-15 08:11:03.96	87.62	10.19	-31.0	-34.7	11.1	1.38e-03	0	42	0	71303168	23	5470
2026-01-15 08:11:04.96	87.50	10.25	-31.0	-34.6	11.2	1.43e-03	0	42	0	73400320	23	5461
2026-01-15 08:11:05.96	87.37	10.32	-31.0	-34.7	11.1	1.57e-03	0	42	0	75497472	23	5489
2026-01-15 08:11:06.96	87.24	10.38	-31.0	-34.6	11.2	1.21e-03	0	42	0	77594624	23	5443
2026-01-15 08:11:07.97	87.11	10.44	-30.9	-34.3	11.4	8.43e-04	0	42	0	79691776	23	5308
2026-01-15 08:11:08.97	86.99	10.51	-31.0	-34.6	11.3	9.64e-04	0	42	0	80740352	23	5426
2026-01-15 08:11:09.97	86.86	10.57	-30.9	-34.3	11.5	9.60e-04	0	42	0	82837504	23	5312
2026-01-15 08:11:10.97	86.73	10.63	-31.0	-34.4	11.3	9.37e-04	0	42	0	84934656	23	5369
2026-01-15 08:11:11.97	86.60	10.70	-31.0	-34.5	11.3	1.08e-03	0	42	0	87031808	23	5377
2026-01-15 08:11:12.98	86.46	10.76	-31.0	-34.6	11.3	1.28e-03	0	42	0	89128960	23	5430
2026-01-15 08:11:13.98	86.33	10.82	-31.1	-34.7	11.2	1.30e-03	0	42	0	90177536	23	5465
2026-01-15 08:11:14.98	86.20	10.89	-31.2	-35.1	10.9	1.67e-03	0	42	0	92274688	23	5644
2026-01-15 08:11:15.98	86.07	10.95	-31.1	-34.8	11.1	1.75e-03	0	42	0	94371840	23	5528
2026-01-15 08:11:16.99	85.93	11.01	-31.1	-34.7	11.2	1.51e-03	0	42	0	96468992	23	5483
2026-01-15 08:11:17.98	85.80	11.08	-31.1	-34.7	11.2	1.31e-03	0	42	0	97517568	23	5453
2026-01-15 08:11:18.98	85.67	11.14	-31.1	-34.9	11.1	1.42e-03	0	42	0	99614720	23	5536
2026-01-15 08:11:19.99	85.53	11.20	-31.2	-35.1	10.9	1.70e-03	0	42	0	101711872	23	5636
2026-01-15 08:11:20.99	85.40	11.27	-31.1	-34.7	11.2	1.53e-03	0	42	0	103809024	23	5466
2026-01-15 08:11:22.00	85.26	11.33	-31.1	-34.7	11.3	1.21e-03	0	42	0	105906176	23	5465
2026-01-15 08:11:23.00	85.12	11.39	-31.0	-34.6	11.3	1.17e-03	0	42	0	106954752	23	5423
2026-01-15 08:11:24.00	84.98	11.46	-31.2	-35.0	11.1	1.55e-03	0	42	0	109051904	23	5587
2026-01-15 08:11:25.01	84.84	11.52	-31.0	-34.4	11.5	1.07e-03	0	42	0	111149056	23	5321
2026-01-15 08:11:26.00	84.71	11.58	-31.0	-34.5	11.4	9.05e-04	0	42	0	113246208	23	5382
2026-01-15 08:11:27.00	84.57	11.65	-31.1	-34.8	11.2	1.15e-03	0	42	0	115343360	23	5498
2026-01-15 08:11:28.01	84.43	11.71	-31.0	-34.5	11.4	9.83e-04	0	42	0	116391936	23	5364
2026-01-15 08:11:29.01	84.29	11.77	-31.0	-34.5	11.5	8.30e-04	0	42	0	118489088	23	5351
2026-01-15 08:11:30.00	84.15	11.84	-31.1	-34.8	11.3	1.05e-03	0	42	0	120586240	23	5475
2026-01-15 08:11:31.01	84.00	11.90	-31.1	-34.8	11.3	1.19e-03	0	42	0	122683392	23	5473
2026-01-15 08:11:32.00	83.86	11.96	-31.2	-34.8	11.2	1.10e-03	0	42	0	124780544	23	5511
2026-01-15 08:11:33.01	83.72	12.03	-31.1	-34.6	11.4	9.80e-04	0	43	0	125829120	23	5400
2026-01-15 08:11:34.01	83.58	12.09	-31.1	-34.6	11.5	9.09e-04	0	43	0	127926272	23	5384
2026-01-15 08:11:35.01	83.43	12.15	-31.1	-34.7	11.4	9.26e-04	0	43	0	130023424	23	5422
2026-01-15 08:11:36.02	83.29	12.22	-31.2	-35.0	11.1	1.13e-03	0	43	0	132120576	23	5586
2026-01-15 08:11:37.03	83.14	12.28	-31.1	-34.6	11.4	1.35e-03	0	43	0	134217728	23	5395
2026-01-15 08:11:38.03	82.99	12.34	-31.1	-34.6	11.5	8.16e-04	0	43	0	135266304	23	5381
2026-01-15 08:11:39.04	82.84	12.41	-31.1	-34.7	11.4	7.45e-04	0	43	0	137363456	23	5443
2026-01-15 08:11:40.04	82.70	12.47	-31.1	-34.6	11.5	8.69e-04	0	43	0	139460608	23	5399
2026-01-15 08:11:41.04	82.55	12.53	-31.1	-34.7	11.4	9.47e-04	0	43	0	141557760	23	5449
2026-01-15 08:11:42.04	82.40	12.60	-31.1	-34.6	11.5	9.67e-04	0	43	0	142606336	23	5390
2026-01-15 08:11:43.04	82.25	12.66	-31.2	-34.9	11.3	9.03e-04	0	43	0	144703488	23	5502
2026-01-15 08:11:44.04	82.10	12.72	-31.3	-35.1	11.1	1.43e-03	0	43	0	146800640	23	5628
2026-01-15 08:11:45.04	81.95	12.78	-31.2	-34.9	11.3	1.26e-03	0	43	0	148897792	23	5506
2026-01-15 08:11:46.05	81.80	12.85	-31.3	-35.4	11.0	1.36e-03	0	43	0	150994944	23	5750
2026-01-15 08:11:47.05	81.65	12.91	-31.6	-36.2	10.4	3.35e-03	0	43	0	152043520	23	6112
2026-01-15 08:11:48.05	81.49	12.97	-31.6	-36.1	10.4	4.65e-03	0	43	0	154140672	23	6102
2026-01-15 08:11:49.06	81.34	13.04	-31.5	-35.9	10.6	3.44e-03	0	43	0	156237824	23	5993
2026-01-15 08:11:50.06	81.19	13.10	-31.6	-36.2	10.4	3.91e-03	0	43	0	158334976	23	6094
2026-01-15 08:11:51.07	81.03	13.16	-31.5	-36.0	10.5	4.13e-03	0	43	0	160432128	23	6020
2026-01-15 08:11:52.06	80.88	13.22	-31.5	-36.0	10.5	3.53e-03	0	43	0	161480704	23	6035
2026-01-15 08:11:53.07	80.72	13.29	-31.6	-36.4	10.3	4.13e-03	0	43	0	163577856	23	6203
2026-01-15 08:11:54.07	80.56	13.35	-31.5	-36.0	10.6	3.66e-03	0	43	0	165675008	23	6004
2026-01-15 08:11:55.07	80.41	13.41	-31.4	-35.4	11.0	2.42e-03	0	43	0	167772160	23	5758
2026-01-15 08:11:56.07	80.25	13.48	-31.3	-35.2	11.1	1.64e-03	0	43	0	169869312	23	5660
2026-01-15 08:11:57.08	80.09	13.54	-31.3	-35.2	11.2	1.66e-03	0	43	0	170917888	23	5660
2026-01-15 08:11:58.08	79.93	13.60	-31.3	-35.2	11.2	1.52e-03	0	43	0	173015040	23	5617
2026-01-15 08:11:59.08	79.77	13.66	-31.3	-35.2	11.2	1.47e-03	0	43	0	175112192	23	5611
2026-01-15 08:12:00.08	79.61	13.73	-31.4	-35.4	11.0	1.44e-03	0	43	0	177209344	23	5730
2026-01-15 08:12:01.08	79.45	13.79	-31.3	-35.3	11.2	1.49e-03	0	43	0	179306496	23	5665
2026-01-15 08:12:02.08	79.29	13.85	-31.4	-35.5	11.0	1.83e-03	0	43	0	180355072	23	5775
2026-01-15 08:12:03.09	79.12	13.91	-31.3	-35.1	11.3	1.58e-03	0	43	0	182452224	23	5599
2026-01-15 08:12:04.09	78.96	13.97	-31.3	-35.1	11.2	1.20e-03	0	43	0	184549376	23	5597
2026-01-15 08:12:05.10	78.79	14.04	-31.4	-35.4	11.1	1.46e-03	0	43	0	186646528	23	5696
2026-01-15 08:12:06.10	78.63	14.10	-31.4	-35.3	11.1	1.50e-03	0	43	0	187695104	23	5684
2026-01-15 08:12:07.10	78.46	14.16	-31.3	-35.2	11.2	1.44e-03	0	43	0	189792256	23	5625
2026-01-15 08:12:08.11	78.30	14.22	-31.3	-35.2	11.3	1.07e-03	0	43	0	191889408	23	5594
2026-01-15 08:12:09.11	78.13	14.28	-31.4	-35.3	11.2	1.27e-03	0	43	0	193986560	23	5644
2026-01-15 08:12:10.11	77.96	14.35	-31.2	-34.9	11.5	1.06e-03	0	43	0	196083712	23	5465
2026-01-15 08:12:11.10	77.79	14.41	-31.1	-34.6	11.7	6.63e-04	0	43	0	197132288	23	5340
2026-01-15 08:12:12.11	77.62	14.47	-31.1	-34.4	11.9	5.41e-04	0	43	0	199229440	23	5259
2026-01-15 08:12:13.12	77.45	14.53	-31.1	-34.3	11.9	4.23e-04	0	43	0	201326592	23	5245
2026-01-15 08:12:14.12	77.28	14.59	-31.2	-34.7	11.6	4.36e-04	0	43	0	203423744	23	5399
2026-01-15 08:12:15.12	77.11	14.65	-31.0	-34.1	12.1	3.52e-04	0	43	0	205520896	23	5130
2026-01-15 08:12:16.12	76.94	14.71	-30.9	-33.8	12.3	2.37e-04	0	43	0	206569472	23	5039
2026-01-15 08:12:17.13	76.77	14.77	-31.0	-34.1	12.0	2.17e-04	0	43	0	208666624	23	5169
2026-01-15 08:12:18.13	76.59	14.83	-31.0	-34.1	12.0	3.91e-04	0	43	0	210763776	23	5165
2026-01-15 08:12:19.13	76.42	14.89	-30.9	-34.0	12.2	3.07e-04	0	43	0	212860928	23	5098
2026-01-15 08:12:20.13	76.24	14.95	-31.0	-34.1	12.0	2.55e-04	0	43	0	214958080	23	5169
2026-01-15 08:12:21.13	76.07	15.02	-31.1	-34.5	11.8	3.49e-04	0	43	0	216006656	23	5332
2026-01-15 08:12:22.14	75.89	15.08	-31.0	-34.1	12.0	3.03e-04	0	43	0	218103808	23	5163
2026-01-15 08:12:23.14	75.72	15.14	-30.9	-33.9	12.2	2.82e-04	0	43	0	220200960	23	5066
2026-01-15 08:12:24.14	75.54	15.20	-30.8	-33.6	12.4	1.40e-04	0	43	0	222298112	23	4958
2026-01-15 08:12:25.14	75.36	15.26	-30.7	-33.8	12.6	1.05e-04	0	43	0	224395264	22	5142
2026-01-15 08:12:26.14	75.18	15.32	-30.7	-33.7	12.7	7.62e-05	0	43	0	225443840	22	5089
2026-01-15 08:12:27.13	75.00	15.37	-30.7	-33.6	12.8	8.31e-05	0	43	0	227540992	22	5060
2026-01-15 08:12:28.14	74.82	15.43	-30.9	-34.2	12.4	1.01e-04	0	43	0	229638144	22	5304
2026-01-15 08:12:29.14	74.64	15.49	-30.7	-33.8	12.7	1.05e-04	0	43	0	231735296	22	5115
2026-01-15 08:12:30.14	74.46	15.55	-30.5	-33.1	13.1	5.56e-05	0	43	0	232783872	22	4862
2026-01-15 08:12:31.14	74.28	15.61	-30.4	-32.8	13.4	2.44e-05	0	43	0	234881024	22	4741
2026-01-15 08:12:32.14	74.09	15.67	-30.4	-32.7	13.4	2.21e-05	0	43	0	236978176	22	4744
2026-01-15 08:12:33.15	73.91	15.73	-30.5	-33.1	13.1	2.74e-05	0	43	0	239075328	22	4879
2026-01-15 08:12:34.16	73.72	15.79	-30.5	-33.0	13.2	3.28e-05	0	43	0	241172480	22	4845
2026-01-15 08:12:35.16	73.54	15.85	-30.5	-33.1	13.2	3.20e-05	0	43	0	242221056	22	4861
2026-01-15 08:12:36.16	73.35	15.90	-30.5	-33.2	13.1	2.67e-05	0	43	0	244318208	22	4908
2026-01-15 08:12:37.16	73.16	15.96	-30.5	-33.1	13.1	3.73e-05	0	43	0	246415360	22	4874
2026-01-15 08:12:38.15	72.98	16.02	-30.3	-32.7	13.5	1.90e-05	0	43	0	248512512	22	4711
2026-01-15 08:12:39.15	72.79	16.08	-30.2	-32.8	13.6	1.06e-05	0	43	0	250609664	21	4874
2026-01-15 08:12:40.15	72.60	16.13	-30.3	-32.9	13.6	6.10e-06	0	43	0	251658240	21	4906
2026-01-15 08:12:41.15	72.41	16.19	-30.3	-33.1	13.5	1.06e-05	0	43	0	253755392	21	4965
2026-01-15 08:12:42.15	72.22	16.25	-30.1	-32.6	13.8	8.30e-06	0	43	0	255852544	21	4788
2026-01-15 08:12:43.16	72.03	16.31	-30.0	-32.3	14.0	3.00e-06	0	43	0	257949696	21	4694
2026-01-15 08:12:44.17	71.83	16.36	-30.0	-32.2	14.1	2.20e-06	0	43	0	260046848	21	4659
2026-01-15 08:12:45.17	71.64	16.42	-30.0	-32.3	14.0	1.50e-06	0	43	0	261095424	21	4680
2026-01-15 08:12:46.18	71.44	16.48	-30.0	-32.2	14.1	1.50e-06	0	43	0	263192576	21	4659
2026-01-15 08:12:47.19	71.25	16.53	-30.1	-32.6	13.9	6.10e-06	0	43	0	265289728	21	4774
2026-01-15 08:12:48.19	71.05	16.59	-30.0	-32.2	14.1	3.00e-06	0	43	0	267386880	21	4671
2026-01-15 08:12:49.19	70.86	16.64	-30.0	-32.1	14.1	7.00e-07	0	43	0	269484032	21	4629
2026-01-15 08:12:50.18	70.66	16.70	-30.0	-32.3	14.1	3.80e-06	0	43	0	270532608	21	4678
2026-01-15 08:12:51.19	70.46	16.76	-29.9	-32.0	14.2	2.20e-06	0	43	0	272629760	21	4588
2026-01-15 08:12:52.20	70.26	16.81	-30.0	-32.3	14.1	7.00e-07	0	43	0	274726912	21	4667
2026-01-15 08:12:53.20	70.07	16.87	-30.1	-32.5	13.9	1.50e-06	0	43	0	276824064	21	4766
2026-01-15 08:12:54.20	69.87	16.92	-30.1	-32.6	13.9	1.50e-06	0	43	0	277872640	21	4784
2026-01-15 08:12:55.20	69.67	16.97	-30.2	-32.8	13.7	6.10e-06	0	43	0	279969792	21	4862
2026-01-15 08:12:56.21	69.46	17.03	-30.3	-33.0	13.6	9.90e-06	0	43	0	282066944	21	4932
2026-01-15 08:12:57.21	69.26	17.08	-30.3	-33.1	13.6	6.10e-06	0	43	0	284164096	21	4963
2026-01-15 08:12:58.21	69.06	17.14	-30.4	-33.2	13.5	1.60e-05	0	43	0	286261248	21	4994
2026-01-15 08:12:59.21	68.86	17.19	-30.5	-33.6	13.3	8.30e-06	0	43	0	287309824	21	5137
2026-01-15 08:13:00.21	68.65	17.24	-30.5	-33.6	13.3	2.28e-05	0	43	0	289406976	21	5128
2026-01-15 08:13:01.21	68.45	17.30	-30.5	-33.7	13.1	9.90e-06	0	43	0	291504128	21	5202
2026-01-15 08:13:02.21	68.24	17.35	-30.7	-34.1	12.9	3.73e-05	0	43	0	293601280	21	5347
2026-01-15 08:13:03.22	68.04	17.40	-30.6	-33.9	13.0	4.73e-05	0	43	0	295698432	21	5278
2026-01-15 08:13:04.22	67.83	17.45	-30.8	-34.4	12.7	4.11e-05	0	43	0	296747008	21	5482
2026-01-15 08:13:05.23	67.62	17.50	-30.8	-34.4	12.8	1.29e-04	0	43	0	298844160	21	5441
2026-01-15 08:13:06.23	67.41	17.56	-30.7	-33.8	12.7	5.95e-05	0	43	0	300941312	22	5127
2026-01-15 08:13:07.23	67.20	17.61	-30.5	-33.1	13.3	4.42e-05	0	43	0	303038464	22	4866
2026-01-15 08:13:08.23	67.00	17.66	-30.3	-32.6	13.6	1.29e-05	0	43	0	305135616	22	4693
2026-01-15 08:13:09.23	66.79	17.71	-30.2	-32.8	13.8	9.10e-06	0	43	0	306184192	21	4841
2026-01-15 08:13:10.24	66.57	17.76	-30.2	-32.8	13.8	6.10e-06	0	43	0	308281344	21	4838
2026-01-15 08:13:11.24	66.36	17.81	-30.3	-33.0	13.6	6.80e-06	0	43	0	310378496	21	4924
2026-01-15 08:13:12.24	66.15	17.86	-30.3	-33.0	13.6	3.00e-06	0	43	0	312475648	21	4931
2026-01-15 08:13:13.24	65.94	17.91	-30.3	-33.1	13.6	1.22e-05	0	43	0	314572800	21	4960
2026-01-15 08:13:14.24	65.72	17.96	-30.0	-32.3	14.1	4.50e-06	0	43	0	315621376	21	4680
2026-01-15 08:13:15.23	65.51	18.01	-30.0	-32.3	14.1	7.00e-07	0	43	0	317718528	21	4674
2026-01-15 08:13:16.24	65.29	18.05	-30.0	-32.1	14.2	2.20e-06	0	43	0	319815680	21	4598
2026-01-15 08:13:17.25	65.08	18.10	-30.0	-32.1	14.2	7.00e-07	0	43	0	321912832	21	4624
2026-01-15 08:13:18.25	64.86	18.15	-29.8	-31.8	14.5	7.00e-07	0	43	0	322961408	21	4492
2026-01-15 08:13:19.26	64.64	18.20	-29.9	-32.0	14.3	0.00e+00	0	43	0	325058560	21	4558
2026-01-15 08:13:20.26	64.42	18.25	-30.1	-32.3	14.1	2.20e-06	0	43	0	327155712	21	4673
2026-01-15 08:13:21.27	64.20	18.29	-29.7	-31.8	14.7	0.00e+00	0	43	0	329252864	20	4624
2026-01-15 08:13:22.27	63.98	18.34	-29.7	-31.8	14.7	7.00e-07	0	43	0	331350016	20	4611
2026-01-15 08:13:23.28	63.76	18.39	-29.5	-31.4	15.0	0.00e+00	0	43	0	333447168	20	4491
2026-01-15 08:13:24.28	63.54	18.43	-29.6	-31.5	14.9	0.00e+00	0	43	0	334495744	20	4531
2026-01-15 08:13:25.29	63.32	18.48	-29.5	-31.4	14.9	0.00e+00	0	43	0	336592896	20	4479
2026-01-15 08:13:26.30	63.09	18.52	-29.5	-31.3	15.0	0.00e+00	0	43	0	338690048	20	4461
2026-01-15 08:13:27.30	62.87	18.57	-29.5	-31.4	15.0	0.00e+00	0	43	0	340787200	20	4487
2026-01-15 08:13:28.30	62.65	18.61	-29.6	-31.6	14.9	0.00e+00	0	43	0	341835776	20	4534
2026-01-15 08:13:29.30	62.43	18.65	-29.5	-31.4	15.0	0.00e+00	0	43	0	343932928	20	4475
2026-01-15 08:13:30.30	62.20	18.70	-29.5	-31.5	14.9	0.00e+00	0	43	0	346030080	20	4523
2026-01-15 08:13:31.30	61.98	18.74	-29.5	-31.5	14.9	0.00e+00	0	43	0	348127232	20	4518
2026-01-15 08:13:32.30	61.75	18.78	-29.5	-31.4	15.0	0.00e+00	0	43	0	350224384	20	4496
2026-01-15 08:13:33.31	61.52	18.83	-29.6	-31.7	14.8	7.00e-07	0	43	0	351272960	20	4576
2026-01-15 08:13:34.31	61.29	18.87	-29.6	-31.7	14.8	0.00e+00	0	43	0	353370112	20	4567
2026-01-15 08:13:35.31	61.07	18.91	-29.4	-31.2	15.1	0.00e+00	0	43	0	355467264	20	4428
2026-01-15 08:13:36.32	60.84	18.95	-29.4	-31.1	15.2	0.00e+00	0	43	0	357564416	20	4387
2026-01-15 08:13:37.32	60.61	18.99	-29.3	-30.9	15.3	0.00e+00	0	43	0	359661568	20	4318
2026-01-15 08:13:38.32	60.38	19.03	-29.5	-31.9	15.1	0.00e+00	0	43	0	360710144	19	4750
2026-01-15 08:13:39.32	60.15	19.07	-29.5	-31.7	15.2	0.00e+00	0	43	0	362807296	19	4685
2026-01-15 08:13:40.33	59.92	19.11	-29.5	-31.8	15.1	0.00e+00	0	43	0	364904448	19	4725
2026-01-15 08:13:41.34	59.68	19.15	-29.5	-32.0	15.0	0.00e+00	0	43	0	367001600	19	4773
2026-01-15 08:13:42.34	59.45	19.19	-29.6	-32.0	15.0	0.00e+00	0	43	0	369098752	19	4782
2026-01-15 08:13:43.34	59.22	19.23	-29.6	-32.2	14.9	0.00e+00	0	43	0	370147328	19	4859
2026-01-15 08:13:44.35	58.98	19.27	-29.7	-32.3	14.8	0.00e+00	0	43	0	372244480	19	4889
2026-01-15 08:13:45.35	58.75	19.30	-29.7	-32.3	14.8	0.00e+00	0	43	0	374341632	19	4885
2026-01-15 08:13:46.36	58.51	19.34	-29.6	-32.1	14.9	0.00e+00	0	43	0	376438784	19	4818
2026-01-15 08:13:47.36	58.28	19.38	-29.7	-32.4	14.8	0.00e+00	0	43	0	378535936	19	4894
2026-01-15 08:13:48.37	58.04	19.41	-29.7	-32.3	14.9	0.00e+00	0	43	0	379584512	19	4858
2026-01-15 08:13:49.36	57.81	19.45	-29.6	-32.2	14.9	0.00e+00	0	43	0	381681664	19	4842
2026-01-15 08:13:50.37	57.57	19.48	-29.7	-32.3	14.9	0.00e+00	0	43	0	383778816	19	4873
2026-01-15 08:13:51.38	57.33	19.52	-29.8	-32.5	14.7	0.00e+00	0	43	0	385875968	19	4948
2026-01-15 08:13:52.39	57.09	19.55	-29.8	-32.6	14.7	0.00e+00	0	43	0	387973120	19	4973
2026-01-15 08:13:53.38	56.86	19.59	-29.8	-32.5	14.7	7.00e-07	0	43	0	389021696	19	4941
2026-01-15 08:13:54.39	56.61	19.62	-29.8	-32.6	14.7	0.00e+00	0	43	0	391118848	19	4984
2026-01-15 08:13:55.39	56.38	19.65	-29.7	-32.5	14.8	0.00e+00	0	43	0	393216000	19	4922
2026-01-15 08:13:56.39	56.14	19.69	-29.9	-32.8	14.6	7.00e-07	0	43	0	395313152	19	5030
2026-01-15 08:13:57.39	55.90	19.72	-30.0	-33.1	14.4	7.00e-07	0	43	0	397410304	19	5150
2026-01-15 08:13:58.39	55.66	19.75	-30.0	-33.0	14.4	0.00e+00	0	43	0	398458880	19	5122
2026-01-15 08:13:59.40	55.41	19.78	-30.1	-32.9	14.1	0.00e+00	0	43	0	400556032	20	4975
2026-01-15 08:14:00.39	55.17	19.81	-30.3	-33.4	13.8	5.30e-06	0	43	0	402653184	20	5157
2026-01-15 08:14:01.40	54.93	19.84	-30.5	-34.0	13.5	2.20e-06	0	43	0	404750336	20	5381
2026-01-15 08:14:02.40	54.69	19.87	-30.5	-33.5	13.5	2.13e-05	0	43	0	405798912	21	5071
2026-01-15 08:14:03.39	54.45	19.90	-30.3	-32.9	13.8	6.80e-06	0	43	0	407896064	21	4871
2026-01-15 08:14:04.40	54.20	19.93	-30.2	-32.6	14.0	3.00e-06	0	43	0	409993216	21	4773
2026-01-15 08:14:05.40	53.96	19.95	-30.1	-32.6	14.0	3.80e-06	0	43	0	412090368	21	4762
2026-01-15 08:14:06.41	53.71	19.98	-30.2	-32.8	13.9	2.20e-06	0	43	0	414187520	21	4830
2026-01-15 08:14:07.41	53.47	20.01	-30.3	-33.0	13.7	3.80e-06	0	43	0	415236096	21	4915
2026-01-15 08:14:08.41	53.22	20.03	-30.4	-33.2	13.7	6.10e-06	0	43	0	417333248	21	4977
2026-01-15 08:14:09.42	52.97	20.06	-30.3	-32.9	13.8	4.50e-06	0	43	0	419430400	21	4882
2026-01-15 08:14:10.42	52.73	20.08	-30.2	-32.8	13.9	1.50e-06	0	43	0	421527552	21	4840
2026-01-15 08:14:11.42	52.48	20.11	-30.4	-33.2	13.6	4.50e-06	0	43	0	423624704	21	4971
2026-01-15 08:14:12.42	52.24	20.13	-30.5	-33.4	13.5	1.37e-05	0	43	0	424673280	21	5048
2026-01-15 08:14:13.42	51.99	20.16	-30.5	-33.3	13.6	9.90e-06	0	43	0	426770432	21	5025
2026-01-15 08:14:14.42	51.74	20.18	-30.4	-33.3	13.6	1.37e-05	0	43	0	428867584	21	5008
2026-01-15 08:14:15.42	51.49	20.20	-30.3	-33.1	13.7	4.50e-06	0	43	0	430964736	21	4936
2026-01-15 08:14:16.43	51.24	20.22	-30.4	-33.1	13.7	2.20e-06	0	43	0	433061888	21	4949
2026-01-15 08:14:17.43	50.99	20.25	-30.5	-33.4	13.5	8.30e-06	0	43	0	434110464	21	5054
2026-01-15 08:14:18.43	50.75	20.27	-30.6	-33.8	13.3	1.52e-05	0	43	0	436207616	21	5198
2026-01-15 08:14:19.43	50.50	20.29	-30.8	-34.2	13.0	3.58e-05	0	43	0	438304768	21	5356
2026-01-15 08:14:20.44	50.24	20.31	-30.8	-34.2	13.0	3.81e-05	0	43	0	440401920	21	5372
2026-01-15 08:14:21.44	50.00	20.33	-30.7	-34.0	13.1	2.59e-05	0	43	0	442499072	21	5287
2026-01-15 08:14:22.44	49.75	20.34	-30.8	-34.3	12.9	3.43e-05	0	43	0	443547648	21	5398
2026-01-15 08:14:23.44	49.49	20.36	-30.8	-34.5	12.8	5.34e-05	0	43	0	445644800	21	5464
2026-01-15 08:14:24.45	49.24	20.38	-30.8	-34.5	12.8	7.62e-05	0	43	0	447741952	21	5487
2026-01-15 08:14:25.46	48.99	20.40	-30.8	-34.4	12.9	6.79e-05	0	43	0	449839104	21	5434
2026-01-15 08:14:26.46	48.74	20.41	-30.7	-34.1	13.1	3.81e-05	0	43	0	450887680	21	5326
2026-01-15 08:14:27.46	48.49	20.43	-30.6	-33.8	13.3	2.05e-05	0	43	0	452984832	21	5197
2026-01-15 08:14:28.47	48.23	20.44	-30.7	-34.1	13.1	2.74e-05	0	43	0	455081984	21	5304
2026-01-15 08:14:29.47	47.98	20.46	-30.8	-34.3	12.9	4.11e-05	0	43	0	457179136	21	5375
2026-01-15 08:14:30.48	47.73	20.47	-30.9	-34.7	12.7	5.41e-05	0	43	0	459276288	21	5549
2026-01-15 08:14:31.48	47.47	20.49	-31.0	-34.3	12.6	1.28e-04	0	43	0	460324864	22	5294
2026-01-15 08:14:32.49	47.22	20.50	-30.9	-34.1	12.8	5.72e-05	0	43	0	462422016	22	5184
2026-01-15 08:14:33.49	46.96	20.51	-31.0	-34.5	12.5	7.40e-05	0	43	0	464519168	22	5364
2026-01-15 08:14:34.50	46.71	20.52	-31.1	-34.7	12.3	1.94e-04	0	43	0	466616320	22	5454
2026-01-15 08:14:35.51	46.45	20.53	-31.2	-34.9	12.2	1.49e-04	0	43	0	468713472	22	5511
2026-01-15 08:14:36.52	46.20	20.54	-31.3	-35.2	12.0	3.94e-04	0	43	0	470810624	22	5641
2026-01-15 08:14:37.52	45.94	20.55	-31.1	-34.5	12.4	1.57e-04	0	43	0	471859200	22	5377
2026-01-15 08:14:38.52	45.69	20.56	-30.9	-34.2	12.7	9.07e-05	0	43	0	473956352	22	5250
2026-01-15 08:14:39.52	45.44	20.57	-30.9	-34.0	12.8	6.56e-05	0	43	0	476053504	22	5175
2026-01-15 08:14:40.53	45.18	20.58	-30.8	-33.9	12.9	6.33e-05	0	43	0	478150656	22	5108
2026-01-15 08:14:41.54	44.92	20.59	-30.8	-33.8	12.9	4.65e-05	0	43	0	479199232	22	5094
2026-01-15 08:14:42.53	44.67	20.60	-30.7	-33.6	13.1	2.74e-05	0	43	0	481296384	22	5014
2026-01-15 08:14:43.53	44.42	20.60	-30.7	-33.6	13.1	2.97e-05	0	43	0	483393536	22	5002
2026-01-15 08:14:44.54	44.16	20.61	-30.6	-33.3	13.3	2.74e-05	0	43	0	485490688	22	4904
2026-01-15 08:14:45.54	43.91	20.61	-30.5	-33.0	13.5	1.37e-05	0	43	0	487587840	22	4807
2026-01-15 08:14:46.54	43.65	20.62	-30.6	-33.1	13.4	1.06e-05	0	43	0	488636416	22	4839
2026-01-15 08:14:47.55	43.40	20.62	-30.6	-33.3	13.3	1.90e-05	0	43	0	490733568	22	4914
2026-01-15 08:14:48.55	43.14	20.62	-30.6	-33.3	13.3	1.60e-05	0	43	0	492830720	22	4915
2026-01-15 08:14:49.55	42.89	20.63	-30.7	-33.4	13.2	2.97e-05	0	43	0	494927872	22	4954
2026-01-15 08:14:50.55	42.63	20.63	-30.5	-33.1	13.4	1.75e-05	0	43	0	497025024	22	4828
2026-01-15 08:14:51.56	42.37	20.63	-30.5	-33.0	13.4	1.37e-05	0	43	0	498073600	22	4815
2026-01-15 08:14:52.56	42.12	20.63	-30.5	-32.9	13.6	1.44e-05	0	43	0	500170752	22	4763
2026-01-15 08:14:53.57	41.86	20.63	-30.4	-32.7	13.7	9.10e-06	0	43	0	502267904	22	4710
2026-01-15 08:14:54.57	41.61	20.63	-30.3	-32.5	13.8	8.30e-06	0	43	0	504365056	22	4632
2026-01-15 08:14:55.57	41.35	20.63	-30.4	-32.7	13.7	6.10e-06	0	43	0	506462208	22	4686
2026-01-15 08:14:56.56	41.10	20.63	-30.5	-32.8	13.6	6.10e-06	0	43	0	507510784	22	4739
2026-01-15 08:14:57.56	40.85	20.63	-30.4	-32.7	13.6	4.50e-06	0	43	0	509607936	22	4703
2026-01-15 08:14:58.56	40.59	20.63	-30.3	-32.5	13.8	4.50e-06	0	43	0	511705088	22	4608
2026-01-15 08:14:59.56	40.34	20.62	-30.3	-33.0	13.8	4.50e-06	0	43	0	513802240	21	4897
2026-01-15 08:15:00.56	40.08	20.62	-30.3	-32.9	13.8	7.60e-06	0	43	0	514850816	21	4864
2026-01-15 08:15:01.56	39.83	20.61	-30.3	-32.8	13.9	3.00e-06	0	43	0	516947968	21	4851
2026-01-15 08:15:02.57	39.57	20.61	-30.4	-33.1	13.7	2.20e-06	0	43	0	519045120	21	4959
2026-01-15 08:15:03.57	39.32	20.60	-30.3	-33.0	13.8	9.90e-06	0	43	0	521142272	21	4919
2026-01-15 08:15:04.58	39.06	20.60	-30.1	-32.3	14.2	3.80e-06	0	43	0	523239424	21	4665
2026-01-15 08:15:05.58	38.80	20.59	-29.8	-31.8	14.6	0.00e+00	0	43	0	524288000	21	4488
2026-01-15 08:15:06.58	38.55	20.58	-29.8	-31.7	14.6	0.00e+00	0	43	0	526385152	21	4468
2026-01-15 08:15:07.59	38.29	20.57	-29.8	-32.1	14.7	0.00e+00	0	43	0	528482304	20	4703
2026-01-15 08:15:08.59	38.04	20.57	-29.8	-32.2	14.6	7.00e-07	0	43	0	530579456	20	4742
2026-01-15 08:15:09.59	37.79	20.56	-29.8	-32.2	14.6	7.00e-07	0	43	0	532676608	20	4753
2026-01-15 08:15:10.59	37.53	20.55	-29.9	-32.5	14.4	1.50e-06	0	43	0	533725184	20	4840
2026-01-15 08:15:11.60	37.28	20.54	-29.8	-32.3	14.6	7.00e-07	0	43	0	535822336	20	4764
2026-01-15 08:15:12.60	37.03	20.53	-29.6	-31.7	14.9	0.00e+00	0	43	0	537919488	20	4573
2026-01-15 08:15:13.60	36.77	20.51	-29.5	-31.3	15.1	0.00e+00	0	43	0	540016640	20	4450
2026-01-15 08:15:14.60	36.52	20.50	-29.4	-31.2	15.3	0.00e+00	0	43	0	542113792	20	4406
2026-01-15 08:15:15.61	36.27	20.49	-29.5	-31.3	15.2	0.00e+00	0	43	0	543162368	20	4431
2026-01-15 08:15:16.61	36.01	20.48	-29.4	-31.1	15.3	0.00e+00	0	43	0	545259520	20	4383
2026-01-15 08:15:17.61	35.76	20.46	-29.4	-31.2	15.2	0.00e+00	0	43	0	547356672	20	4415
2026-01-15 08:15:18.62	35.51	20.45	-29.4	-31.2	15.2	7.00e-07	0	43	0	549453824	20	4417
2026-01-15 08:15:19.62	35.26	20.43	-29.4	-31.2	15.2	0.00e+00	0	43	0	551550976	20	4411
2026-01-15 08:15:20.62	35.00	20.42	-29.4	-31.1	15.3	0.00e+00	0	43	0	552599552	20	4386
2026-01-15 08:15:21.62	34.75	20.40	-29.3	-31.2	15.5	0.00e+00	0	43	0	554696704	19	4525
2026-01-15 08:15:22.62	34.50	20.38	-29.2	-31.2	15.6	0.00e+00	0	43	0	556793856	19	4501
2026-01-15 08:15:23.63	34.25	20.37	-29.2	-31.1	15.6	0.00e+00	0	43	0	558891008	19	4489
2026-01-15 08:15:24.63	34.00	20.35	-29.3	-31.3	15.5	0.00e+00	0	43	0	560988160	19	4555
2026-01-15 08:15:25.63	33.75	20.33	-29.3	-31.4	15.4	0.00e+00	0	43	0	562036736	19	4568
2026-01-15 08:15:26.63	33.50	20.31	-29.1	-30.9	15.7	0.00e+00	0	43	0	564133888	19	4419
2026-01-15 08:15:27.64	33.25	20.29	-29.1	-31.0	15.7	0.00e+00	0	43	0	566231040	19	4447
2026-01-15 08:15:28.64	33.00	20.27	-29.1	-31.0	15.7	0.00e+00	0	43	0	568328192	19	4442
2026-01-15 08:15:29.64	32.75	20.25	-29.2	-31.2	15.6	0.00e+00	0	43	0	569376768	19	4508
2026-01-15 08:15:30.65	32.50	20.23	-29.3	-31.3	15.5	0.00e+00	0	43	0	571473920	19	4533
2026-01-15 08:15:31.65	32.25	20.21	-29.2	-31.2	15.6	0.00e+00	0	43	0	573571072	19	4510
2026-01-15 08:15:32.66	32.00	20.19	-29.2	-31.2	15.5	0.00e+00	0	43	0	575668224	19	4525
2026-01-15 08:15:33.66	31.76	20.16	-29.3	-31.4	15.4	0.00e+00	0	43	0	577765376	19	4587
2026-01-15 08:15:34.66	31.51	20.14	-29.3	-31.3	15.5	0.00e+00	0	43	0	578813952	19	4547
2026-01-15 08:15:35.66	31.26	20.12	-29.2	-31.1	15.6	0.00e+00	0	43	0	580911104	19	4473
2026-01-15 08:15:36.66	31.02	20.09	-29.2	-31.0	15.6	0.00e+00	0	43	0	583008256	19	4466
2026-01-15 08:15:37.66	30.77	20.07	-29.2	-31.1	15.6	0.00e+00	0	43	0	585105408	19	4496
2026-01-15 08:15:38.66	30.53	20.04	-29.3	-31.4	15.5	0.00e+00	0	43	0	587202560	19	4561
2026-01-15 08:15:39.66	30.28	20.01	-29.4	-31.5	15.3	0.00e+00	0	43	0	588251136	19	4616
2026-01-15 08:15:40.66	30.04	19.99	-29.4	-31.7	15.2	0.00e+00	0	43	0	590348288	19	4675
2026-01-15 08:15:41.66	29.79	19.96	-29.5	-32.0	15.1	0.00e+00	0	43	0	592445440	19	4766
2026-01-15 08:15:42.67	29.55	19.93	-29.7	-32.4	14.9	7.00e-07	0	43	0	594542592	19	4895
2026-01-15 08:15:43.67	29.31	19.90	-29.7	-32.3	14.8	0.00e+00	0	43	0	596639744	19	4883
2026-01-15 08:15:44.67	29.06	19.88	-29.8	-32.6	14.7	7.00e-07	0	43	0	597688320	19	4993
2026-01-15 08:15:45.67	28.82	19.85	-29.8	-32.6	14.7	0.00e+00	0	43	0	599785472	19	4963
2026-01-15 08:15:46.67	28.58	19.82	-29.8	-32.7	14.7	0.00e+00	0	43	0	601882624	19	4999
2026-01-15 08:15:47.67	28.34	19.79	-29.9	-32.8	14.6	7.00e-07	0	43	0	603979776	19	5029
2026-01-15 08:15:48.67	28.10	19.76	-29.9	-32.9	14.5	1.50e-06	0	43	0	606076928	19	5097
2026-01-15 08:15:49.68	27.86	19.73	-29.9	-32.4	14.4	7.00e-07	0	43	0	607125504	20	4797
2026-01-15 08:15:50.69	27.61	19.69	-29.9	-32.3	14.5	0.00e+00	0	43	0	609222656	20	4766
2026-01-15 08:15:51.69	27.37	19.66	-29.9	-32.5	14.4	0.00e+00	0	43	0	611319808	20	4832
2026-01-15 08:15:52.69	27.14	19.63	-30.0	-32.6	14.3	1.50e-06	0	43	0	613416960	20	4859
2026-01-15 08:15:53.69	26.90	19.60	-30.0	-32.8	14.2	1.50e-06	0	43	0	614465536	20	4927
2026-01-15 08:15:54.69	26.66	19.56	-30.1	-33.0	14.1	1.50e-06	0	43	0	616562688	20	5009
2026-01-15 08:15:55.70	26.42	19.53	-30.3	-33.5	13.7	3.00e-06	0	43	0	618659840	20	5190
2026-01-15 08:15:56.70	26.18	19.49	-30.3	-33.5	13.7	1.37e-05	0	43	0	620756992	20	5217
2026-01-15 08:15:57.70	25.95	19.46	-30.3	-33.4	13.8	3.00e-06	0	43	0	622854144	20	5146
2026-01-15 08:15:58.70	25.71	19.42	-30.2	-33.3	13.9	4.50e-06	0	43	0	623902720	20	5112
2026-01-15 08:15:59.71	25.48	19.39	-30.3	-33.6	13.7	6.10e-06	0	43	0	625999872	20	5230
2026-01-15 08:16:00.71	25.24	19.35	-30.3	-33.4	13.8	8.30e-06	0	43	0	628097024	20	5173
2026-01-15 08:16:01.71	25.01	19.31	-30.2	-33.2	13.9	2.20e-06	0	43	0	630194176	20	5083
2026-01-15 08:16:02.71	24.78	19.28	-30.2	-33.2	13.9	8.30e-06	0	43	0	632291328	20	5083
2026-01-15 08:16:03.71	24.54	19.24	-30.3	-33.4	13.8	6.80e-06	0	43	0	633339904	20	5181
2026-01-15 08:16:04.71	24.31	19.20	-30.3	-33.5	13.7	7.60e-06	0	43	0	635437056	20	5179
2026-01-15 08:16:05.72	24.08	19.16	-30.3	-33.5	13.7	9.90e-06	0	43	0	637534208	20	5197
2026-01-15 08:16:06.73	23.84	19.12	-30.3	-33.5	13.7	3.80e-06	0	43	0	639631360	20	5218
2026-01-15 08:16:07.74	23.61	19.08	-30.5	-33.9	13.4	9.90e-06	0	43	0	641728512	20	5364
2026-01-15 08:16:08.74	23.38	19.04	-30.5	-33.9	13.4	1.52e-05	0	43	0	642777088	20	5374
2026-01-15 08:16:09.73	23.16	19.01	-30.4	-33.9	13.5	1.22e-05	0	43	0	644874240	20	5350
2026-01-15 08:16:10.74	22.93	18.96	-30.5	-33.9	13.4	1.06e-05	0	43	0	646971392	20	5364
2026-01-15 08:16:11.74	22.70	18.92	-30.4	-33.4	13.4	1.06e-05	0	43	0	649068544	21	5051
2026-01-15 08:16:12.74	22.47	18.88	-30.5	-33.5	13.4	1.14e-05	0	43	0	651165696	21	5089
2026-01-15 08:16:13.74	22.25	18.84	-30.6	-33.7	13.3	1.75e-05	0	43	0	652214272	21	5177
2026-01-15 08:16:14.74	22.02	18.80	-30.6	-33.9	13.1	3.12e-05	0	43	0	654311424	21	5239
2026-01-15 08:16:15.75	21.79	18.76	-30.7	-34.2	12.9	4.50e-05	0	43	0	656408576	21	5354
2026-01-15 08:16:16.75	21.57	18.71	-30.7	-34.1	13.0	4.42e-05	0	43	0	658505728	21	5313
2026-01-15 08:16:17.76	21.34	18.67	-30.6	-33.8	13.2	2.28e-05	0	43	0	659554304	21	5220
2026-01-15 08:16:18.76	21.12	18.63	-30.9	-34.6	12.6	2.82e-05	0	43	0	661651456	21	5520
2026-01-15 08:16:19.77	20.89	18.58	-30.7	-34.2	12.9	7.55e-05	0	43	0	663748608	21	5359
2026-01-15 08:16:20.78	20.67	18.54	-30.5	-33.5	13.3	2.21e-05	0	43	0	665845760	21	5100
2026-01-15 08:16:21.78	20.45	18.49	-30.5	-33.4	13.4	1.52e-05	0	43	0	667942912	21	5072
2026-01-15 08:16:22.78	20.23	18.45	-30.6	-33.7	13.2	2.21e-05	0	43	0	670040064	21	5179
2026-01-15 08:16:23.78	20.01	18.40	-30.7	-34.2	12.9	4.50e-05	0	43	0	671088640	21	5369
2026-01-15 08:16:24.79	19.79	18.35	-30.6	-33.9	13.1	2.21e-05	0	43	0	673185792	21	5233
2026-01-15 08:16:25.79	19.57	18.31	-30.7	-34.0	13.1	2.05e-05	0	43	0	675282944	21	5280
2026-01-15 08:16:26.79	19.35	18.26	-30.6	-33.7	13.2	2.74e-05	0	43	0	677380096	21	5181
2026-01-15 08:16:27.79	19.13	18.21	-30.5	-33.6	13.3	2.51e-05	0	43	0	678428672	21	5130
2026-01-15 08:16:28.80	18.91	18.17	-30.5	-33.6	13.3	2.21e-05	0	43	0	680525824	21	5140
2026-01-15 08:16:29.81	18.70	18.12	-30.6	-33.9	13.1	2.59e-05	0	43	0	682622976	21	5228
2026-01-15 08:16:30.80	18.48	18.07	-30.5	-33.6	13.2	1.98e-05	0	43	0	684720128	21	5135
2026-01-15 08:16:31.80	18.27	18.02	-30.5	-33.6	13.3	2.36e-05	0	43	0	686817280	21	5135
2026-01-15 08:16:32.80	18.06	17.97	-30.6	-33.9	13.0	2.51e-05	0	43	0	687865856	21	5236
2026-01-15 08:16:33.81	17.84	17.93	-30.7	-34.1	12.9	5.18e-05	0	43	0	689963008	21	5340
2026-01-15 08:16:34.82	17.63	17.88	-30.8	-34.4	12.7	4.88e-05	0	43	0	692060160	21	5468
2026-01-15 08:16:35.82	17.41	17.83	-30.9	-34.7	12.5	7.47e-05	0	43	0	694157312	21	5559
2026-01-15 08:16:36.82	17.20	17.78	-30.7	-34.2	12.8	6.56e-05	0	43	0	696254464	21	5392
2026-01-15 08:16:37.82	16.99	17.73	-30.5	-33.7	13.1	3.89e-05	0	43	0	697303040	21	5172
2026-01-15 08:16:38.83	16.78	17.68	-30.4	-33.4	13.3	2.59e-05	0	43	0	699400192	21	5060
2026-01-15 08:16:39.83	16.57	17.63	-30.5	-33.6	13.3	2.13e-05	0	43	0	701497344	21	5132
2026-01-15 08:16:40.83	16.37	17.57	-30.4	-33.3	13.4	2.13e-05	0	43	0	703594496	21	5033
2026-01-15 08:16:41.84	16.16	17.52	-30.4	-33.2	13.5	1.22e-05	0	43	0	705691648	21	4983
2026-01-15 08:16:42.84	15.95	17.47	-30.4	-33.3	13.5	7.60e-06	0	43	0	706740224	21	5012
2026-01-15 08:16:43.84	15.74	17.42	-30.4	-33.3	13.4	1.37e-05	0	43	0	708837376	21	5035
2026-01-15 08:16:44.84	15.54	17.37	-30.4	-33.3	13.4	1.22e-05	0	43	0	710934528	21	5019
2026-01-15 08:16:45.85	15.33	17.31	-30.4	-33.4	13.3	2.59e-05	0	43	0	713031680	21	5075
2026-01-15 08:16:46.85	15.13	17.26	-30.4	-33.4	13.3	1.52e-05	0	43	0	715128832	21	5063
2026-01-15 08:16:47.86	14.92	17.21	-30.5	-33.7	13.2	1.52e-05	0	43	0	716177408	21	5162
2026-01-15 08:16:48.86	14.72	17.16	-30.5	-33.7	13.1	3.35e-05	0	43	0	718274560	21	5170
2026-01-15 08:16:49.87	14.52	17.10	-30.7	-34.0	12.9	4.65e-05	0	43	0	720371712	21	5318
2026-01-15 08:16:50.87	14.32	17.05	-30.6	-33.8	13.0	4.04e-05	0	43	0	722468864	21	5205
2026-01-15 08:16:51.86	14.12	17.00	-30.5	-33.6	13.2	2.13e-05	0	43	0	724566016	21	5126
2026-01-15 08:16:52.86	13.92	16.94	-30.5	-33.6	13.2	2.28e-05	0	43	0	725614592	21	5131
2026-01-15 08:16:53.86	13.72	16.89	-30.5	-33.5	13.3	1.52e-05	0	43	0	727711744	21	5092
2026-01-15 08:16:54.86	13.52	16.83	-30.5	-33.5	13.3	2.36e-05	0	43	0	729808896	21	5086
2026-01-15 08:16:55.86	13.33	16.78	-30.5	-33.5	13.3	1.75e-05	0	43	0	731906048	21	5094
2026-01-15 08:16:56.86	13.13	16.72	-30.4	-33.3	13.4	1.37e-05	0	43	0	732954624	21	5025
2026-01-15 08:16:57.86	12.93	16.67	-30.4	-33.4	13.3	2.44e-05	0	43	0	735051776	21	5076
2026-01-15 08:16:58.85	12.74	16.61	-30.4	-33.2	13.4	1.90e-05	0	43	0	737148928	21	4984
2026-01-15 08:16:59.85	12.55	16.56	-30.4	-33.2	13.4	1.14e-05	0	43	0	739246080	21	5005
2026-01-15 08:17:00.85	12.35	16.50	-30.3	-33.1	13.5	6.10e-06	0	43	0	741343232	21	4960
2026-01-15 08:17:01.85	12.16	16.45	-30.4	-33.3	13.3	1.75e-05	0	43	0	742391808	21	5029
2026-01-15 08:17:02.85	11.97	16.39	-30.4	-33.2	13.4	1.22e-05	0	43	0	744488960	21	5004
2026-01-15 08:17:03.85	11.78	16.33	-30.5	-33.5	13.2	1.22e-05	0	43	0	746586112	21	5123
2026-01-15 08:17:04.85	11.59	16.28	-30.4	-33.3	13.3	1.83e-05	0	43	0	748683264	21	5033
2026-01-15 08:17:05.85	11.40	16.22	-30.4	-33.4	13.3	9.90e-06	0	43	0	749731840	21	5068
2026-01-15 08:17:06.86	11.20	16.16	-30.5	-33.6	13.1	2.13e-05	0	43	0	751828992	21	5144
2026-01-15 08:17:07.86	11.02	16.10	-30.6	-33.8	13.0	2.21e-05	0	43	0	753926144	21	5208
2026-01-15 08:17:08.87	10.83	16.05	-30.6	-34.0	12.9	4.27e-05	0	43	0	756023296	21	5282
2026-01-15 08:17:09.87	10.64	15.99	-30.7	-34.2	12.8	6.17e-05	0	43	0	758120448	21	5371
2026-01-15 08:17:10.87	10.45	15.93	-30.8	-34.4	12.7	8.46e-05	0	43	0	760217600	21	5446
2026-01-15 08:17:11.88	10.27	15.87	-30.7	-34.3	12.7	9.00e-05	0	43	0	761266176	21	5411
2026-01-15 08:17:12.88	10.08	15.82	-30.8	-34.3	12.7	9.61e-05	0	43	0	763363328	21	5428
2026-01-15 08:17:13.89	9.90	15.76	-30.8	-34.5	12.5	9.15e-05	0	43	0	765460480	21	5523
2026-01-15 08:17:14.89	9.71	15.70	-30.8	-34.6	12.4	1.27e-04	0	43	0	767557632	21	5541
2026-01-15 08:17:15.89	9.53	15.64	-30.9	-34.7	12.4	1.35e-04	0	43	0	768606208	21	5576
2026-01-15 08:17:16.90	9.35	15.58	-30.7	-34.3	12.7	1.21e-04	0	43	0	770703360	21	5408
2026-01-15 08:17:17.91	9.16	15.52	-30.7	-34.1	12.7	6.56e-05	0	43	0	772800512	21	5360
2026-01-15 08:17:18.91	8.98	15.46	-30.7	-34.3	12.6	6.56e-05	0	43	0	774897664	21	5428
2026-01-15 08:17:19.92	8.80	15.40	-30.9	-34.8	12.3	1.13e-04	0	43	0	776994816	21	5633
2026-01-15 08:17:20.92	8.62	15.34	-30.8	-34.6	12.4	1.65e-04	0	43	0	778043392	21	5566
2026-01-15 08:17:21.92	8.44	15.28	-31.0	-34.6	12.1	2.14e-04	0	43	0	780140544	22	5458
2026-01-15 08:17:22.93	8.27	15.22	-30.9	-34.4	12.2	2.49e-04	0	43	0	782237696	22	5353
2026-01-15 08:17:23.93	8.09	15.16	-30.9	-34.3	12.3	1.71e-04	0	43	0	784334848	22	5304
2026-01-15 08:17:24.93	7.91	15.10	-30.9	-34.3	12.3	2.00e-04	0	43	0	786432000	22	5337
2026-01-15 08:17:25.94	7.74	15.04	-30.9	-34.3	12.3	1.91e-04	0	44	0	787480576	22	5331
2026-01-15 08:17:26.94	7.56	14.98	-30.8	-33.9	12.6	1.44e-04	0	43	0	789577728	22	5169
2026-01-15 08:17:27.94	7.39	14.92	-30.6	-33.5	12.8	6.79e-05	0	43	0	791674880	22	5015
2026-01-15 08:17:28.94	7.21	14.86	-30.6	-33.4	12.9	4.88e-05	0	43	0	793772032	22	4976
2026-01-15 08:17:29.95	7.04	14.80	-30.7	-33.6	12.8	3.66e-05	0	43	0	795869184	22	5045
2026-01-15 08:17:30.96	6.87	14.74	-30.5	-33.2	13.1	4.27e-05	0	43	0	796917760	22	4881
2026-01-15 08:17:31.95	6.70	14.68	-30.5	-33.0	13.2	2.44e-05	0	43	0	799014912	22	4818
2026-01-15 08:17:32.96	6.53	14.62	-30.5	-33.0	13.1	2.36e-05	0	43	0	801112064	22	4837
2026-01-15 08:17:33.96	6.36	14.56	-30.5	-33.3	13.0	3.05e-05	0	43	0	803209216	22	4925
2026-01-15 08:17:34.96	6.19	14.50	-30.6	-33.5	12.8	4.57e-05	0	43	0	805306368	22	4997
2026-01-15 08:17:35.96	6.02	14.44	-30.5	-33.2	13.0	3.66e-05	0	43	0	806354944	22	4893
2026-01-15 08:17:36.97	5.85	14.38	-30.5	-33.1	13.1	2.74e-05	0	43	0	808452096	22	4854
2026-01-15 08:17:37.97	5.68	14.31	-30.5	-33.1	13.1	2.13e-05	0	43	0	810549248	22	4865
2026-01-15 08:17:38.97	5.52	14.25	-30.5	-33.1	13.1	2.89e-05	0	43	0	812646400	22	4856
2026-01-15 08:17:39.97	5.35	14.19	-30.4	-33.0	13.1	2.82e-05	0	43	0	814743552	22	4837
2026-01-15 08:17:40.97	5.19	14.13	-30.6	-33.5	12.8	4.80e-05	0	43	0	815792128	22	5024
2026-01-15 08:17:41.98	5.02	14.07	-30.5	-33.2	13.0	4.88e-05	0	43	0	817889280	22	4898
2026-01-15 08:17:42.98	4.86	14.01	-30.4	-32.9	13.2	2.28e-05	0	43	0	819986432	22	4789
2026-01-15 08:17:43.99	4.69	13.94	-30.4	-32.9	13.2	2.44e-05	0	43	0	822083584	22	4781
2026-01-15 08:17:44.99	4.53	13.88	-30.4	-32.9	13.2	2.13e-05	0	43	0	823132160	22	4810
2026-01-15 08:17:45.99	4.37	13.82	-30.3	-32.7	13.3	2.21e-05	0	44	0	825229312	22	4736
2026-01-15 08:17:47.00	4.21	13.76	-30.3	-32.6	13.3	1.75e-05	0	43	0	827326464	22	4707
2026-01-15 08:17:48.01	4.05	13.70	-30.4	-32.9	13.2	2.59e-05	0	43	0	829423616	22	4811
2026-01-15 08:17:49.01	3.89	13.63	-30.2	-32.9	13.5	1.06e-05	0	43	0	831520768	21	4893
2026-01-15 08:17:50.01	3.73	13.57	-30.3	-33.0	13.4	9.90e-06	0	43	0	833617920	21	4950
2026-01-15 08:17:51.02	3.57	13.51	-30.4	-33.3	13.2	2.13e-05	0	43	0	834666496	21	5063
2026-01-15 08:17:52.02	3.41	13.45	-30.2	-32.7	13.6	1.06e-05	0	43	0	836763648	21	4851
2026-01-15 08:17:53.02	3.26	13.38	-30.2	-32.9	13.4	3.80e-06	0	43	0	838860800	21	4909
2026-01-15 08:17:54.03	3.10	13.32	-30.3	-33.2	13.3	1.37e-05	0	43	0	840957952	21	5012
2026-01-15 08:17:55.03	2.95	13.26	-30.2	-33.0	13.4	1.22e-05	0	43	0	842006528	21	4948
2026-01-15 08:17:56.03	2.79	13.20	-30.4	-33.5	13.1	2.44e-05	0	43	0	844103680	21	5117
2026-01-15 08:17:57.03	2.64	13.13	-30.3	-33.1	13.3	2.74e-05	0	43	0	846200832	21	4977
2026-01-15 08:17:58.04	2.48	13.07	-30.3	-33.3	13.2	2.97e-05	0	43	0	848297984	21	5064
2026-01-15 08:17:59.04	2.33	13.01	-30.5	-33.9	12.8	4.80e-05	0	43	0	850395136	21	5285
2026-01-15 08:18:00.05	2.18	12.95	-30.7	-34.2	12.5	9.23e-05	0	43	0	851443712	21	5416
2026-01-15 08:18:01.05	2.03	12.88	-30.4	-33.6	12.9	8.01e-05	0	43	0	853540864	21	5161
2026-01-15 08:18:02.06	1.87	12.82	-30.3	-33.2	13.2	3.05e-05	0	43	0	855638016	21	5012
2026-01-15 08:18:03.06	1.72	12.76	-30.1	-32.8	13.4	1.60e-05	0	43	0	857735168	21	4867
2026-01-15 08:18:04.06	1.58	12.69	-30.1	-32.7	13.5	1.22e-05	0	43	0	859832320	21	4832
2026-01-15 08:18:05.07	1.43	12.63	-30.1	-32.7	13.5	9.10e-06	0	43	0	860880896	21	4845
2026-01-15 08:18:06.08	1.28	12.57	-30.1	-32.7	13.5	9.90e-06	0	43	0	862978048	21	4830
2026-01-15 08:18:07.08	1.13	12.50	-29.9	-32.1	13.8	3.00e-06	0	43	0	865075200	21	4649
2026-01-15 08:18:08.09	0.98	12.44	-29.8	-31.9	14.0	3.00e-06	0	43	0	867172352	21	4557
2026-01-15 08:18:09.09	0.84	12.38	-29.8	-32.0	14.0	7.00e-07	0	43	0	869269504	21	4598
2026-01-15 08:18:10.08	0.69	12.32	-29.9	-32.0	13.9	2.20e-06	0	43	0	870318080	21	4616
2026-01-15 08:18:11.08	0.55	12.25	-30.0	-32.4	13.7	3.80e-06	0	43	0	872415232	21	4740
2026-01-15 08:18:12.09	0.40	12.19	-29.9	-32.2	13.8	3.80e-06	0	43	0	874512384	21	4682
2026-01-15 08:18:13.09	0.26	12.13	-30.0	-32.4	13.7	4.50e-06	0	43	0	876609536	21	4752
2026-01-15 08:18:14.09	0.12	12.06	-30.1	-32.6	13.5	5.30e-06	0	43	0	878706688	21	4822
2026-01-15 08:18:15.09	359.97	12.00	-30.1	-32.5	13.6	1.22e-05	0	43	0	879755264	21	4789
2026-01-15 08:18:16.09	359.83	11.94	-30.2	-32.8	13.4	1.44e-05	0	43	0	881852416	21	4898
2026-01-15 08:18:17.09	359.69	11.87	-30.1	-32.5	13.6	3.80e-06	0	43	0	883949568	21	4799
2026-01-15 08:18:18.09	359.55	11.81	-30.1	-32.7	13.5	7.60e-06	0	43	0	886046720	21	4848
2026-01-15 08:18:19.10	359.41	11.75	-30.1	-32.7	13.5	8.30e-06	0	43	0	887095296	21	4846
2026-01-15 08:18:20.11	359.27	11.68	-30.2	-33.0	13.2	1.29e-05	0	43	0	889192448	21	4979
2026-01-15 08:18:21.12	359.13	11.62	-30.2	-32.9	13.4	1.52e-05	0	43	0	891289600	21	4914
2026-01-15 08:18:22.12	358.99	11.56	-30.2	-32.9	13.3	1.29e-05	0	43	0	893386752	21	4931
2026-01-15 08:18:23.11	358.86	11.50	-30.2	-33.0	13.2	2.67e-05	0	43	0	895483904	21	4966
2026-01-15 08:18:24.12	358.72	11.43	-30.2	-33.0	13.2	1.75e-05	0	43	0	896532480	21	4969
2026-01-15 08:18:25.12	358.58	11.37	-30.3	-33.2	13.1	3.50e-05	0	43	0	898629632	21	5032
2026-01-15 08:18:26.12	358.45	11.31	-30.2	-33.1	13.2	2.21e-05	0	43	0	900726784	21	4993
2026-01-15 08:18:27.13	358.31	11.24	-30.3	-33.3	13.0	2.82e-05	0	43	0	902823936	21	5058
2026-01-15 08:18:28.13	358.18	11.18	-30.2	-32.9	13.3	3.20e-05	0	43	0	904921088	21	4943
2026-01-15 08:18:29.12	358.04	11.12	-30.2	-32.9	13.3	9.90e-06	0	43	0	905969664	21	4922
2026-01-15 08:18:30.12	357.91	11.05	-30.2	-32.8	13.3	1.83e-05	0	43	0	908066816	21	4899
2026-01-15 08:18:31.13	357.78	10.99	-30.1	-32.8	13.4	1.75e-05	0	43	0	910163968	21	4884
2026-01-15 08:18:32.14	357.64	10.93	-30.2	-32.8	13.3	1.29e-05	0	43	0	912261120	21	4896
2026-01-15 08:18:33.14	357.51	10.86	-30.2	-32.9	13.3	1.14e-05	0	43	0	914358272	21	4917
2026-01-15 08:18:34.15	357.38	10.80	-30.2	-32.9	13.3	1.60e-05	0	43	0	915406848	21	4938
2026-01-15 08:18:35.15	357.25	10.74	-30.2	-32.9	13.3	9.90e-06	0	43	0	917504000	21	4919
2026-01-15 08:18:36.17	357.12	10.67	-30.3	-33.2	13.0	3.12e-05	0	43	0	919601152	21	5043
2026-01-15 08:18:37.17	356.99	10.61	-30.3	-33.1	13.1	3.35e-05	0	43	0	921698304	21	5020
2026-01-15 08:18:38.18	356.86	10.55	-30.3	-33.3	12.9	3.20e-05	0	43	0	923795456	21	5096
2026-01-15 08:18:39.18	356.73	10.48	-30.3	-33.4	12.9	3.89e-05	0	43	0	924844032	21	5121
2026-01-15 08:18:40.19	356.60	10.42	-30.5	-33.8	12.7	7.70e-05	0	43	0	926941184	21	5288
2026-01-15 08:18:41.19	356.48	10.36	-30.3	-33.3	12.9	9.07e-05	0	43	0	929038336	21	5090
2026-01-15 08:18:42.20	356.35	10.29	-30.3	-33.3	12.9	4.80e-05	0	43	0	931135488	21	5092
2026-01-15 08:18:43.20	356.23	10.23	-30.3	-33.3	12.9	4.42e-05	0	43	0	933232640	21	5100
2026-01-15 08:18:44.20	356.10	10.17	-30.5	-33.8	12.6	5.87e-05	0	43	0	934281216	21	5266
2026-01-15 08:18:45.20	355.98	10.11	-30.6	-34.1	12.4	1.05e-04	0	43	0	936378368	21	5393
2026-01-15 08:18:46.20	355.85	10.04	-30.6	-34.3	12.3	1.85e-04	0	43	0	938475520	21	5479
2026-01-15 08:18:47.20	355.73	9.98	-30.7	-34.4	12.2	1.88e-04	0	43	0	940572672	21	5506
2026-01-15 08:18:48.20	355.61	9.92	-30.7	-34.5	12.1	2.49e-04	0	43	0	941621248	21	5562
2026-01-15 08:18:49.20	355.48	9.86	-30.7	-34.5	12.1	2.78e-04	0	43	0	943718400	21	5587
2026-01-15 08:18:50.21	355.36	9.79	-30.7	-34.5	12.1	2.65e-04	0	43	0	945815552	21	5561
2026-01-15 08:18:51.22	355.24	9.73	-30.8	-34.9	11.8	3.48e-04	0	43	0	947912704	21	5730
2026-01-15 08:18:52.22	355.12	9.67	-30.8	-34.8	11.9	3.89e-04	0	43	0	950009856	21	5688
2026-01-15 08:18:53.22	355.00	9.60	-30.9	-35.2	11.6	7.07e-04	0	43	0	952107008	21	5885
2026-01-15 08:18:54.23	354.88	9.54	-30.8	-34.9	11.8	5.56e-04	0	43	0	953155584	21	5745
2026-01-15 08:18:55.23	354.76	9.48	-30.7	-34.4	12.1	3.72e-04	0	43	0	955252736	21	5545
2026-01-15 08:18:56.23	354.64	9.42	-30.7	-34.4	12.1	2.79e-04	0	43	0	957349888	21	5536
2026-01-15 08:18:57.23	354.52	9.35	-30.7	-34.5	12.1	2.53e-04	0	43	0	959447040	21	5579
2026-01-15 08:18:58.22	354.40	9.29	-30.8	-35.0	11.7	3.49e-04	0	43	0	960495616	21	5779
2026-01-15 08:18:59.22	354.29	9.23	-30.9	-35.1	11.6	6.93e-04	0	43	0	962592768	21	5868
2026-01-15 08:19:00.23	354.17	9.17	-30.9	-35.0	11.6	5.57e-04	0	43	0	964689920	21	5812
2026-01-15 08:19:01.24	354.05	9.11	-30.9	-35.2	11.5	7.45e-04	0	43	0	966787072	21	5906
2026-01-15 08:19:02.25	353.94	9.04	-30.9	-35.1	11.5	6.48e-04	0	43	0	968884224	21	5880
2026-01-15 08:19:03.25	353.82	8.98	-31.0	-35.4	11.4	9.65e-04	0	43	0	969932800	21	5973
2026-01-15 08:19:04.25	353.71	8.92	-30.9	-35.3	11.4	8.28e-04	0	43	0	972029952	21	5965
2026-01-15 08:19:05.25	353.59	8.86	-31.2	-35.6	10.9	1.50e-03	0	43	0	974127104	22	5957
2026-01-15 08:19:06.26	353.48	8.79	-31.0	-35.1	11.2	1.69e-03	0	43	0	976224256	22	5734
2026-01-15 08:19:07.27	353.36	8.73	-30.9	-34.8	11.4	1.18e-03	0	43	0	978321408	22	5608
2026-01-15 08:19:08.27	353.25	8.67	-30.9	-34.7	11.5	8.19e-04	0	43	0	979369984	22	5565
2026-01-15 08:19:09.28	353.14	8.61	-30.8	-34.5	11.6	7.23e-04	0	43	0	981467136	22	5489
2026-01-15 08:19:10.28	353.03	8.55	-30.8	-34.5	11.6	6.64e-04	0	43	0	983564288	22	5486
2026-01-15 08:19:11.29	352.92	8.48	-30.8	-34.4	11.6	6.87e-04	0	43	0	985661440	22	5457
2026-01-15 08:19:12.29	352.81	8.42	-30.9	-34.8	11.4	7.64e-04	0	43	0	987758592	22	5620
2026-01-15 08:19:13.29	352.70	8.36	-30.9	-34.8	11.3	9.22e-04	0	43	0	988807168	22	5630
2026-01-15 08:19:14.30	352.58	8.30	-31.0	-35.0	11.2	1.23e-03	0	43	0	990904320	22	5711
2026-01-15 08:19:15.30	352.48	8.24	-31.0	-35.1	11.1	1.40e-03	0	43	0	993001472	22	5781
2026-01-15 08:19:16.30	352.37	8.17	-31.0	-35.1	11.1	1.66e-03	0	43	0	995098624	22	5760
2026-01-15 08:19:17.30	352.26	8.11	-31.0	-35.1	11.1	1.58e-03	0	43	0	997195776	22	5773
2026-01-15 08:19:18.31	352.15	8.05	-30.9	-34.8	11.3	1.10e-03	0	43	0	998244352	22	5624
2026-01-15 08:19:19.32	352.04	7.99	-31.0	-35.0	11.2	1.20e-03	0	43	0	1000341504	22	5692
2026-01-15 08:19:20.31	351.94	7.93	-30.9	-34.7	11.4	9.06e-04	0	43	0	1002438656	22	5570
2026-01-15 08:19:21.32	351.83	7.87	-30.9	-34.7	11.4	9.44e-04	0	43	0	1004535808	22	5596
2026-01-15 08:19:22.33	351.72	7.81	-30.9	-34.7	11.4	9.46e-04	0	43	0	1006632960	22	5595
2026-01-15 08:19:23.33	351.62	7.74	-31.1	-35.4	10.9	1.56e-03	0	43	0	1007681536	22	5930
2026-01-15 08:19:24.33	351.51	7.68	-31.3	-36.0	10.4	4.01e-03	0	43	0	1009778688	22	6210
2026-01-15 08:19:25.34	351.41	7.62	-31.3	-36.0	10.4	3.90e-03	0	43	0	1011875840	22	6216
2026-01-15 08:19:26.34	351.30	7.56	-31.2	-35.6	10.7	2.85e-03	0	43	0	1013972992	22	6020
2026-01-15 08:19:27.35	351.20	7.50	-31.4	-36.1	9.9	8.59e-03	0	43	0	1016070144	23	6153
2026-01-15 08:19:28.35	351.10	7.44	-31.2	-35.4	10.5	6.37e-03	0	43	0	1017118720	23	5810
2026-01-15 08:19:29.36	350.99	7.38	-31.4	-36.0	10.0	5.06e-03	0	43	0	1019215872	23	6129
2026-01-15 08:19:30.36	350.89	7.32	-31.4	-36.1	9.8	1.11e-02	0	43	0	1021313024	23	6186
2026-01-15 08:19:31.36	350.79	7.26	-31.3	-35.8	10.1	6.62e-03	0	43	0	1023410176	23	6007
2026-01-15 08:19:32.36	350.69	7.20	-31.4	-35.9	10.0	7.92e-03	0	43	0	1024458752	23	6078
2026-01-15 08:19:33.36	350.59	7.13	-31.2	-35.3	10.4	4.98e-03	0	43	0	1026555904	23	5752
2026-01-15 08:19:34.36	350.49	7.07	-32.5	-40.4	6.4	4.20e-03	0	43	0	1028653056	25	8894
2026-01-15 08:19:35.36	350.39	7.01	-33.5	-47.8	3.8	1.49e+00	0	43	104	1028653056	26	18646
2026-01-15 08:19:36.36	350.29	6.95	-33.8	-48.1	3.8	1.49e+00	0	44	104	1028653056	27	18750
2026-01-15 08:19:37.37	350.19	6.89	-34.0	-48.5	3.8	1.49e+00	0	43	104	1028653056	27	19163

#Closed at: 2026-01-15 08:19:38
#Recorded file [1028 MB]: D:/data/31010_260115_111025.dat