passes_logs/2026/01/15/R2M6_AANII_01/R2M6_AANII_01__20260115_115930_AQUA_rec.log

#Pass ID: 20260115_115930_AQUA
#Satellite: AQUA
#Configuration: AQUA
#almurnet v.1.7.20240730
#Start time: 2026-01-15 11:59:29

#Version: 2.2.20231116
#Station: R2M6_AANII_01
#Location: 30.233357 lon 59.946436 lat
#TLE: 1 27424U 02022A   26014.19338718  .00000717  00000+0  15340-3 0  9998
#TLE: 2 27424  98.4080 340.6072 0002047  79.4950 292.1093 14.61819636260772

#Time	Az	El	Level	Level2	SNR	BER	BlckErr	Temp	State	Recorded	gain1	gain2
2026-01-15 11:59:29.82	158.30	6.95	-30.5	-36.6	5.2	7.10e-01	0	40	0	0	22	7257
2026-01-15 11:59:30.82	158.30	7.03	-30.9	-37.7	5.1	7.07e-01	0	41	104	0	23	7844
2026-01-15 11:59:31.83	158.30	7.12	-30.9	-37.1	14.1	6.08e-01	0	41	0	0	23	7277
2026-01-15 11:59:32.84	158.30	7.20	-30.9	-36.4	14.7	6.07e-01	0	41	0	1572864	23	6822
2026-01-15 11:59:33.84	158.30	7.28	-31.1	-37.5	13.9	6.10e-01	0	41	0	3670016	23	7462
2026-01-15 11:59:34.84	158.30	7.37	-31.0	-36.6	14.6	6.09e-01	0	41	0	5242880	23	6878
2026-01-15 11:59:35.84	158.30	7.45	-30.9	-36.1	15.1	6.06e-01	0	41	0	7340032	23	6499
2026-01-15 11:59:36.85	158.30	7.53	-30.8	-35.3	15.8	6.07e-01	0	41	0	9437184	23	6048
2026-01-15 11:59:37.85	158.30	7.62	-30.8	-35.2	16.0	6.08e-01	0	41	0	11010048	23	5943
2026-01-15 11:59:38.85	158.29	7.70	-30.7	-35.0	16.1	6.09e-01	0	41	0	13107200	23	5841
2026-01-15 11:59:39.85	158.29	7.79	-30.8	-34.9	16.2	6.07e-01	0	41	0	14680064	23	5820
2026-01-15 11:59:40.86	158.29	7.87	-30.8	-35.2	16.0	6.06e-01	0	41	0	16777216	23	5943
2026-01-15 11:59:41.85	158.29	7.96	-30.8	-35.0	16.3	6.07e-01	0	41	0	18350080	23	5804
2026-01-15 11:59:42.85	158.29	8.04	-30.7	-34.5	16.6	6.06e-01	0	41	0	20447232	23	5581
2026-01-15 11:59:43.86	158.29	8.13	-30.5	-33.9	17.1	6.08e-01	0	41	0	22544384	23	5312
2026-01-15 11:59:44.86	158.29	8.22	-30.4	-34.0	17.3	6.06e-01	0	41	0	24117248	22	5451
2026-01-15 11:59:45.86	158.29	8.30	-30.4	-34.1	17.3	6.07e-01	0	41	0	26214400	22	5511
2026-01-15 11:59:46.86	158.29	8.39	-30.5	-34.4	17.1	6.07e-01	0	41	0	27787264	22	5650
2026-01-15 11:59:47.87	158.28	8.48	-30.4	-34.0	17.3	6.06e-01	0	41	0	29884416	22	5463
2026-01-15 11:59:48.87	158.28	8.57	-30.3	-33.8	17.5	6.06e-01	0	41	0	31457280	22	5366
2026-01-15 11:59:49.88	158.28	8.66	-30.2	-33.5	17.8	6.07e-01	0	41	0	33554432	22	5222
2026-01-15 11:59:50.88	158.28	8.75	-30.3	-33.7	17.6	6.05e-01	0	42	0	35651584	22	5336
2026-01-15 11:59:51.87	158.28	8.83	-30.2	-33.4	17.9	6.03e-01	0	41	0	37224448	22	5204
2026-01-15 11:59:52.87	158.28	8.92	-30.2	-33.5	17.8	6.06e-01	0	41	0	39321600	22	5253
2026-01-15 11:59:53.88	158.28	9.01	-30.4	-34.0	17.4	6.10e-01	0	41	0	41418752	22	5454
2026-01-15 11:59:54.87	158.28	9.10	-30.3	-33.8	17.6	6.05e-01	0	41	0	42991616	22	5369
2026-01-15 11:59:55.87	158.27	9.19	-30.2	-33.4	17.8	6.04e-01	0	41	0	45088768	22	5237
2026-01-15 11:59:56.86	158.27	9.28	-30.1	-33.1	18.0	6.05e-01	0	41	0	46661632	22	5129
2026-01-15 11:59:57.86	158.27	9.37	-29.9	-32.7	18.2	6.08e-01	0	41	0	48758784	22	4983
2026-01-15 11:59:58.86	158.27	9.46	-30.0	-32.9	18.2	6.07e-01	0	41	0	50331648	22	5043
2026-01-15 11:59:59.86	158.27	9.56	-29.9	-32.8	18.2	6.07e-01	0	42	0	52428800	22	5032
2026-01-15 12:00:00.86	158.27	9.65	-29.9	-32.6	18.3	6.06e-01	0	42	0	54001664	22	4957
2026-01-15 12:00:01.87	158.27	9.74	-30.0	-33.4	18.1	6.07e-01	0	42	0	56098816	21	5361
2026-01-15 12:00:02.87	158.26	9.83	-29.9	-33.3	18.2	6.07e-01	0	42	0	58195968	21	5302
2026-01-15 12:00:03.87	158.26	9.93	-29.9	-33.2	18.3	6.06e-01	0	42	0	59768832	21	5242
2026-01-15 12:00:04.88	158.26	10.02	-29.9	-33.2	18.3	6.05e-01	0	42	0	61865984	21	5240
2026-01-15 12:00:05.89	158.26	10.12	-30.0	-33.5	18.2	6.08e-01	0	42	0	63438848	21	5372
2026-01-15 12:00:06.89	158.26	10.21	-29.9	-33.2	18.4	6.06e-01	0	42	0	65536000	21	5223
2026-01-15 12:00:07.89	158.26	10.31	-30.0	-33.3	18.3	6.06e-01	0	42	0	67633152	21	5278
2026-01-15 12:00:08.89	158.25	10.40	-30.0	-33.4	18.3	6.04e-01	0	42	0	69206016	21	5273
2026-01-15 12:00:09.89	158.25	10.50	-30.0	-33.2	18.4	6.07e-01	0	42	0	71303168	21	5227
2026-01-15 12:00:10.89	158.25	10.59	-30.1	-33.4	18.3	6.09e-01	0	42	0	72876032	21	5280
2026-01-15 12:00:11.90	158.25	10.69	-30.0	-33.3	18.4	6.07e-01	0	42	0	74973184	21	5225
2026-01-15 12:00:12.90	158.25	10.79	-30.0	-33.2	18.5	6.06e-01	0	42	0	76546048	21	5181
2026-01-15 12:00:13.90	158.24	10.89	-30.0	-33.3	18.4	6.08e-01	0	42	0	78643200	21	5219
2026-01-15 12:00:14.90	158.24	10.98	-30.1	-33.3	18.4	6.08e-01	0	42	0	80740352	21	5244
2026-01-15 12:00:15.90	158.24	11.08	-30.1	-33.5	18.3	6.05e-01	0	42	0	82313216	21	5322
2026-01-15 12:00:16.90	158.24	11.18	-30.0	-33.1	18.5	6.05e-01	0	42	0	84410368	21	5166
2026-01-15 12:00:17.90	158.24	11.28	-30.0	-33.2	18.5	6.02e-01	0	42	0	85983232	21	5193
2026-01-15 12:00:18.91	158.23	11.38	-30.0	-33.2	18.5	6.06e-01	0	42	0	88080384	21	5189
2026-01-15 12:00:19.91	158.23	11.48	-30.0	-33.0	18.6	6.06e-01	0	42	0	90177536	21	5138
2026-01-15 12:00:20.91	158.23	11.58	-29.9	-33.0	18.7	6.08e-01	0	42	0	91750400	21	5112
2026-01-15 12:00:21.91	158.23	11.68	-30.0	-33.3	18.4	6.05e-01	0	42	0	93847552	21	5248
2026-01-15 12:00:22.92	158.23	11.78	-29.9	-33.0	18.6	6.07e-01	0	42	0	95420416	21	5127
2026-01-15 12:00:23.92	158.22	11.89	-29.9	-32.9	18.7	6.06e-01	0	42	0	97517568	21	5079
2026-01-15 12:00:24.93	158.22	11.99	-29.8	-32.8	18.8	6.07e-01	0	42	0	99614720	21	5037
2026-01-15 12:00:25.92	158.22	12.09	-29.9	-32.9	18.7	6.08e-01	0	42	0	101187584	21	5102
2026-01-15 12:00:26.93	158.22	12.20	-29.9	-32.8	18.7	6.07e-01	0	42	0	103284736	21	5073
2026-01-15 12:00:27.93	158.21	12.30	-29.9	-32.9	18.7	6.04e-01	0	42	0	104857600	21	5086
2026-01-15 12:00:28.93	158.21	12.40	-30.0	-33.3	18.4	6.08e-01	0	42	0	106954752	21	5257
2026-01-15 12:00:29.93	158.21	12.51	-29.8	-32.7	18.8	6.07e-01	0	42	0	108527616	21	5033
2026-01-15 12:00:30.94	158.21	12.61	-29.7	-32.3	19.1	6.07e-01	0	42	0	110624768	21	4876
2026-01-15 12:00:31.94	158.20	12.72	-29.6	-32.2	19.2	6.06e-01	0	42	0	112721920	21	4833
2026-01-15 12:00:32.94	158.20	12.83	-29.6	-32.2	19.2	6.06e-01	0	42	0	114294784	21	4837
2026-01-15 12:00:33.95	158.20	12.93	-29.5	-32.0	19.3	6.06e-01	0	42	0	116391936	21	4769
2026-01-15 12:00:34.95	158.19	13.04	-29.5	-31.8	19.4	6.07e-01	0	42	0	117964800	21	4726
2026-01-15 12:00:35.96	158.19	13.15	-29.5	-31.8	19.5	6.06e-01	0	42	0	120061952	21	4705
2026-01-15 12:00:36.96	158.19	13.26	-29.5	-31.9	19.4	6.07e-01	0	42	0	121634816	21	4745
2026-01-15 12:00:37.96	158.19	13.37	-29.5	-31.9	19.4	6.09e-01	0	42	0	123731968	21	4745
2026-01-15 12:00:38.96	158.18	13.48	-29.5	-31.9	19.4	6.04e-01	0	42	0	125829120	21	4728
2026-01-15 12:00:39.97	158.18	13.59	-29.5	-31.9	19.4	6.06e-01	0	42	0	127401984	21	4740
2026-01-15 12:00:40.97	158.18	13.70	-29.5	-32.0	19.4	6.05e-01	0	42	0	129499136	21	4771
2026-01-15 12:00:41.97	158.17	13.81	-29.5	-32.0	19.3	6.08e-01	0	42	0	131072000	21	4787
2026-01-15 12:00:42.97	158.17	13.92	-29.5	-32.1	19.3	6.09e-01	0	42	0	133169152	21	4802
2026-01-15 12:00:43.97	158.17	14.04	-29.6	-32.2	19.2	6.05e-01	0	42	0	135266304	21	4861
2026-01-15 12:00:44.97	158.16	14.15	-29.5	-31.9	19.4	6.07e-01	0	42	0	136839168	21	4742
2026-01-15 12:00:45.97	158.16	14.26	-29.6	-32.1	19.3	6.06e-01	0	42	0	138936320	21	4799
2026-01-15 12:00:46.98	158.16	14.38	-29.6	-32.0	19.3	6.07e-01	0	42	0	140509184	21	4777
2026-01-15 12:00:47.97	158.15	14.49	-29.6	-32.2	19.2	6.07e-01	0	42	0	142606336	21	4840
2026-01-15 12:00:48.98	158.15	14.61	-29.7	-32.3	19.2	6.08e-01	0	42	0	144703488	21	4848
2026-01-15 12:00:49.98	158.15	14.72	-29.7	-32.2	19.3	6.08e-01	0	43	0	146276352	21	4835
2026-01-15 12:00:50.98	158.14	14.84	-29.9	-32.9	18.9	6.05e-01	0	42	0	148373504	21	5061
2026-01-15 12:00:51.99	158.14	14.96	-29.8	-32.6	19.1	6.05e-01	0	42	0	149946368	21	4966
2026-01-15 12:00:52.99	158.14	15.08	-29.7	-32.2	19.3	6.05e-01	0	42	0	152043520	21	4802
2026-01-15 12:00:53.99	158.13	15.19	-29.5	-31.8	19.6	6.08e-01	0	43	0	153616384	21	4682
2026-01-15 12:00:54.99	158.13	15.31	-29.6	-31.9	19.6	6.06e-01	0	42	0	155713536	21	4708
2026-01-15 12:00:56.00	158.12	15.43	-29.5	-31.7	19.7	6.07e-01	0	42	0	157810688	21	4622
2026-01-15 12:00:57.00	158.12	15.56	-29.5	-31.7	19.7	6.08e-01	0	42	0	159383552	21	4643
2026-01-15 12:00:58.00	158.12	15.68	-29.7	-32.2	19.4	6.09e-01	0	42	0	161480704	21	4811
2026-01-15 12:00:59.01	158.11	15.80	-29.6	-31.8	19.6	6.08e-01	0	43	0	163053568	21	4674
2026-01-15 12:01:00.01	158.11	15.92	-29.5	-31.6	19.8	6.07e-01	0	43	0	165150720	21	4590
2026-01-15 12:01:01.01	158.10	16.04	-29.5	-31.6	19.8	6.08e-01	0	43	0	167247872	21	4601
2026-01-15 12:01:02.01	158.10	16.17	-29.5	-31.6	19.8	6.08e-01	0	43	0	168820736	21	4607
2026-01-15 12:01:03.02	158.10	16.29	-29.5	-31.8	19.7	6.06e-01	0	43	0	170917888	21	4643
2026-01-15 12:01:04.02	158.09	16.42	-29.5	-31.7	19.7	6.06e-01	0	43	0	172490752	21	4633
2026-01-15 12:01:05.02	158.09	16.55	-29.6	-31.9	19.7	6.08e-01	0	42	0	174587904	21	4677
2026-01-15 12:01:06.02	158.08	16.67	-29.6	-31.8	19.7	6.07e-01	0	43	0	176685056	21	4660
2026-01-15 12:01:07.02	158.08	16.80	-29.7	-32.0	19.6	6.08e-01	0	43	0	178257920	21	4720
2026-01-15 12:01:08.03	158.07	16.93	-29.6	-31.9	19.6	6.04e-01	0	43	0	180355072	21	4692
2026-01-15 12:01:09.03	158.07	17.06	-29.6	-31.9	19.6	6.05e-01	0	42	0	181927936	21	4698
2026-01-15 12:01:10.03	158.06	17.19	-29.7	-32.0	19.6	6.09e-01	0	43	0	184025088	21	4717
2026-01-15 12:01:11.03	158.06	17.32	-29.8	-32.5	19.3	6.05e-01	0	42	0	185597952	21	4875
2026-01-15 12:01:12.04	158.05	17.45	-29.7	-32.1	19.6	6.05e-01	0	43	0	187695104	21	4739
2026-01-15 12:01:13.04	158.05	17.58	-29.6	-31.9	19.6	6.06e-01	0	43	0	189792256	21	4694
2026-01-15 12:01:14.05	158.04	17.72	-29.7	-32.1	19.4	6.04e-01	0	42	0	191365120	21	4764
2026-01-15 12:01:15.05	158.04	17.85	-29.9	-32.6	19.1	6.05e-01	0	42	0	193462272	21	4941
2026-01-15 12:01:16.05	158.03	17.98	-29.8	-32.3	19.4	6.08e-01	0	43	0	195035136	21	4817
2026-01-15 12:01:17.05	158.03	18.12	-29.8	-32.3	19.4	6.07e-01	0	43	0	197132288	21	4812
2026-01-15 12:01:18.05	158.02	18.26	-29.8	-32.3	19.4	6.07e-01	0	43	0	198705152	21	4808
2026-01-15 12:01:19.05	158.02	18.39	-29.7	-32.2	19.5	6.06e-01	0	43	0	200802304	21	4791
2026-01-15 12:01:20.05	158.01	18.53	-29.7	-32.2	19.5	6.10e-01	0	43	0	202899456	21	4784
2026-01-15 12:01:21.05	158.01	18.67	-29.8	-32.5	19.4	6.06e-01	0	43	0	204472320	21	4873
2026-01-15 12:01:22.05	158.00	18.81	-29.8	-32.4	19.5	6.05e-01	0	43	0	206569472	21	4836
2026-01-15 12:01:23.06	157.99	18.95	-30.0	-32.7	19.2	6.06e-01	0	42	0	208142336	21	4957
2026-01-15 12:01:24.06	157.99	19.09	-29.8	-32.4	19.4	6.04e-01	0	43	0	210239488	21	4840
2026-01-15 12:01:25.06	157.98	19.23	-29.7	-32.1	19.6	6.05e-01	0	43	0	212336640	21	4750
2026-01-15 12:01:26.06	157.98	19.37	-29.7	-32.2	19.6	6.06e-01	0	42	0	213909504	21	4765
2026-01-15 12:01:27.06	157.97	19.52	-29.7	-32.1	19.6	6.08e-01	0	43	0	216006656	21	4732
2026-01-15 12:01:28.06	157.96	19.66	-29.8	-32.3	19.6	6.08e-01	0	43	0	217579520	21	4790
2026-01-15 12:01:29.06	157.96	19.81	-29.8	-32.2	19.6	6.06e-01	0	43	0	219676672	21	4765
2026-01-15 12:01:30.07	157.95	19.96	-29.8	-32.3	19.5	6.04e-01	0	43	0	221249536	21	4818
2026-01-15 12:01:31.07	157.94	20.10	-29.9	-32.6	19.4	6.06e-01	0	43	0	223346688	21	4927
2026-01-15 12:01:32.07	157.94	20.25	-29.8	-32.4	19.5	6.07e-01	0	43	0	225443840	21	4842
2026-01-15 12:01:33.07	157.93	20.40	-29.9	-32.6	19.4	6.07e-01	0	43	0	227016704	21	4909
2026-01-15 12:01:34.08	157.92	20.55	-30.1	-33.2	19.0	6.04e-01	0	43	0	229113856	21	5136
2026-01-15 12:01:35.08	157.92	20.71	-30.0	-33.0	19.1	6.06e-01	0	43	0	230686720	21	5058
2026-01-15 12:01:36.08	157.91	20.86	-30.1	-33.1	19.1	6.05e-01	0	43	0	232783872	21	5086
2026-01-15 12:01:37.09	157.90	21.01	-30.2	-33.4	18.9	6.08e-01	0	43	0	234881024	21	5217
2026-01-15 12:01:38.09	157.89	21.17	-30.1	-33.0	19.1	6.05e-01	0	43	0	236453888	21	5072
2026-01-15 12:01:39.09	157.89	21.32	-30.0	-33.0	19.2	6.07e-01	0	43	0	238551040	21	5035
2026-01-15 12:01:40.09	157.88	21.48	-30.1	-33.0	19.2	6.07e-01	0	43	0	240123904	21	5040
2026-01-15 12:01:41.09	157.87	21.64	-30.0	-32.9	19.3	6.05e-01	0	43	0	242221056	21	5024
2026-01-15 12:01:42.09	157.86	21.80	-30.2	-33.3	19.0	6.07e-01	0	43	0	243793920	21	5161
2026-01-15 12:01:43.10	157.86	21.96	-30.2	-33.3	19.0	6.07e-01	0	43	0	245891072	21	5150
2026-01-15 12:01:44.10	157.85	22.12	-30.2	-33.4	18.9	6.05e-01	0	43	0	247988224	21	5204
2026-01-15 12:01:45.09	157.84	22.28	-30.1	-33.2	19.1	6.07e-01	0	43	0	249561088	21	5105
2026-01-15 12:01:46.10	157.83	22.44	-30.1	-33.0	19.2	6.05e-01	0	43	0	251658240	21	5037
2026-01-15 12:01:47.10	157.82	22.61	-30.0	-32.7	19.4	6.07e-01	0	43	0	253231104	21	4936
2026-01-15 12:01:48.10	157.82	22.77	-29.9	-32.6	19.4	6.07e-01	0	43	0	255328256	21	4914
2026-01-15 12:01:49.10	157.81	22.94	-29.9	-32.6	19.4	6.05e-01	0	43	0	257425408	21	4883
2026-01-15 12:01:50.11	157.80	23.11	-29.9	-32.6	19.4	6.06e-01	0	43	0	258998272	21	4909
2026-01-15 12:01:51.11	157.79	23.28	-30.0	-32.7	19.4	6.06e-01	0	43	0	261095424	21	4947
2026-01-15 12:01:52.11	157.78	23.45	-29.9	-32.4	19.6	6.08e-01	0	43	0	262668288	21	4836
2026-01-15 12:01:53.12	157.77	23.62	-29.8	-32.2	19.8	6.07e-01	0	43	0	264765440	21	4755
2026-01-15 12:01:54.12	157.76	23.80	-29.8	-32.3	19.8	6.07e-01	0	43	0	266338304	21	4777
2026-01-15 12:01:55.12	157.75	23.97	-29.7	-32.0	19.9	6.08e-01	0	43	0	268435456	21	4702
2026-01-15 12:01:56.12	157.74	24.14	-29.8	-32.2	19.7	6.07e-01	0	43	0	270532608	21	4767
2026-01-15 12:01:57.11	157.73	24.32	-29.7	-32.1	19.9	6.07e-01	0	43	0	272105472	21	4708
2026-01-15 12:01:58.11	157.72	24.50	-29.7	-32.1	19.9	6.08e-01	0	43	0	274202624	21	4710
2026-01-15 12:01:59.11	157.71	24.68	-29.9	-32.4	19.7	6.06e-01	0	43	0	275775488	21	4813
2026-01-15 12:02:00.11	157.70	24.86	-29.9	-32.3	19.8	6.08e-01	0	43	0	277872640	21	4798
2026-01-15 12:02:01.11	157.69	25.04	-29.8	-32.2	19.9	6.06e-01	0	43	0	279445504	21	4741
2026-01-15 12:02:02.11	157.68	25.22	-29.8	-32.1	19.9	6.09e-01	0	43	0	281542656	21	4729
2026-01-15 12:02:03.11	157.67	25.41	-29.9	-32.5	19.7	6.06e-01	0	43	0	283639808	21	4846
2026-01-15 12:02:04.11	157.66	25.59	-30.0	-32.7	19.6	6.06e-01	0	43	0	285212672	21	4908
2026-01-15 12:02:05.11	157.65	25.78	-29.8	-32.3	19.8	6.06e-01	0	43	0	287309824	21	4776
2026-01-15 12:02:06.12	157.64	25.97	-29.8	-32.3	19.8	6.06e-01	0	43	0	288882688	21	4773
2026-01-15 12:02:07.13	157.63	26.16	-29.8	-32.3	19.8	6.07e-01	0	43	0	290979840	21	4778
2026-01-15 12:02:08.13	157.61	26.35	-29.9	-32.3	19.8	6.06e-01	0	43	0	293076992	21	4781
2026-01-15 12:02:09.14	157.60	26.55	-29.8	-32.2	19.9	6.07e-01	0	43	0	294649856	21	4740
2026-01-15 12:02:10.14	157.59	26.74	-29.9	-32.5	19.7	6.05e-01	0	43	0	296747008	21	4842
2026-01-15 12:02:11.13	157.58	26.94	-29.8	-32.2	20.0	6.05e-01	0	43	0	298319872	21	4722
2026-01-15 12:02:12.13	157.57	27.14	-29.6	-31.7	20.2	6.08e-01	0	43	0	300417024	21	4579
2026-01-15 12:02:13.14	157.55	27.34	-29.6	-31.7	20.3	6.06e-01	0	43	0	302514176	21	4565
2026-01-15 12:02:14.14	157.54	27.54	-29.6	-31.7	20.3	6.08e-01	0	43	0	304087040	21	4563
2026-01-15 12:02:15.15	157.53	27.74	-29.6	-31.6	20.3	6.05e-01	0	43	0	306184192	21	4560
2026-01-15 12:02:16.15	157.51	27.95	-29.6	-31.8	20.2	6.06e-01	0	43	0	307757056	21	4606
2026-01-15 12:02:17.15	157.50	28.15	-29.5	-31.5	20.4	6.06e-01	0	43	0	309854208	21	4523
2026-01-15 12:02:18.15	157.49	28.36	-29.4	-31.3	20.5	6.09e-01	0	43	0	311427072	21	4444
2026-01-15 12:02:19.15	157.47	28.57	-29.4	-31.3	20.5	6.07e-01	0	43	0	313524224	21	4447
2026-01-15 12:02:20.15	157.46	28.78	-29.6	-31.8	20.2	6.04e-01	0	43	0	315621376	21	4594
2026-01-15 12:02:21.15	157.44	28.99	-29.5	-31.3	20.5	6.06e-01	0	43	0	317194240	21	4453
2026-01-15 12:02:22.16	157.43	29.21	-29.4	-31.3	20.5	6.05e-01	0	43	0	319291392	21	4443
2026-01-15 12:02:23.16	157.41	29.42	-29.6	-31.6	20.3	6.06e-01	0	43	0	320864256	21	4555
2026-01-15 12:02:24.16	157.40	29.64	-29.6	-31.7	20.2	6.07e-01	0	43	0	322961408	21	4588
2026-01-15 12:02:25.16	157.38	29.86	-29.6	-31.8	20.3	6.05e-01	0	43	0	324534272	21	4598
2026-01-15 12:02:26.15	157.37	30.08	-29.7	-32.0	20.1	6.07e-01	0	43	0	326631424	21	4668
2026-01-15 12:02:27.16	157.35	30.31	-29.7	-31.9	20.2	6.05e-01	0	43	0	328728576	21	4626
2026-01-15 12:02:28.17	157.34	30.53	-29.6	-31.6	20.4	6.09e-01	0	43	0	330301440	21	4545
2026-01-15 12:02:29.17	157.32	30.76	-29.6	-31.7	20.3	6.07e-01	0	43	0	332398592	21	4572
2026-01-15 12:02:30.17	157.30	30.99	-29.7	-31.9	20.2	6.06e-01	0	43	0	333971456	21	4634
2026-01-15 12:02:31.16	157.29	31.22	-29.6	-31.7	20.3	6.08e-01	0	43	0	336068608	21	4569
2026-01-15 12:02:32.16	157.27	31.45	-29.8	-32.1	20.1	6.04e-01	0	43	0	337641472	21	4684
2026-01-15 12:02:33.16	157.25	31.69	-29.6	-31.7	20.4	6.05e-01	0	43	0	339738624	21	4576
2026-01-15 12:02:34.16	157.23	31.92	-29.6	-31.7	20.4	6.08e-01	0	43	0	341835776	21	4563
2026-01-15 12:02:35.16	157.21	32.16	-29.8	-32.0	20.2	6.06e-01	0	43	0	343408640	21	4650
2026-01-15 12:02:36.16	157.20	32.40	-29.9	-32.3	20.0	6.07e-01	0	43	0	345505792	21	4747
2026-01-15 12:02:37.16	157.18	32.65	-29.8	-32.2	20.1	6.07e-01	0	43	0	347078656	21	4728
2026-01-15 12:02:38.16	157.16	32.89	-29.5	-31.4	20.5	6.05e-01	0	43	0	349175808	21	4480
2026-01-15 12:02:39.15	157.14	33.14	-29.5	-31.4	20.6	6.07e-01	0	43	0	351272960	21	4460
2026-01-15 12:02:40.15	157.12	33.39	-29.7	-31.7	20.4	6.06e-01	0	43	0	352845824	21	4574
2026-01-15 12:02:41.15	157.10	33.64	-29.9	-32.3	20.1	6.06e-01	0	43	0	354942976	21	4740
2026-01-15 12:02:42.15	157.08	33.89	-29.9	-32.3	20.0	6.08e-01	0	43	0	356515840	21	4765
2026-01-15 12:02:43.15	157.06	34.15	-30.0	-32.5	20.0	6.07e-01	0	43	0	358612992	21	4810
2026-01-15 12:02:44.16	157.03	34.41	-29.9	-32.4	20.0	6.07e-01	0	43	0	360185856	21	4796
2026-01-15 12:02:45.16	157.01	34.67	-30.0	-32.6	19.9	6.07e-01	0	43	0	362283008	21	4836
2026-01-15 12:02:46.15	156.99	34.93	-30.0	-32.6	19.9	6.06e-01	0	43	0	364380160	21	4847
2026-01-15 12:02:47.15	156.97	35.19	-30.3	-33.2	19.5	6.05e-01	0	43	0	365953024	21	5072
2026-01-15 12:02:48.15	156.94	35.46	-30.4	-33.6	19.3	6.06e-01	0	43	0	368050176	21	5203
2026-01-15 12:02:49.15	156.92	35.73	-30.5	-33.8	19.1	6.06e-01	0	43	0	369623040	21	5284
2026-01-15 12:02:50.15	156.90	36.00	-30.4	-33.6	19.3	6.08e-01	0	43	0	371720192	21	5214
2026-01-15 12:02:51.16	156.87	36.28	-30.6	-34.1	19.0	6.05e-01	0	43	0	373293056	21	5385
2026-01-15 12:02:52.16	156.85	36.56	-30.9	-34.5	18.5	6.10e-01	0	43	0	375390208	22	5430
2026-01-15 12:02:53.16	156.82	36.84	-30.9	-34.4	18.5	6.05e-01	0	43	0	377487360	22	5392
2026-01-15 12:02:54.17	156.79	37.12	-30.9	-34.3	18.6	6.07e-01	0	43	0	379060224	22	5344
2026-01-15 12:02:55.17	156.77	37.41	-30.8	-34.2	18.6	6.08e-01	0	43	0	381157376	22	5320
2026-01-15 12:02:56.17	156.74	37.70	-30.8	-34.2	18.6	6.05e-01	0	43	0	382730240	22	5320
2026-01-15 12:02:57.16	156.71	37.98	-30.7	-33.9	18.8	6.05e-01	0	43	0	384827392	22	5213
2026-01-15 12:02:58.17	156.68	38.28	-30.8	-34.0	18.8	6.06e-01	0	43	0	386400256	22	5255
2026-01-15 12:02:59.17	156.65	38.58	-30.9	-34.6	18.4	6.07e-01	0	43	0	388497408	22	5459
2026-01-15 12:03:00.17	156.63	38.88	-31.1	-34.4	18.3	6.08e-01	0	43	0	390594560	23	5274
2026-01-15 12:03:01.17	156.59	39.18	-31.1	-34.4	18.2	6.08e-01	0	43	0	392167424	23	5306
2026-01-15 12:03:02.17	156.56	39.48	-31.0	-34.3	18.3	6.07e-01	0	43	0	394264576	23	5247
2026-01-15 12:03:03.18	156.53	39.79	-30.9	-33.9	18.6	6.05e-01	0	43	0	396361728	23	5078
2026-01-15 12:03:04.18	156.50	40.10	-30.8	-33.8	18.6	6.06e-01	0	43	0	397934592	23	5041
2026-01-15 12:03:05.19	156.47	40.42	-30.8	-33.7	18.7	6.06e-01	0	43	0	400031744	23	5000
2026-01-15 12:03:06.18	156.43	40.73	-30.6	-33.2	19.0	6.09e-01	0	43	0	401604608	23	4827
2026-01-15 12:03:07.19	156.40	41.05	-30.5	-32.8	19.2	6.05e-01	0	43	0	403701760	23	4690
2026-01-15 12:03:08.19	156.36	41.37	-30.7	-33.3	18.9	6.08e-01	0	43	0	405274624	23	4888
2026-01-15 12:03:09.19	156.33	41.70	-30.7	-33.3	18.9	6.06e-01	0	43	0	407371776	23	4892
2026-01-15 12:03:10.20	156.29	42.03	-30.4	-32.6	19.3	6.05e-01	0	43	0	409468928	23	4644
2026-01-15 12:03:11.19	156.25	42.35	-30.4	-32.7	19.3	6.06e-01	0	43	0	411041792	23	4672
2026-01-15 12:03:12.19	156.22	42.69	-30.4	-33.1	19.4	6.09e-01	0	43	0	413138944	22	4905
2026-01-15 12:03:13.19	156.18	43.02	-30.3	-32.8	19.5	6.05e-01	0	43	0	414711808	22	4828
2026-01-15 12:03:14.19	156.14	43.36	-30.1	-32.3	19.9	6.07e-01	0	43	0	416808960	22	4643
2026-01-15 12:03:15.19	156.09	43.71	-30.0	-32.2	19.9	6.05e-01	0	43	0	418381824	22	4597
2026-01-15 12:03:16.19	156.05	44.05	-30.3	-32.8	19.5	6.07e-01	0	43	0	420478976	22	4791
2026-01-15 12:03:17.20	156.01	44.41	-30.2	-32.5	19.7	6.05e-01	0	43	0	422576128	22	4700
2026-01-15 12:03:18.20	155.96	44.76	-30.1	-32.2	19.9	6.07e-01	0	43	0	424148992	22	4613
2026-01-15 12:03:19.21	155.92	45.12	-30.2	-32.5	19.8	6.08e-01	0	43	0	426246144	22	4689
2026-01-15 12:03:20.20	155.87	45.47	-30.1	-32.4	19.8	6.07e-01	0	43	0	427819008	22	4658
2026-01-15 12:03:21.20	155.83	45.84	-29.9	-31.9	20.1	6.06e-01	0	43	0	429916160	22	4516
2026-01-15 12:03:22.20	155.78	46.20	-30.0	-32.2	20.0	6.07e-01	0	43	0	431489024	22	4594
2026-01-15 12:03:23.20	155.73	46.57	-30.6	-33.7	19.0	6.05e-01	0	43	0	433586176	22	5127
2026-01-15 12:03:24.20	155.68	46.95	-30.6	-33.6	19.1	6.07e-01	0	43	0	435683328	22	5081
2026-01-15 12:03:25.20	155.62	47.32	-30.5	-33.4	19.2	6.07e-01	0	43	0	437256192	22	5010
2026-01-15 12:03:26.20	155.57	47.70	-30.8	-34.1	18.8	6.05e-01	0	43	0	439353344	22	5270
2026-01-15 12:03:27.21	155.51	48.09	-30.5	-33.2	19.3	6.06e-01	0	43	0	440926208	22	4949
2026-01-15 12:03:28.21	155.46	48.48	-30.1	-32.3	19.9	6.06e-01	0	43	0	443023360	22	4643
2026-01-15 12:03:29.21	155.40	48.87	-30.3	-32.7	19.6	6.06e-01	0	43	0	445120512	22	4781
2026-01-15 12:03:30.22	155.34	49.27	-30.1	-32.4	19.8	6.06e-01	0	43	0	446693376	22	4676
2026-01-15 12:03:31.21	155.27	49.66	-30.0	-32.1	20.0	6.05e-01	0	43	0	448790528	22	4573
2026-01-15 12:03:32.21	155.21	50.06	-29.6	-31.7	20.5	6.08e-01	0	43	0	450363392	21	4560
2026-01-15 12:03:33.21	155.15	50.47	-29.4	-31.5	20.9	6.06e-01	0	43	0	452460544	20	4610
2026-01-15 12:03:34.20	155.08	50.87	-29.8	-32.5	20.3	6.07e-01	0	43	0	454033408	20	4937
2026-01-15 12:03:35.21	155.01	51.29	-29.6	-32.0	20.6	6.05e-01	0	43	0	456130560	20	4772
2026-01-15 12:03:36.22	154.94	51.71	-29.5	-31.8	20.7	6.08e-01	0	43	0	458227712	20	4694
2026-01-15 12:03:37.22	154.86	52.13	-29.7	-32.3	20.5	6.07e-01	0	43	0	459800576	20	4852
2026-01-15 12:03:38.22	154.79	52.55	-29.5	-31.8	20.8	6.07e-01	0	43	0	461897728	20	4684
2026-01-15 12:03:39.22	154.71	52.98	-29.5	-32.0	20.6	6.05e-01	0	43	0	463470592	20	4759
2026-01-15 12:03:40.22	154.63	53.41	-29.7	-32.4	20.4	6.07e-01	0	43	0	465567744	20	4892
2026-01-15 12:03:41.23	154.54	53.85	-29.5	-31.7	20.8	6.07e-01	0	43	0	467664896	20	4676
2026-01-15 12:03:42.23	154.46	54.29	-29.6	-32.1	20.6	6.06e-01	0	43	0	469237760	20	4785
2026-01-15 12:03:43.23	154.37	54.73	-29.6	-32.1	20.6	6.07e-01	0	43	0	471334912	20	4777
2026-01-15 12:03:44.24	154.28	55.19	-30.1	-32.8	19.9	6.06e-01	0	43	0	472907776	21	4919
2026-01-15 12:03:45.24	154.18	55.64	-29.6	-31.7	20.6	6.06e-01	0	43	0	475004928	21	4543
2026-01-15 12:03:46.24	154.08	56.09	-29.7	-31.8	20.6	6.07e-01	0	43	0	477102080	21	4574
2026-01-15 12:03:47.25	153.98	56.55	-29.8	-32.0	20.4	6.05e-01	0	43	0	478674944	21	4654
2026-01-15 12:03:48.25	153.88	57.02	-29.9	-32.2	20.2	6.07e-01	0	43	0	480772096	21	4729
2026-01-15 12:03:49.26	153.77	57.49	-30.0	-32.5	20.1	6.05e-01	0	43	0	482344960	21	4797
2026-01-15 12:03:50.26	153.65	57.96	-29.8	-32.0	20.4	6.05e-01	0	43	0	484442112	21	4651
2026-01-15 12:03:51.27	153.54	58.44	-30.2	-33.2	19.7	6.06e-01	0	43	0	486014976	21	5043
2026-01-15 12:03:52.27	153.42	58.91	-30.4	-33.5	19.5	6.07e-01	0	43	0	488112128	21	5155
2026-01-15 12:03:53.27	153.29	59.40	-30.2	-33.1	19.8	6.07e-01	0	43	0	490209280	21	5021
2026-01-15 12:03:54.27	153.16	59.88	-30.4	-33.6	19.4	6.09e-01	0	43	0	491782144	21	5200
2026-01-15 12:03:55.28	153.02	60.38	-30.7	-33.9	19.0	6.07e-01	0	43	0	493879296	22	5183
2026-01-15 12:03:56.28	152.88	60.87	-30.5	-33.2	19.4	6.07e-01	0	43	0	495452160	22	4938
2026-01-15 12:03:57.28	152.73	61.36	-31.0	-34.7	18.5	6.07e-01	0	43	0	497549312	22	5508
2026-01-15 12:03:58.28	152.58	61.87	-30.8	-34.2	18.8	6.07e-01	0	43	0	499646464	22	5297
2026-01-15 12:03:59.29	152.42	62.37	-31.2	-34.6	18.3	6.07e-01	0	43	0	501219328	23	5335
2026-01-15 12:04:00.30	152.25	62.89	-31.5	-35.6	17.6	6.08e-01	0	43	0	503316480	23	5772
2026-01-15 12:04:01.30	152.07	63.40	-31.4	-35.3	17.8	6.06e-01	0	43	0	504889344	23	5631
2026-01-15 12:04:02.30	151.89	63.91	-31.5	-35.6	17.6	6.05e-01	0	43	0	506986496	23	5753
2026-01-15 12:04:03.30	151.70	64.43	-31.6	-35.4	17.4	6.05e-01	0	43	0	508559360	24	5587
2026-01-15 12:04:04.29	151.50	64.95	-31.9	-36.3	16.9	6.06e-01	0	43	0	510656512	24	5952
2026-01-15 12:04:05.30	151.29	65.48	-32.0	-36.1	16.6	6.05e-01	0	43	0	512753664	25	5775
2026-01-15 12:04:06.29	151.07	66.00	-31.9	-35.8	16.9	6.07e-01	0	43	0	514326528	25	5638
2026-01-15 12:04:07.29	150.84	66.53	-32.4	-37.4	15.9	6.05e-01	0	43	0	516423680	25	6401
2026-01-15 12:04:08.29	150.59	67.07	-32.3	-37.1	16.0	6.07e-01	0	43	0	517996544	25	6268
2026-01-15 12:04:09.30	150.33	67.61	-32.6	-37.6	15.2	6.07e-01	0	43	0	520093696	26	6413
2026-01-15 12:04:10.30	150.06	68.15	-32.4	-36.8	15.9	6.07e-01	0	43	0	522190848	26	5966
2026-01-15 12:04:11.31	149.77	68.70	-32.6	-37.3	15.5	6.08e-01	0	43	0	523763712	26	6220
2026-01-15 12:04:12.31	149.47	69.25	-32.7	-38.0	15.0	6.07e-01	0	43	0	525860864	26	6603
2026-01-15 12:04:13.31	149.15	69.80	-32.3	-36.5	16.1	6.08e-01	0	43	0	527433728	26	5821
2026-01-15 12:04:14.30	148.81	70.35	-32.6	-37.5	15.3	6.08e-01	0	43	0	529530880	26	6355
2026-01-15 12:04:15.31	148.45	70.91	-32.3	-36.6	16.0	6.07e-01	0	43	0	531103744	26	5860
2026-01-15 12:04:16.31	148.06	71.47	-32.1	-36.0	16.3	6.07e-01	0	43	0	533200896	26	5616
2026-01-15 12:04:17.30	147.66	72.02	-32.3	-36.5	16.0	6.07e-01	0	43	0	535298048	26	5854
2026-01-15 12:04:18.30	147.22	72.58	-32.1	-35.8	16.5	6.06e-01	0	43	0	536870912	26	5505
2026-01-15 12:04:19.30	146.75	73.14	-32.0	-35.4	16.9	6.07e-01	0	43	0	538968064	26	5339
2026-01-15 12:04:20.31	146.24	73.72	-32.0	-35.3	16.9	6.05e-01	0	43	0	540540928	26	5299
2026-01-15 12:04:21.31	145.69	74.28	-32.1	-35.8	16.6	6.06e-01	0	43	0	542638080	26	5518
2026-01-15 12:04:22.31	145.11	74.85	-31.9	-35.2	17.0	6.06e-01	0	43	0	544210944	26	5260
2026-01-15 12:04:23.31	144.47	75.42	-31.9	-35.2	17.0	6.06e-01	0	43	0	546308096	26	5266
2026-01-15 12:04:24.31	143.79	75.99	-32.0	-35.7	16.7	6.07e-01	0	43	0	548405248	26	5460
2026-01-15 12:04:25.31	143.04	76.56	-31.6	-35.0	17.4	6.07e-01	0	43	0	549978112	25	5269
2026-01-15 12:04:26.31	142.22	77.13	-31.9	-35.5	17.2	6.06e-01	0	43	0	552075264	25	5490
2026-01-15 12:04:27.31	141.32	77.70	-31.9	-35.6	17.0	6.07e-01	0	43	0	553648128	25	5523
2026-01-15 12:04:28.31	140.34	78.26	-31.3	-34.4	18.2	6.07e-01	0	43	0	555745280	24	5149
2026-01-15 12:04:29.31	139.25	78.83	-31.2	-34.1	18.4	6.08e-01	0	43	0	557318144	24	5031
2026-01-15 12:04:30.31	138.05	79.39	-31.2	-34.0	18.4	6.05e-01	0	43	0	559415296	24	4967
2026-01-15 12:04:31.32	136.69	79.96	-30.9	-33.7	19.0	6.08e-01	0	43	0	561512448	23	4970
2026-01-15 12:04:32.32	135.18	80.51	-30.8	-33.4	19.1	6.06e-01	0	43	0	563085312	23	4871
2026-01-15 12:04:33.33	133.47	81.07	-30.9	-33.7	18.9	6.07e-01	0	43	0	565182464	23	4982
2026-01-15 12:04:34.32	131.56	81.60	-30.4	-32.9	19.8	6.05e-01	0	43	0	566755328	22	4810
2026-01-15 12:04:35.33	129.35	82.14	-30.6	-33.5	19.4	6.06e-01	0	43	0	568852480	22	5014
2026-01-15 12:04:36.33	126.84	82.66	-30.9	-34.2	19.0	6.07e-01	0	43	0	570949632	22	5261
2026-01-15 12:04:37.34	123.92	83.17	-30.8	-33.5	19.1	6.07e-01	0	43	0	572522496	23	4910
2026-01-15 12:04:38.35	120.53	83.66	-31.1	-34.2	18.8	6.07e-01	0	43	0	574619648	23	5138
2026-01-15 12:04:39.34	116.67	84.12	-31.3	-34.8	18.3	6.05e-01	0	43	0	576192512	23	5392
2026-01-15 12:04:40.34	112.13	84.55	-30.9	-33.6	19.1	6.08e-01	0	43	0	578289664	23	4936
2026-01-15 12:04:41.34	106.84	84.94	-31.0	-34.0	18.9	6.08e-01	0	43	0	580386816	23	5086
2026-01-15 12:04:42.35	100.66	85.29	-31.0	-34.1	18.9	6.06e-01	0	43	0	581959680	23	5091
2026-01-15 12:04:43.35	93.67	85.57	-30.5	-32.6	19.8	6.07e-01	0	43	0	584056832	23	4578
2026-01-15 12:04:44.35	85.88	85.77	-30.5	-32.6	19.7	6.06e-01	0	43	0	585629696	23	4594
2026-01-15 12:04:45.36	77.36	85.89	-30.8	-33.3	19.3	6.07e-01	0	43	0	587726848	23	4833
2026-01-15 12:04:46.35	68.71	85.92	-30.3	-32.5	20.1	6.07e-01	0	43	0	589299712	22	4645
2026-01-15 12:04:47.36	59.98	85.85	-30.5	-33.2	19.7	6.08e-01	0	43	0	591396864	22	4890
2026-01-15 12:04:48.36	51.78	85.70	-30.8	-33.8	19.2	6.06e-01	0	43	0	593494016	22	5125
2026-01-15 12:04:49.36	44.31	85.46	-30.4	-33.0	19.8	6.06e-01	0	43	0	595066880	22	4815
2026-01-15 12:04:50.36	37.68	85.15	-31.2	-34.5	18.6	6.08e-01	0	43	0	597164032	23	5264
2026-01-15 12:04:51.36	31.92	84.79	-31.3	-34.6	18.4	6.07e-01	0	43	0	598736896	23	5318
2026-01-15 12:04:52.36	26.95	84.38	-31.2	-34.4	18.6	6.07e-01	0	43	0	600834048	23	5227
2026-01-15 12:04:53.36	22.68	83.94	-31.4	-35.0	18.2	6.07e-01	0	43	0	602406912	23	5466
2026-01-15 12:04:54.36	19.02	83.46	-31.3	-34.4	18.3	6.06e-01	0	43	0	604504064	24	5116
2026-01-15 12:04:55.36	15.87	82.97	-31.2	-34.0	18.6	6.09e-01	0	43	0	606601216	24	4953
2026-01-15 12:04:56.36	13.14	82.46	-31.2	-34.0	18.6	6.08e-01	0	43	0	608174080	24	4977
2026-01-15 12:04:57.36	10.76	81.93	-31.5	-34.7	18.1	6.07e-01	0	43	0	610271232	24	5250
2026-01-15 12:04:58.36	8.68	81.40	-31.5	-34.7	18.1	6.08e-01	0	43	0	611844096	24	5245
2026-01-15 12:04:59.36	6.85	80.85	-31.1	-33.8	18.6	6.07e-01	0	43	0	613941248	24	4908
2026-01-15 12:05:00.36	5.23	80.30	-31.1	-33.8	18.7	6.06e-01	0	43	0	616038400	24	4897
2026-01-15 12:05:01.36	3.79	79.74	-31.2	-34.0	18.5	6.07e-01	0	43	0	617611264	24	4990
2026-01-15 12:05:02.36	2.50	79.18	-31.6	-35.3	17.8	6.06e-01	0	43	0	619708416	24	5486
2026-01-15 12:05:03.36	1.34	78.62	-32.1	-36.3	16.7	6.05e-01	0	43	0	621281280	25	5807
2026-01-15 12:05:04.36	0.30	78.05	-32.1	-36.2	16.8	6.06e-01	0	43	0	623378432	25	5748
2026-01-15 12:05:05.37	359.34	77.48	-32.1	-36.1	16.9	6.06e-01	0	43	0	624951296	25	5732
2026-01-15 12:05:06.37	358.47	76.91	-32.5	-37.4	15.9	6.06e-01	0	43	0	627048448	25	6361
2026-01-15 12:05:07.37	357.69	76.34	-32.5	-37.5	15.9	6.08e-01	0	43	0	629145600	25	6404
2026-01-15 12:05:08.37	356.96	75.78	-32.7	-37.6	15.3	6.08e-01	0	43	0	630718464	26	6353
2026-01-15 12:05:09.37	356.30	75.21	-32.2	-35.9	16.6	6.06e-01	0	43	0	632815616	26	5522
2026-01-15 12:05:10.37	355.68	74.64	-32.2	-35.9	16.7	6.05e-01	0	43	0	634388480	26	5518
2026-01-15 12:05:11.37	355.11	74.07	-32.2	-35.9	16.6	6.06e-01	0	43	0	636485632	26	5530
2026-01-15 12:05:12.37	354.58	73.51	-32.4	-36.6	16.2	6.09e-01	0	43	0	638058496	26	5844
2026-01-15 12:05:13.37	354.09	72.95	-32.1	-35.7	16.7	6.06e-01	0	43	0	640155648	26	5440
2026-01-15 12:05:14.37	353.64	72.38	-32.3	-36.1	16.5	6.08e-01	0	43	0	642252800	26	5612
2026-01-15 12:05:15.37	353.21	71.82	-32.8	-37.9	15.2	6.07e-01	0	43	0	643825664	26	6490
2026-01-15 12:05:16.37	352.81	71.27	-32.3	-36.4	16.3	6.07e-01	0	43	0	645922816	26	5720
2026-01-15 12:05:17.36	352.44	70.72	-32.5	-36.8	16.0	6.08e-01	0	43	0	647495680	26	5938
2026-01-15 12:05:18.36	352.08	70.16	-33.0	-38.8	14.5	6.08e-01	0	43	0	649592832	26	7025
2026-01-15 12:05:19.35	351.75	69.62	-32.8	-38.1	15.0	6.06e-01	0	43	0	651165696	26	6595
2026-01-15 12:05:20.35	351.44	69.07	-32.6	-37.1	15.8	6.07e-01	0	43	0	653262848	26	6070
2026-01-15 12:05:21.35	351.14	68.53	-32.7	-37.8	15.2	6.08e-01	0	43	0	655360000	26	6448
2026-01-15 12:05:22.35	350.86	67.98	-32.8	-38.1	14.9	6.07e-01	0	43	0	656932864	26	6641
2026-01-15 12:05:23.35	350.60	67.45	-32.3	-36.4	16.2	6.09e-01	0	43	0	659030016	26	5738
2026-01-15 12:05:24.36	350.34	66.90	-32.1	-35.6	16.8	6.08e-01	0	43	0	660602880	26	5380
2026-01-15 12:05:25.35	350.10	66.38	-32.1	-35.6	16.8	6.07e-01	0	43	0	662700032	26	5410
2026-01-15 12:05:26.35	349.88	65.85	-32.2	-36.1	16.4	6.06e-01	0	43	0	664272896	26	5648
2026-01-15 12:05:27.36	349.66	65.32	-31.9	-35.2	17.0	6.08e-01	0	43	0	666370048	26	5225
2026-01-15 12:05:28.36	349.45	64.79	-31.7	-34.9	17.5	6.07e-01	0	43	0	668467200	25	5220
2026-01-15 12:05:29.37	349.25	64.27	-31.8	-35.2	17.4	6.07e-01	0	43	0	670040064	25	5343
2026-01-15 12:05:30.36	349.07	63.76	-32.1	-36.4	16.5	6.06e-01	0	43	0	672137216	25	5882
2026-01-15 12:05:31.37	348.89	63.24	-31.5	-34.3	17.9	6.07e-01	0	43	0	673710080	25	5009
2026-01-15 12:05:32.36	348.71	62.74	-31.0	-33.6	18.7	6.06e-01	0	43	0	675807232	24	4822
2026-01-15 12:05:33.36	348.55	62.23	-31.1	-33.9	18.5	6.06e-01	0	43	0	677904384	24	4949
2026-01-15 12:05:34.36	348.39	61.73	-30.7	-33.3	19.1	6.07e-01	0	43	0	679477248	23	4841
2026-01-15 12:05:35.36	348.24	61.23	-30.8	-33.4	19.1	6.06e-01	0	43	0	681574400	23	4868
2026-01-15 12:05:36.36	348.10	60.74	-30.9	-33.9	18.7	6.08e-01	0	43	0	683147264	23	5067
2026-01-15 12:05:37.36	347.96	60.25	-30.6	-32.9	19.4	6.06e-01	0	44	0	685244416	23	4697
2026-01-15 12:05:38.36	347.82	59.76	-30.3	-32.7	19.8	6.06e-01	0	43	0	686817280	22	4743
2026-01-15 12:05:39.37	347.69	59.27	-30.7	-33.8	19.1	6.07e-01	0	43	0	688914432	22	5148
2026-01-15 12:05:40.38	347.57	58.79	-30.5	-33.1	19.5	6.06e-01	0	43	0	691011584	22	4886
2026-01-15 12:05:41.38	347.45	58.32	-30.1	-32.3	20.1	6.07e-01	0	43	0	692584448	22	4593
2026-01-15 12:05:42.39	347.33	57.84	-30.5	-33.1	19.6	6.05e-01	0	43	0	694681600	22	4880
2026-01-15 12:05:43.38	347.22	57.38	-30.2	-32.5	20.0	6.07e-01	0	43	0	696254464	22	4676
2026-01-15 12:05:44.38	347.11	56.91	-30.0	-31.9	20.3	6.07e-01	0	43	0	698351616	22	4490
2026-01-15 12:05:45.38	347.01	56.45	-30.2	-32.4	20.0	6.07e-01	0	43	0	700448768	22	4636
2026-01-15 12:05:46.38	346.91	56.00	-30.4	-33.0	19.6	6.07e-01	0	43	0	702021632	22	4840
2026-01-15 12:05:47.38	346.81	55.55	-29.7	-31.8	20.6	6.07e-01	0	43	0	704118784	21	4549
2026-01-15 12:05:48.37	346.72	55.10	-29.4	-31.0	21.0	6.06e-01	0	43	0	705691648	21	4328
2026-01-15 12:05:49.37	346.63	54.66	-29.3	-31.2	21.2	6.05e-01	0	43	0	707788800	20	4479
2026-01-15 12:05:50.37	346.54	54.22	-29.3	-31.1	21.2	6.06e-01	0	43	0	709361664	20	4469
2026-01-15 12:05:51.37	346.46	53.78	-29.2	-31.1	21.3	6.06e-01	0	43	0	711458816	20	4455
2026-01-15 12:05:52.38	346.37	53.34	-29.4	-31.5	21.1	6.06e-01	0	43	0	713555968	20	4593
2026-01-15 12:05:53.38	346.29	52.91	-29.5	-31.7	20.9	6.04e-01	0	43	0	715128832	20	4638
2026-01-15 12:05:54.38	346.22	52.49	-29.2	-31.1	21.3	6.09e-01	0	43	0	717225984	20	4452
2026-01-15 12:05:55.37	346.14	52.07	-29.3	-31.1	21.2	6.08e-01	0	43	0	718798848	20	4477
2026-01-15 12:05:56.38	346.07	51.65	-29.3	-31.2	21.2	6.09e-01	0	43	0	720896000	20	4493
2026-01-15 12:05:57.37	346.00	51.24	-29.5	-31.8	20.9	6.07e-01	0	43	0	722468864	20	4668
2026-01-15 12:05:58.37	345.93	50.83	-30.0	-32.9	20.2	6.07e-01	0	43	0	724566016	20	5051
2026-01-15 12:05:59.36	345.87	50.43	-29.9	-32.8	20.2	6.05e-01	0	43	0	726663168	20	5024
2026-01-15 12:06:00.36	345.80	50.02	-29.8	-32.4	20.5	6.06e-01	0	43	0	728236032	20	4873
2026-01-15 12:06:01.35	345.74	49.63	-29.9	-32.8	20.2	6.06e-01	0	43	0	730333184	20	5022
2026-01-15 12:06:02.35	345.68	49.23	-30.2	-33.0	19.8	6.06e-01	0	43	0	731906048	21	4978
2026-01-15 12:06:03.35	345.62	48.84	-30.2	-32.9	19.9	6.06e-01	0	43	0	734003200	21	4942
2026-01-15 12:06:04.35	345.56	48.45	-30.0	-32.5	20.1	6.06e-01	0	43	0	735576064	21	4802
2026-01-15 12:06:05.35	345.50	48.07	-30.0	-32.4	20.2	6.06e-01	0	43	0	737673216	21	4768
2026-01-15 12:06:06.35	345.45	47.69	-30.0	-32.4	20.2	6.07e-01	0	43	0	739770368	21	4765
2026-01-15 12:06:07.35	345.39	47.31	-29.9	-32.3	20.3	6.09e-01	0	43	0	741343232	21	4716
2026-01-15 12:06:08.36	345.34	46.93	-29.9	-32.1	20.4	6.08e-01	0	43	0	743440384	21	4664
2026-01-15 12:06:09.36	345.29	46.56	-30.1	-32.6	20.1	6.06e-01	0	43	0	745013248	21	4820
2026-01-15 12:06:10.35	345.24	46.19	-30.3	-33.1	19.8	6.08e-01	0	43	0	747110400	21	5014
2026-01-15 12:06:11.34	345.19	45.83	-30.4	-33.4	19.7	6.06e-01	0	43	0	748683264	21	5096
2026-01-15 12:06:12.34	345.15	45.47	-30.4	-33.6	19.5	6.07e-01	0	43	0	750780416	21	5190
2026-01-15 12:06:13.34	345.10	45.12	-30.4	-33.5	19.5	6.05e-01	0	43	0	752877568	21	5135
2026-01-15 12:06:14.34	345.06	44.76	-30.4	-33.6	19.5	6.08e-01	0	43	0	754450432	21	5181
2026-01-15 12:06:15.34	345.01	44.41	-30.6	-33.6	19.2	6.07e-01	0	43	0	756547584	22	5085
2026-01-15 12:06:16.34	344.97	44.06	-30.8	-34.0	18.9	6.05e-01	0	43	0	758120448	22	5214
2026-01-15 12:06:17.33	344.93	43.72	-30.7	-33.8	19.0	6.03e-01	0	43	0	760217600	22	5136
2026-01-15 12:06:18.33	344.89	43.38	-30.4	-32.9	19.6	6.06e-01	0	43	0	761790464	22	4803
2026-01-15 12:06:19.34	344.85	43.04	-30.2	-32.5	19.8	6.06e-01	0	43	0	763887616	22	4692
2026-01-15 12:06:20.34	344.81	42.70	-30.2	-32.5	19.8	6.07e-01	0	43	0	765984768	22	4678
2026-01-15 12:06:21.34	344.77	42.37	-30.2	-32.5	19.8	6.07e-01	0	43	0	767557632	22	4686
2026-01-15 12:06:22.33	344.73	42.05	-30.4	-33.0	19.6	6.06e-01	0	43	0	769654784	22	4850
2026-01-15 12:06:23.33	344.70	41.72	-30.6	-33.6	19.2	6.08e-01	0	43	0	771227648	22	5064
2026-01-15 12:06:24.33	344.66	41.40	-30.8	-34.0	18.9	6.07e-01	0	43	0	773324800	22	5237
2026-01-15 12:06:25.33	344.63	41.08	-30.8	-34.0	18.9	6.04e-01	0	43	0	774897664	22	5210
2026-01-15 12:06:26.33	344.59	40.76	-30.8	-34.0	18.9	6.07e-01	0	43	0	776994816	22	5225
2026-01-15 12:06:27.33	344.56	40.45	-30.9	-34.2	18.8	6.06e-01	0	43	0	779091968	22	5289
2026-01-15 12:06:28.32	344.53	40.14	-30.9	-34.4	18.6	6.07e-01	0	43	0	780664832	22	5377
2026-01-15 12:06:29.33	344.50	39.83	-30.9	-34.3	18.7	6.06e-01	0	43	0	782761984	22	5313
2026-01-15 12:06:30.33	344.47	39.52	-30.9	-34.5	18.6	6.05e-01	0	43	0	784334848	22	5392
2026-01-15 12:06:31.34	344.44	39.22	-31.0	-34.7	18.4	6.08e-01	0	43	0	786432000	22	5501
2026-01-15 12:06:32.33	344.41	38.92	-31.0	-34.6	18.5	6.08e-01	0	43	0	788529152	22	5461
2026-01-15 12:06:33.33	344.38	38.63	-30.9	-34.3	18.7	6.08e-01	0	43	0	790102016	22	5314
2026-01-15 12:06:34.33	344.35	38.33	-30.9	-34.2	18.7	6.08e-01	0	43	0	792199168	22	5308
2026-01-15 12:06:35.34	344.32	38.04	-30.7	-33.9	18.9	6.07e-01	0	43	0	793772032	22	5174
2026-01-15 12:06:36.34	344.29	37.75	-30.6	-33.6	19.1	6.06e-01	0	44	0	795869184	22	5085
2026-01-15 12:06:37.34	344.27	37.46	-30.6	-33.6	19.1	6.07e-01	0	43	0	797442048	22	5071
2026-01-15 12:06:38.35	344.24	37.18	-30.6	-33.5	19.2	6.06e-01	0	43	0	799539200	22	5043
2026-01-15 12:06:39.36	344.21	36.89	-30.6	-33.4	19.2	6.07e-01	0	43	0	801636352	22	5011
2026-01-15 12:06:40.35	344.19	36.62	-30.5	-33.2	19.4	6.05e-01	0	43	0	803209216	22	4919
2026-01-15 12:06:41.35	344.16	36.34	-30.3	-32.8	19.6	6.06e-01	0	43	0	805306368	22	4806
2026-01-15 12:06:42.36	344.14	36.06	-30.3	-32.8	19.6	6.05e-01	0	43	0	806879232	22	4784
2026-01-15 12:06:43.36	344.12	35.79	-30.3	-32.7	19.7	6.08e-01	0	43	0	808976384	22	4746
2026-01-15 12:06:44.36	344.09	35.52	-30.1	-32.2	20.0	6.07e-01	0	43	0	810549248	22	4600
2026-01-15 12:06:45.36	344.07	35.26	-30.2	-32.6	19.7	6.05e-01	0	43	0	812646400	22	4726
2026-01-15 12:06:46.36	344.05	34.99	-30.3	-32.7	19.6	6.07e-01	0	43	0	814743552	22	4750
2026-01-15 12:06:47.37	344.02	34.73	-30.1	-32.2	19.9	6.07e-01	0	43	0	816316416	22	4598
2026-01-15 12:06:48.37	344.00	34.47	-30.0	-31.9	20.1	6.06e-01	0	43	0	818413568	22	4514
2026-01-15 12:06:49.37	343.98	34.21	-29.9	-31.9	20.1	6.06e-01	0	44	0	819986432	22	4495
2026-01-15 12:06:50.37	343.96	33.96	-29.9	-31.9	20.1	6.08e-01	0	43	0	822083584	22	4490
2026-01-15 12:06:51.37	343.94	33.71	-29.8	-31.9	20.4	6.08e-01	0	43	0	823656448	21	4612
2026-01-15 12:06:52.37	343.92	33.46	-29.6	-31.4	20.7	6.08e-01	0	43	0	825753600	21	4465
2026-01-15 12:06:53.36	343.90	33.21	-29.4	-31.1	20.8	6.07e-01	0	43	0	827850752	21	4373
2026-01-15 12:06:54.37	343.88	32.96	-29.4	-31.0	20.9	6.07e-01	0	43	0	829423616	21	4336
2026-01-15 12:06:55.36	343.86	32.72	-29.3	-31.4	21.0	6.05e-01	0	43	0	831520768	20	4571
2026-01-15 12:06:56.37	343.84	32.48	-29.2	-31.0	21.2	6.08e-01	0	43	0	833093632	20	4455
2026-01-15 12:06:57.38	343.83	32.23	-29.2	-31.0	21.2	6.03e-01	0	43	0	835190784	20	4449
2026-01-15 12:06:58.38	343.81	32.00	-29.2	-31.1	21.1	6.01e-01	0	43	0	837287936	20	4484
2026-01-15 12:06:59.37	343.79	31.76	-29.2	-31.1	21.1	6.03e-01	0	43	0	838860800	20	4481
2026-01-15 12:07:00.38	343.77	31.53	-29.2	-31.0	21.2	6.02e-01	0	43	0	840957952	20	4435
2026-01-15 12:07:01.37	343.76	31.30	-29.2	-31.2	21.0	6.04e-01	0	43	0	842530816	20	4487
2026-01-15 12:07:02.38	343.74	31.07	-29.3	-31.4	20.9	6.01e-01	0	43	0	844627968	20	4562
2026-01-15 12:07:03.38	343.72	30.84	-29.4	-31.5	20.8	6.03e-01	0	43	0	846725120	20	4587
2026-01-15 12:07:04.38	343.71	30.61	-29.5	-31.8	20.7	6.05e-01	0	43	0	848297984	20	4687
2026-01-15 12:07:05.39	343.69	30.39	-29.5	-31.9	20.5	6.04e-01	0	43	0	850395136	20	4739
2026-01-15 12:07:06.39	343.68	30.16	-29.6	-32.0	20.5	6.04e-01	0	43	0	851968000	20	4765
2026-01-15 12:07:07.40	343.66	29.94	-29.6	-32.1	20.5	6.02e-01	0	43	0	854065152	20	4794
2026-01-15 12:07:08.41	343.65	29.72	-29.5	-31.9	20.6	6.05e-01	0	43	0	855638016	20	4730
2026-01-15 12:07:09.41	343.63	29.50	-29.6	-32.0	20.6	6.03e-01	0	43	0	857735168	20	4754
2026-01-15 12:07:10.41	343.62	29.29	-29.6	-32.0	20.5	6.01e-01	0	43	0	859832320	20	4766
2026-01-15 12:07:11.41	343.60	29.08	-29.5	-31.8	20.7	6.03e-01	0	43	0	861405184	20	4693
2026-01-15 12:07:12.41	343.59	28.86	-29.5	-31.8	20.6	6.03e-01	0	43	0	863502336	20	4700
2026-01-15 12:07:13.41	343.58	28.65	-29.5	-31.8	20.7	6.05e-01	0	43	0	865075200	20	4695
2026-01-15 12:07:14.41	343.56	28.45	-29.3	-31.4	20.9	6.05e-01	0	43	0	867172352	20	4568
2026-01-15 12:07:15.41	343.55	28.24	-29.4	-31.5	20.8	6.04e-01	0	43	0	868745216	20	4601
2026-01-15 12:07:16.40	343.54	28.04	-29.4	-31.4	20.8	6.04e-01	0	43	0	870842368	20	4578
2026-01-15 12:07:17.40	343.52	27.83	-29.3	-31.4	20.9	6.05e-01	0	43	0	872939520	20	4556
2026-01-15 12:07:18.40	343.51	27.63	-29.4	-31.6	20.8	6.02e-01	0	43	0	874512384	20	4628
2026-01-15 12:07:19.41	343.50	27.43	-29.4	-31.7	20.8	6.03e-01	0	43	0	876609536	20	4646
2026-01-15 12:07:20.40	343.49	27.23	-29.6	-32.1	20.5	6.04e-01	0	43	0	878182400	20	4794
2026-01-15 12:07:21.41	343.47	27.04	-29.7	-32.2	20.4	6.02e-01	0	43	0	880279552	20	4825
2026-01-15 12:07:22.41	343.46	26.84	-29.7	-32.4	20.3	6.06e-01	0	43	0	882376704	20	4890
2026-01-15 12:07:23.40	343.45	26.65	-29.8	-32.5	20.2	6.03e-01	0	43	0	883949568	20	4938
2026-01-15 12:07:24.41	343.44	26.45	-29.9	-32.7	20.1	6.03e-01	0	43	0	886046720	20	5003
2026-01-15 12:07:25.41	343.43	26.26	-29.9	-32.9	20.0	6.02e-01	0	43	0	887619584	20	5058
2026-01-15 12:07:26.41	343.42	26.07	-29.9	-32.9	20.0	6.04e-01	0	43	0	889716736	20	5072
2026-01-15 12:07:27.40	343.41	25.89	-30.0	-33.1	19.8	6.00e-01	0	43	0	891289600	20	5144
2026-01-15 12:07:28.40	343.40	25.70	-30.0	-33.0	19.9	6.02e-01	0	43	0	893386752	20	5110
2026-01-15 12:07:29.40	343.39	25.52	-30.0	-33.1	19.8	6.03e-01	0	43	0	895483904	20	5158
2026-01-15 12:07:30.40	343.38	25.33	-30.2	-33.1	19.5	6.01e-01	0	43	0	897056768	21	5029
2026-01-15 12:07:31.40	343.37	25.15	-30.2	-33.1	19.5	6.03e-01	0	43	0	899153920	21	5039
2026-01-15 12:07:32.40	343.36	24.97	-30.2	-33.2	19.5	6.02e-01	0	43	0	900726784	21	5059
2026-01-15 12:07:33.41	343.35	24.79	-30.2	-33.1	19.5	6.02e-01	0	43	0	902823936	21	5050
2026-01-15 12:07:34.41	343.34	24.61	-30.2	-33.1	19.5	6.01e-01	0	43	0	904396800	21	5031
2026-01-15 12:07:35.41	343.33	24.43	-30.3	-33.4	19.4	6.05e-01	0	43	0	906493952	21	5142
2026-01-15 12:07:36.42	343.32	24.25	-30.4	-33.6	19.2	6.04e-01	0	43	0	908591104	21	5221
2026-01-15 12:07:37.42	343.31	24.08	-30.4	-33.6	19.2	6.02e-01	0	43	0	910163968	21	5218
2026-01-15 12:07:38.42	343.30	23.91	-30.5	-33.9	19.0	6.03e-01	0	43	0	912261120	21	5338
2026-01-15 12:07:39.42	343.29	23.73	-30.5	-33.8	19.0	6.03e-01	0	43	0	913833984	21	5298
2026-01-15 12:07:40.42	343.28	23.56	-30.3	-33.5	19.2	6.05e-01	0	43	0	915931136	21	5185
2026-01-15 12:07:41.42	343.27	23.39	-30.4	-33.6	19.2	6.02e-01	0	43	0	917504000	21	5210
2026-01-15 12:07:42.42	343.27	23.23	-30.4	-33.6	19.2	6.02e-01	0	43	0	919601152	21	5200
2026-01-15 12:07:43.41	343.26	23.06	-30.3	-33.5	19.3	6.03e-01	0	43	0	921698304	21	5173
2026-01-15 12:07:44.41	343.25	22.89	-30.3	-33.3	19.4	6.03e-01	0	43	0	923271168	21	5100
2026-01-15 12:07:45.41	343.24	22.73	-30.1	-33.0	19.5	6.01e-01	0	43	0	925368320	21	4995
2026-01-15 12:07:46.42	343.23	22.56	-30.1	-32.8	19.6	6.05e-01	0	43	0	926941184	21	4915
2026-01-15 12:07:47.42	343.23	22.40	-30.0	-32.7	19.7	6.03e-01	0	43	0	929038336	21	4913
2026-01-15 12:07:48.42	343.22	22.24	-30.1	-32.8	19.6	6.04e-01	0	43	0	930611200	21	4934
2026-01-15 12:07:49.42	343.21	22.08	-30.0	-32.6	19.8	6.03e-01	0	43	0	932708352	21	4847
2026-01-15 12:07:50.42	343.20	21.92	-30.0	-32.7	19.6	6.03e-01	0	43	0	934805504	21	4913
2026-01-15 12:07:51.42	343.20	21.76	-30.1	-32.9	19.6	6.04e-01	0	43	0	936378368	21	4954
2026-01-15 12:07:52.42	343.19	21.61	-30.0	-32.6	19.7	6.02e-01	0	43	0	938475520	21	4870
2026-01-15 12:07:53.42	343.18	21.45	-30.1	-32.8	19.6	6.02e-01	0	43	0	940048384	21	4943
2026-01-15 12:07:54.42	343.18	21.30	-30.0	-32.7	19.7	6.04e-01	0	43	0	942145536	21	4897
2026-01-15 12:07:55.42	343.17	21.14	-30.0	-32.7	19.6	6.03e-01	0	43	0	944242688	21	4900
2026-01-15 12:07:56.42	343.16	20.99	-30.0	-32.7	19.7	6.03e-01	0	43	0	945815552	21	4892
2026-01-15 12:07:57.43	343.16	20.83	-30.0	-32.6	19.7	6.04e-01	0	43	0	947912704	21	4856
2026-01-15 12:07:58.42	343.15	20.69	-30.0	-32.6	19.7	6.02e-01	0	43	0	949485568	21	4879
2026-01-15 12:07:59.43	343.14	20.53	-30.0	-32.5	19.7	6.04e-01	0	43	0	951582720	21	4842
2026-01-15 12:08:00.43	343.14	20.39	-30.0	-32.6	19.6	6.03e-01	0	43	0	953155584	21	4875
2026-01-15 12:08:01.43	343.13	20.24	-30.0	-32.7	19.6	6.03e-01	0	43	0	955252736	21	4915
2026-01-15 12:08:02.43	343.12	20.09	-30.0	-32.7	19.6	6.03e-01	0	43	0	957349888	21	4902
2026-01-15 12:08:03.43	343.12	19.94	-30.1	-32.9	19.5	6.04e-01	0	43	0	958922752	21	4955
2026-01-15 12:08:04.44	343.11	19.80	-30.0	-32.7	19.6	6.04e-01	0	43	0	961019904	21	4898
2026-01-15 12:08:05.44	343.11	19.65	-30.0	-32.7	19.6	6.03e-01	0	43	0	962592768	21	4900
2026-01-15 12:08:06.44	343.10	19.51	-30.0	-32.7	19.5	6.04e-01	0	43	0	964689920	21	4907
2026-01-15 12:08:07.45	343.10	19.37	-30.0	-32.7	19.6	6.02e-01	0	43	0	966787072	21	4905
2026-01-15 12:08:08.44	343.09	19.23	-30.1	-32.9	19.4	6.03e-01	0	43	0	968359936	21	4983
2026-01-15 12:08:09.43	343.08	19.09	-30.2	-33.2	19.2	6.03e-01	0	43	0	970457088	21	5083
2026-01-15 12:08:10.43	343.08	18.95	-30.2	-33.3	19.1	6.03e-01	0	43	0	972029952	21	5132
2026-01-15 12:08:11.44	343.07	18.81	-30.3	-33.4	19.1	6.04e-01	0	43	0	974127104	21	5150
2026-01-15 12:08:12.44	343.07	18.67	-30.3	-33.5	19.1	6.02e-01	0	43	0	975699968	21	5186
2026-01-15 12:08:13.44	343.06	18.53	-30.3	-33.6	18.9	6.04e-01	0	43	0	977797120	21	5253
2026-01-15 12:08:14.44	343.06	18.40	-30.3	-33.4	19.1	6.03e-01	0	43	0	979894272	21	5159
2026-01-15 12:08:15.45	343.05	18.26	-30.2	-33.3	19.2	6.02e-01	0	43	0	981467136	21	5135
2026-01-15 12:08:16.44	343.05	18.13	-30.3	-33.5	19.0	6.04e-01	0	43	0	983564288	21	5189
2026-01-15 12:08:17.44	343.05	17.99	-30.1	-32.9	19.3	6.03e-01	0	43	0	985137152	21	5003
2026-01-15 12:08:18.44	343.04	17.86	-30.0	-32.8	19.4	6.03e-01	0	43	0	987234304	21	4950
2026-01-15 12:08:19.44	343.04	17.73	-30.0	-32.8	19.5	6.05e-01	0	43	0	989331456	21	4953
2026-01-15 12:08:20.44	343.03	17.60	-30.0	-32.7	19.5	6.03e-01	0	43	0	990904320	21	4930
2026-01-15 12:08:21.45	343.03	17.46	-30.0	-32.7	19.5	6.01e-01	0	43	0	993001472	21	4907
2026-01-15 12:08:22.45	343.02	17.33	-30.0	-32.6	19.5	6.02e-01	0	43	0	994574336	21	4897
2026-01-15 12:08:23.45	343.02	17.20	-30.0	-32.8	19.5	6.03e-01	0	43	0	996671488	21	4940
2026-01-15 12:08:24.46	343.01	17.07	-30.1	-33.0	19.3	6.03e-01	0	43	0	998244352	21	5030
2026-01-15 12:08:25.46	343.01	16.95	-30.2	-33.2	19.2	6.04e-01	0	43	0	1000341504	21	5083
2026-01-15 12:08:26.47	343.01	16.82	-30.0	-32.7	19.4	6.03e-01	0	43	0	1002438656	21	4930
2026-01-15 12:08:27.46	343.00	16.69	-29.9	-32.6	19.5	6.03e-01	0	43	0	1004011520	21	4870
2026-01-15 12:08:28.47	343.00	16.57	-29.9	-32.4	19.6	6.06e-01	0	43	0	1006108672	21	4818
2026-01-15 12:08:29.47	343.00	16.44	-29.9	-32.5	19.6	6.03e-01	0	43	0	1007681536	21	4837
2026-01-15 12:08:30.47	342.99	16.32	-29.8	-32.4	19.6	6.05e-01	0	43	0	1009778688	21	4804
2026-01-15 12:08:31.46	342.99	16.20	-29.9	-32.4	19.6	6.01e-01	0	43	0	1011351552	21	4825
2026-01-15 12:08:32.47	342.98	16.07	-29.9	-32.6	19.5	6.02e-01	0	43	0	1013448704	21	4872
2026-01-15 12:08:33.46	342.98	15.95	-30.0	-32.6	19.5	6.05e-01	0	43	0	1015545856	21	4904
2026-01-15 12:08:34.46	342.98	15.83	-29.9	-32.4	19.6	6.04e-01	0	43	0	1017118720	21	4812
2026-01-15 12:08:35.47	342.97	15.71	-29.8	-32.3	19.7	6.04e-01	0	43	0	1019215872	21	4771
2026-01-15 12:08:36.47	342.97	15.59	-29.8	-32.3	19.6	6.02e-01	0	43	0	1020788736	21	4799
2026-01-15 12:08:37.47	342.97	15.47	-29.8	-32.2	19.7	6.06e-01	0	43	0	1022885888	21	4769
2026-01-15 12:08:38.48	342.96	15.35	-29.8	-32.3	19.6	6.05e-01	0	43	0	1024983040	21	4795
2026-01-15 12:08:39.48	342.96	15.23	-29.9	-32.5	19.5	6.03e-01	0	43	0	1026555904	21	4867
2026-01-15 12:08:40.48	342.96	15.11	-30.0	-32.7	19.4	6.02e-01	0	43	0	1028653056	21	4945
2026-01-15 12:08:41.48	342.96	15.00	-30.0	-32.7	19.4	6.01e-01	0	43	0	1030225920	21	4924
2026-01-15 12:08:42.49	342.95	14.88	-30.1	-33.2	19.1	6.02e-01	0	43	0	1032323072	21	5093
2026-01-15 12:08:43.49	342.95	14.76	-30.2	-33.2	19.0	6.03e-01	0	43	0	1034420224	21	5115
2026-01-15 12:08:44.49	342.95	14.65	-30.1	-33.1	19.1	6.02e-01	0	43	0	1035993088	21	5071
2026-01-15 12:08:45.49	342.94	14.53	-30.1	-33.1	19.1	6.03e-01	0	43	0	1038090240	21	5076
2026-01-15 12:08:46.50	342.94	14.42	-30.0	-32.9	19.2	6.04e-01	0	43	0	1039663104	21	4994
2026-01-15 12:08:47.50	342.94	14.31	-30.1	-33.1	19.1	6.04e-01	0	43	0	1041760256	21	5068
2026-01-15 12:08:48.50	342.94	14.19	-30.2	-33.3	19.0	6.03e-01	0	43	0	1043333120	21	5147
2026-01-15 12:08:49.50	342.93	14.08	-30.2	-33.4	18.9	6.03e-01	0	43	0	1045430272	21	5187
2026-01-15 12:08:50.50	342.93	13.97	-30.1	-33.1	19.1	6.03e-01	0	43	0	1047527424	21	5095
2026-01-15 12:08:51.51	342.93	13.86	-30.1	-33.1	19.1	6.02e-01	0	43	0	1049100288	21	5087
2026-01-15 12:08:52.51	342.93	13.75	-30.1	-33.2	19.0	6.04e-01	0	43	0	1051197440	21	5112
2026-01-15 12:08:53.51	342.92	13.64	-30.3	-33.6	18.8	6.04e-01	0	43	0	1052770304	21	5280
2026-01-15 12:08:54.51	342.92	13.53	-30.3	-33.7	18.7	6.05e-01	0	43	0	1054867456	21	5300
2026-01-15 12:08:55.51	342.92	13.42	-30.3	-33.6	18.7	6.04e-01	0	43	0	1056440320	21	5260
2026-01-15 12:08:56.51	342.92	13.31	-30.1	-33.1	19.0	6.02e-01	0	43	0	1058537472	21	5080
2026-01-15 12:08:57.51	342.92	13.20	-30.0	-33.0	19.1	6.03e-01	0	43	0	1060634624	21	5034
2026-01-15 12:08:58.50	342.91	13.10	-30.0	-32.8	19.2	6.05e-01	0	43	0	1062207488	21	4995
2026-01-15 12:08:59.50	342.91	12.99	-30.1	-33.2	18.9	6.00e-01	0	43	0	1064304640	21	5138
2026-01-15 12:09:00.51	342.91	12.88	-30.2	-33.4	18.8	6.04e-01	0	43	0	1065877504	21	5214
2026-01-15 12:09:01.51	342.91	12.78	-30.1	-33.0	19.0	6.04e-01	0	43	0	1067974656	21	5071
2026-01-15 12:09:02.52	342.91	12.67	-30.0	-32.9	19.1	6.04e-01	0	43	0	1069547520	21	5028
2026-01-15 12:09:03.52	342.90	12.57	-30.0	-32.8	19.1	6.03e-01	0	43	0	1071644672	21	4998
2026-01-15 12:09:04.52	342.90	12.46	-30.0	-32.9	19.0	6.03e-01	0	43	0	1073741824	21	5038
2026-01-15 12:09:05.52	342.90	12.36	-30.1	-33.1	19.0	6.05e-01	0	43	0	1075314688	21	5081
2026-01-15 12:09:06.53	342.90	12.26	-30.1	-33.2	18.8	6.04e-01	0	43	0	1077411840	21	5138
2026-01-15 12:09:07.52	342.90	12.15	-30.1	-33.1	18.9	6.02e-01	0	43	0	1078984704	21	5113
2026-01-15 12:09:08.52	342.89	12.05	-30.0	-32.9	19.0	6.02e-01	0	43	0	1081081856	21	5034
2026-01-15 12:09:09.52	342.89	11.95	-30.0	-32.8	19.1	6.05e-01	0	43	0	1083179008	21	4993
2026-01-15 12:09:10.52	342.89	11.85	-29.9	-32.7	19.1	6.05e-01	0	43	0	1084751872	21	4945
2026-01-15 12:09:11.52	342.89	11.75	-29.9	-32.7	19.1	6.02e-01	0	43	0	1086849024	21	4963
2026-01-15 12:09:12.53	342.89	11.65	-29.9	-32.7	19.1	6.03e-01	0	43	0	1088421888	21	4942
2026-01-15 12:09:13.54	342.89	11.55	-30.0	-33.0	18.9	6.04e-01	0	43	0	1090519040	21	5051
2026-01-15 12:09:14.54	342.89	11.45	-30.1	-33.2	18.8	6.04e-01	0	43	0	1092616192	21	5127
2026-01-15 12:09:15.55	342.88	11.35	-30.1	-33.1	18.8	6.03e-01	0	43	0	1094189056	21	5106
2026-01-15 12:09:16.56	342.88	11.25	-30.1	-33.1	18.8	6.01e-01	0	43	0	1096286208	21	5086
2026-01-15 12:09:17.56	342.88	11.15	-30.0	-32.8	19.0	6.02e-01	0	43	0	1097859072	21	4989
2026-01-15 12:09:18.56	342.88	11.05	-30.0	-32.8	19.0	6.02e-01	0	43	0	1099956224	21	4995
2026-01-15 12:09:19.56	342.88	10.96	-30.0	-32.8	18.9	6.04e-01	0	43	0	1101529088	21	4999
2026-01-15 12:09:20.57	342.88	10.86	-30.0	-32.9	18.9	6.04e-01	0	43	0	1103626240	21	5024
2026-01-15 12:09:21.57	342.88	10.76	-30.0	-32.9	18.9	6.04e-01	0	43	0	1105723392	21	5040
2026-01-15 12:09:22.57	342.88	10.67	-30.2	-33.4	18.7	6.04e-01	0	44	0	1107296256	21	5204
2026-01-15 12:09:23.57	342.88	10.57	-30.2	-33.5	18.6	6.05e-01	0	43	0	1109393408	21	5254
2026-01-15 12:09:24.58	342.87	10.47	-30.1	-33.2	18.7	6.03e-01	0	43	0	1110966272	21	5146
2026-01-15 12:09:25.58	342.87	10.38	-30.0	-33.0	18.9	6.04e-01	0	43	0	1113063424	21	5078
2026-01-15 12:09:26.58	342.87	10.29	-30.1	-33.1	18.8	6.03e-01	0	43	0	1115160576	21	5118
2026-01-15 12:09:27.57	342.87	10.19	-30.1	-33.3	18.6	6.05e-01	0	43	0	1116733440	21	5190
2026-01-15 12:09:28.58	342.87	10.10	-30.2	-33.5	18.5	6.04e-01	0	43	0	1118830592	21	5247
2026-01-15 12:09:29.57	342.87	10.01	-30.2	-33.4	18.6	6.06e-01	0	43	0	1120403456	21	5200
2026-01-15 12:09:30.57	342.87	9.91	-30.2	-33.4	18.6	6.03e-01	0	43	0	1122500608	21	5227
2026-01-15 12:09:31.58	342.87	9.82	-30.2	-33.4	18.6	6.03e-01	0	43	0	1124597760	21	5225
2026-01-15 12:09:32.58	342.87	9.73	-30.1	-33.2	18.7	6.05e-01	0	43	0	1126170624	21	5160
2026-01-15 12:09:33.58	342.87	9.64	-30.2	-33.5	18.5	6.05e-01	0	43	0	1128267776	21	5271
2026-01-15 12:09:34.58	342.87	9.55	-30.3	-33.7	18.4	6.03e-01	0	43	0	1129840640	21	5348
2026-01-15 12:09:35.58	342.87	9.45	-30.2	-33.5	18.5	6.02e-01	0	43	0	1131937792	21	5268
2026-01-15 12:09:36.59	342.87	9.36	-30.4	-34.1	18.1	6.03e-01	0	43	0	1133510656	21	5491
2026-01-15 12:09:37.59	342.87	9.27	-30.4	-34.0	18.2	6.04e-01	0	43	0	1135607808	21	5443
2026-01-15 12:09:38.58	342.86	9.18	-30.4	-34.1	18.1	6.03e-01	0	43	0	1137704960	21	5508
2026-01-15 12:09:39.58	342.86	9.10	-30.5	-34.4	17.9	6.04e-01	0	43	0	1139277824	21	5653
2026-01-15 12:09:40.58	342.86	9.01	-30.6	-34.5	17.8	6.05e-01	0	43	0	1141374976	21	5693
2026-01-15 12:09:41.58	342.86	8.92	-30.8	-34.9	17.2	6.05e-01	0	43	0	1142947840	22	5725
2026-01-15 12:09:42.58	342.86	8.83	-30.8	-34.7	17.3	6.04e-01	0	43	0	1145044992	22	5652
2026-01-15 12:09:43.58	342.86	8.74	-30.7	-34.4	17.6	6.05e-01	0	43	0	1146617856	22	5523
2026-01-15 12:09:44.59	342.86	8.65	-30.6	-34.3	17.6	6.03e-01	0	43	0	1148715008	22	5482
2026-01-15 12:09:45.59	342.86	8.57	-30.8	-34.9	17.2	6.05e-01	0	43	0	1150812160	22	5747
2026-01-15 12:09:46.58	342.86	8.48	-30.8	-34.8	17.2	6.03e-01	0	43	0	1152385024	22	5698
2026-01-15 12:09:47.58	342.86	8.39	-30.7	-34.4	17.5	6.06e-01	0	43	0	1154482176	22	5529
2026-01-15 12:09:48.58	342.86	8.31	-30.5	-34.0	17.8	6.03e-01	0	43	0	1156055040	22	5361
2026-01-15 12:09:49.58	342.86	8.22	-30.5	-33.9	17.8	6.03e-01	0	43	0	1158152192	22	5316
2026-01-15 12:09:50.59	342.86	8.14	-30.4	-33.6	18.0	6.03e-01	0	43	0	1159725056	22	5220
2026-01-15 12:09:51.59	342.86	8.05	-30.5	-33.8	17.9	6.02e-01	0	43	0	1161822208	22	5290
2026-01-15 12:09:52.59	342.86	7.97	-30.5	-33.8	17.9	6.04e-01	0	43	0	1163919360	22	5300
2026-01-15 12:09:53.59	342.86	7.88	-30.6	-34.1	17.6	6.05e-01	0	44	0	1165492224	22	5430
2026-01-15 12:09:54.60	342.86	7.80	-30.7	-34.4	17.4	6.02e-01	0	43	0	1167589376	22	5556
2026-01-15 12:09:55.60	342.86	7.71	-30.7	-34.4	17.4	6.04e-01	0	43	0	1169162240	22	5567
2026-01-15 12:09:56.59	342.86	7.63	-30.7	-34.5	17.3	6.05e-01	0	43	0	1171259392	22	5610
2026-01-15 12:09:57.60	342.86	7.54	-30.6	-34.2	17.5	6.05e-01	0	43	0	1173356544	22	5468
2026-01-15 12:09:58.60	342.86	7.46	-30.6	-34.1	17.6	6.02e-01	0	43	0	1174929408	22	5435
2026-01-15 12:09:59.60	342.86	7.38	-30.5	-34.1	17.6	6.05e-01	0	43	0	1177026560	22	5406
2026-01-15 12:10:00.60	342.86	7.30	-30.6	-34.4	17.4	6.04e-01	0	43	0	1178599424	22	5564
2026-01-15 12:10:01.60	342.86	7.21	-30.6	-34.4	17.4	6.04e-01	0	43	0	1180696576	22	5559
2026-01-15 12:10:02.60	342.86	7.13	-30.8	-34.8	17.1	6.03e-01	0	43	0	1182269440	22	5732
2026-01-15 12:10:03.61	342.86	7.05	-32.3	-38.5	13.7	6.03e-01	0	43	0	1184366592	25	7345

#Closed at: 2026-01-15 12:10:04
#Recorded file [1184 MB]: D:/data/31010_260115_145931.dat