passes_logs/2026/01/15/R2M6_AANII_01/R2M6_AANII_01__20260115_085848_NOAA_21_JPSS-2_rec.log

#Pass ID: 20260115_085848_NOAA 21 (JPSS-2)
#Satellite: NOAA 21 (JPSS-2)
#Configuration: NOAA 21
#almurnet v.1.7.20240730
#Start time: 2026-01-15 08:58:48

#Version: 2.2.20231116
#Station: R2M6_AANII_01
#Location: 30.233357 lon 59.946436 lat
#TLE: 1 54234U 22150A   26014.16688770  .00000052  00000+0  45394-4 0  9999
#TLE: 2 54234  98.7497 315.0767 0000655 297.6997  62.4113 14.19534648164696

#Time	Az	El	Level	Level2	SNR	BER	BlckErr	Temp	State	Recorded	gain1	gain2
2026-01-15 08:58:48.12	118.90	6.96	-32.1	-38.6	4.2	1.45e+00	0	40	0	0	25	7626
2026-01-15 08:58:49.12	118.84	7.03	-31.4	-36.3	4.5	1.42e+00	0	41	104	0	24	6309
2026-01-15 08:58:50.13	118.77	7.10	-31.3	-35.3	7.6	1.02e-01	0	41	0	0	24	5688
2026-01-15 08:58:51.13	118.71	7.17	-31.3	-35.8	7.7	8.24e-02	0	41	0	3145728	23	5990
2026-01-15 08:58:52.13	118.64	7.24	-31.3	-35.6	7.8	7.59e-02	0	41	0	6291456	23	5893
2026-01-15 08:58:53.13	118.57	7.31	-31.1	-35.1	8.2	5.83e-02	0	41	0	9437184	23	5659
2026-01-15 08:58:54.14	118.51	7.39	-31.2	-35.4	7.9	7.11e-02	0	41	0	12582912	23	5841
2026-01-15 08:58:55.14	118.44	7.46	-31.1	-35.0	8.2	6.25e-02	0	41	0	15728640	23	5644
2026-01-15 08:58:56.15	118.37	7.53	-30.7	-34.2	9.2	3.05e-02	0	41	0	18874368	22	5379
2026-01-15 08:58:57.15	118.30	7.60	-30.3	-33.0	10.1	8.27e-03	0	41	0	22020096	22	4868
2026-01-15 08:58:58.15	118.23	7.68	-30.1	-32.7	10.6	4.30e-03	0	41	0	24117248	21	4894
2026-01-15 08:58:59.16	118.17	7.75	-29.8	-32.4	11.1	1.60e-03	0	41	0	27262976	20	4865
2026-01-15 08:59:00.16	118.10	7.82	-29.5	-31.6	11.7	7.48e-04	0	41	0	30408704	20	4613
2026-01-15 08:59:01.16	118.03	7.89	-29.3	-31.5	12.2	2.85e-04	0	41	0	33554432	19	4657
2026-01-15 08:59:02.17	117.96	7.97	-29.2	-31.4	12.3	1.94e-04	0	41	0	36700160	19	4610
2026-01-15 08:59:03.17	117.89	8.04	-29.2	-31.2	12.4	1.27e-04	0	41	0	40894464	19	4566
2026-01-15 08:59:04.17	117.82	8.12	-29.2	-31.2	12.4	1.41e-04	0	41	0	44040192	19	4558
2026-01-15 08:59:05.18	117.75	8.19	-29.3	-31.6	12.2	2.15e-04	0	41	0	47185920	19	4680
2026-01-15 08:59:06.18	117.68	8.26	-29.2	-31.2	12.4	1.27e-04	0	41	0	49283072	19	4569
2026-01-15 08:59:07.19	117.60	8.34	-29.2	-31.3	12.4	1.14e-04	0	41	0	52428800	19	4586
2026-01-15 08:59:08.19	117.53	8.41	-29.4	-31.8	12.1	2.88e-04	0	41	0	55574528	19	4731
2026-01-15 08:59:09.19	117.46	8.49	-29.2	-31.3	12.4	1.57e-04	0	41	0	58720256	19	4596
2026-01-15 08:59:10.19	117.39	8.56	-29.0	-30.7	12.8	5.72e-05	0	41	0	61865984	19	4404
2026-01-15 08:59:11.20	117.31	8.64	-28.7	-30.7	13.2	2.89e-05	0	41	0	65011712	18	4488
2026-01-15 08:59:12.20	117.24	8.71	-28.8	-30.8	13.0	3.35e-05	0	41	0	68157440	18	4531
2026-01-15 08:59:13.20	117.17	8.79	-28.8	-30.8	13.0	3.81e-05	0	41	0	71303168	18	4537
2026-01-15 08:59:14.20	117.09	8.86	-28.7	-30.6	13.2	2.67e-05	0	42	0	74448896	18	4463
2026-01-15 08:59:15.20	117.02	8.94	-28.7	-30.7	13.1	2.44e-05	0	41	0	77594624	18	4493
2026-01-15 08:59:16.21	116.94	9.01	-28.8	-30.8	13.1	4.42e-05	0	42	0	80740352	18	4538
2026-01-15 08:59:17.21	116.87	9.09	-28.8	-30.7	13.2	3.12e-05	0	42	0	83886080	18	4491
2026-01-15 08:59:18.21	116.79	9.16	-28.7	-30.5	13.3	1.29e-05	0	41	0	87031808	18	4424
2026-01-15 08:59:19.22	116.71	9.24	-28.7	-30.4	13.3	2.44e-05	0	42	0	90177536	18	4413
2026-01-15 08:59:20.22	116.64	9.32	-28.6	-30.3	13.4	6.80e-06	0	42	0	93323264	18	4379
2026-01-15 08:59:21.21	116.56	9.39	-28.7	-30.5	13.3	1.60e-05	0	42	0	96468992	18	4435
2026-01-15 08:59:22.22	116.48	9.47	-28.7	-30.4	13.4	1.44e-05	0	42	0	99614720	18	4405
2026-01-15 08:59:23.22	116.41	9.55	-28.7	-30.5	13.3	2.13e-05	0	42	0	102760448	18	4443
2026-01-15 08:59:24.22	116.33	9.62	-28.6	-30.3	13.5	9.10e-06	0	42	0	105906176	18	4376
2026-01-15 08:59:25.22	116.25	9.70	-28.6	-30.2	13.5	1.14e-05	0	42	0	109051904	18	4332
2026-01-15 08:59:26.23	116.17	9.78	-28.6	-30.2	13.5	7.60e-06	0	41	0	112197632	18	4345
2026-01-15 08:59:27.22	116.09	9.86	-28.6	-30.2	13.5	4.50e-06	0	42	0	115343360	18	4334
2026-01-15 08:59:28.22	116.01	9.93	-28.6	-30.4	13.5	1.60e-05	0	41	0	118489088	18	4386
2026-01-15 08:59:29.23	115.93	10.01	-28.7	-30.5	13.4	1.52e-05	0	41	0	121634816	18	4436
2026-01-15 08:59:30.24	115.85	10.09	-28.5	-30.1	13.6	9.10e-06	0	42	0	124780544	18	4300
2026-01-15 08:59:31.24	115.77	10.17	-28.5	-30.1	13.7	9.90e-06	0	42	0	127926272	18	4296
2026-01-15 08:59:32.24	115.69	10.25	-28.6	-30.1	13.7	6.10e-06	0	42	0	131072000	18	4304
2026-01-15 08:59:33.24	115.60	10.33	-28.5	-30.0	13.7	4.50e-06	0	42	0	134217728	18	4269
2026-01-15 08:59:34.24	115.52	10.41	-28.5	-30.1	13.7	9.90e-06	0	42	0	137363456	18	4290
2026-01-15 08:59:35.25	115.44	10.49	-28.6	-30.1	13.7	6.80e-06	0	42	0	140509184	18	4308
2026-01-15 08:59:36.25	115.35	10.56	-28.5	-29.9	13.8	6.10e-06	0	42	0	143654912	18	4258
2026-01-15 08:59:37.25	115.27	10.64	-28.5	-29.9	13.8	1.50e-06	0	42	0	146800640	18	4250
2026-01-15 08:59:38.25	115.18	10.72	-28.5	-30.1	13.7	3.80e-06	0	42	0	149946368	18	4291
2026-01-15 08:59:39.25	115.10	10.80	-28.5	-29.9	13.8	3.80e-06	0	42	0	153092096	18	4253
2026-01-15 08:59:40.26	115.01	10.88	-28.4	-29.7	14.0	3.00e-06	0	42	0	156237824	18	4200
2026-01-15 08:59:41.27	114.93	10.97	-28.4	-29.7	14.0	2.20e-06	0	42	0	159383552	18	4181
2026-01-15 08:59:42.27	114.84	11.05	-28.3	-29.9	14.1	7.00e-07	0	42	0	162529280	17	4361
2026-01-15 08:59:43.28	114.75	11.13	-28.3	-30.0	14.1	7.00e-07	0	42	0	165675008	17	4390
2026-01-15 08:59:44.28	114.67	11.21	-28.3	-30.1	14.0	3.00e-06	0	42	0	168820736	17	4406
2026-01-15 08:59:45.28	114.58	11.29	-28.4	-30.2	13.9	6.80e-06	0	42	0	171966464	17	4445
2026-01-15 08:59:46.29	114.49	11.37	-28.3	-30.0	14.1	2.20e-06	0	42	0	175112192	17	4383
2026-01-15 08:59:47.29	114.40	11.45	-28.4	-30.2	14.0	0.00e+00	0	42	0	178257920	17	4432
2026-01-15 08:59:48.28	114.31	11.53	-28.3	-29.9	14.1	0.00e+00	0	42	0	181403648	17	4365
2026-01-15 08:59:49.28	114.22	11.62	-28.4	-30.2	14.0	3.00e-06	0	42	0	184549376	17	4443
2026-01-15 08:59:50.29	114.13	11.70	-28.4	-30.3	13.9	4.50e-06	0	42	0	187695104	17	4480
2026-01-15 08:59:51.29	114.04	11.78	-28.3	-30.0	14.1	0.00e+00	0	42	0	190840832	17	4365
2026-01-15 08:59:52.30	113.95	11.86	-28.2	-29.6	14.3	2.20e-06	0	42	0	193986560	17	4276
2026-01-15 08:59:53.30	113.85	11.95	-28.0	-29.4	14.4	7.00e-07	0	42	0	197132288	17	4201
2026-01-15 08:59:54.30	113.76	12.03	-28.0	-29.3	14.5	7.00e-07	0	42	0	200278016	17	4175
2026-01-15 08:59:55.30	113.67	12.11	-28.1	-29.4	14.5	7.00e-07	0	42	0	203423744	17	4212
2026-01-15 08:59:56.31	113.57	12.20	-28.0	-29.2	14.6	0.00e+00	0	42	0	206569472	17	4145
2026-01-15 08:59:57.31	113.48	12.28	-28.0	-29.4	14.5	7.00e-07	0	42	0	209715200	17	4211
2026-01-15 08:59:58.32	113.38	12.37	-28.1	-29.5	14.4	0.00e+00	0	42	0	212860928	17	4247
2026-01-15 08:59:59.32	113.29	12.45	-28.0	-29.3	14.5	1.50e-06	0	42	0	216006656	17	4176
2026-01-15 09:00:00.32	113.19	12.53	-28.0	-29.2	14.6	7.60e-06	0	42	0	219152384	17	4153
2026-01-15 09:00:01.32	113.10	12.62	-28.0	-29.3	14.5	0.00e+00	0	42	0	222298112	17	4185
2026-01-15 09:00:02.32	113.00	12.70	-28.1	-29.4	14.5	0.00e+00	0	42	0	225443840	17	4210
2026-01-15 09:00:03.32	112.90	12.79	-28.0	-29.2	14.6	5.30e-06	0	42	0	228589568	17	4150
2026-01-15 09:00:04.32	112.80	12.87	-27.9	-29.0	14.7	0.00e+00	0	42	0	231735296	17	4105
2026-01-15 09:00:05.31	112.71	12.96	-27.9	-29.1	14.7	1.50e-06	0	42	0	234881024	17	4128
2026-01-15 09:00:06.32	112.61	13.04	-28.0	-29.2	14.7	5.30e-06	0	42	0	238026752	17	4137
2026-01-15 09:00:07.33	112.51	13.13	-27.9	-28.9	14.8	0.00e+00	0	42	0	241172480	17	4076
2026-01-15 09:00:08.33	112.41	13.21	-27.8	-28.8	14.9	0.00e+00	0	42	0	244318208	17	4034
2026-01-15 09:00:09.33	112.30	13.30	-27.9	-28.9	14.8	5.30e-06	0	43	0	247463936	17	4077
2026-01-15 09:00:10.34	112.20	13.39	-28.0	-29.1	14.7	0.00e+00	0	42	0	250609664	17	4128
2026-01-15 09:00:11.34	112.10	13.47	-27.8	-28.8	14.9	0.00e+00	0	43	0	253755392	17	4042
2026-01-15 09:00:12.35	112.00	13.56	-27.8	-28.9	14.9	0.00e+00	0	42	0	256901120	17	4056
2026-01-15 09:00:13.35	111.89	13.65	-27.9	-29.0	14.8	7.00e-07	0	42	0	260046848	17	4089
2026-01-15 09:00:14.36	111.79	13.74	-27.8	-29.3	14.9	7.00e-07	0	42	0	263192576	16	4289
2026-01-15 09:00:15.36	111.68	13.82	-27.8	-29.4	14.9	3.00e-06	0	42	0	266338304	16	4297
2026-01-15 09:00:16.37	111.58	13.91	-27.8	-29.4	14.9	0.00e+00	0	42	0	269484032	16	4291
2026-01-15 09:00:17.37	111.47	14.00	-27.9	-29.5	14.8	0.00e+00	0	42	0	272629760	16	4341
2026-01-15 09:00:18.38	111.36	14.09	-27.9	-29.6	14.8	0.00e+00	0	43	0	275775488	16	4349
2026-01-15 09:00:19.38	111.25	14.18	-27.8	-29.4	14.9	0.00e+00	0	43	0	278921216	16	4295
2026-01-15 09:00:20.39	111.15	14.27	-27.8	-29.3	14.9	7.00e-07	0	42	0	282066944	16	4280
2026-01-15 09:00:21.40	111.04	14.36	-27.8	-29.3	15.0	0.00e+00	0	42	0	285212672	16	4272
2026-01-15 09:00:22.40	110.93	14.45	-27.8	-29.3	15.0	0.00e+00	0	43	0	288358400	16	4281
2026-01-15 09:00:23.40	110.82	14.53	-27.8	-29.2	15.0	0.00e+00	0	43	0	291504128	16	4254
2026-01-15 09:00:24.40	110.71	14.62	-27.7	-29.1	15.1	0.00e+00	0	43	0	294649856	16	4227
2026-01-15 09:00:25.41	110.59	14.71	-27.8	-29.3	15.0	7.00e-07	0	43	0	297795584	16	4258
2026-01-15 09:00:26.42	110.48	14.80	-27.8	-29.3	15.0	0.00e+00	0	43	0	300941312	16	4277
2026-01-15 09:00:27.41	110.37	14.89	-27.7	-29.1	15.1	0.00e+00	0	43	0	303038464	16	4204
2026-01-15 09:00:28.41	110.26	14.98	-27.8	-29.3	15.0	7.00e-07	0	43	0	306184192	16	4258
2026-01-15 09:00:29.41	110.14	15.07	-27.8	-29.2	15.0	0.00e+00	0	43	0	309329920	16	4235
2026-01-15 09:00:30.42	110.03	15.17	-27.7	-29.1	15.1	0.00e+00	0	43	0	312475648	16	4222
2026-01-15 09:00:31.43	109.91	15.26	-27.8	-29.2	15.0	0.00e+00	0	43	0	316669952	16	4249
2026-01-15 09:00:32.43	109.79	15.35	-27.8	-29.2	15.0	1.50e-06	0	43	0	319815680	16	4242
2026-01-15 09:00:33.43	109.68	15.44	-27.9	-29.5	14.9	0.00e+00	0	43	0	322961408	16	4332
2026-01-15 09:00:34.43	109.56	15.53	-27.9	-29.4	14.9	0.00e+00	0	43	0	325058560	16	4304
2026-01-15 09:00:35.43	109.44	15.62	-27.7	-29.0	15.1	0.00e+00	0	43	0	328204288	16	4193
2026-01-15 09:00:36.44	109.32	15.72	-27.9	-29.5	14.9	0.00e+00	0	43	0	331350016	16	4339
2026-01-15 09:00:37.44	109.20	15.81	-28.0	-29.8	14.7	7.00e-07	0	43	0	334495744	16	4397
2026-01-15 09:00:38.45	109.08	15.90	-28.0	-29.8	14.8	0.00e+00	0	43	0	337641472	16	4399
2026-01-15 09:00:39.45	108.96	15.99	-28.1	-30.0	14.6	0.00e+00	0	43	0	340787200	16	4459
2026-01-15 09:00:40.45	108.83	16.09	-28.1	-29.9	14.7	0.00e+00	0	43	0	343932928	16	4443
2026-01-15 09:00:41.46	108.71	16.18	-28.2	-30.2	14.6	0.00e+00	0	43	0	347078656	16	4513
2026-01-15 09:00:42.45	108.59	16.27	-28.2	-30.1	14.6	0.00e+00	0	43	0	350224384	16	4511
2026-01-15 09:00:43.45	108.46	16.37	-28.3	-30.3	14.5	0.00e+00	0	43	0	353370112	16	4575
2026-01-15 09:00:44.45	108.34	16.46	-28.2	-30.3	14.5	7.00e-07	0	43	0	356515840	16	4555
2026-01-15 09:00:45.45	108.21	16.55	-28.3	-30.3	14.5	0.00e+00	0	43	0	359661568	16	4557
2026-01-15 09:00:46.46	108.08	16.65	-28.2	-30.3	14.5	0.00e+00	0	43	0	362807296	16	4541
2026-01-15 09:00:47.47	107.95	16.74	-28.2	-30.2	14.6	1.50e-06	0	43	0	365953024	16	4528
2026-01-15 09:00:48.47	107.82	16.84	-28.0	-29.8	14.8	0.00e+00	0	43	0	369098752	16	4401
2026-01-15 09:00:49.47	107.69	16.93	-28.0	-29.6	14.9	0.00e+00	0	43	0	372244480	16	4356
2026-01-15 09:00:50.48	107.56	17.03	-27.9	-29.5	15.0	0.00e+00	0	43	0	375390208	16	4323
2026-01-15 09:00:51.48	107.43	17.13	-28.0	-29.7	14.9	0.00e+00	0	43	0	378535936	16	4386
2026-01-15 09:00:52.49	107.30	17.22	-28.0	-29.8	14.8	7.00e-07	0	43	0	381681664	16	4399
2026-01-15 09:00:53.49	107.17	17.32	-28.1	-30.0	14.7	0.00e+00	0	43	0	384827392	16	4477
2026-01-15 09:00:54.49	107.03	17.41	-28.2	-30.1	14.6	0.00e+00	0	43	0	387973120	16	4495
2026-01-15 09:00:55.49	106.90	17.51	-28.1	-29.9	14.8	0.00e+00	0	43	0	391118848	16	4429
2026-01-15 09:00:56.50	106.76	17.61	-28.1	-29.9	14.8	7.00e-07	0	43	0	394264576	16	4436
2026-01-15 09:00:57.50	106.62	17.70	-28.1	-29.9	14.8	0.00e+00	0	43	0	397410304	16	4437
2026-01-15 09:00:58.50	106.49	17.80	-28.0	-29.7	14.9	0.00e+00	0	43	0	400556032	16	4385
2026-01-15 09:00:59.51	106.35	17.90	-28.1	-30.0	14.7	7.00e-07	0	43	0	403701760	16	4467
2026-01-15 09:01:00.51	106.21	17.99	-28.1	-30.0	14.7	7.00e-07	0	43	0	406847488	16	4457
2026-01-15 09:01:01.51	106.07	18.09	-28.0	-29.8	14.8	0.00e+00	0	43	0	409993216	16	4408
2026-01-15 09:01:02.52	105.93	18.19	-28.0	-29.7	14.9	0.00e+00	0	43	0	413138944	16	4379
2026-01-15 09:01:03.52	105.78	18.29	-27.9	-29.5	15.0	0.00e+00	0	43	0	416284672	16	4319
2026-01-15 09:01:04.52	105.64	18.39	-27.9	-29.6	15.0	0.00e+00	0	43	0	419430400	16	4340
2026-01-15 09:01:05.53	105.50	18.49	-27.9	-29.5	15.1	7.00e-07	0	43	0	422576128	16	4312
2026-01-15 09:01:06.53	105.35	18.58	-27.8	-29.3	15.1	0.00e+00	0	43	0	425721856	16	4267
2026-01-15 09:01:07.53	105.21	18.68	-27.9	-29.6	15.0	0.00e+00	0	43	0	428867584	16	4347
2026-01-15 09:01:08.53	105.06	18.78	-28.0	-29.6	15.0	0.00e+00	0	43	0	432013312	16	4348
2026-01-15 09:01:09.53	104.91	18.88	-27.8	-29.2	15.2	0.00e+00	0	43	0	435159040	16	4236
2026-01-15 09:01:10.54	104.76	18.98	-27.7	-29.0	15.3	0.00e+00	0	43	0	438304768	16	4185
2026-01-15 09:01:11.54	104.61	19.08	-27.7	-29.0	15.3	1.50e-06	0	43	0	441450496	16	4184
2026-01-15 09:01:12.54	104.46	19.18	-27.8	-29.1	15.2	0.00e+00	0	43	0	444596224	16	4208
2026-01-15 09:01:13.54	104.31	19.28	-27.6	-28.8	15.5	0.00e+00	0	43	0	447741952	16	4130
2026-01-15 09:01:14.54	104.16	19.38	-27.7	-28.9	15.3	1.50e-06	0	43	0	450887680	16	4168
2026-01-15 09:01:15.55	104.00	19.48	-27.6	-28.9	15.4	0.00e+00	0	43	0	454033408	16	4149
2026-01-15 09:01:16.55	103.85	19.58	-27.5	-28.5	15.6	0.00e+00	0	43	0	457179136	16	4046
2026-01-15 09:01:17.55	103.69	19.68	-27.5	-28.6	15.6	3.80e-06	0	43	0	460324864	16	4074
2026-01-15 09:01:18.55	103.54	19.78	-27.6	-28.7	15.5	0.00e+00	0	43	0	463470592	16	4095
2026-01-15 09:01:19.56	103.38	19.88	-27.3	-28.1	15.8	0.00e+00	0	43	0	466616320	16	3958
2026-01-15 09:01:20.57	103.22	19.99	-27.1	-28.2	15.9	7.00e-07	0	43	0	469762048	15	4073
2026-01-15 09:01:21.58	103.06	20.09	-27.1	-28.1	16.0	0.00e+00	0	43	0	472907776	15	4043
2026-01-15 09:01:22.58	102.89	20.19	-27.0	-28.0	16.0	0.00e+00	0	43	0	476053504	15	4023
2026-01-15 09:01:23.58	102.73	20.29	-27.1	-28.1	16.0	0.00e+00	0	43	0	479199232	15	4065
2026-01-15 09:01:24.58	102.57	20.39	-27.0	-28.0	16.0	0.00e+00	0	43	0	482344960	15	4038
2026-01-15 09:01:25.59	102.40	20.50	-26.9	-27.8	16.1	0.00e+00	0	43	0	485490688	15	3984
2026-01-15 09:01:26.59	102.24	20.60	-26.9	-27.8	16.2	0.00e+00	0	43	0	488636416	15	3969
2026-01-15 09:01:27.58	102.07	20.70	-27.0	-27.9	16.1	0.00e+00	0	43	0	491782144	15	3991
2026-01-15 09:01:28.58	101.91	20.80	-27.2	-28.3	15.9	0.00e+00	0	43	0	494927872	15	4101
2026-01-15 09:01:29.58	101.74	20.90	-27.1	-28.2	16.0	0.00e+00	0	43	0	498073600	15	4072
2026-01-15 09:01:30.58	101.57	21.01	-27.0	-27.9	16.1	0.00e+00	0	43	0	501219328	15	3994
2026-01-15 09:01:31.58	101.40	21.11	-26.9	-27.7	16.2	0.00e+00	0	43	0	504365056	15	3942
2026-01-15 09:01:32.59	101.22	21.21	-26.9	-27.7	16.3	0.00e+00	0	43	0	507510784	15	3942
2026-01-15 09:01:33.59	101.05	21.32	-27.0	-28.0	16.1	0.00e+00	0	43	0	510656512	15	4015
2026-01-15 09:01:34.60	100.87	21.42	-27.0	-28.0	16.1	0.00e+00	0	43	0	513802240	15	4029
2026-01-15 09:01:35.60	100.70	21.52	-27.0	-27.9	16.2	0.00e+00	0	43	0	516947968	15	3998
2026-01-15 09:01:36.60	100.52	21.63	-26.9	-27.7	16.3	0.00e+00	0	43	0	520093696	15	3960
2026-01-15 09:01:37.60	100.34	21.73	-26.9	-27.8	16.2	0.00e+00	0	43	0	523239424	15	3975
2026-01-15 09:01:38.60	100.17	21.83	-27.0	-28.0	16.1	0.00e+00	0	43	0	526385152	15	4013
2026-01-15 09:01:39.60	99.99	21.94	-27.0	-27.9	16.1	0.00e+00	0	43	0	529530880	15	4007
2026-01-15 09:01:40.60	99.80	22.04	-27.1	-28.1	16.1	0.00e+00	0	43	0	532676608	15	4045
2026-01-15 09:01:41.61	99.62	22.15	-27.1	-28.1	16.1	0.00e+00	0	43	0	535822336	15	4040
2026-01-15 09:01:42.61	99.43	22.25	-26.9	-27.8	16.3	0.00e+00	0	43	0	538968064	15	3967
2026-01-15 09:01:43.62	99.25	22.36	-26.9	-27.7	16.3	0.00e+00	0	43	0	542113792	15	3942
2026-01-15 09:01:44.62	99.06	22.46	-26.9	-27.7	16.3	0.00e+00	0	43	0	545259520	15	3954
2026-01-15 09:01:45.63	98.87	22.57	-26.9	-27.6	16.4	0.00e+00	0	43	0	548405248	15	3922
2026-01-15 09:01:46.63	98.68	22.67	-26.8	-27.4	16.5	0.00e+00	0	43	0	551550976	15	3879
2026-01-15 09:01:47.64	98.49	22.78	-26.8	-28.0	16.4	0.00e+00	0	43	0	554696704	14	4123
2026-01-15 09:01:48.64	98.30	22.88	-26.8	-28.0	16.4	0.00e+00	0	43	0	557842432	14	4122
2026-01-15 09:01:49.65	98.10	22.99	-26.8	-28.1	16.4	0.00e+00	0	43	0	560988160	14	4140
2026-01-15 09:01:50.65	97.91	23.09	-27.0	-28.4	16.2	0.00e+00	0	43	0	564133888	14	4233
2026-01-15 09:01:51.65	97.71	23.20	-27.0	-28.4	16.2	0.00e+00	0	43	0	567279616	14	4236
2026-01-15 09:01:52.65	97.52	23.30	-27.1	-28.6	16.1	0.00e+00	0	43	0	570425344	14	4282
2026-01-15 09:01:53.66	97.32	23.41	-27.0	-28.5	16.2	0.00e+00	0	43	0	573571072	14	4269
2026-01-15 09:01:54.66	97.12	23.51	-27.0	-28.4	16.2	0.00e+00	0	43	0	576716800	14	4241
2026-01-15 09:01:55.66	96.91	23.62	-26.9	-28.2	16.3	0.00e+00	0	43	0	578813952	14	4188
2026-01-15 09:01:56.66	96.71	23.72	-27.0	-28.4	16.3	0.00e+00	0	43	0	581959680	14	4234
2026-01-15 09:01:57.66	96.51	23.83	-27.0	-28.4	16.3	0.00e+00	0	43	0	585105408	14	4221
2026-01-15 09:01:58.66	96.30	23.93	-26.9	-28.1	16.4	0.00e+00	0	43	0	588251136	14	4145
2026-01-15 09:01:59.66	96.10	24.04	-26.9	-28.1	16.4	0.00e+00	0	43	0	591396864	14	4152
2026-01-15 09:02:00.67	95.89	24.15	-27.0	-28.4	16.3	0.00e+00	0	43	0	594542592	14	4233
2026-01-15 09:02:01.68	95.68	24.25	-27.0	-28.5	16.2	0.00e+00	0	43	0	598736896	14	4267
2026-01-15 09:02:02.68	95.46	24.36	-27.1	-28.7	16.1	0.00e+00	0	43	0	601882624	14	4309
2026-01-15 09:02:03.68	95.25	24.46	-27.2	-28.8	16.0	0.00e+00	0	43	0	603979776	14	4348
2026-01-15 09:02:04.69	95.04	24.57	-27.1	-28.7	16.1	0.00e+00	0	43	0	607125504	14	4323
2026-01-15 09:02:05.70	94.82	24.68	-27.2	-28.8	16.1	0.00e+00	0	43	0	610271232	14	4331
2026-01-15 09:02:06.70	94.60	24.78	-27.1	-28.6	16.1	0.00e+00	0	43	0	613416960	14	4288
2026-01-15 09:02:07.71	94.38	24.89	-27.0	-28.4	16.3	0.00e+00	0	43	0	616562688	14	4223
2026-01-15 09:02:08.71	94.16	24.99	-27.1	-28.6	16.2	0.00e+00	0	43	0	619708416	14	4291
2026-01-15 09:02:09.71	93.94	25.10	-27.0	-28.5	16.2	0.00e+00	0	43	0	622854144	14	4261
2026-01-15 09:02:10.71	93.72	25.20	-27.2	-28.9	16.0	0.00e+00	0	43	0	625999872	14	4378
2026-01-15 09:02:11.72	93.49	25.31	-27.2	-28.9	16.0	0.00e+00	0	43	0	629145600	14	4370
2026-01-15 09:02:12.73	93.26	25.42	-27.3	-29.1	15.9	0.00e+00	0	43	0	632291328	14	4420
2026-01-15 09:02:13.73	93.04	25.52	-27.3	-29.2	15.9	0.00e+00	0	43	0	635437056	14	4440
2026-01-15 09:02:14.73	92.81	25.63	-27.4	-29.3	15.8	0.00e+00	0	43	0	638582784	14	4473
2026-01-15 09:02:15.73	92.58	25.73	-27.5	-29.5	15.7	0.00e+00	0	43	0	641728512	14	4540
2026-01-15 09:02:16.74	92.34	25.84	-27.5	-29.1	15.7	0.00e+00	0	43	0	644874240	15	4301
2026-01-15 09:02:17.74	92.11	25.94	-27.7	-29.5	15.5	0.00e+00	0	43	0	648019968	15	4409
2026-01-15 09:02:18.74	91.88	26.04	-27.7	-29.5	15.4	0.00e+00	0	43	0	651165696	15	4426
2026-01-15 09:02:19.74	91.64	26.15	-27.7	-29.4	15.5	0.00e+00	0	43	0	654311424	15	4392
2026-01-15 09:02:20.74	91.40	26.25	-27.6	-29.4	15.5	0.00e+00	0	43	0	657457152	15	4385
2026-01-15 09:02:21.74	91.16	26.36	-27.7	-29.5	15.4	0.00e+00	0	43	0	660602880	15	4415
2026-01-15 09:02:22.75	90.92	26.46	-27.7	-29.5	15.4	0.00e+00	0	43	0	663748608	15	4426
2026-01-15 09:02:23.76	90.67	26.57	-27.7	-29.5	15.5	0.00e+00	0	43	0	666894336	15	4409
2026-01-15 09:02:24.75	90.43	26.67	-27.8	-29.7	15.4	7.00e-07	0	43	0	670040064	15	4479
2026-01-15 09:02:25.76	90.18	26.77	-27.7	-29.5	15.4	7.00e-07	0	43	0	673185792	15	4435
2026-01-15 09:02:26.76	89.94	26.88	-27.5	-29.0	15.7	0.00e+00	0	43	0	676331520	15	4286
2026-01-15 09:02:27.76	89.69	26.98	-27.5	-29.0	15.7	0.00e+00	0	43	0	679477248	15	4295
2026-01-15 09:02:28.76	89.44	27.08	-27.5	-28.9	15.8	0.00e+00	0	43	0	682622976	15	4254
2026-01-15 09:02:29.77	89.18	27.19	-27.5	-29.0	15.7	0.00e+00	0	43	0	685768704	15	4286
2026-01-15 09:02:30.77	88.93	27.29	-27.5	-29.0	15.8	0.00e+00	0	43	0	688914432	15	4273
2026-01-15 09:02:31.77	88.67	27.39	-27.5	-29.0	15.7	0.00e+00	0	43	0	692060160	15	4286
2026-01-15 09:02:32.77	88.42	27.49	-27.4	-28.8	15.9	0.00e+00	0	43	0	695205888	15	4224
2026-01-15 09:02:33.77	88.16	27.59	-27.3	-28.6	16.0	0.00e+00	0	43	0	698351616	15	4168
2026-01-15 09:02:34.76	87.90	27.69	-27.5	-29.0	15.8	0.00e+00	0	43	0	701497344	15	4266
2026-01-15 09:02:35.77	87.63	27.79	-27.5	-29.0	15.7	0.00e+00	0	43	0	704643072	15	4285
2026-01-15 09:02:36.77	87.37	27.89	-27.6	-29.2	15.7	0.00e+00	0	43	0	707788800	15	4340
2026-01-15 09:02:37.78	87.10	28.00	-27.7	-29.4	15.5	0.00e+00	0	43	0	710934528	15	4401
2026-01-15 09:02:38.78	86.83	28.10	-27.8	-29.7	15.4	0.00e+00	0	43	0	714080256	15	4477
2026-01-15 09:02:39.78	86.57	28.20	-27.8	-29.7	15.4	0.00e+00	0	43	0	717225984	15	4465
2026-01-15 09:02:40.79	86.29	28.30	-27.7	-29.5	15.5	0.00e+00	0	43	0	720371712	15	4430
2026-01-15 09:02:41.79	86.02	28.39	-27.6	-29.3	15.6	0.00e+00	0	43	0	723517440	15	4367
2026-01-15 09:02:42.80	85.74	28.49	-27.7	-29.6	15.4	0.00e+00	0	43	0	726663168	15	4444
2026-01-15 09:02:43.80	85.47	28.59	-27.6	-29.1	15.7	0.00e+00	0	43	0	729808896	15	4315
2026-01-15 09:02:44.80	85.19	28.69	-27.6	-29.2	15.7	0.00e+00	0	43	0	732954624	15	4338
2026-01-15 09:02:45.80	84.91	28.79	-27.6	-29.2	15.7	0.00e+00	0	43	0	736100352	15	4323
2026-01-15 09:02:46.81	84.63	28.88	-27.7	-29.4	15.6	0.00e+00	0	43	0	739246080	15	4379
2026-01-15 09:02:47.81	84.34	28.98	-27.6	-29.1	15.7	0.00e+00	0	43	0	742391808	15	4311
2026-01-15 09:02:48.80	84.06	29.08	-27.4	-28.7	15.9	0.00e+00	0	43	0	745537536	15	4210
2026-01-15 09:02:49.80	83.78	29.17	-27.4	-28.8	15.9	0.00e+00	0	43	0	748683264	15	4223
2026-01-15 09:02:50.81	83.49	29.27	-27.3	-28.6	16.0	0.00e+00	0	43	0	751828992	15	4157
2026-01-15 09:02:51.82	83.19	29.36	-27.3	-28.4	16.1	0.00e+00	0	43	0	754974720	15	4122
2026-01-15 09:02:52.82	82.90	29.46	-27.4	-28.7	15.9	0.00e+00	0	43	0	758120448	15	4210
2026-01-15 09:02:53.83	82.61	29.55	-27.4	-28.7	15.9	0.00e+00	0	43	0	761266176	15	4200
2026-01-15 09:02:54.83	82.31	29.64	-27.5	-29.1	15.8	0.00e+00	0	43	0	764411904	15	4301
2026-01-15 09:02:55.83	82.02	29.74	-27.5	-29.0	15.8	0.00e+00	0	43	0	767557632	15	4274
2026-01-15 09:02:56.83	81.72	29.83	-27.5	-28.9	15.8	0.00e+00	0	43	0	770703360	15	4249
2026-01-15 09:02:57.84	81.42	29.92	-27.5	-29.0	15.8	0.00e+00	0	43	0	773849088	15	4273
2026-01-15 09:02:58.84	81.12	30.01	-27.5	-29.0	15.8	0.00e+00	0	43	0	776994816	15	4284
2026-01-15 09:02:59.84	80.81	30.10	-27.6	-29.3	15.7	0.00e+00	0	43	0	780140544	15	4363
2026-01-15 09:03:00.84	80.51	30.19	-27.6	-29.2	15.7	0.00e+00	0	43	0	783286272	15	4327
2026-01-15 09:03:01.85	80.20	30.28	-27.5	-29.0	15.8	0.00e+00	0	43	0	786432000	15	4281
2026-01-15 09:03:02.85	79.89	30.37	-27.7	-29.4	15.6	0.00e+00	0	43	0	789577728	15	4383
2026-01-15 09:03:03.84	79.58	30.45	-27.5	-29.1	15.7	0.00e+00	0	43	0	792723456	15	4304
2026-01-15 09:03:04.84	79.27	30.54	-27.3	-28.6	16.0	0.00e+00	0	43	0	795869184	15	4156
2026-01-15 09:03:05.85	78.96	30.63	-27.3	-28.5	16.1	0.00e+00	0	43	0	799014912	15	4153
2026-01-15 09:03:06.85	78.64	30.71	-27.6	-29.2	15.7	0.00e+00	0	43	0	802160640	15	4336
2026-01-15 09:03:07.85	78.33	30.80	-27.6	-29.3	15.6	0.00e+00	0	43	0	805306368	15	4372
2026-01-15 09:03:08.86	78.00	30.88	-27.8	-29.6	15.4	0.00e+00	0	43	0	808452096	15	4454
2026-01-15 09:03:09.85	77.69	30.96	-27.9	-29.9	15.3	0.00e+00	0	43	0	811597824	15	4537
2026-01-15 09:03:10.86	77.36	31.05	-27.9	-29.8	15.3	0.00e+00	0	43	0	814743552	15	4514
2026-01-15 09:03:11.86	77.04	31.13	-27.8	-29.6	15.5	0.00e+00	0	43	0	817889280	15	4459
2026-01-15 09:03:12.86	76.72	31.21	-27.9	-30.0	15.3	0.00e+00	0	43	0	821035008	15	4548
2026-01-15 09:03:13.86	76.39	31.29	-28.1	-29.9	15.2	0.00e+00	0	43	0	824180736	16	4405
2026-01-15 09:03:14.87	76.06	31.37	-28.1	-29.9	15.2	0.00e+00	0	43	0	827326464	16	4395
2026-01-15 09:03:15.87	75.73	31.45	-28.1	-29.9	15.2	0.00e+00	0	43	0	830472192	16	4418
2026-01-15 09:03:16.88	75.39	31.52	-28.3	-30.4	15.0	0.00e+00	0	43	0	833617920	16	4551
2026-01-15 09:03:17.88	75.06	31.60	-28.0	-29.5	15.4	0.00e+00	0	43	0	836763648	16	4303
2026-01-15 09:03:18.89	74.72	31.68	-27.9	-29.4	15.5	0.00e+00	0	43	0	839909376	16	4280
2026-01-15 09:03:19.89	74.39	31.75	-28.0	-29.6	15.4	0.00e+00	0	43	0	843055104	16	4320
2026-01-15 09:03:20.89	74.05	31.82	-27.9	-29.4	15.5	0.00e+00	0	43	0	846200832	16	4274
2026-01-15 09:03:21.90	73.71	31.90	-27.9	-29.3	15.5	4.50e-06	0	43	0	849346560	16	4247
2026-01-15 09:03:22.90	73.37	31.97	-28.0	-29.6	15.4	0.00e+00	0	43	0	852492288	16	4309
2026-01-15 09:03:23.91	73.02	32.04	-28.2	-30.1	15.1	0.00e+00	0	43	0	855638016	16	4473
2026-01-15 09:03:24.91	72.68	32.11	-28.2	-30.0	15.2	0.00e+00	0	43	0	857735168	16	4437
2026-01-15 09:03:25.90	72.34	32.18	-28.0	-29.7	15.4	0.00e+00	0	43	0	860880896	16	4352
2026-01-15 09:03:26.91	71.99	32.25	-28.1	-29.9	15.2	0.00e+00	0	43	0	864026624	16	4397
2026-01-15 09:03:27.91	71.64	32.31	-28.2	-29.9	15.2	9.90e-06	0	43	0	867172352	16	4414
2026-01-15 09:03:28.92	71.29	32.38	-28.3	-30.2	15.1	0.00e+00	0	43	0	870318080	16	4485
2026-01-15 09:03:29.92	70.94	32.44	-28.3	-30.2	15.1	0.00e+00	0	43	0	874512384	16	4490
2026-01-15 09:03:30.93	70.58	32.51	-28.6	-30.4	14.7	6.80e-06	0	43	0	877658112	17	4453
2026-01-15 09:03:31.93	70.23	32.57	-28.6	-30.4	14.7	0.00e+00	0	43	0	879755264	17	4430
2026-01-15 09:03:32.94	69.87	32.63	-28.7	-30.7	14.6	0.00e+00	0	43	0	882900992	17	4518
2026-01-15 09:03:33.95	69.51	32.69	-28.5	-30.3	14.7	2.20e-06	0	43	0	886046720	17	4407
2026-01-15 09:03:34.95	69.15	32.75	-28.4	-30.1	14.9	0.00e+00	0	43	0	889192448	17	4350
2026-01-15 09:03:35.95	68.80	32.81	-28.5	-30.1	14.8	0.00e+00	0	43	0	892338176	17	4361
2026-01-15 09:03:36.96	68.43	32.86	-28.3	-29.7	15.1	3.80e-06	0	43	0	895483904	17	4238
2026-01-15 09:03:37.96	68.07	32.92	-28.2	-29.6	15.1	7.00e-07	0	43	0	898629632	17	4212
2026-01-15 09:03:38.96	67.71	32.97	-28.2	-29.6	15.1	0.00e+00	0	43	0	901775360	17	4207
2026-01-15 09:03:39.96	67.35	33.03	-28.3	-29.7	15.0	0.00e+00	0	43	0	904921088	17	4256
2026-01-15 09:03:40.96	66.98	33.08	-28.6	-30.4	14.7	0.00e+00	0	43	0	908066816	17	4436
2026-01-15 09:03:41.96	66.62	33.13	-28.5	-30.2	14.8	0.00e+00	0	43	0	911212544	17	4389
2026-01-15 09:03:42.97	66.25	33.18	-28.5	-30.1	14.9	0.00e+00	0	43	0	914358272	17	4359
2026-01-15 09:03:43.98	65.87	33.23	-28.6	-30.4	14.7	0.00e+00	0	43	0	917504000	17	4438
2026-01-15 09:03:44.98	65.50	33.27	-28.6	-30.4	14.7	7.00e-07	0	43	0	920649728	17	4428
2026-01-15 09:03:45.98	65.13	33.32	-28.6	-30.6	14.6	7.00e-07	0	43	0	923795456	17	4499
2026-01-15 09:03:46.99	64.76	33.36	-28.6	-30.4	14.7	0.00e+00	0	43	0	926941184	17	4438
2026-01-15 09:03:48.00	64.38	33.41	-28.6	-30.5	14.6	0.00e+00	0	43	0	930086912	17	4482
2026-01-15 09:03:49.00	64.01	33.45	-28.5	-30.3	14.7	7.00e-07	0	43	0	933232640	17	4414
2026-01-15 09:03:50.01	63.63	33.49	-28.6	-30.4	14.6	0.00e+00	0	43	0	936378368	17	4452
2026-01-15 09:03:51.02	63.25	33.53	-28.6	-30.6	14.6	7.00e-07	0	43	0	939524096	17	4491
2026-01-15 09:03:52.02	62.88	33.56	-28.5	-30.3	14.7	7.00e-07	0	43	0	942669824	17	4422
2026-01-15 09:03:53.03	62.50	33.60	-28.5	-30.3	14.8	0.00e+00	0	43	0	945815552	17	4401
2026-01-15 09:03:54.04	62.12	33.64	-28.5	-30.3	14.7	1.50e-06	0	43	0	948961280	17	4406
2026-01-15 09:03:55.04	61.74	33.67	-28.5	-30.3	14.8	0.00e+00	0	43	0	952107008	17	4398
2026-01-15 09:03:56.04	61.36	33.70	-28.5	-30.2	14.8	0.00e+00	0	43	0	955252736	17	4369
2026-01-15 09:03:57.05	60.98	33.73	-28.5	-30.2	14.8	0.00e+00	0	43	0	958398464	17	4395
2026-01-15 09:03:58.06	60.59	33.76	-28.7	-30.7	14.5	0.00e+00	0	43	0	961544192	17	4532
2026-01-15 09:03:59.04	60.22	33.79	-28.6	-30.3	14.7	7.00e-07	0	43	0	964689920	17	4417
2026-01-15 09:04:00.04	59.84	33.81	-28.5	-30.2	14.8	0.00e+00	0	43	0	967835648	17	4376
2026-01-15 09:04:01.04	59.45	33.84	-28.5	-30.2	14.8	0.00e+00	0	43	0	970981376	17	4372
2026-01-15 09:04:02.04	59.07	33.86	-28.4	-29.9	14.9	7.00e-07	0	43	0	974127104	17	4303
2026-01-15 09:04:03.04	58.69	33.88	-28.2	-29.6	15.2	0.00e+00	0	43	0	977272832	17	4200
2026-01-15 09:04:04.04	58.30	33.90	-28.4	-29.9	15.0	0.00e+00	0	43	0	980418560	17	4291
2026-01-15 09:04:05.04	57.92	33.92	-28.3	-29.7	15.1	7.00e-07	0	43	0	983564288	17	4251
2026-01-15 09:04:06.05	57.53	33.94	-28.3	-29.7	15.1	0.00e+00	0	43	0	986710016	17	4239
2026-01-15 09:04:07.05	57.15	33.96	-28.5	-30.2	14.9	0.00e+00	0	43	0	989855744	17	4368
2026-01-15 09:04:08.06	56.76	33.97	-28.5	-30.3	14.8	7.00e-07	0	43	0	993001472	17	4411
2026-01-15 09:04:09.07	56.37	33.99	-28.7	-30.6	14.6	0.00e+00	0	43	0	996147200	17	4485
2026-01-15 09:04:10.07	55.98	34.00	-28.7	-30.6	14.6	0.00e+00	0	43	0	999292928	17	4512
2026-01-15 09:04:11.07	55.60	34.01	-28.8	-31.0	14.4	1.50e-06	0	43	0	1002438656	17	4611
2026-01-15 09:04:12.07	55.21	34.02	-28.8	-31.0	14.4	7.00e-07	0	43	0	1005584384	17	4614
2026-01-15 09:04:13.07	54.82	34.02	-28.5	-30.3	14.8	0.00e+00	0	43	0	1008730112	17	4408
2026-01-15 09:04:14.08	54.43	34.03	-28.5	-30.2	14.8	0.00e+00	0	43	0	1011875840	17	4365
2026-01-15 09:04:15.07	54.05	34.03	-28.7	-30.7	14.5	1.50e-06	0	43	0	1015021568	17	4532
2026-01-15 09:04:16.08	53.66	34.04	-28.6	-30.4	14.7	7.00e-07	0	43	0	1018167296	17	4442
2026-01-15 09:04:17.08	53.27	34.04	-28.5	-30.3	14.8	0.00e+00	0	43	0	1021313024	17	4403
2026-01-15 09:04:18.08	52.88	34.04	-28.7	-30.7	14.6	0.00e+00	0	43	0	1024458752	17	4525
2026-01-15 09:04:19.09	52.49	34.03	-29.0	-31.0	14.1	7.00e-07	0	43	0	1027604480	18	4494
2026-01-15 09:04:20.09	52.11	34.03	-28.7	-30.3	14.5	0.00e+00	0	43	0	1030750208	18	4295
2026-01-15 09:04:21.09	51.72	34.03	-28.7	-30.0	14.7	0.00e+00	0	43	0	1033895936	18	4229
2026-01-15 09:04:22.10	51.33	34.02	-28.7	-30.1	14.6	0.00e+00	0	43	0	1037041664	18	4240
2026-01-15 09:04:23.10	50.94	34.01	-28.7	-30.2	14.6	0.00e+00	0	43	0	1040187392	18	4285
2026-01-15 09:04:24.11	50.55	34.00	-28.9	-30.6	14.4	0.00e+00	0	43	0	1043333120	18	4375
2026-01-15 09:04:25.11	50.16	33.99	-28.7	-30.2	14.6	7.00e-07	0	43	0	1046478848	18	4266
2026-01-15 09:04:26.11	49.78	33.98	-28.7	-30.1	14.6	0.00e+00	0	43	0	1049624576	18	4250
2026-01-15 09:04:27.12	49.39	33.97	-28.6	-30.0	14.7	0.00e+00	0	43	0	1052770304	18	4211
2026-01-15 09:04:28.12	49.00	33.95	-28.8	-30.4	14.4	0.00e+00	0	43	0	1055916032	18	4337
2026-01-15 09:04:29.12	48.62	33.93	-28.8	-30.5	14.4	7.00e-07	0	43	0	1059061760	18	4363
2026-01-15 09:04:30.13	48.23	33.92	-28.7	-30.1	14.6	0.00e+00	0	43	0	1062207488	18	4246
2026-01-15 09:04:31.12	47.85	33.90	-28.5	-29.6	14.9	0.00e+00	0	43	0	1065353216	18	4107
2026-01-15 09:04:32.13	47.46	33.88	-28.5	-29.7	14.8	0.00e+00	0	43	0	1068498944	18	4137
2026-01-15 09:04:33.13	47.08	33.85	-28.3	-29.6	15.1	0.00e+00	0	43	0	1071644672	17	4218
2026-01-15 09:04:34.14	46.70	33.83	-28.1	-29.3	15.3	0.00e+00	0	43	0	1074790400	17	4115
2026-01-15 09:04:35.14	46.31	33.80	-28.2	-29.4	15.3	0.00e+00	0	43	0	1077936128	17	4156
2026-01-15 09:04:36.14	45.93	33.78	-28.4	-29.9	15.0	0.00e+00	0	43	0	1081081856	17	4297
2026-01-15 09:04:37.15	45.55	33.75	-28.5	-30.3	14.8	0.00e+00	0	43	0	1084227584	17	4414
2026-01-15 09:04:38.16	45.16	33.72	-28.6	-30.5	14.6	0.00e+00	0	43	0	1087373312	17	4477
2026-01-15 09:04:39.16	44.79	33.69	-28.6	-30.5	14.7	0.00e+00	0	43	0	1090519040	17	4470
2026-01-15 09:04:40.17	44.40	33.66	-28.7	-30.6	14.6	0.00e+00	0	43	0	1093664768	17	4496
2026-01-15 09:04:41.17	44.03	33.62	-28.6	-30.4	14.7	1.50e-06	0	43	0	1096810496	17	4447
2026-01-15 09:04:42.17	43.65	33.59	-28.7	-30.6	14.6	7.00e-07	0	43	0	1099956224	17	4509
2026-01-15 09:04:43.17	43.27	33.55	-28.4	-30.0	14.9	0.00e+00	0	43	0	1103101952	17	4332
2026-01-15 09:04:44.18	42.89	33.51	-28.5	-30.2	14.8	0.00e+00	0	43	0	1106247680	17	4379
2026-01-15 09:04:45.18	42.52	33.47	-28.7	-30.6	14.6	0.00e+00	0	43	0	1109393408	17	4495
2026-01-15 09:04:46.19	42.14	33.43	-28.7	-30.7	14.6	0.00e+00	0	43	0	1112539136	17	4516
2026-01-15 09:04:47.19	41.77	33.39	-28.6	-30.4	14.7	7.00e-07	0	43	0	1115684864	17	4446
2026-01-15 09:04:48.20	41.40	33.35	-28.9	-31.0	14.4	1.50e-06	0	43	0	1118830592	17	4628
2026-01-15 09:04:49.20	41.03	33.30	-28.6	-30.5	14.6	0.00e+00	0	43	0	1121976320	17	4475
2026-01-15 09:04:50.20	40.66	33.26	-28.6	-30.5	14.7	0.00e+00	0	43	0	1125122048	17	4456
2026-01-15 09:04:51.20	40.29	33.21	-28.4	-30.1	14.9	7.00e-07	0	43	0	1128267776	17	4341
2026-01-15 09:04:52.20	39.92	33.16	-28.3	-29.8	15.0	0.00e+00	0	43	0	1131413504	17	4283
2026-01-15 09:04:53.21	39.55	33.11	-28.4	-30.0	14.9	0.00e+00	0	43	0	1134559232	17	4324
2026-01-15 09:04:54.21	39.19	33.06	-28.3	-29.8	15.0	0.00e+00	0	43	0	1137704960	17	4268
2026-01-15 09:04:55.22	38.82	33.01	-28.5	-30.2	14.8	7.00e-07	0	43	0	1140850688	17	4379
2026-01-15 09:04:56.22	38.46	32.96	-28.7	-30.8	14.5	2.20e-06	0	43	0	1143996416	17	4545
2026-01-15 09:04:57.22	38.10	32.90	-28.9	-31.1	14.3	3.00e-06	0	43	0	1147142144	17	4641
2026-01-15 09:04:58.22	37.74	32.85	-28.4	-30.1	14.9	0.00e+00	0	43	0	1150287872	17	4343
2026-01-15 09:04:59.22	37.38	32.79	-28.1	-29.2	15.4	0.00e+00	0	43	0	1153433600	17	4098
2026-01-15 09:05:00.22	37.02	32.73	-27.9	-28.7	15.6	0.00e+00	0	43	0	1156579328	17	3980
2026-01-15 09:05:01.23	36.66	32.67	-27.9	-28.9	15.6	0.00e+00	0	43	0	1159725056	17	4022
2026-01-15 09:05:02.24	36.30	32.61	-27.9	-28.9	15.5	0.00e+00	0	43	0	1162870784	17	4024
2026-01-15 09:05:03.24	35.95	32.55	-27.9	-28.8	15.6	0.00e+00	0	43	0	1166016512	17	3987
2026-01-15 09:05:04.25	35.59	32.49	-28.1	-29.2	15.3	0.00e+00	0	43	0	1169162240	17	4116
2026-01-15 09:05:05.25	35.24	32.42	-28.2	-29.4	15.2	0.00e+00	0	43	0	1172307968	17	4172
2026-01-15 09:05:06.26	34.89	32.36	-28.2	-29.6	15.1	0.00e+00	0	43	0	1175453696	17	4215
2026-01-15 09:05:07.26	34.54	32.29	-28.1	-29.2	15.3	0.00e+00	0	43	0	1178599424	17	4112
2026-01-15 09:05:08.27	34.19	32.22	-27.9	-28.9	15.5	0.00e+00	0	43	0	1181745152	17	4011
2026-01-15 09:05:09.26	33.85	32.16	-27.9	-28.8	15.6	0.00e+00	0	43	0	1184890880	17	4008
2026-01-15 09:05:10.26	33.51	32.09	-27.9	-28.8	15.5	0.00e+00	0	43	0	1188036608	17	4008
2026-01-15 09:05:11.27	33.16	32.02	-27.8	-28.7	15.6	0.00e+00	0	43	0	1191182336	17	3968
2026-01-15 09:05:12.27	32.82	31.95	-28.0	-29.0	15.5	0.00e+00	0	43	0	1194328064	17	4046
2026-01-15 09:05:13.28	32.48	31.87	-28.2	-29.5	15.1	0.00e+00	0	43	0	1197473792	17	4189
2026-01-15 09:05:14.28	32.14	31.80	-28.2	-29.6	15.1	1.50e-06	0	43	0	1200619520	17	4205
2026-01-15 09:05:15.29	31.80	31.73	-28.2	-29.5	15.1	0.00e+00	0	43	0	1202716672	17	4196
2026-01-15 09:05:16.29	31.47	31.65	-28.2	-29.6	15.1	0.00e+00	0	43	0	1205862400	17	4203
2026-01-15 09:05:17.30	31.13	31.58	-28.5	-30.2	14.8	0.00e+00	0	43	0	1209008128	17	4369
2026-01-15 09:05:18.30	30.80	31.50	-28.3	-29.8	15.0	0.00e+00	0	43	0	1212153856	17	4268
2026-01-15 09:05:19.30	30.47	31.42	-28.2	-29.6	15.1	0.00e+00	0	43	0	1216348160	17	4199
2026-01-15 09:05:20.30	30.14	31.34	-28.4	-30.1	14.8	0.00e+00	0	43	0	1218445312	17	4356
2026-01-15 09:05:21.30	29.82	31.27	-28.6	-30.5	14.5	7.00e-07	0	43	0	1222639616	17	4473
2026-01-15 09:05:22.30	29.49	31.19	-29.3	-31.6	13.7	4.50e-06	0	43	0	1225785344	18	4693
2026-01-15 09:05:23.31	29.17	31.10	-29.3	-31.5	13.7	3.00e-06	0	43	0	1227882496	18	4678
2026-01-15 09:05:24.31	28.85	31.02	-29.1	-31.1	14.0	4.50e-06	0	43	0	1231028224	18	4533
2026-01-15 09:05:25.32	28.52	30.94	-28.5	-29.7	14.7	0.00e+00	0	43	0	1234173952	18	4152
2026-01-15 09:05:26.32	28.20	30.86	-27.9	-28.9	15.4	0.00e+00	0	43	0	1237319680	17	4036
2026-01-15 09:05:27.32	27.89	30.77	-28.0	-29.0	15.4	0.00e+00	0	43	0	1240465408	17	4056
2026-01-15 09:05:28.33	27.57	30.69	-28.2	-29.6	15.1	0.00e+00	0	43	0	1243611136	17	4213
2026-01-15 09:05:29.33	27.26	30.60	-28.5	-30.2	14.8	0.00e+00	0	43	0	1246756864	17	4385
2026-01-15 09:05:30.34	26.94	30.52	-28.5	-30.3	14.7	0.00e+00	0	43	0	1249902592	17	4407
2026-01-15 09:05:31.34	26.63	30.43	-28.1	-29.3	15.2	0.00e+00	0	43	0	1253048320	17	4146
2026-01-15 09:05:32.34	26.32	30.34	-27.9	-28.8	15.5	0.00e+00	0	43	0	1256194048	17	3999
2026-01-15 09:05:33.35	26.01	30.25	-27.7	-28.8	15.8	0.00e+00	0	43	0	1259339776	16	4112
2026-01-15 09:05:34.35	25.71	30.16	-27.6	-28.7	15.9	0.00e+00	0	43	0	1262485504	16	4075
2026-01-15 09:05:35.35	25.41	30.08	-27.8	-29.2	15.5	0.00e+00	0	43	0	1265631232	16	4212
2026-01-15 09:05:36.36	25.10	29.98	-28.2	-30.0	15.0	0.00e+00	0	43	0	1268776960	16	4441
2026-01-15 09:05:37.35	24.81	29.89	-28.5	-30.3	14.6	0.00e+00	0	43	0	1271922688	17	4433
2026-01-15 09:05:38.36	24.50	29.80	-28.8	-31.0	14.2	0.00e+00	0	43	0	1275068416	17	4625
2026-01-15 09:05:39.37	24.21	29.71	-29.0	-31.4	14.0	7.00e-07	0	43	0	1278214144	17	4762
2026-01-15 09:05:40.37	23.91	29.62	-28.9	-30.8	14.1	2.20e-06	0	43	0	1281359872	18	4450
2026-01-15 09:05:41.37	23.62	29.53	-28.5	-29.7	14.7	7.00e-07	0	43	0	1284505600	18	4155
2026-01-15 09:05:42.37	23.33	29.43	-28.2	-29.4	15.1	0.00e+00	0	43	0	1287651328	17	4181
2026-01-15 09:05:43.37	23.04	29.34	-28.0	-29.2	15.3	0.00e+00	0	43	0	1290797056	17	4105
2026-01-15 09:05:44.37	22.75	29.24	-28.1	-29.3	15.2	0.00e+00	0	43	0	1293942784	17	4127
2026-01-15 09:05:45.38	22.46	29.15	-28.3	-29.7	15.0	0.00e+00	0	43	0	1297088512	17	4234
2026-01-15 09:05:46.39	22.17	29.05	-28.6	-30.4	14.6	7.00e-07	0	43	0	1300234240	17	4433
2026-01-15 09:05:47.39	21.89	28.96	-28.4	-30.0	14.8	0.00e+00	0	43	0	1303379968	17	4323
2026-01-15 09:05:48.39	21.61	28.86	-28.2	-29.5	15.0	0.00e+00	0	43	0	1306525696	17	4203
2026-01-15 09:05:49.39	21.33	28.76	-28.2	-29.5	15.1	0.00e+00	0	43	0	1309671424	17	4190
2026-01-15 09:05:50.40	21.05	28.67	-28.2	-29.5	15.1	0.00e+00	0	43	0	1312817152	17	4191
2026-01-15 09:05:51.40	20.78	28.57	-28.2	-29.5	15.1	0.00e+00	0	43	0	1315962880	17	4190
2026-01-15 09:05:52.40	20.50	28.47	-28.1	-29.2	15.2	0.00e+00	0	43	0	1319108608	17	4122
2026-01-15 09:05:53.40	20.23	28.37	-27.8	-28.7	15.4	0.00e+00	0	43	0	1322254336	17	3994
2026-01-15 09:05:54.41	19.96	28.27	-27.9	-28.8	15.4	0.00e+00	0	43	0	1325400064	17	4004
2026-01-15 09:05:55.41	19.69	28.17	-27.9	-28.9	15.4	0.00e+00	0	43	0	1328545792	17	4027
2026-01-15 09:05:56.42	19.42	28.07	-27.9	-28.9	15.4	0.00e+00	0	43	0	1331691520	17	4034
2026-01-15 09:05:57.42	19.15	27.97	-27.9	-28.8	15.4	0.00e+00	0	43	0	1334837248	17	4010
2026-01-15 09:05:58.43	18.88	27.87	-27.7	-28.9	15.6	0.00e+00	0	43	0	1337982976	16	4153
2026-01-15 09:05:59.43	18.62	27.77	-27.6	-28.6	15.8	0.00e+00	0	43	0	1341128704	16	4061
2026-01-15 09:06:00.43	18.36	27.67	-27.4	-28.2	16.0	0.00e+00	0	43	0	1344274432	16	3954
2026-01-15 09:06:01.43	18.10	27.57	-27.4	-28.2	16.0	0.00e+00	0	43	0	1347420160	16	3965
2026-01-15 09:06:02.43	17.85	27.47	-27.5	-28.4	15.9	0.00e+00	0	43	0	1350565888	16	4007
2026-01-15 09:06:03.44	17.59	27.37	-27.4	-28.4	15.9	0.00e+00	0	43	0	1353711616	16	3999
2026-01-15 09:06:04.44	17.33	27.27	-27.6	-28.8	15.7	0.00e+00	0	43	0	1356857344	16	4107
2026-01-15 09:06:05.44	17.08	27.16	-27.8	-29.2	15.5	0.00e+00	0	43	0	1360003072	16	4216
2026-01-15 09:06:06.45	16.83	27.06	-27.8	-29.1	15.5	0.00e+00	0	43	0	1363148800	16	4210
2026-01-15 09:06:07.45	16.58	26.96	-27.5	-28.6	15.8	0.00e+00	0	43	0	1366294528	16	4047
2026-01-15 09:06:08.45	16.33	26.86	-27.3	-28.1	16.1	0.00e+00	0	43	0	1369440256	16	3941
2026-01-15 09:06:09.45	16.09	26.75	-27.0	-27.8	16.3	0.00e+00	0	43	0	1372585984	15	3971
2026-01-15 09:06:10.46	15.84	26.65	-26.9	-27.7	16.4	0.00e+00	0	43	0	1375731712	15	3932
2026-01-15 09:06:11.46	15.60	26.55	-27.0	-27.9	16.3	0.00e+00	0	43	0	1378877440	15	3988
2026-01-15 09:06:12.46	15.36	26.44	-27.1	-28.1	16.2	0.00e+00	0	43	0	1382023168	15	4029
2026-01-15 09:06:13.47	15.11	26.34	-27.2	-28.3	16.0	0.00e+00	0	43	0	1385168896	15	4093
2026-01-15 09:06:14.47	14.88	26.24	-27.4	-28.7	15.8	0.00e+00	0	43	0	1388314624	15	4192
2026-01-15 09:06:15.48	14.64	26.13	-27.4	-28.8	15.7	0.00e+00	0	43	0	1391460352	15	4232
2026-01-15 09:06:16.48	14.40	26.03	-27.4	-28.8	15.7	0.00e+00	0	43	0	1394606080	15	4242
2026-01-15 09:06:17.49	14.17	25.92	-27.4	-28.7	15.8	0.00e+00	0	43	0	1397751808	15	4199
2026-01-15 09:06:18.49	13.94	25.82	-27.4	-28.7	15.8	0.00e+00	0	43	0	1400897536	15	4199
2026-01-15 09:06:19.49	13.71	25.71	-27.5	-29.0	15.6	0.00e+00	0	43	0	1404043264	15	4280
2026-01-15 09:06:20.50	13.47	25.61	-27.5	-29.1	15.6	0.00e+00	0	43	0	1407188992	15	4301
2026-01-15 09:06:21.50	13.25	25.50	-27.3	-28.6	15.9	0.00e+00	0	43	0	1410334720	15	4176
2026-01-15 09:06:22.50	13.02	25.40	-27.2	-28.2	16.1	0.00e+00	0	43	0	1413480448	15	4078
2026-01-15 09:06:23.51	12.80	25.29	-27.1	-28.1	16.1	0.00e+00	0	43	0	1416626176	15	4048
2026-01-15 09:06:24.51	12.57	25.19	-27.1	-28.2	16.1	0.00e+00	0	43	0	1419771904	15	4065
2026-01-15 09:06:25.51	12.35	25.08	-27.1	-28.1	16.1	0.00e+00	0	43	0	1422917632	15	4040
2026-01-15 09:06:26.52	12.13	24.98	-27.1	-28.1	16.1	0.00e+00	0	43	0	1426063360	15	4049
2026-01-15 09:06:27.52	11.91	24.87	-27.1	-28.1	16.1	0.00e+00	0	43	0	1429209088	15	4052
2026-01-15 09:06:28.53	11.69	24.77	-26.9	-27.8	16.3	0.00e+00	0	43	0	1432354816	15	3966
2026-01-15 09:06:29.53	11.48	24.66	-26.9	-27.7	16.3	0.00e+00	0	43	0	1435500544	15	3947
2026-01-15 09:06:30.54	11.26	24.56	-26.9	-27.7	16.3	0.00e+00	0	43	0	1438646272	15	3951
2026-01-15 09:06:31.55	11.05	24.45	-26.9	-27.7	16.3	0.00e+00	0	43	0	1441792000	15	3949
2026-01-15 09:06:32.55	10.84	24.35	-27.0	-27.9	16.2	0.00e+00	0	43	0	1444937728	15	4004
2026-01-15 09:06:33.55	10.63	24.24	-27.1	-28.1	16.1	0.00e+00	0	43	0	1448083456	15	4041
2026-01-15 09:06:34.55	10.42	24.14	-27.1	-28.0	16.1	0.00e+00	0	43	0	1451229184	15	4027
2026-01-15 09:06:35.56	10.21	24.03	-27.1	-28.1	16.1	0.00e+00	0	43	0	1454374912	15	4037
2026-01-15 09:06:36.56	10.01	23.93	-27.0	-27.9	16.2	0.00e+00	0	43	0	1457520640	15	3988
2026-01-15 09:06:37.56	9.80	23.82	-26.9	-27.7	16.2	0.00e+00	0	43	0	1460666368	15	3942
2026-01-15 09:06:38.57	9.60	23.72	-26.9	-27.6	16.3	0.00e+00	0	43	0	1463812096	15	3925
2026-01-15 09:06:39.57	9.40	23.61	-26.8	-27.5	16.4	0.00e+00	0	43	0	1466957824	15	3889
2026-01-15 09:06:40.57	9.20	23.51	-27.1	-28.2	16.0	0.00e+00	0	43	0	1470103552	15	4075
2026-01-15 09:06:41.58	9.00	23.40	-27.1	-28.2	16.0	0.00e+00	0	43	0	1473249280	15	4079
2026-01-15 09:06:42.58	8.80	23.30	-27.1	-28.1	16.1	0.00e+00	0	43	0	1476395008	15	4050
2026-01-15 09:06:43.59	8.60	23.19	-27.3	-28.6	15.8	0.00e+00	0	43	0	1479540736	15	4186
2026-01-15 09:06:44.59	8.41	23.09	-27.4	-28.8	15.6	0.00e+00	0	43	0	1482686464	15	4247
2026-01-15 09:06:45.59	8.22	22.98	-27.7	-29.4	15.3	0.00e+00	0	43	0	1485832192	15	4406
2026-01-15 09:06:46.60	8.02	22.88	-27.9	-29.9	15.0	0.00e+00	0	43	0	1488977920	15	4549
2026-01-15 09:06:47.60	7.83	22.77	-27.8	-29.8	15.1	0.00e+00	0	43	0	1492123648	15	4528
2026-01-15 09:06:48.60	7.65	22.67	-27.7	-29.6	15.2	0.00e+00	0	43	0	1495269376	15	4458
2026-01-15 09:06:49.61	7.46	22.56	-27.6	-29.2	15.4	0.00e+00	0	43	0	1498415104	15	4357
2026-01-15 09:06:50.61	7.27	22.46	-27.6	-29.2	15.4	0.00e+00	0	43	0	1501560832	15	4357
2026-01-15 09:06:51.61	7.08	22.35	-27.7	-29.5	15.2	0.00e+00	0	43	0	1504706560	15	4443
2026-01-15 09:06:52.61	6.90	22.25	-27.5	-29.1	15.5	0.00e+00	0	43	0	1507852288	15	4318
2026-01-15 09:06:53.61	6.72	22.15	-27.4	-28.9	15.6	0.00e+00	0	43	0	1510998016	15	4255
2026-01-15 09:06:54.62	6.53	22.04	-27.7	-29.5	15.2	0.00e+00	0	43	0	1514143744	15	4443
2026-01-15 09:06:55.63	6.35	21.94	-27.7	-29.4	15.3	7.00e-07	0	43	0	1517289472	15	4411
2026-01-15 09:06:56.62	6.18	21.84	-27.6	-29.3	15.4	0.00e+00	0	43	0	1520435200	15	4371
2026-01-15 09:06:57.63	6.00	21.73	-27.9	-30.0	15.0	0.00e+00	0	43	0	1523580928	15	4585
2026-01-15 09:06:58.63	5.82	21.63	-27.8	-29.8	15.0	7.00e-07	0	43	0	1526726656	15	4512
2026-01-15 09:06:59.64	5.64	21.52	-27.7	-29.5	15.2	0.00e+00	0	43	0	1528823808	15	4426
2026-01-15 09:07:00.63	5.47	21.42	-28.0	-30.1	14.9	0.00e+00	0	43	0	1531969536	15	4611
2026-01-15 09:07:01.63	5.30	21.32	-28.0	-29.7	15.0	0.00e+00	0	43	0	1535115264	16	4360
2026-01-15 09:07:02.63	5.13	21.22	-27.7	-29.1	15.3	0.00e+00	0	43	0	1538260992	16	4197
2026-01-15 09:07:03.64	4.95	21.11	-27.4	-28.4	15.7	0.00e+00	0	43	0	1541406720	16	4020
2026-01-15 09:07:04.64	4.78	21.01	-27.4	-28.3	15.8	0.00e+00	0	43	0	1544552448	16	3982
2026-01-15 09:07:05.65	4.61	20.91	-27.5	-28.6	15.6	0.00e+00	0	43	0	1547698176	16	4077
2026-01-15 09:07:06.65	4.45	20.81	-27.8	-29.1	15.3	0.00e+00	0	43	0	1550843904	16	4222
2026-01-15 09:07:07.66	4.28	20.70	-27.8	-29.1	15.3	0.00e+00	0	43	0	1553989632	16	4219
2026-01-15 09:07:08.66	4.11	20.60	-27.8	-29.1	15.3	0.00e+00	0	43	0	1557135360	16	4215
2026-01-15 09:07:09.67	3.95	20.50	-27.8	-29.3	15.2	0.00e+00	0	43	0	1560281088	16	4264
2026-01-15 09:07:10.67	3.79	20.40	-27.8	-29.3	15.1	0.00e+00	0	43	0	1563426816	16	4269
2026-01-15 09:07:11.67	3.62	20.30	-27.9	-29.5	15.1	0.00e+00	0	43	0	1566572544	16	4322
2026-01-15 09:07:12.66	3.46	20.20	-27.8	-29.3	15.2	0.00e+00	0	43	0	1569718272	16	4257
2026-01-15 09:07:13.67	3.30	20.09	-27.7	-29.0	15.4	7.00e-07	0	43	0	1572864000	16	4173
2026-01-15 09:07:14.67	3.15	19.99	-27.6	-28.7	15.5	0.00e+00	0	43	0	1576009728	16	4106
2026-01-15 09:07:15.68	2.99	19.89	-27.6	-28.8	15.4	0.00e+00	0	43	0	1579155456	16	4139
2026-01-15 09:07:16.68	2.83	19.79	-27.4	-28.4	15.7	0.00e+00	0	43	0	1582301184	16	4018
2026-01-15 09:07:17.69	2.67	19.69	-27.4	-28.3	15.7	0.00e+00	0	43	0	1585446912	16	3991
2026-01-15 09:07:18.68	2.52	19.59	-27.4	-28.4	15.7	0.00e+00	0	43	0	1588592640	16	4023
2026-01-15 09:07:19.69	2.37	19.49	-27.3	-28.2	15.8	0.00e+00	0	43	0	1591738368	16	3965
2026-01-15 09:07:20.69	2.21	19.39	-27.4	-28.3	15.7	0.00e+00	0	43	0	1594884096	16	3995
2026-01-15 09:07:21.69	2.06	19.29	-27.3	-28.2	15.8	0.00e+00	0	43	0	1598029824	16	3966
2026-01-15 09:07:22.70	1.91	19.19	-27.3	-28.1	15.8	0.00e+00	0	43	0	1601175552	16	3940
2026-01-15 09:07:23.71	1.76	19.09	-27.4	-28.3	15.7	0.00e+00	0	43	0	1604321280	16	4005
2026-01-15 09:07:24.71	1.61	18.99	-27.4	-28.2	15.7	0.00e+00	0	43	0	1607467008	16	3973
2026-01-15 09:07:25.72	1.46	18.89	-27.4	-28.3	15.7	0.00e+00	0	43	0	1610612736	16	4006
2026-01-15 09:07:26.72	1.32	18.80	-27.5	-28.5	15.6	0.00e+00	0	43	0	1613758464	16	4054
2026-01-15 09:07:27.73	1.17	18.70	-27.6	-28.8	15.4	0.00e+00	0	43	0	1616904192	16	4130
2026-01-15 09:07:28.73	1.03	18.60	-27.5	-28.6	15.5	0.00e+00	0	43	0	1620049920	16	4086
2026-01-15 09:07:29.73	0.88	18.50	-27.6	-28.8	15.4	0.00e+00	0	43	0	1623195648	16	4120
2026-01-15 09:07:30.73	0.74	18.40	-27.8	-29.1	15.2	0.00e+00	0	43	0	1626341376	16	4216
2026-01-15 09:07:31.73	0.60	18.30	-27.6	-28.8	15.4	7.00e-07	0	43	0	1629487104	16	4126
2026-01-15 09:07:32.73	0.46	18.21	-27.5	-28.5	15.5	7.00e-07	0	43	0	1632632832	16	4039
2026-01-15 09:07:33.74	0.32	18.11	-27.4	-28.4	15.6	7.00e-07	0	43	0	1635778560	16	4012
2026-01-15 09:07:34.75	0.18	18.01	-27.5	-28.5	15.6	0.00e+00	0	43	0	1638924288	16	4042
2026-01-15 09:07:35.75	0.04	17.92	-27.5	-28.5	15.5	0.00e+00	0	43	0	1642070016	16	4061
2026-01-15 09:07:36.75	359.90	17.82	-27.7	-29.0	15.3	0.00e+00	0	43	0	1645215744	16	4175
2026-01-15 09:07:37.75	359.77	17.72	-27.6	-28.8	15.4	0.00e+00	0	43	0	1648361472	16	4139
2026-01-15 09:07:38.76	359.63	17.63	-27.6	-28.8	15.4	0.00e+00	0	43	0	1651507200	16	4126
2026-01-15 09:07:39.75	359.50	17.53	-27.7	-29.0	15.2	0.00e+00	0	43	0	1654652928	16	4176
2026-01-15 09:07:40.76	359.36	17.43	-27.8	-29.3	15.1	0.00e+00	0	43	0	1657798656	16	4267
2026-01-15 09:07:41.77	359.23	17.34	-27.9	-29.4	15.0	7.00e-07	0	43	0	1660944384	16	4302
2026-01-15 09:07:42.77	359.10	17.24	-28.1	-30.0	14.7	7.00e-07	0	43	0	1664090112	16	4471
2026-01-15 09:07:43.77	358.97	17.15	-28.1	-30.0	14.6	0.00e+00	0	43	0	1667235840	16	4481
2026-01-15 09:07:44.78	358.84	17.05	-28.1	-29.9	14.7	0.00e+00	0	43	0	1670381568	16	4444
2026-01-15 09:07:45.78	358.71	16.96	-28.1	-30.0	14.6	0.00e+00	0	43	0	1673527296	16	4474
2026-01-15 09:07:46.79	358.58	16.86	-28.1	-29.9	14.7	0.00e+00	0	43	0	1676673024	16	4438
2026-01-15 09:07:47.79	358.45	16.77	-28.0	-29.8	14.8	7.00e-07	0	43	0	1679818752	16	4409
2026-01-15 09:07:48.79	358.32	16.67	-28.0	-29.6	14.9	0.00e+00	0	43	0	1682964480	16	4363
2026-01-15 09:07:49.79	358.20	16.58	-28.1	-29.9	14.7	0.00e+00	0	43	0	1686110208	16	4441
2026-01-15 09:07:50.79	358.07	16.49	-28.0	-29.7	14.9	0.00e+00	0	43	0	1689255936	16	4367
2026-01-15 09:07:51.79	357.95	16.39	-27.8	-29.3	15.0	0.00e+00	0	43	0	1692401664	16	4279
2026-01-15 09:07:52.80	357.82	16.30	-27.8	-29.2	15.1	0.00e+00	0	43	0	1695547392	16	4245
2026-01-15 09:07:53.80	357.70	16.21	-27.9	-29.4	15.0	0.00e+00	0	43	0	1698693120	16	4297
2026-01-15 09:07:54.80	357.58	16.11	-27.9	-29.4	15.0	0.00e+00	0	44	0	1701838848	16	4305
2026-01-15 09:07:55.80	357.46	16.02	-28.0	-29.6	14.8	0.00e+00	0	43	0	1704984576	16	4365
2026-01-15 09:07:56.81	357.34	15.93	-28.0	-29.8	14.7	7.00e-07	0	43	0	1708130304	16	4412
2026-01-15 09:07:57.81	357.22	15.84	-28.1	-30.0	14.6	0.00e+00	0	43	0	1711276032	16	4456
2026-01-15 09:07:58.82	357.10	15.74	-28.1	-30.0	14.6	0.00e+00	0	43	0	1714421760	16	4479
2026-01-15 09:07:59.83	356.98	15.65	-28.2	-30.1	14.6	7.00e-07	0	43	0	1717567488	16	4497
2026-01-15 09:08:00.83	356.86	15.56	-28.2	-30.2	14.5	7.00e-07	0	43	0	1720713216	16	4518
2026-01-15 09:08:01.83	356.74	15.47	-28.2	-30.2	14.5	0.00e+00	0	43	0	1723858944	16	4530
2026-01-15 09:08:02.84	356.63	15.38	-28.2	-30.3	14.4	7.00e-07	0	43	0	1727004672	16	4548
2026-01-15 09:08:03.84	356.51	15.29	-28.4	-30.7	14.2	7.00e-07	0	43	0	1730150400	16	4699
2026-01-15 09:08:04.85	356.40	15.20	-28.3	-30.5	14.3	7.00e-07	0	43	0	1733296128	16	4612
2026-01-15 09:08:05.85	356.28	15.11	-28.2	-30.2	14.5	7.00e-07	0	43	0	1736441856	16	4542
2026-01-15 09:08:06.86	356.17	15.02	-28.2	-30.1	14.5	1.50e-06	0	43	0	1739587584	16	4506
2026-01-15 09:08:07.86	356.06	14.93	-28.2	-30.2	14.4	0.00e+00	0	43	0	1742733312	16	4537
2026-01-15 09:08:08.86	355.95	14.84	-28.1	-30.0	14.5	7.00e-07	0	43	0	1745879040	16	4482
2026-01-15 09:08:09.86	355.83	14.75	-28.2	-30.1	14.5	7.00e-07	0	43	0	1749024768	16	4520
2026-01-15 09:08:10.87	355.72	14.66	-28.1	-30.0	14.6	0.00e+00	0	43	0	1752170496	16	4465
2026-01-15 09:08:11.87	355.61	14.57	-28.0	-29.8	14.7	7.00e-07	0	43	0	1755316224	16	4408
2026-01-15 09:08:12.87	355.50	14.48	-28.1	-29.9	14.6	0.00e+00	0	43	0	1758461952	16	4454
2026-01-15 09:08:13.88	355.40	14.39	-28.0	-29.8	14.7	7.00e-07	0	43	0	1761607680	16	4415
2026-01-15 09:08:14.89	355.29	14.30	-28.0	-29.7	14.7	0.00e+00	0	43	0	1764753408	16	4387
2026-01-15 09:08:15.90	355.18	14.21	-28.0	-29.8	14.6	0.00e+00	0	43	0	1767899136	16	4421
2026-01-15 09:08:16.90	355.07	14.12	-28.1	-29.9	14.5	0.00e+00	0	43	0	1771044864	16	4453
2026-01-15 09:08:17.90	354.97	14.04	-28.1	-30.0	14.5	0.00e+00	0	43	0	1774190592	16	4481
2026-01-15 09:08:18.91	354.86	13.95	-28.1	-30.1	14.4	2.20e-06	0	43	0	1777336320	16	4508
2026-01-15 09:08:19.92	354.76	13.86	-28.2	-30.1	14.4	0.00e+00	0	43	0	1780482048	16	4513
2026-01-15 09:08:20.92	354.65	13.77	-28.2	-30.3	14.3	0.00e+00	0	43	0	1783627776	16	4574
2026-01-15 09:08:21.93	354.55	13.69	-28.2	-30.2	14.4	7.00e-07	0	43	0	1786773504	16	4528
2026-01-15 09:08:22.94	354.45	13.60	-28.2	-30.1	14.4	1.50e-06	0	43	0	1789919232	16	4517
2026-01-15 09:08:23.94	354.34	13.51	-28.4	-30.7	14.1	7.00e-07	0	43	0	1793064960	16	4681
2026-01-15 09:08:24.94	354.24	13.43	-28.3	-30.5	14.2	7.00e-07	0	43	0	1796210688	16	4638
2026-01-15 09:08:25.95	354.14	13.34	-28.5	-30.5	13.9	3.00e-06	0	43	0	1799356416	17	4526
2026-01-15 09:08:26.95	354.04	13.25	-28.4	-30.3	14.0	1.50e-06	0	43	0	1802502144	17	4467
2026-01-15 09:08:27.95	353.94	13.17	-28.4	-30.2	14.0	3.00e-06	0	43	0	1805647872	17	4436
2026-01-15 09:08:28.95	353.84	13.08	-28.3	-30.1	14.1	1.50e-06	0	43	0	1808793600	17	4403
2026-01-15 09:08:29.96	353.74	13.00	-28.4	-30.2	14.0	1.50e-06	0	43	0	1811939328	17	4421
2026-01-15 09:08:30.96	353.65	12.91	-28.2	-29.8	14.2	1.50e-06	0	43	0	1815085056	17	4321
2026-01-15 09:08:31.97	353.55	12.83	-28.2	-29.7	14.3	2.20e-06	0	43	0	1818230784	17	4280
2026-01-15 09:08:32.97	353.45	12.74	-28.2	-29.8	14.2	1.50e-06	0	43	0	1821376512	17	4332
2026-01-15 09:08:33.98	353.36	12.66	-28.4	-30.2	14.0	3.80e-06	0	43	0	1824522240	17	4443
2026-01-15 09:08:34.98	353.26	12.57	-28.2	-29.8	14.2	2.20e-06	0	43	0	1827667968	17	4308
2026-01-15 09:08:35.99	353.16	12.49	-28.0	-29.3	14.5	7.00e-07	0	43	0	1830813696	17	4184
2026-01-15 09:08:36.99	353.07	12.41	-27.9	-29.1	14.6	0.00e+00	0	43	0	1833959424	17	4121
2026-01-15 09:08:37.99	352.98	12.32	-28.0	-29.2	14.6	0.00e+00	0	43	0	1837105152	17	4148
2026-01-15 09:08:38.98	352.88	12.24	-27.9	-29.1	14.6	0.00e+00	0	43	0	1840250880	17	4113
2026-01-15 09:08:39.99	352.79	12.16	-28.0	-29.2	14.5	7.00e-07	0	43	0	1843396608	17	4151
2026-01-15 09:08:40.99	352.70	12.07	-28.0	-29.2	14.6	0.00e+00	0	43	0	1846542336	17	4144
2026-01-15 09:08:41.99	352.61	11.99	-28.0	-29.3	14.5	0.00e+00	0	43	0	1849688064	17	4176
2026-01-15 09:08:42.99	352.52	11.91	-28.2	-29.8	14.2	1.50e-06	0	43	0	1851785216	17	4327
2026-01-15 09:08:43.99	352.43	11.83	-28.1	-29.6	14.3	7.00e-07	0	43	0	1854930944	17	4259
2026-01-15 09:08:44.99	352.34	11.75	-28.1	-29.6	14.4	0.00e+00	0	43	0	1858076672	17	4243
2026-01-15 09:08:46.00	352.25	11.66	-28.3	-29.9	14.1	7.00e-07	0	43	0	1862270976	17	4343
2026-01-15 09:08:47.01	352.16	11.58	-28.3	-29.9	14.1	4.50e-06	0	43	0	1865416704	17	4364
2026-01-15 09:08:48.02	352.07	11.50	-28.4	-30.2	13.9	3.80e-06	0	43	0	1868562432	17	4445
2026-01-15 09:08:49.03	351.98	11.42	-28.4	-30.1	14.0	4.50e-06	0	43	0	1871708160	17	4415
2026-01-15 09:08:50.03	351.89	11.34	-28.5	-30.5	13.7	2.20e-06	0	43	0	1873805312	17	4527
2026-01-15 09:08:51.03	351.81	11.25	-28.5	-30.4	13.7	5.30e-06	0	43	0	1876951040	17	4496
2026-01-15 09:08:52.03	351.72	11.17	-28.5	-30.6	13.7	4.50e-06	0	43	0	1880096768	17	4548
2026-01-15 09:08:53.02	351.63	11.09	-28.5	-30.4	13.8	4.50e-06	0	43	0	1883242496	17	4515
2026-01-15 09:08:54.03	351.55	11.01	-28.5	-30.5	13.7	6.80e-06	0	43	0	1886388224	17	4541
2026-01-15 09:08:55.03	351.46	10.93	-28.6	-30.6	13.6	7.60e-06	0	43	0	1889533952	17	4570
2026-01-15 09:08:56.03	351.38	10.85	-28.6	-30.8	13.5	6.80e-06	0	43	0	1892679680	17	4627
2026-01-15 09:08:57.04	351.29	10.77	-28.5	-30.6	13.6	8.30e-06	0	43	0	1895825408	17	4565
2026-01-15 09:08:58.04	351.21	10.69	-28.6	-30.7	13.6	9.90e-06	0	43	0	1898971136	17	4594
2026-01-15 09:08:59.04	351.13	10.62	-28.7	-31.0	13.4	1.37e-05	0	43	0	1902116864	17	4695
2026-01-15 09:09:00.04	351.05	10.54	-28.6	-30.6	13.6	1.14e-05	0	43	0	1905262592	17	4575
2026-01-15 09:09:01.04	350.96	10.46	-28.5	-30.5	13.7	6.10e-06	0	43	0	1908408320	17	4531
2026-01-15 09:09:02.05	350.88	10.38	-28.6	-30.7	13.5	9.10e-06	0	43	0	1911554048	17	4594
2026-01-15 09:09:03.05	350.80	10.30	-28.6	-30.7	13.6	6.10e-06	0	43	0	1914699776	17	4582
2026-01-15 09:09:04.06	350.72	10.22	-28.6	-30.7	13.6	8.30e-06	0	43	0	1917845504	17	4592
2026-01-15 09:09:05.06	350.64	10.14	-28.7	-31.0	13.3	1.44e-05	0	43	0	1920991232	17	4696
2026-01-15 09:09:06.07	350.56	10.07	-28.6	-30.8	13.5	1.29e-05	0	43	0	1924136960	17	4620
2026-01-15 09:09:07.07	350.48	9.99	-28.6	-30.8	13.5	1.52e-05	0	43	0	1927282688	17	4617
2026-01-15 09:09:08.07	350.40	9.91	-28.6	-30.7	13.5	9.90e-06	0	43	0	1930428416	17	4604
2026-01-15 09:09:09.07	350.32	9.83	-28.6	-30.9	13.4	1.29e-05	0	43	0	1933574144	17	4651
2026-01-15 09:09:10.07	350.24	9.76	-28.7	-31.1	13.2	2.74e-05	0	43	0	1936719872	17	4726
2026-01-15 09:09:11.08	350.17	9.68	-28.7	-30.9	13.3	1.37e-05	0	43	0	1939865600	17	4670
2026-01-15 09:09:12.08	350.09	9.60	-28.7	-31.0	13.3	2.13e-05	0	43	0	1943011328	17	4687
2026-01-15 09:09:13.09	350.01	9.52	-28.7	-31.1	13.2	2.05e-05	0	43	0	1946157056	17	4724
2026-01-15 09:09:14.09	349.94	9.45	-28.7	-30.9	13.3	8.30e-06	0	43	0	1949302784	17	4676
2026-01-15 09:09:15.09	349.86	9.37	-28.8	-31.2	13.2	1.83e-05	0	43	0	1952448512	17	4750
2026-01-15 09:09:16.10	349.78	9.30	-28.7	-31.1	13.2	2.13e-05	0	43	0	1955594240	17	4724
2026-01-15 09:09:17.10	349.71	9.22	-29.0	-31.3	12.8	6.10e-05	0	43	0	1958739968	18	4691
2026-01-15 09:09:18.10	349.63	9.14	-28.9	-31.0	13.0	3.43e-05	0	43	0	1961885696	18	4569
2026-01-15 09:09:19.10	349.56	9.07	-28.8	-30.8	13.1	2.05e-05	0	43	0	1965031424	18	4507
2026-01-15 09:09:20.11	349.49	8.99	-28.8	-30.7	13.1	2.67e-05	0	43	0	1968177152	18	4501
2026-01-15 09:09:21.11	349.41	8.92	-28.8	-30.7	13.1	2.59e-05	0	43	0	1971322880	18	4505
2026-01-15 09:09:22.11	349.34	8.84	-28.8	-30.8	13.1	3.28e-05	0	43	0	1974468608	18	4544
2026-01-15 09:09:23.11	349.27	8.77	-28.7	-30.6	13.2	3.12e-05	0	43	0	1977614336	18	4473
2026-01-15 09:09:24.11	349.19	8.69	-28.8	-30.7	13.1	2.59e-05	0	43	0	1980760064	18	4507
2026-01-15 09:09:25.11	349.12	8.62	-28.9	-30.9	13.0	3.81e-05	0	43	0	1983905792	18	4572
2026-01-15 09:09:26.11	349.05	8.55	-28.9	-31.1	12.9	4.42e-05	0	43	0	1987051520	18	4611
2026-01-15 09:09:27.12	348.98	8.47	-28.9	-31.1	12.9	7.01e-05	0	43	0	1990197248	18	4614
2026-01-15 09:09:28.12	348.91	8.40	-28.9	-31.0	12.9	4.50e-05	0	43	0	1993342976	18	4593
2026-01-15 09:09:29.13	348.84	8.32	-28.9	-31.0	12.9	4.11e-05	0	43	0	1996488704	18	4592
2026-01-15 09:09:30.13	348.77	8.25	-29.0	-31.2	12.8	5.56e-05	0	43	0	1999634432	18	4650
2026-01-15 09:09:31.13	348.70	8.18	-29.0	-31.4	12.6	9.00e-05	0	43	0	2002780160	18	4714
2026-01-15 09:09:32.13	348.63	8.10	-29.0	-31.4	12.6	9.23e-05	0	43	0	2005925888	18	4712
2026-01-15 09:09:33.13	348.56	8.03	-29.1	-31.5	12.6	8.23e-05	0	43	0	2009071616	18	4759
2026-01-15 09:09:34.14	348.49	7.96	-29.2	-31.9	12.3	1.81e-04	0	43	0	2012217344	18	4905
2026-01-15 09:09:35.13	348.42	7.88	-29.3	-32.1	12.1	2.51e-04	0	43	0	2015363072	18	4963
2026-01-15 09:09:36.14	348.36	7.81	-29.2	-31.9	12.3	1.82e-04	0	43	0	2018508800	18	4877
2026-01-15 09:09:37.14	348.29	7.74	-29.4	-32.4	12.0	2.08e-04	0	43	0	2021654528	18	5055
2026-01-15 09:09:38.15	348.22	7.67	-29.3	-32.2	12.1	3.22e-04	0	43	0	2024800256	18	5005
2026-01-15 09:09:39.15	348.15	7.59	-29.4	-32.3	12.0	4.16e-04	0	43	0	2027945984	18	5037
2026-01-15 09:09:40.16	348.09	7.52	-29.1	-31.6	12.5	1.57e-04	0	43	0	2031091712	18	4784
2026-01-15 09:09:41.17	348.02	7.45	-29.1	-31.5	12.5	1.01e-04	0	43	0	2034237440	18	4773
2026-01-15 09:09:42.17	347.95	7.38	-29.2	-31.7	12.3	1.66e-04	0	43	0	2037383168	18	4842
2026-01-15 09:09:43.17	347.89	7.31	-29.2	-31.8	12.3	1.56e-04	0	43	0	2040528896	18	4870
2026-01-15 09:09:44.17	347.82	7.24	-29.3	-32.1	12.1	2.62e-04	0	43	0	2043674624	18	4980
2026-01-15 09:09:45.17	347.76	7.17	-29.3	-32.0	12.1	2.94e-04	0	43	0	2046820352	18	4947
2026-01-15 09:09:46.18	347.69	7.09	-29.6	-32.5	11.6	3.46e-04	0	43	0	2049966080	19	4999
2026-01-15 09:09:47.18	347.63	7.02	-33.4	-44.9	3.8	1.49e+00	0	43	104	2051014656	26	13648
2026-01-15 09:09:48.19	347.57	6.95	-33.7	-45.5	3.8	1.49e+00	0	43	104	2051014656	27	14070
2026-01-15 09:09:49.20	347.50	6.88	-33.9	-46.2	3.8	1.49e+00	0	43	104	2051014656	27	14736

#Closed at: 2026-01-15 09:09:49
#Recorded file [2051 MB]: D:/data/31010_260115_115850.dat