passes_logs/2026/01/15/R2M6_AANII_01/R2M6_AANII_01__20260115_133831_AQUA_rec.log

#Pass ID: 20260115_133831_AQUA
#Satellite: AQUA
#Configuration: AQUA
#almurnet v.1.7.20240730
#Start time: 2026-01-15 13:38:31

#Version: 2.2.20231116
#Station: R2M6_AANII_01
#Location: 30.233357 lon 59.946436 lat
#TLE: 1 27424U 02022A   26014.61231444  .00000653  00000+0  14070-3 0  9991
#TLE: 2 27424  98.4080 341.0332 0002042  78.9336 335.9961 14.61820174260839

#Time	Az	El	Level	Level2	SNR	BER	BlckErr	Temp	State	Recorded	gain1	gain2
2026-01-15 13:38:31.14	216.62	6.97	-30.8	-35.8	5.2	7.09e-01	0	41	0	0	23	6381
2026-01-15 13:38:32.14	216.73	7.03	-31.3	-37.7	5.1	7.08e-01	0	41	0	0	23	7508
2026-01-15 13:38:33.13	216.85	7.09	-31.3	-37.6	5.1	7.08e-01	0	41	104	0	23	7388
2026-01-15 13:38:34.14	216.97	7.16	-31.2	-36.4	15.1	6.08e-01	0	41	0	0	23	6508
2026-01-15 13:38:35.14	217.08	7.22	-31.4	-37.2	14.5	6.07e-01	0	41	0	1572864	23	6966
2026-01-15 13:38:36.14	217.20	7.29	-31.3	-36.4	15.1	6.06e-01	0	41	0	3670016	23	6537
2026-01-15 13:38:37.14	217.32	7.35	-31.1	-35.9	15.6	6.07e-01	0	41	0	5242880	23	6261
2026-01-15 13:38:38.15	217.44	7.42	-31.0	-35.4	15.9	6.05e-01	0	41	0	7340032	23	5980
2026-01-15 13:38:39.15	217.56	7.48	-30.9	-35.1	16.1	6.06e-01	0	41	0	9437184	23	5862
2026-01-15 13:38:40.15	217.67	7.55	-30.8	-34.9	16.2	6.07e-01	0	41	0	11010048	23	5761
2026-01-15 13:38:41.15	217.79	7.61	-30.9	-35.0	16.2	6.06e-01	0	41	0	13107200	23	5810
2026-01-15 13:38:42.15	217.92	7.68	-31.1	-35.8	15.6	6.08e-01	0	41	0	14680064	23	6182
2026-01-15 13:38:43.15	218.04	7.74	-30.8	-34.9	16.3	6.07e-01	0	41	0	16777216	23	5758
2026-01-15 13:38:44.15	218.16	7.81	-30.6	-34.2	16.9	6.07e-01	0	41	0	18350080	23	5424
2026-01-15 13:38:45.15	218.28	7.87	-30.5	-33.9	17.0	6.06e-01	0	41	0	20447232	23	5309
2026-01-15 13:38:46.15	218.40	7.94	-30.7	-34.4	16.7	6.07e-01	0	41	0	22544384	23	5535
2026-01-15 13:38:47.16	218.53	8.01	-30.9	-34.9	16.3	6.06e-01	0	41	0	24117248	23	5766
2026-01-15 13:38:48.15	218.65	8.07	-30.8	-34.8	16.4	6.07e-01	0	41	0	26214400	23	5694
2026-01-15 13:38:49.15	218.77	8.14	-30.8	-34.6	16.5	6.06e-01	0	41	0	27787264	23	5613
2026-01-15 13:38:50.15	218.90	8.20	-30.9	-34.9	16.5	6.06e-01	0	41	0	29884416	23	5728
2026-01-15 13:38:51.16	219.03	8.27	-31.1	-35.6	15.9	6.06e-01	0	41	0	31457280	23	6050
2026-01-15 13:38:52.15	219.15	8.33	-30.9	-34.9	16.4	6.08e-01	0	41	0	33554432	23	5723
2026-01-15 13:38:53.14	219.28	8.40	-30.8	-34.8	16.5	6.05e-01	0	41	0	35651584	23	5684
2026-01-15 13:38:54.15	219.41	8.47	-30.9	-34.8	16.5	6.08e-01	0	41	0	37224448	23	5688
2026-01-15 13:38:55.13	219.53	8.53	-31.0	-35.3	16.2	6.06e-01	0	41	0	39321600	23	5898
2026-01-15 13:38:56.13	219.66	8.60	-31.2	-35.8	15.7	6.07e-01	0	41	0	40894464	23	6170
2026-01-15 13:38:57.14	219.79	8.66	-30.7	-34.2	16.9	6.05e-01	0	41	0	42991616	23	5432
2026-01-15 13:38:58.14	219.92	8.73	-30.4	-33.5	17.4	6.07e-01	0	41	0	45088768	23	5144
2026-01-15 13:38:59.14	220.05	8.80	-30.1	-33.1	18.0	6.08e-01	0	41	0	46661632	22	5069
2026-01-15 13:39:00.14	220.18	8.86	-30.3	-33.7	17.7	6.06e-01	0	41	0	48758784	22	5311
2026-01-15 13:39:01.14	220.32	8.93	-30.3	-33.5	17.7	6.09e-01	0	42	0	50331648	22	5249
2026-01-15 13:39:02.14	220.45	9.00	-30.3	-33.8	17.7	6.05e-01	0	42	0	52428800	22	5337
2026-01-15 13:39:03.14	220.58	9.06	-30.4	-34.0	17.5	6.05e-01	0	42	0	54001664	22	5411
2026-01-15 13:39:04.13	220.71	9.13	-30.4	-34.0	17.4	6.06e-01	0	42	0	56098816	22	5431
2026-01-15 13:39:05.13	220.85	9.20	-30.4	-33.9	17.6	6.07e-01	0	41	0	57671680	22	5391
2026-01-15 13:39:06.13	220.98	9.27	-30.5	-34.1	17.4	6.07e-01	0	41	0	59768832	22	5468
2026-01-15 13:39:07.13	221.12	9.33	-30.4	-34.0	17.5	6.08e-01	0	41	0	61865984	22	5409
2026-01-15 13:39:08.13	221.26	9.40	-30.4	-33.7	17.7	6.07e-01	0	42	0	63438848	22	5303
2026-01-15 13:39:09.12	221.39	9.47	-30.3	-33.5	17.9	6.06e-01	0	42	0	65536000	22	5191
2026-01-15 13:39:10.12	221.53	9.53	-30.2	-33.2	18.1	6.05e-01	0	42	0	67108864	22	5104
2026-01-15 13:39:11.12	221.67	9.60	-30.3	-33.5	17.9	6.07e-01	0	42	0	69206016	22	5205
2026-01-15 13:39:12.13	221.81	9.67	-30.2	-33.3	18.0	6.07e-01	0	42	0	70778880	22	5136
2026-01-15 13:39:13.13	221.95	9.74	-30.2	-33.3	18.0	6.06e-01	0	42	0	72876032	22	5132
2026-01-15 13:39:14.13	222.09	9.80	-30.2	-33.1	18.2	6.07e-01	0	42	0	74973184	22	5052
2026-01-15 13:39:15.13	222.23	9.87	-30.3	-33.4	17.9	6.07e-01	0	42	0	76546048	22	5164
2026-01-15 13:39:16.13	222.37	9.94	-30.2	-33.3	18.1	6.07e-01	0	42	0	78643200	22	5130
2026-01-15 13:39:17.13	222.51	10.01	-30.3	-33.4	18.0	6.08e-01	0	42	0	80216064	22	5153
2026-01-15 13:39:18.13	222.66	10.08	-30.3	-33.5	17.9	6.06e-01	0	42	0	82313216	22	5181
2026-01-15 13:39:19.12	222.80	10.14	-30.2	-33.1	18.2	6.06e-01	0	42	0	83886080	22	5040
2026-01-15 13:39:20.13	222.94	10.21	-30.1	-32.8	18.4	6.06e-01	0	42	0	85983232	22	4922
2026-01-15 13:39:21.13	223.09	10.28	-30.2	-33.2	18.1	6.08e-01	0	42	0	88080384	22	5096
2026-01-15 13:39:22.14	223.24	10.35	-30.2	-33.2	18.2	6.08e-01	0	42	0	89653248	22	5092
2026-01-15 13:39:23.13	223.38	10.42	-30.3	-33.4	18.0	6.07e-01	0	42	0	91750400	22	5172
2026-01-15 13:39:24.14	223.53	10.48	-30.3	-33.6	17.9	6.09e-01	0	42	0	93323264	22	5236
2026-01-15 13:39:25.14	223.68	10.55	-30.3	-33.3	18.0	6.06e-01	0	42	0	95420416	22	5133
2026-01-15 13:39:26.14	223.83	10.62	-30.1	-33.0	18.3	6.09e-01	0	42	0	97517568	22	4986
2026-01-15 13:39:27.15	223.98	10.69	-30.1	-33.0	18.3	6.05e-01	0	42	0	99090432	22	4983
2026-01-15 13:39:28.15	224.13	10.76	-30.2	-33.1	18.3	6.09e-01	0	42	0	101187584	22	5026
2026-01-15 13:39:29.15	224.28	10.83	-30.1	-32.9	18.4	6.08e-01	0	42	0	102760448	22	4980
2026-01-15 13:39:30.15	224.43	10.90	-30.2	-33.2	18.2	6.07e-01	0	42	0	104857600	22	5070
2026-01-15 13:39:31.15	224.59	10.96	-30.1	-33.0	18.3	6.06e-01	0	42	0	106954752	22	4981
2026-01-15 13:39:32.15	224.74	11.03	-30.1	-32.8	18.5	6.06e-01	0	42	0	108527616	22	4915
2026-01-15 13:39:33.15	224.89	11.10	-30.1	-32.9	18.4	6.07e-01	0	42	0	110624768	22	4979
2026-01-15 13:39:34.15	225.05	11.17	-30.3	-33.4	18.1	6.05e-01	0	42	0	112197632	22	5140
2026-01-15 13:39:35.14	225.20	11.24	-30.0	-32.7	18.6	6.08e-01	0	42	0	114294784	22	4892
2026-01-15 13:39:36.14	225.36	11.31	-30.1	-32.9	18.4	6.07e-01	0	42	0	115867648	22	4956
2026-01-15 13:39:37.15	225.52	11.38	-30.1	-33.0	18.3	6.07e-01	0	42	0	117964800	22	4991
2026-01-15 13:39:38.14	225.67	11.44	-30.1	-32.8	18.5	6.06e-01	0	42	0	120061952	22	4908
2026-01-15 13:39:39.14	225.83	11.51	-30.1	-32.8	18.5	6.08e-01	0	42	0	121634816	22	4920
2026-01-15 13:39:40.15	225.99	11.58	-30.1	-32.8	18.5	6.08e-01	0	42	0	123731968	22	4930
2026-01-15 13:39:41.15	226.15	11.65	-30.2	-33.0	18.4	6.06e-01	0	42	0	125304832	22	4990
2026-01-15 13:39:42.15	226.31	11.72	-29.9	-32.3	18.9	6.04e-01	0	42	0	127401984	22	4750
2026-01-15 13:39:43.16	226.48	11.79	-29.8	-32.4	19.1	6.07e-01	0	42	0	128974848	21	4898
2026-01-15 13:39:44.15	226.64	11.86	-29.9	-32.6	18.9	6.06e-01	0	42	0	131072000	21	4968
2026-01-15 13:39:45.15	226.80	11.93	-29.8	-32.6	19.0	6.05e-01	0	42	0	133169152	21	4968
2026-01-15 13:39:46.15	226.97	12.00	-29.9	-32.8	18.9	6.07e-01	0	42	0	134742016	21	5035
2026-01-15 13:39:47.16	227.13	12.07	-30.0	-33.0	18.8	6.07e-01	0	42	0	136839168	21	5099
2026-01-15 13:39:48.16	227.30	12.14	-29.9	-32.7	18.9	6.06e-01	0	42	0	138412032	21	4996
2026-01-15 13:39:49.15	227.46	12.20	-30.0	-33.1	18.7	6.06e-01	0	42	0	140509184	21	5148
2026-01-15 13:39:50.16	227.63	12.27	-29.9	-32.7	18.9	6.07e-01	0	42	0	142082048	21	4984
2026-01-15 13:39:51.16	227.80	12.34	-29.7	-32.3	19.2	6.07e-01	0	42	0	144179200	21	4850
2026-01-15 13:39:52.16	227.97	12.41	-29.7	-32.3	19.1	6.06e-01	0	42	0	146276352	21	4857
2026-01-15 13:39:53.16	228.14	12.48	-29.7	-32.3	19.2	6.06e-01	0	42	0	147849216	21	4847
2026-01-15 13:39:54.17	228.31	12.55	-29.7	-32.1	19.3	6.09e-01	0	42	0	149946368	21	4779
2026-01-15 13:39:55.17	228.48	12.62	-29.6	-31.9	19.5	6.08e-01	0	43	0	151519232	21	4699
2026-01-15 13:39:56.17	228.66	12.69	-29.6	-32.0	19.4	6.07e-01	0	42	0	153616384	21	4755
2026-01-15 13:39:57.17	228.83	12.76	-29.6	-31.9	19.5	6.07e-01	0	42	0	155713536	21	4709
2026-01-15 13:39:58.18	229.01	12.83	-29.8	-32.5	19.2	6.08e-01	0	42	0	157286400	21	4902
2026-01-15 13:39:59.17	229.18	12.90	-29.7	-32.3	19.2	6.06e-01	0	43	0	159383552	21	4843
2026-01-15 13:40:00.17	229.35	12.96	-29.8	-32.4	19.2	6.06e-01	0	42	0	160956416	21	4884
2026-01-15 13:40:01.18	229.53	13.03	-29.8	-32.4	19.2	6.04e-01	0	42	0	163053568	21	4868
2026-01-15 13:40:02.18	229.71	13.10	-29.7	-32.1	19.4	6.07e-01	0	43	0	164626432	21	4757
2026-01-15 13:40:03.18	229.89	13.17	-29.7	-32.2	19.3	6.07e-01	0	42	0	166723584	21	4811
2026-01-15 13:40:04.18	230.07	13.24	-29.8	-32.5	19.2	6.07e-01	0	42	0	168820736	21	4898
2026-01-15 13:40:05.18	230.25	13.31	-29.7	-32.3	19.3	6.06e-01	0	42	0	170393600	21	4831
2026-01-15 13:40:06.18	230.43	13.38	-29.7	-32.3	19.3	6.06e-01	0	42	0	172490752	21	4836
2026-01-15 13:40:07.19	230.61	13.45	-29.9	-32.8	19.0	6.07e-01	0	43	0	174063616	21	5001
2026-01-15 13:40:08.20	230.80	13.52	-29.8	-32.6	19.1	6.09e-01	0	43	0	176160768	21	4930
2026-01-15 13:40:09.19	230.98	13.59	-29.9	-32.6	19.1	6.05e-01	0	42	0	178257920	21	4942
2026-01-15 13:40:10.19	231.16	13.65	-29.8	-32.4	19.2	6.06e-01	0	42	0	179830784	21	4851
2026-01-15 13:40:11.20	231.35	13.72	-29.7	-32.2	19.4	6.06e-01	0	43	0	181927936	21	4789
2026-01-15 13:40:12.20	231.54	13.79	-29.7	-32.1	19.5	6.07e-01	0	43	0	183500800	21	4742
2026-01-15 13:40:13.20	231.73	13.86	-29.8	-32.5	19.2	6.07e-01	0	43	0	185597952	21	4894
2026-01-15 13:40:14.20	231.91	13.93	-29.9	-32.7	19.1	6.07e-01	0	43	0	187170816	21	4955
2026-01-15 13:40:15.21	232.10	14.00	-29.8	-32.3	19.3	6.06e-01	0	42	0	189267968	21	4840
2026-01-15 13:40:16.21	232.29	14.07	-29.9	-32.7	19.1	6.09e-01	0	42	0	191365120	21	4966
2026-01-15 13:40:17.22	232.49	14.14	-30.0	-32.9	18.9	6.05e-01	0	43	0	192937984	21	5054
2026-01-15 13:40:18.22	232.68	14.20	-29.8	-32.5	19.2	6.08e-01	0	43	0	195035136	21	4892
2026-01-15 13:40:19.23	232.87	14.27	-29.7	-32.2	19.4	6.07e-01	0	43	0	196608000	21	4783
2026-01-15 13:40:20.23	233.07	14.34	-29.5	-31.7	19.7	6.07e-01	0	42	0	198705152	21	4638
2026-01-15 13:40:21.23	233.26	14.41	-29.6	-31.8	19.7	6.06e-01	0	43	0	200802304	21	4665
2026-01-15 13:40:22.23	233.46	14.48	-29.7	-32.2	19.4	6.05e-01	0	43	0	202375168	21	4802
2026-01-15 13:40:23.23	233.65	14.55	-29.7	-32.0	19.5	6.06e-01	0	43	0	204472320	21	4730
2026-01-15 13:40:24.23	233.85	14.61	-29.6	-32.0	19.6	6.06e-01	0	43	0	206045184	21	4715
2026-01-15 13:40:25.23	234.05	14.68	-29.8	-32.3	19.4	6.05e-01	0	43	0	208142336	21	4823
2026-01-15 13:40:26.23	234.25	14.75	-29.9	-32.6	19.2	6.09e-01	0	42	0	209715200	21	4913
2026-01-15 13:40:27.23	234.45	14.82	-29.7	-32.0	19.6	6.06e-01	0	43	0	211812352	21	4721
2026-01-15 13:40:28.24	234.65	14.88	-29.6	-31.8	19.7	6.08e-01	0	43	0	213909504	21	4638
2026-01-15 13:40:29.23	234.85	14.95	-29.5	-31.6	19.8	6.05e-01	0	43	0	215482368	21	4594
2026-01-15 13:40:30.24	235.06	15.02	-29.6	-31.8	19.7	6.04e-01	0	43	0	217579520	21	4644
2026-01-15 13:40:31.24	235.26	15.08	-29.6	-31.8	19.7	6.07e-01	0	43	0	219152384	21	4662
2026-01-15 13:40:32.25	235.47	15.15	-29.7	-32.1	19.5	6.05e-01	0	43	0	221249536	21	4739
2026-01-15 13:40:33.25	235.68	15.22	-29.6	-31.8	19.7	6.06e-01	0	43	0	223346688	21	4638
2026-01-15 13:40:34.25	235.88	15.29	-29.6	-31.8	19.8	6.07e-01	0	42	0	224919552	21	4636
2026-01-15 13:40:35.25	236.09	15.35	-29.6	-31.8	19.7	6.08e-01	0	43	0	227016704	21	4636
2026-01-15 13:40:36.25	236.30	15.42	-29.6	-31.8	19.7	6.06e-01	0	43	0	228589568	21	4662
2026-01-15 13:40:37.25	236.51	15.49	-29.6	-32.0	19.6	6.08e-01	0	43	0	230686720	21	4701
2026-01-15 13:40:38.26	236.72	15.55	-29.6	-31.8	19.8	6.07e-01	0	43	0	232259584	21	4640
2026-01-15 13:40:39.27	236.94	15.62	-29.5	-31.7	19.9	6.08e-01	0	43	0	234356736	21	4601
2026-01-15 13:40:40.27	237.15	15.68	-29.6	-31.8	19.7	6.07e-01	0	43	0	236453888	21	4650
2026-01-15 13:40:41.27	237.36	15.75	-29.5	-31.6	19.9	6.06e-01	0	43	0	238026752	21	4579
2026-01-15 13:40:42.27	237.58	15.82	-29.5	-31.6	19.9	6.07e-01	0	43	0	240123904	21	4575
2026-01-15 13:40:43.28	237.79	15.88	-29.6	-31.8	19.8	6.06e-01	0	43	0	241696768	21	4630
2026-01-15 13:40:44.27	238.01	15.95	-29.6	-31.7	19.8	6.07e-01	0	43	0	243793920	21	4608
2026-01-15 13:40:45.27	238.23	16.01	-29.7	-32.0	19.7	6.07e-01	0	43	0	245891072	21	4696
2026-01-15 13:40:46.27	238.45	16.08	-29.6	-31.8	19.8	6.06e-01	0	43	0	247463936	21	4652
2026-01-15 13:40:47.27	238.66	16.14	-29.6	-31.8	19.8	6.08e-01	0	43	0	249561088	21	4626
2026-01-15 13:40:48.27	238.89	16.20	-29.7	-32.1	19.6	6.09e-01	0	43	0	251133952	21	4731
2026-01-15 13:40:49.28	239.11	16.27	-29.8	-32.4	19.4	6.07e-01	0	43	0	253231104	21	4845
2026-01-15 13:40:50.28	239.33	16.33	-29.6	-31.9	19.7	6.07e-01	0	43	0	254803968	21	4682
2026-01-15 13:40:51.28	239.56	16.40	-29.6	-31.8	19.8	6.08e-01	0	43	0	256901120	21	4643
2026-01-15 13:40:52.29	239.78	16.46	-29.7	-32.0	19.7	6.06e-01	0	43	0	258998272	21	4699
2026-01-15 13:40:53.30	240.01	16.52	-29.6	-31.8	19.8	6.07e-01	0	43	0	260571136	21	4629
2026-01-15 13:40:54.30	240.24	16.59	-29.6	-31.9	19.7	6.08e-01	0	43	0	262668288	21	4672
2026-01-15 13:40:55.29	240.46	16.65	-29.7	-32.1	19.6	6.05e-01	0	43	0	264241152	21	4735
2026-01-15 13:40:56.30	240.69	16.71	-29.5	-31.6	19.9	6.07e-01	0	43	0	266338304	21	4589
2026-01-15 13:40:57.30	240.92	16.78	-29.4	-31.4	20.0	6.06e-01	0	43	0	268435456	21	4508
2026-01-15 13:40:58.31	241.15	16.84	-29.4	-31.4	20.1	6.08e-01	0	43	0	270008320	21	4510
2026-01-15 13:40:59.30	241.38	16.90	-29.6	-31.7	19.9	6.08e-01	0	43	0	272105472	21	4617
2026-01-15 13:41:00.30	241.62	16.96	-29.5	-31.6	19.9	6.06e-01	0	43	0	273678336	21	4588
2026-01-15 13:41:01.31	241.85	17.02	-29.5	-31.5	20.0	6.08e-01	0	43	0	275775488	21	4551
2026-01-15 13:41:02.31	242.09	17.08	-29.6	-31.7	19.9	6.06e-01	0	43	0	277872640	21	4597
2026-01-15 13:41:03.31	242.32	17.14	-29.6	-31.7	19.9	6.06e-01	0	43	0	279445504	21	4590
2026-01-15 13:41:04.31	242.56	17.21	-29.6	-31.8	19.9	6.07e-01	0	43	0	281542656	21	4620
2026-01-15 13:41:05.31	242.79	17.27	-29.6	-31.9	19.8	6.05e-01	0	43	0	283115520	21	4663
2026-01-15 13:41:06.31	243.03	17.33	-29.5	-31.5	20.0	6.08e-01	0	43	0	285212672	21	4535
2026-01-15 13:41:07.31	243.27	17.39	-29.5	-31.6	20.0	6.06e-01	0	43	0	286785536	21	4573
2026-01-15 13:41:08.32	243.51	17.45	-29.7	-32.1	19.7	6.08e-01	0	43	0	288882688	21	4715
2026-01-15 13:41:09.32	243.76	17.50	-29.7	-31.9	19.8	6.07e-01	0	43	0	290979840	21	4680
2026-01-15 13:41:10.32	244.00	17.56	-29.6	-31.8	19.9	6.06e-01	0	43	0	292552704	21	4636
2026-01-15 13:41:11.33	244.24	17.62	-29.6	-31.7	19.9	6.07e-01	0	43	0	294649856	21	4600
2026-01-15 13:41:12.33	244.49	17.68	-29.6	-31.7	19.9	6.06e-01	0	43	0	296222720	21	4587
2026-01-15 13:41:13.33	244.73	17.74	-29.5	-31.6	20.0	6.07e-01	0	43	0	298319872	21	4567
2026-01-15 13:41:14.32	244.98	17.79	-29.6	-31.8	19.9	6.07e-01	0	43	0	299892736	21	4642
2026-01-15 13:41:15.33	245.23	17.85	-29.6	-31.9	19.8	6.07e-01	0	43	0	301989888	21	4660
2026-01-15 13:41:16.32	245.47	17.91	-29.7	-32.1	19.7	6.06e-01	0	43	0	304087040	21	4725
2026-01-15 13:41:17.32	245.72	17.96	-29.7	-32.0	19.7	6.07e-01	0	43	0	305659904	21	4700
2026-01-15 13:41:18.32	245.97	18.02	-29.6	-31.8	19.8	6.06e-01	0	43	0	307757056	21	4637
2026-01-15 13:41:19.33	246.22	18.08	-29.6	-31.8	19.9	6.06e-01	0	43	0	309329920	21	4632
2026-01-15 13:41:20.33	246.48	18.13	-29.7	-31.9	19.8	6.06e-01	0	43	0	311427072	21	4673
2026-01-15 13:41:21.32	246.73	18.19	-29.7	-32.0	19.8	6.05e-01	0	43	0	312999936	21	4677
2026-01-15 13:41:22.33	246.98	18.24	-29.7	-32.0	19.8	6.06e-01	0	43	0	315097088	21	4688
2026-01-15 13:41:23.33	247.24	18.30	-29.8	-32.2	19.6	6.08e-01	0	43	0	317194240	21	4767
2026-01-15 13:41:24.33	247.49	18.35	-29.7	-31.9	19.8	6.06e-01	0	43	0	318767104	21	4668
2026-01-15 13:41:25.33	247.75	18.40	-29.6	-31.8	19.9	6.07e-01	0	43	0	320864256	21	4636
2026-01-15 13:41:26.34	248.01	18.46	-29.6	-31.8	19.9	6.06e-01	0	43	0	322961408	21	4614
2026-01-15 13:41:27.34	248.27	18.51	-29.6	-31.7	20.0	6.08e-01	0	43	0	324534272	21	4605
2026-01-15 13:41:28.34	248.53	18.56	-29.6	-31.7	19.9	6.07e-01	0	43	0	326631424	21	4608
2026-01-15 13:41:29.33	248.78	18.61	-29.6	-31.6	20.0	6.06e-01	0	43	0	328204288	21	4573
2026-01-15 13:41:30.33	249.04	18.66	-29.6	-31.7	20.0	6.06e-01	0	43	0	330301440	21	4594
2026-01-15 13:41:31.33	249.31	18.71	-29.7	-32.0	19.8	6.07e-01	0	43	0	331874304	21	4684
2026-01-15 13:41:32.33	249.57	18.76	-29.6	-31.9	19.9	6.06e-01	0	43	0	333971456	21	4656
2026-01-15 13:41:33.33	249.83	18.81	-29.6	-31.8	19.9	6.07e-01	0	43	0	335544320	21	4628
2026-01-15 13:41:34.33	250.10	18.86	-29.6	-31.6	20.0	6.07e-01	0	43	0	337641472	21	4573
2026-01-15 13:41:35.33	250.36	18.91	-29.7	-32.0	19.8	6.06e-01	0	43	0	339738624	21	4690
2026-01-15 13:41:36.34	250.63	18.96	-29.8	-32.1	19.8	6.07e-01	0	43	0	341311488	21	4733
2026-01-15 13:41:37.34	250.90	19.01	-29.7	-32.0	19.8	6.07e-01	0	43	0	343408640	21	4695
2026-01-15 13:41:38.34	251.17	19.06	-29.7	-31.9	19.8	6.06e-01	0	43	0	344981504	21	4675
2026-01-15 13:41:39.34	251.44	19.10	-29.8	-32.2	19.7	6.06e-01	0	43	0	347078656	21	4763
2026-01-15 13:41:40.33	251.70	19.15	-29.7	-32.0	19.8	6.08e-01	0	43	0	348651520	21	4699
2026-01-15 13:41:41.34	251.98	19.19	-29.7	-31.9	19.9	6.06e-01	0	43	0	350748672	21	4649
2026-01-15 13:41:42.34	252.25	19.24	-29.7	-32.1	19.8	6.06e-01	0	43	0	352845824	21	4706
2026-01-15 13:41:43.34	252.52	19.28	-29.8	-32.4	19.6	6.06e-01	0	43	0	354418688	21	4818
2026-01-15 13:41:44.34	252.79	19.33	-29.8	-32.1	19.7	6.08e-01	0	43	0	356515840	21	4742
2026-01-15 13:41:45.35	253.07	19.37	-29.7	-32.1	19.8	6.05e-01	0	43	0	358088704	21	4722
2026-01-15 13:41:46.36	253.35	19.42	-29.8	-32.2	19.7	6.09e-01	0	43	0	360185856	21	4772
2026-01-15 13:41:47.36	253.62	19.46	-29.9	-32.5	19.6	6.07e-01	0	43	0	362283008	21	4844
2026-01-15 13:41:48.36	253.90	19.50	-29.7	-32.1	19.8	6.07e-01	0	43	0	363855872	21	4723
2026-01-15 13:41:49.36	254.18	19.54	-29.7	-31.9	19.9	6.07e-01	0	43	0	365953024	21	4665
2026-01-15 13:41:50.36	254.45	19.58	-29.8	-32.1	19.8	6.05e-01	0	43	0	367525888	21	4737
2026-01-15 13:41:51.36	254.73	19.63	-29.8	-32.3	19.7	6.04e-01	0	43	0	369623040	21	4780
2026-01-15 13:41:52.36	255.01	19.67	-29.8	-32.3	19.6	6.07e-01	0	43	0	371720192	21	4790
2026-01-15 13:41:53.36	255.29	19.70	-29.8	-32.1	19.8	6.08e-01	0	43	0	373293056	21	4724
2026-01-15 13:41:54.36	255.57	19.74	-29.8	-32.2	19.8	6.08e-01	0	43	0	375390208	21	4746
2026-01-15 13:41:55.36	255.85	19.78	-29.8	-32.1	19.7	6.08e-01	0	43	0	376963072	21	4728
2026-01-15 13:41:56.37	256.14	19.82	-29.8	-32.2	19.7	6.06e-01	0	43	0	379060224	21	4743
2026-01-15 13:41:57.38	256.43	19.86	-29.8	-32.3	19.7	6.07e-01	0	43	0	380633088	21	4775
2026-01-15 13:41:58.38	256.71	19.89	-29.8	-32.2	19.7	6.07e-01	0	43	0	382730240	21	4754
2026-01-15 13:41:59.38	256.99	19.93	-29.8	-32.3	19.6	6.07e-01	0	43	0	384827392	21	4788
2026-01-15 13:42:00.38	257.28	19.96	-29.7	-32.0	19.8	6.09e-01	0	43	0	386400256	21	4695
2026-01-15 13:42:01.39	257.57	20.00	-29.8	-32.1	19.8	6.07e-01	0	43	0	388497408	21	4728
2026-01-15 13:42:02.39	257.85	20.03	-29.7	-32.0	19.8	6.05e-01	0	43	0	390070272	21	4690
2026-01-15 13:42:03.39	258.14	20.07	-29.8	-32.2	19.7	6.05e-01	0	43	0	392167424	21	4758
2026-01-15 13:42:04.39	258.43	20.10	-29.8	-32.3	19.6	6.07e-01	0	43	0	394264576	21	4789
2026-01-15 13:42:05.39	258.72	20.13	-29.7	-32.0	19.8	6.06e-01	0	43	0	395837440	21	4692
2026-01-15 13:42:06.40	259.01	20.16	-29.6	-31.8	19.9	6.07e-01	0	43	0	397934592	21	4639
2026-01-15 13:42:07.39	259.30	20.19	-29.7	-31.9	19.9	6.08e-01	0	43	0	399507456	21	4646
2026-01-15 13:42:08.39	259.59	20.22	-29.8	-32.3	19.6	6.08e-01	0	43	0	401604608	21	4806
2026-01-15 13:42:09.39	259.88	20.25	-29.7	-32.0	19.9	6.06e-01	0	43	0	403177472	21	4676
2026-01-15 13:42:10.40	260.17	20.28	-29.7	-32.1	19.8	6.07e-01	0	43	0	405274624	21	4706
2026-01-15 13:42:11.40	260.46	20.31	-29.9	-32.4	19.6	6.08e-01	0	43	0	407371776	21	4818
2026-01-15 13:42:12.41	260.76	20.34	-30.0	-32.7	19.4	6.07e-01	0	43	0	408944640	21	4931
2026-01-15 13:42:13.41	261.05	20.36	-30.0	-32.7	19.4	6.06e-01	0	43	0	411041792	21	4919
2026-01-15 13:42:14.40	261.34	20.39	-29.9	-32.6	19.5	6.06e-01	0	43	0	412614656	21	4893
2026-01-15 13:42:15.41	261.64	20.41	-29.9	-32.4	19.6	6.07e-01	0	43	0	414711808	21	4825
2026-01-15 13:42:16.41	261.93	20.44	-29.9	-32.4	19.6	6.05e-01	0	43	0	416808960	21	4832
2026-01-15 13:42:17.41	262.23	20.46	-29.9	-32.5	19.6	6.07e-01	0	43	0	418381824	21	4870
2026-01-15 13:42:18.41	262.52	20.48	-30.1	-32.9	19.3	6.05e-01	0	43	0	420478976	21	5002
2026-01-15 13:42:19.41	262.82	20.51	-29.9	-32.6	19.5	6.05e-01	0	43	0	422051840	21	4873
2026-01-15 13:42:20.40	263.11	20.53	-29.8	-32.3	19.7	6.10e-01	0	43	0	424148992	21	4799
2026-01-15 13:42:21.41	263.41	20.55	-29.9	-32.4	19.7	6.05e-01	0	43	0	425721856	21	4806
2026-01-15 13:42:22.41	263.71	20.57	-29.8	-32.3	19.7	6.08e-01	0	43	0	427819008	21	4795
2026-01-15 13:42:23.41	264.00	20.59	-29.9	-32.6	19.6	6.06e-01	0	43	0	429916160	21	4873
2026-01-15 13:42:24.42	264.30	20.61	-30.1	-33.0	19.3	6.06e-01	0	43	0	431489024	21	5033
2026-01-15 13:42:25.42	264.60	20.63	-30.1	-33.0	19.3	6.06e-01	0	43	0	433586176	21	5040
2026-01-15 13:42:26.42	264.90	20.64	-30.2	-33.3	19.1	6.08e-01	0	43	0	435159040	21	5148
2026-01-15 13:42:27.42	265.20	20.66	-30.2	-33.3	19.1	6.09e-01	0	43	0	437256192	21	5118
2026-01-15 13:42:28.42	265.50	20.68	-30.1	-33.0	19.3	6.06e-01	0	43	0	438829056	21	5034
2026-01-15 13:42:29.42	265.80	20.69	-30.0	-32.7	19.5	6.06e-01	0	43	0	440926208	21	4919
2026-01-15 13:42:30.42	266.10	20.71	-30.0	-32.7	19.5	6.06e-01	0	43	0	443023360	21	4913
2026-01-15 13:42:31.43	266.40	20.72	-30.0	-32.6	19.5	6.07e-01	0	43	0	444596224	21	4881
2026-01-15 13:42:32.43	266.70	20.73	-30.0	-32.7	19.5	6.05e-01	0	43	0	446693376	21	4915
2026-01-15 13:42:33.43	267.00	20.74	-30.1	-32.9	19.3	6.08e-01	0	43	0	448266240	21	5006
2026-01-15 13:42:34.43	267.30	20.76	-29.9	-32.5	19.6	6.08e-01	0	43	0	450363392	21	4847
2026-01-15 13:42:35.43	267.60	20.77	-29.8	-32.1	19.8	6.07e-01	0	43	0	451936256	21	4728
2026-01-15 13:42:36.43	267.90	20.78	-29.8	-32.3	19.7	6.07e-01	0	43	0	454033408	21	4788
2026-01-15 13:42:37.43	268.20	20.79	-29.9	-32.4	19.7	6.07e-01	0	43	0	456130560	21	4813
2026-01-15 13:42:38.42	268.50	20.79	-29.9	-32.5	19.6	6.06e-01	0	43	0	457703424	21	4858
2026-01-15 13:42:39.42	268.80	20.80	-29.9	-32.5	19.6	6.06e-01	0	43	0	459800576	21	4830
2026-01-15 13:42:40.42	269.11	20.81	-30.0	-32.8	19.4	6.08e-01	0	43	0	461373440	21	4964
2026-01-15 13:42:41.42	269.41	20.81	-30.2	-33.3	19.1	6.08e-01	0	43	0	463470592	21	5141
2026-01-15 13:42:42.42	269.71	20.82	-29.9	-32.5	19.6	6.07e-01	0	43	0	465043456	21	4845
2026-01-15 13:42:43.42	270.01	20.82	-29.7	-32.0	19.9	6.07e-01	0	43	0	467140608	21	4685
2026-01-15 13:42:44.42	270.31	20.83	-29.9	-32.5	19.6	6.07e-01	0	43	0	469237760	21	4837
2026-01-15 13:42:45.42	270.62	20.83	-30.0	-32.7	19.4	6.09e-01	0	43	0	470810624	21	4922
2026-01-15 13:42:46.42	270.92	20.83	-29.9	-32.6	19.5	6.05e-01	0	43	0	472907776	21	4880
2026-01-15 13:42:47.42	271.22	20.83	-29.8	-32.1	19.8	6.09e-01	0	43	0	474480640	21	4723
2026-01-15 13:42:48.42	271.52	20.84	-30.0	-32.6	19.5	6.08e-01	0	43	0	476577792	21	4895
2026-01-15 13:42:49.43	271.83	20.84	-30.1	-33.1	19.2	6.07e-01	0	43	0	478674944	21	5060
2026-01-15 13:42:50.43	272.13	20.83	-29.9	-32.6	19.5	6.07e-01	0	43	0	480247808	21	4872
2026-01-15 13:42:51.43	272.43	20.83	-29.9	-32.5	19.6	6.09e-01	0	43	0	482344960	21	4854
2026-01-15 13:42:52.44	272.74	20.83	-29.9	-32.4	19.7	6.08e-01	0	43	0	483917824	21	4798
2026-01-15 13:42:53.44	273.04	20.83	-29.9	-32.4	19.7	6.06e-01	0	43	0	486014976	21	4813
2026-01-15 13:42:54.45	273.34	20.82	-29.8	-32.2	19.7	6.06e-01	0	43	0	488112128	21	4761
2026-01-15 13:42:55.44	273.64	20.82	-29.9	-32.5	19.6	6.06e-01	0	43	0	489684992	21	4848
2026-01-15 13:42:56.45	273.95	20.81	-29.9	-32.5	19.6	6.07e-01	0	43	0	491782144	21	4856
2026-01-15 13:42:57.45	274.25	20.81	-29.9	-32.4	19.6	6.06e-01	0	43	0	493355008	21	4831
2026-01-15 13:42:58.45	274.55	20.80	-29.9	-32.6	19.5	6.07e-01	0	43	0	495452160	21	4875
2026-01-15 13:42:59.45	274.85	20.79	-30.1	-33.0	19.3	6.05e-01	0	43	0	497025024	21	5042
2026-01-15 13:43:00.45	275.15	20.78	-30.2	-33.1	19.2	6.07e-01	0	43	0	499122176	21	5077
2026-01-15 13:43:01.46	275.46	20.77	-30.1	-33.1	19.2	6.08e-01	0	43	0	501219328	21	5059
2026-01-15 13:43:02.46	275.76	20.76	-30.2	-33.3	19.1	6.06e-01	0	43	0	502792192	21	5124
2026-01-15 13:43:03.46	276.06	20.75	-30.3	-33.4	19.0	6.06e-01	0	43	0	504889344	21	5172
2026-01-15 13:43:04.45	276.36	20.74	-30.3	-33.6	18.9	6.08e-01	0	43	0	506462208	21	5232
2026-01-15 13:43:05.46	276.66	20.73	-30.3	-33.6	18.8	6.05e-01	0	43	0	508559360	21	5264
2026-01-15 13:43:06.46	276.96	20.72	-30.3	-33.5	19.0	6.06e-01	0	43	0	510656512	21	5195
2026-01-15 13:43:07.46	277.26	20.70	-30.3	-33.6	18.9	6.07e-01	0	43	0	512229376	21	5228
2026-01-15 13:43:08.47	277.56	20.69	-30.1	-33.0	19.2	6.07e-01	0	43	0	514326528	21	5042
2026-01-15 13:43:09.47	277.86	20.67	-30.0	-32.7	19.5	6.07e-01	0	43	0	515899392	21	4930
2026-01-15 13:43:10.47	278.16	20.66	-30.0	-32.7	19.5	6.06e-01	0	43	0	517996544	21	4903
2026-01-15 13:43:11.47	278.46	20.64	-29.9	-32.5	19.6	6.09e-01	0	43	0	519569408	21	4853
2026-01-15 13:43:12.48	278.76	20.62	-29.9	-32.4	19.6	6.06e-01	0	43	0	521666560	21	4828
2026-01-15 13:43:13.48	279.05	20.61	-29.8	-32.3	19.7	6.06e-01	0	43	0	523763712	21	4789
2026-01-15 13:43:14.48	279.35	20.59	-29.9	-32.4	19.6	6.09e-01	0	43	0	525336576	21	4833
2026-01-15 13:43:15.49	279.65	20.57	-29.9	-32.6	19.6	6.06e-01	0	43	0	527433728	21	4874
2026-01-15 13:43:16.49	279.95	20.55	-29.8	-32.3	19.7	6.05e-01	0	43	0	529006592	21	4776
2026-01-15 13:43:17.50	280.25	20.53	-29.9	-32.4	19.6	6.09e-01	0	43	0	531103744	21	4805
2026-01-15 13:43:18.49	280.54	20.50	-30.0	-32.8	19.4	6.09e-01	0	43	0	533200896	21	4957
2026-01-15 13:43:19.50	280.84	20.48	-30.0	-32.6	19.5	6.07e-01	0	43	0	534773760	21	4890
2026-01-15 13:43:20.49	281.13	20.46	-29.9	-32.5	19.6	6.07e-01	0	43	0	536870912	21	4842
2026-01-15 13:43:21.50	281.43	20.43	-29.9	-32.4	19.6	6.07e-01	0	43	0	538443776	21	4830
2026-01-15 13:43:22.50	281.72	20.41	-29.9	-32.4	19.6	6.06e-01	0	43	0	540540928	21	4831
2026-01-15 13:43:23.51	282.02	20.38	-30.1	-32.9	19.3	6.07e-01	0	43	0	542113792	21	4990
2026-01-15 13:43:24.51	282.31	20.36	-30.0	-32.7	19.4	6.06e-01	0	43	0	544210944	21	4922
2026-01-15 13:43:25.52	282.60	20.33	-29.9	-32.4	19.6	6.06e-01	0	43	0	546308096	21	4807
2026-01-15 13:43:26.52	282.89	20.30	-29.9	-32.5	19.6	6.08e-01	0	43	0	547880960	21	4844
2026-01-15 13:43:27.52	283.19	20.28	-30.0	-32.7	19.4	6.04e-01	0	43	0	549978112	21	4924
2026-01-15 13:43:28.52	283.48	20.25	-30.0	-32.8	19.4	6.05e-01	0	43	0	551550976	21	4970
2026-01-15 13:43:29.53	283.77	20.22	-30.0	-32.8	19.3	6.05e-01	0	43	0	553648128	21	4955
2026-01-15 13:43:30.53	284.06	20.19	-29.8	-32.2	19.7	6.08e-01	0	43	0	555745280	21	4753
2026-01-15 13:43:31.54	284.35	20.16	-29.8	-32.1	19.8	6.07e-01	0	43	0	557318144	21	4727
2026-01-15 13:43:32.53	284.63	20.13	-29.9	-32.5	19.6	6.05e-01	0	43	0	559415296	21	4855
2026-01-15 13:43:33.54	284.92	20.09	-30.0	-32.7	19.5	6.06e-01	0	43	0	560988160	21	4911
2026-01-15 13:43:34.53	285.21	20.06	-29.8	-32.3	19.7	6.06e-01	0	43	0	563085312	21	4780
2026-01-15 13:43:35.53	285.49	20.03	-29.7	-32.1	19.8	6.05e-01	0	43	0	564658176	21	4699
2026-01-15 13:43:36.53	285.78	19.99	-29.9	-32.6	19.6	6.08e-01	0	43	0	566755328	21	4866
2026-01-15 13:43:37.53	286.06	19.96	-30.0	-32.8	19.3	6.10e-01	0	43	0	568852480	21	4974
2026-01-15 13:43:38.54	286.35	19.92	-29.9	-32.6	19.5	6.02e-01	0	43	0	570425344	21	4871
2026-01-15 13:43:39.54	286.64	19.89	-29.9	-32.3	19.6	6.07e-01	0	43	0	572522496	21	4799
2026-01-15 13:43:40.55	286.92	19.85	-29.9	-32.6	19.5	6.06e-01	0	43	0	574095360	21	4883
2026-01-15 13:43:41.55	287.20	19.81	-30.0	-32.6	19.5	6.10e-01	0	43	0	576192512	21	4895
2026-01-15 13:43:42.55	287.48	19.78	-30.0	-32.9	19.4	6.06e-01	0	43	0	578289664	21	4976
2026-01-15 13:43:43.55	287.76	19.74	-30.0	-32.7	19.4	6.10e-01	0	43	0	579862528	21	4937
2026-01-15 13:43:44.55	288.04	19.70	-29.8	-32.1	19.8	6.07e-01	0	43	0	581959680	21	4727
2026-01-15 13:43:45.55	288.32	19.66	-29.8	-32.1	19.8	6.05e-01	0	43	0	583532544	21	4722
2026-01-15 13:43:46.55	288.60	19.62	-30.0	-32.7	19.4	6.07e-01	0	43	0	585629696	21	4921
2026-01-15 13:43:47.55	288.88	19.58	-30.0	-32.8	19.3	6.05e-01	0	43	0	587202560	21	4963
2026-01-15 13:43:48.55	289.16	19.54	-30.0	-32.7	19.4	6.05e-01	0	43	0	589299712	21	4928
2026-01-15 13:43:49.55	289.43	19.50	-30.1	-33.0	19.2	6.07e-01	0	43	0	591396864	21	5026
2026-01-15 13:43:50.56	289.71	19.46	-30.0	-32.8	19.4	6.08e-01	0	43	0	592969728	21	4944
2026-01-15 13:43:51.56	289.99	19.41	-29.9	-32.6	19.5	6.07e-01	0	43	0	595066880	21	4885
2026-01-15 13:43:52.56	290.26	19.37	-29.8	-32.3	19.6	6.09e-01	0	43	0	596639744	21	4791
2026-01-15 13:43:53.56	290.53	19.33	-29.9	-32.5	19.6	6.04e-01	0	43	0	598736896	21	4852
2026-01-15 13:43:54.57	290.81	19.28	-30.0	-32.7	19.4	6.10e-01	0	43	0	600834048	21	4923
2026-01-15 13:43:55.57	291.08	19.24	-30.0	-32.6	19.5	6.05e-01	0	43	0	602406912	21	4898
2026-01-15 13:43:56.57	291.35	19.19	-29.8	-32.4	19.6	6.06e-01	0	43	0	604504064	21	4804
2026-01-15 13:43:57.57	291.62	19.15	-29.9	-32.6	19.5	6.08e-01	0	43	0	606076928	21	4881
2026-01-15 13:43:58.57	291.89	19.10	-30.0	-32.8	19.3	6.08e-01	0	43	0	608174080	21	4955
2026-01-15 13:43:59.57	292.15	19.05	-29.9	-32.6	19.4	6.05e-01	0	43	0	609746944	21	4903
2026-01-15 13:44:00.57	292.42	19.01	-30.0	-32.6	19.4	6.06e-01	0	43	0	611844096	21	4904
2026-01-15 13:44:01.57	292.69	18.96	-29.9	-32.5	19.5	6.05e-01	0	43	0	613941248	21	4840
2026-01-15 13:44:02.57	292.95	18.91	-29.9	-32.5	19.5	6.06e-01	0	43	0	615514112	21	4840
2026-01-15 13:44:03.57	293.22	18.86	-29.9	-32.5	19.5	6.04e-01	0	43	0	617611264	21	4847
2026-01-15 13:44:04.58	293.48	18.81	-30.0	-32.7	19.4	6.06e-01	0	43	0	619184128	21	4930
2026-01-15 13:44:05.59	293.75	18.76	-29.9	-32.6	19.4	6.08e-01	0	43	0	621281280	21	4890
2026-01-15 13:44:06.58	294.01	18.71	-29.9	-32.5	19.5	6.05e-01	0	43	0	622854144	21	4848
2026-01-15 13:44:07.59	294.27	18.66	-29.8	-32.1	19.7	6.07e-01	0	43	0	624951296	21	4729
2026-01-15 13:44:08.59	294.53	18.61	-30.1	-33.0	19.2	6.07e-01	0	43	0	627048448	21	5014
2026-01-15 13:44:09.59	294.79	18.56	-30.0	-32.6	19.4	6.05e-01	0	43	0	628621312	21	4911
2026-01-15 13:44:10.60	295.05	18.51	-29.8	-32.3	19.6	6.07e-01	0	43	0	630718464	21	4800
2026-01-15 13:44:11.60	295.31	18.46	-29.6	-31.7	20.0	6.05e-01	0	43	0	632815616	21	4597
2026-01-15 13:44:12.60	295.56	18.40	-29.7	-32.0	19.9	6.06e-01	0	43	0	634388480	21	4682
2026-01-15 13:44:13.60	295.82	18.35	-29.9	-32.5	19.5	6.06e-01	0	43	0	636485632	21	4866
2026-01-15 13:44:14.60	296.07	18.30	-30.0	-32.8	19.3	6.05e-01	0	43	0	638058496	21	4948
2026-01-15 13:44:15.60	296.33	18.24	-29.9	-32.6	19.4	6.09e-01	0	43	0	640155648	21	4894
2026-01-15 13:44:16.60	296.58	18.19	-29.8	-32.3	19.6	6.05e-01	0	43	0	641728512	21	4793
2026-01-15 13:44:17.60	296.83	18.13	-29.8	-32.3	19.7	6.07e-01	0	43	0	643825664	21	4774
2026-01-15 13:44:18.60	297.08	18.08	-29.8	-32.3	19.7	6.05e-01	0	43	0	645922816	21	4774
2026-01-15 13:44:19.60	297.33	18.02	-29.8	-32.4	19.6	6.07e-01	0	43	0	647495680	21	4811
2026-01-15 13:44:20.61	297.58	17.97	-29.9	-32.5	19.5	6.06e-01	0	43	0	649592832	21	4866
2026-01-15 13:44:21.61	297.83	17.91	-29.8	-32.2	19.7	6.07e-01	0	43	0	651165696	21	4751
2026-01-15 13:44:22.61	298.08	17.85	-29.9	-32.5	19.5	6.06e-01	0	43	0	653262848	21	4845
2026-01-15 13:44:23.62	298.32	17.80	-29.9	-32.6	19.4	6.08e-01	0	43	0	654835712	21	4886
2026-01-15 13:44:24.61	298.57	17.74	-29.9	-32.4	19.5	6.09e-01	0	43	0	656932864	21	4831
2026-01-15 13:44:25.60	298.81	17.68	-29.9	-32.5	19.5	6.06e-01	0	43	0	659030016	21	4847
2026-01-15 13:44:26.60	299.05	17.63	-29.9	-32.5	19.5	6.07e-01	0	43	0	660602880	21	4855
2026-01-15 13:44:27.61	299.29	17.57	-29.9	-32.6	19.4	6.06e-01	0	43	0	662700032	21	4893
2026-01-15 13:44:28.61	299.54	17.51	-30.1	-33.1	19.1	6.07e-01	0	43	0	664272896	21	5083
2026-01-15 13:44:29.62	299.78	17.45	-30.2	-33.4	18.9	6.05e-01	0	43	0	666370048	21	5188
2026-01-15 13:44:30.62	300.02	17.39	-30.1	-33.0	19.2	6.06e-01	0	43	0	667942912	21	5031
2026-01-15 13:44:31.62	300.25	17.33	-30.0	-32.8	19.3	6.06e-01	0	43	0	670040064	21	4970
2026-01-15 13:44:32.62	300.49	17.27	-29.8	-32.4	19.5	6.05e-01	0	43	0	672137216	21	4825
2026-01-15 13:44:33.62	300.73	17.21	-29.9	-32.5	19.4	6.08e-01	0	43	0	673710080	21	4878
2026-01-15 13:44:34.62	300.96	17.15	-29.9	-32.6	19.4	6.06e-01	0	43	0	675807232	21	4886
2026-01-15 13:44:35.62	301.20	17.09	-29.8	-32.3	19.6	6.07e-01	0	43	0	677380096	21	4783
2026-01-15 13:44:36.62	301.43	17.03	-29.8	-32.2	19.6	6.07e-01	0	43	0	679477248	21	4755
2026-01-15 13:44:37.62	301.66	16.97	-29.8	-32.2	19.6	6.06e-01	0	43	0	681050112	21	4774
2026-01-15 13:44:38.61	301.89	16.91	-29.8	-32.4	19.5	6.06e-01	0	43	0	683147264	21	4826
2026-01-15 13:44:39.62	302.12	16.85	-29.8	-32.3	19.5	6.06e-01	0	43	0	685244416	21	4798
2026-01-15 13:44:40.63	302.35	16.79	-29.8	-32.2	19.6	6.07e-01	0	43	0	686817280	21	4763
2026-01-15 13:44:41.63	302.58	16.72	-29.7	-32.1	19.7	6.08e-01	0	43	0	688914432	21	4743
2026-01-15 13:44:42.64	302.81	16.66	-29.8	-32.4	19.6	6.07e-01	0	43	0	691011584	21	4819
2026-01-15 13:44:43.65	303.04	16.60	-29.9	-32.4	19.5	6.08e-01	0	43	0	692584448	21	4845
2026-01-15 13:44:44.65	303.27	16.54	-29.9	-32.5	19.4	6.06e-01	0	43	0	694681600	21	4865
2026-01-15 13:44:45.66	303.49	16.47	-29.9	-32.6	19.3	6.05e-01	0	43	0	696254464	21	4917
2026-01-15 13:44:46.67	303.72	16.41	-30.0	-32.8	19.2	6.05e-01	0	43	0	698351616	21	4989
2026-01-15 13:44:47.67	303.94	16.35	-30.0	-32.8	19.2	6.06e-01	0	43	0	699924480	21	4969
2026-01-15 13:44:48.68	304.16	16.28	-29.9	-32.4	19.5	6.06e-01	0	43	0	702021632	21	4849
2026-01-15 13:44:49.68	304.38	16.22	-29.6	-31.8	19.9	6.07e-01	0	43	0	704118784	21	4638
2026-01-15 13:44:50.68	304.60	16.15	-29.6	-31.9	19.8	6.06e-01	0	43	0	705691648	21	4654
2026-01-15 13:44:51.68	304.82	16.09	-29.8	-32.2	19.6	6.08e-01	0	43	0	707788800	21	4765
2026-01-15 13:44:52.68	305.04	16.03	-29.7	-32.2	19.6	6.06e-01	0	43	0	709361664	21	4758
2026-01-15 13:44:53.68	305.26	15.96	-29.9	-32.4	19.5	6.09e-01	0	43	0	711458816	21	4843
2026-01-15 13:44:54.69	305.47	15.90	-29.8	-32.3	19.5	6.05e-01	0	43	0	713555968	21	4805
2026-01-15 13:44:55.69	305.69	15.83	-29.7	-32.2	19.6	6.06e-01	0	43	0	715128832	21	4752
2026-01-15 13:44:56.69	305.90	15.77	-29.7	-32.0	19.7	6.07e-01	0	43	0	717225984	21	4709
2026-01-15 13:44:57.69	306.11	15.70	-29.7	-32.0	19.7	6.07e-01	0	43	0	718798848	21	4704
2026-01-15 13:44:58.69	306.33	15.64	-29.7	-32.2	19.7	6.09e-01	0	43	0	720896000	21	4751
2026-01-15 13:44:59.69	306.54	15.57	-29.9	-32.5	19.4	6.06e-01	0	43	0	722993152	21	4859
2026-01-15 13:45:00.70	306.75	15.50	-29.8	-32.2	19.6	6.07e-01	0	43	0	724566016	21	4779
2026-01-15 13:45:01.71	306.96	15.44	-30.0	-32.7	19.3	6.05e-01	0	43	0	726663168	21	4956
2026-01-15 13:45:02.71	307.17	15.37	-29.8	-32.4	19.5	6.06e-01	0	43	0	728236032	21	4842
2026-01-15 13:45:03.71	307.37	15.31	-29.8	-32.3	19.5	6.07e-01	0	43	0	730333184	21	4799
2026-01-15 13:45:04.71	307.58	15.24	-29.8	-32.4	19.5	6.09e-01	0	43	0	731906048	21	4821
2026-01-15 13:45:05.72	307.79	15.17	-29.8	-32.3	19.5	6.06e-01	0	43	0	734003200	21	4814
2026-01-15 13:45:06.72	307.99	15.11	-29.8	-32.3	19.5	6.08e-01	0	43	0	736100352	21	4816
2026-01-15 13:45:07.72	308.19	15.04	-29.8	-32.2	19.5	6.05e-01	0	43	0	737673216	21	4784
2026-01-15 13:45:08.72	308.39	14.97	-29.8	-32.2	19.5	6.06e-01	0	43	0	739770368	21	4772
2026-01-15 13:45:09.73	308.60	14.91	-29.9	-32.6	19.3	6.04e-01	0	43	0	741343232	21	4911
2026-01-15 13:45:10.73	308.80	14.84	-29.9	-32.4	19.4	6.04e-01	0	43	0	743440384	21	4851
2026-01-15 13:45:11.73	309.00	14.77	-29.7	-32.2	19.6	6.07e-01	0	43	0	745013248	21	4755
2026-01-15 13:45:12.73	309.19	14.71	-29.8	-32.2	19.6	6.07e-01	0	43	0	747110400	21	4776
2026-01-15 13:45:13.72	309.39	14.64	-29.7	-32.0	19.7	6.05e-01	0	43	0	749207552	21	4717
2026-01-15 13:45:14.72	309.59	14.57	-29.8	-32.3	19.5	6.07e-01	0	43	0	750780416	21	4798
2026-01-15 13:45:15.72	309.78	14.50	-29.8	-32.3	19.5	6.06e-01	0	43	0	752877568	21	4807
2026-01-15 13:45:16.71	309.97	14.44	-29.8	-32.4	19.4	6.07e-01	0	43	0	754450432	21	4839
2026-01-15 13:45:17.71	310.17	14.37	-29.9	-32.5	19.4	6.07e-01	0	43	0	756547584	21	4857
2026-01-15 13:45:18.71	310.36	14.30	-29.9	-32.6	19.3	6.07e-01	0	43	0	758120448	21	4917
2026-01-15 13:45:19.71	310.55	14.24	-29.8	-32.3	19.5	6.06e-01	0	43	0	760217600	21	4817
2026-01-15 13:45:20.72	310.75	14.17	-29.8	-32.4	19.4	6.06e-01	0	43	0	762314752	21	4836
2026-01-15 13:45:21.73	310.94	14.10	-29.8	-32.3	19.5	6.05e-01	0	43	0	763887616	21	4791
2026-01-15 13:45:22.72	311.12	14.03	-29.9	-32.5	19.3	6.06e-01	0	43	0	765984768	21	4890
2026-01-15 13:45:23.73	311.31	13.96	-29.8	-32.3	19.5	6.06e-01	0	43	0	767557632	21	4806
2026-01-15 13:45:24.73	311.50	13.90	-29.8	-32.4	19.4	6.07e-01	0	43	0	769654784	21	4840
2026-01-15 13:45:25.73	311.69	13.83	-29.9	-32.7	19.2	6.07e-01	0	43	0	771227648	21	4942
2026-01-15 13:45:26.72	311.87	13.76	-29.9	-32.7	19.2	6.08e-01	0	43	0	773324800	21	4947
2026-01-15 13:45:27.73	312.06	13.69	-30.1	-33.2	18.9	6.07e-01	0	43	0	775421952	21	5111
2026-01-15 13:45:28.73	312.24	13.62	-30.1	-33.1	19.0	6.07e-01	0	43	0	776994816	21	5081
2026-01-15 13:45:29.74	312.43	13.55	-30.0	-32.8	19.2	6.04e-01	0	43	0	779091968	21	4966
2026-01-15 13:45:30.74	312.61	13.49	-30.0	-32.9	19.1	6.04e-01	0	43	0	781189120	21	5008
2026-01-15 13:45:31.74	312.79	13.42	-30.0	-32.9	19.1	6.03e-01	0	43	0	782761984	21	5026
2026-01-15 13:45:32.74	312.97	13.35	-30.0	-32.7	19.2	6.04e-01	0	43	0	784859136	21	4954
2026-01-15 13:45:33.74	313.15	13.28	-29.8	-32.4	19.4	6.04e-01	0	43	0	786432000	21	4855
2026-01-15 13:45:34.75	313.33	13.21	-30.0	-32.8	19.2	6.01e-01	0	43	0	788529152	21	4972
2026-01-15 13:45:35.75	313.51	13.14	-29.9	-32.7	19.2	6.06e-01	0	43	0	790102016	21	4945
2026-01-15 13:45:36.76	313.68	13.08	-30.0	-32.8	19.1	6.05e-01	0	43	0	792199168	21	5002
2026-01-15 13:45:37.76	313.86	13.01	-30.0	-32.8	19.1	6.04e-01	0	43	0	794296320	21	4998
2026-01-15 13:45:38.76	314.04	12.94	-29.9	-32.7	19.1	6.03e-01	0	43	0	795869184	21	4958
2026-01-15 13:45:39.76	314.21	12.87	-30.0	-32.8	19.1	6.05e-01	0	43	0	797966336	21	4995
2026-01-15 13:45:40.76	314.38	12.80	-30.0	-32.8	19.1	6.04e-01	0	43	0	799539200	21	4988
2026-01-15 13:45:41.76	314.56	12.73	-29.9	-32.6	19.2	6.04e-01	0	43	0	801636352	21	4909
2026-01-15 13:45:42.76	314.73	12.66	-30.0	-33.0	19.0	6.03e-01	0	43	0	803209216	21	5043
2026-01-15 13:45:43.76	314.90	12.60	-30.1	-33.1	19.0	6.04e-01	0	43	0	805306368	21	5085
2026-01-15 13:45:44.76	315.07	12.53	-30.1	-33.0	19.0	6.02e-01	0	43	0	807403520	21	5063
2026-01-15 13:45:45.76	315.24	12.46	-30.0	-33.0	19.0	6.02e-01	0	43	0	808976384	21	5046
2026-01-15 13:45:46.76	315.41	12.39	-30.1	-33.2	18.9	6.05e-01	0	43	0	811073536	21	5118
2026-01-15 13:45:47.76	315.57	12.32	-30.1	-33.1	18.9	6.02e-01	0	43	0	812646400	21	5089
2026-01-15 13:45:48.77	315.74	12.25	-30.1	-33.1	18.9	6.03e-01	0	43	0	814743552	21	5107
2026-01-15 13:45:49.77	315.91	12.19	-30.0	-33.0	19.0	6.03e-01	0	43	0	816840704	21	5059
2026-01-15 13:45:50.77	316.07	12.12	-30.0	-33.0	19.0	6.02e-01	0	43	0	818413568	21	5046
2026-01-15 13:45:51.78	316.24	12.05	-30.1	-33.2	18.8	6.00e-01	0	43	0	820510720	21	5132
2026-01-15 13:45:52.79	316.40	11.98	-30.2	-33.3	18.7	6.04e-01	0	43	0	822083584	21	5191
2026-01-15 13:45:53.79	316.57	11.91	-30.2	-33.5	18.6	6.03e-01	0	43	0	824180736	21	5237
2026-01-15 13:45:54.80	316.73	11.84	-30.2	-33.3	18.7	6.04e-01	0	43	0	826277888	21	5182
2026-01-15 13:45:55.80	316.89	11.77	-30.1	-33.2	18.9	6.02e-01	0	43	0	827850752	21	5126
2026-01-15 13:45:56.79	317.05	11.71	-30.0	-33.0	18.9	6.04e-01	0	43	0	829947904	21	5073
2026-01-15 13:45:57.80	317.21	11.64	-30.2	-33.4	18.7	6.04e-01	0	43	0	831520768	21	5212
2026-01-15 13:45:58.80	317.37	11.57	-30.2	-33.5	18.6	6.04e-01	0	43	0	833617920	21	5259
2026-01-15 13:45:59.80	317.53	11.50	-30.1	-33.3	18.7	6.01e-01	0	43	0	835190784	21	5180
2026-01-15 13:46:00.81	317.69	11.43	-30.2	-33.4	18.7	6.02e-01	0	43	0	837287936	21	5204
2026-01-15 13:46:01.81	317.84	11.36	-30.2	-33.4	18.6	6.02e-01	0	43	0	839385088	21	5214
2026-01-15 13:46:02.82	318.00	11.29	-30.2	-33.4	18.6	6.04e-01	0	43	0	840957952	21	5227
2026-01-15 13:46:03.82	318.15	11.23	-30.3	-33.7	18.5	6.03e-01	0	43	0	843055104	21	5319
2026-01-15 13:46:04.82	318.31	11.16	-30.2	-33.4	18.6	6.04e-01	0	43	0	844627968	21	5207
2026-01-15 13:46:05.83	318.46	11.09	-30.3	-33.8	18.4	6.05e-01	0	43	0	846725120	21	5360
2026-01-15 13:46:06.83	318.62	11.02	-30.3	-33.8	18.4	6.05e-01	0	43	0	848297984	21	5375
2026-01-15 13:46:07.82	318.77	10.95	-30.3	-33.6	18.5	6.05e-01	0	43	0	850395136	21	5315
2026-01-15 13:46:08.83	318.92	10.89	-30.3	-33.7	18.4	6.04e-01	0	43	0	852492288	21	5335
2026-01-15 13:46:09.83	319.07	10.82	-30.3	-33.7	18.4	6.02e-01	0	43	0	854065152	21	5328
2026-01-15 13:46:10.83	319.22	10.75	-30.2	-33.4	18.6	6.01e-01	0	43	0	856162304	21	5219
2026-01-15 13:46:11.83	319.37	10.68	-30.2	-33.4	18.6	6.03e-01	0	43	0	857735168	21	5220
2026-01-15 13:46:12.83	319.52	10.62	-30.1	-33.1	18.8	6.05e-01	0	43	0	859832320	21	5123
2026-01-15 13:46:13.84	319.67	10.55	-30.3	-33.7	18.4	6.04e-01	0	43	0	861929472	21	5346
2026-01-15 13:46:14.84	319.81	10.48	-30.2	-33.5	18.5	6.03e-01	0	43	0	863502336	21	5269
2026-01-15 13:46:15.85	319.96	10.41	-30.1	-33.3	18.7	6.05e-01	0	43	0	865599488	21	5195
2026-01-15 13:46:16.85	320.11	10.34	-30.2	-33.5	18.5	6.01e-01	0	43	0	867172352	21	5273
2026-01-15 13:46:17.84	320.25	10.28	-30.2	-33.5	18.5	6.04e-01	0	43	0	869269504	21	5253
2026-01-15 13:46:18.84	320.39	10.21	-30.3	-33.8	18.3	6.02e-01	0	43	0	871366656	21	5373
2026-01-15 13:46:19.84	320.54	10.14	-30.3	-33.9	18.2	6.03e-01	0	43	0	872939520	21	5412
2026-01-15 13:46:20.84	320.68	10.08	-30.3	-33.9	18.2	6.05e-01	0	43	0	875036672	21	5445
2026-01-15 13:46:21.84	320.82	10.01	-30.5	-34.3	17.9	6.03e-01	0	43	0	876609536	21	5602
2026-01-15 13:46:22.84	320.96	9.94	-30.4	-34.1	18.1	6.05e-01	0	43	0	878706688	21	5502
2026-01-15 13:46:23.84	321.10	9.87	-30.4	-34.1	18.1	6.03e-01	0	43	0	880279552	21	5499
2026-01-15 13:46:24.85	321.24	9.81	-30.4	-34.1	18.1	6.04e-01	0	43	0	882376704	21	5522
2026-01-15 13:46:25.85	321.38	9.74	-30.4	-34.0	18.2	6.02e-01	0	43	0	884473856	21	5462
2026-01-15 13:46:26.84	321.52	9.67	-30.5	-34.4	17.9	6.02e-01	0	43	0	886046720	21	5619
2026-01-15 13:46:27.84	321.66	9.61	-30.5	-34.4	17.9	6.04e-01	0	43	0	888143872	21	5650
2026-01-15 13:46:28.85	321.80	9.54	-30.5	-34.4	17.9	6.02e-01	0	43	0	889716736	21	5645
2026-01-15 13:46:29.85	321.93	9.47	-30.5	-34.3	17.9	6.03e-01	0	43	0	891813888	21	5616
2026-01-15 13:46:30.85	322.07	9.41	-30.4	-34.2	17.9	6.02e-01	0	43	0	893386752	21	5570
2026-01-15 13:46:31.85	322.21	9.34	-30.4	-34.2	17.9	6.04e-01	0	43	0	895483904	21	5567
2026-01-15 13:46:32.85	322.34	9.27	-30.5	-34.4	17.9	6.06e-01	0	43	0	897581056	21	5644
2026-01-15 13:46:33.85	322.47	9.21	-30.7	-34.5	17.2	6.02e-01	0	43	0	899153920	22	5635
2026-01-15 13:46:34.85	322.61	9.14	-30.6	-34.3	17.4	6.05e-01	0	43	0	901251072	22	5542
2026-01-15 13:46:35.85	322.74	9.07	-30.4	-33.7	17.7	6.03e-01	0	43	0	902823936	22	5295
2026-01-15 13:46:36.84	322.87	9.01	-30.4	-33.8	17.6	6.05e-01	0	43	0	904921088	22	5329
2026-01-15 13:46:37.85	323.00	8.94	-28.8	-33.9	16.1	6.05e-01	0	43	0	907018240	19	6493
2026-01-15 13:46:38.85	323.13	8.88	-28.7	-33.8	16.2	6.07e-01	0	43	0	908591104	19	6425
2026-01-15 13:46:39.84	323.26	8.81	-28.8	-34.1	16.1	6.06e-01	0	43	0	910688256	19	6607
2026-01-15 13:46:40.85	323.39	8.74	-28.7	-34.1	15.9	6.06e-01	0	43	0	912261120	19	6674
2026-01-15 13:46:41.85	323.52	8.68	-28.7	-34.0	15.9	6.10e-01	0	43	0	914358272	19	6658
2026-01-15 13:46:42.86	323.65	8.61	-30.4	-33.8	17.8	6.03e-01	0	43	0	915931136	22	5286
2026-01-15 13:46:43.87	323.78	8.55	-30.5	-34.1	17.6	6.03e-01	0	43	0	918028288	22	5404
2026-01-15 13:46:44.87	323.91	8.48	-30.7	-34.5	17.3	6.04e-01	0	43	0	920125440	22	5591
2026-01-15 13:46:45.87	324.04	8.41	-30.5	-33.9	17.7	6.05e-01	0	43	0	921698304	22	5342
2026-01-15 13:46:46.87	324.16	8.35	-30.6	-34.2	17.5	6.07e-01	0	43	0	923795456	22	5474
2026-01-15 13:46:47.88	324.29	8.28	-30.6	-34.2	17.5	6.04e-01	0	43	0	925368320	22	5474
2026-01-15 13:46:48.88	324.41	8.22	-30.6	-34.2	17.5	6.04e-01	0	43	0	927465472	22	5479
2026-01-15 13:46:49.88	324.54	8.15	-30.7	-34.5	17.3	6.05e-01	0	43	0	929038336	22	5608
2026-01-15 13:46:50.88	324.66	8.09	-30.5	-34.0	17.6	6.04e-01	0	43	0	931135488	22	5381
2026-01-15 13:46:51.88	324.79	8.02	-30.6	-34.4	17.4	6.05e-01	0	43	0	933232640	22	5575
2026-01-15 13:46:52.88	324.91	7.96	-30.7	-34.7	17.1	6.03e-01	0	43	0	934805504	22	5689
2026-01-15 13:46:53.89	325.03	7.89	-30.6	-34.5	17.3	6.08e-01	0	43	0	936902656	22	5584
2026-01-15 13:46:54.89	325.15	7.83	-30.7	-34.7	17.1	6.02e-01	0	43	0	938475520	22	5702
2026-01-15 13:46:55.89	325.27	7.76	-30.8	-34.8	17.0	6.05e-01	0	43	0	940572672	22	5746
2026-01-15 13:46:56.89	325.39	7.70	-30.7	-34.8	17.0	6.04e-01	0	43	0	942669824	22	5738
2026-01-15 13:46:57.89	325.51	7.63	-30.7	-34.5	17.2	6.04e-01	0	43	0	944242688	22	5620
2026-01-15 13:46:58.90	325.63	7.57	-30.7	-34.6	17.3	6.03e-01	0	43	0	946339840	22	5641
2026-01-15 13:46:59.89	325.75	7.51	-30.7	-34.7	17.1	6.02e-01	0	43	0	947912704	22	5705
2026-01-15 13:47:00.90	325.87	7.44	-30.7	-34.8	17.0	6.03e-01	0	43	0	950009856	22	5726
2026-01-15 13:47:01.90	325.99	7.38	-30.5	-34.1	17.5	6.01e-01	0	43	0	952107008	22	5427
2026-01-15 13:47:02.90	326.11	7.31	-30.9	-35.3	16.7	6.05e-01	0	43	0	953679872	22	5995
2026-01-15 13:47:03.90	326.22	7.25	-30.7	-34.8	17.0	6.06e-01	0	43	0	955777024	22	5747
2026-01-15 13:47:04.90	326.34	7.18	-30.7	-34.7	17.0	6.03e-01	0	43	0	957349888	22	5687
2026-01-15 13:47:05.90	326.45	7.12	-30.6	-34.5	17.2	6.06e-01	0	43	0	959447040	22	5603
2026-01-15 13:47:06.90	326.57	7.06	-33.6	-49.9	4.0	7.45e-01	0	43	104	960495616	28	23458
2026-01-15 13:47:07.90	326.68	6.99	-34.0	-53.4	3.8	7.47e-01	0	43	104	960495616	28	33859

#Closed at: 2026-01-15 13:47:08
#Recorded file [960 MB]: D:/data/31010_260115_163834.dat