passes_logs/2026/01/15/R2M6_AANII_01/R2M6_AANII_01__20260115_102332_AQUA_rec.log

#Pass ID: 20260115_102332_AQUA
#Satellite: AQUA
#Configuration: AQUA
#almurnet v.1.7.20240730
#Start time: 2026-01-15 10:23:34

#Version: 2.2.20231116
#Station: R2M6_AANII_01
#Location: 30.233357 lon 59.946436 lat
#TLE: 1 27424U 02022A   26014.19338718  .00000717  00000+0  15340-3 0  9998
#TLE: 2 27424  98.4080 340.6072 0002047  79.4950 292.1093 14.61819636260772

#Time	Az	El	Level	Level2	SNR	BER	BlckErr	Temp	State	Recorded	gain1	gain2
2026-01-15 10:23:34.05	104.58	7.13	-32.1	-39.1	5.0	7.08e-01	0	41	0	0	26	8021
2026-01-15 10:23:35.05	104.47	7.20	-31.8	-37.9	5.0	7.12e-01	0	41	104	0	25	7332
2026-01-15 10:23:36.06	104.37	7.27	-31.8	-37.2	14.0	6.08e-01	0	41	0	0	25	6707
2026-01-15 10:23:37.06	104.26	7.34	-31.6	-36.7	14.3	6.06e-01	0	41	0	1572864	25	6462
2026-01-15 10:23:38.07	104.15	7.41	-31.7	-36.9	14.2	6.08e-01	0	41	0	3670016	25	6538
2026-01-15 10:23:39.07	104.05	7.48	-31.8	-37.3	13.9	6.07e-01	0	41	0	5242880	25	6777
2026-01-15 10:23:40.07	103.94	7.54	-31.8	-37.2	14.0	6.06e-01	0	41	0	7340032	25	6734
2026-01-15 10:23:41.07	103.83	7.61	-32.0	-38.2	13.2	6.10e-01	0	41	0	9437184	25	7342
2026-01-15 10:23:42.07	103.72	7.68	-31.7	-36.9	14.2	6.07e-01	0	41	0	11010048	25	6545
2026-01-15 10:23:43.07	103.61	7.75	-31.5	-36.0	14.9	6.05e-01	0	41	0	13107200	25	6035
2026-01-15 10:23:44.07	103.50	7.82	-31.2	-35.5	15.7	6.08e-01	0	41	0	14680064	24	5873
2026-01-15 10:23:45.08	103.39	7.89	-31.0	-34.7	16.3	6.06e-01	0	41	0	16777216	24	5533
2026-01-15 10:23:46.08	103.28	7.96	-30.8	-34.5	16.8	6.06e-01	0	41	0	18350080	23	5522
2026-01-15 10:23:47.08	103.17	8.03	-30.6	-33.8	17.3	6.06e-01	0	41	0	20447232	23	5246
2026-01-15 10:23:48.08	103.06	8.10	-30.5	-33.5	17.5	6.04e-01	0	41	0	22544384	23	5124
2026-01-15 10:23:49.08	102.94	8.17	-30.5	-33.7	17.4	6.07e-01	0	41	0	24117248	23	5171
2026-01-15 10:23:50.09	102.83	8.24	-30.6	-33.9	17.3	6.06e-01	0	41	0	26214400	23	5263
2026-01-15 10:23:51.09	102.71	8.31	-30.6	-34.0	17.1	6.06e-01	0	41	0	27787264	23	5327
2026-01-15 10:23:52.10	102.60	8.38	-30.5	-33.7	17.4	6.05e-01	0	41	0	29884416	23	5181
2026-01-15 10:23:53.10	102.48	8.45	-30.6	-33.8	17.4	6.06e-01	0	41	0	31457280	23	5202
2026-01-15 10:23:54.10	102.37	8.52	-30.4	-33.4	17.6	6.06e-01	0	41	0	33554432	23	5062
2026-01-15 10:23:55.10	102.25	8.59	-30.5	-33.6	17.5	6.07e-01	0	41	0	35651584	23	5163
2026-01-15 10:23:56.11	102.13	8.66	-30.5	-33.6	17.5	6.06e-01	0	41	0	37224448	23	5139
2026-01-15 10:23:57.11	102.01	8.73	-30.5	-33.6	17.4	6.08e-01	0	41	0	39321600	23	5162
2026-01-15 10:23:58.11	101.90	8.80	-30.5	-33.8	17.4	6.07e-01	0	41	0	41418752	23	5219
2026-01-15 10:23:59.11	101.78	8.87	-30.7	-34.4	16.8	6.07e-01	0	41	0	42991616	23	5507
2026-01-15 10:24:00.12	101.66	8.95	-30.5	-33.8	17.3	6.09e-01	0	42	0	45088768	23	5226
2026-01-15 10:24:01.12	101.53	9.02	-30.4	-33.5	17.5	6.06e-01	0	41	0	46661632	23	5111
2026-01-15 10:24:02.12	101.41	9.09	-30.4	-33.7	17.7	6.05e-01	0	41	0	48758784	22	5314
2026-01-15 10:24:03.13	101.29	9.16	-30.4	-33.7	17.7	6.08e-01	0	42	0	50331648	22	5308
2026-01-15 10:24:04.13	101.17	9.23	-30.3	-33.7	17.7	6.06e-01	0	42	0	52428800	22	5296
2026-01-15 10:24:05.13	101.05	9.30	-30.5	-34.1	17.5	6.05e-01	0	42	0	54525952	22	5461
2026-01-15 10:24:06.14	100.92	9.37	-30.3	-33.7	17.8	6.06e-01	0	42	0	56098816	22	5271
2026-01-15 10:24:07.14	100.80	9.45	-30.3	-33.6	17.8	6.05e-01	0	42	0	58195968	22	5253
2026-01-15 10:24:08.14	100.67	9.52	-30.3	-33.6	17.8	6.07e-01	0	41	0	59768832	22	5262
2026-01-15 10:24:09.14	100.55	9.59	-30.2	-33.4	18.0	6.05e-01	0	42	0	61865984	22	5148
2026-01-15 10:24:10.15	100.42	9.66	-30.3	-33.4	18.0	6.05e-01	0	42	0	63438848	22	5176
2026-01-15 10:24:11.15	100.29	9.74	-30.3	-33.5	17.9	6.06e-01	0	42	0	65536000	22	5217
2026-01-15 10:24:12.16	100.16	9.81	-30.3	-33.5	17.9	6.07e-01	0	42	0	67633152	22	5224
2026-01-15 10:24:13.16	100.03	9.88	-30.4	-33.9	17.6	6.06e-01	0	42	0	69206016	22	5364
2026-01-15 10:24:14.16	99.90	9.95	-30.3	-33.6	17.8	6.04e-01	0	42	0	71303168	22	5244
2026-01-15 10:24:15.16	99.77	10.03	-30.3	-33.5	17.9	6.08e-01	0	42	0	73400320	22	5189
2026-01-15 10:24:16.17	99.64	10.10	-30.3	-33.4	17.9	6.06e-01	0	42	0	74973184	22	5176
2026-01-15 10:24:17.17	99.51	10.17	-30.3	-33.6	17.8	6.04e-01	0	42	0	77070336	22	5234
2026-01-15 10:24:18.17	99.38	10.25	-30.3	-33.4	18.0	6.07e-01	0	42	0	78643200	22	5165
2026-01-15 10:24:19.18	99.24	10.32	-30.2	-33.2	18.1	6.07e-01	0	42	0	80740352	22	5090
2026-01-15 10:24:20.18	99.11	10.39	-30.1	-33.1	18.2	6.07e-01	0	42	0	82313216	22	5047
2026-01-15 10:24:21.19	98.97	10.47	-30.2	-33.1	18.2	6.07e-01	0	42	0	84410368	22	5052
2026-01-15 10:24:22.19	98.84	10.54	-30.2	-33.1	18.2	6.06e-01	0	42	0	86507520	22	5052
2026-01-15 10:24:23.19	98.70	10.61	-30.3	-33.4	18.1	6.07e-01	0	42	0	88080384	22	5149
2026-01-15 10:24:24.19	98.57	10.69	-30.2	-33.1	18.2	6.08e-01	0	42	0	90177536	22	5048
2026-01-15 10:24:25.19	98.43	10.76	-30.3	-33.4	18.0	6.08e-01	0	42	0	91750400	22	5164
2026-01-15 10:24:26.20	98.29	10.83	-30.4	-33.9	17.7	6.08e-01	0	42	0	93847552	22	5374
2026-01-15 10:24:27.20	98.15	10.91	-30.3	-33.6	17.9	6.07e-01	0	42	0	95420416	22	5243
2026-01-15 10:24:28.20	98.01	10.98	-30.6	-34.4	17.3	6.06e-01	0	42	0	97517568	22	5587
2026-01-15 10:24:29.20	97.87	11.06	-30.4	-33.6	17.9	6.06e-01	0	42	0	99614720	22	5250
2026-01-15 10:24:30.20	97.73	11.13	-30.2	-33.3	18.1	6.05e-01	0	42	0	101187584	22	5124
2026-01-15 10:24:31.21	97.59	11.20	-30.1	-33.0	18.4	6.05e-01	0	42	0	103284736	22	5004
2026-01-15 10:24:32.21	97.44	11.28	-30.1	-32.8	18.5	6.09e-01	0	42	0	104857600	22	4924
2026-01-15 10:24:33.22	97.30	11.35	-30.1	-32.9	18.5	6.04e-01	0	42	0	106954752	22	4941
2026-01-15 10:24:34.22	97.16	11.43	-30.1	-32.9	18.5	6.06e-01	0	42	0	109051904	22	4959
2026-01-15 10:24:35.23	97.01	11.50	-30.4	-33.5	18.1	6.04e-01	0	42	0	110624768	22	5187
2026-01-15 10:24:36.23	96.86	11.58	-30.1	-32.9	18.5	6.08e-01	0	42	0	112721920	22	4945
2026-01-15 10:24:37.23	96.72	11.65	-30.0	-32.6	18.7	6.07e-01	0	42	0	114294784	22	4843
2026-01-15 10:24:38.24	96.57	11.73	-29.9	-32.4	18.8	6.04e-01	0	42	0	116391936	22	4763
2026-01-15 10:24:39.24	96.42	11.80	-30.0	-32.6	18.6	6.07e-01	0	42	0	118489088	22	4865
2026-01-15 10:24:40.24	96.27	11.88	-29.9	-32.7	18.9	6.06e-01	0	42	0	120061952	21	4988
2026-01-15 10:24:41.25	96.12	11.95	-29.8	-32.6	19.0	6.06e-01	0	42	0	122159104	21	4948
2026-01-15 10:24:42.25	95.97	12.03	-29.9	-32.7	19.0	6.06e-01	0	42	0	123731968	21	5001
2026-01-15 10:24:43.26	95.81	12.10	-30.0	-33.0	18.8	6.05e-01	0	42	0	125829120	21	5094
2026-01-15 10:24:44.26	95.66	12.18	-29.9	-32.7	19.0	6.06e-01	0	42	0	127926272	21	4972
2026-01-15 10:24:45.26	95.51	12.25	-29.9	-32.9	18.9	6.06e-01	0	42	0	129499136	21	5043
2026-01-15 10:24:46.27	95.35	12.33	-30.1	-33.2	18.6	6.06e-01	0	42	0	131596288	21	5190
2026-01-15 10:24:47.28	95.20	12.41	-30.0	-32.9	18.8	6.07e-01	0	42	0	133169152	21	5062
2026-01-15 10:24:48.28	95.04	12.48	-29.9	-32.9	18.9	6.05e-01	0	42	0	135266304	21	5046
2026-01-15 10:24:49.28	94.88	12.56	-30.0	-33.1	18.8	6.07e-01	0	42	0	136839168	21	5119
2026-01-15 10:24:50.28	94.72	12.63	-30.0	-33.1	18.8	6.07e-01	0	42	0	138936320	21	5114
2026-01-15 10:24:51.29	94.56	12.71	-30.0	-32.9	18.9	6.06e-01	0	42	0	141033472	21	5071
2026-01-15 10:24:52.30	94.40	12.79	-29.9	-32.8	19.0	6.08e-01	0	42	0	142606336	21	5023
2026-01-15 10:24:53.30	94.24	12.86	-29.9	-32.8	19.0	6.04e-01	0	43	0	144703488	21	5008
2026-01-15 10:24:54.31	94.08	12.94	-29.9	-32.8	19.0	6.06e-01	0	43	0	146800640	21	5027
2026-01-15 10:24:55.30	93.92	13.01	-29.9	-32.8	19.0	6.06e-01	0	42	0	148373504	21	5005
2026-01-15 10:24:56.31	93.75	13.09	-30.0	-32.9	19.0	6.06e-01	0	42	0	150470656	21	5054
2026-01-15 10:24:57.31	93.59	13.17	-30.1	-33.2	18.8	6.07e-01	0	42	0	152043520	21	5141
2026-01-15 10:24:58.31	93.43	13.24	-30.0	-33.0	18.9	6.07e-01	0	42	0	154140672	21	5071
2026-01-15 10:24:59.31	93.26	13.32	-30.1	-33.1	18.9	6.06e-01	0	42	0	155713536	21	5109
2026-01-15 10:25:00.31	93.09	13.39	-30.2	-33.4	18.7	6.07e-01	0	42	0	157810688	21	5230
2026-01-15 10:25:01.32	92.92	13.47	-30.1	-33.3	18.8	6.05e-01	0	42	0	159907840	21	5171
2026-01-15 10:25:02.32	92.75	13.55	-30.1	-33.3	18.8	6.08e-01	0	42	0	161480704	21	5183
2026-01-15 10:25:03.32	92.58	13.62	-30.1	-33.1	18.9	6.07e-01	0	42	0	163577856	21	5113
2026-01-15 10:25:04.32	92.41	13.70	-30.0	-33.1	19.0	6.07e-01	0	42	0	165150720	21	5092
2026-01-15 10:25:05.33	92.24	13.78	-30.1	-33.1	18.9	6.05e-01	0	42	0	167247872	21	5110
2026-01-15 10:25:06.33	92.07	13.85	-30.0	-32.9	19.0	6.07e-01	0	42	0	168820736	21	5053
2026-01-15 10:25:07.33	91.89	13.93	-30.2	-33.4	18.8	6.06e-01	0	42	0	170917888	21	5226
2026-01-15 10:25:08.33	91.72	14.00	-30.2	-33.4	18.8	6.04e-01	0	42	0	173015040	21	5228
2026-01-15 10:25:09.34	91.54	14.08	-30.0	-32.9	19.1	6.06e-01	0	42	0	174587904	21	5038
2026-01-15 10:25:10.35	91.36	14.16	-29.9	-32.6	19.3	6.07e-01	0	42	0	176685056	21	4920
2026-01-15 10:25:11.35	91.19	14.23	-29.8	-32.4	19.4	6.06e-01	0	42	0	178257920	21	4861
2026-01-15 10:25:12.35	91.01	14.31	-29.9	-32.5	19.3	6.07e-01	0	42	0	180355072	21	4887
2026-01-15 10:25:13.35	90.83	14.39	-29.8	-32.4	19.4	6.08e-01	0	42	0	181927936	21	4846
2026-01-15 10:25:14.35	90.65	14.46	-30.0	-32.8	19.2	6.04e-01	0	42	0	184025088	21	4993
2026-01-15 10:25:15.35	90.47	14.54	-30.1	-33.2	18.9	6.05e-01	0	42	0	186122240	21	5134
2026-01-15 10:25:16.36	90.28	14.62	-30.1	-33.2	19.0	6.07e-01	0	42	0	187695104	21	5120
2026-01-15 10:25:17.36	90.10	14.69	-30.1	-33.2	18.9	6.07e-01	0	43	0	189792256	21	5145
2026-01-15 10:25:18.36	89.92	14.77	-29.9	-32.7	19.3	6.05e-01	0	42	0	191889408	21	4943
2026-01-15 10:25:19.36	89.73	14.85	-29.9	-32.5	19.4	6.07e-01	0	42	0	193462272	21	4898
2026-01-15 10:25:20.37	89.54	14.92	-29.9	-32.5	19.4	6.08e-01	0	42	0	195559424	21	4888
2026-01-15 10:25:21.37	89.35	15.00	-29.9	-32.6	19.4	6.04e-01	0	42	0	197132288	21	4894
2026-01-15 10:25:22.37	89.17	15.07	-29.9	-32.7	19.4	6.08e-01	0	43	0	199229440	21	4929
2026-01-15 10:25:23.37	88.98	15.15	-30.0	-32.7	19.3	6.06e-01	0	42	0	200802304	21	4956
2026-01-15 10:25:24.37	88.79	15.23	-30.1	-33.0	19.2	6.06e-01	0	43	0	202899456	21	5046
2026-01-15 10:25:25.38	88.59	15.30	-30.1	-33.2	19.1	6.08e-01	0	42	0	204996608	21	5112
2026-01-15 10:25:26.39	88.40	15.38	-30.1	-33.2	19.1	6.05e-01	0	42	0	206569472	21	5106
2026-01-15 10:25:27.39	88.20	15.46	-30.0	-33.0	19.2	6.06e-01	0	42	0	208666624	21	5043
2026-01-15 10:25:28.40	88.01	15.53	-30.1	-33.1	19.1	6.06e-01	0	43	0	210239488	21	5104
2026-01-15 10:25:29.40	87.81	15.61	-30.2	-33.3	19.0	6.06e-01	0	43	0	212336640	21	5145
2026-01-15 10:25:30.40	87.61	15.68	-30.0	-32.8	19.3	6.07e-01	0	42	0	213909504	21	4977
2026-01-15 10:25:31.40	87.42	15.76	-30.1	-33.1	19.1	6.08e-01	0	43	0	216006656	21	5096
2026-01-15 10:25:32.40	87.22	15.83	-30.1	-33.2	19.1	6.06e-01	0	42	0	218103808	21	5104
2026-01-15 10:25:33.40	87.02	15.91	-30.0	-32.9	19.3	6.07e-01	0	42	0	219676672	21	5003
2026-01-15 10:25:34.41	86.81	15.99	-30.0	-32.7	19.4	6.07e-01	0	42	0	221773824	21	4928
2026-01-15 10:25:35.41	86.61	16.06	-29.9	-32.6	19.4	6.05e-01	0	43	0	223870976	21	4906
2026-01-15 10:25:36.41	86.41	16.14	-29.9	-32.7	19.4	6.07e-01	0	43	0	225443840	21	4928
2026-01-15 10:25:37.41	86.20	16.21	-29.9	-32.5	19.5	6.04e-01	0	43	0	227540992	21	4879
2026-01-15 10:25:38.42	85.99	16.29	-30.0	-32.8	19.4	6.07e-01	0	43	0	229113856	21	4964
2026-01-15 10:25:39.42	85.79	16.36	-30.1	-33.0	19.2	6.07e-01	0	43	0	231211008	21	5053
2026-01-15 10:25:40.42	85.58	16.44	-30.1	-33.0	19.2	6.06e-01	0	43	0	232783872	21	5051
2026-01-15 10:25:41.43	85.37	16.51	-30.2	-33.3	19.1	6.05e-01	0	42	0	234881024	21	5147
2026-01-15 10:25:42.43	85.16	16.59	-30.2	-33.2	19.1	6.07e-01	0	43	0	236978176	21	5128
2026-01-15 10:25:43.43	84.95	16.66	-30.0	-32.8	19.4	6.05e-01	0	43	0	238551040	21	4963
2026-01-15 10:25:44.42	84.74	16.73	-30.0	-32.7	19.5	6.06e-01	0	43	0	240648192	21	4930
2026-01-15 10:25:45.42	84.52	16.81	-30.0	-32.7	19.5	6.04e-01	0	43	0	242221056	21	4920
2026-01-15 10:25:46.42	84.31	16.88	-29.9	-32.6	19.5	6.08e-01	0	43	0	244318208	21	4895
2026-01-15 10:25:47.42	84.09	16.96	-30.1	-33.0	19.3	6.06e-01	0	43	0	245891072	21	5035
2026-01-15 10:25:48.42	83.87	17.03	-30.1	-33.0	19.3	6.05e-01	0	43	0	247988224	21	5043
2026-01-15 10:25:49.42	83.66	17.10	-30.0	-32.8	19.4	6.07e-01	0	43	0	250085376	21	4974
2026-01-15 10:25:50.42	83.44	17.18	-30.0	-32.8	19.4	6.05e-01	0	43	0	251658240	21	4976
2026-01-15 10:25:51.43	83.22	17.25	-30.0	-32.8	19.4	6.05e-01	0	43	0	253755392	21	4983
2026-01-15 10:25:52.43	82.99	17.32	-30.0	-32.9	19.4	6.07e-01	0	43	0	255328256	21	4994
2026-01-15 10:25:53.43	82.77	17.40	-30.1	-33.0	19.3	6.06e-01	0	43	0	257425408	21	5024
2026-01-15 10:25:54.43	82.55	17.47	-30.1	-32.9	19.4	6.06e-01	0	43	0	258998272	21	5003
2026-01-15 10:25:55.44	82.32	17.54	-30.1	-33.0	19.3	6.07e-01	0	43	0	261095424	21	5022
2026-01-15 10:25:56.44	82.09	17.62	-30.1	-33.1	19.2	6.08e-01	0	43	0	263192576	21	5069
2026-01-15 10:25:57.44	81.87	17.69	-30.1	-33.0	19.3	6.08e-01	0	43	0	264765440	21	5034
2026-01-15 10:25:58.44	81.64	17.76	-30.3	-33.7	18.9	6.07e-01	0	43	0	266862592	21	5288
2026-01-15 10:25:59.45	81.41	17.83	-30.3	-33.5	19.1	6.08e-01	0	43	0	268435456	21	5217
2026-01-15 10:26:00.45	81.18	17.90	-30.3	-33.5	19.0	6.07e-01	0	43	0	270532608	21	5219
2026-01-15 10:26:01.45	80.94	17.97	-30.3	-33.6	19.0	6.06e-01	0	43	0	272105472	21	5257
2026-01-15 10:26:02.45	80.71	18.05	-30.5	-33.4	18.7	6.06e-01	0	43	0	274202624	22	5083
2026-01-15 10:26:03.46	80.47	18.12	-30.2	-32.9	19.1	6.07e-01	0	43	0	276299776	22	4876
2026-01-15 10:26:04.46	80.24	18.19	-30.3	-32.9	19.1	6.06e-01	0	43	0	277872640	22	4883
2026-01-15 10:26:05.47	80.00	18.26	-30.3	-33.0	19.1	6.06e-01	0	43	0	279969792	22	4914
2026-01-15 10:26:06.47	79.76	18.33	-30.3	-33.1	19.1	6.05e-01	0	43	0	282066944	22	4948
2026-01-15 10:26:07.47	79.52	18.40	-30.4	-33.3	18.9	6.07e-01	0	43	0	283639808	22	5035
2026-01-15 10:26:08.48	79.28	18.47	-30.3	-33.0	19.1	6.08e-01	0	43	0	285736960	22	4920
2026-01-15 10:26:09.48	79.04	18.54	-30.3	-33.0	19.1	6.06e-01	0	43	0	287309824	22	4920
2026-01-15 10:26:10.48	78.80	18.61	-30.5	-33.6	18.8	6.07e-01	0	43	0	289406976	22	5118
2026-01-15 10:26:11.49	78.55	18.67	-30.4	-33.3	18.9	6.05e-01	0	43	0	290979840	22	5004
2026-01-15 10:26:12.49	78.31	18.74	-30.3	-32.9	19.2	6.06e-01	0	43	0	293076992	22	4875
2026-01-15 10:26:13.49	78.06	18.81	-30.4	-33.2	19.0	6.07e-01	0	43	0	295174144	22	4991
2026-01-15 10:26:14.50	77.81	18.88	-30.4	-33.3	18.9	6.06e-01	0	43	0	296747008	22	5034
2026-01-15 10:26:15.50	77.56	18.95	-30.6	-33.9	18.6	6.06e-01	0	43	0	298844160	22	5240
2026-01-15 10:26:16.51	77.31	19.01	-30.7	-34.0	18.5	6.06e-01	0	43	0	300417024	22	5297
2026-01-15 10:26:17.52	77.06	19.08	-30.6	-33.7	18.7	6.06e-01	0	43	0	302514176	22	5160
2026-01-15 10:26:18.52	76.81	19.15	-30.5	-33.5	18.8	6.07e-01	0	43	0	304611328	22	5085
2026-01-15 10:26:19.52	76.55	19.21	-30.5	-33.4	18.9	6.04e-01	0	43	0	306184192	22	5048
2026-01-15 10:26:20.53	76.30	19.28	-30.3	-33.1	19.1	6.06e-01	0	43	0	308281344	22	4924
2026-01-15 10:26:21.53	76.04	19.34	-30.4	-33.3	19.0	6.05e-01	0	43	0	309854208	22	5002
2026-01-15 10:26:22.54	75.78	19.41	-30.5	-33.4	18.9	6.06e-01	0	43	0	311951360	22	5055
2026-01-15 10:26:23.54	75.52	19.47	-30.4	-33.2	19.0	6.05e-01	0	43	0	314048512	22	4963
2026-01-15 10:26:24.55	75.26	19.54	-30.5	-33.5	18.9	6.05e-01	0	43	0	315621376	22	5087
2026-01-15 10:26:25.56	75.00	19.60	-30.4	-33.3	19.0	6.05e-01	0	43	0	317718528	22	5025
2026-01-15 10:26:26.56	74.74	19.66	-30.2	-32.7	19.4	6.08e-01	0	43	0	319291392	22	4787
2026-01-15 10:26:27.56	74.48	19.73	-30.2	-32.7	19.4	6.02e-01	0	43	0	321388544	22	4789
2026-01-15 10:26:28.57	74.21	19.79	-30.3	-32.8	19.3	6.07e-01	0	43	0	323485696	22	4844
2026-01-15 10:26:29.57	73.95	19.85	-30.3	-33.0	19.2	6.06e-01	0	43	0	325058560	22	4883
2026-01-15 10:26:30.57	73.68	19.91	-30.3	-32.9	19.3	6.06e-01	0	43	0	327155712	22	4856
2026-01-15 10:26:31.57	73.41	19.97	-30.5	-42.8	3.8	7.43e-01	0	43	104	328204288	22	14821
2026-01-15 10:26:32.58	73.14	20.03	-30.7	-43.2	3.8	7.46e-01	0	43	104	328204288	22	15220
2026-01-15 10:26:33.58	72.88	20.09	-30.8	-43.5	3.8	7.43e-01	0	43	104	328204288	22	15492
2026-01-15 10:26:34.59	72.60	20.15	-31.2	-44.2	3.8	7.46e-01	0	43	104	328204288	23	16071
2026-01-15 10:26:35.59	72.33	20.21	-31.5	-45.0	3.8	7.42e-01	0	43	104	328204288	23	16971
2026-01-15 10:26:36.59	72.06	20.27	-31.8	-45.4	3.8	7.45e-01	0	43	104	328204288	24	17217
2026-01-15 10:26:37.59	71.79	20.33	-31.9	-45.7	3.8	7.45e-01	0	43	104	328204288	24	17626
2026-01-15 10:26:38.59	71.51	20.39	-31.9	-45.6	3.8	7.44e-01	0	43	104	328204288	24	17438
2026-01-15 10:26:39.59	71.24	20.44	-31.9	-45.8	3.8	7.48e-01	0	43	104	328204288	24	17722
2026-01-15 10:26:40.59	70.96	20.50	-32.0	-46.1	3.8	7.44e-01	0	43	104	328204288	24	18149
2026-01-15 10:26:41.60	70.68	20.56	-32.2	-46.0	3.8	7.48e-01	0	43	104	328204288	25	17626
2026-01-15 10:26:42.60	70.40	20.61	-32.1	-45.9	3.8	7.44e-01	0	43	104	328204288	25	17636
2026-01-15 10:26:43.60	70.12	20.67	-32.2	-46.3	3.8	7.46e-01	0	43	104	328204288	25	18158
2026-01-15 10:26:44.61	69.84	20.72	-32.6	-47.3	3.8	7.48e-01	0	43	104	328204288	26	19509
2026-01-15 10:26:45.61	69.56	20.77	-33.0	-48.3	3.8	7.46e-01	0	43	104	328204288	26	21078
2026-01-15 10:26:46.62	69.27	20.83	-33.2	-48.8	3.9	7.41e-01	0	43	104	328204288	27	21555
2026-01-15 10:26:47.62	68.99	20.88	-33.5	-49.8	3.8	7.46e-01	0	43	104	328204288	27	23603
2026-01-15 10:26:48.62	68.70	20.93	-33.6	-50.1	3.8	7.43e-01	0	43	104	328204288	28	24082
2026-01-15 10:26:49.63	68.41	20.98	-33.6	-50.3	3.8	7.44e-01	0	43	104	328204288	28	24651
2026-01-15 10:26:50.63	68.13	21.03	-33.6	-50.1	3.8	7.43e-01	0	43	104	328204288	28	24097
2026-01-15 10:26:51.63	67.84	21.08	-33.5	-49.8	3.8	7.45e-01	0	43	104	328204288	28	23364
2026-01-15 10:26:52.63	67.55	21.13	-33.5	-49.7	3.8	7.45e-01	0	43	104	328204288	28	23137
2026-01-15 10:26:53.63	67.26	21.18	-33.5	-49.6	3.8	7.46e-01	0	43	104	328204288	28	22986
2026-01-15 10:26:54.63	66.97	21.23	-33.5	-49.6	3.8	7.45e-01	0	43	104	328204288	28	22902
2026-01-15 10:26:55.64	66.67	21.28	-33.6	-49.8	3.8	7.45e-01	0	43	104	328204288	28	23249
2026-01-15 10:26:56.64	66.38	21.32	-33.5	-49.5	3.8	7.46e-01	0	43	104	328204288	28	22656
2026-01-15 10:26:57.65	66.09	21.37	-33.4	-48.9	3.8	7.43e-01	0	43	104	328204288	28	21513
2026-01-15 10:26:58.66	65.79	21.42	-33.2	-48.1	3.8	7.46e-01	0	43	104	328204288	28	20109
2026-01-15 10:26:59.66	65.49	21.46	-33.0	-47.3	3.8	7.43e-01	0	43	104	328204288	28	18772
2026-01-15 10:27:00.66	65.20	21.50	-32.8	-46.9	3.8	7.44e-01	0	43	104	328204288	27	18295
2026-01-15 10:27:01.66	64.90	21.55	-32.5	-46.0	3.8	7.48e-01	0	43	104	328204288	27	17038
2026-01-15 10:27:02.67	64.60	21.59	-32.6	-46.2	3.8	7.46e-01	0	43	104	328204288	27	17228
2026-01-15 10:27:03.67	64.30	21.63	-32.8	-47.0	3.8	7.44e-01	0	43	104	328204288	27	18420
2026-01-15 10:27:04.68	64.00	21.67	-33.1	-47.8	3.8	7.46e-01	0	43	104	328204288	27	19685
2026-01-15 10:27:05.69	63.69	21.71	-33.4	-49.0	3.8	7.43e-01	0	43	104	328204288	27	21747
2026-01-15 10:27:06.69	63.39	21.75	-33.2	-48.6	3.8	7.45e-01	0	43	104	328204288	27	21051
2026-01-15 10:27:07.70	63.09	21.79	-33.0	-47.6	3.8	7.46e-01	0	43	104	328204288	27	19274
2026-01-15 10:27:08.71	62.78	21.83	-32.7	-46.7	3.8	7.46e-01	0	43	104	328204288	27	17885
2026-01-15 10:27:09.71	62.48	21.87	-32.5	-45.8	3.8	7.46e-01	0	43	104	328204288	27	16682
2026-01-15 10:27:10.72	62.17	21.91	-32.3	-45.8	3.8	7.47e-01	0	43	104	328204288	26	16912
2026-01-15 10:27:11.73	61.86	21.94	-32.2	-45.3	3.8	7.45e-01	0	43	104	328204288	26	16390
2026-01-15 10:27:12.73	61.56	21.98	-32.1	-45.1	3.8	7.42e-01	0	43	104	328204288	26	16095
2026-01-15 10:27:13.73	61.25	22.01	-32.1	-45.1	3.8	7.46e-01	0	43	104	328204288	26	16090
2026-01-15 10:27:14.73	60.94	22.04	-31.8	-44.7	3.8	7.47e-01	0	43	104	328204288	25	15841
2026-01-15 10:27:15.74	60.63	22.08	-31.5	-44.0	3.8	7.42e-01	0	43	104	328204288	25	15050
2026-01-15 10:27:16.74	60.32	22.11	-31.3	-43.7	3.8	7.48e-01	0	43	104	328204288	24	15140
2026-01-15 10:27:17.74	60.01	22.14	-31.0	-43.0	3.8	7.43e-01	0	43	104	328204288	24	14283
2026-01-15 10:27:18.74	59.70	22.17	-30.9	-43.0	3.8	7.39e-01	0	43	104	328204288	23	14641
2026-01-15 10:27:19.75	59.39	22.20	-30.7	-42.6	3.8	7.44e-01	0	43	104	328204288	23	14216
2026-01-15 10:27:20.75	59.08	22.23	-30.7	-42.6	3.8	7.44e-01	0	43	104	328204288	23	14214
2026-01-15 10:27:21.76	58.76	22.26	-30.7	-42.7	3.8	7.49e-01	0	43	104	328204288	23	14352
2026-01-15 10:27:22.77	58.45	22.28	-30.8	-42.9	3.8	7.44e-01	0	43	104	328204288	23	14561
2026-01-15 10:27:23.78	58.13	22.31	-31.0	-43.4	3.8	7.46e-01	0	43	104	328204288	23	14986
2026-01-15 10:27:24.78	57.82	22.33	-31.2	-43.9	3.8	7.48e-01	0	43	104	328204288	23	15590
2026-01-15 10:27:25.79	57.50	22.36	-31.5	-44.8	3.8	7.44e-01	0	43	104	328204288	23	16697
2026-01-15 10:27:26.79	57.18	22.38	-31.8	-45.3	3.8	7.44e-01	0	43	104	328204288	24	17028
2026-01-15 10:27:27.79	56.87	22.40	-32.0	-45.9	3.8	7.42e-01	0	43	104	328204288	24	17891
2026-01-15 10:27:28.79	56.55	22.43	-32.1	-45.9	3.8	7.45e-01	0	43	104	328204288	24	17750
2026-01-15 10:27:29.79	56.24	22.45	-32.1	-45.7	3.8	7.46e-01	0	43	104	328204288	25	17053
2026-01-15 10:27:30.79	55.92	22.47	-32.1	-45.5	3.8	7.44e-01	0	43	104	328204288	25	16969
2026-01-15 10:27:31.80	55.60	22.49	-32.0	-45.3	3.8	7.46e-01	0	43	104	328204288	25	16673
2026-01-15 10:27:32.80	55.29	22.50	-32.0	-45.3	3.8	7.43e-01	0	43	104	328204288	25	16740
2026-01-15 10:27:33.81	54.96	22.52	-32.3	-46.2	3.8	7.44e-01	0	43	104	328204288	25	17926
2026-01-15 10:27:34.81	54.65	22.54	-32.6	-46.7	3.8	7.43e-01	0	43	104	328204288	26	18295
2026-01-15 10:27:35.81	54.33	22.55	-33.0	-47.9	3.8	7.46e-01	0	43	104	328204288	26	20148
2026-01-15 10:27:36.81	54.01	22.57	-33.3	-48.7	3.8	7.44e-01	0	43	104	328204288	27	21327
2026-01-15 10:27:37.81	53.69	22.58	-33.6	-49.8	3.8	7.43e-01	0	43	104	328204288	27	23471
2026-01-15 10:27:38.83	53.37	22.59	-33.7	-50.1	3.8	7.47e-01	0	43	104	328204288	28	23846
2026-01-15 10:27:39.83	53.05	22.61	-33.7	-50.1	3.8	7.44e-01	0	43	104	328204288	28	23877
2026-01-15 10:27:40.84	52.72	22.62	-33.7	-50.1	3.8	7.43e-01	0	43	104	328204288	28	23769
2026-01-15 10:27:41.84	52.40	22.63	-33.6	-50.0	3.8	7.45e-01	0	43	104	328204288	28	23639
2026-01-15 10:27:42.85	52.08	22.64	-33.6	-50.0	3.8	7.46e-01	0	43	104	328204288	28	23586
2026-01-15 10:27:43.85	51.76	22.64	-33.7	-50.0	3.8	7.44e-01	0	43	104	328204288	28	23747
2026-01-15 10:27:44.85	51.44	22.65	-33.7	-50.0	3.8	7.44e-01	0	43	104	328204288	28	23646
2026-01-15 10:27:45.85	51.12	22.66	-33.7	-50.2	3.8	7.44e-01	0	43	104	328204288	28	24011
2026-01-15 10:27:46.85	50.80	22.66	-33.6	-49.9	3.8	7.45e-01	0	43	104	328204288	28	23448
2026-01-15 10:27:47.86	50.48	22.67	-33.6	-50.1	3.8	7.49e-01	0	43	104	328204288	28	23915
2026-01-15 10:27:48.85	50.16	22.67	-33.6	-49.7	3.8	7.42e-01	0	43	104	328204288	28	23086
2026-01-15 10:27:49.85	49.84	22.67	-33.6	-49.7	3.8	7.41e-01	0	43	104	328204288	28	23066
2026-01-15 10:27:50.86	49.51	22.67	-33.4	-48.8	3.8	7.45e-01	0	43	104	328204288	28	21148
2026-01-15 10:27:51.86	49.19	22.67	-33.3	-48.6	3.8	7.42e-01	0	43	104	328204288	28	20844
2026-01-15 10:27:52.86	48.87	22.67	-33.5	-49.4	3.8	7.40e-01	0	43	104	328204288	28	22406
2026-01-15 10:27:53.87	48.55	22.67	-33.6	-50.0	3.8	7.42e-01	0	43	104	328204288	28	23785
2026-01-15 10:27:54.86	48.23	22.67	-33.6	-49.6	3.8	7.44e-01	0	43	104	328204288	28	22954
2026-01-15 10:27:55.86	47.91	22.67	-33.1	-47.5	3.8	7.47e-01	0	43	104	328204288	28	19042
2026-01-15 10:27:56.86	47.59	22.66	-32.9	-46.9	3.8	7.44e-01	0	43	104	328204288	28	18009
2026-01-15 10:27:57.85	47.27	22.66	-32.7	-46.5	3.8	7.44e-01	0	43	104	328204288	27	17645
2026-01-15 10:27:58.86	46.95	22.65	-32.4	-45.6	3.8	7.43e-01	0	43	104	328204288	27	16465
2026-01-15 10:27:59.86	46.63	22.65	-32.1	-45.2	3.8	7.43e-01	0	43	104	328204288	26	16243
2026-01-15 10:28:00.86	46.31	22.64	-31.9	-44.8	3.8	7.47e-01	0	43	104	328204288	25	16000
2026-01-15 10:28:01.86	45.99	22.63	-31.6	-44.2	3.8	7.46e-01	0	43	104	328204288	25	15298
2026-01-15 10:28:02.87	45.66	22.62	-31.5	-43.8	3.8	7.46e-01	0	43	104	328204288	25	14756
2026-01-15 10:28:03.87	45.34	22.61	-31.5	-43.8	3.8	7.45e-01	0	43	104	328204288	25	14890
2026-01-15 10:28:04.88	45.02	22.60	-31.3	-43.8	3.8	7.45e-01	0	43	104	328204288	24	15179
2026-01-15 10:28:05.89	44.70	22.59	-31.0	-43.0	3.8	7.46e-01	0	43	104	328204288	24	14310
2026-01-15 10:28:06.88	44.38	22.57	-30.9	-42.6	3.8	7.45e-01	0	43	104	328204288	24	13904
2026-01-15 10:28:07.89	44.06	22.56	-30.8	-43.0	3.8	7.45e-01	0	43	104	328204288	23	14657
2026-01-15 10:28:08.89	43.74	22.54	-30.7	-42.6	3.8	7.44e-01	0	43	104	328204288	23	14224
2026-01-15 10:28:09.90	43.42	22.53	-30.6	-42.5	3.8	7.46e-01	0	43	104	328204288	23	14134
2026-01-15 10:28:10.90	43.11	22.51	-30.7	-42.6	3.8	7.43e-01	0	43	104	328204288	23	14237
2026-01-15 10:28:11.89	42.79	22.49	-30.7	-42.7	3.8	7.43e-01	0	43	104	328204288	23	14370
2026-01-15 10:28:12.90	42.47	22.48	-30.8	-42.9	3.8	7.46e-01	0	43	104	328204288	23	14572
2026-01-15 10:28:13.91	42.15	22.46	-31.0	-43.4	3.8	7.44e-01	0	43	104	328204288	23	15081
2026-01-15 10:28:14.91	41.84	22.44	-31.2	-44.0	3.8	7.47e-01	0	43	104	328204288	23	15752
2026-01-15 10:28:15.92	41.52	22.41	-31.5	-45.0	3.8	7.46e-01	0	43	104	328204288	23	16909
2026-01-15 10:28:16.93	41.20	22.39	-31.9	-45.4	3.8	7.44e-01	0	43	104	328204288	24	17177
2026-01-15 10:28:17.93	40.89	22.37	-32.0	-45.8	3.8	7.44e-01	0	43	104	328204288	24	17693
2026-01-15 10:28:18.93	40.57	22.35	-32.0	-45.8	3.8	7.45e-01	0	43	104	328204288	24	17779
2026-01-15 10:28:19.94	40.26	22.32	-31.9	-45.7	3.8	7.45e-01	0	43	104	328204288	24	17561
2026-01-15 10:28:20.94	39.94	22.29	-31.9	-45.7	3.8	7.46e-01	0	43	104	328204288	24	17455
2026-01-15 10:28:21.95	39.63	22.27	-32.0	-45.8	3.8	7.47e-01	0	43	104	328204288	24	17719
2026-01-15 10:28:22.95	39.32	22.24	-32.2	-46.0	3.8	7.48e-01	0	43	104	328204288	25	17696
2026-01-15 10:28:23.96	39.00	22.21	-32.5	-47.1	3.8	7.45e-01	0	43	104	328204288	25	19203
2026-01-15 10:28:24.96	38.69	22.18	-32.8	-47.7	3.8	7.46e-01	0	43	104	328204288	26	19817
2026-01-15 10:28:25.97	38.38	22.15	-33.1	-48.6	3.8	7.42e-01	0	43	104	328204288	26	21460
2026-01-15 10:28:26.97	38.07	22.12	-33.3	-49.0	3.8	7.44e-01	0	43	104	328204288	27	21918
2026-01-15 10:28:27.98	37.76	22.09	-33.4	-49.5	3.8	7.46e-01	0	43	104	328204288	27	22931
2026-01-15 10:28:28.98	37.45	22.06	-33.6	-50.3	3.8	7.45e-01	0	43	104	328204288	27	24519
2026-01-15 10:28:29.98	37.14	22.03	-33.6	-49.8	3.8	7.45e-01	0	43	104	328204288	28	23399
2026-01-15 10:28:30.98	36.84	21.99	-33.6	-50.0	3.8	7.43e-01	0	43	104	328204288	28	23874
2026-01-15 10:28:31.99	36.53	21.96	-33.6	-50.1	3.8	7.46e-01	0	43	104	328204288	28	23940
2026-01-15 10:28:32.99	36.22	21.92	-33.7	-50.2	3.8	7.45e-01	0	43	104	328204288	28	24136
2026-01-15 10:28:34.00	35.92	21.89	-33.6	-50.2	3.8	7.42e-01	0	43	104	328204288	28	24276
2026-01-15 10:28:35.00	35.61	21.85	-33.6	-50.2	3.8	7.44e-01	0	43	104	328204288	28	24308
2026-01-15 10:28:36.00	35.31	21.81	-33.7	-50.3	3.8	7.43e-01	0	43	104	328204288	28	24491
2026-01-15 10:28:37.01	35.00	21.77	-33.6	-50.3	3.8	7.45e-01	0	43	104	328204288	28	24635
2026-01-15 10:28:38.01	34.70	21.73	-33.7	-50.4	3.8	7.43e-01	0	43	104	328204288	28	24748
2026-01-15 10:28:39.01	34.40	21.69	-33.6	-50.3	3.8	7.41e-01	0	43	104	328204288	28	24511
2026-01-15 10:28:40.01	34.10	21.65	-33.6	-50.3	3.8	7.43e-01	0	43	104	328204288	28	24389
2026-01-15 10:28:41.02	33.80	21.61	-33.6	-50.3	3.8	7.45e-01	0	43	104	328204288	28	24373
2026-01-15 10:28:42.02	33.50	21.57	-33.6	-50.2	3.8	7.43e-01	0	43	104	328204288	28	24381
2026-01-15 10:28:43.02	33.21	21.53	-33.5	-49.5	3.8	7.43e-01	0	43	104	328204288	28	22741
2026-01-15 10:28:44.02	32.91	21.48	-33.2	-48.3	3.8	7.43e-01	0	43	104	328204288	28	20526
2026-01-15 10:28:45.03	32.61	21.44	-33.0	-47.4	3.8	7.45e-01	0	43	104	328204288	28	18972
2026-01-15 10:28:46.04	32.32	21.39	-32.8	-47.2	3.8	7.47e-01	0	43	104	328204288	27	18846
2026-01-15 10:28:47.04	32.02	21.35	-32.6	-46.3	3.8	7.43e-01	0	43	104	328204288	27	17413
2026-01-15 10:28:48.05	31.73	21.30	-32.4	-45.8	3.8	7.44e-01	0	43	104	328204288	27	16750
2026-01-15 10:28:49.05	31.44	21.25	-32.1	-45.3	3.8	7.44e-01	0	43	104	328204288	26	16296
2026-01-15 10:28:50.05	31.15	21.21	-31.8	-44.9	3.8	7.41e-01	0	43	104	328204288	25	16170
2026-01-15 10:28:51.05	30.86	21.16	-31.6	-44.2	3.8	7.46e-01	0	43	104	328204288	25	15321
2026-01-15 10:28:52.06	30.57	21.11	-31.4	-43.6	3.8	7.44e-01	0	43	104	328204288	25	14664
2026-01-15 10:28:53.06	30.28	21.06	-31.3	-43.9	3.8	7.44e-01	0	43	104	328204288	24	15276
2026-01-15 10:28:54.07	29.99	21.01	-31.1	-43.2	3.8	7.43e-01	0	43	104	328204288	24	14538
2026-01-15 10:28:55.08	29.70	20.96	-30.8	-43.0	3.8	7.43e-01	0	43	104	328204288	23	14728
2026-01-15 10:28:56.08	29.42	20.91	-30.6	-42.6	3.8	7.43e-01	0	43	104	328204288	23	14313
2026-01-15 10:28:57.08	29.13	20.85	-30.5	-42.2	3.8	7.45e-01	0	43	104	328204288	23	13869
2026-01-15 10:28:58.08	28.85	20.80	-30.4	-42.1	3.8	7.46e-01	0	43	104	328204288	23	13748
2026-01-15 10:28:59.08	28.57	20.75	-30.5	-42.1	3.8	7.46e-01	0	43	104	328204288	23	13711
2026-01-15 10:29:00.09	28.28	20.69	-30.6	-42.5	3.8	7.45e-01	0	43	104	328204288	23	14207
2026-01-15 10:29:01.10	28.00	20.64	-30.5	-42.1	3.8	7.45e-01	0	43	104	328204288	23	13792
2026-01-15 10:29:02.10	27.72	20.59	-30.4	-42.0	3.8	7.44e-01	0	43	104	328204288	23	13632
2026-01-15 10:29:03.11	27.44	20.53	-30.6	-42.4	3.8	7.47e-01	0	43	104	328204288	23	14037
2026-01-15 10:29:04.12	27.17	20.47	-30.8	-42.9	3.8	7.47e-01	0	43	104	328204288	23	14609
2026-01-15 10:29:05.12	26.89	20.42	-31.1	-43.9	3.8	7.44e-01	0	43	104	328204288	23	15687
2026-01-15 10:29:06.13	26.61	20.36	-31.3	-44.4	3.8	7.44e-01	0	43	104	328204288	23	16156
2026-01-15 10:29:07.13	26.34	20.30	-31.7	-45.0	3.8	7.44e-01	0	43	104	328204288	24	16678
2026-01-15 10:29:08.14	26.07	20.24	-31.8	-45.3	3.8	7.45e-01	0	43	104	328204288	24	17059
2026-01-15 10:29:09.14	25.80	20.18	-31.8	-45.4	3.8	7.43e-01	0	43	104	328204288	24	17221
2026-01-15 10:29:10.15	25.52	20.13	-31.9	-45.7	3.8	7.46e-01	0	43	104	328204288	24	17587
2026-01-15 10:29:11.16	25.25	20.07	-32.1	-45.7	3.8	7.46e-01	0	43	104	328204288	25	17305
2026-01-15 10:29:12.17	24.98	20.00	-32.5	-47.1	3.8	7.46e-01	0	43	104	328204288	25	19442
2026-01-15 10:29:13.17	24.72	19.94	-32.7	-47.4	3.8	7.46e-01	0	43	104	328204288	26	19445
2026-01-15 10:29:14.17	24.45	19.88	-32.9	-48.0	3.8	7.45e-01	0	43	104	328204288	26	20420
2026-01-15 10:29:15.18	24.18	19.82	-33.0	-48.4	3.8	7.45e-01	0	43	104	328204288	26	21270
2026-01-15 10:29:16.18	23.92	19.76	-33.2	-48.6	3.8	7.44e-01	0	43	104	328204288	27	21285
2026-01-15 10:29:17.18	23.66	19.70	-33.4	-49.5	3.8	7.47e-01	0	43	104	328204288	27	22934
2026-01-15 10:29:18.19	23.40	19.63	-33.5	-49.9	3.8	7.44e-01	0	43	104	328204288	27	23910
2026-01-15 10:29:19.19	23.14	19.57	-33.6	-50.4	3.8	7.44e-01	0	43	104	328204288	27	25051
2026-01-15 10:29:20.20	22.88	19.51	-33.5	-49.6	3.8	7.42e-01	0	43	104	328204288	28	23025
2026-01-15 10:29:21.20	22.62	19.44	-33.5	-49.8	3.8	7.48e-01	0	43	104	328204288	28	23435
2026-01-15 10:29:22.20	22.36	19.38	-33.5	-49.9	3.8	7.43e-01	0	43	104	328204288	28	23749
2026-01-15 10:29:23.20	22.11	19.31	-33.5	-49.9	3.8	7.45e-01	0	43	104	328204288	28	23683
2026-01-15 10:29:24.21	21.85	19.25	-33.5	-49.8	3.8	7.47e-01	0	43	104	328204288	28	23561
2026-01-15 10:29:25.22	21.60	19.18	-33.5	-49.8	3.8	7.45e-01	0	43	104	328204288	28	23615
2026-01-15 10:29:26.23	21.34	19.12	-33.5	-49.7	3.8	7.45e-01	0	43	104	328204288	28	23201
2026-01-15 10:29:27.23	21.09	19.05	-33.4	-49.3	3.8	7.42e-01	0	43	104	328204288	28	22560
2026-01-15 10:29:28.23	20.85	18.98	-33.3	-49.0	3.8	7.46e-01	0	43	104	328204288	28	21880
2026-01-15 10:29:29.24	20.60	18.92	-33.2	-48.6	3.8	7.47e-01	0	43	104	328204288	28	21140
2026-01-15 10:29:30.24	20.35	18.85	-33.1	-48.1	3.8	7.42e-01	0	43	104	328204288	28	20153
2026-01-15 10:29:31.25	20.10	18.78	-33.0	-47.5	3.8	7.47e-01	0	43	104	328204288	28	19130
2026-01-15 10:29:32.25	19.86	18.71	-32.9	-47.3	3.8	7.47e-01	0	43	104	328204288	27	19089
2026-01-15 10:29:33.25	19.61	18.65	-32.6	-46.5	3.8	7.43e-01	0	43	104	328204288	27	17784
2026-01-15 10:29:34.25	19.37	18.58	-32.4	-45.7	3.8	7.42e-01	0	43	104	328204288	27	16702
2026-01-15 10:29:35.26	19.13	18.51	-32.2	-45.5	3.8	7.45e-01	0	43	104	328204288	26	16812
2026-01-15 10:29:36.27	18.89	18.44	-32.0	-44.9	3.8	7.45e-01	0	43	104	328204288	26	16001
2026-01-15 10:29:37.26	18.65	18.37	-31.7	-44.7	3.8	7.45e-01	0	43	104	328204288	25	15945
2026-01-15 10:29:38.27	18.41	18.30	-31.5	-44.1	3.8	7.45e-01	0	43	104	328204288	25	15256
2026-01-15 10:29:39.28	18.17	18.23	-31.2	-43.6	3.8	7.45e-01	0	43	104	328204288	24	15005
2026-01-15 10:29:40.29	17.94	18.16	-30.9	-42.9	3.8	7.43e-01	0	43	104	328204288	24	14305
2026-01-15 10:29:41.29	17.70	18.09	-30.7	-42.8	3.8	7.43e-01	0	43	104	328204288	23	14481
2026-01-15 10:29:42.30	17.47	18.02	-30.7	-42.7	3.8	7.43e-01	0	43	104	328204288	23	14461
2026-01-15 10:29:43.30	17.24	17.95	-30.6	-42.5	3.8	7.46e-01	0	43	104	328204288	23	14173
2026-01-15 10:29:44.31	17.00	17.87	-30.7	-42.7	3.8	7.45e-01	0	43	104	328204288	23	14411
2026-01-15 10:29:45.31	16.77	17.80	-30.4	-42.1	3.8	7.47e-01	0	43	104	328204288	23	13813
2026-01-15 10:29:46.31	16.55	17.73	-30.2	-42.1	3.8	7.44e-01	0	43	104	328204288	22	14139
2026-01-15 10:29:47.32	16.32	17.66	-30.2	-42.2	3.8	7.48e-01	0	43	104	328204288	22	14249
2026-01-15 10:29:48.32	16.09	17.59	-30.2	-42.1	3.8	7.45e-01	0	43	104	328204288	22	14147
2026-01-15 10:29:49.32	15.87	17.52	-30.3	-42.2	3.8	7.43e-01	0	43	104	328204288	22	14250
2026-01-15 10:29:50.32	15.64	17.44	-30.4	-42.6	3.8	7.48e-01	0	43	104	328204288	22	14678
2026-01-15 10:29:51.33	15.42	17.37	-30.6	-42.9	3.8	7.41e-01	0	43	104	328204288	22	14897
2026-01-15 10:29:52.33	15.20	17.30	-30.3	-42.2	3.8	7.43e-01	0	43	104	328204288	22	14177
2026-01-15 10:29:53.33	14.98	17.22	-30.4	-42.4	3.8	7.44e-01	0	43	104	328204288	22	14415
2026-01-15 10:29:54.34	14.76	17.15	-30.7	-43.4	3.8	7.45e-01	0	43	104	328204288	22	15522
2026-01-15 10:29:55.34	14.54	17.08	-30.9	-44.1	3.8	7.47e-01	0	43	104	328204288	22	16359
2026-01-15 10:29:56.35	14.32	17.00	-31.2	-44.2	3.8	7.47e-01	0	43	104	328204288	23	16081
2026-01-15 10:29:57.35	14.11	16.93	-31.5	-45.0	3.8	7.48e-01	0	43	104	328204288	23	17043
2026-01-15 10:29:58.35	13.89	16.86	-31.6	-44.9	3.8	7.46e-01	0	43	104	328204288	24	16550
2026-01-15 10:29:59.35	13.68	16.78	-31.8	-45.5	3.8	7.46e-01	0	43	104	328204288	24	17415
2026-01-15 10:30:00.36	13.47	16.71	-32.0	-46.2	3.8	7.47e-01	0	43	104	328204288	24	18537
2026-01-15 10:30:01.36	13.25	16.63	-32.3	-46.6	3.8	7.46e-01	0	43	104	328204288	25	18714
2026-01-15 10:30:02.37	13.04	16.56	-32.5	-47.3	3.8	7.46e-01	0	43	104	328204288	25	19789
2026-01-15 10:30:03.37	12.83	16.48	-32.8	-47.6	3.8	7.40e-01	0	43	104	328204288	26	19889
2026-01-15 10:30:04.37	12.63	16.41	-32.9	-48.4	3.8	7.44e-01	0	43	104	328204288	26	21333
2026-01-15 10:30:05.38	12.42	16.34	-33.0	-48.9	3.8	7.49e-01	0	43	104	328204288	26	22264
2026-01-15 10:30:06.39	12.21	16.26	-33.2	-49.0	3.8	7.46e-01	0	43	104	328204288	27	22285
2026-01-15 10:30:07.39	12.01	16.18	-33.3	-49.5	3.8	7.48e-01	0	43	104	328204288	27	23253
2026-01-15 10:30:08.40	11.80	16.11	-33.4	-49.9	3.8	7.48e-01	0	43	104	328204288	27	24031
2026-01-15 10:30:09.41	11.60	16.03	-33.5	-50.4	3.8	7.46e-01	0	43	104	328204288	27	25122
2026-01-15 10:30:10.41	11.40	15.96	-33.5	-50.6	3.8	7.44e-01	0	43	104	328204288	27	25585
2026-01-15 10:30:11.42	11.20	15.88	-33.5	-50.6	3.8	7.41e-01	0	43	104	328204288	27	25601
2026-01-15 10:30:12.42	11.00	15.81	-33.5	-50.3	3.8	7.44e-01	0	43	104	328204288	27	24972
2026-01-15 10:30:13.42	10.80	15.73	-33.5	-50.3	3.8	7.50e-01	0	43	104	328204288	27	25007
2026-01-15 10:30:14.43	10.60	15.66	-33.5	-50.3	3.8	7.45e-01	0	43	104	328204288	27	24983
2026-01-15 10:30:15.42	10.41	15.58	-33.5	-50.3	3.8	7.44e-01	0	43	104	328204288	27	24991
2026-01-15 10:30:16.42	10.22	15.51	-33.4	-50.1	3.8	7.43e-01	0	43	104	328204288	27	24659
2026-01-15 10:30:17.42	10.02	15.43	-33.3	-49.5	3.8	7.47e-01	0	43	104	328204288	27	23306
2026-01-15 10:30:18.43	9.83	15.35	-33.1	-48.8	3.8	7.43e-01	0	43	104	328204288	27	21770
2026-01-15 10:30:19.43	9.64	15.28	-33.0	-48.1	3.8	7.45e-01	0	43	104	328204288	27	20554
2026-01-15 10:30:20.44	9.44	15.20	-32.8	-47.4	3.8	7.45e-01	0	43	104	328204288	27	19342
2026-01-15 10:30:21.44	9.26	15.13	-32.6	-46.7	3.8	7.42e-01	0	43	104	328204288	27	18231
2026-01-15 10:30:22.45	9.07	15.05	-32.4	-46.2	3.8	7.44e-01	0	43	104	328204288	26	17609
2026-01-15 10:30:23.45	8.88	14.97	-32.1	-45.6	3.8	7.45e-01	0	43	104	328204288	26	16951
2026-01-15 10:30:24.46	8.69	14.90	-31.9	-44.9	3.8	7.44e-01	0	43	104	328204288	26	16028
2026-01-15 10:30:25.46	8.51	14.82	-31.7	-44.8	3.8	7.47e-01	0	43	104	328204288	25	16207
2026-01-15 10:30:26.47	8.32	14.75	-31.6	-44.3	3.8	7.44e-01	0	43	104	328204288	25	15623
2026-01-15 10:30:27.48	8.14	14.67	-31.4	-43.9	3.8	7.45e-01	0	43	104	328204288	25	15215
2026-01-15 10:30:28.48	7.95	14.59	-31.2	-44.0	3.8	7.46e-01	0	43	104	328204288	24	15604
2026-01-15 10:30:29.49	7.77	14.52	-30.9	-42.9	3.8	7.46e-01	0	43	104	328204288	24	14392
2026-01-15 10:30:30.48	7.59	14.44	-30.6	-42.6	3.8	7.45e-01	0	43	104	328204288	23	14427
2026-01-15 10:30:31.49	7.41	14.36	-30.4	-42.1	3.8	7.43e-01	0	43	104	328204288	23	13832
2026-01-15 10:30:32.49	7.24	14.29	-30.3	-42.3	3.8	7.43e-01	0	43	104	328204288	22	14442
2026-01-15 10:30:33.49	7.06	14.21	-30.2	-42.1	3.8	7.43e-01	0	43	104	328204288	22	14184
2026-01-15 10:30:34.50	6.88	14.14	-30.2	-42.1	3.8	7.46e-01	0	43	104	328204288	22	14152
2026-01-15 10:30:35.50	6.71	14.06	-30.2	-42.1	3.8	7.46e-01	0	43	104	328204288	22	14171
2026-01-15 10:30:36.50	6.53	13.98	-30.2	-42.1	3.8	7.43e-01	0	43	104	328204288	22	14182
2026-01-15 10:30:37.51	6.36	13.91	-30.2	-42.3	3.8	7.45e-01	0	43	104	328204288	22	14401
2026-01-15 10:30:38.51	6.19	13.83	-30.3	-42.5	3.8	7.45e-01	0	43	104	328204288	22	14708
2026-01-15 10:30:39.51	6.02	13.76	-30.4	-42.6	3.8	7.45e-01	0	43	104	328204288	22	14717
2026-01-15 10:30:40.52	5.84	13.68	-30.6	-43.3	3.8	7.44e-01	0	43	104	328204288	22	15534
2026-01-15 10:30:41.53	5.67	13.60	-30.7	-43.3	3.8	7.43e-01	0	43	104	328204288	22	15393
2026-01-15 10:30:42.53	5.51	13.53	-30.7	-43.4	3.8	7.46e-01	0	43	104	328204288	22	15648
2026-01-15 10:30:43.53	5.34	13.45	-30.9	-43.9	3.8	7.46e-01	0	43	104	328204288	22	16061
2026-01-15 10:30:44.53	5.17	13.38	-31.4	-45.1	3.8	7.46e-01	0	43	104	328204288	23	17395
2026-01-15 10:30:45.54	5.01	13.30	-31.4	-44.8	3.8	7.43e-01	0	43	104	328204288	23	16913
2026-01-15 10:30:46.54	4.84	13.22	-31.8	-45.9	3.8	7.44e-01	0	43	104	328204288	24	18078
2026-01-15 10:30:47.55	4.68	13.15	-32.2	-46.6	3.8	7.43e-01	0	43	104	328204288	25	18758
2026-01-15 10:30:48.55	4.51	13.07	-32.1	-46.3	3.8	7.44e-01	0	43	104	328204288	25	18432
2026-01-15 10:30:49.56	4.35	13.00	-32.4	-47.1	3.8	7.42e-01	0	43	104	328204288	25	19619
2026-01-15 10:30:50.56	4.19	12.92	-32.8	-48.1	3.8	7.48e-01	0	43	104	328204288	26	21094
2026-01-15 10:30:51.56	4.03	12.85	-32.8	-48.3	3.8	7.43e-01	0	43	104	328204288	26	21380
2026-01-15 10:30:52.56	3.87	12.77	-33.2	-49.5	3.8	7.45e-01	0	43	104	328204288	27	23503
2026-01-15 10:30:53.57	3.71	12.69	-33.2	-49.4	3.8	7.45e-01	0	43	104	328204288	27	23203
2026-01-15 10:30:54.57	3.56	12.62	-33.2	-49.3	3.8	7.46e-01	0	43	104	328204288	27	23159
2026-01-15 10:30:55.58	3.40	12.54	-33.3	-49.9	3.8	7.42e-01	0	43	104	328204288	27	24504
2026-01-15 10:30:56.58	3.24	12.47	-33.3	-50.0	3.8	7.46e-01	0	43	104	328204288	27	24528
2026-01-15 10:30:57.58	3.09	12.39	-33.4	-50.3	3.8	7.45e-01	0	43	104	328204288	27	25368
2026-01-15 10:30:58.59	2.93	12.32	-33.4	-50.5	3.8	7.44e-01	0	43	104	328204288	27	25837
2026-01-15 10:30:59.60	2.78	12.24	-33.4	-50.7	3.8	7.45e-01	0	43	104	328204288	27	26295
2026-01-15 10:31:00.60	2.63	12.17	-33.4	-50.7	3.8	7.44e-01	0	43	104	328204288	27	26360
2026-01-15 10:31:01.61	2.47	12.09	-33.5	-51.0	3.8	7.46e-01	0	43	104	328204288	27	26971
2026-01-15 10:31:02.62	2.32	12.01	-33.4	-50.8	3.8	7.46e-01	0	43	104	328204288	27	26698
2026-01-15 10:31:03.62	2.17	11.94	-33.3	-50.4	3.8	7.44e-01	0	43	104	328204288	27	25673
2026-01-15 10:31:04.63	2.02	11.87	-33.3	-50.4	3.8	7.44e-01	0	43	104	328204288	27	25636
2026-01-15 10:31:05.63	1.88	11.79	-33.3	-50.1	3.8	7.46e-01	0	43	104	328204288	27	25015
2026-01-15 10:31:06.63	1.73	11.72	-33.3	-49.9	3.8	7.44e-01	0	43	104	328204288	27	24598
2026-01-15 10:31:07.63	1.58	11.64	-33.1	-49.1	3.8	7.44e-01	0	43	104	328204288	27	22724
2026-01-15 10:31:08.63	1.44	11.57	-32.9	-48.4	3.8	7.44e-01	0	43	104	328204288	27	21295
2026-01-15 10:31:09.63	1.29	11.49	-32.7	-47.5	3.8	7.44e-01	0	43	104	328204288	27	19708
2026-01-15 10:31:10.64	1.15	11.42	-32.5	-46.6	3.8	7.44e-01	0	43	104	328204288	27	18337
2026-01-15 10:31:11.65	1.00	11.34	-32.2	-46.3	3.8	7.45e-01	0	43	104	328204288	26	18220
2026-01-15 10:31:12.66	0.86	11.27	-32.0	-45.5	3.8	7.43e-01	0	43	104	328204288	26	16989
2026-01-15 10:31:13.66	0.72	11.20	-31.8	-45.5	3.8	7.45e-01	0	43	104	328204288	25	17364
2026-01-15 10:31:14.66	0.58	11.12	-31.6	-44.7	3.8	7.43e-01	0	43	104	328204288	25	16209
2026-01-15 10:31:15.66	0.44	11.05	-31.5	-44.2	3.8	7.42e-01	0	43	104	328204288	25	15622
2026-01-15 10:31:16.67	0.30	10.97	-31.3	-44.3	3.8	7.45e-01	0	43	104	328204288	24	16106
2026-01-15 10:31:17.68	0.16	10.90	-31.3	-44.1	3.8	7.43e-01	0	43	104	328204288	24	15831
2026-01-15 10:31:18.68	0.02	10.83	-31.1	-43.7	3.8	7.46e-01	0	43	104	328204288	24	15375
2026-01-15 10:31:19.69	359.88	10.75	-30.9	-43.0	3.8	7.43e-01	0	43	104	328204288	24	14572
2026-01-15 10:31:20.70	359.75	10.68	-30.7	-43.2	3.8	7.44e-01	0	43	104	328204288	23	15149
2026-01-15 10:31:21.70	359.61	10.60	-30.5	-42.6	3.8	7.48e-01	0	43	104	328204288	23	14449
2026-01-15 10:31:22.71	359.48	10.53	-30.4	-42.5	3.8	7.43e-01	0	43	104	328204288	23	14425
2026-01-15 10:31:23.70	359.34	10.46	-30.4	-42.4	3.8	7.45e-01	0	43	104	328204288	23	14269
2026-01-15 10:31:24.71	359.21	10.38	-30.5	-42.5	3.8	7.43e-01	0	43	104	328204288	23	14382
2026-01-15 10:31:25.71	359.08	10.31	-30.5	-42.6	3.8	7.46e-01	0	43	104	328204288	23	14444
2026-01-15 10:31:26.72	358.95	10.24	-30.6	-42.7	3.8	7.44e-01	0	43	104	328204288	23	14488
2026-01-15 10:31:27.72	358.81	10.17	-30.8	-43.3	3.8	7.45e-01	0	43	104	328204288	23	15148
2026-01-15 10:31:28.72	358.69	10.09	-30.9	-43.8	3.8	7.44e-01	0	43	104	328204288	23	15786
2026-01-15 10:31:29.72	358.56	10.02	-31.2	-44.5	3.8	7.45e-01	0	43	104	328204288	23	16626
2026-01-15 10:31:30.73	358.43	9.95	-31.5	-45.6	3.8	7.46e-01	0	43	104	328204288	23	18198
2026-01-15 10:31:31.73	358.30	9.88	-31.6	-45.4	3.8	7.45e-01	0	43	104	328204288	24	17511
2026-01-15 10:31:32.74	358.17	9.80	-31.7	-45.5	3.8	7.44e-01	0	43	104	328204288	24	17717
2026-01-15 10:31:33.74	358.04	9.73	-31.8	-45.9	3.8	7.45e-01	0	43	104	328204288	24	18279
2026-01-15 10:31:34.74	357.92	9.66	-31.9	-46.3	3.8	7.47e-01	0	43	104	328204288	24	18740
2026-01-15 10:31:35.75	357.79	9.59	-32.1	-47.0	3.8	7.45e-01	0	43	104	328204288	24	19919
2026-01-15 10:31:36.75	357.67	9.52	-32.3	-47.0	3.8	7.47e-01	0	43	104	328204288	25	19699
2026-01-15 10:31:37.76	357.54	9.44	-32.5	-47.9	3.8	7.46e-01	0	43	104	328204288	25	21258
2026-01-15 10:31:38.77	357.42	9.37	-32.7	-48.4	3.8	7.46e-01	0	43	104	328204288	26	21896
2026-01-15 10:31:39.77	357.30	9.30	-32.9	-48.9	3.8	7.44e-01	0	43	104	328204288	26	22865
2026-01-15 10:31:40.78	357.17	9.23	-33.0	-49.5	3.8	7.44e-01	0	43	104	328204288	26	24190
2026-01-15 10:31:41.78	357.05	9.16	-33.1	-50.0	3.8	7.43e-01	0	43	104	328204288	26	25370
2026-01-15 10:31:42.78	356.93	9.09	-33.0	-49.7	3.8	7.45e-01	0	43	104	328204288	26	24593
2026-01-15 10:31:43.79	356.81	9.01	-33.0	-49.9	3.8	7.45e-01	0	43	104	328204288	26	25118
2026-01-15 10:31:44.79	356.69	8.94	-33.1	-50.1	3.8	7.42e-01	0	43	104	328204288	26	25597
2026-01-15 10:31:45.79	356.57	8.87	-33.1	-49.9	3.8	7.47e-01	0	43	104	328204288	27	24856
2026-01-15 10:31:46.79	356.46	8.80	-33.2	-50.2	3.8	7.45e-01	0	43	104	328204288	27	25591
2026-01-15 10:31:47.80	356.34	8.73	-33.2	-50.5	3.8	7.45e-01	0	43	104	328204288	27	26298
2026-01-15 10:31:48.80	356.22	8.66	-33.2	-50.8	3.8	7.45e-01	0	43	104	328204288	27	27093
2026-01-15 10:31:49.80	356.11	8.59	-33.3	-51.0	3.8	7.43e-01	0	43	104	328204288	27	27757
2026-01-15 10:31:50.80	355.99	8.52	-33.2	-50.7	3.8	7.46e-01	0	43	104	328204288	27	26940
2026-01-15 10:31:51.81	355.88	8.45	-33.2	-50.6	3.8	7.44e-01	0	43	104	328204288	27	26641
2026-01-15 10:31:52.81	355.76	8.38	-33.2	-50.4	3.8	7.43e-01	0	44	104	328204288	27	26160
2026-01-15 10:31:53.81	355.65	8.31	-33.2	-50.3	3.8	7.44e-01	0	43	104	328204288	27	26039
2026-01-15 10:31:54.81	355.54	8.24	-33.1	-50.2	3.8	7.44e-01	0	43	104	328204288	27	25800
2026-01-15 10:31:55.82	355.42	8.17	-33.1	-50.1	3.8	7.44e-01	0	43	104	328204288	27	25513
2026-01-15 10:31:56.82	355.31	8.10	-33.0	-49.6	3.8	7.47e-01	0	43	104	328204288	27	24281
2026-01-15 10:31:57.82	355.20	8.03	-32.9	-48.9	3.8	7.47e-01	0	43	104	328204288	27	22836
2026-01-15 10:31:58.83	355.09	7.96	-32.7	-48.0	3.8	7.45e-01	0	43	104	328204288	27	21060
2026-01-15 10:31:59.83	354.98	7.89	-32.5	-47.1	3.8	7.45e-01	0	43	104	328204288	27	19342
2026-01-15 10:32:00.82	354.87	7.83	-32.3	-47.1	3.8	7.45e-01	0	43	104	328204288	26	19681
2026-01-15 10:32:01.83	354.76	7.76	-32.0	-45.9	3.8	7.46e-01	0	43	104	328204288	26	17832
2026-01-15 10:32:02.83	354.65	7.69	-31.9	-45.5	3.8	7.45e-01	0	43	104	328204288	26	17121
2026-01-15 10:32:03.83	354.55	7.62	-31.7	-45.4	3.8	7.45e-01	0	43	104	328204288	25	17359
2026-01-15 10:32:04.83	354.44	7.55	-31.6	-44.8	3.8	7.44e-01	0	43	104	328204288	25	16587
2026-01-15 10:32:05.83	354.33	7.48	-31.6	-45.0	3.8	7.42e-01	0	43	104	328204288	25	16705
2026-01-15 10:32:06.84	354.23	7.41	-31.6	-45.0	3.8	7.46e-01	0	43	104	328204288	25	16796
2026-01-15 10:32:07.84	354.12	7.34	-31.8	-45.5	3.8	7.42e-01	0	43	104	328204288	25	17519
2026-01-15 10:32:08.85	354.01	7.28	-31.4	-44.4	3.8	7.45e-01	0	43	104	328204288	25	16023
2026-01-15 10:32:09.86	353.91	7.21	-31.3	-44.7	3.8	7.45e-01	0	43	104	328204288	24	16747
2026-01-15 10:32:10.86	353.81	7.14	-31.3	-44.5	3.8	7.42e-01	0	43	104	328204288	24	16552
2026-01-15 10:32:11.86	353.70	7.07	-33.6	-52.7	3.8	7.42e-01	0	43	104	328204288	28	32333
2026-01-15 10:32:12.87	353.60	7.00	-33.9	-53.3	3.8	7.41e-01	0	43	104	328204288	28	33726
2026-01-15 10:32:13.87	353.50	6.94	-34.1	-53.3	3.8	7.48e-01	0	43	104	328204288	29	32797

#Closed at: 2026-01-15 10:32:14
#Recorded file [328 MB]: D:/data/31010_260115_132335.dat