passes_logs/2026/01/30/XPeterburg/XPeterburg__20260130_090305_FENGYUN_3F_rec.log

#Pass ID: 20260130_090305_FENGYUN 3F
#Satellite: FENGYUN 3F
#Configuration: FENGYUN 3F
#Start time: 2026-01-30 09:02:58

#Version: 1.5.20200625
#Station: XPeterburg
#Location: 30.318091 lon 59.932769 lat
#TLE: 1 57490U 23111A   26028.94488140  .00000128  00000+0  80589-4 0  9993
#TLE: 2 57490  98.7012 101.4610 0001418 106.0264 254.1069 14.19909110129105

#Time	Az	El	Level	Level2	SNR	BER	Gain	Gain2
2026-01-30 09:02:58.79	40.95	67.54	-38.2	-40.6	3.3	8390396	94	6502
2026-01-30 09:02:58.99	41.05	67.62	-38.0	-48.4	3.6	8067890	80	16401
2026-01-30 09:02:59.19	41.16	67.70	-38.2	-41.9	3.5	8444480	93	7498
2026-01-30 09:02:59.39	41.26	67.79	-38.2	-41.1	3.3	8435657	93	6862
2026-01-30 09:02:59.59	41.36	67.87	-38.2	-41.1	3.3	8406875	93	6902
2026-01-30 09:02:59.79	41.47	67.95	-38.2	-42.6	3.6	8405078	93	8143
2026-01-30 09:02:59.99	41.58	68.03	-38.2	-42.3	3.5	8443576	93	7907
2026-01-30 09:03:00.20	41.69	68.12	-38.2	-41.4	3.4	8443576	93	7071
2026-01-30 09:03:00.40	41.80	68.20	-38.2	-41.2	3.3	8424476	93	6951
2026-01-30 09:03:00.60	41.91	68.29	-38.2	-42.7	3.6	8393165	93	8179
2026-01-30 09:03:00.80	42.02	68.37	-38.3	-42.7	3.6	8410800	93	8188
2026-01-30 09:03:01.00	42.13	68.45	-38.3	-41.7	3.4	8444618	93	7335
2026-01-30 09:03:01.20	42.24	68.54	-38.2	-41.2	3.3	8420757	93	6936
2026-01-30 09:03:01.40	42.35	68.62	-38.2	-41.2	3.3	8389617	93	6934
2026-01-30 09:03:01.60	42.46	68.70	-38.3	-42.7	3.6	8436000	93	8193
2026-01-30 09:03:01.80	42.58	68.79	-38.2	-41.8	3.4	8430702	93	7464
2026-01-30 09:03:02.01	42.70	68.87	-38.2	-41.1	3.3	8430702	93	6903
2026-01-30 09:03:02.21	42.82	68.96	-38.2	-41.2	3.3	8403282	93	6949
2026-01-30 09:03:02.41	42.93	69.04	-38.2	-42.6	3.6	8383312	93	8101
2026-01-30 09:03:02.61	43.05	69.12	-38.2	-41.4	3.5	8432235	94	7108
2026-01-30 09:03:02.81	43.17	69.21	-38.1	-40.5	3.3	8367313	94	6445
2026-01-30 09:03:03.01	43.29	69.29	-38.1	-40.2	3.3	8396942	94	6293
2026-01-30 09:03:03.21	43.41	69.37	-38.1	-41.7	3.6	8349391	94	7452
2026-01-30 09:03:03.41	43.54	69.45	-38.1	-41.0	1.9	8439662	95	6908
2026-01-30 09:03:03.61	43.66	69.54	-38.1	-40.5	3.4	8439662	94	6483
2026-01-30 09:03:03.81	43.79	69.62	-38.1	-40.2	3.3	8373916	94	6288
2026-01-30 09:03:04.02	43.92	69.71	-38.1	-40.1	3.3	8391105	94	6212
2026-01-30 09:03:04.22	44.05	69.79	-38.0	-41.4	3.6	8345684	94	7242
2026-01-30 09:03:04.42	44.17	69.87	-37.9	-40.2	3.5	8382923	94	6461
2026-01-30 09:03:04.62	44.30	69.96	-37.7	-39.2	3.3	8414314	94	5805
2026-01-30 09:03:04.82	44.43	70.04	-37.7	-39.4	3.3	8406269	93	5975
2026-01-30 09:03:05.02	44.56	70.12	-37.7	-40.8	3.6	8341804	93	7022
2026-01-30 09:03:05.22	44.70	70.20	-37.6	-40.4	3.6	8341804	93	6809
2026-01-30 09:03:05.42	44.83	70.29	-37.6	-39.2	3.4	8435794	93	5953
2026-01-30 09:03:05.62	44.97	70.37	-37.5	-38.9	3.3	8428722	93	5758
2026-01-30 09:03:05.82	45.10	70.45	-37.5	-40.1	3.6	8391609	93	6692
2026-01-30 09:03:06.02	45.24	70.54	-37.5	-40.1	3.6	8419864	93	6676
2026-01-30 09:03:06.23	45.39	70.62	-37.4	-38.8	3.5	8427555	93	5806
2026-01-30 09:03:06.43	45.53	70.70	-37.4	-38.4	3.4	8397869	93	5523
2026-01-30 09:03:06.63	45.67	70.79	-37.2	-38.5	3.5	8385704	92	5710
2026-01-30 09:03:06.83	45.81	70.87	-37.3	-40.2	3.6	8416774	92	6836
2026-01-30 09:03:07.03	45.96	70.95	-37.3	-39.2	3.6	8416774	92	6093
2026-01-30 09:03:07.23	46.10	71.03	-37.2	-38.3	3.5	8433219	92	5603
2026-01-30 09:03:07.43	46.25	71.12	-37.3	-38.6	3.5	8391609	92	5682
2026-01-30 09:03:07.63	46.40	71.20	-37.2	-39.6	3.6	8384628	92	6488
2026-01-30 09:03:07.83	46.54	71.28	-37.2	-39.0	3.6	8426399	92	5993
2026-01-30 09:03:08.04	46.70	71.37	-37.2	-38.2	3.5	8406349	92	5512
2026-01-30 09:03:08.24	46.86	71.45	-37.3	-38.4	3.5	8380977	92	5584
2026-01-30 09:03:08.44	47.01	71.53	-37.2	-39.6	3.6	8386516	92	6481
2026-01-30 09:03:08.64	47.16	71.61	-37.2	-39.0	3.7	8434352	92	6084
2026-01-30 09:03:08.84	47.32	71.70	-37.1	-37.9	3.6	8390293	92	5418
2026-01-30 09:03:09.04	47.48	71.78	-37.0	-37.6	3.6	8390293	92	5260
2026-01-30 09:03:09.24	47.64	71.86	-36.9	-38.5	3.7	8359909	92	5945
2026-01-30 09:03:09.44	47.80	71.94	-36.9	-38.3	3.9	8393245	92	5796
2026-01-30 09:03:09.64	47.96	72.02	-36.8	-37.0	3.8	8393760	92	5077
2026-01-30 09:03:09.84	48.13	72.11	-36.8	-37.2	3.8	8363033	91	5197
2026-01-30 09:03:10.04	48.29	72.19	-36.6	-36.9	3.9	8330451	91	5046
2026-01-30 09:03:10.25	48.47	72.27	-36.6	-36.8	3.9	8289344	91	5015
2026-01-30 09:03:10.45	48.64	72.35	-36.5	-36.4	4.0	8259235	91	4883
2026-01-30 09:03:10.65	48.81	72.44	-36.3	-36.1	4.2	8259235	91	4763
2026-01-30 09:03:10.79	48.93	72.49	-36.4	-36.3	4.1	8186313	91	4864
2026-01-30 09:03:11.00	49.11	72.58	-36.4	-36.1	4.2	8184997	91	4778
2026-01-30 09:03:11.20	49.29	72.66	-36.5	-36.3	4.1	8168289	91	4826
2026-01-30 09:03:11.40	49.47	72.74	-36.4	-36.1	4.2	8200664	91	4764
2026-01-30 09:03:11.60	49.64	72.82	-36.4	-36.2	4.2	8150493	91	4783
2026-01-30 09:03:11.80	49.82	72.90	-36.3	-36.0	4.2	8156627	91	4718
2026-01-30 09:03:12.00	50.01	72.98	-36.1	-36.0	4.2	8114353	90	4845
2026-01-30 09:03:12.20	50.19	73.06	-36.1	-35.8	4.2	8105918	90	4780
2026-01-30 09:03:12.40	50.38	73.14	-36.1	-36.0	4.2	8105918	90	4867
2026-01-30 09:03:12.60	50.57	73.22	-36.3	-36.5	4.0	8117088	90	5021
2026-01-30 09:03:12.81	50.77	73.31	-36.5	-37.0	3.9	8219764	90	5208
2026-01-30 09:03:13.01	50.96	73.39	-36.5	-37.1	3.9	8282318	90	5233
2026-01-30 09:03:13.21	51.15	73.47	-36.6	-37.3	3.8	8294528	90	5325
2026-01-30 09:03:13.41	51.35	73.55	-36.5	-36.9	3.9	8306831	90	5179
2026-01-30 09:03:13.61	51.55	73.63	-36.4	-36.7	4.0	8257232	90	5095
2026-01-30 09:03:13.81	51.75	73.71	-36.3	-36.6	4.0	8242572	90	5080
2026-01-30 09:03:14.01	51.95	73.79	-36.4	-36.7	4.0	8242572	90	5112
2026-01-30 09:03:14.21	52.15	73.87	-36.5	-37.0	3.9	8226814	90	5226
2026-01-30 09:03:14.41	52.36	73.94	-36.6	-37.2	3.9	8283130	90	5268
2026-01-30 09:03:14.61	52.57	74.02	-36.6	-37.2	3.9	8304588	90	5303
2026-01-30 09:03:14.81	52.78	74.10	-36.5	-37.1	3.9	8301326	90	5261
2026-01-30 09:03:15.02	53.00	74.18	-36.3	-36.4	4.1	8282524	90	4982
2026-01-30 09:03:15.22	53.21	74.26	-36.3	-36.3	4.1	8224834	90	4959
2026-01-30 09:03:15.42	53.43	74.34	-36.4	-36.8	4.0	8211135	90	5152
2026-01-30 09:03:15.62	53.65	74.42	-36.4	-36.7	4.0	8233852	90	5114
2026-01-30 09:03:15.82	53.87	74.50	-36.7	-37.6	3.8	8233852	90	5476
2026-01-30 09:03:16.02	54.10	74.58	-37.2	-39.7	3.7	8293464	91	6585
2026-01-30 09:03:16.22	54.32	74.65	-37.5	-40.5	3.6	8377143	91	6972
2026-01-30 09:03:16.42	54.55	74.73	-37.4	-39.2	3.6	8430370	91	6056
2026-01-30 09:03:16.62	54.78	74.81	-37.3	-38.5	3.6	8393188	91	5675
2026-01-30 09:03:16.82	55.02	74.89	-37.1	-38.1	3.7	8366970	91	5504
2026-01-30 09:03:17.03	55.26	74.97	-37.2	-39.5	3.7	8375747	91	6431
2026-01-30 09:03:17.23	55.50	75.04	-37.2	-39.0	3.9	8408260	91	6073
2026-01-30 09:03:17.43	55.74	75.12	-37.4	-38.7	3.7	8362243	91	5744
2026-01-30 09:03:17.63	55.99	75.20	-37.4	-38.5	3.6	8378677	92	5574
2026-01-30 09:03:17.83	56.23	75.27	-37.7	-40.6	3.6	8378677	92	6922
2026-01-30 09:03:18.03	56.48	75.35	-37.8	-40.4	3.6	8418903	92	6645
2026-01-30 09:03:18.23	56.74	75.42	-37.8	-39.6	3.5	8419658	92	6075
2026-01-30 09:03:18.43	56.99	75.50	-37.7	-39.3	3.5	8386528	92	5919
2026-01-30 09:03:18.64	57.26	75.58	-37.6	-40.4	3.6	8390293	92	6823
2026-01-30 09:03:18.84	57.52	75.65	-37.5	-39.9	3.8	8432933	92	6482
2026-01-30 09:03:19.04	57.78	75.73	-37.4	-38.7	3.6	8405914	92	5724
2026-01-30 09:03:19.24	58.05	75.80	-37.4	-38.4	3.6	8370586	92	5545
2026-01-30 09:03:19.44	58.32	75.88	-37.2	-39.4	3.7	8370586	92	6307
2026-01-30 09:03:19.64	58.59	75.95	-37.3	-39.6	3.7	8368263	92	6387
2026-01-30 09:03:19.84	58.86	76.02	-37.2	-38.2	3.8	8426513	92	5561
2026-01-30 09:03:20.04	59.14	76.10	-37.2	-37.8	3.7	8377922	92	5297
2026-01-30 09:03:20.24	59.42	76.17	-37.2	-37.8	3.7	8340614	92	5278
2026-01-30 09:03:20.45	59.72	76.25	-37.1	-37.6	3.8	8330749	92	5239
2026-01-30 09:03:20.65	60.01	76.32	-37.1	-37.8	3.8	8335269	92	5293
2026-01-30 09:03:20.85	60.30	76.39	-37.0	-38.8	3.7	8369167	92	6006
2026-01-30 09:03:21.05	60.59	76.46	-37.0	-38.0	4.0	8374214	92	5560
2026-01-30 09:03:21.25	60.89	76.53	-37.0	-37.5	3.9	8374214	92	5214
2026-01-30 09:03:21.45	61.19	76.61	-37.0	-37.5	3.9	8302185	92	5166
2026-01-30 09:03:21.65	61.49	76.68	-37.2	-37.9	3.7	8318801	92	5355
2026-01-30 09:03:21.85	61.80	76.75	-37.4	-39.9	3.7	8354347	92	6595
2026-01-30 09:03:22.05	62.11	76.82	-37.5	-39.4	3.7	8422714	92	6145
2026-01-30 09:03:22.25	62.42	76.89	-37.5	-38.9	3.6	8389389	92	5779
2026-01-30 09:03:22.46	62.75	76.96	-37.5	-38.9	3.6	8371902	92	5744
2026-01-30 09:03:22.66	63.07	77.03	-37.5	-40.3	3.6	8406703	92	6797
2026-01-30 09:03:22.86	63.40	77.10	-37.5	-39.5	3.8	8406703	92	6238
2026-01-30 09:03:23.06	63.72	77.17	-37.4	-38.4	3.7	8419944	92	5527
2026-01-30 09:03:23.26	64.05	77.24	-37.4	-38.3	3.7	8367725	92	5511
2026-01-30 09:03:23.46	64.39	77.30	-37.5	-40.0	3.7	8356407	92	6612
2026-01-30 09:03:23.66	64.73	77.37	-37.4	-39.6	3.8	8415882	92	6311
2026-01-30 09:03:23.86	65.07	77.44	-37.5	-39.1	3.6	8404701	92	5879
2026-01-30 09:03:24.06	65.42	77.50	-37.6	-39.1	3.6	8374317	92	5849
2026-01-30 09:03:24.27	65.78	77.57	-37.7	-40.8	3.6	8372234	92	7020
2026-01-30 09:03:24.47	66.14	77.64	-37.8	-40.9	3.6	8431709	92	7064
2026-01-30 09:03:24.67	66.49	77.70	-37.8	-40.0	3.5	8431709	92	6341
2026-01-30 09:03:24.87	66.85	77.77	-37.8	-39.8	3.4	8411808	92	6145
2026-01-30 09:03:25.07	67.22	77.83	-37.9	-39.8	3.4	8389537	92	6144
2026-01-30 09:03:25.27	67.59	77.90	-37.9	-41.2	3.6	8394596	92	7253
2026-01-30 09:03:25.47	67.96	77.96	-37.7	-39.9	3.6	8428218	92	6339
2026-01-30 09:03:25.67	68.34	78.02	-37.7	-39.4	3.5	8399974	92	5957
2026-01-30 09:03:25.87	68.72	78.09	-37.6	-38.9	3.6	8370826	92	5715
2026-01-30 09:03:26.08	69.12	78.15	-37.7	-40.6	3.6	8398635	92	6904
2026-01-30 09:03:26.28	69.51	78.21	-37.7	-40.0	3.7	8398635	92	6441
2026-01-30 09:03:26.48	69.91	78.27	-37.7	-39.4	3.5	8394561	92	5954
2026-01-30 09:03:26.68	70.31	78.33	-37.8	-39.6	3.5	8394561	92	6079
2026-01-30 09:03:26.88	70.71	78.39	-37.7	-40.7	3.6	8390819	92	6947
2026-01-30 09:03:27.08	71.11	78.45	-37.7	-39.9	3.7	8423995	92	6377
2026-01-30 09:03:27.28	71.53	78.51	-37.6	-38.9	3.6	8407184	92	5696
2026-01-30 09:03:27.48	71.94	78.57	-37.6	-38.8	3.6	8368732	92	5683
2026-01-30 09:03:27.68	72.36	78.63	-37.8	-41.0	3.6	8369647	92	7127
2026-01-30 09:03:27.89	72.80	78.69	-37.8	-40.8	3.7	8431869	92	6923
2026-01-30 09:03:28.09	73.23	78.74	-38.0	-40.3	3.4	8416671	92	6454
2026-01-30 09:03:28.29	73.67	78.80	-38.0	-39.6	3.4	8416671	93	5927
2026-01-30 09:03:28.49	74.10	78.85	-37.9	-40.6	3.6	8402400	93	6716
2026-01-30 09:03:28.69	74.54	78.91	-37.7	-40.1	3.6	8415618	93	6480
2026-01-30 09:03:28.89	74.99	78.96	-37.6	-38.7	3.6	8440326	93	5577
2026-01-30 09:03:29.09	75.44	79.02	-37.6	-38.3	3.6	8396003	93	5318
2026-01-30 09:03:29.29	75.89	79.07	-37.6	-38.4	3.6	8361888	93	5361
2026-01-30 09:03:29.49	76.35	79.12	-37.8	-40.3	3.6	8396770	93	6558
2026-01-30 09:03:29.69	76.82	79.17	-37.9	-39.9	3.5	8421707	93	6167
2026-01-30 09:03:29.90	77.31	79.23	-38.0	-39.6	3.3	8401371	93	5918
2026-01-30 09:03:30.10	77.78	79.28	-37.8	-39.1	3.4	8401371	93	5676
2026-01-30 09:03:30.30	78.26	79.32	-37.7	-40.1	3.6	8380897	93	6489
2026-01-30 09:03:30.50	78.74	79.37	-37.7	-39.3	3.7	8419052	93	5958
2026-01-30 09:03:30.70	79.23	79.42	-37.6	-38.4	3.6	8405685	93	5391
2026-01-30 09:03:30.90	79.72	79.47	-37.6	-38.2	3.6	8383609	93	5309
2026-01-30 09:03:31.10	80.21	79.51	-37.6	-39.7	3.7	8363422	93	6294
2026-01-30 09:03:31.30	80.71	79.56	-37.6	-39.3	3.8	8424625	93	6019
2026-01-30 09:03:31.50	81.22	79.60	-37.8	-39.0	3.6	8406532	93	5680
2026-01-30 09:03:31.71	81.75	79.65	-37.6	-38.2	3.6	8406532	93	5272
2026-01-30 09:03:31.91	82.26	79.69	-37.6	-39.7	3.7	8377750	93	6278
2026-01-30 09:03:32.11	82.78	79.74	-37.5	-39.5	3.7	8375427	93	6148
2026-01-30 09:03:32.31	83.30	79.78	-37.5	-38.3	3.7	8430130	93	5390
2026-01-30 09:03:32.51	83.83	79.82	-37.5	-37.8	3.7	8373332	93	5114
2026-01-30 09:03:32.71	84.36	79.86	-37.4	-37.6	3.7	8364852	93	5038
2026-01-30 09:03:32.91	84.89	79.90	-37.1	-37.4	3.8	8342365	92	5090
2026-01-30 09:03:33.11	85.43	79.94	-36.9	-36.7	3.9	8303180	92	4822
2026-01-30 09:03:33.31	85.97	79.97	-36.8	-36.9	4.1	8303180	91	4974
2026-01-30 09:03:33.52	86.55	80.01	-36.9	-37.2	4.0	8241142	91	5078
2026-01-30 09:03:33.72	87.10	80.05	-37.0	-37.4	3.9	8242023	91	5161
2026-01-30 09:03:33.92	87.65	80.08	-36.9	-37.1	4.0	8267028	91	5058
2026-01-30 09:03:34.12	88.21	80.11	-37.0	-37.4	3.9	8259086	91	5168
2026-01-30 09:03:34.32	88.77	80.15	-36.8	-37.0	4.0	8282672	91	5048
2026-01-30 09:03:34.52	89.34	80.18	-36.7	-36.7	4.1	8218975	91	4939
2026-01-30 09:03:34.72	89.91	80.21	-36.6	-36.5	4.2	8168357	91	4867
2026-01-30 09:03:34.92	90.48	80.24	-36.7	-36.7	4.1	8158584	91	4937
2026-01-30 09:03:35.12	91.06	80.27	-36.8	-37.0	4.0	8158584	91	5044
2026-01-30 09:03:35.33	91.67	80.30	-37.0	-37.6	3.8	8226551	91	5286
2026-01-30 09:03:35.53	92.26	80.32	-37.0	-37.5	3.9	8290569	91	5260
2026-01-30 09:03:35.73	92.84	80.35	-37.2	-38.2	3.7	8288452	91	5518
2026-01-30 09:03:35.93	93.43	80.38	-36.8	-38.5	3.8	8317497	91	5973
2026-01-30 09:03:36.13	94.03	80.40	-37.0	-38.6	4.1	8353145	91	5916
2026-01-30 09:03:36.33	94.62	80.42	-36.6	-36.9	4.2	8328689	91	5059
2026-01-30 09:03:36.53	95.22	80.44	-36.5	-36.3	4.2	8172100	91	4806
2026-01-30 09:03:36.73	95.82	80.46	-36.3	-35.8	4.4	8056091	91	4643
2026-01-30 09:03:36.93	96.43	80.48	-36.7	-36.7	4.1	8095355	91	4958
2026-01-30 09:03:37.13	97.04	80.50	-36.9	-37.4	3.9	8095355	91	5212
2026-01-30 09:03:37.34	97.68	80.52	-37.0	-37.6	3.9	8262245	91	5295
2026-01-30 09:03:37.54	98.29	80.54	-36.8	-37.2	4.0	8314441	91	5107
2026-01-30 09:03:37.74	98.90	80.55	-36.5	-36.2	4.3	8251567	91	4790
2026-01-30 09:03:37.94	99.52	80.57	-36.3	-35.8	4.4	8120349	91	4652
2026-01-30 09:03:38.14	100.13	80.58	-35.9	-35.3	4.7	7973361	90	4608
2026-01-30 09:03:38.34	100.75	80.59	-35.8	-35.1	4.7	7748245	90	4548
2026-01-30 09:03:38.54	101.38	80.61	-35.9	-35.3	4.7	7702514	90	4595
2026-01-30 09:03:38.74	102.00	80.62	-36.0	-35.6	4.5	7702514	90	4711
2026-01-30 09:03:38.94	102.62	80.62	-36.0	-35.6	4.5	7798221	90	4697
2026-01-30 09:03:39.14	103.25	80.63	-36.2	-36.0	4.3	7879142	90	4857
2026-01-30 09:03:39.34	103.87	80.64	-36.2	-36.2	4.3	8003288	90	4929
2026-01-30 09:03:39.55	104.53	80.65	-36.6	-37.4	4.0	8067661	90	5336
2026-01-30 09:03:39.75	105.16	80.65	-36.3	-36.5	4.2	8246875	90	5021
2026-01-30 09:03:39.95	105.79	80.65	-36.5	-37.0	4.1	8166332	90	5202
2026-01-30 09:03:40.15	106.41	80.66	-36.3	-36.4	4.3	8162727	90	4952
2026-01-30 09:03:40.35	107.04	80.66	-36.2	-36.2	4.3	8054225	90	4919
2026-01-30 09:03:40.55	107.67	80.66	-36.2	-36.3	4.3	8054225	90	4962
2026-01-30 09:03:40.75	108.30	80.66	-36.5	-37.0	4.0	8067924	90	5206
2026-01-30 09:03:40.95	108.93	80.65	-36.5	-37.1	4.0	8194175	90	5226
2026-01-30 09:03:41.15	109.56	80.65	-36.5	-37.0	4.1	8237697	90	5195
2026-01-30 09:03:41.35	110.19	80.65	-36.5	-36.9	4.1	8230567	90	5184
2026-01-30 09:03:41.56	110.84	80.64	-36.4	-36.8	4.1	8211662	90	5117
2026-01-30 09:03:41.76	111.47	80.64	-36.2	-36.1	4.3	8138042	90	4885
2026-01-30 09:03:41.96	112.10	80.63	-35.7	-35.2	4.9	7872859	89	4676
2026-01-30 09:03:42.16	112.72	80.62	-35.5	-34.8	5.2	7872859	89	4554
2026-01-30 09:03:42.36	113.34	80.61	-35.4	-34.6	5.3	7281715	89	4494
2026-01-30 09:03:42.56	113.97	80.60	-35.5	-35.0	5.1	6937213	89	4639
2026-01-30 09:03:42.76	114.59	80.59	-35.7	-35.5	4.8	7170581	89	4788
2026-01-30 09:03:42.96	115.20	80.57	-36.1	-36.4	4.5	7494918	89	5114
2026-01-30 09:03:43.16	115.82	80.56	-36.1	-36.5	4.5	7892337	89	5141
2026-01-30 09:03:43.36	116.44	80.54	-36.3	-36.8	4.3	7968406	89	5208
2026-01-30 09:03:43.57	117.08	80.53	-35.7	-35.4	4.9	7952384	89	4755
2026-01-30 09:03:43.77	117.69	80.51	-35.8	-35.6	4.8	7525703	89	4816
2026-01-30 09:03:43.97	118.30	80.49	-35.6	-35.1	5.0	7525703	89	4641
2026-01-30 09:03:44.17	118.90	80.47	-35.6	-35.2	5.0	7471126	89	4677
2026-01-30 09:03:44.37	119.51	80.45	-35.6	-35.1	5.0	7367671	89	4659
2026-01-30 09:03:44.57	120.11	80.43	-35.5	-34.9	5.1	7376632	89	4593
2026-01-30 09:03:44.77	120.70	80.41	-35.5	-34.8	5.2	7228042	89	4570
2026-01-30 09:03:44.97	121.30	80.38	-35.5	-35.0	5.1	7176818	89	4627
2026-01-30 09:03:45.17	121.89	80.36	-35.8	-35.5	4.8	7379516	89	4797
2026-01-30 09:03:45.37	122.48	80.33	-36.2	-36.7	4.4	7796882	89	5211
2026-01-30 09:03:45.58	123.09	80.31	-36.4	-37.3	4.1	7796882	89	5427
2026-01-30 09:03:45.78	123.68	80.28	-36.6	-37.2	4.0	8089794	90	5301
2026-01-30 09:03:45.98	124.25	80.25	-36.8	-37.8	3.9	8228061	90	5522
2026-01-30 09:03:46.18	124.83	80.22	-36.9	-38.0	3.8	8270977	90	5609
2026-01-30 09:03:46.38	125.40	80.19	-36.7	-37.5	3.9	8307094	90	5422
2026-01-30 09:03:46.58	125.97	80.16	-37.0	-38.2	3.8	8296199	90	5686
2026-01-30 09:03:46.78	126.53	80.13	-37.4	-40.0	3.7	8347824	91	6654
2026-01-30 09:03:46.98	127.09	80.09	-37.5	-39.8	3.8	8413558	91	6412
2026-01-30 09:03:47.18	127.65	80.06	-37.8	-39.4	3.5	8386470	92	5956
2026-01-30 09:03:47.39	128.23	80.02	-37.8	-39.4	3.5	8402240	92	5922
2026-01-30 09:03:47.59	128.78	79.99	-38.0	-41.1	3.6	8402240	93	6959
2026-01-30 09:03:47.79	129.32	79.95	-38.0	-40.7	3.6	8406177	93	6686
2026-01-30 09:03:47.99	129.86	79.91	-37.8	-39.0	3.4	8445190	93	5695
2026-01-30 09:03:48.19	130.40	79.87	-37.8	-38.9	3.3	8399665	93	5598
2026-01-30 09:03:48.39	130.93	79.83	-37.9	-40.7	3.6	8390670	93	6754
2026-01-30 09:03:48.59	131.46	79.79	-38.1	-41.1	3.6	8426433	93	7018
2026-01-30 09:03:48.79	131.98	79.75	-38.1	-40.4	3.4	8433219	93	6393
2026-01-30 09:03:48.99	132.50	79.71	-38.2	-40.2	3.3	8392524	93	6206
2026-01-30 09:03:49.19	133.01	79.67	-38.1	-39.8	3.3	8383541	93	6010
2026-01-30 09:03:49.40	133.55	79.62	-37.8	-40.5	3.6	8383541	93	6693
2026-01-30 09:03:49.60	134.06	79.58	-37.5	-38.6	3.5	8427921	93	5594
2026-01-30 09:03:49.80	134.56	79.53	-37.2	-37.7	3.5	8430175	92	5189
2026-01-30 09:03:50.00	135.05	79.48	-36.9	-36.8	3.6	8379444	92	4864
2026-01-30 09:03:50.20	135.55	79.44	-36.8	-38.2	3.8	8373561	91	5836
2026-01-30 09:03:50.40	136.03	79.39	-36.8	-37.7	4.2	8358901	91	5502
2026-01-30 09:03:50.60	136.52	79.34	-36.9	-37.4	4.0	8238704	91	5226
2026-01-30 09:03:50.80	137.00	79.29	-37.0	-37.5	3.9	8283565	91	5227
2026-01-30 09:03:51.00	137.47	79.24	-37.2	-38.3	3.7	8283565	91	5570
2026-01-30 09:03:51.20	137.94	79.19	-37.3	-39.7	3.7	8298934	91	6523
2026-01-30 09:03:51.41	138.43	79.14	-37.5	-39.0	3.7	8414062	92	5909
2026-01-30 09:03:51.61	138.89	79.09	-37.0	-37.2	3.8	8383106	92	5011
2026-01-30 09:03:51.81	139.35	79.03	-36.9	-37.0	3.9	8334697	92	4971
2026-01-30 09:03:52.01	139.80	78.98	-36.9	-38.1	3.7	8331401	92	5677
2026-01-30 09:03:52.21	140.25	78.93	-36.8	-38.0	3.8	8376514	92	5620
2026-01-30 09:03:52.41	140.69	78.87	-36.9	-37.7	4.0	8323471	91	5389
2026-01-30 09:03:52.61	141.13	78.82	-37.0	-37.7	3.8	8316936	91	5326
2026-01-30 09:03:52.81	141.57	78.76	-37.3	-38.5	3.6	8316936	91	5651
2026-01-30 09:03:53.01	142.00	78.71	-37.4	-38.4	3.5	8347011	92	5477
2026-01-30 09:03:53.22	142.44	78.65	-37.6	-38.7	3.5	8372840	92	5594
2026-01-30 09:03:53.42	142.86	78.59	-37.7	-40.5	3.6	8369934	92	6788
2026-01-30 09:03:53.62	143.28	78.53	-37.5	-40.0	3.6	8421981	92	6557
2026-01-30 09:03:53.82	143.69	78.47	-37.2	-38.0	3.8	8416133	92	5413
2026-01-30 09:03:54.02	144.10	78.41	-37.0	-37.0	3.8	8352527	92	4935
2026-01-30 09:03:54.22	144.50	78.35	-37.0	-37.0	3.8	8318836	92	4944
2026-01-30 09:03:54.42	144.90	78.29	-37.0	-38.5	3.7	8318836	92	5851
2026-01-30 09:03:54.62	145.30	78.23	-37.0	-38.0	3.9	8383552	92	5492
2026-01-30 09:03:54.82	145.69	78.17	-37.2	-37.7	3.7	8394744	92	5246
2026-01-30 09:03:55.02	146.08	78.11	-37.2	-37.8	3.7	8367050	92	5236
2026-01-30 09:03:55.22	146.46	78.05	-37.1	-38.8	3.7	8352951	92	6001
2026-01-30 09:03:55.42	146.84	77.98	-36.6	-38.0	3.8	8376285	91	5749
2026-01-30 09:03:55.63	147.23	77.92	-36.4	-36.4	4.4	8240741	91	4918
2026-01-30 09:03:55.83	147.60	77.85	-35.7	-35.0	4.6	8053642	90	4503
2026-01-30 09:03:56.03	147.97	77.79	-35.6	-35.0	4.9	7590751	89	4623
2026-01-30 09:03:56.23	148.33	77.73	-35.6	-35.2	4.9	7486404	89	4694
2026-01-30 09:03:56.43	148.69	77.66	-35.9	-36.0	4.6	7486404	89	4950
2026-01-30 09:03:56.63	149.05	77.59	-36.1	-36.5	4.4	7661098	89	5137
2026-01-30 09:03:56.83	149.40	77.53	-36.4	-37.4	4.1	7969951	89	5473
2026-01-30 09:03:57.03	149.75	77.46	-36.7	-37.5	3.9	8177536	90	5433
2026-01-30 09:03:57.23	150.09	77.40	-36.7	-37.7	3.8	8292938	90	5520
2026-01-30 09:03:57.43	150.43	77.33	-36.5	-37.1	4.0	8299243	90	5275
2026-01-30 09:03:57.64	150.78	77.26	-36.4	-36.8	4.1	8263320	90	5146
2026-01-30 09:03:57.84	151.12	77.19	-36.3	-36.6	4.2	8194072	90	5089
2026-01-30 09:03:58.04	151.45	77.12	-36.4	-36.9	4.1	8163940	90	5180
2026-01-30 09:03:58.24	151.77	77.05	-36.5	-37.0	4.1	8163940	90	5248
2026-01-30 09:03:58.44	152.09	76.98	-36.6	-37.5	4.0	8188865	90	5457
2026-01-30 09:03:58.64	152.41	76.91	-36.9	-39.6	3.7	8243431	90	6720
2026-01-30 09:03:58.84	152.73	76.84	-37.2	-39.5	3.9	8373172	91	6408
2026-01-30 09:03:59.04	153.04	76.77	-37.3	-39.0	3.7	8394424	91	6014
2026-01-30 09:03:59.24	153.34	76.70	-37.1	-38.3	3.7	8374294	91	5643
2026-01-30 09:03:59.44	153.65	76.63	-36.8	-37.5	3.9	8324844	91	5292
2026-01-30 09:03:59.65	153.97	76.56	-36.6	-36.8	4.0	8281906	91	5034
2026-01-30 09:03:59.85	154.26	76.49	-36.5	-36.6	4.2	8281906	91	4937
2026-01-30 09:04:00.05	154.56	76.41	-36.5	-36.4	4.3	8120441	91	4913
2026-01-30 09:04:00.25	154.85	76.34	-36.6	-36.8	4.2	8112796	91	5027
2026-01-30 09:04:00.45	155.14	76.27	-36.8	-37.2	4.1	8144290	91	5178
2026-01-30 09:04:00.65	155.42	76.20	-36.9	-37.6	3.9	8236507	91	5358
2026-01-30 09:04:00.85	155.70	76.12	-37.0	-38.0	3.8	8302127	91	5515
2026-01-30 09:04:01.05	155.98	76.05	-36.9	-37.7	3.9	8322189	91	5362
2026-01-30 09:04:01.25	156.26	75.98	-36.9	-37.5	3.9	8304542	91	5311
2026-01-30 09:04:01.46	156.55	75.90	-36.8	-37.2	4.0	8304542	91	5182
2026-01-30 09:04:01.66	156.82	75.82	-36.8	-37.2	4.0	8271503	91	5167
2026-01-30 09:04:01.86	157.08	75.75	-36.7	-37.1	4.0	8262725	91	5139
2026-01-30 09:04:02.06	157.35	75.67	-36.7	-36.9	4.1	8247127	91	5060
2026-01-30 09:04:02.26	157.61	75.60	-36.7	-36.9	4.1	8229114	91	5070
2026-01-30 09:04:02.46	157.87	75.52	-36.7	-37.0	4.0	8221824	91	5105
2026-01-30 09:04:02.66	158.12	75.45	-36.8	-37.1	4.0	8247779	91	5141
2026-01-30 09:04:02.86	158.38	75.37	-36.7	-36.9	4.1	8252391	91	5033
2026-01-30 09:04:03.06	158.63	75.30	-36.7	-36.9	4.0	8234024	91	5010
2026-01-30 09:04:03.27	158.89	75.22	-36.6	-36.7	4.1	8234024	91	4977
2026-01-30 09:04:03.47	159.13	75.14	-36.8	-37.1	3.9	8231712	91	5111
2026-01-30 09:04:03.67	159.37	75.07	-36.6	-36.6	4.1	8271938	91	4935
2026-01-30 09:04:03.87	159.61	74.99	-36.8	-37.1	4.0	8215633	91	5128
2026-01-30 09:04:04.07	159.85	74.91	-36.7	-36.9	4.0	8262691	91	5038
2026-01-30 09:04:04.27	160.09	74.83	-36.6	-36.6	4.1	8247070	91	4931
2026-01-30 09:04:04.47	160.32	74.76	-36.5	-36.2	4.2	8212932	91	4797
2026-01-30 09:04:04.67	160.55	74.68	-36.4	-36.1	4.2	8146270	91	4741
2026-01-30 09:04:04.87	160.78	74.60	-36.4	-36.2	4.2	8146270	91	4795
2026-01-30 09:04:05.07	161.00	74.52	-36.5	-36.4	4.1	8138271	91	4864
2026-01-30 09:04:05.27	161.22	74.45	-36.7	-36.9	4.0	8204978	91	5043
2026-01-30 09:04:05.48	161.45	74.36	-36.8	-37.1	3.9	8254142	91	5092
2026-01-30 09:04:05.68	161.67	74.28	-36.6	-36.8	4.0	8300273	91	5024
2026-01-30 09:04:05.88	161.89	74.21	-36.5	-36.5	4.1	8267166	91	4890
2026-01-30 09:04:06.08	162.10	74.13	-36.4	-36.2	4.1	8219089	91	4785
2026-01-30 09:04:06.28	162.31	74.05	-36.4	-36.1	4.2	8177513	91	4745
2026-01-30 09:04:06.48	162.52	73.97	-36.3	-35.9	4.2	8155860	91	4705
2026-01-30 09:04:06.68	162.73	73.89	-36.3	-35.9	4.2	8124092	91	4705
2026-01-30 09:04:06.88	162.93	73.81	-36.4	-36.3	4.1	8169170	91	4857
2026-01-30 09:04:07.08	163.14	73.73	-36.4	-36.1	4.2	8169170	91	4763
2026-01-30 09:04:07.29	163.35	73.65	-36.4	-36.1	4.2	8196155	91	4750
2026-01-30 09:04:07.49	163.55	73.57	-35.8	-35.4	4.4	8164993	90	4686
2026-01-30 09:04:07.69	163.74	73.49	-35.8	-35.3	4.4	8037403	90	4644
2026-01-30 09:04:07.89	163.94	73.41	-35.6	-35.2	4.7	7957592	89	4696
2026-01-30 09:04:08.09	164.13	73.33	-35.7	-35.4	4.6	7793071	89	4783
2026-01-30 09:04:08.29	164.32	73.25	-35.6	-35.1	4.8	7705696	89	4682
2026-01-30 09:04:08.49	164.51	73.17	-35.5	-35.1	4.8	7623195	89	4657
2026-01-30 09:04:08.69	164.70	73.09	-35.5	-35.1	4.8	7623195	89	4675
2026-01-30 09:04:08.89	164.88	73.01	-35.5	-35.0	4.9	7574741	89	4645
2026-01-30 09:04:09.09	165.07	72.93	-35.4	-34.8	4.9	7568630	89	4571
2026-01-30 09:04:09.29	165.25	72.84	-35.3	-34.5	5.1	7483131	89	4485
2026-01-30 09:04:09.50	165.44	72.76	-35.2	-34.8	5.1	7351032	88	4711
2026-01-30 09:04:09.70	165.61	72.68	-35.3	-35.1	5.0	7296775	88	4793
2026-01-30 09:04:09.90	165.79	72.60	-35.4	-35.4	4.8	7453136	88	4917
2026-01-30 09:04:10.10	165.97	72.52	-35.4	-35.4	4.8	7562713	88	4901
2026-01-30 09:04:10.30	166.14	72.43	-35.3	-35.1	4.9	7562713	88	4795
2026-01-30 09:04:10.50	166.31	72.35	-35.2	-35.0	5.0	7495765	88	4778
2026-01-30 09:04:10.70	166.48	72.27	-35.2	-34.9	5.0	7388935	88	4758
2026-01-30 09:04:10.90	166.65	72.19	-35.2	-34.8	5.0	7380523	88	4720
2026-01-30 09:04:11.10	166.81	72.11	-35.1	-34.8	5.1	7329380	88	4703
2026-01-30 09:04:11.30	166.98	72.03	-35.1	-34.7	5.1	7283866	88	4690
2026-01-30 09:04:11.51	167.15	71.94	-35.3	-35.1	4.9	7299968	88	4809
2026-01-30 09:04:11.71	167.31	71.86	-35.3	-35.1	4.9	7445034	88	4808
2026-01-30 09:04:11.91	167.47	71.78	-35.5	-35.6	4.7	7528026	88	4964
2026-01-30 09:04:12.11	167.63	71.69	-35.6	-35.8	4.6	7528026	88	5033
2026-01-30 09:04:12.31	167.79	71.61	-35.6	-35.9	4.5	7684879	88	5064
2026-01-30 09:04:12.51	167.94	71.53	-35.7	-36.1	4.5	7854469	88	5139
2026-01-30 09:04:12.71	168.10	71.45	-35.6	-35.9	4.6	7913784	88	5061
2026-01-30 09:04:12.91	168.25	71.37	-35.7	-36.1	4.5	7884361	88	5156
2026-01-30 09:04:13.11	168.40	71.28	-35.6	-35.8	4.6	7892761	88	5013
2026-01-30 09:04:13.32	168.56	71.20	-35.7	-35.9	4.5	7836296	88	5085
2026-01-30 09:04:13.52	168.70	71.11	-35.7	-36.1	4.5	7936523	88	5119
2026-01-30 09:04:13.72	168.85	71.03	-35.8	-36.4	4.3	7936523	88	5224
2026-01-30 09:04:13.92	169.00	70.95	-35.8	-36.2	4.4	8020706	88	5155
2026-01-30 09:04:14.12	169.14	70.87	-35.9	-36.5	4.3	8049396	88	5295
2026-01-30 09:04:14.32	169.28	70.78	-35.9	-36.6	4.2	8044372	88	5331
2026-01-30 09:04:14.52	169.43	70.70	-35.9	-36.7	4.2	8101684	88	5371
2026-01-30 09:04:14.72	169.57	70.62	-36.0	-36.8	4.2	8119754	88	5393
2026-01-30 09:04:14.92	169.71	70.53	-35.9	-36.1	4.3	8137264	89	5024
2026-01-30 09:04:15.13	169.85	70.45	-36.4	-37.4	4.0	8116836	89	5495
2026-01-30 09:04:15.33	169.99	70.37	-38.2	-42.2	3.6	8402561	93	7740

#Closed at: 2026-01-30 09:04:15