passes_logs/2025/01/22/planumMobile0/planumMobile0__20250122_075450_NOAA_19_rec.log

#Pass ID: 20250122_075450_NOAA 19
#Satellite: NOAA 19
#Configuration: NOAA 19
#Start time: 2025-01-22 07:54:55.151357

#LorettStation: 1.0.0 05.05.2024
#Station: planumMobile0
#Location: 49.207755 lon 55.927282 lat
#TLE: 1 33591U 09005A   24102.17259386  .00000224  00000+0  14472-3 0  9993
#TLE: 2 33591  99.0542 157.2452 0014818 119.9896 240.2748 14.12964935782168

#Time	Az	El	Level	SNR
2025-01-22 07:55:02.196927	9.6	10.6	-93.6	0.0
2025-01-22 07:55:03.202889	9.5	10.7	-92.7	0.0
2025-01-22 07:55:04.209264	9.5	10.8	-93.1	0.0
2025-01-22 07:55:05.214020	9.4	10.8	-93.5	0.0
2025-01-22 07:55:06.219581	9.4	10.9	-92.9	0.0
2025-01-22 07:55:07.224583	9.3	11.0	-93.2	0.0
2025-01-22 07:55:08.228588	9.3	11.1	-93.6	0.0
2025-01-22 07:55:09.233329	9.2	11.2	-92.7	0.0
2025-01-22 07:55:10.238771	9.2	11.3	-93.1	0.0
2025-01-22 07:55:11.244181	9.1	11.4	-93.5	0.0
2025-01-22 07:55:12.248232	9.1	11.5	-92.8	0.0
2025-01-22 07:55:13.252824	9.0	11.5	-92.9	0.0
2025-01-22 07:55:14.257464	9.0	11.6	-93.7	0.0
2025-01-22 07:55:15.262039	8.9	11.7	-93.1	0.0
2025-01-22 07:55:16.267173	8.8	11.8	-92.9	0.0
2025-01-22 07:55:17.273636	8.8	11.9	-93.5	0.0
2025-01-22 07:55:18.279546	8.7	12.0	-93.0	0.0
2025-01-22 07:55:19.284905	8.7	12.1	-93.3	0.0
2025-01-22 07:55:20.289853	8.6	12.2	-93.6	0.0
2025-01-22 07:55:21.296428	8.6	12.3	-93.1	0.0
2025-01-22 07:55:22.301915	8.5	12.3	-93.7	0.0
2025-01-22 07:55:23.306575	8.4	12.4	-92.8	0.0
2025-01-22 07:55:24.311253	8.4	12.5	-92.9	0.0
2025-01-22 07:55:25.316111	8.3	12.6	-93.7	0.0
2025-01-22 07:55:26.321058	8.3	12.7	-92.8	0.0
2025-01-22 07:55:27.325095	8.2	12.8	-93.1	0.0
2025-01-22 07:55:28.329261	8.1	12.9	-92.9	0.0
2025-01-22 07:55:29.334798	8.1	13.0	-93.4	0.0
2025-01-22 07:55:30.339718	8.0	13.1	-93.0	0.0
2025-01-22 07:55:31.346155	8.0	13.2	-93.6	0.0
2025-01-22 07:55:32.351486	7.9	13.3	-93.2	0.0
2025-01-22 07:55:33.356209	7.8	13.4	-92.8	0.0
2025-01-22 07:55:34.360884	7.8	13.4	-93.3	0.0
2025-01-22 07:55:35.365315	7.7	13.5	-93.1	0.0
2025-01-22 07:55:36.370890	7.6	13.6	-92.5	0.0
2025-01-22 07:55:37.375809	7.6	13.7	-93.5	0.0
2025-01-22 07:55:38.380249	7.5	13.8	-93.4	0.0
2025-01-22 07:55:39.384658	7.5	13.9	-92.8	0.0
2025-01-22 07:55:40.388953	7.4	14.0	-93.4	0.0
2025-01-22 07:55:41.393253	7.3	14.1	-93.5	0.0
2025-01-22 07:55:42.397756	7.3	14.2	-93.2	0.0
2025-01-22 07:55:43.402576	7.2	14.3	-92.6	0.0
2025-01-22 07:55:44.407153	7.1	14.4	-93.5	0.0
2025-01-22 07:55:45.411168	7.1	14.5	-93.3	0.0
2025-01-22 07:55:46.416184	7.0	14.6	-92.8	0.0
2025-01-22 07:55:47.421115	6.9	14.7	-93.3	0.0
2025-01-22 07:55:48.426217	6.8	14.8	-93.4	0.0
2025-01-22 07:55:49.431459	6.8	14.9	-92.6	0.0
2025-01-22 07:55:50.435764	6.7	15.0	-93.6	0.0
2025-01-22 07:55:51.441234	6.6	15.1	-93.4	0.0
2025-01-22 07:55:52.446286	6.6	15.2	-92.6	0.0
2025-01-22 07:55:53.451027	6.5	15.3	-93.4	0.0
2025-01-22 07:55:54.455579	6.4	15.4	-93.8	0.0
2025-01-22 07:55:55.460223	6.3	15.5	-92.7	0.0
2025-01-22 07:55:56.464551	6.3	15.6	-93.4	0.0
2025-01-22 07:55:57.469369	6.2	15.7	-93.3	0.0
2025-01-22 07:55:58.473730	6.1	15.8	-92.8	0.0
2025-01-22 07:55:59.478418	6.1	15.9	-93.2	0.0
2025-01-22 07:56:00.484573	6.0	16.0	-93.5	0.0
2025-01-22 07:56:01.490140	5.9	16.1	-92.7	0.0
2025-01-22 07:56:02.495162	5.8	16.2	-93.3	0.0
2025-01-22 07:56:03.500019	5.7	16.3	-93.4	0.0
2025-01-22 07:56:04.504534	5.7	16.4	-92.8	0.0
2025-01-22 07:56:05.509814	5.6	16.5	-93.1	0.0
2025-01-22 07:56:06.514551	5.5	16.6	-93.8	0.0
2025-01-22 07:56:07.519420	5.4	16.7	-92.7	0.0
2025-01-22 07:56:08.524568	5.4	16.9	-93.4	0.0
2025-01-22 07:56:09.530834	5.3	17.0	-93.6	0.0
2025-01-22 07:56:10.535587	5.2	17.1	-93.4	0.0
2025-01-22 07:56:11.540699	5.1	17.2	-93.3	0.0
2025-01-22 07:56:12.545603	5.0	17.3	-93.6	0.0
2025-01-22 07:56:13.551361	4.9	17.4	-92.7	0.0
2025-01-22 07:56:14.555882	4.9	17.5	-93.7	0.0
2025-01-22 07:56:15.560455	4.8	17.6	-92.7	0.0
2025-01-22 07:56:16.566738	4.7	17.7	-93.2	0.0
2025-01-22 07:56:17.571106	4.6	17.8	-94.0	0.0
2025-01-22 07:56:18.575583	4.5	17.9	-93.0	0.0
2025-01-22 07:56:19.581281	4.4	18.1	-93.0	0.0
2025-01-22 07:56:20.585747	4.4	18.2	-93.7	0.0
2025-01-22 07:56:21.590405	4.3	18.3	-92.9	0.0
2025-01-22 07:56:22.595502	4.2	18.4	-93.2	0.0
2025-01-22 07:56:23.600021	4.1	18.5	-93.8	0.0
2025-01-22 07:56:24.604902	4.0	18.6	-93.0	0.0
2025-01-22 07:56:25.609734	3.9	18.7	-92.9	0.0
2025-01-22 07:56:26.614696	3.8	18.8	-93.7	0.0
2025-01-22 07:56:27.619505	3.7	19.0	-92.8	0.0
2025-01-22 07:56:28.624486	3.6	19.1	-93.2	0.0
2025-01-22 07:56:29.629463	3.5	19.2	-93.6	0.0
2025-01-22 07:56:30.634784	3.4	19.3	-93.6	0.0
2025-01-22 07:56:31.639077	3.3	19.4	-93.0	0.0
2025-01-22 07:56:32.643880	3.3	19.5	-93.5	0.0
2025-01-22 07:56:33.648543	3.2	19.6	-92.9	0.0
2025-01-22 07:56:34.653389	3.1	19.8	-92.7	0.0
2025-01-22 07:56:35.658196	3.0	19.9	-93.9	0.0
2025-01-22 07:56:36.663657	2.9	20.0	-93.1	0.0
2025-01-22 07:56:37.668651	2.8	20.1	-93.2	0.0
2025-01-22 07:56:38.673498	2.7	20.2	-93.7	0.0
2025-01-22 07:56:39.678368	2.6	20.4	-93.1	0.0
2025-01-22 07:56:40.683428	2.5	20.5	-92.8	0.0
2025-01-22 07:56:41.688689	2.4	20.6	-93.7	0.0
2025-01-22 07:56:42.693325	2.3	20.7	-93.2	0.0
2025-01-22 07:56:43.698134	2.2	20.8	-93.3	0.0
2025-01-22 07:56:44.702722	2.0	21.0	-93.5	0.0
2025-01-22 07:56:45.707069	1.9	21.1	-93.3	0.0
2025-01-22 07:56:46.711628	1.8	21.2	-92.6	0.0
2025-01-22 07:56:47.716142	1.7	21.3	-93.3	0.0
2025-01-22 07:56:48.720550	1.6	21.5	-93.1	0.0
2025-01-22 07:56:49.725223	1.5	21.6	-93.3	0.0
2025-01-22 07:56:50.730000	1.4	21.7	-92.8	0.0
2025-01-22 07:56:51.735382	1.3	21.8	-93.4	0.0
2025-01-22 07:56:52.740323	1.2	22.0	-93.5	0.0
2025-01-22 07:56:53.745180	1.1	22.1	-92.5	0.0
2025-01-22 07:56:54.749997	0.9	22.2	-93.5	0.0
2025-01-22 07:56:55.754773	0.8	22.3	-93.4	0.0
2025-01-22 07:56:56.760009	0.7	22.5	-93.5	0.0
2025-01-22 07:56:57.764288	0.6	22.6	-93.6	0.0
2025-01-22 07:56:58.769228	0.5	22.7	-93.7	0.0
2025-01-22 07:56:59.773675	0.4	22.9	-92.7	0.0
2025-01-22 07:57:00.778988	0.2	23.0	-93.1	0.0
2025-01-22 07:57:01.784651	0.1	23.1	-93.4	0.0
2025-01-22 07:57:02.793734	360.0	23.2	-93.5	0.0
2025-01-22 07:57:03.798224	359.9	23.4	-93.6	0.0
2025-01-22 07:57:04.803042	359.7	23.5	-93.0	0.0
2025-01-22 07:57:05.807247	359.6	23.6	-93.5	0.0
2025-01-22 07:57:06.811303	359.5	23.8	-93.5	0.0
2025-01-22 07:57:07.816056	359.4	23.9	-92.5	0.0
2025-01-22 07:57:08.820324	359.2	24.0	-93.4	0.0
2025-01-22 07:57:09.824966	359.1	24.2	-93.3	0.0
2025-01-22 07:57:10.829733	359.0	24.3	-93.0	0.0
2025-01-22 07:57:11.834119	358.8	24.4	-93.7	0.0
2025-01-22 07:57:12.838296	358.7	24.6	-93.6	0.0
2025-01-22 07:57:13.842883	358.6	24.7	-93.7	0.0
2025-01-22 07:57:14.847151	358.4	24.9	-93.3	0.0
2025-01-22 07:57:15.852037	358.3	25.0	-93.6	0.0
2025-01-22 07:57:16.856591	358.2	25.1	-93.6	0.0
2025-01-22 07:57:17.860919	358.0	25.3	-93.1	0.0
2025-01-22 07:57:18.865505	357.9	25.4	-93.4	0.0
2025-01-22 07:57:19.870108	357.7	25.5	-93.8	0.0
2025-01-22 07:57:20.874869	357.6	25.7	-93.0	0.0
2025-01-22 07:57:21.880517	357.5	25.8	-93.2	0.0
2025-01-22 07:57:22.885006	357.3	26.0	-93.8	0.0
2025-01-22 07:57:23.889858	357.2	26.1	-93.1	0.0
2025-01-22 07:57:24.894869	357.0	26.3	-93.0	0.0
2025-01-22 07:57:25.899300	356.9	26.4	-93.7	0.0
2025-01-22 07:57:26.903942	356.7	26.5	-93.1	0.0
2025-01-22 07:57:27.909080	356.6	26.7	-92.9	0.0
2025-01-22 07:57:28.913879	356.4	26.8	-93.6	0.0
2025-01-22 07:57:29.918616	356.3	27.0	-92.9	0.0
2025-01-22 07:57:30.923225	356.1	27.1	-93.3	0.0
2025-01-22 07:57:31.928812	355.9	27.3	-94.0	0.0
2025-01-22 07:57:32.933718	355.8	27.4	-93.3	0.0
2025-01-22 07:57:33.938105	355.6	27.6	-92.8	0.0
2025-01-22 07:57:34.943108	355.5	27.7	-93.5	0.0
2025-01-22 07:57:35.947436	355.3	27.9	-93.4	0.0
2025-01-22 07:57:36.953110	355.1	28.0	-92.9	0.0
2025-01-22 07:57:37.957775	355.0	28.2	-93.6	0.0
2025-01-22 07:57:38.961982	354.8	28.3	-93.3	0.0
2025-01-22 07:57:39.966148	354.6	28.5	-92.8	0.0
2025-01-22 07:57:40.970075	354.5	28.6	-93.6	0.0
2025-01-22 07:57:41.975693	354.3	28.8	-93.2	0.0
2025-01-22 07:57:42.980782	354.1	28.9	-93.1	0.0
2025-01-22 07:57:43.985689	353.9	29.1	-93.5	0.0
2025-01-22 07:57:44.990406	353.7	29.2	-93.3	0.0
2025-01-22 07:57:45.995264	353.6	29.4	-92.8	0.0
2025-01-22 07:57:46.999442	353.4	29.5	-93.4	0.0
2025-01-22 07:57:48.003846	353.2	29.7	-93.7	0.0
2025-01-22 07:57:49.008513	353.0	29.8	-92.8	0.0
2025-01-22 07:57:50.013502	352.8	30.0	-93.8	0.0
2025-01-22 07:57:51.018878	352.6	30.1	-93.6	0.0
2025-01-22 07:57:52.023898	352.4	30.3	-93.0	0.0
2025-01-22 07:57:53.028712	352.3	30.5	-93.3	0.0
2025-01-22 07:57:54.033098	352.1	30.6	-93.4	0.0
2025-01-22 07:57:55.038765	351.9	30.8	-92.8	0.0
2025-01-22 07:57:56.043853	351.7	30.9	-93.6	0.0
2025-01-22 07:57:57.049857	351.5	31.1	-93.7	0.0
2025-01-22 07:57:58.054993	351.3	31.3	-92.8	0.0
2025-01-22 07:57:59.059501	351.0	31.4	-93.4	0.0
2025-01-22 07:58:00.064563	350.8	31.6	-93.6	0.0
2025-01-22 07:58:01.069061	350.6	31.7	-92.9	0.0
2025-01-22 07:58:02.073566	350.4	31.9	-93.4	0.0
2025-01-22 07:58:03.077731	350.2	32.1	-93.7	0.0
2025-01-22 07:58:04.081887	350.0	32.2	-92.9	0.0
2025-01-22 07:58:05.086351	349.8	32.4	-93.6	0.0
2025-01-22 07:58:06.091301	349.6	32.5	-94.0	0.0
2025-01-22 07:58:07.097281	349.3	32.7	-92.6	0.0
2025-01-22 07:58:08.101944	349.1	32.9	-93.4	0.0
2025-01-22 07:58:09.106651	348.9	33.0	-93.5	0.0
2025-01-22 07:58:10.111400	348.7	33.2	-93.2	0.0
2025-01-22 07:58:11.116514	348.4	33.4	-93.6	0.0
2025-01-22 07:58:12.122336	348.2	33.5	-93.6	0.0
2025-01-22 07:58:13.127534	347.9	33.7	-92.9	0.0
2025-01-22 07:58:14.132427	347.7	33.9	-93.0	0.0
2025-01-22 07:58:15.137204	347.5	34.0	-93.5	0.0
2025-01-22 07:58:16.142387	347.2	34.2	-93.0	0.0
2025-01-22 07:58:17.147576	347.0	34.4	-93.6	0.0
2025-01-22 07:58:18.152869	346.7	34.5	-93.9	0.0
2025-01-22 07:58:19.159340	346.5	34.7	-93.3	0.0
2025-01-22 07:58:20.164171	346.2	34.9	-93.0	0.0
2025-01-22 07:58:21.169387	346.0	35.0	-93.7	0.0
2025-01-22 07:58:22.175303	345.7	35.2	-93.2	0.0
2025-01-22 07:58:23.181256	345.4	35.4	-93.7	0.0
2025-01-22 07:58:24.185801	345.2	35.5	-93.0	0.0
2025-01-22 07:58:25.190521	344.9	35.7	-93.2	0.0
2025-01-22 07:58:26.195640	344.6	35.9	-94.0	0.0
2025-01-22 07:58:27.200350	344.4	36.0	-93.0	0.0
2025-01-22 07:58:28.205772	344.1	36.2	-93.3	0.0
2025-01-22 07:58:29.210031	343.8	36.4	-93.8	0.0
2025-01-22 07:58:30.214560	343.5	36.5	-93.1	0.0
2025-01-22 07:58:31.219867	343.2	36.7	-93.2	0.0
2025-01-22 07:58:32.224402	343.0	36.9	-93.9	0.0
2025-01-22 07:58:33.228563	342.7	37.0	-93.4	0.0
2025-01-22 07:58:34.232746	342.4	37.2	-93.5	0.0
2025-01-22 07:58:35.237758	342.1	37.4	-93.7	0.0
2025-01-22 07:58:36.244097	341.8	37.5	-93.0	0.0
2025-01-22 07:58:37.248114	341.5	37.7	-93.1	0.0
2025-01-22 07:58:38.253002	341.2	37.9	-93.7	0.0
2025-01-22 07:58:39.257644	340.9	38.1	-93.6	0.0
2025-01-22 07:58:40.262561	340.5	38.2	-93.3	0.0
2025-01-22 07:58:41.267700	340.2	38.4	-93.9	0.0
2025-01-22 07:58:42.272354	339.9	38.6	-93.4	0.0
2025-01-22 07:58:43.277623	339.6	38.7	-93.2	0.0
2025-01-22 07:58:44.282365	339.3	38.9	-93.5	0.0
2025-01-22 07:58:45.287189	338.9	39.1	-93.3	0.0
2025-01-22 07:58:46.292258	338.6	39.2	-92.8	0.0
2025-01-22 07:58:47.296892	338.3	39.4	-93.7	0.0
2025-01-22 07:58:48.301861	337.9	39.6	-93.3	0.0
2025-01-22 07:58:49.306424	337.6	39.7	-93.0	0.0
2025-01-22 07:58:50.311823	337.2	39.9	-93.6	0.0
2025-01-22 07:58:51.316472	336.9	40.1	-93.0	0.0
2025-01-22 07:58:52.321819	336.5	40.2	-92.8	0.0
2025-01-22 07:58:53.326996	336.2	40.4	-93.9	0.0
2025-01-22 07:58:54.335225	335.8	40.5	-93.3	0.0
2025-01-22 07:58:55.340705	335.4	40.7	-93.0	0.0
2025-01-22 07:58:56.346028	335.1	40.9	-93.8	0.0
2025-01-22 07:58:57.351694	334.7	41.0	-93.4	0.0
2025-01-22 07:58:58.356641	334.3	41.2	-92.8	0.0
2025-01-22 07:58:59.361150	333.9	41.4	-93.6	0.0
2025-01-22 07:59:00.365853	333.6	41.5	-93.1	0.0
2025-01-22 07:59:01.370252	333.2	41.7	-93.0	0.0
2025-01-22 07:59:02.374483	332.8	41.8	-93.6	0.0
2025-01-22 07:59:03.378501	332.4	42.0	-93.4	0.0
2025-01-22 07:59:04.383126	332.0	42.1	-92.9	0.0
2025-01-22 07:59:05.387812	331.6	42.3	-93.6	0.0
2025-01-22 07:59:06.392622	331.2	42.5	-93.7	0.0
2025-01-22 07:59:07.396858	330.8	42.6	-92.8	0.0
2025-01-22 07:59:08.401757	330.4	42.8	-93.8	0.0
2025-01-22 07:59:09.405690	329.9	42.9	-93.5	0.0
2025-01-22 07:59:10.410115	329.5	43.1	-92.8	0.0
2025-01-22 07:59:11.414924	329.1	43.2	-93.3	0.0
2025-01-22 07:59:12.419771	328.7	43.4	-94.0	0.0
2025-01-22 07:59:13.425085	328.2	43.5	-92.9	0.0
2025-01-22 07:59:14.429854	327.8	43.7	-93.5	0.0
2025-01-22 07:59:15.436498	327.3	43.8	-93.6	0.0
2025-01-22 07:59:16.440727	326.9	43.9	-93.2	0.0
2025-01-22 07:59:17.444857	326.4	44.1	-93.2	0.0
2025-01-22 07:59:18.448813	326.0	44.2	-93.7	0.0
2025-01-22 07:59:19.452925	325.5	44.4	-93.0	0.0
2025-01-22 07:59:20.458390	325.1	44.5	-93.1	0.0
2025-01-22 07:59:21.463232	324.6	44.6	-93.8	0.0
2025-01-22 07:59:22.468194	324.1	44.8	-93.8	0.0
2025-01-22 07:59:23.472987	323.7	44.9	-93.3	0.0
2025-01-22 07:59:24.478084	323.2	45.0	-93.9	0.0
2025-01-22 07:59:25.482151	322.7	45.1	-92.7	0.0
2025-01-22 07:59:26.486640	322.2	45.3	-92.9	0.0
2025-01-22 07:59:27.491112	321.7	45.4	-93.4	0.0
2025-01-22 07:59:28.495478	321.2	45.5	-94.0	0.0
2025-01-22 07:59:29.500180	320.7	45.6	-93.2	0.0
2025-01-22 07:59:30.505187	320.2	45.8	-93.0	0.0
2025-01-22 07:59:31.510633	319.7	45.9	-94.0	0.0
2025-01-22 07:59:32.515518	319.2	46.0	-93.2	0.0
2025-01-22 07:59:33.520914	318.7	46.1	-93.2	0.0
2025-01-22 07:59:34.525287	318.2	46.2	-93.7	0.0
2025-01-22 07:59:35.529978	317.7	46.3	-93.0	0.0
2025-01-22 07:59:36.534897	317.2	46.4	-92.9	0.0
2025-01-22 07:59:37.540147	316.6	46.5	-93.8	0.0
2025-01-22 07:59:38.545696	316.1	46.6	-93.3	0.0
2025-01-22 07:59:39.550046	315.6	46.7	-93.7	0.0
2025-01-22 07:59:40.554816	315.0	46.8	-93.7	0.0
2025-01-22 07:59:41.559920	314.5	46.9	-93.4	0.0
2025-01-22 07:59:42.564910	313.9	47.0	-93.2	0.0
2025-01-22 07:59:43.570241	313.4	47.1	-93.2	0.0
2025-01-22 07:59:44.574898	312.9	47.2	-92.9	0.0
2025-01-22 07:59:45.580739	312.3	47.2	-93.8	0.0
2025-01-22 07:59:46.585726	311.7	47.3	-93.3	0.0
2025-01-22 07:59:47.590495	311.2	47.4	-92.9	0.0
2025-01-22 07:59:48.595463	310.6	47.5	-93.6	0.0
2025-01-22 07:59:49.599878	310.1	47.5	-93.1	0.0
2025-01-22 07:59:50.604630	309.5	47.6	-93.0	0.0
2025-01-22 07:59:51.609622	308.9	47.7	-93.7	0.0
2025-01-22 07:59:52.614738	308.4	47.7	-93.2	0.0
2025-01-22 07:59:53.619259	307.8	47.8	-93.4	0.0
2025-01-22 07:59:54.623862	307.2	47.8	-93.7	0.0
2025-01-22 07:59:55.628985	306.6	47.9	-93.6	0.0
2025-01-22 07:59:56.633864	306.1	47.9	-93.0	0.0
2025-01-22 07:59:57.639499	305.5	48.0	-93.7	0.0
2025-01-22 07:59:58.644782	304.9	48.0	-93.3	0.0
2025-01-22 07:59:59.649327	304.3	48.1	-93.0	0.0
2025-01-22 08:00:00.653618	303.7	48.1	-93.6	0.0
2025-01-22 08:00:01.659192	303.2	48.1	-93.9	0.0
2025-01-22 08:00:02.665598	302.6	48.2	-93.2	0.0
2025-01-22 08:00:03.670833	302.0	48.2	-93.4	0.0
2025-01-22 08:00:04.675197	301.4	48.2	-93.1	0.0
2025-01-22 08:00:05.679884	300.8	48.2	-92.8	0.0
2025-01-22 08:00:06.684626	300.2	48.2	-93.5	0.0
2025-01-22 08:00:07.690002	299.6	48.3	-93.7	0.0
2025-01-22 08:00:08.695541	299.0	48.3	-92.8	0.0
2025-01-22 08:00:09.701022	298.4	48.3	-93.7	0.0
2025-01-22 08:00:10.705417	297.9	48.3	-93.6	0.0
2025-01-22 08:00:11.709957	297.3	48.3	-92.6	0.0
2025-01-22 08:00:12.715669	296.7	48.3	-93.4	0.0
2025-01-22 08:00:13.722903	296.1	48.3	-93.6	0.0
2025-01-22 08:00:14.727291	295.5	48.3	-93.0	0.0
2025-01-22 08:00:15.731821	294.9	48.2	-93.5	0.0
2025-01-22 08:00:16.736961	294.3	48.2	-93.6	0.0
2025-01-22 08:00:17.742487	293.7	48.2	-92.7	0.0
2025-01-22 08:00:18.747856	293.1	48.2	-93.5	0.0
2025-01-22 08:00:19.752766	292.5	48.2	-93.7	0.0
2025-01-22 08:00:20.757768	292.0	48.1	-93.0	0.0
2025-01-22 08:00:21.762198	291.4	48.1	-93.7	0.0
2025-01-22 08:00:22.766682	290.8	48.1	-93.7	0.0
2025-01-22 08:00:23.772317	290.2	48.0	-92.7	0.0
2025-01-22 08:00:24.777146	289.6	48.0	-93.3	0.0
2025-01-22 08:00:25.781748	289.0	47.9	-93.7	0.0
2025-01-22 08:00:26.786370	288.5	47.9	-93.1	0.0
2025-01-22 08:00:27.791235	287.9	47.8	-93.0	0.0
2025-01-22 08:00:28.796692	287.3	47.8	-93.7	0.0
2025-01-22 08:00:29.801499	286.7	47.7	-93.3	0.0
2025-01-22 08:00:30.805945	286.2	47.7	-93.2	0.0
2025-01-22 08:00:31.810647	285.6	47.6	-93.9	0.0
2025-01-22 08:00:32.815095	285.0	47.5	-93.1	0.0
2025-01-22 08:00:33.820460	284.5	47.5	-93.1	0.0
2025-01-22 08:00:34.825392	283.9	47.4	-94.1	0.0
2025-01-22 08:00:35.832071	283.4	47.3	-93.3	0.0
2025-01-22 08:00:36.836565	282.8	47.2	-93.5	0.0
2025-01-22 08:00:37.841477	282.3	47.1	-93.9	0.0
2025-01-22 08:00:38.847112	281.7	47.1	-93.3	0.0
2025-01-22 08:00:39.851885	281.2	47.0	-92.9	0.0
2025-01-22 08:00:40.855950	280.6	46.9	-93.9	0.0
2025-01-22 08:00:41.859996	280.1	46.8	-93.1	0.0
2025-01-22 08:00:42.863907	279.5	46.7	-93.4	0.0
2025-01-22 08:00:43.868908	279.0	46.6	-93.7	0.0
2025-01-22 08:00:44.873256	278.5	46.5	-93.3	0.0
2025-01-22 08:00:45.877703	278.0	46.4	-93.3	0.0
2025-01-22 08:00:46.882610	277.4	46.3	-93.8	0.0
2025-01-22 08:00:47.887827	276.9	46.2	-93.3	0.0
2025-01-22 08:00:48.894091	276.4	46.1	-93.2	0.0
2025-01-22 08:00:49.898755	275.9	46.0	-94.2	0.0
2025-01-22 08:00:50.903247	275.4	45.9	-93.4	0.0
2025-01-22 08:00:51.908069	274.9	45.7	-93.1	0.0
2025-01-22 08:00:52.913407	274.4	45.6	-93.9	0.0
2025-01-22 08:00:53.919102	273.9	45.5	-93.4	0.0
2025-01-22 08:00:54.924389	273.4	45.4	-92.9	0.0
2025-01-22 08:00:55.929654	272.9	45.3	-93.7	0.0
2025-01-22 08:00:56.934772	272.4	45.1	-93.3	0.0
2025-01-22 08:00:57.939809	271.9	45.0	-93.1	0.0
2025-01-22 08:00:58.945152	271.5	44.9	-93.7	0.0
2025-01-22 08:00:59.950198	271.0	44.7	-93.6	0.0
2025-01-22 08:01:00.955692	270.5	44.6	-93.1	0.0
2025-01-22 08:01:01.960026	270.0	44.5	-93.6	0.0
2025-01-22 08:01:02.965008	269.6	44.3	-93.4	0.0
2025-01-22 08:01:03.970374	269.1	44.2	-93.1	0.0
2025-01-22 08:01:04.975163	268.7	44.1	-93.6	0.0
2025-01-22 08:01:05.980010	268.2	43.9	-93.6	0.0
2025-01-22 08:01:06.984743	267.8	43.8	-92.8	0.0
2025-01-22 08:01:07.989636	267.3	43.6	-93.6	0.0
2025-01-22 08:01:08.994972	266.9	43.5	-93.5	0.0
2025-01-22 08:01:09.999080	266.5	43.3	-93.2	0.0
2025-01-22 08:01:11.003343	266.0	43.2	-93.2	0.0
2025-01-22 08:01:12.008152	265.6	43.1	-93.7	0.0
2025-01-22 08:01:13.012519	265.2	42.9	-92.8	0.0
2025-01-22 08:01:14.018021	264.8	42.7	-93.6	0.0
2025-01-22 08:01:15.022320	264.3	42.6	-93.7	0.0
2025-01-22 08:01:16.026975	263.9	42.4	-92.9	0.0
2025-01-22 08:01:17.032295	263.5	42.3	-93.4	0.0
2025-01-22 08:01:18.037231	263.1	42.1	-93.5	0.0
2025-01-22 08:01:19.042204	262.7	42.0	-92.8	0.0
2025-01-22 08:01:20.046622	262.3	41.8	-93.5	0.0
2025-01-22 08:01:21.050819	261.9	41.7	-93.5	0.0
2025-01-22 08:01:22.055302	261.6	41.5	-93.0	0.0
2025-01-22 08:01:23.059907	261.2	41.3	-93.5	0.0
2025-01-22 08:01:24.065299	260.8	41.2	-94.1	0.0
2025-01-22 08:01:25.070051	260.4	41.0	-92.9	0.0
2025-01-22 08:01:26.075051	260.0	40.9	-93.3	0.0
2025-01-22 08:01:27.080740	259.7	40.7	-93.6	0.0
2025-01-22 08:01:28.085559	259.3	40.5	-93.0	0.0
2025-01-22 08:01:29.090693	258.9	40.4	-93.5	0.0
2025-01-22 08:01:30.095857	258.6	40.2	-94.0	0.0
2025-01-22 08:01:31.100250	258.2	40.0	-92.8	0.0
2025-01-22 08:01:32.105834	257.9	39.9	-93.4	0.0
2025-01-22 08:01:33.111218	257.5	39.7	-93.5	0.0
2025-01-22 08:01:34.116300	257.2	39.5	-93.1	0.0
2025-01-22 08:01:35.121132	256.9	39.4	-93.6	0.0
2025-01-22 08:01:36.126139	256.5	39.2	-93.9	0.0
2025-01-22 08:01:37.131370	256.2	39.0	-93.6	0.0
2025-01-22 08:01:38.136427	255.9	38.9	-93.3	0.0
2025-01-22 08:01:39.141343	255.5	38.7	-94.0	0.0
2025-01-22 08:01:40.146297	255.2	38.5	-93.2	0.0
2025-01-22 08:01:41.151236	254.9	38.4	-93.2	0.0
2025-01-22 08:01:42.156501	254.6	38.2	-93.2	0.0
2025-01-22 08:01:43.161481	254.3	38.0	-93.3	0.0
2025-01-22 08:01:44.166296	254.0	37.9	-93.9	0.0
2025-01-22 08:01:45.171166	253.6	37.7	-94.0	0.0
2025-01-22 08:01:46.176658	253.3	37.5	-93.3	0.0
2025-01-22 08:01:47.181229	253.0	37.4	-93.8	0.0
2025-01-22 08:01:48.186907	252.7	37.2	-92.9	0.0
2025-01-22 08:01:49.191434	252.5	37.0	-93.0	0.0
2025-01-22 08:01:50.195870	252.2	36.9	-94.1	0.0
2025-01-22 08:01:51.200441	251.9	36.7	-93.3	0.0
2025-01-22 08:01:52.206296	251.6	36.5	-93.5	0.0
2025-01-22 08:01:53.211469	251.3	36.4	-94.0	0.0
2025-01-22 08:01:54.216107	251.0	36.2	-93.1	0.0
2025-01-22 08:01:55.220261	250.8	36.0	-93.5	0.0
2025-01-22 08:01:56.224564	250.5	35.8	-94.1	0.0
2025-01-22 08:01:57.229666	250.2	35.7	-93.6	0.0
2025-01-22 08:01:58.234103	249.9	35.5	-93.2	0.0
2025-01-22 08:01:59.238614	249.7	35.3	-93.2	0.0
2025-01-22 08:02:00.243034	249.4	35.2	-93.5	0.0
2025-01-22 08:02:01.247374	249.2	35.0	-93.6	0.0
2025-01-22 08:02:02.252387	248.9	34.8	-92.7	0.0
2025-01-22 08:02:03.257592	248.6	34.7	-93.9	0.0
2025-01-22 08:02:04.264384	248.4	34.5	-92.9	0.0
2025-01-22 08:02:05.268970	248.1	34.3	-93.9	0.0
2025-01-22 08:02:06.273336	247.9	34.2	-93.3	0.0
2025-01-22 08:02:07.277696	247.7	34.0	-93.6	0.0
2025-01-22 08:02:08.282405	247.4	33.8	-92.8	0.0
2025-01-22 08:02:09.288973	247.2	33.7	-93.4	0.0
2025-01-22 08:02:10.293754	246.9	33.5	-92.9	0.0
2025-01-22 08:02:11.298076	246.7	33.3	-93.8	0.0
2025-01-22 08:02:12.302482	246.5	33.2	-93.8	0.0
2025-01-22 08:02:13.307299	246.2	33.0	-93.7	0.0
2025-01-22 08:02:14.311901	246.0	32.9	-92.8	0.0
2025-01-22 08:02:15.319032	245.8	32.7	-93.6	0.0
2025-01-22 08:02:16.323174	245.6	32.5	-93.0	0.0
2025-01-22 08:02:17.327908	245.3	32.4	-93.8	0.0
2025-01-22 08:02:18.332294	245.1	32.2	-93.4	0.0
2025-01-22 08:02:19.337022	244.9	32.0	-93.5	0.0
2025-01-22 08:02:20.341910	244.7	31.9	-93.9	0.0
2025-01-22 08:02:21.346385	244.5	31.7	-93.3	0.0
2025-01-22 08:02:22.351430	244.3	31.6	-94.0	0.0
2025-01-22 08:02:23.355804	244.1	31.4	-92.9	0.0
2025-01-22 08:02:24.360079	243.9	31.2	-93.6	0.0
2025-01-22 08:02:25.364090	243.7	31.1	-93.7	0.0
2025-01-22 08:02:26.368874	243.5	30.9	-93.3	0.0
2025-01-22 08:02:27.373657	243.3	30.8	-93.3	0.0
2025-01-22 08:02:28.378355	243.1	30.6	-93.9	0.0
2025-01-22 08:02:29.383681	242.9	30.4	-92.9	0.0
2025-01-22 08:02:30.388574	242.7	30.3	-93.6	0.0
2025-01-22 08:02:31.393519	242.5	30.1	-93.5	0.0
2025-01-22 08:02:32.397936	242.3	30.0	-93.3	0.0
2025-01-22 08:02:33.402534	242.1	29.8	-93.5	0.0
2025-01-22 08:02:34.407754	241.9	29.7	-93.9	0.0
2025-01-22 08:02:35.413195	241.7	29.5	-92.9	0.0
2025-01-22 08:02:36.417584	241.5	29.4	-93.5	0.0
2025-01-22 08:02:37.422237	241.4	29.2	-94.1	0.0
2025-01-22 08:02:38.428163	241.2	29.1	-93.3	0.0
2025-01-22 08:02:39.432865	241.0	28.9	-93.3	0.0
2025-01-22 08:02:40.438763	240.8	28.7	-93.8	0.0
2025-01-22 08:02:41.443228	240.7	28.6	-93.1	0.0
2025-01-22 08:02:42.450576	240.5	28.4	-93.6	0.0
2025-01-22 08:02:43.454840	240.3	28.3	-93.1	0.0
2025-01-22 08:02:44.458966	240.1	28.1	-93.6	0.0
2025-01-22 08:02:45.463474	240.0	28.0	-93.0	0.0
2025-01-22 08:02:46.467903	239.8	27.8	-93.9	0.0
2025-01-22 08:02:47.473090	239.6	27.7	-93.1	0.0
2025-01-22 08:02:48.477524	239.5	27.6	-93.3	0.0
2025-01-22 08:02:49.482100	239.3	27.4	-94.0	0.0
2025-01-22 08:02:50.488053	239.2	27.3	-93.3	0.0
2025-01-22 08:02:51.492416	239.0	27.1	-93.3	0.0
2025-01-22 08:02:52.496720	238.8	27.0	-93.6	0.0
2025-01-22 08:02:53.501477	238.7	26.8	-93.0	0.0
2025-01-22 08:02:54.505931	238.5	26.7	-92.7	0.0
2025-01-22 08:02:55.511882	238.4	26.5	-93.8	0.0
2025-01-22 08:02:56.516062	238.2	26.4	-93.4	0.0
2025-01-22 08:02:57.520077	238.1	26.2	-93.2	0.0
2025-01-22 08:02:58.524849	237.9	26.1	-94.0	0.0
2025-01-22 08:02:59.529834	237.8	26.0	-93.3	0.0
2025-01-22 08:03:00.535341	237.6	25.8	-92.9	0.0
2025-01-22 08:03:01.539476	237.5	25.7	-93.9	0.0
2025-01-22 08:03:02.543576	237.4	25.5	-93.5	0.0
2025-01-22 08:03:03.548375	237.2	25.4	-93.3	0.0
2025-01-22 08:03:04.552853	237.1	25.3	-93.7	0.0
2025-01-22 08:03:05.557048	236.9	25.1	-93.5	0.0
2025-01-22 08:03:06.561111	236.8	25.0	-92.8	0.0
2025-01-22 08:03:07.565122	236.7	24.8	-93.6	0.0
2025-01-22 08:03:08.569558	236.5	24.7	-93.4	0.0
2025-01-22 08:03:09.573631	236.4	24.6	-93.1	0.0
2025-01-22 08:03:10.577703	236.3	24.4	-93.9	0.0
2025-01-22 08:03:11.582435	236.1	24.3	-93.8	0.0
2025-01-22 08:03:12.586771	236.0	24.2	-92.7	0.0
2025-01-22 08:03:13.590924	235.9	24.0	-93.7	0.0
2025-01-22 08:03:14.594770	235.7	23.9	-93.4	0.0
2025-01-22 08:03:15.598877	235.6	23.8	-92.9	0.0
2025-01-22 08:03:16.603597	235.5	23.6	-93.4	0.0
2025-01-22 08:03:17.609396	235.3	23.5	-93.4	0.0
2025-01-22 08:03:18.613700	235.2	23.4	-93.0	0.0
2025-01-22 08:03:19.618279	235.1	23.2	-92.7	0.0
2025-01-22 08:03:20.623402	235.0	23.1	-93.4	0.0
2025-01-22 08:03:21.627725	234.9	23.0	-93.7	0.0
2025-01-22 08:03:22.632278	234.7	22.8	-93.3	0.0
2025-01-22 08:03:23.638406	234.6	22.7	-93.8	0.0
2025-01-22 08:03:24.643455	234.5	22.6	-93.9	0.0
2025-01-22 08:03:25.648689	234.4	22.5	-93.5	0.0
2025-01-22 08:03:26.653086	234.3	22.3	-93.6	0.0
2025-01-22 08:03:27.657326	234.1	22.2	-93.0	0.0
2025-01-22 08:03:28.662005	234.0	22.1	-93.1	0.0
2025-01-22 08:03:29.666554	233.9	21.9	-93.4	0.0
2025-01-22 08:03:30.672256	233.8	21.8	-93.7	0.0
2025-01-22 08:03:31.677306	233.7	21.7	-93.2	0.0
2025-01-22 08:03:32.682006	233.6	21.6	-93.4	0.0
2025-01-22 08:03:33.687120	233.5	21.4	-94.0	0.0
2025-01-22 08:03:34.692166	233.4	21.3	-93.4	0.0
2025-01-22 08:03:35.697799	233.3	21.2	-93.9	0.0
2025-01-22 08:03:36.702230	233.2	21.1	-93.2	0.0
2025-01-22 08:03:37.707068	233.0	21.0	-93.1	0.0
2025-01-22 08:03:38.712188	232.9	20.8	-93.8	0.0
2025-01-22 08:03:39.716808	232.8	20.7	-93.1	0.0
2025-01-22 08:03:40.721953	232.7	20.6	-93.2	0.0
2025-01-22 08:03:41.726619	232.6	20.5	-93.8	0.0
2025-01-22 08:03:42.731085	232.5	20.3	-93.4	0.0
2025-01-22 08:03:43.735916	232.4	20.2	-93.0	0.0
2025-01-22 08:03:44.741075	232.3	20.1	-93.0	0.0
2025-01-22 08:03:45.746169	232.2	20.0	-93.0	0.0
2025-01-22 08:03:46.750870	232.1	19.9	-93.4	0.0
2025-01-22 08:03:47.755898	232.0	19.8	-93.1	0.0
2025-01-22 08:03:48.760480	231.9	19.6	-93.6	0.0
2025-01-22 08:03:49.765077	231.8	19.5	-93.4	0.0
2025-01-22 08:03:50.769847	231.7	19.4	-93.7	0.0
2025-01-22 08:03:51.775166	231.6	19.3	-94.1	0.0
2025-01-22 08:03:52.780008	231.5	19.2	-93.4	0.0
2025-01-22 08:03:53.784461	231.4	19.1	-94.0	0.0
2025-01-22 08:03:54.788936	231.4	18.9	-93.7	0.0
2025-01-22 08:03:55.793986	231.3	18.8	-93.2	0.0
2025-01-22 08:03:56.799314	231.2	18.7	-92.9	0.0
2025-01-22 08:03:57.804666	231.1	18.6	-93.1	0.0
2025-01-22 08:03:58.809676	231.0	18.5	-93.2	0.0
2025-01-22 08:03:59.814245	230.9	18.4	-94.1	0.0
2025-01-22 08:04:00.819572	230.8	18.3	-93.4	0.0
2025-01-22 08:04:01.824043	230.7	18.2	-93.5	0.0
2025-01-22 08:04:02.829117	230.6	18.0	-93.8	0.0
2025-01-22 08:04:03.834532	230.5	17.9	-93.4	0.0
2025-01-22 08:04:04.839645	230.5	17.8	-93.0	0.0
2025-01-22 08:04:05.844616	230.4	17.7	-93.4	0.0
2025-01-22 08:04:06.849571	230.3	17.6	-93.3	0.0
2025-01-22 08:04:07.854281	230.2	17.5	-93.0	0.0
2025-01-22 08:04:08.858786	230.1	17.4	-93.8	0.0
2025-01-22 08:04:09.863222	230.0	17.3	-93.8	0.0
2025-01-22 08:04:10.867970	230.0	17.2	-92.9	0.0
2025-01-22 08:04:11.872416	229.9	17.1	-93.7	0.0
2025-01-22 08:04:12.877170	229.8	17.0	-93.4	0.0
2025-01-22 08:04:13.882104	229.7	16.8	-92.7	0.0
2025-01-22 08:04:14.886361	229.6	16.7	-93.3	0.0
2025-01-22 08:04:15.890926	229.6	16.6	-93.6	0.0
2025-01-22 08:04:16.895140	229.5	16.5	-93.8	0.0
2025-01-22 08:04:17.899238	229.4	16.4	-92.9	0.0
2025-01-22 08:04:18.903640	229.3	16.3	-93.6	0.0
2025-01-22 08:04:19.908147	229.2	16.2	-93.6	0.0
2025-01-22 08:04:20.912959	229.2	16.1	-93.0	0.0
2025-01-22 08:04:21.917172	229.1	16.0	-93.6	0.0
2025-01-22 08:04:22.921890	229.0	15.9	-93.8	0.0
2025-01-22 08:04:23.926686	228.9	15.8	-93.0	0.0
2025-01-22 08:04:24.931335	228.9	15.7	-93.6	0.0
2025-01-22 08:04:25.936437	228.8	15.6	-93.9	0.0
2025-01-22 08:04:26.941395	228.7	15.5	-93.2	0.0
2025-01-22 08:04:27.946325	228.6	15.4	-93.3	0.0
2025-01-22 08:04:28.951849	228.6	15.3	-93.9	0.0
2025-01-22 08:04:29.956866	228.5	15.2	-93.2	0.0
2025-01-22 08:04:30.962467	228.4	15.1	-93.4	0.0
2025-01-22 08:04:31.966997	228.3	15.0	-93.9	0.0
2025-01-22 08:04:32.971537	228.3	14.9	-93.1	0.0
2025-01-22 08:04:33.975656	228.2	14.8	-93.1	0.0
2025-01-22 08:04:34.980240	228.1	14.7	-93.8	0.0
2025-01-22 08:04:35.984546	228.1	14.6	-93.2	0.0
2025-01-22 08:04:36.988753	228.0	14.5	-93.4	0.0
2025-01-22 08:04:37.992691	227.9	14.4	-93.8	0.0
2025-01-22 08:04:38.997704	227.9	14.3	-93.3	0.0
2025-01-22 08:04:40.002501	227.8	14.2	-93.1	0.0
2025-01-22 08:04:41.007722	227.7	14.1	-94.0	0.0
2025-01-22 08:04:42.012517	227.7	14.0	-93.3	0.0
2025-01-22 08:04:43.017586	227.6	13.9	-93.3	0.0
2025-01-22 08:04:44.022403	227.5	13.8	-94.0	0.0
2025-01-22 08:04:45.027304	227.5	13.7	-93.4	0.0
2025-01-22 08:04:46.033262	227.4	13.6	-93.3	0.0
2025-01-22 08:04:47.037926	227.3	13.5	-94.0	0.0
2025-01-22 08:04:48.043804	227.3	13.4	-93.3	0.0
2025-01-22 08:04:49.049034	227.2	13.4	-93.3	0.0
2025-01-22 08:04:50.054556	227.1	13.3	-93.9	0.0
2025-01-22 08:04:51.060238	227.1	13.2	-93.3	0.0
2025-01-22 08:04:52.064605	227.0	13.1	-93.0	0.0
2025-01-22 08:04:53.071197	227.0	13.0	-93.7	0.0
2025-01-22 08:04:54.076203	226.9	12.9	-93.3	0.0
2025-01-22 08:04:55.080684	226.8	12.8	-93.2	0.0
2025-01-22 08:04:56.085708	226.8	12.7	-93.9	0.0
2025-01-22 08:04:57.090715	226.7	12.6	-93.1	0.0
2025-01-22 08:04:58.095585	226.7	12.5	-92.9	0.0
2025-01-22 08:04:59.100329	226.6	12.4	-93.8	0.0
2025-01-22 08:05:00.104808	226.5	12.3	-93.4	0.0
2025-01-22 08:05:01.109434	226.5	12.2	-93.2	0.0
2025-01-22 08:05:02.114472	226.4	12.2	-93.7	0.0
2025-01-22 08:05:03.119354	226.4	12.1	-93.3	0.0
2025-01-22 08:05:04.124192	226.3	12.0	-92.8	0.0
2025-01-22 08:05:05.129601	226.2	11.9	-93.8	0.0
2025-01-22 08:05:06.133959	226.2	11.8	-93.7	0.0
2025-01-22 08:05:07.138829	226.1	11.7	-93.0	0.0
2025-01-22 08:05:08.144235	226.1	11.6	-93.8	0.0
2025-01-22 08:05:09.148976	226.0	11.5	-93.8	0.0
2025-01-22 08:05:10.153850	226.0	11.4	-92.9	0.0
2025-01-22 08:05:11.158781	225.9	11.4	-93.2	0.0
2025-01-22 08:05:12.163347	225.9	11.3	-93.5	0.0
2025-01-22 08:05:13.168360	225.8	11.2	-93.1	0.0
2025-01-22 08:05:14.172945	225.7	11.1	-93.8	0.0
2025-01-22 08:05:15.177776	225.7	11.0	-93.7	0.0
2025-01-22 08:05:16.182979	225.6	10.9	-93.0	0.0
2025-01-22 08:05:17.188699	225.6	10.8	-93.4	0.0
2025-01-22 08:05:18.193444	225.5	10.8	-93.4	0.0
2025-01-22 08:05:19.199103	225.5	10.7	-93.6	0.0
2025-01-22 08:05:20.203605	225.4	10.6	-93.6	0.0
2025-01-22 08:05:21.208807	225.4	10.5	-93.8	0.0
2025-01-22 08:05:22.214847	225.3	10.4	-93.7	0.0
2025-01-22 08:05:23.219333	225.3	10.3	-93.7	0.0
2025-01-22 08:05:24.224004	225.2	10.2	-94.0	0.0
2025-01-22 08:05:25.228879	225.2	10.2	-92.8	0.0
#Closed at: 2025-01-22 07:54:50.153606