passes_logs/2026/01/29/T1/T1__20260129_061309_FENGYUN_3E_rec.log

#Pass ID: 20260129_061309_FENGYUN 3E
#Satellite: FENGYUN 3E
#Configuration: FENGYUN 3E
#almurnet v.1.7.20251203
#Start time: 2026-01-29 06:13:10

#Version: 2.0.20230620
#Station: T1
#Location: 37.570604 lon 55.790049 lat
#TLE: 1 49008U 21062A   26027.97178348  .00000209  00000+0  11900-3 0  9990
#TLE: 2 49008  98.7501  32.9491 0002537 114.6782 245.4659 14.19888434236687

#Time	Az	El	Level	Level2	SNR	BER	BlckErr	Temp	State	Recorded	gain1	gain2
2026-01-29 06:13:10.98	2.96	5.09	-50.5	-61.3	3.8	8.47e-01	0	42	0	0	70	13171
2026-01-29 06:13:11.97	2.86	5.14	-50.5	-61.3	3.8	8.48e-01	0	42	104	0	71	12390
2026-01-29 06:13:12.96	2.76	5.19	-50.5	-61.3	3.8	8.47e-01	0	42	104	0	71	12420
2026-01-29 06:13:13.95	2.65	5.24	-50.5	-61.3	3.8	8.47e-01	0	42	104	0	71	12419
2026-01-29 06:13:14.94	2.55	5.29	-50.4	-61.3	3.8	8.47e-01	0	42	104	0	71	12396
2026-01-29 06:13:15.94	2.44	5.34	-50.5	-61.3	3.8	8.46e-01	0	42	104	0	71	12450
2026-01-29 06:13:16.93	2.34	5.39	-50.4	-61.3	3.8	8.48e-01	0	42	104	0	71	12397
2026-01-29 06:13:17.92	2.23	5.45	-50.4	-61.2	3.8	8.47e-01	0	42	104	0	71	12351
2026-01-29 06:13:18.92	2.12	5.50	-50.4	-61.3	3.8	8.47e-01	0	42	104	0	71	12399
2026-01-29 06:13:19.91	2.02	5.55	-50.3	-61.2	3.8	8.47e-01	0	42	104	0	71	12262
2026-01-29 06:13:20.90	1.91	5.60	-50.2	-61.2	3.8	8.48e-01	0	42	104	0	71	12358
2026-01-29 06:13:21.89	1.80	5.65	-50.2	-61.3	3.8	8.48e-01	0	42	104	0	69	13887
2026-01-29 06:13:22.89	1.69	5.70	-50.3	-61.3	3.8	8.46e-01	0	42	104	0	70	13124
2026-01-29 06:13:23.88	1.59	5.75	-49.8	-61.2	3.8	8.46e-01	0	42	104	0	70	13068
2026-01-29 06:13:24.87	1.48	5.81	-50.3	-61.2	3.8	8.48e-01	0	42	104	0	70	12963
2026-01-29 06:13:25.87	1.37	5.86	-50.1	-61.2	3.8	8.46e-01	0	42	104	0	69	13748
2026-01-29 06:13:26.86	1.26	5.91	-49.7	-61.2	3.8	8.46e-01	0	42	104	0	69	13741
2026-01-29 06:13:27.85	1.15	5.96	-50.2	-61.1	3.8	8.47e-01	0	42	104	0	70	12886
2026-01-29 06:13:28.84	1.04	6.01	-49.3	-61.1	3.8	8.47e-01	0	42	104	0	69	13679
2026-01-29 06:13:29.84	0.93	6.06	-49.9	-61.1	3.8	8.45e-01	0	42	104	0	69	13622
2026-01-29 06:13:30.83	0.81	6.11	-49.5	-61.0	3.8	8.47e-01	0	43	104	0	69	13504
2026-01-29 06:13:31.82	0.70	6.17	-48.8	-61.0	3.8	8.47e-01	0	42	104	0	68	14281
2026-01-29 06:13:32.82	0.59	6.22	-49.5	-60.9	3.8	8.48e-01	0	43	104	0	68	14179
2026-01-29 06:13:33.81	0.48	6.27	-45.1	-60.7	3.8	8.47e-01	0	43	104	0	60	21897
2026-01-29 06:13:34.80	0.37	6.32	-45.3	-60.7	3.8	8.48e-01	0	43	104	0	61	20564
2026-01-29 06:13:35.80	0.25	6.37	-45.4	-60.7	3.8	8.47e-01	0	43	104	0	61	20573
2026-01-29 06:13:36.79	0.14	6.42	-45.4	-60.7	3.8	8.46e-01	0	43	104	0	61	20555
2026-01-29 06:13:37.79	0.02	6.48	-45.4	-60.6	3.8	8.48e-01	0	43	104	0	61	20414
2026-01-29 06:13:38.78	359.91	6.53	-45.4	-60.6	3.8	8.46e-01	0	43	104	0	61	20531
2026-01-29 06:13:39.77	359.79	6.58	-45.3	-60.6	3.8	8.46e-01	0	43	104	0	61	20520
2026-01-29 06:13:40.77	359.68	6.63	-45.3	-60.6	3.8	8.48e-01	0	43	104	0	61	20332
2026-01-29 06:13:41.76	359.56	6.68	-45.5	-60.6	3.8	8.47e-01	0	43	104	0	61	20421
2026-01-29 06:13:42.75	359.45	6.73	-45.4	-60.5	3.8	8.47e-01	0	43	104	0	61	20284
2026-01-29 06:13:43.75	359.33	6.78	-45.5	-60.6	3.8	8.47e-01	0	43	104	0	61	20310
2026-01-29 06:13:44.74	359.21	6.83	-45.5	-60.6	3.8	8.48e-01	0	43	104	0	61	20340
2026-01-29 06:13:45.73	359.10	6.89	-45.4	-60.5	3.8	8.47e-01	0	43	104	0	61	20241
2026-01-29 06:13:46.72	358.98	6.94	-45.4	-60.6	3.8	8.46e-01	0	43	104	0	61	20370
2026-01-29 06:13:47.72	358.86	6.99	-45.4	-60.6	3.8	8.48e-01	0	43	104	0	61	20365
2026-01-29 06:13:48.71	358.74	7.04	-45.5	-60.5	3.8	8.48e-01	0	43	104	0	61	20287
2026-01-29 06:13:49.71	358.62	7.09	-45.5	-60.5	3.8	8.45e-01	0	43	104	0	61	20267
2026-01-29 06:13:50.70	358.50	7.14	-45.5	-60.5	3.8	8.47e-01	0	43	104	0	61	20269
2026-01-29 06:13:51.69	358.38	7.19	-45.6	-60.6	3.8	8.46e-01	0	43	104	0	61	20449
2026-01-29 06:13:52.69	358.26	7.25	-45.6	-60.6	3.8	8.46e-01	0	43	104	0	61	20353
2026-01-29 06:13:53.68	358.14	7.30	-45.5	-60.6	3.8	8.47e-01	0	43	104	0	61	20435
2026-01-29 06:13:54.67	358.02	7.35	-45.5	-60.5	3.8	8.49e-01	0	43	104	0	61	20281
2026-01-29 06:13:55.67	357.89	7.40	-45.4	-60.5	3.8	8.47e-01	0	43	104	0	61	20202
2026-01-29 06:13:56.66	357.77	7.45	-45.5	-60.6	3.8	8.47e-01	0	43	104	0	61	20318
2026-01-29 06:13:57.65	357.65	7.50	-45.5	-60.6	3.8	8.47e-01	0	43	104	0	61	20332
2026-01-29 06:13:58.65	357.53	7.55	-45.5	-60.6	3.8	8.47e-01	0	44	104	0	61	20309
2026-01-29 06:13:59.64	357.40	7.60	-45.5	-60.6	3.8	8.47e-01	0	43	104	0	61	20393
2026-01-29 06:14:00.63	357.28	7.66	-45.5	-60.6	3.8	8.48e-01	0	43	104	0	61	20314
2026-01-29 06:14:01.63	357.15	7.71	-45.5	-60.5	3.8	8.46e-01	0	44	104	0	61	20290
2026-01-29 06:14:02.62	357.03	7.76	-45.5	-60.5	3.8	8.47e-01	0	44	104	0	61	20175
2026-01-29 06:14:03.62	356.90	7.81	-45.5	-60.6	3.8	8.47e-01	0	43	104	0	61	20318
2026-01-29 06:14:04.61	356.78	7.86	-45.4	-60.5	3.8	8.47e-01	0	44	104	0	61	20123
2026-01-29 06:14:05.61	356.65	7.91	-45.4	-60.5	3.8	8.47e-01	0	44	104	0	61	20207
2026-01-29 06:14:06.60	356.52	7.96	-45.5	-60.4	3.8	8.47e-01	0	44	104	0	61	20060
2026-01-29 06:14:07.59	356.40	8.01	-45.5	-60.4	3.8	8.48e-01	0	44	104	0	61	19868
2026-01-29 06:14:08.59	356.27	8.06	-45.5	-60.5	3.8	8.47e-01	0	44	104	0	61	20268
2026-01-29 06:14:09.58	356.14	8.11	-45.5	-60.7	3.8	8.46e-01	0	44	104	0	61	20553
2026-01-29 06:14:10.57	356.01	8.17	-45.5	-60.6	3.8	8.49e-01	0	44	104	0	61	20396
2026-01-29 06:14:11.57	355.88	8.22	-45.5	-60.5	3.8	8.46e-01	0	44	104	0	61	20121
2026-01-29 06:14:12.56	355.75	8.27	-45.5	-60.1	3.8	8.48e-01	0	44	104	0	61	19259
2026-01-29 06:14:13.56	355.62	8.32	-45.4	-59.5	3.8	8.47e-01	0	44	104	0	61	18008
2026-01-29 06:14:14.55	355.49	8.37	-45.4	-58.9	3.8	8.47e-01	0	44	104	0	61	16822
2026-01-29 06:14:15.54	355.36	8.42	-45.3	-58.1	4.0	8.44e-01	0	44	104	0	61	15347
2026-01-29 06:14:16.54	355.23	8.47	-45.3	-57.5	4.1	8.42e-01	0	44	0	0	61	14227
2026-01-29 06:14:17.53	355.10	8.52	-45.2	-56.8	4.3	8.37e-01	0	44	0	0	61	13146
2026-01-29 06:14:18.52	354.96	8.57	-45.2	-56.2	4.5	8.25e-01	0	44	0	0	61	12282
2026-01-29 06:14:19.52	354.83	8.62	-45.1	-55.6	4.7	8.07e-01	0	44	0	0	61	11481
2026-01-29 06:14:20.51	354.70	8.67	-45.0	-55.0	5.1	7.80e-01	0	44	0	0	60	11315
2026-01-29 06:14:21.50	354.56	8.72	-44.9	-54.1	5.6	7.00e-01	0	44	0	0	60	10223
2026-01-29 06:14:22.50	354.43	8.77	-44.8	-53.1	6.4	3.17e-01	0	44	0	5242880	60	9085
2026-01-29 06:14:23.49	354.29	8.82	-44.7	-51.4	7.8	9.82e-02	0	44	0	12582912	59	7932
2026-01-29 06:14:24.49	354.16	8.87	-44.1	-49.5	9.7	1.93e-02	0	44	0	19922944	59	6415
2026-01-29 06:14:25.48	354.02	8.92	-43.6	-48.1	11.2	3.27e-03	0	44	0	27262976	58	5765
2026-01-29 06:14:26.47	353.89	8.97	-42.9	-46.5	12.9	6.29e-05	0	44	0	34603008	56	5393
2026-01-29 06:14:27.46	353.75	9.02	-42.0	-45.1	14.1	8.00e-06	0	44	0	41943040	54	5149
2026-01-29 06:14:28.46	353.61	9.07	-41.5	-44.2	15.1	0.00e+00	0	44	0	48234496	53	4917
2026-01-29 06:14:29.45	353.47	9.12	-43.8	-47.5	11.9	8.00e-06	0	44	0	55574528	57	5711
2026-01-29 06:14:30.48	353.33	9.17	-42.9	-45.8	13.4	6.24e-01	0	44	0	59768832	56	4977
2026-01-29 06:14:31.47	353.19	9.22	-40.1	-42.2	17.2	0.00e+00	0	44	0	67108864	49	4915
2026-01-29 06:14:32.47	353.05	9.27	-40.0	-42.0	17.3	1.10e-06	0	44	0	74448896	50	4530
2026-01-29 06:14:33.47	352.91	9.32	-38.7	-40.4	18.9	0.00e+00	0	44	0	81788928	48	4210
2026-01-29 06:14:34.46	352.77	9.37	-38.6	-40.3	19.0	0.00e+00	0	44	0	89128960	48	4160
2026-01-29 06:14:35.45	352.63	9.42	-38.6	-40.3	19.0	0.00e+00	0	44	0	95420416	48	4169
2026-01-29 06:14:36.45	352.49	9.47	-38.7	-40.3	19.0	0.00e+00	0	44	0	102760448	48	4182
2026-01-29 06:14:37.44	352.35	9.52	-38.7	-40.3	19.0	0.00e+00	0	44	0	110100480	48	4172
2026-01-29 06:14:38.44	352.21	9.57	-38.9	-40.4	18.9	0.00e+00	0	44	0	117440512	48	4231
2026-01-29 06:14:39.43	352.06	9.62	-39.0	-40.5	18.9	0.00e+00	0	44	0	124780544	48	4259
2026-01-29 06:14:40.43	351.92	9.67	-39.0	-40.5	18.9	0.00e+00	0	44	0	132120576	48	4260
2026-01-29 06:14:41.42	351.78	9.72	-39.1	-40.5	18.8	0.00e+00	0	44	0	138412032	48	4271
2026-01-29 06:14:42.42	351.63	9.77	-39.2	-40.6	18.7	0.00e+00	0	44	0	145752064	48	4319
2026-01-29 06:14:43.41	351.49	9.82	-39.2	-40.6	18.7	0.00e+00	0	44	0	153092096	48	4325
2026-01-29 06:14:44.41	351.34	9.87	-39.3	-40.6	18.7	0.00e+00	0	44	0	160432128	48	4338
2026-01-29 06:14:45.40	351.20	9.92	-39.5	-40.9	18.5	0.00e+00	0	44	0	167772160	48	4450
2026-01-29 06:14:46.40	351.05	9.96	-39.3	-40.6	18.7	0.00e+00	0	44	0	175112192	48	4334
2026-01-29 06:14:47.39	350.90	10.01	-39.3	-40.7	18.6	0.00e+00	0	44	0	182452224	48	4388
2026-01-29 06:14:48.45	350.75	10.07	-39.3	-40.7	18.6	0.00e+00	0	44	0	189792256	48	4391
2026-01-29 06:14:49.37	350.61	10.11	-39.2	-40.7	18.7	0.00e+00	0	44	0	196083712	48	4351
2026-01-29 06:14:50.49	350.44	10.16	-38.9	-40.5	18.9	0.00e+00	0	44	0	204472320	48	4249
2026-01-29 06:14:51.34	350.31	10.21	-39.1	-40.7	18.8	0.00e+00	0	44	0	210763776	48	4341
2026-01-29 06:14:52.48	350.14	10.26	-38.9	-40.5	18.9	0.00e+00	0	44	0	219152384	48	4262
2026-01-29 06:14:53.33	350.02	10.30	-38.9	-40.6	18.8	0.00e+00	0	44	0	225443840	48	4296
2026-01-29 06:14:54.47	349.84	10.36	-38.6	-40.3	19.1	0.00e+00	0	44	0	232783872	48	4149
2026-01-29 06:14:55.33	349.71	10.40	-38.4	-40.1	19.0	0.00e+00	0	44	0	239075328	47	4321
2026-01-29 06:14:56.46	349.54	10.45	-38.4	-40.1	19.0	0.00e+00	0	44	0	247463936	47	4309
2026-01-29 06:14:57.32	349.41	10.49	-38.4	-40.1	19.0	0.00e+00	0	44	0	253755392	47	4299
2026-01-29 06:14:58.46	349.23	10.55	-38.3	-39.9	19.2	0.00e+00	0	44	0	262144000	47	4226
2026-01-29 06:14:59.31	349.10	10.59	-38.4	-39.9	19.2	0.00e+00	0	44	0	268435456	47	4239
2026-01-29 06:15:00.45	348.93	10.64	-38.4	-39.9	19.2	0.00e+00	0	44	0	276824064	47	4224
2026-01-29 06:15:01.30	348.80	10.68	-38.4	-39.8	19.3	0.00e+00	0	44	0	282066944	47	4167
2026-01-29 06:15:02.44	348.62	10.74	-38.5	-39.9	19.2	0.00e+00	0	44	0	290455552	47	4207
2026-01-29 06:15:03.29	348.49	10.78	-38.5	-39.9	19.2	0.00e+00	0	44	0	296747008	47	4215
2026-01-29 06:15:04.60	348.28	10.84	-38.5	-39.9	19.2	0.00e+00	0	44	0	306184192	47	4230
2026-01-29 06:15:05.31	348.17	10.87	-38.5	-40.0	19.1	0.00e+00	0	44	0	311427072	47	4264
2026-01-29 06:15:06.59	347.97	10.93	-38.6	-40.1	19.1	0.00e+00	0	44	0	320864256	47	4305
2026-01-29 06:15:07.30	347.86	10.97	-38.6	-40.1	19.1	0.00e+00	0	44	0	326107136	47	4300
2026-01-29 06:15:08.58	347.65	11.03	-38.6	-40.1	19.1	0.00e+00	0	44	0	335544320	47	4302
2026-01-29 06:15:09.31	347.54	11.06	-38.5	-40.0	19.1	0.00e+00	0	44	0	340787200	47	4273
2026-01-29 06:15:10.59	347.33	11.12	-38.5	-40.0	19.2	0.00e+00	0	44	0	349175808	47	4248
2026-01-29 06:15:11.30	347.22	11.15	-38.4	-39.9	19.3	0.00e+00	0	44	0	354418688	47	4198
2026-01-29 06:15:12.58	347.01	11.21	-38.5	-39.9	19.3	0.00e+00	0	44	0	363855872	47	4213
2026-01-29 06:15:13.29	346.90	11.25	-38.5	-39.9	19.2	0.00e+00	0	44	0	369098752	47	4228
2026-01-29 06:15:14.57	346.69	11.31	-38.5	-40.0	19.2	0.00e+00	0	44	0	378535936	47	4247
2026-01-29 06:15:15.30	346.58	11.34	-38.3	-39.8	19.4	0.00e+00	0	44	0	383778816	47	4152
2026-01-29 06:15:16.57	346.37	11.40	-38.3	-39.7	19.4	0.00e+00	0	44	0	392167424	47	4142
2026-01-29 06:15:17.30	346.25	11.43	-38.2	-39.6	19.5	0.00e+00	0	44	0	398458880	47	4090
2026-01-29 06:15:18.58	346.04	11.49	-38.2	-39.6	19.5	0.00e+00	0	44	0	407896064	47	4082
2026-01-29 06:15:19.30	345.92	11.52	-38.3	-39.7	19.5	0.00e+00	0	44	0	412090368	47	4103
2026-01-29 06:15:20.63	345.70	11.58	-38.2	-39.5	19.7	0.00e+00	0	44	0	422576128	47	4008
2026-01-29 06:15:21.34	345.59	11.61	-38.3	-39.5	19.6	0.00e+00	0	44	0	426770432	47	4044
2026-01-29 06:15:22.62	345.37	11.67	-38.4	-39.6	19.5	0.00e+00	0	44	0	436207616	47	4079
2026-01-29 06:15:23.33	345.26	11.70	-38.4	-39.6	19.6	0.00e+00	0	44	0	441450496	47	4065
2026-01-29 06:15:24.79	345.01	11.77	-38.4	-39.6	19.6	0.00e+00	0	44	0	451936256	47	4068
2026-01-29 06:15:25.50	344.89	11.80	-38.4	-39.6	19.6	0.00e+00	0	44	0	457179136	47	4073
2026-01-29 06:15:26.87	344.66	11.86	-38.5	-39.6	19.5	0.00e+00	0	44	0	466616320	47	4093
2026-01-29 06:15:27.58	344.54	11.89	-38.5	-39.7	19.4	0.00e+00	0	44	0	472907776	47	4120
2026-01-29 06:15:28.86	344.33	11.95	-38.5	-39.7	19.5	0.00e+00	0	44	0	481296384	47	4120
2026-01-29 06:15:29.59	344.20	11.98	-38.5	-39.7	19.5	0.00e+00	0	44	0	486539264	47	4130
2026-01-29 06:15:30.86	343.99	12.03	-38.4	-39.6	19.6	0.00e+00	0	44	0	495976448	47	4064
2026-01-29 06:15:31.59	343.86	12.07	-38.5	-39.6	19.5	0.00e+00	0	44	0	501219328	47	4097
2026-01-29 06:15:32.87	343.64	12.12	-38.5	-39.7	19.5	0.00e+00	0	44	0	510656512	47	4111
2026-01-29 06:15:33.58	343.52	12.15	-38.4	-39.6	19.6	0.00e+00	0	44	0	515899392	47	4061
2026-01-29 06:15:35.14	343.25	12.22	-38.4	-39.6	19.6	0.00e+00	0	44	0	526385152	47	4068
2026-01-29 06:15:35.76	343.15	12.24	-38.5	-39.7	19.5	0.00e+00	0	44	0	531628032	47	4122
2026-01-29 06:15:37.50	342.85	12.32	-38.4	-39.6	19.6	0.00e+00	0	44	0	544210944	47	4078
2026-01-29 06:15:38.06	342.75	12.34	-38.4	-39.5	19.6	0.00e+00	0	44	0	547356672	47	4051
2026-01-29 06:15:39.77	342.45	12.41	-38.3	-39.4	19.7	0.00e+00	0	44	0	559939584	47	3999
2026-01-29 06:15:40.34	342.35	12.44	-38.2	-39.4	19.7	0.00e+00	0	44	0	564133888	47	3979
2026-01-29 06:15:42.04	342.05	12.51	-38.2	-39.3	19.8	0.00e+00	0	44	0	576716800	47	3958
2026-01-29 06:15:42.61	341.95	12.53	-38.1	-39.3	19.9	0.00e+00	0	44	0	580911104	47	3921
2026-01-29 06:15:44.31	341.65	12.60	-38.0	-39.1	20.0	0.00e+00	0	44	0	592445440	46	4093
2026-01-29 06:15:44.88	341.55	12.62	-38.0	-39.1	20.1	0.00e+00	0	44	0	597688320	46	4073
2026-01-29 06:15:46.59	341.25	12.69	-38.0	-39.2	20.0	0.00e+00	0	44	0	609222656	46	4114
2026-01-29 06:15:47.35	341.11	12.72	-38.0	-39.2	20.0	0.00e+00	0	44	0	614465536	46	4127
2026-01-29 06:15:48.63	340.88	12.78	-38.0	-39.2	20.0	0.00e+00	0	45	0	623902720	46	4120
2026-01-29 06:15:49.35	340.75	12.80	-38.1	-39.4	19.8	0.00e+00	0	44	0	629145600	46	4203
2026-01-29 06:15:50.63	340.52	12.86	-38.1	-39.3	19.9	0.00e+00	0	44	0	638582784	46	4162
2026-01-29 06:15:51.58	340.35	12.89	-38.2	-39.4	19.8	0.00e+00	0	44	0	645922816	46	4218
2026-01-29 06:15:52.57	340.17	12.93	-38.2	-39.3	19.8	0.00e+00	0	44	0	652214272	46	4191
2026-01-29 06:15:53.57	339.99	12.97	-38.2	-39.3	19.9	0.00e+00	0	44	0	659554304	46	4171
2026-01-29 06:15:54.56	339.81	13.01	-38.3	-39.4	19.8	0.00e+00	0	44	0	666894336	46	4203
2026-01-29 06:15:55.56	339.63	13.05	-38.3	-39.3	19.9	0.00e+00	0	44	0	674234368	46	4175
2026-01-29 06:15:56.55	339.45	13.09	-38.4	-39.4	19.7	0.00e+00	0	44	0	681574400	46	4240
2026-01-29 06:15:57.55	339.26	13.12	-38.3	-39.4	19.8	0.00e+00	0	44	0	688914432	46	4199
2026-01-29 06:15:58.54	339.08	13.16	-38.1	-39.2	20.0	0.00e+00	0	44	0	696254464	46	4109
2026-01-29 06:15:59.54	338.90	13.20	-38.0	-39.1	20.1	0.00e+00	0	44	0	702545920	46	4073
2026-01-29 06:16:00.55	338.71	13.24	-38.0	-39.1	20.0	0.00e+00	0	44	0	709885952	46	4081
2026-01-29 06:16:01.54	338.53	13.27	-38.1	-39.2	20.0	0.00e+00	0	44	0	717225984	46	4122
2026-01-29 06:16:02.54	338.34	13.31	-38.1	-39.2	20.0	0.00e+00	0	44	0	724566016	46	4106
2026-01-29 06:16:03.54	338.15	13.35	-38.0	-39.1	20.1	0.00e+00	0	44	0	731906048	46	4064
2026-01-29 06:16:04.53	337.97	13.38	-38.1	-39.1	20.0	0.00e+00	0	44	0	739246080	46	4093
2026-01-29 06:16:05.52	337.78	13.42	-38.0	-39.1	20.1	0.00e+00	0	44	0	745537536	46	4066
2026-01-29 06:16:06.52	337.60	13.46	-38.0	-39.1	20.1	0.00e+00	0	44	0	752877568	46	4056
2026-01-29 06:16:07.51	337.41	13.49	-38.1	-39.1	20.1	0.00e+00	0	44	0	760217600	46	4070
2026-01-29 06:16:08.51	337.22	13.53	-38.0	-39.1	20.1	0.00e+00	0	44	0	767557632	46	4069
2026-01-29 06:16:09.50	337.03	13.56	-38.1	-39.2	20.0	0.00e+00	0	44	0	774897664	46	4111
2026-01-29 06:16:10.50	336.84	13.60	-38.2	-39.3	19.9	0.00e+00	0	44	0	782237696	46	4149
2026-01-29 06:16:11.49	336.66	13.63	-38.1	-39.1	20.0	0.00e+00	0	44	0	789577728	46	4098
2026-01-29 06:16:12.49	336.47	13.67	-38.2	-39.3	19.9	0.00e+00	0	44	0	796917760	46	4146
2026-01-29 06:16:13.48	336.28	13.70	-38.1	-39.1	20.1	0.00e+00	0	44	0	803209216	46	4078
2026-01-29 06:16:14.48	336.09	13.73	-38.1	-39.1	20.1	0.00e+00	0	44	0	810549248	46	4063
2026-01-29 06:16:15.47	335.90	13.77	-38.0	-39.0	20.2	0.00e+00	0	44	0	817889280	46	4011
2026-01-29 06:16:16.47	335.70	13.80	-38.1	-39.1	20.1	0.00e+00	0	44	0	825229312	46	4066
2026-01-29 06:16:17.46	335.51	13.83	-38.0	-39.0	20.2	0.00e+00	0	44	0	832569344	46	4042
2026-01-29 06:16:18.45	335.32	13.87	-38.1	-39.1	20.1	0.00e+00	0	44	0	839909376	46	4067
2026-01-29 06:16:19.45	335.13	13.90	-38.0	-39.0	20.2	0.00e+00	0	44	0	846200832	46	4023
2026-01-29 06:16:20.44	334.94	13.93	-38.0	-39.0	20.2	0.00e+00	0	44	0	853540864	46	4042
2026-01-29 06:16:21.44	334.74	13.96	-38.1	-39.1	20.1	0.00e+00	0	44	0	860880896	46	4068
2026-01-29 06:16:22.43	334.55	13.99	-38.0	-39.1	20.2	0.00e+00	0	44	0	868220928	46	4053
2026-01-29 06:16:23.43	334.35	14.03	-38.2	-39.2	20.0	0.00e+00	0	44	0	875560960	46	4105
2026-01-29 06:16:24.42	334.16	14.06	-38.1	-39.1	20.1	0.00e+00	0	44	0	882900992	46	4098
2026-01-29 06:16:25.42	333.96	14.09	-38.0	-39.0	20.1	0.00e+00	0	44	0	889192448	46	4044
2026-01-29 06:16:26.41	333.77	14.12	-38.0	-39.0	20.2	0.00e+00	0	44	0	896532480	46	4028
2026-01-29 06:16:27.41	333.57	14.15	-38.0	-39.0	20.2	0.00e+00	0	44	0	903872512	46	4007
2026-01-29 06:16:28.40	333.38	14.18	-37.9	-38.9	20.3	0.00e+00	0	44	0	911212544	46	3993
2026-01-29 06:16:29.40	333.18	14.21	-37.9	-38.9	20.3	0.00e+00	0	44	0	918552576	46	3966
2026-01-29 06:16:30.39	332.98	14.24	-37.7	-38.7	20.5	0.00e+00	0	44	0	925892608	46	3897
2026-01-29 06:16:31.39	332.78	14.26	-37.8	-38.8	20.4	0.00e+00	0	44	0	933232640	46	3938
2026-01-29 06:16:32.49	332.57	14.30	-37.7	-38.7	20.5	0.00e+00	0	44	0	940572672	46	3901
2026-01-29 06:16:33.35	332.39	14.32	-37.6	-38.6	20.5	0.00e+00	0	44	0	946864128	45	4080
2026-01-29 06:16:34.69	332.13	14.36	-37.7	-38.6	20.5	0.00e+00	0	44	0	956301312	45	4095
2026-01-29 06:16:35.40	331.98	14.38	-37.6	-38.6	20.6	0.00e+00	0	44	0	961544192	45	4075
2026-01-29 06:16:36.68	331.73	14.41	-37.6	-38.6	20.5	0.00e+00	0	44	0	970981376	45	4079
2026-01-29 06:16:37.39	331.59	14.43	-37.7	-38.6	20.5	0.00e+00	0	44	0	976224256	45	4092
2026-01-29 06:16:38.67	331.33	14.47	-37.7	-38.7	20.5	0.00e+00	0	44	0	985661440	45	4106
2026-01-29 06:16:39.40	331.18	14.49	-37.7	-38.6	20.5	0.00e+00	0	44	0	990904320	45	4098
2026-01-29 06:16:40.67	330.92	14.52	-37.7	-38.7	20.5	0.00e+00	0	44	0	999292928	45	4120
2026-01-29 06:16:41.48	330.76	14.54	-37.7	-38.7	20.5	0.00e+00	0	44	0	1005584384	45	4107
2026-01-29 06:16:42.62	330.53	14.57	-37.7	-38.7	20.4	0.00e+00	0	44	0	1013972992	45	4142
2026-01-29 06:16:43.70	330.31	14.60	-37.6	-38.6	20.5	0.00e+00	0	44	0	1021313024	45	4081
2026-01-29 06:16:44.73	330.10	14.62	-37.7	-38.8	20.4	0.00e+00	0	44	0	1029701632	45	4150
2026-01-29 06:16:45.73	329.90	14.65	-37.7	-38.7	20.5	0.00e+00	0	44	0	1035993088	45	4101
2026-01-29 06:16:46.72	329.69	14.67	-37.5	-38.5	20.6	0.00e+00	0	44	0	1043333120	45	4030
2026-01-29 06:16:47.72	329.49	14.69	-37.4	-38.4	20.8	0.00e+00	0	44	0	1050673152	45	3962
2026-01-29 06:16:48.71	329.29	14.72	-37.3	-38.3	20.8	0.00e+00	0	44	0	1058013184	45	3923
2026-01-29 06:16:49.71	329.08	14.74	-37.3	-38.2	20.9	0.00e+00	0	44	0	1065353216	45	3903
2026-01-29 06:16:50.70	328.88	14.76	-37.3	-38.3	20.9	0.00e+00	0	44	0	1072693248	45	3930
2026-01-29 06:16:51.70	328.67	14.79	-37.3	-38.2	20.9	0.00e+00	0	44	0	1078984704	45	3899
2026-01-29 06:16:52.69	328.47	14.81	-37.3	-38.3	20.9	0.00e+00	0	44	0	1086324736	45	3926
2026-01-29 06:16:53.69	328.26	14.83	-37.3	-38.2	20.9	0.00e+00	0	44	0	1093664768	45	3896
2026-01-29 06:16:54.68	328.06	14.85	-37.3	-38.3	20.8	0.00e+00	0	44	0	1101004800	45	3930
2026-01-29 06:16:55.68	327.85	14.87	-37.3	-38.3	20.8	0.00e+00	0	44	0	1108344832	45	3938
2026-01-29 06:16:56.67	327.65	14.89	-37.3	-38.3	20.9	0.00e+00	0	44	0	1115684864	45	3919
2026-01-29 06:16:57.66	327.44	14.91	-37.3	-38.3	20.8	0.00e+00	0	44	0	1121976320	45	3936
2026-01-29 06:16:58.66	327.23	14.93	-37.3	-38.3	20.8	0.00e+00	0	44	0	1129316352	45	3946
2026-01-29 06:16:59.65	327.03	14.95	-37.4	-38.4	20.7	0.00e+00	0	44	0	1136656384	45	3997
2026-01-29 06:17:00.83	326.78	14.97	-37.3	-38.3	20.8	0.00e+00	0	44	0	1145044992	45	3945
2026-01-29 06:17:01.72	326.59	14.99	-37.3	-38.3	20.8	0.00e+00	0	44	0	1151336448	45	3950
2026-01-29 06:17:03.03	326.32	15.01	-37.3	-38.4	20.8	0.00e+00	0	44	0	1161822208	45	3964
2026-01-29 06:17:03.74	326.17	15.03	-37.4	-38.4	20.7	0.00e+00	0	44	0	1166016512	45	3981
2026-01-29 06:17:05.02	325.90	15.05	-37.3	-38.4	20.8	0.00e+00	0	44	0	1175453696	45	3970
2026-01-29 06:17:05.75	325.75	15.06	-37.3	-38.3	20.8	0.00e+00	0	44	0	1180696576	45	3955
2026-01-29 06:17:07.03	325.48	15.08	-37.1	-38.1	21.0	0.00e+00	0	44	0	1190133760	45	3868
2026-01-29 06:17:07.74	325.33	15.10	-37.1	-38.1	21.0	0.00e+00	0	44	0	1195376640	44	4080
2026-01-29 06:17:09.35	324.99	15.12	-37.1	-38.1	21.0	0.00e+00	0	44	0	1206910976	44	4095
2026-01-29 06:17:09.92	324.87	15.13	-37.1	-38.1	21.0	0.00e+00	0	44	0	1211105280	44	4082
2026-01-29 06:17:11.86	324.46	15.16	-37.1	-38.0	21.1	0.00e+00	0	44	0	1224736768	44	4043
2026-01-29 06:17:12.43	324.34	15.17	-37.1	-38.1	21.1	0.00e+00	0	44	0	1228931072	44	4065
2026-01-29 06:17:14.13	323.98	15.19	-37.1	-38.0	21.1	0.00e+00	0	44	0	1241513984	44	4025
2026-01-29 06:17:14.70	323.86	15.20	-37.1	-38.0	21.1	0.00e+00	0	44	0	1245708288	44	4043
2026-01-29 06:17:16.47	323.49	15.22	-37.2	-38.1	21.0	0.00e+00	0	44	0	1258291200	44	4079
2026-01-29 06:17:17.04	323.37	15.23	-37.1	-38.0	21.0	0.00e+00	0	44	0	1262485504	44	4051
2026-01-29 06:17:18.74	323.00	15.25	-37.3	-38.2	20.9	0.00e+00	0	44	0	1275068416	44	4117
2026-01-29 06:17:19.45	322.85	15.26	-37.3	-38.2	20.9	0.00e+00	0	44	0	1280311296	44	4139
2026-01-29 06:17:20.73	322.58	15.28	-37.3	-38.3	20.8	0.00e+00	0	44	0	1288699904	44	4161
2026-01-29 06:17:21.46	322.43	15.28	-37.3	-38.2	20.9	0.00e+00	0	44	0	1293942784	44	4144
2026-01-29 06:17:22.74	322.15	15.30	-37.2	-38.2	20.9	0.00e+00	0	44	0	1303379968	44	4118
2026-01-29 06:17:23.44	322.00	15.31	-37.2	-38.2	20.9	0.00e+00	0	44	0	1308622848	44	4100
2026-01-29 06:17:24.80	321.71	15.32	-37.2	-38.2	20.9	0.00e+00	0	44	0	1318060032	44	4129
2026-01-29 06:17:25.51	321.56	15.33	-37.2	-38.2	20.9	0.00e+00	0	44	0	1323302912	44	4101
2026-01-29 06:17:26.82	321.28	15.34	-37.0	-38.0	21.1	0.00e+00	0	44	0	1332740096	44	4027
2026-01-29 06:17:27.53	321.13	15.34	-37.0	-38.0	21.1	0.00e+00	0	44	0	1337982976	44	4041
2026-01-29 06:17:28.82	320.85	15.36	-37.1	-38.1	21.0	0.00e+00	0	44	0	1347420160	44	4066
2026-01-29 06:17:29.53	320.70	15.36	-37.1	-38.1	21.1	0.00e+00	0	44	0	1352663040	44	4058
2026-01-29 06:17:30.81	320.43	15.37	-37.1	-38.0	21.1	0.00e+00	0	44	0	1362100224	44	4042
2026-01-29 06:17:31.55	320.27	15.38	-37.0	-38.0	21.1	0.00e+00	0	44	0	1367343104	44	4012
2026-01-29 06:17:32.83	319.99	15.39	-37.1	-38.0	21.1	0.00e+00	0	44	0	1376780288	44	4044
2026-01-29 06:17:33.57	319.83	15.39	-37.1	-38.0	21.1	0.00e+00	0	44	0	1382023168	44	4021
2026-01-29 06:17:34.85	319.56	15.40	-37.0	-37.9	21.1	0.00e+00	0	44	0	1391460352	44	4002
2026-01-29 06:17:35.56	319.41	15.40	-37.0	-37.9	21.2	0.00e+00	0	44	0	1395654656	44	4001
2026-01-29 06:17:36.84	319.13	15.41	-37.1	-38.0	21.1	0.00e+00	0	44	0	1405091840	44	4039
2026-01-29 06:17:37.57	318.97	15.41	-37.1	-38.1	21.0	0.00e+00	0	44	0	1410334720	44	4066
2026-01-29 06:17:38.85	318.70	15.42	-37.0	-38.0	21.1	0.00e+00	0	44	0	1419771904	44	4006
2026-01-29 06:17:39.61	318.54	15.42	-37.0	-37.9	21.2	0.00e+00	0	44	0	1425014784	44	3984
2026-01-29 06:17:41.22	318.19	15.43	-37.1	-38.0	21.1	0.00e+00	0	44	0	1436549120	44	4030
2026-01-29 06:17:41.79	318.07	15.43	-37.1	-38.0	21.1	0.00e+00	0	44	0	1440743424	44	4027
2026-01-29 06:17:43.49	317.70	15.43	-37.2	-38.1	21.0	0.00e+00	0	44	0	1453326336	44	4083
2026-01-29 06:17:44.12	317.56	15.43	-37.2	-38.1	21.0	0.00e+00	0	44	0	1457520640	44	4087
2026-01-29 06:17:45.64	317.24	15.44	-37.3	-38.3	20.9	0.00e+00	0	44	0	1469054976	44	4150
2026-01-29 06:17:46.35	317.08	15.44	-37.4	-38.4	20.8	0.00e+00	0	44	0	1474297856	44	4198
2026-01-29 06:17:47.63	316.81	15.44	-37.5	-38.5	20.7	0.00e+00	0	44	0	1483735040	44	4257
2026-01-29 06:17:48.35	316.65	15.44	-37.4	-38.4	20.7	0.00e+00	0	44	0	1487929344	44	4237
2026-01-29 06:17:49.63	316.38	15.44	-37.5	-38.5	20.7	0.00e+00	0	44	0	1497366528	44	4268
2026-01-29 06:17:50.34	316.22	15.44	-37.6	-38.5	20.6	0.00e+00	0	44	0	1502609408	44	4291
2026-01-29 06:17:51.62	315.95	15.44	-37.5	-38.5	20.7	0.00e+00	0	44	0	1512046592	44	4257
2026-01-29 06:17:52.33	315.80	15.44	-37.7	-38.6	20.5	0.00e+00	0	44	0	1517289472	44	4330
2026-01-29 06:17:53.62	315.52	15.43	-37.5	-38.5	20.7	0.00e+00	0	44	0	1526726656	44	4245
2026-01-29 06:17:54.62	315.30	15.43	-37.6	-38.5	20.6	0.00e+00	0	44	0	1533018112	44	4270
2026-01-29 06:17:55.62	315.09	15.43	-37.7	-38.6	20.5	0.00e+00	0	44	0	1540358144	44	4333
2026-01-29 06:17:56.61	314.87	15.43	-37.8	-38.7	20.4	0.00e+00	0	44	0	1547698176	44	4388
2026-01-29 06:17:57.61	314.66	15.42	-37.7	-38.7	20.5	0.00e+00	0	44	0	1555038208	44	4346
2026-01-29 06:17:58.60	314.44	15.42	-37.4	-38.4	20.7	0.00e+00	0	44	0	1562378240	44	4218
2026-01-29 06:17:59.60	314.23	15.42	-37.5	-38.5	20.7	0.00e+00	0	44	0	1569718272	44	4255
2026-01-29 06:18:00.59	314.02	15.41	-37.4	-38.3	20.8	0.00e+00	0	44	0	1577058304	44	4174
2026-01-29 06:18:01.59	313.80	15.41	-37.3	-38.3	20.9	0.00e+00	0	44	0	1584398336	44	4161
2026-01-29 06:18:02.58	313.59	15.40	-37.3	-38.2	20.9	0.00e+00	0	44	0	1591738368	44	4121
2026-01-29 06:18:03.58	313.37	15.40	-37.3	-38.2	20.9	0.00e+00	0	44	0	1598029824	44	4118
2026-01-29 06:18:04.57	313.16	15.39	-37.2	-38.1	21.0	0.00e+00	0	44	0	1605369856	44	4087
2026-01-29 06:18:05.57	312.95	15.38	-37.1	-38.1	21.0	0.00e+00	0	44	0	1612709888	44	4055
2026-01-29 06:18:06.56	312.73	15.38	-37.1	-38.0	21.1	0.00e+00	0	44	0	1620049920	44	4026
2026-01-29 06:18:07.55	312.52	15.37	-37.1	-38.1	21.0	0.00e+00	0	44	0	1627389952	44	4056
2026-01-29 06:18:08.55	312.31	15.36	-37.1	-38.0	21.1	0.00e+00	0	44	0	1634729984	44	4034
2026-01-29 06:18:09.54	312.09	15.35	-37.1	-38.1	21.1	0.00e+00	0	44	0	1641021440	44	4058
2026-01-29 06:18:10.54	311.88	15.35	-37.1	-38.1	21.0	0.00e+00	0	44	0	1648361472	44	4064
2026-01-29 06:18:11.53	311.67	15.34	-37.2	-38.1	21.0	0.00e+00	0	44	0	1655701504	44	4078
2026-01-29 06:18:12.53	311.45	15.33	-37.2	-38.1	21.0	0.00e+00	0	44	0	1663041536	44	4078
2026-01-29 06:18:13.52	311.24	15.32	-37.3	-38.2	20.9	0.00e+00	0	44	0	1670381568	44	4140
2026-01-29 06:18:14.52	311.03	15.31	-37.3	-38.2	20.9	0.00e+00	0	44	0	1676673024	44	4129
2026-01-29 06:18:15.51	310.82	15.30	-37.1	-38.1	21.1	0.00e+00	0	44	0	1684013056	44	4062
2026-01-29 06:18:16.51	310.60	15.29	-37.1	-38.1	21.1	0.00e+00	0	44	0	1691353088	44	4054
2026-01-29 06:18:17.55	310.38	15.28	-37.2	-38.1	21.0	0.00e+00	0	44	0	1698693120	44	4089
2026-01-29 06:18:18.50	310.18	15.26	-37.2	-38.1	21.0	0.00e+00	0	44	0	1706033152	44	4085
2026-01-29 06:18:19.50	309.97	15.25	-37.3	-38.2	20.9	0.00e+00	0	44	0	1713373184	44	4125
2026-01-29 06:18:20.49	309.76	15.24	-37.3	-38.2	20.9	0.00e+00	0	44	0	1720713216	44	4131
2026-01-29 06:18:21.48	309.54	15.23	-37.3	-38.3	20.8	0.00e+00	0	44	0	1728053248	44	4156
2026-01-29 06:18:22.48	309.33	15.21	-37.2	-38.2	20.9	0.00e+00	0	44	0	1734344704	44	4115
2026-01-29 06:18:23.47	309.12	15.20	-37.2	-38.1	21.0	0.00e+00	0	44	0	1741684736	44	4094
2026-01-29 06:18:24.47	308.91	15.19	-37.2	-38.1	21.0	0.00e+00	0	44	0	1749024768	44	4089
2026-01-29 06:18:25.46	308.70	15.17	-37.3	-38.2	20.8	0.00e+00	0	44	0	1756364800	44	4143
2026-01-29 06:18:26.45	308.49	15.16	-37.3	-38.3	20.9	0.00e+00	0	44	0	1763704832	44	4155
2026-01-29 06:18:27.45	308.28	15.14	-37.4	-38.3	20.8	0.00e+00	0	44	0	1771044864	44	4190
2026-01-29 06:18:28.44	308.07	15.13	-37.5	-38.4	20.7	0.00e+00	0	44	0	1778384896	44	4224
2026-01-29 06:18:29.44	307.86	15.11	-37.4	-38.4	20.8	0.00e+00	0	44	0	1784676352	44	4203
2026-01-29 06:18:30.43	307.65	15.10	-37.6	-38.5	20.6	0.00e+00	0	44	0	1792016384	44	4280
2026-01-29 06:18:31.43	307.44	15.08	-37.5	-38.5	20.7	0.00e+00	0	44	0	1799356416	44	4261
2026-01-29 06:18:32.49	307.22	15.06	-37.6	-38.6	20.5	0.00e+00	0	44	0	1806696448	44	4308
2026-01-29 06:18:33.36	307.03	15.05	-37.7	-38.6	20.5	0.00e+00	0	44	0	1812987904	44	4334
2026-01-29 06:18:34.49	306.80	15.03	-37.6	-38.6	20.6	0.00e+00	0	44	0	1821376512	44	4296
2026-01-29 06:18:35.35	306.62	15.01	-37.5	-38.5	20.6	0.00e+00	0	44	0	1827667968	44	4268
2026-01-29 06:18:36.48	306.38	14.99	-37.6	-38.5	20.6	0.00e+00	0	44	0	1836056576	44	4291
2026-01-29 06:18:37.34	306.20	14.97	-37.6	-38.6	20.6	0.00e+00	0	44	0	1842348032	44	4300
2026-01-29 06:18:38.47	305.96	14.95	-37.8	-38.8	20.4	0.00e+00	0	44	0	1849688064	45	4148
2026-01-29 06:18:39.32	305.79	14.93	-37.6	-38.5	20.6	0.00e+00	0	44	0	1855979520	45	4043
2026-01-29 06:18:40.46	305.55	14.91	-37.5	-38.4	20.7	0.00e+00	0	44	0	1864368128	45	3984
2026-01-29 06:18:41.31	305.37	14.89	-37.6	-38.5	20.6	0.00e+00	0	44	0	1870659584	45	4047
2026-01-29 06:18:42.45	305.14	14.87	-37.7	-38.7	20.4	0.00e+00	0	44	0	1879048192	45	4123
2026-01-29 06:18:43.30	304.96	14.85	-37.6	-38.6	20.5	0.00e+00	0	44	0	1885339648	45	4068
2026-01-29 06:18:44.44	304.72	14.83	-37.6	-38.6	20.5	0.00e+00	0	44	0	1893728256	45	4060
2026-01-29 06:18:45.29	304.55	14.81	-37.6	-38.6	20.5	0.00e+00	0	44	0	1900019712	45	4061
2026-01-29 06:18:46.54	304.29	14.78	-37.5	-38.5	20.6	0.00e+00	0	44	0	1908408320	45	4030
2026-01-29 06:18:47.39	304.11	14.76	-37.6	-38.6	20.5	0.00e+00	0	44	0	1914699776	45	4061
2026-01-29 06:18:48.57	303.87	14.74	-37.7	-38.6	20.5	0.00e+00	0	44	0	1923088384	45	4088
2026-01-29 06:18:49.43	303.69	14.72	-37.6	-38.6	20.5	0.00e+00	0	44	0	1929379840	45	4073
2026-01-29 06:18:50.56	303.46	14.69	-37.7	-38.6	20.5	0.00e+00	0	44	0	1937768448	45	4090
2026-01-29 06:18:51.41	303.29	14.67	-37.7	-38.7	20.4	0.00e+00	0	44	0	1944059904	45	4120
2026-01-29 06:18:52.71	303.02	14.64	-37.7	-38.6	20.5	0.00e+00	0	44	0	1952448512	45	4089
2026-01-29 06:18:53.42	302.88	14.62	-37.6	-38.6	20.5	0.00e+00	0	44	0	1958739968	45	4056
2026-01-29 06:18:54.70	302.62	14.59	-37.7	-38.6	20.5	0.00e+00	0	44	0	1967128576	45	4083
2026-01-29 06:18:55.43	302.47	14.57	-37.7	-38.7	20.4	0.00e+00	0	44	0	1972371456	45	4109
2026-01-29 06:18:56.71	302.21	14.54	-37.7	-38.6	20.4	0.00e+00	0	44	0	1981808640	45	4097
2026-01-29 06:18:57.43	302.06	14.52	-37.7	-38.6	20.4	0.00e+00	0	44	0	1987051520	45	4098
2026-01-29 06:18:58.71	301.80	14.49	-37.8	-38.8	20.3	0.00e+00	0	44	0	1996488704	45	4149
2026-01-29 06:18:59.42	301.66	14.47	-37.8	-38.8	20.3	0.00e+00	0	44	0	2001731584	45	4170
2026-01-29 06:19:00.70	301.40	14.43	-37.9	-38.8	20.3	0.00e+00	0	44	0	2011168768	45	4176
2026-01-29 06:19:01.41	301.26	14.41	-37.8	-38.8	20.3	0.00e+00	0	44	0	2015363072	45	4151
2026-01-29 06:19:02.69	301.00	14.38	-37.7	-38.7	20.4	0.00e+00	0	44	0	2024800256	45	4103
2026-01-29 06:19:03.67	300.80	14.35	-37.7	-38.6	20.4	0.00e+00	0	44	0	2032140288	45	4098
2026-01-29 06:19:04.97	300.54	14.31	-37.7	-38.6	20.5	0.00e+00	0	44	0	2041577472	45	4074
2026-01-29 06:19:05.68	300.40	14.29	-37.6	-38.5	20.5	0.00e+00	0	44	0	2046820352	45	4051
2026-01-29 06:19:06.96	300.15	14.26	-37.6	-38.6	20.5	0.00e+00	0	44	0	2056257536	45	4066
2026-01-29 06:19:07.67	300.01	14.24	-37.7	-38.7	20.4	0.00e+00	0	44	0	2061500416	45	4119
2026-01-29 06:19:08.95	299.75	14.20	-37.7	-38.7	20.4	0.00e+00	0	44	0	2069889024	45	4107
2026-01-29 06:19:09.68	299.61	14.18	-37.9	-38.8	20.3	0.00e+00	0	44	0	2075131904	45	4177
2026-01-29 06:19:10.96	299.35	14.14	-37.8	-38.8	20.3	0.00e+00	0	44	0	2084569088	45	4173
2026-01-29 06:19:11.68	299.21	14.12	-37.9	-38.9	20.1	0.00e+00	0	44	0	2089811968	45	4223
2026-01-29 06:19:12.96	298.96	14.08	-38.0	-39.0	20.1	0.00e+00	0	44	0	2099249152	45	4244
2026-01-29 06:19:13.67	298.82	14.06	-38.1	-39.1	20.0	0.00e+00	0	44	0	2104492032	45	4307
2026-01-29 06:19:15.13	298.53	14.01	-38.8	-39.4	19.6	0.00e+00	0	44	0	2114977792	46	4212
2026-01-29 06:19:15.84	298.39	13.99	-38.1	-39.1	20.0	0.00e+00	0	44	0	2120220672	46	4069
2026-01-29 06:19:17.11	298.15	13.95	-38.1	-39.1	20.0	0.00e+00	0	44	0	2128609280	46	4058
2026-01-29 06:19:17.83	298.01	13.92	-38.0	-39.0	20.1	0.00e+00	0	44	0	2134900736	46	4043
2026-01-29 06:19:19.25	297.73	13.88	-37.9	-38.9	20.2	0.00e+00	0	44	0	2144337920	46	3960
2026-01-29 06:19:19.96	297.59	13.85	-37.8	-38.8	20.3	0.00e+00	0	44	0	2149580800	46	3930
2026-01-29 06:19:21.24	297.34	13.81	-37.8	-38.7	20.3	0.00e+00	0	44	0	2159017984	46	3910
2026-01-29 06:19:21.96	297.21	13.79	-37.8	-38.8	20.3	0.00e+00	0	44	0	2164260864	46	3935
2026-01-29 06:19:23.24	296.96	13.75	-37.8	-38.8	20.3	0.00e+00	0	44	0	2173698048	46	3927
2026-01-29 06:19:23.95	296.82	13.72	-37.9	-38.8	20.2	0.00e+00	0	44	0	2178940928	46	3957
2026-01-29 06:19:25.23	296.58	13.68	-37.9	-38.8	20.3	0.00e+00	0	44	0	2188378112	46	3946
2026-01-29 06:19:25.96	296.44	13.65	-38.0	-39.0	20.1	0.00e+00	0	44	0	2192572416	46	4025
2026-01-29 06:19:27.24	296.19	13.61	-38.0	-38.9	20.1	0.00e+00	0	44	0	2202009600	46	4001
2026-01-29 06:19:27.96	296.06	13.58	-38.0	-39.0	20.1	0.00e+00	0	44	0	2207252480	46	4019
2026-01-29 06:19:29.24	295.81	13.54	-38.0	-39.0	20.1	0.00e+00	0	44	0	2216689664	46	4034
2026-01-29 06:19:29.95	295.68	13.51	-38.1	-39.1	20.0	0.00e+00	0	44	0	2221932544	46	4052
2026-01-29 06:19:31.23	295.44	13.47	-38.0	-39.0	20.0	0.00e+00	0	44	0	2231369728	46	4045
2026-01-29 06:19:31.94	295.30	13.44	-38.0	-39.0	20.0	0.00e+00	0	44	0	2236612608	46	4038
2026-01-29 06:19:33.22	295.06	13.40	-38.0	-39.0	20.0	0.00e+00	0	44	0	2246049792	46	4044
2026-01-29 06:19:34.19	294.88	13.36	-37.9	-38.9	20.1	0.00e+00	0	44	0	2252341248	46	3984
2026-01-29 06:19:35.19	294.69	13.32	-38.0	-39.0	20.1	0.00e+00	0	44	0	2259681280	46	4009
2026-01-29 06:19:36.18	294.51	13.29	-37.8	-38.8	20.2	0.00e+00	0	44	0	2267021312	46	3938
2026-01-29 06:19:37.18	294.32	13.25	-37.9	-38.9	20.2	0.00e+00	0	44	0	2274361344	46	3981
2026-01-29 06:19:38.17	294.14	13.21	-37.9	-38.9	20.2	0.00e+00	0	44	0	2281701376	46	3968
2026-01-29 06:19:39.17	293.95	13.17	-38.0	-39.0	20.1	0.00e+00	0	44	0	2289041408	46	4007
2026-01-29 06:19:40.17	293.77	13.14	-38.0	-39.0	20.1	0.00e+00	0	44	0	2295332864	46	4023
2026-01-29 06:19:41.16	293.58	13.10	-38.1	-39.1	20.0	0.00e+00	0	44	0	2302672896	46	4055
2026-01-29 06:19:42.24	293.39	13.06	-38.2	-39.1	19.9	0.00e+00	0	44	0	2311061504	46	4097
2026-01-29 06:19:43.12	293.23	13.02	-38.2	-39.2	19.9	0.00e+00	0	44	0	2317352960	46	4114
2026-01-29 06:19:44.26	293.02	12.98	-38.2	-39.2	19.9	0.00e+00	0	44	0	2324692992	46	4119
2026-01-29 06:19:45.19	292.85	12.94	-38.2	-39.2	19.8	0.00e+00	0	44	0	2332033024	46	4139
2026-01-29 06:19:46.35	292.64	12.90	-38.2	-39.2	19.7	0.00e+00	0	44	0	2340421632	46	4138
2026-01-29 06:19:47.24	292.47	12.86	-38.2	-39.2	19.8	0.00e+00	0	44	0	2346713088	46	4139
2026-01-29 06:19:48.38	292.27	12.82	-38.3	-39.3	19.8	0.00e+00	0	44	0	2355101696	46	4150
2026-01-29 06:19:49.29	292.10	12.78	-38.2	-39.2	19.8	0.00e+00	0	44	0	2361393152	46	4135
2026-01-29 06:19:50.46	291.89	12.73	-38.3	-39.3	19.8	0.00e+00	0	44	0	2369781760	46	4153
2026-01-29 06:19:51.35	291.73	12.70	-38.1	-39.1	19.9	0.00e+00	0	44	0	2376073216	46	4093
2026-01-29 06:19:52.48	291.53	12.65	-38.1	-39.1	20.0	0.00e+00	0	44	0	2384461824	46	4075
2026-01-29 06:19:53.34	291.38	12.62	-38.1	-39.1	19.9	0.00e+00	0	44	0	2390753280	46	4095
2026-01-29 06:19:54.47	291.18	12.57	-38.1	-39.1	19.9	0.00e+00	0	44	0	2399141888	46	4087
2026-01-29 06:19:55.33	291.03	12.53	-38.3	-39.3	19.8	0.00e+00	0	44	0	2405433344	46	4146
2026-01-29 06:19:56.47	290.82	12.49	-38.4	-39.4	19.6	0.00e+00	0	44	0	2412773376	46	4195
2026-01-29 06:19:57.32	290.67	12.45	-38.4	-39.4	19.6	0.00e+00	0	44	0	2420113408	46	4219
2026-01-29 06:19:58.45	290.48	12.40	-38.4	-39.4	19.6	0.00e+00	0	44	0	2427453440	46	4202
2026-01-29 06:19:59.31	290.32	12.37	-38.4	-39.4	19.6	0.00e+00	0	44	0	2433744896	46	4224
2026-01-29 06:20:00.44	290.13	12.32	-38.4	-39.5	19.5	0.00e+00	0	44	0	2442133504	46	4244
2026-01-29 06:20:01.29	289.98	12.28	-38.4	-39.4	19.6	0.00e+00	0	44	0	2448424960	46	4218
2026-01-29 06:20:02.43	289.78	12.24	-38.4	-39.4	19.6	0.00e+00	0	44	0	2456813568	46	4226
2026-01-29 06:20:03.29	289.63	12.20	-38.4	-39.4	19.6	0.00e+00	0	44	0	2462056448	46	4234
2026-01-29 06:20:04.60	289.41	12.14	-38.4	-39.4	19.6	0.00e+00	0	44	0	2471493632	46	4203
2026-01-29 06:20:05.72	289.21	12.09	-38.5	-39.5	19.5	0.00e+00	0	44	0	2479882240	46	4257
2026-01-29 06:20:06.57	289.07	12.06	-38.5	-39.6	19.5	0.00e+00	0	44	0	2486173696	46	4292
2026-01-29 06:20:07.71	288.87	12.01	-38.6	-39.6	19.4	0.00e+00	0	44	0	2494562304	46	4311
2026-01-29 06:20:08.56	288.73	11.97	-38.5	-39.5	19.5	0.00e+00	0	44	0	2500853760	46	4286
2026-01-29 06:20:09.70	288.53	11.92	-38.5	-39.5	19.5	0.00e+00	0	44	0	2509242368	46	4270
2026-01-29 06:20:10.55	288.39	11.88	-38.6	-39.6	19.5	0.00e+00	0	44	0	2514485248	46	4306
2026-01-29 06:20:11.69	288.20	11.83	-38.5	-39.6	19.5	0.00e+00	0	44	0	2522873856	46	4296
2026-01-29 06:20:12.54	288.05	11.80	-38.6	-39.6	19.4	0.00e+00	0	44	0	2529165312	46	4307
2026-01-29 06:20:13.68	287.86	11.75	-38.5	-39.5	19.5	0.00e+00	0	44	0	2537553920	46	4275
2026-01-29 06:20:14.53	287.72	11.71	-38.5	-39.5	19.5	0.00e+00	0	44	0	2543845376	46	4276
2026-01-29 06:20:15.67	287.53	11.66	-38.5	-39.5	19.5	0.00e+00	0	44	0	2552233984	46	4254
2026-01-29 06:20:16.52	287.39	11.62	-38.4	-39.4	19.6	0.00e+00	0	44	0	2558525440	46	4226
2026-01-29 06:20:17.66	287.20	11.57	-38.5	-39.5	19.4	0.00e+00	0	44	0	2565865472	46	4267
2026-01-29 06:20:18.51	287.06	11.53	-38.4	-39.4	19.6	0.00e+00	0	44	0	2572156928	46	4221
2026-01-29 06:20:19.65	286.87	11.48	-38.4	-39.4	19.6	0.00e+00	0	44	0	2580545536	46	4231
2026-01-29 06:20:20.82	286.68	11.42	-38.3	-39.3	19.7	0.00e+00	0	44	0	2588934144	46	4174
2026-01-29 06:20:21.84	286.51	11.38	-38.2	-39.2	19.7	0.00e+00	0	44	0	2596274176	46	4141
2026-01-29 06:20:22.84	286.35	11.33	-38.1	-39.1	19.9	0.00e+00	0	44	0	2603614208	46	4072
2026-01-29 06:20:23.83	286.18	11.28	-38.2	-39.2	19.8	0.00e+00	0	44	0	2610954240	46	4130
2026-01-29 06:20:24.83	286.02	11.24	-38.2	-39.1	19.8	0.00e+00	0	44	0	2618294272	46	4095
2026-01-29 06:20:25.83	285.86	11.19	-38.2	-39.2	19.8	0.00e+00	0	44	0	2625634304	46	4125
2026-01-29 06:20:26.82	285.70	11.15	-38.2	-39.2	19.8	0.00e+00	0	44	0	2632974336	46	4111
2026-01-29 06:20:27.81	285.54	11.10	-38.3	-39.3	19.7	0.00e+00	0	44	0	2639265792	46	4185
2026-01-29 06:20:28.81	285.38	11.05	-38.4	-39.4	19.6	0.00e+00	0	44	0	2646605824	46	4225
2026-01-29 06:20:29.81	285.22	11.01	-38.5	-39.5	19.5	0.00e+00	0	44	0	2653945856	46	4262
2026-01-29 06:20:30.80	285.06	10.96	-38.5	-39.6	19.5	0.00e+00	0	44	0	2661285888	46	4296
2026-01-29 06:20:31.80	284.91	10.91	-38.6	-39.7	19.3	0.00e+00	0	44	0	2668625920	46	4345
2026-01-29 06:20:32.86	284.74	10.86	-38.7	-39.7	19.3	0.00e+00	0	44	0	2675965952	46	4355
2026-01-29 06:20:33.77	284.59	10.82	-38.6	-39.6	19.4	0.00e+00	0	44	0	2682257408	46	4328
2026-01-29 06:20:34.95	284.41	10.76	-38.8	-39.8	19.2	0.00e+00	0	44	0	2690646016	46	4415
2026-01-29 06:20:35.82	284.27	10.72	-38.6	-39.6	19.4	0.00e+00	0	44	0	2697986048	47	4064
2026-01-29 06:20:36.96	284.09	10.67	-38.6	-39.6	19.4	0.00e+00	0	44	0	2705326080	47	4069
2026-01-29 06:20:37.82	283.96	10.63	-38.6	-39.7	19.3	0.00e+00	0	44	0	2711617536	47	4113
2026-01-29 06:20:38.95	283.79	10.57	-38.7	-39.7	19.2	0.00e+00	0	44	0	2720006144	47	4130
2026-01-29 06:20:39.80	283.65	10.53	-38.6	-39.6	19.4	0.00e+00	0	44	0	2726297600	47	4072
2026-01-29 06:20:40.94	283.48	10.48	-38.5	-39.5	19.5	0.00e+00	0	44	0	2734686208	47	4036
2026-01-29 06:20:41.80	283.35	10.44	-38.5	-39.5	19.5	0.00e+00	0	44	0	2740977664	47	4038
2026-01-29 06:20:42.93	283.17	10.38	-38.6	-39.6	19.4	0.00e+00	0	44	0	2748317696	47	4084
2026-01-29 06:20:43.79	283.04	10.34	-38.6	-39.7	19.3	0.00e+00	0	44	0	2754609152	47	4100
2026-01-29 06:20:44.92	282.87	10.29	-38.5	-39.5	19.5	0.00e+00	0	44	0	2762997760	47	4020
2026-01-29 06:20:45.78	282.74	10.24	-38.5	-39.5	19.5	0.00e+00	0	44	0	2769289216	47	4010
2026-01-29 06:20:46.91	282.57	10.19	-38.5	-39.5	19.5	0.00e+00	0	44	0	2777677824	47	4009
2026-01-29 06:20:47.77	282.44	10.15	-38.4	-39.4	19.5	0.00e+00	0	44	0	2783969280	47	4003
2026-01-29 06:20:48.90	282.27	10.09	-38.6	-39.6	19.4	0.00e+00	0	44	0	2791309312	47	4063
2026-01-29 06:20:49.76	282.14	10.05	-38.6	-39.6	19.3	0.00e+00	0	44	0	2797600768	47	4095
2026-01-29 06:20:50.89	281.97	9.99	-38.5	-39.6	19.4	0.00e+00	0	44	0	2805989376	47	4055
2026-01-29 06:20:51.74	281.85	9.95	-38.6	-39.6	19.4	0.00e+00	0	44	0	2812280832	47	4071
2026-01-29 06:20:52.88	281.68	9.90	-38.6	-39.7	19.3	0.00e+00	0	44	0	2820669440	47	4116
2026-01-29 06:20:53.73	281.55	9.85	-38.6	-39.6	19.4	0.00e+00	0	44	0	2826960896	47	4082
2026-01-29 06:20:54.87	281.39	9.80	-38.7	-39.7	19.2	0.00e+00	0	44	0	2835349504	47	4134
2026-01-29 06:20:55.72	281.26	9.76	-38.7	-39.8	19.2	0.00e+00	0	44	0	2841640960	47	4157
2026-01-29 06:20:56.86	281.10	9.70	-38.7	-39.7	19.2	0.00e+00	0	44	0	2848980992	47	4143
2026-01-29 06:20:57.72	280.97	9.66	-38.7	-39.8	19.2	0.00e+00	0	44	0	2855272448	47	4158
2026-01-29 06:20:58.98	280.79	9.59	-38.8	-39.8	19.1	0.00e+00	0	44	0	2864709632	47	4192
2026-01-29 06:20:59.77	280.67	9.56	-38.8	-39.8	19.1	0.00e+00	0	44	0	2869952512	47	4188
2026-01-29 06:21:01.06	280.49	9.49	-38.9	-40.0	18.9	0.00e+00	0	44	0	2879389696	47	4261
2026-01-29 06:21:01.77	280.39	9.46	-38.9	-40.0	19.0	0.00e+00	0	44	0	2884632576	47	4245
2026-01-29 06:21:03.21	280.18	9.38	-38.9	-39.9	19.0	0.00e+00	0	44	0	2895118336	47	4238
2026-01-29 06:21:03.92	280.08	9.35	-38.9	-40.0	18.9	0.00e+00	0	44	0	2900361216	47	4261
2026-01-29 06:21:05.26	279.89	9.28	-38.9	-40.0	18.9	0.00e+00	0	44	0	2909798400	47	4265
2026-01-29 06:21:05.98	279.79	9.24	-38.9	-40.0	19.0	0.00e+00	0	44	0	2915041280	47	4249
2026-01-29 06:21:07.27	279.61	9.18	-38.8	-39.9	19.0	0.00e+00	0	44	0	2924478464	47	4218
2026-01-29 06:21:07.98	279.51	9.14	-38.8	-39.9	19.0	0.00e+00	0	44	0	2929721344	47	4220
2026-01-29 06:21:09.26	279.33	9.08	-38.9	-40.0	18.8	0.00e+00	0	44	0	2938109952	47	4273
2026-01-29 06:21:09.98	279.23	9.04	-38.9	-40.0	18.9	0.00e+00	0	44	0	2944401408	47	4246
2026-01-29 06:21:11.26	279.05	8.98	-49.7	-60.2	3.8	6.95e-01	0	44	104	2950692864	68	13086
2026-01-29 06:21:11.97	278.95	8.94	-49.6	-60.5	3.8	8.47e-01	0	44	104	2950692864	68	13456
2026-01-29 06:21:13.25	278.77	8.88	-49.7	-60.4	3.8	8.46e-01	0	44	104	2950692864	68	13409
2026-01-29 06:21:13.96	278.68	8.84	-49.6	-60.4	3.8	8.46e-01	0	44	104	2950692864	68	13304
2026-01-29 06:21:15.24	278.50	8.78	-49.5	-60.4	3.8	8.47e-01	0	44	104	2950692864	68	13317
2026-01-29 06:21:15.95	278.40	8.74	-49.5	-60.4	3.8	8.47e-01	0	44	104	2950692864	68	13398
2026-01-29 06:21:17.22	278.23	8.68	-49.5	-60.5	3.8	8.46e-01	0	44	104	2950692864	68	13442
2026-01-29 06:21:17.93	278.14	8.64	-49.5	-60.4	3.8	8.46e-01	0	44	104	2950692864	68	13283
2026-01-29 06:21:19.21	277.96	8.58	-49.5	-60.4	3.8	8.46e-01	0	44	104	2950692864	68	13323
2026-01-29 06:21:19.92	277.87	8.54	-49.5	-60.4	3.8	8.46e-01	0	44	104	2950692864	68	13289
2026-01-29 06:21:21.20	277.70	8.47	-49.5	-60.4	3.8	8.46e-01	0	44	104	2950692864	68	13341
2026-01-29 06:21:21.90	277.60	8.44	-49.5	-60.4	3.8	8.46e-01	0	44	104	2950692864	68	13290
2026-01-29 06:21:23.20	277.43	8.37	-49.5	-60.4	3.8	8.48e-01	0	44	104	2950692864	68	13308
2026-01-29 06:21:23.91	277.34	8.34	-49.5	-60.4	3.8	8.46e-01	0	44	104	2950692864	68	13280
2026-01-29 06:21:25.18	277.17	8.27	-49.5	-60.4	3.8	8.47e-01	0	44	104	2950692864	68	13287
2026-01-29 06:21:25.89	277.07	8.23	-49.5	-60.4	3.8	8.46e-01	0	44	104	2950692864	68	13309
2026-01-29 06:21:27.17	276.91	8.17	-49.5	-60.4	3.8	8.48e-01	0	44	104	2950692864	68	13345
2026-01-29 06:21:27.88	276.81	8.13	-49.5	-60.4	3.8	8.46e-01	0	44	104	2950692864	68	13306
2026-01-29 06:21:29.16	276.65	8.07	-49.5	-60.4	3.8	8.48e-01	0	44	104	2950692864	68	13326
2026-01-29 06:21:29.87	276.55	8.03	-49.5	-60.3	3.8	8.47e-01	0	44	104	2950692864	68	13238
2026-01-29 06:21:31.14	276.39	7.96	-49.5	-60.4	3.8	8.46e-01	0	44	104	2950692864	68	13366
2026-01-29 06:21:31.85	276.30	7.93	-49.5	-60.4	3.8	8.48e-01	0	44	104	2950692864	68	13321
2026-01-29 06:21:33.13	276.13	7.86	-49.5	-60.4	3.8	8.47e-01	0	44	104	2950692864	68	13314
2026-01-29 06:21:33.84	276.04	7.83	-49.5	-60.4	3.8	8.48e-01	0	44	104	2950692864	68	13360
2026-01-29 06:21:35.11	275.88	7.76	-49.5	-60.4	3.8	8.47e-01	0	44	104	2950692864	68	13318
2026-01-29 06:21:35.82	275.79	7.72	-49.5	-60.4	3.8	8.47e-01	0	44	104	2950692864	68	13338
2026-01-29 06:21:37.10	275.63	7.66	-49.5	-60.4	3.8	8.47e-01	0	44	104	2950692864	68	13306
2026-01-29 06:21:37.82	275.54	7.62	-49.5	-60.4	3.8	8.47e-01	0	44	104	2950692864	68	13271
2026-01-29 06:21:39.10	275.38	7.55	-49.5	-60.4	3.8	8.48e-01	0	44	104	2950692864	68	13413
2026-01-29 06:21:39.81	275.29	7.52	-49.5	-60.4	3.8	8.46e-01	0	44	104	2950692864	68	13283
2026-01-29 06:21:41.09	275.13	7.45	-49.5	-60.4	3.8	8.48e-01	0	44	104	2950692864	68	13278
2026-01-29 06:21:41.80	275.04	7.41	-49.5	-60.4	3.8	8.47e-01	0	44	104	2950692864	68	13376
2026-01-29 06:21:43.08	274.88	7.35	-49.5	-60.4	3.8	8.47e-01	0	44	104	2950692864	68	13388
2026-01-29 06:21:43.79	274.79	7.31	-49.5	-60.4	3.8	8.47e-01	0	44	104	2950692864	68	13339
2026-01-29 06:21:45.06	274.64	7.25	-49.5	-60.4	3.8	8.47e-01	0	44	104	2950692864	68	13414
2026-01-29 06:21:45.77	274.55	7.21	-49.5	-60.4	3.8	8.46e-01	0	44	104	2950692864	68	13332
2026-01-29 06:21:47.05	274.39	7.14	-49.5	-60.4	3.8	8.47e-01	0	44	104	2950692864	68	13333
2026-01-29 06:21:47.77	274.31	7.11	-49.5	-60.4	3.8	8.46e-01	0	44	104	2950692864	68	13287
2026-01-29 06:21:49.05	274.15	7.04	-49.5	-60.4	3.8	8.45e-01	0	44	104	2950692864	68	13263
2026-01-29 06:21:49.77	274.06	7.00	-49.5	-60.4	3.8	8.47e-01	0	44	104	2950692864	68	13398
2026-01-29 06:21:51.05	273.91	6.94	-49.5	-60.4	3.8	8.47e-01	0	44	104	2950692864	68	13311
2026-01-29 06:21:51.76	273.82	6.90	-49.5	-60.4	3.8	8.47e-01	0	44	104	2950692864	68	13314
2026-01-29 06:21:53.04	273.67	6.83	-49.5	-60.4	3.8	8.48e-01	0	44	104	2950692864	68	13358
2026-01-29 06:21:53.75	273.59	6.80	-49.5	-60.4	3.8	8.46e-01	0	44	104	2950692864	68	13266
2026-01-29 06:21:55.02	273.44	6.73	-49.5	-60.4	3.8	8.47e-01	0	44	104	2950692864	68	13305
2026-01-29 06:21:55.75	273.35	6.69	-49.5	-60.4	3.8	8.47e-01	0	44	104	2950692864	68	13301
2026-01-29 06:21:57.02	273.20	6.63	-49.5	-60.4	3.8	8.47e-01	0	44	104	2950692864	68	13302
2026-01-29 06:21:57.73	273.12	6.59	-49.5	-60.4	3.8	8.46e-01	0	44	104	2950692864	68	13278
2026-01-29 06:21:59.01	272.97	6.52	-49.5	-60.4	3.8	8.47e-01	0	44	104	2950692864	68	13339
2026-01-29 06:21:59.73	272.88	6.49	-49.5	-60.5	3.8	8.47e-01	0	44	104	2950692864	68	13426
2026-01-29 06:22:01.01	272.73	6.42	-49.5	-60.4	3.8	8.47e-01	0	44	104	2950692864	68	13305
2026-01-29 06:22:01.75	272.65	6.38	-49.5	-60.4	3.8	8.47e-01	0	44	104	2950692864	68	13367
2026-01-29 06:22:03.03	272.50	6.31	-49.5	-60.3	3.8	8.47e-01	0	44	104	2950692864	68	13251
2026-01-29 06:22:03.74	272.42	6.28	-49.5	-60.4	3.8	8.47e-01	0	44	104	2950692864	68	13381
2026-01-29 06:22:05.01	272.27	6.21	-49.5	-60.4	3.8	8.47e-01	0	44	104	2950692864	68	13300
2026-01-29 06:22:05.72	272.19	6.17	-49.5	-60.4	3.8	8.45e-01	0	44	104	2950692864	68	13294
2026-01-29 06:22:07.00	272.05	6.11	-49.5	-60.4	3.8	8.46e-01	0	44	104	2950692864	68	13369
2026-01-29 06:22:07.71	271.97	6.07	-49.5	-60.3	3.8	8.47e-01	0	44	104	2950692864	68	13216
2026-01-29 06:22:08.99	271.82	6.00	-49.5	-60.4	3.8	8.47e-01	0	44	104	2950692864	68	13291
2026-01-29 06:22:09.70	271.74	5.97	-49.5	-60.3	3.8	8.46e-01	0	44	104	2950692864	68	13246
2026-01-29 06:22:10.98	271.60	5.90	-49.5	-60.4	3.8	8.46e-01	0	44	104	2950692864	68	13347
2026-01-29 06:22:11.68	271.52	5.86	-49.5	-60.4	3.8	8.47e-01	0	44	104	2950692864	68	13315
2026-01-29 06:22:12.96	271.38	5.80	-49.5	-60.4	3.8	8.47e-01	0	44	104	2950692864	68	13365
2026-01-29 06:22:13.67	271.30	5.76	-49.5	-60.4	3.8	8.47e-01	0	44	104	2950692864	68	13326
2026-01-29 06:22:14.95	271.16	5.69	-49.5	-60.4	3.8	8.46e-01	0	44	104	2950692864	68	13354
2026-01-29 06:22:15.66	271.08	5.66	-49.5	-60.4	3.8	8.47e-01	0	44	104	2950692864	68	13302
2026-01-29 06:22:16.93	270.94	5.59	-49.5	-60.4	3.8	8.47e-01	0	44	104	2950692864	68	13319
2026-01-29 06:22:17.66	270.86	5.55	-49.5	-60.4	3.8	8.47e-01	0	44	104	2950692864	68	13313
2026-01-29 06:22:18.94	270.72	5.49	-49.5	-60.4	3.8	8.47e-01	0	44	104	2950692864	68	13307
2026-01-29 06:22:19.68	270.64	5.45	-49.5	-60.4	3.8	8.48e-01	0	44	104	2950692864	68	13300
2026-01-29 06:22:20.95	270.51	5.38	-49.5	-60.4	3.8	8.47e-01	0	44	104	2950692864	68	13300
2026-01-29 06:22:21.66	270.43	5.35	-49.5	-60.3	3.8	8.47e-01	0	44	104	2950692864	68	13243
2026-01-29 06:22:22.94	270.29	5.28	-49.5	-60.4	3.8	8.47e-01	0	44	104	2950692864	68	13332
2026-01-29 06:22:23.65	270.22	5.24	-49.5	-60.4	3.8	8.47e-01	0	44	104	2950692864	68	13299
2026-01-29 06:22:24.93	270.08	5.18	-49.5	-60.4	3.8	8.47e-01	0	44	104	2950692864	68	13400
2026-01-29 06:22:25.64	270.00	5.14	-49.5	-60.4	3.8	8.46e-01	0	44	104	2950692864	68	13350
2026-01-29 06:22:26.91	269.87	5.07	-49.5	-60.4	3.8	8.46e-01	0	44	104	2950692864	68	13404
2026-01-29 06:22:27.62	269.80	5.04	-49.5	-60.4	3.8	8.47e-01	0	44	104	2950692864	68	13305
2026-01-29 06:22:28.90	269.66	4.97	-49.5	-60.4	3.8	8.47e-01	0	44	104	2950692864	68	13297

#Closed at: 2026-01-29 06:22:29
#Recorded file [2950 MB]: D:/Data/31040_260129_091310.dat