passes_logs/2026/01/29/T1/T1__20260129_124038_FENGYUN_3D_rec.log

#Pass ID: 20260129_124038_FENGYUN 3D
#Satellite: FENGYUN 3D
#Configuration: FENGYUN 3D
#almurnet v.1.7.20251203
#Start time: 2026-01-29 12:40:38

#Version: 2.0.20230620
#Station: T1
#Location: 37.570604 lon 55.790049 lat
#TLE: 1 43010U 17072A   26027.97130493  .00000326  00000+0  17586-3 0  9998
#TLE: 2 43010  98.9960 359.9900 0002514  87.8428 272.3036 14.19701925425097

#Time	Az	El	Level	Level2	SNR	BER	BlckErr	Temp	State	Recorded	gain1	gain2
2026-01-29 12:40:38.50	181.54	4.98	-49.7	-62.1	3.8	8.47e-01	0	41	0	0	70	15530
2026-01-29 12:40:39.49	181.57	5.05	-49.7	-62.1	3.8	8.47e-01	0	41	104	0	71	14607
2026-01-29 12:40:40.49	181.61	5.12	-49.7	-62.1	3.8	8.46e-01	0	41	104	0	71	14567
2026-01-29 12:40:41.49	181.65	5.19	-49.7	-62.1	3.8	8.48e-01	0	42	104	0	71	14648
2026-01-29 12:40:42.48	181.69	5.26	-49.9	-62.1	3.8	8.47e-01	0	42	104	0	71	14618
2026-01-29 12:40:43.48	181.73	5.33	-50.0	-62.1	3.8	8.47e-01	0	42	104	0	71	14696
2026-01-29 12:40:44.48	181.77	5.40	-50.1	-62.2	3.8	8.47e-01	0	41	104	0	71	14737
2026-01-29 12:40:45.48	181.81	5.47	-50.1	-62.2	3.8	8.47e-01	0	41	104	0	71	14777
2026-01-29 12:40:46.48	181.86	5.54	-50.0	-62.2	3.8	8.47e-01	0	42	104	0	71	14754
2026-01-29 12:40:47.48	181.90	5.61	-50.0	-62.2	3.8	8.47e-01	0	42	104	0	71	14823
2026-01-29 12:40:48.48	181.94	5.69	-50.1	-62.2	3.8	8.48e-01	0	42	104	0	71	14742
2026-01-29 12:40:49.48	181.98	5.76	-49.9	-62.1	3.8	8.47e-01	0	42	104	0	71	14695
2026-01-29 12:40:50.47	182.02	5.83	-49.9	-62.1	3.8	8.47e-01	0	42	104	0	71	14680
2026-01-29 12:40:51.47	182.06	5.90	-49.9	-62.1	3.8	8.47e-01	0	42	104	0	71	14581
2026-01-29 12:40:52.47	182.10	5.97	-49.7	-62.1	3.8	8.45e-01	0	42	104	0	71	14551
2026-01-29 12:40:53.47	182.15	6.04	-49.7	-62.1	3.8	8.46e-01	0	42	104	0	71	14602
2026-01-29 12:40:54.47	182.19	6.12	-49.9	-62.0	3.8	8.46e-01	0	42	104	0	71	14512
2026-01-29 12:40:55.46	182.23	6.19	-49.7	-62.0	3.8	8.46e-01	0	42	104	0	71	14488
2026-01-29 12:40:56.45	182.27	6.26	-49.8	-62.0	3.8	8.47e-01	0	42	104	0	71	14528
2026-01-29 12:40:57.45	182.32	6.33	-49.9	-62.0	3.8	8.47e-01	0	42	104	0	71	14485
2026-01-29 12:40:58.45	182.36	6.40	-49.9	-62.0	3.8	8.46e-01	0	42	104	0	71	14493
2026-01-29 12:40:59.44	182.40	6.48	-49.7	-62.0	3.8	8.46e-01	0	42	104	0	71	14377
2026-01-29 12:41:00.44	182.44	6.55	-49.7	-62.0	3.8	8.47e-01	0	42	104	0	70	15232
2026-01-29 12:41:01.43	182.49	6.62	-49.8	-62.0	3.8	8.47e-01	0	42	104	0	70	15236
2026-01-29 12:41:02.43	182.53	6.70	-49.6	-61.9	3.8	8.47e-01	0	42	104	0	70	15136
2026-01-29 12:41:03.43	182.58	6.77	-49.6	-61.9	3.8	8.46e-01	0	42	104	0	70	15121
2026-01-29 12:41:04.42	182.62	6.84	-49.3	-61.8	3.8	8.47e-01	0	42	104	0	70	14944
2026-01-29 12:41:05.42	182.66	6.92	-48.8	-61.8	3.8	8.46e-01	0	42	104	0	69	15819
2026-01-29 12:41:06.42	182.71	6.99	-48.6	-61.7	3.8	8.48e-01	0	42	104	0	69	15753
2026-01-29 12:41:07.41	182.75	7.07	-48.8	-61.6	3.8	8.47e-01	0	42	104	0	69	15523
2026-01-29 12:41:08.41	182.80	7.14	-48.5	-61.1	3.8	8.47e-01	0	42	104	0	69	14692
2026-01-29 12:41:09.41	182.84	7.22	-48.3	-60.0	3.8	8.43e-01	0	43	104	0	68	13685
2026-01-29 12:41:10.40	182.89	7.29	-47.4	-55.4	5.2	8.19e-01	0	42	0	0	66	8990
2026-01-29 12:41:11.40	182.94	7.37	-46.6	-52.5	7.4	2.35e-01	0	43	0	3145728	65	6857
2026-01-29 12:41:12.40	182.98	7.44	-45.6	-50.2	9.8	3.58e-02	0	42	0	8388608	63	5921
2026-01-29 12:41:13.40	183.03	7.52	-44.4	-48.1	11.7	9.33e-04	0	43	0	13631488	60	5493
2026-01-29 12:41:14.39	183.07	7.59	-43.4	-46.4	13.7	4.23e-05	0	43	0	19922944	58	5079
2026-01-29 12:41:15.39	183.12	7.67	-42.2	-44.9	15.2	0.00e+00	0	43	0	25165824	56	4797
2026-01-29 12:41:16.38	183.17	7.75	-41.2	-43.7	16.2	0.00e+00	0	43	0	30408704	54	4678
2026-01-29 12:41:17.38	183.21	7.82	-40.5	-42.8	17.0	0.00e+00	0	43	0	36700160	53	4491
2026-01-29 12:41:18.37	183.26	7.90	-40.0	-42.2	17.6	0.00e+00	0	43	0	41943040	52	4422
2026-01-29 12:41:19.37	183.31	7.98	-39.7	-41.9	18.0	0.00e+00	0	43	0	47185920	51	4532
2026-01-29 12:41:20.37	183.36	8.05	-39.7	-41.8	18.0	0.00e+00	0	43	0	53477376	51	4492
2026-01-29 12:41:21.37	183.40	8.13	-39.8	-42.0	17.9	0.00e+00	0	43	0	58720256	51	4546
2026-01-29 12:41:22.37	183.45	8.21	-39.8	-42.1	17.8	0.00e+00	0	43	0	63963136	51	4600
2026-01-29 12:41:23.37	183.50	8.29	-40.3	-42.6	17.3	0.00e+00	0	43	0	70254592	51	4914
2026-01-29 12:41:24.36	183.55	8.37	-40.8	-43.2	16.7	0.00e+00	0	43	0	75497472	52	4940
2026-01-29 12:41:25.36	183.60	8.44	-41.5	-44.1	15.8	0.00e+00	0	43	0	81788928	53	5177
2026-01-29 12:41:26.36	183.65	8.52	-42.3	-45.1	14.8	0.00e+00	0	43	0	87031808	55	5185
2026-01-29 12:41:27.36	183.70	8.60	-43.4	-46.5	13.6	6.80e-06	0	43	0	92274688	57	5443
2026-01-29 12:41:28.36	183.75	8.68	-44.3	-47.9	12.2	1.84e-04	0	43	0	98566144	59	5673
2026-01-29 12:41:29.36	183.80	8.76	-45.1	-49.2	10.8	1.31e-03	0	43	0	103809024	60	6274
2026-01-29 12:41:30.35	183.85	8.84	-45.8	-50.6	9.4	1.46e-02	0	43	0	109051904	62	6529
2026-01-29 12:41:31.35	183.90	8.92	-46.4	-52.1	7.8	5.75e-02	0	43	0	115343360	63	7370
2026-01-29 12:41:32.35	183.95	9.00	-46.8	-53.4	6.6	2.09e-01	0	43	0	120586240	64	8052
2026-01-29 12:41:33.35	184.00	9.08	-46.7	-53.0	6.9	3.65e-01	0	43	0	125829120	64	7710
2026-01-29 12:41:34.35	184.05	9.16	-44.9	-48.9	11.2	3.57e-04	0	43	0	132120576	60	6043
2026-01-29 12:41:35.34	184.10	9.24	-46.9	-53.7	6.3	3.53e-01	0	43	0	137363456	64	8361
2026-01-29 12:41:36.34	184.16	9.32	-47.0	-53.6	6.4	7.69e-01	0	43	0	140509184	65	7789
2026-01-29 12:41:37.34	184.21	9.40	-45.6	-50.2	10.1	4.37e-04	0	43	0	146800640	61	6588
2026-01-29 12:41:38.34	184.26	9.49	-47.7	-57.3	4.3	8.41e-01	0	43	0	147849216	66	11211
2026-01-29 12:41:39.34	184.31	9.57	-43.6	-46.7	13.5	1.71e-05	0	43	0	152043520	58	5267
2026-01-29 12:41:40.34	184.37	9.65	-43.8	-47.0	13.2	1.71e-05	0	43	0	158334976	58	5447
2026-01-29 12:41:41.34	184.42	9.73	-42.8	-45.7	14.4	5.70e-06	0	43	0	163577856	57	4975
2026-01-29 12:41:42.33	184.47	9.81	-41.8	-44.4	15.6	0.00e+00	0	43	0	169869312	55	4806
2026-01-29 12:41:43.33	184.53	9.90	-41.6	-44.2	15.8	0.00e+00	0	43	0	175112192	54	4956
2026-01-29 12:41:44.33	184.58	9.98	-40.6	-43.0	16.9	0.00e+00	0	43	0	180355072	53	4562
2026-01-29 12:41:45.33	184.64	10.06	-39.9	-42.2	17.8	0.00e+00	0	43	0	186646528	51	4664
2026-01-29 12:41:46.33	184.69	10.15	-39.2	-41.4	18.6	0.00e+00	0	43	0	191889408	50	4495
2026-01-29 12:41:47.32	184.75	10.23	-39.0	-41.1	18.8	0.00e+00	0	43	0	197132288	50	4348
2026-01-29 12:41:48.32	184.80	10.32	-38.8	-40.8	19.0	0.00e+00	0	43	0	203423744	49	4484
2026-01-29 12:41:49.32	184.86	10.40	-38.7	-40.7	19.2	0.00e+00	0	43	0	208666624	49	4430
2026-01-29 12:41:50.31	184.91	10.48	-38.8	-40.8	19.1	0.00e+00	0	43	0	213909504	49	4476
2026-01-29 12:41:51.31	184.97	10.57	-38.8	-40.8	19.1	0.00e+00	0	43	0	220200960	49	4462
2026-01-29 12:41:52.31	185.02	10.65	-38.8	-40.8	19.1	0.00e+00	0	43	0	225443840	49	4458
2026-01-29 12:41:53.31	185.08	10.74	-38.8	-40.8	19.1	0.00e+00	0	43	0	231735296	49	4465
2026-01-29 12:41:54.31	185.14	10.83	-38.8	-40.8	19.1	0.00e+00	0	43	0	236978176	49	4479
2026-01-29 12:41:55.31	185.20	10.91	-38.9	-40.9	19.0	0.00e+00	0	43	0	242221056	49	4509
2026-01-29 12:41:56.30	185.25	11.00	-38.8	-40.8	19.1	0.00e+00	0	43	0	248512512	49	4462
2026-01-29 12:41:57.30	185.31	11.09	-38.8	-40.8	19.1	0.00e+00	0	43	0	253755392	49	4450
2026-01-29 12:41:58.30	185.37	11.17	-38.8	-40.8	19.1	0.00e+00	0	44	0	258998272	49	4460
2026-01-29 12:41:59.30	185.43	11.26	-38.8	-40.9	19.1	0.00e+00	0	43	0	265289728	49	4496
2026-01-29 12:42:00.29	185.49	11.35	-38.8	-40.8	19.2	0.00e+00	0	44	0	270532608	49	4449
2026-01-29 12:42:01.29	185.55	11.43	-38.8	-40.8	19.1	0.00e+00	0	43	0	275775488	49	4473
2026-01-29 12:42:02.29	185.61	11.52	-38.6	-40.6	18.1	0.00e+00	0	43	0	282066944	49	4388
2026-01-29 12:42:03.29	185.67	11.61	-38.7	-40.7	19.2	0.00e+00	0	43	0	287309824	49	4418
2026-01-29 12:42:04.29	185.73	11.70	-38.7	-40.7	19.3	0.00e+00	0	43	0	292552704	49	4404
2026-01-29 12:42:05.29	185.79	11.79	-38.5	-40.5	19.4	0.00e+00	0	43	0	298844160	49	4334
2026-01-29 12:42:06.28	185.85	11.88	-38.5	-40.5	19.4	0.00e+00	0	43	0	304087040	49	4327
2026-01-29 12:42:07.29	185.91	11.97	-38.6	-40.6	19.3	0.00e+00	0	44	0	309329920	49	4357
2026-01-29 12:42:08.29	185.97	12.06	-38.6	-40.6	19.3	0.00e+00	0	44	0	315621376	49	4368
2026-01-29 12:42:09.28	186.04	12.15	-38.5	-40.5	19.4	0.00e+00	0	43	0	320864256	49	4300
2026-01-29 12:42:10.28	186.10	12.24	-38.4	-40.3	19.6	0.00e+00	0	44	0	326107136	48	4482
2026-01-29 12:42:11.28	186.16	12.33	-38.3	-40.3	19.6	0.00e+00	0	44	0	332398592	48	4472
2026-01-29 12:42:12.28	186.23	12.42	-38.3	-40.3	19.7	0.00e+00	0	43	0	337641472	48	4449
2026-01-29 12:42:13.27	186.29	12.51	-38.3	-40.3	19.7	0.00e+00	0	44	0	343932928	48	4445
2026-01-29 12:42:14.27	186.35	12.60	-38.3	-40.2	19.7	0.00e+00	0	44	0	349175808	48	4436
2026-01-29 12:42:15.27	186.42	12.69	-38.4	-40.4	19.6	0.00e+00	0	44	0	354418688	48	4509
2026-01-29 12:42:16.27	186.48	12.79	-38.3	-40.3	19.7	0.00e+00	0	43	0	360710144	48	4446
2026-01-29 12:42:17.27	186.55	12.88	-38.3	-40.2	19.7	0.00e+00	0	44	0	365953024	48	4434
2026-01-29 12:42:18.27	186.61	12.97	-38.4	-40.4	19.5	0.00e+00	0	44	0	371195904	48	4523
2026-01-29 12:42:19.27	186.68	13.07	-38.4	-40.3	19.6	0.00e+00	0	44	0	377487360	48	4477
2026-01-29 12:42:20.26	186.75	13.16	-38.3	-40.2	19.7	0.00e+00	0	44	0	382730240	48	4435
2026-01-29 12:42:21.26	186.81	13.25	-38.4	-40.3	19.7	0.00e+00	0	44	0	387973120	48	4464
2026-01-29 12:42:22.26	186.88	13.35	-38.3	-40.2	19.7	0.00e+00	0	44	0	394264576	48	4424
2026-01-29 12:42:23.26	186.95	13.44	-38.3	-40.3	19.7	0.00e+00	0	44	0	399507456	48	4445
2026-01-29 12:42:24.26	187.02	13.54	-38.4	-40.4	19.6	0.00e+00	0	44	0	405798912	48	4514
2026-01-29 12:42:25.25	187.08	13.63	-38.2	-40.1	19.8	0.00e+00	0	44	0	411041792	48	4383
2026-01-29 12:42:26.25	187.15	13.73	-38.2	-40.1	19.8	0.00e+00	0	43	0	416284672	48	4391
2026-01-29 12:42:27.25	187.22	13.82	-38.1	-40.0	19.9	0.00e+00	0	44	0	421527552	48	4335
2026-01-29 12:42:28.25	187.29	13.92	-38.0	-40.0	20.0	0.00e+00	0	44	0	427819008	48	4304
2026-01-29 12:42:29.24	187.36	14.02	-38.1	-40.0	19.9	0.00e+00	0	44	0	433061888	48	4305
2026-01-29 12:42:30.24	187.43	14.11	-38.0	-39.9	20.0	0.00e+00	0	44	0	439353344	48	4279
2026-01-29 12:42:31.24	187.50	14.21	-37.8	-39.7	20.0	0.00e+00	0	43	0	444596224	47	4426
2026-01-29 12:42:32.24	187.58	14.31	-37.8	-39.7	19.9	0.00e+00	0	44	0	449839104	47	4438
2026-01-29 12:42:33.24	187.65	14.41	-37.7	-39.6	20.1	0.00e+00	0	44	0	456130560	47	4362
2026-01-29 12:42:34.24	187.72	14.51	-37.7	-39.7	20.0	0.00e+00	0	44	0	461373440	47	4393
2026-01-29 12:42:35.24	187.79	14.61	-37.6	-39.6	20.1	0.00e+00	0	44	0	466616320	47	4361
2026-01-29 12:42:36.24	187.87	14.70	-37.7	-39.7	20.0	0.00e+00	0	44	0	472907776	47	4404
2026-01-29 12:42:37.24	187.94	14.80	-37.6	-39.6	20.1	0.00e+00	0	44	0	478150656	47	4355
2026-01-29 12:42:38.24	188.02	14.90	-37.7	-39.6	20.0	0.00e+00	0	44	0	483393536	47	4380
2026-01-29 12:42:39.23	188.09	15.00	-37.6	-39.6	20.1	0.00e+00	0	44	0	489684992	47	4368
2026-01-29 12:42:40.23	188.17	15.10	-37.6	-39.6	20.1	0.00e+00	0	44	0	494927872	47	4348
2026-01-29 12:42:41.23	188.24	15.21	-37.6	-39.5	20.1	0.00e+00	0	44	0	501219328	47	4338
2026-01-29 12:42:42.23	188.32	15.31	-37.5	-39.5	20.1	0.00e+00	0	44	0	506462208	47	4317
2026-01-29 12:42:43.22	188.39	15.41	-37.6	-39.6	20.1	0.00e+00	0	44	0	511705088	47	4360
2026-01-29 12:42:44.22	188.47	15.51	-37.6	-39.5	20.1	0.00e+00	0	44	0	517996544	47	4332
2026-01-29 12:42:45.22	188.55	15.61	-37.5	-39.4	20.3	0.00e+00	0	44	0	523239424	46	4507
2026-01-29 12:42:46.22	188.63	15.72	-37.3	-39.3	20.4	0.00e+00	0	43	0	528482304	46	4449
2026-01-29 12:42:47.22	188.71	15.82	-37.3	-39.2	20.4	0.00e+00	0	44	0	534773760	46	4438
2026-01-29 12:42:48.22	188.79	15.92	-37.3	-39.2	20.4	0.00e+00	0	44	0	540016640	46	4438
2026-01-29 12:42:49.21	188.87	16.03	-37.3	-39.2	20.5	0.00e+00	0	44	0	545259520	46	4402
2026-01-29 12:42:50.21	188.95	16.13	-37.2	-39.1	20.5	0.00e+00	0	44	0	551550976	46	4385
2026-01-29 12:42:51.21	189.03	16.24	-37.2	-39.1	20.5	0.00e+00	0	44	0	556793856	46	4379
2026-01-29 12:42:52.21	189.11	16.34	-37.2	-39.1	20.6	0.00e+00	0	44	0	563085312	46	4351
2026-01-29 12:42:53.21	189.19	16.45	-37.2	-39.1	20.5	0.00e+00	0	44	0	568328192	46	4383
2026-01-29 12:42:54.22	189.27	16.56	-37.3	-39.1	20.5	0.00e+00	0	44	0	573571072	46	4387
2026-01-29 12:42:55.22	189.36	16.66	-37.3	-39.2	20.5	0.00e+00	0	44	0	579862528	46	4394
2026-01-29 12:42:56.22	189.44	16.77	-37.1	-39.0	20.6	0.00e+00	0	44	0	585105408	46	4323
2026-01-29 12:42:57.22	189.53	16.88	-37.2	-39.0	20.6	0.00e+00	0	44	0	590348288	46	4337
2026-01-29 12:42:58.22	189.61	16.98	-37.0	-38.9	20.7	0.00e+00	0	44	0	596639744	46	4269
2026-01-29 12:42:59.23	189.70	17.09	-37.0	-38.9	20.8	0.00e+00	0	44	0	601882624	46	4265
2026-01-29 12:43:00.22	189.78	17.20	-37.0	-38.9	20.7	0.00e+00	0	44	0	607125504	46	4272
2026-01-29 12:43:01.22	189.87	17.31	-37.1	-39.0	20.7	0.00e+00	0	44	0	613416960	46	4298
2026-01-29 12:43:02.22	189.96	17.42	-36.8	-38.6	21.0	0.00e+00	0	44	0	618659840	45	4388
2026-01-29 12:43:03.22	190.05	17.53	-36.6	-38.4	21.1	0.00e+00	0	44	0	624951296	45	4285
2026-01-29 12:43:04.22	190.13	17.64	-36.5	-38.3	21.2	0.00e+00	0	44	0	630194176	45	4241
2026-01-29 12:43:05.23	190.22	17.75	-36.6	-38.4	21.2	0.00e+00	0	44	0	635437056	45	4267
2026-01-29 12:43:06.22	190.31	17.86	-36.6	-38.4	21.2	0.00e+00	0	44	0	641728512	45	4271
2026-01-29 12:43:07.23	190.40	17.98	-36.7	-38.5	21.1	0.00e+00	0	44	0	646971392	45	4307
2026-01-29 12:43:08.23	190.50	18.09	-36.6	-38.4	21.2	0.00e+00	0	44	0	652214272	45	4259
2026-01-29 12:43:09.23	190.59	18.20	-36.5	-38.3	21.3	0.00e+00	0	44	0	658505728	44	4457
2026-01-29 12:43:10.23	190.68	18.32	-36.5	-38.3	21.3	0.00e+00	0	44	0	663748608	44	4487
2026-01-29 12:43:11.23	190.77	18.43	-36.6	-38.4	21.2	0.00e+00	0	44	0	668991488	44	4530
2026-01-29 12:43:12.23	190.87	18.54	-36.7	-38.5	21.0	0.00e+00	0	44	0	675282944	44	4590
2026-01-29 12:43:13.23	190.96	18.66	-36.7	-38.5	21.0	0.00e+00	0	44	0	680525824	44	4592
2026-01-29 12:43:14.23	191.06	18.77	-36.7	-38.6	20.9	0.00e+00	0	44	0	686817280	44	4629
2026-01-29 12:43:15.23	191.15	18.89	-36.7	-38.6	20.9	0.00e+00	0	44	0	692060160	44	4630
2026-01-29 12:43:16.24	191.25	19.00	-36.7	-38.6	21.0	0.00e+00	0	44	0	697303040	44	4622
2026-01-29 12:43:17.24	191.35	19.12	-36.7	-38.5	21.0	0.00e+00	0	44	0	703594496	44	4588
2026-01-29 12:43:18.24	191.45	19.24	-36.6	-38.5	21.1	0.00e+00	0	44	0	708837376	44	4558
2026-01-29 12:43:19.24	191.54	19.36	-36.6	-38.4	21.2	0.00e+00	0	44	0	714080256	44	4530
2026-01-29 12:43:20.24	191.64	19.47	-36.7	-38.5	21.1	0.00e+00	0	44	0	720371712	44	4585
2026-01-29 12:43:21.24	191.74	19.59	-36.6	-38.4	21.1	0.00e+00	0	44	0	725614592	44	4544
2026-01-29 12:43:22.24	191.85	19.71	-36.6	-38.4	21.2	0.00e+00	0	44	0	730857472	44	4526
2026-01-29 12:43:23.25	191.95	19.83	-36.6	-38.4	21.1	0.00e+00	0	44	0	737148928	44	4524
2026-01-29 12:43:24.24	192.05	19.95	-36.5	-38.4	21.2	0.00e+00	0	44	0	742391808	44	4503
2026-01-29 12:43:25.24	192.15	20.07	-36.6	-38.5	21.1	0.00e+00	0	44	0	748683264	44	4551
2026-01-29 12:43:26.24	192.26	20.19	-36.4	-38.3	21.3	0.00e+00	0	44	0	753926144	44	4454
2026-01-29 12:43:27.24	192.36	20.31	-36.4	-38.2	21.3	0.00e+00	0	44	0	759169024	44	4433
2026-01-29 12:43:28.25	192.47	20.43	-36.4	-38.2	21.4	0.00e+00	0	44	0	765460480	44	4422
2026-01-29 12:43:29.25	192.58	20.56	-36.4	-38.2	21.4	0.00e+00	0	44	0	770703360	44	4402
2026-01-29 12:43:30.24	192.68	20.68	-36.1	-37.9	21.6	0.00e+00	0	44	0	775946240	44	4281
2026-01-29 12:43:31.24	192.79	20.80	-36.0	-37.8	21.7	0.00e+00	0	44	0	782237696	44	4202
2026-01-29 12:43:32.25	192.90	20.93	-35.8	-37.6	21.7	0.00e+00	0	44	0	787480576	43	4379
2026-01-29 12:43:33.24	193.01	21.05	-35.8	-37.6	21.8	0.00e+00	0	44	0	792723456	43	4358
2026-01-29 12:43:34.25	193.12	21.18	-35.8	-37.6	21.8	0.00e+00	0	44	0	799014912	43	4370
2026-01-29 12:43:35.25	193.23	21.30	-35.8	-37.6	21.8	0.00e+00	0	44	0	804257792	43	4372
2026-01-29 12:43:36.24	193.34	21.43	-35.8	-37.5	21.8	0.00e+00	0	44	0	810549248	43	4337
2026-01-29 12:43:37.25	193.46	21.55	-35.9	-37.6	21.7	0.00e+00	0	44	0	815792128	43	4379
2026-01-29 12:43:38.25	193.57	21.68	-35.9	-37.6	21.8	0.00e+00	0	44	0	822083584	43	4384
2026-01-29 12:43:39.25	193.69	21.81	-35.9	-37.6	21.8	0.00e+00	0	44	0	827326464	43	4383
2026-01-29 12:43:40.25	193.80	21.94	-35.9	-37.7	21.8	0.00e+00	0	44	0	832569344	43	4402
2026-01-29 12:43:41.25	193.92	22.06	-35.9	-37.6	21.8	0.00e+00	0	44	0	838860800	43	4380
2026-01-29 12:43:42.25	194.04	22.19	-35.9	-37.7	21.7	0.00e+00	0	44	0	844103680	43	4402
2026-01-29 12:43:43.25	194.16	22.32	-35.8	-37.6	21.8	0.00e+00	0	44	0	849346560	43	4385
2026-01-29 12:43:44.25	194.28	22.45	-35.8	-37.5	21.8	0.00e+00	0	44	0	855638016	43	4338
2026-01-29 12:43:45.25	194.40	22.58	-35.8	-37.5	21.8	0.00e+00	0	44	0	860880896	43	4336
2026-01-29 12:43:46.25	194.52	22.71	-35.7	-37.4	21.9	0.00e+00	0	44	0	866123776	43	4281
2026-01-29 12:43:47.26	194.64	22.85	-35.7	-37.5	21.9	0.00e+00	0	44	0	872415232	43	4317
2026-01-29 12:43:48.26	194.77	22.98	-35.7	-37.5	21.8	0.00e+00	0	44	0	877658112	43	4330
2026-01-29 12:43:49.26	194.89	23.11	-35.7	-37.5	21.9	0.00e+00	0	44	0	883949568	43	4307
2026-01-29 12:43:50.25	195.02	23.24	-35.8	-37.5	21.9	0.00e+00	0	44	0	889192448	43	4330
2026-01-29 12:43:51.25	195.15	23.38	-35.7	-37.4	21.9	0.00e+00	0	44	0	894435328	43	4291
2026-01-29 12:43:52.25	195.27	23.51	-35.5	-37.3	22.1	0.00e+00	0	44	0	900726784	43	4210
2026-01-29 12:43:53.25	195.40	23.65	-35.5	-37.3	22.1	0.00e+00	0	44	0	905969664	43	4209
2026-01-29 12:43:54.25	195.53	23.78	-35.4	-37.2	22.1	0.00e+00	0	44	0	911212544	42	4398
2026-01-29 12:43:55.25	195.66	23.92	-35.4	-37.1	22.2	0.00e+00	0	44	0	917504000	42	4390
2026-01-29 12:43:56.26	195.80	24.06	-35.3	-37.0	22.3	0.00e+00	0	44	0	922746880	42	4334
2026-01-29 12:43:57.25	195.93	24.19	-35.3	-37.1	22.3	0.00e+00	0	44	0	927989760	42	4342
2026-01-29 12:43:58.26	196.07	24.33	-35.3	-37.0	22.3	0.00e+00	0	44	0	934281216	42	4339
2026-01-29 12:43:59.26	196.20	24.47	-35.3	-37.1	22.2	0.00e+00	0	44	0	939524096	42	4361
2026-01-29 12:44:00.26	196.34	24.61	-35.4	-37.2	22.2	0.00e+00	0	44	0	945815552	42	4406
2026-01-29 12:44:01.26	196.48	24.75	-35.5	-37.2	22.1	0.00e+00	0	44	0	951058432	42	4426
2026-01-29 12:44:02.27	196.62	24.89	-35.5	-37.2	22.1	0.00e+00	0	44	0	956301312	42	4420
2026-01-29 12:44:03.26	196.76	25.03	-35.5	-37.2	22.1	0.00e+00	0	44	0	962592768	42	4438
2026-01-29 12:44:04.27	196.90	25.17	-35.4	-37.1	22.2	0.00e+00	0	44	0	967835648	42	4385
2026-01-29 12:44:05.27	197.04	25.32	-35.5	-37.2	22.1	0.00e+00	0	44	0	973078528	42	4422
2026-01-29 12:44:06.27	197.19	25.46	-35.5	-37.2	22.1	0.00e+00	0	44	0	979369984	42	4435
2026-01-29 12:44:07.27	197.33	25.60	-35.4	-37.1	22.2	0.00e+00	0	44	0	984612864	42	4374
2026-01-29 12:44:08.27	197.48	25.74	-35.4	-37.1	22.2	0.00e+00	0	44	0	989855744	42	4368
2026-01-29 12:44:09.27	197.63	25.89	-35.3	-37.0	22.2	0.00e+00	0	44	0	996147200	42	4338
2026-01-29 12:44:10.27	197.78	26.03	-35.4	-37.2	22.1	0.00e+00	0	44	0	1001390080	42	4399
2026-01-29 12:44:11.27	197.93	26.18	-35.2	-37.0	22.3	0.00e+00	0	44	0	1007681536	42	4296
2026-01-29 12:44:12.27	198.08	26.32	-35.2	-36.9	22.3	0.00e+00	0	44	0	1012924416	42	4270
2026-01-29 12:44:13.27	198.23	26.47	-35.2	-36.9	22.3	0.00e+00	0	44	0	1018167296	42	4278
2026-01-29 12:44:14.27	198.39	26.62	-35.1	-36.9	22.3	0.00e+00	0	44	0	1024458752	42	4254
2026-01-29 12:44:15.27	198.55	26.77	-35.2	-37.0	22.2	0.00e+00	0	44	0	1029701632	42	4316
2026-01-29 12:44:16.27	198.70	26.91	-35.2	-37.0	22.2	0.00e+00	0	44	0	1034944512	42	4314
2026-01-29 12:44:17.27	198.86	27.06	-35.2	-36.9	22.3	0.00e+00	0	44	0	1041235968	42	4277
2026-01-29 12:44:18.27	199.02	27.21	-35.2	-37.0	22.3	0.00e+00	0	44	0	1046478848	42	4297
2026-01-29 12:44:19.26	199.18	27.36	-35.1	-36.8	22.4	0.00e+00	0	44	0	1052770304	42	4225
2026-01-29 12:44:20.27	199.35	27.51	-35.1	-36.9	22.4	0.00e+00	0	44	0	1058013184	42	4256
2026-01-29 12:44:21.27	199.52	27.66	-35.2	-36.9	22.3	0.00e+00	0	44	0	1063256064	42	4286
2026-01-29 12:44:22.27	199.68	27.82	-35.0	-36.8	22.4	0.00e+00	0	44	0	1069547520	42	4204
2026-01-29 12:44:23.27	199.85	27.97	-34.9	-36.7	22.5	0.00e+00	0	44	0	1074790400	41	4402
2026-01-29 12:44:24.27	200.02	28.12	-35.0	-36.7	22.5	0.00e+00	0	44	0	1080033280	41	4427
2026-01-29 12:44:25.27	200.19	28.28	-34.9	-36.6	22.6	0.00e+00	0	44	0	1086324736	41	4376
2026-01-29 12:44:26.27	200.36	28.43	-34.9	-36.7	22.5	0.00e+00	0	44	0	1091567616	41	4400
2026-01-29 12:44:27.27	200.54	28.58	-35.0	-36.8	22.4	0.00e+00	0	44	0	1096810496	41	4447
2026-01-29 12:44:28.27	200.72	28.74	-35.0	-36.8	22.4	0.00e+00	0	44	0	1103101952	41	4466
2026-01-29 12:44:29.28	200.90	28.90	-35.1	-36.9	22.3	0.00e+00	0	44	0	1108344832	41	4524
2026-01-29 12:44:30.27	201.07	29.05	-35.2	-36.9	22.3	0.00e+00	0	44	0	1114636288	41	4531
2026-01-29 12:44:31.27	201.25	29.21	-35.0	-36.8	22.4	0.00e+00	0	44	0	1119879168	41	4471
2026-01-29 12:44:32.28	201.44	29.37	-35.1	-36.9	22.3	0.00e+00	0	44	0	1125122048	41	4522
2026-01-29 12:44:33.28	201.62	29.53	-35.1	-36.8	22.3	0.00e+00	0	44	0	1131413504	41	4489
2026-01-29 12:44:34.28	201.81	29.68	-35.1	-36.9	22.3	0.00e+00	0	44	0	1136656384	41	4502
2026-01-29 12:44:35.28	202.00	29.84	-35.0	-36.7	22.4	0.00e+00	0	44	0	1141899264	41	4440
2026-01-29 12:44:36.27	202.19	30.00	-35.0	-36.7	22.5	0.00e+00	0	44	0	1148190720	41	4412
2026-01-29 12:44:37.28	202.38	30.16	-35.0	-36.7	22.5	0.00e+00	0	44	0	1153433600	41	4426
2026-01-29 12:44:38.50	202.62	30.36	-34.9	-36.7	22.6	0.00e+00	0	44	0	1160773632	41	4395
2026-01-29 12:44:39.36	202.79	30.50	-34.8	-36.6	22.6	0.00e+00	0	44	0	1164967936	41	4352
2026-01-29 12:44:40.50	203.01	30.68	-34.9	-36.6	22.4	0.00e+00	0	44	0	1171259392	41	4374
2026-01-29 12:44:41.36	203.19	30.82	-34.9	-36.6	22.6	0.00e+00	0	44	0	1176502272	41	4382
2026-01-29 12:44:42.50	203.42	31.01	-34.9	-36.7	22.6	0.00e+00	0	44	0	1182793728	41	4392
2026-01-29 12:44:43.36	203.59	31.15	-35.0	-36.8	22.5	0.00e+00	0	44	0	1188036608	41	4446
2026-01-29 12:44:44.51	203.83	31.34	-35.0	-36.7	22.6	0.00e+00	0	44	0	1194328064	41	4422
2026-01-29 12:44:45.37	204.01	31.48	-35.0	-36.7	22.6	0.00e+00	0	44	0	1199570944	41	4414
2026-01-29 12:44:46.51	204.25	31.67	-35.0	-36.8	22.5	0.00e+00	0	44	0	1205862400	41	4450
2026-01-29 12:44:47.37	204.43	31.81	-35.1	-36.8	22.5	0.00e+00	0	44	0	1210056704	41	4478
2026-01-29 12:44:48.51	204.68	32.00	-34.9	-36.7	22.5	0.00e+00	0	44	0	1216348160	41	4401
2026-01-29 12:44:49.37	204.86	32.15	-34.9	-36.6	22.6	0.00e+00	0	44	0	1221591040	41	4365
2026-01-29 12:44:50.51	205.11	32.34	-34.9	-36.6	22.6	0.00e+00	0	44	0	1227882496	41	4368
2026-01-29 12:44:51.37	205.30	32.48	-34.9	-36.6	22.6	0.00e+00	0	44	0	1233125376	41	4377
2026-01-29 12:44:52.51	205.56	32.67	-34.8	-36.5	22.7	0.00e+00	0	44	0	1239416832	41	4337
2026-01-29 12:44:53.37	205.75	32.82	-34.7	-36.4	22.8	0.00e+00	0	44	0	1243611136	41	4255
2026-01-29 12:44:54.51	206.01	33.01	-34.8	-36.5	22.7	0.00e+00	0	44	0	1250951168	41	4308
2026-01-29 12:44:55.37	206.21	33.16	-34.8	-36.6	22.7	0.00e+00	0	44	0	1255145472	41	4349
2026-01-29 12:44:56.52	206.48	33.35	-35.0	-36.7	22.5	0.00e+00	0	44	0	1261436928	41	4420
2026-01-29 12:44:57.37	206.68	33.50	-35.1	-36.8	22.4	0.00e+00	0	44	0	1266679808	41	4479
2026-01-29 12:44:58.51	206.95	33.69	-35.1	-36.8	22.4	0.00e+00	0	44	0	1272971264	41	4490
2026-01-29 12:44:59.37	207.16	33.84	-35.0	-36.7	22.5	0.00e+00	0	44	0	1278214144	41	4432
2026-01-29 12:45:00.51	207.43	34.04	-34.8	-36.6	22.7	0.00e+00	0	44	0	1284505600	41	4348
2026-01-29 12:45:01.37	207.64	34.18	-34.6	-36.3	22.9	0.00e+00	0	44	0	1288699904	41	4232
2026-01-29 12:45:02.51	207.93	34.38	-34.6	-36.3	22.9	0.00e+00	0	44	0	1296039936	41	4212
2026-01-29 12:45:03.37	208.14	34.53	-34.6	-36.3	22.9	0.00e+00	0	44	0	1300234240	41	4201
2026-01-29 12:45:04.51	208.43	34.73	-34.4	-36.1	23.0	0.00e+00	0	44	0	1306525696	40	4364
2026-01-29 12:45:05.37	208.65	34.88	-34.5	-36.2	23.0	0.00e+00	0	44	0	1311768576	40	4410
2026-01-29 12:45:06.52	208.95	35.08	-34.6	-36.3	22.9	0.00e+00	0	44	0	1318060032	40	4452
2026-01-29 12:45:07.37	209.17	35.22	-34.6	-36.4	22.8	0.00e+00	0	44	0	1323302912	40	4510
2026-01-29 12:45:08.52	209.47	35.43	-34.7	-36.4	22.8	0.00e+00	0	44	0	1329594368	40	4540
2026-01-29 12:45:09.37	209.70	35.57	-34.7	-36.4	22.7	0.00e+00	0	44	0	1333788672	40	4537
2026-01-29 12:45:10.51	210.01	35.77	-34.7	-36.4	22.8	0.00e+00	0	44	0	1340080128	40	4534
2026-01-29 12:45:11.37	210.24	35.92	-34.6	-36.3	22.8	0.00e+00	0	44	0	1345323008	40	4477
2026-01-29 12:45:12.51	210.55	36.13	-34.6	-36.3	22.9	0.00e+00	0	44	0	1351614464	40	4454
2026-01-29 12:45:13.37	210.79	36.28	-34.5	-36.3	22.9	0.00e+00	0	44	0	1356857344	40	4443
2026-01-29 12:45:14.51	211.11	36.48	-34.6	-36.4	22.8	0.00e+00	0	44	0	1363148800	40	4501
2026-01-29 12:45:15.37	211.36	36.63	-34.7	-36.4	22.8	0.00e+00	0	44	0	1367343104	40	4530
2026-01-29 12:45:16.52	211.69	36.83	-34.5	-36.2	23.0	0.00e+00	0	44	0	1374683136	40	4394
2026-01-29 12:45:17.38	211.94	36.98	-34.4	-36.1	23.1	0.00e+00	0	44	0	1378877440	40	4375
2026-01-29 12:45:18.52	212.27	37.19	-34.2	-35.9	23.2	0.00e+00	0	44	0	1385168896	40	4265
2026-01-29 12:45:19.38	212.53	37.34	-34.3	-36.0	23.2	0.00e+00	0	44	0	1390411776	40	4322
2026-01-29 12:45:20.52	212.87	37.54	-34.3	-36.1	23.1	0.00e+00	0	44	0	1396703232	40	4343
2026-01-29 12:45:21.38	213.13	37.69	-34.3	-36.0	23.2	0.00e+00	0	44	0	1401946112	40	4337
2026-01-29 12:45:22.52	213.48	37.89	-34.3	-36.0	23.2	0.00e+00	0	44	0	1408237568	40	4309
2026-01-29 12:45:23.38	213.74	38.05	-34.3	-36.0	23.1	0.00e+00	0	44	0	1412431872	40	4335
2026-01-29 12:45:24.53	214.10	38.25	-34.3	-36.0	23.2	0.00e+00	0	44	0	1419771904	40	4316
2026-01-29 12:45:25.39	214.37	38.40	-34.3	-35.9	23.2	0.00e+00	0	44	0	1423966208	40	4282
2026-01-29 12:45:26.53	214.74	38.60	-34.4	-36.1	23.1	0.00e+00	0	44	0	1430257664	40	4349
2026-01-29 12:45:27.38	215.01	38.75	-34.5	-36.2	23.0	0.00e+00	0	44	0	1435500544	40	4418
2026-01-29 12:45:28.53	215.39	38.96	-34.6	-36.3	22.9	0.00e+00	0	44	0	1441792000	40	4487
2026-01-29 12:45:29.38	215.67	39.11	-34.6	-36.4	22.9	0.00e+00	0	44	0	1447034880	40	4494
2026-01-29 12:45:30.53	216.05	39.31	-34.6	-36.3	23.0	0.00e+00	0	44	0	1453326336	40	4462
2026-01-29 12:45:31.38	216.34	39.46	-34.6	-36.3	23.0	0.00e+00	0	44	0	1457520640	40	4470
2026-01-29 12:45:32.53	216.73	39.66	-34.7	-36.3	23.0	0.00e+00	0	44	0	1463812096	40	4488
2026-01-29 12:45:33.39	217.03	39.81	-34.5	-36.1	23.1	0.00e+00	0	44	0	1469054976	40	4387
2026-01-29 12:45:34.53	217.42	40.02	-34.7	-36.4	22.9	0.00e+00	0	44	0	1475346432	40	4511
2026-01-29 12:45:35.39	217.73	40.17	-34.7	-36.4	22.8	0.00e+00	0	44	0	1480589312	40	4529
2026-01-29 12:45:36.53	218.13	40.37	-34.8	-36.5	22.8	0.00e+00	0	44	0	1486880768	40	4580
2026-01-29 12:45:37.39	218.44	40.52	-34.7	-36.5	22.8	0.00e+00	0	44	0	1491075072	40	4561
2026-01-29 12:45:38.54	218.86	40.72	-34.8	-36.5	22.7	0.00e+00	0	44	0	1498415104	40	4589
2026-01-29 12:45:39.39	219.17	40.86	-34.7	-36.4	22.9	0.00e+00	0	44	0	1502609408	40	4510
2026-01-29 12:45:40.54	219.60	41.06	-34.3	-36.0	23.1	0.00e+00	0	44	0	1508900864	40	4328
2026-01-29 12:45:41.40	219.92	41.21	-34.4	-36.0	23.1	0.00e+00	0	44	0	1514143744	40	4333
2026-01-29 12:45:42.54	220.35	41.41	-34.5	-36.2	23.0	0.00e+00	0	44	0	1520435200	40	4403
2026-01-29 12:45:43.40	220.68	41.56	-34.7	-36.5	22.8	0.00e+00	0	44	0	1525678080	40	4548
2026-01-29 12:45:44.55	221.13	41.75	-34.8	-36.6	22.7	0.00e+00	0	44	0	1531969536	40	4611
2026-01-29 12:45:45.40	221.46	41.90	-34.8	-36.5	22.7	0.00e+00	0	44	0	1537212416	40	4598
2026-01-29 12:45:46.55	221.91	42.09	-34.9	-36.6	22.7	0.00e+00	0	44	0	1543503872	40	4612
2026-01-29 12:45:47.41	222.26	42.24	-34.5	-36.2	23.0	0.00e+00	0	44	0	1547698176	40	4399
2026-01-29 12:45:48.55	222.72	42.43	-34.3	-36.0	23.2	0.00e+00	0	44	0	1555038208	40	4313
2026-01-29 12:45:49.41	223.07	42.58	-34.5	-36.2	23.0	0.00e+00	0	44	0	1559232512	40	4405
2026-01-29 12:45:50.55	223.54	42.77	-34.8	-36.5	22.7	0.00e+00	0	44	0	1565523968	40	4570
2026-01-29 12:45:51.41	223.89	42.91	-34.8	-36.5	22.7	0.00e+00	0	44	0	1570766848	40	4588
2026-01-29 12:45:52.55	224.37	43.10	-34.7	-36.4	22.8	0.00e+00	0	44	0	1577058304	40	4516
2026-01-29 12:45:53.41	224.74	43.24	-34.7	-36.4	22.8	0.00e+00	0	44	0	1582301184	40	4544
2026-01-29 12:45:54.56	225.23	43.42	-34.6	-36.3	22.9	0.00e+00	0	44	0	1588592640	40	4463
2026-01-29 12:45:55.41	225.60	43.56	-34.7	-36.4	22.8	0.00e+00	0	44	0	1592786944	40	4540
2026-01-29 12:45:56.56	226.10	43.75	-34.7	-36.4	22.9	0.00e+00	0	44	0	1599078400	40	4523
2026-01-29 12:45:57.41	226.48	43.88	-34.7	-36.5	22.8	0.00e+00	0	44	0	1604321280	40	4547
2026-01-29 12:45:58.56	226.99	44.06	-34.8	-36.5	22.8	0.00e+00	0	44	0	1610612736	40	4561
2026-01-29 12:45:59.41	227.37	44.20	-34.7	-36.5	22.8	0.00e+00	0	44	0	1615855616	40	4547
2026-01-29 12:46:00.56	227.90	44.38	-34.7	-36.4	22.9	0.00e+00	0	44	0	1622147072	40	4545
2026-01-29 12:46:01.41	228.29	44.51	-34.9	-36.6	22.7	0.00e+00	0	44	0	1626341376	40	4637
2026-01-29 12:46:02.56	228.82	44.68	-34.9	-36.7	22.7	0.00e+00	0	44	0	1633681408	40	4666
2026-01-29 12:46:03.41	229.22	44.81	-35.0	-36.8	22.6	0.00e+00	0	44	0	1637875712	40	4713
2026-01-29 12:46:04.55	229.76	44.98	-34.9	-36.7	22.6	0.00e+00	0	44	0	1644167168	40	4667
2026-01-29 12:46:05.41	230.17	45.11	-34.9	-36.7	22.6	0.00e+00	0	44	0	1649410048	40	4653
2026-01-29 12:46:06.55	230.72	45.28	-34.8	-36.5	22.7	0.00e+00	0	44	0	1655701504	40	4598
2026-01-29 12:46:07.41	231.13	45.40	-34.9	-36.7	22.6	0.00e+00	0	44	0	1660944384	40	4658
2026-01-29 12:46:08.55	231.69	45.57	-35.0	-36.7	22.6	0.00e+00	0	44	0	1667235840	40	4702
2026-01-29 12:46:09.41	232.12	45.69	-35.1	-36.8	22.5	0.00e+00	0	44	0	1671430144	40	4744
2026-01-29 12:46:10.56	232.69	45.85	-35.1	-36.9	22.5	0.00e+00	0	44	0	1678770176	40	4770
2026-01-29 12:46:11.41	233.12	45.97	-35.0	-36.7	22.6	0.00e+00	0	44	0	1682964480	40	4675
2026-01-29 12:46:12.56	233.70	46.12	-35.0	-36.7	22.6	0.00e+00	0	44	0	1689255936	40	4694
2026-01-29 12:46:13.42	234.14	46.24	-35.1	-36.8	22.6	0.00e+00	0	44	0	1694498816	40	4725
2026-01-29 12:46:14.57	234.74	46.39	-35.0	-36.7	22.7	0.00e+00	0	44	0	1700790272	40	4682
2026-01-29 12:46:15.42	235.18	46.50	-34.9	-36.7	22.8	0.00e+00	0	44	0	1706033152	40	4653
2026-01-29 12:46:16.57	235.78	46.65	-34.8	-36.5	22.9	0.00e+00	0	44	0	1712324608	40	4572
2026-01-29 12:46:17.43	236.24	46.75	-34.6	-36.3	23.0	0.00e+00	0	44	0	1716518912	40	4485
2026-01-29 12:46:18.57	236.85	46.89	-34.7	-36.4	22.9	0.00e+00	0	44	0	1722810368	40	4544
2026-01-29 12:46:19.43	237.31	47.00	-34.9	-36.6	22.7	0.00e+00	0	44	0	1728053248	40	4649
2026-01-29 12:46:20.57	237.93	47.13	-34.9	-36.7	22.7	0.00e+00	0	44	0	1734344704	40	4655
2026-01-29 12:46:21.43	238.39	47.23	-35.1	-36.8	22.6	0.00e+00	0	44	0	1739587584	40	4732
2026-01-29 12:46:22.58	239.03	47.36	-35.1	-36.8	22.6	0.00e+00	0	44	0	1745879040	40	4732
2026-01-29 12:46:23.43	239.50	47.46	-35.0	-36.7	22.6	0.00e+00	0	44	0	1751121920	40	4694
2026-01-29 12:46:24.58	240.14	47.58	-34.9	-36.6	22.8	0.00e+00	0	44	0	1757413376	40	4618
2026-01-29 12:46:25.44	240.62	47.67	-34.9	-36.6	22.7	0.00e+00	0	44	0	1761607680	40	4642
2026-01-29 12:46:26.59	241.27	47.79	-34.9	-36.6	22.8	0.00e+00	0	44	0	1767899136	40	4620
2026-01-29 12:46:27.44	241.75	47.88	-34.8	-36.5	22.8	0.00e+00	0	44	0	1773142016	40	4585
2026-01-29 12:46:28.59	242.41	47.99	-34.8	-36.5	22.8	0.00e+00	0	44	0	1779433472	40	4589
2026-01-29 12:46:29.45	242.90	48.07	-34.8	-36.5	22.9	0.00e+00	0	44	0	1784676352	40	4578
2026-01-29 12:46:30.59	243.56	48.17	-34.8	-36.6	22.8	0.00e+00	0	44	0	1790967808	40	4599
2026-01-29 12:46:31.45	244.07	48.25	-34.8	-36.5	22.8	0.00e+00	0	44	0	1796210688	40	4598
2026-01-29 12:46:32.60	244.74	48.35	-34.8	-36.5	22.8	0.00e+00	0	44	0	1802502144	40	4581
2026-01-29 12:46:33.46	245.24	48.42	-34.9	-36.6	22.8	0.00e+00	0	44	0	1806696448	40	4626
2026-01-29 12:46:34.60	245.92	48.51	-35.0	-36.7	22.7	0.00e+00	0	44	0	1812987904	40	4676
2026-01-29 12:46:35.46	246.43	48.58	-35.0	-36.7	22.7	0.00e+00	0	44	0	1818230784	40	4660
2026-01-29 12:46:36.60	247.11	48.66	-34.9	-36.6	22.7	0.00e+00	0	44	0	1824522240	40	4647
2026-01-29 12:46:37.76	247.81	48.74	-34.9	-36.7	22.7	0.00e+00	0	44	0	1830813696	40	4665
2026-01-29 12:46:38.62	248.33	48.80	-34.9	-36.7	22.7	0.00e+00	0	44	0	1836056576	40	4655
2026-01-29 12:46:39.77	249.02	48.87	-35.0	-36.7	22.6	0.00e+00	0	44	0	1842348032	40	4691
2026-01-29 12:46:40.63	249.55	48.92	-34.9	-36.6	22.7	0.00e+00	0	44	0	1847590912	40	4630
2026-01-29 12:46:41.77	250.24	48.99	-34.9	-36.6	22.7	0.00e+00	0	44	0	1853882368	40	4637
2026-01-29 12:46:42.63	250.77	49.03	-34.9	-36.6	22.7	0.00e+00	0	44	0	1858076672	40	4621
2026-01-29 12:46:43.77	251.47	49.09	-35.0	-36.8	22.6	0.00e+00	0	44	0	1865416704	40	4708
2026-01-29 12:46:44.63	252.00	49.13	-35.1	-36.9	22.5	0.00e+00	0	44	0	1869611008	40	4760
2026-01-29 12:46:45.78	252.71	49.18	-34.8	-36.5	22.8	0.00e+00	0	44	0	1875902464	40	4578
2026-01-29 12:46:46.64	253.25	49.21	-34.8	-36.5	22.9	0.00e+00	0	44	0	1881145344	40	4563
2026-01-29 12:46:47.78	253.95	49.25	-34.9	-36.6	22.7	0.00e+00	0	44	0	1887436800	40	4640
2026-01-29 12:46:48.64	254.49	49.28	-35.1	-36.8	22.6	0.00e+00	0	44	0	1892679680	40	4744
2026-01-29 12:46:49.78	255.20	49.31	-35.1	-36.9	22.5	0.00e+00	0	44	0	1898971136	40	4768
2026-01-29 12:46:50.64	255.74	49.33	-34.9	-36.7	22.7	0.00e+00	0	44	0	1903165440	40	4652
2026-01-29 12:46:51.78	256.45	49.36	-35.0	-36.7	22.6	0.00e+00	0	44	0	1910505472	40	4701
2026-01-29 12:46:52.64	256.99	49.38	-34.9	-36.7	22.7	0.00e+00	0	44	0	1914699776	40	4654
2026-01-29 12:46:53.79	257.71	49.39	-35.0	-36.7	22.7	0.00e+00	0	44	0	1920991232	40	4685
2026-01-29 12:46:54.64	258.25	49.40	-35.0	-36.7	22.7	0.00e+00	0	44	0	1926234112	40	4658
2026-01-29 12:46:55.79	258.97	49.41	-34.8	-36.5	22.9	0.00e+00	0	44	0	1932525568	40	4558
2026-01-29 12:46:56.65	259.51	49.41	-34.7	-36.4	22.9	0.00e+00	0	44	0	1937768448	40	4511
2026-01-29 12:46:57.79	260.23	49.41	-34.9	-36.6	22.8	0.00e+00	0	44	0	1944059904	40	4609
2026-01-29 12:46:58.65	260.77	49.41	-35.3	-37.0	22.4	0.00e+00	0	44	0	1948254208	41	4570
2026-01-29 12:46:59.79	261.48	49.40	-35.4	-37.2	22.2	0.00e+00	0	44	0	1954545664	41	4677
2026-01-29 12:47:00.65	262.02	49.39	-35.0	-36.8	22.6	0.00e+00	0	44	0	1959788544	41	4447
2026-01-29 12:47:01.80	262.75	49.38	-34.9	-36.6	22.8	0.00e+00	0	44	0	1966080000	41	4360
2026-01-29 12:47:02.65	263.28	49.36	-35.0	-36.8	22.6	0.00e+00	0	44	0	1971322880	41	4452
2026-01-29 12:47:03.79	263.99	49.34	-35.0	-36.7	22.6	0.00e+00	0	44	0	1977614336	41	4426
2026-01-29 12:47:04.65	264.53	49.31	-35.0	-36.7	22.6	0.00e+00	0	44	0	1982857216	41	4408
2026-01-29 12:47:05.79	265.24	49.28	-35.2	-36.9	22.5	0.00e+00	0	44	0	1989148672	42	4258
2026-01-29 12:47:06.65	265.78	49.25	-35.3	-37.1	22.4	0.00e+00	0	44	0	1994391552	42	4345
2026-01-29 12:47:07.80	266.49	49.21	-35.1	-36.9	22.6	0.00e+00	0	44	0	2000683008	42	4243
2026-01-29 12:47:08.66	267.02	49.18	-35.1	-36.9	22.6	0.00e+00	0	44	0	2004877312	42	4252
2026-01-29 12:47:09.80	267.73	49.13	-35.1	-36.8	22.6	0.00e+00	0	44	0	2011168768	42	4228
2026-01-29 12:47:10.66	268.26	49.09	-35.0	-36.8	22.6	0.00e+00	0	44	0	2016411648	42	4205
2026-01-29 12:47:11.81	268.96	49.03	-34.9	-36.6	22.8	0.00e+00	0	44	0	2022703104	41	4349
2026-01-29 12:47:12.67	269.49	48.99	-34.9	-36.7	22.7	0.00e+00	0	44	0	2027945984	41	4403
2026-01-29 12:47:13.81	270.19	48.92	-35.1	-36.8	22.6	0.00e+00	0	44	0	2034237440	41	4477
2026-01-29 12:47:14.67	270.71	48.87	-35.0	-36.7	22.6	0.00e+00	0	44	0	2038431744	41	4418
2026-01-29 12:47:15.81	271.40	48.80	-34.9	-36.7	22.7	0.00e+00	0	44	0	2045771776	41	4394
2026-01-29 12:47:16.67	271.92	48.74	-35.3	-37.0	22.4	0.00e+00	0	44	0	2049966080	41	4572
2026-01-29 12:47:17.81	272.60	48.66	-35.3	-37.1	22.3	0.00e+00	0	44	0	2056257536	41	4610
2026-01-29 12:47:18.67	273.12	48.60	-35.3	-37.1	22.3	0.00e+00	0	44	0	2061500416	41	4627
2026-01-29 12:47:19.81	273.79	48.51	-35.4	-37.1	22.4	0.00e+00	0	44	0	2067791872	41	4627
2026-01-29 12:47:20.67	274.30	48.45	-35.3	-37.1	22.4	0.00e+00	0	44	0	2073034752	41	4604
2026-01-29 12:47:21.81	274.97	48.35	-34.8	-36.6	22.8	0.00e+00	0	44	0	2079326208	41	4342
2026-01-29 12:47:22.67	275.48	48.28	-34.6	-36.3	23.0	0.00e+00	0	44	0	2083520512	41	4222
2026-01-29 12:47:23.81	276.14	48.18	-34.7	-36.3	22.9	0.00e+00	0	44	0	2090860544	41	4242
2026-01-29 12:47:24.67	276.64	48.10	-34.8	-36.5	22.8	0.00e+00	0	44	0	2095054848	41	4332
2026-01-29 12:47:25.82	277.30	47.99	-34.9	-36.6	22.7	0.00e+00	0	44	0	2101346304	41	4373
2026-01-29 12:47:26.68	277.79	47.91	-34.8	-36.6	22.8	0.00e+00	0	44	0	2106589184	41	4345
2026-01-29 12:47:27.82	278.44	47.80	-34.7	-36.4	22.9	0.00e+00	0	44	0	2112880640	41	4263
2026-01-29 12:47:28.68	278.92	47.71	-34.9	-36.6	22.7	0.00e+00	0	44	0	2118123520	41	4384
2026-01-29 12:47:29.82	279.56	47.59	-35.2	-37.0	22.4	0.00e+00	0	44	0	2124414976	41	4564
2026-01-29 12:47:30.68	280.04	47.50	-35.2	-36.9	22.4	0.00e+00	0	44	0	2128609280	41	4541
2026-01-29 12:47:31.82	280.67	47.37	-35.0	-36.8	22.6	0.00e+00	0	44	0	2134900736	41	4445
2026-01-29 12:47:32.68	281.14	47.28	-34.9	-36.6	22.7	0.00e+00	0	44	0	2140143616	41	4362
2026-01-29 12:47:33.83	281.77	47.14	-34.9	-36.6	22.7	0.00e+00	0	44	0	2146435072	41	4372
2026-01-29 12:47:34.69	282.24	47.04	-34.8	-36.5	22.8	0.00e+00	0	44	0	2151677952	41	4328
2026-01-29 12:47:35.83	282.85	46.91	-34.9	-36.5	23.2	0.00e+00	0	44	0	2157969408	41	4337
2026-01-29 12:47:36.69	283.31	46.80	-34.9	-36.6	23.2	0.00e+00	0	44	0	2162163712	41	4342
2026-01-29 12:47:37.83	283.91	46.66	-34.7	-36.4	23.4	0.00e+00	0	44	0	2169503744	41	4248
2026-01-29 12:47:38.69	284.36	46.55	-34.5	-36.1	23.6	0.00e+00	0	44	0	2173698048	41	4107
2026-01-29 12:47:39.84	284.96	46.40	-34.6	-36.2	23.5	0.00e+00	0	44	0	2179989504	40	4408
2026-01-29 12:47:40.69	285.40	46.29	-34.8	-36.4	23.3	0.00e+00	0	44	0	2185232384	40	4540
2026-01-29 12:47:41.83	285.98	46.14	-35.0	-36.7	23.1	0.00e+00	0	44	0	2191523840	40	4677
2026-01-29 12:47:42.69	286.42	46.02	-35.2	-36.9	22.9	0.00e+00	0	44	0	2196766720	41	4503
2026-01-29 12:47:43.83	286.99	45.87	-35.0	-36.7	23.1	0.00e+00	0	44	0	2203058176	41	4401
2026-01-29 12:47:44.69	287.42	45.75	-35.0	-36.6	23.2	0.00e+00	0	44	0	2207252480	41	4386
2026-01-29 12:47:45.83	287.98	45.59	-35.0	-36.6	23.2	0.00e+00	0	44	0	2214592512	41	4365
2026-01-29 12:47:46.68	288.40	45.47	-35.2	-36.8	23.0	0.00e+00	0	44	0	2218786816	41	4491
2026-01-29 12:47:47.83	288.96	45.30	-35.2	-36.9	23.0	0.00e+00	0	44	0	2225078272	41	4500
2026-01-29 12:47:48.68	289.37	45.18	-35.1	-36.7	23.1	0.00e+00	0	44	0	2230321152	41	4422
2026-01-29 12:47:49.82	289.91	45.01	-35.0	-36.6	23.2	0.00e+00	0	44	0	2236612608	41	4385
2026-01-29 12:47:50.68	290.32	44.88	-35.0	-36.6	23.2	0.00e+00	0	44	0	2241855488	41	4376
2026-01-29 12:47:51.83	290.86	44.71	-34.8	-36.5	23.3	0.00e+00	0	44	0	2248146944	41	4302
2026-01-29 12:47:52.69	291.26	44.58	-34.7	-36.3	23.4	0.00e+00	0	44	0	2252341248	41	4239
2026-01-29 12:47:53.83	291.78	44.40	-34.8	-36.4	23.4	0.00e+00	0	44	0	2258632704	41	4275
2026-01-29 12:47:54.69	292.17	44.27	-34.9	-36.5	23.3	0.00e+00	0	44	0	2263875584	41	4325
2026-01-29 12:47:55.84	292.69	44.09	-35.2	-36.8	23.0	0.00e+00	0	44	0	2270167040	41	4489
2026-01-29 12:47:56.69	293.07	43.96	-35.4	-37.1	22.8	0.00e+00	0	44	0	2275409920	41	4640
2026-01-29 12:47:57.83	293.57	43.77	-35.2	-36.9	22.9	0.00e+00	0	44	0	2281701376	41	4525
2026-01-29 12:47:58.69	293.95	43.64	-35.1	-36.7	23.1	0.00e+00	0	44	0	2285895680	41	4434
2026-01-29 12:47:59.84	294.45	43.45	-35.2	-36.8	23.0	0.00e+00	0	44	0	2293235712	41	4459
2026-01-29 12:48:00.69	294.81	43.31	-35.1	-36.7	23.1	0.00e+00	0	44	0	2297430016	41	4421
2026-01-29 12:48:01.83	295.29	43.13	-34.9	-36.5	23.3	0.00e+00	0	44	0	2303721472	41	4322
2026-01-29 12:48:02.69	295.66	42.99	-34.9	-36.5	23.3	0.00e+00	0	44	0	2308964352	41	4339
2026-01-29 12:48:03.83	296.13	42.80	-35.0	-36.7	23.1	0.00e+00	0	44	0	2315255808	41	4411
2026-01-29 12:48:04.69	296.48	42.66	-35.1	-36.8	23.1	0.00e+00	0	44	0	2320498688	41	4445
2026-01-29 12:48:05.83	296.95	42.47	-34.9	-36.5	23.3	0.00e+00	0	44	0	2326790144	41	4328
2026-01-29 12:48:06.69	297.30	42.32	-34.6	-36.3	23.5	0.00e+00	0	44	0	2330984448	41	4203
2026-01-29 12:48:07.84	297.75	42.13	-34.6	-36.2	23.5	0.00e+00	0	44	0	2338324480	41	4190
2026-01-29 12:48:08.69	298.09	41.99	-34.7	-36.3	23.4	0.00e+00	0	44	0	2342518784	41	4223
2026-01-29 12:48:09.84	298.54	41.79	-34.9	-36.5	23.3	0.00e+00	0	44	0	2348810240	41	4326
2026-01-29 12:48:10.70	298.87	41.65	-34.9	-36.6	23.2	0.00e+00	0	44	0	2354053120	41	4352
2026-01-29 12:48:11.84	299.31	41.45	-34.9	-36.6	23.2	0.00e+00	0	44	0	2360344576	41	4363
2026-01-29 12:48:12.70	299.64	41.30	-34.8	-36.5	23.3	0.00e+00	0	44	0	2365587456	41	4296
2026-01-29 12:48:13.84	300.06	41.11	-34.5	-36.1	23.6	0.00e+00	0	44	0	2371878912	41	4144
2026-01-29 12:48:14.70	300.38	40.96	-34.5	-36.1	23.6	0.00e+00	0	44	0	2377121792	41	4143
2026-01-29 12:48:15.84	300.80	40.76	-34.5	-36.1	23.6	0.00e+00	0	44	0	2382364672	40	4345
2026-01-29 12:48:16.70	301.11	40.61	-34.4	-36.0	23.7	0.00e+00	0	44	0	2387607552	40	4317
2026-01-29 12:48:17.84	301.52	40.41	-34.4	-36.0	23.7	0.00e+00	0	44	0	2393899008	40	4327
2026-01-29 12:48:18.70	301.83	40.26	-34.5	-36.1	23.6	0.00e+00	0	44	0	2399141888	40	4386
2026-01-29 12:48:19.85	302.23	40.06	-34.5	-36.2	23.6	0.00e+00	0	44	0	2405433344	40	4408
2026-01-29 12:48:20.71	302.53	39.91	-34.6	-36.3	23.5	0.00e+00	0	44	0	2410676224	40	4444
2026-01-29 12:48:21.85	302.92	39.71	-34.6	-36.3	23.5	0.00e+00	0	44	0	2416967680	40	4444
2026-01-29 12:48:22.71	303.22	39.56	-34.4	-36.0	23.7	0.00e+00	0	44	0	2421161984	40	4334
2026-01-29 12:48:23.85	303.60	39.36	-34.3	-35.9	23.8	0.00e+00	0	44	0	2428502016	40	4281
2026-01-29 12:48:24.71	303.89	39.21	-34.3	-35.9	23.7	0.00e+00	0	44	0	2432696320	40	4283
2026-01-29 12:48:25.85	304.27	39.01	-34.3	-36.0	23.8	0.00e+00	0	44	0	2438987776	40	4303
2026-01-29 12:48:26.71	304.55	38.86	-34.3	-35.9	23.8	0.00e+00	0	44	0	2444230656	40	4267
2026-01-29 12:48:27.85	304.91	38.66	-34.3	-35.9	23.8	0.00e+00	0	44	0	2450522112	40	4252
2026-01-29 12:48:28.71	305.19	38.51	-34.3	-35.9	23.8	0.00e+00	0	44	0	2455764992	40	4257
2026-01-29 12:48:29.85	305.55	38.31	-34.4	-36.0	23.7	0.00e+00	0	44	0	2462056448	40	4320
2026-01-29 12:48:30.71	305.82	38.16	-34.4	-36.1	23.7	0.00e+00	0	44	0	2466250752	40	4352
2026-01-29 12:48:31.85	306.17	37.96	-34.5	-36.1	23.6	0.00e+00	0	44	0	2473590784	40	4382
2026-01-29 12:48:32.71	306.43	37.80	-34.3	-35.9	23.7	0.00e+00	0	44	0	2477785088	40	4289
2026-01-29 12:48:33.85	306.78	37.60	-34.4	-36.0	23.7	0.00e+00	0	44	0	2484076544	40	4307
2026-01-29 12:48:34.71	307.04	37.45	-34.4	-36.1	23.7	0.00e+00	0	44	0	2489319424	40	4351
2026-01-29 12:48:35.85	307.38	37.25	-34.5	-36.2	23.6	0.00e+00	0	44	0	2495610880	40	4410
2026-01-29 12:48:36.70	307.63	37.10	-34.6	-36.3	23.4	0.00e+00	0	44	0	2500853760	40	4456
2026-01-29 12:48:37.85	307.96	36.90	-34.6	-36.3	23.5	0.00e+00	0	44	0	2507145216	40	4460
2026-01-29 12:48:38.71	308.21	36.75	-34.7	-36.4	23.4	0.00e+00	0	44	0	2511339520	40	4500
2026-01-29 12:48:39.85	308.53	36.55	-34.6	-36.2	23.5	0.00e+00	0	44	0	2517630976	40	4435
2026-01-29 12:48:40.71	308.77	36.40	-34.6	-36.3	23.5	0.00e+00	0	44	0	2522873856	40	4446
2026-01-29 12:48:41.85	309.09	36.20	-34.6	-36.2	23.5	0.00e+00	0	44	0	2529165312	40	4405
2026-01-29 12:48:42.71	309.33	36.05	-34.4	-36.1	23.6	0.00e+00	0	44	0	2534408192	40	4352
2026-01-29 12:48:43.86	309.64	35.85	-34.4	-36.0	23.7	0.00e+00	0	44	0	2540699648	40	4327
2026-01-29 12:48:44.71	309.87	35.70	-34.4	-36.0	23.6	0.00e+00	0	44	0	2544893952	40	4339
2026-01-29 12:48:45.85	310.17	35.50	-34.6	-36.2	23.5	0.00e+00	0	44	0	2552233984	40	4410
2026-01-29 12:48:46.71	310.40	35.35	-34.7	-36.3	23.4	0.00e+00	0	44	0	2556428288	40	4493
2026-01-29 12:48:47.86	310.70	35.15	-34.8	-36.4	23.4	0.00e+00	0	44	0	2562719744	40	4524
2026-01-29 12:48:48.71	310.92	35.01	-34.8	-36.5	23.3	0.00e+00	0	44	0	2567962624	40	4560
2026-01-29 12:48:49.86	311.21	34.81	-34.6	-36.2	23.4	0.00e+00	0	44	0	2574254080	40	4435
2026-01-29 12:48:50.70	311.43	34.66	-34.6	-36.3	23.5	0.00e+00	0	44	0	2579496960	40	4445
2026-01-29 12:48:51.84	311.71	34.47	-34.5	-36.1	23.6	0.00e+00	0	44	0	2585788416	40	4385
2026-01-29 12:48:52.70	311.93	34.32	-34.5	-36.1	23.6	0.00e+00	0	44	0	2589982720	40	4366
2026-01-29 12:48:53.89	312.22	34.11	-34.5	-36.1	23.6	0.00e+00	0	44	0	2597322752	40	4391
2026-01-29 12:48:54.74	312.42	33.97	-34.6	-36.3	23.4	0.00e+00	0	44	0	2601517056	40	4462
2026-01-29 12:48:55.89	312.70	33.77	-34.7	-36.4	23.3	0.00e+00	0	44	0	2608857088	40	4518
2026-01-29 12:48:56.75	312.91	33.63	-34.5	-36.2	23.5	0.00e+00	0	44	0	2613051392	40	4395
2026-01-29 12:48:57.88	313.17	33.43	-34.5	-36.2	23.5	0.00e+00	0	44	0	2619342848	40	4402
2026-01-29 12:48:58.74	313.37	33.29	-34.5	-36.1	23.6	0.00e+00	0	44	0	2624585728	40	4384
2026-01-29 12:49:00.12	313.69	33.06	-34.6	-36.2	23.5	0.00e+00	0	44	0	2631925760	40	4430
2026-01-29 12:49:00.84	313.85	32.94	-34.7	-36.4	23.3	0.00e+00	0	44	0	2636120064	40	4515
2026-01-29 12:49:02.12	314.14	32.72	-34.7	-36.4	23.4	0.00e+00	0	44	0	2643460096	40	4505
2026-01-29 12:49:02.84	314.30	32.60	-34.8	-36.5	23.2	0.00e+00	0	44	0	2647654400	40	4555
2026-01-29 12:49:04.13	314.59	32.38	-34.8	-36.4	23.3	0.00e+00	0	44	0	2654994432	40	4544
2026-01-29 12:49:04.84	314.74	32.27	-34.9	-36.5	23.3	0.00e+00	0	44	0	2659188736	40	4584
2026-01-29 12:49:06.13	315.02	32.05	-34.9	-36.6	23.2	0.00e+00	0	44	0	2665480192	40	4603
2026-01-29 12:49:06.84	315.18	31.94	-35.0	-36.6	23.2	0.00e+00	0	44	0	2669674496	40	4628
2026-01-29 12:49:08.12	315.45	31.72	-34.9	-36.6	23.2	0.00e+00	0	44	0	2677014528	40	4622
2026-01-29 12:49:08.84	315.60	31.61	-34.9	-36.5	23.2	0.00e+00	0	44	0	2681208832	40	4584
2026-01-29 12:49:10.12	315.87	31.40	-34.9	-36.5	23.2	0.00e+00	0	44	0	2688548864	40	4589
2026-01-29 12:49:10.84	316.01	31.28	-34.8	-36.5	23.3	0.00e+00	0	44	0	2692743168	40	4563
2026-01-29 12:49:12.12	316.28	31.07	-34.8	-36.5	23.2	0.00e+00	0	44	0	2699034624	40	4579
2026-01-29 12:49:12.84	316.42	30.95	-34.8	-36.5	23.3	0.00e+00	0	44	0	2703228928	40	4557
2026-01-29 12:49:14.12	316.68	30.75	-34.8	-36.5	23.2	0.00e+00	0	44	0	2710568960	40	4565
2026-01-29 12:49:14.84	316.82	30.63	-34.8	-36.5	23.2	0.00e+00	0	44	0	2714763264	40	4584
2026-01-29 12:49:16.12	317.07	30.42	-34.7	-36.4	23.3	0.00e+00	0	44	0	2722103296	40	4531
2026-01-29 12:49:16.83	317.21	30.31	-34.8	-36.4	23.3	0.00e+00	0	44	0	2726297600	40	4527
2026-01-29 12:49:18.12	317.46	30.10	-34.7	-36.3	23.4	0.00e+00	0	44	0	2733637632	40	4485
2026-01-29 12:49:18.85	317.60	29.99	-34.6	-36.3	23.5	0.00e+00	0	44	0	2737831936	40	4450
2026-01-29 12:49:20.14	317.84	29.78	-34.8	-36.4	23.3	0.00e+00	0	44	0	2745171968	40	4515
2026-01-29 12:49:20.85	317.97	29.67	-34.8	-36.4	23.3	0.00e+00	0	44	0	2748317696	40	4535
2026-01-29 12:49:22.14	318.21	29.47	-34.9	-36.5	23.2	0.00e+00	0	44	0	2755657728	40	4577
2026-01-29 12:49:22.85	318.34	29.36	-35.0	-36.6	23.1	0.00e+00	0	44	0	2759852032	40	4647
2026-01-29 12:49:24.14	318.58	29.16	-35.1	-36.8	23.0	0.00e+00	0	44	0	2767192064	41	4470
2026-01-29 12:49:24.85	318.71	29.05	-35.2	-36.9	23.0	0.00e+00	0	44	0	2771386368	41	4494
2026-01-29 12:49:26.14	318.94	28.85	-35.2	-36.9	22.9	0.00e+00	0	44	0	2778726400	41	4507
2026-01-29 12:49:26.85	319.06	28.74	-35.3	-37.0	22.8	0.00e+00	0	44	0	2782920704	41	4569
2026-01-29 12:49:28.14	319.29	28.54	-35.2	-36.9	22.9	0.00e+00	0	44	0	2790260736	41	4504
2026-01-29 12:49:28.86	319.41	28.43	-35.2	-36.9	22.9	0.00e+00	0	44	0	2793406464	41	4528
2026-01-29 12:49:30.14	319.63	28.23	-35.1	-36.8	23.0	0.00e+00	0	44	0	2800746496	41	4444
2026-01-29 12:49:30.85	319.75	28.12	-35.0	-36.7	23.1	0.00e+00	0	44	0	2804940800	41	4392
2026-01-29 12:49:32.14	319.97	27.93	-35.0	-36.6	23.1	0.00e+00	0	44	0	2812280832	41	4379
2026-01-29 12:49:32.86	320.09	27.82	-35.0	-36.6	23.1	0.00e+00	0	44	0	2816475136	41	4384
2026-01-29 12:49:34.15	320.30	27.62	-34.7	-36.4	23.3	0.00e+00	0	44	0	2823815168	41	4254
2026-01-29 12:49:34.86	320.42	27.52	-34.7	-36.4	23.3	0.00e+00	0	44	0	2828009472	41	4256
2026-01-29 12:49:36.16	320.63	27.32	-34.8	-36.5	23.3	0.00e+00	0	44	0	2834300928	41	4302
2026-01-29 12:49:36.87	320.75	27.22	-34.8	-36.4	22.3	0.00e+00	0	44	0	2838495232	41	4270
2026-01-29 12:49:38.16	320.95	27.03	-34.8	-36.5	23.2	0.00e+00	0	44	0	2845835264	41	4309
2026-01-29 12:49:38.87	321.06	26.92	-34.8	-36.4	23.3	0.00e+00	0	44	0	2850029568	41	4287
2026-01-29 12:49:40.16	321.27	26.73	-34.9	-36.5	23.2	0.00e+00	0	44	0	2857369600	41	4338
2026-01-29 12:49:40.87	321.38	26.63	-34.9	-36.5	23.2	0.00e+00	0	44	0	2861563904	41	4330
2026-01-29 12:49:42.16	321.58	26.44	-35.0	-36.6	23.2	0.00e+00	0	44	0	2868903936	41	4387
2026-01-29 12:49:42.87	321.68	26.34	-35.0	-36.7	23.1	0.00e+00	0	44	0	2872049664	41	4415
2026-01-29 12:49:44.15	321.88	26.15	-35.1	-36.8	23.0	0.00e+00	0	44	0	2879389696	41	4468
2026-01-29 12:49:44.87	321.99	26.05	-35.1	-36.8	23.0	0.00e+00	0	44	0	2883584000	41	4454
2026-01-29 12:49:46.15	322.18	25.87	-35.2	-36.9	22.8	0.00e+00	0	44	0	2890924032	41	4537
2026-01-29 12:49:46.87	322.28	25.76	-35.2	-36.9	22.9	0.00e+00	0	44	0	2895118336	41	4517
2026-01-29 12:49:48.15	322.47	25.58	-35.1	-36.9	22.9	0.00e+00	0	44	0	2902458368	41	4501
2026-01-29 12:49:48.87	322.57	25.48	-35.2	-36.9	22.9	0.00e+00	0	44	0	2906652672	41	4514
2026-01-29 12:49:50.15	322.76	25.30	-35.3	-37.0	22.8	0.00e+00	0	44	0	2913992704	41	4558
2026-01-29 12:49:50.87	322.86	25.20	-35.2	-36.9	22.9	0.00e+00	0	44	0	2917138432	41	4507
2026-01-29 12:49:52.15	323.04	25.02	-35.1	-36.8	22.9	0.00e+00	0	44	0	2924478464	41	4443
2026-01-29 12:49:52.87	323.14	24.92	-35.0	-36.7	23.0	0.00e+00	0	44	0	2928672768	41	4392
2026-01-29 12:49:54.15	323.32	24.74	-35.2	-36.8	22.9	0.00e+00	0	44	0	2936012800	41	4476
2026-01-29 12:49:54.86	323.42	24.64	-35.1	-36.8	23.0	0.00e+00	0	44	0	2940207104	41	4445
2026-01-29 12:49:56.15	323.59	24.46	-35.1	-36.8	23.0	0.00e+00	0	44	0	2947547136	41	4445
2026-01-29 12:49:56.86	323.69	24.37	-35.2	-36.9	22.9	0.00e+00	0	44	0	2951741440	41	4501
2026-01-29 12:49:58.14	323.86	24.19	-35.2	-36.8	22.9	0.00e+00	0	44	0	2958032896	41	4461
2026-01-29 12:49:58.85	323.95	24.09	-35.3	-36.9	22.8	0.00e+00	0	44	0	2962227200	41	4530
2026-01-29 12:50:00.15	324.12	23.92	-35.4	-37.0	22.7	0.00e+00	0	44	0	2969567232	41	4596
2026-01-29 12:50:00.96	324.23	23.81	-35.5	-37.1	22.7	0.00e+00	0	44	0	2974810112	41	4628
2026-01-29 12:50:02.10	324.38	23.66	-35.6	-37.2	22.6	0.00e+00	0	44	0	2981101568	41	4699
2026-01-29 12:50:02.96	324.49	23.54	-35.6	-37.3	22.5	0.00e+00	0	44	0	2985295872	41	4753
2026-01-29 12:50:04.10	324.63	23.39	-35.8	-37.5	22.3	0.00e+00	0	44	0	2991587328	42	4577
2026-01-29 12:50:04.96	324.74	23.27	-35.8	-37.5	22.4	0.00e+00	0	44	0	2996830208	42	4571
2026-01-29 12:50:06.10	324.89	23.12	-35.8	-37.5	22.3	0.00e+00	0	44	0	3003121664	42	4575
2026-01-29 12:50:06.95	324.99	23.01	-35.8	-37.5	22.3	0.00e+00	0	44	0	3008364544	42	4592
2026-01-29 12:50:08.09	325.13	22.86	-35.8	-37.6	22.3	0.00e+00	0	44	0	3014656000	42	4599
2026-01-29 12:50:08.96	325.24	22.75	-35.8	-37.5	22.3	0.00e+00	0	44	0	3018850304	42	4597
2026-01-29 12:50:10.10	325.38	22.60	-35.7	-37.5	22.4	0.00e+00	0	44	0	3026190336	42	4550
2026-01-29 12:50:11.23	325.51	22.45	-35.7	-37.4	22.4	0.00e+00	0	44	0	3032481792	42	4511
2026-01-29 12:50:12.09	325.62	22.34	-35.7	-37.4	22.4	0.00e+00	0	44	0	3036676096	42	4528
2026-01-29 12:50:13.23	325.75	22.20	-35.6	-37.4	22.4	0.00e+00	0	44	0	3042967552	42	4500
2026-01-29 12:50:14.09	325.85	22.09	-35.7	-37.4	22.4	0.00e+00	0	44	0	3048210432	42	4518
2026-01-29 12:50:15.23	325.98	21.94	-35.7	-37.5	22.4	0.00e+00	0	44	0	3054501888	42	4562
2026-01-29 12:50:16.09	326.08	21.83	-35.7	-37.4	22.4	0.00e+00	0	44	0	3059744768	42	4524
2026-01-29 12:50:17.23	326.22	21.69	-35.8	-37.6	22.3	0.00e+00	0	44	0	3066036224	42	4600
2026-01-29 12:50:18.09	326.31	21.58	-35.8	-37.5	22.3	0.00e+00	0	44	0	3071279104	42	4598
2026-01-29 12:50:19.23	326.44	21.44	-36.0	-37.7	22.2	0.00e+00	0	44	0	3076521984	42	4669
2026-01-29 12:50:20.09	326.54	21.33	-36.0	-37.7	22.1	0.00e+00	0	44	0	3081764864	42	4678
2026-01-29 12:50:21.23	326.66	21.19	-36.1	-37.8	22.1	0.00e+00	0	44	0	3088056320	42	4710
2026-01-29 12:50:22.08	326.76	21.08	-36.0	-37.7	22.1	0.00e+00	0	44	0	3093299200	42	4678
2026-01-29 12:50:23.23	326.88	20.94	-36.0	-37.7	22.1	0.00e+00	0	44	0	3099590656	42	4685
2026-01-29 12:50:24.09	326.98	20.84	-36.1	-37.7	22.1	0.00e+00	0	44	0	3104833536	42	4703
2026-01-29 12:50:25.23	327.10	20.70	-36.1	-37.8	22.0	0.00e+00	0	44	0	3111124992	42	4726
2026-01-29 12:50:26.08	327.19	20.59	-36.1	-37.8	22.0	0.00e+00	0	44	0	3115319296	42	4715
2026-01-29 12:50:27.23	327.31	20.46	-36.0	-37.7	22.1	0.00e+00	0	44	0	3121610752	42	4657
2026-01-29 12:50:28.09	327.40	20.35	-35.9	-37.7	22.1	0.00e+00	0	44	0	3126853632	42	4652
2026-01-29 12:50:29.23	327.52	20.21	-36.0	-37.8	22.1	0.00e+00	0	44	0	3133145088	42	4708
2026-01-29 12:50:30.09	327.61	20.11	-36.0	-37.8	22.1	0.00e+00	0	44	0	3138387968	42	4714
2026-01-29 12:50:31.23	327.73	19.98	-36.2	-37.9	21.9	0.00e+00	0	44	0	3144679424	42	4783
2026-01-29 12:50:32.08	327.82	19.87	-36.2	-38.0	21.9	0.00e+00	0	44	0	3149922304	43	4550
2026-01-29 12:50:33.22	327.93	19.74	-36.2	-38.0	21.9	0.00e+00	0	44	0	3156213760	43	4554
2026-01-29 12:50:34.08	328.02	19.64	-36.2	-37.9	21.9	0.00e+00	0	44	0	3160408064	43	4537
2026-01-29 12:50:35.22	328.13	19.51	-36.3	-38.0	21.8	0.00e+00	0	44	0	3166699520	43	4598
2026-01-29 12:50:36.08	328.22	19.40	-36.3	-38.1	21.7	0.00e+00	0	44	0	3171942400	43	4621
2026-01-29 12:50:37.22	328.33	19.27	-36.4	-38.2	21.6	0.00e+00	0	44	0	3178233856	43	4695
2026-01-29 12:50:38.08	328.42	19.17	-36.6	-38.4	21.5	0.00e+00	0	44	0	3183476736	43	4787
2026-01-29 12:50:39.21	328.53	19.04	-36.7	-38.5	21.4	0.00e+00	0	44	0	3189768192	43	4817
2026-01-29 12:50:40.07	328.61	18.94	-36.9	-38.8	21.3	0.00e+00	0	44	0	3193962496	44	4709
2026-01-29 12:50:41.21	328.72	18.81	-36.9	-38.8	21.3	0.00e+00	0	44	0	3200253952	44	4713
2026-01-29 12:50:42.07	328.80	18.71	-36.9	-38.7	21.3	0.00e+00	0	44	0	3205496832	44	4698
2026-01-29 12:50:43.21	328.91	18.59	-36.9	-38.7	21.3	0.00e+00	0	44	0	3211788288	44	4679
2026-01-29 12:50:44.07	328.99	18.49	-37.0	-38.8	21.2	0.00e+00	0	44	0	3217031168	44	4746
2026-01-29 12:50:45.21	329.09	18.36	-36.9	-38.7	21.3	0.00e+00	0	44	0	3223322624	44	4703
2026-01-29 12:50:46.06	329.17	18.26	-36.9	-38.7	21.3	0.00e+00	0	44	0	3227516928	44	4694
2026-01-29 12:50:47.20	329.28	18.14	-36.9	-38.7	21.3	0.00e+00	0	44	0	3234856960	44	4675
2026-01-29 12:50:48.06	329.36	18.04	-36.8	-38.6	21.4	0.00e+00	0	44	0	3239051264	44	4634
2026-01-29 12:50:49.20	329.46	17.91	-37.0	-38.8	21.3	0.00e+00	0	44	0	3245342720	44	4710
2026-01-29 12:50:50.06	329.54	17.82	-36.9	-38.7	21.3	0.00e+00	0	44	0	3250585600	44	4665
2026-01-29 12:50:51.20	329.64	17.69	-36.9	-38.6	21.4	0.00e+00	0	44	0	3256877056	44	4646
2026-01-29 12:50:52.05	329.71	17.60	-36.9	-38.7	21.4	0.00e+00	0	44	0	3262119936	44	4652
2026-01-29 12:50:53.20	329.82	17.48	-36.9	-38.6	21.4	0.00e+00	0	44	0	3268411392	44	4623
2026-01-29 12:50:54.05	329.89	17.38	-36.9	-38.6	21.4	0.00e+00	0	44	0	3272605696	44	4651
2026-01-29 12:50:55.19	329.99	17.26	-36.9	-38.6	21.4	0.00e+00	0	44	0	3279945728	44	4643
2026-01-29 12:50:56.05	330.06	17.17	-37.0	-38.7	21.3	0.00e+00	0	44	0	3284140032	44	4686
2026-01-29 12:50:57.20	330.16	17.04	-37.0	-38.7	21.3	0.00e+00	0	44	0	3290431488	44	4693
2026-01-29 12:50:58.05	330.23	16.95	-37.0	-38.7	21.3	0.00e+00	0	44	0	3295674368	44	4684
2026-01-29 12:50:59.20	330.33	16.83	-37.1	-38.8	21.2	0.00e+00	0	44	0	3301965824	44	4736
2026-01-29 12:51:00.06	330.40	16.74	-37.2	-38.9	21.1	0.00e+00	0	44	0	3307208704	44	4787
2026-01-29 12:51:01.20	330.50	16.62	-37.3	-39.0	21.0	0.00e+00	0	44	0	3313500160	45	4575
2026-01-29 12:51:02.05	330.57	16.53	-37.3	-39.0	21.0	0.00e+00	0	44	0	3317694464	45	4592
2026-01-29 12:51:03.20	330.66	16.41	-37.4	-39.2	20.9	0.00e+00	0	44	0	3323985920	45	4655
2026-01-29 12:51:04.05	330.73	16.32	-37.4	-39.2	20.8	0.00e+00	0	44	0	3329228800	45	4663
2026-01-29 12:51:05.20	330.83	16.20	-37.5	-39.2	20.8	0.00e+00	0	44	0	3335520256	45	4703
2026-01-29 12:51:06.05	330.90	16.11	-37.5	-39.3	20.5	0.00e+00	0	44	0	3340763136	45	4711
2026-01-29 12:51:07.19	330.99	15.99	-37.6	-39.5	20.6	0.00e+00	0	44	0	3347054592	45	4817
2026-01-29 12:51:08.05	331.06	15.90	-37.5	-39.3	20.7	0.00e+00	0	44	0	3351248896	45	4745
2026-01-29 12:51:09.19	331.15	15.79	-37.6	-39.4	20.6	0.00e+00	0	44	0	3358588928	45	4806
2026-01-29 12:51:10.04	331.21	15.70	-37.7	-39.5	20.6	0.00e+00	0	44	0	3362783232	46	4581
2026-01-29 12:51:11.18	331.30	15.58	-37.7	-39.5	20.6	0.00e+00	0	44	0	3369074688	46	4557
2026-01-29 12:51:12.04	331.37	15.50	-37.6	-39.4	20.6	0.00e+00	0	44	0	3374317568	46	4519
2026-01-29 12:51:13.18	331.46	15.38	-37.7	-39.5	20.5	0.00e+00	0	44	0	3380609024	46	4585
2026-01-29 12:51:14.04	331.52	15.29	-37.7	-39.5	20.6	0.00e+00	0	44	0	3385851904	46	4554
2026-01-29 12:51:15.18	331.61	15.18	-37.7	-39.5	20.5	0.00e+00	0	44	0	3392143360	46	4555
2026-01-29 12:51:16.03	331.67	15.09	-37.7	-39.5	20.5	0.00e+00	0	44	0	3396337664	46	4594
2026-01-29 12:51:17.18	331.76	14.98	-37.7	-39.5	20.5	0.00e+00	0	44	0	3402629120	46	4568
2026-01-29 12:51:18.04	331.82	14.89	-37.7	-39.5	20.5	0.00e+00	0	44	0	3407872000	46	4583
2026-01-29 12:51:19.18	331.91	14.78	-37.8	-39.6	20.4	0.00e+00	0	44	0	3414163456	46	4618
2026-01-29 12:51:20.03	331.97	14.70	-37.8	-39.6	20.4	0.00e+00	0	44	0	3419406336	46	4639
2026-01-29 12:51:21.18	332.06	14.59	-37.9	-39.7	20.3	0.00e+00	0	44	0	3425697792	46	4683
2026-01-29 12:51:22.03	332.12	14.50	-37.9	-39.7	20.3	0.00e+00	0	44	0	3430940672	46	4682
2026-01-29 12:51:23.17	332.20	14.39	-38.0	-39.8	20.2	0.00e+00	0	44	0	3436183552	46	4730
2026-01-29 12:51:24.03	332.26	14.31	-38.1	-39.9	20.1	0.00e+00	0	44	0	3441426432	46	4775
2026-01-29 12:51:25.17	332.34	14.20	-38.2	-40.0	20.0	0.00e+00	0	44	0	3447717888	47	4590
2026-01-29 12:51:26.03	332.41	14.11	-38.1	-39.9	20.1	0.00e+00	0	44	0	3452960768	47	4532
2026-01-29 12:51:27.17	332.49	14.00	-38.0	-39.9	20.2	0.00e+00	0	44	0	3459252224	47	4497
2026-01-29 12:51:28.03	332.55	13.92	-38.0	-39.9	20.1	0.00e+00	0	44	0	3463446528	47	4508
2026-01-29 12:51:29.17	332.63	13.81	-38.1	-39.9	20.1	0.00e+00	0	44	0	3470786560	47	4525
2026-01-29 12:51:30.02	332.69	13.73	-38.1	-39.9	20.1	0.00e+00	0	44	0	3474980864	47	4526
2026-01-29 12:51:31.16	332.76	13.62	-38.2	-40.0	19.9	0.00e+00	0	44	0	3481272320	47	4597
2026-01-29 12:51:32.02	332.82	13.54	-38.1	-40.0	20.0	0.00e+00	0	44	0	3486515200	47	4571
2026-01-29 12:51:33.16	332.90	13.44	-38.2	-40.0	20.0	0.00e+00	0	44	0	3492806656	47	4575
2026-01-29 12:51:34.01	332.96	13.36	-38.2	-40.0	20.0	0.00e+00	0	44	0	3498049536	47	4575
2026-01-29 12:51:35.15	333.04	13.25	-38.3	-40.1	19.9	0.00e+00	0	44	0	3504340992	47	4630
2026-01-29 12:51:36.01	333.09	13.17	-38.2	-40.1	19.9	0.00e+00	0	44	0	3508535296	47	4617
2026-01-29 12:51:37.15	333.17	13.06	-38.2	-40.1	19.9	0.00e+00	0	44	0	3515875328	47	4608
2026-01-29 12:51:38.01	333.23	12.99	-38.3	-40.2	19.8	0.00e+00	0	44	0	3520069632	47	4672
2026-01-29 12:51:39.15	333.30	12.88	-38.3	-40.2	19.8	0.00e+00	0	44	0	3526361088	47	4677
2026-01-29 12:51:40.01	333.36	12.80	-38.4	-40.2	19.8	0.00e+00	0	44	0	3531603968	47	4693
2026-01-29 12:51:41.15	333.43	12.70	-38.4	-40.3	19.8	0.00e+00	0	44	0	3537895424	47	4707
2026-01-29 12:51:42.00	333.49	12.62	-38.6	-40.5	19.5	0.00e+00	0	44	0	3543138304	47	4815
2026-01-29 12:51:43.14	333.56	12.52	-38.6	-40.5	19.5	0.00e+00	0	44	0	3549429760	47	4838
2026-01-29 12:51:44.00	333.61	12.44	-38.3	-40.2	19.8	0.00e+00	0	44	0	3553624064	47	4652
2026-01-29 12:51:45.15	333.69	12.33	-38.4	-40.3	19.7	0.00e+00	0	44	0	3559915520	47	4706
2026-01-29 12:51:46.03	333.74	12.26	-38.3	-40.2	19.8	0.00e+00	0	44	0	3565158400	47	4665
2026-01-29 12:51:47.17	333.82	12.15	-38.4	-40.2	19.8	0.00e+00	0	44	0	3571449856	47	4680
2026-01-29 12:51:48.03	333.87	12.08	-38.4	-40.2	19.8	0.00e+00	0	44	0	3576692736	47	4698
2026-01-29 12:51:49.16	333.94	11.98	-38.4	-40.2	19.7	0.00e+00	0	44	0	3582984192	47	4702
2026-01-29 12:51:50.02	333.99	11.90	-38.5	-40.4	19.6	0.00e+00	0	44	0	3587178496	47	4766
2026-01-29 12:51:51.16	334.06	11.80	-38.5	-40.4	19.6	0.00e+00	0	44	0	3594518528	47	4773
2026-01-29 12:51:52.01	334.11	11.72	-38.6	-40.5	19.5	0.00e+00	0	44	0	3598712832	47	4820
2026-01-29 12:51:53.15	334.18	11.62	-38.8	-40.7	19.5	0.00e+00	0	44	0	3605004288	48	4673
2026-01-29 12:51:54.01	334.24	11.55	-38.8	-40.6	19.6	0.00e+00	0	44	0	3610247168	48	4639
2026-01-29 12:51:55.15	334.30	11.45	-38.8	-40.7	19.5	0.00e+00	0	44	0	3616538624	48	4670
2026-01-29 12:51:56.01	334.36	11.37	-38.7	-40.6	19.6	0.00e+00	0	44	0	3621781504	48	4645
2026-01-29 12:51:57.15	334.42	11.28	-38.8	-40.7	19.5	0.00e+00	0	44	0	3628072960	48	4681
2026-01-29 12:51:58.01	334.47	11.20	-38.9	-40.8	19.4	0.00e+00	0	44	0	3632267264	48	4722
2026-01-29 12:51:59.15	334.54	11.10	-38.9	-40.8	19.4	0.00e+00	0	44	0	3639607296	48	4728
2026-01-29 12:52:00.01	334.59	11.03	-38.9	-40.8	19.3	0.00e+00	0	44	0	3643801600	48	4753
