passes_logs/2026/01/29/T1/T1__20260129_063224_KHAYYAM_rec.log

#Pass ID: 20260129_063224_KHAYYAM
#Satellite: KHAYYAM
#Configuration: KHAYYAM_480M
#almurnet v.1.7.20251203
#Start time: 2026-01-29 06:32:25

#Version: 2.0.20230620
#Station: T1
#Location: 37.570604 lon 55.790049 lat
#TLE: 1 53370U 22096A   26027.95146228  .00008464  00000+0  34400-3 0  9996
#TLE: 2 53370  97.3551 294.7289 0002128 106.8144 253.3328 15.24796926193211

#Time	Az	El	Level	Level2	SNR	BER	BlckErr	Temp	State	Recorded	gain1	gain2
2026-01-29 06:32:25.94	111.13	5.12	-52.5	-57.2	3.5	0.00e+00	0	46	0	0	76	25094
2026-01-29 06:32:26.93	111.00	5.19	-53.5	-58.0	3.7	0.00e+00	0	46	104	0	77	25767
2026-01-29 06:32:27.92	110.88	5.25	-53.5	-57.9	3.7	0.00e+00	0	46	104	0	77	25509
2026-01-29 06:32:28.92	110.75	5.32	-53.5	-57.9	3.7	0.00e+00	0	46	104	0	77	25533
2026-01-29 06:32:29.91	110.62	5.38	-53.2	-57.8	3.7	0.00e+00	0	46	104	0	77	25297
2026-01-29 06:32:30.90	110.49	5.45	-53.0	-57.7	3.7	0.00e+00	0	46	104	0	77	24837
2026-01-29 06:32:31.90	110.35	5.51	-53.0	-57.6	3.7	0.00e+00	0	46	104	0	77	24589
2026-01-29 06:32:32.89	110.22	5.58	-53.0	-57.7	3.7	0.00e+00	0	46	104	0	77	25050
2026-01-29 06:32:33.88	110.09	5.65	-53.3	-57.9	3.7	0.00e+00	0	47	104	0	77	25549
2026-01-29 06:32:34.88	109.95	5.71	-53.2	-57.8	3.7	0.00e+00	0	47	104	0	77	25299
2026-01-29 06:32:35.87	109.82	5.78	-53.2	-57.8	3.7	0.00e+00	0	47	104	0	77	25099
2026-01-29 06:32:36.86	109.69	5.85	-53.2	-57.8	3.7	0.00e+00	0	47	104	0	77	25329
2026-01-29 06:32:37.86	109.55	5.91	-53.2	-57.8	3.7	0.00e+00	0	47	104	0	77	25327
2026-01-29 06:32:38.85	109.41	5.98	-53.2	-57.8	3.7	0.00e+00	0	47	104	0	77	25256
2026-01-29 06:32:39.84	109.27	6.05	-53.2	-57.8	3.7	0.00e+00	0	47	104	0	77	25157
2026-01-29 06:32:40.84	109.13	6.11	-53.0	-57.6	3.7	0.00e+00	0	47	104	0	77	24712
2026-01-29 06:32:41.83	108.99	6.18	-53.0	-57.6	3.7	0.00e+00	0	47	104	0	77	24757
2026-01-29 06:32:42.82	108.85	6.25	-52.8	-57.4	3.7	0.00e+00	0	47	104	0	77	24031
2026-01-29 06:32:43.82	108.71	6.32	-52.7	-57.2	3.7	0.00e+00	0	47	104	0	77	23601
2026-01-29 06:32:44.81	108.57	6.38	-52.7	-57.2	3.7	0.00e+00	0	47	104	0	77	23537
2026-01-29 06:32:45.80	108.43	6.45	-52.7	-57.2	3.7	0.00e+00	0	47	104	0	77	23590
2026-01-29 06:32:46.80	108.28	6.52	-52.7	-57.2	3.7	0.00e+00	0	47	104	0	77	23578
2026-01-29 06:32:47.79	108.14	6.58	-52.7	-57.2	3.7	0.00e+00	0	48	104	0	77	23555
2026-01-29 06:32:48.78	107.99	6.65	-52.7	-57.2	3.7	0.00e+00	0	48	104	0	77	23541
2026-01-29 06:32:49.78	107.85	6.72	-52.7	-57.2	3.7	0.00e+00	0	48	104	0	77	23540
2026-01-29 06:32:50.77	107.70	6.79	-52.7	-57.2	3.7	0.00e+00	0	48	104	0	77	23494
2026-01-29 06:32:51.76	107.55	6.86	-52.7	-57.2	3.7	0.00e+00	0	48	104	0	77	23579
2026-01-29 06:32:52.76	107.40	6.92	-52.7	-57.2	3.7	0.00e+00	0	48	104	0	77	23590
2026-01-29 06:32:53.75	107.25	6.99	-52.7	-57.2	3.7	0.00e+00	0	48	104	0	77	23508
2026-01-29 06:32:54.74	107.10	7.06	-52.7	-57.2	3.7	0.00e+00	0	48	104	0	77	23541
2026-01-29 06:32:55.74	106.95	7.13	-52.7	-57.2	3.7	0.00e+00	0	48	104	0	77	23479
2026-01-29 06:32:56.73	106.80	7.20	-52.7	-57.2	3.7	0.00e+00	0	48	104	0	77	23573
2026-01-29 06:32:57.72	106.64	7.27	-52.7	-57.2	3.7	0.00e+00	0	48	104	0	77	23530
2026-01-29 06:32:58.71	106.49	7.34	-52.6	-57.2	3.7	0.00e+00	0	48	104	0	77	23481
2026-01-29 06:32:59.71	106.33	7.40	-52.6	-57.2	3.7	0.00e+00	0	48	104	0	77	23473
2026-01-29 06:33:00.70	106.18	7.47	-52.6	-57.2	3.7	0.00e+00	0	48	104	0	77	23513
2026-01-29 06:33:01.69	106.02	7.54	-52.6	-57.2	3.7	0.00e+00	0	49	104	0	77	23538
2026-01-29 06:33:02.69	105.86	7.61	-52.6	-57.2	3.7	0.00e+00	0	48	104	0	77	23454
2026-01-29 06:33:03.68	105.70	7.68	-52.6	-57.2	3.7	0.00e+00	0	48	104	0	77	23527
2026-01-29 06:33:04.68	105.54	7.75	-52.6	-57.2	3.7	0.00e+00	0	48	104	0	77	23494
2026-01-29 06:33:05.67	105.38	7.82	-52.7	-57.2	3.7	0.00e+00	0	49	104	0	77	23519
2026-01-29 06:33:06.66	105.22	7.89	-52.7	-57.2	3.7	0.00e+00	0	49	104	0	77	23489
2026-01-29 06:33:07.65	105.06	7.96	-52.7	-57.2	3.7	0.00e+00	0	49	104	0	77	23479
2026-01-29 06:33:08.65	104.89	8.03	-52.6	-57.2	3.7	0.00e+00	0	49	104	0	77	23500
2026-01-29 06:33:09.64	104.73	8.10	-52.6	-57.2	3.7	0.00e+00	0	49	104	0	77	23449
2026-01-29 06:33:10.63	104.56	8.17	-52.6	-57.2	3.7	0.00e+00	0	49	104	0	77	23462
2026-01-29 06:33:11.63	104.39	8.24	-52.6	-57.2	3.7	0.00e+00	0	49	104	0	77	23440
2026-01-29 06:33:12.62	104.22	8.31	-52.6	-57.2	3.7	0.00e+00	0	49	104	0	77	23538
2026-01-29 06:33:13.61	104.06	8.38	-52.6	-57.2	3.7	0.00e+00	0	49	104	0	77	23445
2026-01-29 06:33:14.61	103.88	8.45	-52.6	-57.2	3.7	0.00e+00	0	49	104	0	77	23473
2026-01-29 06:33:15.60	103.71	8.52	-52.6	-57.2	3.7	0.00e+00	0	49	104	0	77	23475
2026-01-29 06:33:16.59	103.54	8.59	-52.6	-57.2	3.7	0.00e+00	0	49	104	0	77	23534
2026-01-29 06:33:17.59	103.37	8.66	-52.6	-57.1	3.7	0.00e+00	0	49	104	0	77	23394
2026-01-29 06:33:18.58	103.19	8.73	-52.6	-57.2	3.7	0.00e+00	0	49	104	0	77	23467
2026-01-29 06:33:19.58	103.02	8.80	-52.6	-57.2	3.7	0.00e+00	0	49	104	0	77	23443
2026-01-29 06:33:20.57	102.84	8.87	-52.6	-57.1	3.7	0.00e+00	0	49	104	0	77	23380
2026-01-29 06:33:21.56	102.66	8.94	-52.6	-57.2	3.7	0.00e+00	0	49	104	0	77	23479
2026-01-29 06:33:22.56	102.48	9.01	-52.6	-57.1	3.7	0.00e+00	0	49	104	0	77	23419
2026-01-29 06:33:23.55	102.30	9.08	-52.7	-57.2	3.7	0.00e+00	0	49	104	0	77	23540
2026-01-29 06:33:24.54	102.12	9.15	-52.6	-57.2	3.7	0.00e+00	0	49	104	0	77	23502
2026-01-29 06:33:25.54	101.94	9.22	-52.6	-57.1	3.7	0.00e+00	0	49	104	0	77	23399
2026-01-29 06:33:26.53	101.76	9.29	-52.6	-57.2	3.7	0.00e+00	0	50	104	0	77	23471
2026-01-29 06:33:27.53	101.57	9.36	-52.6	-57.1	3.7	0.00e+00	0	49	104	0	77	23317
2026-01-29 06:33:28.52	101.39	9.43	-52.6	-57.1	3.7	0.00e+00	0	49	104	0	77	23325
2026-01-29 06:33:29.52	101.20	9.50	-52.6	-57.1	3.7	0.00e+00	0	49	104	0	77	23363
2026-01-29 06:33:30.51	101.01	9.57	-52.6	-57.1	3.7	0.00e+00	0	50	104	0	77	23406
2026-01-29 06:33:31.51	100.82	9.64	-52.5	-57.1	3.7	0.00e+00	0	50	104	0	77	23316
2026-01-29 06:33:32.50	100.63	9.71	-52.7	-57.2	3.7	0.00e+00	0	50	104	0	77	23431
2026-01-29 06:33:33.50	100.44	9.78	-52.7	-57.2	3.7	0.00e+00	0	50	104	0	77	23439
2026-01-29 06:33:34.49	100.25	9.86	-52.7	-57.2	3.7	0.00e+00	0	50	104	0	77	23458
2026-01-29 06:33:35.49	100.05	9.93	-52.8	-57.2	3.7	0.00e+00	0	50	104	0	77	23590
2026-01-29 06:33:36.48	99.86	10.00	-52.7	-57.2	3.7	0.00e+00	0	50	104	0	77	23527
2026-01-29 06:33:37.48	99.66	10.07	-52.7	-57.2	3.7	0.00e+00	0	50	104	0	77	23585
2026-01-29 06:33:38.47	99.47	10.14	-52.7	-57.2	3.7	0.00e+00	0	50	104	0	77	23628
2026-01-29 06:33:39.47	99.27	10.21	-52.7	-57.2	3.7	0.00e+00	0	50	104	0	77	23478
2026-01-29 06:33:40.46	99.07	10.28	-52.6	-57.2	3.7	0.00e+00	0	50	104	0	77	23464
2026-01-29 06:33:41.46	98.87	10.35	-52.6	-57.2	3.7	0.00e+00	0	50	104	0	77	23576
2026-01-29 06:33:42.45	98.66	10.42	-52.6	-57.2	3.7	0.00e+00	0	50	104	0	77	23531
2026-01-29 06:33:43.45	98.46	10.49	-52.8	-57.3	3.7	0.00e+00	0	50	104	0	77	23804
2026-01-29 06:33:44.44	98.26	10.56	-52.8	-57.2	3.7	0.00e+00	0	50	104	0	77	23672
2026-01-29 06:33:45.44	98.05	10.63	-52.8	-57.3	3.7	0.00e+00	0	50	104	0	77	23697
2026-01-29 06:33:46.43	97.84	10.70	-52.8	-57.3	3.7	0.00e+00	0	50	104	0	77	23706
2026-01-29 06:33:47.42	97.64	10.78	-52.8	-57.3	3.7	0.00e+00	0	50	104	0	77	23708
2026-01-29 06:33:48.42	97.43	10.85	-52.4	-57.0	3.7	0.00e+00	0	50	104	0	76	24415
2026-01-29 06:33:49.41	97.22	10.92	-52.5	-57.0	3.7	0.00e+00	0	50	104	0	76	24345
2026-01-29 06:33:50.41	97.00	10.99	-52.6	-57.0	3.7	0.00e+00	0	50	104	0	76	24523
2026-01-29 06:33:51.41	96.79	11.06	-52.5	-57.0	3.7	0.00e+00	0	50	104	0	76	24469
2026-01-29 06:33:52.40	96.58	11.13	-52.7	-57.2	3.7	0.00e+00	0	50	104	0	76	24945
2026-01-29 06:33:53.46	96.34	11.20	-52.8	-57.2	3.7	0.00e+00	0	50	104	0	76	25020
2026-01-29 06:33:54.34	96.15	11.27	-52.7	-57.2	3.7	0.00e+00	0	50	104	0	76	24826
2026-01-29 06:33:55.48	95.90	11.35	-52.7	-57.2	3.7	0.00e+00	0	50	104	0	76	24944
2026-01-29 06:33:56.33	95.71	11.41	-52.7	-57.2	3.7	0.00e+00	0	50	104	0	76	24880
2026-01-29 06:33:57.47	95.46	11.49	-52.7	-57.2	3.7	0.00e+00	0	50	104	0	76	24866
2026-01-29 06:33:58.33	95.27	11.55	-52.7	-57.2	3.7	0.00e+00	0	50	104	0	76	24873
2026-01-29 06:33:59.46	95.02	11.63	-52.7	-57.2	3.7	0.00e+00	0	50	104	0	76	24872
2026-01-29 06:34:00.32	94.82	11.69	-52.7	-57.2	3.7	0.00e+00	0	50	104	0	76	24862
2026-01-29 06:34:01.46	94.56	11.77	-52.9	-57.3	3.7	0.00e+00	0	50	104	0	76	25243
2026-01-29 06:34:02.31	94.37	11.83	-52.8	-57.3	3.7	0.00e+00	0	50	104	0	76	25132
2026-01-29 06:34:03.45	94.10	11.91	-52.8	-57.3	3.7	0.00e+00	0	50	104	0	76	25166
2026-01-29 06:34:04.30	93.91	11.97	-52.8	-57.3	3.7	0.00e+00	0	50	104	0	76	25230
2026-01-29 06:34:05.44	93.64	12.04	-52.7	-57.2	3.7	0.00e+00	0	50	104	0	76	24973
2026-01-29 06:34:06.29	93.44	12.10	-52.7	-57.2	3.7	0.00e+00	0	50	104	0	76	25056
2026-01-29 06:34:07.43	93.17	12.18	-52.7	-57.2	3.7	0.00e+00	0	50	104	0	76	24833
2026-01-29 06:34:08.28	92.97	12.24	-52.6	-57.1	3.7	0.00e+00	0	50	104	0	76	24788
2026-01-29 06:34:09.42	92.70	12.32	-52.6	-57.2	3.7	0.00e+00	0	51	104	0	76	25001
2026-01-29 06:34:10.27	92.50	12.38	-52.6	-57.2	3.7	0.00e+00	0	50	104	0	76	24898
2026-01-29 06:34:11.40	92.23	12.46	-52.7	-57.3	3.7	0.00e+00	0	50	104	0	76	25161
2026-01-29 06:34:12.26	92.02	12.52	-52.6	-57.2	3.7	0.00e+00	0	50	104	0	76	24840
2026-01-29 06:34:13.39	91.74	12.59	-52.6	-57.2	3.7	0.00e+00	0	51	104	0	76	24938
2026-01-29 06:34:14.25	91.53	12.65	-52.6	-57.2	3.7	0.00e+00	0	50	104	0	76	25022
2026-01-29 06:34:15.38	91.25	12.73	-52.7	-57.3	3.7	0.00e+00	0	50	104	0	76	25197
2026-01-29 06:34:16.23	91.04	12.79	-52.7	-57.2	3.7	0.00e+00	0	51	104	0	76	25080
2026-01-29 06:34:17.37	90.76	12.86	-52.6	-57.3	3.7	0.00e+00	0	50	104	0	76	25112
2026-01-29 06:34:18.22	90.54	12.92	-52.7	-57.3	3.7	0.00e+00	0	51	104	0	76	25172
2026-01-29 06:34:19.36	90.26	13.00	-52.5	-57.2	3.7	0.00e+00	0	50	104	0	76	24923
2026-01-29 06:34:20.21	90.04	13.05	-52.3	-57.1	3.7	0.00e+00	0	50	104	0	76	24653
2026-01-29 06:34:21.35	89.75	13.13	-52.2	-57.1	3.7	0.00e+00	0	50	104	0	76	24593
2026-01-29 06:34:22.20	89.53	13.19	-52.4	-57.1	3.6	0.00e+00	0	50	104	0	76	24792
2026-01-29 06:34:23.34	89.24	13.26	-52.2	-57.0	3.7	0.00e+00	0	51	104	0	76	24427
2026-01-29 06:34:24.19	89.02	13.32	-52.1	-57.0	3.7	0.00e+00	0	51	104	0	76	24370
2026-01-29 06:34:25.33	88.72	13.39	-52.2	-57.1	3.7	0.00e+00	0	51	104	0	76	24555
2026-01-29 06:34:26.18	88.50	13.45	-52.0	-57.0	3.7	0.00e+00	0	51	104	0	76	24386
2026-01-29 06:34:27.32	88.20	13.52	-52.4	-57.2	3.7	0.00e+00	0	50	104	0	76	24825
2026-01-29 06:34:28.17	87.98	13.58	-52.5	-57.2	3.7	0.00e+00	0	50	104	0	76	24847
2026-01-29 06:34:29.31	87.67	13.65	-52.4	-57.1	3.7	0.00e+00	0	50	104	0	76	24689
2026-01-29 06:34:30.16	87.45	13.71	-52.6	-57.2	3.7	0.00e+00	0	50	104	0	76	24962
2026-01-29 06:34:31.30	87.14	13.78	-52.2	-57.0	3.7	0.00e+00	0	50	104	0	76	24523
2026-01-29 06:34:32.18	86.90	13.84	-51.7	-56.5	3.7	0.00e+00	0	51	104	0	75	24503
2026-01-29 06:34:33.49	86.55	13.92	-51.6	-56.4	3.7	0.00e+00	0	50	104	0	75	24159
2026-01-29 06:34:34.20	86.35	13.97	-51.6	-56.4	3.7	0.00e+00	0	50	104	0	75	24116
2026-01-29 06:34:35.48	86.00	14.05	-51.8	-56.7	3.7	0.00e+00	0	51	104	0	75	25020
2026-01-29 06:34:36.21	85.80	14.09	-51.8	-56.7	3.7	0.00e+00	0	51	104	0	75	24937
2026-01-29 06:34:37.74	85.37	14.19	-51.8	-56.6	3.7	0.00e+00	0	51	104	0	75	24728
2026-01-29 06:34:38.45	85.18	14.23	-51.7	-56.3	3.7	0.00e+00	0	51	104	0	75	23941
2026-01-29 06:34:39.73	84.82	14.31	-51.8	-56.4	3.7	0.00e+00	0	51	104	0	75	24119
2026-01-29 06:34:40.44	84.62	14.35	-51.8	-56.5	3.7	0.00e+00	0	51	104	0	75	24252
2026-01-29 06:34:41.72	84.25	14.43	-51.8	-56.4	3.7	0.00e+00	0	51	104	0	75	23991
2026-01-29 06:34:42.43	84.05	14.47	-51.6	-56.3	3.7	0.00e+00	0	51	104	0	75	23888
2026-01-29 06:34:43.71	83.69	14.55	-51.5	-56.5	3.7	0.00e+00	0	51	104	0	74	25962
2026-01-29 06:34:44.47	83.47	14.59	-51.5	-56.6	3.7	0.00e+00	0	51	104	0	74	26102
2026-01-29 06:34:45.75	83.10	14.67	-51.9	-56.7	3.7	0.00e+00	0	51	104	0	74	26449
2026-01-29 06:34:46.47	82.89	14.71	-52.0	-56.8	3.7	0.00e+00	0	51	104	0	74	26727
2026-01-29 06:34:47.75	82.52	14.78	-52.1	-56.8	3.7	0.00e+00	0	51	104	0	74	26783
2026-01-29 06:34:48.46	82.31	14.82	-52.1	-56.8	3.7	0.00e+00	0	51	104	0	74	26842
2026-01-29 06:34:49.74	81.93	14.90	-52.2	-56.9	3.7	0.00e+00	0	51	104	0	75	25581
2026-01-29 06:34:50.45	81.72	14.94	-52.0	-56.8	3.7	0.00e+00	0	51	104	0	75	25268
2026-01-29 06:34:51.73	81.34	15.01	-52.1	-56.9	3.7	0.00e+00	0	51	104	0	75	25677
2026-01-29 06:34:52.44	81.13	15.05	-52.0	-56.9	3.7	0.00e+00	0	51	104	0	75	25607
2026-01-29 06:34:53.77	80.73	15.12	-52.1	-56.9	3.7	0.00e+00	0	51	104	0	75	25610
2026-01-29 06:34:54.48	80.52	15.16	-52.4	-57.1	3.7	0.00e+00	0	51	104	0	75	26195
2026-01-29 06:34:55.76	80.13	15.23	-52.6	-57.2	3.7	0.00e+00	0	51	104	0	75	26384
2026-01-29 06:34:56.47	79.92	15.27	-52.6	-57.2	3.7	0.00e+00	0	51	104	0	75	26409
2026-01-29 06:34:57.75	79.53	15.34	-52.7	-57.4	3.7	0.00e+00	0	51	104	0	76	25506
2026-01-29 06:34:58.46	79.31	15.37	-52.7	-57.3	3.7	0.00e+00	0	51	104	0	76	25314
2026-01-29 06:34:59.74	78.92	15.44	-52.7	-57.3	3.7	0.00e+00	0	51	104	0	76	25115
2026-01-29 06:35:00.45	78.70	15.47	-52.7	-57.3	3.7	0.00e+00	0	51	104	0	76	25271
2026-01-29 06:35:01.73	78.30	15.54	-52.7	-57.3	3.7	0.00e+00	0	51	104	0	76	25109
2026-01-29 06:35:02.44	78.08	15.57	-52.7	-57.3	3.7	0.00e+00	0	51	104	0	76	25201
2026-01-29 06:35:03.71	77.68	15.64	-52.9	-57.5	3.7	0.00e+00	0	51	104	0	76	25725
2026-01-29 06:35:04.50	77.44	15.68	-52.9	-57.5	3.7	0.00e+00	0	51	104	0	76	25730
2026-01-29 06:35:05.70	77.06	15.73	-52.9	-57.5	3.7	0.00e+00	0	51	104	0	76	25781
2026-01-29 06:35:06.71	76.74	15.78	-52.8	-57.4	3.7	0.00e+00	0	51	104	0	76	25482
2026-01-29 06:35:07.71	76.42	15.83	-52.5	-57.2	3.7	0.00e+00	0	51	104	0	76	24942
2026-01-29 06:35:08.70	76.11	15.87	-52.5	-57.2	3.7	0.00e+00	0	51	104	0	76	24946
2026-01-29 06:35:09.70	75.79	15.92	-52.5	-57.2	3.7	0.00e+00	0	51	104	0	76	25089
2026-01-29 06:35:10.70	75.47	15.96	-52.7	-57.4	3.7	0.00e+00	0	51	104	0	76	25452
2026-01-29 06:35:12.00	75.05	16.02	-53.0	-57.6	3.7	0.00e+00	0	51	104	0	76	26077
2026-01-29 06:35:12.72	74.82	16.05	-52.9	-57.5	3.7	0.00e+00	0	51	104	0	76	25774
2026-01-29 06:35:13.99	74.41	16.11	-53.0	-57.6	3.7	0.00e+00	0	51	104	0	76	26048
2026-01-29 06:35:14.72	74.17	16.14	-53.0	-57.5	3.7	0.00e+00	0	51	104	0	76	25872
2026-01-29 06:35:16.00	73.75	16.19	-52.8	-57.4	3.7	0.00e+00	0	51	104	0	76	25592
2026-01-29 06:35:16.71	73.52	16.22	-52.8	-57.4	3.7	0.00e+00	0	51	104	0	76	25556
2026-01-29 06:35:17.99	73.10	16.27	-52.8	-57.4	3.7	0.00e+00	0	51	104	0	76	25461
2026-01-29 06:35:18.70	72.87	16.30	-52.9	-57.4	3.7	0.00e+00	0	51	104	0	76	25595
2026-01-29 06:35:20.06	72.42	16.35	-53.0	-57.5	3.7	0.00e+00	0	51	104	0	76	25928
2026-01-29 06:35:20.77	72.18	16.38	-53.0	-57.5	3.7	0.00e+00	0	51	104	0	76	25706
2026-01-29 06:35:22.04	71.76	16.42	-53.0	-57.5	3.7	0.00e+00	0	51	104	0	76	25918
2026-01-29 06:35:22.76	71.52	16.45	-53.0	-57.6	3.7	0.00e+00	0	51	104	0	76	26054
2026-01-29 06:35:24.15	71.06	16.50	-52.7	-57.3	3.7	0.00e+00	0	51	104	0	76	25298
2026-01-29 06:35:24.86	70.82	16.52	-52.8	-57.5	3.7	0.00e+00	0	51	104	0	76	25720
2026-01-29 06:35:26.21	70.36	16.57	-52.4	-57.1	3.7	0.00e+00	0	51	104	0	76	24565
2026-01-29 06:35:26.92	70.12	16.59	-52.6	-57.2	3.7	0.00e+00	0	51	104	0	76	24934
2026-01-29 06:35:28.24	69.68	16.63	-52.9	-57.4	3.7	0.00e+00	0	51	104	0	76	25535
2026-01-29 06:35:28.95	69.44	16.65	-52.7	-57.3	3.7	0.00e+00	0	51	104	0	76	25168
2026-01-29 06:35:30.27	68.99	16.69	-53.0	-57.4	3.7	0.00e+00	0	51	104	0	76	25606
2026-01-29 06:35:30.98	68.75	16.71	-53.0	-57.4	3.7	0.00e+00	0	51	104	0	76	25675
2026-01-29 06:35:32.26	68.31	16.75	-53.0	-57.3	3.7	0.00e+00	0	51	104	0	76	25315
2026-01-29 06:35:32.99	68.06	16.77	-53.0	-57.2	3.7	0.00e+00	0	51	104	0	76	25094
2026-01-29 06:35:34.26	67.63	16.80	-53.0	-57.5	3.7	0.00e+00	0	51	104	0	76	25751
2026-01-29 06:35:35.00	67.37	16.82	-52.8	-57.3	3.7	0.00e+00	0	51	104	0	76	25380
2026-01-29 06:35:36.28	66.93	16.85	-52.6	-57.3	3.7	0.00e+00	0	51	104	0	76	25137
2026-01-29 06:35:37.01	66.68	16.87	-52.7	-57.4	3.7	0.00e+00	0	51	104	0	76	25444
2026-01-29 06:35:38.29	66.24	16.90	-52.5	-57.3	3.7	0.00e+00	0	51	104	0	76	25127
2026-01-29 06:35:39.01	65.99	16.92	-52.8	-57.4	3.7	0.00e+00	0	51	104	0	76	25510
2026-01-29 06:35:40.29	65.55	16.94	-53.0	-57.5	3.7	0.00e+00	0	51	104	0	76	25902
2026-01-29 06:35:41.01	65.30	16.96	-52.8	-57.4	3.7	0.00e+00	0	51	104	0	76	25410
2026-01-29 06:35:42.28	64.86	16.98	-53.0	-57.5	3.7	0.00e+00	0	51	104	0	76	25859
2026-01-29 06:35:42.99	64.61	17.00	-52.9	-57.4	3.7	0.00e+00	0	51	104	0	76	25656
2026-01-29 06:35:44.27	64.17	17.02	-52.8	-57.4	3.7	0.00e+00	0	51	104	0	76	25593
2026-01-29 06:35:45.20	63.84	17.03	-52.8	-57.5	3.7	0.00e+00	0	51	104	0	76	25737
2026-01-29 06:35:46.50	63.39	17.05	-52.9	-57.5	3.7	0.00e+00	0	51	104	0	76	25772
2026-01-29 06:35:47.21	63.14	17.06	-53.0	-57.5	3.7	0.00e+00	0	51	104	0	76	25855
2026-01-29 06:35:48.49	62.69	17.08	-53.0	-57.4	3.7	0.00e+00	0	51	104	0	76	25603
2026-01-29 06:35:49.21	62.44	17.09	-53.0	-57.5	3.7	0.00e+00	0	51	104	0	76	25811
2026-01-29 06:35:50.49	61.99	17.11	-53.0	-57.5	3.7	0.00e+00	0	51	104	0	76	25759
2026-01-29 06:35:51.22	61.74	17.11	-52.8	-57.4	3.7	0.00e+00	0	51	104	0	76	25650
2026-01-29 06:35:52.49	61.29	17.13	-52.9	-57.5	3.7	0.00e+00	0	51	104	0	76	25703
2026-01-29 06:35:53.21	61.04	17.13	-52.9	-57.5	3.7	0.00e+00	0	51	104	0	76	25731
2026-01-29 06:35:54.48	60.59	17.14	-52.8	-57.3	3.7	0.00e+00	0	51	104	0	76	25278
2026-01-29 06:35:55.20	60.34	17.15	-52.7	-57.3	3.7	0.00e+00	0	51	104	0	76	25130
2026-01-29 06:35:56.47	59.89	17.16	-52.6	-57.3	3.7	0.00e+00	0	51	104	0	76	25346
2026-01-29 06:35:57.18	59.64	17.16	-52.7	-57.3	3.7	0.00e+00	0	51	104	0	76	25312
2026-01-29 06:35:58.64	59.13	17.17	-52.7	-57.4	3.7	0.00e+00	0	51	104	0	76	25392
2026-01-29 06:35:59.35	58.87	17.17	-52.8	-57.4	3.7	0.00e+00	0	51	104	0	76	25620
2026-01-29 06:36:00.62	58.43	17.17	-53.0	-57.5	3.7	0.00e+00	0	51	104	0	76	25711
2026-01-29 06:36:01.33	58.18	17.17	-52.9	-57.5	3.7	0.00e+00	0	51	104	0	76	25887
2026-01-29 06:36:02.72	57.69	17.17	-53.0	-57.5	3.7	0.00e+00	0	51	104	0	76	25686
2026-01-29 06:36:03.43	57.44	17.17	-52.9	-57.4	3.7	0.00e+00	0	51	104	0	76	25608
2026-01-29 06:36:04.78	56.96	17.17	-52.9	-57.5	3.7	0.00e+00	0	51	104	0	76	25879
2026-01-29 06:36:05.49	56.71	17.17	-53.0	-57.5	3.7	0.00e+00	0	51	104	0	76	25963
2026-01-29 06:36:06.77	56.26	17.16	-53.0	-57.5	3.7	0.00e+00	0	51	104	0	76	25950
2026-01-29 06:36:07.48	56.01	17.16	-52.9	-57.5	3.7	0.00e+00	0	51	104	0	76	25803
2026-01-29 06:36:08.75	55.56	17.15	-52.9	-57.5	3.7	0.00e+00	0	51	104	0	76	25808
2026-01-29 06:36:09.50	55.30	17.14	-52.9	-57.5	3.7	0.00e+00	0	51	104	0	76	25877
2026-01-29 06:36:10.78	54.85	17.13	-52.8	-57.4	3.7	0.00e+00	0	51	104	0	76	25661
2026-01-29 06:36:11.49	54.60	17.13	-52.9	-57.5	3.7	0.00e+00	0	51	104	0	76	25849
2026-01-29 06:36:12.77	54.15	17.12	-52.8	-57.5	3.7	0.00e+00	0	51	104	0	76	25805
2026-01-29 06:36:13.48	53.90	17.11	-52.9	-57.5	3.7	0.00e+00	0	51	104	0	76	25712
2026-01-29 06:36:14.75	53.46	17.09	-52.8	-57.4	3.7	0.00e+00	0	51	104	0	76	25609
2026-01-29 06:36:15.46	53.21	17.09	-52.8	-57.4	3.7	0.00e+00	0	51	104	0	76	25602
2026-01-29 06:36:16.75	52.76	17.07	-52.7	-57.3	3.7	0.00e+00	0	51	104	0	76	25282
2026-01-29 06:36:17.46	52.51	17.06	-52.7	-57.3	3.7	0.00e+00	0	51	104	0	76	25137
2026-01-29 06:36:18.74	52.06	17.04	-52.6	-57.3	3.7	0.00e+00	0	51	104	0	76	25248
2026-01-29 06:36:19.45	51.82	17.03	-52.5	-57.2	3.7	0.00e+00	0	51	104	0	76	24840
2026-01-29 06:36:20.74	51.37	17.00	-52.7	-57.3	3.7	0.00e+00	0	51	104	0	76	25243
2026-01-29 06:36:21.45	51.12	16.99	-52.7	-57.4	3.7	0.00e+00	0	51	104	0	76	25401
2026-01-29 06:36:22.79	50.66	16.97	-52.8	-57.3	3.7	0.00e+00	0	51	104	0	76	25381
2026-01-29 06:36:23.50	50.41	16.95	-52.8	-57.3	3.7	0.00e+00	0	51	104	0	76	25334
2026-01-29 06:36:24.78	49.97	16.93	-52.8	-57.4	3.7	0.00e+00	0	51	104	0	76	25442
2026-01-29 06:36:25.49	49.72	16.91	-52.8	-57.4	3.7	0.00e+00	0	51	104	0	76	25503
2026-01-29 06:36:26.77	49.28	16.88	-52.6	-57.2	3.7	0.00e+00	0	51	104	0	76	25019
2026-01-29 06:36:27.48	49.04	16.86	-52.6	-57.1	3.7	0.00e+00	0	51	104	0	76	24801
2026-01-29 06:36:28.76	48.60	16.83	-52.7	-57.3	3.7	0.00e+00	0	51	104	0	76	25131
2026-01-29 06:36:29.49	48.35	16.82	-52.7	-57.3	3.7	0.00e+00	0	51	104	0	76	25107
2026-01-29 06:36:30.77	47.91	16.78	-52.9	-57.4	3.7	0.00e+00	0	51	104	0	76	25403
2026-01-29 06:36:31.48	47.67	16.76	-52.8	-57.3	3.7	0.00e+00	0	51	104	0	76	25130
2026-01-29 06:36:32.76	47.23	16.73	-52.7	-57.1	3.7	0.00e+00	0	51	104	0	76	24628
2026-01-29 06:36:33.47	46.99	16.71	-52.7	-57.1	3.7	0.00e+00	0	51	104	0	76	24685
2026-01-29 06:36:34.75	46.56	16.67	-52.5	-57.1	3.7	0.00e+00	0	51	104	0	76	24614
2026-01-29 06:36:35.47	46.31	16.65	-52.5	-57.2	3.7	0.00e+00	0	51	104	0	76	24808
2026-01-29 06:36:36.75	45.88	16.61	-52.6	-57.3	3.7	0.00e+00	0	51	104	0	76	25209
2026-01-29 06:36:37.48	45.63	16.58	-52.6	-57.3	3.7	0.00e+00	0	51	104	0	76	25124
2026-01-29 06:36:38.76	45.21	16.54	-52.5	-56.8	3.7	0.00e+00	0	51	104	0	76	23903
2026-01-29 06:36:39.48	44.96	16.52	-52.2	-56.1	3.7	0.00e+00	0	51	104	0	76	21885
2026-01-29 06:36:40.76	44.54	16.47	-52.1	-56.0	3.7	0.00e+00	0	51	104	0	76	21707
2026-01-29 06:36:41.50	44.29	16.45	-52.1	-56.0	3.7	0.00e+00	0	51	104	0	76	21803
2026-01-29 06:36:42.78	43.87	16.40	-52.5	-56.5	3.7	0.00e+00	0	51	104	0	76	23122
2026-01-29 06:36:43.52	43.62	16.37	-52.6	-56.8	3.7	0.00e+00	0	51	104	0	76	23720
2026-01-29 06:36:44.80	43.20	16.33	-52.5	-56.6	3.7	0.00e+00	0	51	104	0	76	23377
2026-01-29 06:36:45.51	42.97	16.30	-52.4	-56.4	3.7	0.00e+00	0	51	104	0	76	22810
2026-01-29 06:36:46.79	42.55	16.25	-52.4	-56.6	3.7	0.00e+00	0	51	104	0	76	23383
2026-01-29 06:36:47.58	42.29	16.22	-52.6	-57.0	3.7	0.00e+00	0	51	104	0	76	24301
2026-01-29 06:36:48.76	41.90	16.17	-52.5	-57.0	3.7	0.00e+00	0	51	104	0	76	24522
2026-01-29 06:36:49.61	41.63	16.13	-52.5	-57.0	3.7	0.00e+00	0	51	104	0	76	24298
2026-01-29 06:36:50.75	41.26	16.09	-52.7	-57.2	3.7	0.00e+00	0	51	104	0	76	24906
2026-01-29 06:36:51.79	40.92	16.04	-52.8	-57.3	3.7	0.00e+00	0	51	104	0	76	25222
2026-01-29 06:36:52.93	40.56	15.99	-52.7	-57.2	3.7	0.00e+00	0	51	104	0	76	24821
2026-01-29 06:36:53.78	40.28	15.96	-52.6	-57.1	3.7	0.00e+00	0	51	104	0	76	24637
2026-01-29 06:36:54.92	39.92	15.90	-52.7	-57.2	3.7	0.00e+00	0	51	104	0	76	24854
2026-01-29 06:36:55.77	39.65	15.87	-52.7	-57.3	3.7	0.00e+00	0	51	104	0	76	25241
2026-01-29 06:36:56.90	39.29	15.81	-52.0	-55.5	3.7	0.00e+00	0	51	104	0	76	20578
2026-01-29 06:36:57.76	39.02	15.77	-51.2	-54.3	3.8	0.00e+00	0	51	104	0	74	19957
2026-01-29 06:36:58.89	38.67	15.72	-52.1	-55.8	3.7	0.00e+00	0	51	104	0	74	23885
2026-01-29 06:36:59.75	38.40	15.68	-51.2	-54.3	3.8	0.00e+00	0	51	104	0	74	20001
2026-01-29 06:37:00.88	38.04	15.62	-51.0	-54.1	3.8	0.00e+00	0	51	104	0	74	19520
2026-01-29 06:37:01.74	37.78	15.58	-50.6	-53.5	3.9	0.00e+00	0	51	104	0	73	19401
2026-01-29 06:37:02.87	37.43	15.52	-50.3	-53.1	3.9	0.00e+00	0	51	104	0	72	19552
2026-01-29 06:37:03.72	37.17	15.48	-50.5	-53.3	3.9	0.00e+00	0	51	104	0	72	20046
2026-01-29 06:37:05.00	36.77	15.42	-51.2	-54.4	3.8	0.00e+00	0	51	104	0	73	21385
2026-01-29 06:37:05.72	36.55	15.38	-50.3	-53.1	3.9	0.00e+00	0	51	104	0	72	19670
2026-01-29 06:37:07.00	36.16	15.31	-50.9	-53.9	3.8	0.00e+00	0	51	104	0	72	21498
2026-01-29 06:37:07.71	35.95	15.28	-52.1	-55.8	3.7	0.00e+00	0	51	104	0	74	23934
2026-01-29 06:37:08.99	35.56	15.21	-52.4	-56.4	3.7	0.00e+00	0	51	104	0	75	23982
2026-01-29 06:37:09.71	35.35	15.17	-52.4	-56.6	3.7	0.00e+00	0	51	104	0	75	24724
2026-01-29 06:37:10.99	34.96	15.10	-51.4	-55.3	3.7	0.00e+00	0	51	104	0	74	22521
2026-01-29 06:37:11.70	34.75	15.06	-51.0	-54.8	3.7	0.00e+00	0	51	104	0	74	21306
2026-01-29 06:37:12.98	34.37	14.99	-51.0	-55.0	3.7	0.00e+00	0	51	104	0	73	22993
2026-01-29 06:37:13.70	34.16	14.95	-51.0	-55.1	3.7	0.00e+00	0	51	104	0	73	23156
2026-01-29 06:37:14.97	33.79	14.88	-52.0	-56.0	3.7	0.00e+00	0	51	104	0	74	24348
2026-01-29 06:37:15.70	33.57	14.84	-52.2	-56.3	3.7	0.00e+00	0	51	104	0	75	23749
2026-01-29 06:37:17.06	33.18	14.76	-52.4	-56.7	3.7	0.00e+00	0	51	104	0	75	24983
2026-01-29 06:37:17.77	32.97	14.72	-52.2	-56.3	3.7	0.00e+00	0	51	104	0	75	23791
2026-01-29 06:37:19.14	32.58	14.64	-52.0	-56.0	3.7	0.00e+00	0	51	104	0	75	23013
2026-01-29 06:37:19.85	32.37	14.60	-51.9	-56.1	3.7	0.00e+00	0	51	104	0	75	23230
2026-01-29 06:37:21.14	32.01	14.52	-51.7	-56.2	3.7	0.00e+00	0	51	104	0	75	23632
2026-01-29 06:37:21.86	31.80	14.48	-51.5	-56.3	3.7	0.00e+00	0	51	104	0	75	23941
2026-01-29 06:37:23.14	31.44	14.40	-51.2	-56.4	3.7	0.00e+00	0	51	104	0	74	25610
2026-01-29 06:37:24.28	31.12	14.33	-51.6	-56.6	3.7	0.00e+00	0	51	104	0	74	26173
2026-01-29 06:37:25.13	30.88	14.28	-51.7	-56.7	3.7	0.00e+00	0	51	104	0	74	26392
2026-01-29 06:37:26.27	30.56	14.21	-51.8	-56.2	3.7	0.00e+00	0	51	104	0	74	25093
2026-01-29 06:37:27.13	30.33	14.16	-52.3	-56.3	3.7	0.00e+00	0	51	104	0	75	23728
2026-01-29 06:37:28.31	30.00	14.08	-51.8	-55.9	3.7	0.00e+00	0	51	104	0	75	22875
2026-01-29 06:37:29.17	29.77	14.03	-52.5	-56.7	3.7	0.00e+00	0	51	104	0	75	25044
2026-01-29 06:37:30.30	29.46	13.96	-52.5	-57.1	3.7	0.00e+00	0	51	104	0	75	26096
2026-01-29 06:37:31.16	29.22	13.91	-52.1	-56.9	3.7	0.00e+00	0	51	104	0	75	25394
2026-01-29 06:37:32.30	28.92	13.83	-51.9	-56.8	3.7	0.00e+00	0	51	104	0	75	25240
2026-01-29 06:37:33.15	28.69	13.78	-51.9	-56.8	3.7	0.00e+00	0	51	104	0	75	25174
2026-01-29 06:37:34.29	28.38	13.71	-51.5	-56.4	3.7	0.00e+00	0	51	104	0	75	24211
2026-01-29 06:37:35.14	28.16	13.65	-51.2	-56.1	3.7	0.00e+00	0	51	104	0	74	24656
2026-01-29 06:37:36.27	27.86	13.58	-51.1	-56.1	3.7	0.00e+00	0	51	104	0	74	24555
2026-01-29 06:37:37.13	27.63	13.52	-51.0	-56.1	3.7	0.00e+00	0	51	104	0	74	24581
2026-01-29 06:37:38.26	27.34	13.45	-51.1	-55.8	3.7	0.00e+00	0	51	104	0	74	23894
2026-01-29 06:37:39.12	27.12	13.39	-51.3	-56.5	3.7	0.00e+00	0	51	104	0	74	25683
2026-01-29 06:37:40.25	26.82	13.32	-51.1	-55.9	3.7	0.00e+00	0	51	104	0	74	24201
2026-01-29 06:37:41.10	26.60	13.26	-51.2	-56.1	3.7	0.00e+00	0	51	104	0	74	24586
2026-01-29 06:37:42.24	26.31	13.19	-51.6	-56.2	3.7	0.00e+00	0	51	104	0	74	24936
2026-01-29 06:37:43.09	26.10	13.13	-51.6	-56.1	3.7	0.00e+00	0	51	104	0	74	24741
2026-01-29 06:37:44.33	25.78	13.05	-51.9	-56.5	3.7	0.00e+00	0	51	104	0	74	25891
2026-01-29 06:37:45.18	25.57	12.99	-51.7	-56.3	3.7	0.00e+00	0	51	104	0	74	25224
2026-01-29 06:37:46.32	25.28	12.92	-51.9	-56.9	3.7	0.00e+00	0	51	104	0	74	26993
2026-01-29 06:37:47.17	25.07	12.86	-50.9	-56.1	3.7	0.00e+00	0	51	104	0	73	26103
2026-01-29 06:37:48.43	24.76	12.77	-51.4	-56.2	3.7	0.00e+00	0	51	104	0	73	26514
2026-01-29 06:37:49.22	24.57	12.72	-50.2	-55.7	3.7	0.00e+00	0	51	104	0	72	26356
2026-01-29 06:37:50.42	24.27	12.64	-50.7	-55.9	3.7	0.00e+00	0	51	104	0	72	27003
2026-01-29 06:37:51.28	24.07	12.58	-51.2	-56.2	3.7	0.00e+00	0	51	104	0	73	26561
2026-01-29 06:37:52.41	23.79	12.50	-51.8	-56.7	3.7	0.00e+00	0	51	104	0	74	26414
2026-01-29 06:37:53.27	23.59	12.45	-51.9	-56.8	3.7	0.00e+00	0	51	104	0	74	26679
2026-01-29 06:37:54.41	23.31	12.37	-52.2	-56.9	3.7	0.00e+00	0	51	104	0	75	25658
2026-01-29 06:37:55.26	23.11	12.31	-51.9	-56.8	3.7	0.00e+00	0	51	104	0	75	25261
2026-01-29 06:37:56.62	22.79	12.22	-52.0	-56.8	3.7	0.00e+00	0	51	104	0	75	25139
2026-01-29 06:37:57.33	22.62	12.17	-51.9	-56.6	3.7	0.00e+00	0	51	104	0	75	24637
2026-01-29 06:37:58.84	22.27	12.06	-52.1	-56.7	3.7	0.00e+00	0	51	104	0	75	25021
2026-01-29 06:37:59.55	22.11	12.01	-52.3	-56.9	3.7	0.00e+00	0	51	104	0	75	25655
2026-01-29 06:38:00.83	21.81	11.92	-52.1	-56.9	3.7	0.00e+00	0	52	104	0	75	25621
2026-01-29 06:38:01.56	21.65	11.87	-51.5	-56.5	3.7	0.00e+00	0	51	104	0	75	24436
2026-01-29 06:38:02.84	21.35	11.79	-51.9	-56.8	3.7	0.00e+00	0	51	104	0	74	26721
2026-01-29 06:38:03.56	21.19	11.73	-51.2	-56.4	3.7	0.00e+00	0	51	104	0	74	25387
2026-01-29 06:38:04.84	20.90	11.65	-49.5	-55.0	3.7	0.00e+00	0	51	104	0	71	25741
2026-01-29 06:38:05.55	20.75	11.60	-49.3	-54.6	3.7	0.00e+00	0	51	104	0	70	26197
2026-01-29 06:38:06.83	20.46	11.51	-49.3	-54.4	3.7	0.00e+00	0	51	104	0	70	25581
2026-01-29 06:38:07.55	20.30	11.46	-49.1	-54.4	3.7	0.00e+00	0	51	104	0	70	25405
2026-01-29 06:38:08.83	20.02	11.37	-48.8	-54.1	3.7	0.00e+00	0	51	104	0	69	26180
2026-01-29 06:38:09.58	19.86	11.31	-48.8	-54.1	3.7	0.00e+00	0	51	104	0	69	25996
2026-01-29 06:38:10.86	19.58	11.22	-48.8	-54.0	3.7	0.00e+00	0	51	104	0	69	25754
2026-01-29 06:38:11.57	19.43	11.17	-49.2	-54.8	3.7	0.00e+00	0	52	104	0	69	28364
2026-01-29 06:38:12.84	19.15	11.08	-50.0	-55.1	3.7	0.00e+00	0	51	104	0	70	27773
2026-01-29 06:38:13.58	19.00	11.03	-49.6	-54.8	3.7	0.00e+00	0	51	104	0	71	25197
2026-01-29 06:38:14.86	18.73	10.94	-49.4	-54.7	3.7	0.00e+00	0	51	104	0	70	26351
2026-01-29 06:38:15.59	18.57	10.89	-49.7	-54.9	3.7	0.00e+00	0	51	104	0	70	27125
2026-01-29 06:38:16.87	18.30	10.80	-50.4	-55.4	3.7	0.00e+00	0	51	104	0	71	26935
2026-01-29 06:38:17.58	18.16	10.75	-50.8	-55.5	3.7	0.00e+00	0	51	104	0	72	25944
2026-01-29 06:38:18.86	17.89	10.66	-51.1	-55.8	3.7	0.00e+00	0	52	104	0	72	26870
2026-01-29 06:38:19.57	17.75	10.61	-51.0	-55.7	3.7	0.00e+00	0	51	104	0	72	26478
2026-01-29 06:38:20.85	17.48	10.52	-52.1	-56.7	3.7	0.00e+00	0	51	104	0	74	26421
2026-01-29 06:38:21.57	17.34	10.47	-52.0	-56.5	3.7	0.00e+00	0	51	104	0	74	25952
2026-01-29 06:38:22.85	17.08	10.38	-51.7	-56.5	3.7	0.00e+00	0	51	104	0	74	25915
2026-01-29 06:38:23.59	16.93	10.32	-51.7	-56.6	3.7	0.00e+00	0	51	104	0	74	26097
2026-01-29 06:38:25.16	16.62	10.21	-51.5	-56.5	3.7	0.00e+00	0	52	104	0	74	25964
2026-01-29 06:38:25.79	16.49	10.17	-51.2	-56.4	3.7	0.00e+00	0	51	104	0	74	25437
2026-01-29 06:38:27.32	16.19	10.06	-50.8	-56.1	3.7	0.00e+00	0	51	104	0	73	26018
2026-01-29 06:38:28.03	16.06	10.01	-50.5	-55.9	3.7	0.00e+00	0	51	104	0	73	25614
2026-01-29 06:38:29.31	15.81	9.92	-49.8	-55.5	3.7	0.00e+00	0	51	104	0	71	27464
2026-01-29 06:38:30.02	15.67	9.87	-49.4	-55.1	3.7	0.00e+00	0	51	104	0	70	27669
2026-01-29 06:38:31.30	15.42	9.78	-49.1	-55.0	3.7	0.00e+00	0	51	104	0	70	27226
2026-01-29 06:38:32.02	15.29	9.73	-49.3	-55.1	3.7	0.00e+00	0	51	104	0	70	27808
2026-01-29 06:38:33.30	15.05	9.64	-49.0	-54.9	3.7	0.00e+00	0	51	104	0	70	27003
2026-01-29 06:38:34.03	14.91	9.59	-49.1	-55.1	3.7	0.00e+00	0	51	104	0	70	27570
2026-01-29 06:38:35.31	14.67	9.50	-49.6	-55.4	3.7	0.00e+00	0	51	104	0	70	28514
2026-01-29 06:38:36.02	14.54	9.45	-49.2	-55.1	3.7	0.00e+00	0	51	104	0	70	27634
2026-01-29 06:38:37.30	14.30	9.35	-49.8	-55.5	3.7	0.00e+00	0	51	104	0	70	28859
2026-01-29 06:38:38.01	14.17	9.30	-49.7	-55.5	3.7	0.00e+00	0	51	104	0	70	29087
2026-01-29 06:38:39.29	13.94	9.21	-50.1	-55.7	3.7	0.00e+00	0	51	104	0	70	29713
2026-01-29 06:38:40.11	13.79	9.16	-49.8	-55.5	3.7	0.00e+00	0	51	104	0	70	29081
2026-01-29 06:38:41.55	13.53	9.05	-50.3	-55.9	3.7	0.00e+00	0	51	104	0	71	28664
2026-01-29 06:38:42.26	13.40	9.00	-50.4	-56.1	3.7	0.00e+00	0	51	104	0	71	29456
2026-01-29 06:38:43.77	13.13	8.90	-50.0	-55.8	3.7	0.00e+00	0	51	104	0	70	29904
2026-01-29 06:38:44.48	13.01	8.85	-52.8	-57.4	3.7	0.00e+00	0	51	104	0	76	25530
2026-01-29 06:38:45.82	12.77	8.75	-52.0	-56.9	3.7	0.00e+00	0	51	104	0	74	27139
2026-01-29 06:38:46.53	12.65	8.70	-51.7	-56.7	3.7	0.00e+00	0	51	104	0	75	24987
2026-01-29 06:38:47.87	12.42	8.61	-50.9	-55.2	3.7	0.00e+00	0	51	104	0	73	23627
2026-01-29 06:38:48.58	12.30	8.56	-51.7	-56.4	3.7	0.00e+00	0	52	104	0	73	27035
2026-01-29 06:38:49.85	12.08	8.47	-52.7	-57.4	3.7	0.00e+00	0	51	104	0	76	25596
2026-01-29 06:38:50.56	11.96	8.42	-52.6	-57.4	3.7	0.00e+00	0	51	104	0	76	25665
2026-01-29 06:38:51.84	11.74	8.33	-52.9	-57.6	3.7	0.00e+00	0	51	104	0	76	26027
2026-01-29 06:38:52.56	11.62	8.28	-53.2	-57.8	3.7	0.00e+00	0	51	104	0	77	25296
2026-01-29 06:38:53.84	11.41	8.19	-52.6	-57.3	3.7	0.00e+00	0	51	104	0	77	23924
2026-01-29 06:38:54.55	11.29	8.14	-53.4	-57.9	3.7	0.00e+00	0	51	104	0	77	25400
2026-01-29 06:38:55.83	11.08	8.05	-53.3	-57.8	3.7	0.00e+00	0	51	104	0	77	25225
2026-01-29 06:38:56.54	10.96	8.00	-53.0	-57.6	3.7	0.00e+00	0	51	104	0	77	24691
2026-01-29 06:38:57.81	10.76	7.92	-53.2	-57.9	3.7	0.00e+00	0	51	104	0	78	24203
2026-01-29 06:38:58.52	10.64	7.87	-53.4	-58.0	3.7	0.00e+00	0	51	104	0	78	24373
2026-01-29 06:38:59.80	10.43	7.78	-53.4	-57.9	3.7	0.00e+00	0	51	104	0	77	25623
2026-01-29 06:39:00.51	10.32	7.73	-53.5	-58.0	3.7	0.00e+00	0	51	104	0	77	25708
2026-01-29 06:39:01.79	10.12	7.64	-53.2	-57.9	3.7	0.00e+00	0	51	104	0	77	25436
2026-01-29 06:39:02.50	10.01	7.59	-53.0	-57.8	3.7	0.00e+00	0	51	104	0	77	25207
2026-01-29 06:39:03.79	9.80	7.50	-52.8	-57.6	3.7	0.00e+00	0	51	104	0	77	24691
2026-01-29 06:39:04.50	9.69	7.45	-53.0	-57.8	3.7	0.00e+00	0	51	104	0	77	25228
2026-01-29 06:39:05.84	9.48	7.36	-52.8	-57.4	3.7	0.00e+00	0	51	104	0	77	24092
2026-01-29 06:39:06.55	9.37	7.31	-53.2	-57.9	3.7	0.00e+00	0	51	104	0	77	25407
2026-01-29 06:39:07.83	9.18	7.22	-53.2	-57.8	3.7	0.00e+00	0	51	104	0	77	25200
2026-01-29 06:39:08.55	9.07	7.18	-53.3	-57.7	3.7	0.00e+00	0	51	104	0	77	25057
2026-01-29 06:39:09.83	8.88	7.09	-53.2	-57.6	3.7	0.00e+00	0	51	104	0	77	24795
2026-01-29 06:39:10.54	8.77	7.04	-53.0	-57.6	3.7	0.00e+00	0	51	104	0	77	24541
2026-01-29 06:39:11.82	8.58	6.95	-52.7	-57.5	3.7	0.00e+00	0	51	104	0	77	24263
2026-01-29 06:39:12.53	8.47	6.90	-52.7	-57.5	3.7	0.00e+00	0	51	104	0	76	25811
2026-01-29 06:39:13.80	8.28	6.82	-52.9	-57.6	3.7	0.00e+00	0	51	104	0	76	26084
2026-01-29 06:39:14.51	8.18	6.77	-52.7	-57.6	3.7	0.00e+00	0	51	104	0	76	26214
2026-01-29 06:39:15.79	7.99	6.68	-53.0	-57.7	3.7	0.00e+00	0	51	104	0	76	26542
2026-01-29 06:39:16.50	7.89	6.63	-53.0	-57.6	3.7	0.00e+00	0	51	104	0	76	26252
2026-01-29 06:39:17.78	7.71	6.55	-53.1	-57.7	3.7	0.00e+00	0	51	104	0	77	24810
2026-01-29 06:39:18.49	7.60	6.50	-52.6	-56.6	3.7	0.00e+00	0	51	104	0	77	21984
2026-01-29 06:39:19.76	7.42	6.41	-52.7	-57.1	3.7	0.00e+00	0	51	104	0	76	24553
2026-01-29 06:39:20.49	7.32	6.36	-52.6	-56.7	3.7	0.00e+00	0	51	104	0	76	23625
2026-01-29 06:39:21.77	7.14	6.28	-51.5	-55.1	3.7	0.00e+00	0	51	104	0	75	20728
2026-01-29 06:39:22.48	7.04	6.23	-51.6	-55.2	3.7	0.00e+00	0	51	104	0	75	20873
2026-01-29 06:39:23.75	6.86	6.14	-51.5	-55.1	3.7	0.00e+00	0	51	104	0	75	20742
2026-01-29 06:39:24.46	6.77	6.10	-51.6	-55.1	3.7	0.00e+00	0	51	104	0	75	20834
2026-01-29 06:39:25.74	6.59	6.01	-51.5	-55.1	3.7	0.00e+00	0	51	104	0	75	20809
2026-01-29 06:39:26.45	6.49	5.96	-51.5	-55.1	3.7	0.00e+00	0	51	104	0	75	20705
2026-01-29 06:39:27.73	6.32	5.88	-51.5	-55.1	3.7	0.00e+00	0	51	104	0	75	20681
2026-01-29 06:39:28.45	6.22	5.83	-51.5	-55.1	3.7	0.00e+00	0	51	104	0	75	20682
2026-01-29 06:39:29.73	6.05	5.74	-51.5	-55.1	3.7	0.00e+00	0	51	104	0	75	20642
2026-01-29 06:39:30.44	5.96	5.70	-51.5	-55.0	3.7	0.00e+00	0	51	104	0	74	21794
2026-01-29 06:39:31.72	5.79	5.61	-51.5	-55.1	3.7	0.00e+00	0	51	104	0	74	21880
2026-01-29 06:39:32.43	5.69	5.57	-51.5	-55.0	3.7	0.00e+00	0	51	104	0	74	21814
2026-01-29 06:39:33.71	5.52	5.48	-51.5	-55.0	3.7	0.00e+00	0	51	104	0	74	21741
2026-01-29 06:39:34.43	5.43	5.43	-51.4	-55.0	3.7	0.00e+00	0	51	104	0	74	21735
2026-01-29 06:39:35.71	5.27	5.35	-51.5	-55.1	3.7	0.00e+00	0	51	104	0	74	21894
2026-01-29 06:39:36.42	5.17	5.30	-51.5	-55.1	3.7	0.00e+00	0	51	104	0	74	21877
2026-01-29 06:39:37.70	5.01	5.22	-51.5	-55.1	3.7	0.00e+00	0	51	104	0	74	21881
2026-01-29 06:39:38.41	4.92	5.17	-51.4	-55.0	3.7	0.00e+00	0	52	104	0	74	21804
2026-01-29 06:39:39.68	4.76	5.09	-51.4	-55.0	3.7	0.00e+00	0	51	104	0	74	21707
2026-01-29 06:39:40.41	4.67	5.04	-51.4	-55.0	3.7	0.00e+00	0	51	104	0	74	21742
2026-01-29 06:39:41.68	4.51	4.96	-51.4	-55.0	3.7	0.00e+00	0	51	104	0	74	21751

#Closed at: 2026-01-29 06:39:42
#Recorded file [0 MB]: D:/Data/31040_260129_093225.dat