passes_logs/2026/01/29/T1/T1__20260129_093353_NOAA_21_JPSS-2_rec.log

#Pass ID: 20260129_093353_NOAA 21 (JPSS-2)
#Satellite: NOAA 21 (JPSS-2)
#Configuration: NOAA 21
#almurnet v.1.7.20251203
#Start time: 2026-01-29 09:33:53

#Version: 2.0.20230620
#Station: T1
#Location: 37.570604 lon 55.790049 lat
#TLE: 1 54234U 22150A   26027.91149249  .00000141  00000+0  87546-4 0  9993
#TLE: 2 54234  98.7510 328.6558 0000880 202.8718 157.2419 14.19540177166642

#Time	Az	El	Level	Level2	SNR	BER	BlckErr	Temp	State	Recorded	gain1	gain2
2026-01-29 09:33:53.86	148.89	5.02	-49.8	-63.1	3.8	1.49e+00	0	37	0	0	71	16466
2026-01-29 09:33:54.85	148.87	5.09	-50.1	-63.2	3.8	1.49e+00	0	37	104	0	71	16547
2026-01-29 09:33:55.84	148.85	5.16	-49.8	-63.2	3.8	1.49e+00	0	37	104	0	71	16582
2026-01-29 09:33:56.84	148.83	5.23	-50.2	-63.2	3.8	1.49e+00	0	37	104	0	71	16553
2026-01-29 09:33:57.83	148.81	5.30	-50.2	-63.1	3.8	1.49e+00	0	37	104	0	71	16495
2026-01-29 09:33:58.82	148.79	5.37	-50.1	-63.1	3.8	1.49e+00	0	37	104	0	71	16489
2026-01-29 09:33:59.82	148.78	5.45	-49.9	-63.1	3.8	1.49e+00	0	38	104	0	71	16463
2026-01-29 09:34:00.81	148.76	5.52	-50.0	-63.1	3.8	1.49e+00	0	37	104	0	71	16416
2026-01-29 09:34:01.81	148.74	5.59	-50.0	-63.1	3.8	1.49e+00	0	37	104	0	71	16334
2026-01-29 09:34:02.80	148.72	5.66	-50.0	-63.1	3.8	1.49e+00	0	38	104	0	71	16339
2026-01-29 09:34:03.79	148.70	5.74	-50.0	-63.0	3.8	1.49e+00	0	37	104	0	71	16232
2026-01-29 09:34:04.78	148.68	5.81	-49.8	-63.0	3.8	1.49e+00	0	38	104	0	71	16199
2026-01-29 09:34:05.78	148.66	5.88	-49.8	-63.0	3.8	1.49e+00	0	37	104	0	71	16158
2026-01-29 09:34:06.77	148.64	5.95	-49.7	-62.8	3.8	1.49e+00	0	38	104	0	71	15931
2026-01-29 09:34:07.77	148.62	6.03	-49.7	-62.8	3.8	1.49e+00	0	38	104	0	71	15872
2026-01-29 09:34:08.76	148.60	6.10	-49.6	-62.7	3.8	1.49e+00	0	38	104	0	70	16645
2026-01-29 09:34:09.75	148.58	6.18	-49.5	-62.6	3.8	1.49e+00	0	38	104	0	70	16437
2026-01-29 09:34:10.75	148.56	6.25	-49.4	-62.5	3.8	1.49e+00	0	38	104	0	70	16144
2026-01-29 09:34:11.74	148.54	6.32	-48.9	-62.3	3.8	1.49e+00	0	38	104	0	69	16750
2026-01-29 09:34:12.73	148.52	6.40	-49.2	-61.2	3.8	1.49e+00	0	38	104	0	69	14824
2026-01-29 09:34:13.73	148.50	6.47	-49.2	-61.8	3.8	1.49e+00	0	38	104	0	69	15767
2026-01-29 09:34:14.72	148.48	6.55	-49.2	-61.9	3.8	1.49e+00	0	38	104	0	69	15998
2026-01-29 09:34:15.71	148.46	6.62	-49.2	-62.0	3.8	1.49e+00	0	38	104	0	69	16264
2026-01-29 09:34:16.71	148.44	6.70	-49.2	-62.2	3.8	1.49e+00	0	38	104	0	69	16553
2026-01-29 09:34:17.70	148.42	6.77	-49.2	-62.3	3.8	1.49e+00	0	38	104	0	69	16705
2026-01-29 09:34:18.69	148.40	6.85	-49.2	-62.3	3.8	1.49e+00	0	38	104	0	69	16764
2026-01-29 09:34:19.69	148.38	6.93	-49.2	-62.3	3.8	1.49e+00	0	38	104	0	69	16804
2026-01-29 09:34:20.68	148.36	7.00	-49.2	-62.2	3.8	1.49e+00	0	38	104	0	69	16676
2026-01-29 09:34:21.67	148.34	7.08	-49.2	-62.1	3.8	1.49e+00	0	38	104	0	69	16325
2026-01-29 09:34:22.67	148.32	7.16	-49.2	-61.8	3.8	1.49e+00	0	38	104	0	69	15785
2026-01-29 09:34:23.66	148.30	7.23	-49.1	-61.2	3.8	1.49e+00	0	38	104	0	69	14856
2026-01-29 09:34:24.65	148.28	7.31	-49.0	-59.8	4.0	1.49e+00	0	38	104	0	69	12556
2026-01-29 09:34:25.65	148.25	7.39	-48.8	-58.5	4.3	1.47e+00	0	38	104	0	69	10891
2026-01-29 09:34:26.64	148.23	7.46	-48.6	-57.0	4.9	1.14e+00	0	38	104	0	69	9109
2026-01-29 09:34:27.63	148.21	7.54	-48.2	-55.4	5.9	4.08e-01	0	38	0	0	68	8004
2026-01-29 09:34:28.63	148.19	7.62	-47.7	-53.8	7.1	2.11e-01	0	38	0	0	67	7046
2026-01-29 09:34:29.62	148.17	7.70	-47.1	-52.3	8.5	6.59e-02	0	38	0	0	66	6311
2026-01-29 09:34:30.62	148.14	7.78	-46.6	-51.1	9.8	1.53e-02	0	38	0	0	65	5803
2026-01-29 09:34:31.61	148.12	7.86	-46.2	-50.3	10.6	3.79e-03	0	38	0	0	64	5598
2026-01-29 09:34:32.60	148.10	7.94	-45.7	-49.4	11.6	1.42e-03	0	38	0	0	63	5375
2026-01-29 09:34:33.60	148.08	8.02	-45.4	-48.8	12.2	3.23e-04	0	38	0	0	62	5316
2026-01-29 09:34:34.59	148.05	8.09	-45.0	-48.2	12.8	8.08e-05	0	38	0	0	62	4955
2026-01-29 09:34:35.58	148.03	8.17	-44.8	-48.0	13.1	3.50e-05	0	38	0	0	61	5112
2026-01-29 09:34:36.58	148.01	8.25	-44.6	-47.6	13.4	1.44e-05	0	38	0	0	61	4898
2026-01-29 09:34:37.57	147.99	8.33	-44.6	-47.6	13.5	1.83e-05	0	38	0	0	61	4878
2026-01-29 09:34:38.56	147.96	8.41	-44.8	-47.9	13.1	1.83e-05	0	38	0	0	61	5046
2026-01-29 09:34:39.56	147.94	8.50	-45.1	-48.3	12.7	6.86e-05	0	38	0	0	61	5336
2026-01-29 09:34:40.55	147.92	8.58	-45.3	-48.6	12.3	1.22e-04	0	38	0	0	61	5513
2026-01-29 09:34:41.54	147.89	8.66	-45.8	-49.6	11.4	6.93e-04	0	38	0	0	62	5807
2026-01-29 09:34:42.54	147.87	8.74	-46.2	-50.2	10.8	1.74e-03	0	39	0	0	62	6236
2026-01-29 09:34:43.53	147.84	8.82	-46.9	-51.8	9.1	1.40e-02	0	38	0	0	64	6653
2026-01-29 09:34:44.52	147.82	8.90	-47.4	-53.0	7.8	5.36e-02	0	39	0	0	65	7251
2026-01-29 09:34:45.52	147.80	8.99	-48.0	-54.8	6.2	2.48e-01	0	38	0	0	66	8417
2026-01-29 09:34:46.51	147.77	9.07	-48.0	-55.0	6.0	4.82e-01	0	39	0	0	67	8137
2026-01-29 09:34:47.51	147.75	9.15	-48.2	-55.8	5.5	2.05e-01	0	39	0	0	67	8955
2026-01-29 09:34:48.50	147.72	9.23	-48.5	-56.6	5.0	1.46e+00	0	39	104	0	68	9255
2026-01-29 09:34:49.50	147.70	9.32	-45.6	-49.3	11.5	5.53e-02	0	38	0	0	63	5293
2026-01-29 09:34:50.49	147.67	9.40	-46.9	-51.8	9.4	3.00e-04	0	38	0	0	64	6684
2026-01-29 09:34:51.48	147.65	9.49	-48.7	-58.1	4.0	1.49e+00	0	39	104	0	69	10400
2026-01-29 09:34:52.48	147.62	9.57	-44.1	-46.9	14.2	4.50e-06	0	39	0	0	60	4806
2026-01-29 09:34:53.47	147.59	9.65	-43.6	-46.2	14.9	9.91e-05	0	38	0	0	59	4664
2026-01-29 09:34:54.47	147.57	9.74	-43.8	-46.4	14.6	7.00e-07	0	39	0	0	59	4777
2026-01-29 09:34:55.47	147.54	9.83	-43.9	-46.5	14.6	0.00e+00	0	39	0	0	59	4838
2026-01-29 09:34:56.46	147.52	9.91	-43.7	-46.2	14.9	2.67e-05	0	39	0	0	58	4981
2026-01-29 09:34:57.45	147.49	10.00	-43.5	-46.1	15.0	7.00e-07	0	39	0	0	58	4886
2026-01-29 09:34:58.45	147.46	10.08	-42.9	-45.3	15.8	0.00e+00	0	38	0	0	57	4732
2026-01-29 09:34:59.44	147.44	10.17	-42.2	-44.4	16.7	0.00e+00	0	39	0	0	56	4528
2026-01-29 09:35:00.44	147.41	10.26	-41.6	-43.7	17.2	0.00e+00	0	39	0	0	55	4407
2026-01-29 09:35:01.43	147.38	10.34	-41.3	-43.4	17.5	0.00e+00	0	39	0	0	54	4499
2026-01-29 09:35:02.43	147.36	10.43	-41.0	-43.0	17.9	0.00e+00	0	39	0	0	54	4335
2026-01-29 09:35:03.42	147.33	10.52	-40.8	-42.8	18.1	0.00e+00	0	39	0	0	53	4447
2026-01-29 09:35:04.42	147.30	10.61	-41.0	-42.9	18.0	0.00e+00	0	39	0	0	53	4532
2026-01-29 09:35:05.41	147.27	10.69	-40.7	-42.6	18.3	0.00e+00	0	39	0	0	53	4349
2026-01-29 09:35:06.41	147.25	10.78	-40.7	-42.6	18.3	0.00e+00	0	39	0	0	53	4362
2026-01-29 09:35:07.40	147.22	10.87	-40.8	-42.7	18.2	0.00e+00	0	39	0	0	53	4408
2026-01-29 09:35:08.40	147.19	10.96	-40.6	-42.5	18.3	0.00e+00	0	39	0	0	53	4336
2026-01-29 09:35:09.40	147.16	11.05	-40.5	-42.4	18.4	0.00e+00	0	39	0	0	53	4285
2026-01-29 09:35:10.39	147.13	11.14	-40.5	-42.4	18.4	0.00e+00	0	39	0	0	53	4282
2026-01-29 09:35:11.39	147.10	11.23	-40.5	-42.4	18.5	0.00e+00	0	39	0	0	52	4499
2026-01-29 09:35:12.38	147.08	11.32	-40.6	-42.5	18.4	0.00e+00	0	39	0	0	52	4557
2026-01-29 09:35:13.37	147.05	11.41	-40.5	-42.4	18.3	0.00e+00	0	39	0	0	52	4502
2026-01-29 09:35:14.37	147.02	11.50	-40.4	-42.3	18.5	0.00e+00	0	39	0	0	52	4485
2026-01-29 09:35:15.36	146.99	11.59	-40.4	-42.3	18.5	0.00e+00	0	39	0	0	52	4483
2026-01-29 09:35:16.44	146.96	11.69	-40.4	-42.3	18.6	0.00e+00	0	39	0	0	52	4466
2026-01-29 09:35:17.32	146.93	11.77	-40.4	-42.3	18.6	0.00e+00	0	39	0	0	52	4464
2026-01-29 09:35:18.46	146.89	11.88	-40.4	-42.3	18.6	0.00e+00	0	39	0	0	52	4453
2026-01-29 09:35:19.31	146.87	11.96	-40.3	-42.2	18.7	0.00e+00	0	39	0	0	52	4402
2026-01-29 09:35:20.45	146.83	12.07	-40.3	-42.1	18.7	0.00e+00	0	39	0	0	52	4391
2026-01-29 09:35:21.31	146.81	12.15	-40.2	-42.1	18.8	0.00e+00	0	38	0	0	52	4354
2026-01-29 09:35:22.44	146.77	12.25	-40.2	-42.1	18.8	0.00e+00	0	39	0	0	52	4352
2026-01-29 09:35:23.29	146.74	12.33	-40.1	-42.0	18.9	0.00e+00	0	39	0	0	52	4323
2026-01-29 09:35:24.43	146.71	12.44	-40.2	-42.1	18.8	0.00e+00	0	39	0	0	52	4343
2026-01-29 09:35:25.28	146.68	12.52	-40.1	-41.9	19.0	0.00e+00	0	38	0	0	52	4283
2026-01-29 09:35:26.42	146.64	12.63	-40.1	-42.0	18.9	0.00e+00	0	39	0	0	52	4308
2026-01-29 09:35:27.27	146.62	12.71	-40.2	-42.1	18.8	0.00e+00	0	39	0	0	52	4354
2026-01-29 09:35:28.41	146.58	12.82	-40.1	-42.0	18.9	0.00e+00	0	39	0	0	52	4326
2026-01-29 09:35:29.26	146.55	12.91	-40.1	-42.0	18.9	0.00e+00	0	39	0	0	52	4311
2026-01-29 09:35:30.54	146.51	13.03	-40.0	-41.9	19.0	0.00e+00	0	39	0	0	51	4525
2026-01-29 09:35:31.26	146.49	13.10	-40.0	-41.9	19.1	0.00e+00	0	39	0	0	51	4494
2026-01-29 09:35:32.74	146.44	13.25	-40.0	-41.9	19.1	0.00e+00	0	39	0	0	51	4497
2026-01-29 09:35:33.45	146.41	13.32	-40.0	-41.8	19.2	0.00e+00	0	39	0	0	51	4471
2026-01-29 09:35:34.78	146.37	13.45	-39.9	-41.7	19.2	0.00e+00	0	39	0	0	51	4439
2026-01-29 09:35:35.49	146.34	13.52	-39.9	-41.7	19.3	0.00e+00	0	39	0	0	51	4408
2026-01-29 09:35:36.77	146.30	13.65	-40.0	-41.8	19.1	0.00e+00	0	39	0	0	51	4479
2026-01-29 09:35:37.48	146.27	13.72	-39.9	-41.8	19.2	0.00e+00	0	39	0	0	51	4442
2026-01-29 09:35:38.76	146.23	13.85	-39.9	-41.6	19.3	0.00e+00	0	39	0	0	51	4388
2026-01-29 09:35:39.48	146.20	13.92	-39.9	-41.7	19.3	0.00e+00	0	39	0	0	51	4422
2026-01-29 09:35:40.76	146.16	14.05	-39.9	-41.7	19.3	0.00e+00	0	39	0	0	51	4424
2026-01-29 09:35:41.47	146.13	14.12	-40.0	-41.8	19.1	0.00e+00	0	39	0	0	51	4469
2026-01-29 09:35:42.75	146.09	14.25	-39.9	-41.6	19.3	0.00e+00	0	39	0	0	51	4374
2026-01-29 09:35:43.46	146.06	14.32	-39.9	-41.6	19.4	0.00e+00	0	39	0	0	51	4375
2026-01-29 09:35:44.74	146.01	14.45	-40.0	-41.7	19.2	0.00e+00	0	39	0	0	51	4439
2026-01-29 09:35:45.69	145.98	14.55	-39.8	-41.5	19.4	0.00e+00	0	39	0	0	51	4338
2026-01-29 09:35:46.98	145.93	14.69	-39.8	-41.5	19.5	0.00e+00	0	39	0	0	51	4320
2026-01-29 09:35:47.70	145.90	14.76	-39.8	-41.6	19.4	0.00e+00	0	39	0	0	51	4344
2026-01-29 09:35:48.97	145.86	14.90	-39.7	-41.5	19.5	0.00e+00	0	39	0	0	51	4317
2026-01-29 09:35:49.69	145.83	14.97	-39.8	-41.5	19.4	0.00e+00	0	39	0	0	51	4321
2026-01-29 09:35:50.97	145.78	15.11	-39.7	-41.5	19.5	0.00e+00	0	39	0	0	51	4308
2026-01-29 09:35:51.72	145.75	15.19	-39.8	-41.5	19.4	0.00e+00	0	39	0	0	51	4325
2026-01-29 09:35:53.00	145.70	15.32	-39.8	-41.5	19.4	0.00e+00	0	39	0	0	51	4333
2026-01-29 09:35:53.71	145.67	15.40	-39.9	-41.6	19.3	0.00e+00	0	39	0	0	51	4382
2026-01-29 09:35:55.00	145.62	15.54	-39.9	-41.6	19.3	0.00e+00	0	39	0	0	51	4387
2026-01-29 09:35:55.71	145.59	15.61	-39.8	-41.6	19.4	0.00e+00	0	39	0	0	51	4359
2026-01-29 09:35:57.17	145.54	15.77	-39.9	-41.7	19.3	0.00e+00	0	39	0	0	51	4405
2026-01-29 09:35:57.87	145.51	15.85	-39.8	-41.6	19.4	0.00e+00	0	39	0	0	51	4353
2026-01-29 09:35:59.26	145.45	16.00	-39.8	-41.5	19.4	0.00e+00	0	39	0	0	51	4332
2026-01-29 09:35:59.98	145.42	16.08	-39.8	-41.6	19.4	0.00e+00	0	39	0	0	51	4349
2026-01-29 09:36:01.25	145.37	16.22	-39.9	-41.6	19.3	0.00e+00	0	39	0	0	51	4371
2026-01-29 09:36:01.96	145.34	16.30	-39.9	-41.7	19.3	0.00e+00	0	39	0	0	51	4395
2026-01-29 09:36:03.24	145.29	16.44	-39.9	-41.7	19.3	0.00e+00	0	39	0	0	51	4398
2026-01-29 09:36:03.95	145.25	16.52	-39.9	-41.6	19.3	0.00e+00	0	39	0	0	51	4373
2026-01-29 09:36:05.25	145.20	16.67	-39.9	-41.6	19.3	0.00e+00	0	39	0	0	51	4367
2026-01-29 09:36:05.96	145.17	16.75	-39.9	-41.6	19.3	0.00e+00	0	39	0	0	51	4388
2026-01-29 09:36:07.23	145.11	16.89	-40.0	-41.7	19.2	0.00e+00	0	39	0	0	51	4428
2026-01-29 09:36:07.99	145.08	16.98	-40.0	-41.8	19.2	0.00e+00	0	39	0	0	51	4462
2026-01-29 09:36:09.27	145.02	17.12	-40.0	-41.7	19.2	0.00e+00	0	39	0	0	51	4430
2026-01-29 09:36:10.07	144.99	17.22	-39.9	-41.7	19.3	0.00e+00	0	39	0	0	51	4401
2026-01-29 09:36:11.50	144.92	17.38	-40.0	-41.7	19.2	0.00e+00	0	39	0	0	51	4438
2026-01-29 09:36:12.21	144.89	17.46	-40.0	-41.8	19.2	0.00e+00	0	39	0	0	51	4444
2026-01-29 09:36:13.71	144.82	17.64	-40.0	-41.8	19.2	0.00e+00	0	39	0	0	51	4477
2026-01-29 09:36:14.42	144.79	17.72	-40.1	-41.9	19.1	0.00e+00	0	39	0	0	51	4513
2026-01-29 09:36:15.76	144.73	17.88	-40.1	-41.9	19.1	0.00e+00	0	39	0	0	51	4499
2026-01-29 09:36:16.47	144.69	17.96	-40.0	-41.8	19.2	0.00e+00	0	39	0	0	51	4481
2026-01-29 09:36:17.75	144.63	18.12	-40.1	-42.0	19.0	0.00e+00	0	39	0	0	51	4550
2026-01-29 09:36:18.46	144.60	18.20	-40.1	-41.9	19.1	0.00e+00	0	39	0	0	51	4519
2026-01-29 09:36:19.74	144.54	18.35	-40.1	-41.9	19.1	0.00e+00	0	39	0	0	51	4539
2026-01-29 09:36:20.45	144.50	18.44	-40.1	-41.9	19.1	0.00e+00	0	39	0	0	51	4541
2026-01-29 09:36:21.73	144.44	18.60	-40.1	-42.0	19.1	0.00e+00	0	39	0	0	51	4555
2026-01-29 09:36:22.44	144.41	18.68	-40.2	-42.1	19.0	0.00e+00	0	39	0	0	51	4603
2026-01-29 09:36:23.72	144.34	18.84	-40.2	-42.1	19.0	0.00e+00	0	39	0	0	51	4612
2026-01-29 09:36:24.44	144.31	18.93	-40.2	-42.0	19.1	0.00e+00	0	39	0	0	51	4574
2026-01-29 09:36:25.72	144.24	19.08	-40.2	-42.1	19.0	0.00e+00	0	39	0	0	51	4616
2026-01-29 09:36:26.43	144.21	19.17	-40.3	-42.2	18.9	0.00e+00	0	39	0	0	51	4692
2026-01-29 09:36:27.71	144.14	19.33	-40.1	-41.9	19.1	0.00e+00	0	39	0	0	51	4534
2026-01-29 09:36:28.44	144.10	19.42	-40.0	-41.9	19.2	0.00e+00	0	39	0	0	51	4496
2026-01-29 09:36:29.72	144.03	19.59	-40.0	-41.8	19.2	0.00e+00	0	39	0	0	51	4486
2026-01-29 09:36:30.43	144.00	19.68	-40.0	-41.9	19.2	0.00e+00	0	39	0	0	51	4494
2026-01-29 09:36:31.71	143.93	19.84	-39.9	-41.7	19.3	0.00e+00	0	39	0	0	51	4424
2026-01-29 09:36:32.70	143.88	19.96	-40.0	-41.8	19.3	0.00e+00	0	39	0	0	51	4444
2026-01-29 09:36:33.70	143.82	20.09	-39.9	-41.6	19.4	0.00e+00	0	39	0	0	51	4387
2026-01-29 09:36:34.70	143.77	20.22	-39.8	-41.6	19.4	0.00e+00	0	39	0	0	51	4353
2026-01-29 09:36:35.69	143.71	20.35	-39.9	-41.7	19.4	0.00e+00	0	39	0	0	51	4398
2026-01-29 09:36:36.69	143.66	20.48	-39.8	-41.6	19.5	0.00e+00	0	39	0	0	51	4353
2026-01-29 09:36:37.68	143.60	20.61	-39.7	-41.5	19.5	0.00e+00	0	39	0	0	51	4315
2026-01-29 09:36:38.68	143.54	20.74	-39.8	-41.5	19.5	0.00e+00	0	39	0	0	51	4319
2026-01-29 09:36:39.70	143.49	20.88	-39.6	-41.3	19.7	0.00e+00	0	39	0	0	51	4230
2026-01-29 09:36:40.73	143.43	21.01	-39.5	-41.2	19.8	0.00e+00	0	39	0	0	51	4158
2026-01-29 09:36:41.75	143.37	21.15	-39.5	-41.2	19.8	0.00e+00	0	39	0	0	50	4402
2026-01-29 09:36:42.75	143.31	21.29	-39.4	-41.1	19.9	0.00e+00	0	39	0	0	50	4377
2026-01-29 09:36:43.82	143.24	21.43	-39.3	-41.0	20.0	0.00e+00	0	39	0	0	50	4333
2026-01-29 09:36:44.73	143.19	21.55	-39.3	-40.9	20.1	0.00e+00	0	39	0	0	50	4291
2026-01-29 09:36:45.75	143.13	21.69	-39.1	-40.8	20.2	0.00e+00	0	39	0	0	50	4214
2026-01-29 09:36:46.75	143.07	21.83	-39.2	-40.8	20.1	0.00e+00	0	39	0	0	50	4235
2026-01-29 09:36:47.93	142.99	21.99	-39.1	-40.8	20.2	0.00e+00	0	39	0	0	50	4209
2026-01-29 09:36:48.82	142.94	22.12	-38.9	-40.6	20.3	0.00e+00	0	39	0	0	49	4371
2026-01-29 09:36:49.95	142.87	22.27	-39.0	-40.7	20.2	0.00e+00	0	39	0	0	49	4420
2026-01-29 09:36:50.80	142.81	22.39	-39.1	-40.7	20.2	0.00e+00	0	39	0	0	49	4437
2026-01-29 09:36:51.94	142.74	22.55	-38.9	-40.5	20.4	0.00e+00	0	39	0	0	49	4328
2026-01-29 09:36:52.80	142.69	22.68	-38.7	-40.4	20.5	0.00e+00	0	39	0	0	49	4265
2026-01-29 09:36:53.94	142.61	22.84	-38.8	-40.5	20.4	0.00e+00	0	39	0	0	49	4305
2026-01-29 09:36:54.79	142.56	22.96	-38.8	-40.4	20.5	0.00e+00	0	39	0	0	49	4283
2026-01-29 09:36:55.92	142.48	23.12	-38.6	-40.2	20.7	0.00e+00	0	39	0	0	49	4190
2026-01-29 09:36:56.77	142.42	23.24	-38.6	-40.3	20.6	0.00e+00	0	39	0	0	49	4208
2026-01-29 09:36:57.91	142.35	23.41	-38.6	-40.3	20.6	0.00e+00	0	39	0	0	49	4213
2026-01-29 09:36:58.76	142.29	23.53	-38.6	-40.3	20.6	0.00e+00	0	39	0	0	49	4201
2026-01-29 09:36:59.90	142.21	23.70	-38.7	-40.3	20.6	0.00e+00	0	39	0	0	49	4229
2026-01-29 09:37:00.75	142.15	23.83	-38.6	-40.3	20.6	0.00e+00	0	39	0	0	49	4195
2026-01-29 09:37:01.89	142.07	24.00	-38.6	-40.2	20.6	0.00e+00	0	39	0	0	49	4190
2026-01-29 09:37:02.74	142.01	24.12	-38.5	-40.2	20.7	0.00e+00	0	39	0	0	49	4155
2026-01-29 09:37:04.14	141.91	24.33	-38.6	-40.2	20.7	0.00e+00	0	39	0	0	49	4188
2026-01-29 09:37:04.85	141.86	24.44	-38.7	-40.3	20.6	0.00e+00	0	39	0	0	49	4228
2026-01-29 09:37:06.13	141.76	24.64	-38.8	-40.4	20.5	0.00e+00	0	39	0	0	49	4286
2026-01-29 09:37:07.30	141.68	24.82	-38.9	-40.6	20.3	0.00e+00	0	39	0	0	49	4355
2026-01-29 09:37:08.15	141.61	24.95	-39.0	-40.6	20.3	0.00e+00	0	39	0	0	49	4383
2026-01-29 09:37:09.29	141.53	25.12	-39.1	-40.7	20.2	0.00e+00	0	39	0	0	49	4428
2026-01-29 09:37:10.14	141.46	25.25	-39.1	-40.8	20.2	0.00e+00	0	39	0	0	49	4458
2026-01-29 09:37:11.28	141.37	25.43	-39.2	-40.9	20.1	0.00e+00	0	39	0	0	49	4499
2026-01-29 09:37:12.13	141.31	25.57	-39.3	-40.9	20.0	0.00e+00	0	39	0	0	49	4543
2026-01-29 09:37:13.41	141.20	25.77	-39.3	-41.0	20.0	0.00e+00	0	39	0	0	49	4576
2026-01-29 09:37:14.13	141.15	25.88	-39.3	-41.0	20.0	0.00e+00	0	39	0	0	49	4594
2026-01-29 09:37:15.61	141.03	26.12	-39.5	-41.2	19.8	0.00e+00	0	39	0	0	49	4656
2026-01-29 09:37:16.32	140.97	26.23	-39.5	-41.2	19.8	0.00e+00	0	39	0	0	49	4675
2026-01-29 09:37:17.60	140.86	26.44	-39.7	-41.4	19.6	0.00e+00	0	39	0	0	49	4792
2026-01-29 09:37:18.32	140.80	26.56	-39.6	-41.3	19.7	0.00e+00	0	39	0	0	49	4756
2026-01-29 09:37:19.75	140.68	26.79	-39.8	-41.5	19.6	0.00e+00	0	39	0	0	50	4567
2026-01-29 09:37:20.46	140.62	26.91	-39.9	-41.6	19.5	0.00e+00	0	39	0	0	50	4613
2026-01-29 09:37:21.74	140.51	27.12	-40.1	-41.8	19.3	0.00e+00	0	39	0	0	50	4758
2026-01-29 09:37:22.45	140.45	27.24	-40.1	-41.9	19.2	0.00e+00	0	39	0	0	50	4771
2026-01-29 09:37:23.73	140.34	27.45	-40.3	-42.0	19.1	0.00e+00	0	39	0	0	51	4590
2026-01-29 09:37:24.46	140.27	27.58	-40.3	-42.1	19.1	0.00e+00	0	39	0	0	51	4602
2026-01-29 09:37:25.74	140.16	27.79	-40.4	-42.1	19.0	0.00e+00	0	39	0	0	51	4648
2026-01-29 09:37:26.46	140.09	27.92	-40.4	-42.2	19.0	0.00e+00	0	39	0	0	51	4656
2026-01-29 09:37:27.74	139.97	28.14	-40.3	-42.1	19.0	0.00e+00	0	39	0	0	51	4642
2026-01-29 09:37:28.50	139.90	28.27	-40.3	-42.1	19.1	0.00e+00	0	39	0	0	51	4608
2026-01-29 09:37:29.78	139.78	28.49	-40.3	-42.1	19.0	0.00e+00	0	39	0	0	51	4610
2026-01-29 09:37:30.49	139.72	28.61	-40.3	-42.1	19.0	0.00e+00	0	39	0	0	51	4636
2026-01-29 09:37:31.77	139.59	28.84	-40.4	-42.2	18.9	0.00e+00	0	39	0	0	51	4688
2026-01-29 09:37:32.67	139.51	29.00	-40.2	-42.0	19.1	0.00e+00	0	39	0	0	51	4587
2026-01-29 09:37:34.08	139.37	29.25	-40.2	-41.9	19.2	0.00e+00	0	39	0	0	51	4533
2026-01-29 09:37:34.79	139.30	29.37	-40.0	-41.8	19.3	0.00e+00	0	39	0	0	51	4451
2026-01-29 09:37:36.07	139.17	29.60	-39.9	-41.6	19.4	0.00e+00	0	39	0	0	51	4385
2026-01-29 09:37:36.79	139.09	29.73	-39.9	-41.7	19.4	0.00e+00	0	39	0	0	51	4402
2026-01-29 09:37:38.07	138.96	29.97	-39.8	-41.6	19.5	0.00e+00	0	39	0	0	51	4344
2026-01-29 09:37:38.78	138.89	30.10	-39.7	-41.4	19.6	0.00e+00	0	39	0	0	51	4285
2026-01-29 09:37:40.06	138.75	30.33	-39.7	-41.5	19.2	0.00e+00	0	39	0	0	51	4295
2026-01-29 09:37:40.89	138.66	30.48	-39.9	-41.6	19.4	0.00e+00	0	39	0	0	51	4370
2026-01-29 09:37:42.03	138.54	30.70	-39.8	-41.5	19.6	0.00e+00	0	39	0	0	51	4311
2026-01-29 09:37:42.88	138.44	30.86	-39.7	-41.4	19.7	0.00e+00	0	39	0	0	51	4247
2026-01-29 09:37:44.02	138.32	31.07	-39.5	-41.2	19.9	0.00e+00	0	39	0	0	51	4168
2026-01-29 09:37:44.87	138.22	31.23	-39.6	-41.3	19.8	0.00e+00	0	39	0	0	51	4236
2026-01-29 09:37:46.01	138.09	31.45	-39.6	-41.4	19.8	0.00e+00	0	39	0	0	51	4243
2026-01-29 09:37:46.86	138.00	31.61	-39.6	-41.3	19.8	0.00e+00	0	39	0	0	51	4241
2026-01-29 09:37:48.00	137.86	31.83	-39.7	-41.4	19.8	0.00e+00	0	39	0	0	51	4282
2026-01-29 09:37:48.85	137.76	32.00	-39.7	-41.4	19.8	0.00e+00	0	39	0	0	51	4255
2026-01-29 09:37:49.99	137.63	32.22	-39.8	-41.5	19.7	0.00e+00	0	39	0	0	51	4308
2026-01-29 09:37:50.84	137.52	32.38	-39.7	-41.4	19.8	0.00e+00	0	39	0	0	51	4283
2026-01-29 09:37:51.97	137.39	32.61	-39.7	-41.5	19.8	0.00e+00	0	39	0	0	51	4294
2026-01-29 09:37:52.83	137.28	32.78	-39.8	-41.5	19.7	0.00e+00	0	39	0	0	51	4321
2026-01-29 09:37:53.96	137.14	33.00	-39.8	-41.5	19.7	0.00e+00	0	39	0	0	51	4328
2026-01-29 09:37:54.81	137.03	33.17	-39.9	-41.6	19.6	0.00e+00	0	39	0	0	51	4356
2026-01-29 09:37:55.95	136.89	33.40	-39.9	-41.6	19.6	0.00e+00	0	39	0	0	51	4364
2026-01-29 09:37:56.80	136.77	33.58	-40.0	-41.8	19.5	0.00e+00	0	39	0	0	51	4449
2026-01-29 09:37:57.94	136.62	33.81	-40.2	-41.9	19.3	0.00e+00	0	39	0	0	51	4544
2026-01-29 09:37:58.79	136.51	33.98	-40.3	-42.1	19.2	0.00e+00	0	39	0	0	51	4602
2026-01-29 09:37:59.93	136.36	34.22	-40.4	-42.2	19.1	0.00e+00	0	40	0	0	51	4664
2026-01-29 09:38:00.78	136.24	34.40	-40.4	-42.2	19.1	0.00e+00	0	39	0	0	51	4690
2026-01-29 09:38:01.92	136.08	34.63	-40.6	-42.4	18.9	0.00e+00	0	39	0	0	51	4782
2026-01-29 09:38:02.78	135.96	34.81	-40.7	-42.5	18.8	0.00e+00	0	39	0	0	51	4854
2026-01-29 09:38:03.91	135.80	35.05	-40.7	-42.6	18.7	0.00e+00	0	39	0	0	52	4599
2026-01-29 09:38:04.77	135.68	35.24	-40.9	-42.8	18.5	0.00e+00	0	39	0	0	52	4716
2026-01-29 09:38:05.90	135.51	35.48	-41.1	-43.1	18.2	0.00e+00	0	39	0	0	52	4893
2026-01-29 09:38:06.91	135.36	35.69	-41.3	-43.3	18.0	0.00e+00	0	39	0	0	53	4713
2026-01-29 09:38:07.91	135.21	35.91	-41.6	-43.6	17.8	0.00e+00	0	39	0	0	53	4872
2026-01-29 09:38:08.90	135.06	36.13	-41.6	-43.6	17.7	0.00e+00	0	39	0	0	53	4914
2026-01-29 09:38:09.90	134.91	36.34	-41.7	-43.7	17.6	0.00e+00	0	39	0	0	54	4703
2026-01-29 09:38:10.89	134.75	36.56	-41.8	-43.8	17.6	0.00e+00	0	39	0	0	54	4727
2026-01-29 09:38:11.89	134.59	36.78	-41.7	-43.7	17.7	0.00e+00	0	40	0	0	54	4692
2026-01-29 09:38:12.88	134.44	37.00	-41.8	-43.8	17.6	0.00e+00	0	39	0	0	54	4743
2026-01-29 09:38:13.88	134.27	37.23	-41.9	-43.9	17.5	0.00e+00	0	39	0	0	54	4792
2026-01-29 09:38:14.87	134.11	37.45	-42.0	-44.1	17.3	0.00e+00	0	39	0	0	54	4898
2026-01-29 09:38:15.87	133.94	37.68	-42.2	-44.3	17.1	0.00e+00	0	39	0	0	55	4710
2026-01-29 09:38:16.86	133.77	37.90	-42.3	-44.4	17.0	0.00e+00	0	39	0	0	55	4810
2026-01-29 09:38:17.86	133.60	38.13	-42.2	-44.3	17.1	0.00e+00	0	39	0	0	55	4750
2026-01-29 09:38:18.90	133.42	38.37	-42.2	-44.3	17.1	0.00e+00	0	40	0	0	55	4709
2026-01-29 09:38:19.88	133.25	38.59	-42.1	-44.1	17.3	0.00e+00	0	39	0	0	55	4643
2026-01-29 09:38:20.96	133.05	38.85	-42.0	-44.1	17.3	0.00e+00	0	39	0	0	55	4609
2026-01-29 09:38:21.81	132.90	39.04	-41.9	-43.9	17.5	0.00e+00	0	39	0	0	55	4509
2026-01-29 09:38:22.95	132.68	39.31	-42.0	-44.1	17.2	0.00e+00	0	40	0	0	55	4621
2026-01-29 09:38:23.80	132.53	39.51	-42.2	-44.3	17.0	0.00e+00	0	39	0	0	55	4731
2026-01-29 09:38:24.94	132.31	39.78	-42.5	-44.7	16.7	0.00e+00	0	39	0	0	55	4945
2026-01-29 09:38:25.80	132.14	39.99	-42.7	-44.9	16.5	0.00e+00	0	39	0	0	55	5049
2026-01-29 09:38:26.93	131.92	40.26	-43.0	-45.2	16.4	0.00e+00	0	39	0	0	56	4965
2026-01-29 09:38:27.79	131.75	40.47	-42.7	-44.9	16.7	0.00e+00	0	39	0	0	56	4776
2026-01-29 09:38:28.92	131.52	40.74	-42.6	-44.7	16.8	0.00e+00	0	39	0	0	56	4704
2026-01-29 09:38:29.77	131.34	40.95	-42.4	-44.5	17.1	0.00e+00	0	39	0	0	56	4569
2026-01-29 09:38:30.97	131.09	41.24	-42.0	-44.1	17.5	0.00e+00	0	39	0	0	56	4350
2026-01-29 09:38:31.83	130.91	41.45	-41.6	-43.6	17.8	0.00e+00	0	39	0	0	55	4344
2026-01-29 09:38:32.97	130.67	41.73	-41.5	-43.4	17.9	0.00e+00	0	39	0	0	54	4536
2026-01-29 09:38:33.82	130.48	41.94	-41.4	-43.3	18.0	0.00e+00	0	39	0	0	54	4476
2026-01-29 09:38:34.95	130.23	42.23	-41.6	-43.5	17.8	0.00e+00	0	39	0	0	54	4595
2026-01-29 09:38:35.81	130.04	42.44	-41.8	-43.8	17.5	0.00e+00	0	39	0	0	54	4739
2026-01-29 09:38:36.95	129.77	42.73	-42.0	-44.0	17.3	0.00e+00	0	39	0	0	54	4852
2026-01-29 09:38:37.80	129.58	42.94	-42.1	-44.2	17.1	0.00e+00	0	39	0	0	55	4652
2026-01-29 09:38:38.94	129.31	43.23	-42.4	-44.5	16.8	0.00e+00	0	40	0	0	55	4864
2026-01-29 09:38:39.79	129.10	43.45	-42.9	-45.1	16.4	0.00e+00	0	39	0	0	56	4897
2026-01-29 09:38:40.92	128.83	43.74	-43.3	-45.7	15.7	0.00e+00	0	39	0	0	57	4981
2026-01-29 09:38:41.78	128.61	43.96	-43.4	-45.8	15.7	0.00e+00	0	39	0	0	57	5035
2026-01-29 09:38:42.93	128.32	44.26	-43.2	-45.5	16.0	0.00e+00	0	39	0	0	57	4847
2026-01-29 09:38:43.79	128.10	44.48	-42.9	-45.1	16.5	0.00e+00	0	39	0	0	57	4606
2026-01-29 09:38:44.92	127.81	44.78	-42.3	-44.4	17.0	0.00e+00	0	39	0	0	56	4499
2026-01-29 09:38:45.78	127.58	45.00	-42.3	-44.3	17.0	0.00e+00	0	39	0	0	56	4480
2026-01-29 09:38:47.02	127.25	45.33	-42.2	-44.2	17.2	0.00e+00	0	39	0	0	56	4426
2026-01-29 09:38:47.88	127.01	45.56	-41.8	-43.8	17.5	0.00e+00	0	39	0	0	55	4451
2026-01-29 09:38:49.01	126.69	45.86	-42.0	-44.0	17.3	0.00e+00	0	39	0	0	55	4561
2026-01-29 09:38:49.87	126.45	46.08	-42.2	-44.3	17.0	0.00e+00	0	39	0	0	55	4738
2026-01-29 09:38:51.00	126.12	46.39	-42.4	-44.5	16.8	0.00e+00	0	39	0	0	55	4847
2026-01-29 09:38:51.86	125.87	46.62	-42.4	-44.6	16.8	0.00e+00	0	39	0	0	55	4889
2026-01-29 09:38:53.00	125.53	46.92	-42.4	-44.6	16.7	0.00e+00	0	39	0	0	55	4875
2026-01-29 09:38:53.85	125.27	47.15	-42.2	-44.3	17.1	0.00e+00	0	39	0	0	55	4711
2026-01-29 09:38:54.99	124.92	47.46	-41.9	-43.9	17.4	0.00e+00	0	39	0	0	55	4535
2026-01-29 09:38:55.84	124.65	47.69	-41.7	-43.6	17.7	0.00e+00	0	39	0	0	55	4390
2026-01-29 09:38:56.98	124.29	48.00	-41.3	-43.2	18.1	0.00e+00	0	39	0	0	54	4415
2026-01-29 09:38:57.83	124.01	48.23	-41.3	-43.2	18.1	0.00e+00	0	39	0	0	54	4423
2026-01-29 09:38:58.97	123.63	48.54	-41.4	-43.4	18.0	0.00e+00	0	39	0	0	54	4510
2026-01-29 09:38:59.82	123.34	48.77	-41.5	-43.5	17.9	0.00e+00	0	39	0	0	54	4580
2026-01-29 09:39:00.96	122.95	49.09	-41.6	-43.7	17.7	0.00e+00	0	39	0	0	54	4655
2026-01-29 09:39:01.81	122.65	49.32	-41.6	-43.6	17.7	0.00e+00	0	39	0	0	54	4649
2026-01-29 09:39:02.99	122.23	49.65	-41.6	-43.6	17.8	0.00e+00	0	40	0	0	54	4616
2026-01-29 09:39:03.85	121.92	49.88	-41.7	-43.6	17.7	0.00e+00	0	39	0	0	54	4646
2026-01-29 09:39:04.98	121.50	50.20	-41.6	-43.6	17.8	0.00e+00	0	40	0	0	54	4615
2026-01-29 09:39:05.84	121.18	50.43	-41.4	-43.4	18.0	0.00e+00	0	39	0	0	54	4507
2026-01-29 09:39:07.11	120.69	50.79	-41.2	-43.1	18.3	0.00e+00	0	40	0	0	54	4365
2026-01-29 09:39:07.84	120.41	50.99	-41.0	-42.9	18.4	0.00e+00	0	40	0	0	54	4251
2026-01-29 09:39:09.12	119.90	51.34	-41.2	-43.1	18.2	0.00e+00	0	39	0	0	53	4605
2026-01-29 09:39:09.83	119.61	51.54	-41.2	-43.1	18.2	0.00e+00	0	39	0	0	53	4609
2026-01-29 09:39:11.11	119.08	51.90	-41.3	-43.2	18.2	0.00e+00	0	39	0	0	53	4673
2026-01-29 09:39:11.83	118.77	52.10	-41.3	-43.2	18.2	0.00e+00	0	39	0	0	53	4686
2026-01-29 09:39:13.11	118.22	52.45	-41.1	-43.0	18.3	0.00e+00	0	40	0	0	53	4568
2026-01-29 09:39:13.90	117.88	52.67	-40.7	-42.5	18.8	0.00e+00	0	40	0	0	53	4315
2026-01-29 09:39:15.09	117.35	53.00	-40.5	-42.3	18.9	0.00e+00	0	40	0	0	53	4235
2026-01-29 09:39:16.10	116.89	53.28	-40.3	-42.1	19.0	0.00e+00	0	40	0	0	52	4372
2026-01-29 09:39:17.27	116.34	53.60	-40.4	-42.3	19.0	0.00e+00	0	40	0	0	52	4447
2026-01-29 09:39:18.15	115.92	53.85	-40.2	-41.9	19.3	0.00e+00	0	40	0	0	52	4283
2026-01-29 09:39:19.29	115.37	54.16	-40.1	-41.9	19.3	0.00e+00	0	39	0	0	52	4271
2026-01-29 09:39:20.20	114.92	54.41	-40.1	-41.8	19.5	0.00e+00	0	39	0	0	51	4470
2026-01-29 09:39:21.37	114.33	54.73	-39.9	-41.6	19.7	0.00e+00	0	39	0	0	51	4352
2026-01-29 09:39:22.26	113.88	54.97	-39.8	-41.5	19.5	0.00e+00	0	39	0	0	51	4328
2026-01-29 09:39:23.39	113.29	55.28	-40.0	-41.8	19.3	0.00e+00	0	40	0	0	51	4458
2026-01-29 09:39:24.25	112.83	55.51	-40.1	-41.9	19.3	0.00e+00	0	40	0	0	51	4497
2026-01-29 09:39:25.61	112.08	55.88	-40.0	-41.8	19.6	0.00e+00	0	39	0	0	51	4451
2026-01-29 09:39:26.32	111.69	56.07	-40.0	-41.8	19.6	0.00e+00	0	39	0	0	51	4449
2026-01-29 09:39:27.59	110.97	56.41	-39.9	-41.7	19.6	0.00e+00	0	40	0	0	51	4424
2026-01-29 09:39:28.32	110.55	56.60	-39.9	-41.6	19.6	0.00e+00	0	39	0	0	51	4390
2026-01-29 09:39:29.60	109.79	56.94	-40.4	-42.2	19.1	0.00e+00	0	39	0	0	51	4693
2026-01-29 09:39:30.31	109.37	57.13	-40.4	-42.3	19.0	0.00e+00	0	39	0	0	51	4711
2026-01-29 09:39:31.59	108.58	57.46	-40.1	-41.9	19.4	0.00e+00	0	39	0	0	51	4506
2026-01-29 09:39:32.31	108.13	57.65	-39.8	-41.5	19.9	0.00e+00	0	40	0	0	51	4314
2026-01-29 09:39:33.59	107.32	57.98	-39.2	-40.9	20.3	0.00e+00	0	39	0	0	50	4246
2026-01-29 09:39:34.30	106.86	58.16	-39.0	-40.6	20.4	0.00e+00	0	39	0	0	50	4135
2026-01-29 09:39:35.58	106.01	58.48	-39.1	-40.8	20.2	0.00e+00	0	39	0	0	50	4215
2026-01-29 09:39:36.29	105.53	58.65	-39.3	-41.0	20.1	0.00e+00	0	39	0	0	50	4313
2026-01-29 09:39:37.63	104.61	58.98	-39.4	-41.0	20.1	0.00e+00	0	40	0	0	50	4336
2026-01-29 09:39:38.34	104.12	59.16	-39.4	-41.1	20.1	0.00e+00	0	40	0	0	50	4359
2026-01-29 09:39:39.62	103.20	59.46	-39.1	-40.7	20.2	0.00e+00	0	40	0	0	50	4182
2026-01-29 09:39:40.69	102.43	59.72	-39.0	-40.7	20.1	0.00e+00	0	40	0	0	50	4169
2026-01-29 09:39:41.84	101.57	59.98	-39.1	-40.8	20.2	0.00e+00	0	39	0	0	50	4214
2026-01-29 09:39:42.70	100.92	60.18	-39.2	-40.8	20.2	0.00e+00	0	39	0	0	50	4237
2026-01-29 09:39:43.83	100.05	60.44	-39.2	-40.8	20.3	0.00e+00	0	40	0	0	50	4241
2026-01-29 09:39:44.69	99.38	60.63	-39.0	-40.7	20.4	0.00e+00	0	39	0	0	50	4161
2026-01-29 09:39:45.82	98.48	60.87	-39.0	-40.6	20.4	0.00e+00	0	39	0	0	49	4379
2026-01-29 09:39:46.67	97.79	61.05	-39.0	-40.7	20.4	0.00e+00	0	39	0	0	49	4397
2026-01-29 09:39:47.81	96.85	61.29	-39.0	-40.7	20.4	0.00e+00	0	40	0	0	49	4394
2026-01-29 09:39:48.67	96.13	61.47	-39.0	-40.7	20.4	0.00e+00	0	39	0	0	49	4406
2026-01-29 09:39:49.93	95.05	61.72	-39.2	-40.9	20.3	0.00e+00	0	39	0	0	49	4523
2026-01-29 09:39:50.72	94.37	61.87	-39.5	-41.2	20.0	0.00e+00	0	39	0	0	49	4679
2026-01-29 09:39:51.92	93.31	62.09	-39.5	-41.2	20.0	0.00e+00	0	39	0	0	49	4704
2026-01-29 09:39:52.77	92.55	62.25	-39.4	-41.1	20.1	0.00e+00	0	40	0	0	49	4610
2026-01-29 09:39:53.90	91.52	62.45	-38.8	-40.4	20.7	0.00e+00	0	39	0	0	49	4276
2026-01-29 09:39:54.80	90.70	62.60	-38.5	-40.1	21.0	0.00e+00	0	39	0	0	48	4350
2026-01-29 09:39:56.07	89.51	62.81	-38.5	-40.1	21.0	0.00e+00	0	39	0	0	48	4351
2026-01-29 09:39:56.84	88.78	62.94	-38.4	-40.0	21.0	0.00e+00	0	39	0	0	48	4306
2026-01-29 09:39:58.12	87.55	63.13	-38.3	-39.9	21.0	0.00e+00	0	40	0	0	48	4251
2026-01-29 09:39:59.30	86.40	63.30	-38.2	-39.8	21.0	0.00e+00	0	40	0	0	48	4234
2026-01-29 09:40:00.16	85.55	63.42	-38.3	-39.9	21.0	0.00e+00	0	40	0	0	48	4291
2026-01-29 09:40:01.29	84.42	63.57	-38.6	-40.2	20.9	0.00e+00	0	40	0	0	48	4418
2026-01-29 09:40:02.15	83.55	63.67	-38.5	-40.1	21.0	0.00e+00	0	39	0	0	48	4364
2026-01-29 09:40:03.30	82.38	63.81	-38.7	-40.3	20.8	0.00e+00	0	40	0	0	48	4491
2026-01-29 09:40:04.15	81.50	63.90	-38.9	-40.6	20.5	0.00e+00	0	39	0	0	48	4630
2026-01-29 09:40:05.29	80.32	64.02	-38.6	-40.2	20.9	0.00e+00	0	40	0	0	48	4418
2026-01-29 09:40:06.14	79.43	64.10	-38.3	-39.9	21.2	0.00e+00	0	40	0	0	48	4263
2026-01-29 09:40:07.28	78.23	64.20	-38.0	-39.6	21.5	0.00e+00	0	40	0	0	48	4109
2026-01-29 09:40:08.13	77.32	64.26	-38.1	-39.7	21.3	0.00e+00	0	39	0	0	48	4165
2026-01-29 09:40:09.27	76.10	64.34	-38.3	-39.9	20.9	0.00e+00	0	39	0	0	48	4251
2026-01-29 09:40:10.12	75.19	64.40	-38.3	-39.8	20.9	0.00e+00	0	40	0	0	48	4238
2026-01-29 09:40:11.26	73.95	64.46	-38.5	-40.1	20.8	0.00e+00	0	40	0	0	48	4376
2026-01-29 09:40:12.11	73.03	64.50	-38.7	-40.3	20.6	0.00e+00	0	39	0	0	48	4480
2026-01-29 09:40:13.25	71.78	64.54	-39.0	-40.7	20.3	0.00e+00	0	39	0	0	48	4670
2026-01-29 09:40:14.10	70.85	64.57	-38.7	-40.3	20.6	0.00e+00	0	39	0	0	48	4477
2026-01-29 09:40:15.24	69.60	64.59	-38.9	-40.5	20.4	0.00e+00	0	39	0	0	48	4572
2026-01-29 09:40:16.09	68.67	64.60	-39.0	-40.6	20.4	0.00e+00	0	40	0	0	48	4639
2026-01-29 09:40:17.23	67.42	64.61	-38.8	-40.4	20.6	0.00e+00	0	39	0	0	48	4527
2026-01-29 09:40:18.08	66.48	64.61	-38.8	-40.5	20.6	0.00e+00	0	40	0	0	48	4559
2026-01-29 09:40:19.22	65.23	64.59	-38.6	-40.2	20.9	0.00e+00	0	39	0	0	48	4414
2026-01-29 09:40:20.07	64.30	64.58	-38.5	-40.1	21.0	0.00e+00	0	40	0	0	48	4371
2026-01-29 09:40:21.30	62.95	64.54	-38.4	-40.0	21.0	0.00e+00	0	39	0	0	48	4303
2026-01-29 09:40:22.16	62.01	64.51	-38.8	-40.5	20.7	0.00e+00	0	40	0	0	48	4552
2026-01-29 09:40:23.29	60.79	64.46	-39.2	-40.9	20.4	0.00e+00	0	39	0	0	49	4495
2026-01-29 09:40:24.14	59.86	64.41	-39.3	-40.9	20.1	0.00e+00	0	39	0	0	49	4544
2026-01-29 09:40:25.28	58.64	64.34	-39.1	-40.7	20.4	0.00e+00	0	39	0	0	49	4434
2026-01-29 09:40:26.13	57.73	64.28	-39.1	-40.7	20.5	0.00e+00	0	40	0	0	49	4426
2026-01-29 09:40:27.49	56.28	64.18	-39.2	-40.9	20.4	0.00e+00	0	39	0	0	49	4522
2026-01-29 09:40:28.20	55.53	64.12	-39.1	-40.7	20.5	0.00e+00	0	40	0	0	49	4426
2026-01-29 09:40:29.48	54.19	63.99	-39.1	-40.8	20.3	0.00e+00	0	39	0	0	49	4456
2026-01-29 09:40:30.19	53.45	63.92	-38.8	-40.5	20.7	0.00e+00	0	40	0	0	49	4297
2026-01-29 09:40:31.47	52.14	63.78	-38.3	-39.8	21.1	0.00e+00	0	39	0	0	48	4239
2026-01-29 09:40:32.20	51.39	63.70	-38.2	-39.8	21.2	0.00e+00	0	39	0	0	48	4218
2026-01-29 09:40:33.48	50.10	63.54	-38.7	-40.3	20.8	0.00e+00	0	40	0	0	48	4443
2026-01-29 09:40:34.19	49.39	63.45	-39.1	-40.7	20.4	0.00e+00	0	40	0	0	48	4678
2026-01-29 09:40:35.47	48.13	63.27	-39.2	-40.9	20.2	0.00e+00	0	39	0	0	49	4513
2026-01-29 09:40:36.18	47.44	63.17	-38.8	-40.5	20.5	0.00e+00	0	39	0	0	49	4297
2026-01-29 09:40:37.47	46.20	62.97	-38.6	-40.2	20.8	0.00e+00	0	40	0	0	49	4184
2026-01-29 09:40:38.18	45.52	62.86	-38.7	-40.3	20.8	0.00e+00	0	40	0	0	49	4235
2026-01-29 09:40:39.46	44.33	62.65	-39.2	-40.8	20.4	0.00e+00	0	40	0	0	49	4475
2026-01-29 09:40:40.18	43.66	62.53	-39.0	-40.7	20.5	0.00e+00	0	39	0	0	49	4403
2026-01-29 09:40:41.46	42.49	62.31	-39.2	-40.9	20.3	0.00e+00	0	40	0	0	49	4512
2026-01-29 09:40:42.17	41.86	62.18	-39.4	-41.1	20.0	0.00e+00	0	40	0	0	49	4632
2026-01-29 09:40:43.56	40.63	61.92	-39.3	-41.0	20.2	0.00e+00	0	39	0	0	49	4556
2026-01-29 09:40:44.27	40.01	61.78	-39.1	-40.7	20.5	0.00e+00	0	40	0	0	49	4434
2026-01-29 09:40:45.55	38.91	61.53	-38.8	-40.4	20.8	0.00e+00	0	40	0	0	49	4256
2026-01-29 09:40:46.27	38.31	61.39	-39.1	-40.7	20.5	0.00e+00	0	40	0	0	49	4427
2026-01-29 09:40:47.65	37.16	61.10	-39.4	-41.1	20.2	0.00e+00	0	40	0	0	49	4647
2026-01-29 09:40:48.36	36.59	60.95	-39.2	-40.8	20.5	0.00e+00	0	40	0	0	49	4477
2026-01-29 09:40:49.64	35.56	60.68	-38.6	-40.2	21.0	0.00e+00	0	40	0	0	49	4156
2026-01-29 09:40:50.71	34.72	60.44	-38.4	-40.0	21.2	0.00e+00	0	39	0	0	48	4305
2026-01-29 09:40:51.56	34.07	60.25	-38.7	-40.3	20.8	0.00e+00	0	39	0	0	48	4484
2026-01-29 09:40:52.70	33.21	59.99	-39.4	-41.1	20.1	0.00e+00	0	39	0	0	49	4620
2026-01-29 09:40:53.55	32.57	59.79	-39.4	-41.1	20.2	0.00e+00	0	40	0	0	49	4608
2026-01-29 09:40:54.69	31.74	59.53	-39.1	-40.8	20.5	0.00e+00	0	40	0	0	49	4452
2026-01-29 09:40:55.55	31.12	59.32	-38.9	-40.5	20.7	0.00e+00	0	39	0	0	49	4322
2026-01-29 09:40:56.68	30.33	59.05	-38.5	-40.1	21.0	0.00e+00	0	40	0	0	49	4123
2026-01-29 09:40:57.53	29.74	58.84	-38.8	-40.4	20.6	0.00e+00	0	39	0	0	48	4530
2026-01-29 09:40:58.67	28.97	58.56	-39.3	-41.0	20.1	0.00e+00	0	40	0	0	49	4567
2026-01-29 09:40:59.52	28.40	58.35	-39.6	-41.3	19.8	0.00e+00	0	40	0	0	49	4729
2026-01-29 09:41:00.66	27.66	58.06	-39.9	-41.6	19.4	0.00e+00	0	39	0	0	50	4623
2026-01-29 09:41:01.51	27.11	57.85	-39.9	-41.6	19.3	0.00e+00	0	40	0	0	50	4627
2026-01-29 09:41:02.65	26.39	57.55	-39.4	-41.1	19.8	0.00e+00	0	40	0	0	50	4383
2026-01-29 09:41:03.50	25.87	57.33	-39.3	-41.0	20.0	0.00e+00	0	40	0	0	50	4305
2026-01-29 09:41:04.64	25.18	57.04	-39.5	-41.2	20.0	0.00e+00	0	40	0	0	50	4433
2026-01-29 09:41:05.76	24.51	56.74	-40.0	-41.8	19.6	0.00e+00	0	39	0	0	50	4706
2026-01-29 09:41:06.61	24.02	56.52	-40.2	-42.0	19.4	0.00e+00	0	40	0	0	51	4563
2026-01-29 09:41:08.10	23.17	56.12	-40.0	-41.7	19.4	0.00e+00	0	40	0	0	51	4424
2026-01-29 09:41:08.81	22.78	55.93	-39.6	-41.3	19.8	0.00e+00	0	40	0	0	51	4218
2026-01-29 09:41:10.29	21.97	55.53	-39.7	-41.4	19.8	0.00e+00	0	39	0	0	50	4501
2026-01-29 09:41:11.00	21.59	55.34	-39.6	-41.3	19.9	0.00e+00	0	40	0	0	50	4462
2026-01-29 09:41:12.28	20.92	54.99	-39.8	-41.6	19.8	0.00e+00	0	40	0	0	50	4603
2026-01-29 09:41:12.99	20.56	54.80	-39.8	-41.5	19.7	0.00e+00	0	40	0	0	50	4558
2026-01-29 09:41:14.27	19.91	54.45	-40.8	-42.7	18.6	0.00e+00	0	40	0	0	52	4671
2026-01-29 09:41:14.98	19.56	54.26	-41.3	-43.3	18.0	0.00e+00	0	40	0	0	53	4731
2026-01-29 09:41:16.26	18.94	53.91	-41.4	-43.3	17.8	0.00e+00	0	40	0	0	54	4477
2026-01-29 09:41:16.99	18.59	53.71	-40.8	-42.7	18.2	0.00e+00	0	40	0	0	53	4413
2026-01-29 09:41:18.27	18.00	53.35	-40.0	-41.7	19.2	0.00e+00	0	40	0	0	51	4405
2026-01-29 09:41:19.12	17.61	53.12	-39.7	-41.3	19.7	0.00e+00	0	39	0	0	51	4234
2026-01-29 09:41:20.25	17.10	52.81	-40.0	-41.7	19.5	0.00e+00	0	40	0	0	51	4424
2026-01-29 09:41:21.29	16.64	52.52	-40.7	-42.5	18.9	0.00e+00	0	40	0	0	52	4556
2026-01-29 09:41:22.46	16.14	52.19	-41.4	-43.3	18.1	0.00e+00	0	40	0	0	53	4746
2026-01-29 09:41:23.34	15.77	51.95	-41.3	-43.3	18.2	0.00e+00	0	39	0	0	53	4713
2026-01-29 09:41:24.48	15.30	51.64	-41.6	-43.6	17.9	0.00e+00	0	40	0	0	53	4882
2026-01-29 09:41:25.33	14.95	51.40	-41.7	-43.6	17.7	0.00e+00	0	40	0	0	54	4649
2026-01-29 09:41:26.47	14.49	51.09	-41.1	-43.0	18.1	0.00e+00	0	40	0	0	54	4313
2026-01-29 09:41:27.32	14.16	50.85	-40.6	-42.4	18.5	0.00e+00	0	40	0	0	53	4279
2026-01-29 09:41:28.46	13.72	50.54	-40.4	-42.2	18.8	0.00e+00	0	40	0	0	52	4413
2026-01-29 09:41:29.31	13.40	50.30	-40.5	-42.3	18.9	0.00e+00	0	40	0	0	52	4461
2026-01-29 09:41:30.45	12.98	49.99	-41.4	-43.3	18.0	0.00e+00	0	40	0	0	53	4731
2026-01-29 09:41:31.30	12.67	49.75	-42.0	-44.0	17.3	0.00e+00	0	40	0	0	54	4853
2026-01-29 09:41:32.44	12.26	49.44	-42.2	-44.3	16.8	0.00e+00	0	40	0	0	55	4755
2026-01-29 09:41:33.29	11.96	49.21	-42.1	-44.2	16.8	0.00e+00	0	40	0	0	55	4679
2026-01-29 09:41:34.43	11.57	48.90	-41.9	-43.9	17.0	0.00e+00	0	40	0	0	55	4515
2026-01-29 09:41:35.28	11.28	48.66	-42.0	-44.0	16.9	0.00e+00	0	40	0	0	55	4578
2026-01-29 09:41:36.42	10.90	48.35	-42.2	-44.3	16.6	0.00e+00	0	40	0	0	55	4716
2026-01-29 09:41:37.27	10.63	48.12	-42.1	-44.2	16.8	0.00e+00	0	40	0	0	55	4688
2026-01-29 09:41:38.40	10.26	47.82	-41.6	-43.6	17.5	0.00e+00	0	40	0	0	55	4362
2026-01-29 09:41:39.26	9.99	47.58	-41.5	-43.5	17.8	0.00e+00	0	40	0	0	54	4546
2026-01-29 09:41:40.39	9.64	47.28	-41.4	-43.3	18.0	0.00e+00	0	40	0	0	54	4485
2026-01-29 09:41:41.25	9.38	47.05	-41.7	-43.7	17.7	0.00e+00	0	40	0	0	54	4657
2026-01-29 09:41:42.61	8.97	46.68	-42.5	-44.6	16.8	0.00e+00	0	39	0	0	55	4923
2026-01-29 09:41:43.32	8.76	46.50	-43.1	-45.4	16.3	0.00e+00	0	40	0	0	56	5045
2026-01-29 09:41:44.82	8.33	46.10	-42.5	-44.6	17.0	0.00e+00	0	40	0	0	56	4612
2026-01-29 09:41:45.53	8.13	45.91	-42.3	-44.3	17.3	0.00e+00	0	40	0	0	56	4481
2026-01-29 09:41:46.81	7.77	45.57	-42.0	-43.9	17.6	0.00e+00	0	40	0	0	56	4281
2026-01-29 09:41:47.54	7.57	45.38	-41.8	-43.8	17.7	0.00e+00	0	40	0	0	55	4443
2026-01-29 09:41:48.81	7.23	45.05	-42.2	-44.2	17.3	0.00e+00	0	40	0	0	55	4702
2026-01-29 09:41:49.52	7.04	44.86	-42.3	-44.4	17.1	0.00e+00	0	40	0	0	55	4799
2026-01-29 09:41:50.81	6.71	44.53	-42.1	-44.1	17.4	0.00e+00	0	40	0	0	55	4643
2026-01-29 09:41:51.52	6.53	44.34	-41.7	-43.7	17.8	0.00e+00	0	40	0	0	55	4411
2026-01-29 09:41:52.80	6.21	44.01	-41.2	-43.2	18.3	0.00e+00	0	40	0	0	54	4399
2026-01-29 09:41:53.51	6.03	43.83	-41.3	-43.2	18.3	0.00e+00	0	40	0	0	54	4408
2026-01-29 09:41:54.79	5.72	43.50	-41.7	-43.7	17.8	0.00e+00	0	40	0	0	54	4684
2026-01-29 09:41:55.59	5.53	43.30	-42.2	-44.3	17.2	0.00e+00	0	40	0	0	55	4757
2026-01-29 09:41:56.73	5.26	43.01	-43.1	-45.4	16.3	0.00e+00	0	40	0	0	56	5084
2026-01-29 09:41:57.58	5.06	42.80	-43.2	-45.5	16.1	0.00e+00	0	40	0	0	57	4851
2026-01-29 09:41:58.72	4.80	42.51	-42.7	-44.8	16.7	0.00e+00	0	40	0	0	57	4489
2026-01-29 09:41:59.57	4.61	42.30	-42.1	-44.1	17.4	0.00e+00	0	40	0	0	56	4380
2026-01-29 09:42:00.71	4.35	42.02	-41.7	-43.6	17.7	0.00e+00	0	40	0	0	55	4378
2026-01-29 09:42:01.56	4.17	41.81	-41.3	-43.2	18.2	0.00e+00	0	40	0	0	54	4416
2026-01-29 09:42:02.70	3.92	41.52	-41.2	-43.0	18.4	0.00e+00	0	40	0	0	54	4327
2026-01-29 09:42:03.55	3.74	41.32	-41.3	-43.3	18.2	0.00e+00	0	40	0	0	54	4445
2026-01-29 09:42:04.69	3.51	41.04	-41.6	-43.6	17.8	0.00e+00	0	40	0	0	54	4621
2026-01-29 09:42:05.54	3.33	40.83	-41.7	-43.8	17.4	0.00e+00	0	40	0	0	54	4742
2026-01-29 09:42:06.68	3.10	40.56	-41.8	-43.9	17.3	0.00e+00	0	40	0	0	54	4791
2026-01-29 09:42:07.61	2.92	40.33	-41.8	-43.9	17.3	0.00e+00	0	40	0	0	54	4777
2026-01-29 09:42:08.78	2.69	40.05	-41.8	-43.8	17.5	0.00e+00	0	40	0	0	54	4746
2026-01-29 09:42:09.65	2.52	39.85	-41.8	-43.8	17.5	0.00e+00	0	40	0	0	54	4751
2026-01-29 09:42:10.94	2.28	39.54	-42.0	-44.1	17.4	0.00e+00	0	40	0	0	54	4873
2026-01-29 09:42:11.65	2.14	39.38	-42.2	-44.2	17.3	0.00e+00	0	40	0	0	55	4688
2026-01-29 09:42:13.15	1.87	39.03	-42.2	-44.4	17.1	0.00e+00	0	40	0	0	55	4762
2026-01-29 09:42:13.86	1.74	38.86	-42.1	-44.2	17.3	0.00e+00	0	40	0	0	55	4655
2026-01-29 09:42:15.14	1.51	38.57	-41.7	-43.7	17.7	0.00e+00	0	40	0	0	55	4414
2026-01-29 09:42:16.20	1.32	38.32	-41.5	-43.5	17.9	0.00e+00	0	40	0	0	55	4300
2026-01-29 09:42:17.39	1.12	38.05	-41.5	-43.5	17.9	0.00e+00	0	40	0	0	54	4565
2026-01-29 09:42:18.42	0.94	37.82	-41.5	-43.4	18.0	0.00e+00	0	40	0	0	54	4535
2026-01-29 09:42:19.42	0.78	37.59	-41.6	-43.7	17.8	0.00e+00	0	40	0	0	54	4653
2026-01-29 09:42:20.41	0.61	37.37	-41.8	-43.9	17.6	0.00e+00	0	40	0	0	54	4795
2026-01-29 09:42:21.41	0.45	37.15	-42.0	-44.2	17.3	0.00e+00	0	40	0	0	54	4974
2026-01-29 09:42:22.41	0.29	36.92	-42.1	-44.3	17.2	0.00e+00	0	40	0	0	54	5013
2026-01-29 09:42:23.40	0.13	36.71	-42.0	-44.2	17.3	0.00e+00	0	40	0	0	54	4938
2026-01-29 09:42:24.40	359.98	36.49	-41.7	-43.8	17.6	0.00e+00	0	40	0	0	54	4744
2026-01-29 09:42:25.39	359.82	36.27	-41.5	-43.6	17.6	0.00e+00	0	40	0	0	54	4636
2026-01-29 09:42:26.38	359.67	36.06	-41.4	-43.4	17.8	0.00e+00	0	40	0	0	54	4542
2026-01-29 09:42:27.38	359.52	35.84	-41.4	-43.4	17.7	0.00e+00	0	40	0	0	54	4531
2026-01-29 09:42:28.37	359.38	35.63	-41.2	-43.1	18.0	0.00e+00	0	40	0	0	54	4377
2026-01-29 09:42:29.37	359.23	35.41	-41.2	-43.1	18.0	0.00e+00	0	40	0	0	54	4379
2026-01-29 09:42:30.36	359.09	35.20	-41.2	-43.1	18.0	0.00e+00	0	40	0	0	54	4388
2026-01-29 09:42:31.44	358.93	34.98	-41.4	-43.4	17.8	0.00e+00	0	40	0	0	54	4507
2026-01-29 09:42:32.32	358.81	34.79	-41.4	-43.4	17.9	0.00e+00	0	40	0	0	54	4505
2026-01-29 09:42:33.63	358.63	34.52	-41.4	-43.3	18.0	0.00e+00	0	40	0	0	54	4471
2026-01-29 09:42:34.34	358.53	34.37	-41.3	-43.3	18.0	0.00e+00	0	40	0	0	54	4459
2026-01-29 09:42:35.84	358.33	34.06	-41.3	-43.2	18.1	0.00e+00	0	40	0	0	54	4437
2026-01-29 09:42:36.55	358.23	33.92	-41.2	-43.1	18.1	0.00e+00	0	40	0	0	54	4373
2026-01-29 09:42:37.83	358.07	33.66	-40.9	-42.8	18.3	0.00e+00	0	40	0	0	53	4488
2026-01-29 09:42:38.54	357.97	33.52	-40.8	-42.8	18.4	0.00e+00	0	40	0	0	53	4445
2026-01-29 09:42:39.82	357.81	33.26	-40.7	-42.6	18.5	0.00e+00	0	40	0	0	53	4375
2026-01-29 09:42:40.55	357.72	33.11	-40.7	-42.6	18.5	0.00e+00	0	40	0	0	53	4376
2026-01-29 09:42:41.83	357.56	32.86	-40.7	-42.6	18.5	0.00e+00	0	40	0	0	53	4356
2026-01-29 09:42:42.54	357.47	32.72	-40.5	-42.3	18.8	0.00e+00	0	40	0	0	52	4481
2026-01-29 09:42:43.82	357.32	32.47	-40.4	-42.2	18.8	0.00e+00	0	40	0	0	52	4419
2026-01-29 09:42:44.55	357.23	32.32	-40.4	-42.2	18.8	0.00e+00	0	40	0	0	52	4395
2026-01-29 09:42:45.83	357.08	32.08	-40.1	-41.9	19.0	0.00e+00	0	40	0	0	52	4246
2026-01-29 09:42:46.58	356.99	31.93	-40.0	-41.8	19.2	0.00e+00	0	40	0	0	51	4450
2026-01-29 09:42:47.86	356.84	31.68	-40.0	-41.8	19.1	0.00e+00	0	40	0	0	51	4463
2026-01-29 09:42:48.64	356.75	31.54	-40.0	-41.8	19.2	0.00e+00	0	40	0	0	51	4452
2026-01-29 09:42:49.92	356.61	31.29	-39.7	-41.4	19.5	0.00e+00	0	40	0	0	51	4272
2026-01-29 09:42:50.67	356.53	31.15	-39.5	-41.2	19.7	0.00e+00	0	40	0	0	51	4188
2026-01-29 09:42:52.29	356.35	30.85	-39.5	-41.2	19.9	0.00e+00	0	40	0	0	50	4405
2026-01-29 09:42:52.85	356.29	30.74	-39.3	-41.0	20.1	0.00e+00	0	40	0	0	50	4316
2026-01-29 09:42:54.56	356.10	30.43	-39.3	-40.9	20.2	0.00e+00	0	40	0	0	50	4284
2026-01-29 09:42:55.13	356.04	30.32	-39.3	-41.0	20.1	0.00e+00	0	40	0	0	50	4298
2026-01-29 09:42:56.84	355.87	30.01	-39.6	-41.3	19.9	0.00e+00	0	40	0	0	50	4465
2026-01-29 09:42:57.41	355.81	29.91	-39.7	-41.4	19.9	0.00e+00	0	40	0	0	50	4538
2026-01-29 09:42:59.11	355.63	29.60	-40.0	-41.8	19.6	0.00e+00	0	40	0	0	50	4709
2026-01-29 09:42:59.85	355.56	29.47	-40.1	-41.9	19.5	0.00e+00	0	40	0	0	50	4779
2026-01-29 09:43:01.13	355.43	29.24	-40.2	-42.0	19.4	0.00e+00	0	40	0	0	51	4577
2026-01-29 09:43:02.08	355.34	29.08	-40.3	-42.1	19.3	0.00e+00	0	40	0	0	51	4628
2026-01-29 09:43:03.37	355.22	28.85	-40.3	-42.1	19.3	0.00e+00	0	40	0	0	51	4636
2026-01-29 09:43:04.08	355.15	28.73	-40.4	-42.1	19.2	0.00e+00	0	40	0	0	51	4644
2026-01-29 09:43:05.76	354.99	28.43	-40.4	-42.2	19.2	0.00e+00	0	40	0	0	51	4678
2026-01-29 09:43:06.33	354.94	28.34	-40.3	-42.2	19.2	0.00e+00	0	40	0	0	51	4654
2026-01-29 09:43:08.03	354.78	28.05	-40.2	-42.0	19.1	0.00e+00	0	40	0	0	51	4598
2026-01-29 09:43:08.60	354.73	27.95	-40.2	-42.0	19.0	0.00e+00	0	40	0	0	51	4589
2026-01-29 09:43:10.31	354.58	27.66	-40.3	-42.1	18.8	0.00e+00	0	40	0	0	51	4640
2026-01-29 09:43:10.88	354.53	27.56	-40.3	-42.1	18.8	0.00e+00	0	40	0	0	51	4622
2026-01-29 09:43:12.58	354.38	27.28	-40.0	-41.8	19.0	0.00e+00	0	40	0	0	51	4444
2026-01-29 09:43:13.15	354.33	27.19	-39.9	-41.7	19.1	0.00e+00	0	40	0	0	51	4404
2026-01-29 09:43:14.86	354.18	26.91	-39.7	-41.4	19.4	0.00e+00	0	40	0	0	51	4270
2026-01-29 09:43:15.42	354.14	26.81	-39.7	-41.4	19.3	0.00e+00	0	40	0	0	51	4291
2026-01-29 09:43:17.13	354.00	26.54	-39.6	-41.4	19.4	0.00e+00	0	40	0	0	51	4255
2026-01-29 09:43:17.70	353.95	26.44	-39.5	-41.2	19.5	0.00e+00	0	40	0	0	51	4176
2026-01-29 09:43:19.56	353.80	26.15	-39.5	-41.3	19.6	0.00e+00	0	40	0	0	50	4449
2026-01-29 09:43:20.13	353.75	26.06	-39.5	-41.2	19.7	0.00e+00	0	40	0	0	50	4430
2026-01-29 09:43:21.83	353.62	25.79	-39.4	-41.1	20.0	0.00e+00	0	40	0	0	50	4385
2026-01-29 09:43:22.53	353.56	25.68	-39.4	-41.2	20.0	0.00e+00	0	40	0	0	50	4393
2026-01-29 09:43:23.95	353.45	25.45	-39.3	-41.0	20.2	0.00e+00	0	40	0	0	50	4338
2026-01-29 09:43:24.66	353.40	25.34	-39.3	-41.0	20.2	0.00e+00	0	40	0	0	50	4319
2026-01-29 09:43:25.94	353.30	25.15	-39.3	-41.0	20.2	0.00e+00	0	40	0	0	50	4315
2026-01-29 09:43:26.65	353.25	25.04	-39.2	-40.9	20.3	0.00e+00	0	40	0	0	50	4274
2026-01-29 09:43:27.93	353.16	24.84	-39.3	-41.0	20.3	0.00e+00	0	40	0	0	50	4308
2026-01-29 09:43:28.65	353.10	24.73	-39.3	-41.0	20.3	0.00e+00	0	40	0	0	50	4302
2026-01-29 09:43:29.93	353.01	24.54	-39.3	-41.0	20.2	0.00e+00	0	40	0	0	50	4335
2026-01-29 09:43:30.66	352.96	24.43	-39.4	-41.1	20.2	0.00e+00	0	40	0	0	50	4360
2026-01-29 09:43:31.94	352.87	24.24	-39.4	-41.2	20.0	0.00e+00	0	40	0	0	50	4415
2026-01-29 09:43:32.66	352.82	24.13	-39.4	-41.2	20.1	0.00e+00	0	40	0	0	50	4392
2026-01-29 09:43:34.02	352.72	23.93	-39.5	-41.3	19.9	0.00e+00	0	40	0	0	50	4482
2026-01-29 09:43:34.73	352.67	23.82	-39.5	-41.3	20.0	0.00e+00	0	40	0	0	50	4447
2026-01-29 09:43:36.01	352.58	23.64	-39.6	-41.3	19.9	0.00e+00	0	40	0	0	50	4488
2026-01-29 09:43:36.72	352.54	23.53	-39.6	-41.4	19.8	0.00e+00	0	40	0	0	50	4510
2026-01-29 09:43:38.00	352.45	23.35	-39.7	-41.4	19.7	0.00e+00	0	40	0	0	50	4542
2026-01-29 09:43:38.74	352.40	23.24	-39.7	-41.5	19.6	0.00e+00	0	40	0	0	50	4584
2026-01-29 09:43:40.02	352.32	23.06	-39.8	-41.5	19.6	0.00e+00	0	40	0	0	50	4565
2026-01-29 09:43:40.73	352.27	22.96	-39.7	-41.5	19.7	0.00e+00	0	40	0	0	50	4558
2026-01-29 09:43:42.01	352.19	22.78	-39.8	-41.5	19.7	0.00e+00	0	40	0	0	50	4568
2026-01-29 09:43:42.74	352.14	22.67	-39.8	-41.5	19.6	0.00e+00	0	40	0	0	50	4589
2026-01-29 09:43:44.02	352.06	22.49	-39.8	-41.5	19.6	0.00e+00	0	40	0	0	50	4582
2026-01-29 09:43:44.73	352.02	22.39	-39.8	-41.6	19.6	0.00e+00	0	40	0	0	50	4600
2026-01-29 09:43:46.01	351.94	22.22	-39.7	-41.4	19.7	0.00e+00	0	40	0	0	50	4541
2026-01-29 09:43:46.72	351.89	22.12	-39.7	-41.4	19.7	0.00e+00	0	40	0	0	50	4536
2026-01-29 09:43:48.00	351.82	21.94	-39.7	-41.4	19.7	0.00e+00	0	40	0	0	50	4523
2026-01-29 09:43:48.71	351.77	21.84	-39.7	-41.4	19.8	0.00e+00	0	40	0	0	50	4524
2026-01-29 09:43:50.02	351.69	21.67	-39.7	-41.5	19.7	0.00e+00	0	40	0	0	50	4557
2026-01-29 09:43:50.73	351.65	21.57	-39.7	-41.4	19.7	0.00e+00	0	40	0	0	50	4530
2026-01-29 09:43:52.05	351.58	21.39	-39.7	-41.4	19.8	0.00e+00	0	40	0	0	50	4527
2026-01-29 09:43:52.76	351.53	21.30	-39.7	-41.4	19.8	0.00e+00	0	40	0	0	50	4515
2026-01-29 09:43:54.07	351.46	21.12	-39.8	-41.5	19.7	0.00e+00	0	40	0	0	50	4593
2026-01-29 09:43:54.78	351.42	21.03	-39.7	-41.4	19.7	0.00e+00	0	40	0	0	50	4543
2026-01-29 09:43:56.13	351.34	20.85	-39.7	-41.4	19.8	0.00e+00	0	40	0	0	50	4522
2026-01-29 09:43:56.84	351.30	20.76	-39.7	-41.4	19.8	0.00e+00	0	40	0	0	50	4510
2026-01-29 09:43:58.16	351.23	20.59	-39.6	-41.4	19.8	0.00e+00	0	40	0	0	50	4503
2026-01-29 09:43:58.88	351.19	20.49	-39.7	-41.4	19.8	0.00e+00	0	40	0	0	50	4506
2026-01-29 09:44:00.15	351.12	20.33	-39.6	-41.4	19.8	0.00e+00	0	40	0	0	50	4499
2026-01-29 09:44:00.86	351.08	20.24	-39.7	-41.4	19.8	0.00e+00	0	40	0	0	50	4523
2026-01-29 09:44:02.27	351.01	20.06	-39.7	-41.4	19.8	0.00e+00	0	40	0	0	50	4527
2026-01-29 09:44:02.98	350.97	19.97	-39.6	-41.3	19.8	0.00e+00	0	40	0	0	50	4481
2026-01-29 09:44:04.26	350.90	19.80	-39.6	-41.4	19.8	0.00e+00	0	40	0	0	50	4498
2026-01-29 09:44:04.97	350.86	19.71	-39.7	-41.4	19.8	0.00e+00	0	40	0	0	50	4530
2026-01-29 09:44:06.25	350.80	19.55	-39.7	-41.5	19.7	0.00e+00	0	40	0	0	50	4547
2026-01-29 09:44:06.96	350.76	19.46	-39.6	-41.3	19.8	0.00e+00	0	40	0	0	50	4491
2026-01-29 09:44:08.24	350.70	19.31	-39.6	-41.4	19.8	0.00e+00	0	40	0	0	50	4517
2026-01-29 09:44:08.98	350.66	19.21	-39.7	-41.5	19.7	0.00e+00	0	40	0	0	50	4557
2026-01-29 09:44:10.26	350.60	19.06	-39.8	-41.6	19.5	0.00e+00	0	40	0	0	50	4636
2026-01-29 09:44:10.97	350.56	18.97	-39.8	-41.6	19.5	0.00e+00	0	40	0	0	50	4646
2026-01-29 09:44:12.25	350.50	18.81	-39.9	-41.8	19.4	0.00e+00	0	40	0	0	50	4723
2026-01-29 09:44:12.96	350.46	18.73	-39.9	-41.7	19.4	0.00e+00	0	40	0	0	50	4684
2026-01-29 09:44:14.24	350.40	18.57	-39.9	-41.8	19.4	0.00e+00	0	40	0	0	50	4706
2026-01-29 09:44:15.19	350.36	18.46	-39.9	-41.8	19.4	0.00e+00	0	40	0	0	50	4725
2026-01-29 09:44:16.46	350.30	18.31	-39.9	-41.8	19.4	0.00e+00	0	40	0	0	50	4712
2026-01-29 09:44:17.21	350.26	18.22	-39.9	-41.8	19.3	0.00e+00	0	40	0	0	50	4736
2026-01-29 09:44:18.49	350.20	18.07	-40.0	-41.9	19.3	0.00e+00	0	40	0	0	50	4767
2026-01-29 09:44:19.20	350.17	17.98	-39.9	-41.8	19.3	0.00e+00	0	40	0	0	50	4730
2026-01-29 09:44:20.48	350.11	17.83	-40.1	-42.0	19.2	0.00e+00	0	40	0	0	50	4816
2026-01-29 09:44:21.20	350.08	17.75	-40.0	-41.9	19.2	0.00e+00	0	40	0	0	50	4792
2026-01-29 09:44:22.48	350.02	17.60	-40.0	-41.9	19.2	0.00e+00	0	40	0	0	50	4800
2026-01-29 09:44:23.19	349.99	17.52	-40.0	-41.9	19.2	0.00e+00	0	40	0	0	50	4791
2026-01-29 09:44:24.47	349.93	17.37	-40.1	-42.0	19.1	0.00e+00	0	40	0	0	50	4836
2026-01-29 09:44:25.18	349.90	17.29	-40.1	-42.0	19.2	0.00e+00	0	40	0	0	50	4822
2026-01-29 09:44:26.46	349.85	17.14	-40.1	-42.0	19.1	0.00e+00	0	40	0	0	50	4845
2026-01-29 09:44:27.17	349.82	17.06	-40.2	-42.1	19.1	0.00e+00	0	40	0	0	51	4610
2026-01-29 09:44:28.45	349.76	16.92	-40.3	-42.2	19.0	0.00e+00	0	40	0	0	51	4652
2026-01-29 09:44:29.18	349.73	16.83	-40.2	-42.1	19.0	0.00e+00	0	40	0	0	51	4634
2026-01-29 09:44:30.46	349.68	16.69	-40.3	-42.1	19.0	0.00e+00	0	40	0	0	51	4642
2026-01-29 09:44:31.18	349.65	16.61	-40.2	-42.1	19.1	0.00e+00	0	40	0	0	51	4607
2026-01-29 09:44:32.46	349.59	16.47	-40.3	-42.2	18.9	0.00e+00	0	40	0	0	51	4702
2026-01-29 09:44:33.17	349.57	16.39	-40.3	-42.2	19.0	0.00e+00	0	40	0	0	51	4676
2026-01-29 09:44:34.45	349.51	16.25	-40.3	-42.2	19.0	0.00e+00	0	40	0	0	51	4689
2026-01-29 09:44:35.16	349.48	16.17	-40.2	-42.2	18.9	0.00e+00	0	40	0	0	51	4693
2026-01-29 09:44:36.77	349.42	16.00	-40.2	-42.2	19.0	0.00e+00	0	40	0	0	51	4696
2026-01-29 09:44:37.34	349.40	15.93	-40.3	-42.3	18.9	0.00e+00	0	40	0	0	51	4708
2026-01-29 09:44:39.26	349.32	15.73	-40.3	-42.3	18.9	0.00e+00	0	40	0	0	51	4725
2026-01-29 09:44:39.83	349.30	15.66	-40.4	-42.4	18.9	0.00e+00	0	40	0	0	51	4763
2026-01-29 09:44:41.54	349.23	15.48	-40.4	-42.4	18.9	0.00e+00	0	40	0	0	51	4777
2026-01-29 09:44:42.11	349.21	15.42	-40.4	-42.4	18.8	0.00e+00	0	40	0	0	51	4799
2026-01-29 09:44:43.81	349.15	15.24	-40.4	-42.4	18.8	0.00e+00	0	40	0	0	51	4798
2026-01-29 09:44:44.38	349.13	15.18	-40.5	-42.5	18.8	0.00e+00	0	40	0	0	51	4819
2026-01-29 09:44:46.09	349.06	15.00	-40.6	-42.6	18.7	0.00e+00	0	40	0	0	51	4877
2026-01-29 09:44:46.65	349.04	14.94	-40.6	-42.6	18.6	0.00e+00	0	40	0	0	51	4917
2026-01-29 09:44:48.60	348.97	14.74	-40.6	-42.6	18.5	0.00e+00	0	40	0	0	52	4637
2026-01-29 09:44:49.17	348.95	14.68	-40.6	-42.7	18.5	0.00e+00	0	40	0	0	52	4653
2026-01-29 09:44:51.15	348.88	14.48	-40.6	-42.7	18.5	0.00e+00	0	40	0	0	52	4677
2026-01-29 09:44:51.72	348.86	14.42	-40.6	-42.7	18.4	0.00e+00	0	40	0	0	52	4683
2026-01-29 09:44:53.41	348.80	14.25	-40.7	-42.9	18.3	0.00e+00	0	40	0	0	52	4763
2026-01-29 09:44:53.98	348.78	14.19	-40.6	-42.8	18.4	0.00e+00	0	40	0	0	52	4741
2026-01-29 09:44:55.69	348.72	14.02	-40.7	-42.9	18.3	0.00e+00	0	40	0	0	52	4779
2026-01-29 09:44:56.26	348.70	13.96	-40.7	-42.9	18.3	0.00e+00	0	40	0	0	52	4779
2026-01-29 09:44:57.96	348.64	13.79	-40.8	-43.0	18.1	0.00e+00	0	40	0	0	52	4848
2026-01-29 09:44:58.53	348.62	13.73	-40.8	-43.0	18.2	0.00e+00	0	40	0	0	52	4850
2026-01-29 09:45:00.23	348.57	13.57	-40.9	-43.2	18.0	0.00e+00	0	40	0	0	52	4933
2026-01-29 09:45:00.83	348.55	13.51	-40.8	-43.0	18.1	0.00e+00	0	40	0	0	52	4852
2026-01-29 09:45:02.40	348.50	13.35	-40.8	-43.0	18.2	0.00e+00	0	40	0	0	52	4824
2026-01-29 09:45:03.11	348.47	13.28	-40.9	-43.0	18.1	0.00e+00	0	40	0	0	52	4865
2026-01-29 09:45:04.67	348.42	13.13	-41.0	-43.1	18.0	0.00e+00	0	40	0	0	52	4910
2026-01-29 09:45:05.31	348.40	13.07	-41.0	-43.1	18.1	0.00e+00	0	40	0	0	52	4889
2026-01-29 09:45:06.86	348.35	12.92	-40.9	-43.0	18.2	0.00e+00	0	40	0	0	52	4834
2026-01-29 09:45:07.57	348.33	12.85	-41.0	-43.1	18.1	0.00e+00	0	40	0	0	52	4884
2026-01-29 09:45:08.86	348.29	12.73	-41.0	-43.1	18.1	0.00e+00	0	40	0	0	52	4886
2026-01-29 09:45:09.58	348.27	12.66	-40.9	-43.0	18.1	0.00e+00	0	40	0	0	52	4836
2026-01-29 09:45:10.85	348.23	12.54	-40.8	-42.9	18.2	0.00e+00	0	40	0	0	52	4799
2026-01-29 09:45:11.56	348.21	12.47	-40.8	-43.0	18.1	0.00e+00	0	40	0	0	52	4857
2026-01-29 09:45:12.84	348.17	12.35	-40.8	-43.0	18.1	0.00e+00	0	40	0	0	52	4855
2026-01-29 09:45:13.55	348.15	12.28	-40.7	-43.0	18.1	0.00e+00	0	40	0	0	52	4834
2026-01-29 09:45:14.83	348.11	12.16	-40.6	-42.9	18.2	0.00e+00	0	40	0	0	52	4786
2026-01-29 09:45:15.54	348.09	12.10	-40.6	-42.9	18.1	0.00e+00	0	40	0	0	52	4801
2026-01-29 09:45:16.82	348.05	11.98	-40.6	-42.9	18.1	0.00e+00	0	40	0	0	52	4797
2026-01-29 09:45:17.53	348.03	11.91	-40.6	-43.0	18.1	0.00e+00	0	40	0	0	52	4821
2026-01-29 09:45:18.81	347.99	11.80	-40.5	-42.9	18.2	0.00e+00	0	40	0	0	52	4761
2026-01-29 09:45:19.57	347.97	11.73	-40.5	-42.9	18.1	0.00e+00	0	40	0	0	52	4802
2026-01-29 09:45:20.85	347.93	11.61	-40.5	-42.9	18.2	0.00e+00	0	40	0	0	52	4768
2026-01-29 09:45:21.56	347.91	11.54	-40.6	-43.0	18.1	0.00e+00	0	40	0	0	52	4829
2026-01-29 09:45:22.84	347.88	11.43	-40.6	-42.9	18.1	0.00e+00	0	40	0	0	52	4813
2026-01-29 09:45:23.57	347.86	11.36	-40.5	-42.9	18.1	0.00e+00	0	40	0	0	52	4772
2026-01-29 09:45:24.85	347.82	11.25	-40.5	-42.9	18.1	0.00e+00	0	41	0	0	52	4794
2026-01-29 09:45:25.56	347.80	11.18	-40.5	-42.9	18.1	0.00e+00	0	40	0	0	52	4795
2026-01-29 09:45:26.83	347.77	11.07	-40.5	-43.0	17.9	0.00e+00	0	40	0	0	52	4868
2026-01-29 09:45:27.56	347.75	11.00	-40.5	-42.9	18.1	0.00e+00	0	40	0	0	52	4794
2026-01-29 09:45:28.84	347.71	10.89	-40.4	-42.9	18.1	0.00e+00	0	40	0	0	52	4802
2026-01-29 09:45:29.57	347.69	10.83	-40.5	-43.0	18.0	0.00e+00	0	40	0	0	52	4827
2026-01-29 09:45:30.84	347.66	10.71	-40.5	-43.0	18.0	0.00e+00	0	40	0	0	52	4834
2026-01-29 09:45:31.55	347.64	10.65	-40.5	-43.0	17.9	0.00e+00	0	40	0	0	52	4850
2026-01-29 09:45:32.83	347.61	10.54	-40.4	-42.9	18.0	0.00e+00	0	40	0	0	52	4811
2026-01-29 09:45:33.56	347.59	10.47	-40.4	-43.0	18.0	0.00e+00	0	40	0	0	52	4829
2026-01-29 09:45:34.84	347.55	10.36	-40.5	-43.1	17.8	0.00e+00	0	40	0	0	52	4900
2026-01-29 09:45:35.56	347.53	10.30	-40.6	-43.2	17.8	0.00e+00	0	40	0	0	52	4982
2026-01-29 09:45:36.84	347.50	10.19	-40.4	-43.0	18.0	0.00e+00	0	40	0	0	52	4836
2026-01-29 09:45:37.56	347.48	10.13	-40.5	-43.0	17.9	0.00e+00	0	40	0	0	52	4858
2026-01-29 09:45:38.83	347.45	10.02	-40.5	-43.0	17.9	0.00e+00	0	40	0	0	52	4869
2026-01-29 09:45:39.55	347.43	9.96	-40.4	-43.0	17.9	0.00e+00	0	40	0	0	52	4860
2026-01-29 09:45:40.83	347.40	9.85	-40.5	-43.1	17.8	0.00e+00	0	40	0	0	52	4906
2026-01-29 09:45:41.54	347.38	9.79	-40.6	-43.2	17.7	0.00e+00	0	40	0	0	52	4965
2026-01-29 09:45:42.85	347.35	9.68	-40.5	-43.2	17.8	0.00e+00	0	40	0	0	52	4942
2026-01-29 09:45:43.56	347.33	9.62	-40.4	-43.1	17.8	0.00e+00	0	40	0	0	52	4907
2026-01-29 09:45:44.84	347.30	9.51	-40.6	-43.3	17.7	0.00e+00	0	40	0	0	52	4984
2026-01-29 09:45:45.57	347.28	9.45	-40.5	-43.2	17.8	0.00e+00	0	40	0	0	52	4932
2026-01-29 09:45:46.85	347.25	9.34	-40.6	-43.3	17.7	0.00e+00	0	40	0	0	52	5018
2026-01-29 09:45:47.56	347.24	9.28	-40.7	-43.4	17.6	0.00e+00	0	40	0	0	52	5058
2026-01-29 09:45:48.83	347.21	9.18	-40.6	-43.2	17.7	0.00e+00	0	40	0	0	52	4966
2026-01-29 09:45:49.56	347.19	9.12	-40.7	-43.2	17.7	0.00e+00	0	40	0	0	52	4971
2026-01-29 09:45:50.84	347.16	9.01	-43.8	-48.9	12.6	1.22e-05	0	40	0	0	58	6768
2026-01-29 09:45:51.55	347.14	8.95	-46.0	-62.4	3.8	1.48e+00	0	40	104	0	63	23989
2026-01-29 09:45:52.83	347.11	8.85	-48.0	-62.5	3.8	1.49e+00	0	40	104	0	66	20324
2026-01-29 09:45:53.55	347.10	8.79	-49.1	-62.8	3.8	1.49e+00	0	40	104	0	68	18827
2026-01-29 09:45:54.83	347.07	8.68	-49.2	-62.8	3.8	1.49e+00	0	40	104	0	69	17768
2026-01-29 09:45:55.56	347.05	8.62	-49.4	-62.8	3.8	1.49e+00	0	40	104	0	69	17730
2026-01-29 09:45:56.83	347.02	8.52	-49.1	-62.8	3.8	1.49e+00	0	40	104	0	69	17732
2026-01-29 09:45:57.56	347.01	8.46	-48.4	-62.7	3.8	1.49e+00	0	40	104	0	68	18601
2026-01-29 09:45:58.84	346.98	8.36	-48.8	-62.6	3.8	1.49e+00	0	40	104	0	68	18484
2026-01-29 09:45:59.55	346.96	8.30	-48.5	-62.5	3.8	1.49e+00	0	40	104	0	68	18159
2026-01-29 09:46:00.84	346.94	8.20	-48.6	-62.3	3.8	1.49e+00	0	40	104	0	69	16863
2026-01-29 09:46:01.55	346.92	8.14	-49.0	-62.3	3.8	1.49e+00	0	40	104	0	69	16878
2026-01-29 09:46:02.83	346.89	8.04	-48.7	-62.4	3.8	1.49e+00	0	40	104	0	68	17965
2026-01-29 09:46:03.55	346.88	7.98	-49.1	-62.4	3.8	1.49e+00	0	40	104	0	69	16954
2026-01-29 09:46:04.83	346.85	7.88	-49.3	-62.4	3.8	1.49e+00	0	40	104	0	69	16961
2026-01-29 09:46:05.54	346.83	7.83	-49.3	-62.4	3.8	1.49e+00	0	40	104	0	69	16981
2026-01-29 09:46:06.81	346.81	7.73	-49.4	-62.4	3.8	1.49e+00	0	40	104	0	69	17064
2026-01-29 09:46:07.53	346.79	7.67	-49.1	-62.4	3.8	1.49e+00	0	40	104	0	69	17033
2026-01-29 09:46:08.80	346.77	7.57	-48.8	-62.5	3.8	1.49e+00	0	41	104	0	69	17196
2026-01-29 09:46:09.53	346.75	7.52	-49.0	-62.5	3.8	1.49e+00	0	40	104	0	69	17202
2026-01-29 09:46:10.80	346.73	7.42	-49.2	-62.5	3.8	1.49e+00	0	41	104	0	69	17160
2026-01-29 09:46:11.51	346.71	7.36	-49.2	-62.5	3.8	1.49e+00	0	40	104	0	69	17126
2026-01-29 09:46:12.79	346.68	7.26	-49.1	-62.5	3.8	1.49e+00	0	40	104	0	69	17170
2026-01-29 09:46:13.53	346.67	7.21	-49.0	-62.5	3.8	1.49e+00	0	40	104	0	69	17232
2026-01-29 09:46:14.81	346.64	7.11	-48.8	-62.5	3.8	1.49e+00	0	40	104	0	69	17269
2026-01-29 09:46:15.53	346.63	7.05	-48.8	-62.5	3.8	1.49e+00	0	40	104	0	69	17160
2026-01-29 09:46:16.81	346.61	6.96	-49.0	-62.5	3.8	1.49e+00	0	40	104	0	69	17149
2026-01-29 09:46:17.52	346.59	6.90	-48.9	-62.5	3.8	1.49e+00	0	40	104	0	69	17178
2026-01-29 09:46:18.80	346.57	6.81	-49.4	-62.5	3.8	1.49e+00	0	40	104	0	69	17153
2026-01-29 09:46:19.51	346.55	6.75	-49.4	-62.5	3.8	1.49e+00	0	40	104	0	69	17122
2026-01-29 09:46:20.78	346.53	6.66	-49.4	-62.5	3.8	1.49e+00	0	40	104	0	69	17184
2026-01-29 09:46:21.49	346.51	6.60	-49.4	-62.5	3.8	1.49e+00	0	40	104	0	69	17130
2026-01-29 09:46:22.77	346.49	6.51	-49.4	-62.5	3.8	1.49e+00	0	40	104	0	69	17127
2026-01-29 09:46:23.48	346.48	6.45	-49.4	-62.5	3.8	1.49e+00	0	40	104	0	69	17164
2026-01-29 09:46:24.76	346.45	6.36	-49.4	-62.5	3.8	1.49e+00	0	40	104	0	69	17178
2026-01-29 09:46:25.47	346.44	6.31	-49.4	-62.5	3.8	1.49e+00	0	40	104	0	69	17203
2026-01-29 09:46:26.74	346.42	6.21	-49.3	-62.5	3.8	1.49e+00	0	40	104	0	69	17088
2026-01-29 09:46:27.45	346.40	6.16	-49
