passes_logs/2026/01/29/T1/T1__20260129_221418_SUOMI_NPP_rec.log

#Pass ID: 20260129_221418_SUOMI NPP
#Satellite: SUOMI NPP
#Configuration: NPP
#almurnet v.1.7.20251203
#Start time: 2026-01-29 22:14:19

#Version: 2.0.20230620
#Station: T1
#Location: 37.570604 lon 55.790049 lat
#TLE: 1 37849U 11061A   26028.91916408  .00000155  00000+0  94467-4 0  9990
#TLE: 2 37849  98.7824 330.8488 0002045  39.4457 320.6868 14.19531289738686

#Time	Az	El	Level	Level2	SNR	BER	BlckErr	Temp	State	Recorded	gain1	gain2
2026-01-29 22:14:19.55	30.01	5.07	-50.4	-64.6	3.8	1.49e+00	0	41	0	0	71	19598
2026-01-29 22:14:20.54	30.10	5.12	-50.4	-64.6	3.8	1.49e+00	0	41	104	0	72	18478
2026-01-29 22:14:21.54	30.19	5.18	-50.4	-64.6	3.8	1.49e+00	0	41	104	0	72	18490
2026-01-29 22:14:22.55	30.28	5.24	-50.4	-64.6	3.8	1.49e+00	0	41	104	0	72	18500
2026-01-29 22:14:23.54	30.37	5.30	-50.3	-64.6	3.8	1.49e+00	0	41	104	0	72	18456
2026-01-29 22:14:24.54	30.46	5.35	-50.2	-64.6	3.8	1.49e+00	0	41	104	0	72	18440
2026-01-29 22:14:25.55	30.55	5.41	-50.4	-64.6	3.8	1.49e+00	0	41	104	0	72	18404
2026-01-29 22:14:26.55	30.64	5.47	-50.3	-64.6	3.8	1.49e+00	0	41	104	0	72	18393
2026-01-29 22:14:27.55	30.73	5.53	-50.3	-64.5	3.8	1.49e+00	0	41	104	0	72	18277
2026-01-29 22:14:28.55	30.82	5.59	-50.4	-64.5	3.8	1.49e+00	0	41	104	0	72	18283
2026-01-29 22:14:29.55	30.91	5.65	-50.2	-64.5	3.8	1.49e+00	0	41	104	0	72	18157
2026-01-29 22:14:30.56	31.00	5.71	-50.2	-64.4	3.8	1.49e+00	0	41	104	0	72	18067
2026-01-29 22:14:31.56	31.10	5.76	-50.2	-64.4	3.8	1.49e+00	0	41	104	0	72	17922
2026-01-29 22:14:32.56	31.19	5.82	-50.0	-64.4	3.8	1.49e+00	0	41	104	0	71	18979
2026-01-29 22:14:33.56	31.28	5.88	-49.9	-64.2	3.8	1.49e+00	0	41	104	0	71	18706
2026-01-29 22:14:34.57	31.38	5.94	-49.8	-64.1	3.8	1.49e+00	0	41	104	0	71	18480
2026-01-29 22:14:35.57	31.47	6.00	-49.7	-64.0	3.8	1.49e+00	0	42	104	0	71	18201
2026-01-29 22:14:36.57	31.57	6.06	-49.7	-64.0	3.8	1.49e+00	0	42	104	0	71	18246
2026-01-29 22:14:37.57	31.66	6.12	-49.7	-64.0	3.8	1.49e+00	0	42	104	0	71	18240
2026-01-29 22:14:38.57	31.75	6.18	-49.7	-64.0	3.8	1.49e+00	0	42	104	0	71	18147
2026-01-29 22:14:39.57	31.85	6.24	-49.7	-64.0	3.8	1.49e+00	0	42	104	0	71	18172
2026-01-29 22:14:40.58	31.95	6.30	-49.7	-64.0	3.8	1.49e+00	0	42	104	0	71	18129
2026-01-29 22:14:41.58	32.04	6.36	-49.7	-64.0	3.8	1.49e+00	0	42	104	0	71	18153
2026-01-29 22:14:42.57	32.14	6.41	-49.7	-64.0	3.8	1.49e+00	0	42	104	0	71	18148
2026-01-29 22:14:43.58	32.24	6.47	-49.7	-64.0	3.8	1.49e+00	0	42	104	0	71	18116
2026-01-29 22:14:44.58	32.33	6.53	-49.7	-64.0	3.8	1.49e+00	0	42	104	0	71	18185
2026-01-29 22:14:45.58	32.43	6.59	-49.7	-63.9	3.8	1.49e+00	0	42	104	0	71	18069
2026-01-29 22:14:46.58	32.53	6.65	-49.7	-63.9	3.8	1.49e+00	0	42	104	0	71	18089
2026-01-29 22:14:47.58	32.63	6.71	-49.7	-64.0	3.8	1.49e+00	0	42	104	0	71	18154
2026-01-29 22:14:48.59	32.73	6.77	-49.7	-64.0	3.8	1.49e+00	0	42	104	0	71	18119
2026-01-29 22:14:49.59	32.83	6.83	-49.7	-64.0	3.8	1.49e+00	0	42	104	0	71	18173
2026-01-29 22:14:50.59	32.92	6.89	-49.7	-64.0	3.8	1.49e+00	0	42	104	0	71	18160
2026-01-29 22:14:51.59	33.02	6.95	-49.7	-64.0	3.8	1.49e+00	0	42	104	0	71	18197
2026-01-29 22:14:52.59	33.12	7.01	-49.7	-64.0	3.8	1.49e+00	0	42	104	0	71	18229
2026-01-29 22:14:53.59	33.23	7.07	-49.7	-64.0	3.8	1.49e+00	0	42	104	0	71	18212
2026-01-29 22:14:54.60	33.33	7.13	-49.7	-64.0	3.8	1.49e+00	0	42	104	0	71	18178
2026-01-29 22:14:55.60	33.43	7.19	-49.7	-64.0	3.8	1.49e+00	0	42	104	0	71	18128
2026-01-29 22:14:56.60	33.53	7.26	-49.6	-63.9	3.8	1.49e+00	0	42	104	0	71	17980
2026-01-29 22:14:57.60	33.63	7.32	-49.6	-63.9	3.8	1.49e+00	0	42	104	0	71	17964
2026-01-29 22:14:58.60	33.74	7.38	-49.7	-63.9	3.8	1.49e+00	0	42	104	0	71	17994
2026-01-29 22:14:59.60	33.84	7.44	-49.7	-63.9	3.8	1.49e+00	0	42	104	0	71	17994
2026-01-29 22:15:00.60	33.94	7.50	-49.7	-63.9	3.8	1.49e+00	0	42	104	0	71	17952
2026-01-29 22:15:01.61	34.05	7.56	-49.7	-63.8	3.8	1.49e+00	0	42	104	0	71	17859
2026-01-29 22:15:02.60	34.15	7.62	-49.7	-63.7	3.8	1.49e+00	0	42	104	0	71	17582
2026-01-29 22:15:03.61	34.26	7.68	-49.7	-63.6	3.8	1.49e+00	0	42	104	0	71	17306
2026-01-29 22:15:04.61	34.36	7.74	-49.6	-63.4	3.8	1.49e+00	0	42	104	0	71	16981
2026-01-29 22:15:05.61	34.47	7.80	-49.6	-63.4	3.8	1.49e+00	0	42	104	0	71	16900
2026-01-29 22:15:06.61	34.57	7.86	-49.6	-63.3	3.8	1.49e+00	0	42	104	0	71	16756
2026-01-29 22:15:07.61	34.68	7.92	-49.6	-63.3	3.8	1.49e+00	0	43	104	0	71	16832
2026-01-29 22:15:08.61	34.79	7.99	-49.6	-63.5	3.8	1.49e+00	0	42	104	0	71	17155
2026-01-29 22:15:09.61	34.89	8.05	-49.6	-63.6	3.8	1.49e+00	0	43	104	0	71	17443
2026-01-29 22:15:10.61	35.00	8.11	-49.7	-63.8	3.8	1.49e+00	0	42	104	0	71	17767
2026-01-29 22:15:11.61	35.11	8.17	-49.7	-63.9	3.8	1.49e+00	0	43	104	0	71	17910
2026-01-29 22:15:12.61	35.22	8.23	-49.7	-63.9	3.8	1.49e+00	0	43	104	0	71	17944
2026-01-29 22:15:13.61	35.33	8.29	-49.6	-63.9	3.8	1.49e+00	0	42	104	0	71	17978
2026-01-29 22:15:14.61	35.44	8.35	-49.7	-63.9	3.8	1.49e+00	0	43	104	0	71	17989
2026-01-29 22:15:15.61	35.55	8.42	-49.7	-63.9	3.8	1.49e+00	0	43	104	0	71	18082
2026-01-29 22:15:16.61	35.66	8.48	-49.7	-64.0	3.8	1.49e+00	0	43	104	0	71	18118
2026-01-29 22:15:17.61	35.77	8.54	-49.7	-64.0	3.8	1.49e+00	0	43	104	0	71	18229
2026-01-29 22:15:18.61	35.88	8.60	-49.6	-64.0	3.8	1.49e+00	0	43	104	0	71	18240
2026-01-29 22:15:19.61	35.99	8.66	-49.6	-64.0	3.8	1.49e+00	0	43	104	0	71	18171
2026-01-29 22:15:20.61	36.10	8.73	-49.7	-64.0	3.8	1.49e+00	0	43	104	0	71	18271
2026-01-29 22:15:21.61	36.21	8.79	-49.7	-64.0	3.8	1.49e+00	0	43	104	0	71	18244
2026-01-29 22:15:22.62	36.33	8.85	-49.7	-63.8	3.8	1.49e+00	0	43	104	0	71	17725
2026-01-29 22:15:23.62	36.44	8.91	-49.6	-62.9	3.8	1.49e+00	0	43	104	0	71	15954
2026-01-29 22:15:24.62	36.56	8.97	-49.5	-60.8	4.1	1.49e+00	0	43	104	0	71	12609
2026-01-29 22:15:25.62	36.67	9.04	-49.2	-58.2	5.1	8.44e-01	0	43	0	1048576	70	9906
2026-01-29 22:15:26.62	36.79	9.10	-49.0	-57.2	6.1	2.38e-01	0	43	0	3145728	68	9930
2026-01-29 22:15:27.62	36.90	9.16	-49.3	-58.7	5.0	1.28e+00	0	43	0	4194304	69	11075
2026-01-29 22:15:28.62	37.02	9.22	-48.7	-55.6	6.8	1.49e+00	0	43	104	4194304	69	7779
2026-01-29 22:15:29.62	37.13	9.29	-49.3	-59.5	4.6	8.09e-02	0	43	0	5242880	69	12151
2026-01-29 22:15:30.62	37.25	9.35	-46.5	-50.0	12.0	1.48e+00	0	43	104	5242880	65	5124
2026-01-29 22:15:31.62	37.37	9.41	-45.3	-47.7	15.1	0.00e+00	0	43	0	6291456	62	4705
2026-01-29 22:15:32.62	37.49	9.47	-45.1	-47.4	15.4	0.00e+00	0	43	0	8388608	62	4507
2026-01-29 22:15:33.62	37.60	9.54	-45.3	-47.7	15.1	7.00e-07	0	43	0	10485760	62	4701
2026-01-29 22:15:34.63	37.72	9.60	-45.0	-47.2	15.5	0.00e+00	0	43	0	12582912	61	4690
2026-01-29 22:15:35.63	37.84	9.66	-44.9	-47.1	15.6	0.00e+00	0	42	0	13631488	61	4650
2026-01-29 22:15:36.63	37.96	9.73	-44.8	-47.1	15.6	0.00e+00	0	43	0	15728640	61	4615
2026-01-29 22:15:37.63	38.08	9.79	-44.7	-46.9	15.9	0.00e+00	0	43	0	17825792	60	4778
2026-01-29 22:15:38.63	38.20	9.85	-44.5	-46.6	16.1	0.00e+00	0	43	0	19922944	60	4626
2026-01-29 22:15:39.63	38.33	9.91	-44.4	-46.5	16.2	0.00e+00	0	43	0	20971520	60	4572
2026-01-29 22:15:40.63	38.45	9.98	-44.4	-46.5	16.3	0.00e+00	0	43	0	23068672	60	4582
2026-01-29 22:15:41.63	38.57	10.04	-44.4	-46.4	16.3	0.00e+00	0	43	0	25165824	60	4544
2026-01-29 22:15:42.63	38.69	10.10	-44.5	-46.6	16.2	0.00e+00	0	43	0	27262976	60	4627
2026-01-29 22:15:43.63	38.82	10.17	-44.5	-46.7	16.1	0.00e+00	0	43	0	29360128	60	4653
2026-01-29 22:15:44.63	38.94	10.23	-44.5	-46.5	16.2	0.00e+00	0	43	0	30408704	60	4580
2026-01-29 22:15:45.63	39.06	10.29	-44.2	-46.1	16.6	0.00e+00	0	43	0	32505856	60	4382
2026-01-29 22:15:46.63	39.19	10.36	-44.4	-46.3	16.5	0.00e+00	0	43	0	34603008	60	4471
2026-01-29 22:15:47.63	39.31	10.42	-44.1	-46.0	16.8	0.00e+00	0	43	0	36700160	60	4316
2026-01-29 22:15:48.63	39.44	10.48	-44.5	-46.5	16.3	0.00e+00	0	43	0	38797312	60	4561
2026-01-29 22:15:49.63	39.57	10.55	-43.9	-45.7	17.0	0.00e+00	0	43	0	39845888	59	4409
2026-01-29 22:15:50.63	39.69	10.61	-44.0	-45.8	16.9	0.00e+00	0	43	0	41943040	59	4480
2026-01-29 22:15:51.63	39.82	10.68	-44.2	-46.1	16.7	0.00e+00	0	43	0	44040192	59	4603
2026-01-29 22:15:52.63	39.95	10.74	-44.1	-45.9	16.8	0.00e+00	0	43	0	46137344	59	4518
2026-01-29 22:15:53.64	40.08	10.80	-44.2	-46.1	16.7	0.00e+00	0	43	0	48234496	59	4605
2026-01-29 22:15:54.64	40.21	10.87	-44.3	-46.2	16.6	0.00e+00	0	43	0	49283072	59	4665
2026-01-29 22:15:55.64	40.34	10.93	-44.2	-46.0	16.7	0.00e+00	0	43	0	51380224	59	4593
2026-01-29 22:15:56.64	40.47	10.99	-44.3	-46.2	16.6	0.00e+00	0	43	0	53477376	59	4685
2026-01-29 22:15:57.64	40.60	11.06	-44.1	-45.9	16.8	0.00e+00	0	43	0	55574528	59	4543
2026-01-29 22:15:58.64	40.73	11.12	-44.2	-46.1	16.7	0.00e+00	0	43	0	56623104	59	4614
2026-01-29 22:15:59.64	40.86	11.19	-44.4	-46.3	16.5	0.00e+00	0	43	0	58720256	59	4720
2026-01-29 22:16:00.64	40.99	11.25	-44.4	-46.3	16.5	0.00e+00	0	43	0	60817408	59	4721
2026-01-29 22:16:01.64	41.13	11.31	-44.3	-46.2	16.6	0.00e+00	0	43	0	62914560	59	4682
2026-01-29 22:16:02.64	41.26	11.38	-44.4	-46.3	16.5	0.00e+00	0	43	0	65011712	59	4709
2026-01-29 22:16:03.65	41.40	11.44	-44.4	-46.4	16.4	0.00e+00	0	43	0	66060288	59	4784
2026-01-29 22:16:04.65	41.53	11.51	-44.5	-46.5	16.3	0.00e+00	0	43	0	68157440	59	4823
2026-01-29 22:16:05.65	41.67	11.57	-44.3	-46.2	16.5	0.00e+00	0	43	0	70254592	59	4696
2026-01-29 22:16:06.65	41.80	11.64	-44.2	-46.1	16.7	0.00e+00	0	43	0	72351744	59	4614
2026-01-29 22:16:07.65	41.94	11.70	-44.2	-46.1	16.6	0.00e+00	0	43	0	74448896	59	4638
2026-01-29 22:16:08.64	42.07	11.76	-44.2	-46.0	16.8	0.00e+00	0	43	0	75497472	59	4585
2026-01-29 22:16:09.64	42.21	11.83	-44.2	-46.0	16.7	0.00e+00	0	43	0	77594624	59	4571
2026-01-29 22:16:10.65	42.35	11.89	-44.2	-46.1	16.7	0.00e+00	0	43	0	79691776	59	4611
2026-01-29 22:16:11.65	42.49	11.96	-44.2	-46.0	16.7	0.00e+00	0	43	0	81788928	59	4598
2026-01-29 22:16:12.65	42.63	12.02	-44.1	-45.9	16.9	0.00e+00	0	43	0	82837504	59	4512
2026-01-29 22:16:13.65	42.77	12.09	-44.3	-46.1	16.7	0.00e+00	0	43	0	84934656	59	4642
2026-01-29 22:16:14.65	42.91	12.15	-44.2	-46.0	16.8	0.00e+00	0	43	0	87031808	59	4572
2026-01-29 22:16:15.64	43.05	12.21	-44.1	-45.9	16.9	0.00e+00	0	43	0	89128960	59	4518
2026-01-29 22:16:16.65	43.19	12.28	-44.1	-45.8	17.0	0.00e+00	0	43	0	91226112	59	4490
2026-01-29 22:16:17.64	43.33	12.34	-44.0	-45.7	17.1	0.00e+00	0	43	0	92274688	59	4422
2026-01-29 22:16:18.64	43.48	12.41	-44.1	-45.9	17.0	0.00e+00	0	43	0	94371840	59	4501
2026-01-29 22:16:19.64	43.62	12.47	-43.8	-45.5	17.3	0.00e+00	0	43	0	96468992	59	4318
2026-01-29 22:16:20.64	43.76	12.54	-43.7	-45.4	17.4	0.00e+00	0	43	0	98566144	59	4260
2026-01-29 22:16:21.64	43.91	12.60	-43.7	-45.3	17.4	0.00e+00	0	43	0	100663296	59	4214
2026-01-29 22:16:22.64	44.05	12.66	-43.6	-45.2	17.6	0.00e+00	0	43	0	101711872	58	4400
2026-01-29 22:16:23.64	44.20	12.73	-43.5	-45.1	17.6	0.00e+00	0	43	0	103809024	58	4368
2026-01-29 22:16:24.64	44.35	12.79	-43.3	-44.9	17.9	0.00e+00	0	43	0	105906176	58	4258
2026-01-29 22:16:25.64	44.49	12.86	-43.4	-45.0	17.7	0.00e+00	0	43	0	108003328	58	4311
2026-01-29 22:16:26.63	44.64	12.92	-43.3	-44.8	18.0	0.00e+00	0	43	0	110100480	58	4209
2026-01-29 22:16:27.63	44.79	12.99	-43.4	-44.9	17.9	0.00e+00	0	43	0	111149056	58	4262
2026-01-29 22:16:28.63	44.94	13.05	-43.4	-44.9	17.9	0.00e+00	0	43	0	113246208	58	4283
2026-01-29 22:16:29.63	45.09	13.12	-43.4	-44.9	17.8	0.00e+00	0	43	0	115343360	58	4281
2026-01-29 22:16:30.63	45.24	13.18	-43.3	-44.8	17.9	0.00e+00	0	43	0	117440512	58	4240
2026-01-29 22:16:31.63	45.39	13.24	-43.4	-44.9	17.9	0.00e+00	0	43	0	118489088	58	4265
2026-01-29 22:16:32.63	45.54	13.31	-43.5	-45.0	17.7	0.00e+00	0	43	0	120586240	58	4340
2026-01-29 22:16:33.64	45.69	13.37	-43.4	-44.9	17.9	0.00e+00	0	43	0	122683392	58	4274
2026-01-29 22:16:34.64	45.85	13.44	-43.4	-45.0	17.8	0.00e+00	0	43	0	124780544	58	4309
2026-01-29 22:16:35.64	46.00	13.50	-43.5	-45.0	17.7	0.00e+00	0	43	0	126877696	58	4340
2026-01-29 22:16:36.64	46.15	13.57	-43.5	-45.2	17.7	0.00e+00	0	43	0	127926272	58	4394
2026-01-29 22:16:37.64	46.31	13.63	-43.6	-45.2	17.6	0.00e+00	0	43	0	130023424	58	4396
2026-01-29 22:16:38.64	46.46	13.70	-43.7	-45.3	17.5	0.00e+00	0	43	0	132120576	58	4478
2026-01-29 22:16:39.64	46.62	13.76	-43.6	-45.2	17.6	0.00e+00	0	43	0	134217728	58	4394
2026-01-29 22:16:40.65	46.78	13.83	-43.5	-45.0	17.8	0.00e+00	0	43	0	136314880	58	4327
2026-01-29 22:16:41.65	46.94	13.89	-43.5	-45.1	17.7	0.00e+00	0	43	0	137363456	58	4357
2026-01-29 22:16:42.65	47.09	13.95	-43.5	-45.2	17.7	0.00e+00	0	43	0	139460608	58	4397
2026-01-29 22:16:43.65	47.25	14.02	-43.6	-45.2	17.6	0.00e+00	0	43	0	141557760	58	4438
2026-01-29 22:16:44.65	47.41	14.08	-43.7	-45.3	17.5	0.00e+00	0	43	0	143654912	58	4488
2026-01-29 22:16:45.65	47.57	14.15	-43.7	-45.3	17.5	0.00e+00	0	43	0	144703488	58	4481
2026-01-29 22:16:46.65	47.73	14.21	-43.8	-45.5	17.3	0.00e+00	0	43	0	146800640	58	4568
2026-01-29 22:16:47.65	47.89	14.27	-44.0	-45.7	17.2	0.00e+00	0	43	0	148897792	58	4678
2026-01-29 22:16:48.65	48.06	14.34	-43.9	-45.6	17.2	0.00e+00	0	43	0	150994944	58	4634
2026-01-29 22:16:49.65	48.22	14.40	-44.0	-45.7	17.2	0.00e+00	0	43	0	153092096	58	4668
2026-01-29 22:16:50.65	48.38	14.47	-43.9	-45.5	17.3	0.00e+00	0	43	0	155189248	58	4586
2026-01-29 22:16:51.65	48.55	14.53	-43.7	-45.3	17.6	0.00e+00	0	43	0	156237824	58	4450
2026-01-29 22:16:52.65	48.71	14.59	-43.7	-45.3	17.5	0.00e+00	0	43	0	158334976	58	4453
2026-01-29 22:16:53.65	48.88	14.66	-43.5	-45.0	17.7	0.00e+00	0	43	0	160432128	58	4325
2026-01-29 22:16:54.66	49.05	14.72	-43.5	-45.0	17.8	0.00e+00	0	43	0	162529280	58	4328
2026-01-29 22:16:55.66	49.21	14.79	-43.4	-44.9	17.9	0.00e+00	0	43	0	163577856	58	4287
2026-01-29 22:16:56.66	49.38	14.85	-43.4	-44.9	18.0	0.00e+00	0	43	0	165675008	58	4275
2026-01-29 22:16:57.66	49.55	14.91	-43.5	-45.0	17.7	0.00e+00	0	43	0	167772160	58	4335
2026-01-29 22:16:58.66	49.72	14.98	-43.6	-45.2	17.8	0.00e+00	0	43	0	169869312	58	4420
2026-01-29 22:16:59.66	49.89	15.04	-43.6	-45.2	17.6	0.00e+00	0	43	0	171966464	58	4432
2026-01-29 22:17:00.66	50.06	15.10	-43.7	-45.4	17.5	0.00e+00	0	43	0	173015040	58	4503
2026-01-29 22:17:01.66	50.23	15.17	-43.6	-45.2	17.6	0.00e+00	0	43	0	175112192	58	4409
2026-01-29 22:17:02.66	50.40	15.23	-43.5	-45.1	17.8	0.00e+00	0	43	0	177209344	58	4347
2026-01-29 22:17:03.66	50.57	15.29	-43.4	-44.9	17.9	0.00e+00	0	43	0	179306496	58	4266
2026-01-29 22:17:04.66	50.75	15.36	-43.3	-44.8	18.1	0.00e+00	0	43	0	181403648	58	4197
2026-01-29 22:17:05.66	50.92	15.42	-43.1	-44.6	18.2	0.00e+00	0	43	0	182452224	58	4108
2026-01-29 22:17:06.66	51.10	15.48	-42.9	-44.4	18.4	0.00e+00	0	43	0	184549376	57	4254
2026-01-29 22:17:07.66	51.27	15.55	-43.0	-44.5	18.3	0.00e+00	0	43	0	186646528	57	4316
2026-01-29 22:17:08.66	51.45	15.61	-43.2	-44.7	18.1	0.00e+00	0	43	0	188743680	57	4399
2026-01-29 22:17:09.66	51.63	15.67	-43.0	-44.5	18.3	0.00e+00	0	43	0	190840832	57	4312
2026-01-29 22:17:10.66	51.80	15.73	-43.1	-44.5	18.3	0.00e+00	0	43	0	191889408	57	4325
2026-01-29 22:17:11.65	51.98	15.80	-43.0	-44.5	18.3	0.00e+00	0	43	0	193986560	57	4295
2026-01-29 22:17:12.66	52.16	15.86	-42.9	-44.3	18.5	0.00e+00	0	43	0	196083712	57	4215
2026-01-29 22:17:13.65	52.34	15.92	-42.9	-44.3	18.5	0.00e+00	0	43	0	198180864	57	4231
2026-01-29 22:17:14.65	52.52	15.98	-42.8	-44.2	18.5	0.00e+00	0	43	0	199229440	57	4191
2026-01-29 22:17:15.66	52.70	16.05	-43.0	-44.4	18.4	0.00e+00	0	43	0	201326592	57	4268
2026-01-29 22:17:16.66	52.89	16.11	-43.1	-44.6	18.2	0.00e+00	0	43	0	203423744	57	4344
2026-01-29 22:17:17.65	53.07	16.17	-42.9	-44.3	18.5	0.00e+00	0	43	0	205520896	57	4211
2026-01-29 22:17:18.65	53.25	16.23	-43.2	-44.7	18.1	0.00e+00	0	43	0	207618048	57	4434
2026-01-29 22:17:19.65	53.43	16.29	-43.1	-44.5	18.2	0.00e+00	0	43	0	208666624	57	4336
2026-01-29 22:17:20.65	53.62	16.35	-43.2	-44.7	18.2	0.00e+00	0	43	0	210763776	57	4406
2026-01-29 22:17:21.65	53.81	16.42	-43.2	-44.7	18.1	0.00e+00	0	43	0	212860928	57	4439
2026-01-29 22:17:22.65	53.99	16.48	-43.1	-44.6	18.2	0.00e+00	0	43	0	214958080	57	4360
2026-01-29 22:17:23.65	54.18	16.54	-43.0	-44.5	18.3	0.00e+00	0	43	0	217055232	57	4300
2026-01-29 22:17:24.65	54.37	16.60	-43.0	-44.5	18.3	0.00e+00	0	43	0	218103808	57	4303
2026-01-29 22:17:25.65	54.56	16.66	-42.9	-44.3	18.5	0.00e+00	0	43	0	220200960	57	4200
2026-01-29 22:17:26.65	54.75	16.72	-42.8	-44.2	18.6	0.00e+00	0	43	0	222298112	57	4167
2026-01-29 22:17:27.66	54.94	16.78	-42.9	-44.4	18.5	0.00e+00	0	43	0	224395264	57	4244
2026-01-29 22:17:28.66	55.13	16.84	-43.0	-44.4	18.5	0.00e+00	0	43	0	225443840	57	4259
2026-01-29 22:17:29.66	55.32	16.90	-43.2	-44.7	18.2	0.00e+00	0	43	0	227540992	57	4392
2026-01-29 22:17:30.66	55.51	16.96	-43.3	-44.9	18.0	0.00e+00	0	43	0	229638144	57	4509
2026-01-29 22:17:31.66	55.71	17.02	-43.4	-45.0	17.9	0.00e+00	0	43	0	231735296	57	4547
2026-01-29 22:17:32.66	55.90	17.08	-43.4	-44.9	18.0	0.00e+00	0	43	0	233832448	57	4522
2026-01-29 22:17:33.66	56.09	17.14	-43.4	-44.9	17.8	0.00e+00	0	43	0	234881024	57	4536
2026-01-29 22:17:34.66	56.29	17.20	-43.4	-44.9	17.9	0.00e+00	0	43	0	236978176	57	4507
2026-01-29 22:17:35.66	56.49	17.26	-43.1	-44.5	18.3	0.00e+00	0	43	0	239075328	57	4340
2026-01-29 22:17:36.67	56.69	17.32	-43.1	-44.5	18.3	0.00e+00	0	43	0	241172480	57	4339
2026-01-29 22:17:37.67	56.88	17.38	-43.2	-44.7	18.2	0.00e+00	0	43	0	243269632	57	4394
2026-01-29 22:17:38.67	57.08	17.44	-43.4	-44.9	18.0	0.00e+00	0	43	0	244318208	57	4503
2026-01-29 22:17:39.67	57.28	17.50	-43.4	-44.9	18.0	0.00e+00	0	43	0	246415360	57	4511
2026-01-29 22:17:40.67	57.48	17.56	-43.5	-45.1	17.8	0.00e+00	0	43	0	248512512	57	4626
2026-01-29 22:17:41.67	57.68	17.61	-43.7	-45.4	17.6	0.00e+00	0	43	0	250609664	58	4500
2026-01-29 22:17:42.67	57.88	17.67	-43.8	-45.5	17.5	0.00e+00	0	43	0	252706816	58	4561
2026-01-29 22:17:43.67	58.09	17.73	-43.8	-45.5	17.5	0.00e+00	0	43	0	253755392	58	4567
2026-01-29 22:17:44.67	58.29	17.79	-43.8	-45.4	17.4	0.00e+00	0	43	0	255852544	58	4543
2026-01-29 22:17:45.67	58.49	17.84	-43.9	-45.5	17.4	0.00e+00	0	43	0	257949696	58	4562
2026-01-29 22:17:46.67	58.70	17.90	-43.9	-45.6	17.4	0.00e+00	0	43	0	260046848	58	4600
2026-01-29 22:17:47.67	58.90	17.96	-43.9	-45.5	17.3	0.00e+00	0	44	0	261095424	58	4598
2026-01-29 22:17:48.67	59.11	18.01	-44.0	-45.7	17.2	0.00e+00	0	43	0	263192576	58	4682
2026-01-29 22:17:49.67	59.32	18.07	-44.4	-46.2	16.7	0.00e+00	0	43	0	265289728	59	4680
2026-01-29 22:17:50.67	59.52	18.13	-44.4	-46.2	16.7	0.00e+00	0	43	0	267386880	59	4699
2026-01-29 22:17:51.67	59.73	18.18	-44.3	-46.1	16.8	0.00e+00	0	43	0	269484032	59	4650
2026-01-29 22:17:52.67	59.94	18.24	-44.4	-46.3	16.7	0.00e+00	0	43	0	270532608	59	4706
2026-01-29 22:17:53.67	60.15	18.30	-44.4	-46.3	16.6	0.00e+00	0	43	0	272629760	59	4741
2026-01-29 22:17:54.68	60.36	18.35	-44.5	-46.4	16.5	0.00e+00	0	43	0	274726912	59	4803
2026-01-29 22:17:55.68	60.58	18.41	-44.5	-46.4	16.5	0.00e+00	0	43	0	276824064	59	4813
2026-01-29 22:17:56.68	60.79	18.46	-44.8	-46.8	16.2	0.00e+00	0	43	0	278921216	60	4754
2026-01-29 22:17:57.68	61.00	18.52	-45.0	-47.1	15.8	0.00e+00	0	43	0	279969792	60	4923
2026-01-29 22:17:58.68	61.21	18.57	-44.8	-46.8	16.2	0.00e+00	0	44	0	282066944	60	4740
2026-01-29 22:17:59.68	61.43	18.62	-44.8	-46.8	16.2	0.00e+00	0	44	0	284164096	60	4712
2026-01-29 22:18:00.68	61.64	18.68	-44.7	-46.7	16.3	0.00e+00	0	43	0	286261248	60	4687
2026-01-29 22:18:01.68	61.86	18.73	-44.7	-46.7	16.4	0.00e+00	0	43	0	287309824	60	4669
2026-01-29 22:18:02.68	62.08	18.78	-44.7	-46.6	16.4	0.00e+00	0	43	0	289406976	60	4621
2026-01-29 22:18:03.68	62.29	18.84	-44.8	-46.8	16.2	0.00e+00	0	43	0	291504128	60	4706
2026-01-29 22:18:04.69	62.51	18.89	-44.9	-47.0	16.1	0.00e+00	0	43	0	293601280	60	4815
2026-01-29 22:18:05.69	62.73	18.94	-44.9	-47.0	16.0	0.00e+00	0	43	0	295698432	60	4836
2026-01-29 22:18:06.69	62.95	18.99	-44.8	-46.9	16.0	0.00e+00	0	44	0	296747008	60	4774
2026-01-29 22:18:07.69	63.17	19.05	-44.6	-46.6	16.4	0.00e+00	0	43	0	298844160	60	4625
2026-01-29 22:18:08.69	63.39	19.10	-44.6	-46.5	16.5	0.00e+00	0	43	0	300941312	60	4583
2026-01-29 22:18:09.69	63.62	19.15	-44.5	-46.5	16.6	0.00e+00	0	43	0	303038464	60	4550
2026-01-29 22:18:10.69	63.84	19.20	-44.3	-46.2	16.9	0.00e+00	0	43	0	305135616	60	4404
2026-01-29 22:18:11.69	64.06	19.25	-44.4	-46.3	16.7	0.00e+00	0	43	0	306184192	60	4453
2026-01-29 22:18:12.69	64.29	19.30	-44.4	-46.3	16.7	0.00e+00	0	44	0	308281344	60	4476
2026-01-29 22:18:13.69	64.51	19.35	-44.6	-46.6	16.5	0.00e+00	0	44	0	310378496	60	4603
2026-01-29 22:18:14.69	64.74	19.40	-44.3	-46.2	16.9	0.00e+00	0	43	0	312475648	60	4395
2026-01-29 22:18:15.69	64.96	19.45	-44.0	-45.7	17.3	0.00e+00	0	43	0	314572800	60	4157
2026-01-29 22:18:16.69	65.19	19.50	-43.8	-45.3	17.6	0.00e+00	0	43	0	315621376	59	4232
2026-01-29 22:18:17.69	65.42	19.55	-43.8	-45.3	17.6	0.00e+00	0	43	0	317718528	59	4228
2026-01-29 22:18:18.69	65.64	19.59	-43.8	-45.4	17.6	0.00e+00	0	43	0	319815680	59	4244
2026-01-29 22:18:19.69	65.87	19.64	-43.7	-45.2	17.7	0.00e+00	0	43	0	321912832	58	4426
2026-01-29 22:18:20.69	66.10	19.69	-43.9	-45.6	17.4	0.00e+00	0	44	0	322961408	58	4607
2026-01-29 22:18:21.69	66.33	19.74	-43.9	-45.6	17.4	0.00e+00	0	43	0	325058560	58	4609
2026-01-29 22:18:22.69	66.57	19.78	-44.0	-45.7	17.2	0.00e+00	0	43	0	327155712	58	4695
2026-01-29 22:18:23.69	66.80	19.83	-44.0	-45.7	17.2	0.00e+00	0	44	0	329252864	58	4664
2026-01-29 22:18:24.69	67.03	19.87	-43.6	-45.2	17.7	0.00e+00	0	43	0	331350016	58	4401
2026-01-29 22:18:25.69	67.26	19.92	-43.6	-45.1	17.8	0.00e+00	0	44	0	332398592	58	4375
2026-01-29 22:18:26.69	67.50	19.97	-43.4	-44.8	18.1	0.00e+00	0	44	0	334495744	58	4241
2026-01-29 22:18:27.69	67.73	20.01	-43.5	-45.0	17.8	0.00e+00	0	43	0	336592896	58	4302
2026-01-29 22:18:28.69	67.97	20.05	-43.5	-45.1	17.8	0.00e+00	0	43	0	338690048	58	4350
2026-01-29 22:18:29.69	68.20	20.10	-43.7	-45.3	17.6	0.00e+00	0	43	0	340787200	58	4481
2026-01-29 22:18:30.70	68.44	20.14	-43.8	-45.5	17.5	0.00e+00	0	43	0	341835776	58	4552
2026-01-29 22:18:31.70	68.68	20.19	-43.7	-45.3	17.7	0.00e+00	0	43	0	343932928	58	4463
2026-01-29 22:18:32.70	68.92	20.23	-43.6	-45.1	17.8	0.00e+00	0	43	0	346030080	58	4372
2026-01-29 22:18:33.70	69.15	20.27	-43.2	-44.7	18.2	0.00e+00	0	43	0	348127232	58	4160
2026-01-29 22:18:34.70	69.39	20.31	-42.9	-44.2	18.6	0.00e+00	0	44	0	350224384	57	4185
2026-01-29 22:18:35.70	69.63	20.35	-42.8	-44.1	18.7	0.00e+00	0	43	0	351272960	57	4134
2026-01-29 22:18:36.71	69.88	20.40	-42.8	-44.2	18.7	0.00e+00	0	43	0	353370112	57	4166
2026-01-29 22:18:37.70	70.12	20.44	-42.9	-44.3	18.5	0.00e+00	0	44	0	355467264	57	4234
2026-01-29 22:18:38.71	70.36	20.48	-43.1	-44.5	18.4	0.00e+00	0	43	0	357564416	57	4316
2026-01-29 22:18:39.71	70.60	20.52	-43.0	-44.4	18.5	0.00e+00	0	43	0	359661568	57	4274
2026-01-29 22:18:40.71	70.84	20.56	-42.9	-44.2	18.6	0.00e+00	0	43	0	360710144	57	4186
2026-01-29 22:18:41.70	71.09	20.59	-43.0	-44.4	18.5	0.00e+00	0	43	0	362807296	57	4260
2026-01-29 22:18:42.70	71.33	20.63	-43.2	-44.6	18.2	0.00e+00	0	43	0	364904448	57	4381
2026-01-29 22:18:43.71	71.58	20.67	-43.2	-44.7	18.2	0.00e+00	0	43	0	367001600	57	4412
2026-01-29 22:18:44.71	71.82	20.71	-43.4	-45.0	17.9	0.00e+00	0	44	0	368050176	57	4568
2026-01-29 22:18:45.71	72.07	20.74	-43.5	-45.1	17.8	0.00e+00	0	43	0	370147328	57	4629
2026-01-29 22:18:46.71	72.31	20.78	-43.3	-44.8	18.0	0.00e+00	0	43	0	372244480	57	4481
2026-01-29 22:18:47.71	72.56	20.82	-43.1	-44.5	18.4	0.00e+00	0	43	0	374341632	57	4321
2026-01-29 22:18:48.71	72.81	20.85	-42.9	-44.2	18.6	0.00e+00	0	43	0	376438784	57	4188
2026-01-29 22:18:49.71	73.06	20.89	-42.8	-44.2	18.7	0.00e+00	0	43	0	377487360	57	4153
2026-01-29 22:18:50.71	73.31	20.92	-43.1	-44.6	18.3	0.00e+00	0	43	0	379584512	57	4355
2026-01-29 22:18:51.71	73.56	20.96	-43.0	-44.4	18.5	0.00e+00	0	43	0	381681664	57	4269
2026-01-29 22:18:52.71	73.81	20.99	-42.8	-44.2	18.7	0.00e+00	0	43	0	383778816	57	4162
2026-01-29 22:18:53.71	74.06	21.02	-42.8	-44.2	18.7	0.00e+00	0	43	0	385875968	57	4169
2026-01-29 22:18:54.71	74.31	21.06	-42.7	-44.0	18.9	0.00e+00	0	43	0	386924544	57	4069
2026-01-29 22:18:55.70	74.56	21.09	-42.7	-44.0	18.8	0.00e+00	0	44	0	389021696	57	4096
2026-01-29 22:18:56.69	74.81	21.12	-42.9	-44.2	18.6	0.00e+00	0	43	0	391118848	57	4193
2026-01-29 22:18:57.69	75.06	21.15	-43.1	-44.5	18.4	0.00e+00	0	43	0	393216000	57	4320
2026-01-29 22:18:58.69	75.31	21.18	-43.2	-44.6	18.3	0.00e+00	0	43	0	394264576	57	4361
2026-01-29 22:18:59.69	75.56	21.21	-43.3	-44.8	18.1	0.00e+00	0	44	0	396361728	57	4444
2026-01-29 22:19:00.69	75.82	21.24	-43.1	-44.6	18.3	0.00e+00	0	44	0	398458880	57	4347
2026-01-29 22:19:01.70	76.07	21.27	-42.7	-44.0	18.8	0.00e+00	0	44	0	400556032	57	4094
2026-01-29 22:19:02.70	76.33	21.30	-42.7	-44.0	18.9	0.00e+00	0	43	0	402653184	57	4077
2026-01-29 22:19:03.70	76.59	21.33	-42.8	-44.2	18.8	0.00e+00	0	43	0	403701760	57	4147
2026-01-29 22:19:04.70	76.84	21.35	-43.0	-44.4	18.3	0.00e+00	0	43	0	405798912	57	4280
2026-01-29 22:19:05.69	77.09	21.38	-43.3	-44.8	18.1	0.00e+00	0	43	0	407896064	57	4493
2026-01-29 22:19:06.69	77.35	21.41	-43.6	-45.1	17.8	0.00e+00	0	43	0	409993216	57	4650
2026-01-29 22:19:07.70	77.61	21.43	-43.6	-45.2	17.7	0.00e+00	0	43	0	412090368	58	4439
2026-01-29 22:19:08.70	77.87	21.46	-43.4	-44.8	18.1	0.00e+00	0	44	0	413138944	58	4240
2026-01-29 22:19:09.69	78.12	21.48	-43.2	-44.7	18.2	0.00e+00	0	44	0	415236096	58	4159
2026-01-29 22:19:10.69	78.38	21.51	-43.0	-44.5	18.4	0.00e+00	0	43	0	417333248	58	4062
2026-01-29 22:19:11.69	78.64	21.53	-43.1	-44.5	18.4	0.00e+00	0	43	0	419430400	57	4326
2026-01-29 22:19:12.69	78.90	21.55	-43.4	-44.9	18.0	0.00e+00	0	43	0	421527552	57	4537
2026-01-29 22:19:13.70	79.16	21.58	-43.7	-45.3	17.7	0.00e+00	0	43	0	422576128	58	4444
2026-01-29 22:19:14.69	79.42	21.60	-43.8	-45.4	17.6	0.00e+00	0	43	0	424673280	58	4533
2026-01-29 22:19:15.69	79.68	21.62	-43.7	-45.3	17.6	0.00e+00	0	43	0	426770432	58	4489
2026-01-29 22:19:16.69	79.94	21.64	-43.4	-44.9	18.1	0.00e+00	0	43	0	428867584	58	4264
2026-01-29 22:19:17.69	80.20	21.66	-43.1	-44.5	18.4	0.00e+00	0	44	0	429916160	58	4079
2026-01-29 22:19:18.69	80.46	21.68	-43.1	-44.5	18.4	0.00e+00	0	43	0	432013312	58	4076
2026-01-29 22:19:19.69	80.72	21.70	-43.3	-44.8	18.2	0.00e+00	0	43	0	434110464	58	4194
2026-01-29 22:19:20.68	80.98	21.72	-43.4	-44.9	18.0	0.00e+00	0	43	0	436207616	58	4280
2026-01-29 22:19:21.68	81.25	21.73	-43.4	-45.0	18.0	0.00e+00	0	43	0	438304768	58	4292
2026-01-29 22:19:22.69	81.51	21.75	-43.3	-44.8	18.1	0.00e+00	0	43	0	439353344	58	4212
2026-01-29 22:19:23.69	81.77	21.77	-43.0	-44.5	18.4	0.00e+00	0	43	0	441450496	57	4311
2026-01-29 22:19:24.69	82.04	21.78	-42.9	-44.4	18.5	0.00e+00	0	43	0	443547648	57	4252
2026-01-29 22:19:25.69	82.30	21.80	-42.9	-44.4	18.5	0.00e+00	0	43	0	445644800	57	4250
2026-01-29 22:19:26.69	82.56	21.81	-43.1	-44.6	18.3	0.00e+00	0	43	0	446693376	57	4381
2026-01-29 22:19:27.69	82.83	21.83	-43.3	-44.9	18.1	0.00e+00	0	43	0	448790528	57	4512
2026-01-29 22:19:28.69	83.09	21.84	-43.5	-45.1	17.8	0.00e+00	0	43	0	450887680	57	4623
2026-01-29 22:19:29.68	83.35	21.85	-43.4	-45.0	17.9	0.00e+00	0	44	0	452984832	57	4582
2026-01-29 22:19:30.68	83.62	21.87	-43.1	-44.6	18.3	0.00e+00	0	44	0	455081984	57	4389
2026-01-29 22:19:31.68	83.88	21.88	-43.1	-44.6	18.3	0.00e+00	0	44	0	456130560	57	4349
2026-01-29 22:19:32.68	84.15	21.89	-43.1	-44.7	18.3	0.00e+00	0	43	0	458227712	57	4397
2026-01-29 22:19:33.68	84.41	21.90	-43.3	-44.9	18.1	0.00e+00	0	43	0	460324864	57	4519
2026-01-29 22:19:34.68	84.68	21.91	-43.8	-45.5	17.4	0.00e+00	0	44	0	462422016	58	4592
2026-01-29 22:19:35.68	84.94	21.92	-44.2	-46.0	17.0	0.00e+00	0	43	0	464519168	58	4843
2026-01-29 22:19:36.68	85.21	21.93	-44.3	-46.2	16.8	0.00e+00	0	44	0	465567744	59	4696
2026-01-29 22:19:37.68	85.47	21.94	-44.3	-46.1	16.9	0.00e+00	0	44	0	467664896	59	4641
2026-01-29 22:19:38.68	85.74	21.94	-44.1	-45.9	17.0	0.00e+00	0	43	0	469762048	59	4494
2026-01-29 22:19:39.68	86.01	21.95	-44.1	-45.9	17.1	0.00e+00	0	44	0	471859200	59	4494
2026-01-29 22:19:40.68	86.27	21.96	-44.0	-45.8	17.2	0.00e+00	0	43	0	473956352	59	4445
2026-01-29 22:19:41.68	86.54	21.96	-43.6	-45.3	17.7	0.00e+00	0	44	0	475004928	59	4199
2026-01-29 22:19:42.68	86.81	21.97	-43.5	-45.1	17.9	0.00e+00	0	44	0	477102080	58	4363
2026-01-29 22:19:43.68	87.07	21.97	-43.3	-44.9	18.1	0.00e+00	0	44	0	479199232	58	4248
2026-01-29 22:19:44.68	87.34	21.97	-43.2	-44.7	18.2	0.00e+00	0	43	0	481296384	58	4177
2026-01-29 22:19:45.68	87.61	21.98	-43.3	-44.9	18.1	0.00e+00	0	43	0	482344960	58	4249
2026-01-29 22:19:46.68	87.87	21.98	-43.5	-45.2	17.7	0.00e+00	0	43	0	484442112	58	4405
2026-01-29 22:19:47.68	88.14	21.98	-43.6	-45.2	17.7	0.00e+00	0	43	0	486539264	58	4428
2026-01-29 22:19:48.69	88.41	21.98	-43.7	-45.3	17.6	0.00e+00	0	43	0	488636416	58	4466
2026-01-29 22:19:49.69	88.67	21.98	-43.8	-45.5	17.5	0.00e+00	0	43	0	490733568	58	4555
2026-01-29 22:19:50.69	88.94	21.98	-43.7	-45.3	17.6	0.00e+00	0	43	0	491782144	58	4488
2026-01-29 22:19:51.69	89.21	21.98	-43.5	-45.1	17.8	0.00e+00	0	43	0	493879296	58	4373
2026-01-29 22:19:52.69	89.47	21.98	-43.4	-44.9	18.0	0.00e+00	0	43	0	495976448	58	4287
2026-01-29 22:19:53.69	89.74	21.98	-43.2	-44.8	18.2	0.00e+00	0	43	0	498073600	58	4197
2026-01-29 22:19:54.69	90.01	21.98	-43.1	-44.6	18.3	0.00e+00	0	43	0	500170752	58	4132
2026-01-29 22:19:55.69	90.27	21.97	-43.2	-44.6	18.3	0.00e+00	0	43	0	501219328	58	4125
2026-01-29 22:19:56.69	90.54	21.97	-43.1	-44.6	18.3	0.00e+00	0	44	0	503316480	58	4108
2026-01-29 22:19:57.69	90.81	21.97	-43.0	-44.4	18.5	0.00e+00	0	44	0	505413632	58	4032
2026-01-29 22:19:58.69	91.07	21.96	-42.9	-44.3	18.6	0.00e+00	0	43	0	507510784	57	4197
2026-01-29 22:19:59.69	91.34	21.95	-42.9	-44.3	18.5	0.00e+00	0	43	0	509607936	57	4233
2026-01-29 22:20:00.69	91.61	21.95	-42.8	-44.2	18.7	0.00e+00	0	43	0	510656512	57	4155
2026-01-29 22:20:01.69	91.87	21.94	-42.8	-44.2	18.7	0.00e+00	0	43	0	512753664	57	4176
2026-01-29 22:20:02.69	92.14	21.93	-43.0	-44.5	18.5	0.00e+00	0	43	0	514850816	57	4292
2026-01-29 22:20:03.70	92.41	21.93	-43.0	-44.5	18.5	0.00e+00	0	44	0	516947968	57	4314
2026-01-29 22:20:04.70	92.67	21.92	-43.1	-44.6	18.3	0.00e+00	0	43	0	519045120	57	4366
2026-01-29 22:20:05.70	92.94	21.91	-43.1	-44.6	18.3	0.00e+00	0	43	0	520093696	57	4387
2026-01-29 22:20:06.70	93.20	21.90	-43.1	-44.5	18.4	0.00e+00	0	43	0	522190848	57	4328
2026-01-29 22:20:07.70	93.47	21.89	-43.0	-44.4	18.4	0.00e+00	0	43	0	524288000	57	4289
2026-01-29 22:20:08.70	93.74	21.88	-42.9	-44.2	18.7	0.00e+00	0	43	0	526385152	57	4181
2026-01-29 22:20:09.70	94.00	21.86	-42.9	-44.3	18.6	0.00e+00	0	43	0	527433728	57	4210
2026-01-29 22:20:10.70	94.26	21.85	-43.1	-44.6	18.4	0.00e+00	0	43	0	529530880	57	4342
2026-01-29 22:20:11.70	94.53	21.84	-43.3	-44.8	18.1	0.00e+00	0	43	0	531628032	57	4482
2026-01-29 22:20:12.70	94.79	21.82	-43.3	-44.8	18.1	0.00e+00	0	43	0	533725184	57	4476
2026-01-29 22:20:13.70	95.06	21.81	-43.3	-44.8	18.1	0.00e+00	0	43	0	535822336	57	4481
2026-01-29 22:20:14.70	95.32	21.80	-43.3	-44.7	18.2	0.00e+00	0	43	0	536870912	57	4435
2026-01-29 22:20:15.70	95.59	21.78	-43.0	-44.4	18.5	0.00e+00	0	43	0	538968064	57	4265
2026-01-29 22:20:16.70	95.85	21.76	-43.1	-44.5	18.4	0.00e+00	0	43	0	541065216	57	4305
2026-01-29 22:20:17.70	96.11	21.75	-43.3	-44.8	18.1	0.00e+00	0	44	0	543162368	57	4487
2026-01-29 22:20:18.70	96.37	21.73	-43.5	-45.0	17.9	0.00e+00	0	43	0	545259520	57	4559
2026-01-29 22:20:19.70	96.64	21.71	-43.5	-45.0	17.9	0.00e+00	0	44	0	546308096	57	4583
2026-01-29 22:20:20.70	96.90	21.69	-43.7	-45.3	17.7	0.00e+00	0	43	0	548405248	58	4454
2026-01-29 22:20:21.70	97.16	21.67	-43.5	-45.0	18.0	0.00e+00	0	44	0	550502400	58	4310
2026-01-29 22:20:22.70	97.42	21.65	-43.3	-44.8	18.2	0.00e+00	0	43	0	552599552	58	4194
2026-01-29 22:20:23.70	97.68	21.63	-42.9	-44.3	18.6	0.00e+00	0	44	0	553648128	57	4228
2026-01-29 22:20:24.70	97.95	21.61	-42.9	-44.2	18.7	0.00e+00	0	43	0	555745280	57	4190
2026-01-29 22:20:25.70	98.21	21.59	-42.8	-44.1	18.7	0.00e+00	0	43	0	557842432	57	4125
2026-01-29 22:20:26.70	98.47	21.57	-42.9	-44.3	18.6	0.00e+00	0	43	0	559939584	57	4195
2026-01-29 22:20:27.70	98.73	21.55	-43.0	-44.5	18.4	0.00e+00	0	43	0	562036736	57	4295
2026-01-29 22:20:28.71	98.99	21.52	-43.0	-44.5	18.4	0.00e+00	0	44	0	563085312	57	4306
2026-01-29 22:20:29.71	99.25	21.50	-43.0	-44.4	18.6	0.00e+00	0	43	0	565182464	57	4253
2026-01-29 22:20:30.71	99.51	21.48	-42.9	-44.2	18.7	0.00e+00	0	43	0	567279616	57	4192
2026-01-29 22:20:31.71	99.76	21.45	-42.7	-44.0	18.9	0.00e+00	0	43	0	569376768	57	4084
2026-01-29 22:20:32.71	100.02	21.43	-42.5	-43.8	19.1	0.00e+00	0	43	0	571473920	57	3980
2026-01-29 22:20:33.71	100.28	21.40	-42.4	-43.7	19.1	0.00e+00	0	43	0	572522496	56	4189
2026-01-29 22:20:34.71	100.54	21.37	-42.5	-43.8	19.1	0.00e+00	0	43	0	574619648	56	4209
2026-01-29 22:20:35.71	100.79	21.35	-42.5	-43.8	19.1	0.00e+00	0	43	0	576716800	56	4197
2026-01-29 22:20:36.71	101.05	21.32	-42.7	-44.0	18.9	0.00e+00	0	43	0	578813952	56	4316
2026-01-29 22:20:37.71	101.31	21.29	-42.8	-44.2	18.7	0.00e+00	0	43	0	580911104	56	4420
2026-01-29 22:20:38.71	101.56	21.26	-42.8	-44.1	18.7	0.00e+00	0	43	0	581959680	56	4379
2026-01-29 22:20:39.71	101.82	21.23	-42.6	-44.0	18.9	0.00e+00	0	43	0	584056832	56	4320
2026-01-29 22:20:40.71	102.07	21.20	-42.6	-43.9	19.0	0.00e+00	0	43	0	586153984	56	4269
2026-01-29 22:20:41.71	102.32	21.17	-42.4	-43.7	19.1	0.00e+00	0	43	0	588251136	56	4175
2026-01-29 22:20:42.71	102.58	21.14	-42.5	-43.8	19.0	0.00e+00	0	43	0	589299712	56	4220
2026-01-29 22:20:43.71	102.83	21.11	-42.7	-44.0	18.9	0.00e+00	0	43	0	591396864	56	4327
2026-01-29 22:20:44.71	103.08	21.08	-42.8	-44.3	18.7	0.00e+00	0	44	0	593494016	56	4452
2026-01-29 22:20:45.71	103.34	21.05	-43.1	-44.6	18.4	0.00e+00	0	43	0	595591168	56	4623
2026-01-29 22:20:46.71	103.59	21.01	-43.0	-44.5	18.5	0.00e+00	0	43	0	597688320	56	4562
2026-01-29 22:20:47.71	103.84	20.98	-43.0	-44.4	18.4	0.00e+00	0	44	0	598736896	56	4533
2026-01-29 22:20:48.71	104.09	20.95	-42.9	-44.3	18.5	0.00e+00	0	43	0	600834048	56	4481
2026-01-29 22:20:49.71	104.34	20.91	-42.7	-44.1	18.8	0.00e+00	0	43	0	602931200	56	4387
2026-01-29 22:20:50.71	104.59	20.88	-42.7	-44.0	18.8	0.00e+00	0	43	0	605028352	56	4338
2026-01-29 22:20:51.71	104.84	20.84	-42.7	-44.0	18.9	0.00e+00	0	43	0	607125504	56	4340
2026-01-29 22:20:52.71	105.08	20.81	-42.5	-43.8	19.0	0.00e+00	0	43	0	608174080	56	4220
2026-01-29 22:20:53.71	105.33	20.77	-42.4	-43.7	19.2	0.00e+00	0	44	0	610271232	56	4165
2026-01-29 22:20:54.71	105.58	20.73	-42.2	-43.5	19.3	0.00e+00	0	44	0	612368384	56	4078
2026-01-29 22:20:55.71	105.83	20.70	-42.2	-43.5	19.4	0.00e+00	0	43	0	614465536	56	4075
2026-01-29 22:20:56.70	106.07	20.66	-42.2	-43.4	19.3	0.00e+00	0	43	0	615514112	56	4051
2026-01-29 22:20:57.70	106.31	20.62	-42.3	-43.6	19.2	0.00e+00	0	43	0	617611264	56	4111
2026-01-29 22:20:58.70	106.56	20.58	-42.4	-43.7	19.1	0.00e+00	0	44	0	619708416	56	4192
2026-01-29 22:20:59.69	106.80	20.54	-42.5	-43.8	19.0	0.00e+00	0	44	0	621805568	56	4221
2026-01-29 22:21:00.70	107.05	20.50	-42.6	-44.0	18.9	0.00e+00	0	44	0	623902720	56	4310
2026-01-29 22:21:01.70	107.29	20.46	-42.6	-44.0	18.9	0.00e+00	0	44	0	624951296	56	4301
2026-01-29 22:21:02.70	107.53	20.42	-42.6	-44.0	18.9	0.00e+00	0	43	0	627048448	56	4316
2026-01-29 22:21:03.70	107.77	20.38	-42.6	-44.0	18.9	0.00e+00	0	44	0	629145600	56	4313
2026-01-29 22:21:04.70	108.01	20.34	-42.5	-43.8	19.0	0.00e+00	0	43	0	631242752	56	4227
2026-01-29 22:21:05.70	108.25	20.30	-42.5	-43.9	18.9	0.00e+00	0	44	0	633339904	56	4266
2026-01-29 22:21:06.70	108.49	20.26	-42.5	-43.8	19.0	0.00e+00	0	43	0	634388480	56	4234
2026-01-29 22:21:07.71	108.74	20.21	-42.7	-44.1	18.7	0.00e+00	0	43	0	636485632	56	4388
2026-01-29 22:21:08.71	108.97	20.17	-43.0	-44.5	18.5	0.00e+00	0	44	0	638582784	56	4550
2026-01-29 22:21:09.71	109.21	20.13	-43.2	-44.7	18.3	0.00e+00	0	44	0	640679936	57	4408
2026-01-29 22:21:10.71	109.45	20.08	-43.2	-44.6	18.3	0.00e+00	0	43	0	642777088	57	4378
2026-01-29 22:21:11.72	109.69	20.04	-43.0	-44.4	18.5	0.00e+00	0	44	0	643825664	57	4251
2026-01-29 22:21:12.72	109.92	19.99	-42.7	-44.1	18.8	0.00e+00	0	44	0	645922816	57	4119
2026-01-29 22:21:13.72	110.16	19.95	-42.5	-43.8	19.0	0.00e+00	0	43	0	648019968	56	4196
2026-01-29 22:21:14.73	110.40	19.90	-42.3	-43.6	19.2	0.00e+00	0	43	0	650117120	56	4127
2026-01-29 22:21:15.73	110.63	19.86	-42.4	-43.7	19.1	0.00e+00	0	44	0	651165696	56	4158
2026-01-29 22:21:16.73	110.86	19.81	-42.3	-43.6	19.2	0.00e+00	0	43	0	653262848	56	4139
2026-01-29 22:21:17.73	111.10	19.76	-42.4	-43.7	19.2	0.00e+00	0	44	0	655360000	56	4190
2026-01-29 22:21:18.74	111.33	19.71	-42.8	-44.2	18.7	0.00e+00	0	44	0	657457152	56	4399
2026-01-29 22:21:19.74	111.56	19.67	-43.2	-44.7	18.2	0.00e+00	0	44	0	659554304	56	4676
2026-01-29 22:21:20.74	111.79	19.62	-43.4	-45.0	17.9	0.00e+00	0	43	0	661651456	57	4576
2026-01-29 22:21:21.75	112.02	19.57	-43.7	-45.4	17.6	0.00e+00	0	43	0	662700032	58	4529
2026-01-29 22:21:22.75	112.25	19.52	-44.3	-46.2	16.8	0.00e+00	0	44	0	664797184	59	4698
2026-01-29 22:21:23.75	112.48	19.47	-44.3	-46.2	16.8	0.00e+00	0	44	0	666894336	59	4670
2026-01-29 22:21:24.76	112.71	19.42	-44.4	-46.3	16.8	0.00e+00	0	44	0	668991488	59	4714
2026-01-29 22:21:25.76	112.94	19.37	-44.2	-46.0	17.0	0.00e+00	0	43	0	670040064	59	4576
2026-01-29 22:21:26.76	113.16	19.32	-43.9	-45.6	17.4	0.00e+00	0	43	0	672137216	59	4344
2026-01-29 22:21:27.76	113.39	19.27	-43.8	-45.5	17.5	0.00e+00	0	44	0	674234368	59	4294
2026-01-29 22:21:28.76	113.61	19.22	-43.9	-45.6	17.4	0.00e+00	0	43	0	676331520	59	4343
2026-01-29 22:21:29.76	113.84	19.17	-43.9	-45.6	17.4	0.00e+00	0	44	0	678428672	59	4370
2026-01-29 22:21:30.77	114.06	19.12	-43.8	-45.5	17.5	0.00e+00	0	44	0	679477248	59	4294
2026-01-29 22:21:31.77	114.28	19.07	-43.8	-45.4	17.5	0.00e+00	0	43	0	681574400	59	4289
2026-01-29 22:21:32.78	114.51	19.02	-43.6	-45.2	17.7	0.00e+00	0	43	0	683671552	59	4174
2026-01-29 22:21:33.78	114.73	18.96	-43.7	-45.3	17.7	0.00e+00	0	44	0	685768704	59	4199
2026-01-29 22:21:34.78	114.95	18.91	-43.6	-45.2	17.7	0.00e+00	0	43	0	687865856	59	4180
2026-01-29 22:21:35.78	115.17	18.86	-43.7	-45.3	17.6	0.00e+00	0	44	0	688914432	59	4224
2026-01-29 22:21:36.79	115.39	18.81	-43.8	-45.4	17.6	0.00e+00	0	44	0	691011584	59	4251
2026-01-29 22:21:37.79	115.61	18.75	-43.5	-45.0	17.8	0.00e+00	0	44	0	693108736	59	4079
2026-01-29 22:21:38.79	115.82	18.70	-43.5	-45.1	17.8	0.00e+00	0	44	0	695205888	58	4373
2026-01-29 22:21:39.79	116.04	18.65	-43.4	-44.9	18.0	0.00e+00	0	44	0	697303040	58	4256
2026-01-29 22:21:40.79	116.26	18.59	-43.4	-44.9	18.0	0.00e+00	0	44	0	698351616	58	4246
2026-01-29 22:21:41.80	116.47	18.54	-43.5	-45.0	17.9	0.00e+00	0	44	0	700448768	58	4317
2026-01-29 22:21:42.80	116.69	18.48	-43.7	-45.3	17.6	0.00e+00	0	44	0	702545920	58	4480
2026-01-29 22:21:43.80	116.90	18.43	-44.1	-45.8	17.2	0.00e+00	0	44	0	704643072	58	4735
2026-01-29 22:21:44.81	117.12	18.37	-44.3	-46.1	16.9	0.00e+00	0	44	0	706740224	59	4618
2026-01-29 22:21:45.81	117.33	18.31	-44.7	-46.6	16.4	0.00e+00	0	44	0	707788800	59	4918
2026-01-29 22:21:46.81	117.54	18.26	-44.8	-46.9	16.1	0.00e+00	0	44	0	709885952	60	4772
2026-01-29 22:21:47.82	117.75	18.20	-44.9	-46.9	16.1	0.00e+00	0	44	0	711983104	60	4807
2026-01-29 22:21:48.82	117.96	18.15	-44.8	-46.9	16.2	0.00e+00	0	44	0	714080256	60	4781
2026-01-29 22:21:49.83	118.17	18.09	-44.3	-46.1	16.8	0.00e+00	0	44	0	715128832	60	4384
2026-01-29 22:21:50.83	118.38	18.03	-44.1	-45.8	17.1	0.00e+00	0	44	0	717225984	60	4239
2026-01-29 22:21:51.83	118.59	17.98	-43.7	-45.3	17.6	0.00e+00	0	43	0	719323136	59	4199
2026-01-29 22:21:52.83	118.80	17.92	-43.6	-45.2	17.7	0.00e+00	0	43	0	721420288	58	4401
2026-01-29 22:21:53.83	119.00	17.86	-43.8	-45.5	17.5	0.00e+00	0	44	0	723517440	58	4564
2026-01-29 22:21:54.84	119.21	17.80	-44.0	-45.7	17.2	0.00e+00	0	44	0	724566016	58	4675
2026-01-29 22:21:55.84	119.41	17.74	-44.3	-46.0	16.9	0.00e+00	0	43	0	726663168	59	4595
2026-01-29 22:21:56.85	119.62	17.69	-44.3	-46.1	16.8	0.00e+00	0	44	0	728760320	59	4641
2026-01-29 22:21:57.85	119.82	17.63	-44.3	-46.1	16.8	0.00e+00	0	44	0	730857472	59	4623
2026-01-29 22:21:58.86	120.03	17.57	-44.1	-45.8	17.2	0.00e+00	0	44	0	732954624	59	4461
2026-01-29 22:21:59.86	120.23	17.51	-43.8	-45.5	17.4	0.00e+00	0	44	0	734003200	59	4298
2026-01-29 22:22:00.86	120.43	17.45	-43.8	-45.4	17.5	0.00e+00	0	44	0	736100352	59	4271
2026-01-29 22:22:01.86	120.63	17.39	-43.7	-45.2	17.6	0.00e+00	0	44	0	738197504	59	4186
2026-01-29 22:22:02.86	120.83	17.33	-43.7	-45.4	17.6	0.00e+00	0	44	0	740294656	59	4244
2026-01-29 22:22:03.87	121.03	17.27	-43.7	-45.4	17.6	0.00e+00	0	44	0	742391808	59	4245
2026-01-29 22:22:04.87	121.22	17.21	-43.9	-45.6	17.3	0.00e+00	0	44	0	743440384	59	4372
2026-01-29 22:22:05.88	121.42	17.15	-44.1	-45.8	17.1	0.00e+00	0	44	0	745537536	59	4470
2026-01-29 22:22:06.88	121.62	17.09	-43.6	-45.2	17.7	0.00e+00	0	44	0	747634688	59	4161
2026-01-29 22:22:07.88	121.81	17.03	-43.6	-45.2	17.7	0.00e+00	0	44	0	749731840	59	4169
2026-01-29 22:22:08.88	122.01	16.97	-43.5	-45.0	17.8	0.00e+00	0	43	0	751828992	59	4091
2026-01-29 22:22:09.89	122.20	16.91	-43.3	-44.8	18.0	0.00e+00	0	44	0	752877568	58	4228
2026-01-29 22:22:10.89	122.40	16.85	-43.5	-45.1	17.8	0.00e+00	0	44	0	754974720	58	4359
2026-01-29 22:22:11.89	122.59	16.79	-43.7	-45.3	17.6	0.00e+00	0	44	0	757071872	58	4482
2026-01-29 22:22:12.90	122.78	16.73	-44.0	-45.7	17.2	0.00e+00	0	44	0	759169024	58	4678
2026-01-29 22:22:13.90	122.97	16.67	-44.2	-46.0	16.9	0.00e+00	0	44	0	761266176	59	4590
2026-01-29 22:22:14.90	123.16	16.60	-44.1	-45.9	17.0	0.00e+00	0	43	0	762314752	59	4512
2026-01-29 22:22:15.91	123.35	16.54	-44.0	-45.7	17.2	0.00e+00	0	43	0	764411904	59	4425
2026-01-29 22:22:16.91	123.54	16.48	-43.7	-45.3	17.5	0.00e+00	0	44	0	766509056	59	4235
2026-01-29 22:22:17.91	123.73	16.42	-43.4	-45.0	17.9	0.00e+00	0	43	0	768606208	58	4292
2026-01-29 22:22:18.91	123.92	16.36	-43.0	-44.4	18.4	0.00e+00	0	43	0	769654784	58	4036
2026-01-29 22:22:19.92	124.11	16.29	-42.9	-44.3	18.6	0.00e+00	0	44	0	771751936	57	4202
2026-01-29 22:22:20.92	124.29	16.23	-43.0	-44.4	18.4	0.00e+00	0	43	0	773849088	57	4261
2026-01-29 22:22:21.93	124.48	16.17	-42.8	-44.2	18.6	0.00e+00	0	43	0	775946240	57	4183
2026-01-29 22:22:22.93	124.66	16.11	-43.4	-44.9	18.0	0.00e+00	0	44	0	778043392	57	4532
2026-01-29 22:22:23.93	124.84	16.04	-43.7	-45.3	17.6	0.00e+00	0	44	0	779091968	57	4707
2026-01-29 22:22:24.93	125.03	15.98	-43.6	-45.2	17.7	0.00e+00	0	43	0	781189120	58	4407
2026-01-29 22:22:25.93	125.21	15.92	-43.8	-45.4	17.5	0.00e+00	0	44	0	783286272	58	4513
2026-01-29 22:22:26.94	125.39	15.86	-43.8	-45.4	17.5	0.00e+00	0	43	0	785383424	58	4533
2026-01-29 22:22:27.94	125.57	15.79	-43.8	-45.5	17.4	0.00e+00	0	44	0	787480576	58	4566
2026-01-29 22:22:28.94	125.75	15.73	-43.8	-45.5	17.4	0.00e+00	0	44	0	788529152	58	4569
2026-01-29 22:22:29.95	125.93	15.67	-43.8	-45.5	17.4	0.00e+00	0	44	0	790626304	58	4572
2026-01-29 22:22:30.95	126.11	15.60	-44.1	-45.8	17.1	0.00e+00	0	44	0	792723456	58	4735
2026-01-29 22:22:31.95	126.29	15.54	-44.2	-46.0	16.9	0.00e+00	0	44	0	794820608	59	4549
2026-01-29 22:22:32.96	126.47	15.48	-44.2	-45.9	17.0	0.00e+00	0	44	0	796917760	59	4537
2026-01-29 22:22:33.96	126.64	15.41	-44.4	-46.2	16.7	0.00e+00	0	44	0	797966336	59	4689
2026-01-29 22:22:34.96	126.82	15.35	-44.2	-46.0	16.9	0.00e+00	0	44	0	800063488	59	4562
2026-01-29 22:22:35.96	126.99	15.28	-44.1	-45.8	17.1	0.00e+00	0	44	0	802160640	59	4485
2026-01-29 22:22:36.97	127.17	15.22	-43.7	-45.3	17.5	0.00e+00	0	44	0	804257792	59	4234
2026-01-29 22:22:37.97	127.34	15.16	-43.4	-44.9	18.0	0.00e+00	0	44	0	806354944	58	4265
2026-01-29 22:22:38.97	127.51	15.09	-43.2	-44.6	18.2	0.00e+00	0	44	0	807403520	58	4139
2026-01-29 22:22:39.98	127.68	15.03	-43.2	-44.7	18.1	0.00e+00	0	44	0	809500672	58	4175
2026-01-29 22:22:40.98	127.85	14.96	-43.0	-44.4	18.4	0.00e+00	0	44	0	811597824	58	4033
2026-01-29 22:22:41.98	128.03	14.90	-43.1	-44.6	18.2	0.00e+00	0	44	0	813694976	57	4362
2026-01-29 22:22:42.98	128.19	14.84	-43.4	-45.0	17.9	0.00e+00	0	44	0	814743552	57	4546
2026-01-29 22:22:43.99	128.36	14.77	-43.5	-45.0	17.8	0.00e+00	0	44	0	816840704	57	4592
2026-01-29 22:22:44.99	128.53	14.71	-43.8	-45.4	17.4	0.00e+00	0	44	0	818937856	58	4529
2026-01-29 22:22:46.00	128.70	14.64	-43.6	-45.2	17.6	0.00e+00	0	44	0	821035008	58	4432
2026-01-29 22:22:47.00	128.87	14.58	-43.3	-44.8	18.0	0.00e+00	0	44	0	823132160	58	4235
2026-01-29 22:22:48.01	129.04	14.51	-43.2	-44.7	18.1	0.00e+00	0	44	0	825229312	58	4161
2026-01-29 22:22:49.01	129.20	14.45	-42.9	-44.4	18.4	0.00e+00	0	44	0	826277888	57	4246
2026-01-29 22:22:50.01	129.36	14.38	-42.6	-44.0	18.7	0.00e+00	0	44	0	828375040	57	4096
2026-01-29 22:22:51.02	129.53	14.32	-42.7	-44.1	18.7	0.00e+00	0	44	0	830472192	57	4103
2026-01-29 22:22:52.02	129.69	14.25	-42.6	-43.9	18.8	0.00e+00	0	44	0	832569344	57	4046
2026-01-29 22:22:53.02	129.86	14.19	-42.7	-44.1	18.7	0.00e+00	0	44	0	833617920	56	4353
2026-01-29 22:22:54.03	130.02	14.12	-43.1	-44.5	18.2	0.00e+00	0	44	0	835715072	56	4590
2026-01-29 22:22:55.03	130.18	14.06	-43.2	-44.7	18.1	0.00e+00	0	44	0	837812224	57	4436
2026-01-29 22:22:56.03	130.34	13.99	-43.5	-45.2	17.7	0.00e+00	0	44	0	839909376	57	4653
2026-01-29 22:22:57.03	130.50	13.93	-43.4	-44.9	17.9	0.00e+00	0	44	0	842006528	57	4541
2026-01-29 22:22:58.04	130.66	13.86	-43.3	-44.9	17.9	0.00e+00	0	44	0	843055104	57	4505
2026-01-29 22:22:59.04	130.82	13.80	-43.4	-45.1	17.7	0.00e+00	0	44	0	845152256	57	4600
2026-01-29 22:23:00.05	130.98	13.73	-43.4	-45.0	17.8	0.00e+00	0	44	0	847249408	57	4588
2026-01-29 22:23:01.05	131.13	13.67	-43.5	-45.2	17.6	0.00e+00	0	44	0	849346560	57	4666
2026-01-29 22:23:02.05	131.29	13.60	-44.0	-45.8	17.1	0.00e+00	0	44	0	851443712	58	4721
2026-01-29 22:23:03.06	131.45	13.54	-44.1	-45.9	17.0	0.00e+00	0	44	0	852492288	58	4768
2026-01-29 22:23:04.06	131.60	13.47	-44.2	-46.1	16.8	0.00e+00	0	44	0	854589440	59	4614
2026-01-29 22:23:05.06	131.76	13.41	-44.5	-46.5	16.4	0.00e+00	0	44	0	856686592	59	4845
2026-01-29 22:23:06.06	131.91	13.34	-44.5	-46.4	16.4	0.00e+00	0	44	0	858783744	59	4795
2026-01-29 22:23:07.07	132.07	13.28	-44.4	-46.4	16.4	0.00e+00	0	44	0	860880896	59	4775
2026-01-29 22:23:08.07	132.22	13.21	-44.3	-46.2	16.6	0.00e+00	0	44	0	861929472	59	4677
2026-01-29 22:23:09.07	132.37	13.15	-44.1	-45.9	16.9	0.00e+00	0	44	0	864026624	59	4544
2026-01-29 22:23:10.08	132.52	13.08	-43.9	-45.6	17.2	0.00e+00	0	44	0	866123776	59	4356
2026-01-29 22:23:11.08	132.67	13.02	-43.6	-45.2	17.6	0.00e+00	0	44	0	868220928	59	4156
2026-01-29 22:23:12.08	132.82	12.95	-43.4	-44.9	17.9	0.00e+00	0	44	0	870318080	58	4274
2026-01-29 22:23:13.08	132.97	12.89	-43.5	-45.0	17.7	0.00e+00	0	44	0	871366656	58	4326
2026-01-29 22:23:14.09	133.12	12.82	-43.5	-45.0	17.7	0.00e+00	0	44	0	873463808	58	4336
2026-01-29 22:23:15.09	133.27	12.75	-43.7	-45.3	17.5	0.00e+00	0	43	0	875560960	58	4457
2026-01-29 22:23:16.09	133.42	12.69	-43.7	-45.4	17.4	0.00e+00	0	44	0	877658112	58	4510
2026-01-29 22:23:17.10	133.56	12.62	-43.8	-45.5	17.3	0.00e+00	0	44	0	879755264	58	4563
2026-01-29 22:23:18.10	133.71	12.56	-44.1	-45.9	17.0	0.00e+00	0	44	0	880803840	58	4773
2026-01-29 22:23:19.10	133.85	12.49	-44.3	-46.2	16.7	0.00e+00	0	43	0	882900992	59	4660
2026-01-29 22:23:20.10	134.00	12.43	-44.2	-46.0	16.8	0.00e+00	0	44	0	884998144	59	4596
2026-01-29 22:23:21.11	134.14	12.36	-44.3	-46.1	16.7	0.00e+00	0	43	0	887095296	59	4637
2026-01-29 22:23:22.11	134.29	12.30	-44.0	-45.8	17.0	0.00e+00	0	44	0	888143872	59	4474
2026-01-29 22:23:23.11	134.43	12.23	-44.1	-45.9	16.9	0.00e+00	0	44	0	890241024	59	4504
2026-01-29 22:23:24.11	134.57	12.17	-44.1	-45.8	16.9	0.00e+00	0	44	0	892338176	59	4489
2026-01-29 22:23:25.12	134.72	12.10	-44.2	-46.1	16.7	0.00e+00	0	44	0	894435328	59	4600
2026-01-29 22:23:26.13	134.86	12.04	-44.3	-46.2	16.6	0.00e+00	0	44	0	896532480	59	4676
2026-01-29 22:23:27.13	135.00	11.97	-44.5	-46.4	16.4	0.00e+00	0	44	0	897581056	59	4802
2026-01-29 22:23:28.13	135.14	11.91	-44.6	-46.6	16.2	0.00e+00	0	43	0	899678208	59	4923
2026-01-29 22:23:29.13	135.28	11.84	-44.6	-46.6	16.2	0.00e+00	0	44	0	901775360	59	4908
2026-01-29 22:23:30.14	135.42	11.78	-44.7	-46.7	16.2	0.00e+00	0	43	0	903872512	60	4701
2026-01-29 22:23:31.14	135.56	11.71	-44.5	-46.5	16.4	0.00e+00	0	44	0	905969664	60	4565
2026-01-29 22:23:32.15	135.69	11.65	-44.3	-46.3	16.5	0.00e+00	0	44	0	907018240	60	4444
2026-01-29 22:23:33.15	135.83	11.58	-44.0	-45.9	16.9	0.00e+00	0	44	0	909115392	60	4266
2026-01-29 22:23:34.15	135.97	11.52	-43.8	-45.6	17.2	0.00e+00	0	44	0	911212544	59	4342
2026-01-29 22:23:35.16	136.10	11.45	-43.6	-45.3	17.4	0.00e+00	0	44	0	913309696	59	4204
2026-01-29 22:23:36.16	136.24	11.39	-43.6	-45.2	17.5	0.00e+00	0	44	0	915406848	59	4186
2026-01-29 22:23:37.17	136.37	11.32	-43.4	-45.0	17.7	0.00e+00	0	44	0	916455424	58	4336
2026-01-29 22:23:38.17	136.51	11.26	-43.4	-45.0	17.7	0.00e+00	0	44	0	918552576	58	4316
2026-01-29 22:23:39.17	136.64	11.19	-43.5	-45.1	17.6	0.00e+00	0	44	0	920649728	58	4364
2026-01-29 22:23:40.17	136.77	11.13	-43.5	-45.1	17.6	0.00e+00	0	44	0	922746880	58	4374
2026-01-29 22:23:41.18	136.91	11.06	-43.7	-45.4	17.3	0.00e+00	0	44	0	924844032	58	4529
2026-01-29 22:23:42.18	137.04	11.00	-43.9	-45.6	17.1	0.00e+00	0	44	0	925892608	58	4640
2026-01-29 22:23:43.18	137.17	10.93	-44.0	-45.7	17.0	0.00e+00	0	44	0	927989760	58	4696
2026-01-29 22:23:44.19	137.30	10.87	-44.1	-45.9	16.9	0.00e+00	0	43	0	930086912	58	4762
2026-01-29 22:23:45.19	137.43	10.80	-44.0	-45.9	16.9	0.00e+00	0	44	0	932184064	58	4767
2026-01-29 22:23:46.19	137.56	10.74	-44.0	-45.8	16.9	0.00e+00	0	44	0	934281216	58	4753
2026-01-29 22:23:47.20	137.69	10.67	-44.0	-45.7	17.0	0.00e+00	0	43	0	935329792	58	4691
2026-01-29 22:23:48.20	137.82	10.61	-44.0	-45.8	16.9	0.00e+00	0	44	0	937426944	58	4714
2026-01-29 22:23:49.20	137.95	10.54	-44.0	-45.8	16.9	0.00e+00	0	43	0	939524096	58	4721
2026-01-29 22:23:50.21	138.08	10.48	-44.0	-45.7	17.0	0.00e+00	0	43	0	941621248	58	4702
2026-01-29 22:23:51.21	138.20	10.42	-44.0	-45.7	16.9	0.00e+00	0	44	0	943718400	58	4703
2026-01-29 22:23:52.21	138.33	10.35	-44.2	-46.0	16.7	0.00e+00	0	44	0	944766976	59	4568
2026-01-29 22:23:53.21	138.46	10.29	-44.4	-46.3	16.4	0.00e+00	0	44	0	946864128	59	4756
2026-01-29 22:23:54.21	138.58	10.22	-44.5	-46.5	16.2	0.00e+00	0	44	0	948961280	59	4842
2026-01-29 22:23:55.22	138.71	10.16	-44.6	-46.6	16.1	0.00e+00	0	43	0	951058432	59	4897
2026-01-29 22:23:56.22	138.83	10.09	-44.7	-46.8	15.9	0.00e+00	0	44	0	952107008	60	4741
2026-01-29 22:23:57.22	138.95	10.03	-44.8	-46.9	15.8	0.00e+00	0	44	0	954204160	60	4808
2026-01-29 22:23:58.23	139.08	9.97	-44.7	-46.8	15.9	0.00e+00	0	43	0	956301312	60	4724
2026-01-29 22:23:59.23	139.20	9.90	-44.7	-46.8	15.9	0.00e+00	0	44	0	958398464	60	4751
2026-01-29 22:24:00.23	139.32	9.84	-44.6	-46.7	16.0	0.00e+00	0	44	0	960495616	60	4694
2026-01-29 22:24:01.23	139.44	9.78	-44.5	-46.6	16.2	0.00e+00	0	44	0	961544192	60	4603
2026-01-29 22:24:02.23	139.56	9.71	-44.2	-46.2	16.5	0.00e+00	0	44	0	963641344	60	4397
2026-01-29 22:24:03.24	139.69	9.65	-44.2	-46.1	16.6	0.00e+00	0	44	0	965738496	60	4378
2026-01-29 22:24:04.24	139.81	9.58	-44.3	-46.3	16.4	0.00e+00	0	44	0	967835648	60	4477
2026-01-29 22:24:05.25	139.93	9.52	-44.3	-46.2	16.5	0.00e+00	0	44	0	969932800	60	4430
2026-01-29 22:24:06.25	140.05	9.46	-44.3	-46.2	16.5	0.00e+00	0	44	0	970981376	60	4440
2026-01-29 22:24:07.26	140.16	9.39	-44.3	-46.2	16.5	0.00e+00	0	44	0	973078528	60	4432
2026-01-29 22:24:08.26	140.28	9.33	-44.4	-46.5	16.2	0.00e+00	0	43	0	975175680	60	4554
2026-01-29 22:24:09.26	140.40	9.27	-44.3	-46.3	16.4	0.00e+00	0	44	0	977272832	60	4460
2026-01-29 22:24:10.26	140.52	9.20	-44.4	-46.4	16.3	0.00e+00	0	44	0	979369984	60	4516
2026-01-29 22:24:11.26	140.63	9.14	-44.6	-46.7	15.9	0.00e+00	0	43	0	980418560	60	4687
2026-01-29 22:24:12.27	140.75	9.08	-44.4	-46.4	16.2	0.00e+00	0	44	0	982515712	60	4527
2026-01-29 22:24:13.27	140.87	9.01	-44.7	-46.8	15.9	0.00e+00	0	44	0	984612864	60	4755
2026-01-29 22:24:14.28	140.98	8.95	-49.8	-63.6	3.8	8.20e-01	0	44	104	985661440	70	18488
2026-01-29 22:24:15.28	141.10	8.89	-50.1	-64.3	3.8	1.49e+00	0	43	104	985661440	70	19977
2026-01-29 22:24:16.29	141.21	8.82	-50.2	-64.4	3.8	1.49e+00	0	44	104	985661440	70	20264
2026-01-29 22:24:17.29	141.32	8.76	-50.2	-64.5	3.8	1.49e+00	0	43	104	985661440	71	19202
2026-01-29 22:24:18.29	141.44	8.70	-50.3	-64.6	3.8	1.49e+00	0	44	104	985661440	71	19435
2026-01-29 22:24:19.30	141.55	8.63	-50.1	-64.6	3.8	1.49e+00	0	44	104	985661440	71	19475
2026-01-29 22:24:20.30	141.66	8.57	-50.4	-64.6	3.8	1.49e+00	0	44	104	985661440	71	19539
2026-01-29 22:24:21.30	141.78	8.51	-50.5	-64.7	3.8	1.49e+00	0	44	104	985661440	71	19636
2026-01-29 22:24:22.31	141.89	8.45	-50.3	-64.7	3.8	1.49e+00	0	44	104	985661440	71	19726
2026-01-29 22:24:23.31	142.00	8.38	-50.5	-64.7	3.8	1.49e+00	0	44	104	985661440	71	19717
2026-01-29 22:24:24.32	142.11	8.32	-50.3	-64.7	3.8	1.49e+00	0	44	104	985661440	71	19769
2026-01-29 22:24:25.32	142.22	8.26	-50.6	-64.8	3.8	1.49e+00	0	44	104	985661440	71	19886
2026-01-29 22:24:26.33	142.33	8.19	-50.6	-64.8	3.8	1.49e+00	0	44	104	985661440	71	19963
2026-01-29 22:24:27.33	142.44	8.13	-50.5	-64.8	3.8	1.49e+00	0	44	104	985661440	71	19902
2026-01-29 22:24:28.34	142.55	8.07	-50.3	-64.8	3.8	1.49e+00	0	44	104	985661440	71	19951
2026-01-29 22:24:29.34	142.66	8.01	-50.5	-64.8	3.8	1.49e+00	0	44	104	985661440	71	19886
2026-01-29 22:24:30.34	142.76	7.95	-50.4	-64.8	3.8	1.49e+00	0	44	104	985661440	71	19893
2026-01-29 22:24:31.35	142.87	7.88	-50.2	-64.8	3.8	1.49e+00	0	44	104	985661440	71	19886
2026-01-29 22:24:32.35	142.98	7.82	-50.3	-64.8	3.8	1.49e+00	0	44	104	985661440	71	19950
2026-01-29 22:24:33.35	143.08	7.76	-50.5	-64.8	3.8	1.49e+00	0	44	104	985661440	71	20002
2026-01-29 22:24:34.36	143.19	7.70	-50.5	-64.8	3.8	1.49e+00	0	44	104	985661440	71	19974
2026-01-29 22:24:35.36	143.30	7.64	-50.6	-64.8	3.8	1.49e+00	0	44	104	985661440	71	20062
2026-01-29 22:24:36.37	143.40	7.57	-50.5	-64.8	3.8	1.49e+00	0	44	104	985661440	71	20024
2026-01-29 22:24:37.37	143.51	7.51	-50.6	-64.8	3.8	1.49e+00	0	44	104	985661440	71	20039
2026-01-29 22:24:38.38	143.61	7.45	-50.6	-64.8	3.8	1.49e+00	0	44	104	985661440	72	18831
2026-01-29 22:24:39.38	143.72	7.39	-50.6	-64.8	3.8	1.49e+00	0	44	104	985661440	72	18873
2026-01-29 22:24:40.38	143.82	7.33	-50.4	-64.8	3.8	1.49e+00	0	44	104	985661440	72	18848
2026-01-29 22:24:41.39	143.92	7.27	-50.4	-64.8	3.8	1.49e+00	0	44	104	985661440	72	18846
2026-01-29 22:24:42.39	144.03	7.21	-50.5	-64.8	3.8	1.49e+00	0	44	104	985661440	72	18844
2026-01-29 22:24:43.39	144.13	7.14	-50.5	-64.8	3.8	1.49e+00	0	44	104	985661440	72	18852
2026-01-29 22:24:44.40	144.23	7.08	-50.5	-64.8	3.8	1.49e+00	0	44	104	985661440	72	18803
2026-01-29 22:24:45.40	144.33	7.02	-50.3	-64.7	3.8	1.49e+00	0	44	104	985661440	72	18730
2026-01-29 22:24:46.41	144.43	6.96	-50.1	-64.7	3.8	1.49e+00	0	44	104	985661440	72	18666
2026-01-29 22:24:47.41	144.53	6.90	-50.0	-64.7	3.8	1.49e+00	0	44	104	985661440	72	18684
2026-01-29 22:24:48.41	144.63	6.84	-50.0	-64.7	3.8	1.49e+00	0	44	104	985661440	72	18579
2026-01-29 22:24:49.42	144.73	6.78	-50.2	-64.7	3.8	1.49e+00	0	44	104	985661440	71	19721
2026-01-29 22:24:50.42	144.83	6.72	-50.1	-64.6	3.8	1.49e+00	0	44	104	985661440	71	19573
2026-01-29 22:24:51.42	144.93	6.66	-50.2	-64.6	3.8	1.49e+00	0	44	104	985661440	71	19442
2026-01-29 22:24:52.43	145.03	6.60	-50.2	-64.5	3.8	1.49e+00	0	44	104	985661440	71	19330
2026-01-29 22:24:53.43	145.13	6.53	-50.1	-64.4	3.8	1.49e+00	0	44	104	985661440	71	19049
2026-01-29 22:24:54.44	145.23	6.47	-50.0	-64.2	3.8	1.49e+00	0	44	104	985661440	71	18670
2026-01-29 22:24:55.44	145.32	6.41	-49.9	-64.1	3.8	1.49e+00	0	44	104	985661440	71	18446
2026-01-29 22:24:56.45	145.42	6.35	-49.8	-64.1	3.8	1.49e+00	0	44	104	985661440	71	18455
2026-01-29 22:24:57.45	145.52	6.29	-49.8	-64.2	3.8	1.49e+00	0	44	104	985661440	71	18527
2026-01-29 22:24:58.46	145.62	6.23	-49.8	-64.1	3.8	1.49e+00	0	44	104	985661440	71	18514
2026-01-29 22:24:59.46	145.71	6.17	-49.8	-64.1	3.8	1.49e+00	0	44	104	985661440	71	18430
2026-01-29 22:25:00.46	145.81	6.11	-49.8	-64.2	3.8	1.49e+00	0	44	104	985661440	71	18522
2026-01-29 22:25:01.47	145.90	6.05	-49.8	-64.1	3.8	1.49e+00	0	44	104	985661440	71	18460
2026-01-29 22:25:02.47	146.00	5.99	-49.8	-64.1	3.8	1.49e+00	0	44	104	985661440	71	18469
2026-01-29 22:25:03.47	146.09	5.93	-49.8	-64.1	3.8	1.49e+00	0	44	104	985661440	71	18417
2026-01-29 22:25:04.48	146.19	5.87	-49.8	-64.1	3.8	1.49e+00	0	44	104	985661440	71	18414
2026-01-29 22:25:05.48	146.28	5.81	-49.8	-64.1	3.8	1.49e+00	0	44	104	985661440	71	18387
2026-01-29 22:25:06.48	146.37	5.75	-49.8	-64.1	3.8	1.49e+00	0	44	104	985661440	71	18447
2026-01-29 22:25:07.49	146.47	5.69	-49.8	-64.1	3.8	1.49e+00	0	44	104	985661440	71	18370
2026-01-29 22:25:08.50	146.56	5.63	-49.8	-64.1	3.8	1.49e+00	0	44	104	985661440	71	18411
2026-01-29 22:25:09.50	146.65	5.58	-49.8	-64.1	3.8	1.49e+00	0	44	104	985661440	71	18398
2026-01-29 22:25:10.50	146.74	5.52	-49.8	-64.1	3.8	1.49e+00	0	44	104	985661440	71	18309
2026-01-29 22:25:11.51	146.83	5.46	-49.8	-64.1	3.8	1.49e+00	0	44	104	985661440	71	18446
2026-01-29 22:25:12.51	146.93	5.40	-49.8	-64.1	3.8	1.49e+00	0	44	104	985661440	71	18353
2026-01-29 22:25:13.51	147.02	5.34	-49.8	-64.1	3.8	1.49e+00	0	44	104	985661440	71	18336
2026-01-29 22:25:14.52	147.11	5.28	-49.8	-64.1	3.8	1.49e+00	0	44	104	985661440	71	18338
2026-01-29 22:25:15.52	147.20	5.22	-49.8	-64.1	3.8	1.49e+00	0	44	104	985661440	71	18360
2026-01-29 22:25:16.52	147.29	5.16	-49.8	-64.0	3.8	1.49e+00	0	44	104	985661440	71	18293
2026-01-29 22:25:17.53	147.38	5.10	-49.8	-64.1	3.8	1.49e+00	0	44	104	985661440	71	18356
2026-01-29 22:25:18.53	147.47	5.04	-49.8	-64.1	3.8	1.49e+00	0	44	104	985661440	71	18338
2026-01-29 22:25:19.54	147.55	4.98	-49.8	-64.1	3.8	1.49e+00	0	44	104	985661440	71	18366

#Closed at: 2026-01-29 22:25:20
#Recorded file [985 MB]: D:/Data/31040_260130_011419.dat