passes_logs/2026/01/29/T1/T1__20260129_120740_NOAA_20_JPSS-1_rec.log

#Pass ID: 20260129_120740_NOAA 20 (JPSS-1)
#Satellite: NOAA 20 (JPSS-1)
#Configuration: NOAA 20
#almurnet v.1.7.20251203
#Start time: 2026-01-29 12:07:42

#Version: 2.0.20230620
#Station: T1
#Location: 37.570604 lon 55.790049 lat
#TLE: 1 43013U 17073A   26027.94683596  .00000137  00000+0  85741-4 0  9995
#TLE: 2 43013  98.7648 328.7503 0000940  21.3928 338.7287 14.19541154424576

#Time	Az	El	Level	Level2	SNR	BER	BlckErr	Temp	State	Recorded	gain1	gain2
2026-01-29 12:07:42.86	236.84	5.10	-50.1	-65.3	3.8	1.49e+00	0	41	0	0	70	22368
2026-01-29 12:07:43.84	236.95	5.14	-50.0	-65.3	3.8	1.49e+00	0	41	104	0	71	21138
2026-01-29 12:07:44.84	237.08	5.19	-49.9	-65.3	3.8	1.49e+00	0	42	104	0	71	21111
2026-01-29 12:07:45.83	237.20	5.23	-49.8	-65.3	3.8	1.49e+00	0	41	104	0	71	21102
2026-01-29 12:07:46.82	237.32	5.27	-49.8	-65.3	3.8	1.49e+00	0	42	104	0	71	21092
2026-01-29 12:07:47.82	237.44	5.32	-49.8	-65.3	3.8	1.49e+00	0	42	104	0	71	21091
2026-01-29 12:07:48.81	237.56	5.36	-49.8	-65.2	3.8	1.49e+00	0	42	104	0	71	20933
2026-01-29 12:07:49.80	237.68	5.40	-49.9	-65.2	3.8	1.49e+00	0	42	104	0	71	20961
2026-01-29 12:07:50.80	237.80	5.45	-49.8	-65.2	3.8	1.49e+00	0	42	104	0	71	21002
2026-01-29 12:07:51.79	237.93	5.49	-49.7	-65.2	3.8	1.49e+00	0	42	104	0	71	20857
2026-01-29 12:07:52.78	238.05	5.53	-49.9	-65.2	3.8	1.49e+00	0	42	104	0	71	20836
2026-01-29 12:07:53.78	238.17	5.58	-49.9	-65.1	3.8	1.49e+00	0	42	104	0	71	20674
2026-01-29 12:07:54.77	238.30	5.62	-49.4	-65.1	3.8	1.49e+00	0	42	104	0	70	21812
2026-01-29 12:07:55.77	238.42	5.67	-49.5	-65.0	3.8	1.49e+00	0	42	104	0	70	21631
2026-01-29 12:07:56.76	238.54	5.71	-49.4	-64.9	3.8	1.49e+00	0	42	104	0	70	21412
2026-01-29 12:07:57.75	238.67	5.75	-49.4	-64.8	3.8	1.49e+00	0	42	104	0	70	21222
2026-01-29 12:07:58.75	238.79	5.80	-49.1	-64.7	3.8	1.49e+00	0	42	104	0	70	20919
2026-01-29 12:07:59.74	238.92	5.84	-49.2	-64.6	3.8	1.49e+00	0	42	104	0	70	20658
2026-01-29 12:08:00.73	239.04	5.88	-49.3	-64.6	3.8	1.49e+00	0	42	104	0	70	20753
2026-01-29 12:08:01.73	239.17	5.93	-49.2	-64.6	3.8	1.49e+00	0	42	104	0	70	20704
2026-01-29 12:08:02.72	239.30	5.97	-49.2	-64.6	3.8	1.49e+00	0	42	104	0	70	20620
2026-01-29 12:08:03.71	239.42	6.01	-49.2	-64.6	3.8	1.49e+00	0	42	104	0	70	20706
2026-01-29 12:08:04.71	239.55	6.06	-49.2	-64.6	3.8	1.49e+00	0	42	104	0	70	20656
2026-01-29 12:08:05.70	239.68	6.10	-49.2	-64.6	3.8	1.49e+00	0	42	104	0	70	20674
2026-01-29 12:08:06.69	239.81	6.14	-49.2	-64.6	3.8	1.49e+00	0	42	104	0	70	20600
2026-01-29 12:08:07.69	239.94	6.19	-49.2	-64.6	3.8	1.49e+00	0	42	104	0	70	20632
2026-01-29 12:08:08.68	240.06	6.23	-49.2	-64.6	3.8	1.49e+00	0	42	104	0	70	20645
2026-01-29 12:08:09.67	240.19	6.27	-49.2	-64.6	3.8	1.49e+00	0	42	104	0	70	20686
2026-01-29 12:08:10.67	240.32	6.31	-49.1	-64.6	3.8	1.49e+00	0	42	104	0	70	20653
2026-01-29 12:08:11.66	240.45	6.36	-49.1	-64.6	3.8	1.49e+00	0	42	104	0	70	20673
2026-01-29 12:08:12.65	240.58	6.40	-49.1	-64.6	3.8	1.49e+00	0	42	104	0	70	20743
2026-01-29 12:08:13.65	240.71	6.44	-49.1	-64.6	3.8	1.49e+00	0	42	104	0	70	20663
2026-01-29 12:08:14.64	240.84	6.48	-49.2	-64.6	3.8	1.49e+00	0	42	104	0	70	20642
2026-01-29 12:08:15.63	240.97	6.53	-49.2	-64.6	3.8	1.49e+00	0	42	104	0	70	20605
2026-01-29 12:08:16.63	241.11	6.57	-49.2	-64.6	3.8	1.49e+00	0	42	104	0	70	20642
2026-01-29 12:08:17.62	241.24	6.61	-49.2	-64.6	3.8	1.49e+00	0	42	104	0	70	20571
2026-01-29 12:08:18.61	241.37	6.65	-49.1	-64.6	3.8	1.49e+00	0	43	104	0	70	20540
2026-01-29 12:08:19.61	241.50	6.70	-49.2	-64.6	3.8	1.49e+00	0	43	104	0	70	20587
2026-01-29 12:08:20.60	241.64	6.74	-49.1	-64.5	3.8	1.49e+00	0	42	104	0	70	20484
2026-01-29 12:08:21.59	241.77	6.78	-49.2	-64.5	3.8	1.49e+00	0	42	104	0	70	20497
2026-01-29 12:08:22.59	241.90	6.82	-49.1	-64.5	3.8	1.49e+00	0	42	104	0	70	20411
2026-01-29 12:08:23.58	242.04	6.87	-49.1	-64.5	3.8	1.49e+00	0	43	104	0	70	20342
2026-01-29 12:08:24.57	242.17	6.91	-49.1	-64.4	3.8	1.49e+00	0	43	104	0	70	20282
2026-01-29 12:08:25.57	242.31	6.95	-49.1	-64.4	3.8	1.49e+00	0	43	104	0	70	20187
2026-01-29 12:08:26.56	242.44	6.99	-49.2	-64.4	3.8	1.49e+00	0	43	104	0	70	20245
2026-01-29 12:08:27.55	242.58	7.03	-49.1	-64.4	3.8	1.49e+00	0	43	104	0	70	20244
2026-01-29 12:08:28.55	242.72	7.08	-49.2	-64.4	3.8	1.49e+00	0	43	104	0	70	20196
2026-01-29 12:08:29.54	242.85	7.12	-49.2	-64.4	3.8	1.49e+00	0	43	104	0	70	20251
2026-01-29 12:08:30.53	242.99	7.16	-49.2	-64.4	3.8	1.49e+00	0	43	104	0	70	20286
2026-01-29 12:08:31.53	243.13	7.20	-49.1	-64.5	3.8	1.49e+00	0	43	104	0	70	20446
2026-01-29 12:08:32.52	243.26	7.24	-49.1	-64.5	3.8	1.49e+00	0	43	104	0	70	20427
2026-01-29 12:08:33.51	243.40	7.28	-49.2	-64.5	3.8	1.49e+00	0	43	104	0	70	20484
2026-01-29 12:08:34.51	243.54	7.32	-49.2	-64.5	3.8	1.49e+00	0	43	104	0	70	20515
2026-01-29 12:08:35.50	243.68	7.37	-49.1	-64.5	3.8	1.49e+00	0	43	104	0	70	20511
2026-01-29 12:08:36.49	243.82	7.41	-49.1	-64.5	3.8	1.49e+00	0	43	104	0	70	20447
2026-01-29 12:08:37.49	243.96	7.45	-49.1	-64.5	3.8	1.49e+00	0	43	104	0	70	20502
2026-01-29 12:08:38.48	244.10	7.49	-49.2	-64.5	3.8	1.49e+00	0	43	104	0	70	20503
2026-01-29 12:08:39.48	244.24	7.53	-49.2	-64.5	3.8	1.49e+00	0	43	104	0	70	20535
2026-01-29 12:08:40.47	244.38	7.57	-49.2	-64.6	3.8	1.49e+00	0	43	104	0	70	20553
2026-01-29 12:08:41.46	244.52	7.61	-49.2	-64.6	3.8	1.49e+00	0	43	104	0	70	20592
2026-01-29 12:08:42.46	244.66	7.65	-49.2	-64.5	3.8	1.49e+00	0	43	104	0	70	20515
2026-01-29 12:08:43.45	244.80	7.69	-49.1	-64.5	3.8	1.49e+00	0	43	104	0	70	20500
2026-01-29 12:08:44.44	244.94	7.73	-49.2	-64.5	3.8	1.49e+00	0	43	104	0	70	20412
2026-01-29 12:08:45.43	245.09	7.77	-49.1	-64.5	3.8	1.49e+00	0	43	104	0	70	20474
2026-01-29 12:08:46.43	245.23	7.81	-49.1	-64.5	3.8	1.49e+00	0	43	104	0	70	20527
2026-01-29 12:08:47.42	245.37	7.85	-49.1	-64.5	3.8	1.49e+00	0	43	104	0	70	20491
2026-01-29 12:08:48.41	245.52	7.89	-49.1	-64.5	3.8	1.49e+00	0	43	104	0	70	20354
2026-01-29 12:08:49.41	245.66	7.93	-49.0	-64.4	3.8	1.49e+00	0	43	104	0	70	20169
2026-01-29 12:08:50.40	245.81	7.97	-49.1	-64.3	3.8	1.49e+00	0	43	104	0	70	19932
2026-01-29 12:08:51.39	245.95	8.01	-49.1	-64.2	3.8	1.49e+00	0	43	104	0	70	19685
2026-01-29 12:08:52.39	246.10	8.05	-49.1	-64.2	3.8	1.49e+00	0	43	104	0	70	19644
2026-01-29 12:08:53.38	246.24	8.09	-49.1	-64.2	3.8	1.49e+00	0	43	104	0	70	19773
2026-01-29 12:08:54.37	246.39	8.13	-49.1	-64.3	3.8	1.49e+00	0	43	104	0	70	19946
2026-01-29 12:08:55.37	246.53	8.17	-49.1	-64.4	3.8	1.49e+00	0	43	104	0	70	20138
2026-01-29 12:08:56.36	246.68	8.21	-49.1	-64.4	3.8	1.49e+00	0	43	104	0	70	20303
2026-01-29 12:08:57.35	246.83	8.25	-49.2	-64.5	3.8	1.49e+00	0	43	104	0	70	20358
2026-01-29 12:08:58.35	246.98	8.29	-49.2	-64.6	3.8	1.49e+00	0	43	104	0	70	20545
2026-01-29 12:08:59.34	247.12	8.33	-49.2	-64.5	3.8	1.49e+00	0	43	104	0	70	20523
2026-01-29 12:09:00.33	247.27	8.37	-49.1	-64.3	3.8	1.49e+00	0	43	104	0	70	19845
2026-01-29 12:09:01.33	247.42	8.41	-49.1	-63.4	3.8	1.49e+00	0	43	104	0	70	18001
2026-01-29 12:09:02.32	247.57	8.45	-49.0	-62.5	3.8	1.49e+00	0	43	104	0	70	16239
2026-01-29 12:09:03.31	247.72	8.49	-49.0	-62.4	3.8	1.48e+00	0	43	104	0	70	16030
2026-01-29 12:09:04.31	247.87	8.52	-49.1	-63.2	3.8	1.49e+00	0	43	104	0	70	17642
2026-01-29 12:09:05.30	248.02	8.56	-49.1	-64.3	3.8	1.49e+00	0	43	104	0	70	19956
2026-01-29 12:09:06.29	248.17	8.60	-48.9	-61.8	3.8	1.49e+00	0	43	104	0	69	15915
2026-01-29 12:09:07.29	248.32	8.64	-48.4	-56.9	6.3	5.38e-01	0	43	0	1048576	68	9566
2026-01-29 12:09:08.28	248.47	8.68	-47.3	-53.2	9.8	4.60e-02	0	43	0	3145728	66	7004
2026-01-29 12:09:09.27	248.62	8.72	-46.2	-50.8	12.4	1.58e-03	0	43	0	4194304	64	5968
2026-01-29 12:09:10.27	248.78	8.75	-45.5	-49.3	14.0	3.00e-06	0	44	0	6291456	63	5291
2026-01-29 12:09:11.26	248.93	8.79	-45.0	-48.4	14.9	0.00e+00	0	43	0	8388608	61	5389
2026-01-29 12:09:12.25	249.08	8.83	-44.9	-48.4	14.9	0.00e+00	0	43	0	10485760	61	5368
2026-01-29 12:09:13.25	249.23	8.87	-45.2	-48.9	14.5	0.00e+00	0	43	0	11534336	61	5680
2026-01-29 12:09:14.24	249.39	8.90	-45.8	-49.9	13.4	6.10e-06	0	43	0	13631488	62	6021
2026-01-29 12:09:15.23	249.54	8.94	-46.6	-51.4	11.9	1.55e-04	0	43	0	15728640	63	6776
2026-01-29 12:09:16.23	249.70	8.98	-47.3	-53.4	9.7	2.60e-03	0	43	0	17825792	65	7569
2026-01-29 12:09:17.22	249.85	9.02	-47.9	-55.3	7.8	2.85e-02	0	43	0	19922944	66	8868
2026-01-29 12:09:18.21	250.01	9.05	-47.7	-54.7	8.4	3.53e-02	0	44	0	20971520	66	8320
2026-01-29 12:09:19.21	250.16	9.09	-48.4	-59.2	4.7	7.55e-01	0	44	0	23068672	67	13117
2026-01-29 12:09:20.21	250.32	9.13	-47.7	-54.3	8.7	3.69e-02	0	43	0	25165824	67	7489
2026-01-29 12:09:21.27	250.49	9.17	-46.2	-50.7	12.7	1.37e-05	0	43	0	27262976	63	6209
2026-01-29 12:09:22.13	250.62	9.20	-48.6	-59.1	4.9	4.34e-01	0	43	0	28311552	67	13060
2026-01-29 12:09:23.48	250.83	9.25	-45.7	-49.7	13.6	6.80e-06	0	43	0	31457280	63	5592
2026-01-29 12:09:24.19	250.95	9.27	-45.6	-49.6	13.8	5.30e-06	0	43	0	32505856	63	5528
2026-01-29 12:09:25.46	251.15	9.32	-45.6	-49.6	13.8	6.10e-06	0	43	0	34603008	62	5825
2026-01-29 12:09:26.18	251.26	9.34	-45.3	-49.1	14.2	5.30e-06	0	43	0	36700160	62	5518
2026-01-29 12:09:27.47	251.47	9.39	-44.7	-48.4	15.0	0.00e+00	0	43	0	38797312	61	5349
2026-01-29 12:09:28.18	251.58	9.42	-44.7	-48.4	15.0	0.00e+00	0	44	0	39845888	61	5348
2026-01-29 12:09:29.46	251.79	9.46	-44.8	-48.6	14.8	0.00e+00	0	43	0	41943040	61	5470
2026-01-29 12:09:30.17	251.90	9.49	-44.9	-48.7	14.6	7.00e-07	0	44	0	44040192	61	5586
2026-01-29 12:09:31.46	252.11	9.53	-44.7	-48.3	15.1	1.50e-06	0	43	0	46137344	61	5314
2026-01-29 12:09:32.17	252.23	9.56	-44.6	-48.0	15.4	0.00e+00	0	43	0	47185920	61	5121
2026-01-29 12:09:33.46	252.43	9.60	-44.4	-47.6	15.8	0.00e+00	0	43	0	50331648	60	5205
2026-01-29 12:09:34.17	252.55	9.63	-44.3	-47.5	15.9	0.00e+00	0	43	0	51380224	60	5113
2026-01-29 12:09:35.46	252.76	9.67	-44.3	-47.4	16.0	0.00e+00	0	43	0	53477376	60	5068
2026-01-29 12:09:36.17	252.88	9.70	-44.3	-47.4	16.0	0.00e+00	0	43	0	54525952	60	5057
2026-01-29 12:09:37.45	253.08	9.74	-44.3	-47.4	16.0	0.00e+00	0	43	0	57671680	60	5095
2026-01-29 12:09:38.17	253.20	9.77	-44.2	-47.3	16.0	0.00e+00	0	43	0	58720256	60	5034
2026-01-29 12:09:39.45	253.41	9.81	-44.3	-47.3	16.0	0.00e+00	0	44	0	60817408	60	5031
2026-01-29 12:09:40.16	253.53	9.83	-44.4	-47.5	15.9	0.00e+00	0	44	0	62914560	60	5104
2026-01-29 12:09:41.45	253.74	9.88	-44.4	-47.5	15.9	0.00e+00	0	44	0	65011712	60	5120
2026-01-29 12:09:42.16	253.86	9.90	-44.3	-47.4	16.0	0.00e+00	0	44	0	66060288	60	5079
2026-01-29 12:09:43.45	254.07	9.94	-44.4	-47.6	15.8	0.00e+00	0	43	0	68157440	60	5181
2026-01-29 12:09:44.16	254.19	9.97	-44.4	-47.7	15.8	0.00e+00	0	44	0	70254592	60	5220
2026-01-29 12:09:45.44	254.40	10.01	-44.4	-47.6	15.8	0.00e+00	0	43	0	72351744	60	5203
2026-01-29 12:09:46.15	254.52	10.03	-44.4	-47.7	15.7	0.00e+00	0	44	0	73400320	60	5219
2026-01-29 12:09:47.44	254.74	10.08	-44.4	-47.7	15.7	0.00e+00	0	44	0	76546048	60	5229
2026-01-29 12:09:48.15	254.86	10.10	-44.3	-47.6	15.8	0.00e+00	0	44	0	77594624	60	5188
2026-01-29 12:09:49.43	255.07	10.14	-44.2	-47.6	15.8	0.00e+00	0	44	0	79691776	60	5160
2026-01-29 12:09:50.15	255.19	10.16	-44.2	-47.5	15.8	0.00e+00	0	43	0	80740352	60	5153
2026-01-29 12:09:51.43	255.41	10.20	-44.2	-47.5	15.9	0.00e+00	0	43	0	83886080	60	5118
2026-01-29 12:09:52.15	255.53	10.23	-44.1	-47.3	16.1	0.00e+00	0	43	0	84934656	60	5027
2026-01-29 12:09:53.43	255.75	10.27	-44.0	-47.1	16.3	0.00e+00	0	43	0	87031808	59	5161
2026-01-29 12:09:54.14	255.87	10.29	-44.0	-47.1	16.3	0.00e+00	0	44	0	89128960	59	5168
2026-01-29 12:09:55.43	256.09	10.33	-43.9	-47.0	16.4	0.00e+00	0	44	0	91226112	59	5113
2026-01-29 12:09:56.14	256.21	10.35	-44.0	-47.1	16.3	0.00e+00	0	43	0	92274688	59	5174
2026-01-29 12:09:57.42	256.43	10.39	-44.1	-47.1	16.2	0.00e+00	0	44	0	94371840	59	5184
2026-01-29 12:09:58.15	256.55	10.42	-44.0	-47.1	16.3	0.00e+00	0	43	0	96468992	59	5179
2026-01-29 12:09:59.43	256.77	10.45	-44.2	-47.3	16.0	0.00e+00	0	43	0	98566144	59	5307
2026-01-29 12:10:00.15	256.89	10.48	-44.2	-47.3	16.0	0.00e+00	0	43	0	99614720	59	5307
2026-01-29 12:10:01.44	257.12	10.52	-44.2	-47.3	16.1	0.00e+00	0	44	0	102760448	59	5288
2026-01-29 12:10:02.15	257.24	10.54	-44.3	-47.4	16.0	0.00e+00	0	44	0	103809024	59	5369
2026-01-29 12:10:03.44	257.46	10.58	-44.3	-47.4	15.9	0.00e+00	0	43	0	105906176	59	5389
2026-01-29 12:10:04.15	257.58	10.60	-44.4	-47.5	15.8	0.00e+00	0	43	0	106954752	59	5447
2026-01-29 12:10:05.44	257.81	10.63	-44.4	-47.6	15.8	0.00e+00	0	43	0	110100480	59	5504
2026-01-29 12:10:06.15	257.93	10.66	-44.4	-47.6	15.8	0.00e+00	0	44	0	111149056	59	5503
2026-01-29 12:10:07.43	258.15	10.69	-44.3	-47.6	15.8	0.00e+00	0	44	0	113246208	59	5477
2026-01-29 12:10:08.16	258.28	10.71	-44.4	-47.6	15.8	0.00e+00	0	44	0	115343360	59	5502
2026-01-29 12:10:09.44	258.50	10.75	-44.2	-47.4	15.9	0.00e+00	0	44	0	117440512	59	5387
2026-01-29 12:10:10.16	258.63	10.77	-44.1	-47.3	16.1	0.00e+00	0	44	0	118489088	59	5329
2026-01-29 12:10:11.44	258.85	10.81	-44.2	-47.4	16.0	0.00e+00	0	44	0	121634816	59	5396
2026-01-29 12:10:12.16	258.98	10.83	-44.1	-47.4	16.0	0.00e+00	0	44	0	122683392	59	5341
2026-01-29 12:10:13.44	259.21	10.86	-44.2	-47.4	15.9	0.00e+00	0	44	0	124780544	59	5394
2026-01-29 12:10:14.16	259.33	10.88	-44.2	-47.4	16.0	0.00e+00	0	44	0	125829120	59	5391
2026-01-29 12:10:15.44	259.56	10.92	-44.3	-47.5	15.9	0.00e+00	0	44	0	128974848	59	5422
2026-01-29 12:10:16.17	259.69	10.94	-44.3	-47.5	15.9	0.00e+00	0	44	0	130023424	59	5452
2026-01-29 12:10:17.45	259.92	10.97	-44.3	-47.5	15.9	0.00e+00	0	44	0	132120576	59	5454
2026-01-29 12:10:18.17	260.04	10.99	-44.3	-47.5	15.9	0.00e+00	0	44	0	134217728	59	5416
2026-01-29 12:10:19.46	260.27	11.03	-44.3	-47.4	16.0	0.00e+00	0	43	0	136314880	59	5372
2026-01-29 12:10:20.19	260.40	11.05	-44.3	-47.4	16.1	0.00e+00	0	44	0	137363456	59	5350
2026-01-29 12:10:21.48	260.63	11.08	-44.3	-47.4	16.0	0.00e+00	0	44	0	139460608	59	5399
2026-01-29 12:10:22.19	260.76	11.10	-44.4	-47.5	15.9	0.00e+00	0	44	0	141557760	59	5417
2026-01-29 12:10:23.47	260.99	11.13	-44.5	-47.7	15.7	0.00e+00	0	44	0	143654912	59	5544
2026-01-29 12:10:24.19	261.12	11.15	-44.5	-47.8	15.7	0.00e+00	0	44	0	144703488	59	5600
2026-01-29 12:10:25.48	261.35	11.18	-44.6	-47.8	15.6	0.00e+00	0	44	0	147849216	59	5615
2026-01-29 12:10:26.19	261.48	11.20	-44.6	-47.9	15.5	0.00e+00	0	44	0	148897792	59	5693
2026-01-29 12:10:27.48	261.71	11.23	-44.5	-47.7	15.7	0.00e+00	0	44	0	150994944	59	5575
2026-01-29 12:10:28.20	261.84	11.25	-44.5	-47.7	15.7	0.00e+00	0	44	0	152043520	59	5578
2026-01-29 12:10:29.49	262.08	11.28	-44.5	-47.7	15.7	0.00e+00	0	44	0	155189248	59	5530
2026-01-29 12:10:30.20	262.20	11.30	-44.5	-47.6	15.8	0.00e+00	0	44	0	156237824	59	5520
2026-01-29 12:10:31.49	262.44	11.33	-44.4	-47.6	15.8	0.00e+00	0	44	0	158334976	59	5489
2026-01-29 12:10:32.20	262.57	11.35	-44.3	-47.5	16.0	0.00e+00	0	44	0	160432128	59	5411
2026-01-29 12:10:33.49	262.80	11.38	-44.2	-47.3	16.1	0.00e+00	0	43	0	162529280	59	5286
2026-01-29 12:10:34.20	262.93	11.39	-44.1	-47.2	16.2	0.00e+00	0	44	0	163577856	59	5228
2026-01-29 12:10:35.49	263.17	11.42	-44.1	-47.3	16.1	0.00e+00	0	44	0	166723584	59	5284
2026-01-29 12:10:36.20	263.30	11.44	-44.1	-47.2	16.2	0.00e+00	0	44	0	167772160	59	5221
2026-01-29 12:10:37.48	263.53	11.47	-44.0	-47.0	16.3	0.00e+00	0	44	0	169869312	59	5145
2026-01-29 12:10:38.21	263.67	11.48	-44.0	-47.1	16.3	0.00e+00	0	44	0	170917888	59	5172
2026-01-29 12:10:39.50	263.90	11.51	-44.0	-47.0	16.4	0.00e+00	0	44	0	174063616	59	5144
2026-01-29 12:10:40.21	264.03	11.53	-44.0	-47.0	16.4	0.00e+00	0	44	0	175112192	59	5130
2026-01-29 12:10:41.50	264.27	11.55	-44.2	-47.2	16.2	0.00e+00	0	44	0	177209344	59	5223
2026-01-29 12:10:42.21	264.40	11.57	-44.1	-47.1	16.3	0.00e+00	0	44	0	179306496	59	5194
2026-01-29 12:10:43.50	264.64	11.60	-44.2	-47.2	16.2	0.00e+00	0	44	0	181403648	59	5229
2026-01-29 12:10:44.21	264.77	11.61	-44.2	-47.2	16.2	0.00e+00	0	44	0	182452224	59	5225
2026-01-29 12:10:45.50	265.01	11.64	-44.3	-47.3	16.1	0.00e+00	0	44	0	184549376	59	5294
2026-01-29 12:10:46.21	265.14	11.65	-44.2	-47.1	16.3	0.00e+00	0	44	0	186646528	59	5195
2026-01-29 12:10:47.50	265.38	11.68	-46.1	-50.1	13.5	1.60e-05	0	44	0	188743680	63	5821
2026-01-29 12:10:48.22	265.52	11.69	-46.1	-50.4	13.0	9.15e-05	0	44	0	189792256	64	5684
2026-01-29 12:10:49.50	265.75	11.72	-46.3	-50.9	12.5	7.17e-05	0	44	0	192937984	64	6001
2026-01-29 12:10:50.22	265.89	11.73	-46.1	-50.3	13.0	1.36e-04	0	44	0	193986560	64	5656
2026-01-29 12:10:51.50	266.13	11.75	-45.7	-49.6	13.8	2.20e-06	0	44	0	196083712	62	5796
2026-01-29 12:10:52.22	266.26	11.77	-45.4	-49.1	14.4	3.00e-06	0	44	0	197132288	62	5471
2026-01-29 12:10:53.50	266.50	11.79	-44.4	-47.6	15.8	0.00e+00	0	44	0	200278016	60	5188
2026-01-29 12:10:54.21	266.63	11.80	-44.0	-47.0	16.4	0.00e+00	0	44	0	201326592	60	4856
2026-01-29 12:10:55.50	266.88	11.83	-43.7	-46.6	16.8	0.00e+00	0	44	0	203423744	59	4891
2026-01-29 12:10:56.21	267.01	11.84	-43.6	-46.4	16.9	0.00e+00	0	44	0	205520896	59	4799
2026-01-29 12:10:57.50	267.25	11.86	-43.8	-46.7	16.7	0.00e+00	0	44	0	207618048	59	4953
2026-01-29 12:10:58.22	267.39	11.88	-43.9	-46.8	16.6	0.00e+00	0	44	0	208666624	59	5000
2026-01-29 12:10:59.50	267.63	11.90	-44.0	-47.0	16.4	0.00e+00	0	44	0	210763776	59	5135
2026-01-29 12:11:00.22	267.76	11.91	-44.1	-47.1	16.3	0.00e+00	0	44	0	212860928	59	5172
2026-01-29 12:11:01.51	268.01	11.93	-44.2	-47.2	16.2	0.00e+00	0	44	0	214958080	59	5258
2026-01-29 12:11:02.22	268.14	11.94	-44.2	-47.2	16.2	0.00e+00	0	44	0	216006656	59	5264
2026-01-29 12:11:03.51	268.39	11.96	-44.3	-47.4	16.0	0.00e+00	0	44	0	219152384	59	5348
2026-01-29 12:11:04.23	268.52	11.97	-44.3	-47.3	16.1	0.00e+00	0	44	0	220200960	59	5294
2026-01-29 12:11:05.51	268.77	11.99	-44.3	-47.4	16.1	0.00e+00	0	44	0	222298112	59	5354
2026-01-29 12:11:06.22	268.90	12.00	-44.2	-47.3	16.1	0.00e+00	0	44	0	223346688	59	5304
2026-01-29 12:11:07.51	269.14	12.02	-44.3	-47.3	16.1	0.00e+00	0	44	0	226492416	59	5316
2026-01-29 12:11:08.22	269.28	12.03	-44.3	-47.3	16.1	0.00e+00	0	44	0	227540992	59	5316
2026-01-29 12:11:09.51	269.53	12.05	-44.2	-47.2	16.2	0.00e+00	0	44	0	229638144	59	5250
2026-01-29 12:11:10.22	269.66	12.06	-44.2	-47.2	16.2	0.00e+00	0	44	0	231735296	59	5279
2026-01-29 12:11:11.50	269.90	12.08	-44.4	-47.4	16.0	0.00e+00	0	44	0	233832448	59	5367
2026-01-29 12:11:12.22	270.04	12.09	-44.4	-47.5	15.9	0.00e+00	0	44	0	234881024	59	5439
2026-01-29 12:11:13.50	270.29	12.10	-44.5	-47.6	15.8	0.00e+00	0	44	0	236978176	59	5496
2026-01-29 12:11:14.21	270.42	12.11	-44.6	-47.8	15.7	0.00e+00	0	44	0	239075328	59	5597
2026-01-29 12:11:15.50	270.67	12.13	-44.7	-47.9	15.5	0.00e+00	0	44	0	241172480	59	5701
2026-01-29 12:11:16.21	270.81	12.14	-44.7	-48.0	15.4	0.00e+00	0	44	0	242221056	60	5447
2026-01-29 12:11:17.50	271.05	12.15	-44.8	-48.1	15.4	0.00e+00	0	44	0	245366784	60	5517
2026-01-29 12:11:18.21	271.19	12.16	-44.8	-48.2	15.3	0.00e+00	0	44	0	246415360	60	5571
2026-01-29 12:11:19.50	271.44	12.18	-44.7	-48.0	15.4	0.00e+00	0	44	0	248512512	60	5459
2026-01-29 12:11:20.21	271.57	12.18	-44.7	-48.0	15.4	0.00e+00	0	44	0	250609664	60	5429
2026-01-29 12:11:21.51	271.82	12.20	-44.7	-47.9	15.5	0.00e+00	0	44	0	252706816	60	5396
2026-01-29 12:11:22.22	271.96	12.20	-44.7	-47.9	15.6	0.00e+00	0	44	0	253755392	60	5353
2026-01-29 12:11:23.51	272.21	12.22	-44.7	-47.9	15.6	0.00e+00	0	44	0	255852544	60	5358
2026-01-29 12:11:24.22	272.34	12.22	-44.7	-48.0	15.5	0.00e+00	0	44	0	257949696	60	5420
2026-01-29 12:11:25.51	272.59	12.24	-44.7	-47.9	15.6	0.00e+00	0	44	0	260046848	60	5401
2026-01-29 12:11:26.23	272.73	12.24	-44.7	-47.9	15.6	0.00e+00	0	44	0	261095424	60	5382
2026-01-29 12:11:27.51	272.98	12.26	-44.6	-47.9	15.6	0.00e+00	0	44	0	264241152	60	5347
2026-01-29 12:11:28.23	273.12	12.26	-44.6	-47.8	15.7	0.00e+00	0	44	0	265289728	60	5324
2026-01-29 12:11:29.51	273.36	12.27	-44.5	-47.7	15.8	0.00e+00	0	44	0	267386880	60	5261
2026-01-29 12:11:30.23	273.50	12.28	-44.6	-47.8	15.7	0.00e+00	0	44	0	268435456	60	5306
2026-01-29 12:11:31.51	273.75	12.29	-44.6	-47.7	15.7	0.00e+00	0	44	0	271581184	60	5270
2026-01-29 12:11:32.23	273.89	12.29	-44.6	-47.8	15.8	0.00e+00	0	44	0	272629760	60	5282
2026-01-29 12:11:33.51	274.14	12.30	-44.6	-47.8	15.7	0.00e+00	0	44	0	274726912	60	5289
2026-01-29 12:11:34.23	274.28	12.31	-44.6	-47.8	15.8	0.00e+00	0	44	0	276824064	60	5283
2026-01-29 12:11:35.52	274.53	12.32	-44.6	-47.7	15.8	0.00e+00	0	44	0	278921216	60	5252
2026-01-29 12:11:36.23	274.66	12.32	-44.6	-47.7	15.8	0.00e+00	0	44	0	279969792	60	5249
2026-01-29 12:11:37.52	274.91	12.33	-44.6	-47.7	15.8	0.00e+00	0	44	0	282066944	60	5260
2026-01-29 12:11:38.23	275.05	12.33	-44.5	-47.7	15.8	0.00e+00	0	44	0	284164096	60	5230
2026-01-29 12:11:39.52	275.30	12.34	-44.5	-47.7	15.8	0.00e+00	0	44	0	286261248	60	5246
2026-01-29 12:11:40.23	275.44	12.34	-44.5	-47.6	15.9	0.00e+00	0	44	0	287309824	60	5206
2026-01-29 12:11:41.52	275.69	12.35	-44.4	-47.6	15.9	0.00e+00	0	44	0	290455552	60	5184
2026-01-29 12:11:42.24	275.83	12.35	-44.5	-47.7	15.8	0.00e+00	0	44	0	291504128	60	5249
2026-01-29 12:11:43.53	276.08	12.36	-44.4	-47.5	15.9	0.00e+00	0	44	0	293601280	60	5134
2026-01-29 12:11:44.24	276.22	12.36	-44.3	-47.4	16.1	0.00e+00	0	44	0	294649856	60	5067
2026-01-29 12:11:45.53	276.47	12.37	-44.2	-47.3	16.2	0.00e+00	0	44	0	297795584	60	4987
2026-01-29 12:11:46.25	276.61	12.37	-44.2	-47.2	16.3	0.00e+00	0	44	0	298844160	60	4942
2026-01-29 12:11:47.53	276.86	12.37	-44.2	-47.2	16.3	0.00e+00	0	44	0	300941312	60	4948
2026-01-29 12:11:48.24	277.00	12.38	-44.2	-47.3	16.3	0.00e+00	0	44	0	303038464	60	4990
2026-01-29 12:11:49.53	277.25	12.38	-44.0	-46.9	16.5	0.00e+00	0	44	0	305135616	59	5048
2026-01-29 12:11:50.25	277.39	12.38	-44.0	-47.1	16.4	0.00e+00	0	44	0	306184192	59	5171
2026-01-29 12:11:51.53	277.64	12.38	-44.2	-47.3	16.1	0.00e+00	0	43	0	308281344	59	5314
2026-01-29 12:11:52.24	277.77	12.38	-44.2	-47.3	16.2	0.00e+00	0	44	0	310378496	59	5313
2026-01-29 12:11:53.53	278.02	12.39	-44.3	-47.4	16.1	0.00e+00	0	44	0	312475648	59	5364
2026-01-29 12:11:54.24	278.16	12.39	-44.3	-47.4	16.1	0.00e+00	0	44	0	313524224	59	5365
2026-01-29 12:11:55.52	278.41	12.39	-44.3	-47.4	16.1	0.00e+00	0	44	0	316669952	59	5355
2026-01-29 12:11:56.24	278.55	12.39	-44.2	-47.2	16.2	0.00e+00	0	44	0	317718528	59	5243
2026-01-29 12:11:57.52	278.80	12.39	-44.1	-47.1	16.4	0.00e+00	0	44	0	319815680	59	5180
2026-01-29 12:11:58.24	278.94	12.39	-44.1	-47.1	16.4	0.00e+00	0	44	0	320864256	59	5164
2026-01-29 12:11:59.52	279.19	12.39	-44.1	-47.1	16.3	0.00e+00	0	44	0	324009984	59	5184
2026-01-29 12:12:00.25	279.33	12.39	-44.2	-47.2	16.2	0.00e+00	0	44	0	325058560	59	5228
2026-01-29 12:12:01.53	279.58	12.39	-44.1	-47.0	16.4	0.00e+00	0	44	0	327155712	59	5144
2026-01-29 12:12:02.27	279.72	12.38	-44.1	-47.2	16.2	0.00e+00	0	44	0	329252864	59	5219
2026-01-29 12:12:03.55	279.97	12.38	-44.0	-47.0	16.4	0.00e+00	0	44	0	331350016	59	5124
2026-01-29 12:12:04.28	280.12	12.38	-43.9	-46.9	16.5	0.00e+00	0	44	0	332398592	59	5044
2026-01-29 12:12:05.57	280.37	12.38	-43.9	-46.8	16.6	0.00e+00	0	44	0	335544320	59	4994
2026-01-29 12:12:06.28	280.50	12.38	-44.0	-46.8	16.6	0.00e+00	0	44	0	336592896	59	5028
2026-01-29 12:12:07.57	280.75	12.37	-43.8	-46.7	16.7	0.00e+00	0	44	0	338690048	59	4932
2026-01-29 12:12:08.28	280.89	12.37	-43.9	-46.6	16.8	0.00e+00	0	44	0	339738624	59	4924
2026-01-29 12:12:09.57	281.14	12.37	-43.7	-46.4	17.0	0.00e+00	0	44	0	342884352	59	4791
2026-01-29 12:12:10.29	281.28	12.36	-43.6	-46.3	17.1	0.00e+00	0	44	0	343932928	59	4722
2026-01-29 12:12:11.57	281.53	12.36	-43.4	-46.1	17.3	0.00e+00	0	44	0	346030080	58	4884
2026-01-29 12:12:12.29	281.67	12.35	-43.4	-46.0	17.4	0.00e+00	0	44	0	348127232	58	4861
2026-01-29 12:12:13.58	281.92	12.35	-43.4	-46.0	17.4	0.00e+00	0	44	0	350224384	58	4843
2026-01-29 12:12:14.29	282.06	12.35	-43.3	-46.0	17.4	0.00e+00	0	44	0	351272960	58	4828
2026-01-29 12:12:15.58	282.31	12.34	-43.5	-46.1	17.3	0.00e+00	0	44	0	353370112	58	4915
2026-01-29 12:12:16.29	282.45	12.33	-43.5	-46.1	17.3	0.00e+00	0	44	0	355467264	58	4910
2026-01-29 12:12:17.58	282.70	12.33	-43.5	-46.2	17.3	0.00e+00	0	44	0	357564416	58	4937
2026-01-29 12:12:18.30	282.84	12.32	-43.5	-46.2	17.2	0.00e+00	0	44	0	358612992	58	4932
2026-01-29 12:12:19.58	283.08	12.31	-43.6	-46.3	17.1	0.00e+00	0	44	0	361758720	58	4988
2026-01-29 12:12:20.30	283.22	12.31	-43.5	-46.2	17.2	0.00e+00	0	44	0	362807296	58	4934
2026-01-29 12:12:21.58	283.47	12.30	-43.3	-45.9	17.5	0.00e+00	0	44	0	364904448	58	4797
2026-01-29 12:12:22.30	283.61	12.30	-43.3	-45.9	17.5	0.00e+00	0	44	0	365953024	58	4791
2026-01-29 12:12:23.58	283.86	12.29	-43.4	-46.0	17.4	0.00e+00	0	44	0	369098752	58	4861
2026-01-29 12:12:24.29	283.99	12.28	-43.2	-45.8	17.6	0.00e+00	0	44	0	370147328	58	4724
2026-01-29 12:12:25.58	284.24	12.27	-43.2	-45.9	17.5	0.00e+00	0	44	0	372244480	58	4767
2026-01-29 12:12:26.29	284.38	12.26	-43.3	-46.0	17.4	0.00e+00	0	44	0	374341632	58	4817
2026-01-29 12:12:27.58	284.63	12.25	-43.2	-45.9	17.5	0.00e+00	0	44	0	376438784	58	4762
2026-01-29 12:12:28.29	284.76	12.25	-43.2	-45.9	17.5	0.00e+00	0	44	0	377487360	58	4761
2026-01-29 12:12:29.58	285.01	12.23	-43.2	-45.9	17.5	0.00e+00	0	44	0	380633088	58	4767
2026-01-29 12:12:30.29	285.15	12.23	-43.2	-45.8	17.5	0.00e+00	0	44	0	381681664	58	4744
2026-01-29 12:12:31.59	285.40	12.21	-43.2	-45.8	17.5	0.00e+00	0	44	0	383778816	58	4753
2026-01-29 12:12:32.33	285.54	12.21	-43.2	-45.8	17.6	0.00e+00	0	44	0	384827392	58	4750
2026-01-29 12:12:33.61	285.79	12.19	-43.2	-45.8	17.6	0.00e+00	0	44	0	387973120	58	4732
2026-01-29 12:12:34.35	285.93	12.19	-43.3	-45.9	17.5	0.00e+00	0	44	0	389021696	58	4784
2026-01-29 12:12:35.63	286.17	12.17	-43.3	-46.0	17.4	0.00e+00	0	44	0	391118848	58	4831
2026-01-29 12:12:36.36	286.31	12.16	-43.3	-45.9	17.5	0.00e+00	0	44	0	393216000	58	4783
2026-01-29 12:12:37.64	286.56	12.15	-43.3	-45.9	17.4	0.00e+00	0	44	0	395313152	58	4787
2026-01-29 12:12:38.35	286.70	12.14	-43.2	-45.8	17.6	0.00e+00	0	44	0	396361728	58	4729
2026-01-29 12:12:39.64	286.94	12.12	-43.2	-45.8	17.6	0.00e+00	0	44	0	399507456	58	4734
2026-01-29 12:12:40.35	287.08	12.12	-43.3	-46.0	17.4	0.00e+00	0	44	0	400556032	58	4822
2026-01-29 12:12:41.63	287.32	12.10	-43.4	-46.0	17.3	0.00e+00	0	44	0	402653184	58	4859
2026-01-29 12:12:42.36	287.46	12.09	-43.4	-46.1	17.3	0.00e+00	0	44	0	403701760	58	4895
2026-01-29 12:12:43.64	287.70	12.07	-43.4	-46.1	17.3	0.00e+00	0	44	0	406847488	58	4900
2026-01-29 12:12:44.38	287.85	12.06	-43.5	-46.1	17.2	0.00e+00	0	44	0	407896064	58	4925
2026-01-29 12:12:45.66	288.09	12.05	-43.5	-46.1	17.2	0.00e+00	0	44	0	409993216	58	4918
2026-01-29 12:12:46.37	288.22	12.04	-43.5	-46.2	17.2	0.00e+00	0	44	0	412090368	58	4933
2026-01-29 12:12:47.65	288.47	12.02	-43.5	-46.2	17.2	0.00e+00	0	44	0	414187520	58	4929
2026-01-29 12:12:48.37	288.60	12.01	-43.5	-46.2	17.2	0.00e+00	0	44	0	415236096	58	4935
2026-01-29 12:12:49.65	288.84	11.99	-43.5	-46.3	17.1	0.00e+00	0	44	0	417333248	58	4997
2026-01-29 12:12:50.37	288.98	11.98	-43.5	-46.2	17.1	0.00e+00	0	44	0	419430400	58	4975
2026-01-29 12:12:51.66	289.22	11.96	-43.6	-46.3	17.0	0.00e+00	0	44	0	421527552	58	5027
2026-01-29 12:12:52.38	289.36	11.94	-43.6	-46.3	17.0	0.00e+00	0	44	0	422576128	58	5041
2026-01-29 12:12:53.66	289.60	11.92	-43.6	-46.3	17.1	0.00e+00	0	44	0	425721856	58	5019
2026-01-29 12:12:54.37	289.74	11.91	-43.6	-46.4	17.0	0.00e+00	0	44	0	426770432	58	5048
2026-01-29 12:12:55.65	289.98	11.89	-43.6	-46.3	17.0	0.00e+00	0	44	0	428867584	58	5041
2026-01-29 12:12:56.41	290.12	11.88	-43.6	-46.3	17.1	0.00e+00	0	44	0	430964736	58	5014
2026-01-29 12:12:57.69	290.36	11.86	-43.6	-46.3	17.1	0.00e+00	0	44	0	433061888	58	5013
2026-01-29 12:12:58.41	290.49	11.84	-43.6	-46.4	17.0	0.00e+00	0	44	0	434110464	58	5066
2026-01-29 12:12:59.69	290.73	11.82	-43.7	-46.5	16.9	0.00e+00	0	44	0	436207616	58	5131
2026-01-29 12:13:00.40	290.87	11.81	-43.8	-46.6	16.7	0.00e+00	0	44	0	438304768	58	5206
2026-01-29 12:13:01.69	291.11	11.79	-43.9	-46.8	16.6	0.00e+00	0	44	0	440401920	58	5287
2026-01-29 12:13:02.41	291.24	11.77	-43.9	-46.8	16.6	0.00e+00	0	44	0	441450496	58	5306
2026-01-29 12:13:03.69	291.48	11.75	-44.1	-47.0	16.3	0.00e+00	0	44	0	444596224	58	5457
2026-01-29 12:13:04.42	291.62	11.74	-44.1	-47.0	16.3	0.00e+00	0	44	0	445644800	58	5455
2026-01-29 12:13:05.71	291.86	11.71	-44.2	-47.2	16.2	0.00e+00	0	44	0	447741952	59	5236
2026-01-29 12:13:06.42	291.99	11.70	-44.1	-47.0	16.3	0.00e+00	0	44	0	448790528	59	5149
2026-01-29 12:13:07.70	292.22	11.67	-44.2	-47.2	16.2	0.00e+00	0	44	0	451936256	59	5219
2026-01-29 12:13:08.41	292.36	11.66	-44.0	-46.9	16.4	0.00e+00	0	44	0	452984832	59	5089
2026-01-29 12:13:09.70	292.59	11.63	-43.9	-46.8	16.6	0.00e+00	0	44	0	455081984	59	4988
2026-01-29 12:13:10.44	292.73	11.62	-43.8	-46.6	16.7	0.00e+00	0	44	0	457179136	59	4897
2026-01-29 12:13:11.72	292.97	11.59	-43.8	-46.6	16.7	0.00e+00	0	44	0	459276288	59	4905
2026-01-29 12:13:12.45	293.10	11.57	-43.8	-46.6	16.8	0.00e+00	0	44	0	460324864	59	4876
2026-01-29 12:13:13.74	293.34	11.55	-43.7	-46.4	16.9	0.00e+00	0	44	0	462422016	59	4791
2026-01-29 12:13:14.45	293.47	11.53	-43.6	-46.4	16.9	0.00e+00	0	44	0	464519168	59	4791
2026-01-29 12:13:15.73	293.70	11.50	-43.7	-46.5	16.8	0.00e+00	0	44	0	466616320	59	4855
2026-01-29 12:13:16.45	293.84	11.49	-43.7	-46.5	16.8	0.00e+00	0	44	0	467664896	59	4847
2026-01-29 12:13:17.73	294.07	11.46	-43.7	-46.5	16.9	0.00e+00	0	44	0	470810624	59	4823
2026-01-29 12:13:18.46	294.20	11.44	-43.7	-46.5	16.9	0.00e+00	0	44	0	471859200	59	4827
2026-01-29 12:13:19.74	294.44	11.42	-43.6	-46.4	16.9	0.00e+00	0	44	0	473956352	59	4779
2026-01-29 12:13:20.46	294.57	11.40	-43.6	-46.4	16.9	0.00e+00	0	44	0	476053504	59	4772
2026-01-29 12:13:21.74	294.80	11.37	-43.6	-46.3	17.0	0.00e+00	0	44	0	478150656	59	4728
2026-01-29 12:13:22.47	294.93	11.35	-43.7	-46.4	16.9	0.00e+00	0	44	0	479199232	59	4812
2026-01-29 12:13:23.75	295.16	11.32	-43.6	-46.4	16.8	0.00e+00	0	44	0	481296384	59	4810
2026-01-29 12:13:24.48	295.30	11.30	-43.7	-46.5	16.8	0.00e+00	0	44	0	483393536	59	4843
2026-01-29 12:13:25.77	295.53	11.27	-43.9	-46.7	16.6	0.00e+00	0	44	0	485490688	59	4977
2026-01-29 12:13:26.48	295.66	11.26	-43.7	-46.5	16.7	0.00e+00	0	44	0	486539264	59	4867
2026-01-29 12:13:27.76	295.89	11.23	-43.7	-46.5	16.8	0.00e+00	0	44	0	489684992	59	4848
2026-01-29 12:13:28.47	296.01	11.21	-43.8	-46.6	16.7	0.00e+00	0	44	0	490733568	59	4895
2026-01-29 12:13:29.75	296.24	11.18	-43.8	-46.6	16.7	0.00e+00	0	44	0	492830720	59	4889
2026-01-29 12:13:30.47	296.37	11.16	-43.8	-46.6	16.7	0.00e+00	0	44	0	493879296	59	4890
2026-01-29 12:13:31.75	296.60	11.13	-43.7	-46.4	16.9	0.00e+00	0	44	0	497025024	59	4810
2026-01-29 12:13:32.46	296.73	11.11	-43.7	-46.5	16.8	0.00e+00	0	44	0	498073600	59	4836
2026-01-29 12:13:33.75	296.96	11.07	-43.6	-46.4	16.9	0.00e+00	0	44	0	500170752	59	4778
2026-01-29 12:13:34.46	297.08	11.06	-43.6	-46.4	16.9	0.00e+00	0	44	0	502267904	59	4773
2026-01-29 12:13:35.75	297.31	11.02	-43.6	-46.3	17.0	0.00e+00	0	44	0	504365056	59	4750
2026-01-29 12:13:36.49	297.44	11.00	-43.6	-46.3	17.0	0.00e+00	0	44	0	505413632	59	4755
2026-01-29 12:13:37.77	297.67	10.97	-43.7	-46.5	16.8	0.00e+00	0	44	0	507510784	59	4832
2026-01-29 12:13:38.51	297.80	10.95	-43.7	-46.5	16.8	0.00e+00	0	44	0	509607936	59	4841
2026-01-29 12:13:39.79	298.03	10.91	-43.8	-46.6	16.7	0.00e+00	0	44	0	511705088	59	4893
2026-01-29 12:13:40.52	298.16	10.89	-43.8	-46.6	16.6	0.00e+00	0	44	0	512753664	59	4903
2026-01-29 12:13:41.80	298.38	10.86	-43.8	-46.7	16.6	0.00e+00	0	44	0	515899392	59	4953
2026-01-29 12:13:42.52	298.51	10.84	-43.9	-46.8	16.5	0.00e+00	0	44	0	516947968	59	5004
2026-01-29 12:13:43.82	298.73	10.80	-43.9	-46.8	16.5	0.00e+00	0	44	0	519045120	59	4984
2026-01-29 12:13:44.53	298.86	10.78	-43.9	-46.8	16.5	0.00e+00	0	44	0	521142272	59	5011
2026-01-29 12:13:45.82	299.08	10.75	-44.0	-46.9	16.3	0.00e+00	0	44	0	523239424	59	5082
2026-01-29 12:13:46.54	299.21	10.73	-43.9	-46.8	16.4	0.00e+00	0	44	0	524288000	59	5040
2026-01-29 12:13:47.81	299.43	10.69	-44.0	-47.0	16.3	0.00e+00	0	44	0	526385152	59	5114
2026-01-29 12:13:48.56	299.56	10.67	-44.1	-47.1	16.1	0.00e+00	0	44	0	528482304	59	5201
2026-01-29 12:13:49.84	299.78	10.63	-44.0	-47.0	16.3	0.00e+00	0	44	0	530579456	59	5120
2026-01-29 12:13:50.55	299.90	10.61	-44.0	-46.9	16.4	0.00e+00	0	44	0	531628032	59	5057
2026-01-29 12:13:51.84	300.12	10.57	-43.9	-46.8	16.4	0.00e+00	0	44	0	534773760	59	5034
2026-01-29 12:13:52.55	300.25	10.55	-43.9	-46.8	16.4	0.00e+00	0	44	0	535822336	59	5027
2026-01-29 12:13:53.83	300.47	10.51	-43.9	-46.7	16.5	0.00e+00	0	44	0	537919488	59	4980
2026-01-29 12:13:54.55	300.59	10.49	-43.8	-46.7	16.6	0.00e+00	0	44	0	538968064	59	4956
2026-01-29 12:13:55.84	300.81	10.45	-43.8	-46.7	16.5	0.00e+00	0	44	0	542113792	59	4941
2026-01-29 12:13:56.55	300.93	10.43	-43.8	-46.7	16.6	0.00e+00	0	44	0	543162368	59	4934
2026-01-29 12:13:57.83	301.15	10.39	-43.9	-46.8	16.4	0.00e+00	0	44	0	545259520	59	5020
2026-01-29 12:13:58.55	301.27	10.37	-44.0	-46.9	16.4	0.00e+00	0	44	0	547356672	59	5067
2026-01-29 12:13:59.83	301.49	10.33	-44.1	-47.1	16.1	0.00e+00	0	44	0	549453824	59	5185
2026-01-29 12:14:00.55	301.61	10.31	-44.1	-47.1	16.1	0.00e+00	0	44	0	550502400	59	5211
2026-01-29 12:14:01.83	301.82	10.27	-44.2	-47.2	16.0	0.00e+00	0	44	0	552599552	59	5242
2026-01-29 12:14:02.55	301.95	10.24	-44.2	-47.1	16.1	0.00e+00	0	44	0	554696704	59	5211
2026-01-29 12:14:03.83	302.16	10.20	-44.3	-47.3	15.9	0.00e+00	0	44	0	556793856	59	5335
2026-01-29 12:14:04.55	302.28	10.18	-44.2	-47.3	16.0	0.00e+00	0	44	0	557842432	59	5298
2026-01-29 12:14:05.83	302.50	10.14	-44.2	-47.2	16.0	0.00e+00	0	44	0	560988160	59	5274
2026-01-29 12:14:06.54	302.61	10.12	-44.3	-47.4	15.8	0.00e+00	0	44	0	562036736	59	5359
2026-01-29 12:14:07.83	302.83	10.07	-44.2	-47.2	16.0	0.00e+00	0	44	0	564133888	59	5257
2026-01-29 12:14:08.55	302.95	10.05	-44.2	-47.3	15.9	0.00e+00	0	44	0	565182464	59	5312
2026-01-29 12:14:09.84	303.16	10.01	-44.3	-47.5	15.8	0.00e+00	0	44	0	568328192	59	5416
2026-01-29 12:14:10.56	303.28	9.98	-44.3	-47.4	15.8	0.00e+00	0	44	0	569376768	59	5371
2026-01-29 12:14:11.84	303.49	9.94	-44.5	-47.6	15.6	0.00e+00	0	44	0	571473920	59	5500
2026-01-29 12:14:12.55	303.61	9.92	-44.4	-47.6	15.7	0.00e+00	0	44	0	573571072	59	5480
2026-01-29 12:14:13.84	303.82	9.88	-44.6	-47.8	15.5	0.00e+00	0	44	0	575668224	59	5610
2026-01-29 12:14:14.55	303.94	9.85	-44.6	-47.9	15.4	0.00e+00	0	44	0	576716800	59	5657
2026-01-29 12:14:15.83	304.15	9.81	-44.7	-48.1	15.2	0.00e+00	0	44	0	579862528	60	5476
2026-01-29 12:14:16.55	304.27	9.78	-44.8	-48.1	15.2	0.00e+00	0	44	0	580911104	60	5511
2026-01-29 12:14:17.84	304.48	9.74	-44.9	-48.4	14.9	0.00e+00	0	44	0	583008256	60	5662
2026-01-29 12:14:18.55	304.59	9.72	-44.9	-48.4	14.9	0.00e+00	0	44	0	584056832	60	5703
2026-01-29 12:14:19.83	304.80	9.67	-45.1	-48.6	14.7	7.00e-07	0	44	0	587202560	60	5848
2026-01-29 12:14:20.54	304.91	9.65	-45.1	-48.7	14.5	7.00e-07	0	44	0	588251136	60	5907
2026-01-29 12:14:21.82	305.12	9.60	-45.3	-49.0	14.3	7.00e-07	0	44	0	590348288	61	5768
2026-01-29 12:14:22.53	305.24	9.58	-45.4	-49.1	14.2	7.00e-07	0	44	0	592445440	61	5816
2026-01-29 12:14:23.82	305.44	9.53	-45.5	-49.3	14.0	2.20e-06	0	44	0	594542592	61	5928
2026-01-29 12:14:24.53	305.56	9.51	-45.5	-49.3	14.0	2.20e-06	0	44	0	595591168	61	5949
2026-01-29 12:14:25.82	305.76	9.46	-45.4	-49.2	14.1	3.00e-06	0	44	0	597688320	61	5888
2026-01-29 12:14:26.56	305.88	9.44	-45.3	-49.2	14.1	3.00e-06	0	44	0	599785472	61	5858
2026-01-29 12:14:27.84	306.08	9.39	-45.3	-49.2	14.1	1.50e-06	0	44	0	601882624	61	5869
2026-01-29 12:14:28.55	306.20	9.37	-45.3	-49.3	14.0	1.50e-06	0	44	0	602931200	61	5936
2026-01-29 12:14:29.83	306.40	9.32	-45.1	-48.9	14.4	0.00e+00	0	44	0	606076928	61	5697
2026-01-29 12:14:30.56	306.52	9.30	-45.0	-48.8	14.4	7.00e-07	0	44	0	607125504	61	5656
2026-01-29 12:14:31.84	306.72	9.25	-45.2	-49.0	14.2	7.00e-07	0	44	0	609222656	61	5782
2026-01-29 12:14:32.56	306.83	9.22	-45.3	-49.1	14.2	7.00e-07	0	44	0	610271232	61	5828
2026-01-29 12:14:33.84	307.03	9.18	-45.3	-49.2	14.0	2.20e-06	0	44	0	613416960	61	5900
2026-01-29 12:14:34.56	307.14	9.15	-45.4	-49.3	14.0	3.00e-06	0	44	0	614465536	61	5927
2026-01-29 12:14:35.85	307.35	9.10	-45.5	-49.4	13.8	3.00e-06	0	44	0	616562688	61	6044
2026-01-29 12:14:36.56	307.46	9.08	-45.6	-49.5	13.7	1.50e-06	0	44	0	618659840	61	6091
2026-01-29 12:14:37.85	307.66	9.03	-45.6	-49.5	13.7	0.00e+00	0	44	0	620756992	61	6100
2026-01-29 12:14:38.56	307.77	9.00	-46.9	-52.5	10.9	7.17e-05	0	44	0	621805568	64	7205
2026-01-29 12:14:39.85	307.97	8.96	-49.3	-64.6	3.8	1.49e+00	0	44	104	622854144	69	21893
2026-01-29 12:14:40.56	308.08	8.93	-49.4	-64.6	3.8	1.49e+00	0	44	104	622854144	69	21898
2026-01-29 12:14:41.84	308.27	8.88	-49.5	-64.6	3.8	1.49e+00	0	44	104	622854144	69	21973
2026-01-29 12:14:42.56	308.38	8.85	-49.4	-64.7	3.8	1.49e+00	0	44	104	622854144	69	22159
2026-01-29 12:14:43.84	308.58	8.81	-49.4	-64.7	3.8	1.49e+00	0	44	104	622854144	69	22189
2026-01-29 12:14:44.55	308.69	8.78	-49.6	-64.7	3.8	1.49e+00	0	44	104	622854144	69	22216
2026-01-29 12:14:45.84	308.88	8.73	-49.5	-64.8	3.8	1.49e+00	0	44	104	622854144	69	22279
2026-01-29 12:14:46.55	308.99	8.70	-49.5	-64.8	3.8	1.49e+00	0	44	104	622854144	69	22279
2026-01-29 12:14:47.83	309.19	8.66	-49.5	-64.8	3.8	1.49e+00	0	44	104	622854144	69	22303
2026-01-29 12:14:48.55	309.29	8.63	-49.5	-64.7	3.8	1.49e+00	0	44	104	622854144	69	22180
2026-01-29 12:14:49.83	309.49	8.58	-49.5	-64.7	3.8	1.49e+00	0	44	104	622854144	69	22218
2026-01-29 12:14:50.56	309.60	8.55	-49.5	-64.7	3.8	1.49e+00	0	44	104	622854144	69	22214
2026-01-29 12:14:51.84	309.79	8.50	-49.5	-64.7	3.8	1.49e+00	0	44	104	622854144	69	22255
2026-01-29 12:14:52.55	309.90	8.47	-49.5	-64.8	3.8	1.49e+00	0	44	104	622854144	69	22285
2026-01-29 12:14:53.85	310.09	8.42	-49.5	-64.7	3.8	1.49e+00	0	44	104	622854144	69	22251
2026-01-29 12:14:54.56	310.20	8.40	-49.5	-64.7	3.8	1.49e+00	0	44	104	622854144	69	22262
2026-01-29 12:14:55.84	310.39	8.35	-49.5	-64.7	3.8	1.49e+00	0	44	104	622854144	69	22234
2026-01-29 12:14:56.55	310.49	8.32	-49.5	-64.7	3.8	1.49e+00	0	44	104	622854144	69	22202
2026-01-29 12:14:57.84	310.68	8.27	-49.5	-64.7	3.8	1.49e+00	0	44	104	622854144	69	22223
2026-01-29 12:14:58.55	310.79	8.24	-49.5	-64.7	3.8	1.49e+00	0	44	104	622854144	69	22255
2026-01-29 12:14:59.83	310.97	8.19	-49.5	-64.7	3.8	1.49e+00	0	44	104	622854144	69	22232
2026-01-29 12:15:00.56	311.08	8.16	-49.5	-64.7	3.8	1.49e+00	0	44	104	622854144	69	22236
2026-01-29 12:15:01.84	311.27	8.11	-49.5	-64.7	3.8	1.49e+00	0	44	104	622854144	69	22209
2026-01-29 12:15:02.55	311.37	8.08	-49.5	-64.7	3.8	1.49e+00	0	44	104	622854144	69	22186
2026-01-29 12:15:03.84	311.56	8.03	-49.5	-64.7	3.8	1.49e+00	0	44	104	622854144	69	22216
2026-01-29 12:15:04.55	311.66	8.00	-49.5	-64.7	3.8	1.49e+00	0	44	104	622854144	69	22189
2026-01-29 12:15:05.83	311.85	7.95	-49.5	-64.7	3.8	1.49e+00	0	44	104	622854144	69	22171
2026-01-29 12:15:06.56	311.95	7.92	-49.5	-64.7	3.8	1.49e+00	0	44	104	622854144	69	22238
2026-01-29 12:15:07.85	312.14	7.87	-49.5	-64.7	3.8	1.49e+00	0	44	104	622854144	69	22219
2026-01-29 12:15:08.56	312.24	7.84	-49.5	-64.7	3.8	1.49e+00	0	44	104	622854144	69	22222
2026-01-29 12:15:09.84	312.42	7.79	-49.5	-64.7	3.8	1.49e+00	0	44	104	622854144	69	22135
2026-01-29 12:15:10.55	312.52	7.76	-49.5	-64.7	3.8	1.49e+00	0	44	104	622854144	69	22233
2026-01-29 12:15:11.84	312.71	7.71	-49.5	-64.7	3.8	1.49e+00	0	44	104	622854144	69	22168
2026-01-29 12:15:12.55	312.81	7.68	-49.5	-64.7	3.8	1.49e+00	0	44	104	622854144	69	22198
2026-01-29 12:15:13.84	312.99	7.63	-49.5	-64.7	3.8	1.49e+00	0	44	104	622854144	69	22203
2026-01-29 12:15:14.58	313.10	7.60	-49.5	-64.7	3.8	1.49e+00	0	44	104	622854144	69	22245
2026-01-29 12:15:15.85	313.28	7.55	-49.5	-64.7	3.8	1.49e+00	0	44	104	622854144	69	22179
2026-01-29 12:15:16.58	313.38	7.52	-49.5	-64.7	3.8	1.49e+00	0	44	104	622854144	69	22222
2026-01-29 12:15:17.86	313.56	7.47	-49.5	-64.7	3.8	1.49e+00	0	44	104	622854144	69	22164
2026-01-29 12:15:18.58	313.66	7.44	-49.5	-64.7	3.8	1.49e+00	0	44	104	622854144	69	22114
2026-01-29 12:15:19.86	313.84	7.39	-49.5	-64.7	3.8	1.49e+00	0	44	104	622854144	69	22166
2026-01-29 12:15:20.59	313.94	7.36	-49.5	-64.7	3.8	1.49e+00	0	44	104	622854144	69	22238
2026-01-29 12:15:21.87	314.11	7.30	-49.5	-64.7	3.8	1.49e+00	0	44	104	622854144	69	22109
2026-01-29 12:15:22.60	314.22	7.27	-49.5	-64.7	3.8	1.49e+00	0	44	104	622854144	69	22245
2026-01-29 12:15:23.88	314.39	7.22	-49.5	-64.7	3.8	1.49e+00	0	44	104	622854144	69	22225
2026-01-29 12:15:24.59	314.49	7.19	-49.5	-64.7	3.8	1.49e+00	0	44	104	622854144	69	22177
2026-01-29 12:15:25.88	314.67	7.14	-49.5	-64.7	3.8	1.49e+00	0	44	104	622854144	69	22207
2026-01-29 12:15:26.59	314.76	7.11	-49.5	-64.8	3.8	1.49e+00	0	44	104	622854144	69	22279
2026-01-29 12:15:27.87	314.94	7.05	-49.5	-64.7	3.8	1.49e+00	0	44	104	622854144	69	22187
2026-01-29 12:15:28.58	315.03	7.02	-49.5	-64.7	3.8	1.49e+00	0	44	104	622854144	69	22183
2026-01-29 12:15:29.86	315.21	6.97	-49.5	-64.7	3.8	1.49e+00	0	44	104	622854144	69	22202
2026-01-29 12:15:30.57	315.30	6.94	-49.5	-64.7	3.8	1.49e+00	0	44	104	622854144	69	22135
2026-01-29 12:15:31.85	315.48	6.89	-49.5	-64.7	3.8	1.49e+00	0	44	104	622854144	69	22165
2026-01-29 12:15:32.57	315.57	6.86	-49.5	-64.7	3.8	1.49e+00	0	44	104	622854144	69	22152
2026-01-29 12:15:33.85	315.74	6.80	-49.5	-64.7	3.8	1.49e+00	0	44	104	622854144	69	22242
2026-01-29 12:15:34.56	315.84	6.77	-49.5	-64.7	3.8	1.49e+00	0	44	104	622854144	69	22131
2026-01-29 12:15:35.85	316.01	6.72	-49.5	-64.7	3.8	1.49e+00	0	44	104	622854144	69	22162
2026-01-29 12:15:36.57	316.11	6.69	-49.5	-64.7	3.8	1.49e+00	0	44	104	622854144	69	22144
2026-01-29 12:15:37.86	316.28	6.64	-49.5	-64.7	3.8	1.49e+00	0	44	104	622854144	69	22199
2026-01-29 12:15:38.57	316.37	6.61	-49.5	-64.7	3.8	1.49e+00	0	44	104	622854144	69	22132
2026-01-29 12:15:39.85	316.54	6.55	-49.5	-64.7	3.8	1.49e+00	0	44	104	622854144	69	22245
2026-01-29 12:15:40.57	316.63	6.52	-49.5	-64.7	3.8	1.49e+00	0	44	104	622854144	69	22217
2026-01-29 12:15:41.85	316.80	6.47	-49.5	-64.7	3.8	1.49e+00	0	44	104	622854144	69	22135
2026-01-29 12:15:42.57	316.90	6.44	-49.5	-64.7	3.8	1.49e+00	0	44	104	622854144	69	22249
2026-01-29 12:15:43.86	317.06	6.38	-49.5	-64.7	3.8	1.49e+00	0	44	104	622854144	69	22146
2026-01-29 12:15:44.57	317.16	6.35	-49.5	-64.7	3.8	1.49e+00	0	44	104	622854144	69	22169
2026-01-29 12:15:45.85	317.32	6.30	-49.5	-64.7	3.8	1.49e+00	0	44	104	622854144	69	22221
2026-01-29 12:15:46.58	317.42	6.27	-49.5	-64.7	3.8	1.49e+00	0	44	104	622854144	69	22154
2026-01-29 12:15:47.86	317.58	6.21	-49.5	-64.7	3.8	1.49e+00	0	44	104	622854144	69	22118
2026-01-29 12:15:48.60	317.68	6.18	-49.5	-64.7	3.8	1.49e+00	0	44	104	622854144	69	22177
2026-01-29 12:15:49.88	317.84	6.12	-49.5	-64.7	3.8	1.49e+00	0	44	104	622854144	69	22134
2026-01-29 12:15:50.61	317.93	6.09	-49.5	-64.7	3.8	1.49e+00	0	44	104	622854144	69	22161
2026-01-29 12:15:51.89	318.10	6.04	-49.5	-64.7	3.8	1.49e+00	0	44	104	622854144	69	22114
2026-01-29 12:15:52.61	318.19	6.01	-49.5	-64.7	3.8	1.49e+00	0	44	104	622854144	69	22156
2026-01-29 12:15:53.89	318.35	5.95	-49.5	-64.7	3.8	1.49e+00	0	44	104	622854144	69	22204
2026-01-29 12:15:54.60	318.44	5.92	-49.5	-64.7	3.8	1.49e+00	0	44	104	622854144	69	22246
2026-01-29 12:15:55.89	318.60	5.87	-49.5	-64.7	3.8	1.49e+00	0	44	104	622854144	69	22181
2026-01-29 12:15:56.60	318.69	5.84	-49.5	-64.7	3.8	1.49e+00	0	44	104	622854144	69	22229
2026-01-29 12:15:57.89	318.85	5.78	-49.5	-64.7	3.8	1.49e+00	0	44	104	622854144	69	22142
2026-01-29 12:15:58.60	318.94	5.75	-49.5	-64.7	3.8	1.49e+00	0	44	104	622854144	69	22187
2026-01-29 12:15:59.88	319.10	5.69	-49.5	-64.7	3.8	1.49e+00	0	44	104	622854144	69	22199
2026-01-29 12:16:00.59	319.19	5.66	-49.5	-64.7	3.8	1.49e+00	0	44	104	622854144	69	22115
2026-01-29 12:16:01.88	319.35	5.61	-49.5	-64.7	3.8	1.49e+00	0	44	104	622854144	69	22136
2026-01-29 12:16:02.59	319.44	5.58	-49.5	-64.7	3.8	1.49e+00	0	44	104	622854144	69	22131
2026-01-29 12:16:03.87	319.59	5.52	-49.5	-64.7	3.8	1.49e+00	0	44	104	622854144	69	22167
2026-01-29 12:16:04.59	319.68	5.49	-49.5	-64.7	3.8	1.49e+00	0	44	104	622854144	69	22159
2026-01-29 12:16:05.87	319.84	5.43	-49.5	-64.7	3.8	1.49e+00	0	44	104	622854144	69	22100
2026-01-29 12:16:06.59	319.93	5.40	-49.5	-64.8	3.8	1.49e+00	0	44	104	622854144	69	22307
2026-01-29 12:16:07.87	320.08	5.35	-49.5	-64.7	3.8	1.49e+00	0	44	104	622854144	69	22164
2026-01-29 12:16:08.59	320.17	5.32	-49.5	-64.7	3.8	1.49e+00	0	44	104	622854144	69	22197
2026-01-29 12:16:09.87	320.32	5.26	-49.5	-64.7	3.8	1.49e+00	0	44	104	622854144	69	22198
2026-01-29 12:16:10.58	320.41	5.23	-49.5	-64.7	3.8	1.49e+00	0	44	104	622854144	69	22242
2026-01-29 12:16:11.86	320.56	5.17	-49.5	-64.7	3.8	1.49e+00	0	44	104	622854144	69	22210
2026-01-29 12:16:12.59	320.65	5.14	-49.5	-64.7	3.8	1.49e+00	0	44	104	622854144	69	22088
2026-01-29 12:16:13.88	320.81	5.08	-49.5	-64.7	3.8	1.49e+00	0	44	104	622854144	69	22221
2026-01-29 12:16:14.59	320.89	5.05	-49.5	-64.7	3.8	1.49e+00	0	44	104	622854144	69	22254
2026-01-29 12:16:15.87	321.04	5.00	-49.5	-64.7	3.8	1.49e+00	0	44	104	622854144	69	22206

#Closed at: 2026-01-29 12:16:16
#Recorded file [622 MB]: D:/Data/31040_260129_150742.dat