passes_logs/2026/01/29/T1/T1__20260129_003338_NOAA_20_JPSS-1_rec.log

#Pass ID: 20260129_003338_NOAA 20 (JPSS-1)
#Satellite: NOAA 20 (JPSS-1)
#Configuration: NOAA 20
#almurnet v.1.7.20251203
#Start time: 2026-01-29 00:33:39

#Version: 2.0.20230620
#Station: T1
#Location: 37.570604 lon 55.790049 lat
#TLE: 1 43013U 17073A   26027.80586608  .00000156  00000+0  94940-4 0  9998
#TLE: 2 43013  98.7647 328.6108 0000947  21.3465 338.7750 14.19541216424550

#Time	Az	El	Level	Level2	SNR	BER	BlckErr	Temp	State	Recorded	gain1	gain2
2026-01-29 00:33:39.87	11.01	5.11	-50.0	-65.3	3.8	1.49e+00	0	41	0	0	70	22349
2026-01-29 00:33:40.86	10.97	5.17	-50.2	-65.3	3.8	1.49e+00	0	41	104	0	72	19921
2026-01-29 00:33:41.85	10.93	5.24	-50.2	-65.3	3.8	1.49e+00	0	41	104	0	72	19958
2026-01-29 00:33:42.84	10.89	5.31	-50.2	-65.3	3.8	1.49e+00	0	41	104	0	72	19985
2026-01-29 00:33:43.84	10.85	5.38	-50.2	-65.3	3.8	1.49e+00	0	41	104	0	72	19930
2026-01-29 00:33:44.83	10.80	5.45	-50.1	-65.3	3.8	1.49e+00	0	41	104	0	72	19978
2026-01-29 00:33:45.82	10.76	5.52	-50.0	-65.3	3.8	1.49e+00	0	41	104	0	71	21227
2026-01-29 00:33:46.81	10.72	5.59	-50.2	-65.3	3.8	1.49e+00	0	41	104	0	71	21147
2026-01-29 00:33:47.81	10.68	5.66	-50.1	-65.3	3.8	1.49e+00	0	41	104	0	71	21140
2026-01-29 00:33:48.80	10.63	5.73	-50.1	-65.2	3.8	1.49e+00	0	41	104	0	71	21004
2026-01-29 00:33:49.79	10.59	5.79	-50.0	-65.2	3.8	1.49e+00	0	41	104	0	71	20807
2026-01-29 00:33:50.79	10.55	5.87	-49.8	-65.2	3.8	1.49e+00	0	41	104	0	71	20874
2026-01-29 00:33:51.78	10.50	5.94	-49.9	-65.2	3.8	1.49e+00	0	41	104	0	71	20838
2026-01-29 00:33:52.77	10.46	6.01	-49.9	-65.1	3.8	1.49e+00	0	41	104	0	71	20762
2026-01-29 00:33:53.77	10.41	6.08	-49.9	-65.1	3.8	1.49e+00	0	41	104	0	71	20741
2026-01-29 00:33:54.76	10.37	6.15	-49.5	-65.1	3.8	1.49e+00	0	41	104	0	71	20660
2026-01-29 00:33:55.75	10.32	6.22	-49.3	-65.1	3.8	1.49e+00	0	41	104	0	70	21928
2026-01-29 00:33:56.75	10.28	6.29	-49.5	-65.1	3.8	1.49e+00	0	41	104	0	70	21761
2026-01-29 00:33:57.74	10.23	6.36	-49.1	-65.0	3.8	1.49e+00	0	41	104	0	70	21747
2026-01-29 00:33:58.73	10.19	6.43	-49.8	-65.0	3.8	1.49e+00	0	41	104	0	70	21583
2026-01-29 00:33:59.73	10.14	6.50	-48.3	-64.9	3.8	1.49e+00	0	41	104	0	68	24024
2026-01-29 00:34:00.72	10.10	6.57	-49.1	-64.7	3.8	1.49e+00	0	42	104	0	68	23467
2026-01-29 00:34:01.71	10.05	6.64	-46.4	-64.2	3.8	1.49e+00	0	41	104	0	64	27765
2026-01-29 00:34:02.71	10.00	6.72	-46.8	-64.3	3.8	1.49e+00	0	41	104	0	64	28087
2026-01-29 00:34:03.70	9.96	6.79	-46.7	-64.1	3.8	1.49e+00	0	41	104	0	64	27685
2026-01-29 00:34:04.69	9.91	6.86	-46.7	-63.8	3.8	1.49e+00	0	41	104	0	64	26632
2026-01-29 00:34:05.69	9.86	6.93	-46.7	-63.6	3.8	1.49e+00	0	42	104	0	64	25895
2026-01-29 00:34:06.68	9.82	7.01	-46.7	-63.3	3.8	1.49e+00	0	42	104	0	64	25036
2026-01-29 00:34:07.67	9.77	7.08	-46.7	-63.0	3.8	1.49e+00	0	42	104	0	64	24403
2026-01-29 00:34:08.67	9.72	7.15	-46.7	-62.8	3.8	1.49e+00	0	42	104	0	64	23774
2026-01-29 00:34:09.66	9.67	7.23	-46.7	-62.6	3.8	1.49e+00	0	42	104	0	64	23275
2026-01-29 00:34:10.66	9.62	7.30	-46.7	-62.6	3.8	1.49e+00	0	42	104	0	64	23126
2026-01-29 00:34:11.65	9.57	7.37	-46.7	-62.5	3.8	1.49e+00	0	42	104	0	64	22835
2026-01-29 00:34:12.64	9.52	7.45	-46.7	-62.5	3.8	1.49e+00	0	42	104	0	64	22940
2026-01-29 00:34:13.64	9.47	7.52	-46.7	-62.5	3.9	1.49e+00	0	42	104	0	64	22783
2026-01-29 00:34:14.63	9.42	7.60	-46.7	-62.5	3.8	1.48e+00	0	42	104	0	64	22907
2026-01-29 00:34:15.63	9.37	7.67	-46.7	-62.5	3.9	1.49e+00	0	42	104	0	64	22865
2026-01-29 00:34:16.62	9.32	7.75	-46.7	-62.4	3.8	1.48e+00	0	42	104	0	64	22572
2026-01-29 00:34:17.61	9.27	7.82	-46.7	-62.1	3.8	1.49e+00	0	42	104	0	64	21893
2026-01-29 00:34:18.61	9.22	7.90	-46.6	-61.5	4.1	1.48e+00	0	42	104	0	64	20395
2026-01-29 00:34:19.60	9.17	7.97	-46.6	-60.6	4.3	1.41e+00	0	42	0	0	64	18395
2026-01-29 00:34:20.59	9.12	8.05	-46.5	-59.4	4.8	9.41e-01	0	42	0	1048576	64	16091
2026-01-29 00:34:21.58	9.07	8.12	-46.4	-58.1	5.5	6.20e-01	0	42	0	3145728	64	13795
2026-01-29 00:34:22.58	9.02	8.20	-46.2	-56.7	6.6	3.37e-01	0	42	0	5242880	64	11745
2026-01-29 00:34:23.57	8.97	8.27	-46.0	-55.4	7.8	1.03e-01	0	42	0	7340032	64	10169
2026-01-29 00:34:24.56	8.91	8.35	-46.0	-54.5	8.8	4.29e-02	0	42	0	8388608	63	9644
2026-01-29 00:34:25.56	8.86	8.43	-45.8	-53.6	9.7	1.58e-02	0	42	0	10485760	63	8722
2026-01-29 00:34:26.55	8.81	8.50	-45.6	-52.8	10.6	6.65e-03	0	42	0	12582912	63	7914
2026-01-29 00:34:27.55	8.75	8.58	-45.4	-52.3	11.1	2.05e-03	0	42	0	14680064	62	7906
2026-01-29 00:34:28.54	8.70	8.66	-45.4	-52.0	11.4	1.13e-03	0	42	0	16777216	62	7709
2026-01-29 00:34:29.53	8.65	8.73	-45.3	-51.9	11.6	8.12e-04	0	42	0	17825792	62	7544
2026-01-29 00:34:30.53	8.59	8.81	-45.4	-52.1	11.3	8.03e-04	0	42	0	19922944	62	7758
2026-01-29 00:34:31.52	8.54	8.89	-45.5	-52.4	11.0	1.45e-03	0	42	0	22020096	62	8040
2026-01-29 00:34:32.51	8.48	8.97	-45.6	-53.0	10.4	3.39e-03	0	42	0	24117248	62	8627
2026-01-29 00:34:33.50	8.43	9.04	-45.8	-53.1	10.3	8.78e-03	0	42	0	25165824	62	8681
2026-01-29 00:34:34.51	8.37	9.12	-45.8	-52.8	10.5	6.96e-03	0	42	0	27262976	62	8397
2026-01-29 00:34:35.51	8.31	9.20	-45.8	-52.7	10.8	6.32e-04	0	43	0	29360128	62	8322
2026-01-29 00:34:36.50	8.26	9.28	-46.5	-57.2	6.2	7.83e-01	0	42	0	31457280	63	13195
2026-01-29 00:34:37.50	8.20	9.36	-45.9	-52.6	10.5	3.32e-01	0	42	0	33554432	63	7798
2026-01-29 00:34:38.49	8.14	9.44	-43.8	-47.2	16.2	0.00e+00	0	42	0	34603008	59	5271
2026-01-29 00:34:39.49	8.09	9.52	-43.7	-47.0	16.3	0.00e+00	0	42	0	36700160	59	5127
2026-01-29 00:34:40.48	8.03	9.60	-43.4	-46.6	16.8	0.00e+00	0	42	0	38797312	58	5177
2026-01-29 00:34:41.48	7.97	9.68	-43.3	-46.5	17.0	0.00e+00	0	42	0	40894464	58	5113
2026-01-29 00:34:42.48	7.91	9.76	-43.3	-46.4	17.0	0.00e+00	0	42	0	42991616	58	5091
2026-01-29 00:34:43.47	7.85	9.84	-43.3	-46.4	17.1	0.00e+00	0	42	0	44040192	58	5044
2026-01-29 00:34:44.47	7.79	9.92	-43.3	-46.3	17.2	0.00e+00	0	42	0	46137344	58	5003
2026-01-29 00:34:45.46	7.74	10.00	-43.4	-46.5	17.1	0.00e+00	0	42	0	48234496	58	5104
2026-01-29 00:34:46.45	7.68	10.08	-43.4	-46.5	17.0	0.00e+00	0	43	0	50331648	58	5111
2026-01-29 00:34:47.45	7.62	10.17	-43.2	-46.2	17.2	0.00e+00	0	42	0	51380224	58	4966
2026-01-29 00:34:48.45	7.55	10.25	-43.3	-46.3	17.1	0.00e+00	0	42	0	53477376	58	5038
2026-01-29 00:34:49.56	7.49	10.34	-43.3	-46.3	17.1	0.00e+00	0	42	0	55574528	58	5023
2026-01-29 00:34:50.41	7.43	10.41	-43.4	-46.4	17.1	0.00e+00	0	42	0	57671680	58	5062
2026-01-29 00:34:51.55	7.36	10.50	-43.3	-46.3	17.2	0.00e+00	0	42	0	59768832	58	5017
2026-01-29 00:34:52.40	7.31	10.57	-43.3	-46.3	17.2	0.00e+00	0	42	0	60817408	58	5009
2026-01-29 00:34:53.54	7.24	10.67	-43.4	-46.3	17.2	0.00e+00	0	43	0	62914560	58	5034
2026-01-29 00:34:54.39	7.19	10.74	-43.4	-46.3	17.2	0.00e+00	0	42	0	65011712	58	5025
2026-01-29 00:34:55.53	7.11	10.84	-43.3	-46.2	17.3	0.00e+00	0	42	0	67108864	58	4969
2026-01-29 00:34:56.38	7.06	10.91	-43.3	-46.2	17.3	0.00e+00	0	42	0	68157440	58	4968
2026-01-29 00:34:57.52	6.99	11.00	-43.2	-46.1	17.3	0.00e+00	0	42	0	70254592	58	4923
2026-01-29 00:34:58.37	6.93	11.08	-43.2	-46.2	17.4	0.00e+00	0	42	0	72351744	58	4929
2026-01-29 00:34:59.51	6.86	11.17	-43.3	-46.2	17.3	0.00e+00	0	42	0	74448896	58	4935
2026-01-29 00:35:00.37	6.80	11.25	-43.4	-46.3	17.2	0.00e+00	0	42	0	75497472	58	4997
2026-01-29 00:35:01.50	6.73	11.34	-43.2	-46.1	17.4	0.00e+00	0	42	0	77594624	58	4905
2026-01-29 00:35:02.35	6.67	11.41	-43.2	-46.1	17.4	0.00e+00	0	42	0	79691776	58	4883
2026-01-29 00:35:03.62	6.59	11.52	-43.2	-46.1	17.4	0.00e+00	0	42	0	81788928	58	4898
2026-01-29 00:35:04.43	6.53	11.59	-43.2	-46.0	17.4	0.00e+00	0	42	0	83886080	58	4869
2026-01-29 00:35:05.57	6.46	11.69	-43.2	-46.0	17.5	0.00e+00	0	42	0	85983232	58	4815
2026-01-29 00:35:06.42	6.40	11.77	-43.2	-46.0	17.5	0.00e+00	0	42	0	87031808	58	4840
2026-01-29 00:35:07.56	6.32	11.86	-43.2	-46.0	17.5	0.00e+00	0	43	0	89128960	58	4846
2026-01-29 00:35:08.41	6.26	11.94	-43.1	-45.9	17.6	0.00e+00	0	42	0	91226112	58	4787
2026-01-29 00:35:09.55	6.18	12.04	-43.1	-45.9	17.7	0.00e+00	0	42	0	93323264	58	4774
2026-01-29 00:35:10.40	6.12	12.11	-43.1	-45.9	17.6	0.00e+00	0	42	0	94371840	58	4802
2026-01-29 00:35:11.54	6.04	12.21	-43.0	-45.8	17.7	0.00e+00	0	42	0	96468992	58	4744
2026-01-29 00:35:12.39	5.98	12.29	-43.0	-45.7	17.8	0.00e+00	0	43	0	98566144	57	4959
2026-01-29 00:35:13.53	5.90	12.39	-43.0	-45.8	17.7	0.00e+00	0	43	0	100663296	57	5022
2026-01-29 00:35:14.38	5.84	12.46	-43.1	-45.8	17.7	0.00e+00	0	43	0	102760448	57	5027
2026-01-29 00:35:15.52	5.76	12.57	-43.0	-45.7	17.8	0.00e+00	0	42	0	104857600	57	4978
2026-01-29 00:35:16.37	5.70	12.64	-42.9	-45.6	17.9	0.00e+00	0	42	0	105906176	57	4914
2026-01-29 00:35:17.51	5.62	12.74	-43.0	-45.7	17.8	0.00e+00	0	43	0	108003328	57	4954
2026-01-29 00:35:18.36	5.55	12.82	-42.9	-45.6	18.0	0.00e+00	0	43	0	110100480	57	4872
2026-01-29 00:35:19.51	5.47	12.92	-42.9	-45.5	18.0	0.00e+00	0	43	0	112197632	57	4867
2026-01-29 00:35:20.37	5.41	13.00	-42.8	-45.5	18.0	0.00e+00	0	43	0	113246208	57	4827
2026-01-29 00:35:21.57	5.32	13.11	-42.8	-45.5	18.1	0.00e+00	0	43	0	115343360	57	4824
2026-01-29 00:35:22.42	5.25	13.19	-42.8	-45.4	18.1	0.00e+00	0	43	0	117440512	57	4800
2026-01-29 00:35:23.56	5.17	13.29	-42.8	-45.5	18.1	0.00e+00	0	42	0	119537664	57	4837
2026-01-29 00:35:24.42	5.10	13.37	-42.8	-45.4	18.0	0.00e+00	0	43	0	120586240	57	4812
2026-01-29 00:35:25.55	5.01	13.48	-42.8	-45.4	18.1	0.00e+00	0	43	0	123731968	57	4811
2026-01-29 00:35:26.41	4.95	13.56	-42.8	-45.4	18.1	0.00e+00	0	43	0	124780544	57	4778
2026-01-29 00:35:27.55	4.86	13.66	-42.8	-45.4	18.2	0.00e+00	0	43	0	126877696	57	4780
2026-01-29 00:35:28.40	4.79	13.74	-42.7	-45.3	18.2	0.00e+00	0	43	0	128974848	57	4733
2026-01-29 00:35:29.54	4.70	13.85	-42.8	-45.3	18.1	0.00e+00	0	43	0	131072000	57	4751
2026-01-29 00:35:30.39	4.64	13.93	-42.8	-45.4	18.2	0.00e+00	0	43	0	132120576	57	4766
2026-01-29 00:35:31.53	4.55	14.03	-42.8	-45.4	18.2	0.00e+00	0	43	0	134217728	57	4791
2026-01-29 00:35:32.38	4.48	14.11	-42.8	-45.3	18.2	0.00e+00	0	42	0	136314880	57	4736
2026-01-29 00:35:33.52	4.39	14.22	-42.8	-45.4	18.2	0.00e+00	0	42	0	138412032	57	4798
2026-01-29 00:35:34.37	4.32	14.30	-42.8	-45.3	18.2	0.00e+00	0	43	0	139460608	57	4737
2026-01-29 00:35:35.51	4.22	14.41	-42.8	-45.4	18.1	0.00e+00	0	43	0	141557760	57	4765
2026-01-29 00:35:36.36	4.15	14.49	-42.8	-45.4	18.1	0.00e+00	0	42	0	143654912	57	4787
2026-01-29 00:35:37.50	4.06	14.60	-42.7	-45.3	18.3	0.00e+00	0	43	0	145752064	57	4713
2026-01-29 00:35:38.35	3.99	14.68	-42.8	-45.3	18.2	0.00e+00	0	43	0	146800640	57	4744
2026-01-29 00:35:39.49	3.89	14.79	-42.8	-45.3	18.2	0.00e+00	0	43	0	148897792	57	4746
2026-01-29 00:35:40.34	3.82	14.87	-42.7	-45.3	18.3	0.00e+00	0	43	0	150994944	57	4717
2026-01-29 00:35:41.48	3.72	14.98	-42.7	-45.3	18.2	0.00e+00	0	43	0	153092096	57	4718
2026-01-29 00:35:42.33	3.65	15.07	-42.8	-45.3	18.2	0.00e+00	0	43	0	155189248	57	4720
2026-01-29 00:35:43.47	3.55	15.18	-42.8	-45.3	18.2	0.00e+00	0	43	0	157286400	57	4731
2026-01-29 00:35:44.32	3.48	15.26	-42.8	-45.4	18.2	0.00e+00	0	43	0	158334976	57	4770
2026-01-29 00:35:45.46	3.38	15.37	-42.8	-45.4	18.2	0.00e+00	0	43	0	160432128	57	4771
2026-01-29 00:35:46.31	3.30	15.46	-42.9	-45.4	18.2	0.00e+00	0	43	0	162529280	57	4812
2026-01-29 00:35:47.45	3.20	15.57	-42.8	-45.3	18.3	0.00e+00	0	42	0	164626432	57	4733
2026-01-29 00:35:48.30	3.13	15.65	-42.8	-45.3	18.3	0.00e+00	0	43	0	165675008	57	4736
2026-01-29 00:35:49.44	3.03	15.77	-42.9	-45.4	18.1	0.00e+00	0	43	0	167772160	57	4808
2026-01-29 00:35:50.29	2.95	15.85	-42.7	-45.2	18.3	0.00e+00	0	43	0	169869312	57	4699
2026-01-29 00:35:51.43	2.84	15.96	-42.8	-45.3	18.2	0.00e+00	0	43	0	171966464	57	4758
2026-01-29 00:35:52.28	2.77	16.05	-42.7	-45.3	18.3	0.00e+00	0	43	0	173015040	57	4737
2026-01-29 00:35:53.42	2.66	16.16	-42.8	-45.3	18.2	0.00e+00	0	43	0	175112192	57	4756
2026-01-29 00:35:54.27	2.58	16.25	-42.7	-45.3	18.3	0.00e+00	0	43	0	177209344	57	4733
2026-01-29 00:35:55.53	2.46	16.38	-42.8	-45.4	18.2	0.00e+00	0	43	0	179306496	57	4797
2026-01-29 00:35:56.31	2.39	16.46	-42.8	-45.4	18.2	0.00e+00	0	43	0	180355072	57	4783
2026-01-29 00:35:57.71	2.26	16.60	-42.9	-45.5	18.1	0.00e+00	0	43	0	183500800	57	4860
2026-01-29 00:35:58.42	2.19	16.67	-42.8	-45.5	18.2	0.00e+00	0	43	0	184549376	57	4818
2026-01-29 00:35:59.70	2.07	16.81	-42.8	-45.5	18.1	0.00e+00	0	43	0	187695104	57	4848
2026-01-29 00:36:00.75	1.96	16.91	-42.8	-45.5	18.1	0.00e+00	0	43	0	188743680	57	4849
2026-01-29 00:36:01.68	1.87	17.01	-42.8	-45.5	18.2	0.00e+00	0	43	0	190840832	57	4826
2026-01-29 00:36:02.67	1.77	17.11	-42.9	-45.6	18.0	0.00e+00	0	43	0	192937984	57	4898
2026-01-29 00:36:03.67	1.67	17.22	-42.9	-45.6	18.0	0.00e+00	0	43	0	195035136	57	4924
2026-01-29 00:36:04.67	1.57	17.32	-43.0	-45.8	17.9	0.00e+00	0	43	0	196083712	57	4997
2026-01-29 00:36:05.66	1.48	17.43	-43.0	-45.7	17.9	0.00e+00	0	43	0	198180864	57	4983
2026-01-29 00:36:06.66	1.37	17.53	-43.1	-45.9	17.8	0.00e+00	0	43	0	200278016	57	5048
2026-01-29 00:36:07.73	1.26	17.65	-43.2	-46.0	17.7	0.00e+00	0	43	0	202375168	57	5109
2026-01-29 00:36:08.61	1.17	17.74	-43.2	-46.0	17.7	0.00e+00	0	43	0	203423744	57	5115
2026-01-29 00:36:09.75	1.06	17.86	-43.3	-46.0	17.7	0.00e+00	0	43	0	206569472	57	5121
2026-01-29 00:36:10.60	0.97	17.95	-43.4	-46.1	17.5	0.00e+00	0	43	0	207618048	57	5190
2026-01-29 00:36:11.74	0.85	18.07	-43.3	-46.0	17.6	0.00e+00	0	43	0	209715200	57	5152
2026-01-29 00:36:12.59	0.76	18.17	-43.3	-46.0	17.6	0.00e+00	0	43	0	211812352	57	5147
2026-01-29 00:36:13.73	0.63	18.29	-43.5	-46.2	17.5	0.00e+00	0	43	0	213909504	57	5226
2026-01-29 00:36:14.58	0.54	18.38	-43.5	-46.2	17.5	0.00e+00	0	43	0	214958080	57	5224
2026-01-29 00:36:15.72	0.42	18.50	-43.5	-46.2	17.5	0.00e+00	0	43	0	217055232	57	5225
2026-01-29 00:36:16.57	0.33	18.60	-43.5	-46.2	17.4	0.00e+00	0	43	0	219152384	57	5261
2026-01-29 00:36:17.71	0.20	18.72	-43.6	-46.3	17.4	0.00e+00	0	43	0	221249536	58	5010
2026-01-29 00:36:18.56	0.11	18.82	-43.5	-46.2	17.5	0.00e+00	0	43	0	222298112	58	4956
2026-01-29 00:36:19.70	359.98	18.94	-43.5	-46.1	17.6	0.00e+00	0	43	0	224395264	58	4920
2026-01-29 00:36:20.55	359.88	19.04	-43.5	-46.1	17.5	0.00e+00	0	43	0	226492416	58	4918
2026-01-29 00:36:21.69	359.75	19.16	-43.5	-46.1	17.6	0.00e+00	0	43	0	228589568	58	4903
2026-01-29 00:36:22.54	359.66	19.26	-43.4	-46.1	17.6	0.00e+00	0	43	0	229638144	58	4881
2026-01-29 00:36:23.68	359.53	19.38	-43.4	-46.0	17.7	0.00e+00	0	43	0	231735296	58	4853
2026-01-29 00:36:24.53	359.43	19.48	-43.5	-46.1	17.6	0.00e+00	0	43	0	233832448	58	4910
2026-01-29 00:36:25.67	359.29	19.61	-43.5	-46.1	17.6	0.00e+00	0	43	0	235929600	58	4906
2026-01-29 00:36:26.52	359.19	19.70	-43.4	-46.1	17.6	0.00e+00	0	43	0	238026752	58	4895
2026-01-29 00:36:27.66	359.06	19.83	-43.4	-46.1	17.7	0.00e+00	0	43	0	240123904	58	4905
2026-01-29 00:36:28.51	358.96	19.93	-43.5	-46.2	17.5	0.00e+00	0	43	0	241172480	58	4942
2026-01-29 00:36:29.65	358.82	20.06	-43.5	-46.2	17.5	0.00e+00	0	43	0	243269632	58	4981
2026-01-29 00:36:30.51	358.72	20.16	-43.4	-46.1	17.6	0.00e+00	0	43	0	245366784	58	4919
2026-01-29 00:36:31.64	358.58	20.29	-43.5	-46.2	17.5	0.00e+00	0	43	0	247463936	58	4970
2026-01-29 00:36:32.89	358.42	20.43	-43.5	-46.2	17.5	0.00e+00	0	43	0	249561088	58	4968
2026-01-29 00:36:33.74	358.32	20.53	-43.5	-46.2	17.6	0.00e+00	0	43	0	250609664	58	4941
2026-01-29 00:36:34.88	358.17	20.66	-43.6	-46.2	17.5	0.00e+00	0	43	0	253755392	58	4982
2026-01-29 00:36:35.73	358.07	20.76	-43.6	-46.3	17.4	0.00e+00	0	43	0	254803968	58	5003
2026-01-29 00:36:36.87	357.92	20.89	-43.6	-46.3	17.5	0.00e+00	0	43	0	256901120	58	5005
2026-01-29 00:36:37.73	357.81	20.99	-43.6	-46.3	17.5	0.00e+00	0	43	0	258998272	58	5002
2026-01-29 00:36:38.86	357.67	21.13	-43.6	-46.2	17.5	0.00e+00	0	43	0	261095424	58	4975
2026-01-29 00:36:39.71	357.55	21.23	-43.6	-46.3	17.5	0.00e+00	0	43	0	262144000	58	5013
2026-01-29 00:36:40.85	357.41	21.36	-43.6	-46.4	17.4	0.00e+00	0	43	0	264241152	58	5044
2026-01-29 00:36:41.72	357.29	21.47	-43.6	-46.3	17.4	0.00e+00	0	43	0	266338304	58	5037
2026-01-29 00:36:42.86	357.14	21.60	-43.5	-46.3	17.5	0.00e+00	0	43	0	268435456	58	4987
2026-01-29 00:36:43.71	357.02	21.70	-43.5	-46.2	17.5	0.00e+00	0	43	0	269484032	58	4980
2026-01-29 00:36:44.85	356.87	21.84	-43.4	-46.1	17.6	0.00e+00	0	43	0	271581184	58	4889
2026-01-29 00:36:45.70	356.75	21.94	-43.5	-46.2	17.6	0.00e+00	0	43	0	273678336	58	4956
2026-01-29 00:36:46.84	356.60	22.08	-43.4	-46.1	17.7	0.00e+00	0	43	0	275775488	58	4891
2026-01-29 00:36:47.69	356.48	22.18	-43.3	-46.0	17.8	0.00e+00	0	43	0	276824064	58	4845
2026-01-29 00:36:48.82	356.32	22.32	-43.3	-46.0	17.8	0.00e+00	0	43	0	278921216	58	4850
2026-01-29 00:36:49.68	356.20	22.43	-43.3	-45.9	17.8	0.00e+00	0	43	0	281018368	58	4813
2026-01-29 00:36:50.92	356.02	22.58	-43.5	-46.2	17.6	0.00e+00	0	43	0	283115520	58	4973
2026-01-29 00:36:51.78	355.90	22.68	-43.5	-46.2	17.6	0.00e+00	0	43	0	285212672	58	4947
2026-01-29 00:36:52.98	355.73	22.83	-43.6	-46.3	17.5	0.00e+00	0	43	0	287309824	58	5010
2026-01-29 00:36:53.83	355.60	22.94	-43.7	-46.4	17.4	0.00e+00	0	43	0	288358400	58	5070
2026-01-29 00:36:55.00	355.43	23.08	-43.6	-46.3	17.5	0.00e+00	0	43	0	290455552	58	5003
2026-01-29 00:36:55.85	355.30	23.19	-43.5	-46.2	17.5	0.00e+00	0	43	0	292552704	58	4940
2026-01-29 00:36:57.14	355.11	23.35	-43.4	-46.1	17.7	0.00e+00	0	43	0	294649856	58	4914
2026-01-29 00:36:57.85	355.00	23.44	-43.4	-46.1	17.7	0.00e+00	0	43	0	296747008	58	4924
2026-01-29 00:36:59.13	354.81	23.60	-43.3	-46.1	17.7	0.00e+00	0	43	0	298844160	58	4910
2026-01-29 00:37:00.30	354.63	23.74	-43.3	-46.1	17.8	0.00e+00	0	43	0	300941312	58	4880
2026-01-29 00:37:01.15	354.50	23.85	-43.4	-46.2	17.6	0.00e+00	0	43	0	301989888	58	4937
2026-01-29 00:37:02.29	354.32	24.00	-43.3	-46.1	17.6	0.00e+00	0	43	0	305135616	58	4922
2026-01-29 00:37:03.14	354.19	24.10	-43.4	-46.2	17.6	0.00e+00	0	43	0	306184192	58	4973
2026-01-29 00:37:04.29	354.00	24.25	-43.6	-46.5	17.3	0.00e+00	0	43	0	308281344	58	5106
2026-01-29 00:37:05.14	353.87	24.36	-43.5	-46.3	17.4	0.00e+00	0	43	0	310378496	58	5032
2026-01-29 00:37:06.28	353.68	24.51	-43.5	-46.4	17.4	0.00e+00	0	43	0	312475648	58	5065
2026-01-29 00:37:07.13	353.54	24.61	-43.7	-46.5	17.3	0.00e+00	0	43	0	313524224	58	5150
2026-01-29 00:37:08.27	353.36	24.76	-43.6	-46.3	17.5	0.00e+00	0	43	0	315621376	58	5007
2026-01-29 00:37:09.20	353.20	24.88	-43.5	-46.3	17.6	0.00e+00	0	43	0	317718528	58	4990
2026-01-29 00:37:10.37	353.01	25.03	-43.5	-46.3	17.6	0.00e+00	0	43	0	319815680	58	4987
2026-01-29 00:37:11.22	352.87	25.14	-43.6	-46.3	17.5	0.00e+00	0	43	0	321912832	58	5010
2026-01-29 00:37:12.36	352.67	25.29	-43.5	-46.2	17.7	0.00e+00	0	43	0	322961408	58	4934
2026-01-29 00:37:13.21	352.53	25.41	-43.4	-46.1	17.6	0.00e+00	0	43	0	325058560	58	4917
2026-01-29 00:37:14.35	352.33	25.55	-43.4	-46.1	17.7	0.00e+00	0	43	0	327155712	58	4924
2026-01-29 00:37:15.20	352.18	25.67	-43.4	-46.1	17.7	0.00e+00	0	43	0	329252864	58	4919
2026-01-29 00:37:16.34	351.98	25.82	-43.4	-46.1	17.7	0.00e+00	0	43	0	331350016	58	4887
2026-01-29 00:37:17.19	351.83	25.93	-43.4	-46.0	17.8	0.00e+00	0	43	0	332398592	58	4864
2026-01-29 00:37:18.33	351.63	26.08	-43.3	-46.0	17.8	0.00e+00	0	43	0	334495744	58	4849
2026-01-29 00:37:19.18	351.47	26.19	-43.4	-46.1	17.7	0.00e+00	0	43	0	336592896	58	4908
2026-01-29 00:37:20.31	351.27	26.34	-43.5	-46.1	17.7	0.00e+00	0	43	0	338690048	58	4917
2026-01-29 00:37:21.17	351.11	26.46	-43.5	-46.1	17.7	0.00e+00	0	43	0	339738624	58	4919
2026-01-29 00:37:22.31	350.90	26.61	-43.6	-46.3	17.5	0.00e+00	0	43	0	341835776	58	4995
2026-01-29 00:37:23.16	350.74	26.73	-43.6	-46.2	17.7	0.00e+00	0	43	0	343932928	58	4971
2026-01-29 00:37:24.40	350.51	26.89	-43.5	-46.1	17.7	0.00e+00	0	43	0	346030080	58	4901
2026-01-29 00:37:25.26	350.35	27.01	-43.5	-46.1	17.7	0.00e+00	0	43	0	348127232	58	4889
2026-01-29 00:37:26.40	350.13	27.16	-43.5	-46.2	17.6	0.00e+00	0	43	0	350224384	58	4941
2026-01-29 00:37:27.25	349.96	27.28	-43.5	-46.1	17.7	0.00e+00	0	43	0	351272960	58	4905
2026-01-29 00:37:28.39	349.74	27.43	-43.5	-46.1	17.7	0.00e+00	0	43	0	353370112	58	4919
2026-01-29 00:37:29.24	349.57	27.55	-43.5	-46.2	17.6	0.00e+00	0	43	0	355467264	58	4954
2026-01-29 00:37:30.38	349.35	27.71	-43.6	-46.3	17.5	0.00e+00	0	43	0	357564416	58	5025
2026-01-29 00:37:31.23	349.18	27.82	-43.7	-46.4	17.4	0.00e+00	0	43	0	358612992	58	5092
2026-01-29 00:37:32.59	348.90	28.01	-43.7	-46.4	17.4	0.00e+00	0	43	0	361758720	58	5098
2026-01-29 00:37:33.30	348.76	28.11	-43.8	-46.6	17.3	0.00e+00	0	43	0	362807296	58	5168
2026-01-29 00:37:34.58	348.50	28.28	-43.8	-46.6	17.3	0.00e+00	0	43	0	364904448	58	5181
2026-01-29 00:37:35.30	348.35	28.38	-43.9	-46.7	17.1	0.00e+00	0	43	0	367001600	58	5252
2026-01-29 00:37:36.58	348.08	28.56	-44.1	-46.9	17.0	0.00e+00	0	43	0	369098752	58	5390
2026-01-29 00:37:37.30	347.93	28.66	-44.3	-47.1	16.7	0.00e+00	0	43	0	370147328	59	5211
2026-01-29 00:37:38.58	347.66	28.84	-44.4	-47.3	16.6	0.00e+00	0	43	0	372244480	59	5301
2026-01-29 00:37:39.29	347.50	28.94	-44.4	-47.3	16.5	0.00e+00	0	43	0	374341632	59	5325
2026-01-29 00:37:40.56	347.23	29.11	-44.5	-47.6	16.3	0.00e+00	0	43	0	376438784	59	5466
2026-01-29 00:37:41.29	347.07	29.22	-44.6	-47.7	16.2	0.00e+00	0	43	0	377487360	59	5566
2026-01-29 00:37:42.57	346.79	29.39	-44.7	-48.1	15.9	0.00e+00	0	43	0	379584512	60	5469
2026-01-29 00:37:43.28	346.63	29.49	-44.7	-48.0	15.9	0.00e+00	0	43	0	381681664	60	5427
2026-01-29 00:37:44.56	346.34	29.67	-45.1	-48.8	15.2	0.00e+00	0	43	0	383778816	60	5932
2026-01-29 00:37:45.27	346.18	29.77	-45.2	-48.8	15.2	7.00e-07	0	43	0	384827392	60	5945
2026-01-29 00:37:46.55	345.89	29.95	-45.4	-49.1	14.9	0.00e+00	0	43	0	387973120	61	5824
2026-01-29 00:37:47.30	345.72	30.06	-45.8	-49.6	14.4	7.00e-07	0	43	0	389021696	62	5794
2026-01-29 00:37:48.76	345.38	30.26	-45.8	-49.5	14.5	7.00e-07	0	43	0	392167424	62	5724
2026-01-29 00:37:49.47	345.21	30.36	-46.0	-49.8	14.3	1.50e-06	0	43	0	393216000	62	5948
2026-01-29 00:37:50.75	344.91	30.54	-46.1	-50.0	13.9	4.50e-06	0	43	0	395313152	63	5769
2026-01-29 00:37:51.46	344.74	30.65	-46.1	-50.0	13.9	5.30e-06	0	43	0	396361728	63	5769
2026-01-29 00:37:52.74	344.43	30.83	-46.0	-50.0	14.0	7.60e-06	0	43	0	399507456	63	5746
2026-01-29 00:37:53.46	344.26	30.93	-46.0	-50.0	13.9	4.50e-06	0	43	0	400556032	63	5751
2026-01-29 00:37:54.74	343.94	31.11	-46.0	-49.9	14.0	1.50e-06	0	43	0	402653184	63	5694
2026-01-29 00:37:55.45	343.77	31.21	-45.9	-49.7	14.3	4.50e-06	0	43	0	404750336	63	5545
2026-01-29 00:37:56.73	343.45	31.39	-45.9	-49.7	14.2	1.50e-06	0	43	0	406847488	63	5549
2026-01-29 00:37:57.44	343.27	31.49	-45.8	-49.5	14.4	0.00e+00	0	43	0	407896064	63	5454
2026-01-29 00:37:58.72	342.94	31.67	-45.7	-49.4	14.5	0.00e+00	0	43	0	409993216	63	5374
2026-01-29 00:37:59.43	342.76	31.78	-45.6	-49.4	14.6	0.00e+00	0	43	0	412090368	63	5351
2026-01-29 00:38:00.71	342.43	31.96	-45.6	-49.5	14.5	7.00e-07	0	43	0	414187520	63	5428
2026-01-29 00:38:01.60	342.20	32.08	-45.6	-49.6	14.3	0.00e+00	0	43	0	416284672	63	5519
2026-01-29 00:38:03.03	341.82	32.29	-45.3	-49.3	14.7	3.80e-06	0	43	0	418381824	62	5619
2026-01-29 00:38:03.74	341.63	32.39	-45.2	-49.3	14.7	0.00e+00	0	43	0	419430400	62	5615
2026-01-29 00:38:05.23	341.23	32.60	-45.4	-49.4	14.5	7.00e-07	0	43	0	422576128	62	5703
2026-01-29 00:38:05.94	341.04	32.70	-45.5	-49.4	14.4	0.00e+00	0	43	0	423624704	62	5717
2026-01-29 00:38:07.22	340.68	32.88	-45.8	-49.7	14.2	7.00e-07	0	43	0	426770432	62	5897
2026-01-29 00:38:08.30	340.39	33.03	-46.1	-50.0	13.9	3.80e-06	0	43	0	428867584	62	6088
2026-01-29 00:38:09.16	340.15	33.16	-46.1	-50.0	13.9	1.50e-06	0	43	0	429916160	62	6098
2026-01-29 00:38:10.30	339.82	33.32	-46.0	-49.8	14.1	3.80e-06	0	43	0	432013312	63	5614
2026-01-29 00:38:11.15	339.58	33.44	-45.8	-49.4	14.5	0.00e+00	0	43	0	434110464	63	5394
2026-01-29 00:38:12.31	339.25	33.60	-45.6	-49.0	14.9	0.00e+00	0	43	0	436207616	63	5152
2026-01-29 00:38:13.16	339.00	33.72	-45.6	-49.1	14.9	0.00e+00	0	43	0	437256192	63	5160
2026-01-29 00:38:14.29	338.67	33.88	-45.4	-48.8	15.2	0.00e+00	0	43	0	439353344	62	5280
2026-01-29 00:38:15.15	338.42	34.00	-45.2	-48.4	15.5	0.00e+00	0	43	0	441450496	62	5094
2026-01-29 00:38:16.29	338.08	34.16	-45.1	-48.4	15.4	0.00e+00	0	43	0	443547648	62	5098
2026-01-29 00:38:17.14	337.83	34.28	-44.9	-48.1	15.8	0.00e+00	0	43	0	444596224	61	5188
2026-01-29 00:38:18.28	337.48	34.44	-44.8	-48.1	15.8	0.00e+00	0	43	0	446693376	61	5188
2026-01-29 00:38:19.13	337.22	34.56	-44.7	-48.0	15.9	0.00e+00	0	43	0	448790528	61	5147
2026-01-29 00:38:20.27	336.87	34.72	-44.8	-48.2	15.7	0.00e+00	0	43	0	450887680	61	5271
2026-01-29 00:38:21.12	336.61	34.84	-44.6	-47.9	16.0	0.00e+00	0	43	0	451936256	61	5056
2026-01-29 00:38:22.25	336.26	34.99	-44.3	-47.4	16.5	0.00e+00	0	43	0	454033408	60	5085
2026-01-29 00:38:23.10	335.99	35.11	-44.2	-47.2	16.7	0.00e+00	0	43	0	456130560	60	4967
2026-01-29 00:38:24.24	335.63	35.27	-44.2	-47.2	16.7	0.00e+00	0	43	0	458227712	60	4976
2026-01-29 00:38:25.09	335.35	35.38	-44.2	-47.2	16.7	0.00e+00	0	43	0	460324864	60	4959
2026-01-29 00:38:26.23	334.99	35.54	-44.2	-47.1	16.8	0.00e+00	0	43	0	462422016	60	4906
2026-01-29 00:38:27.08	334.71	35.66	-44.2	-47.1	16.9	0.00e+00	0	43	0	463470592	60	4881
2026-01-29 00:38:28.30	334.31	35.82	-44.3	-47.1	16.8	0.00e+00	0	43	0	465567744	60	4912
2026-01-29 00:38:29.15	334.02	35.94	-44.5	-47.4	16.5	0.00e+00	0	43	0	467664896	60	5094
2026-01-29 00:38:30.29	333.64	36.09	-44.6	-47.6	16.4	0.00e+00	0	43	0	469762048	60	5179
2026-01-29 00:38:31.14	333.36	36.21	-44.6	-47.5	16.5	0.00e+00	0	43	0	470810624	60	5120
2026-01-29 00:38:32.40	332.93	36.38	-44.6	-47.6	16.3	0.00e+00	0	43	0	473956352	60	5189
2026-01-29 00:38:33.19	332.66	36.48	-44.5	-47.4	16.5	0.00e+00	0	43	0	475004928	60	5100
2026-01-29 00:38:34.38	332.24	36.64	-44.6	-47.6	16.4	0.00e+00	0	43	0	477102080	60	5164
2026-01-29 00:38:35.23	331.95	36.75	-44.6	-47.8	16.1	0.00e+00	0	43	0	479199232	60	5290
2026-01-29 00:38:36.37	331.55	36.90	-44.7	-48.0	15.9	0.00e+00	0	43	0	481296384	60	5451
2026-01-29 00:38:37.22	331.24	37.01	-44.6	-48.0	15.9	0.00e+00	0	43	0	482344960	60	5447
2026-01-29 00:38:38.36	330.84	37.16	-44.8	-48.3	15.6	0.00e+00	0	43	0	484442112	60	5632
2026-01-29 00:38:39.31	330.49	37.28	-44.7	-48.1	15.9	0.00e+00	0	43	0	486539264	60	5469
2026-01-29 00:38:40.47	330.07	37.43	-44.5	-47.7	16.3	0.00e+00	0	43	0	488636416	60	5230
2026-01-29 00:38:41.33	329.76	37.54	-44.6	-47.8	16.2	0.00e+00	0	43	0	490733568	60	5291
2026-01-29 00:38:42.47	329.34	37.68	-44.7	-47.7	16.2	0.00e+00	0	43	0	492830720	60	5261
2026-01-29 00:38:43.32	329.02	37.79	-44.9	-47.9	16.0	0.00e+00	0	43	0	493879296	60	5398
2026-01-29 00:38:44.46	328.59	37.93	-45.1	-48.3	15.6	0.00e+00	0	43	0	495976448	60	5643
2026-01-29 00:38:45.31	328.27	38.04	-45.4	-48.7	15.2	0.00e+00	0	43	0	498073600	61	5561
2026-01-29 00:38:46.45	327.83	38.18	-45.4	-48.8	15.2	0.00e+00	0	43	0	500170752	61	5600
2026-01-29 00:38:47.30	327.51	38.28	-45.1	-48.5	15.4	0.00e+00	0	43	0	501219328	61	5404
2026-01-29 00:38:48.44	327.07	38.42	-45.1	-48.5	15.4	0.00e+00	0	43	0	503316480	61	5441
2026-01-29 00:38:49.29	326.74	38.52	-44.8	-48.2	15.7	0.00e+00	0	43	0	505413632	61	5275
2026-01-29 00:38:50.43	326.29	38.65	-44.5	-48.0	15.9	0.00e+00	0	43	0	507510784	61	5136
2026-01-29 00:38:51.29	325.95	38.76	-44.5	-48.1	15.8	0.00e+00	0	43	0	508559360	60	5502
2026-01-29 00:38:52.42	325.50	38.89	-44.5	-48.1	15.8	0.00e+00	0	43	0	510656512	60	5519
2026-01-29 00:38:53.27	325.16	38.98	-44.5	-48.0	15.8	0.00e+00	0	43	0	512753664	60	5463
2026-01-29 00:38:54.51	324.66	39.13	-44.6	-48.0	15.9	0.00e+00	0	43	0	514850816	60	5441
2026-01-29 00:38:55.36	324.31	39.22	-44.5	-47.9	16.1	0.00e+00	0	43	0	516947968	60	5348
2026-01-29 00:38:56.58	323.81	39.36	-44.4	-47.5	16.4	0.00e+00	0	43	0	519045120	60	5144
2026-01-29 00:38:57.43	323.46	39.45	-44.4	-47.4	16.5	0.00e+00	0	43	0	520093696	60	5053
2026-01-29 00:38:58.57	322.99	39.57	-44.2	-47.1	16.8	0.00e+00	0	43	0	522190848	60	4912
2026-01-29 00:38:59.42	322.63	39.66	-43.9	-46.6	17.2	0.00e+00	0	43	0	524288000	59	4912
2026-01-29 00:39:00.55	322.15	39.78	-43.6	-46.2	17.6	0.00e+00	0	43	0	526385152	59	4701
2026-01-29 00:39:01.41	321.79	39.87	-43.4	-46.0	17.9	0.00e+00	0	43	0	527433728	58	4843
2026-01-29 00:39:02.55	321.30	39.99	-43.4	-45.9	18.0	0.00e+00	0	43	0	530579456	58	4782
2026-01-29 00:39:03.40	320.94	40.08	-43.3	-45.8	18.0	0.00e+00	0	43	0	531628032	58	4747
2026-01-29 00:39:04.53	320.45	40.19	-43.2	-45.7	18.1	0.00e+00	0	43	0	533725184	58	4691
2026-01-29 00:39:05.39	320.08	40.27	-43.2	-45.6	18.2	0.00e+00	0	43	0	535822336	58	4636
2026-01-29 00:39:06.52	319.58	40.38	-43.1	-45.6	18.2	0.00e+00	0	43	0	537919488	58	4620
2026-01-29 00:39:07.38	319.20	40.46	-43.2	-45.8	18.1	0.00e+00	0	43	0	538968064	58	4706
2026-01-29 00:39:08.51	318.70	40.57	-43.3	-45.8	18.0	0.00e+00	0	43	0	541065216	58	4754
2026-01-29 00:39:09.37	318.32	40.65	-43.3	-45.8	18.1	0.00e+00	0	43	0	543162368	58	4729
2026-01-29 00:39:10.52	317.81	40.75	-43.7	-46.5	17.4	0.00e+00	0	43	0	545259520	58	5110
2026-01-29 00:39:11.38	317.42	40.82	-44.0	-46.9	17.0	0.00e+00	0	43	0	546308096	58	5345
2026-01-29 00:39:12.51	316.91	40.92	-44.2	-47.1	16.9	0.00e+00	0	43	0	548405248	59	5164
2026-01-29 00:39:13.37	316.52	40.99	-44.2	-47.2	16.7	0.00e+00	0	43	0	550502400	59	5224
2026-01-29 00:39:14.61	315.95	41.10	-44.2	-47.1	16.8	0.00e+00	0	43	0	552599552	59	5196
2026-01-29 00:39:15.46	315.56	41.16	-43.9	-46.7	17.1	0.00e+00	0	43	0	554696704	59	4937
2026-01-29 00:39:16.60	315.03	41.25	-43.5	-46.2	17.6	0.00e+00	0	43	0	556793856	59	4683
2026-01-29 00:39:17.45	314.64	41.32	-43.5	-46.2	17.6	0.00e+00	0	43	0	557842432	59	4672
2026-01-29 00:39:18.59	314.10	41.40	-43.3	-45.9	17.9	0.00e+00	0	43	0	559939584	58	4798
2026-01-29 00:39:19.44	313.71	41.46	-43.2	-45.7	18.1	0.00e+00	0	43	0	562036736	58	4679
2026-01-29 00:39:20.58	313.17	41.54	-43.2	-45.7	18.1	0.00e+00	0	43	0	564133888	58	4654
2026-01-29 00:39:21.43	312.77	41.60	-43.1	-45.5	18.3	0.00e+00	0	43	0	565182464	58	4579
2026-01-29 00:39:22.57	312.23	41.68	-42.8	-45.2	18.6	0.00e+00	0	43	0	567279616	57	4692
2026-01-29 00:39:23.42	311.82	41.73	-42.7	-45.1	18.7	0.00e+00	0	43	0	569376768	57	4611
2026-01-29 00:39:24.56	311.28	41.80	-42.8	-45.2	18.6	0.00e+00	0	43	0	571473920	57	4663
2026-01-29 00:39:25.41	310.87	41.85	-42.8	-45.2	18.6	0.00e+00	0	43	0	572522496	57	4683
2026-01-29 00:39:26.55	310.32	41.92	-42.7	-45.1	18.6	0.00e+00	0	43	0	574619648	57	4642
2026-01-29 00:39:27.40	309.91	41.97	-42.7	-45.1	18.7	0.00e+00	0	43	0	576716800	57	4615
2026-01-29 00:39:28.54	309.35	42.03	-42.5	-44.9	18.9	0.00e+00	0	43	0	578813952	56	4768
2026-01-29 00:39:29.39	308.94	42.07	-42.5	-44.8	18.9	0.00e+00	0	43	0	580911104	56	4737
2026-01-29 00:39:30.53	308.38	42.13	-42.4	-44.7	19.0	0.00e+00	0	43	0	583008256	56	4690
2026-01-29 00:39:31.38	307.97	42.17	-42.4	-44.7	19.1	0.00e+00	0	43	0	584056832	56	4673
2026-01-29 00:39:32.52	307.41	42.22	-42.6	-44.9	18.9	0.00e+00	0	43	0	586153984	56	4782
2026-01-29 00:39:33.37	306.99	42.25	-42.7	-45.1	18.7	0.00e+00	0	43	0	588251136	56	4894
2026-01-29 00:39:34.50	306.43	42.30	-42.8	-45.2	18.6	0.00e+00	0	43	0	590348288	56	4960
2026-01-29 00:39:35.36	306.00	42.33	-42.9	-45.3	18.5	0.00e+00	0	43	0	591396864	56	4989
2026-01-29 00:39:36.49	305.44	42.37	-42.6	-45.0	18.8	0.00e+00	0	43	0	593494016	56	4828
2026-01-29 00:39:37.34	305.02	42.40	-42.6	-45.0	18.8	0.00e+00	0	43	0	595591168	56	4841
2026-01-29 00:39:38.48	304.45	42.43	-42.8	-45.2	18.6	0.00e+00	0	43	0	597688320	56	4953
2026-01-29 00:39:39.33	304.03	42.45	-42.9	-45.3	18.5	0.00e+00	0	43	0	598736896	56	4998
2026-01-29 00:39:40.46	303.46	42.48	-42.8	-45.3	18.5	0.00e+00	0	43	0	600834048	56	4985
2026-01-29 00:39:41.32	303.03	42.50	-43.0	-45.4	18.4	0.00e+00	0	43	0	602931200	56	5093
2026-01-29 00:39:42.46	302.46	42.52	-43.2	-45.6	18.2	0.00e+00	0	43	0	605028352	56	5217
2026-01-29 00:39:43.31	302.03	42.54	-43.2	-45.6	18.2	0.00e+00	0	43	0	606076928	57	4924
2026-01-29 00:39:44.44	301.46	42.56	-43.2	-45.7	18.1	0.00e+00	0	43	0	608174080	57	4960
2026-01-29 00:39:45.30	301.03	42.57	-43.2	-45.7	18.1	0.00e+00	0	43	0	610271232	57	4969
2026-01-29 00:39:46.43	300.46	42.58	-43.3	-46.0	17.8	0.00e+00	0	43	0	612368384	57	5117
2026-01-29 00:39:47.29	300.03	42.59	-43.3	-45.9	18.0	0.00e+00	0	43	0	614465536	57	5050
2026-01-29 00:39:48.54	299.40	42.59	-43.2	-45.8	18.0	0.00e+00	0	43	0	616562688	57	5000
2026-01-29 00:39:49.39	298.97	42.60	-43.4	-46.0	17.8	0.00e+00	0	43	0	617611264	57	5142
2026-01-29 00:39:50.52	298.40	42.60	-43.9	-46.7	17.2	0.00e+00	0	43	0	619708416	58	5233
2026-01-29 00:39:51.38	297.97	42.59	-44.1	-46.9	17.0	0.00e+00	0	43	0	621805568	58	5364
2026-01-29 00:39:52.52	297.39	42.59	-44.1	-46.9	17.0	0.00e+00	0	43	0	623902720	58	5373
2026-01-29 00:39:53.37	296.97	42.58	-44.1	-46.9	17.0	0.00e+00	0	43	0	624951296	58	5384
2026-01-29 00:39:54.70	296.30	42.57	-44.2	-47.0	16.8	0.00e+00	0	43	0	628097024	59	5159
2026-01-29 00:39:55.41	295.94	42.56	-44.3	-47.2	16.7	0.00e+00	0	43	0	629145600	59	5226
2026-01-29 00:39:56.69	295.29	42.54	-44.5	-47.3	16.5	0.00e+00	0	43	0	631242752	59	5327
2026-01-29 00:39:57.42	294.93	42.53	-44.6	-47.5	16.4	0.00e+00	0	43	0	633339904	59	5434
2026-01-29 00:39:58.70	294.29	42.50	-44.6	-47.5	16.4	0.00e+00	0	43	0	635437056	59	5414
2026-01-29 00:39:59.44	293.91	42.49	-44.7	-47.7	16.3	0.00e+00	0	43	0	636485632	60	5225
2026-01-29 00:40:00.71	293.28	42.45	-44.8	-47.8	16.1	0.00e+00	0	43	0	639631360	60	5317
2026-01-29 00:40:01.58	292.84	42.43	-45.1	-48.3	15.6	0.00e+00	0	43	0	640679936	60	5618
2026-01-29 00:40:02.72	292.28	42.40	-45.4	-48.8	15.3	0.00e+00	0	43	0	642777088	61	5599
2026-01-29 00:40:03.57	291.85	42.37	-45.3	-48.6	15.4	0.00e+00	0	43	0	644874240	61	5491
2026-01-29 00:40:04.71	291.29	42.33	-45.2	-48.4	15.5	0.00e+00	0	43	0	646971392	61	5392
2026-01-29 00:40:05.82	290.74	42.29	-45.1	-48.3	15.7	0.00e+00	0	43	0	649068544	61	5293
2026-01-29 00:40:06.67	290.32	42.25	-45.2	-48.4	15.5	0.00e+00	0	43	0	650117120	61	5348
2026-01-29 00:40:07.81	289.75	42.21	-45.3	-48.5	15.4	0.00e+00	0	43	0	652214272	61	5432
2026-01-29 00:40:08.66	289.34	42.17	-45.3	-48.6	15.3	0.00e+00	0	43	0	654311424	61	5489
2026-01-29 00:40:09.80	288.78	42.11	-45.6	-49.0	15.0	0.00e+00	0	43	0	656408576	61	5744
2026-01-29 00:40:10.65	288.36	42.07	-45.8	-49.3	14.5	0.00e+00	0	43	0	657457152	62	5609
2026-01-29 00:40:11.79	287.81	42.01	-46.2	-50.0	13.9	2.20e-06	0	43	0	659554304	63	5723
2026-01-29 00:40:12.64	287.39	41.97	-46.4	-50.4	13.5	9.10e-06	0	43	0	661651456	63	6030
2026-01-29 00:40:13.78	286.84	41.91	-46.3	-50.2	13.7	6.10e-06	0	43	0	663748608	63	5918
2026-01-29 00:40:14.63	286.43	41.86	-46.3	-50.2	13.8	4.50e-06	0	43	0	664797184	63	5868
2026-01-29 00:40:15.91	285.82	41.78	-46.1	-49.8	14.1	1.50e-06	0	43	0	667942912	63	5631
2026-01-29 00:40:16.63	285.47	41.73	-46.2	-49.9	14.0	3.00e-06	0	43	0	668991488	63	5719
2026-01-29 00:40:17.91	284.86	41.65	-46.4	-50.3	13.5	6.80e-06	0	43	0	671088640	63	5983
2026-01-29 00:40:18.64	284.51	41.60	-46.4	-50.3	13.5	1.06e-05	0	43	0	673185792	63	5971
2026-01-29 00:40:20.15	283.80	41.50	-46.2	-49.9	14.0	6.10e-06	0	43	0	675282944	63	5698
2026-01-29 00:40:20.86	283.47	41.45	-45.8	-49.4	14.5	3.80e-06	0	43	0	677380096	63	5350
2026-01-29 00:40:22.22	282.83	41.35	-45.5	-48.8	15.2	0.00e+00	0	43	0	679477248	62	5292
2026-01-29 00:40:22.93	282.50	41.29	-45.2	-48.4	15.5	0.00e+00	0	43	0	680525824	62	5053
2026-01-29 00:40:24.26	281.88	41.19	-44.8	-47.8	16.0	0.00e+00	0	43	0	683671552	61	5038
2026-01-29 00:40:24.97	281.55	41.14	-44.5	-47.5	16.4	0.00e+00	0	43	0	684720128	61	4823
2026-01-29 00:40:26.28	280.95	41.03	-44.5	-47.4	16.5	0.00e+00	0	43	0	686817280	61	4801
2026-01-29 00:40:26.99	280.63	40.97	-44.6	-47.6	16.3	0.00e+00	0	43	0	688914432	61	4894
2026-01-29 00:40:28.27	280.05	40.86	-44.5	-47.4	16.4	0.00e+00	0	43	0	691011584	61	4802
2026-01-29 00:40:28.98	279.72	40.80	-44.4	-47.3	16.6	0.00e+00	0	43	0	692060160	60	5011
2026-01-29 00:40:30.26	279.15	40.68	-44.2	-47.0	17.0	0.00e+00	0	43	0	694157312	60	4818
2026-01-29 00:40:30.97	278.83	40.62	-43.9	-46.5	17.3	0.00e+00	0	43	0	696254464	59	4866
2026-01-29 00:40:32.25	278.26	40.50	-43.3	-45.8	18.0	0.00e+00	0	43	0	698351616	58	4706
2026-01-29 00:40:32.96	277.95	40.44	-42.7	-45.1	18.7	0.00e+00	0	43	0	699400192	57	4640
2026-01-29 00:40:34.24	277.38	40.31	-42.5	-44.8	19.0	0.00e+00	0	43	0	702545920	56	4731
2026-01-29 00:40:35.00	277.05	40.24	-42.5	-44.9	18.9	0.00e+00	0	43	0	703594496	56	4761
2026-01-29 00:40:36.28	276.50	40.11	-42.7	-45.0	18.8	0.00e+00	0	43	0	705691648	56	4861
2026-01-29 00:40:36.99	276.19	40.04	-43.0	-45.5	18.3	0.00e+00	0	43	0	706740224	56	5101
2026-01-29 00:40:38.27	275.64	39.91	-43.1	-45.6	18.2	0.00e+00	0	43	0	709885952	56	5173
2026-01-29 00:40:39.17	275.26	39.82	-42.8	-45.2	18.6	0.00e+00	0	43	0	710934528	56	4969
2026-01-29 00:40:40.57	274.67	39.67	-42.4	-44.8	19.0	0.00e+00	0	43	0	714080256	56	4708
2026-01-29 00:40:41.28	274.37	39.59	-42.3	-44.5	19.2	0.00e+00	0	43	0	715128832	56	4586
2026-01-29 00:40:42.57	273.83	39.45	-42.0	-44.2	19.5	0.00e+00	0	43	0	717225984	56	4423
2026-01-29 00:40:43.28	273.54	39.38	-41.7	-43.9	19.7	0.00e+00	0	43	0	719323136	55	4495
2026-01-29 00:40:44.56	273.01	39.23	-41.5	-43.6	19.9	0.00e+00	0	43	0	721420288	54	4647
2026-01-29 00:40:45.27	272.72	39.15	-41.8	-44.0	19.6	0.00e+00	0	43	0	722468864	54	4830
2026-01-29 00:40:46.55	272.20	39.01	-42.1	-44.4	19.3	0.00e+00	0	43	0	725614592	54	5047
2026-01-29 00:40:47.26	271.91	38.93	-42.1	-44.4	19.2	0.00e+00	0	43	0	726663168	54	5055
2026-01-29 00:40:48.54	271.40	38.78	-42.1	-44.3	19.3	0.00e+00	0	43	0	728760320	54	5034
2026-01-29 00:40:49.25	271.12	38.69	-41.9	-44.1	19.4	0.00e+00	0	43	0	729808896	54	4925
2026-01-29 00:40:50.53	270.61	38.54	-41.8	-44.0	19.6	0.00e+00	0	43	0	732954624	54	4855
2026-01-29 00:40:51.25	270.33	38.46	-41.7	-43.9	19.7	0.00e+00	0	43	0	734003200	54	4804
2026-01-29 00:40:52.56	269.82	38.30	-41.4	-43.6	20.0	0.00e+00	0	43	0	736100352	54	4625
2026-01-29 00:40:53.27	269.55	38.21	-41.4	-43.5	20.0	0.00e+00	0	43	0	738197504	54	4595
2026-01-29 00:40:54.55	269.06	38.06	-41.7	-43.9	19.7	0.00e+00	0	43	0	740294656	54	4791
2026-01-29 00:40:55.26	268.79	37.97	-41.8	-44.1	19.6	0.00e+00	0	43	0	741343232	54	4875
2026-01-29 00:40:56.55	268.30	37.81	-42.2	-44.5	19.1	0.00e+00	0	43	0	743440384	55	4865
2026-01-29 00:40:57.26	268.04	37.72	-42.4	-44.7	18.9	0.00e+00	0	43	0	745537536	55	4966
2026-01-29 00:40:58.54	267.56	37.56	-42.5	-44.8	18.8	0.00e+00	0	43	0	747634688	55	5034
2026-01-29 00:40:59.28	267.29	37.46	-42.3	-44.6	19.0	0.00e+00	0	43	0	748683264	55	4903
2026-01-29 00:41:00.56	266.82	37.30	-42.0	-44.2	19.4	0.00e+00	0	43	0	751828992	55	4684
2026-01-29 00:41:01.27	266.56	37.21	-42.0	-44.3	19.3	0.00e+00	0	43	0	752877568	55	4737
2026-01-29 00:41:02.55	266.10	37.04	-42.0	-44.2	19.4	0.00e+00	0	43	0	754974720	55	4676
2026-01-29 00:41:03.26	265.85	36.95	-41.9	-44.2	19.4	0.00e+00	0	43	0	756023296	55	4657
2026-01-29 00:41:04.54	265.39	36.78	-42.0	-44.3	19.3	0.00e+00	0	43	0	759169024	55	4717
2026-01-29 00:41:05.26	265.14	36.68	-42.2	-44.5	19.1	0.00e+00	0	43	0	760217600	55	4828
2026-01-29 00:41:06.55	264.69	36.51	-42.6	-45.0	18.7	0.00e+00	0	43	0	762314752	55	5115
2026-01-29 00:41:07.26	264.45	36.42	-42.6	-45.0	18.6	0.00e+00	0	43	0	764411904	55	5108
2026-01-29 00:41:08.53	264.01	36.25	-42.9	-45.3	18.4	0.00e+00	0	43	0	766509056	56	5039
2026-01-29 00:41:09.24	263.77	36.15	-42.7	-45.1	18.7	0.00e+00	0	43	0	767557632	56	4905
2026-01-29 00:41:10.70	263.28	35.95	-42.7	-45.1	18.7	0.00e+00	0	43	0	770703360	56	4897
2026-01-29 00:41:11.66	262.96	35.82	-42.5	-44.9	18.8	0.00e+00	0	43	0	771751936	56	4796
2026-01-29 00:41:12.99	262.52	35.64	-42.5	-44.8	18.9	0.00e+00	0	43	0	774897664	56	4749
2026-01-29 00:41:13.70	262.29	35.54	-42.7	-45.1	18.7	0.00e+00	0	43	0	775946240	56	4900
2026-01-29 00:41:15.37	261.74	35.31	-43.1	-45.5	18.2	0.00e+00	0	43	0	779091968	56	5157
2026-01-29 00:41:15.94	261.56	35.23	-43.3	-45.8	17.9	0.00e+00	0	43	0	780140544	57	5038
2026-01-29 00:41:17.64	261.02	35.00	-43.4	-46.0	17.8	0.00e+00	0	43	0	783286272	57	5143
2026-01-29 00:41:18.21	260.84	34.92	-43.5	-46.0	17.8	0.00e+00	0	43	0	784334848	57	5155
2026-01-29 00:41:19.91	260.31	34.68	-43.7	-46.3	17.5	0.00e+00	0	43	0	787480576	57	5299
2026-01-29 00:41:20.48	260.13	34.60	-43.7	-46.3	17.5	0.00e+00	0	43	0	788529152	58	5034
2026-01-29 00:41:22.18	259.61	34.36	-44.1	-46.9	16.9	0.00e+00	0	43	0	791674880	58	5366
2026-01-29 00:41:22.75	259.44	34.28	-44.1	-46.9	16.9	0.00e+00	0	43	0	792723456	58	5375
2026-01-29 00:41:24.46	258.93	34.04	-44.3	-47.2	16.6	0.00e+00	0	43	0	795869184	59	5263
2026-01-29 00:41:25.02	258.76	33.96	-44.4	-47.3	16.5	0.00e+00	0	43	0	796917760	59	5335
2026-01-29 00:41:26.73	258.26	33.72	-44.4	-47.3	16.5	0.00e+00	0	43	0	800063488	59	5296
2026-01-29 00:41:27.30	258.09	33.64	-44.4	-47.3	16.6	0.00e+00	0	43	0	801112064	59	5304
2026-01-29 00:41:29.01	257.60	33.40	-44.7	-47.8	16.1	0.00e+00	0	43	0	804257792	60	5293
2026-01-29 00:41:29.58	257.44	33.32	-44.7	-47.8	16.1	0.00e+00	0	43	0	805306368	60	5302
2026-01-29 00:41:31.28	256.96	33.08	-44.7	-47.7	16.2	0.00e+00	0	43	0	809500672	60	5224
2026-01-29 00:41:31.85	256.80	33.00	-44.7	-47.7	16.2	0.00e+00	0	43	0	810549248	60	5247
2026-01-29 00:41:33.55	256.33	32.75	-45.1	-48.3	15.6	0.00e+00	0	43	0	813694976	60	5637
2026-01-29 00:41:34.12	256.17	32.67	-45.1	-48.4	15.5	0.00e+00	0	43	0	814743552	61	5365
2026-01-29 00:41:35.82	255.71	32.43	-45.6	-49.1	14.7	0.00e+00	0	43	0	817889280	61	5847
2026-01-29 00:41:36.39	255.56	32.35	-45.7	-49.3	14.5	7.00e-07	0	43	0	818937856	62	5637
2026-01-29 00:41:38.10	255.10	32.10	-45.5	-49.0	14.9	0.00e+00	0	43	0	822083584	62	5425
2026-01-29 00:41:38.93	254.88	31.99	-45.5	-48.9	15.0	0.00e+00	0	43	0	823132160	62	5345
2026-01-29 00:41:40.07	254.58	31.82	-45.1	-48.2	15.7	0.00e+00	0	43	0	825229312	62	4944
2026-01-29 00:41:40.93	254.36	31.70	-45.1	-48.2	15.7	0.00e+00	0	43	0	827326464	62	4948
2026-01-29 00:41:42.08	254.07	31.54	-45.3	-48.5	15.4	0.00e+00	0	43	0	829423616	62	5147
2026-01-29 00:41:42.93	253.85	31.42	-45.6	-49.0	14.9	0.00e+00	0	43	0	830472192	62	5436
2026-01-29 00:41:44.07	253.56	31.25	-45.8	-49.4	14.5	7.00e-07	0	43	0	832569344	62	5691
2026-01-29 00:41:44.92	253.35	31.13	-45.7	-49.3	14.6	0.00e+00	0	43	0	834666496	62	5612
2026-01-29 00:41:46.06	253.07	30.97	-45.6	-49.1	14.7	7.00e-07	0	43	0	836763648	62	5510
2026-01-29 00:41:46.91	252.86	30.85	-45.5	-49.0	14.9	0.00e+00	0	43	0	837812224	62	5439
2026-01-29 00:41:48.05	252.58	30.69	-45.2	-48.5	15.4	7.00e-07	0	43	0	839909376	62	5103
2026-01-29 00:41:48.90	252.38	30.57	-45.1	-48.3	15.5	0.00e+00	0	43	0	842006528	62	5032
2026-01-29 00:41:50.04	252.11	30.40	-44.9	-48.0	15.8	0.00e+00	0	43	0	844103680	61	5152
2026-01-29 00:41:50.89	251.91	30.28	-44.9	-48.0	16.0	0.00e+00	0	43	0	846200832	61	5110
2026-01-29 00:41:52.03	251.64	30.12	-44.8	-47.9	16.0	0.00e+00	0	43	0	848297984	61	5055
2026-01-29 00:41:52.88	251.44	30.00	-44.7	-47.7	16.1	0.00e+00	0	43	0	849346560	61	4983
2026-01-29 00:41:54.02	251.18	29.84	-44.9	-48.0	15.9	0.00e+00	0	43	0	851443712	61	5118
2026-01-29 00:41:54.87	250.98	29.72	-44.9	-48.0	15.9	0.00e+00	0	43	0	853540864	61	5121
2026-01-29 00:41:56.01	250.72	29.56	-44.9	-48.1	15.8	0.00e+00	0	43	0	855638016	61	5173
2026-01-29 00:41:56.87	250.53	29.44	-44.8	-47.9	16.0	0.00e+00	0	43	0	856686592	61	5050
2026-01-29 00:41:58.00	250.28	29.28	-44.7	-47.7	16.1	0.00e+00	0	44	0	858783744	61	4970
2026-01-29 00:41:58.85	250.09	29.16	-44.4	-47.4	16.4	0.00e+00	0	43	0	860880896	60	5047
2026-01-29 00:41:59.99	249.84	29.00	-44.1	-46.9	16.9	0.00e+00	0	43	0	862978048	60	4778
2026-01-29 00:42:00.84	249.66	28.88	-44.0	-46.8	17.1	0.00e+00	0	43	0	864026624	60	4719
2026-01-29 00:42:01.98	249.41	28.72	-44.0	-46.7	17.0	0.00e+00	0	43	0	866123776	59	4963
2026-01-29 00:42:02.83	249.23	28.61	-44.0	-46.7	17.0	0.00e+00	0	43	0	868220928	59	4969
2026-01-29 00:42:03.97	248.99	28.45	-44.0	-46.7	17.1	0.00e+00	0	43	0	870318080	59	4976
2026-01-29 00:42:04.82	248.81	28.33	-44.1	-46.8	17.0	0.00e+00	0	43	0	872415232	59	5022
2026-01-29 00:42:05.96	248.58	28.17	-44.0	-46.8	17.0	0.00e+00	0	43	0	873463808	59	5003
2026-01-29 00:42:06.81	248.40	28.05	-44.0	-46.8	17.0	0.00e+00	0	43	0	875560960	59	4996
2026-01-29 00:42:07.95	248.17	27.90	-43.9	-46.6	17.1	0.00e+00	0	43	0	877658112	59	4921
2026-01-29 00:42:08.80	248.00	27.78	-44.0	-46.7	17.1	0.00e+00	0	43	0	879755264	59	4974
2026-01-29 00:42:09.93	247.77	27.62	-43.8	-46.5	17.3	0.00e+00	0	43	0	881852416	59	4856
2026-01-29 00:42:10.79	247.60	27.50	-43.9	-46.6	17.1	0.00e+00	0	43	0	882900992	59	4919
2026-01-29 00:42:12.10	247.34	27.33	-43.7	-46.4	17.3	0.00e+00	0	43	0	884998144	59	4798
2026-01-29 00:42:12.81	247.20	27.23	-43.7	-46.4	17.4	0.00e+00	0	43	0	887095296	59	4785
2026-01-29 00:42:14.09	246.95	27.05	-43.6	-46.2	17.5	0.00e+00	0	43	0	889192448	59	4676
2026-01-29 00:42:14.82	246.81	26.96	-43.7	-46.3	17.4	0.00e+00	0	43	0	890241024	59	4740
2026-01-29 00:42:16.10	246.57	26.78	-43.7	-46.3	17.4	0.00e+00	0	43	0	893386752	59	4745
2026-01-29 00:42:16.81	246.44	26.69	-43.7	-46.3	17.4	0.00e+00	0	43	0	894435328	59	4729
2026-01-29 00:42:18.09	246.20	26.51	-43.7	-46.4	17.4	0.00e+00	0	43	0	896532480	59	4775
2026-01-29 00:42:18.81	246.06	26.42	-43.8	-46.5	17.3	0.00e+00	0	43	0	897581056	59	4832
2026-01-29 00:42:20.09	245.83	26.24	-43.7	-46.3	17.4	0.00e+00	0	43	0	900726784	59	4742
2026-01-29 00:42:20.82	245.70	26.15	-43.7	-46.3	17.5	0.00e+00	0	43	0	901775360	59	4744
2026-01-29 00:42:22.09	245.47	25.98	-43.7	-46.4	17.4	0.00e+00	0	43	0	903872512	59	4763
2026-01-29 00:42:23.09	245.29	25.84	-43.6	-46.3	17.4	0.00e+00	0	43	0	905969664	59	4722
2026-01-29 00:42:24.38	245.06	25.67	-43.7	-46.3	17.4	0.00e+00	0	43	0	908066816	59	4741
2026-01-29 00:42:25.09	244.93	25.58	-43.8	-46.5	17.2	0.00e+00	0	43	0	910163968	59	4848
2026-01-29 00:42:26.37	244.71	25.41	-43.8	-46.5	17.2	0.00e+00	0	43	0	912261120	59	4855
2026-01-29 00:42:27.10	244.58	25.31	-43.8	-46.5	17.3	0.00e+00	0	43	0	913309696	59	4849
2026-01-29 00:42:28.37	244.37	25.15	-44.0	-46.8	17.0	0.00e+00	0	43	0	916455424	59	4998
2026-01-29 00:42:29.09	244.24	25.05	-44.0	-46.8	17.0	0.00e+00	0	43	0	917504000	59	4986
2026-01-29 00:42:30.36	244.03	24.89	-44.0	-46.7	17.1	0.00e+00	0	43	0	919601152	59	4938
2026-01-29 00:42:31.09	243.91	24.79	-43.9	-46.7	17.0	0.00e+00	0	43	0	920649728	59	4928
2026-01-29 00:42:32.37	243.69	24.62	-43.8	-46.4	17.3	0.00e+00	0	43	0	923795456	59	4794
2026-01-29 00:42:33.11	243.57	24.53	-43.7	-46.4	17.3	0.00e+00	0	43	0	924844032	59	4777
2026-01-29 00:42:34.43	243.36	24.36	-43.8	-46.4	17.3	0.00e+00	0	43	0	926941184	59	4781
2026-01-29 00:42:35.14	243.24	24.27	-43.6	-46.2	17.5	0.00e+00	0	43	0	929038336	59	4696
2026-01-29 00:42:36.42	243.04	24.10	-43.5	-46.1	17.6	0.00e+00	0	43	0	931135488	58	4902
2026-01-29 00:42:37.14	242.92	24.01	-43.6	-46.1	17.6	0.00e+00	0	43	0	932184064	58	4922
2026-01-29 00:42:38.41	242.72	23.85	-43.6	-46.2	17.5	0.00e+00	0	43	0	935329792	58	4947
2026-01-29 00:42:39.14	242.61	23.76	-43.6	-46.2	17.5	0.00e+00	0	43	0	936378368	58	4960
2026-01-29 00:42:40.42	242.41	23.59	-43.7	-46.4	17.4	0.00e+00	0	43	0	938475520	58	5047
2026-01-29 00:42:41.13	242.30	23.50	-43.8	-46.5	17.3	0.00e+00	0	43	0	939524096	58	5118
2026-01-29 00:42:42.41	242.11	23.34	-44.0	-46.7	17.0	0.00e+00	0	43	0	942669824	58	5232
2026-01-29 00:42:43.12	242.00	23.25	-44.1	-46.8	16.9	0.00e+00	0	43	0	943718400	58	5316
2026-01-29 00:42:44.67	241.77	23.06	-44.1	-46.8	16.9	0.00e+00	0	43	0	946864128	58	5314
2026-01-29 00:42:45.38	241.66	22.97	-44.1	-46.9	16.8	0.00e+00	0	43	0	947912704	58	5371
2026-01-29 00:42:46.65	241.47	22.81	-44.0	-46.8	16.9	0.00e+00	0	43	0	950009856	59	5004
2026-01-29 00:42:47.36	241.37	22.72	-44.1	-46.8	16.9	0.00e+00	0	43	0	952107008	59	5006
2026-01-29 00:42:48.77	241.16	22.55	-44.2	-46.9	16.8	0.00e+00	0	43	0	954204160	59	5080
2026-01-29 00:42:49.48	241.06	22.46	-44.1	-46.8	16.9	0.00e+00	0	43	0	955252736	59	5015
2026-01-29 00:42:50.76	240.88	22.31	-43.9	-46.6	17.1	0.00e+00	0	43	0	958398464	59	4893
2026-01-29 00:42:51.49	240.78	22.22	-43.7	-46.3	17.4	0.00e+00	0	43	0	959447040	59	4716
2026-01-29 00:42:52.77	240.60	22.06	-43.7	-46.3	17.3	0.00e+00	0	43	0	961544192	59	4749
2026-01-29 00:42:53.49	240.50	21.97	-43.7	-46.4	17.3	0.00e+00	0	43	0	963641344	59	4780
2026-01-29 00:42:54.77	240.32	21.82	-43.7	-46.4	17.3	0.00e+00	0	43	0	965738496	59	4782
2026-01-29 00:42:55.48	240.22	21.73	-43.8	-46.5	17.2	0.00e+00	0	43	0	966787072	59	4832
2026-01-29 00:42:56.75	240.05	21.58	-43.9	-46.6	17.1	0.00e+00	0	43	0	968884224	59	4885
2026-01-29 00:42:57.51	239.95	21.49	-43.8	-46.5	17.1	0.00e+00	0	43	0	970981376	59	4855
2026-01-29 00:42:58.79	239.77	21.34	-43.9	-46.6	17.0	0.00e+00	0	43	0	973078528	59	4915
2026-01-29 00:42:59.50	239.68	21.25	-43.9	-46.7	17.0	0.00e+00	0	43	0	974127104	59	4933
2026-01-29 00:43:00.80	239.51	21.10	-44.0	-46.7	16.9	0.00e+00	0	43	0	977272832	59	4971
2026-01-29 00:43:01.51	239.42	21.01	-44.1	-46.8	16.8	0.00e+00	0	43	0	978321408	59	5035
2026-01-29 00:43:02.79	239.25	20.86	-44.1	-46.9	16.7	0.00e+00	0	43	0	980418560	59	5099
2026-01-29 00:43:03.51	239.16	20.78	-44.1	-46.9	16.8	0.00e+00	0	43	0	981467136	59	5053
2026-01-29 00:43:04.79	238.99	20.63	-43.9	-46.6	17.0	0.00e+00	0	43	0	984612864	59	4914
2026-01-29 00:43:05.50	238.90	20.54	-43.9	-46.7	17.0	0.00e+00	0	43	0	985661440	59	4947
2026-01-29 00:43:06.78	238.74	20.40	-44.0	-46.7	16.9	0.00e+00	0	43	0	987758592	59	4969
2026-01-29 00:43:07.49	238.65	20.31	-43.9	-46.7	17.0	0.00e+00	0	43	0	989855744	59	4945
2026-01-29 00:43:08.77	238.49	20.17	-44.1	-46.9	16.7	0.00e+00	0	43	0	991952896	59	5064
2026-01-29 00:43:09.51	238.40	20.08	-43.9	-46.7	16.9	0.00e+00	0	43	0	993001472	59	4979
2026-01-29 00:43:10.79	238.25	19.93	-43.8	-46.5	17.1	0.00e+00	0	43	0	995098624	59	4854
2026-01-29 00:43:11.50	238.16	19.85	-43.7	-46.4	17.3	0.00e+00	0	43	0	997195776	59	4761
2026-01-29 00:43:12.78	238.01	19.71	-43.7	-46.4	17.2	0.00e+00	0	43	0	999292928	59	4766
2026-01-29 00:43:13.49	237.92	19.63	-43.7	-46.4	17.3	0.00e+00	0	43	0	1000341504	59	4772
2026-01-29 00:43:14.77	237.77	19.48	-43.6	-46.3	17.3	0.00e+00	0	43	0	1003487232	59	4745
2026-01-29 00:43:15.53	237.68	19.39	-43.6	-46.2	17.4	0.00e+00	0	43	0	1004535808	59	4692
2026-01-29 00:43:16.81	237.53	19.25	-43.6	-46.3	17.3	0.00e+00	0	43	0	1006632960	59	4753
2026-01-29 00:43:17.52	237.45	19.17	-43.6	-46.3	17.3	0.00e+00	0	43	0	1008730112	59	4737
2026-01-29 00:43:18.80	237.30	19.03	-43.7	-46.4	17.2	0.00e+00	0	43	0	1010827264	59	4779
2026-01-29 00:43:19.51	237.22	18.95	-43.8	-46.5	17.1	0.00e+00	0	43	0	1011875840	59	4839
2026-01-29 00:43:20.79	237.08	18.81	-43.8	-46.5	17.1	0.00e+00	0	43	0	1013972992	59	4863
2026-01-29 00:43:21.53	236.99	18.72	-43.9	-46.7	17.0	0.00e+00	0	43	0	1016070144	59	4932
2026-01-29 00:43:22.81	236.85	18.58	-44.0	-46.8	16.8	0.00e+00	0	43	0	1018167296	59	4996
2026-01-29 00:43:23.74	236.75	18.48	-44.0	-46.7	16.9	0.00e+00	0	43	0	1020264448	59	4976
2026-01-29 00:43:24.74	236.64	18.37	-44.0	-46.8	16.8	0.00e+00	0	43	0	1021313024	59	5011
2026-01-29 00:43:25.74	236.53	18.26	-44.0	-46.9	16.8	0.00e+00	0	43	0	1023410176	59	5042
2026-01-29 00:43:26.73	236.42	18.16	-43.9	-46.6	16.9	0.00e+00	0	43	0	1025507328	59	4920
2026-01-29 00:43:27.73	236.31	18.05	-43.8	-46.6	17.1	0.00e+00	0	43	0	1027604480	59	4875
2026-01-29 00:43:28.72	236.21	17.94	-43.9	-46.6	17.0	0.00e+00	0	43	0	1029701632	59	4907
2026-01-29 00:43:29.72	236.10	17.83	-43.7	-46.4	17.2	0.00e+00	0	43	0	1030750208	59	4780
2026-01-29 00:43:30.74	236.00	17.72	-43.7	-46.4	17.2	0.00e+00	0	43	0	1032847360	59	4779
2026-01-29 00:43:31.77	235.89	17.61	-43.7	-46.4	17.2	0.00e+00	0	43	0	1034944512	59	4790
2026-01-29 00:43:32.77	235.78	17.51	-43.6	-46.3	17.3	0.00e+00	0	43	0	1037041664	59	4737
2026-01-29 00:43:33.84	235.67	17.39	-43.6	-46.3	17.3	0.00e+00	0	43	0	1039138816	59	4730
2026-01-29 00:43:34.73	235.58	17.30	-43.6	-46.3	17.3	0.00e+00	0	43	0	1040187392	59	4707
2026-01-29 00:43:35.86	235.47	17.18	-43.6	-46.3	17.2	0.00e+00	0	43	0	1042284544	59	4750
2026-01-29 00:43:36.71	235.38	17.09	-43.7	-46.4	17.2	0.00e+00	0	43	0	1044381696	59	4799
2026-01-29 00:43:38.09	235.25	16.95	-43.7	-46.5	17.1	0.00e+00	0	43	0	1046478848	59	4825
2026-01-29 00:43:38.80	235.18	16.87	-43.6	-46.3	17.3	0.00e+00	0	43	0	1048576000	59	4748
2026-01-29 00:43:40.08	235.05	16.74	-43.5	-46.2	17.3	0.00e+00	0	43	0	1050673152	59	4685
2026-01-29 00:43:40.80	234.98	16.67	-43.6	-46.2	17.3	0.00e+00	0	43	0	1051721728	59	4700
2026-01-29 00:43:42.08	234.85	16.53	-43.6	-46.3	17.3	0.00e+00	0	43	0	1053818880	59	4712
2026-01-29 00:43:42.80	234.79	16.46	-43.5	-46.1	17.4	0.00e+00	0	43	0	1055916032	58	4893
2026-01-29 00:43:44.07	234.66	16.33	-43.4	-46.0	17.5	0.00e+00	0	43	0	1058013184	58	4855
2026-01-29 00:43:44.91	234.58	16.24	-43.4	-46.1	17.5	0.00e+00	0	43	0	1059061760	58	4876
2026-01-29 00:43:46.05	234.48	16.13	-43.4	-46.1	17.5	0.00e+00	0	43	0	1061158912	58	4879
2026-01-29 00:43:46.90	234.40	16.04	-43.5	-46.2	17.4	0.00e+00	0	43	0	1063256064	58	4937
2026-01-29 00:43:48.04	234.29	15.93	-43.5	-46.2	17.4	0.00e+00	0	43	0	1065353216	58	4946
2026-01-29 00:43:48.89	234.21	15.84	-43.7	-46.4	17.2	0.00e+00	0	43	0	1067450368	58	5058
2026-01-29 00:43:50.03	234.11	15.73	-43.7	-46.5	17.0	0.00e+00	0	43	0	1069547520	58	5122
2026-01-29 00:43:50.88	234.03	15.64	-43.8	-46.6	17.0	0.00e+00	0	43	0	1070596096	58	5179
2026-01-29 00:43:52.02	233.93	15.53	-43.9	-46.7	16.9	0.00e+00	0	43	0	1072693248	58	5241
2026-01-29 00:43:52.87	233.85	15.44	-44.0	-46.9	16.7	0.00e+00	0	43	0	1074790400	58	5357
2026-01-29 00:43:54.10	233.74	15.32	-44.1	-47.0	16.5	0.00e+00	0	43	0	1076887552	58	5442
2026-01-29 00:43:54.96	233.66	15.24	-44.1	-47.0	16.5	0.00e+00	0	43	0	1077936128	58	5424
2026-01-29 00:43:56.09	233.56	15.12	-44.2	-47.1	16.4	0.00e+00	0	43	0	1080033280	59	5206
2026-01-29 00:43:56.95	233.49	15.04	-44.2	-47.1	16.4	0.00e+00	0	43	0	1082130432	59	5172
2026-01-29 00:43:58.09	233.39	14.93	-44.1	-47.0	16.6	0.00e+00	0	43	0	1084227584	59	5105
2026-01-29 00:43:58.94	233.32	14.85	-44.0	-46.9	16.6	0.00e+00	0	43	0	1086324736	59	5046
2026-01-29 00:44:00.08	233.22	14.74	-44.0	-46.8	16.7	0.00e+00	0	43	0	1088421888	59	5011
2026-01-29 00:44:01.02	233.14	14.64	-44.0	-46.9	16.6	0.00e+00	0	43	0	1089470464	59	5057
2026-01-29 00:44:02.02	233.05	14.55	-43.9	-46.7	16.8	0.00e+00	0	43	0	1091567616	59	4950
2026-01-29 00:44:03.01	232.97	14.45	-44.0	-46.8	16.7	0.00e+00	0	43	0	1093664768	59	5027
2026-01-29 00:44:04.01	232.89	14.36	-43.9	-46.7	16.8	0.00e+00	0	43	0	1095761920	59	4944
2026-01-29 00:44:05.01	232.80	14.26	-43.9	-46.7	16.8	0.00e+00	0	43	0	1096810496	59	4954
2026-01-29 00:44:06.00	232.72	14.17	-43.9	-46.7	16.7	0.00e+00	0	43	0	1098907648	59	4981
2026-01-29 00:44:06.99	232.64	14.07	-43.9	-46.7	16.8	0.00e+00	0	43	0	1101004800	59	4951
2026-01-29 00:44:07.99	232.56	13.98	-44.0	-46.8	16.7	0.00e+00	0	43	0	1103101952	59	5013
2026-01-29 00:44:08.98	232.48	13.89	-44.1	-47.0	16.5	0.00e+00	0	43	0	1105199104	59	5119
2026-01-29 00:44:09.98	232.40	13.79	-44.2	-47.1	16.4	0.00e+00	0	43	0	1106247680	59	5180
2026-01-29 00:44:10.97	232.32	13.70	-44.3	-47.3	16.2	0.00e+00	0	43	0	1108344832	59	5303
2026-01-29 00:44:11.97	232.24	13.61	-44.3	-47.3	16.2	0.00e+00	0	43	0	1110441984	59	5317
2026-01-29 00:44:12.99	232.16	13.51	-44.4	-47.4	16.1	0.00e+00	0	43	0	1112539136	59	5381
2026-01-29 00:44:13.99	232.08	13.42	-44.5	-47.5	15.9	0.00e+00	0	43	0	1113587712	59	5455
2026-01-29 00:44:14.99	232.00	13.33	-44.6	-47.7	15.8	0.00e+00	0	43	0	1115684864	59	5552
2026-01-29 00:44:15.98	231.93	13.23	-44.7	-47.9	15.6	0.00e+00	0	43	0	1117782016	60	5392
2026-01-29 00:44:16.97	231.85	13.14	-44.5	-47.7	15.8	0.00e+00	0	43	0	1119879168	60	5244
2026-01-29 00:44:17.97	231.78	13.05	-44.6	-47.8	15.7	0.00e+00	0	43	0	1121976320	60	5322
2026-01-29 00:44:18.96	231.70	12.96	-44.6	-47.8	15.7	0.00e+00	0	43	0	1123024896	60	5310
2026-01-29 00:44:19.95	231.63	12.87	-44.7	-47.9	15.6	0.00e+00	0	43	0	1125122048	60	5350
2026-01-29 00:44:20.95	231.55	12.78	-44.7	-47.9	15.6	0.00e+00	0	43	0	1127219200	60	5402
2026-01-29 00:44:21.94	231.48	12.69	-44.7	-47.9	15.6	0.00e+00	0	43	0	1129316352	60	5349
2026-01-29 00:44:22.94	231.40	12.60	-44.6	-47.8	15.7	0.00e+00	0	43	0	1130364928	60	5284
2026-01-29 00:44:23.93	231.33	12.51	-44.6	-47.8	15.7	0.00e+00	0	43	0	1132462080	60	5320
2026-01-29 00:44:24.93	231.26	12.42	-44.7	-47.8	15.7	0.00e+00	0	43	0	1134559232	60	5330
2026-01-29 00:44:25.96	231.18	12.33	-44.6	-47.8	15.7	0.00e+00	0	43	0	1136656384	60	5289
2026-01-29 00:44:26.97	231.11	12.24	-44.7	-47.8	15.7	0.00e+00	0	43	0	1138753536	60	5325
2026-01-29 00:44:28.00	231.04	12.15	-44.6	-47.8	15.7	0.00e+00	0	43	0	1139802112	60	5314
2026-01-29 00:44:28.99	230.97	12.06	-44.6	-47.8	15.7	0.00e+00	0	43	0	1141899264	60	5300
2026-01-29 00:44:29.99	230.90	11.97	-44.7	-47.9	15.6	0.00e+00	0	43	0	1143996416	60	5346
2026-01-29 00:44:30.98	230.83	11.89	-44.7	-47.8	15.6	0.00e+00	0	43	0	1146093568	60	5339
2026-01-29 00:44:31.98	230.76	11.80	-44.8	-48.0	15.5	0.00e+00	0	43	0	1148190720	60	5414
2026-01-29 00:44:32.97	230.69	11.71	-44.8	-48.1	15.3	0.00e+00	0	43	0	1149239296	60	5509
2026-01-29 00:44:33.97	230.62	11.62	-44.9	-48.2	15.2	0.00e+00	0	43	0	1151336448	60	5573
2026-01-29 00:44:34.96	230.55	11.54	-45.0	-48.5	15.0	0.00e+00	0	43	0	1153433600	60	5725
2026-01-29 00:44:35.96	230.48	11.45	-45.1	-48.5	14.9	0.00e+00	0	44	0	1155530752	61	5425
2026-01-29 00:44:36.95	230.41	11.37	-45.1	-48.5	15.0	0.00e+00	0	43	0	1156579328	61	5414
2026-01-29 00:44:37.95	230.35	11.28	-45.1	-48.5	14.9	7.00e-07	0	43	0	1158676480	61	5438
2026-01-29 00:44:38.94	230.28	11.20	-45.2	-48.7	14.8	0.00e+00	0	43	0	1160773632	61	5540
2026-01-29 00:44:39.94	230.21	11.11	-45.2	-48.7	14.8	0.00e+00	0	43	0	1162870784	61	5533
2026-01-29 00:44:40.95	230.15	11.02	-45.1	-48.6	14.8	0.00e+00	0	43	0	1164967936	61	5494
2026-01-29 00:44:41.98	230.08	10.94	-45.2	-48.6	14.8	0.00e+00	0	43	0	1167065088	61	5510
2026-01-29 00:44:42.97	230.02	10.85	-45.1	-48.6	14.8	0.00e+00	0	43	0	1168113664	61	5490
2026-01-29 00:44:43.97	229.95	10.77	-45.1	-48.6	14.8	0.00e+00	0	43	0	1170210816	61	5504
2026-01-29 00:44:44.96	229.89	10.68	-45.3	-48.8	14.5	7.00e-07	0	43	0	1172307968	61	5656
2026-01-29 00:44:45.95	229.82	10.60	-45.3	-48.8	14.6	0.00e+00	0	43	0	1174405120	61	5600
2026-01-29 00:44:46.95	229.76	10.52	-45.1	-48.5	14.9	0.00e+00	0	43	0	1175453696	61	5432
2026-01-29 00:44:47.94	229.70	10.44	-45.2	-48.6	14.8	0.00e+00	0	43	0	1177550848	61	5507
2026-01-29 00:44:48.94	229.63	10.35	-44.9	-48.3	15.1	0.00e+00	0	43	0	1179648000	61	5304
2026-01-29 00:44:49.93	229.57	10.27	-44.9	-48.3	15.1	0.00e+00	0	43	0	1181745152	61	5304
2026-01-29 00:44:50.93	229.51	10.19	-45.0	-48.3	15.1	7.00e-07	0	43	0	1183842304	61	5331
2026-01-29 00:44:51.92	229.45	10.11	-44.9	-48.3	15.1	0.00e+00	0	43	0	1184890880	61	5299
2026-01-29 00:44:52.91	229.39	10.02	-44.9	-48.3	15.1	0.00e+00	0	43	0	1186988032	61	5324
2026-01-29 00:44:53.91	229.32	9.94	-45.0	-48.4	15.0	0.00e+00	0	43	0	1189085184	61	5381
2026-01-29 00:44:54.90	229.26	9.86	-44.9	-48.3	15.1	0.00e+00	0	43	0	1191182336	61	5303
2026-01-29 00:44:55.90	229.20	9.78	-45.0	-48.4	15.0	0.00e+00	0	43	0	1192230912	61	5353
2026-01-29 00:44:57.01	229.14	9.69	-45.1	-48.7	14.7	0.00e+00	0	43	0	1194328064	61	5537
2026-01-29 00:44:57.86	229.09	9.62	-45.0	-48.5	14.9	0.00e+00	0	43	0	1196425216	61	5429
2026-01-29 00:44:59.00	229.02	9.53	-45.2	-48.7	14.6	0.00e+00	0	43	0	1198522368	61	5581
2026-01-29 00:44:59.85	228.97	9.46	-45.2	-48.8	14.6	0.00e+00	0	43	0	1199570944	61	5605
2026-01-29 00:45:00.98	228.90	9.37	-45.2	-48.8	14.6	7.00e-07	0	43	0	1201668096	61	5605
2026-01-29 00:45:01.84	228.85	9.30	-45.3	-48.9	14.4	0.00e+00	0	43	0	1203765248	61	5681
2026-01-29 00:45:02.97	228.79	9.21	-45.4	-49.1	14.2	7.00e-07	0	43	0	1205862400	61	5842
2026-01-29 00:45:03.82	228.74	9.14	-45.4	-49.1	14.2	3.00e-06	0	43	0	1207959552	61	5801
2026-01-29 00:45:04.96	228.67	9.05	-45.5	-49.2	14.1	7.00e-07	0	43	0	1210056704	61	5904
2026-01-29 00:45:05.81	228.62	8.98	-48.4	-57.0	7.1	3.49e-04	0	43	0	1211105280	67	10258
2026-01-29 00:45:06.95	228.56	8.89	-49.2	-64.4	3.8	1.49e+00	0	43	104	1211105280	69	21416
2026-01-29 00:45:07.80	228.51	8.83	-49.2	-64.4	3.8	1.49e+00	0	43	104	1211105280	69	21442
2026-01-29 00:45:08.94	228.45	8.74	-49.4	-64.6	3.8	1.49e+00	0	43	104	1211105280	69	21835
2026-01-29 00:45:09.79	228.40	8.67	-49.4	-64.6	3.8	1.49e+00	0	43	104	1211105280	69	21858
2026-01-29 00:45:10.92	228.33	8.58	-49.4	-64.6	3.8	1.49e+00	0	43	104	1211105280	69	21932
2026-01-29 00:45:11.77	228.29	8.52	-49.5	-64.6	3.8	1.49e+00	0	43	104	1211105280	69	21962
2026-01-29 00:45:12.91	228.22	8.43	-49.4	-64.7	3.8	1.49e+00	0	43	104	1211105280	69	22010
2026-01-29 00:45:13.76	228.18	8.36	-49.3	-64.7	3.8	1.49e+00	0	43	104	1211105280	69	22124
2026-01-29 00:45:14.89	228.12	8.27	-49.3	-64.7	3.8	1.49e+00	0	43	104	1211105280	69	22075
2026-01-29 00:45:15.75	228.07	8.21	-49.3	-64.7	3.8	1.49e+00	0	43	104	1211105280	69	22046
