passes_logs/2026/01/29/T1/T1__20260129_205836_KHAYYAM_rec.log

#Pass ID: 20260129_205836_KHAYYAM
#Satellite: KHAYYAM
#Configuration: KHAYYAM_480M
#almurnet v.1.7.20251203
#Start time: 2026-01-29 20:58:37

#Version: 2.0.20230620
#Station: T1
#Location: 37.570604 lon 55.790049 lat
#TLE: 1 53370U 22096A   26029.00144910  .00009380  00000+0  38064-3 0  9998
#TLE: 2 53370  97.3553 295.7600 0002185 106.4357 253.7122 15.24818060193373

#Time	Az	El	Level	Level2	SNR	BER	BlckErr	Temp	State	Recorded	gain1	gain2
2026-01-29 20:58:37.43	18.93	5.10	-52.7	-57.3	3.6	0.00e+00	0	45	0	0	76	25321
2026-01-29 20:58:38.42	18.97	5.18	-53.0	-57.4	3.7	0.00e+00	0	46	104	0	76	25490
2026-01-29 20:58:39.42	19.01	5.26	-52.9	-57.5	3.6	0.00e+00	0	45	104	0	76	25779
2026-01-29 20:58:40.42	19.05	5.34	-52.8	-57.4	3.7	0.00e+00	0	46	104	0	76	25510
2026-01-29 20:58:41.41	19.09	5.42	-52.5	-57.2	3.7	0.00e+00	0	46	104	0	76	24914
2026-01-29 20:58:42.41	19.13	5.50	-52.5	-57.2	3.7	0.00e+00	0	46	104	0	76	24935
2026-01-29 20:58:43.40	19.16	5.58	-52.7	-57.4	3.7	0.00e+00	0	46	104	0	76	25448
2026-01-29 20:58:44.40	19.20	5.66	-52.6	-57.2	3.7	0.00e+00	0	46	104	0	76	25068
2026-01-29 20:58:45.39	19.24	5.75	-52.7	-57.4	3.7	0.00e+00	0	46	104	0	76	25400
2026-01-29 20:58:46.39	19.28	5.83	-52.9	-57.5	3.7	0.00e+00	0	46	104	0	76	25737
2026-01-29 20:58:47.39	19.32	5.91	-52.4	-56.6	3.7	0.00e+00	0	46	104	0	76	23260
2026-01-29 20:58:48.39	19.37	6.00	-51.9	-55.6	3.7	0.00e+00	0	47	104	0	74	23156
2026-01-29 20:58:49.38	19.41	6.08	-51.9	-56.2	3.7	0.00e+00	0	47	104	0	75	23683
2026-01-29 20:58:50.38	19.45	6.16	-51.8	-55.8	3.7	0.00e+00	0	47	104	0	74	23885
2026-01-29 20:58:51.37	19.49	6.25	-50.3	-54.3	3.7	0.00e+00	0	47	104	0	72	22458
2026-01-29 20:58:52.37	19.53	6.33	-50.8	-55.8	3.7	0.00e+00	0	47	104	0	73	25367
2026-01-29 20:58:53.37	19.57	6.42	-51.5	-56.2	3.7	0.00e+00	0	47	104	0	74	25026
2026-01-29 20:58:54.36	19.61	6.50	-50.4	-55.6	3.7	0.00e+00	0	47	104	0	72	26201
2026-01-29 20:58:55.36	19.66	6.59	-48.7	-54.3	3.7	0.00e+00	0	47	104	0	69	26642
2026-01-29 20:58:56.35	19.70	6.67	-48.7	-54.4	3.7	0.00e+00	0	47	104	0	69	26922
2026-01-29 20:58:57.35	19.74	6.76	-48.6	-54.3	3.7	0.00e+00	0	47	104	0	69	26748
2026-01-29 20:58:58.35	19.79	6.85	-48.6	-54.3	3.7	0.00e+00	0	47	104	0	69	26818
2026-01-29 20:58:59.35	19.83	6.93	-48.6	-54.3	3.7	0.00e+00	0	47	104	0	69	26836
2026-01-29 20:59:00.34	19.87	7.02	-48.6	-54.3	3.7	0.00e+00	0	47	104	0	69	26886
2026-01-29 20:59:01.34	19.92	7.11	-48.6	-54.3	3.7	0.00e+00	0	47	104	0	69	26781
2026-01-29 20:59:02.34	19.96	7.20	-48.6	-54.3	3.7	0.00e+00	0	47	104	0	69	26806
2026-01-29 20:59:03.33	20.01	7.29	-48.7	-54.3	3.7	0.00e+00	0	47	104	0	69	26852
2026-01-29 20:59:04.33	20.05	7.37	-48.7	-54.4	3.7	0.00e+00	0	47	104	0	69	26937
2026-01-29 20:59:05.33	20.10	7.46	-48.6	-54.4	3.7	0.00e+00	0	48	104	0	69	26923
2026-01-29 20:59:06.32	20.15	7.55	-48.7	-54.4	3.7	0.00e+00	0	48	104	0	69	26942
2026-01-29 20:59:07.32	20.19	7.64	-48.7	-54.3	3.7	0.00e+00	0	48	104	0	69	26856
2026-01-29 20:59:08.32	20.24	7.74	-48.6	-54.3	3.7	0.00e+00	0	48	104	0	69	26842
2026-01-29 20:59:09.31	20.29	7.83	-48.7	-54.4	3.7	0.00e+00	0	48	104	0	69	26936
2026-01-29 20:59:10.31	20.33	7.92	-48.7	-54.4	3.7	0.00e+00	0	48	104	0	69	26899
2026-01-29 20:59:11.31	20.38	8.01	-48.7	-54.4	3.7	0.00e+00	0	48	104	0	69	26979
2026-01-29 20:59:12.30	20.43	8.10	-48.7	-54.4	3.7	0.00e+00	0	48	104	0	69	26995
2026-01-29 20:59:13.30	20.48	8.20	-48.6	-54.3	3.7	0.00e+00	0	48	104	0	69	26740
2026-01-29 20:59:14.30	20.53	8.29	-48.7	-54.3	3.7	0.00e+00	0	48	104	0	69	26801
2026-01-29 20:59:15.29	20.58	8.38	-48.7	-54.3	3.7	0.00e+00	0	48	104	0	69	26719
2026-01-29 20:59:16.29	20.62	8.48	-48.6	-54.3	3.7	0.00e+00	0	48	104	0	69	26718
2026-01-29 20:59:17.29	20.67	8.57	-48.7	-54.4	3.7	0.00e+00	0	48	104	0	69	26980
2026-01-29 20:59:18.29	20.72	8.67	-48.6	-54.4	3.7	0.00e+00	0	48	104	0	69	26947
2026-01-29 20:59:19.29	20.78	8.77	-48.6	-54.3	3.7	0.00e+00	0	48	104	0	69	26711
2026-01-29 20:59:20.29	20.83	8.86	-48.6	-54.4	3.7	0.00e+00	0	48	104	0	69	26918
2026-01-29 20:59:21.28	20.88	8.96	-48.6	-54.3	3.7	0.00e+00	0	48	104	0	69	26856
2026-01-29 20:59:22.28	20.93	9.06	-48.7	-54.4	3.7	0.00e+00	0	48	104	0	69	26983
2026-01-29 20:59:23.28	20.98	9.15	-48.7	-54.3	3.7	0.00e+00	0	49	104	0	69	26832
2026-01-29 20:59:24.28	21.03	9.25	-48.6	-54.3	3.7	0.00e+00	0	48	104	0	69	26782
2026-01-29 20:59:25.28	21.09	9.35	-48.5	-54.3	3.7	0.00e+00	0	49	104	0	69	26604
2026-01-29 20:59:26.27	21.14	9.45	-48.8	-54.0	3.7	0.00e+00	0	48	104	0	69	25833
2026-01-29 20:59:27.27	21.19	9.55	-48.3	-54.2	3.7	0.00e+00	0	49	104	0	68	27892
2026-01-29 20:59:28.28	21.25	9.65	-48.5	-54.4	3.7	0.00e+00	0	49	104	0	68	28645
2026-01-29 20:59:29.27	21.30	9.75	-48.6	-54.1	3.7	0.00e+00	0	49	104	0	68	27777
2026-01-29 20:59:30.28	21.36	9.86	-48.8	-54.1	3.7	0.00e+00	0	49	104	0	68	27602
2026-01-29 20:59:31.28	21.42	9.96	-48.9	-54.4	3.7	0.00e+00	0	49	104	0	68	28630
2026-01-29 20:59:32.28	21.47	10.06	-49.9	-55.1	3.7	0.00e+00	0	49	104	0	70	27537
2026-01-29 20:59:33.28	21.53	10.17	-48.5	-54.2	3.7	0.00e+00	0	49	104	0	68	28010
2026-01-29 20:59:34.28	21.59	10.27	-48.8	-54.1	3.7	0.00e+00	0	49	104	0	68	27712
2026-01-29 20:59:35.28	21.64	10.37	-48.9	-54.4	3.7	0.00e+00	0	49	104	0	68	28527
2026-01-29 20:59:36.28	21.70	10.48	-48.9	-54.5	3.7	0.00e+00	0	49	104	0	68	29101
2026-01-29 20:59:37.28	21.76	10.59	-49.2	-54.8	3.7	0.00e+00	0	49	104	0	69	28257
2026-01-29 20:59:38.28	21.82	10.69	-49.6	-55.0	3.7	0.00e+00	0	49	104	0	69	28833
2026-01-29 20:59:39.29	21.88	10.80	-49.8	-55.1	3.7	0.00e+00	0	49	104	0	70	27585
2026-01-29 20:59:40.28	21.94	10.91	-49.3	-54.6	3.7	0.00e+00	0	49	104	0	70	26191
2026-01-29 20:59:41.29	22.00	11.02	-51.0	-55.8	3.7	0.00e+00	0	49	104	0	72	26804
2026-01-29 20:59:42.29	22.06	11.12	-52.0	-56.7	3.7	0.00e+00	0	49	104	0	74	26507
2026-01-29 20:59:43.29	22.12	11.23	-51.7	-56.3	3.7	0.00e+00	0	49	104	0	74	25172
2026-01-29 20:59:44.29	22.18	11.34	-51.3	-56.3	3.7	0.00e+00	0	49	104	0	74	25170
2026-01-29 20:59:45.29	22.25	11.46	-51.8	-56.5	3.7	0.00e+00	0	49	104	0	74	25951
2026-01-29 20:59:46.29	22.31	11.57	-51.9	-56.6	3.7	0.00e+00	0	49	104	0	74	26147
2026-01-29 20:59:47.29	22.37	11.68	-51.9	-56.6	3.7	0.00e+00	0	49	104	0	74	26276
2026-01-29 20:59:48.30	22.44	11.79	-51.9	-56.7	3.7	0.00e+00	0	49	104	0	74	26417
2026-01-29 20:59:49.30	22.50	11.91	-51.8	-56.3	3.7	0.00e+00	0	49	104	0	74	25374
2026-01-29 20:59:50.30	22.57	12.02	-51.6	-56.2	3.7	0.00e+00	0	49	104	0	74	24963
2026-01-29 20:59:51.31	22.64	12.14	-51.7	-56.4	3.7	0.00e+00	0	49	104	0	74	25653
2026-01-29 20:59:52.31	22.70	12.25	-51.4	-56.3	3.7	0.00e+00	0	49	104	0	74	25256
2026-01-29 20:59:53.31	22.77	12.37	-51.8	-56.6	3.7	0.00e+00	0	49	104	0	74	26005
2026-01-29 20:59:54.31	22.84	12.49	-51.4	-56.4	3.7	0.00e+00	0	49	104	0	74	25559
2026-01-29 20:59:55.31	22.91	12.60	-51.7	-56.4	3.7	0.00e+00	0	49	104	0	74	25527
2026-01-29 20:59:56.31	22.97	12.72	-51.5	-56.4	3.7	0.00e+00	0	50	104	0	74	25388
2026-01-29 20:59:57.31	23.04	12.84	-51.5	-56.4	3.7	0.00e+00	0	50	104	0	74	25646
2026-01-29 20:59:58.31	23.11	12.96	-51.2	-56.2	3.7	0.00e+00	0	49	104	0	74	24904
2026-01-29 20:59:59.31	23.19	13.08	-51.4	-56.4	3.7	0.00e+00	0	50	104	0	74	25600
2026-01-29 21:00:00.32	23.26	13.20	-51.2	-56.3	3.7	0.00e+00	0	50	104	0	74	25123
2026-01-29 21:00:01.32	23.33	13.33	-51.1	-56.1	3.7	0.00e+00	0	49	104	0	74	24582
2026-01-29 21:00:02.32	23.40	13.45	-50.8	-55.7	3.7	0.00e+00	0	50	104	0	73	24812
2026-01-29 21:00:03.32	23.48	13.57	-51.2	-56.1	3.7	0.00e+00	0	50	104	0	73	26181
2026-01-29 21:00:04.32	23.55	13.70	-50.5	-55.3	3.7	0.00e+00	0	50	104	0	72	25379
2026-01-29 21:00:05.32	23.63	13.82	-50.9	-56.0	3.7	0.00e+00	0	50	104	0	72	27412
2026-01-29 21:00:06.33	23.70	13.95	-50.7	-55.5	3.7	0.00e+00	0	50	104	0	72	25928
2026-01-29 21:00:07.33	23.78	14.08	-51.0	-55.8	3.7	0.00e+00	0	50	104	0	72	26670
2026-01-29 21:00:08.33	23.86	14.21	-51.1	-56.0	3.7	0.00e+00	0	50	104	0	72	27287
2026-01-29 21:00:09.33	23.94	14.34	-51.2	-56.1	3.7	0.00e+00	0	50	104	0	72	27817
2026-01-29 21:00:10.33	24.02	14.47	-51.4	-56.5	3.7	0.00e+00	0	50	104	0	73	27390
2026-01-29 21:00:11.33	24.10	14.60	-51.5	-56.5	3.7	0.00e+00	0	50	104	0	73	27457
2026-01-29 21:00:12.32	24.18	14.73	-51.0	-56.2	3.7	0.00e+00	0	50	104	0	73	26458
2026-01-29 21:00:13.33	24.26	14.86	-51.5	-56.4	3.7	0.00e+00	0	50	104	0	73	26985
2026-01-29 21:00:14.33	24.34	14.99	-51.4	-56.5	3.7	0.00e+00	0	50	104	0	73	27391
2026-01-29 21:00:15.33	24.42	15.13	-52.0	-56.6	3.7	0.00e+00	0	50	104	0	74	26197
2026-01-29 21:00:16.33	24.51	15.26	-51.8	-56.7	3.7	0.00e+00	0	50	104	0	74	26293
2026-01-29 21:00:17.33	24.59	15.40	-51.9	-56.5	3.7	0.00e+00	0	50	104	0	74	25927
2026-01-29 21:00:18.33	24.68	15.54	-51.7	-56.4	3.7	0.00e+00	0	50	104	0	74	25619
2026-01-29 21:00:19.33	24.76	15.67	-51.7	-56.4	3.7	0.00e+00	0	50	104	0	74	25442
2026-01-29 21:00:20.33	24.85	15.81	-51.8	-56.5	3.7	0.00e+00	0	50	104	0	74	25758
2026-01-29 21:00:21.34	24.94	15.96	-50.9	-55.8	3.7	0.00e+00	0	50	104	0	73	25277
2026-01-29 21:00:22.34	25.03	16.10	-51.6	-56.3	3.7	0.00e+00	0	50	104	0	74	25203
2026-01-29 21:00:23.34	25.12	16.24	-50.0	-55.3	3.7	0.00e+00	0	50	104	0	72	25182
2026-01-29 21:00:24.35	25.21	16.38	-49.8	-55.1	3.7	0.00e+00	0	50	104	0	71	26011
2026-01-29 21:00:25.35	25.30	16.53	-49.7	-54.9	3.7	0.00e+00	0	50	104	0	71	25489
2026-01-29 21:00:26.35	25.40	16.67	-49.7	-54.9	3.7	0.00e+00	0	50	104	0	71	25538
2026-01-29 21:00:27.35	25.49	16.82	-50.1	-55.4	3.7	0.00e+00	0	50	104	0	71	27132
2026-01-29 21:00:28.35	25.59	16.97	-49.7	-54.9	3.7	0.00e+00	0	50	104	0	71	25595
2026-01-29 21:00:29.35	25.68	17.12	-49.9	-55.2	3.7	0.00e+00	0	50	104	0	71	26485
2026-01-29 21:00:30.35	25.78	17.26	-49.8	-55.2	3.7	0.00e+00	0	50	104	0	71	26401
2026-01-29 21:00:31.35	25.88	17.42	-50.0	-55.2	3.7	0.00e+00	0	50	104	0	71	26532
2026-01-29 21:00:32.35	25.98	17.57	-50.0	-55.3	3.7	0.00e+00	0	50	104	0	71	26785
2026-01-29 21:00:33.35	26.08	17.72	-49.7	-55.0	3.7	0.00e+00	0	50	104	0	71	25681
2026-01-29 21:00:34.35	26.18	17.88	-49.8	-55.1	3.7	0.00e+00	0	50	104	0	71	26034
2026-01-29 21:00:35.35	26.29	18.03	-50.1	-55.4	3.7	0.00e+00	0	50	104	0	71	26951
2026-01-29 21:00:36.35	26.39	18.19	-50.1	-55.4	3.7	0.00e+00	0	50	104	0	71	27165
2026-01-29 21:00:37.36	26.50	18.35	-50.1	-55.5	3.7	0.00e+00	0	50	104	0	71	27378
2026-01-29 21:00:38.36	26.60	18.51	-50.2	-55.6	3.7	0.00e+00	0	50	104	0	71	27637
2026-01-29 21:00:39.36	26.71	18.67	-50.3	-55.7	3.7	0.00e+00	0	50	104	0	71	28069
2026-01-29 21:00:40.36	26.82	18.83	-50.6	-55.9	3.7	0.00e+00	0	50	104	0	71	28587
2026-01-29 21:00:41.37	26.93	18.99	-50.9	-56.0	3.7	0.00e+00	0	50	104	0	72	27398
2026-01-29 21:00:42.37	27.05	19.16	-51.8	-55.8	3.7	0.00e+00	0	50	104	0	74	23717
2026-01-29 21:00:43.37	27.16	19.32	-51.7	-55.7	3.7	0.00e+00	0	50	104	0	74	23438
2026-01-29 21:00:44.37	27.27	19.49	-51.6	-55.5	3.7	0.00e+00	0	50	104	0	74	23118
2026-01-29 21:00:45.37	27.39	19.66	-51.7	-55.5	3.7	0.00e+00	0	50	104	0	74	23037
2026-01-29 21:00:46.37	27.51	19.83	-51.7	-55.5	3.7	0.00e+00	0	50	104	0	74	23086
2026-01-29 21:00:47.37	27.63	20.00	-51.8	-55.6	3.7	0.00e+00	0	50	104	0	74	23245
2026-01-29 21:00:48.37	27.75	20.17	-51.5	-55.0	3.7	0.00e+00	0	50	104	0	74	21634
2026-01-29 21:00:49.37	27.87	20.34	-51.5	-55.0	3.7	0.00e+00	0	50	104	0	74	21804
2026-01-29 21:00:50.37	27.99	20.52	-51.6	-55.1	3.7	0.00e+00	0	50	104	0	74	22063
2026-01-29 21:00:51.37	28.12	20.70	-51.4	-54.8	3.7	0.00e+00	0	51	104	0	74	21334
2026-01-29 21:00:52.38	28.25	20.88	-51.1	-54.5	3.7	0.00e+00	0	51	104	0	74	20478
2026-01-29 21:00:53.38	28.38	21.06	-50.9	-54.2	3.7	0.00e+00	0	50	104	0	73	20977
2026-01-29 21:00:54.38	28.51	21.24	-50.8	-54.1	3.7	0.00e+00	0	50	104	0	73	20677
2026-01-29 21:00:55.38	28.64	21.42	-51.2	-54.6	3.7	0.00e+00	0	50	104	0	73	22045
2026-01-29 21:00:56.38	28.77	21.60	-51.3	-54.8	3.7	0.00e+00	0	50	104	0	73	22438
2026-01-29 21:00:57.38	28.91	21.79	-50.9	-54.2	3.7	0.00e+00	0	50	104	0	73	20881
2026-01-29 21:00:58.38	29.05	21.98	-51.1	-54.5	3.7	0.00e+00	0	50	104	0	73	21749
2026-01-29 21:00:59.38	29.19	22.17	-51.5	-55.1	3.7	0.00e+00	0	50	104	0	73	23319
2026-01-29 21:01:00.38	29.33	22.36	-51.8	-55.7	3.7	0.00e+00	0	50	104	0	74	23617
2026-01-29 21:01:01.38	29.47	22.55	-52.2	-56.4	3.7	0.00e+00	0	50	104	0	74	25498
2026-01-29 21:01:02.38	29.61	22.74	-52.3	-56.7	3.7	0.00e+00	0	50	104	0	75	25045
2026-01-29 21:01:03.38	29.76	22.94	-52.4	-56.8	3.7	0.00e+00	0	50	104	0	75	25277
2026-01-29 21:01:04.38	29.91	23.14	-52.3	-56.7	3.7	0.00e+00	0	50	104	0	75	24837
2026-01-29 21:01:05.38	30.06	23.34	-52.2	-56.6	3.7	0.00e+00	0	50	104	0	75	24527
2026-01-29 21:01:06.38	30.22	23.54	-52.5	-57.1	3.7	0.00e+00	0	51	104	0	75	26230
2026-01-29 21:01:07.38	30.37	23.74	-51.9	-56.5	3.7	0.00e+00	0	50	104	0	75	24281
2026-01-29 21:01:08.38	30.53	23.94	-51.8	-56.5	3.7	0.00e+00	0	51	104	0	75	24340
2026-01-29 21:01:09.38	30.69	24.15	-51.8	-56.5	3.7	0.00e+00	0	50	104	0	75	24497
2026-01-29 21:01:10.38	30.85	24.36	-52.0	-56.7	3.7	0.00e+00	0	51	104	0	75	24886
2026-01-29 21:01:11.39	31.02	24.57	-52.1	-56.8	3.7	0.00e+00	0	50	104	0	75	25329
2026-01-29 21:01:12.39	31.18	24.78	-52.1	-56.9	3.7	0.00e+00	0	50	104	0	75	25498
2026-01-29 21:01:13.39	31.35	25.00	-51.8	-56.4	3.7	0.00e+00	0	51	104	0	75	23972
2026-01-29 21:01:14.39	31.53	25.21	-51.7	-56.2	3.7	0.00e+00	0	51	104	0	75	23547
2026-01-29 21:01:15.39	31.70	25.43	-51.8	-56.4	3.7	0.00e+00	0	51	104	0	75	24170
2026-01-29 21:01:16.39	31.88	25.65	-51.6	-56.1	3.7	0.00e+00	0	51	104	0	75	23411
2026-01-29 21:01:17.39	32.06	25.87	-51.8	-56.6	3.7	0.00e+00	0	51	104	0	75	24590
2026-01-29 21:01:18.40	32.24	26.10	-52.0	-56.9	3.7	0.00e+00	0	51	104	0	75	25427
2026-01-29 21:01:19.40	32.43	26.32	-52.0	-56.4	3.7	0.00e+00	0	50	104	0	75	24114
2026-01-29 21:01:20.40	32.62	26.55	-51.7	-55.6	3.7	0.00e+00	0	50	104	0	75	22058
2026-01-29 21:01:21.40	32.81	26.78	-51.8	-55.8	3.7	0.00e+00	0	51	104	0	75	22457
2026-01-29 21:01:22.40	33.00	27.01	-52.0	-56.2	3.7	0.00e+00	0	50	104	0	75	23460
2026-01-29 21:01:23.40	33.20	27.25	-52.4	-56.5	3.7	0.00e+00	0	50	104	0	75	24482
2026-01-29 21:01:24.40	33.40	27.48	-52.6	-56.9	3.7	0.00e+00	0	50	104	0	75	25543
2026-01-29 21:01:25.40	33.61	27.72	-52.5	-56.6	3.7	0.00e+00	0	50	104	0	75	24670
2026-01-29 21:01:26.41	33.82	27.96	-52.6	-57.0	3.7	0.00e+00	0	51	104	0	75	25683
2026-01-29 21:01:27.40	34.02	28.20	-52.4	-56.9	3.7	0.00e+00	0	50	104	0	75	25480
2026-01-29 21:01:28.41	34.24	28.45	-51.6	-55.6	3.7	0.00e+00	0	50	104	0	75	22008
2026-01-29 21:01:29.41	34.46	28.70	-51.7	-56.0	3.7	0.00e+00	0	51	104	0	75	22973
2026-01-29 21:01:30.41	34.68	28.95	-51.8	-55.9	3.7	0.00e+00	0	50	104	0	75	22878
2026-01-29 21:01:31.41	34.91	29.20	-51.7	-55.8	3.7	0.00e+00	0	51	104	0	75	22416
2026-01-29 21:01:32.42	35.14	29.46	-51.7	-55.8	3.7	0.00e+00	0	51	104	0	75	22438
2026-01-29 21:01:33.42	35.37	29.71	-51.9	-56.0	3.7	0.00e+00	0	51	104	0	75	23044
2026-01-29 21:01:34.42	35.61	29.97	-52.2	-56.3	3.7	0.00e+00	0	51	104	0	75	23897
2026-01-29 21:01:35.42	35.85	30.23	-52.1	-56.2	3.7	0.00e+00	0	50	104	0	75	23647
2026-01-29 21:01:36.42	36.09	30.49	-51.8	-55.5	3.7	0.00e+00	0	51	104	0	75	21846
2026-01-29 21:01:37.42	36.34	30.76	-51.9	-55.7	3.7	0.00e+00	0	51	104	0	75	22199
2026-01-29 21:01:38.42	36.60	31.03	-52.0	-56.2	3.7	0.00e+00	0	51	104	0	75	23435
2026-01-29 21:01:39.42	36.86	31.30	-52.1	-56.3	3.7	0.00e+00	0	51	104	0	75	23878
2026-01-29 21:01:40.42	37.12	31.57	-52.3	-56.5	3.7	0.00e+00	0	51	104	0	75	24516
2026-01-29 21:01:41.42	37.39	31.85	-52.4	-56.7	3.7	0.00e+00	0	51	104	0	75	24927
2026-01-29 21:01:42.42	37.66	32.12	-52.5	-56.7	3.7	0.00e+00	0	50	104	0	75	24898
2026-01-29 21:01:43.43	37.94	32.41	-52.7	-57.0	3.7	0.00e+00	0	51	104	0	75	25959
2026-01-29 21:01:44.43	38.23	32.69	-52.8	-57.3	3.7	0.00e+00	0	51	104	0	76	25305
2026-01-29 21:01:45.44	38.52	32.98	-52.7	-57.1	3.7	0.00e+00	0	51	104	0	76	24683
2026-01-29 21:01:46.43	38.81	33.26	-52.7	-57.2	3.7	0.00e+00	0	51	104	0	76	24851
2026-01-29 21:01:47.43	39.11	33.55	-52.7	-57.1	3.7	0.00e+00	0	51	104	0	76	24549
2026-01-29 21:01:48.43	39.41	33.84	-52.4	-56.7	3.7	0.00e+00	0	51	104	0	76	23557
2026-01-29 21:01:49.43	39.73	34.14	-52.3	-56.6	3.7	0.00e+00	0	51	104	0	76	23377
2026-01-29 21:01:50.43	40.04	34.44	-52.3	-56.7	3.7	0.00e+00	0	51	104	0	76	23573
2026-01-29 21:01:51.43	40.37	34.73	-52.5	-56.8	3.7	0.00e+00	0	51	104	0	76	23720
2026-01-29 21:01:52.43	40.70	35.04	-52.4	-56.9	3.7	0.00e+00	0	51	104	0	76	24145
2026-01-29 21:01:53.43	41.03	35.34	-52.3	-56.8	3.7	0.00e+00	0	51	104	0	76	23743
2026-01-29 21:01:54.43	41.38	35.65	-52.4	-56.8	3.7	0.00e+00	0	51	104	0	76	23706
2026-01-29 21:01:55.43	41.73	35.96	-52.2	-56.9	3.7	0.00e+00	0	51	104	0	76	24102
2026-01-29 21:01:56.43	42.08	36.27	-52.4	-57.0	3.7	0.00e+00	0	51	104	0	76	24477
2026-01-29 21:01:57.43	42.45	36.58	-52.5	-57.1	3.7	0.00e+00	0	51	104	0	76	24694
2026-01-29 21:01:58.43	42.82	36.90	-52.5	-57.1	3.7	0.00e+00	0	51	104	0	76	24704
2026-01-29 21:01:59.44	43.20	37.22	-52.6	-57.1	3.7	0.00e+00	0	50	104	0	76	24773
2026-01-29 21:02:00.44	43.59	37.54	-52.8	-57.3	3.7	0.00e+00	0	51	104	0	76	25118
2026-01-29 21:02:01.44	43.99	37.86	-52.8	-57.3	3.7	0.00e+00	0	51	104	0	76	25378
2026-01-29 21:02:02.44	44.39	38.19	-52.8	-57.3	3.7	0.00e+00	0	50	104	0	76	25323
2026-01-29 21:02:03.44	44.80	38.52	-52.8	-57.4	3.7	0.00e+00	0	51	104	0	76	25402
2026-01-29 21:02:04.44	45.22	38.85	-52.6	-57.2	3.7	0.00e+00	0	51	104	0	76	24901
2026-01-29 21:02:05.43	45.65	39.17	-52.5	-57.2	3.7	0.00e+00	0	51	104	0	76	24885
2026-01-29 21:02:06.43	46.09	39.51	-52.6	-57.2	3.7	0.00e+00	0	50	104	0	76	24891
2026-01-29 21:02:07.44	46.54	39.85	-52.5	-57.1	3.7	0.00e+00	0	51	104	0	76	24780
2026-01-29 21:02:08.44	47.00	40.18	-52.1	-56.7	3.7	0.00e+00	0	51	104	0	76	23682
2026-01-29 21:02:09.44	47.47	40.52	-52.3	-56.9	3.7	0.00e+00	0	51	104	0	76	24031
2026-01-29 21:02:10.44	47.95	40.86	-52.3	-56.9	3.7	0.00e+00	0	51	104	0	76	24242
2026-01-29 21:02:11.44	48.44	41.20	-52.8	-57.3	3.7	0.00e+00	0	51	104	0	76	25242
2026-01-29 21:02:12.45	48.95	41.55	-52.6	-57.0	3.7	0.00e+00	0	51	104	0	76	24514
2026-01-29 21:02:13.45	49.46	41.89	-52.2	-56.9	3.7	0.00e+00	0	51	104	0	76	24047
2026-01-29 21:02:14.45	49.98	42.24	-52.0	-56.8	3.7	0.00e+00	0	51	104	0	76	23705
2026-01-29 21:02:15.45	50.52	42.59	-51.9	-56.8	3.7	0.00e+00	0	51	104	0	75	25144
2026-01-29 21:02:16.46	51.07	42.94	-52.3	-57.1	3.7	0.00e+00	0	51	104	0	75	26017
2026-01-29 21:02:17.46	51.63	43.29	-52.9	-57.5	3.7	0.00e+00	0	51	104	0	76	25715
2026-01-29 21:02:18.46	52.20	43.64	-52.9	-57.5	3.7	0.00e+00	0	51	104	0	76	25750
2026-01-29 21:02:19.46	52.79	43.99	-52.8	-57.4	3.7	0.00e+00	0	51	104	0	76	25390
2026-01-29 21:02:20.46	53.39	44.34	-52.6	-57.3	3.7	0.00e+00	0	51	104	0	76	25242
2026-01-29 21:02:21.46	54.00	44.69	-52.6	-57.3	3.7	0.00e+00	0	51	104	0	76	25337
2026-01-29 21:02:22.46	54.63	45.04	-52.7	-57.4	3.7	0.00e+00	0	51	104	0	76	25405
2026-01-29 21:02:23.46	55.27	45.39	-52.9	-57.5	3.7	0.00e+00	0	51	104	0	76	25704
2026-01-29 21:02:24.46	55.93	45.74	-53.0	-57.5	3.7	0.00e+00	0	51	104	0	76	25735
2026-01-29 21:02:25.47	56.60	46.09	-53.0	-57.5	3.7	0.00e+00	0	51	104	0	76	25799
2026-01-29 21:02:26.47	57.29	46.44	-53.0	-57.5	3.7	0.00e+00	0	51	104	0	76	25779
2026-01-29 21:02:27.47	57.99	46.79	-53.0	-57.5	3.7	0.00e+00	0	51	104	0	76	25770
2026-01-29 21:02:28.47	58.71	47.13	-52.9	-57.5	3.7	0.00e+00	0	51	104	0	76	25702
2026-01-29 21:02:29.47	59.45	47.48	-52.8	-57.4	3.7	0.00e+00	0	51	104	0	76	25493
2026-01-29 21:02:30.47	60.20	47.82	-52.7	-57.4	3.7	0.00e+00	0	51	104	0	76	25447
2026-01-29 21:02:31.47	60.97	48.16	-52.8	-57.4	3.7	0.00e+00	0	51	104	0	76	25497
2026-01-29 21:02:32.47	61.76	48.50	-52.9	-57.5	3.7	0.00e+00	0	51	104	0	76	25705
2026-01-29 21:02:33.48	62.57	48.83	-53.0	-57.5	3.7	0.00e+00	0	51	104	0	76	25959
2026-01-29 21:02:34.48	63.40	49.17	-53.0	-57.5	3.7	0.00e+00	0	51	104	0	76	25863
2026-01-29 21:02:35.48	64.24	49.49	-52.7	-57.5	3.7	0.00e+00	0	51	104	0	76	25704
2026-01-29 21:02:36.48	65.10	49.82	-53.0	-57.6	3.7	0.00e+00	0	51	104	0	76	26083
2026-01-29 21:02:37.49	65.99	50.14	-53.0	-57.5	3.6	0.00e+00	0	51	104	0	76	25877
2026-01-29 21:02:38.49	66.88	50.46	-52.9	-57.4	3.7	0.00e+00	0	51	104	0	76	25556
2026-01-29 21:02:39.49	67.80	50.77	-52.8	-57.4	3.7	0.00e+00	0	51	104	0	76	25612
2026-01-29 21:02:40.49	68.74	51.07	-52.8	-57.4	3.7	0.00e+00	0	51	104	0	76	25618
2026-01-29 21:02:41.49	69.70	51.37	-52.8	-57.4	3.7	0.00e+00	0	51	104	0	76	25496
2026-01-29 21:02:42.49	70.67	51.66	-52.9	-57.4	3.7	0.00e+00	0	51	104	0	76	25610
2026-01-29 21:02:43.49	71.67	51.95	-53.0	-57.5	3.7	0.00e+00	0	51	104	0	76	25902
2026-01-29 21:02:44.49	72.68	52.23	-52.8	-57.4	3.7	0.00e+00	0	51	104	0	76	25508
2026-01-29 21:02:45.49	73.72	52.50	-53.0	-57.5	3.7	0.00e+00	0	51	104	0	76	25784
2026-01-29 21:02:46.49	74.77	52.77	-53.1	-57.5	3.7	0.00e+00	0	51	104	0	76	25934
2026-01-29 21:02:47.49	75.85	53.02	-52.8	-57.5	3.7	0.00e+00	0	51	104	0	76	25746
2026-01-29 21:02:48.49	76.94	53.27	-52.6	-57.4	3.7	0.00e+00	0	51	104	0	76	25402
2026-01-29 21:02:49.50	78.06	53.51	-52.6	-57.3	3.7	0.00e+00	0	51	104	0	76	25349
2026-01-29 21:02:50.50	79.19	53.74	-52.6	-57.4	3.7	0.00e+00	0	51	104	0	76	25441
2026-01-29 21:02:51.50	80.34	53.96	-52.8	-57.4	3.7	0.00e+00	0	51	104	0	76	25573
2026-01-29 21:02:52.51	81.52	54.17	-52.3	-57.1	3.7	0.00e+00	0	51	104	0	76	24626
2026-01-29 21:02:53.51	82.70	54.37	-52.2	-57.0	3.7	0.00e+00	0	51	104	0	76	24437
2026-01-29 21:02:54.51	83.90	54.55	-52.3	-57.1	3.7	0.00e+00	0	51	104	0	76	24796
2026-01-29 21:02:55.50	85.10	54.73	-52.2	-57.1	3.7	0.00e+00	0	51	104	0	76	24768
2026-01-29 21:02:56.50	86.33	54.89	-52.3	-57.2	3.7	0.00e+00	0	51	104	0	76	24954
2026-01-29 21:02:57.50	87.57	55.04	-52.2	-57.1	3.7	0.00e+00	0	51	104	0	76	24677
2026-01-29 21:02:58.51	88.84	55.18	-51.9	-56.9	3.7	0.00e+00	0	51	104	0	75	25484
2026-01-29 21:02:59.51	90.11	55.30	-52.1	-57.0	3.7	0.00e+00	0	51	104	0	75	25881
2026-01-29 21:03:00.51	91.39	55.41	-52.9	-57.5	3.7	0.00e+00	0	51	104	0	76	25779
2026-01-29 21:03:01.51	92.67	55.51	-52.2	-57.1	3.7	0.00e+00	0	51	104	0	76	24758
2026-01-29 21:03:02.51	93.97	55.59	-51.8	-56.9	3.7	0.00e+00	0	51	104	0	75	25403
2026-01-29 21:03:03.51	95.27	55.66	-52.4	-57.1	3.7	0.00e+00	0	51	104	0	75	26129
2026-01-29 21:03:04.51	96.58	55.72	-52.8	-57.4	3.7	0.00e+00	0	51	104	0	76	25499
2026-01-29 21:03:05.51	97.90	55.76	-52.4	-57.2	3.7	0.00e+00	0	51	104	0	76	24908
2026-01-29 21:03:06.51	99.22	55.78	-52.4	-57.2	3.7	0.00e+00	0	51	104	0	76	24836
2026-01-29 21:03:07.51	100.54	55.80	-52.9	-57.5	3.7	0.00e+00	0	51	104	0	76	25725
2026-01-29 21:03:08.52	101.87	55.79	-52.5	-57.2	3.7	0.00e+00	0	51	104	0	76	25083
2026-01-29 21:03:09.52	103.19	55.78	-52.7	-57.4	3.7	0.00e+00	0	51	104	0	76	25409
2026-01-29 21:03:10.52	104.51	55.75	-52.6	-57.3	3.7	0.00e+00	0	51	104	0	76	25183
2026-01-29 21:03:11.52	105.82	55.70	-52.2	-56.9	3.7	0.00e+00	0	51	104	0	76	24156
2026-01-29 21:03:12.52	107.13	55.64	-52.5	-57.2	3.7	0.00e+00	0	51	104	0	76	24873
2026-01-29 21:03:13.52	108.43	55.57	-52.3	-57.1	3.7	0.00e+00	0	51	104	0	76	24681
2026-01-29 21:03:14.53	109.74	55.48	-51.9	-56.8	3.7	0.00e+00	0	51	104	0	75	25352
2026-01-29 21:03:15.53	111.03	55.38	-52.1	-57.0	3.7	0.00e+00	0	51	104	0	75	25714
2026-01-29 21:03:16.53	112.30	55.26	-52.8	-57.3	3.7	0.00e+00	0	51	104	0	76	25264
2026-01-29 21:03:17.53	113.57	55.13	-52.7	-57.2	3.7	0.00e+00	0	51	104	0	76	25012
2026-01-29 21:03:18.53	114.82	54.99	-52.8	-57.3	3.7	0.00e+00	0	51	104	0	76	25212
2026-01-29 21:03:19.53	116.06	54.84	-52.9	-57.3	3.7	0.00e+00	0	51	104	0	76	25379
2026-01-29 21:03:20.54	117.30	54.67	-53.0	-57.4	3.7	0.00e+00	0	51	104	0	76	25484
2026-01-29 21:03:21.53	118.50	54.49	-52.7	-57.3	3.7	0.00e+00	0	51	104	0	76	25149
2026-01-29 21:03:22.53	119.69	54.30	-52.3	-57.1	3.7	0.00e+00	0	51	104	0	76	24648
2026-01-29 21:03:23.53	120.87	54.10	-52.8	-57.4	3.7	0.00e+00	0	51	104	0	76	25580
2026-01-29 21:03:24.54	122.04	53.88	-52.7	-57.3	3.7	0.00e+00	0	51	104	0	76	25201
2026-01-29 21:03:25.53	123.18	53.66	-52.5	-57.2	3.7	0.00e+00	0	51	104	0	76	24894
2026-01-29 21:03:26.53	124.30	53.43	-52.2	-57.1	3.7	0.00e+00	0	51	104	0	76	24585
2026-01-29 21:03:27.53	125.41	53.19	-51.7	-56.8	3.7	0.00e+00	0	51	104	0	75	25224
2026-01-29 21:03:28.53	126.50	52.94	-51.8	-56.8	3.7	0.00e+00	0	51	104	0	75	25303
2026-01-29 21:03:29.53	127.57	52.68	-52.6	-57.3	3.7	0.00e+00	0	51	104	0	76	25098
2026-01-29 21:03:30.53	128.62	52.41	-52.8	-57.4	3.7	0.00e+00	0	51	104	0	76	25469
2026-01-29 21:03:31.53	129.65	52.14	-52.8	-57.4	3.7	0.00e+00	0	51	104	0	76	25467
2026-01-29 21:03:32.53	130.66	51.85	-52.5	-57.2	3.7	0.00e+00	0	51	104	0	76	24836
2026-01-29 21:03:33.54	131.66	51.56	-52.4	-57.1	3.7	0.00e+00	0	51	104	0	76	24643
2026-01-29 21:03:34.54	132.63	51.26	-52.5	-57.1	3.7	0.00e+00	0	51	104	0	76	24632
2026-01-29 21:03:35.54	133.58	50.96	-52.9	-57.4	3.7	0.00e+00	0	51	104	0	76	25543
2026-01-29 21:03:36.54	134.52	50.65	-52.6	-57.1	3.7	0.00e+00	0	51	104	0	76	24557
2026-01-29 21:03:37.55	135.44	50.34	-52.5	-57.0	3.7	0.00e+00	0	51	104	0	76	24425
2026-01-29 21:03:38.55	136.33	50.02	-52.5	-57.0	3.7	0.00e+00	0	51	104	0	76	24507
2026-01-29 21:03:39.55	137.21	49.70	-52.8	-57.2	3.6	0.00e+00	0	51	104	0	76	25012
2026-01-29 21:03:40.56	138.07	49.37	-52.7	-57.1	3.7	0.00e+00	0	51	104	0	76	24746
2026-01-29 21:03:41.56	138.91	49.04	-52.7	-57.1	3.7	0.00e+00	0	51	104	0	76	24784
2026-01-29 21:03:42.56	139.73	48.70	-52.8	-57.3	3.7	0.00e+00	0	51	104	0	76	25234
2026-01-29 21:03:43.56	140.53	48.36	-52.8	-57.4	3.7	0.00e+00	0	51	104	0	76	25440
2026-01-29 21:03:44.56	141.31	48.02	-52.8	-57.3	3.7	0.00e+00	0	51	104	0	76	25235
2026-01-29 21:03:45.56	142.08	47.68	-52.8	-57.3	3.7	0.00e+00	0	51	104	0	76	25322
2026-01-29 21:03:46.56	142.83	47.34	-52.9	-57.4	3.7	0.00e+00	0	51	104	0	76	25440
2026-01-29 21:03:47.56	143.56	46.99	-52.8	-57.3	3.7	0.00e+00	0	51	104	0	76	25158
2026-01-29 21:03:48.57	144.28	46.64	-52.8	-57.4	3.7	0.00e+00	0	51	104	0	76	25499
2026-01-29 21:03:49.57	144.98	46.29	-52.7	-57.3	3.7	0.00e+00	0	51	104	0	76	25374
2026-01-29 21:03:50.57	145.67	45.94	-52.4	-57.2	3.7	0.00e+00	0	51	104	0	76	24944
2026-01-29 21:03:51.57	146.33	45.59	-52.7	-57.3	3.7	0.00e+00	0	51	104	0	76	25300
2026-01-29 21:03:52.57	146.99	45.24	-52.8	-57.4	3.7	0.00e+00	0	51	104	0	76	25621
2026-01-29 21:03:53.58	147.63	44.88	-52.9	-57.4	3.7	0.00e+00	0	51	104	0	76	25565
2026-01-29 21:03:54.58	148.26	44.53	-52.8	-57.4	3.7	0.00e+00	0	51	104	0	76	25503
2026-01-29 21:03:55.58	148.87	44.18	-52.8	-57.4	3.7	0.00e+00	0	51	104	0	76	25425
2026-01-29 21:03:56.58	149.46	43.83	-52.8	-57.4	3.7	0.00e+00	0	51	104	0	76	25467
2026-01-29 21:03:57.58	150.04	43.47	-52.8	-57.3	3.7	0.00e+00	0	51	104	0	76	25351
2026-01-29 21:03:58.58	150.61	43.12	-52.7	-57.2	3.7	0.00e+00	0	51	104	0	76	24982
2026-01-29 21:03:59.58	151.17	42.77	-52.5	-57.0	3.7	0.00e+00	0	51	104	0	76	24473
2026-01-29 21:04:00.58	151.72	42.42	-52.6	-57.2	3.7	0.00e+00	0	51	104	0	76	24903
2026-01-29 21:04:01.58	152.25	42.08	-52.7	-57.3	3.7	0.00e+00	0	51	104	0	76	25228
2026-01-29 21:04:02.58	152.77	41.73	-52.8	-57.4	3.7	0.00e+00	0	51	104	0	76	25433
2026-01-29 21:04:03.58	153.28	41.38	-52.6	-57.1	3.7	0.00e+00	0	51	104	0	76	24736
2026-01-29 21:04:04.58	153.78	41.04	-52.7	-57.2	3.7	0.00e+00	0	51	104	0	76	25036
2026-01-29 21:04:05.58	154.26	40.69	-52.9	-57.3	3.7	0.00e+00	0	51	104	0	76	25318
2026-01-29 21:04:06.58	154.74	40.35	-52.8	-57.3	3.7	0.00e+00	0	51	104	0	76	25096
2026-01-29 21:04:07.59	155.21	40.01	-52.8	-57.3	3.7	0.00e+00	0	51	104	0	76	25303
2026-01-29 21:04:08.59	155.67	39.67	-52.7	-57.2	3.7	0.00e+00	0	51	104	0	76	24909
2026-01-29 21:04:09.59	156.11	39.34	-52.4	-57.0	3.7	0.00e+00	0	51	104	0	76	24426
2026-01-29 21:04:10.60	156.56	39.00	-52.2	-56.9	3.7	0.00e+00	0	51	104	0	76	24092
2026-01-29 21:04:11.60	156.98	38.67	-52.3	-57.0	3.7	0.00e+00	0	51	104	0	76	24470
2026-01-29 21:04:12.59	157.40	38.34	-52.4	-57.2	3.7	0.00e+00	0	51	104	0	76	24809
2026-01-29 21:04:13.60	157.81	38.01	-52.4	-57.1	3.7	0.00e+00	0	51	104	0	76	24728
2026-01-29 21:04:14.60	158.22	37.68	-52.5	-57.1	3.7	0.00e+00	0	51	104	0	76	24781
2026-01-29 21:04:15.60	158.61	37.36	-52.5	-57.0	3.7	0.00e+00	0	51	104	0	76	24520
2026-01-29 21:04:16.61	159.00	37.03	-52.3	-56.9	3.7	0.00e+00	0	51	104	0	76	24071
2026-01-29 21:04:17.61	159.38	36.71	-52.3	-56.9	3.7	0.00e+00	0	51	104	0	76	24118
2026-01-29 21:04:18.61	159.75	36.40	-52.2	-56.9	3.7	0.00e+00	0	51	104	0	76	24180
2026-01-29 21:04:19.61	160.11	36.08	-52.0	-56.9	3.7	0.00e+00	0	51	104	0	75	25442
2026-01-29 21:04:20.61	160.46	35.77	-52.7	-57.3	3.7	0.00e+00	0	51	104	0	76	25225
2026-01-29 21:04:21.61	160.81	35.46	-52.8	-57.3	3.7	0.00e+00	0	51	104	0	76	25212
2026-01-29 21:04:22.61	161.15	35.15	-52.6	-57.2	3.7	0.00e+00	0	51	104	0	76	25050
2026-01-29 21:04:23.61	161.49	34.85	-52.3	-57.0	3.7	0.00e+00	0	51	104	0	76	24374
2026-01-29 21:04:24.61	161.82	34.54	-51.5	-56.6	3.6	0.00e+00	0	51	104	0	75	24573
2026-01-29 21:04:25.62	162.14	34.24	-51.4	-56.5	3.7	0.00e+00	0	51	104	0	74	25843
2026-01-29 21:04:26.62	162.46	33.94	-51.9	-56.8	3.7	0.00e+00	0	51	104	0	74	26747
2026-01-29 21:04:27.62	162.77	33.65	-52.1	-56.9	3.7	0.00e+00	0	51	104	0	74	27029
2026-01-29 21:04:28.62	163.07	33.35	-52.5	-57.2	3.7	0.00e+00	0	51	104	0	75	26339
2026-01-29 21:04:29.62	163.37	33.06	-52.5	-57.1	3.7	0.00e+00	0	51	104	0	75	26251
2026-01-29 21:04:30.62	163.66	32.78	-52.5	-57.1	3.7	0.00e+00	0	51	104	0	75	26272
2026-01-29 21:04:31.62	163.95	32.49	-52.6	-57.2	3.7	0.00e+00	0	51	104	0	75	26569
2026-01-29 21:04:32.62	164.23	32.21	-52.5	-57.2	3.7	0.00e+00	0	51	104	0	75	26440
2026-01-29 21:04:33.62	164.51	31.93	-52.4	-57.1	3.7	0.00e+00	0	51	104	0	75	26261
2026-01-29 21:04:34.63	164.78	31.65	-52.1	-56.9	3.7	0.00e+00	0	51	104	0	75	25614
2026-01-29 21:04:35.63	165.05	31.37	-52.1	-56.9	3.7	0.00e+00	0	51	104	0	75	25581
2026-01-29 21:04:36.63	165.31	31.10	-52.2	-56.9	3.7	0.00e+00	0	51	104	0	75	25550
2026-01-29 21:04:37.63	165.57	30.83	-52.3	-57.0	3.7	0.00e+00	0	51	104	0	75	25728
2026-01-29 21:04:38.63	165.82	30.56	-52.2	-56.9	3.7	0.00e+00	0	51	104	0	75	25454
2026-01-29 21:04:39.64	166.07	30.29	-52.1	-56.8	3.7	0.00e+00	0	51	104	0	75	25118
2026-01-29 21:04:40.64	166.31	30.02	-52.1	-56.8	3.7	0.00e+00	0	51	104	0	75	25190
2026-01-29 21:04:41.64	166.55	29.76	-52.1	-56.8	3.7	0.00e+00	0	51	104	0	75	25307
2026-01-29 21:04:42.64	166.79	29.50	-52.3	-56.9	3.7	0.00e+00	0	51	104	0	75	25634
2026-01-29 21:04:43.64	167.02	29.25	-52.2	-56.9	3.7	0.00e+00	0	51	104	0	75	25480
2026-01-29 21:04:44.64	167.25	28.99	-52.2	-57.0	3.7	0.00e+00	0	51	104	0	75	25686
2026-01-29 21:04:45.64	167.47	28.74	-52.1	-56.9	3.7	0.00e+00	0	51	104	0	75	25544
2026-01-29 21:04:46.64	167.69	28.49	-52.4	-57.1	3.7	0.00e+00	0	51	104	0	75	26261
2026-01-29 21:04:47.64	167.91	28.24	-52.5	-57.1	3.7	0.00e+00	0	51	104	0	75	26099
2026-01-29 21:04:48.64	168.12	28.00	-52.6	-57.0	3.7	0.00e+00	0	51	104	0	75	25946
2026-01-29 21:04:49.65	168.34	27.75	-52.6	-57.1	3.7	0.00e+00	0	51	104	0	75	26073
2026-01-29 21:04:50.65	168.54	27.51	-52.6	-57.1	3.7	0.00e+00	0	51	104	0	75	26062
2026-01-29 21:04:51.65	168.75	27.27	-52.7	-57.1	3.7	0.00e+00	0	51	104	0	75	26248
2026-01-29 21:04:52.65	168.95	27.04	-52.3	-57.0	3.7	0.00e+00	0	51	104	0	76	24421
2026-01-29 21:04:53.65	169.14	26.80	-52.4	-57.0	3.7	0.00e+00	0	51	104	0	76	24412
2026-01-29 21:04:54.66	169.34	26.57	-52.3	-57.0	3.7	0.00e+00	0	51	104	0	76	24305
2026-01-29 21:04:55.66	169.53	26.34	-52.2	-56.9	3.7	0.00e+00	0	51	104	0	76	24080
2026-01-29 21:04:56.66	169.72	26.11	-52.2	-56.8	3.7	0.00e+00	0	51	104	0	76	23811
2026-01-29 21:04:57.66	169.90	25.88	-52.1	-56.8	3.7	0.00e+00	0	51	104	0	76	23832
2026-01-29 21:04:58.67	170.08	25.66	-51.8	-56.6	3.7	0.00e+00	0	51	104	0	75	24775
2026-01-29 21:04:59.66	170.26	25.44	-52.0	-56.8	3.7	0.00e+00	0	51	104	0	75	25192
2026-01-29 21:05:00.67	170.44	25.22	-52.0	-56.8	3.6	0.00e+00	0	51	104	0	75	25303
2026-01-29 21:05:01.67	170.61	25.00	-52.0	-56.8	3.7	0.00e+00	0	51	104	0	75	25096
2026-01-29 21:05:02.67	170.78	24.78	-52.3	-56.9	3.7	0.00e+00	0	51	104	0	75	25674
2026-01-29 21:05:03.67	170.95	24.57	-52.0	-56.7	3.7	0.00e+00	0	51	104	0	75	25080
2026-01-29 21:05:04.68	171.12	24.35	-52.3	-56.9	3.7	0.00e+00	0	51	104	0	75	25565
2026-01-29 21:05:05.68	171.28	24.14	-52.1	-56.8	3.7	0.00e+00	0	51	104	0	75	25350
2026-01-29 21:05:06.68	171.45	23.94	-51.7	-56.5	3.7	0.00e+00	0	51	104	0	75	24339
2026-01-29 21:05:07.68	171.60	23.73	-51.9	-56.7	3.7	0.00e+00	0	51	104	0	75	24894
2026-01-29 21:05:08.68	171.76	23.52	-52.0	-56.6	3.7	0.00e+00	0	51	104	0	75	24804
2026-01-29 21:05:09.68	171.92	23.32	-51.8	-56.6	3.7	0.00e+00	0	51	104	0	75	24621
2026-01-29 21:05:10.68	172.07	23.12	-51.6	-56.4	3.7	0.00e+00	0	51	104	0	75	24059
2026-01-29 21:05:11.68	172.22	22.92	-51.8	-56.5	3.7	0.00e+00	0	51	104	0	74	25848
2026-01-29 21:05:12.68	172.37	22.72	-51.1	-56.0	3.7	0.00e+00	0	51	104	0	74	24361
2026-01-29 21:05:13.68	172.51	22.53	-51.4	-56.1	3.7	0.00e+00	0	51	104	0	74	24758
2026-01-29 21:05:14.68	172.66	22.33	-51.3	-56.1	3.7	0.00e+00	0	51	104	0	74	24605
2026-01-29 21:05:15.68	172.80	22.14	-51.4	-56.2	3.7	0.00e+00	0	51	104	0	74	24897
2026-01-29 21:05:16.69	172.94	21.95	-51.7	-56.4	3.7	0.00e+00	0	51	104	0	74	25641
2026-01-29 21:05:17.69	173.08	21.76	-51.5	-56.2	3.7	0.00e+00	0	51	104	0	74	24972
2026-01-29 21:05:18.69	173.21	21.57	-51.8	-56.4	3.7	0.00e+00	0	51	104	0	74	25577
2026-01-29 21:05:19.69	173.35	21.38	-51.9	-56.6	3.7	0.00e+00	0	51	104	0	74	26222
2026-01-29 21:05:20.69	173.48	21.20	-51.9	-56.6	3.7	0.00e+00	0	51	104	0	74	26054
2026-01-29 21:05:21.70	173.61	21.01	-52.0	-56.7	3.7	0.00e+00	0	51	104	0	74	26323
2026-01-29 21:05:22.70	173.74	20.83	-52.0	-56.8	3.7	0.00e+00	0	51	104	0	74	26635
2026-01-29 21:05:23.70	173.87	20.65	-51.9	-56.5	3.7	0.00e+00	0	51	104	0	74	25919
2026-01-29 21:05:24.70	174.00	20.47	-51.9	-56.6	3.7	0.00e+00	0	51	104	0	74	26110
2026-01-29 21:05:25.70	174.12	20.30	-52.0	-56.6	3.7	0.00e+00	0	51	104	0	74	26183
2026-01-29 21:05:26.70	174.25	20.12	-51.9	-56.5	3.7	0.00e+00	0	51	104	0	74	25858
2026-01-29 21:05:27.70	174.37	19.95	-51.9	-56.5	3.7	0.00e+00	0	51	104	0	74	25767
2026-01-29 21:05:28.70	174.49	19.78	-51.7	-56.3	3.7	0.00e+00	0	51	104	0	74	25183
2026-01-29 21:05:29.70	174.60	19.60	-51.8	-56.3	3.7	0.00e+00	0	51	104	0	74	25164
2026-01-29 21:05:30.70	174.72	19.43	-51.6	-56.2	3.7	0.00e+00	0	51	104	0	74	25041
2026-01-29 21:05:31.70	174.84	19.27	-51.7	-56.5	3.7	0.00e+00	0	51	104	0	74	25769
2026-01-29 21:05:32.70	174.95	19.10	-51.8	-56.6	3.7	0.00e+00	0	51	104	0	74	25999
2026-01-29 21:05:33.70	175.06	18.93	-51.5	-56.4	3.7	0.00e+00	0	51	104	0	74	25497
2026-01-29 21:05:34.70	175.18	18.77	-51.6	-56.4	3.7	0.00e+00	0	51	104	0	74	25458
2026-01-29 21:05:35.70	175.28	18.61	-51.7	-56.5	3.7	0.00e+00	0	51	104	0	74	25837
2026-01-29 21:05:36.70	175.39	18.44	-51.5	-56.2	3.7	0.00e+00	0	51	104	0	74	24999
2026-01-29 21:05:37.70	175.50	18.28	-51.6	-56.4	3.7	0.00e+00	0	51	104	0	74	25523
2026-01-29 21:05:38.70	175.61	18.12	-51.4	-56.2	3.7	0.00e+00	0	51	104	0	74	25013
2026-01-29 21:05:39.70	175.71	17.97	-51.2	-56.1	3.7	0.00e+00	0	51	104	0	74	24671
2026-01-29 21:05:40.71	175.82	17.81	-51.0	-56.1	3.7	0.00e+00	0	51	104	0	74	24592
2026-01-29 21:05:41.71	175.92	17.65	-51.1	-56.0	3.7	0.00e+00	0	51	104	0	73	25906
2026-01-29 21:05:42.71	176.02	17.50	-50.9	-55.9	3.7	0.00e+00	0	51	104	0	73	25610
2026-01-29 21:05:43.71	176.12	17.34	-51.0	-56.1	3.7	0.00e+00	0	51	104	0	73	26048
2026-01-29 21:05:44.71	176.22	17.19	-50.8	-55.9	3.7	0.00e+00	0	51	104	0	73	25404
2026-01-29 21:05:45.71	176.32	17.04	-50.6	-55.8	3.7	0.00e+00	0	51	104	0	73	25295
2026-01-29 21:05:46.71	176.41	16.89	-50.5	-55.6	3.7	0.00e+00	0	51	104	0	72	26065
2026-01-29 21:05:47.71	176.51	16.74	-50.6	-55.7	3.7	0.00e+00	0	51	104	0	72	26394
2026-01-29 21:05:48.71	176.60	16.59	-50.7	-55.6	3.7	0.00e+00	0	51	104	0	72	26226
2026-01-29 21:05:49.71	176.70	16.45	-50.8	-55.7	3.7	0.00e+00	0	51	104	0	72	26429
2026-01-29 21:05:50.71	176.79	16.30	-50.7	-55.6	3.7	0.00e+00	0	51	104	0	72	26271
2026-01-29 21:05:51.71	176.88	16.16	-50.4	-55.4	3.7	0.00e+00	0	51	104	0	72	25596
2026-01-29 21:05:52.72	176.97	16.01	-50.2	-55.3	3.7	0.00e+00	0	51	104	0	72	25242
2026-01-29 21:05:53.72	177.06	15.87	-50.5	-55.5	3.7	0.00e+00	0	51	104	0	72	25974
2026-01-29 21:05:54.72	177.15	15.73	-50.2	-55.2	3.7	0.00e+00	0	51	104	0	72	24875
2026-01-29 21:05:55.73	177.24	15.59	-50.4	-55.6	3.7	0.00e+00	0	51	104	0	71	27679
2026-01-29 21:05:56.73	177.33	15.45	-50.2	-55.2	3.7	0.00e+00	0	51	104	0	72	24998
2026-01-29 21:05:57.73	177.41	15.31	-50.1	-55.1	3.7	0.00e+00	0	51	104	0	72	24718
2026-01-29 21:05:58.73	177.50	15.17	-50.1	-55.1	3.7	0.00e+00	0	51	104	0	71	26255
2026-01-29 21:05:59.73	177.58	15.04	-50.3	-55.3	3.7	0.00e+00	0	51	104	0	71	26882
2026-01-29 21:06:00.74	177.67	14.90	-50.4	-55.4	3.7	0.00e+00	0	51	104	0	71	27190
2026-01-29 21:06:01.74	177.75	14.77	-50.6	-55.6	3.7	0.00e+00	0	51	104	0	71	27662
2026-01-29 21:06:02.74	177.83	14.63	-50.6	-55.6	3.7	0.00e+00	0	51	104	0	72	26176
2026-01-29 21:06:03.74	177.91	14.50	-50.8	-55.8	3.7	0.00e+00	0	51	104	0	72	26659
2026-01-29 21:06:04.75	177.99	14.37	-50.3	-55.3	3.7	0.00e+00	0	51	104	0	72	25133
2026-01-29 21:06:05.75	178.07	14.24	-50.4	-55.5	3.7	0.00e+00	0	51	104	0	72	25728
2026-01-29 21:06:06.75	178.15	14.11	-50.1	-55.2	3.7	0.00e+00	0	51	104	0	72	24832
2026-01-29 21:06:07.75	178.22	13.98	-50.3	-55.4	3.7	0.00e+00	0	51	104	0	72	25511
2026-01-29 21:06:08.75	178.30	13.85	-50.4	-55.5	3.7	0.00e+00	0	51	104	0	72	25856
2026-01-29 21:06:09.76	178.38	13.72	-50.5	-55.6	3.7	0.00e+00	0	51	104	0	72	26054
2026-01-29 21:06:10.75	178.45	13.60	-50.5	-55.6	3.7	0.00e+00	0	51	104	0	72	26080
2026-01-29 21:06:11.76	178.53	13.47	-50.8	-55.8	3.7	0.00e+00	0	51	104	0	72	26697
2026-01-29 21:06:12.76	178.60	13.34	-50.9	-55.8	3.7	0.00e+00	0	51	104	0	72	26800
2026-01-29 21:06:13.76	178.67	13.22	-51.7	-56.4	3.7	0.00e+00	0	51	104	0	74	25398
2026-01-29 21:06:14.76	178.75	13.10	-51.8	-56.5	3.7	0.00e+00	0	51	104	0	74	25942
2026-01-29 21:06:15.76	178.82	12.97	-51.5	-56.3	3.7	0.00e+00	0	51	104	0	74	25123
2026-01-29 21:06:16.76	178.89	12.85	-51.6	-56.4	3.7	0.00e+00	0	51	104	0	74	25461
2026-01-29 21:06:17.76	178.96	12.73	-51.7	-56.5	3.7	0.00e+00	0	51	104	0	74	25743
2026-01-29 21:06:18.76	179.03	12.61	-50.7	-55.6	3.7	0.00e+00	0	51	104	0	73	24593
2026-01-29 21:06:19.77	179.10	12.49	-51.3	-56.2	3.7	0.00e+00	0	51	104	0	73	26283
2026-01-29 21:06:20.77	179.17	12.37	-49.9	-54.9	3.7	0.00e+00	0	51	104	0	71	25483
2026-01-29 21:06:21.77	179.23	12.25	-49.0	-54.0	3.7	0.00e+00	0	51	104	0	70	24285
2026-01-29 21:06:22.77	179.30	12.14	-48.6	-53.7	3.7	0.00e+00	0	51	104	0	69	24870
2026-01-29 21:06:23.77	179.37	12.02	-48.5	-53.6	3.7	0.00e+00	0	51	104	0	69	24574
2026-01-29 21:06:24.77	179.43	11.90	-48.6	-53.8	3.7	0.00e+00	0	51	104	0	68	26584
2026-01-29 21:06:25.78	179.50	11.79	-48.7	-53.9	3.7	0.00e+00	0	51	104	0	68	26969
2026-01-29 21:06:26.78	179.56	11.67	-50.7	-55.5	3.7	0.00e+00	0	51	104	0	71	27381
2026-01-29 21:06:27.78	179.63	11.56	-48.6	-53.7	3.7	0.00e+00	0	51	104	0	69	24925
2026-01-29 21:06:28.78	179.69	11.45	-49.6	-54.6	3.7	0.00e+00	0	51	104	0	69	27808
2026-01-29 21:06:29.78	179.75	11.34	-48.3	-53.4	3.7	0.00e+00	0	51	104	0	68	25580
2026-01-29 21:06:30.78	179.82	11.22	-48.2	-53.4	3.7	0.00e+00	0	51	104	0	68	25451
2026-01-29 21:06:31.78	179.88	11.11	-48.4	-53.5	3.7	0.00e+00	0	51	104	0	68	25938
2026-01-29 21:06:32.78	179.94	11.00	-48.4	-53.6	3.7	0.00e+00	0	51	104	0	68	26160
2026-01-29 21:06:33.78	180.00	10.89	-48.6	-53.8	3.7	0.00e+00	0	51	104	0	68	26757
2026-01-29 21:06:34.78	180.06	10.78	-48.5	-53.7	3.7	0.00e+00	0	51	104	0	68	26473
2026-01-29 21:06:35.78	180.12	10.68	-48.7	-53.7	3.7	0.00e+00	0	51	104	0	68	26504
2026-01-29 21:06:36.78	180.18	10.57	-48.3	-53.5	3.7	0.00e+00	0	51	104	0	68	25734
2026-01-29 21:06:37.78	180.24	10.46	-48.2	-53.5	3.7	0.00e+00	0	51	104	0	68	25749
2026-01-29 21:06:38.78	180.30	10.35	-48.3	-53.3	3.7	0.00e+00	0	51	104	0	68	25359
2026-01-29 21:06:39.79	180.35	10.25	-48.2	-53.4	3.7	0.00e+00	0	51	104	0	68	25637
2026-01-29 21:06:40.79	180.41	10.14	-48.2	-53.4	3.7	0.00e+00	0	51	104	0	68	25445
2026-01-29 21:06:41.79	180.47	10.04	-48.3	-53.5	3.7	0.00e+00	0	51	104	0	68	25779
2026-01-29 21:06:42.80	180.53	9.93	-48.7	-53.7	3.7	0.00e+00	0	51	104	0	68	26520
2026-01-29 21:06:43.80	180.58	9.83	-48.5	-53.7	3.7	0.00e+00	0	51	104	0	68	26361
2026-01-29 21:06:44.80	180.64	9.72	-48.2	-53.3	3.7	0.00e+00	0	51	104	0	68	25235
2026-01-29 21:06:45.80	180.69	9.62	-48.1	-53.3	3.7	0.00e+00	0	51	104	0	68	25182
2026-01-29 21:06:46.80	180.75	9.52	-48.3	-53.5	3.7	0.00e+00	0	51	104	0	68	25764
2026-01-29 21:06:47.80	180.80	9.42	-48.2	-53.4	3.7	0.00e+00	0	51	104	0	68	25402
2026-01-29 21:06:48.80	180.85	9.32	-48.3	-53.3	3.7	0.00e+00	0	51	104	0	68	25346
2026-01-29 21:06:49.80	180.91	9.22	-48.0	-53.1	3.7	0.00e+00	0	51	104	0	68	24783
2026-01-29 21:06:50.80	180.96	9.12	-48.3	-53.4	3.7	0.00e+00	0	51	104	0	68	25402
2026-01-29 21:06:51.80	181.01	9.02	-48.3	-53.3	3.7	0.00e+00	0	51	104	0	68	25224
2026-01-29 21:06:52.79	181.06	8.92	-49.8	-54.9	3.7	0.00e+00	0	51	104	0	71	25536
2026-01-29 21:06:53.79	181.11	8.82	-50.4	-55.2	3.7	0.00e+00	0	51	104	0	72	25053
2026-01-29 21:06:54.79	181.16	8.72	-50.6	-55.6	3.7	0.00e+00	0	51	104	0	73	24581
2026-01-29 21:06:55.78	181.21	8.63	-50.8	-55.8	3.7	0.00e+00	0	51	104	0	72	26619
2026-01-29 21:06:56.78	181.27	8.53	-51.2	-56.0	3.7	0.00e+00	0	51	104	0	73	25770
2026-01-29 21:06:57.77	181.31	8.44	-50.8	-55.9	3.7	0.00e+00	0	51	104	0	73	25506
2026-01-29 21:06:58.77	181.36	8.34	-51.2	-56.1	3.7	0.00e+00	0	51	104	0	74	24627
2026-01-29 21:06:59.76	181.41	8.25	-52.4	-57.0	3.7	0.00e+00	0	51	104	0	75	25762
2026-01-29 21:07:00.76	181.46	8.15	-52.3	-56.9	3.7	0.00e+00	0	51	104	0	75	25632
2026-01-29 21:07:01.76	181.51	8.06	-52.1	-56.8	3.7	0.00e+00	0	51	104	0	75	25379
2026-01-29 21:07:02.76	181.56	7.96	-51.8	-56.6	3.7	0.00e+00	0	51	104	0	75	24667
2026-01-29 21:07:03.75	181.60	7.87	-52.0	-56.7	3.7	0.00e+00	0	51	104	0	75	24965
2026-01-29 21:07:04.75	181.65	7.78	-51.7	-56.5	3.7	0.00e+00	0	51	104	0	75	24392
2026-01-29 21:07:05.75	181.70	7.68	-51.0	-56.1	3.7	0.00e+00	0	51	104	0	74	24547
2026-01-29 21:07:06.75	181.75	7.59	-51.5	-56.2	3.7	0.00e+00	0	51	104	0	73	26452
2026-01-29 21:07:07.74	181.79	7.50	-51.9	-56.6	3.7	0.00e+00	0	51	104	0	74	25998
2026-01-29 21:07:08.74	181.84	7.41	-51.8	-56.6	3.7	0.00e+00	0	51	104	0	74	26233
2026-01-29 21:07:09.74	181.88	7.32	-52.0	-56.6	3.7	0.00e+00	0	51	104	0	74	26239
2026-01-29 21:07:10.74	181.93	7.23	-52.1	-56.8	3.7	0.00e+00	0	51	104	0	74	26764
2026-01-29 21:07:11.73	181.97	7.14	-52.1	-56.8	3.7	0.00e+00	0	51	104	0	74	26878
2026-01-29 21:07:12.73	182.02	7.05	-51.6	-56.6	3.7	0.00e+00	0	51	104	0	74	26142
2026-01-29 21:07:13.73	182.06	6.96	-51.3	-56.8	3.7	0.00e+00	0	51	104	0	73	28433
2026-01-29 21:07:14.72	182.10	6.87	-51.7	-56.8	3.7	0.00e+00	0	51	104	0	74	26838
2026-01-29 21:07:15.72	182.15	6.79	-52.0	-56.7	3.7	0.00e+00	0	51	104	0	74	26558
2026-01-29 21:07:16.72	182.19	6.70	-51.6	-56.8	3.7	0.00e+00	0	51	104	0	74	26602
2026-01-29 21:07:17.71	182.23	6.61	-51.6	-56.6	3.7	0.00e+00	0	51	104	0	74	26272
2026-01-29 21:07:18.71	182.28	6.52	-51.9	-56.7	3.7	0.00e+00	0	51	104	0	74	26457
2026-01-29 21:07:19.71	182.32	6.44	-51.9	-56.7	3.7	0.00e+00	0	51	104	0	74	26578
2026-01-29 21:07:20.70	182.36	6.35	-51.6	-56.5	3.7	0.00e+00	0	51	104	0	75	24295
2026-01-29 21:07:21.70	182.40	6.27	-51.8	-56.4	3.7	0.00e+00	0	51	104	0	75	23994
2026-01-29 21:07:22.69	182.44	6.18	-51.2	-55.5	3.7	0.00e+00	0	51	104	0	73	24486
2026-01-29 21:07:23.69	182.48	6.10	-51.9	-56.2	3.7	0.00e+00	0	51	104	0	74	24872
2026-01-29 21:07:24.68	182.53	6.01	-51.9	-56.3	3.7	0.00e+00	0	51	104	0	74	25184
2026-01-29 21:07:25.68	182.57	5.93	-51.6	-55.7	3.7	0.00e+00	0	51	104	0	74	23523
2026-01-29 21:07:26.68	182.61	5.84	-51.2	-55.1	3.7	0.00e+00	0	51	104	0	74	21877
2026-01-29 21:07:27.67	182.65	5.76	-51.6	-55.7	3.7	0.00e+00	0	51	104	0	74	23612
2026-01-29 21:07:28.67	182.69	5.68	-51.2	-55.1	3.7	0.00e+00	0	51	104	0	74	22028
2026-01-29 21:07:29.67	182.73	5.59	-51.2	-55.1	3.7	0.00e+00	0	51	104	0	74	21878
2026-01-29 21:07:30.67	182.76	5.51	-51.2	-55.1	3.7	0.00e+00	0	51	104	0	74	21893
2026-01-29 21:07:31.66	182.80	5.43	-51.3	-55.2	3.7	0.00e+00	0	51	104	0	74	22153
2026-01-29 21:07:32.66	182.84	5.35	-51.3	-55.2	3.7	0.00e+00	0	51	104	0	74	22269
2026-01-29 21:07:33.66	182.88	5.26	-51.3	-55.2	3.7	0.00e+00	0	51	104	0	74	22208
2026-01-29 21:07:34.65	182.92	5.18	-51.2	-55.1	3.7	0.00e+00	0	51	104	0	74	22094
2026-01-29 21:07:35.65	182.96	5.10	-51.3	-55.2	3.7	0.00e+00	0	51	104	0	74	22135
2026-01-29 21:07:36.65	182.99	5.02	-51.2	-55.2	3.7	0.00e+00	0	51	104	0	74	22138
2026-01-29 21:07:37.65	183.03	4.94	-51.3	-55.2	3.7	0.00e+00	0	51	104	0	74	22168

#Closed at: 2026-01-29 21:07:38
#Recorded file [0 MB]: D:/Data/31040_260129_235837.dat