passes_logs/2026/01/29/T1/T1__20260129_021437_NOAA_20_JPSS-1_rec.log

#Pass ID: 20260129_021437_NOAA 20 (JPSS-1)
#Satellite: NOAA 20 (JPSS-1)
#Configuration: NOAA 20
#almurnet v.1.7.20251203
#Start time: 2026-01-29 02:14:37

#Version: 2.0.20230620
#Station: T1
#Location: 37.570604 lon 55.790049 lat
#TLE: 1 43013U 17073A   26027.80586608  .00000156  00000+0  94940-4 0  9998
#TLE: 2 43013  98.7647 328.6108 0000947  21.3465 338.7750 14.19541216424550

#Time	Az	El	Level	Level2	SNR	BER	BlckErr	Temp	State	Recorded	gain1	gain2
2026-01-29 02:14:37.10	1.44	4.98	-49.7	-65.2	3.8	1.49e+00	0	41	0	0	70	22137
2026-01-29 02:14:38.09	1.32	5.02	-50.0	-65.2	3.8	1.49e+00	0	41	104	0	72	19832
2026-01-29 02:14:39.08	1.21	5.07	-50.2	-65.4	3.8	1.49e+00	0	41	104	0	71	21261
2026-01-29 02:14:40.08	1.10	5.12	-50.1	-65.3	3.8	1.49e+00	0	41	104	0	71	21137
2026-01-29 02:14:41.08	0.98	5.16	-50.1	-65.3	3.8	1.49e+00	0	41	104	0	71	21228
2026-01-29 02:14:42.07	0.87	5.21	-50.1	-65.3	3.8	1.49e+00	0	41	104	0	71	21112
2026-01-29 02:14:43.07	0.75	5.25	-50.0	-65.3	3.8	1.49e+00	0	42	104	0	71	21119
2026-01-29 02:14:44.06	0.63	5.30	-50.0	-65.3	3.8	1.49e+00	0	41	104	0	71	21065
2026-01-29 02:14:45.06	0.52	5.35	-50.0	-65.3	3.8	1.49e+00	0	41	104	0	71	21021
2026-01-29 02:14:46.05	0.40	5.39	-49.9	-65.3	3.8	1.49e+00	0	41	104	0	71	21030
2026-01-29 02:14:47.05	0.28	5.44	-49.7	-65.2	3.8	1.49e+00	0	42	104	0	71	20921
2026-01-29 02:14:48.04	0.17	5.48	-49.8	-65.2	3.8	1.49e+00	0	42	104	0	71	20996
2026-01-29 02:14:49.04	0.05	5.53	-49.8	-65.2	3.8	1.49e+00	0	42	104	0	71	20882
2026-01-29 02:14:50.03	359.93	5.57	-49.4	-65.2	3.8	1.49e+00	0	42	104	0	69	23424
2026-01-29 02:14:51.03	359.81	5.62	-49.2	-65.2	3.8	1.49e+00	0	42	104	0	70	22079
2026-01-29 02:14:52.02	359.69	5.66	-49.4	-65.2	3.8	1.49e+00	0	42	104	0	70	22048
2026-01-29 02:14:53.02	359.57	5.71	-49.3	-65.1	3.8	1.49e+00	0	42	104	0	69	23164
2026-01-29 02:14:54.01	359.45	5.76	-48.8	-65.1	3.8	1.49e+00	0	42	104	0	69	23101
2026-01-29 02:14:55.01	359.33	5.80	-49.6	-65.0	3.8	1.49e+00	0	42	104	0	69	23024
2026-01-29 02:14:56.01	359.21	5.85	-49.6	-65.0	3.8	1.49e+00	0	42	104	0	69	22971
2026-01-29 02:14:57.00	359.09	5.89	-49.2	-65.0	3.8	1.49e+00	0	42	104	0	69	22882
2026-01-29 02:14:58.00	358.97	5.94	-49.4	-64.9	3.8	1.49e+00	0	42	104	0	69	22749
2026-01-29 02:14:58.99	358.84	5.98	-48.8	-64.9	3.7	1.49e+00	0	42	104	0	69	22705
2026-01-29 02:14:59.99	358.72	6.03	-48.8	-64.8	3.8	1.49e+00	0	42	104	0	68	23834
2026-01-29 02:15:00.98	358.60	6.07	-48.1	-64.8	3.8	1.49e+00	0	42	104	0	68	23602
2026-01-29 02:15:01.98	358.48	6.12	-46.0	-64.6	3.8	1.49e+00	0	42	104	0	63	30801
2026-01-29 02:15:02.97	358.35	6.16	-46.7	-64.4	3.8	1.49e+00	0	42	104	0	64	28589
2026-01-29 02:15:03.97	358.23	6.21	-46.7	-64.4	3.8	1.49e+00	0	42	104	0	64	28523
2026-01-29 02:15:04.96	358.11	6.25	-46.7	-64.4	3.8	1.49e+00	0	42	104	0	64	28483
2026-01-29 02:15:05.96	357.98	6.30	-46.7	-64.4	3.8	1.49e+00	0	42	104	0	64	28475
2026-01-29 02:15:06.96	357.85	6.34	-46.7	-64.3	3.8	1.49e+00	0	42	104	0	64	28288
2026-01-29 02:15:07.95	357.73	6.39	-46.7	-64.4	3.8	1.49e+00	0	42	104	0	64	28518
2026-01-29 02:15:08.95	357.60	6.43	-46.7	-64.4	3.8	1.49e+00	0	42	104	0	64	28477
2026-01-29 02:15:09.94	357.48	6.48	-46.7	-64.3	3.8	1.49e+00	0	42	104	0	64	28333
2026-01-29 02:15:10.94	357.35	6.52	-46.7	-64.4	3.8	1.49e+00	0	42	104	0	64	28447
2026-01-29 02:15:11.93	357.22	6.57	-46.7	-64.4	3.8	1.49e+00	0	43	104	0	64	28461
2026-01-29 02:15:12.93	357.10	6.61	-46.7	-64.4	3.8	1.49e+00	0	42	104	0	64	28395
2026-01-29 02:15:13.92	356.97	6.66	-46.7	-64.4	3.8	1.49e+00	0	42	104	0	64	28419
2026-01-29 02:15:14.92	356.84	6.70	-46.8	-64.4	3.8	1.49e+00	0	42	104	0	64	28471
2026-01-29 02:15:15.92	356.71	6.75	-46.8	-64.4	3.8	1.49e+00	0	43	104	0	64	28372
2026-01-29 02:15:16.91	356.58	6.79	-46.7	-64.3	3.8	1.49e+00	0	43	104	0	64	28349
2026-01-29 02:15:17.91	356.45	6.83	-46.7	-64.4	3.8	1.49e+00	0	42	104	0	64	28359
2026-01-29 02:15:18.91	356.32	6.88	-46.7	-64.3	3.8	1.49e+00	0	42	104	0	64	28189
2026-01-29 02:15:19.90	356.19	6.92	-46.7	-64.3	3.8	1.49e+00	0	43	104	0	64	28200
2026-01-29 02:15:20.90	356.06	6.97	-46.7	-64.3	3.8	1.49e+00	0	43	104	0	64	28283
2026-01-29 02:15:21.89	355.93	7.01	-46.7	-64.3	3.8	1.49e+00	0	43	104	0	64	28305
2026-01-29 02:15:22.89	355.80	7.05	-46.7	-64.3	3.8	1.49e+00	0	43	104	0	64	28215
2026-01-29 02:15:23.88	355.67	7.10	-46.7	-64.3	3.8	1.49e+00	0	43	104	0	64	28328
2026-01-29 02:15:24.88	355.53	7.14	-46.7	-64.4	3.8	1.49e+00	0	43	104	0	64	28388
2026-01-29 02:15:25.88	355.40	7.19	-46.7	-64.4	3.8	1.49e+00	0	43	104	0	64	28518
2026-01-29 02:15:26.87	355.27	7.23	-46.7	-64.4	3.8	1.49e+00	0	43	104	0	64	28469
2026-01-29 02:15:27.87	355.13	7.27	-46.7	-64.4	3.8	1.49e+00	0	43	104	0	64	28415
2026-01-29 02:15:28.87	355.00	7.32	-46.7	-64.4	3.8	1.49e+00	0	43	104	0	64	28356
2026-01-29 02:15:29.86	354.87	7.36	-46.7	-64.4	3.8	1.49e+00	0	43	104	0	64	28367
2026-01-29 02:15:30.86	354.73	7.40	-46.7	-64.3	3.8	1.49e+00	0	43	104	0	64	28340
2026-01-29 02:15:31.85	354.60	7.45	-46.7	-64.3	3.8	1.49e+00	0	43	104	0	64	28321
2026-01-29 02:15:32.85	354.46	7.49	-46.7	-64.4	3.8	1.49e+00	0	43	104	0	64	28414
2026-01-29 02:15:33.85	354.32	7.53	-46.7	-64.3	3.8	1.49e+00	0	43	104	0	64	28246
2026-01-29 02:15:34.84	354.19	7.58	-46.7	-64.4	3.8	1.49e+00	0	43	104	0	64	28461
2026-01-29 02:15:35.84	354.05	7.62	-46.7	-64.4	3.8	1.49e+00	0	43	104	0	64	28368
2026-01-29 02:15:36.83	353.91	7.66	-46.7	-64.4	3.8	1.49e+00	0	43	104	0	64	28410
2026-01-29 02:15:37.83	353.77	7.71	-46.7	-64.4	3.8	1.49e+00	0	43	104	0	64	28473
2026-01-29 02:15:38.83	353.64	7.75	-46.7	-64.4	3.8	1.49e+00	0	43	104	0	64	28352
2026-01-29 02:15:39.82	353.50	7.79	-46.7	-64.3	3.8	1.49e+00	0	43	104	0	64	28212
2026-01-29 02:15:40.82	353.36	7.83	-46.7	-64.3	3.8	1.49e+00	0	43	104	0	64	28192
2026-01-29 02:15:41.81	353.22	7.88	-46.7	-64.3	3.8	1.49e+00	0	43	104	0	64	28140
2026-01-29 02:15:42.81	353.08	7.92	-46.7	-64.3	3.8	1.49e+00	0	43	104	0	64	28073
2026-01-29 02:15:43.81	352.94	7.96	-46.7	-64.3	3.8	1.49e+00	0	43	104	0	64	28221
2026-01-29 02:15:44.80	352.80	8.00	-46.7	-64.4	3.8	1.49e+00	0	43	104	0	64	28368
2026-01-29 02:15:45.80	352.66	8.05	-46.7	-64.4	3.8	1.49e+00	0	43	104	0	64	28449
2026-01-29 02:15:46.80	352.52	8.09	-46.7	-64.3	3.8	1.49e+00	0	43	104	0	64	28339
2026-01-29 02:15:47.80	352.37	8.13	-46.7	-64.4	3.8	1.49e+00	0	43	104	0	64	28484
2026-01-29 02:15:48.79	352.23	8.17	-46.7	-64.4	3.8	1.49e+00	0	43	104	0	64	28495
2026-01-29 02:15:49.79	352.09	8.21	-46.7	-64.4	3.8	1.49e+00	0	43	104	0	64	28352
2026-01-29 02:15:50.79	351.94	8.26	-46.6	-64.3	3.8	1.49e+00	0	43	104	0	64	28251
2026-01-29 02:15:51.78	351.80	8.30	-46.6	-64.2	3.8	1.49e+00	0	43	104	0	64	28002
2026-01-29 02:15:52.78	351.66	8.34	-46.6	-64.2	3.8	1.49e+00	0	43	104	0	64	27958
2026-01-29 02:15:53.77	351.51	8.38	-46.6	-64.2	3.8	1.49e+00	0	43	104	0	64	27909
2026-01-29 02:15:54.77	351.37	8.42	-46.6	-64.1	3.8	1.49e+00	0	43	104	0	64	27685
2026-01-29 02:15:55.77	351.22	8.46	-46.5	-63.8	3.8	1.49e+00	0	43	104	0	64	26735
2026-01-29 02:15:56.77	351.08	8.50	-46.5	-63.4	3.8	1.49e+00	0	43	104	0	64	25484
2026-01-29 02:15:57.76	350.93	8.54	-46.5	-63.0	3.8	1.49e+00	0	43	104	0	64	24225
2026-01-29 02:15:58.76	350.78	8.58	-46.5	-62.6	3.8	1.49e+00	0	43	104	0	64	23069
2026-01-29 02:15:59.75	350.64	8.62	-46.5	-62.2	3.8	1.49e+00	0	43	104	0	64	22153
2026-01-29 02:16:00.75	350.49	8.67	-46.5	-61.8	4.0	1.48e+00	0	43	104	0	64	21144
2026-01-29 02:16:01.75	350.34	8.71	-46.5	-61.5	3.9	1.48e+00	0	43	104	0	64	20400
2026-01-29 02:16:02.75	350.19	8.75	-46.5	-61.0	4.1	1.43e+00	0	43	0	0	64	19356
2026-01-29 02:16:03.74	350.04	8.79	-46.5	-60.6	4.2	1.37e+00	0	43	0	0	64	18453
2026-01-29 02:16:04.74	349.89	8.83	-46.5	-60.2	4.4	1.34e+00	0	43	0	0	64	17503
2026-01-29 02:16:05.74	349.74	8.87	-46.5	-59.2	4.8	9.95e-01	0	43	0	2097152	64	15634
2026-01-29 02:16:06.73	349.59	8.91	-46.3	-57.9	5.6	5.38e-01	0	43	0	4194304	64	13415
2026-01-29 02:16:07.73	349.44	8.95	-46.2	-56.2	6.9	2.64e-01	0	43	0	5242880	64	11070
2026-01-29 02:16:08.73	349.29	8.99	-45.9	-54.3	8.8	7.51e-02	0	44	0	7340032	63	9437
2026-01-29 02:16:09.73	349.14	9.03	-45.4	-52.2	10.9	1.13e-02	0	43	0	9437184	62	7881
2026-01-29 02:16:10.72	348.99	9.06	-45.1	-51.5	11.8	5.58e-04	0	43	0	11534336	62	7219
2026-01-29 02:16:11.73	348.84	9.10	-45.3	-55.4	7.7	3.25e-03	0	43	0	13631488	61	12055
2026-01-29 02:16:12.73	348.68	9.14	-44.5	-50.3	12.9	1.03e-01	0	44	0	14680064	61	6660
2026-01-29 02:16:13.73	348.53	9.18	-43.6	-56.1	7.2	1.74e-02	0	43	0	16777216	59	14660
2026-01-29 02:16:14.73	348.38	9.22	-43.2	-47.0	16.1	5.81e-02	0	43	0	18874368	58	5440
2026-01-29 02:16:15.73	348.22	9.26	-43.1	-47.1	16.1	0.00e+00	0	43	0	20971520	58	5476
2026-01-29 02:16:16.73	348.07	9.30	-42.9	-46.8	16.3	0.00e+00	0	44	0	23068672	57	5638
2026-01-29 02:16:17.74	347.91	9.34	-42.9	-46.9	16.3	0.00e+00	0	44	0	24117248	57	5697
2026-01-29 02:16:18.74	347.75	9.38	-42.6	-46.6	16.6	0.00e+00	0	43	0	26214400	57	5483
2026-01-29 02:16:19.74	347.60	9.41	-42.5	-46.6	16.6	0.00e+00	0	44	0	28311552	57	5466
2026-01-29 02:16:20.74	347.44	9.45	-42.4	-46.6	16.6	0.00e+00	0	43	0	30408704	56	5848
2026-01-29 02:16:21.74	347.28	9.49	-42.3	-46.7	16.6	0.00e+00	0	43	0	31457280	56	5864
2026-01-29 02:16:22.74	347.13	9.53	-42.2	-46.7	16.5	0.00e+00	0	44	0	33554432	56	5864
2026-01-29 02:16:23.74	346.97	9.57	-42.2	-46.7	16.5	0.00e+00	0	44	0	35651584	56	5880
2026-01-29 02:16:24.75	346.81	9.60	-42.3	-46.7	16.6	0.00e+00	0	43	0	37748736	56	5878
2026-01-29 02:16:25.74	346.65	9.64	-42.1	-46.3	16.9	0.00e+00	0	43	0	39845888	56	5610
2026-01-29 02:16:26.75	346.49	9.68	-42.1	-46.2	16.9	0.00e+00	0	43	0	40894464	56	5574
2026-01-29 02:16:27.75	346.33	9.72	-42.2	-46.3	16.9	0.00e+00	0	44	0	42991616	56	5616
2026-01-29 02:16:28.75	346.17	9.75	-42.1	-46.1	17.0	0.00e+00	0	43	0	45088768	56	5528
2026-01-29 02:16:29.75	346.01	9.79	-42.1	-46.1	17.1	0.00e+00	0	44	0	47185920	56	5519
2026-01-29 02:16:30.75	345.85	9.83	-42.1	-46.2	17.0	0.00e+00	0	44	0	49283072	56	5534
2026-01-29 02:16:31.75	345.69	9.86	-42.2	-46.3	16.9	0.00e+00	0	43	0	50331648	56	5594
2026-01-29 02:16:32.75	345.53	9.90	-42.2	-46.2	17.0	0.00e+00	0	43	0	52428800	56	5544
2026-01-29 02:16:33.75	345.37	9.93	-42.3	-46.0	17.2	0.00e+00	0	44	0	54525952	56	5447
2026-01-29 02:16:34.75	345.21	9.97	-42.3	-45.9	17.4	0.00e+00	0	43	0	56623104	56	5357
2026-01-29 02:16:35.75	345.04	10.01	-42.3	-45.9	17.3	0.00e+00	0	44	0	57671680	56	5360
2026-01-29 02:16:36.75	344.88	10.04	-42.2	-45.9	17.3	0.00e+00	0	44	0	59768832	56	5353
2026-01-29 02:16:37.75	344.72	10.08	-42.0	-45.8	17.5	0.00e+00	0	44	0	61865984	56	5284
2026-01-29 02:16:38.76	344.55	10.11	-42.1	-46.1	17.1	0.00e+00	0	44	0	63963136	56	5486
2026-01-29 02:16:39.76	344.39	10.15	-42.1	-46.2	17.0	0.00e+00	0	44	0	66060288	56	5557
2026-01-29 02:16:40.76	344.22	10.18	-42.1	-46.2	17.0	0.00e+00	0	44	0	68157440	56	5577
2026-01-29 02:16:41.76	344.06	10.22	-42.3	-46.4	16.9	0.00e+00	0	43	0	69206016	56	5666
2026-01-29 02:16:42.76	343.89	10.25	-42.4	-46.3	17.0	0.00e+00	0	44	0	71303168	56	5619
2026-01-29 02:16:43.76	343.73	10.29	-42.6	-46.2	17.0	0.00e+00	0	44	0	73400320	56	5590
2026-01-29 02:16:44.76	343.56	10.32	-42.6	-46.1	17.1	0.00e+00	0	43	0	75497472	56	5498
2026-01-29 02:16:45.76	343.39	10.35	-42.7	-46.2	17.1	0.00e+00	0	44	0	76546048	56	5542
2026-01-29 02:16:46.76	343.23	10.39	-42.8	-46.1	17.1	0.00e+00	0	44	0	78643200	56	5509
2026-01-29 02:16:47.76	343.06	10.42	-42.9	-46.3	17.0	0.00e+00	0	44	0	80740352	56	5609
2026-01-29 02:16:48.77	342.89	10.46	-43.0	-46.5	16.8	0.00e+00	0	43	0	82837504	56	5774
2026-01-29 02:16:49.76	342.72	10.49	-43.0	-46.4	16.8	0.00e+00	0	44	0	84934656	56	5699
2026-01-29 02:16:50.76	342.55	10.52	-43.1	-46.5	16.7	0.00e+00	0	44	0	85983232	56	5740
2026-01-29 02:16:51.77	342.38	10.55	-43.2	-46.6	16.7	0.00e+00	0	44	0	88080384	57	5489
2026-01-29 02:16:52.77	342.21	10.59	-43.3	-46.6	16.7	0.00e+00	0	44	0	90177536	57	5499
2026-01-29 02:16:53.77	342.05	10.62	-43.2	-46.4	16.8	0.00e+00	0	44	0	92274688	57	5373
2026-01-29 02:16:54.77	341.88	10.65	-43.3	-46.4	16.8	0.00e+00	0	44	0	94371840	57	5402
2026-01-29 02:16:55.77	341.70	10.68	-43.2	-46.4	16.9	0.00e+00	0	43	0	95420416	57	5341
2026-01-29 02:16:56.78	341.53	10.72	-43.4	-46.5	16.8	0.00e+00	0	44	0	97517568	57	5450
2026-01-29 02:16:57.78	341.36	10.75	-43.3	-46.4	16.9	0.00e+00	0	44	0	99614720	57	5343
2026-01-29 02:16:58.78	341.19	10.78	-43.3	-46.4	16.9	0.00e+00	0	44	0	101711872	57	5366
2026-01-29 02:16:59.78	341.02	10.81	-43.3	-46.4	16.8	0.00e+00	0	44	0	102760448	57	5364
2026-01-29 02:17:00.78	340.84	10.84	-43.2	-46.2	17.0	0.00e+00	0	44	0	104857600	57	5279
2026-01-29 02:17:01.78	340.67	10.87	-43.1	-46.1	17.1	0.00e+00	0	44	0	106954752	57	5199
2026-01-29 02:17:02.78	340.50	10.90	-43.2	-46.3	17.0	0.00e+00	0	44	0	109051904	57	5292
2026-01-29 02:17:03.78	340.33	10.93	-43.1	-46.0	17.3	0.00e+00	0	44	0	111149056	57	5146
2026-01-29 02:17:04.78	340.15	10.96	-43.1	-46.0	17.3	0.00e+00	0	44	0	112197632	57	5119
2026-01-29 02:17:05.78	339.98	10.99	-43.2	-46.1	17.1	0.00e+00	0	44	0	114294784	57	5188
2026-01-29 02:17:06.78	339.80	11.02	-43.2	-46.1	17.2	0.00e+00	0	43	0	116391936	57	5216
2026-01-29 02:17:07.79	339.63	11.05	-43.3	-46.3	17.0	0.00e+00	0	44	0	118489088	57	5300
2026-01-29 02:17:08.79	339.45	11.08	-43.2	-46.3	17.0	0.00e+00	0	44	0	120586240	57	5294
2026-01-29 02:17:09.79	339.27	11.11	-43.0	-46.3	17.0	0.00e+00	0	44	0	121634816	57	5294
2026-01-29 02:17:10.79	339.10	11.14	-43.0	-46.2	17.1	0.00e+00	0	44	0	123731968	57	5232
2026-01-29 02:17:11.79	338.92	11.17	-43.0	-46.2	17.2	0.00e+00	0	44	0	125829120	57	5220
2026-01-29 02:17:12.79	338.75	11.19	-43.1	-46.1	17.2	0.00e+00	0	44	0	127926272	57	5191
2026-01-29 02:17:13.79	338.57	11.22	-43.1	-46.0	17.3	0.00e+00	0	44	0	130023424	57	5107
2026-01-29 02:17:14.79	338.39	11.25	-43.2	-46.0	17.3	0.00e+00	0	44	0	131072000	57	5158
2026-01-29 02:17:15.79	338.21	11.28	-43.3	-46.1	17.3	0.00e+00	0	43	0	133169152	57	5195
2026-01-29 02:17:16.79	338.04	11.31	-43.3	-46.1	17.2	0.00e+00	0	44	0	135266304	57	5190
2026-01-29 02:17:17.79	337.86	11.33	-43.3	-46.3	17.1	0.00e+00	0	44	0	137363456	57	5283
2026-01-29 02:17:18.80	337.68	11.36	-43.2	-46.2	17.1	0.00e+00	0	44	0	138412032	57	5264
2026-01-29 02:17:19.80	337.50	11.39	-43.1	-46.3	17.1	0.00e+00	0	44	0	140509184	57	5294
2026-01-29 02:17:20.80	337.32	11.41	-43.1	-46.3	17.1	0.00e+00	0	44	0	142606336	57	5301
2026-01-29 02:17:21.80	337.14	11.44	-43.0	-46.2	17.1	0.00e+00	0	44	0	144703488	57	5227
2026-01-29 02:17:22.80	336.96	11.46	-43.1	-46.2	17.1	0.00e+00	0	44	0	146800640	57	5224
2026-01-29 02:17:23.80	336.78	11.49	-43.2	-46.2	17.1	0.00e+00	0	44	0	147849216	57	5264
2026-01-29 02:17:24.81	336.60	11.52	-43.4	-46.5	16.9	0.00e+00	0	44	0	149946368	57	5413
2026-01-29 02:17:25.80	336.42	11.54	-43.3	-46.4	17.0	0.00e+00	0	44	0	152043520	57	5345
2026-01-29 02:17:26.80	336.23	11.57	-43.3	-46.3	17.0	0.00e+00	0	44	0	154140672	57	5338
2026-01-29 02:17:27.80	336.05	11.59	-43.3	-46.3	17.0	0.00e+00	0	44	0	156237824	57	5314
2026-01-29 02:17:28.80	335.87	11.61	-43.3	-46.3	17.1	0.00e+00	0	44	0	157286400	57	5294
2026-01-29 02:17:29.80	335.69	11.64	-43.3	-46.2	17.1	0.00e+00	0	44	0	159383552	57	5271
2026-01-29 02:17:30.81	335.50	11.66	-43.3	-46.2	17.2	0.00e+00	0	44	0	161480704	57	5237
2026-01-29 02:17:31.81	335.32	11.69	-43.4	-46.2	17.1	0.00e+00	0	44	0	163577856	57	5278
2026-01-29 02:17:32.81	335.14	11.71	-43.3	-46.1	17.2	0.00e+00	0	44	0	165675008	57	5177
2026-01-29 02:17:33.81	334.95	11.73	-43.3	-46.2	17.1	0.00e+00	0	44	0	166723584	57	5249
2026-01-29 02:17:34.81	334.77	11.76	-43.3	-46.1	17.2	0.00e+00	0	44	0	168820736	57	5206
2026-01-29 02:17:35.81	334.59	11.78	-43.3	-46.2	17.1	0.00e+00	0	44	0	170917888	57	5228
2026-01-29 02:17:36.82	334.40	11.80	-43.3	-46.1	17.2	0.00e+00	0	44	0	173015040	57	5203
2026-01-29 02:17:37.81	334.22	11.82	-43.3	-46.2	17.2	0.00e+00	0	44	0	175112192	57	5230
2026-01-29 02:17:38.81	334.03	11.84	-43.4	-46.2	17.1	0.00e+00	0	44	0	176160768	57	5245
2026-01-29 02:17:39.82	333.85	11.87	-43.4	-46.1	17.2	0.00e+00	0	44	0	178257920	57	5199
2026-01-29 02:17:40.81	333.66	11.89	-43.5	-46.3	17.0	0.00e+00	0	44	0	180355072	57	5330
2026-01-29 02:17:41.82	333.47	11.91	-43.5	-46.3	17.1	0.00e+00	0	44	0	182452224	57	5290
2026-01-29 02:17:42.82	333.29	11.93	-43.7	-46.5	17.0	0.00e+00	0	44	0	183500800	57	5442
2026-01-29 02:17:43.82	333.10	11.95	-43.8	-46.7	16.6	0.00e+00	0	44	0	185597952	58	5232
2026-01-29 02:17:44.83	332.91	11.97	-43.5	-46.4	17.0	0.00e+00	0	44	0	187695104	58	5053
2026-01-29 02:17:45.83	332.73	11.99	-43.6	-46.5	17.0	0.00e+00	0	44	0	189792256	58	5116
2026-01-29 02:17:46.83	332.54	12.01	-43.6	-46.6	16.8	0.00e+00	0	44	0	191889408	58	5161
2026-01-29 02:17:47.83	332.35	12.03	-43.8	-46.7	16.7	0.00e+00	0	44	0	192937984	58	5268
2026-01-29 02:17:48.83	332.17	12.05	-43.8	-46.7	16.7	0.00e+00	0	44	0	195035136	58	5255
2026-01-29 02:17:49.84	331.98	12.06	-43.9	-46.9	16.5	0.00e+00	0	43	0	197132288	58	5359
2026-01-29 02:17:50.84	331.79	12.08	-43.9	-46.8	16.5	0.00e+00	0	44	0	199229440	58	5318
2026-01-29 02:17:51.84	331.60	12.10	-44.2	-47.2	16.1	0.00e+00	0	44	0	201326592	59	5259
2026-01-29 02:17:52.84	331.41	12.12	-44.2	-47.2	16.2	0.00e+00	0	44	0	202375168	59	5271
2026-01-29 02:17:53.84	331.22	12.14	-44.0	-47.0	16.3	0.00e+00	0	43	0	204472320	59	5141
2026-01-29 02:17:54.84	331.03	12.15	-44.0	-47.0	16.4	0.00e+00	0	44	0	206569472	59	5125
2026-01-29 02:17:55.84	330.84	12.17	-43.9	-47.0	16.4	0.00e+00	0	44	0	208666624	59	5119
2026-01-29 02:17:56.84	330.65	12.19	-43.8	-46.7	16.6	0.00e+00	0	44	0	210763776	59	4980
2026-01-29 02:17:57.84	330.46	12.20	-43.9	-46.9	16.6	0.00e+00	0	44	0	211812352	59	5075
2026-01-29 02:17:58.84	330.27	12.22	-43.9	-46.9	16.6	0.00e+00	0	44	0	213909504	59	5050
2026-01-29 02:17:59.84	330.08	12.24	-43.8	-46.7	16.6	0.00e+00	0	44	0	216006656	59	4970
2026-01-29 02:18:00.84	329.89	12.25	-43.7	-46.7	16.7	0.00e+00	0	44	0	218103808	59	4965
2026-01-29 02:18:01.84	329.70	12.27	-43.6	-46.5	16.8	0.00e+00	0	44	0	219152384	59	4852
2026-01-29 02:18:02.84	329.51	12.28	-43.6	-46.5	16.9	0.00e+00	0	44	0	221249536	59	4838
2026-01-29 02:18:03.84	329.32	12.30	-43.6	-46.5	16.9	0.00e+00	0	44	0	223346688	59	4868
2026-01-29 02:18:04.84	329.13	12.31	-43.7	-46.7	16.7	0.00e+00	0	44	0	225443840	59	4962
2026-01-29 02:18:05.84	328.94	12.32	-43.6	-46.6	16.8	0.00e+00	0	44	0	227540992	59	4875
2026-01-29 02:18:06.84	328.75	12.34	-43.6	-46.5	16.8	0.00e+00	0	44	0	228589568	59	4856
2026-01-29 02:18:07.84	328.56	12.35	-43.7	-46.7	16.7	0.00e+00	0	44	0	230686720	59	4951
2026-01-29 02:18:08.84	328.37	12.36	-43.7	-46.6	16.8	0.00e+00	0	44	0	232783872	59	4903
2026-01-29 02:18:09.84	328.17	12.38	-43.6	-46.5	16.9	0.00e+00	0	44	0	234881024	59	4848
2026-01-29 02:18:10.84	327.98	12.39	-43.6	-46.4	17.0	0.00e+00	0	44	0	236978176	59	4785
2026-01-29 02:18:11.84	327.79	12.40	-43.5	-46.3	17.1	0.00e+00	0	44	0	238026752	58	5001
2026-01-29 02:18:12.84	327.60	12.41	-43.5	-46.3	17.1	0.00e+00	0	44	0	240123904	58	4990
2026-01-29 02:18:13.84	327.40	12.42	-43.3	-46.1	17.3	0.00e+00	0	44	0	242221056	58	4905
2026-01-29 02:18:14.85	327.21	12.43	-43.4	-46.3	17.1	0.00e+00	0	44	0	244318208	58	4984
2026-01-29 02:18:15.85	327.02	12.45	-43.3	-46.2	17.2	0.00e+00	0	44	0	245366784	58	4983
2026-01-29 02:18:16.85	326.82	12.46	-43.3	-46.3	17.0	0.00e+00	0	44	0	247463936	58	5026
2026-01-29 02:18:17.85	326.63	12.47	-43.4	-46.4	17.0	0.00e+00	0	44	0	249561088	58	5087
2026-01-29 02:18:18.85	326.44	12.48	-43.4	-46.4	17.0	0.00e+00	0	44	0	251658240	58	5056
2026-01-29 02:18:19.85	326.24	12.49	-43.4	-46.5	16.9	0.00e+00	0	44	0	253755392	58	5102
2026-01-29 02:18:20.85	326.05	12.49	-43.3	-46.4	17.1	0.00e+00	0	44	0	255852544	58	5047
2026-01-29 02:18:21.86	325.85	12.50	-43.4	-46.4	17.0	0.00e+00	0	44	0	256901120	58	5081
2026-01-29 02:18:22.86	325.66	12.51	-43.4	-46.5	16.9	0.00e+00	0	44	0	258998272	58	5101
2026-01-29 02:18:23.86	325.47	12.52	-43.2	-46.3	17.1	0.00e+00	0	44	0	261095424	58	5010
2026-01-29 02:18:24.87	325.27	12.53	-43.1	-46.2	17.2	0.00e+00	0	44	0	263192576	58	4962
2026-01-29 02:18:25.87	325.08	12.54	-43.0	-46.2	17.2	0.00e+00	0	44	0	264241152	58	4951
2026-01-29 02:18:26.87	324.88	12.54	-43.0	-46.2	17.2	0.00e+00	0	44	0	266338304	58	4929
2026-01-29 02:18:27.87	324.69	12.55	-43.1	-46.3	17.2	0.00e+00	0	44	0	268435456	58	4998
2026-01-29 02:18:28.87	324.49	12.56	-43.1	-46.2	17.2	0.00e+00	0	44	0	270532608	58	4959
2026-01-29 02:18:29.88	324.30	12.56	-43.0	-46.1	17.3	0.00e+00	0	44	0	272629760	58	4901
2026-01-29 02:18:30.88	324.10	12.57	-43.1	-46.2	17.2	0.00e+00	0	44	0	273678336	58	4959
2026-01-29 02:18:31.88	323.91	12.58	-43.2	-46.2	17.2	0.00e+00	0	44	0	275775488	58	4967
2026-01-29 02:18:32.88	323.71	12.58	-43.3	-46.4	17.0	0.00e+00	0	44	0	277872640	58	5065
2026-01-29 02:18:33.89	323.52	12.59	-43.3	-46.3	17.1	0.00e+00	0	44	0	279969792	58	4999
2026-01-29 02:18:34.89	323.32	12.59	-43.1	-45.9	17.5	0.00e+00	0	44	0	282066944	58	4809
2026-01-29 02:18:35.89	323.13	12.59	-43.1	-45.9	17.5	0.00e+00	0	44	0	283115520	58	4761
2026-01-29 02:18:36.90	322.93	12.60	-43.2	-45.9	17.5	0.00e+00	0	44	0	285212672	58	4769
2026-01-29 02:18:37.90	322.73	12.60	-43.2	-45.8	17.7	0.00e+00	0	44	0	287309824	58	4735
2026-01-29 02:18:38.90	322.54	12.61	-43.2	-45.8	17.6	0.00e+00	0	44	0	289406976	58	4754
2026-01-29 02:18:39.90	322.34	12.61	-43.1	-45.8	17.6	0.00e+00	0	44	0	290455552	58	4725
2026-01-29 02:18:40.90	322.15	12.61	-43.0	-45.7	17.7	0.00e+00	0	44	0	292552704	58	4679
2026-01-29 02:18:41.90	321.95	12.61	-43.0	-45.7	17.7	0.00e+00	0	44	0	294649856	58	4652
2026-01-29 02:18:42.90	321.76	12.62	-43.1	-45.8	17.5	0.00e+00	0	44	0	296747008	58	4732
2026-01-29 02:18:43.90	321.56	12.62	-43.1	-45.8	17.6	0.00e+00	0	44	0	298844160	58	4734
2026-01-29 02:18:44.90	321.37	12.62	-43.1	-45.9	17.5	0.00e+00	0	44	0	299892736	58	4779
2026-01-29 02:18:45.90	321.17	12.62	-43.1	-45.9	17.5	0.00e+00	0	44	0	301989888	58	4779
2026-01-29 02:18:46.91	320.97	12.62	-43.3	-46.0	17.4	0.00e+00	0	44	0	304087040	58	4869
2026-01-29 02:18:47.91	320.78	12.62	-43.2	-46.0	17.4	0.00e+00	0	44	0	306184192	58	4866
2026-01-29 02:18:48.91	320.58	12.62	-43.3	-46.2	17.2	0.00e+00	0	44	0	308281344	58	4953
2026-01-29 02:18:49.90	320.39	12.62	-43.2	-46.1	17.4	0.00e+00	0	44	0	309329920	58	4883
2026-01-29 02:18:50.90	320.19	12.62	-43.1	-46.0	17.5	0.00e+00	0	44	0	311427072	58	4828
2026-01-29 02:18:51.90	320.00	12.62	-43.0	-45.9	17.5	0.00e+00	0	44	0	313524224	58	4771
2026-01-29 02:18:52.90	319.80	12.62	-42.9	-45.8	17.6	0.00e+00	0	44	0	315621376	57	5007
2026-01-29 02:18:53.90	319.61	12.62	-43.0	-45.8	17.6	0.00e+00	0	44	0	317718528	57	5037
2026-01-29 02:18:54.90	319.41	12.62	-43.1	-45.9	17.5	0.00e+00	0	44	0	318767104	57	5069
2026-01-29 02:18:55.90	319.22	12.61	-43.1	-45.8	17.7	0.00e+00	0	44	0	320864256	57	5009
2026-01-29 02:18:56.91	319.02	12.61	-43.2	-45.9	17.5	0.00e+00	0	44	0	322961408	57	5083
2026-01-29 02:18:57.91	318.82	12.61	-43.2	-45.9	17.6	0.00e+00	0	44	0	325058560	57	5048
2026-01-29 02:18:58.91	318.63	12.61	-43.2	-45.9	17.5	0.00e+00	0	44	0	327155712	57	5046
2026-01-29 02:18:59.91	318.43	12.60	-43.2	-45.9	17.5	0.00e+00	0	44	0	328204288	57	5059
2026-01-29 02:19:00.91	318.24	12.60	-43.3	-45.9	17.5	0.00e+00	0	44	0	330301440	57	5080
2026-01-29 02:19:01.90	318.05	12.59	-43.2	-45.9	17.5	0.00e+00	0	44	0	332398592	57	5048
2026-01-29 02:19:02.91	317.85	12.59	-43.2	-45.8	17.5	0.00e+00	0	44	0	334495744	57	5032
2026-01-29 02:19:03.91	317.65	12.59	-43.2	-45.8	17.6	0.00e+00	0	44	0	335544320	57	5028
2026-01-29 02:19:04.91	317.46	12.58	-43.2	-45.8	17.6	0.00e+00	0	44	0	337641472	57	4997
2026-01-29 02:19:05.91	317.26	12.58	-43.2	-45.8	17.6	0.00e+00	0	44	0	339738624	57	4998
2026-01-29 02:19:06.91	317.07	12.57	-43.2	-45.8	17.6	0.00e+00	0	44	0	341835776	57	5011
2026-01-29 02:19:07.91	316.87	12.56	-43.2	-45.8	17.6	0.00e+00	0	44	0	343932928	57	5005
2026-01-29 02:19:08.91	316.68	12.56	-43.1	-45.7	17.6	0.00e+00	0	44	0	344981504	57	4969
2026-01-29 02:19:09.91	316.48	12.55	-43.1	-45.8	17.5	0.00e+00	0	44	0	347078656	57	5022
2026-01-29 02:19:10.91	316.29	12.54	-43.2	-46.0	17.4	0.00e+00	0	44	0	349175808	57	5135
2026-01-29 02:19:11.91	316.10	12.54	-43.5	-46.3	17.1	0.00e+00	0	44	0	351272960	57	5338
2026-01-29 02:19:12.92	315.90	12.53	-43.5	-46.4	17.0	0.00e+00	0	44	0	353370112	57	5363
2026-01-29 02:19:13.92	315.71	12.52	-43.7	-46.7	16.7	0.00e+00	0	44	0	354418688	58	5227
2026-01-29 02:19:14.92	315.51	12.51	-43.8	-46.8	16.6	0.00e+00	0	44	0	356515840	58	5299
2026-01-29 02:19:15.92	315.32	12.50	-44.0	-47.0	16.4	0.00e+00	0	44	0	358612992	58	5452
2026-01-29 02:19:16.93	315.12	12.49	-44.0	-47.1	16.4	0.00e+00	0	44	0	360710144	58	5474
2026-01-29 02:19:17.93	314.93	12.49	-44.2	-47.2	16.2	0.00e+00	0	44	0	362807296	58	5569
2026-01-29 02:19:18.94	314.73	12.48	-44.0	-47.0	16.5	0.00e+00	0	44	0	363855872	58	5409
2026-01-29 02:19:19.94	314.54	12.47	-44.0	-47.0	16.4	0.00e+00	0	44	0	365953024	58	5411
2026-01-29 02:19:20.94	314.35	12.46	-44.0	-47.0	16.4	0.00e+00	0	44	0	368050176	58	5446
2026-01-29 02:19:21.94	314.15	12.45	-43.9	-46.9	16.5	0.00e+00	0	44	0	370147328	58	5342
2026-01-29 02:19:22.94	313.96	12.43	-43.8	-46.9	16.6	0.00e+00	0	44	0	371195904	58	5348
2026-01-29 02:19:23.94	313.77	12.42	-43.9	-46.9	16.5	0.00e+00	0	44	0	373293056	58	5390
2026-01-29 02:19:24.94	313.57	12.41	-43.9	-46.8	16.5	0.00e+00	0	44	0	375390208	58	5331
2026-01-29 02:19:25.94	313.38	12.40	-43.9	-46.8	16.6	0.00e+00	0	44	0	377487360	58	5313
2026-01-29 02:19:26.95	313.19	12.39	-43.9	-46.9	16.5	0.00e+00	0	44	0	379584512	58	5350
2026-01-29 02:19:27.95	312.99	12.38	-43.9	-46.9	16.5	0.00e+00	0	44	0	380633088	58	5377
2026-01-29 02:19:28.95	312.80	12.36	-43.9	-46.9	16.5	0.00e+00	0	44	0	382730240	58	5396
2026-01-29 02:19:29.95	312.61	12.35	-44.0	-47.0	16.4	0.00e+00	0	44	0	384827392	58	5450
2026-01-29 02:19:30.96	312.42	12.34	-43.9	-46.9	16.5	0.00e+00	0	44	0	386924544	58	5400
2026-01-29 02:19:31.96	312.22	12.32	-44.1	-47.1	16.2	0.00e+00	0	44	0	389021696	58	5518
2026-01-29 02:19:32.95	312.03	12.31	-44.0	-47.0	16.3	0.00e+00	0	44	0	390070272	58	5464
2026-01-29 02:19:33.96	311.84	12.29	-44.0	-47.0	16.4	0.00e+00	0	44	0	392167424	58	5458
2026-01-29 02:19:34.96	311.65	12.28	-43.9	-46.9	16.5	0.00e+00	0	44	0	394264576	58	5395
2026-01-29 02:19:35.96	311.46	12.27	-44.0	-47.0	16.4	0.00e+00	0	44	0	396361728	58	5423
2026-01-29 02:19:36.96	311.27	12.25	-44.0	-47.0	16.3	0.00e+00	0	44	0	398458880	58	5452
2026-01-29 02:19:37.96	311.08	12.23	-44.0	-47.0	16.4	0.00e+00	0	44	0	399507456	58	5455
2026-01-29 02:19:38.96	310.89	12.22	-44.1	-47.1	16.3	0.00e+00	0	44	0	401604608	58	5503
2026-01-29 02:19:39.96	310.70	12.20	-44.1	-47.1	16.2	0.00e+00	0	44	0	403701760	59	5217
2026-01-29 02:19:40.97	310.51	12.19	-44.2	-47.3	16.1	0.00e+00	0	44	0	405798912	59	5300
2026-01-29 02:19:41.96	310.32	12.17	-44.2	-47.4	16.0	0.00e+00	0	44	0	407896064	59	5351
2026-01-29 02:19:42.96	310.13	12.15	-44.3	-47.4	16.0	0.00e+00	0	44	0	408944640	59	5394
2026-01-29 02:19:43.96	309.94	12.14	-44.2	-47.3	16.1	0.00e+00	0	44	0	411041792	59	5286
2026-01-29 02:19:44.96	309.75	12.12	-44.1	-47.2	16.1	0.00e+00	0	44	0	413138944	59	5277
2026-01-29 02:19:45.96	309.56	12.10	-44.1	-47.2	16.2	0.00e+00	0	44	0	415236096	59	5257
2026-01-29 02:19:46.96	309.37	12.08	-44.0	-47.0	16.4	0.00e+00	0	44	0	416284672	59	5133
2026-01-29 02:19:47.97	309.18	12.06	-44.0	-47.0	16.5	0.00e+00	0	44	0	418381824	59	5108
2026-01-29 02:19:48.97	308.99	12.05	-43.9	-46.9	16.5	0.00e+00	0	44	0	420478976	59	5053
2026-01-29 02:19:49.97	308.81	12.03	-44.0	-46.9	16.5	0.00e+00	0	44	0	422576128	59	5071
2026-01-29 02:19:50.97	308.62	12.01	-44.0	-46.9	16.5	0.00e+00	0	44	0	424673280	59	5070
2026-01-29 02:19:51.98	308.43	11.99	-44.1	-47.0	16.4	0.00e+00	0	44	0	425721856	59	5126
2026-01-29 02:19:52.97	308.24	11.97	-44.1	-47.0	16.4	0.00e+00	0	44	0	427819008	59	5148
2026-01-29 02:19:53.97	308.06	11.95	-44.1	-47.0	16.4	0.00e+00	0	44	0	429916160	59	5133
2026-01-29 02:19:54.97	307.87	11.93	-44.2	-47.1	16.3	0.00e+00	0	44	0	432013312	59	5202
2026-01-29 02:19:55.98	307.68	11.91	-44.3	-47.4	16.0	0.00e+00	0	44	0	434110464	59	5347
2026-01-29 02:19:56.98	307.50	11.89	-44.4	-47.4	15.9	0.00e+00	0	44	0	435159040	59	5385
2026-01-29 02:19:57.98	307.31	11.86	-44.4	-47.4	16.0	0.00e+00	0	44	0	437256192	59	5372
2026-01-29 02:19:58.98	307.12	11.84	-44.3	-47.3	16.0	0.00e+00	0	44	0	439353344	59	5339
2026-01-29 02:19:59.98	306.94	11.82	-44.3	-47.3	16.1	0.00e+00	0	44	0	441450496	59	5298
2026-01-29 02:20:00.98	306.75	11.80	-44.4	-47.4	16.0	0.00e+00	0	44	0	442499072	59	5371
2026-01-29 02:20:01.98	306.57	11.78	-44.3	-47.3	16.1	0.00e+00	0	44	0	444596224	59	5337
2026-01-29 02:20:02.98	306.39	11.75	-44.2	-47.2	16.1	0.00e+00	0	44	0	446693376	59	5272
2026-01-29 02:20:03.98	306.20	11.73	-44.2	-47.2	16.2	0.00e+00	0	44	0	448790528	59	5238
2026-01-29 02:20:04.98	306.02	11.71	-44.2	-47.2	16.2	0.00e+00	0	44	0	450887680	59	5270
2026-01-29 02:20:05.99	305.83	11.69	-44.2	-47.2	16.2	0.00e+00	0	44	0	451936256	59	5241
2026-01-29 02:20:06.99	305.65	11.66	-44.2	-47.1	16.2	0.00e+00	0	44	0	454033408	59	5211
2026-01-29 02:20:07.99	305.47	11.64	-44.2	-47.1	16.2	0.00e+00	0	44	0	456130560	59	5214
2026-01-29 02:20:08.99	305.28	11.61	-44.2	-47.2	16.2	0.00e+00	0	44	0	458227712	59	5231
2026-01-29 02:20:09.99	305.10	11.59	-44.3	-47.3	16.0	0.00e+00	0	44	0	460324864	59	5320
2026-01-29 02:20:10.99	304.92	11.56	-44.4	-47.4	15.9	0.00e+00	0	44	0	461373440	59	5379
2026-01-29 02:20:11.99	304.74	11.54	-44.3	-47.4	16.0	0.00e+00	0	44	0	463470592	59	5345
2026-01-29 02:20:12.99	304.56	11.51	-44.4	-47.4	15.9	0.00e+00	0	44	0	465567744	59	5395
2026-01-29 02:20:14.00	304.37	11.49	-44.5	-47.6	15.8	0.00e+00	0	44	0	467664896	59	5496
2026-01-29 02:20:15.00	304.19	11.46	-44.5	-47.7	15.7	0.00e+00	0	44	0	469762048	59	5539
2026-01-29 02:20:16.00	304.01	11.44	-44.7	-47.9	15.5	0.00e+00	0	44	0	470810624	59	5661
2026-01-29 02:20:17.00	303.83	11.41	-44.6	-47.8	15.5	0.00e+00	0	44	0	472907776	59	5637
2026-01-29 02:20:18.00	303.65	11.38	-44.6	-47.8	15.6	0.00e+00	0	44	0	475004928	60	5319
2026-01-29 02:20:19.00	303.47	11.36	-44.4	-47.6	15.8	0.00e+00	0	44	0	477102080	60	5179
2026-01-29 02:20:20.00	303.29	11.33	-44.4	-47.5	15.9	0.00e+00	0	44	0	479199232	60	5129
2026-01-29 02:20:21.00	303.11	11.30	-44.3	-47.3	16.1	0.00e+00	0	44	0	480247808	60	5038
2026-01-29 02:20:22.01	302.93	11.28	-44.3	-47.3	16.1	0.00e+00	0	44	0	482344960	60	5031
2026-01-29 02:20:23.00	302.76	11.25	-44.2	-47.2	16.1	0.00e+00	0	44	0	484442112	60	4982
2026-01-29 02:20:24.01	302.58	11.22	-44.3	-47.4	16.0	0.00e+00	0	44	0	486539264	60	5049
2026-01-29 02:20:25.01	302.40	11.19	-44.3	-47.3	16.1	0.00e+00	0	44	0	488636416	60	5010
2026-01-29 02:20:26.01	302.22	11.16	-44.3	-47.3	16.0	0.00e+00	0	44	0	489684992	60	5027
2026-01-29 02:20:27.01	302.05	11.14	-44.4	-47.4	15.9	0.00e+00	0	44	0	491782144	60	5077
2026-01-29 02:20:28.01	301.87	11.11	-44.4	-47.4	15.9	0.00e+00	0	44	0	493879296	60	5088
2026-01-29 02:20:29.01	301.69	11.08	-44.5	-47.6	15.7	0.00e+00	0	44	0	495976448	60	5207
2026-01-29 02:20:30.02	301.52	11.05	-44.6	-47.8	15.6	0.00e+00	0	44	0	497025024	60	5314
2026-01-29 02:20:31.02	301.34	11.02	-44.7	-48.0	15.4	0.00e+00	0	44	0	499122176	60	5420
2026-01-29 02:20:32.02	301.16	10.99	-44.7	-47.9	15.4	0.00e+00	0	44	0	501219328	60	5394
2026-01-29 02:20:33.02	300.99	10.96	-44.5	-47.7	15.7	0.00e+00	0	44	0	503316480	60	5238
2026-01-29 02:20:34.02	300.82	10.93	-44.5	-47.6	15.7	0.00e+00	0	44	0	505413632	60	5196
2026-01-29 02:20:35.02	300.64	10.90	-44.4	-47.5	15.8	0.00e+00	0	44	0	506462208	60	5141
2026-01-29 02:20:36.03	300.47	10.87	-44.4	-47.4	15.9	0.00e+00	0	44	0	508559360	60	5070
2026-01-29 02:20:37.03	300.29	10.84	-44.1	-47.0	16.3	0.00e+00	0	44	0	510656512	60	4852
2026-01-29 02:20:38.03	300.12	10.81	-44.0	-47.0	16.3	0.00e+00	0	44	0	512753664	60	4836
2026-01-29 02:20:39.03	299.95	10.78	-44.0	-46.9	16.4	0.00e+00	0	44	0	514850816	59	5043
2026-01-29 02:20:40.03	299.78	10.74	-44.0	-46.9	16.4	0.00e+00	0	44	0	515899392	59	5060
2026-01-29 02:20:41.04	299.60	10.71	-43.9	-46.8	16.4	0.00e+00	0	44	0	517996544	59	5038
2026-01-29 02:20:42.04	299.43	10.68	-44.0	-46.9	16.4	0.00e+00	0	44	0	520093696	59	5054
2026-01-29 02:20:43.04	299.26	10.65	-44.0	-46.9	16.3	0.00e+00	0	44	0	522190848	59	5070
2026-01-29 02:20:44.04	299.09	10.62	-43.9	-46.8	16.4	0.00e+00	0	44	0	524288000	59	5022
2026-01-29 02:20:45.04	298.92	10.58	-44.0	-46.9	16.3	0.00e+00	0	44	0	525336576	59	5098
2026-01-29 02:20:46.04	298.75	10.55	-43.9	-46.8	16.5	0.00e+00	0	44	0	527433728	59	5014
2026-01-29 02:20:47.04	298.58	10.52	-44.0	-46.9	16.3	0.00e+00	0	44	0	529530880	59	5098
2026-01-29 02:20:48.04	298.41	10.48	-44.1	-47.0	16.2	0.00e+00	0	44	0	531628032	59	5145
2026-01-29 02:20:49.04	298.24	10.45	-44.1	-47.1	16.1	0.00e+00	0	44	0	533725184	59	5187
2026-01-29 02:20:50.04	298.07	10.42	-44.2	-47.1	16.1	0.00e+00	0	44	0	534773760	59	5195
2026-01-29 02:20:51.05	297.90	10.38	-44.2	-47.2	16.0	0.00e+00	0	44	0	536870912	59	5233
2026-01-29 02:20:52.05	297.74	10.35	-44.1	-47.0	16.2	0.00e+00	0	44	0	538968064	59	5122
2026-01-29 02:20:53.05	297.57	10.32	-44.1	-47.0	16.2	0.00e+00	0	44	0	541065216	59	5159
2026-01-29 02:20:54.05	297.40	10.28	-43.9	-46.8	16.4	0.00e+00	0	44	0	542113792	59	5012
2026-01-29 02:20:55.05	297.24	10.25	-43.9	-46.7	16.5	0.00e+00	0	44	0	544210944	59	4979
2026-01-29 02:20:56.05	297.07	10.21	-43.8	-46.6	16.6	0.00e+00	0	44	0	546308096	59	4903
2026-01-29 02:20:57.05	296.90	10.18	-43.7	-46.6	16.6	0.00e+00	0	44	0	548405248	59	4886
2026-01-29 02:20:58.05	296.74	10.14	-43.9	-46.8	16.4	0.00e+00	0	44	0	550502400	59	5003
2026-01-29 02:20:59.05	296.57	10.11	-43.8	-46.7	16.5	0.00e+00	0	44	0	551550976	59	4946
2026-01-29 02:21:00.05	296.41	10.07	-43.9	-46.8	16.4	0.00e+00	0	44	0	553648128	59	5019
2026-01-29 02:21:01.06	296.24	10.04	-44.1	-47.0	16.2	0.00e+00	0	44	0	555745280	59	5152
2026-01-29 02:21:02.06	296.08	10.00	-44.0	-47.0	16.2	0.00e+00	0	44	0	557842432	59	5127
2026-01-29 02:21:03.06	295.92	9.97	-44.1	-47.1	16.1	0.00e+00	0	44	0	559939584	59	5170
2026-01-29 02:21:04.07	295.75	9.93	-44.1	-47.0	16.2	0.00e+00	0	44	0	560988160	59	5141
2026-01-29 02:21:05.07	295.59	9.89	-44.0	-47.0	16.2	0.00e+00	0	44	0	563085312	59	5131
2026-01-29 02:21:06.07	295.43	9.86	-44.1	-47.1	16.1	0.00e+00	0	44	0	565182464	59	5171
2026-01-29 02:21:07.07	295.27	9.82	-44.0	-46.9	16.3	0.00e+00	0	44	0	567279616	59	5078
2026-01-29 02:21:08.07	295.11	9.78	-43.9	-46.8	16.4	0.00e+00	0	44	0	568328192	59	5029
2026-01-29 02:21:09.07	294.94	9.75	-43.8	-46.7	16.5	0.00e+00	0	44	0	570425344	59	4958
2026-01-29 02:21:10.07	294.78	9.71	-43.8	-46.7	16.5	0.00e+00	0	44	0	572522496	59	4933
2026-01-29 02:21:11.07	294.62	9.67	-43.8	-46.6	16.6	0.00e+00	0	44	0	574619648	59	4915
2026-01-29 02:21:12.08	294.46	9.64	-43.8	-46.7	16.5	0.00e+00	0	44	0	576716800	59	4961
2026-01-29 02:21:13.08	294.30	9.60	-44.0	-47.0	16.2	0.00e+00	0	44	0	577765376	59	5136
2026-01-29 02:21:14.08	294.15	9.56	-44.0	-47.0	16.2	0.00e+00	0	44	0	579862528	59	5117
2026-01-29 02:21:15.08	293.99	9.52	-44.2	-47.1	16.0	0.00e+00	0	44	0	581959680	59	5214
2026-01-29 02:21:16.08	293.83	9.49	-44.3	-47.4	15.9	0.00e+00	0	44	0	584056832	59	5343
2026-01-29 02:21:17.08	293.67	9.45	-44.4	-47.4	15.8	0.00e+00	0	44	0	586153984	59	5400
2026-01-29 02:21:18.08	293.51	9.41	-44.4	-47.5	15.7	0.00e+00	0	44	0	587202560	59	5445
2026-01-29 02:21:19.08	293.36	9.37	-44.4	-47.5	15.7	0.00e+00	0	44	0	589299712	59	5458
2026-01-29 02:21:20.08	293.20	9.33	-44.4	-47.5	15.6	0.00e+00	0	44	0	591396864	59	5437
2026-01-29 02:21:21.09	293.04	9.29	-44.5	-47.6	15.6	0.00e+00	0	44	0	593494016	59	5502
2026-01-29 02:21:22.09	292.89	9.25	-44.5	-47.7	15.5	0.00e+00	0	44	0	595591168	59	5565
2026-01-29 02:21:23.09	292.73	9.22	-44.6	-47.9	15.3	0.00e+00	0	44	0	596639744	59	5669
2026-01-29 02:21:24.09	292.58	9.18	-44.3	-47.4	15.7	0.00e+00	0	44	0	598736896	59	5371
2026-01-29 02:21:25.09	292.43	9.14	-44.5	-47.6	15.5	0.00e+00	0	44	0	600834048	59	5514
2026-01-29 02:21:26.09	292.27	9.10	-44.6	-47.8	15.4	7.00e-07	0	44	0	602931200	59	5598
2026-01-29 02:21:27.09	292.12	9.06	-44.6	-47.8	15.4	0.00e+00	0	44	0	605028352	59	5645
2026-01-29 02:21:28.09	291.97	9.02	-44.6	-47.8	15.4	0.00e+00	0	44	0	606076928	59	5629
2026-01-29 02:21:29.09	291.81	8.98	-49.2	-64.0	3.8	5.68e-03	0	44	104	608174080	69	20458
2026-01-29 02:21:30.08	291.66	8.94	-49.3	-64.5	3.8	1.49e+00	0	44	104	608174080	69	21561
2026-01-29 02:21:31.08	291.51	8.90	-49.2	-64.5	3.8	1.49e+00	0	44	104	608174080	69	21589
2026-01-29 02:21:32.08	291.36	8.86	-49.2	-64.5	3.8	1.49e+00	0	44	104	608174080	69	21622
2026-01-29 02:21:33.07	291.21	8.82	-49.2	-64.5	3.8	1.49e+00	0	44	104	608174080	69	21614
2026-01-29 02:21:34.07	291.06	8.78	-49.2	-64.5	3.8	1.49e+00	0	44	104	608174080	69	21660
2026-01-29 02:21:35.06	290.91	8.74	-49.2	-64.5	3.8	1.49e+00	0	44	104	608174080	69	21688
2026-01-29 02:21:36.06	290.76	8.70	-49.2	-64.5	3.8	1.49e+00	0	44	104	608174080	69	21513
2026-01-29 02:21:37.05	290.61	8.66	-49.2	-64.5	3.8	1.49e+00	0	44	104	608174080	69	21513
2026-01-29 02:21:38.05	290.47	8.62	-49.2	-64.5	3.8	1.49e+00	0	44	104	608174080	69	21523
2026-01-29 02:21:39.04	290.32	8.58	-49.2	-64.5	3.8	1.49e+00	0	44	104	608174080	69	21585
2026-01-29 02:21:40.04	290.17	8.54	-49.2	-64.5	3.8	1.49e+00	0	44	104	608174080	69	21630
2026-01-29 02:21:41.03	290.03	8.50	-49.2	-64.5	3.8	1.49e+00	0	44	104	608174080	69	21596
2026-01-29 02:21:42.03	289.88	8.45	-49.2	-64.5	3.8	1.49e+00	0	44	104	608174080	69	21612
2026-01-29 02:21:43.02	289.73	8.41	-49.2	-64.4	3.8	1.49e+00	0	44	104	608174080	69	21320
2026-01-29 02:21:44.02	289.59	8.37	-49.2	-64.4	3.8	1.49e+00	0	44	104	608174080	69	21315
2026-01-29 02:21:45.01	289.44	8.33	-49.2	-64.4	3.8	1.49e+00	0	44	104	608174080	69	21299
2026-01-29 02:21:46.01	289.30	8.29	-49.2	-64.4	3.8	1.49e+00	0	44	104	608174080	69	21318
2026-01-29 02:21:47.01	289.15	8.25	-49.2	-64.4	3.8	1.49e+00	0	44	104	608174080	69	21426
2026-01-29 02:21:48.00	289.01	8.21	-49.2	-64.4	3.8	1.49e+00	0	44	104	608174080	69	21503
2026-01-29 02:21:49.00	288.87	8.16	-49.2	-64.5	3.8	1.49e+00	0	44	104	608174080	69	21660
2026-01-29 02:21:49.99	288.72	8.12	-49.2	-64.4	3.8	1.49e+00	0	44	104	608174080	69	21504
2026-01-29 02:21:50.98	288.58	8.08	-49.2	-64.2	3.8	1.49e+00	0	44	104	608174080	69	20993
2026-01-29 02:21:51.98	288.44	8.04	-49.2	-63.9	3.8	1.49e+00	0	44	104	608174080	69	20095
2026-01-29 02:21:52.97	288.30	8.00	-49.1	-63.4	3.8	1.49e+00	0	44	104	608174080	69	19067
2026-01-29 02:21:53.97	288.16	7.95	-49.1	-63.0	3.8	1.49e+00	0	44	104	608174080	69	18279
2026-01-29 02:21:54.96	288.02	7.91	-49.1	-62.7	3.8	1.49e+00	0	44	104	608174080	69	17619
2026-01-29 02:21:55.96	287.87	7.87	-49.1	-62.7	3.8	1.49e+00	0	44	104	608174080	69	17526
2026-01-29 02:21:56.95	287.73	7.83	-49.1	-62.8	3.8	1.49e+00	0	44	104	608174080	69	17878
2026-01-29 02:21:57.95	287.59	7.78	-49.1	-63.2	3.8	1.49e+00	0	44	104	608174080	69	18729
2026-01-29 02:21:58.95	287.45	7.74	-49.1	-63.7	3.8	1.49e+00	0	44	104	608174080	69	19693
2026-01-29 02:21:59.94	287.32	7.70	-49.2	-64.1	3.8	1.49e+00	0	44	104	608174080	69	20578
2026-01-29 02:22:00.94	287.18	7.66	-49.2	-64.3	3.8	1.49e+00	0	44	104	608174080	69	21030
2026-01-29 02:22:01.93	287.04	7.61	-49.2	-64.4	3.8	1.49e+00	0	44	104	608174080	69	21270
2026-01-29 02:22:02.93	286.90	7.57	-49.2	-64.4	3.8	1.49e+00	0	44	104	608174080	69	21321
2026-01-29 02:22:03.92	286.77	7.53	-49.2	-64.3	3.8	1.49e+00	0	44	104	608174080	69	21178
2026-01-29 02:22:04.92	286.63	7.48	-49.2	-64.2	3.8	1.49e+00	0	44	104	608174080	69	20962
2026-01-29 02:22:05.91	286.49	7.44	-49.2	-64.2	3.8	1.49e+00	0	44	104	608174080	69	20966
2026-01-29 02:22:06.91	286.36	7.40	-49.2	-64.3	3.8	1.49e+00	0	44	104	608174080	69	21033
2026-01-29 02:22:07.91	286.22	7.35	-49.2	-64.3	3.8	1.49e+00	0	44	104	608174080	69	21058
2026-01-29 02:22:08.90	286.09	7.31	-49.2	-64.3	3.8	1.49e+00	0	44	104	608174080	69	21252
2026-01-29 02:22:09.90	285.95	7.27	-49.2	-64.4	3.8	1.49e+00	0	44	104	608174080	69	21332
2026-01-29 02:22:10.90	285.81	7.22	-49.2	-64.4	3.8	1.49e+00	0	44	104	608174080	69	21432
2026-01-29 02:22:11.89	285.68	7.18	-49.2	-64.4	3.8	1.49e+00	0	44	104	608174080	69	21499
2026-01-29 02:22:12.89	285.55	7.13	-49.2	-64.5	3.8	1.49e+00	0	44	104	608174080	69	21619
2026-01-29 02:22:13.89	285.41	7.09	-49.2	-64.5	3.8	1.49e+00	0	44	104	608174080	69	21627
2026-01-29 02:22:14.89	285.28	7.05	-49.2	-64.5	3.8	1.49e+00	0	44	104	608174080	69	21531
2026-01-29 02:22:15.88	285.15	7.00	-49.2	-64.4	3.8	1.49e+00	0	44	104	608174080	69	21502
2026-01-29 02:22:16.88	285.02	6.96	-49.2	-64.4	3.8	1.49e+00	0	44	104	608174080	69	21402
2026-01-29 02:22:17.87	284.89	6.91	-49.2	-64.4	3.8	1.49e+00	0	44	104	608174080	69	21457
2026-01-29 02:22:18.87	284.75	6.87	-49.2	-64.4	3.8	1.49e+00	0	44	104	608174080	69	21400
2026-01-29 02:22:19.87	284.62	6.82	-49.2	-64.4	3.8	1.49e+00	0	44	104	608174080	69	21436
2026-01-29 02:22:20.86	284.49	6.78	-49.2	-64.5	3.8	1.49e+00	0	44	104	608174080	69	21507
2026-01-29 02:22:21.86	284.36	6.74	-49.2	-64.4	3.8	1.49e+00	0	44	104	608174080	69	21421
2026-01-29 02:22:22.86	284.23	6.69	-49.2	-64.4	3.8	1.49e+00	0	44	104	608174080	69	21341
2026-01-29 02:22:23.85	284.10	6.65	-49.2	-64.4	3.8	1.49e+00	0	44	104	608174080	69	21360
2026-01-29 02:22:24.85	283.98	6.60	-49.2	-64.4	3.8	1.49e+00	0	44	104	608174080	69	21398
2026-01-29 02:22:25.84	283.85	6.56	-49.2	-64.4	3.8	1.49e+00	0	44	104	608174080	69	21361
2026-01-29 02:22:26.84	283.72	6.51	-49.2	-64.4	3.8	1.49e+00	0	44	104	608174080	69	21331
2026-01-29 02:22:27.84	283.59	6.47	-49.2	-64.4	3.8	1.49e+00	0	44	104	608174080	69	21380
2026-01-29 02:22:28.83	283.46	6.42	-49.2	-64.4	3.8	1.49e+00	0	44	104	608174080	69	21329
2026-01-29 02:22:29.83	283.34	6.38	-49.2	-64.4	3.8	1.49e+00	0	44	104	608174080	69	21376
2026-01-29 02:22:30.83	283.21	6.33	-49.2	-64.4	3.8	1.49e+00	0	44	104	608174080	69	21394
2026-01-29 02:22:31.82	283.09	6.29	-49.2	-64.4	3.8	1.49e+00	0	44	104	608174080	69	21498
2026-01-29 02:22:32.82	282.96	6.24	-49.2	-64.5	3.8	1.49e+00	0	44	104	608174080	69	21539
2026-01-29 02:22:33.81	282.84	6.20	-49.2	-64.5	3.8	1.49e+00	0	44	104	608174080	69	21571
2026-01-29 02:22:34.81	282.71	6.15	-49.2	-64.5	3.8	1.49e+00	0	44	104	608174080	69	21639
2026-01-29 02:22:35.80	282.59	6.11	-49.2	-64.5	3.8	1.49e+00	0	44	104	608174080	69	21622
2026-01-29 02:22:36.80	282.46	6.06	-49.2	-64.5	3.8	1.49e+00	0	44	104	608174080	69	21668
2026-01-29 02:22:37.80	282.34	6.02	-49.2	-64.5	3.8	1.49e+00	0	44	104	608174080	69	21528
2026-01-29 02:22:38.79	282.22	5.97	-49.2	-64.5	3.8	1.49e+00	0	44	104	608174080	69	21636
2026-01-29 02:22:39.79	282.09	5.93	-49.2	-64.5	3.8	1.49e+00	0	44	104	608174080	69	21537
2026-01-29 02:22:40.79	281.97	5.88	-49.2	-64.5	3.8	1.49e+00	0	44	104	608174080	69	21567
2026-01-29 02:22:41.78	281.85	5.84	-49.2	-64.5	3.8	1.49e+00	0	44	104	608174080	69	21582
2026-01-29 02:22:42.78	281.73	5.79	-49.2	-64.5	3.8	1.49e+00	0	44	104	608174080	69	21546
2026-01-29 02:22:43.78	281.60	5.74	-49.2	-64.4	3.8	1.49e+00	0	44	104	608174080	69	21488
2026-01-29 02:22:44.77	281.48	5.70	-49.2	-64.4	3.8	1.49e+00	0	44	104	608174080	69	21465
2026-01-29 02:22:45.77	281.36	5.65	-49.2	-64.4	3.8	1.49e+00	0	44	104	608174080	69	21412
2026-01-29 02:22:46.77	281.24	5.61	-49.2	-64.4	3.8	1.49e+00	0	44	104	608174080	69	21466
2026-01-29 02:22:47.76	281.12	5.56	-49.2	-64.5	3.8	1.49e+00	0	44	104	608174080	69	21598
2026-01-29 02:22:48.76	281.00	5.52	-49.2	-64.5	3.8	1.49e+00	0	44	104	608174080	69	21550
2026-01-29 02:22:49.75	280.88	5.47	-49.2	-64.4	3.8	1.49e+00	0	44	104	608174080	69	21485
2026-01-29 02:22:50.75	280.77	5.42	-49.2	-64.5	3.8	1.49e+00	0	44	104	608174080	69	21562
2026-01-29 02:22:51.74	280.65	5.38	-49.2	-64.5	3.8	1.49e+00	0	44	104	608174080	69	21544
2026-01-29 02:22:52.74	280.53	5.33	-49.2	-64.5	3.8	1.49e+00	0	44	104	608174080	69	21608
2026-01-29 02:22:53.74	280.41	5.29	-49.2	-64.5	3.8	1.49e+00	0	44	104	608174080	69	21555
2026-01-29 02:22:54.73	280.30	5.24	-49.2	-64.5	3.8	1.49e+00	0	44	104	608174080	69	21671
2026-01-29 02:22:55.73	280.18	5.19	-49.2	-64.5	3.8	1.49e+00	0	44	104	608174080	69	21593
2026-01-29 02:22:56.73	280.06	5.15	-49.2	-64.5	3.8	1.49e+00	0	44	104	608174080	69	21537
2026-01-29 02:22:57.72	279.95	5.10	-49.2	-64.5	3.8	1.49e+00	0	44	104	608174080	69	21624
2026-01-29 02:22:58.72	279.83	5.06	-49.2	-64.5	3.8	1.49e+00	0	44	104	608174080	69	21677
2026-01-29 02:22:59.71	279.72	5.01	-49.2	-64.5	3.8	1.49e+00	0	44	104	608174080	69	21589
2026-01-29 02:23:00.71	279.60	4.96	-49.2	-64.5	3.8	1.49e+00	0	44	104	608174080	69	21597

#Closed at: 2026-01-29 02:23:01
#Recorded file [608 MB]: D:/Data/31040_260129_051437.dat