passes_logs/2026/01/29/T1/T1__20260129_082453_SUOMI_NPP_rec.log

#Pass ID: 20260129_082453_SUOMI NPP
#Satellite: SUOMI NPP
#Configuration: NPP
#almurnet v.1.7.20251203
#Start time: 2026-01-29 08:24:54

#Version: 2.0.20230620
#Station: T1
#Location: 37.570604 lon 55.790049 lat
#TLE: 1 37849U 11061A   26027.93236865  .00000148  00000+0  91411-4 0  9991
#TLE: 2 37849  98.7823 329.8704 0002085  41.3231 318.8102 14.19530777738546

#Time	Az	El	Level	Level2	SNR	BER	BlckErr	Temp	State	Recorded	gain1	gain2
2026-01-29 08:24:54.93	109.68	5.07	-49.8	-65.3	3.8	1.49e+00	0	38	0	0	70	22376
2026-01-29 08:24:55.92	109.60	5.13	-50.2	-65.3	3.8	1.49e+00	0	38	104	0	71	21162
2026-01-29 08:24:56.92	109.52	5.19	-50.0	-65.3	3.8	1.49e+00	0	38	104	0	71	21150
2026-01-29 08:24:57.92	109.44	5.25	-50.1	-65.3	3.8	1.49e+00	0	38	104	0	71	21094
2026-01-29 08:24:58.91	109.36	5.31	-50.1	-65.3	3.8	1.49e+00	0	38	104	0	71	21103
2026-01-29 08:24:59.91	109.27	5.37	-50.0	-65.3	3.8	1.49e+00	0	39	104	0	71	21102
2026-01-29 08:25:00.91	109.19	5.43	-50.1	-65.3	3.8	1.49e+00	0	39	104	0	71	21103
2026-01-29 08:25:01.90	109.11	5.49	-50.0	-65.3	3.8	1.49e+00	0	39	104	0	71	21083
2026-01-29 08:25:02.90	109.03	5.56	-50.0	-65.3	3.8	1.49e+00	0	39	104	0	71	21072
2026-01-29 08:25:03.90	108.95	5.62	-50.1	-65.2	3.8	1.49e+00	0	39	104	0	71	20957
2026-01-29 08:25:04.89	108.86	5.68	-50.0	-65.2	3.8	1.49e+00	0	39	104	0	71	20872
2026-01-29 08:25:05.89	108.78	5.74	-49.9	-65.2	3.8	1.49e+00	0	39	104	0	71	20908
2026-01-29 08:25:06.89	108.69	5.80	-49.8	-65.2	3.8	1.49e+00	0	39	104	0	71	20859
2026-01-29 08:25:07.88	108.61	5.87	-49.9	-65.2	3.8	1.49e+00	0	39	104	0	71	20787
2026-01-29 08:25:08.88	108.53	5.93	-49.8	-65.1	3.8	1.49e+00	0	39	104	0	71	20609
2026-01-29 08:25:09.88	108.44	5.99	-49.8	-65.0	3.8	1.49e+00	0	39	104	0	71	20390
2026-01-29 08:25:10.87	108.36	6.05	-49.7	-64.9	3.8	1.49e+00	0	39	104	0	71	20231
2026-01-29 08:25:11.87	108.27	6.11	-49.5	-64.7	3.8	1.49e+00	0	39	104	0	71	19740
2026-01-29 08:25:12.87	108.18	6.18	-49.4	-64.5	3.8	1.49e+00	0	39	104	0	70	20443
2026-01-29 08:25:13.86	108.10	6.24	-49.4	-64.5	3.8	1.49e+00	0	39	104	0	70	20490
2026-01-29 08:25:14.86	108.01	6.30	-49.4	-64.5	3.8	1.49e+00	0	39	104	0	70	20459
2026-01-29 08:25:15.86	107.92	6.37	-49.4	-64.5	3.8	1.49e+00	0	39	104	0	70	20524
2026-01-29 08:25:16.85	107.84	6.43	-49.4	-64.5	3.8	1.49e+00	0	39	104	0	70	20492
2026-01-29 08:25:17.85	107.75	6.49	-49.4	-64.5	3.8	1.49e+00	0	39	104	0	70	20520
2026-01-29 08:25:18.85	107.66	6.55	-49.4	-64.5	3.8	1.49e+00	0	39	104	0	70	20483
2026-01-29 08:25:19.84	107.57	6.62	-49.4	-64.5	3.8	1.49e+00	0	39	104	0	70	20363
2026-01-29 08:25:20.84	107.48	6.68	-49.4	-64.3	3.8	1.49e+00	0	39	104	0	70	20006
2026-01-29 08:25:21.83	107.39	6.74	-49.3	-64.1	3.8	1.49e+00	0	39	104	0	70	19584
2026-01-29 08:25:22.83	107.30	6.81	-49.3	-64.0	3.8	1.49e+00	0	39	104	0	70	19168
2026-01-29 08:25:23.83	107.21	6.87	-49.3	-63.8	3.8	1.49e+00	0	39	104	0	70	18827
2026-01-29 08:25:24.82	107.12	6.93	-49.3	-63.7	3.8	1.49e+00	0	39	104	0	70	18614
2026-01-29 08:25:25.82	107.03	7.00	-49.3	-63.8	3.8	1.49e+00	0	39	104	0	70	18777
2026-01-29 08:25:26.81	106.94	7.06	-49.3	-63.7	3.8	1.49e+00	0	39	104	0	70	18548
2026-01-29 08:25:27.81	106.84	7.12	-49.3	-63.7	3.8	1.49e+00	0	40	104	0	70	18603
2026-01-29 08:25:28.80	106.75	7.19	-49.3	-63.6	3.8	1.49e+00	0	39	104	0	70	18488
2026-01-29 08:25:29.80	106.66	7.25	-49.3	-63.6	3.8	1.49e+00	0	39	104	0	70	18435
2026-01-29 08:25:30.79	106.57	7.32	-49.3	-63.7	3.8	1.49e+00	0	40	104	0	70	18655
2026-01-29 08:25:31.79	106.47	7.38	-49.3	-63.8	3.8	1.49e+00	0	39	104	0	70	18878
2026-01-29 08:25:32.79	106.38	7.45	-49.3	-63.9	3.8	1.49e+00	0	39	104	0	70	19077
2026-01-29 08:25:33.78	106.28	7.51	-49.3	-64.0	3.8	1.49e+00	0	40	104	0	70	19209
2026-01-29 08:25:34.78	106.19	7.57	-49.3	-63.9	3.8	1.49e+00	0	40	104	0	70	19134
2026-01-29 08:25:35.77	106.09	7.64	-49.3	-63.9	3.8	1.49e+00	0	39	104	0	70	18993
2026-01-29 08:25:36.77	106.00	7.70	-49.3	-63.8	3.8	1.49e+00	0	40	104	0	70	18772
2026-01-29 08:25:37.77	105.90	7.77	-49.3	-63.9	3.8	1.49e+00	0	39	104	0	70	19081
2026-01-29 08:25:38.76	105.80	7.83	-49.3	-64.3	3.8	1.49e+00	0	40	104	0	70	19951
2026-01-29 08:25:39.76	105.71	7.90	-49.4	-64.6	3.8	1.49e+00	0	40	104	0	70	20569
2026-01-29 08:25:40.75	105.61	7.96	-49.3	-63.7	3.8	1.49e+00	0	40	104	0	70	18639
2026-01-29 08:25:41.75	105.51	8.03	-49.1	-61.2	4.1	1.48e+00	0	40	104	0	70	14009
2026-01-29 08:25:42.75	105.41	8.09	-48.8	-58.4	5.3	8.67e-01	0	40	0	1048576	69	10693
2026-01-29 08:25:43.74	105.31	8.16	-48.4	-56.4	6.8	3.15e-01	0	40	0	3145728	68	9029
2026-01-29 08:25:44.74	105.21	8.22	-47.6	-53.8	9.2	3.33e-02	0	40	0	4194304	67	7111
2026-01-29 08:25:45.73	105.12	8.29	-46.8	-51.8	11.2	2.99e-03	0	40	0	6291456	65	6313
2026-01-29 08:25:46.73	105.01	8.35	-46.0	-50.1	13.1	1.72e-04	0	40	0	8388608	63	5794
2026-01-29 08:25:47.72	104.91	8.42	-45.4	-49.0	14.2	7.60e-06	0	40	0	10485760	62	5430
2026-01-29 08:25:48.72	104.81	8.48	-45.0	-48.4	14.9	0.00e+00	0	40	0	11534336	62	5045
2026-01-29 08:25:49.71	104.71	8.55	-44.9	-48.3	14.9	0.00e+00	0	40	0	13631488	61	5319
2026-01-29 08:25:50.71	104.61	8.62	-45.3	-48.9	14.4	0.00e+00	0	40	0	15728640	61	5671
2026-01-29 08:25:51.71	104.51	8.68	-46.2	-50.5	12.8	3.80e-06	0	40	0	17825792	63	6107
2026-01-29 08:25:52.70	104.40	8.75	-46.6	-51.5	11.6	3.43e-04	0	40	0	19922944	64	6468
2026-01-29 08:25:53.70	104.30	8.81	-47.3	-53.1	10.1	2.87e-03	0	40	0	20971520	65	7298
2026-01-29 08:25:54.69	104.20	8.88	-47.9	-54.7	8.3	2.35e-02	0	40	0	23068672	66	8356
2026-01-29 08:25:55.69	104.09	8.95	-48.3	-56.5	6.7	1.55e-01	0	40	0	25165824	67	9610
2026-01-29 08:25:56.68	103.99	9.01	-48.9	-58.9	5.1	4.90e-01	0	40	0	27262976	68	12045
2026-01-29 08:25:57.68	103.88	9.08	-48.9	-59.1	4.9	1.20e+00	0	40	0	28311552	68	12292
2026-01-29 08:25:58.69	103.77	9.15	-48.9	-58.5	5.3	7.41e-01	0	40	0	30408704	68	11508
2026-01-29 08:25:59.69	103.67	9.21	-49.2	-61.4	4.1	7.68e-01	0	40	0	32505856	68	15978
2026-01-29 08:26:00.69	103.56	9.28	-47.5	-53.5	9.3	1.40e+00	0	40	104	32505856	67	6823
2026-01-29 08:26:01.69	103.45	9.35	-49.3	-62.3	4.0	6.31e-03	0	40	0	33554432	69	16777
2026-01-29 08:26:02.69	103.34	9.41	-48.1	-54.9	5.1	1.48e+00	0	40	104	33554432	68	7598
2026-01-29 08:26:03.69	103.23	9.48	-46.8	-51.7	11.4	1.22e-03	0	40	0	34603008	65	6255
2026-01-29 08:26:04.69	103.12	9.55	-46.9	-51.9	11.3	7.70e-04	0	40	0	35651584	65	6369
2026-01-29 08:26:05.69	103.01	9.62	-46.9	-52.0	11.1	1.46e-03	0	40	0	37748736	65	6478
2026-01-29 08:26:06.69	102.90	9.68	-46.9	-51.9	11.3	1.39e-03	0	40	0	39845888	65	6360
2026-01-29 08:26:07.69	102.79	9.75	-47.0	-52.2	10.9	1.10e-03	0	40	0	41943040	65	6607
2026-01-29 08:26:08.69	102.68	9.82	-46.3	-50.7	12.5	6.38e-04	0	40	0	44040192	64	5905
2026-01-29 08:26:09.70	102.57	9.89	-45.8	-49.7	13.7	1.90e-05	0	40	0	45088768	63	5531
2026-01-29 08:26:10.69	102.46	9.95	-45.5	-49.2	14.1	4.50e-06	0	40	0	47185920	62	5567
2026-01-29 08:26:11.70	102.34	10.02	-45.6	-49.3	14.1	7.00e-07	0	40	0	49283072	62	5600
2026-01-29 08:26:12.70	102.23	10.09	-45.6	-49.2	14.1	0.00e+00	0	40	0	51380224	62	5575
2026-01-29 08:26:13.70	102.11	10.16	-45.8	-49.6	13.8	1.50e-06	0	40	0	53477376	62	5816
2026-01-29 08:26:14.70	102.00	10.23	-45.7	-49.6	13.8	6.10e-06	0	40	0	54525952	62	5794
2026-01-29 08:26:15.70	101.88	10.30	-46.1	-50.1	13.2	5.30e-06	0	40	0	56623104	62	6180
2026-01-29 08:26:16.70	101.77	10.36	-45.8	-49.6	13.7	9.10e-06	0	40	0	58720256	62	5854
2026-01-29 08:26:17.71	101.65	10.43	-45.4	-48.9	14.4	2.20e-06	0	40	0	60817408	62	5373
2026-01-29 08:26:18.71	101.53	10.50	-45.2	-48.6	14.8	1.50e-06	0	40	0	61865984	62	5210
2026-01-29 08:26:19.71	101.41	10.57	-44.8	-48.1	15.3	0.00e+00	0	40	0	63963136	61	5160
2026-01-29 08:26:20.71	101.30	10.64	-44.9	-48.2	15.1	0.00e+00	0	40	0	66060288	61	5238
2026-01-29 08:26:21.71	101.18	10.71	-45.1	-48.5	14.9	0.00e+00	0	40	0	68157440	61	5425
2026-01-29 08:26:22.71	101.06	10.78	-45.1	-48.5	14.8	0.00e+00	0	40	0	70254592	61	5459
2026-01-29 08:26:23.71	100.94	10.84	-45.2	-48.7	14.6	1.50e-06	0	40	0	71303168	61	5565
2026-01-29 08:26:24.72	100.82	10.91	-44.9	-48.2	15.2	7.00e-07	0	40	0	73400320	61	5264
2026-01-29 08:26:25.72	100.70	10.98	-44.6	-47.7	15.7	0.00e+00	0	40	0	75497472	61	4936
2026-01-29 08:26:26.72	100.57	11.05	-44.5	-47.5	15.9	0.00e+00	0	40	0	77594624	60	5132
2026-01-29 08:26:27.72	100.45	11.12	-44.2	-47.1	16.3	0.00e+00	0	40	0	79691776	60	4907
2026-01-29 08:26:28.72	100.33	11.19	-44.2	-47.1	16.2	0.00e+00	0	40	0	80740352	60	4926
2026-01-29 08:26:29.72	100.21	11.26	-44.3	-47.3	16.1	0.00e+00	0	40	0	82837504	60	5036
2026-01-29 08:26:30.72	100.08	11.33	-44.4	-47.5	15.9	0.00e+00	0	40	0	84934656	60	5119
2026-01-29 08:26:31.72	99.96	11.40	-44.5	-47.7	15.7	0.00e+00	0	40	0	87031808	60	5225
2026-01-29 08:26:32.72	99.83	11.47	-44.3	-47.3	16.1	0.00e+00	0	40	0	88080384	60	5014
2026-01-29 08:26:33.72	99.71	11.54	-44.0	-46.8	16.6	0.00e+00	0	40	0	90177536	60	4738
2026-01-29 08:26:34.72	99.58	11.60	-43.8	-46.5	16.8	0.00e+00	0	40	0	92274688	59	4864
2026-01-29 08:26:35.72	99.45	11.67	-43.7	-46.4	16.9	0.00e+00	0	40	0	94371840	59	4783
2026-01-29 08:26:36.72	99.33	11.74	-43.7	-46.4	16.9	0.00e+00	0	40	0	96468992	59	4814
2026-01-29 08:26:37.71	99.20	11.81	-43.9	-46.7	16.6	0.00e+00	0	40	0	97517568	59	4983
2026-01-29 08:26:38.71	99.07	11.88	-44.0	-46.9	16.5	0.00e+00	0	41	0	99614720	59	5043
2026-01-29 08:26:39.71	98.94	11.95	-44.1	-47.1	16.3	0.00e+00	0	40	0	101711872	59	5161
2026-01-29 08:26:40.71	98.81	12.02	-44.0	-46.9	16.5	0.00e+00	0	40	0	103809024	59	5062
2026-01-29 08:26:41.71	98.68	12.09	-44.0	-46.9	16.5	0.00e+00	0	40	0	105906176	59	5049
2026-01-29 08:26:42.72	98.55	12.16	-44.2	-47.2	16.2	0.00e+00	0	40	0	106954752	59	5223
2026-01-29 08:26:43.71	98.42	12.23	-44.2	-47.1	16.3	0.00e+00	0	40	0	109051904	59	5203
2026-01-29 08:26:44.72	98.28	12.30	-44.2	-47.2	16.2	0.00e+00	0	40	0	111149056	59	5224
2026-01-29 08:26:45.72	98.15	12.37	-44.1	-47.0	16.4	0.00e+00	0	40	0	113246208	59	5135
2026-01-29 08:26:46.71	98.02	12.44	-44.2	-47.1	16.3	0.00e+00	0	40	0	115343360	59	5164
2026-01-29 08:26:47.71	97.88	12.51	-44.3	-47.2	16.2	0.00e+00	0	41	0	116391936	59	5253
2026-01-29 08:26:48.72	97.75	12.58	-44.4	-47.4	16.0	0.00e+00	0	40	0	118489088	59	5372
2026-01-29 08:26:49.71	97.61	12.65	-44.4	-47.5	15.9	0.00e+00	0	40	0	120586240	59	5442
2026-01-29 08:26:50.72	97.47	12.72	-44.5	-47.7	15.8	0.00e+00	0	41	0	122683392	60	5223
2026-01-29 08:26:51.72	97.34	12.79	-44.4	-47.4	16.0	0.00e+00	0	40	0	123731968	60	5085
2026-01-29 08:26:52.72	97.20	12.86	-44.3	-47.2	16.3	0.00e+00	0	40	0	125829120	60	4974
2026-01-29 08:26:53.72	97.06	12.93	-44.0	-46.8	16.6	0.00e+00	0	40	0	127926272	60	4749
2026-01-29 08:26:54.72	96.92	13.01	-44.3	-47.2	16.2	0.00e+00	0	40	0	130023424	60	4972
2026-01-29 08:26:55.72	96.78	13.08	-44.5	-47.6	15.9	0.00e+00	0	41	0	132120576	60	5197
2026-01-29 08:26:56.72	96.64	13.15	-44.4	-47.5	16.0	0.00e+00	0	41	0	133169152	60	5104
2026-01-29 08:26:57.72	96.50	13.22	-44.3	-47.3	16.2	0.00e+00	0	40	0	135266304	60	5005
2026-01-29 08:26:58.73	96.36	13.29	-44.2	-47.1	16.4	0.00e+00	0	41	0	137363456	60	4891
2026-01-29 08:26:59.72	96.22	13.36	-44.2	-47.2	16.3	0.00e+00	0	41	0	139460608	60	4928
2026-01-29 08:27:00.73	96.07	13.43	-44.3	-47.3	16.2	0.00e+00	0	41	0	141557760	60	4999
2026-01-29 08:27:01.72	95.93	13.50	-44.3	-47.3	16.2	0.00e+00	0	41	0	142606336	60	5016
2026-01-29 08:27:02.72	95.78	13.57	-44.3	-47.3	16.2	0.00e+00	0	41	0	144703488	60	4997
2026-01-29 08:27:03.72	95.64	13.64	-44.1	-47.0	16.4	0.00e+00	0	40	0	146800640	60	4854
2026-01-29 08:27:04.72	95.49	13.71	-44.0	-46.8	16.6	0.00e+00	0	40	0	148897792	59	5006
2026-01-29 08:27:05.73	95.34	13.78	-43.9	-46.6	16.8	0.00e+00	0	41	0	150994944	59	4901
2026-01-29 08:27:06.73	95.20	13.85	-44.1	-46.9	16.6	0.00e+00	0	41	0	152043520	59	5061
2026-01-29 08:27:07.72	95.05	13.92	-44.2	-47.1	16.3	0.00e+00	0	40	0	154140672	59	5193
2026-01-29 08:27:08.72	94.90	13.99	-44.0	-46.9	16.5	0.00e+00	0	41	0	156237824	59	5057
2026-01-29 08:27:09.73	94.75	14.07	-43.8	-46.5	16.9	0.00e+00	0	40	0	158334976	59	4857
2026-01-29 08:27:10.73	94.60	14.14	-43.7	-46.4	17.0	0.00e+00	0	41	0	159383552	59	4803
2026-01-29 08:27:11.73	94.45	14.21	-44.1	-47.0	16.4	0.00e+00	0	40	0	161480704	59	5128
2026-01-29 08:27:12.73	94.30	14.28	-44.3	-47.2	16.3	0.00e+00	0	41	0	163577856	59	5251
2026-01-29 08:27:13.73	94.14	14.35	-44.5	-47.6	15.9	0.00e+00	0	40	0	165675008	59	5492
2026-01-29 08:27:14.73	93.99	14.42	-44.5	-47.5	16.0	0.00e+00	0	40	0	167772160	60	5138
2026-01-29 08:27:15.74	93.84	14.49	-44.6	-47.7	15.9	0.00e+00	0	40	0	168820736	60	5229
2026-01-29 08:27:16.73	93.68	14.56	-44.5	-47.5	16.0	0.00e+00	0	40	0	170917888	60	5149
2026-01-29 08:27:17.74	93.53	14.63	-44.6	-47.7	15.8	0.00e+00	0	40	0	173015040	60	5266
2026-01-29 08:27:18.74	93.37	14.70	-44.6	-47.6	15.9	0.00e+00	0	40	0	175112192	60	5198
2026-01-29 08:27:19.74	93.21	14.78	-44.5	-47.5	16.0	0.00e+00	0	40	0	177209344	60	5119
2026-01-29 08:27:20.74	93.05	14.85	-44.4	-47.3	16.2	0.00e+00	0	40	0	178257920	60	5006
2026-01-29 08:27:21.74	92.90	14.92	-44.3	-47.2	16.3	0.00e+00	0	41	0	180355072	60	4959
2026-01-29 08:27:22.74	92.74	14.99	-44.2	-47.1	16.4	0.00e+00	0	41	0	182452224	60	4901
2026-01-29 08:27:23.74	92.58	15.06	-44.2	-47.1	16.5	0.00e+00	0	41	0	184549376	60	4878
2026-01-29 08:27:24.75	92.41	15.13	-44.3	-47.3	16.2	0.00e+00	0	41	0	186646528	60	4990
2026-01-29 08:27:25.75	92.25	15.20	-44.5	-47.6	16.0	0.00e+00	0	41	0	187695104	60	5164
2026-01-29 08:27:26.75	92.09	15.27	-44.5	-47.5	16.0	0.00e+00	0	40	0	189792256	60	5141
2026-01-29 08:27:27.75	91.93	15.34	-44.4	-47.3	16.2	0.00e+00	0	40	0	191889408	60	5036
2026-01-29 08:27:28.75	91.76	15.41	-44.4	-47.3	16.2	0.00e+00	0	41	0	193986560	60	5031
2026-01-29 08:27:29.76	91.60	15.48	-44.3	-47.3	16.3	0.00e+00	0	41	0	196083712	60	4992
2026-01-29 08:27:30.76	91.43	15.55	-44.3	-47.2	16.4	0.00e+00	0	41	0	197132288	60	4962
2026-01-29 08:27:31.75	91.27	15.62	-44.3	-47.3	16.3	0.00e+00	0	40	0	199229440	60	4988
2026-01-29 08:27:32.76	91.10	15.70	-44.3	-47.4	16.1	0.00e+00	0	40	0	201326592	60	5064
2026-01-29 08:27:33.76	90.93	15.77	-44.1	-47.0	16.5	0.00e+00	0	41	0	203423744	60	4856
2026-01-29 08:27:34.76	90.76	15.84	-44.0	-46.8	16.7	0.00e+00	0	40	0	204472320	59	4996
2026-01-29 08:27:35.76	90.59	15.91	-43.9	-46.7	16.8	0.00e+00	0	40	0	206569472	59	4970
2026-01-29 08:27:36.76	90.42	15.98	-44.1	-47.0	16.5	0.00e+00	0	41	0	208666624	59	5129
2026-01-29 08:27:37.76	90.25	16.05	-44.3	-47.2	16.3	0.00e+00	0	41	0	210763776	59	5258
2026-01-29 08:27:38.76	90.08	16.12	-44.4	-47.4	16.1	0.00e+00	0	40	0	212860928	59	5365
2026-01-29 08:27:39.76	89.91	16.19	-44.4	-47.4	16.1	0.00e+00	0	40	0	213909504	59	5388
2026-01-29 08:27:40.76	89.73	16.26	-44.5	-47.6	15.9	0.00e+00	0	40	0	216006656	59	5480
2026-01-29 08:27:41.76	89.56	16.33	-44.2	-47.1	16.4	0.00e+00	0	40	0	218103808	59	5177
2026-01-29 08:27:42.76	89.38	16.40	-44.3	-47.2	16.4	0.00e+00	0	41	0	220200960	59	5252
2026-01-29 08:27:43.76	89.21	16.47	-44.5	-47.6	16.0	0.00e+00	0	40	0	222298112	59	5473
2026-01-29 08:27:44.76	89.03	16.54	-44.8	-48.1	15.5	0.00e+00	0	40	0	223346688	60	5475
2026-01-29 08:27:45.76	88.85	16.61	-44.6	-47.8	15.8	0.00e+00	0	41	0	225443840	60	5301
2026-01-29 08:27:46.76	88.67	16.68	-44.6	-47.7	15.9	0.00e+00	0	41	0	227540992	60	5233
2026-01-29 08:27:47.76	88.49	16.75	-44.2	-47.2	16.4	0.00e+00	0	41	0	229638144	60	4935
2026-01-29 08:27:48.76	88.31	16.82	-44.0	-46.8	16.7	0.00e+00	0	40	0	230686720	59	5012
2026-01-29 08:27:49.76	88.13	16.88	-43.9	-46.7	16.8	0.00e+00	0	41	0	232783872	59	4958
2026-01-29 08:27:50.76	87.95	16.95	-44.0	-46.8	16.7	0.00e+00	0	41	0	234881024	59	5025
2026-01-29 08:27:51.76	87.77	17.02	-44.2	-47.1	16.4	0.00e+00	0	40	0	236978176	59	5206
2026-01-29 08:27:52.76	87.58	17.09	-43.9	-46.7	16.8	0.00e+00	0	40	0	239075328	59	4964
2026-01-29 08:27:53.76	87.40	17.16	-43.3	-46.0	17.5	0.00e+00	0	40	0	240123904	58	4849
2026-01-29 08:27:54.77	87.21	17.23	-43.4	-46.1	17.4	0.00e+00	0	41	0	242221056	58	4901
2026-01-29 08:27:55.76	87.03	17.30	-43.5	-46.2	17.3	0.00e+00	0	41	0	244318208	58	4962
2026-01-29 08:27:56.77	86.84	17.37	-43.6	-46.5	17.0	0.00e+00	0	40	0	246415360	58	5116
2026-01-29 08:27:57.77	86.65	17.44	-43.7	-46.5	17.0	0.00e+00	0	40	0	248512512	58	5126
2026-01-29 08:27:58.77	86.46	17.50	-43.5	-46.2	17.3	0.00e+00	0	41	0	249561088	58	4938
2026-01-29 08:27:59.77	86.27	17.57	-43.4	-46.1	17.4	0.00e+00	0	41	0	251658240	58	4915
2026-01-29 08:28:00.77	86.08	17.64	-43.4	-46.1	17.4	0.00e+00	0	41	0	253755392	58	4897
2026-01-29 08:28:01.77	85.89	17.71	-43.4	-46.2	17.3	0.00e+00	0	40	0	255852544	58	4944
2026-01-29 08:28:02.77	85.70	17.78	-43.3	-46.0	17.5	0.00e+00	0	41	0	257949696	58	4818
2026-01-29 08:28:03.77	85.51	17.84	-43.1	-45.7	17.8	0.00e+00	0	40	0	258998272	58	4681
2026-01-29 08:28:04.77	85.31	17.91	-43.0	-45.6	17.9	0.00e+00	0	41	0	261095424	57	4897
2026-01-29 08:28:05.78	85.12	17.98	-42.9	-45.4	18.0	0.00e+00	0	41	0	263192576	57	4811
2026-01-29 08:28:06.78	84.92	18.05	-43.0	-45.6	17.8	0.00e+00	0	41	0	265289728	57	4909
2026-01-29 08:28:07.77	84.73	18.11	-42.8	-45.4	18.0	0.00e+00	0	40	0	266338304	57	4789
2026-01-29 08:28:08.78	84.53	18.18	-42.7	-45.3	18.2	0.00e+00	0	40	0	268435456	57	4712
2026-01-29 08:28:09.77	84.33	18.25	-42.7	-45.3	18.1	0.00e+00	0	40	0	270532608	57	4723
2026-01-29 08:28:10.77	84.13	18.31	-42.7	-45.3	18.1	0.00e+00	0	41	0	272629760	57	4721
2026-01-29 08:28:11.77	83.93	18.38	-42.8	-45.3	18.2	0.00e+00	0	41	0	274726912	57	4735
2026-01-29 08:28:12.78	83.73	18.45	-42.7	-45.2	18.2	0.00e+00	0	40	0	275775488	57	4695
2026-01-29 08:28:13.77	83.53	18.51	-42.5	-44.9	18.5	0.00e+00	0	41	0	277872640	56	4792
2026-01-29 08:28:14.78	83.32	18.58	-42.5	-44.9	18.5	0.00e+00	0	40	0	279969792	56	4811
2026-01-29 08:28:15.78	83.12	18.64	-42.4	-44.8	18.6	0.00e+00	0	40	0	282066944	56	4741
2026-01-29 08:28:16.78	82.92	18.71	-42.3	-44.6	18.8	0.00e+00	0	41	0	284164096	56	4645
2026-01-29 08:28:17.78	82.71	18.77	-42.1	-44.4	18.9	0.00e+00	0	41	0	285212672	56	4544
2026-01-29 08:28:18.78	82.51	18.84	-42.1	-44.5	18.9	0.00e+00	0	41	0	287309824	56	4563
2026-01-29 08:28:19.78	82.30	18.90	-41.8	-44.1	19.1	0.00e+00	0	40	0	289406976	55	4640
2026-01-29 08:28:20.78	82.09	18.97	-42.0	-44.3	18.9	0.00e+00	0	41	0	291504128	55	4725
2026-01-29 08:28:21.78	81.88	19.03	-42.0	-44.3	18.9	0.00e+00	0	41	0	292552704	55	4758
2026-01-29 08:28:22.79	81.67	19.10	-41.9	-44.2	19.0	0.00e+00	0	41	0	294649856	55	4704
2026-01-29 08:28:23.79	81.46	19.16	-41.9	-44.2	19.0	0.00e+00	0	40	0	296747008	55	4669
2026-01-29 08:28:24.79	81.25	19.22	-42.1	-44.4	18.8	0.00e+00	0	40	0	298844160	55	4803
2026-01-29 08:28:25.79	81.04	19.29	-42.5	-45.0	18.3	0.00e+00	0	41	0	300941312	55	5134
2026-01-29 08:28:26.79	80.82	19.35	-42.6	-45.1	18.2	0.00e+00	0	41	0	303038464	55	5198
2026-01-29 08:28:27.79	80.61	19.41	-42.8	-45.4	18.1	0.00e+00	0	41	0	304087040	56	5048
2026-01-29 08:28:28.79	80.39	19.48	-42.6	-45.0	18.5	0.00e+00	0	40	0	306184192	56	4832
2026-01-29 08:28:29.79	80.18	19.54	-42.4	-44.8	18.6	0.00e+00	0	40	0	308281344	56	4736
2026-01-29 08:28:30.80	79.96	19.60	-42.4	-44.8	18.6	0.00e+00	0	41	0	310378496	56	4755
2026-01-29 08:28:31.80	79.74	19.66	-42.5	-45.0	18.5	0.00e+00	0	41	0	311427072	56	4829
2026-01-29 08:28:32.80	79.52	19.72	-42.5	-44.9	18.5	0.00e+00	0	40	0	313524224	56	4802
2026-01-29 08:28:33.80	79.30	19.78	-42.3	-44.8	18.7	0.00e+00	0	41	0	315621376	56	4707
2026-01-29 08:28:34.80	79.08	19.85	-42.2	-44.5	18.9	0.00e+00	0	40	0	317718528	56	4580
2026-01-29 08:28:35.80	78.86	19.91	-42.1	-44.4	19.0	0.00e+00	0	41	0	319815680	56	4517
2026-01-29 08:28:36.80	78.64	19.97	-42.3	-44.6	18.9	0.00e+00	0	40	0	320864256	56	4638
2026-01-29 08:28:37.80	78.42	20.03	-42.4	-44.8	18.7	0.00e+00	0	40	0	322961408	56	4738
2026-01-29 08:28:38.80	78.19	20.09	-42.2	-44.7	18.6	0.00e+00	0	41	0	325058560	56	4693
2026-01-29 08:28:39.80	77.97	20.15	-41.8	-44.2	18.9	0.00e+00	0	41	0	327155712	55	4671
2026-01-29 08:28:40.80	77.74	20.20	-41.7	-44.2	18.9	0.00e+00	0	41	0	329252864	55	4656
2026-01-29 08:28:41.80	77.51	20.26	-41.8	-44.2	18.9	0.00e+00	0	41	0	330301440	55	4705
2026-01-29 08:28:42.80	77.29	20.32	-41.7	-44.1	19.0	0.00e+00	0	41	0	332398592	55	4649
2026-01-29 08:28:43.80	77.06	20.38	-41.6	-44.0	19.1	0.00e+00	0	40	0	334495744	55	4590
2026-01-29 08:28:44.81	76.83	20.44	-41.5	-43.8	19.3	0.00e+00	0	41	0	336592896	54	4746
2026-01-29 08:28:45.80	76.60	20.49	-41.3	-43.6	19.4	0.00e+00	0	40	0	337641472	54	4626
2026-01-29 08:28:46.80	76.37	20.55	-41.4	-43.8	19.3	0.00e+00	0	41	0	339738624	54	4724
2026-01-29 08:28:47.80	76.14	20.61	-41.6	-43.9	19.2	0.00e+00	0	40	0	341835776	54	4795
2026-01-29 08:28:48.80	75.91	20.66	-41.8	-44.1	19.0	0.00e+00	0	41	0	343932928	54	4918
2026-01-29 08:28:49.80	75.67	20.72	-41.5	-43.8	19.3	0.00e+00	0	40	0	346030080	54	4754
2026-01-29 08:28:50.81	75.44	20.78	-41.4	-43.7	19.4	0.00e+00	0	41	0	347078656	54	4678
2026-01-29 08:28:51.81	75.20	20.83	-41.4	-43.7	19.4	0.00e+00	0	40	0	349175808	54	4667
2026-01-29 08:28:52.80	74.97	20.88	-41.5	-43.8	19.3	0.00e+00	0	41	0	351272960	54	4739
2026-01-29 08:28:53.81	74.73	20.94	-41.8	-44.1	19.1	0.00e+00	0	41	0	353370112	54	4914
2026-01-29 08:28:54.81	74.49	20.99	-41.8	-44.1	19.0	0.00e+00	0	41	0	355467264	54	4910
2026-01-29 08:28:55.81	74.25	21.05	-41.7	-44.0	19.1	0.00e+00	0	41	0	356515840	54	4870
2026-01-29 08:28:56.81	74.01	21.10	-41.9	-44.3	18.9	0.00e+00	0	41	0	358612992	54	5016
2026-01-29 08:28:57.81	73.77	21.15	-42.0	-44.4	18.8	0.00e+00	0	40	0	360710144	54	5059
2026-01-29 08:28:58.81	73.53	21.20	-41.8	-44.2	19.0	0.00e+00	0	41	0	362807296	54	4945
2026-01-29 08:28:59.81	73.29	21.26	-41.9	-44.3	18.9	0.00e+00	0	41	0	364904448	54	5004
2026-01-29 08:29:00.81	73.05	21.31	-42.1	-44.5	18.7	0.00e+00	0	41	0	365953024	54	5122
2026-01-29 08:29:01.81	72.81	21.36	-42.0	-44.4	18.8	0.00e+00	0	41	0	368050176	55	4790
2026-01-29 08:29:02.81	72.56	21.41	-41.8	-44.1	19.1	0.00e+00	0	41	0	370147328	55	4626
2026-01-29 08:29:03.81	72.32	21.46	-41.7	-44.1	19.1	0.00e+00	0	41	0	372244480	55	4599
2026-01-29 08:29:04.81	72.07	21.51	-41.8	-44.2	19.0	0.00e+00	0	41	0	373293056	55	4670
2026-01-29 08:29:05.81	71.82	21.56	-42.0	-44.4	18.8	0.00e+00	0	41	0	375390208	55	4776
2026-01-29 08:29:06.82	71.57	21.61	-41.9	-44.3	18.9	0.00e+00	0	41	0	377487360	55	4744
2026-01-29 08:29:07.82	71.33	21.65	-41.6	-43.9	19.3	0.00e+00	0	40	0	379584512	55	4501
2026-01-29 08:29:08.82	71.08	21.70	-41.4	-43.6	19.4	0.00e+00	0	41	0	381681664	54	4645
2026-01-29 08:29:09.82	70.83	21.75	-41.4	-43.7	19.4	0.00e+00	0	40	0	382730240	54	4668
2026-01-29 08:29:10.82	70.58	21.80	-41.4	-43.7	19.4	0.00e+00	0	41	0	384827392	54	4679
2026-01-29 08:29:11.82	70.33	21.84	-41.5	-43.8	19.3	0.00e+00	0	41	0	386924544	54	4748
2026-01-29 08:29:12.82	70.08	21.89	-41.6	-43.9	19.3	0.00e+00	0	41	0	389021696	54	4786
2026-01-29 08:29:13.82	69.82	21.93	-41.5	-43.8	19.3	0.00e+00	0	41	0	391118848	54	4742
2026-01-29 08:29:14.82	69.57	21.98	-41.4	-43.7	19.5	0.00e+00	0	41	0	392167424	54	4690
2026-01-29 08:29:15.83	69.31	22.02	-41.4	-43.7	19.4	0.00e+00	0	41	0	394264576	54	4689
2026-01-29 08:29:16.82	69.06	22.06	-41.5	-43.8	19.4	0.00e+00	0	41	0	396361728	54	4729
2026-01-29 08:29:17.83	68.80	22.11	-41.6	-43.9	19.3	0.00e+00	0	41	0	398458880	54	4797
2026-01-29 08:29:18.83	68.55	22.15	-41.6	-43.8	19.3	0.00e+00	0	41	0	400556032	54	4759
2026-01-29 08:29:19.83	68.29	22.19	-41.9	-44.2	19.0	0.00e+00	0	41	0	401604608	54	4979
2026-01-29 08:29:20.83	68.03	22.23	-42.2	-44.6	18.6	0.00e+00	0	41	0	403701760	55	4926
2026-01-29 08:29:21.83	67.77	22.27	-42.5	-45.0	18.4	0.00e+00	0	41	0	405798912	55	5135
2026-01-29 08:29:22.83	67.52	22.32	-42.7	-45.2	18.3	0.00e+00	0	41	0	407896064	56	4943
2026-01-29 08:29:23.83	67.26	22.35	-42.7	-45.3	18.2	0.00e+00	0	41	0	409993216	56	4988
2026-01-29 08:29:24.84	66.99	22.39	-43.0	-45.7	17.8	0.00e+00	0	41	0	411041792	56	5223
2026-01-29 08:29:25.84	66.73	22.43	-43.4	-46.2	17.3	0.00e+00	0	41	0	413138944	57	5265
2026-01-29 08:29:26.84	66.47	22.47	-43.6	-46.4	17.1	0.00e+00	0	41	0	415236096	57	5380
2026-01-29 08:29:27.84	66.21	22.51	-43.7	-46.6	17.0	0.00e+00	0	41	0	417333248	58	5176
2026-01-29 08:29:28.84	65.95	22.55	-43.6	-46.4	17.2	0.00e+00	0	41	0	418381824	58	5090
2026-01-29 08:29:29.84	65.68	22.58	-43.5	-46.3	17.2	0.00e+00	0	41	0	420478976	58	5009
2026-01-29 08:29:30.85	65.42	22.62	-43.4	-46.2	17.3	0.00e+00	0	41	0	422576128	58	4947
2026-01-29 08:29:31.84	65.15	22.65	-43.4	-46.1	17.4	0.00e+00	0	40	0	424673280	58	4901
2026-01-29 08:29:32.85	64.89	22.69	-43.1	-45.8	17.6	0.00e+00	0	40	0	426770432	58	4728
2026-01-29 08:29:33.85	64.62	22.72	-43.0	-45.7	17.8	0.00e+00	0	41	0	427819008	58	4656
2026-01-29 08:29:34.84	64.36	22.75	-43.0	-45.7	17.8	0.00e+00	0	40	0	429916160	57	4930
2026-01-29 08:29:35.85	64.09	22.79	-42.7	-45.2	18.2	0.00e+00	0	41	0	432013312	57	4700
2026-01-29 08:29:36.85	63.82	22.82	-42.9	-45.5	17.9	0.00e+00	0	41	0	434110464	57	4858
2026-01-29 08:29:37.85	63.55	22.85	-42.8	-45.5	17.9	0.00e+00	0	41	0	436207616	57	4822
2026-01-29 08:29:38.85	63.28	22.88	-42.8	-45.4	18.0	0.00e+00	0	40	0	437256192	57	4778
2026-01-29 08:29:39.85	63.02	22.91	-42.8	-45.4	18.0	0.00e+00	0	41	0	439353344	57	4807
2026-01-29 08:29:40.85	62.75	22.94	-43.0	-45.7	17.8	0.00e+00	0	41	0	441450496	57	4954
2026-01-29 08:29:41.85	62.48	22.97	-42.9	-45.6	17.8	0.00e+00	0	40	0	443547648	57	4911
2026-01-29 08:29:42.85	62.21	23.00	-43.0	-45.8	17.7	0.00e+00	0	41	0	445644800	57	4991
2026-01-29 08:29:43.85	61.93	23.02	-43.3	-46.2	17.2	0.00e+00	0	41	0	446693376	57	5243
2026-01-29 08:29:44.86	61.66	23.05	-43.4	-46.3	17.1	0.00e+00	0	40	0	448790528	57	5295
2026-01-29 08:29:45.86	61.39	23.08	-43.3	-46.1	17.3	0.00e+00	0	40	0	450887680	57	5207
2026-01-29 08:29:46.86	61.12	23.10	-43.3	-46.1	17.4	0.00e+00	0	40	0	452984832	57	5166
2026-01-29 08:29:47.86	60.84	23.13	-43.2	-45.9	17.5	0.00e+00	0	41	0	454033408	57	5097
2026-01-29 08:29:48.86	60.57	23.15	-43.3	-46.1	17.2	0.00e+00	0	41	0	456130560	57	5185
2026-01-29 08:29:49.86	60.30	23.17	-43.7	-46.6	16.9	0.00e+00	0	41	0	458227712	58	5162
2026-01-29 08:29:50.87	60.02	23.20	-43.7	-46.6	16.9	0.00e+00	0	41	0	460324864	58	5214
2026-01-29 08:29:51.86	59.75	23.22	-43.6	-46.5	17.0	0.00e+00	0	41	0	462422016	58	5136
2026-01-29 08:29:52.86	59.47	23.24	-43.6	-46.5	16.9	0.00e+00	0	41	0	463470592	58	5146
2026-01-29 08:29:53.86	59.20	23.26	-43.8	-46.8	16.7	0.00e+00	0	41	0	465567744	58	5287
2026-01-29 08:29:54.86	58.92	23.28	-43.8	-46.7	16.7	0.00e+00	0	40	0	467664896	58	5274
2026-01-29 08:29:55.86	58.65	23.30	-43.6	-46.5	16.9	0.00e+00	0	41	0	469762048	58	5152
2026-01-29 08:29:56.86	58.37	23.32	-43.6	-46.5	17.0	0.00e+00	0	41	0	471859200	58	5129
2026-01-29 08:29:57.86	58.09	23.34	-43.8	-46.7	16.8	0.00e+00	0	41	0	472907776	58	5248
2026-01-29 08:29:58.86	57.82	23.35	-43.8	-46.7	16.8	0.00e+00	0	41	0	475004928	58	5278
2026-01-29 08:29:59.87	57.54	23.37	-44.0	-47.0	16.5	0.00e+00	0	41	0	477102080	58	5461
2026-01-29 08:30:00.87	57.26	23.39	-44.1	-47.2	16.4	0.00e+00	0	40	0	479199232	58	5541
2026-01-29 08:30:01.87	56.98	23.40	-44.2	-47.3	16.1	0.00e+00	0	41	0	480247808	59	5339
2026-01-29 08:30:02.87	56.71	23.42	-44.4	-47.6	16.0	0.00e+00	0	41	0	482344960	59	5496
2026-01-29 08:30:03.87	56.43	23.43	-44.4	-47.8	15.8	0.00e+00	0	41	0	484442112	59	5603
2026-01-29 08:30:04.87	56.15	23.44	-44.6	-47.9	15.7	0.00e+00	0	40	0	486539264	59	5714
2026-01-29 08:30:05.87	55.87	23.45	-44.2	-47.4	16.1	0.00e+00	0	41	0	488636416	59	5374
2026-01-29 08:30:06.87	55.59	23.46	-44.0	-47.1	16.4	0.00e+00	0	41	0	489684992	59	5204
2026-01-29 08:30:07.87	55.31	23.48	-43.6	-46.5	16.9	0.00e+00	0	41	0	491782144	59	4845
2026-01-29 08:30:08.87	55.03	23.49	-43.3	-46.1	17.3	0.00e+00	0	41	0	493879296	58	4902
2026-01-29 08:30:09.88	54.75	23.49	-43.2	-46.0	17.4	0.00e+00	0	41	0	495976448	58	4861
2026-01-29 08:30:10.88	54.47	23.50	-42.8	-45.5	17.9	0.00e+00	0	41	0	498073600	57	4843
2026-01-29 08:30:11.87	54.20	23.51	-42.7	-45.3	18.0	0.00e+00	0	41	0	499122176	57	4753
2026-01-29 08:30:12.87	53.92	23.52	-42.8	-45.4	17.9	0.00e+00	0	41	0	501219328	57	4811
2026-01-29 08:30:13.88	53.63	23.52	-43.0	-45.8	17.6	0.00e+00	0	41	0	503316480	57	4995
2026-01-29 08:30:14.88	53.35	23.53	-43.2	-46.0	17.3	0.00e+00	0	41	0	505413632	57	5156
2026-01-29 08:30:15.88	53.07	23.53	-43.2	-46.1	17.4	0.00e+00	0	41	0	507510784	57	5188
2026-01-29 08:30:16.88	52.79	23.54	-43.1	-46.0	17.4	0.00e+00	0	41	0	508559360	57	5106
2026-01-29 08:30:17.88	52.51	23.54	-42.9	-45.6	17.7	0.00e+00	0	41	0	510656512	57	4896
2026-01-29 08:30:18.89	52.23	23.54	-42.7	-45.3	18.0	0.00e+00	0	41	0	512753664	57	4740
2026-01-29 08:30:19.89	51.95	23.55	-42.8	-45.5	17.8	0.00e+00	0	40	0	514850816	57	4826
2026-01-29 08:30:20.89	51.67	23.55	-43.0	-45.7	17.7	0.00e+00	0	41	0	516947968	57	4963
2026-01-29 08:30:21.90	51.39	23.55	-43.1	-45.8	17.6	0.00e+00	0	41	0	517996544	57	5013
2026-01-29 08:30:22.90	51.11	23.55	-43.1	-45.8	17.6	0.00e+00	0	41	0	520093696	57	5007
2026-01-29 08:30:23.90	50.83	23.55	-42.8	-45.5	17.9	0.00e+00	0	41	0	522190848	57	4833
2026-01-29 08:30:24.90	50.55	23.54	-42.8	-45.4	17.9	0.00e+00	0	41	0	524288000	57	4806
2026-01-29 08:30:25.90	50.27	23.54	-42.8	-45.4	18.0	0.00e+00	0	41	0	525336576	57	4795
2026-01-29 08:30:26.90	49.99	23.54	-42.8	-45.5	17.9	0.00e+00	0	41	0	527433728	57	4817
2026-01-29 08:30:27.90	49.71	23.53	-42.7	-45.3	18.1	0.00e+00	0	40	0	529530880	57	4725
2026-01-29 08:30:28.90	49.43	23.53	-42.8	-45.4	18.0	0.00e+00	0	41	0	531628032	57	4808
2026-01-29 08:30:29.90	49.15	23.52	-42.6	-45.1	18.3	0.00e+00	0	41	0	533725184	57	4640
2026-01-29 08:30:30.91	48.86	23.52	-42.5	-45.1	18.3	0.00e+00	0	41	0	534773760	57	4616
2026-01-29 08:30:31.90	48.59	23.51	-42.4	-45.0	18.4	0.00e+00	0	41	0	536870912	56	4831
2026-01-29 08:30:32.90	48.31	23.50	-42.7	-45.3	18.1	0.00e+00	0	40	0	538968064	56	5039
2026-01-29 08:30:33.90	48.03	23.49	-43.0	-45.7	17.8	0.00e+00	0	41	0	541065216	56	5235
2026-01-29 08:30:34.90	47.75	23.49	-42.8	-45.5	18.0	0.00e+00	0	41	0	543162368	56	5103
2026-01-29 08:30:35.90	47.47	23.48	-42.5	-45.0	18.4	0.00e+00	0	41	0	544210944	56	4843
2026-01-29 08:30:36.90	47.19	23.46	-42.2	-44.6	18.7	0.00e+00	0	41	0	546308096	56	4613
2026-01-29 08:30:37.90	46.91	23.45	-42.1	-44.4	18.9	0.00e+00	0	41	0	548405248	56	4531
2026-01-29 08:30:38.90	46.63	23.44	-41.7	-43.9	19.3	0.00e+00	0	41	0	550502400	55	4545
2026-01-29 08:30:39.91	46.35	23.43	-41.6	-43.9	19.2	0.00e+00	0	41	0	552599552	55	4545
2026-01-29 08:30:40.91	46.08	23.41	-41.7	-44.0	19.2	0.00e+00	0	40	0	553648128	55	4556
2026-01-29 08:30:41.91	45.80	23.40	-41.6	-43.9	19.3	0.00e+00	0	41	0	555745280	55	4495
2026-01-29 08:30:42.91	45.52	23.39	-41.4	-43.6	19.6	0.00e+00	0	41	0	557842432	54	4631
2026-01-29 08:30:43.91	45.24	23.37	-41.1	-43.3	19.8	0.00e+00	0	41	0	559939584	54	4456
2026-01-29 08:30:44.91	44.97	23.35	-40.7	-42.8	20.2	0.00e+00	0	41	0	560988160	53	4456
2026-01-29 08:30:45.91	44.69	23.34	-40.9	-43.1	20.0	0.00e+00	0	41	0	563085312	53	4615
2026-01-29 08:30:46.91	44.41	23.32	-41.0	-43.2	19.9	0.00e+00	0	41	0	565182464	53	4661
2026-01-29 08:30:47.91	44.14	23.30	-41.1	-43.3	19.9	0.00e+00	0	41	0	567279616	53	4711
2026-01-29 08:30:48.91	43.86	23.28	-41.0	-43.2	19.9	0.00e+00	0	41	0	569376768	53	4678
2026-01-29 08:30:49.91	43.59	23.26	-41.2	-43.4	19.8	0.00e+00	0	41	0	570425344	53	4789
2026-01-29 08:30:50.91	43.31	23.24	-41.4	-43.6	19.6	0.00e+00	0	41	0	572522496	53	4905
2026-01-29 08:30:51.91	43.04	23.22	-41.3	-43.6	19.6	0.00e+00	0	40	0	574619648	53	4885
2026-01-29 08:30:52.91	42.76	23.20	-41.6	-43.9	19.4	0.00e+00	0	41	0	576716800	53	5050
2026-01-29 08:30:53.92	42.49	23.17	-41.7	-44.0	19.2	0.00e+00	0	41	0	578813952	54	4836
2026-01-29 08:30:54.92	42.22	23.15	-41.6	-43.9	19.3	0.00e+00	0	40	0	579862528	54	4780
2026-01-29 08:30:55.92	41.94	23.13	-41.7	-44.0	19.3	0.00e+00	0	41	0	581959680	54	4833
2026-01-29 08:30:56.92	41.67	23.10	-41.7	-44.0	19.3	0.00e+00	0	40	0	584056832	54	4823
2026-01-29 08:30:57.92	41.40	23.08	-41.8	-44.1	19.2	0.00e+00	0	41	0	586153984	54	4880
2026-01-29 08:30:58.92	41.13	23.05	-41.7	-43.9	19.3	0.00e+00	0	41	0	587202560	54	4813
2026-01-29 08:30:59.92	40.86	23.02	-41.7	-44.0	19.3	0.00e+00	0	41	0	589299712	54	4852
2026-01-29 08:31:00.93	40.58	23.00	-41.7	-44.0	19.3	0.00e+00	0	41	0	591396864	54	4834
2026-01-29 08:31:01.93	40.31	22.97	-41.9	-44.2	19.0	0.00e+00	0	41	0	593494016	54	4939
2026-01-29 08:31:02.93	40.04	22.94	-42.2	-44.6	18.8	0.00e+00	0	41	0	595591168	54	5167
2026-01-29 08:31:03.93	39.77	22.91	-42.6	-45.1	18.2	0.00e+00	0	41	0	596639744	55	5194
2026-01-29 08:31:04.93	39.51	22.88	-42.5	-45.0	18.3	0.00e+00	0	41	0	598736896	55	5113
2026-01-29 08:31:05.93	39.24	22.85	-42.4	-44.9	18.4	0.00e+00	0	41	0	600834048	55	5052
2026-01-29 08:31:06.93	38.97	22.82	-42.3	-44.8	18.5	0.00e+00	0	41	0	602931200	55	5001
2026-01-29 08:31:07.92	38.71	22.79	-42.5	-45.0	18.4	0.00e+00	0	41	0	605028352	55	5131
2026-01-29 08:31:08.92	38.44	22.75	-42.1	-44.5	18.8	0.00e+00	0	41	0	606076928	55	4831
2026-01-29 08:31:09.92	38.17	22.72	-42.1	-44.5	18.7	0.00e+00	0	40	0	608174080	55	4845
2026-01-29 08:31:10.92	37.91	22.69	-42.4	-44.9	18.4	0.00e+00	0	40	0	610271232	55	5044
2026-01-29 08:31:11.92	37.65	22.65	-42.8	-45.3	18.2	0.00e+00	0	41	0	612368384	56	4997
2026-01-29 08:31:12.93	37.38	22.62	-42.8	-45.3	18.2	0.00e+00	0	41	0	614465536	56	5027
2026-01-29 08:31:13.93	37.12	22.58	-43.0	-45.6	17.9	0.00e+00	0	40	0	615514112	56	5202
2026-01-29 08:31:14.93	36.85	22.55	-43.2	-45.9	17.7	0.00e+00	0	41	0	617611264	57	5056
2026-01-29 08:31:15.93	36.59	22.51	-43.2	-45.9	17.6	0.00e+00	0	41	0	619708416	57	5064
2026-01-29 08:31:16.93	36.33	22.47	-43.4	-46.1	17.4	0.00e+00	0	40	0	621805568	57	5203
2026-01-29 08:31:17.93	36.07	22.43	-43.5	-46.3	17.2	0.00e+00	0	41	0	622854144	57	5334
2026-01-29 08:31:18.93	35.81	22.39	-43.7	-46.6	17.0	0.00e+00	0	41	0	624951296	58	5164
2026-01-29 08:31:19.93	35.55	22.36	-43.6	-46.4	17.1	0.00e+00	0	41	0	627048448	58	5087
2026-01-29 08:31:20.93	35.29	22.32	-43.7	-46.6	16.9	0.00e+00	0	41	0	629145600	58	5206
2026-01-29 08:31:21.94	35.03	22.28	-43.7	-46.6	16.9	0.00e+00	0	41	0	631242752	58	5205
2026-01-29 08:31:22.94	34.77	22.23	-43.5	-46.5	17.0	0.00e+00	0	41	0	633339904	58	5106
2026-01-29 08:31:23.94	34.52	22.19	-43.5	-46.4	17.1	0.00e+00	0	41	0	634388480	58	5065
2026-01-29 08:31:24.94	34.26	22.15	-43.5	-46.4	17.1	0.00e+00	0	41	0	636485632	58	5083
2026-01-29 08:31:25.93	34.01	22.11	-43.5	-46.3	17.2	0.00e+00	0	40	0	638582784	58	5004
2026-01-29 08:31:26.93	33.75	22.07	-43.6	-46.4	17.1	0.00e+00	0	40	0	640679936	58	5077
2026-01-29 08:31:27.93	33.50	22.02	-43.6	-46.5	17.0	0.00e+00	0	41	0	641728512	58	5120
2026-01-29 08:31:28.94	33.24	21.98	-43.5	-46.3	17.2	0.00e+00	0	40	0	643825664	58	5034
2026-01-29 08:31:29.94	32.99	21.93	-43.7	-46.8	16.8	0.00e+00	0	41	0	645922816	58	5293
2026-01-29 08:31:30.94	32.74	21.89	-43.7	-46.8	16.7	0.00e+00	0	41	0	648019968	58	5285
2026-01-29 08:31:31.94	32.49	21.84	-43.6	-46.6	16.9	0.00e+00	0	41	0	650117120	58	5190
2026-01-29 08:31:32.94	32.24	21.80	-43.4	-46.2	17.1	0.00e+00	0	41	0	651165696	58	4973
2026-01-29 08:31:33.94	31.99	21.75	-43.2	-45.9	17.5	0.00e+00	0	41	0	653262848	58	4801
2026-01-29 08:31:34.94	31.74	21.70	-43.2	-46.0	17.5	0.00e+00	0	41	0	655360000	58	4830
2026-01-29 08:31:35.94	31.49	21.66	-43.3	-46.1	17.4	0.00e+00	0	41	0	657457152	58	4886
2026-01-29 08:31:36.94	31.24	21.61	-43.2	-46.0	17.5	0.00e+00	0	41	0	659554304	58	4837
2026-01-29 08:31:37.94	31.00	21.56	-43.1	-45.8	17.7	0.00e+00	0	41	0	660602880	58	4739
2026-01-29 08:31:38.94	30.75	21.51	-43.0	-45.7	17.8	0.00e+00	0	40	0	662700032	58	4698
2026-01-29 08:31:39.94	30.51	21.46	-43.2	-46.0	17.5	0.00e+00	0	41	0	664797184	57	5112
2026-01-29 08:31:40.94	30.26	21.41	-43.4	-46.3	17.2	0.00e+00	0	41	0	666894336	57	5313
2026-01-29 08:31:41.94	30.02	21.36	-43.5	-46.4	17.1	0.00e+00	0	41	0	667942912	57	5400
2026-01-29 08:31:42.94	29.78	21.31	-43.9	-47.0	16.5	0.00e+00	0	41	0	670040064	58	5415
2026-01-29 08:31:43.93	29.54	21.26	-44.1	-47.2	16.3	0.00e+00	0	41	0	672137216	58	5554
2026-01-29 08:31:44.93	29.30	21.21	-44.2	-47.4	16.1	0.00e+00	0	41	0	674234368	59	5349
2026-01-29 08:31:45.94	29.06	21.16	-43.9	-47.0	16.5	0.00e+00	0	41	0	676331520	59	5116
2026-01-29 08:31:46.93	28.82	21.10	-43.7	-46.7	16.7	0.00e+00	0	41	0	677380096	59	4970
2026-01-29 08:31:47.94	28.58	21.05	-43.5	-46.4	17.1	0.00e+00	0	41	0	679477248	58	5083
2026-01-29 08:31:48.94	28.34	21.00	-43.7	-46.6	16.9	0.00e+00	0	40	0	681574400	58	5195
2026-01-29 08:31:49.94	28.10	20.94	-43.5	-46.4	17.0	0.00e+00	0	41	0	683671552	58	5080
2026-01-29 08:31:50.94	27.87	20.89	-43.6	-46.5	16.9	0.00e+00	0	41	0	685768704	58	5140
2026-01-29 08:31:51.94	27.63	20.84	-44.0	-47.1	16.3	0.00e+00	0	41	0	686817280	58	5475
2026-01-29 08:31:52.94	27.40	20.78	-44.5	-47.9	15.6	0.00e+00	0	41	0	688914432	59	5700
2026-01-29 08:31:53.93	27.17	20.73	-44.5	-48.0	15.5	0.00e+00	0	41	0	691011584	59	5750
2026-01-29 08:31:54.93	26.94	20.67	-44.3	-48.0	15.6	0.00e+00	0	41	0	693108736	60	5408
2026-01-29 08:31:55.94	26.70	20.61	-44.2	-47.8	15.7	0.00e+00	0	41	0	695205888	60	5317
2026-01-29 08:31:56.94	26.47	20.56	-43.7	-47.0	16.5	0.00e+00	0	41	0	696254464	59	5153
2026-01-29 08:31:57.94	26.24	20.50	-43.4	-46.5	17.0	0.00e+00	0	41	0	698351616	58	5149
2026-01-29 08:31:58.95	26.01	20.44	-42.9	-45.9	17.5	0.00e+00	0	41	0	700448768	57	5054
2026-01-29 08:31:59.95	25.78	20.39	-42.8	-45.6	17.8	0.00e+00	0	41	0	702545920	57	4917
2026-01-29 08:32:00.95	25.55	20.33	-42.7	-45.5	17.9	0.00e+00	0	41	0	703594496	57	4866
2026-01-29 08:32:01.95	25.33	20.27	-42.4	-45.2	18.2	0.00e+00	0	41	0	705691648	56	4938
2026-01-29 08:32:02.95	25.10	20.21	-42.6	-45.4	17.9	0.00e+00	0	41	0	707788800	56	5085
2026-01-29 08:32:03.96	24.88	20.15	-42.5	-45.3	18.1	0.00e+00	0	41	0	709885952	56	4999
2026-01-29 08:32:04.96	24.65	20.09	-42.3	-45.0	18.3	0.00e+00	0	41	0	711983104	56	4818
2026-01-29 08:32:05.96	24.43	20.03	-42.5	-45.2	18.1	0.00e+00	0	41	0	713031680	56	4961
2026-01-29 08:32:06.96	24.21	19.97	-42.3	-45.0	18.5	0.00e+00	0	41	0	715128832	56	4821
2026-01-29 08:32:07.95	23.99	19.91	-42.1	-44.6	18.8	0.00e+00	0	41	0	717225984	56	4633
2026-01-29 08:32:08.96	23.77	19.85	-42.1	-44.6	18.8	0.00e+00	0	41	0	719323136	56	4620
2026-01-29 08:32:09.96	23.55	19.79	-41.7	-44.1	19.0	0.00e+00	0	41	0	721420288	55	4635
2026-01-29 08:32:10.96	23.33	19.73	-41.5	-43.9	19.3	0.00e+00	0	40	0	722468864	54	4761
2026-01-29 08:32:11.96	23.11	19.67	-41.3	-43.6	19.5	0.00e+00	0	41	0	724566016	54	4615
2026-01-29 08:32:12.96	22.89	19.61	-41.4	-43.8	19.4	0.00e+00	0	41	0	726663168	54	4723
2026-01-29 08:32:13.96	22.68	19.55	-41.5	-43.8	19.3	0.00e+00	0	41	0	728760320	54	4755
2026-01-29 08:32:14.96	22.46	19.49	-41.2	-43.6	19.5	0.00e+00	0	41	0	729808896	54	4611
2026-01-29 08:32:15.96	22.25	19.42	-41.4	-43.7	19.4	0.00e+00	0	41	0	731906048	54	4701
2026-01-29 08:32:16.96	22.04	19.36	-41.8	-44.3	18.9	0.00e+00	0	41	0	734003200	54	5001
2026-01-29 08:32:17.96	21.82	19.30	-42.2	-44.8	18.5	0.00e+00	0	41	0	736100352	55	4984
2026-01-29 08:32:18.96	21.61	19.24	-42.5	-45.2	18.1	0.00e+00	0	41	0	738197504	55	5255
2026-01-29 08:32:19.96	21.40	19.17	-42.9	-45.7	17.7	0.00e+00	0	41	0	739246080	56	5248
2026-01-29 08:32:20.96	21.19	19.11	-43.1	-46.0	17.5	0.00e+00	0	41	0	741343232	56	5422
2026-01-29 08:32:21.97	20.98	19.04	-43.1	-46.1	17.4	0.00e+00	0	40	0	743440384	57	5182
2026-01-29 08:32:22.96	20.78	18.98	-43.3	-46.3	17.2	0.00e+00	0	41	0	745537536	57	5318
2026-01-29 08:32:23.97	20.57	18.92	-43.4	-46.5	17.0	0.00e+00	0	40	0	747634688	57	5419
2026-01-29 08:32:24.97	20.36	18.85	-43.2	-46.2	17.3	0.00e+00	0	41	0	748683264	57	5238
2026-01-29 08:32:25.96	20.16	18.79	-43.1	-45.9	17.5	0.00e+00	0	41	0	750780416	57	5099
2026-01-29 08:32:26.96	19.95	18.72	-42.9	-45.7	17.7	0.00e+00	0	41	0	752877568	57	4967
2026-01-29 08:32:27.95	19.75	18.66	-42.8	-45.6	17.9	0.00e+00	0	41	0	754974720	57	4876
2026-01-29 08:32:28.95	19.55	18.59	-42.7	-45.5	18.0	0.00e+00	0	41	0	757071872	57	4821
2026-01-29 08:32:29.94	19.35	18.53	-42.5	-45.2	18.2	0.00e+00	0	41	0	758120448	57	4676
2026-01-29 08:32:30.94	19.15	18.46	-42.5	-45.2	18.3	0.00e+00	0	41	0	760217600	57	4652
2026-01-29 08:32:31.93	18.95	18.40	-42.5	-45.2	18.3	0.00e+00	0	41	0	762314752	56	4927
2026-01-29 08:32:32.92	18.76	18.33	-42.1	-44.6	18.8	0.00e+00	0	41	0	764411904	56	4616
2026-01-29 08:32:33.94	18.55	18.26	-41.7	-44.1	19.0	0.00e+00	0	40	0	765460480	55	4641
2026-01-29 08:32:34.96	18.35	18.20	-41.8	-44.2	18.9	0.00e+00	0	41	0	767557632	55	4704
2026-01-29 08:32:35.99	18.15	18.13	-41.9	-44.5	18.7	0.00e+00	0	40	0	769654784	55	4845
2026-01-29 08:32:36.98	17.96	18.06	-42.3	-45.0	18.3	0.00e+00	0	41	0	771751936	55	5104
2026-01-29 08:32:37.98	17.76	18.00	-42.5	-45.3	18.0	0.00e+00	0	40	0	773849088	55	5288
2026-01-29 08:32:38.97	17.57	17.93	-42.5	-45.3	18.0	0.00e+00	0	40	0	774897664	55	5316
2026-01-29 08:32:39.97	17.38	17.86	-42.5	-45.2	18.0	0.00e+00	0	40	0	776994816	55	5230
2026-01-29 08:32:40.96	17.19	17.80	-42.4	-45.1	18.1	0.00e+00	0	40	0	779091968	55	5205
2026-01-29 08:32:41.96	17.00	17.73	-42.3	-44.9	18.3	0.00e+00	0	41	0	781189120	55	5080
2026-01-29 08:32:42.96	16.81	17.66	-42.4	-45.0	18.2	0.00e+00	0	41	0	783286272	55	5133
2026-01-29 08:32:43.95	16.62	17.59	-42.6	-45.3	18.0	0.00e+00	0	41	0	784334848	55	5296
2026-01-29 08:32:44.94	16.43	17.53	-42.9	-45.6	17.8	0.00e+00	0	41	0	786432000	56	5208
2026-01-29 08:32:45.94	16.24	17.46	-43.1	-45.9	17.6	0.00e+00	0	40	0	788529152	56	5355
2026-01-29 08:32:46.93	16.06	17.39	-43.2	-46.0	17.5	0.00e+00	0	40	0	790626304	57	5132
2026-01-29 08:32:47.93	15.87	17.32	-43.1	-45.8	17.7	0.00e+00	0	41	0	791674880	57	5011
2026-01-29 08:32:49.00	15.68	17.25	-42.8	-45.5	18.0	0.00e+00	0	40	0	793772032	57	4827
2026-01-29 08:32:49.85	15.52	17.19	-42.7	-45.3	18.1	0.00e+00	0	41	0	795869184	57	4737
2026-01-29 08:32:50.99	15.31	17.11	-42.5	-45.0	18.3	0.00e+00	0	41	0	797966336	57	4584
2026-01-29 08:32:51.84	15.15	17.05	-42.5	-45.1	18.3	0.00e+00	0	41	0	799014912	56	4905
2026-01-29 08:32:52.98	14.95	16.98	-42.4	-45.1	18.3	0.00e+00	0	40	0	801112064	56	4883
2026-01-29 08:32:53.84	14.79	16.92	-42.3	-45.0	18.4	0.00e+00	0	40	0	803209216	56	4835
2026-01-29 08:32:54.97	14.59	16.84	-42.1	-44.7	18.7	0.00e+00	0	41	0	805306368	56	4657
2026-01-29 08:32:55.83	14.43	16.78	-42.0	-44.5	18.8	0.00e+00	0	40	0	807403520	56	4589
2026-01-29 08:32:56.96	14.23	16.70	-41.9	-44.6	18.6	0.00e+00	0	40	0	809500672	55	4877
2026-01-29 08:32:57.82	14.08	16.64	-41.9	-44.6	18.6	0.00e+00	0	40	0	810549248	55	4876
2026-01-29 08:32:58.95	13.88	16.56	-42.0	-44.7	18.5	0.00e+00	0	40	0	812646400	55	4953
2026-01-29 08:32:59.81	13.73	16.50	-42.3	-45.0	18.3	0.00e+00	0	41	0	814743552	55	5133
2026-01-29 08:33:01.04	13.51	16.42	-42.5	-45.2	18.0	0.00e+00	0	41	0	816840704	55	5265
2026-01-29 08:33:01.89	13.37	16.36	-42.5	-45.2	18.0	0.00e+00	0	41	0	817889280	55	5259
2026-01-29 08:33:03.12	13.15	16.27	-42.3	-45.0	18.3	0.00e+00	0	40	0	821035008	55	5107
2026-01-29 08:33:03.98	13.00	16.21	-42.1	-44.7	18.5	0.00e+00	0	41	0	822083584	55	4961
2026-01-29 08:33:05.11	12.81	16.13	-41.7	-44.2	19.0	0.00e+00	0	40	0	824180736	55	4682
2026-01-29 08:33:05.97	12.66	16.07	-41.7	-44.2	19.0	0.00e+00	0	41	0	826277888	55	4652
2026-01-29 08:33:07.10	12.47	15.99	-41.4	-43.8	19.3	0.00e+00	0	40	0	828375040	54	4752
2026-01-29 08:33:07.96	12.33	15.93	-41.5	-43.9	19.3	0.00e+00	0	40	0	829423616	54	4786
2026-01-29 08:33:09.09	12.14	15.86	-41.5	-43.9	19.2	0.00e+00	0	40	0	831520768	54	4806
2026-01-29 08:33:10.12	11.96	15.78	-41.5	-44.0	19.2	0.00e+00	0	41	0	833617920	54	4837
2026-01-29 08:33:11.11	11.80	15.71	-41.7	-44.2	19.0	0.00e+00	0	40	0	835715072	54	4975
2026-01-29 08:33:12.11	11.63	15.64	-41.8	-44.3	18.9	0.00e+00	0	41	0	837812224	54	5003
2026-01-29 08:33:13.11	11.47	15.57	-41.9	-44.4	18.8	0.00e+00	0	40	0	838860800	54	5085
2026-01-29 08:33:14.10	11.30	15.50	-42.0	-44.6	18.6	0.00e+00	0	41	0	840957952	54	5196
2026-01-29 08:33:15.10	11.14	15.43	-42.1	-44.6	18.6	0.00e+00	0	41	0	843055104	54	5214
2026-01-29 08:33:16.09	10.98	15.36	-42.0	-44.7	18.6	0.00e+00	0	41	0	845152256	54	5224
2026-01-29 08:33:17.09	10.82	15.29	-42.1	-44.7	18.5	0.00e+00	0	40	0	847249408	55	4979
2026-01-29 08:33:18.15	10.65	15.22	-42.2	-44.9	18.4	0.00e+00	0	40	0	848297984	55	5046
2026-01-29 08:33:19.06	10.50	15.15	-42.0	-44.7	18.6	0.00e+00	0	40	0	850395136	55	4931
2026-01-29 08:33:20.06	10.34	15.08	-41.9	-44.4	18.8	0.00e+00	0	41	0	852492288	55	4780
2026-01-29 08:33:21.05	10.18	15.01	-41.6	-44.0	19.1	0.00e+00	0	40	0	854589440	55	4581
2026-01-29 08:33:22.04	10.03	14.94	-41.4	-43.8	19.4	0.00e+00	0	41	0	855638016	54	4721
2026-01-29 08:33:23.04	9.87	14.87	-41.4	-43.7	19.4	0.00e+00	0	40	0	857735168	54	4689
2026-01-29 08:33:24.04	9.71	14.80	-41.6	-43.9	19.2	0.00e+00	0	41	0	859832320	54	4797
2026-01-29 08:33:25.03	9.56	14.73	-41.6	-44.0	19.2	0.00e+00	0	40	0	861929472	54	4849
2026-01-29 08:33:26.03	9.40	14.66	-42.0	-44.5	18.7	0.00e+00	0	40	0	864026624	54	5119
2026-01-29 08:33:27.02	9.25	14.59	-42.3	-44.9	18.3	0.00e+00	0	40	0	865075200	55	5056
2026-01-29 08:33:28.01	9.10	14.52	-42.5	-45.2	18.1	0.00e+00	0	41	0	867172352	55	5235
2026-01-29 08:33:29.07	8.94	14.45	-42.6	-45.4	17.8	0.00e+00	0	40	0	869269504	55	5395
2026-01-29 08:33:29.92	8.81	14.39	-42.9	-45.7	17.7	0.00e+00	0	40	0	871366656	56	5279
2026-01-29 08:33:31.07	8.63	14.31	-43.0	-45.8	17.7	0.00e+00	0	40	0	873463808	56	5304
2026-01-29 08:33:31.92	8.50	14.25	-42.9	-45.7	17.7	0.00e+00	0	40	0	874512384	56	5233
2026-01-29 08:33:33.05	8.34	14.17	-42.6	-45.4	18.0	0.00e+00	0	40	0	876609536	56	5058
2026-01-29 08:33:33.91	8.21	14.11	-42.7	-45.5	17.9	0.00e+00	0	40	0	878706688	56	5123
2026-01-29 08:33:35.05	8.04	14.03	-42.6	-45.5	18.0	0.00e+00	0	40	0	880803840	56	5111
2026-01-29 08:33:35.90	7.91	13.97	-42.5	-45.4	18.0	0.00e+00	0	40	0	881852416	56	5088
2026-01-29 08:33:37.04	7.74	13.89	-42.4	-45.3	18.1	0.00e+00	0	40	0	883949568	56	5010
2026-01-29 08:33:37.89	7.62	13.83	-42.4	-45.2	18.2	0.00e+00	0	41	0	886046720	56	4979
2026-01-29 08:33:39.12	7.44	13.74	-42.2	-45.0	18.4	0.00e+00	0	40	0	888143872	56	4829
2026-01-29 08:33:39.98	7.32	13.68	-42.2	-44.9	18.4	0.00e+00	0	40	0	889192448	56	4802
2026-01-29 08:33:41.11	7.15	13.60	-42.1	-44.8	18.6	0.00e+00	0	40	0	892338176	56	4709
2026-01-29 08:33:41.97	7.03	13.54	-42.1	-44.7	18.6	0.00e+00	0	40	0	893386752	56	4702
2026-01-29 08:33:43.11	6.87	13.46	-42.2	-44.9	18.5	0.00e+00	0	40	0	895483904	56	4772
2026-01-29 08:33:43.96	6.75	13.40	-42.3	-45.0	18.4	0.00e+00	0	40	0	897581056	56	4849
2026-01-29 08:33:45.10	6.58	13.32	-42.6	-45.6	17.8	0.00e+00	0	40	0	899678208	56	5168
2026-01-29 08:33:46.05	6.45	13.25	-42.9	-45.9	17.5	0.00e+00	0	40	0	900726784	56	5375
2026-01-29 08:33:47.04	6.31	13.18	-43.2	-46.4	17.0	0.00e+00	0	40	0	902823936	57	5376
2026-01-29 08:33:48.04	6.17	13.11	-43.4	-46.6	16.9	0.00e+00	0	41	0	904921088	57	5488
2026-01-29 08:33:49.03	6.04	13.04	-43.8	-47.0	16.5	0.00e+00	0	40	0	907018240	58	5439
2026-01-29 08:33:50.03	5.90	12.97	-43.5	-46.6	16.8	0.00e+00	0	41	0	908066816	58	5197
2026-01-29 08:33:51.02	5.76	12.90	-43.3	-46.2	17.2	0.00e+00	0	40	0	910163968	58	4970
2026-01-29 08:33:52.01	5.63	12.83	-43.2	-46.0	17.4	0.00e+00	0	40	0	912261120	58	4869
2026-01-29 08:33:53.01	5.49	12.76	-43.0	-45.8	17.5	0.00e+00	0	40	0	914358272	58	4753
2026-01-29 08:33:54.01	5.35	12.69	-42.7	-45.5	17.9	0.00e+00	0	40	0	916455424	57	4823
2026-01-29 08:33:55.00	5.22	12.63	-42.5	-45.3	18.1	0.00e+00	0	40	0	917504000	56	4990
2026-01-29 08:33:56.00	5.09	12.56	-42.7	-45.5	17.8	0.00e+00	0	40	0	919601152	56	5156
2026-01-29 08:33:56.99	4.96	12.49	-42.5	-45.3	18.0	0.00e+00	0	41	0	921698304	56	5029
2026-01-29 08:33:57.99	4.82	12.42	-42.4	-45.1	18.2	0.00e+00	0	40	0	923795456	56	4916
2026-01-29 08:33:58.98	4.69	12.35	-42.5	-45.2	18.1	0.00e+00	0	41	0	924844032	56	4981
2026-01-29 08:33:59.98	4.56	12.28	-42.4	-45.1	18.2	0.00e+00	0	41	0	926941184	56	4906
2026-01-29 08:34:00.97	4.43	12.21	-42.7	-45.3	18.0	0.00e+00	0	41	0	929038336	56	5033
2026-01-29 08:34:01.97	4.30	12.14	-42.7	-45.4	18.0	0.00e+00	0	41	0	931135488	56	5066
2026-01-29 08:34:02.96	4.17	12.07	-42.7	-45.3	18.0	0.00e+00	0	41	0	933232640	56	5039
2026-01-29 08:34:03.95	4.04	12.00	-42.6	-45.2	18.2	0.00e+00	0	41	0	934281216	56	4937
2026-01-29 08:34:04.95	3.92	11.93	-42.7	-45.4	18.0	0.00e+00	0	41	0	936378368	56	5046
2026-01-29 08:34:05.95	3.79	11.86	-42.6	-45.3	18.0	0.00e+00	0	40	0	938475520	56	5004
2026-01-29 08:34:06.94	3.66	11.79	-42.7	-45.4	17.9	0.00e+00	0	41	0	940572672	56	5066
2026-01-29 08:34:07.94	3.54	11.73	-42.9	-45.8	17.6	0.00e+00	0	40	0	942669824	56	5290
2026-01-29 08:34:08.93	3.41	11.66	-42.9	-45.8	17.5	0.00e+00	0	41	0	943718400	56	5331
2026-01-29 08:34:09.93	3.29	11.59	-43.0	-45.9	17.5	0.00e+00	0	41	0	945815552	56	5374
2026-01-29 08:34:10.92	3.16	11.52	-43.1	-46.0	17.4	0.00e+00	0	40	0	947912704	57	5142
2026-01-29 08:34:11.92	3.04	11.45	-43.4	-46.5	16.9	0.00e+00	0	40	0	950009856	57	5439
2026-01-29 08:34:12.96	2.91	11.38	-43.3	-46.2	17.2	0.00e+00	0	41	0	951058432	57	5271
2026-01-29 08:34:13.97	2.79	11.31	-43.4	-46.4	17.0	0.00e+00	0	40	0	953155584	57	5376
2026-01-29 08:34:14.96	2.66	11.24	-43.5	-46.4	16.9	0.00e+00	0	40	0	955252736	57	5369
2026-01-29 08:34:15.96	2.54	11.17	-43.3	-46.3	17.1	0.00e+00	0	41	0	957349888	57	5300
2026-01-29 08:34:16.95	2.42	11.10	-43.4	-46.5	16.9	0.00e+00	0	40	0	959447040	57	5431
2026-01-29 08:34:17.95	2.30	11.04	-43.4	-46.7	16.7	0.00e+00	0	40	0	960495616	57	5554
2026-01-29 08:34:18.94	2.18	10.97	-43.5	-46.9	16.5	0.00e+00	0	40	0	962592768	57	5666
2026-01-29 08:34:19.94	2.06	10.90	-43.5	-46.9	16.5	0.00e+00	0	41	0	964689920	57	5664
2026-01-29 08:34:20.93	1.95	10.83	-43.8	-47.2	16.2	0.00e+00	0	41	0	966787072	58	5579
2026-01-29 08:34:21.93	1.83	10.76	-44.0	-47.3	16.1	0.00e+00	0	41	0	967835648	58	5646
2026-01-29 08:34:22.92	1.71	10.69	-44.1	-47.3	16.1	0.00e+00	0	40	0	969932800	58	5636
2026-01-29 08:34:23.92	1.59	10.63	-44.2	-47.5	15.8	0.00e+00	0	41	0	972029952	59	5457
2026-01-29 08:34:24.91	1.48	10.56	-44.2	-47.4	16.0	0.00e+00	0	40	0	974127104	59	5401
2026-01-29 08:34:25.91	1.36	10.49	-44.1	-47.3	16.1	0.00e+00	0	40	0	976224256	59	5317
2026-01-29 08:34:26.90	1.25	10.42	-43.8	-46.9	16.5	0.00e+00	0	41	0	977272832	59	5084
2026-01-29 08:34:27.90	1.13	10.36	-43.7	-46.8	16.6	0.00e+00	0	40	0	979369984	59	4990
2026-01-29 08:34:28.97	1.01	10.28	-43.6	-46.7	16.7	0.00e+00	0	40	0	981467136	59	4960
2026-01-29 08:34:29.84	0.91	10.22	-43.5	-46.5	16.8	0.00e+00	0	40	0	983564288	58	5157
2026-01-29 08:34:31.13	0.77	10.14	-43.2	-46.2	17.2	0.00e+00	0	40	0	985661440	58	4960
2026-01-29 08:34:31.84	0.69	10.09	-43.0	-46.0	17.3	0.00e+00	0	40	0	986710016	57	5125
2026-01-29 08:34:33.12	0.54	10.00	-43.0	-46.1	17.2	0.00e+00	0	40	0	989855744	57	5205
2026-01-29 08:34:33.83	0.46	9.95	-43.0	-46.1	17.2	0.00e+00	0	41	0	990904320	57	5209
2026-01-29 08:34:35.11	0.32	9.87	-42.9	-46.1	17.2	0.00e+00	0	40	0	993001472	57	5199
2026-01-29 08:34:35.84	0.24	9.82	-43.1	-46.3	17.0	0.00e+00	0	40	0	994050048	57	5310
2026-01-29 08:34:37.12	0.10	9.73	-43.2	-46.5	16.9	0.00e+00	0	41	0	997195776	57	5406
2026-01-29 08:34:37.89	0.02	9.68	-43.3	-46.6	16.7	0.00e+00	0	40	0	998244352	57	5527
2026-01-29 08:34:39.17	359.88	9.60	-43.5	-46.9	16.4	0.00e+00	0	41	0	1000341504	57	5711
2026-01-29 08:34:39.88	359.80	9.55	-43.5	-46.9	16.4	0.00e+00	0	40	0	1002438656	57	5713
2026-01-29 08:34:41.16	359.66	9.46	-43.7	-46.9	16.4	0.00e+00	0	40	0	1004535808	58	5384
2026-01-29 08:34:41.89	359.58	9.41	-43.9	-47.1	16.3	0.00e+00	0	40	0	1005584384	58	5471
2026-01-29 08:34:43.17	359.45	9.33	-43.9	-47.0	16.3	0.00e+00	0	40	0	1007681536	58	5435
2026-01-29 08:34:43.89	359.37	9.28	-43.8	-46.9	16.4	0.00e+00	0	40	0	1009778688	58	5345
2026-01-29 08:34:45.17	359.23	9.19	-43.8	-46.8	16.5	0.00e+00	0	40	0	1011875840	58	5304
2026-01-29 08:34:45.90	359.16	9.15	-43.7	-46.7	16.7	0.00e+00	0	41	0	1012924416	58	5225
2026-01-29 08:34:47.25	359.01	9.06	-43.7	-46.6	16.7	0.00e+00	0	41	0	1016070144	58	5180
2026-01-29 08:34:47.97	358.94	9.01	-43.7	-46.6	16.8	0.00e+00	0	41	0	1017118720	58	5168
2026-01-29 08:34:49.24	358.81	8.92	-48.5	-63.3	3.8	2.27e-02	0	41	104	1019215872	67	21052
2026-01-29 08:34:49.95	358.73	8.88	-49.4	-64.8	3.8	1.49e+00	0	41	104	1019215872	69	22315
2026-01-29 08:34:51.23	358.60	8.79	-49.8	-65.1	3.8	1.49e+00	0	40	104	1019215872	70	21869
2026-01-29 08:34:51.94	358.53	8.75	-49.8	-65.2	3.8	1.49e+00	0	41	104	1019215872	70	22026
2026-01-29 08:34:53.22	358.40	8.66	-49.9	-65.3	3.8	1.49e+00	0	40	104	1019215872	70	22316
2026-01-29 08:34:53.94	358.33	8.61	-50.0	-65.3	3.8	1.49e+00	0	40	104	1019215872	70	22349
2026-01-29 08:34:55.22	358.20	8.53	-50.1	-65.3	3.8	1.49e+00	0	41	104	1019215872	70	22438
2026-01-29 08:34:55.99	358.12	8.48	-50.1	-65.3	3.8	1.49e+00	0	41	104	1019215872	70	22520
2026-01-29 08:34:57.27	357.99	8.40	-49.9	-65.3	3.8	1.49e+00	0	40	104	1019215872	70	22468
2026-01-29 08:34:58.02	357.92	8.35	-49.9	-65.4	3.8	1.49e+00	0	41	104	1019215872	70	22538
2026-01-29 08:34:59.30	357.79	8.26	-49.7	-65.3	3.8	1.49e+00	0	41	104	1019215872	70	22517
2026-01-29 08:35:00.07	357.71	8.21	-50.1	-65.4	3.8	1.49e+00	0	41	104	1019215872	70	22650
2026-01-29 08:35:01.35	357.59	8.13	-50.1	-65.4	3.8	1.49e+00	0	40	104	1019215872	70	22569
2026-01-29 08:35:02.12	357.51	8.08	-49.0	-65.4	3.8	1.49e+00	0	41	104	1019215872	70	22743
2026-01-29 08:35:03.70	357.36	7.98	-50.2	-65.4	3.8	1.49e+00	0	41	104	1019215872	71	21397
2026-01-29 08:35:04.34	357.30	7.93	-50.0	-65.4	3.8	1.49e+00	0	40	104	1019215872	71	21418
2026-01-29 08:35:05.89	357.15	7.83	-50.0	-65.4	3.8	1.49e+00	0	40	104	1019215872	71	21390
2026-01-29 08:35:06.60	357.08	7.79	-49.8	-65.4	3.8	1.49e+00	0	40	104	1019215872	71	21360
2026-01-29 08:35:07.89	356.96	7.70	-50.0	-65.3	3.8	1.49e+00	0	41	104	1019215872	71	21247
2026-01-29 08:35:08.60	356.89	7.66	-50.0	-65.3	3.8	1.49e+00	0	40	104	1019215872	71	21167
2026-01-29 08:35:09.88	356.77	7.58	-49.9	-65.3	3.8	1.49e+00	0	41	104	1019215872	71	21063
2026-01-29 08:35:10.59	356.70	7.53	-49.9	-65.2	3.8	1.49e+00	0	40	104	1019215872	71	20945
2026-01-29 08:35:11.86	356.58	7.45	-49.9	-65.1	3.8	1.49e+00	0	40	104	1019215872	71	20730
2026-01-29 08:35:12.57	356.52	7.40	-49.8	-65.1	3.8	1.49e+00	0	41	104	1019215872	71	20689
2026-01-29 08:35:13.85	356.40	7.32	-49.7	-64.9	3.8	1.49e+00	0	41	104	1019215872	71	20159
2026-01-29 08:35:14.57	356.33	7.27	-49.5	-64.8	3.8	1.49e+00	0	41	104	1019215872	71	19908
2026-01-29 08:35:15.85	356.22	7.19	-49.4	-64.7	3.8	1.49e+00	0	40	104	1019215872	70	20893
2026-01-29 08:35:16.56	356.15	7.15	-49.4	-64.7	3.8	1.49e+00	0	41	104	1019215872	70	21001
2026-01-29 08:35:17.84	356.03	7.07	-49.4	-64.7	3.8	1.49e+00	0	40	104	1019215872	70	20947
2026-01-29 08:35:18.55	355.97	7.02	-49.4	-64.7	3.8	1.49e+00	0	41	104	1019215872	70	20932
2026-01-29 08:35:19.83	355.85	6.94	-49.4	-64.7	3.8	1.49e+00	0	40	104	1019215872	70	20878
2026-01-29 08:35:20.54	355.79	6.89	-49.4	-64.8	3.8	1.49e+00	0	40	104	1019215872	70	21075
2026-01-29 08:35:21.81	355.68	6.81	-49.4	-64.7	3.8	1.49e+00	0	41	104	1019215872	70	20970
2026-01-29 08:35:22.55	355.61	6.77	-49.4	-64.7	3.8	1.49e+00	0	40	104	1019215872	70	20845
2026-01-29 08:35:23.83	355.50	6.69	-49.4	-64.7	3.8	1.49e+00	0	40	104	1019215872	70	20792
2026-01-29 08:35:24.54	355.43	6.64	-49.4	-64.7	3.8	1.49e+00	0	40	104	1019215872	70	20838
2026-01-29 08:35:25.82	355.32	6.56	-49.4	-64.7	3.8	1.49e+00	0	40	104	1019215872	70	20923
2026-01-29 08:35:26.53	355.26	6.52	-49.4	-64.7	3.8	1.49e+00	0	40	104	1019215872	70	20788
2026-01-29 08:35:27.81	355.15	6.44	-49.4	-64.7	3.8	1.49e+00	0	40	104	1019215872	70	20825
2026-01-29 08:35:28.52	355.09	6.39	-49.4	-64.7	3.8	1.49e+00	0	40	104	1019215872	70	20841
2026-01-29 08:35:29.79	354.98	6.31	-49.4	-64.7	3.8	1.49e+00	0	40	104	1019215872	70	20813
2026-01-29 08:35:30.50	354.92	6.27	-49.4	-64.7	3.8	1.49e+00	0	41	104	1019215872	70	20803
2026-01-29 08:35:31.78	354.81	6.19	-49.4	-64.7	3.8	1.49e+00	0	41	104	1019215872	70	20833
2026-01-29 08:35:32.49	354.75	6.14	-49.4	-64.7	3.8	1.49e+00	0	40	104	1019215872	70	20875
2026-01-29 08:35:33.77	354.64	6.06	-49.4	-64.7	3.8	1.49e+00	0	41	104	1019215872	70	20876
2026-01-29 08:35:34.48	354.58	6.02	-49.4	-64.7	3.8	1.49e+00	0	40	104	1019215872	70	20846
2026-01-29 08:35:35.75	354.47	5.94	-49.4	-64.7	3.8	1.49e+00	0	40	104	1019215872	70	20853
2026-01-29 08:35:36.46	354.41	5.90	-49.4	-64.7	3.8	1.49e+00	0	40	104	1019215872	70	20808
2026-01-29 08:35:37.74	354.31	5.82	-49.4	-64.7	3.8	1.49e+00	0	40	104	1019215872	70	20818
2026-01-29 08:35:38.45	354.25	5.77	-49.4	-64.7	3.8	1.49e+00	0	40	104	1019215872	70	20812
2026-01-29 08:35:39.73	354.14	5.69	-49.4	-64.7	3.8	1.49e+00	0	40	104	1019215872	70	20861
2026-01-29 08:35:40.44	354.08	5.65	-49.4	-64.7	3.8	1.49e+00	0	40	104	1019215872	70	20819
2026-01-29 08:35:41.73	353.98	5.57	-49.4	-64.7	3.8	1.49e+00	0	40	104	1019215872	70	20863
2026-01-29 08:35:42.44	353.92	5.53	-49.4	-64.7	3.8	1.49e+00	0	40	104	1019215872	70	20825
2026-01-29 08:35:43.72	353.82	5.45	-49.4	-64.7	3.8	1.49e+00	0	41	104	1019215872	70	20910
2026-01-29 08:35:44.44	353.76	5.40	-49.4	-64.7	3.8	1.49e+00	0	40	104	1019215872	70	20893
2026-01-29 08:35:45.72	353.66	5.32	-49.4	-64.7	3.8	1.49e+00	0	41	104	1019215872	70	20793
2026-01-29 08:35:46.43	353.60	5.28	-49.4	-64.7	3.8	1.49e+00	0	40	104	1019215872	70	20862
2026-01-29 08:35:47.70	353.50	5.20	-49.4	-64.7	3.8	1.49e+00	0	41	104	1019215872	70	20790
2026-01-29 08:35:48.41	353.44	5.16	-49.4	-64.7	3.8	1.49e+00	0	41	104	1019215872	70	20783
2026-01-29 08:35:49.69	353.34	5.08	-49.4	-64.7	3.8	1.49e+00	0	40	104	1019215872	70	20807
2026-01-29 08:35:50.42	353.28	5.04	-49.4	-64.6	3.8	1.49e+00	0	41	104	1019215872	70	20750
2026-01-29 08:35:51.69	353.18	4.96	-49.4	-64.7	3.8	1.49e+00	0	40	104	1019215872	70	20823

#Closed at: 2026-01-29 08:35:52
#Recorded file [1019 MB]: D:/Data/31040_260129_112454.dat