passes_logs/2026/01/29/T1/T1__20260129_084443_NOAA_20_JPSS-1_rec.log

#Pass ID: 20260129_084443_NOAA 20 (JPSS-1)
#Satellite: NOAA 20 (JPSS-1)
#Configuration: NOAA 20
#almurnet v.1.7.20251203
#Start time: 2026-01-29 08:44:45

#Version: 2.0.20230620
#Station: T1
#Location: 37.570604 lon 55.790049 lat
#TLE: 1 43013U 17073A   26027.94683596  .00000137  00000+0  85741-4 0  9995
#TLE: 2 43013  98.7648 328.7503 0000940  21.3928 338.7287 14.19541154424576

#Time	Az	El	Level	Level2	SNR	BER	BlckErr	Temp	State	Recorded	gain1	gain2
2026-01-29 08:44:45.15	122.79	5.14	-49.8	-65.3	3.8	1.49e+00	0	37	0	0	70	22346
2026-01-29 08:44:46.14	122.73	5.21	-50.1	-65.3	3.8	1.49e+00	0	37	104	0	71	21067
2026-01-29 08:44:47.13	122.67	5.27	-50.0	-65.3	3.8	1.49e+00	0	37	104	0	71	21135
2026-01-29 08:44:48.12	122.60	5.34	-49.9	-65.3	3.8	1.49e+00	0	37	104	0	71	21099
2026-01-29 08:44:49.12	122.54	5.41	-50.1	-65.2	3.8	1.49e+00	0	37	104	0	71	20997
2026-01-29 08:44:50.11	122.48	5.47	-50.1	-65.2	3.8	1.49e+00	0	37	104	0	71	20976
2026-01-29 08:44:51.10	122.42	5.54	-50.0	-65.2	3.8	1.49e+00	0	37	104	0	71	20928
2026-01-29 08:44:52.09	122.36	5.61	-50.0	-65.2	3.8	1.49e+00	0	38	104	0	71	20930
2026-01-29 08:44:53.09	122.29	5.67	-50.0	-65.2	3.8	1.49e+00	0	38	104	0	71	20876
2026-01-29 08:44:54.08	122.23	5.74	-49.9	-65.2	3.8	1.49e+00	0	38	104	0	71	20858
2026-01-29 08:44:55.07	122.17	5.81	-50.0	-65.1	3.8	1.49e+00	0	38	104	0	71	20644
2026-01-29 08:44:56.07	122.10	5.87	-49.9	-65.1	3.8	1.49e+00	0	38	104	0	71	20667
2026-01-29 08:44:57.06	122.04	5.94	-49.9	-65.1	3.8	1.49e+00	0	38	104	0	71	20638
2026-01-29 08:44:58.05	121.97	6.01	-49.9	-65.1	3.8	1.49e+00	0	38	104	0	71	20602
2026-01-29 08:44:59.04	121.91	6.07	-49.8	-65.0	3.8	1.49e+00	0	38	104	0	71	20440
2026-01-29 08:45:00.04	121.84	6.14	-49.8	-64.9	3.8	1.49e+00	0	38	104	0	71	20244
2026-01-29 08:45:01.03	121.78	6.21	-49.6	-64.7	3.8	1.49e+00	0	38	104	0	71	19726
2026-01-29 08:45:02.02	121.71	6.28	-49.3	-64.4	3.8	1.49e+00	0	38	104	0	70	20177
2026-01-29 08:45:03.02	121.65	6.35	-49.2	-64.3	3.8	1.49e+00	0	38	104	0	70	19925
2026-01-29 08:45:04.01	121.58	6.41	-49.2	-64.2	3.8	1.49e+00	0	38	104	0	70	19718
2026-01-29 08:45:05.01	121.51	6.48	-49.2	-64.1	3.8	1.49e+00	0	38	104	0	70	19518
2026-01-29 08:45:06.00	121.45	6.55	-49.2	-64.1	3.8	1.49e+00	0	38	104	0	70	19463
2026-01-29 08:45:06.99	121.38	6.62	-49.2	-64.1	3.8	1.49e+00	0	38	104	0	70	19400
2026-01-29 08:45:07.99	121.31	6.69	-49.2	-64.1	3.8	1.49e+00	0	38	104	0	70	19437
2026-01-29 08:45:08.98	121.24	6.76	-49.2	-64.1	3.8	1.49e+00	0	38	104	0	70	19514
2026-01-29 08:45:09.97	121.18	6.83	-49.2	-64.2	3.8	1.49e+00	0	38	104	0	70	19669
2026-01-29 08:45:10.97	121.11	6.90	-49.2	-64.2	3.8	1.49e+00	0	38	104	0	70	19746
2026-01-29 08:45:11.96	121.04	6.97	-49.2	-64.3	3.8	1.49e+00	0	38	104	0	70	19852
2026-01-29 08:45:12.95	120.97	7.04	-49.2	-64.3	3.8	1.49e+00	0	38	104	0	70	19881
2026-01-29 08:45:13.95	120.90	7.11	-49.2	-64.3	3.8	1.49e+00	0	38	104	0	70	19955
2026-01-29 08:45:14.94	120.83	7.18	-49.2	-64.3	3.8	1.49e+00	0	38	104	0	70	19963
2026-01-29 08:45:15.93	120.76	7.24	-49.2	-64.3	3.8	1.49e+00	0	38	104	0	70	19884
2026-01-29 08:45:16.92	120.69	7.31	-49.2	-64.3	3.8	1.49e+00	0	38	104	0	70	19859
2026-01-29 08:45:17.92	120.62	7.39	-49.2	-64.2	3.8	1.49e+00	0	38	104	0	70	19667
2026-01-29 08:45:18.91	120.55	7.46	-49.2	-64.2	3.8	1.49e+00	0	38	104	0	70	19640
2026-01-29 08:45:19.90	120.48	7.53	-49.2	-64.2	3.8	1.49e+00	0	38	104	0	70	19710
2026-01-29 08:45:20.90	120.40	7.60	-49.2	-64.2	3.8	1.49e+00	0	38	104	0	70	19799
2026-01-29 08:45:21.89	120.33	7.67	-49.2	-63.9	3.8	1.49e+00	0	38	104	0	70	19057
2026-01-29 08:45:22.89	120.26	7.74	-49.1	-63.0	3.8	1.49e+00	0	38	104	0	70	17146
2026-01-29 08:45:23.88	120.18	7.81	-49.0	-61.0	4.2	1.48e+00	0	38	0	0	70	13663
2026-01-29 08:45:24.87	120.11	7.88	-48.7	-58.6	5.2	1.14e+00	0	38	0	1048576	69	10953
2026-01-29 08:45:25.87	120.04	7.95	-48.3	-56.4	6.8	2.86e-01	0	39	0	3145728	68	8998
2026-01-29 08:45:26.86	119.96	8.03	-47.7	-54.5	8.5	6.21e-02	0	38	0	4194304	67	7673
2026-01-29 08:45:27.85	119.89	8.10	-47.0	-52.4	10.6	1.28e-02	0	38	0	6291456	66	6375
2026-01-29 08:45:28.84	119.81	8.17	-46.5	-51.3	11.8	1.88e-03	0	38	0	8388608	65	5982
2026-01-29 08:45:29.84	119.74	8.24	-46.1	-50.6	12.6	1.39e-04	0	38	0	10485760	64	5795
2026-01-29 08:45:30.83	119.66	8.31	-45.8	-49.9	13.4	3.58e-05	0	39	0	11534336	63	5670
2026-01-29 08:45:31.82	119.59	8.39	-45.5	-49.3	14.0	1.37e-05	0	39	0	13631488	63	5320
2026-01-29 08:45:32.82	119.51	8.46	-45.4	-49.1	14.2	2.20e-06	0	39	0	15728640	62	5501
2026-01-29 08:45:33.81	119.43	8.53	-45.3	-48.9	14.3	1.50e-06	0	38	0	17825792	62	5389
2026-01-29 08:45:34.80	119.36	8.60	-45.4	-49.1	14.2	0.00e+00	0	39	0	19922944	62	5476
2026-01-29 08:45:35.80	119.28	8.68	-45.6	-49.6	13.7	1.50e-06	0	38	0	20971520	62	5795
2026-01-29 08:45:36.79	119.20	8.75	-46.1	-50.4	12.9	1.90e-05	0	39	0	23068672	62	6351
2026-01-29 08:45:37.78	119.12	8.82	-46.6	-51.5	11.7	2.40e-04	0	39	0	25165824	63	6853
2026-01-29 08:45:38.78	119.04	8.90	-47.3	-53.1	10.0	2.49e-03	0	39	0	27262976	65	7343
2026-01-29 08:45:39.77	118.96	8.97	-47.9	-55.2	7.8	2.16e-02	0	39	0	28311552	66	8795
2026-01-29 08:45:40.76	118.88	9.04	-48.4	-57.7	5.7	2.61e-01	0	39	0	30408704	67	11053
2026-01-29 08:45:41.76	118.80	9.12	-45.9	-50.1	13.1	2.94e-01	0	39	0	32505856	63	5810
2026-01-29 08:45:42.75	118.72	9.19	-46.1	-50.4	12.9	8.30e-06	0	39	0	34603008	63	6017
2026-01-29 08:45:43.75	118.64	9.27	-49.1	-62.2	4.0	4.52e-01	0	39	0	35651584	68	17634
2026-01-29 08:45:44.74	118.56	9.34	-47.8	-54.3	5.2	1.48e+00	0	39	104	35651584	67	7541
2026-01-29 08:45:45.74	118.48	9.42	-46.9	-52.1	11.1	3.11e-03	0	39	0	36700160	65	6535
2026-01-29 08:45:46.83	118.39	9.50	-46.4	-50.9	12.3	1.91e-03	0	39	0	38797312	64	6021
2026-01-29 08:45:47.73	118.31	9.57	-46.7	-51.5	11.7	4.70e-04	0	39	0	39845888	64	6493
2026-01-29 08:45:48.76	118.22	9.65	-46.4	-51.0	12.2	5.53e-04	0	39	0	41943040	64	6077
2026-01-29 08:45:49.75	118.14	9.72	-46.1	-50.4	12.8	9.68e-05	0	39	0	44040192	64	5691
2026-01-29 08:45:50.74	118.06	9.80	-46.1	-50.3	13.1	3.43e-05	0	39	0	46137344	63	5925
2026-01-29 08:45:51.74	117.97	9.87	-45.8	-49.8	13.6	2.36e-05	0	39	0	47185920	63	5613
2026-01-29 08:45:52.74	117.89	9.95	-45.3	-49.0	14.4	4.50e-06	0	39	0	49283072	62	5414
2026-01-29 08:45:53.73	117.80	10.03	-45.1	-48.6	14.8	7.00e-07	0	39	0	51380224	62	5171
2026-01-29 08:45:54.73	117.71	10.10	-45.1	-48.6	14.8	0.00e+00	0	39	0	53477376	62	5175
2026-01-29 08:45:55.72	117.63	10.18	-44.6	-47.8	15.6	0.00e+00	0	39	0	55574528	61	5040
2026-01-29 08:45:56.72	117.54	10.26	-44.5	-47.7	15.7	0.00e+00	0	39	0	56623104	60	5235
2026-01-29 08:45:57.71	117.45	10.33	-44.5	-47.7	15.7	0.00e+00	0	39	0	58720256	60	5238
2026-01-29 08:45:58.71	117.36	10.41	-44.4	-47.6	15.8	0.00e+00	0	39	0	60817408	60	5178
2026-01-29 08:45:59.70	117.28	10.49	-44.6	-47.7	15.7	0.00e+00	0	39	0	62914560	60	5276
2026-01-29 08:46:00.70	117.19	10.56	-44.6	-47.9	15.6	0.00e+00	0	39	0	63963136	60	5343
2026-01-29 08:46:01.69	117.10	10.64	-44.7	-48.0	15.5	0.00e+00	0	39	0	66060288	60	5407
2026-01-29 08:46:02.75	117.00	10.73	-44.5	-47.6	15.8	0.00e+00	0	39	0	68157440	60	5212
2026-01-29 08:46:03.63	116.92	10.79	-44.3	-47.4	16.0	0.00e+00	0	39	0	70254592	60	5060
2026-01-29 08:46:04.77	116.82	10.88	-44.4	-47.5	16.0	0.00e+00	0	39	0	72351744	60	5122
2026-01-29 08:46:05.69	116.73	10.96	-44.3	-47.3	16.1	0.00e+00	0	39	0	73400320	60	4993
2026-01-29 08:46:06.86	116.63	11.05	-44.2	-47.2	16.3	0.00e+00	0	39	0	76546048	60	4954
2026-01-29 08:46:07.74	116.54	11.12	-44.2	-47.2	16.2	0.00e+00	0	39	0	77594624	60	4954
2026-01-29 08:46:09.07	116.42	11.22	-44.3	-47.4	16.1	0.00e+00	0	39	0	79691776	60	5046
2026-01-29 08:46:09.78	116.35	11.28	-44.4	-47.5	16.0	0.00e+00	0	39	0	81788928	60	5121
2026-01-29 08:46:11.06	116.23	11.38	-44.5	-47.6	15.9	0.00e+00	0	39	0	83886080	60	5172
2026-01-29 08:46:11.78	116.16	11.44	-44.5	-47.6	15.8	0.00e+00	0	39	0	84934656	60	5212
2026-01-29 08:46:13.06	116.04	11.54	-44.5	-47.5	16.0	0.00e+00	0	39	0	88080384	60	5131
2026-01-29 08:46:13.88	115.96	11.61	-44.4	-47.4	16.1	0.00e+00	0	39	0	89128960	60	5062
2026-01-29 08:46:15.02	115.85	11.70	-44.4	-47.4	16.1	0.00e+00	0	39	0	91226112	60	5064
2026-01-29 08:46:15.87	115.77	11.77	-44.2	-47.2	16.3	0.00e+00	0	39	0	93323264	60	4961
2026-01-29 08:46:17.01	115.66	11.86	-44.3	-47.3	16.2	0.00e+00	0	39	0	95420416	60	5032
2026-01-29 08:46:17.86	115.57	11.93	-44.3	-47.4	16.2	0.00e+00	0	39	0	96468992	60	5042
2026-01-29 08:46:19.00	115.46	12.02	-44.3	-47.4	16.2	0.00e+00	0	39	0	98566144	60	5054
2026-01-29 08:46:19.85	115.38	12.09	-44.3	-47.2	16.3	0.00e+00	0	39	0	100663296	60	4980
2026-01-29 08:46:20.99	115.26	12.18	-44.2	-47.1	16.4	0.00e+00	0	39	0	102760448	60	4911
2026-01-29 08:46:21.84	115.18	12.25	-44.2	-47.1	16.4	0.00e+00	0	39	0	103809024	60	4904
2026-01-29 08:46:23.07	115.05	12.35	-44.2	-47.2	16.4	0.00e+00	0	39	0	106954752	60	4930
2026-01-29 08:46:23.92	114.97	12.42	-44.3	-47.3	16.2	0.00e+00	0	39	0	108003328	60	5011
2026-01-29 08:46:25.12	114.84	12.52	-44.3	-47.4	16.1	0.00e+00	0	39	0	110100480	60	5078
2026-01-29 08:46:25.97	114.76	12.59	-44.5	-47.5	16.0	0.00e+00	0	39	0	112197632	60	5156
2026-01-29 08:46:27.11	114.64	12.69	-44.2	-47.2	16.3	0.00e+00	0	39	0	114294784	60	4962
2026-01-29 08:46:27.97	114.55	12.76	-44.2	-47.1	16.4	0.00e+00	0	39	0	115343360	60	4913
2026-01-29 08:46:29.11	114.43	12.85	-44.2	-47.1	16.4	0.00e+00	0	39	0	117440512	60	4917
2026-01-29 08:46:29.96	114.34	12.92	-44.2	-47.2	16.4	0.00e+00	0	39	0	119537664	60	4945
2026-01-29 08:46:31.09	114.22	13.02	-44.4	-47.4	16.1	0.00e+00	0	39	0	121634816	60	5096
2026-01-29 08:46:31.94	114.13	13.09	-44.3	-47.3	16.2	0.00e+00	0	39	0	122683392	60	5030
2026-01-29 08:46:33.08	114.01	13.19	-44.2	-47.2	16.3	0.00e+00	0	39	0	124780544	60	4956
2026-01-29 08:46:34.14	113.89	13.27	-44.2	-47.1	16.5	0.00e+00	0	39	0	126877696	60	4892
2026-01-29 08:46:35.01	113.80	13.35	-44.1	-47.0	16.5	0.00e+00	0	39	0	128974848	60	4848
2026-01-29 08:46:36.14	113.67	13.44	-44.2	-47.1	16.5	0.00e+00	0	39	0	131072000	60	4902
2026-01-29 08:46:37.00	113.58	13.52	-44.2	-47.2	16.4	0.00e+00	0	39	0	132120576	60	4933
2026-01-29 08:46:38.13	113.46	13.61	-44.1	-47.1	16.5	0.00e+00	0	39	0	134217728	60	4880
2026-01-29 08:46:38.99	113.36	13.68	-44.0	-46.9	16.7	0.00e+00	0	39	0	136314880	60	4775
2026-01-29 08:46:40.13	113.23	13.78	-44.0	-46.9	16.7	0.00e+00	0	39	0	138412032	60	4762
2026-01-29 08:46:40.98	113.14	13.85	-44.1	-47.0	16.6	0.00e+00	0	39	0	140509184	59	5101
2026-01-29 08:46:42.12	113.01	13.95	-44.2	-47.2	16.4	0.00e+00	0	39	0	142606336	59	5222
2026-01-29 08:46:42.97	112.91	14.02	-44.3	-47.3	16.3	0.00e+00	0	39	0	143654912	59	5289
2026-01-29 08:46:44.10	112.78	14.12	-44.3	-47.3	16.3	0.00e+00	0	39	0	145752064	59	5292
2026-01-29 08:46:44.96	112.68	14.20	-44.3	-47.3	16.2	0.00e+00	0	39	0	147849216	59	5295
2026-01-29 08:46:46.09	112.55	14.29	-44.3	-47.3	16.3	0.00e+00	0	39	0	149946368	59	5308
2026-01-29 08:46:46.95	112.45	14.37	-44.2	-47.1	16.5	0.00e+00	0	40	0	150994944	59	5176
2026-01-29 08:46:48.09	112.32	14.47	-44.0	-46.8	16.7	0.00e+00	0	40	0	153092096	59	5025
2026-01-29 08:46:49.13	112.20	14.56	-44.0	-46.8	16.7	0.00e+00	0	39	0	155189248	59	5020
2026-01-29 08:46:50.12	112.08	14.64	-44.1	-47.0	16.6	0.00e+00	0	39	0	157286400	59	5124
2026-01-29 08:46:51.31	111.94	14.75	-44.2	-47.1	16.4	0.00e+00	0	39	0	159383552	59	5195
2026-01-29 08:46:52.19	111.83	14.82	-44.1	-47.0	16.5	0.00e+00	0	39	0	161480704	59	5150
2026-01-29 08:46:53.50	111.67	14.94	-44.0	-46.8	16.7	0.00e+00	0	39	0	163577856	59	5036
2026-01-29 08:46:54.21	111.59	15.00	-44.0	-46.8	16.7	0.00e+00	0	39	0	164626432	59	5026
2026-01-29 08:46:55.73	111.40	15.13	-44.2	-47.0	16.5	0.00e+00	0	39	0	167772160	59	5157
2026-01-29 08:46:56.44	111.31	15.20	-44.0	-46.8	16.8	0.00e+00	0	39	0	168820736	59	5023
2026-01-29 08:46:57.72	111.16	15.31	-44.3	-47.2	16.4	0.00e+00	0	39	0	170917888	59	5261
2026-01-29 08:46:58.46	111.06	15.38	-44.2	-47.2	16.4	0.00e+00	0	39	0	173015040	59	5241
2026-01-29 08:46:59.74	110.90	15.49	-44.2	-47.0	16.5	0.00e+00	0	39	0	175112192	59	5149
2026-01-29 08:47:00.45	110.81	15.55	-44.2	-47.1	16.5	0.00e+00	0	39	0	176160768	59	5177
2026-01-29 08:47:01.72	110.65	15.67	-44.1	-47.0	16.6	0.00e+00	0	39	0	179306496	59	5116
2026-01-29 08:47:02.44	110.56	15.73	-44.3	-47.1	16.4	0.00e+00	0	39	0	180355072	59	5201
2026-01-29 08:47:03.71	110.40	15.84	-44.5	-47.5	16.1	0.00e+00	0	40	0	182452224	59	5427
2026-01-29 08:47:04.44	110.30	15.91	-44.5	-47.4	16.1	0.00e+00	0	39	0	183500800	59	5393
2026-01-29 08:47:05.72	110.14	16.02	-44.4	-47.4	16.2	0.00e+00	0	39	0	186646528	59	5368
2026-01-29 08:47:06.43	110.04	16.09	-44.4	-47.4	16.3	0.00e+00	0	40	0	187695104	59	5341
2026-01-29 08:47:07.71	109.87	16.20	-44.2	-47.1	16.5	0.00e+00	0	39	0	189792256	59	5208
2026-01-29 08:47:08.43	109.78	16.27	-44.0	-46.8	16.7	0.00e+00	0	39	0	191889408	59	5038
2026-01-29 08:47:09.71	109.61	16.39	-43.8	-46.5	17.1	0.00e+00	0	39	0	193986560	59	4826
2026-01-29 08:47:10.69	109.48	16.47	-43.9	-46.6	17.0	0.00e+00	0	40	0	196083712	59	4889
2026-01-29 08:47:11.99	109.30	16.59	-43.8	-46.5	17.0	0.00e+00	0	40	0	198180864	59	4869
2026-01-29 08:47:12.70	109.20	16.66	-43.9	-46.6	17.0	0.00e+00	0	40	0	199229440	59	4910
2026-01-29 08:47:13.98	109.03	16.77	-43.9	-46.7	16.9	0.00e+00	0	39	0	202375168	59	4948
2026-01-29 08:47:14.69	108.93	16.84	-43.9	-46.7	16.9	0.00e+00	0	40	0	203423744	59	4931
2026-01-29 08:47:15.97	108.75	16.96	-43.6	-46.2	17.4	0.00e+00	0	39	0	205520896	59	4689
2026-01-29 08:47:16.70	108.65	17.02	-43.5	-46.0	17.6	0.00e+00	0	39	0	206569472	58	4867
2026-01-29 08:47:17.97	108.47	17.14	-43.5	-46.1	17.5	0.00e+00	0	39	0	209715200	58	4889
2026-01-29 08:47:18.70	108.37	17.21	-43.4	-46.0	17.6	0.00e+00	0	39	0	210763776	58	4849
2026-01-29 08:47:19.98	108.19	17.33	-43.5	-46.1	17.5	0.00e+00	0	39	0	212860928	58	4921
2026-01-29 08:47:20.69	108.09	17.39	-43.5	-46.2	17.4	0.00e+00	0	40	0	214958080	58	4956
2026-01-29 08:47:21.97	107.90	17.51	-43.6	-46.3	17.3	0.00e+00	0	39	0	217055232	58	4997
2026-01-29 08:47:22.71	107.80	17.58	-43.5	-46.2	17.4	0.00e+00	0	39	0	218103808	58	4975
2026-01-29 08:47:24.11	107.59	17.71	-43.4	-46.1	17.6	0.00e+00	0	39	0	221249536	58	4876
2026-01-29 08:47:24.82	107.49	17.78	-43.4	-46.1	17.6	0.00e+00	0	39	0	222298112	58	4877
2026-01-29 08:47:26.10	107.30	17.90	-43.4	-46.0	17.6	0.00e+00	0	39	0	224395264	58	4855
2026-01-29 08:47:27.16	107.14	17.99	-43.5	-46.2	17.4	0.00e+00	0	40	0	226492416	58	4969
2026-01-29 08:47:28.34	106.97	18.11	-43.5	-46.2	17.5	0.00e+00	0	39	0	228589568	58	4938
2026-01-29 08:47:29.19	106.84	18.19	-43.4	-46.1	17.6	0.00e+00	0	39	0	230686720	58	4891
2026-01-29 08:47:30.33	106.67	18.29	-43.5	-46.1	17.5	0.00e+00	0	39	0	232783872	58	4926
2026-01-29 08:47:31.18	106.54	18.37	-43.5	-46.1	17.6	0.00e+00	0	39	0	233832448	58	4884
2026-01-29 08:47:32.32	106.36	18.48	-43.4	-46.0	17.6	0.00e+00	0	39	0	235929600	58	4866
2026-01-29 08:47:33.17	106.23	18.56	-43.4	-46.0	17.7	0.00e+00	0	39	0	238026752	58	4838
2026-01-29 08:47:34.32	106.05	18.67	-43.5	-46.1	17.5	0.00e+00	0	40	0	240123904	58	4921
2026-01-29 08:47:35.18	105.92	18.75	-43.5	-46.1	17.5	0.00e+00	0	39	0	241172480	58	4923
2026-01-29 08:47:36.38	105.73	18.86	-43.5	-46.1	17.6	0.00e+00	0	39	0	244318208	58	4891
2026-01-29 08:47:37.23	105.59	18.95	-43.6	-46.2	17.4	0.00e+00	0	39	0	245366784	58	4970
2026-01-29 08:47:38.43	105.40	19.06	-43.5	-46.1	17.5	0.00e+00	0	40	0	247463936	58	4898
2026-01-29 08:47:39.28	105.27	19.14	-43.4	-46.0	17.7	0.00e+00	0	40	0	249561088	58	4840
2026-01-29 08:47:40.42	105.08	19.25	-43.3	-45.8	17.8	0.00e+00	0	39	0	251658240	58	4749
2026-01-29 08:47:41.27	104.94	19.33	-43.3	-45.8	17.8	0.00e+00	0	40	0	252706816	58	4734
2026-01-29 08:47:42.52	104.74	19.45	-43.2	-45.8	17.9	0.00e+00	0	40	0	255852544	58	4713
2026-01-29 08:47:43.37	104.60	19.53	-43.3	-45.9	17.8	0.00e+00	0	39	0	256901120	58	4771
2026-01-29 08:47:44.59	104.40	19.65	-43.3	-45.8	17.9	0.00e+00	0	40	0	258998272	58	4730
2026-01-29 08:47:45.44	104.25	19.73	-43.4	-45.9	17.7	0.00e+00	0	39	0	261095424	58	4806
2026-01-29 08:47:46.58	104.06	19.84	-43.5	-46.1	17.6	0.00e+00	0	39	0	263192576	58	4899
2026-01-29 08:47:47.43	103.92	19.92	-43.5	-46.1	17.6	0.00e+00	0	39	0	264241152	58	4911
2026-01-29 08:47:48.57	103.73	20.03	-43.6	-46.2	17.5	0.00e+00	0	39	0	266338304	58	4971
2026-01-29 08:47:49.42	103.58	20.11	-43.7	-46.4	17.3	0.00e+00	0	40	0	268435456	58	5059
2026-01-29 08:47:50.56	103.38	20.22	-43.7	-46.4	17.3	0.00e+00	0	39	0	270532608	58	5072
2026-01-29 08:47:51.41	103.24	20.31	-43.8	-46.6	17.1	0.00e+00	0	40	0	272629760	58	5163
2026-01-29 08:47:52.55	103.04	20.42	-43.8	-46.5	17.2	0.00e+00	0	40	0	274726912	58	5119
2026-01-29 08:47:53.40	102.89	20.50	-43.8	-46.5	17.2	0.00e+00	0	40	0	275775488	58	5133
2026-01-29 08:47:54.54	102.69	20.61	-43.8	-46.5	17.3	0.00e+00	0	39	0	277872640	58	5101
2026-01-29 08:47:55.39	102.54	20.69	-43.9	-46.6	17.1	0.00e+00	0	39	0	279969792	58	5213
2026-01-29 08:47:56.53	102.33	20.80	-43.9	-46.6	17.1	0.00e+00	0	39	0	282066944	58	5218
2026-01-29 08:47:57.38	102.18	20.89	-43.9	-46.6	17.1	0.00e+00	0	40	0	283115520	58	5177
2026-01-29 08:47:58.52	101.97	21.00	-43.9	-46.7	17.1	0.00e+00	0	40	0	285212672	58	5225
2026-01-29 08:47:59.37	101.82	21.08	-43.9	-46.7	17.1	0.00e+00	0	40	0	287309824	58	5222
2026-01-29 08:48:00.51	101.61	21.19	-43.9	-46.7	17.1	0.00e+00	0	40	0	289406976	58	5228
2026-01-29 08:48:01.36	101.45	21.27	-44.0	-46.8	16.9	0.00e+00	0	39	0	290455552	58	5300
2026-01-29 08:48:02.50	101.24	21.39	-44.1	-46.9	16.8	0.00e+00	0	40	0	292552704	58	5376
2026-01-29 08:48:03.35	101.08	21.47	-44.0	-46.8	16.9	0.00e+00	0	40	0	294649856	59	5024
2026-01-29 08:48:04.49	100.87	21.58	-43.9	-46.6	17.1	0.00e+00	0	40	0	296747008	59	4916
2026-01-29 08:48:05.34	100.71	21.66	-44.0	-46.7	17.0	0.00e+00	0	40	0	297795584	59	4954
2026-01-29 08:48:06.47	100.49	21.77	-43.8	-46.5	17.2	0.00e+00	0	40	0	299892736	59	4855
2026-01-29 08:48:07.32	100.33	21.86	-43.8	-46.5	17.2	0.00e+00	0	39	0	301989888	59	4834
2026-01-29 08:48:08.46	100.11	21.97	-43.8	-46.5	17.2	0.00e+00	0	40	0	304087040	59	4815
2026-01-29 08:48:09.31	99.94	22.05	-43.6	-46.2	17.5	0.00e+00	0	39	0	306184192	59	4658
2026-01-29 08:48:10.45	99.72	22.16	-43.5	-46.1	17.6	0.00e+00	0	40	0	308281344	59	4615
2026-01-29 08:48:11.30	99.55	22.25	-43.4	-46.0	17.7	0.00e+00	0	40	0	309329920	58	4831
2026-01-29 08:48:12.44	99.33	22.36	-43.4	-46.0	17.7	0.00e+00	0	39	0	311427072	58	4852
2026-01-29 08:48:13.29	99.16	22.44	-43.3	-45.9	17.8	0.00e+00	0	39	0	313524224	58	4780
2026-01-29 08:48:14.43	98.93	22.55	-43.2	-45.8	17.9	0.00e+00	0	40	0	315621376	58	4708
2026-01-29 08:48:15.28	98.76	22.64	-43.3	-45.8	17.9	0.00e+00	0	40	0	316669952	58	4744
2026-01-29 08:48:16.42	98.53	22.75	-43.3	-45.9	17.8	0.00e+00	0	40	0	318767104	58	4797
2026-01-29 08:48:17.27	98.35	22.83	-43.2	-45.7	18.0	0.00e+00	0	39	0	320864256	58	4691
2026-01-29 08:48:18.41	98.12	22.94	-43.1	-45.6	18.1	0.00e+00	0	39	0	322961408	58	4611
2026-01-29 08:48:19.26	97.94	23.02	-43.2	-45.6	18.1	0.00e+00	0	39	0	324009984	58	4645
2026-01-29 08:48:20.51	97.68	23.15	-43.2	-45.7	18.1	0.00e+00	0	39	0	327155712	58	4658
2026-01-29 08:48:21.37	97.50	23.23	-43.1	-45.6	18.1	0.00e+00	0	40	0	328204288	58	4624
2026-01-29 08:48:22.50	97.26	23.34	-42.9	-45.4	18.3	0.00e+00	0	40	0	330301440	57	4766
2026-01-29 08:48:23.36	97.08	23.43	-42.8	-45.2	18.4	0.00e+00	0	40	0	332398592	57	4688
2026-01-29 08:48:24.49	96.84	23.54	-42.9	-45.3	18.4	0.00e+00	0	40	0	334495744	57	4728
2026-01-29 08:48:25.35	96.65	23.62	-42.9	-45.3	18.4	0.00e+00	0	39	0	335544320	57	4736
2026-01-29 08:48:26.71	96.36	23.75	-42.8	-45.2	18.5	0.00e+00	0	40	0	338690048	57	4690
2026-01-29 08:48:27.42	96.21	23.82	-42.8	-45.3	18.4	0.00e+00	0	40	0	339738624	57	4713
2026-01-29 08:48:28.70	95.93	23.95	-42.9	-45.3	18.3	0.00e+00	0	40	0	341835776	57	4759
2026-01-29 08:48:29.41	95.77	24.01	-42.9	-45.3	18.4	0.00e+00	0	40	0	342884352	57	4736
2026-01-29 08:48:30.70	95.48	24.14	-42.9	-45.4	18.3	0.00e+00	0	40	0	346030080	57	4771
2026-01-29 08:48:31.42	95.32	24.21	-42.9	-45.4	18.3	0.00e+00	0	39	0	347078656	57	4762
2026-01-29 08:48:32.70	95.03	24.33	-43.0	-45.4	18.2	0.00e+00	0	39	0	349175808	57	4801
2026-01-29 08:48:33.48	94.86	24.41	-43.0	-45.5	18.2	0.00e+00	0	39	0	351272960	57	4847
2026-01-29 08:48:34.76	94.57	24.53	-42.9	-45.3	18.3	0.00e+00	0	40	0	353370112	57	4758
2026-01-29 08:48:35.56	94.38	24.61	-42.8	-45.2	18.4	0.00e+00	0	39	0	354418688	57	4705
2026-01-29 08:48:36.70	94.12	24.72	-42.8	-45.2	18.5	0.00e+00	0	39	0	357564416	57	4662
2026-01-29 08:48:37.55	93.92	24.80	-42.7	-45.2	18.5	0.00e+00	0	39	0	358612992	57	4655
2026-01-29 08:48:38.69	93.66	24.91	-42.7	-45.1	18.6	0.00e+00	0	39	0	360710144	57	4642
2026-01-29 08:48:39.54	93.46	24.99	-42.7	-45.1	18.6	0.00e+00	0	39	0	362807296	57	4607
2026-01-29 08:48:40.68	93.19	25.10	-42.5	-44.9	18.8	0.00e+00	0	40	0	364904448	57	4519
2026-01-29 08:48:41.53	92.99	25.18	-42.5	-44.8	18.9	0.00e+00	0	40	0	365953024	56	4743
2026-01-29 08:48:42.67	92.72	25.29	-42.7	-45.1	18.5	0.00e+00	0	40	0	368050176	56	4917
2026-01-29 08:48:43.52	92.51	25.37	-42.8	-45.2	18.5	0.00e+00	0	40	0	370147328	56	4939
2026-01-29 08:48:44.66	92.24	25.48	-42.6	-45.0	18.6	0.00e+00	0	39	0	372244480	56	4863
2026-01-29 08:48:45.51	92.03	25.56	-42.7	-45.1	18.6	0.00e+00	0	39	0	373293056	56	4887
2026-01-29 08:48:46.65	91.75	25.67	-42.6	-44.9	18.8	0.00e+00	0	40	0	375390208	56	4795
2026-01-29 08:48:47.51	91.54	25.75	-42.6	-45.0	18.7	0.00e+00	0	40	0	377487360	56	4843
2026-01-29 08:48:48.64	91.26	25.85	-42.6	-45.0	18.7	0.00e+00	0	39	0	379584512	56	4837
2026-01-29 08:48:49.50	91.04	25.94	-42.7	-45.2	18.5	0.00e+00	0	40	0	380633088	56	4927
2026-01-29 08:48:50.62	90.76	26.04	-43.2	-45.7	18.1	0.00e+00	0	40	0	382730240	56	5231
2026-01-29 08:48:51.83	90.46	26.15	-43.3	-45.8	17.9	0.00e+00	0	39	0	385875968	57	5036
2026-01-29 08:48:52.68	90.24	26.23	-43.3	-45.8	17.9	0.00e+00	0	39	0	386924544	57	5033
2026-01-29 08:48:53.82	89.95	26.34	-43.4	-46.0	17.7	0.00e+00	0	39	0	389021696	57	5137
2026-01-29 08:48:54.67	89.73	26.41	-43.4	-46.0	17.7	0.00e+00	0	39	0	391118848	57	5131
2026-01-29 08:48:55.81	89.44	26.52	-43.5	-46.1	17.6	0.00e+00	0	40	0	393216000	57	5192
2026-01-29 08:48:56.66	89.22	26.60	-43.5	-46.1	17.7	0.00e+00	0	39	0	394264576	57	5170
2026-01-29 08:48:57.81	88.92	26.70	-43.4	-45.9	17.8	0.00e+00	0	39	0	396361728	57	5096
2026-01-29 08:48:58.67	88.69	26.78	-43.5	-46.1	17.7	0.00e+00	0	39	0	398458880	57	5172
2026-01-29 08:48:59.88	88.37	26.89	-43.6	-46.2	17.5	0.00e+00	0	39	0	400556032	57	5252
2026-01-29 08:49:00.70	88.15	26.96	-43.7	-46.4	17.3	0.00e+00	0	40	0	401604608	58	5083
2026-01-29 08:49:01.84	87.85	27.06	-43.8	-46.6	17.2	0.00e+00	0	40	0	403701760	58	5173
2026-01-29 08:49:02.69	87.62	27.14	-43.7	-46.5	17.2	0.00e+00	0	39	0	405798912	58	5129
2026-01-29 08:49:03.83	87.31	27.24	-43.8	-46.6	17.2	0.00e+00	0	39	0	407896064	58	5177
2026-01-29 08:49:04.75	87.06	27.32	-43.7	-46.5	17.3	0.00e+00	0	39	0	409993216	58	5104
2026-01-29 08:49:05.93	86.74	27.43	-43.8	-46.7	17.1	0.00e+00	0	40	0	412090368	58	5222
2026-01-29 08:49:06.79	86.50	27.50	-43.8	-46.5	17.2	0.00e+00	0	40	0	413138944	58	5152
2026-01-29 08:49:07.92	86.19	27.60	-43.9	-46.7	17.1	0.00e+00	0	40	0	415236096	58	5226
2026-01-29 08:49:08.78	85.95	27.67	-43.9	-46.8	17.0	0.00e+00	0	40	0	417333248	58	5297
2026-01-29 08:49:09.91	85.63	27.77	-44.0	-46.8	17.0	0.00e+00	0	40	0	419430400	58	5298
2026-01-29 08:49:10.77	85.39	27.84	-43.8	-46.6	17.2	0.00e+00	0	40	0	420478976	58	5188
2026-01-29 08:49:11.90	85.07	27.94	-43.9	-46.7	17.1	0.00e+00	0	40	0	422576128	58	5246
2026-01-29 08:49:12.76	84.83	28.01	-44.1	-47.0	16.8	0.00e+00	0	39	0	424673280	58	5411
2026-01-29 08:49:13.89	84.51	28.11	-44.1	-47.1	16.7	0.00e+00	0	39	0	426770432	58	5479
2026-01-29 08:49:14.75	84.26	28.18	-44.0	-46.9	16.9	0.00e+00	0	40	0	428867584	58	5368
2026-01-29 08:49:15.88	83.93	28.27	-44.1	-47.0	16.8	0.00e+00	0	40	0	430964736	58	5434
2026-01-29 08:49:16.74	83.68	28.34	-44.1	-46.9	16.8	0.00e+00	0	40	0	432013312	58	5401
2026-01-29 08:49:17.87	83.36	28.44	-44.1	-47.0	16.8	0.00e+00	0	40	0	434110464	59	5122
2026-01-29 08:49:18.73	83.10	28.51	-44.1	-47.1	16.7	0.00e+00	0	40	0	436207616	59	5178
2026-01-29 08:49:19.99	82.73	28.61	-44.1	-47.0	16.8	0.00e+00	0	40	0	438304768	59	5110
2026-01-29 08:49:20.75	82.51	28.67	-44.1	-46.9	16.8	0.00e+00	0	40	0	439353344	59	5095
2026-01-29 08:49:22.03	82.13	28.77	-44.1	-47.0	16.7	0.00e+00	0	40	0	442499072	59	5153
2026-01-29 08:49:22.74	81.91	28.83	-44.2	-47.1	16.7	0.00e+00	0	40	0	443547648	59	5172
2026-01-29 08:49:24.02	81.53	28.93	-44.2	-47.1	16.7	0.00e+00	0	40	0	445644800	59	5184
2026-01-29 08:49:24.73	81.32	28.98	-44.1	-47.0	16.8	0.00e+00	0	40	0	446693376	59	5123
2026-01-29 08:49:26.01	80.93	29.08	-44.0	-46.8	17.0	0.00e+00	0	40	0	449839104	59	5019
2026-01-29 08:49:26.73	80.71	29.13	-43.8	-46.6	17.2	0.00e+00	0	39	0	450887680	59	4883
2026-01-29 08:49:28.01	80.32	29.23	-44.0	-46.8	17.0	0.00e+00	0	40	0	452984832	59	5004
2026-01-29 08:49:28.74	80.09	29.28	-44.0	-46.8	17.0	0.00e+00	0	39	0	455081984	59	5003
2026-01-29 08:49:30.01	79.70	29.38	-44.2	-46.9	16.9	0.00e+00	0	40	0	457179136	59	5096
2026-01-29 08:49:30.72	79.48	29.43	-44.2	-47.0	16.8	0.00e+00	0	40	0	458227712	59	5151
2026-01-29 08:49:32.01	79.08	29.52	-44.2	-47.0	16.8	0.00e+00	0	40	0	460324864	59	5136
2026-01-29 08:49:32.72	78.85	29.57	-44.1	-47.0	16.8	0.00e+00	0	40	0	462422016	59	5126
2026-01-29 08:49:34.12	78.41	29.67	-44.2	-47.1	16.8	0.00e+00	0	40	0	464519168	59	5176
2026-01-29 08:49:34.83	78.19	29.72	-44.1	-46.9	16.9	0.00e+00	0	40	0	465567744	59	5071
2026-01-29 08:49:36.11	77.78	29.81	-44.2	-47.0	16.9	0.00e+00	0	40	0	468713472	59	5122
2026-01-29 08:49:37.17	77.44	29.88	-44.2	-47.0	16.8	0.00e+00	0	40	0	470810624	59	5127
2026-01-29 08:49:38.05	77.16	29.94	-44.3	-47.1	16.7	0.00e+00	0	39	0	471859200	59	5197
2026-01-29 08:49:39.63	76.65	30.04	-44.2	-47.0	16.8	0.00e+00	0	39	0	475004928	59	5142
2026-01-29 08:49:40.29	76.44	30.09	-44.2	-47.1	16.7	0.00e+00	0	40	0	476053504	59	5177
2026-01-29 08:49:41.71	75.98	30.18	-44.2	-47.1	16.7	0.00e+00	0	40	0	479199232	59	5166
2026-01-29 08:49:42.42	75.75	30.22	-44.4	-47.3	16.6	0.00e+00	0	40	0	480247808	59	5292
2026-01-29 08:49:43.70	75.33	30.30	-44.6	-47.5	16.3	0.00e+00	0	40	0	482344960	59	5441
2026-01-29 08:49:44.41	75.09	30.35	-44.5	-47.4	16.4	0.00e+00	0	40	0	484442112	59	5375
2026-01-29 08:49:45.69	74.67	30.42	-44.8	-47.8	16.1	0.00e+00	0	40	0	486539264	60	5300
2026-01-29 08:49:46.40	74.44	30.47	-44.9	-48.0	16.0	0.00e+00	0	40	0	487587840	60	5407
2026-01-29 08:49:47.68	74.01	30.54	-44.7	-47.7	16.2	0.00e+00	0	40	0	489684992	60	5234
2026-01-29 08:49:48.54	73.72	30.59	-44.9	-48.0	15.9	0.00e+00	0	40	0	491782144	60	5408
2026-01-29 08:49:49.67	73.35	30.65	-44.9	-48.0	15.9	0.00e+00	0	40	0	493879296	60	5443
2026-01-29 08:49:50.53	73.06	30.70	-44.8	-47.8	16.1	0.00e+00	0	40	0	494927872	60	5335
2026-01-29 08:49:51.66	72.68	30.76	-44.6	-47.6	16.3	0.00e+00	0	40	0	498073600	60	5164
2026-01-29 08:49:52.51	72.39	30.81	-44.5	-47.3	16.5	0.00e+00	0	40	0	499122176	60	5039
2026-01-29 08:49:53.65	72.00	30.87	-44.4	-47.3	16.6	0.00e+00	0	40	0	501219328	60	4998
2026-01-29 08:49:54.51	71.71	30.91	-44.4	-47.4	16.5	0.00e+00	0	40	0	503316480	60	5048
2026-01-29 08:49:55.64	71.32	30.97	-44.5	-47.5	16.4	0.00e+00	0	40	0	505413632	60	5126
2026-01-29 08:49:56.50	71.03	31.01	-44.3	-47.1	16.8	0.00e+00	0	40	0	506462208	60	4910
2026-01-29 08:49:57.63	70.64	31.07	-44.3	-47.1	16.7	0.00e+00	0	40	0	508559360	60	4924
2026-01-29 08:49:58.48	70.35	31.11	-44.5	-47.4	16.5	0.00e+00	0	40	0	510656512	60	5058
2026-01-29 08:49:59.62	69.95	31.16	-44.3	-47.2	16.6	0.00e+00	0	39	0	512753664	60	4938
2026-01-29 08:50:00.47	69.66	31.20	-44.3	-47.1	16.8	0.00e+00	0	39	0	513802240	60	4903
2026-01-29 08:50:01.61	69.26	31.25	-44.2	-47.0	16.9	0.00e+00	0	40	0	515899392	60	4836
2026-01-29 08:50:02.46	68.97	31.29	-44.1	-46.9	17.0	0.00e+00	0	40	0	517996544	60	4780
2026-01-29 08:50:03.60	68.57	31.33	-44.1	-46.9	17.0	0.00e+00	0	40	0	520093696	60	4779
2026-01-29 08:50:04.69	68.19	31.38	-44.1	-46.9	17.0	0.00e+00	0	40	0	522190848	60	4781
2026-01-29 08:50:05.72	67.82	31.42	-44.2	-46.9	16.9	0.00e+00	0	39	0	524288000	60	4801
2026-01-29 08:50:06.71	67.48	31.46	-44.0	-46.7	17.1	0.00e+00	0	39	0	525336576	60	4685
2026-01-29 08:50:07.96	67.03	31.50	-44.1	-46.8	17.1	0.00e+00	0	40	0	528482304	60	4730
2026-01-29 08:50:08.81	66.73	31.53	-44.2	-47.1	16.9	0.00e+00	0	40	0	529530880	60	4875
2026-01-29 08:50:09.95	66.33	31.57	-44.5	-47.4	16.5	0.00e+00	0	39	0	531628032	60	5087
2026-01-29 08:50:10.80	66.03	31.60	-44.6	-47.6	16.3	0.00e+00	0	40	0	533725184	60	5182
2026-01-29 08:50:12.16	65.54	31.64	-44.5	-47.5	16.5	0.00e+00	0	40	0	535822336	60	5107
2026-01-29 08:50:12.87	65.29	31.66	-44.5	-47.5	16.5	0.00e+00	0	40	0	536870912	60	5112
2026-01-29 08:50:14.15	64.83	31.70	-44.5	-47.4	16.4	0.00e+00	0	39	0	540016640	60	5095
2026-01-29 08:50:14.86	64.58	31.72	-44.6	-47.6	16.3	0.00e+00	0	39	0	541065216	60	5174
2026-01-29 08:50:16.14	64.12	31.75	-44.6	-47.5	16.4	0.00e+00	0	40	0	543162368	60	5117
2026-01-29 08:50:16.90	63.85	31.77	-44.6	-47.6	16.3	0.00e+00	0	40	0	545259520	60	5162
2026-01-29 08:50:18.18	63.39	31.81	-44.8	-47.8	16.1	0.00e+00	0	40	0	547356672	60	5306
2026-01-29 08:50:19.05	63.07	31.83	-44.9	-47.9	15.9	0.00e+00	0	40	0	549453824	60	5402
2026-01-29 08:50:20.50	62.55	31.86	-45.1	-48.2	15.7	0.00e+00	0	40	0	551550976	60	5554
2026-01-29 08:50:21.21	62.29	31.87	-45.1	-48.2	15.7	0.00e+00	0	39	0	552599552	60	5580
2026-01-29 08:50:22.49	61.83	31.89	-45.2	-48.4	15.4	0.00e+00	0	40	0	555745280	61	5395
2026-01-29 08:50:23.22	61.57	31.91	-45.3	-48.6	15.3	0.00e+00	0	40	0	556793856	61	5495
2026-01-29 08:50:24.50	61.10	31.93	-45.2	-48.4	15.5	0.00e+00	0	40	0	558891008	61	5382
2026-01-29 08:50:25.21	60.84	31.94	-45.2	-48.4	15.5	0.00e+00	0	40	0	560988160	61	5400
2026-01-29 08:50:26.49	60.38	31.96	-45.2	-48.4	15.5	0.00e+00	0	40	0	563085312	61	5374
2026-01-29 08:50:27.20	60.12	31.96	-45.2	-48.4	15.5	0.00e+00	0	40	0	564133888	61	5367
2026-01-29 08:50:28.48	59.66	31.98	-45.0	-48.2	15.7	0.00e+00	0	40	0	566231040	61	5250
2026-01-29 08:50:29.22	59.39	31.99	-45.1	-48.3	15.6	0.00e+00	0	40	0	568328192	61	5288
2026-01-29 08:50:30.50	58.92	32.00	-45.1	-48.3	15.6	0.00e+00	0	39	0	570425344	61	5296
2026-01-29 08:50:31.21	58.66	32.00	-45.2	-48.4	15.6	0.00e+00	0	40	0	571473920	61	5348
2026-01-29 08:50:32.49	58.20	32.01	-44.9	-48.0	15.9	0.00e+00	0	39	0	574619648	61	5134
2026-01-29 08:50:33.20	57.94	32.01	-44.9	-48.0	15.9	0.00e+00	0	40	0	575668224	61	5146
2026-01-29 08:50:34.56	57.44	32.02	-44.7	-47.7	16.2	0.00e+00	0	40	0	577765376	61	4971
2026-01-29 08:50:35.27	57.18	32.02	-44.6	-47.6	16.3	0.00e+00	0	40	0	578813952	61	4902
2026-01-29 08:50:36.61	56.69	32.02	-44.6	-47.5	16.5	0.00e+00	0	40	0	581959680	60	5107
2026-01-29 08:50:37.32	56.43	32.02	-44.6	-47.5	16.4	0.00e+00	0	40	0	583008256	60	5113
2026-01-29 08:50:38.60	55.97	32.02	-44.7	-47.6	16.3	0.00e+00	0	39	0	585105408	60	5206
2026-01-29 08:50:39.66	55.58	32.01	-44.5	-47.4	16.5	0.00e+00	0	40	0	587202560	60	5077
2026-01-29 08:50:40.83	55.15	32.01	-44.7	-47.8	16.2	0.00e+00	0	40	0	589299712	60	5286
2026-01-29 08:50:41.82	54.79	32.00	-44.8	-47.8	16.1	0.00e+00	0	40	0	591396864	60	5327
2026-01-29 08:50:42.81	54.43	31.99	-44.8	-47.9	16.0	0.00e+00	0	40	0	593494016	60	5388
2026-01-29 08:50:43.81	54.07	31.98	-44.9	-47.9	16.0	0.00e+00	0	40	0	595591168	60	5393
2026-01-29 08:50:44.81	53.71	31.97	-45.0	-48.1	15.8	0.00e+00	0	40	0	597688320	60	5497
2026-01-29 08:50:45.80	53.35	31.96	-44.9	-47.9	16.0	0.00e+00	0	40	0	598736896	60	5385
2026-01-29 08:50:46.80	52.98	31.95	-44.7	-47.7	16.2	0.00e+00	0	40	0	600834048	60	5231
2026-01-29 08:50:47.79	52.62	31.93	-44.7	-47.7	16.3	0.00e+00	0	40	0	602931200	60	5230
2026-01-29 08:50:48.79	52.26	31.92	-44.8	-47.8	16.1	0.00e+00	0	40	0	605028352	60	5328
2026-01-29 08:50:49.78	51.90	31.90	-44.8	-47.9	16.0	0.00e+00	0	40	0	607125504	60	5389
2026-01-29 08:50:50.78	51.54	31.88	-45.0	-48.2	15.8	0.00e+00	0	39	0	608174080	60	5537
2026-01-29 08:50:51.82	51.17	31.86	-44.8	-48.0	15.9	0.00e+00	0	40	0	610271232	60	5405
2026-01-29 08:50:52.83	50.80	31.84	-44.8	-48.0	16.0	0.00e+00	0	40	0	612368384	60	5407
2026-01-29 08:50:53.82	50.44	31.82	-44.8	-47.9	16.0	0.00e+00	0	40	0	614465536	60	5379
2026-01-29 08:50:54.82	50.08	31.80	-44.6	-47.6	16.3	0.00e+00	0	39	0	615514112	60	5183
2026-01-29 08:50:55.81	49.73	31.77	-44.6	-47.5	16.4	0.00e+00	0	40	0	617611264	60	5132
2026-01-29 08:50:56.81	49.37	31.75	-44.5	-47.4	16.5	0.00e+00	0	40	0	619708416	60	5091
2026-01-29 08:50:57.80	49.02	31.72	-44.5	-47.4	16.5	0.00e+00	0	40	0	621805568	60	5062
2026-01-29 08:50:58.80	48.66	31.69	-44.4	-47.3	16.6	0.00e+00	0	40	0	623902720	60	5008
2026-01-29 08:50:59.79	48.30	31.66	-44.6	-47.5	16.4	0.00e+00	0	40	0	624951296	60	5130
2026-01-29 08:51:00.79	47.95	31.63	-44.7	-47.7	16.3	0.00e+00	0	40	0	627048448	60	5227
2026-01-29 08:51:01.78	47.60	31.60	-44.9	-47.9	16.0	0.00e+00	0	40	0	629145600	60	5396
2026-01-29 08:51:02.78	47.24	31.57	-44.9	-47.9	16.0	0.00e+00	0	40	0	631242752	60	5388
2026-01-29 08:51:03.77	46.89	31.53	-44.8	-47.9	16.0	0.00e+00	0	40	0	632291328	60	5373
2026-01-29 08:51:04.77	46.54	31.50	-44.8	-47.8	16.0	0.00e+00	0	40	0	634388480	60	5331
2026-01-29 08:51:05.76	46.19	31.46	-44.7	-47.9	16.1	0.00e+00	0	40	0	636485632	60	5342
2026-01-29 08:51:06.84	45.81	31.42	-44.8	-47.9	16.0	0.00e+00	0	40	0	638582784	60	5347
2026-01-29 08:51:07.72	45.50	31.38	-44.8	-48.0	16.0	0.00e+00	0	40	0	640679936	60	5406
2026-01-29 08:51:08.86	45.10	31.34	-44.8	-47.9	16.0	0.00e+00	0	40	0	642777088	60	5370
2026-01-29 08:51:09.79	44.78	31.30	-44.9	-48.1	15.9	0.00e+00	0	40	0	643825664	60	5470
2026-01-29 08:51:10.96	44.37	31.25	-45.0	-48.3	15.7	0.00e+00	0	40	0	645922816	60	5613
2026-01-29 08:51:11.84	44.07	31.21	-45.3	-48.6	15.3	0.00e+00	0	40	0	648019968	61	5511
2026-01-29 08:51:12.98	43.67	31.16	-45.4	-48.8	15.2	0.00e+00	0	40	0	650117120	61	5595
2026-01-29 08:51:13.83	43.38	31.12	-45.3	-48.6	15.3	0.00e+00	0	40	0	652214272	61	5476
2026-01-29 08:51:14.97	42.99	31.07	-45.2	-48.4	15.6	0.00e+00	0	40	0	653262848	61	5368
2026-01-29 08:51:15.82	42.69	31.03	-45.0	-48.2	15.7	0.00e+00	0	40	0	655360000	61	5238
2026-01-29 08:51:16.96	42.30	30.97	-45.0	-48.1	15.8	0.00e+00	0	40	0	657457152	61	5216
2026-01-29 08:51:17.82	42.01	30.93	-44.9	-47.9	16.0	0.00e+00	0	40	0	659554304	61	5098
2026-01-29 08:51:18.95	41.63	30.87	-44.9	-47.9	16.0	0.00e+00	0	40	0	661651456	61	5089
2026-01-29 08:51:19.80	41.34	30.83	-44.8	-47.8	16.1	0.00e+00	0	40	0	662700032	61	5012
2026-01-29 08:51:20.95	40.95	30.76	-45.0	-48.1	15.8	0.00e+00	0	40	0	664797184	61	5176
2026-01-29 08:51:21.80	40.66	30.72	-45.1	-48.3	15.6	0.00e+00	0	40	0	666894336	61	5308
2026-01-29 08:51:22.93	40.29	30.66	-45.4	-48.7	15.2	0.00e+00	0	39	0	668991488	61	5545
2026-01-29 08:51:23.79	40.00	30.61	-45.4	-48.8	15.1	0.00e+00	0	40	0	670040064	61	5596
2026-01-29 08:51:24.92	39.62	30.54	-45.4	-48.7	15.2	0.00e+00	0	40	0	672137216	61	5587
2026-01-29 08:51:25.78	39.34	30.49	-45.4	-48.7	15.2	0.00e+00	0	40	0	674234368	61	5581
2026-01-29 08:51:26.91	38.96	30.43	-45.1	-48.3	15.6	0.00e+00	0	40	0	676331520	61	5313
2026-01-29 08:51:27.77	38.68	30.37	-45.1	-48.2	15.7	0.00e+00	0	40	0	677380096	61	5262
2026-01-29 08:51:28.90	38.31	30.31	-45.1	-48.3	15.6	0.00e+00	0	40	0	679477248	61	5300
2026-01-29 08:51:29.76	38.03	30.25	-45.2	-48.5	15.4	0.00e+00	0	39	0	681574400	61	5430
2026-01-29 08:51:30.89	37.66	30.18	-45.4	-48.8	15.1	0.00e+00	0	40	0	683671552	61	5641
2026-01-29 08:51:31.74	37.38	30.13	-45.5	-48.9	15.0	0.00e+00	0	40	0	685768704	61	5695
2026-01-29 08:51:32.88	37.02	30.05	-45.4	-48.7	15.2	0.00e+00	0	40	0	687865856	61	5541
2026-01-29 08:51:33.73	36.74	30.00	-45.3	-48.5	15.4	0.00e+00	0	39	0	688914432	61	5463
2026-01-29 08:51:34.87	36.38	29.92	-45.1	-48.2	15.7	0.00e+00	0	40	0	691011584	61	5279
2026-01-29 08:51:35.72	36.11	29.86	-45.1	-48.3	15.6	0.00e+00	0	40	0	693108736	61	5281
2026-01-29 08:51:36.97	35.71	29.78	-45.1	-48.3	15.5	0.00e+00	0	40	0	695205888	61	5339
2026-01-29 08:51:37.82	35.44	29.72	-45.1	-48.3	15.6	0.00e+00	0	40	0	696254464	61	5312
2026-01-29 08:51:38.96	35.08	29.64	-45.1	-48.3	15.5	0.00e+00	0	40	0	698351616	61	5333
2026-01-29 08:51:39.81	34.81	29.58	-45.1	-48.3	15.7	0.00e+00	0	40	0	700448768	61	5292
2026-01-29 08:51:40.95	34.46	29.50	-44.9	-48.0	16.0	0.00e+00	0	40	0	702545920	61	5118
2026-01-29 08:51:41.80	34.20	29.44	-44.9	-47.9	16.0	0.00e+00	0	40	0	703594496	61	5077
2026-01-29 08:51:42.94	33.84	29.36	-44.8	-47.8	16.1	0.00e+00	0	39	0	706740224	61	4997
2026-01-29 08:51:43.80	33.58	29.29	-44.9	-47.9	16.0	0.00e+00	0	40	0	707788800	61	5085
2026-01-29 08:51:44.94	33.23	29.21	-44.8	-47.9	16.0	0.00e+00	0	40	0	709885952	61	5049
2026-01-29 08:51:45.79	32.97	29.14	-44.8	-47.8	16.1	0.00e+00	0	40	0	711983104	61	5027
2026-01-29 08:51:46.93	32.62	29.06	-44.6	-47.6	16.3	0.00e+00	0	40	0	714080256	61	4908
2026-01-29 08:51:47.78	32.37	28.99	-44.6	-47.6	16.3	0.00e+00	0	40	0	715128832	61	4903
2026-01-29 08:51:48.92	32.02	28.91	-44.5	-47.5	16.4	0.00e+00	0	40	0	717225984	61	4855
2026-01-29 08:51:49.77	31.77	28.84	-44.6	-47.6	16.3	0.00e+00	0	40	0	719323136	60	5177
2026-01-29 08:51:50.91	31.43	28.75	-44.6	-47.6	16.3	0.00e+00	0	40	0	721420288	60	5200
2026-01-29 08:51:51.76	31.18	28.68	-44.5	-47.6	16.3	0.00e+00	0	40	0	722468864	60	5205
2026-01-29 08:51:52.90	30.84	28.59	-44.7	-47.9	16.0	0.00e+00	0	40	0	724566016	60	5344
2026-01-29 08:51:53.75	30.59	28.52	-44.7	-47.9	16.0	0.00e+00	0	39	0	726663168	60	5390
2026-01-29 08:51:54.89	30.26	28.43	-44.7	-47.8	16.1	0.00e+00	0	40	0	728760320	60	5316
2026-01-29 08:51:55.74	30.01	28.36	-44.7	-47.8	16.0	0.00e+00	0	40	0	729808896	60	5336
2026-01-29 08:51:56.88	29.68	28.27	-44.6	-47.6	16.3	0.00e+00	0	40	0	731906048	60	5211
2026-01-29 08:51:57.73	29.44	28.20	-44.5	-47.5	16.4	0.00e+00	0	40	0	734003200	60	5127
2026-01-29 08:51:58.87	29.11	28.10	-44.3	-47.3	16.6	0.00e+00	0	40	0	736100352	60	4993
2026-01-29 08:51:59.72	28.87	28.03	-44.2	-47.2	16.7	0.00e+00	0	40	0	738197504	60	4939
2026-01-29 08:52:00.86	28.55	27.94	-44.2	-47.1	16.7	0.00e+00	0	40	0	740294656	60	4907
2026-01-29 08:52:01.71	28.31	27.87	-44.1	-47.0	16.9	0.00e+00	0	39	0	741343232	60	4822
2026-01-29 08:52:02.85	27.99	27.77	-44.0	-46.8	17.1	0.00e+00	0	40	0	743440384	60	4740
2026-01-29 08:52:03.70	27.75	27.70	-44.1	-46.9	17.0	0.00e+00	0	40	0	745537536	60	4792
2026-01-29 08:52:04.84	27.44	27.60	-44.3	-47.2	16.7	0.00e+00	0	40	0	747634688	60	4954
2026-01-29 08:52:05.69	27.20	27.52	-44.3	-47.2	16.7	0.00e+00	0	40	0	748683264	60	4953
2026-01-29 08:52:06.91	26.87	27.42	-44.4	-47.3	16.6	0.00e+00	0	39	0	750780416	60	5005
2026-01-29 08:52:07.76	26.64	27.34	-44.3	-47.2	16.7	0.00e+00	0	39	0	752877568	60	4929
2026-01-29 08:52:08.90	26.33	27.24	-44.1	-46.9	16.9	0.00e+00	0	40	0	754974720	60	4814
2026-01-29 08:52:09.75	26.10	27.17	-44.1	-46.9	17.0	0.00e+00	0	40	0	756023296	60	4781
2026-01-29 08:52:11.01	25.76	27.06	-44.0	-46.8	17.0	0.00e+00	0	40	0	759169024	59	4998
2026-01-29 08:52:11.80	25.55	26.99	-44.0	-46.7	17.1	0.00e+00	0	40	0	760217600	59	4971
2026-01-29 08:52:13.15	25.20	26.86	-44.1	-46.8	17.0	0.00e+00	0	40	0	763363328	59	5026
2026-01-29 08:52:13.85	25.01	26.80	-43.9	-46.6	17.2	0.00e+00	0	40	0	764411904	59	4916
2026-01-29 08:52:15.26	24.64	26.67	-43.7	-46.4	17.4	0.00e+00	0	39	0	766509056	59	4806
2026-01-29 08:52:15.97	24.46	26.61	-43.7	-46.4	17.4	0.00e+00	0	40	0	768606208	59	4779
2026-01-29 08:52:17.25	24.13	26.49	-43.5	-46.0	17.8	0.00e+00	0	40	0	770703360	58	4852
2026-01-29 08:52:17.96	23.95	26.43	-43.3	-45.9	17.9	0.00e+00	0	40	0	771751936	58	4773
2026-01-29 08:52:19.25	23.62	26.31	-43.2	-45.7	18.1	0.00e+00	0	40	0	773849088	58	4682
2026-01-29 08:52:19.96	23.44	26.24	-43.1	-45.6	18.2	0.00e+00	0	40	0	775946240	58	4625
2026-01-29 08:52:21.23	23.12	26.13	-43.0	-45.5	18.2	0.00e+00	0	39	0	778043392	58	4596
2026-01-29 08:52:21.94	22.94	26.06	-42.9	-45.4	18.3	0.00e+00	0	40	0	779091968	57	4801
2026-01-29 08:52:23.23	22.62	25.94	-42.9	-45.4	18.4	0.00e+00	0	39	0	782237696	57	4784
2026-01-29 08:52:23.97	22.43	25.87	-42.8	-45.4	18.4	0.00e+00	0	40	0	783286272	57	4778
2026-01-29 08:52:25.25	22.12	25.75	-42.8	-45.4	18.4	0.00e+00	0	40	0	785383424	57	4763
2026-01-29 08:52:25.96	21.94	25.69	-42.6	-45.2	18.6	0.00e+00	0	39	0	786432000	57	4664
2026-01-29 08:52:27.23	21.64	25.57	-42.5	-44.9	18.8	0.00e+00	0	40	0	789577728	56	4804
2026-01-29 08:52:27.94	21.46	25.50	-42.4	-44.8	18.9	0.00e+00	0	40	0	790626304	56	4754
2026-01-29 08:52:29.23	21.15	25.38	-42.2	-44.6	19.2	0.00e+00	0	40	0	792723456	56	4613
2026-01-29 08:52:29.95	20.98	25.31	-42.0	-44.4	19.3	0.00e+00	0	40	0	794820608	56	4519
2026-01-29 08:52:31.23	20.68	25.19	-42.2	-44.6	19.2	0.00e+00	0	40	0	796917760	56	4605
2026-01-29 08:52:31.96	20.50	25.12	-42.2	-44.5	19.2	0.00e+00	0	40	0	797966336	56	4589
2026-01-29 08:52:33.24	20.20	25.00	-42.1	-44.4	19.4	0.00e+00	0	40	0	800063488	56	4508
2026-01-29 08:52:33.98	20.03	24.93	-42.1	-44.5	19.2	0.00e+00	0	40	0	802160640	56	4551
2026-01-29 08:52:35.26	19.73	24.81	-42.2	-44.5	19.2	0.00e+00	0	40	0	804257792	56	4573
2026-01-29 08:52:35.97	19.57	24.74	-42.1	-44.4	19.3	0.00e+00	0	40	0	805306368	56	4541
2026-01-29 08:52:37.25	19.28	24.61	-41.7	-44.0	19.5	0.00e+00	0	39	0	808452096	55	4558
2026-01-29 08:52:37.97	19.11	24.55	-41.6	-43.8	19.7	0.00e+00	0	40	0	809500672	55	4480
2026-01-29 08:52:39.25	18.82	24.42	-41.5	-43.7	19.8	0.00e+00	0	39	0	811597824	55	4428
2026-01-29 08:52:39.96	18.66	24.35	-41.5	-43.7	19.8	0.00e+00	0	39	0	812646400	54	4671
2026-01-29 08:52:41.24	18.38	24.23	-41.4	-43.6	19.8	0.00e+00	0	39	0	815792128	54	4637
2026-01-29 08:52:42.06	18.20	24.15	-41.3	-43.5	20.0	0.00e+00	0	40	0	816840704	54	4553
2026-01-29 08:52:43.52	17.87	24.01	-41.2	-43.4	20.1	0.00e+00	0	40	0	819986432	54	4525
2026-01-29 08:52:44.23	17.72	23.94	-41.1	-43.3	20.2	0.00e+00	0	40	0	821035008	54	4469
2026-01-29 08:52:45.71	17.40	23.80	-41.3	-43.5	19.9	0.00e+00	0	39	0	824180736	54	4581
2026-01-29 08:52:46.42	17.24	23.73	-41.1	-43.3	20.1	0.00e+00	0	39	0	825229312	54	4485
2026-01-29 08:52:47.70	16.97	23.61	-41.1	-43.3	20.1	0.00e+00	0	40	0	827326464	54	4474
2026-01-29 08:52:48.44	16.81	23.53	-41.2	-43.3	20.1	0.00e+00	0	39	0	829423616	54	4492
2026-01-29 08:52:49.72	16.54	23.41	-41.2	-43.4	20.1	0.00e+00	0	40	0	831520768	54	4501
2026-01-29 08:52:50.43	16.39	23.34	-41.2	-43.3	20.1	0.00e+00	0	40	0	832569344	54	4489
2026-01-29 08:52:51.71	16.12	23.22	-41.3	-43.5	20.0	0.00e+00	0	40	0	834666496	54	4552
2026-01-29 08:52:52.42	15.98	23.15	-41.3	-43.5	20.0	0.00e+00	0	40	0	836763648	54	4575
2026-01-29 08:52:53.70	15.71	23.02	-41.5	-43.7	19.8	0.00e+00	0	40	0	838860800	54	4687
2026-01-29 08:52:54.41	15.56	22.95	-41.4	-43.7	19.9	0.00e+00	0	40	0	839909376	54	4654
2026-01-29 08:52:55.69	15.30	22.83	-41.5	-43.8	19.7	0.00e+00	0	40	0	843055104	54	4710
2026-01-29 08:52:56.51	15.14	22.75	-41.5	-43.8	19.7	0.00e+00	0	40	0	844103680	54	4715
2026-01-29 08:52:57.65	14.91	22.64	-41.7	-43.9	19.6	0.00e+00	0	40	0	846200832	54	4812
2026-01-29 08:52:58.67	14.70	22.54	-41.8	-44.0	19.5	0.00e+00	0	40	0	848297984	54	4869
2026-01-29 08:52:59.84	14.47	22.42	-41.7	-44.0	19.6	0.00e+00	0	40	0	850395136	54	4830
2026-01-29 08:53:00.71	14.30	22.34	-41.8	-44.1	19.4	0.00e+00	0	40	0	852492288	54	4908
2026-01-29 08:53:02.01	14.04	22.21	-41.8	-44.1	19.5	0.00e+00	0	39	0	854589440	54	4872
2026-01-29 08:53:02.72	13.91	22.14	-41.8	-44.1	19.4	0.00e+00	0	40	0	855638016	54	4903
2026-01-29 08:53:04.20	13.62	22.00	-41.9	-44.2	19.4	0.00e+00	0	40	0	858783744	54	4940
2026-01-29 08:53:04.92	13.48	21.93	-41.9	-44.1	19.3	0.00e+00	0	40	0	859832320	54	4925
2026-01-29 08:53:06.19	13.24	21.81	-42.0	-44.3	19.3	0.00e+00	0	40	0	861929472	54	4992
2026-01-29 08:53:06.92	13.10	21.73	-42.0	-44.3	19.2	0.00e+00	0	39	0	864026624	54	4998
2026-01-29 08:53:08.20	12.86	21.61	-42.1	-44.4	19.2	0.00e+00	0	40	0	866123776	54	5047
2026-01-29 08:53:08.91	12.73	21.54	-42.1	-44.4	19.1	0.00e+00	0	40	0	867172352	54	5063
2026-01-29 08:53:10.19	12.49	21.42	-42.1	-44.3	19.2	0.00e+00	0	40	0	870318080	54	5033
2026-01-29 08:53:10.92	12.35	21.35	-42.2	-44.5	19.0	0.00e+00	0	40	0	871366656	54	5119
2026-01-29 08:53:12.20	12.12	21.22	-42.1	-44.5	19.0	0.00e+00	0	40	0	873463808	55	4823
2026-01-29 08:53:12.91	11.99	21.15	-42.2	-44.5	19.0	0.00e+00	0	40	0	874512384	55	4835
2026-01-29 08:53:14.19	11.76	21.03	-42.2	-44.6	18.9	0.00e+00	0	39	0	877658112	55	4887
2026-01-29 08:53:14.90	11.63	20.96	-42.2	-44.5	19.0	0.00e+00	0	39	0	878706688	55	4866
2026-01-29 08:53:16.18	11.40	20.84	-42.2	-44.6	18.9	0.00e+00	0	40	0	880803840	55	4925
2026-01-29 08:53:17.17	11.22	20.74	-42.2	-44.7	18.8	0.00e+00	0	39	0	882900992	55	4931
2026-01-29 08:53:18.45	11.00	20.62	-42.3	-44.7	18.8	0.00e+00	0	40	0	884998144	55	4973
2026-01-29 08:53:19.19	10.87	20.55	-42.2	-44.7	18.8	0.00e+00	0	39	0	887095296	55	4941
2026-01-29 08:53:20.47	10.65	20.42	-42.4	-44.8	18.7	0.00e+00	0	40	0	889192448	55	5019
2026-01-29 08:53:21.20	10.52	20.35	-42.3	-44.8	18.7	0.00e+00	0	40	0	890241024	55	5010
2026-01-29 08:53:22.48	10.30	20.23	-42.4	-44.9	18.7	0.00e+00	0	40	0	892338176	55	5052
2026-01-29 08:53:23.20	10.18	20.16	-42.3	-44.8	18.7	0.00e+00	0	40	0	894435328	55	5014
2026-01-29 08:53:24.48	9.96	20.04	-42.4	-45.0	18.6	0.00e+00	0	40	0	896532480	55	5114
2026-01-29 08:53:25.20	9.84	19.97	-42.3	-44.8	18.7	0.00e+00	0	40	0	897581056	55	5022
2026-01-29 08:53:26.47	9.62	19.85	-42.3	-44.8	18.7	0.00e+00	0	40	0	900726784	55	5032
2026-01-29 08:53:27.19	9.50	19.78	-42.3	-44.8	18.7	0.00e+00	0	40	0	901775360	55	5026
2026-01-29 08:53:28.47	9.29	19.65	-42.4	-45.0	18.5	0.00e+00	0	40	0	903872512	55	5125
2026-01-29 08:53:29.19	9.17	19.59	-42.5	-45.1	18.5	0.00e+00	0	40	0	905969664	55	5169
2026-01-29 08:53:30.55	8.95	19.46	-42.6	-45.1	18.4	0.00e+00	0	40	0	908066816	55	5208
2026-01-29 08:53:31.26	8.84	19.39	-42.9	-45.5	18.2	0.00e+00	0	40	0	909115392	56	5123
2026-01-29 08:53:32.60	8.62	19.26	-42.9	-45.5	18.2	0.00e+00	0	39	0	912261120	56	5138
2026-01-29 08:53:33.31	8.51	19.19	-43.0	-45.6	18.2	0.00e+00	0	40	0	913309696	56	5182
2026-01-29 08:53:34.60	8.30	19.07	-43.0	-45.7	18.1	0.00e+00	0	40	0	915406848	56	5221
2026-01-29 08:53:35.65	8.14	18.97	-43.1	-45.8	17.9	0.00e+00	0	40	0	917504000	56	5312
2026-01-29 08:53:36.85	7.95	18.86	-43.1	-45.9	17.9	0.00e+00	0	39	0	919601152	56	5354
2026-01-29 08:53:37.70	7.82	18.78	-43.2	-46.0	17.7	0.00e+00	0	40	0	921698304	57	5122
2026-01-29 08:53:38.84	7.64	18.67	-43.3	-46.1	17.6	0.00e+00	0	40	0	923795456	57	5203
2026-01-29 08:53:39.69	7.51	18.59	-43.4	-46.2	17.5	0.00e+00	0	40	0	924844032	57	5251
2026-01-29 08:53:40.83	7.33	18.48	-43.4	-46.3	17.4	0.00e+00	0	39	0	926941184	57	5302
2026-01-29 08:53:41.69	7.20	18.40	-43.5	-46.3	17.4	0.00e+00	0	40	0	929038336	57	5319
2026-01-29 08:53:42.82	7.03	18.30	-43.6	-46.4	17.3	0.00e+00	0	40	0	931135488	57	5378
2026-01-29 08:53:43.68	6.90	18.22	-43.5	-46.2	17.5	0.00e+00	0	40	0	932184064	57	5276
2026-01-29 08:53:44.81	6.73	18.11	-43.6	-46.4	17.3	0.00e+00	0	40	0	934281216	57	5356
2026-01-29 08:53:45.67	6.61	18.03	-43.6	-46.4	17.3	0.00e+00	0	40	0	936378368	57	5350
2026-01-29 08:53:46.88	6.43	17.92	-43.6	-46.4	17.3	0.00e+00	0	39	0	938475520	57	5359
2026-01-29 08:53:47.73	6.30	17.84	-43.5	-46.4	17.3	0.00e+00	0	40	0	940572672	57	5366
2026-01-29 08:53:48.97	6.12	17.72	-43.6	-46.5	17.2	0.00e+00	0	40	0	942669824	57	5439
2026-01-29 08:53:49.82	6.00	17.65	-43.6	-46.5	17.3	0.00e+00	0	40	0	943718400	57	5405
2026-01-29 08:53:50.96	5.84	17.54	-43.6	-46.5	17.3	0.00e+00	0	39	0	945815552	57	5419
2026-01-29 08:53:51.81	5.72	17.46	-43.6	-46.6	17.1	0.00e+00	0	40	0	947912704	57	5477
2026-01-29 08:53:53.07	5.54	17.35	-43.6	-46.5	17.2	0.00e+00	0	39	0	950009856	57	5420
2026-01-29 08:53:53.86	5.43	17.27	-43.5	-46.4	17.3	0.00e+00	0	39	0	952107008	57	5362
2026-01-29 08:53:55.25	5.23	17.15	-43.6	-46.5	17.2	0.00e+00	0	40	0	954204160	57	5428
2026-01-29 08:53:55.96	5.13	17.08	-43.5	-46.5	17.2	0.00e+00	0	39	0	955252736	57	5440
2026-01-29 08:53:57.24	4.96	16.96	-43.4	-46.4	17.3	0.00e+00	0	40	0	958398464	57	5355
2026-01-29 08:53:57.96	4.86	16.90	-43.4	-46.4	17.3	0.00e+00	0	39	0	959447040	57	5346
2026-01-29 08:53:59.24	4.68	16.78	-43.5	-46.5	17.2	0.00e+00	0	40	0	961544192	57	5406
2026-01-29 08:53:59.95	4.59	16.72	-43.6	-46.6	17.1	0.00e+00	0	40	0	963641344	57	5484
2026-01-29 08:54:01.23	4.42	16.60	-43.7	-46.7	17.1	0.00e+00	0	40	0	965738496	58	5222
2026-01-29 08:54:01.94	4.32	16.54	-43.9	-46.8	16.9	0.00e+00	0	40	0	966787072	58	5303
2026-01-29 08:54:03.22	4.15	16.42	-43.9	-46.8	16.9	0.00e+00	0	40	0	968884224	58	5309
2026-01-29 08:54:03.93	4.06	16.36	-44.0	-46.9	16.8	0.00e+00	0	40	0	970981376	58	5380
2026-01-29 08:54:05.21	3.89	16.24	-44.0	-47.0	16.7	0.00e+00	0	40	0	973078528	58	5437
2026-01-29 08:54:05.94	3.79	16.18	-43.9	-47.0	16.7	0.00e+00	0	40	0	974127104	58	5409
2026-01-29 08:54:07.22	3.63	16.06	-43.8	-46.9	16.7	0.00e+00	0	39	0	976224256	58	5369
2026-01-29 08:54:08.18	3.50	15.97	-43.8	-46.9	16.7	0.00e+00	0	40	0	978321408	58	5349
2026-01-29 08:54:09.18	3.37	15.89	-43.8	-46.8	16.8	0.00e+00	0	40	0	980418560	58	5324
2026-01-29 08:54:10.54	3.20	15.76	-43.7	-46.7	16.9	0.00e+00	0	39	0	982515712	58	5251
2026-01-29 08:54:11.25	3.11	15.70	-43.8	-46.7	16.9	0.00e+00	0	39	0	984612864	58	5263
2026-01-29 08:54:12.53	2.95	15.59	-43.8	-46.7	17.0	0.00e+00	0	39	0	986710016	58	5257
2026-01-29 08:54:13.24	2.86	15.52	-43.9	-46.7	17.0	0.00e+00	0	40	0	987758592	58	5271
2026-01-29 08:54:14.52	2.70	15.41	-43.9	-46.7	16.9	0.00e+00	0	40	0	990904320	58	5277
2026-01-29 08:54:15.23	2.62	15.35	-44.0	-46.9	16.8	0.00e+00	0	40	0	991952896	58	5347
2026-01-29 08:54:16.51	2.46	15.24	-43.9	-46.9	16.8	0.00e+00	0	39	0	994050048	58	5366
2026-01-29 08:54:17.25	2.37	15.17	-43.9	-47.0	16.7	0.00e+00	0	40	0	995098624	58	5422
2026-01-29 08:54:18.53	2.21	15.06	-43.8	-47.0	16.7	0.00e+00	0	39	0	998244352	58	5438
2026-01-29 08:54:19.25	2.13	15.00	-43.8	-47.0	16.7	0.00e+00	0	39	0	999292928	58	5464
2026-01-29 08:54:20.53	1.97	14.88	-43.9	-47.0	16.7	0.00e+00	0	40	0	1001390080	58	5453
2026-01-29 08:54:21.24	1.89	14.82	-43.9	-47.0	16.7	0.00e+00	0	39	0	1003487232	58	5441
2026-01-29 08:54:22.52	1.74	14.71	-43.8	-46.8	16.9	0.00e+00	0	39	0	1005584384	58	5325
2026-01-29 08:54:23.23	1.65	14.65	-43.9	-46.8	16.9	0.00e+00	0	40	0	1006632960	58	5339
2026-01-29 08:54:24.51	1.50	14.54	-44.0	-47.0	16.7	0.00e+00	0	40	0	1008730112	58	5416
2026-01-29 08:54:25.22	1.42	14.48	-44.0	-46.8	16.9	0.00e+00	0	40	0	1010827264	58	5322
2026-01-29 08:54:26.50	1.27	14.37	-44.0	-46.9	16.8	0.00e+00	0	39	0	1012924416	58	5369
2026-01-29 08:54:27.22	1.19	14.31	-44.1	-47.0	16.7	0.00e+00	0	39	0	1013972992	58	5434
2026-01-29 08:54:28.50	1.05	14.20	-44.1	-47.0	16.7	0.00e+00	0	40	0	1017118720	58	5435
2026-01-29 08:54:29.22	0.96	14.13	-44.1	-47.1	16.6	0.00e+00	0	39	0	1018167296	58	5487
2026-01-29 08:54:30.49	0.82	14.03	-44.2	-47.2	16.5	0.00e+00	0	40	0	1020264448	59	5247
2026-01-29 08:54:31.22	0.74	13.96	-44.2	-47.3	16.4	0.00e+00	0	40	0	1021313024	59	5288
2026-01-29 08:54:32.50	0.60	13.86	-44.2	-47.3	16.4	0.00e+00	0	40	0	1024458752	59	5307
2026-01-29 08:54:33.21	0.52	13.79	-44.2	-47.3	16.3	0.00e+00	0	40	0	1025507328	59	5317
2026-01-29 08:54:34.51	0.37	13.68	-44.2	-47.3	16.3	0.00e+00	0	39	0	1027604480	59	5335
2026-01-29 08:54:35.22	0.30	13.62	-44.3	-47.4	16.3	0.00e+00	0	39	0	1029701632	59	5372
2026-01-29 08:54:36.56	0.15	13.51	-44.3	-47.3	16.4	0.00e+00	0	39	0	1031798784	59	5312
2026-01-29 08:54:37.27	0.07	13.45	-44.3	-47.3	16.4	0.00e+00	0	40	0	1032847360	59	5315
2026-01-29 08:54:38.55	359.94	13.35	-44.2	-47.2	16.4	0.00e+00	0	39	0	1035993088	59	5252
2026-01-29 08:54:39.26	359.86	13.29	-44.2	-47.2	16.5	0.00e+00	0	40	0	1037041664	59	5253
2026-01-29 08:54:40.54	359.72	13.18	-44.2	-47.2	16.5	0.00e+00	0	40	0	1039138816	59	5228
2026-01-29 08:54:41.25	359.65	13.12	-44.2	-47.2	16.4	0.00e+00	0	40	0	1040187392	59	5275
2026-01-29 08:54:42.74	359.49	13.00	-44.0	-47.2	16.5	0.00e+00	0	40	0	1043333120	59	5220
2026-01-29 08:54:43.45	359.42	12.94	-44.2	-47.3	16.3	0.00e+00	0	40	0	1044381696	59	5325
2026-01-29 08:54:44.82	359.28	12.82	-44.2	-47.2	16.4	0.00e+00	0	40	0	1047527424	59	5267
2026-01-29 08:54:45.53	359.20	12.76	-44.2	-47.3	16.3	0.00e+00	0	39	0	1048576000	59	5287
2026-01-29 08:54:46.81	359.07	12.66	-44.2	-47.3	16.3	0.00e+00	0	40	0	1050673152	59	5305
2026-01-29 08:54:47.54	359.00	12.60	-44.2	-47.3	16.3	0.00e+00	0	40	0	1052770304	59	5304
2026-01-29 08:54:48.82	358.87	12.49	-44.2	-47.3	16.3	0.00e+00	0	40	0	1054867456	59	5292
2026-01-29 08:54:49.55	358.79	12.43	-44.2	-47.3	16.3	0.00e+00	0	40	0	1055916032	59	5291
2026-01-29 08:54:50.83	358.67	12.33	-44.3	-47.4	16.2	0.00e+00	0	39	0	1058013184	59	5360
2026-01-29 08:54:51.54	358.60	12.27	-44.2	-47.3	16.3	0.00e+00	0	40	0	1060110336	59	5315
2026-01-29 08:54:52.82	358.47	12.17	-44.4	-47.5	16.1	0.00e+00	0	39	0	1062207488	59	5427
2026-01-29 08:54:53.53	358.40	12.11	-44.3	-47.4	16.3	0.00e+00	0	40	0	1063256064	59	5345
2026-01-29 08:54:54.81	358.27	12.01	-44.3	-47.5	16.1	0.00e+00	0	39	0	1066401792	59	5415
2026-01-29 08:54:55.52	358.21	11.95	-44.3	-47.6	16.0	0.00e+00	0	40	0	1067450368	59	5474
2026-01-29 08:54:56.80	358.08	11.85	-44.2	-47.6	16.0	0.00e+00	0	40	0	1069547520	59	5499
2026-01-29 08:54:57.68	358.00	11.78	-44.2	-47.7	15.9	0.00e+00	0	40	0	1071644672	59	5533
2026-01-29 08:54:58.82	357.89	11.69	-44.3	-47.9	15.7	0.00e+00	0	40	0	1073741824	59	5680
2026-01-29 08:54:59.67	357.81	11.62	-44.3	-48.0	15.6	0.00e+00	0	40	0	1074790400	59	5751
2026-01-29 08:55:00.81	357.70	11.53	-44.3	-47.9	15.6	0.00e+00	0	39	0	1076887552	59	5716
2026-01-29 08:55:01.66	357.62	11.46	-44.3	-48.1	15.5	0.00e+00	0	39	0	1078984704	59	5804
2026-01-29 08:55:02.80	357.51	11.37	-44.4	-48.1	15.5	0.00e+00	0	39	0	1081081856	59	5813
2026-01-29 08:55:03.65	357.43	11.30	-44.5	-48.2	15.4	0.00e+00	0	40	0	1082130432	59	5905
2026-01-29 08:55:04.78	357.33	11.21	-44.5	-48.3	15.3	0.00e+00	0	40	0	1084227584	59	5958
2026-01-29 08:55:05.64	357.25	11.14	-44.5	-48.3	15.3	0.00e+00	0	40	0	1086324736	59	5942
2026-01-29 08:55:06.77	357.15	11.05	-44.6	-48.4	15.3	0.00e+00	0	40	0	1088421888	60	5687
2026-01-29 08:55:07.63	357.07	10.99	-44.6	-48.4	15.2	0.00e+00	0	40	0	1089470464	60	5689
2026-01-29 08:55:08.91	356.95	10.89	-44.6	-48.3	15.3	0.00e+00	0	40	0	1092616192	60	5626
2026-01-29 08:55:09.62	356.89	10.83	-44.6	-48.2	15.4	0.00e+00	0	39	0	1093664768	60	5581
2026-01-29 08:55:10.90	356.77	10.73	-44.7	-48.4	15.3	0.00e+00	0	39	0	1095761920	60	5681
2026-01-29 08:55:11.61	356.71	10.68	-44.5	-48.3	15.3	0.00e+00	0	40	0	1097859072	60	5645
2026-01-29 08:55:12.88	356.60	10.58	-44.4	-48.4	15.2	0.00e+00	0	39	0	1099956224	60	5692
2026-01-29 08:55:13.68	356.53	10.52	-44.5	-48.7	14.9	0.00e+00	0	39	0	1101004800	60	5865
2026-01-29 08:55:14.86	356.43	10.43	-44.2	-48.4	15.2	0.00e+00	0	40	0	1103101952	60	5704
2026-01-29 08:55:15.71	356.35	10.36	-44.3	-48.5	15.2	0.00e+00	0	40	0	1105199104	60	5723
2026-01-29 08:55:16.85	356.25	10.27	-44.4	-48.7	14.9	0.00e+00	0	40	0	1107296256	60	5888
2026-01-29 08:55:17.71	356.18	10.21	-44.3	-48.7	15.0	0.00e+00	0	39	0	1109393408	60	5856
2026-01-29 08:55:18.84	356.08	10.12	-44.5	-48.7	14.9	0.00e+00	0	40	0	1111490560	60	5882
2026-01-29 08:55:19.70	356.01	10.05	-44.4	-48.7	14.9	0.00e+00	0	40	0	1112539136	60	5865
2026-01-29 08:55:20.84	355.91	9.97	-44.4	-48.8	14.8	0.00e+00	0	40	0	1114636288	60	5969
2026-01-29 08:55:21.69	355.84	9.90	-44.3	-48.8	14.8	2.20e-06	0	40	0	1116733440	60	5935
2026-01-29 08:55:22.84	355.74	9.81	-44.1	-48.9	14.7	0.00e+00	0	40	0	1118830592	59	6417
2026-01-29 08:55:23.69	355.67	9.75	-43.9	-48.8	14.8	7.00e-07	0	40	0	1119879168	59	6297
2026-01-29 08:55:24.89	355.57	9.66	-43.5	-48.7	14.8	0.00e+00	0	40	0	1121976320	59	6248
2026-01-29 08:55:25.75	355.50	9.60	-43.5	-48.7	14.8	7.00e-07	0	40	0	1124073472	59	6220
2026-01-29 08:55:26.88	355.41	9.51	-43.3	-48.6	14.9	7.00e-07	0	39	0	1126170624	58	6568
2026-01-29 08:55:27.74	355.34	9.45	-43.1	-48.7	14.8	7.00e-07	0	40	0	1128267776	58	6633
2026-01-29 08:55:28.87	355.25	9.36	-43.1	-49.0	14.6	0.00e+00	0	40	0	1129316352	58	6803
2026-01-29 08:55:29.72	355.18	9.30	-43.0	-48.7	14.8	0.00e+00	0	39	0	1131413504	57	7035
2026-01-29 08:55:31.07	355.07	9.20	-43.0	-48.8	14.7	7.00e-07	0	40	0	1133510656	57	7094
2026-01-29 08:55:31.78	355.02	9.14	-43.3	-49.0	14.5	0.00e+00	0	40	0	1135607808	57	7212
2026-01-29 08:55:33.06	354.91	9.05	-43.3	-48.9	14.6	7.00e-07	0	40	0	1137704960	57	7160
2026-01-29 08:55:33.76	354.86	9.00	-44.4	-53.0	10.8	0.00e+00	0	40	0	1138753536	59	10185
2026-01-29 08:55:35.04	354.76	8.90	-47.8	-64.8	3.8	1.49e+00	0	40	104	1139802112	66	26652
2026-01-29 08:55:35.77	354.70	8.85	-48.7	-65.1	3.8	1.49e+00	0	40	104	1139802112	68	24490
2026-01-29 08:55:37.04	354.60	8.76	-49.0	-65.2	3.8	1.49e+00	0	40	104	1139802112	69	23331
2026-01-29 08:55:37.75	354.55	8.70	-49.7	-65.2	3.8	1.49e+00	0	39	104	1139802112	70	22122
2026-01-29 08:55:39.03	354.45	8.61	-49.4	-65.3	3.8	1.49e+00	0	40	104	1139802112	70	22264
2026-01-29 08:55:39.74	354.40	8.56	-49.7	-65.3	3.8	1.49e+00	0	40	104	1139802112	70	22427
2026-01-29 08:55:41.02	354.30	8.47	-49.8	-65.3	3.8	1.49e+00	0	40	104	1139802112	70	22471
2026-01-29 08:55:41.74	354.24	8.41	-48.9	-65.3	3.8	1.49e+00	0	40	104	1139802112	69	23698
2026-01-29 08:55:43.02	354.15	8.32	-49.0	-65.3	3.8	1.49e+00	0	40	104	1139802112	70	22374
2026-01-29 08:55:43.74	354.09	8.27	-49.2	-65.2	3.8	1.49e+00	0	40	104	1139802112	69	23560
2026-01-29 08:55:45.02	354.00	8.18	-49.0	-65.2	3.8	1.49e+00	0	40	104	1139802112	69	23559
2026-01-29 08:55:45.73	353.95	8.12	-49.5	-65.3	3.8	1.49e+00	0	40	104	1139802112	69	23808
2026-01-29 08:55:47.01	353.85	8.03	-49.9	-65.3	3.8	1.49e+00	0	40	104	1139802112	70	22420
2026-01-29 08:55:47.73	353.80	7.98	-49.5	-65.3	3.8	1.49e+00	0	40	104	1139802112	70	22268
2026-01-29 08:55:49.01	353.71	7.89	-49.9	-65.2	3.8	1.49e+00	0	40	104	1139802112	70	22028
2026-01-29 08:55:49.72	353.65	7.84	-50.0	-65.2	3.8	1.49e+00	0	40	104	1139802112	70	22123
2026-01-29 08:55:50.99	353.56	7.75	-49.9	-65.1	3.8	1.49e+00	0	40	104	1139802112	70	21834
2026-01-29 08:55:51.70	353.51	7.70	-49.7	-65.0	3.8	1.49e+00	0	40	104	1139802112	70	21669
2026-01-29 08:55:52.98	353.42	7.61	-49.5	-64.7	3.8	1.49e+00	0	39	104	1139802112	70	20982
2026-01-29 08:55:53.71	353.37	7.55	-49.5	-64.7	3.8	1.49e+00	0	40	104	1139802112	70	20908
2026-01-29 08:55:54.98	353.28	7.47	-49.4	-64.7	3.8	
