passes_logs/2026/01/29/T1/T1__20260129_010940_FENGYUN_3D_rec.log

#Pass ID: 20260129_010940_FENGYUN 3D
#Satellite: FENGYUN 3D
#Configuration: FENGYUN 3D
#almurnet v.1.7.20251203
#Start time: 2026-01-29 01:09:42

#Version: 2.0.20230620
#Station: T1
#Location: 37.570604 lon 55.790049 lat
#TLE: 1 43010U 17072A   26027.90082829  .00000305  00000+0  16579-3 0  9998
#TLE: 2 43010  98.9960 359.9183 0002511  88.1058 272.0405 14.19701796425082

#Time	Az	El	Level	Level2	SNR	BER	BlckErr	Temp	State	Recorded	gain1	gain2
2026-01-29 01:09:42.97	21.51	5.15	-49.9	-62.1	3.8	8.48e-01	0	41	0	0	70	15545
2026-01-29 01:09:43.95	21.55	5.22	-50.2	-62.2	3.8	8.46e-01	0	41	104	0	71	14763
2026-01-29 01:09:44.95	21.59	5.29	-50.2	-62.2	3.8	8.47e-01	0	41	104	0	71	14800
2026-01-29 01:09:45.94	21.63	5.36	-50.2	-62.2	3.8	8.47e-01	0	41	104	0	71	14760
2026-01-29 01:09:46.93	21.67	5.43	-50.1	-62.2	3.8	8.47e-01	0	41	104	0	71	14760
2026-01-29 01:09:47.93	21.71	5.50	-50.1	-62.1	3.8	8.47e-01	0	41	104	0	71	14665
2026-01-29 01:09:48.92	21.75	5.57	-50.0	-62.1	3.8	8.46e-01	0	41	104	0	71	14680
2026-01-29 01:09:49.91	21.79	5.64	-50.1	-62.1	3.8	8.47e-01	0	41	104	0	71	14643
2026-01-29 01:09:50.91	21.83	5.71	-50.0	-62.1	3.8	8.48e-01	0	41	104	0	71	14676
2026-01-29 01:09:51.90	21.87	5.78	-50.0	-62.1	3.8	8.47e-01	0	41	104	0	71	14663
2026-01-29 01:09:52.89	21.91	5.85	-50.0	-62.0	3.8	8.48e-01	0	41	104	0	71	14496
2026-01-29 01:09:53.89	21.95	5.92	-49.8	-62.0	3.8	8.46e-01	0	41	104	0	71	14403
2026-01-29 01:09:54.88	21.99	5.99	-49.8	-61.9	3.8	8.46e-01	0	41	104	0	71	14303
2026-01-29 01:09:55.87	22.03	6.06	-49.4	-61.8	3.8	8.48e-01	0	41	104	0	70	14986
2026-01-29 01:09:56.87	22.07	6.13	-49.5	-61.7	3.8	8.46e-01	0	41	104	0	70	14746
2026-01-29 01:09:57.86	22.12	6.20	-49.2	-61.6	3.8	8.47e-01	0	41	104	0	69	15452
2026-01-29 01:09:58.85	22.16	6.27	-49.1	-61.5	3.8	8.47e-01	0	41	104	0	69	15252
2026-01-29 01:09:59.85	22.20	6.34	-48.4	-61.1	3.8	8.47e-01	0	41	104	0	68	15402
2026-01-29 01:10:00.84	22.24	6.42	-48.3	-61.0	3.8	8.46e-01	0	42	104	0	68	15328
2026-01-29 01:10:01.83	22.28	6.49	-48.3	-60.9	3.8	8.47e-01	0	42	104	0	68	15181
2026-01-29 01:10:02.83	22.33	6.56	-48.3	-60.8	3.8	8.46e-01	0	41	104	0	68	15037
2026-01-29 01:10:03.82	22.37	6.63	-48.3	-60.8	3.8	8.47e-01	0	42	104	0	68	15019
2026-01-29 01:10:04.81	22.41	6.70	-48.3	-60.8	3.8	8.47e-01	0	42	104	0	68	14957
2026-01-29 01:10:05.81	22.46	6.78	-48.3	-60.8	3.8	8.47e-01	0	42	104	0	68	14955
2026-01-29 01:10:06.80	22.50	6.85	-48.3	-60.7	3.8	8.47e-01	0	42	104	0	68	14813
2026-01-29 01:10:07.79	22.54	6.92	-48.3	-60.7	3.8	8.46e-01	0	42	104	0	68	14768
2026-01-29 01:10:08.79	22.59	7.00	-48.2	-60.5	3.8	8.47e-01	0	42	104	0	68	14496
2026-01-29 01:10:09.78	22.63	7.07	-48.2	-60.4	3.8	8.47e-01	0	42	104	0	68	14213
2026-01-29 01:10:10.77	22.67	7.14	-48.2	-60.1	3.8	8.45e-01	0	42	104	0	68	13874
2026-01-29 01:10:11.77	22.72	7.22	-48.2	-59.8	3.8	8.46e-01	0	42	104	0	68	13391
2026-01-29 01:10:12.76	22.76	7.29	-48.1	-59.4	3.8	8.46e-01	0	42	104	0	68	12746
2026-01-29 01:10:13.75	22.81	7.37	-48.0	-59.0	3.8	8.46e-01	0	42	104	0	68	12147
2026-01-29 01:10:14.75	22.85	7.44	-48.0	-58.5	4.0	8.45e-01	0	42	0	0	68	11514
2026-01-29 01:10:15.74	22.90	7.52	-47.8	-58.2	3.9	8.44e-01	0	42	104	0	67	11778
2026-01-29 01:10:16.73	22.94	7.59	-47.8	-57.8	4.1	8.41e-01	0	42	0	0	67	11188
2026-01-29 01:10:17.73	22.99	7.67	-47.8	-57.6	4.2	8.39e-01	0	42	0	0	67	10991
2026-01-29 01:10:18.72	23.03	7.74	-47.8	-57.5	4.2	8.37e-01	0	42	0	0	67	10843
2026-01-29 01:10:19.71	23.08	7.82	-47.7	-57.5	4.2	8.36e-01	0	42	0	0	67	10839
2026-01-29 01:10:20.71	23.12	7.89	-47.8	-57.6	4.2	8.37e-01	0	42	0	0	67	10950
2026-01-29 01:10:21.70	23.17	7.97	-47.8	-57.6	4.2	8.38e-01	0	42	0	0	67	10990
2026-01-29 01:10:22.69	23.22	8.05	-47.8	-57.7	4.2	8.39e-01	0	42	0	0	67	11067
2026-01-29 01:10:23.68	23.26	8.12	-47.8	-57.8	4.1	8.40e-01	0	42	0	0	67	11175
2026-01-29 01:10:24.68	23.31	8.20	-47.8	-57.7	4.2	8.39e-01	0	42	0	0	67	11138
2026-01-29 01:10:25.67	23.36	8.28	-47.8	-57.5	4.2	8.37e-01	0	42	0	0	67	10791
2026-01-29 01:10:26.67	23.41	8.35	-47.7	-57.3	4.3	8.36e-01	0	42	0	0	67	10580
2026-01-29 01:10:27.66	23.45	8.43	-47.6	-56.8	4.4	8.29e-01	0	42	0	0	67	10027
2026-01-29 01:10:28.65	23.50	8.51	-47.5	-56.2	4.7	8.09e-01	0	42	0	0	67	9283
2026-01-29 01:10:29.65	23.55	8.59	-47.3	-55.3	5.2	7.67e-01	0	42	0	0	66	8871
2026-01-29 01:10:30.64	23.60	8.66	-47.2	-54.5	5.7	6.99e-01	0	42	0	0	66	8098
2026-01-29 01:10:31.63	23.65	8.74	-46.8	-53.2	6.7	2.72e-01	0	42	0	6291456	65	7420
2026-01-29 01:10:32.63	23.70	8.82	-46.4	-52.2	7.6	1.47e-01	0	42	0	11534336	64	7006
2026-01-29 01:10:33.62	23.74	8.90	-46.0	-51.1	8.7	4.74e-02	0	42	0	16777216	64	6194
2026-01-29 01:10:34.62	23.79	8.98	-45.6	-50.2	9.7	2.00e-02	0	42	0	23068672	63	5912
2026-01-29 01:10:35.61	23.84	9.06	-44.9	-48.8	11.1	9.18e-03	0	42	0	28311552	61	5642
2026-01-29 01:10:36.61	23.89	9.14	-47.3	-54.7	5.7	2.18e-02	0	42	0	33554432	65	8858
2026-01-29 01:10:37.60	23.94	9.22	-44.5	-48.1	11.4	8.41e-01	0	42	104	33554432	61	5216
2026-01-29 01:10:38.60	23.99	9.30	-44.6	-48.0	12.2	8.00e-06	0	43	0	37748736	59	5749
2026-01-29 01:10:39.59	24.04	9.38	-41.7	-44.1	15.7	2.67e-03	0	43	0	42991616	55	4626
2026-01-29 01:10:40.59	24.10	9.46	-40.0	-42.1	17.8	0.00e+00	0	43	0	49283072	52	4370
2026-01-29 01:10:41.58	24.15	9.54	-40.0	-42.1	17.8	0.00e+00	0	43	0	54525952	51	4651
2026-01-29 01:10:42.58	24.20	9.62	-39.4	-41.4	18.5	0.00e+00	0	43	0	59768832	50	4534
2026-01-29 01:10:43.73	24.26	9.71	-39.1	-41.0	19.0	0.00e+00	0	42	0	67108864	50	4337
2026-01-29 01:10:44.61	24.30	9.79	-39.1	-41.1	18.9	0.00e+00	0	43	0	71303168	50	4386
2026-01-29 01:10:45.75	24.36	9.88	-38.9	-40.8	19.1	0.00e+00	0	43	0	77594624	49	4485
2026-01-29 01:10:46.68	24.41	9.96	-38.8	-40.8	19.2	0.00e+00	0	43	0	82837504	49	4451
2026-01-29 01:10:47.87	24.48	10.05	-38.8	-40.7	19.2	0.00e+00	0	43	0	90177536	49	4433
2026-01-29 01:10:48.72	24.52	10.13	-38.6	-40.5	19.5	0.00e+00	0	43	0	94371840	49	4308
2026-01-29 01:10:50.05	24.59	10.24	-38.5	-40.4	19.6	0.00e+00	0	43	0	101711872	49	4281
2026-01-29 01:10:50.76	24.63	10.30	-38.7	-40.6	19.5	0.00e+00	0	43	0	105906176	49	4353
2026-01-29 01:10:52.24	24.71	10.42	-38.6	-40.5	19.5	0.00e+00	0	43	0	114294784	49	4318
2026-01-29 01:10:52.95	24.75	10.48	-38.5	-40.4	19.6	0.00e+00	0	43	0	118489088	49	4275
2026-01-29 01:10:54.23	24.82	10.59	-38.5	-40.4	19.6	0.00e+00	0	43	0	125829120	48	4531
2026-01-29 01:10:54.94	24.86	10.65	-38.6	-40.4	19.6	0.00e+00	0	43	0	130023424	48	4541
2026-01-29 01:10:56.23	24.93	10.76	-38.5	-40.4	19.6	0.00e+00	0	43	0	137363456	48	4518
2026-01-29 01:10:56.94	24.97	10.82	-38.5	-40.4	19.6	0.00e+00	0	43	0	140509184	48	4539
2026-01-29 01:10:58.21	25.04	10.93	-38.5	-40.4	19.6	0.00e+00	0	43	0	147849216	48	4514
2026-01-29 01:10:59.00	25.09	10.99	-38.4	-40.3	19.7	0.00e+00	0	43	0	152043520	48	4467
2026-01-29 01:11:00.17	25.15	11.09	-38.5	-40.4	19.7	0.00e+00	0	43	0	159383552	48	4498
2026-01-29 01:11:01.03	25.20	11.17	-38.3	-40.2	19.8	0.00e+00	0	43	0	163577856	48	4423
2026-01-29 01:11:02.16	25.27	11.27	-38.3	-40.2	19.9	0.00e+00	0	43	0	169869312	48	4402
2026-01-29 01:11:03.02	25.32	11.34	-38.3	-40.1	19.9	0.00e+00	0	43	0	175112192	48	4387
2026-01-29 01:11:04.15	25.38	11.44	-38.3	-40.2	19.9	0.00e+00	0	43	0	181403648	48	4401
2026-01-29 01:11:05.34	25.45	11.54	-38.4	-40.3	19.8	0.00e+00	0	43	0	187695104	48	4484
2026-01-29 01:11:06.19	25.50	11.62	-38.3	-40.2	19.9	0.00e+00	0	43	0	192937984	48	4403
2026-01-29 01:11:07.33	25.57	11.72	-38.4	-40.3	19.8	0.00e+00	0	43	0	199229440	48	4458
2026-01-29 01:11:08.18	25.62	11.79	-38.3	-40.1	19.9	0.00e+00	0	43	0	204472320	48	4375
2026-01-29 01:11:09.32	25.69	11.90	-38.2	-40.1	20.0	0.00e+00	0	43	0	210763776	48	4348
2026-01-29 01:11:10.17	25.74	11.97	-38.3	-40.1	20.0	0.00e+00	0	43	0	216006656	48	4382
2026-01-29 01:11:11.31	25.81	12.07	-38.2	-40.1	20.0	0.00e+00	0	43	0	221249536	48	4360
2026-01-29 01:11:12.16	25.86	12.15	-38.2	-40.1	20.1	0.00e+00	0	43	0	226492416	48	4347
2026-01-29 01:11:13.30	25.93	12.25	-38.2	-40.0	20.1	0.00e+00	0	43	0	232783872	48	4319
2026-01-29 01:11:14.15	25.98	12.33	-38.1	-39.9	20.2	0.00e+00	0	43	0	238026752	48	4290
2026-01-29 01:11:15.42	26.06	12.44	-38.2	-40.0	20.1	0.00e+00	0	43	0	244318208	48	4314
2026-01-29 01:11:16.20	26.10	12.51	-38.0	-39.9	20.2	0.00e+00	0	43	0	249561088	48	4253
2026-01-29 01:11:17.56	26.19	12.64	-38.1	-39.9	20.3	0.00e+00	0	43	0	256901120	48	4253
2026-01-29 01:11:18.27	26.23	12.70	-38.2	-40.0	20.1	0.00e+00	0	43	0	261095424	48	4335
2026-01-29 01:11:19.66	26.32	12.83	-38.1	-39.9	20.2	0.00e+00	0	43	0	268435456	48	4255
2026-01-29 01:11:20.64	26.38	12.92	-38.0	-39.8	20.3	0.00e+00	0	43	0	274726912	48	4238
2026-01-29 01:11:21.97	26.47	13.04	-38.0	-39.9	20.1	0.00e+00	0	43	0	282066944	47	4501
2026-01-29 01:11:22.68	26.52	13.11	-38.0	-39.8	20.1	0.00e+00	0	43	0	286261248	47	4489
2026-01-29 01:11:23.96	26.60	13.23	-38.0	-39.8	20.1	0.00e+00	0	43	0	292552704	47	4483
2026-01-29 01:11:24.69	26.65	13.30	-38.0	-39.8	20.1	0.00e+00	0	43	0	296747008	47	4492
2026-01-29 01:11:25.97	26.73	13.42	-38.0	-39.9	20.1	0.00e+00	0	43	0	304087040	47	4509
2026-01-29 01:11:26.69	26.78	13.49	-38.0	-39.9	20.1	0.00e+00	0	43	0	308281344	47	4496
2026-01-29 01:11:27.97	26.86	13.61	-37.9	-39.8	20.2	0.00e+00	0	43	0	315621376	47	4451
2026-01-29 01:11:28.68	26.91	13.68	-37.9	-39.7	20.2	0.00e+00	0	43	0	319815680	47	4440
2026-01-29 01:11:30.04	27.00	13.80	-37.9	-39.7	20.3	0.00e+00	0	43	0	327155712	47	4421
2026-01-29 01:11:30.75	27.05	13.87	-37.9	-39.7	20.3	0.00e+00	0	43	0	331350016	47	4416
2026-01-29 01:11:32.03	27.14	14.00	-37.7	-39.5	20.4	0.00e+00	0	43	0	338690048	47	4321
2026-01-29 01:11:32.76	27.19	14.07	-37.7	-39.5	20.3	0.00e+00	0	43	0	341835776	47	4340
2026-01-29 01:11:34.04	27.27	14.19	-37.6	-39.4	20.5	0.00e+00	0	43	0	349175808	47	4255
2026-01-29 01:11:34.76	27.32	14.26	-37.5	-39.3	20.6	0.00e+00	0	43	0	353370112	47	4237
2026-01-29 01:11:36.04	27.41	14.38	-37.4	-39.2	20.8	0.00e+00	0	43	0	360710144	46	4411
2026-01-29 01:11:36.77	27.46	14.46	-37.3	-39.1	20.8	0.00e+00	0	43	0	364904448	46	4367
2026-01-29 01:11:38.05	27.55	14.58	-37.3	-39.1	20.9	0.00e+00	0	43	0	372244480	46	4353
2026-01-29 01:11:38.76	27.60	14.65	-37.3	-39.1	20.9	0.00e+00	0	43	0	376438784	46	4344
2026-01-29 01:11:40.04	27.70	14.78	-37.2	-39.1	20.9	0.00e+00	0	43	0	383778816	46	4350
2026-01-29 01:11:40.78	27.75	14.85	-37.2	-39.0	20.9	0.00e+00	0	43	0	387973120	46	4335
2026-01-29 01:11:42.06	27.84	14.98	-37.2	-39.0	21.0	0.00e+00	0	43	0	394264576	46	4301
2026-01-29 01:11:42.77	27.89	15.05	-37.2	-39.1	20.9	0.00e+00	0	43	0	398458880	46	4342
2026-01-29 01:11:44.05	27.99	15.18	-37.3	-39.2	20.8	0.00e+00	0	43	0	405798912	46	4398
2026-01-29 01:11:44.77	28.04	15.25	-37.4	-39.2	20.8	0.00e+00	0	43	0	409993216	46	4411
2026-01-29 01:11:46.05	28.13	15.38	-37.4	-39.2	20.8	0.00e+00	0	43	0	417333248	46	4432
2026-01-29 01:11:46.79	28.19	15.46	-37.3	-39.1	20.9	0.00e+00	0	43	0	421527552	46	4378
2026-01-29 01:11:48.12	28.29	15.59	-37.2	-39.0	21.0	0.00e+00	0	43	0	428867584	46	4305
2026-01-29 01:11:48.83	28.34	15.66	-37.1	-38.9	21.1	0.00e+00	0	43	0	433061888	46	4287
2026-01-29 01:11:50.16	28.44	15.80	-37.2	-39.0	21.0	0.00e+00	0	43	0	440401920	46	4314
2026-01-29 01:11:50.87	28.50	15.87	-37.2	-39.0	21.0	0.00e+00	0	43	0	444596224	46	4299
2026-01-29 01:11:52.15	28.60	16.01	-37.1	-38.8	21.2	0.00e+00	0	43	0	451936256	46	4223
2026-01-29 01:11:52.87	28.65	16.08	-36.9	-38.7	21.2	0.00e+00	0	43	0	456130560	45	4415
2026-01-29 01:11:54.15	28.75	16.21	-36.8	-38.6	21.4	0.00e+00	0	43	0	462422016	45	4355
2026-01-29 01:11:54.86	28.81	16.29	-36.8	-38.5	21.4	0.00e+00	0	43	0	466616320	45	4322
2026-01-29 01:11:56.14	28.91	16.42	-36.8	-38.5	21.4	0.00e+00	0	43	0	473956352	45	4337
2026-01-29 01:11:56.85	28.97	16.50	-36.8	-38.5	21.4	0.00e+00	0	43	0	478150656	45	4334
2026-01-29 01:11:58.13	29.07	16.63	-36.9	-38.6	21.3	0.00e+00	0	43	0	485490688	45	4386
2026-01-29 01:11:58.85	29.13	16.71	-36.8	-38.5	21.4	0.00e+00	0	43	0	488636416	45	4339
2026-01-29 01:12:00.14	29.23	16.85	-36.8	-38.5	21.4	0.00e+00	0	43	0	495976448	45	4338
2026-01-29 01:12:00.85	29.29	16.92	-36.8	-38.6	21.4	0.00e+00	0	43	0	500170752	45	4342
2026-01-29 01:12:02.12	29.40	17.06	-36.9	-38.6	21.3	0.00e+00	0	43	0	507510784	45	4377
2026-01-29 01:12:02.85	29.46	17.14	-36.9	-38.6	21.3	0.00e+00	0	43	0	511705088	45	4381
2026-01-29 01:12:04.13	29.56	17.28	-36.8	-38.5	21.4	0.00e+00	0	43	0	519045120	45	4319
2026-01-29 01:12:05.09	29.64	17.38	-36.8	-38.5	21.5	0.00e+00	0	43	0	524288000	45	4300
2026-01-29 01:12:06.37	29.75	17.52	-36.7	-38.4	21.5	0.00e+00	0	43	0	531628032	45	4280
2026-01-29 01:12:07.12	29.82	17.60	-36.7	-38.4	21.6	0.00e+00	0	43	0	535822336	45	4263
2026-01-29 01:12:08.71	29.95	17.78	-36.6	-38.3	21.6	0.00e+00	0	43	0	544210944	45	4235
2026-01-29 01:12:09.28	30.00	17.84	-36.6	-38.3	21.7	0.00e+00	0	43	0	548405248	45	4207
2026-01-29 01:12:11.19	30.17	18.06	-36.5	-38.2	21.8	0.00e+00	0	43	0	558891008	45	4157
2026-01-29 01:12:12.11	30.25	18.16	-36.4	-38.1	21.8	0.00e+00	0	43	0	564133888	44	4387
2026-01-29 01:12:13.11	30.34	18.27	-36.4	-38.1	21.8	0.00e+00	0	43	0	569376768	44	4387
2026-01-29 01:12:14.10	30.43	18.38	-36.4	-38.1	21.8	0.00e+00	0	43	0	574619648	44	4391
2026-01-29 01:12:15.10	30.52	18.50	-36.6	-38.3	21.8	0.00e+00	0	43	0	580911104	44	4455
2026-01-29 01:12:16.09	30.61	18.61	-36.6	-38.3	21.7	0.00e+00	0	43	0	586153984	44	4478
2026-01-29 01:12:17.13	30.71	18.73	-36.7	-38.4	21.6	0.00e+00	0	43	0	592445440	44	4516
2026-01-29 01:12:18.09	30.79	18.84	-36.6	-38.4	21.6	0.00e+00	0	43	0	597688320	44	4507
2026-01-29 01:12:19.17	30.89	18.96	-36.5	-38.2	21.7	0.00e+00	0	43	0	603979776	44	4438
2026-01-29 01:12:20.05	30.98	19.06	-36.5	-38.2	21.8	0.00e+00	0	43	0	608174080	44	4413
2026-01-29 01:12:21.19	31.08	19.20	-36.6	-38.4	21.7	0.00e+00	0	43	0	614465536	44	4498
2026-01-29 01:12:22.10	31.17	19.30	-36.5	-38.2	21.7	0.00e+00	0	43	0	619708416	44	4437
2026-01-29 01:12:23.27	31.28	19.44	-36.4	-38.1	21.9	0.00e+00	0	43	0	627048448	44	4388
2026-01-29 01:12:24.13	31.37	19.54	-36.3	-38.0	22.0	0.00e+00	0	43	0	631242752	44	4306
2026-01-29 01:12:25.26	31.48	19.68	-36.3	-38.0	22.0	0.00e+00	0	43	0	637534208	44	4328
2026-01-29 01:12:26.12	31.56	19.78	-36.3	-38.0	22.0	0.00e+00	0	43	0	642777088	44	4309
2026-01-29 01:12:27.25	31.67	19.91	-36.2	-37.9	22.1	0.00e+00	0	43	0	649068544	44	4266
2026-01-29 01:12:28.11	31.76	20.01	-36.2	-37.9	22.1	0.00e+00	0	43	0	653262848	44	4271
2026-01-29 01:12:29.57	31.90	20.19	-36.2	-37.9	22.0	0.00e+00	0	43	0	661651456	44	4278
2026-01-29 01:12:30.28	31.97	20.28	-36.2	-37.9	21.8	0.00e+00	0	43	0	665845760	44	4253
2026-01-29 01:12:31.56	32.10	20.43	-36.2	-37.9	22.1	0.00e+00	0	43	0	673185792	44	4253
2026-01-29 01:12:32.27	32.18	20.52	-36.2	-37.9	22.1	0.00e+00	0	43	0	677380096	44	4276
2026-01-29 01:12:33.55	32.31	20.67	-36.2	-37.9	22.0	0.00e+00	0	43	0	684720128	44	4287
2026-01-29 01:12:34.26	32.38	20.76	-36.2	-37.9	22.1	0.00e+00	0	43	0	687865856	44	4288
2026-01-29 01:12:35.54	32.52	20.92	-36.2	-37.9	22.1	0.00e+00	0	43	0	695205888	44	4279
2026-01-29 01:12:36.25	32.59	21.01	-36.1	-37.8	22.2	0.00e+00	0	43	0	699400192	44	4233
2026-01-29 01:12:37.53	32.73	21.17	-36.0	-37.7	22.3	0.00e+00	0	43	0	706740224	44	4162
2026-01-29 01:12:38.25	32.81	21.26	-36.0	-37.7	22.3	0.00e+00	0	43	0	710934528	44	4160
2026-01-29 01:12:39.53	32.94	21.42	-36.1	-37.8	22.2	0.00e+00	0	43	0	718274560	44	4200
2026-01-29 01:12:40.26	33.02	21.51	-36.0	-37.7	22.3	0.00e+00	0	43	0	722468864	44	4167
2026-01-29 01:12:41.54	33.16	21.67	-36.0	-37.7	22.3	0.00e+00	0	43	0	729808896	44	4156
2026-01-29 01:12:42.25	33.24	21.76	-36.0	-37.7	22.3	0.00e+00	0	43	0	732954624	44	4178
2026-01-29 01:12:43.53	33.39	21.92	-36.1	-37.7	22.2	0.00e+00	0	43	0	740294656	44	4190
2026-01-29 01:12:44.25	33.47	22.02	-36.2	-37.9	22.1	0.00e+00	0	43	0	744488960	44	4276
2026-01-29 01:12:45.53	33.61	22.18	-36.1	-37.7	22.2	0.00e+00	0	43	0	751828992	44	4187
2026-01-29 01:12:46.24	33.69	22.27	-36.3	-38.0	22.1	0.00e+00	0	43	0	756023296	44	4300
2026-01-29 01:12:47.52	33.84	22.44	-36.0	-37.7	22.0	0.00e+00	0	43	0	763363328	44	4185
2026-01-29 01:12:48.23	33.92	22.53	-35.8	-37.5	22.3	0.00e+00	0	43	0	767557632	43	4315
2026-01-29 01:12:49.51	34.07	22.70	-35.6	-37.3	22.5	0.00e+00	0	43	0	773849088	43	4228
2026-01-29 01:12:50.23	34.16	22.79	-35.5	-37.2	22.6	0.00e+00	0	43	0	778043392	43	4179
2026-01-29 01:12:51.51	34.31	22.96	-35.6	-37.2	22.6	0.00e+00	0	43	0	785383424	43	4185
2026-01-29 01:12:52.23	34.40	23.06	-35.5	-37.2	22.6	0.00e+00	0	44	0	789577728	42	4399
2026-01-29 01:12:53.50	34.55	23.23	-35.4	-37.1	22.7	0.00e+00	0	43	0	796917760	42	4369
2026-01-29 01:12:54.22	34.64	23.32	-35.5	-37.1	22.7	0.00e+00	0	43	0	800063488	42	4382
2026-01-29 01:12:55.50	34.80	23.49	-35.4	-37.1	22.7	0.00e+00	0	43	0	807403520	42	4364
2026-01-29 01:12:56.22	34.89	23.59	-35.5	-37.2	22.6	0.00e+00	0	43	0	811597824	42	4395
2026-01-29 01:12:57.51	35.05	23.76	-35.5	-37.1	22.7	0.00e+00	0	43	0	818937856	42	4378
2026-01-29 01:12:58.22	35.14	23.86	-35.4	-37.1	22.7	0.00e+00	0	43	0	823132160	42	4351
2026-01-29 01:12:59.50	35.30	24.04	-35.4	-37.1	22.7	0.00e+00	0	44	0	830472192	42	4348
2026-01-29 01:13:00.21	35.39	24.13	-35.3	-36.9	22.8	0.00e+00	0	43	0	834666496	42	4284
2026-01-29 01:13:01.56	35.56	24.32	-35.2	-36.9	22.9	0.00e+00	0	43	0	842006528	42	4261
2026-01-29 01:13:02.27	35.66	24.42	-35.2	-36.8	23.0	0.00e+00	0	43	0	846200832	42	4222
2026-01-29 01:13:03.62	35.83	24.60	-35.1	-36.8	23.0	0.00e+00	0	43	0	853540864	42	4209
2026-01-29 01:13:04.33	35.93	24.70	-35.1	-36.8	23.0	0.00e+00	0	43	0	857735168	42	4196
2026-01-29 01:13:05.61	36.10	24.88	-35.2	-36.8	23.0	0.00e+00	0	43	0	865075200	42	4225
2026-01-29 01:13:06.32	36.20	24.98	-35.2	-36.8	23.0	0.00e+00	0	43	0	869269504	42	4227
2026-01-29 01:13:07.74	36.39	25.18	-35.2	-36.8	22.9	0.00e+00	0	43	0	876609536	42	4238
2026-01-29 01:13:08.45	36.49	25.28	-35.1	-36.8	23.0	0.00e+00	0	43	0	880803840	42	4203
2026-01-29 01:13:09.80	36.67	25.48	-35.2	-36.9	22.9	0.00e+00	0	43	0	888143872	42	4251
2026-01-29 01:13:10.51	36.77	25.58	-35.1	-36.7	23.0	0.00e+00	0	43	0	892338176	42	4193
2026-01-29 01:13:11.79	36.96	25.76	-35.2	-36.8	22.9	0.00e+00	0	43	0	899678208	42	4237
2026-01-29 01:13:12.50	37.06	25.86	-35.2	-36.8	23.0	0.00e+00	0	43	0	903872512	42	4232
2026-01-29 01:13:13.78	37.24	26.05	-35.2	-36.8	22.9	0.00e+00	0	43	0	911212544	42	4240
2026-01-29 01:13:14.50	37.34	26.15	-35.1	-36.8	23.0	0.00e+00	0	43	0	914358272	42	4194
2026-01-29 01:13:15.78	37.53	26.34	-34.9	-36.6	23.2	0.00e+00	0	43	0	921698304	41	4345
2026-01-29 01:13:16.51	37.64	26.45	-34.9	-36.5	23.2	0.00e+00	0	43	0	925892608	41	4319
2026-01-29 01:13:17.78	37.83	26.64	-35.0	-36.6	23.2	0.00e+00	0	44	0	933232640	41	4359
2026-01-29 01:13:18.51	37.94	26.74	-35.0	-36.6	23.2	0.00e+00	0	44	0	937426944	41	4368
2026-01-29 01:13:19.79	38.13	26.93	-35.0	-36.6	23.2	0.00e+00	0	43	0	944766976	41	4372
2026-01-29 01:13:20.51	38.24	27.04	-35.0	-36.6	23.1	0.00e+00	0	43	0	948961280	41	4372
2026-01-29 01:13:21.80	38.44	27.23	-34.9	-36.5	23.2	0.00e+00	0	43	0	955252736	41	4317
2026-01-29 01:13:22.52	38.56	27.34	-34.8	-36.4	23.3	0.00e+00	0	44	0	959447040	41	4276
2026-01-29 01:13:23.80	38.76	27.54	-34.8	-36.4	23.4	0.00e+00	0	43	0	966787072	41	4261
2026-01-29 01:13:24.72	38.90	27.68	-34.9	-36.5	23.2	0.00e+00	0	44	0	972029952	41	4336
2026-01-29 01:13:25.71	39.06	27.83	-34.9	-36.5	23.2	0.00e+00	0	43	0	977272832	41	4339
2026-01-29 01:13:26.71	39.22	27.98	-35.0	-36.6	23.2	0.00e+00	0	43	0	983564288	41	4380
2026-01-29 01:13:27.70	39.39	28.13	-35.0	-36.6	23.2	0.00e+00	0	43	0	988807168	41	4385
2026-01-29 01:13:28.70	39.55	28.29	-34.9	-36.6	23.2	0.00e+00	0	43	0	994050048	41	4357
2026-01-29 01:13:29.70	39.72	28.44	-35.0	-36.6	23.2	0.00e+00	0	43	0	1000341504	41	4365
2026-01-29 01:13:30.69	39.88	28.59	-35.0	-36.7	23.1	0.00e+00	0	43	0	1005584384	41	4408
2026-01-29 01:13:31.69	40.05	28.75	-34.9	-36.5	23.3	0.00e+00	0	43	0	1011875840	41	4322
2026-01-29 01:13:32.68	40.22	28.90	-34.9	-36.5	23.2	0.00e+00	0	43	0	1017118720	41	4320
2026-01-29 01:13:33.67	40.39	29.06	-34.9	-36.5	23.3	0.00e+00	0	43	0	1022361600	41	4325
2026-01-29 01:13:34.67	40.57	29.22	-35.0	-36.6	23.2	0.00e+00	0	43	0	1028653056	41	4366
2026-01-29 01:13:35.67	40.75	29.38	-34.9	-36.5	23.3	0.00e+00	0	43	0	1033895936	41	4318
2026-01-29 01:13:36.66	40.92	29.53	-34.7	-36.4	23.4	0.00e+00	0	43	0	1039138816	41	4246
2026-01-29 01:13:37.65	41.10	29.69	-34.7	-36.4	23.4	0.00e+00	0	43	0	1045430272	41	4248
2026-01-29 01:13:38.65	41.28	29.85	-34.8	-36.4	23.3	0.00e+00	0	43	0	1050673152	41	4290
2026-01-29 01:13:39.96	41.52	30.06	-34.8	-36.4	23.3	0.00e+00	0	43	0	1058013184	41	4291
2026-01-29 01:13:40.67	41.65	30.18	-34.9	-36.5	23.3	0.00e+00	0	43	0	1062207488	41	4312
2026-01-29 01:13:41.95	41.89	30.39	-34.9	-36.5	23.3	0.00e+00	0	44	0	1069547520	41	4322
2026-01-29 01:13:42.66	42.03	30.50	-34.9	-36.6	23.2	0.00e+00	0	43	0	1072693248	41	4343
2026-01-29 01:13:43.94	42.27	30.71	-34.8	-36.5	23.3	0.00e+00	0	44	0	1080033280	41	4295
2026-01-29 01:13:44.66	42.41	30.83	-34.8	-36.4	23.3	0.00e+00	0	44	0	1084227584	41	4290
2026-01-29 01:13:45.95	42.66	31.04	-34.9	-36.5	23.3	0.00e+00	0	43	0	1091567616	41	4326
2026-01-29 01:13:46.66	42.80	31.16	-34.9	-36.6	23.2	0.00e+00	0	43	0	1095761920	41	4350
2026-01-29 01:13:48.05	43.08	31.39	-34.9	-36.5	23.3	0.00e+00	0	44	0	1103101952	41	4312
2026-01-29 01:13:48.76	43.22	31.51	-34.9	-36.5	23.2	0.00e+00	0	43	0	1107296256	41	4325
2026-01-29 01:13:50.04	43.48	31.72	-34.7	-36.3	23.5	0.00e+00	0	43	0	1114636288	41	4225
2026-01-29 01:13:50.76	43.63	31.84	-34.8	-36.4	23.4	0.00e+00	0	44	0	1118830592	41	4257
2026-01-29 01:13:52.04	43.89	32.05	-34.6	-36.3	22.9	0.00e+00	0	43	0	1126170624	41	4217
2026-01-29 01:13:52.75	44.04	32.17	-34.7	-36.4	22.8	0.00e+00	0	43	0	1130364928	41	4261
2026-01-29 01:13:54.03	44.31	32.39	-34.6	-36.3	22.9	0.00e+00	0	43	0	1136656384	41	4212
2026-01-29 01:13:54.75	44.46	32.51	-34.6	-36.4	22.8	0.00e+00	0	43	0	1140850688	41	4245
2026-01-29 01:13:56.04	44.74	32.73	-34.7	-36.4	22.7	0.00e+00	0	43	0	1148190720	41	4282
2026-01-29 01:13:56.75	44.90	32.85	-34.7	-36.5	22.7	0.00e+00	0	44	0	1152385024	41	4303
2026-01-29 01:13:58.03	45.18	33.07	-34.8	-36.6	22.7	0.00e+00	0	44	0	1159725056	41	4359
2026-01-29 01:13:58.75	45.34	33.20	-34.7	-36.5	22.7	0.00e+00	0	44	0	1163919360	41	4312
2026-01-29 01:14:00.03	45.63	33.42	-34.7	-36.5	22.7	0.00e+00	0	44	0	1171259392	41	4293
2026-01-29 01:14:00.76	45.79	33.54	-34.7	-36.4	22.8	0.00e+00	0	44	0	1174405120	41	4268
2026-01-29 01:14:02.03	46.08	33.76	-34.5	-36.2	22.9	0.00e+00	0	43	0	1181745152	41	4193
2026-01-29 01:14:02.77	46.26	33.89	-34.5	-36.2	22.9	0.00e+00	0	44	0	1185939456	41	4182
2026-01-29 01:14:04.05	46.55	34.11	-34.5	-36.3	22.9	0.00e+00	0	44	0	1193279488	41	4198
2026-01-29 01:14:04.78	46.73	34.24	-34.5	-36.2	22.9	0.00e+00	0	43	0	1197473792	40	4402
2026-01-29 01:14:06.12	47.05	34.48	-34.6	-36.4	22.8	0.00e+00	0	44	0	1204813824	40	4502
2026-01-29 01:14:06.83	47.22	34.60	-34.7	-36.5	22.7	0.00e+00	0	44	0	1209008128	40	4569
2026-01-29 01:14:08.19	47.55	34.84	-34.8	-36.5	22.6	0.00e+00	0	44	0	1216348160	40	4580
2026-01-29 01:14:08.90	47.73	34.97	-34.8	-36.5	22.6	0.00e+00	0	44	0	1220542464	40	4584
2026-01-29 01:14:10.25	48.07	35.21	-34.8	-36.6	22.6	0.00e+00	0	44	0	1227882496	40	4599
2026-01-29 01:14:10.96	48.25	35.33	-34.7	-36.5	22.6	0.00e+00	0	44	0	1232076800	40	4573
2026-01-29 01:14:12.24	48.57	35.56	-34.6	-36.3	22.8	0.00e+00	0	44	0	1239416832	40	4493
2026-01-29 01:14:12.95	48.76	35.69	-34.5	-36.2	23.0	0.00e+00	0	44	0	1243611136	40	4422
2026-01-29 01:14:14.23	49.09	35.91	-34.2	-35.9	23.2	0.00e+00	0	43	0	1250951168	40	4280
2026-01-29 01:14:14.95	49.28	36.04	-34.2	-35.9	23.2	0.00e+00	0	44	0	1255145472	40	4270
2026-01-29 01:14:16.24	49.63	36.27	-34.3	-36.1	23.1	0.00e+00	0	44	0	1262485504	40	4347
2026-01-29 01:14:16.96	49.82	36.40	-34.3	-36.1	23.1	0.00e+00	0	44	0	1265631232	40	4349
2026-01-29 01:14:18.24	50.17	36.63	-34.4	-36.2	23.0	0.00e+00	0	44	0	1272971264	40	4393
2026-01-29 01:14:19.08	50.40	36.78	-34.5	-36.3	22.9	0.00e+00	0	44	0	1278214144	40	4449
2026-01-29 01:14:20.50	50.80	37.04	-34.6	-36.3	22.8	0.00e+00	0	44	0	1285554176	40	4486
2026-01-29 01:14:21.21	51.00	37.17	-34.6	-36.3	22.9	0.00e+00	0	44	0	1289748480	40	4478
2026-01-29 01:14:22.49	51.36	37.40	-34.5	-36.2	23.0	0.00e+00	0	44	0	1297088512	40	4409
2026-01-29 01:14:23.22	51.57	37.53	-34.5	-36.2	23.0	0.00e+00	0	43	0	1301282816	40	4439
2026-01-29 01:14:24.50	51.95	37.76	-34.4	-36.0	23.1	0.00e+00	0	43	0	1308622848	40	4339
2026-01-29 01:14:25.22	52.16	37.89	-34.2	-35.8	23.3	0.00e+00	0	43	0	1312817152	40	4240
2026-01-29 01:14:26.50	52.54	38.13	-34.4	-36.1	23.1	0.00e+00	0	44	0	1320157184	40	4349
2026-01-29 01:14:27.23	52.76	38.26	-34.4	-36.1	23.0	0.00e+00	0	44	0	1324351488	40	4391
2026-01-29 01:14:28.51	53.15	38.49	-34.6	-36.4	22.8	0.00e+00	0	44	0	1330642944	40	4500
2026-01-29 01:14:29.23	53.38	38.62	-34.5	-36.3	22.9	0.00e+00	0	43	0	1334837248	40	4453
2026-01-29 01:14:30.51	53.78	38.86	-34.3	-36.0	23.1	0.00e+00	0	44	0	1342177280	40	4318
2026-01-29 01:14:31.22	54.00	38.99	-34.2	-35.9	23.3	0.00e+00	0	43	0	1346371584	40	4254
2026-01-29 01:14:32.50	54.41	39.22	-34.0	-35.7	23.5	0.00e+00	0	44	0	1353711616	40	4178
2026-01-29 01:14:33.21	54.64	39.35	-34.1	-35.7	23.4	0.00e+00	0	43	0	1357905920	40	4189
2026-01-29 01:14:34.55	55.07	39.59	-34.2	-35.8	23.3	0.00e+00	0	44	0	1365245952	40	4236
2026-01-29 01:14:35.26	55.31	39.72	-34.4	-36.1	23.1	0.00e+00	0	44	0	1369440256	40	4382
2026-01-29 01:14:36.54	55.74	39.95	-34.8	-36.5	22.8	0.00e+00	0	44	0	1375731712	40	4580
2026-01-29 01:14:37.27	55.98	40.09	-34.8	-36.6	22.7	0.00e+00	0	44	0	1379926016	40	4601
2026-01-29 01:14:38.66	56.46	40.34	-34.7	-36.4	22.8	0.00e+00	0	44	0	1388314624	40	4538
2026-01-29 01:14:39.37	56.70	40.47	-34.6	-36.3	22.9	0.00e+00	0	44	0	1392508928	40	4491
2026-01-29 01:14:40.65	57.15	40.70	-34.6	-36.3	22.9	0.00e+00	0	44	0	1398800384	40	4482
2026-01-29 01:14:41.37	57.40	40.83	-34.6	-36.4	22.9	0.00e+00	0	43	0	1402994688	40	4495
2026-01-29 01:14:42.76	57.90	41.08	-34.6	-36.3	23.0	0.00e+00	0	44	0	1411383296	40	4467
2026-01-29 01:14:43.47	58.15	41.21	-34.6	-36.3	23.0	0.00e+00	0	43	0	1415577600	40	4459
2026-01-29 01:14:44.75	58.62	41.44	-34.8	-36.5	22.8	0.00e+00	0	43	0	1421869056	40	4580
2026-01-29 01:14:45.48	58.89	41.57	-34.7	-36.4	22.8	0.00e+00	0	44	0	1426063360	40	4534
2026-01-29 01:14:46.76	59.37	41.80	-34.5	-36.2	22.9	0.00e+00	0	44	0	1433403392	40	4441
2026-01-29 01:14:47.48	59.64	41.93	-34.4	-36.2	23.0	0.00e+00	0	43	0	1437597696	40	4395
2026-01-29 01:14:48.76	60.13	42.15	-34.4	-36.1	23.1	0.00e+00	0	43	0	1444937728	40	4389
2026-01-29 01:14:49.47	60.40	42.28	-34.4	-36.1	23.1	0.00e+00	0	44	0	1449132032	40	4372
2026-01-29 01:14:50.77	60.91	42.51	-34.4	-36.1	23.1	0.00e+00	0	44	0	1456472064	40	4368
2026-01-29 01:14:51.48	61.19	42.63	-34.3	-36.0	23.1	0.00e+00	0	43	0	1460666368	40	4320
2026-01-29 01:14:52.76	61.70	42.86	-34.5	-36.2	23.0	0.00e+00	0	44	0	1466957824	40	4434
2026-01-29 01:14:53.61	62.04	43.01	-34.5	-36.2	23.0	0.00e+00	0	44	0	1472200704	40	4412
2026-01-29 01:14:54.99	62.61	43.25	-34.5	-36.3	22.9	0.00e+00	0	44	0	1479540736	40	4444
2026-01-29 01:14:55.70	62.90	43.37	-34.6	-36.3	22.9	0.00e+00	0	44	0	1483735040	40	4485
2026-01-29 01:14:56.98	63.43	43.59	-34.6	-36.3	22.9	0.00e+00	0	44	0	1491075072	40	4450
2026-01-29 01:14:57.69	63.73	43.71	-34.5	-36.2	23.1	0.00e+00	0	43	0	1495269376	40	4412
2026-01-29 01:14:58.97	64.28	43.93	-34.6	-36.3	23.0	0.00e+00	0	44	0	1502609408	40	4455
2026-01-29 01:14:59.71	64.60	44.06	-34.5	-36.2	23.0	0.00e+00	0	43	0	1506803712	40	4434
2026-01-29 01:15:00.99	65.15	44.27	-34.7	-36.4	22.9	0.00e+00	0	43	0	1514143744	40	4543
2026-01-29 01:15:01.70	65.47	44.39	-34.8	-36.6	22.8	0.00e+00	0	43	0	1517289472	40	4599
2026-01-29 01:15:02.98	66.04	44.60	-35.0	-36.7	22.7	0.00e+00	0	43	0	1524629504	40	4673
2026-01-29 01:15:03.72	66.37	44.73	-35.0	-36.7	22.6	0.00e+00	0	44	0	1528823808	40	4698
2026-01-29 01:15:05.00	66.95	44.94	-35.0	-36.8	22.6	0.00e+00	0	44	0	1536163840	40	4710
2026-01-29 01:15:05.73	67.28	45.05	-34.9	-36.6	22.7	0.00e+00	0	43	0	1540358144	40	4640
2026-01-29 01:15:07.01	67.88	45.26	-34.8	-36.5	22.8	0.00e+00	0	43	0	1547698176	40	4569
2026-01-29 01:15:07.72	68.21	45.37	-35.0	-36.7	22.6	0.00e+00	0	43	0	1551892480	40	4678
2026-01-29 01:15:09.00	68.81	45.58	-35.0	-36.7	22.6	0.00e+00	0	44	0	1559232512	40	4694
2026-01-29 01:15:09.71	69.15	45.69	-35.0	-36.7	22.6	0.00e+00	0	44	0	1562378240	40	4681
2026-01-29 01:15:10.99	69.77	45.89	-34.9	-36.6	22.7	0.00e+00	0	44	0	1569718272	40	4630
2026-01-29 01:15:11.70	70.11	46.00	-35.0	-36.7	22.6	0.00e+00	0	43	0	1573912576	40	4674
2026-01-29 01:15:13.13	70.82	46.21	-35.1	-36.8	22.6	0.00e+00	0	43	0	1582301184	40	4750
2026-01-29 01:15:13.85	71.17	46.32	-35.0	-36.7	22.7	0.00e+00	0	44	0	1586495488	40	4694
2026-01-29 01:15:15.12	71.81	46.51	-34.6	-36.3	23.0	0.00e+00	0	43	0	1593835520	40	4487
2026-01-29 01:15:16.20	72.36	46.67	-34.4	-36.1	23.2	0.00e+00	0	44	0	1599078400	40	4351
2026-01-29 01:15:17.35	72.95	46.83	-34.5	-36.2	23.1	0.00e+00	0	44	0	1605369856	40	4404
2026-01-29 01:15:18.20	73.38	46.95	-34.7	-36.3	23.0	0.00e+00	0	44	0	1610612736	40	4491
2026-01-29 01:15:19.70	74.17	47.16	-34.9	-36.6	22.7	0.00e+00	0	44	0	1619001344	40	4646
2026-01-29 01:15:20.41	74.54	47.26	-34.9	-36.7	22.8	0.00e+00	0	44	0	1623195648	40	4655
2026-01-29 01:15:21.71	75.23	47.44	-34.8	-36.6	22.8	0.00e+00	0	44	0	1630535680	40	4607
2026-01-29 01:15:22.42	75.61	47.53	-35.0	-36.7	22.6	0.00e+00	0	44	0	1634729984	40	4689
2026-01-29 01:15:23.70	76.31	47.70	-34.9	-36.6	22.8	0.00e+00	0	44	0	1641021440	40	4610
2026-01-29 01:15:24.41	76.69	47.79	-34.9	-36.6	22.8	0.00e+00	0	43	0	1645215744	40	4614
2026-01-29 01:15:25.71	77.41	47.95	-35.1	-36.8	22.6	0.00e+00	0	43	0	1652555776	40	4731
2026-01-29 01:15:26.42	77.80	48.04	-34.9	-36.6	22.8	0.00e+00	0	44	0	1656750080	40	4623
2026-01-29 01:15:27.70	78.52	48.20	-34.9	-36.6	22.8	0.00e+00	0	43	0	1664090112	40	4623
2026-01-29 01:15:28.58	79.01	48.30	-34.7	-36.3	23.0	0.00e+00	0	43	0	1669332992	40	4493
2026-01-29 01:15:29.72	79.66	48.43	-34.8	-36.5	22.9	0.00e+00	0	44	0	1675624448	40	4551
2026-01-29 01:15:30.57	80.15	48.53	-34.9	-36.6	22.9	0.00e+00	0	44	0	1679818752	40	4611
2026-01-29 01:15:31.71	80.80	48.65	-34.9	-36.7	22.8	0.00e+00	0	44	0	1686110208	40	4659
2026-01-29 01:15:32.56	81.30	48.74	-34.9	-36.6	22.8	0.00e+00	0	44	0	1691353088	40	4626
2026-01-29 01:15:33.69	81.96	48.86	-34.8	-36.5	22.9	0.00e+00	0	43	0	1697644544	40	4579
2026-01-29 01:15:34.55	82.46	48.95	-34.8	-36.5	22.9	0.00e+00	0	44	0	1702887424	40	4575
2026-01-29 01:15:35.68	83.13	49.06	-34.9	-36.6	22.8	0.00e+00	0	44	0	1709178880	40	4615
2026-01-29 01:15:36.54	83.64	49.14	-34.9	-36.7	22.7	0.00e+00	0	44	0	1713373184	40	4665
2026-01-29 01:15:37.67	84.32	49.25	-35.0	-36.7	22.7	0.00e+00	0	44	0	1720713216	40	4678
2026-01-29 01:15:38.53	84.84	49.33	-34.9	-36.7	22.7	0.00e+00	0	44	0	1724907520	40	4668
2026-01-29 01:15:39.66	85.52	49.42	-34.8	-36.5	22.8	0.00e+00	0	43	0	1731198976	40	4570
2026-01-29 01:15:40.52	86.05	49.49	-34.8	-36.5	22.8	0.00e+00	0	44	0	1736441856	40	4587
2026-01-29 01:15:41.66	86.74	49.59	-35.0	-36.7	22.7	0.00e+00	0	43	0	1742733312	40	4675
2026-01-29 01:15:42.51	87.27	49.65	-35.0	-36.7	22.6	0.00e+00	0	43	0	1746927616	40	4704
2026-01-29 01:15:43.65	87.97	49.73	-34.9	-36.7	22.7	0.00e+00	0	43	0	1753219072	40	4660
2026-01-29 01:15:44.50	88.50	49.79	-34.7	-36.4	22.9	0.00e+00	0	43	0	1758461952	40	4541
2026-01-29 01:15:45.64	89.21	49.87	-34.7	-36.4	22.9	0.00e+00	0	43	0	1764753408	40	4544
2026-01-29 01:15:46.86	89.98	49.95	-34.6	-36.3	23.0	0.00e+00	0	43	0	1772093440	40	4484
2026-01-29 01:15:47.71	90.51	50.00	-34.6	-36.3	23.1	0.00e+00	0	43	0	1776287744	40	4477
2026-01-29 01:15:48.84	91.23	50.06	-34.9	-36.6	22.8	0.00e+00	0	43	0	1782579200	40	4628
2026-01-29 01:15:49.70	91.77	50.10	-34.8	-36.5	22.8	0.00e+00	0	43	0	1787822080	40	4597
2026-01-29 01:15:50.83	92.49	50.16	-34.8	-36.4	22.9	0.00e+00	0	43	0	1794113536	40	4545
2026-01-29 01:15:51.69	93.04	50.19	-35.0	-36.7	22.7	0.00e+00	0	44	0	1799356416	40	4679
2026-01-29 01:15:52.83	93.77	50.24	-35.2	-36.9	22.6	0.00e+00	0	44	0	1805647872	41	4535
2026-01-29 01:15:53.68	94.32	50.27	-35.1	-36.8	22.6	0.00e+00	0	43	0	1809842176	41	4479
2026-01-29 01:15:54.81	95.05	50.31	-35.0	-36.7	22.7	0.00e+00	0	43	0	1816133632	41	4426
2026-01-29 01:15:55.66	95.59	50.34	-35.0	-36.6	22.8	0.00e+00	0	44	0	1821376512	41	4383
2026-01-29 01:15:56.80	96.33	50.37	-34.8	-36.4	22.9	0.00e+00	0	44	0	1827667968	41	4288
2026-01-29 01:15:57.67	96.89	50.38	-35.0	-36.7	22.7	0.00e+00	0	44	0	1832910848	41	4422
2026-01-29 01:15:58.98	97.74	50.41	-35.1	-36.8	22.6	0.00e+00	0	44	0	1840250880	41	4479
2026-01-29 01:15:59.69	98.20	50.42	-35.2	-36.9	22.5	0.00e+00	0	44	0	1844445184	41	4528
2026-01-29 01:16:00.97	99.03	50.43	-34.8	-36.5	22.9	0.00e+00	0	44	0	1851785216	41	4319
2026-01-29 01:16:01.68	99.50	50.44	-34.8	-36.5	22.9	0.00e+00	0	44	0	1854930944	41	4320
2026-01-29 01:16:03.24	100.51	50.44	-35.0	-36.7	22.7	0.00e+00	0	44	0	1864368128	41	4439
2026-01-29 01:16:03.95	100.97	50.44	-35.0	-36.7	22.7	0.00e+00	0	44	0	1867513856	41	4427
2026-01-29 01:16:05.23	101.80	50.43	-35.0	-36.7	22.7	0.00e+00	0	43	0	1874853888	41	4420
2026-01-29 01:16:05.94	102.26	50.42	-35.0	-36.7	22.7	0.00e+00	0	44	0	1879048192	41	4436
2026-01-29 01:16:07.22	103.10	50.41	-34.6	-36.3	23.1	0.00e+00	0	44	0	1886388224	41	4217
2026-01-29 01:16:07.93	103.56	50.40	-34.7	-36.3	23.0	0.00e+00	0	43	0	1890582528	41	4231
2026-01-29 01:16:09.21	104.38	50.37	-34.9	-36.6	22.8	0.00e+00	0	43	0	1896873984	41	4374
2026-01-29 01:16:09.92	104.84	50.35	-35.0	-36.7	22.7	0.00e+00	0	43	0	1902116864	41	4413
2026-01-29 01:16:11.21	105.68	50.31	-35.1	-36.8	22.7	0.00e+00	0	43	0	1908408320	41	4457
2026-01-29 01:16:11.92	106.13	50.29	-34.9	-36.6	22.8	0.00e+00	0	44	0	1912602624	41	4348
2026-01-29 01:16:13.20	106.96	50.24	-34.8	-36.5	22.9	0.00e+00	0	44	0	1919942656	41	4299
2026-01-29 01:16:13.92	107.42	50.22	-34.7	-36.4	22.9	0.00e+00	0	44	0	1924136960	41	4276
2026-01-29 01:16:15.20	108.24	50.16	-34.8	-36.5	22.8	0.00e+00	0	43	0	1931476992	41	4318
2026-01-29 01:16:15.92	108.70	50.13	-34.8	-36.5	22.9	0.00e+00	0	44	0	1935671296	41	4314
2026-01-29 01:16:17.21	109.52	50.06	-35.0	-36.7	22.7	0.00e+00	0	44	0	1941962752	41	4409
2026-01-29 01:16:17.92	109.97	50.02	-35.0	-36.7	22.7	0.00e+00	0	44	0	1946157056	41	4409
2026-01-29 01:16:19.20	110.78	49.95	-35.1	-36.8	22.6	0.00e+00	0	44	0	1953497088	41	4480
2026-01-29 01:16:19.91	111.22	49.91	-35.1	-36.9	22.6	0.00e+00	0	44	0	1957691392	41	4509
2026-01-29 01:16:21.30	112.09	49.81	-35.0	-36.7	22.7	0.00e+00	0	44	0	1965031424	41	4405
2026-01-29 01:16:22.01	112.53	49.77	-34.9	-36.6	22.8	0.00e+00	0	44	0	1969225728	41	4354
2026-01-29 01:16:23.29	113.33	49.67	-34.5	-36.2	23.1	0.00e+00	0	43	0	1976565760	41	4178
2026-01-29 01:16:24.01	113.77	49.62	-34.5	-36.3	23.1	0.00e+00	0	44	0	1980760064	41	4196
2026-01-29 01:16:25.30	114.57	49.52	-34.6	-36.3	22.9	0.00e+00	0	44	0	1988100096	41	4241
2026-01-29 01:16:26.01	115.00	49.46	-34.9	-36.6	22.7	0.00e+00	0	44	0	1992294400	41	4369
2026-01-29 01:16:27.29	115.78	49.35	-35.2	-36.9	22.5	0.00e+00	0	44	0	1999634432	41	4525
2026-01-29 01:16:28.00	116.21	49.29	-35.2	-36.9	22.4	0.00e+00	0	44	0	2002780160	41	4536
2026-01-29 01:16:29.28	116.98	49.17	-35.2	-36.9	22.5	0.00e+00	0	44	0	2010120192	41	4510
2026-01-29 01:16:30.00	117.41	49.10	-35.1	-36.9	22.6	0.00e+00	0	44	0	2014314496	41	4503
2026-01-29 01:16:31.28	118.17	48.98	-35.0	-36.7	22.7	0.00e+00	0	44	0	2021654528	41	4409
2026-01-29 01:16:31.99	118.59	48.91	-34.9	-36.6	22.8	0.00e+00	0	44	0	2025848832	41	4348
2026-01-29 01:16:33.27	119.34	48.77	-35.0	-36.7	22.7	0.00e+00	0	44	0	2033188864	41	4416
2026-01-29 01:16:34.00	119.76	48.69	-35.1	-36.8	22.6	0.00e+00	0	44	0	2037383168	41	4493
2026-01-29 01:16:35.28	120.50	48.55	-35.0	-36.7	22.6	0.00e+00	0	44	0	2044723200	41	4441
2026-01-29 01:16:36.00	120.92	48.47	-34.8	-36.5	22.8	0.00e+00	0	44	0	2047868928	41	4331
2026-01-29 01:16:37.28	121.64	48.33	-34.9	-36.6	22.8	0.00e+00	0	44	0	2055208960	41	4381
2026-01-29 01:16:37.99	122.05	48.24	-35.0	-36.7	22.7	0.00e+00	0	44	0	2059403264	41	4421
2026-01-29 01:16:39.27	122.76	48.09	-35.2	-37.0	22.5	0.00e+00	0	44	0	2066743296	41	4559
2026-01-29 01:16:39.98	123.16	48.00	-35.2	-37.0	22.5	0.00e+00	0	44	0	2070937600	41	4546
2026-01-29 01:16:41.26	123.87	47.84	-35.0	-36.7	22.7	0.00e+00	0	44	0	2077229056	41	4424
2026-01-29 01:16:42.00	124.27	47.75	-34.9	-36.6	22.8	0.00e+00	0	44	0	2081423360	41	4375
2026-01-29 01:16:43.28	124.97	47.58	-34.9	-36.6	22.8	0.00e+00	0	44	0	2088763392	41	4355
2026-01-29 01:16:44.01	125.36	47.48	-34.8	-36.6	22.8	0.00e+00	0	44	0	2092957696	41	4350
2026-01-29 01:16:45.29	126.05	47.31	-34.6	-36.3	23.0	0.00e+00	0	44	0	2100297728	41	4227
2026-01-29 01:16:46.00	126.42	47.21	-34.5	-36.2	23.1	0.00e+00	0	44	0	2104492032	41	4160
2026-01-29 01:16:47.28	127.10	47.04	-34.6	-36.3	23.0	0.00e+00	0	43	0	2111832064	40	4471
2026-01-29 01:16:48.00	127.47	46.94	-34.8	-36.5	22.8	0.00e+00	0	44	0	2116026368	40	4552
2026-01-29 01:16:49.28	128.13	46.75	-34.9	-36.7	22.7	0.00e+00	0	44	0	2123366400	40	4682
2026-01-29 01:16:50.00	128.50	46.65	-35.0	-36.7	22.6	0.00e+00	0	44	0	2126512128	40	4685
2026-01-29 01:16:51.28	129.15	46.46	-35.0	-36.7	22.6	0.00e+00	0	44	0	2133852160	40	4695
2026-01-29 01:16:52.08	129.55	46.34	-34.9	-36.6	22.7	0.00e+00	0	43	0	2139095040	40	4640
2026-01-29 01:16:53.52	130.27	46.12	-34.7	-36.4	22.9	0.00e+00	0	44	0	2146435072	40	4501
2026-01-29 01:16:54.23	130.62	46.01	-34.6	-36.3	23.0	0.00e+00	0	44	0	2150629376	40	4482
2026-01-29 01:16:55.53	131.25	45.81	-34.6	-36.3	22.9	0.00e+00	0	44	0	2157969408	40	4489
2026-01-29 01:16:56.24	131.59	45.70	-34.6	-36.3	22.9	0.00e+00	0	43	0	2162163712	40	4481
2026-01-29 01:16:57.51	132.20	45.50	-34.8	-36.5	22.8	0.00e+00	0	44	0	2169503744	40	4566
2026-01-29 01:16:58.24	132.54	45.39	-34.9	-36.6	22.7	0.00e+00	0	44	0	2173698048	40	4638
2026-01-29 01:16:59.52	133.14	45.18	-35.0	-36.7	22.6	0.00e+00	0	44	0	2181038080	40	4704
2026-01-29 01:17:00.25	133.48	45.06	-34.9	-36.7	22.7	0.00e+00	0	44	0	2184183808	40	4652
2026-01-29 01:17:01.52	134.06	44.85	-34.9	-36.6	22.7	0.00e+00	0	44	0	2191523840	40	4650
2026-01-29 01:17:02.24	134.39	44.74	-35.0	-36.7	22.6	0.00e+00	0	44	0	2195718144	40	4681
2026-01-29 01:17:03.52	134.97	44.52	-35.2	-37.0	22.3	0.00e+00	0	44	0	2203058176	41	4572
2026-01-29 01:17:04.23	135.28	44.41	-35.3	-37.1	22.3	0.00e+00	0	44	0	2207252480	41	4605
2026-01-29 01:17:05.51	135.84	44.19	-35.1	-36.9	22.4	0.00e+00	0	44	0	2214592512	41	4498
2026-01-29 01:17:06.23	136.16	44.07	-35.1	-36.9	22.4	0.00e+00	0	44	0	2218786816	41	4501
2026-01-29 01:17:07.51	136.71	43.85	-35.0	-36.8	22.5	0.00e+00	0	44	0	2225078272	41	4461
2026-01-29 01:17:08.25	137.03	43.72	-34.8	-36.6	22.6	0.00e+00	0	44	0	2229272576	41	4354
2026-01-29 01:17:09.53	137.57	43.50	-34.6	-36.3	22.8	0.00e+00	0	44	0	2236612608	41	4223
2026-01-29 01:17:10.26	137.87	43.38	-34.6	-36.3	22.9	0.00e+00	0	44	0	2240806912	41	4201
2026-01-29 01:17:11.54	138.40	43.15	-34.6	-36.3	22.9	0.00e+00	0	44	0	2248146944	41	4226
2026-01-29 01:17:12.26	138.69	43.03	-34.8	-36.5	22.7	0.00e+00	0	43	0	2252341248	41	4328
2026-01-29 01:17:13.54	139.21	42.80	-35.1	-36.8	22.5	0.00e+00	0	44	0	2259681280	41	4489
2026-01-29 01:17:14.25	139.50	42.68	-35.0	-36.8	22.5	0.00e+00	0	44	0	2262827008	41	4470
2026-01-29 01:17:15.53	140.00	42.45	-35.1	-36.8	22.5	0.00e+00	0	44	0	2270167040	41	4477
2026-01-29 01:17:16.25	140.28	42.32	-35.0	-36.7	22.6	0.00e+00	0	44	0	2274361344	41	4404
2026-01-29 01:17:17.53	140.78	42.09	-34.7	-36.4	22.8	0.00e+00	0	44	0	2281701376	41	4283
2026-01-29 01:17:18.26	141.06	41.96	-34.7	-36.4	22.8	0.00e+00	0	44	0	2285895680	41	4249
2026-01-29 01:17:19.54	141.54	41.73	-34.7	-36.4	22.7	0.00e+00	0	44	0	2293235712	41	4286
2026-01-29 01:17:20.25	141.81	41.61	-34.8	-36.5	22.6	0.00e+00	0	44	0	2297430016	41	4340
2026-01-29 01:17:21.53	142.28	41.38	-34.7	-36.4	22.7	0.00e+00	0	44	0	2304770048	41	4291
2026-01-29 01:17:22.24	142.54	41.25	-34.6	-36.4	22.7	0.00e+00	0	43	0	2307915776	41	4262
2026-01-29 01:17:23.53	143.01	41.01	-34.7	-36.4	22.8	0.00e+00	0	44	0	2315255808	41	4255
2026-01-29 01:17:24.24	143.27	40.89	-34.5	-36.2	22.9	0.00e+00	0	44	0	2319450112	41	4189
2026-01-29 01:17:25.52	143.72	40.65	-34.5	-36.2	22.9	0.00e+00	0	44	0	2326790144	40	4413
2026-01-29 01:17:26.25	143.98	40.52	-34.5	-36.2	22.9	0.00e+00	0	43	0	2330984448	40	4435
2026-01-29 01:17:27.53	144.42	40.29	-34.6	-36.3	22.9	0.00e+00	0	44	0	2338324480	40	4463
2026-01-29 01:17:28.25	144.67	40.16	-34.6	-36.3	22.9	0.00e+00	0	44	0	2342518784	40	4455
2026-01-29 01:17:29.53	145.10	39.92	-34.5	-36.2	23.0	0.00e+00	0	44	0	2349858816	40	4400
2026-01-29 01:17:30.26	145.34	39.79	-34.3	-36.0	23.1	0.00e+00	0	44	0	2353004544	40	4312
2026-01-29 01:17:31.54	145.77	39.56	-34.4	-36.1	23.1	0.00e+00	0	44	0	2360344576	40	4344
2026-01-29 01:17:32.26	146.01	39.42	-34.4	-36.1	23.1	0.00e+00	0	44	0	2364538880	40	4351
2026-01-29 01:17:33.54	146.42	39.19	-34.4	-36.1	23.0	0.00e+00	0	44	0	2371878912	40	4384
2026-01-29 01:17:34.25	146.65	39.06	-34.4	-36.1	23.0	0.00e+00	0	44	0	2376073216	40	4391
2026-01-29 01:17:35.53	147.05	38.83	-34.5	-36.2	22.9	0.00e+00	0	44	0	2383413248	40	4414
2026-01-29 01:17:36.24	147.28	38.70	-34.4	-36.1	23.0	0.00e+00	0	44	0	2386558976	40	4390
2026-01-29 01:17:37.52	147.68	38.46	-34.5	-36.2	22.9	0.00e+00	0	44	0	2393899008	40	4438
2026-01-29 01:17:38.25	147.90	38.33	-34.4	-36.2	23.0	0.00e+00	0	44	0	2398093312	40	4404
2026-01-29 01:17:39.53	148.29	38.09	-34.3	-36.0	23.1	0.00e+00	0	43	0	2405433344	40	4331
2026-01-29 01:17:40.24	148.50	37.96	-34.3	-36.0	23.1	0.00e+00	0	44	0	2409627648	40	4311
2026-01-29 01:17:41.63	148.91	37.71	-34.4	-36.1	23.0	0.00e+00	0	44	0	2416967680	40	4359
2026-01-29 01:17:42.34	149.12	37.58	-34.1	-35.8	23.2	0.00e+00	0	44	0	2421161984	40	4225
2026-01-29 01:17:43.62	149.49	37.35	-34.2	-35.9	23.1	0.00e+00	0	44	0	2428502016	40	4278
2026-01-29 01:17:44.34	149.70	37.22	-34.3	-36.0	23.1	0.00e+00	0	44	0	2432696320	40	4295
2026-01-29 01:17:45.76	150.10	36.96	-34.4	-36.2	23.0	0.00e+00	0	43	0	2440036352	40	4395
2026-01-29 01:17:46.47	150.30	36.83	-34.4	-36.1	23.0	0.00e+00	0	44	0	2444230656	40	4383
2026-01-29 01:17:47.75	150.66	36.60	-34.4	-36.1	23.0	0.00e+00	0	44	0	2451570688	40	4377
2026-01-29 01:17:48.48	150.86	36.47	-34.4	-36.1	23.1	0.00e+00	0	44	0	2455764992	40	4361
2026-01-29 01:17:49.76	151.20	36.24	-34.3	-35.9	23.2	0.00e+00	0	43	0	2463105024	40	4281
2026-01-29 01:17:50.48	151.40	36.11	-34.2	-35.9	23.2	0.00e+00	0	44	0	2467299328	40	4279
2026-01-29 01:17:51.76	151.74	35.88	-34.2	-35.9	23.2	0.00e+00	0	44	0	2474639360	40	4263
2026-01-29 01:17:52.49	151.93	35.74	-34.3	-36.0	23.1	0.00e+00	0	44	0	2478833664	40	4295
2026-01-29 01:17:53.77	152.26	35.51	-34.5	-36.2	22.9	0.00e+00	0	44	0	2485125120	40	4414
2026-01-29 01:17:54.51	152.45	35.38	-34.5	-36.3	22.9	0.00e+00	0	44	0	2489319424	40	4447
2026-01-29 01:17:55.79	152.78	35.15	-34.5	-36.2	22.9	0.00e+00	0	44	0	2496659456	40	4436
2026-01-29 01:17:56.50	152.96	35.03	-34.5	-36.2	22.9	0.00e+00	0	44	0	2500853760	40	4417
2026-01-29 01:17:57.78	153.27	34.80	-34.5	-36.2	22.9	0.00e+00	0	44	0	2508193792	40	4416
2026-01-29 01:17:58.58	153.47	34.66	-34.3	-36.1	23.0	0.00e+00	0	44	0	2512388096	40	4346
2026-01-29 01:17:59.72	153.75	34.46	-34.3	-36.0	23.0	0.00e+00	0	44	0	2519728128	40	4317
2026-01-29 01:18:00.58	153.96	34.31	-34.3	-36.0	23.0	0.00e+00	0	44	0	2523922432	40	4333
2026-01-29 01:18:01.71	154.23	34.11	-34.3	-36.0	23.0	0.00e+00	0	44	0	2530213888	40	4340
2026-01-29 01:18:02.56	154.43	33.96	-34.3	-36.0	23.0	0.00e+00	0	43	0	2535456768	40	4335
2026-01-29 01:18:03.70	154.69	33.76	-34.3	-36.0	23.1	0.00e+00	0	44	0	2541748224	40	4321
2026-01-29 01:18:04.55	154.89	33.61	-34.4	-36.1	23.0	0.00e+00	0	44	0	2545942528	40	4365
2026-01-29 01:18:05.69	155.15	33.41	-34.4	-36.1	22.9	0.00e+00	0	44	0	2552233984	40	4379
2026-01-29 01:18:06.54	155.34	33.26	-34.4	-36.1	23.0	0.00e+00	0	44	0	2557476864	40	4350
2026-01-29 01:18:07.68	155.60	33.07	-34.5	-36.2	22.8	0.00e+00	0	43	0	2563768320	40	4430
2026-01-29 01:18:08.53	155.79	32.92	-34.5	-36.3	22.8	0.00e+00	0	44	0	2569011200	40	4443
2026-01-29 01:18:09.67	156.04	32.72	-34.4	-36.2	22.8	0.00e+00	0	44	0	2575302656	40	4403
2026-01-29 01:18:10.52	156.22	32.58	-34.5	-36.3	22.8	0.00e+00	0	43	0	2579496960	40	4455
2026-01-29 01:18:11.66	156.47	32.38	-34.7	-36.4	22.7	0.00e+00	0	44	0	2585788416	40	4510
2026-01-29 01:18:12.62	156.67	32.22	-34.7	-36.4	22.7	0.00e+00	0	44	0	2592079872	40	4520
2026-01-29 01:18:13.62	156.88	32.05	-34.7	-36.4	22.6	0.00e+00	0	44	0	2597322752	40	4531
2026-01-29 01:18:14.61	157.09	31.88	-34.8	-36.6	22.5	0.00e+00	0	44	0	2602565632	40	4601
2026-01-29 01:18:15.61	157.29	31.71	-34.8	-36.6	22.5	0.00e+00	0	44	0	2608857088	40	4625
2026-01-29 01:18:16.60	157.50	31.55	-34.9	-36.7	22.4	0.00e+00	0	44	0	2614099968	40	4699
2026-01-29 01:18:17.60	157.70	31.38	-35.0	-36.8	22.3	0.00e+00	0	43	0	2619342848	40	4719
2026-01-29 01:18:18.95	157.97	31.15	-35.0	-36.8	22.3	0.00e+00	0	44	0	2627731456	40	4751
2026-01-29 01:18:19.70	158.12	31.03	-35.0	-36.8	22.3	0.00e+00	0	44	0	2631925760	40	4706
2026-01-29 01:18:20.97	158.36	30.82	-34.9	-36.7	22.4	0.00e+00	0	44	0	2639265792	40	4672
2026-01-29 01:18:21.71	158.51	30.70	-34.9	-36.7	22.4	0.00e+00	0	44	0	2642411520	40	4679
2026-01-29 01:18:22.99	158.75	30.49	-35.0	-36.7	22.3	0.00e+00	0	44	0	2649751552	40	4700
2026-01-29 01:18:23.70	158.89	30.37	-34.9	-36.7	22.4	0.00e+00	0	43	0	2653945856	40	4672
2026-01-29 01:18:24.98	159.13	30.16	-35.1	-36.9	22.3	0.00e+00	0	44	0	2661285888	40	4770
2026-01-29 01:18:25.71	159.26	30.04	-35.0	-36.8	22.4	0.00e+00	0	44	0	2665480192	40	4715
2026-01-29 01:18:26.99	159.50	29.83	-35.0	-36.8	22.4	0.00e+00	0	44	0	2672820224	40	4718
2026-01-29 01:18:27.71	159.63	29.72	-35.0	-36.7	22.4	0.00e+00	0	44	0	2675965952	40	4700
2026-01-29 01:18:28.99	159.86	29.51	-35.1	-36.9	22.3	0.00e+00	0	44	0	2683305984	40	4780
2026-01-29 01:18:29.74	160.00	29.39	-35.2	-37.0	22.2	0.00e+00	0	44	0	2687500288	40	4823
2026-01-29 01:18:31.16	160.25	29.17	-35.1	-36.9	22.2	0.00e+00	0	44	0	2695888896	40	4804
2026-01-29 01:18:31.87	160.37	29.05	-35.1	-36.9	22.2	0.00e+00	0	44	0	2700083200	41	4533
2026-01-29 01:18:33.18	160.60	28.85	-35.0	-36.8	22.4	0.00e+00	0	44	0	2707423232	41	4450
2026-01-29 01:18:33.89	160.72	28.73	-35.0	-36.8	22.4	0.00e+00	0	44	0	2711617536	41	4456
2026-01-29 01:18:35.25	160.95	28.52	-35.0	-36.8	22.4	0.00e+00	0	44	0	2718957568	41	4447
2026-01-29 01:18:35.96	161.07	28.41	-34.9	-36.6	22.5	0.00e+00	0	44	0	2723151872	41	4386
2026-01-29 01:18:37.24	161.29	28.21	-34.8	-36.6	22.5	0.00e+00	0	44	0	2730491904	41	4359
2026-01-29 01:18:37.95	161.40	28.10	-34.8	-36.6	22.5	0.00e+00	0	44	0	2733637632	41	4358
2026-01-29 01:18:39.23	161.61	27.90	-34.9	-36.6	22.5	0.00e+00	0	44	0	2740977664	41	4377
2026-01-29 01:18:39.94	161.73	27.79	-34.9	-36.6	22.5	0.00e+00	0	44	0	2745171968	41	4373
2026-01-29 01:18:41.22	161.94	27.60	-34.8	-36.5	22.6	0.00e+00	0	44	0	2752512000	41	4340
2026-01-29 01:18:41.94	162.05	27.49	-34.8	-36.5	22.6	0.00e+00	0	44	0	2756706304	41	4335
2026-01-29 01:18:43.22	162.25	27.29	-34.8	-36.5	22.6	0.00e+00	0	44	0	2764046336	41	4337
2026-01-29 01:18:43.93	162.36	27.18	-34.8	-36.5	22.6	0.00e+00	0	44	0	2768240640	41	4326
2026-01-29 01:18:45.21	162.56	26.99	-34.8	-36.5	22.6	0.00e+00	0	44	0	2774532096	41	4316
2026-01-29 01:18:45.95	162.68	26.88	-34.7	-36.5	22.6	0.00e+00	0	44	0	2778726400	41	4305
2026-01-29 01:18:47.23	162.87	26.69	-34.8	-36.5	22.6	0.00e+00	0	44	0	2786066432	41	4331
2026-01-29 01:18:48.07	163.00	26.56	-34.6	-36.4	22.7	0.00e+00	0	43	0	2791309312	41	4253
2026-01-29 01:18:49.49	163.21	26.35	-34.7	-36.5	22.6	0.00e+00	0	44	0	2798649344	41	4293
2026-01-29 01:18:50.20	163.31	26.25	-34.8	-36.6	22.6	0.00e+00	0	44	0	2802843648	41	4350
2026-01-29 01:18:51.68	163.53	26.03	-34.8	-36.5	22.6	0.00e+00	0	44	0	2811232256	41	4339
2026-01-29 01:18:52.65	163.67	25.89	-34.9	-36.7	22.4	0.00e+00	0	44	0	2816475136	41	4399
2026-01-29 01:18:53.64	163.81	25.74	-35.0	-36.8	22.4	0.00e+00	0	44	0	2822766592	41	4451
2026-01-29 01:18:54.64	163.95	25.60	-35.1	-36.9	22.3	0.00e+00	0	43	0	2828009472	41	4504
2026-01-29 01:18:55.63	164.09	25.46	-35.1	-36.9	22.2	0.00e+00	0	43	0	2833252352	41	4511
2026-01-29 01:18:56.63	164.23	25.31	-35.2	-36.9	22.2	0.00e+00	0	44	0	2839543808	41	4538
2026-01-29 01:18:57.62	164.37	25.17	-35.1	-36.9	22.2	0.00e+00	0	44	0	2844786688	41	4504
2026-01-29 01:18:58.61	164.51	25.03	-35.2	-37.0	22.2	0.00e+00	0	44	0	2850029568	41	4548
2026-01-29 01:18:59.61	164.64	24.89	-35.0	-36.8	22.3	0.00e+00	0	44	0	2856321024	41	4445
2026-01-29 01:19:00.73	164.79	24.73	-34.9	-36.7	22.4	0.00e+00	0	44	0	2862612480	41	4424
2026-01-29 01:19:01.61	164.91	24.61	-34.9	-36.7	22.4	0.00e+00	0	44	0	2867855360	41	4396
2026-01-29 01:19:02.75	165.06	24.45	-34.9	-36.6	22.5	0.00e+00	0	44	0	2874146816	41	4380
2026-01-29 01:19:03.68	165.18	24.32	-34.9	-36.6	22.4	0.00e+00	0	44	0	2879389696	41	4378
2026-01-29 01:19:04.83	165.33	24.16	-34.9	-36.6	22.5	0.00e+00	0	44	0	2885681152	41	4378
2026-01-29 01:19:05.70	165.45	24.04	-35.1	-36.8	22.3	0.00e+00	0	44	0	2890924032	41	4469
2026-01-29 01:19:07.00	165.61	23.86	-35.1	-36.8	22.3	0.00e+00	0	44	0	2897215488	41	4474
2026-01-29 01:19:07.71	165.70	23.76	-35.1	-36.9	22.2	0.00e+00	0	44	0	2901409792	41	4513
2026-01-29 01:19:08.99	165.86	23.59	-35.3	-37.1	22.0	0.00e+00	0	44	0	2908749824	41	4630
2026-01-29 01:19:09.73	165.95	23.48	-35.4	-37.2	21.9	0.00e+00	0	44	0	2912944128	41	4671
2026-01-29 01:19:11.01	166.11	23.31	-35.6	-37.4	21.8	0.00e+00	0	44	0	2920284160	41	4775
2026-01-29 01:19:11.72	166.20	23.22	-35.6	-37.4	21.8	0.00e+00	0	43	0	2924478464	41	4798
2026-01-29 01:19:13.00	166.36	23.04	-35.7	-37.5	21.7	0.00e+00	0	44	0	2930769920	42	4598
2026-01-29 01:19:13.71	166.44	22.95	-35.7	-37.6	21.6	0.00e+00	0	44	0	2934964224	42	4607
2026-01-29 01:19:14.99	166.59	22.78	-35.8	-37.6	21.6	0.00e+00	0	44	0	2942304256	42	4631
2026-01-29 01:19:15.72	166.68	22.68	-35.8	-37.7	21.6	0.00e+00	0	44	0	2946498560	42	4655
2026-01-29 01:19:16.99	166.83	22.51	-35.7	-37.5	21.7	0.00e+00	0	44	0	2953838592	42	4584
2026-01-29 01:19:17.71	166.91	22.42	-35.7	-37.5	21.7	0.00e+00	0	44	0	2958032896	42	4596
2026-01-29 01:19:19.03	167.07	22.25	-35.9	-37.7	21.6	0.00e+00	0	44	0	2965372928	42	4680
2026-01-29 01:19:19.74	167.15	22.15	-35.9	-37.7	21.6	0.00e+00	0	44	0	2969567232	42	4675
2026-01-29 01:19:21.02	167.29	21.99	-35.7	-37.5	21.7	0.00e+00	0	44	0	2976907264	42	4559
2026-01-29 01:19:21.75	167.38	21.89	-35.6	-37.4	21.8	0.00e+00	0	44	0	2980052992	42	4529
2026-01-29 01:19:23.18	167.54	21.71	-35.6	-37.4	21.8	0.00e+00	0	44	0	2988441600	42	4512
2026-01-29 01:19:23.90	167.62	21.62	-35.6	-37.4	21.8	0.00e+00	0	44	0	2992635904	42	4537
2026-01-29 01:19:25.24	167.76	21.45	-35.7	-37.5	21.7	0.00e+00	0	44	0	2999975936	42	4554
2026-01-29 01:19:25.95	167.84	21.36	-35.7	-37.5	21.7	0.00e+00	0	44	0	3004170240	42	4558
2026-01-29 01:19:27.23	167.98	21.20	-35.8	-37.6	21.7	0.00e+00	0	44	0	3011510272	42	4619
2026-01-29 01:19:27.94	168.06	21.11	-35.9	-37.7	21.6	0.00e+00	0	44	0	3015704576	42	4671
2026-01-29 01:19:29.22	168.19	20.95	-35.9	-37.7	21.6	0.00e+00	0	44	0	3023044608	42	4660
2026-01-29 01:19:29.93	168.27	20.86	-35.8	-37.6	21.6	0.00e+00	0	44	0	3026190336	42	4631
2026-01-29 01:19:31.21	168.40	20.70	-35.9	-37.7	21.5	0.00e+00	0	44	0	3033530368	42	4684
2026-01-29 01:19:31.92	168.48	20.61	-35.9	-37.7	21.6	0.00e+00	0	44	0	3037724672	42	4672
2026-01-29 01:19:33.19	168.61	20.45	-35.9	-37.7	21.5	0.00e+00	0	44	0	3045064704	42	4697
2026-01-29 01:19:34.05	168.69	20.35	-35.9	-37.7	21.5	0.00e+00	0	44	0	3049259008	42	4679
2026-01-29 01:19:35.19	168.81	20.21	-35.9	-37.7	21.5	0.00e+00	0	44	0	3056599040	42	4669
2026-01-29 01:19:36.04	168.90	20.11	-35.9	-37.7	21.6	0.00e+00	0	44	0	3060793344	42	4687
2026-01-29 01:19:37.18	169.01	19.97	-35.9	-37.7	21.6	0.00e+00	0	44	0	3067084800	42	4679
2026-01-29 01:19:38.03	169.09	19.87	-35.9	-37.7	21.5	0.00e+00	0	44	0	3072327680	42	4701
2026-01-29 01:19:39.17	169.21	19.73	-36.0	-37.8	21.5	0.00e+00	0	44	0	3078619136	42	4737
2026-01-29 01:19:40.02	169.29	19.63	-36.0	-37.9	21.4	0.00e+00	0	44	0	3083862016	42	4768
2026-01-29 01:19:41.15	169.40	19.49	-36.1	-38.0	21.3	0.00e+00	0	44	0	3090153472	42	4823
2026-01-29 01:19:42.01	169.48	19.39	-36.2	-38.0	21.3	0.00e+00	0	44	0	3094347776	42	4838
2026-01-29 01:19:43.14	169.59	19.26	-36.2	-38.1	21.2	0.00e+00	0	44	0	3100639232	43	4607
2026-01-29 01:19:44.00	169.67	19.16	-36.3	-38.1	21.1	0.00e+00	0	44	0	3105882112	43	4645
2026-01-29 01:19:45.13	169.78	19.02	-36.3	-38.1	21.1	0.00e+00	0	44	0	3112173568	43	4649
2026-01-29 01:19:46.03	169.86	18.92	-36.4	-38.2	21.1	0.00e+00	0	43	0	3117416448	43	4676
2026-01-29 01:19:47.06	169.96	18.80	-36.4	-38.2	21.1	0.00e+00	0	44	0	3122659328	43	4697
2026-01-29 01:19:48.24	170.07	18.66	-36.4	-38.3	21.0	0.00e+00	0	44	0	3129999360	43	4706
2026-01-29 01:19:49.14	170.15	18.56	-36.4	-38.3	21.0	0.00e+00	0	44	0	3134193664	43	4713
2026-01-29 01:19:50.23	170.25	18.43	-36.5	-38.3	21.0	0.00e+00	0	44	0	3140485120	43	4745
2026-01-29 01:19:51.08	170.33	18.34	-36.5	-38.3	21.0	0.00e+00	0	44	0	3145728000	43	4730
2026-01-29 01:19:52.22	170.43	18.21	-36.6	-38.4	20.9	0.00e+00	0	44	0	3152019456	43	4794
2026-01-29 01:19:53.31	170.53	18.08	-36.4	-38.2	21.1	0.00e+00	0	44	0	3158310912	43	4705
2026-01-29 01:19:54.16	170.60	17.99	-36.4	-38.2	21.1	0.00e+00	0	44	0	3162505216	43	4705
2026-01-29 01:19:55.66	170.73	17.82	-36.4	-38.2	21.0	0.00e+00	0	44	0	3171942400	43	4699
2026-01-29 01:19:56.37	170.79	17.74	-36.5	-38.3	21.0	0.00e+00	0	44	0	3175088128	43	4730
2026-01-29 01:19:57.65	170.90	17.60	-36.4	-38.2	21.1	0.00e+00	0	44	0	3182428160	43	4670
2026-01-29 01:19:58.38	170.97	17.52	-36.5	-38.3	21.0	0.00e+00	0	44	0	3186622464	43	4727
2026-01-29 01:19:59.66	171.08	17.37	-36.5	-38.3	21.0	0.00e+00	0	44	0	3193962496	43	4748
2026-01-29 01:20:00.37	171.14	17.30	-36.5	-38.3	21.0	0.00e+00	0	44	0	3198156800	43	4750
2026-01-29 01:20:01.65	171.24	17.16	-36.6	-38.4	20.9	0.00e+00	0	44	0	3204448256	43	4806
2026-01-29 01:20:02.49	171.31	17.06	-36.9	-38.7	20.8	0.00e+00	0	44	0	3209691136	44	4682
2026-01-29 01:20:03.62	171.41	16.94	-37.0	-38.8	20.7	0.00e+00	0	44	0	3215982592	44	4739
2026-01-29 01:20:04.63	171.49	16.83	-37.0	-38.9	20.6	0.00e+00	0	44	0	3222274048	44	4778
2026-01-29 01:20:05.63	171.57	16.72	-37.1	-39.0	20.5	0.00e+00	0	44	0	3227516928	44	4855
2026-01-29 01:20:06.84	171.67	16.59	-37.2	-39.1	20.4	0.00e+00	0	44	0	3233808384	45	4602
2026-01-29 01:20:07.73	171.74	16.50	-37.3	-39.2	20.4	0.00e+00	0	44	0	3239051264	45	4657
2026-01-29 01:20:08.86	171.83	16.38	-37.3	-39.3	20.2	0.00e+00	0	44	0	3245342720	45	4718
2026-01-29 01:20:09.72	171.90	16.29	-37.4	-39.3	20.2	0.00e+00	0	44	0	3250585600	45	4740
2026-01-29 01:20:10.85	171.99	16.17	-37.4	-39.4	20.2	0.00e+00	0	44	0	3256877056	45	4763
2026-01-29 01:20:11.71	172.05	16.08	-37.5	-39.4	20.1	0.00e+00	0	44	0	3262119936	45	4796
2026-01-29 01:20:12.84	172.14	15.96	-37.5	-39.5	20.1	0.00e+00	0	44	0	3268411392	45	4832
2026-01-29 01:20:13.70	172.21	15.87	-37.6	-39.6	20.0	0.00e+00	0	44	0	3272605696	45	4871
2026-01-29 01:20:14.83	172.30	15.75	-37.6	-39.5	20.0	0.00e+00	0	44	0	3278897152	45	4870
2026-01-29 01:20:15.69	172.36	15.66	-37.6	-39.6	20.0	0.00e+00	0	44	0	3284140032	45	4878
2026-01-29 01:20:16.83	172.45	15.54	-37.6	-39.6	19.9	0.00e+00	0	44	0	3290431488	45	4893
2026-01-29 01:20:17.68	172.51	15.46	-37.7	-39.7	19.8	0.00e+00	0	44	0	3295674368	46	4687
2026-01-29 01:20:18.82	172.60	15.34	-37.7	-39.6	19.9	0.00e+00	0	44	0	3301965824	46	4648
2026-01-29 01:20:19.67	172.66	15.25	-37.7	-39.7	19.9	0.00e+00	0	44	0	3306160128	46	4660
2026-01-29 01:20:20.89	172.75	15.13	-37.7	-39.6	19.9	0.00e+00	0	44	0	3313500160	46	4645
2026-01-29 01:20:21.74	172.81	15.04	-37.7	-39.7	19.9	0.00e+00	0	44	0	3317694464	46	4656
2026-01-29 01:20:22.88	172.89	14.93	-37.8	-39.7	19.8	0.00e+00	0	44	0	3323985920	46	4702
2026-01-29 01:20:23.73	172.96	14.84	-37.7	-39.7	19.8	0.00e+00	0	44	0	3329228800	46	4689
2026-01-29 01:20:24.99	173.05	14.72	-37.8	-39.8	19.7	0.00e+00	0	44	0	3336568832	46	4759
2026-01-29 01:20:25.80	173.10	14.63	-37.8	-39.8	19.7	0.00e+00	0	44	0	3340763136	46	4748
2026-01-29 01:20:26.94	173.18	14.52	-37.9	-39.9	19.7	0.00e+00	0	44	0	3347054592	46	4786
2026-01-29 01:20:27.79	173.24	14.44	-38.0	-40.0	19.2	0.00e+00	0	44	0	3352297472	46	4843
2026-01-29 01:20:28.93	173.32	14.32	-37.8	-39.9	19.7	0.00e+00	0	44	0	3358588928	46	4762
2026-01-29 01:20:29.78	173.38	14.24	-37.9	-40.0	19.6	0.00e+00	0	44	0	3362783232	46	4821
2026-01-29 01:20:30.92	173.46	14.13	-37.9	-39.9	19.6	0.00e+00	0	44	0	3370123264	46	4810
2026-01-29 01:20:31.77	173.52	14.05	-38.1	-40.1	19.5	0.00e+00	0	44	0	3374317568	46	4891
2026-01-29 01:20:32.91	173.60	13.94	-38.0	-40.0	19.5	0.00e+00	0	44	0	3380609024	46	4858
2026-01-29 01:20:33.76	173.66	13.85	-38.0	-40.0	19.6	0.00e+00	0	44	0	3385851904	46	4817
2026-01-29 01:20:34.89	173.73	13.74	-38.0	-40.0	19.5	0.00e+00	0	44	0	3392143360	46	4843
2026-01-29 01:20:35.74	173.79	13.66	-38.0	-40.0	19.5	0.00e+00	0	44	0	3396337664	46	4853
2026-01-29 01:20:36.88	173.86	13.55	-38.0	-40.0	19.6	0.00e+00	0	44	0	3403677696	46	4826
2026-01-29 01:20:37.73	173.92	13.47	-38.0	-40.0	19.5	0.00e+00	0	44	0	3407872000	46	4843
2026-01-29 01:20:38.90	174.00	13.36	-38.0	-40.0	19.6	0.00e+00	0	44	0	3414163456	46	4819
2026-01-29 01:20:39.75	174.05	13.28	-38.1	-40.0	19.5	0.00e+00	0	44	0	3419406336	46	4854
2026-01-29 01:20:40.97	174.13	13.16	-38.1	-40.1	19.5	0.00e+00	0	44	0	3426746368	47	4621
2026-01-29 01:20:41.82	174.19	13.08	-37.9	-39.9	19.6	0.00e+00	0	44	0	3430940672	47	4509
2026-01-29 01:20:43.02	174.26	12.97	-37.9	-39.9	19.6	0.00e+00	0	44	0	3438280704	47	4506
2026-01-29 01:20:43.87	174.32	12.89	-38.0	-39.9	19.6	0.00e+00	0	44	0	3442475008	47	4529
2026-01-29 01:20:45.07	174.39	12.78	-38.0	-40.0	19.6	0.00e+00	0	44	0	3449815040	47	4549
2026-01-29 01:20:45.93	174.45	12.70	-37.9	-39.9	19.6	0.00e+00	0	44	0	3454009344	47	4513
2026-01-29 01:20:47.13	174.52	12.59	-38.1	-40.0	19.5	0.00e+00	0	44	0	3461349376	47	4578
2026-01-29 01:20:47.98	174.58	12.51	-37.9	-39.9	19.6	0.00e+00	0	44	0	3465543680	47	4511
2026-01-29 01:20:49.12	174.65	12.41	-38.0	-39.9	19.6	0.00e+00	0	44	0	3471835136	47	4529
2026-01-29 01:20:49.97	174.70	12.33	-38.1	-40.0	19.5	0.00e+00	0	44	0	3477078016	47	4595
2026-01-29 01:20:51.11	174.77	12.22	-38.1	-40.0	19.5	0.00e+00	0	44	0	3483369472	47	4592
2026-01-29 01:20:52.04	174.82	12.14	-38.0	-39.9	19.5	0.00e+00	0	44	0	3488612352	47	4536
2026-01-29 01:20:53.04	174.89	12.05	-38.1	-40.1	19.4	0.00e+00	0	43	0	3493855232	47	4601
2026-01-29 01:20:54.03	174.94	11.96	-38.2	-40.2	19.3	0.00e+00	0	44	0	3500146688	47	4688
2026-01-29 01:20:55.02	175.00	11.87	-38.1	-40.1	19.3	0.00e+00	0	44	0	3505389568	47	4651
2026-01-29 01:20:56.02	175.06	11.78	-38.2	-40.3	19.2	0.00e+00	0	44	0	3510632448	47	4736
2026-01-29 01:20:57.02	175.12	11.69	-38.2	-40.3	19.2	0.00e+00	0	44	0	3516923904	47	4747
2026-01-29 01:20:58.01	175.18	11.60	-38.2	-40.3	19.2	0.00e+00	0	44	0	3522166784	47	4719
2026-01-29 01:20:59.01	175.24	11.52	-38.1	-40.2	19.2	0.00e+00	0	44	0	3527409664	47	4690
2026-01-29 01:21:00.00	175.30	11.43	-38.1	-40.3	19.2	0.00e+00	0	44	0	3533701120	47	4721
2026-01-29 01:21:01.00	175.35	11.34	-38.3	-40.5	19.0	0.00e+00	0	43	0	3538944000	47	4823
2026-01-29 01:21:01.99	175.41	11.25	-38.3	-40.5	19.0	0.00e+00	0	44	0	3544186880	47	4833
2026-01-29 01:21:02.99	175.47	11.16	-38.2	-40.5	19.0	0.00e+00	0	44	0	3550478336	47	4829
2026-01-29 01:21:03.98	175.52	11.08	-38.3	-40.6	18.9	0.00e+00	0	44	0	3555721216	47	4875
2026-01-29 01:21:04.98	175.58	10.99	-38.3	-40.6	18.9	0.00e+00	0	44	0	3560964096	47	4898
2026-01-29 01:21:05.97	175.64	10.91	-38.3	-40.6	18.9	0.00e+00	0	44	0	3567255552	47	4911
2026-01-29 01:21:06.97	175.69	10.82	-38.6	-40.9	18.7	0.00e+00	0	44	0	3572498432	47	5045
2026-01-29 01:21:07.97	175.75	10.73	-38.4	-40.6	18.9	0.00e+00	0	44	0	3577741312	47	4914
2026-01-29 01:21:08.96	175.80	10.65	-38.5	-40.8	18.7	0.00e+00	0	44	0	3584032768	47	5004
2026-01-29 01:21:09.96	175.86	10.56	-38.4	-40.7	18.8	0.00e+00	0	43	0	3589275648	47	4935
2026-01-29 01:21:10.95	175.91	10.48	-38.4	-40.7	18.7	0.00e+00	0	44	0	3594518528	47	4931
2026-01-29 01:21:11.94	175.96	10.39	-38.5	-40.8	18.8	0.00e+00	0	44	0	3600809984	47	4990
2026-01-29 01:21:12.94	176.02	10.31	-38.6	-40.8	18.7	0.00e+00	0	44	0	3606052864	47	5002
2026-01-29 01:21:13.93	176.07	10.22	-38.8	-41.0	18.8	0.00e+00	0	44	0	3611295744	48	4820
2026-01-29 01:21:14.93	176.12	10.14	-38.8	-41.0	18.7	0.00e+00	0	44	0	3617587200	48	4838
2026-01-29 01:21:15.95	176.18	10.06	-38.8	-41.0	18.7	0.00e+00	0	44	0	3622830080	48	4843
2026-01-29 01:21:16.98	176.23	9.97	-38.9	-41.1	18.6	0.00e+00	0	44	0	3629121536	48	4889
2026-01-29 01:21:17.98	176.29	9.89	-38.9	-41.1	18.7	0.00e+00	0	44	0	3634364416	48	4877
