passes_logs/2026/01/29/T1/T1__20260129_160511_FENGYUN_3E_rec.log

#Pass ID: 20260129_160511_FENGYUN 3E
#Satellite: FENGYUN 3E
#Configuration: FENGYUN 3E
#almurnet v.1.7.20251203
#Start time: 2026-01-29 16:05:13

#Version: 2.0.20230620
#Station: T1
#Location: 37.570604 lon 55.790049 lat
#TLE: 1 49008U 21062A   26028.95833242 -.00000015  00000+0  13843-4 0  9995
#TLE: 2 49008  98.7500  33.9242 0002547 112.2873 247.8573 14.19887818236829

#Time	Az	El	Level	Level2	SNR	BER	BlckErr	Temp	State	Recorded	gain1	gain2
2026-01-29 16:05:13.19	223.58	5.06	-50.2	-61.1	3.8	8.47e-01	0	41	0	0	70	12881
2026-01-29 16:05:14.17	223.68	5.12	-50.4	-61.1	3.8	8.47e-01	0	41	104	0	71	12137
2026-01-29 16:05:15.17	223.78	5.17	-50.4	-61.1	3.8	8.47e-01	0	41	104	0	71	12108
2026-01-29 16:05:16.16	223.89	5.22	-50.2	-61.1	3.8	8.47e-01	0	41	104	0	70	12876
2026-01-29 16:05:17.15	223.99	5.27	-50.4	-61.1	3.8	8.46e-01	0	41	104	0	70	12932
2026-01-29 16:05:18.16	224.10	5.33	-50.2	-61.1	3.8	8.47e-01	0	41	104	0	70	12959
2026-01-29 16:05:19.19	224.21	5.38	-50.1	-61.0	3.8	8.47e-01	0	41	104	0	70	12798
2026-01-29 16:05:20.21	224.32	5.43	-50.0	-61.0	3.8	8.47e-01	0	41	104	0	70	12790
2026-01-29 16:05:21.24	224.43	5.49	-50.2	-61.0	3.8	8.47e-01	0	41	104	0	70	12749
2026-01-29 16:05:22.26	224.54	5.54	-50.1	-61.0	3.8	8.47e-01	0	41	104	0	70	12676
2026-01-29 16:05:23.26	224.64	5.60	-50.1	-61.0	3.8	8.47e-01	0	41	104	0	70	12667
2026-01-29 16:05:24.25	224.75	5.65	-50.0	-60.9	3.8	8.46e-01	0	41	104	0	70	12574
2026-01-29 16:05:25.24	224.86	5.70	-50.0	-60.8	3.8	8.47e-01	0	41	104	0	70	12509
2026-01-29 16:05:26.23	224.97	5.75	-50.0	-60.8	3.8	8.48e-01	0	41	104	0	70	12483
2026-01-29 16:05:27.23	225.07	5.81	-49.8	-60.7	3.8	8.47e-01	0	41	104	0	70	12254
2026-01-29 16:05:28.22	225.18	5.86	-49.5	-60.5	3.8	8.48e-01	0	42	104	0	69	12801
2026-01-29 16:05:29.22	225.29	5.91	-49.6	-60.5	3.8	8.46e-01	0	42	104	0	69	12665
2026-01-29 16:05:30.21	225.40	5.96	-49.6	-60.4	3.8	8.46e-01	0	42	104	0	69	12607
2026-01-29 16:05:31.20	225.51	6.02	-49.5	-60.4	3.8	8.47e-01	0	42	104	0	69	12530
2026-01-29 16:05:32.20	225.62	6.07	-49.5	-60.4	3.8	8.46e-01	0	42	104	0	69	12534
2026-01-29 16:05:33.19	225.73	6.12	-49.5	-60.4	3.8	8.46e-01	0	42	104	0	69	12545
2026-01-29 16:05:34.18	225.84	6.17	-49.6	-60.4	3.8	8.46e-01	0	42	104	0	69	12596
2026-01-29 16:05:35.17	225.96	6.23	-49.5	-60.4	3.8	8.46e-01	0	42	104	0	69	12604
2026-01-29 16:05:36.17	226.07	6.28	-49.6	-60.3	3.8	8.48e-01	0	42	104	0	69	12515
2026-01-29 16:05:37.24	226.19	6.34	-49.5	-60.4	3.8	8.48e-01	0	42	104	0	69	12590
2026-01-29 16:05:38.12	226.29	6.38	-49.5	-60.4	3.8	8.46e-01	0	42	104	0	69	12520
2026-01-29 16:05:39.43	226.44	6.45	-49.5	-60.3	3.8	8.48e-01	0	42	104	0	69	12503
2026-01-29 16:05:40.14	226.52	6.49	-49.5	-60.3	3.8	8.47e-01	0	42	104	0	69	12509
2026-01-29 16:05:41.42	226.67	6.56	-49.5	-60.3	3.8	8.47e-01	0	42	104	0	69	12459
2026-01-29 16:05:42.13	226.75	6.60	-49.5	-60.4	3.8	8.46e-01	0	42	104	0	69	12530
2026-01-29 16:05:43.40	226.89	6.66	-49.5	-60.3	3.8	8.47e-01	0	42	104	0	69	12402
2026-01-29 16:05:44.11	226.98	6.70	-49.5	-60.2	3.8	8.47e-01	0	42	104	0	69	12322
2026-01-29 16:05:45.39	227.13	6.77	-49.5	-60.2	3.8	8.47e-01	0	42	104	0	69	12320
2026-01-29 16:05:46.10	227.21	6.81	-49.5	-60.2	3.8	8.46e-01	0	42	104	0	69	12241
2026-01-29 16:05:47.38	227.36	6.88	-49.5	-60.1	3.8	8.45e-01	0	42	104	0	69	12103
2026-01-29 16:05:48.09	227.44	6.91	-49.4	-60.0	3.8	8.46e-01	0	42	104	0	69	11985
2026-01-29 16:05:49.37	227.59	6.98	-49.5	-59.9	3.8	8.46e-01	0	42	104	0	69	11949
2026-01-29 16:05:50.07	227.68	7.02	-49.5	-60.2	3.8	8.47e-01	0	42	104	0	69	12250
2026-01-29 16:05:51.35	227.83	7.09	-49.5	-60.3	3.8	8.47e-01	0	42	104	0	69	12438
2026-01-29 16:05:52.06	227.91	7.13	-49.5	-60.3	3.8	8.46e-01	0	42	104	0	69	12519
2026-01-29 16:05:53.34	228.07	7.19	-49.5	-60.3	3.8	8.46e-01	0	42	104	0	69	12505
2026-01-29 16:05:54.05	228.15	7.23	-49.5	-60.2	3.8	8.46e-01	0	42	104	0	69	12289
2026-01-29 16:05:55.36	228.31	7.30	-49.4	-59.8	3.8	8.47e-01	0	42	104	0	69	11731
2026-01-29 16:05:56.07	228.39	7.34	-49.4	-59.5	3.8	8.47e-01	0	42	104	0	69	11385
2026-01-29 16:05:57.60	228.58	7.42	-49.4	-59.5	3.8	8.47e-01	0	42	104	0	69	11376
2026-01-29 16:05:58.30	228.67	7.46	-49.4	-59.7	3.8	8.47e-01	0	42	104	0	69	11620
2026-01-29 16:05:59.58	228.82	7.53	-49.4	-59.9	3.8	8.48e-01	0	42	104	0	69	11906
2026-01-29 16:06:00.29	228.91	7.57	-49.5	-60.0	3.8	8.47e-01	0	43	104	0	69	12066
2026-01-29 16:06:01.57	229.07	7.63	-49.5	-60.2	3.8	8.45e-01	0	42	104	0	69	12369
2026-01-29 16:06:02.28	229.16	7.67	-49.5	-60.4	3.8	8.47e-01	0	43	104	0	69	12546
2026-01-29 16:06:03.56	229.31	7.74	-49.5	-60.3	3.8	8.47e-01	0	42	104	0	69	12490
2026-01-29 16:06:04.27	229.40	7.78	-49.5	-60.3	3.8	8.48e-01	0	43	104	0	69	12429
2026-01-29 16:06:05.54	229.56	7.85	-49.5	-60.2	3.8	8.47e-01	0	43	104	0	69	12361
2026-01-29 16:06:06.25	229.65	7.88	-49.5	-60.3	3.8	8.46e-01	0	43	104	0	69	12448
2026-01-29 16:06:07.53	229.81	7.95	-49.5	-60.2	3.8	8.47e-01	0	42	104	0	69	12293
2026-01-29 16:06:08.24	229.90	7.99	-49.4	-59.8	3.8	8.46e-01	0	43	104	0	69	11740
2026-01-29 16:06:09.52	230.06	8.06	-49.2	-58.2	3.8	8.46e-01	0	42	104	0	69	9733
2026-01-29 16:06:10.23	230.15	8.10	-49.0	-57.1	4.1	8.42e-01	0	43	0	0	68	9081
2026-01-29 16:06:11.52	230.32	8.16	-48.8	-56.1	4.4	8.25e-01	0	43	0	0	68	8104
2026-01-29 16:06:12.23	230.41	8.20	-48.8	-56.2	4.4	8.24e-01	0	42	0	0	68	8222
2026-01-29 16:06:13.51	230.57	8.27	-49.2	-58.1	3.8	8.44e-01	0	43	104	0	68	10269
2026-01-29 16:06:14.23	230.67	8.31	-49.2	-58.4	3.8	8.46e-01	0	43	104	0	68	10655
2026-01-29 16:06:15.51	230.83	8.38	-47.7	-52.6	6.5	4.23e-01	0	43	0	1048576	66	6065
2026-01-29 16:06:16.22	230.92	8.41	-46.4	-49.6	9.4	3.31e-02	0	43	0	6291456	63	5151
2026-01-29 16:06:17.50	231.09	8.48	-43.5	-45.3	13.9	5.83e-05	0	43	0	15728640	57	4398
2026-01-29 16:06:18.21	231.18	8.52	-42.1	-43.6	15.5	0.00e+00	0	43	0	19922944	55	4071
2026-01-29 16:06:19.48	231.35	8.59	-40.3	-41.5	17.6	0.00e+00	0	43	0	29360128	51	4032
2026-01-29 16:06:20.19	231.44	8.63	-39.8	-40.9	18.2	0.00e+00	0	43	0	34603008	50	3987
2026-01-29 16:06:21.47	231.61	8.69	-39.4	-40.5	18.6	0.00e+00	0	43	0	44040192	49	4030
2026-01-29 16:06:22.18	231.71	8.73	-39.6	-40.7	18.4	0.00e+00	0	43	0	49283072	49	4115
2026-01-29 16:06:23.46	231.88	8.80	-40.3	-41.5	17.7	0.00e+00	0	43	0	58720256	49	4498
2026-01-29 16:06:24.17	231.97	8.84	-41.0	-42.3	16.9	0.00e+00	0	43	0	62914560	51	4415
2026-01-29 16:06:25.45	232.14	8.91	-42.5	-44.1	15.0	0.00e+00	0	43	0	72351744	54	4575
2026-01-29 16:06:26.15	232.24	8.94	-43.7	-45.6	13.7	2.20e-06	0	43	0	77594624	56	4816
2026-01-29 16:06:27.43	232.41	9.01	-45.4	-47.9	11.3	6.18e-04	0	43	0	87031808	60	5005
2026-01-29 16:06:28.15	232.51	9.05	-46.2	-49.3	9.8	5.52e-03	0	43	0	92274688	61	5591
2026-01-29 16:06:29.43	232.68	9.12	-45.3	-47.8	11.3	2.11e-02	0	43	0	101711872	61	4689
2026-01-29 16:06:30.16	232.78	9.15	-42.5	-44.0	15.1	0.00e+00	0	43	0	106954752	55	4267
2026-01-29 16:06:31.44	232.96	9.22	-46.8	-50.4	8.6	1.66e-01	0	43	0	116391936	64	5323
2026-01-29 16:06:32.16	233.06	9.26	-46.2	-49.3	9.8	2.16e-02	0	43	0	120586240	63	4946
2026-01-29 16:06:33.63	233.26	9.34	-42.0	-43.4	15.6	0.00e+00	0	43	0	131072000	54	4239
2026-01-29 16:06:34.34	233.36	9.38	-41.7	-43.1	16.0	0.00e+00	0	43	0	137363456	54	4076
2026-01-29 16:06:35.62	233.53	9.44	-41.5	-42.9	16.2	0.00e+00	0	43	0	145752064	53	4214
2026-01-29 16:06:36.35	233.64	9.48	-41.7	-43.1	16.1	0.00e+00	0	43	0	150994944	53	4294
2026-01-29 16:06:37.74	233.83	9.56	-41.6	-43.1	16.0	0.00e+00	0	43	0	161480704	53	4305
2026-01-29 16:06:38.71	233.97	9.61	-41.2	-42.6	16.5	0.00e+00	0	43	0	168820736	53	4073
2026-01-29 16:06:39.71	234.11	9.66	-40.4	-41.6	17.5	0.00e+00	0	43	0	175112192	51	4092
2026-01-29 16:06:40.70	234.25	9.71	-40.6	-41.9	17.3	0.00e+00	0	43	0	182452224	51	4205
2026-01-29 16:06:41.70	234.39	9.76	-40.1	-41.2	17.9	0.00e+00	0	43	0	189792256	51	3913
2026-01-29 16:06:42.70	234.53	9.82	-40.5	-41.7	17.5	0.00e+00	0	43	0	197132288	51	4118
2026-01-29 16:06:43.69	234.67	9.87	-39.8	-41.0	18.2	0.00e+00	0	43	0	204472320	50	4015
2026-01-29 16:06:44.68	234.82	9.92	-39.1	-40.2	19.0	0.00e+00	0	43	0	211812352	49	3887
2026-01-29 16:06:45.68	234.96	9.97	-38.8	-39.8	19.3	0.00e+00	0	43	0	218103808	48	3950
2026-01-29 16:06:46.68	235.10	10.02	-38.4	-39.5	19.4	0.00e+00	0	43	0	225443840	47	4019
2026-01-29 16:06:47.67	235.25	10.08	-38.4	-39.4	19.4	0.00e+00	0	43	0	232783872	47	3998
2026-01-29 16:06:48.67	235.39	10.13	-38.5	-39.6	19.3	0.00e+00	0	43	0	240123904	47	4067
2026-01-29 16:06:49.66	235.54	10.18	-38.6	-39.6	19.2	0.00e+00	0	43	0	247463936	47	4090
2026-01-29 16:06:50.66	235.68	10.23	-38.3	-39.3	19.6	0.00e+00	0	43	0	254803968	47	3939
2026-01-29 16:06:51.65	235.83	10.28	-38.3	-39.3	19.5	0.00e+00	0	43	0	262144000	47	3944
2026-01-29 16:06:52.93	236.02	10.35	-38.4	-39.4	19.5	0.00e+00	0	43	0	270532608	47	3970
2026-01-29 16:06:53.69	236.13	10.39	-38.5	-39.6	19.3	0.00e+00	0	43	0	276824064	47	4060
2026-01-29 16:06:55.27	236.37	10.47	-38.4	-39.4	19.5	0.00e+00	0	43	0	288358400	47	3976
2026-01-29 16:06:55.89	236.46	10.50	-38.5	-39.5	19.4	0.00e+00	0	43	0	292552704	47	4030
2026-01-29 16:06:57.45	236.69	10.59	-38.3	-39.3	19.6	0.00e+00	0	43	0	304087040	47	3927
2026-01-29 16:06:58.10	236.79	10.62	-38.2	-39.2	19.7	0.00e+00	0	43	0	308281344	47	3886
2026-01-29 16:06:59.56	237.01	10.69	-38.3	-39.3	19.6	0.00e+00	0	43	0	318767104	47	3942
2026-01-29 16:07:00.27	237.12	10.73	-38.3	-39.3	19.6	0.00e+00	0	43	0	324009984	47	3940
2026-01-29 16:07:01.56	237.31	10.80	-38.2	-39.2	19.7	0.00e+00	0	43	0	333447168	47	3896
2026-01-29 16:07:02.27	237.42	10.83	-38.4	-39.4	19.5	0.00e+00	0	43	0	338690048	47	4001
2026-01-29 16:07:03.54	237.62	10.90	-38.2	-39.2	19.7	0.00e+00	0	43	0	348127232	47	3895
2026-01-29 16:07:04.25	237.73	10.94	-38.2	-39.2	19.7	0.00e+00	0	43	0	352321536	47	3891
2026-01-29 16:07:05.63	237.94	11.01	-38.2	-39.2	19.7	0.00e+00	0	43	0	362807296	47	3887
2026-01-29 16:07:06.34	238.05	11.04	-38.2	-39.2	19.7	0.00e+00	0	43	0	368050176	47	3872
2026-01-29 16:07:07.62	238.25	11.11	-38.0	-39.0	19.9	0.00e+00	0	43	0	377487360	46	4016
2026-01-29 16:07:08.33	238.36	11.14	-38.2	-39.2	19.8	0.00e+00	0	43	0	381681664	46	4104
2026-01-29 16:07:09.75	238.58	11.22	-38.1	-39.1	19.8	0.00e+00	0	43	0	392167424	46	4079
2026-01-29 16:07:10.47	238.69	11.25	-38.2	-39.1	19.7	0.00e+00	0	43	0	397410304	46	4095
2026-01-29 16:07:11.75	238.89	11.32	-38.0	-39.0	19.9	0.00e+00	0	43	0	406847488	46	4035
2026-01-29 16:07:12.46	239.00	11.35	-38.0	-39.0	19.9	0.00e+00	0	43	0	412090368	46	4030
2026-01-29 16:07:13.74	239.21	11.42	-38.1	-39.1	19.8	0.00e+00	0	43	0	421527552	46	4067
2026-01-29 16:07:14.50	239.33	11.46	-38.0	-39.0	19.9	0.00e+00	0	43	0	426770432	46	4026
2026-01-29 16:07:15.78	239.53	11.52	-37.9	-38.9	20.0	0.00e+00	0	43	0	436207616	46	3967
2026-01-29 16:07:16.49	239.65	11.56	-37.9	-38.9	20.0	0.00e+00	0	43	0	440401920	46	3986
2026-01-29 16:07:17.77	239.85	11.62	-37.8	-38.8	20.1	0.00e+00	0	43	0	449839104	46	3941
2026-01-29 16:07:18.49	239.97	11.66	-37.8	-38.8	20.1	0.00e+00	0	43	0	456130560	46	3948
2026-01-29 16:07:19.77	240.17	11.72	-37.9	-38.9	19.9	0.00e+00	0	43	0	464519168	46	3973
2026-01-29 16:07:20.59	240.31	11.76	-38.0	-38.9	18.4	0.00e+00	0	43	0	470810624	46	3999
2026-01-29 16:07:21.99	240.53	11.83	-38.0	-39.0	19.9	0.00e+00	0	43	0	481296384	46	4044
2026-01-29 16:07:22.71	240.65	11.87	-38.1	-39.1	19.8	0.00e+00	0	43	0	485490688	46	4091
2026-01-29 16:07:24.00	240.86	11.93	-38.2	-39.2	19.7	0.00e+00	0	43	0	494927872	46	4124
2026-01-29 16:07:24.71	240.98	11.96	-38.0	-39.0	19.9	0.00e+00	0	43	0	500170752	46	4026
2026-01-29 16:07:25.99	241.19	12.03	-38.1	-39.2	19.8	0.00e+00	0	43	0	509607936	46	4103
2026-01-29 16:07:26.70	241.31	12.06	-38.0	-39.0	19.9	0.00e+00	0	43	0	514850816	46	4041
2026-01-29 16:07:27.98	241.52	12.13	-37.6	-38.6	20.3	0.00e+00	0	43	0	524288000	46	3852
2026-01-29 16:07:28.71	241.64	12.16	-37.7	-38.7	20.2	0.00e+00	0	43	0	529530880	46	3891
2026-01-29 16:07:29.99	241.86	12.22	-37.8	-38.8	20.1	0.00e+00	0	43	0	537919488	46	3946
2026-01-29 16:07:30.70	241.98	12.26	-38.0	-39.0	19.9	0.00e+00	0	43	0	544210944	46	4027
2026-01-29 16:07:31.98	242.19	12.32	-37.8	-38.8	20.1	0.00e+00	0	43	0	552599552	46	3952
2026-01-29 16:07:32.70	242.31	12.36	-37.9	-38.9	20.0	0.00e+00	0	43	0	557842432	46	3994
2026-01-29 16:07:33.98	242.53	12.42	-37.9	-38.9	20.0	0.00e+00	0	43	0	567279616	46	3973
2026-01-29 16:07:34.71	242.65	12.45	-37.8	-38.8	20.1	0.00e+00	0	43	0	572522496	46	3951
2026-01-29 16:07:35.99	242.87	12.51	-37.9	-38.9	20.0	0.00e+00	0	43	0	581959680	46	3984
2026-01-29 16:07:36.70	242.99	12.55	-37.8	-38.8	20.1	0.00e+00	0	43	0	587202560	46	3953
2026-01-29 16:07:38.07	243.23	12.61	-37.8	-38.8	20.1	0.00e+00	0	43	0	596639744	46	3936
2026-01-29 16:07:38.78	243.35	12.65	-37.8	-38.8	20.1	0.00e+00	0	43	0	601882624	46	3923
2026-01-29 16:07:40.14	243.58	12.71	-37.8	-38.7	20.2	0.00e+00	0	43	0	612368384	46	3900
2026-01-29 16:07:40.85	243.71	12.74	-37.8	-38.7	20.2	0.00e+00	0	43	0	616562688	46	3900
2026-01-29 16:07:42.13	243.93	12.81	-37.8	-38.7	20.2	0.00e+00	0	43	0	625999872	46	3908
2026-01-29 16:07:42.84	244.05	12.84	-37.7	-38.7	20.2	0.00e+00	0	43	0	631242752	46	3897
2026-01-29 16:07:44.12	244.27	12.90	-37.7	-38.6	20.3	0.00e+00	0	43	0	640679936	46	3863
2026-01-29 16:07:45.27	244.48	12.95	-37.8	-38.8	20.1	0.00e+00	0	43	0	649068544	46	3924
2026-01-29 16:07:46.12	244.63	12.99	-37.6	-38.6	20.4	0.00e+00	0	43	0	655360000	46	3826
2026-01-29 16:07:47.26	244.83	13.04	-37.6	-38.6	20.3	0.00e+00	0	43	0	663748608	45	4055
2026-01-29 16:07:48.12	244.98	13.08	-37.7	-38.7	20.3	0.00e+00	0	44	0	668991488	45	4103
2026-01-29 16:07:49.30	245.19	13.14	-37.6	-38.5	20.3	0.00e+00	0	43	0	678428672	45	4051
2026-01-29 16:07:50.16	245.34	13.18	-37.4	-38.4	20.5	0.00e+00	0	43	0	683671552	45	3969
2026-01-29 16:07:51.37	245.56	13.23	-37.4	-38.4	20.5	0.00e+00	0	43	0	693108736	45	3967
2026-01-29 16:07:52.22	245.71	13.27	-37.4	-38.4	20.5	0.00e+00	0	43	0	699400192	45	3998
2026-01-29 16:07:53.36	245.91	13.32	-37.5	-38.6	20.3	0.00e+00	0	43	0	707788800	45	4053
2026-01-29 16:07:54.21	246.07	13.36	-37.6	-38.6	20.3	0.00e+00	0	43	0	713031680	45	4074
2026-01-29 16:07:55.51	246.30	13.42	-37.7	-38.7	20.3	0.00e+00	0	43	0	722468864	45	4099
2026-01-29 16:07:56.22	246.43	13.45	-37.5	-38.4	20.5	0.00e+00	0	43	0	727711744	45	3998
2026-01-29 16:07:57.49	246.66	13.51	-37.3	-38.3	20.6	0.00e+00	0	43	0	737148928	45	3918
2026-01-29 16:07:58.21	246.79	13.54	-37.4	-38.3	20.6	0.00e+00	0	43	0	742391808	45	3957
2026-01-29 16:07:59.49	247.03	13.60	-37.4	-38.3	20.6	0.00e+00	0	43	0	751828992	45	3939
2026-01-29 16:08:00.21	247.16	13.63	-37.2	-38.1	20.8	0.00e+00	0	43	0	757071872	45	3868
2026-01-29 16:08:01.50	247.40	13.69	-37.3	-38.2	20.6	0.00e+00	0	43	0	766509056	45	3913
2026-01-29 16:08:02.22	247.53	13.72	-37.4	-38.3	20.6	0.00e+00	0	43	0	770703360	45	3958
2026-01-29 16:08:03.50	247.77	13.77	-37.4	-38.4	20.6	0.00e+00	0	43	0	780140544	45	3966
2026-01-29 16:08:04.23	247.90	13.80	-37.3	-38.3	20.6	0.00e+00	0	43	0	785383424	45	3927
2026-01-29 16:08:05.51	248.14	13.86	-37.4	-38.4	20.6	0.00e+00	0	43	0	794820608	45	3981
2026-01-29 16:08:06.23	248.27	13.89	-37.4	-38.3	20.6	0.00e+00	0	43	0	800063488	45	3956
2026-01-29 16:08:07.51	248.51	13.94	-37.3	-38.3	20.6	0.00e+00	0	44	0	809500672	45	3918
2026-01-29 16:08:08.22	248.65	13.98	-37.2	-38.2	20.7	0.00e+00	0	43	0	814743552	45	3880
2026-01-29 16:08:09.55	248.90	14.03	-37.1	-38.1	20.8	0.00e+00	0	43	0	824180736	45	3830
2026-01-29 16:08:10.26	249.03	14.06	-37.1	-38.0	20.9	0.00e+00	0	43	0	829423616	44	4019
2026-01-29 16:08:11.54	249.27	14.11	-37.2	-38.1	20.8	0.00e+00	0	44	0	838860800	44	4098
2026-01-29 16:08:12.27	249.41	14.14	-37.1	-38.0	20.9	0.00e+00	0	43	0	844103680	44	4039
2026-01-29 16:08:13.55	249.65	14.20	-37.0	-38.0	21.0	0.00e+00	0	43	0	853540864	44	4007
2026-01-29 16:08:14.26	249.79	14.23	-37.0	-38.0	20.9	0.00e+00	0	43	0	857735168	44	4011
2026-01-29 16:08:15.71	250.07	14.29	-37.1	-38.0	20.9	0.00e+00	0	43	0	868220928	44	4021
2026-01-29 16:08:16.42	250.20	14.32	-37.0	-37.9	21.0	0.00e+00	0	43	0	873463808	44	4002
2026-01-29 16:08:17.78	250.46	14.37	-37.0	-37.9	21.0	0.00e+00	0	43	0	882900992	44	3997
2026-01-29 16:08:18.49	250.60	14.40	-37.1	-38.0	20.9	0.00e+00	0	43	0	888143872	44	4035
2026-01-29 16:08:19.77	250.85	14.45	-37.1	-38.1	20.8	0.00e+00	0	43	0	897581056	44	4064
2026-01-29 16:08:20.48	250.99	14.48	-37.1	-38.0	20.9	0.00e+00	0	43	0	902823936	44	4048
2026-01-29 16:08:21.76	251.23	14.53	-37.0	-37.9	21.0	0.00e+00	0	43	0	912261120	44	3966
2026-01-29 16:08:22.47	251.37	14.56	-37.0	-38.0	20.9	0.00e+00	0	43	0	917504000	44	4010
2026-01-29 16:08:23.75	251.62	14.61	-36.9	-37.8	21.1	0.00e+00	0	43	0	926941184	44	3947
2026-01-29 16:08:24.46	251.76	14.63	-36.9	-37.8	21.1	0.00e+00	0	43	0	932184064	44	3947
2026-01-29 16:08:25.74	252.01	14.68	-37.3	-38.2	20.7	0.00e+00	0	43	0	940572672	44	4129
2026-01-29 16:08:26.48	252.16	14.71	-37.2	-38.1	20.8	0.00e+00	0	43	0	945815552	44	4088
2026-01-29 16:08:27.76	252.41	14.76	-37.2	-38.2	20.8	0.00e+00	0	43	0	955252736	44	4107
2026-01-29 16:08:28.47	252.55	14.79	-37.2	-38.2	20.7	0.00e+00	0	43	0	960495616	44	4114
2026-01-29 16:08:29.75	252.81	14.83	-37.2	-38.2	20.7	0.00e+00	0	43	0	969932800	44	4131
2026-01-29 16:08:30.58	252.97	14.87	-37.2	-38.1	20.8	0.00e+00	0	43	0	976224256	44	4087
2026-01-29 16:08:32.02	253.26	14.92	-37.2	-38.2	20.8	0.00e+00	0	43	0	986710016	44	4117
2026-01-29 16:08:32.73	253.40	14.94	-37.1	-38.0	20.9	0.00e+00	0	43	0	990904320	44	4031
2026-01-29 16:08:34.22	253.70	15.00	-37.1	-38.0	20.9	0.00e+00	0	44	0	1002438656	44	4051
2026-01-29 16:08:34.93	253.84	15.02	-37.0	-38.0	20.9	0.00e+00	0	44	0	1007681536	44	4009
2026-01-29 16:08:36.21	254.10	15.07	-37.0	-37.9	21.0	0.00e+00	0	43	0	1016070144	44	3994
2026-01-29 16:08:37.27	254.31	15.11	-37.1	-38.1	20.9	0.00e+00	0	44	0	1024458752	44	4058
2026-01-29 16:08:38.12	254.48	15.14	-37.1	-38.0	20.9	0.00e+00	0	43	0	1030750208	44	4042
2026-01-29 16:08:39.26	254.72	15.18	-37.1	-38.1	20.9	0.00e+00	0	43	0	1038090240	44	4055
2026-01-29 16:08:40.11	254.89	15.21	-37.1	-38.0	20.9	0.00e+00	0	43	0	1044381696	44	4030
2026-01-29 16:08:41.25	255.12	15.25	-37.1	-38.0	20.9	0.00e+00	0	44	0	1052770304	44	4029
2026-01-29 16:08:42.10	255.29	15.27	-37.0	-37.9	21.0	0.00e+00	0	43	0	1059061760	44	4004
2026-01-29 16:08:43.29	255.54	15.31	-37.0	-37.9	21.1	0.00e+00	0	43	0	1067450368	44	3969
2026-01-29 16:08:44.14	255.71	15.34	-37.0	-37.9	21.0	0.00e+00	0	43	0	1073741824	44	3987
2026-01-29 16:08:45.28	255.95	15.38	-36.9	-37.8	21.1	0.00e+00	0	43	0	1082130432	44	3954
2026-01-29 16:08:46.13	256.12	15.41	-36.8	-37.7	21.2	0.00e+00	0	44	0	1088421888	44	3894
2026-01-29 16:08:47.27	256.36	15.45	-36.8	-37.7	21.2	0.00e+00	0	43	0	1096810496	44	3902
2026-01-29 16:08:48.12	256.53	15.47	-36.9	-37.8	21.1	0.00e+00	0	43	0	1102053376	44	3931
2026-01-29 16:08:49.26	256.77	15.51	-36.9	-37.8	21.1	0.00e+00	0	43	0	1110441984	44	3950
2026-01-29 16:08:50.11	256.95	15.54	-36.9	-37.8	21.1	0.00e+00	0	43	0	1116733440	44	3944
2026-01-29 16:08:51.25	257.18	15.57	-37.0	-38.0	21.0	0.00e+00	0	43	0	1125122048	44	4012
2026-01-29 16:08:52.11	257.36	15.60	-36.9	-37.9	21.0	0.00e+00	0	43	0	1131413504	44	3972
2026-01-29 16:08:53.24	257.60	15.63	-36.8	-37.8	21.2	0.00e+00	0	43	0	1139802112	44	3918
2026-01-29 16:08:54.29	257.82	15.66	-36.8	-37.8	21.2	0.00e+00	0	44	0	1147142144	44	3922
2026-01-29 16:08:55.46	258.06	15.70	-36.8	-37.7	21.2	0.00e+00	0	43	0	1155530752	44	3898
2026-01-29 16:08:56.31	258.24	15.72	-36.8	-37.8	21.2	0.00e+00	0	43	0	1161822208	44	3915
2026-01-29 16:08:57.45	258.48	15.76	-36.7	-37.6	21.3	0.00e+00	0	43	0	1170210816	44	3867
2026-01-29 16:08:58.30	258.66	15.78	-36.8	-37.7	21.2	0.00e+00	0	43	0	1176502272	44	3906
2026-01-29 16:08:59.44	258.90	15.82	-36.9	-37.9	21.0	0.00e+00	0	44	0	1183842304	44	3965
2026-01-29 16:09:00.29	259.08	15.84	-36.9	-37.9	21.0	0.00e+00	0	43	0	1190133760	44	3964
2026-01-29 16:09:01.42	259.32	15.87	-36.9	-37.8	21.1	0.00e+00	0	43	0	1198522368	44	3933
2026-01-29 16:09:02.28	259.50	15.89	-36.9	-37.8	21.1	0.00e+00	0	44	0	1204813824	44	3957
2026-01-29 16:09:03.41	259.75	15.93	-36.9	-37.8	21.1	0.00e+00	0	44	0	1213202432	44	3942
2026-01-29 16:09:04.26	259.93	15.95	-36.8	-37.7	21.2	0.00e+00	0	43	0	1219493888	44	3895
2026-01-29 16:09:05.40	260.17	15.98	-36.7	-37.6	21.3	0.00e+00	0	43	0	1227882496	44	3862
2026-01-29 16:09:06.25	260.35	16.00	-36.9	-37.8	21.1	0.00e+00	0	43	0	1233125376	44	3929
2026-01-29 16:09:07.39	260.60	16.03	-36.6	-37.5	21.4	0.00e+00	0	43	0	1241513984	44	3820
2026-01-29 16:09:08.24	260.78	16.05	-36.9	-37.8	21.2	0.00e+00	0	43	0	1247805440	44	3930
2026-01-29 16:09:09.58	261.07	16.09	-36.8	-37.7	21.2	0.00e+00	0	43	0	1257242624	44	3888
2026-01-29 16:09:10.29	261.22	16.10	-36.7	-37.6	21.3	0.00e+00	0	43	0	1262485504	44	3860
2026-01-29 16:09:11.57	261.50	16.13	-36.8	-37.7	21.2	0.00e+00	0	44	0	1271922688	44	3880
2026-01-29 16:09:12.28	261.65	16.15	-36.8	-37.7	21.2	0.00e+00	0	43	0	1277165568	44	3878
2026-01-29 16:09:13.56	261.93	16.18	-36.7	-37.6	21.3	0.00e+00	0	43	0	1286602752	44	3839
2026-01-29 16:09:14.30	262.09	16.20	-36.8	-37.8	21.2	0.00e+00	0	43	0	1291845632	44	3915
2026-01-29 16:09:15.58	262.37	16.23	-36.8	-37.8	21.2	0.00e+00	0	43	0	1300234240	44	3918
2026-01-29 16:09:16.29	262.52	16.24	-36.9	-37.8	21.1	0.00e+00	0	43	0	1306525696	44	3953
2026-01-29 16:09:17.57	262.80	16.27	-36.8	-37.8	21.2	0.00e+00	0	43	0	1314914304	44	3916
2026-01-29 16:09:18.28	262.95	16.29	-36.8	-37.7	21.2	0.00e+00	0	43	0	1320157184	44	3901
2026-01-29 16:09:19.56	263.23	16.32	-36.6	-37.6	21.3	0.00e+00	0	44	0	1329594368	44	3830
2026-01-29 16:09:20.27	263.39	16.33	-36.5	-37.4	21.4	0.00e+00	0	43	0	1334837248	43	3975
2026-01-29 16:09:21.57	263.67	16.36	-36.7	-37.6	21.2	0.00e+00	0	43	0	1344274432	43	4056
2026-01-29 16:09:22.28	263.83	16.37	-36.5	-37.4	21.4	0.00e+00	0	43	0	1349517312	43	3968
2026-01-29 16:09:23.56	264.11	16.40	-36.6	-37.5	21.3	0.00e+00	0	44	0	1357905920	43	4025
2026-01-29 16:09:24.27	264.27	16.41	-36.7	-37.7	21.1	0.00e+00	0	43	0	1363148800	43	4099
2026-01-29 16:09:25.74	264.59	16.44	-36.8	-37.7	21.1	0.00e+00	0	44	0	1373634560	43	4136
2026-01-29 16:09:26.45	264.75	16.45	-36.9	-37.8	21.0	0.00e+00	0	43	0	1378877440	43	4174
2026-01-29 16:09:27.73	265.03	16.48	-37.0	-37.9	20.9	0.00e+00	0	44	0	1388314624	43	4232
2026-01-29 16:09:28.45	265.19	16.49	-37.0	-37.9	20.9	0.00e+00	0	44	0	1393557504	43	4222
2026-01-29 16:09:29.73	265.47	16.51	-37.1	-38.1	21.0	0.00e+00	0	44	0	1402994688	44	4057
2026-01-29 16:09:30.46	265.63	16.52	-37.0	-37.9	21.0	0.00e+00	0	44	0	1408237568	44	3988
2026-01-29 16:09:31.74	265.92	16.55	-36.8	-37.7	21.2	0.00e+00	0	44	0	1417674752	44	3909
2026-01-29 16:09:32.45	266.07	16.56	-36.7	-37.6	21.3	0.00e+00	0	43	0	1422917632	44	3847
2026-01-29 16:09:33.73	266.36	16.58	-36.4	-37.3	21.4	0.00e+00	0	43	0	1431306240	43	3957
2026-01-29 16:09:34.51	266.53	16.59	-36.3	-37.2	21.5	0.00e+00	0	43	0	1437597696	43	3910
2026-01-29 16:09:35.79	266.82	16.61	-36.4	-37.3	21.5	0.00e+00	0	44	0	1447034880	43	3941
2026-01-29 16:09:36.56	266.99	16.62	-36.5	-37.4	21.4	0.00e+00	0	44	0	1452277760	43	3960
2026-01-29 16:09:37.84	267.27	16.64	-36.5	-37.4	21.4	0.00e+00	0	43	0	1461714944	43	3970
2026-01-29 16:09:38.56	267.43	16.65	-36.4	-37.3	21.4	0.00e+00	0	44	0	1466957824	43	3941
2026-01-29 16:09:39.83	267.72	16.67	-36.5	-37.4	21.4	0.00e+00	0	44	0	1475346432	43	3989
2026-01-29 16:09:40.67	267.90	16.68	-36.4	-37.2	21.5	0.00e+00	0	44	0	1481637888	43	3910
2026-01-29 16:09:42.12	268.23	16.70	-36.4	-37.4	21.4	0.00e+00	0	44	0	1492123648	43	3961
2026-01-29 16:09:42.83	268.39	16.70	-36.4	-37.3	21.4	0.00e+00	0	44	0	1497366528	43	3957
2026-01-29 16:09:44.11	268.67	16.72	-36.5	-37.4	21.4	0.00e+00	0	43	0	1506803712	43	3968
2026-01-29 16:09:44.82	268.83	16.73	-36.6	-37.5	21.3	0.00e+00	0	43	0	1512046592	43	4027
2026-01-29 16:09:46.10	269.12	16.74	-36.6	-37.5	21.2	0.00e+00	0	44	0	1521483776	43	4049
2026-01-29 16:09:46.82	269.28	16.75	-36.7	-37.6	21.2	0.00e+00	0	44	0	1526726656	43	4052
2026-01-29 16:09:48.09	269.57	16.76	-36.7	-37.6	21.2	0.00e+00	0	43	0	1535115264	43	4064
2026-01-29 16:09:48.83	269.73	16.77	-36.7	-37.6	21.2	0.00e+00	0	43	0	1540358144	43	4087
2026-01-29 16:09:50.11	270.02	16.78	-36.7	-37.6	21.2	0.00e+00	0	44	0	1549795328	43	4080
2026-01-29 16:09:50.89	270.20	16.79	-36.6	-37.5	21.3	0.00e+00	0	44	0	1555038208	43	4017
2026-01-29 16:09:52.17	270.49	16.80	-36.5	-37.4	21.3	0.00e+00	0	44	0	1564475392	43	4002
2026-01-29 16:09:52.89	270.65	16.80	-36.5	-37.4	21.4	0.00e+00	0	44	0	1570766848	43	3999
2026-01-29 16:09:54.17	270.94	16.81	-36.4	-37.3	21.4	0.00e+00	0	44	0	1579155456	43	3950
2026-01-29 16:09:55.12	271.15	16.82	-36.4	-37.3	21.4	0.00e+00	0	44	0	1586495488	43	3933
2026-01-29 16:09:56.11	271.38	16.83	-36.4	-37.3	21.5	0.00e+00	0	44	0	1593835520	43	3943
2026-01-29 16:09:57.11	271.60	16.83	-36.5	-37.4	21.4	0.00e+00	0	43	0	1600126976	43	3975
2026-01-29 16:09:58.10	271.82	16.84	-36.3	-37.2	21.5	0.00e+00	0	43	0	1607467008	43	3909
2026-01-29 16:09:59.10	272.05	16.84	-36.5	-37.4	21.4	0.00e+00	0	44	0	1614807040	43	3974
2026-01-29 16:10:00.09	272.27	16.85	-36.4	-37.3	21.4	0.00e+00	0	44	0	1622147072	43	3944
2026-01-29 16:10:01.09	272.50	16.85	-36.4	-37.3	21.5	0.00e+00	0	44	0	1629487104	43	3936
2026-01-29 16:10:02.08	272.72	16.86	-36.5	-37.4	21.4	0.00e+00	0	43	0	1636827136	43	3967
2026-01-29 16:10:03.17	272.97	16.86	-36.5	-37.4	21.3	0.00e+00	0	43	0	1644167168	43	3991
2026-01-29 16:10:04.06	273.17	16.86	-36.7	-37.6	21.2	0.00e+00	0	43	0	1650458624	43	4070
2026-01-29 16:10:05.20	273.43	16.87	-36.5	-37.4	21.3	0.00e+00	0	44	0	1658847232	43	3990
2026-01-29 16:10:06.05	273.62	16.87	-36.6	-37.6	21.2	0.00e+00	0	43	0	1665138688	43	4055
2026-01-29 16:10:07.19	273.88	16.87	-36.6	-37.5	21.2	0.00e+00	0	43	0	1673527296	43	4020
2026-01-29 16:10:08.04	274.07	16.87	-36.5	-37.4	21.3	0.00e+00	0	43	0	1679818752	43	3983
2026-01-29 16:10:09.18	274.33	16.87	-36.5	-37.4	21.4	0.00e+00	0	43	0	1687158784	43	3978
2026-01-29 16:10:10.03	274.52	16.88	-36.5	-37.4	21.4	0.00e+00	0	44	0	1693450240	43	3979
2026-01-29 16:10:11.16	274.78	16.88	-36.5	-37.4	21.4	0.00e+00	0	43	0	1701838848	43	3977
2026-01-29 16:10:12.02	274.97	16.88	-36.5	-37.4	21.3	0.00e+00	0	43	0	1708130304	43	3994
2026-01-29 16:10:13.15	275.23	16.88	-36.5	-37.4	21.3	0.00e+00	0	44	0	1716518912	43	3990
2026-01-29 16:10:14.00	275.42	16.87	-36.4	-37.3	21.4	0.00e+00	0	44	0	1722810368	43	3939
2026-01-29 16:10:15.14	275.68	16.87	-36.4	-37.3	21.4	0.00e+00	0	44	0	1731198976	43	3931
2026-01-29 16:10:16.00	275.88	16.87	-36.5	-37.4	21.4	0.00e+00	0	44	0	1737490432	43	3966
2026-01-29 16:10:17.13	276.13	16.87	-36.5	-37.4	21.3	0.00e+00	0	43	0	1744830464	43	3994
2026-01-29 16:10:18.19	276.37	16.87	-36.5	-37.4	21.3	0.00e+00	0	44	0	1753219072	43	3997
2026-01-29 16:10:19.26	276.61	16.86	-36.5	-37.4	21.3	0.00e+00	0	44	0	1760559104	43	3993
2026-01-29 16:10:20.24	276.83	16.86	-36.4	-37.3	21.5	0.00e+00	0	44	0	1767899136	43	3916
2026-01-29 16:10:21.24	277.06	16.86	-36.4	-37.3	21.4	0.00e+00	0	44	0	1774190592	43	3946
2026-01-29 16:10:22.44	277.33	16.85	-36.4	-37.3	21.4	0.00e+00	0	44	0	1783627776	43	3950
2026-01-29 16:10:23.32	277.53	16.85	-36.3	-37.2	21.5	0.00e+00	0	44	0	1789919232	43	3889
2026-01-29 16:10:24.63	277.83	16.84	-36.4	-37.3	21.5	0.00e+00	0	44	0	1799356416	43	3926
2026-01-29 16:10:25.34	277.99	16.83	-36.4	-37.3	21.4	0.00e+00	0	44	0	1804599296	43	3957
2026-01-29 16:10:26.83	278.32	16.82	-36.5	-37.5	21.3	0.00e+00	0	43	0	1815085056	43	4008
2026-01-29 16:10:27.54	278.48	16.82	-36.6	-37.5	21.3	0.00e+00	0	43	0	1820327936	43	4024
2026-01-29 16:10:28.82	278.77	16.81	-36.7	-37.6	21.2	0.00e+00	0	44	0	1829765120	43	4067
2026-01-29 16:10:29.54	278.93	16.81	-36.7	-37.6	21.2	0.00e+00	0	44	0	1835008000	43	4095
2026-01-29 16:10:30.82	279.22	16.80	-36.7	-37.7	21.1	0.00e+00	0	44	0	1843396608	43	4099
2026-01-29 16:10:31.53	279.38	16.79	-36.7	-37.6	21.2	0.00e+00	0	44	0	1848639488	43	4082
2026-01-29 16:10:32.81	279.67	16.78	-36.7	-37.6	21.2	0.00e+00	0	44	0	1858076672	43	4075
2026-01-29 16:10:33.54	279.83	16.77	-36.7	-37.6	21.2	0.00e+00	0	44	0	1863319552	43	4060
2026-01-29 16:10:34.82	280.12	16.76	-36.7	-37.6	21.2	0.00e+00	0	44	0	1872756736	43	4073
2026-01-29 16:10:35.56	280.29	16.75	-36.7	-37.6	21.2	0.00e+00	0	44	0	1877999616	43	4088
2026-01-29 16:10:36.84	280.57	16.74	-36.6	-37.5	21.2	0.00e+00	0	44	0	1887436800	43	4051
2026-01-29 16:10:37.55	280.73	16.73	-36.6	-37.5	21.3	0.00e+00	0	43	0	1892679680	43	4032
2026-01-29 16:10:38.83	281.02	16.72	-36.6	-37.5	21.3	0.00e+00	0	44	0	1901068288	43	4031
2026-01-29 16:10:39.56	281.18	16.71	-36.5	-37.4	21.4	0.00e+00	0	44	0	1907359744	43	3994
2026-01-29 16:10:40.84	281.47	16.69	-36.5	-37.5	21.3	0.00e+00	0	44	0	1915748352	43	4008
2026-01-29 16:10:41.55	281.63	16.68	-36.6	-37.5	21.3	0.00e+00	0	44	0	1920991232	43	4014
2026-01-29 16:10:42.82	281.91	16.67	-36.6	-37.5	21.3	0.00e+00	0	44	0	1930428416	43	4011
2026-01-29 16:10:43.55	282.08	16.66	-36.8	-37.7	21.1	0.00e+00	0	44	0	1935671296	43	4111
2026-01-29 16:10:44.83	282.36	16.64	-36.6	-37.5	21.3	0.00e+00	0	44	0	1945108480	43	4021
2026-01-29 16:10:45.54	282.52	16.63	-36.7	-37.6	21.2	0.00e+00	0	44	0	1950351360	43	4089
2026-01-29 16:10:46.82	282.80	16.61	-36.6	-37.5	21.3	0.00e+00	0	44	0	1959788544	43	4040
2026-01-29 16:10:47.53	282.96	16.60	-36.7	-37.6	21.2	0.00e+00	0	44	0	1963982848	43	4081
2026-01-29 16:10:48.81	283.25	16.58	-36.7	-37.6	21.2	0.00e+00	0	44	0	1973420032	43	4056
2026-01-29 16:10:49.53	283.41	16.57	-36.6	-37.5	21.3	0.00e+00	0	44	0	1978662912	43	4009
2026-01-29 16:10:50.81	283.69	16.55	-36.6	-37.5	21.2	0.00e+00	0	44	0	1988100096	43	4047
2026-01-29 16:10:51.54	283.85	16.54	-36.6	-37.5	21.3	0.00e+00	0	44	0	1993342976	43	4009
2026-01-29 16:10:52.82	284.13	16.51	-36.5	-37.4	21.4	0.00e+00	0	44	0	2002780160	43	3994
2026-01-29 16:10:53.54	284.29	16.50	-36.6	-37.5	21.3	0.00e+00	0	44	0	2008023040	43	4011
2026-01-29 16:10:54.82	284.58	16.48	-36.6	-37.5	21.3	0.00e+00	0	44	0	2017460224	43	4043
2026-01-29 16:10:55.66	284.76	16.46	-36.6	-37.6	21.2	0.00e+00	0	44	0	2022703104	43	4052
2026-01-29 16:10:57.10	285.08	16.44	-36.6	-37.5	21.2	0.00e+00	0	44	0	2033188864	43	4041
2026-01-29 16:10:57.81	285.23	16.42	-36.7	-37.6	21.2	0.00e+00	0	44	0	2038431744	43	4073
2026-01-29 16:10:59.09	285.51	16.40	-36.7	-37.7	21.1	0.00e+00	0	43	0	2047868928	43	4112
2026-01-29 16:10:59.81	285.67	16.38	-36.8	-37.7	21.0	0.00e+00	0	44	0	2053111808	43	4126
2026-01-29 16:11:01.09	285.95	16.36	-36.8	-37.7	21.1	0.00e+00	0	43	0	2062548992	43	4120
2026-01-29 16:11:01.88	286.12	16.34	-36.8	-37.8	21.0	0.00e+00	0	44	0	2067791872	43	4161
2026-01-29 16:11:03.08	286.39	16.32	-36.8	-37.7	21.1	0.00e+00	0	43	0	2076180480	43	4134
2026-01-29 16:11:04.10	286.61	16.30	-36.8	-37.7	21.1	0.00e+00	0	44	0	2084569088	43	4130
2026-01-29 16:11:05.29	286.87	16.27	-36.7	-37.7	21.1	0.00e+00	0	44	0	2092957696	43	4104
2026-01-29 16:11:06.14	287.05	16.25	-36.8	-37.7	21.1	0.00e+00	0	44	0	2099249152	43	4108
2026-01-29 16:11:07.50	287.35	16.22	-36.8	-37.7	21.1	0.00e+00	0	44	0	2108686336	43	4137
2026-01-29 16:11:08.21	287.50	16.20	-36.9	-37.8	21.0	0.00e+00	0	44	0	2113929216	43	4183
2026-01-29 16:11:09.71	287.83	16.17	-36.8	-37.7	21.1	0.00e+00	0	44	0	2124414976	43	4112
2026-01-29 16:11:10.42	287.98	16.15	-36.9	-37.9	21.0	0.00e+00	0	44	0	2129657856	43	4210
2026-01-29 16:11:11.78	288.27	16.12	-36.9	-37.8	21.0	0.00e+00	0	44	0	2139095040	43	4192
2026-01-29 16:11:12.49	288.42	16.10	-37.0	-37.9	20.9	0.00e+00	0	44	0	2144337920	43	4226
2026-01-29 16:11:13.77	288.70	16.07	-36.9	-37.8	21.0	0.00e+00	0	44	0	2153775104	43	4171
2026-01-29 16:11:14.48	288.85	16.05	-36.8	-37.8	21.0	0.00e+00	0	44	0	2159017984	43	4163
2026-01-29 16:11:15.76	289.13	16.02	-36.8	-37.8	21.0	0.00e+00	0	44	0	2168455168	43	4152
2026-01-29 16:11:16.48	289.28	16.00	-36.8	-37.7	21.0	0.00e+00	0	44	0	2173698048	43	4144
2026-01-29 16:11:17.76	289.55	15.97	-36.8	-37.7	21.0	0.00e+00	0	44	0	2183135232	43	4140
2026-01-29 16:11:18.49	289.71	15.95	-36.9	-37.8	21.0	0.00e+00	0	44	0	2188378112	43	4170
2026-01-29 16:11:19.77	289.98	15.91	-36.9	-37.9	21.0	0.00e+00	0	43	0	2196766720	43	4206
2026-01-29 16:11:20.50	290.13	15.89	-36.8	-37.7	20.8	0.00e+00	0	43	0	2203058176	43	4117
2026-01-29 16:11:21.77	290.40	15.86	-37.0	-38.0	20.9	0.00e+00	0	43	0	2211446784	43	4243
2026-01-29 16:11:22.58	290.57	15.84	-37.0	-37.9	20.9	0.00e+00	0	43	0	2217738240	43	4241
2026-01-29 16:11:23.72	290.82	15.80	-37.2	-38.1	20.7	0.00e+00	0	44	0	2226126848	43	4311
2026-01-29 16:11:24.57	290.99	15.78	-37.1	-38.1	20.7	0.00e+00	0	43	0	2231369728	43	4293
2026-01-29 16:11:25.71	291.23	15.75	-37.2	-38.1	20.7	0.00e+00	0	44	0	2239758336	43	4312
2026-01-29 16:11:26.56	291.41	15.72	-37.0	-38.0	20.9	0.00e+00	0	44	0	2246049792	43	4251
2026-01-29 16:11:27.70	291.65	15.69	-36.9	-37.9	20.9	0.00e+00	0	44	0	2254438400	43	4200
2026-01-29 16:11:28.55	291.83	15.66	-37.1	-38.0	20.8	0.00e+00	0	44	0	2260729856	43	4255
2026-01-29 16:11:29.69	292.07	15.63	-37.2	-38.1	20.7	0.00e+00	0	44	0	2269118464	43	4333
2026-01-29 16:11:30.54	292.24	15.60	-37.1	-38.0	20.8	0.00e+00	0	44	0	2275409920	43	4288
2026-01-29 16:11:31.68	292.48	15.57	-37.2	-38.1	20.7	0.00e+00	0	44	0	2282749952	43	4315
2026-01-29 16:11:32.53	292.66	15.54	-37.2	-38.2	20.6	0.00e+00	0	44	0	2289041408	43	4346
2026-01-29 16:11:33.67	292.89	15.51	-37.5	-38.5	20.5	0.00e+00	0	43	0	2297430016	44	4261
2026-01-29 16:11:34.52	293.07	15.48	-37.6	-38.6	20.4	0.00e+00	0	44	0	2303721472	44	4296
2026-01-29 16:11:35.66	293.30	15.44	-37.5	-38.5	20.5	0.00e+00	0	44	0	2312110080	44	4263
2026-01-29 16:11:36.51	293.48	15.42	-37.4	-38.4	20.6	0.00e+00	0	44	0	2318401536	44	4200
2026-01-29 16:11:37.65	293.71	15.38	-37.5	-38.4	20.6	0.00e+00	0	44	0	2326790144	44	4224
2026-01-29 16:11:38.50	293.89	15.35	-37.4	-38.4	20.6	0.00e+00	0	44	0	2332033024	44	4216
2026-01-29 16:11:39.64	294.12	15.31	-37.4	-38.3	20.6	0.00e+00	0	43	0	2340421632	44	4190
2026-01-29 16:11:40.49	294.29	15.28	-37.4	-38.4	20.6	0.00e+00	0	44	0	2346713088	44	4202
2026-01-29 16:11:41.63	294.52	15.25	-37.4	-38.3	20.7	0.00e+00	0	44	0	2355101696	44	4168
2026-01-29 16:11:42.89	294.78	15.20	-37.5	-38.4	20.6	0.00e+00	0	44	0	2364538880	44	4236
2026-01-29 16:11:43.68	294.94	15.17	-37.6	-38.5	20.4	0.00e+00	0	44	0	2369781760	44	4277
2026-01-29 16:11:44.85	295.18	15.13	-37.4	-38.4	20.5	0.00e+00	0	44	0	2378170368	44	4216
2026-01-29 16:11:45.70	295.35	15.10	-37.3	-38.3	20.6	0.00e+00	0	44	0	2384461824	44	4165
2026-01-29 16:11:46.84	295.58	15.06	-37.3	-38.3	20.6	0.00e+00	0	44	0	2392850432	44	4155
2026-01-29 16:11:47.70	295.75	15.03	-37.3	-38.3	20.7	0.00e+00	0	44	0	2399141888	44	4147
2026-01-29 16:11:48.83	295.97	14.99	-37.4	-38.3	20.6	0.00e+00	0	44	0	2406481920	44	4191
2026-01-29 16:11:49.68	296.14	14.96	-37.4	-38.3	20.6	0.00e+00	0	44	0	2412773376	44	4191
2026-01-29 16:11:50.82	296.37	14.92	-37.4	-38.3	20.6	0.00e+00	0	44	0	2421161984	44	4186
2026-01-29 16:11:51.67	296.54	14.89	-37.5	-38.4	20.6	0.00e+00	0	43	0	2427453440	44	4224
2026-01-29 16:11:52.81	296.77	14.85	-37.5	-38.5	20.5	0.00e+00	0	44	0	2435842048	44	4265
2026-01-29 16:11:53.67	296.94	14.82	-37.6	-38.6	20.4	0.00e+00	0	44	0	2442133504	44	4293
2026-01-29 16:11:54.80	297.16	14.77	-37.5	-38.5	20.5	0.00e+00	0	44	0	2450522112	44	4253
2026-01-29 16:11:55.66	297.33	14.74	-37.5	-38.5	20.5	0.00e+00	0	44	0	2456813568	44	4265
2026-01-29 16:11:56.79	297.55	14.70	-37.7	-38.6	20.3	0.00e+00	0	43	0	2464153600	44	4321
2026-01-29 16:11:57.64	297.72	14.67	-37.6	-38.6	20.4	0.00e+00	0	44	0	2470445056	45	4073
2026-01-29 16:11:58.78	297.94	14.62	-37.6	-38.6	20.4	0.00e+00	0	44	0	2478833664	45	4075
2026-01-29 16:11:59.63	298.10	14.59	-37.8	-38.7	20.2	0.00e+00	0	44	0	2485125120	45	4138
2026-01-29 16:12:00.77	298.33	14.55	-37.8	-38.8	20.2	0.00e+00	0	44	0	2493513728	45	4159
2026-01-29 16:12:01.62	298.49	14.51	-37.9	-38.8	20.1	0.00e+00	0	44	0	2499805184	45	4192
2026-01-29 16:12:02.75	298.71	14.47	-37.9	-38.9	20.1	0.00e+00	0	44	0	2507145216	45	4210
2026-01-29 16:12:03.61	298.88	14.43	-38.0	-39.1	19.9	0.00e+00	0	44	0	2513436672	45	4295
2026-01-29 16:12:04.74	299.09	14.39	-38.0	-39.1	19.9	0.00e+00	0	44	0	2521825280	45	4292
2026-01-29 16:12:05.60	299.26	14.35	-38.1	-39.0	19.9	0.00e+00	0	43	0	2528116736	45	4290
2026-01-29 16:12:06.73	299.47	14.31	-38.1	-39.1	19.9	0.00e+00	0	44	0	2536505344	45	4326
2026-01-29 16:12:07.59	299.64	14.27	-38.0	-38.9	20.0	0.00e+00	0	44	0	2541748224	45	4239
2026-01-29 16:12:08.73	299.85	14.23	-38.0	-39.0	20.0	0.00e+00	0	44	0	2550136832	45	4262
2026-01-29 16:12:09.58	300.02	14.19	-38.0	-39.0	19.9	0.00e+00	0	44	0	2556428288	45	4274
2026-01-29 16:12:10.71	300.23	14.15	-38.0	-39.0	19.9	0.00e+00	0	44	0	2564816896	45	4276
2026-01-29 16:12:11.61	300.40	14.11	-38.1	-39.1	19.9	0.00e+00	0	43	0	2571108352	45	4295
2026-01-29 16:12:12.81	300.63	14.06	-38.0	-39.0	19.9	0.00e+00	0	44	0	2580545536	45	4262
2026-01-29 16:12:13.67	300.79	14.02	-38.1	-39.1	19.9	0.00e+00	0	44	0	2585788416	45	4293
2026-01-29 16:12:14.80	301.00	13.98	-38.0	-39.0	20.0	0.00e+00	0	44	0	2594177024	45	4271
2026-01-29 16:12:15.69	301.16	13.94	-38.1	-39.1	19.9	0.00e+00	0	44	0	2601517056	45	4292
2026-01-29 16:12:16.82	301.37	13.89	-37.9	-38.9	20.1	0.00e+00	0	44	0	2608857088	45	4218
2026-01-29 16:12:17.68	301.53	13.85	-38.0	-39.0	20.0	0.00e+00	0	43	0	2615148544	45	4252
2026-01-29 16:12:18.81	301.74	13.81	-38.0	-39.0	20.0	0.00e+00	0	44	0	2623537152	45	4258
2026-01-29 16:12:19.67	301.90	13.77	-37.9	-38.9	20.0	0.00e+00	0	44	0	2629828608	45	4221
2026-01-29 16:12:20.80	302.11	13.72	-38.0	-39.0	19.9	0.00e+00	0	44	0	2638217216	45	4257
2026-01-29 16:12:21.66	302.27	13.68	-38.1	-39.1	19.9	0.00e+00	0	44	0	2644508672	45	4296
2026-01-29 16:12:22.79	302.47	13.63	-38.1	-39.1	19.8	0.00e+00	0	44	0	2651848704	45	4329
2026-01-29 16:12:23.65	302.63	13.60	-38.2	-39.2	19.8	0.00e+00	0	44	0	2658140160	45	4371
2026-01-29 16:12:24.78	302.84	13.55	-38.1	-39.1	19.9	0.00e+00	0	44	0	2666528768	45	4297
2026-01-29 16:12:25.63	302.99	13.51	-38.0	-39.0	19.9	0.00e+00	0	44	0	2672820224	45	4278
2026-01-29 16:12:26.90	303.22	13.45	-38.0	-39.0	19.9	0.00e+00	0	44	0	2682257408	45	4287
2026-01-29 16:12:27.69	303.36	13.42	-38.0	-39.0	19.9	0.00e+00	0	44	0	2687500288	45	4262
2026-01-29 16:12:28.88	303.58	13.36	-38.1	-39.0	19.9	0.00e+00	0	44	0	2695888896	45	4289
2026-01-29 16:12:29.74	303.73	13.33	-38.0	-39.0	19.9	0.00e+00	0	44	0	2702180352	45	4282
2026-01-29 16:12:31.00	303.96	13.27	-38.2	-39.2	19.7	0.00e+00	0	44	0	2711617536	45	4387
2026-01-29 16:12:31.79	304.10	13.23	-38.1	-39.1	19.8	0.00e+00	0	44	0	2716860416	45	4324
2026-01-29 16:12:33.15	304.34	13.17	-38.3	-39.3	19.6	0.00e+00	0	44	0	2727346176	46	4175
2026-01-29 16:12:33.86	304.46	13.14	-38.3	-39.3	19.6	0.00e+00	0	44	0	2732589056	46	4176
2026-01-29 16:12:35.14	304.69	13.08	-38.4	-39.4	19.6	0.00e+00	0	44	0	2740977664	46	4222
2026-01-29 16:12:35.85	304.81	13.05	-38.4	-39.5	19.5	0.00e+00	0	44	0	2746220544	46	4248
2026-01-29 16:12:37.12	305.04	12.99	-38.5	-39.6	19.4	0.00e+00	0	44	0	2755657728	46	4301
2026-01-29 16:12:37.83	305.16	12.96	-38.4	-39.5	19.5	0.00e+00	0	44	0	2760900608	46	4260
2026-01-29 16:12:39.12	305.39	12.90	-38.5	-39.5	19.4	0.00e+00	0	44	0	2770337792	46	4270
2026-01-29 16:12:39.84	305.51	12.86	-38.6	-39.6	19.4	0.00e+00	0	44	0	2775580672	46	4316
2026-01-29 16:12:41.12	305.73	12.80	-38.6	-39.6	19.4	0.00e+00	0	44	0	2783969280	46	4309
2026-01-29 16:12:41.90	305.87	12.77	-38.6	-39.7	19.3	0.00e+00	0	44	0	2790260736	46	4341
2026-01-29 16:12:43.17	306.09	12.71	-38.4	-39.4	19.5	0.00e+00	0	44	0	2799697920	46	4240
2026-01-29 16:12:43.90	306.21	12.67	-38.4	-39.5	19.5	0.00e+00	0	44	0	2804940800	46	4259
2026-01-29 16:12:45.18	306.43	12.61	-38.4	-39.5	19.5	0.00e+00	0	44	0	2813329408	46	4247
2026-01-29 16:12:45.91	306.55	12.58	-38.4	-39.5	19.5	0.00e+00	0	44	0	2818572288	46	4244
2026-01-29 16:12:47.18	306.77	12.52	-38.6	-39.7	19.3	0.00e+00	0	44	0	2828009472	46	4363
2026-01-29 16:12:48.10	306.93	12.47	-38.4	-39.4	19.5	0.00e+00	0	44	0	2835349504	46	4232
2026-01-29 16:12:49.37	307.14	12.41	-38.5	-39.5	19.4	0.00e+00	0	44	0	2843738112	46	4289
2026-01-29 16:12:50.15	307.27	12.38	-38.6	-39.7	19.3	0.00e+00	0	44	0	2850029568	46	4353
2026-01-29 16:12:51.74	307.54	12.30	-38.7	-39.7	19.2	0.00e+00	0	44	0	2861563904	46	4380
2026-01-29 16:12:52.32	307.64	12.27	-38.6	-39.7	19.3	0.00e+00	0	44	0	2865758208	46	4349
2026-01-29 16:12:53.89	307.90	12.20	-38.7	-39.8	19.1	0.00e+00	0	44	0	2877292544	46	4411
2026-01-29 16:12:54.53	308.00	12.17	-38.6	-39.7	19.3	0.00e+00	0	44	0	2881486848	46	4352
2026-01-29 16:12:55.99	308.24	12.09	-38.7	-39.8	19.1	0.00e+00	0	44	0	2891972608	46	4412
2026-01-29 16:12:56.70	308.36	12.06	-38.7	-39.7	19.2	0.00e+00	0	44	0	2897215488	46	4385
2026-01-29 16:12:57.98	308.57	12.00	-38.7	-39.8	19.1	0.00e+00	0	44	0	2905604096	46	4406
2026-01-29 16:12:58.68	308.69	11.96	-38.7	-39.7	19.2	0.00e+00	0	44	0	2910846976	47	4136
2026-01-29 16:13:00.00	308.90	11.90	-38.8	-39.8	19.1	0.00e+00	0	44	0	2921332736	47	4192
2026-01-29 16:13:00.71	309.02	11.86	-38.7	-39.7	19.2	0.00e+00	0	44	0	2925527040	47	4127
2026-01-29 16:13:02.06	309.24	11.80	-38.7	-39.8	19.1	0.00e+00	0	44	0	2936012800	47	4160
2026-01-29 16:13:02.77	309.35	11.76	-38.8	-39.8	19.1	0.00e+00	0	44	0	2940207104	47	4184
2026-01-29 16:13:04.05	309.56	11.70	-38.7	-39.8	19.1	0.00e+00	0	44	0	2949644288	47	4171
2026-01-29 16:13:04.77	309.67	11.66	-38.8	-39.9	19.0	0.00e+00	0	44	0	2954887168	47	4225
2026-01-29 16:13:06.15	309.89	11.59	-38.8	-39.9	19.0	0.00e+00	0	44	0	2965372928	47	4215
2026-01-29 16:13:06.86	310.01	11.56	-38.9	-40.0	18.9	0.00e+00	0	44	0	2970615808	47	4270
2026-01-29 16:13:08.14	310.21	11.50	-38.9	-40.0	18.8	0.00e+00	0	44	0	2979004416	47	4288
2026-01-29 16:13:08.86	310.32	11.46	-39.0	-40.1	18.8	0.00e+00	0	44	0	2984247296	47	4333
2026-01-29 16:13:10.14	310.52	11.40	-38.8	-39.9	19.0	0.00e+00	0	44	0	2993684480	47	4236
2026-01-29 16:13:10.88	310.64	11.36	-38.8	-39.9	19.0	0.00e+00	0	44	0	2998927360	47	4229
2026-01-29 16:13:12.16	310.84	11.29	-38.9	-40.0	18.9	0.00e+00	0	44	0	3008364544	47	4263
2026-01-29 16:13:12.87	310.95	11.26	-38.7	-39.8	19.1	0.00e+00	0	44	0	3013607424	47	4188
2026-01-29 16:13:14.15	311.15	11.19	-38.7	-39.8	19.1	0.00e+00	0	44	0	3023044608	47	4175
2026-01-29 16:13:15.00	311.28	11.15	-38.7	-39.8	19.1	0.00e+00	0	44	0	3029336064	47	4157
2026-01-29 16:13:16.14	311.46	11.09	-38.7	-39.8	19.1	0.00e+00	0	44	0	3037724672	47	4167
2026-01-29 16:13:16.99	311.59	11.05	-38.6	-39.7	19.2	0.00e+00	0	44	0	3044016128	47	4122
2026-01-29 16:13:18.13	311.77	10.99	-38.7	-39.8	19.1	0.00e+00	0	44	0	3051356160	47	4182
2026-01-29 16:13:18.99	311.90	10.95	-38.6	-39.6	19.2	0.00e+00	0	44	0	3057647616	47	4093
2026-01-29 16:13:20.12	312.07	10.89	-38.6	-39.7	19.2	0.00e+00	0	44	0	3066036224	47	4119
2026-01-29 16:13:20.97	312.20	10.85	-38.6	-39.7	19.2	0.00e+00	0	44	0	3072327680	47	4126
2026-01-29 16:13:22.11	312.37	10.79	-38.7	-39.9	19.0	0.00e+00	0	44	0	3080716288	47	4194
2026-01-29 16:13:22.96	312.50	10.75	-38.8	-39.9	19.0	0.00e+00	0	44	0	3087007744	47	4201
2026-01-29 16:13:24.10	312.67	10.69	-39.0	-40.1	18.8	0.00e+00	0	44	0	3094347776	47	4303
2026-01-29 16:13:24.95	312.80	10.65	-39.0	-40.1	18.8	0.00e+00	0	44	0	3100639232	47	4318
2026-01-29 16:13:26.09	312.97	10.59	-39.0	-40.2	18.7	0.00e+00	0	44	0	3109027840	47	4345
2026-01-29 16:13:26.94	313.10	10.54	-39.1	-40.2	18.6	0.00e+00	0	44	0	3115319296	47	4391
2026-01-29 16:13:28.08	313.27	10.49	-39.1	-40.2	18.7	0.00e+00	0	44	0	3123707904	47	4376
2026-01-29 16:13:28.94	313.39	10.44	-39.1	-40.2	18.7	0.00e+00	0	44	0	3128950784	47	4364
2026-01-29 16:13:30.07	313.56	10.38	-39.2	-40.3	18.6	0.00e+00	0	44	0	3137339392	47	4430
2026-01-29 16:13:30.93	313.69	10.34	-39.2	-40.3	18.6	0.00e+00	0	44	0	3143630848	47	4409
2026-01-29 16:13:32.06	313.85	10.28	-39.2	-40.3	18.6	0.00e+00	0	44	0	3152019456	47	4430
2026-01-29 16:13:33.14	314.01	10.23	-39.4	-40.5	18.6	0.00e+00	0	44	0	3159359488	48	4280
2026-01-29 16:13:33.99	314.13	10.18	-39.2	-40.3	18.9	0.00e+00	0	44	0	3166699520	48	4160
2026-01-29 16:13:35.12	314.30	10.12	-39.3	-40.3	18.8	0.00e+00	0	44	0	3174039552	48	4192
2026-01-29 16:13:36.21	314.46	10.07	-39.3	-40.4	18.7	0.00e+00	0	44	0	3182428160	48	4206
2026-01-29 16:13:37.25	314.60	10.01	-39.1	-40.2	18.9	0.00e+00	0	44	0	3189768192	48	4114
2026-01-29 16:13:38.44	314.78	9.95	-39.0	-40.1	19.0	0.00e+00	0	44	0	3198156800	48	4068
2026-01-29 16:13:39.32	314.90	9.90	-39.0	-40.0	19.1	0.00e+00	0	44	0	3204448256	48	4032
2026-01-29 16:13:40.46	315.06	9.85	-39.0	-40.0	19.1	0.00e+00	0	44	0	3212836864	48	4031
2026-01-29 16:13:41.31	315.18	9.80	-38.9	-40.0	19.1	0.00e+00	0	44	0	3219128320	48	4026
2026-01-29 16:13:42.45	315.35	9.74	-39.0	-40.1	19.0	0.00e+00	0	44	0	3227516928	48	4052
2026-01-29 16:13:43.30	315.47	9.70	-38.9	-39.9	19.2	0.00e+00	0	44	0	3233808384	48	3994
2026-01-29 16:13:44.44	315.63	9.64	-39.0	-40.0	19.1	0.00e+00	0	44	0	3242196992	48	4046
2026-01-29 16:13:45.29	315.74	9.59	-39.0	-40.1	19.0	0.00e+00	0	44	0	3247439872	48	4091
2026-01-29 16:13:46.43	315.90	9.53	-39.3	-40.4	18.7	0.00e+00	0	44	0	3255828480	48	4198
2026-01-29 16:13:47.28	316.02	9.49	-39.5	-40.7	18.4	0.00e+00	0	44	0	3262119936	48	4344
2026-01-29 16:13:48.42	316.18	9.43	-39.2	-40.3	18.8	0.00e+00	0	44	0	3270508544	48	4171
2026-01-29 16:13:49.27	316.30	9.39	-39.3	-40.5	18.6	0.00e+00	0	44	0	3276800000	48	4248
2026-01-29 16:13:50.41	316.45	9.33	-39.4	-40.5	18.5	0.00e+00	0	44	0	3285188608	48	4287
2026-01-29 16:13:51.27	316.57	9.28	-39.5	-40.7	18.4	0.00e+00	0	44	0	3290431488	48	4352
2026-01-29 16:13:52.40	316.73	9.22	-40.3	-41.1	18.1	0.00e+00	0	44	0	3298820096	49	4329
2026-01-29 16:13:53.26	316.84	9.18	-39.8	-41.0	18.1	0.00e+00	0	44	0	3305111552	49	4267
2026-01-29 16:13:54.52	317.01	9.11	-39.8	-40.9	18.2	0.00e+00	0	44	0	3314548736	49	4240
2026-01-29 16:13:55.25	317.11	9.07	-39.8	-41.0	18.1	0.00e+00	0	44	0	3319791616	49	4264
2026-01-29 16:13:56.53	317.28	9.01	-41.0	-42.3	16.9	0.00e+00	0	44	0	3328180224	51	4399
2026-01-29 16:13:57.24	317.38	8.97	-48.5	-58.2	3.9	5.75e-01	0	44	0	3332374528	66	11586
2026-01-29 16:13:58.52	317.55	8.90	-48.5	-60.0	3.8	8.47e-01	0	44	104	3332374528	67	13475
2026-01-29 16:13:59.24	317.65	8.86	-49.2	-60.1	3.8	8.48e-01	0	44	104	3332374528	67	13589
2026-01-29 16:14:00.52	317.82	8.80	-49.4	-60.2	3.8	8.46e-01	0	44	104	3332374528	68	13021
2026-01-29 16:14:01.26	317.91	8.76	-49.4	-60.2	3.8	8.46e-01	0	44	104	3332374528	68	13050
2026-01-29 16:14:02.54	318.08	8.69	-49.5	-60.2	3.8	8.47e-01	0	44	104	3332374528	68	13062
2026-01-29 16:14:03.25	318.18	8.65	-49.6	-60.3	3.8	8.46e-01	0	44	104	3332374528	68	13157
2026-01-29 16:14:04.52	318.34	8.59	-49.4	-60.3	3.8	8.47e-01	0	44	104	3332374528	68	13230
2026-01-29 16:14:05.25	318.44	8.55	-49.5	-60.3	3.8	8.47e-01	0	44	104	3332374528	68	13245
2026-01-29 16:14:06.57	318.61	8.48	-49.6	-60.3	3.8	8.47e-01	0	44	104	3332374528	68	13217
2026-01-29 16:14:07.28	318.70	8.44	-49.5	-60.3	3.8	8.47e-01	0	44	104	3332374528	68	13198
2026-01-29 16:14:08.64	318.88	8.37	-49.5	-60.4	3.8	8.47e-01	0	44	104	3332374528	68	13268
2026-01-29 16:14:09.35	318.97	8.33	-49.5	-60.4	3.8	8.46e-01	0	44	104	3332374528	68	13335
2026-01-29 16:14:10.62	319.13	8.26	-49.5	-60.4	3.8	8.47e-01	0	44	104	3332374528	68	13278
2026-01-29 16:14:11.33	319.22	8.23	-49.5	-60.3	3.8	8.46e-01	0	44	104	3332374528	68	13248
2026-01-29 16:14:12.61	319.39	8.16	-49.5	-60.3	3.8	8.47e-01	0	44	104	3332374528	68	13235
2026-01-29 16:14:13.32	319.48	8.12	-49.5	-60.4	3.8	8.48e-01	0	44	104	3332374528	68	13275
2026-01-29 16:14:14.60	319.64	8.05	-49.5	-60.4	3.8	8.47e-01	0	44	104	3332374528	68	13280
2026-01-29 16:14:15.31	319.73	8.02	-49.5	-60.3	3.8	8.46e-01	0	44	104	3332374528	68	13258
2026-01-29 16:14:16.58	319.89	7.95	-49.5	-60.3	3.8	8.47e-01	0	44	104	3332374528	68	13231
2026-01-29 16:14:17.30	319.98	7.91	-49.5	-60.3	3.8	8.46e-01	0	44	104	3332374528	68	13243
2026-01-29 16:14:18.57	320.14	7.85	-49.5	-60.3	3.8	8.46e-01	0	44	104	3332374528	68	13244
2026-01-29 16:14:19.28	320.22	7.81	-49.5	-60.3	3.8	8.47e-01	0	44	104	3332374528	68	13256
2026-01-29 16:14:20.56	320.38	7.74	-49.5	-60.3	3.8	8.46e-01	0	44	104	3332374528	68	13220
2026-01-29 16:14:21.27	320.47	7.70	-49.5	-60.3	3.8	8.47e-01	0	44	104	3332374528	68	13215
2026-01-29 16:14:22.55	320.63	7.64	-49.5	-60.4	3.8	8.46e-01	0	44	104	3332374528	68	13301
2026-01-29 16:14:23.26	320.71	7.60	-49.5	-60.3	3.8	8.47e-01	0	44	104	3332374528	68	13235
2026-01-29 16:14:24.55	320.87	7.53	-49.5	-60.4	3.8	8.46e-01	0	44	104	3332374528	68	13314
2026-01-29 16:14:25.26	320.96	7.49	-49.5	-60.4	3.8	8.47e-01	0	44	104	3332374528	68	13270
2026-01-29 16:14:26.54	321.11	7.42	-49.5	-60.3	3.8	8.47e-01	0	44	104	3332374528	68	13247
2026-01-29 16:14:27.25	321.20	7.39	-49.5	-60.3	3.8	8.46e-01	0	44	104	3332374528	68	13254
2026-01-29 16:14:28.52	321.35	7.32	-49.5	-60.4	3.8	8.46e-01	0	44	104	3332374528	68	13271
2026-01-29 16:14:29.23	321.44	7.28	-49.5	-60.3	3.8	8.46e-01	0	44	104	3332374528	68	13179
2026-01-29 16:14:30.51	321.59	7.22	-49.5	-60.3	3.8	8.47e-01	0	44	104	3332374528	68	13197
2026-01-29 16:14:31.22	321.67	7.18	-49.5	-60.3	3.8	8.47e-01	0	44	104	3332374528	68	13194
2026-01-29 16:14:32.50	321.83	7.11	-49.5	-60.4	3.8	8.46e-01	0	44	104	3332374528	68	13285
2026-01-29 16:14:33.21	321.91	7.07	-49.5	-60.3	3.8	8.46e-01	0	44	104	3332374528	68	13249
2026-01-29 16:14:34.49	322.06	7.01	-49.5	-60.3	3.8	8.47e-01	0	44	104	3332374528	68	13225
2026-01-29 16:14:35.20	322.15	6.97	-49.5	-60.4	3.8	8.47e-01	0	44	104	3332374528	68	13264
2026-01-29 16:14:36.47	322.29	6.90	-49.5	-60.3	3.8	8.47e-01	0	44	104	3332374528	68	13141
2026-01-29 16:14:37.18	322.38	6.86	-49.5	-60.3	3.8	8.47e-01	0	44	104	3332374528	68	13220
2026-01-29 16:14:38.46	322.53	6.80	-49.5	-60.3	3.8	8.47e-01	0	44	104	3332374528	68	13249
2026-01-29 16:14:39.18	322.61	6.76	-49.5	-60.3	3.8	8.47e-01	0	44	104	3332374528	68	13227
2026-01-29 16:14:40.46	322.76	6.69	-49.5	-60.4	3.8	8.47e-01	0	44	104	3332374528	68	13306
2026-01-29 16:14:41.17	322.84	6.65	-49.5	-60.4	3.8	8.46e-01	0	44	104	3332374528	68	13267
2026-01-29 16:14:42.45	322.99	6.59	-49.5	-60.3	3.8	8.47e-01	0	44	104	3332374528	68	13191
2026-01-29 16:14:43.16	323.07	6.55	-49.5	-60.4	3.8	8.47e-01	0	44	104	3332374528	68	13335
2026-01-29 16:14:44.43	323.21	6.48	-49.5	-60.3	3.8	8.47e-01	0	44	104	3332374528	68	13215
2026-01-29 16:14:45.14	323.29	6.45	-49.5	-60.3	3.8	8.46e-01	0	44	104	3332374528	68	13252
2026-01-29 16:14:46.42	323.44	6.38	-49.5	-60.3	3.8	8.46e-01	0	44	104	3332374528	68	13188
2026-01-29 16:14:47.13	323.52	6.34	-49.5	-60.3	3.8	8.47e-01	0	44	104	3332374528	68	13174
2026-01-29 16:14:48.41	323.66	6.27	-49.5	-60.4	3.8	8.48e-01	0	44	104	3332374528	68	13345
2026-01-29 16:14:49.12	323.74	6.24	-49.5	-60.3	3.8	8.46e-01	0	44	104	3332374528	68	13199
2026-01-29 16:14:50.39	323.88	6.17	-49.5	-60.4	3.8	8.47e-01	0	44	104	3332374528	68	13271
2026-01-29 16:14:51.10	323.96	6.13	-49.5	-60.3	3.8	8.47e-01	0	44	104	3332374528	68	13230
2026-01-29 16:14:52.38	324.10	6.07	-49.5	-60.4	3.8	8.45e-01	0	44	104	3332374528	68	13311
2026-01-29 16:14:53.09	324.18	6.03	-49.5	-60.3	3.8	8.47e-01	0	44	104	3332374528	68	13257
2026-01-29 16:14:54.37	324.32	5.96	-49.5	-60.3	3.8	8.47e-01	0	44	104	3332374528	68	13203
2026-01-29 16:14:55.08	324.40	5.92	-49.5	-60.3	3.8	8.48e-01	0	44	104	3332374528	68	13231
2026-01-29 16:14:56.35	324.54	5.86	-49.5	-60.4	3.8	8.46e-01	0	44	104	3332374528	68	13269
2026-01-29 16:14:57.06	324.62	5.82	-49.5	-60.3	3.8	8.47e-01	0	44	104	3332374528	68	13236
2026-01-29 16:14:58.34	324.76	5.75	-49.5	-60.3	3.8	8.47e-01	0	44	104	3332374528	68	13180
2026-01-29 16:14:59.07	324.84	5.71	-49.5	-60.4	3.8	8.46e-01	0	44	104	3332374528	68	13301
2026-01-29 16:15:00.34	324.97	5.65	-49.5	-60.3	3.8	8.46e-01	0	44	104	3332374528	68	13219
2026-01-29 16:15:01.05	325.05	5.61	-49.5	-60.3	3.8	8.46e-01	0	44	104	3332374528	68	13259
2026-01-29 16:15:02.33	325.19	5.54	-49.5	-60.3	3.8	8.47e-01	0	44	104	3332374528	68	13233
2026-01-29 16:15:03.05	325.26	5.51	-49.5	-60.3	3.8	8.46e-01	0	44	104	3332374528	68	13248
2026-01-29 16:15:04.33	325.40	5.44	-49.5	-60.3	3.8	8.46e-01	0	44	104	3332374528	68	13226
2026-01-29 16:15:05.06	325.48	5.40	-49.5	-60.3	3.8	8.47e-01	0	44	104	3332374528	68	13226
2026-01-29 16:15:06.33	325.61	5.34	-49.5	-60.3	3.8	8.47e-01	0	44	104	3332374528	68	13166
2026-01-29 16:15:07.04	325.69	5.30	-49.5	-60.4	3.8	8.47e-01	0	44	104	3332374528	68	13292
2026-01-29 16:15:08.32	325.82	5.23	-49.5	-60.4	3.8	8.47e-01	0	44	104	3332374528	68	13293
2026-01-29 16:15:09.04	325.90	5.19	-49.5	-60.4	3.8	8.47e-01	0	44	104	3332374528	68	13288
2026-01-29 16:15:10.32	326.03	5.13	-49.5	-60.4	3.8	8.47e-01	0	44	104	3332374528	68	13273
2026-01-29 16:15:11.05	326.10	5.09	-49.5	-60.3	3.8	8.47e-01	0	44	104	3332374528	68	13218
2026-01-29 16:15:12.32	326.24	5.02	-49.5	-60.3	3.8	8.46e-01	0	44	104	3332374528	68	13198
2026-01-29 16:15:13.08	326.31	4.98	-49.5	-60.4	3.8	8.45e-01	0	44	104	3332374528	68	13330

#Closed at: 2026-01-29 16:15:14
#Recorded file [3332 MB]: D:/Data/31040_260129_190513.dat