passes_logs/2026/01/29/T1/T1__20260129_080442_KHAYYAM_rec.log

#Pass ID: 20260129_080442_KHAYYAM
#Satellite: KHAYYAM
#Configuration: KHAYYAM_480M
#almurnet v.1.7.20251203
#Start time: 2026-01-29 08:04:42

#Version: 2.0.20230620
#Station: T1
#Location: 37.570604 lon 55.790049 lat
#TLE: 1 53370U 22096A   26027.95146228  .00008464  00000+0  34400-3 0  9996
#TLE: 2 53370  97.3551 294.7289 0002128 106.8144 253.3328 15.24796926193211

#Time	Az	El	Level	Level2	SNR	BER	BlckErr	Temp	State	Recorded	gain1	gain2
2026-01-29 08:04:42.35	172.38	4.95	-52.5	-57.4	3.6	0.00e+00	0	45	0	0	77	23985
2026-01-29 08:04:43.34	172.40	5.03	-53.0	-57.7	3.7	0.00e+00	0	46	104	0	77	24863
2026-01-29 08:04:44.34	172.43	5.11	-53.4	-58.0	3.7	0.00e+00	0	45	104	0	77	25705
2026-01-29 08:04:45.34	172.45	5.20	-53.0	-57.7	3.7	0.00e+00	0	46	104	0	77	25017
2026-01-29 08:04:46.33	172.48	5.28	-53.4	-57.9	3.7	0.00e+00	0	46	104	0	77	25482
2026-01-29 08:04:47.33	172.50	5.36	-53.1	-57.7	3.7	0.00e+00	0	46	104	0	77	24970
2026-01-29 08:04:48.32	172.53	5.44	-53.0	-57.6	3.7	0.00e+00	0	46	104	0	77	24746
2026-01-29 08:04:49.32	172.56	5.52	-53.1	-57.8	3.7	0.00e+00	0	46	104	0	76	26632
2026-01-29 08:04:50.32	172.58	5.61	-53.1	-57.7	3.7	0.00e+00	0	46	104	0	76	26580
2026-01-29 08:04:51.31	172.61	5.69	-53.1	-57.8	3.7	0.00e+00	0	46	104	0	77	25309
2026-01-29 08:04:52.31	172.64	5.78	-53.3	-57.9	3.7	0.00e+00	0	46	104	0	77	25531
2026-01-29 08:04:53.31	172.66	5.86	-53.5	-58.0	3.7	0.00e+00	0	46	104	0	77	25710
2026-01-29 08:04:54.30	172.69	5.94	-53.4	-58.0	3.7	0.00e+00	0	46	104	0	77	25715
2026-01-29 08:04:55.30	172.72	6.03	-53.3	-57.8	3.7	0.00e+00	0	46	104	0	77	25352
2026-01-29 08:04:56.29	172.74	6.11	-53.0	-57.6	3.7	0.00e+00	0	46	104	0	77	24750
2026-01-29 08:04:57.29	172.77	6.20	-53.2	-57.8	3.7	0.00e+00	0	47	104	0	77	25210
2026-01-29 08:04:58.29	172.80	6.29	-53.2	-57.7	3.7	0.00e+00	0	47	104	0	77	25003
2026-01-29 08:04:59.29	172.83	6.37	-53.3	-57.8	3.7	0.00e+00	0	47	104	0	77	25193
2026-01-29 08:05:00.28	172.86	6.46	-53.0	-57.6	3.7	0.00e+00	0	47	104	0	77	24806
2026-01-29 08:05:01.28	172.88	6.55	-52.7	-57.4	3.7	0.00e+00	0	47	104	0	77	24044
2026-01-29 08:05:02.28	172.91	6.64	-53.2	-57.6	3.7	0.00e+00	0	47	104	0	77	24797
2026-01-29 08:05:03.27	172.94	6.72	-52.7	-57.5	3.7	0.00e+00	0	47	104	0	77	24283
2026-01-29 08:05:04.27	172.97	6.81	-52.0	-56.9	3.7	0.00e+00	0	47	104	0	76	24056
2026-01-29 08:05:05.27	173.00	6.90	-52.5	-57.0	3.7	0.00e+00	0	47	104	0	76	24504
2026-01-29 08:05:06.27	173.03	6.99	-51.3	-56.1	3.7	0.00e+00	0	47	104	0	74	24790
2026-01-29 08:05:07.26	173.06	7.08	-51.9	-56.7	3.7	0.00e+00	0	47	104	0	75	24904
2026-01-29 08:05:08.26	173.09	7.17	-47.9	-53.1	3.7	0.00e+00	0	47	104	0	67	26147
2026-01-29 08:05:09.26	173.12	7.26	-45.8	-51.0	3.7	0.00e+00	0	48	104	0	63	25975
2026-01-29 08:05:10.25	173.15	7.35	-46.2	-51.5	3.7	0.00e+00	0	48	104	0	63	27371
2026-01-29 08:05:11.25	173.18	7.45	-46.3	-51.6	3.7	0.00e+00	0	48	104	0	63	27763
2026-01-29 08:05:12.25	173.21	7.54	-46.4	-51.7	3.7	0.00e+00	0	48	104	0	63	27859
2026-01-29 08:05:13.25	173.24	7.63	-46.3	-51.4	3.7	0.00e+00	0	47	104	0	63	27192
2026-01-29 08:05:14.24	173.27	7.72	-46.5	-51.6	3.7	0.00e+00	0	48	104	0	63	27752
2026-01-29 08:05:15.24	173.31	7.82	-46.2	-51.4	3.7	0.00e+00	0	48	104	0	63	27087
2026-01-29 08:05:16.24	173.34	7.91	-46.4	-51.6	3.7	0.00e+00	0	48	104	0	63	27694
2026-01-29 08:05:17.24	173.37	8.01	-46.3	-51.5	3.7	0.00e+00	0	48	104	0	63	27366
2026-01-29 08:05:18.23	173.40	8.10	-46.4	-51.6	3.7	0.00e+00	0	48	104	0	63	27614
2026-01-29 08:05:19.23	173.43	8.20	-46.4	-51.6	3.7	0.00e+00	0	48	104	0	63	27702
2026-01-29 08:05:20.23	173.47	8.29	-46.5	-51.6	3.7	0.00e+00	0	48	104	0	63	27622
2026-01-29 08:05:21.22	173.50	8.39	-46.5	-51.7	3.7	0.00e+00	0	48	104	0	63	27843
2026-01-29 08:05:22.22	173.53	8.48	-46.6	-51.7	3.7	0.00e+00	0	48	104	0	63	28055
2026-01-29 08:05:23.22	173.57	8.58	-46.4	-51.6	3.7	0.00e+00	0	48	104	0	64	26018
2026-01-29 08:05:24.22	173.60	8.68	-46.3	-51.5	3.7	0.00e+00	0	48	104	0	64	25906
2026-01-29 08:05:25.21	173.63	8.78	-46.3	-51.5	3.7	0.00e+00	0	48	104	0	64	25964
2026-01-29 08:05:26.21	173.67	8.88	-46.1	-51.3	3.7	0.00e+00	0	48	104	0	64	25273
2026-01-29 08:05:27.21	173.70	8.98	-46.3	-51.5	3.7	0.00e+00	0	48	104	0	64	25871
2026-01-29 08:05:28.20	173.74	9.08	-46.4	-51.5	3.7	0.00e+00	0	48	104	0	64	25874
2026-01-29 08:05:29.20	173.77	9.18	-46.0	-51.3	3.7	0.00e+00	0	48	104	0	63	26695
2026-01-29 08:05:30.20	173.81	9.28	-46.6	-51.8	3.7	0.00e+00	0	48	104	0	64	26836
2026-01-29 08:05:31.20	173.84	9.38	-46.0	-51.2	3.7	0.00e+00	0	49	104	0	63	26508
2026-01-29 08:05:32.21	173.88	9.48	-46.8	-51.9	3.7	0.00e+00	0	48	104	0	65	25586
2026-01-29 08:05:33.21	173.91	9.59	-45.9	-51.1	3.7	0.00e+00	0	48	104	0	63	26148
2026-01-29 08:05:34.21	173.95	9.69	-45.9	-51.1	3.7	0.00e+00	0	49	104	0	63	26049
2026-01-29 08:05:35.21	173.99	9.79	-46.0	-51.2	3.7	0.00e+00	0	49	104	0	63	26484
2026-01-29 08:05:36.21	174.02	9.90	-46.0	-51.2	3.7	0.00e+00	0	49	104	0	63	26320
2026-01-29 08:05:37.21	174.06	10.00	-46.0	-51.2	3.7	0.00e+00	0	49	104	0	63	26416
2026-01-29 08:05:38.21	174.10	10.11	-46.6	-51.7	3.7	0.00e+00	0	49	104	0	63	27998
2026-01-29 08:05:39.22	174.14	10.22	-46.6	-51.8	3.7	0.00e+00	0	49	104	0	63	28342
2026-01-29 08:05:40.21	174.18	10.32	-48.3	-53.5	3.7	0.00e+00	0	49	104	0	67	27238
2026-01-29 08:05:41.22	174.22	10.43	-46.4	-51.5	3.7	0.00e+00	0	49	104	0	64	25927
2026-01-29 08:05:42.22	174.25	10.54	-47.5	-52.7	3.7	0.00e+00	0	49	104	0	65	27900
2026-01-29 08:05:43.22	174.29	10.65	-46.5	-51.6	3.7	0.00e+00	0	49	104	0	64	26184
2026-01-29 08:05:44.22	174.33	10.76	-47.0	-52.1	3.7	0.00e+00	0	49	104	0	64	27788
2026-01-29 08:05:45.22	174.37	10.87	-47.4	-52.7	3.7	0.00e+00	0	49	104	0	65	27996
2026-01-29 08:05:46.22	174.41	10.98	-48.3	-53.5	3.7	0.00e+00	0	49	104	0	67	27379
2026-01-29 08:05:47.23	174.45	11.09	-48.5	-53.7	3.7	0.00e+00	0	49	104	0	67	27908
2026-01-29 08:05:48.23	174.50	11.21	-48.6	-53.7	3.7	0.00e+00	0	49	104	0	67	27896
2026-01-29 08:05:49.22	174.54	11.32	-48.1	-53.3	3.7	0.00e+00	0	49	104	0	67	26609
2026-01-29 08:05:50.23	174.58	11.43	-47.6	-52.8	3.7	0.00e+00	0	49	104	0	67	25220
2026-01-29 08:05:51.23	174.62	11.55	-47.9	-53.0	3.7	0.00e+00	0	49	104	0	67	25963
2026-01-29 08:05:52.23	174.66	11.66	-47.7	-52.8	3.7	0.00e+00	0	49	104	0	67	25293
2026-01-29 08:05:53.23	174.71	11.78	-47.6	-52.9	3.7	0.00e+00	0	49	104	0	67	25525
2026-01-29 08:05:54.23	174.75	11.89	-47.7	-52.9	3.7	0.00e+00	0	49	104	0	67	25628
2026-01-29 08:05:55.23	174.79	12.01	-47.9	-53.0	3.7	0.00e+00	0	49	104	0	67	25942
2026-01-29 08:05:56.23	174.84	12.13	-50.9	-55.7	3.7	0.00e+00	0	50	104	0	72	26415
2026-01-29 08:05:57.23	174.88	12.25	-47.6	-52.8	3.7	0.00e+00	0	49	104	0	67	25195
2026-01-29 08:05:58.23	174.93	12.37	-47.7	-52.9	3.7	0.00e+00	0	49	104	0	67	25629
2026-01-29 08:05:59.23	174.97	12.49	-49.1	-54.2	3.7	0.00e+00	0	49	104	0	69	26438
2026-01-29 08:06:00.23	175.02	12.61	-47.4	-52.7	3.7	0.00e+00	0	50	104	0	66	26317
2026-01-29 08:06:01.22	175.06	12.73	-47.5	-52.7	3.7	0.00e+00	0	49	104	0	66	26536
2026-01-29 08:06:02.22	175.11	12.85	-47.6	-52.9	3.7	0.00e+00	0	50	104	0	66	26925
2026-01-29 08:06:03.23	175.16	12.98	-47.9	-53.1	3.7	0.00e+00	0	49	104	0	66	27799
2026-01-29 08:06:04.22	175.20	13.10	-48.3	-53.4	3.7	0.00e+00	0	49	104	0	67	27119
2026-01-29 08:06:05.23	175.25	13.23	-49.1	-54.1	3.7	0.00e+00	0	49	104	0	68	27731
2026-01-29 08:06:06.23	175.30	13.35	-50.1	-55.0	3.7	0.00e+00	0	50	104	0	70	27388
2026-01-29 08:06:07.23	175.35	13.48	-51.9	-56.5	3.7	0.00e+00	0	49	104	0	74	25969
2026-01-29 08:06:08.23	175.40	13.61	-50.2	-55.2	3.7	0.00e+00	0	49	104	0	71	26317
2026-01-29 08:06:09.23	175.45	13.74	-51.3	-56.1	3.7	0.00e+00	0	49	104	0	73	26087
2026-01-29 08:06:10.23	175.50	13.87	-51.2	-55.9	3.7	0.00e+00	0	49	104	0	73	25673
2026-01-29 08:06:11.23	175.55	14.00	-51.3	-56.1	3.7	0.00e+00	0	50	104	0	73	26132
2026-01-29 08:06:12.23	175.60	14.13	-51.6	-56.3	3.7	0.00e+00	0	49	104	0	73	26685
2026-01-29 08:06:13.23	175.65	14.26	-51.6	-56.3	3.7	0.00e+00	0	50	104	0	73	26873
2026-01-29 08:06:14.23	175.71	14.39	-52.3	-56.9	3.7	0.00e+00	0	49	104	0	75	25425
2026-01-29 08:06:15.23	175.76	14.53	-52.1	-56.8	3.7	0.00e+00	0	49	104	0	75	25120
2026-01-29 08:06:16.23	175.81	14.66	-51.2	-56.2	3.7	0.00e+00	0	50	104	0	74	24818
2026-01-29 08:06:17.23	175.87	14.80	-50.6	-55.6	3.7	0.00e+00	0	50	104	0	73	24641
2026-01-29 08:06:18.23	175.92	14.94	-51.3	-56.3	3.7	0.00e+00	0	50	104	0	73	26656
2026-01-29 08:06:19.23	175.97	15.07	-50.7	-55.7	3.7	0.00e+00	0	50	104	0	73	24853
2026-01-29 08:06:20.23	176.03	15.21	-50.7	-55.7	3.7	0.00e+00	0	50	104	0	73	24908
2026-01-29 08:06:21.23	176.09	15.35	-50.7	-55.7	3.7	0.00e+00	0	50	104	0	73	25075
2026-01-29 08:06:22.23	176.14	15.50	-50.8	-55.8	3.7	0.00e+00	0	50	104	0	73	25228
2026-01-29 08:06:23.23	176.20	15.64	-51.2	-55.8	3.7	0.00e+00	0	50	104	0	73	25328
2026-01-29 08:06:24.24	176.26	15.78	-51.1	-56.1	3.7	0.00e+00	0	50	104	0	73	25992
2026-01-29 08:06:25.24	176.32	15.93	-50.7	-55.7	3.7	0.00e+00	0	49	104	0	73	24907
2026-01-29 08:06:26.24	176.38	16.07	-51.0	-56.0	3.7	0.00e+00	0	50	104	0	73	25967
2026-01-29 08:06:27.24	176.44	16.22	-51.0	-56.1	3.7	0.00e+00	0	50	104	0	73	25999
2026-01-29 08:06:28.24	176.50	16.37	-51.1	-56.0	3.7	0.00e+00	0	50	104	0	73	25880
2026-01-29 08:06:29.24	176.56	16.52	-51.1	-56.1	3.7	0.00e+00	0	50	104	0	73	26251
2026-01-29 08:06:30.24	176.62	16.67	-51.1	-56.0	3.7	0.00e+00	0	50	104	0	73	25863
2026-01-29 08:06:31.24	176.68	16.82	-51.4	-56.4	3.7	0.00e+00	0	50	104	0	73	26927
2026-01-29 08:06:32.24	176.75	16.97	-51.2	-56.1	3.7	0.00e+00	0	50	104	0	73	26036
2026-01-29 08:06:33.24	176.81	17.12	-51.2	-56.1	3.7	0.00e+00	0	50	104	0	73	26112
2026-01-29 08:06:34.24	176.88	17.28	-51.1	-56.1	3.7	0.00e+00	0	50	104	0	73	26215
2026-01-29 08:06:35.24	176.94	17.44	-51.6	-56.4	3.7	0.00e+00	0	50	104	0	73	27177
2026-01-29 08:06:36.25	177.01	17.59	-51.8	-56.3	3.7	0.00e+00	0	50	104	0	74	25340
2026-01-29 08:06:37.25	177.08	17.75	-51.3	-56.3	3.7	0.00e+00	0	50	104	0	74	25335
2026-01-29 08:06:38.25	177.14	17.91	-51.7	-56.4	3.7	0.00e+00	0	50	104	0	74	25420
2026-01-29 08:06:39.25	177.21	18.07	-52.0	-56.7	3.7	0.00e+00	0	50	104	0	74	26289
2026-01-29 08:06:40.25	177.28	18.24	-51.6	-56.2	3.7	0.00e+00	0	50	104	0	74	24844
2026-01-29 08:06:41.25	177.35	18.40	-51.9	-56.5	3.7	0.00e+00	0	50	104	0	74	25930
2026-01-29 08:06:42.26	177.42	18.57	-51.7	-56.3	3.7	0.00e+00	0	50	104	0	74	25100
2026-01-29 08:06:43.26	177.50	18.74	-51.9	-56.1	3.7	0.00e+00	0	50	104	0	74	24528
2026-01-29 08:06:44.26	177.57	18.90	-52.0	-56.2	3.7	0.00e+00	0	50	104	0	74	25094
2026-01-29 08:06:45.26	177.64	19.07	-52.0	-56.3	3.7	0.00e+00	0	50	104	0	74	25174
2026-01-29 08:06:46.26	177.72	19.25	-52.0	-56.0	3.7	0.00e+00	0	50	104	0	74	24364
2026-01-29 08:06:47.26	177.79	19.42	-52.1	-56.1	3.7	0.00e+00	0	50	104	0	74	24628
2026-01-29 08:06:48.26	177.87	19.59	-52.3	-56.6	3.7	0.00e+00	0	50	104	0	75	24645
2026-01-29 08:06:49.26	177.95	19.77	-52.3	-56.6	3.7	0.00e+00	0	50	104	0	75	24673
2026-01-29 08:06:50.26	178.03	19.95	-52.4	-56.9	3.7	0.00e+00	0	50	104	0	75	25605
2026-01-29 08:06:51.27	178.11	20.13	-52.3	-56.7	3.6	0.00e+00	0	50	104	0	75	24832
2026-01-29 08:06:52.27	178.19	20.31	-52.1	-55.8	3.7	0.00e+00	0	50	104	0	75	22586
2026-01-29 08:06:53.27	178.27	20.49	-51.9	-55.6	3.7	0.00e+00	0	50	104	0	75	22039
2026-01-29 08:06:54.27	178.35	20.67	-51.2	-54.7	3.7	0.00e+00	0	50	104	0	74	20954
2026-01-29 08:06:55.27	178.44	20.86	-51.0	-54.5	3.7	0.00e+00	0	50	104	0	74	20426
2026-01-29 08:06:56.27	178.52	21.05	-50.4	-53.6	3.7	0.00e+00	0	50	104	0	72	20658
2026-01-29 08:06:57.27	178.61	21.23	-50.1	-52.9	3.8	0.00e+00	0	50	104	0	71	20301
2026-01-29 08:06:58.27	178.70	21.42	-51.7	-56.1	3.7	0.00e+00	0	50	104	0	74	24585
2026-01-29 08:06:59.27	178.78	21.62	-52.3	-56.9	3.7	0.00e+00	0	50	104	0	75	25650
2026-01-29 08:07:00.27	178.87	21.81	-51.9	-56.2	3.7	0.00e+00	0	50	104	0	75	23515
2026-01-29 08:07:01.27	178.97	22.01	-51.4	-55.3	3.7	0.00e+00	0	50	104	0	74	22550
2026-01-29 08:07:02.27	179.06	22.21	-51.2	-54.9	3.7	0.00e+00	0	50	104	0	74	21550
2026-01-29 08:07:03.27	179.15	22.41	-51.0	-54.6	3.7	0.00e+00	0	50	104	0	74	20872
2026-01-29 08:07:04.27	179.25	22.61	-50.9	-54.2	3.7	0.00e+00	0	50	104	0	73	20941
2026-01-29 08:07:05.27	179.34	22.81	-50.4	-53.5	3.8	0.00e+00	0	50	104	0	72	20421
2026-01-29 08:07:06.27	179.44	23.02	-49.9	-52.9	3.8	0.00e+00	0	50	104	0	71	20246
2026-01-29 08:07:07.27	179.54	23.22	-52.0	-56.4	3.7	0.00e+00	0	50	104	0	74	25402
2026-01-29 08:07:08.27	179.64	23.43	-52.1	-56.8	3.7	0.00e+00	0	50	104	0	75	25315
2026-01-29 08:07:09.28	179.74	23.65	-51.7	-56.3	3.7	0.00e+00	0	50	104	0	75	23962
2026-01-29 08:07:10.28	179.85	23.86	-51.8	-55.8	3.7	0.00e+00	0	50	104	0	75	22611
2026-01-29 08:07:11.28	179.95	24.08	-51.8	-55.7	3.7	0.00e+00	0	50	104	0	75	22166
2026-01-29 08:07:12.28	180.06	24.29	-51.9	-55.8	3.7	0.00e+00	0	50	104	0	75	22428
2026-01-29 08:07:13.28	180.17	24.51	-51.6	-55.3	3.7	0.00e+00	0	50	104	0	75	21214
2026-01-29 08:07:14.28	180.28	24.74	-51.8	-55.5	3.7	0.00e+00	0	50	104	0	75	21677
2026-01-29 08:07:15.29	180.39	24.96	-52.0	-55.9	3.7	0.00e+00	0	50	104	0	75	22751
2026-01-29 08:07:16.29	180.50	25.19	-52.6	-57.2	3.7	0.00e+00	0	50	104	0	75	26507
2026-01-29 08:07:17.29	180.62	25.42	-52.5	-57.1	3.7	0.00e+00	0	50	104	0	75	26000
2026-01-29 08:07:18.29	180.73	25.65	-52.5	-57.0	3.7	0.00e+00	0	50	104	0	75	25902
2026-01-29 08:07:19.29	180.85	25.88	-52.7	-57.3	3.7	0.00e+00	0	50	104	0	76	25184
2026-01-29 08:07:20.29	180.97	26.12	-52.6	-56.8	3.7	0.00e+00	0	50	104	0	76	23798
2026-01-29 08:07:21.29	181.10	26.36	-53.0	-57.4	3.7	0.00e+00	0	50	104	0	76	25525
2026-01-29 08:07:22.29	181.22	26.60	-53.1	-57.5	3.7	0.00e+00	0	50	104	0	76	25838
2026-01-29 08:07:23.29	181.35	26.84	-53.2	-57.7	3.7	0.00e+00	0	50	104	0	77	25088
2026-01-29 08:07:24.29	181.48	27.09	-53.2	-57.7	3.7	0.00e+00	0	50	104	0	77	25054
2026-01-29 08:07:25.29	181.61	27.34	-52.9	-57.6	3.7	0.00e+00	0	50	104	0	77	24566
2026-01-29 08:07:26.29	181.74	27.59	-53.2	-57.8	3.7	0.00e+00	0	50	104	0	77	25118
2026-01-29 08:07:27.29	181.88	27.84	-53.0	-57.6	3.7	0.00e+00	0	50	104	0	77	24720
2026-01-29 08:07:28.29	182.01	28.10	-53.1	-57.6	3.7	0.00e+00	0	50	104	0	77	24644
2026-01-29 08:07:29.29	182.15	28.36	-52.8	-57.5	3.7	0.00e+00	0	50	104	0	77	24278
2026-01-29 08:07:30.30	182.30	28.63	-53.0	-57.6	3.7	0.00e+00	0	50	104	0	77	24713
2026-01-29 08:07:31.30	182.44	28.89	-52.9	-57.5	3.7	0.00e+00	0	50	104	0	77	24352
2026-01-29 08:07:32.30	182.59	29.16	-52.7	-57.3	3.7	0.00e+00	0	50	104	0	77	23908
2026-01-29 08:07:33.30	182.74	29.43	-52.4	-57.1	3.7	0.00e+00	0	50	104	0	76	24743
2026-01-29 08:07:34.30	182.89	29.70	-52.5	-57.2	3.7	0.00e+00	0	50	104	0	76	24985
2026-01-29 08:07:35.30	183.05	29.98	-52.5	-57.2	3.7	0.00e+00	0	50	104	0	76	24910
2026-01-29 08:07:36.30	183.21	30.26	-52.8	-57.5	3.7	0.00e+00	0	50	104	0	76	25681
2026-01-29 08:07:37.30	183.37	30.54	-52.9	-57.5	3.7	0.00e+00	0	50	104	0	76	25927
2026-01-29 08:07:38.31	183.54	30.83	-52.8	-57.4	3.7	0.00e+00	0	50	104	0	76	25618
2026-01-29 08:07:39.31	183.70	31.12	-53.0	-57.5	3.7	0.00e+00	0	50	104	0	76	25930
2026-01-29 08:07:40.31	183.88	31.41	-53.0	-57.7	3.7	0.00e+00	0	50	104	0	76	26297
2026-01-29 08:07:41.31	184.05	31.71	-52.7	-57.5	3.7	0.00e+00	0	50	104	0	76	25726
2026-01-29 08:07:42.32	184.23	32.01	-52.9	-57.6	3.7	0.00e+00	0	50	104	0	76	26059
2026-01-29 08:07:43.32	184.41	32.31	-52.7	-57.5	3.7	0.00e+00	0	50	104	0	76	25706
2026-01-29 08:07:44.32	184.60	32.62	-52.9	-57.4	3.7	0.00e+00	0	50	104	0	76	25562
2026-01-29 08:07:45.32	184.79	32.93	-53.0	-57.5	3.7	0.00e+00	0	50	104	0	76	25871
2026-01-29 08:07:46.32	184.98	33.24	-52.9	-57.5	3.7	0.00e+00	0	50	104	0	76	25725
2026-01-29 08:07:47.32	185.17	33.56	-53.1	-57.6	3.7	0.00e+00	0	50	104	0	76	26189
2026-01-29 08:07:48.32	185.38	33.88	-53.1	-57.6	3.7	0.00e+00	0	50	104	0	76	26093
2026-01-29 08:07:49.32	185.58	34.20	-53.1	-57.5	3.7	0.00e+00	0	50	104	0	77	24385
2026-01-29 08:07:50.32	185.79	34.53	-53.1	-57.6	3.7	0.00e+00	0	50	104	0	77	24613
2026-01-29 08:07:51.33	186.00	34.86	-53.0	-57.5	3.7	0.00e+00	0	51	104	0	77	24390
2026-01-29 08:07:52.33	186.22	35.19	-53.1	-57.6	3.7	0.00e+00	0	50	104	0	77	24567
2026-01-29 08:07:53.32	186.44	35.53	-53.1	-57.5	3.7	0.00e+00	0	50	104	0	77	24287
2026-01-29 08:07:54.32	186.67	35.87	-53.0	-57.5	3.7	0.00e+00	0	50	104	0	77	24280
2026-01-29 08:07:55.32	186.90	36.21	-52.9	-57.4	3.7	0.00e+00	0	50	104	0	77	24052
2026-01-29 08:07:56.32	187.14	36.56	-52.8	-57.4	3.7	0.00e+00	0	50	104	0	77	24079
2026-01-29 08:07:57.32	187.39	36.91	-52.9	-57.4	3.7	0.00e+00	0	50	104	0	77	24194
2026-01-29 08:07:58.32	187.64	37.27	-52.9	-57.4	3.7	0.00e+00	0	50	104	0	77	24201
2026-01-29 08:07:59.32	187.89	37.63	-52.7	-57.4	3.7	0.00e+00	0	50	104	0	77	24166
2026-01-29 08:08:00.32	188.15	38.00	-52.9	-57.5	3.7	0.00e+00	0	50	104	0	77	24467
2026-01-29 08:08:01.32	188.42	38.36	-53.2	-57.6	3.7	0.00e+00	0	50	104	0	77	24732
2026-01-29 08:08:02.32	188.69	38.74	-53.1	-57.6	3.7	0.00e+00	0	50	104	0	77	24720
2026-01-29 08:08:03.32	188.97	39.11	-53.2	-57.6	3.7	0.00e+00	0	50	104	0	77	24660
2026-01-29 08:08:04.32	189.26	39.49	-53.3	-57.7	3.7	0.00e+00	0	50	104	0	77	25001
2026-01-29 08:08:05.32	189.55	39.88	-53.3	-57.8	3.7	0.00e+00	0	50	104	0	77	25265
2026-01-29 08:08:06.32	189.85	40.27	-53.3	-57.8	3.7	0.00e+00	0	50	104	0	77	25177
2026-01-29 08:08:07.32	190.16	40.66	-53.2	-57.7	3.7	0.00e+00	0	50	104	0	77	25088
2026-01-29 08:08:08.32	190.48	41.06	-52.9	-57.5	3.7	0.00e+00	0	50	104	0	77	24400
2026-01-29 08:08:09.32	190.80	41.46	-53.0	-57.5	3.7	0.00e+00	0	50	104	0	77	24452
2026-01-29 08:08:10.32	191.14	41.86	-52.9	-57.5	3.7	0.00e+00	0	50	104	0	77	24262
2026-01-29 08:08:11.32	191.48	42.27	-53.1	-57.6	3.7	0.00e+00	0	50	104	0	77	24784
2026-01-29 08:08:12.32	191.83	42.68	-53.2	-57.7	3.7	0.00e+00	0	50	104	0	77	24823
2026-01-29 08:08:13.32	192.19	43.10	-53.0	-57.6	3.7	0.00e+00	0	50	104	0	77	24619
2026-01-29 08:08:14.33	192.56	43.52	-53.0	-57.6	3.7	0.00e+00	0	50	104	0	77	24663
2026-01-29 08:08:15.33	192.94	43.95	-53.2	-57.7	3.7	0.00e+00	0	50	104	0	77	24982
2026-01-29 08:08:16.33	193.33	44.38	-53.3	-57.9	3.7	0.00e+00	0	50	104	0	77	25452
2026-01-29 08:08:17.33	193.74	44.81	-53.4	-57.9	3.7	0.00e+00	0	50	104	0	77	25393
2026-01-29 08:08:18.33	194.15	45.25	-53.4	-57.8	3.7	0.00e+00	0	50	104	0	77	25337
2026-01-29 08:08:19.33	194.58	45.69	-53.0	-57.6	3.7	0.00e+00	0	50	104	0	77	24745
2026-01-29 08:08:20.33	195.01	46.13	-52.9	-57.6	3.7	0.00e+00	0	50	104	0	77	24693
2026-01-29 08:08:21.33	195.46	46.58	-52.9	-57.6	3.7	0.00e+00	0	50	104	0	77	24719
2026-01-29 08:08:22.33	195.93	47.03	-52.8	-57.6	3.7	0.00e+00	0	50	104	0	77	24671
2026-01-29 08:08:23.33	196.41	47.48	-53.3	-57.9	3.7	0.00e+00	0	50	104	0	77	25386
2026-01-29 08:08:24.33	196.90	47.94	-53.4	-57.9	3.7	0.00e+00	0	50	104	0	77	25424
2026-01-29 08:08:25.33	197.41	48.40	-53.3	-57.8	3.7	0.00e+00	0	50	104	0	77	25332
2026-01-29 08:08:26.33	197.93	48.87	-53.3	-57.8	3.7	0.00e+00	0	50	104	0	77	25258
2026-01-29 08:08:27.33	198.47	49.34	-53.4	-57.9	3.7	0.00e+00	0	50	104	0	77	25647
2026-01-29 08:08:28.33	199.03	49.81	-52.9	-57.7	3.7	0.00e+00	0	50	104	0	77	24929
2026-01-29 08:08:29.33	199.60	50.28	-52.5	-57.4	3.7	0.00e+00	0	50	104	0	76	25552
2026-01-29 08:08:30.33	200.20	50.75	-52.4	-57.4	3.7	0.00e+00	0	50	104	0	76	25496
2026-01-29 08:08:31.33	200.81	51.23	-52.9	-57.6	3.7	0.00e+00	0	50	104	0	76	26259
2026-01-29 08:08:32.33	201.44	51.71	-53.3	-57.8	3.7	0.00e+00	0	50	104	0	77	25299
2026-01-29 08:08:33.33	202.10	52.19	-53.3	-57.8	3.7	0.00e+00	0	50	104	0	77	25344
2026-01-29 08:08:34.34	202.78	52.68	-53.3	-57.8	3.7	0.00e+00	0	50	104	0	77	25204
2026-01-29 08:08:35.34	203.48	53.16	-53.4	-57.8	3.7	0.00e+00	0	50	104	0	77	25339
2026-01-29 08:08:36.34	204.20	53.64	-53.4	-58.0	3.7	0.00e+00	0	50	104	0	77	25714
2026-01-29 08:08:37.34	204.95	54.13	-53.5	-58.0	3.7	0.00e+00	0	50	104	0	77	25744
2026-01-29 08:08:38.34	205.72	54.61	-53.5	-58.0	3.7	0.00e+00	0	50	104	0	77	25708
2026-01-29 08:08:39.34	206.53	55.10	-53.1	-57.8	3.7	0.00e+00	0	50	104	0	77	25305
2026-01-29 08:08:40.34	207.35	55.58	-53.0	-57.8	3.7	0.00e+00	0	50	104	0	77	25297
2026-01-29 08:08:41.34	208.21	56.06	-53.3	-57.9	3.7	0.00e+00	0	50	104	0	77	25599
2026-01-29 08:08:42.34	209.10	56.54	-53.3	-57.9	3.7	0.00e+00	0	50	104	0	77	25561
2026-01-29 08:08:43.34	210.02	57.02	-53.5	-58.0	3.7	0.00e+00	0	50	104	0	77	25796
2026-01-29 08:08:44.35	210.99	57.50	-53.2	-57.8	3.7	0.00e+00	0	50	104	0	77	25135
2026-01-29 08:08:45.35	211.98	57.97	-53.2	-57.7	3.7	0.00e+00	0	50	104	0	77	25079
2026-01-29 08:08:46.35	213.00	58.44	-53.2	-57.7	3.7	0.00e+00	0	51	104	0	77	25087
2026-01-29 08:08:47.35	214.06	58.91	-53.0	-57.7	3.7	0.00e+00	0	50	104	0	77	24948
2026-01-29 08:08:48.35	215.16	59.36	-52.8	-57.6	3.7	0.00e+00	0	50	104	0	77	24639
2026-01-29 08:08:49.35	216.30	59.82	-52.4	-57.4	3.7	0.00e+00	0	50	104	0	76	25410
2026-01-29 08:08:50.35	217.48	60.26	-52.4	-57.4	3.7	0.00e+00	0	50	104	0	76	25548
2026-01-29 08:08:51.36	218.71	60.70	-53.4	-57.8	3.7	0.00e+00	0	50	104	0	77	25175
2026-01-29 08:08:52.36	219.98	61.13	-53.4	-58.0	3.7	0.00e+00	0	50	104	0	77	25703
2026-01-29 08:08:53.35	221.27	61.55	-53.5	-58.0	3.7	0.00e+00	0	50	104	0	77	25733
2026-01-29 08:08:54.36	222.64	61.96	-53.5	-58.0	3.7	0.00e+00	0	50	104	0	77	25802
2026-01-29 08:08:55.35	224.02	62.36	-53.3	-57.9	3.7	0.00e+00	0	50	104	0	77	25479
2026-01-29 08:08:56.36	225.48	62.75	-53.2	-57.8	3.7	0.00e+00	0	50	104	0	77	25377
2026-01-29 08:08:57.36	226.97	63.12	-53.1	-57.8	3.7	0.00e+00	0	50	104	0	77	25319
2026-01-29 08:08:58.36	228.51	63.48	-53.2	-57.8	3.7	0.00e+00	0	50	104	0	77	25347
2026-01-29 08:08:59.36	230.10	63.82	-52.9	-57.6	3.7	0.00e+00	0	50	104	0	77	24786
2026-01-29 08:09:00.36	231.73	64.15	-53.1	-57.7	3.7	0.00e+00	0	50	104	0	77	24942
2026-01-29 08:09:01.36	233.41	64.45	-53.3	-57.7	3.7	0.00e+00	0	50	104	0	77	24908
2026-01-29 08:09:02.36	235.13	64.74	-53.2	-57.7	3.7	0.00e+00	0	50	104	0	77	24877
2026-01-29 08:09:03.36	236.90	65.02	-53.3	-57.8	3.7	0.00e+00	0	50	104	0	77	25325
2026-01-29 08:09:04.36	238.70	65.27	-53.4	-57.9	3.7	0.00e+00	0	50	104	0	77	25675
2026-01-29 08:09:05.36	240.55	65.49	-53.3	-57.8	3.7	0.00e+00	0	50	104	0	77	25377
2026-01-29 08:09:06.36	242.43	65.70	-53.3	-57.9	3.7	0.00e+00	0	50	104	0	77	25444
2026-01-29 08:09:07.35	244.33	65.88	-53.4	-57.9	3.7	0.00e+00	0	50	104	0	77	25419
2026-01-29 08:09:08.35	246.28	66.04	-53.3	-57.9	3.7	0.00e+00	0	50	104	0	77	25471
2026-01-29 08:09:09.36	248.27	66.17	-53.6	-58.0	3.7	0.00e+00	0	50	104	0	77	25860
2026-01-29 08:09:10.35	250.25	66.28	-53.5	-58.0	3.7	0.00e+00	0	50	104	0	77	25833
2026-01-29 08:09:11.36	252.28	66.36	-53.1	-57.8	3.7	0.00e+00	0	50	104	0	77	25199
2026-01-29 08:09:12.36	254.31	66.42	-53.3	-57.9	3.7	0.00e+00	0	50	104	0	77	25534
2026-01-29 08:09:13.36	256.34	66.45	-53.3	-57.8	3.7	0.00e+00	0	50	104	0	77	25365
2026-01-29 08:09:14.36	258.38	66.45	-53.4	-58.0	3.7	0.00e+00	0	50	104	0	77	25712
2026-01-29 08:09:15.36	260.42	66.43	-53.0	-57.7	3.7	0.00e+00	0	50	104	0	77	24965
2026-01-29 08:09:16.36	262.44	66.38	-52.9	-57.7	3.7	0.00e+00	0	50	104	0	77	25018
2026-01-29 08:09:17.36	264.46	66.30	-53.2	-57.8	3.7	0.00e+00	0	50	104	0	77	25169
2026-01-29 08:09:18.36	266.46	66.20	-53.1	-57.7	3.6	0.00e+00	0	50	104	0	77	25059
2026-01-29 08:09:19.36	268.44	66.07	-53.0	-57.7	3.7	0.00e+00	0	50	104	0	77	24864
2026-01-29 08:09:20.36	270.39	65.91	-53.3	-57.8	3.7	0.00e+00	0	50	104	0	77	25201
2026-01-29 08:09:21.36	272.31	65.74	-53.4	-57.8	3.7	0.00e+00	0	50	104	0	77	25287
2026-01-29 08:09:22.36	274.20	65.53	-53.4	-57.9	3.7	0.00e+00	0	50	104	0	77	25386
2026-01-29 08:09:23.36	276.05	65.31	-53.2	-57.8	3.7	0.00e+00	0	50	104	0	77	25225
2026-01-29 08:09:24.37	277.88	65.06	-53.1	-57.7	3.7	0.00e+00	0	50	104	0	77	24811
2026-01-29 08:09:25.37	279.65	64.79	-53.2	-57.7	3.7	0.00e+00	0	50	104	0	77	24924
2026-01-29 08:09:26.37	281.38	64.51	-53.2	-57.7	3.7	0.00e+00	0	50	104	0	77	25061
2026-01-29 08:09:27.37	283.06	64.20	-53.3	-57.7	3.7	0.00e+00	0	50	104	0	77	24956
2026-01-29 08:09:28.37	284.70	63.88	-53.1	-57.6	3.7	0.00e+00	0	50	104	0	77	24767
2026-01-29 08:09:29.37	286.29	63.54	-53.1	-57.7	3.7	0.00e+00	0	50	104	0	77	24811
2026-01-29 08:09:30.38	287.85	63.18	-53.1	-57.6	3.7	0.00e+00	0	51	104	0	77	24646
2026-01-29 08:09:31.38	289.35	62.81	-52.6	-57.3	3.7	0.00e+00	0	50	104	0	77	23914
2026-01-29 08:09:32.38	290.80	62.43	-53.0	-57.6	3.7	0.00e+00	0	50	104	0	77	24561
2026-01-29 08:09:33.38	292.21	62.03	-53.3	-57.7	3.7	0.00e+00	0	50	104	0	77	24906
2026-01-29 08:09:34.38	293.56	61.63	-53.3	-57.7	3.7	0.00e+00	0	50	104	0	77	24850
2026-01-29 08:09:35.38	294.88	61.21	-53.4	-57.8	3.7	0.00e+00	0	50	104	0	77	25215
2026-01-29 08:09:36.38	296.15	60.78	-53.3	-57.7	3.7	0.00e+00	0	50	104	0	77	24874
2026-01-29 08:09:37.38	297.38	60.35	-53.1	-57.6	3.7	0.00e+00	0	50	104	0	77	24666
2026-01-29 08:09:38.38	298.56	59.91	-53.0	-57.6	3.7	0.00e+00	0	50	104	0	77	24635
2026-01-29 08:09:39.39	299.72	59.45	-53.5	-57.8	3.7	0.00e+00	0	50	104	0	77	25354
2026-01-29 08:09:40.38	300.81	59.00	-53.3	-57.8	3.7	0.00e+00	0	50	104	0	77	25152
2026-01-29 08:09:41.38	301.87	58.54	-53.0	-57.6	3.7	0.00e+00	0	50	104	0	77	24725
2026-01-29 08:09:42.38	302.90	58.07	-53.0	-57.6	3.7	0.00e+00	0	50	104	0	77	24637
2026-01-29 08:09:43.38	303.90	57.60	-53.4	-57.8	3.7	0.00e+00	0	50	104	0	77	25319
2026-01-29 08:09:44.38	304.86	57.13	-53.3	-57.8	3.7	0.00e+00	0	50	104	0	77	25166
2026-01-29 08:09:45.38	305.78	56.65	-53.5	-57.9	3.7	0.00e+00	0	50	104	0	77	25424
2026-01-29 08:09:46.38	306.68	56.18	-53.4	-57.9	3.7	0.00e+00	0	50	104	0	77	25439
2026-01-29 08:09:47.38	307.54	55.70	-53.0	-57.6	3.7	0.00e+00	0	50	104	0	77	24715
2026-01-29 08:09:48.38	308.37	55.21	-53.1	-57.7	3.6	0.00e+00	0	50	104	0	77	24970
2026-01-29 08:09:49.38	309.18	54.73	-53.1	-57.7	3.7	0.00e+00	0	50	104	0	77	25073
2026-01-29 08:09:50.38	309.96	54.25	-53.1	-57.8	3.7	0.00e+00	0	50	104	0	77	25097
2026-01-29 08:09:51.38	310.71	53.77	-53.0	-57.6	3.6	0.00e+00	0	50	104	0	77	24595
2026-01-29 08:09:52.38	311.43	53.28	-52.9	-57.5	3.7	0.00e+00	0	50	104	0	77	24443
2026-01-29 08:09:53.39	312.14	52.80	-52.6	-57.4	3.7	0.00e+00	0	50	104	0	77	24117
2026-01-29 08:09:54.39	312.82	52.32	-52.6	-57.4	3.7	0.00e+00	0	50	104	0	77	24025
2026-01-29 08:09:55.39	313.48	51.84	-52.8	-57.5	3.7	0.00e+00	0	50	104	0	77	24269
2026-01-29 08:09:56.39	314.12	51.36	-53.1	-57.5	3.7	0.00e+00	0	50	104	0	77	24367
2026-01-29 08:09:57.39	314.73	50.88	-52.8	-57.4	3.7	0.00e+00	0	50	104	0	77	23983
2026-01-29 08:09:58.39	315.33	50.41	-52.8	-57.3	3.7	0.00e+00	0	50	104	0	77	23809
2026-01-29 08:09:59.39	315.91	49.94	-52.8	-57.3	3.7	0.00e+00	0	50	104	0	77	23921
2026-01-29 08:10:00.39	316.47	49.47	-53.1	-57.5	3.7	0.00e+00	0	50	104	0	77	24323
2026-01-29 08:10:01.39	317.01	49.01	-53.2	-57.5	3.7	0.00e+00	0	50	104	0	77	24462
2026-01-29 08:10:02.39	317.53	48.54	-53.2	-57.5	3.7	0.00e+00	0	50	104	0	77	24407
2026-01-29 08:10:03.39	318.04	48.08	-52.7	-57.3	3.7	0.00e+00	0	50	104	0	77	23875
2026-01-29 08:10:04.40	318.54	47.62	-52.8	-57.4	3.7	0.00e+00	0	50	104	0	77	24138
2026-01-29 08:10:05.40	319.02	47.17	-53.0	-57.5	3.7	0.00e+00	0	50	104	0	77	24478
2026-01-29 08:10:06.40	319.49	46.72	-53.0	-57.5	3.7	0.00e+00	0	50	104	0	77	24421
2026-01-29 08:10:07.40	319.94	46.27	-53.0	-57.6	3.7	0.00e+00	0	50	104	0	77	24621
2026-01-29 08:10:08.40	320.38	45.83	-52.8	-57.4	3.6	0.00e+00	0	50	104	0	77	24167
2026-01-29 08:10:09.40	320.81	45.39	-52.5	-57.3	3.7	0.00e+00	0	50	104	0	77	23708
2026-01-29 08:10:10.40	321.23	44.96	-52.5	-57.3	3.7	0.00e+00	0	50	104	0	77	23731
2026-01-29 08:10:11.40	321.63	44.52	-52.6	-57.4	3.7	0.00e+00	0	50	104	0	76	25474
2026-01-29 08:10:12.40	322.02	44.10	-52.8	-57.6	3.7	0.00e+00	0	50	104	0	76	26005
2026-01-29 08:10:13.41	322.41	43.67	-52.7	-57.5	3.6	0.00e+00	0	50	104	0	76	25679
2026-01-29 08:10:14.41	322.78	43.25	-52.7	-57.4	3.7	0.00e+00	0	50	104	0	76	25585
2026-01-29 08:10:15.41	323.14	42.83	-53.0	-57.6	3.7	0.00e+00	0	50	104	0	76	26121
2026-01-29 08:10:16.41	323.49	42.42	-53.0	-57.7	3.7	0.00e+00	0	50	104	0	76	26447
2026-01-29 08:10:17.41	323.84	42.01	-52.9	-57.7	3.7	0.00e+00	0	50	104	0	76	26289
2026-01-29 08:10:18.41	324.17	41.61	-52.9	-57.6	3.7	0.00e+00	0	50	104	0	76	26260
2026-01-29 08:10:19.40	324.50	41.21	-53.0	-57.6	3.7	0.00e+00	0	50	104	0	76	26197
2026-01-29 08:10:20.41	324.82	40.81	-53.0	-57.5	3.7	0.00e+00	0	50	104	0	76	25935
2026-01-29 08:10:21.41	325.13	40.42	-52.9	-57.4	3.7	0.00e+00	0	50	104	0	76	25666
2026-01-29 08:10:22.41	325.43	40.04	-52.9	-57.4	3.7	0.00e+00	0	50	104	0	76	25569
2026-01-29 08:10:23.41	325.72	39.65	-52.7	-57.4	3.7	0.00e+00	0	50	104	0	76	25463
2026-01-29 08:10:24.42	326.01	39.27	-51.7	-57.0	3.7	0.00e+00	0	50	104	0	75	25736
2026-01-29 08:10:25.41	326.29	38.90	-50.6	-56.3	3.7	0.00e+00	0	50	104	0	72	28443
2026-01-29 08:10:26.42	326.57	38.52	-50.5	-56.2	3.7	0.00e+00	0	50	104	0	73	26502
2026-01-29 08:10:27.42	326.84	38.15	-50.8	-56.5	3.7	0.00e+00	0	50	104	0	72	29036
2026-01-29 08:10:28.42	327.10	37.79	-51.8	-57.1	3.7	0.00e+00	0	50	104	0	74	27789
2026-01-29 08:10:29.42	327.35	37.43	-52.8	-57.6	3.7	0.00e+00	0	50	104	0	76	26191
2026-01-29 08:10:30.42	327.60	37.07	-53.1	-57.7	3.7	0.00e+00	0	50	104	0	76	26404
2026-01-29 08:10:31.42	327.85	36.72	-53.0	-57.6	3.7	0.00e+00	0	50	104	0	76	26271
2026-01-29 08:10:32.42	328.09	36.37	-52.5	-57.3	3.7	0.00e+00	0	50	104	0	76	25317
2026-01-29 08:10:33.42	328.32	36.03	-51.9	-57.0	3.7	0.00e+00	0	50	104	0	75	25732
2026-01-29 08:10:34.42	328.55	35.69	-52.0	-57.0	3.7	0.00e+00	0	50	104	0	75	25831
2026-01-29 08:10:35.42	328.77	35.35	-52.2	-57.1	3.7	0.00e+00	0	50	104	0	75	26164
2026-01-29 08:10:36.42	328.99	35.02	-51.4	-56.7	3.7	0.00e+00	0	50	104	0	74	26379
2026-01-29 08:10:37.42	329.21	34.69	-51.4	-56.7	3.7	0.00e+00	0	50	104	0	74	26402
2026-01-29 08:10:38.42	329.42	34.37	-51.9	-57.0	3.7	0.00e+00	0	50	104	0	75	25820
2026-01-29 08:10:39.43	329.63	34.04	-51.8	-56.9	3.7	0.00e+00	0	50	104	0	74	27012
2026-01-29 08:10:40.42	329.82	33.72	-52.8	-57.5	3.7	0.00e+00	0	50	104	0	76	25832
2026-01-29 08:10:41.42	330.02	33.41	-52.9	-57.6	3.7	0.00e+00	0	50	104	0	76	26273
2026-01-29 08:10:42.42	330.22	33.10	-52.7	-57.5	3.7	0.00e+00	0	50	104	0	76	25751
2026-01-29 08:10:43.42	330.41	32.79	-52.8	-57.5	3.7	0.00e+00	0	50	104	0	76	25778
2026-01-29 08:10:44.43	330.59	32.48	-52.2	-57.2	3.7	0.00e+00	0	50	104	0	76	24990
2026-01-29 08:10:45.42	330.77	32.18	-52.2	-57.2	3.7	0.00e+00	0	50	104	0	76	24841
2026-01-29 08:10:46.42	330.95	31.88	-52.2	-57.1	3.7	0.00e+00	0	50	104	0	76	24774
2026-01-29 08:10:47.42	331.13	31.59	-52.2	-57.2	3.7	0.00e+00	0	50	104	0	76	24895
2026-01-29 08:10:48.42	331.30	31.30	-51.6	-56.9	3.7	0.00e+00	0	50	104	0	75	25400
2026-01-29 08:10:49.42	331.47	31.01	-51.0	-56.3	3.7	0.00e+00	0	50	104	0	74	25251
2026-01-29 08:10:50.42	331.63	30.72	-50.8	-56.0	3.7	0.00e+00	0	50	104	0	73	25936
2026-01-29 08:10:51.42	331.80	30.44	-51.0	-56.2	3.7	0.00e+00	0	50	104	0	73	26320
2026-01-29 08:10:52.42	331.96	30.16	-51.6	-56.5	3.7	0.00e+00	0	50	104	0	73	27475
2026-01-29 08:10:53.42	332.11	29.88	-52.1	-56.8	3.6	0.00e+00	0	50	104	0	74	26674
2026-01-29 08:10:54.42	332.27	29.61	-52.4	-57.0	3.7	0.00e+00	0	50	104	0	75	25749
2026-01-29 08:10:55.42	332.42	29.34	-52.3	-57.0	3.7	0.00e+00	0	50	104	0	75	25689
2026-01-29 08:10:56.42	332.57	29.07	-52.1	-56.9	3.7	0.00e+00	0	50	104	0	75	25647
2026-01-29 08:10:57.42	332.71	28.81	-51.7	-56.8	3.7	0.00e+00	0	50	104	0	74	26650
2026-01-29 08:10:58.42	332.85	28.55	-52.0	-56.9	3.7	0.00e+00	0	50	104	0	75	25540
2026-01-29 08:10:59.42	333.00	28.29	-51.1	-56.5	3.7	0.00e+00	0	50	104	0	74	25700
2026-01-29 08:11:00.43	333.14	28.03	-50.6	-56.2	3.7	0.00e+00	0	50	104	0	73	26403
2026-01-29 08:11:01.43	333.27	27.78	-50.6	-56.2	3.7	0.00e+00	0	50	104	0	73	26373
2026-01-29 08:11:02.43	333.41	27.52	-50.6	-56.2	3.7	0.00e+00	0	50	104	0	73	26300
2026-01-29 08:11:03.43	333.54	27.28	-50.8	-56.4	3.7	0.00e+00	0	50	104	0	73	26927
2026-01-29 08:11:04.43	333.67	27.03	-51.4	-56.7	3.7	0.00e+00	0	50	104	0	73	28126
2026-01-29 08:11:05.43	333.79	26.79	-52.1	-57.2	3.7	0.00e+00	0	50	104	0	75	26564
2026-01-29 08:11:06.43	333.92	26.55	-51.3	-56.7	3.7	0.00e+00	0	50	104	0	74	26486
2026-01-29 08:11:07.43	334.04	26.31	-51.9	-57.1	3.7	0.00e+00	0	50	104	0	74	27760
2026-01-29 08:11:08.44	334.16	26.07	-52.5	-57.5	3.7	0.00e+00	0	50	104	0	75	27208
2026-01-29 08:11:09.44	334.28	25.84	-52.8	-57.6	3.7	0.00e+00	0	50	104	0	76	26212
2026-01-29 08:11:10.44	334.40	25.61	-52.8	-57.6	3.7	0.00e+00	0	50	104	0	76	26106
2026-01-29 08:11:11.44	334.52	25.38	-52.7	-57.5	3.7	0.00e+00	0	50	104	0	76	25856
2026-01-29 08:11:12.45	334.63	25.15	-52.6	-57.4	3.7	0.00e+00	0	50	104	0	76	25564
2026-01-29 08:11:13.45	334.74	24.92	-52.1	-57.1	3.7	0.00e+00	0	50	104	0	75	26187
2026-01-29 08:11:14.45	334.86	24.70	-52.4	-57.2	3.7	0.00e+00	0	50	104	0	75	26576
2026-01-29 08:11:15.45	334.96	24.48	-51.6	-56.6	3.7	0.00e+00	0	50	104	0	75	24776
2026-01-29 08:11:16.45	335.07	24.26	-50.9	-56.3	3.7	0.00e+00	0	50	104	0	73	26636
2026-01-29 08:11:17.45	335.18	24.05	-50.7	-56.2	3.7	0.00e+00	0	50	104	0	73	26347
2026-01-29 08:11:18.45	335.28	23.84	-50.5	-56.0	3.7	0.00e+00	0	50	104	0	73	25873
2026-01-29 08:11:19.45	335.38	23.62	-50.7	-56.3	3.7	0.00e+00	0	50	104	0	73	26625
2026-01-29 08:11:20.46	335.49	23.41	-51.3	-56.6	3.7	0.00e+00	0	50	104	0	73	27678
2026-01-29 08:11:21.46	335.59	23.21	-51.4	-56.6	3.7	0.00e+00	0	50	104	0	73	27560
2026-01-29 08:11:22.45	335.68	23.00	-52.5	-57.3	3.7	0.00e+00	0	50	104	0	75	26689
2026-01-29 08:11:23.46	335.78	22.80	-52.8	-57.3	3.7	0.00e+00	0	50	104	0	76	25368
2026-01-29 08:11:24.46	335.88	22.60	-52.1	-57.0	3.7	0.00e+00	0	50	104	0	75	25704
2026-01-29 08:11:25.46	335.97	22.40	-52.6	-57.2	3.7	0.00e+00	0	50	104	0	75	26437
2026-01-29 08:11:26.46	336.06	22.20	-52.8	-57.3	3.7	0.00e+00	0	50	104	0	76	25221
2026-01-29 08:11:27.46	336.16	22.00	-52.7	-57.3	3.7	0.00e+00	0	50	104	0	76	25205
2026-01-29 08:11:28.46	336.25	21.81	-52.6	-57.2	3.7	0.00e+00	0	50	104	0	76	25019
2026-01-29 08:11:29.46	336.33	21.62	-52.3	-57.2	3.7	0.00e+00	0	50	104	0	76	24846
2026-01-29 08:11:30.46	336.42	21.43	-52.0	-57.0	3.7	0.00e+00	0	50	104	0	76	24338
2026-01-29 08:11:31.46	336.51	21.24	-51.2	-56.7	3.7	0.00e+00	0	50	104	0	74	26436
2026-01-29 08:11:32.46	336.60	21.05	-51.3	-56.7	3.7	0.00e+00	0	50	104	0	74	26513
2026-01-29 08:11:33.46	336.68	20.87	-51.6	-56.9	3.7	0.00e+00	0	50	104	0	74	27153
2026-01-29 08:11:34.46	336.76	20.68	-51.7	-56.9	3.7	0.00e+00	0	50	104	0	74	27171
2026-01-29 08:11:35.46	336.85	20.50	-51.8	-57.0	3.7	0.00e+00	0	50	104	0	74	27206
2026-01-29 08:11:36.46	336.93	20.32	-51.6	-56.8	3.7	0.00e+00	0	50	104	0	74	26730
2026-01-29 08:11:37.46	337.01	20.14	-51.1	-56.5	3.7	0.00e+00	0	50	104	0	74	25774
2026-01-29 08:11:38.46	337.09	19.97	-50.7	-56.2	3.7	0.00e+00	0	50	104	0	73	26437
2026-01-29 08:11:39.46	337.16	19.79	-51.1	-56.5	3.7	0.00e+00	0	50	104	0	72	28941
2026-01-29 08:11:40.46	337.24	19.62	-51.2	-56.6	3.7	0.00e+00	0	50	104	0	74	26051
2026-01-29 08:11:41.46	337.32	19.44	-50.9	-56.3	3.7	0.00e+00	0	50	104	0	72	28426
2026-01-29 08:11:42.46	337.39	19.27	-51.2	-56.5	3.7	0.00e+00	0	50	104	0	73	27286
2026-01-29 08:11:43.46	337.47	19.10	-51.5	-56.8	3.7	0.00e+00	0	50	104	0	73	28199
2026-01-29 08:11:44.46	337.54	18.93	-51.8	-57.0	3.7	0.00e+00	0	50	104	0	74	27250
2026-01-29 08:11:45.46	337.61	18.77	-52.1	-57.1	3.7	0.00e+00	0	50	104	0	74	27581
2026-01-29 08:11:46.46	337.69	18.60	-52.0	-57.0	3.7	0.00e+00	0	50	104	0	74	27446
2026-01-29 08:11:47.46	337.76	18.44	-51.9	-56.9	3.7	0.00e+00	0	50	104	0	74	27038
2026-01-29 08:11:48.46	337.83	18.28	-52.1	-57.1	3.7	0.00e+00	0	50	104	0	74	27706
2026-01-29 08:11:49.46	337.90	18.11	-51.9	-57.0	3.7	0.00e+00	0	50	104	0	74	27379
2026-01-29 08:11:50.47	337.97	17.95	-52.0	-57.0	3.7	0.00e+00	0	50	104	0	74	27386
2026-01-29 08:11:51.47	338.03	17.79	-51.9	-56.9	3.6	0.00e+00	0	50	104	0	74	27013
2026-01-29 08:11:52.47	338.10	17.64	-51.8	-56.8	3.7	0.00e+00	0	50	104	0	74	26652
2026-01-29 08:11:53.47	338.17	17.48	-51.9	-56.9	3.7	0.00e+00	0	50	104	0	74	26974
2026-01-29 08:11:54.48	338.23	17.32	-51.9	-56.9	3.7	0.00e+00	0	50	104	0	74	27079
2026-01-29 08:11:55.48	338.30	17.17	-52.2	-57.1	3.7	0.00e+00	0	50	104	0	75	26100
2026-01-29 08:11:56.48	338.36	17.02	-52.1	-57.0	3.7	0.00e+00	0	50	104	0	75	25722
2026-01-29 08:11:57.47	338.43	16.87	-51.9	-56.9	3.7	0.00e+00	0	50	104	0	75	25498
2026-01-29 08:11:58.48	338.49	16.72	-52.3	-57.2	3.7	0.00e+00	0	50	104	0	75	26311
2026-01-29 08:11:59.48	338.55	16.57	-52.7	-57.4	3.7	0.00e+00	0	50	104	0	75	27107
2026-01-29 08:12:00.48	338.61	16.42	-52.7	-57.5	3.7	0.00e+00	0	50	104	0	76	25720
2026-01-29 08:12:01.47	338.67	16.28	-52.4	-57.3	3.7	0.00e+00	0	50	104	0	76	25293
2026-01-29 08:12:02.47	338.73	16.13	-52.8	-57.5	3.7	0.00e+00	0	50	104	0	76	25830
2026-01-29 08:12:03.47	338.79	15.99	-51.9	-57.0	3.7	0.00e+00	0	50	104	0	75	25894
2026-01-29 08:12:04.47	338.85	15.84	-52.0	-57.0	3.7	0.00e+00	0	50	104	0	74	27403
2026-01-29 08:12:05.47	338.91	15.70	-52.3	-57.2	3.7	0.00e+00	0	50	104	0	76	24934
2026-01-29 08:12:06.47	338.97	15.56	-51.0	-56.4	3.7	0.00e+00	0	50	104	0	74	25608
2026-01-29 08:12:07.48	339.02	15.42	-50.9	-56.5	3.7	0.00e+00	0	50	104	0	73	27229
2026-01-29 08:12:08.48	339.08	15.28	-50.9	-56.4	3.7	0.00e+00	0	50	104	0	73	26936
2026-01-29 08:12:09.48	339.14	15.14	-50.9	-56.3	3.7	0.00e+00	0	50	104	0	73	26883
2026-01-29 08:12:10.48	339.19	15.00	-50.9	-56.3	3.7	0.00e+00	0	50	104	0	73	26661
2026-01-29 08:12:11.49	339.25	14.87	-50.9	-56.1	3.7	0.00e+00	0	50	104	0	73	26216
2026-01-29 08:12:12.49	339.30	14.73	-50.7	-56.1	3.7	0.00e+00	0	50	104	0	73	26222
2026-01-29 08:12:13.49	339.35	14.60	-50.9	-56.3	3.7	0.00e+00	0	50	104	0	73	26630
2026-01-29 08:12:14.49	339.41	14.47	-50.9	-56.2	3.7	0.00e+00	0	50	104	0	73	26542
2026-01-29 08:12:15.49	339.46	14.33	-50.8	-56.2	3.7	0.00e+00	0	50	104	0	73	26292
2026-01-29 08:12:16.49	339.51	14.20	-50.0	-55.7	3.7	0.00e+00	0	50	104	0	72	26362
2026-01-29 08:12:17.49	339.56	14.07	-50.2	-55.8	3.7	0.00e+00	0	50	104	0	70	29920
2026-01-29 08:12:18.49	339.61	13.94	-50.5	-56.0	3.7	0.00e+00	0	50	104	0	72	27354
2026-01-29 08:12:19.49	339.66	13.81	-49.1	-55.1	3.7	0.00e+00	0	50	104	0	70	27689
2026-01-29 08:12:20.49	339.71	13.69	-49.5	-55.4	3.7	0.00e+00	0	50	104	0	70	28527
2026-01-29 08:12:21.50	339.76	13.56	-49.8	-55.7	3.7	0.00e+00	0	50	104	0	70	29510
2026-01-29 08:12:22.50	339.81	13.43	-50.2	-55.9	3.7	0.00e+00	0	50	104	0	71	28593
2026-01-29 08:12:23.50	339.86	13.31	-50.9	-56.4	3.7	0.00e+00	0	50	104	0	72	28672
2026-01-29 08:12:24.50	339.91	13.18	-51.7	-56.9	3.7	0.00e+00	0	50	104	0	74	27138
2026-01-29 08:12:25.50	339.96	13.06	-51.8	-57.0	3.7	0.00e+00	0	50	104	0	74	27201
2026-01-29 08:12:26.50	340.00	12.94	-51.1	-56.6	3.7	0.00e+00	0	50	104	0	74	26066
2026-01-29 08:12:27.50	340.05	12.81	-49.5	-55.5	3.7	0.00e+00	0	50	104	0	70	28815
2026-01-29 08:12:28.50	340.10	12.69	-49.9	-55.7	3.7	0.00e+00	0	50	104	0	70	29539
2026-01-29 08:12:29.51	340.14	12.57	-50.6	-56.1	3.7	0.00e+00	0	50	104	0	72	27728
2026-01-29 08:12:30.51	340.19	12.45	-51.1	-56.5	3.7	0.00e+00	0	50	104	0	72	28933
2026-01-29 08:12:31.50	340.23	12.34	-51.5	-56.8	3.7	0.00e+00	0	50	104	0	73	28389
2026-01-29 08:12:32.51	340.28	12.22	-51.7	-56.9	3.7	0.00e+00	0	50	104	0	74	27097
2026-01-29 08:12:33.50	340.32	12.10	-51.7	-56.9	3.7	0.00e+00	0	50	104	0	74	27101
2026-01-29 08:12:34.51	340.37	11.98	-51.4	-56.6	3.7	0.00e+00	0	50	104	0	74	26213
2026-01-29 08:12:35.51	340.41	11.87	-48.4	-54.7	3.7	0.00e+00	0	50	104	0	69	28010
2026-01-29 08:12:36.51	340.45	11.75	-48.7	-54.9	3.7	0.00e+00	0	50	104	0	69	28695
2026-01-29 08:12:37.51	340.50	11.64	-48.7	-55.1	3.7	0.00e+00	0	50	104	0	68	30904
2026-01-29 08:12:38.51	340.54	11.52	-49.4	-55.6	3.7	0.00e+00	0	50	104	0	69	31060
2026-01-29 08:12:39.51	340.58	11.41	-49.4	-55.5	3.7	0.00e+00	0	50	104	0	69	30711
2026-01-29 08:12:40.51	340.62	11.30	-50.2	-55.9	3.7	0.00e+00	0	50	104	0	70	30358
2026-01-29 08:12:41.52	340.67	11.19	-50.0	-55.9	3.7	0.00e+00	0	50	104	0	70	30454
2026-01-29 08:12:42.52	340.71	11.08	-50.7	-56.3	3.7	0.00e+00	0	50	104	0	72	28311
2026-01-29 08:12:43.52	340.75	10.97	-51.0	-56.4	3.7	0.00e+00	0	50	104	0	73	27064
2026-01-29 08:12:44.51	340.79	10.86	-50.9	-56.4	3.7	0.00e+00	0	50	104	0	73	27038
2026-01-29 08:12:45.51	340.83	10.75	-50.4	-56.1	3.7	0.00e+00	0	50	104	0	72	27625
2026-01-29 08:12:46.51	340.87	10.64	-50.6	-56.2	3.7	0.00e+00	0	50	104	0	72	28018
2026-01-29 08:12:47.51	340.91	10.53	-50.9	-56.3	3.7	0.00e+00	0	50	104	0	72	28367
2026-01-29 08:12:48.52	340.95	10.42	-50.5	-56.2	3.7	0.00e+00	0	50	104	0	72	27902
2026-01-29 08:12:49.52	340.99	10.32	-50.7	-56.5	3.7	0.00e+00	0	50	104	0	72	28887
2026-01-29 08:12:50.52	341.02	10.21	-50.5	-56.2	3.7	0.00e+00	0	50	104	0	73	26580
2026-01-29 08:12:51.52	341.06	10.11	-50.5	-56.2	3.7	0.00e+00	0	50	104	0	72	27874
2026-01-29 08:12:52.52	341.10	10.00	-50.5	-56.2	3.7	0.00e+00	0	50	104	0	72	27836
2026-01-29 08:12:53.53	341.14	9.90	-50.4	-56.1	3.7	0.00e+00	0	50	104	0	72	27704
2026-01-29 08:12:54.53	341.17	9.79	-50.5	-56.3	3.7	0.00e+00	0	50	104	0	72	28224
2026-01-29 08:12:55.53	341.21	9.69	-50.7	-56.4	3.7	0.00e+00	0	50	104	0	72	28565
2026-01-29 08:12:56.53	341.25	9.59	-50.9	-56.5	3.7	0.00e+00	0	50	104	0	72	29088
2026-01-29 08:12:57.54	341.29	9.49	-51.8	-57.0	3.7	0.00e+00	0	50	104	0	74	27302
2026-01-29 08:12:58.54	341.32	9.39	-49.9	-55.8	3.7	0.00e+00	0	50	104	0	71	28472
2026-01-29 08:12:59.54	341.36	9.28	-49.3	-55.5	3.7	0.00e+00	0	50	104	0	70	28878
2026-01-29 08:13:00.54	341.39	9.18	-48.3	-54.8	3.7	0.00e+00	0	50	104	0	68	30062
2026-01-29 08:13:01.54	341.43	9.09	-47.5	-54.3	3.7	0.00e+00	0	50	104	0	67	30028
2026-01-29 08:13:02.54	341.46	8.99	-48.3	-54.8	3.7	0.00e+00	0	50	104	0	67	31717
2026-01-29 08:13:03.53	341.50	8.89	-51.4	-56.6	3.7	0.00e+00	0	50	104	0	74	26267
2026-01-29 08:13:04.53	341.53	8.79	-50.1	-55.9	3.7	0.00e+00	0	50	104	0	70	30207
2026-01-29 08:13:05.53	341.57	8.69	-52.1	-57.0	3.7	0.00e+00	0	50	104	0	74	27333
2026-01-29 08:13:06.53	341.60	8.60	-50.4	-56.0	3.7	0.00e+00	0	50	104	0	72	27381
2026-01-29 08:13:07.52	341.63	8.50	-50.3	-56.0	3.7	0.00e+00	0	50	104	0	72	27367
2026-01-29 08:13:08.52	341.67	8.41	-51.1	-56.2	3.6	0.00e+00	0	50	104	0	72	27980
2026-01-29 08:13:09.52	341.70	8.31	-49.9	-55.6	3.7	0.00e+00	0	50	104	0	71	27819
2026-01-29 08:13:10.51	341.73	8.22	-51.9	-56.4	3.7	0.00e+00	0	50	104	0	74	25657
2026-01-29 08:13:11.51	341.77	8.12	-51.7	-56.4	3.7	0.00e+00	0	50	104	0	74	25669
2026-01-29 08:13:12.51	341.80	8.03	-50.8	-55.7	3.7	0.00e+00	0	50	104	0	73	25088
2026-01-29 08:13:13.50	341.83	7.93	-51.9	-56.6	3.7	0.00e+00	0	50	104	0	74	26002
2026-01-29 08:13:14.50	341.86	7.84	-52.3	-56.7	3.7	0.00e+00	0	50	104	0	75	24923
2026-01-29 08:13:15.50	341.90	7.75	-51.8	-56.6	3.7	0.00e+00	0	50	104	0	75	24525
2026-01-29 08:13:16.49	341.93	7.66	-52.4	-56.8	3.7	0.00e+00	0	50	104	0	75	25330
2026-01-29 08:13:17.49	341.96	7.57	-52.4	-56.5	3.7	0.00e+00	0	50	104	0	75	24510
2026-01-29 08:13:18.49	341.99	7.47	-52.0	-56.7	3.7	0.00e+00	0	50	104	0	75	24910
2026-01-29 08:13:19.48	342.02	7.38	-52.4	-57.0	3.7	0.00e+00	0	50	104	0	75	25926
2026-01-29 08:13:20.48	342.05	7.29	-51.5	-54.9	3.7	0.00e+00	0	50	104	0	74	21478
2026-01-29 08:13:21.48	342.08	7.20	-51.5	-55.1	3.7	0.00e+00	0	50	104	0	74	22092
2026-01-29 08:13:22.47	342.11	7.12	-51.5	-55.1	3.7	0.00e+00	0	50	104	0	74	21914
2026-01-29 08:13:23.47	342.14	7.03	-51.5	-55.2	3.7	0.00e+00	0	50	104	0	74	22140
2026-01-29 08:13:24.46	342.17	6.94	-51.4	-55.1	3.7	0.00e+00	0	50	104	0	74	21956
2026-01-29 08:13:25.46	342.20	6.85	-51.5	-55.2	3.7	0.00e+00	0	50	104	0	74	22180
2026-01-29 08:13:26.46	342.23	6.76	-51.4	-55.1	3.7	0.00e+00	0	50	104	0	74	21929
2026-01-29 08:13:27.45	342.26	6.67	-51.4	-55.1	3.7	0.00e+00	0	50	104	0	74	21876
2026-01-29 08:13:28.45	342.29	6.59	-51.4	-55.1	3.7	0.00e+00	0	50	104	0	74	21908
2026-01-29 08:13:29.44	342.32	6.50	-51.4	-55.1	3.7	0.00e+00	0	50	104	0	74	21961
2026-01-29 08:13:30.44	342.35	6.42	-51.4	-55.0	3.7	0.00e+00	0	50	104	0	74	21811
2026-01-29 08:13:31.44	342.38	6.33	-51.4	-55.0	3.7	0.00e+00	0	50	104	0	74	21842
2026-01-29 08:13:32.43	342.40	6.24	-51.4	-55.1	3.7	0.00e+00	0	50	104	0	74	21898
2026-01-29 08:13:33.43	342.43	6.16	-51.4	-55.1	3.7	0.00e+00	0	50	104	0	74	21931
2026-01-29 08:13:34.43	342.46	6.07	-51.5	-55.1	3.7	0.00e+00	0	50	104	0	74	21948
2026-01-29 08:13:35.42	342.49	5.99	-51.5	-55.1	3.7	0.00e+00	0	50	104	0	74	22009
2026-01-29 08:13:36.42	342.52	5.91	-51.5	-55.2	3.7	0.00e+00	0	50	104	0	74	22110
2026-01-29 08:13:37.42	342.54	5.82	-51.4	-55.1	3.7	0.00e+00	0	50	104	0	74	22024
2026-01-29 08:13:38.41	342.57	5.74	-51.4	-55.1	3.7	0.00e+00	0	50	104	0	74	22034
2026-01-29 08:13:39.41	342.60	5.66	-51.5	-55.2	3.7	0.00e+00	0	50	104	0	74	22123
2026-01-29 08:13:40.41	342.63	5.57	-51.5	-55.2	3.7	0.00e+00	0	50	104	0	74	22169
2026-01-29 08:13:41.41	342.65	5.49	-51.5	-55.1	3.7	0.00e+00	0	50	104	0	74	21961
2026-01-29 08:13:42.40	342.68	5.41	-51.4	-55.0	3.7	0.00e+00	0	50	104	0	74	21826
2026-01-29 08:13:43.40	342.71	5.33	-51.4	-55.1	3.7	0.00e+00	0	50	104	0	74	21892
2026-01-29 08:13:44.40	342.73	5.25	-51.5	-55.2	3.7	0.00e+00	0	50	104	0	74	22132
2026-01-29 08:13:45.39	342.76	5.17	-51.4	-55.1	3.7	0.00e+00	0	50	104	0	74	21931
2026-01-29 08:13:46.39	342.78	5.09	-51.4	-55.1	3.7	0.00e+00	0	50	104	0	74	21996
2026-01-29 08:13:47.38	342.81	5.01	-51.5	-55.2	3.7	0.00e+00	0	50	104	0	74	22167

#Closed at: 2026-01-29 08:13:48
#Recorded file [0 MB]: D:/Data/31040_260129_110442.dat