passes_logs/2026/01/29/T1/T1__20260129_025004_FENGYUN_3D_rec.log

#Pass ID: 20260129_025004_FENGYUN 3D
#Satellite: FENGYUN 3D
#Configuration: FENGYUN 3D
#almurnet v.1.7.20251203
#Start time: 2026-01-29 02:50:05

#Version: 2.0.20230620
#Station: T1
#Location: 37.570604 lon 55.790049 lat
#TLE: 1 43010U 17072A   26027.90082829  .00000305  00000+0  16579-3 0  9998
#TLE: 2 43010  98.9960 359.9183 0002511  88.1058 272.0405 14.19701796425082

#Time	Az	El	Level	Level2	SNR	BER	BlckErr	Temp	State	Recorded	gain1	gain2
2026-01-29 02:50:05.66	10.52	5.08	-50.0	-62.1	3.8	8.48e-01	0	41	0	0	70	15478
2026-01-29 02:50:06.65	10.47	5.15	-50.2	-62.2	3.8	8.47e-01	0	42	104	0	71	14744
2026-01-29 02:50:07.64	10.42	5.22	-50.2	-62.1	3.8	8.47e-01	0	41	104	0	71	14681
2026-01-29 02:50:08.64	10.37	5.28	-50.2	-62.2	3.8	8.47e-01	0	41	104	0	71	14792
2026-01-29 02:50:09.63	10.32	5.35	-50.1	-62.2	3.8	8.47e-01	0	41	104	0	71	14801
2026-01-29 02:50:10.63	10.27	5.42	-50.0	-62.2	3.8	8.46e-01	0	42	104	0	71	14722
2026-01-29 02:50:11.62	10.22	5.49	-49.9	-62.2	3.8	8.46e-01	0	42	104	0	71	14728
2026-01-29 02:50:12.61	10.17	5.56	-50.1	-62.1	3.8	8.47e-01	0	42	104	0	71	14681
2026-01-29 02:50:13.61	10.12	5.62	-49.9	-62.1	3.8	8.47e-01	0	42	104	0	71	14680
2026-01-29 02:50:14.60	10.06	5.69	-50.0	-62.1	3.8	8.47e-01	0	42	104	0	71	14632
2026-01-29 02:50:15.59	10.01	5.76	-50.0	-62.0	3.8	8.47e-01	0	42	104	0	71	14515
2026-01-29 02:50:16.59	9.96	5.83	-49.9	-62.0	3.8	8.48e-01	0	42	104	0	71	14497
2026-01-29 02:50:17.58	9.91	5.90	-49.8	-62.0	3.8	8.47e-01	0	42	104	0	71	14510
2026-01-29 02:50:18.57	9.85	5.97	-49.8	-62.0	3.8	8.46e-01	0	42	104	0	71	14486
2026-01-29 02:50:19.57	9.80	6.04	-49.8	-62.0	3.8	8.48e-01	0	42	104	0	71	14416
2026-01-29 02:50:20.56	9.75	6.10	-49.7	-62.0	3.8	8.46e-01	0	42	104	0	71	14378
2026-01-29 02:50:21.55	9.69	6.17	-49.0	-61.9	3.8	8.46e-01	0	42	104	0	69	16096
2026-01-29 02:50:22.55	9.64	6.24	-49.6	-61.9	3.8	8.48e-01	0	42	104	0	69	16016
2026-01-29 02:50:23.54	9.59	6.31	-49.4	-61.9	3.8	8.47e-01	0	42	104	0	69	16036
2026-01-29 02:50:24.53	9.53	6.38	-49.7	-61.9	3.8	8.47e-01	0	42	104	0	69	15953
2026-01-29 02:50:25.53	9.48	6.45	-48.5	-61.8	3.8	8.47e-01	0	42	104	0	68	16801
2026-01-29 02:50:26.52	9.42	6.52	-48.8	-61.7	3.8	8.47e-01	0	42	104	0	69	15743
2026-01-29 02:50:27.51	9.37	6.59	-47.6	-61.3	3.8	8.47e-01	0	42	104	0	67	16768
2026-01-29 02:50:28.50	9.31	6.66	-48.0	-61.2	3.8	8.48e-01	0	42	104	0	66	17630
2026-01-29 02:50:29.50	9.26	6.73	-48.0	-61.2	3.8	8.47e-01	0	42	104	0	66	17564
2026-01-29 02:50:30.49	9.20	6.81	-48.0	-61.1	3.8	8.47e-01	0	42	104	0	66	17439
2026-01-29 02:50:31.48	9.14	6.88	-48.0	-61.0	3.8	8.47e-01	0	42	104	0	66	17189
2026-01-29 02:50:32.48	9.09	6.95	-48.0	-60.8	3.8	8.46e-01	0	42	104	0	66	16751
2026-01-29 02:50:33.47	9.03	7.02	-47.9	-60.4	3.8	8.48e-01	0	42	104	0	66	16075
2026-01-29 02:50:34.46	8.97	7.09	-47.9	-60.0	3.8	8.46e-01	0	43	104	0	66	15294
2026-01-29 02:50:35.46	8.91	7.16	-47.9	-59.5	3.8	8.47e-01	0	43	104	0	66	14501
2026-01-29 02:50:36.45	8.86	7.23	-47.8	-58.9	4.0	8.46e-01	0	42	104	0	66	13498
2026-01-29 02:50:37.44	8.80	7.31	-47.8	-58.7	3.9	8.44e-01	0	42	104	0	66	13125
2026-01-29 02:50:38.44	8.74	7.38	-47.7	-58.3	4.1	8.43e-01	0	43	0	0	66	12567
2026-01-29 02:50:39.43	8.68	7.45	-47.7	-58.2	4.1	8.41e-01	0	42	0	0	66	12446
2026-01-29 02:50:40.42	8.62	7.52	-47.7	-58.1	4.1	8.41e-01	0	43	0	0	66	12325
2026-01-29 02:50:41.42	8.56	7.60	-47.7	-57.9	4.1	8.40e-01	0	43	0	0	66	12046
2026-01-29 02:50:42.41	8.50	7.67	-47.7	-58.0	4.1	8.38e-01	0	43	0	0	66	12156
2026-01-29 02:50:43.40	8.44	7.74	-47.7	-58.1	4.1	8.39e-01	0	43	0	0	66	12244
2026-01-29 02:50:44.40	8.38	7.81	-47.7	-58.0	4.1	8.40e-01	0	43	0	0	66	12179
2026-01-29 02:50:45.39	8.32	7.89	-47.7	-58.0	4.1	8.40e-01	0	43	0	0	66	12215
2026-01-29 02:50:46.38	8.26	7.96	-47.7	-57.7	4.2	8.39e-01	0	43	0	0	66	11788
2026-01-29 02:50:47.38	8.20	8.04	-47.6	-57.4	4.3	8.36e-01	0	43	0	0	66	11319
2026-01-29 02:50:48.37	8.14	8.11	-47.4	-56.2	4.8	8.17e-01	0	43	0	0	66	9894
2026-01-29 02:50:49.36	8.07	8.18	-47.2	-54.9	5.6	7.17e-01	0	43	0	0	66	8499
2026-01-29 02:50:50.35	8.01	8.26	-46.7	-53.1	7.0	2.72e-01	0	43	0	5242880	65	7347
2026-01-29 02:50:51.35	7.95	8.33	-46.1	-51.5	8.5	5.50e-02	0	43	0	10485760	64	6431
2026-01-29 02:50:52.34	7.89	8.41	-45.5	-50.1	10.0	1.77e-02	0	43	0	15728640	63	5808
2026-01-29 02:50:53.33	7.82	8.48	-44.9	-49.0	11.2	4.40e-03	0	43	0	22020096	61	5746
2026-01-29 02:50:54.33	7.76	8.56	-44.3	-47.9	12.4	4.43e-04	0	43	0	27262976	60	5358
2026-01-29 02:50:55.32	7.69	8.63	-43.8	-47.1	13.1	7.55e-05	0	43	0	33554432	59	5192
2026-01-29 02:50:56.31	7.63	8.71	-43.7	-46.9	13.3	2.74e-05	0	43	0	38797312	59	5092
2026-01-29 02:50:57.31	7.56	8.78	-43.6	-46.8	13.5	1.37e-05	0	43	0	44040192	59	4992
2026-01-29 02:50:58.30	7.50	8.86	-43.7	-47.0	13.3	1.14e-05	0	43	0	49283072	58	5412
2026-01-29 02:50:59.29	7.43	8.93	-43.8	-47.0	13.2	2.74e-05	0	43	0	55574528	58	5450
2026-01-29 02:51:00.28	7.37	9.01	-44.2	-47.7	12.5	9.95e-05	0	43	0	60817408	59	5576
2026-01-29 02:51:01.28	7.30	9.09	-44.6	-48.5	11.7	8.12e-04	0	43	0	66060288	60	5744
2026-01-29 02:51:02.29	7.23	9.17	-44.4	-47.9	12.4	8.00e-06	0	43	0	72351744	59	5722
2026-01-29 02:51:03.31	7.17	9.24	-46.5	-52.6	7.2	5.14e-01	0	43	0	77594624	64	7353
2026-01-29 02:51:04.37	7.09	9.33	-41.0	-43.3	16.8	0.00e+00	0	43	0	83886080	54	4465
2026-01-29 02:51:05.23	7.03	9.39	-39.9	-41.9	18.2	0.00e+00	0	43	0	88080384	51	4543
2026-01-29 02:51:06.36	6.96	9.48	-45.0	-49.2	10.9	1.19e-01	0	43	0	94371840	62	5534
2026-01-29 02:51:07.21	6.90	9.55	-39.9	-42.0	18.2	0.00e+00	0	43	0	99614720	51	4580
2026-01-29 02:51:08.35	6.82	9.64	-39.7	-41.8	18.4	0.00e+00	0	43	0	105906176	51	4483
2026-01-29 02:51:09.20	6.76	9.70	-39.5	-41.5	18.7	0.00e+00	0	43	0	110100480	50	4587
2026-01-29 02:51:10.34	6.68	9.79	-39.4	-41.4	18.8	0.00e+00	0	43	0	116391936	50	4528
2026-01-29 02:51:11.19	6.62	9.86	-39.2	-41.2	18.9	0.00e+00	0	43	0	121634816	50	4433
2026-01-29 02:51:12.38	6.53	9.95	-39.3	-41.3	18.9	0.00e+00	0	43	0	127926272	50	4492
2026-01-29 02:51:13.23	6.47	10.02	-39.4	-41.5	18.8	0.00e+00	0	43	0	133169152	50	4550
2026-01-29 02:51:14.37	6.39	10.11	-39.3	-41.4	18.8	0.00e+00	0	43	0	139460608	50	4514
2026-01-29 02:51:15.22	6.33	10.18	-39.2	-41.3	18.8	0.00e+00	0	43	0	144703488	50	4478
2026-01-29 02:51:16.35	6.25	10.27	-39.1	-41.3	18.9	0.00e+00	0	43	0	150994944	50	4450
2026-01-29 02:51:17.21	6.19	10.34	-39.0	-41.1	19.0	0.00e+00	0	43	0	155189248	50	4382
2026-01-29 02:51:18.58	6.08	10.45	-39.2	-41.4	18.8	0.00e+00	0	43	0	163577856	49	4765
2026-01-29 02:51:19.29	6.03	10.51	-39.1	-41.2	19.0	0.00e+00	0	43	0	166723584	49	4693
2026-01-29 02:51:20.79	5.92	10.63	-39.1	-41.2	18.9	0.00e+00	0	43	0	176160768	49	4702
2026-01-29 02:51:21.50	5.87	10.69	-39.2	-41.3	18.9	0.00e+00	0	43	0	179306496	49	4752
2026-01-29 02:51:22.78	5.77	10.79	-39.2	-41.3	18.9	0.00e+00	0	43	0	186646528	49	4718
2026-01-29 02:51:23.49	5.72	10.85	-39.2	-41.4	18.8	0.00e+00	0	43	0	190840832	49	4768
2026-01-29 02:51:24.77	5.62	10.95	-39.1	-41.2	19.0	0.00e+00	0	43	0	198180864	49	4687
2026-01-29 02:51:25.49	5.56	11.01	-39.1	-41.2	19.0	0.00e+00	0	43	0	202375168	49	4686
2026-01-29 02:51:26.77	5.46	11.12	-39.2	-41.3	18.9	0.00e+00	0	43	0	209715200	49	4718
2026-01-29 02:51:27.51	5.41	11.18	-39.1	-41.2	19.0	0.00e+00	0	43	0	212860928	49	4652
2026-01-29 02:51:28.79	5.31	11.28	-39.0	-41.1	19.1	0.00e+00	0	43	0	220200960	49	4624
2026-01-29 02:51:29.51	5.25	11.34	-38.9	-40.9	19.3	0.00e+00	0	43	0	224395264	49	4509
2026-01-29 02:51:30.79	5.15	11.45	-39.0	-41.0	19.1	0.00e+00	0	43	0	231735296	49	4569
2026-01-29 02:51:31.57	5.09	11.52	-39.0	-41.0	19.1	0.00e+00	0	43	0	235929600	49	4597
2026-01-29 02:51:32.84	4.99	11.62	-38.7	-40.7	19.4	0.00e+00	0	43	0	243269632	49	4432
2026-01-29 02:51:33.63	4.92	11.69	-38.7	-40.7	19.5	0.00e+00	0	43	0	247463936	49	4416
2026-01-29 02:51:35.12	4.80	11.81	-38.7	-40.6	19.6	0.00e+00	0	44	0	256901120	49	4368
2026-01-29 02:51:35.83	4.74	11.87	-38.6	-40.6	19.6	0.00e+00	0	44	0	260046848	49	4349
2026-01-29 02:51:37.11	4.64	11.98	-38.6	-40.5	19.7	0.00e+00	0	44	0	267386880	49	4332
2026-01-29 02:51:37.83	4.58	12.04	-38.6	-40.6	19.6	0.00e+00	0	44	0	271581184	49	4350
2026-01-29 02:51:39.11	4.47	12.15	-38.4	-40.3	19.9	0.00e+00	0	43	0	278921216	48	4482
2026-01-29 02:51:39.83	4.41	12.21	-38.4	-40.3	19.9	0.00e+00	0	43	0	283115520	48	4480
2026-01-29 02:51:41.11	4.30	12.32	-38.6	-40.5	19.7	0.00e+00	0	43	0	289406976	48	4566
2026-01-29 02:51:41.83	4.24	12.39	-38.6	-40.5	19.7	0.00e+00	0	44	0	293601280	48	4566
2026-01-29 02:51:43.11	4.13	12.50	-38.4	-40.3	19.9	0.00e+00	0	44	0	300941312	48	4474
2026-01-29 02:51:43.96	4.06	12.57	-38.5	-40.4	19.8	0.00e+00	0	44	0	306184192	48	4537
2026-01-29 02:51:45.10	3.96	12.67	-38.6	-40.4	19.8	0.00e+00	0	44	0	312475648	48	4544
2026-01-29 02:51:45.95	3.89	12.74	-38.7	-40.6	19.7	0.00e+00	0	43	0	316669952	48	4599
2026-01-29 02:51:47.09	3.79	12.84	-38.6	-40.5	19.7	0.00e+00	0	43	0	324009984	48	4588
2026-01-29 02:51:47.94	3.72	12.91	-38.5	-40.4	19.9	0.00e+00	0	43	0	328204288	48	4494
2026-01-29 02:51:49.08	3.61	13.01	-38.4	-40.3	20.0	0.00e+00	0	44	0	334495744	48	4445
2026-01-29 02:51:49.93	3.54	13.09	-38.3	-40.2	20.0	0.00e+00	0	43	0	339738624	48	4400
2026-01-29 02:51:51.08	3.44	13.19	-38.3	-40.2	20.0	0.00e+00	0	44	0	346030080	48	4410
2026-01-29 02:51:51.93	3.36	13.27	-38.4	-40.2	20.0	0.00e+00	0	44	0	351272960	48	4415
2026-01-29 02:51:53.07	3.26	13.37	-38.5	-40.3	19.9	0.00e+00	0	43	0	357564416	48	4488
2026-01-29 02:51:53.92	3.18	13.44	-38.4	-40.2	20.0	0.00e+00	0	44	0	361758720	48	4410
2026-01-29 02:51:55.06	3.07	13.54	-38.4	-40.2	20.0	0.00e+00	0	44	0	368050176	48	4437
2026-01-29 02:51:55.91	3.00	13.62	-38.5	-40.4	19.8	0.00e+00	0	44	0	373293056	48	4499
2026-01-29 02:51:57.05	2.89	13.72	-38.4	-40.2	20.0	0.00e+00	0	44	0	379584512	48	4436
2026-01-29 02:51:57.90	2.81	13.80	-38.6	-40.5	19.8	0.00e+00	0	43	0	384827392	48	4548
2026-01-29 02:51:59.04	2.70	13.90	-38.3	-40.2	20.0	0.00e+00	0	43	0	391118848	48	4394
2026-01-29 02:51:59.89	2.62	13.98	-38.3	-40.1	20.1	0.00e+00	0	44	0	395313152	48	4385
2026-01-29 02:52:01.02	2.51	14.08	-38.3	-40.2	20.1	0.00e+00	0	44	0	401604608	48	4397
2026-01-29 02:52:01.88	2.43	14.16	-38.4	-40.3	20.0	0.00e+00	0	43	0	406847488	48	4450
2026-01-29 02:52:03.01	2.32	14.26	-38.3	-40.2	20.1	0.00e+00	0	44	0	413138944	48	4403
2026-01-29 02:52:03.87	2.24	14.34	-38.5	-40.3	19.9	0.00e+00	0	44	0	417333248	48	4489
2026-01-29 02:52:05.11	2.12	14.45	-38.4	-40.3	20.0	0.00e+00	0	44	0	424673280	48	4473
2026-01-29 02:52:06.34	2.00	14.56	-38.5	-40.3	19.9	0.00e+00	0	44	0	432013312	48	4489
2026-01-29 02:52:07.20	1.91	14.64	-38.3	-40.2	20.1	0.00e+00	0	44	0	436207616	48	4430
2026-01-29 02:52:08.34	1.80	14.75	-38.2	-40.1	20.2	0.00e+00	0	43	0	443547648	48	4350
2026-01-29 02:52:09.19	1.71	14.83	-38.3	-40.2	20.1	0.00e+00	0	44	0	447741952	48	4397
2026-01-29 02:52:10.32	1.60	14.93	-38.2	-40.1	20.2	0.00e+00	0	43	0	454033408	48	4353
2026-01-29 02:52:11.18	1.51	15.01	-38.2	-40.1	20.2	0.00e+00	0	44	0	459276288	48	4341
2026-01-29 02:52:12.31	1.40	15.12	-38.1	-40.0	20.3	0.00e+00	0	44	0	465567744	48	4316
2026-01-29 02:52:13.17	1.31	15.20	-37.9	-39.7	20.3	0.00e+00	0	44	0	470810624	47	4429
2026-01-29 02:52:14.30	1.19	15.31	-38.0	-39.9	20.2	0.00e+00	0	44	0	477102080	47	4534
2026-01-29 02:52:15.16	1.10	15.39	-38.0	-39.9	20.2	0.00e+00	0	44	0	481296384	47	4496
2026-01-29 02:52:16.41	0.97	15.50	-37.9	-39.8	20.2	0.00e+00	0	44	0	488636416	47	4492
2026-01-29 02:52:17.26	0.88	15.59	-38.0	-39.9	20.2	0.00e+00	0	44	0	492830720	47	4526
2026-01-29 02:52:18.39	0.76	15.69	-37.8	-39.7	20.4	0.00e+00	0	44	0	500170752	47	4397
2026-01-29 02:52:19.25	0.67	15.77	-37.7	-39.5	20.5	0.00e+00	0	44	0	504365056	47	4338
2026-01-29 02:52:20.39	0.54	15.88	-37.7	-39.6	20.5	0.00e+00	0	44	0	510656512	47	4360
2026-01-29 02:52:21.24	0.45	15.97	-37.7	-39.6	20.5	0.00e+00	0	44	0	515899392	47	4367
2026-01-29 02:52:22.37	0.33	16.07	-37.7	-39.5	20.5	0.00e+00	0	44	0	522190848	47	4340
2026-01-29 02:52:23.23	0.23	16.16	-37.6	-39.5	20.6	0.00e+00	0	44	0	527433728	47	4305
2026-01-29 02:52:24.36	0.11	16.27	-37.5	-39.4	20.6	0.00e+00	0	44	0	532676608	47	4279
2026-01-29 02:52:25.22	0.01	16.35	-37.6	-39.5	20.6	0.00e+00	0	44	0	537919488	47	4300
2026-01-29 02:52:26.36	359.88	16.46	-37.5	-39.4	20.7	0.00e+00	0	44	0	544210944	47	4258
2026-01-29 02:52:27.21	359.79	16.54	-37.4	-39.3	20.8	0.00e+00	0	44	0	549453824	46	4460
2026-01-29 02:52:28.35	359.66	16.65	-37.4	-39.3	20.8	0.00e+00	0	44	0	555745280	46	4449
2026-01-29 02:52:29.20	359.56	16.74	-37.6	-39.4	20.7	0.00e+00	0	44	0	559939584	46	4533
2026-01-29 02:52:30.34	359.43	16.85	-37.5	-39.3	20.7	0.00e+00	0	44	0	567279616	46	4485
2026-01-29 02:52:31.19	359.33	16.93	-37.4	-39.2	20.9	0.00e+00	0	44	0	571473920	46	4423
2026-01-29 02:52:32.33	359.20	17.05	-37.5	-39.3	20.8	0.00e+00	0	44	0	577765376	46	4463
2026-01-29 02:52:33.18	359.10	17.13	-37.6	-39.4	20.7	0.00e+00	0	44	0	583008256	46	4517
2026-01-29 02:52:34.32	358.96	17.24	-37.4	-39.2	20.8	0.00e+00	0	44	0	589299712	46	4432
2026-01-29 02:52:35.17	358.86	17.33	-37.5	-39.3	20.8	0.00e+00	0	44	0	594542592	46	4448
2026-01-29 02:52:36.31	358.72	17.44	-37.4	-39.2	20.9	0.00e+00	0	44	0	600834048	46	4405
2026-01-29 02:52:37.16	358.62	17.53	-37.3	-39.1	21.0	0.00e+00	0	44	0	605028352	46	4376
2026-01-29 02:52:38.30	358.48	17.64	-37.4	-39.2	20.9	0.00e+00	0	44	0	611319808	46	4399
2026-01-29 02:52:39.15	358.38	17.73	-37.4	-39.2	20.9	0.00e+00	0	44	0	616562688	46	4412
2026-01-29 02:52:40.67	358.19	17.88	-37.3	-39.1	21.0	0.00e+00	0	44	0	624951296	46	4361
2026-01-29 02:52:41.38	358.10	17.95	-37.3	-39.0	21.1	0.00e+00	0	44	0	629145600	46	4328
2026-01-29 02:52:42.66	357.94	18.08	-37.2	-39.0	21.1	0.00e+00	0	44	0	636485632	46	4318
2026-01-29 02:52:43.38	357.85	18.16	-37.2	-39.0	21.1	0.00e+00	0	44	0	640679936	46	4304
2026-01-29 02:52:44.66	357.69	18.29	-37.3	-39.0	21.1	0.00e+00	0	44	0	646971392	46	4338
2026-01-29 02:52:45.47	357.58	18.37	-37.1	-38.9	21.2	0.00e+00	0	44	0	652214272	46	4276
2026-01-29 02:52:46.60	357.44	18.49	-37.0	-38.8	21.3	0.00e+00	0	44	0	658505728	45	4450
2026-01-29 02:52:47.46	357.32	18.58	-37.0	-38.8	21.3	0.00e+00	0	44	0	662700032	45	4473
2026-01-29 02:52:48.59	357.18	18.69	-37.0	-38.8	21.2	0.00e+00	0	44	0	670040064	45	4474
2026-01-29 02:52:49.44	357.06	18.78	-37.0	-38.8	21.3	0.00e+00	0	44	0	674234368	45	4455
2026-01-29 02:52:50.58	356.91	18.90	-37.0	-38.8	21.2	0.00e+00	0	44	0	680525824	45	4493
2026-01-29 02:52:51.43	356.80	18.99	-37.0	-38.8	21.3	0.00e+00	0	44	0	685768704	45	4464
2026-01-29 02:52:52.57	356.65	19.11	-37.0	-38.8	21.3	0.00e+00	0	44	0	692060160	45	4463
2026-01-29 02:52:53.42	356.53	19.20	-37.0	-38.8	21.3	0.00e+00	0	44	0	697303040	45	4458
2026-01-29 02:52:54.62	356.37	19.32	-36.9	-38.7	21.4	0.00e+00	0	44	0	703594496	45	4408
2026-01-29 02:52:55.48	356.25	19.41	-36.9	-38.7	21.3	0.00e+00	0	44	0	708837376	45	4430
2026-01-29 02:52:56.61	356.09	19.53	-36.7	-38.5	21.6	0.00e+00	0	44	0	714080256	45	4300
2026-01-29 02:52:57.47	355.97	19.62	-36.5	-38.3	21.8	0.00e+00	0	44	0	719323136	45	4207
2026-01-29 02:52:58.60	355.82	19.74	-36.5	-38.2	21.8	0.00e+00	0	44	0	725614592	45	4193
2026-01-29 02:52:59.46	355.69	19.84	-36.5	-38.3	21.7	0.00e+00	0	44	0	730857472	45	4195
2026-01-29 02:53:00.60	355.53	19.96	-36.4	-38.1	21.9	0.00e+00	0	44	0	737148928	44	4382
2026-01-29 02:53:01.45	355.41	20.05	-36.6	-38.3	21.8	0.00e+00	0	44	0	741343232	44	4472
2026-01-29 02:53:02.59	355.25	20.17	-36.5	-38.2	21.8	0.00e+00	0	44	0	748683264	44	4438
2026-01-29 02:53:03.60	355.10	20.28	-36.5	-38.2	21.8	0.00e+00	0	44	0	753926144	44	4420
2026-01-29 02:53:04.77	354.93	20.40	-36.6	-38.3	21.8	0.00e+00	0	44	0	760217600	44	4468
2026-01-29 02:53:05.65	354.80	20.50	-36.7	-38.4	21.6	0.00e+00	0	44	0	765460480	44	4524
2026-01-29 02:53:06.98	354.60	20.64	-36.8	-38.5	21.6	0.00e+00	0	44	0	772800512	44	4561
2026-01-29 02:53:07.69	354.49	20.72	-36.7	-38.5	21.6	0.00e+00	0	44	0	776994816	44	4549
2026-01-29 02:53:09.16	354.27	20.88	-36.8	-38.5	21.6	0.00e+00	0	44	0	785383424	44	4571
2026-01-29 02:53:09.87	354.16	20.96	-36.8	-38.5	21.6	0.00e+00	0	44	0	789577728	44	4595
2026-01-29 02:53:11.15	353.97	21.10	-36.7	-38.4	21.7	0.00e+00	0	44	0	796917760	44	4506
2026-01-29 02:53:11.86	353.86	21.18	-36.6	-38.3	21.8	0.00e+00	0	44	0	800063488	44	4453
2026-01-29 02:53:13.14	353.66	21.32	-36.6	-38.3	21.8	0.00e+00	0	44	0	807403520	44	4463
2026-01-29 02:53:13.85	353.54	21.40	-36.4	-38.2	21.9	0.00e+00	0	44	0	811597824	44	4403
2026-01-29 02:53:15.14	353.34	21.54	-36.3	-38.0	22.0	0.00e+00	0	44	0	818937856	44	4336
2026-01-29 02:53:15.86	353.23	21.62	-36.4	-38.1	22.0	0.00e+00	0	44	0	823132160	44	4354
2026-01-29 02:53:17.14	353.02	21.76	-36.2	-37.9	22.2	0.00e+00	0	44	0	830472192	44	4247
2026-01-29 02:53:17.85	352.91	21.84	-36.2	-37.9	22.1	0.00e+00	0	44	0	833617920	44	4274
2026-01-29 02:53:19.13	352.70	21.98	-36.1	-37.8	22.2	0.00e+00	0	44	0	840957952	44	4211
2026-01-29 02:53:19.84	352.58	22.06	-36.0	-37.7	22.3	0.00e+00	0	44	0	845152256	44	4186
2026-01-29 02:53:21.12	352.37	22.20	-36.1	-37.8	22.3	0.00e+00	0	44	0	852492288	44	4213
2026-01-29 02:53:22.10	352.21	22.31	-36.1	-37.8	22.3	0.00e+00	0	44	0	857735168	44	4217
2026-01-29 02:53:23.09	352.04	22.42	-36.1	-37.7	22.3	0.00e+00	0	44	0	864026624	44	4192
2026-01-29 02:53:24.09	351.87	22.54	-36.1	-37.7	22.3	0.00e+00	0	44	0	869269504	44	4193
2026-01-29 02:53:25.08	351.70	22.65	-35.7	-37.4	22.5	0.00e+00	0	44	0	874512384	43	4278
2026-01-29 02:53:26.08	351.53	22.76	-35.8	-37.5	22.4	0.00e+00	0	44	0	880803840	43	4299
2026-01-29 02:53:27.07	351.36	22.87	-35.8	-37.4	22.4	0.00e+00	0	44	0	886046720	43	4287
2026-01-29 02:53:28.07	351.19	22.99	-35.8	-37.5	22.4	0.00e+00	0	44	0	891289600	43	4314
2026-01-29 02:53:29.06	351.01	23.10	-35.9	-37.6	22.3	0.00e+00	0	44	0	897581056	43	4373
2026-01-29 02:53:30.06	350.84	23.21	-35.9	-37.6	22.3	0.00e+00	0	44	0	902823936	43	4354
2026-01-29 02:53:31.05	350.66	23.33	-35.9	-37.6	22.3	0.00e+00	0	44	0	908066816	43	4378
2026-01-29 02:53:32.05	350.48	23.44	-35.9	-37.6	22.3	0.00e+00	0	44	0	914358272	43	4386
2026-01-29 02:53:33.04	350.30	23.56	-35.8	-37.6	22.4	0.00e+00	0	44	0	919601152	43	4341
2026-01-29 02:53:34.03	350.12	23.67	-35.9	-37.6	22.3	0.00e+00	0	44	0	924844032	43	4385
2026-01-29 02:53:35.03	349.94	23.78	-35.9	-37.6	22.3	0.00e+00	0	44	0	931135488	43	4365
2026-01-29 02:53:36.03	349.76	23.90	-35.8	-37.6	22.3	0.00e+00	0	44	0	936378368	43	4355
2026-01-29 02:53:37.02	349.57	24.01	-35.8	-37.6	22.3	0.00e+00	0	44	0	941621248	43	4355
2026-01-29 02:53:38.01	349.39	24.13	-35.9	-37.6	22.3	0.00e+00	0	44	0	947912704	43	4383
2026-01-29 02:53:39.01	349.20	24.24	-35.9	-37.7	22.2	0.00e+00	0	44	0	953155584	43	4407
2026-01-29 02:53:40.00	349.01	24.36	-35.9	-37.6	22.3	0.00e+00	0	44	0	958398464	43	4366
2026-01-29 02:53:41.00	348.82	24.47	-35.7	-37.3	22.5	0.00e+00	0	44	0	964689920	43	4238
2026-01-29 02:53:42.00	348.63	24.59	-35.6	-37.3	22.6	0.00e+00	0	44	0	969932800	43	4199
2026-01-29 02:53:42.99	348.43	24.70	-35.6	-37.3	22.6	0.00e+00	0	44	0	975175680	43	4230
2026-01-29 02:53:43.99	348.24	24.82	-35.5	-37.2	22.7	0.00e+00	0	44	0	981467136	43	4154
2026-01-29 02:53:44.98	348.04	24.94	-35.5	-37.1	22.7	0.00e+00	0	44	0	986710016	42	4390
2026-01-29 02:53:45.98	347.84	25.05	-35.4	-37.1	22.8	0.00e+00	0	44	0	991952896	42	4377
2026-01-29 02:53:46.97	347.64	25.17	-35.4	-37.1	22.8	0.00e+00	0	44	0	998244352	42	4376
2026-01-29 02:53:47.97	347.44	25.29	-35.5	-37.2	22.7	0.00e+00	0	44	0	1003487232	42	4399
2026-01-29 02:53:48.97	347.24	25.40	-35.5	-37.2	22.7	0.00e+00	0	44	0	1008730112	42	4394
2026-01-29 02:53:49.96	347.04	25.52	-35.5	-37.1	22.7	0.00e+00	0	44	0	1015021568	42	4388
2026-01-29 02:53:50.95	346.83	25.64	-35.5	-37.1	22.8	0.00e+00	0	44	0	1020264448	42	4383
2026-01-29 02:53:51.95	346.62	25.75	-35.4	-37.1	22.8	0.00e+00	0	44	0	1025507328	42	4362
2026-01-29 02:53:52.97	346.41	25.87	-35.4	-37.1	22.8	0.00e+00	0	44	0	1031798784	42	4348
2026-01-29 02:53:53.96	346.20	25.99	-35.5	-37.1	22.8	0.00e+00	0	44	0	1037041664	42	4379
2026-01-29 02:53:54.95	345.99	26.11	-35.5	-37.1	22.7	0.00e+00	0	44	0	1042284544	42	4386
2026-01-29 02:53:55.95	345.78	26.22	-35.5	-37.1	22.8	0.00e+00	0	44	0	1048576000	42	4370
2026-01-29 02:53:56.95	345.56	26.34	-35.4	-37.0	22.8	0.00e+00	0	44	0	1053818880	42	4331
2026-01-29 02:53:57.94	345.34	26.46	-35.3	-36.9	22.9	0.00e+00	0	44	0	1060110336	42	4271
2026-01-29 02:53:58.94	345.13	26.58	-35.1	-36.7	23.1	0.00e+00	0	44	0	1065353216	42	4171
2026-01-29 02:53:59.93	344.91	26.69	-35.0	-36.7	23.2	0.00e+00	0	44	0	1070596096	42	4161
2026-01-29 02:54:00.93	344.68	26.81	-35.1	-36.7	23.1	0.00e+00	0	44	0	1076887552	42	4183
2026-01-29 02:54:01.92	344.46	26.93	-35.0	-36.7	23.1	0.00e+00	0	44	0	1082130432	42	4175
2026-01-29 02:54:02.92	344.24	27.05	-35.0	-36.7	23.2	0.00e+00	0	44	0	1087373312	42	4162
2026-01-29 02:54:03.91	344.01	27.16	-35.1	-36.8	23.1	0.00e+00	0	44	0	1092616192	42	4196
2026-01-29 02:54:04.91	343.78	27.28	-35.1	-36.8	23.1	0.00e+00	0	44	0	1098907648	42	4216
2026-01-29 02:54:05.94	343.54	27.40	-35.1	-36.7	23.1	0.00e+00	0	44	0	1104150528	42	4193
2026-01-29 02:54:06.96	343.31	27.52	-35.3	-36.9	23.0	0.00e+00	0	44	0	1110441984	42	4277
2026-01-29 02:54:07.99	343.06	27.64	-35.2	-36.9	23.0	0.00e+00	0	44	0	1115684864	42	4250
2026-01-29 02:54:08.99	342.83	27.76	-35.1	-36.8	23.0	0.00e+00	0	44	0	1121976320	42	4210
2026-01-29 02:54:09.98	342.59	27.88	-35.2	-36.9	23.0	0.00e+00	0	44	0	1127219200	42	4255
2026-01-29 02:54:10.98	342.35	28.00	-35.1	-36.8	23.1	0.00e+00	0	44	0	1133510656	42	4206
2026-01-29 02:54:11.97	342.11	28.11	-35.2	-36.9	23.0	0.00e+00	0	44	0	1138753536	42	4246
2026-01-29 02:54:12.97	341.87	28.23	-35.1	-36.8	23.0	0.00e+00	0	44	0	1143996416	42	4217
2026-01-29 02:54:13.96	341.63	28.35	-35.2	-36.9	23.0	0.00e+00	0	44	0	1149239296	42	4258
2026-01-29 02:54:14.96	341.38	28.47	-35.0	-36.7	23.2	0.00e+00	0	44	0	1155530752	42	4147
2026-01-29 02:54:15.95	341.13	28.58	-35.0	-36.6	23.2	0.00e+00	0	44	0	1160773632	41	4380
2026-01-29 02:54:16.94	340.88	28.70	-35.1	-36.7	23.1	0.00e+00	0	44	0	1166016512	41	4432
2026-01-29 02:54:17.94	340.63	28.82	-34.9	-36.6	23.2	0.00e+00	0	44	0	1172307968	41	4361
2026-01-29 02:54:18.93	340.38	28.93	-35.0	-36.6	23.2	0.00e+00	0	44	0	1177550848	41	4368
2026-01-29 02:54:19.93	340.12	29.05	-34.8	-36.4	23.4	0.00e+00	0	44	0	1183842304	41	4270
2026-01-29 02:54:20.92	339.87	29.17	-34.8	-36.4	23.3	0.00e+00	0	44	0	1189085184	41	4275
2026-01-29 02:54:21.92	339.61	29.28	-34.8	-36.4	23.4	0.00e+00	0	44	0	1194328064	41	4291
2026-01-29 02:54:22.91	339.35	29.40	-34.9	-36.6	23.2	0.00e+00	0	44	0	1199570944	41	4352
2026-01-29 02:54:23.91	339.08	29.51	-34.9	-36.6	23.2	0.00e+00	0	44	0	1205862400	41	4366
2026-01-29 02:54:24.90	338.82	29.63	-35.0	-36.6	23.2	0.00e+00	0	44	0	1211105280	41	4379
2026-01-29 02:54:25.90	338.55	29.74	-35.0	-36.6	23.2	0.00e+00	0	44	0	1216348160	41	4391
2026-01-29 02:54:26.89	338.28	29.86	-35.0	-36.7	23.1	0.00e+00	0	44	0	1222639616	41	4409
2026-01-29 02:54:27.89	338.01	29.97	-35.0	-36.6	23.2	0.00e+00	0	44	0	1227882496	41	4382
2026-01-29 02:54:28.89	337.74	30.09	-35.0	-36.7	23.1	0.00e+00	0	44	0	1234173952	41	4410
2026-01-29 02:54:29.88	337.46	30.20	-35.1	-36.8	23.1	0.00e+00	0	44	0	1239416832	41	4452
2026-01-29 02:54:30.87	337.19	30.32	-34.9	-36.6	23.2	0.00e+00	0	44	0	1244659712	41	4362
2026-01-29 02:54:31.87	336.91	30.43	-34.9	-36.6	23.2	0.00e+00	0	44	0	1250951168	41	4349
2026-01-29 02:54:32.86	336.63	30.54	-34.9	-36.6	23.2	0.00e+00	0	44	0	1256194048	41	4375
2026-01-29 02:54:33.86	336.35	30.66	-34.9	-36.6	23.2	0.00e+00	0	44	0	1261436928	41	4364
2026-01-29 02:54:34.85	336.06	30.77	-34.9	-36.6	23.2	0.00e+00	0	44	0	1267728384	41	4343
2026-01-29 02:54:35.85	335.78	30.88	-34.7	-36.4	23.4	0.00e+00	0	44	0	1272971264	41	4249
2026-01-29 02:54:36.93	335.46	31.00	-34.7	-36.3	23.4	0.00e+00	0	44	0	1279262720	41	4228
2026-01-29 02:54:37.82	335.20	31.10	-34.6	-36.2	23.6	0.00e+00	0	44	0	1284505600	41	4172
2026-01-29 02:54:38.96	334.87	31.23	-34.7	-36.3	23.5	0.00e+00	0	44	0	1290797056	41	4211
2026-01-29 02:54:39.81	334.62	31.33	-34.7	-36.3	23.5	0.00e+00	0	44	0	1294991360	41	4237
2026-01-29 02:54:40.95	334.28	31.45	-34.6	-36.3	23.5	0.00e+00	0	44	0	1301282816	41	4208
2026-01-29 02:54:41.80	334.02	31.55	-34.7	-36.4	23.4	0.00e+00	0	44	0	1306525696	41	4253
2026-01-29 02:54:42.94	333.68	31.67	-34.7	-36.4	23.4	0.00e+00	0	44	0	1312817152	41	4243
2026-01-29 02:54:43.80	333.42	31.77	-34.7	-36.3	23.5	0.00e+00	0	44	0	1318060032	41	4231
2026-01-29 02:54:44.93	333.07	31.89	-34.6	-36.3	23.5	0.00e+00	0	44	0	1324351488	41	4202
2026-01-29 02:54:45.78	332.81	31.98	-34.6	-36.3	23.5	0.00e+00	0	44	0	1328545792	41	4225
2026-01-29 02:54:46.92	332.45	32.10	-34.6	-36.3	23.5	0.00e+00	0	44	0	1334837248	41	4200
2026-01-29 02:54:47.77	332.19	32.20	-34.6	-36.2	23.5	0.00e+00	0	44	0	1340080128	41	4185
2026-01-29 02:54:48.91	331.83	32.32	-34.6	-36.2	23.5	0.00e+00	0	44	0	1346371584	41	4174
2026-01-29 02:54:49.76	331.56	32.41	-34.6	-36.3	23.5	0.00e+00	0	44	0	1350565888	41	4203
2026-01-29 02:54:50.90	331.20	32.53	-34.7	-36.3	23.4	0.00e+00	0	44	0	1357905920	41	4218
2026-01-29 02:54:51.75	330.92	32.62	-34.7	-36.4	23.4	0.00e+00	0	44	0	1362100224	41	4251
2026-01-29 02:54:53.09	330.49	32.76	-34.8	-36.4	23.3	0.00e+00	0	44	0	1369440256	41	4276
2026-01-29 02:54:53.80	330.26	32.83	-34.5	-36.2	23.6	0.00e+00	0	44	0	1373634560	41	4152
2026-01-29 02:54:55.29	329.77	32.98	-34.5	-36.1	23.6	0.00e+00	0	44	0	1382023168	40	4371
2026-01-29 02:54:56.00	329.54	33.05	-34.4	-36.1	23.7	0.00e+00	0	44	0	1386217472	40	4349
2026-01-29 02:54:57.28	329.11	33.18	-34.5	-36.1	23.7	0.00e+00	0	44	0	1393557504	40	4351
2026-01-29 02:54:57.99	328.87	33.25	-34.5	-36.1	23.7	0.00e+00	0	44	0	1397751808	40	4356
2026-01-29 02:54:59.27	328.44	33.38	-34.6	-36.2	23.6	0.00e+00	0	44	0	1405091840	40	4421
2026-01-29 02:55:00.00	328.20	33.45	-34.6	-36.2	23.6	0.00e+00	0	44	0	1408237568	40	4408
2026-01-29 02:55:01.28	327.76	33.58	-34.6	-36.2	23.6	0.00e+00	0	44	0	1415577600	40	4420
2026-01-29 02:55:01.99	327.52	33.65	-34.5	-36.1	23.6	0.00e+00	0	44	0	1419771904	40	4382
2026-01-29 02:55:03.27	327.08	33.77	-34.6	-36.2	23.5	0.00e+00	0	44	0	1427111936	40	4425
2026-01-29 02:55:03.98	326.83	33.84	-34.6	-36.3	23.5	0.00e+00	0	44	0	1431306240	40	4449
2026-01-29 02:55:05.26	326.38	33.96	-34.7	-36.4	23.4	0.00e+00	0	44	0	1438646272	40	4508
2026-01-29 02:55:05.99	326.13	34.03	-34.6	-36.3	23.5	0.00e+00	0	44	0	1442840576	40	4464
2026-01-29 02:55:07.27	325.68	34.15	-34.5	-36.2	23.5	0.00e+00	0	44	0	1450180608	40	4414
2026-01-29 02:55:08.00	325.42	34.21	-34.4	-36.1	23.7	0.00e+00	0	44	0	1453326336	40	4367
2026-01-29 02:55:09.27	324.97	34.33	-34.5	-36.1	23.6	0.00e+00	0	44	0	1460666368	40	4390
2026-01-29 02:55:10.17	324.64	34.41	-34.4	-36.0	23.7	0.00e+00	0	44	0	1465909248	40	4338
2026-01-29 02:55:11.59	324.13	34.53	-34.4	-36.0	23.7	0.00e+00	0	44	0	1474297856	40	4313
2026-01-29 02:55:12.30	323.87	34.60	-34.3	-35.9	23.8	0.00e+00	0	44	0	1477443584	40	4272
2026-01-29 02:55:13.58	323.40	34.71	-34.2	-35.9	23.8	0.00e+00	0	44	0	1484783616	40	4255
2026-01-29 02:55:14.31	323.14	34.77	-34.2	-35.8	23.9	0.00e+00	0	44	0	1488977920	40	4231
2026-01-29 02:55:15.59	322.66	34.88	-34.4	-36.0	23.7	0.00e+00	0	44	0	1496317952	40	4334
2026-01-29 02:55:16.31	322.40	34.94	-34.4	-36.1	23.7	0.00e+00	0	44	0	1500512256	40	4347
2026-01-29 02:55:17.60	321.92	35.04	-34.2	-35.8	23.9	0.00e+00	0	44	0	1507852288	40	4229
2026-01-29 02:55:18.31	321.65	35.10	-34.1	-35.8	23.9	0.00e+00	0	44	0	1512046592	40	4197
2026-01-29 02:55:19.59	321.17	35.20	-34.3	-35.9	23.8	0.00e+00	0	44	0	1519386624	40	4276
2026-01-29 02:55:20.50	320.82	35.27	-34.4	-36.0	23.7	0.00e+00	0	44	0	1523580928	40	4335
2026-01-29 02:55:21.50	320.44	35.35	-34.4	-36.1	23.6	0.00e+00	0	44	0	1529872384	40	4361
2026-01-29 02:55:22.49	320.06	35.42	-34.4	-36.1	23.7	0.00e+00	0	44	0	1535115264	40	4357
2026-01-29 02:55:23.49	319.68	35.49	-34.5	-36.1	23.6	0.00e+00	0	44	0	1540358144	40	4379
2026-01-29 02:55:24.48	319.30	35.57	-34.5	-36.2	23.5	0.00e+00	0	44	0	1546649600	40	4400
2026-01-29 02:55:25.48	318.91	35.64	-34.6	-36.2	23.5	0.00e+00	0	44	0	1551892480	40	4418
2026-01-29 02:55:26.47	318.53	35.71	-34.6	-36.3	23.5	0.00e+00	0	44	0	1558183936	40	4459
2026-01-29 02:55:27.47	318.13	35.78	-34.6	-36.2	23.5	0.00e+00	0	44	0	1563426816	40	4431
2026-01-29 02:55:28.47	317.74	35.84	-34.4	-36.1	23.7	0.00e+00	0	44	0	1568669696	40	4347
2026-01-29 02:55:29.46	317.35	35.91	-34.2	-35.8	23.9	0.00e+00	0	44	0	1573912576	40	4205
2026-01-29 02:55:30.46	316.96	35.97	-34.2	-35.8	23.9	0.00e+00	0	44	0	1580204032	40	4213
2026-01-29 02:55:31.45	316.56	36.04	-34.2	-35.8	23.8	0.00e+00	0	44	0	1585446912	40	4234
2026-01-29 02:55:32.56	316.12	36.11	-34.3	-35.9	23.7	0.00e+00	0	44	0	1591738368	40	4286
2026-01-29 02:55:33.42	315.78	36.16	-34.4	-36.0	23.7	0.00e+00	0	44	0	1596981248	40	4306
2026-01-29 02:55:34.55	315.32	36.22	-34.5	-36.1	23.6	0.00e+00	0	44	0	1603272704	40	4370
2026-01-29 02:55:35.41	314.98	36.27	-34.3	-35.9	23.8	0.00e+00	0	44	0	1607467008	40	4290
2026-01-29 02:55:36.54	314.52	36.34	-34.3	-35.9	23.8	0.00e+00	0	44	0	1613758464	40	4277
2026-01-29 02:55:37.40	314.17	36.38	-34.3	-35.9	23.8	0.00e+00	0	44	0	1619001344	40	4290
2026-01-29 02:55:38.53	313.71	36.44	-34.2	-35.8	23.9	0.00e+00	0	44	0	1625292800	40	4203
2026-01-29 02:55:39.39	313.36	36.49	-34.2	-35.8	23.9	0.00e+00	0	44	0	1630535680	40	4217
2026-01-29 02:55:40.52	312.89	36.54	-34.3	-35.9	23.8	0.00e+00	0	44	0	1636827136	40	4283
2026-01-29 02:55:41.38	312.54	36.58	-34.3	-35.9	23.8	0.00e+00	0	44	0	1642070016	40	4282
2026-01-29 02:55:42.51	312.07	36.64	-34.3	-35.9	23.8	0.00e+00	0	44	0	1647312896	40	4267
2026-01-29 02:55:43.37	311.72	36.67	-34.4	-36.0	23.7	0.00e+00	0	44	0	1652555776	40	4317
2026-01-29 02:55:44.50	311.25	36.72	-34.3	-35.9	23.7	0.00e+00	0	44	0	1658847232	40	4278
2026-01-29 02:55:45.36	310.89	36.76	-34.3	-35.9	23.8	0.00e+00	0	44	0	1664090112	40	4276
2026-01-29 02:55:46.60	310.38	36.81	-34.4	-36.0	23.7	0.00e+00	0	44	0	1670381568	40	4310
2026-01-29 02:55:47.45	310.02	36.84	-34.4	-36.1	23.7	0.00e+00	0	44	0	1675624448	40	4360
2026-01-29 02:55:48.59	309.54	36.88	-34.2	-35.8	23.8	0.00e+00	0	44	0	1681915904	40	4242
2026-01-29 02:55:49.45	309.18	36.91	-34.1	-35.7	23.9	0.00e+00	0	44	0	1687158784	40	4175
2026-01-29 02:55:50.58	308.71	36.95	-34.1	-35.7	24.1	0.00e+00	0	44	0	1693450240	39	4392
2026-01-29 02:55:51.44	308.34	36.97	-34.2	-35.9	23.9	0.00e+00	0	44	0	1697644544	39	4494
2026-01-29 02:55:52.57	307.87	37.01	-34.5	-36.1	23.7	0.00e+00	0	44	0	1704984576	39	4621
2026-01-29 02:55:53.42	307.51	37.03	-34.6	-36.2	23.6	0.00e+00	0	44	0	1709178880	39	4696
2026-01-29 02:55:54.56	307.03	37.06	-34.6	-36.2	23.5	0.00e+00	0	44	0	1715470336	40	4440
2026-01-29 02:55:55.41	306.66	37.08	-34.7	-36.3	23.4	0.00e+00	0	44	0	1720713216	40	4476
2026-01-29 02:55:56.55	306.18	37.11	-34.5	-36.2	23.5	0.00e+00	0	44	0	1727004672	40	4396
2026-01-29 02:55:57.40	305.82	37.12	-34.4	-36.0	23.7	0.00e+00	0	44	0	1731198976	40	4330
2026-01-29 02:55:58.54	305.33	37.14	-34.4	-36.0	23.7	0.00e+00	0	44	0	1738539008	40	4333
2026-01-29 02:55:59.39	304.97	37.16	-34.5	-36.1	23.6	0.00e+00	0	44	0	1742733312	40	4385
2026-01-29 02:56:00.59	304.46	37.18	-34.6	-36.3	23.5	0.00e+00	0	44	0	1750073344	40	4452
2026-01-29 02:56:01.45	304.09	37.19	-34.6	-36.2	23.5	0.00e+00	0	44	0	1754267648	40	4428
2026-01-29 02:56:02.58	303.61	37.20	-34.5	-36.1	23.6	0.00e+00	0	44	0	1760559104	40	4385
2026-01-29 02:56:03.44	303.24	37.21	-34.3	-36.0	23.7	0.00e+00	0	44	0	1765801984	40	4294
2026-01-29 02:56:04.70	302.70	37.22	-34.2	-35.8	23.8	0.00e+00	0	44	0	1773142016	40	4239
2026-01-29 02:56:05.50	302.36	37.22	-34.2	-35.8	23.8	0.00e+00	0	44	0	1777336320	40	4236
2026-01-29 02:56:06.64	301.87	37.23	-34.4	-36.0	23.7	0.00e+00	0	44	0	1783627776	40	4319
2026-01-29 02:56:07.49	301.50	37.23	-34.3	-36.0	23.7	0.00e+00	0	44	0	1788870656	40	4299
2026-01-29 02:56:08.63	301.01	37.23	-34.3	-35.9	23.8	0.00e+00	0	44	0	1795162112	40	4262
2026-01-29 02:56:09.48	300.65	37.23	-34.2	-35.8	23.9	0.00e+00	0	44	0	1799356416	40	4213
2026-01-29 02:56:10.62	300.16	37.23	-34.4	-36.1	23.7	0.00e+00	0	44	0	1805647872	40	4342
2026-01-29 02:56:11.47	299.80	37.22	-34.6	-36.2	23.6	0.00e+00	0	44	0	1810890752	40	4418
2026-01-29 02:56:12.61	299.31	37.21	-34.5	-36.2	23.5	0.00e+00	0	44	0	1817182208	40	4408
2026-01-29 02:56:13.47	298.94	37.21	-34.4	-36.0	23.7	0.00e+00	0	44	0	1821376512	40	4317
2026-01-29 02:56:14.60	298.46	37.20	-34.2	-35.8	23.8	0.00e+00	0	44	0	1828716544	40	4225
2026-01-29 02:56:15.46	298.09	37.18	-34.3	-35.9	23.8	0.00e+00	0	44	0	1832910848	40	4269
2026-01-29 02:56:16.59	297.61	37.17	-34.4	-36.0	23.7	0.00e+00	0	44	0	1839202304	40	4306
2026-01-29 02:56:17.79	297.09	37.15	-34.3	-35.9	23.8	0.00e+00	0	44	0	1846542336	40	4262
2026-01-29 02:56:18.82	296.65	37.13	-34.2	-35.8	23.9	0.00e+00	0	44	0	1851785216	40	4200
2026-01-29 02:56:20.00	296.15	37.11	-34.2	-35.8	23.8	0.00e+00	0	44	0	1859125248	40	4224
2026-01-29 02:56:20.85	295.79	37.09	-34.3	-36.0	23.7	0.00e+00	0	44	0	1863319552	40	4293
2026-01-29 02:56:21.99	295.31	37.06	-34.2	-35.9	23.8	0.00e+00	0	44	0	1869611008	40	4243
2026-01-29 02:56:22.84	294.95	37.04	-34.3	-35.9	23.7	0.00e+00	0	44	0	1874853888	40	4257
2026-01-29 02:56:24.23	294.36	37.00	-34.3	-35.9	23.7	0.00e+00	0	44	0	1882193920	40	4287
2026-01-29 02:56:24.94	294.06	36.98	-34.3	-35.9	23.7	0.00e+00	0	44	0	1886388224	40	4281
2026-01-29 02:56:26.42	293.43	36.93	-34.2	-35.8	23.8	0.00e+00	0	44	0	1894776832	40	4237
2026-01-29 02:56:27.13	293.13	36.91	-34.4	-36.0	23.7	0.00e+00	0	44	0	1898971136	40	4326
2026-01-29 02:56:28.48	292.57	36.86	-34.6	-36.2	23.6	0.00e+00	0	44	0	1906311168	40	4428
2026-01-29 02:56:29.19	292.27	36.84	-34.4	-36.1	23.7	0.00e+00	0	44	0	1910505472	40	4347
2026-01-29 02:56:30.47	291.73	36.79	-34.4	-36.0	23.7	0.00e+00	0	44	0	1917845504	40	4317
2026-01-29 02:56:31.19	291.43	36.76	-34.4	-36.1	23.6	0.00e+00	0	44	0	1922039808	40	4348
2026-01-29 02:56:32.53	290.88	36.70	-34.5	-36.2	23.6	0.00e+00	0	44	0	1929379840	40	4395
2026-01-29 02:56:33.24	290.58	36.67	-34.5	-36.2	23.6	0.00e+00	0	44	0	1933574144	40	4393
2026-01-29 02:56:34.52	290.05	36.62	-34.3	-35.9	23.8	0.00e+00	0	44	0	1940914176	40	4271
2026-01-29 02:56:35.25	289.75	36.58	-34.3	-36.0	23.7	0.00e+00	0	44	0	1944059904	40	4298
2026-01-29 02:56:36.62	289.19	36.51	-34.3	-35.9	23.8	0.00e+00	0	44	0	1952448512	40	4271
2026-01-29 02:56:37.33	288.90	36.48	-34.2	-35.8	23.8	0.00e+00	0	44	0	1956642816	40	4230
2026-01-29 02:56:38.68	288.34	36.41	-34.2	-35.8	23.9	0.00e+00	0	44	0	1963982848	40	4204
2026-01-29 02:56:39.67	287.94	36.36	-34.0	-35.6	24.0	0.00e+00	0	44	0	1969225728	40	4145
2026-01-29 02:56:40.98	287.41	36.28	-34.1	-35.7	24.0	0.00e+00	0	44	0	1976565760	39	4411
2026-01-29 02:56:41.72	287.11	36.24	-34.0	-35.6	24.1	0.00e+00	0	44	0	1980760064	39	4363
2026-01-29 02:56:43.00	286.60	36.17	-34.1	-35.7	24.0	0.00e+00	0	44	0	1988100096	39	4408
2026-01-29 02:56:43.74	286.30	36.12	-34.1	-35.7	24.0	0.00e+00	0	44	0	1992294400	39	4428
2026-01-29 02:56:45.02	285.79	36.04	-34.3	-35.9	23.8	0.00e+00	0	44	0	1999634432	39	4535
2026-01-29 02:56:45.74	285.50	36.00	-34.5	-36.1	23.7	0.00e+00	0	44	0	2003828736	39	4633
2026-01-29 02:56:47.01	285.00	35.92	-34.4	-36.0	23.7	0.00e+00	0	44	0	2010120192	39	4575
2026-01-29 02:56:47.75	284.70	35.87	-34.4	-36.1	23.7	0.00e+00	0	44	0	2014314496	39	4602
2026-01-29 02:56:49.03	284.20	35.78	-34.3	-35.9	23.8	0.00e+00	0	44	0	2021654528	39	4521
2026-01-29 02:56:49.76	283.91	35.73	-34.3	-35.9	23.9	0.00e+00	0	44	0	2025848832	39	4512
2026-01-29 02:56:51.04	283.41	35.64	-34.3	-35.9	23.8	0.00e+00	0	44	0	2033188864	39	4524
2026-01-29 02:56:51.75	283.14	35.59	-34.4	-36.0	23.8	0.00e+00	0	44	0	2037383168	39	4589
2026-01-29 02:56:53.02	282.65	35.50	-34.4	-36.0	23.8	0.00e+00	0	44	0	2044723200	39	4583
2026-01-29 02:56:53.76	282.36	35.44	-34.2	-35.9	23.9	0.00e+00	0	44	0	2048917504	39	4495
2026-01-29 02:56:55.04	281.87	35.35	-34.0	-35.6	24.1	0.00e+00	0	44	0	2056257536	39	4353
2026-01-29 02:56:55.78	281.59	35.29	-33.9	-35.4	24.2	0.00e+00	0	44	0	2060451840	39	4290
2026-01-29 02:56:57.25	281.03	35.18	-33.9	-35.5	24.1	0.00e+00	0	44	0	2067791872	39	4325
2026-01-29 02:56:57.96	280.76	35.12	-34.1	-35.7	24.0	0.00e+00	0	44	0	2071986176	39	4436
2026-01-29 02:56:59.24	280.28	35.02	-34.1	-35.7	24.0	0.00e+00	0	44	0	2079326208	39	4411
2026-01-29 02:56:59.95	280.02	34.96	-34.1	-35.7	24.0	0.00e+00	0	44	0	2083520512	39	4428
2026-01-29 02:57:01.23	279.54	34.85	-34.1	-35.7	24.1	0.00e+00	0	44	0	2090860544	39	4401
2026-01-29 02:57:01.94	279.28	34.79	-34.0	-35.6	24.1	0.00e+00	0	44	0	2095054848	39	4369
2026-01-29 02:57:03.22	278.81	34.68	-34.2	-35.8	24.0	0.00e+00	0	44	0	2102394880	39	4452
2026-01-29 02:57:03.93	278.55	34.62	-34.3	-35.9	23.9	0.00e+00	0	44	0	2105540608	39	4512
2026-01-29 02:57:05.21	278.08	34.51	-34.3	-35.9	23.9	0.00e+00	0	44	0	2112880640	39	4501
2026-01-29 02:57:05.92	277.82	34.45	-34.2	-35.9	23.9	0.00e+00	0	44	0	2117074944	39	4498
2026-01-29 02:57:07.21	277.36	34.33	-34.4	-36.0	23.7	0.00e+00	0	44	0	2124414976	39	4586
2026-01-29 02:57:07.93	277.10	34.27	-34.4	-36.0	23.8	0.00e+00	0	44	0	2128609280	39	4573
2026-01-29 02:57:09.21	276.64	34.15	-34.2	-35.8	23.9	0.00e+00	0	44	0	2135949312	39	4485
2026-01-29 02:57:10.08	276.34	34.07	-34.1	-35.7	24.0	0.00e+00	0	44	0	2140143616	39	4438
2026-01-29 02:57:11.50	275.84	33.94	-33.9	-35.5	24.2	0.00e+00	0	44	0	2148532224	39	4323
2026-01-29 02:57:12.21	275.59	33.87	-33.8	-35.4	24.3	0.00e+00	0	44	0	2152726528	39	4259
2026-01-29 02:57:13.49	275.14	33.75	-33.9	-35.5	24.2	0.00e+00	0	44	0	2160066560	39	4328
2026-01-29 02:57:14.20	274.90	33.68	-34.0	-35.6	24.1	0.00e+00	0	44	0	2163212288	39	4359
2026-01-29 02:57:15.75	274.37	33.53	-34.1	-35.8	24.0	0.00e+00	0	44	0	2172649472	39	4447
2026-01-29 02:57:16.73	274.03	33.43	-34.1	-35.7	24.0	0.00e+00	0	44	0	2177892352	39	4433
2026-01-29 02:57:17.72	273.70	33.34	-34.0	-35.6	24.1	0.00e+00	0	44	0	2183135232	39	4373
2026-01-29 02:57:18.72	273.36	33.24	-34.1	-35.7	24.0	0.00e+00	0	44	0	2189426688	39	4397
2026-01-29 02:57:19.71	273.03	33.14	-34.1	-35.7	24.0	0.00e+00	0	44	0	2194669568	39	4438
2026-01-29 02:57:20.71	272.70	33.03	-34.2	-35.8	24.0	0.00e+00	0	44	0	2199912448	39	4452
2026-01-29 02:57:21.70	272.37	32.93	-34.2	-35.8	24.0	0.00e+00	0	44	0	2206203904	39	4455
2026-01-29 02:57:22.70	272.04	32.83	-34.2	-35.8	23.9	0.00e+00	0	44	0	2211446784	39	4482
2026-01-29 02:57:23.69	271.72	32.73	-34.2	-35.8	23.9	0.00e+00	0	44	0	2216689664	39	4469
2026-01-29 02:57:24.74	271.38	32.62	-34.2	-35.8	23.9	0.00e+00	0	44	0	2222981120	39	4484
2026-01-29 02:57:25.71	271.06	32.52	-34.3	-36.0	23.8	0.00e+00	0	44	0	2228224000	39	4547
2026-01-29 02:57:26.79	270.72	32.40	-34.4	-36.0	23.8	0.00e+00	0	44	0	2234515456	39	4558
2026-01-29 02:57:27.64	270.45	32.31	-34.3	-35.9	23.8	0.00e+00	0	44	0	2238709760	39	4523
2026-01-29 02:57:28.99	270.02	32.17	-34.4	-36.1	23.7	0.00e+00	0	44	0	2247098368	39	4603
2026-01-29 02:57:29.70	269.80	32.09	-34.4	-36.0	23.7	0.00e+00	0	44	0	2250244096	39	4598
2026-01-29 02:57:30.98	269.40	31.95	-34.4	-36.1	23.7	0.00e+00	0	44	0	2257584128	39	4600
2026-01-29 02:57:31.71	269.18	31.87	-34.5	-36.1	23.7	0.00e+00	0	44	0	2261778432	39	4630
2026-01-29 02:57:32.99	268.78	31.73	-34.5	-36.1	23.6	0.00e+00	0	44	0	2269118464	39	4634
2026-01-29 02:57:33.70	268.57	31.65	-34.5	-36.1	23.6	0.00e+00	0	44	0	2273312768	39	4639
2026-01-29 02:57:34.98	268.18	31.51	-34.4	-36.0	23.7	0.00e+00	0	44	0	2280652800	39	4585
2026-01-29 02:57:35.69	267.96	31.43	-34.4	-36.0	23.7	0.00e+00	0	44	0	2284847104	39	4595
2026-01-29 02:57:36.97	267.58	31.29	-34.4	-36.0	23.8	0.00e+00	0	44	0	2292187136	39	4567
2026-01-29 02:57:37.70	267.36	31.21	-34.4	-36.0	23.8	0.00e+00	0	44	0	2295332864	39	4574
2026-01-29 02:57:38.97	266.99	31.07	-34.5	-36.1	23.7	0.00e+00	0	44	0	2302672896	39	4633
2026-01-29 02:57:39.68	266.78	30.99	-34.6	-36.3	23.5	0.00e+00	0	44	0	2306867200	39	4711
2026-01-29 02:57:40.96	266.41	30.84	-34.5	-36.2	23.6	0.00e+00	0	44	0	2314207232	39	4652
2026-01-29 02:57:41.67	266.21	30.76	-34.6	-36.3	23.5	0.00e+00	0	44	0	2318401536	39	4708
2026-01-29 02:57:43.06	265.81	30.60	-34.5	-36.1	23.6	0.00e+00	0	44	0	2325741568	39	4624
2026-01-29 02:57:43.77	265.60	30.52	-34.4	-36.0	23.7	0.00e+00	0	44	0	2329935872	39	4585
2026-01-29 02:57:45.09	265.23	30.37	-34.5	-36.1	23.7	0.00e+00	0	44	0	2337275904	39	4635
2026-01-29 02:57:46.05	264.96	30.26	-34.5	-36.1	23.5	0.00e+00	0	44	0	2342518784	40	4380
2026-01-29 02:57:47.04	264.69	30.15	-34.6	-36.2	23.5	0.00e+00	0	44	0	2348810240	40	4437
2026-01-29 02:57:48.04	264.41	30.03	-34.4	-36.0	23.6	0.00e+00	0	44	0	2354053120	40	4323
2026-01-29 02:57:49.03	264.14	29.92	-34.2	-35.8	23.9	0.00e+00	0	44	0	2359296000	40	4211
2026-01-29 02:57:50.03	263.87	29.80	-34.2	-35.8	23.9	0.00e+00	0	44	0	2365587456	40	4221
2026-01-29 02:57:51.03	263.60	29.69	-34.3	-35.9	23.8	0.00e+00	0	44	0	2370830336	40	4273
2026-01-29 02:57:52.02	263.33	29.57	-34.5	-36.1	23.6	0.00e+00	0	44	0	2376073216	40	4362
2026-01-29 02:57:53.01	263.07	29.45	-34.5	-36.2	23.6	0.00e+00	0	44	0	2381316096	40	4394
2026-01-29 02:57:54.01	262.80	29.34	-34.5	-36.2	23.5	0.00e+00	0	44	0	2387607552	40	4402
2026-01-29 02:57:55.00	262.54	29.22	-34.5	-36.1	23.6	0.00e+00	0	44	0	2392850432	40	4372
2026-01-29 02:57:56.00	262.28	29.10	-34.5	-36.1	23.5	0.00e+00	0	44	0	2399141888	40	4383
2026-01-29 02:57:56.99	262.03	28.99	-34.5	-36.2	23.5	0.00e+00	0	44	0	2404384768	40	4397
2026-01-29 02:57:57.99	261.77	28.87	-34.5	-36.1	23.6	0.00e+00	0	44	0	2409627648	40	4378
2026-01-29 02:57:58.98	261.52	28.75	-34.5	-36.2	23.5	0.00e+00	0	44	0	2415919104	40	4395
2026-01-29 02:57:59.98	261.26	28.64	-34.4	-36.0	23.6	0.00e+00	0	44	0	2421161984	40	4331
2026-01-29 02:58:00.97	261.02	28.52	-34.4	-36.0	23.7	0.00e+00	0	44	0	2426404864	40	4296
2026-01-29 02:58:01.97	260.77	28.40	-34.3	-35.9	23.7	0.00e+00	0	44	0	2432696320	40	4274
2026-01-29 02:58:02.96	260.52	28.28	-34.4	-36.0	23.6	0.00e+00	0	44	0	2437939200	40	4338
2026-01-29 02:58:03.95	260.28	28.17	-34.6	-36.2	23.5	0.00e+00	0	44	0	2443182080	40	4400
2026-01-29 02:58:04.95	260.03	28.05	-34.7	-36.3	23.4	0.00e+00	0	44	0	2449473536	40	4471
2026-01-29 02:58:05.94	259.79	27.93	-34.7	-36.3	23.3	0.00e+00	0	44	0	2454716416	40	4493
2026-01-29 02:58:06.99	259.54	27.81	-34.5	-36.2	23.5	0.00e+00	0	44	0	2461007872	40	4406
2026-01-29 02:58:07.96	259.31	27.69	-34.4	-36.1	23.6	0.00e+00	0	44	0	2466250752	40	4344
2026-01-29 02:58:08.95	259.07	27.57	-34.5	-36.1	23.6	0.00e+00	0	44	0	2471493632	40	4390
2026-01-29 02:58:09.95	258.84	27.46	-34.5	-36.2	23.5	0.00e+00	0	44	0	2476736512	40	4394
2026-01-29 02:58:10.95	258.61	27.34	-34.6	-36.2	23.5	0.00e+00	0	44	0	2483027968	40	4425
2026-01-29 02:58:11.94	258.38	27.22	-34.7	-36.3	23.4	0.00e+00	0	44	0	2488270848	40	4481
2026-01-29 02:58:12.93	258.15	27.10	-34.7	-36.4	23.3	0.00e+00	0	44	0	2493513728	40	4501
2026-01-29 02:58:13.93	257.92	26.98	-34.8	-36.4	23.3	0.00e+00	0	44	0	2499805184	40	4541
2026-01-29 02:58:14.92	257.70	26.87	-34.8	-36.4	23.3	0.00e+00	0	44	0	2505048064	40	4523
2026-01-29 02:58:15.92	257.47	26.75	-34.8	-36.4	23.2	0.00e+00	0	44	0	2511339520	40	4538
2026-01-29 02:58:16.91	257.25	26.63	-34.8	-36.5	23.2	0.00e+00	0	44	0	2516582400	40	4554
2026-01-29 02:58:17.90	257.03	26.51	-34.8	-36.4	23.2	0.00e+00	0	44	0	2521825280	40	4543
2026-01-29 02:58:18.90	256.81	26.39	-34.8	-36.4	23.3	0.00e+00	0	44	0	2527068160	40	4531
2026-01-29 02:58:19.89	256.60	26.28	-34.8	-36.4	23.3	0.00e+00	0	44	0	2533359616	40	4538
2026-01-29 02:58:20.89	256.38	26.16	-34.9	-36.5	23.2	0.00e+00	0	44	0	2538602496	40	4594
2026-01-29 02:58:21.96	256.15	26.03	-35.0	-36.7	23.1	0.00e+00	0	44	0	2544893952	40	4652
2026-01-29 02:58:22.81	255.97	25.93	-35.0	-36.6	23.1	0.00e+00	0	44	0	2549088256	40	4648
2026-01-29 02:58:23.95	255.73	25.80	-35.3	-36.9	22.9	0.00e+00	0	44	0	2555379712	41	4530
2026-01-29 02:58:24.81	255.55	25.70	-35.2	-36.9	22.9	0.00e+00	0	44	0	2560622592	41	4495
2026-01-29 02:58:25.94	255.31	25.56	-35.3	-37.0	22.8	0.00e+00	0	44	0	2566914048	41	4547
2026-01-29 02:58:26.80	255.13	25.46	-35.2	-36.8	22.9	0.00e+00	0	44	0	2572156928	41	4492
2026-01-29 02:58:27.94	254.90	25.33	-35.1	-36.8	23.0	0.00e+00	0	44	0	2578448384	41	4455
2026-01-29 02:58:28.79	254.72	25.23	-35.3	-36.9	22.8	0.00e+00	0	44	0	2583691264	41	4529
2026-01-29 02:58:29.92	254.50	25.09	-35.3	-37.0	22.8	0.00e+00	0	44	0	2589982720	41	4563
2026-01-29 02:58:30.78	254.32	24.99	-35.2	-36.9	22.8	0.00e+00	0	44	0	2594177024	41	4507
2026-01-29 02:58:31.91	254.10	24.86	-35.4	-37.1	22.7	0.00e+00	0	44	0	2600468480	41	4609
2026-01-29 02:58:32.77	253.93	24.76	-35.4	-37.1	22.7	0.00e+00	0	44	0	2605711360	41	4639
2026-01-29 02:58:34.02	253.68	24.61	-35.5	-37.2	22.6	0.00e+00	0	44	0	2613051392	41	4672
2026-01-29 02:58:34.87	253.52	24.51	-35.4	-37.1	22.6	0.00e+00	0	44	0	2617245696	41	4636
2026-01-29 02:58:36.01	253.30	24.38	-35.4	-37.1	22.6	0.00e+00	0	44	0	2623537152	41	4622
2026-01-29 02:58:36.86	253.13	24.28	-35.4	-37.1	22.7	0.00e+00	0	44	0	2628780032	41	4600
2026-01-29 02:58:38.00	252.92	24.15	-35.5	-37.2	22.6	0.00e+00	0	44	0	2635071488	41	4653
2026-01-29 02:58:38.85	252.75	24.05	-35.3	-36.9	22.8	0.00e+00	0	44	0	2639265792	41	4529
2026-01-29 02:58:39.99	252.54	23.92	-35.2	-36.9	22.8	0.00e+00	0	44	0	2646605824	41	4502
2026-01-29 02:58:40.84	252.38	23.82	-35.3	-37.0	22.7	0.00e+00	0	44	0	2650800128	41	4548
2026-01-29 02:58:41.98	252.17	23.69	-35.1	-36.8	22.9	0.00e+00	0	44	0	2657091584	41	4460
2026-01-29 02:58:42.83	252.01	23.59	-35.2	-36.9	22.9	0.00e+00	0	44	0	2662334464	41	4507
2026-01-29 02:58:43.96	251.81	23.46	-35.2	-36.9	22.9	0.00e+00	0	44	0	2668625920	41	4505
2026-01-29 02:58:44.82	251.65	23.36	-35.3	-36.9	22.8	0.00e+00	0	44	0	2672820224	41	4545
2026-01-29 02:58:45.95	251.45	23.23	-35.4	-37.0	22.7	0.00e+00	0	44	0	2680160256	41	4585
2026-01-29 02:58:46.81	251.30	23.13	-35.4	-37.0	22.7	0.00e+00	0	44	0	2684354560	41	4597
2026-01-29 02:58:48.02	251.08	23.00	-35.5	-37.2	22.6	0.00e+00	0	44	0	2691694592	41	4665
2026-01-29 02:58:48.88	250.93	22.90	-35.5	-37.2	22.6	0.00e+00	0	44	0	2695888896	41	4662
2026-01-29 02:58:50.01	250.73	22.77	-35.6	-37.3	22.5	0.00e+00	0	44	0	2702180352	41	4731
2026-01-29 02:58:50.87	250.59	22.67	-35.5	-37.1	22.6	0.00e+00	0	44	0	2707423232	41	4637
2026-01-29 02:58:52.00	250.39	22.54	-35.5	-37.1	22.6	0.00e+00	0	44	0	2713714688	41	4648
2026-01-29 02:58:52.86	250.24	22.45	-35.5	-37.1	22.6	0.00e+00	0	44	0	2718957568	41	4642
2026-01-29 02:58:53.99	250.05	22.32	-35.3	-36.9	22.8	0.00e+00	0	44	0	2725249024	41	4544
2026-01-29 02:58:54.84	249.91	22.22	-35.3	-37.0	22.7	0.00e+00	0	44	0	2729443328	41	4551
2026-01-29 02:58:55.98	249.72	22.09	-35.3	-37.0	22.7	0.00e+00	0	44	0	2735734784	41	4556
2026-01-29 02:58:56.83	249.58	22.00	-35.3	-37.0	22.7	0.00e+00	0	44	0	2740977664	41	4548
2026-01-29 02:58:57.97	249.39	21.87	-35.4	-37.1	22.6	0.00e+00	0	44	0	2747269120	41	4622
2026-01-29 02:58:58.82	249.25	21.78	-35.4	-37.1	22.6	0.00e+00	0	44	0	2752512000	41	4615
2026-01-29 02:58:59.96	249.07	21.65	-35.3	-36.9	22.8	0.00e+00	0	44	0	2758803456	41	4522
2026-01-29 02:59:00.82	248.93	21.55	-35.4	-37.0	22.7	0.00e+00	0	44	0	2762997760	41	4593
2026-01-29 02:59:01.95	248.75	21.43	-35.4	-37.0	22.7	0.00e+00	0	44	0	2769289216	41	4579
2026-01-29 02:59:02.80	248.62	21.33	-35.4	-37.0	22.7	0.00e+00	0	44	0	2774532096	41	4585
2026-01-29 02:59:03.94	248.44	21.21	-35.4	-37.1	22.6	0.00e+00	0	44	0	2780823552	41	4616
2026-01-29 02:59:04.79	248.30	21.11	-35.4	-37.1	22.6	0.00e+00	0	44	0	2786066432	41	4610
2026-01-29 02:59:05.93	248.13	20.99	-35.5	-37.1	22.6	0.00e+00	0	44	0	2792357888	41	4648
2026-01-29 02:59:06.78	247.99	20.90	-35.4	-37.0	22.7	0.00e+00	0	44	0	2796552192	41	4596
2026-01-29 02:59:07.91	247.82	20.77	-35.4	-37.1	22.6	0.00e+00	0	44	0	2802843648	41	4627
2026-01-29 02:59:08.76	247.69	20.68	-35.5	-37.2	22.5	0.00e+00	0	44	0	2808086528	41	4655
2026-01-29 02:59:09.90	247.52	20.55	-35.6	-37.2	22.4	0.00e+00	0	44	0	2814377984	41	4703
2026-01-29 02:59:10.75	247.39	20.46	-35.5	-37.2	22.5	0.00e+00	0	44	0	2819620864	41	4678
2026-01-29 02:59:11.89	247.22	20.34	-35.6	-37.3	22.4	0.00e+00	0	44	0	2825912320	41	4725
2026-01-29 02:59:12.74	247.10	20.25	-35.7	-37.4	22.3	0.00e+00	0	44	0	2830106624	42	4533
2026-01-29 02:59:13.91	246.93	20.12	-35.7	-37.4	22.3	0.00e+00	0	44	0	2836398080	42	4528
2026-01-29 02:59:14.76	246.80	20.03	-35.7	-37.4	22.3	0.00e+00	0	44	0	2841640960	42	4522
2026-01-29 02:59:15.90	246.64	19.91	-35.9	-37.5	22.2	0.00e+00	0	44	0	2847932416	42	4593
2026-01-29 02:59:16.75	246.52	19.81	-35.8	-37.5	22.2	0.00e+00	0	44	0	2853175296	42	4553
2026-01-29 02:59:17.98	246.34	19.68	-35.8	-37.5	22.2	0.00e+00	0	44	0	2859466752	42	4586
2026-01-29 02:59:18.83	246.22	19.59	-35.9	-37.6	22.1	0.00e+00	0	44	0	2864709632	42	4609
2026-01-29 02:59:20.02	246.05	19.47	-36.0	-37.7	22.1	0.00e+00	0	44	0	2871001088	42	4657
2026-01-29 02:59:20.87	245.94	19.38	-35.9	-37.6	22.1	0.00e+00	0	44	0	2876243968	42	4611
2026-01-29 02:59:22.04	245.77	19.25	-35.9	-37.5	22.2	0.00e+00	0	44	0	2882535424	42	4592
2026-01-29 02:59:22.89	245.66	19.16	-35.9	-37.6	22.2	0.00e+00	0	44	0	2887778304	42	4600
2026-01-29 02:59:24.03	245.50	19.04	-35.9	-37.6	22.1	0.00e+00	0	44	0	2894069760	42	4607
2026-01-29 02:59:24.88	245.39	18.95	-35.9	-37.6	22.2	0.00e+00	0	44	0	2898264064	42	4603
2026-01-29 02:59:26.02	245.23	18.83	-35.9	-37.6	22.1	0.00e+00	0	44	0	2905604096	42	4618
2026-01-29 02:59:26.87	245.12	18.75	-35.9	-37.6	22.1	0.00e+00	0	44	0	2909798400	42	4635
2026-01-29 02:59:28.01	244.97	18.63	-36.0	-37.7	22.0	0.00e+00	0	44	0	2916089856	42	4690
2026-01-29 02:59:28.86	244.86	18.54	-36.0	-37.7	22.0	0.00e+00	0	44	0	2921332736	42	4696
2026-01-29 02:59:30.00	244.71	18.42	-36.0	-37.7	22.0	0.00e+00	0	44	0	2927624192	42	4684
2026-01-29 02:59:30.85	244.60	18.33	-36.2	-37.9	21.9	0.00e+00	0	44	0	2931818496	42	4763
2026-01-29 02:59:31.99	244.45	18.21	-36.1	-37.8	21.9	0.00e+00	0	44	0	2939158528	42	4756
2026-01-29 02:59:32.84	244.34	18.13	-36.3	-38.0	21.8	0.00e+00	0	44	0	2943352832	43	4561
2026-01-29 02:59:33.98	244.19	18.01	-36.2	-37.9	21.8	0.00e+00	0	44	0	2949644288	43	4536
2026-01-29 02:59:34.83	244.09	17.92	-36.4	-38.1	21.7	0.00e+00	0	44	0	2954887168	43	4616
2026-01-29 02:59:36.05	243.93	17.80	-36.4	-38.1	21.7	0.00e+00	0	44	0	2961178624	43	4606
2026-01-29 02:59:36.90	243.83	17.71	-36.5	-38.2	21.6	0.00e+00	0	44	0	2966421504	43	4662
2026-01-29 02:59:38.11	243.68	17.59	-36.4	-38.1	21.6	0.00e+00	0	44	0	2972712960	43	4636
2026-01-29 02:59:39.37	243.52	17.46	-36.5	-38.2	21.6	0.00e+00	0	44	0	2980052992	43	4669
2026-01-29 02:59:40.18	243.42	17.38	-36.9	-38.6	21.4	0.00e+00	0	44	0	2985295872	44	4605
2026-01-29 02:59:41.31	243.29	17.27	-36.7	-38.4	21.5	0.00e+00	0	44	0	2990538752	44	4543
2026-01-29 02:59:42.17	243.18	17.18	-36.8	-38.5	21.4	0.00e+00	0	44	0	2995781632	44	4569
2026-01-29 02:59:43.31	243.05	17.07	-36.8	-38.5	21.4	0.00e+00	0	44	0	3002073088	44	4573
2026-01-29 02:59:44.16	242.95	16.98	-36.9	-38.6	21.4	0.00e+00	0	44	0	3007315968	44	4611
2026-01-29 02:59:45.31	242.81	16.87	-37.0	-38.7	21.3	0.00e+00	0	44	0	3013607424	44	4669
2026-01-29 02:59:46.16	242.71	16.79	-37.0	-38.7	21.2	0.00e+00	0	44	0	3017801728	44	4685
2026-01-29 02:59:47.30	242.58	16.67	-36.9	-38.7	21.3	0.00e+00	0	44	0	3025141760	44	4653
2026-01-29 02:59:48.15	242.48	16.59	-36.9	-38.7	21.3	0.00e+00	0	44	0	3029336064	44	4657
2026-01-29 02:59:49.41	242.34	16.47	-37.1	-38.8	21.2	0.00e+00	0	44	0	3036676096	44	4728
2026-01-29 02:59:50.18	242.25	16.39	-37.0	-38.7	21.2	0.00e+00	0	44	0	3040870400	44	4705
2026-01-29 02:59:51.46	242.10	16.27	-37.1	-38.8	21.1	0.00e+00	0	44	0	3048210432	44	4734
2026-01-29 02:59:52.17	242.02	16.20	-37.0	-38.7	21.2	0.00e+00	0	44	0	3052404736	44	4704
2026-01-29 02:59:53.45	241.88	16.07	-37.1	-38.8	21.1	0.00e+00	0	44	0	3059744768	45	4478
2026-01-29 02:59:54.16	241.80	16.00	-37.0	-38.7	21.2	0.00e+00	0	44	0	3062890496	45	4441
2026-01-29 02:59:55.44	241.66	15.88	-37.0	-38.8	21.2	0.00e+00	0	44	0	3070230528	45	4442
2026-01-29 02:59:56.16	241.58	15.81	-37.1	-38.8	21.1	0.00e+00	0	44	0	3074424832	45	4471
2026-01-29 02:59:57.45	241.44	15.69	-37.2	-38.9	21.0	0.00e+00	0	44	0	3081764864	45	4517
2026-01-29 02:59:58.16	241.36	15.62	-37.1	-38.8	21.1	0.00e+00	0	44	0	3085959168	45	4491
2026-01-29 02:59:59.78	241.19	15.46	-37.1	-38.8	21.1	0.00e+00	0	44	0	3095396352	45	4493
2026-01-29 03:00:00.35	241.13	15.41	-37.2	-39.0	21.0	0.00e+00	0	44	0	3098542080	45	4550
2026-01-29 03:00:02.04	240.95	15.25	-37.2	-39.0	20.9	0.00e+00	0	44	0	3107979264	45	4567
2026-01-29 03:00:02.67	240.89	15.19	-37.2	-39.0	21.0	0.00e+00	0	44	0	3111124992	45	4551
2026-01-29 03:00:04.20	240.73	15.05	-37.4	-39.1	20.8	0.00e+00	0	44	0	3119513600	45	4642
2026-01-29 03:00:04.92	240.65	14.98	-37.4	-39.1	20.8	0.00e+00	0	44	0	3123707904	45	4635
2026-01-29 03:00:06.20	240.52	14.86	-37.3	-39.1	20.8	0.00e+00	0	44	0	3131047936	45	4625
2026-01-29 03:00:06.91	240.45	14.79	-37.2	-39.0	20.9	0.00e+00	0	44	0	3135242240	45	4564
2026-01-29 03:00:08.19	240.32	14.67	-37.4	-39.1	20.8	0.00e+00	0	44	0	3142582272	45	4636
2026-01-29 03:00:08.90	240.25	14.61	-37.3	-39.1	20.8	0.00e+00	0	44	0	3145728000	45	4618
2026-01-29 03:00:10.18	240.12	14.49	-37.4	-39.2	20.7	0.00e+00	0	44	0	3153068032	45	4670
2026-01-29 03:00:10.89	240.05	14.42	-37.4	-39.1	20.8	0.00e+00	0	44	0	3157262336	45	4647
2026-01-29 03:00:12.17	239.92	14.31	-37.4	-39.1	20.8	0.00e+00	0	44	0	3164602368	45	4641
2026-01-29 03:00:12.88	239.85	14.24	-37.5	-39.2	20.7	0.00e+00	0	44	0	3168796672	45	4688
2026-01-29 03:00:14.16	239.72	14.12	-37.6	-39.4	20.5	0.00e+00	0	44	0	3176136704	45	4766
2026-01-29 03:00:14.87	239.66	14.06	-37.7	-39.5	20.5	0.00e+00	0	44	0	3180331008	46	4557
2026-01-29 03:00:16.15	239.53	13.94	-37.8	-39.6	20.4	0.00e+00	0	44	0	3186622464	46	4602
2026-01-29 03:00:16.88	239.46	13.88	-37.7	-39.5	20.4	0.00e+00	0	44	0	3190816768	46	4569
2026-01-29 03:00:18.15	239.34	13.76	-37.8	-39.6	20.3	0.00e+00	0	44	0	3198156800	46	4633
2026-01-29 03:00:18.99	239.26	13.69	-37.7	-39.5	20.4	0.00e+00	0	44	0	3203399680	46	4567
2026-01-29 03:00:20.12	239.15	13.58	-37.8	-39.6	20.3	0.00e+00	0	44	0	3209691136	46	4605
2026-01-29 03:00:20.98	239.07	13.51	-37.7	-39.5	20.4	0.00e+00	0	44	0	3213885440	46	4586
2026-01-29 03:00:22.11	238.97	13.41	-38.0	-39.8	20.1	0.00e+00	0	44	0	3220176896	46	4715
2026-01-29 03:00:22.97	238.89	13.33	-37.8	-39.6	20.3	0.00e+00	0	44	0	3225419776	46	4631
2026-01-29 03:00:24.10	238.79	13.23	-37.8	-39.6	20.3	0.00e+00	0	44	0	3231711232	46	4632
2026-01-29 03:00:25.35	238.67	13.12	-37.9	-39.7	20.1	0.00e+00	0	44	0	3239051264	46	4705
2026-01-29 03:00:26.20	238.59	13.04	-38.1	-39.9	20.0	0.00e+00	0	44	0	3243245568	46	4770
2026-01-29 03:00:27.34	238.49	12.94	-38.1	-39.9	20.0	0.00e+00	0	44	0	3249537024	46	4767
2026-01-29 03:00:28.19	238.42	12.87	-38.2	-40.0	19.9	0.00e+00	0	44	0	3254779904	46	4848
2026-01-29 03:00:29.33	238.31	12.77	-38.2	-40.0	19.8	0.00e+00	0	44	0	3261071360	47	4585
2026-01-29 03:00:30.18	238.24	12.69	-38.1	-39.9	20.0	0.00e+00	0	44	0	3266314240	47	4508
2026-01-29 03:00:31.32	238.14	12.59	-38.1	-39.9	20.0	0.00e+00	0	44	0	3272605696	47	4514
2026-01-29 03:00:32.17	238.07	12.52	-38.1	-39.9	19.9	0.00e+00	0	44	0	3276800000	47	4543
2026-01-29 03:00:33.34	237.96	12.42	-37.9	-39.7	20.2	0.00e+00	0	44	0	3284140032	47	4403
2026-01-29 03:00:34.19	237.89	12.35	-38.1	-39.9	20.0	0.00e+00	0	44	0	3288334336	47	4498
2026-01-29 03:00:35.38	237.79	12.24	-38.2	-40.0	19.8	0.00e+00	0	44	0	3295674368	47	4574
2026-01-29 03:00:36.23	237.72	12.17	-38.1	-39.9	19.9	0.00e+00	0	44	0	3299868672	47	4529
2026-01-29 03:00:37.37	237.62	12.07	-38.0	-39.8	20.0	0.00e+00	0	44	0	3306160128	47	4466
2026-01-29 03:00:38.22	237.55	12.00	-38.1	-39.9	19.9	0.00e+00	0	44	0	3311403008	47	4521
2026-01-29 03:00:39.36	237.45	11.90	-38.1	-39.9	20.0	0.00e+00	0	44	0	3317694464	47	4503
2026-01-29 03:00:40.21	237.38	11.83	-38.1	-39.9	19.9	0.00e+00	0	44	0	3321888768	47	4510
2026-01-29 03:00:41.35	237.29	11.73	-38.3	-40.1	19.8	0.00e+00	0	44	0	3329228800	47	4620
2026-01-29 03:00:42.20	237.22	11.66	-38.1	-39.9	19.9	0.00e+00	0	44	0	3333423104	47	4539
2026-01-29 03:00:43.34	237.12	11.57	-38.2	-40.1	19.8	0.00e+00	0	44	0	3339714560	47	4607
2026-01-29 03:00:44.19	237.05	11.49	-38.1	-39.9	19.9	0.00e+00	0	44	0	3344957440	47	4538
2026-01-29 03:00:45.33	236.96	11.40	-38.2	-40.1	19.8	0.00e+00	0	44	0	3351248896	47	4608
2026-01-29 03:00:46.18	236.89	11.33	-38.3	-40.1	19.7	0.00e+00	0	44	0	3356491776	47	4634
2026-01-29 03:00:47.32	236.80	11.23	-38.1	-40.0	19.8	0.00e+00	0	44	0	3362783232	47	4559
2026-01-29 03:00:48.17	236.74	11.16	-38.3	-40.1	19.7	0.00e+00	0	44	0	3366977536	47	4621
2026-01-29 03:00:49.48	236.63	11.05	-38.2	-40.0	19.8	0.00e+00	0	44	0	3374317568	47	4570
2026-01-29 03:00:50.19	236.58	10.99	-38.2	-40.1	19.8	0.00e+00	0	44	0	3378511872	47	4608
2026-01-29 03:00:51.47	236.48	10.89	-38.3	-40.2	19.6	0.00e+00	0	44	0	3385851904	47	4655
2026-01-29 03:00:52.20	236.42	10.83	-38.4	-40.2	19.6	0.00e+00	0	44	0	3390046208	47	4703
2026-01-29 03:00:53.73	236.30	10.70	-38.4	-40.2	19.6	0.00e+00	0	44	0	3398434816	47	4688
2026-01-29 03:00:54.44	236.25	10.65	-38.6	-40.5	19.3	0.00e+00	0	44	0	3402629120	47	4838
2026-01-29 03:00:55.72	236.15	10.54	-38.8	-40.7	19.4	0.00e+00	0	44	0	3409969152	48	4658
2026-01-29 03:00:56.48	236.09	10.48	-38.7	-40.6	19.4	0.00e+00	0	44	0	3414163456	48	4633
2026-01-29 03:00:57.76	236.00	10.38	-38.7	-40.5	19.5	0.00e+00	0	44	0	3421503488	48	4581
2026-01-29 03:00:58.47	235.94	10.32	-38.8	-40.6	19.4	0.00e+00	0	44	0	3425697792	48	4644
2026-01-29 03:00:59.75	235.85	10.22	-38.7	-40.5	19.4	0.00e+00	0	44	0	3431989248	48	4595
2026-01-29 03:01:00.47	235.79	10.16	-38.7	-40.6	19.4	0.00e+00	0	44	0	3436183552	48	4605
2026-01-29 03:01:01.76	235.70	10.05	-38.8	-40.6	19.4	0.00e+00	0	44	0	3443523584	48	4645
2026-01-29 03:01:02.47	235.65	10.00	-38.8	-40.7	19.3	0.00e+00	0	44	0	3447717888	48	4667
2026-01-29 03:01:03.74	235.56	9.90	-38.8	-40.7	19.2	0.00e+00	0	44	0	3455057920	48	4684
2026-01-29 03:01:04.60	235.49	9.83	-38.9	-40.8	19.2	0.00e+00	0	44	0	3459252224	48	4753
2026-01-29 03:01:06.05	235.39	9.71	-38.8	-40.7	19.3	0.00e+00	0	44	0	3467640832	48	4677
2026-01-29 03:01:06.76	235.34	9.66	-38.8	-40.7	19.3	0.00e+00	0	44	0	3471835136	48	4676
2026-01-29 03:01:08.05	235.25	9.55	-38.9	-40.8	19.1	0.00e+00	0	44	0	3479175168	48	4746
2026-01-29 03:01:08.76	235.20	9.50	-38.9	-40.8	19.1	0.00e+00	0	44	0	3483369472	48	4753
2026-01-29 03:01:10.04	235.11	9.40	-38.8	-40.7	19.3	0.00e+00	0	44	0	3490709504	48	4679
2026-01-29 03:01:10.75	235.06	9.34	-38.9	-40.8	19.1	0.00e+00	0	44	0	3493855232	48	4738
2026-01-29 03:01:12.03	234.97	9.24	-38.9	-40.7	19.2	0.00e+00	0	44	0	3501195264	48	4705
2026-01-29 03:01:12.74	234.92	9.19	-38.9	-40.8	19.2	0.00e+00	0	44	0	3505389568	48	4728
2026-01-29 03:01:14.02	234.83	9.09	-38.9	-40.8	19.2	0.00e+00	0	44	0	3512729600	48	4709
2026-01-29 03:01:14.76	234.78	9.03	-38.9	-40.8	19.1	0.00e+00	0	44	0	3516923904	48	4728
2026-01-29 03:01:16.04	234.69	8.93	-49.0	-59.9	3.8	9.17e-02	0	44	104	3522166784	68	13436
2026-01-29 03:01:16.76	234.64	8.88	-49.1	-60.3	3.8	8.45e-01	0	44	104	3522166784	68	14052
2026-01-29 03:01:18.04	234.56	8.78	-49.3	-61.3	3.8	8.46e-01	0	44	104	3522166784	69	15000
2026-01-29 03:01:18.75	234.51	8.72	-49.3	-61.4	3.8	8.48e-01	0	44	104	3522166784	69	15085
2026-01-29 03:01:20.03	234.43	8.63	-49.4	-61.4	3.8	8.46e-01	0	44	104	3522166784	69	15177
2026-01-29 03:01:20.75	234.38	8.57	-49.3	-61.4	3.8	8.48e-01	0	44	104	3522166784	69	15141
2026-01-29 03:01:22.03	234.29	8.47	-49.3	-61.4	3.8	8.47e-01	0	44	104	3522166784	69	15212
2026-01-29 03:01:22.75	234.25	8.42	-49.2	-61.4	3.8	8.47e-01	0	44	104	3522166784	69	15178
2026-01-29 03:01:24.03	234.16	8.32	-49.3	-61.4	3.8	8.47e-01	0	44	104	3522166784	69	15212
2026-01-29 03:01:24.74	234.12	8.27	-49.2	-61.5	3.8	8.47e-01	0	44	104	3522166784	69	15276
2026-01-29 03:01:26.01	234.04	8.17	-49.2	-61.4	3.8	8.48e-01	0	44	104	3522166784	69	15200
2026-01-29 03:01:26.72	233.99	8.12	-49.2	-61.4	3.8	8.47e-01	0	44	104	3522166784	69	15210
2026-01-29 03:01:28.00	233.91	8.02	-49.3	-61.5	3.8	8.47e-01	0	44	104	3522166784	69	15262
2026-01-29 03:01:28.71	233.86	7.97	-48.6	-61.4	3.8	8.47e-01	0	44	104	3522166784	69	15188
2026-01-29 03:01:29.99	233.78	7.88	-49.1	-61.4	3.8	8.47e-01	0	44	104	3522166784	69	15173
2026-01-29 03:01:30.70	233.74	7.82	-49.2	-61.4	3.8	8.46e-01	0	44	104	3522166784	69	15213
2026-01-29 03:01:31.97	233.66	7.73	-49.3	-61.4	3.8	8.47e-01	0	44	104	3522166784	69	15178
2026-01-29 03:01:32.68	233.62	7.68	-49.3	-61.4	3.8	8.47e-01	0	44	104	3522166784	69	15157
2026-01-29 03:01:33.96	233.54	7.58	-49.3	-61.3	3.8	8.46e-01	0	44	104	3522166784	69	15028
2026-01-29 03:01:34.67	233.49	7.53	-49.1	-61.3	3.8	8.48e-01	0	44	104	3522166784	69	15041
2026-01-29 03:01:35.95	233.42	7.44	-49.1	-61.3	3.8	8.46e-01	0	44	104	3522166784	69	15032
2026-01-29 03:01:36.66	233.37	7.38	-49.1	-61.3	3.8	8.48e-01	0	44	104	3522166784	69	14984
