passes_logs/2026/01/29/T1/T1__20260129_013138_AQUA_rec.log

#Pass ID: 20260129_013138_AQUA
#Satellite: AQUA
#Configuration: AQUA
#almurnet v.1.7.20251203
#Start time: 2026-01-29 01:31:40

#Version: 2.0.20230620
#Station: T1
#Location: 37.570604 lon 55.790049 lat
#TLE: 1 27424U 02022A   26027.88561574  .00001798  00000+0  36942-3 0  9997
#TLE: 2 27424  98.4102 354.5311 0001840  63.5604 322.5877 14.61868111262779

#Time	Az	El	Level	Level2	SNR	BER	BlckErr	Temp	State	Recorded	gain1	gain2
2026-01-29 01:31:40.48	14.67	5.12	-51.6	-71.8	3.8	7.49e-01	0	41	0	0	73	39653
2026-01-29 01:31:41.47	14.67	5.19	-51.8	-71.8	3.8	7.47e-01	0	41	104	0	74	37748
2026-01-29 01:31:42.46	14.66	5.27	-51.8	-71.8	3.8	7.47e-01	0	41	104	0	74	37730
2026-01-29 01:31:43.46	14.66	5.34	-51.7	-71.8	3.8	7.48e-01	0	41	104	0	74	37764
2026-01-29 01:31:44.45	14.65	5.42	-51.6	-71.8	3.8	7.42e-01	0	41	104	0	74	37771
2026-01-29 01:31:45.44	14.65	5.49	-51.5	-71.8	3.8	7.45e-01	0	41	104	0	74	37548
2026-01-29 01:31:46.44	14.64	5.57	-51.7	-71.8	3.8	7.46e-01	0	41	104	0	74	37480
2026-01-29 01:31:47.43	14.63	5.65	-51.5	-71.8	3.8	7.44e-01	0	41	104	0	74	37482
2026-01-29 01:31:48.42	14.63	5.72	-51.7	-71.7	3.8	7.47e-01	0	41	104	0	74	37233
2026-01-29 01:31:49.42	14.62	5.80	-51.8	-71.7	3.8	7.48e-01	0	41	104	0	74	37094
2026-01-29 01:31:50.41	14.62	5.88	-51.1	-71.6	3.8	7.47e-01	0	41	104	0	74	36834
2026-01-29 01:31:51.40	14.61	5.95	-51.1	-71.6	3.8	7.47e-01	0	41	104	0	73	38746
2026-01-29 01:31:52.40	14.61	6.03	-51.1	-71.5	3.8	7.44e-01	0	41	104	0	73	38296
2026-01-29 01:31:53.39	14.60	6.11	-50.6	-71.4	3.8	7.45e-01	0	41	104	0	71	42853
2026-01-29 01:31:54.38	14.60	6.19	-50.7	-71.4	3.8	7.42e-01	0	41	104	0	72	40185
2026-01-29 01:31:55.38	14.59	6.26	-49.4	-71.1	3.8	7.45e-01	0	41	104	0	70	43607
2026-01-29 01:31:56.37	14.58	6.34	-49.7	-71.4	3.8	7.46e-01	0	42	104	0	71	42511
2026-01-29 01:31:57.36	14.58	6.42	-50.9	-71.3	3.8	7.50e-01	0	42	104	0	72	39819
2026-01-29 01:31:58.36	14.57	6.50	-47.9	-71.1	3.8	7.44e-01	0	42	104	0	67	51688
2026-01-29 01:31:59.35	14.57	6.58	-49.9	-70.2	3.9	7.45e-01	0	42	104	0	71	37221
2026-01-29 01:32:00.34	14.56	6.66	-48.0	-71.0	3.8	7.46e-01	0	42	104	0	67	51085
2026-01-29 01:32:01.34	14.55	6.74	-48.2	-70.5	3.8	7.44e-01	0	42	104	0	67	48603
2026-01-29 01:32:02.33	14.55	6.82	-48.2	-70.1	3.8	7.48e-01	0	42	104	0	67	46169
2026-01-29 01:32:03.32	14.54	6.90	-48.2	-69.5	3.8	7.47e-01	0	42	104	0	67	43195
2026-01-29 01:32:04.32	14.53	6.98	-48.2	-68.7	3.8	7.42e-01	0	42	104	0	67	39249
2026-01-29 01:32:05.31	14.53	7.06	-48.2	-67.9	4.1	7.44e-01	0	42	104	0	67	35726
2026-01-29 01:32:06.30	14.52	7.14	-48.2	-67.0	4.0	7.36e-01	0	42	104	0	67	32308
2026-01-29 01:32:07.29	14.52	7.22	-48.2	-65.9	4.8	7.21e-01	0	42	104	0	67	28544
2026-01-29 01:32:08.28	14.51	7.30	-48.2	-65.1	5.1	7.07e-01	0	42	0	0	67	26051
2026-01-29 01:32:09.28	14.50	7.38	-48.1	-64.5	5.5	7.00e-01	0	42	0	0	67	24347
2026-01-29 01:32:10.27	14.49	7.47	-48.1	-63.9	6.0	6.88e-01	0	42	0	1048576	67	22610
2026-01-29 01:32:11.26	14.49	7.55	-48.1	-63.5	6.2	6.79e-01	0	42	0	2621440	67	21528
2026-01-29 01:32:12.26	14.48	7.63	-48.0	-63.0	6.6	6.72e-01	0	42	0	4718592	67	20490
2026-01-29 01:32:13.25	14.47	7.71	-48.1	-62.4	7.2	6.59e-01	0	42	0	6815744	67	18974
2026-01-29 01:32:14.24	14.47	7.80	-48.0	-62.0	7.6	6.55e-01	0	42	0	8388608	67	18186
2026-01-29 01:32:15.24	14.46	7.88	-48.0	-61.3	8.3	6.42e-01	0	42	0	10485760	67	16721
2026-01-29 01:32:16.23	14.45	7.96	-48.0	-60.9	8.7	6.38e-01	0	42	0	12058624	67	15960
2026-01-29 01:32:17.22	14.45	8.05	-47.9	-60.1	9.5	6.26e-01	0	42	0	14155776	67	14638
2026-01-29 01:32:18.22	14.44	8.13	-47.8	-59.6	10.0	6.20e-01	0	42	0	15728640	67	13758
2026-01-29 01:32:19.21	14.43	8.22	-47.7	-58.9	10.8	6.12e-01	0	42	0	17825792	67	12694
2026-01-29 01:32:20.21	14.42	8.30	-47.7	-58.1	11.6	6.12e-01	0	42	0	19398656	67	11641
2026-01-29 01:32:21.20	14.42	8.39	-47.6	-57.5	12.1	6.08e-01	0	42	0	21495808	67	10883
2026-01-29 01:32:22.19	14.41	8.48	-47.4	-57.0	12.8	6.07e-01	0	42	0	23592960	66	10797
2026-01-29 01:32:23.19	14.40	8.56	-47.4	-56.4	13.4	6.03e-01	0	42	0	25165824	66	10155
2026-01-29 01:32:24.18	14.39	8.65	-47.3	-55.9	13.9	6.07e-01	0	42	0	27262976	66	9581
2026-01-29 01:32:25.17	14.38	8.74	-47.2	-55.7	14.1	6.02e-01	0	42	0	28835840	66	9349
2026-01-29 01:32:26.17	14.38	8.82	-47.2	-55.4	14.4	6.03e-01	0	42	0	30932992	66	9021
2026-01-29 01:32:27.16	14.37	8.91	-47.2	-55.4	14.5	6.04e-01	0	42	0	32505856	66	8995
2026-01-29 01:32:28.15	14.36	9.00	-47.1	-55.3	14.5	6.03e-01	0	42	0	34603008	66	8907
2026-01-29 01:32:29.14	14.35	9.09	-47.2	-55.5	14.4	6.04e-01	0	42	0	36175872	66	9150
2026-01-29 01:32:30.14	14.34	9.17	-47.6	-57.7	12.2	6.05e-01	0	42	0	38273024	66	11750
2026-01-29 01:32:31.34	14.33	9.28	-47.8	-62.8	6.2	6.67e-01	0	42	0	39321600	66	21112
2026-01-29 01:32:32.22	14.33	9.36	-45.0	-49.3	20.7	6.01e-01	0	42	0	40894464	61	5930
2026-01-29 01:32:33.36	14.32	9.46	-47.6	-62.0	7.8	6.47e-01	0	42	0	42991616	65	20436
2026-01-29 01:32:34.22	14.31	9.54	-48.0	-67.0	4.3	7.31e-01	0	42	104	43515904	66	34238
2026-01-29 01:32:35.35	14.30	9.65	-48.0	-67.4	4.2	7.38e-01	0	42	104	43515904	66	35763
2026-01-29 01:32:36.21	14.29	9.72	-47.9	-67.7	3.9	7.42e-01	0	43	104	43515904	66	37035
2026-01-29 01:32:37.34	14.28	9.83	-47.9	-66.2	4.1	7.32e-01	0	43	104	43515904	66	31204
2026-01-29 01:32:38.20	14.27	9.91	-47.8	-66.3	4.7	7.24e-01	0	43	104	43515904	66	31511
2026-01-29 01:32:39.34	14.26	10.01	-47.8	-65.9	4.8	7.17e-01	0	43	104	43515904	66	30240
2026-01-29 01:32:40.19	14.26	10.09	-47.6	-59.0	10.0	6.17e-01	0	43	0	44564480	66	13713
2026-01-29 01:32:41.33	14.25	10.20	-46.9	-56.8	13.1	6.06e-01	0	43	0	46661632	64	11878
2026-01-29 01:32:42.18	14.24	10.28	-47.4	-64.0	5.6	6.91e-01	0	43	0	47710208	65	25629
2026-01-29 01:32:43.32	14.23	10.39	-45.0	-49.7	20.1	6.03e-01	0	43	0	49807360	61	6257
2026-01-29 01:32:44.17	14.22	10.47	-45.1	-50.0	19.8	6.04e-01	0	42	0	51380224	61	6491
2026-01-29 01:32:45.42	14.21	10.58	-44.3	-48.5	21.3	6.02e-01	0	42	0	54001664	60	5783
2026-01-29 01:32:46.27	14.20	10.67	-44.1	-47.9	21.9	6.01e-01	0	43	0	55574528	60	5355
2026-01-29 01:32:47.41	14.19	10.77	-44.2	-47.8	21.9	6.02e-01	0	43	0	57671680	60	5323
2026-01-29 01:32:48.26	14.18	10.86	-44.3	-48.1	21.8	6.06e-01	0	43	0	59244544	60	5479
2026-01-29 01:32:49.40	14.17	10.97	-44.0	-47.4	22.5	6.02e-01	0	42	0	61341696	59	5352
2026-01-29 01:32:50.28	14.16	11.05	-43.7	-47.0	22.9	6.02e-01	0	43	0	62914560	59	5125
2026-01-29 01:32:51.61	14.14	11.18	-43.4	-46.6	23.2	6.04e-01	0	43	0	65536000	58	5214
2026-01-29 01:32:52.32	14.14	11.25	-43.3	-46.4	23.4	6.06e-01	0	43	0	66584576	58	5076
2026-01-29 01:32:53.60	14.12	11.38	-43.1	-46.1	23.7	6.04e-01	0	43	0	69206016	58	4921
2026-01-29 01:32:54.33	14.12	11.45	-43.2	-46.2	23.6	6.05e-01	0	43	0	70254592	58	4963
2026-01-29 01:32:55.60	14.10	11.58	-43.1	-46.1	23.8	6.05e-01	0	43	0	72876032	58	4887
2026-01-29 01:32:56.34	14.09	11.65	-43.3	-46.4	23.4	6.03e-01	0	43	0	74448896	58	5096
2026-01-29 01:32:57.62	14.08	11.78	-43.1	-46.2	23.7	6.04e-01	0	43	0	76546048	58	4936
2026-01-29 01:32:58.33	14.07	11.85	-43.0	-46.1	23.8	6.02e-01	0	43	0	78118912	58	4897
2026-01-29 01:32:59.62	14.06	11.98	-43.1	-46.1	23.7	6.03e-01	0	43	0	80216064	58	4907
2026-01-29 01:33:00.34	14.05	12.05	-42.9	-45.9	23.9	6.01e-01	0	43	0	81788928	57	5081
2026-01-29 01:33:01.62	14.04	12.18	-42.9	-45.9	24.0	6.05e-01	0	43	0	84410368	57	5046
2026-01-29 01:33:02.34	14.03	12.26	-42.9	-45.9	24.0	6.04e-01	0	43	0	85458944	57	5067
2026-01-29 01:33:03.62	14.01	12.39	-42.8	-45.9	24.0	6.02e-01	0	43	0	88080384	57	5086
2026-01-29 01:33:04.33	14.00	12.46	-42.7	-45.8	24.0	6.03e-01	0	43	0	89128960	57	5023
2026-01-29 01:33:05.62	13.99	12.60	-42.7	-45.7	24.2	6.02e-01	0	43	0	91750400	57	4951
2026-01-29 01:33:06.67	13.98	12.71	-42.8	-45.8	24.1	6.03e-01	0	43	0	93847552	57	4985
2026-01-29 01:33:07.84	13.96	12.83	-42.7	-45.7	24.2	6.04e-01	0	43	0	95944704	57	4947
2026-01-29 01:33:08.84	13.95	12.93	-42.6	-45.6	24.3	6.02e-01	0	43	0	98041856	57	4874
2026-01-29 01:33:09.83	13.94	13.04	-42.8	-45.8	24.1	6.04e-01	0	43	0	99614720	57	5017
2026-01-29 01:33:10.83	13.93	13.15	-42.6	-45.5	24.3	6.02e-01	0	43	0	101187584	57	4861
2026-01-29 01:33:11.82	13.91	13.25	-42.7	-45.6	24.3	6.02e-01	0	43	0	103284736	57	4884
2026-01-29 01:33:12.82	13.90	13.36	-42.7	-45.6	24.3	6.03e-01	0	43	0	105381888	57	4892
2026-01-29 01:33:13.81	13.89	13.47	-42.8	-45.7	24.2	6.05e-01	0	43	0	106954752	57	4967
2026-01-29 01:33:14.81	13.87	13.58	-42.8	-45.7	24.3	6.02e-01	0	43	0	109051904	57	4931
2026-01-29 01:33:15.80	13.86	13.68	-42.7	-45.6	22.9	6.03e-01	0	43	0	110624768	57	4915
2026-01-29 01:33:16.80	13.85	13.79	-42.6	-45.6	24.4	6.03e-01	0	43	0	112721920	57	4872
2026-01-29 01:33:17.79	13.83	13.90	-42.6	-45.5	24.4	6.04e-01	0	43	0	114819072	57	4835
2026-01-29 01:33:18.79	13.82	14.01	-42.6	-45.5	24.4	6.03e-01	0	43	0	116391936	57	4857
2026-01-29 01:33:19.83	13.81	14.13	-42.7	-45.6	24.3	6.02e-01	0	43	0	118489088	57	4891
2026-01-29 01:33:20.84	13.79	14.24	-42.7	-45.6	24.4	6.00e-01	0	43	0	120061952	57	4875
2026-01-29 01:33:21.83	13.78	14.36	-42.7	-45.5	24.4	6.05e-01	0	43	0	122159104	57	4838
2026-01-29 01:33:22.83	13.76	14.47	-42.7	-45.6	24.4	6.03e-01	0	43	0	123731968	57	4886
2026-01-29 01:33:23.82	13.75	14.58	-42.8	-45.7	24.2	6.03e-01	0	43	0	125829120	57	4952
2026-01-29 01:33:24.82	13.74	14.70	-42.7	-45.6	24.4	6.04e-01	0	43	0	127926272	57	4876
2026-01-29 01:33:25.81	13.72	14.81	-42.8	-45.7	24.2	6.04e-01	0	43	0	129499136	57	4976
2026-01-29 01:33:26.80	13.71	14.92	-42.8	-45.7	24.2	6.05e-01	0	43	0	131596288	57	4940
2026-01-29 01:33:27.80	13.69	15.04	-42.8	-45.7	24.3	6.05e-01	0	43	0	133169152	57	4936
2026-01-29 01:33:28.79	13.68	15.16	-43.0	-45.8	24.2	6.03e-01	0	43	0	135266304	57	5010
2026-01-29 01:33:29.79	13.66	15.27	-43.0	-45.9	24.2	6.04e-01	0	43	0	136839168	57	5057
2026-01-29 01:33:30.78	13.65	15.39	-42.9	-45.8	24.2	6.03e-01	0	43	0	138936320	57	4995
2026-01-29 01:33:31.78	13.63	15.51	-42.7	-45.5	24.4	6.03e-01	0	43	0	140509184	57	4846
2026-01-29 01:33:32.77	13.62	15.63	-42.8	-45.6	24.3	6.02e-01	0	43	0	142606336	57	4895
2026-01-29 01:33:33.78	13.60	15.75	-42.8	-45.6	24.3	6.03e-01	0	43	0	144703488	57	4890
2026-01-29 01:33:34.78	13.58	15.87	-42.8	-45.6	24.4	6.03e-01	0	43	0	146276352	57	4908
2026-01-29 01:33:35.84	13.57	16.00	-42.8	-45.5	24.5	6.06e-01	0	43	0	148373504	57	4847
2026-01-29 01:33:36.73	13.55	16.11	-42.7	-45.5	24.5	6.03e-01	0	43	0	149946368	57	4826
2026-01-29 01:33:37.98	13.53	16.26	-42.7	-45.4	24.5	6.02e-01	0	43	0	152567808	57	4799
2026-01-29 01:33:38.83	13.52	16.37	-42.7	-45.5	24.2	6.03e-01	0	43	0	154140672	57	4857
2026-01-29 01:33:39.97	13.50	16.51	-42.7	-45.4	24.6	6.02e-01	0	43	0	156237824	57	4805
2026-01-29 01:33:40.82	13.48	16.61	-42.6	-45.3	24.7	6.02e-01	0	43	0	157810688	57	4742
2026-01-29 01:33:41.96	13.46	16.76	-42.6	-45.4	24.6	6.03e-01	0	43	0	159907840	57	4779
2026-01-29 01:33:42.81	13.45	16.86	-42.5	-45.3	24.7	6.03e-01	0	43	0	161480704	57	4742
2026-01-29 01:33:43.95	13.43	17.01	-42.6	-45.3	24.6	6.02e-01	0	43	0	163577856	57	4753
2026-01-29 01:33:44.80	13.41	17.12	-42.6	-45.3	24.7	6.02e-01	0	43	0	165150720	57	4735
2026-01-29 01:33:45.94	13.39	17.26	-42.5	-45.3	24.8	6.03e-01	0	43	0	167247872	57	4709
2026-01-29 01:33:46.79	13.38	17.37	-42.7	-45.4	24.5	6.06e-01	0	43	0	168820736	57	4807
2026-01-29 01:33:47.93	13.36	17.52	-42.6	-45.4	24.6	6.03e-01	0	43	0	170917888	57	4811
2026-01-29 01:33:48.78	13.34	17.63	-42.7	-45.5	24.5	6.02e-01	0	43	0	172490752	57	4852
2026-01-29 01:33:49.92	13.32	17.78	-42.7	-45.4	24.6	6.03e-01	0	43	0	174587904	57	4808
2026-01-29 01:33:50.77	13.30	17.90	-42.6	-45.3	24.7	6.01e-01	0	43	0	176160768	57	4756
2026-01-29 01:33:51.91	13.28	18.05	-42.7	-45.4	24.6	6.02e-01	0	43	0	178257920	57	4791
2026-01-29 01:33:52.77	13.26	18.16	-42.7	-45.4	24.6	6.05e-01	0	43	0	180355072	57	4804
2026-01-29 01:33:54.00	13.24	18.33	-42.8	-45.5	24.6	6.04e-01	0	43	0	182452224	57	4842
2026-01-29 01:33:54.85	13.22	18.44	-42.8	-45.5	24.5	6.04e-01	0	43	0	184025088	57	4862
2026-01-29 01:33:55.99	13.20	18.60	-42.8	-45.5	24.6	6.04e-01	0	43	0	186122240	57	4843
2026-01-29 01:33:56.84	13.18	18.72	-42.9	-45.6	24.4	6.02e-01	0	43	0	187695104	57	4916
2026-01-29 01:33:58.15	13.15	18.90	-42.9	-45.6	24.5	6.03e-01	0	43	0	190316544	57	4875
2026-01-29 01:33:58.86	13.14	18.99	-42.9	-45.6	24.5	6.02e-01	0	43	0	191365120	57	4879
2026-01-29 01:34:00.14	13.11	19.17	-42.9	-45.6	24.5	6.02e-01	0	43	0	193986560	57	4885
2026-01-29 01:34:00.85	13.10	19.27	-42.8	-45.5	24.6	6.02e-01	0	43	0	195035136	57	4826
2026-01-29 01:34:02.13	13.07	19.45	-42.9	-45.6	24.6	6.04e-01	0	43	0	197656576	57	4872
2026-01-29 01:34:02.84	13.05	19.56	-42.8	-45.4	24.6	6.04e-01	0	43	0	199229440	57	4809
2026-01-29 01:34:04.12	13.02	19.74	-42.8	-45.4	24.6	6.02e-01	0	43	0	201326592	57	4810
2026-01-29 01:34:05.00	13.01	19.87	-42.9	-45.4	24.7	6.04e-01	0	43	0	202899456	57	4787
2026-01-29 01:34:06.14	12.98	20.03	-42.8	-45.3	24.7	6.04e-01	0	43	0	204996608	57	4744
2026-01-29 01:34:06.99	12.96	20.16	-42.9	-45.4	24.7	6.04e-01	0	43	0	206569472	57	4781
2026-01-29 01:34:08.13	12.93	20.32	-43.0	-45.4	24.7	6.02e-01	0	43	0	209190912	57	4802
2026-01-29 01:34:09.24	12.91	20.49	-42.9	-45.4	24.7	6.02e-01	0	43	0	211288064	57	4782
2026-01-29 01:34:10.09	12.89	20.62	-43.0	-45.5	24.6	6.03e-01	0	43	0	212860928	57	4840
2026-01-29 01:34:11.23	12.86	20.79	-43.1	-45.5	24.5	6.00e-01	0	43	0	214958080	57	4864
2026-01-29 01:34:12.08	12.84	20.91	-43.1	-45.6	24.5	6.02e-01	0	43	0	216530944	57	4881
2026-01-29 01:34:13.22	12.81	21.09	-43.1	-45.6	24.6	6.03e-01	0	43	0	218628096	57	4884
2026-01-29 01:34:14.08	12.79	21.22	-43.1	-45.6	24.5	6.03e-01	0	43	0	220200960	57	4894
2026-01-29 01:34:15.21	12.76	21.39	-43.1	-45.6	24.5	6.05e-01	0	43	0	222298112	57	4900
2026-01-29 01:34:16.40	12.73	21.58	-43.3	-45.7	24.5	6.05e-01	0	43	0	224395264	57	4983
2026-01-29 01:34:17.42	12.70	21.74	-43.3	-45.8	24.4	6.04e-01	0	43	0	226492416	57	4999
2026-01-29 01:34:18.42	12.68	21.90	-43.3	-45.7	24.5	6.03e-01	0	43	0	228065280	57	4970
2026-01-29 01:34:19.41	12.65	22.05	-43.3	-45.8	24.4	6.04e-01	0	43	0	230162432	57	4992
2026-01-29 01:34:20.41	12.62	22.21	-43.4	-45.8	24.3	6.03e-01	0	43	0	231735296	57	5034
2026-01-29 01:34:21.40	12.60	22.37	-43.4	-45.8	24.4	6.02e-01	0	43	0	233832448	57	5020
2026-01-29 01:34:22.40	12.57	22.53	-43.5	-46.0	24.3	6.04e-01	0	43	0	235929600	57	5103
2026-01-29 01:34:23.39	12.54	22.69	-43.4	-45.8	24.4	6.03e-01	0	43	0	237502464	57	5031
2026-01-29 01:34:24.39	12.51	22.86	-43.3	-45.8	24.4	6.04e-01	0	43	0	239599616	57	5015
2026-01-29 01:34:25.38	12.48	23.02	-43.3	-45.8	24.4	6.03e-01	0	43	0	241172480	57	5014
2026-01-29 01:34:26.38	12.45	23.19	-43.2	-45.8	24.4	6.05e-01	0	43	0	243269632	57	5019
2026-01-29 01:34:27.37	12.43	23.35	-43.2	-45.8	24.4	6.01e-01	0	43	0	244842496	57	5016
2026-01-29 01:34:28.36	12.40	23.52	-43.2	-45.9	24.3	6.03e-01	0	43	0	246939648	57	5057
2026-01-29 01:34:29.36	12.37	23.69	-43.1	-45.7	24.5	6.02e-01	0	43	0	248512512	57	4946
2026-01-29 01:34:30.35	12.34	23.86	-43.1	-45.7	24.5	6.02e-01	0	43	0	250609664	57	4965
2026-01-29 01:34:31.43	12.30	24.05	-43.1	-45.7	24.5	6.02e-01	0	43	0	252706816	57	4958
2026-01-29 01:34:32.28	12.28	24.19	-43.1	-45.6	24.5	6.04e-01	0	43	0	254279680	57	4925
2026-01-29 01:34:33.69	12.23	24.44	-43.1	-45.7	24.5	6.03e-01	0	43	0	256901120	57	4947
2026-01-29 01:34:34.40	12.21	24.56	-43.1	-45.7	24.5	6.03e-01	0	43	0	257949696	57	4959
2026-01-29 01:34:35.68	12.17	24.79	-43.2	-45.7	24.5	6.04e-01	0	43	0	260571136	57	4979
2026-01-29 01:34:36.39	12.14	24.92	-43.1	-45.7	24.5	6.04e-01	0	43	0	262144000	57	4954
2026-01-29 01:34:37.67	12.10	25.15	-43.2	-45.7	24.5	6.04e-01	0	43	0	264241152	57	4972
2026-01-29 01:34:38.40	12.07	25.28	-43.2	-45.8	24.4	6.02e-01	0	43	0	265814016	57	4988
2026-01-29 01:34:39.68	12.03	25.52	-43.2	-45.8	24.4	6.02e-01	0	43	0	267911168	57	4997
2026-01-29 01:34:40.39	12.01	25.65	-43.2	-45.7	24.4	6.03e-01	0	43	0	269484032	57	4980
2026-01-29 01:34:41.67	11.96	25.88	-43.1	-45.6	24.6	6.02e-01	0	43	0	271581184	57	4902
2026-01-29 01:34:42.55	11.93	26.05	-43.1	-45.6	24.5	6.03e-01	0	43	0	273678336	57	4918
2026-01-29 01:34:43.69	11.89	26.26	-42.9	-45.4	24.8	6.03e-01	0	43	0	275775488	57	4781
2026-01-29 01:34:44.54	11.86	26.42	-42.9	-45.4	24.8	6.03e-01	0	43	0	277348352	57	4804
2026-01-29 01:34:45.68	11.81	26.64	-42.9	-45.4	24.8	6.01e-01	0	43	0	279445504	57	4784
2026-01-29 01:34:46.80	11.77	26.86	-42.8	-45.3	24.9	6.04e-01	0	43	0	281542656	57	4716
2026-01-29 01:34:47.84	11.73	27.06	-42.7	-45.1	25.0	6.04e-01	0	43	0	283639808	57	4641
2026-01-29 01:34:48.80	11.69	27.25	-42.6	-45.1	25.1	6.02e-01	0	43	0	285212672	57	4610
2026-01-29 01:34:49.80	11.65	27.45	-42.7	-45.2	25.0	6.03e-01	0	43	0	287309824	57	4662
2026-01-29 01:34:50.79	11.61	27.64	-42.6	-45.1	25.1	6.04e-01	0	43	0	288882688	57	4599
2026-01-29 01:34:51.79	11.57	27.85	-42.5	-45.0	25.1	6.03e-01	0	43	0	290979840	57	4577
2026-01-29 01:34:52.78	11.53	28.05	-42.6	-45.2	25.0	6.05e-01	0	43	0	292552704	57	4653
2026-01-29 01:34:53.77	11.49	28.25	-42.7	-45.3	24.9	6.02e-01	0	43	0	294649856	57	4719
2026-01-29 01:34:54.77	11.45	28.45	-42.8	-45.3	24.8	6.04e-01	0	43	0	296222720	57	4754
2026-01-29 01:34:55.76	11.40	28.66	-42.8	-45.3	24.8	6.05e-01	0	43	0	298319872	57	4747
2026-01-29 01:34:56.77	11.36	28.87	-42.8	-45.3	24.9	6.04e-01	0	43	0	299892736	57	4743
2026-01-29 01:34:57.78	11.31	29.08	-42.7	-45.2	25.0	6.04e-01	0	43	0	301989888	57	4658
2026-01-29 01:34:58.80	11.27	29.30	-42.6	-45.0	25.1	6.01e-01	0	43	0	304087040	57	4591
2026-01-29 01:34:59.79	11.22	29.51	-42.8	-45.2	25.0	6.02e-01	0	43	0	305659904	57	4665
2026-01-29 01:35:00.85	11.17	29.74	-42.7	-45.1	25.0	6.04e-01	0	43	0	307757056	57	4644
2026-01-29 01:35:01.77	11.13	29.94	-42.7	-45.1	25.0	6.05e-01	0	43	0	309329920	57	4613
2026-01-29 01:35:02.76	11.08	30.15	-42.7	-45.0	25.1	6.03e-01	0	43	0	311427072	57	4579
2026-01-29 01:35:03.93	11.03	30.41	-42.7	-45.1	25.0	6.03e-01	0	43	0	313524224	57	4629
2026-01-29 01:35:04.82	10.98	30.61	-42.6	-44.9	25.2	6.04e-01	0	43	0	315097088	57	4527
2026-01-29 01:35:05.95	10.93	30.86	-42.5	-44.9	25.3	6.02e-01	0	43	0	317194240	57	4500
2026-01-29 01:35:06.81	10.88	31.06	-42.5	-44.9	25.2	6.02e-01	0	43	0	318767104	57	4516
2026-01-29 01:35:07.94	10.82	31.32	-42.4	-44.8	25.2	6.05e-01	0	43	0	320864256	56	4728
2026-01-29 01:35:08.80	10.78	31.51	-42.4	-44.8	25.3	6.05e-01	0	43	0	322961408	56	4746
2026-01-29 01:35:09.93	10.72	31.78	-42.4	-44.8	25.3	6.03e-01	0	43	0	325058560	56	4751
2026-01-29 01:35:10.79	10.67	31.98	-42.4	-44.8	25.4	6.05e-01	0	43	0	326631424	56	4717
2026-01-29 01:35:11.92	10.61	32.24	-42.5	-45.0	25.2	6.03e-01	0	43	0	328728576	56	4831
2026-01-29 01:35:12.77	10.56	32.45	-42.5	-45.0	25.2	6.04e-01	0	43	0	330301440	56	4823
2026-01-29 01:35:13.91	10.50	32.72	-42.6	-45.1	25.1	6.04e-01	0	43	0	332398592	56	4913
2026-01-29 01:35:14.76	10.45	32.93	-42.7	-45.2	25.0	6.04e-01	0	43	0	333971456	56	4963
2026-01-29 01:35:15.98	10.37	33.22	-42.7	-45.3	24.9	6.03e-01	0	43	0	336068608	56	5000
2026-01-29 01:35:16.83	10.32	33.43	-42.9	-45.4	24.8	6.02e-01	0	43	0	337641472	56	5065
2026-01-29 01:35:17.97	10.25	33.72	-42.8	-45.3	24.9	6.05e-01	0	43	0	339738624	56	5020
2026-01-29 01:35:18.82	10.20	33.93	-42.9	-45.4	24.9	6.03e-01	0	43	0	341311488	56	5042
2026-01-29 01:35:19.96	10.13	34.22	-43.1	-45.7	24.6	6.04e-01	0	43	0	343408640	56	5224
2026-01-29 01:35:20.81	10.07	34.43	-43.2	-45.8	24.5	6.04e-01	0	43	0	344981504	57	4989
2026-01-29 01:35:21.94	10.00	34.72	-43.4	-46.0	24.3	6.05e-01	0	43	0	347602944	57	5102
2026-01-29 01:35:22.80	9.94	34.95	-43.4	-45.9	24.4	6.03e-01	0	43	0	349175808	57	5076
2026-01-29 01:35:23.94	9.87	35.25	-43.5	-46.1	24.3	6.06e-01	0	43	0	351272960	57	5166
2026-01-29 01:35:24.79	9.81	35.47	-43.6	-46.1	24.2	6.02e-01	0	43	0	352845824	57	5209
2026-01-29 01:35:25.93	9.73	35.77	-43.9	-46.4	24.0	6.05e-01	0	43	0	354942976	58	5081
2026-01-29 01:35:26.78	9.67	36.00	-44.0	-46.6	23.8	6.02e-01	0	43	0	356515840	58	5173
2026-01-29 01:35:27.92	9.59	36.31	-44.2	-46.8	23.6	6.01e-01	0	43	0	358612992	58	5283
2026-01-29 01:35:28.77	9.52	36.54	-44.2	-46.8	23.6	6.04e-01	0	43	0	360185856	59	5015
2026-01-29 01:35:29.90	9.44	36.85	-44.1	-46.8	23.7	6.04e-01	0	43	0	362283008	59	4995
2026-01-29 01:35:30.76	9.37	37.09	-44.2	-46.8	23.5	6.02e-01	0	43	0	363855872	59	5035
2026-01-29 01:35:31.89	9.29	37.41	-44.4	-47.1	23.3	6.04e-01	0	43	0	365953024	59	5203
2026-01-29 01:35:32.74	9.22	37.65	-44.5	-47.3	23.2	6.03e-01	0	43	0	367525888	59	5291
2026-01-29 01:35:33.88	9.13	37.97	-44.6	-47.3	23.0	6.05e-01	0	43	0	369623040	60	5024
2026-01-29 01:35:34.81	9.05	38.24	-44.5	-47.3	23.1	6.03e-01	0	43	0	371195904	60	4992
2026-01-29 01:35:35.98	8.95	38.58	-44.3	-47.1	23.2	6.03e-01	0	43	0	373817344	60	4902
2026-01-29 01:35:36.83	8.88	38.83	-44.3	-47.1	23.2	6.03e-01	0	43	0	375390208	60	4891
2026-01-29 01:35:38.18	8.76	39.23	-44.1	-46.9	23.5	6.05e-01	0	43	0	377487360	60	4762
2026-01-29 01:35:38.89	8.70	39.44	-44.0	-46.8	23.5	6.04e-01	0	43	0	379060224	60	4742
2026-01-29 01:35:40.17	8.58	39.83	-44.2	-47.0	23.3	6.04e-01	0	43	0	381681664	60	4841
2026-01-29 01:35:40.88	8.52	40.04	-44.3	-47.1	23.3	6.02e-01	0	43	0	382730240	60	4881
2026-01-29 01:35:42.16	8.40	40.43	-44.3	-47.1	23.2	6.05e-01	0	43	0	385351680	60	4897
2026-01-29 01:35:42.87	8.33	40.65	-44.4	-47.1	23.2	6.04e-01	0	43	0	386400256	60	4922
2026-01-29 01:35:44.15	8.20	41.05	-44.2	-47.0	23.3	6.04e-01	0	43	0	389021696	60	4818
2026-01-29 01:35:44.98	8.12	41.31	-44.0	-46.6	23.6	6.07e-01	0	43	0	390594560	60	4644
2026-01-29 01:35:46.12	8.00	41.68	-44.1	-46.8	23.6	6.05e-01	0	43	0	392691712	59	4984
2026-01-29 01:35:47.19	7.89	42.02	-44.2	-46.8	23.6	6.03e-01	0	43	0	394788864	59	5005
2026-01-29 01:35:48.22	7.78	42.35	-44.0	-46.6	23.8	6.02e-01	0	43	0	396361728	59	4874
2026-01-29 01:35:49.21	7.67	42.68	-44.0	-46.5	23.9	6.05e-01	0	43	0	398458880	59	4865
2026-01-29 01:35:50.21	7.56	43.01	-43.8	-46.4	24.0	6.03e-01	0	43	0	400556032	59	4778
2026-01-29 01:35:51.21	7.44	43.34	-43.6	-46.2	24.3	6.03e-01	0	43	0	402128896	59	4656
2026-01-29 01:35:52.20	7.33	43.67	-43.5	-46.1	24.3	6.01e-01	0	43	0	404226048	58	4892
2026-01-29 01:35:53.20	7.21	44.01	-43.6	-46.3	24.1	6.01e-01	0	43	0	405798912	58	5024
2026-01-29 01:35:54.19	7.09	44.35	-43.7	-46.4	24.1	6.05e-01	0	43	0	407896064	58	5044
2026-01-29 01:35:55.19	6.96	44.69	-43.5	-46.1	24.3	6.06e-01	0	43	0	409468928	58	4879
2026-01-29 01:35:56.18	6.84	45.04	-43.5	-46.1	24.3	6.03e-01	0	43	0	411566080	58	4880
2026-01-29 01:35:57.17	6.71	45.38	-43.5	-45.9	24.4	6.02e-01	0	43	0	413138944	58	4805
2026-01-29 01:35:58.17	6.57	45.74	-43.2	-45.6	24.8	6.03e-01	0	43	0	415236096	58	4604
2026-01-29 01:35:59.17	6.44	46.09	-43.3	-45.8	24.6	6.02e-01	0	43	0	417333248	58	4712
2026-01-29 01:36:00.16	6.30	46.45	-43.4	-45.9	24.5	6.05e-01	0	43	0	418906112	58	4778
2026-01-29 01:36:01.15	6.16	46.81	-43.4	-45.8	24.5	6.07e-01	0	43	0	421003264	58	4752
2026-01-29 01:36:02.15	6.01	47.18	-43.2	-45.6	24.8	6.05e-01	0	43	0	422576128	58	4640
2026-01-29 01:36:03.14	5.86	47.54	-43.5	-46.0	24.4	6.05e-01	0	43	0	424673280	58	4838
2026-01-29 01:36:04.14	5.70	47.91	-43.5	-45.9	24.5	6.04e-01	0	43	0	426246144	58	4790
2026-01-29 01:36:05.14	5.55	48.29	-43.4	-45.8	24.6	6.02e-01	0	43	0	428343296	58	4719
2026-01-29 01:36:06.13	5.39	48.66	-43.4	-45.8	24.4	6.04e-01	0	43	0	429916160	58	4748
2026-01-29 01:36:07.13	5.22	49.05	-43.3	-45.7	24.7	6.03e-01	0	43	0	432013312	58	4676
2026-01-29 01:36:08.12	5.05	49.43	-43.2	-45.6	24.7	6.03e-01	0	43	0	434110464	58	4641
2026-01-29 01:36:09.12	4.88	49.82	-43.2	-45.5	24.9	6.03e-01	0	43	0	435683328	58	4578
2026-01-29 01:36:10.51	4.62	50.36	-43.1	-45.5	24.9	6.04e-01	0	43	0	438304768	58	4547
2026-01-29 01:36:11.22	4.49	50.64	-42.9	-45.2	25.1	6.02e-01	0	43	0	439877632	57	4655
2026-01-29 01:36:12.50	4.25	51.15	-42.8	-45.2	25.2	6.03e-01	0	43	0	441974784	57	4663
2026-01-29 01:36:13.21	4.11	51.44	-42.9	-45.3	25.1	6.02e-01	0	43	0	443547648	57	4724
2026-01-29 01:36:14.49	3.85	51.96	-42.6	-44.9	25.4	6.04e-01	0	43	0	445644800	57	4525
2026-01-29 01:36:15.21	3.70	52.25	-42.4	-44.7	25.7	6.05e-01	0	43	0	447217664	56	4657
2026-01-29 01:36:16.49	3.43	52.78	-42.5	-44.8	25.5	6.03e-01	0	44	0	449839104	56	4735
2026-01-29 01:36:17.20	3.27	53.07	-42.4	-44.7	25.6	6.02e-01	0	43	0	450887680	56	4664
2026-01-29 01:36:18.55	2.96	53.63	-42.5	-44.8	25.6	6.05e-01	0	43	0	453509120	56	4707
2026-01-29 01:36:19.26	2.80	53.93	-42.4	-44.7	25.6	6.05e-01	0	43	0	454557696	56	4656
2026-01-29 01:36:20.62	2.47	54.51	-42.6	-44.8	25.5	6.02e-01	0	43	0	457179136	56	4746
2026-01-29 01:36:21.33	2.29	54.81	-42.5	-44.8	25.3	6.04e-01	0	43	0	458752000	56	4746
2026-01-29 01:36:22.61	1.96	55.37	-42.2	-44.4	25.8	6.03e-01	0	43	0	460849152	56	4516
2026-01-29 01:36:23.32	1.78	55.67	-42.4	-44.7	25.5	6.01e-01	0	43	0	462422016	56	4664
2026-01-29 01:36:24.74	1.39	56.29	-42.9	-45.3	25.0	6.04e-01	0	44	0	465043456	56	4995
2026-01-29 01:36:25.45	1.19	56.61	-42.8	-45.2	25.1	6.01e-01	0	43	0	466616320	56	4966
2026-01-29 01:36:26.73	0.81	57.17	-43.2	-45.6	24.8	6.05e-01	0	43	0	468713472	56	5175
2026-01-29 01:36:27.46	0.59	57.50	-43.4	-45.8	24.5	6.04e-01	0	43	0	470286336	57	5031
2026-01-29 01:36:28.73	0.19	58.07	-43.7	-46.2	24.2	6.03e-01	0	43	0	472383488	58	4974
2026-01-29 01:36:29.45	359.96	58.39	-43.9	-46.4	24.0	6.03e-01	0	43	0	473956352	58	5099
2026-01-29 01:36:30.73	359.53	58.97	-43.8	-46.4	24.1	6.03e-01	0	43	0	476053504	58	5053
2026-01-29 01:36:31.44	359.29	59.30	-44.1	-46.7	23.7	6.05e-01	0	43	0	477626368	58	5250
2026-01-29 01:36:32.72	358.82	59.89	-44.6	-47.3	23.2	6.04e-01	0	44	0	480247808	59	5329
2026-01-29 01:36:33.44	358.56	60.22	-44.1	-46.7	23.7	6.02e-01	0	43	0	481296384	60	4680
2026-01-29 01:36:34.72	358.06	60.81	-44.7	-47.4	23.1	6.03e-01	0	43	0	483917824	60	5069
2026-01-29 01:36:35.48	357.76	61.17	-44.3	-46.9	23.5	6.03e-01	0	43	0	485490688	60	4805
2026-01-29 01:36:36.76	357.22	61.77	-44.2	-46.8	23.6	6.04e-01	0	43	0	487587840	60	4723
2026-01-29 01:36:37.47	356.91	62.10	-44.3	-46.9	23.4	6.04e-01	0	44	0	489160704	60	4797
2026-01-29 01:36:38.75	356.34	62.71	-44.1	-46.6	23.7	6.05e-01	0	43	0	491257856	60	4636
2026-01-29 01:36:39.46	356.00	63.04	-44.4	-47.0	23.4	6.04e-01	0	43	0	492830720	60	4857
2026-01-29 01:36:40.74	355.38	63.65	-44.6	-47.3	23.1	6.06e-01	0	43	0	494927872	60	4995
2026-01-29 01:36:41.45	355.01	63.99	-44.7	-47.4	23.0	6.03e-01	0	43	0	496500736	60	5094
2026-01-29 01:36:42.73	354.34	64.61	-45.2	-48.0	22.5	6.07e-01	0	43	0	498597888	61	5148
2026-01-29 01:36:43.44	353.94	64.95	-45.3	-48.2	22.3	6.03e-01	0	43	0	500170752	61	5229
2026-01-29 01:36:44.77	353.17	65.59	-46.0	-49.1	21.4	6.04e-01	0	43	0	502792192	62	5514
2026-01-29 01:36:45.48	352.74	65.93	-45.7	-48.8	21.8	6.05e-01	0	43	0	503840768	62	5298
2026-01-29 01:36:46.76	351.93	66.55	-46.1	-49.5	21.1	6.02e-01	0	43	0	506462208	62	5749
2026-01-29 01:36:47.49	351.45	66.90	-46.3	-49.8	20.8	6.05e-01	0	43	0	507510784	63	5599
2026-01-29 01:36:48.77	350.56	67.52	-46.2	-49.4	21.1	6.03e-01	0	43	0	510132224	63	5400
2026-01-29 01:36:49.49	350.04	67.86	-46.6	-50.0	20.6	6.05e-01	0	43	0	511705088	63	5728
2026-01-29 01:36:50.77	349.06	68.48	-46.8	-50.2	20.3	6.04e-01	0	43	0	513802240	64	5571
2026-01-29 01:36:51.48	348.49	68.82	-46.7	-50.2	20.4	6.04e-01	0	43	0	515375104	64	5559
2026-01-29 01:36:52.76	347.42	69.43	-46.3	-49.6	20.9	6.04e-01	0	43	0	517472256	64	5212
2026-01-29 01:36:53.47	346.79	69.77	-46.7	-50.1	20.4	6.06e-01	0	43	0	519045120	64	5508
2026-01-29 01:36:54.75	345.60	70.38	-46.0	-49.1	21.3	6.04e-01	0	43	0	521142272	64	4917
2026-01-29 01:36:55.49	344.87	70.73	-46.1	-49.2	21.3	6.01e-01	0	43	0	522715136	63	5252
2026-01-29 01:36:56.77	343.55	71.33	-46.1	-49.2	21.4	6.03e-01	0	43	0	525336576	63	5222
2026-01-29 01:36:57.50	342.75	71.67	-46.4	-49.6	21.0	6.03e-01	0	43	0	526385152	63	5496
2026-01-29 01:36:58.78	341.28	72.26	-45.6	-48.6	22.0	6.02e-01	0	43	0	529006592	63	4872
2026-01-29 01:36:59.48	340.43	72.57	-46.3	-49.5	21.2	6.03e-01	0	43	0	530055168	63	5404
2026-01-29 01:37:00.77	338.78	73.15	-46.0	-49.1	21.2	6.06e-01	0	43	0	532676608	64	4912
2026-01-29 01:37:01.49	337.80	73.47	-45.5	-48.5	22.0	6.05e-01	0	43	0	534249472	63	4858
2026-01-29 01:37:02.77	335.96	74.03	-46.6	-50.0	20.4	6.02e-01	0	44	0	536346624	64	5463
2026-01-29 01:37:03.51	334.84	74.34	-46.0	-49.2	21.3	6.04e-01	0	43	0	537919488	64	4932
2026-01-29 01:37:04.79	332.78	74.88	-46.0	-49.1	21.3	6.04e-01	0	43	0	540016640	64	4889
2026-01-29 01:37:05.50	331.58	75.16	-46.1	-49.2	21.4	6.03e-01	0	43	0	541589504	63	5221
2026-01-29 01:37:06.78	329.27	75.67	-45.7	-48.6	21.8	6.02e-01	0	43	0	544210944	63	4920
2026-01-29 01:37:07.49	327.92	75.94	-45.2	-48.0	22.5	6.04e-01	0	44	0	545259520	62	4853
2026-01-29 01:37:08.77	325.35	76.41	-45.9	-49.0	21.5	6.03e-01	0	43	0	547356672	62	5446
2026-01-29 01:37:09.50	323.80	76.66	-45.4	-48.3	22.2	6.03e-01	0	44	0	548929536	62	5019
2026-01-29 01:37:10.78	320.94	77.08	-45.2	-48.1	22.4	6.01e-01	0	44	0	551550976	61	5176
2026-01-29 01:37:11.50	319.24	77.31	-45.3	-48.2	22.3	6.04e-01	0	44	0	552599552	61	5262
2026-01-29 01:37:12.78	316.08	77.68	-45.3	-48.3	22.2	6.00e-01	0	43	0	555220992	61	5299
2026-01-29 01:37:13.50	314.21	77.87	-44.9	-47.6	22.9	6.04e-01	0	44	0	556269568	61	4907
2026-01-29 01:37:14.77	310.78	78.18	-45.6	-48.6	22.0	6.04e-01	0	43	0	558891008	61	5508
2026-01-29 01:37:15.50	308.72	78.34	-45.5	-48.5	22.0	6.02e-01	0	43	0	560463872	62	5140
2026-01-29 01:37:16.78	304.99	78.58	-44.9	-47.6	22.8	6.04e-01	0	43	0	562561024	61	4920
2026-01-29 01:37:17.49	302.86	78.69	-45.6	-48.6	21.9	6.05e-01	0	44	0	564133888	62	5177
2026-01-29 01:37:18.77	298.91	78.85	-44.6	-47.4	23.0	6.02e-01	0	44	0	566231040	61	4766
2026-01-29 01:37:19.76	295.78	78.94	-44.1	-46.7	23.7	6.03e-01	0	43	0	568328192	60	4673
2026-01-29 01:37:20.76	292.58	79.00	-44.1	-46.7	23.7	6.02e-01	0	43	0	569901056	60	4691
2026-01-29 01:37:21.76	289.36	79.02	-44.1	-46.7	23.7	6.03e-01	0	43	0	571998208	59	4942
2026-01-29 01:37:22.75	286.16	79.01	-43.9	-46.4	24.1	6.03e-01	0	43	0	574095360	59	4774
2026-01-29 01:37:23.75	282.95	78.97	-44.6	-47.2	23.3	6.06e-01	0	44	0	575668224	59	5256
2026-01-29 01:37:24.74	279.81	78.89	-44.1	-46.7	23.8	6.01e-01	0	43	0	577765376	60	4658
2026-01-29 01:37:25.74	276.69	78.78	-44.5	-47.2	23.3	6.04e-01	0	43	0	579338240	60	4958
2026-01-29 01:37:26.73	273.67	78.64	-44.4	-47.1	23.3	6.02e-01	0	44	0	581435392	60	4891
2026-01-29 01:37:27.73	270.70	78.46	-44.9	-47.6	22.9	6.04e-01	0	44	0	583008256	60	5202
2026-01-29 01:37:28.73	267.84	78.26	-44.7	-47.4	22.9	6.03e-01	0	43	0	585105408	60	5067
2026-01-29 01:37:29.72	265.10	78.03	-44.7	-47.5	23.0	6.05e-01	0	43	0	586678272	60	5123
2026-01-29 01:37:30.72	262.45	77.78	-44.9	-47.7	22.7	6.05e-01	0	43	0	588775424	60	5249
2026-01-29 01:37:31.71	259.94	77.50	-44.6	-47.5	23.0	6.03e-01	0	43	0	590872576	60	5101
2026-01-29 01:37:32.71	257.53	77.20	-44.9	-47.8	22.7	6.03e-01	0	44	0	592445440	60	5310
2026-01-29 01:37:33.71	255.23	76.88	-44.8	-47.7	22.8	6.04e-01	0	44	0	594542592	60	5246
2026-01-29 01:37:34.70	253.07	76.54	-45.1	-48.1	22.5	6.01e-01	0	44	0	596115456	60	5475
2026-01-29 01:37:35.70	251.00	76.19	-45.6	-48.6	22.0	6.00e-01	0	43	0	598212608	61	5503
2026-01-29 01:37:36.69	249.06	75.82	-45.6	-48.6	22.0	6.04e-01	0	43	0	599785472	62	5175
2026-01-29 01:37:37.69	247.20	75.43	-46.1	-49.4	21.2	6.04e-01	0	43	0	601882624	62	5677
2026-01-29 01:37:38.68	245.47	75.03	-45.8	-49.0	21.5	5.99e-01	0	44	0	603979776	63	5118
2026-01-29 01:37:39.67	243.82	74.63	-46.5	-50.0	20.6	6.03e-01	0	44	0	605552640	63	5760
2026-01-29 01:37:40.67	242.26	74.21	-46.3	-49.8	20.7	6.03e-01	0	43	0	607649792	64	5320
2026-01-29 01:37:41.66	240.79	73.78	-46.4	-49.7	20.8	6.02e-01	0	44	0	609222656	64	5267
2026-01-29 01:37:42.66	239.39	73.34	-45.8	-48.8	21.7	6.04e-01	0	44	0	611319808	63	5006
2026-01-29 01:37:43.66	238.06	72.89	-46.2	-49.5	21.1	6.03e-01	0	44	0	612892672	63	5420
2026-01-29 01:37:44.65	236.82	72.45	-46.6	-50.0	20.4	6.06e-01	0	43	0	614989824	64	5463
2026-01-29 01:37:45.65	235.63	71.99	-45.9	-48.8	21.4	6.04e-01	0	43	0	616562688	63	5021
2026-01-29 01:37:46.64	234.52	71.53	-46.3	-49.4	21.1	6.02e-01	0	44	0	618659840	63	5396
2026-01-29 01:37:47.64	233.45	71.06	-47.0	-50.5	20.1	6.02e-01	0	43	0	620756992	64	5770
2026-01-29 01:37:48.63	232.45	70.60	-46.2	-49.5	20.8	6.04e-01	0	44	0	622329856	64	5120
2026-01-29 01:37:49.63	231.49	70.12	-46.6	-50.0	20.5	6.03e-01	0	44	0	624427008	64	5436
2026-01-29 01:37:50.62	230.58	69.65	-47.4	-51.2	19.4	6.02e-01	0	43	0	625999872	65	5865
2026-01-29 01:37:51.70	229.65	69.13	-48.0	-52.1	18.5	6.02e-01	0	43	0	628097024	66	6145
2026-01-29 01:37:52.55	228.95	68.72	-47.6	-51.4	19.0	6.04e-01	0	43	0	629669888	66	5705
2026-01-29 01:37:53.69	228.05	68.18	-47.4	-51.4	19.1	6.04e-01	0	43	0	631767040	66	5674
2026-01-29 01:37:54.62	227.35	67.73	-48.0	-52.4	18.2	6.04e-01	0	43	0	633339904	66	6405
2026-01-29 01:37:55.62	226.64	67.24	-47.6	-51.5	18.8	6.06e-01	0	44	0	635437056	66	5782
2026-01-29 01:37:56.61	225.96	66.76	-46.7	-50.2	20.2	6.03e-01	0	43	0	637534208	65	5226
2026-01-29 01:37:57.61	225.31	66.28	-46.8	-50.4	20.1	6.03e-01	0	43	0	639107072	64	5682
2026-01-29 01:37:58.60	224.70	65.80	-46.9	-50.7	19.8	6.02e-01	0	43	0	641204224	64	5912
2026-01-29 01:37:59.60	224.10	65.32	-46.5	-50.0	20.5	6.03e-01	0	44	0	642777088	64	5416
2026-01-29 01:38:00.59	223.53	64.84	-46.0	-49.2	21.2	6.05e-01	0	43	0	644874240	64	4944
2026-01-29 01:38:01.59	222.99	64.36	-45.6	-48.6	21.9	6.03e-01	0	44	0	646447104	63	4876
2026-01-29 01:38:02.58	222.47	63.89	-46.1	-49.3	21.3	6.05e-01	0	43	0	648544256	63	5320
2026-01-29 01:38:03.58	221.97	63.41	-46.1	-49.3	21.1	6.02e-01	0	43	0	650117120	63	5331
2026-01-29 01:38:04.57	221.49	62.94	-45.7	-48.7	21.8	6.06e-01	0	44	0	652214272	63	4948
2026-01-29 01:38:05.57	221.02	62.46	-44.6	-47.1	23.2	6.02e-01	0	44	0	654311424	61	4646
2026-01-29 01:38:06.56	220.58	61.99	-45.0	-47.8	22.7	6.05e-01	0	43	0	655884288	60	5300
2026-01-29 01:38:07.55	220.16	61.53	-45.1	-47.8	22.5	6.03e-01	0	43	0	657981440	60	5336
2026-01-29 01:38:08.55	219.74	61.06	-45.2	-48.0	22.4	6.03e-01	0	44	0	659554304	61	5148
2026-01-29 01:38:09.54	219.35	60.59	-44.7	-47.4	23.0	6.02e-01	0	43	0	661651456	61	4782
2026-01-29 01:38:10.54	218.97	60.13	-44.0	-46.5	23.7	6.05e-01	0	44	0	663224320	60	4557
2026-01-29 01:38:11.53	218.60	59.67	-44.2	-46.7	23.7	6.01e-01	0	43	0	665321472	59	4970
2026-01-29 01:38:12.53	218.24	59.21	-44.6	-47.2	23.3	6.04e-01	0	44	0	666894336	59	5269
2026-01-29 01:38:13.52	217.90	58.76	-44.5	-47.2	23.1	6.04e-01	0	43	0	668991488	60	4983
2026-01-29 01:38:14.52	217.57	58.30	-44.0	-46.6	23.7	6.02e-01	0	43	0	671088640	59	4904
2026-01-29 01:38:15.51	217.25	57.86	-43.6	-46.2	24.1	6.04e-01	0	43	0	672661504	59	4667
2026-01-29 01:38:16.51	216.94	57.41	-43.7	-46.3	24.0	6.04e-01	0	43	0	674758656	59	4757
2026-01-29 01:38:17.50	216.64	56.96	-43.5	-46.0	24.3	6.02e-01	0	44	0	676331520	59	4585
2026-01-29 01:38:18.50	216.35	56.52	-43.2	-45.6	24.7	6.05e-01	0	43	0	678428672	58	4626
2026-01-29 01:38:19.49	216.07	56.08	-43.1	-45.5	24.8	6.02e-01	0	43	0	680525824	58	4578
2026-01-29 01:38:20.49	215.80	55.65	-42.9	-45.3	24.9	6.04e-01	0	43	0	682098688	57	4726
2026-01-29 01:38:21.48	215.54	55.22	-42.5	-44.7	25.5	6.03e-01	0	43	0	683671552	57	4440
2026-01-29 01:38:22.47	215.29	54.79	-42.5	-44.7	25.5	6.02e-01	0	43	0	685768704	57	4437
2026-01-29 01:38:23.47	215.04	54.36	-42.4	-44.7	25.6	6.04e-01	0	43	0	687865856	56	4680
2026-01-29 01:38:24.56	214.78	53.90	-42.9	-45.3	25.0	6.04e-01	0	44	0	689963008	56	5006
2026-01-29 01:38:25.41	214.58	53.54	-42.8	-45.2	25.1	6.03e-01	0	43	0	691535872	56	4935
2026-01-29 01:38:26.55	214.32	53.06	-42.3	-44.5	25.7	6.04e-01	0	43	0	693633024	56	4577
2026-01-29 01:38:27.40	214.13	52.71	-42.2	-44.4	25.8	6.03e-01	0	43	0	695205888	56	4513
2026-01-29 01:38:28.54	213.89	52.24	-42.2	-44.3	25.8	6.02e-01	0	43	0	697303040	56	4491
2026-01-29 01:38:29.39	213.71	51.89	-42.3	-44.6	25.6	6.02e-01	0	43	0	698875904	56	4605
2026-01-29 01:38:30.53	213.48	51.42	-42.6	-44.9	25.4	6.02e-01	0	44	0	700973056	56	4772
2026-01-29 01:38:31.38	213.31	51.08	-43.0	-45.3	25.0	6.04e-01	0	43	0	702545920	56	5008
2026-01-29 01:38:32.52	213.09	50.63	-43.0	-45.3	25.0	6.03e-01	0	43	0	704643072	56	5005
2026-01-29 01:38:33.37	212.93	50.29	-42.8	-45.1	25.2	6.04e-01	0	44	0	706215936	56	4896
2026-01-29 01:38:34.51	212.73	49.84	-42.7	-45.0	25.3	6.06e-01	0	44	0	708313088	56	4867
2026-01-29 01:38:35.36	212.58	49.51	-42.7	-45.0	25.3	6.04e-01	0	43	0	709885952	56	4856
2026-01-29 01:38:36.50	212.38	49.07	-43.0	-45.4	24.9	6.03e-01	0	43	0	711983104	56	5059
2026-01-29 01:38:37.35	212.24	48.74	-43.3	-45.6	24.7	6.03e-01	0	43	0	713555968	57	4913
2026-01-29 01:38:38.49	212.05	48.31	-43.5	-45.9	24.4	6.03e-01	0	44	0	715653120	57	5059
2026-01-29 01:38:39.34	211.91	47.98	-43.3	-45.7	24.7	6.05e-01	0	44	0	717225984	57	4954
2026-01-29 01:38:40.48	211.74	47.56	-43.3	-45.7	24.6	6.03e-01	0	43	0	719323136	57	4957
2026-01-29 01:38:41.33	211.61	47.24	-43.2	-45.6	24.7	6.03e-01	0	44	0	721420288	57	4891
2026-01-29 01:38:42.47	211.44	46.82	-43.1	-45.5	24.8	6.05e-01	0	44	0	723517440	57	4842
2026-01-29 01:38:43.32	211.31	46.51	-42.9	-45.3	24.9	6.05e-01	0	43	0	725090304	57	4721
2026-01-29 01:38:44.46	211.15	46.10	-43.0	-45.3	24.9	6.03e-01	0	43	0	727187456	57	4730
2026-01-29 01:38:45.31	211.04	45.79	-43.1	-45.5	24.7	6.02e-01	0	43	0	728760320	57	4836
2026-01-29 01:38:46.45	210.88	45.39	-43.1	-45.4	24.9	6.03e-01	0	44	0	730857472	57	4784
2026-01-29 01:38:47.30	210.77	45.09	-43.1	-45.5	24.8	6.04e-01	0	44	0	732430336	57	4827
2026-01-29 01:38:48.44	210.62	44.69	-43.2	-45.6	24.7	6.04e-01	0	43	0	734527488	57	4903
2026-01-29 01:38:49.29	210.52	44.40	-43.2	-45.5	24.7	6.02e-01	0	43	0	736100352	57	4870
2026-01-29 01:38:50.43	210.37	44.00	-43.1	-45.5	24.7	6.05e-01	0	44	0	738197504	57	4853
2026-01-29 01:38:51.28	210.27	43.71	-43.1	-45.6	24.7	6.02e-01	0	43	0	739770368	57	4872
2026-01-29 01:38:52.42	210.14	43.33	-43.0	-45.4	24.8	6.05e-01	0	44	0	741867520	57	4775
2026-01-29 01:38:53.27	210.04	43.04	-43.0	-45.4	24.8	6.06e-01	0	44	0	743440384	57	4796
2026-01-29 01:38:54.52	209.90	42.63	-43.2	-45.8	24.5	6.05e-01	0	43	0	746061824	57	4986
2026-01-29 01:38:55.37	209.80	42.35	-43.4	-45.9	24.4	6.04e-01	0	43	0	747634688	57	5079
2026-01-29 01:38:56.51	209.68	41.98	-43.7	-46.2	24.0	6.03e-01	0	44	0	749731840	58	4976
2026-01-29 01:38:57.36	209.59	41.71	-44.2	-46.8	23.6	6.02e-01	0	43	0	751304704	58	5301
2026-01-29 01:38:58.63	209.46	41.30	-44.5	-47.2	23.2	6.04e-01	0	43	0	753401856	59	5267
2026-01-29 01:38:59.43	209.38	41.05	-44.4	-47.0	23.2	6.02e-01	0	43	0	754974720	60	4854
2026-01-29 01:39:00.57	209.27	40.69	-44.0	-46.6	23.6	6.04e-01	0	43	0	757071872	60	4599
2026-01-29 01:39:01.42	209.18	40.42	-44.1	-46.7	23.6	6.02e-01	0	43	0	758644736	59	4947
2026-01-29 01:39:02.56	209.07	40.07	-44.2	-46.8	23.5	6.03e-01	0	44	0	760741888	59	5039
2026-01-29 01:39:03.41	208.99	39.81	-44.5	-47.1	23.2	6.03e-01	0	43	0	762314752	59	5216
2026-01-29 01:39:04.55	208.89	39.47	-44.4	-47.0	23.2	6.03e-01	0	43	0	764936192	59	5155
2026-01-29 01:39:05.40	208.81	39.21	-44.6	-47.3	23.1	6.02e-01	0	43	0	766509056	59	5281
2026-01-29 01:39:06.54	208.71	38.87	-44.7	-47.4	22.8	6.02e-01	0	43	0	768606208	60	5095
2026-01-29 01:39:07.39	208.64	38.62	-44.7	-47.5	22.7	6.06e-01	0	43	0	770179072	60	5145
2026-01-29 01:39:08.53	208.54	38.29	-44.3	-47.0	23.1	6.03e-01	0	44	0	772276224	60	4860
2026-01-29 01:39:09.38	208.47	38.04	-44.1	-46.7	23.5	6.03e-01	0	43	0	773849088	60	4692
2026-01-29 01:39:10.52	208.38	37.71	-44.1	-46.7	23.5	6.04e-01	0	44	0	775946240	59	4979
2026-01-29 01:39:11.37	208.31	37.47	-44.2	-46.8	23.5	6.04e-01	0	44	0	777519104	59	5010
2026-01-29 01:39:12.50	208.22	37.15	-44.5	-47.2	23.1	6.05e-01	0	44	0	779616256	59	5251
2026-01-29 01:39:13.36	208.15	36.91	-44.4	-47.1	23.2	6.01e-01	0	43	0	781189120	59	5183
2026-01-29 01:39:14.50	208.07	36.59	-44.1	-46.8	23.5	6.05e-01	0	44	0	783286272	59	5013
2026-01-29 01:39:15.35	208.00	36.36	-44.0	-46.6	23.6	6.03e-01	0	43	0	784859136	59	4914
2026-01-29 01:39:16.49	207.92	36.05	-43.9	-46.5	23.7	6.04e-01	0	43	0	786956288	59	4844
2026-01-29 01:39:17.34	207.86	35.82	-43.9	-46.4	23.8	6.01e-01	0	44	0	788529152	59	4814
2026-01-29 01:39:18.48	207.78	35.51	-43.9	-46.5	23.8	6.04e-01	0	43	0	790626304	59	4821
2026-01-29 01:39:19.33	207.72	35.29	-43.8	-46.3	23.9	6.05e-01	0	43	0	792199168	59	4732
2026-01-29 01:39:20.47	207.64	34.99	-43.6	-46.1	24.2	6.05e-01	0	43	0	794296320	59	4611
2026-01-29 01:39:21.32	207.58	34.76	-43.6	-46.1	24.1	6.03e-01	0	43	0	796393472	59	4643
2026-01-29 01:39:22.45	207.51	34.47	-43.6	-46.1	24.1	6.04e-01	0	44	0	798490624	59	4607
2026-01-29 01:39:23.30	207.45	34.25	-43.7	-46.2	24.0	6.05e-01	0	43	0	800063488	59	4701
2026-01-29 01:39:24.44	207.38	33.96	-43.5	-46.0	24.2	6.06e-01	0	43	0	802160640	59	4584
2026-01-29 01:39:25.30	207.33	33.75	-43.3	-45.8	24.4	6.04e-01	0	43	0	803733504	58	4713
2026-01-29 01:39:26.43	207.26	33.46	-43.0	-45.4	24.7	6.03e-01	0	44	0	805830656	58	4499
2026-01-29 01:39:27.29	207.20	33.25	-42.7	-45.0	25.1	6.05e-01	0	43	0	807403520	57	4580
2026-01-29 01:39:28.52	207.13	32.95	-42.5	-44.8	25.3	6.06e-01	0	43	0	809500672	57	4475
2026-01-29 01:39:29.37	207.08	32.74	-42.5	-44.8	25.2	6.01e-01	0	43	0	811073536	57	4490
2026-01-29 01:39:30.51	207.01	32.46	-42.6	-44.9	25.1	6.03e-01	0	43	0	813170688	57	4527
2026-01-29 01:39:31.36	206.97	32.26	-42.6	-45.0	25.1	6.03e-01	0	43	0	814743552	57	4555
2026-01-29 01:39:32.62	206.89	31.96	-42.7	-45.0	25.0	6.02e-01	0	43	0	817364992	57	4577
2026-01-29 01:39:33.41	206.85	31.77	-42.6	-44.9	25.1	6.04e-01	0	44	0	818937856	57	4539
2026-01-29 01:39:34.61	206.79	31.49	-42.5	-44.8	25.2	6.02e-01	0	43	0	821035008	56	4739
2026-01-29 01:39:35.46	206.74	31.30	-42.6	-44.9	25.2	6.04e-01	0	43	0	822607872	56	4802
2026-01-29 01:39:36.60	206.68	31.03	-42.6	-44.9	25.2	6.01e-01	0	43	0	824705024	56	4799
2026-01-29 01:39:37.45	206.64	30.84	-42.6	-44.9	25.1	6.04e-01	0	43	0	826277888	56	4804
2026-01-29 01:39:38.59	206.58	30.58	-42.5	-44.9	25.2	6.03e-01	0	44	0	828375040	56	4777
2026-01-29 01:39:39.44	206.54	30.39	-42.5	-44.8	25.2	6.05e-01	0	43	0	829947904	56	4757
2026-01-29 01:39:40.58	206.48	30.14	-42.5	-44.8	25.2	6.04e-01	0	44	0	832045056	56	4750
2026-01-29 01:39:41.43	206.44	29.95	-42.5	-44.7	25.2	6.04e-01	0	44	0	834142208	56	4705
2026-01-29 01:39:42.57	206.38	29.70	-42.5	-44.8	25.2	6.02e-01	0	43	0	836239360	56	4733
2026-01-29 01:39:43.42	206.34	29.52	-42.5	-44.8	25.2	6.02e-01	0	43	0	837812224	56	4722
2026-01-29 01:39:44.56	206.29	29.27	-42.3	-44.5	25.5	6.01e-01	0	43	0	839909376	56	4582
2026-01-29 01:39:45.41	206.25	29.09	-42.3	-44.6	25.4	6.04e-01	0	43	0	841482240	56	4624
2026-01-29 01:39:46.55	206.20	28.85	-42.5	-44.8	25.3	6.02e-01	0	43	0	843579392	56	4745
2026-01-29 01:39:47.40	206.16	28.67	-42.5	-44.7	25.3	6.03e-01	0	44	0	845152256	56	4705
2026-01-29 01:39:48.54	206.11	28.43	-42.5	-44.8	25.3	6.05e-01	0	43	0	847249408	56	4713
2026-01-29 01:39:49.39	206.07	28.25	-42.5	-44.8	25.2	6.03e-01	0	43	0	848822272	56	4721
2026-01-29 01:39:50.52	206.02	28.02	-42.6	-44.9	25.1	6.02e-01	0	43	0	850919424	56	4792
2026-01-29 01:39:51.38	205.99	27.85	-42.5	-44.8	25.2	6.01e-01	0	44	0	852492288	56	4733
2026-01-29 01:39:52.51	205.94	27.62	-42.6	-44.9	25.1	6.04e-01	0	43	0	854589440	56	4766
2026-01-29 01:39:53.37	205.91	27.45	-42.7	-45.0	25.0	6.04e-01	0	43	0	856162304	56	4822
2026-01-29 01:39:54.50	205.86	27.22	-42.6	-44.9	25.1	6.04e-01	0	43	0	858259456	56	4807
2026-01-29 01:39:55.36	205.83	27.05	-42.8	-45.1	24.9	6.04e-01	0	43	0	859832320	56	4921
2026-01-29 01:39:56.49	205.78	26.83	-42.9	-45.3	24.8	6.06e-01	0	43	0	861929472	56	4992
2026-01-29 01:39:57.35	205.75	26.66	-43.0	-45.4	24.7	6.03e-01	0	43	0	863502336	56	5073
2026-01-29 01:39:58.49	205.70	26.44	-43.1	-45.6	24.5	6.03e-01	0	43	0	866123776	56	5161
2026-01-29 01:39:59.34	205.67	26.28	-43.3	-45.7	24.4	6.02e-01	0	43	0	867696640	57	4959
2026-01-29 01:40:00.49	205.63	26.06	-43.2	-45.6	24.5	6.05e-01	0	43	0	869793792	57	4901
2026-01-29 01:40:01.34	205.60	25.90	-43.2	-45.6	24.5	6.03e-01	0	43	0	871366656	57	4903
2026-01-29 01:40:02.48	205.56	25.69	-43.2	-45.7	24.5	6.01e-01	0	43	0	873463808	57	4937
2026-01-29 01:40:03.33	205.52	25.53	-43.2	-45.6	24.5	6.04e-01	0	43	0	875036672	57	4922
2026-01-29 01:40:04.60	205.48	25.29	-43.2	-45.7	24.4	6.05e-01	0	43	0	877133824	57	4946
2026-01-29 01:40:05.40	205.45	25.15	-43.2	-45.6	24.5	6.04e-01	0	43	0	878706688	57	4916
2026-01-29 01:40:06.53	205.41	24.94	-43.3	-45.8	24.3	6.04e-01	0	43	0	880803840	57	5007
2026-01-29 01:40:07.39	205.38	24.79	-43.4	-45.9	24.3	6.04e-01	0	43	0	882376704	57	5050
2026-01-29 01:40:08.52	205.35	24.59	-43.4	-45.8	24.3	6.03e-01	0	43	0	884473856	57	5028
2026-01-29 01:40:09.38	205.32	24.43	-43.4	-45.8	24.3	6.05e-01	0	44	0	886046720	57	5026
2026-01-29 01:40:10.51	205.28	24.23	-43.4	-45.9	24.2	6.04e-01	0	43	0	888143872	57	5064
2026-01-29 01:40:11.37	205.25	24.08	-43.3	-45.8	24.3	6.03e-01	0	43	0	889716736	57	5016
2026-01-29 01:40:12.50	205.22	23.89	-43.4	-46.0	24.2	6.02e-01	0	43	0	892338176	57	5106
2026-01-29 01:40:13.36	205.19	23.74	-43.3	-45.8	24.3	6.03e-01	0	43	0	893911040	57	5031
2026-01-29 01:40:14.49	205.15	23.54	-43.3	-45.9	24.2	6.02e-01	0	43	0	896008192	57	5059
2026-01-29 01:40:15.35	205.13	23.40	-43.4	-45.9	24.2	6.06e-01	0	43	0	897581056	57	5062
2026-01-29 01:40:16.48	205.09	23.21	-43.3	-45.9	24.2	6.06e-01	0	43	0	899678208	57	5063
2026-01-29 01:40:17.33	205.07	23.06	-43.4	-45.9	24.2	6.02e-01	0	43	0	901251072	57	5069
2026-01-29 01:40:18.47	205.03	22.87	-43.4	-45.9	24.2	6.02e-01	0	43	0	903348224	57	5085
2026-01-29 01:40:19.32	205.01	22.73	-43.4	-45.9	24.1	6.01e-01	0	43	0	904921088	57	5081
2026-01-29 01:40:20.53	204.97	22.53	-43.5	-46.0	24.1	6.02e-01	0	44	0	907018240	57	5124
2026-01-29 01:40:21.38	204.95	22.39	-43.5	-46.0	24.0	6.03e-01	0	43	0	908591104	57	5146
2026-01-29 01:40:22.52	204.92	22.21	-43.5	-46.0	24.0	6.03e-01	0	43	0	910688256	57	5153
2026-01-29 01:40:23.37	204.89	22.07	-43.5	-46.1	24.0	6.05e-01	0	43	0	912261120	57	5181
2026-01-29 01:40:24.51	204.86	21.89	-43.6	-46.1	24.0	6.05e-01	0	43	0	914882560	57	5199
2026-01-29 01:40:25.36	204.84	21.75	-43.6	-46.1	23.9	6.03e-01	0	43	0	916455424	58	4921
2026-01-29 01:40:26.50	204.81	21.57	-43.6	-46.1	24.0	6.06e-01	0	43	0	918552576	58	4924
2026-01-29 01:40:27.35	204.79	21.44	-43.6	-46.1	24.0	6.04e-01	0	43	0	920125440	58	4897
2026-01-29 01:40:28.49	204.76	21.26	-43.7	-46.3	23.9	6.05e-01	0	43	0	922222592	58	4995
2026-01-29 01:40:29.34	204.73	21.13	-43.6	-46.2	23.9	6.02e-01	0	44	0	923795456	58	4965
2026-01-29 01:40:30.48	204.70	20.96	-43.6	-46.1	24.0	6.03e-01	0	43	0	925892608	58	4905
2026-01-29 01:40:31.33	204.68	20.83	-43.6	-46.1	23.9	6.01e-01	0	43	0	927465472	58	4902
2026-01-29 01:40:32.47	204.65	20.65	-43.6	-46.1	23.9	6.05e-01	0	43	0	929562624	58	4918
2026-01-29 01:40:33.32	204.63	20.53	-43.6	-46.1	24.0	6.03e-01	0	44	0	931135488	58	4891
2026-01-29 01:40:34.46	204.60	20.35	-43.5	-46.0	24.1	6.04e-01	0	44	0	933232640	58	4844
2026-01-29 01:40:35.31	204.58	20.23	-43.5	-46.1	24.0	6.03e-01	0	43	0	934805504	58	4880
2026-01-29 01:40:36.44	204.56	20.06	-43.5	-46.1	24.0	6.04e-01	0	44	0	936902656	58	4891
2026-01-29 01:40:37.29	204.54	19.94	-43.5	-46.0	23.9	6.04e-01	0	43	0	938475520	58	4865
2026-01-29 01:40:38.54	204.51	19.75	-43.5	-46.1	24.0	6.02e-01	0	43	0	941096960	58	4877
2026-01-29 01:40:39.40	204.49	19.63	-43.4	-45.9	24.2	6.04e-01	0	43	0	942669824	58	4777
2026-01-29 01:40:40.60	204.46	19.46	-43.3	-45.7	24.3	6.03e-01	0	44	0	944766976	58	4703
2026-01-29 01:40:41.45	204.44	19.33	-43.3	-45.8	24.2	6.04e-01	0	43	0	946339840	58	4749
2026-01-29 01:40:42.58	204.42	19.17	-43.3	-45.8	24.2	6.04e-01	0	43	0	948436992	58	4722
2026-01-29 01:40:43.44	204.40	19.05	-43.2	-45.7	24.3	6.04e-01	0	43	0	950009856	58	4686
2026-01-29 01:40:44.58	204.37	18.89	-43.2	-45.7	24.3	6.02e-01	0	43	0	952107008	58	4663
2026-01-29 01:40:45.43	204.35	18.77	-43.2	-45.7	24.4	6.03e-01	0	43	0	953679872	58	4654
2026-01-29 01:40:46.57	204.33	18.62	-43.1	-45.5	24.5	6.03e-01	0	43	0	955777024	58	4587
2026-01-29 01:40:47.42	204.31	18.50	-43.1	-45.5	24.5	6.04e-01	0	43	0	957349888	58	4581
2026-01-29 01:40:48.55	204.29	18.34	-43.1	-45.5	24.5	6.04e-01	0	44	0	959971328	58	4597
2026-01-29 01:40:49.41	204.27	18.23	-43.1	-45.5	24.5	6.04e-01	0	43	0	961544192	58	4563
2026-01-29 01:40:50.54	204.25	18.07	-43.1	-45.5	24.4	6.03e-01	0	43	0	963641344	58	4583
2026-01-29 01:40:51.39	204.23	17.96	-43.1	-45.5	24.5	6.02e-01	0	44	0	965214208	58	4565
2026-01-29 01:40:52.53	204.20	17.81	-43.1	-45.5	24.5	6.03e-01	0	44	0	967311360	58	4576
2026-01-29 01:40:53.39	204.19	17.69	-43.1	-45.5	24.4	6.05e-01	0	43	0	968884224	58	4595
2026-01-29 01:40:54.52	204.17	17.54	-43.1	-45.5	24.4	6.05e-01	0	44	0	970981376	58	4577
2026-01-29 01:40:55.38	204.15	17.43	-43.1	-45.6	24.4	6.03e-01	0	44	0	972554240	58	4619
2026-01-29 01:40:56.52	204.13	17.28	-43.1	-45.6	24.3	6.05e-01	0	43	0	974651392	58	4620
2026-01-29 01:40:57.37	204.11	17.17	-43.1	-45.6	24.4	6.04e-01	0	43	0	976224256	58	4614
2026-01-29 01:40:58.62	204.09	17.01	-43.2	-45.7	24.3	6.03e-01	0	43	0	978321408	58	4662
2026-01-29 01:40:59.47	204.07	16.90	-43.2	-45.6	24.4	6.06e-01	0	43	0	980418560	58	4636
2026-01-29 01:41:00.61	204.05	16.75	-43.2	-45.7	24.2	6.03e-01	0	43	0	982515712	58	4695
2026-01-29 01:41:01.46	204.03	16.65	-43.3	-45.8	24.2	6.02e-01	0	43	0	984088576	58	4712
2026-01-29 01:41:02.60	204.01	16.50	-43.4	-45.9	24.1	6.03e-01	0	43	0	986185728	58	4783
2026-01-29 01:41:03.46	204.00	16.39	-43.2	-45.7	24.2	6.04e-01	0	43	0	987758592	58	4693
2026-01-29 01:41:04.59	203.98	16.25	-43.2	-45.8	24.1	6.04e-01	0	43	0	989855744	58	4716
2026-01-29 01:41:05.54	203.96	16.14	-43.2	-45.8	24.2	6.05e-01	0	43	0	991428608	58	4711
2026-01-29 01:41:06.53	203.94	16.01	-43.2	-45.7	24.2	6.03e-01	0	43	0	993525760	58	4682
2026-01-29 01:41:07.52	203.93	15.89	-43.2	-45.7	24.2	6.03e-01	0	43	0	995098624	58	4700
2026-01-29 01:41:08.52	203.91	15.77	-43.1	-45.7	24.3	6.06e-01	0	43	0	997195776	58	4676
2026-01-29 01:41:09.51	203.89	15.65	-43.2	-45.7	24.2	6.01e-01	0	43	0	998768640	58	4696
2026-01-29 01:41:10.51	203.88	15.53	-43.2	-45.8	24.1	6.04e-01	0	43	0	1000865792	58	4714
2026-01-29 01:41:11.50	203.86	15.41	-43.2	-45.8	24.1	6.04e-01	0	43	0	1002962944	58	4738
2026-01-29 01:41:12.50	203.84	15.29	-43.2	-45.8	24.1	6.03e-01	0	43	0	1004535808	58	4742
2026-01-29 01:41:13.49	203.83	15.17	-43.3	-45.9	24.1	6.04e-01	0	43	0	1006632960	58	4767
2026-01-29 01:41:14.49	203.81	15.06	-43.3	-46.0	23.9	6.04e-01	0	43	0	1008205824	58	4821
2026-01-29 01:41:15.48	203.80	14.94	-43.4	-46.0	23.9	6.06e-01	0	43	0	1010302976	58	4865
2026-01-29 01:41:16.47	203.78	14.82	-43.4	-46.1	23.8	6.04e-01	0	43	0	1011875840	58	4897
2026-01-29 01:41:17.47	203.77	14.71	-43.3	-45.9	24.0	6.05e-01	0	43	0	1013972992	58	4814
2026-01-29 01:41:18.47	203.75	14.59	-43.4	-46.0	23.9	6.04e-01	0	44	0	1015545856	58	4841
2026-01-29 01:41:19.46	203.73	14.48	-43.3	-46.0	23.9	6.02e-01	0	43	0	1017643008	58	4818
2026-01-29 01:41:20.46	203.72	14.36	-43.3	-45.9	24.0	6.02e-01	0	43	0	1019740160	58	4792
2026-01-29 01:41:21.45	203.70	14.25	-43.3	-46.0	23.9	6.04e-01	0	43	0	1021313024	58	4824
2026-01-29 01:41:22.54	203.69	14.13	-43.3	-46.0	23.9	6.03e-01	0	43	0	1023410176	58	4845
2026-01-29 01:41:23.39	203.68	14.03	-43.3	-46.0	24.0	6.03e-01	0	43	0	1024983040	58	4816
2026-01-29 01:41:24.53	203.66	13.90	-43.3	-45.9	24.0	6.06e-01	0	43	0	1027080192	58	4804
2026-01-29 01:41:25.38	203.65	13.81	-43.3	-45.9	24.0	6.03e-01	0	43	0	1028653056	58	4802
2026-01-29 01:41:26.52	203.63	13.68	-43.3	-45.9	23.9	6.04e-01	0	44	0	1030750208	58	4814
2026-01-29 01:41:27.37	203.62	13.59	-43.3	-46.0	23.9	6.04e-01	0	44	0	1032323072	58	4829
2026-01-29 01:41:28.50	203.60	13.46	-43.3	-46.0	23.9	6.04e-01	0	43	0	1034420224	58	4830
2026-01-29 01:41:29.36	203.59	13.37	-43.4	-46.1	23.8	6.03e-01	0	43	0	1035993088	58	4907
2026-01-29 01:41:30.49	203.58	13.25	-43.3	-46.1	23.8	6.04e-01	0	43	0	1038614528	58	4873
2026-01-29 01:41:31.35	203.56	13.15	-43.4	-46.1	23.8	6.03e-01	0	44	0	1040187392	58	4912
2026-01-29 01:41:32.49	203.55	13.03	-43.2	-45.9	23.9	6.03e-01	0	44	0	1042284544	58	4800
2026-01-29 01:41:33.34	203.54	12.94	-43.2	-45.9	23.9	6.03e-01	0	43	0	1043857408	58	4791
2026-01-29 01:41:34.59	203.52	12.81	-43.2	-45.9	23.9	6.02e-01	0	43	0	1045954560	58	4782
2026-01-29 01:41:35.44	203.51	12.72	-43.3	-46.0	23.8	6.02e-01	0	43	0	1047527424	58	4830
2026-01-29 01:41:36.64	203.49	12.59	-43.2	-45.9	23.9	6.04e-01	0	43	0	1050148864	58	4800
2026-01-29 01:41:37.49	203.48	12.50	-43.3	-46.0	23.9	6.04e-01	0	43	0	1051721728	58	4841
2026-01-29 01:41:38.63	203.47	12.38	-43.2	-45.9	23.9	6.02e-01	0	43	0	1053818880	58	4808
2026-01-29 01:41:39.48	203.46	12.29	-43.3	-46.0	23.8	6.03e-01	0	43	0	1055391744	58	4851
2026-01-29 01:41:40.62	203.44	12.17	-43.4	-46.1	23.7	6.04e-01	0	43	0	1057488896	58	4893
2026-01-29 01:41:41.47	203.43	12.09	-43.4	-46.1	23.7	6.05e-01	0	43	0	1059061760	58	4891
2026-01-29 01:41:42.61	203.42	11.97	-43.4	-46.2	23.7	6.04e-01	0	43	0	1061158912	58	4929
2026-01-29 01:41:43.46	203.41	11.88	-43.4	-46.2	23.7	6.06e-01	0	44	0	1062731776	58	4938
2026-01-29 01:41:44.60	203.39	11.77	-43.5	-46.3	23.5	6.03e-01	0	43	0	1064828928	58	5019
2026-01-29 01:41:45.64	203.38	11.66	-43.3	-46.1	23.8	6.03e-01	0	43	0	1066926080	58	4880
2026-01-29 01:41:46.81	203.37	11.54	-43.5	-46.3	23.6	6.04e-01	0	43	0	1069023232	58	4994
2026-01-29 01:41:47.66	203.36	11.46	-43.6	-46.4	23.4	6.01e-01	0	43	0	1070596096	58	5061
2026-01-29 01:41:49.00	203.34	11.32	-43.4	-46.1	23.7	6.00e-01	0	43	0	1073217536	58	4917
2026-01-29 01:41:49.71	203.33	11.25	-43.4	-46.2	23.6	6.04e-01	0	43	0	1074266112	58	4961
2026-01-29 01:41:51.20	203.32	11.11	-43.5	-46.3	23.5	6.05e-01	0	43	0	1077411840	58	4994
2026-01-29 01:41:52.16	203.31	11.01	-43.5	-46.3	23.5	6.03e-01	0	43	0	1078984704	58	4993
2026-01-29 01:41:53.47	203.29	10.88	-43.5	-46.3	23.4	6.03e-01	0	44	0	1081606144	58	5037
2026-01-29 01:41:54.18	203.28	10.81	-43.6	-46.5	23.3	6.02e-01	0	44	0	1082654720	58	5114
2026-01-29 01:41:55.82	203.27	10.66	-43.6	-46.5	23.2	6.03e-01	0	43	0	1085800448	58	5159
2026-01-29 01:41:56.39	203.26	10.60	-43.7	-46.6	23.2	6.03e-01	0	43	0	1086849024	58	5217
2026-01-29 01:41:58.09	203.24	10.44	-43.6	-46.5	23.3	6.03e-01	0	43	0	1089994752	58	5117
2026-01-29 01:41:58.74	203.24	10.38	-43.7	-46.6	23.2	6.04e-01	0	44	0	1091567616	58	5178
2026-01-29 01:42:00.17	203.22	10.24	-43.7	-46.6	23.2	6.04e-01	0	43	0	1094189056	58	5187
2026-01-29 01:42:00.88	203.21	10.17	-43.7	-46.6	23.1	6.02e-01	0	43	0	1095237632	58	5209
2026-01-29 01:42:02.15	203.20	10.05	-43.7	-46.6	23.2	6.05e-01	0	43	0	1097859072	58	5175
2026-01-29 01:42:02.87	203.19	9.99	-43.7	-46.7	23.1	6.03e-01	0	44	0	1098907648	58	5245
2026-01-29 01:42:04.14	203.18	9.87	-43.7	-46.7	23.1	6.04e-01	0	43	0	1101529088	58	5227
2026-01-29 01:42:04.85	203.17	9.80	-43.7	-46.6	23.2	6.06e-01	0	43	0	1102577664	58	5199
2026-01-29 01:42:06.15	203.16	9.68	-43.9	-46.9	22.9	6.06e-01	0	43	0	1105199104	58	5373
2026-01-29 01:42:06.86	203.15	9.62	-43.8	-46.8	23.0	6.04e-01	0	43	0	1106771968	58	5288
2026-01-29 01:42:08.14	203.14	9.50	-43.9	-46.8	22.9	6.02e-01	0	43	0	1108869120	58	5319
2026-01-29 01:42:09.19	203.13	9.40	-43.8	-46.7	23.0	6.04e-01	0	44	0	1110966272	58	5256
2026-01-29 01:42:10.34	203.12	9.30	-43.9	-46.8	22.9	6.03e-01	0	43	0	1113063424	58	5317
2026-01-29 01:42:11.36	203.11	9.21	-43.8	-46.7	23.0	6.01e-01	0	43	0	1115160576	58	5277
2026-01-29 01:42:12.35	203.10	9.12	-43.8	-46.8	22.9	6.03e-01	0	43	0	1116733440	58	5287
2026-01-29 01:42:13.55	203.09	9.01	-44.5	-47.7	22.3	6.05e-01	0	43	0	1119354880	59	5533
2026-01-29 01:42:14.40	203.08	8.93	-49.5	-68.2	3.9	7.40e-01	0	43	104	1119879168	69	33024
2026-01-29 01:42:15.54	203.07	8.83	-50.0	-70.4	3.8	7.43e-01	0	44	104	1119879168	70	40270
2026-01-29 01:42:16.39	203.06	8.76	-46.6	-70.1	3.8	7.50e-01	0	44	104	1119879168	65	51705
2026-01-29 01:42:17.52	203.05	8.66	-45.0	-69.4	3.8	7.44e-01	0	44	104	1119879168	62	56597
2026-01-29 01:42:18.38	203.04	8.58	-48.9	-70.4	3.8	7.44e-01	0	43	104	1119879168	68	45023
2026-01-29 01:42:19.51	203.03	8.48	-43.5	-69.1	3.6	7.54e-01	0	44	104	1119879168	59	65534
2026-01-29 01:42:20.36	203.03	8.41	-44.8	-69.1	3.6	7.49e-01	0	44	104	1119879168	59	65533
2026-01-29 01:42:21.50	203.02	8.31	-50.2	-71.1	3.9	7.46e-01	0	44	104	1119879168	71	41192
2026-01-29 01:42:22.35	203.01	8.23	-50.7	-70.9	3.8	7.43e-01	0	44	104	1119879168	71	40278
2026-01-29 01:42:23.49	203.00	8.13	-50.9	-70.9	3.8	7.43e-01	0	44	104	1119879168	72	38123
2026-01-29 01:42:24.34	202.99	8.06	-50.8	-70.9	3.8	7.43e-01	0	44	104	1119879168	72	38121
2026-01-29 01:42:25.49	202.98	7.96	-50.9	-70.2	3.8	7.45e-01	0	44	104	1119879168	72	35189
2026-01-29 01:42:26.34	202.98	7.89	-51.0	-70.7	3.8	7.48e-01	0	44	104	1119879168	72	37173
2026-01-29 01:42:27.54	202.97	7.79	-51.0	-71.0	3.8	7.45e-01	0	44	104	1119879168	72	38365
2026-01-29 01:42:28.39	202.96	7.72	-51.1	-71.0	3.8	7.47e-01	0	44	104	1119879168	72	38480
2026-01-29 01:42:29.59	202.95	7.61	-51.0	-71.1	3.8	7.47e-01	0	43	104	1119879168	72	38689
2026-01-29 01:42:30.44	202.94	7.54	-50.9	-71.0	3.8	7.47e-01	0	43	104	1119879168	72	38594
2026-01-29 01:42:31.64	202.93	7.44	-50.7	-71.0	3.8	7.46e-01	0	44	104	1119879168	72	38349
2026-01-29 01:42:32.49	202.93	7.37	-50.7	-71.0	3.8	7.48e-01	0	44	104	1119879168	72	38477
2026-01-29 01:42:33.69	202.92	7.27	-50.6	-71.0	3.8	7.46e-01	0	43	104	1119879168	72	38497
2026-01-29 01:42:34.54	202.91	7.20	-50.5	-71.0	3.8	7.45e-01	0	43	104	1119879168	72	38586
2026-01-29 01:42:35.68	202.90	7.11	-50.8	-71.0	3.8	7.47e-01	0	44	104	1119879168	72	38571
2026-01-29 01:42:36.53	202.89	7.04	-50.6	-71.0	3.8	7.47e-01	0	43	104	1119879168	72	38548
2026-01-29 01:42:37.66	202.89	6.94	-50.0	-71.0	3.8	7.44e-01	0	44	104	1119879168	72	38561
2026-01-29 01:42:38.51	202.88	6.88	-50.3	-71.0	3.8	7.45e-01	0	44	104	1119879168	72	38491
2026-01-29 01:42:39.65	202.87	6.78	-50.5	-71.0	3.8	7.43e-01	0	44	104	1119879168	72	38257
2026-01-29 01:42:40.50	202.86	6.71	-50.4	-71.0	3.8	7.45e-01	0	43	104	1119879168	72	38275
2026-01-29 01:42:41.64	202.86	6.62	-50.3	-70.9	3.8	7.45e-01	0	43	104	1119879168	72	38147
2026-01-29 01:42:42.49	202.85	6.55	-50.4	-70.9	3.8	7.46e-01	0	44	104	1119879168	72	38002
2026-01-29 01:42:43.62	202.84	6.46	-49.8	-70.9	3.8	7.44e-01	0	44	104	1119879168	71	40164
2026-01-29 01:42:44.47	202.83	6.39	-49.8	-70.9	3.8	7.45e-01	0	43	104	1119879168	71	40196
2026-01-29 01:42:45.61	202.83	6.30	-49.8	-70.9	3.8	7.44e-01	0	44	104	1119879168	71	40175
2026-01-29 01:42:46.46	202.82	6.24	-49.8	-70.9	3.8	7.
