passes_logs/2026/01/29/T1/T1__20260129_142239_FENGYUN_3E_rec.log

#Pass ID: 20260129_142239_FENGYUN 3E
#Satellite: FENGYUN 3E
#Configuration: FENGYUN 3E
#almurnet v.1.7.20251203
#Start time: 2026-01-29 14:22:39

#Version: 2.0.20230620
#Station: T1
#Location: 37.570604 lon 55.790049 lat
#TLE: 1 49008U 21062A   26028.95833242 -.00000015  00000+0  13843-4 0  9995
#TLE: 2 49008  98.7500  33.9242 0002547 112.2873 247.8573 14.19887818236829

#Time	Az	El	Level	Level2	SNR	BER	BlckErr	Temp	State	Recorded	gain1	gain2
2026-01-29 14:22:39.46	165.48	5.01	-50.0	-61.1	3.8	8.46e-01	0	37	0	0	70	12836
2026-01-29 14:22:40.46	165.49	5.08	-50.2	-61.1	3.8	8.47e-01	0	37	104	0	71	12127
2026-01-29 14:22:41.45	165.50	5.15	-50.4	-61.1	3.8	8.47e-01	0	37	104	0	71	12201
2026-01-29 14:22:42.44	165.52	5.22	-50.3	-61.1	3.8	8.47e-01	0	37	104	0	70	12888
2026-01-29 14:22:43.44	165.53	5.29	-50.4	-61.1	3.8	8.47e-01	0	37	104	0	70	12876
2026-01-29 14:22:44.43	165.54	5.37	-50.2	-61.1	3.8	8.48e-01	0	37	104	0	70	12846
2026-01-29 14:22:45.42	165.55	5.44	-49.8	-61.1	3.8	8.46e-01	0	37	104	0	70	12828
2026-01-29 14:22:46.42	165.56	5.51	-50.2	-61.1	3.8	8.47e-01	0	37	104	0	70	12850
2026-01-29 14:22:47.41	165.57	5.58	-50.2	-61.1	3.8	8.46e-01	0	37	104	0	70	12813
2026-01-29 14:22:48.41	165.58	5.66	-50.2	-61.0	3.8	8.46e-01	0	37	104	0	70	12772
2026-01-29 14:22:49.41	165.59	5.73	-50.1	-61.0	3.8	8.46e-01	0	37	104	0	70	12704
2026-01-29 14:22:50.41	165.60	5.80	-50.1	-61.0	3.8	8.47e-01	0	37	104	0	70	12722
2026-01-29 14:22:51.40	165.61	5.88	-50.3	-61.0	3.8	8.48e-01	0	37	104	0	70	12754
2026-01-29 14:22:52.40	165.63	5.95	-50.2	-61.0	3.8	8.47e-01	0	37	104	0	70	12701
2026-01-29 14:22:53.40	165.64	6.03	-50.2	-61.0	3.8	8.47e-01	0	37	104	0	70	12706
2026-01-29 14:22:54.40	165.65	6.10	-50.0	-60.9	3.8	8.47e-01	0	38	104	0	70	12547
2026-01-29 14:22:55.39	165.66	6.17	-50.0	-60.9	3.8	8.47e-01	0	38	104	0	70	12591
2026-01-29 14:22:56.39	165.67	6.25	-49.6	-60.9	3.8	8.47e-01	0	37	104	0	70	12537
2026-01-29 14:22:57.38	165.68	6.32	-49.8	-60.9	3.8	8.45e-01	0	38	104	0	70	12557
2026-01-29 14:22:58.38	165.69	6.40	-49.8	-60.8	3.8	8.46e-01	0	38	104	0	69	13145
2026-01-29 14:22:59.38	165.71	6.47	-49.7	-60.8	3.8	8.46e-01	0	38	104	0	69	13196
2026-01-29 14:23:00.37	165.72	6.55	-49.6	-60.8	3.8	8.47e-01	0	38	104	0	69	13148
2026-01-29 14:23:01.37	165.73	6.63	-49.7	-60.7	3.8	8.48e-01	0	38	104	0	69	12974
2026-01-29 14:23:02.36	165.74	6.70	-49.5	-60.5	3.8	8.47e-01	0	38	104	0	69	12779
2026-01-29 14:23:03.36	165.75	6.78	-49.3	-60.3	3.8	8.47e-01	0	38	104	0	69	12451
2026-01-29 14:23:04.36	165.76	6.86	-47.3	-59.3	3.8	8.46e-01	0	38	104	0	65	13989
2026-01-29 14:23:05.35	165.78	6.93	-48.4	-58.5	3.8	8.47e-01	0	38	104	0	66	12019
2026-01-29 14:23:06.35	165.79	7.01	-48.4	-58.6	3.8	8.48e-01	0	38	104	0	66	12190
2026-01-29 14:23:07.34	165.80	7.09	-48.4	-58.6	3.8	8.45e-01	0	38	104	0	66	12162
2026-01-29 14:23:08.34	165.81	7.16	-48.3	-58.2	3.9	8.45e-01	0	38	104	0	66	11670
2026-01-29 14:23:09.33	165.82	7.24	-48.3	-58.1	3.8	8.46e-01	0	38	104	0	66	11528
2026-01-29 14:23:10.33	165.84	7.32	-48.2	-57.6	4.0	8.46e-01	0	38	104	0	66	10850
2026-01-29 14:23:11.33	165.85	7.40	-48.1	-56.7	4.2	8.41e-01	0	38	0	0	66	9724
2026-01-29 14:23:12.33	165.86	7.48	-47.9	-55.7	4.5	8.27e-01	0	38	0	0	66	8717
2026-01-29 14:23:13.32	165.87	7.55	-47.6	-54.5	5.1	7.80e-01	0	38	0	0	66	7604
2026-01-29 14:23:14.32	165.88	7.63	-47.1	-52.8	6.2	3.22e-01	0	38	0	2097152	65	6639
2026-01-29 14:23:15.31	165.90	7.71	-46.7	-51.8	7.1	1.64e-01	0	38	0	9437184	64	6238
2026-01-29 14:23:16.30	165.91	7.79	-46.3	-50.7	8.3	5.79e-02	0	38	0	16777216	63	5824
2026-01-29 14:23:17.29	165.92	7.87	-45.7	-49.5	9.5	1.99e-02	0	38	0	24117248	62	5370
2026-01-29 14:23:18.29	165.93	7.95	-45.1	-48.4	10.6	6.32e-03	0	38	0	31457280	61	5018
2026-01-29 14:23:19.29	165.95	8.03	-44.7	-47.8	11.2	1.56e-03	0	38	0	37748736	60	4979
2026-01-29 14:23:20.28	165.96	8.11	-44.3	-47.1	11.9	5.39e-04	0	38	0	45088768	59	4841
2026-01-29 14:23:21.27	165.97	8.19	-44.4	-47.2	7.7	2.72e-04	0	38	0	52428800	59	4891
2026-01-29 14:23:22.27	165.98	8.27	-43.9	-46.6	12.5	1.41e-04	0	39	0	59768832	58	4824
2026-01-29 14:23:23.27	166.00	8.35	-43.9	-46.5	12.6	1.27e-04	0	38	0	67108864	58	4793
2026-01-29 14:23:24.26	166.01	8.43	-44.0	-46.7	12.3	2.19e-02	0	38	0	74448896	58	4914
2026-01-29 14:23:25.26	166.02	8.52	-44.4	-47.3	11.8	3.56e-04	0	38	0	80740352	58	5221
2026-01-29 14:23:26.26	166.04	8.60	-44.8	-47.9	11.1	1.29e-03	0	39	0	88080384	59	5284
2026-01-29 14:23:27.26	166.05	8.68	-45.3	-48.8	10.2	3.43e-02	0	39	0	95420416	60	5588
2026-01-29 14:23:28.25	166.06	8.76	-45.9	-50.0	9.0	1.80e-02	0	39	0	102760448	61	6035
2026-01-29 14:23:29.25	166.08	8.85	-46.8	-51.7	7.3	6.33e-02	0	39	0	110100480	62	6942
2026-01-29 14:23:30.25	166.09	8.93	-47.3	-53.5	5.8	3.39e-01	0	39	0	117440512	64	7571
2026-01-29 14:23:31.25	166.10	9.01	-47.9	-55.7	4.5	7.90e-01	0	39	0	118489088	65	9230
2026-01-29 14:23:32.24	166.11	9.10	-48.1	-57.0	3.9	8.45e-01	0	39	104	118489088	65	10727
2026-01-29 14:23:33.24	166.13	9.18	-41.4	-43.5	15.4	0.00e+00	0	39	0	122683392	52	4802
2026-01-29 14:23:34.23	166.14	9.26	-45.5	-49.3	9.8	4.27e-04	0	39	0	130023424	60	5921
2026-01-29 14:23:35.23	166.16	9.35	-48.4	-59.1	3.8	8.47e-01	0	39	104	131072000	66	12846
2026-01-29 14:23:36.22	166.17	9.43	-46.6	-52.0	7.0	4.60e-01	0	39	0	131072000	64	6401
2026-01-29 14:23:37.21	166.18	9.52	-40.6	-42.7	16.2	0.00e+00	0	39	0	138412032	51	4644
2026-01-29 14:23:38.21	166.20	9.60	-40.6	-42.8	16.2	0.00e+00	0	39	0	145752064	51	4654
2026-01-29 14:23:39.21	166.21	9.69	-39.6	-41.6	17.3	0.00e+00	0	39	0	152043520	50	4302
2026-01-29 14:23:40.20	166.22	9.77	-38.9	-40.8	18.0	0.00e+00	0	39	0	159383552	48	4422
2026-01-29 14:23:41.20	166.24	9.86	-38.8	-40.6	18.2	0.00e+00	0	39	0	166723584	48	4309
2026-01-29 14:23:42.19	166.25	9.95	-38.6	-40.4	18.4	0.00e+00	0	39	0	174063616	48	4230
2026-01-29 14:23:43.19	166.27	10.03	-38.6	-40.5	18.1	0.00e+00	0	39	0	181403648	47	4498
2026-01-29 14:23:44.18	166.28	10.12	-38.1	-39.9	18.6	0.00e+00	0	39	0	188743680	47	4198
2026-01-29 14:23:45.18	166.29	10.21	-38.1	-39.8	18.7	0.00e+00	0	39	0	196083712	46	4424
2026-01-29 14:23:46.17	166.31	10.30	-37.9	-39.6	18.9	0.00e+00	0	39	0	203423744	46	4315
2026-01-29 14:23:47.17	166.32	10.38	-37.8	-39.5	17.8	0.00e+00	0	39	0	209715200	46	4270
2026-01-29 14:23:48.16	166.34	10.47	-38.0	-39.7	18.8	0.00e+00	0	39	0	217055232	46	4352
2026-01-29 14:23:49.16	166.35	10.56	-37.9	-39.6	18.9	0.00e+00	0	39	0	224395264	46	4300
2026-01-29 14:23:50.16	166.36	10.65	-37.6	-39.2	19.3	0.00e+00	0	39	0	231735296	46	4116
2026-01-29 14:23:51.15	166.38	10.74	-37.8	-39.3	19.2	0.00e+00	0	39	0	239075328	46	4185
2026-01-29 14:23:52.14	166.39	10.83	-38.1	-39.7	18.9	0.00e+00	0	39	0	246415360	46	4357
2026-01-29 14:23:53.14	166.41	10.92	-37.9	-39.5	19.0	8.67e-03	0	39	0	252706816	46	4286
2026-01-29 14:23:54.13	166.42	11.01	-37.8	-39.3	19.2	0.00e+00	0	39	0	260046848	46	4180
2026-01-29 14:23:55.13	166.44	11.10	-37.6	-39.1	19.4	0.00e+00	0	39	0	267386880	46	4094
2026-01-29 14:23:56.13	166.45	11.19	-37.8	-39.3	19.3	6.98e-05	0	39	0	274726912	46	4156
2026-01-29 14:23:57.12	166.47	11.28	-37.7	-39.2	19.3	0.00e+00	0	39	0	282066944	45	4372
2026-01-29 14:23:58.12	166.48	11.37	-37.5	-39.0	19.5	0.00e+00	0	39	0	289406976	45	4258
2026-01-29 14:23:59.12	166.50	11.47	-37.4	-38.9	19.6	0.00e+00	0	39	0	296747008	45	4208
2026-01-29 14:24:00.12	166.51	11.56	-37.4	-38.8	19.6	0.00e+00	0	39	0	304087040	45	4187
2026-01-29 14:24:01.11	166.53	11.65	-37.4	-38.9	19.6	0.00e+00	0	39	0	310378496	45	4229
2026-01-29 14:24:02.11	166.54	11.74	-37.5	-39.0	19.6	0.00e+00	0	39	0	317718528	45	4252
2026-01-29 14:24:03.11	166.56	11.84	-37.4	-38.9	19.6	0.00e+00	0	39	0	325058560	45	4237
2026-01-29 14:24:04.10	166.58	11.93	-37.4	-38.9	19.6	0.00e+00	0	39	0	332398592	45	4222
2026-01-29 14:24:05.10	166.59	12.03	-37.3	-38.8	19.7	0.00e+00	0	39	0	339738624	45	4167
2026-01-29 14:24:06.09	166.61	12.12	-37.2	-38.6	19.9	0.00e+00	0	39	0	347078656	45	4098
2026-01-29 14:24:07.08	166.62	12.21	-37.3	-38.7	19.8	0.00e+00	0	39	0	353370112	45	4128
2026-01-29 14:24:08.08	166.64	12.31	-37.3	-38.7	19.8	0.00e+00	0	39	0	360710144	45	4131
2026-01-29 14:24:09.08	166.65	12.41	-37.3	-38.7	19.8	0.00e+00	0	39	0	368050176	45	4129
2026-01-29 14:24:10.08	166.67	12.50	-37.2	-38.7	19.8	0.00e+00	0	39	0	375390208	45	4118
2026-01-29 14:24:11.07	166.69	12.60	-37.4	-38.9	19.6	0.00e+00	0	39	0	382730240	45	4208
2026-01-29 14:24:12.07	166.70	12.69	-37.1	-38.6	19.9	0.00e+00	0	39	0	390070272	44	4311
2026-01-29 14:24:13.06	166.72	12.79	-37.1	-38.6	20.0	0.00e+00	0	39	0	396361728	44	4308
2026-01-29 14:24:14.06	166.74	12.89	-37.0	-38.4	20.1	0.00e+00	0	39	0	403701760	44	4234
2026-01-29 14:24:15.06	166.75	12.99	-37.2	-38.6	19.9	0.00e+00	0	39	0	411041792	44	4334
2026-01-29 14:24:16.05	166.77	13.09	-37.1	-38.5	20.0	0.00e+00	0	39	0	418381824	44	4282
2026-01-29 14:24:17.05	166.79	13.18	-36.9	-38.3	20.2	0.00e+00	0	39	0	425721856	44	4178
2026-01-29 14:24:18.04	166.80	13.28	-36.9	-38.3	20.2	0.00e+00	0	39	0	433061888	44	4184
2026-01-29 14:24:19.04	166.82	13.38	-37.0	-38.4	20.1	0.00e+00	0	39	0	440401920	44	4214
2026-01-29 14:24:20.04	166.84	13.48	-36.7	-38.1	20.4	0.00e+00	0	39	0	447741952	44	4063
2026-01-29 14:24:21.03	166.85	13.58	-36.9	-38.3	20.2	0.00e+00	0	39	0	455081984	44	4153
2026-01-29 14:24:22.03	166.87	13.68	-36.8	-38.2	20.3	0.00e+00	0	39	0	461373440	44	4110
2026-01-29 14:24:23.02	166.89	13.78	-36.8	-38.2	20.3	0.00e+00	0	39	0	468713472	44	4099
2026-01-29 14:24:24.02	166.90	13.89	-36.8	-38.2	20.4	0.00e+00	0	39	0	476053504	44	4113
2026-01-29 14:24:25.01	166.92	13.99	-36.8	-38.3	20.3	0.00e+00	0	39	0	483393536	44	4151
2026-01-29 14:24:26.00	166.94	14.09	-36.6	-38.0	20.5	0.00e+00	0	39	0	490733568	44	4032
2026-01-29 14:24:26.99	166.96	14.19	-36.7	-38.1	20.5	0.00e+00	0	39	0	497025024	44	4054
2026-01-29 14:24:27.98	166.97	14.29	-36.3	-37.7	20.6	0.00e+00	0	39	0	504365056	43	4118
2026-01-29 14:24:28.98	166.99	14.40	-36.5	-37.8	20.6	0.00e+00	0	39	0	511705088	43	4182
2026-01-29 14:24:29.98	167.01	14.50	-36.7	-38.1	20.3	0.00e+00	0	39	0	519045120	43	4299
2026-01-29 14:24:30.98	167.03	14.61	-36.5	-37.8	20.5	0.00e+00	0	39	0	526385152	43	4185
2026-01-29 14:24:31.97	167.05	14.71	-36.5	-37.9	20.5	0.00e+00	0	39	0	533725184	43	4221
2026-01-29 14:24:32.97	167.06	14.82	-36.5	-37.9	20.5	0.00e+00	0	39	0	541065216	43	4199
2026-01-29 14:24:33.97	167.08	14.93	-36.5	-37.9	20.5	0.00e+00	0	39	0	548405248	43	4198
2026-01-29 14:24:34.96	167.10	15.03	-36.7	-38.1	20.3	0.00e+00	0	39	0	554696704	43	4326
2026-01-29 14:24:35.96	167.12	15.14	-36.6	-37.9	20.4	0.00e+00	0	39	0	562036736	43	4239
2026-01-29 14:24:36.95	167.14	15.24	-36.7	-38.1	20.3	0.00e+00	0	39	0	569376768	43	4329
2026-01-29 14:24:37.95	167.16	15.35	-36.7	-38.1	20.3	0.00e+00	0	39	0	576716800	43	4300
2026-01-29 14:24:38.95	167.18	15.46	-36.7	-38.1	20.3	0.00e+00	0	40	0	584056832	43	4294
2026-01-29 14:24:39.94	167.20	15.57	-36.7	-38.1	20.3	0.00e+00	0	39	0	591396864	43	4306
2026-01-29 14:24:40.94	167.22	15.68	-36.7	-38.1	20.3	0.00e+00	0	39	0	598736896	43	4323
2026-01-29 14:24:41.93	167.23	15.79	-37.0	-38.4	20.0	0.00e+00	0	39	0	605028352	43	4465
2026-01-29 14:24:42.93	167.25	15.90	-37.0	-38.3	20.1	0.00e+00	0	39	0	612368384	43	4440
2026-01-29 14:24:43.93	167.27	16.01	-36.8	-38.1	20.3	0.00e+00	0	39	0	619708416	43	4340
2026-01-29 14:24:44.92	167.29	16.12	-36.5	-37.9	20.5	0.00e+00	0	39	0	627048448	43	4204
2026-01-29 14:24:45.91	167.31	16.23	-36.6	-38.0	20.4	0.00e+00	0	39	0	634388480	43	4280
2026-01-29 14:24:46.91	167.33	16.35	-36.7	-38.1	20.3	0.00e+00	0	40	0	640679936	43	4306
2026-01-29 14:24:47.90	167.35	16.46	-36.5	-37.9	20.5	0.00e+00	0	39	0	648019968	43	4219
2026-01-29 14:24:48.90	167.37	16.57	-36.6	-38.0	20.4	0.00e+00	0	39	0	655360000	43	4246
2026-01-29 14:24:49.89	167.39	16.69	-36.4	-37.8	20.5	0.00e+00	0	39	0	662700032	43	4176
2026-01-29 14:24:50.89	167.41	16.80	-36.4	-37.7	20.6	0.00e+00	0	39	0	670040064	43	4145
2026-01-29 14:24:51.89	167.43	16.92	-36.3	-37.7	20.6	0.00e+00	0	39	0	677380096	43	4136
2026-01-29 14:24:52.88	167.46	17.03	-36.2	-37.6	20.7	0.00e+00	0	39	0	684720128	43	4080
2026-01-29 14:24:53.88	167.48	17.15	-36.2	-37.6	20.7	0.00e+00	0	39	0	692060160	43	4062
2026-01-29 14:24:54.88	167.50	17.26	-36.2	-37.6	20.7	0.00e+00	0	39	0	699400192	43	4061
2026-01-29 14:24:55.88	167.52	17.38	-36.3	-37.7	20.6	0.00e+00	0	39	0	705691648	42	4377
2026-01-29 14:24:56.87	167.54	17.50	-36.3	-37.6	20.7	0.00e+00	0	39	0	713031680	42	4334
2026-01-29 14:24:57.87	167.56	17.62	-36.3	-37.6	20.6	0.00e+00	0	40	0	720371712	42	4332
2026-01-29 14:24:58.87	167.58	17.74	-36.3	-37.7	20.6	0.00e+00	0	40	0	727711744	42	4363
2026-01-29 14:24:59.87	167.60	17.86	-36.1	-37.5	20.8	0.00e+00	0	39	0	735051776	42	4247
2026-01-29 14:25:00.87	167.63	17.98	-36.1	-37.5	20.8	0.00e+00	0	39	0	742391808	42	4260
2026-01-29 14:25:01.86	167.65	18.10	-36.0	-37.3	20.9	0.00e+00	0	40	0	748683264	42	4187
2026-01-29 14:25:02.85	167.67	18.22	-36.2	-37.6	20.7	0.00e+00	0	39	0	756023296	42	4331
2026-01-29 14:25:03.85	167.69	18.34	-36.1	-37.5	20.8	0.00e+00	0	39	0	763363328	42	4243
2026-01-29 14:25:04.85	167.72	18.46	-36.1	-37.5	20.9	0.00e+00	0	39	0	770703360	42	4244
2026-01-29 14:25:05.84	167.74	18.59	-36.0	-37.3	21.0	0.00e+00	0	39	0	778043392	42	4181
2026-01-29 14:25:06.83	167.76	18.71	-36.0	-37.3	20.9	0.00e+00	0	40	0	785383424	42	4189
2026-01-29 14:25:07.83	167.78	18.83	-35.8	-37.1	21.2	0.00e+00	0	39	0	792723456	42	4086
2026-01-29 14:25:08.82	167.81	18.96	-35.8	-37.1	21.1	0.00e+00	0	39	0	800063488	42	4077
2026-01-29 14:25:09.81	167.83	19.08	-35.7	-37.0	21.2	0.00e+00	0	39	0	806354944	42	4047
2026-01-29 14:25:10.81	167.85	19.21	-35.7	-37.0	21.2	0.00e+00	0	39	0	813694976	42	4039
2026-01-29 14:25:11.80	167.88	19.33	-35.8	-37.1	21.2	0.00e+00	0	39	0	821035008	42	4060
2026-01-29 14:25:12.80	167.90	19.46	-35.7	-37.0	21.2	0.00e+00	0	40	0	828375040	42	4041
2026-01-29 14:25:13.79	167.92	19.59	-35.8	-37.1	21.1	0.00e+00	0	40	0	835715072	42	4089
2026-01-29 14:25:14.78	167.95	19.72	-35.6	-36.9	21.2	0.00e+00	0	39	0	843055104	41	4217
2026-01-29 14:25:15.78	167.97	19.85	-35.6	-36.9	21.2	0.00e+00	0	39	0	849346560	41	4228
2026-01-29 14:25:16.78	168.00	19.98	-35.7	-37.0	21.2	0.00e+00	0	39	0	856686592	41	4278
2026-01-29 14:25:17.77	168.02	20.11	-35.4	-36.7	21.4	0.00e+00	0	39	0	864026624	41	4135
2026-01-29 14:25:18.77	168.05	20.24	-35.5	-36.8	21.3	0.00e+00	0	40	0	871366656	41	4151
2026-01-29 14:25:19.76	168.07	20.37	-35.7	-37.0	21.2	0.00e+00	0	39	0	878706688	41	4250
2026-01-29 14:25:20.75	168.10	20.50	-35.4	-36.8	21.3	0.00e+00	0	39	0	886046720	41	4156
2026-01-29 14:25:21.75	168.12	20.64	-35.4	-36.7	21.4	0.00e+00	0	39	0	892338176	41	4128
2026-01-29 14:25:22.75	168.15	20.77	-35.5	-36.8	21.3	0.00e+00	0	39	0	899678208	41	4157
2026-01-29 14:25:23.73	168.17	20.91	-35.3	-36.6	21.5	0.00e+00	0	40	0	907018240	41	4058
2026-01-29 14:25:24.73	168.20	21.04	-35.4	-36.7	21.3	0.00e+00	0	39	0	914358272	41	4144
2026-01-29 14:25:25.71	168.23	21.18	-35.5	-36.8	21.3	0.00e+00	0	39	0	921698304	41	4185
2026-01-29 14:25:26.71	168.25	21.31	-35.4	-36.7	21.3	0.00e+00	0	39	0	927989760	41	4145
2026-01-29 14:25:27.71	168.28	21.45	-35.4	-36.7	21.3	0.00e+00	0	39	0	935329792	41	4140
2026-01-29 14:25:28.70	168.31	21.59	-35.4	-36.8	21.3	0.00e+00	0	40	0	942669824	41	4164
2026-01-29 14:25:29.70	168.33	21.73	-35.5	-36.8	21.2	0.00e+00	0	39	0	950009856	41	4183
2026-01-29 14:25:30.70	168.36	21.87	-35.4	-36.8	21.3	0.00e+00	0	39	0	957349888	41	4156
2026-01-29 14:25:31.69	168.39	22.01	-35.5	-36.9	21.2	0.00e+00	0	40	0	964689920	41	4199
2026-01-29 14:25:32.68	168.42	22.15	-35.4	-36.8	21.2	0.00e+00	0	40	0	972029952	41	4155
2026-01-29 14:25:33.68	168.44	22.30	-35.4	-36.8	21.2	0.00e+00	0	40	0	979369984	41	4180
2026-01-29 14:25:34.68	168.47	22.44	-35.4	-36.8	21.3	0.00e+00	0	39	0	986710016	41	4150
2026-01-29 14:25:35.67	168.50	22.58	-35.4	-36.8	21.2	0.00e+00	0	39	0	993001472	41	4178
2026-01-29 14:25:36.67	168.53	22.73	-35.5	-36.9	21.1	0.00e+00	0	40	0	1000341504	41	4212
2026-01-29 14:25:37.66	168.56	22.87	-35.4	-36.8	21.2	0.00e+00	0	40	0	1007681536	41	4174
2026-01-29 14:25:38.66	168.59	23.02	-35.5	-36.9	21.1	0.00e+00	0	40	0	1015021568	41	4231
2026-01-29 14:25:39.65	168.62	23.17	-35.5	-37.0	21.1	0.00e+00	0	39	0	1022361600	41	4249
2026-01-29 14:25:40.65	168.65	23.32	-35.5	-36.9	21.1	0.00e+00	0	39	0	1029701632	41	4214
2026-01-29 14:25:41.64	168.68	23.46	-35.2	-36.6	21.4	0.00e+00	0	39	0	1035993088	41	4061
2026-01-29 14:25:42.64	168.71	23.61	-35.1	-36.5	21.4	0.00e+00	0	40	0	1043333120	41	4036
2026-01-29 14:25:43.64	168.74	23.77	-35.2	-36.6	21.3	0.00e+00	0	40	0	1050673152	41	4072
2026-01-29 14:25:44.63	168.77	23.92	-35.1	-36.6	21.4	0.00e+00	0	40	0	1058013184	41	4060
2026-01-29 14:25:45.63	168.80	24.07	-35.1	-36.5	21.4	0.00e+00	0	40	0	1065353216	40	4276
2026-01-29 14:25:46.63	168.83	24.22	-34.9	-36.3	21.6	0.00e+00	0	40	0	1072693248	40	4164
2026-01-29 14:25:47.62	168.86	24.38	-34.9	-36.2	21.6	0.00e+00	0	40	0	1080033280	40	4143
2026-01-29 14:25:48.62	168.89	24.53	-34.9	-36.4	21.6	0.00e+00	0	40	0	1087373312	40	4195
2026-01-29 14:25:49.62	168.92	24.69	-34.9	-36.2	21.7	0.00e+00	0	40	0	1093664768	40	4140
2026-01-29 14:25:50.62	168.96	24.85	-34.8	-36.2	21.7	0.00e+00	0	40	0	1101004800	40	4119
2026-01-29 14:25:51.61	168.99	25.01	-34.7	-36.1	21.8	0.00e+00	0	40	0	1108344832	40	4072
2026-01-29 14:25:52.61	169.02	25.17	-34.7	-36.1	21.8	0.00e+00	0	40	0	1115684864	40	4071
2026-01-29 14:25:53.61	169.06	25.33	-35.0	-36.4	21.6	0.00e+00	0	40	0	1123024896	40	4196
2026-01-29 14:25:54.61	169.09	25.49	-34.7	-36.1	21.8	0.00e+00	0	39	0	1130364928	40	4059
2026-01-29 14:25:55.61	169.12	25.65	-34.7	-36.1	21.9	0.00e+00	0	39	0	1136656384	39	4295
2026-01-29 14:25:56.60	169.16	25.81	-34.7	-36.0	22.0	0.00e+00	0	40	0	1143996416	39	4275
2026-01-29 14:25:57.60	169.19	25.98	-34.7	-36.0	22.0	0.00e+00	0	40	0	1151336448	39	4267
2026-01-29 14:25:58.60	169.23	26.14	-34.7	-36.0	22.0	0.00e+00	0	40	0	1158676480	39	4288
2026-01-29 14:25:59.59	169.26	26.31	-34.8	-36.1	21.9	0.00e+00	0	39	0	1166016512	39	4333
2026-01-29 14:26:00.59	169.30	26.48	-34.7	-36.0	22.0	0.00e+00	0	40	0	1173356544	39	4266
2026-01-29 14:26:01.58	169.33	26.64	-34.6	-35.9	22.1	0.00e+00	0	40	0	1180696576	39	4225
2026-01-29 14:26:02.58	169.37	26.81	-34.6	-35.9	22.1	0.00e+00	0	40	0	1188036608	39	4240
2026-01-29 14:26:03.57	169.41	26.98	-34.8	-36.1	22.0	0.00e+00	0	40	0	1195376640	39	4308
2026-01-29 14:26:04.57	169.44	27.15	-34.6	-35.8	22.2	0.00e+00	0	40	0	1201668096	39	4193
2026-01-29 14:26:05.56	169.48	27.32	-34.6	-35.9	22.2	0.00e+00	0	40	0	1209008128	39	4214
2026-01-29 14:26:06.56	169.52	27.50	-34.7	-36.0	22.1	0.00e+00	0	40	0	1216348160	39	4259
2026-01-29 14:26:07.56	169.56	27.67	-34.7	-36.0	22.2	0.00e+00	0	39	0	1223688192	39	4245
2026-01-29 14:26:08.55	169.59	27.85	-34.7	-36.0	22.2	0.00e+00	0	39	0	1231028224	39	4246
2026-01-29 14:26:09.55	169.63	28.02	-34.7	-35.9	22.2	0.00e+00	0	40	0	1237319680	39	4241
2026-01-29 14:26:10.54	169.67	28.20	-34.8	-36.0	22.1	0.00e+00	0	39	0	1244659712	39	4291
2026-01-29 14:26:11.54	169.71	28.38	-34.6	-35.9	22.2	0.00e+00	0	40	0	1251999744	39	4222
2026-01-29 14:26:12.53	169.75	28.56	-34.5	-35.8	22.3	0.00e+00	0	40	0	1259339776	39	4172
2026-01-29 14:26:13.53	169.79	28.74	-34.6	-35.9	22.2	0.00e+00	0	40	0	1266679808	39	4218
2026-01-29 14:26:14.53	169.83	28.93	-34.6	-35.8	22.2	0.00e+00	0	40	0	1274019840	39	4175
2026-01-29 14:26:15.52	169.87	29.11	-34.7	-36.0	22.2	0.00e+00	0	40	0	1281359872	39	4243
2026-01-29 14:26:16.52	169.92	29.29	-34.8	-36.0	22.1	0.00e+00	0	40	0	1288699904	39	4288
2026-01-29 14:26:17.51	169.96	29.48	-34.8	-36.1	22.1	0.00e+00	0	40	0	1294991360	39	4318
2026-01-29 14:26:18.50	170.00	29.66	-34.9	-36.2	22.0	0.00e+00	0	40	0	1302331392	39	4352
2026-01-29 14:26:19.49	170.04	29.85	-34.7	-36.0	22.1	0.00e+00	0	40	0	1309671424	39	4285
2026-01-29 14:26:20.48	170.09	30.04	-34.6	-35.9	22.2	0.00e+00	0	40	0	1317011456	39	4214
2026-01-29 14:26:21.48	170.13	30.23	-34.4	-35.7	22.3	0.00e+00	0	40	0	1324351488	39	4126
2026-01-29 14:26:22.48	170.18	30.42	-34.5	-35.8	22.3	0.00e+00	0	39	0	1331691520	39	4167
2026-01-29 14:26:23.47	170.22	30.62	-34.5	-35.8	22.2	0.00e+00	0	40	0	1339031552	39	4151
2026-01-29 14:26:24.47	170.27	30.81	-34.4	-35.7	22.3	0.00e+00	0	40	0	1345323008	39	4124
2026-01-29 14:26:25.46	170.31	31.01	-34.3	-35.6	22.2	0.00e+00	0	40	0	1352663040	39	4058
2026-01-29 14:26:26.46	170.36	31.20	-34.4	-35.7	22.1	0.00e+00	0	40	0	1360003072	39	4142
2026-01-29 14:26:27.45	170.40	31.40	-34.4	-35.7	22.2	0.00e+00	0	40	0	1367343104	39	4107
2026-01-29 14:26:28.45	170.45	31.60	-34.4	-35.7	22.1	0.00e+00	0	40	0	1374683136	39	4143
2026-01-29 14:26:29.45	170.50	31.80	-34.3	-35.7	22.2	0.00e+00	0	40	0	1380974592	39	4104
2026-01-29 14:26:30.45	170.55	32.01	-34.6	-35.9	21.9	0.00e+00	0	40	0	1388314624	39	4238
2026-01-29 14:26:31.44	170.60	32.21	-34.6	-36.0	21.9	0.00e+00	0	40	0	1395654656	39	4248
2026-01-29 14:26:32.44	170.65	32.42	-34.5	-35.8	21.9	0.00e+00	0	40	0	1402994688	39	4193
2026-01-29 14:26:33.43	170.70	32.62	-34.6	-36.0	21.8	0.00e+00	0	40	0	1410334720	39	4243
2026-01-29 14:26:34.43	170.75	32.83	-34.6	-36.0	21.8	0.00e+00	0	40	0	1417674752	39	4271
2026-01-29 14:26:35.43	170.80	33.04	-34.4	-35.8	21.9	0.00e+00	0	40	0	1425014784	39	4174
2026-01-29 14:26:36.42	170.85	33.25	-34.5	-35.9	21.8	0.00e+00	0	40	0	1432354816	39	4211
2026-01-29 14:26:37.42	170.91	33.47	-34.5	-35.9	21.9	0.00e+00	0	40	0	1439694848	39	4216
2026-01-29 14:26:38.42	170.96	33.68	-34.5	-35.9	21.9	0.00e+00	0	40	0	1445986304	39	4221
2026-01-29 14:26:39.41	171.01	33.89	-34.5	-36.0	21.8	0.00e+00	0	40	0	1453326336	39	4249
2026-01-29 14:26:40.41	171.07	34.11	-34.6	-36.0	21.8	0.00e+00	0	39	0	1460666368	39	4275
2026-01-29 14:26:41.40	171.13	34.33	-34.5	-35.9	21.9	0.00e+00	0	40	0	1468006400	39	4217
2026-01-29 14:26:50.53	171.67	36.41	-34.3	-35.6	22.6	0.00e+00	0	40	0	1534066688	39	4053
2026-01-29 14:26:51.53	171.73	36.64	-34.4	-35.7	22.5	0.00e+00	0	39	0	1541406720	39	4117
2026-01-29 14:26:52.53	171.80	36.88	-34.3	-35.5	22.6	0.00e+00	0	40	0	1548746752	39	4036
2026-01-29 14:26:53.52	171.86	37.11	-34.5	-35.8	22.3	0.00e+00	0	40	0	1555038208	39	4154
2026-01-29 14:26:54.51	171.93	37.35	-34.6	-35.9	22.2	0.00e+00	0	40	0	1562378240	39	4228
2026-01-29 14:26:55.50	172.00	37.59	-34.9	-36.2	21.9	0.00e+00	0	39	0	1569718272	39	4375
2026-01-29 14:26:56.50	172.07	37.84	-35.0	-36.3	21.8	0.00e+00	0	40	0	1577058304	39	4433
2026-01-29 14:26:57.49	172.13	38.08	-34.8	-36.2	21.9	0.00e+00	0	40	0	1584398336	39	4359
2026-01-29 14:26:58.49	172.20	38.33	-34.8	-36.1	22.0	0.00e+00	0	39	0	1590689792	39	4329
2026-01-29 14:26:59.48	172.27	38.57	-34.7	-36.0	22.0	0.00e+00	0	40	0	1598029824	39	4280
2026-01-29 14:27:00.47	172.35	38.82	-34.6	-36.0	22.0	0.00e+00	0	40	0	1605369856	39	4251
2026-01-29 14:27:01.47	172.42	39.08	-34.6	-36.0	22.1	0.00e+00	0	40	0	1612709888	39	4250
2026-01-29 14:27:02.46	172.49	39.33	-34.6	-36.0	22.1	0.00e+00	0	40	0	1620049920	39	4260
2026-01-29 14:27:03.46	172.57	39.58	-34.6	-36.0	22.0	0.00e+00	0	40	0	1627389952	39	4262
2026-01-29 14:27:04.45	172.65	39.84	-34.7	-36.0	22.0	0.00e+00	0	40	0	1633681408	39	4288
2026-01-29 14:27:05.45	172.72	40.10	-34.7	-36.1	22.0	0.00e+00	0	40	0	1641021440	39	4296
2026-01-29 14:27:06.44	172.80	40.36	-34.7	-36.1	22.0	0.00e+00	0	40	0	1648361472	39	4296
2026-01-29 14:27:07.43	172.88	40.62	-34.7	-36.0	22.1	0.00e+00	0	39	0	1655701504	39	4258
2026-01-29 14:27:08.43	172.96	40.89	-34.7	-36.1	22.1	0.00e+00	0	40	0	1663041536	39	4295
2026-01-29 14:27:09.43	173.05	41.15	-34.8	-36.1	22.1	0.00e+00	0	39	0	1670381568	39	4299
2026-01-29 14:27:10.42	173.13	41.42	-34.7	-36.0	22.1	0.00e+00	0	39	0	1677721600	39	4277
2026-01-29 14:27:11.41	173.22	41.69	-34.7	-36.0	22.1	0.00e+00	0	40	0	1684013056	39	4270
2026-01-29 14:27:12.41	173.30	41.96	-34.6	-35.9	22.3	0.00e+00	0	40	0	1691353088	39	4209
2026-01-29 14:27:13.40	173.39	42.24	-34.7	-35.9	22.3	0.00e+00	0	40	0	1698693120	39	4234
2026-01-29 14:27:14.40	173.48	42.51	-34.7	-35.9	22.3	0.00e+00	0	40	0	1706033152	39	4238
2026-01-29 14:27:15.40	173.57	42.79	-34.8	-36.0	22.2	0.00e+00	0	40	0	1713373184	39	4284
2026-01-29 14:27:16.39	173.66	43.07	-34.8	-36.0	22.2	0.00e+00	0	40	0	1720713216	39	4277
2026-01-29 14:27:17.38	173.76	43.35	-35.0	-36.3	22.0	0.00e+00	0	40	0	1728053248	39	4404
2026-01-29 14:27:18.38	173.85	43.64	-35.0	-36.3	21.9	0.00e+00	0	40	0	1734344704	39	4418
2026-01-29 14:27:19.37	173.95	43.92	-35.0	-36.2	22.0	0.00e+00	0	40	0	1741684736	39	4389
2026-01-29 14:27:20.37	174.05	44.21	-35.0	-36.3	21.9	0.00e+00	0	40	0	1749024768	39	4425
2026-01-29 14:27:21.36	174.15	44.50	-35.4	-36.2	22.7	0.00e+00	0	40	0	1756364800	40	4143
2026-01-29 14:27:22.36	174.25	44.80	-35.4	-36.3	22.7	0.00e+00	0	40	0	1763704832	40	4152
2026-01-29 14:27:23.35	174.36	45.09	-35.5	-36.4	22.6	0.00e+00	0	40	0	1771044864	41	3970
2026-01-29 14:27:24.35	174.47	45.39	-35.5	-36.4	22.6	0.00e+00	0	40	0	1777336320	41	3972
2026-01-29 14:27:25.35	174.57	45.69	-35.6	-36.5	22.5	0.00e+00	0	40	0	1784676352	41	4019
2026-01-29 14:27:26.34	174.68	45.99	-35.6	-36.5	22.5	0.00e+00	0	40	0	1792016384	41	4022
2026-01-29 14:27:27.34	174.80	46.29	-35.8	-36.7	22.3	0.00e+00	0	40	0	1799356416	41	4108
2026-01-29 14:27:28.33	174.91	46.59	-35.8	-36.7	22.2	0.00e+00	0	40	0	1806696448	41	4127
2026-01-29 14:27:29.33	175.03	46.90	-36.1	-37.0	22.0	0.00e+00	0	40	0	1814036480	41	4262
2026-01-29 14:27:30.33	175.15	47.21	-36.0	-36.9	22.1	0.00e+00	0	40	0	1821376512	41	4211
2026-01-29 14:27:31.32	175.27	47.52	-35.9	-36.8	22.2	0.00e+00	0	40	0	1828716544	41	4157
2026-01-29 14:27:32.32	175.39	47.84	-36.0	-36.9	22.1	0.00e+00	0	40	0	1836056576	41	4227
2026-01-29 14:27:33.31	175.52	48.15	-36.1	-37.0	22.0	0.00e+00	0	40	0	1842348032	41	4271
2026-01-29 14:27:34.31	175.65	48.47	-36.5	-37.4	21.7	0.00e+00	0	40	0	1849688064	42	4221
2026-01-29 14:27:35.30	175.78	48.79	-36.5	-37.4	21.7	0.00e+00	0	40	0	1857028096	42	4209
2026-01-29 14:27:36.30	175.91	49.11	-36.6	-37.5	21.6	0.00e+00	0	40	0	1864368128	42	4270
2026-01-29 14:27:37.29	176.05	49.44	-36.6	-37.5	21.5	0.00e+00	0	40	0	1871708160	42	4285
2026-01-29 14:27:38.29	176.19	49.76	-36.5	-37.4	21.6	0.00e+00	0	40	0	1877999616	42	4236
2026-01-29 14:27:39.29	176.33	50.09	-36.3	-37.2	21.8	0.00e+00	0	40	0	1885339648	43	3899
2026-01-29 14:27:40.28	176.48	50.42	-36.4	-37.3	21.7	0.00e+00	0	40	0	1892679680	43	3928
2026-01-29 14:27:41.28	176.63	50.76	-36.3	-37.2	21.8	0.00e+00	0	40	0	1900019712	43	3893
2026-01-29 14:27:42.27	176.78	51.09	-36.3	-37.2	21.8	0.00e+00	0	40	0	1907359744	43	3895
2026-01-29 14:27:43.27	176.94	51.43	-36.5	-37.4	21.7	0.00e+00	0	40	0	1914699776	43	3962
2026-01-29 14:27:44.26	177.09	51.77	-36.8	-37.7	21.3	0.00e+00	0	40	0	1920991232	43	4145
2026-01-29 14:27:45.26	177.26	52.11	-36.9	-37.9	21.3	0.00e+00	0	40	0	1928331264	43	4198
2026-01-29 14:27:46.25	177.42	52.46	-36.8	-37.7	21.4	0.00e+00	0	40	0	1935671296	43	4119
2026-01-29 14:27:47.25	177.60	52.80	-36.7	-37.6	21.5	0.00e+00	0	40	0	1943011328	43	4079
2026-01-29 14:27:48.24	177.77	53.15	-36.5	-37.4	21.7	0.00e+00	0	40	0	1950351360	43	3998
2026-01-29 14:27:49.24	177.95	53.50	-36.7	-37.6	21.4	0.00e+00	0	40	0	1957691392	43	4075
2026-01-29 14:27:50.24	178.13	53.86	-36.5	-37.4	21.7	0.00e+00	0	40	0	1965031424	43	3970
2026-01-29 14:27:51.23	178.32	54.21	-36.3	-37.2	21.9	0.00e+00	0	40	0	1972371456	43	3884
2026-01-29 14:27:52.23	178.51	54.57	-36.6	-37.5	21.6	0.00e+00	0	40	0	1978662912	43	4024
2026-01-29 14:27:53.22	178.71	54.93	-36.8	-37.8	21.3	0.00e+00	0	40	0	1986002944	43	4164
2026-01-29 14:27:54.21	178.91	55.29	-37.0	-37.9	21.2	0.00e+00	0	40	0	1993342976	43	4239
2026-01-29 14:27:55.21	179.11	55.65	-36.7	-37.7	21.4	0.00e+00	0	40	0	2000683008	43	4105
2026-01-29 14:27:56.20	179.32	56.02	-36.4	-37.3	21.8	0.00e+00	0	40	0	2008023040	43	3949
2026-01-29 14:27:57.20	179.54	56.39	-36.4	-37.3	21.8	0.00e+00	0	40	0	2015363072	43	3933
2026-01-29 14:27:58.19	179.77	56.75	-36.2	-37.1	21.9	0.00e+00	0	40	0	2021654528	43	3837
2026-01-29 14:27:59.19	180.00	57.13	-36.2	-37.1	21.9	0.00e+00	0	40	0	2028994560	43	3843
2026-01-29 14:28:00.19	180.23	57.50	-36.8	-37.7	21.4	0.00e+00	0	40	0	2036334592	43	4135
2026-01-29 14:28:01.18	180.47	57.88	-37.0	-37.9	21.4	0.00e+00	0	40	0	2043674624	44	3999
2026-01-29 14:28:02.18	180.72	58.26	-37.0	-37.9	21.4	0.00e+00	0	40	0	2051014656	44	3961
2026-01-29 14:28:03.17	180.98	58.63	-36.8	-37.7	21.6	0.00e+00	0	40	0	2058354688	44	3895
2026-01-29 14:28:04.17	181.24	59.02	-37.0	-37.9	21.4	0.00e+00	0	40	0	2065694720	44	3970
2026-01-29 14:28:05.17	181.51	59.40	-36.3	-37.1	21.8	0.00e+00	0	40	0	2073034752	43	3862
2026-01-29 14:28:06.16	181.79	59.79	-36.4	-37.2	21.9	0.00e+00	0	40	0	2080374784	42	4144
2026-01-29 14:28:07.16	182.08	60.18	-35.9	-36.8	22.2	0.00e+00	0	40	0	2086666240	42	3936
2026-01-29 14:28:08.15	182.37	60.56	-35.9	-36.8	22.3	0.00e+00	0	40	0	2094006272	42	3925
2026-01-29 14:28:09.15	182.68	60.95	-36.1	-37.0	22.1	0.00e+00	0	40	0	2101346304	42	4043
2026-01-29 14:28:10.14	182.99	61.34	-36.4	-37.3	21.8	0.00e+00	0	40	0	2108686336	42	4160
2026-01-29 14:28:11.14	183.32	61.74	-35.7	-36.5	22.2	0.00e+00	0	40	0	2116026368	41	4043
2026-01-29 14:28:12.14	183.66	62.14	-35.9	-36.8	22.2	0.00e+00	0	39	0	2122317824	42	3936
2026-01-29 14:28:13.14	184.00	62.54	-35.8	-36.6	22.4	0.00e+00	0	40	0	2129657856	42	3863
2026-01-29 14:28:14.14	184.36	62.94	-35.8	-36.7	22.4	0.00e+00	0	39	0	2136997888	42	3869
2026-01-29 14:28:15.13	184.73	63.33	-35.8	-36.7	22.3	0.00e+00	0	40	0	2144337920	42	3900
2026-01-29 14:28:16.13	185.11	63.74	-36.1	-37.0	22.0	0.00e+00	0	40	0	2151677952	41	4291
2026-01-29 14:28:17.12	185.51	64.14	-35.2	-36.0	22.9	0.00e+00	0	40	0	2159017984	41	3809
2026-01-29 14:28:18.12	185.92	64.54	-35.2	-36.1	22.9	0.00e+00	0	40	0	2166358016	41	3827
2026-01-29 14:28:19.12	186.34	64.95	-35.4	-36.3	22.7	0.00e+00	0	39	0	2173698048	41	3919
2026-01-29 14:28:20.12	186.79	65.35	-35.2	-36.0	22.9	0.00e+00	0	40	0	2181038080	41	3812
2026-01-29 14:28:21.11	187.24	65.76	-34.9	-35.7	23.2	0.00e+00	0	39	0	2187329536	40	3886
2026-01-29 14:28:22.11	187.71	66.16	-34.9	-35.8	23.2	0.00e+00	0	40	0	2194669568	39	4148
2026-01-29 14:28:23.10	188.20	66.57	-34.9	-35.7	23.3	0.00e+00	0	40	0	2202009600	39	4130
2026-01-29 14:28:24.10	188.71	66.98	-35.2	-36.0	23.0	0.00e+00	0	40	0	2209349632	39	4268
2026-01-29 14:28:25.09	189.24	67.38	-35.2	-36.0	23.0	0.00e+00	0	40	0	2216689664	39	4280
2026-01-29 14:28:26.09	189.79	67.79	-35.0	-35.9	23.1	0.00e+00	0	40	0	2224029696	39	4214
2026-01-29 14:28:27.09	190.37	68.20	-34.9	-35.7	23.1	0.00e+00	0	40	0	2230321152	39	4140
2026-01-29 14:28:28.08	190.96	68.61	-34.8	-35.6	23.4	0.00e+00	0	40	0	2237661184	39	4063
2026-01-29 14:28:29.07	191.58	69.01	-35.0	-35.8	23.2	0.00e+00	0	40	0	2245001216	39	4193
2026-01-29 14:28:30.07	192.23	69.42	-35.2	-36.0	23.0	0.00e+00	0	40	0	2252341248	39	4262
2026-01-29 14:28:31.07	192.91	69.83	-35.6	-36.4	22.6	0.00e+00	0	40	0	2259681280	40	4236
2026-01-29 14:28:32.06	193.61	70.23	-35.9	-36.8	22.3	0.00e+00	0	40	0	2265972736	41	4149
2026-01-29 14:28:33.05	194.34	70.63	-35.7	-36.6	22.4	0.00e+00	0	40	0	2273312768	41	4065
2026-01-29 14:28:34.05	195.11	71.04	-35.2	-36.0	22.9	0.00e+00	0	40	0	2280652800	41	3816
2026-01-29 14:28:35.04	195.91	71.43	-35.1	-35.9	23.0	0.00e+00	0	39	0	2287992832	40	3987
2026-01-29 14:28:36.04	196.76	71.83	-35.1	-36.0	23.0	0.00e+00	0	40	0	2295332864	40	4020
2026-01-29 14:28:37.03	197.63	72.23	-34.9	-35.8	23.2	0.00e+00	0	40	0	2302672896	40	3931
2026-01-29 14:28:38.02	198.55	72.62	-35.1	-36.0	22.9	0.00e+00	0	40	0	2310012928	40	4007
2026-01-29 14:28:39.01	199.51	73.01	-35.1	-36.0	23.0	0.00e+00	0	40	0	2317352960	40	4007
2026-01-29 14:28:40.01	200.53	73.39	-34.9	-35.7	23.2	0.00e+00	0	40	0	2323644416	40	3895
2026-01-29 14:28:41.00	201.59	73.77	-34.7	-35.5	23.4	0.00e+00	0	40	0	2330984448	40	3792
2026-01-29 14:28:42.00	202.72	74.15	-34.6	-35.4	23.4	0.00e+00	0	40	0	2338324480	39	4002
2026-01-29 14:28:43.00	203.90	74.53	-34.7	-35.5	23.4	0.00e+00	0	40	0	2345664512	39	4016
2026-01-29 14:28:44.00	205.14	74.90	-34.7	-35.5	23.5	0.00e+00	0	40	0	2353004544	39	4027
2026-01-29 14:28:45.00	206.44	75.26	-34.3	-35.1	23.8	0.00e+00	0	39	0	2360344576	39	3835
2026-01-29 14:28:45.99	207.80	75.62	-33.8	-34.6	24.2	0.00e+00	0	40	0	2367684608	38	3837
2026-01-29 14:28:46.99	209.24	75.97	-33.9	-34.7	24.1	0.00e+00	0	40	0	2373976064	38	3902
2026-01-29 14:28:47.98	210.75	76.30	-33.9	-34.7	24.0	0.00e+00	0	40	0	2381316096	38	3894
2026-01-29 14:28:48.98	212.34	76.64	-33.8	-34.6	24.1	0.00e+00	0	40	0	2388656128	38	3835
2026-01-29 14:28:49.97	214.00	76.95	-33.8	-34.6	24.2	0.00e+00	0	40	0	2395996160	38	3841
2026-01-29 14:28:50.97	215.77	77.27	-33.9	-34.7	24.1	0.00e+00	0	40	0	2403336192	38	3875
2026-01-29 14:28:51.96	217.60	77.56	-33.8	-34.6	24.2	0.00e+00	0	40	0	2409627648	38	3855
2026-01-29 14:28:52.95	219.53	77.85	-33.9	-34.7	24.1	0.00e+00	0	40	0	2416967680	38	3893
2026-01-29 14:28:53.95	221.56	78.12	-34.1	-34.9	24.0	0.00e+00	0	40	0	2424307712	38	3978
2026-01-29 14:28:54.94	223.67	78.38	-34.0	-34.8	24.0	0.00e+00	0	40	0	2431647744	38	3939
2026-01-29 14:28:55.94	225.90	78.62	-33.7	-34.5	24.3	0.00e+00	0	40	0	2438987776	38	3784
2026-01-29 14:28:56.93	228.20	78.85	-33.5	-34.2	24.5	0.00e+00	0	40	0	2446327808	37	3903
2026-01-29 14:28:57.93	230.62	79.05	-33.6	-34.4	24.4	0.00e+00	0	40	0	2453667840	37	3981
2026-01-29 14:28:58.92	233.10	79.24	-33.6	-34.4	24.4	0.00e+00	0	40	0	2461007872	37	3972
2026-01-29 14:28:59.92	235.69	79.41	-33.6	-34.4	24.3	0.00e+00	0	40	0	2468347904	37	3980
2026-01-29 14:29:00.91	238.34	79.55	-33.7	-34.5	24.3	0.00e+00	0	40	0	2474639360	37	4020
2026-01-29 14:29:01.91	241.08	79.68	-33.6	-34.4	24.4	0.00e+00	0	40	0	2481979392	37	3966
2026-01-29 14:29:02.90	243.85	79.78	-33.2	-34.0	24.7	0.00e+00	0	40	0	2489319424	37	3799
2026-01-29 14:29:03.90	246.70	79.85	-33.2	-34.0	24.7	0.00e+00	0	40	0	2496659456	36	4005
2026-01-29 14:29:04.89	249.56	79.90	-33.8	-34.6	24.1	0.00e+00	0	40	0	2503999488	36	4311
2026-01-29 14:29:05.89	252.47	79.93	-34.0	-34.8	24.0	0.00e+00	0	40	0	2511339520	37	4171
2026-01-29 14:29:06.88	255.36	79.93	-34.0	-34.8	23.9	0.00e+00	0	40	0	2517630976	37	4188
2026-01-29 14:29:07.87	258.24	79.90	-33.8	-34.6	24.2	0.00e+00	0	40	0	2524971008	37	4072
2026-01-29 14:29:08.87	261.13	79.85	-33.8	-34.6	24.0	0.00e+00	0	40	0	2532311040	37	4052
2026-01-29 14:29:09.86	263.96	79.78	-33.8	-34.6	24.1	0.00e+00	0	40	0	2539651072	37	4092
2026-01-29 14:29:10.86	266.76	79.68	-33.9	-34.7	24.0	0.00e+00	0	40	0	2546991104	37	4138
2026-01-29 14:29:11.85	269.48	79.56	-33.9	-34.8	24.0	0.00e+00	0	40	0	2553282560	37	4152
2026-01-29 14:29:12.84	272.12	79.42	-33.9	-34.7	24.0	0.00e+00	0	40	0	2560622592	37	4144
2026-01-29 14:29:13.84	274.72	79.25	-33.6	-34.4	24.3	0.00e+00	0	39	0	2567962624	37	3978
2026-01-29 14:29:14.83	277.20	79.06	-33.5	-34.3	24.4	0.00e+00	0	39	0	2575302656	37	3937
2026-01-29 14:29:15.83	279.62	78.86	-33.9	-34.7	23.9	0.00e+00	0	40	0	2582642688	37	4125
2026-01-29 14:29:16.83	281.95	78.63	-33.8	-34.6	24.2	0.00e+00	0	40	0	2589982720	37	4078
2026-01-29 14:29:17.82	284.16	78.39	-33.7	-34.5	24.2	0.00e+00	0	40	0	2597322752	37	4028
2026-01-29 14:29:18.82	286.29	78.13	-33.5	-34.3	24.4	0.00e+00	0	40	0	2604662784	37	3930
2026-01-29 14:29:19.82	288.33	77.86	-33.5	-34.3	24.5	0.00e+00	0	40	0	2612002816	37	3930
2026-01-29 14:29:20.81	290.25	77.57	-33.6	-34.4	24.4	0.00e+00	0	40	0	2618294272	37	3962
2026-01-29 14:29:21.81	292.11	77.27	-33.6	-34.4	24.3	0.00e+00	0	39	0	2625634304	37	3992
2026-01-29 14:29:22.80	293.85	76.97	-33.9	-34.7	24.1	0.00e+00	0	39	0	2632974336	37	4139
2026-01-29 14:29:23.80	295.53	76.64	-34.1	-34.9	23.9	0.00e+00	0	40	0	2640314368	37	4219
2026-01-29 14:29:24.80	297.13	76.31	-34.1	-34.9	23.8	0.00e+00	0	40	0	2647654400	37	4232
2026-01-29 14:29:25.79	298.63	75.98	-34.0	-34.8	24.0	0.00e+00	0	40	0	2654994432	37	4172
2026-01-29 14:29:26.79	300.08	75.63	-34.3	-35.1	23.7	0.00e+00	0	40	0	2661285888	38	4093
2026-01-29 14:29:27.78	301.44	75.27	-34.5	-35.4	23.5	0.00e+00	0	40	0	2668625920	38	4199
2026-01-29 14:29:28.78	302.74	74.91	-34.5	-35.3	23.6	0.00e+00	0	40	0	2675965952	38	4193
2026-01-29 14:29:29.77	303.97	74.55	-34.7	-35.6	23.2	0.00e+00	0	40	0	2683305984	38	4301
2026-01-29 14:29:30.76	305.14	74.18	-34.8	-35.7	23.3	0.00e+00	0	40	0	2690646016	39	4107
2026-01-29 14:29:31.76	306.27	73.80	-35.0	-35.9	23.1	0.00e+00	0	40	0	2696937472	39	4212
2026-01-29 14:29:32.76	307.34	73.41	-34.9	-35.7	23.2	0.00e+00	0	39	0	2704277504	39	4136
2026-01-29 14:29:33.75	308.35	73.03	-34.7	-35.5	23.4	0.00e+00	0	40	0	2711617536	39	4039
2026-01-29 14:29:34.74	309.31	72.64	-35.0	-35.9	23.1	0.00e+00	0	40	0	2718957568	39	4205
2026-01-29 14:29:35.73	310.23	72.25	-35.2	-36.0	23.0	0.00e+00	0	40	0	2726297600	39	4285
2026-01-29 14:29:36.73	311.12	71.86	-35.3	-36.2	22.6	0.00e+00	0	40	0	2733637632	40	4101
2026-01-29 14:29:37.73	311.96	71.46	-35.4	-36.3	22.6	0.00e+00	0	40	0	2740977664	40	4153
2026-01-29 14:29:38.72	312.76	71.06	-35.3	-36.2	22.8	0.00e+00	0	40	0	2748317696	40	4106
2026-01-29 14:29:39.72	313.54	70.66	-35.4	-36.2	22.7	0.00e+00	0	40	0	2755657728	40	4117
2026-01-29 14:29:40.71	314.27	70.26	-35.7	-36.5	22.5	0.00e+00	0	40	0	2761949184	40	4282
2026-01-29 14:29:41.71	314.98	69.85	-35.9	-36.8	22.2	0.00e+00	0	40	0	2769289216	41	4165
2026-01-29 14:29:42.70	315.65	69.45	-35.9	-36.8	22.2	0.00e+00	0	40	0	2776629248	41	4157
2026-01-29 14:29:43.70	316.30	69.04	-35.4	-36.3	22.7	0.00e+00	0	40	0	2783969280	41	3921
2026-01-29 14:29:44.69	316.92	68.64	-35.2	-36.0	23.0	0.00e+00	0	40	0	2791309312	41	3796
2026-01-29 14:29:45.68	317.51	68.23	-35.1	-35.9	22.9	0.00e+00	0	40	0	2798649344	41	3766
2026-01-29 14:29:46.68	318.09	67.82	-35.2	-36.1	22.9	0.00e+00	0	40	0	2804940800	40	4071
2026-01-29 14:29:47.67	318.64	67.42	-35.3	-36.2	22.8	0.00e+00	0	40	0	2812280832	40	4115
2026-01-29 14:29:48.67	319.17	67.01	-35.2	-36.0	22.9	0.00e+00	0	40	0	2819620864	40	4050
2026-01-29 14:29:49.66	319.68	66.61	-35.1	-35.9	23.0	0.00e+00	0	40	0	2826960896	40	4001
2026-01-29 14:29:50.65	320.17	66.20	-34.9	-35.7	23.2	0.00e+00	0	40	0	2834300928	40	3884
2026-01-29 14:29:51.64	320.64	65.80	-35.1	-35.9	23.0	0.00e+00	0	40	0	2840592384	40	3997
2026-01-29 14:29:52.64	321.09	65.39	-35.0	-35.8	23.0	0.00e+00	0	40	0	2847932416	40	3939
2026-01-29 14:29:53.63	321.53	64.99	-35.1	-35.9	23.0	0.00e+00	0	40	0	2855272448	40	3994
2026-01-29 14:29:54.63	321.96	64.59	-35.2	-36.1	22.9	0.00e+00	0	40	0	2862612480	40	4057
2026-01-29 14:29:55.62	322.37	64.19	-35.5	-36.4	22.6	0.00e+00	0	40	0	2869952512	40	4200
2026-01-29 14:29:56.61	322.76	63.79	-35.5	-36.3	22.6	0.00e+00	0	40	0	2877292544	40	4188
2026-01-29 14:29:57.61	323.15	63.39	-35.5	-36.4	22.6	0.00e+00	0	40	0	2883584000	40	4199
2026-01-29 14:29:58.61	323.52	62.99	-35.5	-36.4	22.6	0.00e+00	0	40	0	2890924032	40	4206
2026-01-29 14:29:59.60	323.87	62.59	-35.7	-36.6	22.4	0.00e+00	0	40	0	2898264064	41	4062
2026-01-29 14:30:00.60	324.22	62.19	-36.0	-36.9	22.1	0.00e+00	0	40	0	2905604096	41	4219
2026-01-29 14:30:01.60	324.56	61.80	-36.3	-37.2	21.8	0.00e+00	0	40	0	2912944128	41	4345
2026-01-29 14:30:02.59	324.88	61.41	-36.4	-37.3	21.7	0.00e+00	0	40	0	2920284160	42	4183
2026-01-29 14:30:03.59	325.20	61.01	-36.4	-37.3	21.7	0.00e+00	0	40	0	2927624192	42	4179
2026-01-29 14:30:04.58	325.50	60.63	-36.3	-37.1	21.8	0.00e+00	0	40	0	2934964224	42	4094
2026-01-29 14:30:05.58	325.80	60.24	-36.3	-37.2	21.9	0.00e+00	0	40	0	2942304256	42	4109
2026-01-29 14:30:06.57	326.09	59.85	-36.5	-37.4	21.4	0.00e+00	0	40	0	2948595712	42	4226
2026-01-29 14:30:07.57	326.37	59.47	-36.4	-37.3	21.8	0.00e+00	0	40	0	2955935744	42	4176
2026-01-29 14:30:08.57	326.64	59.08	-36.3	-37.1	22.0	0.00e+00	0	40	0	2963275776	42	4086
2026-01-29 14:30:09.57	326.91	58.70	-36.2	-37.1	21.8	0.00e+00	0	40	0	2970615808	42	4081
2026-01-29 14:30:10.57	327.16	58.32	-36.3	-37.2	21.8	0.00e+00	0	40	0	2977955840	42	4123
2026-01-29 14:30:11.56	327.41	57.94	-36.6	-37.5	21.3	0.00e+00	0	40	0	2984247296	42	4288
2026-01-29 14:30:12.56	327.66	57.57	-36.8	-37.7	21.4	0.00e+00	0	40	0	2991587328	43	4129
2026-01-29 14:30:13.56	327.89	57.19	-36.9	-37.9	21.0	0.00e+00	0	40	0	2999975936	43	4205
2026-01-29 14:30:14.56	328.12	56.82	-36.9	-37.8	21.3	0.00e+00	0	40	0	3006267392	43	4179
2026-01-29 14:30:15.56	328.35	56.45	-36.7	-37.6	21.5	0.00e+00	0	40	0	3013607424	43	4079
2026-01-29 14:30:16.56	328.57	56.08	-36.6	-37.5	21.6	0.00e+00	0	40	0	3020947456	43	4048
2026-01-29 14:30:17.56	328.78	55.71	-36.5	-37.4	21.5	0.00e+00	0	40	0	3028287488	43	4004
2026-01-29 14:30:18.56	328.99	55.35	-36.5	-37.4	21.6	0.00e+00	0	40	0	3035627520	43	3989
2026-01-29 14:30:19.55	329.19	54.99	-36.6	-37.5	21.6	0.00e+00	0	40	0	3042967552	43	4035
2026-01-29 14:30:20.55	329.39	54.63	-36.7	-37.6	21.5	0.00e+00	0	40	0	3049259008	43	4070
2026-01-29 14:30:21.55	329.58	54.27	-36.7	-37.7	21.4	0.00e+00	0	40	0	3056599040	43	4101
2026-01-29 14:30:22.55	329.77	53.92	-36.9	-37.9	21.1	0.00e+00	0	40	0	3063939072	43	4200
2026-01-29 14:30:23.55	329.95	53.56	-36.8	-37.7	21.3	0.00e+00	0	40	0	3071279104	43	4114
2026-01-29 14:30:24.55	330.13	53.21	-36.7	-37.6	21.4	0.00e+00	0	40	0	3078619136	43	4085
2026-01-29 14:30:25.55	330.31	52.86	-36.6	-37.5	21.6	0.00e+00	0	40	0	3085959168	43	4019
2026-01-29 14:30:26.55	330.48	52.52	-36.5	-37.4	21.7	0.00e+00	0	40	0	3093299200	43	3975
2026-01-29 14:30:27.54	330.64	52.18	-36.3	-37.2	21.7	0.00e+00	0	40	0	3100639232	43	3889
2026-01-29 14:30:28.54	330.81	51.83	-36.2	-37.0	22.0	0.00e+00	0	40	0	3106930688	43	3807
2026-01-29 14:30:29.54	330.97	51.49	-36.3	-37.2	21.8	0.00e+00	0	40	0	3114270720	43	3871
2026-01-29 14:30:30.54	331.12	51.15	-36.5	-37.4	21.7	0.00e+00	0	40	0	3121610752	43	3973
2026-01-29 14:30:31.54	331.28	50.82	-36.7	-37.6	21.6	0.00e+00	0	40	0	3128950784	43	4065
2026-01-29 14:30:32.54	331.43	50.49	-36.7	-37.7	21.2	0.00e+00	0	40	0	3136290816	43	4112
2026-01-29 14:30:33.54	331.57	50.15	-36.7	-37.6	21.4	0.00e+00	0	40	0	3143630848	43	4091
2026-01-29 14:30:34.54	331.72	49.82	-36.7	-37.6	21.3	0.00e+00	0	40	0	3150970880	43	4098
2026-01-29 14:30:35.54	331.86	49.50	-36.4	-37.3	21.7	0.00e+00	0	40	0	3158310912	43	3954
2026-01-29 14:30:36.54	332.00	49.17	-36.3	-37.2	21.9	0.00e+00	0	40	0	3165650944	43	3893
2026-01-29 14:30:37.54	332.13	48.85	-36.3	-37.2	21.7	0.00e+00	0	40	0	3171942400	43	3897
2026-01-29 14:30:38.53	332.26	48.53	-36.2	-37.1	21.9	0.00e+00	0	40	0	3179282432	42	4081
2026-01-29 14:30:39.53	332.39	48.21	-36.0	-36.9	22.1	0.00e+00	0	40	0	3186622464	42	3972
2026-01-29 14:30:40.53	332.52	47.90	-35.8	-36.6	22.3	0.00e+00	0	40	0	3193962496	42	3853
2026-01-29 14:30:41.53	332.64	47.58	-35.7	-36.5	22.5	0.00e+00	0	40	0	3201302528	42	3807
2026-01-29 14:30:42.53	332.76	47.27	-35.6	-36.4	22.6	0.00e+00	0	40	0	3208642560	42	3773
2026-01-29 14:30:43.53	332.88	46.96	-35.5	-36.3	22.7	0.00e+00	0	39	0	3215982592	41	3927
2026-01-29 14:30:44.52	333.00	46.66	-35.5	-36.4	22.6	0.00e+00	0	40	0	3223322624	41	3972
2026-01-29 14:30:45.52	333.12	46.35	-35.5	-36.3	22.6	0.00e+00	0	40	0	3230662656	41	3949
2026-01-29 14:30:46.51	333.23	46.05	-35.4	-36.2	22.7	0.00e+00	0	40	0	3236954112	41	3902
2026-01-29 14:30:47.51	333.34	45.75	-35.3	-36.1	22.8	0.00e+00	0	40	0	3244294144	41	3852
2026-01-29 14:30:48.50	333.45	45.46	-35.2	-36.0	22.0	0.00e+00	0	40	0	3251634176	40	4028
2026-01-29 14:30:49.50	333.55	45.16	-34.9	-35.8	23.1	0.00e+00	0	40	0	3258974208	40	3916
2026-01-29 14:30:50.50	333.66	44.86	-34.8	-35.6	23.2	0.00e+00	0	40	0	3266314240	40	3836
2026-01-29 14:30:51.49	333.76	44.57	-34.8	-35.6	23.3	0.00e+00	0	40	0	3272605696	40	3852
2026-01-29 14:30:52.49	333.86	44.28	-34.7	-35.5	23.3	0.00e+00	0	40	0	3279945728	40	3820
2026-01-29 14:30:53.49	333.96	44.00	-34.7	-35.5	23.3	0.00e+00	0	40	0	3287285760	40	3801
2026-01-29 14:30:54.49	334.06	43.71	-34.8	-35.6	23.3	0.00e+00	0	40	0	3294625792	40	3844
2026-01-29 14:30:55.49	334.16	43.42	-34.9	-35.7	23.2	0.00e+00	0	40	0	3301965824	40	3889
2026-01-29 14:30:56.49	334.25	43.14	-34.9	-35.8	23.1	0.00e+00	0	40	0	3309305856	40	3926
2026-01-29 14:30:57.49	334.35	42.86	-35.0	-35.8	23.0	0.00e+00	0	40	0	3316645888	40	3956
2026-01-29 14:30:58.48	334.44	42.59	-35.0	-35.9	22.7	0.00e+00	0	40	0	3323985920	40	3981
2026-01-29 14:30:59.48	334.53	42.31	-35.0	-35.9	22.7	0.00e+00	0	40	0	3331325952	40	3992
2026-01-29 14:31:00.48	334.62	42.04	-35.0	-35.8	23.1	0.00e+00	0	40	0	3337617408	40	3954
2026-01-29 14:31:01.47	334.70	41.77	-35.0	-35.8	23.0	0.00e+00	0	40	0	3344957440	40	3955
2026-01-29 14:31:02.47	334.79	41.50	-35.1	-36.0	22.9	0.00e+00	0	40	0	3352297472	40	4012
2026-01-29 14:31:03.47	334.87	41.23	-35.2	-36.1	22.8	0.00e+00	0	40	0	3359637504	40	4082
2026-01-29 14:31:04.47	334.96	40.96	-35.4	-36.3	22.1	0.00e+00	0	40	0	3366977536	40	4183
2026-01-29 14:31:05.46	335.04	40.70	-35.6	-36.5	22.5	0.00e+00	0	40	0	3374317568	40	4276
2026-01-29 14:31:06.46	335.12	40.44	-35.7	-36.6	22.4	0.00e+00	0	40	0	3380609024	40	4321
2026-01-29 14:31:07.46	335.20	40.17	-35.8	-36.7	22.3	0.00e+00	0	40	0	3387949056	41	4110
2026-01-29 14:31:08.45	335.28	39.92	-35.8	-36.7	22.3	0.00e+00	0	40	0	3395289088	41	4106
2026-01-29 14:31:09.44	335.35	39.66	-35.7	-36.6	22.3	0.00e+00	0	40	0	3402629120	41	4081
2026-01-29 14:31:10.44	335.43	39.41	-35.6	-36.5	22.5	0.00e+00	0	40	0	3409969152	41	4009
2026-01-29 14:31:11.44	335.50	39.15	-35.3	-36.2	22.7	0.00e+00	0	40	0	3417309184	41	3894
2026-01-29 14:31:12.44	335.58	38.90	-35.1	-35.9	23.0	0.00e+00	0	40	0	3424649216	41	3770
2026-01-29 14:31:13.44	335.65	38.65	-34.9	-35.7	23.1	0.00e+00	0	40	0	3431989248	40	3907
2026-01-29 14:31:14.43	335.72	38.41	-34.8	-35.7	23.0	0.00e+00	0	40	0	3438280704	40	3880
2026-01-29 14:31:15.43	335.79	38.16	-34.7	-35.5	23.4	0.00e+00	0	40	0	3445620736	39	4030
2026-01-29 14:31:16.43	335.86	37.92	-34.6	-35.4	23.4	0.00e+00	0	40	0	3452960768	39	3999
2026-01-29 14:31:17.43	335.93	37.67	-34.7	-35.5	23.4	0.00e+00	0	40	0	3460300800	39	4040
2026-01-29 14:31:18.42	336.00	37.43	-34.7	-35.5	23.4	0.00e+00	0	40	0	3467640832	39	4019
2026-01-29 14:31:19.42	336.06	37.19	-34.7	-35.5	23.3	0.00e+00	0	40	0	3474980864	39	4032
2026-01-29 14:31:20.42	336.13	36.96	-34.9	-35.7	23.2	0.00e+00	0	40	0	3482320896	39	4119
2026-01-29 14:31:21.42	336.19	36.72	-35.0	-35.9	23.1	0.00e+00	0	40	0	3489660928	39	4203
2026-01-29 14:31:22.42	336.26	36.49	-35.1	-35.9	22.9	0.00e+00	0	40	0	3497000960	39	4238
2026-01-29 14:31:23.42	336.32	36.25	-35.1	-35.9	23.0	0.00e+00	0	40	0	3503292416	39	4224
2026-01-29 14:31:24.42	336.38	36.02	-35.1	-35.9	23.0	0.00e+00	0	40	0	3510632448	39	4240
2026-01-29 14:31:25.41	336.45	35.79	-35.0	-35.8	23.1	0.00e+00	0	40	0	3517972480	39	4185
2026-01-29 14:31:26.41	336.51	35.57	-34.9	-35.7	23.2	0.00e+00	0	40	0	3525312512	39	4138
2026-01-29 14:31:27.40	336.57	35.34	-34.8	-35.7	23.3	0.00e+00	0	40	0	3532652544	39	4103
2026-01-29 14:31:28.40	336.62	35.12	-34.8	-35.7	23.2	0.00e+00	0	40	0	3539992576	39	4114
2026-01-29 14:31:29.40	336.68	34.89	-34.8	-35.6	23.0	0.00e+00	0	40	0	3546284032	39	4095
2026-01-29 14:31:30.41	336.74	34.67	-34.6	-35.4	23.3	0.00e+00	0	40	0	3553624064	39	3995
2026-01-29 14:31:31.41	336.80	34.45	-34.5	-35.4	23.5	0.00e+00	0	39	0	3560964096	39	3970
2026-01-29 14:31:32.40	336.85	34.23	-34.7	-35.5	23.3	0.00e+00	0	40	0	3568304128	39	4039
2026-01-29 14:31:33.41	336.91	34.01	-34.7	-35.5	23.3	0.00e+00	0	40	0	3575644160	39	4040
2026-01-29 14:31:34.41	336.97	33.80	-34.7	-35.5	23.4	0.00e+00	0	40	0	3582984192	39	4034
2026-01-29 14:31:35.41	337.02	33.58	-34.7	-35.5	23.4	0.00e+00	0	40	0	3590324224	39	4030
2026-01-29 14:31:36.41	337.07	33.37	-34.8	-35.6	23.2	0.00e+00	0	40	0	3597664256	39	4090
2026-01-29 14:31:37.41	337.13	33.16	-34.8	-35.6	23.3	0.00e+00	0	40	0	3603955712	39	4094
2026-01-29 14:31:38.41	337.18	32.95	-34.9	-35.8	23.1	0.00e+00	0	40	0	3611295744	39	4152
2026-01-29 14:31:39.41	337.23	32.74	-34.8	-35.6	23.3	0.00e+00	0	40	0	3618635776	39	4098
2026-01-29 14:31:40.41	337.28	32.54	-34.9	-35.8	23.1	0.00e+00	0	40	0	3625975808	39	4156
2026-01-29 14:31:41.41	337.33	32.33	-34.9	-35.8	23.1	0.00e+00	0	40	0	3633315840	39	4156
2026-01-29 14:31:42.42	337.38	32.12	-35.0	-35.8	23.1	0.00e+00	0	40	0	3640655872	39	4192
2026-01-29 14:31:43.42	337.43	31.92	-34.9	-35.8	23.2	0.00e+00	0	40	0	3647995904	39	4147
2026-01-29 14:31:44.42	337.48	31.72	-34.9	-35.8	23.1	0.00e+00	0	40	0	3655335936	39	4162
2026-01-29 14:31:45.42	337.53	31.52	-34.9	-35.8	23.1	0.00e+00	0	40	0	3662675968	39	4172
2026-01-29 14:31:46.43	337.58	31.32	-34.9	-35.8	23.1	0.00e+00	0	40	0	3670016000	39	4176
2026-01-29 14:31:47.43	337.62	31.12	-35.1	-36.0	23.0	0.00e+00	0	40	0	3677356032	39	4246
2026-01-29 14:31:48.42	337.67	30.93	-34.9	-35.8	23.1	0.00e+00	0	40	0	3684696064	39	4181
2026-01-29 14:31:49.42	337.72	30.73	-35.0	-35.9	23.1	0.00e+00	0	40	0	3690987520	39	4194
2026-01-29 14:31:50.43	337.76	30.54	-35.0	-35.9	23.1	0.00e+00	0	40	0	3698327552	39	4214
2026-01-29 14:31:51.43	337.81	30.34	-35.1	-36.0	22.9	0.00e+00	0	40	0	3705667584	39	4262
2026-01-29 14:31:52.43	337.85	30.15	-35.1	-36.0	22.9	0.00e+00	0	40	0	3713007616	39	4276
2026-01-29 14:31:53.43	337.90	29.96	-35.1	-36.0	22.9	0.00e+00	0	40	0	3720347648	39	4260
2026-01-29 14:31:54.43	337.94	29.78	-35.2	-36.1	22.7	0.00e+00	0	40	0	3727687680	39	4304
2026-01-29 14:31:55.44	337.98	29.59	-35.3	-36.2	22.7	0.00e+00	0	40	0	3735027712	40	4099
2026-01-29 14:31:56.44	338.03	29.40	-35.2	-36.0	22.8	0.00e+00	0	40	0	3742367744	40	4039
2026-01-29 14:31:57.44	338.07	29.22	-35.3	-36.1	22.7	0.00e+00	0	40	0	3748659200	40	4090
2026-01-29 14:31:58.44	338.11	29.03	-35.3	-36.2	22.7	0.00e+00	0	40	0	3755999232	40	4112
2026-01-29 14:31:59.44	338.15	28.85	-35.4	-36.2	22.6	0.00e+00	0	40	0	3763339264	40	4142
2026-01-29 14:32:00.44	338.19	28.67	-35.3	-36.2	22.7	0.00e+00	0	40	0	3770679296	40	4118
2026-01-29 14:32:01.44	338.23	28.49	-35.3	-36.2	22.7	0.00e+00	0	40	0	3778019328	40	4113
2026-01-29 14:32:02.44	338.27	28.31	-35.4	-36.3	22.6	0.00e+00	0	40	0	3785359360	40	4170
2026-01-29 14:32:03.44	338.31	28.13	-35.4	-36.3	22.6	0.00e+00	0	40	0	3792699392	40	4154
2026-01-29 14:32:04.44	338.35	27.96	-35.3	-36.2	22.7	0.00e+00	0	40	0	3800039424	40	4107
2026-01-29 14:32:05.44	338.39	27.78	-35.2	-36.1	22.8	0.00e+00	0	40	0	3807379456	40	4076
2026-01-29 14:32:06.44	338.43	27.61	-35.2	-36.1	22.7	0.00e+00	0	40	0	3813670912	40	4087
2026-01-29 14:32:07.44	338.47	27.43	-35.2	-36.1	22.7	0.00e+00	0	40	0	3821010944	40	4074
2026-01-29 14:32:08.44	338.51	27.26	-35.3	-36.2	22.7	0.00e+00	0	40	0	3828350976	40	4114
2026-01-29 14:32:09.44	338.54	27.09	-35.4	-36.3	22.5	0.00e+00	0	40	0	3835691008	40	4151
2026-01-29 14:32:10.44	338.58	26.92	-35.2	-36.1	22.8	0.00e+00	0	40	0	3843031040	40	4068
2026-01-29 14:32:11.44	338.62	26.75	-35.3	-36.2	22.7	0.00e+00	0	40	0	3850371072	40	4099
2026-01-29 14:32:12.44	338.66	26.58	-35.2	-36.1	22.8	0.00e+00	0	40	0	3857711104	40	4057
2026-01-29 14:32:13.45	338.69	26.41	-35.3	-36.2	22.7	0.00e+00	0	40	0	3865051136	40	4109
2026-01-29 14:32:14.45	338.73	26.25	-35.2	-36.1	22.8	0.00e+00	0	40	0	3872391168	40	4066
2026-01-29 14:32:15.45	338.76	26.08	-35.1	-36.0	22.8	0.00e+00	0	40	0	3878682624	40	4025
2026-01-29 14:32:16.46	338.80	25.92	-35.2	-36.0	22.6	0.00e+00	0	40	0	3886022656	40	4045
2026-01-29 14:32:17.45	338.83	25.76	-35.2	-36.0	22.6	0.00e+00	0	40	0	3893362688	40	4045
2026-01-29 14:32:18.46	338.87	25.59	-35.2	-36.0	22.9	0.00e+00	0	40	0	3900702720	40	4029
2026-01-29 14:32:19.46	338.90	25.43	-35.2	-36.1	22.7	0.00e+00	0	40	0	3908042752	40	4066
2026-01-29 14:32:20.45	338.94	25.27	-35.2	-36.0	22.8	0.00e+00	0	40	0	3915382784	40	4035
2026-01-29 14:32:21.46	338.97	25.11	-35.2	-36.1	22.7	0.00e+00	0	40	0	3922722816	40	4061
2026-01-29 14:32:22.46	339.00	24.96	-35.2	-36.1	22.7	0.00e+00	0	40	0	3930062848	40	4058
2026-01-29 14:32:23.46	339.04	24.80	-35.3	-36.1	22.6	0.00e+00	0	40	0	3936354304	40	4098
2026-01-29 14:32:24.46	339.07	24.64	-35.3	-36.1	22.7	0.00e+00	0	40	0	3943694336	40	4092
2026-01-29 14:32:25.46	339.10	24.49	-35.3	-36.1	22.6	0.00e+00	0	40	0	3952082944	40	4078
2026-01-29 14:32:26.47	339.13	24.33	-35.2	-36.1	22.8	0.00e+00	0	40	0	3958374400	40	4069
2026-01-29 14:32:27.47	339.17	24.18	-35.2	-36.1	22.7	0.00e+00	0	40	0	3965714432	40	4061
2026-01-29 14:32:28.47	339.20	24.02	-35.4	-36.2	22.6	0.00e+00	0	40	0	3973054464	40	4141
2026-01-29 14:32:29.47	339.23	23.87	-35.3	-36.2	22.7	0.00e+00	0	40	0	3980394496	40	4108
2026-01-29 14:32:30.47	339.26	23.72	-35.4	-36.2	22.6	0.00e+00	0	40	0	3987734528	40	4131
2026-01-29 14:32:31.47	339.29	23.57	-35.2	-36.1	22.8	0.00e+00	0	40	0	3995074560	40	4073
2026-01-29 14:32:32.47	339.32	23.42	-35.2	-36.1	22.7	0.00e+00	0	40	0	4002414592	40	4056
2026-01-29 14:32:33.47	339.35	23.28	-35.3	-36.1	22.7	0.00e+00	0	40	0	4009754624	40	4087
2026-01-29 14:32:34.47	339.38	23.13	-35.2	-36.0	22.8	0.00e+00	0	40	0	4017094656	40	4042
2026-01-29 14:32:35.47	339.41	22.98	-35.3	-36.1	22.7	0.00e+00	0	40	0	4023386112	40	4087
2026-01-29 14:32:36.47	339.44	22.84	-35.3	-36.2	22.7	0.00e+00	0	39	0	4030726144	40	4116
2026-01-29 14:32:37.47	339.47	22.69	-35.3	-36.1	22.6	0.00e+00	0	40	0	4038066176	40	4097
2026-01-29 14:32:38.48	339.50	22.55	-35.4	-36.3	22.6	0.00e+00	0	40	0	4045406208	40	4159
2026-01-29 14:32:39.48	339.53	22.40	-35.3	-36.2	22.7	0.00e+00	0	40	0	4052746240	40	4101
2026-01-29 14:32:40.48	339.56	22.26	-35.4	-36.2	22.6	0.00e+00	0	40	0	4060086272	40	4142
2026-01-29 14:32:41.48	339.59	22.12	-35.4	-36.2	22.5	0.00e+00	0	40	0	4067426304	40	4141
2026-01-29 14:32:42.48	339.61	21.98	-35.3	-36.2	22.6	0.00e+00	0	40	0	4074766336	40	4122
2026-01-29 14:32:43.48	339.64	21.84	-35.4	-36.3	22.6	0.00e+00	0	40	0	4082106368	40	4160
2026-01-29 14:32:44.48	339.67	21.70	-35.4	-36.3	22.6	0.00e+00	0	40	0	4088397824	40	4160
2026-01-29 14:32:45.48	339.70	21.56	-35.4	-36.3	22.5	0.00e+00	0	40	0	4095737856	40	4178
2026-01-29 14:32:46.48	339.72	21.42	-35.6	-36.5	22.3	0.00e+00	0	40	0	4103077888	40	4247
2026-01-29 14:32:47.49	339.75	21.28	-35.5	-36.4	22.5	0.00e+00	0	39	0	4110417920	40	4196
2026-01-29 14:32:48.49	339.78	21.15	-35.6	-36.5	22.4	0.00e+00	0	40	0	4117757952	40	4257
2026-01-29 14:32:49.49	339.81	21.01	-35.7	-36.5	22.3	0.00e+00	0	40	0	4125097984	40	4284
2026-01-29 14:32:50.49	339.83	20.88	-35.7	-36.5	22.3	0.00e+00	0	40	0	4132438016	40	4280
2026-01-29 14:32:51.49	339.86	20.74	-35.8	-36.6	22.2	0.00e+00	0	40	0	4139778048	41	4090
2026-01-29 14:32:52.49	339.88	20.61	-35.7	-36.6	22.3	0.00e+00	0	39	0	4146069504	41	4077
2026-01-29 14:32:53.49	339.91	20.48	-35.8	-36.7	22.2	0.00e+00	0	40	0	4153409536	41	4104
2026-01-29 14:32:54.50	339.94	20.34	-35.8	-36.7	22.2	0.00e+00	0	40	0	4160749568	41	4125
2026-01-29 14:32:55.50	339.96	20.21	-35.9	-36.8	22.1	0.00e+00	0	40	0	4168089600	41	4164
2026-01-29 14:32:56.50	339.99	20.08	-36.0	-36.9	21.9	0.00e+00	0	39	0	4175429632	41	4237
2026-01-29 14:32:57.50	340.01	19.95	-36.0	-36.9	22.0	0.00e+00	0	40	0	4182769664	41	4209
2026-01-29 14:32:58.50	340.04	19.82	-36.1	-37.0	21.9	0.00e+00	0	39	0	4190109696	41	4264
2026-01-29 14:32:59.51	340.06	19.69	-36.0	-36.9	21.9	0.00e+00	0	40	0	4197449728	41	4209
2026-01-29 14:33:00.51	340.09	19.56	-36.0	-36.9	21.9	0.00e+00	0	40	0	4204789760	41	4234
2026-01-29 14:33:01.51	340.11	19.44	-36.0	-36.9	22.0	0.00e+00	0	40	0	4212129792	41	4227
2026-01-29 14:33:02.51	340.14	19.31	-36.1	-37.0	21.8	0.00e+00	0	40	0	4218421248	41	4283
2026-01-29 14:33:03.51	340.16	19.18	-36.0	-36.9	21.9	0.00e+00	0	40	0	4226809856	41	4225
2026-01-29 14:33:04.52	340.19	19.06	-36.0	-36.9	21.9	0.00e+00	0	40	0	4233101312	41	4222
2026-01-29 14:33:05.51	340.21	18.93	-36.1	-37.0	21.8	0.00e+00	0	40	0	4240441344	41	4271
2026-01-29 14:33:06.52	340.23	18.81	-36.1	-37.0	21.9	0.00e+00	0	40	0	4247781376	41	4249
2026-01-29 14:33:07.52	340.26	18.68	-36.1	-37.0	21.8	0.00e+00	0	40	0	4255121408	41	4249
2026-01-29 14:33:08.52	340.28	18.56	-36.2	-37.1	21.8	0.00e+00	0	40	0	4262461440	41	4301
2026-01-29 14:33:09.52	340.30	18.44	-36.2	-37.1	21.8	0.00e+00	0	40	0	4269801472	41	4315
2026-01-29 14:33:10.52	340.33	18.32	-36.1	-36.9	21.9	0.00e+00	0	40	0	4277141504	41	4242
2026-01-29 14:33:11.52	340.35	18.20	-36.1	-37.1	21.8	0.00e+00	0	40	0	4284481536	41	4292
2026-01-29 14:33:12.53	340.37	18.07	-36.2	-37.1	21.8	0.00e+00	0	39	0	4290772992	41	4299
2026-01-29 14:33:13.53	340.39	17.95	-36.1	-37.0	21.9	0.00e+00	0	40	0	4298113024	41	4253
2026-01-29 14:33:14.53	340.42	17.84	-36.1	-37.1	21.8	0.00e+00	0	40	0	4305453056	41	4295
2026-01-29 14:33:15.53	340.44	17.72	-36.2	-37.2	21.7	0.00e+00	0	40	0	4312793088	41	4353
2026-01-29 14:33:16.53	340.46	17.60	-36.2	-37.1	21.8	0.00e+00	0	40	0	4320133120	41	4307
2026-01-29 14:33:17.53	340.48	17.48	-36.3	-37.2	21.7	0.00e+00	0	40	0	4327473152	42	4133
2026-01-29 14:33:18.53	340.51	17.36	-36.3	-37.2	21.7	0.00e+00	0	40	0	4334813184	42	4119
2026-01-29 14:33:19.53	340.53	17.25	-36.3	-37.2	21.6	0.00e+00	0	40	0	4342153216	42	4137
2026-01-29 14:33:20.53	340.55	17.13	-36.3	-37.2	21.6	0.00e+00	0	40	0	4349493248	42	4142
2026-01-29 14:33:21.53	340.57	17.02	-36.4	-37.3	21.6	0.00e+00	0	40	0	4355784704	42	4162
2026-01-29 14:33:22.53	340.59	16.90	-36.4	-37.3	21.5	0.00e+00	0	40	0	4363124736	42	4192
2026-01-29 14:33:23.53	340.61	16.79	-36.5	-37.4	21.5	0.00e+00	0	40	0	4370464768	42	4210
2026-01-29 14:33:24.53	340.63	16.67	-36.5	-37.4	21.5	0.00e+00	0	40	0	4377804800	42	4226
2026-01-29 14:33:25.53	340.66	16.56	-36.5	-37.4	21.4	0.00e+00	0	40	0	4385144832	42	4241
2026-01-29 14:33:26.53	340.68	16.45	-36.5	-37.4	21.4	0.00e+00	0	40	0	4392484864	42	4237
2026-01-29 14:33:27.53	340.70	16.34	-36.6	-37.5	21.4	0.00e+00	0	40	0	4399824896	42	4257
2026-01-29 14:33:28.53	340.72	16.22	-36.6	-37.5	21.3	0.00e+00	0	40	0	4407164928	42	4289
2026-01-29 14:33:29.54	340.74	16.11	-36.6	-37.6	21.3	0.00e+00	0	40	0	4414504960	42	4313
2026-01-29 14:33:30.54	340.76	16.00	-36.7	-37.6	21.3	0.00e+00	0	40	0	4420796416	42	4331
2026-01-29 14:33:31.54	340.78	15.89	-36.7	-37.7	21.2	0.00e+00	0	40	0	4428136448	42	4358
2026-01-29 14:33:32.54	340.80	15.78	-36.7	-37.6	21.2	0.00e+00	0	40	0	4435476480	42	4338
2026-01-29 14:33:33.54	340.82	15.67	-36.7	-37.7	21.2	0.00e+00	0	40	0	4442816512	42	4361
2026-01-29 14:33:34.55	340.84	15.56	-36.9	-37.9	21.0	0.00e+00	0	39	0	4450156544	43	4201
2026-01-29 14:33:35.55	340.86	15.45	-37.0	-38.0	20.9	0.00e+00	0	40	0	4457496576	43	4265
2026-01-29 14:33:36.55	340.88	15.35	-37.0	-37.9	20.9	0.00e+00	0	40	0	4464836608	43	4240
2026-01-29 14:33:37.55	340.90	15.24	-37.0	-38.0	20.9	0.00e+00	0	40	0	4472176640	43	4283
2026-01-29 14:33:38.55	340.92	15.13	-37.1	-38.0	20.8	0.00e+00	0	40	0	4478468096	43	4284
2026-01-29 14:33:39.56	340.94	15.02	-37.1	-38.0	20.9	0.00e+00	0	40	0	4485808128	43	4278
2026-01-29 14:33:40.56	340.96	14.92	-37.1	-38.1	20.8	0.00e+00	0	40	0	4493148160	43	4299
2026-01-29 14:33:41.56	340.98	14.81	-37.1	-38.0	20.8	0.00e+00	0	40	0	4500488192	43	4291
2026-01-29 14:33:42.57	340.99	14.71	-37.1	-38.1	20.8	0.00e+00	0	40	0	4507828224	43	4311
2026-01-29 14:33:43.57	341.01	14.60	-37.4	-38.4	20.7	0.00e+00	0	40	0	4515168256	44	4209
2026-01-29 14:33:44.57	341.03	14.50	-37.5	-38.4	20.6	0.00e+00	0	40	0	4522508288	44	4238
2026-01-29 14:33:45.57	341.05	14.40	-37.4	-38.4	20.6	0.00e+00	0	40	0	4529848320	44	4215
2026-01-29 14:33:46.57	341.07	14.29	-37.6	-38.6	20.5	0.00e+00	0	40	0	4537188352	44	4301
2026-01-29 14:33:47.57	341.09	14.19	-37.5	-38.5	20.6	0.00e+00	0	40	0	4544528384	44	4266
2026-01-29 14:33:48.57	341.11	14.09	-37.6	-38.6	20.5	0.00e+00	0	40	0	4551868416	44	4302
2026-01-29 14:33:49.57	341.13	13.99	-37.6	-38.6	20.5	0.00e+00	0	40	0	4559208448	44	4315
2026-01-29 14:33:50.57	341.14	13.88	-37.6	-38.6	20.5	0.00e+00	0	40	0	4565499904	44	4304
2026-01-29 14:33:51.57	341.16	13.78	-37.6	-38.6	20.4	0.00e+00	0	40	0	4572839936	44	4328
2026-01-29 14:33:52.57	341.18	13.68	-37.7	-38.8	20.3	0.00e+00	0	40	0	4580179968	44	4395
2026-01-29 14:33:53.57	341.20	13.58	-37.6	-38.7	20.3	0.00e+00	0	40	0	4587520000	44	4367
2026-01-29 14:33:54.57	341.22	13.48	-37.7	-38.8	20.3	0.00e+00	0	40	0	4594860032	44	4396
2026-01-29 14:33:55.58	341.23	13.38	-37.7	-38.8	20.2	0.00e+00	0	39	0	4602200064	44	4429
2026-01-29 14:33:56.58	341.25	13.28	-37.7	-38.9	20.1	0.00e+00	0	40	0	4609540096	44	4460
2026-01-29 14:33:57.58	341.27	13.19	-37.8	-39.0	20.1	0.00e+00	0	40	0	4616880128	45	4247
2026-01-29 14:33:58.58	341.29	13.09	-37.9	-39.0	20.0	0.00e+00	0	40	0	4623171584	45	4288
2026-01-29 14:33:59.58	341.30	12.99	-37.8	-38.9	20.1	0.00e+00	0	40	0	4630511616	45	4217
2026-01-29 14:34:00.58	341.32	12.89	-37.8	-39.0	20.1	0.00e+00	0	40	0	4637851648	45	4252
2026-01-29 14:34:01.58	341.34	12.80	-37.8	-39.0	20.1	0.00e+00	0	40	0	4645191680	45	4245
2026-01-29 14:34:02.59	341.36	12.70	-37.8	-38.9	20.1	0.00e+00	0	40	0	4652531712	45	4241
2026-01-29 14:34:03.59	341.37	12.60	-37.8	-38.9	20.2	0.00e+00	0	40	0	4659871744	45	4209
2026-01-29 14:34:04.59	341.39	12.51	-37.9	-39.0	20.1	0.00e+00	0	40	0	4667211776	45	4244
2026-01-29 14:34:05.59	341.41	12.41	-37.8	-38.9	20.1	0.00e+00	0	40	0	4674551808	45	4221
2026-01-29 14:34:06.59	341.42	12.32	-38.0	-39.1	20.0	0.00e+00	0	40	0	4681891840	45	4302
