passes_logs/2026/01/29/T1/T1__20260129_235412_SUOMI_NPP_rec.log

#Pass ID: 20260129_235412_SUOMI NPP
#Satellite: SUOMI NPP
#Configuration: NPP
#almurnet v.1.7.20251203
#Start time: 2026-01-29 23:54:13

#Version: 2.0.20230620
#Station: T1
#Location: 37.570604 lon 55.790049 lat
#TLE: 1 37849U 11061A   26028.91916408  .00000155  00000+0  94467-4 0  9990
#TLE: 2 37849  98.7824 330.8488 0002045  39.4457 320.6868 14.19531289738686

#Time	Az	El	Level	Level2	SNR	BER	BlckErr	Temp	State	Recorded	gain1	gain2
2026-01-29 23:54:13.29	15.53	5.08	-49.7	-64.1	3.8	1.49e+00	0	36	0	0	70	19428
2026-01-29 23:54:14.28	15.52	5.15	-50.0	-64.1	3.8	1.49e+00	0	36	104	0	71	18425
2026-01-29 23:54:15.29	15.52	5.22	-49.9	-64.1	3.8	1.49e+00	0	36	104	0	71	18433
2026-01-29 23:54:16.29	15.52	5.29	-49.8	-64.1	3.8	1.49e+00	0	36	104	0	71	18461
2026-01-29 23:54:17.29	15.51	5.36	-49.8	-64.1	3.8	1.49e+00	0	36	104	0	71	18457
2026-01-29 23:54:18.30	15.51	5.44	-49.9	-64.1	3.8	1.49e+00	0	36	104	0	71	18343
2026-01-29 23:54:19.30	15.51	5.51	-49.8	-64.1	3.8	1.49e+00	0	36	104	0	71	18461
2026-01-29 23:54:20.31	15.50	5.58	-49.8	-64.0	3.8	1.49e+00	0	36	104	0	71	18275
2026-01-29 23:54:21.31	15.50	5.66	-49.8	-64.0	3.8	1.49e+00	0	36	104	0	71	18278
2026-01-29 23:54:22.32	15.50	5.73	-49.9	-64.0	3.8	1.49e+00	0	36	104	0	71	18244
2026-01-29 23:54:23.32	15.49	5.80	-49.8	-64.0	3.8	1.49e+00	0	36	104	0	71	18144
2026-01-29 23:54:24.33	15.49	5.88	-49.7	-63.9	3.8	1.49e+00	0	36	104	0	71	17994
2026-01-29 23:54:25.33	15.48	5.95	-49.5	-63.8	3.8	1.49e+00	0	36	104	0	71	17849
2026-01-29 23:54:26.33	15.48	6.02	-49.5	-63.8	3.8	1.49e+00	0	36	104	0	70	18844
2026-01-29 23:54:27.34	15.48	6.10	-49.3	-63.8	3.8	1.49e+00	0	36	104	0	70	18796
2026-01-29 23:54:28.34	15.47	6.17	-48.5	-63.8	3.8	1.49e+00	0	37	104	0	69	19871
2026-01-29 23:54:29.35	15.47	6.25	-49.0	-63.7	3.8	1.49e+00	0	37	104	0	69	19817
2026-01-29 23:54:30.35	15.47	6.32	-49.3	-63.7	3.8	1.49e+00	0	37	104	0	69	19696
2026-01-29 23:54:31.36	15.46	6.40	-47.8	-63.5	3.8	1.49e+00	0	37	104	0	67	21525
2026-01-29 23:54:32.36	15.46	6.47	-48.8	-63.6	3.8	1.49e+00	0	37	104	0	68	20581
2026-01-29 23:54:33.36	15.45	6.55	-47.7	-63.3	3.8	1.49e+00	0	37	104	0	67	21020
2026-01-29 23:54:34.37	15.45	6.63	-47.7	-63.1	3.8	1.49e+00	0	37	104	0	67	20769
2026-01-29 23:54:35.37	15.45	6.70	-47.7	-63.0	3.8	1.49e+00	0	37	104	0	67	20451
2026-01-29 23:54:36.38	15.44	6.78	-47.6	-62.9	3.8	1.49e+00	0	37	104	0	67	20302
2026-01-29 23:54:37.38	15.44	6.85	-47.6	-62.8	3.8	1.49e+00	0	37	104	0	67	19924
2026-01-29 23:54:38.39	15.43	6.93	-47.6	-62.6	3.8	1.49e+00	0	37	104	0	67	19416
2026-01-29 23:54:39.39	15.43	7.01	-47.6	-62.5	3.8	1.49e+00	0	37	104	0	67	19215
2026-01-29 23:54:40.40	15.43	7.09	-47.6	-62.1	3.8	1.49e+00	0	37	104	0	67	18464
2026-01-29 23:54:41.40	15.42	7.16	-47.6	-62.1	3.8	1.49e+00	0	37	104	0	67	18428
2026-01-29 23:54:42.40	15.42	7.24	-47.6	-61.7	3.8	1.49e+00	0	37	104	0	67	17651
2026-01-29 23:54:43.41	15.41	7.32	-47.6	-61.6	3.8	1.49e+00	0	37	104	0	67	17290
2026-01-29 23:54:44.41	15.41	7.40	-47.6	-61.4	3.8	1.49e+00	0	37	104	0	67	16951
2026-01-29 23:54:45.42	15.40	7.48	-47.6	-61.1	3.9	1.48e+00	0	37	104	0	67	16383
2026-01-29 23:54:46.42	15.40	7.55	-47.5	-60.6	4.0	1.48e+00	0	37	104	0	67	15504
2026-01-29 23:54:47.43	15.39	7.63	-47.5	-60.7	4.0	1.48e+00	0	37	104	0	67	15642
2026-01-29 23:54:48.43	15.39	7.71	-47.5	-60.4	4.1	1.46e+00	0	37	0	0	67	15089
2026-01-29 23:54:49.44	15.38	7.79	-47.5	-60.0	4.1	1.43e+00	0	37	0	0	67	14462
2026-01-29 23:54:50.44	15.38	7.87	-47.5	-59.5	4.3	1.36e+00	0	37	0	0	66	14404
2026-01-29 23:54:51.45	15.38	7.95	-47.5	-59.4	4.3	1.32e+00	0	37	0	1048576	66	14244
2026-01-29 23:54:52.45	15.37	8.03	-47.4	-58.9	4.5	1.04e+00	0	37	0	2097152	66	13481
2026-01-29 23:54:53.45	15.37	8.11	-47.4	-58.2	4.8	1.04e+00	0	37	0	4194304	66	12414
2026-01-29 23:54:54.46	15.36	8.19	-47.3	-58.0	4.8	7.79e-01	0	38	0	6291456	66	12207
2026-01-29 23:54:55.46	15.36	8.27	-47.3	-57.5	5.1	6.97e-01	0	37	0	8388608	66	11514
2026-01-29 23:54:56.47	15.35	8.36	-47.2	-56.9	5.5	5.30e-01	0	38	0	10485760	66	10696
2026-01-29 23:54:57.47	15.35	8.44	-47.2	-56.7	5.7	4.26e-01	0	37	0	11534336	66	10483
2026-01-29 23:54:58.48	15.34	8.52	-47.1	-56.0	6.2	3.45e-01	0	37	0	13631488	66	9685
2026-01-29 23:54:59.48	15.33	8.60	-47.1	-56.0	6.2	2.85e-01	0	38	0	15728640	66	9655
2026-01-29 23:55:00.49	15.33	8.68	-47.0	-55.5	6.5	2.05e-01	0	37	0	17825792	66	9152
2026-01-29 23:55:01.49	15.32	8.76	-47.0	-55.2	6.8	1.89e-01	0	38	0	19922944	65	9377
2026-01-29 23:55:02.49	15.32	8.85	-47.0	-55.2	6.8	1.67e-01	0	38	0	20971520	65	9330
2026-01-29 23:55:03.50	15.31	8.93	-47.0	-55.3	6.7	1.95e-01	0	38	0	23068672	65	9439
2026-01-29 23:55:04.50	15.31	9.01	-47.0	-55.3	6.8	1.72e-01	0	38	0	25165824	65	9425
2026-01-29 23:55:05.51	15.30	9.10	-47.1	-56.3	6.0	2.40e-01	0	38	0	27262976	65	10608
2026-01-29 23:55:06.51	15.30	9.18	-47.4	-60.6	4.0	6.11e-01	0	38	0	28311552	65	17362
2026-01-29 23:55:07.51	15.29	9.27	-47.0	-57.1	4.3	1.49e+00	0	38	104	28311552	65	11664
2026-01-29 23:55:08.52	15.29	9.35	-46.6	-53.2	9.3	3.88e-04	0	38	0	29360128	63	8330
2026-01-29 23:55:09.52	15.28	9.43	-47.3	-58.6	4.5	8.45e-01	0	38	0	30408704	65	13828
2026-01-29 23:55:10.52	15.27	9.52	-47.3	-59.4	4.0	1.47e+00	0	38	104	30408704	65	15072
2026-01-29 23:55:11.52	15.27	9.60	-47.2	-58.3	4.7	9.10e-01	0	38	0	31457280	65	13267
2026-01-29 23:55:12.53	15.26	9.69	-47.2	-58.6	4.6	8.78e-01	0	38	0	33554432	65	13784
2026-01-29 23:55:13.53	15.26	9.78	-47.2	-58.4	4.7	8.86e-01	0	38	0	34603008	65	13495
2026-01-29 23:55:14.74	15.25	9.88	-47.2	-57.8	5.0	7.36e-01	0	38	0	37748736	65	12605
2026-01-29 23:55:15.63	15.24	9.96	-47.4	-61.2	3.9	8.23e-01	0	38	0	38797312	65	18707
2026-01-29 23:55:16.77	15.24	10.06	-46.0	-51.2	10.7	7.80e-01	0	38	0	38797312	63	6588
2026-01-29 23:55:17.70	15.23	10.14	-45.8	-50.5	11.8	2.44e-05	0	38	0	40894464	62	6467
2026-01-29 23:55:18.89	15.22	10.24	-46.6	-53.1	9.2	1.48e-03	0	38	0	42991616	63	8266
2026-01-29 23:55:19.80	15.22	10.32	-45.1	-48.9	13.3	1.83e-03	0	38	0	44040192	62	5384
2026-01-29 23:55:20.98	15.21	10.42	-45.0	-48.6	13.6	1.29e-05	0	38	0	46137344	62	5202
2026-01-29 23:55:21.84	15.20	10.50	-44.6	-47.8	14.4	2.20e-06	0	38	0	48234496	61	5022
2026-01-29 23:55:22.99	15.20	10.60	-44.4	-47.5	14.8	0.00e+00	0	38	0	50331648	60	5120
2026-01-29 23:55:23.85	15.19	10.68	-44.4	-47.5	14.8	7.00e-07	0	38	0	52428800	60	5114
2026-01-29 23:55:24.99	15.18	10.78	-44.3	-47.4	14.8	7.00e-07	0	38	0	54525952	60	5089
2026-01-29 23:55:26.04	15.18	10.87	-44.5	-47.7	14.7	0.00e+00	0	38	0	55574528	60	5223
2026-01-29 23:55:26.94	15.17	10.95	-44.4	-47.5	14.8	0.00e+00	0	38	0	57671680	60	5112
2026-01-29 23:55:28.08	15.16	11.06	-44.4	-47.3	15.0	0.00e+00	0	38	0	59768832	60	5019
2026-01-29 23:55:29.15	15.15	11.15	-44.7	-47.9	14.4	7.00e-07	0	38	0	61865984	60	5384
2026-01-29 23:55:30.01	15.15	11.23	-44.3	-47.2	15.1	0.00e+00	0	38	0	63963136	60	4981
2026-01-29 23:55:31.16	15.14	11.34	-44.2	-47.2	15.1	0.00e+00	0	38	0	66060288	60	4961
2026-01-29 23:55:32.02	15.13	11.41	-44.1	-47.0	15.3	0.00e+00	0	38	0	67108864	60	4841
2026-01-29 23:55:33.16	15.13	11.52	-44.1	-46.7	15.5	0.00e+00	0	38	0	69206016	60	4700
2026-01-29 23:55:34.03	15.12	11.60	-44.1	-46.7	15.6	0.00e+00	0	38	0	71303168	59	4928
2026-01-29 23:55:35.17	15.11	11.70	-44.1	-46.7	15.6	0.00e+00	0	38	0	73400320	59	4941
2026-01-29 23:55:36.03	15.10	11.78	-43.8	-46.2	16.0	0.00e+00	0	38	0	74448896	59	4703
2026-01-29 23:55:37.18	15.10	11.89	-44.0	-46.6	15.7	0.00e+00	0	38	0	76546048	59	4917
2026-01-29 23:55:38.03	15.09	11.97	-43.8	-46.4	15.9	0.00e+00	0	38	0	78643200	59	4766
2026-01-29 23:55:39.18	15.08	12.08	-43.7	-46.2	16.1	0.00e+00	0	38	0	80740352	59	4682
2026-01-29 23:55:40.04	15.07	12.16	-43.6	-46.1	16.2	0.00e+00	0	38	0	81788928	59	4604
2026-01-29 23:55:41.18	15.07	12.27	-43.6	-46.0	16.2	0.00e+00	0	38	0	83886080	59	4577
2026-01-29 23:55:42.04	15.06	12.35	-43.7	-46.0	16.3	0.00e+00	0	38	0	85983232	59	4586
2026-01-29 23:55:43.19	15.05	12.46	-43.7	-46.1	16.2	0.00e+00	0	38	0	88080384	59	4637
2026-01-29 23:55:44.05	15.04	12.54	-43.6	-45.9	16.4	0.00e+00	0	38	0	90177536	59	4503
2026-01-29 23:55:45.20	15.03	12.65	-43.8	-46.2	16.1	0.00e+00	0	38	0	92274688	59	4675
2026-01-29 23:55:46.06	15.03	12.74	-43.7	-46.1	16.2	0.00e+00	0	38	0	93323264	59	4599
2026-01-29 23:55:47.20	15.02	12.85	-43.6	-45.9	16.4	0.00e+00	0	38	0	95420416	59	4534
2026-01-29 23:55:48.06	15.01	12.93	-43.9	-46.2	16.1	0.00e+00	0	38	0	97517568	59	4705
2026-01-29 23:55:49.21	15.00	13.04	-43.6	-45.8	16.5	0.00e+00	0	38	0	99614720	59	4449
2026-01-29 23:55:50.07	14.99	13.13	-43.6	-45.8	16.5	0.00e+00	0	38	0	100663296	59	4453
2026-01-29 23:55:51.22	14.98	13.24	-43.5	-45.8	16.5	0.00e+00	0	38	0	102760448	59	4445
2026-01-29 23:55:52.08	14.97	13.32	-43.4	-45.6	16.7	0.00e+00	0	38	0	104857600	58	4622
2026-01-29 23:55:53.22	14.96	13.44	-43.6	-45.9	16.5	0.00e+00	0	38	0	106954752	58	4762
2026-01-29 23:55:54.08	14.96	13.52	-43.4	-45.6	16.7	0.00e+00	0	38	0	109051904	58	4632
2026-01-29 23:55:55.29	14.95	13.64	-43.4	-45.6	16.7	0.00e+00	0	38	0	111149056	58	4615
2026-01-29 23:55:56.14	14.94	13.73	-43.6	-45.8	16.5	0.00e+00	0	38	0	112197632	58	4735
2026-01-29 23:55:57.29	14.93	13.85	-43.4	-45.5	16.9	0.00e+00	0	38	0	114294784	58	4553
2026-01-29 23:55:58.16	14.92	13.93	-43.4	-45.5	16.8	0.00e+00	0	38	0	116391936	58	4561
2026-01-29 23:55:59.30	14.91	14.05	-43.3	-45.4	16.9	0.00e+00	0	38	0	118489088	58	4499
2026-01-29 23:56:00.21	14.90	14.14	-43.5	-45.6	16.7	0.00e+00	0	38	0	120586240	58	4638
2026-01-29 23:56:01.39	14.89	14.26	-43.5	-45.6	16.7	0.00e+00	0	38	0	122683392	58	4612
2026-01-29 23:56:02.25	14.88	14.35	-43.3	-45.4	16.9	0.00e+00	0	38	0	123731968	58	4531
2026-01-29 23:56:03.39	14.87	14.47	-43.3	-45.3	17.0	0.00e+00	0	38	0	125829120	58	4488
2026-01-29 23:56:04.25	14.86	14.56	-43.3	-45.3	17.0	0.00e+00	0	38	0	127926272	58	4486
2026-01-29 23:56:05.72	14.85	14.71	-43.1	-45.1	17.2	0.00e+00	0	38	0	130023424	58	4367
2026-01-29 23:56:06.43	14.84	14.79	-43.1	-45.1	17.2	0.00e+00	0	38	0	132120576	58	4365
2026-01-29 23:56:07.72	14.83	14.93	-42.9	-44.8	17.5	0.00e+00	0	38	0	134217728	57	4475
2026-01-29 23:56:08.44	14.82	15.00	-43.0	-44.9	17.4	0.00e+00	0	38	0	135266304	57	4543
2026-01-29 23:56:09.73	14.81	15.14	-42.9	-44.8	17.5	0.00e+00	0	38	0	138412032	57	4465
2026-01-29 23:56:10.44	14.80	15.21	-42.9	-44.8	17.5	0.00e+00	0	38	0	139460608	57	4456
2026-01-29 23:56:11.73	14.78	15.35	-42.9	-44.8	17.5	0.00e+00	0	39	0	141557760	57	4491
2026-01-29 23:56:12.44	14.78	15.43	-42.9	-44.7	17.3	0.00e+00	0	38	0	142606336	57	4438
2026-01-29 23:56:13.74	14.76	15.57	-42.8	-44.6	17.7	0.00e+00	0	38	0	145752064	57	4381
2026-01-29 23:56:14.51	14.75	15.65	-42.9	-44.9	17.5	0.00e+00	0	38	0	146800640	57	4496
2026-01-29 23:56:15.80	14.74	15.80	-42.6	-44.4	17.8	0.00e+00	0	38	0	148897792	57	4291
2026-01-29 23:56:16.52	14.73	15.87	-42.8	-44.6	17.7	0.00e+00	0	38	0	150994944	57	4360
2026-01-29 23:56:17.81	14.72	16.02	-42.8	-44.6	17.7	0.00e+00	0	38	0	153092096	57	4371
2026-01-29 23:56:18.52	14.71	16.10	-42.6	-44.4	17.9	0.00e+00	0	39	0	154140672	57	4265
2026-01-29 23:56:19.82	14.69	16.24	-42.8	-44.6	17.7	0.00e+00	0	38	0	157286400	57	4358
2026-01-29 23:56:20.53	14.69	16.32	-42.7	-44.4	17.8	0.00e+00	0	39	0	158334976	57	4285
2026-01-29 23:56:21.82	14.67	16.46	-42.8	-44.5	17.8	0.00e+00	0	38	0	160432128	57	4330
2026-01-29 23:56:22.54	14.66	16.55	-42.8	-44.6	17.7	0.00e+00	0	38	0	161480704	57	4365
2026-01-29 23:56:23.82	14.65	16.69	-42.8	-44.6	17.7	0.00e+00	0	38	0	164626432	57	4351
2026-01-29 23:56:24.54	14.64	16.77	-42.8	-44.5	17.8	0.00e+00	0	38	0	165675008	57	4308
2026-01-29 23:56:25.83	14.62	16.92	-42.9	-44.6	17.7	0.00e+00	0	38	0	167772160	57	4385
2026-01-29 23:56:26.56	14.61	17.00	-42.8	-44.5	17.8	0.00e+00	0	38	0	169869312	57	4296
2026-01-29 23:56:27.85	14.60	17.15	-42.9	-44.6	17.7	0.00e+00	0	38	0	171966464	57	4342
2026-01-29 23:56:28.57	14.59	17.24	-42.8	-44.5	17.9	0.00e+00	0	39	0	173015040	57	4301
2026-01-29 23:56:29.86	14.57	17.39	-42.8	-44.5	17.8	0.00e+00	0	39	0	176160768	57	4325
2026-01-29 23:56:30.58	14.56	17.47	-42.9	-44.6	17.7	0.00e+00	0	39	0	177209344	57	4369
2026-01-29 23:56:31.86	14.55	17.62	-42.8	-44.4	17.9	0.00e+00	0	38	0	179306496	57	4271
2026-01-29 23:56:32.58	14.54	17.71	-42.8	-44.4	17.9	0.00e+00	0	39	0	180355072	57	4286
2026-01-29 23:56:33.87	14.52	17.86	-42.7	-44.2	18.1	0.00e+00	0	38	0	183500800	57	4187
2026-01-29 23:56:34.58	14.51	17.95	-42.5	-44.0	18.3	0.00e+00	0	39	0	184549376	57	4092
2026-01-29 23:56:35.87	14.49	18.10	-42.6	-44.1	18.2	0.00e+00	0	38	0	186646528	56	4380
2026-01-29 23:56:36.59	14.48	18.19	-42.6	-44.1	18.3	0.00e+00	0	38	0	188743680	56	4344
2026-01-29 23:56:37.88	14.47	18.35	-42.5	-44.0	18.3	0.00e+00	0	39	0	190840832	56	4316
2026-01-29 23:56:38.59	14.46	18.43	-42.6	-44.1	18.2	0.00e+00	0	39	0	191889408	56	4353
2026-01-29 23:56:39.88	14.44	18.59	-42.4	-43.8	18.4	0.00e+00	0	38	0	193986560	56	4214
2026-01-29 23:56:40.60	14.43	18.68	-42.3	-43.7	18.5	0.00e+00	0	39	0	196083712	56	4184
2026-01-29 23:56:41.98	14.41	18.85	-42.4	-43.8	18.5	0.00e+00	0	39	0	198180864	56	4216
2026-01-29 23:56:42.70	14.40	18.94	-42.3	-43.8	18.6	0.00e+00	0	39	0	200278016	56	4196
2026-01-29 23:56:44.06	14.38	19.11	-42.3	-43.6	18.6	0.00e+00	0	39	0	202375168	56	4144
2026-01-29 23:56:44.77	14.37	19.20	-42.5	-43.9	18.4	0.00e+00	0	38	0	203423744	56	4287
2026-01-29 23:56:46.06	14.35	19.36	-42.3	-43.7	18.6	0.00e+00	0	39	0	206569472	56	4191
2026-01-29 23:56:46.77	14.34	19.45	-42.3	-43.7	18.6	0.00e+00	0	38	0	207618048	56	4173
2026-01-29 23:56:48.19	14.31	19.63	-42.4	-43.9	18.4	0.00e+00	0	39	0	209715200	56	4254
2026-01-29 23:56:48.91	14.30	19.73	-42.4	-43.8	18.5	0.00e+00	0	38	0	211812352	56	4222
2026-01-29 23:56:50.20	14.28	19.89	-42.4	-43.8	18.5	0.00e+00	0	39	0	213909504	56	4237
2026-01-29 23:56:50.91	14.27	19.98	-42.4	-43.8	18.6	0.00e+00	0	39	0	214958080	56	4202
2026-01-29 23:56:52.20	14.25	20.15	-42.4	-43.9	18.5	0.00e+00	0	39	0	218103808	56	4244
2026-01-29 23:56:52.92	14.24	20.25	-42.5	-43.9	18.4	0.00e+00	0	39	0	219152384	56	4264
2026-01-29 23:56:54.40	14.22	20.44	-42.4	-43.7	18.6	0.00e+00	0	39	0	221249536	56	4188
2026-01-29 23:56:55.11	14.20	20.54	-42.4	-43.8	18.6	0.00e+00	0	38	0	223346688	56	4200
2026-01-29 23:56:56.45	14.18	20.71	-42.5	-43.9	18.5	0.00e+00	0	39	0	225443840	56	4255
2026-01-29 23:56:57.16	14.17	20.81	-42.4	-43.8	18.5	0.00e+00	0	39	0	226492416	56	4233
2026-01-29 23:56:58.46	14.15	20.98	-42.1	-43.5	18.5	0.00e+00	0	39	0	229638144	56	4055
2026-01-29 23:56:59.17	14.13	21.08	-42.1	-43.5	18.8	0.00e+00	0	39	0	230686720	56	4076
2026-01-29 23:57:00.67	14.11	21.29	-41.8	-43.1	19.0	0.00e+00	0	39	0	233832448	55	4142
2026-01-29 23:57:01.38	14.10	21.38	-41.8	-43.1	18.9	0.00e+00	0	39	0	234881024	55	4139
2026-01-29 23:57:02.74	14.07	21.57	-41.8	-43.1	19.0	0.00e+00	0	39	0	236978176	55	4117
2026-01-29 23:57:03.45	14.06	21.67	-41.9	-43.3	18.8	0.00e+00	0	39	0	239075328	55	4207
2026-01-29 23:57:04.74	14.03	21.85	-41.9	-43.2	18.9	0.00e+00	0	38	0	241172480	55	4189
2026-01-29 23:57:05.46	14.02	21.95	-41.8	-43.1	19.0	0.00e+00	0	38	0	242221056	55	4145
2026-01-29 23:57:06.75	14.00	22.13	-41.7	-43.1	19.0	0.00e+00	0	39	0	245366784	55	4128
2026-01-29 23:57:07.46	13.98	22.23	-42.0	-43.5	18.7	0.00e+00	0	38	0	246415360	55	4305
2026-01-29 23:57:08.75	13.96	22.42	-41.9	-43.4	18.8	0.00e+00	0	39	0	248512512	55	4243
2026-01-29 23:57:09.47	13.95	22.52	-41.9	-43.3	18.8	0.00e+00	0	39	0	249561088	55	4238
2026-01-29 23:57:10.76	13.92	22.71	-41.9	-43.3	18.9	0.00e+00	0	39	0	252706816	55	4209
2026-01-29 23:57:11.48	13.91	22.81	-42.1	-43.6	18.6	0.00e+00	0	39	0	253755392	55	4348
2026-01-29 23:57:12.77	13.88	23.00	-42.0	-43.4	18.8	0.00e+00	0	39	0	255852544	55	4264
2026-01-29 23:57:13.48	13.87	23.10	-41.9	-43.3	18.8	0.00e+00	0	39	0	257949696	55	4230
2026-01-29 23:57:14.77	13.84	23.29	-41.8	-43.2	18.9	0.00e+00	0	39	0	260046848	55	4158
2026-01-29 23:57:15.49	13.82	23.40	-42.0	-43.4	18.8	0.00e+00	0	39	0	261095424	55	4259
2026-01-29 23:57:16.78	13.80	23.59	-42.1	-43.4	18.8	0.00e+00	0	39	0	263192576	55	4281
2026-01-29 23:57:17.49	13.78	23.70	-41.7	-43.0	19.1	0.00e+00	0	39	0	265289728	55	4062
2026-01-29 23:57:18.78	13.75	23.89	-41.7	-42.9	19.2	0.00e+00	0	39	0	267386880	55	4049
2026-01-29 23:57:19.50	13.74	24.00	-42.1	-43.4	18.8	0.00e+00	0	39	0	268435456	55	4291
2026-01-29 23:57:20.78	13.71	24.20	-41.9	-43.2	19.0	0.00e+00	0	39	0	271581184	55	4151
2026-01-29 23:57:21.66	13.69	24.33	-41.8	-43.2	19.0	0.00e+00	0	39	0	272629760	55	4147
2026-01-29 23:57:23.12	13.66	24.56	-42.0	-43.3	18.9	0.00e+00	0	39	0	275775488	55	4223
2026-01-29 23:57:24.24	13.63	24.73	-42.1	-43.4	18.8	0.00e+00	0	38	0	277872640	55	4286
2026-01-29 23:57:25.43	13.61	24.92	-41.8	-43.1	19.0	0.00e+00	0	38	0	279969792	55	4133
2026-01-29 23:57:26.29	13.59	25.06	-42.1	-43.5	18.7	0.00e+00	0	39	0	281018368	55	4320
2026-01-29 23:57:27.44	13.56	25.24	-42.2	-43.7	18.6	0.00e+00	0	39	0	284164096	55	4401
2026-01-29 23:57:28.30	13.54	25.38	-41.7	-43.0	19.1	0.00e+00	0	39	0	285212672	55	4089
2026-01-29 23:57:29.44	13.51	25.56	-41.8	-43.1	19.1	0.00e+00	0	39	0	287309824	55	4112
2026-01-29 23:57:30.30	13.49	25.70	-41.8	-43.2	19.0	0.00e+00	0	39	0	289406976	55	4149
2026-01-29 23:57:31.45	13.46	25.89	-41.9	-43.2	19.0	0.00e+00	0	39	0	291504128	55	4184
2026-01-29 23:57:32.31	13.44	26.03	-41.9	-43.2	18.9	0.00e+00	0	39	0	292552704	55	4187
2026-01-29 23:57:33.53	13.41	26.23	-41.9	-43.3	18.8	0.00e+00	0	39	0	294649856	55	4236
2026-01-29 23:57:34.39	13.39	26.37	-42.0	-43.4	18.8	0.00e+00	0	39	0	296747008	55	4263
2026-01-29 23:57:35.54	13.36	26.56	-42.4	-43.9	18.4	0.00e+00	0	39	0	298844160	55	4527
2026-01-29 23:57:36.40	13.33	26.71	-42.4	-44.0	18.2	0.00e+00	0	39	0	300941312	55	4562
2026-01-29 23:57:37.54	13.30	26.90	-42.9	-44.6	17.9	0.00e+00	0	39	0	303038464	56	4626
2026-01-29 23:57:38.40	13.28	27.05	-42.8	-44.5	17.9	0.00e+00	0	39	0	304087040	57	4339
2026-01-29 23:57:39.55	13.25	27.24	-43.0	-44.8	17.7	0.00e+00	0	39	0	306184192	57	4459
2026-01-29 23:57:40.41	13.22	27.39	-43.1	-44.9	17.6	0.00e+00	0	39	0	308281344	57	4505
2026-01-29 23:57:41.56	13.19	27.59	-43.2	-45.0	17.5	0.00e+00	0	38	0	310378496	57	4559
2026-01-29 23:57:42.42	13.17	27.74	-43.2	-44.9	17.6	0.00e+00	0	39	0	311427072	57	4510
2026-01-29 23:57:43.56	13.13	27.94	-43.2	-44.9	17.5	0.00e+00	0	39	0	313524224	57	4526
2026-01-29 23:57:44.42	13.11	28.09	-43.0	-44.7	17.8	0.00e+00	0	39	0	315621376	57	4406
2026-01-29 23:57:45.57	13.08	28.30	-43.1	-44.7	17.8	0.00e+00	0	39	0	317718528	57	4404
2026-01-29 23:57:46.43	13.05	28.45	-43.0	-44.6	17.9	0.00e+00	0	39	0	318767104	57	4388
2026-01-29 23:57:47.61	13.01	28.66	-43.2	-44.8	17.7	0.00e+00	0	39	0	321912832	57	4466
2026-01-29 23:57:48.47	12.99	28.82	-43.3	-44.9	17.5	0.00e+00	0	39	0	322961408	57	4534
2026-01-29 23:57:49.62	12.95	29.03	-43.4	-45.1	17.4	0.00e+00	0	39	0	325058560	57	4645
2026-01-29 23:57:50.48	12.93	29.19	-43.7	-45.5	17.0	0.00e+00	0	39	0	327155712	58	4576
2026-01-29 23:57:51.62	12.89	29.40	-43.8	-45.7	17.0	0.00e+00	0	39	0	329252864	58	4653
2026-01-29 23:57:52.48	12.86	29.56	-44.1	-46.0	16.6	0.00e+00	0	39	0	330301440	58	4843
2026-01-29 23:57:53.63	12.82	29.77	-44.2	-46.2	16.3	0.00e+00	0	39	0	332398592	59	4686
2026-01-29 23:57:54.48	12.80	29.94	-44.4	-46.5	16.1	0.00e+00	0	39	0	334495744	59	4865
2026-01-29 23:57:55.63	12.76	30.15	-44.0	-46.0	16.6	0.00e+00	0	39	0	336592896	59	4576
2026-01-29 23:57:56.49	12.73	30.32	-43.9	-45.9	16.7	0.00e+00	0	39	0	337641472	59	4517
2026-01-29 23:57:57.84	12.68	30.58	-44.1	-46.1	16.4	0.00e+00	0	39	0	340787200	59	4649
2026-01-29 23:57:58.56	12.66	30.72	-43.8	-45.8	16.7	0.00e+00	0	39	0	341835776	59	4462
2026-01-29 23:57:59.85	12.61	30.97	-44.3	-46.4	16.1	0.00e+00	0	39	0	343932928	59	4811
2026-01-29 23:58:00.57	12.58	31.11	-44.3	-46.4	16.2	0.00e+00	0	39	0	346030080	59	4797
2026-01-29 23:58:01.86	12.54	31.37	-44.7	-47.1	15.5	0.00e+00	0	39	0	348127232	60	4883
2026-01-29 23:58:02.58	12.51	31.51	-45.1	-47.8	14.8	0.00e+00	0	39	0	349175808	60	5327
2026-01-29 23:58:03.86	12.46	31.77	-45.5	-48.5	14.1	7.00e-07	0	39	0	352321536	61	5444
2026-01-29 23:58:04.58	12.44	31.91	-45.7	-48.8	13.8	4.50e-06	0	39	0	353370112	62	5338
2026-01-29 23:58:05.87	12.39	32.17	-46.2	-49.9	12.7	4.73e-05	0	39	0	355467264	63	5711
2026-01-29 23:58:06.59	12.36	32.32	-46.0	-49.6	13.1	5.64e-05	0	39	0	357564416	63	5500
2026-01-29 23:58:07.88	12.31	32.59	-46.3	-50.1	12.7	3.73e-05	0	39	0	359661568	63	5802
2026-01-29 23:58:08.60	12.28	32.73	-46.1	-49.7	13.0	8.16e-05	0	39	0	360710144	63	5536
2026-01-29 23:58:09.88	12.23	33.00	-46.0	-49.6	13.1	1.98e-05	0	39	0	362807296	63	5478
2026-01-29 23:58:10.60	12.20	33.15	-46.1	-49.7	13.0	1.83e-05	0	39	0	364904448	63	5529
2026-01-29 23:58:11.89	12.14	33.43	-45.8	-49.1	13.5	2.67e-05	0	39	0	367001600	63	5209
2026-01-29 23:58:12.61	12.11	33.58	-45.7	-48.8	13.6	8.30e-06	0	39	0	368050176	63	5040
2026-01-29 23:58:14.07	12.05	33.89	-45.7	-48.7	13.9	1.52e-05	0	39	0	371195904	63	4936
2026-01-29 23:58:14.79	12.02	34.05	-45.5	-48.3	14.4	7.00e-07	0	39	0	372244480	62	4987
2026-01-29 23:58:16.14	11.96	34.34	-45.1	-47.6	15.0	0.00e+00	0	39	0	375390208	62	4613
2026-01-29 23:58:16.86	11.93	34.50	-44.3	-46.3	16.3	0.00e+00	0	39	0	376438784	60	4465
2026-01-29 23:58:18.15	11.87	34.79	-43.5	-45.2	17.4	0.00e+00	0	39	0	378535936	58	4409
2026-01-29 23:58:18.87	11.83	34.95	-43.3	-45.0	17.5	0.00e+00	0	39	0	379584512	58	4311
2026-01-29 23:58:20.16	11.77	35.24	-42.8	-44.2	18.2	0.00e+00	0	39	0	382730240	57	4190
2026-01-29 23:58:20.88	11.74	35.40	-42.5	-43.9	18.4	0.00e+00	0	39	0	383778816	57	4028
2026-01-29 23:58:22.16	11.68	35.69	-42.3	-43.7	18.7	0.00e+00	0	39	0	385875968	56	4166
2026-01-29 23:58:22.88	11.64	35.85	-42.4	-43.8	18.7	0.00e+00	0	39	0	387973120	56	4197
2026-01-29 23:58:24.17	11.58	36.15	-42.4	-43.8	18.6	0.00e+00	0	39	0	390070272	56	4216
2026-01-29 23:58:24.89	11.54	36.32	-42.3	-43.7	18.8	0.00e+00	0	39	0	391118848	56	4157
2026-01-29 23:58:26.18	11.47	36.62	-42.2	-43.6	18.9	0.00e+00	0	39	0	394264576	56	4112
2026-01-29 23:58:26.90	11.44	36.79	-42.0	-43.4	19.0	0.00e+00	0	39	0	395313152	56	4037
2026-01-29 23:58:28.18	11.37	37.09	-41.2	-42.4	19.7	0.00e+00	0	39	0	397410304	54	4035
2026-01-29 23:58:28.90	11.33	37.27	-41.2	-42.4	19.8	0.00e+00	0	39	0	398458880	54	4025
2026-01-29 23:58:30.19	11.26	37.58	-40.9	-42.1	20.0	0.00e+00	0	39	0	401604608	53	4125
2026-01-29 23:58:30.91	11.22	37.75	-40.8	-42.0	20.1	0.00e+00	0	39	0	402653184	53	4083
2026-01-29 23:58:32.20	11.15	38.07	-40.7	-41.9	20.2	0.00e+00	0	39	0	404750336	53	4018
2026-01-29 23:58:32.92	11.10	38.24	-41.1	-42.3	19.9	0.00e+00	0	39	0	406847488	53	4204
2026-01-29 23:58:34.21	11.03	38.56	-41.5	-42.8	19.3	0.00e+00	0	39	0	408944640	53	4449
2026-01-29 23:58:34.92	10.99	38.74	-41.5	-42.7	19.5	0.00e+00	0	39	0	409993216	53	4427
2026-01-29 23:58:36.21	10.91	39.07	-41.4	-42.7	19.5	0.00e+00	0	39	0	412090368	53	4414
2026-01-29 23:58:36.93	10.86	39.25	-41.5	-42.7	19.4	0.00e+00	0	39	0	414187520	54	4192
2026-01-29 23:58:38.22	10.78	39.58	-41.6	-42.8	19.4	0.00e+00	0	39	0	416284672	54	4228
2026-01-29 23:58:38.94	10.74	39.76	-41.4	-42.7	19.5	0.00e+00	0	39	0	417333248	54	4148
2026-01-29 23:58:40.23	10.65	40.10	-41.2	-42.3	19.9	0.00e+00	0	39	0	420478976	54	3996
2026-01-29 23:58:41.01	10.60	40.30	-41.3	-42.4	19.7	0.00e+00	0	39	0	421527552	54	4041
2026-01-29 23:58:42.29	10.52	40.64	-41.1	-42.2	19.9	0.00e+00	0	39	0	423624704	54	3954
2026-01-29 23:58:43.01	10.47	40.83	-41.3	-42.5	19.6	0.00e+00	0	39	0	425721856	53	4318
2026-01-29 23:58:44.29	10.38	41.17	-41.6	-42.8	19.4	0.00e+00	0	39	0	427819008	53	4463
2026-01-29 23:58:45.01	10.33	41.36	-41.5	-42.7	19.4	0.00e+00	0	39	0	428867584	53	4441
2026-01-29 23:58:46.30	10.24	41.71	-41.9	-43.2	19.1	0.00e+00	0	39	0	432013312	54	4409
2026-01-29 23:58:47.02	10.18	41.90	-42.2	-43.6	18.7	0.00e+00	0	39	0	433061888	55	4367
2026-01-29 23:58:48.31	10.09	42.26	-42.4	-43.8	18.5	0.00e+00	0	39	0	435159040	55	4480
2026-01-29 23:58:49.02	10.03	42.45	-42.3	-43.8	18.5	0.00e+00	0	39	0	436207616	55	4443
2026-01-29 23:58:50.44	9.92	42.85	-42.6	-44.0	18.4	0.00e+00	0	39	0	439353344	56	4338
2026-01-29 23:58:51.16	9.87	43.05	-42.7	-44.2	18.3	0.00e+00	0	39	0	440401920	56	4400
2026-01-29 23:58:52.45	9.76	43.42	-42.8	-44.4	18.2	0.00e+00	0	39	0	443547648	56	4499
2026-01-29 23:58:53.16	9.71	43.62	-42.8	-44.4	18.2	0.00e+00	0	39	0	444596224	56	4513
2026-01-29 23:58:54.45	9.60	43.99	-43.4	-45.1	17.4	0.00e+00	0	39	0	446693376	57	4632
2026-01-29 23:58:55.17	9.54	44.20	-43.7	-45.6	17.0	0.00e+00	0	39	0	447741952	58	4601
2026-01-29 23:58:56.46	9.43	44.57	-43.9	-45.7	16.9	0.00e+00	0	39	0	450887680	58	4671
2026-01-29 23:58:57.17	9.36	44.78	-44.1	-46.1	16.6	0.00e+00	0	39	0	451936256	58	4881
2026-01-29 23:58:58.73	9.22	45.24	-43.6	-45.2	17.3	0.00e+00	0	39	0	455081984	58	4429
2026-01-29 23:58:59.44	9.16	45.45	-43.6	-45.2	17.4	0.00e+00	0	39	0	456130560	58	4428
2026-01-29 23:59:00.87	9.02	45.88	-43.7	-45.4	17.2	0.00e+00	0	39	0	459276288	58	4500
2026-01-29 23:59:01.59	8.96	46.10	-44.0	-45.7	16.8	0.00e+00	0	39	0	460324864	58	4703
2026-01-29 23:59:02.88	8.83	46.49	-44.7	-46.8	15.9	0.00e+00	0	39	0	462422016	59	4991
2026-01-29 23:59:03.60	8.76	46.71	-45.1	-47.3	15.4	0.00e+00	0	39	0	463470592	60	5037
2026-01-29 23:59:04.89	8.63	47.11	-45.2	-47.6	15.0	0.00e+00	0	39	0	466616320	61	4874
2026-01-29 23:59:05.61	8.55	47.34	-44.9	-47.1	15.5	0.00e+00	0	39	0	467664896	61	4617
2026-01-29 23:59:07.16	8.39	47.82	-44.2	-46.1	16.5	0.00e+00	0	39	0	470810624	60	4362
2026-01-29 23:59:08.13	8.28	48.13	-43.9	-45.7	16.9	0.00e+00	0	39	0	472907776	59	4413
2026-01-29 23:59:09.13	8.17	48.45	-43.9	-45.8	16.7	0.00e+00	0	39	0	473956352	59	4442
2026-01-29 23:59:10.13	8.05	48.77	-44.4	-46.4	16.3	0.00e+00	0	39	0	476053504	59	4760
2026-01-29 23:59:11.14	7.94	49.10	-44.2	-46.2	16.4	0.00e+00	0	39	0	478150656	59	4686
2026-01-29 23:59:12.14	7.82	49.42	-43.9	-45.7	16.9	0.00e+00	0	39	0	480247808	58	4675
2026-01-29 23:59:13.14	7.69	49.75	-43.7	-45.4	17.2	0.00e+00	0	39	0	482344960	58	4540
2026-01-29 23:59:14.16	7.57	50.09	-43.1	-44.7	17.8	0.00e+00	0	39	0	483393536	57	4396
2026-01-29 23:59:15.20	7.43	50.43	-42.7	-44.2	18.3	0.00e+00	0	39	0	485490688	57	4149
2026-01-29 23:59:16.24	7.30	50.78	-42.6	-44.0	18.4	0.00e+00	0	39	0	487587840	57	4093
2026-01-29 23:59:17.17	7.17	51.09	-42.7	-44.2	18.1	0.00e+00	0	39	0	489684992	57	4190
2026-01-29 23:59:18.17	7.04	51.43	-42.7	-44.3	18.2	0.00e+00	0	39	0	490733568	57	4214
2026-01-29 23:59:19.18	6.90	51.78	-42.7	-44.2	18.2	0.00e+00	0	39	0	492830720	57	4180
2026-01-29 23:59:20.18	6.75	52.12	-42.9	-44.5	18.0	0.00e+00	0	39	0	494927872	57	4314
2026-01-29 23:59:21.45	6.57	52.56	-42.6	-44.0	18.4	0.00e+00	0	39	0	497025024	56	4326
2026-01-29 23:59:22.23	6.45	52.83	-43.0	-44.5	18.2	0.00e+00	0	39	0	499122176	56	4571
2026-01-29 23:59:23.80	6.21	53.38	-44.1	-46.1	16.6	0.00e+00	0	39	0	502267904	58	4872
2026-01-29 23:59:24.44	6.10	53.61	-43.9	-45.8	16.8	0.00e+00	0	39	0	503316480	58	4739
2026-01-29 23:59:25.88	5.87	54.12	-42.4	-43.8	18.6	0.00e+00	0	39	0	505413632	56	4202
2026-01-29 23:59:26.60	5.75	54.38	-41.8	-43.0	19.2	0.00e+00	0	39	0	507510784	55	4088
2026-01-29 23:59:27.89	5.52	54.84	-41.0	-42.1	20.0	0.00e+00	0	39	0	509607936	54	3883
2026-01-29 23:59:28.61	5.40	55.11	-41.3	-42.5	19.7	0.00e+00	0	39	0	510656512	53	4298
2026-01-29 23:59:29.90	5.16	55.58	-41.8	-43.1	19.1	0.00e+00	0	39	0	513802240	54	4362
2026-01-29 23:59:30.61	5.03	55.84	-41.7	-43.1	19.1	0.00e+00	0	39	0	514850816	55	4101
2026-01-29 23:59:31.90	4.78	56.31	-41.8	-43.1	19.2	0.00e+00	0	39	0	516947968	55	4106
2026-01-29 23:59:32.62	4.64	56.58	-41.9	-43.2	18.9	0.00e+00	0	39	0	517996544	55	4192
2026-01-29 23:59:33.91	4.38	57.06	-42.5	-43.9	18.4	0.00e+00	0	39	0	521142272	55	4532
2026-01-29 23:59:34.63	4.23	57.33	-43.0	-44.5	17.8	0.00e+00	0	39	0	522190848	56	4586
2026-01-29 23:59:36.27	3.87	57.95	-43.8	-45.6	16.9	0.00e+00	0	39	0	525336576	58	4615
2026-01-29 23:59:36.84	3.75	58.17	-44.0	-45.9	16.6	0.00e+00	0	39	0	526385152	58	4797
2026-01-29 23:59:38.43	3.38	58.78	-44.7	-47.2	15.5	0.00e+00	0	39	0	529530880	60	4932
2026-01-29 23:59:39.15	3.21	59.06	-44.9	-47.3	15.2	7.00e-07	0	39	0	530579456	61	4755
2026-01-29 23:59:40.88	2.78	59.73	-43.6	-45.3	17.1	0.00e+00	0	39	0	533725184	59	4206
2026-01-29 23:59:41.46	2.64	59.96	-42.5	-43.9	18.5	0.00e+00	0	39	0	534773760	57	4040
2026-01-29 23:59:43.05	2.22	60.58	-42.4	-43.8	18.7	0.00e+00	0	39	0	537919488	56	4210
2026-01-29 23:59:43.63	2.06	60.81	-42.6	-44.1	18.3	0.00e+00	0	39	0	538968064	56	4359
2026-01-29 23:59:45.20	1.61	61.43	-42.9	-44.4	18.0	0.00e+00	0	39	0	542113792	57	4279
2026-01-29 23:59:45.93	1.40	61.72	-42.2	-43.6	18.8	0.00e+00	0	39	0	543162368	56	4114
2026-01-29 23:59:47.22	1.01	62.23	-40.9	-42.0	20.1	0.00e+00	0	39	0	545259520	53	4083
2026-01-29 23:59:48.07	0.74	62.58	-40.9	-42.1	20.0	0.00e+00	0	39	0	547356672	53	4100
2026-01-29 23:59:49.22	0.37	63.04	-41.1	-42.3	19.8	0.00e+00	0	39	0	549453824	53	4227
2026-01-29 23:59:50.35	359.99	63.50	-41.3	-42.5	19.6	0.00e+00	0	39	0	551550976	53	4340
2026-01-29 23:59:51.21	359.69	63.85	-41.5	-42.7	19.4	0.00e+00	0	39	0	553648128	53	4434
2026-01-29 23:59:52.36	359.27	64.31	-42.1	-43.5	18.8	0.00e+00	0	39	0	555745280	54	4549
2026-01-29 23:59:53.22	358.95	64.67	-42.2	-43.6	18.7	0.00e+00	0	39	0	556793856	55	4341
2026-01-29 23:59:54.36	358.50	65.13	-41.7	-43.0	19.1	0.00e+00	0	39	0	558891008	55	4087
2026-01-29 23:59:55.22	358.15	65.49	-41.3	-42.5	19.6	0.00e+00	0	39	0	560988160	54	4092
2026-01-29 23:59:56.37	357.67	65.96	-42.2	-43.6	18.6	0.00e+00	0	39	0	563085312	54	4637
2026-01-29 23:59:57.23	357.30	66.32	-42.5	-44.1	18.2	0.00e+00	0	39	0	564133888	55	4625
2026-01-29 23:59:58.37	356.78	66.79	-42.2	-43.7	18.6	0.00e+00	0	39	0	566231040	55	4401
2026-01-29 23:59:59.23	356.37	67.15	-41.7	-43.0	19.2	0.00e+00	0	39	0	568328192	55	4063
2026-01-30 00:00:00.38	355.81	67.62	-41.9	-43.2	19.0	0.00e+00	0	39	0	570425344	54	4404
2026-01-30 00:00:01.24	355.37	67.98	-42.4	-43.9	18.3	0.00e+00	0	39	0	572522496	55	4503
2026-01-30 00:00:02.54	354.67	68.52	-43.2	-44.8	17.5	0.00e+00	0	39	0	574619648	58	4212
2026-01-30 00:00:03.26	354.27	68.82	-43.5	-45.3	17.2	0.00e+00	0	39	0	575668224	57	4717
2026-01-30 00:00:04.75	353.40	69.44	-43.5	-45.2	17.2	0.00e+00	0	39	0	578813952	58	4423
2026-01-30 00:00:05.47	352.96	69.74	-43.4	-45.0	17.5	0.00e+00	0	39	0	579862528	58	4303
2026-01-30 00:00:06.76	352.13	70.28	-44.0	-45.9	16.6	0.00e+00	0	39	0	581959680	58	4773
2026-01-30 00:00:07.48	351.65	70.57	-44.1	-46.1	16.4	0.00e+00	0	39	0	584056832	59	4599
2026-01-30 00:00:08.77	350.74	71.11	-42.5	-44.0	18.3	0.00e+00	0	39	0	586153984	57	4066
2026-01-30 00:00:09.48	350.21	71.40	-41.7	-43.0	19.1	0.00e+00	0	39	0	587202560	55	4086
2026-01-30 00:00:10.77	349.22	71.93	-40.8	-41.9	20.1	0.00e+00	0	39	0	590348288	53	4027
2026-01-30 00:00:11.49	348.63	72.23	-40.2	-41.3	20.6	0.00e+00	0	39	0	591396864	52	3961
2026-01-30 00:00:12.78	347.54	72.75	-40.0	-41.0	21.1	0.00e+00	0	39	0	593494016	51	4053
2026-01-30 00:00:13.49	346.90	73.04	-40.2	-41.2	20.8	0.00e+00	0	39	0	594542592	51	4169
2026-01-30 00:00:14.78	345.69	73.56	-40.9	-42.0	20.0	0.00e+00	0	39	0	597688320	52	4339
2026-01-30 00:00:15.64	344.83	73.90	-41.0	-42.2	19.9	0.00e+00	0	39	0	598736896	52	4411
2026-01-30 00:00:17.12	343.27	74.48	-42.5	-44.0	18.3	0.00e+00	0	39	0	601882624	55	4570
2026-01-30 00:00:17.84	342.46	74.77	-44.0	-45.9	16.7	0.00e+00	0	39	0	602931200	58	4763
2026-01-30 00:00:19.13	340.94	75.26	-43.8	-45.6	16.9	0.00e+00	0	39	0	605028352	59	4347
2026-01-30 00:00:19.84	340.05	75.53	-43.6	-45.3	17.2	0.00e+00	0	39	0	607125504	59	4227
2026-01-30 00:00:21.13	338.35	76.01	-44.8	-47.1	15.4	0.00e+00	0	39	0	609222656	60	4914
2026-01-30 00:00:21.86	337.34	76.28	-44.2	-46.3	16.3	0.00e+00	0	39	0	610271232	60	4450
2026-01-30 00:00:23.15	335.44	76.75	-43.5	-45.1	17.3	0.00e+00	0	39	0	613416960	58	4373
2026-01-30 00:00:23.87	334.32	77.00	-44.4	-46.5	16.0	0.00e+00	0	39	0	614465536	59	4815
2026-01-30 00:00:25.16	332.20	77.44	-45.2	-47.7	14.8	0.00e+00	0	39	0	616562688	61	4947
2026-01-30 00:00:26.01	330.72	77.72	-43.8	-45.6	16.9	0.00e+00	0	39	0	618659840	59	4358
2026-01-30 00:00:27.15	328.62	78.09	-43.3	-44.9	17.4	0.00e+00	0	39	0	620756992	57	4514
2026-01-30 00:00:28.01	326.95	78.36	-43.3	-44.9	17.5	0.00e+00	0	39	0	621805568	57	4515
2026-01-30 00:00:29.15	324.61	78.69	-43.1	-44.6	17.7	0.00e+00	0	39	0	623902720	57	4364
2026-01-30 00:00:30.02	322.73	78.94	-43.7	-45.3	17.2	0.00e+00	0	39	0	625999872	57	4749
2026-01-30 00:00:31.16	320.14	79.24	-43.2	-44.7	17.7	0.00e+00	0	39	0	628097024	58	4191
2026-01-30 00:00:32.02	318.09	79.45	-42.8	-44.2	18.1	0.00e+00	0	39	0	630194176	57	4165
2026-01-30 00:00:33.17	315.21	79.72	-43.3	-44.9	17.6	0.00e+00	0	39	0	632291328	57	4497
2026-01-30 00:00:34.03	312.97	79.90	-44.6	-46.7	15.9	0.00e+00	0	39	0	633339904	59	4930
2026-01-30 00:00:35.18	309.84	80.11	-44.9	-47.2	15.5	0.00e+00	0	39	0	635437056	60	4967
2026-01-30 00:00:36.03	307.44	80.25	-44.8	-46.9	15.7	7.00e-07	0	39	0	637534208	61	4522
2026-01-30 00:00:37.31	303.71	80.43	-46.6	-50.1	12.6	1.14e-05	0	39	0	639631360	63	5802
2026-01-30 00:00:38.04	301.52	80.51	-46.2	-49.3	13.0	5.11e-05	0	39	0	640679936	63	5335
2026-01-30 00:00:39.32	297.60	80.63	-46.8	-50.7	11.8	2.62e-04	0	39	0	643825664	64	5858
2026-01-30 00:00:40.04	295.36	80.67	-45.8	-48.7	13.7	1.38e-04	0	39	0	644874240	63	4966
2026-01-30 00:00:41.33	291.30	80.71	-45.4	-47.8	14.7	7.00e-07	0	40	0	646971392	62	4756
2026-01-30 00:00:42.04	289.06	80.72	-45.9	-48.8	13.8	8.30e-06	0	39	0	649068544	62	5286
2026-01-30 00:00:43.33	284.99	80.69	-46.0	-48.8	13.6	5.79e-05	0	40	0	651165696	63	5038
2026-01-30 00:00:44.05	282.74	80.65	-45.1	-47.4	15.1	6.80e-06	0	39	0	652214272	62	4534
2026-01-30 00:00:45.34	278.76	80.55	-44.9	-47.3	15.3	0.00e+00	0	39	0	654311424	61	4722
2026-01-30 00:00:46.06	276.58	80.48	-44.9	-47.3	15.2	0.00e+00	0	39	0	656408576	61	4745
2026-01-30 00:00:47.34	272.80	80.31	-45.4	-48.0	14.5	0.00e+00	0	39	0	658505728	61	5157
2026-01-30 00:00:48.06	270.74	80.20	-46.1	-49.1	13.3	3.00e-06	0	39	0	659554304	62	5523
2026-01-30 00:00:49.40	267.03	79.97	-44.9	-47.1	15.5	0.00e+00	0	39	0	662700032	61	4614
2026-01-30 00:00:50.37	264.47	79.77	-46.1	-49.2	13.4	4.50e-06	0	39	0	663748608	63	5262
2026-01-30 00:00:51.37	261.93	79.55	-45.1	-47.4	15.1	1.83e-05	0	39	0	665845760	62	4543
2026-01-30 00:00:52.38	259.48	79.30	-44.1	-46.0	16.5	0.00e+00	0	39	0	667942912	59	4553
2026-01-30 00:00:53.38	257.17	79.04	-45.9	-49.0	13.5	7.00e-07	0	39	0	670040064	62	5455
2026-01-30 00:00:54.38	254.98	78.76	-45.0	-47.4	15.0	9.10e-06	0	39	0	672137216	62	4513
2026-01-30 00:00:55.39	252.87	78.47	-44.4	-46.5	16.1	0.00e+00	0	39	0	673185792	59	4840
2026-01-30 00:00:56.39	250.89	78.17	-46.3	-49.6	12.9	3.80e-06	0	39	0	675282944	63	5483
2026-01-30 00:00:57.39	249.02	77.85	-46.3	-49.7	12.7	3.29e-04	0	39	0	677380096	64	5232
2026-01-30 00:00:58.39	247.24	77.52	-45.9	-48.9	13.7	1.29e-05	0	39	0	679477248	63	5099
2026-01-30 00:00:59.46	245.45	77.16	-47.0	-51.1	11.4	1.52e-04	0	39	0	681574400	64	6163
2026-01-30 00:01:00.35	244.03	76.85	-47.4	-52.4	9.8	1.10e-02	0	39	0	682622976	66	6380
2026-01-30 00:01:01.36	242.51	76.49	-46.0	-49.2	13.4	1.21e-03	0	39	0	684720128	63	5227
2026-01-30 00:01:02.36	241.09	76.12	-44.1	-46.1	16.3	7.00e-07	0	39	0	686817280	60	4389
2026-01-30 00:01:03.37	239.72	75.75	-43.9	-45.8	16.7	0.00e+00	0	39	0	688914432	59	4448
2026-01-30 00:01:04.37	238.45	75.37	-43.8	-45.7	16.8	0.00e+00	0	39	0	689963008	59	4393
2026-01-30 00:01:05.37	237.24	74.98	-42.8	-44.3	18.1	0.00e+00	0	39	0	692060160	57	4206
2026-01-30 00:01:06.37	236.09	74.60	-42.2	-43.5	18.8	0.00e+00	0	40	0	694157312	56	4081
2026-01-30 00:01:07.37	235.00	74.20	-41.3	-42.5	19.6	0.00e+00	0	39	0	696254464	54	4073
2026-01-30 00:01:08.38	233.96	73.80	-41.1	-42.3	19.7	0.00e+00	0	39	0	698351616	53	4229
2026-01-30 00:01:09.38	232.98	73.40	-40.9	-42.0	19.9	0.00e+00	0	39	0	699400192	52	4298
2026-01-30 00:01:10.39	232.04	72.99	-40.0	-41.0	20.8	0.00e+00	0	39	0	701497344	52	3841
2026-01-30 00:01:11.40	231.15	72.58	-41.0	-42.1	19.9	0.00e+00	0	39	0	703594496	52	4378
2026-01-30 00:01:12.41	230.30	72.17	-41.6	-42.9	19.2	0.00e+00	0	39	0	705691648	54	4264
2026-01-30 00:01:13.48	229.44	71.73	-41.2	-42.3	19.6	0.00e+00	0	39	0	707788800	54	4000
2026-01-30 00:01:14.38	228.75	71.36	-40.8	-41.9	20.0	0.00e+00	0	39	0	708837376	53	4046
2026-01-30 00:01:15.38	228.02	70.95	-41.2	-42.4	19.6	0.00e+00	0	39	0	710934528	53	4246
2026-01-30 00:01:16.39	227.32	70.53	-41.8	-43.1	19.0	0.00e+00	0	39	0	713031680	54	4360
2026-01-30 00:01:17.39	226.65	70.11	-43.5	-45.2	17.1	0.00e+00	0	39	0	715128832	57	4681
2026-01-30 00:01:18.39	226.02	69.70	-42.5	-43.9	18.4	0.00e+00	0	39	0	717225984	57	4044
2026-01-30 00:01:19.40	225.40	69.28	-42.6	-44.1	18.2	0.00e+00	0	39	0	718274560	56	4389
2026-01-30 00:01:20.39	224.82	68.86	-43.2	-44.9	17.5	0.00e+00	0	39	0	720371712	57	4519
2026-01-30 00:01:21.40	224.26	68.44	-43.7	-45.5	16.9	0.00e+00	0	39	0	722468864	58	4571
2026-01-30 00:01:22.40	223.73	68.02	-44.1	-46.1	16.4	0.00e+00	0	40	0	724566016	58	4896
2026-01-30 00:01:23.40	223.21	67.61	-42.8	-44.4	17.9	0.00e+00	0	39	0	725614592	57	4263
2026-01-30 00:01:24.41	222.71	67.19	-41.4	-42.7	19.3	0.00e+00	0	39	0	727711744	54	4148
2026-01-30 00:01:25.43	222.23	66.76	-41.4	-42.7	19.3	0.00e+00	0	39	0	729808896	53	4409
2026-01-30 00:01:26.47	221.76	66.33	-42.1	-43.5	18.6	0.00e+00	0	40	0	731906048	55	4306
2026-01-30 00:01:27.35	221.37	65.97	-42.7	-44.2	18.0	0.00e+00	0	39	0	734003200	55	4671
2026-01-30 00:01:28.50	220.89	65.49	-42.8	-44.3	17.9	0.00e+00	0	39	0	736100352	57	4236
2026-01-30 00:01:29.35	220.54	65.14	-43.3	-45.0	17.3	0.00e+00	0	39	0	737148928	57	4568
2026-01-30 00:01:30.50	220.09	64.67	-42.8	-44.3	18.1	0.00e+00	0	39	0	739246080	57	4220
2026-01-30 00:01:31.36	219.77	64.32	-42.4	-43.8	18.3	0.00e+00	0	39	0	741343232	56	4199
2026-01-30 00:01:32.50	219.36	63.85	-43.2	-44.8	17.6	0.00e+00	0	39	0	743440384	56	4721
2026-01-30 00:01:33.36	219.05	63.50	-45.0	-47.5	15.0	0.00e+00	0	39	0	744488960	60	5132
2026-01-30 00:01:34.51	218.66	63.03	-44.8	-47.1	15.3	7.00e-07	0	39	0	746586112	60	4914
2026-01-30 00:01:35.36	218.39	62.69	-44.5	-46.8	15.6	0.00e+00	0	39	0	748683264	60	4713
2026-01-30 00:01:36.51	218.02	62.23	-45.5	-48.2	14.2	7.00e-07	0	39	0	750780416	61	5258
2026-01-30 00:01:37.37	217.76	61.88	-44.1	-46.0	16.4	7.00e-07	0	39	0	751828992	60	4317
2026-01-30 00:01:38.51	217.42	61.43	-42.5	-43.9	18.3	0.00e+00	0	39	0	753926144	57	4028
2026-01-30 00:01:39.38	217.17	61.08	-41.4	-43.0	18.8	0.00e+00	0	39	0	756023296	55	4068
2026-01-30 00:01:40.52	216.86	60.63	-40.6	-41.7	20.1	0.00e+00	0	39	0	758120448	53	3936
2026-01-30 00:01:41.38	216.62	60.29	-40.0	-41.0	20.8	0.00e+00	0	39	0	760217600	52	3848
2026-01-30 00:01:42.53	216.32	59.84	-40.8	-41.9	20.0	0.00e+00	0	39	0	762314752	52	4290
2026-01-30 00:01:43.39	216.11	59.50	-40.9	-42.0	19.9	0.00e+00	0	39	0	763363328	52	4332
2026-01-30 00:01:44.53	215.83	59.06	-41.3	-42.6	19.4	0.00e+00	0	39	0	765460480	53	4349
2026-01-30 00:01:45.39	215.62	58.73	-41.5	-42.8	19.2	0.00e+00	0	39	0	767557632	53	4490
2026-01-30 00:01:46.54	215.36	58.29	-42.3	-43.9	18.3	0.00e+00	0	39	0	769654784	55	4503
2026-01-30 00:01:47.40	215.16	57.96	-41.8	-43.2	18.8	0.00e+00	0	39	0	770703360	55	4163
2026-01-30 00:01:48.91	214.84	57.38	-41.1	-42.3	19.6	0.00e+00	0	40	0	773849088	53	4210
2026-01-30 00:01:49.63	214.68	57.11	-41.3	-42.5	19.4	0.00e+00	0	39	0	774897664	53	4326
2026-01-30 00:01:50.92	214.42	56.63	-43.0	-44.6	17.7	0.00e+00	0	39	0	778043392	56	4640
2026-01-30 00:01:51.63	214.28	56.36	-43.5	-45.2	17.1	0.00e+00	0	39	0	779091968	57	4683
2026-01-30 00:01:53.19	213.98	55.78	-43.8	-45.6	16.7	0.00e+00	0	39	0	782237696	59	4367
2026-01-30 00:01:53.90	213.85	55.52	-44.2	-46.2	16.2	0.00e+00	0	40	0	783286272	59	4653
2026-01-30 00:01:55.19	213.61	55.05	-43.6	-45.4	16.9	0.00e+00	0	39	0	785383424	58	4503
2026-01-30 00:01:55.90	213.48	54.79	-42.9	-44.5	17.8	0.00e+00	0	39	0	787480576	57	4295
2026-01-30 00:01:57.19	213.26	54.33	-42.5	-44.1	18.1	0.00e+00	0	39	0	789577728	56	4346
2026-01-30 00:01:58.29	213.08	53.93	-42.6	-44.1	18.1	0.00e+00	0	40	0	791674880	56	4351
2026-01-30 00:01:59.15	212.94	53.62	-41.9	-43.3	18.7	0.00e+00	0	39	0	792723456	55	4194
2026-01-30 00:02:00.30	212.75	53.22	-41.8	-43.0	18.9	0.00e+00	0	39	0	794820608	55	4091
2026-01-30 00:02:01.16	212.62	52.91	-42.3	-43.7	18.3	0.00e+00	0	39	0	796917760	55	4412
2026-01-30 00:02:02.30	212.45	52.51	-41.7	-43.0	19.0	0.00e+00	0	39	0	799014912	54	4292
2026-01-30 00:02:03.16	212.32	52.21	-41.4	-42.6	19.4	0.00e+00	0	39	0	801112064	54	4107
2026-01-30 00:02:04.44	212.13	51.77	-41.8	-43.1	18.9	0.00e+00	0	39	0	803209216	54	4353
2026-01-30 00:02:05.18	212.03	51.52	-42.4	-43.8	18.2	0.00e+00	0	39	0	804257792	55	4490
2026-01-30 00:02:06.47	211.85	51.08	-43.0	-44.6	17.7	0.00e+00	0	39	0	806354944	56	4628
2026-01-30 00:02:07.19	211.75	50.84	-42.9	-44.4	17.8	0.00e+00	0	39	0	808452096	56	4525
2026-01-30 00:02:08.48	211.58	50.40	-43.0	-44.7	17.6	0.00e+00	0	39	0	810549248	57	4397
2026-01-30 00:02:09.20	211.49	50.16	-44.1	-46.1	16.3	0.00e+00	0	39	0	811597824	58	4917
2026-01-30 00:02:10.49	211.33	49.73	-44.4	-46.5	15.9	0.00e+00	0	39	0	814743552	59	4828
2026-01-30 00:02:11.20	211.24	49.50	-44.3	-46.3	16.0	0.00e+00	0	39	0	815792128	59	4738
2026-01-30 00:02:12.49	211.09	49.08	-44.0	-45.8	16.5	0.00e+00	0	39	0	817889280	59	4472
2026-01-30 00:02:13.21	211.00	48.84	-44.2	-46.1	16.2	0.00e+00	0	40	0	819986432	59	4629
2026-01-30 00:02:14.50	210.85	48.43	-45.0	-47.3	15.2	0.00e+00	0	40	0	822083584	60	5025
2026-01-30 00:02:15.22	210.77	48.20	-45.1	-47.6	14.8	0.00e+00	0	40	0	823132160	61	4906
2026-01-30 00:02:16.50	210.63	47.79	-45.6	-48.5	13.7	6.10e-06	0	39	0	825229312	62	5102
2026-01-30 00:02:17.47	210.53	47.48	-45.2	-47.7	14.7	7.00e-07	0	40	0	827326464	62	4670
2026-01-30 00:02:18.48	210.42	47.17	-44.4	-46.5	15.9	7.00e-07	0	40	0	829423616	60	4557
2026-01-30 00:02:19.48	210.32	46.86	-45.0	-47.3	15.0	0.00e+00	0	40	0	831520768	60	5030
2026-01-30 00:02:20.48	210.21	46.55	-45.1	-47.5	14.8	1.50e-06	0	39	0	832569344	61	4870
2026-01-30 00:02:21.49	210.11	46.24	-44.7	-46.9	15.5	0.00e+00	0	40	0	834666496	60	4799
2026-01-30 00:02:22.49	210.02	45.93	-43.3	-44.9	17.3	0.00e+00	0	39	0	836763648	58	4285
2026-01-30 00:02:23.50	209.92	45.63	-42.7	-44.1	18.1	0.00e+00	0	40	0	838860800	57	4135
2026-01-30 00:02:24.50	209.83	45.33	-43.1	-44.6	17.7	0.00e+00	0	40	0	840957952	57	4385
2026-01-30 00:02:25.50	209.74	45.03	-43.6	-45.4	16.9	0.00e+00	0	40	0	842006528	57	4762
2026-01-30 00:02:26.58	209.64	44.71	-43.5	-45.2	17.1	0.00e+00	0	40	0	844103680	58	4428
2026-01-30 00:02:27.44	209.56	44.46	-43.9	-45.7	16.7	0.00e+00	0	39	0	846200832	58	4659
2026-01-30 00:02:28.59	209.46	44.12	-44.5	-46.6	15.7	0.00e+00	0	40	0	848297984	59	4917
2026-01-30 00:02:29.45	209.39	43.87	-43.9	-45.8	16.5	0.00e+00	0	39	0	850395136	59	4447
2026-01-30 00:02:30.59	209.29	43.54	-44.3	-46.4	15.9	0.00e+00	0	39	0	852492288	59	4797
2026-01-30 00:02:31.45	209.22	43.30	-44.4	-46.6	15.6	0.00e+00	0	40	0	853540864	59	4896
2026-01-30 00:02:32.60	209.13	42.97	-44.9	-47.4	14.9	0.00e+00	0	40	0	855638016	60	5078
2026-01-30 00:02:33.46	209.06	42.73	-45.4	-48.3	14.1	7.00e-07	0	39	0	857735168	61	5314
2026-01-30 00:02:34.60	208.98	42.41	-46.7	-50.8	11.5	2.36e-05	0	40	0	859832320	64	5934
2026-01-30 00:02:35.75	208.89	42.09	-46.4	-50.0	12.3	6.75e-04	0	39	0	861929472	64	5432
2026-01-30 00:02:36.61	208.82	41.86	-45.3	-47.9	14.7	1.22e-05	0	40	0	862978048	62	4812
2026-01-30 00:02:37.76	208.74	41.54	-43.8	-45.7	16.7	0.00e+00	0	40	0	865075200	59	4400
2026-01-30 00:02:38.62	208.68	41.31	-43.8	-45.7	16.6	0.00e+00	0	40	0	867172352	59	4417
2026-01-30 00:02:40.18	208.57	40.89	-43.7	-45.5	16.8	0.00e+00	0	39	0	870318080	59	4336
2026-01-30 00:02:40.79	208.53	40.73	-44.5	-46.6	15.8	0.00e+00	0	39	0	871366656	59	4913
2026-01-30 00:02:42.37	208.42	40.31	-44.2	-46.3	16.0	0.00e+00	0	40	0	874512384	60	4477
2026-01-30 00:02:42.94	208.38	40.16	-44.2	-46.4	16.0	0.00e+00	0	40	0	875560960	60	4503
2026-01-30 00:02:44.54	208.28	39.74	-44.5	-46.7	15.6	0.00e+00	0	40	0	878706688	60	4699
2026-01-30 00:02:45.11	208.24	39.60	-45.1	-47.8	14.7	0.00e+00	0	40	0	879755264	60	5287
2026-01-30 00:02:46.87	208.13	39.14	-44.5	-46.8	15.5	0.00e+00	0	40	0	882900992	61	4473
2026-01-30 00:02:47.44	208.09	39.00	-44.2	-46.3	16.2	0.00e+00	0	40	0	883949568	60	4464
2026-01-30 00:02:49.08	207.99	38.59	-42.9	-44.5	17.7	0.00e+00	0	39	0	887095296	57	4312
2026-01-30 00:02:49.66	207.96	38.44	-42.6	-44.1	18.1	0.00e+00	0	40	0	888143872	57	4133
2026-01-30 00:02:51.23	207.87	38.05	-42.3	-43.8	18.4	0.00e+00	0	40	0	890241024	56	4226
2026-01-30 00:02:51.82	207.83	37.91	-42.8	-44.5	17.8	0.00e+00	0	40	0	892338176	56	4546
2026-01-30 00:02:53.40	207.74	37.52	-43.5	-45.3	17.1	0.00e+00	0	39	0	894435328	58	4453
2026-01-30 00:02:54.18	207.70	37.33	-43.9	-45.8	16.4	0.00e+00	0	40	0	896532480	58	4758
2026-01-30 00:02:55.47	207.63	37.02	-44.4	-46.5	15.7	0.00e+00	0	40	0	898629632	59	4847
2026-01-30 00:02:56.19	207.59	36.85	-44.4	-46.5	15.9	0.00e+00	0	40	0	899678208	60	4578
2026-01-30 00:02:57.47	207.52	36.55	-44.1	-46.2	16.1	0.00e+00	0	39	0	902823936	60	4411
2026-01-30 00:02:58.19	207.48	36.38	-44.4	-46.5	16.1	0.00e+00	0	40	0	903872512	60	4564
2026-01-30 00:02:59.48	207.42	36.08	-44.4	-46.6	15.7	0.00e+00	0	39	0	905969664	60	4614
2026-01-30 00:03:00.20	207.38	35.91	-44.7	-47.0	15.3	0.00e+00	0	40	0	908066816	60	4869
2026-01-30 00:03:01.49	207.32	35.61	-45.4	-48.1	14.2	7.00e-07	0	40	0	910163968	61	5201
2026-01-30 00:03:02.20	207.28	35.45	-45.1	-47.8	14.5	7.00e-07	0	40	0	911212544	61	5011
2026-01-30 00:03:03.60	207.21	35.13	-44.9	-47.3	15.0	0.00e+00	0	40	0	914358272	61	4749
2026-01-30 00:03:04.59	207.17	34.91	-44.4	-46.6	15.7	0.00e+00	0	40	0	915406848	60	4641
2026-01-30 00:03:05.59	207.12	34.68	-44.1	-46.2	16.1	0.00e+00	0	40	0	917504000	60	4409
2026-01-30 00:03:06.93	207.06	34.39	-43.8	-45.6	16.7	0.00e+00	0	40	0	920649728	59	4371
2026-01-30 00:03:07.70	207.02	34.22	-43.5	-45.3	17.0	0.00e+00	0	40	0	921698304	59	4226
2026-01-30 00:03:09.30	206.95	33.87	-43.6	-45.4	16.9	0.00e+00	0	40	0	924844032	58	4525
2026-01-30 00:03:10.14	206.91	33.69	-43.6	-45.3	16.9	0.00e+00	0	40	0	925892608	58	4492
2026-01-30 00:03:11.29	206.86	33.44	-43.5	-45.3	16.9	0.00e+00	0	40	0	927989760	58	4442
2026-01-30 00:03:12.15	206.83	33.25	-43.9	-45.7	16.5	0.00e+00	0	40	0	930086912	58	4677
2026-01-30 00:03:13.30	206.78	33.01	-43.8	-45.6	16.7	0.00e+00	0	40	0	932184064	58	4603
2026-01-30 00:03:14.16	206.74	32.83	-43.5	-45.2	17.0	0.00e+00	0	40	0	933232640	58	4401
2026-01-30 00:03:15.30	206.70	32.59	-43.8	-45.6	16.7	0.00e+00	0	40	0	936378368	58	4612
2026-01-30 00:03:16.16	206.66	32.41	-43.8	-45.6	16.7	0.00e+00	0	40	0	937426944	58	4627
2026-01-30 00:03:17.31	206.62	32.18	-43.8	-45.6	16.7	0.00e+00	0	40	0	939524096	58	4609
2026-01-30 00:03:18.16	206.58	32.00	-43.8	-45.6	16.6	0.00e+00	0	40	0	941621248	58	4646
2026-01-30 00:03:19.50	206.53	31.73	-43.7	-45.5	16.6	0.00e+00	0	40	0	943718400	58	4576
2026-01-30 00:03:20.22	206.50	31.58	-43.9	-45.8	16.3	0.00e+00	0	40	0	944766976	58	4743
2026-01-30 00:03:21.51	206.45	31.32	-43.9	-45.8	16.4	0.00e+00	0	40	0	947912704	58	4723
2026-01-30 00:03:22.23	206.43	31.18	-43.9	-45.9	16.2	0.00e+00	0	40	0	948961280	58	4782
2026-01-30 00:03:23.79	206.37	30.87	-43.8	-45.7	16.5	0.00e+00	0	40	0	952107008	58	4670
2026-01-30 00:03:24.50	206.34	30.73	-43.8	-45.7	16.4	0.00e+00	0	40	0	953155584	58	4688
2026-01-30 00:03:25.79	206.30	30.48	-43.6	-45.4	16.8	0.00e+00	0	40	0	955252736	58	4517
2026-01-30 00:03:26.50	206.27	30.34	-43.5	-45.3	16.9	0.00e+00	0	40	0	957349888	58	4443
2026-01-30 00:03:27.79	206.23	30.10	-43.6	-45.4	16.8	0.00e+00	0	40	0	959447040	58	4507
2026-01-30 00:03:28.51	206.20	29.96	-43.7	-45.6	16.6	0.00e+00	0	40	0	960495616	58	4611
2026-01-30 00:03:29.80	206.16	29.71	-43.7	-45.6	16.6	0.00e+00	0	40	0	962592768	58	4622
2026-01-30 00:03:30.51	206.14	29.58	-44.0	-46.0	16.2	0.00e+00	0	40	0	964689920	58	4853
2026-01-30 00:03:31.80	206.09	29.34	-44.1	-46.1	16.1	0.00e+00	0	40	0	966787072	58	4876
2026-01-30 00:03:32.52	206.07	29.20	-44.1	-46.0	16.1	0.00e+00	0	40	0	967835648	59	4598
2026-01-30 00:03:33.81	206.03	28.97	-43.4	-45.2	16.8	0.00e+00	0	40	0	970981376	58	4394
2026-01-30 00:03:34.62	206.00	28.82	-43.2	-44.9	17.2	0.00e+00	0	40	0	972029952	58	4258
2026-01-30 00:03:35.76	205.97	28.61	-43.1	-44.8	17.3	0.00e+00	0	40	0	974127104	57	4460
2026-01-30 00:03:36.81	205.94	28.42	-42.5	-44.0	18.1	0.00e+00	0	40	0	976224256	56	4305
2026-01-30 00:03:37.89	205.90	28.22	-42.4	-43.9	18.2	0.00e+00	0	40	0	978321408	56	4244
2026-01-30 00:03:38.85	205.87	28.05	-42.6	-44.1	17.9	0.00e+00	0	40	0	980418560	56	4382
2026-01-30 00:03:39.85	205.84	27.88	-42.4	-43.9	18.2	0.00e+00	0	40	0	981467136	56	4249
2026-01-30 00:03:40.86	205.81	27.70	-42.4	-43.8	18.2	0.00e+00	0	40	0	983564288	56	4222
2026-01-30 00:03:41.86	205.78	27.52	-42.8	-44.3	17.8	0.00e+00	0	40	0	985661440	56	4483
2026-01-30 00:03:42.86	205.76	27.35	-42.7	-44.2	17.8	0.00e+00	0	40	0	987758592	56	4441
2026-01-30 00:03:43.86	205.73	27.17	-42.6	-44.1	18.0	0.00e+00	0	40	0	989855744	56	4347
2026-01-30 00:03:44.87	205.70	27.00	-42.4	-43.9	18.2	0.00e+00	0	40	0	990904320	56	4244
2026-01-30 00:03:45.87	205.67	26.83	-42.3	-43.8	18.3	0.00e+00	0	40	0	993001472	56	4201
2026-01-30 00:03:46.87	205.64	26.66	-42.2	-43.6	18.4	0.00e+00	0	40	0	995098624	56	4140
2026-01-30 00:03:47.87	205.62	26.49	-42.0	-43.4	18.6	0.00e+00	0	40	0	997195776	56	4046
2026-01-30 00:03:48.89	205.59	26.32	-41.7	-43.0	18.8	0.00e+00	0	40	0	999292928	55	4082
2026-01-30 00:03:49.90	205.56	26.15	-41.8	-43.2	18.7	0.00e+00	0	39	0	1000341504	55	4155
2026-01-30 00:03:50.90	205.54	25.98	-41.7	-43.1	18.8	0.00e+00	0	40	0	1002438656	55	4113
2026-01-30 00:03:51.90	205.51	25.82	-41.7	-43.0	18.8	0.00e+00	0	40	0	1004535808	55	4079
2026-01-30 00:03:52.90	205.49	25.66	-41.6	-43.0	18.8	0.00e+00	0	40	0	1006632960	55	4074
2026-01-30 00:03:53.90	205.46	25.49	-42.0	-43.4	18.5	0.00e+00	0	40	0	1008730112	55	4270
2026-01-30 00:03:54.91	205.43	25.33	-42.0	-43.4	18.4	0.00e+00	0	40	0	1009778688	55	4287
2026-01-30 00:03:55.91	205.41	25.17	-42.2	-43.7	18.1	0.00e+00	0	40	0	1011875840	55	4403
2026-01-30 00:03:56.91	205.39	25.01	-42.3	-43.8	18.1	0.00e+00	0	40	0	1013972992	55	4489
2026-01-30 00:03:57.92	205.36	24.85	-42.2	-43.6	18.2	0.00e+00	0	40	0	1016070144	55	4388
2026-01-30 00:03:59.30	205.33	24.63	-42.2	-43.7	18.2	0.00e+00	0	40	0	1018167296	55	4404
2026-01-30 00:04:00.02	205.31	24.52	-42.2	-43.7	18.1	0.00e+00	0	40	0	1019215872	55	4436
2026-01-30 00:04:01.66	205.27	24.26	-42.1	-43.6	18.2	0.00e+00	0	40	0	1022361600	55	4381
2026-01-30 00:04:02.23	205.26	24.17	-42.2	-43.8	18.2	0.00e+00	0	40	0	1023410176	55	4443
2026-01-30 00:04:03.83	205.22	23.93	-42.4	-44.0	17.9	0.00e+00	0	40	0	1026555904	55	4588
2026-01-30 00:04:04.41	205.21	23.84	-42.6	-44.3	17.6	0.00e+00	0	40	0	1027604480	55	4717
2026-01-30 00:04:06.11	205.17	23.58	-43.1	-44.9	17.2	0.00e+00	0	40	0	1030750208	56	4793
2026-01-30 00:04:07.15	205.15	23.43	-43.1	-44.9	17.2	0.00e+00	0	40	0	1032847360	56	4785
2026-01-30 00:04:08.15	205.13	23.28	-43.4	-45.3	16.7	0.00e+00	0	40	0	1034944512	57	4752
2026-01-30 00:04:09.15	205.11	23.13	-43.2	-45.1	17.0	0.00e+00	0	40	0	1037041664	57	4600
2026-01-30 00:04:10.18	205.09	22.97	-43.5	-45.4	16.7	0.00e+00	0	40	0	1039138816	57	4806
2026-01-30 00:04:11.21	205.06	22.82	-43.6	-45.6	16.5	0.00e+00	0	40	0	1040187392	58	4628
2026-01-30 00:04:12.21	205.04	22.68	-43.7	-45.6	16.5	0.00e+00	0	40	0	1042284544	58	4638
2026-01-30 00:04:13.29	205.02	22.52	-43.6	-45.5	16.6	0.00e+00	0	40	0	1044381696	58	4565
2026-01-30 00:04:14.18	205.00	22.39	-43.3	-45.1	17.0	0.00e+00	0	40	0	1046478848	58	4370
2026-01-30 00:04:15.50	204.98	22.20	-43.4	-45.2	17.0	0.00e+00	0	40	0	1048576000	58	4412
2026-01-30 00:04:16.21	204.96	22.10	-43.0	-44.7	17.3	0.00e+00	0	40	0	1049624576	58	4173
2026-01-30 00:04:17.51	204.94	21.92	-42.9	-44.5	17.5	0.00e+00	0	40	0	1052770304	57	4314
2026-01-30 00:04:18.22	204.92	21.82	-43.0	-44.6	17.4	0.00e+00	0	40	0	1053818880	57	4387
2026-01-30 00:04:19.78	204.89	21.60	-42.6	-44.2	17.8	0.00e+00	0	40	0	1056964608	57	4147
2026-01-30 00:04:20.49	204.88	21.50	-42.6	-44.2	17.8	0.00e+00	0	40	0	1058013184	57	4160
2026-01-30 00:04:21.78	204.86	21.32	-42.6	-44.2	17.8	0.00e+00	0	40	0	1060110336	57	4162
2026-01-30 00:04:22.49	204.84	21.22	-42.9	-44.5	17.5	0.00e+00	0	40	0	1062207488	56	4597
2026-01-30 00:04:23.78	204.82	21.04	-42.8	-44.4	17.6	0.00e+00	0	40	0	1064304640	56	4511
2026-01-30 00:04:24.49	204.81	20.95	-42.7	-44.2	17.8	0.00e+00	0	40	0	1065353216	56	4425
2026-01-30 00:04:25.78	204.78	20.77	-43.0	-44.6	17.4	0.00e+00	0	40	0	1068498944	56	4631
2026-01-30 00:04:26.50	204.77	20.67	-42.9	-44.5	17.5	0.00e+00	0	40	0	1069547520	56	4593
2026-01-30 00:04:27.79	204.75	20.50	-43.1	-44.7	17.3	0.00e+00	0	40	0	1071644672	56	4695
2026-01-30 00:04:28.51	204.74	20.41	-43.0	-44.7	17.4	0.00e+00	0	40	0	1072693248	57	4404
2026-01-30 00:04:29.79	204.71	20.23	-42.8	-44.4	17.6	0.00e+00	0	40	0	1075838976	57	4254
2026-01-30 00:04:30.58	204.70	20.13	-42.8	-44.3	17.7	0.00e+00	0	40	0	1076887552	57	4224
2026-01-30 00:04:31.73	204.68	19.98	-42.5	-44.0	17.9	0.00e+00	0	40	0	1078984704	56	4338
2026-01-30 00:04:32.58	204.67	19.87	-42.4	-43.9	18.1	0.00e+00	0	40	0	1081081856	56	4255
2026-01-30 00:04:33.73	204.65	19.72	-42.4	-43.9	18.1	0.00e+00	0	40	0	1083179008	56	4243
2026-01-30 00:04:34.59	204.63	19.61	-42.3	-43.8	18.2	0.00e+00	0	40	0	1084227584	56	4226
2026-01-30 00:04:35.74	204.62	19.46	-42.2	-43.7	18.2	0.00e+00	0	40	0	1086324736	56	4161
2026-01-30 00:04:36.60	204.60	19.35	-42.2	-43.6	18.3	0.00e+00	0	40	0	1088421888	56	4116
2026-01-30 00:04:37.74	204.58	19.20	-41.9	-43.3	18.5	0.00e+00	0	40	0	1090519040	55	4206
2026-01-30 00:04:38.60	204.57	19.09	-41.7	-43.1	18.7	0.00e+00	0	40	0	1091567616	55	4108
2026-01-30 00:04:39.81	204.55	18.94	-42.0	-43.4	18.3	0.00e+00	0	40	0	1094713344	55	4291
2026-01-30 00:04:40.67	204.54	18.83	-42.0	-43.5	18.3	0.00e+00	0	40	0	1095761920	55	4301
2026-01-30 00:04:41.89	204.52	18.68	-42.0	-43.4	18.4	0.00e+00	0	40	0	1097859072	55	4261
2026-01-30 00:04:42.75	204.51	18.58	-42.5	-44.0	17.8	0.00e+00	0	40	0	1099956224	55	4577
2026-01-30 00:04:43.95	204.49	18.43	-42.4	-43.9	17.9	0.00e+00	0	40	0	1102053376	55	4515
2026-01-30 00:04:44.80	204.48	18.32	-42.4	-44.0	17.8	0.00e+00	0	40	0	1104150528	55	4560
2026-01-30 00:04:46.02	204.46	18.17	-43.1	-44.7	17.3	0.00e+00	0	40	0	1106247680	56	4700
2026-01-30 00:04:46.88	204.44	18.07	-43.1	-44.8	17.1	0.00e+00	0	40	0	1107296256	57	4490
2026-01-30 00:04:48.10	204.43	17.92	-43.5	-45.4	16.7	0.00e+00	0	40	0	1109393408	57	4760
2026-01-30 00:04:48.96	204.41	17.82	-43.6	-45.4	16.6	0.00e+00	0	40	0	1111490560	58	4524
2026-01-30 00:04:50.11	204.40	17.68	-44.0	-46.0	16.1	0.00e+00	0	40	0	1113587712	58	4828
2026-01-30 00:04:50.96	204.39	17.58	-44.2	-46.2	15.8	0.00e+00	0	40	0	1115684864	58	4973
2026-01-30 00:04:52.11	204.37	17.44	-44.0	-46.0	16.0	0.00e+00	0	40	0	1117782016	58	4841
2026-01-30 00:04:53.02	204.36	17.33	-44.2	-46.3	15.7	0.00e+00	0	40	0	1118830592	59	4707
2026-01-30 00:04:54.23	204.34	17.19	-44.3	-46.5	15.5	0.00e+00	0	40	0	1120927744	59	4842
2026-01-30 00:04:55.09	204.33	17.09	-44.3	-46.5	15.6	0.00e+00	0	40	0	1123024896	59	4829
2026-01-30 00:04:56.41	204.31	16.94	-44.5	-46.7	15.3	0.00e+00	0	40	0	1125122048	59	4938
2026-01-30 00:04:57.12	204.30	16.86	-44.5	-46.7	15.3	7.00e-07	0	40	0	1127219200	59	4944
2026-01-30 00:04:58.41	204.29	16.71	-44.3	-46.4	15.6	0.00e+00	0	40	0	1129316352	59	4792
2026-01-30 00:04:59.13	204.28	16.62	-44.3	-46.4	15.6	0.00e+00	0	40	0	1130364928	59	4799
2026-01-30 00:05:00.41	204.26	16.48	-44.3	-46.5	15.5	0.00e+00	0	40	0	1132462080	59	4823
2026-01-30 00:05:01.13	204.25	16.40	-44.1	-46.2	15.8	0.00e+00	0	40	0	1134559232	59	4689
2026-01-30 00:05:02.75	204.23	16.21	-44.3	-46.5	15.6	0.00e+00	0	40	0	1137704960	59	4822
2026-01-30 00:05:03.33	204.22	16.15	-44.3	-46.5	15.5	0.00e+00	0	40	0	1138753536	59	4864
2026-01-30 00:05:04.90	204.20	15.97	-44.4	-46.6	15.4	0.00e+00	0	40	0	1141899264	59	4901
2026-01-30 00:05:05.48	204.20	15.91	-44.4	-46.7	15.3	0.00e+00	0	40	0	1142947840	59	4936
2026-01-30 00:05:07.05	204.18	15.73	-44.2	-46.5	15.6	0.00e+00	0	40	0	1145044992	59	4817
2026-01-30 00:05:07.67	204.17	15.67	-44.2	-46.4	15.6	0.00e+00	0	40	0	1146093568	59	4800
2026-01-30 00:05:09.25	204.15	15.49	-44.3	-46.6	15.4	0.00e+00	0	40	0	1149239296	59	4903
2026-01-30 00:05:09.83	204.15	15.43	-44.3	-46.5	15.5	0.00e+00	0	40	0	1150287872	59	4853
2026-01-30 00:05:11.41	204.13	15.26	-44.6	-47.1	14.9	0.00e+00	0	40	0	1153433600	59	5186
2026-01-30 00:05:12.00	204.12	15.19	-44.5	-46.9	15.1	0.00e+00	0	40	0	1154482176	60	4808
2026-01-30 00:05:13.58	204.10	15.02	-44.6	-47.2	14.9	1.50e-06	0	40	0	1157627904	60	4933
2026-01-30 00:05:14.15	204.10	14.96	-44.5	-47.0	15.0	0.00e+00	0	40	0	1158676480	60	4842
2026-01-30 00:05:15.73	204.08	14.80	-44.6	-47.1	14.9	0.00e+00	0	40	0	1161822208	60	4881
2026-01-30 00:05:16.31	204.07	14.73	-44.7	-47.2	14.7	0.00e+00	0	40	0	1162870784	60	4982
2026-01-30 00:05:17.89	204.05	14.57	-44.7	-47.4	14.6	0.00e+00	0	40	0	1166016512	60	5069
2026-01-30 00:05:18.49	204.05	14.50	-44.7	-47.4	14.6	0.00e+00	0	40	0	1167065088	60	5051
2026-01-30 00:05:20.18	204.03	14.33	-44.5	-47.0	14.9	0.00e+00	0	40	0	1170210816	60	4849
2026-01-30 00:05:20.75	204.02	14.27	-44.6	-47.1	14.9	0.00e+00	0	40	0	1171259392	60	4911
2026-01-30 00:05:22.38	204.01	14.10	-44.5	-47.0	15.0	0.00e+00	0	40	0	1174405120	60	4832
2026-01-30 00:05:22.95	204.00	14.04	-44.5	-47.0	15.0	0.00e+00	0	40	0	1175453696	60	4828
2026-01-30 00:05:24.57	203.98	13.87	-44.7	-47.4	14.6	0.00e+00	0	40	0	1178599424	60	5060
2026-01-30 00:05:25.14	203.98	13.82	-44.7	-47.5	14.4	1.50e-06	0	40	0	1179648000	60	5142
2026-01-30 00:05:26.91	203.96	13.64	-44.4	-47.0	15.0	0.00e+00	0	40	0	1182793728	60	4837
2026-01-30 00:05:27.48	203.95	13.58	-44.4	-47.0	15.0	0.00e+00	0	40	0	1183842304	60	4842
2026-01-30 00:05:29.09	203.94	13.42	-44.3	-46.8	15.2	0.00e+00	0	40	0	1186988032	60	4751
2026-01-30 00:05:30.09	203.93	13.32	-44.3	-46.8	15.1	0.00e+00	0	40	0	1189085184	60	4757
2026-01-30 00:05:31.09	203.92	13.22	-44.4	-46.9	15.0	0.00e+00	0	40	0	1190133760	60	4801
2026-01-30 00:05:32.10	203.91	13.12	-44.2	-46.7	15.3	0.00e+00	0	40	0	1192230912	60	4659
2026-01-30 00:05:33.10	203.90	13.02	-44.2	-46.7	15.2	0.00e+00	0	40	0	1194328064	60	4699
2026-01-30 00:05:34.10	203.89	12.92	-44.2	-46.7	15.2	0.00e+00	0	40	0	1196425216	60	4662
2026-01-30 00:05:35.17	203.88	12.81	-44.1	-46.5	15.3	0.00e+00	0	40	0	1198522368	59	4868
2026-01-30 00:05:36.06	203.87	12.73	-44.1	-46.5	15.4	0.00e+00	0	40	0	1199570944	59	4857
2026-01-30 00:05:37.21	203.86	12.61	-44.0	-46.4	15.5	0.00e+00	0	40	0	1201668096	59	4799
2026-01-30 00:05:38.07	203.85	12.53	-44.0	-46.5	15.5	0.00e+00	0	40	0	1203765248	59	4815
2026-01-30 00:05:39.21	203.84	12.42	-44.0	-46.4	15.5	0.00e+00	0	40	0	1205862400	59	4813
2026-01-30 00:05:40.07	203.83	12.34	-44.0	-46.3	15.6	0.00e+00	0	40	0	1206910976	59	4750
2026-01-30 00:05:41.22	203.82	12.23	-44.2	-46.6	15.3	0.00e+00	0	40	0	1209008128	59	4914
2026-01-30 00:05:42.08	203.82	12.15	-43.9	-46.3	15.6	0.00e+00	0	40	0	1211105280	59	4741
2026-01-30 00:05:43.22	203.81	12.04	-44.0	-46.4	15.5	0.00e+00	0	40	0	1213202432	59	4796
2026-01-30 00:05:44.08	203.80	11.96	-44.1	-46.6	15.2	7.00e-07	0	40	0	1215299584	59	4921
2026-01-30 00:05:45.23	203.79	11.85	-44.0	-46.5	15.3	0.00e+00	0	40	0	1217396736	59	4854
2026-01-30 00:05:46.08	203.78	11.77	-44.0	-46.5	15.3	0.00e+00	0	40	0	1218445312	59	4864
2026-01-30 00:05:47.23	203.77	11.66	-44.3	-47.0	14.9	0.00e+00	0	40	0	1220542464	59	5133
2026-01-30 00:05:48.09	203.76	11.58	-44.3	-46.9	15.1	0.00e+00	0	40	0	1222639616	59	5047
2026-01-30 00:05:49.32	203.75	11.47	-44.2	-46.8	15.1	0.00e+00	0	40	0	1224736768	59	5005
2026-01-30 00:05:50.17	203.75	11.39	-44.1	-46.7	15.2	0.00e+00	0	40	0	1225785344	59	4940
2026-01-30 00:05:51.32	203.74	11.28	-44.0	-46.5	15.3	0.00e+00	0	40	0	1227882496	59	4862
2026-01-30 00:05:52.18	203.73	11.20	-44.1	-46.6	15.2	0.00e+00	0	40	0	1229979648	59	4908
2026-01-30 00:05:53.45	203.72	11.09	-44.1	-46.6	15.3	0.00e+00	0	40	0	1232076800	59	4888
2026-01-30 00:05:54.17	203.71	11.02	-44.2	-46.7	15.2	0.00e+00	0	40	0	1234173952	59	4973
2026-01-30 00:05:55.67	203.70	10.89	-44.2	-46.7	15.1	0.00e+00	0	40	0	1236271104	59	4955
2026-01-30 00:05:56.38	203.70	10.82	-44.1	-46.7	15.2	0.00e+00	0	40	0	1238368256	59	4942
2026-01-30 00:05:57.67	203.69	10.70	-44.2	-46.8	15.0	0.00e+00	0	40	0	1240465408	59	5016
2026-01-30 00:05:58.39	203.68	10.64	-44.1	-46.7	15.1	0.00e+00	0	40	0	1241513984	59	4961
2026-01-30 00:05:59.81	203.67	10.51	-44.2	-46.8	15.1	0.00e+00	0	40	0	1244659712	59	4989
2026-01-30 00:06:00.52	203.66	10.45	-44.2	-46.8	15.0	0.00e+00	0	40	0	1245708288	59	4998
2026-01-30 00:06:01.81	203.65	10.34	-44.1	-46.6	15.2	0.00e+00	0	40	0	1247805440	59	4896
