passes_logs/2026/01/29/T1/T1__20260129_015351_SUOMI_NPP_rec.log

#Pass ID: 20260129_015351_SUOMI NPP
#Satellite: SUOMI NPP
#Configuration: NPP
#almurnet v.1.7.20251203
#Start time: 2026-01-29 01:53:53

#Version: 2.0.20230620
#Station: T1
#Location: 37.570604 lon 55.790049 lat
#TLE: 1 37849U 11061A   26027.86188320  .00000172  00000+0  10275-3 0  9990
#TLE: 2 37849  98.7823 329.8005 0002088  41.4184 318.7150 14.19530883738530

#Time	Az	El	Level	Level2	SNR	BER	BlckErr	Temp	State	Recorded	gain1	gain2
2026-01-29 01:53:53.47	3.87	5.09	-50.0	-65.2	3.8	1.49e+00	0	41	0	0	70	22180
2026-01-29 01:53:54.46	3.77	5.14	-50.0	-65.2	3.8	1.49e+00	0	41	104	0	72	19704
2026-01-29 01:53:55.45	3.67	5.19	-50.1	-65.2	3.8	1.49e+00	0	41	104	0	72	19697
2026-01-29 01:53:56.44	3.58	5.25	-50.1	-65.2	3.8	1.49e+00	0	41	104	0	72	19785
2026-01-29 01:53:57.44	3.47	5.30	-50.1	-65.3	3.8	1.49e+00	0	41	104	0	71	21079
2026-01-29 01:53:58.43	3.38	5.35	-50.1	-65.3	3.8	1.49e+00	0	41	104	0	71	21164
2026-01-29 01:53:59.42	3.27	5.41	-50.0	-65.3	3.8	1.49e+00	0	41	104	0	71	21084
2026-01-29 01:54:00.42	3.17	5.46	-49.9	-65.3	3.8	1.49e+00	0	41	104	0	71	21109
2026-01-29 01:54:01.41	3.07	5.52	-49.9	-65.2	3.8	1.49e+00	0	41	104	0	71	20961
2026-01-29 01:54:02.40	2.97	5.57	-50.0	-65.2	3.8	1.49e+00	0	41	104	0	71	20993
2026-01-29 01:54:03.40	2.87	5.62	-50.0	-65.2	3.8	1.49e+00	0	41	104	0	71	21005
2026-01-29 01:54:04.39	2.77	5.68	-49.5	-65.2	3.8	1.49e+00	0	41	104	0	71	20948
2026-01-29 01:54:05.38	2.66	5.73	-49.7	-65.2	3.8	1.49e+00	0	41	104	0	70	22209
2026-01-29 01:54:06.37	2.56	5.78	-49.9	-65.2	3.8	1.49e+00	0	42	104	0	70	22185
2026-01-29 01:54:07.37	2.46	5.84	-49.5	-65.2	3.8	1.49e+00	0	41	104	0	70	22123
2026-01-29 01:54:08.36	2.35	5.89	-49.8	-65.2	3.8	1.49e+00	0	42	104	0	70	22062
2026-01-29 01:54:09.35	2.25	5.95	-49.7	-65.2	3.8	1.49e+00	0	41	104	0	70	22026
2026-01-29 01:54:10.35	2.14	6.00	-49.8	-65.1	3.8	1.49e+00	0	42	104	0	70	21940
2026-01-29 01:54:11.34	2.04	6.05	-49.6	-65.1	3.8	1.49e+00	0	42	104	0	70	21927
2026-01-29 01:54:12.33	1.93	6.11	-49.0	-65.0	3.8	1.49e+00	0	42	104	0	69	22998
2026-01-29 01:54:13.33	1.83	6.16	-49.6	-65.0	3.8	1.49e+00	0	42	104	0	69	22915
2026-01-29 01:54:14.32	1.72	6.22	-48.9	-64.9	3.8	1.49e+00	0	42	104	0	69	22772
2026-01-29 01:54:15.31	1.61	6.27	-48.9	-64.9	3.8	1.49e+00	0	42	104	0	69	22548
2026-01-29 01:54:16.31	1.50	6.32	-47.6	-64.6	3.8	1.49e+00	0	42	104	0	67	24618
2026-01-29 01:54:17.30	1.40	6.38	-46.8	-64.5	3.8	1.49e+00	0	42	104	0	64	28729
2026-01-29 01:54:18.29	1.29	6.43	-45.4	-64.5	3.8	1.49e+00	0	42	104	0	62	32537
2026-01-29 01:54:19.29	1.18	6.49	-45.4	-64.5	3.8	1.49e+00	0	42	104	0	62	32463
2026-01-29 01:54:20.28	1.07	6.54	-45.5	-64.6	3.8	1.49e+00	0	42	104	0	62	32589
2026-01-29 01:54:21.27	0.96	6.59	-45.4	-64.5	3.8	1.49e+00	0	42	104	0	62	32544
2026-01-29 01:54:22.27	0.85	6.65	-45.5	-64.6	3.8	1.49e+00	0	42	104	0	62	32655
2026-01-29 01:54:23.26	0.74	6.70	-45.5	-64.5	3.8	1.49e+00	0	42	104	0	62	32523
2026-01-29 01:54:24.25	0.63	6.76	-45.5	-64.5	3.8	1.49e+00	0	42	104	0	62	32504
2026-01-29 01:54:25.24	0.52	6.81	-45.5	-64.5	3.8	1.49e+00	0	42	104	0	62	32488
2026-01-29 01:54:26.24	0.41	6.87	-45.4	-64.6	3.8	1.49e+00	0	42	104	0	62	32652
2026-01-29 01:54:27.23	0.30	6.92	-45.4	-64.5	3.8	1.49e+00	0	42	104	0	62	32439
2026-01-29 01:54:28.22	0.19	6.97	-45.4	-64.5	3.8	1.49e+00	0	42	104	0	62	32508
2026-01-29 01:54:29.21	0.07	7.03	-45.4	-64.5	3.8	1.49e+00	0	42	104	0	62	32527
2026-01-29 01:54:30.21	359.96	7.08	-45.4	-64.5	3.8	1.49e+00	0	42	104	0	62	32384
2026-01-29 01:54:31.20	359.85	7.14	-45.5	-64.5	3.8	1.49e+00	0	42	104	0	62	32386
2026-01-29 01:54:32.19	359.73	7.19	-45.4	-64.5	3.8	1.49e+00	0	42	104	0	62	32365
2026-01-29 01:54:33.19	359.62	7.24	-45.4	-64.5	3.8	1.49e+00	0	42	104	0	62	32516
2026-01-29 01:54:34.18	359.50	7.30	-45.5	-64.5	3.8	1.49e+00	0	42	104	0	62	32395
2026-01-29 01:54:35.17	359.39	7.35	-45.4	-64.5	3.8	1.49e+00	0	42	104	0	62	32392
2026-01-29 01:54:36.16	359.27	7.41	-45.4	-64.5	3.8	1.49e+00	0	42	104	0	62	32472
2026-01-29 01:54:37.16	359.15	7.46	-45.4	-64.5	3.8	1.49e+00	0	42	104	0	62	32348
2026-01-29 01:54:38.15	359.04	7.52	-45.5	-64.5	3.8	1.49e+00	0	42	104	0	62	32482
2026-01-29 01:54:39.14	358.92	7.57	-45.5	-64.5	3.8	1.49e+00	0	42	104	0	62	32393
2026-01-29 01:54:40.14	358.80	7.62	-45.4	-64.5	3.8	1.49e+00	0	42	104	0	62	32533
2026-01-29 01:54:41.13	358.68	7.68	-45.4	-64.6	3.8	1.49e+00	0	42	104	0	62	32564
2026-01-29 01:54:42.13	358.57	7.73	-45.4	-64.5	3.8	1.49e+00	0	42	104	0	62	32400
2026-01-29 01:54:43.12	358.45	7.79	-45.4	-64.5	3.8	1.49e+00	0	42	104	0	62	32455
2026-01-29 01:54:44.11	358.33	7.84	-45.4	-64.5	3.8	1.49e+00	0	42	104	0	62	32214
2026-01-29 01:54:45.10	358.21	7.89	-45.4	-64.4	3.8	1.49e+00	0	42	104	0	62	32128
2026-01-29 01:54:46.10	358.09	7.95	-45.4	-64.5	3.8	1.49e+00	0	43	104	0	62	32282
2026-01-29 01:54:47.09	357.97	8.00	-45.4	-64.5	3.8	1.49e+00	0	43	104	0	62	32383
2026-01-29 01:54:48.08	357.85	8.06	-45.4	-64.5	3.8	1.49e+00	0	43	104	0	62	32550
2026-01-29 01:54:49.08	357.72	8.11	-45.4	-64.6	3.8	1.49e+00	0	43	104	0	62	32590
2026-01-29 01:54:50.07	357.60	8.17	-45.4	-64.5	3.8	1.49e+00	0	43	104	0	62	32233
2026-01-29 01:54:51.06	357.48	8.22	-45.5	-64.2	3.8	1.49e+00	0	43	104	0	62	31423
2026-01-29 01:54:52.05	357.36	8.27	-45.4	-63.9	3.8	1.49e+00	0	43	104	0	62	30286
2026-01-29 01:54:53.05	357.23	8.33	-45.4	-63.6	3.8	1.49e+00	0	42	104	0	62	29267
2026-01-29 01:54:54.04	357.11	8.38	-45.4	-63.3	3.8	1.49e+00	0	43	104	0	62	28109
2026-01-29 01:54:55.04	356.98	8.44	-45.4	-62.8	3.8	1.49e+00	0	43	104	0	62	26746
2026-01-29 01:54:56.03	356.86	8.49	-45.4	-62.6	3.9	1.49e+00	0	43	104	0	62	25977
2026-01-29 01:54:57.02	356.73	8.54	-45.4	-62.1	3.8	1.48e+00	0	43	104	0	62	24591
2026-01-29 01:54:58.02	356.61	8.60	-45.4	-61.4	4.1	1.48e+00	0	43	0	0	62	22699
2026-01-29 01:54:59.01	356.48	8.65	-45.3	-60.5	4.3	1.45e+00	0	43	0	0	62	20377
2026-01-29 01:55:00.00	356.35	8.71	-45.3	-59.3	4.9	9.38e-01	0	43	0	1048576	62	17746
2026-01-29 01:55:01.00	356.22	8.76	-45.2	-58.0	5.5	5.64e-01	0	43	0	3145728	62	15372
2026-01-29 01:55:01.99	356.10	8.82	-45.0	-56.4	6.8	3.01e-01	0	43	0	5242880	62	12665
2026-01-29 01:55:02.98	355.97	8.87	-44.8	-54.8	8.2	7.72e-02	0	43	0	7340032	61	11261
2026-01-29 01:55:03.97	355.84	8.92	-44.6	-53.7	9.5	2.35e-02	0	43	0	9437184	61	9882
2026-01-29 01:55:04.97	355.71	8.98	-44.5	-52.8	10.3	9.97e-03	0	43	0	10485760	60	9496
2026-01-29 01:55:05.96	355.58	9.03	-44.2	-52.1	11.1	2.82e-03	0	43	0	12582912	60	8741
2026-01-29 01:55:06.96	355.45	9.09	-44.6	-52.4	10.7	2.35e-03	0	43	0	14680064	60	9020
2026-01-29 01:55:07.95	355.32	9.14	-45.3	-54.3	8.9	7.72e-03	0	43	0	16777216	61	10628
2026-01-29 01:55:08.94	355.19	9.19	-44.3	-52.2	11.0	4.15e-03	0	43	0	17825792	60	8848
2026-01-29 01:55:09.94	355.05	9.25	-46.7	-61.9	3.8	2.29e-02	0	43	104	19922944	64	21278
2026-01-29 01:55:10.94	354.92	9.30	-42.6	-48.3	14.8	7.74e-03	0	43	0	19922944	57	6656
2026-01-29 01:55:11.93	354.79	9.35	-42.7	-48.2	14.9	7.00e-07	0	43	0	22020096	57	6611
2026-01-29 01:55:12.93	354.65	9.41	-42.6	-48.2	14.9	0.00e+00	0	43	0	24117248	57	6609
2026-01-29 01:55:13.92	354.52	9.46	-42.8	-48.4	14.7	0.00e+00	0	43	0	26214400	57	6786
2026-01-29 01:55:14.92	354.39	9.52	-42.9	-48.5	14.7	0.00e+00	0	43	0	27262976	57	6821
2026-01-29 01:55:15.91	354.25	9.57	-42.9	-48.4	14.7	1.50e-06	0	43	0	29360128	57	6760
2026-01-29 01:55:16.91	354.11	9.62	-42.9	-48.3	14.8	7.00e-07	0	43	0	31457280	57	6720
2026-01-29 01:55:17.90	353.98	9.68	-43.0	-48.3	14.8	0.00e+00	0	43	0	33554432	57	6689
2026-01-29 01:55:18.90	353.84	9.73	-42.8	-48.0	15.2	0.00e+00	0	43	0	34603008	57	6426
2026-01-29 01:55:19.89	353.70	9.78	-42.8	-47.6	15.5	0.00e+00	0	43	0	36700160	57	6144
2026-01-29 01:55:20.89	353.57	9.84	-42.9	-47.7	15.3	0.00e+00	0	43	0	38797312	57	6272
2026-01-29 01:55:21.88	353.43	9.89	-43.0	-47.7	15.5	0.00e+00	0	43	0	40894464	57	6226
2026-01-29 01:55:22.88	353.29	9.94	-43.4	-48.1	15.1	0.00e+00	0	43	0	42991616	57	6520
2026-01-29 01:55:23.87	353.15	10.00	-43.5	-48.2	15.0	0.00e+00	0	43	0	44040192	57	6596
2026-01-29 01:55:24.93	353.00	10.05	-43.6	-48.2	15.0	0.00e+00	0	43	0	46137344	57	6580
2026-01-29 01:55:25.82	352.88	10.10	-43.6	-48.2	15.0	0.00e+00	0	43	0	48234496	57	6592
2026-01-29 01:55:26.95	352.72	10.16	-43.6	-48.0	15.2	0.00e+00	0	43	0	50331648	58	6124
2026-01-29 01:55:27.81	352.59	10.21	-43.7	-48.2	14.9	0.00e+00	0	43	0	51380224	58	6260
2026-01-29 01:55:28.94	352.43	10.27	-43.6	-48.2	15.0	0.00e+00	0	43	0	53477376	58	6234
2026-01-29 01:55:29.80	352.31	10.31	-43.4	-48.0	15.2	0.00e+00	0	43	0	55574528	58	6129
2026-01-29 01:55:30.93	352.15	10.37	-43.2	-47.8	15.4	0.00e+00	0	43	0	57671680	58	5978
2026-01-29 01:55:31.78	352.02	10.42	-43.1	-47.8	15.4	0.00e+00	0	43	0	59768832	58	5977
2026-01-29 01:55:32.92	351.86	10.48	-43.0	-48.1	15.0	0.00e+00	0	43	0	61865984	57	6558
2026-01-29 01:55:33.77	351.74	10.53	-42.9	-48.0	15.3	0.00e+00	0	43	0	62914560	57	6430
2026-01-29 01:55:34.91	351.57	10.59	-42.9	-48.2	15.0	0.00e+00	0	43	0	65011712	57	6591
2026-01-29 01:55:35.76	351.44	10.63	-42.8	-48.2	14.9	0.00e+00	0	43	0	67108864	57	6643
2026-01-29 01:55:37.01	351.26	10.70	-42.9	-48.5	14.7	0.00e+00	0	43	0	69206016	57	6845
2026-01-29 01:55:37.86	351.14	10.74	-42.8	-48.2	14.9	0.00e+00	0	43	0	70254592	57	6614
2026-01-29 01:55:39.00	350.97	10.80	-43.1	-48.5	14.7	0.00e+00	0	43	0	72351744	57	6840
2026-01-29 01:55:39.85	350.84	10.85	-42.9	-48.0	15.2	0.00e+00	0	43	0	74448896	57	6456
2026-01-29 01:55:40.99	350.67	10.91	-43.3	-48.4	14.9	0.00e+00	0	43	0	76546048	57	6729
2026-01-29 01:55:41.84	350.54	10.95	-43.3	-48.3	15.0	0.00e+00	0	43	0	78643200	57	6691
2026-01-29 01:55:42.98	350.37	11.01	-43.5	-48.2	14.9	0.00e+00	0	43	0	80740352	57	6596
2026-01-29 01:55:43.83	350.24	11.06	-43.8	-48.4	14.8	0.00e+00	0	43	0	81788928	58	6377
2026-01-29 01:55:44.97	350.07	11.12	-43.9	-48.4	14.9	0.00e+00	0	43	0	83886080	58	6358
2026-01-29 01:55:45.82	349.94	11.16	-44.1	-48.9	14.3	1.50e-06	0	43	0	85983232	58	6774
2026-01-29 01:55:46.95	349.77	11.22	-44.3	-49.1	14.1	2.20e-06	0	43	0	88080384	59	6560
2026-01-29 01:55:47.81	349.64	11.26	-44.2	-49.2	14.1	3.80e-06	0	43	0	89128960	59	6582
2026-01-29 01:55:48.94	349.46	11.32	-44.2	-49.1	14.1	7.00e-07	0	43	0	91226112	59	6555
2026-01-29 01:55:49.80	349.33	11.37	-44.0	-48.8	14.4	7.00e-07	0	43	0	93323264	59	6287
2026-01-29 01:55:50.94	349.16	11.43	-43.8	-48.5	14.7	0.00e+00	0	43	0	95420416	59	6074
2026-01-29 01:55:51.79	349.02	11.47	-43.6	-48.0	15.1	0.00e+00	0	43	0	96468992	59	5730
2026-01-29 01:55:52.93	348.85	11.53	-43.6	-47.9	15.4	0.00e+00	0	43	0	98566144	58	6008
2026-01-29 01:55:53.78	348.71	11.57	-43.6	-48.0	15.3	0.00e+00	0	43	0	100663296	58	6084
2026-01-29 01:55:54.92	348.53	11.63	-43.6	-47.9	15.4	0.00e+00	0	43	0	102760448	58	6053
2026-01-29 01:55:55.77	348.40	11.67	-43.6	-48.2	15.0	7.00e-07	0	43	0	103809024	58	6242
2026-01-29 01:55:57.15	348.18	11.74	-43.4	-47.7	15.5	0.00e+00	0	43	0	106954752	58	5914
2026-01-29 01:55:57.86	348.07	11.78	-43.4	-47.8	15.5	0.00e+00	0	43	0	108003328	58	5952
2026-01-29 01:55:59.14	347.87	11.85	-43.5	-47.8	15.5	0.00e+00	0	43	0	110100480	58	5982
2026-01-29 01:55:59.85	347.75	11.88	-43.2	-47.3	15.9	0.00e+00	0	43	0	112197632	58	5631
2026-01-29 01:56:01.13	347.55	11.95	-43.2	-47.2	16.0	0.00e+00	0	43	0	114294784	58	5569
2026-01-29 01:56:01.84	347.43	11.98	-43.3	-47.3	16.0	0.00e+00	0	43	0	115343360	58	5594
2026-01-29 01:56:03.12	347.23	12.05	-43.3	-47.0	16.2	0.00e+00	0	43	0	118489088	58	5432
2026-01-29 01:56:03.99	347.08	12.09	-43.1	-46.8	16.5	0.00e+00	0	43	0	119537664	58	5284
2026-01-29 01:56:05.12	346.90	12.15	-43.4	-47.0	16.2	0.00e+00	0	43	0	121634816	58	5459
2026-01-29 01:56:05.98	346.76	12.19	-43.6	-47.2	16.1	0.00e+00	0	44	0	123731968	58	5554
2026-01-29 01:56:07.11	346.58	12.25	-43.5	-47.0	16.3	0.00e+00	0	43	0	125829120	58	5460
2026-01-29 01:56:08.22	346.39	12.30	-43.6	-47.1	16.2	0.00e+00	0	43	0	127926272	58	5480
2026-01-29 01:56:09.24	346.22	12.35	-43.5	-47.0	16.3	0.00e+00	0	43	0	130023424	58	5430
2026-01-29 01:56:10.24	346.06	12.40	-43.4	-46.8	16.3	0.00e+00	0	43	0	131072000	58	5337
2026-01-29 01:56:11.23	345.89	12.45	-43.1	-46.4	16.8	0.00e+00	0	43	0	133169152	58	5072
2026-01-29 01:56:12.23	345.73	12.50	-42.8	-45.9	17.2	0.00e+00	0	43	0	135266304	57	5099
2026-01-29 01:56:13.22	345.56	12.55	-42.9	-46.1	17.0	0.00e+00	0	43	0	137363456	57	5165
2026-01-29 01:56:14.22	345.39	12.60	-42.8	-45.9	17.1	0.00e+00	0	43	0	138412032	57	5100
2026-01-29 01:56:15.21	345.23	12.65	-42.9	-46.1	17.1	0.00e+00	0	43	0	140509184	57	5175
2026-01-29 01:56:16.21	345.06	12.69	-43.1	-46.4	16.9	0.00e+00	0	43	0	142606336	57	5354
2026-01-29 01:56:17.20	344.89	12.74	-43.2	-46.5	16.7	0.00e+00	0	43	0	144703488	57	5460
2026-01-29 01:56:18.20	344.72	12.79	-43.2	-46.7	16.5	0.00e+00	0	43	0	146800640	57	5532
2026-01-29 01:56:19.19	344.55	12.84	-43.2	-46.6	16.7	0.00e+00	0	43	0	147849216	57	5473
2026-01-29 01:56:20.25	344.37	12.89	-43.3	-46.7	16.5	0.00e+00	0	43	0	149946368	57	5572
2026-01-29 01:56:21.13	344.22	12.93	-42.9	-46.1	17.1	0.00e+00	0	43	0	152043520	57	5209
2026-01-29 01:56:22.27	344.02	12.99	-42.8	-45.9	17.3	0.00e+00	0	43	0	154140672	57	5092
2026-01-29 01:56:23.13	343.87	13.03	-42.7	-45.8	17.5	0.00e+00	0	43	0	155189248	57	5001
2026-01-29 01:56:24.26	343.68	13.08	-42.5	-45.5	17.7	0.00e+00	0	43	0	157286400	56	5158
2026-01-29 01:56:25.11	343.53	13.12	-42.6	-45.7	17.5	0.00e+00	0	43	0	159383552	56	5270
2026-01-29 01:56:26.25	343.33	13.17	-42.5	-45.6	17.7	0.00e+00	0	43	0	161480704	56	5178
2026-01-29 01:56:27.10	343.18	13.21	-42.8	-46.0	17.2	0.00e+00	0	43	0	162529280	56	5429
2026-01-29 01:56:28.24	342.98	13.27	-42.7	-46.0	17.2	0.00e+00	0	43	0	165675008	56	5418
2026-01-29 01:56:29.10	342.83	13.31	-42.7	-45.9	17.3	0.00e+00	0	43	0	166723584	56	5363
2026-01-29 01:56:30.23	342.63	13.36	-42.8	-46.0	17.3	0.00e+00	0	43	0	168820736	56	5413
2026-01-29 01:56:31.09	342.48	13.40	-42.8	-45.9	17.3	0.00e+00	0	43	0	170917888	56	5394
2026-01-29 01:56:32.23	342.27	13.45	-42.6	-45.7	17.5	0.00e+00	0	43	0	173015040	56	5238
2026-01-29 01:56:33.08	342.12	13.49	-42.7	-45.9	17.3	0.00e+00	0	43	0	174063616	56	5376
2026-01-29 01:56:34.31	341.90	13.55	-42.7	-46.0	17.2	0.00e+00	0	43	0	176160768	56	5459
2026-01-29 01:56:35.16	341.75	13.58	-42.9	-46.4	16.8	0.00e+00	0	44	0	178257920	56	5715
2026-01-29 01:56:36.30	341.54	13.64	-42.9	-46.7	16.6	0.00e+00	0	43	0	180355072	56	5862
2026-01-29 01:56:37.15	341.39	13.67	-43.1	-46.8	16.4	0.00e+00	0	43	0	181403648	56	5979
2026-01-29 01:56:38.29	341.18	13.73	-43.4	-47.1	16.2	0.00e+00	0	43	0	183500800	57	5803
2026-01-29 01:56:39.14	341.03	13.76	-43.4	-46.9	16.4	0.00e+00	0	43	0	185597952	57	5712
2026-01-29 01:56:40.48	340.78	13.82	-42.9	-46.0	17.1	0.00e+00	0	44	0	187695104	57	5154
2026-01-29 01:56:41.20	340.65	13.85	-42.7	-45.6	17.6	0.00e+00	0	43	0	189792256	57	4901
2026-01-29 01:56:42.47	340.42	13.91	-42.4	-45.1	18.0	0.00e+00	0	43	0	191889408	56	4906
2026-01-29 01:56:43.18	340.29	13.94	-42.3	-45.0	18.2	0.00e+00	0	43	0	192937984	56	4831
2026-01-29 01:56:44.75	340.00	14.01	-42.2	-44.9	18.3	0.00e+00	0	43	0	196083712	56	4776
2026-01-29 01:56:45.39	339.88	14.04	-42.1	-44.8	18.3	0.00e+00	0	43	0	197132288	56	4748
2026-01-29 01:56:46.82	339.61	14.10	-42.0	-44.9	18.1	0.00e+00	0	44	0	200278016	55	5090
2026-01-29 01:56:47.53	339.48	14.13	-41.8	-44.8	18.3	0.00e+00	0	43	0	201326592	55	5013
2026-01-29 01:56:48.80	339.24	14.18	-41.9	-44.9	18.2	0.00e+00	0	43	0	203423744	55	5046
2026-01-29 01:56:49.51	339.11	14.21	-41.9	-44.9	18.1	0.00e+00	0	43	0	205520896	55	5080
2026-01-29 01:56:50.80	338.87	14.27	-41.8	-44.6	18.4	0.00e+00	0	43	0	207618048	55	4925
2026-01-29 01:56:51.52	338.73	14.30	-41.9	-44.7	18.3	0.00e+00	0	43	0	208666624	55	4943
2026-01-29 01:56:52.80	338.49	14.35	-42.1	-44.8	18.2	0.00e+00	0	43	0	210763776	55	5023
2026-01-29 01:56:53.51	338.35	14.38	-42.2	-45.0	18.1	0.00e+00	0	43	0	212860928	55	5117
2026-01-29 01:56:54.80	338.11	14.43	-42.5	-45.4	17.6	0.00e+00	0	43	0	214958080	55	5401
2026-01-29 01:56:55.51	337.97	14.46	-42.9	-45.9	17.5	0.00e+00	0	43	0	216006656	56	5370
2026-01-29 01:56:56.80	337.72	14.51	-43.1	-46.2	17.1	0.00e+00	0	43	0	219152384	57	5257
2026-01-29 01:56:57.51	337.59	14.54	-43.1	-46.2	17.1	0.00e+00	0	43	0	220200960	57	5227
2026-01-29 01:56:58.79	337.34	14.59	-42.9	-45.8	17.4	0.00e+00	0	43	0	222298112	57	5027
2026-01-29 01:56:59.53	337.20	14.62	-42.7	-45.5	17.7	0.00e+00	0	44	0	223346688	57	4832
2026-01-29 01:57:00.81	336.95	14.67	-42.5	-45.1	18.0	0.00e+00	0	44	0	226492416	56	4915
2026-01-29 01:57:01.52	336.81	14.70	-42.4	-45.0	18.2	0.00e+00	0	44	0	227540992	56	4852
2026-01-29 01:57:02.80	336.56	14.75	-42.6	-45.2	18.1	0.00e+00	0	43	0	229638144	56	4954
2026-01-29 01:57:03.51	336.42	14.78	-42.6	-45.3	17.8	0.00e+00	0	43	0	231735296	56	5008
2026-01-29 01:57:04.79	336.17	14.83	-43.1	-46.0	17.3	0.00e+00	0	43	0	233832448	56	5412
2026-01-29 01:57:05.50	336.03	14.86	-43.1	-46.1	17.1	0.00e+00	0	43	0	234881024	56	5507
2026-01-29 01:57:06.78	335.78	14.90	-43.2	-46.2	17.1	0.00e+00	0	44	0	236978176	57	5267
2026-01-29 01:57:07.49	335.64	14.93	-43.2	-46.2	17.1	0.00e+00	0	43	0	239075328	57	5258
2026-01-29 01:57:08.77	335.39	14.98	-43.0	-45.9	17.4	0.00e+00	0	43	0	241172480	57	5077
2026-01-29 01:57:09.48	335.25	15.00	-42.7	-45.5	17.8	0.00e+00	0	43	0	242221056	57	4863
2026-01-29 01:57:10.76	334.99	15.05	-42.7	-45.4	17.8	0.00e+00	0	43	0	245366784	57	4808
2026-01-29 01:57:11.49	334.85	15.08	-42.6	-45.3	17.9	0.00e+00	0	43	0	246415360	57	4730
2026-01-29 01:57:12.77	334.59	15.12	-42.5	-45.2	18.0	0.00e+00	0	43	0	248512512	56	4964
2026-01-29 01:57:13.48	334.45	15.15	-42.6	-45.3	17.8	0.00e+00	0	43	0	249561088	56	4996
2026-01-29 01:57:14.76	334.19	15.20	-42.7	-45.4	17.8	0.00e+00	0	43	0	252706816	56	5069
2026-01-29 01:57:15.61	334.02	15.23	-42.6	-45.3	17.9	0.00e+00	0	43	0	253755392	56	5024
2026-01-29 01:57:16.75	333.79	15.27	-42.6	-45.3	17.9	0.00e+00	0	43	0	255852544	56	5020
2026-01-29 01:57:17.79	333.58	15.30	-42.8	-45.6	17.7	0.00e+00	0	43	0	257949696	56	5161
2026-01-29 01:57:18.92	333.35	15.34	-42.6	-45.3	17.9	0.00e+00	0	43	0	260046848	56	5008
2026-01-29 01:57:19.81	333.17	15.37	-42.5	-45.2	18.0	0.00e+00	0	44	0	262144000	56	4960
2026-01-29 01:57:21.10	332.91	15.41	-42.4	-45.1	18.1	0.00e+00	0	43	0	264241152	56	4900
2026-01-29 01:57:21.81	332.76	15.44	-42.7	-45.5	17.8	0.00e+00	0	43	0	265289728	56	5101
2026-01-29 01:57:23.28	332.46	15.49	-42.6	-45.4	17.8	0.00e+00	0	43	0	268435456	56	5054
2026-01-29 01:57:23.99	332.32	15.51	-42.8	-45.5	17.7	0.00e+00	0	43	0	269484032	56	5159
2026-01-29 01:57:25.27	332.05	15.55	-42.7	-45.5	17.7	0.00e+00	0	44	0	272629760	56	5132
2026-01-29 01:57:25.98	331.91	15.57	-42.7	-45.5	17.8	0.00e+00	0	43	0	273678336	56	5113
2026-01-29 01:57:27.26	331.64	15.61	-42.5	-45.2	18.0	0.00e+00	0	43	0	275775488	56	4971
2026-01-29 01:57:27.99	331.49	15.64	-42.3	-44.9	18.2	0.00e+00	0	43	0	276824064	56	4787
2026-01-29 01:57:29.26	331.23	15.68	-42.1	-44.7	18.6	0.00e+00	0	43	0	279969792	56	4656
2026-01-29 01:57:29.97	331.08	15.70	-42.1	-44.7	18.6	0.00e+00	0	43	0	281018368	56	4655
2026-01-29 01:57:31.25	330.82	15.74	-41.6	-44.1	18.8	0.00e+00	0	44	0	283115520	55	4619
2026-01-29 01:57:31.98	330.66	15.76	-41.7	-44.2	18.9	0.00e+00	0	43	0	285212672	55	4652
2026-01-29 01:57:33.26	330.40	15.80	-41.8	-44.3	18.7	0.00e+00	0	44	0	287309824	55	4723
2026-01-29 01:57:34.06	330.23	15.82	-41.8	-44.2	18.8	0.00e+00	0	43	0	288358400	55	4687
2026-01-29 01:57:35.50	329.93	15.86	-41.9	-44.4	18.8	0.00e+00	0	44	0	291504128	55	4770
2026-01-29 01:57:36.21	329.78	15.88	-41.9	-44.3	18.7	0.00e+00	0	43	0	292552704	55	4753
2026-01-29 01:57:37.49	329.51	15.92	-41.9	-44.4	18.7	0.00e+00	0	43	0	294649856	55	4768
2026-01-29 01:57:38.20	329.36	15.94	-42.0	-44.5	18.6	0.00e+00	0	44	0	296747008	55	4833
2026-01-29 01:57:39.48	329.08	15.97	-42.1	-44.5	18.6	0.00e+00	0	43	0	298844160	55	4862
2026-01-29 01:57:40.21	328.93	15.99	-41.9	-44.3	18.7	0.00e+00	0	43	0	299892736	55	4759
2026-01-29 01:57:41.83	328.59	16.03	-42.2	-44.8	18.3	0.00e+00	0	43	0	303038464	55	5001
2026-01-29 01:57:42.40	328.46	16.05	-42.4	-45.1	18.0	0.00e+00	0	43	0	304087040	55	5165
2026-01-29 01:57:44.10	328.10	16.09	-42.4	-45.2	17.9	0.00e+00	0	44	0	307232768	55	5250
2026-01-29 01:57:44.67	327.98	16.11	-42.4	-45.3	17.8	0.00e+00	0	44	0	308281344	55	5283
2026-01-29 01:57:46.38	327.61	16.15	-42.3	-45.2	17.9	0.00e+00	0	43	0	311427072	55	5275
2026-01-29 01:57:46.94	327.49	16.16	-42.2	-45.2	18.0	0.00e+00	0	44	0	312475648	55	5233
2026-01-29 01:57:48.64	327.13	16.20	-42.0	-44.9	18.3	0.00e+00	0	43	0	315621376	55	5043
2026-01-29 01:57:49.21	327.00	16.22	-42.1	-45.0	18.0	0.00e+00	0	43	0	316669952	55	5101
2026-01-29 01:57:50.92	326.64	16.26	-42.1	-45.0	18.0	0.00e+00	0	43	0	319815680	55	5119
2026-01-29 01:57:51.49	326.51	16.27	-42.4	-45.3	17.9	0.00e+00	0	44	0	320864256	55	5312
2026-01-29 01:57:53.19	326.14	16.31	-42.4	-45.4	17.7	0.00e+00	0	43	0	324009984	55	5358
2026-01-29 01:57:54.01	325.97	16.33	-42.5	-45.5	17.6	0.00e+00	0	44	0	326107136	55	5452
2026-01-29 01:57:55.15	325.72	16.35	-42.8	-46.0	17.3	0.00e+00	0	43	0	328204288	56	5406
2026-01-29 01:57:56.00	325.53	16.37	-42.7	-45.7	17.5	0.00e+00	0	44	0	329252864	56	5267
2026-01-29 01:57:57.18	325.28	16.39	-42.8	-45.8	17.5	0.00e+00	0	44	0	331350016	56	5335
2026-01-29 01:57:58.03	325.09	16.41	-42.9	-45.8	17.4	0.00e+00	0	44	0	333447168	56	5338
2026-01-29 01:57:59.17	324.84	16.43	-43.1	-45.9	17.4	0.00e+00	0	43	0	335544320	56	5393
2026-01-29 01:58:00.03	324.65	16.45	-43.0	-45.7	17.5	0.00e+00	0	44	0	337641472	56	5268
2026-01-29 01:58:01.17	324.40	16.47	-42.9	-45.6	17.8	0.00e+00	0	44	0	339738624	56	5180
2026-01-29 01:58:02.02	324.22	16.48	-42.9	-45.5	17.8	0.00e+00	0	44	0	340787200	56	5150
2026-01-29 01:58:03.16	323.97	16.51	-42.9	-45.5	17.8	0.00e+00	0	43	0	342884352	56	5112
2026-01-29 01:58:04.02	323.78	16.52	-42.8	-45.4	17.9	0.00e+00	0	44	0	344981504	56	5080
2026-01-29 01:58:05.16	323.53	16.54	-43.0	-45.7	17.6	0.00e+00	0	43	0	347078656	56	5257
2026-01-29 01:58:06.01	323.34	16.55	-42.9	-45.6	17.7	0.00e+00	0	43	0	348127232	56	5210
2026-01-29 01:58:07.14	323.09	16.57	-42.9	-45.6	17.7	0.00e+00	0	44	0	350224384	56	5190
2026-01-29 01:58:08.00	322.90	16.59	-42.7	-45.5	17.8	0.00e+00	0	44	0	352321536	56	5126
2026-01-29 01:58:09.14	322.65	16.60	-42.6	-45.3	18.0	0.00e+00	0	44	0	354418688	56	5032
2026-01-29 01:58:09.99	322.46	16.62	-42.5	-45.2	18.1	0.00e+00	0	44	0	355467264	56	4956
2026-01-29 01:58:11.13	322.21	16.63	-42.3	-45.1	18.2	0.00e+00	0	43	0	358612992	56	4874
2026-01-29 01:58:11.98	322.02	16.65	-42.3	-45.0	18.2	0.00e+00	0	43	0	359661568	56	4866
2026-01-29 01:58:13.13	321.76	16.66	-42.2	-44.9	18.4	0.00e+00	0	43	0	361758720	56	4789
2026-01-29 01:58:13.98	321.57	16.67	-42.5	-45.2	18.1	0.00e+00	0	44	0	363855872	56	4965
2026-01-29 01:58:15.12	321.32	16.69	-42.8	-45.6	17.7	0.00e+00	0	44	0	365953024	56	5197
2026-01-29 01:58:15.98	321.13	16.70	-42.9	-45.8	17.5	0.00e+00	0	44	0	367001600	56	5339
2026-01-29 01:58:17.12	320.88	16.71	-43.0	-45.9	17.4	0.00e+00	0	44	0	369098752	56	5361
2026-01-29 01:58:17.98	320.68	16.72	-43.1	-46.0	17.3	0.00e+00	0	44	0	371195904	56	5456
2026-01-29 01:58:19.12	320.43	16.74	-43.0	-46.0	17.3	0.00e+00	0	43	0	373293056	57	5123
2026-01-29 01:58:19.97	320.24	16.74	-43.2	-46.3	17.1	0.00e+00	0	44	0	374341632	57	5287
2026-01-29 01:58:21.11	319.99	16.76	-43.3	-46.4	16.9	0.00e+00	0	43	0	376438784	57	5353
2026-01-29 01:58:21.97	319.79	16.77	-43.2	-46.2	17.0	0.00e+00	0	43	0	378535936	57	5279
2026-01-29 01:58:23.11	319.54	16.78	-43.3	-46.4	17.0	0.00e+00	0	43	0	380633088	57	5365
2026-01-29 01:58:23.96	319.35	16.78	-43.4	-46.4	16.9	0.00e+00	0	44	0	381681664	57	5362
2026-01-29 01:58:25.10	319.09	16.79	-43.8	-46.9	16.4	0.00e+00	0	43	0	383778816	58	5390
2026-01-29 01:58:25.96	318.90	16.80	-43.7	-46.8	16.5	0.00e+00	0	44	0	385875968	58	5326
2026-01-29 01:58:27.09	318.65	16.81	-43.8	-47.0	16.4	0.00e+00	0	44	0	387973120	58	5404
2026-01-29 01:58:27.94	318.45	16.82	-43.8	-47.0	16.3	0.00e+00	0	44	0	390070272	58	5459
2026-01-29 01:58:29.08	318.20	16.82	-43.7	-46.9	16.5	0.00e+00	0	43	0	392167424	58	5359
2026-01-29 01:58:29.93	318.01	16.83	-43.6	-46.8	16.5	0.00e+00	0	44	0	393216000	58	5328
2026-01-29 01:58:31.07	317.75	16.84	-43.2	-46.4	16.9	0.00e+00	0	44	0	395313152	58	5082
2026-01-29 01:58:31.93	317.56	16.84	-43.1	-46.3	17.0	0.00e+00	0	44	0	397410304	57	5280
2026-01-29 01:58:33.08	317.30	16.85	-42.8	-45.8	17.5	0.00e+00	0	44	0	399507456	57	5023
2026-01-29 01:58:33.93	317.11	16.85	-42.7	-45.7	17.6	0.00e+00	0	44	0	400556032	57	4938
2026-01-29 01:58:35.07	316.85	16.85	-42.6	-45.5	17.7	0.00e+00	0	44	0	402653184	57	4858
2026-01-29 01:58:35.92	316.66	16.86	-42.7	-45.6	17.7	0.00e+00	0	44	0	404750336	57	4880
2026-01-29 01:58:37.06	316.40	16.86	-42.9	-45.7	17.6	0.00e+00	0	44	0	406847488	57	4980
2026-01-29 01:58:37.92	316.21	16.86	-42.8	-45.6	17.7	0.00e+00	0	44	0	407896064	57	4902
2026-01-29 01:58:39.06	315.95	16.87	-42.8	-45.6	17.7	0.00e+00	0	43	0	409993216	57	4880
2026-01-29 01:58:39.91	315.76	16.87	-42.7	-45.4	17.8	0.00e+00	0	43	0	412090368	57	4794
2026-01-29 01:58:41.05	315.50	16.87	-42.7	-45.4	17.8	0.00e+00	0	44	0	414187520	57	4769
2026-01-29 01:58:41.91	315.31	16.87	-42.5	-45.2	18.0	0.00e+00	0	44	0	415236096	57	4675
2026-01-29 01:58:43.05	315.05	16.87	-42.5	-45.2	18.1	0.00e+00	0	44	0	418381824	56	4939
2026-01-29 01:58:43.90	314.86	16.87	-42.6	-45.2	18.0	0.00e+00	0	44	0	419430400	56	4975
2026-01-29 01:58:45.04	314.61	16.87	-42.6	-45.3	18.0	0.00e+00	0	43	0	421527552	56	5006
2026-01-29 01:58:45.89	314.41	16.87	-42.8	-45.5	17.8	0.00e+00	0	43	0	423624704	56	5132
2026-01-29 01:58:47.02	314.16	16.87	-43.0	-45.8	17.5	0.00e+00	0	44	0	425721856	56	5290
2026-01-29 01:58:47.88	313.97	16.87	-43.0	-45.8	17.5	0.00e+00	0	44	0	426770432	56	5329
2026-01-29 01:58:49.01	313.71	16.87	-43.0	-45.9	17.4	0.00e+00	0	44	0	428867584	56	5345
2026-01-29 01:58:49.87	313.52	16.86	-43.0	-45.9	17.4	0.00e+00	0	43	0	430964736	56	5355
2026-01-29 01:58:51.01	313.26	16.86	-43.0	-45.8	17.5	0.00e+00	0	44	0	433061888	56	5340
2026-01-29 01:58:51.87	313.07	16.86	-43.1	-46.0	17.3	0.00e+00	0	44	0	434110464	56	5452
2026-01-29 01:58:53.01	312.81	16.85	-43.0	-45.8	17.5	0.00e+00	0	43	0	436207616	56	5301
2026-01-29 01:58:53.87	312.62	16.85	-42.9	-45.7	17.6	0.00e+00	0	43	0	438304768	56	5279
2026-01-29 01:58:55.02	312.36	16.84	-42.8	-45.5	17.7	0.00e+00	0	43	0	440401920	56	5148
2026-01-29 01:58:55.88	312.16	16.84	-42.7	-45.4	17.9	0.00e+00	0	44	0	442499072	56	5056
2026-01-29 01:58:57.02	311.91	16.83	-42.7	-45.4	17.9	0.00e+00	0	44	0	443547648	56	5080
2026-01-29 01:58:57.87	311.72	16.83	-42.8	-45.5	17.8	0.00e+00	0	44	0	445644800	56	5107
2026-01-29 01:58:59.01	311.46	16.82	-42.9	-45.7	17.5	0.00e+00	0	43	0	447741952	56	5273
2026-01-29 01:58:59.87	311.27	16.81	-43.0	-45.9	17.4	0.00e+00	0	44	0	449839104	56	5350
2026-01-29 01:59:01.01	311.01	16.80	-43.2	-46.2	17.2	0.00e+00	0	44	0	451936256	57	5236
2026-01-29 01:59:01.86	310.82	16.80	-43.3	-46.3	17.0	0.00e+00	0	44	0	452984832	57	5306
2026-01-29 01:59:03.00	310.56	16.79	-43.3	-46.3	16.9	0.00e+00	0	44	0	455081984	57	5338
2026-01-29 01:59:03.85	310.37	16.78	-43.3	-46.2	17.0	0.00e+00	0	44	0	457179136	57	5278
2026-01-29 01:59:04.99	310.12	16.77	-43.5	-46.6	16.8	0.00e+00	0	44	0	459276288	57	5469
2026-01-29 01:59:05.85	309.93	16.76	-43.6	-46.7	16.6	0.00e+00	0	44	0	460324864	57	5534
2026-01-29 01:59:06.98	309.67	16.75	-43.7	-46.8	16.5	0.00e+00	0	44	0	462422016	58	5314
2026-01-29 01:59:07.84	309.48	16.74	-43.8	-46.9	16.5	0.00e+00	0	43	0	464519168	58	5368
2026-01-29 01:59:08.97	309.23	16.73	-43.8	-47.0	16.3	0.00e+00	0	44	0	466616320	58	5426
2026-01-29 01:59:09.83	309.04	16.72	-43.7	-46.9	16.4	0.00e+00	0	43	0	467664896	58	5375
2026-01-29 01:59:10.97	308.78	16.70	-43.7	-46.8	16.5	0.00e+00	0	43	0	469762048	58	5309
2026-01-29 01:59:11.82	308.59	16.69	-43.6	-46.7	16.6	0.00e+00	0	43	0	471859200	58	5275
2026-01-29 01:59:12.96	308.34	16.68	-43.5	-46.5	16.9	0.00e+00	0	44	0	473956352	58	5105
2026-01-29 01:59:13.81	308.15	16.67	-43.3	-46.3	17.1	0.00e+00	0	44	0	476053504	58	4989
2026-01-29 01:59:14.95	307.90	16.65	-43.4	-46.3	17.0	0.00e+00	0	43	0	478150656	58	5032
2026-01-29 01:59:15.81	307.71	16.64	-43.4	-46.3	17.0	0.00e+00	0	44	0	479199232	58	5015
2026-01-29 01:59:16.95	307.45	16.62	-43.3	-46.2	17.0	0.00e+00	0	44	0	481296384	58	4962
2026-01-29 01:59:17.80	307.26	16.61	-43.3	-46.1	17.2	0.00e+00	0	43	0	483393536	58	4920
2026-01-29 01:59:18.94	307.01	16.59	-43.1	-45.9	17.3	0.00e+00	0	44	0	485490688	58	4803
2026-01-29 01:59:19.80	306.82	16.58	-43.0	-45.7	17.5	0.00e+00	0	44	0	486539264	57	4977
2026-01-29 01:59:20.94	306.57	16.56	-43.0	-45.8	17.5	0.00e+00	0	44	0	488636416	57	4991
2026-01-29 01:59:21.79	306.38	16.55	-43.0	-45.8	17.5	0.00e+00	0	44	0	490733568	57	4986
2026-01-29 01:59:22.93	306.13	16.53	-43.0	-45.7	17.5	0.00e+00	0	44	0	492830720	57	4981
2026-01-29 01:59:23.79	305.94	16.51	-42.9	-45.6	17.6	0.00e+00	0	44	0	493879296	57	4910
2026-01-29 01:59:24.93	305.69	16.49	-42.9	-45.7	17.4	0.00e+00	0	43	0	495976448	57	4933
2026-01-29 01:59:25.79	305.50	16.48	-42.7	-45.4	17.9	0.00e+00	0	44	0	498073600	57	4768
2026-01-29 01:59:26.93	305.25	16.46	-42.6	-45.2	18.0	0.00e+00	0	44	0	500170752	57	4671
2026-01-29 01:59:27.79	305.06	16.44	-42.5	-44.8	18.4	0.00e+00	0	44	0	502267904	57	4493
2026-01-29 01:59:28.93	304.81	16.42	-42.3	-44.6	18.6	0.00e+00	0	44	0	504365056	56	4640
2026-01-29 01:59:29.78	304.63	16.40	-42.3	-44.6	18.6	0.00e+00	0	43	0	505413632	56	4632
2026-01-29 01:59:30.92	304.38	16.38	-42.4	-44.8	18.5	0.00e+00	0	44	0	507510784	56	4715
2026-01-29 01:59:31.78	304.19	16.36	-42.5	-44.9	18.4	0.00e+00	0	44	0	509607936	56	4778
2026-01-29 01:59:32.92	303.94	16.33	-42.4	-44.8	18.5	0.00e+00	0	44	0	511705088	56	4737
2026-01-29 01:59:33.77	303.76	16.32	-42.5	-44.9	18.3	0.00e+00	0	44	0	512753664	56	4799
2026-01-29 01:59:34.91	303.51	16.29	-42.7	-45.2	18.1	0.00e+00	0	44	0	514850816	56	4949
2026-01-29 01:59:35.77	303.32	16.27	-42.8	-45.3	18.0	0.00e+00	0	44	0	516947968	56	5032
2026-01-29 01:59:36.91	303.08	16.25	-42.8	-45.3	18.0	0.00e+00	0	44	0	519045120	56	5010
2026-01-29 01:59:37.77	302.89	16.23	-42.9	-45.5	17.9	0.00e+00	0	44	0	520093696	56	5109
2026-01-29 01:59:38.91	302.64	16.20	-43.1	-45.7	17.7	0.00e+00	0	43	0	522190848	56	5227
2026-01-29 01:59:39.76	302.46	16.18	-43.1	-45.6	17.7	0.00e+00	0	44	0	524288000	56	5212
2026-01-29 01:59:40.90	302.22	16.15	-43.3	-45.9	17.4	0.00e+00	0	44	0	526385152	57	5085
2026-01-29 01:59:41.76	302.03	16.13	-43.1	-45.7	17.6	0.00e+00	0	44	0	528482304	57	4959
2026-01-29 01:59:42.90	301.79	16.10	-43.2	-45.8	17.5	0.00e+00	0	43	0	530579456	57	5030
2026-01-29 01:59:43.75	301.61	16.08	-43.3	-45.9	17.4	0.00e+00	0	44	0	531628032	57	5076
2026-01-29 01:59:44.90	301.36	16.05	-43.3	-46.0	17.4	0.00e+00	0	44	0	533725184	57	5137
2026-01-29 01:59:45.75	301.18	16.03	-43.5	-46.2	17.2	0.00e+00	0	44	0	535822336	57	5234
2026-01-29 01:59:46.89	300.94	16.00	-43.2	-45.8	17.5	0.00e+00	0	43	0	537919488	57	5035
2026-01-29 01:59:47.74	300.75	15.98	-43.4	-46.0	17.3	0.00e+00	0	44	0	538968064	57	5152
2026-01-29 01:59:48.89	300.51	15.94	-43.1	-45.7	17.6	0.00e+00	0	44	0	541065216	57	4945
2026-01-29 01:59:49.74	300.33	15.92	-43.1	-45.7	17.6	0.00e+00	0	44	0	543162368	57	4965
2026-01-29 01:59:50.88	300.09	15.89	-42.9	-45.4	18.0	0.00e+00	0	44	0	545259520	57	4762
2026-01-29 01:59:51.74	299.91	15.86	-42.8	-45.3	18.0	0.00e+00	0	44	0	546308096	57	4722
2026-01-29 01:59:52.88	299.67	15.83	-42.9	-45.3	18.0	0.00e+00	0	44	0	548405248	57	4753
2026-01-29 01:59:53.74	299.49	15.81	-42.7	-45.2	18.1	0.00e+00	0	44	0	550502400	57	4665
2026-01-29 01:59:54.89	299.25	15.77	-42.9	-45.4	17.9	0.00e+00	0	44	0	552599552	57	4789
2026-01-29 01:59:55.74	299.07	15.75	-42.7	-45.1	18.2	0.00e+00	0	43	0	554696704	57	4616
2026-01-29 01:59:56.88	298.83	15.71	-42.7	-45.1	18.2	0.00e+00	0	44	0	556793856	57	4631
2026-01-29 01:59:57.74	298.65	15.69	-42.6	-45.0	18.2	0.00e+00	0	44	0	557842432	57	4587
2026-01-29 01:59:58.88	298.41	15.65	-42.6	-45.0	18.3	0.00e+00	0	44	0	559939584	57	4584
2026-01-29 01:59:59.74	298.23	15.62	-42.4	-44.8	18.4	0.00e+00	0	44	0	562036736	56	4744
2026-01-29 02:00:00.88	298.00	15.59	-42.9	-45.3	17.9	0.00e+00	0	44	0	564133888	56	5039
2026-01-29 02:00:01.73	297.82	15.56	-43.1	-45.6	17.7	0.00e+00	0	44	0	565182464	56	5200
2026-01-29 02:00:02.88	297.59	15.52	-43.0	-45.6	17.8	0.00e+00	0	44	0	567279616	56	5167
2026-01-29 02:00:03.73	297.41	15.50	-43.2	-45.8	17.5	0.00e+00	0	44	0	569376768	57	5010
2026-01-29 02:00:04.88	297.17	15.46	-43.2	-45.8	17.5	0.00e+00	0	44	0	571473920	57	4988
2026-01-29 02:00:05.74	297.00	15.43	-43.1	-45.7	17.6	0.00e+00	0	44	0	572522496	57	4967
2026-01-29 02:00:06.88	296.76	15.39	-43.3	-45.9	17.4	0.00e+00	0	44	0	574619648	57	5082
2026-01-29 02:00:07.74	296.59	15.36	-43.3	-46.0	17.3	0.00e+00	0	44	0	576716800	57	5107
2026-01-29 02:00:08.88	296.36	15.32	-43.3	-46.0	17.3	0.00e+00	0	44	0	578813952	57	5114
2026-01-29 02:00:09.74	296.18	15.29	-43.4	-46.1	17.2	0.00e+00	0	44	0	580911104	57	5218
2026-01-29 02:00:10.88	295.95	15.26	-43.8	-46.6	16.8	0.00e+00	0	44	0	583008256	58	5165
2026-01-29 02:00:11.74	295.78	15.23	-43.8	-46.6	16.7	0.00e+00	0	44	0	584056832	58	5218
2026-01-29 02:00:12.88	295.55	15.18	-43.8	-46.5	16.9	0.00e+00	0	44	0	586153984	58	5158
2026-01-29 02:00:13.74	295.37	15.15	-43.9	-46.7	16.7	0.00e+00	0	44	0	588251136	58	5240
2026-01-29 02:00:14.88	295.15	15.11	-44.0	-46.8	16.5	0.00e+00	0	44	0	590348288	58	5332
2026-01-29 02:00:15.73	294.97	15.08	-44.0	-46.8	16.6	0.00e+00	0	44	0	591396864	58	5329
2026-01-29 02:00:16.88	294.75	15.04	-43.8	-46.6	16.8	0.00e+00	0	44	0	593494016	58	5169
2026-01-29 02:00:17.74	294.57	15.01	-43.6	-46.4	17.0	0.00e+00	0	44	0	595591168	58	5043
2026-01-29 02:00:18.88	294.35	14.97	-43.6	-46.3	17.1	0.00e+00	0	44	0	597688320	58	4993
2026-01-29 02:00:19.73	294.18	14.93	-43.4	-46.0	17.4	0.00e+00	0	44	0	598736896	58	4828
2026-01-29 02:00:20.87	293.95	14.89	-43.5	-46.2	17.1	0.00e+00	0	44	0	601882624	58	4953
2026-01-29 02:00:21.73	293.78	14.86	-43.4	-46.1	17.3	0.00e+00	0	44	0	602931200	58	4873
2026-01-29 02:00:22.87	293.56	14.82	-43.5	-46.1	17.3	0.00e+00	0	44	0	605028352	58	4903
2026-01-29 02:00:23.73	293.39	14.78	-43.4	-46.0	17.3	0.00e+00	0	44	0	607125504	58	4852
2026-01-29 02:00:24.88	293.17	14.74	-43.4	-46.1	17.2	0.00e+00	0	44	0	609222656	58	4899
2026-01-29 02:00:25.74	293.00	14.70	-43.5	-46.1	17.2	0.00e+00	0	44	0	610271232	58	4922
2026-01-29 02:00:26.88	292.78	14.66	-43.2	-45.9	17.5	0.00e+00	0	44	0	612368384	58	4768
2026-01-29 02:00:27.74	292.61	14.62	-43.1	-45.6	17.7	0.00e+00	0	44	0	614465536	58	4648
2026-01-29 02:00:28.88	292.39	14.58	-43.0	-45.5	17.8	0.00e+00	0	44	0	616562688	57	4831
2026-01-29 02:00:29.74	292.22	14.54	-42.7	-45.2	18.1	0.00e+00	0	44	0	617611264	57	4655
2026-01-29 02:00:30.89	292.00	14.50	-42.6	-45.0	18.2	0.00e+00	0	44	0	619708416	57	4590
2026-01-29 02:00:31.74	291.84	14.46	-42.6	-45.0	18.3	0.00e+00	0	44	0	621805568	57	4566
2026-01-29 02:00:32.89	291.62	14.42	-42.8	-45.2	18.0	0.00e+00	0	44	0	623902720	57	4700
2026-01-29 02:00:33.75	291.45	14.38	-42.8	-45.3	18.0	0.00e+00	0	44	0	624951296	57	4717
2026-01-29 02:00:34.89	291.23	14.33	-42.9	-45.4	17.9	0.00e+00	0	44	0	628097024	57	4808
2026-01-29 02:00:35.75	291.07	14.30	-43.1	-45.6	17.7	0.00e+00	0	44	0	629145600	57	4886
2026-01-29 02:00:36.89	290.86	14.25	-43.1	-45.7	17.6	0.00e+00	0	44	0	631242752	57	4937
2026-01-29 02:00:37.75	290.69	14.21	-43.1	-45.7	17.6	0.00e+00	0	44	0	633339904	57	4955
2026-01-29 02:00:38.89	290.48	14.17	-43.2	-45.8	17.5	0.00e+00	0	44	0	635437056	57	5014
2026-01-29 02:00:39.75	290.32	14.13	-43.6	-46.4	17.0	0.00e+00	0	44	0	636485632	57	5371
2026-01-29 02:00:40.89	290.10	14.08	-43.8	-46.6	16.8	0.00e+00	0	44	0	638582784	58	5177
2026-01-29 02:00:41.75	289.94	14.04	-44.0	-46.9	16.5	0.00e+00	0	44	0	640679936	58	5365
2026-01-29 02:00:42.90	289.73	13.99	-44.2	-47.2	16.1	0.00e+00	0	44	0	642777088	59	5274
2026-01-29 02:00:43.75	289.57	13.96	-44.3	-47.3	16.0	0.00e+00	0	44	0	643825664	59	5325
2026-01-29 02:00:44.90	289.36	13.91	-44.2	-47.1	16.3	0.00e+00	0	44	0	645922816	59	5187
2026-01-29 02:00:45.75	289.20	13.87	-44.2	-47.1	16.2	0.00e+00	0	44	0	648019968	59	5208
2026-01-29 02:00:46.89	288.99	13.82	-44.1	-47.0	16.3	0.00e+00	0	44	0	650117120	59	5135
2026-01-29 02:00:47.75	288.83	13.78	-43.7	-46.5	16.8	0.00e+00	0	44	0	652214272	59	4846
2026-01-29 02:00:48.89	288.63	13.73	-43.9	-46.7	16.6	0.00e+00	0	44	0	654311424	59	4973
2026-01-29 02:00:49.75	288.47	13.69	-43.9	-46.8	16.6	0.00e+00	0	44	0	655360000	59	4992
2026-01-29 02:00:50.89	288.26	13.64	-44.0	-46.9	16.5	0.00e+00	0	44	0	657457152	59	5070
2026-01-29 02:00:51.75	288.11	13.60	-44.0	-46.9	16.4	0.00e+00	0	44	0	659554304	59	5049
2026-01-29 02:00:52.89	287.90	13.55	-44.1	-47.0	16.2	0.00e+00	0	44	0	661651456	59	5121
2026-01-29 02:00:53.75	287.74	13.51	-44.1	-47.0	16.4	0.00e+00	0	44	0	662700032	59	5102
2026-01-29 02:00:54.89	287.54	13.46	-44.2	-47.2	16.2	0.00e+00	0	44	0	664797184	59	5223
2026-01-29 02:00:55.75	287.39	13.42	-44.1	-46.9	16.4	0.00e+00	0	44	0	666894336	59	5098
2026-01-29 02:00:56.89	287.18	13.37	-44.0	-46.9	16.5	0.00e+00	0	44	0	668991488	59	5042
2026-01-29 02:00:57.74	287.03	13.33	-44.0	-46.8	16.5	0.00e+00	0	44	0	670040064	59	5013
2026-01-29 02:00:58.88	286.83	13.27	-43.8	-46.6	16.7	0.00e+00	0	44	0	672137216	59	4889
2026-01-29 02:00:59.74	286.68	13.23	-43.9	-46.7	16.6	0.00e+00	0	44	0	674234368	59	4973
2026-01-29 02:01:00.88	286.48	13.18	-44.0	-46.8	16.5	0.00e+00	0	44	0	676331520	59	5032
2026-01-29 02:01:01.74	286.33	13.14	-44.0	-46.9	16.4	0.00e+00	0	44	0	678428672	59	5077
2026-01-29 02:01:02.87	286.13	13.09	-44.1	-47.1	16.3	0.00e+00	0	44	0	680525824	59	5161
2026-01-29 02:01:03.74	285.98	13.04	-43.9	-46.8	16.5	0.00e+00	0	44	0	681574400	59	4989
2026-01-29 02:01:04.88	285.78	12.99	-43.8	-46.7	16.7	0.00e+00	0	44	0	683671552	59	4940
2026-01-29 02:01:05.73	285.63	12.95	-43.7	-46.4	16.8	0.00e+00	0	44	0	685768704	59	4807
2026-01-29 02:01:06.88	285.43	12.89	-43.6	-46.3	17.0	0.00e+00	0	44	0	687865856	59	4715
2026-01-29 02:01:07.74	285.28	12.85	-43.4	-46.0	17.3	0.00e+00	0	44	0	688914432	58	4845
2026-01-29 02:01:08.88	285.09	12.80	-43.3	-45.9	17.4	0.00e+00	0	44	0	691011584	58	4761
2026-01-29 02:01:09.74	284.94	12.76	-43.2	-45.7	17.5	0.00e+00	0	44	0	693108736	58	4689
2026-01-29 02:01:10.88	284.75	12.70	-43.1	-45.7	17.5	0.00e+00	0	44	0	695205888	58	4676
2026-01-29 02:01:11.74	284.60	12.66	-43.3	-45.9	17.3	0.00e+00	0	44	0	696254464	58	4794
2026-01-29 02:01:12.88	284.41	12.60	-43.5	-46.3	17.0	0.00e+00	0	44	0	698351616	58	5004
2026-01-29 02:01:13.74	284.26	12.56	-43.7	-46.5	16.8	0.00e+00	0	44	0	700448768	58	5119
2026-01-29 02:01:14.88	284.07	12.51	-43.9	-46.9	16.4	0.00e+00	0	44	0	702545920	58	5343
2026-01-29 02:01:15.74	283.93	12.46	-44.1	-47.1	16.2	0.00e+00	0	43	0	704643072	58	5472
2026-01-29 02:01:16.89	283.73	12.41	-44.0	-46.8	16.3	0.00e+00	0	43	0	706740224	59	5033
2026-01-29 02:01:17.75	283.59	12.36	-44.3	-47.3	16.0	0.00e+00	0	43	0	707788800	59	5295
2026-01-29 02:01:18.89	283.40	12.31	-44.2	-47.2	16.1	0.00e+00	0	44	0	709885952	59	5233
2026-01-29 02:01:19.75	283.26	12.26	-44.1	-47.0	16.2	0.00e+00	0	44	0	711983104	59	5131
2026-01-29 02:01:20.89	283.07	12.21	-44.1	-47.0	16.2	0.00e+00	0	44	0	714080256	59	5157
2026-01-29 02:01:21.75	282.93	12.16	-44.1	-46.9	16.3	0.00e+00	0	44	0	715128832	59	5098
2026-01-29 02:01:22.89	282.74	12.11	-44.1	-46.9	16.3	0.00e+00	0	44	0	717225984	59	5091
2026-01-29 02:01:23.75	282.60	12.06	-44.2	-47.2	16.1	0.00e+00	0	44	0	719323136	59	5244
2026-01-29 02:01:24.90	282.42	12.01	-44.5	-47.5	15.9	0.00e+00	0	44	0	721420288	59	5460
2026-01-29 02:01:25.76	282.28	11.96	-44.4	-47.4	15.9	0.00e+00	0	44	0	722468864	59	5373
2026-01-29 02:01:26.90	282.09	11.90	-44.8	-48.1	15.2	0.00e+00	0	44	0	725614592	60	5489
2026-01-29 02:01:27.76	281.95	11.86	-45.1	-48.6	14.7	0.00e+00	0	44	0	726663168	61	5489
2026-01-29 02:01:28.90	281.77	11.80	-45.7	-49.6	13.7	2.20e-06	0	44	0	728760320	62	5805
2026-01-29 02:01:29.76	281.63	11.76	-46.0	-50.0	13.3	1.14e-05	0	44	0	730857472	62	6119
2026-01-29 02:01:30.90	281.45	11.70	-46.3	-50.7	12.7	4.19e-05	0	44	0	732954624	63	6224
2026-01-29 02:01:31.76	281.32	11.66	-46.5	-51.1	12.2	1.49e-04	0	44	0	734003200	63	6512
2026-01-29 02:01:32.90	281.14	11.60	-46.3	-50.6	12.6	2.33e-04	0	44	0	736100352	63	6175
2026-01-29 02:01:33.76	281.00	11.55	-46.3	-50.6	12.7	9.53e-05	0	44	0	738197504	63	6171
2026-01-29 02:01:34.90	280.82	11.49	-46.2	-50.4	12.9	6.56e-05	0	44	0	740294656	63	6024
2026-01-29 02:01:35.77	280.69	11.45	-46.1	-50.3	13.0	3.12e-05	0	44	0	741343232	63	5958
2026-01-29 02:01:36.91	280.51	11.39	-45.7	-49.6	13.7	2.21e-05	0	44	0	743440384	63	5467
2026-01-29 02:01:37.77	280.37	11.35	-45.7	-49.5	13.8	4.50e-06	0	44	0	745537536	63	5461
2026-01-29 02:01:38.91	280.20	11.29	-45.6	-49.4	13.9	6.80e-06	0	44	0	747634688	63	5357
2026-01-29 02:01:39.77	280.06	11.24	-45.3	-49.0	14.3	3.80e-06	0	44	0	749731840	62	5451
2026-01-29 02:01:40.91	279.89	11.18	-45.3	-48.9	14.4	0.00e+00	0	44	0	751828992	62	5366
2026-01-29 02:01:41.77	279.76	11.14	-45.1	-48.6	14.7	7.00e-07	0	44	0	752877568	62	5177
2026-01-29 02:01:42.91	279.58	11.08	-44.8	-48.2	15.1	0.00e+00	0	44	0	754974720	61	5219
2026-01-29 02:01:43.77	279.45	11.03	-44.4	-47.6	15.6	0.00e+00	0	44	0	757071872	60	5194
2026-01-29 02:01:44.92	279.28	10.97	-44.4	-47.5	15.8	0.00e+00	0	44	0	759169024	60	5123
2026-01-29 02:01:45.78	279.15	10.93	-44.2	-47.2	16.0	0.00e+00	0	44	0	760217600	60	4967
2026-01-29 02:01:46.92	278.98	10.87	-44.2	-47.2	16.0	0.00e+00	0	44	0	762314752	60	4975
2026-01-29 02:01:47.77	278.85	10.82	-44.2	-47.2	16.0	0.00e+00	0	44	0	764411904	60	4972
2026-01-29 02:01:48.92	278.68	10.76	-44.2	-47.2	16.1	0.00e+00	0	44	0	766509056	60	4958
2026-01-29 02:01:49.77	278.55	10.72	-44.4	-47.5	15.7	0.00e+00	0	44	0	767557632	60	5159
2026-01-29 02:01:50.91	278.38	10.66	-44.5	-47.7	15.5	0.00e+00	0	44	0	769654784	60	5256
2026-01-29 02:01:51.77	278.26	10.61	-44.6	-47.8	15.5	0.00e+00	0	44	0	771751936	60	5299
2026-01-29 02:01:52.91	278.09	10.55	-44.4	-47.4	15.8	0.00e+00	0	44	0	773849088	60	5098
2026-01-29 02:01:53.77	277.96	10.51	-44.3	-47.4	15.9	0.00e+00	0	44	0	775946240	60	5048
2026-01-29 02:01:54.92	277.80	10.44	-44.1	-47.1	16.1	0.00e+00	0	44	0	778043392	60	4887
2026-01-29 02:01:55.78	277.67	10.40	-44.1	-47.1	16.1	0.00e+00	0	44	0	779091968	60	4882
2026-01-29 02:01:56.92	277.51	10.34	-43.9	-46.9	16.2	0.00e+00	0	44	0	781189120	59	5060
2026-01-29 02:01:57.78	277.38	10.29	-43.9	-46.9	16.2	0.00e+00	0	44	0	783286272	59	5083
2026-01-29 02:01:58.92	277.22	10.23	-43.8	-46.7	16.4	0.00e+00	0	44	0	785383424	59	4953
2026-01-29 02:01:59.77	277.10	10.18	-43.8	-46.7	16.4	0.00e+00	0	44	0	786432000	59	4975
2026-01-29 02:02:00.92	276.93	10.12	-43.7	-46.6	16.6	0.00e+00	0	44	0	788529152	59	4882
2026-01-29 02:02:01.77	276.81	10.08	-43.9	-46.9	16.3	0.00e+00	0	44	0	790626304	59	5048
2026-01-29 02:02:02.92	276.65	10.02	-43.9	-46.8	16.3	0.00e+00	0	44	0	792723456	59	5037
2026-01-29 02:02:03.77	276.53	9.97	-43.9	-46.9	16.2	0.00e+00	0	44	0	794820608	59	5076
2026-01-29 02:02:04.91	276.37	9.91	-43.8	-46.8	16.4	0.00e+00	0	44	0	795869184	59	4995
2026-01-29 02:02:05.78	276.24	9.86	-44.0	-47.0	16.1	0.00e+00	0	44	0	797966336	59	5137
2026-01-29 02:02:06.92	276.09	9.80	-43.9	-46.9	16.3	0.00e+00	0	44	0	800063488	59	5065
2026-01-29 02:02:07.78	275.97	9.75	-44.0	-47.0	16.1	0.00e+00	0	44	0	802160640	59	5128
2026-01-29 02:02:08.92	275.81	9.69	-44.0	-47.1	16.0	0.00e+00	0	44	0	804257792	59	5181
2026-01-29 02:02:09.78	275.69	9.65	-44.1	-47.3	15.8	0.00e+00	0	44	0	805306368	59	5305
2026-01-29 02:02:10.92	275.53	9.58	-44.4	-47.7	15.4	0.00e+00	0	44	0	807403520	59	5530
2026-01-29 02:02:11.78	275.41	9.54	-44.3	-47.5	15.6	0.00e+00	0	44	0	809500672	59	5456
2026-01-29 02:02:12.93	275.26	9.48	-44.2	-47.5	15.6	0.00e+00	0	44	0	811597824	59	5425
2026-01-29 02:02:13.78	275.14	9.43	-44.5	-47.8	15.3	0.00e+00	0	44	0	812646400	59	5645
2026-01-29 02:02:14.93	274.99	9.37	-44.2	-47.4	15.7	0.00e+00	0	44	0	814743552	59	5402
2026-01-29 02:02:15.79	274.87	9.32	-44.3	-47.5	15.6	0.00e+00	0	44	0	816840704	59	5432
2026-01-29 02:02:16.93	274.72	9.26	-44.1	-47.3	15.8	0.00e+00	0	44	0	818937856	59	5317
2026-01-29 02:02:17.79	274.60	9.21	-44.1	-47.2	15.9	0.00e+00	0	44	0	821035008	59	5278
2026-01-29 02:02:18.93	274.45	9.15	-44.1	-47.2	15.9	0.00e+00	0	44	0	823132160	59	5277
2026-01-29 02:02:19.79	274.33	9.10	-44.1	-47.1	15.9	0.00e+00	0	44	0	824180736	59	5207
2026-01-29 02:02:20.93	274.18	9.04	-44.2	-47.3	15.8	0.00e+00	0	44	0	826277888	59	5290
2026-01-29 02:02:21.79	274.07	9.00	-47.9	-55.8	7.7	0.00e+00	0	44	0	828375040	66	9455
2026-01-29 02:02:22.93	273.92	8.93	-49.1	-64.4	3.8	1.49e+00	0	44	104	828375040	68	22737
2026-01-29 02:02:23.78	273.81	8.89	-49.2	-64.4	3.8	1.49e+00	0	44	104	828375040	69	21389
2026-01-29 02:02:24.92	273.66	8.82	-49.2	-64.4	3.8	1.49e+00	0	44	104	828375040	69	21399
2026-01-29 02:02:25.77	273.55	8.78	-49.2	-64.4	3.8	1.49e+00	0	44	104	828375040	69	21419
2026-01-29 02:02:26.91	273.40	8.72	-49.1	-64.4	3.8	1.49e+00	0	44	104	828375040	69	21266
2026-01-29 02:02:27.77	273.29	8.67	-49.1	-64.3	3.8	1.49e+00	0	44	104	828375040	69	21256
2026-01-29 02:02:28.91	273.14	8.61	-49.0	-64.4	3.8	1.49e+00	0	44	104	828375040	69	21319
2026-01-29 02:02:29.76	273.04	8.56	-49.0	-64.3	3.8	1.49e+00	0	44	104	828375040	69	21232
2026-01-29 02:02:30.90	272.89	8.50	-49.0	-64.4	3.8	1.49e+00	0	44	104	828375040	69	21375
2026-01-29 02:02:31.75	272.78	8.45	-49.0	-64.3	3.8	1.49e+00	0	44	104	828375040	69	21245
2026-01-29 02:02:32.90	272.64	8.39	-49.0	-64.3	3.8	1.49e+00	0	44	104	828375040	69	21206
2026-01-29 02:02:33.75	272.53	8.34	-49.0	-64.3	3.8	1.49e+00	0	44	104	828375040	69	21244
2026-01-29 02:02:34.89	272.39	8.28	-49.0	-64.3	3.8	1.49e+00	0	44	104	828375040	69	21243
2026-01-29 02:02:35.74	272.28	8.23	-49.0	-64.3	3.8	1.49e+00	0	44	104	828375040	69	21233
2026-01-29 02:02:36.88	272.14	8.17	-49.0	-64.3	3.8	1.49e+00	0	44	104	828375040	69	21234
2026-01-29 02:02:37.74	272.03	8.12	-49.0	-64.4	3.8	1.49e+00	0	44	104	828375040	69	21277
2026-01-29 02:02:38.88	271.89	8.06	-49.0	-64.3	3.8	1.49e+00	0	44	104	828375040	69	21224
2026-01-29 02:02:39.73	271.79	8.02	-49.0	-64.4	3.8	1.49e+00	0	44	104	828375040	69	21292
2026-01-29 02:02:40.87	271.65	7.95	-49.0	-64.4	3.8	1.49e+00	0	44	104	828375040	69	21336
2026-01-29 02:02:41.72	271.54	7.91	-49.0	-64.3	3.8	1.49e+00	0	44	104	828375040	69	21227
2026-01-29 02:02:42.86	271.40	7.84	-49.0	-64.3	3.8	1.49e+00	0	44	104	828375040	69	21226
2026-01-29 02:02:43.71	271.30	7.80	-49.0	-64.4	3.8	1.49e+00	0	44	104	828375040	69	21265
2026-01-29 02:02:44.85	271.16	7.74	-49.0	-64.4	3.8	1.49e+00	0	44	104	828375040	69	21324
2026-01-29 02:02:45.71	271.06	7.69	-49.0	-64.3	3.8	1.49e+00	0	44	104	828375040	69	21252
2026-01-29 02:02:46.85	270.92	7.63	-49.0	-64.3	3.8	1.49e+00	0	44	104	828375040	69	21171
2026-01-29 02:02:47.70	270.82	7.58	-49.0	-64.3	3.8	1.49e+00	0	44	104	828375040	69	21203
2026-01-29 02:02:48.84	270.68	7.52	-49.0	-64.4	3.8	1.49e+00	0	44	104	828375040	69	21268
2026-01-29 02:02:49.69	270.58	7.47	-49.0	-64.3	3.8	1.49e+00	0	44	104	828375040	69	21255
2026-01-29 02:02:50.83	270.45	7.41	-49.0	-64.3	3.8	1.49e+00	0	44	104	828375040	69	21219
2026-01-29 02:02:51.68	270.35	7.36	-49.0	-64.4	3.8	1.49e+00	0	44	104	828375040	69	21290
2026-01-29 02:02:52.82	270.21	7.30	-49.0	-64.3	3.8	1.49e+00	0	44	104	828375040	69	21199
2026-01-29 02:02:53.68	270.11	7.25	-49.0	-64.4	3.8	1.49e+00	0	44	104	828375040	69	21317
2026-01-29 02:02:54.82	269.98	7.19	-49.0	-64.4	3.8	1.49e+00	0	44	104	828375040	69	21288
2026-01-29 02:02:55.67	269.88	7.14	-49.0	-64.4	3.8	1.49e+00	0	44	104	828375040	69	21393
2026-01-29 02:02:56.81	269.75	7.08	-49.0	-64.3	3.8	1.49e+00	0	44	104	828375040	69	21232
2026-01-29 02:02:57.67	269.65	7.03	-49.0	-64.3	3.8	1.49e+00	0	44	104	828375040	69	21135
2026-01-29 02:02:58.81	269.52	6.97	-49.0	-64.3	3.8	1.49e+00	0	44	104	828375040	69	21181
2026-01-29 02:02:59.67	269.42	6.93	-49.0	-64.3	3.8	1.49e+00	0	44	104	828375040	69	21256
2026-01-29 02:03:00.81	269.29	6.86	-49.0	-64.3	3.8	1.49e+00	0	44	104	828375040	69	21230
2026-01-29 02:03:01.66	269.20	6.82	-49.0	-64.3	3.8	1.49e+00	0	44	104	828375040	69	21189
2026-01-29 02:03:02.79	269.07	6.75	-49.0	-64.4	3.8	1.49e+00	0	44	104	828375040	69	21262
2026-01-29 02:03:03.65	268.97	6.71	-49.0	-64.3	3.8	1.49e+00	0	44	104	828375040	69	21218
2026-01-29 02:03:04.79	268.84	6.65	-49.0	-64.3	3.8	1.49e+00	0	44	104	828375040	69	21219
2026-01-29 02:03:05.64	268.75	6.60	-49.0	-64.3	3.8	1.49e+00	0	44	104	828375040	69	21126
2026-01-29 02:03:06.78	268.62	6.54	-49.0	-64.3	3.8	1.49e+00	0	44	104	828375040	69	21230
2026-01-29 02:03:07.64	268.53	6.49	-49.0	-64.3	3.8	1.49e+00	0	44	104	828375040	69	21151
2026-01-29 02:03:08.78	268.40	6.43	-49.0	-64.3	3.8	1.49e+00	0	44	104	828375040	69	21228
2026-01-29 02:03:09.63	268.31	6.38	-49.0	-64.3	3.8	1.49e+00	0	44	104	828375040	69	21125
2026-01-29 02:03:10.77	268.18	6.32	-49.0	-64.3	3.8	1.49e+00	0	44	104	828375040	69	21214
2026-01-29 02:03:11.62	268.09	6.27	-49.0	-64.3	3.8	1.49e+00	0	44	104	828375040	69	21183
2026-01-29 02:03:12.76	267.97	6.21	-49.0	-64.3	3.8	1.49e+00	0	44	104	828375040	69	21219
2026-01-29 02:03:13.62	267.87	6.16	-49.0	-64.3	3.8	1.49e+00	0	44	104	828375040	69	21192
2026-01-29 02:03:14.76	267.75	6.10	-49.0	-64.3	3.8	1.49e+00	0	44	104	828375040	69	21143
2026-01-29 02:03:15.61	267.66	6.06	-49.0	-64.3	3.8	1.49e+00	0	44	104	828375040	69	21211
2026-01-29 02:03:16.75	267.54	5.99	-49.0	-64.3	3.8	1.49e+00	0	44	104	828375040	69	21188
2026-01-29 02:03:17.60	267.45	5.95	-49.0	-64.3	3.8	1.49e+00	0	44	104	828375040	69	21194
2026-01-29 02:03:18.74	267.33	5.89	-49.0	-64.3	3.8	1.49e+00	0	44	104	828375040	69	21203
2026-01-29 02:03:19.59	267.24	5.84	-49.0	-64.3	3.8	1.49e+00	0	44	104	828375040	69	21125
2026-01-29 02:03:20.73	267.11	5.78	-49.0	-64.3	3.8	1.49e+00	0	44	104	828375040	69	21194
2026-01-29 02:03:21.59	267.02	5.73	-49.0	-64.3	3.8	1.49e+00	0	44	104	828375040	69	21219
2026-01-29 02:03:22.73	266.91	5.67	-49.0	-64.3	3.8	1.49e+00	0	44	104	828375040	69	21119
2026-01-29 02:03:23.58	266.82	5.62	-49.0	-64.3	3.8	1.49e+00	0	44	104	828375040	69	21177
2026-01-29 02:03:24.72	266.70	5.56	-49.0	-64.3	3.8	1.49e+00	0	44	104	828375040	69	21177
2026-01-29 02:03:25.57	266.61	5.51	-49.0	-64.3	3.8	1.49e+00	0	44	104	828375040	69	21189
2026-01-29 02:03:26.71	266.49	5.45	-49.0	-64.3	3.8	1.49e+00	0	44	104	828375040	69	21116
2026-01-29 02:03:27.57	266.40	5.41	-49.0	-64.3	3.8	1.49e+00	0	44	104	828375040	69	21182
2026-01-29 02:03:28.71	266.29	5.34	-49.0	-64.3	3.8	1.49e+00	0	44	104	828375040	69	21167
2026-01-29 02:03:29.56	266.20	5.30	-49.0	-64.3	3.8	1.49e+00	0	44	104	828375040	69	21201
2026-01-29 02:03:30.70	266.09	5.24	-49.0	-64.3	3.8	1.49e+00	0	44	104	828375040	69	21193
2026-01-29 02:03:31.56	266.00	5.19	-49.0	-64.3	3.8	1.49e+00	0	44	104	828375040	69	21240
2026-01-29 02:03:32.70	265.88	5.13	-49.0	-64.3	3.8	1.49e+00	0	44	104	828375040	69	21160
2026-01-29 02:03:33.55	265.80	5.08	-49.0	-64.3	3.8	1.49e+00	0	44	104	828375040	69	21165
2026-01-29 02:03:34.69	265.68	5.02	-49.0	-64.3	3.8	1.49e+00	0	44	104	828375040	69	21111
2026-01-29 02:03:35.55	265.60	4.97	-49.0	-64.3	3.8	1.49e+00	0	44	104	828375040	69	21168

#Closed at: 2026-01-29 02:03:36
#Recorded file [828 MB]: D:/Data/31040_260129_045353.dat