passes_logs/2026/01/29/T1/T1__20260129_114548_SUOMI_NPP_rec.log

#Pass ID: 20260129_114548_SUOMI NPP
#Satellite: SUOMI NPP
#Configuration: NPP
#almurnet v.1.7.20251203
#Start time: 2026-01-29 11:45:48

#Version: 2.0.20230620
#Station: T1
#Location: 37.570604 lon 55.790049 lat
#TLE: 1 37849U 11061A   26027.93236865  .00000148  00000+0  91411-4 0  9991
#TLE: 2 37849  98.7823 329.8704 0002085  41.3231 318.8102 14.19530777738546

#Time	Az	El	Level	Level2	SNR	BER	BlckErr	Temp	State	Recorded	gain1	gain2
2026-01-29 11:45:48.50	218.83	4.98	-49.8	-65.3	3.8	1.49e+00	0	41	0	0	70	22339
2026-01-29 11:45:49.49	218.93	5.03	-50.2	-65.4	3.8	1.49e+00	0	41	104	0	71	21316
2026-01-29 11:45:50.48	219.03	5.09	-50.2	-65.4	3.8	1.49e+00	0	41	104	0	71	21329
2026-01-29 11:45:51.48	219.13	5.14	-50.1	-65.4	3.8	1.49e+00	0	41	104	0	71	21354
2026-01-29 11:45:52.47	219.22	5.20	-50.0	-65.3	3.8	1.49e+00	0	41	104	0	71	21238
2026-01-29 11:45:53.46	219.32	5.25	-50.2	-65.4	3.8	1.49e+00	0	41	104	0	71	21286
2026-01-29 11:45:54.46	219.42	5.31	-50.0	-65.4	3.8	1.49e+00	0	41	104	0	71	21348
2026-01-29 11:45:55.45	219.52	5.36	-50.1	-65.4	3.8	1.49e+00	0	41	104	0	71	21267
2026-01-29 11:45:56.44	219.62	5.42	-50.0	-65.3	3.8	1.49e+00	0	41	104	0	71	21210
2026-01-29 11:45:57.44	219.72	5.47	-49.9	-65.3	3.8	1.49e+00	0	41	104	0	71	21083
2026-01-29 11:45:58.43	219.82	5.53	-50.1	-65.3	3.8	1.49e+00	0	41	104	0	71	21151
2026-01-29 11:45:59.42	219.92	5.58	-50.0	-65.3	3.8	1.49e+00	0	41	104	0	71	21073
2026-01-29 11:46:00.42	220.02	5.64	-50.0	-65.3	3.8	1.49e+00	0	41	104	0	71	21030
2026-01-29 11:46:01.41	220.12	5.69	-49.9	-65.2	3.8	1.49e+00	0	41	104	0	71	20907
2026-01-29 11:46:02.40	220.22	5.75	-49.9	-65.2	3.8	1.49e+00	0	41	104	0	71	20808
2026-01-29 11:46:03.40	220.33	5.80	-49.8	-65.1	3.8	1.49e+00	0	42	104	0	71	20642
2026-01-29 11:46:04.39	220.43	5.86	-49.8	-65.1	3.8	1.49e+00	0	41	104	0	71	20543
2026-01-29 11:46:05.38	220.53	5.91	-49.6	-65.0	3.8	1.49e+00	0	42	104	0	71	20310
2026-01-29 11:46:06.38	220.64	5.97	-49.4	-64.9	3.8	1.49e+00	0	41	104	0	70	21288
2026-01-29 11:46:07.37	220.74	6.03	-49.0	-64.7	3.8	1.49e+00	0	42	104	0	70	20829
2026-01-29 11:46:08.36	220.84	6.08	-48.8	-64.6	3.8	1.49e+00	0	42	104	0	69	21811
2026-01-29 11:46:09.36	220.95	6.14	-48.8	-64.6	3.8	1.49e+00	0	42	104	0	69	21780
2026-01-29 11:46:10.35	221.05	6.19	-48.7	-64.5	3.8	1.49e+00	0	42	104	0	69	21755
2026-01-29 11:46:11.34	221.16	6.25	-48.8	-64.6	3.8	1.49e+00	0	42	104	0	69	21756
2026-01-29 11:46:12.34	221.26	6.30	-48.8	-64.5	3.8	1.49e+00	0	42	104	0	69	21742
2026-01-29 11:46:13.33	221.37	6.36	-48.8	-64.6	3.8	1.49e+00	0	42	104	0	69	21780
2026-01-29 11:46:14.33	221.48	6.42	-48.8	-64.6	3.8	1.49e+00	0	42	104	0	69	21795
2026-01-29 11:46:15.32	221.58	6.47	-48.7	-64.5	3.8	1.49e+00	0	42	104	0	69	21714
2026-01-29 11:46:16.31	221.69	6.53	-48.8	-64.6	3.8	1.49e+00	0	42	104	0	69	21786
2026-01-29 11:46:17.31	221.80	6.58	-48.8	-64.5	3.8	1.49e+00	0	42	104	0	69	21644
2026-01-29 11:46:18.30	221.90	6.64	-48.8	-64.5	3.8	1.49e+00	0	42	104	0	69	21615
2026-01-29 11:46:19.29	222.01	6.70	-48.8	-64.5	3.8	1.49e+00	0	42	104	0	69	21652
2026-01-29 11:46:20.29	222.12	6.75	-48.8	-64.5	3.8	1.49e+00	0	42	104	0	69	21679
2026-01-29 11:46:21.28	222.23	6.81	-48.7	-64.5	3.8	1.49e+00	0	42	104	0	69	21666
2026-01-29 11:46:22.27	222.34	6.86	-48.8	-64.5	3.8	1.49e+00	0	42	104	0	69	21682
2026-01-29 11:46:23.26	222.45	6.92	-48.8	-64.5	3.8	1.49e+00	0	42	104	0	69	21740
2026-01-29 11:46:24.26	222.56	6.98	-48.7	-64.5	3.8	1.49e+00	0	42	104	0	69	21722
2026-01-29 11:46:25.25	222.67	7.03	-48.8	-64.5	3.8	1.49e+00	0	42	104	0	69	21561
2026-01-29 11:46:26.24	222.78	7.09	-48.7	-64.4	3.8	1.49e+00	0	42	104	0	69	21470
2026-01-29 11:46:27.24	222.89	7.15	-48.7	-64.4	3.8	1.49e+00	0	42	104	0	69	21270
2026-01-29 11:46:28.23	223.00	7.20	-48.8	-64.4	3.8	1.49e+00	0	42	104	0	69	21316
2026-01-29 11:46:29.22	223.12	7.26	-48.8	-64.4	3.8	1.49e+00	0	42	104	0	69	21333
2026-01-29 11:46:30.22	223.23	7.32	-48.7	-64.4	3.8	1.49e+00	0	42	104	0	69	21426
2026-01-29 11:46:31.21	223.34	7.37	-48.7	-64.5	3.8	1.49e+00	0	42	104	0	69	21580
2026-01-29 11:46:32.21	223.46	7.43	-48.8	-64.5	3.8	1.49e+00	0	42	104	0	69	21745
2026-01-29 11:46:33.20	223.57	7.48	-48.8	-64.5	3.8	1.49e+00	0	42	104	0	69	21715
2026-01-29 11:46:34.19	223.68	7.54	-48.8	-64.5	3.8	1.49e+00	0	42	104	0	69	21641
2026-01-29 11:46:35.19	223.80	7.60	-48.8	-64.5	3.8	1.49e+00	0	42	104	0	69	21698
2026-01-29 11:46:36.18	223.92	7.65	-48.7	-64.5	3.8	1.49e+00	0	43	104	0	69	21668
2026-01-29 11:46:37.17	224.03	7.71	-48.8	-64.6	3.8	1.49e+00	0	43	104	0	69	21778
2026-01-29 11:46:38.16	224.15	7.77	-48.8	-64.5	3.8	1.49e+00	0	42	104	0	69	21702
2026-01-29 11:46:39.16	224.26	7.82	-41.1	-63.4	3.9	1.50e+00	0	42	104	0	54	45015
2026-01-29 11:46:40.15	224.38	7.88	-40.9	-62.8	3.9	1.50e+00	0	43	104	0	53	44517
2026-01-29 11:46:41.14	224.50	7.94	-40.3	-62.2	3.9	1.50e+00	0	43	104	0	52	43940
2026-01-29 11:46:42.14	224.62	8.00	-41.0	-61.7	4.0	1.50e+00	0	43	104	0	52	41732
2026-01-29 11:46:43.13	224.73	8.05	-40.1	-61.6	3.9	1.50e+00	0	43	104	0	52	41055
2026-01-29 11:46:44.12	224.85	8.11	-40.3	-62.0	3.9	1.50e+00	0	43	104	0	52	43316
2026-01-29 11:46:45.12	224.97	8.17	-40.6	-62.3	3.9	1.50e+00	0	43	104	0	53	41981
2026-01-29 11:46:46.11	225.09	8.22	-40.3	-60.7	4.0	1.50e+00	0	43	104	0	52	37053
2026-01-29 11:46:47.10	225.21	8.28	-40.7	-57.5	4.4	1.41e+00	0	43	104	0	53	24371
2026-01-29 11:46:48.10	225.33	8.34	-40.8	-54.6	7.7	4.65e-01	0	43	0	0	53	17437
2026-01-29 11:46:49.09	225.45	8.39	-40.7	-52.0	10.2	5.81e-02	0	43	0	2097152	53	12815
2026-01-29 11:46:50.08	225.58	8.45	-40.7	-50.1	12.0	2.71e-02	0	43	0	4194304	53	10397
2026-01-29 11:46:51.08	225.70	8.51	-40.4	-48.7	13.3	2.04e-02	0	43	0	5242880	52	9328
2026-01-29 11:46:52.07	225.82	8.56	-39.7	-47.7	14.1	1.63e-02	0	43	0	7340032	51	8837
2026-01-29 11:46:53.06	225.94	8.62	-44.4	-47.8	15.4	1.32e-03	0	43	0	9437184	59	5628
2026-01-29 11:46:54.05	226.07	8.68	-44.5	-47.8	15.4	0.00e+00	0	43	0	11534336	59	5643
2026-01-29 11:46:55.05	226.19	8.73	-44.9	-48.6	14.7	0.00e+00	0	43	0	12582912	60	5815
2026-01-29 11:46:56.04	226.32	8.79	-45.6	-49.8	13.4	3.00e-06	0	43	0	14680064	61	6346
2026-01-29 11:46:57.03	226.44	8.85	-46.2	-51.2	11.7	2.53e-03	0	43	0	16777216	63	6643
2026-01-29 11:46:58.03	226.57	8.91	-46.8	-52.9	10.1	7.80e-03	0	43	0	18874368	64	7587
2026-01-29 11:46:59.02	226.69	8.96	-47.4	-54.9	8.1	3.69e-02	0	43	0	20971520	65	8977
2026-01-29 11:47:00.01	226.82	9.02	-47.7	-56.4	6.7	1.31e-01	0	43	0	22020096	65	10690
2026-01-29 11:47:01.01	226.94	9.08	-45.1	-48.8	14.4	5.92e-02	0	43	0	24117248	62	5302
2026-01-29 11:47:02.00	227.07	9.13	-46.4	-51.2	11.9	7.25e-04	0	43	0	26214400	63	6627
2026-01-29 11:47:03.00	227.20	9.19	-48.1	-58.8	5.0	2.54e-01	0	43	0	28311552	66	13399
2026-01-29 11:47:03.99	227.33	9.25	-48.4	-58.7	5.1	5.72e-01	0	43	0	29360128	67	12383
2026-01-29 11:47:04.99	227.46	9.31	-46.4	-51.3	11.8	1.97e-01	0	43	0	31457280	64	6307
2026-01-29 11:47:05.99	227.59	9.36	-46.1	-50.7	12.4	3.41e-03	0	43	0	33554432	64	5881
2026-01-29 11:47:06.98	227.72	9.42	-46.1	-50.4	12.8	1.39e-03	0	43	0	35651584	63	6033
2026-01-29 11:47:07.98	227.85	9.48	-46.0	-50.3	12.7	3.92e-03	0	43	0	37748736	63	5984
2026-01-29 11:47:08.97	227.98	9.54	-46.2	-50.7	12.4	9.31e-03	0	43	0	38797312	63	6244
2026-01-29 11:47:09.97	228.11	9.59	-46.2	-50.8	12.4	8.80e-03	0	43	0	40894464	63	6290
2026-01-29 11:47:11.00	228.25	9.65	-46.2	-50.7	12.5	9.38e-03	0	43	0	42991616	63	6254
2026-01-29 11:47:11.99	228.38	9.71	-46.2	-50.9	12.2	4.81e-03	0	43	0	45088768	63	6375
2026-01-29 11:47:12.99	228.51	9.77	-46.1	-50.6	12.5	7.98e-03	0	43	0	46137344	63	6196
2026-01-29 11:47:13.98	228.64	9.82	-46.1	-50.6	12.6	9.92e-03	0	43	0	48234496	63	6149
2026-01-29 11:47:14.98	228.78	9.88	-45.5	-49.5	13.6	2.54e-03	0	43	0	50331648	63	5430
2026-01-29 11:47:15.97	228.91	9.94	-45.1	-48.7	14.5	1.67e-03	0	43	0	52428800	62	5243
2026-01-29 11:47:16.97	229.05	10.00	-44.7	-48.2	14.8	2.29e-03	0	43	0	54525952	61	5246
2026-01-29 11:47:17.96	229.18	10.05	-44.8	-48.2	14.8	7.40e-03	0	43	0	55574528	61	5279
2026-01-29 11:47:18.96	229.32	10.11	-44.7	-48.1	14.9	9.12e-03	0	43	0	57671680	61	5193
2026-01-29 11:47:19.95	229.46	10.17	-44.8	-48.3	14.8	2.05e-03	0	43	0	59768832	61	5281
2026-01-29 11:47:20.95	229.59	10.22	-44.9	-48.3	14.9	3.89e-03	0	43	0	61865984	61	5295
2026-01-29 11:47:21.95	229.73	10.28	-44.9	-48.3	15.1	0.00e+00	0	43	0	62914560	61	5296
2026-01-29 11:47:22.94	229.87	10.34	-44.6	-47.9	15.5	0.00e+00	0	43	0	65011712	61	5069
2026-01-29 11:47:23.94	230.01	10.40	-44.4	-47.5	15.9	0.00e+00	0	43	0	67108864	60	5152
2026-01-29 11:47:24.93	230.15	10.45	-44.3	-47.4	16.1	0.00e+00	0	43	0	69206016	60	5062
2026-01-29 11:47:25.96	230.29	10.51	-44.4	-47.4	16.0	0.00e+00	0	43	0	71303168	60	5095
2026-01-29 11:47:26.95	230.43	10.57	-44.4	-47.5	15.9	0.00e+00	0	43	0	72351744	60	5102
2026-01-29 11:47:27.95	230.57	10.63	-44.3	-47.3	16.1	0.00e+00	0	43	0	74448896	60	5010
2026-01-29 11:47:28.94	230.71	10.68	-44.3	-47.4	16.0	0.00e+00	0	43	0	76546048	60	5046
2026-01-29 11:47:29.94	230.86	10.74	-44.1	-47.0	16.4	0.00e+00	0	43	0	78643200	60	4840
2026-01-29 11:47:30.93	231.00	10.80	-44.0	-46.9	16.4	0.00e+00	0	43	0	80740352	59	5066
2026-01-29 11:47:31.92	231.14	10.85	-44.0	-46.9	16.4	0.00e+00	0	43	0	81788928	59	5063
2026-01-29 11:47:32.92	231.28	10.91	-43.9	-46.8	16.6	0.00e+00	0	43	0	83886080	59	4984
2026-01-29 11:47:33.91	231.43	10.97	-44.0	-46.9	16.4	0.00e+00	0	43	0	85983232	59	5066
2026-01-29 11:47:34.90	231.57	11.02	-43.9	-46.7	16.7	0.00e+00	0	43	0	88080384	59	4947
2026-01-29 11:47:35.90	231.72	11.08	-43.8	-46.6	16.8	0.00e+00	0	43	0	89128960	59	4884
2026-01-29 11:47:36.89	231.86	11.14	-43.9	-46.7	16.6	0.00e+00	0	43	0	91226112	59	4969
2026-01-29 11:47:37.89	232.01	11.20	-43.6	-46.3	17.0	0.00e+00	0	43	0	93323264	59	4742
2026-01-29 11:47:38.88	232.15	11.25	-43.8	-46.6	16.7	0.00e+00	0	43	0	95420416	59	4926
2026-01-29 11:47:39.93	232.31	11.31	-43.6	-46.3	17.0	0.00e+00	0	43	0	97517568	59	4747
2026-01-29 11:47:40.88	232.45	11.37	-43.6	-46.4	17.0	0.00e+00	0	43	0	98566144	59	4766
2026-01-29 11:47:41.95	232.61	11.43	-43.5	-46.2	17.1	0.00e+00	0	43	0	100663296	59	4702
2026-01-29 11:47:42.85	232.74	11.48	-43.6	-46.3	17.0	0.00e+00	0	43	0	102760448	59	4755
2026-01-29 11:47:43.95	232.91	11.54	-43.5	-46.2	17.1	0.00e+00	0	43	0	104857600	58	4964
2026-01-29 11:47:44.80	233.04	11.59	-43.5	-46.2	17.1	0.00e+00	0	43	0	105906176	58	4963
2026-01-29 11:47:45.94	233.21	11.65	-43.4	-46.2	17.2	0.00e+00	0	43	0	108003328	58	4947
2026-01-29 11:47:46.79	233.34	11.70	-43.4	-46.1	17.2	0.00e+00	0	43	0	110100480	58	4923
2026-01-29 11:47:47.93	233.51	11.77	-43.4	-46.2	17.2	0.00e+00	0	43	0	112197632	58	4944
2026-01-29 11:47:48.78	233.64	11.81	-43.5	-46.2	17.1	0.00e+00	0	43	0	113246208	58	4967
2026-01-29 11:47:49.92	233.82	11.88	-43.7	-46.5	16.9	0.00e+00	0	44	0	116391936	58	5135
2026-01-29 11:47:50.77	233.95	11.93	-43.6	-46.4	17.0	0.00e+00	0	43	0	117440512	58	5095
2026-01-29 11:47:51.91	234.12	11.99	-43.7	-46.5	16.8	0.00e+00	0	43	0	119537664	58	5157
2026-01-29 11:47:52.76	234.26	12.04	-43.8	-46.6	16.8	0.00e+00	0	43	0	121634816	58	5182
2026-01-29 11:47:53.89	234.43	12.10	-43.7	-46.5	16.9	0.00e+00	0	43	0	123731968	58	5135
2026-01-29 11:47:54.76	234.57	12.15	-43.8	-46.6	16.8	0.00e+00	0	43	0	124780544	58	5166
2026-01-29 11:47:56.07	234.77	12.23	-43.8	-46.6	16.8	0.00e+00	0	43	0	127926272	58	5193
2026-01-29 11:47:56.78	234.89	12.27	-43.9	-46.7	16.7	0.00e+00	0	43	0	128974848	58	5266
2026-01-29 11:47:58.06	235.09	12.34	-43.7	-46.5	16.9	0.00e+00	0	43	0	131072000	58	5126
2026-01-29 11:47:58.78	235.20	12.38	-43.8	-46.6	16.8	0.00e+00	0	43	0	132120576	58	5190
2026-01-29 11:48:00.07	235.41	12.45	-43.7	-46.5	17.0	0.00e+00	0	43	0	135266304	58	5109
2026-01-29 11:48:00.79	235.52	12.49	-43.6	-46.3	17.1	0.00e+00	0	43	0	136314880	58	5004
2026-01-29 11:48:02.07	235.73	12.56	-43.6	-46.4	17.0	0.00e+00	0	43	0	138412032	58	5048
2026-01-29 11:48:02.78	235.84	12.60	-43.6	-46.4	17.1	0.00e+00	0	43	0	140509184	58	5045
2026-01-29 11:48:04.06	236.05	12.67	-43.6	-46.3	17.1	0.00e+00	0	43	0	142606336	58	5006
2026-01-29 11:48:04.99	236.20	12.72	-43.5	-46.3	17.1	0.00e+00	0	43	0	143654912	58	4996
2026-01-29 11:48:05.98	236.36	12.78	-43.7	-46.5	16.8	0.00e+00	0	43	0	145752064	58	5158
2026-01-29 11:48:06.98	236.53	12.83	-43.6	-46.3	17.1	0.00e+00	0	43	0	147849216	58	5020
2026-01-29 11:48:07.97	236.69	12.89	-43.7	-46.5	16.9	0.00e+00	0	43	0	149946368	58	5121
2026-01-29 11:48:08.97	236.85	12.94	-43.6	-46.3	17.1	0.00e+00	0	43	0	152043520	58	5024
2026-01-29 11:48:09.96	237.02	13.00	-43.4	-46.1	17.3	0.00e+00	0	43	0	153092096	58	4897
2026-01-29 11:48:10.96	237.18	13.05	-43.3	-45.9	17.5	0.00e+00	0	43	0	155189248	58	4808
2026-01-29 11:48:11.95	237.35	13.11	-43.3	-45.9	17.5	0.00e+00	0	43	0	157286400	58	4789
2026-01-29 11:48:12.95	237.52	13.16	-43.3	-45.9	17.6	0.00e+00	0	43	0	159383552	58	4762
2026-01-29 11:48:13.99	237.69	13.22	-43.2	-45.8	17.6	0.00e+00	0	43	0	161480704	58	4738
2026-01-29 11:48:14.98	237.86	13.27	-43.2	-45.7	17.6	0.00e+00	0	43	0	162529280	58	4690
2026-01-29 11:48:15.98	238.03	13.33	-43.1	-45.6	17.7	0.00e+00	0	43	0	164626432	58	4634
2026-01-29 11:48:16.97	238.19	13.38	-43.2	-45.8	17.6	0.00e+00	0	43	0	166723584	58	4727
2026-01-29 11:48:17.97	238.36	13.44	-43.2	-45.9	17.6	0.00e+00	0	43	0	168820736	58	4761
2026-01-29 11:48:18.96	238.53	13.49	-43.4	-46.1	17.4	0.00e+00	0	43	0	169869312	58	4882
2026-01-29 11:48:19.96	238.71	13.55	-43.5	-46.2	17.2	0.00e+00	0	43	0	171966464	58	4964
2026-01-29 11:48:20.95	238.88	13.60	-43.5	-46.1	17.3	0.00e+00	0	43	0	174063616	58	4919
2026-01-29 11:48:21.94	239.05	13.65	-43.5	-46.2	17.3	0.00e+00	0	43	0	176160768	58	4947
2026-01-29 11:48:22.94	239.22	13.71	-43.5	-46.2	17.2	0.00e+00	0	43	0	178257920	58	4959
2026-01-29 11:48:23.93	239.39	13.76	-43.4	-46.1	17.3	0.00e+00	0	43	0	179306496	58	4892
2026-01-29 11:48:24.93	239.57	13.81	-43.2	-45.9	17.5	0.00e+00	0	43	0	181403648	58	4788
2026-01-29 11:48:25.93	239.74	13.87	-43.1	-45.8	17.6	0.00e+00	0	43	0	183500800	58	4745
2026-01-29 11:48:26.92	239.91	13.92	-43.0	-45.7	17.7	0.00e+00	0	43	0	185597952	57	4948
2026-01-29 11:48:27.92	240.09	13.97	-42.9	-45.6	17.8	0.00e+00	0	43	0	186646528	57	4879
2026-01-29 11:48:28.97	240.28	14.03	-42.9	-45.6	17.8	0.00e+00	0	43	0	188743680	57	4911
2026-01-29 11:48:29.86	240.43	14.07	-42.7	-45.3	18.0	0.00e+00	0	43	0	190840832	57	4757
2026-01-29 11:48:31.17	240.67	14.14	-42.7	-45.4	18.0	0.00e+00	0	44	0	192937984	57	4769
2026-01-29 11:48:31.88	240.80	14.18	-42.7	-45.3	18.1	0.00e+00	0	43	0	195035136	57	4725
2026-01-29 11:48:33.16	241.02	14.25	-42.9	-45.5	17.8	0.00e+00	0	43	0	197132288	57	4860
2026-01-29 11:48:33.89	241.16	14.29	-42.8	-45.4	17.9	0.00e+00	0	43	0	198180864	57	4806
2026-01-29 11:48:35.16	241.39	14.35	-42.9	-45.5	17.9	0.00e+00	0	43	0	200278016	57	4839
2026-01-29 11:48:35.89	241.52	14.39	-43.0	-45.5	17.8	0.00e+00	0	43	0	202375168	57	4856
2026-01-29 11:48:37.17	241.75	14.46	-43.0	-45.5	17.8	0.00e+00	0	43	0	204472320	57	4865
2026-01-29 11:48:37.88	241.88	14.49	-43.1	-45.7	17.7	0.00e+00	0	43	0	205520896	57	4929
2026-01-29 11:48:39.16	242.11	14.56	-43.2	-45.8	17.6	0.00e+00	0	43	0	208666624	57	4996
2026-01-29 11:48:40.00	242.27	14.60	-43.2	-45.8	17.6	0.00e+00	0	43	0	209715200	57	5023
2026-01-29 11:48:41.13	242.48	14.66	-43.2	-45.8	17.5	0.00e+00	0	43	0	211812352	57	5020
2026-01-29 11:48:41.99	242.64	14.70	-43.2	-45.8	17.6	0.00e+00	0	43	0	213909504	57	5004
2026-01-29 11:48:43.12	242.85	14.76	-43.0	-45.6	17.7	0.00e+00	0	43	0	216006656	57	4912
2026-01-29 11:48:43.97	243.00	14.80	-43.1	-45.7	17.6	0.00e+00	0	44	0	217055232	57	4971
2026-01-29 11:48:45.11	243.22	14.86	-42.9	-45.4	18.0	0.00e+00	0	44	0	219152384	57	4792
2026-01-29 11:48:45.96	243.38	14.91	-42.9	-45.4	17.9	0.00e+00	0	43	0	221249536	57	4792
2026-01-29 11:48:47.10	243.59	14.96	-42.9	-45.5	17.9	0.00e+00	0	43	0	223346688	57	4816
2026-01-29 11:48:48.30	243.82	15.02	-43.1	-45.7	17.7	0.00e+00	0	43	0	225443840	57	4956
2026-01-29 11:48:49.32	244.01	15.07	-43.1	-45.8	17.6	0.00e+00	0	43	0	227540992	57	5019
2026-01-29 11:48:50.48	244.23	15.13	-43.3	-46.0	17.4	0.00e+00	0	44	0	229638144	57	5155
2026-01-29 11:48:51.33	244.39	15.17	-43.6	-46.3	17.1	0.00e+00	0	44	0	230686720	57	5306
2026-01-29 11:48:52.47	244.61	15.23	-43.4	-46.0	17.3	0.00e+00	0	44	0	232783872	57	5148
2026-01-29 11:48:53.33	244.78	15.27	-43.4	-46.0	17.3	0.00e+00	0	43	0	234881024	57	5156
2026-01-29 11:48:54.46	244.99	15.33	-43.5	-46.2	17.3	0.00e+00	0	44	0	236978176	57	5228
2026-01-29 11:48:55.31	245.16	15.37	-43.5	-46.1	17.3	0.00e+00	0	43	0	238026752	57	5216
2026-01-29 11:48:56.45	245.38	15.42	-43.4	-46.1	17.3	0.00e+00	0	43	0	241172480	57	5196
2026-01-29 11:48:57.30	245.54	15.46	-43.5	-46.3	17.1	0.00e+00	0	43	0	242221056	57	5283
2026-01-29 11:48:58.44	245.77	15.52	-43.7	-46.5	16.9	0.00e+00	0	43	0	244318208	58	5140
2026-01-29 11:48:59.29	245.93	15.56	-43.8	-46.6	16.9	0.00e+00	0	43	0	246415360	58	5190
2026-01-29 11:49:00.43	246.16	15.61	-43.9	-46.8	16.7	0.00e+00	0	43	0	248512512	58	5290
2026-01-29 11:49:01.28	246.32	15.65	-43.8	-46.6	16.9	0.00e+00	0	44	0	249561088	58	5200
2026-01-29 11:49:02.45	246.55	15.71	-43.8	-46.7	16.8	0.00e+00	0	44	0	251658240	58	5244
2026-01-29 11:49:03.31	246.72	15.75	-43.8	-46.6	16.9	0.00e+00	0	43	0	253755392	58	5180
2026-01-29 11:49:04.45	246.95	15.80	-43.8	-46.5	16.9	0.00e+00	0	44	0	255852544	58	5153
2026-01-29 11:49:05.30	247.12	15.84	-43.8	-46.5	17.0	0.00e+00	0	44	0	256901120	58	5126
2026-01-29 11:49:06.43	247.35	15.89	-43.8	-46.5	16.9	0.00e+00	0	43	0	258998272	58	5132
2026-01-29 11:49:07.28	247.52	15.93	-43.7	-46.5	17.0	0.00e+00	0	43	0	261095424	58	5123
2026-01-29 11:49:08.42	247.74	15.98	-43.7	-46.6	16.9	0.00e+00	0	44	0	263192576	58	5164
2026-01-29 11:49:09.27	247.92	16.02	-43.6	-46.5	16.9	0.00e+00	0	43	0	264241152	58	5159
2026-01-29 11:49:10.41	248.15	16.07	-43.4	-46.3	17.2	0.00e+00	0	43	0	266338304	58	4996
2026-01-29 11:49:11.26	248.32	16.11	-43.6	-46.5	16.9	0.00e+00	0	43	0	268435456	58	5150
2026-01-29 11:49:12.40	248.55	16.16	-43.6	-46.4	17.1	0.00e+00	0	43	0	270532608	58	5066
2026-01-29 11:49:13.25	248.72	16.20	-43.7	-46.5	16.9	0.00e+00	0	43	0	272629760	58	5152
2026-01-29 11:49:14.38	248.95	16.25	-44.0	-46.8	16.7	0.00e+00	0	43	0	274726912	58	5326
2026-01-29 11:49:15.23	249.13	16.28	-44.1	-46.9	16.5	0.00e+00	0	43	0	275775488	58	5388
2026-01-29 11:49:16.38	249.37	16.33	-44.1	-47.0	16.5	0.00e+00	0	43	0	277872640	58	5432
2026-01-29 11:49:17.24	249.54	16.37	-43.9	-46.7	16.8	0.00e+00	0	43	0	279969792	58	5265
2026-01-29 11:49:18.38	249.78	16.42	-43.9	-46.8	16.7	0.00e+00	0	44	0	282066944	58	5290
2026-01-29 11:49:19.23	249.95	16.46	-43.9	-46.7	16.8	0.00e+00	0	43	0	283115520	58	5269
2026-01-29 11:49:20.37	250.19	16.51	-43.7	-46.5	17.0	0.00e+00	0	44	0	285212672	58	5121
2026-01-29 11:49:21.22	250.37	16.54	-43.8	-46.5	17.0	0.00e+00	0	43	0	287309824	58	5140
2026-01-29 11:49:22.36	250.61	16.59	-44.0	-46.8	16.7	0.00e+00	0	44	0	289406976	58	5293
2026-01-29 11:49:23.29	250.80	16.63	-44.2	-47.0	16.5	0.00e+00	0	43	0	291504128	59	5147
2026-01-29 11:49:24.46	251.05	16.68	-44.3	-47.2	16.3	0.00e+00	0	44	0	293601280	59	5270
2026-01-29 11:49:25.31	251.23	16.71	-44.5	-47.5	16.0	0.00e+00	0	44	0	294649856	59	5433
2026-01-29 11:49:26.45	251.47	16.76	-44.4	-47.4	16.2	0.00e+00	0	43	0	296747008	59	5365
2026-01-29 11:49:27.30	251.65	16.79	-44.3	-47.2	16.3	0.00e+00	0	43	0	298844160	59	5258
2026-01-29 11:49:28.44	251.89	16.84	-44.1	-46.9	16.6	0.00e+00	0	43	0	300941312	59	5086
2026-01-29 11:49:29.29	252.07	16.87	-43.9	-46.7	16.8	0.00e+00	0	44	0	301989888	59	4964
2026-01-29 11:49:30.43	252.31	16.91	-43.9	-46.8	16.7	0.00e+00	0	43	0	304087040	59	5014
2026-01-29 11:49:31.28	252.50	16.95	-44.1	-47.0	16.5	0.00e+00	0	43	0	306184192	59	5119
2026-01-29 11:49:32.42	252.74	16.99	-44.0	-46.8	16.7	0.00e+00	0	44	0	308281344	59	5028
2026-01-29 11:49:33.27	252.92	17.02	-44.0	-46.8	16.7	0.00e+00	0	44	0	309329920	59	5019
2026-01-29 11:49:34.41	253.17	17.07	-43.8	-46.6	16.9	0.00e+00	0	43	0	311427072	59	4878
2026-01-29 11:49:35.26	253.35	17.10	-43.7	-46.4	17.1	0.00e+00	0	43	0	313524224	59	4771
2026-01-29 11:49:36.61	253.64	17.15	-43.6	-46.2	17.3	0.00e+00	0	44	0	315621376	59	4696
2026-01-29 11:49:37.32	253.80	17.18	-43.5	-46.1	17.3	0.00e+00	0	44	0	317718528	58	4926
2026-01-29 11:49:38.59	254.08	17.22	-43.8	-46.5	17.0	0.00e+00	0	44	0	319815680	58	5159
2026-01-29 11:49:39.31	254.23	17.25	-43.9	-46.7	16.8	0.00e+00	0	43	0	320864256	58	5260
2026-01-29 11:49:40.59	254.51	17.30	-43.9	-46.7	16.8	0.00e+00	0	43	0	322961408	58	5277
2026-01-29 11:49:41.37	254.68	17.32	-43.9	-46.8	16.7	0.00e+00	0	44	0	325058560	58	5322
2026-01-29 11:49:42.58	254.95	17.37	-43.8	-46.6	16.9	0.00e+00	0	44	0	327155712	58	5213
2026-01-29 11:49:43.43	255.14	17.40	-43.8	-46.7	16.9	0.00e+00	0	43	0	328204288	58	5232
2026-01-29 11:49:44.56	255.39	17.43	-43.4	-46.0	17.4	0.00e+00	0	44	0	331350016	58	4869
2026-01-29 11:49:45.58	255.61	17.47	-43.1	-45.7	17.8	0.00e+00	0	44	0	332398592	58	4661
2026-01-29 11:49:46.74	255.87	17.51	-43.0	-45.5	17.9	0.00e+00	0	44	0	334495744	57	4857
2026-01-29 11:49:47.60	256.06	17.54	-43.0	-45.5	17.9	0.00e+00	0	43	0	336592896	57	4851
2026-01-29 11:49:48.74	256.31	17.57	-43.0	-45.6	17.9	0.00e+00	0	44	0	338690048	57	4878
2026-01-29 11:49:49.59	256.50	17.60	-43.2	-45.7	17.7	0.00e+00	0	43	0	339738624	57	4979
2026-01-29 11:49:50.72	256.76	17.64	-43.6	-46.3	17.2	0.00e+00	0	43	0	342884352	57	5293
2026-01-29 11:49:51.57	256.95	17.67	-43.6	-46.2	17.3	0.00e+00	0	44	0	343932928	57	5261
2026-01-29 11:49:52.71	257.20	17.70	-43.7	-46.4	17.1	0.00e+00	0	44	0	346030080	58	5081
2026-01-29 11:49:53.56	257.39	17.73	-43.5	-46.2	17.3	0.00e+00	0	44	0	348127232	58	4960
2026-01-29 11:49:54.70	257.65	17.76	-43.5	-46.1	17.4	0.00e+00	0	44	0	350224384	58	4895
2026-01-29 11:49:55.55	257.84	17.79	-43.4	-46.1	17.4	0.00e+00	0	44	0	351272960	58	4878
2026-01-29 11:49:56.69	258.10	17.82	-43.4	-46.1	17.4	0.00e+00	0	44	0	353370112	58	4884
2026-01-29 11:49:57.55	258.30	17.85	-43.4	-46.0	17.6	0.00e+00	0	44	0	355467264	58	4839
2026-01-29 11:49:58.68	258.55	17.88	-43.3	-45.9	17.6	0.00e+00	0	44	0	357564416	58	4765
2026-01-29 11:49:59.54	258.75	17.91	-43.1	-45.7	17.8	0.00e+00	0	44	0	358612992	58	4669
2026-01-29 11:50:00.65	259.00	17.94	-42.8	-45.3	18.2	0.00e+00	0	44	0	360710144	57	4714
2026-01-29 11:50:01.50	259.20	17.96	-42.7	-45.1	18.3	0.00e+00	0	44	0	362807296	57	4614
2026-01-29 11:50:02.64	259.46	17.99	-42.6	-45.0	18.5	0.00e+00	0	44	0	364904448	56	4822
2026-01-29 11:50:03.49	259.65	18.02	-42.6	-45.0	18.4	0.00e+00	0	44	0	365953024	56	4861
2026-01-29 11:50:04.63	259.91	18.05	-42.8	-45.3	18.2	0.00e+00	0	43	0	368050176	56	5027
2026-01-29 11:50:05.48	260.11	18.07	-42.9	-45.4	18.1	0.00e+00	0	43	0	370147328	56	5069
2026-01-29 11:50:06.62	260.37	18.10	-43.2	-45.8	17.7	0.00e+00	0	43	0	372244480	56	5300
2026-01-29 11:50:07.47	260.57	18.12	-43.3	-45.9	17.6	0.00e+00	0	43	0	373293056	57	5080
2026-01-29 11:50:08.61	260.83	18.15	-43.2	-45.9	17.6	0.00e+00	0	44	0	376438784	57	5045
2026-01-29 11:50:09.47	261.03	18.17	-43.2	-45.8	17.7	0.00e+00	0	43	0	377487360	57	5000
2026-01-29 11:50:10.60	261.29	18.20	-43.1	-45.7	17.8	0.00e+00	0	44	0	379584512	57	4948
2026-01-29 11:50:11.46	261.49	18.22	-43.1	-45.7	17.8	0.00e+00	0	44	0	381681664	57	4964
2026-01-29 11:50:12.60	261.76	18.24	-43.1	-45.7	17.8	0.00e+00	0	43	0	383778816	57	4949
2026-01-29 11:50:13.45	261.95	18.26	-43.1	-45.6	17.9	0.00e+00	0	44	0	384827392	57	4916
2026-01-29 11:50:14.59	262.22	18.29	-42.9	-45.4	18.1	0.00e+00	0	44	0	386924544	57	4760
2026-01-29 11:50:15.44	262.42	18.31	-42.7	-45.2	18.2	0.00e+00	0	44	0	389021696	57	4700
2026-01-29 11:50:16.58	262.68	18.33	-42.7	-45.2	18.3	0.00e+00	0	43	0	391118848	57	4662
2026-01-29 11:50:17.60	262.92	18.35	-42.8	-45.3	18.2	0.00e+00	0	44	0	393216000	57	4726
2026-01-29 11:50:18.59	263.16	18.37	-42.7	-45.2	18.3	0.00e+00	0	43	0	394264576	57	4698
2026-01-29 11:50:19.59	263.39	18.39	-43.0	-45.5	18.0	0.00e+00	0	44	0	396361728	57	4852
2026-01-29 11:50:20.58	263.62	18.41	-43.1	-45.7	17.8	0.00e+00	0	43	0	398458880	57	4959
2026-01-29 11:50:21.58	263.86	18.43	-43.1	-45.6	17.9	0.00e+00	0	43	0	400556032	57	4913
2026-01-29 11:50:22.57	264.09	18.45	-43.0	-45.6	17.9	0.00e+00	0	44	0	401604608	57	4881
2026-01-29 11:50:23.57	264.33	18.47	-42.9	-45.5	18.0	0.00e+00	0	44	0	403701760	57	4820
2026-01-29 11:50:24.56	264.56	18.49	-42.7	-45.1	18.3	0.00e+00	0	43	0	405798912	57	4650
2026-01-29 11:50:25.56	264.80	18.51	-42.9	-45.3	18.1	0.00e+00	0	44	0	407896064	57	4752
2026-01-29 11:50:26.55	265.03	18.52	-43.1	-45.7	17.8	0.00e+00	0	43	0	409993216	57	4928
2026-01-29 11:50:27.55	265.27	18.54	-43.5	-46.1	17.4	0.00e+00	0	44	0	411041792	57	5170
2026-01-29 11:50:28.54	265.50	18.56	-43.7	-46.3	17.1	0.00e+00	0	43	0	413138944	58	5019
2026-01-29 11:50:29.54	265.74	18.57	-43.9	-46.6	16.9	0.00e+00	0	43	0	415236096	59	4907
2026-01-29 11:50:30.53	265.98	18.59	-43.8	-46.5	17.1	0.00e+00	0	44	0	417333248	59	4839
2026-01-29 11:50:31.53	266.21	18.60	-43.6	-46.2	17.3	0.00e+00	0	44	0	418381824	59	4698
2026-01-29 11:50:32.52	266.45	18.62	-43.5	-46.2	17.3	0.00e+00	0	44	0	420478976	58	4950
2026-01-29 11:50:33.52	266.69	18.63	-43.4	-46.0	17.5	0.00e+00	0	44	0	422576128	58	4839
2026-01-29 11:50:34.51	266.92	18.64	-43.7	-46.3	17.2	0.00e+00	0	44	0	424673280	58	5033
2026-01-29 11:50:35.51	267.16	18.65	-43.8	-46.5	17.1	0.00e+00	0	44	0	426770432	58	5122
2026-01-29 11:50:36.50	267.40	18.67	-44.1	-46.9	16.6	0.00e+00	0	43	0	427819008	58	5364
2026-01-29 11:50:37.50	267.64	18.68	-43.9	-46.6	17.0	0.00e+00	0	43	0	429916160	58	5200
2026-01-29 11:50:38.49	267.88	18.69	-43.6	-46.3	17.3	0.00e+00	0	44	0	432013312	58	5004
2026-01-29 11:50:39.49	268.12	18.70	-43.4	-46.1	17.4	0.00e+00	0	44	0	434110464	58	4877
2026-01-29 11:50:40.48	268.35	18.71	-43.5	-46.2	17.4	0.00e+00	0	43	0	435159040	58	4938
2026-01-29 11:50:41.48	268.59	18.72	-43.6	-46.3	17.3	0.00e+00	0	44	0	437256192	58	5020
2026-01-29 11:50:42.47	268.83	18.73	-44.0	-46.8	16.8	0.00e+00	0	44	0	439353344	58	5317
2026-01-29 11:50:43.47	269.07	18.74	-44.1	-47.0	16.6	0.00e+00	0	43	0	441450496	58	5436
2026-01-29 11:50:44.46	269.31	18.75	-44.1	-47.0	16.6	0.00e+00	0	44	0	443547648	59	5153
2026-01-29 11:50:45.46	269.55	18.76	-44.2	-47.1	16.5	0.00e+00	0	44	0	444596224	59	5206
2026-01-29 11:50:46.45	269.79	18.76	-44.1	-47.0	16.6	0.00e+00	0	44	0	446693376	59	5146
2026-01-29 11:50:47.45	270.03	18.77	-43.9	-46.7	16.9	0.00e+00	0	44	0	448790528	59	4936
2026-01-29 11:50:48.45	270.27	18.78	-43.8	-46.6	17.0	0.00e+00	0	44	0	450887680	59	4900
2026-01-29 11:50:49.44	270.50	18.78	-43.9	-46.7	16.9	0.00e+00	0	44	0	452984832	59	4983
2026-01-29 11:50:50.44	270.75	18.79	-43.8	-46.6	17.0	0.00e+00	0	44	0	454033408	59	4883
2026-01-29 11:50:51.43	270.98	18.79	-43.8	-46.5	17.0	0.00e+00	0	43	0	456130560	59	4849
2026-01-29 11:50:52.42	271.22	18.80	-43.9	-46.7	16.9	0.00e+00	0	44	0	458227712	59	4937
2026-01-29 11:50:53.42	271.46	18.80	-43.8	-46.5	17.1	0.00e+00	0	44	0	460324864	59	4860
2026-01-29 11:50:54.41	271.70	18.81	-43.6	-46.2	17.3	0.00e+00	0	44	0	461373440	59	4692
2026-01-29 11:50:55.41	271.94	18.81	-43.7	-46.3	17.3	0.00e+00	0	43	0	463470592	59	4724
2026-01-29 11:50:56.40	272.18	18.81	-43.6	-46.2	17.3	0.00e+00	0	44	0	465567744	59	4701
2026-01-29 11:50:57.40	272.42	18.81	-43.7	-46.3	17.2	0.00e+00	0	44	0	467664896	59	4751
2026-01-29 11:50:58.43	272.67	18.82	-43.7	-46.4	17.2	0.00e+00	0	44	0	469762048	59	4778
2026-01-29 11:50:59.43	272.91	18.82	-43.7	-46.5	17.1	0.00e+00	0	44	0	470810624	59	4816
2026-01-29 11:51:00.46	273.16	18.82	-43.5	-46.2	17.3	0.00e+00	0	43	0	472907776	59	4695
2026-01-29 11:51:01.46	273.40	18.82	-43.4	-46.1	17.5	0.00e+00	0	44	0	475004928	58	4896
2026-01-29 11:51:02.45	273.64	18.82	-43.4	-46.1	17.5	0.00e+00	0	44	0	477102080	58	4881
2026-01-29 11:51:03.44	273.88	18.82	-43.4	-46.0	17.5	0.00e+00	0	43	0	479199232	58	4841
2026-01-29 11:51:04.44	274.12	18.81	-43.6	-46.3	17.3	0.00e+00	0	44	0	480247808	58	4985
2026-01-29 11:51:05.43	274.36	18.81	-43.7	-46.4	17.1	0.00e+00	0	44	0	482344960	58	5089
2026-01-29 11:51:06.43	274.60	18.81	-43.8	-46.5	17.1	0.00e+00	0	43	0	484442112	58	5118
2026-01-29 11:51:07.42	274.84	18.81	-44.0	-46.7	16.9	0.00e+00	0	44	0	486539264	58	5263
2026-01-29 11:51:08.41	275.08	18.80	-43.9	-46.6	16.8	0.00e+00	0	44	0	487587840	58	5218
2026-01-29 11:51:09.41	275.32	18.80	-44.0	-46.8	16.8	0.00e+00	0	44	0	489684992	58	5284
2026-01-29 11:51:10.40	275.56	18.80	-44.2	-47.0	16.6	0.00e+00	0	44	0	491782144	58	5436
2026-01-29 11:51:11.40	275.80	18.79	-44.2	-47.0	16.6	0.00e+00	0	43	0	493879296	59	5122
2026-01-29 11:51:12.39	276.03	18.79	-44.4	-47.3	16.3	0.00e+00	0	43	0	495976448	59	5298
2026-01-29 11:51:13.39	276.28	18.78	-44.4	-47.4	16.3	0.00e+00	0	43	0	497025024	59	5345
2026-01-29 11:51:14.45	276.53	18.77	-44.3	-47.2	16.4	0.00e+00	0	43	0	499122176	59	5271
2026-01-29 11:51:15.30	276.73	18.77	-44.1	-46.9	16.7	0.00e+00	0	44	0	501219328	59	5078
2026-01-29 11:51:16.66	277.06	18.76	-43.8	-46.5	17.1	0.00e+00	0	44	0	503316480	59	4843
2026-01-29 11:51:17.37	277.23	18.75	-43.5	-46.1	17.5	0.00e+00	0	44	0	504365056	58	4884
2026-01-29 11:51:18.65	277.54	18.74	-43.3	-45.9	17.7	0.00e+00	0	44	0	507510784	58	4778
2026-01-29 11:51:19.39	277.72	18.74	-43.4	-46.0	17.5	0.00e+00	0	44	0	508559360	58	4866
2026-01-29 11:51:20.67	278.02	18.72	-43.5	-46.2	17.4	0.00e+00	0	44	0	510656512	58	4936
2026-01-29 11:51:21.41	278.20	18.72	-43.8	-46.5	17.1	0.00e+00	0	44	0	512753664	58	5119
2026-01-29 11:51:22.69	278.51	18.70	-43.8	-46.6	17.0	0.00e+00	0	44	0	514850816	58	5178
2026-01-29 11:51:23.45	278.69	18.70	-43.8	-46.6	17.0	0.00e+00	0	44	0	515899392	58	5175
2026-01-29 11:51:24.72	278.99	18.68	-44.0	-46.8	16.8	0.00e+00	0	44	0	519045120	58	5294
2026-01-29 11:51:25.48	279.17	18.67	-44.1	-46.9	16.7	0.00e+00	0	44	0	520093696	58	5351
2026-01-29 11:51:26.76	279.48	18.66	-44.1	-47.0	16.7	0.00e+00	0	44	0	522190848	58	5409
2026-01-29 11:51:27.57	279.67	18.65	-44.2	-47.1	16.5	0.00e+00	0	44	0	524288000	59	5172
2026-01-29 11:51:28.70	279.94	18.63	-44.3	-47.2	16.4	0.00e+00	0	44	0	526385152	59	5244
2026-01-29 11:51:29.73	280.19	18.62	-44.4	-47.4	16.2	0.00e+00	0	44	0	528482304	59	5360
2026-01-29 11:51:30.72	280.42	18.60	-44.4	-47.4	16.2	0.00e+00	0	43	0	529530880	59	5357
2026-01-29 11:51:31.92	280.71	18.59	-44.2	-47.2	16.4	0.00e+00	0	43	0	531628032	59	5221
2026-01-29 11:51:32.81	280.92	18.57	-44.3	-47.2	16.4	0.00e+00	0	44	0	533725184	59	5264
2026-01-29 11:51:34.12	281.23	18.55	-44.3	-47.3	16.3	0.00e+00	0	44	0	535822336	59	5296
2026-01-29 11:51:34.83	281.40	18.54	-44.3	-47.2	16.4	0.00e+00	0	44	0	537919488	59	5264
2026-01-29 11:51:36.11	281.70	18.52	-44.1	-47.0	16.6	0.00e+00	0	44	0	540016640	59	5109
2026-01-29 11:51:36.82	281.87	18.51	-44.0	-46.9	16.7	0.00e+00	0	44	0	541065216	59	5043
2026-01-29 11:51:38.10	282.17	18.49	-43.8	-46.7	16.9	0.00e+00	0	44	0	544210944	59	4942
2026-01-29 11:51:38.81	282.34	18.47	-43.8	-46.6	17.0	0.00e+00	0	44	0	545259520	59	4885
2026-01-29 11:51:40.09	282.64	18.45	-43.7	-46.5	17.1	0.00e+00	0	44	0	547356672	59	4823
2026-01-29 11:51:40.91	282.83	18.43	-43.6	-46.3	17.2	0.00e+00	0	44	0	549453824	59	4736
2026-01-29 11:51:42.05	283.10	18.41	-43.2	-45.7	17.8	0.00e+00	0	44	0	551550976	58	4703
2026-01-29 11:51:43.09	283.34	18.39	-43.1	-45.5	18.0	0.00e+00	0	44	0	553648128	58	4585
2026-01-29 11:51:44.21	283.60	18.37	-42.8	-45.2	18.3	0.00e+00	0	43	0	554696704	57	4694
2026-01-29 11:51:45.06	283.80	18.35	-42.8	-45.2	18.4	0.00e+00	0	44	0	556793856	57	4657
2026-01-29 11:51:46.20	284.07	18.33	-43.0	-45.5	18.1	0.00e+00	0	43	0	558891008	57	4837
2026-01-29 11:51:47.05	284.27	18.31	-43.1	-45.6	17.9	0.00e+00	0	43	0	560988160	57	4896
2026-01-29 11:51:48.19	284.53	18.28	-43.4	-45.9	17.6	0.00e+00	0	44	0	563085312	57	5100
2026-01-29 11:51:49.04	284.73	18.26	-43.6	-46.3	17.3	0.00e+00	0	44	0	564133888	57	5298
2026-01-29 11:51:50.18	285.00	18.24	-43.8	-46.5	17.1	0.00e+00	0	43	0	566231040	58	5144
2026-01-29 11:51:51.03	285.19	18.22	-43.8	-46.5	17.0	0.00e+00	0	44	0	568328192	58	5143
2026-01-29 11:51:52.17	285.46	18.19	-44.0	-46.8	16.8	0.00e+00	0	44	0	570425344	58	5294
2026-01-29 11:51:53.02	285.65	18.17	-44.0	-46.7	16.9	0.00e+00	0	44	0	571473920	58	5255
2026-01-29 11:51:54.16	285.92	18.14	-44.0	-46.7	16.9	0.00e+00	0	44	0	573571072	58	5255
2026-01-29 11:51:55.01	286.11	18.12	-44.0	-46.8	16.8	0.00e+00	0	44	0	575668224	58	5303
2026-01-29 11:51:56.15	286.37	18.09	-44.0	-46.8	16.8	0.00e+00	0	44	0	577765376	58	5302
2026-01-29 11:51:57.00	286.57	18.07	-43.9	-46.6	17.0	0.00e+00	0	44	0	578813952	58	5202
2026-01-29 11:51:58.14	286.83	18.04	-43.7	-46.3	17.3	0.00e+00	0	44	0	580911104	58	5039
2026-01-29 11:51:58.99	287.02	18.02	-43.6	-46.3	17.3	0.00e+00	0	43	0	583008256	58	4985
2026-01-29 11:52:00.13	287.28	17.99	-43.4	-46.0	17.6	0.00e+00	0	44	0	585105408	58	4824
2026-01-29 11:52:00.98	287.48	17.96	-43.3	-45.9	17.6	0.00e+00	0	44	0	586153984	58	4792
2026-01-29 11:52:02.11	287.74	17.93	-43.4	-45.9	17.6	0.00e+00	0	43	0	588251136	58	4810
2026-01-29 11:52:02.96	287.93	17.91	-43.5	-46.2	17.3	0.00e+00	0	44	0	590348288	58	4943
2026-01-29 11:52:04.10	288.19	17.87	-43.7	-46.4	17.2	0.00e+00	0	44	0	592445440	58	5045
2026-01-29 11:52:05.22	288.44	17.84	-43.8	-46.6	17.0	0.00e+00	0	44	0	594542592	58	5170
2026-01-29 11:52:06.08	288.64	17.82	-43.9	-46.7	16.9	0.00e+00	0	44	0	596639744	58	5244
2026-01-29 11:52:07.21	288.89	17.78	-43.8	-46.6	17.0	0.00e+00	0	44	0	598736896	58	5187
2026-01-29 11:52:08.07	289.08	17.76	-43.7	-46.4	17.2	0.00e+00	0	44	0	599785472	58	5077
2026-01-29 11:52:09.21	289.34	17.72	-43.6	-46.2	17.3	0.00e+00	0	44	0	601882624	58	4969
2026-01-29 11:52:10.06	289.53	17.70	-43.5	-46.2	17.4	0.00e+00	0	44	0	603979776	58	4930
2026-01-29 11:52:11.19	289.78	17.66	-43.3	-45.9	17.7	0.00e+00	0	44	0	606076928	58	4762
2026-01-29 11:52:12.05	289.97	17.63	-43.3	-45.8	17.7	0.00e+00	0	44	0	607125504	58	4744
2026-01-29 11:52:13.18	290.23	17.60	-43.4	-46.0	17.6	0.00e+00	0	44	0	609222656	58	4837
2026-01-29 11:52:14.03	290.42	17.57	-43.4	-46.0	17.5	0.00e+00	0	44	0	611319808	58	4847
2026-01-29 11:52:15.17	290.67	17.53	-43.5	-46.1	17.5	0.00e+00	0	44	0	613416960	58	4878
2026-01-29 11:52:16.02	290.86	17.50	-43.3	-45.8	17.7	0.00e+00	0	43	0	614465536	58	4752
2026-01-29 11:52:17.16	291.11	17.46	-43.3	-45.8	17.7	0.00e+00	0	43	0	616562688	58	4755
2026-01-29 11:52:18.01	291.30	17.44	-43.3	-45.8	17.8	0.00e+00	0	44	0	618659840	58	4746
2026-01-29 11:52:19.15	291.55	17.40	-43.0	-45.4	18.0	0.00e+00	0	44	0	620756992	58	4543
2026-01-29 11:52:20.00	291.73	17.37	-42.8	-45.2	18.2	0.00e+00	0	44	0	621805568	57	4704
2026-01-29 11:52:21.14	291.98	17.33	-42.8	-45.2	18.3	0.00e+00	0	44	0	624951296	57	4691
2026-01-29 11:52:22.10	292.19	17.29	-42.8	-45.3	18.2	0.00e+00	0	44	0	625999872	57	4706
2026-01-29 11:52:23.09	292.41	17.26	-42.8	-45.2	18.2	0.00e+00	0	44	0	628097024	57	4704
2026-01-29 11:52:24.09	292.62	17.22	-42.8	-45.3	18.2	0.00e+00	0	44	0	630194176	57	4708
2026-01-29 11:52:25.32	292.89	17.18	-42.9	-45.4	18.1	0.00e+00	0	44	0	632291328	57	4766
2026-01-29 11:52:26.21	293.08	17.14	-43.0	-45.4	18.0	0.00e+00	0	44	0	634388480	57	4814
2026-01-29 11:52:27.34	293.33	17.10	-42.9	-45.4	18.1	0.00e+00	0	44	0	636485632	57	4770
2026-01-29 11:52:28.28	293.53	17.07	-43.0	-45.5	18.0	0.00e+00	0	43	0	637534208	57	4831
2026-01-29 11:52:29.46	293.78	17.02	-42.8	-45.3	18.2	0.00e+00	0	44	0	639631360	57	4706
2026-01-29 11:52:30.31	293.96	16.99	-43.1	-45.6	17.9	0.00e+00	0	44	0	641728512	57	4899
2026-01-29 11:52:31.45	294.21	16.94	-43.1	-45.6	17.9	0.00e+00	0	44	0	643825664	57	4892
2026-01-29 11:52:32.31	294.39	16.91	-43.0	-45.5	17.9	0.00e+00	0	43	0	644874240	57	4867
2026-01-29 11:52:33.44	294.63	16.87	-43.1	-45.7	17.8	0.00e+00	0	44	0	648019968	57	4930
2026-01-29 11:52:34.29	294.81	16.83	-43.2	-45.7	17.8	0.00e+00	0	44	0	649068544	57	4968
2026-01-29 11:52:35.43	295.05	16.79	-43.1	-45.6	17.8	0.00e+00	0	44	0	651165696	57	4911
2026-01-29 11:52:36.28	295.23	16.75	-42.9	-45.4	18.1	0.00e+00	0	43	0	653262848	57	4781
2026-01-29 11:52:37.42	295.47	16.71	-43.0	-45.4	18.0	0.00e+00	0	44	0	655360000	57	4809
2026-01-29 11:52:38.27	295.65	16.67	-43.1	-45.6	17.9	0.00e+00	0	44	0	656408576	57	4890
2026-01-29 11:52:39.57	295.92	16.62	-43.1	-45.6	17.9	0.00e+00	0	44	0	658505728	57	4905
2026-01-29 11:52:40.28	296.07	16.59	-43.2	-45.8	17.7	0.00e+00	0	44	0	660602880	57	5030
2026-01-29 11:52:41.76	296.38	16.53	-43.3	-45.9	17.6	0.00e+00	0	44	0	662700032	57	5068
2026-01-29 11:52:42.47	296.52	16.50	-43.2	-45.8	17.7	0.00e+00	0	44	0	664797184	57	5015
2026-01-29 11:52:43.83	296.80	16.44	-43.2	-45.8	17.7	0.00e+00	0	44	0	666894336	57	4984
2026-01-29 11:52:44.54	296.95	16.41	-43.1	-45.6	17.8	0.00e+00	0	44	0	667942912	57	4895
2026-01-29 11:52:45.82	297.21	16.36	-42.8	-45.3	18.1	0.00e+00	0	44	0	671088640	57	4747
2026-01-29 11:52:46.53	297.36	16.33	-42.8	-45.3	18.1	0.00e+00	0	44	0	672137216	57	4734
2026-01-29 11:52:47.80	297.62	16.27	-42.8	-45.2	18.2	0.00e+00	0	43	0	674234368	57	4663
2026-01-29 11:52:48.52	297.77	16.24	-42.8	-45.2	18.3	0.00e+00	0	44	0	675282944	57	4668
2026-01-29 11:52:49.80	298.03	16.19	-43.1	-45.6	17.9	0.00e+00	0	44	0	678428672	57	4879
2026-01-29 11:52:50.53	298.17	16.15	-43.1	-45.6	17.8	0.00e+00	0	44	0	679477248	57	4926
2026-01-29 11:52:51.80	298.43	16.10	-43.3	-45.8	17.6	0.00e+00	0	44	0	681574400	57	5030
2026-01-29 11:52:52.53	298.58	16.06	-43.3	-45.9	17.6	0.00e+00	0	44	0	683671552	57	5054
2026-01-29 11:52:53.81	298.83	16.01	-43.1	-45.6	17.8	0.00e+00	0	44	0	685768704	57	4905
2026-01-29 11:52:54.63	299.00	15.97	-43.0	-45.5	17.9	0.00e+00	0	44	0	686817280	57	4849
2026-01-29 11:52:55.77	299.23	15.92	-43.0	-45.5	18.0	0.00e+00	0	43	0	688914432	57	4829
2026-01-29 11:52:56.78	299.43	15.87	-43.1	-45.6	17.8	0.00e+00	0	44	0	691011584	57	4892
2026-01-29 11:52:57.77	299.62	15.83	-43.3	-45.8	17.6	0.00e+00	0	44	0	693108736	57	5033
2026-01-29 11:52:58.77	299.82	15.78	-43.4	-46.1	17.4	0.00e+00	0	44	0	695205888	57	5161
2026-01-29 11:52:59.76	300.02	15.74	-43.9	-46.7	16.9	0.00e+00	0	44	0	697303040	58	5228
2026-01-29 11:53:00.76	300.21	15.69	-44.2	-47.1	16.3	0.00e+00	0	44	0	698351616	59	5191
2026-01-29 11:53:01.75	300.41	15.64	-44.4	-47.3	16.2	0.00e+00	0	44	0	700448768	59	5332
2026-01-29 11:53:02.74	300.60	15.60	-44.4	-47.3	16.2	0.00e+00	0	44	0	702545920	59	5307
2026-01-29 11:53:03.74	300.79	15.55	-44.3	-47.1	16.3	0.00e+00	0	44	0	704643072	59	5211
2026-01-29 11:53:04.73	300.99	15.50	-43.9	-46.7	16.8	0.00e+00	0	44	0	705691648	59	4967
2026-01-29 11:53:05.82	301.20	15.45	-43.9	-46.6	16.8	0.00e+00	0	44	0	707788800	59	4906
2026-01-29 11:53:06.71	301.37	15.41	-43.7	-46.4	17.1	0.00e+00	0	44	0	709885952	59	4785
2026-01-29 11:53:07.84	301.59	15.35	-43.5	-46.2	17.3	0.00e+00	0	44	0	711983104	58	4954
2026-01-29 11:53:08.69	301.75	15.31	-43.3	-45.9	17.5	0.00e+00	0	44	0	714080256	58	4802
2026-01-29 11:53:09.83	301.97	15.26	-43.3	-45.8	17.6	0.00e+00	0	44	0	716177408	58	4744
2026-01-29 11:53:10.69	302.13	15.22	-43.3	-45.9	17.6	0.00e+00	0	44	0	717225984	58	4793
2026-01-29 11:53:11.82	302.35	15.16	-43.4	-46.0	17.5	0.00e+00	0	43	0	719323136	58	4831
2026-01-29 11:53:12.68	302.51	15.12	-43.4	-46.1	17.4	0.00e+00	0	44	0	721420288	58	4871
2026-01-29 11:53:13.81	302.72	15.06	-43.5	-46.1	17.3	0.00e+00	0	44	0	723517440	58	4924
2026-01-29 11:53:14.67	302.88	15.02	-43.6	-46.3	17.2	0.00e+00	0	44	0	724566016	58	4993
2026-01-29 11:53:15.80	303.10	14.96	-43.5	-46.2	17.2	0.00e+00	0	44	0	726663168	58	4943
2026-01-29 11:53:16.65	303.26	14.92	-43.6	-46.3	17.1	0.00e+00	0	44	0	728760320	58	5035
2026-01-29 11:53:17.79	303.47	14.87	-44.0	-46.8	16.7	0.00e+00	0	44	0	730857472	58	5303
2026-01-29 11:53:18.64	303.63	14.82	-44.0	-46.9	16.6	0.00e+00	0	43	0	731906048	58	5386
2026-01-29 11:53:19.78	303.84	14.77	-44.5	-47.6	15.8	0.00e+00	0	44	0	734003200	59	5499
2026-01-29 11:53:20.63	303.99	14.72	-44.8	-48.0	15.5	0.00e+00	0	44	0	736100352	60	5454
2026-01-29 11:53:21.77	304.20	14.67	-44.9	-48.3	15.3	0.00e+00	0	44	0	738197504	60	5597
2026-01-29 11:53:22.62	304.36	14.62	-45.0	-48.3	15.3	0.00e+00	0	44	0	739246080	60	5620
2026-01-29 11:53:23.76	304.57	14.56	-45.0	-48.3	15.2	0.00e+00	0	44	0	741343232	60	5635
2026-01-29 11:53:24.61	304.72	14.52	-44.9	-48.2	15.3	0.00e+00	0	44	0	743440384	60	5585
2026-01-29 11:53:25.75	304.93	14.46	-44.6	-47.7	15.8	0.00e+00	0	44	0	745537536	60	5266
2026-01-29 11:53:26.60	305.08	14.42	-44.6	-47.6	15.9	0.00e+00	0	44	0	747634688	60	5204
2026-01-29 11:53:27.74	305.29	14.36	-44.5	-47.5	16.0	0.00e+00	0	44	0	749731840	60	5124
2026-01-29 11:53:28.59	305.44	14.32	-44.4	-47.3	16.2	0.00e+00	0	44	0	750780416	60	5036
2026-01-29 11:53:29.93	305.68	14.25	-44.5	-47.5	16.0	0.00e+00	0	44	0	752877568	60	5125
2026-01-29 11:53:30.64	305.81	14.21	-44.5	-47.5	16.1	0.00e+00	0	44	0	754974720	60	5135
2026-01-29 11:53:31.92	306.03	14.14	-44.3	-47.3	16.2	0.00e+00	0	44	0	757071872	60	5004
2026-01-29 11:53:32.65	306.16	14.10	-44.2	-47.1	16.4	0.00e+00	0	44	0	758120448	60	4891
2026-01-29 11:53:33.93	306.39	14.04	-44.0	-46.9	16.6	0.00e+00	0	44	0	761266176	59	5062
2026-01-29 11:53:34.66	306.52	14.00	-44.0	-46.8	16.6	0.00e+00	0	44	0	762314752	59	5040
2026-01-29 11:53:36.24	306.80	13.92	-44.0	-46.9	16.6	0.00e+00	0	44	0	765460480	59	5071
2026-01-29 11:53:37.13	306.95	13.87	-44.0	-46.9	16.6	0.00e+00	0	44	0	766509056	59	5046
2026-01-29 11:53:38.25	307.14	13.81	-44.1	-47.0	16.5	0.00e+00	0	44	0	768606208	59	5137
2026-01-29 11:53:39.10	307.29	13.77	-44.3	-47.2	16.3	0.00e+00	0	44	0	770703360	59	5224
2026-01-29 11:53:40.24	307.49	13.70	-44.3	-47.2	16.3	0.00e+00	0	44	0	772800512	59	5229
2026-01-29 11:53:41.09	307.64	13.66	-44.4	-47.3	16.1	0.00e+00	0	44	0	774897664	59	5336
2026-01-29 11:53:42.22	307.83	13.60	-44.3	-47.3	16.2	0.00e+00	0	44	0	775946240	59	5288
2026-01-29 11:53:43.08	307.98	13.55	-44.3	-47.2	16.2	0.00e+00	0	44	0	778043392	59	5273
2026-01-29 11:53:44.29	308.18	13.49	-44.5	-47.5	16.0	0.00e+00	0	44	0	780140544	59	5410
2026-01-29 11:53:45.15	308.33	13.44	-44.3	-47.2	16.2	0.00e+00	0	44	0	782237696	59	5268
2026-01-29 11:53:46.28	308.52	13.38	-44.5	-47.5	16.0	0.00e+00	0	44	0	784334848	59	5458
2026-01-29 11:53:47.13	308.66	13.33	-44.4	-47.5	16.0	0.00e+00	0	44	0	785383424	59	5427
2026-01-29 11:53:48.27	308.85	13.27	-44.6	-47.7	15.7	0.00e+00	0	44	0	787480576	59	5578
2026-01-29 11:53:49.12	309.00	13.23	-44.6	-47.8	15.7	0.00e+00	0	44	0	789577728	59	5604
2026-01-29 11:53:50.26	309.18	13.17	-44.5	-47.6	15.8	0.00e+00	0	44	0	791674880	59	5518
2026-01-29 11:53:51.11	309.33	13.12	-44.4	-47.5	15.9	0.00e+00	0	44	0	792723456	59	5459
2026-01-29 11:53:52.25	309.51	13.06	-44.3	-47.3	16.2	0.00e+00	0	44	0	794820608	59	5301
2026-01-29 11:53:53.10	309.65	13.01	-44.3	-47.3	16.1	0.00e+00	0	44	0	796917760	59	5315
2026-01-29 11:53:54.24	309.84	12.95	-44.1	-47.1	16.3	0.00e+00	0	44	0	799014912	59	5161
2026-01-29 11:53:55.09	309.98	12.90	-44.0	-46.9	16.5	0.00e+00	0	43	0	801112064	59	5077
2026-01-29 11:53:56.23	310.17	12.84	-44.2	-47.3	16.1	0.00e+00	0	44	0	803209216	59	5293
2026-01-29 11:53:57.08	310.30	12.79	-44.4	-47.4	16.0	0.00e+00	0	44	0	804257792	59	5395
2026-01-29 11:53:58.22	310.49	12.73	-44.5	-47.5	16.0	0.00e+00	0	44	0	806354944	59	5440
2026-01-29 11:53:59.07	310.63	12.68	-44.4	-47.4	16.0	0.00e+00	0	44	0	808452096	59	5396
2026-01-29 11:54:00.21	310.81	12.62	-44.2	-47.3	16.2	0.00e+00	0	44	0	810549248	59	5287
2026-01-29 11:54:01.06	310.95	12.57	-44.4	-47.5	15.9	0.00e+00	0	44	0	811597824	59	5441
2026-01-29 11:54:02.20	311.13	12.51	-44.2	-47.3	16.1	0.00e+00	0	44	0	813694976	59	5289
2026-01-29 11:54:03.05	311.26	12.46	-44.1	-47.1	16.3	0.00e+00	0	44	0	815792128	59	5164
2026-01-29 11:54:04.33	311.47	12.39	-43.9	-46.8	16.5	0.00e+00	0	44	0	817889280	59	5036
2026-01-29 11:54:05.04	311.58	12.35	-43.7	-46.6	16.8	0.00e+00	0	44	0	818937856	59	4919
2026-01-29 11:54:06.32	311.78	12.28	-43.6	-46.4	17.0	0.00e+00	0	44	0	822083584	59	4790
2026-01-29 11:54:07.03	311.89	12.24	-43.4	-46.2	17.2	0.00e+00	0	44	0	823132160	58	4928
2026-01-29 11:54:08.31	312.09	12.17	-43.6	-46.4	17.0	0.00e+00	0	44	0	825229312	58	5096
2026-01-29 11:54:09.05	312.20	12.13	-43.6	-46.5	16.9	0.00e+00	0	44	0	826277888	58	5128
2026-01-29 11:54:10.65	312.45	12.04	-43.7	-46.6	16.8	0.00e+00	0	44	0	829423616	58	5164
2026-01-29 11:54:11.22	312.54	12.01	-43.7	-46.5	16.8	0.00e+00	0	44	0	830472192	58	5156
2026-01-29 11:54:12.92	312.80	11.91	-43.7	-46.5	16.9	0.00e+00	0	44	0	833617920	58	5149
2026-01-29 11:54:13.49	312.89	11.88	-43.8	-46.7	16.7	0.00e+00	0	44	0	834666496	58	5234
2026-01-29 11:54:15.20	313.15	11.79	-43.7	-46.5	16.9	0.00e+00	0	44	0	837812224	58	5105
2026-01-29 11:54:15.77	313.24	11.75	-43.6	-46.4	17.0	0.00e+00	0	44	0	838860800	58	5044
2026-01-29 11:54:17.47	313.49	11.66	-43.4	-46.2	17.2	0.00e+00	0	44	0	843055104	58	4928
2026-01-29 11:54:18.04	313.58	11.63	-43.4	-46.1	17.2	0.00e+00	0	44	0	844103680	58	4910
2026-01-29 11:54:19.75	313.83	11.53	-43.4	-46.2	17.2	0.00e+00	0	44	0	847249408	58	4954
2026-01-29 11:54:20.32	313.92	11.50	-43.4	-46.1	17.2	0.00e+00	0	44	0	848297984	58	4915
2026-01-29 11:54:22.02	314.17	11.40	-43.7	-46.5	16.9	0.00e+00	0	44	0	851443712	58	5105
2026-01-29 11:54:22.59	314.26	11.37	-43.7	-46.5	16.9	0.00e+00	0	44	0	852492288	58	5105
2026-01-29 11:54:24.30	314.51	11.27	-43.8	-46.7	16.7	0.00e+00	0	44	0	855638016	58	5223
2026-01-29 11:54:24.87	314.59	11.24	-43.8	-46.6	16.8	0.00e+00	0	44	0	856686592	58	5170
2026-01-29 11:54:26.65	314.85	11.14	-43.7	-46.4	16.9	0.00e+00	0	44	0	859832320	58	5089
2026-01-29 11:54:27.22	314.93	11.11	-43.6	-46.3	17.0	0.00e+00	0	44	0	860880896	58	5035
2026-01-29 11:54:28.92	315.18	11.01	-43.4	-46.1	17.2	0.00e+00	0	44	0	864026624	58	4900
2026-01-29 11:54:29.49	315.26	10.98	-43.5	-46.1	17.2	0.00e+00	0	44	0	865075200	58	4923
2026-01-29 11:54:31.20	315.51	10.88	-43.2	-45.8	17.5	0.00e+00	0	44	0	868220928	58	4750
2026-01-29 11:54:31.77	315.59	10.85	-43.0	-45.6	17.7	0.00e+00	0	44	0	869269504	58	4632
2026-01-29 11:54:33.47	315.83	10.76	-43.1	-45.7	17.6	0.00e+00	0	44	0	872415232	57	4949
2026-01-29 11:54:34.04	315.91	10.72	-43.2	-45.8	17.5	0.00e+00	0	44	0	873463808	57	5038
2026-01-29 11:54:35.75	316.15	10.63	-43.5	-46.3	17.1	0.00e+00	0	44	0	876609536	57	5305
2026-01-29 11:54:36.39	316.24	10.59	-43.5	-46.3	17.0	0.00e+00	0	44	0	877658112	57	5309
2026-01-29 11:54:37.82	316.44	10.51	-43.3	-46.1	17.2	0.00e+00	0	44	0	880803840	57	5181
2026-01-29 11:54:38.53	316.54	10.47	-43.4	-46.2	17.1	0.00e+00	0	44	0	881852416	57	5255
2026-01-29 11:54:39.81	316.72	10.40	-43.3	-46.1	17.2	0.00e+00	0	44	0	883949568	57	5166
2026-01-29 11:54:40.71	316.84	10.34	-43.5	-46.3	16.9	0.00e+00	0	44	0	886046720	57	5339
2026-01-29 11:54:41.81	316.99	10.28	-43.6	-46.5	16.8	0.00e+00	0	44	0	888143872	58	5119
2026-01-29 11:54:42.85	317.14	10.22	-43.6	-46.4	17.0	0.00e+00	0	44	0	890241024	58	5047
2026-01-29 11:54:43.82	317.27	10.17	-43.7	-46.5	16.9	0.00e+00	0	44	0	892338176	58	5123
2026-01-29 11:54:44.81	317.40	10.11	-43.7	-46.6	16.8	0.00e+00	0	44	0	893386752	58	5167
2026-01-29 11:54:45.81	317.54	10.05	-43.8	-46.6	16.7	0.00e+00	0	44	0	895483904	58	5197
2026-01-29 11:54:46.81	317.67	10.00	-44.0	-46.9	16.5	0.00e+00	0	44	0	897581056	58	5367
2026-01-29 11:54:47.80	317.81	9.94	-44.1	-47.1	16.3	0.00e+00	0	44	0	899678208	58	5473
2026-01-29 11:54:48.79	317.94	9.88	-44.1	-47.1	16.2	0.00e+00	0	44	0	901775360	59	5178
2026-01-29 11:54:49.79	318.07	9.83	-44.2	-47.3	16.0	0.00e+00	0	44	0	902823936	59	5289
2026-01-29 11:54:50.78	318.21	9.77	-44.1	-47.1	16.2	0.00e+00	0	44	0	904921088	59	5191
2026-01-29 11:54:51.84	318.35	9.71	-44.1	-47.1	16.3	0.00e+00	0	44	0	907018240	59	5160
2026-01-29 11:54:52.74	318.46	9.66	-43.9	-46.8	16.5	0.00e+00	0	44	0	909115392	59	4990
2026-01-29 11:54:53.86	318.61	9.60	-43.7	-46.6	16.7	0.00e+00	0	44	0	911212544	59	4900
2026-01-29 11:54:54.71	318.72	9.55	-43.6	-46.4	16.8	0.00e+00	0	44	0	912261120	59	4803
2026-01-29 11:54:56.07	318.90	9.47	-43.4	-46.3	17.0	0.00e+00	0	44	0	915406848	58	4997
2026-01-29 11:54:56.78	318.99	9.43	-43.3	-46.2	17.1	0.00e+00	0	44	0	916455424	58	4960
2026-01-29 11:54:58.06	319.16	9.36	-43.4	-46.4	16.9	0.00e+00	0	44	0	918552576	58	5059
2026-01-29 11:54:58.79	319.25	9.32	-43.2	-46.2	17.1	0.00e+00	0	44	0	919601152	58	4928
2026-01-29 11:55:00.07	319.42	9.24	-43.2	-46.2	17.1	0.00e+00	0	44	0	922746880	58	4960
2026-01-29 11:55:00.78	319.51	9.20	-43.4	-46.5	16.8	0.00e+00	0	44	0	923795456	58	5140
2026-01-29 11:55:02.06	319.67	9.13	-43.4	-46.7	16.6	0.00e+00	0	44	0	925892608	58	5225
2026-01-29 11:55:02.78	319.76	9.09	-43.6	-47.0	16.3	0.00e+00	0	44	0	927989760	58	5414
2026-01-29 11:55:04.06	319.93	9.02	-43.9	-47.3	16.0	0.00e+00	0	44	0	930086912	58	5652
2026-01-29 11:55:04.87	320.03	8.97	-47.2	-55.4	8.4	0.00e+00	0	44	0	931135488	64	10079
2026-01-29 11:55:06.00	320.17	8.91	-48.7	-64.4	3.8	1.49e+00	0	44	104	932184064	68	22726
2026-01-29 11:55:06.85	320.28	8.86	-49.0	-64.4	3.8	1.49e+00	0	44	104	932184064	68	22710
2026-01-29 11:55:07.99	320.42	8.79	-48.8	-64.5	3.8	1.49e+00	0	44	104	932184064	68	22893
2026-01-29 11:55:08.84	320.52	8.75	-48.9	-64.5	3.8	1.49e+00	0	44	104	932184064	69	21585
2026-01-29 11:55:09.97	320.66	8.68	-49.2	-64.5	3.8	1.49e+00	0	44	104	932184064	69	21634
2026-01-29 11:55:10.83	320.77	8.63	-49.2	-64.5	3.8	1.49e+00	0	44	104	932184064	69	21519
2026-01-29 11:55:11.96	320.91	8.57	-49.3	-64.6	3.8	1.49e+00	0	44	104	932184064	69	21766
2026-01-29 11:55:12.81	321.01	8.52	-49.2	-64.6	3.8	1.49e+00	0	44	104	932184064	69	21800
2026-01-29 11:55:13.95	321.15	8.46	-49.4	-64.6	3.8	1.49e+00	0	44	104	932184064	69	21908
2026-01-29 11:55:14.80	321.26	8.41	-49.4	-64.6	3.8	1.49e+00	0	44	104	932184064	69	21862
2026-01-29 11:55:15.94	321.39	8.34	-49.3	-64.6	3.8	1.49e+00	0	44	104	932184064	69	21953
2026-01-29 11:55:16.79	321.50	8.29	-49.3	-64.6	3.8	1.49e+00	0	44	104	932184064	69	21976
2026-01-29 11:55:17.92	321.63	8.23	-49.3	-64.6	3.8	1.49e+00	0	44	104	932184064	69	21889
2026-01-29 11:55:18.78	321.73	8.18	-49.3	-64.6	3.8	1.49e+00	0	44	104	932184064	69	21966
2026-01-29 11:55:19.91	321.87	8.12	-49.3	-64.6	3.8	1.49e+00	0	44	104	932184064	69	21886
2026-01-29 11:55:20.76	321.97	8.07	-49.3	-64.7	3.8	1.49e+00	0	44	104	932184064	69	22081
2026-01-29 11:55:21.90	322.11	8.01	-49.3	-64.6	3.8	1.49e+00	0	44	104	932184064	69	21972
2026-01-29 11:55:22.75	322.21	7.96	-49.3	-64.6	3.8	1.49e+00	0	44	104	932184064	69	21954
2026-01-29 11:55:23.88	322.34	7.89	-49.3	-64.6	3.8	1.49e+00	0	44	104	932184064	69	21939
2026-01-29 11:55:24.74	322.44	7.85	-49.3	-64.6	3.8	1.49e+00	0	44	104	932184064	69	21964
2026-01-29 11:55:25.87	322.57	7.78	-49.3	-64.6	3.8	1.49e+00	0	44	104	932184064	69	21947
2026-01-29 11:55:26.72	322.67	7.73	-49.3	-64.6	3.8	1.49e+00	0	44	104	932184064	69	21933
2026-01-29 11:55:27.86	322.80	7.67	-49.3	-64.6	3.8	1.49e+00	0	44	104	932184064	69	21885
2026-01-29 11:55:28.71	322.90	7.62	-49.3	-64.6	3.8	1.49e+00	0	44	104	932184064	69	21923
2026-01-29 11:55:29.84	323.03	7.56	-49.3	-64.6	3.8	1.49e+00	0	44	104	932184064	69	21947
2026-01-29 11:55:30.70	323.13	7.51	-49.3	-64.6	3.8	1.49e+00	0	44	104	932184064	69	21934
2026-01-29 11:55:31.83	323.26	7.45	-49.4	-64.6	3.8	1.49e+00	0	44	104	932184064	69	21907
2026-01-29 11:55:32.68	323.35	7.40	-49.3	-64.7	3.8	1.49e+00	0	44	104	932184064	69	22060
2026-01-29 11:55:33.82	323.48	7.33	-49.3	-64.6	3.8	1.49e+00	0	44	104	932184064	69	21973
2026-01-29 11:55:34.67	323.58	7.29	-49.3	-64.6	3.8	1.49e+00	0	44	104	932184064	69	21982
2026-01-29 11:55:35.81	323.71	7.22	-49.3	-64.6	3.8	1.49e+00	0	44	104	932184064	69	21996
2026-01-29 11:55:36.66	323.80	7.18	-49.3	-64.7	3.8	1.49e+00	0	44	104	932184064	69	22044
2026-01-29 11:55:37.79	323.93	7.11	-49.3	-64.6	3.8	1.49e+00	0	44	104	932184064	69	21998
2026-01-29 11:55:38.65	324.02	7.06	-49.3	-64.6	3.8	1.49e+00	0	44	104	932184064	69	21944
2026-01-29 11:55:39.78	324.15	7.00	-49.3	-64.6	3.8	1.49e+00	0	44	104	932184064	69	21930
2026-01-29 11:55:40.63	324.24	6.95	-49.3	-64.6	3.8	1.49e+00	0	44	104	932184064	69	21928
2026-01-29 11:55:41.77	324.37	6.89	-49.3	-64.6	3.8	1.49e+00	0	44	104	932184064	69	21890
2026-01-29 11:55:42.62	324.46	6.84	-49.3	-64.6	3.8	1.49e+00	0	44	104	932184064	69	21899
2026-01-29 11:55:43.75	324.59	6.78	-49.3	-64.6	3.8	1.49e+00	0	44	104	932184064	69	21880
2026-01-29 11:55:44.60	324.68	6.73	-49.3	-64.7	3.8	1.49e+00	0	44	104	932184064	69	22009
2026-01-29 11:55:45.74	324.80	6.67	-49.3	-64.6	3.8	1.49e+00	0	44	104	932184064	69	21950
2026-01-29 11:55:46.59	324.89	6.62	-49.3	-64.6	3.8	1.49e+00	0	44	104	932184064	69	21926
2026-01-29 11:55:47.73	325.02	6.56	-49.3	-64.6	3.8	1.49e+00	0	44	104	932184064	69	21936
2026-01-29 11:55:48.58	325.11	6.51	-49.3	-64.6	3.8	1.49e+00	0	44	104	932184064	69	21897
2026-01-29 11:55:49.71	325.23	6.45	-49.3	-64.6	3.8	1.49e+00	0	44	104	932184064	69	21932
2026-01-29 11:55:50.56	325.32	6.40	-49.3	-64.6	3.8	1.49e+00	0	44	104	932184064	69	21957
2026-01-29 11:55:51.70	325.44	6.34	-49.3	-64.6	3.8	1.49e+00	0	44	104	932184064	69	21926
2026-01-29 11:55:52.55	325.53	6.29	-49.3	-64.6	3.8	1.49e+00	0	44	104	932184064	69	21920
2026-01-29 11:55:53.69	325.65	6.23	-49.3	-64.6	3.8	1.49e+00	0	44	104	932184064	69	21913
2026-01-29 11:55:54.54	325.74	6.18	-49.3	-64.6	3.8	1.49e+00	0	44	104	932184064	69	21949
2026-01-29 11:55:55.68	325.86	6.12	-49.3	-64.6	3.8	1.49e+00	0	44	104	932184064	69	21847
2026-01-29 11:55:56.53	325.95	6.07	-49.3	-64.6	3.8	1.49e+00	0	44	104	932184064	69	21865
2026-01-29 11:55:57.66	326.06	6.01	-49.3	-64.6	3.8	1.49e+00	0	44	104	932184064	69	21864
2026-01-29 11:55:58.51	326.15	5.96	-49.3	-64.6	3.8	1.49e+00	0	44	104	932184064	69	21822
2026-01-29 11:55:59.65	326.27	5.90	-49.3	-64.6	3.8	1.49e+00	0	44	104	932184064	69	21981
2026-01-29 11:56:00.50	326.36	5.85	-49.3	-64.6	3.8	1.49e+00	0	44	104	932184064	69	21891
2026-01-29 11:56:01.63	326.47	5.79	-49.3	-64.6	3.8	1.49e+00	0	44	104	932184064	69	21899
2026-01-29 11:56:02.49	326.56	5.74	-49.3	-64.6	3.8	1.49e+00	0	44	104	932184064	69	21999
2026-01-29 11:56:03.62	326.68	5.68	-49.3	-64.6	3.8	1.49e+00	0	44	104	932184064	69	21801
2026-01-29 11:56:04.47	326.76	5.63	-49.3	-64.6	3.8	1.49e+00	0	44	104	932184064	69	21947
2026-01-29 11:56:05.61	326.88	5.57	-49.3	-64.6	3.8	1.49e+00	0	44	104	932184064	69	21855
2026-01-29 11:56:06.46	326.96	5.52	-49.3	-64.6	3.8	1.49e+00	0	44	104	932184064	69	21834
2026-01-29 11:56:07.60	327.08	5.46	-49.3	-64.6	3.8	1.49e+00	0	44	104	932184064	69	21887
2026-01-29 11:56:08.45	327.16	5.41	-49.3	-64.6	3.8	1.49e+00	0	44	104	932184064	69	21808
2026-01-29 11:56:09.58	327.27	5.35	-49.3	-64.6	3.8	1.49e+00	0	44	104	932184064	69	21891
2026-01-29 11:56:10.44	327.36	5.30	-49.3	-64.6	3.8	1.49e+00	0	44	104	932184064	69	21886
2026-01-29 11:56:11.57	327.47	5.24	-49.3	-64.6	3.8	1.49e+00	0	44	104	932184064	69	21937
2026-01-29 11:56:12.42	327.55	5.20	-49.3	-64.6	3.8	1.49e+00	0	44	104	932184064	69	21830
2026-01-29 11:56:13.56	327.67	5.13	-49.3	-64.6	3.8	1.49e+00	0	44	104	932184064	69	21892
2026-01-29 11:56:14.41	327.75	5.09	-49.3	-64.6	3.8	1.49e+00	0	44	104	932184064	69	21917
2026-01-29 11:56:15.54	327.86	5.03	-49.3	-64.6	3.8	1.49e+00	0	44	104	932184064	69	21857
2026-01-29 11:56:16.40	327.94	4.98	-49.3	-64.6	3.8	1.49e+00	0	44	104	932184064	69	21853

#Closed at: 2026-01-29 11:56:17
#Recorded file [932 MB]: D:/Data/31040_260129_144548.dat