passes_logs/2026/01/29/T1/T1__20260129_223435_NOAA_20_JPSS-1_rec.log

#Pass ID: 20260129_223435_NOAA 20 (JPSS-1)
#Satellite: NOAA 20 (JPSS-1)
#Configuration: NOAA 20
#almurnet v.1.7.20251203
#Start time: 2026-01-29 22:34:36

#Version: 2.0.20230620
#Station: T1
#Location: 37.570604 lon 55.790049 lat
#TLE: 1 43013U 17073A   26028.86313978  .00000144  00000+0  89200-4 0  9993
#TLE: 2 43013  98.7648 329.6571 0000891  20.0014 340.1197 14.19541559424709

#Time	Az	El	Level	Level2	SNR	BER	BlckErr	Temp	State	Recorded	gain1	gain2
2026-01-29 22:34:36.25	25.33	5.08	-50.4	-64.7	3.8	1.49e+00	0	41	0	0	71	19760
2026-01-29 22:34:37.24	25.40	5.14	-50.6	-64.8	3.8	1.49e+00	0	41	104	0	72	18765
2026-01-29 22:34:38.24	25.47	5.21	-50.5	-64.8	3.8	1.49e+00	0	41	104	0	72	18735
2026-01-29 22:34:39.23	25.53	5.27	-50.5	-64.7	3.8	1.49e+00	0	41	104	0	72	18711
2026-01-29 22:34:40.23	25.60	5.33	-50.5	-64.7	3.8	1.49e+00	0	41	104	0	72	18717
2026-01-29 22:34:41.23	25.66	5.40	-50.5	-64.7	3.8	1.49e+00	0	41	104	0	72	18680
2026-01-29 22:34:42.23	25.73	5.46	-50.4	-64.7	3.8	1.49e+00	0	41	104	0	72	18672
2026-01-29 22:34:43.23	25.80	5.53	-50.5	-64.7	3.8	1.49e+00	0	41	104	0	72	18692
2026-01-29 22:34:44.22	25.87	5.59	-50.4	-64.7	3.8	1.49e+00	0	41	104	0	72	18577
2026-01-29 22:34:45.22	25.93	5.66	-50.5	-64.6	3.8	1.49e+00	0	42	104	0	72	18514
2026-01-29 22:34:46.22	26.00	5.72	-50.4	-64.6	3.8	1.49e+00	0	41	104	0	72	18472
2026-01-29 22:34:47.21	26.07	5.79	-50.3	-64.6	3.8	1.49e+00	0	41	104	0	72	18309
2026-01-29 22:34:48.21	26.14	5.86	-50.2	-64.5	3.8	1.49e+00	0	42	104	0	72	18198
2026-01-29 22:34:49.21	26.21	5.92	-50.1	-64.5	3.8	1.49e+00	0	41	104	0	71	19224
2026-01-29 22:34:50.20	26.28	5.99	-49.5	-64.4	3.8	1.49e+00	0	42	104	0	71	19036
2026-01-29 22:34:51.20	26.35	6.05	-49.8	-64.2	3.8	1.49e+00	0	42	104	0	70	19696
2026-01-29 22:34:52.20	26.42	6.12	-49.5	-64.2	3.8	1.49e+00	0	42	104	0	70	19670
2026-01-29 22:34:53.20	26.49	6.19	-49.6	-64.1	3.8	1.49e+00	0	42	104	0	70	19590
2026-01-29 22:34:54.20	26.56	6.25	-49.5	-64.2	3.8	1.49e+00	0	42	104	0	70	19620
2026-01-29 22:34:55.20	26.63	6.32	-49.5	-64.1	3.8	1.49e+00	0	42	104	0	70	19609
2026-01-29 22:34:56.20	26.70	6.39	-49.5	-64.2	3.8	1.49e+00	0	42	104	0	70	19632
2026-01-29 22:34:57.19	26.77	6.45	-49.5	-64.1	3.8	1.49e+00	0	42	104	0	70	19598
2026-01-29 22:34:58.19	26.84	6.52	-49.5	-64.2	3.8	1.49e+00	0	42	104	0	70	19638
2026-01-29 22:34:59.19	26.91	6.59	-49.5	-64.2	3.8	1.49e+00	0	42	104	0	70	19628
2026-01-29 22:35:00.19	26.99	6.65	-49.5	-64.1	3.8	1.49e+00	0	42	104	0	70	19608
2026-01-29 22:35:01.18	27.06	6.72	-49.5	-64.2	3.8	1.49e+00	0	42	104	0	70	19657
2026-01-29 22:35:02.18	27.13	6.79	-49.5	-64.2	3.8	1.49e+00	0	42	104	0	70	19668
2026-01-29 22:35:03.18	27.20	6.86	-49.5	-64.1	3.8	1.49e+00	0	42	104	0	70	19601
2026-01-29 22:35:04.17	27.28	6.92	-49.5	-64.2	3.8	1.49e+00	0	42	104	0	70	19661
2026-01-29 22:35:05.17	27.35	6.99	-49.5	-64.1	3.8	1.49e+00	0	42	104	0	70	19510
2026-01-29 22:35:06.16	27.42	7.06	-49.5	-64.0	3.8	1.49e+00	0	42	104	0	70	19354
2026-01-29 22:35:07.16	27.50	7.13	-49.5	-64.0	3.8	1.49e+00	0	42	104	0	70	19267
2026-01-29 22:35:08.16	27.57	7.19	-49.5	-64.0	3.8	1.49e+00	0	42	104	0	70	19191
2026-01-29 22:35:09.16	27.65	7.26	-49.5	-63.9	3.8	1.49e+00	0	42	104	0	70	19076
2026-01-29 22:35:10.15	27.72	7.33	-49.5	-63.9	3.8	1.49e+00	0	42	104	0	70	18996
2026-01-29 22:35:11.15	27.80	7.40	-49.5	-63.9	3.8	1.49e+00	0	42	104	0	70	19119
2026-01-29 22:35:12.15	27.88	7.47	-49.5	-63.9	3.8	1.49e+00	0	42	104	0	70	19082
2026-01-29 22:35:13.14	27.95	7.54	-49.5	-64.0	3.8	1.49e+00	0	43	104	0	70	19304
2026-01-29 22:35:14.14	28.03	7.61	-49.5	-64.1	3.8	1.49e+00	0	42	104	0	70	19443
2026-01-29 22:35:15.13	28.10	7.68	-49.5	-64.1	3.8	1.49e+00	0	42	104	0	70	19451
2026-01-29 22:35:16.13	28.18	7.75	-49.5	-64.1	3.8	1.49e+00	0	42	104	0	70	19404
2026-01-29 22:35:17.13	28.26	7.82	-49.5	-64.0	3.8	1.49e+00	0	42	104	0	70	19183
2026-01-29 22:35:18.13	28.34	7.89	-49.5	-63.8	3.8	1.49e+00	0	42	104	0	70	18890
2026-01-29 22:35:19.12	28.42	7.96	-49.5	-63.7	3.8	1.49e+00	0	42	104	0	70	18686
2026-01-29 22:35:20.12	28.50	8.03	-49.5	-63.6	3.8	1.49e+00	0	42	104	0	70	18458
2026-01-29 22:35:21.11	28.57	8.10	-49.5	-63.6	3.8	1.49e+00	0	42	104	0	70	18394
2026-01-29 22:35:22.10	28.65	8.17	-49.5	-63.5	3.8	1.49e+00	0	43	104	0	70	18214
2026-01-29 22:35:23.11	28.73	8.24	-49.5	-63.6	3.8	1.49e+00	0	42	104	0	70	18448
2026-01-29 22:35:24.10	28.81	8.31	-49.5	-63.8	3.8	1.49e+00	0	43	104	0	70	18759
2026-01-29 22:35:25.10	28.90	8.38	-49.5	-63.9	3.8	1.49e+00	0	43	104	0	70	19019
2026-01-29 22:35:26.10	28.98	8.45	-49.5	-64.0	3.8	1.49e+00	0	43	104	0	70	19270
2026-01-29 22:35:27.10	29.06	8.52	-49.5	-63.9	3.8	1.49e+00	0	43	104	0	70	19154
2026-01-29 22:35:28.09	29.14	8.59	-49.5	-64.0	3.8	1.49e+00	0	43	104	0	70	19242
2026-01-29 22:35:29.09	29.22	8.66	-49.5	-63.9	3.8	1.49e+00	0	43	104	0	70	19010
2026-01-29 22:35:30.09	29.30	8.73	-49.5	-63.6	3.8	1.49e+00	0	43	104	0	70	18488
2026-01-29 22:35:31.09	29.39	8.81	-49.4	-62.9	3.8	1.49e+00	0	43	104	0	70	16921
2026-01-29 22:35:32.09	29.47	8.88	-49.4	-61.4	4.0	1.49e+00	0	43	104	0	70	14287
2026-01-29 22:35:33.09	29.55	8.95	-49.2	-59.7	4.5	1.47e+00	0	43	0	0	70	11691
2026-01-29 22:35:34.08	29.64	9.02	-49.0	-58.1	5.3	7.05e-01	0	43	0	2097152	70	9769
2026-01-29 22:35:35.08	29.72	9.10	-49.1	-58.2	5.2	6.49e-01	0	43	0	3145728	70	9859
2026-01-29 22:35:36.08	29.81	9.17	-49.7	-63.8	3.8	1.36e+00	0	43	104	4194304	70	18874
2026-01-29 22:35:37.07	29.89	9.24	-48.1	-53.3	9.5	2.89e-01	0	43	0	4194304	68	6347
2026-01-29 22:35:38.08	29.98	9.31	-49.3	-58.5	5.1	4.34e-01	0	43	0	6291456	69	10821
2026-01-29 22:35:39.08	30.07	9.39	-45.5	-48.1	14.8	8.51e-02	0	43	0	7340032	63	4635
2026-01-29 22:35:40.07	30.15	9.46	-45.6	-48.3	14.6	0.00e+00	0	43	0	9437184	62	4999
2026-01-29 22:35:41.07	30.24	9.53	-44.6	-46.7	16.2	0.00e+00	0	43	0	11534336	61	4413
2026-01-29 22:35:42.06	30.33	9.61	-45.0	-47.3	15.6	0.00e+00	0	43	0	13631488	61	4754
2026-01-29 22:35:43.06	30.41	9.68	-45.0	-47.2	15.7	0.00e+00	0	43	0	14680064	61	4680
2026-01-29 22:35:44.05	30.50	9.75	-44.8	-46.9	16.0	0.00e+00	0	43	0	16777216	61	4539
2026-01-29 22:35:45.05	30.59	9.83	-45.0	-47.3	15.7	0.00e+00	0	43	0	18874368	61	4712
2026-01-29 22:35:46.04	30.68	9.90	-44.8	-47.0	16.0	0.00e+00	0	43	0	20971520	61	4585
2026-01-29 22:35:47.04	30.77	9.98	-44.7	-46.9	16.0	0.00e+00	0	43	0	23068672	61	4506
2026-01-29 22:35:48.04	30.86	10.05	-44.5	-46.6	16.3	0.00e+00	0	43	0	24117248	61	4383
2026-01-29 22:35:49.03	30.95	10.12	-44.5	-46.6	16.4	0.00e+00	0	43	0	26214400	60	4632
2026-01-29 22:35:50.03	31.04	10.20	-44.1	-46.0	17.0	0.00e+00	0	43	0	28311552	60	4319
2026-01-29 22:35:51.03	31.13	10.28	-44.3	-46.3	16.7	0.00e+00	0	43	0	30408704	60	4480
2026-01-29 22:35:52.02	31.22	10.35	-44.2	-46.3	16.7	0.00e+00	0	43	0	31457280	60	4465
2026-01-29 22:35:53.02	31.31	10.43	-44.0	-45.9	17.1	0.00e+00	0	43	0	33554432	59	4501
2026-01-29 22:35:54.02	31.41	10.50	-44.0	-45.9	17.0	0.00e+00	0	43	0	35651584	59	4530
2026-01-29 22:35:55.01	31.50	10.58	-43.8	-45.6	17.3	0.00e+00	0	43	0	37748736	59	4386
2026-01-29 22:35:56.01	31.59	10.65	-43.8	-45.6	17.2	0.00e+00	0	43	0	39845888	59	4390
2026-01-29 22:35:57.01	31.69	10.73	-43.8	-45.6	17.4	0.00e+00	0	43	0	40894464	59	4348
2026-01-29 22:35:58.01	31.78	10.81	-43.7	-45.5	17.5	0.00e+00	0	43	0	42991616	58	4578
2026-01-29 22:35:59.01	31.88	10.88	-43.7	-45.4	17.5	0.00e+00	0	43	0	45088768	58	4538
2026-01-29 22:36:00.00	31.97	10.96	-43.8	-45.6	17.4	0.00e+00	0	43	0	47185920	58	4646
2026-01-29 22:36:01.00	32.07	11.03	-43.5	-45.2	17.8	0.00e+00	0	43	0	49283072	58	4435
2026-01-29 22:36:02.00	32.16	11.11	-43.7	-45.5	17.4	0.00e+00	0	43	0	50331648	58	4593
2026-01-29 22:36:03.00	32.26	11.19	-43.7	-45.5	17.4	0.00e+00	0	43	0	52428800	58	4572
2026-01-29 22:36:04.00	32.36	11.27	-43.7	-45.5	17.5	0.00e+00	0	43	0	54525952	58	4570
2026-01-29 22:36:04.99	32.46	11.34	-43.7	-45.5	17.5	0.00e+00	0	43	0	56623104	58	4573
2026-01-29 22:36:06.00	32.55	11.42	-43.6	-45.4	17.6	0.00e+00	0	43	0	57671680	58	4502
2026-01-29 22:36:06.99	32.65	11.50	-43.6	-45.3	17.6	0.00e+00	0	43	0	59768832	58	4481
2026-01-29 22:36:07.99	32.75	11.58	-43.5	-45.1	17.9	0.00e+00	0	43	0	61865984	58	4385
2026-01-29 22:36:08.99	32.85	11.66	-43.5	-45.3	17.7	0.00e+00	0	43	0	63963136	58	4449
2026-01-29 22:36:09.98	32.95	11.73	-43.4	-45.1	17.9	0.00e+00	0	43	0	66060288	58	4343
2026-01-29 22:36:10.98	33.05	11.81	-43.4	-45.1	17.9	0.00e+00	0	43	0	67108864	58	4382
2026-01-29 22:36:11.97	33.15	11.89	-43.4	-45.1	17.9	0.00e+00	0	43	0	69206016	58	4366
2026-01-29 22:36:12.97	33.26	11.97	-43.4	-45.1	17.9	0.00e+00	0	43	0	71303168	58	4371
2026-01-29 22:36:13.97	33.36	12.05	-43.6	-45.2	17.8	0.00e+00	0	43	0	73400320	58	4432
2026-01-29 22:36:14.97	33.46	12.13	-43.5	-45.1	17.9	0.00e+00	0	43	0	75497472	58	4371
2026-01-29 22:36:15.97	33.56	12.21	-43.7	-45.3	17.7	0.00e+00	0	43	0	76546048	58	4474
2026-01-29 22:36:16.96	33.67	12.29	-43.7	-45.3	17.7	0.00e+00	0	43	0	78643200	58	4479
2026-01-29 22:36:17.96	33.77	12.37	-43.8	-45.4	17.7	0.00e+00	0	43	0	80740352	58	4530
2026-01-29 22:36:18.96	33.88	12.45	-43.6	-45.2	17.8	0.00e+00	0	43	0	82837504	58	4405
2026-01-29 22:36:19.95	33.98	12.53	-43.6	-45.3	17.8	0.00e+00	0	43	0	83886080	58	4446
2026-01-29 22:36:20.95	34.09	12.61	-43.7	-45.4	17.7	0.00e+00	0	43	0	85983232	58	4514
2026-01-29 22:36:21.95	34.20	12.69	-43.7	-45.3	17.7	0.00e+00	0	43	0	88080384	58	4473
2026-01-29 22:36:22.94	34.30	12.77	-43.6	-45.2	17.8	0.00e+00	0	43	0	90177536	58	4437
2026-01-29 22:36:23.94	34.41	12.85	-43.7	-45.3	17.7	0.00e+00	0	43	0	92274688	58	4489
2026-01-29 22:36:24.94	34.52	12.93	-43.8	-45.4	17.7	0.00e+00	0	43	0	93323264	58	4517
2026-01-29 22:36:25.93	34.63	13.01	-43.7	-45.4	17.7	0.00e+00	0	43	0	95420416	58	4506
2026-01-29 22:36:26.94	34.74	13.09	-43.9	-45.6	17.5	0.00e+00	0	43	0	97517568	58	4600
2026-01-29 22:36:27.93	34.85	13.17	-43.9	-45.6	17.4	0.00e+00	0	43	0	99614720	58	4650
2026-01-29 22:36:28.92	34.96	13.25	-43.9	-45.6	17.5	0.00e+00	0	43	0	100663296	58	4626
2026-01-29 22:36:29.92	35.07	13.34	-44.1	-45.8	17.3	0.00e+00	0	43	0	102760448	58	4753
2026-01-29 22:36:30.92	35.18	13.42	-44.0	-45.7	17.3	0.00e+00	0	43	0	104857600	59	4436
2026-01-29 22:36:31.92	35.29	13.50	-43.7	-45.3	17.7	0.00e+00	0	43	0	106954752	59	4220
2026-01-29 22:36:32.92	35.41	13.58	-43.7	-45.4	17.6	0.00e+00	0	43	0	109051904	59	4268
2026-01-29 22:36:33.91	35.52	13.67	-43.6	-45.3	17.8	0.00e+00	0	43	0	110100480	59	4198
2026-01-29 22:36:34.91	35.63	13.75	-43.6	-45.2	17.8	0.00e+00	0	43	0	112197632	59	4184
2026-01-29 22:36:35.90	35.75	13.83	-43.6	-45.2	17.8	0.00e+00	0	43	0	114294784	59	4191
2026-01-29 22:36:36.90	35.86	13.91	-43.7	-45.4	17.7	0.00e+00	0	43	0	116391936	59	4253
2026-01-29 22:36:37.90	35.98	14.00	-43.6	-45.2	17.8	0.00e+00	0	43	0	118489088	59	4185
2026-01-29 22:36:38.90	36.10	14.08	-43.8	-45.5	17.6	0.00e+00	0	43	0	119537664	59	4325
2026-01-29 22:36:39.90	36.22	14.17	-43.9	-45.6	17.5	0.00e+00	0	43	0	121634816	59	4348
2026-01-29 22:36:40.89	36.33	14.25	-44.1	-45.9	17.2	0.00e+00	0	43	0	123731968	59	4500
2026-01-29 22:36:41.89	36.45	14.33	-43.9	-45.6	17.4	0.00e+00	0	43	0	125829120	59	4375
2026-01-29 22:36:42.89	36.57	14.42	-43.8	-45.5	17.6	0.00e+00	0	43	0	126877696	59	4306
2026-01-29 22:36:43.89	36.69	14.50	-43.8	-45.4	17.6	0.00e+00	0	43	0	128974848	59	4278
2026-01-29 22:36:44.89	36.81	14.59	-43.8	-45.4	17.7	0.00e+00	0	43	0	131072000	59	4252
2026-01-29 22:36:45.88	36.93	14.67	-43.8	-45.4	17.7	0.00e+00	0	43	0	133169152	59	4255
2026-01-29 22:36:46.88	37.06	14.76	-43.7	-45.3	17.8	0.00e+00	0	43	0	135266304	59	4210
2026-01-29 22:36:47.87	37.18	14.84	-43.7	-45.2	17.8	0.00e+00	0	43	0	136314880	59	4184
2026-01-29 22:36:48.87	37.30	14.93	-43.6	-45.2	17.9	0.00e+00	0	43	0	138412032	59	4151
2026-01-29 22:36:49.86	37.42	15.01	-43.6	-45.2	17.9	0.00e+00	0	43	0	140509184	59	4170
2026-01-29 22:36:50.86	37.55	15.10	-43.7	-45.3	17.8	0.00e+00	0	43	0	142606336	59	4213
2026-01-29 22:36:51.86	37.67	15.18	-43.7	-45.3	17.8	0.00e+00	0	43	0	144703488	59	4209
2026-01-29 22:36:52.85	37.80	15.27	-44.1	-45.8	17.3	0.00e+00	0	43	0	145752064	59	4462
2026-01-29 22:36:53.85	37.93	15.36	-43.9	-45.5	17.6	0.00e+00	0	43	0	147849216	59	4318
2026-01-29 22:36:54.85	38.05	15.44	-43.8	-45.4	17.7	0.00e+00	0	43	0	149946368	59	4264
2026-01-29 22:36:55.85	38.18	15.53	-43.7	-45.3	17.8	0.00e+00	0	43	0	152043520	59	4211
2026-01-29 22:36:56.84	38.31	15.62	-43.8	-45.4	17.7	0.00e+00	0	43	0	153092096	59	4271
2026-01-29 22:36:57.83	38.44	15.70	-43.7	-45.3	17.8	0.00e+00	0	43	0	155189248	59	4198
2026-01-29 22:36:58.82	38.57	15.79	-43.7	-45.3	17.8	0.00e+00	0	43	0	157286400	59	4209
2026-01-29 22:36:59.82	38.70	15.88	-43.6	-45.2	18.0	0.00e+00	0	43	0	159383552	59	4158
2026-01-29 22:37:00.81	38.83	15.96	-43.7	-45.2	17.9	0.00e+00	0	43	0	161480704	59	4187
2026-01-29 22:37:01.81	38.96	16.05	-43.7	-45.3	17.8	0.00e+00	0	43	0	162529280	59	4201
2026-01-29 22:37:02.81	39.10	16.14	-43.7	-45.2	17.9	0.00e+00	0	43	0	164626432	59	4186
2026-01-29 22:37:03.81	39.23	16.23	-43.7	-45.2	17.9	0.00e+00	0	43	0	166723584	59	4183
2026-01-29 22:37:04.80	39.37	16.31	-43.7	-45.2	17.9	0.00e+00	0	43	0	168820736	59	4178
2026-01-29 22:37:05.80	39.50	16.40	-43.4	-44.9	18.1	0.00e+00	0	43	0	169869312	58	4290
2026-01-29 22:37:06.80	39.64	16.49	-43.4	-44.9	18.3	0.00e+00	0	43	0	171966464	58	4249
2026-01-29 22:37:07.79	39.78	16.58	-43.4	-44.9	18.3	0.00e+00	0	43	0	174063616	58	4269
2026-01-29 22:37:08.79	39.91	16.67	-43.4	-44.8	18.3	0.00e+00	0	43	0	176160768	58	4228
2026-01-29 22:37:09.79	40.05	16.76	-43.4	-44.9	18.2	0.00e+00	0	43	0	178257920	58	4281
2026-01-29 22:37:10.78	40.19	16.85	-43.5	-45.0	18.2	0.00e+00	0	44	0	179306496	58	4304
2026-01-29 22:37:11.78	40.33	16.94	-43.6	-45.1	18.0	0.00e+00	0	43	0	181403648	58	4379
2026-01-29 22:37:12.78	40.47	17.03	-43.5	-45.0	18.1	0.00e+00	0	43	0	183500800	58	4333
2026-01-29 22:37:13.77	40.61	17.12	-43.7	-45.3	17.9	0.00e+00	0	43	0	185597952	58	4460
2026-01-29 22:37:14.78	40.76	17.21	-43.7	-45.2	17.9	0.00e+00	0	43	0	186646528	58	4437
2026-01-29 22:37:15.78	40.90	17.30	-43.6	-45.2	17.9	0.00e+00	0	43	0	188743680	58	4418
2026-01-29 22:37:16.78	41.05	17.39	-43.6	-45.2	18.0	0.00e+00	0	44	0	190840832	58	4400
2026-01-29 22:37:17.78	41.19	17.48	-43.5	-45.1	18.0	0.00e+00	0	43	0	192937984	58	4354
2026-01-29 22:37:18.77	41.34	17.57	-43.5	-45.0	18.1	0.00e+00	0	43	0	195035136	58	4333
2026-01-29 22:37:19.77	41.49	17.66	-43.4	-44.9	18.2	0.00e+00	0	43	0	196083712	58	4274
2026-01-29 22:37:20.77	41.64	17.75	-43.4	-44.9	18.3	0.00e+00	0	43	0	198180864	58	4257
2026-01-29 22:37:21.77	41.78	17.84	-43.5	-45.0	18.2	0.00e+00	0	43	0	200278016	58	4326
2026-01-29 22:37:22.77	41.93	17.93	-43.5	-45.0	18.1	0.00e+00	0	43	0	202375168	58	4339
2026-01-29 22:37:23.76	42.08	18.02	-43.5	-45.0	18.2	0.00e+00	0	43	0	204472320	58	4304
2026-01-29 22:37:24.76	42.24	18.11	-43.4	-44.9	18.2	0.00e+00	0	43	0	205520896	58	4259
2026-01-29 22:37:25.76	42.39	18.21	-43.5	-45.1	18.1	0.00e+00	0	43	0	207618048	58	4344
2026-01-29 22:37:26.76	42.54	18.30	-43.3	-44.8	18.3	0.00e+00	0	43	0	209715200	58	4213
2026-01-29 22:37:27.76	42.70	18.39	-43.3	-44.7	18.4	0.00e+00	0	43	0	211812352	58	4179
2026-01-29 22:37:28.76	42.85	18.48	-43.2	-44.7	18.5	0.00e+00	0	43	0	212860928	58	4151
2026-01-29 22:37:29.76	43.01	18.58	-43.1	-44.5	18.7	0.00e+00	0	44	0	214958080	58	4067
2026-01-29 22:37:30.76	43.17	18.67	-43.0	-44.4	18.8	0.00e+00	0	43	0	217055232	57	4247
2026-01-29 22:37:31.76	43.32	18.76	-43.0	-44.3	18.7	0.00e+00	0	43	0	219152384	57	4242
2026-01-29 22:37:32.76	43.48	18.85	-42.8	-44.1	19.0	0.00e+00	0	43	0	221249536	57	4134
2026-01-29 22:37:33.76	43.64	18.95	-42.8	-44.1	19.0	0.00e+00	0	44	0	222298112	57	4125
2026-01-29 22:37:34.76	43.80	19.04	-42.7	-44.0	19.1	0.00e+00	0	43	0	224395264	57	4067
2026-01-29 22:37:35.76	43.97	19.13	-42.7	-44.0	19.1	0.00e+00	0	44	0	226492416	57	4081
2026-01-29 22:37:36.76	44.13	19.23	-42.6	-43.9	19.2	0.00e+00	0	43	0	228589568	57	4026
2026-01-29 22:37:37.76	44.29	19.32	-42.5	-43.9	19.2	0.00e+00	0	43	0	230686720	57	4009
2026-01-29 22:37:38.76	44.46	19.41	-42.6	-44.0	19.1	0.00e+00	0	43	0	231735296	57	4065
2026-01-29 22:37:39.76	44.62	19.51	-42.6	-43.9	19.2	0.00e+00	0	43	0	233832448	57	4030
2026-01-29 22:37:40.76	44.79	19.60	-42.6	-43.9	19.1	0.00e+00	0	43	0	235929600	57	4041
2026-01-29 22:37:41.77	44.96	19.70	-42.6	-43.9	19.2	0.00e+00	0	43	0	238026752	57	4014
2026-01-29 22:37:42.77	45.13	19.79	-42.6	-43.9	19.1	0.00e+00	0	44	0	240123904	57	4043
2026-01-29 22:37:43.77	45.30	19.89	-42.6	-43.9	19.3	0.00e+00	0	43	0	241172480	57	4006
2026-01-29 22:37:44.77	45.47	19.98	-42.7	-44.0	19.1	0.00e+00	0	43	0	243269632	57	4076
2026-01-29 22:37:45.77	45.64	20.07	-42.6	-44.0	19.2	0.00e+00	0	44	0	245366784	57	4058
2026-01-29 22:37:46.77	45.81	20.17	-42.7	-44.0	19.1	0.00e+00	0	43	0	247463936	57	4068
2026-01-29 22:37:47.78	45.99	20.27	-42.6	-43.9	19.2	0.00e+00	0	43	0	248512512	57	4027
2026-01-29 22:37:48.78	46.17	20.36	-42.7	-44.0	19.1	0.00e+00	0	43	0	250609664	57	4058
2026-01-29 22:37:49.78	46.34	20.46	-42.7	-44.0	19.1	0.00e+00	0	44	0	252706816	57	4097
2026-01-29 22:37:50.78	46.52	20.55	-42.6	-43.9	19.2	0.00e+00	0	43	0	254803968	57	4046
2026-01-29 22:37:51.78	46.70	20.65	-42.7	-44.0	19.1	0.00e+00	0	43	0	256901120	57	4081
2026-01-29 22:37:52.78	46.88	20.74	-42.6	-43.9	19.3	0.00e+00	0	43	0	257949696	57	4005
2026-01-29 22:37:53.78	47.06	20.84	-42.6	-43.9	19.2	0.00e+00	0	43	0	260046848	57	4049
2026-01-29 22:37:54.78	47.24	20.93	-42.5	-43.8	19.3	0.00e+00	0	43	0	262144000	57	3977
2026-01-29 22:37:55.78	47.42	21.03	-42.6	-43.9	19.2	0.00e+00	0	43	0	264241152	57	4046
2026-01-29 22:37:56.79	47.61	21.12	-42.5	-43.8	19.3	0.00e+00	0	44	0	266338304	57	3977
2026-01-29 22:37:57.79	47.79	21.22	-42.6	-43.8	19.3	0.00e+00	0	43	0	267386880	57	4003
2026-01-29 22:37:58.78	47.98	21.31	-42.6	-43.9	19.2	0.00e+00	0	43	0	269484032	57	4036
2026-01-29 22:37:59.79	48.17	21.41	-42.4	-43.7	19.4	0.00e+00	0	43	0	271581184	56	4179
2026-01-29 22:38:00.79	48.35	21.51	-42.5	-43.7	19.4	0.00e+00	0	44	0	273678336	56	4183
2026-01-29 22:38:01.79	48.54	21.60	-42.5	-43.8	19.3	0.00e+00	0	43	0	274726912	56	4195
2026-01-29 22:38:02.79	48.73	21.70	-42.5	-43.8	19.4	0.00e+00	0	43	0	276824064	56	4225
2026-01-29 22:38:03.79	48.93	21.79	-42.4	-43.6	19.5	0.00e+00	0	43	0	278921216	56	4133
2026-01-29 22:38:04.79	49.12	21.89	-42.4	-43.6	19.5	0.00e+00	0	44	0	281018368	56	4130
2026-01-29 22:38:05.79	49.31	21.99	-42.4	-43.7	19.5	0.00e+00	0	43	0	283115520	56	4151
2026-01-29 22:38:06.79	49.51	22.08	-42.2	-43.5	19.7	0.00e+00	0	43	0	284164096	56	4061
2026-01-29 22:38:07.80	49.71	22.18	-42.2	-43.4	19.7	0.00e+00	0	43	0	286261248	56	4037
2026-01-29 22:38:08.80	49.90	22.28	-42.2	-43.4	19.7	0.00e+00	0	43	0	288358400	56	4022
2026-01-29 22:38:09.80	50.10	22.37	-42.1	-43.3	19.9	0.00e+00	0	44	0	290455552	56	3964
2026-01-29 22:38:10.80	50.30	22.47	-42.1	-43.3	19.8	0.00e+00	0	43	0	292552704	56	4002
2026-01-29 22:38:11.80	50.50	22.56	-42.1	-43.3	19.8	0.00e+00	0	43	0	293601280	56	3967
2026-01-29 22:38:12.80	50.71	22.66	-42.2	-43.4	19.7	0.00e+00	0	44	0	295698432	56	4021
2026-01-29 22:38:13.80	50.91	22.76	-42.1	-43.2	19.9	0.00e+00	0	43	0	297795584	56	3956
2026-01-29 22:38:14.80	51.11	22.85	-42.1	-43.2	19.9	0.00e+00	0	43	0	299892736	56	3958
2026-01-29 22:38:15.80	51.32	22.95	-42.0	-43.2	20.0	0.00e+00	0	44	0	301989888	56	3922
2026-01-29 22:38:16.80	51.53	23.05	-42.1	-43.3	19.9	0.00e+00	0	43	0	303038464	56	3970
2026-01-29 22:38:17.80	51.74	23.14	-41.9	-43.1	19.9	0.00e+00	0	43	0	305135616	55	4112
2026-01-29 22:38:18.80	51.95	23.24	-41.9	-43.1	19.8	0.00e+00	0	43	0	307232768	55	4138
2026-01-29 22:38:19.80	52.16	23.33	-42.0	-43.2	19.7	0.00e+00	0	43	0	309329920	55	4191
2026-01-29 22:38:20.80	52.37	23.43	-42.1	-43.3	19.7	0.00e+00	0	43	0	311427072	55	4220
2026-01-29 22:38:21.80	52.58	23.53	-42.1	-43.4	19.6	0.00e+00	0	43	0	312475648	55	4253
2026-01-29 22:38:22.80	52.80	23.62	-42.2	-43.4	19.6	0.00e+00	0	43	0	314572800	55	4271
2026-01-29 22:38:23.81	53.02	23.72	-42.2	-43.4	19.6	0.00e+00	0	43	0	316669952	55	4283
2026-01-29 22:38:24.81	53.24	23.81	-42.2	-43.5	19.5	0.00e+00	0	44	0	318767104	55	4294
2026-01-29 22:38:25.81	53.46	23.91	-42.2	-43.4	19.6	0.00e+00	0	43	0	320864256	55	4259
2026-01-29 22:38:26.81	53.68	24.01	-42.2	-43.4	19.5	0.00e+00	0	43	0	321912832	55	4285
2026-01-29 22:38:27.81	53.90	24.10	-42.1	-43.4	19.6	0.00e+00	0	43	0	324009984	55	4254
2026-01-29 22:38:28.81	54.12	24.20	-42.1	-43.4	19.6	0.00e+00	0	43	0	326107136	55	4254
2026-01-29 22:38:29.82	54.35	24.29	-42.0	-43.2	19.7	0.00e+00	0	43	0	328204288	55	4161
2026-01-29 22:38:30.82	54.57	24.39	-42.0	-43.3	19.7	0.00e+00	0	43	0	329252864	55	4195
2026-01-29 22:38:31.82	54.80	24.48	-42.0	-43.2	19.7	0.00e+00	0	43	0	331350016	55	4173
2026-01-29 22:38:32.82	55.03	24.58	-42.2	-43.5	19.5	0.00e+00	0	43	0	333447168	55	4310
2026-01-29 22:38:33.82	55.26	24.68	-42.3	-43.5	19.4	0.00e+00	0	43	0	335544320	55	4321
2026-01-29 22:38:34.82	55.49	24.77	-42.4	-43.7	19.3	0.00e+00	0	43	0	337641472	55	4416
2026-01-29 22:38:35.82	55.72	24.86	-42.5	-43.8	19.3	0.00e+00	0	43	0	338690048	55	4449
2026-01-29 22:38:36.82	55.96	24.96	-42.5	-43.8	19.2	0.00e+00	0	43	0	340787200	55	4481
2026-01-29 22:38:37.82	56.19	25.05	-42.6	-43.9	19.1	0.00e+00	0	43	0	342884352	55	4541
2026-01-29 22:38:38.82	56.43	25.15	-42.8	-44.1	19.0	0.00e+00	0	43	0	344981504	56	4361
2026-01-29 22:38:39.82	56.66	25.24	-42.9	-44.3	18.9	0.00e+00	0	43	0	347078656	56	4467
2026-01-29 22:38:40.83	56.91	25.34	-43.0	-44.4	18.7	0.00e+00	0	44	0	348127232	56	4524
2026-01-29 22:38:41.83	57.15	25.43	-43.2	-44.6	18.6	0.00e+00	0	43	0	350224384	56	4632
2026-01-29 22:38:42.83	57.39	25.52	-43.2	-44.6	18.5	0.00e+00	0	43	0	352321536	57	4368
2026-01-29 22:38:43.83	57.63	25.62	-43.0	-44.4	18.7	0.00e+00	0	43	0	354418688	57	4280
2026-01-29 22:38:44.83	57.88	25.71	-43.0	-44.4	18.7	0.00e+00	0	43	0	355467264	57	4260
2026-01-29 22:38:45.83	58.12	25.80	-43.1	-44.4	18.7	0.00e+00	0	43	0	357564416	57	4283
2026-01-29 22:38:46.83	58.37	25.90	-43.1	-44.5	18.7	0.00e+00	0	44	0	359661568	57	4324
2026-01-29 22:38:47.83	58.62	25.99	-43.2	-44.6	18.6	0.00e+00	0	43	0	361758720	57	4373
2026-01-29 22:38:48.84	58.88	26.08	-43.3	-44.8	18.4	0.00e+00	0	44	0	363855872	57	4462
2026-01-29 22:38:49.84	59.13	26.17	-43.5	-45.0	18.2	0.00e+00	0	43	0	364904448	57	4566
2026-01-29 22:38:50.84	59.38	26.27	-43.5	-45.0	18.2	0.00e+00	0	43	0	367001600	57	4554
2026-01-29 22:38:51.84	59.64	26.36	-43.4	-44.9	18.3	0.00e+00	0	43	0	369098752	57	4542
2026-01-29 22:38:52.84	59.89	26.45	-43.5	-45.0	18.2	0.00e+00	0	43	0	371195904	57	4573
2026-01-29 22:38:53.84	60.15	26.54	-43.5	-45.0	18.2	0.00e+00	0	43	0	373293056	57	4563
2026-01-29 22:38:54.84	60.41	26.63	-43.6	-45.1	18.1	0.00e+00	0	43	0	374341632	57	4631
2026-01-29 22:38:55.84	60.67	26.72	-43.6	-45.1	18.1	0.00e+00	0	43	0	376438784	57	4613
2026-01-29 22:38:56.84	60.93	26.81	-43.6	-45.2	18.0	0.00e+00	0	43	0	378535936	57	4681
2026-01-29 22:38:57.84	61.20	26.90	-43.9	-45.5	17.7	0.00e+00	0	43	0	380633088	58	4581
2026-01-29 22:38:58.84	61.46	26.99	-44.2	-46.0	17.4	0.00e+00	0	43	0	382730240	59	4560
2026-01-29 22:38:59.85	61.73	27.08	-44.4	-46.2	17.1	0.00e+00	0	43	0	383778816	59	4670
2026-01-29 22:39:00.84	62.00	27.17	-44.5	-46.3	17.0	0.00e+00	0	43	0	385875968	59	4749
2026-01-29 22:39:01.84	62.27	27.26	-44.7	-46.5	16.7	0.00e+00	0	43	0	387973120	59	4864
2026-01-29 22:39:02.84	62.54	27.34	-44.8	-46.7	16.7	0.00e+00	0	44	0	390070272	60	4655
2026-01-29 22:39:03.84	62.81	27.43	-44.7	-46.5	16.8	0.00e+00	0	43	0	391118848	60	4567
2026-01-29 22:39:04.84	63.09	27.52	-44.7	-46.5	16.8	0.00e+00	0	43	0	393216000	60	4566
2026-01-29 22:39:05.84	63.36	27.60	-44.6	-46.4	16.9	0.00e+00	0	43	0	395313152	60	4525
2026-01-29 22:39:06.84	63.64	27.69	-44.6	-46.4	16.9	0.00e+00	0	43	0	397410304	60	4514
2026-01-29 22:39:07.84	63.92	27.78	-44.5	-46.3	17.0	0.00e+00	0	43	0	399507456	60	4465
2026-01-29 22:39:08.84	64.20	27.86	-44.6	-46.3	16.9	0.00e+00	0	43	0	400556032	60	4493
2026-01-29 22:39:09.84	64.48	27.95	-44.5	-46.3	17.0	0.00e+00	0	43	0	402653184	60	4445
2026-01-29 22:39:10.84	64.76	28.03	-44.5	-46.3	17.0	0.00e+00	0	44	0	404750336	60	4459
2026-01-29 22:39:11.84	65.05	28.11	-44.5	-46.2	17.0	0.00e+00	0	43	0	406847488	60	4434
2026-01-29 22:39:12.84	65.33	28.20	-44.5	-46.3	17.0	0.00e+00	0	43	0	408944640	60	4482
2026-01-29 22:39:13.84	65.62	28.28	-44.7	-46.5	16.8	0.00e+00	0	43	0	409993216	60	4550
2026-01-29 22:39:14.84	65.91	28.36	-44.7	-46.6	16.7	0.00e+00	0	43	0	412090368	60	4608
2026-01-29 22:39:15.85	66.20	28.45	-44.8	-46.7	16.6	0.00e+00	0	43	0	414187520	60	4674
2026-01-29 22:39:16.85	66.49	28.53	-44.7	-46.6	16.7	0.00e+00	0	43	0	416284672	60	4629
2026-01-29 22:39:17.85	66.79	28.61	-44.6	-46.4	16.9	0.00e+00	0	43	0	418381824	60	4527
2026-01-29 22:39:18.85	67.08	28.69	-44.6	-46.4	16.9	0.00e+00	0	43	0	419430400	60	4540
2026-01-29 22:39:19.85	67.38	28.77	-44.4	-46.1	17.2	0.00e+00	0	43	0	421527552	60	4357
2026-01-29 22:39:20.85	67.67	28.85	-44.3	-46.0	17.4	0.00e+00	0	43	0	423624704	60	4294
2026-01-29 22:39:21.85	67.97	28.92	-44.2	-45.9	17.4	0.00e+00	0	44	0	425721856	60	4258
2026-01-29 22:39:22.85	68.27	29.00	-44.3	-45.9	17.3	0.00e+00	0	43	0	427819008	60	4288
2026-01-29 22:39:23.86	68.58	29.08	-44.3	-46.1	17.3	0.00e+00	0	43	0	428867584	60	4343
2026-01-29 22:39:24.86	68.88	29.16	-44.4	-46.1	17.2	0.00e+00	0	43	0	430964736	60	4368
2026-01-29 22:39:25.86	69.19	29.23	-44.4	-46.1	17.1	0.00e+00	0	43	0	433061888	60	4384
2026-01-29 22:39:26.86	69.49	29.31	-44.4	-46.2	17.2	0.00e+00	0	43	0	435159040	60	4404
2026-01-29 22:39:27.86	69.80	29.38	-44.6	-46.4	17.0	0.00e+00	0	43	0	436207616	60	4507
2026-01-29 22:39:28.86	70.11	29.46	-44.5	-46.3	17.0	0.00e+00	0	43	0	438304768	60	4454
2026-01-29 22:39:29.87	70.42	29.53	-44.6	-46.5	16.8	0.00e+00	0	43	0	440401920	60	4552
2026-01-29 22:39:30.87	70.73	29.60	-44.5	-46.3	17.0	0.00e+00	0	43	0	442499072	60	4471
2026-01-29 22:39:31.87	71.05	29.67	-44.5	-46.3	16.9	0.00e+00	0	43	0	444596224	60	4480
2026-01-29 22:39:32.87	71.36	29.74	-44.6	-46.4	16.9	0.00e+00	0	43	0	445644800	60	4524
2026-01-29 22:39:33.87	71.68	29.81	-44.7	-46.6	16.7	0.00e+00	0	43	0	447741952	60	4615
2026-01-29 22:39:34.87	72.00	29.88	-44.9	-46.8	16.5	0.00e+00	0	43	0	449839104	60	4750
2026-01-29 22:39:35.87	72.31	29.95	-45.3	-47.4	15.9	0.00e+00	0	43	0	451936256	61	4785
2026-01-29 22:39:36.87	72.63	30.02	-45.7	-47.9	15.4	0.00e+00	0	43	0	454033408	61	5078
2026-01-29 22:39:37.87	72.96	30.09	-46.0	-48.5	14.9	0.00e+00	0	43	0	455081984	62	5130
2026-01-29 22:39:38.87	73.28	30.15	-46.2	-48.7	14.6	7.00e-07	0	43	0	457179136	63	4959
2026-01-29 22:39:39.88	73.60	30.22	-46.3	-48.9	14.4	0.00e+00	0	43	0	459276288	63	5059
2026-01-29 22:39:40.88	73.93	30.28	-46.4	-49.0	14.4	0.00e+00	0	43	0	461373440	63	5120
2026-01-29 22:39:41.87	74.25	30.35	-46.4	-49.0	14.4	0.00e+00	0	43	0	462422016	63	5142
2026-01-29 22:39:42.88	74.58	30.41	-46.4	-49.1	14.1	7.00e-07	0	43	0	464519168	63	5217
2026-01-29 22:39:43.88	74.91	30.47	-46.4	-49.1	14.2	1.50e-06	0	43	0	466616320	63	5207
2026-01-29 22:39:44.88	75.24	30.53	-46.4	-49.1	14.0	0.00e+00	0	43	0	468713472	63	5215
2026-01-29 22:39:45.88	75.57	30.59	-46.6	-49.4	14.0	6.10e-06	0	43	0	470810624	63	5363
2026-01-29 22:39:46.88	75.91	30.65	-46.4	-49.2	14.1	7.00e-07	0	43	0	471859200	63	5242
2026-01-29 22:39:47.88	76.24	30.71	-46.4	-49.1	14.1	1.50e-06	0	43	0	473956352	63	5218
2026-01-29 22:39:48.89	76.58	30.77	-46.5	-49.4	13.9	2.20e-06	0	43	0	476053504	63	5388
2026-01-29 22:39:49.89	76.92	30.83	-46.6	-49.5	13.9	3.00e-06	0	43	0	478150656	63	5426
2026-01-29 22:39:50.89	77.25	30.88	-46.5	-49.5	13.8	4.50e-06	0	43	0	480247808	63	5403
2026-01-29 22:39:51.89	77.59	30.93	-46.3	-49.0	14.3	1.50e-06	0	43	0	481296384	63	5122
2026-01-29 22:39:52.89	77.93	30.99	-46.2	-48.8	14.6	0.00e+00	0	44	0	483393536	63	5016
2026-01-29 22:39:53.89	78.27	31.04	-46.0	-48.5	14.8	0.00e+00	0	44	0	485490688	63	4852
2026-01-29 22:39:54.89	78.61	31.09	-45.7	-48.0	15.3	0.00e+00	0	43	0	487587840	63	4566
2026-01-29 22:39:55.89	78.96	31.14	-45.7	-48.1	15.3	0.00e+00	0	43	0	489684992	63	4619
2026-01-29 22:39:56.89	79.30	31.19	-45.7	-48.1	15.3	0.00e+00	0	43	0	490733568	63	4605
2026-01-29 22:39:57.89	79.65	31.24	-45.7	-48.1	15.3	0.00e+00	0	43	0	492830720	63	4617
2026-01-29 22:39:58.89	79.99	31.29	-45.8	-48.2	15.1	0.00e+00	0	43	0	494927872	63	4704
2026-01-29 22:39:59.89	80.34	31.33	-45.9	-48.4	15.0	0.00e+00	0	43	0	497025024	63	4780
2026-01-29 22:40:00.89	80.69	31.38	-45.8	-48.3	15.1	0.00e+00	0	43	0	498073600	63	4707
2026-01-29 22:40:01.89	81.04	31.42	-45.8	-48.2	15.1	0.00e+00	0	43	0	500170752	63	4683
2026-01-29 22:40:02.90	81.39	31.47	-45.6	-47.9	15.3	0.00e+00	0	43	0	502267904	63	4535
2026-01-29 22:40:03.90	81.74	31.51	-45.5	-47.7	15.6	0.00e+00	0	43	0	504365056	62	4700
2026-01-29 22:40:04.90	82.09	31.55	-45.2	-47.3	16.0	0.00e+00	0	43	0	506462208	62	4492
2026-01-29 22:40:05.90	82.45	31.59	-45.1	-47.3	16.0	0.00e+00	0	43	0	507510784	62	4470
2026-01-29 22:40:06.91	82.80	31.63	-45.0	-47.2	16.1	0.00e+00	0	43	0	509607936	61	4698
2026-01-29 22:40:07.91	83.16	31.67	-45.1	-47.4	15.9	0.00e+00	0	43	0	511705088	61	4795
2026-01-29 22:40:08.91	83.51	31.70	-45.1	-47.3	16.0	0.00e+00	0	43	0	513802240	61	4744
2026-01-29 22:40:09.91	83.87	31.74	-45.3	-47.5	15.8	0.00e+00	0	43	0	515899392	61	4849
2026-01-29 22:40:10.91	84.22	31.77	-45.2	-47.5	15.8	0.00e+00	0	43	0	516947968	61	4847
2026-01-29 22:40:11.91	84.58	31.80	-45.1	-47.3	15.9	0.00e+00	0	43	0	519045120	61	4757
2026-01-29 22:40:12.91	84.94	31.84	-45.0	-47.2	16.1	0.00e+00	0	43	0	521142272	61	4658
2026-01-29 22:40:13.91	85.30	31.87	-45.0	-47.2	16.1	0.00e+00	0	43	0	523239424	61	4665
2026-01-29 22:40:14.92	85.66	31.90	-45.1	-47.4	16.0	0.00e+00	0	43	0	525336576	61	4767
2026-01-29 22:40:15.92	86.02	31.92	-45.3	-47.7	15.6	0.00e+00	0	43	0	526385152	61	4930
2026-01-29 22:40:16.92	86.38	31.95	-45.6	-48.1	15.2	0.00e+00	0	43	0	528482304	61	5197
2026-01-29 22:40:17.92	86.74	31.98	-45.9	-48.6	14.7	0.00e+00	0	43	0	530579456	62	5182
2026-01-29 22:40:18.92	87.11	32.00	-46.2	-49.0	14.3	0.00e+00	0	43	0	532676608	62	5432
2026-01-29 22:40:19.92	87.47	32.02	-46.0	-48.7	14.5	7.00e-07	0	43	0	534773760	62	5270
2026-01-29 22:40:20.92	87.83	32.05	-45.7	-48.4	14.9	7.00e-07	0	43	0	535822336	62	5075
2026-01-29 22:40:21.93	88.20	32.07	-45.4	-48.0	15.4	0.00e+00	0	43	0	537919488	62	4818
2026-01-29 22:40:22.93	88.56	32.09	-45.2	-47.5	15.8	0.00e+00	0	43	0	540016640	62	4547
2026-01-29 22:40:23.93	88.93	32.11	-45.0	-47.1	16.1	0.00e+00	0	43	0	542113792	61	4628
2026-01-29 22:40:24.93	89.29	32.12	-44.9	-46.9	16.4	0.00e+00	0	43	0	543162368	61	4523
2026-01-29 22:40:25.93	89.66	32.14	-44.9	-46.9	16.4	0.00e+00	0	43	0	545259520	61	4536
2026-01-29 22:40:26.93	90.02	32.15	-44.9	-47.0	16.2	0.00e+00	0	43	0	547356672	61	4563
2026-01-29 22:40:27.93	90.39	32.17	-45.0	-47.0	16.3	0.00e+00	0	43	0	549453824	61	4584
2026-01-29 22:40:28.93	90.75	32.18	-44.9	-46.8	16.4	0.00e+00	0	43	0	551550976	61	4492
2026-01-29 22:40:29.93	91.12	32.19	-44.9	-46.8	16.4	0.00e+00	0	43	0	552599552	61	4491
2026-01-29 22:40:30.93	91.49	32.20	-44.8	-46.7	16.6	0.00e+00	0	43	0	554696704	61	4414
2026-01-29 22:40:31.93	91.85	32.21	-44.8	-46.8	16.5	0.00e+00	0	43	0	556793856	61	4471
2026-01-29 22:40:32.93	92.22	32.21	-44.9	-46.9	16.3	0.00e+00	0	43	0	558891008	61	4538
2026-01-29 22:40:33.93	92.59	32.22	-45.1	-47.2	16.1	0.00e+00	0	43	0	560988160	61	4682
2026-01-29 22:40:34.94	92.96	32.22	-45.1	-47.2	16.1	0.00e+00	0	43	0	562036736	61	4681
2026-01-29 22:40:35.94	93.32	32.23	-45.2	-47.4	15.9	0.00e+00	0	43	0	564133888	61	4803
2026-01-29 22:40:36.94	93.69	32.23	-45.4	-47.7	15.5	0.00e+00	0	43	0	566231040	61	4980
2026-01-29 22:40:37.94	94.06	32.23	-45.5	-47.8	15.5	0.00e+00	0	43	0	568328192	61	5034
2026-01-29 22:40:38.94	94.43	32.23	-45.6	-48.1	15.2	0.00e+00	0	43	0	570425344	61	5176
2026-01-29 22:40:39.94	94.79	32.23	-45.6	-48.0	15.4	0.00e+00	0	43	0	571473920	62	4845
2026-01-29 22:40:40.95	95.16	32.22	-45.5	-47.9	15.5	0.00e+00	0	43	0	573571072	62	4764
2026-01-29 22:40:41.95	95.53	32.22	-45.1	-47.1	16.1	0.00e+00	0	43	0	575668224	62	4386
2026-01-29 22:40:42.95	95.90	32.21	-44.9	-46.8	16.4	0.00e+00	0	43	0	577765376	61	4484
2026-01-29 22:40:43.95	96.27	32.20	-44.6	-46.5	16.8	0.00e+00	0	43	0	579862528	61	4295
2026-01-29 22:40:44.96	96.64	32.20	-44.6	-46.4	16.9	0.00e+00	0	43	0	580911104	61	4259
2026-01-29 22:40:45.96	97.00	32.19	-44.7	-46.6	16.6	0.00e+00	0	43	0	583008256	61	4382
2026-01-29 22:40:46.96	97.37	32.17	-45.0	-47.0	16.3	0.00e+00	0	43	0	585105408	61	4567
2026-01-29 22:40:47.95	97.73	32.16	-45.3	-47.4	15.9	0.00e+00	0	43	0	587202560	61	4801
2026-01-29 22:40:48.95	98.10	32.15	-45.5	-47.7	15.6	0.00e+00	0	43	0	588251136	61	4950
2026-01-29 22:40:49.95	98.46	32.13	-45.6	-47.9	15.3	0.00e+00	0	43	0	590348288	61	5073
2026-01-29 22:40:50.96	98.83	32.12	-45.7	-48.1	15.2	0.00e+00	0	43	0	592445440	62	4913
2026-01-29 22:40:51.96	99.20	32.10	-45.8	-48.2	15.1	0.00e+00	0	43	0	594542592	62	4976
2026-01-29 22:40:52.96	99.56	32.08	-45.7	-48.1	15.2	0.00e+00	0	43	0	596639744	62	4886
2026-01-29 22:40:53.96	99.93	32.06	-45.8	-48.2	15.1	0.00e+00	0	43	0	597688320	62	4940
2026-01-29 22:40:54.96	100.29	32.04	-45.8	-48.1	15.1	0.00e+00	0	43	0	599785472	62	4924
2026-01-29 22:40:55.96	100.65	32.02	-46.0	-48.4	14.9	0.00e+00	0	43	0	601882624	62	5075
2026-01-29 22:40:56.96	101.01	32.00	-46.1	-48.7	14.6	0.00e+00	0	43	0	603979776	62	5233
2026-01-29 22:40:57.97	101.38	31.97	-46.4	-49.1	14.2	1.50e-06	0	43	0	606076928	63	5200
2026-01-29 22:40:58.97	101.74	31.94	-46.5	-49.3	13.9	7.00e-07	0	43	0	607125504	63	5322
2026-01-29 22:40:59.97	102.10	31.92	-46.4	-49.2	14.1	7.60e-06	0	43	0	609222656	63	5237
2026-01-29 22:41:00.97	102.46	31.89	-46.4	-49.1	14.1	2.20e-06	0	43	0	611319808	63	5209
2026-01-29 22:41:01.97	102.82	31.86	-46.2	-48.8	14.4	0.00e+00	0	43	0	613416960	63	5026
2026-01-29 22:41:02.97	103.18	31.83	-46.1	-48.7	14.6	2.20e-06	0	43	0	615514112	63	4944
2026-01-29 22:41:03.97	103.54	31.80	-46.2	-48.8	14.5	0.00e+00	0	43	0	616562688	63	5009
2026-01-29 22:41:04.97	103.90	31.76	-46.3	-49.0	14.3	7.00e-07	0	43	0	618659840	63	5141
2026-01-29 22:41:05.97	104.26	31.73	-46.3	-49.0	14.3	7.00e-07	0	43	0	620756992	63	5108
2026-01-29 22:41:06.97	104.61	31.69	-46.5	-49.2	14.0	2.20e-06	0	43	0	622854144	63	5277
2026-01-29 22:41:07.97	104.97	31.66	-46.4	-49.2	14.1	0.00e+00	0	43	0	623902720	63	5249
2026-01-29 22:41:08.97	105.32	31.62	-46.4	-49.1	14.2	7.00e-07	0	43	0	625999872	63	5194
2026-01-29 22:41:09.98	105.68	31.58	-46.2	-48.9	14.4	7.00e-07	0	43	0	628097024	63	5057
2026-01-29 22:41:10.98	106.03	31.54	-46.1	-48.8	14.5	0.00e+00	0	43	0	630194176	63	4988
2026-01-29 22:41:11.98	106.38	31.50	-46.1	-48.6	14.7	7.00e-07	0	43	0	632291328	63	4911
2026-01-29 22:41:12.99	106.74	31.45	-45.8	-48.2	15.1	0.00e+00	0	43	0	633339904	63	4654
2026-01-29 22:41:13.99	107.09	31.41	-45.5	-47.7	15.5	0.00e+00	0	43	0	635437056	62	4689
2026-01-29 22:41:14.99	107.44	31.37	-45.3	-47.5	15.8	0.00e+00	0	43	0	637534208	62	4572
2026-01-29 22:41:15.99	107.79	31.32	-45.1	-47.1	16.1	0.00e+00	0	43	0	639631360	62	4383
2026-01-29 22:41:16.99	108.13	31.27	-44.9	-47.0	16.3	0.00e+00	0	43	0	641728512	61	4549
2026-01-29 22:41:17.99	108.48	31.23	-44.7	-46.7	16.5	0.00e+00	0	43	0	642777088	61	4403
2026-01-29 22:41:18.99	108.83	31.18	-44.8	-46.8	16.4	0.00e+00	0	43	0	644874240	61	4492
2026-01-29 22:41:19.99	109.17	31.13	-45.0	-47.1	16.1	0.00e+00	0	43	0	646971392	61	4611
2026-01-29 22:41:21.00	109.52	31.08	-45.2	-47.4	15.9	0.00e+00	0	43	0	649068544	61	4765
2026-01-29 22:41:22.00	109.86	31.02	-45.3	-47.5	15.7	0.00e+00	0	43	0	651165696	61	4859
2026-01-29 22:41:23.00	110.20	30.97	-45.5	-47.8	15.5	0.00e+00	0	43	0	652214272	61	4984
2026-01-29 22:41:24.01	110.55	30.92	-45.3	-47.4	15.8	0.00e+00	0	43	0	654311424	61	4814
2026-01-29 22:41:25.00	110.88	30.86	-45.4	-47.5	15.7	0.00e+00	0	43	0	656408576	61	4868
2026-01-29 22:41:26.00	111.22	30.81	-45.5	-47.7	15.5	7.00e-07	0	43	0	658505728	61	4973
2026-01-29 22:41:27.00	111.56	30.75	-45.3	-47.5	15.7	0.00e+00	0	43	0	660602880	61	4849
2026-01-29 22:41:28.01	111.89	30.69	-45.2	-47.3	15.9	0.00e+00	0	43	0	661651456	61	4744
2026-01-29 22:41:29.01	112.23	30.63	-45.0	-47.1	16.1	0.00e+00	0	43	0	663748608	61	4612
2026-01-29 22:41:30.00	112.56	30.57	-44.9	-47.0	16.2	0.00e+00	0	43	0	665845760	61	4576
2026-01-29 22:41:31.00	112.89	30.51	-44.7	-46.6	16.6	0.00e+00	0	43	0	667942912	61	4380
2026-01-29 22:41:32.00	113.22	30.45	-44.8	-46.8	16.4	0.00e+00	0	43	0	668991488	61	4453
2026-01-29 22:41:33.01	113.56	30.39	-44.9	-46.9	16.4	0.00e+00	0	43	0	671088640	61	4497
2026-01-29 22:41:34.01	113.88	30.33	-44.8	-46.8	16.5	0.00e+00	0	43	0	673185792	61	4456
2026-01-29 22:41:35.01	114.21	30.26	-45.0	-47.1	16.2	0.00e+00	0	43	0	675282944	61	4616
2026-01-29 22:41:36.01	114.54	30.20	-45.2	-47.5	15.7	0.00e+00	0	43	0	677380096	61	4853
2026-01-29 22:41:37.01	114.86	30.13	-45.6	-48.0	15.2	0.00e+00	0	43	0	678428672	61	5143
2026-01-29 22:41:38.01	115.18	30.06	-45.9	-48.6	14.7	0.00e+00	0	43	0	680525824	62	5177
2026-01-29 22:41:39.01	115.51	30.00	-46.1	-48.8	14.4	7.00e-07	0	43	0	682622976	62	5315
2026-01-29 22:41:40.01	115.83	29.93	-45.8	-48.4	14.8	7.00e-07	0	43	0	684720128	62	5072
2026-01-29 22:41:41.02	116.15	29.86	-45.6	-48.0	15.2	0.00e+00	0	43	0	686817280	62	4855
2026-01-29 22:41:42.02	116.47	29.79	-45.4	-47.7	15.5	7.00e-07	0	43	0	687865856	62	4704
2026-01-29 22:41:43.02	116.78	29.72	-45.2	-47.4	15.8	0.00e+00	0	43	0	689963008	62	4531
2026-01-29 22:41:44.02	117.10	29.65	-45.3	-47.5	15.7	0.00e+00	0	43	0	692060160	62	4591
2026-01-29 22:41:45.02	117.41	29.57	-45.3	-47.5	15.7	7.00e-07	0	43	0	694157312	62	4567
2026-01-29 22:41:46.02	117.72	29.50	-45.4	-47.6	15.6	0.00e+00	0	43	0	695205888	62	4625
2026-01-29 22:41:47.02	118.04	29.43	-45.5	-47.8	15.4	0.00e+00	0	43	0	697303040	62	4741
2026-01-29 22:41:48.02	118.34	29.35	-45.7	-48.0	15.3	0.00e+00	0	43	0	699400192	62	4839
2026-01-29 22:41:49.03	118.66	29.28	-45.7	-48.1	15.1	0.00e+00	0	43	0	701497344	62	4911
2026-01-29 22:41:50.03	118.96	29.20	-45.9	-48.4	14.8	0.00e+00	0	43	0	703594496	62	5100
2026-01-29 22:41:51.03	119.27	29.12	-46.0	-48.5	14.7	7.00e-07	0	43	0	704643072	62	5147
2026-01-29 22:41:52.03	119.57	29.05	-46.1	-48.8	14.5	2.20e-06	0	43	0	706740224	62	5299
2026-01-29 22:41:53.03	119.87	28.97	-46.1	-48.9	14.3	0.00e+00	0	43	0	708837376	62	5360
2026-01-29 22:41:54.03	120.18	28.89	-46.2	-49.0	14.2	7.00e-07	0	43	0	710934528	63	5123
2026-01-29 22:41:55.03	120.48	28.81	-46.1	-48.9	14.3	3.80e-06	0	43	0	713031680	63	5042
2026-01-29 22:41:56.03	120.77	28.73	-46.0	-48.6	14.5	7.00e-07	0	43	0	714080256	63	4923
2026-01-29 22:41:57.03	121.07	28.65	-45.8	-48.4	14.8	0.00e+00	0	43	0	716177408	63	4777
2026-01-29 22:41:58.03	121.37	28.57	-45.8	-48.2	15.0	0.00e+00	0	43	0	718274560	63	4704
2026-01-29 22:41:59.04	121.66	28.49	-45.6	-47.9	15.2	0.00e+00	0	43	0	720371712	63	4528
2026-01-29 22:42:00.04	121.95	28.41	-45.1	-47.2	16.0	0.00e+00	0	43	0	722468864	62	4406
2026-01-29 22:42:01.04	122.25	28.33	-44.8	-46.7	16.5	0.00e+00	0	43	0	723517440	61	4424
2026-01-29 22:42:02.04	122.53	28.24	-44.6	-46.5	16.7	0.00e+00	0	43	0	725614592	61	4325
2026-01-29 22:42:03.04	122.82	28.16	-44.4	-46.2	17.0	0.00e+00	0	43	0	727711744	60	4422
2026-01-29 22:42:04.04	123.11	28.08	-44.5	-46.3	16.9	0.00e+00	0	43	0	729808896	60	4457
2026-01-29 22:42:05.05	123.40	27.99	-44.6	-46.5	16.7	0.00e+00	0	43	0	730857472	60	4552
2026-01-29 22:42:06.04	123.68	27.91	-44.7	-46.5	16.6	0.00e+00	0	43	0	732954624	60	4598
2026-01-29 22:42:07.04	123.96	27.82	-44.9	-46.8	16.4	0.00e+00	0	43	0	735051776	60	4754
2026-01-29 22:42:08.04	124.24	27.73	-44.9	-46.9	16.3	0.00e+00	0	43	0	737148928	60	4802
2026-01-29 22:42:09.05	124.52	27.65	-44.9	-46.9	16.3	0.00e+00	0	43	0	739246080	60	4807
2026-01-29 22:42:10.05	124.80	27.56	-45.2	-47.4	15.8	0.00e+00	0	43	0	740294656	61	4769
2026-01-29 22:42:11.04	125.07	27.47	-45.6	-47.9	15.3	7.00e-07	0	43	0	742391808	61	5069
2026-01-29 22:42:12.04	125.35	27.39	-45.6	-48.0	15.2	0.00e+00	0	43	0	744488960	61	5143
2026-01-29 22:42:13.05	125.62	27.30	-45.6	-47.9	15.2	0.00e+00	0	43	0	746586112	62	4812
2026-01-29 22:42:14.05	125.90	27.21	-45.0	-47.1	16.0	0.00e+00	0	43	0	748683264	62	4383
2026-01-29 22:42:15.05	126.17	27.12	-44.4	-46.2	16.9	0.00e+00	0	43	0	749731840	60	4428
2026-01-29 22:42:16.05	126.43	27.03	-44.0	-45.8	17.4	0.00e+00	0	43	0	751828992	60	4212
2026-01-29 22:42:17.05	126.70	26.94	-43.9	-45.7	17.4	0.00e+00	0	43	0	753926144	59	4398
2026-01-29 22:42:18.05	126.97	26.85	-44.2	-46.1	17.1	0.00e+00	0	43	0	756023296	59	4603
2026-01-29 22:42:19.05	127.23	26.76	-44.4	-46.3	16.8	0.00e+00	0	43	0	758120448	59	4749
2026-01-29 22:42:20.05	127.50	26.67	-44.5	-46.4	16.7	0.00e+00	0	43	0	759169024	59	4774
2026-01-29 22:42:21.05	127.76	26.58	-44.1	-45.9	17.2	0.00e+00	0	43	0	761266176	59	4496
2026-01-29 22:42:22.06	128.02	26.49	-44.0	-45.6	17.5	0.00e+00	0	43	0	763363328	59	4387
2026-01-29 22:42:23.05	128.28	26.40	-43.6	-45.2	17.7	0.00e+00	0	43	0	765460480	59	4156
2026-01-29 22:42:24.06	128.53	26.30	-43.7	-45.2	17.9	0.00e+00	0	43	0	767557632	59	4187
2026-01-29 22:42:25.06	128.79	26.21	-44.0	-45.7	17.4	0.00e+00	0	43	0	768606208	59	4415
2026-01-29 22:42:26.06	129.04	26.12	-44.8	-46.9	16.3	0.00e+00	0	43	0	770703360	60	4768
2026-01-29 22:42:27.06	129.30	26.03	-45.6	-48.1	15.0	0.00e+00	0	43	0	772800512	61	5208
2026-01-29 22:42:28.07	129.55	25.93	-45.7	-48.2	15.0	0.00e+00	0	43	0	774897664	62	4975
2026-01-29 22:42:29.07	129.80	25.84	-45.5	-47.9	15.3	0.00e+00	0	43	0	775946240	62	4800
2026-01-29 22:42:30.07	130.05	25.75	-45.0	-47.1	16.0	0.00e+00	0	43	0	778043392	62	4370
2026-01-29 22:42:31.07	130.30	25.65	-44.7	-46.7	16.5	0.00e+00	0	43	0	780140544	61	4402
2026-01-29 22:42:32.07	130.54	25.56	-44.6	-46.5	16.7	0.00e+00	0	43	0	782237696	61	4337
2026-01-29 22:42:33.07	130.79	25.46	-44.6	-46.5	16.7	0.00e+00	0	43	0	784334848	60	4573
2026-01-29 22:42:34.07	131.03	25.37	-44.8	-46.8	16.4	0.00e+00	0	43	0	785383424	60	4710
2026-01-29 22:42:35.07	131.27	25.27	-44.7	-46.8	16.4	0.00e+00	0	43	0	787480576	60	4706
2026-01-29 22:42:36.07	131.51	25.18	-44.3	-46.1	17.0	0.00e+00	0	43	0	789577728	60	4384
2026-01-29 22:42:37.07	131.75	25.08	-43.9	-45.6	17.5	0.00e+00	0	43	0	791674880	59	4364
2026-01-29 22:42:38.08	131.99	24.99	-43.8	-45.4	17.7	0.00e+00	0	43	0	793772032	59	4255
2026-01-29 22:42:39.08	132.22	24.89	-43.5	-45.1	18.0	0.00e+00	0	43	0	794820608	59	4114
2026-01-29 22:42:40.08	132.46	24.80	-43.7	-45.3	17.8	0.00e+00	0	43	0	796917760	58	4465
2026-01-29 22:42:41.08	132.69	24.70	-44.2	-46.0	17.2	0.00e+00	0	43	0	799014912	58	4820
2026-01-29 22:42:42.08	132.92	24.61	-44.5	-46.3	16.8	0.00e+00	0	43	0	801112064	59	4748
2026-01-29 22:42:43.08	133.15	24.51	-44.4	-46.2	16.8	0.00e+00	0	43	0	803209216	59	4697
2026-01-29 22:42:44.08	133.38	24.42	-43.9	-45.6	17.5	0.00e+00	0	43	0	804257792	59	4364
2026-01-29 22:42:45.08	133.61	24.32	-43.3	-44.9	18.2	0.00e+00	0	43	0	806354944	58	4248
2026-01-29 22:42:46.08	133.83	24.22	-43.3	-44.8	18.0	0.00e+00	0	43	0	808452096	58	4214
2026-01-29 22:42:47.08	134.06	24.13	-43.2	-44.7	18.4	0.00e+00	0	43	0	810549248	58	4159
2026-01-29 22:42:48.08	134.28	24.03	-43.4	-44.9	18.2	0.00e+00	0	43	0	811597824	58	4271
2026-01-29 22:42:49.08	134.50	23.93	-43.9	-45.5	17.6	0.00e+00	0	43	0	813694976	58	4578
2026-01-29 22:42:50.09	134.73	23.84	-44.1	-45.8	17.3	0.00e+00	0	43	0	815792128	58	4749
2026-01-29 22:42:51.09	134.95	23.74	-44.0	-45.7	17.4	0.00e+00	0	43	0	817889280	58	4675
2026-01-29 22:42:52.09	135.16	23.64	-43.7	-45.3	17.8	0.00e+00	0	43	0	819986432	58	4479
2026-01-29 22:42:53.09	135.38	23.55	-43.4	-44.9	18.1	0.00e+00	0	43	0	821035008	58	4281
2026-01-29 22:42:54.09	135.60	23.45	-43.0	-44.4	18.7	0.00e+00	0	43	0	823132160	57	4262
2026-01-29 22:42:55.09	135.81	23.35	-43.0	-44.5	18.5	0.00e+00	0	43	0	825229312	57	4311
2026-01-29 22:42:56.09	136.02	23.26	-43.3	-44.9	18.2	0.00e+00	0	43	0	827326464	57	4506
2026-01-29 22:42:57.09	136.23	23.16	-43.6	-45.2	17.8	0.00e+00	0	43	0	829423616	57	4696
2026-01-29 22:42:58.09	136.45	23.06	-43.8	-45.5	17.6	0.00e+00	0	43	0	830472192	58	4552
2026-01-29 22:42:59.09	136.65	22.96	-43.8	-45.4	17.6	0.00e+00	0	43	0	832569344	58	4538
2026-01-29 22:43:00.09	136.86	22.87	-43.6	-45.2	17.9	0.00e+00	0	43	0	834666496	58	4403
2026-01-29 22:43:01.09	137.07	22.77	-43.5	-45.0	18.0	0.00e+00	0	43	0	836763648	58	4328
2026-01-29 22:43:02.09	137.27	22.67	-43.0	-44.4	18.7	0.00e+00	0	43	0	837812224	58	4019
2026-01-29 22:43:03.10	137.48	22.58	-42.8	-44.2	18.9	0.00e+00	0	43	0	839909376	57	4157
2026-01-29 22:43:04.10	137.68	22.48	-42.8	-44.1	18.9	0.00e+00	0	43	0	842006528	57	4123
2026-01-29 22:43:05.10	137.88	22.38	-42.8	-44.2	18.8	0.00e+00	0	43	0	844103680	57	4164
2026-01-29 22:43:06.10	138.08	22.28	-43.0	-44.4	18.6	0.00e+00	0	42	0	846200832	57	4260
2026-01-29 22:43:07.10	138.28	22.19	-43.1	-44.6	18.5	0.00e+00	0	43	0	848297984	57	4344
2026-01-29 22:43:08.10	138.48	22.09	-42.9	-44.3	18.7	0.00e+00	0	43	0	849346560	57	4204
2026-01-29 22:43:09.10	138.68	21.99	-42.8	-44.1	18.8	0.00e+00	0	43	0	851443712	57	4145
2026-01-29 22:43:10.10	138.87	21.90	-42.5	-43.8	19.2	0.00e+00	0	43	0	853540864	57	3994
2026-01-29 22:43:11.10	139.07	21.80	-42.4	-43.7	19.3	0.00e+00	0	43	0	855638016	56	4166
2026-01-29 22:43:12.10	139.26	21.70	-42.3	-43.5	19.5	0.00e+00	0	43	0	856686592	56	4094
2026-01-29 22:43:13.10	139.45	21.61	-42.3	-43.5	19.5	0.00e+00	0	42	0	858783744	56	4091
2026-01-29 22:43:14.10	139.64	21.51	-42.1	-43.4	19.6	0.00e+00	0	43	0	860880896	56	4033
2026-01-29 22:43:15.10	139.83	21.41	-42.3	-43.6	19.4	0.00e+00	0	43	0	862978048	56	4116
2026-01-29 22:43:16.10	140.02	21.32	-42.3	-43.6	19.3	0.00e+00	0	43	0	865075200	56	4142
2026-01-29 22:43:17.10	140.21	21.22	-42.3	-43.6	19.4	0.00e+00	0	43	0	866123776	56	4121
2026-01-29 22:43:18.11	140.40	21.12	-42.3	-43.6	19.4	0.00e+00	0	42	0	868220928	56	4108
2026-01-29 22:43:19.11	140.58	21.03	-42.2	-43.5	19.5	0.00e+00	0	43	0	870318080	56	4084
2026-01-29 22:43:20.11	140.77	20.93	-42.2	-43.5	19.5	0.00e+00	0	43	0	872415232	56	4066
2026-01-29 22:43:21.11	140.95	20.83	-42.0	-43.3	19.7	0.00e+00	0	42	0	874512384	56	3980
2026-01-29 22:43:22.11	141.13	20.74	-42.1	-43.3	19.7	0.00e+00	0	42	0	875560960	56	3977
2026-01-29 22:43:23.11	141.31	20.64	-42.1	-43.3	19.7	0.00e+00	0	43	0	877658112	56	3977
2026-01-29 22:43:24.11	141.49	20.55	-42.1	-43.3	19.7	0.00e+00	0	42	0	879755264	56	3985
2026-01-29 22:43:25.11	141.67	20.45	-42.2	-43.4	19.5	0.00e+00	0	43	0	881852416	56	4039
2026-01-29 22:43:26.11	141.85	20.35	-42.2	-43.5	19.5	0.00e+00	0	43	0	882900992	56	4066
2026-01-29 22:43:27.11	142.02	20.26	-42.2	-43.4	19.5	0.00e+00	0	42	0	884998144	56	4046
2026-01-29 22:43:28.11	142.20	20.16	-42.1	-43.4	19.6	0.00e+00	0	42	0	887095296	56	4014
2026-01-29 22:43:29.12	142.37	20.07	-42.1	-43.3	19.7	0.00e+00	0	43	0	889192448	56	3990
2026-01-29 22:43:30.12	142.55	19.97	-42.0	-43.3	19.7	0.00e+00	0	43	0	891289600	56	3964
2026-01-29 22:43:31.12	142.72	19.88	-41.7	-42.9	19.9	0.00e+00	0	43	0	892338176	55	4027
2026-01-29 22:43:32.12	142.89	19.78	-41.7	-42.8	19.9	0.00e+00	0	42	0	894435328	55	3999
2026-01-29 22:43:33.12	143.06	19.69	-41.6	-42.8	20.0	0.00e+00	0	43	0	896532480	55	3992
2026-01-29 22:43:34.13	143.23	19.59	-41.7	-42.9	19.9	0.00e+00	0	43	0	898629632	55	4032
2026-01-29 22:43:35.12	143.40	19.50	-41.9	-43.2	19.6	0.00e+00	0	42	0	900726784	55	4151
2026-01-29 22:43:36.12	143.56	19.40	-42.1	-43.4	19.4	0.00e+00	0	42	0	901775360	55	4282
2026-01-29 22:43:37.13	143.73	19.31	-42.3	-43.7	19.1	0.00e+00	0	43	0	903872512	55	4407
2026-01-29 22:43:38.13	143.90	19.21	-42.5	-44.0	18.9	0.00e+00	0	43	0	905969664	55	4564
2026-01-29 22:43:39.13	144.06	19.12	-42.8	-44.3	18.6	0.00e+00	0	43	0	908066816	56	4480
2026-01-29 22:43:40.13	144.22	19.02	-42.8	-44.3	18.6	0.00e+00	0	42	0	910163968	56	4491
2026-01-29 22:43:41.13	144.38	18.93	-42.9	-44.5	18.5	0.00e+00	0	43	0	911212544	56	4557
2026-01-29 22:43:42.14	144.55	18.83	-42.8	-44.3	18.7	0.00e+00	0	43	0	913309696	56	4486
2026-01-29 22:43:43.14	144.71	18.74	-42.8	-44.3	18.7	0.00e+00	0	43	0	915406848	56	4469
2026-01-29 22:43:44.14	144.87	18.65	-42.8	-44.2	18.8	0.00e+00	0	43	0	917504000	56	4434
2026-01-29 22:43:45.14	145.02	18.55	-42.5	-43.9	19.1	0.00e+00	0	43	0	918552576	56	4279
2026-01-29 22:43:46.14	145.18	18.46	-42.7	-44.2	18.8	0.00e+00	0	43	0	920649728	56	4394
2026-01-29 22:43:47.14	145.34	18.37	-42.8	-44.2	18.8	0.00e+00	0	43	0	922746880	56	4433
2026-01-29 22:43:48.14	145.49	18.27	-42.8	-44.3	18.7	0.00e+00	0	43	0	924844032	56	4447
2026-01-29 22:43:49.14	145.65	18.18	-42.8	-44.3	18.7	0.00e+00	0	42	0	926941184	56	4450
2026-01-29 22:43:50.14	145.80	18.09	-42.9	-44.4	18.6	0.00e+00	0	43	0	927989760	56	4511
2026-01-29 22:43:51.14	145.95	17.99	-42.9	-44.3	18.7	0.00e+00	0	42	0	930086912	56	4480
2026-01-29 22:43:52.14	146.11	17.90	-42.9	-44.3	18.7	0.00e+00	0	42	0	932184064	56	4465
2026-01-29 22:43:53.14	146.26	17.81	-42.9	-44.3	18.7	0.00e+00	0	43	0	934281216	56	4443
2026-01-29 22:43:54.14	146.41	17.72	-42.8	-44.2	18.8	0.00e+00	0	43	0	936378368	56	4415
2026-01-29 22:43:55.14	146.55	17.63	-42.7	-44.1	18.6	0.00e+00	0	42	0	937426944	56	4370
2026-01-29 22:43:56.14	146.70	17.53	-42.7	-44.1	18.8	0.00e+00	0	42	0	939524096	56	4385
2026-01-29 22:43:57.14	146.85	17.44	-42.9	-44.4	18.6	0.00e+00	0	43	0	941621248	56	4511
2026-01-29 22:43:58.15	147.00	17.35	-43.0	-44.5	18.5	0.00e+00	0	43	0	943718400	56	4549
2026-01-29 22:43:59.15	147.14	17.26	-43.1	-44.6	18.4	0.00e+00	0	43	0	944766976	56	4637
2026-01-29 22:44:00.14	147.29	17.17	-43.2	-44.7	18.3	0.00e+00	0	42	0	946864128	56	4679
2026-01-29 22:44:01.15	147.43	17.08	-43.2	-44.8	18.2	0.00e+00	0	43	0	948961280	57	4443
2026-01-29 22:44:02.15	147.58	16.99	-43.3	-44.9	18.1	0.00e+00	0	42	0	951058432	57	4507
2026-01-29 22:44:03.15	147.72	16.89	-43.4	-45.0	18.0	0.00e+00	0	42	0	953155584	57	4568
2026-01-29 22:44:04.15	147.86	16.80	-43.4	-44.9	18.0	0.00e+00	0	42	0	955252736	57	4539
2026-01-29 22:44:05.14	148.00	16.71	-43.4	-45.0	17.9	0.00e+00	0	43	0	956301312	57	4592
2026-01-29 22:44:06.15	148.14	16.62	-43.6	-45.2	17.8	0.00e+00	0	43	0	958398464	57	4693
2026-01-29 22:44:07.15	148.28	16.53	-43.7	-45.4	17.6	0.00e+00	0	43	0	960495616	58	4537
2026-01-29 22:44:08.15	148.42	16.44	-43.9	-45.7	17.3	0.00e+00	0	43	0	962592768	58	4654
2026-01-29 22:44:09.15	148.55	16.35	-44.0	-45.9	17.1	0.00e+00	0	43	0	963641344	58	4782
2026-01-29 22:44:10.15	148.69	16.27	-44.2	-46.2	16.8	0.00e+00	0	42	0	965738496	59	4662
2026-01-29 22:44:11.14	148.82	16.18	-44.3	-46.3	16.7	0.00e+00	0	43	0	967835648	59	4742
2026-01-29 22:44:12.14	148.96	16.09	-44.3	-46.2	16.8	0.00e+00	0	43	0	969932800	59	4681
2026-01-29 22:44:13.15	149.09	16.00	-44.2	-46.1	16.9	0.00e+00	0	42	0	972029952	59	4632
2026-01-29 22:44:14.15	149.23	15.91	-44.1	-45.9	17.1	0.00e+00	0	42	0	973078528	59	4506
2026-01-29 22:44:15.14	149.36	15.82	-43.7	-45.4	17.6	0.00e+00	0	43	0	975175680	59	4257
2026-01-29 22:44:16.14	149.49	15.73	-43.8	-45.5	17.5	0.00e+00	0	43	0	977272832	59	4300
2026-01-29 22:44:17.13	149.62	15.65	-43.6	-45.3	17.7	0.00e+00	0	43	0	979369984	59	4202
2026-01-29 22:44:18.14	149.75	15.56	-43.6	-45.2	17.8	0.00e+00	0	43	0	980418560	59	4161
2026-01-29 22:44:19.14	149.88	15.47	-43.5	-45.1	17.9	0.00e+00	0	42	0	982515712	59	4120
2026-01-29 22:44:20.14	150.01	15.38	-43.6	-45.3	17.7	0.00e+00	0	42	0	984612864	58	4447
2026-01-29 22:44:21.14	150.14	15.29	-43.5	-45.2	17.7	0.00e+00	0	43	0	986710016	58	4423
2026-01-29 22:44:22.14	150.27	15.21	-43.8	-45.6	17.4	0.00e+00	0	42	0	988807168	58	4639
2026-01-29 22:44:23.14	150.39	15.12	-43.9	-45.8	17.2	0.00e+00	0	42	0	989855744	58	4733
2026-01-29 22:44:24.14	150.52	15.03	-44.2	-46.1	16.9	0.00e+00	0	42	0	991952896	58	4878
2026-01-29 22:44:25.14	150.64	14.95	-44.2	-46.1	16.9	0.00e+00	0	43	0	994050048	59	4634
2026-01-29 22:44:26.14	150.77	14.86	-44.1	-46.0	17.0	0.00e+00	0	43	0	996147200	59	4551
2026-01-29 22:44:27.14	150.89	14.77	-44.2	-46.0	17.0	0.00e+00	0	43	0	998244352	59	4576
2026-01-29 22:44:28.14	151.02	14.69	-44.2	-46.0	17.0	0.00e+00	0	42	0	999292928	59	4557
2026-01-29 22:44:29.14	151.14	14.60	-44.0	-45.7	17.2	0.00e+00	0	42	0	1001390080	59	4435
2026-01-29 22:44:30.14	151.26	14.51	-43.8	-45.5	17.5	0.00e+00	0	43	0	1003487232	59	4305
2026-01-29 22:44:31.15	151.38	14.43	-43.7	-45.4	17.5	0.00e+00	0	43	0	1005584384	59	4276
2026-01-29 22:44:32.15	151.50	14.34	-43.5	-45.1	17.8	0.00e+00	0	43	0	1006632960	58	4370
2026-01-29 22:44:33.15	151.62	14.26	-43.5	-45.1	17.8	0.00e+00	0	42	0	1008730112	58	4380
2026-01-29 22:44:34.15	151.74	14.17	-43.5	-45.1	17.8	0.00e+00	0	43	0	1010827264	58	4380
2026-01-29 22:44:35.15	151.86	14.09	-43.6	-45.4	17.5	0.00e+00	0	43	0	1012924416	58	4520
2026-01-29 22:44:36.15	151.98	14.00	-43.8	-45.6	17.4	0.00e+00	0	42	0	1015021568	58	4606
2026-01-29 22:44:37.15	152.10	13.92	-43.8	-45.7	17.3	0.00e+00	0	42	0	1017118720	58	4661
2026-01-29 22:44:38.15	152.21	13.83	-44.0	-45.9	17.0	0.00e+00	0	42	0	1018167296	58	4811
2026-01-29 22:44:39.15	152.33	13.75	-44.2	-46.1	16.9	0.00e+00	0	42	0	1020264448	58	4891
2026-01-29 22:44:40.16	152.45	13.67	-44.2	-46.1	16.9	0.00e+00	0	42	0	1022361600	59	4626
2026-01-29 22:44:41.15	152.56	13.58	-44.2	-46.1	16.7	0.00e+00	0	42	0	1024458752	59	4651
2026-01-29 22:44:42.16	152.67	13.50	-44.1	-46.0	16.9	0.00e+00	0	43	0	1025507328	59	4562
2026-01-29 22:44:43.15	152.79	13.42	-44.0	-45.9	17.0	0.00e+00	0	42	0	1027604480	59	4541
2026-01-29 22:44:44.15	152.90	13.33	-43.9	-45.7	17.2	0.00e+00	0	42	0	1029701632	59	4432
2026-01-29 22:44:45.15	153.01	13.25	-43.8	-45.7	17.3	0.00e+00	0	42	0	1031798784	59	4393
2026-01-29 22:44:46.16	153.12	13.17	-43.6	-45.4	17.5	0.00e+00	0	42	0	1033895936	59	4272
2026-01-29 22:44:47.16	153.23	13.08	-43.4	-45.1	17.8	4.27e-05	0	43	0	1034944512	58	4370
2026-01-29 22:44:48.16	153.34	13.00	-43.4	-45.1	17.8	0.00e+00	0	43	0	1037041664	58	4377
2026-01-29 22:44:49.16	153.45	12.92	-43.2	-44.8	18.1	0.00e+00	0	42	0	1039138816	58	4226
2026-01-29 22:44:50.16	153.56	12.84	-43.1	-44.7	18.2	6.40e-05	0	42	0	1041235968	58	4152
2026-01-29 22:44:51.16	153.67	12.75	-43.2	-44.8	18.1	0.00e+00	0	42	0	1043333120	58	4209
2026-01-29 22:44:52.16	153.78	12.67	-43.1	-44.7	18.1	0.00e+00	0	42	0	1044381696	58	4184
2026-01-29 22:44:53.16	153.89	12.59	-43.1	-44.7	18.2	0.00e+00	0	43	0	1046478848	58	4167
2026-01-29 22:44:54.16	153.99	12.51	-43.3	-45.0	17.9	0.00e+00	0	42	0	1048576000	58	4296
2026-01-29 22:44:55.16	154.10	12.43	-43.4	-45.0	17.8	0.00e+00	0	42	0	1050673152	58	4322
2026-01-29 22:44:56.16	154.21	12.35	-43.5	-45.2	17.7	0.00e+00	0	42	0	1051721728	58	4409
2026-01-29 22:44:57.16	154.31	12.27	-43.7	-45.4	17.5	0.00e+00	0	42	0	1053818880	58	4520
2026-01-29 22:44:58.16	154.42	12.19	-43.8	-45.6	17.3	0.00e+00	0	42	0	1055916032	58	4633
2026-01-29 22:44:59.16	154.52	12.10	-43.8	-45.6	17.3	0.00e+00	0	42	0	1058013184	58	4629
2026-01-29 22:45:00.16	154.62	12.02	-43.8	-45.7	17.2	0.00e+00	0	42	0	1060110336	58	4695
2026-01-29 22:45:01.16	154.73	11.94	-43.8	-45.7	17.2	0.00e+00	0	42	0	1061158912	58	4667
2026-01-29 22:45:02.16	154.83	11.86	-43.8	-45.7	17.2	0.00e+00	0	43	0	1063256064	58	4656
2026-01-29 22:45:03.17	154.93	11.78	-43.7	-45.6	17.3	0.00e+00	0	43	0	1065353216	58	4625
2026-01-29 22:45:04.17	155.03	11.70	-43.8	-45.6	16.1	0.00e+00	0	42	0	1067450368	58	4647
2026-01-29 22:45:05.17	155.14	11.63	-43.9	-45.8	17.1	0.00e+00	0	42	0	1069547520	58	4706
2026-01-29 22:45:06.17	155.24	11.55	-43.7	-45.5	17.2	0.00e+00	0	42	0	1070596096	58	4566
2026-01-29 22:45:07.17	155.34	11.47	-43.7	-45.5	17.3	2.97e-05	0	42	0	1072693248	58	4571
2026-01-29 22:45:08.17	155.43	11.39	-43.6	-45.3	17.6	0.00e+00	0	42	0	1074790400	58	4450
2026-01-29 22:45:09.18	155.53	11.31	-43.6	-45.3	17.6	0.00e+00	0	42	0	1076887552	58	4448
2026-01-29 22:45:10.17	155.63	11.23	-43.7	-45.4	17.4	9.56e-03	0	42	0	1078984704	58	4518
2026-01-29 22:45:11.17	155.73	11.15	-43.6	-45.3	17.6	0.00e+00	0	42	0	1080033280	58	4446
2026-01-29 22:45:12.18	155.83	11.07	-43.7	-45.4	17.4	0.00e+00	0	43	0	1082130432	58	4534
2026-01-29 22:45:13.17	155.92	11.00	-43.8	-45.5	17.3	1.38e-02	0	42	0	1084227584	58	4576
2026-01-29 22:45:14.17	156.02	10.92	-43.5	-45.2	17.6	0.00e+00	0	42	0	1086324736	58	4399
2026-01-29 22:45:15.17	156.12	10.84	-43.7	-45.4	17.4	0.00e+00	0	42	0	1087373312	58	4519
2026-01-29 22:45:16.17	156.21	10.76	-43.7	-45.5	17.3	8.01e-03	0	42	0	1089470464	58	4562
2026-01-29 22:45:17.17	156.31	10.69	-43.8	-45.5	17.3	0.00e+00	0	42	0	1091567616	58	4592
2026-01-29 22:45:18.17	156.40	10.61	-43.8	-45.6	17.2	0.00e+00	0	42	0	1093664768	58	4609
2026-01-29 22:45:19.17	156.49	10.53	-43.8	-45.5	17.3	6.12e-03	0	42	0	1095761920	58	4592
2026-01-29 22:45:20.18	156.59	10.45	-43.7	-45.4	17.4	0.00e+00	0	42	0	1096810496	58	4523
2026-01-29 22:45:21.18	156.68	10.38	-43.9	-45.7	17.1	0.00e+00	0	42	0	1098907648	58	4675
2026-01-29 22:45:22.18	156.77	10.30	-44.0	-45.7	17.1	0.00e+00	0	42	0	1101004800	59	4420
2026-01-29 22:45:23.18	156.87	10.23	-43.9	-45.7	17.1	0.00e+00	0	42	0	1103101952	59	4411
2026-01-29 22:45:24.18	156.96	10.15	-44.1	-45.9	16.9	0.00e+00	0	42	0	1105199104	59	4503
2026-01-29 22:45:25.18	157.05	10.07	-44.0	-45.8	16.9	0.00e+00	0	42	0	1106247680	59	4465
2026-01-29 22:45:26.18	157.14	10.00	-44.0	-45.8	16.9	0.00e+00	0	42	0	1108344832	59	4479
2026-01-29 22:45:27.19	157.23	9.92	-44.0	-45.8	9.8	3.80e-06	0	42	0	1110441984	59	4466
2026-01-29 22:45:28.19	157.32	9.85	-43.9	-45.7	17.1	0.00e+00	0	42	0	1112539136	59	4410
2026-01-29 22:45:29.18	157.41	9.77	-44.1	-46.0	16.7	0.00e+00	0	42	0	1114636288	59	4565
2026-01-29 22:45:30.18	157.50	9.70	-44.0	-45.8	16.9	0.00e+00	0	42	0	1115684864	59	4484
2026-01-29 22:45:31.19	157.59	9.62	-44.0	-45.8	16.9	0.00e+00	0	42	0	1117782016	59	4480
2026-01-29 22:45:32.19	157.67	9.55	-44.1	-46.0	16.7	0.00e+00	0	42	0	1119879168	59	4557
2026-01-29 22:45:33.19	157.76	9.47	-44.0	-45.8	16.9	0.00e+00	0	42	0	1121976320	59	4473
2026-01-29 22:45:34.20	157.85	9.40	-44.1	-46.0	16.7	0.00e+00	0	42	0	1123024896	59	4581
2026-01-29 22:45:35.19	157.94	9.32	-44.2	-46.1	16.6	0.00e+00	0	42	0	1125122048	59	4628
2026-01-29 22:45:36.19	158.02	9.25	-44.5	-46.6	16.2	2.83e-02	0	42	0	1127219200	60	4630
2026-01-29 22:45:37.20	158.11	9.17	-44.4	-46.3	16.4	0.00e+00	0	42	0	1129316352	60	4492
2026-01-29 22:45:38.20	158.19	9.10	-44.3	-46.3	16.5	0.00e+00	0	42	0	1131413504	60	4458
2026-01-29 22:45:39.20	158.28	9.03	-44.4	-46.4	16.3	3.29e-02	0	42	0	1132462080	60	4523
2026-01-29 22:45:40.20	158.36	8.95	-49.7	-63.1	3.8	1.77e-02	0	42	104	1134559232	70	17306
2026-01-29 22:45:41.20	158.45	8.88	-49.4	-64.2	3.8	1.49e+00	0	42	104	1134559232	70	19779
2026-01-29 22:45:42.21	158.53	8.81	-49.7	-64.3	3.8	1.49e+00	0	42	104	1134559232	70	20037
2026-01-29 22:45:43.21	158.62	8.73	-49.9	-64.4	3.8	1.49e+00	0	42	104	1134559232	70	20139
2026-01-29 22:45:44.22	158.70	8.66	-50.0	-64.5	3.8	1.49e+00	0	42	104	1134559232	70	20377
2026-01-29 22:45:45.22	158.78	8.59	-49.8	-64.5	3.8	1.49e+00	0	42	104	1134559232	70	20530
2026-01-29 22:45:46.22	158.86	8.52	-50.1	-64.6	3.8	1.49e+00	0	42	104	1134559232	71	19430
2026-01-29 22:45:47.23	158.95	8.44	-50.2	-64.6	3.8	1.49e+00	0	43	104	1134559232	71	19561
2026-01-29 22:45:48.23	159.03	8.37	-50.4	-64.6	3.8	1.49e+00	0	43	104	1134559232	71	19524
2026-01-29 22:45:49.23	159.11	8.30	-50.4	-64.6	3.8	1.49e+00	0	42	104	1134559232	71	19588
2026-01-29 22:45:50.24	159.19	8.23	-50.5	-64.7	3.8	1.49e+00	0	43	104	1134559232	71	19689
2026-01-29 22:45:51.24	159.27	8.16	-50.5	-64.7	3.8	1.49e+00	0	43	104	1134559232	71	19642
2026-01-29 22:45:52.25	159.35	8.08	-50.4	-64.7	3.8	1.49e+00	0	43	104	1134559232	71	19792
2026-01-29 22:45:53.25	159.43	8.01	-50.5	-64.7	3.8	1.49e+00	0	42	104	1134559232	71	19731
2026-01-29 22:45:54.25	159.51	7.94	-50.3	-64.7	3.8	1.49e+00	0	42	104	1134559232	71	19775
2026-01-29 22:45:55.25	159.59	7.87	-50.4	-64.7	3.8	1.49e+00	0	42	104	1134559232	71	19787
2026-01-29 22:45:56.26	159.67	7.80	-50.4	-64.7	3.8	1.49e+00	0	42	104	1134559232	71	19716
2026-01-29 22:45:57.26	159.75	7.73	-50.6	-64.7	3.8	1.49e+00	0	42	104	1134559232	71	19723
2026-01-29 22:45:58.26	159.82	7.66	-50.5	-64.8	3.8	1.49e+00	0	42	104	1134559232	71	19847
2026-01-29 22:45:59.26	159.90	7.59	-50.4	-64.8	3.8	1.49e+00	0	42	104	1134559232	71	19850
2026-01-29 22:46:00.27	159.98	7.52	-50.6	-64.7	3.8	1.49e+00	0	42	104	1134559232	71	19838
2026-01-29 22:46:01.27	160.06	7.45	-50.5	-64.8	3.8	1.49e+00	0	42	104	1134559232	71	19873
2026-01-29 22:46:02.27	160.13	7.38	-50.5	-64.7	3.8	1.49e+00	0	42	104	1134559232	71	19784
2026-01-29 22:46:03.28	160.21	7.31	-50.3	-64.8	3.8	1.49e+00	0	42	104	1134559232	71	19895
2026-01-29 22:46:04.28	160.28	7.24	-50.4	-64.8	3.8	1.49e+00	0	43	104	1134559232	71	19885
2026-01-29 22:46:05.28	160.36	7.17	-50.5	-64.8	3.8	1.49e+00	0	43	104	1134559232	71	19865
2026-01-29 22:46:06.28	160.43	7.10	-50.5	-64.8	3.8	1.49e+00	0	42	104	1134559232	71	19854
2026-01-29 22:46:07.29	160.51	7.03	-50.5	-64.8	3.8	1.49e+00	0	42	104	1134559232	71	19851
2026-01-29 22:46:08.29	160.58	6.96	-50.5	-64.7	3.8	1.49e+00	0	42	104	1134559232	71	19678
