passes_logs/2026/01/29/T1/T1__20260129_110535_AQUA_rec.log

#Pass ID: 20260129_110535_AQUA
#Satellite: AQUA
#Configuration: AQUA
#almurnet v.1.7.20251203
#Start time: 2026-01-29 11:05:37

#Version: 2.0.20230620
#Station: T1
#Location: 37.570604 lon 55.790049 lat
#TLE: 1 27424U 02022A   26027.96263068  .00001625  00000+0  33481-3 0  9997
#TLE: 2 27424  98.4102 354.6095 0001839  63.4368   7.7786 14.61867353262782

#Time	Az	El	Level	Level2	SNR	BER	BlckErr	Temp	State	Recorded	gain1	gain2
2026-01-29 11:05:37.78	140.33	5.16	-51.0	-71.7	3.8	7.46e-01	0	41	0	0	73	39492
2026-01-29 11:05:38.77	140.29	5.24	-51.8	-71.8	3.8	7.43e-01	0	41	104	0	74	37761
2026-01-29 11:05:39.76	140.25	5.31	-51.7	-71.8	3.8	7.45e-01	0	41	104	0	74	37442
2026-01-29 11:05:40.76	140.21	5.38	-51.6	-71.8	3.8	7.48e-01	0	41	104	0	74	37440
2026-01-29 11:05:41.75	140.17	5.46	-51.1	-71.7	3.8	7.43e-01	0	41	104	0	72	41855
2026-01-29 11:05:42.74	140.13	5.53	-51.4	-71.7	3.8	7.46e-01	0	41	104	0	74	37310
2026-01-29 11:05:43.74	140.08	5.61	-51.3	-71.7	3.8	7.45e-01	0	41	104	0	74	37194
2026-01-29 11:05:44.73	140.04	5.68	-51.6	-71.7	3.8	7.46e-01	0	41	104	0	74	37121
2026-01-29 11:05:45.72	140.00	5.76	-51.4	-71.7	3.8	7.48e-01	0	41	104	0	74	37059
2026-01-29 11:05:46.72	139.96	5.83	-50.8	-71.6	3.8	7.46e-01	0	41	104	0	73	39106
2026-01-29 11:05:47.71	139.92	5.91	-51.1	-71.6	3.8	7.44e-01	0	41	104	0	73	38779
2026-01-29 11:05:48.70	139.87	5.98	-51.0	-71.5	3.8	7.50e-01	0	41	104	0	73	38666
2026-01-29 11:05:49.70	139.83	6.06	-51.2	-71.5	3.8	7.49e-01	0	41	104	0	73	38322
2026-01-29 11:05:50.69	139.79	6.13	-51.0	-71.4	3.8	7.48e-01	0	41	104	0	72	40439
2026-01-29 11:05:51.68	139.74	6.21	-51.1	-71.3	3.8	7.44e-01	0	41	104	0	73	37392
2026-01-29 11:05:52.68	139.70	6.29	-50.7	-71.0	3.8	7.40e-01	0	41	104	0	73	36205
2026-01-29 11:05:53.67	139.66	6.36	-50.6	-66.4	4.6	7.23e-01	0	41	104	0	73	21287
2026-01-29 11:05:54.66	139.61	6.44	-50.6	-67.9	3.9	7.43e-01	0	41	104	0	73	25369
2026-01-29 11:05:55.65	139.57	6.52	-50.7	-68.6	4.0	7.46e-01	0	41	104	0	73	27479
2026-01-29 11:05:56.65	139.52	6.60	-50.7	-69.5	3.8	7.46e-01	0	41	104	0	73	30588
2026-01-29 11:05:57.64	139.48	6.67	-50.7	-70.2	3.8	7.47e-01	0	41	104	0	73	33185
2026-01-29 11:05:58.64	139.43	6.75	-50.7	-70.8	3.8	7.47e-01	0	41	104	0	73	35618
2026-01-29 11:05:59.63	139.39	6.83	-50.7	-71.0	3.8	7.46e-01	0	41	104	0	73	36157
2026-01-29 11:06:00.62	139.34	6.91	-50.7	-70.6	3.8	7.47e-01	0	42	104	0	73	34754
2026-01-29 11:06:01.62	139.30	6.99	-50.7	-69.9	3.8	7.48e-01	0	42	104	0	73	32023
2026-01-29 11:06:02.61	139.25	7.07	-50.7	-69.1	3.8	7.47e-01	0	42	104	0	73	29188
2026-01-29 11:06:03.60	139.20	7.14	-50.6	-68.4	4.0	7.44e-01	0	42	104	0	73	26877
2026-01-29 11:06:04.60	139.15	7.22	-50.6	-66.9	4.3	7.31e-01	0	41	104	0	73	22735
2026-01-29 11:06:05.59	139.11	7.30	-50.5	-65.5	4.9	7.12e-01	0	42	0	0	73	19381
2026-01-29 11:06:06.58	139.06	7.38	-50.5	-63.9	6.0	6.85e-01	0	41	0	524288	72	16933
2026-01-29 11:06:07.58	139.01	7.46	-50.2	-61.5	8.0	6.45e-01	0	42	0	2097152	72	12915
2026-01-29 11:06:08.57	138.96	7.55	-50.0	-59.2	10.5	6.23e-01	0	42	0	4194304	71	10483
2026-01-29 11:06:09.56	138.92	7.63	-49.5	-57.1	12.7	6.12e-01	0	42	0	5767168	71	8242
2026-01-29 11:06:10.56	138.87	7.71	-48.8	-54.9	14.9	6.10e-01	0	42	0	7864320	69	7200
2026-01-29 11:06:11.55	138.82	7.79	-48.1	-53.2	16.6	6.07e-01	0	42	0	9961472	68	6251
2026-01-29 11:06:12.54	138.77	7.87	-47.3	-51.7	18.1	6.08e-01	0	42	0	11534336	66	5879
2026-01-29 11:06:13.54	138.72	7.95	-46.6	-50.5	19.3	6.08e-01	0	42	0	13631488	65	5431
2026-01-29 11:06:14.53	138.67	8.03	-46.1	-49.7	20.0	6.08e-01	0	42	0	15204352	64	5235
2026-01-29 11:06:15.52	138.62	8.12	-45.7	-49.1	20.7	6.06e-01	0	42	0	17301504	63	5205
2026-01-29 11:06:16.52	138.57	8.20	-45.5	-48.7	21.1	6.08e-01	0	42	0	18874368	63	4971
2026-01-29 11:06:17.51	138.52	8.28	-45.5	-48.8	21.0	6.06e-01	0	42	0	20971520	62	5315
2026-01-29 11:06:18.50	138.46	8.37	-45.6	-49.0	20.8	6.08e-01	0	42	0	22544384	62	5421
2026-01-29 11:06:19.50	138.41	8.45	-46.0	-49.5	20.3	6.06e-01	0	42	0	24641536	62	5777
2026-01-29 11:06:20.49	138.36	8.53	-46.6	-50.4	19.5	6.09e-01	0	42	0	26738688	63	6031
2026-01-29 11:06:21.48	138.31	8.62	-47.1	-51.4	18.4	6.08e-01	0	42	0	28311552	64	6414
2026-01-29 11:06:22.48	138.26	8.70	-47.9	-52.8	17.0	6.07e-01	0	42	0	30408704	66	6715
2026-01-29 11:06:23.47	138.20	8.79	-48.9	-55.1	14.9	6.07e-01	0	42	0	31981568	68	7759
2026-01-29 11:06:24.46	138.15	8.87	-49.5	-57.3	12.5	6.12e-01	0	42	0	34078720	69	9438
2026-01-29 11:06:25.46	138.09	8.96	-50.1	-60.1	9.8	6.28e-01	0	42	0	35651584	70	12353
2026-01-29 11:06:26.45	138.04	9.04	-50.3	-62.1	7.4	6.56e-01	0	42	0	37748736	71	14575
2026-01-29 11:06:27.44	137.99	9.13	-49.4	-56.6	12.9	6.10e-01	0	42	0	39321600	70	8234
2026-01-29 11:06:28.44	137.93	9.22	-49.5	-56.7	13.9	6.11e-01	0	42	0	41418752	69	8827
2026-01-29 11:06:29.43	137.88	9.30	-50.6	-70.6	3.8	7.45e-01	0	42	104	41943040	72	36710
2026-01-29 11:06:30.43	137.82	9.39	-48.9	-54.7	14.8	6.05e-01	0	42	0	42467328	69	6988
2026-01-29 11:06:31.42	137.76	9.48	-48.7	-54.3	15.6	6.07e-01	0	42	0	44040192	68	7065
2026-01-29 11:06:32.41	137.71	9.56	-48.5	-53.7	16.2	6.05e-01	0	42	0	46137344	68	6630
2026-01-29 11:06:33.41	137.65	9.65	-47.5	-51.9	17.9	6.06e-01	0	42	0	48234496	67	5677
2026-01-29 11:06:34.40	137.59	9.74	-46.6	-50.4	19.4	6.09e-01	0	42	0	49807360	65	5358
2026-01-29 11:06:35.40	137.54	9.83	-45.8	-49.1	20.7	6.08e-01	0	42	0	51904512	63	5211
2026-01-29 11:06:36.39	137.48	9.92	-45.1	-48.1	21.7	6.07e-01	0	42	0	53477376	62	4913
2026-01-29 11:06:37.39	137.42	10.01	-44.9	-48.0	21.9	6.07e-01	0	42	0	55574528	61	5110
2026-01-29 11:06:38.38	137.36	10.10	-44.7	-47.6	22.3	6.07e-01	0	42	0	57147392	61	4891
2026-01-29 11:06:39.37	137.30	10.19	-44.7	-47.6	22.2	6.08e-01	0	42	0	59244544	61	4923
2026-01-29 11:06:40.37	137.24	10.28	-44.5	-47.3	22.5	6.10e-01	0	42	0	60817408	61	4735
2026-01-29 11:06:41.36	137.18	10.37	-44.3	-47.0	22.7	6.05e-01	0	42	0	62914560	60	4864
2026-01-29 11:06:42.36	137.12	10.46	-44.1	-46.9	23.0	6.06e-01	0	42	0	65011712	60	4772
2026-01-29 11:06:43.35	137.06	10.55	-44.2	-46.9	23.0	6.07e-01	0	42	0	66584576	59	5068
2026-01-29 11:06:44.35	137.00	10.64	-44.1	-46.8	23.2	6.06e-01	0	42	0	68681728	59	5000
2026-01-29 11:06:45.34	136.94	10.73	-44.0	-46.7	23.2	6.06e-01	0	42	0	70254592	59	4962
2026-01-29 11:06:46.34	136.87	10.83	-43.8	-46.4	23.5	6.04e-01	0	42	0	72351744	59	4782
2026-01-29 11:06:47.33	136.81	10.92	-43.7	-46.2	23.7	6.07e-01	0	42	0	73924608	59	4690
2026-01-29 11:06:48.33	136.75	11.01	-43.7	-46.2	23.7	6.08e-01	0	42	0	76021760	59	4687
2026-01-29 11:06:49.32	136.69	11.11	-43.6	-46.2	23.8	6.06e-01	0	42	0	77594624	59	4668
2026-01-29 11:06:50.40	136.62	11.21	-43.6	-46.2	23.7	6.05e-01	0	42	0	79691776	59	4671
2026-01-29 11:06:51.25	136.56	11.29	-43.6	-46.2	23.3	6.08e-01	0	42	0	81264640	59	4673
2026-01-29 11:06:52.59	136.47	11.42	-43.5	-46.1	23.9	6.05e-01	0	42	0	83886080	59	4602
2026-01-29 11:06:53.72	136.40	11.52	-43.5	-46.1	23.8	6.06e-01	0	42	0	85983232	58	4901
2026-01-29 11:06:54.57	136.34	11.61	-43.6	-46.2	23.8	6.03e-01	0	42	0	87556096	58	4927
2026-01-29 11:06:55.71	136.27	11.72	-43.4	-46.0	24.0	6.07e-01	0	43	0	89653248	58	4824
2026-01-29 11:06:56.56	136.21	11.80	-43.5	-46.1	23.9	6.05e-01	0	42	0	91226112	58	4871
2026-01-29 11:06:57.70	136.13	11.91	-43.3	-45.8	24.1	6.06e-01	0	42	0	93847552	58	4746
2026-01-29 11:06:58.55	136.07	11.99	-43.3	-45.8	24.1	6.08e-01	0	42	0	95420416	58	4744
2026-01-29 11:06:59.69	135.99	12.10	-43.3	-45.9	24.1	6.06e-01	0	42	0	97517568	58	4776
2026-01-29 11:07:00.54	135.94	12.19	-43.3	-45.9	24.0	6.09e-01	0	42	0	99090432	58	4788
2026-01-29 11:07:01.67	135.86	12.30	-43.3	-45.8	24.1	6.05e-01	0	42	0	101187584	58	4744
2026-01-29 11:07:02.62	135.79	12.39	-43.3	-45.9	24.0	6.08e-01	0	42	0	102760448	58	4792
2026-01-29 11:07:03.62	135.72	12.49	-43.1	-45.6	24.3	6.08e-01	0	42	0	104857600	58	4647
2026-01-29 11:07:04.83	135.63	12.61	-43.1	-45.6	24.3	6.08e-01	0	42	0	106954752	58	4621
2026-01-29 11:07:05.71	135.57	12.70	-43.1	-45.6	24.4	6.04e-01	0	42	0	108527616	58	4603
2026-01-29 11:07:06.85	135.49	12.82	-43.1	-45.5	24.4	6.08e-01	0	42	0	110624768	58	4595
2026-01-29 11:07:07.70	135.42	12.90	-43.1	-45.6	24.3	6.08e-01	0	42	0	112197632	58	4610
2026-01-29 11:07:09.08	135.32	13.04	-43.1	-45.5	24.4	6.09e-01	0	42	0	114819072	58	4595
2026-01-29 11:07:09.79	135.27	13.12	-43.1	-45.6	24.3	6.06e-01	0	42	0	116391936	58	4613
2026-01-29 11:07:11.07	135.17	13.25	-43.0	-45.4	24.5	6.07e-01	0	43	0	118489088	57	4775
2026-01-29 11:07:11.78	135.12	13.32	-43.0	-45.4	24.5	6.07e-01	0	43	0	120061952	57	4788
2026-01-29 11:07:13.06	135.02	13.45	-43.1	-45.5	24.4	6.06e-01	0	43	0	122159104	57	4856
2026-01-29 11:07:13.80	134.96	13.53	-43.1	-45.6	24.3	6.08e-01	0	43	0	123731968	57	4898
2026-01-29 11:07:15.08	134.87	13.66	-43.0	-45.5	24.4	6.06e-01	0	43	0	126353408	57	4848
2026-01-29 11:07:15.79	134.81	13.74	-43.0	-45.4	24.5	6.06e-01	0	43	0	127401984	57	4812
2026-01-29 11:07:17.07	134.71	13.87	-43.0	-45.4	24.5	6.08e-01	0	43	0	130023424	57	4812
2026-01-29 11:07:17.89	134.64	13.96	-43.0	-45.5	24.5	6.07e-01	0	42	0	131596288	57	4821
2026-01-29 11:07:19.02	134.55	14.08	-43.0	-45.5	24.5	6.07e-01	0	43	0	133693440	57	4833
2026-01-29 11:07:19.88	134.49	14.17	-43.0	-45.5	24.5	6.07e-01	0	43	0	135266304	57	4852
2026-01-29 11:07:21.01	134.39	14.29	-43.0	-45.5	24.5	6.05e-01	0	43	0	137363456	57	4849
2026-01-29 11:07:21.87	134.32	14.38	-43.0	-45.5	24.5	6.05e-01	0	42	0	138936320	57	4865
2026-01-29 11:07:23.00	134.23	14.51	-43.0	-45.4	24.5	6.08e-01	0	43	0	141033472	57	4807
2026-01-29 11:07:23.86	134.16	14.60	-42.9	-45.4	24.6	6.07e-01	0	43	0	142606336	57	4782
2026-01-29 11:07:24.99	134.06	14.72	-43.0	-45.5	24.5	6.06e-01	0	43	0	144703488	57	4821
2026-01-29 11:07:25.85	133.99	14.82	-43.0	-45.4	24.5	6.06e-01	0	43	0	146276352	57	4806
2026-01-29 11:07:26.98	133.89	14.94	-42.9	-45.3	24.6	6.04e-01	0	43	0	148373504	57	4745
2026-01-29 11:07:27.84	133.82	15.04	-43.0	-45.4	24.6	6.06e-01	0	43	0	149946368	57	4788
2026-01-29 11:07:28.97	133.72	15.16	-43.1	-45.5	24.5	6.08e-01	0	43	0	152043520	57	4853
2026-01-29 11:07:29.82	133.65	15.26	-42.9	-45.3	24.7	6.06e-01	0	43	0	153616384	57	4750
2026-01-29 11:07:30.96	133.55	15.38	-42.9	-45.4	24.6	6.07e-01	0	43	0	155713536	57	4760
2026-01-29 11:07:31.82	133.47	15.48	-42.8	-45.2	24.7	6.05e-01	0	42	0	157286400	57	4693
2026-01-29 11:07:32.95	133.37	15.61	-42.9	-45.3	24.7	6.08e-01	0	42	0	159907840	57	4750
2026-01-29 11:07:33.81	133.29	15.71	-42.9	-45.3	24.7	6.06e-01	0	43	0	161480704	57	4741
2026-01-29 11:07:34.94	133.19	15.83	-42.8	-45.2	24.8	6.06e-01	0	42	0	163577856	57	4677
2026-01-29 11:07:35.79	133.11	15.93	-42.7	-45.1	24.9	6.07e-01	0	43	0	165150720	57	4620
2026-01-29 11:07:36.93	133.01	16.06	-42.7	-45.1	24.8	6.04e-01	0	43	0	167247872	57	4626
2026-01-29 11:07:37.78	132.93	16.16	-42.7	-45.1	24.9	6.05e-01	0	43	0	168820736	57	4642
2026-01-29 11:07:39.02	132.81	16.31	-42.6	-45.0	25.0	6.05e-01	0	43	0	170917888	57	4573
2026-01-29 11:07:39.87	132.73	16.40	-42.7	-45.1	24.9	6.06e-01	0	43	0	172490752	57	4621
2026-01-29 11:07:41.07	132.62	16.54	-42.7	-45.1	24.9	6.06e-01	0	43	0	175112192	57	4599
2026-01-29 11:07:41.92	132.54	16.65	-42.6	-45.0	24.9	6.07e-01	0	43	0	176685056	57	4590
2026-01-29 11:07:43.09	132.42	16.78	-42.7	-45.1	24.9	6.07e-01	0	43	0	178782208	57	4609
2026-01-29 11:07:43.94	132.34	16.88	-42.6	-45.0	25.0	6.09e-01	0	43	0	180355072	57	4587
2026-01-29 11:07:45.08	132.22	17.02	-42.7	-45.1	24.9	6.09e-01	0	43	0	182452224	57	4616
2026-01-29 11:07:45.93	132.14	17.12	-42.7	-45.1	24.8	6.07e-01	0	43	0	184025088	57	4627
2026-01-29 11:07:47.07	132.03	17.26	-42.7	-45.2	24.9	6.06e-01	0	43	0	186122240	57	4652
2026-01-29 11:07:47.92	131.94	17.36	-42.8	-45.2	24.8	6.08e-01	0	43	0	187695104	57	4695
2026-01-29 11:07:49.06	131.82	17.50	-42.9	-45.3	24.8	6.05e-01	0	43	0	189792256	57	4719
2026-01-29 11:07:49.91	131.73	17.61	-42.9	-45.3	24.7	6.08e-01	0	43	0	191365120	57	4723
2026-01-29 11:07:51.04	131.62	17.74	-42.8	-45.2	24.9	6.06e-01	0	43	0	193462272	57	4672
2026-01-29 11:07:51.90	131.53	17.85	-42.9	-45.2	24.8	6.06e-01	0	43	0	195035136	57	4696
2026-01-29 11:07:53.03	131.41	17.99	-42.8	-45.1	24.9	6.07e-01	0	43	0	197132288	57	4641
2026-01-29 11:07:53.89	131.31	18.10	-42.9	-45.2	24.8	6.06e-01	0	43	0	199229440	57	4698
2026-01-29 11:07:55.03	131.19	18.24	-42.9	-45.3	24.8	6.08e-01	0	43	0	200802304	57	4719
2026-01-29 11:07:55.88	131.10	18.35	-43.0	-45.4	24.7	6.07e-01	0	43	0	202375168	57	4788
2026-01-29 11:07:57.01	130.97	18.49	-43.0	-45.4	24.6	6.07e-01	0	43	0	204996608	57	4802
2026-01-29 11:07:57.86	130.88	18.60	-43.0	-45.4	24.6	6.06e-01	0	43	0	206569472	57	4791
2026-01-29 11:07:59.00	130.75	18.74	-43.1	-45.5	24.6	6.07e-01	0	43	0	208666624	57	4851
2026-01-29 11:07:59.86	130.65	18.85	-43.1	-45.5	24.6	6.08e-01	0	43	0	210239488	57	4849
2026-01-29 11:08:00.99	130.53	19.00	-43.0	-45.4	24.7	6.03e-01	0	43	0	212336640	57	4806
2026-01-29 11:08:01.85	130.43	19.11	-42.9	-45.4	24.7	6.06e-01	0	43	0	213909504	57	4768
2026-01-29 11:08:02.98	130.30	19.26	-43.0	-45.4	24.7	6.07e-01	0	43	0	216006656	57	4790
2026-01-29 11:08:03.84	130.19	19.37	-43.0	-45.4	24.7	6.05e-01	0	43	0	217579520	57	4802
2026-01-29 11:08:04.97	130.06	19.52	-42.9	-45.3	24.7	6.07e-01	0	43	0	219676672	57	4729
2026-01-29 11:08:05.83	129.96	19.63	-42.9	-45.3	24.8	6.06e-01	0	43	0	221249536	57	4734
2026-01-29 11:08:06.96	129.82	19.78	-42.9	-45.2	24.8	6.06e-01	0	43	0	223346688	57	4705
2026-01-29 11:08:07.82	129.72	19.90	-42.9	-45.3	24.8	6.07e-01	0	43	0	224919552	57	4730
2026-01-29 11:08:08.97	129.58	20.05	-42.9	-45.3	24.8	6.06e-01	0	43	0	227016704	57	4723
2026-01-29 11:08:09.82	129.47	20.17	-43.0	-45.4	24.8	6.05e-01	0	43	0	228589568	57	4772
2026-01-29 11:08:10.96	129.33	20.32	-43.0	-45.4	24.7	6.06e-01	0	43	0	230686720	57	4772
2026-01-29 11:08:11.81	129.22	20.43	-42.9	-45.3	24.8	6.07e-01	0	43	0	232783872	57	4723
2026-01-29 11:08:13.07	129.06	20.61	-43.0	-45.4	24.7	6.07e-01	0	43	0	234881024	57	4771
2026-01-29 11:08:13.86	128.96	20.72	-43.1	-45.5	24.6	6.09e-01	0	43	0	236453888	57	4851
2026-01-29 11:08:15.06	128.80	20.88	-43.0	-45.4	24.7	6.06e-01	0	43	0	238551040	57	4800
2026-01-29 11:08:15.92	128.69	21.00	-43.1	-45.4	24.7	6.07e-01	0	43	0	240123904	57	4812
2026-01-29 11:08:17.06	128.54	21.16	-43.1	-45.5	24.7	6.06e-01	0	43	0	242221056	57	4821
2026-01-29 11:08:17.91	128.43	21.28	-43.1	-45.5	24.7	6.06e-01	0	43	0	243793920	57	4822
2026-01-29 11:08:19.04	128.27	21.44	-43.1	-45.5	24.6	6.06e-01	0	43	0	245891072	57	4854
2026-01-29 11:08:19.90	128.16	21.56	-43.2	-45.6	24.5	6.06e-01	0	43	0	247463936	57	4895
2026-01-29 11:08:21.03	128.00	21.72	-43.1	-45.6	24.5	6.07e-01	0	43	0	250085376	57	4873
2026-01-29 11:08:21.89	127.88	21.84	-43.1	-45.6	24.5	6.05e-01	0	43	0	251658240	57	4879
2026-01-29 11:08:23.02	127.72	22.00	-43.2	-45.7	24.4	6.09e-01	0	43	0	253755392	57	4951
2026-01-29 11:08:23.88	127.60	22.13	-43.2	-45.7	24.5	6.06e-01	0	43	0	255328256	57	4940
2026-01-29 11:08:25.02	127.44	22.29	-43.3	-45.8	24.4	6.05e-01	0	43	0	257425408	57	4989
2026-01-29 11:08:25.87	127.31	22.42	-43.2	-45.7	24.4	6.05e-01	0	43	0	258998272	57	4942
2026-01-29 11:08:27.07	127.14	22.59	-43.2	-45.7	24.5	6.06e-01	0	43	0	261095424	57	4930
2026-01-29 11:08:27.92	127.01	22.72	-43.3	-45.8	24.4	6.05e-01	0	43	0	262668288	57	4999
2026-01-29 11:08:29.06	126.84	22.89	-43.1	-45.6	24.5	6.08e-01	0	43	0	264765440	57	4903
2026-01-29 11:08:29.92	126.71	23.01	-43.2	-45.7	24.5	6.06e-01	0	43	0	266338304	57	4932
2026-01-29 11:08:31.05	126.54	23.18	-43.1	-45.6	24.6	6.05e-01	0	43	0	268435456	57	4871
2026-01-29 11:08:31.91	126.41	23.31	-43.0	-45.3	24.8	6.06e-01	0	43	0	270008320	57	4754
2026-01-29 11:08:33.04	126.23	23.48	-43.0	-45.4	24.8	6.04e-01	0	43	0	272629760	57	4765
2026-01-29 11:08:33.90	126.10	23.61	-43.0	-45.4	24.7	6.08e-01	0	43	0	274202624	57	4772
2026-01-29 11:08:35.03	125.92	23.78	-43.1	-45.5	24.7	6.06e-01	0	43	0	275775488	57	4828
2026-01-29 11:08:35.89	125.78	23.91	-43.1	-45.5	24.6	6.05e-01	0	43	0	277872640	57	4868
2026-01-29 11:08:37.02	125.60	24.09	-43.2	-45.6	24.6	6.05e-01	0	43	0	279969792	57	4903
2026-01-29 11:08:37.87	125.46	24.22	-43.3	-45.7	24.1	6.07e-01	0	43	0	281542656	57	4980
2026-01-29 11:08:39.01	125.27	24.40	-43.3	-45.7	24.4	6.07e-01	0	43	0	283639808	57	4978
2026-01-29 11:08:39.86	125.13	24.53	-43.4	-45.9	24.3	6.06e-01	0	43	0	285212672	57	5060
2026-01-29 11:08:41.02	124.93	24.71	-43.4	-45.9	24.3	6.07e-01	0	43	0	287309824	57	5059
2026-01-29 11:08:41.87	124.79	24.84	-43.4	-45.9	24.3	6.07e-01	0	43	0	288882688	57	5076
2026-01-29 11:08:43.07	124.58	25.03	-43.4	-45.9	24.3	6.07e-01	0	43	0	290979840	57	5068
2026-01-29 11:08:43.92	124.43	25.17	-43.3	-45.7	24.4	6.05e-01	0	43	0	292552704	57	4968
2026-01-29 11:08:45.06	124.23	25.35	-43.0	-45.4	24.7	6.06e-01	0	43	0	294649856	57	4806
2026-01-29 11:08:45.91	124.08	25.49	-43.1	-45.5	24.7	6.08e-01	0	43	0	296222720	57	4817
2026-01-29 11:08:47.05	123.88	25.67	-42.9	-45.2	24.9	6.07e-01	0	43	0	298844160	57	4700
2026-01-29 11:08:47.90	123.72	25.81	-42.9	-45.2	24.9	6.04e-01	0	43	0	300417024	57	4700
2026-01-29 11:08:49.04	123.51	25.99	-42.9	-45.3	24.8	6.04e-01	0	43	0	302514176	57	4732
2026-01-29 11:08:49.89	123.36	26.13	-43.1	-45.6	24.7	6.08e-01	0	43	0	304087040	57	4871
2026-01-29 11:08:51.03	123.14	26.32	-43.3	-45.8	24.4	6.08e-01	0	43	0	306184192	57	4995
2026-01-29 11:08:51.88	122.98	26.46	-43.2	-45.6	24.5	6.08e-01	0	43	0	307757056	57	4905
2026-01-29 11:08:53.02	122.76	26.65	-43.3	-45.7	24.5	6.09e-01	0	43	0	309854208	57	4954
2026-01-29 11:08:53.87	122.60	26.79	-43.3	-45.7	24.5	6.08e-01	0	43	0	311427072	57	4963
2026-01-29 11:08:55.04	122.37	26.98	-43.2	-45.6	24.5	6.08e-01	0	43	0	313524224	57	4908
2026-01-29 11:08:55.89	122.20	27.13	-43.1	-45.4	24.7	6.08e-01	0	43	0	315097088	57	4799
2026-01-29 11:08:57.03	121.97	27.32	-43.0	-45.4	24.7	6.05e-01	0	43	0	317194240	57	4773
2026-01-29 11:08:57.88	121.80	27.46	-42.9	-45.2	24.8	6.07e-01	0	43	0	318767104	57	4690
2026-01-29 11:08:59.02	121.56	27.66	-43.0	-45.3	24.8	6.06e-01	0	43	0	320864256	57	4750
2026-01-29 11:08:59.87	121.39	27.80	-42.8	-45.1	25.1	6.05e-01	0	43	0	322437120	57	4612
2026-01-29 11:09:01.01	121.15	28.00	-42.8	-45.2	25.0	6.05e-01	0	43	0	324534272	57	4663
2026-01-29 11:09:01.86	120.97	28.14	-42.8	-45.1	25.0	6.06e-01	0	43	0	326631424	57	4619
2026-01-29 11:09:02.99	120.73	28.34	-42.6	-45.0	25.1	6.07e-01	0	43	0	328728576	57	4559
2026-01-29 11:09:03.85	120.54	28.49	-42.6	-44.9	25.2	6.07e-01	0	43	0	330301440	57	4535
2026-01-29 11:09:04.98	120.29	28.69	-42.6	-45.0	25.2	6.05e-01	0	43	0	332398592	57	4562
2026-01-29 11:09:05.84	120.10	28.84	-42.4	-44.8	25.3	6.05e-01	0	43	0	333971456	56	4720
2026-01-29 11:09:06.97	119.85	29.03	-42.5	-44.8	25.3	6.06e-01	0	43	0	336068608	56	4751
2026-01-29 11:09:07.83	119.65	29.19	-42.6	-45.0	25.2	6.07e-01	0	43	0	337641472	56	4851
2026-01-29 11:09:08.97	119.39	29.39	-42.7	-45.0	25.1	6.04e-01	0	43	0	339738624	56	4868
2026-01-29 11:09:09.82	119.20	29.54	-42.7	-45.0	25.1	6.03e-01	0	43	0	341311488	56	4850
2026-01-29 11:09:10.96	118.93	29.74	-42.6	-45.0	25.2	6.06e-01	0	43	0	343408640	56	4820
2026-01-29 11:09:11.81	118.73	29.90	-42.8	-45.1	25.1	6.06e-01	0	43	0	344981504	56	4903
2026-01-29 11:09:12.95	118.45	30.10	-42.5	-44.8	25.4	6.05e-01	0	43	0	347078656	56	4707
2026-01-29 11:09:13.80	118.25	30.25	-42.3	-44.5	25.5	6.06e-01	0	43	0	348651520	56	4598
2026-01-29 11:09:14.94	117.97	30.46	-42.4	-44.6	25.5	6.08e-01	0	43	0	350748672	56	4639
2026-01-29 11:09:15.79	117.75	30.61	-42.4	-44.7	25.5	6.06e-01	0	43	0	352321536	56	4659
2026-01-29 11:09:16.93	117.47	30.82	-42.5	-44.8	25.3	6.06e-01	0	43	0	354418688	56	4755
2026-01-29 11:09:17.78	117.25	30.98	-42.6	-45.0	25.2	6.06e-01	0	43	0	356515840	56	4838
2026-01-29 11:09:18.92	116.96	31.19	-42.6	-45.0	25.2	6.06e-01	0	43	0	358088704	56	4847
2026-01-29 11:09:19.78	116.73	31.35	-42.7	-45.0	25.2	6.08e-01	0	43	0	360185856	56	4853
2026-01-29 11:09:21.01	116.41	31.57	-42.6	-44.9	25.2	6.07e-01	0	43	0	362283008	56	4801
2026-01-29 11:09:21.86	116.18	31.73	-42.5	-44.8	25.3	6.07e-01	0	43	0	363855872	56	4741
2026-01-29 11:09:23.08	115.85	31.96	-42.4	-44.7	25.5	6.06e-01	0	43	0	365953024	56	4684
2026-01-29 11:09:23.93	115.62	32.12	-42.4	-44.7	25.5	6.06e-01	0	43	0	368050176	56	4692
2026-01-29 11:09:25.07	115.30	32.33	-42.5	-44.8	25.4	6.05e-01	0	43	0	369623040	56	4732
2026-01-29 11:09:25.92	115.07	32.49	-42.7	-45.1	25.2	6.05e-01	0	43	0	371720192	56	4892
2026-01-29 11:09:27.06	114.74	32.70	-42.8	-45.2	25.0	6.09e-01	0	43	0	373817344	56	4960
2026-01-29 11:09:27.91	114.50	32.86	-42.8	-45.1	25.1	6.03e-01	0	43	0	375390208	56	4902
2026-01-29 11:09:29.05	114.17	33.08	-42.8	-45.1	25.1	6.07e-01	0	43	0	377487360	56	4898
2026-01-29 11:09:29.91	113.92	33.24	-42.8	-45.2	25.1	6.05e-01	0	43	0	379060224	56	4934
2026-01-29 11:09:31.04	113.58	33.45	-42.7	-45.1	25.1	6.05e-01	0	43	0	381157376	56	4887
2026-01-29 11:09:31.89	113.32	33.62	-42.8	-45.2	25.0	6.05e-01	0	43	0	382730240	56	4950
2026-01-29 11:09:33.03	112.98	33.83	-42.9	-45.3	24.9	6.07e-01	0	43	0	384827392	56	5026
2026-01-29 11:09:33.89	112.71	34.00	-43.0	-45.4	24.9	6.05e-01	0	43	0	386400256	56	5057
2026-01-29 11:09:35.02	112.36	34.21	-43.2	-45.6	24.7	6.08e-01	0	43	0	388497408	57	4912
2026-01-29 11:09:35.88	112.09	34.38	-43.2	-45.6	24.6	6.06e-01	0	43	0	390070272	57	4919
2026-01-29 11:09:37.03	111.72	34.60	-43.2	-45.6	24.7	6.05e-01	0	43	0	392167424	57	4886
2026-01-29 11:09:37.88	111.44	34.76	-43.3	-45.6	24.6	6.06e-01	0	43	0	393740288	57	4922
2026-01-29 11:09:39.10	111.04	35.00	-43.3	-45.8	24.5	6.06e-01	0	43	0	396361728	57	4990
2026-01-29 11:09:39.95	110.76	35.16	-43.3	-45.7	24.5	6.06e-01	0	43	0	397934592	57	4962
2026-01-29 11:09:41.09	110.38	35.38	-43.4	-45.9	24.4	6.07e-01	0	43	0	400031744	57	5067
2026-01-29 11:09:41.94	110.09	35.54	-43.7	-46.2	24.1	6.06e-01	0	43	0	401604608	57	5242
2026-01-29 11:09:43.08	109.70	35.76	-43.9	-46.4	24.0	6.07e-01	0	43	0	403701760	58	5073
2026-01-29 11:09:43.94	109.40	35.93	-43.8	-46.3	24.0	6.07e-01	0	43	0	405274624	58	5030
2026-01-29 11:09:45.07	109.00	36.15	-43.7	-46.2	24.1	6.05e-01	0	43	0	407371776	58	4971
2026-01-29 11:09:46.02	108.66	36.33	-43.6	-46.1	24.2	6.06e-01	0	43	0	408944640	58	4890
2026-01-29 11:09:47.02	108.30	36.52	-43.8	-46.3	24.0	6.08e-01	0	43	0	411041792	58	5014
2026-01-29 11:09:48.01	107.94	36.71	-44.0	-46.5	23.8	6.07e-01	0	43	0	413138944	58	5140
2026-01-29 11:09:49.01	107.57	36.90	-44.2	-46.8	23.6	6.08e-01	0	43	0	414711808	58	5309
2026-01-29 11:09:50.00	107.20	37.09	-44.2	-46.7	23.7	6.06e-01	0	43	0	416808960	59	4972
2026-01-29 11:09:51.00	106.82	37.29	-44.1	-46.7	23.7	6.05e-01	0	43	0	418381824	59	4939
2026-01-29 11:09:51.99	106.44	37.48	-44.0	-46.6	23.8	6.08e-01	0	43	0	420478976	59	4875
2026-01-29 11:09:52.99	106.05	37.67	-44.0	-46.6	23.8	6.06e-01	0	43	0	422051840	59	4892
2026-01-29 11:09:53.98	105.66	37.86	-44.2	-46.8	23.6	6.08e-01	0	43	0	424148992	59	5003
2026-01-29 11:09:54.98	105.26	38.05	-44.4	-47.0	23.4	6.07e-01	0	43	0	425721856	59	5108
2026-01-29 11:09:55.97	104.86	38.24	-44.5	-47.1	23.3	6.07e-01	0	43	0	427819008	59	5187
2026-01-29 11:09:56.97	104.46	38.43	-44.4	-47.0	23.4	6.06e-01	0	43	0	429916160	59	5152
2026-01-29 11:09:57.96	104.05	38.61	-44.4	-47.1	23.3	6.08e-01	0	43	0	431489024	59	5194
2026-01-29 11:09:58.96	103.63	38.80	-44.3	-47.0	23.4	6.07e-01	0	43	0	433586176	59	5149
2026-01-29 11:09:59.96	103.21	38.99	-44.1	-46.9	23.5	6.09e-01	0	43	0	435159040	59	5046
2026-01-29 11:10:00.95	102.79	39.18	-44.2	-47.0	23.4	6.07e-01	0	43	0	437256192	59	5105
2026-01-29 11:10:01.95	102.35	39.36	-44.3	-47.0	23.4	6.05e-01	0	43	0	438829056	59	5138
2026-01-29 11:10:02.94	101.92	39.55	-44.5	-47.2	23.3	6.08e-01	0	43	0	440926208	59	5222
2026-01-29 11:10:03.93	101.48	39.73	-44.3	-46.9	23.4	6.04e-01	0	43	0	443023360	59	5078
2026-01-29 11:10:04.93	101.03	39.92	-44.4	-47.0	23.5	6.05e-01	0	43	0	444596224	59	5105
2026-01-29 11:10:05.92	100.59	40.10	-44.7	-47.4	23.1	6.09e-01	0	43	0	446693376	59	5367
2026-01-29 11:10:06.92	100.13	40.28	-44.5	-47.3	23.0	6.05e-01	0	43	0	448266240	60	5002
2026-01-29 11:10:07.91	99.67	40.46	-44.5	-47.2	23.1	6.07e-01	0	43	0	450363392	60	4945
2026-01-29 11:10:08.95	99.18	40.65	-44.0	-46.6	23.6	6.07e-01	0	43	0	451936256	60	4650
2026-01-29 11:10:09.95	98.71	40.83	-43.9	-46.4	23.9	6.08e-01	0	43	0	454033408	59	4806
2026-01-29 11:10:10.99	98.21	41.01	-44.1	-46.7	23.8	6.04e-01	0	43	0	456130560	59	4948
2026-01-29 11:10:11.95	97.75	41.18	-44.3	-46.9	23.5	6.06e-01	0	43	0	457703424	59	5086
2026-01-29 11:10:12.95	97.26	41.35	-44.1	-46.7	23.7	6.06e-01	0	43	0	459800576	59	4946
2026-01-29 11:10:13.94	96.77	41.53	-44.0	-46.5	23.9	6.06e-01	0	43	0	461373440	59	4865
2026-01-29 11:10:14.94	96.26	41.70	-44.0	-46.6	23.4	6.06e-01	0	43	0	463470592	59	4878
2026-01-29 11:10:15.93	95.76	41.87	-43.8	-46.3	24.0	6.06e-01	0	43	0	465043456	59	4759
2026-01-29 11:10:16.93	95.25	42.03	-44.0	-46.6	23.8	6.01e-01	0	43	0	467140608	59	4883
2026-01-29 11:10:17.93	94.74	42.20	-43.9	-46.4	24.0	6.05e-01	0	43	0	469237760	59	4791
2026-01-29 11:10:18.92	94.22	42.36	-44.0	-46.6	23.8	6.08e-01	0	43	0	470810624	59	4871
2026-01-29 11:10:19.92	93.69	42.53	-43.6	-46.1	24.2	6.06e-01	0	43	0	472907776	59	4640
2026-01-29 11:10:20.91	93.16	42.69	-43.7	-46.3	24.1	6.08e-01	0	43	0	474480640	59	4717
2026-01-29 11:10:21.91	92.62	42.84	-43.8	-46.4	24.0	6.02e-01	0	43	0	476577792	59	4796
2026-01-29 11:10:22.90	92.08	43.00	-43.8	-46.4	24.0	6.07e-01	0	43	0	478150656	59	4773
2026-01-29 11:10:23.90	91.54	43.15	-43.7	-46.2	24.2	6.08e-01	0	43	0	480247808	59	4685
2026-01-29 11:10:24.89	90.99	43.31	-43.8	-46.3	24.1	6.07e-01	0	43	0	482344960	59	4706
2026-01-29 11:10:25.93	90.40	43.46	-43.8	-46.3	24.1	6.09e-01	0	43	0	483917824	59	4758
2026-01-29 11:10:26.88	89.87	43.60	-43.6	-46.2	24.2	6.06e-01	0	43	0	486014976	59	4675
2026-01-29 11:10:27.88	89.30	43.75	-43.5	-46.1	24.3	6.04e-01	0	43	0	487587840	59	4647
2026-01-29 11:10:28.87	88.73	43.89	-43.7	-46.3	24.1	6.06e-01	0	43	0	489684992	59	4736
2026-01-29 11:10:29.87	88.15	44.03	-43.7	-46.3	24.1	6.07e-01	0	43	0	491257856	59	4710
2026-01-29 11:10:30.86	87.57	44.16	-43.9	-46.4	24.0	6.06e-01	0	43	0	493355008	59	4803
2026-01-29 11:10:31.86	86.97	44.30	-43.5	-46.1	24.3	6.06e-01	0	43	0	494927872	59	4635
2026-01-29 11:10:32.85	86.38	44.43	-43.6	-46.2	24.2	6.06e-01	0	43	0	497025024	58	4966
2026-01-29 11:10:33.85	85.78	44.55	-43.7	-46.3	24.1	6.08e-01	0	43	0	499122176	58	4994
2026-01-29 11:10:34.84	85.18	44.68	-43.6	-46.2	24.2	6.07e-01	0	43	0	500695040	58	4937
2026-01-29 11:10:35.83	84.58	44.80	-43.4	-45.9	24.4	6.08e-01	0	43	0	502792192	58	4812
2026-01-29 11:10:36.83	83.96	44.92	-43.5	-46.1	24.3	6.06e-01	0	43	0	504365056	58	4924
2026-01-29 11:10:37.89	83.31	45.04	-43.8	-46.4	24.0	6.06e-01	0	43	0	506462208	58	5052
2026-01-29 11:10:38.76	82.76	45.14	-43.4	-45.9	24.4	6.08e-01	0	43	0	508035072	58	4788
2026-01-29 11:10:39.89	82.05	45.26	-43.7	-46.2	24.2	6.07e-01	0	43	0	510132224	58	4974
2026-01-29 11:10:40.74	81.51	45.35	-43.6	-46.1	24.3	6.05e-01	0	43	0	511705088	58	4890
2026-01-29 11:10:41.88	80.79	45.47	-43.8	-46.4	24.1	6.05e-01	0	43	0	513802240	58	5052
2026-01-29 11:10:42.73	80.24	45.55	-43.8	-46.3	24.1	6.04e-01	0	43	0	515375104	58	5038
2026-01-29 11:10:43.87	79.51	45.66	-43.7	-46.2	24.2	6.07e-01	0	43	0	517472256	58	4954
2026-01-29 11:10:44.72	78.96	45.73	-44.0	-46.6	23.9	6.09e-01	0	43	0	519045120	58	5163
2026-01-29 11:10:45.86	78.21	45.83	-43.8	-46.3	24.1	6.07e-01	0	43	0	521142272	58	5010
2026-01-29 11:10:46.71	77.65	45.90	-43.4	-45.8	24.6	6.06e-01	0	43	0	522715136	58	4753
2026-01-29 11:10:47.85	76.90	45.99	-43.9	-46.4	24.1	6.06e-01	0	43	0	525336576	58	5078
2026-01-29 11:10:48.70	76.34	46.06	-43.8	-46.3	24.1	6.08e-01	0	43	0	526909440	58	5001
2026-01-29 11:10:49.84	75.58	46.14	-43.9	-46.4	24.0	6.07e-01	0	43	0	529006592	58	5071
2026-01-29 11:10:50.69	75.01	46.20	-43.9	-46.4	24.0	6.07e-01	0	43	0	530579456	58	5096
2026-01-29 11:10:51.83	74.24	46.27	-43.6	-46.0	24.4	6.06e-01	0	43	0	532676608	58	4860
2026-01-29 11:10:52.68	73.67	46.32	-43.8	-46.3	24.1	6.06e-01	0	43	0	534249472	58	5020
2026-01-29 11:10:53.82	72.90	46.38	-44.0	-46.5	24.0	6.07e-01	0	43	0	536346624	58	5139
2026-01-29 11:10:54.68	72.32	46.42	-43.7	-46.1	24.2	6.07e-01	0	43	0	537919488	58	4915
2026-01-29 11:10:55.81	71.55	46.47	-43.7	-46.2	24.2	6.07e-01	0	43	0	540016640	58	4937
2026-01-29 11:10:56.79	70.88	46.51	-44.0	-46.5	23.9	6.09e-01	0	43	0	542113792	58	5141
2026-01-29 11:10:57.98	70.06	46.56	-43.7	-46.2	24.3	6.08e-01	0	43	0	544210944	58	4939
2026-01-29 11:10:58.83	69.48	46.58	-43.6	-46.1	24.3	6.06e-01	0	43	0	545783808	58	4877
2026-01-29 11:10:59.97	68.69	46.62	-43.7	-46.2	24.2	6.06e-01	0	43	0	547880960	58	4970
2026-01-29 11:11:00.82	68.11	46.64	-43.7	-46.2	24.2	6.06e-01	0	43	0	549453824	58	4959
2026-01-29 11:11:01.95	67.33	46.66	-43.5	-46.0	24.4	6.07e-01	0	43	0	551550976	58	4829
2026-01-29 11:11:02.81	66.73	46.67	-43.7	-46.2	24.2	6.05e-01	0	43	0	553123840	58	4943
2026-01-29 11:11:03.94	65.95	46.68	-43.8	-46.3	24.2	6.05e-01	0	43	0	555220992	58	5012
2026-01-29 11:11:04.79	65.37	46.68	-43.7	-46.1	24.3	6.07e-01	0	43	0	556793856	58	4912
2026-01-29 11:11:05.93	64.58	46.68	-43.6	-46.0	24.4	6.06e-01	0	43	0	558891008	58	4860
2026-01-29 11:11:06.79	63.98	46.68	-43.3	-45.7	24.7	6.07e-01	0	43	0	560463872	58	4673
2026-01-29 11:11:07.92	63.20	46.67	-43.5	-45.9	24.5	6.07e-01	0	43	0	562561024	58	4805
2026-01-29 11:11:08.78	62.61	46.66	-43.7	-46.1	24.3	6.07e-01	0	43	0	564133888	58	4919
2026-01-29 11:11:09.91	61.83	46.64	-43.3	-45.7	24.6	6.06e-01	0	43	0	566231040	58	4675
2026-01-29 11:11:10.80	61.22	46.62	-43.4	-45.8	24.6	6.06e-01	0	43	0	568328192	58	4712
2026-01-29 11:11:12.12	60.31	46.59	-43.8	-46.3	24.2	6.04e-01	0	43	0	570425344	58	4988
2026-01-29 11:11:12.83	59.82	46.56	-43.7	-46.1	24.3	6.08e-01	0	43	0	571998208	58	4886
2026-01-29 11:11:14.11	58.94	46.52	-43.5	-46.0	24.5	6.07e-01	0	43	0	574095360	58	4815
2026-01-29 11:11:14.82	58.46	46.49	-43.5	-45.9	24.5	6.06e-01	0	43	0	575668224	58	4760
2026-01-29 11:11:16.10	57.59	46.43	-43.7	-46.1	24.2	6.05e-01	0	43	0	578289664	58	4918
2026-01-29 11:11:16.83	57.09	46.40	-43.5	-45.9	24.5	6.08e-01	0	43	0	579338240	58	4774
2026-01-29 11:11:18.11	56.23	46.33	-43.3	-45.7	24.7	6.07e-01	0	43	0	581959680	58	4652
2026-01-29 11:11:18.82	55.75	46.29	-43.5	-46.0	24.4	6.04e-01	0	43	0	583008256	58	4819
2026-01-29 11:11:20.10	54.89	46.21	-43.7	-46.2	24.2	6.07e-01	0	43	0	585629696	58	4930
2026-01-29 11:11:20.81	54.41	46.16	-43.1	-45.5	24.8	6.06e-01	0	43	0	586678272	58	4585
2026-01-29 11:11:22.09	53.56	46.07	-43.3	-45.7	24.6	6.07e-01	0	43	0	589299712	58	4692
2026-01-29 11:11:22.80	53.09	46.02	-43.3	-45.7	24.7	6.06e-01	0	43	0	590872576	58	4690
2026-01-29 11:11:24.15	52.20	45.91	-43.1	-45.4	24.9	6.05e-01	0	43	0	592969728	58	4532
2026-01-29 11:11:24.86	51.73	45.86	-43.1	-45.4	24.9	6.08e-01	0	43	0	594542592	58	4541
2026-01-29 11:11:26.21	50.85	45.74	-43.2	-45.6	24.8	6.04e-01	0	43	0	597164032	58	4636
2026-01-29 11:11:26.93	50.38	45.68	-43.2	-45.6	24.8	6.06e-01	0	43	0	598212608	58	4645
2026-01-29 11:11:28.21	49.56	45.56	-43.2	-45.7	24.7	6.06e-01	0	43	0	600834048	58	4654
2026-01-29 11:11:29.30	48.86	45.45	-42.9	-45.3	25.1	6.04e-01	0	43	0	602931200	57	4724
2026-01-29 11:11:30.15	48.32	45.36	-43.3	-45.7	24.7	6.08e-01	0	43	0	604504064	57	4949
2026-01-29 11:11:31.29	47.60	45.24	-43.5	-45.9	24.4	6.07e-01	0	43	0	606601216	57	5095
2026-01-29 11:11:32.14	47.07	45.15	-43.4	-45.8	24.6	6.08e-01	0	43	0	608174080	57	4987
2026-01-29 11:11:33.31	46.34	45.02	-42.9	-45.3	24.8	6.05e-01	0	43	0	610271232	57	4725
2026-01-29 11:11:34.16	45.81	44.92	-42.9	-45.3	25.0	6.07e-01	0	43	0	611844096	57	4744
2026-01-29 11:11:35.30	45.11	44.78	-43.4	-45.9	24.4	6.06e-01	0	43	0	613941248	57	5075
2026-01-29 11:11:36.15	44.60	44.68	-43.0	-45.4	24.9	6.06e-01	0	43	0	615514112	57	4771
2026-01-29 11:11:37.29	43.91	44.54	-43.0	-45.4	24.9	6.06e-01	0	43	0	617611264	57	4789
2026-01-29 11:11:38.14	43.40	44.43	-43.2	-45.7	24.7	6.07e-01	0	43	0	619184128	57	4929
2026-01-29 11:11:39.48	42.60	44.25	-43.3	-45.7	24.7	6.06e-01	0	43	0	621805568	57	4943
2026-01-29 11:11:40.19	42.18	44.16	-43.1	-45.5	24.9	6.05e-01	0	43	0	623378432	57	4815
2026-01-29 11:11:41.47	41.44	43.98	-42.9	-45.2	25.2	6.07e-01	0	43	0	625475584	57	4667
2026-01-29 11:11:42.18	41.03	43.88	-43.0	-45.3	25.0	6.07e-01	0	43	0	627048448	57	4744
2026-01-29 11:11:43.75	40.13	43.66	-43.2	-45.5	24.7	6.06e-01	0	43	0	630194176	57	4870
2026-01-29 11:11:44.38	39.77	43.57	-42.9	-45.2	25.1	6.04e-01	0	43	0	631242752	57	4680
2026-01-29 11:11:45.89	38.92	43.34	-43.2	-45.7	24.6	6.05e-01	0	43	0	633864192	57	4935
2026-01-29 11:11:46.61	38.52	43.23	-43.3	-45.8	24.6	6.06e-01	0	43	0	635437056	57	4994
2026-01-29 11:11:47.89	37.82	43.04	-43.4	-45.9	24.5	6.05e-01	0	43	0	637534208	57	5077
2026-01-29 11:11:48.60	37.43	42.93	-43.2	-45.7	24.6	6.06e-01	0	43	0	639107072	57	4933
2026-01-29 11:11:49.88	36.74	42.73	-42.9	-45.3	25.0	6.05e-01	0	43	0	641204224	57	4727
2026-01-29 11:11:50.59	36.36	42.61	-43.5	-45.9	24.5	6.04e-01	0	43	0	642777088	57	5096
2026-01-29 11:11:51.87	35.69	42.41	-43.6	-46.0	24.3	6.08e-01	0	43	0	644874240	58	4868
2026-01-29 11:11:52.60	35.31	42.29	-43.4	-45.8	24.5	6.07e-01	0	43	0	646447104	58	4748
2026-01-29 11:11:53.87	34.65	42.08	-43.3	-45.8	24.6	6.06e-01	0	43	0	649068544	58	4738
2026-01-29 11:11:54.60	34.27	41.95	-43.5	-46.0	24.3	6.07e-01	0	43	0	650117120	58	4858
2026-01-29 11:11:56.03	33.55	41.71	-44.1	-56.3	3.7	7.44e-01	0	43	104	651165696	58	15889
2026-01-29 11:11:56.75	33.19	41.59	-44.1	-56.1	3.9	7.42e-01	0	43	104	651165696	58	15473
2026-01-29 11:11:58.09	32.53	41.36	-43.9	-55.7	3.8	7.48e-01	0	43	104	651165696	58	14853
2026-01-29 11:11:59.05	32.06	41.19	-44.1	-55.9	3.9	7.42e-01	0	43	104	651165696	58	15168
2026-01-29 11:12:00.05	31.58	41.02	-45.2	-57.8	3.7	7.48e-01	0	43	104	651165696	61	15835
2026-01-29 11:12:01.04	31.10	40.84	-51.0	-71.6	3.8	7.45e-01	0	43	104	651165696	72	41116
2026-01-29 11:12:02.04	30.63	40.66	-47.6	-60.8	3.9	7.41e-01	0	43	104	651165696	66	16717
2026-01-29 11:12:03.03	30.17	40.48	-47.2	-60.7	3.8	7.49e-01	0	43	104	651165696	65	17631
2026-01-29 11:12:04.03	29.71	40.30	-45.2	-57.6	3.9	7.40e-01	0	43	104	651165696	62	14659
2026-01-29 11:12:05.02	29.25	40.12	-45.1	-57.6	3.9	7.41e-01	0	43	104	651165696	62	14602
2026-01-29 11:12:06.02	28.80	39.94	-45.2	-57.4	3.4	7.61e-01	0	43	104	651165696	62	14218
2026-01-29 11:12:07.01	28.36	39.76	-45.2	-57.0	4.1	7.40e-01	0	43	104	651165696	62	13573
2026-01-29 11:12:08.01	27.92	39.58	-44.6	-56.4	3.4	7.60e-01	0	43	104	651165696	60	14357
2026-01-29 11:12:09.00	27.49	39.39	-45.3	-57.2	4.0	7.34e-01	0	43	104	651165696	61	14848
2026-01-29 11:12:10.00	27.06	39.21	-51.3	-71.6	3.8	7.48e-01	0	43	104	651165696	73	39055
2026-01-29 11:12:10.99	26.64	39.02	-48.1	-61.9	3.6	7.54e-01	0	43	104	651165696	67	17972
2026-01-29 11:12:11.98	26.22	38.84	-47.7	-61.1	3.9	7.55e-01	0	43	104	651165696	66	17287
2026-01-29 11:12:12.98	25.80	38.65	-45.9	-58.0	3.7	7.48e-01	0	43	104	651165696	63	14378
2026-01-29 11:12:13.98	25.39	38.46	-46.2	-58.8	3.8	7.45e-01	0	43	104	651165696	63	15917
2026-01-29 11:12:14.97	24.99	38.27	-45.9	-58.5	3.8	7.48e-01	0	43	104	651165696	63	15348
2026-01-29 11:12:15.96	24.59	38.08	-45.7	-58.3	3.8	7.42e-01	0	43	104	651165696	63	14990
2026-01-29 11:12:16.96	24.20	37.90	-45.2	-57.4	3.8	7.46e-01	0	43	104	651165696	62	14233
2026-01-29 11:12:17.95	23.81	37.71	-45.3	-57.6	3.8	7.45e-01	0	43	104	651165696	62	14581
2026-01-29 11:12:18.95	23.42	37.52	-51.0	-71.6	3.8	7.46e-01	0	43	104	651165696	72	41111
2026-01-29 11:12:19.94	23.04	37.33	-50.9	-70.5	3.8	7.48e-01	0	43	104	651165696	72	36462
2026-01-29 11:12:20.97	22.65	37.13	-50.9	-71.5	3.8	7.48e-01	0	43	104	651165696	72	40630
2026-01-29 11:12:21.97	22.28	36.94	-50.9	-70.7	3.8	7.46e-01	0	43	104	651165696	72	37307
2026-01-29 11:12:22.96	21.91	36.75	-50.8	-70.2	3.8	7.44e-01	0	43	104	651165696	72	35056
2026-01-29 11:12:23.96	21.55	36.56	-50.6	-69.4	3.8	7.48e-01	0	43	104	651165696	72	31996
2026-01-29 11:12:24.95	21.19	36.37	-50.4	-69.0	3.8	7.48e-01	0	43	104	651165696	72	30436
2026-01-29 11:12:25.95	20.84	36.18	-50.5	-70.3	3.8	7.46e-01	0	43	104	651165696	72	35674
2026-01-29 11:12:26.94	20.49	35.99	-49.6	-65.2	3.9	7.48e-01	0	43	104	651165696	71	20958
2026-01-29 11:12:27.94	20.14	35.79	-49.8	-65.5	3.8	7.48e-01	0	43	104	651165696	70	22845
2026-01-29 11:12:28.93	19.80	35.60	-45.6	-58.6	3.8	7.50e-01	0	43	104	651165696	63	15467
2026-01-29 11:12:29.93	19.46	35.41	-50.9	-71.5	3.7	7.44e-01	0	43	104	651165696	72	40696
2026-01-29 11:12:30.93	19.13	35.22	-45.4	-57.4	3.9	7.49e-01	0	43	104	651165696	62	14323
2026-01-29 11:12:31.92	18.80	35.03	-44.9	-57.1	3.8	7.46e-01	0	43	104	651165696	61	14568
2026-01-29 11:12:32.92	18.47	34.84	-44.8	-57.2	3.8	7.45e-01	0	43	104	651165696	61	14773
2026-01-29 11:12:33.91	18.15	34.65	-44.4	-56.4	3.8	7.46e-01	0	43	104	651165696	60	14356
2026-01-29 11:12:34.91	17.84	34.46	-44.4	-56.3	3.8	7.43e-01	0	43	104	651165696	60	14184
2026-01-29 11:12:35.94	17.51	34.26	-44.4	-56.4	3.8	7.45e-01	0	43	104	651165696	60	14347
2026-01-29 11:12:36.96	17.19	34.07	-51.0	-71.5	3.8	7.43e-01	0	43	104	651165696	72	40622
2026-01-29 11:12:37.96	16.89	33.88	-47.1	-60.2	3.8	7.45e-01	0	43	104	651165696	65	16619
2026-01-29 11:12:38.95	16.58	33.69	-46.0	-58.4	3.8	7.45e-01	0	43	104	651165696	62	16087
2026-01-29 11:12:39.95	16.28	33.50	-44.4	-56.5	3.8	7.46e-01	0	43	104	651165696	60	14432
2026-01-29 11:12:40.94	15.99	33.32	-44.4	-56.4	3.8	7.46e-01	0	43	104	651165696	60	14359
2026-01-29 11:12:41.94	15.70	33.13	-44.0	-55.6	3.8	7.43e-01	0	43	104	651165696	59	13744
2026-01-29 11:12:42.93	15.41	32.94	-43.8	-55.5	3.8	7.46e-01	0	43	104	651165696	59	13720
2026-01-29 11:12:43.92	15.13	32.76	-43.7	-55.8	3.8	7.46e-01	0	43	104	651165696	59	14061
2026-01-29 11:12:44.92	14.85	32.57	-44.1	-56.3	3.8	7.47e-01	0	43	104	651165696	59	15045
2026-01-29 11:12:45.91	14.57	32.39	-51.3	-71.0	3.7	7.52e-01	0	43	104	651165696	73	36478
2026-01-29 11:12:46.91	14.29	32.20	-47.2	-60.6	3.8	7.48e-01	0	43	104	651165696	66	16422
2026-01-29 11:12:47.90	14.02	32.02	-46.0	-58.8	3.8	7.47e-01	0	43	104	651165696	62	16742
2026-01-29 11:12:48.90	13.75	31.83	-44.7	-57.2	3.8	7.45e-01	0	43	104	651165696	61	14751
2026-01-29 11:12:49.89	13.49	31.65	-44.9	-57.1	3.8	7.45e-01	0	43	104	651165696	61	14656
2026-01-29 11:12:50.89	13.23	31.46	-44.6	-56.8	3.8	7.45e-01	0	43	104	651165696	61	14174
2026-01-29 11:12:51.95	12.95	31.27	-44.2	-56.4	3.8	7.42e-01	0	43	104	651165696	59	15117
2026-01-29 11:12:52.85	12.72	31.11	-44.5	-56.9	3.8	7.45e-01	0	43	104	651165696	59	16006
2026-01-29 11:12:54.06	12.41	30.88	-44.1	-56.2	3.8	7.46e-01	0	43	104	651165696	59	14806
2026-01-29 11:12:54.92	12.20	30.73	-50.2	-70.9	3.7	7.50e-01	0	43	104	651165696	70	42730
2026-01-29 11:12:56.13	11.90	30.51	-46.5	-59.7	3.8	7.46e-01	0	43	104	651165696	64	16519
2026-01-29 11:12:56.99	11.68	30.35	-45.4	-58.1	3.9	7.49e-01	0	43	104	651165696	61	16335
2026-01-29 11:12:58.12	11.41	30.15	-44.2	-56.3	3.8	7.45e-01	0	43	104	651165696	59	14880
2026-01-29 11:12:58.97	11.21	30.00	-43.9	-55.6	3.8	7.45e-01	0	43	104	651165696	59	13822
2026-01-29 11:13:00.11	10.94	29.80	-43.5	-55.1	3.8	7.43e-01	0	43	104	651165696	59	13023
2026-01-29 11:13:00.96	10.74	29.65	-43.5	-55.3	3.8	7.45e-01	0	43	104	651165696	58	14098
2026-01-29 11:13:02.10	10.48	29.44	-44.1	-56.3	3.8	7.44e-01	0	43	104	651165696	58	15822
2026-01-29 11:13:03.03	10.26	29.28	-44.0	-56.0	3.8	7.46e-01	0	43	104	651165696	58	15365
2026-01-29 11:13:04.03	10.04	29.10	-51.1	-71.5	3.8	7.46e-01	0	43	104	651165696	72	40688
2026-01-29 11:13:05.02	9.82	28.93	-46.7	-60.0	3.8	7.48e-01	0	43	104	651165696	65	16249
2026-01-29 11:13:06.02	9.60	28.76	-45.3	-57.8	3.8	7.43e-01	0	43	104	651165696	61	15943
2026-01-29 11:13:07.01	9.38	28.59	-46.3	-59.2	3.8	7.44e-01	0	43	104	651165696	63	16523
2026-01-29 11:13:08.00	9.17	28.41	-46.2	-59.0	3.8	7.45e-01	0	43	104	651165696	64	15365
2026-01-29 11:13:09.00	8.95	28.24	-46.4	-59.0	3.8	7.48e-01	0	43	104	651165696	64	15370
2026-01-29 11:13:10.00	8.74	28.07	-46.5	-59.0	3.8	7.46e-01	0	43	104	651165696	64	15333
2026-01-29 11:13:10.99	8.53	27.90	-46.1	-58.6	3.8	7.47e-01	0	43	104	651165696	64	14562
2026-01-29 11:13:11.98	8.33	27.73	-44.3	-56.4	3.8	7.45e-01	0	43	104	651165696	59	15052
2026-01-29 11:13:12.98	8.13	27.56	-51.2	-71.3	3.7	7.47e-01	0	43	104	651165696	72	39628
2026-01-29 11:13:13.97	7.93	27.40	-47.2	-60.3	3.8	7.43e-01	0	43	104	651165696	66	15762
2026-01-29 11:13:14.97	7.73	27.23	-45.1	-57.1	3.8	7.44e-01	0	43	104	651165696	60	15474
2026-01-29 11:13:15.96	7.53	27.06	-44.1	-55.8	3.8	7.49e-01	0	43	104	651165696	59	14083
2026-01-29 11:13:16.96	7.34	26.90	-44.1	-55.9	3.8	7.46e-01	0	43	104	651165696	59	14360
2026-01-29 11:13:17.95	7.14	26.73	-44.0	-56.0	3.8	7.45e-01	0	43	104	651165696	59	14515
2026-01-29 11:13:18.95	6.95	26.57	-43.8	-55.8	3.8	7.44e-01	0	43	104	651165696	59	14142
2026-01-29 11:13:19.94	6.77	26.41	-44.3	-56.3	3.8	7.45e-01	0	43	104	651165696	59	14963
2026-01-29 11:13:20.94	6.58	26.24	-44.3	-56.1	3.8	7.44e-01	0	43	104	651165696	59	14666
2026-01-29 11:13:21.93	6.40	26.08	-50.7	-70.6	3.7	7.44e-01	0	43	104	651165696	72	36626
2026-01-29 11:13:22.92	6.21	25.92	-47.4	-60.2	3.8	7.46e-01	0	43	104	651165696	66	15625
2026-01-29 11:13:23.92	6.03	25.76	-45.0	-57.0	3.8	7.44e-01	0	43	104	651165696	60	15397
2026-01-29 11:13:24.91	5.86	25.60	-44.2	-56.3	3.8	7.47e-01	0	43	104	651165696	59	14989
2026-01-29 11:13:25.91	5.68	25.44	-44.2	-56.4	3.8	7.45e-01	0	43	104	651165696	59	15072
2026-01-29 11:13:26.91	5.50	25.28	-44.2	-56.5	3.8	7.47e-01	0	43	104	651165696	59	15325
2026-01-29 11:13:27.96	5.32	25.12	-44.4	-56.5	3.8	7.45e-01	0	43	104	651165696	59	15324
2026-01-29 11:13:28.85	5.17	24.98	-44.3	-56.3	3.8	7.46e-01	0	43	104	651165696	59	14892
2026-01-29 11:13:29.99	4.98	24.80	-44.4	-56.2	3.8	7.44e-01	0	43	104	651165696	59	14876
2026-01-29 11:13:30.84	4.83	24.67	-50.8	-69.7	3.7	7.46e-01	0	43	104	651165696	72	33288
2026-01-29 11:13:31.97	4.64	24.49	-47.4	-60.6	3.8	7.45e-01	0	43	104	651165696	66	16362
2026-01-29 11:13:32.82	4.50	24.36	-44.3	-56.2	3.8	7.43e-01	0	43	104	651165696	60	14022
2026-01-29 11:13:33.96	4.32	24.18	-44.2	-56.1	3.8	7.44e-01	0	43	104	651165696	59	14616
2026-01-29 11:13:34.81	4.18	24.05	-44.1	-55.9	3.8	7.45e-01	0	43	104	651165696	59	14321
2026-01-29 11:13:35.95	4.00	23.88	-43.9	-55.7	3.8	7.46e-01	0	43	104	651165696	59	13915
2026-01-29 11:13:36.80	3.87	23.75	-43.9	-55.7	3.8	7.46e-01	0	43	104	651165696	59	14040
2026-01-29 11:13:38.03	3.67	23.57	-43.9	-55.8	3.8	7.49e-01	0	43	104	651165696	59	14169
2026-01-29 11:13:38.88	3.54	23.44	-44.4	-56.5	3.8	7.44e-01	0	43	104	651165696	59	15269
2026-01-29 11:13:40.02	3.37	23.27	-50.9	-71.1	3.7	7.50e-01	0	43	104	651165696	72	39039
2026-01-29 11:13:40.87	3.24	23.14	-49.5	-65.0	3.8	7.45e-01	0	43	104	651165696	71	20384
2026-01-29 11:13:42.15	3.05	22.95	-47.6	-60.7	3.8	7.47e-01	0	43	104	651165696	65	17597
2026-01-29 11:13:42.88	2.94	22.85	-47.1	-60.1	3.8	7.45e-01	0	43	104	651165696	66	15472
2026-01-29 11:13:44.16	2.75	22.66	-46.7	-59.6	3.8	7.44e-01	0	43	104	651165696	65	15408
2026-01-29 11:13:44.88	2.65	22.55	-46.0	-58.6	3.8	7.44e-01	0	43	104	651165696	63	15469
2026-01-29 11:13:46.17	2.46	22.37	-45.0	-57.6	3.8	7.45e-01	0	43	104	651165696	62	14648
2026-01-29 11:13:46.89	2.36	22.26	-44.2	-56.6	3.8	7.43e-01	0	43	104	651165696	60	14568
2026-01-29 11:13:48.17	2.18	22.08	-47.2	-61.1	3.8	7.45e-01	0	43	104	651165696	65	18444
2026-01-29 11:13:48.90	2.08	21.98	-49.2	-65.0	3.8	7.47e-01	0	43	104	651165696	69	22940
2026-01-29 11:13:50.17	1.90	21.80	-44.1	-56.0	3.8	7.47e-01	0	43	104	651165696	59	14423
2026-01-29 11:13:51.01	1.79	21.68	-49.9	-70.4	3.7	7.49e-01	0	43	104	651165696	70	40315
2026-01-29 11:13:52.15	1.63	21.52	-45.4	-57.7	3.8	7.45e-01	0	43	104	651165696	62	14814
2026-01-29 11:13:53.19	1.49	21.37	-44.9	-57.2	3.8	7.43e-01	0	43	104	651165696	61	14749
2026-01-29 11:13:54.31	1.34	21.21	-44.9	-57.3	3.8	7.42e-01	0	43	104	651165696	61	14880
2026-01-29 11:13:55.24	1.22	21.09	-44.6	-56.9	3.8	7.45e-01	0	43	104	651165696	61	14305
2026-01-29 11:13:56.23	1.09	20.95	-44.3	-56.6	3.8	7.46e-01	0	43	104	651165696	60	14662
2026-01-29 11:13:57.23	0.96	20.81	-44.5	-57.2	3.8	7.45e-01	0	43	104	651165696	60	15609
2026-01-29 11:13:58.23	0.84	20.68	-51.0	-71.4	3.8	7.48e-01	0	43	104	651165696	72	40080
2026-01-29 11:13:59.22	0.71	20.54	-51.0	-71.0	3.8	7.45e-01	0	43	104	651165696	72	38374
2026-01-29 11:14:00.22	0.58	20.41	-50.0	-69.1	3.8	7.48e-01	0	43	104	651165696	71	32624
2026-01-29 11:14:01.54	0.42	20.23	-50.0	-69.4	3.8	7.46e-01	0	43	104	651165696	71	33941
2026-01-29 11:14:02.25	0.33	20.13	-49.9	-68.2	3.8	7.45e-01	0	43	104	651165696	71	29389
2026-01-29 11:14:03.53	0.18	19.96	-49.5	-65.0	3.8	7.46e-01	0	43	104	651165696	71	20464
2026-01-29 11:14:04.26	0.09	19.87	-48.9	-63.3	3.8	7.46e-01	0	44	104	651165696	69	18811
2026-01-29 11:14:05.54	359.94	19.70	-46.9	-60.1	3.8	7.47e-01	0	43	104	651165696	65	16460
2026-01-29 11:14:06.25	359.85	19.60	-46.9	-60.3	3.8	7.45e-01	0	43	104	651165696	65	16756
2026-01-29 11:14:07.53	359.70	19.44	-46.1	-59.2	3.8	7.43e-01	0	43	104	651165696	64	15741
2026-01-29 11:14:08.25	359.62	19.34	-44.3	-56.4	3.8	7.46e-01	0	43	104	651165696	59	15126
2026-01-29 11:14:09.53	359.47	19.18	-47.7	-62.2	3.9	7.44e-01	0	43	104	651165696	67	18712
2026-01-29 11:14:10.24	359.39	19.09	-44.5	-56.7	3.8	7.43e-01	0	43	104	651165696	61	13953
2026-01-29 11:14:11.54	359.25	18.92	-44.7	-56.9	3.8	7.44e-01	0	43	104	651165696	61	14347
2026-01-29 11:14:12.25	359.17	18.83	-44.5	-56.8	3.8	7.47e-01	0	43	104	651165696	61	14060
2026-01-29 11:14:13.53	359.02	18.67	-44.3	-56.6	3.8	7.43e-01	0	43	104	651165696	60	14610
2026-01-29 11:14:14.24	358.95	18.58	-44.9	-57.4	3.8	7.45e-01	0	43	104	651165696	60	15974
2026-01-29 11:14:15.64	358.79	18.40	-48.7	-62.9	3.8	7.45e-01	0	43	104	651165696	67	20072
2026-01-29 11:14:16.35	358.72	18.31	-48.9	-63.4	3.9	7.43e-01	0	43	104	651165696	69	19038
2026-01-29 11:14:17.69	358.57	18.15	-48.9	-64.4	3.8	7.48e-01	0	43	104	651165696	68	22734
2026-01-29 11:14:18.40	358.50	18.06	-48.6	-64.5	3.9	7.45e-01	0	43	104	651165696	69	21510
2026-01-29 11:14:19.74	358.36	17.89	-43.8	-55.9	3.8	7.44e-01	0	43	104	651165696	59	14287
2026-01-29 11:14:20.45	358.29	17.81	-43.9	-55.8	3.8	7.46e-01	0	43	104	651165696	59	14201
2026-01-29 11:14:21.73	358.15	17.65	-43.9	-55.9	3.8	7.45e-01	0	43	104	651165696	59	14250
2026-01-29 11:14:22.44	358.08	17.56	-43.8	-55.8	3.8	7.43e-01	0	43	104	651165696	59	14110
2026-01-29 11:14:23.72	357.95	17.41	-44.2	-56.3	3.8	7.46e-01	0	43	104	651165696	59	14989
2026-01-29 11:14:24.43	357.88	17.32	-46.2	-58.9	3.8	7.44e-01	0	44	104	651165696	62	16909
2026-01-29 11:14:25.71	357.75	17.17	-47.7	-61.6	3.8	7.47e-01	0	43	104	651165696	67	17366
2026-01-29 11:14:26.48	357.68	17.08	-44.4	-57.2	3.8	7.44e-01	0	43	104	651165696	61	14775
2026-01-29 11:14:27.76	357.55	16.93	-43.6	-55.8	3.8	7.46e-01	0	43	104	651165696	58	14957
2026-01-29 11:14:28.53	357.48	16.84	-43.6	-55.8	3.8	7.41e-01	0	43	104	651165696	58	14883
2026-01-29 11:14:29.81	357.35	16.68	-43.7	-55.8	3.8	7.45e-01	0	43	104	651165696	58	14912
2026-01-29 11:14:30.54	357.29	16.60	-43.8	-55.8	3.8	7.45e-01	0	43	104	651165696	58	14926
2026-01-29 11:14:31.81	357.17	16.45	-43.9	-55.8	3.8	7.44e-01	0	43	104	651165696	58	15032
2026-01-29 11:14:32.59	357.09	16.36	-44.2	-56.3	3.8	7.47e-01	0	43	104	651165696	59	14910
2026-01-29 11:14:33.87	356.97	16.21	-48.9	-68.7	3.6	7.49e-01	0	43	104	651165696	68	37107
2026-01-29 11:14:34.59	356.91	16.13	-48.0	-62.7	3.9	7.44e-01	0	43	104	651165696	68	18665
2026-01-29 11:14:35.87	356.79	15.98	-43.8	-55.8	3.8	7.45e-01	0	43	104	651165696	59	14092
2026-01-29 11:14:36.59	356.73	15.90	-43.8	-55.9	3.8	7.45e-01	0	43	104	651165696	59	14264
2026-01-29 11:14:37.88	356.61	15.76	-43.7	-55.8	3.8	7.46e-01	0	43	104	651165696	59	14165
2026-01-29 11:14:38.59	356.55	15.68	-43.7	-55.8	3.8	7.45e-01	0	43	104	651165696	59	14177
2026-01-29 11:14:39.87	356.43	15.53	-43.8	-55.9	3.8	7.46e-01	0	43	104	651165696	59	14308
2026-01-29 11:14:40.60	356.37	15.45	-43.8	-55.9	3.8	7.45e-01	0	43	104	651165696	59	14339
2026-01-29 11:14:41.88	356.26	15.31	-44.6	-57.0	3.8	7.44e-01	0	43	104	651165696	59	16145
2026-01-29 11:14:42.59	356.20	15.23	-48.1	-62.8	3.8	7.45e-01	0	43	104	651165696	66	21249
2026-01-29 11:14:43.86	356.09	15.09	-47.7	-62.4	3.9	7.45e-01	0	43	104	651165696	67	19108
2026-01-29 11:14:44.58	356.03	15.01	-44.7	-57.0	3.9	7.45e-01	0	43	104	651165696	61	14400
2026-01-29 11:14:45.85	355.92	14.87	-43.7	-55.8	3.8	7.46e-01	0	43	104	651165696	59	14141
2026-01-29 11:14:46.56	355.86	14.80	-43.6	-55.9	3.8	7.47e-01	0	43	104	651165696	59	14217
2026-01-29 11:14:47.84	355.76	14.66	-43.5	-55.9	3.8	7.44e-01	0	43	104	651165696	59	14293
2026-01-29 11:14:48.57	355.70	14.58	-43.5	-55.9	3.8	7.43e-01	0	43	104	651165696	59	14266
2026-01-29 11:14:49.85	355.60	14.44	-43.5	-55.9	3.8	7.42e-01	0	43	104	651165696	59	14236
2026-01-29 11:14:50.56	355.54	14.36	-44.1	-56.7	3.8	7.43e-01	0	43	104	651165696	59	15594
2026-01-29 11:14:51.84	355.44	14.23	-49.3	-65.8	3.7	7.41e-01	0	43	104	651165696	69	25102
2026-01-29 11:14:52.56	355.38	14.15	-45.0	-58.3	3.9	7.44e-01	0	43	104	651165696	62	15878
2026-01-29 11:14:53.85	355.28	14.02	-48.0	-65.1	3.7	7.48e-01	0	44	104	651165696	66	27650
2026-01-29 11:14:54.56	355.22	13.94	-45.6	-58.6	3.8	7.44e-01	0	43	104	651165696	63	15476
2026-01-29 11:14:55.83	355.12	13.81	-43.6	-55.9	3.8	7.45e-01	0	43	104	651165696	59	14364
2026-01-29 11:14:56.56	355.07	13.73	-43.5	-55.8	3.8	7.45e-01	0	43	104	651165696	59	14166
2026-01-29 11:14:57.84	354.97	13.60	-43.6	-55.8	3.8	7.43e-01	0	43	104	651165696	59	14103
2026-01-29 11:14:58.58	354.91	13.52	-44.1	-56.5	3.8	7.46e-01	0	43	104	651165696	59	15243
2026-01-29 11:14:59.86	354.82	13.39	-49.1	-66.0	3.8	7.51e-01	0	43	104	651165696	68	27133
2026-01-29 11:15:00.60	354.76	13.32	-44.7	-57.6	3.9	7.43e-01	0	43	104	651165696	61	15505
2026-01-29 11:15:02.02	354.66	13.17	-48.5	-66.9	3.8	7.49e-01	0	43	104	651165696	67	32108
2026-01-29 11:15:02.73	354.61	13.10	-44.3	-56.3	3.9	7.45e-01	0	44	104	651165696	60	14160
2026-01-29 11:15:04.07	354.51	12.96	-43.6	-56.0	3.8	7.43e-01	0	43	104	651165696	59	14401
2026-01-29 11:15:04.78	354.46	12.89	-43.6	-55.9	3.8	7.42e-01	0	43	104	651165696	59	14239
2026-01-29 11:15:06.06	354.37	12.76	-43.5	-55.9	3.8	7.44e-01	0	43	104	651165696	59	14280
2026-01-29 11:15:06.79	354.31	12.69	-44.6	-57.6	3.8	7.46e-01	0	43	104	651165696	59	17458
2026-01-29 11:15:08.16	354.22	12.55	-45.0	-58.2	3.8	7.45e-01	0	43	104	651165696	60	17525
2026-01-29 11:15:08.87	354.17	12.48	-49.8	-66.2	3.8	7.43e-01	0	43	104	651165696	70	24845
2026-01-29 11:15:10.18	354.08	12.36	-46.8	-62.5	3.8	7.46e-01	0	43	104	651165696	65	21714
2026-01-29 11:15:10.89	354.03	12.29	-50.5	-71.2	3.8	7.45e-01	0	43	104	651165696	72	39352
2026-01-29 11:15:12.22	353.94	12.16	-46.5	-62.1	3.8	7.48e-01	0	43	104	651165696	65	20708
2026-01-29 11:15:12.93	353.89	12.09	-46.7	-62.4	3.8	7.45e-01	0	43	104	651165696	65	21316
2026-01-29 11:15:14.27	353.80	11.96	-46.5	-61.6	3.9	7.43e-01	0	43	104	651165696	64	20674
2026-01-29 11:15:15.28	353.73	11.86	-46.5	-61.7	3.9	7.42e-01	0	43	104	651165696	64	20909
2026-01-29 11:15:16.28	353.67	11.76	-46.3	-61.1	3.9	7.48e-01	0	44	104	651165696	64	19577
2026-01-29 11:15:17.27	353.60	11.67	-44.7	-58.3	3.8	7.48e-01	0	43	104	651165696	61	16755
2026-01-29 11:15:18.27	353.54	11.57	-48.1	-69.3	3.8	7.44e-01	0	43	104	651165696	66	44700
2026-01-29 11:15:19.26	353.47	11.48	-46.7	-62.6	3.9	7.43e-01	0	43	104	651165696	65	22005
2026-01-29 11:15:20.26	353.41	11.38	-43.0	-56.2	3.8	7.42e-01	0	43	104	651165696	58	15605
2026-01-29 11:15:21.25	353.35	11.29	-43.1	-56.3	3.8	7.45e-01	0	43	104	651165696	57	16806
2026-01-29 11:15:22.25	353.28	11.20	-42.7	-56.5	3.8	7.46e-01	0	43	104	651165696	57	17166
2026-01-29 11:15:23.24	353.22	11.11	-42.3	-56.4	3.8	7.45e-01	0	43	104	651165696	56	17896
2026-01-29 11:15:24.36	353.15	11.00	-42.0	-56.3	3.8	7.47e-01	0	43	104	651165696	56	17740
2026-01-29 11:15:25.22	353.10	10.92	-41.9	-56.1	3.8	7.46e-01	0	43	104	651165696	55	18463
2026-01-29 11:15:26.61	353.01	10.79	-45.6	-61.9	3.8	7.45e-01	0	43	104	651165696	61	25368
2026-01-29 11:15:27.32	352.97	10.73	-46.1	-64.4	3.9	7.45e-01	0	43	104	651165696	64	28463
2026-01-29 11:15:28.84	352.88	10.59	-44.6	-62.2	3.7	7.46e-01	0	43	104	651165696	59	29628
2026-01-29 11:15:29.55	352.84	10.52	-42.9	-58.5	3.8	7.42e-01	0	44	104	651165696	57	21510
2026-01-29 11:15:30.83	352.76	10.41	-42.7	-56.2	3.8	7.45e-01	0	43	104	651165696	56	17674
2026-01-29 11:15:31.56	352.72	10.34	-43.0	-56.4	3.8	7.42e-01	0	43	104	651165696	56	17895
2026-01-29 11:15:32.84	352.64	10.23	-43.4	-56.4	3.8	7.46e-01	0	43	104	651165696	57	16896
2026-01-29 11:15:33.56	352.60	10.16	-43.8	-56.5	3.9	7.46e-01	0	43	104	651165696	58	16287
2026-01-29 11:15:34.84	352.52	10.05	-43.7	-56.6	3.8	7.45e-01	0	43	104	651165696	58	16401
2026-01-29 11:15:35.55	352.48	9.98	-44.1	-61.2	3.7	7.49e-01	0	43	104	651165696	58	27991
2026-01-29 11:15:36.83	352.41	9.87	-44.1	-57.6	3.8	7.43e-01	0	43	104	651165696	60	16395
2026-01-29 11:15:37.57	352.37	9.80	-44.6	-57.9	3.8	7.46e-01	0	43	104	651165696	59	17899
2026-01-29 11:15:38.85	352.30	9.69	-44.0	-57.3	3.8	7.42e-01	0	44	104	651165696	59	16723
2026-01-29 11:15:39.70	352.25	9.62	-43.6	-57.1	3.8	7.46e-01	0	43	104	651165696	59	16379
2026-01-29 11:15:41.14	352.17	9.49	-42.8	-56.6	3.8	7.44e-01	0	43	104	651165696	57	17352
2026-01-29 11:15:41.84	352.13	9.43	-42.4	-56.4	3.8	7.45e-01	0	43	104	651165696	56	18064
2026-01-29 11:15:43.14	352.06	9.32	-42.6	-56.9	3.8	7.48e-01	0	43	104	651165696	56	19021
2026-01-29 11:15:43.85	352.02	9.26	-42.6	-57.0	3.8	7.46e-01	0	43	104	651165696	56	19289
2026-01-29 11:15:45.14	351.95	9.14	-47.5	-66.7	3.8	7.41e-01	0	43	104	651165696	65	34900
2026-01-29 11:15:45.87	351.91	9.08	-41.8	-57.8	3.8	7.48e-01	0	44	104	651165696	55	22276
2026-01-29 11:15:47.14	351.85	8.97	-47.2	-68.6	3.7	7.49e-01	0	44	104	651165696	66	41340
2026-01-29 11:15:47.93	351.81	8.91	-47.3	-71.6	3.8	7.42e-01	0	43	104	651165696	65	61515
2026-01-29 11:15:49.16	351.74	8.80	-49.1	-71.6	3.8	7.44e-01	0	43	104	651165696	68	52110
2026-01-29 11:15:50.11	351.69	8.72	-49.1	-71.5	3.8	7.47e-01	0	43	104	651165696	70	45890
2026-01-29 11:15:51.10	351.64	8.64	-50.1	-71.6	3.8	7.42e-01	0	43	104	651165696	70	46249
2026-01-29 11:15:52.09	351.59	8.55	-51.0	-71.4	3.8	7.45e-01	0	44	104	651165696	73	37966
2026-01-29 11:15:53.09	351.54	8.47	-50.5	-71.6	3.8	7.44e-01	0	44	104	651165696	71	43554
2026-01-29 11:15:54.08	351.49	8.39	-51.0	-71.6	3.8	7.48e-01	0	43	104	651165696	72	41006
2026-01-29 11:15:55.07	351.44	8.30	-48.3	-71.4	3.8	7.50e-01	0	43	104	651165696	68	50449
2026-01-29 11:15:56.07	351.39	8.22	-50.8	-71.5	3.8	7.50e-01	0	44	104	651165696	73	38566
2026-01-29 11:15:57.06	351.34	8.14	-50.8	-71.5	3.8	7.42e-01	0	44	104	651165696	72	40753
2026-01-29 11:15:58.05	351.29	8.06	-49.7	-71.5	3.8	7.49e-01	0	43	104	651165696	70	45853
2026-01-29 11:15:59.05	351.24	7.98	-50.1	-71.4	3.8	7.47e-01	0	44	104	651165696	72	40172
2026-01-29 11:16:00.04	351.19	7.90	-50.5	-71.3	3.8	7.49e-01	0	43	104	651165696	72	39654
2026-01-29 11:16:01.03	351.15	7.81	-50.6	-71.1	3.8	7.48e-01	0	44	104	651165696	72	38875
2026-01-29 11:16:02.03	351.10	7.73	-50.2	-71.0	3.8	7.47e-01	0	44	104	651165696	72	38586
2026-01-29 11:16:03.02	351.05	7.65	-50.8	-71.0	3.8	7.46e-01	0	43	104	651165696	72	38528
2026-01-29 11:16:04.01	351.00	7.57	-50.8	-71.0	3.8	7.45e-01	0	43	104	651165696	72	38656
2026-01-29 11:16:05.01	350.96	7.49	-50.6	-71.1	3.8	7.47e-01	0	43	104	651165696	72	38707
2026-01-29 11:16:06.00	350.91	7.41	-50.8	-71.1	3.8	7.46e-01	0	43	104	651165696	72	38748
2026-01-29 11:16:06.99	350.86	7.33	-50.1	-71.1	3.8	7.44e-01	0	43	104	651165696	72	38948
2026-01-29 11:16:07.98	350.82	7.26	-50.2	-71.1	3.8	7.46e-01	0	43	104	651165696	72	38902
2026-01-29 11:16:08.98	350.77	7.18	-50.2	-71.1	3.8	7.47e-01	0	44	104	651165696	72	39002
2026-01-29 11:16:09.97	350.73	7.10	-50.2	-71.1	3.8	7.46e-01	0	43	104	651165696	72	38920
2026-01-29 11:16:10.96	350.68	7.02	-50.2	-71.1	3.8	7.46e-01	0	43	104	651165696	72	38881
2026-01-29 11:16:11.96	350.64	6.94	-50.2	-71.1	3.8	7.45e-01	0	44	104	651165696	72	38881
2026-01-29 11:16:12.95	350.59	6.86	-50.2	-71.1	3.8	7.43e-01	0	43	104	651165696	72	38877
2026-01-29 11:16:13.94	350.55	6.79	-50.2	-71.1	3.8	7.46e-01	0	43	104	651165696	72	38853
2026-01-29 11:16:14.94	350.51	6.71	-50.2	-71.1	3.8	7.45e-01	0	43	104	651165696	72	38834
2026-01-29 11:16:15.93	350.46	6.63	-50.2	-71.1	3.8	7.49e-01	0	43	104	651165696	72	38763
2026-01-29 11:16:16.92	350.42	6.55	-50.2	-71.1	3.8	7.43e-01	0	43	104	651165696	72	38782
2026-01-29 11:16:17.92	350.38	6.48	-50.2	-71.1	3.8	7.44e-01	0	44	104	651165696	72	38772
2026-01-29 11:16:18.91	350.33	6.40	-50.2	-71.1	3.8	7.45e-01	0	43	104	651165696	72	38789
2026-01-29 11:16:19.90	350.29	6.32	-50.2	-71.1	3.8	7.48e-01	0	44	104	651165696	72	38817
2026-01-29 11:16:20.90	350.25	6.25	-50.2	-71.0	3.8	7.44e-01	0	44	104	651165696	72	38678
2026-01-29 11:16:21.89	350.21	6.17	-50.2	-71.1	3.8	7.45e-01	0	43	104	651165696	72	38847
2026-01-29 11:16:22.88	350.16	6.10	-50.2	-71.1	3.8	7.48e-01	0	43	104	651165696	72	38737
2026-01-29 11:16:23.88	350.12	6.02	-50.2	-71.1	3.8	7.49e-01	0	44	104	651165696	72	38756
2026-01-29 11:16:24.87	350.08	5.95	-50.1	-71.1	3.8	7.44e-01	0	44	104	651165696	72	38751
2026-01-29 11:16:25.86	350.04	5.87	-50.1	-71.1	3.8	7.50e-01	0	43	104	651165696	72	38756
2026-01-29 11:16:26.86	350.00	5.80	-50.2	-71.1	3.8	7.48e-01	0	43	104	651165696	72	38713
2026-01-29 11:16:27.85	349.96	5.72	-50.2	-71.1	3.8	7.49e-01	0	44	104	651165696	72	38712
2026-01-29 11:16:28.84	349.92	5.65	-50.2	-71.0	3.8	7.46e-01	0	44	104	651165696	72	38641
2026-01-29 11:16:29.84	349.88	5.57	-50.2	-71.1	3.8	7.45e-01	0	43	104	651165696	72	38712
2026-01-29 11:16:30.83	349.84	5.50	-50.1	-71.1	3.8	7.50e-01	0	43	104	651165696	72	38760
2026-01-29 11:16:31.82	349.80	5.43	-50.1	-71.0	3.8	7.46e-01	0	43	104	651165696	72	38653
2026-01-29 11:16:32.81	349.76	5.35	-50.1	-71.0	3.8	7.43e-01	0	43	104	651165696	72	38668
2026-01-29 11:16:33.81	349.72	5.28	-50.1	-71.0	3.8	7.48e-01	0	44	104	651165696	72	38629
2026-01-29 11:16:34.80	349.68	5.21	-50.1	-71.0	3.8	7.47e-01	0	44	104	651165696	72	38595
2026-01-29 11:16:35.80	349.65	5.14	-50.1	-71.1	3.8	7.47e-01	0	43	104	651165696	72	38703
2026-01-29 11:16:36.79	349.61	5.06	-50.1	-71.0	3.8	7.45e-01	0	44	104	651165696	72	38634
2026-01-29 11:16:37.78	349.57	4.99	-50.1	-71.0	3.8	7.45e-01	0	44	104	651165696	72	38554

#Closed at: 2026-01-29 11:16:38
#Recorded file [651 MB]: D:/Data/31040_260129_140537.dat