passes_logs/2026/01/29/T1/T1__20260129_043217_FENGYUN_3E_rec.log

#Pass ID: 20260129_043217_FENGYUN 3E
#Satellite: FENGYUN 3E
#Configuration: FENGYUN 3E
#almurnet v.1.7.20251203
#Start time: 2026-01-29 04:32:17

#Version: 2.0.20230620
#Station: T1
#Location: 37.570604 lon 55.790049 lat
#TLE: 1 49008U 21062A   26027.83084825  .00000170  00000+0  10081-3 0  9997
#TLE: 2 49008  98.7501  32.8098 0002509 114.2687 245.8752 14.19888158236667

#Time	Az	El	Level	Level2	SNR	BER	BlckErr	Temp	State	Recorded	gain1	gain2
2026-01-29 04:32:17.09	12.78	4.96	-50.1	-61.2	3.8	8.46e-01	0	37	0	0	70	12971
2026-01-29 04:32:18.07	12.76	5.02	-50.5	-61.2	3.8	8.46e-01	0	37	104	0	71	12294
2026-01-29 04:32:19.07	12.73	5.09	-50.5	-61.3	3.8	8.48e-01	0	37	104	0	71	12391
2026-01-29 04:32:20.06	12.71	5.16	-50.5	-61.2	3.8	8.47e-01	0	37	104	0	71	12361
2026-01-29 04:32:21.05	12.68	5.23	-50.6	-61.3	3.8	8.46e-01	0	37	104	0	71	12432
2026-01-29 04:32:22.05	12.65	5.31	-50.7	-61.3	3.8	8.47e-01	0	38	104	0	71	12378
2026-01-29 04:32:23.04	12.63	5.38	-50.6	-61.3	3.8	8.47e-01	0	37	104	0	71	12422
2026-01-29 04:32:24.03	12.60	5.45	-50.6	-61.3	3.8	8.47e-01	0	38	104	0	71	12407
2026-01-29 04:32:25.03	12.57	5.52	-50.6	-61.3	3.8	8.47e-01	0	37	104	0	71	12407
2026-01-29 04:32:26.02	12.55	5.59	-50.5	-61.2	3.8	8.47e-01	0	38	104	0	71	12359
2026-01-29 04:32:27.01	12.52	5.66	-50.6	-61.2	3.8	8.49e-01	0	38	104	0	71	12316
2026-01-29 04:32:28.01	12.49	5.73	-50.5	-61.2	3.8	8.46e-01	0	38	104	0	71	12268
2026-01-29 04:32:29.00	12.46	5.80	-50.5	-61.1	3.8	8.47e-01	0	38	104	0	71	12206
2026-01-29 04:32:29.99	12.44	5.87	-50.4	-61.1	3.8	8.47e-01	0	38	104	0	71	12104
2026-01-29 04:32:30.99	12.41	5.95	-50.2	-61.0	3.8	8.47e-01	0	38	104	0	71	12034
2026-01-29 04:32:31.98	12.38	6.02	-50.2	-61.0	3.8	8.48e-01	0	38	104	0	71	12005
2026-01-29 04:32:32.97	12.35	6.09	-50.0	-61.0	3.8	8.47e-01	0	38	104	0	70	12699
2026-01-29 04:32:33.96	12.32	6.16	-50.1	-61.0	3.8	8.47e-01	0	38	104	0	70	12665
2026-01-29 04:32:34.96	12.29	6.24	-49.6	-61.0	3.8	8.46e-01	0	38	104	0	70	12670
2026-01-29 04:32:35.95	12.26	6.31	-49.9	-60.9	3.8	8.46e-01	0	38	104	0	69	13310
2026-01-29 04:32:36.95	12.24	6.38	-49.8	-60.8	3.8	8.47e-01	0	38	104	0	69	13208
2026-01-29 04:32:37.94	12.21	6.45	-48.8	-60.9	3.8	8.46e-01	0	38	104	0	68	14116
2026-01-29 04:32:38.93	12.18	6.53	-50.1	-60.8	3.8	8.46e-01	0	38	104	0	69	13178
2026-01-29 04:32:39.93	12.15	6.60	-48.4	-60.6	3.8	8.46e-01	0	38	104	0	67	14451
2026-01-29 04:32:40.92	12.12	6.68	-49.1	-60.4	3.8	8.47e-01	0	38	104	0	67	14168
2026-01-29 04:32:41.91	12.09	6.75	-48.3	-59.1	3.8	8.47e-01	0	38	104	0	67	12138
2026-01-29 04:32:42.91	12.06	6.82	-48.3	-58.7	3.8	8.46e-01	0	38	104	0	67	11619
2026-01-29 04:32:43.90	12.03	6.90	-48.2	-58.4	3.8	8.46e-01	0	38	104	0	67	11240
2026-01-29 04:32:44.89	12.00	6.97	-48.2	-58.3	3.9	8.45e-01	0	38	104	0	67	11033
2026-01-29 04:32:45.89	11.97	7.05	-48.2	-58.0	4.0	8.44e-01	0	38	104	0	67	10764
2026-01-29 04:32:46.88	11.94	7.12	-48.2	-58.0	4.0	8.46e-01	0	38	104	0	67	10726
2026-01-29 04:32:47.87	11.91	7.20	-48.1	-57.9	4.0	8.45e-01	0	39	104	0	67	10538
2026-01-29 04:32:48.87	11.87	7.28	-48.2	-58.0	4.0	8.45e-01	0	38	104	0	67	10683
2026-01-29 04:32:49.86	11.84	7.35	-48.1	-57.9	4.0	8.44e-01	0	39	104	0	67	10636
2026-01-29 04:32:50.85	11.81	7.43	-48.1	-57.8	4.0	8.44e-01	0	39	104	0	67	10519
2026-01-29 04:32:51.85	11.78	7.50	-48.1	-57.9	3.8	8.44e-01	0	38	104	0	67	10541
2026-01-29 04:32:52.84	11.75	7.58	-48.1	-57.6	4.0	8.45e-01	0	39	104	0	67	10195
2026-01-29 04:32:53.83	11.72	7.66	-48.1	-57.4	4.1	8.41e-01	0	39	0	0	67	9978
2026-01-29 04:32:54.83	11.68	7.73	-48.0	-56.6	4.3	8.37e-01	0	39	0	0	66	9717
2026-01-29 04:32:55.82	11.65	7.81	-47.9	-55.9	4.5	8.24e-01	0	39	0	0	66	8938
2026-01-29 04:32:56.81	11.62	7.89	-47.6	-54.6	5.2	7.79e-01	0	39	0	0	66	7631
2026-01-29 04:32:57.81	11.59	7.97	-47.3	-53.4	6.0	4.37e-01	0	39	0	1048576	65	7050
2026-01-29 04:32:58.80	11.55	8.04	-46.9	-52.3	6.9	1.92e-01	0	39	0	8388608	64	6628
2026-01-29 04:32:59.79	11.52	8.12	-46.5	-51.0	8.2	9.37e-02	0	39	0	15728640	63	6013
2026-01-29 04:33:00.79	11.49	8.20	-46.1	-50.0	9.3	2.34e-02	0	39	0	22020096	62	5675
2026-01-29 04:33:01.78	11.45	8.28	-45.5	-49.0	10.4	5.68e-03	0	39	0	29360128	61	5342
2026-01-29 04:33:02.77	11.42	8.36	-45.0	-48.0	11.4	1.46e-03	0	39	0	36700160	60	5048
2026-01-29 04:33:03.77	11.39	8.44	-44.6	-47.2	12.1	2.56e-04	0	39	0	44040192	59	4890
2026-01-29 04:33:04.76	11.35	8.51	-44.1	-46.4	12.9	7.43e-05	0	39	0	51380224	58	4751
2026-01-29 04:33:05.75	11.32	8.59	-44.0	-46.3	13.0	4.34e-05	0	39	0	58720256	58	4696
2026-01-29 04:33:06.75	11.28	8.67	-43.6	-45.8	13.5	1.48e-05	0	39	0	65011712	58	4415
2026-01-29 04:33:07.74	11.25	8.75	-43.7	-45.9	13.4	2.17e-05	0	39	0	72351744	58	4452
2026-01-29 04:33:08.73	11.21	8.83	-43.8	-46.1	13.3	2.97e-05	0	39	0	79691776	58	4563
2026-01-29 04:33:09.73	11.18	8.92	-44.0	-46.3	13.0	3.20e-05	0	39	0	87031808	58	4701
2026-01-29 04:33:10.72	11.14	9.00	-44.5	-47.0	12.3	2.05e-04	0	39	0	94371840	58	5082
2026-01-29 04:33:11.71	11.11	9.08	-45.8	-49.3	10.0	3.85e-03	0	39	0	101711872	60	5903
2026-01-29 04:33:12.79	11.07	9.16	-48.1	-55.6	4.7	7.32e-01	0	39	0	108003328	65	9106
2026-01-29 04:33:13.69	11.04	9.24	-42.3	-44.1	15.0	7.64e-04	0	39	0	111149056	55	4319
2026-01-29 04:33:14.97	10.99	9.34	-40.1	-41.5	17.9	0.00e+00	0	39	0	119537664	50	4246
2026-01-29 04:33:15.68	10.96	9.40	-42.9	-45.0	14.4	0.00e+00	0	39	0	124780544	55	4779
2026-01-29 04:33:16.96	10.91	9.51	-40.5	-42.0	17.3	0.00e+00	0	39	0	134217728	51	4248
2026-01-29 04:33:17.70	10.89	9.57	-40.5	-41.9	17.4	0.00e+00	0	39	0	139460608	51	4218
2026-01-29 04:33:18.98	10.84	9.68	-39.9	-41.3	18.1	0.00e+00	0	39	0	148897792	50	4149
2026-01-29 04:33:19.69	10.81	9.74	-39.9	-41.3	18.0	0.00e+00	0	39	0	154140672	50	4166
2026-01-29 04:33:20.97	10.76	9.84	-40.2	-41.5	17.8	0.00e+00	0	39	0	163577856	50	4287
2026-01-29 04:33:21.68	10.74	9.90	-39.7	-41.0	18.3	0.00e+00	0	39	0	168820736	50	4034
2026-01-29 04:33:22.96	10.69	10.01	-39.1	-40.4	18.9	0.00e+00	0	39	0	178257920	49	3975
2026-01-29 04:33:23.69	10.66	10.07	-39.3	-40.5	18.8	0.00e+00	0	39	0	183500800	49	4044
2026-01-29 04:33:24.97	10.61	10.18	-39.2	-40.4	18.9	0.00e+00	0	39	0	191889408	49	3973
2026-01-29 04:33:25.68	10.58	10.24	-39.2	-40.4	18.9	0.00e+00	0	39	0	197132288	48	4225
2026-01-29 04:33:27.04	10.53	10.36	-39.1	-40.3	19.0	0.00e+00	0	39	0	207618048	48	4188
2026-01-29 04:33:27.75	10.50	10.42	-39.2	-40.4	18.9	0.00e+00	0	39	0	212860928	48	4216
2026-01-29 04:33:29.12	10.44	10.54	-38.9	-40.1	19.2	0.00e+00	0	39	0	222298112	48	4076
2026-01-29 04:33:29.83	10.42	10.60	-38.9	-40.0	19.3	0.00e+00	0	39	0	227540992	48	4049
2026-01-29 04:33:31.11	10.36	10.71	-39.0	-40.2	19.2	0.00e+00	0	39	0	236978176	48	4106
2026-01-29 04:33:31.82	10.33	10.77	-38.8	-40.0	19.4	0.00e+00	0	39	0	241172480	48	4017
2026-01-29 04:33:33.24	10.28	10.90	-38.7	-39.9	19.5	0.00e+00	0	39	0	251658240	48	3972
2026-01-29 04:33:33.96	10.25	10.96	-38.5	-39.7	19.4	0.00e+00	0	39	0	256901120	47	4120
2026-01-29 04:33:35.23	10.19	11.07	-38.3	-39.4	19.6	0.00e+00	0	39	0	266338304	47	3999
2026-01-29 04:33:35.95	10.16	11.13	-38.4	-39.5	19.6	0.00e+00	0	39	0	271581184	47	4045
2026-01-29 04:33:37.23	10.11	11.25	-38.1	-39.3	19.8	0.00e+00	0	39	0	281018368	47	3925
2026-01-29 04:33:37.94	10.08	11.31	-38.2	-39.3	19.7	0.00e+00	0	39	0	285212672	47	3949
2026-01-29 04:33:39.21	10.02	11.42	-38.0	-39.1	20.0	0.00e+00	0	39	0	294649856	46	4077
2026-01-29 04:33:39.94	9.99	11.49	-38.0	-39.1	19.9	0.00e+00	0	39	0	300941312	46	4083
2026-01-29 04:33:41.22	9.94	11.60	-38.0	-39.1	19.9	0.00e+00	0	39	0	309329920	46	4088
2026-01-29 04:33:41.93	9.91	11.67	-38.1	-39.2	19.9	0.00e+00	0	39	0	314572800	46	4128
2026-01-29 04:33:43.21	9.85	11.78	-38.0	-39.1	20.0	0.00e+00	0	39	0	324009984	46	4074
2026-01-29 04:33:43.94	9.82	11.85	-38.2	-39.3	19.8	0.00e+00	0	39	0	329252864	46	4172
2026-01-29 04:33:45.21	9.76	11.97	-38.1	-39.2	19.9	0.00e+00	0	40	0	338690048	46	4102
2026-01-29 04:33:46.12	9.72	12.05	-38.1	-39.1	20.0	0.00e+00	0	39	0	344981504	46	4098
2026-01-29 04:33:47.14	9.67	12.14	-38.0	-39.1	20.0	0.00e+00	0	40	0	352321536	46	4072
2026-01-29 04:33:48.14	9.63	12.23	-38.0	-39.1	20.1	0.00e+00	0	40	0	359661568	46	4053
2026-01-29 04:33:49.13	9.58	12.33	-37.9	-38.9	20.1	0.00e+00	0	39	0	367001600	46	4003
2026-01-29 04:33:50.13	9.54	12.42	-38.0	-39.0	20.0	0.00e+00	0	39	0	373293056	46	4043
2026-01-29 04:33:51.12	9.49	12.51	-37.9	-38.9	20.2	0.00e+00	0	40	0	380633088	46	3995
2026-01-29 04:33:52.12	9.44	12.60	-37.8	-38.9	20.2	0.00e+00	0	39	0	387973120	46	3960
2026-01-29 04:33:53.11	9.40	12.70	-37.7	-38.7	20.3	0.00e+00	0	39	0	395313152	46	3901
2026-01-29 04:33:54.16	9.35	12.80	-37.7	-38.7	20.3	0.00e+00	0	39	0	402653184	46	3910
2026-01-29 04:33:55.09	9.30	12.88	-37.7	-38.7	20.4	0.00e+00	0	39	0	409993216	46	3909
2026-01-29 04:33:56.23	9.25	12.99	-37.7	-38.8	20.4	0.00e+00	0	39	0	417333248	46	3921
2026-01-29 04:33:57.11	9.21	13.08	-37.6	-38.7	20.5	0.00e+00	0	40	0	424673280	46	3871
2026-01-29 04:33:58.42	9.14	13.20	-37.7	-38.7	20.4	0.00e+00	0	39	0	434110464	46	3888
2026-01-29 04:33:59.13	9.11	13.27	-37.7	-38.7	20.4	0.00e+00	0	39	0	438304768	45	4123
2026-01-29 04:34:00.62	9.03	13.41	-37.7	-38.7	20.4	0.00e+00	0	40	0	449839104	45	4114
2026-01-29 04:34:01.33	9.00	13.48	-37.6	-38.6	20.5	0.00e+00	0	39	0	455081984	45	4058
2026-01-29 04:34:02.61	8.93	13.60	-37.7	-38.7	20.4	0.00e+00	0	40	0	463470592	45	4128
2026-01-29 04:34:03.33	8.90	13.67	-37.4	-38.4	20.6	0.00e+00	0	40	0	468713472	45	3996
2026-01-29 04:34:04.61	8.83	13.80	-37.6	-38.6	20.5	0.00e+00	0	39	0	478150656	45	4088
2026-01-29 04:34:05.32	8.80	13.87	-37.5	-38.5	20.6	0.00e+00	0	40	0	483393536	45	4031
2026-01-29 04:34:06.60	8.73	14.00	-37.5	-38.5	20.6	0.00e+00	0	40	0	492830720	45	4041
2026-01-29 04:34:07.31	8.69	14.07	-37.3	-38.3	20.7	0.00e+00	0	40	0	498073600	45	3948
2026-01-29 04:34:08.59	8.63	14.19	-37.3	-38.3	20.8	0.00e+00	0	39	0	507510784	45	3921
2026-01-29 04:34:09.41	8.58	14.27	-37.5	-38.5	20.6	0.00e+00	0	40	0	512753664	45	4018
2026-01-29 04:34:10.55	8.52	14.39	-37.3	-38.2	20.8	0.00e+00	0	39	0	521142272	45	3912
2026-01-29 04:34:11.40	8.48	14.47	-37.3	-38.3	20.8	0.00e+00	0	39	0	527433728	45	3942
2026-01-29 04:34:12.54	8.41	14.59	-37.4	-38.3	20.7	0.00e+00	0	40	0	535822336	45	3955
2026-01-29 04:34:13.39	8.37	14.67	-37.3	-38.3	20.8	0.00e+00	0	40	0	542113792	45	3917
2026-01-29 04:34:14.53	8.31	14.79	-37.2	-38.2	20.9	0.00e+00	0	40	0	549453824	45	3870
2026-01-29 04:34:15.39	8.26	14.88	-37.2	-38.1	21.0	0.00e+00	0	40	0	555745280	45	3868
2026-01-29 04:34:16.52	8.20	14.99	-37.1	-38.1	21.0	0.00e+00	0	39	0	564133888	45	3829
2026-01-29 04:34:17.38	8.15	15.08	-37.1	-38.1	21.1	0.00e+00	0	40	0	570425344	44	4056
2026-01-29 04:34:18.51	8.08	15.20	-37.0	-38.0	21.0	0.00e+00	0	40	0	578813952	44	4032
2026-01-29 04:34:19.37	8.03	15.29	-37.2	-38.2	20.9	0.00e+00	0	40	0	585105408	44	4124
2026-01-29 04:34:20.60	7.96	15.42	-37.0	-38.0	21.1	0.00e+00	0	40	0	593494016	44	4030
2026-01-29 04:34:21.45	7.92	15.50	-37.0	-37.9	21.2	0.00e+00	0	40	0	599785472	44	3998
2026-01-29 04:34:22.67	7.84	15.63	-36.9	-37.9	21.2	0.00e+00	0	39	0	609222656	44	3976
2026-01-29 04:34:23.52	7.79	15.72	-36.8	-37.7	21.3	0.00e+00	0	40	0	614465536	44	3894
2026-01-29 04:34:24.66	7.73	15.84	-36.7	-37.6	21.4	0.00e+00	0	40	0	622854144	44	3867
2026-01-29 04:34:25.51	7.68	15.93	-36.8	-37.8	21.3	0.00e+00	0	40	0	629145600	44	3936
2026-01-29 04:34:26.65	7.61	16.05	-36.7	-37.6	21.4	0.00e+00	0	40	0	637534208	44	3848
2026-01-29 04:34:27.50	7.56	16.15	-36.7	-37.6	21.4	0.00e+00	0	40	0	643825664	44	3858
2026-01-29 04:34:28.64	7.49	16.27	-36.8	-37.7	21.4	0.00e+00	0	40	0	652214272	44	3888
2026-01-29 04:34:29.49	7.44	16.36	-36.6	-37.6	21.5	0.00e+00	0	40	0	658505728	44	3826
2026-01-29 04:34:30.63	7.36	16.48	-36.7	-37.7	21.4	0.00e+00	0	40	0	665845760	44	3872
2026-01-29 04:34:31.68	7.30	16.60	-36.5	-37.4	21.4	0.00e+00	0	40	0	673185792	43	3988
2026-01-29 04:34:32.75	7.23	16.71	-36.6	-37.5	21.4	0.00e+00	0	40	0	681574400	43	4019
2026-01-29 04:34:33.73	7.17	16.82	-36.6	-37.6	21.4	0.00e+00	0	40	0	688914432	43	4057
2026-01-29 04:34:34.73	7.11	16.93	-36.4	-37.4	21.5	0.00e+00	0	40	0	695205888	43	3969
2026-01-29 04:34:35.72	7.04	17.04	-36.5	-37.5	21.4	0.00e+00	0	40	0	702545920	43	4013
2026-01-29 04:34:36.72	6.98	17.15	-36.4	-37.3	21.6	0.00e+00	0	40	0	709885952	43	3948
2026-01-29 04:34:37.71	6.91	17.26	-36.4	-37.3	21.6	0.00e+00	0	40	0	717225984	43	3928
2026-01-29 04:34:38.71	6.85	17.38	-36.5	-37.4	21.4	0.00e+00	0	40	0	724566016	43	3990
2026-01-29 04:34:39.70	6.78	17.49	-36.5	-37.4	21.5	0.00e+00	0	40	0	731906048	43	3997
2026-01-29 04:34:40.69	6.72	17.60	-36.3	-37.2	21.7	0.00e+00	0	40	0	739246080	43	3899
2026-01-29 04:34:41.69	6.65	17.71	-36.2	-37.2	21.7	0.00e+00	0	40	0	746586112	43	3870
2026-01-29 04:34:42.69	6.58	17.83	-36.3	-37.2	21.7	0.00e+00	0	40	0	752877568	43	3879
2026-01-29 04:34:43.68	6.51	17.94	-36.3	-37.2	21.7	0.00e+00	0	40	0	760217600	43	3900
2026-01-29 04:34:44.67	6.44	18.05	-36.3	-37.2	21.7	0.00e+00	0	40	0	767557632	43	3896
2026-01-29 04:34:45.67	6.37	18.17	-36.2	-37.2	21.7	0.00e+00	0	40	0	774897664	43	3873
2026-01-29 04:34:46.66	6.30	18.28	-36.4	-37.3	21.6	0.00e+00	0	40	0	782237696	43	3954
2026-01-29 04:34:47.66	6.23	18.40	-36.3	-37.2	21.7	0.00e+00	0	40	0	789577728	43	3908
2026-01-29 04:34:48.75	6.16	18.53	-36.3	-37.2	21.7	0.00e+00	0	40	0	796917760	43	3878
2026-01-29 04:34:49.65	6.09	18.63	-36.3	-37.2	21.8	0.00e+00	0	40	0	803209216	43	3883
2026-01-29 04:34:50.66	6.02	18.75	-36.4	-37.3	21.6	0.00e+00	0	40	0	810549248	43	3941
2026-01-29 04:34:51.65	5.95	18.87	-36.2	-37.1	21.8	0.00e+00	0	40	0	817889280	43	3848
2026-01-29 04:34:52.65	5.87	18.99	-36.2	-37.1	21.8	0.00e+00	0	40	0	825229312	43	3846
2026-01-29 04:34:53.65	5.80	19.11	-36.2	-37.1	21.8	0.00e+00	0	40	0	832569344	43	3847
2026-01-29 04:34:54.64	5.72	19.23	-36.2	-37.1	21.8	0.00e+00	0	40	0	839909376	43	3852
2026-01-29 04:34:55.63	5.65	19.35	-36.2	-37.1	21.9	0.00e+00	0	40	0	846200832	43	3833
2026-01-29 04:34:56.63	5.57	19.47	-36.0	-36.9	22.0	0.00e+00	0	40	0	853540864	42	3969
2026-01-29 04:34:57.62	5.50	19.59	-36.1	-37.0	21.9	0.00e+00	0	40	0	860880896	42	4047
2026-01-29 04:34:59.05	5.39	19.76	-36.1	-37.0	22.0	0.00e+00	0	40	0	871366656	42	4012
2026-01-29 04:34:59.76	5.33	19.85	-36.1	-37.0	21.9	0.00e+00	0	40	0	876609536	42	4020
2026-01-29 04:35:01.04	5.23	20.01	-35.9	-36.8	22.1	0.00e+00	0	40	0	886046720	42	3952
2026-01-29 04:35:01.75	5.17	20.10	-35.9	-36.8	22.1	0.00e+00	0	40	0	891289600	42	3930
2026-01-29 04:35:03.03	5.07	20.26	-36.0	-36.9	22.1	0.00e+00	0	40	0	899678208	42	3964
2026-01-29 04:35:03.74	5.01	20.35	-35.9	-36.8	22.1	0.00e+00	0	40	0	904921088	42	3948
2026-01-29 04:35:05.02	4.91	20.51	-35.9	-36.8	22.1	0.00e+00	0	40	0	914358272	42	3948
2026-01-29 04:35:05.74	4.85	20.60	-35.9	-36.8	22.2	0.00e+00	0	40	0	919601152	42	3914
2026-01-29 04:35:07.02	4.74	20.76	-35.8	-36.7	22.3	0.00e+00	0	40	0	929038336	42	3869
2026-01-29 04:35:07.73	4.68	20.85	-35.9	-36.8	22.2	0.00e+00	0	40	0	934281216	42	3919
2026-01-29 04:35:09.01	4.58	21.01	-36.0	-36.9	22.1	0.00e+00	0	40	0	943718400	42	3965
2026-01-29 04:35:09.72	4.52	21.11	-35.9	-36.8	22.2	0.00e+00	0	40	0	947912704	42	3940
2026-01-29 04:35:11.00	4.41	21.27	-35.9	-36.8	22.2	0.00e+00	0	40	0	957349888	42	3942
2026-01-29 04:35:11.71	4.34	21.36	-35.9	-36.8	22.1	0.00e+00	0	40	0	962592768	42	3947
2026-01-29 04:35:12.99	4.23	21.53	-36.0	-36.9	22.1	0.00e+00	0	40	0	972029952	42	3991
2026-01-29 04:35:13.70	4.17	21.62	-36.0	-36.9	22.0	0.00e+00	0	40	0	977272832	42	4001
2026-01-29 04:35:14.98	4.06	21.79	-36.0	-36.9	22.1	0.00e+00	0	40	0	986710016	42	3995
2026-01-29 04:35:15.69	3.99	21.89	-36.0	-36.9	22.1	0.00e+00	0	40	0	991952896	42	3970
2026-01-29 04:35:16.97	3.88	22.06	-36.0	-36.9	22.1	0.00e+00	0	40	0	1000341504	42	3979
2026-01-29 04:35:17.68	3.81	22.15	-36.0	-36.9	22.1	0.00e+00	0	40	0	1005584384	42	3991
2026-01-29 04:35:18.96	3.69	22.32	-35.9	-36.8	22.1	0.00e+00	0	40	0	1015021568	42	3950
2026-01-29 04:35:19.68	3.63	22.42	-36.0	-36.9	22.1	0.00e+00	0	40	0	1020264448	42	3962
2026-01-29 04:35:21.07	3.50	22.61	-35.9	-36.8	22.1	0.00e+00	0	40	0	1030750208	42	3956
2026-01-29 04:35:21.78	3.43	22.70	-35.7	-36.6	22.3	0.00e+00	0	40	0	1034944512	42	3848
2026-01-29 04:35:23.06	3.31	22.88	-35.8	-36.7	22.3	0.00e+00	0	40	0	1044381696	42	3897
2026-01-29 04:35:23.77	3.24	22.98	-35.8	-36.7	22.2	0.00e+00	0	40	0	1049624576	42	3902
2026-01-29 04:35:25.18	3.10	23.17	-35.8	-36.6	22.3	0.00e+00	0	40	0	1060110336	42	3868
2026-01-29 04:35:25.89	3.03	23.27	-35.7	-36.6	22.4	0.00e+00	0	40	0	1065353216	42	3833
2026-01-29 04:35:27.17	2.90	23.45	-35.7	-36.6	22.4	0.00e+00	0	40	0	1074790400	42	3847
2026-01-29 04:35:27.90	2.83	23.55	-35.7	-36.6	22.4	0.00e+00	0	40	0	1080033280	42	3832
2026-01-29 04:35:29.18	2.70	23.73	-35.6	-36.5	22.5	0.00e+00	0	40	0	1088421888	41	4005
2026-01-29 04:35:29.89	2.63	23.83	-35.6	-36.4	22.5	0.00e+00	0	40	0	1093664768	41	4002
2026-01-29 04:35:31.17	2.50	24.01	-35.5	-36.4	22.6	0.00e+00	0	40	0	1103101952	41	3960
2026-01-29 04:35:31.88	2.42	24.11	-35.6	-36.5	22.5	0.00e+00	0	40	0	1108344832	41	4013
2026-01-29 04:35:33.16	2.29	24.30	-35.4	-36.2	22.7	0.00e+00	0	40	0	1117782016	41	3904
2026-01-29 04:35:33.87	2.21	24.40	-35.4	-36.3	22.7	0.00e+00	0	40	0	1123024896	41	3918
2026-01-29 04:35:35.15	2.08	24.58	-35.3	-36.1	22.8	0.00e+00	0	40	0	1132462080	41	3858
2026-01-29 04:35:35.86	2.00	24.69	-35.2	-36.1	22.8	0.00e+00	0	40	0	1136656384	41	3842
2026-01-29 04:35:37.14	1.86	24.87	-35.2	-36.1	22.8	0.00e+00	0	40	0	1146093568	41	3843
2026-01-29 04:35:37.85	1.78	24.98	-35.2	-36.0	22.9	0.00e+00	0	40	0	1151336448	41	3804
2026-01-29 04:35:39.13	1.64	25.17	-35.1	-35.9	23.0	0.00e+00	0	40	0	1160773632	40	3990
2026-01-29 04:35:40.06	1.53	25.31	-35.0	-35.9	23.0	0.00e+00	0	40	0	1167065088	40	3980
2026-01-29 04:35:41.35	1.39	25.50	-35.0	-35.8	23.0	0.00e+00	0	40	0	1176502272	40	3956
2026-01-29 04:35:42.10	1.30	25.61	-34.9	-35.8	23.1	0.00e+00	0	40	0	1181745152	40	3923
2026-01-29 04:35:43.38	1.15	25.80	-35.0	-35.8	23.1	0.00e+00	0	40	0	1191182336	40	3940
2026-01-29 04:35:44.16	1.06	25.92	-35.0	-35.8	23.1	0.00e+00	0	40	0	1197473792	40	3947
2026-01-29 04:35:45.65	0.89	26.15	-35.0	-35.8	23.0	0.00e+00	0	40	0	1207959552	40	3946
2026-01-29 04:35:46.36	0.80	26.26	-35.1	-35.9	23.0	0.00e+00	0	40	0	1213202432	40	3992
2026-01-29 04:35:47.64	0.65	26.45	-34.9	-35.8	23.1	0.00e+00	0	40	0	1222639616	40	3929
2026-01-29 04:35:48.36	0.56	26.56	-34.9	-35.8	23.1	0.00e+00	0	40	0	1226833920	40	3926
2026-01-29 04:35:49.64	0.40	26.76	-35.0	-35.8	23.0	0.00e+00	0	40	0	1236271104	40	3956
2026-01-29 04:35:50.37	0.31	26.88	-35.0	-35.8	23.1	0.00e+00	0	40	0	1241513984	40	3931
2026-01-29 04:35:51.65	0.15	27.08	-34.9	-35.7	23.2	0.00e+00	0	40	0	1250951168	40	3913
2026-01-29 04:35:52.37	0.06	27.19	-34.8	-35.7	23.2	0.00e+00	0	40	0	1256194048	40	3875
2026-01-29 04:35:53.65	359.89	27.39	-34.9	-35.8	23.1	0.00e+00	0	40	0	1265631232	40	3922
2026-01-29 04:35:54.38	359.80	27.51	-34.9	-35.8	23.1	0.00e+00	0	40	0	1270874112	40	3929
2026-01-29 04:35:55.66	359.63	27.71	-35.0	-35.8	23.1	0.00e+00	0	40	0	1280311296	40	3957
2026-01-29 04:35:56.48	359.52	27.84	-35.2	-36.0	22.9	0.00e+00	0	40	0	1285554176	40	4040
2026-01-29 04:35:57.61	359.37	28.03	-35.1	-36.0	23.0	0.00e+00	0	40	0	1293942784	40	4016
2026-01-29 04:35:58.47	359.25	28.17	-35.1	-36.0	22.9	0.00e+00	0	40	0	1300234240	40	4025
2026-01-29 04:35:59.61	359.10	28.35	-35.2	-36.0	22.9	0.00e+00	0	40	0	1308622848	40	4043
2026-01-29 04:36:00.71	358.95	28.53	-35.2	-36.0	22.9	0.00e+00	0	40	0	1317011456	40	4046
2026-01-29 04:36:01.74	358.80	28.70	-35.3	-36.1	22.8	0.00e+00	0	40	0	1323302912	40	4087
2026-01-29 04:36:02.73	358.66	28.86	-35.3	-36.1	22.9	0.00e+00	0	40	0	1330642944	40	4077
2026-01-29 04:36:03.93	358.49	29.06	-35.4	-36.3	22.7	0.00e+00	0	40	0	1340080128	40	4162
2026-01-29 04:36:04.82	358.36	29.21	-35.3	-36.1	22.8	0.00e+00	0	40	0	1346371584	40	4087
2026-01-29 04:36:05.96	358.19	29.40	-35.4	-36.2	22.8	0.00e+00	0	40	0	1354760192	40	4124
2026-01-29 04:36:06.81	358.07	29.55	-35.3	-36.2	22.7	0.00e+00	0	40	0	1361051648	40	4112
2026-01-29 04:36:07.94	357.90	29.74	-35.2	-36.1	22.9	0.00e+00	0	40	0	1368391680	40	4069
2026-01-29 04:36:08.80	357.77	29.88	-35.3	-36.2	22.8	0.00e+00	0	40	0	1374683136	40	4113
2026-01-29 04:36:09.93	357.60	30.08	-35.2	-36.0	22.9	0.00e+00	0	40	0	1383071744	40	4048
2026-01-29 04:36:10.79	357.47	30.22	-35.2	-36.0	23.0	0.00e+00	0	40	0	1389363200	40	4032
2026-01-29 04:36:11.92	357.29	30.42	-35.1	-36.0	23.0	0.00e+00	0	40	0	1397751808	40	4011
2026-01-29 04:36:12.78	357.15	30.57	-35.1	-35.9	23.0	0.00e+00	0	40	0	1402994688	40	3987
2026-01-29 04:36:13.91	356.97	30.77	-35.0	-35.9	23.1	0.00e+00	0	40	0	1411383296	40	3965
2026-01-29 04:36:14.77	356.84	30.92	-35.0	-35.8	23.1	0.00e+00	0	40	0	1417674752	40	3943
2026-01-29 04:36:15.90	356.65	31.11	-34.7	-35.5	23.3	0.00e+00	0	40	0	1426063360	40	3818
2026-01-29 04:36:16.76	356.51	31.27	-34.9	-35.8	23.1	0.00e+00	0	40	0	1432354816	40	3927
2026-01-29 04:36:18.00	356.30	31.49	-34.9	-35.7	23.2	0.00e+00	0	40	0	1441792000	40	3905
2026-01-29 04:36:18.86	356.16	31.64	-34.8	-35.7	23.2	0.00e+00	0	40	0	1447034880	40	3880
2026-01-29 04:36:19.99	355.97	31.84	-34.8	-35.6	23.3	0.00e+00	0	40	0	1455423488	40	3861
2026-01-29 04:36:20.85	355.82	31.99	-35.0	-35.8	23.1	0.00e+00	0	40	0	1461714944	40	3942
2026-01-29 04:36:21.98	355.62	32.20	-34.8	-35.6	23.3	0.00e+00	0	40	0	1470103552	40	3855
2026-01-29 04:36:22.83	355.47	32.35	-34.7	-35.6	23.3	0.00e+00	0	40	0	1476395008	40	3838
2026-01-29 04:36:23.97	355.27	32.56	-34.7	-35.5	23.3	0.00e+00	0	40	0	1484783616	40	3814
2026-01-29 04:36:24.82	355.12	32.72	-34.7	-35.6	23.4	0.00e+00	0	40	0	1490026496	40	3831
2026-01-29 04:36:25.96	354.91	32.92	-34.7	-35.6	23.4	0.00e+00	0	40	0	1498415104	39	4057
2026-01-29 04:36:26.81	354.75	33.08	-34.7	-35.6	23.4	0.00e+00	0	40	0	1504706560	39	4055
2026-01-29 04:36:27.95	354.54	33.29	-34.8	-35.6	23.3	0.00e+00	0	40	0	1513095168	39	4082
2026-01-29 04:36:28.80	354.38	33.45	-34.7	-35.6	23.4	0.00e+00	0	40	0	1519386624	39	4060
2026-01-29 04:36:29.94	354.16	33.66	-34.8	-35.6	23.2	0.00e+00	0	40	0	1527775232	39	4072
2026-01-29 04:36:30.79	354.00	33.82	-34.9	-35.7	23.3	0.00e+00	0	40	0	1534066688	39	4128
2026-01-29 04:36:31.93	353.77	34.04	-34.7	-35.5	23.5	0.00e+00	0	40	0	1541406720	39	4050
2026-01-29 04:36:32.78	353.60	34.20	-34.6	-35.4	23.5	0.00e+00	0	40	0	1547698176	39	4002
2026-01-29 04:36:33.91	353.38	34.41	-34.9	-35.7	23.3	0.00e+00	0	40	0	1556086784	39	4116
2026-01-29 04:36:34.77	353.20	34.58	-34.8	-35.7	23.4	0.00e+00	0	40	0	1562378240	39	4105
2026-01-29 04:36:35.91	352.97	34.79	-34.9	-35.7	23.3	0.00e+00	0	40	0	1570766848	39	4113
2026-01-29 04:36:36.79	352.79	34.96	-35.0	-35.9	23.0	0.00e+00	0	40	0	1577058304	40	3959
2026-01-29 04:36:38.10	352.51	35.22	-35.1	-36.0	23.1	0.00e+00	0	40	0	1586495488	39	4248
2026-01-29 04:36:38.81	352.36	35.35	-35.0	-35.9	23.1	0.00e+00	0	40	0	1591738368	39	4210
2026-01-29 04:36:40.09	352.09	35.60	-35.1	-35.9	23.1	0.00e+00	0	40	0	1601175552	39	4230
2026-01-29 04:36:40.80	351.93	35.74	-35.0	-35.9	23.1	0.00e+00	0	40	0	1606418432	39	4208
2026-01-29 04:36:42.09	351.65	35.99	-35.2	-36.1	22.8	0.00e+00	0	40	0	1614807040	40	4055
2026-01-29 04:36:42.89	351.47	36.15	-35.1	-35.9	23.1	0.00e+00	0	40	0	1621098496	40	3980
2026-01-29 04:36:44.03	351.21	36.37	-35.0	-35.8	23.1	0.00e+00	0	40	0	1629487104	40	3943
2026-01-29 04:36:44.88	351.02	36.54	-34.8	-35.7	23.3	0.00e+00	0	40	0	1634729984	40	3874
2026-01-29 04:36:46.02	350.75	36.77	-34.8	-35.6	23.3	0.00e+00	0	40	0	1643118592	40	3842
2026-01-29 04:36:46.87	350.55	36.94	-34.8	-35.6	23.3	0.00e+00	0	40	0	1649410048	40	3844
2026-01-29 04:36:48.01	350.28	37.17	-34.8	-35.7	23.3	0.00e+00	0	40	0	1657798656	39	4107
2026-01-29 04:36:48.86	350.08	37.34	-34.9	-35.8	23.3	0.00e+00	0	40	0	1664090112	39	4147
2026-01-29 04:36:49.99	349.80	37.56	-35.1	-35.9	23.2	0.00e+00	0	40	0	1672478720	39	4223
2026-01-29 04:36:50.84	349.59	37.74	-35.2	-36.1	23.0	0.00e+00	0	40	0	1678770176	39	4293
2026-01-29 04:36:51.98	349.31	37.97	-35.3	-36.2	22.9	0.00e+00	0	40	0	1686110208	40	4104
2026-01-29 04:36:52.83	349.09	38.14	-35.2	-36.1	22.9	0.00e+00	0	40	0	1692401664	40	4061
2026-01-29 04:36:53.97	348.80	38.37	-35.2	-36.1	22.9	0.00e+00	0	40	0	1700790272	40	4077
2026-01-29 04:36:54.82	348.58	38.54	-35.3	-36.1	22.9	0.00e+00	0	40	0	1707081728	40	4085
2026-01-29 04:36:55.96	348.28	38.78	-35.1	-36.0	23.0	0.00e+00	0	40	0	1715470336	40	4022
2026-01-29 04:36:56.81	348.06	38.95	-35.1	-35.9	23.1	0.00e+00	0	40	0	1721761792	40	3982
2026-01-29 04:36:57.95	347.75	39.19	-35.0	-35.8	23.2	0.00e+00	0	40	0	1730150400	40	3930
2026-01-29 04:36:58.80	347.52	39.36	-34.8	-35.6	23.3	0.00e+00	0	40	0	1735393280	40	3855
2026-01-29 04:36:59.94	347.20	39.60	-35.0	-35.8	23.1	0.00e+00	0	40	0	1743781888	40	3928
2026-01-29 04:37:00.79	346.96	39.77	-34.9	-35.7	23.2	0.00e+00	0	40	0	1750073344	40	3900
2026-01-29 04:37:01.92	346.64	40.01	-34.9	-35.8	23.2	0.00e+00	0	40	0	1758461952	40	3920
2026-01-29 04:37:02.78	346.40	40.19	-34.9	-35.7	23.3	0.00e+00	0	40	0	1764753408	39	4135
2026-01-29 04:37:03.99	346.05	40.44	-35.1	-35.9	23.1	0.00e+00	0	40	0	1773142016	40	3986
2026-01-29 04:37:04.84	345.79	40.62	-35.2	-36.1	22.9	0.00e+00	0	40	0	1779433472	40	4058
2026-01-29 04:37:05.98	345.45	40.85	-35.6	-36.4	22.6	0.00e+00	0	40	0	1787822080	40	4224
2026-01-29 04:37:06.83	345.20	41.03	-35.6	-36.5	22.5	0.00e+00	0	40	0	1794113536	40	4272
2026-01-29 04:37:07.97	344.85	41.27	-36.1	-37.0	22.1	0.00e+00	0	40	0	1801453568	42	4041
2026-01-29 04:37:08.82	344.58	41.45	-35.9	-36.8	22.3	0.00e+00	0	40	0	1807745024	41	4166
2026-01-29 04:37:09.96	344.22	41.69	-35.8	-36.6	22.4	0.00e+00	0	40	0	1816133632	41	4097
2026-01-29 04:37:10.81	343.95	41.87	-35.7	-36.6	22.5	0.00e+00	0	40	0	1822425088	41	4066
2026-01-29 04:37:11.95	343.59	42.11	-35.4	-36.3	22.7	0.00e+00	0	40	0	1830813696	41	3929
2026-01-29 04:37:12.80	343.31	42.29	-35.4	-36.3	22.8	0.00e+00	0	40	0	1837105152	41	3915
2026-01-29 04:37:13.94	342.93	42.53	-35.1	-36.0	23.0	0.00e+00	0	40	0	1845493760	40	4007
2026-01-29 04:37:14.79	342.64	42.71	-35.0	-35.9	23.1	0.00e+00	0	40	0	1851785216	40	3961
2026-01-29 04:37:15.93	342.26	42.95	-35.0	-35.8	23.1	0.00e+00	0	40	0	1859125248	40	3951
2026-01-29 04:37:16.78	341.96	43.13	-34.9	-35.7	23.3	0.00e+00	0	40	0	1865416704	40	3889
2026-01-29 04:37:17.92	341.56	43.37	-35.0	-35.9	23.1	0.00e+00	0	40	0	1873805312	40	3968
2026-01-29 04:37:18.77	341.26	43.55	-35.1	-36.0	23.0	0.00e+00	0	40	0	1880096768	40	4013
2026-01-29 04:37:19.91	340.85	43.79	-35.1	-35.9	23.1	0.00e+00	0	40	0	1888485376	40	3996
2026-01-29 04:37:20.76	340.54	43.97	-35.2	-36.1	22.9	0.00e+00	0	40	0	1894776832	40	4068
2026-01-29 04:37:21.90	340.12	44.21	-35.3	-36.2	22.8	0.00e+00	0	40	0	1903165440	40	4128
2026-01-29 04:37:22.75	339.81	44.39	-35.5	-36.4	22.6	0.00e+00	0	40	0	1908408320	40	4224
2026-01-29 04:37:23.89	339.37	44.63	-35.8	-36.7	22.4	0.00e+00	0	40	0	1916796928	42	3879
2026-01-29 04:37:24.74	339.05	44.80	-35.9	-36.8	22.2	0.00e+00	0	40	0	1923088384	42	3957
2026-01-29 04:37:26.08	338.53	45.08	-36.0	-36.9	22.3	0.00e+00	0	40	0	1932525568	42	3976
2026-01-29 04:37:26.80	338.24	45.23	-36.0	-36.8	22.3	0.00e+00	0	40	0	1937768448	42	3951
2026-01-29 04:37:28.08	337.73	45.50	-36.1	-37.0	22.2	0.00e+00	0	40	0	1947205632	42	4007
2026-01-29 04:37:28.79	337.44	45.65	-35.6	-36.4	22.6	0.00e+00	0	40	0	1952448512	41	3999
2026-01-29 04:37:30.06	336.92	45.91	-35.6	-36.4	22.7	0.00e+00	0	40	0	1961885696	41	3985
2026-01-29 04:37:30.79	336.62	46.06	-35.4	-36.2	22.8	0.00e+00	0	40	0	1967128576	41	3911
2026-01-29 04:37:32.07	336.08	46.33	-35.3	-36.1	23.0	0.00e+00	0	40	0	1975517184	41	3840
2026-01-29 04:37:32.92	335.71	46.50	-35.3	-36.1	22.9	0.00e+00	0	40	0	1981808640	41	3844
2026-01-29 04:37:34.06	335.22	46.74	-35.7	-36.6	22.5	0.00e+00	0	40	0	1990197248	41	4062
2026-01-29 04:37:34.91	334.85	46.91	-35.9	-36.8	22.4	0.00e+00	0	40	0	1996488704	41	4153
2026-01-29 04:37:36.05	334.34	47.14	-36.5	-37.4	21.8	0.00e+00	0	40	0	2004877312	42	4218
2026-01-29 04:37:36.90	333.96	47.31	-36.7	-37.6	21.6	0.00e+00	0	40	0	2011168768	43	4074
2026-01-29 04:37:38.04	333.44	47.54	-36.7	-37.6	21.6	0.00e+00	0	40	0	2019557376	43	4065
2026-01-29 04:37:38.89	333.04	47.71	-36.7	-37.6	21.5	0.00e+00	0	40	0	2025848832	43	4097
2026-01-29 04:37:40.03	332.51	47.94	-36.4	-37.3	21.9	0.00e+00	0	40	0	2033188864	43	3920
2026-01-29 04:37:40.88	332.10	48.11	-36.3	-37.1	22.0	0.00e+00	0	40	0	2039480320	43	3852
2026-01-29 04:37:42.09	331.52	48.35	-36.1	-37.0	22.2	0.00e+00	0	40	0	2048917504	43	3786
2026-01-29 04:37:42.95	331.10	48.52	-36.1	-37.0	22.2	0.00e+00	0	40	0	2054160384	42	4018
2026-01-29 04:37:44.15	330.51	48.75	-36.5	-37.3	21.7	0.00e+00	0	40	0	2063597568	42	4191
2026-01-29 04:37:45.00	330.09	48.91	-36.3	-37.2	22.0	0.00e+00	0	40	0	2069889024	42	4103
2026-01-29 04:37:46.13	329.51	49.13	-36.0	-36.9	22.3	0.00e+00	0	40	0	2077229056	42	3975
2026-01-29 04:37:46.99	329.07	49.29	-35.9	-36.8	22.3	0.00e+00	0	40	0	2083520512	42	3938
2026-01-29 04:37:48.13	328.48	49.50	-35.9	-36.8	22.3	0.00e+00	0	40	0	2091909120	42	3916
2026-01-29 04:37:48.98	328.03	49.66	-35.9	-36.8	22.3	0.00e+00	0	40	0	2098200576	42	3935
2026-01-29 04:37:50.12	327.43	49.87	-36.3	-37.2	22.0	0.00e+00	0	40	0	2106589184	42	4131
2026-01-29 04:37:50.97	326.97	50.03	-36.6	-37.6	21.6	0.00e+00	0	40	0	2112880640	42	4294
2026-01-29 04:37:52.11	326.35	50.23	-36.9	-37.8	21.3	0.00e+00	0	40	0	2120220672	43	4177
2026-01-29 04:37:53.14	325.78	50.41	-37.1	-38.0	21.2	0.00e+00	0	40	0	2128609280	43	4291
2026-01-29 04:37:54.13	325.23	50.59	-37.0	-37.9	21.3	0.00e+00	0	40	0	2134900736	43	4204
2026-01-29 04:37:55.33	324.55	50.79	-36.9	-37.8	21.5	0.00e+00	0	40	0	2143289344	44	3934
2026-01-29 04:37:56.23	324.03	50.95	-36.7	-37.6	21.6	0.00e+00	0	40	0	2150629376	44	3867
2026-01-29 04:37:57.26	323.44	51.12	-36.1	-37.0	22.1	0.00e+00	0	40	0	2157969408	43	3810
2026-01-29 04:37:58.25	322.86	51.29	-35.8	-36.7	22.3	0.00e+00	0	40	0	2165309440	42	3892
2026-01-29 04:37:59.44	322.15	51.48	-35.7	-36.5	22.5	0.00e+00	0	40	0	2173698048	41	4050
2026-01-29 04:38:00.32	321.62	51.62	-35.8	-36.6	22.4	0.00e+00	0	40	0	2179989504	41	4071
2026-01-29 04:38:01.46	320.93	51.80	-36.0	-36.9	22.2	0.00e+00	0	40	0	2188378112	41	4214
2026-01-29 04:38:02.31	320.41	51.93	-36.3	-37.1	21.9	0.00e+00	0	40	0	2194669568	42	4094
2026-01-29 04:38:03.45	319.71	52.10	-36.4	-37.3	21.9	0.00e+00	0	40	0	2203058176	42	4152
2026-01-29 04:38:04.30	319.18	52.23	-36.1	-36.9	22.1	0.00e+00	0	40	0	2208301056	42	3997
2026-01-29 04:38:05.44	318.46	52.39	-35.9	-36.7	22.3	0.00e+00	0	40	0	2216689664	42	3904
2026-01-29 04:38:06.29	317.92	52.52	-35.7	-36.5	22.6	0.00e+00	0	40	0	2222981120	42	3806
2026-01-29 04:38:07.42	317.19	52.67	-35.8	-36.7	22.4	0.00e+00	0	40	0	2231369728	42	3873
2026-01-29 04:38:08.28	316.63	52.79	-35.9	-36.7	22.3	0.00e+00	0	40	0	2237661184	42	3909
2026-01-29 04:38:09.42	315.88	52.94	-36.0	-36.8	22.2	0.00e+00	0	40	0	2246049792	42	3952
2026-01-29 04:38:10.27	315.32	53.05	-36.2	-37.0	22.0	0.00e+00	0	40	0	2251292672	42	4049
2026-01-29 04:38:11.41	314.56	53.19	-35.9	-36.8	22.3	0.00e+00	0	40	0	2259681280	42	3926
2026-01-29 04:38:12.26	313.99	53.29	-35.7	-36.6	22.4	0.00e+00	0	40	0	2265972736	42	3835
2026-01-29 04:38:13.40	313.22	53.43	-36.0	-36.9	22.2	0.00e+00	0	40	0	2274361344	42	3963
2026-01-29 04:38:14.25	312.64	53.52	-36.0	-36.9	22.2	0.00e+00	0	40	0	2280652800	42	3960
2026-01-29 04:38:15.39	311.85	53.65	-35.7	-36.6	22.5	0.00e+00	0	40	0	2287992832	42	3838
2026-01-29 04:38:16.24	311.26	53.74	-35.6	-36.4	22.6	0.00e+00	0	40	0	2294284288	41	3985
2026-01-29 04:38:17.59	310.32	53.88	-35.6	-36.4	22.5	0.00e+00	0	40	0	2304770048	41	4003
2026-01-29 04:38:18.30	309.81	53.94	-35.7	-36.5	22.5	0.00e+00	0	40	0	2310012928	41	4045
2026-01-29 04:38:19.58	308.91	54.06	-36.3	-37.2	21.9	0.00e+00	0	40	0	2318401536	42	4115
2026-01-29 04:38:20.30	308.39	54.13	-36.7	-37.6	21.5	0.00e+00	0	40	0	2324692992	42	4328
2026-01-29 04:38:21.58	307.47	54.23	-37.0	-37.9	21.3	0.00e+00	0	40	0	2333081600	43	4205
2026-01-29 04:38:22.29	306.96	54.29	-37.1	-38.0	21.2	0.00e+00	0	40	0	2338324480	43	4266
2026-01-29 04:38:23.57	306.03	54.39	-36.6	-37.5	21.6	0.00e+00	0	40	0	2347761664	43	4029
2026-01-29 04:38:24.28	305.51	54.44	-36.4	-37.2	21.9	0.00e+00	0	40	0	2353004544	43	3907
2026-01-29 04:38:25.56	304.57	54.52	-36.1	-37.0	22.1	0.00e+00	0	40	0	2362441728	42	4029
2026-01-29 04:38:26.27	304.05	54.56	-36.3	-37.2	22.0	0.00e+00	0	40	0	2367684608	42	4107
2026-01-29 04:38:27.55	303.10	54.64	-36.3	-37.2	21.9	0.00e+00	0	40	0	2376073216	42	4135
2026-01-29 04:38:28.27	302.57	54.67	-36.4	-37.3	21.9	0.00e+00	0	40	0	2381316096	42	4163
2026-01-29 04:38:29.62	301.56	54.74	-36.9	-37.9	21.3	0.00e+00	0	40	0	2391801856	43	4195
2026-01-29 04:38:30.32	301.04	54.77	-36.6	-37.5	21.7	0.00e+00	0	40	0	2395996160	43	4014
2026-01-29 04:38:31.62	300.07	54.82	-36.0	-36.8	22.2	0.00e+00	0	40	0	2405433344	42	3936
2026-01-29 04:38:32.68	299.27	54.85	-35.9	-36.8	22.3	0.00e+00	0	40	0	2413821952	42	3927
2026-01-29 04:38:33.56	298.61	54.87	-35.9	-36.7	22.3	0.00e+00	0	40	0	2420113408	42	3908
2026-01-29 04:38:34.70	297.74	54.90	-36.2	-37.0	22.1	0.00e+00	0	40	0	2428502016	42	4036
2026-01-29 04:38:35.55	297.10	54.91	-36.4	-37.3	21.8	0.00e+00	0	40	0	2434793472	42	4176
2026-01-29 04:38:36.68	296.25	54.93	-36.7	-37.6	21.5	0.00e+00	0	40	0	2442133504	42	4335
2026-01-29 04:38:37.54	295.60	54.93	-36.5	-37.4	21.7	0.00e+00	0	40	0	2448424960	42	4202
2026-01-29 04:38:38.68	294.73	54.93	-36.3	-37.2	22.0	0.00e+00	0	40	0	2456813568	42	4121
2026-01-29 04:38:39.53	294.09	54.93	-36.1	-37.0	22.1	0.00e+00	0	40	0	2463105024	42	4024
2026-01-29 04:38:40.67	293.23	54.92	-35.9	-36.7	22.3	0.00e+00	0	40	0	2471493632	42	3902
2026-01-29 04:38:41.52	292.58	54.91	-35.8	-36.7	22.4	0.00e+00	0	40	0	2477785088	42	3880
2026-01-29 04:38:42.65	291.73	54.89	-36.2	-37.0	22.0	0.00e+00	0	41	0	2485125120	42	4050
2026-01-29 04:38:43.59	291.02	54.87	-36.5	-37.4	21.7	0.00e+00	0	40	0	2492465152	42	4214
2026-01-29 04:38:44.74	290.15	54.84	-36.5	-37.4	21.7	0.00e+00	0	40	0	2500853760	42	4229
2026-01-29 04:38:45.61	289.50	54.81	-36.3	-37.1	21.9	0.00e+00	0	40	0	2507145216	42	4081
2026-01-29 04:38:46.92	288.52	54.76	-36.2	-37.0	22.1	0.00e+00	0	40	0	2516582400	42	4041
2026-01-29 04:38:47.63	287.99	54.73	-36.0	-36.8	22.3	0.00e+00	0	41	0	2521825280	42	3944
2026-01-29 04:38:48.91	287.03	54.67	-35.9	-36.8	22.3	0.00e+00	0	40	0	2530213888	42	3938
2026-01-29 04:38:49.62	286.50	54.63	-35.9	-36.7	22.3	0.00e+00	0	40	0	2535456768	42	3913
2026-01-29 04:38:50.90	285.56	54.55	-36.4	-37.3	21.8	0.00e+00	0	40	0	2544893952	42	4168
2026-01-29 04:38:51.73	284.95	54.50	-36.6	-37.5	21.7	0.00e+00	0	40	0	2551185408	43	4009
2026-01-29 04:38:53.14	283.91	54.41	-36.7	-37.6	21.6	0.00e+00	0	40	0	2561671168	43	4066
2026-01-29 04:38:53.85	283.40	54.36	-36.6	-37.5	21.6	0.00e+00	0	40	0	2566914048	43	4027
2026-01-29 04:38:55.13	282.47	54.26	-36.3	-37.1	21.9	0.00e+00	0	41	0	2575302656	43	3863
2026-01-29 04:38:55.84	281.96	54.20	-36.2	-37.0	22.0	0.00e+00	0	40	0	2580545536	43	3819
2026-01-29 04:38:57.12	281.04	54.09	-36.4	-37.3	21.8	0.00e+00	0	40	0	2589982720	43	3918
2026-01-29 04:38:57.91	280.47	54.02	-36.4	-37.3	21.7	0.00e+00	0	40	0	2595225600	43	3937
2026-01-29 04:38:59.08	279.65	53.91	-36.6	-37.5	21.6	0.00e+00	0	40	0	2603614208	43	4043
2026-01-29 04:39:00.09	278.94	53.81	-36.6	-37.5	21.7	0.00e+00	0	40	0	2612002816	43	4015
2026-01-29 04:39:01.28	278.11	53.68	-36.3	-37.2	21.8	0.00e+00	0	40	0	2619342848	43	3896
2026-01-29 04:39:02.13	277.52	53.59	-36.3	-37.1	22.0	0.00e+00	0	40	0	2625634304	43	3858
2026-01-29 04:39:03.26	276.74	53.46	-36.3	-37.2	21.9	0.00e+00	0	40	0	2634022912	43	3898
2026-01-29 04:39:04.12	276.16	53.36	-36.7	-37.6	21.5	0.00e+00	0	40	0	2640314368	43	4071
2026-01-29 04:39:05.25	275.39	53.23	-36.7	-37.7	21.5	0.00e+00	0	40	0	2648702976	43	4102
2026-01-29 04:39:06.11	274.81	53.12	-36.4	-37.2	21.9	0.00e+00	0	40	0	2654994432	43	3910
2026-01-29 04:39:07.24	274.06	52.98	-35.8	-36.7	22.3	0.00e+00	0	40	0	2663383040	42	3889
2026-01-29 04:39:08.09	273.50	52.87	-35.8	-36.6	22.4	0.00e+00	0	40	0	2669674496	42	3863
2026-01-29 04:39:09.23	272.76	52.72	-35.8	-36.6	22.4	0.00e+00	0	40	0	2677014528	41	4096
2026-01-29 04:39:10.08	272.21	52.60	-36.2	-37.1	22.0	0.00e+00	0	40	0	2683305984	41	4299
2026-01-29 04:39:11.22	271.48	52.44	-36.5	-37.4	21.7	0.00e+00	0	40	0	2691694592	42	4226
2026-01-29 04:39:12.07	270.94	52.32	-36.6	-37.6	21.6	0.00e+00	0	40	0	2697986048	42	4299
2026-01-29 04:39:13.21	270.22	52.15	-36.6	-37.5	21.6	0.00e+00	0	41	0	2706374656	43	4010
2026-01-29 04:39:14.06	269.69	52.02	-36.6	-37.5	21.6	0.00e+00	0	41	0	2712666112	43	4031
2026-01-29 04:39:15.31	268.92	51.83	-36.6	-37.5	21.6	0.00e+00	0	40	0	2721054720	43	4013
2026-01-29 04:39:16.16	268.40	51.70	-36.3	-37.2	21.9	0.00e+00	0	41	0	2727346176	43	3894
2026-01-29 04:39:17.30	267.71	51.51	-36.3	-37.2	22.0	0.00e+00	0	40	0	2735734784	43	3870
2026-01-29 04:39:18.15	267.21	51.38	-36.4	-37.3	21.9	0.00e+00	0	40	0	2742026240	43	3925
2026-01-29 04:39:19.29	266.54	51.19	-36.6	-37.5	21.6	0.00e+00	0	41	0	2750414848	43	4046
2026-01-29 04:39:20.15	266.03	51.04	-36.6	-37.5	21.6	0.00e+00	0	40	0	2756706304	43	4045
2026-01-29 04:39:21.28	265.38	50.85	-36.4	-37.3	21.8	0.00e+00	0	40	0	2764046336	43	3946
2026-01-29 04:39:22.31	264.79	50.68	-36.3	-37.2	21.9	0.00e+00	0	40	0	2771386368	43	3882
2026-01-29 04:39:23.48	264.14	50.47	-36.4	-37.3	21.8	0.00e+00	0	40	0	2779774976	43	3937
2026-01-29 04:39:24.33	263.66	50.32	-36.6	-37.5	21.6	0.00e+00	0	40	0	2786066432	43	4032
2026-01-29 04:39:25.47	263.04	50.12	-36.4	-37.3	21.8	0.00e+00	0	40	0	2794455040	43	3929
2026-01-29 04:39:26.42	262.52	49.94	-36.2	-37.1	21.9	0.00e+00	0	40	0	2801795072	43	3861
2026-01-29 04:39:27.41	261.99	49.76	-36.3	-37.2	21.9	0.00e+00	0	40	0	2808086528	43	3871
2026-01-29 04:39:28.41	261.46	49.58	-36.1	-37.0	22.1	0.00e+00	0	40	0	2815426560	42	4011
2026-01-29 04:39:29.40	260.94	49.39	-36.0	-36.8	22.2	0.00e+00	0	41	0	2822766592	42	3944
2026-01-29 04:39:30.40	260.42	49.20	-35.6	-36.4	22.5	0.00e+00	0	41	0	2830106624	42	3765
2026-01-29 04:39:31.40	259.91	49.01	-35.4	-36.2	22.7	0.00e+00	0	40	0	2837446656	41	3904
2026-01-29 04:39:32.39	259.41	48.82	-35.6	-36.4	22.5	0.00e+00	0	41	0	2844786688	41	3989
2026-01-29 04:39:33.39	258.92	48.63	-35.8	-36.6	22.4	0.00e+00	0	40	0	2852126720	41	4087
2026-01-29 04:39:34.38	258.43	48.44	-36.0	-36.9	22.1	0.00e+00	0	41	0	2858418176	41	4207
2026-01-29 04:39:35.38	257.94	48.24	-36.0	-36.8	22.2	0.00e+00	0	40	0	2865758208	41	4190
2026-01-29 04:39:36.37	257.47	48.04	-35.8	-36.7	22.3	0.00e+00	0	40	0	2873098240	41	4104
2026-01-29 04:39:37.44	256.96	47.83	-35.6	-36.5	22.5	0.00e+00	0	40	0	2881486848	41	4012
2026-01-29 04:39:38.33	256.54	47.65	-35.7	-36.5	22.5	0.00e+00	0	40	0	2887778304	41	4041
2026-01-29 04:39:39.47	256.02	47.42	-35.7	-36.6	22.2	0.00e+00	0	40	0	2895118336	41	4078
2026-01-29 04:39:40.32	255.63	47.25	-35.7	-36.6	22.4	0.00e+00	0	40	0	2901409792	41	4073
2026-01-29 04:39:41.46	255.12	47.02	-35.5	-36.3	22.5	0.00e+00	0	41	0	2909798400	41	3946
2026-01-29 04:39:42.31	254.74	46.84	-35.5	-36.3	22.7	0.00e+00	0	40	0	2916089856	41	3950
2026-01-29 04:39:43.45	254.24	46.61	-35.4	-36.2	22.8	0.00e+00	0	40	0	2924478464	41	3893
2026-01-29 04:39:44.30	253.87	46.44	-35.6	-36.4	22.5	0.00e+00	0	40	0	2930769920	41	3999
2026-01-29 04:39:45.44	253.39	46.20	-35.6	-36.4	22.5	0.00e+00	0	40	0	2939158528	41	3996
2026-01-29 04:39:46.29	253.03	46.02	-35.3	-36.1	22.8	0.00e+00	0	40	0	2945449984	41	3847
2026-01-29 04:39:47.43	252.56	45.79	-35.1	-35.9	23.0	0.00e+00	0	40	0	2952790016	41	3769
2026-01-29 04:39:48.28	252.21	45.61	-35.0	-35.8	23.0	0.00e+00	0	40	0	2959081472	40	3948
2026-01-29 04:39:49.42	251.75	45.37	-35.1	-35.9	22.9	0.00e+00	0	40	0	2967470080	40	3999
2026-01-29 04:39:50.28	251.40	45.19	-35.3	-36.2	22.8	0.00e+00	0	41	0	2973761536	40	4103
2026-01-29 04:39:51.49	250.93	44.94	-35.3	-36.2	22.8	0.00e+00	0	40	0	2982150144	40	4106
2026-01-29 04:39:52.35	250.59	44.76	-35.3	-36.1	22.8	0.00e+00	0	40	0	2988441600	40	4089
2026-01-29 04:39:53.49	250.15	44.52	-35.1	-35.9	23.0	0.00e+00	0	40	0	2996830208	40	3984
2026-01-29 04:39:54.34	249.83	44.34	-34.9	-35.7	23.2	0.00e+00	0	40	0	3003121664	40	3880
2026-01-29 04:39:55.47	249.41	44.10	-34.7	-35.6	23.4	0.00e+00	0	41	0	3011510272	39	4054
2026-01-29 04:39:56.33	249.09	43.91	-34.7	-35.5	23.4	0.00e+00	0	40	0	3016753152	39	4046
2026-01-29 04:39:57.47	248.68	43.67	-34.8	-35.6	23.3	0.00e+00	0	41	0	3025141760	39	4093
2026-01-29 04:39:58.41	248.34	43.47	-34.9	-35.7	23.2	0.00e+00	0	41	0	3032481792	39	4111
2026-01-29 04:39:59.41	247.99	43.26	-35.0	-35.9	23.1	0.00e+00	0	40	0	3039821824	39	4207
2026-01-29 04:40:00.41	247.64	43.05	-35.1	-35.9	23.0	0.00e+00	0	40	0	3047161856	39	4238
2026-01-29 04:40:01.40	247.30	42.84	-35.2	-36.0	22.9	0.00e+00	0	41	0	3054501888	39	4291
2026-01-29 04:40:02.40	246.96	42.63	-35.2	-36.0	22.9	0.00e+00	0	40	0	3060793344	39	4285
2026-01-29 04:40:03.39	246.62	42.42	-34.9	-35.8	23.1	0.00e+00	0	40	0	3068133376	40	3914
2026-01-29 04:40:04.38	246.30	42.21	-34.9	-35.7	23.2	0.00e+00	0	40	0	3075473408	40	3886
2026-01-29 04:40:05.38	245.97	42.00	-34.9	-35.7	22.9	0.00e+00	0	41	0	3082813440	40	3899
2026-01-29 04:40:06.37	245.65	41.79	-35.1	-36.0	23.0	0.00e+00	0	40	0	3090153472	40	4007
2026-01-29 04:40:07.37	245.33	41.58	-35.0	-35.8	23.0	0.00e+00	0	40	0	3097493504	40	3958
2026-01-29 04:40:08.38	245.01	41.36	-35.0	-35.8	23.1	0.00e+00	0	40	0	3103784960	40	3956
2026-01-29 04:40:09.38	244.70	41.15	-35.0	-35.8	23.1	0.00e+00	0	40	0	3111124992	40	3933
2026-01-29 04:40:10.37	244.40	40.95	-34.8	-35.6	23.2	0.00e+00	0	40	0	3118465024	40	3831
2026-01-29 04:40:11.37	244.10	40.74	-34.9	-35.8	23.1	0.00e+00	0	41	0	3125805056	40	3919
2026-01-29 04:40:12.36	243.80	40.53	-34.9	-35.8	23.1	0.00e+00	0	40	0	3133145088	40	3919
2026-01-29 04:40:13.36	243.51	40.32	-34.9	-35.7	23.2	0.00e+00	0	40	0	3140485120	40	3893
2026-01-29 04:40:14.35	243.22	40.11	-34.8	-35.6	23.3	0.00e+00	0	40	0	3147825152	40	3846
2026-01-29 04:40:15.34	242.94	39.90	-34.8	-35.6	23.2	0.00e+00	0	41	0	3155165184	40	3854
2026-01-29 04:40:16.34	242.65	39.70	-34.8	-35.6	23.3	0.00e+00	0	40	0	3161456640	39	4083
2026-01-29 04:40:17.34	242.37	39.49	-35.0	-35.8	23.1	0.00e+00	0	41	0	3168796672	39	4178
2026-01-29 04:40:18.33	242.10	39.28	-35.2	-36.0	22.9	0.00e+00	0	41	0	3176136704	39	4264
2026-01-29 04:40:19.33	241.83	39.08	-35.2	-36.1	22.7	0.00e+00	0	41	0	3183476736	40	4058
2026-01-29 04:40:20.32	241.56	38.87	-35.2	-36.1	22.8	0.00e+00	0	41	0	3190816768	40	4060
2026-01-29 04:40:21.32	241.29	38.67	-35.1	-35.9	22.9	0.00e+00	0	41	0	3198156800	40	3983
2026-01-29 04:40:22.34	241.02	38.46	-35.1	-35.9	22.9	0.00e+00	0	40	0	3205496832	40	3988
2026-01-29 04:40:23.37	240.76	38.25	-35.0	-35.8	23.0	0.00e+00	0	40	0	3212836864	40	3929
2026-01-29 04:40:24.40	240.49	38.04	-34.9	-35.7	23.1	0.00e+00	0	40	0	3220176896	40	3896
2026-01-29 04:40:25.39	240.24	37.83	-35.2	-36.1	22.8	0.00e+00	0	40	0	3227516928	40	4054
2026-01-29 04:40:26.45	239.98	37.62	-35.1	-35.9	22.4	0.00e+00	0	40	0	3234856960	40	3982
2026-01-29 04:40:27.36	239.76	37.43	-35.0	-35.9	23.0	0.00e+00	0	40	0	3241148416	40	3963
2026-01-29 04:40:28.50	239.48	37.20	-34.9	-35.7	23.1	0.00e+00	0	40	0	3249537024	40	3907
2026-01-29 04:40:29.35	239.27	37.03	-34.9	-35.7	23.1	0.00e+00	0	40	0	3255828480	40	3904
2026-01-29 04:40:30.70	238.96	36.76	-34.8	-35.6	23.2	0.00e+00	0	40	0	3265265664	40	3840
2026-01-29 04:40:31.41	238.79	36.62	-34.8	-35.6	23.2	0.00e+00	0	40	0	3270508544	40	3854
2026-01-29 04:40:32.69	238.49	36.37	-34.9	-35.7	23.1	0.00e+00	0	40	0	3279945728	40	3886
2026-01-29 04:40:33.40	238.33	36.23	-34.9	-35.7	23.1	0.00e+00	0	40	0	3285188608	40	3891
2026-01-29 04:40:34.68	238.04	35.97	-34.8	-35.7	23.1	0.00e+00	0	40	0	3293577216	40	3871
2026-01-29 04:40:35.42	237.88	35.83	-34.7	-35.5	23.3	0.00e+00	0	40	0	3299868672	40	3806
2026-01-29 04:40:36.70	237.60	35.58	-34.7	-35.6	23.0	0.00e+00	0	41	0	3309305856	39	4063
2026-01-29 04:40:37.44	237.44	35.43	-34.6	-35.4	23.4	0.00e+00	0	41	0	3314548736	39	3994
2026-01-29 04:40:38.72	237.16	35.18	-34.5	-35.3	23.5	0.00e+00	0	41	0	3322937344	39	3951
2026-01-29 04:40:39.43	237.01	35.04	-34.6	-35.4	23.5	0.00e+00	0	41	0	3328180224	39	3977
2026-01-29 04:40:40.71	236.74	34.80	-34.8	-35.6	23.3	0.00e+00	0	41	0	3337617408	39	4079
2026-01-29 04:40:41.60	236.56	34.63	-34.7	-35.5	23.3	0.00e+00	0	41	0	3343908864	39	4047
2026-01-29 04:40:42.73	236.33	34.41	-34.7	-35.5	23.4	0.00e+00	0	41	0	3352297472	39	4025
2026-01-29 04:40:43.59	236.15	34.24	-34.6	-35.4	23.4	0.00e+00	0	40	0	3358588928	39	3998
2026-01-29 04:40:44.72	235.93	34.03	-34.7	-35.5	23.3	0.00e+00	0	40	0	3366977536	39	4029
2026-01-29 04:40:45.58	235.76	33.87	-34.4	-35.2	23.6	0.00e+00	0	41	0	3372220416	39	3889
2026-01-29 04:40:46.72	235.54	33.65	-34.5	-35.3	23.2	0.00e+00	0	41	0	3380609024	39	3924
2026-01-29 04:40:47.57	235.37	33.49	-34.5	-35.3	23.4	0.00e+00	0	41	0	3386900480	39	3957
2026-01-29 04:40:48.71	235.15	33.28	-34.6	-35.4	23.4	0.00e+00	0	41	0	3395289088	39	3985
2026-01-29 04:40:49.56	234.99	33.12	-34.6	-35.4	23.4	0.00e+00	0	40	0	3401580544	39	3997
2026-01-29 04:40:50.70	234.78	32.91	-34.7	-35.5	23.3	0.00e+00	0	40	0	3409969152	39	4018
2026-01-29 04:40:51.55	234.63	32.75	-34.8	-35.6	23.2	0.00e+00	0	40	0	3416260608	39	4062
2026-01-29 04:40:52.69	234.42	32.54	-34.8	-35.6	23.3	0.00e+00	0	40	0	3423600640	39	4063
2026-01-29 04:40:53.60	234.25	32.38	-35.1	-35.9	23.0	0.00e+00	0	41	0	3430940672	39	4211
2026-01-29 04:40:54.77	234.05	32.16	-34.8	-35.6	23.3	0.00e+00	0	41	0	3439329280	39	4063
2026-01-29 04:40:55.62	233.90	32.01	-34.8	-35.6	23.2	0.00e+00	0	41	0	3445620736	39	4090
2026-01-29 04:40:56.76	233.70	31.80	-34.9	-35.7	23.2	0.00e+00	0	40	0	3454009344	39	4114
2026-01-29 04:40:57.62	233.55	31.65	-34.9	-35.8	23.1	0.00e+00	0	41	0	3459252224	39	4160
2026-01-29 04:40:58.75	233.36	31.45	-34.8	-35.7	23.2	0.00e+00	0	40	0	3467640832	39	4105
2026-01-29 04:40:59.61	233.21	31.29	-34.9	-35.8	23.1	0.00e+00	0	41	0	3473932288	39	4147
2026-01-29 04:41:00.74	233.03	31.09	-34.9	-35.8	23.1	0.00e+00	0	41	0	3482320896	39	4154
2026-01-29 04:41:01.60	232.89	30.94	-35.0	-35.9	23.0	0.00e+00	0	41	0	3488612352	39	4197
2026-01-29 04:41:02.74	232.70	30.74	-35.0	-35.9	23.0	0.00e+00	0	41	0	3497000960	39	4210
2026-01-29 04:41:03.59	232.56	30.59	-35.0	-35.8	23.1	0.00e+00	0	41	0	3503292416	39	4164
2026-01-29 04:41:04.73	232.38	30.39	-35.0	-35.8	23.0	0.00e+00	0	40	0	3510632448	39	4192
2026-01-29 04:41:05.58	232.25	30.24	-34.9	-35.8	23.1	0.00e+00	0	41	0	3516923904	39	4156
2026-01-29 04:41:06.72	232.07	30.05	-34.9	-35.7	23.1	0.00e+00	0	40	0	3525312512	39	4119
2026-01-29 04:41:07.57	231.94	29.90	-34.9	-35.7	23.0	0.00e+00	0	41	0	3531603968	39	4145
2026-01-29 04:41:08.71	231.77	29.71	-34.9	-35.8	23.1	0.00e+00	0	40	0	3539992576	39	4159
2026-01-29 04:41:09.66	231.62	29.54	-35.0	-35.8	23.0	0.00e+00	0	41	0	3546284032	39	4173
2026-01-29 04:41:10.65	231.48	29.38	-35.1	-35.9	22.9	0.00e+00	0	41	0	3553624064	39	4220
2026-01-29 04:41:11.84	231.30	29.18	-35.2	-36.0	22.8	0.00e+00	0	40	0	3563061248	39	4283
2026-01-29 04:41:12.69	231.18	29.03	-35.2	-36.1	22.8	0.00e+00	0	40	0	3568304128	39	4305
2026-01-29 04:41:13.83	231.01	28.84	-35.2	-36.0	22.8	0.00e+00	0	41	0	3576692736	39	4290
2026-01-29 04:41:14.68	230.89	28.70	-35.2	-36.1	22.8	0.00e+00	0	41	0	3582984192	39	4295
2026-01-29 04:41:15.82	230.73	28.51	-35.2	-36.0	22.9	0.00e+00	0	40	0	3591372800	39	4265
2026-01-29 04:41:16.67	230.61	28.37	-35.1	-35.9	22.9	0.00e+00	0	40	0	3597664256	39	4239
2026-01-29 04:41:17.81	230.45	28.19	-35.1	-35.9	22.8	0.00e+00	0	40	0	3605004288	39	4226
2026-01-29 04:41:18.66	230.34	28.05	-35.1	-35.9	22.9	0.00e+00	0	41	0	3611295744	39	4222
2026-01-29 04:41:19.80	230.18	27.86	-35.1	-35.9	22.9	0.00e+00	0	40	0	3619684352	39	4221
2026-01-29 04:41:20.65	230.07	27.72	-35.2	-36.0	22.9	0.00e+00	0	40	0	3625975808	39	4267
2026-01-29 04:41:21.79	229.92	27.54	-35.2	-36.1	22.7	0.00e+00	0	40	0	3634364416	39	4308
2026-01-29 04:41:22.64	229.80	27.41	-35.3	-36.1	22.8	0.00e+00	0	41	0	3640655872	39	4325
2026-01-29 04:41:23.90	229.64	27.20	-35.3	-36.2	22.7	0.00e+00	0	41	0	3649044480	40	4109
2026-01-29 04:41:24.68	229.54	27.08	-35.3	-36.1	22.7	0.00e+00	0	41	0	3655335936	40	4091
2026-01-29 04:41:25.96	229.38	26.88	-35.2	-36.1	22.7	0.00e+00	0	40	0	3664773120	40	4079
2026-01-29 04:41:26.67	229.29	26.77	-35.3	-36.2	22.6	0.00e+00	0	41	0	3668967424	40	4109
2026-01-29 04:41:28.16	229.10	26.53	-35.1	-36.0	22.7	0.00e+00	0	41	0	3680501760	40	4024
2026-01-29 04:41:28.87	229.01	26.42	-35.2	-36.0	22.8	0.00e+00	0	41	0	3685744640	40	4049
2026-01-29 04:41:30.15	228.86	26.23	-35.2	-36.0	22.8	0.00e+00	0	40	0	3695181824	40	4035
2026-01-29 04:41:30.86	228.77	26.12	-35.2	-36.1	22.7	0.00e+00	0	41	0	3699376128	40	4058
2026-01-29 04:41:32.14	228.62	25.92	-35.1	-36.0	22.8	0.00e+00	0	41	0	3708813312	40	4017
2026-01-29 04:41:32.85	228.53	25.81	-35.3	-36.1	22.7	0.00e+00	0	41	0	3714056192	40	4075
2026-01-29 04:41:34.13	228.38	25.62	-35.2	-36.1	22.7	0.00e+00	0	41	0	3723493376	40	4061
2026-01-29 04:41:34.89	228.30	25.50	-35.2	-36.0	22.8	0.00e+00	0	41	0	3728736256	40	4041
2026-01-29 04:41:36.17	228.15	25.31	-35.2	-36.0	22.8	0.00e+00	0	40	0	3738173440	40	4026
2026-01-29 04:41:36.99	228.06	25.19	-35.2	-36.0	22.8	0.00e+00	0	41	0	3743416320	40	4049
2026-01-29 04:41:38.12	227.93	25.02	-35.2	-36.0	22.8	0.00e+00	0	41	0	3751804928	40	4027
2026-01-29 04:41:38.98	227.83	24.89	-35.2	-36.0	22.8	0.00e+00	0	41	0	3758096384	40	4029
2026-01-29 04:41:40.11	227.71	24.73	-35.1	-36.0	22.8	0.00e+00	0	41	0	3766484992	40	4005
2026-01-29 04:41:40.96	227.61	24.60	-35.1	-35.9	22.9	0.00e+00	0	41	0	3772776448	40	3988
2026-01-29 04:41:42.10	227.49	24.44	-35.1	-35.9	22.8	0.00e+00	0	41	0	3781165056	40	3995
2026-01-29 04:41:42.95	227.40	24.31	-35.0	-35.8	22.9	0.00e+00	0	41	0	3787456512	40	3956
2026-01-29 04:41:44.09	227.28	24.15	-35.1	-36.0	22.8	0.00e+00	0	41	0	3795845120	40	4006
2026-01-29 04:41:45.32	227.15	23.97	-35.2	-36.0	22.7	0.00e+00	0	41	0	3804233728	40	4028
2026-01-29 04:41:46.18	227.06	23.85	-35.2	-36.1	22.7	0.00e+00	0	41	0	3810525184	40	4062
2026-01-29 04:41:47.68	226.90	23.64	-35.3	-36.1	22.6	0.00e+00	0	41	0	3821010944	40	4084
2026-01-29 04:41:48.39	226.83	23.54	-35.2	-36.1	22.7	0.00e+00	0	41	0	3826253824	40	4069
2026-01-29 04:41:49.67	226.70	23.35	-35.3	-36.2	22.6	0.00e+00	0	41	0	3835691008	40	4121
2026-01-29 04:41:50.38	226.63	23.26	-35.3	-36.1	22.6	0.00e+00	0	41	0	3840933888	40	4096
2026-01-29 04:41:51.66	226.50	23.08	-35.3	-36.1	22.7	0.00e+00	0	40	0	3850371072	40	4081
2026-01-29 04:41:52.39	226.43	22.98	-35.3	-36.1	22.7	0.00e+00	0	41	0	3854565376	40	4079
2026-01-29 04:41:53.67	226.30	22.80	-35.2	-36.0	22.8	0.00e+00	0	41	0	3864002560	40	4032
2026-01-29 04:41:54.38	226.23	22.70	-35.1	-36.0	22.8	0.00e+00	0	41	0	3869245440	40	4017
2026-01-29 04:41:55.66	226.11	22.53	-35.2	-36.0	22.8	0.00e+00	0	41	0	3878682624	40	4047
2026-01-29 04:41:56.37	226.04	22.43	-35.2	-36.1	22.7	0.00e+00	0	41	0	3883925504	40	4065
2026-01-29 04:41:57.65	225.92	22.26	-35.1	-36.0	22.8	0.00e+00	0	41	0	3893362688	40	4009
2026-01-29 04:41:58.36	225.86	22.16	-35.3	-36.1	22.6	0.00e+00	0	41	0	3898605568	40	4080
2026-01-29 04:41:59.64	225.74	21.99	-35.2	-36.0	22.6	0.00e+00	0	41	0	3906994176	40	4035
2026-01-29 04:42:00.35	225.67	21.89	-35.2	-36.0	22.7	0.00e+00	0	41	0	3912237056	40	4046
2026-01-29 04:42:01.75	225.55	21.71	-35.3	-36.2	22.6	0.00e+00	0	40	0	3922722816	40	4105
2026-01-29 04:42:02.46	225.48	21.61	-35.4	-36.2	22.6	0.00e+00	0	41	0	3927965696	40	4129
2026-01-29 04:42:03.74	225.37	21.44	-35.4	-36.3	22.4	0.00e+00	0	41	0	3937402880	40	4148
2026-01-29 04:42:04.47	225.30	21.35	-35.5	-36.4	22.4	0.00e+00	0	41	0	3942645760	40	4213
2026-01-29 04:42:05.75	225.19	21.18	-35.6	-36.5	22.3	0.00e+00	0	41	0	3952082944	40	4255
2026-01-29 04:42:06.46	225.13	21.09	-35.7	-36.5	22.3	0.00e+00	0	41	0	3956277248	40	4276
2026-01-29 04:42:07.73	225.02	20.92	-35.7	-36.6	22.2	0.00e+00	0	41	0	3965714432	40	4311
2026-01-29 04:42:08.45	224.96	20.83	-35.8	-36.7	22.1	0.00e+00	0	41	0	3970957312	41	4112
2026-01-29 04:42:09.73	224.85	20.67	-35.9	-36.8	22.0	0.00e+00	0	41	0	3980394496	41	4167
2026-01-29 04:42:10.51	224.78	20.57	-35.9	-36.8	22.1	0.00e+00	0	41	0	3985637376	41	4166
2026-01-29 04:42:11.79	224.68	20.41	-36.0	-36.9	21.9	0.00e+00	0	41	0	3995074560	41	4202
2026-01-29 04:42:12.51	224.62	20.31	-36.0	-36.9	21.9	0.00e+00	0	41	0	4000317440	41	4227
2026-01-29 04:42:13.79	224.51	20.15	-36.1	-37.0	21.8	0.00e+00	0	41	0	4009754624	41	4282
2026-01-29 04:42:14.51	224.45	20.06	-36.2	-37.1	21.8	0.00e+00	0	40	0	4014997504	41	4304
2026-01-29 04:42:15.79	224.35	19.90	-36.3	-37.2	21.7	0.00e+00	0	41	0	4024434688	42	4113
2026-01-29 04:42:16.52	224.29	19.81	-36.2	-37.1	21.8	0.00e+00	0	41	0	4029677568	42	4054
2026-01-29 04:42:17.80	224.19	19.65	-36.3	-37.2	21.7	0.00e+00	0	41	0	4039114752	42	4132
2026-01-29 04:42:18.51	224.14	19.57	-36.3	-37.2	21.6	0.00e+00	0	41	0	4043309056	42	4131
2026-01-29 04:42:19.79	224.04	19.41	-36.2	-37.1	21.8	0.00e+00	0	41	0	4052746240	42	4057
2026-01-29 04:42:20.50	223.98	19.32	-36.3	-37.2	21.6	0.00e+00	0	41	0	4057989120	42	4104
2026-01-29 04:42:21.78	223.88	19.17	-36.2	-37.1	21.8	0.00e+00	0	41	0	4067426304	42	4057
2026-01-29 04:42:22.51	223.83	19.08	-36.2	-37.1	21.6	0.00e+00	0	41	0	4072669184	42	4075
2026-01-29 04:42:23.79	223.73	18.93	-36.1	-37.0	21.8	0.00e+00	0	41	0	4082106368	42	4028
2026-01-29 04:42:24.50	223.68	18.84	-36.1	-37.0	21.8	0.00e+00	0	41	0	4087349248	42	4013
2026-01-29 04:42:25.78	223.58	18.69	-36.1	-37.0	21.8	0.00e+00	0	41	0	4095737856	42	4022
2026-01-29 04:42:26.50	223.53	18.60	-36.2	-37.1	21.8	0.00e+00	0	41	0	4100980736	42	4055
2026-01-29 04:42:27.79	223.43	18.45	-36.0	-36.9	21.9	0.00e+00	0	41	0	4110417920	42	3975
2026-01-29 04:42:28.51	223.38	18.37	-36.0	-36.9	21.9	0.00e+00	0	41	0	4115660800	42	3990
2026-01-29 04:42:29.79	223.29	18.22	-36.2	-37.1	21.6	0.00e+00	0	41	0	4125097984	42	4065
2026-01-29 04:42:30.52	223.24	18.13	-36.0	-36.9	21.9	0.00e+00	0	41	0	4130340864	42	3990
2026-01-29 04:42:31.80	223.15	17.98	-36.0	-36.9	21.9	0.00e+00	0	41	0	4139778048	42	3981
2026-01-29 04:42:32.51	223.10	17.90	-36.2	-37.0	21.8	0.00e+00	0	41	0	4145020928	42	4041
2026-01-29 04:42:33.79	223.01	17.75	-36.0	-36.9	21.9	0.00e+00	0	41	0	4154458112	42	3979
2026-01-29 04:42:34.51	222.96	17.67	-36.0	-36.9	21.9	0.00e+00	0	41	0	4159700992	42	3961
2026-01-29 04:42:35.80	222.87	17.52	-36.1	-37.0	21.8	0.00e+00	0	41	0	4168089600	42	4017
2026-01-29 04:42:36.51	222.82	17.44	-36.1	-37.0	21.8	0.00e+00	0	41	0	4173332480	42	4031
2026-01-29 04:42:37.79	222.74	17.30	-36.1	-37.0	21.8	0.00e+00	0	41	0	4182769664	42	4015
2026-01-29 04:42:38.50	222.69	17.22	-36.2	-37.0	21.8	0.00e+00	0	41	0	4188012544	42	4048
2026-01-29 04:42:39.78	222.60	17.07	-36.1	-37.0	21.8	0.00e+00	0	41	0	4197449728	42	4033
2026-01-29 04:42:40.49	222.56	16.99	-36.1	-36.9	21.8	0.00e+00	0	41	0	4202692608	42	4000
2026-01-29 04:42:41.77	222.47	16.85	-36.2	-37.0	21.7	0.00e+00	0	41	0	4211081216	42	4050
2026-01-29 04:42:42.49	222.43	16.77	-36.1	-37.0	21.8	0.00e+00	0	41	0	4217372672	42	4019
2026-01-29 04:42:43.77	222.34	16.63	-36.2	-37.1	21.7	0.00e+00	0	41	0	4225761280	42	4061
2026-01-29 04:42:44.48	222.30	16.55	-36.3	-37.1	21.6	0.00e+00	0	41	0	4231004160	42	4091
2026-01-29 04:42:45.76	222.22	16.41	-36.3	-37.2	21.6	0.00e+00	0	41	0	4240441344	42	4100
2026-01-29 04:42:46.50	222.17	16.33	-36.4	-37.3	21.5	0.00e+00	0	41	0	4245684224	42	4169
2026-01-29 04:42:47.78	222.09	16.19	-36.4	-37.3	21.4	0.00e+00	0	41	0	4255121408	42	4174
2026-01-29 04:42:48.68	222.03	16.09	-36.4	-37.2	21.5	0.00e+00	0	41	0	4261412864	42	4137
2026-01-29 04:42:50.09	221.95	15.94	-36.4	-37.3	21.4	0.00e+00	0	41	0	4271898624	42	4184
2026-01-29 04:42:50.80	221.90	15.87	-36.4	-37.3	21.5	0.00e+00	0	41	0	4277141504	42	4151
2026-01-29 04:42:52.08	221.83	15.73	-36.5	-37.4	21.3	0.00e+00	0	41	0	4285530112	42	4235
2026-01-29 04:42:52.84	221.78	15.65	-36.5	-37.4	21.4	0.00e+00	0	41	0	4290772992	42	4210
2026-01-29 04:42:54.12	221.71	15.51	-36.5	-37.5	21.3	0.00e+00	0	41	0	4300210176	42	4246
2026-01-29 04:42:54.83	221.66	15.44	-36.6	-37.5	21.3	0.00e+00	0	41	0	4305453056	42	4278
2026-01-29 04:42:56.11	221.59	15.30	-36.7	-37.6	21.2	0.00e+00	0	41	0	4314890240	42	4319
2026-01-29 04:42:56.83	221.55	15.23	-36.7	-37.6	21.2	0.00e+00	0	41	0	4320133120	42	4325
2026-01-29 04:42:58.11	221.47	15.10	-36.8	-37.7	21.1	0.00e+00	0	41	0	4329570304	43	4121
2026-01-29 04:42:58.82	221.43	15.02	-36.7	-37.6	21.2	0.00e+00	0	41	0	4334813184	43	4076
2026-01-29 04:43:00.10	221.36	14.89	-36.8	-37.8	21.0	0.00e+00	0	41	0	4344250368	43	4151
2026-01-29 04:43:01.11	221.30	14.79	-36.9	-37.8	21.0	0.00e+00	0	41	0	4351590400	43	4184
2026-01-29 04:43:02.11	221.24	14.68	-36.9	-37.8	21.0	0.00e+00	0	41	0	4358930432	43	4178
2026-01-29 04:43:03.10	221.19	14.58	-36.9	-37.8	20.9	0.00e+00	0	41	0	4365221888	43	4191
2026-01-29 04:43:04.10	221.13	14.48	-36.9	-37.8	20.9	0.00e+00	0	41	0	4372561920	43	4187
2026-01-29 04:43:05.10	221.08	14.38	-37.0	-38.0	20.8	0.00e+00	0	41	0	4379901952	43	4246
2026-01-29 04:43:06.09	221.03	14.28	-37.1	-38.0	20.7	0.00e+00	0	41	0	4387241984	43	4275
2026-01-29 04:43:07.09	220.97	14.18	-37.1	-38.1	20.7	0.00e+00	0	41	0	4394582016	43	4301
2026-01-29 04:43:08.08	220.92	14.08	-37.1	-38.1	20.7	0.00e+00	0	41	0	4400873472	43	4316
2026-01-29 04:43:09.08	220.86	13.98	-37.2	-38.2	20.6	0.00e+00	0	41	0	4408213504	43	4360
2026-01-29 04:43:10.07	220.81	13.88	-37.1	-38.1	20.7	0.00e+00	0	41	0	4415553536	43	4304
2026-01-29 04:43:11.15	220.75	13.78	-37.1	-38.1	20.7	0.00e+00	0	41	0	4423942144	43	4312
2026-01-29 04:43:12.03	220.71	13.69	-37.2	-38.2	20.6	0.00e+00	0	41	0	4430233600	43	4342
2026-01-29 04:43:13.17	220.65	13.58	-37.5	-38.4	20.6	0.00e+00	0	41	0	4438622208	44	4221
2026-01-29 04:43:14.11	220.60	13.48	-37.5	-38.4	20.5	0.00e+00	0	41	0	4444913664	44	4231
2026-01-29 04:43:15.28	220.54	13.37	-37.5	-38.5	20.5	0.00e+00	0	41	0	4453302272	44	4265
2026-01-29 04:43:16.14	220.50	13.29	-37.5	-38.4	20.5	0.00e+00	0	41	0	4459593728	44	4235
2026-01-29 04:43:17.27	220.44	13.18	-37.5	-38.5	20.5	0.00e+00	0	41	0	4467982336	44	4243
2026-01-29 04:43:18.13	220.40	13.10	-37.5	-38.5	20.4	0.00e+00	0	41	0	4474273792	44	4251
2026-01-29 04:43:19.26	220.34	12.99	-37.6	-38.6	20.3	0.00e+00	0	41	0	4482662400	44	4307
2026-01-29 04:43:20.12	220.30	12.90	-37.5	-38.5	20.4	0.00e+00	0	41	0	4487905280	44	4269
2026-01-29 04:43:21.26	220.24	12.80	-37.7	-38.6	20.3	0.00e+00	0	41	0	4496293888	44	4335
2026-01-29 04:43:22.11	220.20	12.72	-37.7	-38.6	20.3	0.00e+00	0	41	0	4502585344	44	4330
2026-01-29 04:43:23.25	220.14	12.61	-37.8	-38.8	20.1	0.00e+00	0	41	0	4510973952	45	4152
2026-01-29 04:43:24.10	220.10	12.53	-37.7	-38.7	20.2	0.00e+00	0	41	0	4517265408	45	4124
2026-01-29 04:43:25.35	220.04	12.41	-37.9	-38.8	20.1	0.00e+00	0	41	0	4526702592	45	4187
2026-01-29 04:43:26.20	220.00	12.33	-38.0	-38.9	20.0	0.00e+00	0	41	0	4531945472	45	4237
2026-01-29 04:43:27.34	219.95	12.22	-37.8	-38.8	20.0	0.00e+00	0	41	0	4540334080	45	4163
2026-01-29 04:43:28.19	219.91	12.15	-38.0	-39.0	19.9	0.00e+00	0	41	0	4546625536	45	4275
2026-01-29 04:43:29.33	219.86	12.04	-38.0	-39.0	20.0	0.00e+00	0	41	0	4555014144	45	4243
2026-01-29 04:43:30.19	219.82	11.96	-38.1	-39.1	19.8	0.00e+00	0	41	0	4561305600	45	4313
2026-01-29 04:43:31.32	219.76	11.86	-38.2	-39.2	19.7	0.00e+00	0	41	0	4569694208	45	4355
2026-01-29 04:43:32.18	219.73	11.78	-38.2	-39.2	19.7	0.00e+00	0	41	0	4574937088	45	4342
2026-01-29 04:43:33.32	219.67	11.67	-38.3	-39.3	19.7	0.00e+00	0	41	0	4583325696	46	4149
2026-01-29 04:43:34.17	219.64	11.60	-38.3	-39.3	19.6	0.00e+00	0	41	0	4589617152	46	4155
2026-01-29 04:43:35.31	219.58	11.49	-38.3	-39.3	19.6	0.00e+00	0	41	0	4598005760	46	4191
2026-01-29 04:43:36.16	219.55	11.42	-38.4	-39.4	19.5	0.00e+00	0	41	0	4604297216	46	4214
2026-01-29 04:43:37.30	219.50	11.31	-38.4	-39.4	19.5	0.00e+00	0	41	0	4612685824	46	4242
2026-01-29 04:43:38.15	219.46	11.24	-38.5	-39.5	19.4	0.00e+00	0	41	0	4618977280	46	4286
2026-01-29 04:43:39.32	219.41	11.13	-38.5	-39.5	19.3	0.00e+00	0	41	0	4627365888	46	4286
2026-01-29 04:43:40.17	219.37	11.06	-38.3	-39.4	19.5	0.00e+00	0	41	0	4632608768	46	4201
2026-01-29 04:43:41.39	219.32	10.95	-38.6	-39.6	19.3	0.00e+00	0	41	0	4642045952	46	4325
2026-01-29 04:43:42.24	219.28	10.88	-38.5	-39.5	19.3	0.00e+00	0	41	0	4648337408	46	4283
2026-01-29 04:43:43.38	219.23	10.77	-38.6	-39.7	19.2	0.00e+00	0	41	0	4655677440	46	4347
2026-01-29 04:43:44.23	219.20	10.70	-38.5	-39.6	19.2	0.00e+00	0	41	0	4661968896	46	4326
2026-01-29 04:43:45.37	219.15	10.60	-38.6	-39.7	19.2	0.00e+00	0	41	0	4670357504	46	4358
2026-01-29 04:43:46.22	219.11	10.53	-38.7	-39.8	19.1	0.00e+00	0	41	0	4676648960	46	4396
2026-01-29 04:43:47.36	219.07	10.43	-38.7	-39.8	19.0	0.00e+00	0	41	0	4685037568	47	4176
