passes_logs/2026/01/29/T1/T1__20260129_102410_NOAA_20_JPSS-1_rec.log

#Pass ID: 20260129_102410_NOAA 20 (JPSS-1)
#Satellite: NOAA 20 (JPSS-1)
#Configuration: NOAA 20
#almurnet v.1.7.20251203
#Start time: 2026-01-29 10:24:11

#Version: 2.0.20230620
#Station: T1
#Location: 37.570604 lon 55.790049 lat
#TLE: 1 43013U 17073A   26027.94683596  .00000137  00000+0  85741-4 0  9995
#TLE: 2 43013  98.7648 328.7503 0000940  21.3928 338.7287 14.19541154424576

#Time	Az	El	Level	Level2	SNR	BER	BlckErr	Temp	State	Recorded	gain1	gain2
2026-01-29 10:24:11.85	175.14	5.08	-50.1	-65.4	3.8	1.49e+00	0	40	0	0	71	21322
2026-01-29 10:24:12.84	175.16	5.15	-50.2	-65.3	3.8	1.49e+00	0	40	104	0	72	19987
2026-01-29 10:24:13.83	175.19	5.22	-50.0	-65.3	3.8	1.49e+00	0	40	104	0	72	19963
2026-01-29 10:24:14.82	175.22	5.30	-50.0	-65.3	3.8	1.49e+00	0	40	104	0	71	21254
2026-01-29 10:24:15.81	175.25	5.37	-50.1	-65.3	3.8	1.49e+00	0	40	104	0	71	21234
2026-01-29 10:24:16.81	175.27	5.44	-50.1	-65.3	3.8	1.49e+00	0	40	104	0	71	21229
2026-01-29 10:24:17.80	175.30	5.51	-50.2	-65.3	3.8	1.49e+00	0	40	104	0	71	21229
2026-01-29 10:24:18.79	175.33	5.58	-49.8	-65.3	3.8	1.49e+00	0	40	104	0	71	21123
2026-01-29 10:24:19.79	175.36	5.65	-50.1	-65.3	3.8	1.49e+00	0	40	104	0	71	21149
2026-01-29 10:24:20.78	175.39	5.72	-50.0	-65.3	3.8	1.49e+00	0	40	104	0	71	21089
2026-01-29 10:24:21.77	175.42	5.80	-50.1	-65.2	3.8	1.49e+00	0	40	104	0	71	21010
2026-01-29 10:24:22.77	175.45	5.87	-50.0	-65.3	3.8	1.49e+00	0	40	104	0	71	21054
2026-01-29 10:24:23.76	175.47	5.94	-49.9	-65.3	3.8	1.49e+00	0	40	104	0	71	21096
2026-01-29 10:24:24.75	175.50	6.01	-50.0	-65.3	3.8	1.49e+00	0	40	104	0	71	21049
2026-01-29 10:24:25.75	175.53	6.09	-50.0	-65.2	3.8	1.49e+00	0	41	104	0	71	20971
2026-01-29 10:24:26.74	175.56	6.16	-49.8	-65.2	3.8	1.49e+00	0	41	104	0	71	20934
2026-01-29 10:24:27.73	175.59	6.23	-49.8	-65.2	3.8	1.49e+00	0	40	104	0	71	20877
2026-01-29 10:24:28.73	175.62	6.31	-50.0	-65.2	3.8	1.49e+00	0	40	104	0	71	20858
2026-01-29 10:24:29.72	175.65	6.38	-49.8	-65.2	3.8	1.49e+00	0	41	104	0	71	20791
2026-01-29 10:24:30.71	175.68	6.46	-49.6	-65.1	3.8	1.49e+00	0	41	104	0	71	20713
2026-01-29 10:24:31.71	175.71	6.53	-49.5	-65.0	3.8	1.49e+00	0	41	104	0	71	20515
2026-01-29 10:24:32.70	175.74	6.60	-49.1	-65.0	3.8	1.49e+00	0	41	104	0	70	21728
2026-01-29 10:24:33.69	175.77	6.68	-49.5	-64.9	3.8	1.49e+00	0	41	104	0	69	22523
2026-01-29 10:24:34.69	175.80	6.75	-48.7	-63.8	3.8	1.49e+00	0	41	104	0	67	22450
2026-01-29 10:24:35.68	175.83	6.83	-46.4	-63.5	3.8	1.49e+00	0	41	104	0	64	25668
2026-01-29 10:24:36.67	175.86	6.90	-46.4	-63.7	3.8	1.49e+00	0	41	104	0	64	26291
2026-01-29 10:24:37.67	175.90	6.98	-46.4	-63.7	3.8	1.49e+00	0	41	104	0	64	26432
2026-01-29 10:24:38.66	175.93	7.06	-46.4	-63.7	3.8	1.49e+00	0	41	104	0	64	26184
2026-01-29 10:24:39.66	175.96	7.13	-46.3	-63.1	3.8	1.49e+00	0	41	104	0	64	24453
2026-01-29 10:24:40.65	175.99	7.21	-46.3	-61.8	3.9	1.49e+00	0	41	104	0	64	21151
2026-01-29 10:24:41.64	176.02	7.28	-46.3	-60.1	4.5	1.32e+00	0	41	0	0	64	17313
2026-01-29 10:24:42.63	176.05	7.36	-46.2	-58.3	5.4	7.27e-01	0	41	0	2097152	64	14187
2026-01-29 10:24:43.63	176.08	7.44	-46.0	-56.6	6.6	3.60e-01	0	41	0	3145728	64	11673
2026-01-29 10:24:44.62	176.12	7.51	-46.0	-55.3	7.9	1.41e-01	0	41	0	5242880	63	10578
2026-01-29 10:24:45.61	176.15	7.59	-45.7	-54.1	9.2	2.54e-02	0	41	0	7340032	63	9202
2026-01-29 10:24:46.61	176.18	7.67	-45.4	-52.7	10.6	6.88e-03	0	41	0	9437184	62	8343
2026-01-29 10:24:47.60	176.21	7.75	-45.1	-51.9	11.5	1.82e-03	0	41	0	11534336	62	7545
2026-01-29 10:24:48.59	176.25	7.82	-44.8	-51.0	12.4	2.46e-04	0	41	0	12582912	61	7234
2026-01-29 10:24:49.59	176.28	7.90	-44.6	-50.4	12.9	5.87e-05	0	41	0	14680064	61	6793
2026-01-29 10:24:50.58	176.31	7.98	-44.4	-49.9	13.4	2.59e-05	0	41	0	16777216	60	6800
2026-01-29 10:24:51.57	176.34	8.06	-44.3	-49.6	13.7	8.30e-06	0	41	0	18874368	60	6565
2026-01-29 10:24:52.57	176.38	8.14	-44.4	-49.7	13.7	7.60e-06	0	41	0	19922944	60	6587
2026-01-29 10:24:53.56	176.41	8.22	-44.4	-49.8	13.6	8.30e-06	0	41	0	22020096	60	6707
2026-01-29 10:24:54.55	176.44	8.30	-44.5	-50.1	13.3	8.30e-06	0	41	0	24117248	60	6937
2026-01-29 10:24:55.55	176.48	8.38	-44.7	-50.7	12.7	5.87e-05	0	41	0	26214400	60	7394
2026-01-29 10:24:56.54	176.51	8.46	-44.9	-51.4	12.0	1.42e-04	0	41	0	28311552	60	8046
2026-01-29 10:24:57.54	176.55	8.54	-45.1	-52.1	11.2	8.09e-04	0	41	0	29360128	60	8717
2026-01-29 10:24:58.53	176.58	8.62	-45.4	-53.2	10.0	3.11e-03	0	42	0	31457280	61	9360
2026-01-29 10:24:59.52	176.61	8.70	-45.6	-54.4	8.8	2.29e-02	0	41	0	33554432	61	10748
2026-01-29 10:25:00.51	176.65	8.78	-45.9	-55.7	7.5	6.61e-02	0	41	0	35651584	62	11807
2026-01-29 10:25:01.51	176.68	8.86	-46.1	-57.3	6.2	2.24e-01	0	41	0	36700160	62	14095
2026-01-29 10:25:02.50	176.72	8.94	-46.2	-58.8	5.1	4.51e-01	0	42	0	38797312	63	15915
2026-01-29 10:25:03.50	176.75	9.02	-46.3	-60.6	4.4	1.09e+00	0	41	0	40894464	63	19416
2026-01-29 10:25:04.49	176.79	9.10	-46.5	-58.9	5.0	1.41e+00	0	41	0	41943040	63	16003
2026-01-29 10:25:05.49	176.83	9.19	-46.6	-54.8	8.3	1.53e-01	0	42	0	42991616	64	9397
2026-01-29 10:25:06.48	176.86	9.27	-46.8	-59.1	5.2	5.81e-03	0	41	0	45088768	64	15522
2026-01-29 10:25:07.47	176.90	9.35	-46.5	-62.8	3.8	1.49e+00	0	42	104	45088768	64	23744
2026-01-29 10:25:08.47	176.93	9.44	-47.1	-54.3	8.6	3.83e-01	0	42	0	45088768	65	8463
2026-01-29 10:25:09.46	176.97	9.52	-46.0	-51.0	12.4	2.77e-04	0	42	0	47185920	63	6432
2026-01-29 10:25:10.46	177.01	9.60	-45.7	-50.3	13.1	7.40e-05	0	42	0	49283072	63	5992
2026-01-29 10:25:11.45	177.04	9.69	-45.6	-50.1	13.4	9.10e-06	0	42	0	51380224	62	6135
2026-01-29 10:25:12.45	177.08	9.77	-45.4	-49.8	13.6	3.00e-06	0	42	0	52428800	62	5945
2026-01-29 10:25:13.44	177.12	9.85	-45.2	-49.3	14.2	3.00e-06	0	42	0	54525952	62	5619
2026-01-29 10:25:14.44	177.15	9.94	-45.0	-49.2	14.3	7.00e-07	0	42	0	56623104	61	5857
2026-01-29 10:25:15.43	177.19	10.02	-45.0	-49.2	14.3	2.20e-06	0	42	0	58720256	61	5886
2026-01-29 10:25:16.43	177.23	10.11	-45.0	-49.2	14.3	2.20e-06	0	42	0	60817408	61	5894
2026-01-29 10:25:17.43	177.27	10.20	-44.7	-48.7	14.8	0.00e+00	0	42	0	61865984	61	5571
2026-01-29 10:25:18.42	177.31	10.28	-44.5	-48.4	15.1	0.00e+00	0	41	0	63963136	60	5712
2026-01-29 10:25:19.41	177.34	10.37	-44.2	-48.1	15.4	7.00e-07	0	42	0	66060288	60	5516
2026-01-29 10:25:20.45	177.38	10.46	-43.5	-46.9	16.6	0.00e+00	0	42	0	68157440	58	5354
2026-01-29 10:25:21.40	177.42	10.54	-43.3	-46.7	16.7	0.00e+00	0	42	0	70254592	58	5223
2026-01-29 10:25:22.40	177.46	10.63	-43.5	-47.0	16.5	0.00e+00	0	42	0	71303168	58	5408
2026-01-29 10:25:23.39	177.50	10.72	-43.2	-46.5	17.0	0.00e+00	0	42	0	73400320	58	5122
2026-01-29 10:25:24.39	177.54	10.80	-42.8	-45.9	17.5	0.00e+00	0	42	0	75497472	57	5089
2026-01-29 10:25:25.38	177.58	10.89	-42.9	-46.0	17.4	0.00e+00	0	42	0	77594624	57	5124
2026-01-29 10:25:26.38	177.62	10.98	-43.0	-45.9	17.5	0.00e+00	0	42	0	78643200	57	5098
2026-01-29 10:25:27.38	177.66	11.07	-42.9	-45.8	17.6	0.00e+00	0	42	0	80740352	57	5031
2026-01-29 10:25:28.37	177.70	11.16	-43.0	-45.9	16.4	0.00e+00	0	42	0	82837504	57	5045
2026-01-29 10:25:29.37	177.74	11.25	-43.1	-45.9	17.6	0.00e+00	0	42	0	84934656	57	5045
2026-01-29 10:25:30.36	177.78	11.34	-43.1	-45.8	17.7	0.00e+00	0	42	0	87031808	57	5003
2026-01-29 10:25:31.36	177.82	11.43	-43.1	-45.8	17.7	0.00e+00	0	42	0	88080384	57	5015
2026-01-29 10:25:32.36	177.86	11.52	-43.1	-45.8	17.7	0.00e+00	0	42	0	90177536	57	5022
2026-01-29 10:25:33.35	177.90	11.61	-43.1	-45.8	17.7	0.00e+00	0	42	0	92274688	57	4986
2026-01-29 10:25:34.34	177.95	11.70	-43.2	-45.8	17.7	0.00e+00	0	42	0	94371840	57	5017
2026-01-29 10:25:35.34	177.99	11.79	-43.1	-45.7	17.8	0.00e+00	0	42	0	95420416	57	4966
2026-01-29 10:25:36.33	178.03	11.88	-43.1	-45.7	17.8	0.00e+00	0	42	0	97517568	57	4955
2026-01-29 10:25:37.33	178.07	11.97	-43.1	-45.7	17.8	0.00e+00	0	42	0	99614720	57	4945
2026-01-29 10:25:38.32	178.11	12.06	-43.2	-45.8	17.7	0.00e+00	0	42	0	101711872	57	4988
2026-01-29 10:25:39.32	178.16	12.16	-43.1	-45.7	17.8	0.00e+00	0	42	0	103809024	57	4954
2026-01-29 10:25:40.31	178.20	12.25	-43.1	-45.7	17.8	0.00e+00	0	42	0	104857600	57	4971
2026-01-29 10:25:41.31	178.24	12.34	-43.1	-45.8	17.7	0.00e+00	0	42	0	106954752	57	4989
2026-01-29 10:25:42.30	178.29	12.44	-43.2	-45.8	17.7	0.00e+00	0	42	0	109051904	57	5026
2026-01-29 10:25:43.54	178.34	12.55	-43.2	-45.9	17.7	0.00e+00	0	42	0	111149056	57	5043
2026-01-29 10:25:44.40	178.38	12.63	-43.1	-45.8	17.7	0.00e+00	0	42	0	113246208	57	5014
2026-01-29 10:25:45.70	178.44	12.76	-43.1	-45.8	17.7	0.00e+00	0	42	0	115343360	57	5008
2026-01-29 10:25:46.41	178.47	12.83	-43.1	-45.8	17.7	0.00e+00	0	42	0	116391936	57	5032
2026-01-29 10:25:47.69	178.53	12.95	-43.1	-45.8	17.8	0.00e+00	0	42	0	118489088	57	4987
2026-01-29 10:25:48.41	178.56	13.02	-43.0	-45.7	17.8	0.00e+00	0	42	0	120586240	57	4968
2026-01-29 10:25:49.69	178.62	13.14	-43.0	-45.6	17.9	0.00e+00	0	42	0	122683392	57	4895
2026-01-29 10:25:50.40	178.65	13.21	-43.0	-45.6	17.9	0.00e+00	0	42	0	123731968	57	4921
2026-01-29 10:25:51.68	178.71	13.34	-43.0	-45.7	17.8	0.00e+00	0	42	0	126877696	57	4951
2026-01-29 10:25:52.49	178.75	13.41	-42.9	-45.6	17.9	0.00e+00	0	42	0	127926272	57	4924
2026-01-29 10:25:53.62	178.80	13.53	-43.0	-45.8	17.7	0.00e+00	0	42	0	130023424	57	5009
2026-01-29 10:25:54.68	178.85	13.63	-42.9	-45.7	17.9	0.00e+00	0	42	0	132120576	57	4932
2026-01-29 10:25:55.74	178.90	13.73	-43.0	-45.7	17.8	0.00e+00	0	42	0	134217728	57	4963
2026-01-29 10:25:56.61	178.95	13.82	-42.9	-45.6	17.9	0.00e+00	0	42	0	135266304	57	4922
2026-01-29 10:25:57.75	179.00	13.93	-42.9	-45.7	17.8	0.00e+00	0	42	0	137363456	57	4950
2026-01-29 10:25:58.60	179.04	14.02	-43.0	-45.7	17.8	0.00e+00	0	42	0	139460608	57	4957
2026-01-29 10:25:59.74	179.10	14.13	-43.0	-45.8	17.8	0.00e+00	0	42	0	141557760	57	4985
2026-01-29 10:26:00.59	179.14	14.22	-43.1	-45.8	17.7	0.00e+00	0	42	0	143654912	57	5016
2026-01-29 10:26:01.72	179.20	14.33	-43.0	-45.7	17.8	0.00e+00	0	42	0	145752064	57	4967
2026-01-29 10:26:02.58	179.24	14.42	-43.0	-45.6	17.9	0.00e+00	0	42	0	146800640	57	4913
2026-01-29 10:26:03.71	179.29	14.54	-43.0	-45.7	17.8	0.00e+00	0	42	0	148897792	57	4950
2026-01-29 10:26:04.57	179.34	14.62	-43.0	-45.6	17.9	0.00e+00	0	42	0	150994944	57	4923
2026-01-29 10:26:05.70	179.40	14.74	-43.0	-45.7	17.8	0.00e+00	0	42	0	153092096	57	4978
2026-01-29 10:26:06.59	179.44	14.83	-43.1	-45.8	17.8	0.00e+00	0	42	0	154140672	57	4985
2026-01-29 10:26:07.90	179.51	14.97	-43.1	-45.9	17.7	0.00e+00	0	42	0	157286400	57	5069
2026-01-29 10:26:08.61	179.54	15.04	-43.1	-45.9	17.7	0.00e+00	0	42	0	158334976	57	5064
2026-01-29 10:26:09.89	179.61	15.18	-43.2	-45.9	17.7	0.00e+00	0	42	0	160432128	57	5086
2026-01-29 10:26:10.61	179.65	15.25	-43.3	-46.0	17.5	0.00e+00	0	42	0	162529280	57	5157
2026-01-29 10:26:11.89	179.72	15.39	-43.2	-45.9	17.7	0.00e+00	0	42	0	164626432	57	5092
2026-01-29 10:26:12.68	179.76	15.47	-43.3	-46.0	17.6	0.00e+00	0	42	0	165675008	57	5130
2026-01-29 10:26:14.16	179.84	15.63	-43.3	-46.0	17.6	0.00e+00	0	42	0	168820736	57	5114
2026-01-29 10:26:14.88	179.88	15.71	-43.3	-46.0	17.6	0.00e+00	0	42	0	169869312	57	5152
2026-01-29 10:26:16.15	179.95	15.84	-43.2	-45.9	17.7	0.00e+00	0	42	0	171966464	57	5078
2026-01-29 10:26:16.87	179.99	15.92	-43.3	-46.0	17.6	0.00e+00	0	42	0	174063616	57	5138
2026-01-29 10:26:18.15	180.06	16.06	-43.4	-46.1	17.6	0.00e+00	0	42	0	176160768	57	5168
2026-01-29 10:26:18.87	180.10	16.14	-43.2	-45.9	17.7	0.00e+00	0	42	0	177209344	57	5082
2026-01-29 10:26:20.15	180.17	16.28	-43.3	-45.9	16.5	0.00e+00	0	42	0	180355072	57	5084
2026-01-29 10:26:20.87	180.21	16.36	-43.2	-45.9	17.7	0.00e+00	0	42	0	181403648	57	5062
2026-01-29 10:26:22.15	180.28	16.50	-43.3	-46.0	17.7	0.00e+00	0	42	0	183500800	57	5122
2026-01-29 10:26:22.86	180.32	16.58	-43.3	-46.0	17.7	0.00e+00	0	42	0	184549376	57	5108
2026-01-29 10:26:24.15	180.39	16.72	-43.2	-45.9	17.7	0.00e+00	0	42	0	187695104	57	5068
2026-01-29 10:26:24.87	180.44	16.80	-43.2	-45.9	17.7	0.00e+00	0	42	0	188743680	57	5095
2026-01-29 10:26:26.15	180.51	16.94	-43.2	-45.8	17.8	0.00e+00	0	42	0	190840832	57	5010
2026-01-29 10:26:27.11	180.57	17.05	-43.1	-45.8	17.8	0.00e+00	0	42	0	192937984	57	4995
2026-01-29 10:26:28.39	180.64	17.20	-43.2	-45.8	17.7	0.00e+00	0	42	0	195035136	57	5027
2026-01-29 10:26:29.10	180.69	17.28	-43.2	-45.8	17.8	0.00e+00	0	42	0	197132288	57	5000
2026-01-29 10:26:30.74	180.78	17.46	-43.3	-45.9	17.8	0.00e+00	0	42	0	199229440	57	5047
2026-01-29 10:26:31.31	180.82	17.53	-43.4	-46.0	17.6	0.00e+00	0	42	0	201326592	57	5124
2026-01-29 10:26:33.02	180.92	17.73	-43.4	-46.0	17.6	0.00e+00	0	42	0	204472320	57	5131
2026-01-29 10:26:33.59	180.96	17.79	-43.3	-45.9	17.7	0.00e+00	0	42	0	205520896	57	5092
2026-01-29 10:26:35.24	181.06	17.99	-43.3	-45.9	17.7	0.00e+00	0	42	0	207618048	57	5081
2026-01-29 10:26:35.81	181.10	18.05	-43.3	-45.9	17.7	0.00e+00	0	42	0	209715200	57	5095
2026-01-29 10:26:37.51	181.20	18.25	-43.3	-46.0	17.6	0.00e+00	0	42	0	212860928	57	5103
2026-01-29 10:26:38.08	181.24	18.32	-43.5	-46.1	17.5	0.00e+00	0	42	0	213909504	57	5204
2026-01-29 10:26:39.96	181.36	18.54	-43.5	-46.1	17.5	0.00e+00	0	42	0	217055232	57	5195
2026-01-29 10:26:40.53	181.40	18.61	-43.5	-46.1	17.5	0.00e+00	0	42	0	218103808	57	5204
2026-01-29 10:26:42.24	181.51	18.82	-43.4	-46.0	17.6	0.00e+00	0	42	0	221249536	57	5147
2026-01-29 10:26:42.80	181.55	18.89	-43.5	-46.1	17.6	0.00e+00	0	42	0	222298112	57	5182
2026-01-29 10:26:44.51	181.66	19.09	-43.4	-46.0	17.6	0.00e+00	0	42	0	225443840	57	5128
2026-01-29 10:26:45.08	181.70	19.16	-43.4	-46.0	17.7	0.00e+00	0	42	0	226492416	57	5137
2026-01-29 10:26:46.78	181.81	19.37	-43.4	-46.1	17.6	0.00e+00	0	42	0	229638144	57	5181
2026-01-29 10:26:47.54	181.86	19.47	-43.3	-46.0	17.6	0.00e+00	0	42	0	230686720	57	5143
2026-01-29 10:26:48.82	181.95	19.62	-43.2	-45.9	17.8	0.00e+00	0	42	0	233832448	57	5064
2026-01-29 10:26:49.53	182.00	19.71	-43.3	-45.9	17.8	0.00e+00	0	42	0	234881024	57	5086
2026-01-29 10:26:50.81	182.09	19.87	-43.3	-45.9	17.7	0.00e+00	0	42	0	236978176	57	5079
2026-01-29 10:26:51.54	182.14	19.97	-43.3	-45.9	17.7	0.00e+00	0	42	0	239075328	57	5085
2026-01-29 10:26:52.82	182.23	20.13	-43.4	-46.1	17.6	0.00e+00	0	42	0	241172480	57	5167
2026-01-29 10:26:53.55	182.29	20.22	-43.3	-46.0	17.7	0.00e+00	0	42	0	242221056	57	5139
2026-01-29 10:26:54.82	182.38	20.38	-43.3	-46.0	17.6	0.00e+00	0	42	0	245366784	57	5148
2026-01-29 10:26:55.55	182.43	20.48	-43.4	-46.1	17.6	0.00e+00	0	42	0	246415360	57	5183
2026-01-29 10:26:56.83	182.52	20.64	-43.5	-46.3	17.4	0.00e+00	0	42	0	248512512	57	5288
2026-01-29 10:26:57.57	182.58	20.74	-43.4	-46.2	17.5	0.00e+00	0	42	0	249561088	57	5237
2026-01-29 10:26:58.85	182.67	20.90	-43.5	-46.2	17.4	0.00e+00	0	42	0	252706816	57	5271
2026-01-29 10:26:59.58	182.73	21.00	-43.5	-46.2	17.4	0.00e+00	0	42	0	253755392	57	5269
2026-01-29 10:27:00.86	182.83	21.17	-43.5	-46.2	17.5	0.00e+00	0	42	0	255852544	57	5271
2026-01-29 10:27:01.58	182.88	21.26	-43.4	-46.1	17.6	0.00e+00	0	42	0	257949696	57	5203
2026-01-29 10:27:02.86	182.98	21.43	-43.4	-46.0	17.7	0.00e+00	0	42	0	260046848	57	5148
2026-01-29 10:27:03.57	183.03	21.53	-43.4	-46.0	17.6	0.00e+00	0	42	0	261095424	57	5155
2026-01-29 10:27:04.86	183.13	21.70	-43.5	-46.1	17.5	0.00e+00	0	42	0	264241152	57	5216
2026-01-29 10:27:05.65	183.20	21.81	-43.3	-46.0	17.7	0.00e+00	0	42	0	265289728	57	5118
2026-01-29 10:27:07.15	183.32	22.01	-43.3	-45.9	17.8	0.00e+00	0	43	0	268435456	57	5075
2026-01-29 10:27:07.86	183.37	22.11	-43.3	-45.9	17.8	0.00e+00	0	42	0	269484032	57	5054
2026-01-29 10:27:09.31	183.49	22.31	-43.2	-45.7	18.0	0.00e+00	0	43	0	271581184	57	4972
2026-01-29 10:27:10.02	183.55	22.41	-43.2	-45.8	17.9	0.00e+00	0	42	0	273678336	57	5020
2026-01-29 10:27:11.30	183.65	22.58	-43.2	-45.7	18.0	0.00e+00	0	42	0	275775488	57	4972
2026-01-29 10:27:12.03	183.72	22.68	-43.2	-45.7	18.0	0.00e+00	0	42	0	276824064	57	4951
2026-01-29 10:27:13.30	183.82	22.86	-43.0	-45.5	18.2	0.00e+00	0	43	0	279969792	57	4835
2026-01-29 10:27:14.02	183.88	22.96	-43.0	-45.5	18.1	0.00e+00	0	42	0	281018368	57	4858
2026-01-29 10:27:15.30	183.99	23.14	-42.9	-45.4	18.3	0.00e+00	0	43	0	283115520	57	4779
2026-01-29 10:27:16.03	184.06	23.25	-42.9	-45.4	18.3	0.00e+00	0	42	0	284164096	57	4772
2026-01-29 10:27:17.31	184.17	23.43	-42.9	-45.4	18.3	0.00e+00	0	42	0	287309824	57	4777
2026-01-29 10:27:18.17	184.24	23.55	-42.7	-45.1	18.5	0.00e+00	0	42	0	288358400	57	4647
2026-01-29 10:27:19.60	184.37	23.76	-42.7	-45.1	18.6	0.00e+00	0	42	0	291504128	57	4605
2026-01-29 10:27:20.31	184.43	23.86	-42.7	-45.1	18.6	0.00e+00	0	42	0	292552704	57	4604
2026-01-29 10:27:21.59	184.55	24.05	-42.7	-45.1	18.6	0.00e+00	0	42	0	294649856	57	4609
2026-01-29 10:27:22.30	184.61	24.15	-42.7	-45.1	18.6	0.00e+00	0	42	0	296747008	57	4604
2026-01-29 10:27:23.58	184.73	24.34	-42.5	-44.9	18.8	0.00e+00	0	42	0	298844160	56	4763
2026-01-29 10:27:24.29	184.80	24.45	-42.4	-44.8	18.9	0.00e+00	0	42	0	299892736	56	4708
2026-01-29 10:27:25.57	184.92	24.64	-42.4	-44.7	19.0	0.00e+00	0	43	0	303038464	56	4683
2026-01-29 10:27:26.28	184.98	24.75	-42.5	-44.8	18.8	0.00e+00	0	42	0	304087040	56	4741
2026-01-29 10:27:27.56	185.11	24.94	-42.5	-44.8	18.9	0.00e+00	0	42	0	306184192	56	4747
2026-01-29 10:27:28.27	185.17	25.05	-42.4	-44.8	18.9	0.00e+00	0	43	0	307232768	56	4708
2026-01-29 10:27:29.55	185.30	25.24	-42.4	-44.8	18.9	0.00e+00	0	42	0	310378496	56	4706
2026-01-29 10:27:30.26	185.37	25.35	-42.4	-44.8	18.9	0.00e+00	0	42	0	311427072	56	4723
2026-01-29 10:27:31.54	185.49	25.55	-42.4	-44.7	19.0	0.00e+00	0	42	0	313524224	56	4685
2026-01-29 10:27:32.27	185.57	25.66	-42.2	-44.6	19.1	0.00e+00	0	42	0	315621376	56	4599
2026-01-29 10:27:33.61	185.70	25.87	-42.2	-44.5	19.1	0.00e+00	0	42	0	317718528	56	4595
2026-01-29 10:27:34.32	185.77	25.98	-42.2	-44.6	19.1	0.00e+00	0	43	0	318767104	56	4599
2026-01-29 10:27:35.66	185.91	26.19	-42.1	-44.4	19.3	0.00e+00	0	42	0	321912832	56	4496
2026-01-29 10:27:36.37	185.99	26.30	-42.0	-44.3	19.3	0.00e+00	0	42	0	322961408	56	4466
2026-01-29 10:27:37.73	186.13	26.52	-42.1	-44.3	19.3	0.00e+00	0	42	0	325058560	56	4480
2026-01-29 10:27:38.44	186.20	26.63	-42.0	-44.3	19.4	0.00e+00	0	42	0	327155712	56	4445
2026-01-29 10:27:39.72	186.34	26.83	-41.8	-44.1	19.4	0.00e+00	0	43	0	329252864	55	4612
2026-01-29 10:27:40.43	186.42	26.95	-41.8	-44.0	19.4	0.00e+00	0	42	0	330301440	55	4592
2026-01-29 10:27:41.71	186.56	27.16	-41.9	-44.2	19.3	0.00e+00	0	42	0	332398592	55	4658
2026-01-29 10:27:42.44	186.64	27.28	-42.0	-44.2	19.3	0.00e+00	0	43	0	334495744	55	4705
2026-01-29 10:27:43.71	186.78	27.48	-42.2	-44.5	19.0	0.00e+00	0	42	0	336592896	55	4851
2026-01-29 10:27:44.45	186.86	27.61	-42.2	-44.5	19.0	0.00e+00	0	42	0	337641472	55	4860
2026-01-29 10:27:45.73	187.01	27.82	-42.3	-44.6	18.9	0.00e+00	0	42	0	340787200	55	4913
2026-01-29 10:27:46.46	187.09	27.94	-42.4	-44.7	18.8	0.00e+00	0	42	0	341835776	55	4965
2026-01-29 10:27:47.73	187.24	28.15	-42.5	-44.9	18.7	0.00e+00	0	42	0	343932928	55	5042
2026-01-29 10:27:48.47	187.32	28.28	-42.6	-44.9	18.6	0.00e+00	0	42	0	344981504	55	5086
2026-01-29 10:27:49.75	187.47	28.49	-42.8	-45.3	18.5	0.00e+00	0	42	0	348127232	56	4985
2026-01-29 10:27:50.50	187.56	28.62	-42.9	-45.4	18.4	0.00e+00	0	42	0	349175808	56	5048
2026-01-29 10:27:51.77	187.72	28.84	-43.1	-45.6	18.1	0.00e+00	0	42	0	351272960	56	5180
2026-01-29 10:27:52.58	187.82	28.98	-43.2	-45.8	18.0	0.00e+00	0	42	0	353370112	57	4990
2026-01-29 10:27:53.71	187.95	29.17	-43.2	-45.8	18.0	0.00e+00	0	42	0	355467264	57	5007
2026-01-29 10:27:54.74	188.08	29.35	-43.4	-46.0	17.8	0.00e+00	0	42	0	357564416	57	5116
2026-01-29 10:27:55.73	188.21	29.52	-43.5	-46.1	17.7	0.00e+00	0	42	0	358612992	57	5187
2026-01-29 10:27:56.73	188.34	29.70	-43.4	-46.0	17.7	0.00e+00	0	42	0	360710144	57	5155
2026-01-29 10:27:57.72	188.46	29.88	-43.5	-46.1	17.6	0.00e+00	0	42	0	362807296	57	5179
2026-01-29 10:27:58.71	188.59	30.05	-43.5	-46.1	17.6	0.00e+00	0	42	0	364904448	57	5213
2026-01-29 10:27:59.71	188.72	30.23	-43.7	-46.3	17.5	0.00e+00	0	42	0	367001600	57	5294
2026-01-29 10:28:00.71	188.86	30.41	-43.8	-46.4	17.4	0.00e+00	0	42	0	368050176	58	5061
2026-01-29 10:28:01.70	188.99	30.59	-43.9	-46.6	17.2	0.00e+00	0	42	0	370147328	58	5170
2026-01-29 10:28:02.69	189.12	30.77	-44.0	-46.7	17.0	0.00e+00	0	42	0	372244480	58	5265
2026-01-29 10:28:03.69	189.26	30.95	-44.1	-46.8	17.0	0.00e+00	0	43	0	374341632	58	5313
2026-01-29 10:28:04.68	189.40	31.13	-44.2	-47.0	16.8	0.00e+00	0	42	0	375390208	59	5107
2026-01-29 10:28:05.67	189.54	31.31	-44.5	-47.4	16.5	0.00e+00	0	42	0	377487360	59	5354
2026-01-29 10:28:06.67	189.68	31.50	-44.5	-47.4	16.4	0.00e+00	0	43	0	379584512	59	5396
2026-01-29 10:28:07.66	189.82	31.68	-44.7	-47.7	16.1	0.00e+00	0	42	0	381681664	60	5272
2026-01-29 10:28:08.66	189.96	31.87	-44.9	-48.0	15.8	0.00e+00	0	43	0	383778816	60	5437
2026-01-29 10:28:09.82	190.13	32.09	-45.0	-48.1	15.7	0.00e+00	0	43	0	385875968	60	5527
2026-01-29 10:28:10.71	190.27	32.26	-45.1	-48.3	15.6	0.00e+00	0	42	0	386924544	60	5597
2026-01-29 10:28:12.02	190.46	32.51	-45.1	-48.4	15.5	0.00e+00	0	43	0	390070272	60	5665
2026-01-29 10:28:12.73	190.57	32.64	-45.2	-48.4	15.5	0.00e+00	0	43	0	391118848	61	5388
2026-01-29 10:28:14.22	190.80	32.93	-45.3	-48.6	15.2	0.00e+00	0	43	0	394264576	61	5492
2026-01-29 10:28:14.93	190.91	33.07	-45.2	-48.4	15.5	0.00e+00	0	43	0	395313152	61	5362
2026-01-29 10:28:16.21	191.11	33.32	-45.1	-48.2	15.6	0.00e+00	0	42	0	397410304	61	5278
2026-01-29 10:28:16.93	191.23	33.46	-45.1	-48.3	15.6	0.00e+00	0	42	0	398458880	61	5317
2026-01-29 10:28:18.22	191.44	33.71	-45.0	-48.2	15.7	0.00e+00	0	42	0	401604608	61	5244
2026-01-29 10:28:18.96	191.56	33.86	-45.0	-48.1	15.7	0.00e+00	0	42	0	402653184	61	5207
2026-01-29 10:28:20.24	191.77	34.11	-45.1	-48.3	15.6	0.00e+00	0	42	0	404750336	61	5318
2026-01-29 10:28:20.98	191.89	34.26	-45.2	-48.5	15.4	0.00e+00	0	42	0	406847488	61	5428
2026-01-29 10:28:22.26	192.11	34.52	-45.4	-48.7	15.1	0.00e+00	0	42	0	408944640	61	5588
2026-01-29 10:28:22.97	192.23	34.66	-45.4	-48.8	15.1	7.00e-07	0	43	0	409993216	61	5603
2026-01-29 10:28:24.25	192.45	34.92	-45.2	-48.5	15.4	0.00e+00	0	42	0	412090368	61	5411
2026-01-29 10:28:24.96	192.58	35.07	-45.1	-48.3	15.6	0.00e+00	0	42	0	414187520	61	5294
2026-01-29 10:28:26.23	192.80	35.33	-45.1	-48.3	15.6	0.00e+00	0	43	0	416284672	61	5336
2026-01-29 10:28:27.17	192.97	35.52	-45.1	-48.3	15.6	0.00e+00	0	42	0	418381824	61	5309
2026-01-29 10:28:28.46	193.21	35.79	-45.1	-48.3	15.6	0.00e+00	0	42	0	420478976	61	5295
2026-01-29 10:28:29.20	193.35	35.94	-45.1	-48.2	15.7	0.00e+00	0	43	0	421527552	61	5275
2026-01-29 10:28:30.48	193.59	36.21	-45.2	-48.4	15.5	0.00e+00	0	43	0	424673280	61	5371
2026-01-29 10:28:31.20	193.72	36.36	-45.2	-48.4	15.5	0.00e+00	0	42	0	425721856	61	5358
2026-01-29 10:28:32.83	194.04	36.71	-45.1	-48.3	15.6	7.00e-07	0	43	0	428867584	61	5312
2026-01-29 10:28:33.40	194.15	36.83	-45.1	-48.2	15.7	0.00e+00	0	43	0	429916160	61	5245
2026-01-29 10:28:35.10	194.48	37.19	-45.0	-48.1	15.8	0.00e+00	0	43	0	433061888	61	5183
2026-01-29 10:28:35.71	194.61	37.32	-45.0	-48.0	15.9	0.00e+00	0	42	0	434110464	61	5148
2026-01-29 10:28:37.28	194.93	37.66	-45.1	-48.2	15.7	0.00e+00	0	43	0	437256192	61	5275
2026-01-29 10:28:37.99	195.08	37.82	-45.1	-48.3	15.5	0.00e+00	0	42	0	438304768	61	5333
2026-01-29 10:28:39.27	195.34	38.10	-45.3	-48.5	15.4	0.00e+00	0	43	0	440401920	61	5435
2026-01-29 10:28:40.01	195.50	38.26	-45.2	-48.5	15.4	0.00e+00	0	42	0	442499072	61	5404
2026-01-29 10:28:41.29	195.78	38.54	-44.9	-48.0	15.9	0.00e+00	0	42	0	444596224	61	5135
2026-01-29 10:28:42.01	195.93	38.70	-44.9	-48.0	15.9	0.00e+00	0	42	0	445644800	61	5118
2026-01-29 10:28:43.29	196.22	38.99	-44.8	-47.9	16.0	0.00e+00	0	42	0	447741952	61	5066
2026-01-29 10:28:44.00	196.38	39.14	-44.8	-47.8	16.1	0.00e+00	0	42	0	449839104	61	5011
2026-01-29 10:28:45.28	196.67	39.43	-44.9	-47.9	16.0	0.00e+00	0	43	0	451936256	61	5081
2026-01-29 10:28:46.12	196.86	39.62	-44.8	-47.8	16.1	0.00e+00	0	42	0	454033408	61	5029
2026-01-29 10:28:47.26	197.13	39.88	-44.8	-47.9	16.0	0.00e+00	0	43	0	456130560	61	5047
2026-01-29 10:28:48.30	197.37	40.11	-44.7	-47.7	16.2	0.00e+00	0	43	0	458227712	61	4975
2026-01-29 10:28:49.44	197.65	40.37	-44.6	-47.6	16.3	0.00e+00	0	43	0	459276288	61	4911
2026-01-29 10:28:50.35	197.87	40.58	-44.5	-47.5	16.5	0.00e+00	0	43	0	461373440	61	4828
2026-01-29 10:28:51.35	198.12	40.81	-44.2	-47.0	17.0	0.00e+00	0	43	0	463470592	60	4821
2026-01-29 10:28:52.54	198.42	41.09	-44.0	-46.8	17.1	0.00e+00	0	43	0	465567744	60	4712
2026-01-29 10:28:53.40	198.64	41.29	-43.9	-46.6	17.2	0.00e+00	0	43	0	467664896	59	4913
2026-01-29 10:28:54.53	198.93	41.55	-43.8	-46.5	17.4	0.00e+00	0	42	0	469762048	59	4829
2026-01-29 10:28:55.38	199.15	41.75	-43.8	-46.4	17.4	0.00e+00	0	43	0	470810624	59	4796
2026-01-29 10:28:56.52	199.46	42.02	-43.6	-46.2	17.7	0.00e+00	0	42	0	472907776	59	4652
2026-01-29 10:28:57.37	199.69	42.22	-43.6	-46.2	17.6	0.00e+00	0	42	0	475004928	59	4677
2026-01-29 10:28:58.51	200.00	42.49	-43.6	-46.2	17.7	0.00e+00	0	42	0	477102080	59	4658
2026-01-29 10:28:59.36	200.23	42.69	-43.7	-46.4	17.4	0.00e+00	0	42	0	478150656	59	4781
2026-01-29 10:29:00.50	200.56	42.96	-44.2	-47.0	16.9	0.00e+00	0	42	0	480247808	59	5124
2026-01-29 10:29:01.35	200.80	43.16	-44.2	-47.0	16.9	0.00e+00	0	43	0	482344960	59	5159
2026-01-29 10:29:02.49	201.13	43.43	-44.1	-46.8	17.1	0.00e+00	0	43	0	484442112	59	5013
2026-01-29 10:29:03.34	201.38	43.64	-44.1	-46.8	17.1	0.00e+00	0	43	0	485490688	59	5005
2026-01-29 10:29:04.48	201.72	43.91	-44.0	-46.6	17.2	0.00e+00	0	43	0	487587840	59	4915
2026-01-29 10:29:05.33	201.98	44.11	-43.9	-46.6	17.3	0.00e+00	0	43	0	489684992	59	4883
2026-01-29 10:29:06.47	202.33	44.39	-44.0	-46.7	17.2	0.00e+00	0	43	0	491782144	59	4950
2026-01-29 10:29:07.32	202.59	44.60	-44.2	-47.0	16.9	0.00e+00	0	42	0	492830720	59	5125
2026-01-29 10:29:08.46	202.96	44.87	-44.9	-47.9	16.1	0.00e+00	0	43	0	495976448	60	5371
2026-01-29 10:29:09.31	203.23	45.08	-45.2	-48.4	15.6	0.00e+00	0	42	0	497025024	60	5658
2026-01-29 10:29:10.45	203.60	45.36	-45.0	-48.1	15.9	0.00e+00	0	43	0	499122176	61	5176
2026-01-29 10:29:11.30	203.88	45.56	-45.0	-48.0	15.9	0.00e+00	0	43	0	501219328	61	5132
2026-01-29 10:29:12.69	204.35	45.90	-44.8	-47.8	16.1	0.00e+00	0	43	0	503316480	61	5022
2026-01-29 10:29:13.40	204.60	46.08	-44.6	-47.7	16.2	0.00e+00	0	43	0	504365056	61	4958
2026-01-29 10:29:14.69	205.05	46.40	-44.2	-47.2	16.7	0.00e+00	0	43	0	507510784	60	4944
2026-01-29 10:29:15.41	205.30	46.57	-44.3	-47.2	16.8	0.00e+00	0	42	0	508559360	60	4983
2026-01-29 10:29:16.69	205.76	46.89	-44.5	-47.5	16.5	0.00e+00	0	43	0	510656512	60	5112
2026-01-29 10:29:17.43	206.03	47.07	-44.7	-47.8	16.2	0.00e+00	0	43	0	512753664	60	5307
2026-01-29 10:29:18.71	206.50	47.38	-45.3	-48.7	15.3	0.00e+00	0	43	0	514850816	61	5539
2026-01-29 10:29:19.44	206.78	47.56	-45.8	-49.3	14.7	0.00e+00	0	43	0	515899392	62	5619
2026-01-29 10:29:20.72	207.27	47.88	-45.7	-49.2	14.8	0.00e+00	0	43	0	517996544	62	5533
2026-01-29 10:29:21.51	207.58	48.08	-45.5	-48.8	15.1	0.00e+00	0	43	0	520093696	62	5328
2026-01-29 10:29:22.72	208.05	48.37	-45.0	-48.1	15.9	0.00e+00	0	42	0	522190848	61	5163
2026-01-29 10:29:23.72	208.46	48.62	-44.5	-47.4	16.5	0.00e+00	0	43	0	524288000	61	4797
2026-01-29 10:29:24.71	208.86	48.86	-44.3	-47.1	16.9	0.00e+00	0	43	0	526385152	60	4873
2026-01-29 10:29:25.93	209.37	49.16	-44.7	-47.7	16.4	0.00e+00	0	42	0	528482304	60	5219
2026-01-29 10:29:26.81	209.74	49.38	-45.4	-48.6	15.4	0.00e+00	0	42	0	529530880	61	5490
2026-01-29 10:29:28.12	210.30	49.70	-45.7	-49.1	14.9	0.00e+00	0	43	0	532676608	62	5498
2026-01-29 10:29:28.83	210.61	49.88	-45.7	-49.1	14.9	0.00e+00	0	43	0	533725184	62	5518
2026-01-29 10:29:30.11	211.18	50.19	-45.3	-48.6	15.4	0.00e+00	0	43	0	535822336	62	5179
2026-01-29 10:29:30.82	211.50	50.36	-44.8	-47.9	16.0	0.00e+00	0	43	0	537919488	61	5079
2026-01-29 10:29:32.10	212.08	50.68	-44.0	-46.7	17.2	0.00e+00	0	43	0	540016640	59	4945
2026-01-29 10:29:32.82	212.42	50.85	-43.7	-46.3	17.7	0.00e+00	0	42	0	541065216	59	4706
2026-01-29 10:29:34.10	213.03	51.16	-43.6	-46.2	17.7	0.00e+00	0	43	0	543162368	58	4955
2026-01-29 10:29:34.91	213.41	51.36	-43.7	-46.3	17.6	0.00e+00	0	43	0	545259520	58	4996
2026-01-29 10:29:36.05	213.97	51.63	-43.7	-46.3	17.6	0.00e+00	0	43	0	547356672	58	5040
2026-01-29 10:29:36.90	214.39	51.84	-43.4	-45.9	18.0	0.00e+00	0	43	0	548405248	58	4785
2026-01-29 10:29:38.03	214.96	52.11	-43.2	-45.7	18.2	0.00e+00	0	43	0	550502400	58	4670
2026-01-29 10:29:38.89	215.40	52.31	-43.2	-45.7	18.2	0.00e+00	0	43	0	552599552	58	4675
2026-01-29 10:29:40.02	215.99	52.58	-43.1	-45.5	18.3	0.00e+00	0	43	0	554696704	58	4584
2026-01-29 10:29:40.87	216.44	52.78	-42.8	-45.2	18.6	0.00e+00	0	43	0	555745280	57	4686
2026-01-29 10:29:42.01	217.05	53.04	-42.9	-45.3	18.6	0.00e+00	0	43	0	558891008	57	4709
2026-01-29 10:29:42.86	217.52	53.24	-42.8	-45.2	18.7	0.00e+00	0	43	0	559939584	57	4656
2026-01-29 10:29:44.00	218.15	53.50	-42.5	-44.9	19.0	0.00e+00	0	43	0	562036736	57	4497
2026-01-29 10:29:44.85	218.63	53.70	-42.3	-44.5	19.2	0.00e+00	0	43	0	564133888	56	4582
2026-01-29 10:29:45.99	219.28	53.96	-42.1	-44.3	19.4	0.00e+00	0	42	0	566231040	56	4492
2026-01-29 10:29:46.84	219.77	54.15	-42.2	-44.4	19.3	0.00e+00	0	43	0	567279616	56	4543
2026-01-29 10:29:47.98	220.44	54.40	-42.6	-44.9	18.9	0.00e+00	0	43	0	569376768	56	4793
2026-01-29 10:29:48.83	220.95	54.59	-42.8	-45.2	18.6	0.00e+00	0	43	0	571473920	56	4983
2026-01-29 10:29:49.96	221.64	54.84	-42.8	-45.3	18.6	0.00e+00	0	43	0	573571072	56	4984
2026-01-29 10:29:50.82	222.17	55.03	-42.5	-44.9	18.9	0.00e+00	0	43	0	574619648	56	4780
2026-01-29 10:29:51.95	222.88	55.27	-42.3	-44.6	19.2	0.00e+00	0	43	0	576716800	56	4636
2026-01-29 10:29:52.81	223.42	55.45	-42.5	-44.8	19.0	0.00e+00	0	43	0	578813952	56	4727
2026-01-29 10:29:53.94	224.15	55.69	-42.9	-45.2	18.6	0.00e+00	0	43	0	580911104	56	4981
2026-01-29 10:29:54.80	224.72	55.87	-43.0	-45.4	18.4	0.00e+00	0	43	0	581959680	56	5094
2026-01-29 10:29:55.95	225.48	56.10	-43.2	-45.7	18.1	0.00e+00	0	43	0	584056832	57	4937
2026-01-29 10:29:56.80	226.05	56.27	-43.3	-45.7	18.1	0.00e+00	0	43	0	586153984	57	4981
2026-01-29 10:29:58.00	226.87	56.51	-43.5	-46.0	17.9	0.00e+00	0	43	0	588251136	57	5129
2026-01-29 10:29:58.85	227.46	56.67	-43.7	-46.3	17.6	0.00e+00	0	43	0	590348288	58	5018
2026-01-29 10:30:00.07	228.32	56.91	-43.7	-46.3	17.6	0.00e+00	0	43	0	592445440	58	4995
2026-01-29 10:30:00.92	228.93	57.06	-43.6	-46.2	17.7	0.00e+00	0	43	0	593494016	58	4933
2026-01-29 10:30:02.12	229.80	57.28	-43.6	-46.1	17.7	0.00e+00	0	43	0	595591168	58	4906
2026-01-29 10:30:02.97	230.42	57.44	-43.7	-46.3	17.6	0.00e+00	0	43	0	597688320	58	4990
2026-01-29 10:30:04.11	231.27	57.64	-43.7	-46.4	17.5	0.00e+00	0	43	0	599785472	58	5050
2026-01-29 10:30:04.96	231.91	57.78	-44.0	-46.7	17.2	0.00e+00	0	43	0	601882624	58	5243
2026-01-29 10:30:06.09	232.77	57.97	-43.8	-46.4	17.5	0.00e+00	0	43	0	603979776	58	5081
2026-01-29 10:30:06.99	233.46	58.12	-43.8	-46.4	17.4	0.00e+00	0	42	0	605028352	58	5100
2026-01-29 10:30:08.13	234.35	58.30	-43.6	-46.2	17.6	0.00e+00	0	43	0	607125504	58	4971
2026-01-29 10:30:08.98	235.02	58.43	-43.6	-46.2	17.8	0.00e+00	0	43	0	609222656	58	4970
2026-01-29 10:30:10.12	235.94	58.60	-43.7	-46.3	17.6	0.00e+00	0	43	0	611319808	58	5036
2026-01-29 10:30:10.97	236.62	58.72	-43.9	-46.6	17.3	0.00e+00	0	43	0	612368384	58	5164
2026-01-29 10:30:12.10	237.54	58.88	-44.0	-46.8	17.2	0.00e+00	0	43	0	614465536	58	5283
2026-01-29 10:30:12.96	238.25	59.00	-43.9	-46.6	17.4	0.00e+00	0	42	0	616562688	58	5186
2026-01-29 10:30:14.09	239.19	59.14	-43.6	-46.1	17.8	0.00e+00	0	43	0	618659840	58	4920
2026-01-29 10:30:14.95	239.92	59.25	-43.4	-45.9	18.0	0.00e+00	0	43	0	619708416	58	4770
2026-01-29 10:30:16.08	240.88	59.39	-43.3	-45.8	18.2	0.00e+00	0	43	0	621805568	58	4741
2026-01-29 10:30:16.93	241.60	59.48	-43.2	-45.7	18.2	0.00e+00	0	43	0	623902720	58	4655
2026-01-29 10:30:18.07	242.59	59.61	-43.0	-45.4	18.4	0.00e+00	0	43	0	625999872	58	4541
2026-01-29 10:30:18.92	243.33	59.69	-42.9	-45.3	18.4	0.00e+00	0	43	0	628097024	57	4750
2026-01-29 10:30:20.13	244.39	59.81	-43.3	-45.8	18.1	0.00e+00	0	43	0	630194176	57	4985
2026-01-29 10:30:20.98	245.14	59.89	-43.5	-46.0	17.9	0.00e+00	0	43	0	631242752	57	5121
2026-01-29 10:30:22.11	246.15	59.98	-44.0	-46.7	17.3	0.00e+00	0	43	0	633339904	58	5241
2026-01-29 10:30:22.96	246.91	60.05	-43.9	-46.5	17.4	0.00e+00	0	43	0	635437056	58	5133
2026-01-29 10:30:24.10	247.93	60.13	-43.4	-46.0	17.9	0.00e+00	0	43	0	637534208	58	4824
2026-01-29 10:30:25.06	248.80	60.19	-43.5	-46.1	17.8	0.00e+00	0	43	0	639631360	58	4887
2026-01-29 10:30:26.06	249.71	60.25	-43.9	-46.5	17.5	0.00e+00	0	43	0	640679936	58	5107
2026-01-29 10:30:27.05	250.62	60.31	-44.3	-47.0	16.9	0.00e+00	0	43	0	642777088	59	5155
2026-01-29 10:30:28.05	251.53	60.35	-44.3	-47.1	16.9	0.00e+00	0	43	0	644874240	59	5189
2026-01-29 10:30:29.04	252.44	60.39	-44.0	-46.7	17.2	0.00e+00	0	43	0	646971392	59	4976
2026-01-29 10:30:30.04	253.37	60.43	-43.4	-46.0	17.9	0.00e+00	0	43	0	648019968	58	4835
2026-01-29 10:30:31.03	254.28	60.45	-43.5	-46.1	17.9	0.00e+00	0	43	0	650117120	58	4878
2026-01-29 10:30:32.03	255.21	60.47	-43.8	-46.4	17.5	0.00e+00	0	43	0	652214272	58	5067
2026-01-29 10:30:33.03	256.14	60.49	-44.0	-46.6	17.3	0.00e+00	0	42	0	654311424	58	5213
2026-01-29 10:30:34.02	257.05	60.50	-43.7	-46.3	17.7	0.00e+00	0	43	0	656408576	58	4991
2026-01-29 10:30:35.01	257.97	60.50	-43.7	-46.2	17.7	0.00e+00	0	42	0	657457152	58	4972
2026-01-29 10:30:36.01	258.90	60.49	-43.6	-46.2	17.7	0.00e+00	0	43	0	659554304	58	4952
2026-01-29 10:30:37.01	259.83	60.48	-43.4	-45.9	17.9	0.00e+00	0	42	0	661651456	58	4795
2026-01-29 10:30:38.00	260.75	60.46	-42.7	-45.1	18.8	0.00e+00	0	43	0	663748608	57	4618
2026-01-29 10:30:38.99	261.66	60.44	-43.0	-45.4	18.4	0.00e+00	0	43	0	664797184	57	4806
2026-01-29 10:30:39.98	262.58	60.41	-43.0	-45.4	18.5	0.00e+00	0	42	0	666894336	57	4782
2026-01-29 10:30:40.98	263.50	60.37	-42.7	-45.0	18.8	0.00e+00	0	43	0	668991488	57	4568
2026-01-29 10:30:41.98	264.42	60.32	-42.4	-44.7	18.9	0.00e+00	0	43	0	671088640	56	4680
2026-01-29 10:30:42.97	265.32	60.27	-42.7	-45.0	18.8	0.00e+00	0	43	0	673185792	56	4860
2026-01-29 10:30:43.96	266.22	60.22	-42.8	-45.2	18.7	0.00e+00	0	43	0	674234368	56	4967
2026-01-29 10:30:44.96	267.13	60.15	-43.0	-45.5	18.4	0.00e+00	0	43	0	676331520	56	5113
2026-01-29 10:30:45.96	268.03	60.08	-43.4	-46.0	17.9	0.00e+00	0	43	0	678428672	57	5105
2026-01-29 10:30:46.95	268.92	60.01	-43.0	-45.4	18.5	0.00e+00	0	43	0	680525824	57	4806
2026-01-29 10:30:47.95	269.81	59.93	-43.0	-45.4	18.5	0.00e+00	0	43	0	681574400	57	4773
2026-01-29 10:30:48.99	270.73	59.83	-44.0	-46.7	17.3	0.00e+00	0	43	0	683671552	58	5234
2026-01-29 10:30:49.92	271.55	59.75	-44.6	-47.4	16.6	0.00e+00	0	43	0	685768704	59	5392
2026-01-29 10:30:50.92	272.42	59.65	-44.3	-47.1	16.8	0.00e+00	0	43	0	687865856	59	5189
2026-01-29 10:30:51.91	273.28	59.54	-44.1	-46.9	17.0	0.00e+00	0	43	0	689963008	59	5043
2026-01-29 10:30:52.90	274.13	59.43	-44.1	-46.8	17.1	0.00e+00	0	43	0	691011584	59	5027
2026-01-29 10:30:53.90	274.98	59.32	-44.4	-47.2	16.8	0.00e+00	0	42	0	693108736	59	5257
2026-01-29 10:30:54.89	275.81	59.20	-44.6	-47.5	16.5	0.00e+00	0	43	0	695205888	59	5427
2026-01-29 10:30:55.89	276.65	59.07	-45.2	-48.3	15.7	0.00e+00	0	43	0	697303040	61	5333
2026-01-29 10:30:56.88	277.47	58.94	-46.2	-49.9	14.1	1.50e-06	0	43	0	698351616	63	5657
2026-01-29 10:30:57.87	278.28	58.80	-46.3	-50.1	13.9	2.20e-06	0	43	0	700448768	63	5833
2026-01-29 10:30:58.87	279.09	58.66	-46.1	-49.8	14.3	1.50e-06	0	43	0	702545920	63	5606
2026-01-29 10:30:59.86	279.88	58.52	-46.5	-50.4	13.6	3.80e-06	0	42	0	704643072	63	6051
2026-01-29 10:31:00.88	280.69	58.36	-46.1	-49.8	14.2	4.50e-06	0	43	0	706740224	63	5618
2026-01-29 10:31:01.87	281.47	58.21	-46.0	-49.5	14.5	7.00e-07	0	43	0	707788800	63	5429
2026-01-29 10:31:02.87	282.24	58.05	-45.9	-49.4	14.6	0.00e+00	0	43	0	709885952	63	5381
2026-01-29 10:31:03.96	283.08	57.87	-46.4	-50.3	13.8	2.20e-06	0	43	0	711983104	63	5945
2026-01-29 10:31:04.82	283.73	57.72	-46.1	-49.9	14.2	4.50e-06	0	43	0	714080256	63	5666
2026-01-29 10:31:05.95	284.57	57.53	-44.9	-47.9	16.1	0.00e+00	0	43	0	716177408	61	5090
2026-01-29 10:31:06.81	285.21	57.37	-44.3	-47.2	16.8	0.00e+00	0	43	0	717225984	60	4944
2026-01-29 10:31:07.95	286.03	57.17	-44.2	-47.0	17.0	0.00e+00	0	43	0	719323136	60	4850
2026-01-29 10:31:08.80	286.64	57.01	-44.1	-46.7	17.3	0.00e+00	0	43	0	721420288	60	4701
2026-01-29 10:31:09.93	287.44	56.80	-44.6	-47.4	16.5	0.00e+00	0	42	0	723517440	60	5099
2026-01-29 10:31:10.78	288.04	56.63	-44.3	-47.1	16.9	0.00e+00	0	43	0	724566016	60	4882
2026-01-29 10:31:11.92	288.82	56.41	-43.5	-46.0	17.9	0.00e+00	0	43	0	726663168	59	4570
2026-01-29 10:31:12.78	289.41	56.24	-43.2	-45.6	18.3	0.00e+00	0	43	0	728760320	58	4620
2026-01-29 10:31:13.91	290.16	56.02	-42.9	-45.3	18.6	0.00e+00	0	43	0	730857472	57	4720
2026-01-29 10:31:14.77	290.73	55.84	-42.7	-45.1	18.8	0.00e+00	0	43	0	731906048	57	4606
2026-01-29 10:31:15.98	291.52	55.59	-42.1	-44.3	19.6	0.00e+00	0	43	0	735051776	56	4480
2026-01-29 10:31:16.83	292.06	55.41	-41.4	-43.5	20.1	0.00e+00	0	42	0	736100352	54	4559
2026-01-29 10:31:17.97	292.78	55.17	-41.5	-43.6	20.1	0.00e+00	0	43	0	738197504	54	4612
2026-01-29 10:31:18.82	293.31	54.99	-42.0	-44.3	19.4	0.00e+00	0	43	0	740294656	54	4997
2026-01-29 10:31:20.07	294.08	54.72	-42.2	-44.5	19.2	0.00e+00	0	43	0	742391808	55	4842
2026-01-29 10:31:20.92	294.59	54.53	-41.4	-43.5	20.1	0.00e+00	0	43	0	743440384	54	4567
2026-01-29 10:31:22.06	295.26	54.28	-40.5	-42.5	21.1	0.00e+00	0	43	0	745537536	53	4316
2026-01-29 10:31:22.91	295.76	54.09	-40.6	-42.6	21.0	0.00e+00	0	43	0	747634688	53	4351
2026-01-29 10:31:24.05	296.41	53.83	-41.5	-43.6	20.1	0.00e+00	0	43	0	749731840	53	4898
2026-01-29 10:31:24.90	296.90	53.64	-41.9	-44.1	19.6	0.00e+00	0	42	0	751828992	54	4884
2026-01-29 10:31:26.03	297.53	53.38	-42.0	-44.2	19.4	0.00e+00	0	43	0	752877568	55	4705
2026-01-29 10:31:26.89	298.00	53.18	-41.6	-43.8	19.9	0.00e+00	0	43	0	754974720	55	4460
2026-01-29 10:31:28.03	298.61	52.91	-41.0	-43.1	20.5	0.00e+00	0	43	0	757071872	54	4352
2026-01-29 10:31:28.88	299.07	52.72	-40.6	-42.6	20.9	0.00e+00	0	43	0	759169024	53	4376
2026-01-29 10:31:30.02	299.66	52.45	-40.8	-42.8	20.8	0.00e+00	0	43	0	761266176	53	4482
2026-01-29 10:31:30.87	300.10	52.25	-41.5	-43.6	20.0	0.00e+00	0	43	0	762314752	53	4920
2026-01-29 10:31:32.00	300.67	51.98	-42.1	-44.4	19.3	0.00e+00	0	43	0	764411904	54	5062
2026-01-29 10:31:32.86	301.10	51.77	-41.8	-44.0	19.7	0.00e+00	0	43	0	766509056	54	4825
2026-01-29 10:31:34.00	301.66	51.50	-41.7	-43.8	19.8	0.00e+00	0	43	0	768606208	54	4754
2026-01-29 10:31:34.85	302.07	51.30	-42.2	-44.4	19.4	0.00e+00	0	42	0	769654784	54	5073
2026-01-29 10:31:35.98	302.61	51.02	-43.3	-45.8	18.1	0.00e+00	0	43	0	771751936	57	5033
2026-01-29 10:31:36.84	303.01	50.82	-43.7	-46.4	17.5	0.00e+00	0	43	0	773849088	58	5047
2026-01-29 10:31:37.98	303.54	50.54	-43.6	-46.2	17.8	0.00e+00	0	43	0	775946240	58	4929
2026-01-29 10:31:38.83	303.93	50.33	-43.6	-46.2	17.9	0.00e+00	0	43	0	776994816	58	4929
2026-01-29 10:31:39.97	304.43	50.06	-43.2	-45.7	18.2	0.00e+00	0	43	0	779091968	58	4703
2026-01-29 10:31:40.82	304.81	49.85	-43.2	-45.7	18.2	0.00e+00	0	43	0	781189120	58	4684
2026-01-29 10:31:41.96	305.30	49.57	-44.3	-47.2	16.8	0.00e+00	0	43	0	783286272	59	5238
2026-01-29 10:31:42.81	305.66	49.36	-45.5	-49.0	15.1	0.00e+00	0	43	0	785383424	61	5785
2026-01-29 10:31:43.95	306.14	49.08	-46.0	-49.9	14.2	5.30e-06	0	43	0	787480576	62	6012
2026-01-29 10:31:44.80	306.49	48.87	-45.1	-48.4	15.6	0.00e+00	0	43	0	788529152	62	5072
2026-01-29 10:31:46.02	306.99	48.58	-44.2	-47.1	16.9	0.00e+00	0	43	0	790626304	60	4917
2026-01-29 10:31:46.87	307.33	48.37	-44.3	-47.2	16.8	0.00e+00	0	43	0	792723456	60	4933
2026-01-29 10:31:48.00	307.77	48.09	-45.3	-48.6	15.4	0.00e+00	0	43	0	794820608	61	5489
2026-01-29 10:31:48.86	308.10	47.88	-45.6	-49.0	15.1	0.00e+00	0	43	0	795869184	61	5778
2026-01-29 10:31:49.99	308.54	47.60	-46.1	-49.8	14.2	2.20e-06	0	43	0	797966336	62	5955
2026-01-29 10:31:50.84	308.85	47.39	-46.3	-50.3	13.8	3.00e-06	0	43	0	800063488	63	5948
2026-01-29 10:31:51.98	309.28	47.11	-46.0	-49.9	14.0	6.10e-06	0	43	0	802160640	63	5697
2026-01-29 10:31:52.83	309.59	46.90	-45.6	-49.2	14.8	1.50e-06	0	43	0	803209216	63	5238
2026-01-29 10:31:53.97	309.99	46.63	-45.4	-48.8	15.2	0.00e+00	0	43	0	805306368	62	5291
2026-01-29 10:31:54.82	310.29	46.42	-45.1	-48.3	15.8	0.00e+00	0	43	0	807403520	62	5020
2026-01-29 10:31:55.96	310.69	46.14	-45.8	-49.2	14.9	0.00e+00	0	43	0	809500672	62	5572
2026-01-29 10:31:56.81	310.98	45.93	-46.1	-49.8	14.2	1.50e-06	0	43	0	811597824	62	5928
2026-01-29 10:31:57.98	311.38	45.65	-45.9	-49.5	14.6	1.50e-06	0	43	0	813694976	62	5734
2026-01-29 10:31:58.83	311.66	45.44	-45.5	-48.8	15.2	0.00e+00	0	43	0	814743552	62	5300
2026-01-29 10:32:00.01	312.04	45.15	-45.3	-48.6	15.4	0.00e+00	0	43	0	816840704	62	5193
2026-01-29 10:32:00.87	312.32	44.95	-45.0	-48.2	15.9	0.00e+00	0	43	0	818937856	62	4947
2026-01-29 10:32:02.04	312.69	44.66	-44.8	-47.8	16.2	0.00e+00	0	43	0	821035008	61	5010
2026-01-29 10:32:02.89	312.96	44.46	-44.5	-47.4	16.6	0.00e+00	0	43	0	822083584	61	4809
2026-01-29 10:32:04.03	313.31	44.19	-44.8	-47.9	16.2	0.00e+00	0	43	0	824180736	60	5355
2026-01-29 10:32:04.88	313.56	43.98	-45.6	-49.1	15.0	0.00e+00	0	43	0	826277888	61	5804
2026-01-29 10:32:06.20	313.96	43.67	-46.4	-50.4	13.7	3.80e-06	0	43	0	828375040	63	6011
2026-01-29 10:32:06.91	314.17	43.50	-45.8	-49.4	14.6	5.30e-06	0	43	0	830472192	63	5391
2026-01-29 10:32:08.19	314.54	43.19	-44.3	-47.2	16.8	0.00e+00	0	43	0	832569344	60	4940
2026-01-29 10:32:08.91	314.74	43.02	-43.9	-46.6	17.4	0.00e+00	0	42	0	833617920	59	4879
2026-01-29 10:32:10.19	315.10	42.72	-43.9	-46.6	17.3	0.00e+00	0	43	0	835715072	59	4926
2026-01-29 10:32:10.99	315.32	42.53	-44.8	-47.9	16.1	0.00e+00	0	43	0	837812224	60	5379
2026-01-29 10:32:12.15	315.64	42.26	-45.4	-48.9	15.2	0.00e+00	0	43	0	839909376	61	5675
2026-01-29 10:32:13.17	315.91	42.02	-45.0	-48.1	15.9	0.00e+00	0	43	0	842006528	61	5212
2026-01-29 10:32:14.17	316.18	41.79	-44.0	-46.8	17.2	0.00e+00	0	43	0	844103680	60	4733
2026-01-29 10:32:15.16	316.44	41.56	-43.8	-46.5	17.5	0.00e+00	0	43	0	845152256	59	4832
2026-01-29 10:32:16.16	316.70	41.33	-43.8	-46.5	17.4	0.00e+00	0	43	0	847249408	59	4865
2026-01-29 10:32:17.15	316.95	41.10	-44.4	-47.3	16.7	0.00e+00	0	43	0	849346560	59	5294
2026-01-29 10:32:18.42	317.27	40.81	-44.6	-47.6	16.4	0.00e+00	0	43	0	851443712	59	5505
2026-01-29 10:32:19.19	317.46	40.63	-44.6	-47.6	16.3	0.00e+00	0	43	0	853540864	59	5506
2026-01-29 10:32:20.73	317.83	40.28	-44.7	-47.9	16.1	0.00e+00	0	43	0	855638016	60	5371
2026-01-29 10:32:21.44	318.00	40.12	-44.9	-48.1	15.9	0.00e+00	0	43	0	857735168	60	5528
2026-01-29 10:32:22.72	318.30	39.83	-45.0	-48.2	15.8	0.00e+00	0	43	0	859832320	60	5567
2026-01-29 10:32:23.46	318.47	39.66	-44.6	-47.7	16.4	0.00e+00	0	43	0	860880896	60	5219
2026-01-29 10:32:24.74	318.77	39.38	-44.1	-46.9	17.1	0.00e+00	0	43	0	862978048	60	4778
2026-01-29 10:32:25.45	318.93	39.22	-43.7	-46.3	17.6	0.00e+00	0	43	0	865075200	59	4728
2026-01-29 10:32:26.73	319.21	38.94	-43.5	-46.0	17.9	0.00e+00	0	43	0	867172352	58	4854
2026-01-29 10:32:27.46	319.37	38.77	-44.2	-46.9	17.1	0.00e+00	0	43	0	868220928	59	5078
2026-01-29 10:32:28.73	319.65	38.50	-45.3	-48.6	15.5	0.00e+00	0	43	0	871366656	61	5484
2026-01-29 10:32:29.45	319.80	38.34	-46.0	-49.6	14.5	0.00e+00	0	43	0	872415232	62	5815
2026-01-29 10:32:30.73	320.07	38.06	-45.5	-48.9	15.1	7.00e-07	0	43	0	874512384	63	5084
2026-01-29 10:32:31.44	320.22	37.90	-44.8	-47.9	16.1	0.00e+00	0	43	0	875560960	61	5056
2026-01-29 10:32:32.73	320.49	37.63	-43.5	-46.1	17.8	0.00e+00	0	43	0	878706688	59	4619
2026-01-29 10:32:33.44	320.63	37.47	-43.0	-45.4	18.5	0.00e+00	0	43	0	879755264	58	4533
2026-01-29 10:32:34.72	320.89	37.20	-42.9	-45.4	18.5	0.00e+00	0	43	0	881852416	57	4781
2026-01-29 10:32:35.43	321.03	37.05	-42.8	-45.2	18.7	0.00e+00	0	43	0	883949568	57	4686
2026-01-29 10:32:36.71	321.28	36.78	-42.7	-45.2	18.7	0.00e+00	0	43	0	886046720	57	4671
2026-01-29 10:32:37.42	321.42	36.63	-42.7	-45.2	18.7	0.00e+00	0	43	0	887095296	57	4672
2026-01-29 10:32:38.71	321.67	36.36	-43.0	-45.7	18.2	0.00e+00	0	43	0	889192448	57	4952
2026-01-29 10:32:39.42	321.80	36.21	-43.1	-45.8	18.1	0.00e+00	0	43	0	891289600	57	5033
2026-01-29 10:32:40.69	322.04	35.94	-43.5	-46.5	17.4	0.00e+00	0	43	0	893386752	57	5439
2026-01-29 10:32:41.41	322.17	35.80	-43.7	-46.8	17.1	0.00e+00	0	43	0	894435328	58	5323
2026-01-29 10:32:42.69	322.40	35.53	-43.7	-46.7	17.2	0.00e+00	0	43	0	897581056	58	5270
2026-01-29 10:32:43.40	322.53	35.39	-43.7	-46.6	17.3	0.00e+00	0	43	0	898629632	58	5214
2026-01-29 10:32:44.68	322.76	35.13	-43.1	-45.8	18.1	0.00e+00	0	43	0	900726784	58	4712
2026-01-29 10:32:45.39	322.88	34.98	-43.0	-45.5	18.4	0.00e+00	0	43	0	901775360	58	4566
2026-01-29 10:32:46.66	323.10	34.73	-43.0	-45.4	18.5	0.00e+00	0	43	0	904921088	57	4781
2026-01-29 10:32:47.37	323.22	34.58	-43.1	-45.6	18.3	0.00e+00	0	43	0	905969664	57	4880
2026-01-29 10:32:48.65	323.44	34.33	-43.3	-45.8	18.1	0.00e+00	0	43	0	908066816	57	5033
2026-01-29 10:32:49.37	323.56	34.19	-43.8	-46.4	17.6	0.00e+00	0	43	0	910163968	58	5043
2026-01-29 10:32:50.64	323.77	33.93	-44.5	-47.4	16.6	0.00e+00	0	43	0	912261120	59	5352
2026-01-29 10:32:51.36	323.89	33.79	-44.7	-47.7	16.3	0.00e+00	0	42	0	913309696	60	5257
2026-01-29 10:32:52.76	324.11	33.52	-45.2	-48.6	15.5	0.00e+00	0	43	0	916455424	61	5477
2026-01-29 10:32:53.47	324.23	33.38	-45.3	-48.7	15.3	0.00e+00	0	43	0	917504000	61	5555
2026-01-29 10:32:54.77	324.43	33.13	-45.1	-48.5	15.5	0.00e+00	0	43	0	919601152	61	5450
2026-01-29 10:32:55.48	324.54	32.99	-44.9	-48.2	15.8	0.00e+00	0	43	0	920649728	61	5233
2026-01-29 10:32:56.76	324.74	32.75	-44.6	-47.8	16.2	0.00e+00	0	43	0	923795456	61	5028
2026-01-29 10:32:57.50	324.85	32.61	-44.6	-47.8	16.2	0.00e+00	0	43	0	924844032	61	4992
2026-01-29 10:32:58.78	325.04	32.36	-44.2	-47.2	16.8	0.00e+00	0	43	0	926941184	60	4968
2026-01-29 10:32:59.49	325.15	32.23	-44.3	-47.4	16.6	0.00e+00	0	43	0	929038336	60	5085
2026-01-29 10:33:00.77	325.34	31.99	-44.4	-47.5	16.5	0.00e+00	0	42	0	931135488	60	5106
2026-01-29 10:33:01.48	325.44	31.86	-44.5	-47.6	16.4	0.00e+00	0	43	0	932184064	60	5190
2026-01-29 10:33:02.76	325.62	31.62	-44.9	-48.0	16.0	0.00e+00	0	43	0	934281216	60	5458
2026-01-29 10:33:03.47	325.72	31.49	-45.0	-48.2	15.8	0.00e+00	0	43	0	936378368	60	5589
2026-01-29 10:33:04.76	325.90	31.25	-45.3	-48.7	15.4	7.00e-07	0	43	0	938475520	61	5530
2026-01-29 10:33:05.47	326.00	31.12	-45.1	-48.4	15.6	0.00e+00	0	43	0	939524096	61	5370
2026-01-29 10:33:06.75	326.18	30.89	-45.2	-48.6	15.4	0.00e+00	0	43	0	942669824	61	5496
2026-01-29 10:33:07.68	326.31	30.72	-45.1	-48.6	15.4	0.00e+00	0	43	0	943718400	61	5480
2026-01-29 10:33:08.98	326.48	30.49	-45.2	-48.8	15.2	0.00e+00	0	43	0	946864128	61	5593
2026-01-29 10:33:09.69	326.57	30.36	-45.0	-48.6	15.4	0.00e+00	0	43	0	947912704	61	5497
2026-01-29 10:33:10.97	326.74	30.14	-45.1	-48.7	15.3	0.00e+00	0	43	0	950009856	61	5569
2026-01-29 10:33:11.68	326.84	30.01	-45.2	-48.9	15.2	0.00e+00	0	43	0	951058432	61	5678
2026-01-29 10:33:12.96	327.00	29.78	-45.0	-48.5	15.5	0.00e+00	0	43	0	954204160	61	5417
2026-01-29 10:33:13.68	327.09	29.66	-45.0	-48.4	15.6	0.00e+00	0	43	0	955252736	61	5373
2026-01-29 10:33:14.95	327.25	29.44	-44.9	-48.3	15.7	0.00e+00	0	43	0	957349888	61	5298
2026-01-29 10:33:15.67	327.34	29.31	-44.8	-48.1	15.8	0.00e+00	0	43	0	959447040	61	5210
2026-01-29 10:33:17.04	327.51	29.08	-44.6	-47.9	16.1	0.00e+00	0	43	0	961544192	61	5071
2026-01-29 10:33:17.75	327.60	28.96	-44.6	-47.9	16.1	0.00e+00	0	43	0	962592768	61	5073
2026-01-29 10:33:19.17	327.77	28.72	-44.4	-47.7	16.3	0.00e+00	0	43	0	965738496	60	5247
2026-01-29 10:33:19.88	327.85	28.60	-44.3	-47.6	16.4	0.00e+00	0	43	0	966787072	60	5178
2026-01-29 10:33:21.24	328.01	28.37	-44.4	-47.6	16.3	0.00e+00	0	43	0	968884224	60	5215
2026-01-29 10:33:21.95	328.10	28.25	-44.3	-47.4	16.6	0.00e+00	0	43	0	970981376	60	5087
2026-01-29 10:33:23.23	328.25	28.03	-44.4	-47.5	16.5	0.00e+00	0	43	0	973078528	60	5116
2026-01-29 10:33:23.94	328.33	27.92	-44.4	-47.4	16.6	0.00e+00	0	43	0	974127104	60	5054
2026-01-29 10:33:25.21	328.47	27.71	-44.4	-47.4	16.6	0.00e+00	0	43	0	977272832	60	5086
2026-01-29 10:33:25.95	328.55	27.59	-44.6	-47.7	16.3	0.00e+00	0	43	0	978321408	60	5246
2026-01-29 10:33:27.23	328.70	27.38	-44.5	-47.6	16.4	0.00e+00	0	43	0	980418560	60	5194
2026-01-29 10:33:27.94	328.77	27.26	-44.6	-47.7	16.3	0.00e+00	0	43	0	981467136	60	5237
2026-01-29 10:33:29.22	328.91	27.06	-44.8	-48.0	16.0	0.00e+00	0	43	0	984612864	60	5433
2026-01-29 10:33:29.95	328.99	26.94	-44.7	-47.9	16.0	0.00e+00	0	43	0	985661440	60	5399
2026-01-29 10:33:31.22	329.13	26.74	-44.6	-47.9	16.1	0.00e+00	0	43	0	987758592	60	5380
2026-01-29 10:33:31.97	329.21	26.62	-44.6	-47.9	16.1	0.00e+00	0	43	0	989855744	60	5365
2026-01-29 10:33:33.25	329.34	26.42	-44.3	-47.6	16.4	0.00e+00	0	43	0	991952896	60	5166
2026-01-29 10:33:33.97	329.42	26.30	-44.2	-47.4	16.6	0.00e+00	0	43	0	993001472	60	5083
2026-01-29 10:33:35.25	329.55	26.10	-43.9	-47.0	16.9	0.00e+00	0	43	0	996147200	59	5133
2026-01-29 10:33:35.98	329.62	25.99	-43.8	-46.9	17.0	0.00e+00	0	43	0	997195776	59	5068
2026-01-29 10:33:37.26	329.75	25.79	-43.5	-46.5	17.4	0.00e+00	0	43	0	999292928	59	4843
2026-01-29 10:33:37.98	329.83	25.68	-43.4	-46.3	17.6	0.00e+00	0	43	0	1000341504	58	5022
2026-01-29 10:33:39.26	329.95	25.49	-43.3	-46.2	17.7	0.00e+00	0	43	0	1003487232	58	4942
2026-01-29 10:33:39.99	330.02	25.38	-43.3	-46.1	17.7	0.00e+00	0	43	0	1004535808	58	4922
2026-01-29 10:33:41.27	330.15	25.18	-43.5	-46.4	17.5	0.00e+00	0	43	0	1006632960	58	5049
2026-01-29 10:33:41.98	330.22	25.08	-43.5	-46.3	17.6	0.00e+00	0	43	0	1008730112	58	5024
2026-01-29 10:33:43.26	330.34	24.88	-43.7	-46.6	17.3	0.00e+00	0	43	0	1010827264	58	5171
2026-01-29 10:33:44.00	330.41	24.77	-43.9	-46.8	17.1	0.00e+00	0	43	0	1011875840	58	5283
2026-01-29 10:33:45.28	330.53	24.58	-44.0	-46.9	17.0	0.00e+00	0	43	0	1013972992	58	5352
2026-01-29 10:33:45.99	330.60	24.48	-44.2	-47.1	16.9	0.00e+00	0	43	0	1016070144	58	5471
2026-01-29 10:33:47.27	330.71	24.29	-44.2	-47.1	16.8	0.00e+00	0	43	0	1018167296	59	5175
2026-01-29 10:33:48.01	330.78	24.18	-44.2	-47.2	16.7	0.00e+00	0	43	0	1019215872	59	5233
2026-01-29 10:33:49.29	330.90	24.00	-44.3	-47.3	16.6	0.00e+00	0	43	0	1022361600	59	5305
2026-01-29 10:33:50.03	330.97	23.89	-44.3	-47.2	16.7	0.00e+00	0	43	0	1023410176	59	5271
2026-01-29 10:33:51.31	331.08	23.71	-44.1	-47.0	16.9	0.00e+00	0	43	0	1025507328	59	5159
2026-01-29 10:33:52.02	331.14	23.61	-44.0	-46.9	16.9	0.00e+00	0	43	0	1027604480	59	5089
2026-01-29 10:33:53.29	331.25	23.43	-44.0	-46.9	17.0	0.00e+00	0	43	0	1029701632	59	5060
2026-01-29 10:33:54.20	331.33	23.30	-43.8	-46.6	17.2	0.00e+00	0	43	0	1030750208	59	4915
2026-01-29 10:33:55.22	331.42	23.15	-43.6	-46.3	17.6	0.00e+00	0	43	0	1032847360	59	4716
2026-01-29 10:33:56.22	331.50	23.01	-43.5	-46.1	17.7	0.00e+00	0	43	0	1034944512	58	4918
2026-01-29 10:33:57.21	331.59	22.88	-43.3	-46.0	17.9	0.00e+00	0	43	0	1037041664	58	4820
2026-01-29 10:33:58.21	331.67	22.74	-43.3	-45.9	17.9	0.00e+00	0	43	0	1039138816	58	4811
2026-01-29 10:33:59.20	331.75	22.60	-43.1	-45.7	18.1	0.00e+00	0	43	0	1040187392	58	4694
2026-01-29 10:34:00.20	331.84	22.46	-42.9	-45.6	18.2	0.00e+00	0	43	0	1042284544	57	4910
2026-01-29 10:34:01.19	331.92	22.33	-42.9	-45.6	18.2	0.00e+00	0	43	0	1044381696	57	4922
2026-01-29 10:34:02.24	332.00	22.18	-42.8	-45.6	18.2	0.00e+00	0	43	0	1046478848	57	4896
2026-01-29 10:34:03.28	332.09	22.04	-42.8	-45.5	18.3	0.00e+00	0	43	0	1048576000	57	4862
2026-01-29 10:34:04.21	332.16	21.92	-42.8	-45.6	18.1	0.00e+00	0	43	0	1049624576	57	4919
2026-01-29 10:34:05.21	332.24	21.79	-42.9	-45.7	18.1	0.00e+00	0	43	0	1051721728	57	4982
2026-01-29 10:34:06.20	332.32	21.65	-42.9	-45.7	17.9	0.00e+00	0	43	0	1053818880	57	4972
2026-01-29 10:34:07.19	332.39	21.52	-43.0	-45.8	18.0	0.00e+00	0	43	0	1055916032	57	4988
2026-01-29 10:34:08.19	332.47	21.39	-43.1	-45.8	18.0	0.00e+00	0	43	0	1056964608	57	5041
2026-01-29 10:34:09.18	332.55	21.26	-43.2	-45.9	17.9	0.00e+00	0	43	0	1059061760	57	5062
2026-01-29 10:34:10.18	332.62	21.13	-43.2	-45.9	18.0	0.00e+00	0	43	0	1061158912	57	5055
2026-01-29 10:34:11.17	332.70	21.00	-43.4	-46.0	17.8	0.00e+00	0	43	0	1063256064	57	5139
2026-01-29 10:34:12.17	332.77	20.87	-43.3	-45.9	17.8	0.00e+00	0	43	0	1065353216	57	5092
2026-01-29 10:34:13.16	332.85	20.74	-43.3	-45.9	17.9	0.00e+00	0	43	0	1066401792	57	5061
2026-01-29 10:34:14.16	332.92	20.62	-43.3	-45.9	17.9	0.00e+00	0	43	0	1068498944	57	5067
2026-01-29 10:34:15.15	332.99	20.49	-43.1	-45.7	18.1	0.00e+00	0	43	0	1070596096	57	4971
2026-01-29 10:34:16.15	333.06	20.36	-43.1	-45.7	18.1	0.00e+00	0	43	0	1072693248	57	4958
2026-01-29 10:34:17.17	333.14	20.23	-43.1	-45.7	18.1	0.00e+00	0	43	0	1074790400	57	4947
2026-01-29 10:34:18.20	333.21	20.10	-43.1	-45.7	18.1	0.00e+00	0	43	0	1075838976	57	4933
2026-01-29 10:34:19.20	333.28	19.98	-42.9	-45.5	18.3	0.00e+00	0	43	0	1077936128	57	4819
2026-01-29 10:34:20.25	333.36	19.85	-42.8	-45.4	18.4	0.00e+00	0	43	0	1080033280	57	4760
2026-01-29 10:34:21.15	333.42	19.74	-42.7	-45.2	18.5	0.00e+00	0	43	0	1082130432	57	4684
2026-01-29 10:34:22.43	333.51	19.58	-42.6	-45.1	18.6	0.00e+00	0	43	0	1084227584	57	4609
2026-01-29 10:34:23.16	333.56	19.49	-42.5	-45.0	18.7	0.00e+00	0	43	0	1085276160	57	4577
2026-01-29 10:34:24.44	333.64	19.33	-42.4	-44.9	18.9	0.00e+00	0	43	0	1087373312	56	4803
2026-01-29 10:34:25.15	333.69	19.25	-42.4	-44.9	18.9	0.00e+00	0	43	0	1089470464	56	4773
2026-01-29 10:34:26.43	333.78	19.09	-42.4	-45.0	18.8	0.00e+00	0	43	0	1091567616	56	4821
2026-01-29 10:34:27.17	333.83	19.00	-42.4	-44.9	18.8	0.00e+00	0	43	0	1092616192	56	4775
2026-01-29 10:34:28.75	333.93	18.81	-42.5	-45.1	18.7	0.00e+00	0	43	0	1095761920	56	4882
2026-01-29 10:34:29.68	333.99	18.70	-42.4	-44.9	18.8	0.00e+00	0	43	0	1097859072	56	4801
2026-01-29 10:34:30.67	334.06	18.58	-42.5	-45.0	18.8	0.00e+00	0	43	0	1099956224	56	4831
2026-01-29 10:34:31.66	334.12	18.47	-42.6	-45.1	18.6	0.00e+00	0	43	0	1101004800	56	4893
2026-01-29 10:34:32.66	334.18	18.35	-42.7	-45.2	18.6	0.00e+00	0	43	0	1103101952	56	4937
2026-01-29 10:34:33.66	334.25	18.23	-42.7	-45.2	18.5	0.00e+00	0	43	0	1105199104	56	4955
2026-01-29 10:34:34.65	334.31	18.12	-42.8	-45.3	18.4	0.00e+00	0	43	0	1107296256	56	5021
2026-01-29 10:34:35.64	334.37	18.00	-42.8	-45.3	18.4	0.00e+00	0	43	0	1109393408	56	5040
2026-01-29 10:34:36.64	334.44	17.89	-42.9	-45.5	18.3	0.00e+00	0	43	0	1110441984	56	5103
2026-01-29 10:34:37.63	334.50	17.77	-42.8	-45.4	18.4	0.00e+00	0	43	0	1112539136	56	5069
2026-01-29 10:34:38.63	334.56	17.66	-42.9	-45.4	18.3	0.00e+00	0	43	0	1114636288	56	5081
2026-01-29 10:34:39.62	334.62	17.55	-43.0	-45.6	18.1	0.00e+00	0	43	0	1116733440	56	5179
2026-01-29 10:34:40.84	334.69	17.41	-43.0	-45.7	18.0	0.00e+00	0	43	0	1118830592	56	5220
2026-01-29 10:34:41.72	334.74	17.31	-43.0	-45.6	18.0	0.00e+00	0	43	0	1119879168	56	5204
2026-01-29 10:34:43.05	334.82	17.16	-43.0	-45.5	18.1	0.00e+00	0	43	0	1123024896	56	5151
2026-01-29 10:34:43.76	334.87	17.08	-43.0	-45.6	18.0	0.00e+00	0	43	0	1124073472	56	5183
2026-01-29 10:34:45.26	334.95	16.91	-43.0	-45.6	18.1	0.00e+00	0	43	0	1127219200	56	5166
2026-01-29 10:34:45.97	335.00	16.83	-42.9	-45.5	18.2	0.00e+00	0	43	0	1128267776	56	5134
2026-01-29 10:34:47.25	335.07	16.69	-42.9	-45.5	18.2	0.00e+00	0	43	0	1130364928	56	5112
2026-01-29 10:34:47.96	335.11	16.61	-43.0	-45.5	18.2	0.00e+00	0	43	0	1132462080	56	5151
2026-01-29 10:34:49.24	335.18	16.47	-43.0	-45.5	18.2	0.00e+00	0	43	0	1134559232	56	5122
2026-01-29 10:34:49.95	335.22	16.40	-42.9	-45.4	18.3	0.00e+00	0	43	0	1135607808	56	5059
2026-01-29 10:34:51.23	335.30	16.26	-42.8	-45.3	18.3	0.00e+00	0	43	0	1137704960	56	5034
2026-01-29 10:34:51.94	335.34	16.18	-42.9	-45.4	18.3	0.00e+00	0	43	0	1139802112	56	5056
2026-01-29 10:34:53.22	335.41	16.04	-42.9	-45.4	18.3	0.00e+00	0	43	0	1141899264	56	5080
2026-01-29 10:34:53.93	335.45	15.97	-42.8	-45.3	18.4	0.00e+00	0	43	0	1142947840	56	5027
2026-01-29 10:34:55.21	335.52	15.83	-42.7	-45.2	18.5	0.00e+00	0	43	0	1146093568	56	4971
2026-01-29 10:34:56.13	335.57	15.73	-42.8	-45.3	18.5	0.00e+00	0	43	0	1147142144	56	4988
2026-01-29 10:34:57.12	335.62	15.63	-42.7	-45.2	18.5	0.00e+00	0	43	0	1149239296	56	4974
2026-01-29 10:34:58.12	335.67	15.52	-42.7	-45.3	18.5	0.00e+00	0	43	0	1151336448	56	4985
2026-01-29 10:34:59.11	335.73	15.42	-42.8	-45.3	18.4	0.00e+00	0	43	0	1153433600	56	4996
2026-01-29 10:35:00.11	335.78	15.31	-42.8	-45.4	18.3	0.00e+00	0	43	0	1154482176	56	5051
2026-01-29 10:35:01.10	335.83	15.21	-42.7	-45.3	18.4	0.00e+00	0	43	0	1156579328	56	4984
2026-01-29 10:35:02.16	335.89	15.10	-42.8	-45.4	18.3	0.00e+00	0	43	0	1158676480	56	5061
2026-01-29 10:35:03.06	335.93	15.01	-42.9	-45.5	18.2	0.00e+00	0	43	0	1160773632	56	5120
2026-01-29 10:35:04.16	335.99	14.90	-43.0	-45.6	18.1	0.00e+00	0	43	0	1162870784	56	5175
2026-01-29 10:35:05.13	336.04	14.80	-42.9	-45.5	18.2	0.00e+00	0	43	0	1163919360	56	5125
2026-01-29 10:35:06.12	336.09	14.70	-43.0	-45.6	18.1	0.00e+00	0	43	0	1166016512	56	5179
2026-01-29 10:35:07.34	336.15	14.57	-43.1	-45.7	18.0	0.00e+00	0	43	0	1168113664	56	5232
2026-01-29 10:35:08.24	336.20	14.48	-43.2	-45.8	17.9	0.00e+00	0	43	0	1170210816	56	5284
2026-01-29 10:35:09.36	336.26	14.37	-43.1	-45.7	17.9	0.00e+00	0	43	0	1172307968	57	4974
2026-01-29 10:35:10.21	336.30	14.28	-43.2	-45.8	17.9	0.00e+00	0	43	0	1173356544	57	4990
2026-01-29 10:35:11.34	336.35	14.17	-43.2	-45.9	17.7	0.00e+00	0	43	0	1175453696	57	5053
2026-01-29 10:35:12.20	336.40	14.08	-43.3	-45.9	17.7	0.00e+00	0	43	0	1177550848	57	5069
2026-01-29 10:35:13.34	336.45	13.97	-43.3	-45.9	17.7	0.00e+00	0	43	0	1179648000	57	5099
2026-01-29 10:35:14.19	336.49	13.89	-43.4	-46.1	17.6	0.00e+00	0	43	0	1180696576	57	5180
2026-01-29 10:35:15.32	336.55	13.78	-43.3	-46.1	17.6	0.00e+00	0	43	0	1183842304	57	5165
2026-01-29 10:35:16.18	336.59	13.69	-43.4	-46.2	17.5	0.00e+00	0	43	0	1184890880	57	5268
2026-01-29 10:35:17.33	336.64	13.58	-43.4	-46.2	17.5	0.00e+00	0	43	0	1186988032	57	5224
2026-01-29 10:35:18.19	336.68	13.50	-43.4	-46.2	17.5	0.00e+00	0	43	0	1189085184	57	5228
2026-01-29 10:35:19.32	336.74	13.39	-43.4	-46.3	17.4	0.00e+00	0	43	0	1191182336	57	5301
2026-01-29 10:35:20.18	336.78	13.30	-43.4	-46.3	17.4	0.00e+00	0	43	0	1192230912	57	5308
2026-01-29 10:35:21.31	336.83	13.20	-43.4	-46.3	17.4	0.00e+00	0	43	0	1194328064	57	5296
2026-01-29 10:35:22.17	336.87	13.11	-43.5	-46.4	17.3	0.00e+00	0	43	0	1196425216	57	5352
2026-01-29 10:35:23.30	336.92	13.01	-43.5	-46.4	17.3	0.00e+00	0	43	0	1198522368	57	5382
2026-01-29 10:35:24.16	336.96	12.92	-43.6	-46.5	17.2	0.00e+00	0	43	0	1199570944	57	5437
2026-01-29 10:35:25.29	337.01	12.82	-43.6	-46.5	17.2	0.00e+00	0	43	0	1201668096	57	5440
2026-01-29 10:35:26.15	337.05	12.74	-43.6	-46.5	17.1	0.00e+00	0	43	0	1203765248	57	5440
2026-01-29 10:35:27.28	337.10	12.63	-43.6	-46.5	17.1	0.00e+00	0	43	0	1205862400	57	5436
2026-01-29 10:35:28.14	337.14	12.55	-43.6	-46.6	17.1	0.00e+00	0	43	0	1206910976	57	5501
2026-01-29 10:35:29.27	337.19	12.44	-43.6	-46.6	17.1	0.00e+00	0	43	0	1209008128	57	5467
2026-01-29 10:35:30.13	337.23	12.36	-43.6	-46.6	17.1	0.00e+00	0	43	0	1211105280	57	5503
2026-01-29 10:35:31.26	337.28	12.26	-43.6	-46.6	17.0	0.00e+00	0	43	0	1213202432	57	5525
2026-01-29 10:35:32.12	337.32	12.18	-43.5	-46.6	17.1	0.00e+00	0	43	0	1215299584	57	5501
2026-01-29 10:35:33.26	337.37	12.08	-43.3	-46.5	17.2	0.00e+00	0	43	0	1217396736	57	5410
2026-01-29 10:35:34.11	337.40	12.00	-43.3	-46.5	17.1	0.00e+00	0	43	0	1218445312	57	5455
2026-01-29 10:35:35.25	337.45	11.89	-43.2	-46.4	17.2	0.00e+00	0	43	0	1220542464	57	5402
2026-01-29 10:35:36.10	337.49	11.82	-43.2	-46.4	17.2	0.00e+00	0	43	0	1222639616	57	5380
2026-01-29 10:35:37.46	337.55	11.69	-43.3	-46.5	17.1	0.00e+00	0	43	0	1224736768	57	5446
2026-01-29 10:35:38.16	337.58	11.63	-43.3	-46.6	17.1	0.00e+00	0	43	0	1225785344	57	5466
2026-01-29 10:35:39.46	337.63	11.51	-43.2	-46.4	17.2	0.00e+00	0	43	0	1228931072	57	5378
2026-01-29 10:35:40.17	337.66	11.45	-43.2	-46.4	17.2	0.00e+00	0	43	0	1229979648	57	5356
2026-01-29 10:35:41.70	337.72	11.31	-43.3	-46.5	17.1	0.00e+00	0	43	0	1233125376	57	5461
2026-01-29 10:35:42.66	337.76	11.23	-43.4	-46.5	17.1	0.00e+00	0	43	0	1234173952	57	5445
2026-01-29 10:35:43.97	337.82	11.11	-43.3	-46.3	17.2	0.00e+00	0	43	0	1237319680	57	5328
2026-01-29 10:35:44.68	337.85	11.05	-43.4	-46.3	17.3	0.00e+00	0	43	0	1238368256	57	5329
2026-01-29 10:35:45.96	337.90	10.94	-43.4	-46.4	17.2	0.00e+00	0	43	0	1240465408	57	5356
