passes_logs/2026/01/29/T1/T1__20260129_100333_SUOMI_NPP_rec.log

#Pass ID: 20260129_100333_SUOMI NPP
#Satellite: SUOMI NPP
#Configuration: NPP
#almurnet v.1.7.20251203
#Start time: 2026-01-29 10:03:35

#Version: 2.0.20230620
#Station: T1
#Location: 37.570604 lon 55.790049 lat
#TLE: 1 37849U 11061A   26027.93236865  .00000148  00000+0  91411-4 0  9991
#TLE: 2 37849  98.7823 329.8704 0002085  41.3231 318.8102 14.19530777738546

#Time	Az	El	Level	Level2	SNR	BER	BlckErr	Temp	State	Recorded	gain1	gain2
2026-01-29 10:03:35.75	161.90	5.16	-50.0	-65.4	3.8	1.49e+00	0	39	0	0	71	21365
2026-01-29 10:03:36.74	161.90	5.23	-50.2	-65.4	3.8	1.49e+00	0	39	104	0	71	21328
2026-01-29 10:03:37.73	161.91	5.30	-50.2	-65.4	3.8	1.49e+00	0	39	104	0	71	21419
2026-01-29 10:03:38.73	161.91	5.37	-50.2	-65.4	3.8	1.49e+00	0	39	104	0	71	21362
2026-01-29 10:03:39.72	161.92	5.45	-49.9	-65.3	3.8	1.49e+00	0	39	104	0	71	21225
2026-01-29 10:03:40.71	161.92	5.52	-50.0	-65.3	3.8	1.49e+00	0	39	104	0	71	21214
2026-01-29 10:03:41.71	161.92	5.59	-50.0	-65.3	3.8	1.49e+00	0	39	104	0	71	21202
2026-01-29 10:03:42.70	161.93	5.66	-50.1	-65.3	3.8	1.49e+00	0	39	104	0	71	21036
2026-01-29 10:03:43.70	161.93	5.74	-50.0	-65.2	3.8	1.49e+00	0	39	104	0	71	20993
2026-01-29 10:03:44.69	161.94	5.81	-49.8	-65.2	3.8	1.49e+00	0	39	104	0	71	20927
2026-01-29 10:03:45.68	161.94	5.88	-49.8	-65.2	3.8	1.49e+00	0	39	104	0	71	20898
2026-01-29 10:03:46.67	161.95	5.96	-49.8	-65.1	3.8	1.49e+00	0	39	104	0	71	20696
2026-01-29 10:03:47.67	161.95	6.03	-49.8	-65.1	3.8	1.49e+00	0	39	104	0	71	20661
2026-01-29 10:03:48.66	161.96	6.11	-49.7	-65.2	3.8	1.49e+00	0	40	104	0	71	20780
2026-01-29 10:03:49.65	161.96	6.18	-49.8	-65.1	3.8	1.49e+00	0	39	104	0	71	20621
2026-01-29 10:03:50.65	161.97	6.26	-49.6	-65.1	3.8	1.49e+00	0	40	104	0	70	21797
2026-01-29 10:03:51.64	161.97	6.33	-49.5	-65.0	3.8	1.49e+00	0	40	104	0	70	21730
2026-01-29 10:03:52.63	161.98	6.41	-49.5	-65.0	3.8	1.49e+00	0	40	104	0	70	21629
2026-01-29 10:03:53.63	161.98	6.48	-49.4	-65.0	3.8	1.49e+00	0	40	104	0	70	21562
2026-01-29 10:03:54.62	161.99	6.56	-49.1	-64.9	3.8	1.49e+00	0	40	104	0	70	21413
2026-01-29 10:03:55.61	161.99	6.63	-49.6	-64.8	3.8	1.49e+00	0	40	104	0	70	21142
2026-01-29 10:03:56.61	162.00	6.71	-49.5	-64.7	3.8	1.49e+00	0	40	104	0	70	20972
2026-01-29 10:03:57.60	162.00	6.79	-49.4	-64.5	3.8	1.49e+00	0	40	104	0	70	20381
2026-01-29 10:03:58.59	162.00	6.86	-49.2	-64.0	3.8	1.49e+00	0	40	104	0	70	19277
2026-01-29 10:03:59.59	162.01	6.94	-49.2	-64.0	3.8	1.49e+00	0	40	104	0	70	19292
2026-01-29 10:04:00.58	162.01	7.02	-49.2	-64.0	3.8	1.49e+00	0	40	104	0	70	19270
2026-01-29 10:04:01.57	162.02	7.09	-49.2	-63.9	3.8	1.49e+00	0	40	104	0	70	19139
2026-01-29 10:04:02.56	162.02	7.17	-49.2	-63.9	3.8	1.49e+00	0	40	104	0	70	19004
2026-01-29 10:04:03.56	162.03	7.25	-49.1	-63.8	3.8	1.49e+00	0	40	104	0	70	18746
2026-01-29 10:04:04.55	162.03	7.33	-49.1	-63.5	3.8	1.49e+00	0	40	104	0	70	18160
2026-01-29 10:04:05.55	162.04	7.40	-49.1	-63.1	3.8	1.49e+00	0	40	104	0	70	17367
2026-01-29 10:04:06.54	162.04	7.48	-49.1	-62.5	3.8	1.49e+00	0	40	104	0	70	16287
2026-01-29 10:04:07.53	162.05	7.56	-49.0	-61.6	4.1	1.48e+00	0	40	104	0	70	14585
2026-01-29 10:04:08.53	162.05	7.64	-48.9	-60.7	4.3	1.44e+00	0	40	0	0	69	13960
2026-01-29 10:04:09.52	162.06	7.72	-48.8	-59.8	4.6	1.06e+00	0	40	0	1048576	69	12595
2026-01-29 10:04:10.51	162.06	7.80	-48.7	-58.7	5.2	7.39e-01	0	40	0	3145728	69	11053
2026-01-29 10:04:11.51	162.07	7.88	-48.6	-58.0	5.7	5.28e-01	0	40	0	5242880	69	10246
2026-01-29 10:04:12.50	162.07	7.96	-48.5	-57.1	6.3	3.06e-01	0	40	0	7340032	68	9809
2026-01-29 10:04:13.49	162.08	8.04	-48.3	-56.5	6.9	2.08e-01	0	40	0	8388608	68	9081
2026-01-29 10:04:14.48	162.08	8.12	-48.2	-56.0	7.3	1.42e-01	0	41	0	10485760	68	8597
2026-01-29 10:04:15.48	162.09	8.20	-48.1	-55.5	7.7	1.03e-01	0	40	0	12582912	68	8171
2026-01-29 10:04:16.47	162.09	8.28	-48.1	-55.5	7.8	7.56e-02	0	40	0	14680064	68	8104
2026-01-29 10:04:17.46	162.10	8.36	-48.1	-55.5	7.8	8.06e-02	0	40	0	16777216	68	8130
2026-01-29 10:04:18.46	162.10	8.44	-48.1	-55.4	7.9	7.95e-02	0	40	0	17825792	68	8070
2026-01-29 10:04:19.45	162.11	8.52	-48.2	-56.1	7.3	1.08e-01	0	40	0	19922944	68	8673
2026-01-29 10:04:20.45	162.11	8.61	-48.3	-56.4	7.0	1.49e-01	0	40	0	22020096	68	9039
2026-01-29 10:04:21.44	162.12	8.69	-48.4	-57.0	6.4	2.07e-01	0	40	0	24117248	68	9661
2026-01-29 10:04:22.43	162.12	8.77	-48.6	-58.1	5.3	3.29e-01	0	40	0	25165824	68	10943
2026-01-29 10:04:23.42	162.13	8.85	-48.8	-59.2	5.0	6.64e-01	0	40	0	27262976	68	12392
2026-01-29 10:04:24.42	162.13	8.94	-48.9	-60.5	4.4	9.21e-01	0	40	0	29360128	68	14376
2026-01-29 10:04:25.41	162.14	9.02	-49.0	-61.9	3.9	1.39e+00	0	41	104	29360128	69	16068
2026-01-29 10:04:26.40	162.14	9.10	-49.0	-60.2	4.4	1.48e+00	0	40	104	29360128	69	13165
2026-01-29 10:04:27.40	162.15	9.19	-48.7	-58.1	5.8	1.07e-01	0	40	0	30408704	68	11007
2026-01-29 10:04:28.39	162.15	9.27	-49.1	-63.9	3.8	1.49e+00	0	40	104	30408704	68	21415
2026-01-29 10:04:29.39	162.16	9.36	-48.3	-55.6	7.5	6.49e-01	0	41	0	30408704	68	8218
2026-01-29 10:04:30.38	162.16	9.44	-47.7	-54.1	9.4	3.94e-03	0	41	0	32505856	65	8180
2026-01-29 10:04:31.38	162.17	9.53	-49.3	-63.5	3.8	1.49e+00	0	41	104	32505856	69	19301
2026-01-29 10:04:32.38	162.17	9.61	-47.3	-53.0	10.3	1.98e-01	0	41	0	32505856	66	6832
2026-01-29 10:04:33.37	162.18	9.70	-47.3	-52.9	10.4	4.99e-03	0	41	0	34603008	66	6739
2026-01-29 10:04:34.37	162.19	9.79	-46.9	-51.9	11.4	1.09e-02	0	41	0	36700160	65	6367
2026-01-29 10:04:35.36	162.19	9.87	-46.8	-51.7	11.6	4.36e-04	0	41	0	37748736	65	6207
2026-01-29 10:04:36.40	162.20	9.96	-46.5	-51.2	12.1	3.23e-04	0	41	0	39845888	64	6209
2026-01-29 10:04:37.35	162.20	10.05	-46.3	-50.7	12.7	5.03e-03	0	41	0	41943040	64	5868
2026-01-29 10:04:38.44	162.21	10.14	-46.1	-50.3	12.9	3.50e-05	0	41	0	44040192	64	5650
2026-01-29 10:04:39.32	162.21	10.22	-45.9	-50.0	13.5	1.29e-05	0	41	0	46137344	63	5741
2026-01-29 10:04:40.46	162.22	10.32	-45.7	-49.6	13.8	3.00e-06	0	40	0	48234496	63	5490
2026-01-29 10:04:41.32	162.22	10.40	-45.7	-49.6	13.9	2.20e-06	0	41	0	49283072	63	5503
2026-01-29 10:04:42.45	162.23	10.50	-45.6	-49.5	13.9	5.30e-06	0	41	0	51380224	63	5405
2026-01-29 10:04:43.30	162.23	10.57	-45.6	-49.4	14.0	5.30e-06	0	41	0	53477376	63	5376
2026-01-29 10:04:44.44	162.24	10.67	-45.6	-49.4	14.0	4.50e-06	0	41	0	55574528	63	5389
2026-01-29 10:04:45.30	162.24	10.75	-45.3	-48.9	14.6	0.00e+00	0	41	0	56623104	62	5342
2026-01-29 10:04:46.43	162.25	10.85	-45.4	-49.1	14.4	1.50e-06	0	41	0	58720256	62	5479
2026-01-29 10:04:47.29	162.25	10.93	-45.2	-48.7	14.7	7.00e-07	0	41	0	60817408	62	5268
2026-01-29 10:04:48.43	162.26	11.04	-45.1	-48.7	14.8	0.00e+00	0	41	0	62914560	61	5532
2026-01-29 10:04:49.28	162.27	11.11	-45.1	-48.7	14.8	0.00e+00	0	41	0	63963136	61	5535
2026-01-29 10:04:50.51	162.27	11.23	-44.8	-48.2	15.3	0.00e+00	0	41	0	67108864	61	5245
2026-01-29 10:04:51.36	162.28	11.30	-44.9	-48.2	15.2	0.00e+00	0	41	0	68157440	61	5261
2026-01-29 10:04:52.58	162.28	11.42	-44.8	-48.2	15.3	0.00e+00	0	41	0	70254592	61	5230
2026-01-29 10:04:53.43	162.29	11.50	-44.6	-47.9	15.6	0.00e+00	0	41	0	72351744	61	5042
2026-01-29 10:04:54.63	162.30	11.61	-44.7	-48.1	15.4	0.00e+00	0	41	0	74448896	61	5171
2026-01-29 10:04:55.48	162.30	11.69	-44.7	-48.0	15.5	0.00e+00	0	41	0	75497472	61	5119
2026-01-29 10:04:56.62	162.31	11.79	-44.8	-48.1	15.4	0.00e+00	0	41	0	77594624	61	5201
2026-01-29 10:04:57.47	162.31	11.87	-44.7	-48.0	15.5	0.00e+00	0	41	0	79691776	61	5118
2026-01-29 10:04:58.61	162.32	11.98	-44.5	-47.7	15.8	0.00e+00	0	41	0	81788928	61	4939
2026-01-29 10:04:59.46	162.32	12.06	-44.7	-47.9	15.6	0.00e+00	0	41	0	83886080	61	5083
2026-01-29 10:05:00.60	162.33	12.17	-44.5	-47.7	15.8	0.00e+00	0	41	0	85983232	61	4970
2026-01-29 10:05:01.45	162.33	12.25	-44.5	-47.6	15.9	0.00e+00	0	41	0	87031808	60	5202
2026-01-29 10:05:02.59	162.34	12.36	-44.6	-47.9	15.7	0.00e+00	0	41	0	89128960	60	5348
2026-01-29 10:05:03.44	162.35	12.44	-44.5	-47.7	15.9	0.00e+00	0	41	0	91226112	60	5238
2026-01-29 10:05:04.57	162.35	12.55	-44.4	-47.5	16.0	0.00e+00	0	41	0	93323264	60	5141
2026-01-29 10:05:05.43	162.36	12.64	-44.5	-47.6	15.9	0.00e+00	0	41	0	94371840	60	5216
2026-01-29 10:05:06.56	162.36	12.75	-44.2	-47.3	16.2	0.00e+00	0	41	0	96468992	60	5001
2026-01-29 10:05:07.42	162.37	12.83	-44.4	-47.6	15.9	0.00e+00	0	41	0	98566144	60	5191
2026-01-29 10:05:08.55	162.38	12.94	-44.4	-47.5	16.0	0.00e+00	0	41	0	100663296	60	5158
2026-01-29 10:05:09.41	162.38	13.03	-44.2	-47.3	16.2	0.00e+00	0	41	0	101711872	60	5016
2026-01-29 10:05:10.54	162.39	13.14	-44.3	-47.4	16.1	0.00e+00	0	41	0	103809024	60	5074
2026-01-29 10:05:11.40	162.39	13.23	-44.3	-47.4	16.1	0.00e+00	0	41	0	105906176	60	5083
2026-01-29 10:05:12.53	162.40	13.34	-44.3	-47.3	16.2	0.00e+00	0	41	0	108003328	60	5018
2026-01-29 10:05:13.38	162.40	13.42	-44.3	-47.4	16.2	0.00e+00	0	41	0	109051904	60	5054
2026-01-29 10:05:14.52	162.41	13.54	-44.1	-47.1	16.4	0.00e+00	0	41	0	111149056	60	4899
2026-01-29 10:05:15.37	162.42	13.63	-44.3	-47.3	16.3	0.00e+00	0	41	0	113246208	60	4997
2026-01-29 10:05:16.51	162.42	13.74	-44.2	-47.1	16.4	0.00e+00	0	41	0	115343360	60	4926
2026-01-29 10:05:17.36	162.43	13.83	-44.0	-46.9	16.6	0.00e+00	0	41	0	117440512	60	4814
2026-01-29 10:05:18.50	162.44	13.95	-44.1	-47.1	16.4	0.00e+00	0	41	0	119537664	59	5173
2026-01-29 10:05:19.35	162.44	14.03	-44.0	-46.9	16.6	0.00e+00	0	41	0	120586240	59	5084
2026-01-29 10:05:20.49	162.45	14.15	-43.9	-46.8	16.7	0.00e+00	0	41	0	122683392	59	5010
2026-01-29 10:05:21.34	162.45	14.24	-43.9	-46.7	16.8	0.00e+00	0	41	0	124780544	59	4966
2026-01-29 10:05:22.48	162.46	14.36	-43.7	-46.5	16.9	0.00e+00	0	41	0	126877696	59	4863
2026-01-29 10:05:23.33	162.47	14.45	-43.7	-46.5	16.9	0.00e+00	0	41	0	127926272	59	4866
2026-01-29 10:05:24.47	162.47	14.57	-43.7	-46.5	17.1	0.00e+00	0	41	0	130023424	59	4838
2026-01-29 10:05:25.32	162.48	14.66	-43.4	-46.1	17.3	0.00e+00	0	41	0	132120576	58	4925
2026-01-29 10:05:26.46	162.49	14.78	-43.5	-46.2	17.2	0.00e+00	0	41	0	134217728	58	4982
2026-01-29 10:05:27.31	162.49	14.87	-43.5	-46.3	17.2	0.00e+00	0	41	0	135266304	58	4986
2026-01-29 10:05:28.45	162.50	14.99	-43.4	-46.2	17.3	0.00e+00	0	41	0	137363456	58	4947
2026-01-29 10:05:29.30	162.50	15.08	-43.4	-46.1	17.4	0.00e+00	0	41	0	139460608	58	4885
2026-01-29 10:05:30.44	162.51	15.20	-43.3	-46.0	17.4	0.00e+00	0	41	0	141557760	58	4848
2026-01-29 10:05:31.29	162.52	15.30	-43.4	-46.1	17.4	0.00e+00	0	41	0	142606336	58	4885
2026-01-29 10:05:32.43	162.52	15.42	-43.3	-45.9	17.5	0.00e+00	0	41	0	144703488	58	4803
2026-01-29 10:05:33.28	162.53	15.51	-43.2	-45.9	17.6	0.00e+00	0	41	0	146800640	58	4761
2026-01-29 10:05:34.42	162.54	15.64	-43.2	-45.8	17.7	0.00e+00	0	41	0	148897792	58	4719
2026-01-29 10:05:35.27	162.54	15.73	-43.2	-45.9	17.6	0.00e+00	0	41	0	150994944	58	4763
2026-01-29 10:05:36.60	162.55	15.88	-43.3	-45.9	17.5	0.00e+00	0	41	0	153092096	58	4805
2026-01-29 10:05:37.31	162.56	15.96	-43.1	-45.7	17.7	0.00e+00	0	41	0	154140672	58	4688
2026-01-29 10:05:38.59	162.56	16.10	-43.2	-45.9	17.6	0.00e+00	0	41	0	156237824	58	4760
2026-01-29 10:05:39.32	162.57	16.19	-43.3	-46.0	17.5	0.00e+00	0	41	0	158334976	58	4829
2026-01-29 10:05:40.60	162.58	16.33	-43.3	-45.9	17.5	0.00e+00	0	41	0	160432128	58	4808
2026-01-29 10:05:41.33	162.58	16.41	-43.3	-46.0	17.5	0.00e+00	0	41	0	161480704	58	4849
2026-01-29 10:05:42.61	162.59	16.56	-43.4	-46.1	17.5	0.00e+00	0	41	0	164626432	58	4878
2026-01-29 10:05:43.46	162.60	16.66	-43.4	-46.1	17.4	0.00e+00	0	41	0	165675008	58	4898
2026-01-29 10:05:44.60	162.60	16.79	-43.4	-46.1	17.4	0.00e+00	0	41	0	167772160	58	4912
2026-01-29 10:05:45.45	162.61	16.89	-43.4	-46.0	17.5	0.00e+00	0	41	0	169869312	58	4861
2026-01-29 10:05:46.59	162.62	17.02	-43.4	-46.0	17.5	0.00e+00	0	41	0	171966464	58	4869
2026-01-29 10:05:47.44	162.62	17.12	-43.3	-46.0	17.5	0.00e+00	0	41	0	173015040	58	4855
2026-01-29 10:05:48.58	162.63	17.25	-43.4	-46.1	17.4	0.00e+00	0	41	0	175112192	58	4884
2026-01-29 10:05:49.43	162.64	17.35	-43.2	-45.9	17.6	0.00e+00	0	41	0	177209344	58	4764
2026-01-29 10:05:50.60	162.65	17.49	-43.2	-45.7	17.8	0.00e+00	0	41	0	179306496	58	4694
2026-01-29 10:05:51.45	162.65	17.59	-43.3	-45.9	17.6	0.00e+00	0	41	0	181403648	58	4774
2026-01-29 10:05:52.59	162.66	17.73	-43.2	-45.7	17.8	0.00e+00	0	41	0	183500800	58	4692
2026-01-29 10:05:53.45	162.67	17.83	-42.9	-45.4	18.1	0.00e+00	0	41	0	184549376	57	4779
2026-01-29 10:05:54.58	162.67	17.97	-42.8	-45.3	18.2	0.00e+00	0	41	0	186646528	57	4712
2026-01-29 10:05:55.44	162.68	18.07	-42.7	-45.0	18.4	0.00e+00	0	41	0	188743680	57	4594
2026-01-29 10:05:56.57	162.69	18.21	-42.5	-44.8	18.6	0.00e+00	0	42	0	190840832	57	4479
2026-01-29 10:05:57.42	162.69	18.32	-42.6	-44.9	18.5	0.00e+00	0	41	0	191889408	57	4545
2026-01-29 10:05:58.56	162.70	18.46	-42.3	-44.6	18.8	0.00e+00	0	42	0	193986560	56	4630
2026-01-29 10:05:59.41	162.71	18.56	-42.4	-44.8	18.6	0.00e+00	0	41	0	196083712	56	4706
2026-01-29 10:06:00.55	162.72	18.70	-42.4	-44.8	18.7	0.00e+00	0	41	0	198180864	56	4706
2026-01-29 10:06:01.40	162.72	18.81	-42.3	-44.6	18.8	0.00e+00	0	41	0	199229440	56	4610
2026-01-29 10:06:02.54	162.73	18.95	-42.3	-44.6	18.8	0.00e+00	0	41	0	201326592	56	4645
2026-01-29 10:06:03.40	162.74	19.06	-42.4	-44.7	18.7	0.00e+00	0	41	0	203423744	56	4689
2026-01-29 10:06:04.53	162.75	19.21	-42.5	-44.9	18.6	0.00e+00	0	41	0	205520896	56	4766
2026-01-29 10:06:05.40	162.75	19.32	-42.7	-45.1	18.3	0.00e+00	0	41	0	206569472	56	4917
2026-01-29 10:06:06.54	162.76	19.47	-42.7	-45.1	18.4	0.00e+00	0	42	0	208666624	56	4890
2026-01-29 10:06:07.39	162.77	19.57	-42.8	-45.3	18.2	0.00e+00	0	41	0	210763776	56	4991
2026-01-29 10:06:08.53	162.78	19.72	-42.9	-45.4	18.1	0.00e+00	0	41	0	212860928	56	5051
2026-01-29 10:06:09.38	162.78	19.83	-42.9	-45.4	18.0	0.00e+00	0	42	0	214958080	56	5082
2026-01-29 10:06:10.52	162.79	19.98	-43.0	-45.5	18.0	0.00e+00	0	41	0	217055232	56	5132
2026-01-29 10:06:11.38	162.80	20.10	-43.0	-45.5	18.0	0.00e+00	0	41	0	218103808	56	5103
2026-01-29 10:06:12.52	162.81	20.25	-42.9	-45.4	18.2	0.00e+00	0	41	0	220200960	56	5047
2026-01-29 10:06:13.37	162.82	20.36	-42.8	-45.2	18.2	0.00e+00	0	42	0	222298112	56	4979
2026-01-29 10:06:14.51	162.82	20.51	-42.5	-44.9	18.6	0.00e+00	0	41	0	224395264	56	4772
2026-01-29 10:06:15.36	162.83	20.63	-42.5	-44.9	18.6	0.00e+00	0	42	0	225443840	56	4782
2026-01-29 10:06:16.50	162.84	20.78	-42.4	-44.7	18.8	0.00e+00	0	41	0	227540992	56	4671
2026-01-29 10:06:17.35	162.85	20.90	-42.3	-44.6	18.8	0.00e+00	0	42	0	229638144	56	4615
2026-01-29 10:06:18.49	162.86	21.05	-42.3	-44.6	18.8	0.00e+00	0	41	0	231735296	56	4642
2026-01-29 10:06:19.35	162.86	21.17	-42.3	-44.5	18.9	0.00e+00	0	41	0	232783872	56	4581
2026-01-29 10:06:20.48	162.87	21.33	-42.3	-44.5	18.9	0.00e+00	0	41	0	234881024	56	4587
2026-01-29 10:06:21.33	162.88	21.45	-42.4	-44.7	18.7	0.00e+00	0	41	0	236978176	56	4690
2026-01-29 10:06:22.47	162.89	21.61	-42.4	-44.8	18.6	0.00e+00	0	42	0	239075328	56	4719
2026-01-29 10:06:23.32	162.90	21.73	-42.5	-44.9	18.5	0.00e+00	0	41	0	241172480	56	4779
2026-01-29 10:06:24.46	162.91	21.89	-42.7	-45.1	18.4	0.00e+00	0	41	0	243269632	56	4895
2026-01-29 10:06:25.32	162.91	22.01	-42.9	-45.5	18.0	0.00e+00	0	41	0	244318208	56	5109
2026-01-29 10:06:26.45	162.92	22.17	-43.2	-45.8	17.7	0.00e+00	0	42	0	246415360	56	5311
2026-01-29 10:06:27.31	162.93	22.30	-43.2	-45.8	17.8	0.00e+00	0	41	0	248512512	57	5001
2026-01-29 10:06:28.44	162.94	22.46	-43.2	-45.8	17.8	0.00e+00	0	41	0	250609664	57	5008
2026-01-29 10:06:29.30	162.95	22.58	-43.4	-46.1	17.5	0.00e+00	0	41	0	251658240	57	5170
2026-01-29 10:06:30.48	162.96	22.76	-43.2	-45.8	17.7	0.00e+00	0	42	0	253755392	57	5015
2026-01-29 10:06:31.33	162.96	22.88	-43.2	-45.8	17.7	0.00e+00	0	42	0	255852544	57	5028
2026-01-29 10:06:32.47	162.97	23.05	-43.1	-45.6	17.9	0.00e+00	0	41	0	257949696	57	4905
2026-01-29 10:06:33.32	162.98	23.18	-43.0	-45.6	18.0	0.00e+00	0	41	0	258998272	57	4874
2026-01-29 10:06:34.46	162.99	23.35	-43.0	-45.6	18.0	0.00e+00	0	42	0	261095424	57	4875
2026-01-29 10:06:35.31	163.00	23.48	-42.9	-45.4	18.1	0.00e+00	0	41	0	263192576	57	4773
2026-01-29 10:06:36.45	163.01	23.65	-43.0	-45.5	18.1	0.00e+00	0	42	0	265289728	57	4825
2026-01-29 10:06:37.30	163.02	23.78	-43.1	-45.7	17.9	0.00e+00	0	42	0	266338304	57	4949
2026-01-29 10:06:38.44	163.03	23.95	-43.2	-45.8	17.8	0.00e+00	0	41	0	269484032	57	4989
2026-01-29 10:06:39.29	163.04	24.09	-43.3	-45.8	17.8	0.00e+00	0	42	0	270532608	57	5028
2026-01-29 10:06:40.43	163.05	24.26	-43.5	-46.2	17.4	0.00e+00	0	42	0	272629760	57	5230
2026-01-29 10:06:41.28	163.05	24.39	-43.6	-46.3	17.3	0.00e+00	0	41	0	274726912	57	5313
2026-01-29 10:06:42.42	163.06	24.57	-43.6	-46.3	17.3	0.00e+00	0	41	0	276824064	58	5017
2026-01-29 10:06:43.27	163.07	24.71	-43.7	-46.4	17.2	0.00e+00	0	41	0	277872640	58	5063
2026-01-29 10:06:44.41	163.08	24.89	-43.7	-46.4	17.3	0.00e+00	0	42	0	279969792	58	5048
2026-01-29 10:06:45.26	163.09	25.02	-43.8	-46.5	17.1	0.00e+00	0	41	0	282066944	58	5119
2026-01-29 10:06:46.40	163.10	25.21	-43.6	-46.3	17.3	0.00e+00	0	41	0	284164096	58	5030
2026-01-29 10:06:47.25	163.11	25.35	-43.6	-46.2	17.4	0.00e+00	0	41	0	285212672	58	4957
2026-01-29 10:06:48.50	163.12	25.55	-43.5	-46.1	17.5	0.00e+00	0	42	0	287309824	58	4888
2026-01-29 10:06:49.35	163.13	25.69	-43.6	-46.2	17.4	0.00e+00	0	41	0	289406976	58	4946
2026-01-29 10:06:50.57	163.14	25.89	-43.3	-45.9	17.7	0.00e+00	0	42	0	291504128	58	4779
2026-01-29 10:06:51.42	163.15	26.03	-43.6	-46.3	17.4	0.00e+00	0	42	0	293601280	58	4991
2026-01-29 10:06:52.56	163.16	26.22	-43.7	-46.4	17.3	0.00e+00	0	42	0	295698432	58	5049
2026-01-29 10:06:53.41	163.17	26.36	-43.5	-46.2	17.5	0.00e+00	0	42	0	296747008	58	4933
2026-01-29 10:06:54.55	163.18	26.56	-43.9	-46.7	17.0	0.00e+00	0	41	0	298844160	58	5229
2026-01-29 10:06:55.40	163.19	26.70	-44.1	-46.9	16.8	0.00e+00	0	41	0	300941312	58	5342
2026-01-29 10:06:56.54	163.20	26.90	-44.1	-47.0	16.7	0.00e+00	0	42	0	303038464	59	5117
2026-01-29 10:06:57.39	163.21	27.04	-44.2	-47.1	16.5	0.00e+00	0	41	0	304087040	59	5208
2026-01-29 10:06:58.53	163.22	27.24	-44.1	-46.9	16.7	0.00e+00	0	41	0	306184192	59	5082
2026-01-29 10:06:59.38	163.23	27.39	-44.1	-46.9	16.8	0.00e+00	0	41	0	308281344	59	5074
2026-01-29 10:07:00.52	163.25	27.59	-44.0	-46.7	16.9	0.00e+00	0	42	0	310378496	59	4968
2026-01-29 10:07:01.37	163.25	27.74	-43.7	-46.3	17.3	0.00e+00	0	41	0	312475648	59	4752
2026-01-29 10:07:02.50	163.27	27.94	-43.6	-46.1	17.5	0.00e+00	0	42	0	314572800	59	4648
2026-01-29 10:07:03.36	163.28	28.09	-43.5	-46.0	17.6	0.00e+00	0	41	0	315621376	58	4855
2026-01-29 10:07:04.53	163.29	28.31	-43.5	-46.1	17.6	0.00e+00	0	42	0	317718528	58	4892
2026-01-29 10:07:05.38	163.30	28.46	-43.6	-46.2	17.5	0.00e+00	0	42	0	319815680	58	4941
2026-01-29 10:07:06.58	163.31	28.68	-43.4	-46.0	17.6	0.00e+00	0	41	0	321912832	58	4829
2026-01-29 10:07:07.43	163.32	28.84	-43.9	-46.5	17.1	0.00e+00	0	42	0	322961408	58	5155
2026-01-29 10:07:08.57	163.33	29.05	-44.1	-46.8	16.8	0.00e+00	0	42	0	325058560	59	5030
2026-01-29 10:07:09.43	163.34	29.21	-44.1	-46.9	16.8	0.00e+00	0	42	0	327155712	59	5078
2026-01-29 10:07:10.56	163.36	29.42	-44.4	-47.2	16.5	0.00e+00	0	42	0	329252864	59	5276
2026-01-29 10:07:11.41	163.37	29.58	-44.2	-47.1	16.6	0.00e+00	0	42	0	331350016	59	5174
2026-01-29 10:07:12.55	163.38	29.80	-44.0	-46.7	16.9	0.00e+00	0	42	0	332398592	59	4976
2026-01-29 10:07:13.40	163.39	29.96	-43.6	-46.3	17.3	0.00e+00	0	41	0	334495744	59	4730
2026-01-29 10:07:14.54	163.40	30.18	-43.7	-46.4	17.2	0.00e+00	0	42	0	336592896	59	4805
2026-01-29 10:07:15.40	163.42	30.34	-43.8	-46.5	17.1	0.00e+00	0	42	0	338690048	59	4866
2026-01-29 10:07:16.53	163.43	30.57	-43.8	-46.5	17.1	0.00e+00	0	41	0	340787200	59	4864
2026-01-29 10:07:17.38	163.44	30.73	-44.0	-46.7	16.9	0.00e+00	0	42	0	341835776	59	4970
2026-01-29 10:07:18.52	163.45	30.96	-43.9	-46.6	17.1	0.00e+00	0	42	0	343932928	59	4897
2026-01-29 10:07:19.37	163.46	31.13	-43.9	-46.6	17.1	0.00e+00	0	42	0	346030080	59	4908
2026-01-29 10:07:20.51	163.48	31.36	-44.3	-47.1	16.6	0.00e+00	0	42	0	348127232	59	5178
2026-01-29 10:07:21.36	163.49	31.53	-44.2	-47.0	16.7	0.00e+00	0	42	0	349175808	59	5123
2026-01-29 10:07:22.50	163.50	31.76	-44.6	-47.6	16.2	0.00e+00	0	42	0	351272960	59	5477
2026-01-29 10:07:23.35	163.52	31.93	-44.3	-47.2	16.5	0.00e+00	0	42	0	353370112	60	4972
2026-01-29 10:07:24.49	163.53	32.17	-44.0	-46.8	16.9	0.00e+00	0	41	0	355467264	60	4741
2026-01-29 10:07:25.34	163.54	32.34	-44.6	-47.6	16.2	0.00e+00	0	42	0	356515840	60	5174
2026-01-29 10:07:26.48	163.56	32.58	-44.3	-47.2	16.6	0.00e+00	0	41	0	358612992	60	4946
2026-01-29 10:07:27.37	163.57	32.77	-44.2	-47.1	16.7	0.00e+00	0	41	0	360710144	60	4907
2026-01-29 10:07:28.50	163.58	33.01	-44.6	-47.6	16.2	0.00e+00	0	42	0	362807296	60	5180
2026-01-29 10:07:29.36	163.60	33.19	-44.7	-47.7	16.1	0.00e+00	0	41	0	364904448	60	5255
2026-01-29 10:07:30.49	163.61	33.44	-44.7	-47.8	16.0	0.00e+00	0	42	0	367001600	60	5304
2026-01-29 10:07:31.35	163.62	33.62	-44.9	-48.2	15.6	7.00e-07	0	41	0	368050176	60	5542
2026-01-29 10:07:32.48	163.64	33.87	-44.9	-48.1	15.8	0.00e+00	0	41	0	370147328	60	5474
2026-01-29 10:07:33.34	163.65	34.06	-44.7	-47.8	16.0	0.00e+00	0	42	0	372244480	60	5286
2026-01-29 10:07:34.47	163.67	34.31	-44.3	-47.2	16.6	0.00e+00	0	42	0	374341632	60	4973
2026-01-29 10:07:35.33	163.68	34.50	-43.8	-46.5	17.2	0.00e+00	0	42	0	375390208	59	4823
2026-01-29 10:07:36.48	163.70	34.76	-43.7	-46.2	17.4	0.00e+00	0	42	0	377487360	59	4705
2026-01-29 10:07:37.33	163.71	34.95	-43.6	-46.1	17.6	0.00e+00	0	41	0	379584512	59	4643
2026-01-29 10:07:38.47	163.73	35.21	-43.5	-46.1	17.6	0.00e+00	0	42	0	381681664	58	4891
2026-01-29 10:07:39.32	163.74	35.40	-43.3	-45.8	17.9	0.00e+00	0	41	0	382730240	58	4724
2026-01-29 10:07:40.46	163.76	35.67	-43.0	-45.5	18.1	0.00e+00	0	42	0	384827392	58	4586
2026-01-29 10:07:41.31	163.77	35.86	-42.8	-45.2	18.4	0.00e+00	0	42	0	386924544	57	4676
2026-01-29 10:07:42.45	163.79	36.13	-42.6	-45.0	18.6	0.00e+00	0	42	0	389021696	57	4548
2026-01-29 10:07:43.30	163.80	36.33	-42.5	-44.8	18.7	0.00e+00	0	42	0	391118848	56	4748
2026-01-29 10:07:44.44	163.82	36.60	-42.4	-44.8	18.7	0.00e+00	0	42	0	393216000	56	4750
2026-01-29 10:07:45.30	163.84	36.81	-42.3	-44.6	18.9	0.00e+00	0	42	0	394264576	56	4615
2026-01-29 10:07:46.44	163.86	37.08	-42.2	-44.6	18.9	0.00e+00	0	42	0	396361728	56	4620
2026-01-29 10:07:47.29	163.87	37.29	-42.4	-44.8	18.7	0.00e+00	0	42	0	398458880	56	4753
2026-01-29 10:07:48.43	163.89	37.57	-42.6	-45.0	18.6	0.00e+00	0	42	0	400556032	56	4817
2026-01-29 10:07:49.28	163.90	37.78	-42.4	-44.7	18.7	0.00e+00	0	41	0	401604608	56	4680
2026-01-29 10:07:50.41	163.92	38.06	-42.6	-45.0	18.6	0.00e+00	0	42	0	403701760	56	4850
2026-01-29 10:07:51.27	163.94	38.27	-42.5	-44.8	18.8	0.00e+00	0	42	0	405798912	56	4736
2026-01-29 10:07:52.53	163.96	38.59	-42.2	-44.5	19.1	0.00e+00	0	42	0	407896064	56	4548
2026-01-29 10:07:53.33	163.98	38.79	-42.0	-44.2	19.3	0.00e+00	0	42	0	408944640	56	4426
2026-01-29 10:07:54.47	164.00	39.09	-41.5	-43.7	19.6	0.00e+00	0	42	0	411041792	55	4402
2026-01-29 10:07:55.32	164.01	39.31	-41.7	-43.9	19.4	0.00e+00	0	42	0	413138944	54	4781
2026-01-29 10:07:56.46	164.03	39.60	-41.8	-44.0	19.3	0.00e+00	0	42	0	415236096	54	4849
2026-01-29 10:07:57.31	164.05	39.82	-41.8	-44.0	19.3	0.00e+00	0	42	0	417333248	54	4844
2026-01-29 10:07:58.45	164.07	40.12	-41.9	-44.2	19.1	0.00e+00	0	42	0	419430400	54	4951
2026-01-29 10:07:59.31	164.09	40.35	-41.9	-44.1	19.2	0.00e+00	0	41	0	420478976	54	4925
2026-01-29 10:08:00.44	164.11	40.66	-41.8	-44.0	19.3	0.00e+00	0	42	0	422576128	54	4845
2026-01-29 10:08:01.30	164.13	40.89	-41.7	-43.9	19.5	0.00e+00	0	42	0	424673280	54	4785
2026-01-29 10:08:02.43	164.15	41.19	-41.9	-44.1	19.1	0.00e+00	0	42	0	426770432	54	4922
2026-01-29 10:08:03.29	164.17	41.43	-41.8	-44.1	19.3	0.00e+00	0	42	0	427819008	55	4618
2026-01-29 10:08:04.42	164.19	41.74	-42.2	-44.5	19.0	0.00e+00	0	42	0	429916160	55	4824
2026-01-29 10:08:05.28	164.21	41.98	-42.4	-44.8	18.6	0.00e+00	0	42	0	432013312	55	5013
2026-01-29 10:08:06.41	164.24	42.30	-42.2	-44.5	19.0	0.00e+00	0	42	0	434110464	55	4822
2026-01-29 10:08:07.27	164.26	42.54	-42.1	-44.4	19.0	0.00e+00	0	42	0	435159040	55	4778
2026-01-29 10:08:08.50	164.28	42.89	-42.4	-44.8	18.6	0.00e+00	0	42	0	438304768	55	5006
2026-01-29 10:08:09.35	164.30	43.13	-42.5	-44.8	18.6	0.00e+00	0	42	0	439353344	55	5038
2026-01-29 10:08:10.49	164.33	43.46	-42.7	-45.0	18.6	0.00e+00	0	42	0	441450496	56	4846
2026-01-29 10:08:11.34	164.35	43.71	-42.8	-45.2	18.4	0.00e+00	0	42	0	443547648	56	4970
2026-01-29 10:08:12.60	164.38	44.08	-42.9	-45.3	18.3	0.00e+00	0	42	0	445644800	56	5017
2026-01-29 10:08:13.39	164.40	44.31	-42.6	-44.9	18.7	0.00e+00	0	42	0	446693376	56	4777
2026-01-29 10:08:14.61	164.43	44.67	-43.1	-45.5	18.2	0.00e+00	0	42	0	449839104	57	4816
2026-01-29 10:08:15.46	164.45	44.93	-43.4	-45.9	17.6	0.00e+00	0	42	0	450887680	57	5088
2026-01-29 10:08:16.60	164.48	45.27	-44.0	-46.6	17.1	0.00e+00	0	42	0	452984832	58	5196
2026-01-29 10:08:17.45	164.50	45.53	-44.4	-47.3	16.6	0.00e+00	0	42	0	455081984	59	5282
2026-01-29 10:08:18.59	164.53	45.88	-44.7	-47.7	16.1	0.00e+00	0	42	0	457179136	60	5239
2026-01-29 10:08:19.60	164.56	46.19	-44.8	-47.7	16.2	0.00e+00	0	42	0	458227712	60	5251
2026-01-29 10:08:20.77	164.59	46.56	-44.4	-47.3	16.6	0.00e+00	0	42	0	461373440	60	4984
2026-01-29 10:08:21.65	164.61	46.83	-44.2	-46.9	16.9	0.00e+00	0	42	0	462422016	60	4794
2026-01-29 10:08:22.79	164.65	47.20	-44.3	-47.0	16.8	0.00e+00	0	42	0	464519168	60	4850
2026-01-29 10:08:23.76	164.67	47.51	-44.5	-47.3	16.5	0.00e+00	0	42	0	466616320	60	5026
2026-01-29 10:08:24.75	164.70	47.82	-44.8	-47.8	16.1	0.00e+00	0	42	0	468713472	60	5299
2026-01-29 10:08:25.95	164.74	48.21	-45.1	-48.3	15.6	0.00e+00	0	42	0	470810624	60	5616
2026-01-29 10:08:26.81	164.77	48.49	-45.2	-48.4	15.4	0.00e+00	0	41	0	471859200	61	5395
2026-01-29 10:08:27.94	164.80	48.87	-45.1	-48.2	15.6	0.00e+00	0	42	0	473956352	61	5276
2026-01-29 10:08:28.80	164.83	49.15	-45.1	-48.3	15.6	0.00e+00	0	42	0	476053504	61	5329
2026-01-29 10:08:29.93	164.86	49.53	-44.9	-47.9	15.8	0.00e+00	0	42	0	478150656	61	5093
2026-01-29 10:08:30.79	164.89	49.82	-44.5	-47.3	16.4	0.00e+00	0	42	0	479199232	61	4743
2026-01-29 10:08:31.93	164.93	50.20	-44.4	-47.2	16.6	0.00e+00	0	42	0	481296384	60	4975
2026-01-29 10:08:32.78	164.96	50.49	-44.1	-46.9	16.9	0.00e+00	0	42	0	483393536	60	4789
2026-01-29 10:08:33.92	165.00	50.89	-43.8	-46.5	17.3	0.00e+00	0	42	0	485490688	59	4816
2026-01-29 10:08:34.77	165.03	51.18	-43.7	-46.4	17.4	0.00e+00	0	42	0	487587840	58	5078
2026-01-29 10:08:35.91	165.07	51.58	-43.1	-45.6	18.2	0.00e+00	0	42	0	489684992	58	4609
2026-01-29 10:08:36.76	165.10	51.88	-42.8	-45.2	18.4	0.00e+00	0	42	0	490733568	57	4690
2026-01-29 10:08:37.90	165.15	52.28	-42.7	-45.0	18.7	0.00e+00	0	42	0	492830720	57	4561
2026-01-29 10:08:38.75	165.18	52.58	-42.4	-44.7	18.9	0.00e+00	0	42	0	494927872	56	4678
2026-01-29 10:08:40.08	165.23	53.06	-42.3	-44.5	19.1	0.00e+00	0	42	0	497025024	56	4558
2026-01-29 10:08:40.79	165.26	53.32	-41.8	-44.0	19.5	0.00e+00	0	42	0	498073600	55	4550
2026-01-29 10:08:42.07	165.32	53.79	-41.9	-44.1	19.4	0.00e+00	0	42	0	501219328	55	4618
2026-01-29 10:08:42.78	165.35	54.05	-41.9	-44.2	19.2	0.00e+00	0	42	0	502267904	55	4683
2026-01-29 10:08:44.06	165.40	54.52	-43.0	-45.6	18.2	0.00e+00	0	42	0	504365056	56	5170
2026-01-29 10:08:44.77	165.43	54.79	-43.2	-45.8	17.9	0.00e+00	0	42	0	505413632	57	5031
2026-01-29 10:08:46.05	165.49	55.27	-43.0	-45.5	18.1	0.00e+00	0	42	0	508559360	57	4870
2026-01-29 10:08:46.77	165.53	55.54	-42.6	-45.0	18.6	0.00e+00	0	42	0	509607936	57	4550
2026-01-29 10:08:48.04	165.59	56.02	-41.9	-44.2	19.3	0.00e+00	0	42	0	511705088	55	4657
2026-01-29 10:08:48.77	165.62	56.30	-41.4	-43.5	19.8	0.00e+00	0	42	0	513802240	54	4589
2026-01-29 10:08:50.05	165.69	56.79	-40.9	-42.9	20.3	0.00e+00	0	42	0	515899392	53	4542
2026-01-29 10:08:50.76	165.73	57.07	-41.2	-43.3	20.0	0.00e+00	0	42	0	516947968	53	4757
2026-01-29 10:08:52.04	165.80	57.57	-41.4	-43.6	19.8	0.00e+00	0	42	0	519045120	53	4890
2026-01-29 10:08:52.77	165.84	57.86	-41.6	-43.8	19.6	0.00e+00	0	42	0	521142272	54	4738
2026-01-29 10:08:54.16	165.91	58.41	-42.5	-44.9	18.6	0.00e+00	0	42	0	523239424	55	5056
2026-01-29 10:08:54.87	165.96	58.69	-43.1	-45.5	18.2	0.00e+00	0	42	0	524288000	56	5151
2026-01-29 10:08:56.15	166.03	59.21	-43.0	-45.5	18.3	0.00e+00	0	42	0	527433728	57	4816
2026-01-29 10:08:57.20	166.10	59.63	-42.5	-44.8	18.8	0.00e+00	0	42	0	529530880	57	4493
2026-01-29 10:08:58.40	166.18	60.12	-41.7	-43.9	19.4	0.00e+00	0	42	0	531628032	55	4518
2026-01-29 10:08:59.25	166.23	60.47	-41.4	-43.6	19.8	0.00e+00	0	42	0	532676608	54	4605
2026-01-29 10:09:00.39	166.31	60.94	-41.3	-43.4	19.9	0.00e+00	0	42	0	534773760	54	4539
2026-01-29 10:09:01.25	166.37	61.30	-41.0	-43.1	20.3	0.00e+00	0	42	0	536870912	53	4604
2026-01-29 10:09:02.39	166.45	61.78	-40.3	-42.3	20.8	0.00e+00	0	42	0	538968064	52	4489
2026-01-29 10:09:03.24	166.52	62.13	-39.9	-41.8	21.3	0.00e+00	0	42	0	540016640	51	4487
2026-01-29 10:09:04.38	166.61	62.62	-39.7	-41.6	21.5	0.00e+00	0	42	0	542113792	51	4362
2026-01-29 10:09:05.23	166.67	62.98	-39.9	-41.8	21.3	0.00e+00	0	42	0	544210944	51	4493
2026-01-29 10:09:06.37	166.77	63.47	-40.2	-42.1	21.1	0.00e+00	0	42	0	546308096	51	4636
2026-01-29 10:09:07.22	166.84	63.83	-40.2	-42.2	21.0	0.00e+00	0	42	0	548405248	51	4685
2026-01-29 10:09:08.36	166.94	64.33	-40.6	-42.6	20.7	0.00e+00	0	42	0	550502400	51	4913
2026-01-29 10:09:09.21	167.02	64.70	-40.8	-42.9	20.4	0.00e+00	0	42	0	551550976	52	4792
2026-01-29 10:09:10.35	167.13	65.20	-41.1	-43.3	20.1	0.00e+00	0	42	0	553648128	52	4992
2026-01-29 10:09:11.21	167.22	65.58	-41.1	-43.2	20.2	0.00e+00	0	42	0	555745280	53	4664
2026-01-29 10:09:12.34	167.33	66.08	-41.4	-43.6	19.8	0.00e+00	0	42	0	557842432	53	4888
2026-01-29 10:09:13.29	167.44	66.50	-42.4	-44.7	18.8	0.00e+00	0	42	0	558891008	55	4974
2026-01-29 10:09:14.48	167.57	67.04	-42.4	-44.8	18.7	0.00e+00	0	42	0	562036736	55	4992
2026-01-29 10:09:15.33	167.67	67.42	-42.7	-45.1	18.5	0.00e+00	0	42	0	563085312	56	4912
2026-01-29 10:09:16.46	167.81	67.93	-42.9	-45.3	18.4	0.00e+00	0	42	0	565182464	56	5040
2026-01-29 10:09:17.32	167.92	68.32	-43.9	-46.7	17.3	0.00e+00	0	42	0	567279616	58	5224
2026-01-29 10:09:18.46	168.07	68.85	-45.6	-49.2	14.7	0.00e+00	0	42	0	569376768	61	5860
2026-01-29 10:09:19.31	168.19	69.24	-46.5	-50.5	13.4	0.00e+00	0	42	0	570425344	63	6083
2026-01-29 10:09:20.45	168.36	69.76	-46.0	-49.5	14.5	9.90e-06	0	42	0	572522496	63	5413
2026-01-29 10:09:21.30	168.49	70.16	-45.6	-48.9	15.1	0.00e+00	0	42	0	574619648	63	5042
2026-01-29 10:09:22.43	168.67	70.68	-45.5	-48.8	14.9	0.00e+00	0	42	0	576716800	62	5332
2026-01-29 10:09:23.28	168.82	71.08	-46.0	-49.6	14.3	0.00e+00	0	42	0	577765376	62	5846
2026-01-29 10:09:24.42	169.02	71.62	-45.8	-49.2	14.7	0.00e+00	0	42	0	579862528	62	5578
2026-01-29 10:09:25.28	169.18	72.02	-45.4	-48.5	15.4	0.00e+00	0	42	0	581959680	62	5151
2026-01-29 10:09:26.41	169.41	72.56	-44.1	-46.8	17.0	0.00e+00	0	42	0	584056832	60	4740
2026-01-29 10:09:27.27	169.59	72.97	-43.5	-46.0	17.8	0.00e+00	0	42	0	585105408	58	4816
2026-01-29 10:09:28.40	169.84	73.51	-42.8	-45.1	18.6	0.00e+00	0	42	0	587202560	57	4632
2026-01-29 10:09:29.30	170.06	73.94	-42.6	-44.8	18.8	0.00e+00	0	42	0	589299712	56	4754
2026-01-29 10:09:30.49	170.36	74.51	-42.6	-44.8	18.8	0.00e+00	0	42	0	591396864	56	4742
2026-01-29 10:09:31.34	170.59	74.92	-43.5	-46.1	17.7	0.00e+00	0	42	0	593494016	57	5170
2026-01-29 10:09:32.48	170.91	75.47	-44.8	-47.9	16.0	0.00e+00	0	42	0	595591168	60	5385
2026-01-29 10:09:33.43	171.21	75.93	-45.2	-48.5	15.5	0.00e+00	0	42	0	596639744	61	5408
2026-01-29 10:09:34.42	171.54	76.41	-45.4	-48.7	15.3	0.00e+00	0	42	0	598736896	61	5566
2026-01-29 10:09:35.42	171.89	76.90	-45.2	-48.4	15.5	0.00e+00	0	42	0	600834048	61	5365
2026-01-29 10:09:36.41	172.27	77.38	-43.2	-45.7	18.1	0.00e+00	0	42	0	602931200	58	4663
2026-01-29 10:09:37.41	172.69	77.87	-42.9	-45.3	18.4	0.00e+00	0	42	0	605028352	57	4740
2026-01-29 10:09:38.40	173.14	78.36	-44.2	-47.0	16.8	0.00e+00	0	42	0	606076928	59	5125
2026-01-29 10:09:39.40	173.63	78.85	-45.2	-48.3	15.7	0.00e+00	0	42	0	608174080	60	5633
2026-01-29 10:09:40.39	174.16	79.34	-44.5	-47.3	16.6	0.00e+00	0	42	0	610271232	60	4984
2026-01-29 10:09:41.39	174.75	79.83	-45.0	-48.0	15.9	0.00e+00	0	42	0	612368384	60	5445
2026-01-29 10:09:42.39	175.40	80.32	-44.6	-47.4	16.4	0.00e+00	0	42	0	613416960	60	5096
2026-01-29 10:09:43.38	176.11	80.81	-44.0	-46.7	17.1	0.00e+00	0	42	0	615514112	60	4685
2026-01-29 10:09:44.38	176.91	81.30	-45.5	-48.8	15.2	0.00e+00	0	42	0	617611264	61	5648
2026-01-29 10:09:45.38	177.81	81.79	-46.7	-50.8	13.3	5.30e-06	0	42	0	619708416	63	6285
2026-01-29 10:09:46.45	178.90	82.31	-46.2	-50.2	13.7	2.67e-05	0	42	0	621805568	64	5550
2026-01-29 10:09:47.33	179.92	82.74	-46.1	-50.1	13.7	1.83e-05	0	42	0	622854144	64	5465
2026-01-29 10:09:48.47	181.42	83.29	-45.6	-49.1	14.5	1.50e-06	0	42	0	624951296	63	5210
2026-01-29 10:09:49.33	182.74	83.71	-44.6	-47.6	16.1	0.00e+00	0	42	0	627048448	61	4926
2026-01-29 10:09:50.46	184.75	84.25	-43.6	-46.3	17.4	0.00e+00	0	42	0	629145600	59	4721
2026-01-29 10:09:51.31	186.53	84.65	-44.3	-47.2	16.7	0.00e+00	0	42	0	630194176	59	5235
2026-01-29 10:09:52.45	189.38	85.18	-44.0	-46.7	17.1	0.00e+00	0	42	0	632291328	59	4946
2026-01-29 10:09:53.30	191.94	85.56	-43.7	-46.3	17.6	0.00e+00	0	42	0	634388480	58	5001
2026-01-29 10:09:54.44	196.16	86.06	-44.1	-46.8	17.0	0.00e+00	0	42	0	636485632	59	5005
2026-01-29 10:09:55.29	200.06	86.42	-44.7	-47.7	16.2	0.00e+00	0	42	0	637534208	60	5228
2026-01-29 10:09:56.43	206.62	86.86	-45.5	-48.9	15.1	0.00e+00	0	42	0	640679936	61	5691
2026-01-29 10:09:57.28	212.80	87.16	-47.1	-51.9	11.8	7.00e-07	0	42	0	641728512	65	6415
2026-01-29 10:09:58.42	223.22	87.49	-46.4	-50.5	13.4	1.01e-04	0	42	0	643825664	64	5735
2026-01-29 10:09:59.27	232.71	87.68	-46.8	-51.5	12.1	3.80e-06	0	42	0	645922816	64	6441
2026-01-29 10:10:00.41	247.34	87.81	-45.8	-49.6	14.3	4.50e-06	0	42	0	648019968	63	5478
2026-01-29 10:10:01.26	258.81	87.80	-45.8	-49.5	14.5	0.00e+00	0	42	0	649068544	62	5728
2026-01-29 10:10:02.40	273.31	87.66	-46.0	-49.8	14.1	0.00e+00	0	42	0	651165696	63	5628
2026-01-29 10:10:03.25	282.66	87.47	-44.2	-46.9	17.0	0.00e+00	0	42	0	653262848	59	5071
2026-01-29 10:10:04.61	294.57	87.06	-44.0	-46.7	17.1	0.00e+00	0	42	0	655360000	58	5233
2026-01-29 10:10:05.32	299.45	86.80	-45.5	-48.9	15.0	0.00e+00	0	42	0	656408576	61	5707
2026-01-29 10:10:06.60	306.45	86.29	-44.4	-47.2	16.6	0.00e+00	0	42	0	659554304	60	4965
2026-01-29 10:10:07.32	309.57	85.99	-43.5	-46.1	17.7	0.00e+00	0	42	0	660602880	58	4871
2026-01-29 10:10:08.61	314.11	85.42	-44.4	-47.3	16.6	0.00e+00	0	42	0	662700032	59	5281
2026-01-29 10:10:09.32	316.14	85.09	-44.2	-47.0	16.9	0.00e+00	0	42	0	664797184	60	4827
2026-01-29 10:10:10.60	319.20	84.50	-43.5	-46.1	17.7	0.00e+00	0	42	0	666894336	58	4891
2026-01-29 10:10:11.32	320.65	84.16	-44.0	-46.8	17.0	0.00e+00	0	42	0	667942912	59	4996
2026-01-29 10:10:12.60	322.83	83.55	-43.6	-46.1	17.6	0.00e+00	0	42	0	670040064	59	4650
2026-01-29 10:10:13.48	324.11	83.12	-43.7	-46.3	17.4	0.00e+00	0	42	0	672137216	58	5011
2026-01-29 10:10:14.62	325.54	82.57	-44.3	-47.1	16.7	0.00e+00	0	42	0	674234368	59	5214
2026-01-29 10:10:15.47	326.48	82.15	-44.1	-46.8	16.9	0.00e+00	0	42	0	676331520	59	5016
2026-01-29 10:10:16.61	327.59	81.60	-45.9	-49.5	14.5	7.00e-07	0	42	0	678428672	62	5742
2026-01-29 10:10:17.46	328.32	81.18	-44.9	-48.0	15.8	0.00e+00	0	42	0	679477248	61	5129
2026-01-29 10:10:18.60	329.21	80.62	-42.7	-45.0	18.6	0.00e+00	0	42	0	681574400	57	4550
2026-01-29 10:10:19.45	329.80	80.20	-43.1	-45.5	18.2	0.00e+00	0	42	0	683671552	57	4866
2026-01-29 10:10:20.59	330.51	79.64	-43.2	-45.6	18.2	0.00e+00	0	42	0	685768704	57	4900
2026-01-29 10:10:21.83	331.21	79.03	-44.7	-47.7	16.2	0.00e+00	0	42	0	687865856	59	5550
2026-01-29 10:10:22.69	331.65	78.61	-45.8	-49.6	14.4	0.00e+00	0	42	0	688914432	62	5805
2026-01-29 10:10:23.82	332.18	78.06	-44.6	-47.5	16.3	0.00e+00	0	42	0	692060160	60	5157
2026-01-29 10:10:24.68	332.55	77.64	-44.2	-47.0	16.9	0.00e+00	0	42	0	693108736	59	5107
2026-01-29 10:10:25.81	333.00	77.09	-45.5	-49.0	15.0	0.00e+00	0	42	0	695205888	61	5738
2026-01-29 10:10:26.67	333.31	76.67	-43.8	-46.5	17.3	0.00e+00	0	42	0	697303040	59	4825
2026-01-29 10:10:27.80	333.70	76.12	-42.4	-44.7	19.0	0.00e+00	0	42	0	699400192	56	4673
2026-01-29 10:10:28.66	333.97	75.70	-43.1	-45.5	18.3	0.00e+00	0	42	0	700448768	56	5156
2026-01-29 10:10:29.79	334.31	75.15	-43.8	-46.3	17.5	0.00e+00	0	42	0	702545920	58	5033
2026-01-29 10:10:30.65	334.55	74.74	-44.9	-47.8	16.1	0.00e+00	0	42	0	704643072	60	5327
2026-01-29 10:10:31.91	334.88	74.13	-44.9	-47.9	16.0	0.00e+00	0	42	0	706740224	61	5080
2026-01-29 10:10:32.70	335.07	73.76	-44.7	-47.6	16.2	0.00e+00	0	42	0	707788800	61	4910
2026-01-29 10:10:33.86	335.34	73.20	-44.5	-47.5	16.5	0.00e+00	0	42	0	710934528	60	5120
2026-01-29 10:10:34.71	335.52	72.80	-45.8	-49.3	14.7	0.00e+00	0	42	0	711983104	62	5641
2026-01-29 10:10:36.01	335.78	72.18	-46.3	-50.1	13.8	1.44e-05	0	42	0	714080256	64	5526
2026-01-29 10:10:36.72	335.92	71.85	-45.7	-49.0	14.9	0.00e+00	0	42	0	716177408	63	5129
2026-01-29 10:10:38.00	336.15	71.25	-46.3	-50.1	13.9	0.00e+00	0	42	0	718274560	63	5831
2026-01-29 10:10:38.72	336.28	70.91	-47.5	-52.4	11.5	1.11e-04	0	42	0	719323136	65	6783
2026-01-29 10:10:40.00	336.49	70.31	-46.8	-50.9	13.0	7.52e-04	0	42	0	722468864	65	5703
2026-01-29 10:10:40.71	336.60	69.98	-46.4	-50.3	13.5	1.14e-05	0	42	0	723517440	64	5637
2026-01-29 10:10:41.99	336.79	69.39	-45.6	-49.0	15.0	1.50e-06	0	42	0	725614592	63	5115
2026-01-29 10:10:42.71	336.90	69.06	-44.1	-46.8	17.0	0.00e+00	0	42	0	726663168	60	4711
2026-01-29 10:10:43.99	337.07	68.48	-45.3	-48.6	15.4	0.00e+00	0	42	0	729808896	61	5471
2026-01-29 10:10:44.70	337.16	68.15	-45.8	-49.3	14.7	0.00e+00	0	42	0	730857472	62	5632
2026-01-29 10:10:45.98	337.32	67.58	-45.1	-48.1	15.8	0.00e+00	0	42	0	732954624	62	4884
2026-01-29 10:10:46.70	337.41	67.25	-45.2	-48.4	15.5	0.00e+00	0	42	0	734003200	61	5347
2026-01-29 10:10:47.99	337.56	66.67	-45.7	-49.4	14.7	0.00e+00	0	42	0	737148928	62	5658
2026-01-29 10:10:48.70	337.63	66.36	-45.0	-48.2	15.6	7.00e-07	0	42	0	738197504	62	4952
2026-01-29 10:10:49.98	337.77	65.79	-43.9	-46.7	17.1	0.00e+00	0	42	0	740294656	59	4962
2026-01-29 10:10:50.70	337.84	65.47	-44.3	-47.2	16.7	0.00e+00	0	42	0	742391808	59	5259
2026-01-29 10:10:51.98	337.97	64.91	-43.3	-45.9	17.9	0.00e+00	0	42	0	744488960	58	4772
2026-01-29 10:10:52.69	338.03	64.60	-42.7	-45.0	18.7	0.00e+00	0	42	0	745537536	57	4554
2026-01-29 10:10:53.97	338.15	64.05	-42.3	-44.6	18.9	0.00e+00	0	42	0	747634688	55	4925
2026-01-29 10:10:54.70	338.22	63.73	-44.0	-46.8	17.1	0.00e+00	0	42	0	749731840	58	5284
2026-01-29 10:10:56.26	338.35	63.06	-43.3	-45.9	17.9	0.00e+00	0	42	0	752877568	58	4776
2026-01-29 10:10:56.89	338.40	62.80	-42.5	-44.9	18.9	0.00e+00	0	42	0	753926144	57	4504
2026-01-29 10:10:58.39	338.52	62.16	-41.9	-44.1	19.4	0.00e+00	0	42	0	756023296	55	4646
2026-01-29 10:10:59.10	338.57	61.86	-41.8	-44.0	19.4	0.00e+00	0	42	0	758120448	55	4558
2026-01-29 10:11:00.40	338.66	61.32	-43.1	-45.5	18.4	0.00e+00	0	42	0	760217600	56	5110
2026-01-29 10:11:01.11	338.71	61.03	-44.6	-47.5	16.3	0.00e+00	0	42	0	761266176	60	5131
2026-01-29 10:11:02.47	338.81	60.47	-46.0	-49.8	14.2	7.00e-07	0	42	0	764411904	62	5949
2026-01-29 10:11:03.18	338.85	60.18	-45.9	-49.5	14.3	7.00e-07	0	42	0	765460480	62	5757
2026-01-29 10:11:04.52	338.94	59.63	-43.8	-46.4	17.3	0.00e+00	0	42	0	767557632	59	4805
2026-01-29 10:11:05.24	338.99	59.34	-43.3	-45.8	18.0	0.00e+00	0	42	0	769654784	58	4746
2026-01-29 10:11:06.51	339.06	58.83	-44.1	-46.8	17.0	0.00e+00	0	42	0	771751936	59	5036
2026-01-29 10:11:07.25	339.11	58.54	-43.5	-46.2	17.7	0.00e+00	0	42	0	772800512	58	4956
2026-01-29 10:11:08.53	339.18	58.03	-43.5	-46.1	17.6	0.00e+00	0	42	0	774897664	58	4921
2026-01-29 10:11:09.24	339.22	57.75	-43.8	-46.5	17.3	0.00e+00	0	42	0	776994816	58	5136
2026-01-29 10:11:10.73	339.30	57.17	-43.5	-46.0	17.7	0.00e+00	0	42	0	779091968	59	4582
2026-01-29 10:11:11.44	339.34	56.89	-41.7	-43.9	19.5	0.00e+00	0	42	0	781189120	55	4532
2026-01-29 10:11:12.78	339.41	56.38	-41.4	-43.6	19.9	0.00e+00	0	42	0	783286272	54	4602
2026-01-29 10:11:13.49	339.44	56.11	-42.6	-45.0	18.7	0.00e+00	0	42	0	784334848	55	5133
2026-01-29 10:11:14.78	339.50	55.62	-43.7	-46.3	17.6	0.00e+00	0	42	0	787480576	58	5001
2026-01-29 10:11:15.49	339.54	55.35	-42.9	-45.3	18.4	0.00e+00	0	42	0	788529152	57	4731
2026-01-29 10:11:16.77	339.60	54.87	-42.1	-44.3	19.3	0.00e+00	0	42	0	790626304	56	4488
2026-01-29 10:11:17.50	339.63	54.60	-42.9	-45.3	18.5	0.00e+00	0	42	0	791674880	56	5013
2026-01-29 10:11:18.78	339.69	54.13	-43.9	-46.5	17.3	0.00e+00	0	42	0	794820608	58	5124
2026-01-29 10:11:19.50	339.72	53.87	-43.9	-46.5	17.2	0.00e+00	0	42	0	795869184	58	5158
2026-01-29 10:11:20.78	339.77	53.40	-42.6	-45.0	18.6	0.00e+00	0	42	0	797966336	57	4568
2026-01-29 10:11:21.49	339.80	53.14	-42.3	-44.6	19.1	0.00e+00	0	42	0	800063488	56	4641
2026-01-29 10:11:22.77	339.85	52.68	-43.3	-45.8	18.0	0.00e+00	0	42	0	802160640	57	5008
2026-01-29 10:11:23.50	339.88	52.42	-44.2	-47.0	16.8	0.00e+00	0	42	0	803209216	59	5150
2026-01-29 10:11:24.78	339.93	51.97	-44.7	-47.7	16.1	0.00e+00	0	42	0	806354944	59	5565
2026-01-29 10:11:25.62	339.96	51.68	-45.3	-48.8	15.3	0.00e+00	0	42	0	807403520	61	5598
2026-01-29 10:11:26.76	340.00	51.28	-45.2	-48.6	15.4	0.00e+00	0	42	0	809500672	61	5488
2026-01-29 10:11:27.77	340.04	50.93	-45.2	-48.4	15.5	0.00e+00	0	42	0	811597824	61	5358
2026-01-29 10:11:28.94	340.08	50.53	-44.6	-47.6	16.3	0.00e+00	0	42	0	813694976	61	4890
2026-01-29 10:11:29.82	340.11	50.23	-44.2	-47.0	16.9	0.00e+00	0	42	0	815792128	60	4830
2026-01-29 10:11:30.96	340.15	49.85	-43.8	-46.5	17.4	0.00e+00	0	42	0	817889280	59	4843
2026-01-29 10:11:31.81	340.18	49.56	-43.7	-46.3	17.4	0.00e+00	0	42	0	818937856	59	4732
2026-01-29 10:11:32.95	340.21	49.19	-43.7	-46.2	17.7	0.00e+00	0	42	0	821035008	58	4955
2026-01-29 10:11:33.80	340.24	48.90	-44.8	-47.8	16.1	0.00e+00	0	42	0	823132160	60	5297
2026-01-29 10:11:34.94	340.28	48.53	-46.1	-49.9	14.0	7.00e-07	0	42	0	825229312	62	6054
2026-01-29 10:11:35.79	340.30	48.26	-47.0	-51.7	12.1	1.34e-04	0	42	0	826277888	64	6628
2026-01-29 10:11:36.92	340.34	47.89	-45.3	-48.7	15.1	2.82e-05	0	42	0	828375040	62	5250
2026-01-29 10:11:37.78	340.36	47.62	-43.9	-46.6	17.1	0.00e+00	0	42	0	830472192	59	4916
2026-01-29 10:11:38.92	340.40	47.25	-42.6	-44.9	18.7	0.00e+00	0	42	0	832569344	57	4509
2026-01-29 10:11:39.77	340.42	46.98	-42.7	-45.0	18.7	0.00e+00	0	42	0	833617920	56	4844
2026-01-29 10:11:40.91	340.45	46.63	-43.2	-45.7	18.1	0.00e+00	0	42	0	835715072	57	4934
2026-01-29 10:11:41.76	340.48	46.36	-43.8	-46.4	17.5	0.00e+00	0	42	0	837812224	58	5064
2026-01-29 10:11:42.90	340.51	46.01	-43.8	-46.4	17.4	0.00e+00	0	42	0	839909376	58	5097
2026-01-29 10:11:43.75	340.53	45.75	-44.5	-47.4	16.5	0.00e+00	0	42	0	840957952	59	5353
2026-01-29 10:11:45.02	340.56	45.37	-44.4	-47.4	16.5	0.00e+00	0	42	0	844103680	60	5054
2026-01-29 10:11:45.79	340.58	45.13	-44.2	-47.3	16.6	0.00e+00	0	42	0	845152256	60	5008
2026-01-29 10:11:47.18	340.62	44.72	-44.0	-47.0	16.8	0.00e+00	0	42	0	848297984	59	5113
2026-01-29 10:11:47.89	340.64	44.51	-43.3	-46.1	17.7	0.00e+00	0	42	0	849346560	58	4919
2026-01-29 10:11:49.25	340.67	44.11	-42.2	-44.7	18.9	0.00e+00	0	42	0	851443712	56	4674
2026-01-29 10:11:49.96	340.69	43.90	-41.6	-43.9	19.5	0.00e+00	0	42	0	853540864	55	4535
2026-01-29 10:11:51.27	340.72	43.52	-41.5	-43.6	19.7	0.00e+00	0	42	0	855638016	54	4638
2026-01-29 10:11:51.98	340.73	43.32	-41.1	-43.2	20.2	0.00e+00	0	42	0	856686592	54	4399
2026-01-29 10:11:53.26	340.76	42.95	-41.5	-43.6	19.8	0.00e+00	0	42	0	858783744	53	4893
2026-01-29 10:11:53.97	340.78	42.75	-42.0	-44.2	19.3	0.00e+00	0	42	0	860880896	54	4955
2026-01-29 10:11:55.25	340.81	42.39	-43.8	-46.4	17.5	0.00e+00	0	42	0	862978048	58	5058
2026-01-29 10:11:55.99	340.82	42.18	-44.3	-47.1	16.6	0.00e+00	0	42	0	864026624	59	5209
2026-01-29 10:11:57.27	340.85	41.83	-45.3	-48.7	15.3	0.00e+00	0	42	0	867172352	61	5535
2026-01-29 10:11:57.99	340.87	41.63	-45.0	-48.3	15.7	0.00e+00	0	42	0	868220928	61	5285
2026-01-29 10:11:59.27	340.90	41.28	-44.1	-47.0	16.8	0.00e+00	0	42	0	870318080	60	4870
2026-01-29 10:11:59.98	340.91	41.09	-43.7	-46.4	17.3	0.00e+00	0	42	0	871366656	59	4812
2026-01-29 10:12:01.26	340.94	40.75	-43.7	-46.4	17.3	0.00e+00	0	42	0	874512384	58	5096
2026-01-29 10:12:01.97	340.95	40.56	-43.8	-46.6	17.2	0.00e+00	0	42	0	875560960	58	5205
2026-01-29 10:12:03.25	340.98	40.22	-43.5	-46.3	17.6	0.00e+00	0	42	0	877658112	58	4995
2026-01-29 10:12:03.98	340.99	40.03	-43.6	-46.3	17.5	0.00e+00	0	42	0	879755264	58	5034
2026-01-29 10:12:05.26	341.02	39.69	-43.8	-46.6	17.3	0.00e+00	0	42	0	881852416	58	5161
2026-01-29 10:12:05.97	341.03	39.51	-44.3	-47.2	16.6	0.00e+00	0	42	0	882900992	59	5258
2026-01-29 10:12:07.25	341.05	39.18	-45.1	-48.2	15.7	0.00e+00	0	42	0	884998144	60	5576
2026-01-29 10:12:07.96	341.07	39.00	-45.8	-49.4	14.4	0.00e+00	0	42	0	887095296	62	5683
2026-01-29 10:12:09.24	341.09	38.67	-46.5	-50.6	13.2	1.90e-05	0	42	0	889192448	63	6182
2026-01-29 10:12:09.96	341.10	38.49	-47.1	-51.9	11.9	1.43e-04	0	42	0	890241024	64	6762
2026-01-29 10:12:11.24	341.13	38.17	-47.7	-53.6	10.2	1.23e-02	0	42	0	893386752	66	7296
2026-01-29 10:12:11.97	341.14	37.99	-47.0	-51.9	11.7	5.22e-03	0	42	0	894435328	66	6054
2026-01-29 10:12:13.24	341.16	37.68	-46.6	-51.2	12.2	4.32e-04	0	42	0	896532480	65	5872
2026-01-29 10:12:13.97	341.18	37.50	-46.1	-50.3	13.3	1.42e-04	0	42	0	898629632	64	5598
2026-01-29 10:12:15.25	341.20	37.19	-45.7	-49.8	13.8	3.00e-06	0	42	0	900726784	63	5633
2026-01-29 10:12:15.98	341.21	37.02	-45.9	-50.2	13.4	7.60e-06	0	42	0	901775360	63	5908
2026-01-29 10:12:17.25	341.23	36.71	-46.1	-50.8	13.0	3.35e-05	0	42	0	903872512	63	6285
2026-01-29 10:12:17.96	341.24	36.55	-46.0	-50.5	13.2	4.11e-05	0	42	0	905969664	63	6123
2026-01-29 10:12:19.24	341.26	36.24	-45.1	-48.8	15.1	0.00e+00	0	42	0	908066816	62	5295
2026-01-29 10:12:19.97	341.28	36.07	-44.9	-48.4	15.5	0.00e+00	0	42	0	909115392	61	5369
2026-01-29 10:12:21.25	341.30	35.78	-44.8	-48.2	15.7	0.00e+00	0	42	0	911212544	61	5234
2026-01-29 10:12:22.20	341.31	35.56	-44.7	-48.0	15.9	0.00e+00	0	42	0	913309696	61	5102
2026-01-29 10:12:23.19	341.33	35.33	-45.1	-48.5	15.4	0.00e+00	0	42	0	915406848	61	5432
2026-01-29 10:12:24.18	341.34	35.11	-46.0	-49.8	14.2	0.00e+00	0	42	0	917504000	62	5954
2026-01-29 10:12:25.56	341.36	34.80	-46.5	-50.8	13.2	1.67e-05	0	42	0	919601152	63	6322
2026-01-29 10:12:26.27	341.38	34.64	-47.1	-52.0	11.9	8.39e-05	0	42	0	921698304	64	6844
2026-01-29 10:12:27.55	341.39	34.36	-47.5	-53.1	10.8	2.17e-03	0	42	0	923795456	65	7307
2026-01-29 10:12:28.26	341.41	34.20	-47.7	-53.7	10.1	2.67e-03	0	42	0	924844032	66	7389
2026-01-29 10:12:29.54	341.42	33.92	-47.6	-53.2	10.4	4.56e-03	0	42	0	926941184	66	7003
2026-01-29 10:12:30.25	341.43	33.77	-47.2	-52.4	11.2	3.57e-03	0	42	0	929038336	66	6403
2026-01-29 10:12:31.53	341.45	33.49	-47.3	-52.6	11.1	9.80e-04	0	42	0	931135488	66	6533
2026-01-29 10:12:32.27	341.46	33.33	-47.3	-52.5	11.1	4.99e-04	0	42	0	932184064	65	6811
2026-01-29 10:12:33.55	341.48	33.06	-47.2	-52.5	11.2	1.42e-03	0	42	0	934281216	65	6809
2026-01-29 10:12:34.26	341.49	32.91	-46.4	-51.0	12.7	1.10e-03	0	42	0	936378368	64	6110
2026-01-29 10:12:35.68	341.51	32.61	-46.0	-50.4	13.5	3.89e-05	0	42	0	938475520	63	6013
2026-01-29 10:12:36.39	341.52	32.47	-45.7	-49.9	14.0	1.37e-05	0	42	0	940572672	63	5661
2026-01-29 10:12:37.67	341.54	32.20	-44.9	-48.6	15.3	0.00e+00	0	42	0	942669824	61	5466
2026-01-29 10:12:38.41	341.55	32.05	-44.7	-48.2	15.7	0.00e+00	0	42	0	943718400	61	5243
2026-01-29 10:12:39.75	341.57	31.78	-44.5	-47.7	16.1	0.00e+00	0	42	0	946864128	60	5261
2026-01-29 10:12:40.46	341.58	31.63	-44.5	-47.6	16.2	0.00e+00	0	42	0	947912704	60	5204
2026-01-29 10:12:41.74	341.59	31.38	-44.2	-47.1	16.7	0.00e+00	0	42	0	950009856	60	4912
2026-01-29 10:12:42.47	341.60	31.23	-44.6	-47.7	16.2	0.00e+00	0	42	0	951058432	60	5250
2026-01-29 10:12:43.74	341.62	30.98	-44.6	-47.6	16.3	0.00e+00	0	42	0	954204160	60	5190
2026-01-29 10:12:44.47	341.63	30.84	-45.0	-48.2	15.8	0.00e+00	0	42	0	955252736	60	5545
2026-01-29 10:12:45.75	341.65	30.59	-45.7	-49.3	14.6	0.00e+00	0	42	0	957349888	62	5646
2026-01-29 10:12:46.48	341.65	30.45	-45.9	-49.7	14.2	0.00e+00	0	42	0	959447040	62	5910
2026-01-29 10:12:47.75	341.67	30.20	-46.2	-50.4	13.5	6.80e-06	0	42	0	961544192	63	6014
2026-01-29 10:12:48.47	341.68	30.06	-46.4	-50.8	13.0	5.64e-05	0	42	0	962592768	64	5957
2026-01-29 10:12:49.74	341.70	29.82	-46.4	-50.8	12.9	5.41e-05	0	42	0	964689920	64	5983
2026-01-29 10:12:50.63	341.71	29.65	-46.3	-50.6	13.1	2.44e-05	0	42	0	966787072	64	5825
2026-01-29 10:12:52.01	341.72	29.40	-46.2	-50.2	13.6	1.14e-05	0	42	0	969932800	64	5557
2026-01-29 10:12:52.73	341.73	29.26	-46.0	-49.8	14.2	4.50e-06	0	42	0	970981376	63	5620
2026-01-29 10:12:54.18	341.75	28.99	-45.4	-49.1	14.8	7.00e-07	0	42	0	973078528	62	5511
2026-01-29 10:12:54.89	341.76	28.86	-45.1	-48.7	15.1	7.00e-07	0	42	0	975175680	62	5255
2026-01-29 10:12:56.23	341.77	28.62	-44.4	-47.9	16.0	0.00e+00	0	42	0	977272832	61	5056
2026-01-29 10:12:56.94	341.78	28.49	-44.4	-47.8	16.0	0.00e+00	0	42	0	978321408	60	5324
2026-01-29 10:12:58.22	341.80	28.26	-43.8	-46.9	17.0	0.00e+00	0	42	0	981467136	59	5058
2026-01-29 10:12:58.95	341.80	28.13	-43.9	-47.0	16.8	0.00e+00	0	42	0	982515712	59	5104
2026-01-29 10:13:00.23	341.82	27.90	-43.9	-46.9	16.9	0.00e+00	0	42	0	984612864	59	5068
2026-01-29 10:13:00.94	341.83	27.78	-43.8	-46.6	17.2	0.00e+00	0	42	0	985661440	59	4902
2026-01-29 10:13:02.22	341.84	27.55	-43.7	-46.4	17.3	0.00e+00	0	42	0	988807168	58	5086
2026-01-29 10:13:02.93	341.85	27.43	-43.4	-46.0	17.7	0.00e+00	0	42	0	989855744	58	4854
2026-01-29 10:13:04.21	341.86	27.21	-43.0	-45.5	18.2	0.00e+00	0	42	0	991952896	58	4558
2026-01-29 10:13:04.94	341.87	27.08	-43.3	-45.7	18.0	0.00e+00	0	42	0	994050048	58	4698
2026-01-29 10:13:06.22	341.89	26.87	-42.9	-45.3	18.3	0.00e+00	0	42	0	996147200	57	4732
2026-01-29 10:13:06.94	341.89	26.74	-42.7	-45.2	18.5	0.00e+00	0	42	0	997195776	57	4657
2026-01-29 10:13:08.22	341.91	26.53	-42.7	-45.2	18.4	0.00e+00	0	42	0	1000341504	57	4661
2026-01-29 10:13:08.95	341.91	26.41	-42.6	-45.0	18.5	0.00e+00	0	42	0	1001390080	57	4575
2026-01-29 10:13:10.22	341.93	26.19	-42.5	-44.9	18.7	0.00e+00	0	42	0	1003487232	56	4807
2026-01-29 10:13:10.95	341.94	26.07	-42.3	-44.8	18.8	0.00e+00	0	42	0	1004535808	56	4727
2026-01-29 10:13:12.23	341.95	25.86	-42.2	-44.6	19.0	0.00e+00	0	42	0	1007681536	56	4642
2026-01-29 10:13:12.94	341.96	25.75	-42.2	-44.6	19.0	0.00e+00	0	42	0	1008730112	56	4627
2026-01-29 10:13:14.26	341.97	25.53	-42.3	-44.7	18.9	0.00e+00	0	42	0	1010827264	56	4677
2026-01-29 10:13:14.98	341.98	25.42	-42.4	-44.8	18.8	0.00e+00	0	42	0	1012924416	56	4721
2026-01-29 10:13:16.25	341.99	25.21	-42.4	-44.8	18.8	0.00e+00	0	42	0	1015021568	56	4752
2026-01-29 10:13:16.96	342.00	25.10	-42.3	-44.7	18.9	0.00e+00	0	42	0	1016070144	56	4691
2026-01-29 10:13:18.24	342.01	24.90	-42.8	-45.3	18.3	0.00e+00	0	42	0	1018167296	56	4999
2026-01-29 10:13:18.97	342.02	24.78	-42.6	-45.1	18.5	0.00e+00	0	42	0	1020264448	56	4905
2026-01-29 10:13:20.24	342.03	24.58	-43.0	-45.5	18.2	0.00e+00	0	42	0	1022361600	56	5130
2026-01-29 10:13:20.96	342.04	24.47	-43.0	-45.5	18.1	0.00e+00	0	42	0	1023410176	56	5140
2026-01-29 10:13:22.24	342.05	24.27	-42.9	-45.4	18.3	0.00e+00	0	42	0	1026555904	56	5050
2026-01-29 10:13:22.95	342.06	24.16	-42.8	-45.4	18.3	0.00e+00	0	42	0	1027604480	56	5046
2026-01-29 10:13:24.23	342.07	23.97	-42.6	-45.1	18.6	0.00e+00	0	42	0	1029701632	56	4877
2026-01-29 10:13:24.94	342.08	23.86	-42.5	-44.9	18.7	0.00e+00	0	42	0	1030750208	56	4800
2026-01-29 10:13:26.22	342.09	23.67	-42.0	-44.3	19.1	0.00e+00	0	42	0	1033895936	56	4484
2026-01-29 10:13:26.94	342.10	23.56	-41.8	-44.1	19.2	0.00e+00	0	42	0	1034944512	55	4632
2026-01-29 10:13:28.22	342.11	23.37	-41.5	-43.7	19.6	0.00e+00	0	42	0	1037041664	54	4688
2026-01-29 10:13:28.95	342.12	23.26	-41.4	-43.7	19.7	0.00e+00	0	42	0	1039138816	54	4657
2026-01-29 10:13:30.27	342.13	23.06	-41.3	-43.5	19.9	0.00e+00	0	42	0	1041235968	54	4546
2026-01-29 10:13:30.98	342.13	22.96	-41.4	-43.6	19.7	0.00e+00	0	42	0	1042284544	54	4620
2026-01-29 10:13:32.26	342.15	22.77	-41.3	-43.5	19.8	0.00e+00	0	42	0	1045430272	54	4551
2026-01-29 10:13:32.97	342.15	22.67	-41.4	-43.6	19.7	0.00e+00	0	42	0	1046478848	54	4619
2026-01-29 10:13:34.26	342.16	22.48	-41.4	-43.6	19.8	0.00e+00	0	42	0	1048576000	54	4621
2026-01-29 10:13:34.98	342.17	22.38	-41.4	-43.6	19.7	0.00e+00	0	42	0	1049624576	54	4603
2026-01-29 10:13:36.26	342.18	22.20	-41.5	-43.7	19.6	0.00e+00	0	42	0	1052770304	54	4691
2026-01-29 10:13:36.97	342.19	22.10	-41.6	-43.8	19.5	0.00e+00	0	42	0	1053818880	54	4736
2026-01-29 10:13:38.25	342.20	21.91	-41.7	-44.0	19.4	0.00e+00	0	42	0	1055916032	54	4827
2026-01-29 10:13:38.98	342.21	21.81	-41.9	-44.2	19.2	0.00e+00	0	42	0	1056964608	54	4944
2026-01-29 10:13:40.26	342.22	21.63	-41.8	-44.2	19.2	0.00e+00	0	42	0	1060110336	54	4939
2026-01-29 10:13:41.06	342.23	21.52	-41.8	-44.1	19.2	0.00e+00	0	42	0	1061158912	54	4926
2026-01-29 10:13:42.20	342.24	21.37	-42.0	-44.4	19.0	0.00e+00	0	42	0	1063256064	54	5088
2026-01-29 10:13:43.21	342.25	21.23	-42.1	-44.5	18.8	0.00e+00	0	42	0	1065353216	54	5159
2026-01-29 10:13:44.38	342.26	21.07	-42.0	-44.4	19.0	0.00e+00	0	42	0	1067450368	54	5095
2026-01-29 10:13:45.23	342.26	20.95	-42.2	-44.7	18.7	0.00e+00	0	42	0	1069547520	55	4937
2026-01-29 10:13:46.37	342.27	20.80	-42.2	-44.6	18.8	0.00e+00	0	42	0	1071644672	55	4925
2026-01-29 10:13:47.22	342.28	20.68	-42.3	-44.8	18.7	0.00e+00	0	42	0	1072693248	55	4996
2026-01-29 10:13:48.36	342.29	20.53	-42.4	-44.8	18.6	0.00e+00	0	42	0	1074790400	55	5038
2026-01-29 10:13:49.21	342.30	20.42	-42.5	-44.9	18.5	0.00e+00	0	42	0	1076887552	55	5042
2026-01-29 10:13:50.35	342.31	20.27	-42.4	-44.8	18.6	0.00e+00	0	42	0	1078984704	55	5024
2026-01-29 10:13:51.20	342.31	20.16	-42.7	-45.2	18.4	0.00e+00	0	42	0	1080033280	56	4935
2026-01-29 10:13:52.34	342.32	20.01	-42.8	-45.2	18.4	0.00e+00	0	42	0	1082130432	56	4949
2026-01-29 10:13:53.19	342.33	19.90	-42.7	-45.1	18.5	0.00e+00	0	42	0	1084227584	56	4887
2026-01-29 10:13:54.33	342.34	19.75	-42.7	-45.1	18.5	0.00e+00	0	42	0	1086324736	56	4896
2026-01-29 10:13:55.18	342.35	19.64	-42.6	-45.1	18.5	0.00e+00	0	42	0	1087373312	56	4878
2026-01-29 10:13:56.32	342.36	19.49	-42.6	-45.0	18.6	0.00e+00	0	42	0	1090519040	56	4833
2026-01-29 10:13:57.17	342.36	19.39	-42.6	-45.1	18.5	0.00e+00	0	42	0	1091567616	56	4873
2026-01-29 10:13:58.31	342.37	19.24	-42.4	-44.8	18.7	0.00e+00	0	42	0	1093664768	56	4759
2026-01-29 10:13:59.16	342.38	19.13	-42.4	-44.8	18.7	0.00e+00	0	42	0	1095761920	56	4754
2026-01-29 10:14:00.38	342.39	18.98	-42.5	-45.0	18.6	0.00e+00	0	42	0	1097859072	56	4833
2026-01-29 10:14:01.23	342.40	18.87	-42.3	-44.8	18.8	0.00e+00	0	42	0	1098907648	56	4712
2026-01-29 10:14:02.37	342.41	18.73	-42.3	-44.8	18.8	0.00e+00	0	42	0	1101004800	56	4717
2026-01-29 10:14:03.22	342.41	18.63	-42.3	-44.7	18.9	0.00e+00	0	42	0	1103101952	56	4674
2026-01-29 10:14:04.50	342.42	18.47	-42.4	-44.8	18.8	0.00e+00	0	42	0	1105199104	56	4709
2026-01-29 10:14:05.21	342.43	18.38	-42.1	-44.5	19.0	0.00e+00	0	42	0	1106247680	56	4553
2026-01-29 10:14:06.49	342.44	18.23	-42.2	-44.5	18.9	0.00e+00	0	42	0	1109393408	56	4597
2026-01-29 10:14:07.21	342.45	18.14	-42.2	-44.6	18.9	0.00e+00	0	42	0	1110441984	56	4623
2026-01-29 10:14:08.74	342.46	17.96	-42.3	-44.7	18.8	0.00e+00	0	42	0	1113587712	56	4690
2026-01-29 10:14:09.46	342.46	17.87	-42.4	-44.8	18.7	0.00e+00	0	42	0	1114636288	56	4734
2026-01-29 10:14:10.73	342.47	17.72	-42.4	-44.9	18.6	0.00e+00	0	42	0	1116733440	56	4784
2026-01-29 10:14:11.44	342.48	17.64	-42.4	-44.9	18.7	0.00e+00	0	42	0	1118830592	56	4765
2026-01-29 10:14:12.87	342.49	17.47	-42.1	-44.5	18.9	0.00e+00	0	42	0	1120927744	56	4594
2026-01-29 10:14:13.58	342.49	17.38	-42.3	-44.8	18.7	0.00e+00	0	42	0	1121976320	56	4726
2026-01-29 10:14:14.86	342.50	17.23	-42.3	-44.9	18.6	0.00e+00	0	42	0	1125122048	56	4776
2026-01-29 10:14:15.58	342.51	17.15	-42.5	-45.0	18.6	0.00e+00	0	42	0	1126170624	56	4869
2026-01-29 10:14:16.86	342.52	17.00	-42.5	-45.1	18.4	0.00e+00	0	42	0	1128267776	56	4878
2026-01-29 10:14:17.60	342.53	16.92	-42.4	-44.9	18.6	0.00e+00	0	42	0	1130364928	56	4803
2026-01-29 10:14:19.04	342.54	16.75	-42.6	-45.2	18.3	0.00e+00	0	42	0	1132462080	56	4982
2026-01-29 10:14:19.75	342.54	16.67	-42.5	-45.1	18.5	0.00e+00	0	42	0	1133510656	56	4894
2026-01-29 10:14:21.03	342.55	16.53	-42.7	-45.2	18.3	0.00e+00	0	42	0	1136656384	56	4966
2026-01-29 10:14:21.74	342.56	16.45	-42.8	-45.4	18.1	0.00e+00	0	42	0	1137704960	56	5084
2026-01-29 10:14:23.12	342.57	16.29	-42.9	-45.5	18.1	0.00e+00	0	42	0	1139802112	56	5103
2026-01-29 10:14:23.83	342.57	16.21	-42.8	-45.3	18.3	0.00e+00	0	42	0	1141899264	56	5013
2026-01-29 10:14:25.11	342.58	16.07	-42.6	-45.1	18.4	0.00e+00	0	42	0	1143996416	56	4907
2026-01-29 10:14:25.82	342.59	15.99	-42.7	-45.1	18.4	0.00e+00	0	42	0	1145044992	56	4916
2026-01-29 10:14:27.23	342.60	15.83	-42.8	-45.3	18.2	0.00e+00	0	42	0	1148190720	56	5020
2026-01-29 10:14:27.94	342.60	15.76	-42.9	-45.5	18.1	0.00e+00	0	42	0	1149239296	56	5116
2026-01-29 10:14:29.22	342.61	15.62	-42.8	-45.4	18.2	0.00e+00	0	42	0	1151336448	56	5052
2026-01-29 10:14:29.96	342.62	15.54	-42.8	-45.5	18.1	0.00e+00	0	42	0	1153433600	56	5112
2026-01-29 10:14:31.24	342.63	15.40	-43.0	-45.7	17.9	0.00e+00	0	42	0	1155530752	56	5251
2026-01-29 10:14:31.95	342.63	15.32	-42.8	-45.5	18.0	0.00e+00	0	42	0	1156579328	56	5141
2026-01-29 10:14:33.23	342.64	15.18	-43.0	-45.9	17.7	0.00e+00	0	42	0	1158676480	56	5358
2026-01-29 10:14:33.94	342.65	15.11	-43.0	-45.9	17.7	0.00e+00	0	42	0	1160773632	56	5357
2026-01-29 10:14:35.24	342.66	14.97	-42.9	-45.8	17.7	0.00e+00	0	42	0	1162870784	56	5322
2026-01-29 10:14:35.94	342.66	14.90	-43.1	-46.1	17.5	0.00e+00	0	42	0	1163919360	56	5470
2026-01-29 10:14:37.24	342.67	14.76	-42.9	-45.8	17.7	0.00e+00	0	42	0	1167065088	56	5316
2026-01-29 10:14:37.97	342.68	14.68	-43.1	-46.0	17.5	0.00e+00	0	42	0	1168113664	56	5450
2026-01-29 10:14:39.24	342.68	14.55	-43.2	-46.2	17.4	0.00e+00	0	42	0	1170210816	56	5572
2026-01-29 10:14:39.96	342.69	14.47	-43.1	-46.1	17.5	0.00e+00	0	42	0	1172307968	57	5160
2026-01-29 10:14:41.23	342.70	14.34	-43.2	-46.3	17.3	0.00e+00	0	42	0	1174405120	57	5312
2026-01-29 10:14:41.96	342.70	14.27	-43.3	-46.4	17.2	0.00e+00	0	42	0	1175453696	57	5364
2026-01-29 10:14:43.24	342.71	14.14	-43.2	-46.2	17.4	0.00e+00	0	42	0	1177550848	57	5239
2026-01-29 10:14:44.19	342.72	14.04	-43.2	-46.3	17.3	0.00e+00	0	42	0	1179648000	57	5285
2026-01-29 10:14:45.18	342.73	13.94	-43.3	-46.3	17.3	0.00e+00	0	42	0	1181745152	57	5295
2026-01-29 10:14:46.18	342.73	13.84	-43.3	-46.3	17.2	0.00e+00	0	42	0	1183842304	57	5333
2026-01-29 10:14:47.17	342.74	13.74	-43.2	-46.2	17.3	0.00e+00	0	42	0	1184890880	57	5242
2026-01-29 10:14:48.17	342.75	13.64	-43.2	-46.2	17.3	0.00e+00	0	42	0	1186988032	57	5257
2026-01-29 10:14:49.56	342.76	13.50	-43.1	-46.1	17.4	0.00e+00	0	42	0	1190133760	57	5196
2026-01-29 10:14:50.27	342.76	13.43	-43.0	-46.0	17.5	0.00e+00	0	42	0	1191182336	57	5115
2026-01-29 10:14:51.55	342.77	13.30	-43.1	-46.2	17.4	0.00e+00	0	42	0	1193279488	57	5251
2026-01-29 10:14:52.27	342.78	13.23	-43.2	-46.3	17.3	0.00e+00	0	42	0	1195376640	57	5302
2026-01-29 10:14:53.55	342.78	13.10	-43.0	-46.1	17.4	0.00e+00	0	42	0	1197473792	57	5183
2026-01-29 10:14:54.28	342.79	13.03	-43.0	-46.0	17.5	0.00e+00	0	42	0	1198522368	57	5139
2026-01-29 10:14:55.55	342.80	12.91	-43.0	-46.1	17.4	0.00e+00	0	42	0	1200619520	57	5171
2026-01-29 10:14:56.28	342.80	12.84	-42.8	-45.8	17.7	0.00e+00	0	42	0	1202716672	57	5030
2026-01-29 10:14:57.62	342.81	12.71	-42.9	-45.9	17.6	0.00e+00	0	42	0	1204813824	57	5090
2026-01-29 10:14:58.33	342.82	12.64	-42.9	-45.9	17.5	0.00e+00	0	42	0	1205862400	57	5098
2026-01-29 10:14:59.67	342.83	12.51	-42.8	-45.8	17.7	0.00e+00	0	42	0	1209008128	57	5013
2026-01-29 10:15:00.38	342.83	12.44	-42.8	-45.8	17.7	0.00e+00	0	42	0	1210056704	57	5019
2026-01-29 10:15:01.67	342.84	12.32	-42.8	-45.8	17.7	0.00e+00	0	42	0	1212153856	57	4998
2026-01-29 10:15:02.38	342.84	12.25	-42.9	-45.9	17.6	0.00e+00	0	42	0	1214251008	57	5054
2026-01-29 10:15:03.77	342.85	12.12	-42.9	-46.0	17.5	0.00e+00	0	42	0	1216348160	57	5121
2026-01-29 10:15:04.49	342.86	12.05	-43.0	-46.0	17.5	0.00e+00	0	42	0	1217396736	57	5137
2026-01-29 10:15:05.77	342.87	11.93	-42.9	-45.9	17.5	0.00e+00	0	42	0	1220542464	57	5095
2026-01-29 10:15:06.48	342.87	11.86	-42.9	-46.0	17.4	0.00e+00	0	42	0	1221591040	57	5145
