passes_logs/2026/01/29/T1/T1__20260129_001301_SUOMI_NPP_rec.log

#Pass ID: 20260129_001301_SUOMI NPP
#Satellite: SUOMI NPP
#Configuration: NPP
#almurnet v.1.7.20251203
#Start time: 2026-01-29 00:13:03

#Version: 2.0.20230620
#Station: T1
#Location: 37.570604 lon 55.790049 lat
#TLE: 1 37849U 11061A   26027.86188320  .00000172  00000+0  10275-3 0  9990
#TLE: 2 37849  98.7823 329.8005 0002088  41.4184 318.7150 14.19530883738530

#Time	Az	El	Level	Level2	SNR	BER	BlckErr	Temp	State	Recorded	gain1	gain2
2026-01-29 00:13:03.97	13.53	5.16	-50.0	-65.3	3.8	1.49e+00	0	40	0	0	70	22299
2026-01-29 00:13:04.95	13.51	5.23	-50.2	-65.3	3.8	1.49e+00	0	40	104	0	72	19929
2026-01-29 00:13:05.95	13.49	5.30	-50.2	-65.3	3.8	1.49e+00	0	40	104	0	72	19939
2026-01-29 00:13:06.94	13.47	5.37	-50.1	-65.3	3.8	1.49e+00	0	40	104	0	72	19906
2026-01-29 00:13:07.93	13.45	5.44	-50.1	-65.3	3.8	1.49e+00	0	41	104	0	72	19844
2026-01-29 00:13:08.93	13.43	5.51	-50.1	-65.3	3.8	1.49e+00	0	40	104	0	71	21086
2026-01-29 00:13:09.92	13.41	5.58	-50.1	-65.3	3.8	1.49e+00	0	40	104	0	71	21023
2026-01-29 00:13:10.91	13.39	5.65	-50.0	-65.3	3.8	1.49e+00	0	41	104	0	71	21019
2026-01-29 00:13:11.91	13.37	5.72	-50.0	-65.2	3.8	1.49e+00	0	41	104	0	71	20943
2026-01-29 00:13:12.90	13.35	5.80	-50.0	-65.2	3.8	1.49e+00	0	41	104	0	71	20876
2026-01-29 00:13:13.89	13.32	5.87	-49.8	-65.1	3.8	1.49e+00	0	41	104	0	71	20764
2026-01-29 00:13:14.89	13.30	5.94	-49.8	-65.1	3.8	1.49e+00	0	41	104	0	71	20552
2026-01-29 00:13:15.88	13.28	6.01	-49.6	-65.1	3.8	1.49e+00	0	40	104	0	71	20559
2026-01-29 00:13:16.87	13.26	6.09	-49.7	-65.0	3.8	1.49e+00	0	41	104	0	71	20467
2026-01-29 00:13:17.87	13.24	6.16	-49.5	-65.0	3.8	1.49e+00	0	41	104	0	71	20443
2026-01-29 00:13:18.86	13.22	6.23	-49.2	-64.9	3.8	1.49e+00	0	41	104	0	70	21487
2026-01-29 00:13:19.85	13.20	6.31	-49.3	-65.0	3.8	1.49e+00	0	41	104	0	70	21567
2026-01-29 00:13:20.85	13.17	6.38	-48.6	-64.9	3.8	1.49e+00	0	41	104	0	69	22670
2026-01-29 00:13:21.84	13.15	6.45	-49.5	-64.8	3.8	1.49e+00	0	41	104	0	69	22518
2026-01-29 00:13:22.83	13.13	6.53	-48.1	-64.4	3.8	1.49e+00	0	41	104	0	68	22590
2026-01-29 00:13:23.83	13.11	6.60	-48.9	-64.7	3.8	1.49e+00	0	41	104	0	68	23489
2026-01-29 00:13:24.82	13.08	6.68	-48.8	-64.4	3.8	1.49e+00	0	41	104	0	68	22570
2026-01-29 00:13:25.81	13.06	6.75	-48.7	-64.2	3.8	1.49e+00	0	41	104	0	68	22153
2026-01-29 00:13:26.80	13.04	6.83	-48.8	-64.1	3.8	1.49e+00	0	41	104	0	68	21778
2026-01-29 00:13:27.80	13.02	6.90	-48.7	-63.9	3.8	1.49e+00	0	41	104	0	68	21332
2026-01-29 00:13:28.79	12.99	6.98	-48.7	-63.8	3.8	1.49e+00	0	41	104	0	68	21148
2026-01-29 00:13:29.78	12.97	7.05	-48.7	-63.6	3.8	1.49e+00	0	41	104	0	68	20770
2026-01-29 00:13:30.78	12.95	7.13	-48.7	-63.5	3.8	1.49e+00	0	41	104	0	68	20432
2026-01-29 00:13:31.77	12.92	7.20	-48.7	-63.5	3.8	1.49e+00	0	41	104	0	68	20326
2026-01-29 00:13:32.76	12.90	7.28	-48.7	-63.3	3.8	1.49e+00	0	41	104	0	68	19997
2026-01-29 00:13:33.76	12.88	7.36	-48.7	-63.2	3.8	1.49e+00	0	41	104	0	68	19744
2026-01-29 00:13:34.75	12.85	7.43	-48.7	-63.0	3.8	1.49e+00	0	42	104	0	68	19373
2026-01-29 00:13:35.74	12.83	7.51	-48.7	-62.8	3.8	1.49e+00	0	41	104	0	68	18842
2026-01-29 00:13:36.73	12.80	7.59	-48.7	-62.4	3.8	1.49e+00	0	41	104	0	68	18094
2026-01-29 00:13:37.73	12.78	7.66	-48.6	-62.0	3.8	1.48e+00	0	42	104	0	68	17195
2026-01-29 00:13:38.72	12.76	7.74	-48.6	-61.2	4.2	1.44e+00	0	41	0	0	68	15744
2026-01-29 00:13:39.71	12.73	7.82	-48.5	-60.6	4.3	1.37e+00	0	42	0	0	68	14548
2026-01-29 00:13:40.71	12.71	7.90	-48.5	-59.7	4.7	9.50e-01	0	41	0	1048576	68	13237
2026-01-29 00:13:41.70	12.68	7.98	-48.3	-58.7	5.2	6.73e-01	0	41	0	3145728	68	11688
2026-01-29 00:13:42.69	12.66	8.05	-48.2	-57.7	5.9	4.83e-01	0	42	0	5242880	68	10435
2026-01-29 00:13:43.69	12.63	8.13	-48.0	-56.6	6.8	2.81e-01	0	42	0	7340032	68	9182
2026-01-29 00:13:44.68	12.61	8.21	-47.7	-55.7	7.5	1.31e-01	0	42	0	9437184	67	8790
2026-01-29 00:13:45.68	12.58	8.29	-47.5	-54.8	8.3	6.02e-02	0	42	0	10485760	67	7980
2026-01-29 00:13:46.67	12.55	8.37	-47.2	-53.9	9.2	3.43e-02	0	42	0	12582912	66	7607
2026-01-29 00:13:47.66	12.53	8.45	-47.1	-53.5	9.6	1.69e-02	0	42	0	14680064	66	7279
2026-01-29 00:13:48.65	12.50	8.53	-47.0	-53.2	10.0	8.89e-03	0	42	0	16777216	66	6963
2026-01-29 00:13:49.65	12.48	8.61	-46.8	-52.6	10.5	3.77e-03	0	42	0	17825792	65	6929
2026-01-29 00:13:50.64	12.45	8.69	-46.6	-52.2	11.0	3.08e-03	0	42	0	19922944	65	6588
2026-01-29 00:13:51.64	12.42	8.77	-46.7	-52.3	10.9	2.25e-03	0	42	0	22020096	65	6658
2026-01-29 00:13:52.63	12.40	8.85	-46.7	-52.4	10.8	2.16e-03	0	42	0	24117248	65	6727
2026-01-29 00:13:53.62	12.37	8.93	-46.8	-52.6	10.6	2.31e-03	0	42	0	26214400	65	6896
2026-01-29 00:13:54.62	12.34	9.02	-46.9	-52.9	10.2	4.16e-03	0	42	0	27262976	65	7197
2026-01-29 00:13:55.61	12.31	9.10	-47.2	-53.8	9.3	1.36e-02	0	42	0	29360128	65	7966
2026-01-29 00:13:56.61	12.29	9.18	-48.4	-58.9	5.2	7.42e-02	0	42	0	31457280	67	12771
2026-01-29 00:13:57.60	12.26	9.26	-46.5	-51.8	10.8	1.46e+00	0	42	104	31457280	65	6288
2026-01-29 00:13:58.60	12.23	9.34	-43.8	-46.9	16.4	7.00e-07	0	42	0	32505856	59	5093
2026-01-29 00:14:00.00	12.19	9.46	-47.4	-54.7	8.4	2.83e-03	0	42	0	35651584	65	8817
2026-01-29 00:14:00.71	12.17	9.52	-43.9	-47.1	16.1	3.23e-02	0	42	0	36700160	59	5172
2026-01-29 00:14:01.99	12.13	9.63	-43.5	-46.4	16.9	0.00e+00	0	42	0	38797312	59	4795
2026-01-29 00:14:02.73	12.11	9.69	-43.3	-46.1	17.1	0.00e+00	0	42	0	40894464	58	4892
2026-01-29 00:14:04.01	12.08	9.80	-43.2	-46.0	17.2	0.00e+00	0	42	0	42991616	58	4861
2026-01-29 00:14:04.74	12.06	9.86	-43.1	-45.8	17.4	0.00e+00	0	42	0	44040192	58	4754
2026-01-29 00:14:06.02	12.02	9.97	-43.0	-45.7	17.6	0.00e+00	0	42	0	46137344	57	4941
2026-01-29 00:14:06.74	12.00	10.03	-42.9	-45.6	17.6	0.00e+00	0	42	0	48234496	57	4903
2026-01-29 00:14:08.02	11.96	10.14	-42.6	-45.3	17.9	0.00e+00	0	42	0	50331648	57	4737
2026-01-29 00:14:08.75	11.94	10.20	-42.5	-45.1	18.1	0.00e+00	0	42	0	51380224	57	4643
2026-01-29 00:14:10.14	11.89	10.32	-42.6	-45.2	18.0	0.00e+00	0	42	0	54525952	57	4697
2026-01-29 00:14:10.85	11.87	10.38	-42.6	-45.3	17.9	0.00e+00	0	42	0	55574528	57	4713
2026-01-29 00:14:12.13	11.83	10.50	-42.5	-45.2	18.1	0.00e+00	0	42	0	57671680	56	4941
2026-01-29 00:14:12.84	11.81	10.56	-42.5	-45.1	18.1	0.00e+00	0	42	0	59768832	56	4912
2026-01-29 00:14:14.24	11.77	10.68	-42.4	-45.0	18.2	0.00e+00	0	42	0	61865984	56	4848
2026-01-29 00:14:14.95	11.75	10.74	-42.5	-45.1	18.2	0.00e+00	0	42	0	62914560	56	4871
2026-01-29 00:14:16.24	11.71	10.86	-42.4	-45.0	18.3	0.00e+00	0	42	0	66060288	56	4831
2026-01-29 00:14:16.95	11.68	10.92	-42.3	-44.9	18.3	0.00e+00	0	42	0	67108864	56	4780
2026-01-29 00:14:18.22	11.64	11.03	-42.3	-44.9	18.4	0.00e+00	0	42	0	69206016	56	4767
2026-01-29 00:14:18.94	11.62	11.09	-42.3	-44.9	18.4	0.00e+00	0	42	0	71303168	56	4773
2026-01-29 00:14:20.22	11.58	11.21	-42.2	-44.8	18.5	0.00e+00	0	42	0	73400320	56	4707
2026-01-29 00:14:20.93	11.56	11.27	-42.2	-44.7	18.6	0.00e+00	0	42	0	74448896	56	4663
2026-01-29 00:14:22.21	11.51	11.39	-42.2	-44.7	18.5	0.00e+00	0	42	0	76546048	56	4691
2026-01-29 00:14:22.93	11.49	11.45	-42.1	-44.6	18.6	0.00e+00	0	42	0	78643200	56	4620
2026-01-29 00:14:24.21	11.45	11.57	-42.0	-44.5	18.7	0.00e+00	0	42	0	80740352	56	4564
2026-01-29 00:14:24.98	11.42	11.64	-41.9	-44.3	18.7	0.00e+00	0	42	0	81788928	55	4746
2026-01-29 00:14:26.27	11.38	11.76	-41.8	-44.3	18.8	0.00e+00	0	42	0	84934656	55	4721
2026-01-29 00:14:26.98	11.35	11.82	-41.7	-44.2	18.9	0.00e+00	0	43	0	85983232	55	4674
2026-01-29 00:14:28.26	11.31	11.94	-41.8	-44.2	18.9	0.00e+00	0	42	0	88080384	55	4671
2026-01-29 00:14:29.09	11.28	12.02	-41.8	-44.2	18.8	0.00e+00	0	42	0	90177536	55	4696
2026-01-29 00:14:30.23	11.24	12.12	-41.7	-44.1	19.0	0.00e+00	0	42	0	92274688	55	4601
2026-01-29 00:14:31.08	11.21	12.20	-41.7	-44.1	19.0	0.00e+00	0	42	0	93323264	55	4612
2026-01-29 00:14:32.22	11.17	12.31	-41.7	-44.1	19.0	0.00e+00	0	42	0	95420416	55	4601
2026-01-29 00:14:33.08	11.14	12.39	-41.6	-43.9	19.1	0.00e+00	0	42	0	97517568	55	4517
2026-01-29 00:14:34.21	11.10	12.49	-41.6	-43.9	19.0	0.00e+00	0	42	0	99614720	55	4545
2026-01-29 00:14:35.06	11.07	12.57	-41.5	-43.8	19.2	0.00e+00	0	42	0	100663296	55	4482
2026-01-29 00:14:36.20	11.03	12.68	-41.5	-43.9	19.1	0.00e+00	0	42	0	102760448	55	4510
2026-01-29 00:14:37.06	11.00	12.76	-41.6	-43.9	19.1	0.00e+00	0	42	0	104857600	55	4523
2026-01-29 00:14:38.33	10.95	12.88	-41.6	-43.9	19.2	0.00e+00	0	42	0	106954752	55	4508
2026-01-29 00:14:39.05	10.93	12.95	-41.6	-43.9	19.2	0.00e+00	0	42	0	109051904	55	4509
2026-01-29 00:14:40.32	10.88	13.08	-41.5	-43.8	19.3	0.00e+00	0	42	0	111149056	54	4720
2026-01-29 00:14:41.05	10.85	13.15	-41.5	-43.8	19.2	0.00e+00	0	42	0	112197632	54	4724
2026-01-29 00:14:42.33	10.80	13.27	-41.6	-43.9	19.2	0.00e+00	0	42	0	114294784	54	4799
2026-01-29 00:14:43.09	10.77	13.34	-41.6	-43.9	19.2	0.00e+00	0	43	0	116391936	54	4779
2026-01-29 00:14:44.37	10.72	13.47	-41.6	-43.9	19.2	0.00e+00	0	42	0	118489088	54	4787
2026-01-29 00:14:45.08	10.70	13.54	-41.6	-43.9	19.2	0.00e+00	0	42	0	119537664	54	4811
2026-01-29 00:14:46.35	10.65	13.66	-41.6	-44.0	19.1	0.00e+00	0	43	0	122683392	54	4833
2026-01-29 00:14:47.08	10.62	13.74	-41.7	-44.0	19.0	0.00e+00	0	42	0	123731968	54	4851
2026-01-29 00:14:48.36	10.57	13.86	-41.6	-43.9	19.2	0.00e+00	0	42	0	125829120	54	4801
2026-01-29 00:14:49.07	10.54	13.93	-41.7	-44.0	19.1	0.00e+00	0	42	0	126877696	54	4862
2026-01-29 00:14:50.35	10.49	14.06	-41.7	-44.0	19.1	0.00e+00	0	42	0	130023424	54	4862
2026-01-29 00:14:51.08	10.46	14.14	-41.6	-43.9	19.2	0.00e+00	0	42	0	131072000	54	4802
2026-01-29 00:14:52.42	10.41	14.27	-41.7	-44.1	19.0	0.00e+00	0	42	0	133169152	54	4902
2026-01-29 00:14:53.13	10.38	14.34	-41.8	-44.2	18.9	0.00e+00	0	42	0	135266304	54	4964
2026-01-29 00:14:54.48	10.32	14.48	-41.8	-44.1	19.0	0.00e+00	0	42	0	137363456	54	4919
2026-01-29 00:14:55.19	10.29	14.55	-41.8	-44.2	18.9	0.00e+00	0	42	0	138412032	54	4941
2026-01-29 00:14:56.46	10.24	14.68	-41.8	-44.2	18.9	0.00e+00	0	43	0	141557760	54	4957
2026-01-29 00:14:57.17	10.21	14.75	-41.7	-44.2	18.9	0.00e+00	0	42	0	142606336	54	4931
2026-01-29 00:14:58.45	10.15	14.89	-41.8	-44.3	18.9	0.00e+00	0	42	0	144703488	54	4988
2026-01-29 00:14:59.16	10.12	14.96	-41.8	-44.2	18.9	0.00e+00	0	42	0	145752064	54	4974
2026-01-29 00:15:00.44	10.07	15.09	-41.7	-44.1	19.0	0.00e+00	0	42	0	148897792	54	4923
2026-01-29 00:15:01.16	10.04	15.17	-41.8	-44.3	18.9	0.00e+00	0	42	0	149946368	54	4995
2026-01-29 00:15:02.43	9.98	15.30	-41.8	-44.2	18.9	0.00e+00	0	42	0	152043520	54	4967
2026-01-29 00:15:03.16	9.95	15.38	-41.7	-44.1	19.0	0.00e+00	0	42	0	154140672	54	4914
2026-01-29 00:15:04.44	9.89	15.52	-41.8	-44.2	19.0	0.00e+00	0	42	0	156237824	54	4951
2026-01-29 00:15:05.18	9.86	15.59	-41.9	-44.4	18.8	0.00e+00	0	43	0	157286400	54	5068
2026-01-29 00:15:06.46	9.80	15.73	-41.6	-44.0	19.1	0.00e+00	0	42	0	160432128	54	4849
2026-01-29 00:15:07.17	9.77	15.81	-41.7	-44.1	19.1	0.00e+00	0	43	0	161480704	54	4879
2026-01-29 00:15:08.45	9.71	15.94	-41.6	-44.0	19.2	0.00e+00	0	42	0	163577856	54	4829
2026-01-29 00:15:09.18	9.68	16.02	-41.7	-44.1	19.0	0.00e+00	0	43	0	164626432	54	4899
2026-01-29 00:15:10.46	9.62	16.16	-41.6	-44.0	19.1	0.00e+00	0	42	0	167772160	54	4868
2026-01-29 00:15:11.17	9.58	16.24	-41.6	-44.0	19.1	0.00e+00	0	42	0	168820736	54	4833
2026-01-29 00:15:12.45	9.52	16.38	-41.6	-44.0	19.1	0.00e+00	0	42	0	170917888	54	4859
2026-01-29 00:15:13.19	9.49	16.46	-41.5	-44.0	19.2	0.00e+00	0	43	0	173015040	54	4817
2026-01-29 00:15:14.47	9.42	16.60	-41.4	-43.8	19.3	0.00e+00	0	43	0	175112192	54	4733
2026-01-29 00:15:15.18	9.39	16.68	-41.5	-43.9	19.2	0.00e+00	0	43	0	176160768	54	4781
2026-01-29 00:15:16.46	9.33	16.82	-41.5	-44.0	19.2	0.00e+00	0	43	0	178257920	54	4815
2026-01-29 00:15:17.18	9.29	16.90	-41.4	-43.8	19.3	0.00e+00	0	43	0	180355072	54	4758
2026-01-29 00:15:18.46	9.23	17.05	-41.6	-44.0	19.1	0.00e+00	0	42	0	182452224	54	4854
2026-01-29 00:15:19.19	9.19	17.13	-41.6	-44.0	19.1	0.00e+00	0	42	0	183500800	54	4833
2026-01-29 00:15:20.47	9.13	17.28	-41.4	-43.8	19.3	0.00e+00	0	42	0	186646528	54	4732
2026-01-29 00:15:21.18	9.09	17.36	-41.4	-43.8	19.3	0.00e+00	0	42	0	187695104	54	4757
2026-01-29 00:15:22.46	9.03	17.50	-41.5	-43.9	19.3	0.00e+00	0	42	0	189792256	54	4787
2026-01-29 00:15:23.19	8.99	17.59	-41.5	-43.9	19.3	0.00e+00	0	42	0	190840832	54	4777
2026-01-29 00:15:24.47	8.92	17.74	-41.5	-43.9	19.3	0.00e+00	0	42	0	193986560	54	4767
2026-01-29 00:15:25.18	8.88	17.82	-41.4	-43.8	19.4	0.00e+00	0	43	0	195035136	54	4715
2026-01-29 00:15:26.46	8.82	17.97	-41.4	-43.8	19.4	0.00e+00	0	43	0	197132288	54	4729
2026-01-29 00:15:27.17	8.78	18.05	-41.4	-43.7	19.4	0.00e+00	0	43	0	199229440	54	4691
2026-01-29 00:15:28.56	8.70	18.21	-41.3	-43.7	19.4	0.00e+00	0	43	0	201326592	54	4671
2026-01-29 00:15:29.27	8.66	18.30	-41.4	-43.8	19.4	0.00e+00	0	43	0	202375168	54	4720
2026-01-29 00:15:30.63	8.59	18.46	-41.3	-43.7	19.5	0.00e+00	0	42	0	205520896	54	4657
2026-01-29 00:15:31.34	8.55	18.54	-41.4	-43.8	19.4	0.00e+00	0	42	0	206569472	54	4716
2026-01-29 00:15:32.68	8.47	18.70	-41.4	-43.7	19.4	0.00e+00	0	43	0	208666624	54	4696
2026-01-29 00:15:33.39	8.43	18.79	-41.4	-43.8	19.4	0.00e+00	0	43	0	210763776	54	4714
2026-01-29 00:15:34.73	8.36	18.95	-41.4	-43.7	19.4	0.00e+00	0	42	0	212860928	54	4705
2026-01-29 00:15:35.44	8.32	19.04	-41.5	-43.9	19.4	0.00e+00	0	42	0	213909504	54	4760
2026-01-29 00:15:36.79	8.24	19.20	-41.7	-44.1	19.2	0.00e+00	0	43	0	217055232	54	4897
2026-01-29 00:15:37.50	8.20	19.29	-41.6	-44.0	19.2	0.00e+00	0	43	0	218103808	54	4837
2026-01-29 00:15:38.84	8.12	19.46	-41.6	-44.0	19.2	0.00e+00	0	43	0	220200960	54	4834
2026-01-29 00:15:39.55	8.08	19.54	-41.8	-44.2	19.0	0.00e+00	0	43	0	222298112	54	4955
2026-01-29 00:15:40.83	8.00	19.70	-41.8	-44.1	19.1	0.00e+00	0	43	0	224395264	54	4924
2026-01-29 00:15:41.56	7.96	19.79	-41.7	-44.1	19.1	0.00e+00	0	42	0	225443840	54	4894
2026-01-29 00:15:42.84	7.88	19.96	-41.8	-44.2	19.0	0.00e+00	0	43	0	228589568	54	4967
2026-01-29 00:15:43.58	7.83	20.05	-41.7	-44.0	19.2	0.00e+00	0	43	0	229638144	54	4860
2026-01-29 00:15:44.86	7.75	20.21	-41.8	-44.1	19.1	0.00e+00	0	43	0	231735296	54	4916
2026-01-29 00:15:45.57	7.71	20.30	-41.8	-44.1	19.1	0.00e+00	0	43	0	232783872	54	4925
2026-01-29 00:15:46.84	7.63	20.46	-41.8	-44.1	19.1	0.00e+00	0	42	0	235929600	54	4912
2026-01-29 00:15:47.56	7.58	20.56	-42.0	-44.4	18.9	0.00e+00	0	43	0	236978176	54	5085
2026-01-29 00:15:48.83	7.50	20.72	-41.7	-44.1	19.2	0.00e+00	0	43	0	239075328	54	4879
2026-01-29 00:15:49.69	7.45	20.83	-41.9	-44.3	19.0	0.00e+00	0	43	0	241172480	54	4992
2026-01-29 00:15:51.12	7.35	21.02	-41.9	-44.3	19.0	0.00e+00	0	43	0	243269632	54	4988
2026-01-29 00:15:51.83	7.31	21.11	-41.5	-43.8	19.4	0.00e+00	0	43	0	245366784	54	4732
2026-01-29 00:15:53.11	7.22	21.28	-41.8	-44.2	19.1	0.00e+00	0	43	0	247463936	54	4945
2026-01-29 00:15:53.84	7.17	21.38	-41.7	-44.1	19.2	0.00e+00	0	43	0	248512512	54	4875
2026-01-29 00:15:55.12	7.08	21.55	-41.8	-44.2	19.1	0.00e+00	0	42	0	251658240	54	4927
2026-01-29 00:15:55.84	7.03	21.65	-41.9	-44.3	18.9	0.00e+00	0	43	0	252706816	54	5040
2026-01-29 00:15:57.13	6.94	21.82	-41.9	-44.3	19.0	0.00e+00	0	43	0	254803968	54	5011
2026-01-29 00:15:57.84	6.90	21.92	-42.1	-44.5	18.8	0.00e+00	0	43	0	255852544	54	5151
2026-01-29 00:15:59.11	6.81	22.09	-42.2	-44.7	18.5	0.00e+00	0	43	0	258998272	55	4977
2026-01-29 00:15:59.84	6.75	22.19	-42.0	-44.5	18.8	0.00e+00	0	42	0	260046848	55	4836
2026-01-29 00:16:01.12	6.66	22.37	-42.2	-44.7	18.6	0.00e+00	0	43	0	262144000	55	4981
2026-01-29 00:16:01.84	6.61	22.47	-42.2	-44.7	18.7	0.00e+00	0	43	0	264241152	55	4929
2026-01-29 00:16:03.12	6.52	22.64	-42.1	-44.5	18.7	0.00e+00	0	43	0	266338304	55	4861
2026-01-29 00:16:03.83	6.46	22.74	-42.1	-44.6	18.7	0.00e+00	0	43	0	267386880	55	4900
2026-01-29 00:16:05.11	6.37	22.92	-41.7	-44.1	19.2	0.00e+00	0	43	0	269484032	55	4607
2026-01-29 00:16:05.84	6.31	23.03	-41.9	-44.3	18.9	0.00e+00	0	43	0	271581184	55	4745
2026-01-29 00:16:07.13	6.21	23.21	-42.0	-44.4	18.9	0.00e+00	0	43	0	273678336	55	4798
2026-01-29 00:16:07.84	6.16	23.31	-41.7	-44.0	19.2	0.00e+00	0	43	0	274726912	55	4594
2026-01-29 00:16:09.19	6.06	23.50	-42.0	-44.4	18.9	0.00e+00	0	43	0	277872640	55	4771
2026-01-29 00:16:09.90	6.00	23.60	-42.1	-44.5	18.8	0.00e+00	0	43	0	278921216	55	4843
2026-01-29 00:16:11.24	5.89	23.80	-42.1	-44.4	18.9	0.00e+00	0	43	0	281018368	55	4797
2026-01-29 00:16:11.95	5.84	23.90	-42.2	-44.6	18.7	0.00e+00	0	43	0	283115520	55	4910
2026-01-29 00:16:13.28	5.73	24.10	-41.9	-44.3	19.1	0.00e+00	0	43	0	285212672	55	4708
2026-01-29 00:16:13.99	5.67	24.20	-42.2	-44.6	18.7	0.00e+00	0	43	0	286261248	55	4882
2026-01-29 00:16:15.27	5.57	24.39	-42.6	-45.1	18.3	0.00e+00	0	43	0	289406976	55	5195
2026-01-29 00:16:15.98	5.51	24.50	-42.2	-44.5	18.8	0.00e+00	0	43	0	290455552	55	4863
2026-01-29 00:16:17.26	5.40	24.69	-42.9	-45.4	18.1	0.00e+00	0	43	0	292552704	56	5072
2026-01-29 00:16:17.97	5.34	24.79	-43.0	-45.6	17.9	0.00e+00	0	43	0	293601280	56	5174
2026-01-29 00:16:19.25	5.23	24.99	-42.8	-45.3	18.2	0.00e+00	0	43	0	296747008	56	5035
2026-01-29 00:16:19.97	5.17	25.10	-42.9	-45.4	18.1	0.00e+00	0	43	0	297795584	56	5076
2026-01-29 00:16:21.25	5.06	25.29	-42.6	-45.0	18.5	0.00e+00	0	43	0	299892736	56	4856
2026-01-29 00:16:22.06	4.99	25.42	-43.0	-45.5	18.1	0.00e+00	0	43	0	301989888	56	5116
2026-01-29 00:16:23.51	4.86	25.64	-42.8	-45.3	18.3	0.00e+00	0	43	0	304087040	56	5022
2026-01-29 00:16:24.22	4.79	25.75	-42.9	-45.4	18.2	0.00e+00	0	43	0	306184192	56	5058
2026-01-29 00:16:25.50	4.68	25.95	-43.0	-45.5	18.1	0.00e+00	0	43	0	308281344	56	5103
2026-01-29 00:16:26.24	4.61	26.07	-42.9	-45.4	18.2	0.00e+00	0	43	0	309329920	56	5042
2026-01-29 00:16:27.52	4.49	26.27	-43.0	-45.5	18.0	0.00e+00	0	43	0	312475648	57	4853
2026-01-29 00:16:28.25	4.42	26.38	-43.0	-45.5	18.1	0.00e+00	0	43	0	313524224	57	4826
2026-01-29 00:16:29.53	4.30	26.59	-43.2	-45.7	17.9	0.00e+00	0	43	0	315621376	57	4939
2026-01-29 00:16:30.25	4.23	26.70	-43.2	-45.7	17.9	0.00e+00	0	43	0	316669952	57	4939
2026-01-29 00:16:31.53	4.11	26.91	-43.5	-46.0	17.4	0.00e+00	0	43	0	319815680	57	5146
2026-01-29 00:16:32.27	4.03	27.03	-43.5	-46.1	17.5	0.00e+00	0	43	0	320864256	57	5189
2026-01-29 00:16:33.55	3.91	27.24	-43.5	-46.1	17.5	0.00e+00	0	43	0	322961408	58	4901
2026-01-29 00:16:34.26	3.83	27.35	-43.6	-46.2	17.5	0.00e+00	0	43	0	325058560	58	4969
2026-01-29 00:16:35.57	3.70	27.57	-43.6	-46.1	17.5	0.00e+00	0	43	0	327155712	58	4917
2026-01-29 00:16:36.28	3.63	27.69	-43.6	-46.1	17.5	0.00e+00	0	43	0	328204288	58	4908
2026-01-29 00:16:37.63	3.49	27.91	-43.4	-46.0	17.6	0.00e+00	0	43	0	331350016	58	4841
2026-01-29 00:16:38.34	3.42	28.03	-43.2	-45.7	17.9	0.00e+00	0	43	0	332398592	58	4672
2026-01-29 00:16:39.68	3.27	28.26	-43.1	-45.6	18.0	0.00e+00	0	43	0	334495744	58	4607
2026-01-29 00:16:40.39	3.20	28.38	-43.2	-45.7	17.7	0.00e+00	0	43	0	335544320	57	4950
2026-01-29 00:16:41.67	3.06	28.59	-42.8	-45.2	18.3	0.00e+00	0	43	0	338690048	57	4672
2026-01-29 00:16:42.39	2.98	28.72	-42.9	-45.4	18.2	0.00e+00	0	43	0	339738624	57	4764
2026-01-29 00:16:43.67	2.84	28.94	-42.7	-45.1	18.5	0.00e+00	0	43	0	341835776	57	4602
2026-01-29 00:16:44.41	2.76	29.07	-42.6	-45.0	18.6	0.00e+00	0	43	0	343932928	57	4565
2026-01-29 00:16:45.69	2.61	29.29	-42.9	-45.3	18.1	0.00e+00	0	43	0	346030080	57	4750
2026-01-29 00:16:46.40	2.53	29.41	-43.0	-45.4	18.2	0.00e+00	0	43	0	347078656	57	4788
2026-01-29 00:16:47.68	2.38	29.64	-43.2	-45.7	17.8	0.00e+00	0	43	0	350224384	57	4960
2026-01-29 00:16:48.39	2.30	29.76	-43.3	-45.8	17.8	0.00e+00	0	43	0	351272960	57	5034
2026-01-29 00:16:49.67	2.15	29.99	-43.5	-46.1	17.5	0.00e+00	0	43	0	353370112	57	5209
2026-01-29 00:16:50.54	2.04	30.15	-43.6	-46.2	17.4	0.00e+00	0	43	0	355467264	58	4964
2026-01-29 00:16:51.67	1.91	30.35	-43.7	-46.4	17.2	0.00e+00	0	43	0	357564416	58	5070
2026-01-29 00:16:52.72	1.78	30.54	-44.1	-47.0	16.8	0.00e+00	0	43	0	358612992	58	5413
2026-01-29 00:16:53.71	1.66	30.72	-44.2	-47.0	16.6	0.00e+00	0	43	0	360710144	59	5148
2026-01-29 00:16:54.71	1.53	30.90	-44.3	-47.2	16.5	0.00e+00	0	43	0	362807296	59	5220
2026-01-29 00:16:55.70	1.41	31.09	-44.7	-47.8	15.9	0.00e+00	0	43	0	364904448	60	5338
2026-01-29 00:16:56.70	1.28	31.27	-44.8	-47.9	15.8	0.00e+00	0	43	0	367001600	60	5379
2026-01-29 00:16:57.69	1.15	31.45	-45.0	-48.3	15.4	0.00e+00	0	43	0	368050176	60	5649
2026-01-29 00:16:58.69	1.02	31.64	-45.2	-48.7	15.2	0.00e+00	0	43	0	370147328	61	5543
2026-01-29 00:16:59.68	0.89	31.83	-45.3	-48.8	15.0	7.00e-07	0	43	0	372244480	61	5631
2026-01-29 00:17:00.68	0.75	32.02	-45.6	-49.4	14.5	0.00e+00	0	43	0	374341632	62	5659
2026-01-29 00:17:01.67	0.62	32.20	-45.6	-49.4	14.4	0.00e+00	0	43	0	376438784	62	5657
2026-01-29 00:17:02.67	0.48	32.40	-45.4	-49.1	14.8	7.00e-07	0	43	0	377487360	62	5507
2026-01-29 00:17:03.67	0.34	32.59	-45.4	-49.1	14.8	7.00e-07	0	43	0	379584512	62	5473
2026-01-29 00:17:04.74	0.19	32.79	-45.3	-49.0	14.9	0.00e+00	0	43	0	381681664	62	5418
2026-01-29 00:17:05.62	0.06	32.96	-45.3	-48.9	14.9	0.00e+00	0	43	0	383778816	62	5359
2026-01-29 00:17:06.93	359.87	33.22	-45.4	-49.1	14.8	0.00e+00	0	43	0	385875968	61	5791
2026-01-29 00:17:07.64	359.77	33.36	-45.4	-49.1	14.6	0.00e+00	0	43	0	386924544	61	5799
2026-01-29 00:17:09.13	359.55	33.65	-45.4	-48.8	14.9	0.00e+00	0	43	0	390070272	62	5331
2026-01-29 00:17:09.84	359.44	33.80	-46.1	-49.9	14.0	3.00e-06	0	43	0	391118848	62	6058
2026-01-29 00:17:11.16	359.24	34.06	-46.4	-50.6	13.3	1.14e-05	0	43	0	393216000	63	6148
2026-01-29 00:17:11.88	359.13	34.20	-45.6	-49.1	14.7	3.80e-06	0	43	0	395313152	63	5216
2026-01-29 00:17:13.22	358.92	34.47	-46.0	-49.8	14.0	5.30e-06	0	43	0	397410304	63	5636
2026-01-29 00:17:13.93	358.80	34.62	-46.0	-49.8	14.0	5.30e-06	0	43	0	398458880	63	5651
2026-01-29 00:17:15.25	358.59	34.89	-46.2	-50.1	13.8	1.50e-06	0	43	0	401604608	63	5831
2026-01-29 00:17:15.96	358.47	35.03	-46.0	-49.7	14.1	3.80e-06	0	43	0	402653184	63	5575
2026-01-29 00:17:17.28	358.26	35.31	-45.5	-48.9	15.0	7.00e-07	0	43	0	404750336	62	5388
2026-01-29 00:17:17.99	358.14	35.45	-46.3	-50.3	13.6	1.50e-06	0	43	0	406847488	63	5984
2026-01-29 00:17:19.27	357.92	35.72	-46.6	-51.0	12.8	5.34e-05	0	43	0	408944640	63	6462
2026-01-29 00:17:19.99	357.80	35.87	-46.3	-50.5	13.3	5.41e-05	0	43	0	409993216	64	5728
2026-01-29 00:17:21.27	357.57	36.14	-46.7	-51.5	12.2	2.39e-04	0	43	0	413138944	64	6469
2026-01-29 00:17:21.98	357.45	36.29	-46.5	-51.2	12.5	1.14e-04	0	43	0	414187520	64	6222
2026-01-29 00:17:23.26	357.22	36.56	-45.8	-49.8	14.0	6.10e-06	0	43	0	416284672	63	5616
2026-01-29 00:17:24.02	357.08	36.73	-45.3	-49.0	14.8	2.20e-06	0	43	0	418381824	62	5441
2026-01-29 00:17:25.30	356.85	37.00	-44.4	-47.6	16.1	0.00e+00	0	43	0	420478976	60	5175
2026-01-29 00:17:26.03	356.71	37.16	-44.8	-48.2	15.6	0.00e+00	0	43	0	421527552	60	5544
2026-01-29 00:17:27.30	356.47	37.43	-44.5	-47.6	16.2	0.00e+00	0	43	0	423624704	60	5216
2026-01-29 00:17:28.11	356.32	37.61	-44.5	-47.6	16.3	0.00e+00	0	43	0	425721856	60	5191
2026-01-29 00:17:29.25	356.10	37.86	-44.7	-48.0	15.9	0.00e+00	0	43	0	427819008	60	5413
2026-01-29 00:17:30.10	355.93	38.05	-44.6	-47.7	16.2	0.00e+00	0	43	0	428867584	60	5252
2026-01-29 00:17:31.24	355.70	38.30	-44.6	-47.7	16.2	0.00e+00	0	43	0	430964736	60	5242
2026-01-29 00:17:32.09	355.53	38.49	-44.5	-47.6	16.3	0.00e+00	0	43	0	433061888	60	5168
2026-01-29 00:17:33.23	355.30	38.74	-44.3	-47.2	16.6	0.00e+00	0	43	0	435159040	60	4957
2026-01-29 00:17:34.08	355.12	38.93	-44.3	-47.2	16.6	0.00e+00	0	43	0	437256192	60	4950
2026-01-29 00:17:35.21	354.88	39.19	-44.0	-46.7	17.1	0.00e+00	0	43	0	438304768	59	4928
2026-01-29 00:17:36.06	354.70	39.38	-43.9	-46.5	17.2	0.00e+00	0	43	0	440401920	59	4846
2026-01-29 00:17:37.28	354.44	39.66	-43.9	-46.5	17.3	0.00e+00	0	43	0	442499072	59	4843
2026-01-29 00:17:38.13	354.25	39.85	-43.9	-46.6	17.2	0.00e+00	0	43	0	444596224	59	4906
2026-01-29 00:17:39.27	354.00	40.12	-43.8	-46.5	17.3	0.00e+00	0	42	0	446693376	59	4824
2026-01-29 00:17:40.12	353.80	40.31	-43.9	-46.6	17.2	0.00e+00	0	43	0	447741952	59	4877
2026-01-29 00:17:41.26	353.54	40.58	-44.4	-47.3	16.4	0.00e+00	0	43	0	449839104	59	5337
2026-01-29 00:17:42.11	353.34	40.77	-44.3	-47.1	16.7	0.00e+00	0	43	0	451936256	59	5218
2026-01-29 00:17:43.43	353.03	41.08	-44.6	-47.5	16.3	0.00e+00	0	43	0	454033408	60	5156
2026-01-29 00:17:44.14	352.86	41.25	-44.7	-47.7	16.1	0.00e+00	0	43	0	455081984	60	5270
2026-01-29 00:17:45.63	352.50	41.60	-44.2	-47.2	16.7	0.00e+00	0	43	0	458227712	60	4932
2026-01-29 00:17:46.34	352.32	41.77	-44.3	-47.3	16.5	0.00e+00	0	43	0	459276288	60	5033
2026-01-29 00:17:47.68	351.98	42.09	-44.0	-46.9	16.9	0.00e+00	0	43	0	462422016	59	5051
2026-01-29 00:17:48.39	351.80	42.26	-43.9	-46.8	17.0	0.00e+00	0	43	0	463470592	59	5003
2026-01-29 00:17:49.73	351.46	42.58	-44.0	-46.9	16.9	0.00e+00	0	43	0	466616320	59	5056
2026-01-29 00:17:50.44	351.27	42.75	-44.1	-47.0	16.8	0.00e+00	0	43	0	467664896	59	5136
2026-01-29 00:17:51.72	350.92	43.06	-44.7	-47.9	16.1	0.00e+00	0	43	0	469762048	60	5345
2026-01-29 00:17:52.43	350.73	43.23	-44.4	-47.4	16.5	0.00e+00	0	43	0	470810624	60	5058
2026-01-29 00:17:53.71	350.38	43.54	-44.9	-48.0	15.8	0.00e+00	0	43	0	473956352	60	5457
2026-01-29 00:17:54.44	350.17	43.72	-44.8	-47.8	16.0	0.00e+00	0	43	0	475004928	61	5028
2026-01-29 00:17:55.72	349.81	44.03	-44.6	-47.5	16.4	0.00e+00	0	43	0	477102080	60	5134
2026-01-29 00:17:56.44	349.60	44.20	-44.6	-47.5	16.3	0.00e+00	0	43	0	478150656	60	5154
2026-01-29 00:17:57.73	349.22	44.52	-43.9	-46.7	17.1	0.00e+00	0	43	0	481296384	59	4934
2026-01-29 00:17:58.44	349.01	44.70	-44.1	-46.9	16.9	0.00e+00	0	43	0	482344960	59	5083
2026-01-29 00:17:59.71	348.63	45.01	-44.0	-46.9	16.8	0.00e+00	0	43	0	484442112	59	5100
2026-01-29 00:18:00.50	348.38	45.21	-44.0	-47.0	16.8	0.00e+00	0	43	0	486539264	59	5145
2026-01-29 00:18:01.66	348.02	45.49	-44.1	-47.1	16.6	0.00e+00	0	43	0	488636416	59	5216
2026-01-29 00:18:02.51	347.75	45.71	-43.9	-46.9	16.9	0.00e+00	0	43	0	489684992	59	5080
2026-01-29 00:18:03.65	347.38	45.99	-44.2	-47.2	16.6	0.00e+00	0	43	0	491782144	59	5242
2026-01-29 00:18:04.50	347.10	46.20	-44.3	-47.3	16.4	0.00e+00	0	43	0	493879296	59	5317
2026-01-29 00:18:05.64	346.72	46.49	-44.2	-47.0	16.8	0.00e+00	0	43	0	495976448	59	5131
2026-01-29 00:18:06.50	346.43	46.70	-44.0	-46.7	17.1	0.00e+00	0	43	0	497025024	59	4960
2026-01-29 00:18:07.63	346.04	46.99	-43.6	-46.2	17.5	0.00e+00	0	43	0	500170752	59	4687
2026-01-29 00:18:08.49	345.74	47.20	-43.3	-45.8	17.9	0.00e+00	0	43	0	501219328	58	4757
2026-01-29 00:18:09.62	345.34	47.49	-43.3	-45.8	17.9	0.00e+00	0	43	0	503316480	58	4747
2026-01-29 00:18:10.48	345.03	47.71	-43.4	-45.9	17.8	0.00e+00	0	43	0	505413632	58	4791
2026-01-29 00:18:11.61	344.61	47.99	-43.6	-46.2	17.5	0.00e+00	0	43	0	507510784	58	4959
2026-01-29 00:18:12.47	344.29	48.21	-43.5	-46.1	17.6	0.00e+00	0	43	0	508559360	58	4920
2026-01-29 00:18:13.60	343.86	48.49	-43.4	-46.0	17.7	0.00e+00	0	43	0	510656512	58	4818
2026-01-29 00:18:14.45	343.53	48.71	-43.2	-45.8	18.0	0.00e+00	0	43	0	512753664	58	4715
2026-01-29 00:18:15.59	343.09	49.00	-43.0	-45.5	18.3	0.00e+00	0	43	0	514850816	57	4818
2026-01-29 00:18:16.44	342.75	49.21	-43.2	-45.7	18.1	0.00e+00	0	43	0	515899392	57	4933
2026-01-29 00:18:17.58	342.28	49.50	-43.5	-46.1	17.5	0.00e+00	0	43	0	517996544	57	5193
2026-01-29 00:18:18.43	341.93	49.71	-43.6	-46.2	17.5	0.00e+00	0	43	0	520093696	58	4976
2026-01-29 00:18:19.57	341.46	50.00	-43.4	-45.9	17.8	0.00e+00	0	43	0	522190848	58	4798
2026-01-29 00:18:20.42	341.09	50.22	-43.5	-46.0	17.8	0.00e+00	0	43	0	523239424	58	4832
2026-01-29 00:18:21.56	340.60	50.50	-43.0	-45.4	18.3	0.00e+00	0	43	0	525336576	57	4807
2026-01-29 00:18:22.42	340.22	50.72	-42.9	-45.2	18.5	0.00e+00	0	43	0	527433728	57	4681
2026-01-29 00:18:23.55	339.71	51.00	-42.8	-45.2	18.4	0.00e+00	0	43	0	529530880	57	4660
2026-01-29 00:18:24.41	339.32	51.22	-43.1	-45.5	18.2	0.00e+00	0	43	0	530579456	57	4848
2026-01-29 00:18:25.55	338.79	51.50	-42.8	-45.3	18.4	0.00e+00	0	43	0	533725184	57	4707
2026-01-29 00:18:26.40	338.39	51.71	-42.5	-44.9	18.7	0.00e+00	0	43	0	534773760	57	4498
2026-01-29 00:18:27.54	337.85	52.00	-41.7	-43.9	19.4	0.00e+00	0	43	0	536870912	55	4538
2026-01-29 00:18:28.39	337.43	52.21	-41.5	-43.6	19.8	0.00e+00	0	43	0	538968064	54	4629
2026-01-29 00:18:29.52	336.87	52.49	-40.9	-42.9	20.4	0.00e+00	0	43	0	541065216	53	4519
2026-01-29 00:18:30.38	336.44	52.70	-41.1	-43.2	20.1	0.00e+00	0	43	0	542113792	53	4683
2026-01-29 00:18:31.51	335.86	52.97	-41.7	-43.9	19.3	0.00e+00	0	43	0	544210944	54	4766
2026-01-29 00:18:32.37	335.41	53.18	-42.3	-44.6	18.9	0.00e+00	0	43	0	546308096	55	4899
2026-01-29 00:18:33.55	334.79	53.47	-42.5	-44.9	18.6	0.00e+00	0	43	0	548405248	55	5082
2026-01-29 00:18:34.41	334.32	53.67	-42.8	-45.2	18.5	0.00e+00	0	43	0	549453824	56	4949
2026-01-29 00:18:35.61	333.66	53.96	-43.3	-45.9	17.8	0.00e+00	0	43	0	551550976	57	5094
2026-01-29 00:18:36.87	332.96	54.26	-43.7	-46.5	17.4	0.00e+00	0	43	0	554696704	58	5126
2026-01-29 00:18:37.59	332.55	54.43	-43.8	-46.7	17.2	0.00e+00	0	43	0	555745280	58	5219
2026-01-29 00:18:38.86	331.81	54.73	-43.6	-46.3	17.5	0.00e+00	0	43	0	557842432	58	5025
2026-01-29 00:18:39.60	331.38	54.90	-43.1	-45.7	18.0	0.00e+00	0	43	0	559939584	58	4658
2026-01-29 00:18:40.88	330.61	55.19	-42.2	-44.5	19.2	0.00e+00	0	43	0	562036736	56	4547
2026-01-29 00:18:41.59	330.18	55.35	-42.0	-44.2	19.4	0.00e+00	0	43	0	563085312	56	4407
2026-01-29 00:18:42.87	329.39	55.64	-42.3	-44.6	19.0	0.00e+00	0	43	0	566231040	55	4875
2026-01-29 00:18:43.58	328.95	55.80	-42.5	-44.8	18.7	0.00e+00	0	43	0	567279616	55	5019
2026-01-29 00:18:44.86	328.13	56.08	-43.1	-45.6	18.1	0.00e+00	0	43	0	569376768	57	4899
2026-01-29 00:18:45.57	327.67	56.23	-43.6	-46.2	17.6	0.00e+00	0	43	0	570425344	57	5238
2026-01-29 00:18:46.85	326.83	56.51	-42.9	-45.3	18.5	0.00e+00	0	43	0	573571072	57	4706
2026-01-29 00:18:47.57	326.35	56.66	-42.7	-45.1	18.5	0.00e+00	0	43	0	574619648	57	4601
2026-01-29 00:18:48.85	325.48	56.93	-42.7	-45.1	18.6	0.00e+00	0	43	0	576716800	57	4616
2026-01-29 00:18:49.55	325.00	57.07	-43.0	-45.4	18.3	0.00e+00	0	43	0	578813952	57	4784
2026-01-29 00:18:50.97	324.00	57.36	-43.4	-45.9	17.9	0.00e+00	0	43	0	580911104	57	5061
2026-01-29 00:18:51.68	323.50	57.50	-43.1	-45.6	18.1	0.00e+00	0	43	0	581959680	57	4915
2026-01-29 00:18:52.96	322.58	57.75	-43.1	-45.6	18.1	0.00e+00	0	43	0	585105408	57	4923
2026-01-29 00:18:53.70	322.04	57.89	-42.9	-45.2	18.4	0.00e+00	0	43	0	586153984	57	4705
2026-01-29 00:18:54.98	321.09	58.13	-42.6	-44.9	18.7	0.00e+00	0	43	0	588251136	57	4542
2026-01-29 00:18:55.70	320.54	58.26	-42.5	-44.8	18.8	0.00e+00	0	43	0	590348288	56	4759
2026-01-29 00:18:56.98	319.57	58.49	-42.6	-44.9	18.7	0.00e+00	0	43	0	592445440	56	4797
2026-01-29 00:18:57.69	319.02	58.62	-42.7	-45.1	18.6	0.00e+00	0	43	0	593494016	56	4903
2026-01-29 00:18:58.98	318.01	58.83	-42.6	-44.9	18.8	0.00e+00	0	43	0	595591168	56	4779
2026-01-29 00:18:59.69	317.45	58.95	-42.9	-45.3	18.4	0.00e+00	0	43	0	597688320	56	5030
2026-01-29 00:19:00.97	316.42	59.16	-43.2	-45.8	18.0	0.00e+00	0	43	0	599785472	57	4989
2026-01-29 00:19:01.68	315.84	59.27	-43.1	-45.6	18.1	0.00e+00	0	43	0	600834048	57	4921
2026-01-29 00:19:02.96	314.79	59.46	-42.6	-45.0	18.6	0.00e+00	0	43	0	602931200	57	4570
2026-01-29 00:19:03.67	314.20	59.57	-42.7	-45.1	18.6	0.00e+00	0	43	0	605028352	56	4881
2026-01-29 00:19:04.95	313.12	59.75	-42.8	-45.3	18.4	0.00e+00	0	43	0	607125504	56	5012
2026-01-29 00:19:05.67	312.51	59.85	-43.0	-45.5	18.2	0.00e+00	0	43	0	608174080	56	5136
2026-01-29 00:19:06.94	311.42	60.01	-42.3	-44.6	19.0	0.00e+00	0	43	0	611319808	56	4610
2026-01-29 00:19:07.65	310.80	60.10	-41.7	-43.8	19.6	0.00e+00	0	43	0	612368384	55	4493
2026-01-29 00:19:08.94	309.67	60.25	-42.5	-44.7	18.9	0.00e+00	0	43	0	614465536	55	4971
2026-01-29 00:19:09.65	309.04	60.33	-43.3	-45.7	18.0	0.00e+00	0	43	0	615514112	57	4965
2026-01-29 00:19:10.93	307.90	60.47	-44.4	-47.3	16.6	0.00e+00	0	43	0	618659840	60	5006
2026-01-29 00:19:11.65	307.25	60.54	-43.8	-46.5	17.4	0.00e+00	0	43	0	619708416	59	4816
2026-01-29 00:19:12.93	306.09	60.67	-42.5	-44.8	18.9	0.00e+00	0	43	0	621805568	57	4478
2026-01-29 00:19:13.64	305.44	60.73	-42.7	-45.1	18.6	0.00e+00	0	43	0	623902720	56	4886
2026-01-29 00:19:14.92	304.27	60.83	-43.5	-46.2	17.5	0.00e+00	0	43	0	625999872	57	5272
2026-01-29 00:19:15.64	303.60	60.89	-43.1	-45.7	18.1	0.00e+00	0	43	0	627048448	58	4659
2026-01-29 00:19:16.92	302.41	60.98	-42.5	-44.8	18.8	0.00e+00	0	43	0	629145600	56	4747
2026-01-29 00:19:17.65	301.73	61.02	-42.6	-44.9	18.8	0.00e+00	0	43	0	631242752	56	4762
2026-01-29 00:19:19.13	300.34	61.11	-43.0	-45.4	18.3	0.00e+00	0	43	0	633339904	56	5056
2026-01-29 00:19:19.84	299.67	61.14	-43.0	-45.5	18.2	0.00e+00	0	43	0	635437056	56	5130
2026-01-29 00:19:21.12	298.45	61.19	-42.5	-44.9	18.7	0.00e+00	0	43	0	637534208	56	4765
2026-01-29 00:19:21.83	297.78	61.22	-41.8	-44.0	19.4	0.00e+00	0	43	0	638582784	55	4551
2026-01-29 00:19:23.24	296.43	61.25	-41.4	-43.5	19.8	0.00e+00	0	43	0	641728512	54	4597
2026-01-29 00:19:23.95	295.76	61.27	-41.8	-44.0	19.4	0.00e+00	0	43	0	642777088	54	4863
2026-01-29 00:19:25.26	294.50	61.28	-41.2	-43.3	20.1	0.00e+00	0	43	0	644874240	54	4472
2026-01-29 00:19:25.97	293.82	61.29	-40.6	-42.6	20.6	0.00e+00	0	43	0	646971392	53	4356
2026-01-29 00:19:27.25	292.60	61.29	-40.2	-42.2	21.0	0.00e+00	0	43	0	649068544	52	4392
2026-01-29 00:19:27.98	291.90	61.28	-40.1	-42.0	21.2	0.00e+00	0	43	0	650117120	52	4317
2026-01-29 00:19:29.25	290.68	61.26	-40.5	-42.6	20.7	0.00e+00	0	43	0	653262848	52	4602
2026-01-29 00:19:29.98	289.99	61.24	-41.4	-43.6	19.8	0.00e+00	0	43	0	654311424	53	4913
2026-01-29 00:19:31.26	288.77	61.21	-42.0	-44.3	19.2	0.00e+00	0	43	0	656408576	55	4709
2026-01-29 00:19:31.97	288.09	61.18	-41.6	-43.8	19.5	0.00e+00	0	43	0	657457152	55	4468
2026-01-29 00:19:33.25	286.88	61.13	-40.8	-42.9	20.2	0.00e+00	0	43	0	660602880	53	4533
2026-01-29 00:19:33.99	286.18	61.09	-40.9	-43.0	20.3	0.00e+00	0	43	0	661651456	53	4549
2026-01-29 00:19:35.26	284.99	61.02	-40.7	-42.7	20.5	0.00e+00	0	43	0	663748608	53	4434
2026-01-29 00:19:35.97	284.33	60.97	-41.8	-44.1	19.4	0.00e+00	0	43	0	664797184	54	4883
2026-01-29 00:19:37.27	283.12	60.88	-42.7	-45.1	18.5	0.00e+00	0	43	0	667942912	55	5173
2026-01-29 00:19:37.98	282.46	60.83	-42.6	-45.0	18.6	0.00e+00	0	43	0	668991488	56	4860
2026-01-29 00:19:39.26	281.28	60.72	-42.7	-45.2	18.5	0.00e+00	0	43	0	671088640	56	4939
2026-01-29 00:19:40.19	280.43	60.64	-41.6	-43.7	19.6	0.00e+00	0	43	0	673185792	55	4437
2026-01-29 00:19:41.19	279.53	60.54	-40.9	-42.9	20.3	0.00e+00	0	43	0	675282944	53	4523
2026-01-29 00:19:42.19	278.63	60.44	-40.8	-42.8	20.4	0.00e+00	0	43	0	677380096	52	4717
2026-01-29 00:19:43.18	277.75	60.33	-42.1	-44.3	19.1	0.00e+00	0	43	0	678428672	54	5019
2026-01-29 00:19:44.18	276.86	60.22	-42.6	-45.0	18.6	0.00e+00	0	43	0	680525824	55	5111
2026-01-29 00:19:45.18	275.99	60.10	-42.9	-45.3	18.4	0.00e+00	0	43	0	682622976	56	5028
2026-01-29 00:19:46.17	275.13	59.97	-42.5	-44.9	19.0	0.00e+00	0	43	0	684720128	56	4791
2026-01-29 00:19:47.17	274.27	59.84	-42.7	-45.1	18.6	0.00e+00	0	43	0	686817280	56	4889
2026-01-29 00:19:48.16	273.43	59.70	-42.3	-44.6	19.1	0.00e+00	0	43	0	687865856	56	4648
2026-01-29 00:19:49.16	272.59	59.56	-42.9	-45.3	18.3	0.00e+00	0	43	0	689963008	56	5036
2026-01-29 00:19:50.15	271.77	59.42	-44.6	-47.7	16.2	0.00e+00	0	43	0	692060160	59	5579
2026-01-29 00:19:51.15	270.94	59.26	-44.1	-46.9	16.8	0.00e+00	0	43	0	694157312	60	4813
2026-01-29 00:19:52.15	270.13	59.11	-42.6	-45.0	18.7	0.00e+00	0	43	0	695205888	57	4548
2026-01-29 00:19:53.42	269.12	58.90	-41.7	-43.9	19.5	0.00e+00	0	43	0	698351616	55	4512
2026-01-29 00:19:54.18	268.51	58.77	-42.2	-44.4	18.9	0.00e+00	0	43	0	699400192	55	4808
2026-01-29 00:19:55.76	267.28	58.50	-42.6	-45.0	18.6	0.00e+00	0	43	0	702545920	55	5105
2026-01-29 00:19:56.42	266.78	58.38	-42.6	-45.0	18.7	0.00e+00	0	43	0	703594496	56	4844
2026-01-29 00:19:57.95	265.62	58.10	-40.9	-43.0	20.3	0.00e+00	0	43	0	706740224	53	4546
2026-01-29 00:19:58.66	265.09	57.97	-41.3	-43.4	19.9	0.00e+00	0	43	0	707788800	53	4812
2026-01-29 00:19:59.94	264.15	57.72	-41.7	-43.9	19.4	0.00e+00	0	43	0	709885952	54	4810
2026-01-29 00:20:00.66	263.63	57.58	-42.0	-44.3	19.1	0.00e+00	0	43	0	711983104	54	5006
2026-01-29 00:20:01.93	262.72	57.33	-41.9	-44.2	19.3	0.00e+00	0	43	0	714080256	54	4941
2026-01-29 00:20:02.66	262.21	57.19	-41.7	-43.9	19.6	0.00e+00	0	43	0	715128832	55	4496
2026-01-29 00:20:03.94	261.32	56.92	-40.8	-42.8	20.5	0.00e+00	0	43	0	717225984	53	4465
2026-01-29 00:20:04.66	260.83	56.77	-41.2	-43.4	20.0	0.00e+00	0	43	0	719323136	53	4762
2026-01-29 00:20:05.94	259.97	56.50	-42.2	-44.6	18.9	0.00e+00	0	43	0	721420288	55	4891
2026-01-29 00:20:06.65	259.50	56.35	-42.0	-44.3	19.0	0.00e+00	0	43	0	722468864	55	4752
2026-01-29 00:20:07.93	258.67	56.07	-42.8	-45.3	18.3	0.00e+00	0	43	0	725614592	56	4989
2026-01-29 00:20:08.64	258.21	55.92	-43.1	-45.6	18.1	0.00e+00	0	43	0	726663168	57	4910
2026-01-29 00:20:09.92	257.40	55.63	-42.0	-44.2	19.3	0.00e+00	0	43	0	728760320	56	4412
2026-01-29 00:20:10.63	256.96	55.47	-42.4	-44.7	18.8	0.00e+00	0	43	0	729808896	55	4973
2026-01-29 00:20:11.91	256.18	55.18	-43.2	-45.7	18.0	0.00e+00	0	43	0	732954624	57	4952
2026-01-29 00:20:12.62	255.75	55.02	-43.0	-45.4	18.3	0.00e+00	0	43	0	734003200	57	4778
2026-01-29 00:20:13.90	255.00	54.72	-42.6	-44.9	18.8	0.00e+00	0	43	0	736100352	57	4504
2026-01-29 00:20:14.64	254.56	54.55	-42.6	-44.9	18.7	0.00e+00	0	43	0	738197504	57	4539
2026-01-29 00:20:15.92	253.83	54.25	-42.8	-45.1	18.5	0.00e+00	0	43	0	740294656	56	4909
2026-01-29 00:20:16.65	253.42	54.08	-42.6	-45.0	18.8	0.00e+00	0	43	0	741343232	56	4826
2026-01-29 00:20:18.04	252.65	53.74	-43.1	-45.5	18.1	0.00e+00	0	43	0	744488960	57	4869
2026-01-29 00:20:18.75	252.26	53.57	-42.6	-44.9	18.7	0.00e+00	0	43	0	745537536	57	4501
2026-01-29 00:20:20.11	251.54	53.24	-43.1	-45.5	18.1	0.00e+00	0	43	0	747634688	57	4834
2026-01-29 00:20:20.82	251.16	53.07	-42.9	-45.3	18.3	0.00e+00	0	43	0	749731840	57	4732
2026-01-29 00:20:22.09	250.51	52.76	-41.7	-43.9	19.5	0.00e+00	0	43	0	751828992	55	4511
2026-01-29 00:20:23.15	249.97	52.50	-41.9	-44.1	19.3	0.00e+00	0	43	0	753926144	54	4892
2026-01-29 00:20:24.33	249.38	52.21	-42.3	-44.6	18.9	0.00e+00	0	43	0	756023296	55	4909
2026-01-29 00:20:25.33	248.89	51.96	-43.7	-46.4	17.4	0.00e+00	0	43	0	758120448	57	5355
2026-01-29 00:20:26.32	248.42	51.71	-43.2	-45.8	17.9	0.00e+00	0	43	0	760217600	58	4721
2026-01-29 00:20:27.32	247.95	51.46	-42.0	-44.3	19.3	0.00e+00	0	43	0	761266176	56	4447
2026-01-29 00:20:28.31	247.49	51.22	-40.9	-42.9	20.3	0.00e+00	0	43	0	763363328	53	4540
2026-01-29 00:20:29.31	247.03	50.96	-41.6	-43.8	19.6	0.00e+00	0	43	0	765460480	54	4732
2026-01-29 00:20:30.30	246.59	50.72	-42.9	-45.3	18.3	0.00e+00	0	43	0	767557632	56	5027
2026-01-29 00:20:31.30	246.14	50.46	-44.2	-47.0	16.8	0.00e+00	0	43	0	768606208	58	5442
2026-01-29 00:20:32.29	245.71	50.21	-44.4	-47.3	16.5	0.00e+00	0	43	0	770703360	59	5291
2026-01-29 00:20:33.29	245.29	49.96	-44.8	-47.8	16.0	0.00e+00	0	43	0	772800512	61	5004
2026-01-29 00:20:34.28	244.87	49.71	-43.9	-46.5	17.2	0.00e+00	0	43	0	774897664	59	4846
2026-01-29 00:20:35.28	244.46	49.46	-43.8	-46.4	17.3	0.00e+00	0	43	0	776994816	59	4785
2026-01-29 00:20:36.27	244.05	49.21	-44.0	-46.8	17.0	0.00e+00	0	43	0	778043392	59	4992
2026-01-29 00:20:37.33	243.63	48.94	-44.4	-47.3	16.5	0.00e+00	0	43	0	780140544	59	5295
2026-01-29 00:20:38.23	243.28	48.71	-45.0	-48.0	15.8	0.00e+00	0	43	0	782237696	60	5464
2026-01-29 00:20:39.51	242.78	48.38	-46.0	-49.7	14.1	1.50e-06	0	43	0	784334848	62	5914
2026-01-29 00:20:40.23	242.51	48.20	-46.4	-50.5	13.2	3.73e-05	0	43	0	785383424	64	5775
2026-01-29 00:20:41.51	242.03	47.88	-46.0	-49.7	14.2	3.73e-05	0	43	0	788529152	63	5546
2026-01-29 00:20:42.24	241.76	47.69	-45.4	-48.8	15.3	0.00e+00	0	43	0	789577728	62	5304
2026-01-29 00:20:43.52	241.30	47.37	-44.5	-47.6	16.2	0.00e+00	0	43	0	791674880	61	4881
2026-01-29 00:20:44.28	241.03	47.18	-45.0	-48.3	15.5	0.00e+00	0	43	0	793772032	61	5331
2026-01-29 00:20:45.56	240.58	46.85	-45.1	-48.5	15.5	0.00e+00	0	43	0	795869184	61	5404
2026-01-29 00:20:46.27	240.34	46.67	-44.9	-48.1	15.8	0.00e+00	0	43	0	796917760	61	5167
2026-01-29 00:20:47.55	239.90	46.35	-45.1	-48.3	15.4	0.00e+00	0	43	0	799014912	61	5316
2026-01-29 00:20:48.26	239.67	46.17	-45.0	-48.2	15.7	0.00e+00	0	43	0	801112064	61	5229
2026-01-29 00:20:49.54	239.25	45.85	-44.0	-46.8	17.1	0.00e+00	0	43	0	803209216	60	4716
2026-01-29 00:20:50.25	239.02	45.68	-43.7	-46.4	17.3	0.00e+00	0	43	0	804257792	59	4781
2026-01-29 00:20:51.53	238.61	45.36	-43.5	-46.0	17.6	0.00e+00	0	43	0	807403520	58	4845
2026-01-29 00:20:52.26	238.38	45.17	-43.6	-46.2	17.5	0.00e+00	0	43	0	808452096	58	4938
2026-01-29 00:20:53.58	237.98	44.85	-43.9	-46.6	17.2	0.00e+00	0	43	0	810549248	59	4921
2026-01-29 00:20:54.55	237.69	44.61	-44.6	-47.5	16.2	0.00e+00	0	43	0	812646400	59	5463
2026-01-29 00:20:55.54	237.39	44.36	-45.1	-48.3	15.5	0.00e+00	0	43	0	814743552	60	5651
2026-01-29 00:20:56.53	237.10	44.12	-45.0	-48.1	15.7	0.00e+00	0	43	0	816840704	61	5213
2026-01-29 00:20:57.53	236.81	43.87	-44.6	-47.5	16.3	0.00e+00	0	43	0	817889280	61	4824
2026-01-29 00:20:58.53	236.53	43.63	-43.9	-46.5	17.3	0.00e+00	0	43	0	819986432	59	4840
2026-01-29 00:20:59.52	236.25	43.38	-43.8	-46.4	17.4	0.00e+00	0	43	0	822083584	59	4761
2026-01-29 00:21:00.51	235.98	43.14	-43.9	-46.5	17.3	0.00e+00	0	43	0	824180736	59	4827
2026-01-29 00:21:01.51	235.71	42.90	-43.9	-46.5	17.2	0.00e+00	0	43	0	825229312	59	4862
2026-01-29 00:21:02.50	235.44	42.66	-44.2	-46.9	16.8	0.00e+00	0	43	0	827326464	59	5082
2026-01-29 00:21:03.50	235.18	42.42	-44.3	-47.0	16.6	0.00e+00	0	43	0	829423616	59	5120
2026-01-29 00:21:04.49	234.92	42.18	-44.0	-46.6	17.1	0.00e+00	0	43	0	831520768	59	4918
2026-01-29 00:21:05.49	234.67	41.94	-43.6	-46.1	17.5	0.00e+00	0	43	0	833617920	59	4619
2026-01-29 00:21:06.48	234.42	41.71	-43.2	-45.7	18.0	0.00e+00	0	43	0	834666496	58	4660
2026-01-29 00:21:07.48	234.17	41.47	-43.7	-46.3	17.6	0.00e+00	0	43	0	836763648	58	4984
2026-01-29 00:21:08.47	233.93	41.24	-44.4	-47.2	16.5	0.00e+00	0	43	0	838860800	59	5263
2026-01-29 00:21:09.47	233.69	41.00	-44.7	-47.7	16.1	0.00e+00	0	43	0	840957952	60	5277
2026-01-29 00:21:10.46	233.45	40.77	-44.7	-47.8	16.0	0.00e+00	0	43	0	842006528	60	5291
2026-01-29 00:21:11.46	233.22	40.54	-44.7	-47.8	15.9	0.00e+00	0	43	0	844103680	60	5295
2026-01-29 00:21:12.45	232.99	40.31	-45.1	-48.3	15.5	7.00e-07	0	43	0	846200832	61	5311
2026-01-29 00:21:13.45	232.76	40.07	-45.4	-48.7	15.0	0.00e+00	0	43	0	848297984	61	5568
2026-01-29 00:21:14.44	232.54	39.85	-45.1	-48.2	15.5	0.00e+00	0	43	0	850395136	61	5268
2026-01-29 00:21:15.44	232.32	39.62	-44.8	-47.7	16.1	0.00e+00	0	43	0	851443712	61	4982
2026-01-29 00:21:16.43	232.10	39.39	-45.0	-48.0	15.8	0.00e+00	0	43	0	853540864	61	5135
2026-01-29 00:21:17.44	231.89	39.16	-44.7	-47.6	16.3	0.00e+00	0	43	0	855638016	60	5166
2026-01-29 00:21:18.47	231.67	38.93	-44.6	-47.5	16.3	0.00e+00	0	43	0	857735168	60	5103
2026-01-29 00:21:19.46	231.46	38.70	-44.4	-47.2	16.4	0.00e+00	0	43	0	859832320	60	4962
2026-01-29 00:21:20.54	231.24	38.46	-44.7	-47.5	16.3	0.00e+00	0	43	0	860880896	60	5157
2026-01-29 00:21:21.39	231.07	38.27	-44.7	-47.6	16.2	0.00e+00	0	43	0	862978048	60	5186
2026-01-29 00:21:22.53	230.84	38.02	-45.0	-48.0	15.8	0.00e+00	0	43	0	865075200	60	5425
2026-01-29 00:21:23.39	230.67	37.83	-45.2	-48.4	15.4	0.00e+00	0	43	0	867172352	61	5367
2026-01-29 00:21:24.52	230.45	37.58	-45.4	-48.6	15.1	0.00e+00	0	43	0	869269504	61	5528
2026-01-29 00:21:25.38	230.28	37.39	-44.8	-47.8	16.0	0.00e+00	0	43	0	870318080	61	5033
2026-01-29 00:21:26.51	230.07	37.14	-44.9	-47.9	15.9	0.00e+00	0	43	0	872415232	61	5082
2026-01-29 00:21:27.37	229.91	36.96	-44.2	-46.9	16.9	0.00e+00	0	43	0	874512384	60	4760
2026-01-29 00:21:28.51	229.70	36.71	-44.2	-46.9	16.8	0.00e+00	0	43	0	876609536	59	5092
2026-01-29 00:21:29.36	229.54	36.53	-44.4	-47.3	16.5	0.00e+00	0	43	0	877658112	59	5287
2026-01-29 00:21:30.50	229.34	36.28	-45.0	-48.2	15.6	0.00e+00	0	43	0	879755264	61	5251
2026-01-29 00:21:31.35	229.19	36.10	-45.2	-48.4	15.3	0.00e+00	0	43	0	881852416	62	5090
2026-01-29 00:21:32.49	228.99	35.86	-45.2	-48.6	15.3	0.00e+00	0	43	0	883949568	62	5173
2026-01-29 00:21:33.34	228.84	35.68	-45.3	-48.6	15.2	0.00e+00	0	43	0	884998144	62	5199
2026-01-29 00:21:34.48	228.65	35.44	-45.2	-48.4	15.3	0.00e+00	0	43	0	887095296	62	5066
2026-01-29 00:21:35.33	228.50	35.27	-45.2	-48.5	15.3	0.00e+00	0	43	0	889192448	62	5102
2026-01-29 00:21:36.47	228.31	35.03	-45.3	-48.5	15.3	0.00e+00	0	43	0	891289600	61	5459
2026-01-29 00:21:37.32	228.17	34.86	-45.3	-48.5	15.3	0.00e+00	0	43	0	892338176	61	5451
2026-01-29 00:21:38.46	227.99	34.62	-44.4	-47.2	16.6	0.00e+00	0	43	0	895483904	60	4943
2026-01-29 00:21:39.31	227.85	34.45	-43.8	-46.4	17.3	0.00e+00	0	43	0	896532480	59	4783
2026-01-29 00:21:40.45	227.67	34.22	-43.2	-45.7	17.9	0.00e+00	0	43	0	898629632	58	4664
2026-01-29 00:21:41.30	227.54	34.05	-43.6	-46.1	17.6	0.00e+00	0	43	0	900726784	58	4907
2026-01-29 00:21:42.43	227.37	33.82	-44.0	-46.7	17.1	0.00e+00	0	43	0	902823936	58	5222
2026-01-29 00:21:43.29	227.23	33.65	-44.7	-47.7	16.1	0.00e+00	0	43	0	903872512	59	5537
2026-01-29 00:21:44.42	227.06	33.42	-44.5	-47.4	16.3	0.00e+00	0	43	0	905969664	60	5070
2026-01-29 00:21:45.28	226.94	33.25	-44.3	-47.1	16.6	0.00e+00	0	43	0	908066816	60	4911
2026-01-29 00:21:46.41	226.77	33.03	-44.0	-46.8	17.0	0.00e+00	0	43	0	910163968	59	4989
2026-01-29 00:21:47.26	226.65	32.86	-44.1	-46.9	16.8	0.00e+00	0	43	0	911212544	59	5092
2026-01-29 00:21:48.40	226.48	32.64	-44.5	-47.5	16.3	0.00e+00	0	43	0	913309696	59	5410
2026-01-29 00:21:49.25	226.36	32.48	-44.9	-48.1	15.7	0.00e+00	0	43	0	915406848	60	5482
2026-01-29 00:21:50.39	226.20	32.26	-45.9	-49.7	14.1	0.00e+00	0	43	0	917504000	62	5891
2026-01-29 00:21:51.24	226.09	32.09	-46.0	-49.8	13.9	2.20e-06	0	43	0	918552576	62	5992
2026-01-29 00:21:52.38	225.93	31.88	-45.4	-48.8	14.9	0.00e+00	0	43	0	920649728	62	5333
2026-01-29 00:21:53.24	225.82	31.71	-44.4	-47.3	16.5	0.00e+00	0	43	0	922746880	60	4987
2026-01-29 00:21:54.38	225.66	31.50	-44.1	-46.9	16.8	0.00e+00	0	43	0	924844032	59	5046
2026-01-29 00:21:55.23	225.55	31.34	-44.0	-46.8	16.9	0.00e+00	0	43	0	925892608	59	4992
2026-01-29 00:21:56.37	225.40	31.13	-44.1	-46.9	16.8	0.00e+00	0	43	0	929038336	59	5094
2026-01-29 00:21:57.22	225.29	30.97	-44.7	-47.7	16.0	0.00e+00	0	43	0	930086912	60	5269
2026-01-29 00:21:58.36	225.15	30.76	-44.5	-47.4	16.3	0.00e+00	0	43	0	932184064	60	5080
2026-01-29 00:21:59.21	225.04	30.60	-44.3	-47.1	16.7	0.00e+00	0	43	0	934281216	60	4887
2026-01-29 00:22:00.35	224.90	30.40	-43.6	-46.2	17.4	0.00e+00	0	43	0	936378368	59	4700
2026-01-29 00:22:01.20	224.80	30.24	-43.4	-45.9	17.7	0.00e+00	0	43	0	937426944	58	4809
2026-01-29 00:22:02.34	224.66	30.04	-43.4	-45.9	17.8	0.00e+00	0	43	0	939524096	58	4779
2026-01-29 00:22:03.19	224.56	29.88	-43.9	-46.7	16.9	0.00e+00	0	43	0	941621248	58	5227
2026-01-29 00:22:04.33	224.42	29.68	-44.4	-47.4	16.3	0.00e+00	0	43	0	943718400	59	5357
2026-01-29 00:22:05.18	224.32	29.53	-44.7	-47.8	16.0	0.00e+00	0	43	0	944766976	60	5301
2026-01-29 00:22:06.32	224.19	29.33	-45.4	-48.8	14.9	0.00e+00	0	43	0	946864128	61	5624
2026-01-29 00:22:07.28	224.08	29.16	-45.3	-48.8	15.0	0.00e+00	0	43	0	948961280	61	5598
2026-01-29 00:22:08.45	223.94	28.96	-44.9	-48.1	15.6	0.00e+00	0	43	0	951058432	61	5173
2026-01-29 00:22:09.30	223.85	28.81	-44.7	-47.8	16.0	0.00e+00	0	43	0	953155584	61	5005
2026-01-29 00:22:10.44	223.72	28.61	-44.4	-47.4	16.4	0.00e+00	0	43	0	955252736	60	5057
2026-01-29 00:22:11.29	223.63	28.47	-44.5	-47.4	16.3	0.00e+00	0	43	0	956301312	60	5100
2026-01-29 00:22:12.43	223.51	28.27	-44.5	-47.5	16.3	0.00e+00	0	43	0	958398464	60	5133
2026-01-29 00:22:13.28	223.41	28.13	-44.4	-47.3	16.4	0.00e+00	0	43	0	960495616	60	5014
2026-01-29 00:22:14.42	223.29	27.93	-44.5	-47.5	16.3	0.00e+00	0	43	0	962592768	60	5117
2026-01-29 00:22:15.27	223.20	27.79	-44.4	-47.3	16.4	0.00e+00	0	43	0	963641344	60	5040
2026-01-29 00:22:16.41	223.08	27.60	-44.0	-46.8	16.9	0.00e+00	0	43	0	965738496	59	4993
2026-01-29 00:22:17.26	223.00	27.46	-43.8	-46.5	17.1	0.00e+00	0	43	0	967835648	59	4867
2026-01-29 00:22:18.40	222.88	27.27	-43.7	-46.4	17.2	0.00e+00	0	43	0	969932800	59	4777
2026-01-29 00:22:19.25	222.80	27.13	-43.5	-46.1	17.6	0.00e+00	0	43	0	970981376	58	4872
2026-01-29 00:22:20.39	222.68	26.95	-43.5	-46.1	17.5	0.00e+00	0	43	0	973078528	58	4877
2026-01-29 00:22:21.24	222.60	26.81	-43.7	-46.4	17.2	0.00e+00	0	43	0	975175680	58	5082
2026-01-29 00:22:22.38	222.49	26.62	-44.0	-46.8	16.8	0.00e+00	0	43	0	977272832	58	5316
2026-01-29 00:22:23.23	222.40	26.49	-44.4	-47.4	16.2	0.00e+00	0	43	0	979369984	59	5370
2026-01-29 00:22:24.51	222.28	26.28	-44.6	-47.6	16.1	0.00e+00	0	43	0	981467136	60	5192
2026-01-29 00:22:25.24	222.21	26.17	-45.0	-48.2	15.5	0.00e+00	0	43	0	982515712	60	5558
2026-01-29 00:22:26.70	222.08	25.93	-45.4	-48.8	14.9	0.00e+00	0	43	0	985661440	61	5654
2026-01-29 00:22:27.41	222.01	25.82	-45.1	-48.4	15.3	0.00e+00	0	43	0	986710016	61	5384
2026-01-29 00:22:28.76	221.89	25.61	-45.0	-48.3	15.5	0.00e+00	0	43	0	988807168	61	5291
2026-01-29 00:22:29.47	221.82	25.50	-45.0	-48.2	15.5	0.00e+00	0	43	0	990904320	61	5238
2026-01-29 00:22:30.75	221.71	25.30	-44.7	-47.8	15.9	0.00e+00	0	43	0	993001472	61	5004
2026-01-29 00:22:31.46	221.64	25.19	-44.5	-47.4	16.1	0.00e+00	0	43	0	994050048	61	4807
2026-01-29 00:22:32.74	221.53	25.00	-44.7	-47.7	15.9	0.00e+00	0	43	0	997195776	60	5269
2026-01-29 00:22:33.46	221.47	24.89	-44.8	-47.9	15.8	0.00e+00	0	43	0	998244352	60	5387
2026-01-29 00:22:34.75	221.36	24.69	-44.4	-47.4	16.3	0.00e+00	0	43	0	1000341504	60	5067
2026-01-29 00:22:35.47	221.30	24.58	-44.5	-47.5	16.0	0.00e+00	0	43	0	1001390080	60	5156
2026-01-29 00:22:36.75	221.19	24.39	-44.2	-47.1	16.5	0.00e+00	0	43	0	1004535808	60	4898
2026-01-29 00:22:37.46	221.13	24.29	-44.2	-47.0	16.7	0.00e+00	0	43	0	1005584384	60	4852
2026-01-29 00:22:38.74	221.02	24.10	-43.9	-46.6	17.0	0.00e+00	0	43	0	1007681536	59	4905
2026-01-29 00:22:39.58	220.95	23.97	-43.7	-46.4	17.3	0.00e+00	0	43	0	1009778688	59	4790
2026-01-29 00:22:41.01	220.84	23.76	-43.8	-46.5	17.1	0.00e+00	0	43	0	1011875840	59	4842
2026-01-29 00:22:41.72	220.78	23.66	-43.9	-46.6	16.9	0.00e+00	0	43	0	1013972992	59	4923
2026-01-29 00:22:43.00	220.68	23.47	-43.8	-46.5	17.1	0.00e+00	0	43	0	1016070144	59	4825
2026-01-29 00:22:43.71	220.62	23.37	-43.8	-46.5	17.0	0.00e+00	0	43	0	1017118720	59	4864
2026-01-29 00:22:44.99	220.52	23.19	-43.8	-46.5	17.0	0.00e+00	0	43	0	1019215872	59	4865
2026-01-29 00:22:45.72	220.47	23.08	-43.8	-46.5	17.1	0.00e+00	0	43	0	1021313024	59	4835
2026-01-29 00:22:46.99	220.37	22.90	-43.6	-46.2	17.3	0.00e+00	0	43	0	1023410176	59	4700
2026-01-29 00:22:47.70	220.31	22.80	-43.6	-46.2	17.3	0.00e+00	0	43	0	1024458752	59	4687
2026-01-29 00:22:48.99	220.22	22.62	-43.2	-45.7	17.8	0.00e+00	0	43	0	1027604480	58	4701
2026-01-29 00:22:49.70	220.16	22.52	-43.1	-45.6	17.9	0.00e+00	0	43	0	1028653056	58	4601
2026-01-29 00:22:50.98	220.07	22.34	-42.9	-45.4	18.1	0.00e+00	0	43	0	1030750208	57	4777
2026-01-29 00:22:51.70	220.02	22.24	-42.8	-45.3	18.2	0.00e+00	0	43	0	1031798784	57	4721
2026-01-29 00:22:52.98	219.92	22.07	-42.7	-45.1	18.3	0.00e+00	0	43	0	1034944512	57	4645
2026-01-29 00:22:53.69	219.87	21.97	-42.9	-45.4	18.1	0.00e+00	0	43	0	1035993088	57	4777
2026-01-29 00:22:55.21	219.77	21.76	-43.0	-45.5	18.0	0.00e+00	0	43	0	1039138816	57	4832
2026-01-29 00:22:55.92	219.72	21.67	-43.2	-45.8	17.7	0.00e+00	0	43	0	1040187392	57	4987
2026-01-29 00:22:57.26	219.62	21.48	-43.7	-46.4	17.1	0.00e+00	0	43	0	1042284544	57	5355
2026-01-29 00:22:57.97	219.57	21.39	-43.9	-46.7	16.8	0.00e+00	0	43	0	1044381696	58	5277
2026-01-29 00:22:59.25	219.49	21.22	-44.2	-47.1	16.4	0.00e+00	0	43	0	1046478848	59	5210
2026-01-29 00:22:59.98	219.44	21.12	-44.4	-47.4	16.1	0.00e+00	0	43	0	1047527424	59	5397
2026-01-29 00:23:01.25	219.35	20.95	-44.5	-47.6	16.0	0.00e+00	0	43	0	1050673152	59	5491
2026-01-29 00:23:01.96	219.30	20.86	-44.8	-48.0	15.5	0.00e+00	0	43	0	1051721728	60	5464
2026-01-29 00:23:03.24	219.22	20.69	-44.9	-48.3	15.3	0.00e+00	0	43	0	1053818880	60	5611
2026-01-29 00:23:03.95	219.17	20.60	-44.9	-48.3	15.2	0.00e+00	0	43	0	1054867456	60	5618
2026-01-29 00:23:05.23	219.09	20.43	-45.0	-48.3	15.3	0.00e+00	0	43	0	1058013184	60	5626
2026-01-29 00:23:05.94	219.04	20.34	-45.0	-48.4	15.3	0.00e+00	0	43	0	1059061760	60	5666
2026-01-29 00:23:07.22	218.96	20.18	-44.7	-47.9	15.7	0.00e+00	0	43	0	1061158912	60	5356
2026-01-29 00:23:07.94	218.92	20.09	-44.7	-47.9	15.7	0.00e+00	0	43	0	1062207488	60	5369
2026-01-29 00:23:09.22	218.84	19.92	-44.8	-48.0	15.6	0.00e+00	0	43	0	1065353216	60	5431
2026-01-29 00:23:09.93	218.79	19.83	-44.7	-47.9	15.7	0.00e+00	0	43	0	1066401792	60	5362
2026-01-29 00:23:11.21	218.71	19.67	-44.4	-47.5	16.1	0.00e+00	0	43	0	1068498944	60	5102
2026-01-29 00:23:11.93	218.67	19.58	-44.6	-47.8	15.8	0.00e+00	0	43	0	1070596096	60	5294
2026-01-29 00:23:13.20	218.59	19.42	-44.1	-47.0	16.5	0.00e+00	0	43	0	1072693248	60	4862
2026-01-29 00:23:13.91	218.55	19.33	-44.1	-47.0	16.5	0.00e+00	0	43	0	1073741824	60	4853
2026-01-29 00:23:15.21	218.47	19.17	-44.0	-46.8	16.7	0.00e+00	0	43	0	1076887552	59	5004
2026-01-29 00:23:15.92	218.43	19.09	-43.6	-46.3	17.1	0.00e+00	0	43	0	1077936128	59	4732
2026-01-29 00:23:17.20	218.35	18.93	-43.4	-46.0	17.5	0.00e+00	0	43	0	1080033280	58	4862
2026-01-29 00:23:17.91	218.31	18.84	-43.2	-45.8	17.7	0.00e+00	0	43	0	1081081856	58	4723
2026-01-29 00:23:19.19	218.24	18.69	-43.0	-45.5	17.9	0.00e+00	0	43	0	1084227584	58	4581
2026-01-29 00:23:20.06	218.19	18.58	-42.9	-45.4	18.0	0.00e+00	0	43	0	1085276160	57	4774
2026-01-29 00:23:21.50	218.11	18.41	-42.6	-45.0	18.4	0.00e+00	0	43	0	1088421888	57	4583
2026-01-29 00:23:22.21	218.07	18.32	-42.3	-44.7	18.7	0.00e+00	0	43	0	1089470464	56	4658
2026-01-29 00:23:23.49	218.00	18.17	-42.5	-44.8	18.6	0.00e+00	0	43	0	1091567616	56	4739
2026-01-29 00:23:24.21	217.96	18.09	-42.5	-44.8	18.6	0.00e+00	0	43	0	1093664768	56	4759
2026-01-29 00:23:25.74	217.87	17.91	-42.4	-44.7	18.7	0.00e+00	0	43	0	1095761920	56	4676
2026-01-29 00:23:26.45	217.83	17.82	-42.7	-45.1	18.2	0.00e+00	0	43	0	1097859072	56	4901
2026-01-29 00:23:27.84	217.76	17.66	-42.7	-45.1	18.3	0.00e+00	0	43	0	1099956224	56	4897
2026-01-29 00:23:28.55	217.72	17.58	-42.8	-45.2	18.1	0.00e+00	0	43	0	1101004800	56	4965
2026-01-29 00:23:29.83	217.65	17.43	-43.1	-45.6	17.8	0.00e+00	0	43	0	1104150528	56	5170
2026-01-29 00:23:30.57	217.62	17.34	-43.1	-45.6	17.8	0.00e+00	0	43	0	1105199104	56	5208
2026-01-29 00:23:31.85	217.55	17.20	-43.4	-46.0	17.4	0.00e+00	0	43	0	1107296256	57	5129
2026-01-29 00:23:32.57	217.51	17.12	-43.4	-46.0	17.4	0.00e+00	0	43	0	1109393408	57	5157
2026-01-29 00:23:34.11	217.43	16.94	-43.7	-46.4	17.0	0.00e+00	0	43	0	1111490560	58	5075
2026-01-29 00:23:34.82	217.40	16.86	-43.6	-46.3	17.2	0.00e+00	0	43	0	1113587712	58	5002
2026-01-29 00:23:36.14	217.33	16.71	-43.7	-46.4	17.0	0.00e+00	0	43	0	1115684864	58	5084
2026-01-29 00:23:36.85	217.30	16.63	-43.7	-46.5	17.0	0.00e+00	0	43	0	1116733440	58	5109
2026-01-29 00:23:38.13	217.23	16.49	-43.7	-46.5	16.9	0.00e+00	0	43	0	1118830592	58	5123
2026-01-29 00:23:38.84	217.20	16.41	-43.7	-46.5	17.0	0.00e+00	0	43	0	1120927744	58	5110
2026-01-29 00:23:40.23	217.13	16.26	-43.8	-46.6	16.8	0.00e+00	0	43	0	1123024896	58	5193
2026-01-29 00:23:40.94	217.09	16.18	-44.1	-47.0	16.5	0.00e+00	0	43	0	1124073472	58	5408
2026-01-29 00:23:42.22	217.03	16.04	-43.6	-46.3	17.1	0.00e+00	0	43	0	1127219200	58	5028
2026-01-29 00:23:42.93	217.00	15.96	-43.6	-46.3	17.1	0.00e+00	0	43	0	1128267776	58	5037
2026-01-29 00:23:44.21	216.94	15.82	-43.9	-46.8	16.7	0.00e+00	0	43	0	1130364928	58	5281
2026-01-29 00:23:44.94	216.90	15.74	-43.6	-46.4	17.0	0.00e+00	0	43	0	1132462080	58	5056
2026-01-29 00:23:46.22	216.85	15.61	-43.8	-46.5	17.0	0.00e+00	0	43	0	1134559232	58	5151
2026-01-29 00:23:46.93	216.81	15.53	-43.9	-46.7	16.8	0.00e+00	0	43	0	1135607808	58	5231
2026-01-29 00:23:48.21	216.75	15.39	-43.8	-46.6	16.8	0.00e+00	0	43	0	1138753536	58	5169
2026-01-29 00:23:48.99	216.72	15.31	-44.0	-46.9	16.5	0.00e+00	0	43	0	1139802112	58	5347
2026-01-29 00:23:50.18	216.66	15.18	-43.9	-46.7	16.6	0.00e+00	0	43	0	1141899264	58	5273
2026-01-29 00:23:51.03	216.63	15.09	-44.0	-46.9	16.4	0.00e+00	0	43	0	1143996416	58	5394
2026-01-29 00:23:52.17	216.58	14.97	-44.1	-47.1	16.3	0.00e+00	0	43	0	1146093568	59	5186
2026-01-29 00:23:53.02	216.54	14.89	-44.2	-47.1	16.3	0.00e+00	0	43	0	1147142144	59	5200
2026-01-29 00:23:54.16	216.49	14.77	-44.1	-47.0	16.1	0.00e+00	0	43	0	1149239296	59	5144
2026-01-29 00:23:55.33	216.44	14.65	-44.4	-47.5	15.9	0.00e+00	0	43	0	1151336448	59	5416
2026-01-29 00:23:56.18	216.40	14.56	-44.5	-47.6	15.8	0.00e+00	0	43	0	1153433600	59	5498
2026-01-29 00:23:57.32	216.35	14.44	-44.5	-47.6	15.8	0.00e+00	0	43	0	1155530752	59	5515
2026-01-29 00:23:58.17	216.32	14.35	-44.6	-47.7	15.7	0.00e+00	0	43	0	1156579328	59	5547
2026-01-29 00:23:59.31	216.27	14.24	-44.7	-48.0	15.4	0.00e+00	0	43	0	1158676480	60	5417
2026-01-29 00:24:00.17	216.23	14.15	-44.3	-47.3	16.1	0.00e+00	0	43	0	1160773632	60	5039
2026-01-29 00:24:01.30	216.18	14.04	-44.6	-47.7	15.7	0.00e+00	0	43	0	1162870784	60	5263
2026-01-29 00:24:02.15	216.15	13.95	-44.4	-47.4	15.9	0.00e+00	0	43	0	1163919360	60	5087
2026-01-29 00:24:03.30	216.10	13.83	-44.4	-47.6	15.9	0.00e+00	0	43	0	1167065088	60	5167
2026-01-29 00:24:04.16	216.07	13.75	-44.3	-47.3	16.1	0.00e+00	0	43	0	1168113664	60	5016
2026-01-29 00:24:05.30	216.02	13.64	-44.1	-47.1	16.3	0.00e+00	0	43	0	1170210816	60	4920
2026-01-29 00:24:06.15	215.99	13.55	-44.0	-46.9	16.4	0.00e+00	0	43	0	1172307968	59	5067
2026-01-29 00:24:07.29	215.94	13.44	-43.8	-46.6	16.7	0.00e+00	0	43	0	1174405120	59	4900
2026-01-29 00:24:08.14	215.91	13.35	-43.7	-46.5	16.8	0.00e+00	0	43	0	1175453696	59	4845
2026-01-29 00:24:09.28	215.86	13.24	-43.6	-46.4	16.9	0.00e+00	0	43	0	1177550848	59	4800
2026-01-29 00:24:10.13	215.83	13.16	-43.5	-46.2	17.1	0.00e+00	0	43	0	1179648000	58	4969
2026-01-29 00:24:11.49	215.78	13.03	-43.3	-46.0	17.3	0.00e+00	0	43	0	1181745152	58	4823
2026-01-29 00:24:12.20	215.75	12.96	-43.2	-45.8	17.5	0.00e+00	0	43	0	1182793728	58	4751
2026-01-29 00:24:13.48	215.70	12.84	-43.2	-45.8	17.5	0.00e+00	0	43	0	1185939456	58	4723
2026-01-29 00:24:14.19	215.67	12.77	-43.1	-45.6	17.6	0.00e+00	0	43	0	1186988032	58	4643
2026-01-29 00:24:15.75	215.62	12.62	-43.2	-45.8	17.5	0.00e+00	0	43	0	1190133760	57	5005
2026-01-29 00:24:16.38	215.59	12.56	-43.2	-45.8	17.5	0.00e+00	0	43	0	1191182336	57	4984
2026-01-29 00:24:17.90	215.54	12.41	-43.2	-45.8	17.5	0.00e+00	0	43	0	1194328064	57	4998
2026-01-29 00:24:18.61	215.51	12.35	-43.1	-45.7	17.5	0.00e+00	0	43	0	1195376640	57	4971
2026-01-29 00:24:19.89	215.46	12.23	-42.9	-45.5	17.7	0.00e+00	0	43	0	1197473792	57	4832
2026-01-29 00:24:20.60	215.44	12.16	-42.9	-45.5	17.8	0.00e+00	0	43	0	1198522368	57	4826
2026-01-29 00:24:21.88	215.39	12.04	-43.2	-45.8	17.4	0.00e+00	0	43	0	1201668096	57	4989
2026-01-29 00:24:22.59	215.37	11.97	-43.0	-45.6	17.6	0.00e+00	0	43	0	1202716672	57	4905
2026-01-29 00:24:24.01	215.32	11.84	-43.2	-45.8	17.4	0.00e+00	0	43	0	1205862400	57	5038
2026-01-29 00:24:24.72	215.29	11.78	-43.2	-45.9	17.3	0.00e+00	0	43	0	1206910976	57	5074
2026-01-29 00:24:26.00	215.25	11.66	-43.5	-46.3	17.0	0.00e+00	0	43	0	1209008128	57	5292
2026-01-29 00:24:26.73	215.22	11.59	-43.6	-46.3	16.9	0.00e+00	0	43	0	1210056704	57	5330
2026-01-29 00:24:28.12	215.17	11.46	-43.6	-46.3	16.9	0.00e+00	0	43	0	1213202432	57	5314
2026-01-29 00:24:28.83	215.15	11.40	-43.7	-46.5	16.8	0.00e+00	0	43	0	1214251008	58	5121
2026-01-29 00:24:30.11	215.10	11.28	-43.8	-46.6	16.7	0.00e+00	0	43	0	1216348160	58	5192
2026-01-29 00:24:31.16	215.07	11.19	-43.9	-46.7	16.5	0.00e+00	0	43	0	1218445312	58	5264
2026-01-29 00:24:32.35	215.03	11.08	-43.9	-46.8	16.5	0.00e+00	0	43	0	1220542464	58	5284
2026-01-29 00:24:33.34	215.00	10.99	-44.0	-46.9	16.3	0.00e+00	0	43	0	1222639616	58	5387
2026-01-29 00:24:34.34	214.96	10.90	-44.0	-46.9	16.3	0.00e+00	0	43	0	1224736768	59	5090
2026-01-29 00:24:35.33	214.93	10.82	-44.2	-47.2	16.0	0.00e+00	0	43	0	1226833920	59	5260
2026-01-29 00:24:36.33	214.90	10.73	-44.2	-47.1	16.1	0.00e+00	0	43	0	1228931072	59	5202
2026-01-29 00:24:37.32	214.87	10.64	-44.1	-47.0	16.3	0.00e+00	0	43	0	1229979648	59	5111
2026-01-29 00:24:38.32	214.83	10.55	-44.3	-47.3	16.0	0.00e+00	0	43	0	1232076800	59	5280
2026-01-29 00:24:39.31	214.80	10.46	-44.4	-47.5	15.8	0.00e+00	0	43	0	1234173952	59	5417
2026-01-29 00:24:40.30	214.77	10.38	-44.2	-47.2	16.0	0.00e+00	0	43	0	1236271104	59	5243
2026-01-29 00:24:41.30	214.74	10.29	-44.2	-47.2	16.0	0.00e+00	0	43	0	1237319680	59	5269
