passes_logs/2026/01/04/R3.0SM8_Murmansk_STILSPACE/R3.0SM8_Murmansk_STILSPACE__20260104_053855_FENGYUN_3D_rec.log

#Pass ID: 20260104_053855_FENGYUN 3D
#Satellite: FENGYUN 3D
#Configuration: FENGYUN 3D
#almurnet v.1.7.20240730
#Start time: 2026-01-04 05:38:55

#Version: 2.2.20231116
#Station: R3.0SM8_Murmansk_STILSPACE
#Location: 33.092731 lon 68.902999 lat
#TLE: 1 43010U 17072A   26003.51579816  .00000092  00000+0  65324-4 0  9992
#TLE: 2 43010  98.9912 335.1548 0001916 128.4619 231.6729 14.19692074421623

#Time	Az	El	Level	Level2	SNR	BER	BlckErr	Temp	State	Recorded	gain1	gain2
2026-01-04 05:38:55.35	42.69	3.00	-52.4	-63.1	3.8	8.45e-01	0	46	0	0	66	13111
2026-01-04 05:38:56.33	42.63	3.06	-52.2	-62.9	3.8	8.46e-01	0	46	104	0	67	12184
2026-01-04 05:38:57.32	42.58	3.12	-52.1	-62.9	3.8	8.46e-01	0	46	104	0	67	12123
2026-01-04 05:38:58.30	42.52	3.17	-52.1	-62.8	3.8	8.46e-01	0	46	104	0	67	12085
2026-01-04 05:38:59.29	42.46	3.23	-52.0	-62.7	3.8	8.46e-01	0	46	104	0	67	11909
2026-01-04 05:39:00.27	42.40	3.29	-51.9	-62.7	3.8	8.47e-01	0	46	104	0	66	12540
2026-01-04 05:39:01.26	42.35	3.35	-51.7	-62.5	3.8	8.47e-01	0	46	104	0	66	12285
2026-01-04 05:39:02.25	42.29	3.42	-51.5	-62.2	3.8	8.47e-01	0	46	104	0	66	11916
2026-01-04 05:39:03.23	42.23	3.48	-51.4	-62.1	3.8	8.46e-01	0	46	104	0	65	12443
2026-01-04 05:39:04.23	42.17	3.54	-51.4	-62.0	3.8	8.46e-01	0	46	104	0	65	12350
2026-01-04 05:39:05.22	42.11	3.60	-51.4	-62.0	3.8	8.45e-01	0	46	104	0	65	12310
2026-01-04 05:39:06.20	42.05	3.66	-51.4	-62.0	3.8	8.47e-01	0	47	104	0	65	12255
2026-01-04 05:39:07.18	41.99	3.72	-51.4	-61.9	3.8	8.46e-01	0	47	104	0	65	12144
2026-01-04 05:39:08.17	41.93	3.78	-51.4	-62.0	3.8	8.46e-01	0	47	104	0	65	12272
2026-01-04 05:39:09.16	41.87	3.84	-51.4	-62.0	3.8	8.44e-01	0	47	104	0	65	12339
2026-01-04 05:39:10.15	41.81	3.90	-51.4	-62.1	3.8	8.46e-01	0	47	104	0	65	12386
2026-01-04 05:39:11.14	41.75	3.96	-51.4	-62.0	3.8	8.46e-01	0	47	104	0	65	12307
2026-01-04 05:39:12.13	41.69	4.02	-51.4	-62.1	3.8	8.46e-01	0	47	104	0	65	12399
2026-01-04 05:39:13.13	41.63	4.09	-51.4	-62.0	3.8	8.48e-01	0	47	104	0	65	12288
2026-01-04 05:39:14.12	41.56	4.15	-51.4	-61.9	3.8	8.46e-01	0	47	104	0	65	12122
2026-01-04 05:39:15.11	41.50	4.21	-51.3	-61.6	3.8	8.47e-01	0	47	104	0	65	11750
2026-01-04 05:39:16.10	41.44	4.27	-51.3	-61.3	3.8	8.46e-01	0	47	104	0	65	11312
2026-01-04 05:39:17.09	41.38	4.33	-51.2	-60.7	3.8	8.47e-01	0	47	104	0	65	10626
2026-01-04 05:39:18.08	41.31	4.40	-51.1	-59.9	3.8	8.46e-01	0	47	104	0	65	9658
2026-01-04 05:39:19.06	41.25	4.46	-51.0	-58.9	4.1	8.43e-01	0	48	0	0	65	8600
2026-01-04 05:39:20.05	41.19	4.52	-50.7	-57.7	4.5	8.29e-01	0	47	0	0	64	7930
2026-01-04 05:39:21.04	41.12	4.58	-50.5	-56.6	5.0	8.01e-01	0	48	0	0	64	6979
2026-01-04 05:39:22.02	41.06	4.65	-50.3	-55.6	5.7	7.26e-01	0	48	0	0	63	6609
2026-01-04 05:39:23.01	41.00	4.71	-50.0	-54.6	6.4	3.12e-01	0	48	0	5242880	63	5901
2026-01-04 05:39:24.00	40.93	4.77	-49.6	-53.6	7.3	1.88e-01	0	48	0	10485760	62	5587
2026-01-04 05:39:24.99	40.87	4.83	-49.2	-52.7	8.2	8.21e-02	0	48	0	16777216	61	5326
2026-01-04 05:39:25.98	40.80	4.90	-48.7	-51.8	9.1	3.68e-02	0	48	0	22020096	60	5056
2026-01-04 05:39:26.96	40.74	4.96	-48.4	-51.2	9.9	1.68e-02	0	48	0	27262976	59	4985
2026-01-04 05:39:27.95	40.67	5.02	-48.1	-50.7	10.3	7.07e-03	0	48	0	33554432	59	4733
2026-01-04 05:39:28.93	40.61	5.09	-48.0	-50.5	10.6	5.00e-03	0	48	0	38797312	59	4616
2026-01-04 05:39:29.92	40.54	5.15	-48.3	-50.8	10.2	6.43e-03	0	49	0	44040192	59	4813
2026-01-04 05:39:30.90	40.47	5.21	-47.9	-50.3	10.8	5.58e-03	0	48	0	50331648	59	4522
2026-01-04 05:39:31.89	40.41	5.28	-47.9	-50.2	10.9	2.96e-03	0	48	0	55574528	58	4731
2026-01-04 05:39:32.88	40.34	5.34	-47.7	-50.0	11.1	1.82e-03	0	49	0	60817408	58	4611
2026-01-04 05:39:33.87	40.27	5.40	-47.5	-49.8	11.4	1.44e-03	0	49	0	66060288	58	4505
2026-01-04 05:39:34.86	40.20	5.47	-47.5	-49.7	11.4	1.26e-03	0	49	0	72351744	58	4462
2026-01-04 05:39:35.85	40.13	5.53	-47.6	-49.7	11.5	1.42e-03	0	49	0	77594624	58	4468
2026-01-04 05:39:36.84	40.07	5.60	-47.9	-50.2	11.0	2.27e-03	0	49	0	82837504	58	4709
2026-01-04 05:39:37.82	40.00	5.66	-47.5	-49.7	11.5	1.65e-03	0	49	0	89128960	58	4442
2026-01-04 05:39:38.81	39.93	5.72	-47.1	-48.9	12.2	5.94e-04	0	49	0	94371840	57	4340
2026-01-04 05:39:39.79	39.86	5.79	-46.6	-48.4	12.8	1.69e-04	0	49	0	99614720	56	4303
2026-01-04 05:39:40.77	39.79	5.85	-46.3	-47.9	13.3	4.92e-05	0	49	0	104857600	55	4306
2026-01-04 05:39:41.76	39.72	5.92	-45.9	-47.3	13.8	1.48e-05	0	49	0	111149056	54	4287
2026-01-04 05:39:42.75	39.65	5.98	-45.7	-47.2	13.9	4.50e-06	0	49	0	116391936	54	4205
2026-01-04 05:39:43.74	39.58	6.05	-45.7	-47.2	14.0	1.10e-06	0	49	0	121634816	54	4205
2026-01-04 05:39:44.73	39.51	6.11	-45.8	-47.3	13.8	8.00e-06	0	49	0	127926272	54	4277
2026-01-04 05:39:45.72	39.44	6.18	-46.0	-47.5	13.7	6.80e-06	0	49	0	133169152	54	4344
2026-01-04 05:39:46.71	39.36	6.24	-45.8	-47.3	13.9	9.10e-06	0	49	0	138412032	54	4243
2026-01-04 05:39:47.70	39.29	6.31	-45.7	-47.1	14.1	1.10e-06	0	49	0	144703488	54	4177
2026-01-04 05:39:48.68	39.22	6.37	-45.7	-47.1	14.1	2.20e-06	0	49	0	149946368	54	4184
2026-01-04 05:39:49.67	39.15	6.44	-45.7	-47.2	14.1	4.50e-06	0	49	0	155189248	54	4195
2026-01-04 05:39:50.65	39.07	6.51	-45.9	-47.4	13.8	6.80e-06	0	49	0	160432128	54	4325
2026-01-04 05:39:51.64	39.00	6.57	-45.9	-47.3	13.9	9.10e-06	0	49	0	166723584	54	4285
2026-01-04 05:39:52.63	38.93	6.64	-45.6	-46.9	14.3	0.00e+00	0	49	0	171966464	54	4094
2026-01-04 05:39:53.62	38.85	6.70	-45.2	-46.5	14.7	0.00e+00	0	50	0	177209344	53	4137
2026-01-04 05:39:54.62	38.78	6.77	-45.0	-46.2	15.0	0.00e+00	0	50	0	183500800	53	4004
2026-01-04 05:39:55.60	38.70	6.84	-44.7	-45.9	15.3	0.00e+00	0	50	0	188743680	52	4090
2026-01-04 05:39:56.59	38.63	6.90	-44.5	-45.6	15.7	0.00e+00	0	50	0	193986560	52	3929
2026-01-04 05:39:57.58	38.55	6.97	-44.5	-45.6	15.8	0.00e+00	0	50	0	200278016	51	4153
2026-01-04 05:39:58.57	38.47	7.04	-44.4	-45.5	15.8	0.00e+00	0	50	0	205520896	51	4143
2026-01-04 05:39:59.57	38.40	7.11	-44.5	-45.7	15.7	0.00e+00	0	50	0	210763776	51	4206
2026-01-04 05:40:00.56	38.32	7.17	-44.6	-45.7	15.6	0.00e+00	0	50	0	217055232	51	4217
2026-01-04 05:40:01.54	38.24	7.24	-44.6	-45.7	15.6	0.00e+00	0	50	0	222298112	51	4229
2026-01-04 05:40:02.53	38.17	7.31	-44.7	-45.8	15.6	0.00e+00	0	50	0	227540992	51	4276
2026-01-04 05:40:03.52	38.09	7.37	-44.7	-45.9	15.5	0.00e+00	0	50	0	233832448	51	4305
2026-01-04 05:40:04.51	38.01	7.44	-44.6	-45.7	15.7	0.00e+00	0	50	0	239075328	51	4215
2026-01-04 05:40:05.51	37.93	7.51	-44.6	-45.7	15.7	0.00e+00	0	50	0	244318208	51	4215
2026-01-04 05:40:06.50	37.85	7.58	-44.6	-45.8	15.7	0.00e+00	0	50	0	250609664	51	4244
2026-01-04 05:40:07.49	37.77	7.65	-44.8	-45.9	15.5	0.00e+00	0	50	0	255852544	51	4336
2026-01-04 05:40:08.48	37.69	7.72	-44.8	-46.0	15.5	0.00e+00	0	50	0	261095424	51	4354
2026-01-04 05:40:09.47	37.61	7.78	-44.9	-46.0	15.4	0.00e+00	0	51	0	266338304	51	4378
2026-01-04 05:40:10.47	37.53	7.85	-45.0	-46.3	15.2	0.00e+00	0	51	0	272629760	51	4498
2026-01-04 05:40:11.46	37.45	7.92	-45.0	-46.2	15.2	0.00e+00	0	51	0	277872640	52	4214
2026-01-04 05:40:12.45	37.37	7.99	-44.9	-46.1	15.3	0.00e+00	0	50	0	283115520	52	4188
2026-01-04 05:40:13.44	37.29	8.06	-45.0	-46.3	15.1	0.00e+00	0	51	0	289406976	52	4249
2026-01-04 05:40:14.43	37.20	8.13	-45.1	-46.4	15.0	0.00e+00	0	50	0	294649856	52	4307
2026-01-04 05:40:15.42	37.12	8.20	-44.9	-46.1	15.3	0.00e+00	0	51	0	299892736	52	4171
2026-01-04 05:40:16.41	37.04	8.27	-44.8	-45.9	15.5	0.00e+00	0	51	0	306184192	52	4094
2026-01-04 05:40:17.40	36.95	8.34	-44.8	-46.0	15.5	0.00e+00	0	51	0	311427072	52	4102
2026-01-04 05:40:18.39	36.87	8.41	-44.9	-46.1	15.3	0.00e+00	0	51	0	316669952	52	4159
2026-01-04 05:40:19.37	36.79	8.47	-44.9	-46.2	15.3	0.00e+00	0	51	0	322961408	52	4195
2026-01-04 05:40:20.35	36.70	8.54	-44.7	-45.9	15.5	0.00e+00	0	51	0	328204288	52	4064
2026-01-04 05:40:21.34	36.62	8.61	-44.6	-45.7	15.7	0.00e+00	0	51	0	333447168	52	3980
2026-01-04 05:40:22.33	36.53	8.68	-44.4	-45.5	15.9	0.00e+00	0	51	0	338690048	52	3896
2026-01-04 05:40:23.33	36.44	8.75	-44.4	-45.5	16.0	0.00e+00	0	51	0	344981504	51	4137
2026-01-04 05:40:24.32	36.36	8.83	-44.4	-45.5	16.1	0.00e+00	0	51	0	350224384	51	4105
2026-01-04 05:40:25.31	36.27	8.90	-44.4	-45.5	16.1	0.00e+00	0	51	0	355467264	51	4123
2026-01-04 05:40:26.29	36.18	8.97	-44.6	-45.7	15.9	0.00e+00	0	51	0	361758720	51	4216
2026-01-04 05:40:27.29	36.10	9.04	-44.7	-45.9	15.7	0.00e+00	0	51	0	367001600	51	4293
2026-01-04 05:40:28.27	36.01	9.11	-44.4	-45.6	16.0	0.00e+00	0	51	0	372244480	51	4151
2026-01-04 05:40:29.25	35.92	9.18	-44.4	-45.4	16.2	0.00e+00	0	51	0	377487360	51	4089
2026-01-04 05:40:30.23	35.83	9.25	-44.2	-45.3	16.3	0.00e+00	0	51	0	383778816	51	4007
2026-01-04 05:40:31.22	35.74	9.32	-44.2	-45.2	16.4	0.00e+00	0	51	0	389021696	51	3972
2026-01-04 05:40:32.21	35.65	9.39	-44.1	-45.1	16.4	0.00e+00	0	51	0	395313152	51	3951
2026-01-04 05:40:33.20	35.56	9.46	-44.2	-45.2	16.3	0.00e+00	0	51	0	400556032	51	3993
2026-01-04 05:40:34.19	35.47	9.53	-44.0	-45.0	16.6	0.00e+00	0	51	0	405798912	51	3888
2026-01-04 05:40:35.18	35.38	9.61	-43.9	-44.8	16.7	0.00e+00	0	51	0	411041792	50	4046
2026-01-04 05:40:36.18	35.29	9.68	-43.9	-44.8	16.8	0.00e+00	0	52	0	417333248	50	4040
2026-01-04 05:40:37.16	35.19	9.75	-43.9	-44.9	16.7	0.00e+00	0	52	0	422576128	50	4085
2026-01-04 05:40:38.15	35.10	9.82	-43.9	-44.8	16.8	0.00e+00	0	52	0	427819008	50	4041
2026-01-04 05:40:39.14	35.01	9.89	-43.9	-44.9	16.7	0.00e+00	0	52	0	434110464	50	4089
2026-01-04 05:40:40.13	34.91	9.97	-44.0	-45.0	16.6	0.00e+00	0	52	0	439353344	50	4113
2026-01-04 05:40:41.12	34.82	10.04	-44.2	-45.2	16.4	0.00e+00	0	52	0	444596224	50	4229
2026-01-04 05:40:42.11	34.73	10.11	-43.9	-44.9	16.7	0.00e+00	0	52	0	450887680	50	4086
2026-01-04 05:40:43.10	34.63	10.18	-43.8	-44.8	16.8	0.00e+00	0	52	0	456130560	50	4028
2026-01-04 05:40:44.10	34.53	10.26	-43.8	-44.8	16.9	0.00e+00	0	52	0	461373440	50	4006
2026-01-04 05:40:45.08	34.44	10.33	-43.8	-44.8	16.9	0.00e+00	0	52	0	466616320	50	4010
2026-01-04 05:40:46.07	34.34	10.40	-43.9	-44.8	16.8	0.00e+00	0	52	0	472907776	50	4038
2026-01-04 05:40:47.06	34.24	10.48	-44.0	-45.0	16.7	0.00e+00	0	52	0	478150656	50	4124
2026-01-04 05:40:48.04	34.15	10.55	-43.8	-44.8	16.9	0.00e+00	0	52	0	483393536	50	4012
2026-01-04 05:40:49.03	34.05	10.62	-43.7	-44.6	17.1	0.00e+00	0	52	0	489684992	50	3924
2026-01-04 05:40:50.02	33.95	10.70	-43.6	-44.5	17.1	0.00e+00	0	52	0	494927872	50	3912
2026-01-04 05:40:51.02	33.85	10.77	-43.6	-44.5	17.1	0.00e+00	0	52	0	500170752	50	3911
2026-01-04 05:40:52.00	33.75	10.85	-43.7	-44.7	17.0	0.00e+00	0	52	0	506462208	50	3967
2026-01-04 05:40:53.00	33.65	10.92	-43.8	-44.8	16.9	0.00e+00	0	52	0	511705088	50	4022
2026-01-04 05:40:53.99	33.55	11.00	-43.7	-44.6	17.1	0.00e+00	0	52	0	516947968	50	3925
2026-01-04 05:40:54.98	33.45	11.07	-43.6	-44.5	17.2	0.00e+00	0	52	0	523239424	50	3877
2026-01-04 05:40:55.97	33.34	11.14	-43.6	-44.5	17.2	0.00e+00	0	52	0	528482304	50	3883
2026-01-04 05:40:56.96	33.24	11.22	-43.7	-44.6	17.1	0.00e+00	0	52	0	533725184	50	3921
2026-01-04 05:40:57.94	33.14	11.29	-43.8	-44.8	16.9	0.00e+00	0	52	0	538968064	50	4028
2026-01-04 05:40:58.93	33.04	11.37	-43.8	-44.7	17.0	0.00e+00	0	53	0	545259520	50	3985
2026-01-04 05:40:59.92	32.93	11.44	-43.8	-44.8	17.0	0.00e+00	0	52	0	550502400	50	4005
2026-01-04 05:41:00.91	32.83	11.52	-43.9	-44.9	16.9	0.00e+00	0	52	0	555745280	50	4063
2026-01-04 05:41:01.90	32.72	11.59	-43.8	-44.8	16.9	0.00e+00	0	53	0	562036736	50	4006
2026-01-04 05:41:02.89	32.62	11.67	-43.8	-44.7	17.0	0.00e+00	0	53	0	567279616	50	3974
2026-01-04 05:41:03.87	32.51	11.75	-43.9	-44.8	16.9	0.00e+00	0	53	0	572522496	50	4029
2026-01-04 05:41:04.86	32.40	11.82	-44.2	-45.2	16.5	0.00e+00	0	53	0	578813952	50	4206
2026-01-04 05:41:05.86	32.30	11.90	-43.9	-44.8	16.9	0.00e+00	0	52	0	584056832	50	4023
2026-01-04 05:41:06.85	32.19	11.97	-43.6	-44.5	17.2	0.00e+00	0	53	0	589299712	50	3901
2026-01-04 05:41:07.84	32.08	12.05	-43.4	-44.3	17.4	0.00e+00	0	53	0	594542592	50	3803
2026-01-04 05:41:08.83	31.97	12.13	-43.3	-44.2	17.5	0.00e+00	0	53	0	600834048	49	3994
2026-01-04 05:41:09.82	31.86	12.20	-43.4	-44.3	17.4	0.00e+00	0	53	0	606076928	49	4025
2026-01-04 05:41:10.81	31.75	12.28	-43.6	-44.5	17.2	0.00e+00	0	53	0	612368384	49	4119
2026-01-04 05:41:11.80	31.64	12.36	-43.5	-44.3	17.3	0.00e+00	0	53	0	617611264	49	4051
2026-01-04 05:41:12.80	31.52	12.43	-43.4	-44.3	17.5	0.00e+00	0	53	0	622854144	49	4010
2026-01-04 05:41:13.79	31.41	12.51	-43.4	-44.3	17.4	0.00e+00	0	53	0	628097024	49	4025
2026-01-04 05:41:14.77	31.30	12.59	-43.5	-44.4	17.3	0.00e+00	0	53	0	634388480	49	4062
2026-01-04 05:41:15.76	31.19	12.67	-43.4	-44.3	17.5	0.00e+00	0	53	0	639631360	49	4014
2026-01-04 05:41:16.74	31.07	12.74	-43.2	-44.1	17.6	0.00e+00	0	53	0	644874240	49	3928
2026-01-04 05:41:17.73	30.96	12.82	-43.2	-44.1	17.7	0.00e+00	0	53	0	651165696	49	3915
2026-01-04 05:41:18.72	30.84	12.90	-43.2	-44.1	17.7	0.00e+00	0	53	0	656408576	49	3924
2026-01-04 05:41:19.71	30.73	12.98	-43.3	-44.1	17.6	0.00e+00	0	53	0	661651456	49	3957
2026-01-04 05:41:20.69	30.61	13.05	-43.3	-44.1	17.6	0.00e+00	0	53	0	666894336	49	3945
2026-01-04 05:41:21.68	30.50	13.13	-43.2	-44.1	17.7	0.00e+00	0	53	0	673185792	49	3916
2026-01-04 05:41:22.66	30.38	13.21	-43.2	-44.0	17.7	0.00e+00	0	53	0	678428672	49	3891
2026-01-04 05:41:23.65	30.26	13.29	-43.2	-44.1	17.7	0.00e+00	0	53	0	683671552	49	3914
2026-01-04 05:41:24.64	30.14	13.37	-43.3	-44.2	17.6	0.00e+00	0	53	0	689963008	49	3964
2026-01-04 05:41:25.63	30.02	13.44	-43.3	-44.2	17.6	0.00e+00	0	53	0	695205888	49	3989
2026-01-04 05:41:26.62	29.90	13.52	-43.3	-44.1	17.6	0.00e+00	0	53	0	700448768	49	3949
2026-01-04 05:41:27.61	29.78	13.60	-43.3	-44.1	17.6	0.00e+00	0	53	0	706740224	49	3939
2026-01-04 05:41:28.61	29.66	13.68	-43.4	-44.3	17.5	0.00e+00	0	53	0	711983104	49	4029
2026-01-04 05:41:29.60	29.53	13.76	-43.4	-44.3	17.5	0.00e+00	0	53	0	717225984	49	4030
2026-01-04 05:41:30.58	29.41	13.84	-43.3	-44.2	17.6	0.00e+00	0	53	0	723517440	49	3969
2026-01-04 05:41:31.57	29.29	13.92	-43.3	-44.1	17.6	0.00e+00	0	53	0	728760320	49	3956
2026-01-04 05:41:32.55	29.17	14.00	-43.5	-44.4	17.4	0.00e+00	0	53	0	734003200	49	4075
2026-01-04 05:41:33.55	29.04	14.08	-43.5	-44.4	17.4	0.00e+00	0	53	0	739246080	49	4064
2026-01-04 05:41:34.54	28.91	14.16	-43.2	-44.0	17.8	0.00e+00	0	54	0	745537536	49	3905
2026-01-04 05:41:35.52	28.79	14.24	-42.9	-43.7	18.0	0.00e+00	0	53	0	750780416	49	3776
2026-01-04 05:41:36.52	28.66	14.32	-42.8	-43.6	18.2	0.00e+00	0	53	0	756023296	48	3945
2026-01-04 05:41:37.50	28.53	14.40	-42.8	-43.7	18.1	0.00e+00	0	54	0	762314752	48	3960
2026-01-04 05:41:38.49	28.40	14.48	-42.8	-43.6	18.2	0.00e+00	0	53	0	767557632	48	3937
2026-01-04 05:41:39.48	28.27	14.56	-42.8	-43.6	18.2	0.00e+00	0	53	0	772800512	48	3937
2026-01-04 05:41:40.47	28.14	14.64	-42.9	-43.7	18.1	0.00e+00	0	54	0	779091968	48	3993
2026-01-04 05:41:41.46	28.01	14.72	-42.9	-43.7	18.1	0.00e+00	0	54	0	784334848	48	3991
2026-01-04 05:41:42.45	27.88	14.80	-42.7	-43.5	18.3	0.00e+00	0	54	0	789577728	48	3871
2026-01-04 05:41:43.43	27.75	14.88	-42.5	-43.3	18.5	0.00e+00	0	53	0	794820608	48	3792
2026-01-04 05:41:44.42	27.62	14.96	-42.5	-43.3	18.5	0.00e+00	0	54	0	801112064	48	3795
2026-01-04 05:41:45.41	27.48	15.04	-42.5	-43.3	18.5	0.00e+00	0	54	0	806354944	48	3783
2026-01-04 05:41:46.40	27.35	15.12	-42.4	-43.2	18.6	0.00e+00	0	54	0	812646400	48	3762
2026-01-04 05:41:47.40	27.21	15.20	-42.4	-43.2	18.6	0.00e+00	0	54	0	817889280	48	3752
2026-01-04 05:41:48.39	27.08	15.29	-42.6	-43.3	18.4	0.00e+00	0	54	0	823132160	48	3824
2026-01-04 05:41:49.38	26.94	15.37	-42.6	-43.4	18.4	0.00e+00	0	54	0	828375040	48	3844
2026-01-04 05:41:50.36	26.80	15.45	-42.2	-43.0	18.7	0.00e+00	0	54	0	834666496	47	3876
2026-01-04 05:41:51.35	26.67	15.53	-42.1	-42.9	18.8	0.00e+00	0	54	0	839909376	47	3834
2026-01-04 05:41:52.34	26.53	15.61	-42.1	-42.8	18.8	0.00e+00	0	54	0	845152256	47	3805
2026-01-04 05:41:53.32	26.39	15.69	-42.1	-42.8	18.8	0.00e+00	0	54	0	851443712	47	3795
2026-01-04 05:41:54.31	26.25	15.77	-42.1	-42.9	18.8	0.00e+00	0	54	0	856686592	47	3829
2026-01-04 05:41:55.30	26.11	15.86	-42.2	-42.9	18.7	0.00e+00	0	54	0	861929472	47	3864
2026-01-04 05:41:56.29	25.96	15.94	-42.2	-42.9	18.7	0.00e+00	0	54	0	867172352	47	3854
2026-01-04 05:41:57.30	25.82	16.02	-42.3	-43.1	18.6	0.00e+00	0	54	0	873463808	47	3920
2026-01-04 05:41:58.28	25.67	16.10	-42.2	-42.9	18.7	0.00e+00	0	54	0	878706688	47	3868
2026-01-04 05:41:59.26	25.53	16.19	-42.3	-43.0	18.6	0.00e+00	0	54	0	883949568	47	3913
2026-01-04 05:42:00.26	25.38	16.27	-42.4	-43.2	18.5	0.00e+00	0	54	0	890241024	47	3969
2026-01-04 05:42:01.25	25.24	16.35	-42.4	-43.2	18.4	0.00e+00	0	54	0	895483904	47	3989
2026-01-04 05:42:02.23	25.09	16.43	-42.2	-43.0	18.7	0.00e+00	0	54	0	900726784	47	3871
2026-01-04 05:42:03.23	24.94	16.52	-42.1	-42.8	18.8	0.00e+00	0	54	0	907018240	47	3824
2026-01-04 05:42:04.22	24.79	16.60	-42.2	-42.9	18.8	0.00e+00	0	54	0	912261120	47	3849
2026-01-04 05:42:05.22	24.64	16.68	-42.2	-42.9	18.7	0.00e+00	0	54	0	917504000	47	3848
2026-01-04 05:42:06.21	24.49	16.77	-42.1	-42.9	18.8	0.00e+00	0	54	0	923795456	47	3832
2026-01-04 05:42:07.19	24.34	16.85	-42.3	-43.1	18.6	0.00e+00	0	54	0	929038336	47	3924
2026-01-04 05:42:08.19	24.19	16.93	-42.5	-43.3	18.4	0.00e+00	0	54	0	934281216	47	4020
2026-01-04 05:42:09.18	24.04	17.02	-42.2	-42.9	18.7	0.00e+00	0	54	0	940572672	47	3856
2026-01-04 05:42:10.17	23.88	17.10	-42.0	-42.7	19.0	0.00e+00	0	54	0	945815552	47	3764
2026-01-04 05:42:11.16	23.73	17.18	-41.9	-42.6	19.1	0.00e+00	0	54	0	951058432	47	3719
2026-01-04 05:42:12.15	23.57	17.27	-41.9	-42.6	19.1	0.00e+00	0	54	0	956301312	46	3937
2026-01-04 05:42:13.14	23.41	17.35	-41.9	-42.6	19.1	0.00e+00	0	54	0	962592768	46	3956
2026-01-04 05:42:14.13	23.26	17.43	-41.9	-42.6	19.0	0.00e+00	0	54	0	967835648	46	3954
2026-01-04 05:42:15.12	23.10	17.52	-42.0	-42.7	18.9	0.00e+00	0	54	0	974127104	46	4002
2026-01-04 05:42:16.11	22.94	17.60	-41.9	-42.6	19.1	0.00e+00	0	54	0	979369984	46	3949
2026-01-04 05:42:17.10	22.78	17.68	-41.8	-42.5	19.2	0.00e+00	0	54	0	984612864	46	3899
2026-01-04 05:42:18.09	22.62	17.77	-41.7	-42.4	19.3	0.00e+00	0	54	0	989855744	46	3839
2026-01-04 05:42:19.08	22.46	17.85	-41.7	-42.4	19.3	0.00e+00	0	54	0	996147200	46	3840
2026-01-04 05:42:20.07	22.29	17.94	-41.8	-42.5	19.2	0.00e+00	0	54	0	1001390080	46	3899
2026-01-04 05:42:21.07	22.13	18.02	-41.9	-42.6	19.1	0.00e+00	0	54	0	1006632960	46	3946
2026-01-04 05:42:22.05	21.97	18.10	-42.2	-42.9	18.8	0.00e+00	0	54	0	1012924416	46	4070
2026-01-04 05:42:23.05	21.80	18.19	-42.0	-42.7	19.0	0.00e+00	0	54	0	1018167296	46	4000
2026-01-04 05:42:24.04	21.63	18.27	-42.3	-43.0	18.7	0.00e+00	0	54	0	1023410176	46	4131
2026-01-04 05:42:25.03	21.46	18.36	-42.1	-42.8	18.9	0.00e+00	0	54	0	1029701632	46	4029
2026-01-04 05:42:26.03	21.29	18.44	-42.3	-43.0	18.7	0.00e+00	0	55	0	1034944512	46	4136
2026-01-04 05:42:27.02	21.12	18.53	-42.6	-43.3	18.4	0.00e+00	0	54	0	1040187392	46	4287
2026-01-04 05:42:28.00	20.96	18.61	-42.2	-42.9	18.8	0.00e+00	0	55	0	1045430272	46	4089
2026-01-04 05:42:28.98	20.79	18.69	-41.9	-42.6	19.1	0.00e+00	0	55	0	1051721728	46	3943
2026-01-04 05:42:29.97	20.61	18.78	-41.8	-42.5	19.2	0.00e+00	0	54	0	1056964608	46	3890
2026-01-04 05:42:30.95	20.44	18.86	-41.8	-42.5	19.2	0.00e+00	0	54	0	1063256064	46	3883
2026-01-04 05:42:31.95	20.27	18.95	-41.7	-42.4	19.3	0.00e+00	0	55	0	1068498944	46	3858
2026-01-04 05:42:32.94	20.09	19.03	-41.9	-42.6	19.1	0.00e+00	0	55	0	1073741824	46	3958
2026-01-04 05:42:33.93	19.91	19.11	-42.2	-42.9	18.8	0.00e+00	0	55	0	1078984704	46	4075
2026-01-04 05:42:34.92	19.74	19.20	-41.9	-42.6	19.2	0.00e+00	0	55	0	1085276160	46	3915
2026-01-04 05:42:35.90	19.56	19.28	-41.5	-42.2	19.5	0.00e+00	0	55	0	1090519040	46	3750
2026-01-04 05:42:36.88	19.38	19.36	-41.3	-41.9	19.8	0.00e+00	0	55	0	1095761920	45	3855
2026-01-04 05:42:37.87	19.20	19.45	-41.2	-41.9	19.8	0.00e+00	0	55	0	1102053376	45	3828
2026-01-04 05:42:38.85	19.02	19.53	-41.4	-42.0	19.6	0.00e+00	0	55	0	1107296256	45	3909
2026-01-04 05:42:39.84	18.84	19.62	-41.6	-42.3	19.4	0.00e+00	0	55	0	1112539136	45	4008
2026-01-04 05:42:40.84	18.66	19.70	-41.6	-42.3	19.4	0.00e+00	0	55	0	1117782016	45	4025
2026-01-04 05:42:41.83	18.47	19.79	-41.7	-42.4	19.3	0.00e+00	0	55	0	1124073472	45	4080
2026-01-04 05:42:42.82	18.29	19.87	-41.7	-42.3	19.4	0.00e+00	0	55	0	1129316352	45	4051
2026-01-04 05:42:43.81	18.10	19.95	-41.6	-42.3	19.4	0.00e+00	0	55	0	1134559232	45	4022
2026-01-04 05:42:44.78	17.92	20.04	-41.5	-42.2	19.5	0.00e+00	0	55	0	1140850688	45	3990
2026-01-04 05:42:45.77	17.73	20.12	-41.6	-42.3	19.4	0.00e+00	0	55	0	1146093568	45	4030
2026-01-04 05:42:46.77	17.54	20.20	-41.8	-42.5	19.3	0.00e+00	0	55	0	1151336448	45	4105
2026-01-04 05:42:47.76	17.35	20.29	-41.6	-42.3	19.4	0.00e+00	0	55	0	1157627904	45	4037
2026-01-04 05:42:48.76	17.15	20.37	-41.4	-42.1	19.6	0.00e+00	0	55	0	1162870784	45	3930
2026-01-04 05:42:49.75	16.96	20.46	-41.3	-42.0	19.7	0.00e+00	0	55	0	1168113664	45	3886
2026-01-04 05:42:50.74	16.77	20.54	-41.4	-42.1	19.7	0.00e+00	0	55	0	1173356544	45	3920
2026-01-04 05:42:51.73	16.57	20.62	-41.5	-42.1	19.6	0.00e+00	0	55	0	1179648000	45	3952
2026-01-04 05:42:52.71	16.38	20.71	-41.4	-42.1	19.6	0.00e+00	0	55	0	1184890880	45	3936
2026-01-04 05:42:53.70	16.18	20.79	-41.3	-42.0	19.7	0.00e+00	0	55	0	1191182336	45	3896
2026-01-04 05:42:54.70	15.98	20.87	-41.3	-41.9	19.8	0.00e+00	0	55	0	1196425216	45	3866
2026-01-04 05:42:55.69	15.78	20.96	-41.3	-41.9	19.8	0.00e+00	0	55	0	1201668096	45	3862
2026-01-04 05:42:56.68	15.58	21.04	-41.4	-42.1	19.6	0.00e+00	0	55	0	1206910976	45	3945
2026-01-04 05:42:57.67	15.38	21.12	-41.5	-42.2	19.5	0.00e+00	0	55	0	1213202432	45	3980
2026-01-04 05:42:58.66	15.18	21.21	-41.4	-42.1	19.6	0.00e+00	0	55	0	1218445312	45	3929
2026-01-04 05:42:59.65	14.97	21.29	-41.2	-41.8	19.9	0.00e+00	0	55	0	1223688192	45	3806
2026-01-04 05:43:00.64	14.77	21.37	-41.1	-41.8	19.9	0.00e+00	0	55	0	1229979648	45	3789
2026-01-04 05:43:01.63	14.56	21.45	-41.1	-41.7	20.0	0.00e+00	0	55	0	1235222528	45	3770
2026-01-04 05:43:02.60	14.36	21.54	-41.2	-41.8	19.9	0.00e+00	0	55	0	1240465408	45	3818
2026-01-04 05:43:03.58	14.15	21.62	-41.2	-41.8	19.9	0.00e+00	0	55	0	1245708288	45	3807
2026-01-04 05:43:04.57	13.95	21.70	-41.3	-41.9	19.8	0.00e+00	0	55	0	1251999744	45	3857
2026-01-04 05:43:05.57	13.73	21.78	-41.1	-41.8	19.9	0.00e+00	0	55	0	1257242624	45	3790
2026-01-04 05:43:06.56	13.52	21.86	-40.8	-41.4	20.3	0.00e+00	0	55	0	1263534080	44	3867
2026-01-04 05:43:07.54	13.31	21.94	-40.7	-41.3	20.4	0.00e+00	0	55	0	1268776960	44	3791
2026-01-04 05:43:08.54	13.10	22.03	-40.6	-41.2	20.5	0.00e+00	0	55	0	1274019840	44	3760
2026-01-04 05:43:09.52	12.88	22.11	-40.6	-41.2	20.5	0.00e+00	0	55	0	1279262720	44	3753
2026-01-04 05:43:10.51	12.67	22.19	-40.5	-41.1	20.6	0.00e+00	0	55	0	1285554176	44	3733
2026-01-04 05:43:11.49	12.45	22.27	-40.7	-41.3	20.4	0.00e+00	0	55	0	1290797056	44	3799
2026-01-04 05:43:12.48	12.23	22.35	-40.7	-41.3	20.4	0.00e+00	0	55	0	1296039936	44	3816
2026-01-04 05:43:13.47	12.01	22.43	-40.8	-41.4	20.3	0.00e+00	0	55	0	1302331392	44	3854
2026-01-04 05:43:14.45	11.80	22.51	-40.8	-41.4	20.3	0.00e+00	0	55	0	1307574272	44	3850
2026-01-04 05:43:15.44	11.57	22.59	-40.8	-41.4	20.2	0.00e+00	0	55	0	1312817152	44	3868
2026-01-04 05:43:16.43	11.35	22.67	-41.0	-41.6	20.0	0.00e+00	0	55	0	1318060032	44	3940
2026-01-04 05:43:17.41	11.13	22.75	-41.1	-41.8	19.9	0.00e+00	0	55	0	1324351488	44	4022
2026-01-04 05:43:18.40	10.90	22.83	-41.3	-42.0	19.6	0.00e+00	0	55	0	1329594368	44	4122
2026-01-04 05:43:19.38	10.68	22.91	-41.2	-41.8	19.7	0.00e+00	0	55	0	1334837248	44	4050
2026-01-04 05:43:20.37	10.45	22.99	-41.1	-41.8	19.6	0.00e+00	0	55	0	1341128704	44	4031
2026-01-04 05:43:21.36	10.22	23.07	-41.0	-41.6	19.6	0.00e+00	0	55	0	1346371584	44	3946
2026-01-04 05:43:22.36	9.99	23.15	-41.1	-41.8	19.2	0.00e+00	0	55	0	1351614464	44	4046
2026-01-04 05:43:23.34	9.76	23.22	-41.5	-42.3	18.6	0.00e+00	0	55	0	1356857344	44	4257
2026-01-04 05:43:24.32	9.53	23.30	-41.8	-42.6	18.2	0.00e+00	0	55	0	1363148800	45	4155
2026-01-04 05:43:25.31	9.30	23.38	-42.3	-43.2	17.5	0.00e+00	0	55	0	1368391680	46	4202
2026-01-04 05:43:26.30	9.07	23.46	-42.9	-43.9	16.7	0.00e+00	0	55	0	1373634560	47	4315
2026-01-04 05:43:27.28	8.83	23.53	-43.9	-45.0	15.7	0.00e+00	0	55	0	1379926016	49	4372
2026-01-04 05:43:28.25	8.60	23.61	-44.8	-46.1	14.6	1.10e-06	0	55	0	1385168896	51	4425
2026-01-04 05:43:29.24	8.36	23.68	-45.8	-47.5	13.2	1.25e-05	0	56	0	1390411776	53	4602
2026-01-04 05:43:30.23	8.12	23.76	-46.1	-47.8	12.8	7.32e-05	0	55	0	1395654656	53	4792
2026-01-04 05:43:31.22	7.88	23.84	-46.4	-48.3	12.4	1.88e-04	0	55	0	1401946112	54	4778
2026-01-04 05:43:32.21	7.64	23.91	-46.0	-47.7	13.2	1.30e-04	0	56	0	1407188992	54	4468
2026-01-04 05:43:33.20	7.40	23.99	-45.5	-46.9	14.2	1.14e-05	0	55	0	1412431872	54	4071
2026-01-04 05:43:34.19	7.15	24.06	-45.3	-46.6	14.6	3.40e-06	0	55	0	1418723328	53	4169
2026-01-04 05:43:35.18	6.91	24.14	-45.1	-46.3	15.1	0.00e+00	0	55	0	1423966208	53	4032
2026-01-04 05:43:36.17	6.66	24.21	-44.4	-45.4	16.2	0.00e+00	0	55	0	1429209088	51	4066
2026-01-04 05:43:37.16	6.42	24.29	-43.3	-44.2	17.5	0.00e+00	0	55	0	1435500544	49	3961
2026-01-04 05:43:38.15	6.17	24.36	-42.6	-43.4	18.3	0.00e+00	0	55	0	1440743424	48	3847
2026-01-04 05:43:39.14	5.92	24.43	-41.8	-42.5	19.1	0.00e+00	0	55	0	1445986304	46	3889
2026-01-04 05:43:40.14	5.66	24.51	-41.1	-41.8	19.7	0.00e+00	0	56	0	1451229184	45	3799
2026-01-04 05:43:41.13	5.41	24.58	-41.0	-41.6	19.9	0.00e+00	0	55	0	1457520640	45	3719
2026-01-04 05:43:42.11	5.16	24.65	-41.5	-42.2	19.3	0.00e+00	0	56	0	1462763520	45	3979
2026-01-04 05:43:43.10	4.91	24.72	-42.9	-43.8	17.5	0.00e+00	0	55	0	1468006400	47	4249
2026-01-04 05:43:44.08	4.65	24.79	-43.9	-45.0	16.1	0.00e+00	0	56	0	1474297856	49	4348
2026-01-04 05:43:45.07	4.40	24.86	-45.3	-46.8	13.7	2.20e-06	0	56	0	1479540736	52	4543
2026-01-04 05:43:46.07	4.14	24.93	-46.1	-48.0	12.4	9.49e-05	0	56	0	1484783616	53	4889
2026-01-04 05:43:47.06	3.88	25.00	-46.6	-48.6	11.7	7.43e-04	0	56	0	1491075072	54	4969
2026-01-04 05:43:48.04	3.62	25.07	-46.1	-48.0	12.6	3.04e-04	0	56	0	1496317952	54	4623
2026-01-04 05:43:49.03	3.36	25.14	-45.1	-46.4	14.5	1.14e-05	0	56	0	1501560832	53	4089
2026-01-04 05:43:50.03	3.09	25.21	-43.7	-44.7	16.7	0.00e+00	0	56	0	1507852288	50	3993
2026-01-04 05:43:51.01	2.83	25.28	-42.5	-43.3	18.4	0.00e+00	0	55	0	1513095168	48	3782
2026-01-04 05:43:52.00	2.57	25.34	-41.8	-42.5	19.2	0.00e+00	0	55	0	1518338048	46	3895
2026-01-04 05:43:52.98	2.30	25.41	-41.5	-42.2	19.6	0.00e+00	0	56	0	1523580928	46	3755
2026-01-04 05:43:53.97	2.04	25.48	-41.5	-42.2	19.6	0.00e+00	0	56	0	1529872384	46	3752
2026-01-04 05:43:54.96	1.77	25.54	-41.0	-41.6	20.1	0.00e+00	0	55	0	1535115264	45	3737
2026-01-04 05:43:55.95	1.50	25.61	-41.1	-41.7	20.0	0.00e+00	0	56	0	1540358144	45	3770
2026-01-04 05:43:56.94	1.23	25.67	-41.1	-41.7	20.1	0.00e+00	0	56	0	1546649600	45	3753
2026-01-04 05:43:57.92	0.96	25.74	-41.1	-41.7	20.0	0.00e+00	0	56	0	1551892480	45	3778
2026-01-04 05:43:58.91	0.69	25.80	-41.3	-42.0	19.8	0.00e+00	0	56	0	1557135360	45	3886
2026-01-04 05:43:59.90	0.41	25.86	-41.3	-41.9	19.8	0.00e+00	0	56	0	1563426816	45	3861
2026-01-04 05:44:00.90	0.14	25.93	-41.3	-41.9	19.8	0.00e+00	0	56	0	1568669696	45	3857
2026-01-04 05:44:01.88	359.86	25.99	-41.0	-41.7	20.1	0.00e+00	0	56	0	1573912576	45	3753
2026-01-04 05:44:02.88	359.58	26.05	-40.7	-41.4	20.4	0.00e+00	0	56	0	1580204032	44	3826
2026-01-04 05:44:03.86	359.31	26.11	-40.5	-41.1	20.6	0.00e+00	0	56	0	1585446912	44	3729
2026-01-04 05:44:04.85	359.03	26.17	-40.4	-41.0	20.8	0.00e+00	0	56	0	1590689792	44	3677
2026-01-04 05:44:05.84	358.75	26.23	-40.3	-40.9	20.8	0.00e+00	0	56	0	1595932672	43	3835
2026-01-04 05:44:06.84	358.46	26.29	-40.4	-41.0	20.7	0.00e+00	0	56	0	1602224128	43	3895
2026-01-04 05:44:07.83	358.18	26.35	-40.6	-41.2	20.4	0.00e+00	0	56	0	1607467008	43	4002
2026-01-04 05:44:08.81	357.90	26.40	-40.6	-41.2	20.5	0.00e+00	0	56	0	1612709888	43	3971
2026-01-04 05:44:09.79	357.62	26.46	-40.6	-41.2	20.5	0.00e+00	0	56	0	1619001344	43	3960
2026-01-04 05:44:10.77	357.34	26.51	-40.7	-41.3	20.4	0.00e+00	0	56	0	1624244224	43	4016
2026-01-04 05:44:11.76	357.05	26.57	-41.0	-41.6	20.1	0.00e+00	0	56	0	1629487104	43	4184
2026-01-04 05:44:12.75	356.76	26.63	-41.0	-41.6	20.2	0.00e+00	0	56	0	1634729984	44	3933
2026-01-04 05:44:13.74	356.47	26.68	-40.7	-41.3	20.5	0.00e+00	0	56	0	1641021440	44	3795
2026-01-04 05:44:14.73	356.18	26.73	-40.6	-41.2	20.6	0.00e+00	0	56	0	1646264320	44	3759
2026-01-04 05:44:15.71	355.90	26.79	-40.8	-41.4	20.4	0.00e+00	0	56	0	1651507200	44	3845
2026-01-04 05:44:16.71	355.60	26.84	-40.7	-41.2	20.5	0.00e+00	0	56	0	1657798656	44	3775
2026-01-04 05:44:17.69	355.31	26.89	-40.5	-41.1	20.7	0.00e+00	0	56	0	1663041536	44	3696
2026-01-04 05:44:18.69	355.02	26.94	-40.2	-40.8	20.9	0.00e+00	0	56	0	1668284416	43	3808
2026-01-04 05:44:19.68	354.72	26.99	-40.1	-40.6	21.0	0.00e+00	0	56	0	1674575872	43	3733
2026-01-04 05:44:20.66	354.43	27.04	-40.1	-40.6	21.0	0.00e+00	0	56	0	1679818752	43	3731
2026-01-04 05:44:21.65	354.13	27.09	-40.1	-40.7	21.0	0.00e+00	0	56	0	1685061632	43	3746
2026-01-04 05:44:22.64	353.84	27.13	-40.0	-40.6	21.0	0.00e+00	0	56	0	1690304512	43	3718
2026-01-04 05:44:23.63	353.54	27.18	-40.0	-40.6	21.0	0.00e+00	0	56	0	1696595968	43	3722
2026-01-04 05:44:24.63	353.24	27.23	-40.0	-40.6	21.0	0.00e+00	0	56	0	1701838848	43	3726
2026-01-04 05:44:25.62	352.94	27.27	-40.0	-40.6	21.1	0.00e+00	0	56	0	1708130304	43	3706
2026-01-04 05:44:26.61	352.64	27.32	-40.1	-40.6	21.0	0.00e+00	0	56	0	1713373184	43	3734
2026-01-04 05:44:27.60	352.33	27.36	-40.1	-40.6	21.0	0.00e+00	0	56	0	1718616064	43	3736
2026-01-04 05:44:28.59	352.03	27.40	-40.0	-40.6	21.0	0.00e+00	0	56	0	1723858944	43	3717
2026-01-04 05:44:29.57	351.73	27.45	-40.1	-40.7	21.0	0.00e+00	0	56	0	1730150400	43	3742
2026-01-04 05:44:30.55	351.43	27.49	-40.0	-40.6	21.0	0.00e+00	0	56	0	1735393280	43	3719
2026-01-04 05:44:31.54	351.13	27.53	-39.8	-40.4	21.3	0.00e+00	0	56	0	1740636160	42	3837
2026-01-04 05:44:32.53	350.82	27.57	-39.7	-40.2	21.4	0.00e+00	0	56	0	1746927616	42	3772
2026-01-04 05:44:33.52	350.52	27.61	-39.7	-40.2	21.4	0.00e+00	0	56	0	1752170496	42	3767
2026-01-04 05:44:34.51	350.21	27.64	-39.8	-40.3	21.3	0.00e+00	0	56	0	1757413376	42	3805
2026-01-04 05:44:35.50	349.90	27.68	-39.8	-40.4	21.2	0.00e+00	0	56	0	1763704832	42	3845
2026-01-04 05:44:36.49	349.59	27.72	-39.8	-40.4	21.2	0.00e+00	0	56	0	1768947712	42	3851
2026-01-04 05:44:37.48	349.28	27.75	-39.9	-40.4	21.2	0.00e+00	0	56	0	1774190592	42	3866
2026-01-04 05:44:38.47	348.97	27.79	-39.9	-40.5	21.1	0.00e+00	0	56	0	1780482048	42	3888
2026-01-04 05:44:39.47	348.66	27.82	-40.1	-40.7	21.0	0.00e+00	0	56	0	1785724928	42	3968
2026-01-04 05:44:40.46	348.35	27.85	-40.1	-40.7	21.0	0.00e+00	0	56	0	1790967808	42	3972
2026-01-04 05:44:41.45	348.04	27.88	-40.0	-40.6	21.0	0.00e+00	0	56	0	1796210688	42	3941
2026-01-04 05:44:42.43	347.73	27.91	-40.1	-40.7	20.9	0.00e+00	0	56	0	1802502144	42	3984
2026-01-04 05:44:43.43	347.41	27.94	-39.9	-40.5	21.2	0.00e+00	0	56	0	1807745024	42	3888
2026-01-04 05:44:44.42	347.10	27.97	-39.8	-40.4	21.3	0.00e+00	0	56	0	1812987904	42	3839
2026-01-04 05:44:45.40	346.79	28.00	-39.8	-40.4	21.2	0.00e+00	0	56	0	1819279360	42	3843
2026-01-04 05:44:46.39	346.47	28.03	-39.9	-40.4	21.2	0.00e+00	0	56	0	1824522240	42	3855
2026-01-04 05:44:47.39	346.16	28.05	-39.9	-40.4	21.2	0.00e+00	0	56	0	1829765120	42	3860
2026-01-04 05:44:48.38	345.84	28.08	-39.7	-40.3	21.3	0.00e+00	0	56	0	1836056576	42	3800
2026-01-04 05:44:49.36	345.53	28.10	-39.8	-40.4	21.3	0.00e+00	0	56	0	1841299456	42	3836
2026-01-04 05:44:50.35	345.21	28.13	-39.8	-40.4	21.2	0.00e+00	0	56	0	1846542336	42	3843
2026-01-04 05:44:51.34	344.89	28.15	-39.6	-40.1	21.5	0.00e+00	0	56	0	1851785216	42	3734
2026-01-04 05:44:52.32	344.58	28.17	-39.5	-40.0	21.6	0.00e+00	0	56	0	1858076672	42	3687
2026-01-04 05:44:53.31	344.26	28.19	-39.5	-40.0	21.6	0.00e+00	0	56	0	1863319552	42	3681
2026-01-04 05:44:54.30	343.94	28.21	-39.5	-40.0	21.6	0.00e+00	0	56	0	1868562432	42	3671
2026-01-04 05:44:55.29	343.62	28.23	-39.6	-40.2	21.4	0.00e+00	0	56	0	1874853888	42	3740
2026-01-04 05:44:56.28	343.31	28.25	-39.5	-40.0	21.6	0.00e+00	0	56	0	1880096768	42	3682
2026-01-04 05:44:57.27	342.99	28.26	-39.3	-39.9	21.7	0.00e+00	0	56	0	1885339648	41	3837
2026-01-04 05:44:58.27	342.66	28.28	-39.3	-39.9	21.7	0.00e+00	0	56	0	1891631104	41	3827
2026-01-04 05:44:59.26	342.34	28.29	-39.5	-40.0	21.6	0.00e+00	0	56	0	1896873984	41	3894
2026-01-04 05:45:00.25	342.02	28.31	-39.6	-40.2	21.5	0.00e+00	0	56	0	1902116864	41	3960
2026-01-04 05:45:01.24	341.70	28.32	-39.6	-40.1	21.5	0.00e+00	0	56	0	1908408320	41	3935
2026-01-04 05:45:02.23	341.38	28.33	-39.7	-40.3	21.3	0.00e+00	0	56	0	1913651200	41	4013
2026-01-04 05:45:03.22	341.06	28.34	-39.8	-40.3	21.3	0.00e+00	0	56	0	1918894080	41	4035
2026-01-04 05:45:04.21	340.74	28.35	-39.8	-40.4	21.2	0.00e+00	0	56	0	1925185536	41	4069
2026-01-04 05:45:05.19	340.42	28.36	-39.9	-40.5	21.2	0.00e+00	0	56	0	1930428416	41	4105
2026-01-04 05:45:06.17	340.10	28.37	-39.7	-40.3	21.4	0.00e+00	0	56	0	1935671296	41	4008
2026-01-04 05:45:07.16	339.78	28.37	-39.7	-40.2	21.4	0.00e+00	0	56	0	1940914176	41	3978
2026-01-04 05:45:08.15	339.46	28.38	-39.7	-40.2	21.4	0.00e+00	0	56	0	1947205632	41	3995
2026-01-04 05:45:09.14	339.14	28.38	-39.6	-40.2	21.4	0.00e+00	0	56	0	1952448512	41	3986
2026-01-04 05:45:10.13	338.82	28.39	-39.8	-40.3	21.3	0.00e+00	0	56	0	1957691392	41	4038
2026-01-04 05:45:11.13	338.49	28.39	-39.9	-40.4	21.2	0.00e+00	0	56	0	1963982848	41	4096
2026-01-04 05:45:12.12	338.17	28.39	-39.7	-40.2	21.4	0.00e+00	0	56	0	1969225728	41	3992
2026-01-04 05:45:13.11	337.85	28.39	-39.5	-40.1	21.5	0.00e+00	0	56	0	1974468608	41	3938
2026-01-04 05:45:14.10	337.52	28.39	-39.6	-40.2	21.4	0.00e+00	0	56	0	1979711488	41	3982
2026-01-04 05:45:15.08	337.20	28.39	-39.6	-40.2	21.5	0.00e+00	0	56	0	1986002944	41	3973
2026-01-04 05:45:16.07	336.88	28.39	-39.8	-40.4	21.3	0.00e+00	0	56	0	1991245824	41	4069
2026-01-04 05:45:17.06	336.56	28.38	-40.2	-40.8	20.9	0.00e+00	0	56	0	1997537280	42	4006
2026-01-04 05:45:18.05	336.24	28.38	-39.8	-40.4	21.3	0.00e+00	0	56	0	2002780160	42	3831
2026-01-04 05:45:19.05	335.91	28.37	-39.6	-40.1	21.5	0.00e+00	0	56	0	2008023040	42	3721
2026-01-04 05:45:20.03	335.59	28.37	-39.5	-40.0	21.7	0.00e+00	0	56	0	2013265920	42	3681
2026-01-04 05:45:21.02	335.27	28.36	-39.5	-40.1	21.6	0.00e+00	0	56	0	2019557376	42	3708
2026-01-04 05:45:22.00	334.95	28.35	-39.6	-40.2	21.5	0.00e+00	0	56	0	2024800256	42	3744
2026-01-04 05:45:22.99	334.63	28.34	-39.6	-40.1	21.6	0.00e+00	0	56	0	2030043136	42	3724
2026-01-04 05:45:23.99	334.31	28.33	-39.6	-40.2	21.5	0.00e+00	0	56	0	2036334592	42	3744
2026-01-04 05:45:24.98	333.99	28.32	-39.6	-40.1	21.6	0.00e+00	0	56	0	2041577472	42	3709
2026-01-04 05:45:25.97	333.67	28.31	-39.6	-40.1	21.6	0.00e+00	0	56	0	2046820352	42	3714
2026-01-04 05:45:26.96	333.35	28.29	-39.7	-40.3	21.4	0.00e+00	0	56	0	2053111808	42	3791
2026-01-04 05:45:27.95	333.03	28.28	-39.6	-40.2	21.5	0.00e+00	0	56	0	2058354688	42	3738
2026-01-04 05:45:28.94	332.71	28.26	-39.9	-40.4	21.3	0.00e+00	0	56	0	2063597568	42	3851
2026-01-04 05:45:29.92	332.39	28.25	-39.7	-40.2	21.4	0.00e+00	0	56	0	2069889024	42	3774
2026-01-04 05:45:30.91	332.07	28.23	-39.6	-40.1	21.6	0.00e+00	0	56	0	2075131904	42	3721
2026-01-04 05:45:31.89	331.76	28.21	-39.6	-40.1	21.5	0.00e+00	0	56	0	2080374784	42	3722
2026-01-04 05:45:32.88	331.44	28.19	-39.5	-40.1	21.6	0.00e+00	0	56	0	2085617664	42	3714
2026-01-04 05:45:33.86	331.12	28.17	-39.7	-40.2	21.4	0.00e+00	0	56	0	2091909120	42	3762
2026-01-04 05:45:34.85	330.81	28.15	-39.8	-40.4	21.3	0.00e+00	0	56	0	2097152000	42	3833
2026-01-04 05:45:35.84	330.49	28.13	-39.9	-40.4	21.3	0.00e+00	0	56	0	2102394880	42	3858
2026-01-04 05:45:36.83	330.17	28.10	-39.9	-40.5	21.2	0.00e+00	0	56	0	2108686336	42	3887
2026-01-04 05:45:37.81	329.86	28.08	-40.0	-40.6	21.1	0.00e+00	0	57	0	2113929216	42	3943
2026-01-04 05:45:38.80	329.54	28.05	-40.2	-40.8	20.9	0.00e+00	0	56	0	2119172096	42	4019
2026-01-04 05:45:39.79	329.23	28.03	-40.0	-40.6	21.1	0.00e+00	0	56	0	2124414976	42	3951
2026-01-04 05:45:40.78	328.91	28.00	-40.1	-40.7	21.0	0.00e+00	0	56	0	2130706432	42	3988
2026-01-04 05:45:41.77	328.60	27.97	-40.0	-40.6	21.2	0.00e+00	0	56	0	2135949312	42	3916
2026-01-04 05:45:42.75	328.29	27.94	-39.9	-40.4	21.3	0.00e+00	0	56	0	2141192192	42	3848
2026-01-04 05:45:43.74	327.98	27.91	-39.9	-40.5	21.2	0.00e+00	0	56	0	2147483648	42	3876
2026-01-04 05:45:44.74	327.66	27.88	-40.1	-40.7	21.0	0.00e+00	0	56	0	2152726528	42	3981
2026-01-04 05:45:45.73	327.35	27.85	-40.1	-40.6	21.1	0.00e+00	0	56	0	2157969408	42	3954
2026-01-04 05:45:46.72	327.04	27.82	-39.8	-40.4	21.3	0.00e+00	0	56	0	2164260864	42	3839
2026-01-04 05:45:47.71	326.73	27.78	-39.7	-40.2	21.5	0.00e+00	0	56	0	2169503744	42	3756
2026-01-04 05:45:48.71	326.41	27.75	-39.6	-40.2	21.5	0.00e+00	0	56	0	2174746624	42	3738
2026-01-04 05:45:49.70	326.10	27.71	-39.7	-40.2	21.5	0.00e+00	0	56	0	2179989504	42	3765
2026-01-04 05:45:50.70	325.79	27.68	-39.8	-40.4	21.3	0.00e+00	0	56	0	2186280960	42	3826
2026-01-04 05:45:51.68	325.49	27.64	-39.9	-40.4	21.3	0.00e+00	0	56	0	2191523840	42	3866
2026-01-04 05:45:52.67	325.18	27.60	-39.9	-40.5	21.2	0.00e+00	0	56	0	2197815296	42	3876
2026-01-04 05:45:53.65	324.88	27.57	-39.8	-40.3	21.4	0.00e+00	0	56	0	2203058176	42	3810
2026-01-04 05:45:54.64	324.57	27.53	-39.6	-40.1	21.5	0.00e+00	0	56	0	2208301056	42	3735
2026-01-04 05:45:55.63	324.27	27.49	-39.7	-40.2	21.5	0.00e+00	0	56	0	2213543936	42	3755
2026-01-04 05:45:56.62	323.96	27.44	-39.7	-40.2	21.5	0.00e+00	0	56	0	2219835392	42	3761
2026-01-04 05:45:57.60	323.66	27.40	-39.6	-40.2	21.5	0.00e+00	0	56	0	2225078272	42	3739
2026-01-04 05:45:58.59	323.36	27.36	-39.6	-40.2	21.5	0.00e+00	0	56	0	2230321152	42	3748
2026-01-04 05:45:59.58	323.06	27.32	-39.6	-40.1	21.6	0.00e+00	0	56	0	2236612608	42	3723
2026-01-04 05:46:00.58	322.76	27.27	-39.6	-40.1	21.6	0.00e+00	0	56	0	2241855488	42	3715
2026-01-04 05:46:01.57	322.46	27.23	-39.8	-40.3	21.4	0.00e+00	0	56	0	2247098368	42	3808
2026-01-04 05:46:02.56	322.16	27.18	-39.8	-40.3	21.4	0.00e+00	0	56	0	2253389824	42	3801
2026-01-04 05:46:03.56	321.86	27.13	-39.6	-40.1	21.5	0.00e+00	0	56	0	2258632704	42	3736
2026-01-04 05:46:04.55	321.56	27.08	-39.5	-40.1	21.6	0.00e+00	0	56	0	2263875584	42	3695
2026-01-04 05:46:05.53	321.26	27.04	-39.6	-40.1	21.6	0.00e+00	0	56	0	2269118464	42	3718
2026-01-04 05:46:06.52	320.97	26.99	-39.6	-40.2	21.5	0.00e+00	0	56	0	2275409920	42	3739
2026-01-04 05:46:07.52	320.67	26.94	-39.7	-40.3	21.4	0.00e+00	0	56	0	2280652800	42	3791
2026-01-04 05:46:08.51	320.38	26.89	-39.9	-40.5	21.2	0.00e+00	0	56	0	2286944256	42	3901
2026-01-04 05:46:09.50	320.09	26.83	-40.0	-40.6	21.1	0.00e+00	0	56	0	2292187136	42	3918
2026-01-04 05:46:10.49	319.79	26.78	-40.0	-40.5	21.2	0.00e+00	0	56	0	2297430016	42	3911
2026-01-04 05:46:11.49	319.50	26.73	-40.2	-40.8	20.9	0.00e+00	0	56	0	2302672896	42	4027
2026-01-04 05:46:12.47	319.21	26.68	-40.4	-41.0	20.7	0.00e+00	0	56	0	2308964352	42	4130
2026-01-04 05:46:13.45	318.93	26.62	-40.4	-41.0	20.7	0.00e+00	0	56	0	2314207232	42	4129
2026-01-04 05:46:14.44	318.64	26.57	-40.5	-41.1	20.7	0.00e+00	0	56	0	2319450112	42	4155
2026-01-04 05:46:15.44	318.35	26.51	-40.6	-41.2	20.6	0.00e+00	0	57	0	2325741568	42	4200
2026-01-04 05:46:16.42	318.07	26.45	-40.5	-41.1	20.6	0.00e+00	0	57	0	2330984448	43	3956
2026-01-04 05:46:17.41	317.78	26.40	-40.4	-41.0	20.7	0.00e+00	0	56	0	2336227328	43	3881
2026-01-04 05:46:18.40	317.50	26.34	-40.3	-40.9	20.8	0.00e+00	0	56	0	2341470208	43	3851
2026-01-04 05:46:19.38	317.22	26.28	-40.4	-41.0	20.7	0.00e+00	0	57	0	2347761664	43	3895
2026-01-04 05:46:20.37	316.94	26.22	-40.6	-41.1	20.6	0.00e+00	0	56	0	2353004544	43	3957
2026-01-04 05:46:21.36	316.66	26.16	-40.8	-41.4	20.3	0.00e+00	0	57	0	2359296000	43	4076
2026-01-04 05:46:22.34	316.38	26.10	-40.4	-41.0	20.7	0.00e+00	0	57	0	2364538880	43	3879
2026-01-04 05:46:23.33	316.10	26.04	-40.1	-40.7	21.1	0.00e+00	0	57	0	2369781760	43	3738
2026-01-04 05:46:24.33	315.82	25.98	-39.8	-40.4	21.3	0.00e+00	0	57	0	2375024640	42	3847
2026-01-04 05:46:25.30	315.55	25.92	-39.7	-40.3	21.4	0.00e+00	0	57	0	2381316096	42	3784
2026-01-04 05:46:26.30	315.27	25.86	-39.7	-40.2	21.5	0.00e+00	0	56	0	2386558976	42	3764
2026-01-04 05:46:27.28	315.00	25.79	-39.7	-40.2	21.5	0.00e+00	0	57	0	2391801856	42	3771
2026-01-04 05:46:28.27	314.73	25.73	-39.7	-40.3	21.4	0.00e+00	0	56	0	2398093312	42	3799
2026-01-04 05:46:29.25	314.46	25.67	-39.8	-40.4	21.3	0.00e+00	0	56	0	2403336192	42	3825
2026-01-04 05:46:30.24	314.19	25.60	-39.7	-40.3	21.4	0.00e+00	0	56	0	2408579072	42	3787
2026-01-04 05:46:31.23	313.92	25.54	-39.8	-40.3	21.3	0.00e+00	0	56	0	2413821952	42	3823
2026-01-04 05:46:32.22	313.65	25.47	-40.0	-40.5	21.2	0.00e+00	0	57	0	2420113408	42	3906
2026-01-04 05:46:33.20	313.38	25.40	-40.0	-40.6	21.1	0.00e+00	0	56	0	2425356288	42	3921
2026-01-04 05:46:34.19	313.12	25.34	-40.2	-40.7	20.9	0.00e+00	0	57	0	2430599168	42	3997
2026-01-04 05:46:35.18	312.85	25.27	-40.0	-40.6	21.1	0.00e+00	0	57	0	2436890624	42	3940
2026-01-04 05:46:36.17	312.59	25.20	-40.0	-40.6	21.1	0.00e+00	0	57	0	2442133504	42	3943
2026-01-04 05:46:37.16	312.33	25.13	-40.1	-40.7	21.0	0.00e+00	0	57	0	2447376384	42	3989
2026-01-04 05:46:38.15	312.06	25.06	-40.2	-40.7	21.0	0.00e+00	0	57	0	2453667840	42	3996
2026-01-04 05:46:39.14	311.80	25.00	-40.2	-40.8	20.9	0.00e+00	0	57	0	2458910720	42	4028
2026-01-04 05:46:40.14	311.54	24.92	-40.2	-40.8	20.9	0.00e+00	0	57	0	2464153600	42	4029
2026-01-04 05:46:41.12	311.29	24.86	-40.3	-40.9	20.8	0.00e+00	0	57	0	2469396480	42	4076
2026-01-04 05:46:42.11	311.03	24.78	-40.1	-40.7	21.0	0.00e+00	0	57	0	2475687936	42	3966
2026-01-04 05:46:43.09	310.78	24.71	-40.1	-40.6	21.0	0.00e+00	0	56	0	2480930816	42	3950
2026-01-04 05:46:44.07	310.52	24.64	-40.1	-40.7	21.0	0.00e+00	0	56	0	2486173696	42	3974
2026-01-04 05:46:45.06	310.27	24.57	-40.0	-40.6	21.1	0.00e+00	0	56	0	2492465152	42	3938
2026-01-04 05:46:46.05	310.02	24.50	-40.1	-40.7	21.0	0.00e+00	0	57	0	2497708032	42	3968
2026-01-04 05:46:47.04	309.77	24.43	-40.0	-40.6	21.1	0.00e+00	0	56	0	2502950912	42	3946
2026-01-04 05:46:48.03	309.52	24.35	-40.3	-40.8	20.8	0.00e+00	0	56	0	2508193792	42	4051
2026-01-04 05:46:49.02	309.27	24.28	-40.2	-40.8	20.9	0.00e+00	0	57	0	2514485248	42	4006
2026-01-04 05:46:50.00	309.02	24.21	-40.3	-40.9	20.8	0.00e+00	0	56	0	2519728128	42	4081
2026-01-04 05:46:50.99	308.77	24.13	-40.1	-40.6	21.0	0.00e+00	0	57	0	2524971008	42	3957
2026-01-04 05:46:51.99	308.53	24.06	-39.9	-40.4	21.2	0.00e+00	0	57	0	2531262464	42	3855
2026-01-04 05:46:52.98	308.28	23.98	-39.8	-40.4	21.3	0.00e+00	0	57	0	2536505344	42	3842
2026-01-04 05:46:53.97	308.04	23.90	-39.8	-40.4	21.3	0.00e+00	0	56	0	2541748224	42	3840
2026-01-04 05:46:54.96	307.80	23.83	-39.8	-40.4	21.3	0.00e+00	0	57	0	2548039680	42	3845
2026-01-04 05:46:55.95	307.56	23.75	-39.9	-40.5	21.2	0.00e+00	0	57	0	2553282560	42	3883
2026-01-04 05:46:56.94	307.32	23.68	-40.1	-40.7	21.0	0.00e+00	0	57	0	2558525440	42	3987
2026-01-04 05:46:57.93	307.08	23.60	-40.0	-40.6	21.1	0.00e+00	0	56	0	2564816896	42	3932
2026-01-04 05:46:58.92	306.84	23.52	-40.0	-40.6	21.1	0.00e+00	0	56	0	2570059776	42	3943
2026-01-04 05:46:59.91	306.61	23.45	-40.2	-40.8	20.8	0.00e+00	0	56	0	2575302656	42	4044
2026-01-04 05:47:00.90	306.37	23.37	-40.4	-41.0	20.7	0.00e+00	0	56	0	2580545536	42	4123
2026-01-04 05:47:01.89	306.14	23.29	-40.3	-40.9	20.8	0.00e+00	0	57	0	2586836992	42	4066
2026-01-04 05:47:02.88	305.90	23.21	-40.2	-40.8	20.9	0.00e+00	0	57	0	2592079872	42	4030
2026-01-04 05:47:03.87	305.67	23.13	-40.4	-40.9	20.7	0.00e+00	0	57	0	2597322752	42	4088
2026-01-04 05:47:04.86	305.44	23.05	-40.2	-40.8	20.9	0.00e+00	0	57	0	2603614208	42	4005
2026-01-04 05:47:05.85	305.21	22.97	-40.2	-40.8	20.9	0.00e+00	0	57	0	2608857088	42	4009
2026-01-04 05:47:06.84	304.99	22.90	-40.4	-41.0	20.7	0.00e+00	0	57	0	2614099968	42	4101
2026-01-04 05:47:07.83	304.76	22.82	-40.4	-41.0	20.7	0.00e+00	0	57	0	2620391424	42	4100
2026-01-04 05:47:08.82	304.53	22.74	-40.4	-41.0	20.7	0.00e+00	0	57	0	2625634304	42	4110
2026-01-04 05:47:09.80	304.31	22.66	-40.5	-41.1	20.6	0.00e+00	0	56	0	2630877184	42	4176
2026-01-04 05:47:10.79	304.09	22.58	-40.7	-41.3	20.3	0.00e+00	0	57	0	2637168640	43	4046
2026-01-04 05:47:11.78	303.87	22.50	-40.7	-41.3	20.4	0.00e+00	0	57	0	2642411520	43	4037
2026-01-04 05:47:12.77	303.65	22.42	-40.6	-41.2	20.5	0.00e+00	0	57	0	2647654400	43	3976
2026-01-04 05:47:13.76	303.43	22.33	-40.7	-41.3	20.4	0.00e+00	0	57	0	2653945856	43	4040
2026-01-04 05:47:14.76	303.21	22.25	-40.9	-41.5	20.2	0.00e+00	0	57	0	2659188736	43	4117
2026-01-04 05:47:15.74	302.99	22.17	-40.8	-41.4	20.3	0.00e+00	0	57	0	2664431616	43	4059
2026-01-04 05:47:16.73	302.77	22.09	-40.6	-41.2	20.5	0.00e+00	0	57	0	2669674496	43	3981
2026-01-04 05:47:17.72	302.56	22.01	-40.7	-41.3	20.3	0.00e+00	0	56	0	2675965952	43	4046
2026-01-04 05:47:18.71	302.35	21.93	-40.8	-41.4	20.2	0.00e+00	0	57	0	2681208832	43	4087
2026-01-04 05:47:19.70	302.13	21.85	-41.0	-41.6	20.1	0.00e+00	0	57	0	2686451712	43	4188
2026-01-04 05:47:20.68	301.92	21.76	-41.0	-41.6	20.1	0.00e+00	0	57	0	2692743168	43	4169
2026-01-04 05:47:21.68	301.71	21.68	-40.9	-41.5	20.2	0.00e+00	0	57	0	2697986048	43	4114
2026-01-04 05:47:22.67	301.50	21.60	-40.8	-41.5	20.2	0.00e+00	0	57	0	2703228928	43	4103
2026-01-04 05:47:23.66	301.29	21.52	-41.0	-41.6	20.1	0.00e+00	0	57	0	2709520384	43	4176
2026-01-04 05:47:24.66	301.08	21.43	-41.0	-41.6	20.1	0.00e+00	0	57	0	2714763264	43	4183
2026-01-04 05:47:25.65	300.88	21.35	-41.0	-41.6	20.1	0.00e+00	0	57	0	2720006144	43	4163
2026-01-04 05:47:26.64	300.67	21.27	-40.9	-41.5	20.1	0.00e+00	0	57	0	2726297600	43	4144
2026-01-04 05:47:27.63	300.47	21.18	-41.1	-41.7	20.0	0.00e+00	0	56	0	2731540480	43	4223
2026-01-04 05:47:28.61	300.27	21.10	-41.1	-41.8	20.0	0.00e+00	0	57	0	2736783360	44	4005
2026-01-04 05:47:29.60	300.07	21.02	-41.0	-41.6	20.2	0.00e+00	0	57	0	2742026240	44	3924
2026-01-04 05:47:30.59	299.87	20.94	-40.9	-41.5	20.3	0.00e+00	0	57	0	2748317696	44	3895
2026-01-04 05:47:31.57	299.67	20.85	-40.9	-41.6	20.2	0.00e+00	0	57	0	2753560576	44	3916
2026-01-04 05:47:32.56	299.47	20.77	-41.1	-41.7	20.0	0.00e+00	0	57	0	2758803456	44	3993
2026-01-04 05:47:33.55	299.27	20.69	-41.1	-41.8	20.0	0.00e+00	0	57	0	2765094912	44	4014
2026-01-04 05:47:34.55	299.07	20.60	-41.1	-41.7	20.1	0.00e+00	0	57	0	2770337792	44	3977
2026-01-04 05:47:35.54	298.88	20.52	-41.1	-41.7	20.1	0.00e+00	0	57	0	2775580672	44	3970
2026-01-04 05:47:36.53	298.69	20.43	-41.2	-41.8	20.0	0.00e+00	0	57	0	2781872128	44	4030
2026-01-04 05:47:37.52	298.49	20.35	-41.3	-41.9	19.9	0.00e+00	0	57	0	2787115008	44	4063
2026-01-04 05:47:38.51	298.30	20.27	-41.1	-41.8	20.0	0.00e+00	0	57	0	2792357888	44	4005
2026-01-04 05:47:39.50	298.11	20.18	-41.2	-41.8	20.0	0.00e+00	0	57	0	2797600768	44	4034
2026-01-04 05:47:40.49	297.92	20.10	-41.2	-41.9	19.9	0.00e+00	0	57	0	2803892224	44	4065
2026-01-04 05:47:41.47	297.73	20.01	-41.1	-41.8	20.0	0.00e+00	0	57	0	2809135104	44	4014
2026-01-04 05:47:42.46	297.55	19.93	-41.1	-41.8	20.0	0.00e+00	0	57	0	2815426560	44	4020
2026-01-04 05:47:43.46	297.36	19.85	-41.3	-41.9	19.8	0.00e+00	0	57	0	2820669440	44	4087
2026-01-04 05:47:44.45	297.17	19.76	-41.3	-42.0	19.8	0.00e+00	0	57	0	2825912320	44	4119
2026-01-04 05:47:45.45	296.98	19.68	-41.4	-42.0	19.8	0.00e+00	0	57	0	2831155200	44	4130
2026-01-04 05:47:46.44	296.80	19.59	-41.4	-42.1	19.7	0.00e+00	0	57	0	2837446656	44	4179
2026-01-04 05:47:47.43	296.62	19.51	-41.4	-42.1	19.7	0.00e+00	0	57	0	2842689536	44	4176
2026-01-04 05:47:48.42	296.44	19.42	-41.2	-41.8	19.9	0.00e+00	0	57	0	2847932416	44	4032
2026-01-04 05:47:49.41	296.26	19.34	-41.0	-41.6	20.1	0.00e+00	0	57	0	2854223872	44	3944
2026-01-04 05:47:50.40	296.08	19.25	-41.0	-41.6	20.1	0.00e+00	0	57	0	2859466752	44	3939
2026-01-04 05:47:51.40	295.90	19.17	-41.1	-41.7	20.0	0.00e+00	0	57	0	2864709632	44	3984
2026-01-04 05:47:52.39	295.72	19.08	-41.1	-41.7	20.0	0.00e+00	0	57	0	2871001088	44	3998
2026-01-04 05:47:53.38	295.54	19.00	-41.3	-42.0	19.8	0.00e+00	0	57	0	2876243968	44	4103
2026-01-04 05:47:54.38	295.37	18.92	-41.3	-41.9	19.8	0.00e+00	0	57	0	2881486848	44	4089
2026-01-04 05:47:55.36	295.19	18.83	-41.4	-42.1	19.7	0.00e+00	0	57	0	2887778304	44	4154
2026-01-04 05:47:56.35	295.02	18.75	-41.4	-42.0	19.7	0.00e+00	0	57	0	2893021184	44	4128
2026-01-04 05:47:57.34	294.85	18.66	-41.5	-42.2	19.6	0.00e+00	0	57	0	2898264064	44	4206
2026-01-04 05:47:58.33	294.68	18.58	-41.4	-42.0	19.7	0.00e+00	0	57	0	2904555520	44	4129
2026-01-04 05:47:59.32	294.50	18.49	-41.4	-42.1	19.6	0.00e+00	0	57	0	2909798400	44	4164
2026-01-04 05:48:00.31	294.34	18.41	-41.5	-42.2	19.5	0.00e+00	0	57	0	2915041280	44	4215
2026-01-04 05:48:01.29	294.17	18.33	-41.5	-42.2	19.5	0.00e+00	0	57	0	2920284160	44	4220
2026-01-04 05:48:02.28	294.00	18.24	-41.7	-42.4	19.3	0.00e+00	0	57	0	2926575616	45	4093
2026-01-04 05:48:03.26	293.84	18.16	-41.9	-42.6	19.1	0.00e+00	0	57	0	2931818496	45	4180
2026-01-04 05:48:04.26	293.67	18.07	-41.9	-42.6	19.1	0.00e+00	0	57	0	2938109952	45	4155
2026-01-04 05:48:05.25	293.50	17.99	-42.2	-42.9	18.8	0.00e+00	0	57	0	2943352832	46	4080
2026-01-04 05:48:06.23	293.34	17.91	-42.4	-43.2	18.5	0.00e+00	0	57	0	2948595712	46	4206
2026-01-04 05:48:07.21	293.18	17.82	-42.5	-43.3	18.4	0.00e+00	0	57	0	2953838592	46	4253
2026-01-04 05:48:08.20	293.02	17.74	-42.8	-43.6	18.1	0.00e+00	0	57	0	2959081472	47	4163
2026-01-04 05:48:09.18	292.86	17.66	-42.9	-43.7	17.9	0.00e+00	0	57	0	2965372928	47	4225
2026-01-04 05:48:10.18	292.69	17.57	-43.3	-44.2	17.7	0.00e+00	0	57	0	2970615808	48	4196
2026-01-04 05:48:11.17	292.54	17.49	-43.3	-44.2	17.6	0.00e+00	0	57	0	2976907264	48	4219
2026-01-04 05:48:12.16	292.38	17.40	-43.2	-44.0	17.7	0.00e+00	0	57	0	2982150144	48	4141
2026-01-04 05:48:13.15	292.22	17.32	-43.1	-44.0	17.7	0.00e+00	0	57	0	2987393024	48	4117
2026-01-04 05:48:14.14	292.06	17.24	-43.6	-44.5	17.1	0.00e+00	0	57	0	2992635904	49	4123
2026-01-04 05:48:15.13	291.91	17.15	-43.5	-44.4	17.1	0.00e+00	0	57	0	2998927360	49	4091
2026-01-04 05:48:16.12	291.75	17.07	-44.0	-45.1	16.4	0.00e+00	0	57	0	3004170240	49	4398
2026-01-04 05:48:17.11	291.60	16.99	-43.9	-45.0	16.4	0.00e+00	0	57	0	3009413120	49	4347
2026-01-04 05:48:18.10	291.44	16.90	-44.3	-45.4	15.9	0.00e+00	0	57	0	3015704576	50	4324
2026-01-04 05:48:19.08	291.29	16.82	-44.6	-45.8	15.5	0.00e+00	0	57	0	3020947456	50	4494
2026-01-04 05:48:20.06	291.14	16.74	-44.9	-46.1	15.0	0.00e+00	0	57	0	3026190336	51	4427
2026-01-04 05:48:21.06	290.99	16.65	-45.0	-46.3	14.7	0.00e+00	0	57	0	3032481792	51	4539
2026-01-04 05:48:22.05	290.84	16.57	-45.2	-46.6	14.3	0.00e+00	0	57	0	3037724672	52	4421
2026-01-04 05:48:23.04	290.69	16.49	-45.4	-47.0	13.8	1.10e-06	0	57	0	3042967552	52	4607
2026-01-04 05:48:24.03	290.54	16.40	-45.9	-47.7	13.0	2.86e-05	0	57	0	3048210432	53	4706
2026-01-04 05:48:25.02	290.40	16.32	-46.0	-47.7	12.9	6.63e-05	0	57	0	3054501888	53	4755
2026-01-04 05:48:26.00	290.25	16.24	-46.4	-48.3	12.3	2.05e-04	0	57	0	3059744768	54	4776
2026-01-04 05:48:27.00	290.10	16.16	-46.3	-48.3	12.2	3.32e-04	0	57	0	3064987648	54	4767
2026-01-04 05:48:27.99	289.96	16.07	-46.7	-48.8	11.6	6.90e-04	0	57	0	3071279104	55	4799
2026-01-04 05:48:28.98	289.81	15.99	-46.8	-49.0	11.4	1.16e-03	0	57	0	3076521984	55	4878
2026-01-04 05:48:29.96	289.67	15.91	-47.1	-49.6	10.8	2.70e-03	0	57	0	3081764864	56	4950
2026-01-04 05:48:30.96	289.53	15.83	-47.4	-50.1	10.3	5.47e-03	0	57	0	3088056320	56	5229
2026-01-04 05:48:31.94	289.39	15.75	-47.5	-50.2	10.1	7.88e-03	0	57	0	3093299200	56	5314
2026-01-04 05:48:32.94	289.25	15.66	-47.7	-50.6	9.7	1.27e-02	0	57	0	3098542080	57	5249
2026-01-04 05:48:33.92	289.11	15.58	-47.8	-50.9	9.3	1.84e-02	0	57	0	3104833536	57	5420
2026-01-04 05:48:34.91	288.97	15.50	-48.1	-51.3	8.9	2.96e-02	0	57	0	3110076416	58	5378
2026-01-04 05:48:35.89	288.83	15.42	-48.2	-51.5	8.6	4.14e-02	0	57	0	3115319296	58	5518
2026-01-04 05:48:36.87	288.69	15.34	-48.3	-51.7	8.4	5.12e-02	0	57	0	3120562176	58	5646
2026-01-04 05:48:37.87	288.55	15.25	-48.4	-52.0	8.0	7.05e-02	0	57	0	3126853632	58	5846
2026-01-04 05:48:38.86	288.42	15.17	-48.5	-52.2	7.9	8.55e-02	0	57	0	3132096512	58	5945
2026-01-04 05:48:39.85	288.28	15.09	-48.5	-52.4	7.6	1.05e-01	0	57	0	3137339392	58	6089
2026-01-04 05:48:40.85	288.15	15.01	-48.6	-52.5	7.5	1.15e-01	0	57	0	3143630848	58	6146
2026-01-04 05:48:41.84	288.01	14.93	-48.6	-52.6	7.3	1.31e-01	0	57	0	3148873728	59	5887
2026-01-04 05:48:42.83	287.88	14.85	-48.6	-52.7	7.2	1.45e-01	0	57	0	3154116608	59	5940
2026-01-04 05:48:43.82	287.75	14.77	-48.7	-53.0	7.0	1.66e-01	0	57	0	3160408064	59	6160
2026-01-04 05:48:44.82	287.61	14.69	-48.7	-53.1	6.8	2.00e-01	0	57	0	3165650944	59	6253
2026-01-04 05:48:45.80	287.48	14.61	-48.8	-53.2	6.7	2.13e-01	0	57	0	3170893824	59	6327
2026-01-04 05:48:46.79	287.35	14.52	-48.8	-53.1	6.7	2.21e-01	0	57	0	3176136704	59	6267
2026-01-04 05:48:47.77	287.23	14.44	-48.8	-53.2	6.6	2.21e-01	0	57	0	3182428160	59	6346
2026-01-04 05:48:48.75	287.10	14.37	-48.7	-53.1	6.8	2.26e-01	0	57	0	3187671040	59	6219
2026-01-04 05:48:49.74	286.97	14.29	-48.6	-52.9	7.0	1.81e-01	0	57	0	3192913920	59	6081
2026-01-04 05:48:50.72	286.84	14.21	-48.5	-52.6	7.2	1.54e-01	0	57	0	3199205376	59	5883
2026-01-04 05:48:51.71	286.72	14.13	-48.4	-52.4	7.5	1.30e-01	0	57	0	3204448256	58	6067
2026-01-04 05:48:52.70	286.59	14.05	-48.3	-52.2	7.7	1.06e-01	0	57	0	3209691136	58	5929
2026-01-04 05:48:53.69	286.46	13.97	-48.3	-52.1	7.7	1.00e-01	0	57	0	3214934016	58	5922
2026-01-04 05:48:54.67	286.34	13.89	-48.2	-51.8	8.1	7.68e-02	0	57	0	3221225472	58	5664
2026-01-04 05:48:55.66	286.22	13.81	-48.2	-51.7	8.2	6.00e-02	0	57	0	3226468352	58	5632
2026-01-04 05:48:56.65	286.09	13.73	-48.0	-51.3	8.7	5.54e-02	0	57	0	3231711232	58	5343
2026-01-04 05:48:57.64	285.97	13.65	-47.5	-50.4	9.7	1.78e-02	0	57	0	3238002688	58	4836
2026-01-04 05:48:58.63	285.85	13.57	-47.2	-49.8	10.4	7.89e-03	0	57	0	3243245568	57	4766
2026-01-04 05:48:59.62	285.73	13.49	-46.9	-49.2	11.1	2.61e-03	0	57	0	3248488448	56	4731
2026-01-04 05:49:00.61	285.61	13.41	-46.6	-48.7	11.7	1.05e-03	0	57	0	3254779904	56	4460
2026-01-04 05:49:01.60	285.49	13.33	-46.2	-48.2	12.2	3.94e-04	0	57	0	3260022784	55	4456
2026-01-04 05:49:02.59	285.37	13.25	-46.0	-47.8	12.7	1.17e-04	0	57	0	3265265664	55	4276
2026-01-04 05:49:03.57	285.25	13.18	-45.9	-47.6	13.1	8.01e-05	0	57	0	3271557120	55	4164
2026-01-04 05:49:04.56	285.13	13.10	-45.9	-47.5	13.2	2.40e-05	0	57	0	3276800000	54	4372
2026-01-04 05:49:05.55	285.01	13.02	-45.9	-47.4	13.4	3.20e-05	0	57	0	3282042880	54	4336
2026-01-04 05:49:06.54	284.90	12.94	-45.6	-47.1	13.8	1.02e-05	0	57	0	3287285760	54	4167
2026-01-04 05:49:07.52	284.78	12.86	-45.3	-46.7	14.3	3.40e-06	0	57	0	3293577216	53	4197
2026-01-04 05:49:08.51	284.67	12.79	-45.0	-46.3	14.7	0.00e+00	0	57	0	3298820096	53	4024
2026-01-04 05:49:09.50	284.55	12.71	-44.9	-46.2	14.9	0.00e+00	0	57	0	3305111552	52	4198
2026-01-04 05:49:10.49	284.44	12.63	-44.8	-46.1	15.0	0.00e+00	0	57	0	3310354432	52	4146
2026-01-04 05:49:11.48	284.32	12.55	-44.7	-45.9	15.2	0.00e+00	0	57	0	3315597312	52	4079
2026-01-04 05:49:12.47	284.21	12.48	-44.5	-45.7	15.4	0.00e+00	0	57	0	3320840192	52	3984
2026-01-04 05:49:13.45	284.10	12.40	-44.4	-45.6	15.6	0.00e+00	0	57	0	3327131648	52	3917
2026-01-04 05:49:14.45	283.98	12.32	-44.4	-45.6	15.7	0.00e+00	0	57	0	3332374528	51	4152
2026-01-04 05:49:15.43	283.87	12.25	-44.4	-45.5	15.8	0.00e+00	0	57	0	3337617408	51	4122
2026-01-04 05:49:16.43	283.76	12.17	-44.4	-45.5	15.8	0.00e+00	0	57	0	3343908864	51	4116
2026-01-04 05:49:17.42	283.65	12.09	-44.5	-45.6	15.7	0.00e+00	0	57	0	3349151744	51	4152
2026-01-04 05:49:18.41	283.54	12.02	-44.5	-45.6	15.7	1.10e-06	0	57	0	3354394624	51	4182
2026-01-04 05:49:19.40	283.43	11.94	-44.6	-45.8	15.6	0.00e+00	0	57	0	3360686080	51	4247
2026-01-04 05:49:20.39	283.33	11.86	-44.6	-45.8	15.6	0.00e+00	0	57	0	3365928960	51	4252
2026-01-04 05:49:21.38	283.22	11.79	-44.5	-45.6	15.8	0.00e+00	0	57	0	3371171840	51	4176
2026-01-04 05:49:22.37	283.11	11.71	-44.4	-45.5	15.9	0.00e+00	0	57	0	3376414720	51	4130
2026-01-04 05:49:23.36	283.00	11.63	-44.4	-45.4	16.0	0.00e+00	0	57	0	3382706176	51	4092
2026-01-04 05:49:24.35	282.90	11.56	-44.3	-45.4	16.1	0.00e+00	0	57	0	3387949056	51	4062
2026-01-04 05:49:25.34	282.79	11.48	-44.3	-45.4	16.1	0.00e+00	0	57	0	3393191936	51	4066
2026-01-04 05:49:26.33	282.69	11.41	-44.3	-45.3	16.2	0.00e+00	0	57	0	3399483392	51	4036
2026-01-04 05:49:27.32	282.58	11.33	-44.3	-45.4	16.2	0.00e+00	0	57	0	3404726272	51	4067
2026-01-04 05:49:28.30	282.48	11.26	-44.2	-45.2	16.3	0.00e+00	0	57	0	3409969152	51	3987
2026-01-04 05:49:29.29	282.38	11.18	-44.1	-45.1	16.5	0.00e+00	0	57	0	3415212032	51	3920
2026-01-04 05:49:30.28	282.27	11.11	-44.1	-45.1	16.5	0.00e+00	0	57	0	3421503488	51	3934
2026-01-04 05:49:31.27	282.17	11.03	-44.2	-45.2	16.3	0.00e+00	0	57	0	3426746368	51	3998
2026-01-04 05:49:32.26	282.07	10.96	-44.2	-45.3	16.3	0.00e+00	0	57	0	3433037824	51	4006
2026-01-04 05:49:33.24	281.97	10.89	-44.2	-45.2	16.3	0.00e+00	0	57	0	3438280704	51	3988
2026-01-04 05:49:34.23	281.87	10.81	-44.3	-45.4	16.1	0.00e+00	0	57	0	3443523584	51	4070
2026-01-04 05:49:35.23	281.77	10.74	-44.5	-45.6	15.9	0.00e+00	0	57	0	3448766464	51	4176
2026-01-04 05:49:36.21	281.67	10.66	-44.4	-45.5	15.9	0.00e+00	0	57	0	3455057920	51	4139
2026-01-04 05:49:37.19	281.57	10.59	-44.6	-45.7	15.8	0.00e+00	0	57	0	3460300800	51	4201
2026-01-04 05:49:38.19	281.47	10.51	-44.7	-45.8	15.6	0.00e+00	0	57	0	3465543680	51	4287
2026-01-04 05:49:39.18	281.37	10.44	-44.9	-46.1	15.4	0.00e+00	0	57	0	3471835136	51	4402
2026-01-04 05:49:40.17	281.27	10.37	-44.8	-45.9	15.5	0.00e+00	0	57	0	3477078016	51	4324
2026-01-04 05:49:41.16	281.18	10.29	-44.9	-46.1	15.3	0.00e+00	0	57	0	3482320896	51	4439
2026-01-04 05:49:42.15	281.08	10.22	-44.8	-46.0	15.4	0.00e+00	0	57	0	3487563776	51	4365
2026-01-04 05:49:43.14	280.98	10.15	-45.0	-46.2	15.0	0.00e+00	0	57	0	3493855232	52	4241
2026-01-04 05:49:44.13	280.89	10.07	-44.9	-46.1	15.2	0.00e+00	0	57	0	3499098112	52	4179
2026-01-04 05:49:45.12	280.79	10.00	-45.1	-46.4	14.9	0.00e+00	0	57	0	3504340992	52	4299
2026-01-04 05:49:46.11	280.70	9.93	-45.0	-46.2	15.0	1.10e-06	0	57	0	3510632448	52	4222
2026-01-04 05:49:47.10	280.61	9.86	-44.9	-46.1	15.0	0.00e+00	0	57	0	3515875328	52	4180
2026-01-04 05:49:48.09	280.51	9.78	-44.9	-46.2	15.0	0.00e+00	0	57	0	3521118208	52	4201
2026-01-04 05:49:49.08	280.42	9.71	-45.0	-46.4	14.7	0.00e+00	0	57	0	3527409664	52	4294
2026-01-04 05:49:50.07	280.33	9.64	-45.3	-46.7	14.4	2.20e-06	0	57	0	3532652544	52	4454
2026-01-04 05:49:51.06	280.23	9.57	-45.2	-46.6	14.5	2.20e-06	0	57	0	3537895424	52	4406
2026-01-04 05:49:52.05	280.14	9.50	-45.0	-46.3	14.7	1.10e-06	0	57	0	3544186880	52	4272
2026-01-04 05:49:53.04	280.05	9.42	-44.8	-46.1	14.9	0.00e+00	0	57	0	3549429760	52	4152
2026-01-04 05:49:54.03	279.96	9.35	-44.7	-45.9	15.1	0.00e+00	0	57	0	3554672640	52	4075
2026-01-04 05:49:55.02	279.87	9.28	-44.6	-45.9	15.0	0.00e+00	0	57	0	3560964096	52	4061
2026-01-04 05:49:56.01	279.78	9.21	-44.7	-46.0	14.9	0.00e+00	0	57	0	3566206976	52	4130
2026-01-04 05:49:57.01	279.69	9.14	-44.9	-46.2	14.6	0.00e+00	0	57	0	3571449856	52	4238
2026-01-04 05:49:58.00	279.60	9.07	-45.0	-46.4	14.4	0.00e+00	0	57	0	3576692736	52	4295
2026-01-04 05:49:58.99	279.51	9.00	-44.9	-46.2	14.6	2.20e-06	0	57	0	3582984192	52	4224
2026-01-04 05:49:59.98	279.42	8.92	-44.9	-46.2	14.5	1.10e-06	0	57	0	3588227072	52	4240
2026-01-04 05:50:00.97	279.33	8.85	-45.1	-46.5	14.3	0.00e+00	0	57	0	3594518528	52	4354
2026-01-04 05:50:01.96	279.25	8.78	-45.0	-46.4	14.3	2.20e-06	0	57	0	3599761408	52	4298
2026-01-04 05:50:02.94	279.16	8.71	-45.2	-46.6	14.1	3.40e-06	0	57	0	3605004288	52	4428
2026-01-04 05:50:03.93	279.08	8.64	-45.5	-47.0	13.6	1.71e-05	0	57	0	3610247168	52	4632
2026-01-04 05:50:04.92	278.99	8.57	-45.3	-46.9	13.7	1.02e-05	0	57	0	3616538624	52	4550
2026-01-04 05:50:05.92	278.90	8.50	-45.6	-47.2	13.3	1.71e-05	0	57	0	3621781504	53	4480
2026-01-04 05:50:06.90	278.82	8.43	-45.5	-47.0	13.5	3.89e-05	0	57	0	3627024384	53	4380
2026-01-04 05:50:07.90	278.73	8.36	-45.3	-46.9	13.6	1.83e-05	0	57	0	3633315840	53	4300
2026-01-04 05:50:08.89	278.65	8.29	-45.1	-46.7	13.7	1.14e-05	0	57	0	3638558720	53	4217
2026-01-04 05:50:09.89	278.56	8.22	-45.2	-46.8	13.5	9.10e-06	0	57	0	3643801600	53	4252
2026-01-04 05:50:10.87	278.48	8.15	-45.4	-47.0	13.3	2.63e-05	0	57	0	3650093056	53	4374
2026-01-04 05:50:11.86	278.40	8.08	-45.3	-47.0	13.2	4.69e-05	0	57	0	3655335936	53	4373
2026-01-04 05:50:12.84	278.32	8.02	-45.6	-47.4	12.8	8.12e-05	0	57	0	3660578816	53	4560
