passes_logs/2026/01/04/R3.0SM8_Murmansk_STILSPACE/R3.0SM8_Murmansk_STILSPACE__20260104_113715_NOAA_20_JPSS-1_rec.log

#Pass ID: 20260104_113715_NOAA 20 (JPSS-1)
#Satellite: NOAA 20 (JPSS-1)
#Configuration: NOAA 20
#almurnet v.1.7.20240730
#Start time: 2026-01-04 11:44:24

#Version: 2.2.20231116
#Station: R3.0SM8_Murmansk_STILSPACE
#Location: 33.092731 lon 68.902999 lat
#TLE: 1 43013U 17073A   26003.41800368  .00000169  00000+0  10117-3 0  9998
#TLE: 2 43013  98.7624 304.4804 0001884  56.1176 304.0179 14.19532918421092

#Time	Az	El	Level	Level2	SNR	BER	BlckErr	Temp	State	Recorded	gain1	gain2
2026-01-04 11:44:24.94	286.91	26.50	-54.4	-74.4	3.8	7.48e-01	0	56	0	0	71	37146
2026-01-04 11:44:25.91	287.20	26.46	-52.5	-66.4	3.8	1.49e+00	0	57	104	0	67	18246
2026-01-04 11:44:26.89	287.49	26.42	-52.5	-66.4	3.8	1.49e+00	0	57	104	0	67	18247
2026-01-04 11:44:27.88	287.79	26.38	-52.3	-66.4	3.8	1.49e+00	0	57	104	0	67	18299
2026-01-04 11:44:28.86	288.08	26.34	-52.5	-66.4	3.8	1.49e+00	0	57	104	0	67	18301
2026-01-04 11:44:29.84	288.36	26.29	-52.5	-66.5	3.8	1.49e+00	0	57	104	0	67	18311
2026-01-04 11:44:30.84	288.66	26.25	-52.5	-66.5	3.8	1.49e+00	0	57	104	0	67	18308
2026-01-04 11:44:31.82	288.95	26.21	-52.5	-66.5	3.8	1.49e+00	0	57	104	0	67	18316
2026-01-04 11:44:32.81	289.23	26.16	-52.6	-66.4	3.8	1.49e+00	0	57	104	0	67	18228
2026-01-04 11:44:33.81	289.53	26.12	-52.5	-66.4	3.8	1.49e+00	0	57	104	0	67	18277
2026-01-04 11:44:34.80	289.81	26.07	-52.4	-66.4	3.8	1.49e+00	0	57	104	0	67	18185
2026-01-04 11:44:35.79	290.10	26.02	-52.6	-66.4	3.8	1.49e+00	0	57	104	0	67	18277
2026-01-04 11:44:36.78	290.39	25.97	-52.6	-66.4	3.8	1.49e+00	0	57	104	0	67	18186
2026-01-04 11:44:37.78	290.67	25.93	-52.4	-66.4	3.8	1.49e+00	0	57	104	0	67	18198
2026-01-04 11:44:38.76	290.96	25.88	-52.5	-66.4	3.8	1.49e+00	0	57	104	0	67	18131
2026-01-04 11:44:39.75	291.24	25.83	-52.3	-66.4	3.8	1.49e+00	0	57	104	0	67	18147
2026-01-04 11:44:40.74	291.52	25.78	-52.6	-66.4	3.8	1.49e+00	0	57	104	0	67	18110
2026-01-04 11:44:41.73	291.80	25.73	-52.4	-66.3	3.8	1.49e+00	0	57	104	0	67	18052
2026-01-04 11:44:42.73	292.09	25.67	-52.4	-66.4	3.8	1.49e+00	0	57	104	0	67	18106
2026-01-04 11:44:43.72	292.37	25.62	-52.5	-66.3	3.8	1.49e+00	0	57	104	0	67	17990
2026-01-04 11:44:44.71	292.65	25.57	-52.4	-66.3	3.8	1.49e+00	0	57	104	0	67	17987
2026-01-04 11:44:45.71	292.93	25.52	-52.4	-66.2	3.8	1.49e+00	0	57	104	0	67	17884
2026-01-04 11:44:46.70	293.20	25.46	-52.3	-66.2	3.8	1.49e+00	0	57	104	0	67	17783
2026-01-04 11:44:47.69	293.48	25.41	-52.3	-66.1	3.8	1.49e+00	0	57	104	0	67	17500
2026-01-04 11:44:48.68	293.75	25.35	-52.3	-66.0	3.8	1.49e+00	0	57	104	0	67	17407
2026-01-04 11:44:49.67	294.03	25.30	-52.2	-66.1	3.8	1.49e+00	0	57	104	0	67	17566
2026-01-04 11:44:50.66	294.30	25.24	-52.3	-66.2	3.8	1.49e+00	0	57	104	0	67	17716
2026-01-04 11:44:51.65	294.57	25.18	-52.2	-66.1	3.8	1.49e+00	0	57	104	0	67	17572
2026-01-04 11:44:52.64	294.85	25.13	-52.2	-66.0	3.8	1.49e+00	0	57	104	0	67	17437
2026-01-04 11:44:53.63	295.12	25.07	-52.2	-66.0	3.8	1.49e+00	0	57	104	0	67	17339
2026-01-04 11:44:54.62	295.39	25.01	-52.3	-65.9	3.8	1.49e+00	0	57	104	0	67	17130
2026-01-04 11:44:55.61	295.65	24.95	-52.2	-65.9	3.8	1.49e+00	0	57	104	0	67	17173
2026-01-04 11:44:56.60	295.92	24.89	-52.2	-66.0	3.8	1.49e+00	0	57	104	0	67	17445
2026-01-04 11:44:57.59	296.19	24.83	-52.2	-66.1	3.8	1.49e+00	0	57	104	0	67	17558
2026-01-04 11:44:58.58	296.45	24.77	-52.2	-65.9	3.8	1.49e+00	0	57	104	0	67	17229
2026-01-04 11:44:59.58	296.72	24.71	-52.2	-65.7	3.8	1.49e+00	0	57	104	0	67	16737
2026-01-04 11:45:00.57	296.98	24.65	-52.0	-65.4	3.8	1.49e+00	0	57	104	0	67	16241
2026-01-04 11:45:01.56	297.25	24.59	-52.3	-65.5	3.8	1.49e+00	0	57	104	0	67	16469
2026-01-04 11:45:02.55	297.51	24.53	-52.1	-65.8	3.8	1.49e+00	0	57	104	0	67	17021
2026-01-04 11:45:03.54	297.77	24.46	-52.2	-66.0	3.8	1.49e+00	0	57	104	0	67	17480
2026-01-04 11:45:04.52	298.02	24.40	-52.2	-66.2	3.8	1.49e+00	0	57	104	0	67	17791
2026-01-04 11:45:05.51	298.28	24.34	-52.3	-66.1	3.8	1.49e+00	0	57	104	0	67	17581
2026-01-04 11:45:06.51	298.54	24.27	-52.2	-65.9	3.8	1.49e+00	0	57	104	0	67	17103
2026-01-04 11:45:07.49	298.80	24.21	-52.1	-65.9	3.8	1.49e+00	0	57	104	0	67	17236
2026-01-04 11:45:08.48	299.05	24.14	-52.1	-66.1	3.8	1.49e+00	0	57	104	0	67	17667
2026-01-04 11:45:09.48	299.31	24.08	-52.2	-66.1	3.8	1.49e+00	0	57	104	0	67	17593
2026-01-04 11:45:10.46	299.56	24.01	-52.2	-65.5	3.8	1.49e+00	0	57	104	0	67	16477
2026-01-04 11:45:11.45	299.81	23.95	-52.1	-65.0	3.8	1.49e+00	0	57	104	0	67	15402
2026-01-04 11:45:12.44	300.06	23.88	-52.1	-64.9	3.8	1.49e+00	0	57	104	0	67	15352
2026-01-04 11:45:13.43	300.31	23.81	-52.1	-65.8	3.8	1.49e+00	0	57	104	0	67	16911
2026-01-04 11:45:14.42	300.56	23.75	-52.1	-65.9	3.8	1.49e+00	0	57	104	0	67	17258
2026-01-04 11:45:15.42	300.81	23.68	-52.0	-62.6	4.2	1.49e+00	0	57	104	0	66	12384
2026-01-04 11:45:16.40	301.06	23.61	-51.2	-58.1	6.7	7.22e-01	0	57	0	1048576	65	7897
2026-01-04 11:45:17.39	301.30	23.54	-50.5	-54.8	10.2	1.92e-02	0	57	0	3145728	63	6010
2026-01-04 11:45:18.39	301.55	23.47	-49.2	-52.2	12.9	3.76e-04	0	57	0	4194304	61	5000
2026-01-04 11:45:19.38	301.79	23.40	-48.5	-51.0	14.2	3.00e-06	0	57	0	6291456	60	4630
2026-01-04 11:45:20.36	302.03	23.33	-48.6	-51.2	14.0	7.00e-07	0	57	0	8388608	60	4715
2026-01-04 11:45:21.35	302.27	23.27	-48.9	-51.6	13.5	1.52e-05	0	57	0	10485760	60	4953
2026-01-04 11:45:22.34	302.52	23.20	-48.6	-51.1	14.0	2.20e-06	0	57	0	12582912	60	4700
2026-01-04 11:45:23.33	302.75	23.12	-48.5	-50.9	14.3	1.50e-06	0	57	0	13631488	59	4866
2026-01-04 11:45:24.32	302.99	23.05	-48.3	-50.6	14.5	0.00e+00	0	57	0	15728640	59	4700
2026-01-04 11:45:25.30	303.23	22.98	-48.2	-50.3	14.9	0.00e+00	0	57	0	17825792	59	4531
2026-01-04 11:45:26.30	303.47	22.91	-48.0	-50.2	15.0	0.00e+00	0	57	0	19922944	58	4709
2026-01-04 11:45:27.29	303.70	22.84	-48.0	-50.1	15.1	0.00e+00	0	57	0	20971520	58	4682
2026-01-04 11:45:28.27	303.93	22.77	-48.0	-50.2	15.0	0.00e+00	0	57	0	23068672	58	4719
2026-01-04 11:45:29.26	304.17	22.70	-47.8	-49.9	15.3	0.00e+00	0	57	0	25165824	58	4548
2026-01-04 11:45:30.24	304.40	22.63	-47.7	-49.6	15.5	0.00e+00	0	57	0	27262976	58	4421
2026-01-04 11:45:31.23	304.63	22.55	-47.6	-49.5	15.6	0.00e+00	0	57	0	28311552	58	4375
2026-01-04 11:45:32.22	304.86	22.48	-47.5	-49.3	15.8	0.00e+00	0	57	0	30408704	58	4287
2026-01-04 11:45:33.21	305.09	22.41	-47.3	-49.1	16.0	0.00e+00	0	57	0	32505856	57	4432
2026-01-04 11:45:34.20	305.31	22.33	-47.2	-48.9	16.2	0.00e+00	0	57	0	34603008	57	4336
2026-01-04 11:45:35.18	305.54	22.26	-47.1	-48.9	16.3	0.00e+00	0	57	0	35651584	57	4303
2026-01-04 11:45:36.17	305.77	22.19	-47.2	-48.9	16.2	0.00e+00	0	57	0	37748736	57	4332
2026-01-04 11:45:37.16	305.99	22.11	-47.1	-48.9	16.3	0.00e+00	0	57	0	39845888	57	4326
2026-01-04 11:45:38.16	306.22	22.04	-47.2	-49.0	16.1	0.00e+00	0	57	0	41943040	57	4378
2026-01-04 11:45:39.15	306.44	21.96	-47.3	-49.1	16.1	0.00e+00	0	57	0	44040192	57	4421
2026-01-04 11:45:40.14	306.66	21.89	-47.5	-49.4	15.8	0.00e+00	0	57	0	45088768	57	4565
2026-01-04 11:45:41.13	306.88	21.81	-47.2	-49.0	16.1	0.00e+00	0	57	0	47185920	57	4376
2026-01-04 11:45:42.13	307.10	21.74	-47.1	-48.8	16.4	0.00e+00	0	57	0	49283072	57	4256
2026-01-04 11:45:43.11	307.32	21.66	-47.1	-48.8	16.4	0.00e+00	0	57	0	51380224	57	4259
2026-01-04 11:45:44.10	307.54	21.59	-47.1	-48.9	16.3	0.00e+00	0	57	0	52428800	57	4305
2026-01-04 11:45:45.08	307.75	21.51	-47.0	-48.7	16.5	0.00e+00	0	57	0	54525952	57	4197
2026-01-04 11:45:46.07	307.97	21.44	-47.1	-48.8	16.4	0.00e+00	0	57	0	56623104	57	4250
2026-01-04 11:45:47.07	308.18	21.36	-47.3	-49.1	16.0	0.00e+00	0	57	0	58720256	57	4438
2026-01-04 11:45:48.06	308.40	21.28	-47.3	-49.2	16.0	0.00e+00	0	57	0	60817408	57	4459
2026-01-04 11:45:49.05	308.61	21.21	-47.4	-49.3	15.8	0.00e+00	0	57	0	61865984	57	4523
2026-01-04 11:45:50.04	308.82	21.13	-47.6	-49.5	15.6	0.00e+00	0	57	0	63963136	57	4618
2026-01-04 11:45:51.03	309.03	21.05	-47.3	-49.1	16.0	0.00e+00	0	57	0	66060288	57	4416
2026-01-04 11:45:52.02	309.24	20.98	-47.3	-49.1	16.1	0.00e+00	0	57	0	68157440	57	4404
2026-01-04 11:45:53.01	309.45	20.90	-47.3	-49.2	16.0	0.00e+00	0	57	0	69206016	57	4445
2026-01-04 11:45:54.00	309.65	20.82	-47.7	-49.6	15.5	0.00e+00	0	57	0	71303168	57	4701
2026-01-04 11:45:54.99	309.86	20.75	-48.2	-50.4	14.8	0.00e+00	0	57	0	73400320	58	4828
2026-01-04 11:45:55.99	310.07	20.67	-48.3	-50.6	14.6	0.00e+00	0	57	0	75497472	58	4956
2026-01-04 11:45:56.97	310.27	20.59	-48.7	-51.2	13.9	1.50e-06	0	57	0	76546048	59	5034
2026-01-04 11:45:57.97	310.47	20.51	-48.4	-50.9	14.2	1.50e-06	0	57	0	78643200	59	4842
2026-01-04 11:45:58.96	310.68	20.43	-48.1	-50.3	14.8	7.00e-07	0	57	0	80740352	59	4537
2026-01-04 11:45:59.94	310.88	20.36	-47.8	-49.9	15.2	0.00e+00	0	57	0	82837504	58	4582
2026-01-04 11:46:00.94	311.08	20.28	-47.7	-49.7	15.5	0.00e+00	0	57	0	83886080	58	4464
2026-01-04 11:46:01.92	311.27	20.20	-47.8	-49.9	15.3	0.00e+00	0	57	0	85983232	58	4555
2026-01-04 11:46:02.91	311.47	20.12	-48.1	-50.3	14.8	0.00e+00	0	57	0	88080384	58	4812
2026-01-04 11:46:03.91	311.67	20.04	-48.3	-50.7	14.5	0.00e+00	0	57	0	90177536	58	4999
2026-01-04 11:46:04.90	311.87	19.97	-48.5	-51.0	14.1	1.50e-06	0	57	0	92274688	58	5172
2026-01-04 11:46:05.88	312.06	19.89	-48.6	-51.2	13.9	3.80e-06	0	57	0	93323264	59	5025
2026-01-04 11:46:06.86	312.25	19.81	-48.6	-51.1	14.0	4.50e-06	0	57	0	95420416	59	4958
2026-01-04 11:46:07.86	312.45	19.73	-48.4	-50.7	14.4	3.00e-06	0	57	0	97517568	59	4752
2026-01-04 11:46:08.85	312.64	19.65	-48.2	-50.4	14.7	0.00e+00	0	57	0	99614720	59	4588
2026-01-04 11:46:09.84	312.83	19.57	-48.2	-50.5	14.6	0.00e+00	0	57	0	100663296	59	4600
2026-01-04 11:46:10.83	313.02	19.50	-48.3	-50.7	14.5	7.00e-07	0	57	0	102760448	59	4709
2026-01-04 11:46:11.81	313.21	19.42	-48.3	-50.6	14.4	0.00e+00	0	57	0	104857600	59	4697
2026-01-04 11:46:12.80	313.40	19.34	-48.3	-50.6	14.5	0.00e+00	0	57	0	106954752	59	4694
2026-01-04 11:46:13.79	313.59	19.26	-48.5	-50.9	14.2	2.20e-06	0	57	0	109051904	59	4853
2026-01-04 11:46:14.78	313.77	19.18	-48.6	-51.1	14.0	3.80e-06	0	57	0	110100480	59	4951
2026-01-04 11:46:15.77	313.96	19.10	-48.6	-51.1	14.0	3.80e-06	0	57	0	112197632	59	4949
2026-01-04 11:46:16.75	314.14	19.02	-48.6	-51.3	13.8	4.50e-06	0	57	0	114294784	59	5059
2026-01-04 11:46:17.74	314.33	18.95	-48.5	-50.9	14.2	1.50e-06	0	57	0	116391936	59	4817
2026-01-04 11:46:18.73	314.51	18.87	-48.0	-50.2	14.9	0.00e+00	0	57	0	117440512	59	4453
2026-01-04 11:46:19.72	314.69	18.79	-47.8	-49.9	15.2	0.00e+00	0	57	0	119537664	58	4583
2026-01-04 11:46:20.70	314.87	18.71	-47.9	-49.9	15.2	0.00e+00	0	57	0	121634816	58	4593
2026-01-04 11:46:21.69	315.05	18.63	-48.1	-50.4	14.7	0.00e+00	0	57	0	123731968	58	4834
2026-01-04 11:46:22.69	315.23	18.55	-48.4	-50.8	14.3	7.00e-07	0	57	0	124780544	58	5067
2026-01-04 11:46:23.67	315.41	18.47	-48.6	-51.1	14.0	3.00e-06	0	57	0	126877696	59	4975
2026-01-04 11:46:24.67	315.59	18.39	-48.6	-51.1	14.0	3.00e-06	0	58	0	128974848	59	4978
2026-01-04 11:46:25.66	315.76	18.31	-48.3	-50.7	14.4	1.50e-06	0	57	0	131072000	59	4723
2026-01-04 11:46:26.64	315.94	18.23	-47.9	-50.1	15.0	7.00e-07	0	57	0	133169152	59	4403
2026-01-04 11:46:27.63	316.11	18.16	-47.6	-49.6	15.6	0.00e+00	0	57	0	134217728	58	4395
2026-01-04 11:46:28.61	316.28	18.08	-47.4	-49.2	15.8	0.00e+00	0	57	0	136314880	57	4481
2026-01-04 11:46:29.59	316.46	18.00	-47.5	-49.3	15.8	0.00e+00	0	57	0	138412032	57	4529
2026-01-04 11:46:30.59	316.63	17.92	-47.4	-49.3	15.8	0.00e+00	0	57	0	140509184	57	4515
2026-01-04 11:46:31.58	316.80	17.84	-47.6	-49.6	15.5	0.00e+00	0	57	0	141557760	57	4679
2026-01-04 11:46:32.57	316.97	17.76	-47.9	-50.1	15.0	0.00e+00	0	57	0	143654912	57	4951
2026-01-04 11:46:33.56	317.14	17.68	-48.3	-50.7	14.4	0.00e+00	0	57	0	145752064	58	5004
2026-01-04 11:46:34.55	317.31	17.60	-48.7	-51.4	13.7	2.20e-06	0	57	0	147849216	59	5111
2026-01-04 11:46:35.54	317.48	17.52	-48.8	-51.5	13.6	7.60e-06	0	57	0	148897792	59	5178
2026-01-04 11:46:36.53	317.64	17.45	-48.8	-51.4	13.6	1.44e-05	0	57	0	150994944	59	5151
2026-01-04 11:46:37.52	317.81	17.37	-48.5	-50.9	14.1	6.10e-06	0	57	0	153092096	59	4853
2026-01-04 11:46:38.51	317.98	17.29	-48.1	-50.3	14.8	0.00e+00	0	57	0	155189248	59	4499
2026-01-04 11:46:39.50	318.14	17.21	-47.9	-50.0	15.1	0.00e+00	0	57	0	157286400	58	4611
2026-01-04 11:46:40.49	318.30	17.13	-47.9	-50.0	15.1	7.00e-07	0	57	0	158334976	58	4606
2026-01-04 11:46:41.48	318.47	17.05	-47.9	-50.0	15.1	0.00e+00	0	57	0	160432128	58	4622
2026-01-04 11:46:42.47	318.63	16.97	-48.1	-50.3	14.7	0.00e+00	0	57	0	162529280	58	4805
2026-01-04 11:46:43.47	318.79	16.89	-48.3	-50.8	14.3	7.00e-07	0	57	0	164626432	58	5047
2026-01-04 11:46:44.45	318.95	16.81	-48.4	-50.9	14.2	1.50e-06	0	57	0	165675008	58	5110
2026-01-04 11:46:45.45	319.11	16.74	-48.5	-51.0	14.1	7.00e-07	0	57	0	167772160	58	5161
2026-01-04 11:46:46.43	319.27	16.66	-48.5	-51.1	13.9	8.30e-06	0	57	0	169869312	59	4945
2026-01-04 11:46:47.42	319.43	16.58	-48.3	-50.7	14.4	1.50e-06	0	57	0	171966464	59	4720
2026-01-04 11:46:48.41	319.58	16.50	-48.1	-50.4	14.7	0.00e+00	0	57	0	173015040	59	4557
2026-01-04 11:46:49.40	319.74	16.42	-48.1	-50.3	14.7	7.00e-07	0	57	0	175112192	59	4526
2026-01-04 11:46:50.38	319.89	16.34	-48.0	-50.2	14.9	0.00e+00	0	57	0	177209344	59	4483
2026-01-04 11:46:51.37	320.05	16.27	-48.1	-50.3	14.7	0.00e+00	0	57	0	179306496	59	4522
2026-01-04 11:46:52.37	320.20	16.19	-48.3	-50.6	14.5	1.50e-06	0	57	0	180355072	59	4668
2026-01-04 11:46:53.36	320.36	16.11	-48.0	-50.3	14.8	0.00e+00	0	57	0	182452224	59	4506
2026-01-04 11:46:54.35	320.51	16.03	-48.0	-50.2	14.9	0.00e+00	0	57	0	184549376	59	4448
2026-01-04 11:46:55.34	320.66	15.95	-47.9	-50.0	15.0	0.00e+00	0	57	0	186646528	58	4641
2026-01-04 11:46:56.32	320.81	15.88	-47.9	-50.1	15.0	0.00e+00	0	57	0	188743680	58	4654
2026-01-04 11:46:57.33	320.96	15.80	-48.0	-50.3	14.8	0.00e+00	0	57	0	189792256	58	4760
2026-01-04 11:46:58.32	321.11	15.72	-47.9	-50.1	14.9	7.00e-07	0	57	0	191889408	58	4674
2026-01-04 11:46:59.30	321.26	15.64	-47.9	-50.0	15.1	7.00e-07	0	57	0	193986560	58	4614
2026-01-04 11:47:00.29	321.41	15.56	-47.8	-49.9	15.1	0.00e+00	0	57	0	196083712	58	4571
2026-01-04 11:47:01.29	321.56	15.48	-47.9	-50.0	15.1	0.00e+00	0	57	0	197132288	58	4600
2026-01-04 11:47:02.28	321.70	15.41	-47.9	-50.0	15.0	0.00e+00	0	57	0	199229440	58	4637
2026-01-04 11:47:03.27	321.85	15.33	-47.8	-49.8	15.2	0.00e+00	0	57	0	201326592	58	4523
2026-01-04 11:47:04.26	321.99	15.25	-47.9	-50.1	15.0	0.00e+00	0	57	0	203423744	58	4652
2026-01-04 11:47:05.25	322.14	15.17	-47.8	-49.9	15.1	0.00e+00	0	57	0	205520896	58	4598
2026-01-04 11:47:06.25	322.28	15.10	-47.8	-49.8	15.2	0.00e+00	0	57	0	206569472	58	4543
2026-01-04 11:47:07.24	322.43	15.02	-47.9	-50.0	15.1	0.00e+00	0	57	0	208666624	58	4604
2026-01-04 11:47:08.22	322.57	14.94	-48.0	-50.1	14.9	0.00e+00	0	57	0	210763776	58	4682
2026-01-04 11:47:09.21	322.71	14.87	-48.1	-50.4	14.7	0.00e+00	0	57	0	212860928	58	4823
2026-01-04 11:47:10.21	322.85	14.79	-48.3	-50.6	14.4	0.00e+00	0	57	0	213909504	58	4937
2026-01-04 11:47:11.20	322.99	14.71	-48.1	-50.3	14.7	0.00e+00	0	57	0	216006656	58	4804
2026-01-04 11:47:12.19	323.13	14.63	-48.2	-50.5	14.5	7.00e-07	0	57	0	218103808	58	4911
2026-01-04 11:47:13.18	323.27	14.56	-48.3	-50.8	14.3	0.00e+00	0	57	0	220200960	58	5048
2026-01-04 11:47:14.18	323.41	14.48	-48.5	-51.0	14.0	3.00e-06	0	58	0	221249536	58	5180
2026-01-04 11:47:15.17	323.54	14.40	-48.2	-50.6	14.4	1.50e-06	0	57	0	223346688	58	4963
2026-01-04 11:47:16.16	323.68	14.33	-48.0	-50.3	14.7	7.00e-07	0	57	0	225443840	58	4808
2026-01-04 11:47:17.15	323.82	14.25	-47.8	-50.0	15.1	0.00e+00	0	57	0	227540992	58	4600
2026-01-04 11:47:18.14	323.95	14.18	-47.6	-49.7	15.3	0.00e+00	0	57	0	229638144	58	4449
2026-01-04 11:47:19.13	324.09	14.10	-47.6	-49.6	15.4	0.00e+00	0	57	0	230686720	58	4407
2026-01-04 11:47:20.12	324.22	14.02	-47.6	-49.7	15.3	0.00e+00	0	57	0	232783872	58	4462
2026-01-04 11:47:21.11	324.35	13.95	-47.8	-49.8	15.2	0.00e+00	0	57	0	234881024	58	4533
2026-01-04 11:47:22.10	324.49	13.87	-47.6	-49.7	15.3	0.00e+00	0	57	0	236978176	58	4478
2026-01-04 11:47:23.09	324.62	13.80	-47.7	-49.8	15.2	7.00e-07	0	57	0	238026752	58	4508
2026-01-04 11:47:24.08	324.75	13.72	-47.7	-49.8	15.2	0.00e+00	0	57	0	240123904	58	4519
2026-01-04 11:47:25.07	324.88	13.64	-47.9	-50.1	14.9	0.00e+00	0	57	0	242221056	58	4657
2026-01-04 11:47:26.06	325.01	13.57	-47.7	-49.9	15.1	0.00e+00	0	57	0	244318208	58	4559
2026-01-04 11:47:27.05	325.14	13.49	-47.9	-50.1	14.9	0.00e+00	0	57	0	246415360	58	4663
2026-01-04 11:47:28.03	325.27	13.42	-48.1	-50.3	14.7	7.00e-07	0	57	0	247463936	58	4775
2026-01-04 11:47:29.03	325.40	13.34	-47.9	-50.1	14.9	0.00e+00	0	57	0	249561088	58	4663
2026-01-04 11:47:30.01	325.52	13.27	-47.9	-50.1	14.9	0.00e+00	0	57	0	251658240	58	4680
2026-01-04 11:47:31.01	325.65	13.19	-47.9	-50.1	14.8	1.50e-06	0	57	0	253755392	58	4702
2026-01-04 11:47:31.99	325.77	13.12	-47.9	-50.1	14.8	0.00e+00	0	57	0	254803968	58	4691
2026-01-04 11:47:32.98	325.90	13.05	-48.1	-50.4	14.5	1.50e-06	0	57	0	256901120	58	4843
2026-01-04 11:47:33.97	326.02	12.97	-48.1	-50.4	14.5	0.00e+00	0	57	0	258998272	58	4850
2026-01-04 11:47:34.96	326.15	12.90	-48.1	-50.5	14.4	0.00e+00	0	57	0	261095424	58	4891
2026-01-04 11:47:35.95	326.27	12.82	-48.3	-50.8	14.2	7.00e-07	0	57	0	262144000	58	5053
2026-01-04 11:47:36.94	326.40	12.75	-48.1	-50.5	14.4	2.20e-06	0	57	0	264241152	58	4895
2026-01-04 11:47:37.93	326.52	12.67	-48.1	-50.4	14.5	2.20e-06	0	57	0	266338304	58	4868
2026-01-04 11:47:38.92	326.64	12.60	-48.2	-50.6	14.3	0.00e+00	0	57	0	268435456	58	4971
2026-01-04 11:47:39.92	326.76	12.53	-48.0	-50.2	14.7	7.00e-07	0	57	0	270532608	58	4759
2026-01-04 11:47:40.91	326.88	12.45	-47.9	-50.1	14.8	0.00e+00	0	57	0	271581184	58	4687
2026-01-04 11:47:41.90	327.00	12.38	-47.9	-50.0	14.9	0.00e+00	0	57	0	273678336	58	4630
2026-01-04 11:47:42.89	327.12	12.30	-47.8	-49.9	15.0	0.00e+00	0	57	0	275775488	58	4580
2026-01-04 11:47:43.88	327.24	12.23	-47.9	-50.1	14.8	0.00e+00	0	57	0	277872640	58	4667
2026-01-04 11:47:44.87	327.36	12.16	-47.8	-49.9	15.0	0.00e+00	0	57	0	278921216	58	4576
2026-01-04 11:47:45.87	327.48	12.08	-47.8	-50.0	14.9	0.00e+00	0	57	0	281018368	58	4614
2026-01-04 11:47:46.85	327.60	12.01	-47.9	-50.1	14.8	0.00e+00	0	57	0	283115520	58	4676
2026-01-04 11:47:47.84	327.71	11.94	-48.0	-50.2	14.7	0.00e+00	0	57	0	285212672	58	4728
2026-01-04 11:47:48.83	327.83	11.87	-48.0	-50.3	14.6	0.00e+00	0	57	0	286261248	58	4778
2026-01-04 11:47:49.83	327.95	11.79	-48.2	-50.6	14.2	7.00e-07	0	57	0	288358400	58	4966
2026-01-04 11:47:50.82	328.06	11.72	-48.1	-50.6	14.3	2.20e-06	0	57	0	290455552	58	4939
2026-01-04 11:47:51.81	328.18	11.65	-48.4	-50.9	13.9	1.50e-06	0	57	0	292552704	58	5150
2026-01-04 11:47:52.80	328.29	11.57	-48.4	-51.0	13.9	4.50e-06	0	57	0	294649856	58	5178
2026-01-04 11:47:53.79	328.40	11.50	-48.5	-51.1	13.8	0.00e+00	0	57	0	295698432	58	5242
2026-01-04 11:47:54.77	328.52	11.43	-48.8	-51.5	13.3	1.29e-05	0	57	0	297795584	59	5205
2026-01-04 11:47:55.76	328.63	11.36	-48.8	-51.6	13.2	2.59e-05	0	57	0	299892736	59	5244
2026-01-04 11:47:56.75	328.74	11.29	-49.0	-52.0	12.9	3.28e-05	0	58	0	301989888	59	5473
2026-01-04 11:47:57.73	328.85	11.22	-49.1	-52.1	12.7	8.16e-05	0	57	0	303038464	59	5561
2026-01-04 11:47:58.72	328.96	11.14	-49.1	-52.2	12.6	6.40e-05	0	57	0	305135616	60	5283
2026-01-04 11:47:59.71	329.07	11.07	-49.3	-52.6	12.2	1.25e-04	0	58	0	307232768	60	5545
2026-01-04 11:48:00.69	329.18	11.00	-49.2	-52.5	12.2	2.53e-04	0	57	0	309329920	60	5509
2026-01-04 11:48:01.69	329.29	10.93	-49.2	-52.5	12.3	1.56e-04	0	57	0	310378496	60	5476
2026-01-04 11:48:02.68	329.40	10.86	-49.3	-52.7	12.1	2.64e-04	0	57	0	312475648	60	5636
2026-01-04 11:48:03.67	329.51	10.79	-49.2	-52.5	12.2	3.51e-04	0	57	0	314572800	60	5497
2026-01-04 11:48:04.67	329.62	10.72	-49.1	-52.3	12.4	1.52e-04	0	57	0	316669952	60	5388
2026-01-04 11:48:05.65	329.72	10.65	-49.0	-52.1	12.7	8.23e-05	0	57	0	318767104	60	5232
2026-01-04 11:48:06.65	329.83	10.57	-49.0	-52.0	12.8	6.63e-05	0	57	0	319815680	60	5174
2026-01-04 11:48:07.65	329.94	10.50	-48.9	-52.0	12.8	7.78e-05	0	57	0	321912832	60	5160
2026-01-04 11:48:08.63	330.05	10.43	-49.0	-52.2	12.6	7.55e-05	0	57	0	324009984	60	5319
2026-01-04 11:48:09.62	330.15	10.36	-49.0	-52.2	12.6	1.39e-04	0	57	0	326107136	60	5294
2026-01-04 11:48:10.60	330.25	10.29	-49.0	-52.2	12.5	9.76e-05	0	57	0	327155712	60	5333
2026-01-04 11:48:11.58	330.36	10.22	-49.2	-52.5	12.2	1.42e-04	0	57	0	329252864	60	5488
2026-01-04 11:48:12.57	330.46	10.15	-49.2	-52.5	12.2	2.71e-04	0	57	0	331350016	60	5514
2026-01-04 11:48:13.56	330.57	10.08	-49.0	-52.2	12.5	1.53e-04	0	58	0	333447168	60	5316
2026-01-04 11:48:14.54	330.67	10.01	-48.8	-51.7	13.0	7.47e-05	0	57	0	334495744	60	5016
2026-01-04 11:48:15.54	330.77	9.94	-48.7	-51.6	13.2	2.67e-05	0	57	0	336592896	60	4930
2026-01-04 11:48:16.53	330.87	9.87	-48.6	-51.4	13.3	2.28e-05	0	57	0	338690048	60	4846
2026-01-04 11:48:17.52	330.98	9.81	-48.5	-51.3	13.4	1.52e-05	0	57	0	340787200	60	4792
2026-01-04 11:48:18.51	331.08	9.74	-48.6	-51.5	13.2	1.22e-05	0	58	0	342884352	60	4871
2026-01-04 11:48:19.50	331.18	9.67	-48.5	-51.3	13.4	1.90e-05	0	58	0	343932928	60	4776
2026-01-04 11:48:20.49	331.28	9.60	-48.5	-51.2	13.4	8.30e-06	0	57	0	346030080	60	4757
2026-01-04 11:48:21.48	331.38	9.53	-48.5	-51.2	13.4	2.13e-05	0	57	0	348127232	60	4759
2026-01-04 11:48:22.46	331.48	9.46	-48.5	-51.2	13.5	1.52e-05	0	57	0	350224384	59	5024
2026-01-04 11:48:23.45	331.57	9.39	-48.6	-51.3	13.4	1.60e-05	0	57	0	351272960	59	5074
2026-01-04 11:48:24.44	331.67	9.32	-48.5	-51.2	13.5	1.37e-05	0	57	0	353370112	59	5003
2026-01-04 11:48:25.43	331.77	9.26	-48.5	-51.2	13.4	8.30e-06	0	58	0	355467264	59	5037
2026-01-04 11:48:26.43	331.87	9.19	-48.7	-51.5	13.2	2.44e-05	0	57	0	357564416	59	5183
2026-01-04 11:48:27.42	331.97	9.12	-48.8	-51.7	12.9	4.04e-05	0	57	0	358612992	59	5306
2026-01-04 11:48:28.41	332.06	9.05	-48.7	-51.6	13.0	3.58e-05	0	57	0	360710144	59	5255
2026-01-04 11:48:29.39	332.16	8.98	-48.7	-51.7	13.0	2.97e-05	0	57	0	362807296	59	5300
2026-01-04 11:48:30.38	332.26	8.91	-48.8	-51.8	12.8	5.03e-05	0	57	0	364904448	59	5355
2026-01-04 11:48:31.37	332.35	8.85	-48.9	-51.9	12.8	6.48e-05	0	57	0	367001600	59	5418
2026-01-04 11:48:32.36	332.45	8.78	-48.9	-52.0	12.7	9.23e-05	0	57	0	368050176	59	5477
2026-01-04 11:48:33.35	332.54	8.71	-48.9	-51.9	12.7	1.08e-04	0	57	0	370147328	59	5453
2026-01-04 11:48:34.33	332.63	8.64	-48.9	-52.0	12.6	9.91e-05	0	57	0	372244480	59	5472
2026-01-04 11:48:35.33	332.73	8.58	-49.0	-52.2	12.4	1.15e-04	0	57	0	374341632	59	5599
2026-01-04 11:48:36.32	332.82	8.51	-49.0	-52.1	12.4	1.11e-04	0	58	0	375390208	59	5579
2026-01-04 11:48:37.31	332.92	8.44	-49.0	-52.2	12.3	1.83e-04	0	57	0	377487360	60	5314
2026-01-04 11:48:38.30	333.01	8.38	-48.7	-51.8	12.8	1.20e-04	0	57	0	379584512	60	5062
2026-01-04 11:48:39.30	333.10	8.31	-48.8	-51.8	12.7	4.50e-05	0	57	0	381681664	60	5085
2026-01-04 11:48:40.29	333.19	8.24	-48.8	-51.8	12.8	8.46e-05	0	57	0	383778816	60	5043
2026-01-04 11:48:41.28	333.28	8.18	-48.5	-51.3	13.2	4.65e-05	0	57	0	384827392	60	4803
2026-01-04 11:48:42.27	333.38	8.11	-48.4	-51.3	13.3	1.60e-05	0	57	0	386924544	60	4773
2026-01-04 11:48:43.26	333.47	8.04	-48.3	-51.0	13.5	1.29e-05	0	57	0	389021696	59	4917
2026-01-04 11:48:44.24	333.56	7.98	-48.3	-51.0	13.6	6.10e-06	0	57	0	391118848	59	4893
2026-01-04 11:48:45.24	333.65	7.91	-48.4	-51.1	13.4	1.14e-05	0	58	0	392167424	59	4953
2026-01-04 11:48:46.22	333.73	7.84	-48.2	-50.9	13.6	1.37e-05	0	57	0	394264576	59	4853
2026-01-04 11:48:47.21	333.82	7.78	-48.1	-50.7	13.8	9.10e-06	0	58	0	396361728	59	4752
2026-01-04 11:48:48.21	333.91	7.71	-48.1	-50.7	13.9	3.80e-06	0	57	0	398458880	59	4707
2026-01-04 11:48:49.20	334.00	7.65	-48.1	-50.6	14.0	1.50e-06	0	57	0	399507456	59	4657
2026-01-04 11:48:50.19	334.09	7.58	-48.2	-50.8	13.7	4.50e-06	0	57	0	401604608	59	4796
2026-01-04 11:48:51.18	334.18	7.52	-48.3	-51.0	13.5	3.80e-06	0	58	0	403701760	59	4887
2026-01-04 11:48:52.17	334.26	7.45	-48.3	-51.0	13.5	1.14e-05	0	57	0	405798912	59	4913
2026-01-04 11:48:53.15	334.35	7.39	-48.5	-51.3	13.2	2.21e-05	0	57	0	406847488	59	5087
2026-01-04 11:48:54.14	334.44	7.32	-48.5	-51.3	13.2	1.75e-05	0	57	0	408944640	59	5044
2026-01-04 11:48:55.13	334.52	7.26	-48.6	-51.6	12.9	4.88e-05	0	58	0	411041792	59	5237
2026-01-04 11:48:56.11	334.61	7.19	-48.5	-51.5	12.9	5.03e-05	0	57	0	413138944	59	5180
2026-01-04 11:48:57.10	334.69	7.13	-48.6	-51.7	12.7	5.87e-05	0	57	0	415236096	59	5307
2026-01-04 11:48:58.10	334.78	7.06	-48.6	-51.6	12.8	7.62e-05	0	57	0	416284672	59	5273
2026-01-04 11:48:59.08	334.86	7.00	-48.7	-51.9	12.5	9.46e-05	0	57	0	418381824	59	5419
2026-01-04 11:49:00.07	334.95	6.93	-48.9	-52.2	12.1	1.46e-04	0	57	0	420478976	59	5621
2026-01-04 11:49:01.06	335.03	6.87	-48.8	-52.0	12.4	1.48e-04	0	57	0	422576128	59	5476
2026-01-04 11:49:02.05	335.12	6.80	-48.7	-51.8	12.6	1.39e-04	0	57	0	423624704	59	5350
2026-01-04 11:49:03.04	335.20	6.74	-48.8	-52.1	12.3	1.07e-04	0	57	0	425721856	59	5532
2026-01-04 11:49:04.03	335.28	6.68	-48.8	-52.1	12.2	1.44e-04	0	57	0	427819008	59	5549
2026-01-04 11:49:05.01	335.36	6.61	-48.8	-52.1	12.2	2.37e-04	0	57	0	429916160	59	5565
2026-01-04 11:49:06.00	335.45	6.55	-48.8	-52.1	12.2	2.44e-04	0	57	0	430964736	59	5565
2026-01-04 11:49:06.99	335.53	6.49	-48.8	-52.2	12.1	2.04e-04	0	57	0	433061888	59	5610
2026-01-04 11:49:07.98	335.61	6.42	-48.9	-52.3	12.0	3.41e-04	0	57	0	435159040	59	5684
2026-01-04 11:49:08.97	335.69	6.36	-48.8	-52.1	12.1	2.66e-04	0	57	0	437256192	59	5574
2026-01-04 11:49:09.96	335.77	6.30	-48.9	-52.2	12.0	2.97e-04	0	58	0	439353344	59	5638
2026-01-04 11:49:10.95	335.85	6.23	-49.1	-52.6	11.7	3.51e-04	0	57	0	440401920	59	5923
2026-01-04 11:49:11.95	335.93	6.17	-48.9	-52.4	11.8	6.97e-04	0	57	0	442499072	60	5454
2026-01-04 11:49:12.93	336.01	6.11	-49.0	-52.6	11.6	6.54e-04	0	57	0	444596224	60	5573
2026-01-04 11:49:13.93	336.09	6.04	-49.1	-52.9	11.3	7.26e-04	0	57	0	446693376	60	5752
2026-01-04 11:49:14.92	336.17	5.98	-49.1	-52.7	11.5	1.06e-03	0	57	0	447741952	60	5636
2026-01-04 11:49:15.90	336.25	5.92	-48.9	-52.4	11.8	5.42e-04	0	58	0	449839104	60	5426
2026-01-04 11:49:16.90	336.33	5.86	-48.9	-52.3	11.8	4.27e-04	0	57	0	451936256	60	5399
2026-01-04 11:49:17.88	336.41	5.79	-48.9	-52.4	11.7	5.61e-04	0	58	0	454033408	60	5451
2026-01-04 11:49:18.87	336.49	5.73	-48.7	-52.2	12.0	6.10e-04	0	58	0	455081984	60	5280
2026-01-04 11:49:19.87	336.56	5.67	-48.6	-52.0	12.1	2.45e-04	0	57	0	457179136	60	5196
2026-01-04 11:49:20.86	336.64	5.61	-48.5	-51.9	12.2	2.54e-04	0	58	0	459276288	60	5117
2026-01-04 11:49:21.85	336.72	5.54	-48.6	-52.0	12.1	2.43e-04	0	58	0	461373440	60	5174
2026-01-04 11:49:22.83	336.79	5.48	-48.7	-52.3	11.8	4.04e-04	0	57	0	463470592	60	5342
2026-01-04 11:49:23.82	336.87	5.42	-48.7	-52.1	11.9	4.29e-04	0	57	0	464519168	60	5275
2026-01-04 11:49:24.81	336.95	5.36	-48.7	-52.3	11.8	4.94e-04	0	57	0	466616320	60	5362
2026-01-04 11:49:25.81	337.02	5.30	-48.7	-52.1	11.9	4.06e-04	0	57	0	468713472	60	5254
2026-01-04 11:49:26.80	337.10	5.24	-48.5	-51.8	12.2	3.04e-04	0	57	0	470810624	60	5089
2026-01-04 11:49:27.79	337.18	5.17	-48.5	-51.8	12.3	2.14e-04	0	58	0	471859200	60	5060
2026-01-04 11:49:28.78	337.25	5.11	-48.5	-51.8	12.2	1.91e-04	0	57	0	473956352	60	5098
2026-01-04 11:49:29.76	337.32	5.05	-48.4	-51.7	12.4	2.06e-04	0	57	0	476053504	59	5285
2026-01-04 11:49:30.75	337.40	4.99	-51.2	-63.8	3.8	9.05e-01	0	57	104	477102080	64	16059
2026-01-04 11:49:31.74	337.47	4.93	-51.4	-64.8	3.8	1.49e+00	0	57	104	477102080	64	18048
2026-01-04 11:49:32.73	337.55	4.87	-48.8	-62.5	3.8	1.49e+00	0	58	104	477102080	60	17441
2026-01-04 11:49:33.72	337.62	4.81	-48.4	-62.1	3.8	1.49e+00	0	58	104	477102080	59	17653
2026-01-04 11:49:34.71	337.69	4.75	-50.3	-64.2	3.9	1.49e+00	0	57	104	477102080	62	18734
2026-01-04 11:49:35.69	337.77	4.69	-51.5	-65.4	3.8	1.49e+00	0	58	104	477102080	64	19380
2026-01-04 11:49:36.69	337.84	4.63	-51.4	-66.0	3.8	1.49e+00	0	58	104	477102080	65	19562
2026-01-04 11:49:37.68	337.91	4.57	-52.2	-66.2	3.8	1.49e+00	0	57	104	477102080	66	18759
2026-01-04 11:49:38.67	337.98	4.51	-52.2	-66.2	3.8	1.49e+00	0	58	104	477102080	66	18854
2026-01-04 11:49:39.66	338.06	4.45	-52.3	-66.2	3.8	1.49e+00	0	58	104	477102080	66	18918
2026-01-04 11:49:40.65	338.13	4.39	-52.3	-66.2	3.8	1.49e+00	0	58	104	477102080	66	18946
2026-01-04 11:49:41.64	338.20	4.33	-52.4	-66.3	3.8	1.49e+00	0	58	104	477102080	66	19107
2026-01-04 11:49:42.62	338.27	4.27	-52.5	-66.3	3.8	1.49e+00	0	57	104	477102080	66	19107
2026-01-04 11:49:43.61	338.34	4.21	-52.5	-66.4	3.8	1.49e+00	0	58	104	477102080	66	19198
2026-01-04 11:49:44.60	338.41	4.15	-52.4	-66.4	3.8	1.49e+00	0	57	104	477102080	66	19217
2026-01-04 11:49:45.59	338.48	4.09	-52.5	-66.4	3.8	1.49e+00	0	57	104	477102080	67	18207
2026-01-04 11:49:46.58	338.55	4.03	-52.6	-66.4	3.8	1.49e+00	0	58	104	477102080	67	18232
2026-01-04 11:49:47.58	338.62	3.97	-52.6	-66.4	3.8	1.49e+00	0	58	104	477102080	67	18296
2026-01-04 11:49:48.56	338.69	3.91	-52.5	-66.4	3.8	1.49e+00	0	58	104	477102080	67	18213
2026-01-04 11:49:49.55	338.76	3.85	-52.5	-66.4	3.8	1.49e+00	0	58	104	477102080	67	18266
2026-01-04 11:49:50.54	338.83	3.79	-52.5	-66.5	3.8	1.49e+00	0	57	104	477102080	67	18363
2026-01-04 11:49:51.53	338.90	3.73	-52.5	-66.5	3.8	1.49e+00	0	58	104	477102080	67	18340
2026-01-04 11:49:52.53	338.97	3.67	-52.5	-66.5	3.8	1.49e+00	0	58	104	477102080	67	18417
2026-01-04 11:49:53.52	339.03	3.62	-52.6	-66.5	3.8	1.49e+00	0	57	104	477102080	67	18342
2026-01-04 11:49:54.51	339.10	3.56	-52.7	-66.5	3.8	1.49e+00	0	58	104	477102080	67	18395
2026-01-04 11:49:55.50	339.17	3.50	-52.5	-66.5	3.8	1.49e+00	0	58	104	477102080	67	18391
2026-01-04 11:49:56.49	339.24	3.44	-52.7	-66.5	3.8	1.49e+00	0	58	104	477102080	67	18355
2026-01-04 11:49:57.48	339.30	3.38	-52.5	-66.5	3.8	1.49e+00	0	57	104	477102080	67	18346
2026-01-04 11:49:58.48	339.37	3.32	-52.5	-66.5	3.8	1.49e+00	0	57	104	477102080	67	18309
2026-01-04 11:49:59.47	339.44	3.26	-52.4	-66.4	3.8	1.49e+00	0	57	104	477102080	67	18288
2026-01-04 11:50:00.47	339.51	3.21	-52.6	-66.5	3.8	1.49e+00	0	58	104	477102080	67	18337
2026-01-04 11:50:01.46	339.57	3.15	-52.5	-66.5	3.8	1.49e+00	0	58	104	477102080	67	18335
2026-01-04 11:50:02.45	339.64	3.09	-52.6	-66.5	3.8	1.49e+00	0	58	104	477102080	67	18392
2026-01-04 11:50:03.43	339.70	3.03	-52.6	-66.5	3.8	1.49e+00	0	57	104	477102080	67	18319
2026-01-04 11:50:04.42	339.77	2.97	-52.6	-66.5	3.8	1.49e+00	0	58	104	477102080	67	18351
2026-01-04 11:50:05.41	339.83	2.92	-52.6	-66.5	3.8	1.49e+00	0	58	104	477102080	67	18370

#Closed at: 2026-01-04 11:50:05
#Recorded file [477 MB]: D:/Data/31026_260104_144930.dat