passes_logs/2026/01/04/R3.0SM8_Murmansk_STILSPACE/R3.0SM8_Murmansk_STILSPACE__20260104_103557_FENGYUN_3D_rec.log

#Pass ID: 20260104_103557_FENGYUN 3D
#Satellite: FENGYUN 3D
#Configuration: FENGYUN 3D
#almurnet v.1.7.20240730
#Start time: 2026-01-04 10:35:57

#Version: 2.2.20231116
#Station: R3.0SM8_Murmansk_STILSPACE
#Location: 33.092731 lon 68.902999 lat
#TLE: 1 43010U 17072A   26003.51579816  .00000092  00000+0  65324-4 0  9992
#TLE: 2 43010  98.9912 335.1548 0001916 128.4619 231.6729 14.19692074421623

#Time	Az	El	Level	Level2	SNR	BER	BlckErr	Temp	State	Recorded	gain1	gain2
2026-01-04 10:35:57.31	129.05	3.02	-52.3	-63.2	3.8	8.46e-01	0	45	0	0	66	13286
2026-01-04 10:35:58.29	129.03	3.09	-52.2	-63.1	3.8	8.46e-01	0	45	104	0	67	12431
2026-01-04 10:35:59.28	129.01	3.15	-52.2	-63.0	3.8	8.46e-01	0	46	104	0	67	12334
2026-01-04 10:36:00.27	128.99	3.22	-52.2	-63.0	3.8	8.45e-01	0	46	104	0	67	12260
2026-01-04 10:36:01.26	128.96	3.28	-52.2	-62.9	3.8	8.47e-01	0	46	104	0	67	12175
2026-01-04 10:36:02.26	128.94	3.35	-52.1	-62.9	3.8	8.47e-01	0	46	104	0	67	12104
2026-01-04 10:36:03.25	128.92	3.41	-51.9	-62.8	3.8	8.46e-01	0	46	104	0	66	12665
2026-01-04 10:36:04.24	128.90	3.48	-51.8	-62.6	3.8	8.47e-01	0	46	104	0	66	12490
2026-01-04 10:36:05.23	128.87	3.55	-51.4	-61.4	3.8	8.45e-01	0	46	104	0	66	10779
2026-01-04 10:36:06.23	128.85	3.61	-51.4	-61.1	3.8	8.46e-01	0	46	104	0	65	11147
2026-01-04 10:36:07.21	128.83	3.68	-51.2	-60.9	3.8	8.46e-01	0	46	104	0	65	10811
2026-01-04 10:36:08.20	128.81	3.75	-51.4	-60.6	3.8	8.45e-01	0	46	104	0	65	10487
2026-01-04 10:36:09.19	128.78	3.81	-51.2	-60.3	3.9	8.45e-01	0	46	104	0	65	10148
2026-01-04 10:36:10.18	128.76	3.88	-51.3	-60.0	3.8	8.44e-01	0	46	104	0	65	9767
2026-01-04 10:36:11.17	128.74	3.95	-51.2	-59.7	3.9	8.43e-01	0	46	104	0	65	9397
2026-01-04 10:36:12.15	128.72	4.01	-51.1	-59.1	4.1	8.41e-01	0	47	0	0	65	8783
2026-01-04 10:36:13.14	128.69	4.08	-50.9	-58.7	4.2	8.38e-01	0	47	0	0	64	8940
2026-01-04 10:36:14.13	128.67	4.15	-50.9	-58.3	4.3	8.33e-01	0	47	0	0	64	8558
2026-01-04 10:36:15.12	128.64	4.22	-50.9	-57.9	4.5	8.24e-01	0	47	0	0	64	8118
2026-01-04 10:36:16.11	128.62	4.28	-50.8	-57.4	4.6	8.10e-01	0	47	0	0	64	7699
2026-01-04 10:36:17.11	128.60	4.35	-50.7	-56.9	4.9	7.88e-01	0	47	0	0	64	7229
2026-01-04 10:36:18.09	128.57	4.42	-50.5	-56.5	5.2	7.57e-01	0	47	0	0	64	6900
2026-01-04 10:36:19.07	128.55	4.49	-50.4	-56.0	5.5	6.87e-01	0	47	0	0	63	6885
2026-01-04 10:36:20.06	128.53	4.56	-50.3	-55.3	6.0	3.99e-01	0	47	0	4194304	63	6390
2026-01-04 10:36:21.05	128.50	4.63	-50.1	-54.8	6.4	2.75e-01	0	47	0	9437184	63	6020
2026-01-04 10:36:22.04	128.48	4.70	-49.8	-53.9	7.2	1.76e-01	0	47	0	14680064	62	5750
2026-01-04 10:36:23.03	128.45	4.77	-49.5	-53.3	7.8	1.11e-01	0	47	0	20971520	62	5362
2026-01-04 10:36:24.03	128.43	4.84	-49.2	-52.6	8.5	5.83e-02	0	47	0	26214400	61	5269
2026-01-04 10:36:25.02	128.40	4.90	-48.9	-52.1	9.0	3.73e-02	0	48	0	31457280	61	4950
2026-01-04 10:36:26.01	128.38	4.97	-48.6	-51.6	9.6	1.80e-02	0	48	0	37748736	60	4930
2026-01-04 10:36:27.00	128.35	5.04	-48.4	-51.1	10.1	1.01e-02	0	48	0	42991616	59	4940
2026-01-04 10:36:27.98	128.33	5.11	-48.3	-50.9	10.3	7.68e-03	0	47	0	48234496	59	4858
2026-01-04 10:36:28.96	128.30	5.18	-48.7	-51.6	9.6	1.26e-02	0	48	0	53477376	59	5223
2026-01-04 10:36:29.94	128.28	5.25	-48.4	-51.1	10.1	9.91e-03	0	48	0	59768832	59	4966
2026-01-04 10:36:30.93	128.25	5.32	-48.0	-50.4	10.9	5.52e-03	0	48	0	65011712	59	4568
2026-01-04 10:36:31.92	128.23	5.39	-47.8	-50.1	11.1	2.19e-03	0	48	0	70254592	58	4692
2026-01-04 10:36:32.90	128.20	5.46	-47.6	-49.9	11.4	1.56e-03	0	48	0	75497472	58	4586
2026-01-04 10:36:33.89	128.17	5.54	-47.7	-50.0	11.3	1.72e-03	0	48	0	81788928	58	4600
2026-01-04 10:36:34.88	128.15	5.61	-47.7	-50.0	11.3	1.39e-03	0	48	0	87031808	58	4610
2026-01-04 10:36:35.87	128.12	5.68	-47.8	-50.2	11.1	1.78e-03	0	48	0	92274688	58	4728
2026-01-04 10:36:36.86	128.09	5.75	-47.6	-49.9	11.4	2.13e-03	0	48	0	98566144	58	4554
2026-01-04 10:36:37.85	128.07	5.82	-47.2	-49.2	12.1	6.49e-04	0	48	0	103809024	57	4467
2026-01-04 10:36:38.84	128.04	5.89	-46.9	-48.8	12.5	2.41e-04	0	48	0	109051904	57	4277
2026-01-04 10:36:39.83	128.01	5.97	-46.6	-48.4	13.0	8.12e-05	0	49	0	115343360	56	4314
2026-01-04 10:36:40.82	127.99	6.04	-46.1	-47.8	13.5	2.51e-05	0	48	0	120586240	55	4243
2026-01-04 10:36:41.80	127.96	6.11	-46.0	-47.6	13.7	2.05e-05	0	48	0	125829120	55	4168
2026-01-04 10:36:42.80	127.93	6.19	-45.7	-47.2	14.1	3.40e-06	0	49	0	131072000	54	4232
2026-01-04 10:36:43.79	127.90	6.26	-45.4	-46.8	14.5	2.20e-06	0	49	0	137363456	54	4031
2026-01-04 10:36:44.78	127.88	6.33	-45.3	-46.7	14.6	2.20e-06	0	49	0	142606336	53	4204
2026-01-04 10:36:45.76	127.85	6.40	-45.1	-46.5	14.8	0.00e+00	0	49	0	148897792	53	4100
2026-01-04 10:36:46.76	127.82	6.48	-45.1	-46.5	14.8	1.10e-06	0	49	0	154140672	53	4116
2026-01-04 10:36:47.74	127.79	6.55	-45.0	-46.4	14.9	0.00e+00	0	49	0	159383552	53	4055
2026-01-04 10:36:48.73	127.76	6.63	-45.3	-46.7	14.6	0.00e+00	0	49	0	164626432	53	4215
2026-01-04 10:36:49.72	127.74	6.70	-45.2	-46.5	14.8	0.00e+00	0	49	0	170917888	53	4115
2026-01-04 10:36:50.71	127.71	6.77	-44.9	-46.2	15.2	0.00e+00	0	49	0	176160768	53	3961
2026-01-04 10:36:51.70	127.68	6.85	-44.7	-45.9	15.4	0.00e+00	0	49	0	181403648	52	4078
2026-01-04 10:36:52.69	127.65	6.92	-44.4	-45.6	15.7	0.00e+00	0	49	0	187695104	52	3956
2026-01-04 10:36:53.68	127.62	7.00	-44.5	-45.7	15.6	0.00e+00	0	49	0	192937984	52	3998
2026-01-04 10:36:54.67	127.59	7.08	-44.5	-45.7	15.6	0.00e+00	0	49	0	198180864	52	3983
2026-01-04 10:36:55.67	127.56	7.15	-44.4	-45.6	15.8	0.00e+00	0	49	0	204472320	52	3927
2026-01-04 10:36:56.66	127.53	7.23	-44.6	-45.9	15.5	0.00e+00	0	49	0	209715200	52	4056
2026-01-04 10:36:57.65	127.50	7.30	-44.6	-45.8	15.6	0.00e+00	0	49	0	214958080	52	4022
2026-01-04 10:36:58.63	127.47	7.38	-44.5	-45.6	15.7	0.00e+00	0	50	0	221249536	52	3947
2026-01-04 10:36:59.63	127.44	7.46	-44.4	-45.6	15.9	0.00e+00	0	50	0	226492416	51	4164
2026-01-04 10:37:00.61	127.41	7.53	-44.4	-45.6	15.9	0.00e+00	0	50	0	231735296	51	4164
2026-01-04 10:37:01.60	127.38	7.61	-44.4	-45.5	16.0	0.00e+00	0	50	0	236978176	51	4136
2026-01-04 10:37:02.59	127.35	7.69	-44.6	-45.7	15.8	0.00e+00	0	50	0	243269632	51	4223
2026-01-04 10:37:03.59	127.32	7.76	-44.4	-45.5	16.0	0.00e+00	0	50	0	248512512	51	4136
2026-01-04 10:37:04.58	127.29	7.84	-44.3	-45.4	16.1	0.00e+00	0	50	0	253755392	51	4086
2026-01-04 10:37:05.57	127.26	7.92	-44.3	-45.4	16.1	0.00e+00	0	50	0	260046848	51	4093
2026-01-04 10:37:06.56	127.22	8.00	-44.4	-45.6	16.0	0.00e+00	0	50	0	265289728	51	4146
2026-01-04 10:37:07.55	127.19	8.08	-44.4	-45.6	15.9	0.00e+00	0	50	0	270532608	51	4157
2026-01-04 10:37:08.54	127.16	8.15	-44.3	-45.4	16.1	0.00e+00	0	50	0	276824064	51	4080
2026-01-04 10:37:09.52	127.13	8.23	-44.5	-45.6	15.9	0.00e+00	0	50	0	282066944	51	4179
2026-01-04 10:37:10.51	127.10	8.31	-44.4	-45.5	16.0	0.00e+00	0	50	0	287309824	51	4130
2026-01-04 10:37:11.50	127.06	8.39	-44.3	-45.4	16.2	0.00e+00	0	50	0	292552704	51	4070
2026-01-04 10:37:12.49	127.03	8.47	-44.2	-45.3	16.3	0.00e+00	0	50	0	298844160	51	4026
2026-01-04 10:37:13.48	127.00	8.55	-44.3	-45.4	16.1	0.00e+00	0	50	0	304087040	51	4085
2026-01-04 10:37:14.47	126.97	8.63	-44.4	-45.5	16.1	0.00e+00	0	50	0	310378496	51	4131
2026-01-04 10:37:15.46	126.93	8.71	-44.4	-45.6	16.0	0.00e+00	0	50	0	315621376	51	4155
2026-01-04 10:37:16.45	126.90	8.79	-44.5	-45.6	16.0	0.00e+00	0	50	0	320864256	51	4181
2026-01-04 10:37:17.45	126.87	8.87	-44.4	-45.5	16.1	0.00e+00	0	50	0	326107136	51	4136
2026-01-04 10:37:18.44	126.83	8.95	-44.5	-45.6	16.0	0.00e+00	0	51	0	332398592	51	4174
2026-01-04 10:37:19.43	126.80	9.03	-44.5	-45.6	16.0	0.00e+00	0	51	0	337641472	51	4159
2026-01-04 10:37:20.43	126.76	9.12	-44.4	-45.5	16.1	0.00e+00	0	51	0	342884352	51	4140
2026-01-04 10:37:21.41	126.73	9.20	-44.5	-45.6	16.0	0.00e+00	0	50	0	349175808	51	4176
2026-01-04 10:37:22.40	126.69	9.28	-44.2	-45.3	16.3	0.00e+00	0	51	0	354418688	51	4033
2026-01-04 10:37:23.39	126.66	9.36	-44.1	-45.1	16.5	0.00e+00	0	51	0	359661568	51	3935
2026-01-04 10:37:24.38	126.62	9.44	-44.1	-45.1	16.5	0.00e+00	0	51	0	365953024	51	3934
2026-01-04 10:37:25.37	126.59	9.53	-44.1	-45.2	16.4	0.00e+00	0	51	0	371195904	51	3973
2026-01-04 10:37:26.36	126.55	9.61	-44.4	-45.5	16.2	0.00e+00	0	51	0	376438784	51	4110
2026-01-04 10:37:27.35	126.52	9.69	-44.3	-45.4	16.2	0.00e+00	0	51	0	381681664	51	4083
2026-01-04 10:37:28.34	126.48	9.78	-44.4	-45.5	16.2	0.00e+00	0	51	0	387973120	51	4111
2026-01-04 10:37:29.32	126.45	9.86	-44.5	-45.6	16.1	0.00e+00	0	51	0	393216000	51	4164
2026-01-04 10:37:30.31	126.41	9.94	-44.6	-45.8	15.9	0.00e+00	0	51	0	398458880	51	4243
2026-01-04 10:37:31.30	126.37	10.03	-44.3	-45.4	16.3	0.00e+00	0	51	0	404750336	51	4071
2026-01-04 10:37:32.29	126.34	10.11	-44.2	-45.3	16.4	0.00e+00	0	51	0	409993216	51	4030
2026-01-04 10:37:33.28	126.30	10.20	-44.2	-45.3	16.3	0.00e+00	0	51	0	415236096	51	4048
2026-01-04 10:37:34.27	126.26	10.28	-44.3	-45.4	16.3	0.00e+00	0	51	0	421527552	51	4077
2026-01-04 10:37:35.26	126.22	10.37	-44.5	-45.7	16.0	0.00e+00	0	51	0	426770432	51	4203
2026-01-04 10:37:36.25	126.19	10.45	-44.2	-45.3	16.4	0.00e+00	0	51	0	432013312	51	4027
2026-01-04 10:37:37.24	126.15	10.54	-44.0	-45.1	16.6	0.00e+00	0	51	0	438304768	51	3937
2026-01-04 10:37:38.23	126.11	10.63	-43.8	-44.8	16.8	0.00e+00	0	51	0	443547648	50	4044
2026-01-04 10:37:39.22	126.07	10.71	-43.7	-44.8	16.9	0.00e+00	0	51	0	448790528	50	4005
2026-01-04 10:37:40.22	126.03	10.80	-43.8	-44.8	16.9	0.00e+00	0	51	0	455081984	50	4018
2026-01-04 10:37:41.21	125.99	10.89	-43.9	-44.9	16.8	0.00e+00	0	51	0	460324864	50	4069
2026-01-04 10:37:42.20	125.95	10.97	-44.0	-45.0	16.7	0.00e+00	0	51	0	465567744	50	4122
2026-01-04 10:37:43.18	125.91	11.06	-43.8	-44.9	16.9	0.00e+00	0	51	0	471859200	50	4052
2026-01-04 10:37:44.17	125.87	11.15	-43.9	-45.0	16.8	0.00e+00	0	51	0	477102080	50	4111
2026-01-04 10:37:45.17	125.83	11.24	-44.2	-45.2	16.5	0.00e+00	0	51	0	482344960	50	4230
2026-01-04 10:37:46.16	125.79	11.33	-43.9	-44.9	16.8	0.00e+00	0	52	0	487587840	50	4075
2026-01-04 10:37:47.15	125.75	11.42	-43.7	-44.7	17.1	0.00e+00	0	51	0	493879296	50	3959
2026-01-04 10:37:48.14	125.71	11.51	-43.6	-44.6	17.1	0.00e+00	0	51	0	499122176	50	3919
2026-01-04 10:37:49.12	125.67	11.59	-43.6	-44.6	17.1	0.00e+00	0	52	0	504365056	50	3931
2026-01-04 10:37:50.11	125.63	11.68	-43.5	-44.5	17.3	0.00e+00	0	52	0	510656512	50	3869
2026-01-04 10:37:51.10	125.59	11.77	-43.6	-44.5	17.2	0.00e+00	0	52	0	515899392	50	3907
2026-01-04 10:37:52.09	125.55	11.87	-43.7	-44.7	17.0	0.00e+00	0	52	0	521142272	50	3990
2026-01-04 10:37:53.08	125.50	11.96	-43.5	-44.5	17.3	0.00e+00	0	52	0	527433728	50	3877
2026-01-04 10:37:54.07	125.46	12.05	-43.3	-44.2	17.5	0.00e+00	0	52	0	532676608	49	3998
2026-01-04 10:37:55.06	125.42	12.14	-43.4	-44.3	17.4	0.00e+00	0	52	0	537919488	49	4025
2026-01-04 10:37:56.05	125.38	12.23	-43.3	-44.3	17.5	0.00e+00	0	52	0	543162368	49	4011
2026-01-04 10:37:57.04	125.33	12.32	-43.4	-44.3	17.4	0.00e+00	0	52	0	549453824	49	4045
2026-01-04 10:37:58.03	125.29	12.42	-43.5	-44.4	17.3	0.00e+00	0	52	0	554696704	49	4085
2026-01-04 10:37:59.03	125.24	12.51	-43.3	-44.2	17.5	0.00e+00	0	52	0	560988160	49	3981
2026-01-04 10:38:00.02	125.20	12.60	-43.2	-44.1	17.6	0.00e+00	0	52	0	566231040	49	3929
2026-01-04 10:38:01.01	125.16	12.70	-43.3	-44.2	17.5	0.00e+00	0	52	0	571473920	49	3984
2026-01-04 10:38:02.00	125.11	12.79	-43.2	-44.1	17.6	0.00e+00	0	52	0	576716800	49	3929
2026-01-04 10:38:02.99	125.07	12.88	-43.2	-44.1	17.7	0.00e+00	0	52	0	583008256	49	3918
2026-01-04 10:38:03.98	125.02	12.98	-43.4	-44.3	17.5	0.00e+00	0	52	0	588251136	49	4016
2026-01-04 10:38:04.96	124.97	13.07	-43.3	-44.3	17.5	0.00e+00	0	52	0	593494016	49	4007
2026-01-04 10:38:05.95	124.93	13.17	-43.4	-44.3	17.5	0.00e+00	0	52	0	599785472	49	4026
2026-01-04 10:38:06.93	124.88	13.26	-43.3	-44.2	17.5	0.00e+00	0	52	0	605028352	49	4004
2026-01-04 10:38:07.92	124.84	13.36	-43.5	-44.4	17.3	0.00e+00	0	52	0	610271232	49	4084
2026-01-04 10:38:08.92	124.79	13.46	-43.4	-44.3	17.4	0.00e+00	0	52	0	616562688	49	4049
2026-01-04 10:38:09.91	124.74	13.55	-43.3	-44.2	17.6	0.00e+00	0	52	0	621805568	49	3981
2026-01-04 10:38:10.90	124.69	13.65	-43.4	-44.4	17.4	0.00e+00	0	52	0	627048448	49	4055
2026-01-04 10:38:11.88	124.65	13.75	-43.2	-44.1	17.7	0.00e+00	0	52	0	632291328	49	3938
2026-01-04 10:38:12.87	124.60	13.84	-43.1	-44.0	17.8	0.00e+00	0	52	0	638582784	49	3882
2026-01-04 10:38:13.86	124.55	13.94	-43.2	-44.1	17.7	0.00e+00	0	52	0	643825664	49	3932
2026-01-04 10:38:14.85	124.50	14.04	-43.3	-44.2	17.6	0.00e+00	0	53	0	649068544	49	3982
2026-01-04 10:38:15.84	124.45	14.14	-43.2	-44.1	17.7	0.00e+00	0	52	0	655360000	49	3939
2026-01-04 10:38:16.83	124.40	14.24	-43.1	-44.0	17.8	0.00e+00	0	53	0	660602880	49	3882
2026-01-04 10:38:17.81	124.35	14.34	-43.2	-44.1	17.7	0.00e+00	0	52	0	665845760	49	3938
2026-01-04 10:38:18.81	124.30	14.44	-43.3	-44.2	17.6	0.00e+00	0	52	0	671088640	49	3987
2026-01-04 10:38:19.79	124.25	14.54	-43.2	-44.1	17.7	0.00e+00	0	53	0	677380096	49	3935
2026-01-04 10:38:20.78	124.20	14.64	-43.0	-43.9	17.9	0.00e+00	0	53	0	682622976	49	3861
2026-01-04 10:38:21.78	124.15	14.74	-42.9	-43.8	18.0	0.00e+00	0	53	0	688914432	49	3811
2026-01-04 10:38:22.77	124.09	14.84	-42.9	-43.8	18.0	0.00e+00	0	53	0	694157312	49	3805
2026-01-04 10:38:23.77	124.04	14.95	-42.8	-43.7	18.1	0.00e+00	0	53	0	699400192	48	3993
2026-01-04 10:38:24.76	123.99	15.05	-42.9	-43.8	18.0	0.00e+00	0	53	0	705691648	48	4029
2026-01-04 10:38:25.75	123.93	15.15	-43.2	-44.1	17.7	0.00e+00	0	53	0	710934528	48	4166
2026-01-04 10:38:26.74	123.88	15.25	-43.1	-44.0	17.8	0.00e+00	0	53	0	716177408	48	4107
2026-01-04 10:38:27.72	123.83	15.36	-42.7	-43.6	18.2	0.00e+00	0	53	0	721420288	48	3933
2026-01-04 10:38:28.71	123.77	15.46	-42.6	-43.5	18.3	0.00e+00	0	53	0	727711744	48	3878
2026-01-04 10:38:29.70	123.72	15.57	-42.6	-43.4	18.4	0.00e+00	0	53	0	732954624	48	3854
2026-01-04 10:38:30.69	123.66	15.67	-42.6	-43.5	18.3	0.00e+00	0	53	0	738197504	48	3873
2026-01-04 10:38:31.68	123.61	15.78	-42.6	-43.4	18.4	0.00e+00	0	53	0	744488960	48	3855
2026-01-04 10:38:32.67	123.55	15.88	-42.6	-43.4	18.4	0.00e+00	0	53	0	749731840	48	3851
2026-01-04 10:38:33.66	123.50	15.99	-42.7	-43.5	18.3	0.00e+00	0	53	0	754974720	48	3911
2026-01-04 10:38:34.65	123.44	16.09	-42.6	-43.4	18.4	0.00e+00	0	53	0	761266176	48	3868
2026-01-04 10:38:35.64	123.38	16.20	-42.4	-43.2	18.6	0.00e+00	0	53	0	766509056	48	3751
2026-01-04 10:38:36.62	123.32	16.31	-42.1	-42.9	18.8	0.00e+00	0	53	0	771751936	47	3835
2026-01-04 10:38:37.61	123.27	16.42	-42.1	-42.8	18.8	0.00e+00	0	53	0	776994816	47	3821
2026-01-04 10:38:38.60	123.21	16.52	-42.2	-43.0	18.6	0.00e+00	0	53	0	783286272	47	3890
2026-01-04 10:38:39.59	123.15	16.63	-42.4	-43.2	18.5	0.00e+00	0	53	0	788529152	47	3988
2026-01-04 10:38:40.57	123.09	16.74	-42.4	-43.2	18.5	0.00e+00	0	53	0	793772032	47	3963
2026-01-04 10:38:41.56	123.03	16.85	-42.0	-42.8	18.8	0.00e+00	0	53	0	800063488	47	3813
2026-01-04 10:38:42.55	122.97	16.96	-41.8	-42.5	19.1	0.00e+00	0	53	0	805306368	46	3903
2026-01-04 10:38:43.54	122.91	17.07	-41.6	-42.4	19.3	0.00e+00	0	53	0	810549248	46	3835
2026-01-04 10:38:44.53	122.85	17.18	-41.7	-42.4	19.2	0.00e+00	0	53	0	816840704	46	3849
2026-01-04 10:38:45.52	122.79	17.30	-41.8	-42.5	19.1	0.00e+00	0	53	0	822083584	46	3901
2026-01-04 10:38:46.50	122.72	17.41	-42.0	-42.7	18.9	0.00e+00	0	53	0	827326464	46	4003
2026-01-04 10:38:47.49	122.66	17.52	-42.0	-42.8	18.9	0.00e+00	0	53	0	832569344	46	4023
2026-01-04 10:38:48.48	122.60	17.63	-42.0	-42.8	18.9	0.00e+00	0	53	0	838860800	46	4017
2026-01-04 10:38:49.46	122.54	17.74	-42.2	-43.0	18.7	0.00e+00	0	53	0	844103680	46	4127
2026-01-04 10:38:50.45	122.47	17.86	-42.3	-43.2	18.5	0.00e+00	0	53	0	849346560	46	4199
2026-01-04 10:38:51.44	122.41	17.97	-42.2	-43.0	18.7	0.00e+00	0	53	0	855638016	46	4111
2026-01-04 10:38:52.44	122.34	18.09	-42.3	-43.1	18.6	0.00e+00	0	53	0	860880896	46	4185
2026-01-04 10:38:53.43	122.27	18.20	-42.4	-43.2	18.5	0.00e+00	0	53	0	866123776	46	4208
2026-01-04 10:38:54.41	122.21	18.32	-42.1	-42.9	18.7	0.00e+00	0	53	0	872415232	46	4094
2026-01-04 10:38:55.40	122.14	18.44	-42.1	-42.9	18.8	0.00e+00	0	54	0	877658112	46	4066
2026-01-04 10:38:56.38	122.08	18.55	-42.0	-42.8	18.8	0.00e+00	0	53	0	882900992	46	4048
2026-01-04 10:38:57.37	122.01	18.67	-42.1	-42.9	18.8	0.00e+00	0	53	0	889192448	46	4077
2026-01-04 10:38:58.35	121.94	18.79	-42.1	-42.9	18.8	0.00e+00	0	53	0	894435328	46	4076
2026-01-04 10:38:59.34	121.87	18.91	-42.3	-43.2	18.5	0.00e+00	0	53	0	899678208	46	4208
2026-01-04 10:39:00.32	121.80	19.02	-42.6	-43.5	18.2	0.00e+00	0	54	0	904921088	47	4116
2026-01-04 10:39:01.31	121.73	19.14	-42.2	-43.0	18.6	0.00e+00	0	54	0	911212544	47	3910
2026-01-04 10:39:02.30	121.66	19.26	-41.9	-42.6	19.0	0.00e+00	0	54	0	916455424	46	3958
2026-01-04 10:39:03.29	121.59	19.38	-41.6	-42.3	19.3	0.00e+00	0	53	0	921698304	46	3810
2026-01-04 10:39:04.28	121.52	19.50	-41.4	-42.2	19.4	0.00e+00	0	54	0	927989760	46	3758
2026-01-04 10:39:05.27	121.45	19.63	-41.4	-42.2	19.5	0.00e+00	0	54	0	933232640	46	3748
2026-01-04 10:39:06.26	121.37	19.75	-41.4	-42.2	19.5	0.00e+00	0	54	0	938475520	46	3739
2026-01-04 10:39:07.24	121.30	19.87	-41.5	-42.2	19.4	0.00e+00	0	54	0	943718400	46	3771
2026-01-04 10:39:08.22	121.23	19.99	-41.6	-42.4	19.3	0.00e+00	0	54	0	950009856	46	3836
2026-01-04 10:39:09.22	121.15	20.12	-41.7	-42.5	19.2	0.00e+00	0	54	0	955252736	46	3894
2026-01-04 10:39:10.21	121.07	20.24	-41.5	-42.2	19.5	0.00e+00	0	54	0	960495616	46	3757
2026-01-04 10:39:11.20	121.00	20.37	-41.3	-42.1	19.6	0.00e+00	0	54	0	966787072	45	3925
2026-01-04 10:39:12.20	120.92	20.49	-41.4	-42.1	19.5	0.00e+00	0	54	0	972029952	45	3934
2026-01-04 10:39:13.19	120.84	20.62	-41.4	-42.1	19.5	0.00e+00	0	54	0	977272832	45	3941
2026-01-04 10:39:14.18	120.77	20.75	-41.5	-42.2	19.4	0.00e+00	0	54	0	983564288	45	3996
2026-01-04 10:39:15.17	120.69	20.88	-41.4	-42.2	19.5	0.00e+00	0	54	0	988807168	45	3961
2026-01-04 10:39:16.16	120.61	21.00	-41.5	-42.3	19.4	0.00e+00	0	54	0	994050048	45	4025
2026-01-04 10:39:17.16	120.53	21.13	-41.6	-42.4	19.3	0.00e+00	0	54	0	1000341504	45	4071
2026-01-04 10:39:18.15	120.44	21.26	-41.4	-42.1	19.5	0.00e+00	0	54	0	1005584384	45	3947
2026-01-04 10:39:19.13	120.36	21.39	-41.2	-41.9	19.8	0.00e+00	0	54	0	1010827264	45	3835
2026-01-04 10:39:20.12	120.28	21.52	-41.0	-41.8	19.9	0.00e+00	0	54	0	1017118720	45	3788
2026-01-04 10:39:21.11	120.20	21.65	-41.0	-41.7	19.9	0.00e+00	0	54	0	1022361600	45	3776
2026-01-04 10:39:22.10	120.11	21.78	-41.0	-41.7	19.9	0.00e+00	0	54	0	1027604480	45	3756
2026-01-04 10:39:23.08	120.03	21.91	-41.1	-41.8	19.9	0.00e+00	0	54	0	1032847360	45	3799
2026-01-04 10:39:24.07	119.95	22.05	-41.3	-42.0	19.7	0.00e+00	0	54	0	1039138816	45	3898
2026-01-04 10:39:25.07	119.86	22.18	-41.0	-41.7	20.0	0.00e+00	0	54	0	1044381696	45	3741
2026-01-04 10:39:26.05	119.77	22.32	-40.8	-41.4	20.2	0.00e+00	0	54	0	1049624576	44	3862
2026-01-04 10:39:27.04	119.68	22.45	-40.8	-41.4	20.2	0.00e+00	0	54	0	1055916032	44	3862
2026-01-04 10:39:28.03	119.60	22.59	-40.7	-41.4	20.2	0.00e+00	0	54	0	1061158912	44	3841
2026-01-04 10:39:29.01	119.51	22.72	-40.8	-41.4	20.2	0.00e+00	0	54	0	1066401792	44	3861
2026-01-04 10:39:30.01	119.42	22.86	-40.8	-41.5	20.1	0.00e+00	0	54	0	1071644672	44	3898
2026-01-04 10:39:30.99	119.33	22.99	-41.0	-41.7	19.9	0.00e+00	0	54	0	1077936128	44	3989
2026-01-04 10:39:31.99	119.23	23.13	-40.9	-41.6	20.1	0.00e+00	0	54	0	1083179008	44	3921
2026-01-04 10:39:32.98	119.14	23.27	-40.8	-41.5	20.2	0.00e+00	0	54	0	1089470464	44	3876
2026-01-04 10:39:33.96	119.05	23.41	-40.9	-41.6	20.1	0.00e+00	0	54	0	1094713344	44	3933
2026-01-04 10:39:34.95	118.96	23.55	-41.0	-41.8	19.9	0.00e+00	0	54	0	1099956224	44	4007
2026-01-04 10:39:35.95	118.86	23.69	-40.9	-41.7	20.0	0.00e+00	0	54	0	1105199104	44	3959
2026-01-04 10:39:36.94	118.76	23.83	-41.0	-41.7	20.0	0.00e+00	0	54	0	1111490560	44	3997
2026-01-04 10:39:37.92	118.67	23.97	-41.2	-41.9	19.8	0.00e+00	0	54	0	1116733440	44	4097
2026-01-04 10:39:38.91	118.57	24.12	-41.1	-41.8	19.9	0.00e+00	0	54	0	1121976320	44	4022
2026-01-04 10:39:39.89	118.47	24.26	-40.9	-41.7	20.0	0.00e+00	0	54	0	1128267776	44	3959
2026-01-04 10:39:40.88	118.37	24.40	-41.0	-41.7	20.0	0.00e+00	0	54	0	1133510656	44	3996
2026-01-04 10:39:41.87	118.27	24.55	-41.3	-42.0	19.7	0.00e+00	0	54	0	1138753536	44	4117
2026-01-04 10:39:42.85	118.17	24.69	-41.1	-41.8	19.9	0.00e+00	0	54	0	1143996416	44	4025
2026-01-04 10:39:43.84	118.07	24.84	-40.9	-41.6	20.1	0.00e+00	0	54	0	1150287872	44	3930
2026-01-04 10:39:44.83	117.97	24.98	-40.7	-41.4	20.2	0.00e+00	0	54	0	1155530752	44	3862
2026-01-04 10:39:45.82	117.86	25.13	-40.7	-41.4	20.3	0.00e+00	0	55	0	1160773632	44	3843
2026-01-04 10:39:46.81	117.76	25.28	-40.7	-41.4	20.3	0.00e+00	0	54	0	1167065088	44	3828
2026-01-04 10:39:47.81	117.65	25.43	-40.8	-41.5	20.2	0.00e+00	0	54	0	1172307968	44	3897
2026-01-04 10:39:48.80	117.54	25.58	-41.1	-41.8	19.9	0.00e+00	0	54	0	1177550848	44	4017
2026-01-04 10:39:49.78	117.43	25.73	-40.9	-41.6	20.1	0.00e+00	0	54	0	1183842304	44	3920
2026-01-04 10:39:50.77	117.32	25.88	-40.6	-41.3	20.4	0.00e+00	0	54	0	1189085184	44	3781
2026-01-04 10:39:51.76	117.21	26.03	-40.4	-41.1	20.6	0.00e+00	0	55	0	1194328064	44	3699
2026-01-04 10:39:52.75	117.10	26.19	-40.2	-40.9	20.7	0.00e+00	0	55	0	1199570944	43	3831
2026-01-04 10:39:53.74	116.99	26.34	-40.2	-40.9	20.7	0.00e+00	0	55	0	1205862400	43	3836
2026-01-04 10:39:54.73	116.87	26.49	-40.2	-40.8	20.9	0.00e+00	0	55	0	1211105280	43	3800
2026-01-04 10:39:55.73	116.76	26.65	-40.3	-40.8	20.9	0.00e+00	0	55	0	1217396736	43	3824
2026-01-04 10:39:56.71	116.64	26.80	-40.4	-41.1	20.7	0.00e+00	0	55	0	1222639616	43	3917
2026-01-04 10:39:57.69	116.53	26.96	-40.4	-41.0	20.8	0.00e+00	0	55	0	1227882496	43	3871
2026-01-04 10:39:58.68	116.41	27.12	-40.3	-40.8	20.9	0.00e+00	0	55	0	1233125376	43	3823
2026-01-04 10:39:59.67	116.29	27.27	-40.1	-40.7	21.0	0.00e+00	0	55	0	1239416832	43	3764
2026-01-04 10:40:00.66	116.17	27.43	-40.1	-40.7	21.0	0.00e+00	0	55	0	1244659712	43	3748
2026-01-04 10:40:01.65	116.04	27.59	-40.1	-40.6	21.1	0.00e+00	0	55	0	1249902592	43	3731
2026-01-04 10:40:02.64	115.92	27.75	-40.2	-40.7	21.0	0.00e+00	0	55	0	1256194048	43	3775
2026-01-04 10:40:03.63	115.79	27.91	-40.2	-40.7	21.0	0.00e+00	0	55	0	1261436928	43	3779
2026-01-04 10:40:04.62	115.67	28.08	-40.2	-40.8	21.0	0.00e+00	0	55	0	1266679808	43	3783
2026-01-04 10:40:05.61	115.54	28.24	-40.3	-40.9	20.8	0.00e+00	0	55	0	1272971264	43	3855
2026-01-04 10:40:06.60	115.41	28.40	-40.2	-40.8	20.9	0.00e+00	0	55	0	1278214144	43	3795
2026-01-04 10:40:07.58	115.28	28.56	-40.1	-40.7	21.1	0.00e+00	0	55	0	1283457024	43	3738
2026-01-04 10:40:08.57	115.15	28.73	-40.2	-40.8	21.0	0.00e+00	0	55	0	1289748480	43	3789
2026-01-04 10:40:09.55	115.02	28.89	-40.5	-41.1	20.7	0.00e+00	0	55	0	1294991360	43	3929
2026-01-04 10:40:10.54	114.88	29.06	-40.7	-41.3	20.5	0.00e+00	0	55	0	1300234240	43	4011
2026-01-04 10:40:11.53	114.75	29.23	-40.7	-41.3	20.5	0.00e+00	0	55	0	1305477120	43	4022
2026-01-04 10:40:12.53	114.61	29.40	-40.7	-41.3	20.5	0.00e+00	0	55	0	1311768576	43	4040
2026-01-04 10:40:13.52	114.47	29.57	-40.4	-41.0	20.7	0.00e+00	0	55	0	1317011456	43	3906
2026-01-04 10:40:14.51	114.33	29.74	-40.3	-40.9	20.9	0.00e+00	0	55	0	1322254336	43	3848
2026-01-04 10:40:15.50	114.19	29.91	-40.2	-40.8	21.0	0.00e+00	0	55	0	1328545792	43	3816
2026-01-04 10:40:16.49	114.05	30.08	-40.2	-40.8	20.9	0.00e+00	0	55	0	1333788672	43	3812
2026-01-04 10:40:17.48	113.90	30.25	-40.4	-41.0	20.8	0.00e+00	0	55	0	1339031552	43	3872
2026-01-04 10:40:18.46	113.76	30.42	-40.4	-41.0	20.8	0.00e+00	0	55	0	1345323008	43	3899
2026-01-04 10:40:19.46	113.61	30.60	-40.2	-40.8	21.0	0.00e+00	0	55	0	1350565888	43	3806
2026-01-04 10:40:20.45	113.46	30.77	-40.1	-40.6	21.1	0.00e+00	0	55	0	1355808768	43	3728
2026-01-04 10:40:21.45	113.30	30.95	-40.0	-40.6	21.2	0.00e+00	0	55	0	1361051648	43	3709
2026-01-04 10:40:22.44	113.15	31.13	-40.0	-40.5	21.2	0.00e+00	0	55	0	1367343104	43	3689
2026-01-04 10:40:23.43	113.00	31.30	-39.8	-40.4	21.4	0.00e+00	0	55	0	1372585984	42	3840
2026-01-04 10:40:24.42	112.84	31.48	-39.7	-40.3	21.5	0.00e+00	0	55	0	1378877440	42	3790
2026-01-04 10:40:25.41	112.68	31.66	-39.7	-40.3	21.5	0.00e+00	0	55	0	1384120320	42	3786
2026-01-04 10:40:26.40	112.52	31.84	-39.8	-40.4	21.4	0.00e+00	0	55	0	1389363200	42	3845
2026-01-04 10:40:27.38	112.36	32.02	-39.9	-40.4	21.3	0.00e+00	0	55	0	1394606080	42	3863
2026-01-04 10:40:28.37	112.20	32.20	-39.7	-40.2	21.5	0.00e+00	0	55	0	1400897536	42	3772
2026-01-04 10:40:29.35	112.03	32.38	-39.8	-40.3	21.4	0.00e+00	0	55	0	1406140416	42	3816
2026-01-04 10:40:30.33	111.87	32.56	-40.0	-40.6	21.2	0.00e+00	0	55	0	1411383296	42	3929
2026-01-04 10:40:31.33	111.70	32.75	-40.1	-40.7	21.1	0.00e+00	0	55	0	1417674752	42	3961
2026-01-04 10:40:32.31	111.53	32.93	-39.8	-40.4	21.4	0.00e+00	0	55	0	1422917632	42	3839
2026-01-04 10:40:33.31	111.35	33.12	-39.7	-40.2	21.5	0.00e+00	0	55	0	1428160512	42	3778
2026-01-04 10:40:34.29	111.18	33.30	-39.7	-40.3	21.5	0.00e+00	0	55	0	1433403392	42	3789
2026-01-04 10:40:35.29	111.00	33.49	-39.8	-40.3	21.4	0.00e+00	0	55	0	1439694848	42	3820
2026-01-04 10:40:36.28	110.82	33.68	-39.7	-40.3	21.5	0.00e+00	0	55	0	1444937728	42	3789
2026-01-04 10:40:37.27	110.64	33.87	-39.8	-40.4	21.3	0.00e+00	0	55	0	1450180608	42	3850
2026-01-04 10:40:38.26	110.45	34.06	-39.6	-40.2	21.6	0.00e+00	0	55	0	1456472064	42	3744
2026-01-04 10:40:39.24	110.27	34.25	-39.5	-40.0	21.7	0.00e+00	0	55	0	1461714944	42	3683
2026-01-04 10:40:40.22	110.08	34.44	-39.5	-40.0	21.7	0.00e+00	0	55	0	1466957824	42	3681
2026-01-04 10:40:41.21	109.89	34.63	-39.5	-40.1	21.7	0.00e+00	0	55	0	1472200704	42	3704
2026-01-04 10:40:42.20	109.70	34.82	-39.7	-40.3	21.5	0.00e+00	0	55	0	1478492160	42	3791
2026-01-04 10:40:43.18	109.50	35.02	-39.8	-40.4	21.4	0.00e+00	0	55	0	1483735040	42	3849
2026-01-04 10:40:44.17	109.31	35.21	-39.7	-40.3	21.5	0.00e+00	0	55	0	1488977920	42	3786
2026-01-04 10:40:45.17	109.11	35.41	-39.7	-40.2	21.5	0.00e+00	0	55	0	1495269376	42	3772
2026-01-04 10:40:46.16	108.90	35.60	-39.8	-40.4	21.4	0.00e+00	0	55	0	1500512256	42	3834
2026-01-04 10:40:47.15	108.70	35.80	-40.1	-40.6	21.2	0.00e+00	0	55	0	1505755136	42	3941
2026-01-04 10:40:48.14	108.49	36.00	-39.8	-40.4	21.4	0.00e+00	0	55	0	1512046592	42	3833
2026-01-04 10:40:49.14	108.28	36.20	-39.7	-40.3	21.5	0.00e+00	0	56	0	1517289472	42	3802
2026-01-04 10:40:50.12	108.07	36.40	-39.8	-40.4	21.4	0.00e+00	0	55	0	1522532352	42	3827
2026-01-04 10:40:51.11	107.85	36.60	-39.8	-40.3	21.5	0.00e+00	0	55	0	1528823808	42	3818
2026-01-04 10:40:52.09	107.64	36.80	-40.1	-40.7	21.1	0.00e+00	0	55	0	1534066688	42	3986
2026-01-04 10:40:53.08	107.42	37.00	-40.0	-40.5	21.3	0.00e+00	0	55	0	1539309568	42	3904
2026-01-04 10:40:54.08	107.19	37.20	-40.3	-40.9	20.9	0.00e+00	0	55	0	1545601024	42	4057
2026-01-04 10:40:55.06	106.97	37.40	-40.0	-40.6	21.2	0.00e+00	0	55	0	1550843904	42	3920
2026-01-04 10:40:56.05	106.74	37.61	-39.8	-40.3	21.5	0.00e+00	0	55	0	1556086784	42	3820
2026-01-04 10:40:57.04	106.51	37.81	-39.8	-40.3	21.5	0.00e+00	0	55	0	1561329664	42	3807
2026-01-04 10:40:58.02	106.27	38.02	-40.0	-40.5	21.3	0.00e+00	0	55	0	1567621120	42	3898
2026-01-04 10:40:59.01	106.03	38.22	-40.0	-40.5	21.3	0.00e+00	0	55	0	1572864000	42	3899
2026-01-04 10:41:00.00	105.79	38.43	-40.0	-40.6	21.2	0.00e+00	0	55	0	1578106880	42	3942
2026-01-04 10:41:00.98	105.55	38.63	-40.2	-40.8	21.1	0.00e+00	0	56	0	1584398336	42	4012
2026-01-04 10:41:01.97	105.30	38.84	-39.8	-40.4	21.4	0.00e+00	0	55	0	1589641216	42	3834
2026-01-04 10:41:02.96	105.05	39.05	-39.6	-40.2	21.6	0.00e+00	0	55	0	1594884096	42	3756
2026-01-04 10:41:03.95	104.80	39.26	-39.6	-40.2	21.6	0.00e+00	0	55	0	1600126976	42	3743
2026-01-04 10:41:04.93	104.54	39.47	-39.8	-40.3	21.5	0.00e+00	0	55	0	1606418432	42	3810
2026-01-04 10:41:05.92	104.28	39.68	-39.5	-40.0	21.8	0.00e+00	0	55	0	1611661312	42	3681
2026-01-04 10:41:06.92	104.02	39.89	-39.5	-40.1	21.7	0.00e+00	0	55	0	1617952768	42	3704
2026-01-04 10:41:07.90	103.75	40.10	-39.8	-40.4	21.4	0.00e+00	0	56	0	1623195648	42	3838
2026-01-04 10:41:08.89	103.48	40.31	-39.9	-40.5	21.3	0.00e+00	0	56	0	1628438528	42	3898
2026-01-04 10:41:09.88	103.21	40.53	-40.2	-40.8	21.1	0.00e+00	0	56	0	1633681408	42	4023
2026-01-04 10:41:10.87	102.93	40.74	-40.2	-40.8	21.1	0.00e+00	0	55	0	1639972864	42	4005
2026-01-04 10:41:11.86	102.65	40.95	-40.2	-40.7	21.1	0.00e+00	0	56	0	1645215744	42	4000
2026-01-04 10:41:12.84	102.36	41.16	-40.1	-40.6	21.2	0.00e+00	0	55	0	1650458624	42	3943
2026-01-04 10:41:13.83	102.07	41.38	-40.1	-40.6	21.2	0.00e+00	0	55	0	1656750080	42	3942
2026-01-04 10:41:14.82	101.78	41.59	-40.2	-40.8	21.0	0.00e+00	0	56	0	1661992960	42	4029
2026-01-04 10:41:15.80	101.49	41.81	-40.2	-40.7	21.1	0.00e+00	0	55	0	1667235840	42	3999
2026-01-04 10:41:16.79	101.18	42.02	-40.3	-40.9	20.9	0.00e+00	0	56	0	1672478720	42	4097
2026-01-04 10:41:17.78	100.88	42.24	-40.3	-40.8	21.0	0.00e+00	0	56	0	1678770176	42	4050
2026-01-04 10:41:18.77	100.57	42.46	-40.1	-40.7	21.2	0.00e+00	0	56	0	1684013056	42	3968
2026-01-04 10:41:19.76	100.26	42.67	-39.9	-40.4	21.4	0.00e+00	0	55	0	1689255936	42	3863
2026-01-04 10:41:20.76	99.93	42.89	-39.8	-40.4	21.4	0.00e+00	0	56	0	1695547392	42	3840
2026-01-04 10:41:21.75	99.61	43.11	-40.2	-40.8	21.0	0.00e+00	0	56	0	1700790272	42	4027
2026-01-04 10:41:22.75	99.28	43.33	-40.3	-40.9	20.9	0.00e+00	0	56	0	1706033152	42	4079
2026-01-04 10:41:23.74	98.95	43.55	-40.5	-41.1	20.8	0.00e+00	0	56	0	1712324608	42	4166
2026-01-04 10:41:24.73	98.61	43.76	-40.2	-40.8	21.1	0.00e+00	0	56	0	1717567488	42	4007
2026-01-04 10:41:25.73	98.27	43.98	-39.7	-40.3	21.5	0.00e+00	0	56	0	1722810368	42	3791
2026-01-04 10:41:26.71	97.93	44.20	-39.5	-40.0	21.8	0.00e+00	0	55	0	1729101824	42	3674
2026-01-04 10:41:27.70	97.58	44.42	-39.5	-40.0	21.8	0.00e+00	0	56	0	1734344704	42	3685
2026-01-04 10:41:28.69	97.22	44.64	-39.5	-40.1	21.7	0.00e+00	0	56	0	1739587584	42	3713
2026-01-04 10:41:29.68	96.86	44.85	-39.7	-40.2	21.6	0.00e+00	0	56	0	1745879040	42	3772
2026-01-04 10:41:30.66	96.50	45.07	-39.7	-40.2	21.6	0.00e+00	0	56	0	1751121920	42	3767
2026-01-04 10:41:31.64	96.13	45.28	-39.9	-40.5	21.4	0.00e+00	0	56	0	1756364800	42	3886
2026-01-04 10:41:32.63	95.76	45.50	-39.9	-40.4	21.4	0.00e+00	0	56	0	1761607680	42	3868
2026-01-04 10:41:33.62	95.38	45.72	-39.8	-40.3	21.5	0.00e+00	0	56	0	1767899136	42	3807
2026-01-04 10:41:34.60	94.99	45.93	-40.0	-40.5	21.3	0.00e+00	0	56	0	1773142016	42	3906
2026-01-04 10:41:35.60	94.60	46.15	-40.2	-40.7	21.1	0.00e+00	0	56	0	1778384896	42	4001
2026-01-04 10:41:36.59	94.20	46.37	-40.3	-40.9	21.0	0.00e+00	0	56	0	1784676352	42	4065
2026-01-04 10:41:37.57	93.80	46.58	-40.4	-41.0	20.9	0.00e+00	0	56	0	1789919232	42	4100
2026-01-04 10:41:38.56	93.40	46.80	-40.4	-41.0	20.8	0.00e+00	0	56	0	1795162112	42	4138
2026-01-04 10:41:39.56	92.98	47.01	-40.6	-41.2	20.6	0.00e+00	0	56	0	1800404992	43	3987
2026-01-04 10:41:40.54	92.56	47.23	-40.5	-41.1	20.7	0.00e+00	0	56	0	1806696448	43	3941
2026-01-04 10:41:41.53	92.14	47.44	-40.4	-41.0	20.9	0.00e+00	0	56	0	1811939328	43	3880
2026-01-04 10:41:42.52	91.71	47.65	-40.5	-41.1	20.7	0.00e+00	0	56	0	1818230784	43	3941
2026-01-04 10:41:43.51	91.27	47.87	-40.8	-41.4	20.5	0.00e+00	0	56	0	1823473664	43	4091
2026-01-04 10:41:44.50	90.83	48.08	-40.9	-41.5	20.4	0.00e+00	0	56	0	1828716544	43	4120
2026-01-04 10:41:45.49	90.38	48.29	-40.9	-41.5	20.4	0.00e+00	0	56	0	1833959424	43	4123
2026-01-04 10:41:46.49	89.92	48.50	-41.0	-41.7	20.2	0.00e+00	0	56	0	1840250880	43	4210
2026-01-04 10:41:47.48	89.46	48.71	-41.1	-41.8	20.2	0.00e+00	0	56	0	1845493760	44	4017
2026-01-04 10:41:48.47	88.99	48.92	-40.8	-41.4	20.6	0.00e+00	0	56	0	1850736640	44	3863
2026-01-04 10:41:49.46	88.51	49.12	-40.8	-41.3	20.6	0.00e+00	0	56	0	1857028096	44	3822
2026-01-04 10:41:50.45	88.03	49.33	-40.9	-41.5	20.5	0.00e+00	0	56	0	1862270976	44	3879
2026-01-04 10:41:51.44	87.55	49.53	-41.0	-41.6	20.4	0.00e+00	0	56	0	1867513856	44	3948
2026-01-04 10:41:52.43	87.05	49.73	-41.1	-41.7	20.3	0.00e+00	0	56	0	1873805312	44	3998
2026-01-04 10:41:53.42	86.55	49.94	-41.2	-41.9	20.1	0.00e+00	0	56	0	1879048192	44	4058
2026-01-04 10:41:54.41	86.05	50.13	-41.5	-42.1	19.9	0.00e+00	0	56	0	1884291072	44	4172
2026-01-04 10:41:55.40	85.53	50.33	-41.6	-42.3	19.8	0.00e+00	0	56	0	1889533952	45	4015
2026-01-04 10:41:56.39	85.01	50.53	-41.2	-41.9	20.2	0.00e+00	0	56	0	1895825408	45	3826
2026-01-04 10:41:57.38	84.48	50.72	-40.8	-41.4	20.6	0.00e+00	0	56	0	1901068288	44	3856
2026-01-04 10:41:58.37	83.95	50.92	-40.8	-41.3	20.7	0.00e+00	0	56	0	1907359744	44	3822
2026-01-04 10:41:59.36	83.41	51.11	-40.9	-41.5	20.5	0.00e+00	0	56	0	1912602624	44	3904
2026-01-04 10:42:00.35	82.86	51.30	-40.8	-41.4	20.6	0.00e+00	0	56	0	1917845504	44	3840
2026-01-04 10:42:01.34	82.31	51.48	-40.7	-41.3	20.7	0.00e+00	0	56	0	1923088384	44	3792
2026-01-04 10:42:02.33	81.74	51.67	-40.9	-41.5	20.5	0.00e+00	0	56	0	1929379840	44	3913
2026-01-04 10:42:03.32	81.18	51.85	-41.2	-41.9	20.2	0.00e+00	0	56	0	1934622720	44	4054
2026-01-04 10:42:04.31	80.60	52.03	-40.9	-41.5	20.5	0.00e+00	0	56	0	1939865600	44	3908
2026-01-04 10:42:05.30	80.02	52.21	-41.0	-41.6	20.4	0.00e+00	0	56	0	1946157056	44	3954
2026-01-04 10:42:06.29	79.43	52.39	-40.7	-41.5	18.2	1.06e-02	0	56	0	1951399936	44	3881
2026-01-04 10:42:07.28	78.83	52.56	-40.2	-41.0	18.4	1.18e-02	0	56	0	1956642816	43	3874
2026-01-04 10:42:08.27	78.22	52.73	-40.7	-41.3	19.8	3.40e-06	0	56	0	1962934272	43	4033
2026-01-04 10:42:09.26	77.61	52.90	-41.0	-41.8	18.9	0.00e+00	0	56	0	1968177152	43	4256
2026-01-04 10:42:10.25	77.00	53.06	-40.9	-41.7	18.8	2.68e-03	0	56	0	1973420032	43	4227
2026-01-04 10:42:11.24	76.37	53.22	-41.1	-41.7	20.1	0.00e+00	0	56	0	1978662912	43	4223
2026-01-04 10:42:12.24	75.73	53.38	-41.1	-41.8	19.5	0.00e+00	0	56	0	1984954368	44	4045
2026-01-04 10:42:13.22	75.10	53.54	-41.2	-41.9	19.0	2.20e-04	0	56	0	1990197248	44	4085
2026-01-04 10:42:14.21	74.45	53.69	-41.5	-42.1	19.5	0.00e+00	0	56	0	1995440128	44	4185
2026-01-04 10:42:15.20	73.80	53.84	-41.6	-42.3	19.8	0.00e+00	0	56	0	2001731584	44	4250
2026-01-04 10:42:16.20	73.14	53.99	-41.9	-42.6	19.3	0.00e+00	0	56	0	2006974464	45	4160
2026-01-04 10:42:17.19	72.47	54.13	-41.2	-41.8	20.2	0.00e+00	0	56	0	2012217344	45	3824
2026-01-04 10:42:18.19	71.79	54.27	-40.8	-41.4	20.7	0.00e+00	0	56	0	2018508800	44	3825
2026-01-04 10:42:19.17	71.12	54.40	-41.0	-41.6	20.4	0.00e+00	0	56	0	2023751680	44	3947
2026-01-04 10:42:20.16	70.43	54.54	-41.1	-41.7	20.3	0.00e+00	0	56	0	2028994560	44	3993
2026-01-04 10:42:21.16	69.73	54.66	-40.7	-41.2	20.8	0.00e+00	0	56	0	2035286016	44	3779
2026-01-04 10:42:22.14	69.04	54.79	-40.3	-40.8	21.1	0.00e+00	0	56	0	2040528896	43	3812
2026-01-04 10:42:23.11	68.35	54.90	-40.2	-40.8	21.1	0.00e+00	0	56	0	2045771776	43	3785
2026-01-04 10:42:24.10	67.64	55.02	-40.2	-40.7	21.2	0.00e+00	0	56	0	2051014656	43	3763
2026-01-04 10:42:25.09	66.93	55.13	-40.5	-41.0	20.9	0.00e+00	0	56	0	2057306112	43	3913
2026-01-04 10:42:26.07	66.22	55.24	-40.8	-41.4	20.5	0.00e+00	0	56	0	2062548992	43	4072
2026-01-04 10:42:27.06	65.49	55.34	-40.8	-41.5	20.4	0.00e+00	0	56	0	2067791872	43	4104
2026-01-04 10:42:28.04	64.77	55.44	-40.6	-41.2	20.7	0.00e+00	0	56	0	2074083328	43	3981
2026-01-04 10:42:29.03	64.03	55.53	-40.7	-41.3	20.6	0.00e+00	0	56	0	2079326208	43	4038
2026-01-04 10:42:30.01	63.30	55.62	-40.9	-41.5	20.4	0.00e+00	0	56	0	2084569088	43	4125
2026-01-04 10:42:31.00	62.55	55.70	-40.4	-40.9	21.0	0.00e+00	0	56	0	2089811968	43	3866
2026-01-04 10:42:31.99	61.80	55.78	-40.4	-40.9	20.9	0.00e+00	0	56	0	2096103424	43	3865
2026-01-04 10:42:32.97	61.05	55.86	-40.8	-41.4	20.5	0.00e+00	0	56	0	2101346304	43	4076
2026-01-04 10:42:33.96	60.30	55.93	-40.6	-41.2	20.7	0.00e+00	0	56	0	2107637760	43	3984
2026-01-04 10:42:34.95	59.53	56.00	-40.3	-40.8	21.1	0.00e+00	0	56	0	2112880640	43	3811
2026-01-04 10:42:35.93	58.78	56.06	-40.5	-41.0	20.8	0.00e+00	0	56	0	2118123520	43	3912
2026-01-04 10:42:36.93	58.00	56.11	-40.8	-41.4	20.6	0.00e+00	0	56	0	2123366400	43	4062
2026-01-04 10:42:37.92	57.23	56.16	-41.3	-42.0	20.1	0.00e+00	0	56	0	2129657856	44	4099
2026-01-04 10:42:38.91	56.45	56.21	-41.2	-41.9	20.2	0.00e+00	0	56	0	2134900736	44	4062
2026-01-04 10:42:39.89	55.68	56.25	-41.2	-41.8	20.3	0.00e+00	0	56	0	2140143616	44	4035
2026-01-04 10:42:40.88	54.91	56.29	-41.3	-41.9	20.1	0.00e+00	0	56	0	2146435072	44	4087
2026-01-04 10:42:41.87	54.13	56.32	-41.0	-41.6	20.4	0.00e+00	0	56	0	2151677952	44	3938
2026-01-04 10:42:42.86	53.34	56.34	-40.6	-41.2	20.8	0.00e+00	0	56	0	2156920832	44	3768
2026-01-04 10:42:43.85	52.56	56.36	-40.5	-41.1	21.0	0.00e+00	0	56	0	2162163712	44	3696
2026-01-04 10:42:44.84	51.78	56.38	-41.0	-41.6	20.5	0.00e+00	0	56	0	2168455168	44	3934
2026-01-04 10:42:45.83	50.99	56.39	-41.0	-41.6	20.5	0.00e+00	0	56	0	2173698048	44	3928
2026-01-04 10:42:46.82	50.20	56.39	-40.9	-41.5	20.5	0.00e+00	0	56	0	2178940928	44	3896
2026-01-04 10:42:47.82	49.41	56.39	-41.0	-41.6	20.4	0.00e+00	0	56	0	2185232384	44	3956
2026-01-04 10:42:48.81	48.63	56.38	-41.4	-42.1	20.0	0.00e+00	0	56	0	2190475264	44	4157
2026-01-04 10:42:49.79	47.85	56.37	-41.2	-41.8	20.2	0.00e+00	0	56	0	2195718144	44	4043
2026-01-04 10:42:50.78	47.06	56.36	-40.9	-41.5	20.6	0.00e+00	0	56	0	2202009600	44	3877
2026-01-04 10:42:51.77	46.28	56.34	-41.0	-41.6	20.4	0.00e+00	0	56	0	2207252480	44	3949
2026-01-04 10:42:52.77	45.49	56.31	-41.1	-41.7	20.4	0.00e+00	0	56	0	2212495360	44	3984
2026-01-04 10:42:53.76	44.71	56.28	-41.4	-42.0	20.0	0.00e+00	0	56	0	2217738240	44	4139
2026-01-04 10:42:54.75	43.93	56.24	-41.1	-41.7	20.4	0.00e+00	0	56	0	2224029696	44	3978
2026-01-04 10:42:55.74	43.16	56.20	-40.7	-41.3	20.8	0.00e+00	0	56	0	2229272576	44	3782
2026-01-04 10:42:56.72	42.39	56.15	-40.7	-41.3	20.8	0.00e+00	0	56	0	2235564032	44	3782
2026-01-04 10:42:57.72	41.61	56.10	-40.9	-41.5	20.5	0.00e+00	0	56	0	2240806912	44	3907
2026-01-04 10:42:58.71	40.85	56.04	-40.8	-41.4	20.7	0.00e+00	0	56	0	2246049792	44	3827
2026-01-04 10:42:59.70	40.08	55.98	-40.8	-41.4	20.6	0.00e+00	0	56	0	2251292672	44	3844
2026-01-04 10:43:00.69	39.32	55.91	-41.0	-41.6	20.4	0.00e+00	0	56	0	2257584128	44	3931
2026-01-04 10:43:01.68	38.57	55.84	-40.8	-41.5	20.6	0.00e+00	0	56	0	2262827008	44	3870
2026-01-04 10:43:02.66	37.82	55.76	-40.6	-41.2	20.8	0.00e+00	0	56	0	2268069888	44	3765
2026-01-04 10:43:03.65	37.07	55.68	-40.5	-41.1	20.9	0.00e+00	0	56	0	2274361344	44	3721
2026-01-04 10:43:04.64	36.33	55.60	-40.4	-41.0	21.0	0.00e+00	0	56	0	2279604224	44	3669
2026-01-04 10:43:05.63	35.59	55.51	-40.5	-41.0	21.0	0.00e+00	0	56	0	2284847104	44	3681
2026-01-04 10:43:06.62	34.85	55.41	-40.4	-41.0	21.0	0.00e+00	0	56	0	2291138560	44	3663
2026-01-04 10:43:07.60	34.13	55.31	-40.1	-40.6	21.3	0.00e+00	0	56	0	2296381440	43	3718
2026-01-04 10:43:08.59	33.41	55.21	-40.1	-40.7	21.2	0.00e+00	0	56	0	2301624320	43	3746
2026-01-04 10:43:09.57	32.70	55.10	-40.2	-40.8	21.1	0.00e+00	0	56	0	2306867200	43	3800
2026-01-04 10:43:10.56	31.98	54.99	-40.2	-40.8	21.1	0.00e+00	0	56	0	2313158656	43	3785
2026-01-04 10:43:11.55	31.28	54.87	-40.0	-40.6	21.3	0.00e+00	0	56	0	2318401536	43	3714
2026-01-04 10:43:12.54	30.57	54.75	-40.3	-40.8	21.1	0.00e+00	0	56	0	2323644416	43	3818
2026-01-04 10:43:13.53	29.88	54.63	-40.4	-41.0	20.9	0.00e+00	0	56	0	2329935872	43	3890
2026-01-04 10:43:14.51	29.20	54.50	-40.2	-40.8	21.1	0.00e+00	0	56	0	2335178752	43	3804
2026-01-04 10:43:15.50	28.51	54.37	-40.2	-40.8	21.1	0.00e+00	0	56	0	2340421632	43	3791
2026-01-04 10:43:16.48	27.84	54.23	-40.2	-40.8	21.1	0.00e+00	0	56	0	2345664512	43	3784
2026-01-04 10:43:17.47	27.17	54.09	-40.3	-40.9	21.0	0.00e+00	0	56	0	2351955968	43	3825
2026-01-04 10:43:18.46	26.51	53.95	-40.6	-41.2	20.8	0.00e+00	0	57	0	2357198848	43	3963
2026-01-04 10:43:19.44	25.86	53.80	-40.6	-41.2	20.8	0.00e+00	0	56	0	2362441728	43	3965
2026-01-04 10:43:20.44	25.20	53.65	-40.4	-41.0	20.9	0.00e+00	0	56	0	2368733184	43	3894
2026-01-04 10:43:21.43	24.56	53.50	-40.3	-40.8	21.1	0.00e+00	0	56	0	2373976064	43	3810
2026-01-04 10:43:22.42	23.92	53.34	-40.5	-41.1	20.8	0.00e+00	0	56	0	2379218944	43	3939
2026-01-04 10:43:23.42	23.29	53.18	-40.6	-41.2	20.7	0.00e+00	0	56	0	2385510400	43	3989
2026-01-04 10:43:24.41	22.66	53.02	-40.5	-41.1	20.8	0.00e+00	0	56	0	2390753280	43	3918
2026-01-04 10:43:25.40	22.05	52.85	-40.5	-41.1	20.8	0.00e+00	0	56	0	2395996160	43	3934
2026-01-04 10:43:26.39	21.44	52.69	-40.6	-41.2	20.7	0.00e+00	0	56	0	2402287616	43	3976
2026-01-04 10:43:27.38	20.84	52.52	-40.6	-41.2	20.7	0.00e+00	0	56	0	2407530496	43	3979
2026-01-04 10:43:28.37	20.24	52.34	-40.7	-41.3	20.6	0.00e+00	0	56	0	2412773376	43	4032
2026-01-04 10:43:29.35	19.66	52.17	-41.1	-41.7	20.3	0.00e+00	0	56	0	2418016256	43	4206
2026-01-04 10:43:30.34	19.08	51.99	-41.2	-41.9	20.2	0.00e+00	0	56	0	2424307712	44	4054
2026-01-04 10:43:31.34	18.50	51.81	-41.3	-41.9	20.1	0.00e+00	0	56	0	2429550592	44	4093
2026-01-04 10:43:32.33	17.94	51.62	-41.5	-42.2	19.9	0.00e+00	0	57	0	2435842048	44	4199
2026-01-04 10:43:33.32	17.38	51.44	-41.6	-42.3	19.8	0.00e+00	0	56	0	2441084928	45	4011
2026-01-04 10:43:34.31	16.82	51.25	-41.3	-41.9	20.1	0.00e+00	0	56	0	2446327808	45	3862
2026-01-04 10:43:35.30	16.28	51.06	-41.3	-42.0	20.1	0.00e+00	0	56	0	2451570688	45	3885
2026-01-04 10:43:36.29	15.74	50.87	-41.4	-42.1	20.0	0.00e+00	0	57	0	2457862144	45	3930
2026-01-04 10:43:37.28	15.21	50.68	-41.2	-41.8	20.2	0.00e+00	0	56	0	2463105024	45	3794
2026-01-04 10:43:38.27	14.68	50.48	-40.9	-41.5	20.5	0.00e+00	0	57	0	2468347904	45	3677
2026-01-04 10:43:39.26	14.17	50.29	-40.9	-41.5	20.5	0.00e+00	0	56	0	2474639360	45	3668
2026-01-04 10:43:40.25	13.66	50.09	-40.9	-41.5	20.5	0.00e+00	0	56	0	2479882240	44	3903
2026-01-04 10:43:41.25	13.15	49.89	-41.3	-41.9	20.1	0.00e+00	0	56	0	2485125120	44	4073
2026-01-04 10:43:42.23	12.65	49.69	-41.0	-41.7	20.4	0.00e+00	0	56	0	2491416576	44	3967
2026-01-04 10:43:43.23	12.16	49.48	-41.3	-42.0	20.1	0.00e+00	0	56	0	2496659456	44	4111
2026-01-04 10:43:44.21	11.68	49.28	-41.2	-41.8	20.2	0.00e+00	0	56	0	2501902336	44	4048
2026-01-04 10:43:45.20	11.20	49.07	-41.4	-42.1	19.9	0.00e+00	0	56	0	2507145216	44	4167
2026-01-04 10:43:46.19	10.73	48.87	-41.7	-42.3	19.7	0.00e+00	0	56	0	2513436672	45	4049
2026-01-04 10:43:47.18	10.26	48.66	-41.8	-42.4	19.6	0.00e+00	0	56	0	2518679552	45	4091
2026-01-04 10:43:48.17	9.80	48.45	-41.4	-42.1	20.0	0.00e+00	0	56	0	2524971008	45	3919
2026-01-04 10:43:49.16	9.35	48.24	-41.1	-41.7	20.3	0.00e+00	0	56	0	2530213888	45	3772
2026-01-04 10:43:50.14	8.91	48.03	-40.8	-41.4	20.6	0.00e+00	0	56	0	2535456768	44	3857
2026-01-04 10:43:51.13	8.47	47.82	-40.8	-41.4	20.6	0.00e+00	0	56	0	2540699648	44	3843
2026-01-04 10:43:52.13	8.03	47.61	-40.9	-41.5	20.6	0.00e+00	0	56	0	2546991104	44	3876
2026-01-04 10:43:53.12	7.60	47.40	-41.4	-42.1	19.9	0.00e+00	0	56	0	2552233984	44	4161
2026-01-04 10:43:54.12	7.17	47.18	-41.0	-41.6	20.4	0.00e+00	0	56	0	2557476864	44	3931
2026-01-04 10:43:55.11	6.75	46.97	-40.6	-41.2	20.8	0.00e+00	0	56	0	2563768320	44	3753
2026-01-04 10:43:56.10	6.34	46.75	-40.2	-40.8	21.1	0.00e+00	0	56	0	2569011200	43	3808
2026-01-04 10:43:57.09	5.94	46.54	-40.0	-40.5	21.3	0.00e+00	0	56	0	2574254080	43	3682
2026-01-04 10:43:58.07	5.54	46.32	-39.9	-40.4	21.4	0.00e+00	0	56	0	2580545536	43	3639
2026-01-04 10:43:59.06	5.15	46.11	-40.0	-40.6	21.3	0.00e+00	0	57	0	2585788416	43	3696
2026-01-04 10:44:00.05	4.76	45.89	-39.8	-40.4	21.5	0.00e+00	0	56	0	2591031296	42	3836
2026-01-04 10:44:01.04	4.37	45.67	-39.9	-40.5	21.4	0.00e+00	0	56	0	2596274176	42	3881
2026-01-04 10:44:02.03	3.99	45.46	-40.2	-40.7	21.1	0.00e+00	0	56	0	2602565632	42	3996
2026-01-04 10:44:03.03	3.62	45.24	-39.6	-40.2	21.7	0.00e+00	0	57	0	2607808512	42	3744
2026-01-04 10:44:04.02	3.25	45.02	-39.3	-39.8	21.9	0.00e+00	0	57	0	2614099968	41	3824
2026-01-04 10:44:05.00	2.89	44.81	-39.3	-39.8	21.9	0.00e+00	0	56	0	2619342848	41	3818
2026-01-04 10:44:05.99	2.53	44.59	-39.6	-40.1	21.7	0.00e+00	0	56	0	2624585728	41	3946
2026-01-04 10:44:06.98	2.18	44.37	-39.9	-40.5	21.3	0.00e+00	0	56	0	2629828608	41	4111
2026-01-04 10:44:07.97	1.83	44.15	-40.0	-40.6	21.2	0.00e+00	0	57	0	2636120064	41	4180
2026-01-04 10:44:08.95	1.49	43.94	-39.7	-40.2	21.6	0.00e+00	0	57	0	2641362944	41	3995
2026-01-04 10:44:09.94	1.15	43.72	-39.4	-39.9	21.8	0.00e+00	0	57	0	2646605824	41	3857
2026-01-04 10:44:10.93	0.82	43.50	-39.3	-39.8	21.9	0.00e+00	0	56	0	2652897280	41	3804
2026-01-04 10:44:11.91	0.49	43.29	-39.5	-40.0	21.8	0.00e+00	0	56	0	2658140160	41	3899
2026-01-04 10:44:12.90	0.16	43.07	-39.4	-40.0	21.8	0.00e+00	0	56	0	2663383040	41	3873
2026-01-04 10:44:13.89	359.84	42.86	-39.7	-40.2	21.6	0.00e+00	0	57	0	2668625920	41	3986
2026-01-04 10:44:14.88	359.53	42.64	-39.6	-40.1	21.7	0.00e+00	0	56	0	2674917376	41	3943
2026-01-04 10:44:15.87	359.21	42.42	-39.4	-39.9	21.8	0.00e+00	0	56	0	2680160256	41	3854
2026-01-04 10:44:16.86	358.90	42.21	-39.3	-39.8	21.9	0.00e+00	0	57	0	2686451712	41	3816
2026-01-04 10:44:17.85	358.60	41.99	-39.2	-39.8	22.0	0.00e+00	0	57	0	2691694592	41	3783
2026-01-04 10:44:18.84	358.30	41.78	-39.3	-39.8	21.9	0.00e+00	0	56	0	2696937472	41	3823
2026-01-04 10:44:19.84	358.00	41.56	-39.5	-40.1	21.7	0.00e+00	0	56	0	2702180352	41	3925
2026-01-04 10:44:20.83	357.71	41.35	-39.7	-40.2	21.6	0.00e+00	0	56	0	2708471808	41	3990
2026-01-04 10:44:21.82	357.42	41.13	-39.6	-40.2	21.6	0.00e+00	0	56	0	2713714688	41	3972
2026-01-04 10:44:22.81	357.14	40.92	-39.6	-40.2	21.6	0.00e+00	0	56	0	2718957568	41	3962
2026-01-04 10:44:23.80	356.86	40.70	-39.8	-40.4	21.4	0.00e+00	0	57	0	2725249024	41	4053
2026-01-04 10:44:24.79	356.58	40.49	-39.7	-40.3	21.5	0.00e+00	0	57	0	2730491904	41	4024
2026-01-04 10:44:25.78	356.31	40.28	-39.7	-40.2	21.6	0.00e+00	0	57	0	2735734784	41	3999
2026-01-04 10:44:26.77	356.04	40.07	-39.8	-40.3	21.4	0.00e+00	0	56	0	2742026240	41	4039
2026-01-04 10:44:27.75	355.77	39.86	-40.0	-40.5	21.3	0.00e+00	0	56	0	2747269120	41	4138
2026-01-04 10:44:28.74	355.51	39.65	-39.8	-40.4	21.4	0.00e+00	0	57	0	2752512000	41	4061
2026-01-04 10:44:29.73	355.25	39.44	-39.5	-40.0	21.7	0.00e+00	0	56	0	2757754880	41	3897
2026-01-04 10:44:30.72	355.00	39.23	-39.3	-39.8	21.9	0.00e+00	0	57	0	2764046336	41	3786
2026-01-04 10:44:31.71	354.74	39.02	-39.2	-39.7	22.0	0.00e+00	0	56	0	2769289216	41	3769
2026-01-04 10:44:32.69	354.50	38.82	-39.2	-39.7	22.1	0.00e+00	0	57	0	2774532096	41	3757
2026-01-04 10:44:33.69	354.25	38.61	-39.3	-39.8	21.9	0.00e+00	0	57	0	2780823552	41	3815
2026-01-04 10:44:34.67	354.01	38.40	-39.5	-40.0	21.8	0.00e+00	0	57	0	2786066432	41	3900
2026-01-04 10:44:35.66	353.77	38.20	-39.5	-40.1	21.7	0.00e+00	0	57	0	2791309312	41	3914
2026-01-04 10:44:36.65	353.53	37.99	-39.6	-40.2	21.6	0.00e+00	0	57	0	2796552192	41	3973
2026-01-04 10:44:37.64	353.30	37.79	-39.6	-40.2	21.6	0.00e+00	0	57	0	2802843648	41	3983
2026-01-04 10:44:38.63	353.07	37.58	-39.6	-40.2	21.6	0.00e+00	0	56	0	2808086528	41	3965
2026-01-04 10:44:39.62	352.84	37.38	-39.8	-40.3	21.5	0.00e+00	0	57	0	2814377984	41	4043
2026-01-04 10:44:40.62	352.61	37.17	-39.7	-40.3	21.5	0.00e+00	0	57	0	2819620864	41	4018
2026-01-04 10:44:41.60	352.39	36.97	-39.6	-40.1	21.6	0.00e+00	0	57	0	2824863744	41	3957
2026-01-04 10:44:42.58	352.17	36.78	-39.6	-40.1	21.6	0.00e+00	0	57	0	2830106624	41	3946
2026-01-04 10:44:43.57	351.96	36.58	-39.7	-40.2	21.6	0.00e+00	0	57	0	2836398080	41	3974
2026-01-04 10:44:44.56	351.74	36.38	-39.8	-40.4	21.4	0.00e+00	0	57	0	2841640960	41	4053
2026-01-04 10:44:45.55	351.53	36.18	-39.9	-40.4	21.3	0.00e+00	0	56	0	2846883840	41	4096
2026-01-04 10:44:46.54	351.32	35.98	-40.1	-40.7	21.1	0.00e+00	0	57	0	2853175296	41	4202
2026-01-04 10:44:47.54	351.11	35.78	-40.0	-40.6	21.2	0.00e+00	0	57	0	2858418176	42	3946
2026-01-04 10:44:48.53	350.91	35.58	-39.7	-40.2	21.5	0.00e+00	0	56	0	2863661056	42	3774
2026-01-04 10:44:49.53	350.71	35.39	-39.4	-40.0	21.8	0.00e+00	0	57	0	2869952512	42	3658
2026-01-04 10:44:50.52	350.51	35.19	-39.4	-39.9	21.8	0.00e+00	0	56	0	2875195392	41	3847
2026-01-04 10:44:51.51	350.31	35.00	-39.4	-39.9	21.8	0.00e+00	0	56	0	2880438272	41	3858
2026-01-04 10:44:52.50	350.12	34.80	-39.5	-40.0	21.7	0.00e+00	0	57	0	2885681152	41	3905
2026-01-04 10:44:53.49	349.93	34.61	-39.5	-40.0	21.7	0.00e+00	0	57	0	2891972608	41	3903
2026-01-04 10:44:54.47	349.74	34.42	-39.2	-39.7	22.0	0.00e+00	0	57	0	2897215488	41	3765
2026-01-04 10:44:55.46	349.55	34.23	-39.1	-39.6	22.1	0.00e+00	0	57	0	2903506944	41	3695
2026-01-04 10:44:56.45	349.37	34.04	-39.1	-39.6	22.1	0.00e+00	0	57	0	2908749824	41	3699
2026-01-04 10:44:57.44	349.18	33.85	-39.1	-39.6	22.1	0.00e+00	0	57	0	2913992704	41	3708
2026-01-04 10:44:58.43	349.00	33.66	-39.2	-39.7	22.0	0.00e+00	0	57	0	2919235584	41	3750
2026-01-04 10:44:59.43	348.82	33.47	-39.3	-39.8	21.9	0.00e+00	0	56	0	2925527040	41	3812
2026-01-04 10:45:00.42	348.65	33.29	-39.4	-40.0	21.7	0.00e+00	0	57	0	2930769920	41	3870
2026-01-04 10:45:01.41	348.47	33.10	-39.4	-39.9	21.8	0.00e+00	0	57	0	2936012800	41	3868
2026-01-04 10:45:02.40	348.30	32.92	-39.5	-40.0	21.7	0.00e+00	0	57	0	2942304256	41	3898
2026-01-04 10:45:03.39	348.13	32.73	-39.6	-40.2	21.5	0.00e+00	0	57	0	2947547136	41	3985
2026-01-04 10:45:04.38	347.96	32.55	-39.7	-40.3	21.4	0.00e+00	0	57	0	2952790016	41	4027
2026-01-04 10:45:05.37	347.79	32.37	-39.6	-40.1	21.6	0.00e+00	0	57	0	2959081472	41	3950
2026-01-04 10:45:06.36	347.63	32.19	-39.7	-40.2	21.5	0.00e+00	0	57	0	2964324352	41	4004
2026-01-04 10:45:07.35	347.47	32.00	-39.8	-40.3	21.4	0.00e+00	0	56	0	2969567232	41	4035
2026-01-04 10:45:08.34	347.31	31.82	-39.6	-40.1	21.6	0.00e+00	0	57	0	2974810112	41	3932
2026-01-04 10:45:09.33	347.15	31.65	-39.4	-40.0	21.7	0.00e+00	0	57	0	2981101568	41	3881
2026-01-04 10:45:10.32	346.99	31.47	-39.4	-40.0	21.7	0.00e+00	0	57	0	2986344448	41	3882
2026-01-04 10:45:11.30	346.84	31.29	-39.5	-40.1	21.7	0.00e+00	0	57	0	2991587328	41	3919
2026-01-04 10:45:12.29	346.68	31.11	-39.6	-40.1	21.6	0.00e+00	0	57	0	2997878784	41	3936
2026-01-04 10:45:13.28	346.53	30.94	-39.7	-40.2	21.5	0.00e+00	0	57	0	3003121664	41	3996
2026-01-04 10:45:14.26	346.38	30.77	-39.8	-40.3	21.4	0.00e+00	0	57	0	3008364544	41	4035
2026-01-04 10:45:15.26	346.23	30.59	-39.9	-40.4	21.3	0.00e+00	0	57	0	3014656000	41	4079
2026-01-04 10:45:16.25	346.08	30.42	-39.8	-40.4	21.3	0.00e+00	0	57	0	3019898880	41	4056
2026-01-04 10:45:17.25	345.94	30.24	-39.9	-40.5	21.2	0.00e+00	0	57	0	3025141760	41	4102
2026-01-04 10:45:18.23	345.79	30.07	-40.0	-40.6	21.1	0.00e+00	0	56	0	3031433216	41	4165
2026-01-04 10:45:19.22	345.65	29.90	-40.0	-40.5	21.2	0.00e+00	0	57	0	3036676096	41	4139
2026-01-04 10:45:20.21	345.51	29.73	-40.1	-40.7	21.0	0.00e+00	0	57	0	3041918976	42	3986
2026-01-04 10:45:21.19	345.37	29.56	-40.1	-40.7	21.1	0.00e+00	0	57	0	3047161856	42	3961
2026-01-04 10:45:22.18	345.23	29.40	-40.2	-40.8	20.9	0.00e+00	0	57	0	3053453312	42	4039
2026-01-04 10:45:23.17	345.10	29.23	-40.4	-41.0	20.8	0.00e+00	0	57	0	3058696192	42	4110
2026-01-04 10:45:24.15	344.96	29.06	-40.2	-40.8	21.0	0.00e+00	0	57	0	3063939072	42	4012
2026-01-04 10:45:25.14	344.83	28.90	-40.3	-40.8	20.9	0.00e+00	0	57	0	3070230528	42	4044
2026-01-04 10:45:26.13	344.70	28.73	-40.1	-40.6	21.1	0.00e+00	0	57	0	3075473408	42	3958
2026-01-04 10:45:27.12	344.57	28.57	-40.1	-40.6	21.1	0.00e+00	0	57	0	3080716288	42	3942
2026-01-04 10:45:28.12	344.44	28.40	-40.1	-40.7	21.0	0.00e+00	0	57	0	3087007744	42	3986
2026-01-04 10:45:29.10	344.31	28.24	-40.1	-40.7	21.1	0.00e+00	0	57	0	3092250624	42	3960
2026-01-04 10:45:30.09	344.18	28.08	-40.1	-40.7	21.0	0.00e+00	0	57	0	3097493504	42	3981
2026-01-04 10:45:31.08	344.06	27.92	-39.9	-40.5	21.2	0.00e+00	0	57	0	3103784960	42	3889
2026-01-04 10:45:32.07	343.93	27.76	-39.9	-40.4	21.3	0.00e+00	0	57	0	3109027840	42	3854
2026-01-04 10:45:33.06	343.81	27.60	-39.9	-40.4	21.3	0.00e+00	0	56	0	3114270720	42	3861
2026-01-04 10:45:34.04	343.69	27.44	-40.0	-40.6	21.1	0.00e+00	0	57	0	3119513600	42	3934
2026-01-04 10:45:35.03	343.57	27.28	-39.9	-40.4	21.2	0.00e+00	0	57	0	3125805056	42	3861
2026-01-04 10:45:36.02	343.45	27.12	-40.1	-40.6	21.1	0.00e+00	0	57	0	3131047936	42	3942
2026-01-04 10:45:37.00	343.33	26.97	-40.2	-40.8	20.9	0.00e+00	0	57	0	3136290816	42	4017
2026-01-04 10:45:37.99	343.22	26.81	-40.1	-40.7	21.0	0.00e+00	0	57	0	3142582272	42	3993
2026-01-04 10:45:38.98	343.10	26.66	-40.3	-40.9	20.9	0.00e+00	0	57	0	3147825152	42	4059
2026-01-04 10:45:39.97	342.99	26.50	-40.2	-40.8	20.9	0.00e+00	0	57	0	3153068032	42	4018
2026-01-04 10:45:40.95	342.87	26.35	-40.2	-40.8	20.9	0.00e+00	0	57	0	3158310912	42	4036
2026-01-04 10:45:41.95	342.76	26.20	-40.2	-40.8	20.9	0.00e+00	0	57	0	3164602368	42	4017
2026-01-04 10:45:42.94	342.65	26.04	-40.4	-41.0	20.7	0.00e+00	0	57	0	3169845248	42	4135
2026-01-04 10:45:43.92	342.54	25.89	-40.2	-40.8	20.9	0.00e+00	0	57	0	3175088128	42	4033
2026-01-04 10:45:44.91	342.43	25.74	-40.4	-41.0	20.7	0.00e+00	0	57	0	3181379584	42	4131
2026-01-04 10:45:45.90	342.32	25.59	-40.8	-41.4	20.3	0.00e+00	0	57	0	3186622464	43	4065
2026-01-04 10:45:46.89	342.22	25.45	-40.5	-41.1	20.6	0.00e+00	0	57	0	3191865344	43	3927
2026-01-04 10:45:47.88	342.11	25.30	-40.2	-40.8	20.8	0.00e+00	0	57	0	3198156800	43	3820
2026-01-04 10:45:48.86	342.01	25.15	-40.0	-40.6	21.1	0.00e+00	0	57	0	3203399680	43	3698
2026-01-04 10:45:49.85	341.90	25.00	-39.9	-40.5	21.2	0.00e+00	0	57	0	3208642560	43	3655
2026-01-04 10:45:50.84	341.80	24.86	-39.9	-40.5	21.1	0.00e+00	0	57	0	3213885440	43	3680
2026-01-04 10:45:51.83	341.70	24.71	-40.0	-40.6	21.1	0.00e+00	0	57	0	3220176896	43	3720
2026-01-04 10:45:52.83	341.60	24.56	-40.2	-40.8	20.9	0.00e+00	0	57	0	3225419776	43	3803
2026-01-04 10:45:53.82	341.50	24.42	-40.1	-40.6	21.0	0.00e+00	0	57	0	3231711232	43	3730
2026-01-04 10:45:54.80	341.40	24.28	-39.9	-40.5	21.1	0.00e+00	0	57	0	3236954112	43	3672
2026-01-04 10:45:55.78	341.30	24.14	-40.0	-40.5	21.1	0.00e+00	0	57	0	3242196992	43	3685
2026-01-04 10:45:56.77	341.20	23.99	-40.1	-40.6	21.0	0.00e+00	0	57	0	3247439872	43	3727
2026-01-04 10:45:57.76	341.11	23.85	-40.1	-40.7	21.0	0.00e+00	0	57	0	3253731328	43	3759
2026-01-04 10:45:58.76	341.01	23.71	-40.2	-40.8	20.9	0.00e+00	0	57	0	3258974208	43	3782
2026-01-04 10:45:59.75	340.92	23.57	-40.4	-40.9	20.7	0.00e+00	0	57	0	3264217088	43	3863
2026-01-04 10:46:00.75	340.82	23.43	-40.3	-40.9	20.7	0.00e+00	0	57	0	3270508544	43	3850
2026-01-04 10:46:01.73	340.73	23.29	-40.5	-41.1	20.6	0.00e+00	0	57	0	3275751424	43	3927
2026-01-04 10:46:02.72	340.64	23.15	-40.4	-41.0	20.7	0.00e+00	0	57	0	3280994304	43	3893
2026-01-04 10:46:03.71	340.55	23.02	-40.3	-40.9	20.7	0.00e+00	0	57	0	3287285760	43	3866
2026-01-04 10:46:04.70	340.46	22.88	-40.3	-40.9	20.8	0.00e+00	0	57	0	3292528640	43	3836
2026-01-04 10:46:05.69	340.37	22.74	-40.4	-41.0	20.7	0.00e+00	0	57	0	3297771520	43	3878
2026-01-04 10:46:06.68	340.28	22.61	-40.5	-41.2	20.5	0.00e+00	0	57	0	3304062976	43	3959
2026-01-04 10:46:07.67	340.19	22.47	-40.5	-41.1	20.5	0.00e+00	0	57	0	3309305856	43	3930
2026-01-04 10:46:08.65	340.11	22.34	-40.2	-40.8	20.8	0.00e+00	0	57	0	3314548736	43	3813
2026-01-04 10:46:09.63	340.02	22.21	-40.3	-40.9	20.6	0.00e+00	0	57	0	3319791616	43	3863
2026-01-04 10:46:10.62	339.94	22.08	-40.5	-41.1	20.5	0.00e+00	0	57	0	3326083072	43	3935
2026-01-04 10:46:11.61	339.85	21.94	-40.7	-41.4	20.2	0.00e+00	0	57	0	3331325952	43	4053
2026-01-04 10:46:12.61	339.77	21.81	-40.6	-41.3	20.3	0.00e+00	0	57	0	3336568832	43	4007
2026-01-04 10:46:13.60	339.68	21.68	-40.3	-40.9	20.6	0.00e+00	0	57	0	3342860288	43	3845
2026-01-04 10:46:14.59	339.60	21.55	-40.1	-40.7	20.8	0.00e+00	0	57	0	3348103168	43	3743
2026-01-04 10:46:15.58	339.52	21.42	-40.1	-40.7	20.7	0.00e+00	0	57	0	3353346048	43	3752
2026-01-04 10:46:16.57	339.44	21.29	-40.4	-41.1	20.2	0.00e+00	0	57	0	3359637504	43	3916
2026-01-04 10:46:17.56	339.36	21.16	-40.9	-41.5	19.7	0.00e+00	0	57	0	3364880384	43	4144
2026-01-04 10:46:18.54	339.28	21.03	-41.3	-42.0	19.3	0.00e+00	0	57	0	3370123264	44	4126
2026-01-04 10:46:19.53	339.20	20.91	-41.6	-42.3	18.9	0.00e+00	0	57	0	3375366144	44	4283
2026-01-04 10:46:20.52	339.12	20.78	-42.0	-42.7	18.4	0.00e+00	0	57	0	3381657600	45	4242
2026-01-04 10:46:21.52	339.04	20.65	-42.6	-43.5	17.7	0.00e+00	0	57	0	3386900480	47	4117
2026-01-04 10:46:22.51	338.97	20.52	-43.4	-44.4	16.9	0.00e+00	0	57	0	3393191936	48	4312
2026-01-04 10:46:23.49	338.89	20.40	-43.9	-44.9	16.4	0.00e+00	0	57	0	3398434816	49	4328
2026-01-04 10:46:24.48	338.81	20.28	-43.9	-45.0	16.3	0.00e+00	0	57	0	3403677696	49	4359
2026-01-04 10:46:25.46	338.74	20.15	-43.6	-44.6	16.7	0.00e+00	0	57	0	3408920576	49	4160
2026-01-04 10:46:26.46	338.67	20.03	-43.4	-44.3	16.9	0.00e+00	0	57	0	3414163456	49	4045
2026-01-04 10:46:27.45	338.59	19.91	-43.4	-44.4	16.9	0.00e+00	0	57	0	3420454912	49	4083
2026-01-04 10:46:28.43	338.52	19.78	-43.5	-44.5	16.8	0.00e+00	0	57	0	3425697792	49	4099
2026-01-04 10:46:29.42	338.45	19.66	-43.3	-44.3	17.0	0.00e+00	0	57	0	3431989248	49	4012
2026-01-04 10:46:30.42	338.37	19.54	-43.4	-44.3	17.0	0.00e+00	0	57	0	3437232128	49	4035
2026-01-04 10:46:31.41	338.30	19.42	-43.4	-44.3	17.1	0.00e+00	0	57	0	3442475008	49	4030
2026-01-04 10:46:32.40	338.23	19.30	-43.3	-44.2	17.1	0.00e+00	0	57	0	3447717888	49	3999
2026-01-04 10:46:33.38	338.16	19.18	-43.4	-44.3	17.0	0.00e+00	0	57	0	3454009344	49	4051
2026-01-04 10:46:34.38	338.09	19.06	-43.1	-44.0	17.4	0.00e+00	0	57	0	3459252224	49	3894
2026-01-04 10:46:35.36	338.02	18.94	-42.4	-43.2	18.3	0.00e+00	0	57	0	3464495104	48	3763
2026-01-04 10:46:36.35	337.96	18.82	-41.8	-42.6	18.8	0.00e+00	0	57	0	3470786560	46	3920
2026-01-04 10:46:37.33	337.89	18.71	-41.5	-42.2	19.1	0.00e+00	0	57	0	3476029440	46	3778
2026-01-04 10:46:38.31	337.82	18.59	-41.2	-41.9	19.5	0.00e+00	0	57	0	3481272320	45	3827
2026-01-04 10:46:39.30	337.76	18.47	-41.1	-41.7	19.7	0.00e+00	0	57	0	3486515200	45	3773
2026-01-04 10:46:40.28	337.69	18.36	-41.4	-42.1	19.4	0.00e+00	0	57	0	3492806656	45	3927
2026-01-04 10:46:41.27	337.62	18.24	-41.6	-42.3	19.2	0.00e+00	0	57	0	3498049536	45	4035
2026-01-04 10:46:42.25	337.56	18.13	-41.7	-42.4	19.2	0.00e+00	0	57	0	3503292416	45	4081
2026-01-04 10:46:43.25	337.49	18.01	-41.9	-42.6	19.0	0.00e+00	0	57	0	3509583872	45	4177
2026-01-04 10:46:44.24	337.43	17.90	-41.8	-42.6	19.1	0.00e+00	0	57	0	3514826752	45	4153
2026-01-04 10:46:45.22	337.37	17.79	-41.9	-42.7	19.0	0.00e+00	0	57	0	3520069632	45	4206
2026-01-04 10:46:46.20	337.30	17.67	-42.0	-42.8	18.9	0.00e+00	0	57	0	3525312512	45	4252
2026-01-04 10:46:47.19	337.24	17.56	-41.8	-42.5	19.1	0.00e+00	0	57	0	3531603968	45	4144
2026-01-04 10:46:48.17	337.18	17.45	-41.7	-42.4	19.2	0.00e+00	0	57	0	3536846848	45	4091
2026-01-04 10:46:49.16	337.12	17.34	-41.8	-42.5	19.2	0.00e+00	0	57	0	3542089728	45	4131
2026-01-04 10:46:50.15	337.06	17.23	-41.8	-42.5	19.2	0.00e+00	0	57	0	3548381184	45	4112
2026-01-04 10:46:51.14	337.00	17.12	-41.8	-42.5	19.2	0.00e+00	0	57	0	3553624064	45	4118
2026-01-04 10:46:52.13	336.94	17.01	-41.8	-42.5	19.1	0.00e+00	0	57	0	3558866944	45	4145
2026-01-04 10:46:53.12	336.88	16.90	-42.0	-42.7	18.9	0.00e+00	0	57	0	3565158400	45	4234
2026-01-04 10:46:54.11	336.82	16.79	-41.8	-42.5	19.2	0.00e+00	0	57	0	3570401280	45	4114
2026-01-04 10:46:55.11	336.76	16.68	-41.7	-42.4	19.3	0.00e+00	0	57	0	3575644160	45	4060
2026-01-04 10:46:56.10	336.70	16.57	-41.7	-42.4	19.2	0.00e+00	0	57	0	3581935616	45	4096
2026-01-04 10:46:57.10	336.64	16.46	-41.9	-42.6	19.1	0.00e+00	0	57	0	3587178496	45	4152
2026-01-04 10:46:58.08	336.58	16.35	-42.0	-42.7	18.9	0.00e+00	0	57	0	3592421376	45	4242
2026-01-04 10:46:59.08	336.53	16.24	-41.8	-42.5	19.1	0.00e+00	0	57	0	3598712832	45	4139
2026-01-04 10:47:00.06	336.47	16.14	-41.9	-42.6	19.0	0.00e+00	0	57	0	3603955712	45	4160
2026-01-04 10:47:01.04	336.41	16.03	-41.9	-42.6	19.1	0.00e+00	0	57	0	3609198592	45	4155
2026-01-04 10:47:02.04	336.36	15.93	-42.0	-42.8	18.9	0.00e+00	0	57	0	3614441472	45	4246
2026-01-04 10:47:03.02	336.30	15.82	-42.1	-42.8	18.8	0.00e+00	0	57	0	3620732928	45	4258
2026-01-04 10:47:04.01	336.25	15.72	-42.2	-42.9	18.7	0.00e+00	0	57	0	3625975808	46	4070
2026-01-04 10:47:05.01	336.19	15.61	-42.3	-43.0	18.6	0.00e+00	0	57	0	3631218688	46	4141
2026-01-04 10:47:06.00	336.14	15.51	-42.2	-43.0	18.7	0.00e+00	0	57	0	3637510144	46	4106
2026-01-04 10:47:06.99	336.09	15.40	-42.2	-42.9	18.8	0.00e+00	0	57	0	3642753024	46	4071
2026-01-04 10:47:07.98	336.03	15.30	-42.2	-42.9	18.7	0.00e+00	0	57	0	3647995904	46	4089
2026-01-04 10:47:08.98	335.98	15.20	-42.4	-43.2	18.4	0.00e+00	0	57	0	3654287360	46	4232
2026-01-04 10:47:09.97	335.93	15.09	-42.3	-43.0	18.6	0.00e+00	0	57	0	3659530240	46	4141
2026-01-04 10:47:10.96	335.87	14.99	-42.2	-42.9	18.7	0.00e+00	0	57	0	3664773120	46	4088
2026-01-04 10:47:11.95	335.82	14.89	-42.3	-43.1	18.6	0.00e+00	0	57	0	3671064576	46	4154
2026-01-04 10:47:12.94	335.77	14.79	-42.6	-43.4	18.3	0.00e+00	0	57	0	3676307456	47	4083
