passes_logs/2026/01/04/R3.0SM8_Murmansk_STILSPACE/R3.0SM8_Murmansk_STILSPACE__20260104_231437_AQUA_rec.log

#Pass ID: 20260104_231437_AQUA
#Satellite: AQUA
#Configuration: AQUA
#almurnet v.1.7.20240730
#Start time: 2026-01-04 23:14:37

#Version: 2.2.20231116
#Station: R3.0SM8_Murmansk_STILSPACE
#Location: 33.092731 lon 68.902999 lat
#TLE: 1 27424U 02022A   26003.93831470  .00001925  00000+0  39553-3 0  9995
#TLE: 2 27424  98.4067 330.1809 0002003  92.1713 343.8415 14.61796291259276

#Time	Az	El	Level	Level2	SNR	BER	BlckErr	Temp	State	Recorded	gain1	gain2
2026-01-04 23:14:37.01	24.57	2.99	-54.4	-74.3	3.8	7.44e-01	0	45	0	0	71	36812
2026-01-04 23:14:37.99	24.68	3.04	-54.3	-74.2	3.8	7.47e-01	0	46	104	0	70	38656
2026-01-04 23:14:38.99	24.80	3.09	-54.3	-74.2	3.8	7.46e-01	0	46	104	0	70	38523
2026-01-04 23:14:39.97	24.91	3.13	-54.3	-74.2	3.8	7.44e-01	0	46	104	0	70	38576
2026-01-04 23:14:40.96	25.03	3.18	-54.2	-74.2	3.8	7.44e-01	0	46	104	0	70	38487
2026-01-04 23:14:41.96	25.15	3.22	-54.2	-74.2	3.8	7.42e-01	0	46	104	0	70	38511
2026-01-04 23:14:42.95	25.27	3.27	-54.2	-74.2	3.8	7.46e-01	0	46	104	0	70	38348
2026-01-04 23:14:43.94	25.38	3.32	-54.2	-74.1	3.8	7.47e-01	0	46	104	0	70	38147
2026-01-04 23:14:44.93	25.50	3.36	-54.1	-74.1	3.8	7.43e-01	0	46	104	0	70	38035
2026-01-04 23:14:45.91	25.62	3.41	-54.1	-74.1	3.8	7.42e-01	0	46	104	0	70	37883
2026-01-04 23:14:46.90	25.74	3.45	-54.1	-74.0	3.8	7.46e-01	0	46	104	0	70	37792
2026-01-04 23:14:47.89	25.85	3.50	-54.1	-74.0	3.8	7.45e-01	0	46	104	0	70	37602
2026-01-04 23:14:48.87	25.97	3.55	-54.0	-73.9	3.8	7.47e-01	0	46	104	0	70	37250
2026-01-04 23:14:49.86	26.09	3.59	-53.9	-73.8	3.8	7.46e-01	0	46	104	0	70	36831
2026-01-04 23:14:50.85	26.21	3.64	-53.8	-73.7	3.8	7.47e-01	0	47	104	0	70	36306
2026-01-04 23:14:51.83	26.33	3.68	-53.6	-73.5	3.8	7.46e-01	0	47	104	0	70	35284
2026-01-04 23:14:52.82	26.45	3.73	-52.6	-73.0	3.8	7.46e-01	0	47	104	0	68	37490
2026-01-04 23:14:53.81	26.57	3.78	-51.9	-72.9	3.8	7.45e-01	0	47	104	0	67	39273
2026-01-04 23:14:54.81	26.70	3.82	-52.2	-73.0	3.8	7.46e-01	0	47	104	0	67	39598
2026-01-04 23:14:55.81	26.82	3.87	-52.3	-73.0	3.8	7.45e-01	0	47	104	0	67	39722
2026-01-04 23:14:56.79	26.94	3.92	-53.1	-72.9	3.8	7.48e-01	0	47	104	0	68	37349
2026-01-04 23:14:57.79	27.06	3.96	-53.2	-72.8	3.8	7.45e-01	0	47	104	0	68	36802
2026-01-04 23:14:58.78	27.19	4.01	-53.1	-72.6	3.8	7.44e-01	0	47	104	0	68	35744
2026-01-04 23:14:59.77	27.31	4.05	-53.1	-72.2	3.8	7.46e-01	0	47	104	0	68	34348
2026-01-04 23:15:00.75	27.43	4.10	-51.5	-71.9	3.8	7.43e-01	0	47	104	0	66	37065
2026-01-04 23:15:01.74	27.56	4.15	-52.1	-71.6	3.8	7.44e-01	0	47	104	0	66	35936
2026-01-04 23:15:02.74	27.68	4.19	-52.3	-71.6	3.8	7.44e-01	0	48	104	0	66	35698
2026-01-04 23:15:03.72	27.81	4.24	-52.3	-71.7	3.8	7.45e-01	0	47	104	0	67	34466
2026-01-04 23:15:04.71	27.93	4.28	-53.2	-72.1	3.8	7.42e-01	0	47	104	0	68	34024
2026-01-04 23:15:05.70	28.06	4.33	-53.2	-72.6	3.8	7.46e-01	0	48	104	0	68	35937
2026-01-04 23:15:06.69	28.19	4.38	-53.2	-72.9	3.8	7.42e-01	0	48	104	0	68	37020
2026-01-04 23:15:07.68	28.31	4.42	-53.2	-72.6	3.8	7.44e-01	0	48	104	0	68	35932
2026-01-04 23:15:08.67	28.44	4.47	-53.2	-72.1	3.8	7.45e-01	0	48	104	0	68	34064
2026-01-04 23:15:09.66	28.57	4.51	-53.1	-71.6	3.8	7.42e-01	0	48	104	0	68	32011
2026-01-04 23:15:10.64	28.69	4.56	-53.1	-71.3	3.8	7.47e-01	0	48	104	0	68	30973
2026-01-04 23:15:11.63	28.82	4.60	-53.1	-71.0	3.9	7.43e-01	0	48	104	0	68	29718
2026-01-04 23:15:12.62	28.95	4.65	-53.1	-71.4	3.8	7.39e-01	0	48	104	0	68	31189
2026-01-04 23:15:13.59	29.08	4.70	-53.1	-70.6	4.0	7.42e-01	0	48	104	0	68	28432
2026-01-04 23:15:14.58	29.21	4.74	-53.1	-69.5	3.8	7.37e-01	0	48	104	0	68	25257
2026-01-04 23:15:15.58	29.34	4.79	-53.0	-66.3	5.7	6.90e-01	91	48	0	0	68	17399
2026-01-04 23:15:16.57	29.47	4.83	-52.8	-63.6	8.0	6.44e-01	79	48	0	1572864	68	12786
2026-01-04 23:15:17.56	29.60	4.88	-52.5	-61.4	10.3	6.16e-01	0	48	0	3670016	68	9853
2026-01-04 23:15:18.55	29.73	4.92	-52.2	-59.4	12.4	6.05e-01	0	49	0	5242880	68	7871
2026-01-04 23:15:19.55	29.87	4.97	-51.7	-57.7	14.1	6.01e-01	0	48	0	7340032	67	6808
2026-01-04 23:15:20.54	30.00	5.02	-51.3	-56.3	15.6	6.01e-01	0	48	0	8912896	66	6158
2026-01-04 23:15:21.53	30.13	5.06	-51.1	-55.8	16.1	5.99e-01	0	49	0	11010048	65	6185
2026-01-04 23:15:22.52	30.26	5.11	-51.2	-56.2	15.7	6.01e-01	0	49	0	13107200	65	6452
2026-01-04 23:15:23.50	30.40	5.15	-51.2	-56.2	15.8	6.00e-01	0	49	0	14680064	65	6451
2026-01-04 23:15:24.49	30.53	5.20	-51.1	-55.8	16.1	6.00e-01	0	49	0	16777216	65	6191
2026-01-04 23:15:25.48	30.67	5.24	-51.0	-55.6	16.4	6.03e-01	0	49	0	18350080	65	5995
2026-01-04 23:15:26.48	30.80	5.29	-50.8	-55.2	16.8	6.04e-01	0	49	0	20447232	65	5737
2026-01-04 23:15:27.47	30.94	5.33	-50.8	-55.0	17.0	6.03e-01	0	49	0	22020096	65	5617
2026-01-04 23:15:28.46	31.07	5.38	-50.7	-55.0	17.1	6.01e-01	0	49	0	24117248	65	5598
2026-01-04 23:15:29.45	31.21	5.43	-50.7	-54.8	17.2	6.04e-01	0	49	0	25690112	64	5801
2026-01-04 23:15:30.45	31.35	5.47	-50.4	-54.3	17.7	6.03e-01	0	49	0	27787264	64	5471
2026-01-04 23:15:31.44	31.49	5.52	-50.3	-54.1	17.8	6.03e-01	0	49	0	29360128	64	5355
2026-01-04 23:15:32.43	31.62	5.56	-50.2	-53.8	18.2	6.02e-01	0	49	0	31457280	63	5485
2026-01-04 23:15:33.42	31.76	5.61	-50.1	-53.5	18.5	6.01e-01	0	49	0	33554432	63	5309
2026-01-04 23:15:34.41	31.90	5.65	-50.0	-53.3	18.6	6.01e-01	0	49	0	35127296	63	5206
2026-01-04 23:15:35.39	32.04	5.70	-50.0	-53.3	18.7	6.03e-01	0	49	0	37224448	63	5164
2026-01-04 23:15:36.39	32.18	5.74	-50.1	-53.4	18.6	5.99e-01	0	49	0	38797312	63	5268
2026-01-04 23:15:37.37	32.32	5.79	-50.0	-53.4	18.6	6.02e-01	0	49	0	40894464	63	5240
2026-01-04 23:15:38.36	32.46	5.83	-49.9	-53.2	18.9	6.03e-01	0	49	0	42467328	63	5117
2026-01-04 23:15:39.35	32.60	5.88	-49.8	-53.0	19.0	6.00e-01	0	49	0	44564480	63	5011
2026-01-04 23:15:40.35	32.74	5.92	-49.8	-52.9	19.1	6.01e-01	0	49	0	46137344	63	4972
2026-01-04 23:15:41.34	32.88	5.97	-49.9	-53.1	19.0	6.01e-01	0	50	0	48234496	63	5096
2026-01-04 23:15:42.33	33.03	6.01	-50.0	-53.2	18.9	6.02e-01	0	50	0	49807360	63	5137
2026-01-04 23:15:43.32	33.17	6.06	-49.9	-53.1	19.0	6.00e-01	0	50	0	51904512	63	5059
2026-01-04 23:15:44.31	33.31	6.10	-49.9	-53.1	19.0	6.02e-01	0	50	0	54001664	63	5049
2026-01-04 23:15:45.30	33.45	6.14	-49.8	-52.8	19.3	6.00e-01	0	50	0	55574528	63	4894
2026-01-04 23:15:46.30	33.60	6.19	-49.7	-52.8	19.4	5.99e-01	0	50	0	57147392	62	5167
2026-01-04 23:15:47.29	33.74	6.23	-49.8	-52.9	19.2	6.01e-01	0	50	0	59244544	62	5279
2026-01-04 23:15:48.29	33.89	6.28	-49.7	-52.8	19.4	5.98e-01	0	50	0	61341696	62	5186
2026-01-04 23:15:49.27	34.04	6.32	-49.8	-52.9	19.2	6.02e-01	0	50	0	62914560	62	5227
2026-01-04 23:15:50.25	34.18	6.37	-49.9	-53.0	19.1	6.00e-01	0	50	0	65011712	62	5293
2026-01-04 23:15:51.24	34.33	6.41	-49.9	-53.2	19.0	6.02e-01	0	50	0	66584576	62	5405
2026-01-04 23:15:52.23	34.47	6.45	-49.9	-53.1	19.0	6.01e-01	0	50	0	68681728	62	5393
2026-01-04 23:15:53.22	34.62	6.50	-49.8	-52.9	19.2	6.00e-01	0	50	0	70254592	62	5268
2026-01-04 23:15:54.21	34.77	6.54	-49.6	-52.5	19.6	6.01e-01	0	50	0	72351744	62	5038
2026-01-04 23:15:55.20	34.92	6.59	-49.6	-52.5	19.6	6.00e-01	0	50	0	73924608	62	5040
2026-01-04 23:15:56.19	35.07	6.63	-49.7	-52.7	19.5	6.02e-01	0	50	0	76021760	62	5123
2026-01-04 23:15:57.19	35.22	6.67	-49.8	-52.8	19.4	6.02e-01	0	50	0	77594624	62	5164
2026-01-04 23:15:58.17	35.36	6.72	-49.7	-52.7	19.5	6.01e-01	0	50	0	79691776	62	5114
2026-01-04 23:15:59.17	35.52	6.76	-49.9	-53.0	19.3	6.02e-01	0	50	0	81788928	62	5285
2026-01-04 23:16:00.15	35.67	6.81	-50.0	-53.1	19.1	6.02e-01	0	50	0	83361792	62	5372
2026-01-04 23:16:01.14	35.82	6.85	-49.8	-52.9	19.3	5.98e-01	0	50	0	85458944	62	5223
2026-01-04 23:16:02.13	35.97	6.89	-49.6	-52.5	19.6	6.00e-01	0	50	0	87031808	62	5022
2026-01-04 23:16:03.11	36.12	6.94	-49.6	-52.4	19.8	5.99e-01	0	51	0	89128960	62	4968
2026-01-04 23:16:04.10	36.27	6.98	-49.5	-52.3	19.8	6.02e-01	0	51	0	90701824	62	4902
2026-01-04 23:16:05.08	36.42	7.02	-49.6	-52.4	19.8	6.01e-01	0	51	0	92798976	62	4945
2026-01-04 23:16:06.08	36.58	7.06	-49.7	-52.7	19.5	6.01e-01	0	51	0	94371840	62	5122
2026-01-04 23:16:07.06	36.73	7.11	-49.6	-52.5	19.7	6.01e-01	0	51	0	96468992	62	5022
2026-01-04 23:16:08.06	36.89	7.15	-49.6	-52.4	19.9	6.01e-01	0	51	0	98041856	62	4950
2026-01-04 23:16:09.05	37.04	7.19	-49.5	-52.4	19.9	6.01e-01	0	51	0	100139008	62	4939
2026-01-04 23:16:10.05	37.20	7.24	-49.6	-52.4	19.9	5.98e-01	0	51	0	101711872	62	4961
2026-01-04 23:16:11.03	37.35	7.28	-49.4	-52.1	20.1	5.98e-01	0	51	0	103809024	62	4798
2026-01-04 23:16:12.03	37.51	7.32	-49.4	-52.2	20.1	5.98e-01	0	51	0	105906176	62	4823
2026-01-04 23:16:13.03	37.67	7.37	-49.6	-52.4	19.9	6.04e-01	0	51	0	107479040	62	4935
2026-01-04 23:16:14.02	37.83	7.41	-49.5	-52.3	20.0	6.00e-01	0	51	0	109576192	62	4893
2026-01-04 23:16:15.00	37.98	7.45	-49.6	-52.4	19.9	6.01e-01	0	51	0	111149056	62	4979
2026-01-04 23:16:16.00	38.14	7.49	-49.6	-52.4	19.7	6.02e-01	0	51	0	113246208	62	4962
2026-01-04 23:16:16.98	38.30	7.53	-49.5	-52.3	20.1	6.02e-01	0	51	0	114819072	62	4874
2026-01-04 23:16:17.98	38.46	7.58	-49.5	-52.2	20.2	6.03e-01	0	51	0	116916224	62	4851
2026-01-04 23:16:18.97	38.62	7.62	-49.4	-52.2	20.1	6.01e-01	0	51	0	118489088	62	4815
2026-01-04 23:16:19.96	38.78	7.66	-49.5	-52.3	20.0	6.00e-01	0	51	0	120586240	62	4904
2026-01-04 23:16:20.95	38.94	7.70	-49.5	-52.2	20.1	6.01e-01	0	51	0	122159104	62	4824
2026-01-04 23:16:21.94	39.10	7.74	-49.4	-52.1	19.9	6.05e-01	0	51	0	124256256	62	4810
2026-01-04 23:16:22.92	39.26	7.78	-49.7	-52.5	19.9	6.02e-01	0	51	0	126353408	62	4999
2026-01-04 23:16:23.91	39.43	7.83	-49.5	-52.2	20.1	6.02e-01	0	51	0	127926272	62	4848
2026-01-04 23:16:24.91	39.59	7.87	-49.4	-52.1	20.3	5.98e-01	0	52	0	130023424	62	4768
2026-01-04 23:16:25.89	39.75	7.91	-49.3	-51.9	20.3	6.02e-01	0	52	0	131596288	62	4696
2026-01-04 23:16:26.88	39.92	7.95	-49.4	-52.1	20.2	6.03e-01	0	51	0	133693440	62	4799
2026-01-04 23:16:27.86	40.08	7.99	-49.6	-52.3	20.0	6.00e-01	0	51	0	135266304	62	4922
2026-01-04 23:16:28.83	40.24	8.03	-49.5	-52.2	20.1	6.03e-01	0	51	0	137363456	62	4846
2026-01-04 23:16:29.82	40.40	8.07	-49.4	-52.1	20.1	6.03e-01	0	52	0	138936320	62	4769
2026-01-04 23:16:30.81	40.57	8.11	-49.5	-52.3	20.1	6.01e-01	0	52	0	141033472	62	4877
2026-01-04 23:16:31.79	40.73	8.15	-49.5	-52.1	20.3	5.98e-01	0	52	0	142606336	62	4798
2026-01-04 23:16:32.77	40.90	8.19	-49.6	-52.4	20.1	6.01e-01	0	52	0	144703488	62	4958
2026-01-04 23:16:33.76	41.07	8.23	-49.7	-52.5	19.9	6.03e-01	0	52	0	146276352	62	5003
2026-01-04 23:16:34.74	41.23	8.27	-49.6	-52.4	20.0	6.04e-01	0	51	0	148373504	62	4963
2026-01-04 23:16:35.72	41.40	8.31	-49.7	-52.5	20.0	6.01e-01	0	52	0	149946368	62	5002
2026-01-04 23:16:36.71	41.57	8.35	-49.7	-52.5	19.8	6.01e-01	0	52	0	152043520	62	5038
2026-01-04 23:16:37.71	41.74	8.39	-49.9	-52.8	19.5	6.01e-01	0	52	0	153616384	62	5182
2026-01-04 23:16:38.69	41.91	8.43	-49.8	-52.7	19.6	6.02e-01	0	52	0	155713536	62	5127
2026-01-04 23:16:39.69	42.08	8.47	-49.7	-52.5	19.9	6.01e-01	0	52	0	157286400	62	5037
2026-01-04 23:16:40.67	42.25	8.51	-49.7	-52.5	20.0	6.01e-01	0	52	0	159383552	62	5011
2026-01-04 23:16:41.65	42.42	8.55	-49.6	-52.4	20.1	6.04e-01	0	52	0	161480704	62	4942
2026-01-04 23:16:42.64	42.59	8.59	-49.6	-52.4	20.0	6.01e-01	0	52	0	163053568	62	4969
2026-01-04 23:16:43.64	42.76	8.63	-49.8	-52.6	19.8	6.02e-01	0	52	0	165150720	62	5092
2026-01-04 23:16:44.63	42.93	8.67	-49.8	-52.6	19.9	6.01e-01	0	52	0	166723584	62	5055
2026-01-04 23:16:45.62	43.11	8.70	-49.5	-52.2	20.1	6.00e-01	0	52	0	168820736	62	4844
2026-01-04 23:16:46.60	43.28	8.74	-49.4	-52.0	20.4	6.02e-01	0	52	0	170393600	62	4754
2026-01-04 23:16:47.60	43.45	8.78	-49.4	-52.0	20.5	6.01e-01	0	52	0	172490752	62	4747
2026-01-04 23:16:48.59	43.63	8.82	-49.6	-52.3	20.2	6.00e-01	0	52	0	174063616	62	4884
2026-01-04 23:16:49.58	43.80	8.86	-49.7	-52.4	20.0	6.00e-01	0	52	0	176160768	62	4978
2026-01-04 23:16:50.57	43.98	8.89	-49.7	-52.4	20.0	6.02e-01	0	52	0	177733632	62	4982
2026-01-04 23:16:51.56	44.15	8.93	-49.6	-52.3	20.0	6.01e-01	0	52	0	179830784	62	4902
2026-01-04 23:16:52.55	44.33	8.97	-49.6	-52.4	20.1	6.02e-01	0	52	0	181403648	62	4947
2026-01-04 23:16:53.55	44.51	9.01	-49.7	-52.5	20.0	6.00e-01	0	52	0	183500800	62	5037
2026-01-04 23:16:54.54	44.69	9.05	-49.7	-52.5	20.0	6.01e-01	0	52	0	185597952	62	5019
2026-01-04 23:16:55.52	44.86	9.08	-49.9	-52.9	19.6	6.00e-01	0	52	0	187170816	62	5228
2026-01-04 23:16:56.52	45.04	9.12	-49.9	-52.8	19.6	6.03e-01	0	52	0	189267968	62	5209
2026-01-04 23:16:57.51	45.22	9.16	-49.7	-52.5	19.9	5.99e-01	0	52	0	190840832	62	5035
2026-01-04 23:16:58.49	45.40	9.19	-49.4	-52.0	20.2	6.03e-01	0	52	0	192937984	62	4738
2026-01-04 23:16:59.47	45.57	9.23	-49.4	-52.0	20.4	6.00e-01	0	52	0	194510848	62	4709
2026-01-04 23:17:00.47	45.76	9.27	-49.4	-52.1	20.4	6.00e-01	0	52	0	196608000	62	4768
2026-01-04 23:17:01.45	45.94	9.30	-49.5	-52.2	20.2	6.02e-01	0	52	0	198180864	62	4860
2026-01-04 23:17:02.44	46.12	9.34	-49.6	-52.3	20.2	5.99e-01	0	52	0	200278016	62	4888
2026-01-04 23:17:03.42	46.30	9.37	-49.5	-52.1	20.3	6.02e-01	0	53	0	201850880	62	4773
2026-01-04 23:17:04.41	46.48	9.41	-49.2	-51.7	20.7	6.00e-01	0	52	0	203948032	62	4592
2026-01-04 23:17:05.39	46.66	9.44	-49.2	-51.7	20.7	5.97e-01	0	52	0	205520896	61	4848
2026-01-04 23:17:06.38	46.84	9.48	-49.2	-51.7	20.7	6.02e-01	0	52	0	207618048	61	4841
2026-01-04 23:17:07.37	47.02	9.51	-49.3	-51.8	20.6	6.02e-01	0	52	0	209715200	61	4909
2026-01-04 23:17:08.36	47.21	9.55	-49.1	-51.5	20.9	6.01e-01	0	52	0	211288064	61	4750
2026-01-04 23:17:09.35	47.39	9.58	-49.1	-51.5	21.0	6.03e-01	0	53	0	212860928	61	4743
2026-01-04 23:17:10.35	47.58	9.62	-49.0	-51.4	21.0	6.02e-01	0	53	0	214958080	61	4683
2026-01-04 23:17:11.34	47.76	9.65	-49.1	-51.4	21.0	6.03e-01	0	53	0	217055232	61	4699
2026-01-04 23:17:12.33	47.95	9.69	-49.1	-51.6	20.9	6.01e-01	0	53	0	218628096	61	4769
2026-01-04 23:17:13.32	48.14	9.72	-49.0	-51.4	21.0	6.01e-01	0	52	0	220725248	61	4692
2026-01-04 23:17:14.31	48.32	9.75	-49.0	-51.3	21.1	6.02e-01	0	53	0	222298112	61	4625
2026-01-04 23:17:15.30	48.51	9.79	-49.0	-51.4	21.1	6.01e-01	0	53	0	224395264	61	4655
2026-01-04 23:17:16.29	48.70	9.82	-49.1	-51.4	21.0	6.01e-01	0	53	0	225968128	61	4688
2026-01-04 23:17:17.28	48.89	9.85	-49.1	-51.5	21.0	6.01e-01	0	53	0	228065280	61	4745
2026-01-04 23:17:18.27	49.07	9.89	-49.1	-51.6	20.9	6.01e-01	0	53	0	230162432	61	4765
2026-01-04 23:17:19.26	49.26	9.92	-49.1	-51.5	21.0	6.04e-01	0	53	0	231735296	61	4751
2026-01-04 23:17:20.25	49.45	9.95	-49.1	-51.4	20.9	5.99e-01	0	53	0	233308160	61	4700
2026-01-04 23:17:21.24	49.64	9.98	-49.1	-51.5	20.9	6.03e-01	0	53	0	235405312	61	4758
2026-01-04 23:17:22.23	49.83	10.01	-49.3	-51.8	20.7	6.03e-01	0	53	0	237502464	61	4890
2026-01-04 23:17:23.23	50.02	10.05	-49.5	-52.1	20.4	6.02e-01	0	53	0	239075328	61	5050
2026-01-04 23:17:24.23	50.22	10.08	-49.6	-52.2	20.4	6.02e-01	0	53	0	241172480	61	5155
2026-01-04 23:17:25.21	50.41	10.11	-49.5	-52.1	20.5	5.99e-01	0	53	0	242745344	61	5050
2026-01-04 23:17:26.20	50.60	10.14	-49.5	-52.1	20.5	6.00e-01	0	53	0	244842496	61	5069
2026-01-04 23:17:27.19	50.79	10.17	-49.5	-52.2	20.4	6.03e-01	0	53	0	246415360	61	5108
2026-01-04 23:17:28.18	50.98	10.20	-49.5	-52.1	20.3	6.00e-01	0	53	0	248512512	61	5087
2026-01-04 23:17:29.16	51.17	10.23	-49.5	-52.1	20.4	6.00e-01	0	53	0	250085376	61	5069
2026-01-04 23:17:30.16	51.37	10.26	-49.7	-52.5	20.1	6.00e-01	0	53	0	252182528	61	5312
2026-01-04 23:17:31.15	51.56	10.29	-49.4	-51.9	20.6	6.03e-01	0	53	0	253755392	61	4975
2026-01-04 23:17:32.14	51.76	10.32	-49.4	-51.9	20.7	6.02e-01	0	53	0	255852544	61	4939
2026-01-04 23:17:33.13	51.95	10.35	-49.2	-51.6	21.0	6.02e-01	0	53	0	257949696	61	4773
2026-01-04 23:17:34.12	52.15	10.38	-49.3	-51.8	20.7	6.02e-01	0	53	0	259522560	61	4904
2026-01-04 23:17:35.11	52.34	10.41	-49.5	-52.1	20.5	6.00e-01	0	53	0	261619712	61	5060
2026-01-04 23:17:36.10	52.54	10.44	-49.3	-51.8	20.8	5.99e-01	0	53	0	263192576	61	4887
2026-01-04 23:17:37.09	52.74	10.47	-49.3	-51.8	20.7	6.01e-01	0	53	0	265289728	61	4873
2026-01-04 23:17:38.08	52.93	10.50	-49.4	-51.9	20.7	6.01e-01	0	53	0	266862592	61	4940
2026-01-04 23:17:39.07	53.13	10.52	-49.2	-51.6	20.9	6.04e-01	0	53	0	268959744	61	4773
2026-01-04 23:17:40.06	53.33	10.55	-49.2	-51.6	20.9	5.99e-01	0	53	0	270532608	61	4786
2026-01-04 23:17:41.06	53.53	10.58	-49.2	-51.6	20.9	6.00e-01	0	53	0	272629760	61	4795
2026-01-04 23:17:42.05	53.73	10.61	-49.3	-51.7	20.0	6.02e-01	0	53	0	274202624	61	4852
2026-01-04 23:17:43.04	53.93	10.63	-49.4	-52.0	20.6	6.02e-01	0	53	0	276299776	61	5014
2026-01-04 23:17:44.03	54.13	10.66	-49.3	-51.8	20.8	6.00e-01	0	53	0	278396928	61	4872
2026-01-04 23:17:45.02	54.33	10.69	-49.1	-51.5	21.0	5.98e-01	0	53	0	279969792	61	4711
2026-01-04 23:17:46.01	54.53	10.71	-49.0	-51.4	21.2	5.98e-01	0	53	0	282066944	61	4656
2026-01-04 23:17:46.99	54.72	10.74	-49.0	-51.3	21.2	6.00e-01	0	54	0	283639808	61	4627
2026-01-04 23:17:47.98	54.92	10.77	-49.1	-51.4	21.1	6.01e-01	0	53	0	285736960	61	4687
2026-01-04 23:17:48.97	55.13	10.79	-49.0	-51.3	21.2	5.99e-01	0	53	0	287309824	61	4621
2026-01-04 23:17:49.96	55.33	10.82	-49.1	-51.5	21.1	6.02e-01	0	54	0	289406976	61	4718
2026-01-04 23:17:50.94	55.53	10.84	-48.9	-51.2	21.3	6.03e-01	0	54	0	290979840	61	4577
2026-01-04 23:17:51.93	55.73	10.87	-48.9	-51.1	21.4	6.02e-01	0	53	0	293076992	61	4522
2026-01-04 23:17:52.93	55.93	10.89	-48.9	-51.2	21.3	6.00e-01	0	53	0	294649856	61	4566
2026-01-04 23:17:53.92	56.14	10.91	-48.8	-51.1	21.4	6.02e-01	0	54	0	296747008	61	4509
2026-01-04 23:17:54.90	56.34	10.94	-48.9	-51.2	21.3	6.01e-01	0	54	0	298319872	61	4579
2026-01-04 23:17:55.88	56.54	10.96	-48.9	-51.1	21.5	5.98e-01	0	54	0	300417024	61	4509
2026-01-04 23:17:56.87	56.74	10.98	-48.9	-51.1	21.4	6.01e-01	0	54	0	302514176	61	4529
2026-01-04 23:17:57.87	56.95	11.01	-48.8	-51.1	21.5	6.04e-01	0	54	0	304087040	61	4504
2026-01-04 23:17:58.86	57.16	11.03	-48.9	-51.2	21.4	6.03e-01	0	54	0	306184192	61	4584
2026-01-04 23:17:59.83	57.36	11.05	-48.9	-51.2	21.4	6.00e-01	0	54	0	307757056	61	4548
2026-01-04 23:18:00.83	57.56	11.08	-48.8	-51.0	21.5	6.00e-01	0	54	0	309854208	61	4472
2026-01-04 23:18:01.81	57.77	11.10	-48.8	-51.1	21.5	6.02e-01	0	54	0	311427072	61	4502
2026-01-04 23:18:02.80	57.97	11.12	-49.1	-51.5	21.1	5.99e-01	0	54	0	313524224	61	4729
2026-01-04 23:18:03.79	58.18	11.14	-49.2	-51.6	21.0	5.99e-01	0	54	0	315097088	61	4787
2026-01-04 23:18:04.78	58.39	11.16	-49.2	-51.6	20.9	6.03e-01	0	54	0	317194240	61	4803
2026-01-04 23:18:05.76	58.59	11.18	-49.2	-51.6	21.0	6.03e-01	0	54	0	318767104	61	4769
2026-01-04 23:18:06.76	58.80	11.20	-49.1	-51.5	21.1	6.01e-01	0	54	0	320864256	61	4723
2026-01-04 23:18:07.74	59.01	11.22	-49.1	-51.5	21.1	6.01e-01	0	54	0	322437120	61	4732
2026-01-04 23:18:08.73	59.21	11.24	-49.2	-51.6	21.0	6.01e-01	0	54	0	324534272	61	4782
2026-01-04 23:18:09.72	59.42	11.26	-49.2	-51.6	20.9	6.01e-01	0	54	0	326631424	61	4801
2026-01-04 23:18:10.71	59.63	11.28	-49.1	-51.5	21.1	6.00e-01	0	54	0	328204288	61	4727
2026-01-04 23:18:11.69	59.84	11.30	-49.2	-51.5	21.0	6.02e-01	0	54	0	329777152	61	4757
2026-01-04 23:18:12.67	60.04	11.32	-49.2	-51.6	21.0	6.00e-01	0	54	0	331874304	61	4773
2026-01-04 23:18:13.66	60.25	11.34	-49.4	-51.9	20.8	6.00e-01	0	54	0	333971456	61	4940
2026-01-04 23:18:14.66	60.46	11.35	-49.3	-51.8	20.8	5.98e-01	0	54	0	335544320	61	4891
2026-01-04 23:18:15.64	60.67	11.37	-49.3	-51.8	20.8	6.03e-01	0	54	0	337641472	61	4907
2026-01-04 23:18:16.63	60.88	11.39	-49.3	-51.7	20.9	6.05e-01	0	54	0	339214336	61	4864
2026-01-04 23:18:17.62	61.09	11.41	-49.2	-51.6	21.0	6.01e-01	0	54	0	341311488	61	4780
2026-01-04 23:18:18.60	61.30	11.42	-49.1	-51.4	21.1	6.02e-01	0	54	0	342884352	61	4694
2026-01-04 23:18:19.59	61.51	11.44	-49.1	-51.4	21.2	5.99e-01	0	54	0	344981504	61	4697
2026-01-04 23:18:20.58	61.72	11.46	-49.2	-51.6	21.1	6.01e-01	0	54	0	346554368	61	4774
2026-01-04 23:18:21.57	61.93	11.47	-49.3	-51.7	20.9	6.01e-01	0	54	0	348651520	61	4833
2026-01-04 23:18:22.55	62.14	11.49	-49.2	-51.5	21.0	6.00e-01	0	54	0	350224384	61	4752
2026-01-04 23:18:23.54	62.36	11.50	-49.1	-51.5	21.1	6.01e-01	0	54	0	352321536	61	4738
2026-01-04 23:18:24.53	62.57	11.52	-49.2	-51.6	21.0	6.00e-01	0	54	0	353894400	61	4794
2026-01-04 23:18:25.52	62.78	11.53	-49.2	-51.6	21.0	5.99e-01	0	54	0	355991552	61	4810
2026-01-04 23:18:26.51	62.99	11.54	-49.2	-51.5	21.1	6.02e-01	0	54	0	358088704	61	4738
2026-01-04 23:18:27.49	63.20	11.56	-49.2	-51.6	21.1	6.01e-01	0	54	0	359661568	61	4760
2026-01-04 23:18:28.47	63.41	11.57	-49.3	-51.7	20.9	6.03e-01	0	54	0	361758720	61	4856
2026-01-04 23:18:29.45	63.63	11.59	-49.3	-51.7	20.9	6.01e-01	0	54	0	363331584	61	4830
2026-01-04 23:18:30.44	63.84	11.60	-49.1	-51.4	21.3	6.01e-01	0	54	0	365428736	61	4653
2026-01-04 23:18:31.43	64.05	11.61	-48.9	-51.2	21.4	6.03e-01	0	54	0	367001600	61	4565
2026-01-04 23:18:32.41	64.26	11.62	-49.0	-51.2	21.4	6.03e-01	0	54	0	369098752	61	4591
2026-01-04 23:18:33.40	64.48	11.63	-49.1	-51.4	21.2	5.99e-01	0	54	0	370671616	61	4703
2026-01-04 23:18:34.39	64.69	11.65	-49.2	-51.5	21.1	6.02e-01	0	54	0	372768768	61	4743
2026-01-04 23:18:35.38	64.91	11.66	-49.1	-51.5	21.0	6.03e-01	0	54	0	374341632	61	4727
2026-01-04 23:18:36.37	65.12	11.67	-49.2	-51.6	21.1	5.99e-01	0	54	0	376438784	61	4767
2026-01-04 23:18:37.37	65.34	11.68	-49.3	-51.7	20.9	6.02e-01	0	54	0	378011648	61	4842
2026-01-04 23:18:38.35	65.55	11.69	-49.4	-51.8	20.8	6.02e-01	0	54	0	380108800	61	4919
2026-01-04 23:18:39.34	65.77	11.70	-49.3	-51.7	20.9	6.00e-01	0	54	0	381681664	61	4838
2026-01-04 23:18:40.34	65.98	11.71	-49.3	-51.8	20.9	6.01e-01	0	54	0	383778816	61	4887
2026-01-04 23:18:41.32	66.20	11.72	-49.4	-51.8	20.8	5.99e-01	0	54	0	385875968	61	4911
2026-01-04 23:18:42.31	66.41	11.73	-49.3	-51.7	21.0	5.99e-01	0	54	0	387448832	61	4820
2026-01-04 23:18:43.30	66.63	11.74	-49.3	-51.8	20.9	5.99e-01	0	54	0	389021696	61	4894
2026-01-04 23:18:44.29	66.84	11.74	-49.4	-51.9	20.7	6.03e-01	0	54	0	391118848	61	4979
2026-01-04 23:18:45.28	67.06	11.75	-49.2	-51.6	20.9	6.02e-01	0	55	0	393216000	61	4780
2026-01-04 23:18:46.27	67.27	11.76	-49.1	-51.4	21.2	6.01e-01	0	54	0	394788864	61	4672
2026-01-04 23:18:47.26	67.49	11.77	-49.0	-51.3	21.2	6.00e-01	0	54	0	396886016	61	4647
2026-01-04 23:18:48.25	67.71	11.77	-49.2	-51.5	21.1	5.99e-01	0	54	0	398458880	61	4753
2026-01-04 23:18:49.24	67.92	11.78	-49.3	-51.7	20.9	6.00e-01	0	54	0	400556032	61	4845
2026-01-04 23:18:50.22	68.14	11.78	-49.1	-51.3	21.2	6.02e-01	0	54	0	402128896	61	4647
2026-01-04 23:18:51.21	68.35	11.79	-48.9	-51.1	21.5	5.98e-01	0	54	0	404226048	61	4533
2026-01-04 23:18:52.21	68.57	11.80	-48.8	-51.0	21.6	6.03e-01	0	54	0	405798912	61	4463
2026-01-04 23:18:53.19	68.79	11.80	-48.8	-51.0	21.7	6.02e-01	0	54	0	407896064	61	4451
2026-01-04 23:18:54.18	69.00	11.81	-48.9	-51.2	21.5	6.00e-01	0	54	0	409468928	61	4555
2026-01-04 23:18:55.16	69.22	11.81	-48.9	-51.2	21.5	6.02e-01	0	54	0	411566080	61	4553
2026-01-04 23:18:56.15	69.43	11.81	-48.7	-50.9	21.7	5.98e-01	0	54	0	413138944	61	4408
2026-01-04 23:18:57.13	69.65	11.82	-48.7	-50.8	21.7	6.00e-01	0	54	0	415236096	61	4378
2026-01-04 23:18:58.13	69.87	11.82	-48.7	-50.9	21.7	6.02e-01	0	54	0	417333248	60	4659
2026-01-04 23:18:59.11	70.08	11.82	-48.7	-50.8	21.8	6.00e-01	0	54	0	418906112	60	4644
2026-01-04 23:19:00.09	70.30	11.83	-48.7	-50.9	21.7	6.01e-01	0	55	0	421003264	60	4669
2026-01-04 23:19:01.08	70.52	11.83	-48.8	-51.0	21.6	6.02e-01	0	54	0	422576128	60	4731
2026-01-04 23:19:02.08	70.73	11.83	-48.9	-51.1	21.5	6.02e-01	0	55	0	424673280	60	4778
2026-01-04 23:19:03.06	70.95	11.83	-48.9	-51.1	21.5	6.01e-01	0	54	0	426246144	60	4781
2026-01-04 23:19:04.05	71.17	11.83	-49.1	-51.4	21.2	6.04e-01	0	54	0	428343296	60	4939
2026-01-04 23:19:05.04	71.38	11.83	-48.9	-51.1	21.5	6.01e-01	0	54	0	429916160	60	4782
2026-01-04 23:19:06.03	71.60	11.84	-49.1	-51.4	21.3	6.00e-01	0	54	0	432013312	60	4933
2026-01-04 23:19:07.02	71.82	11.84	-49.3	-51.7	20.9	6.03e-01	0	54	0	433586176	60	5135
2026-01-04 23:19:08.00	72.03	11.84	-49.4	-51.9	20.7	6.02e-01	0	54	0	435683328	61	4960
2026-01-04 23:19:08.99	72.25	11.83	-49.3	-51.7	20.9	6.03e-01	0	54	0	437256192	61	4845
2026-01-04 23:19:09.99	72.47	11.83	-49.3	-51.7	20.9	6.01e-01	0	55	0	439353344	61	4830
2026-01-04 23:19:10.98	72.69	11.83	-49.4	-51.8	20.8	6.00e-01	0	55	0	441450496	61	4903
2026-01-04 23:19:11.97	72.91	11.83	-49.5	-52.0	20.7	6.01e-01	0	55	0	443023360	61	4994
2026-01-04 23:19:12.96	73.12	11.83	-49.4	-51.8	20.8	6.01e-01	0	54	0	445120512	61	4920
2026-01-04 23:19:13.95	73.34	11.83	-49.2	-51.6	21.1	6.03e-01	0	54	0	446693376	61	4779
2026-01-04 23:19:14.94	73.56	11.82	-49.0	-51.3	21.4	6.05e-01	0	55	0	448790528	61	4599
2026-01-04 23:19:15.92	73.77	11.82	-48.9	-51.1	21.5	5.99e-01	0	54	0	450363392	61	4516
2026-01-04 23:19:16.92	73.99	11.82	-48.9	-51.1	21.6	6.03e-01	0	54	0	452460544	61	4505
2026-01-04 23:19:17.90	74.21	11.81	-48.9	-51.1	21.5	6.00e-01	0	55	0	454033408	61	4530
2026-01-04 23:19:18.89	74.42	11.81	-49.0	-51.2	21.4	6.01e-01	0	55	0	456130560	61	4578
2026-01-04 23:19:19.88	74.64	11.81	-48.9	-51.1	21.5	6.00e-01	0	54	0	457703424	61	4540
2026-01-04 23:19:20.87	74.86	11.80	-48.8	-51.0	21.7	5.99e-01	0	55	0	459800576	61	4480
2026-01-04 23:19:21.86	75.07	11.80	-48.9	-51.1	21.5	6.03e-01	0	55	0	461897728	61	4531
2026-01-04 23:19:22.86	75.29	11.79	-49.0	-51.3	21.4	6.02e-01	0	54	0	463470592	61	4632
2026-01-04 23:19:23.85	75.51	11.78	-48.9	-51.1	21.5	6.01e-01	0	55	0	465567744	61	4520
2026-01-04 23:19:24.84	75.73	11.78	-48.8	-51.0	21.7	6.02e-01	0	55	0	467140608	61	4445
2026-01-04 23:19:25.82	75.94	11.77	-48.9	-51.1	21.6	6.02e-01	0	55	0	469237760	61	4497
2026-01-04 23:19:26.81	76.16	11.77	-48.8	-51.0	21.6	6.03e-01	0	55	0	470810624	61	4484
2026-01-04 23:19:27.80	76.37	11.76	-48.9	-51.2	21.5	6.00e-01	0	55	0	472907776	61	4557
2026-01-04 23:19:28.79	76.59	11.75	-48.9	-51.2	21.5	5.99e-01	0	55	0	474480640	61	4550
2026-01-04 23:19:29.77	76.80	11.74	-48.9	-51.1	21.5	6.00e-01	0	55	0	476577792	61	4530
2026-01-04 23:19:30.76	77.02	11.73	-48.9	-51.1	21.5	6.01e-01	0	55	0	478150656	61	4501
2026-01-04 23:19:31.75	77.23	11.73	-49.0	-51.3	21.4	6.00e-01	0	55	0	480247808	61	4620
2026-01-04 23:19:32.75	77.45	11.72	-49.0	-51.3	21.3	6.02e-01	0	55	0	481820672	61	4625
2026-01-04 23:19:33.73	77.66	11.71	-49.1	-51.4	21.2	6.01e-01	0	55	0	483917824	61	4695
2026-01-04 23:19:34.72	77.88	11.70	-49.1	-51.4	21.3	6.00e-01	0	55	0	485490688	61	4666
2026-01-04 23:19:35.71	78.10	11.69	-49.0	-51.2	21.4	6.00e-01	0	55	0	487587840	61	4577
2026-01-04 23:19:36.70	78.31	11.68	-49.0	-51.2	21.5	6.02e-01	0	55	0	489160704	61	4571
2026-01-04 23:19:37.69	78.53	11.67	-49.1	-51.4	21.3	6.02e-01	0	55	0	491257856	61	4691
2026-01-04 23:19:38.67	78.74	11.66	-49.1	-51.3	21.3	6.01e-01	0	55	0	493355008	61	4651
2026-01-04 23:19:39.67	78.95	11.65	-48.9	-51.1	21.5	6.02e-01	0	55	0	494927872	61	4525
2026-01-04 23:19:40.66	79.17	11.63	-48.9	-51.2	21.5	6.00e-01	0	55	0	497025024	61	4551
2026-01-04 23:19:41.64	79.38	11.62	-49.1	-51.4	21.3	6.02e-01	0	55	0	498597888	61	4678
2026-01-04 23:19:42.63	79.59	11.61	-49.1	-51.4	21.3	6.03e-01	0	55	0	500695040	61	4659
2026-01-04 23:19:43.62	79.81	11.60	-48.9	-51.1	21.4	5.99e-01	0	55	0	502267904	61	4543
2026-01-04 23:19:44.61	80.02	11.58	-49.0	-51.2	21.5	6.01e-01	0	55	0	504365056	61	4596
2026-01-04 23:19:45.60	80.24	11.57	-48.9	-51.1	21.5	6.01e-01	0	55	0	505937920	61	4497
2026-01-04 23:19:46.59	80.45	11.56	-49.1	-51.4	21.3	6.03e-01	0	55	0	508035072	61	4663
2026-01-04 23:19:47.58	80.66	11.54	-49.1	-51.4	21.3	5.98e-01	0	55	0	509607936	61	4692
2026-01-04 23:19:48.56	80.87	11.53	-48.9	-51.1	21.6	6.03e-01	0	55	0	511705088	61	4509
2026-01-04 23:19:49.54	81.08	11.52	-48.9	-51.1	21.6	5.99e-01	0	55	0	513277952	61	4514
2026-01-04 23:19:50.53	81.30	11.50	-48.8	-51.0	21.6	5.98e-01	0	55	0	515375104	61	4463
2026-01-04 23:19:51.52	81.51	11.49	-48.8	-51.0	21.6	6.01e-01	0	55	0	517472256	61	4451
2026-01-04 23:19:52.51	81.72	11.47	-48.9	-51.1	21.5	6.03e-01	0	55	0	519045120	61	4524
2026-01-04 23:19:53.50	81.93	11.45	-49.0	-51.2	21.4	6.01e-01	0	55	0	521142272	61	4597
2026-01-04 23:19:54.49	82.14	11.44	-49.0	-51.3	21.3	6.00e-01	0	55	0	522715136	61	4607
2026-01-04 23:19:55.48	82.35	11.42	-48.9	-51.2	21.4	6.03e-01	0	55	0	524812288	61	4562
2026-01-04 23:19:56.46	82.56	11.40	-49.0	-51.3	21.4	6.02e-01	0	55	0	526385152	61	4601
2026-01-04 23:19:57.45	82.77	11.39	-49.1	-51.4	21.3	6.02e-01	0	55	0	528482304	61	4666
2026-01-04 23:19:58.44	82.98	11.37	-49.1	-51.4	21.2	6.02e-01	0	55	0	530055168	61	4696
2026-01-04 23:19:59.44	83.20	11.35	-49.0	-51.3	21.4	6.01e-01	0	55	0	532152320	61	4602
2026-01-04 23:20:00.43	83.41	11.33	-48.9	-51.2	21.5	6.01e-01	0	55	0	533725184	61	4551
2026-01-04 23:20:01.41	83.61	11.32	-49.0	-51.3	21.3	6.00e-01	0	55	0	535822336	61	4629
2026-01-04 23:20:02.40	83.82	11.30	-49.1	-51.4	21.2	6.02e-01	0	55	0	537395200	61	4674
2026-01-04 23:20:03.39	84.03	11.28	-48.9	-51.2	21.4	6.02e-01	0	55	0	539492352	61	4558
2026-01-04 23:20:04.38	84.24	11.26	-49.0	-51.3	21.3	6.01e-01	0	55	0	541589504	61	4623
2026-01-04 23:20:05.36	84.45	11.24	-49.0	-51.3	21.3	6.00e-01	0	55	0	543162368	61	4619
2026-01-04 23:20:06.36	84.66	11.22	-48.8	-51.0	21.5	6.00e-01	0	55	0	545259520	61	4489
2026-01-04 23:20:07.35	84.87	11.20	-48.8	-50.9	21.6	6.00e-01	0	55	0	546832384	61	4427
2026-01-04 23:20:08.33	85.07	11.18	-48.8	-50.9	21.7	6.01e-01	0	55	0	548929536	61	4441
2026-01-04 23:20:09.33	85.28	11.16	-48.8	-51.0	21.6	6.02e-01	0	55	0	550502400	61	4473
2026-01-04 23:20:10.31	85.49	11.14	-49.0	-51.2	21.4	5.99e-01	0	55	0	552599552	61	4575
2026-01-04 23:20:11.29	85.69	11.12	-49.0	-51.3	21.3	6.02e-01	0	55	0	554172416	61	4624
2026-01-04 23:20:12.27	85.90	11.09	-48.9	-51.1	21.6	6.03e-01	0	55	0	556269568	61	4514
2026-01-04 23:20:13.26	86.10	11.07	-49.0	-51.3	21.4	6.03e-01	0	55	0	557842432	61	4603
2026-01-04 23:20:14.26	86.31	11.05	-49.1	-51.4	21.2	6.00e-01	0	55	0	559939584	61	4688
2026-01-04 23:20:15.25	86.52	11.03	-49.1	-51.4	21.2	6.01e-01	0	55	0	561512448	61	4685
2026-01-04 23:20:16.24	86.72	11.00	-49.2	-51.6	21.0	6.03e-01	0	55	0	563609600	61	4795
2026-01-04 23:20:17.23	86.93	10.98	-49.1	-51.4	21.2	5.98e-01	0	55	0	565182464	61	4703
2026-01-04 23:20:18.23	87.13	10.96	-49.2	-51.5	21.1	6.00e-01	0	55	0	567279616	61	4737
2026-01-04 23:20:19.22	87.34	10.93	-49.1	-51.5	21.1	6.03e-01	0	55	0	569376768	61	4707
2026-01-04 23:20:20.21	87.54	10.91	-49.2	-51.5	21.1	6.02e-01	0	55	0	570949632	61	4746
2026-01-04 23:20:21.21	87.75	10.89	-49.3	-51.7	20.9	6.00e-01	0	55	0	573046784	61	4862
2026-01-04 23:20:22.20	87.95	10.86	-49.5	-52.0	20.3	6.02e-01	0	55	0	574619648	61	5026
2026-01-04 23:20:23.19	88.15	10.84	-49.4	-51.9	20.8	6.02e-01	0	55	0	576716800	61	4928
2026-01-04 23:20:24.18	88.35	10.81	-49.3	-51.7	21.0	5.99e-01	0	55	0	578289664	61	4847
2026-01-04 23:20:25.17	88.56	10.79	-49.4	-51.9	20.7	5.99e-01	0	55	0	580386816	61	4936
2026-01-04 23:20:26.15	88.76	10.76	-49.3	-51.7	21.0	6.01e-01	0	55	0	581959680	61	4839
2026-01-04 23:20:27.15	88.96	10.73	-49.1	-51.5	21.2	6.00e-01	0	55	0	584056832	61	4725
2026-01-04 23:20:28.12	89.16	10.71	-48.9	-51.2	21.4	5.99e-01	0	55	0	585629696	61	4560
2026-01-04 23:20:29.11	89.36	10.68	-48.8	-51.0	21.5	6.00e-01	0	55	0	587726848	61	4471
2026-01-04 23:20:30.10	89.56	10.66	-48.9	-51.1	21.5	6.01e-01	0	55	0	589299712	61	4516
2026-01-04 23:20:31.09	89.76	10.63	-48.8	-51.0	21.5	6.01e-01	0	55	0	591396864	61	4492
2026-01-04 23:20:32.08	89.96	10.60	-48.8	-51.0	21.6	6.03e-01	0	55	0	593494016	61	4459
2026-01-04 23:20:33.07	90.16	10.57	-48.9	-51.1	21.5	6.02e-01	0	55	0	595066880	61	4519
2026-01-04 23:20:34.06	90.35	10.55	-49.0	-51.2	21.3	6.02e-01	0	55	0	597164032	61	4590
2026-01-04 23:20:35.05	90.55	10.52	-48.9	-51.2	21.4	6.04e-01	0	55	0	598736896	61	4547
2026-01-04 23:20:36.04	90.75	10.49	-49.1	-51.4	21.2	6.00e-01	0	55	0	600834048	61	4691
2026-01-04 23:20:37.03	90.95	10.46	-49.3	-51.7	20.9	5.99e-01	0	55	0	602406912	61	4870
2026-01-04 23:20:38.01	91.14	10.43	-49.1	-51.4	21.2	5.99e-01	0	56	0	604504064	61	4675
2026-01-04 23:20:39.00	91.34	10.40	-49.1	-51.4	21.2	6.00e-01	0	55	0	606076928	61	4683
2026-01-04 23:20:39.99	91.54	10.38	-49.2	-51.6	21.0	6.03e-01	0	55	0	608174080	61	4794
2026-01-04 23:20:40.98	91.73	10.35	-49.0	-51.3	21.2	6.02e-01	0	56	0	609746944	61	4635
2026-01-04 23:20:41.97	91.93	10.32	-48.9	-51.2	21.4	6.02e-01	0	55	0	611844096	61	4564
2026-01-04 23:20:42.97	92.12	10.29	-49.0	-51.3	21.3	6.03e-01	0	55	0	613941248	61	4632
2026-01-04 23:20:43.95	92.32	10.26	-49.2	-51.6	21.1	6.01e-01	0	55	0	615514112	61	4763
2026-01-04 23:20:44.95	92.51	10.23	-49.4	-51.8	20.7	6.01e-01	0	55	0	617611264	61	4925
2026-01-04 23:20:45.94	92.71	10.19	-49.2	-51.6	20.9	6.01e-01	0	55	0	619184128	61	4814
2026-01-04 23:20:46.93	92.90	10.16	-49.4	-51.9	20.7	6.01e-01	0	55	0	621281280	61	4939
2026-01-04 23:20:47.92	93.09	10.13	-49.6	-52.2	20.4	6.00e-01	0	55	0	622854144	61	5122
2026-01-04 23:20:48.90	93.28	10.10	-49.4	-52.0	20.6	6.03e-01	0	56	0	624951296	61	4997
2026-01-04 23:20:49.90	93.48	10.07	-49.3	-51.7	20.9	6.00e-01	0	56	0	626524160	61	4856
2026-01-04 23:20:50.89	93.67	10.04	-49.4	-51.8	20.8	6.02e-01	0	56	0	628621312	61	4921
2026-01-04 23:20:51.87	93.86	10.01	-49.5	-52.1	20.5	6.03e-01	0	56	0	630194176	61	5083
2026-01-04 23:20:52.87	94.05	9.97	-49.4	-51.9	20.7	6.00e-01	0	56	0	632291328	61	4956
2026-01-04 23:20:53.86	94.24	9.94	-49.3	-51.7	20.9	6.00e-01	0	55	0	634388480	61	4837
2026-01-04 23:20:54.84	94.43	9.91	-49.1	-51.5	21.1	6.02e-01	0	55	0	635961344	61	4739
2026-01-04 23:20:55.82	94.62	9.88	-49.2	-51.6	21.0	6.00e-01	0	56	0	638058496	61	4761
2026-01-04 23:20:56.82	94.81	9.84	-49.1	-51.5	21.1	6.00e-01	0	56	0	639631360	61	4713
2026-01-04 23:20:57.81	95.00	9.81	-49.2	-51.5	21.0	6.01e-01	0	56	0	641728512	61	4747
2026-01-04 23:20:58.79	95.18	9.78	-49.2	-51.6	21.0	6.03e-01	0	56	0	643301376	61	4789
2026-01-04 23:20:59.78	95.37	9.74	-49.3	-51.8	20.7	6.01e-01	0	56	0	645398528	61	4894
2026-01-04 23:21:00.77	95.56	9.71	-49.3	-51.7	20.8	6.01e-01	0	56	0	646971392	61	4870
2026-01-04 23:21:01.76	95.74	9.68	-49.2	-51.6	20.9	6.03e-01	0	55	0	649068544	61	4799
2026-01-04 23:21:02.75	95.93	9.64	-49.2	-51.6	21.0	6.01e-01	0	55	0	650641408	61	4784
2026-01-04 23:21:03.74	96.12	9.61	-49.3	-51.8	20.8	5.97e-01	0	56	0	652738560	61	4872
2026-01-04 23:21:04.74	96.30	9.57	-49.2	-51.7	20.9	6.02e-01	0	56	0	654311424	61	4829
2026-01-04 23:21:05.71	96.48	9.54	-49.3	-51.8	20.8	6.01e-01	0	56	0	656408576	61	4886
2026-01-04 23:21:06.70	96.67	9.50	-49.3	-51.8	20.8	6.01e-01	0	56	0	657981440	61	4878
2026-01-04 23:21:07.69	96.85	9.47	-49.1	-51.5	21.0	6.01e-01	0	56	0	660078592	61	4731
2026-01-04 23:21:08.69	97.04	9.43	-49.0	-51.3	21.2	5.98e-01	0	56	0	661651456	61	4647
2026-01-04 23:21:09.68	97.22	9.40	-49.0	-51.3	21.3	6.02e-01	0	56	0	663748608	61	4615
2026-01-04 23:21:10.66	97.40	9.36	-48.9	-51.2	21.3	6.00e-01	0	56	0	665845760	61	4576
2026-01-04 23:21:11.66	97.59	9.32	-49.0	-51.3	21.2	6.04e-01	0	56	0	667418624	61	4626
2026-01-04 23:21:12.65	97.77	9.29	-49.2	-51.6	20.9	6.01e-01	0	56	0	669515776	61	4791
2026-01-04 23:21:13.64	97.95	9.25	-49.2	-51.6	20.9	6.04e-01	0	56	0	671088640	61	4803
2026-01-04 23:21:14.63	98.13	9.21	-49.3	-51.7	20.8	6.00e-01	0	56	0	673185792	61	4861
2026-01-04 23:21:15.62	98.31	9.18	-49.2	-51.7	20.8	6.02e-01	0	56	0	674758656	61	4855
2026-01-04 23:21:16.61	98.49	9.14	-49.1	-51.5	21.0	6.01e-01	0	56	0	676855808	61	4716
2026-01-04 23:21:17.61	98.67	9.10	-49.1	-51.4	21.1	6.04e-01	0	56	0	678428672	61	4691
2026-01-04 23:21:18.60	98.85	9.07	-49.1	-51.5	21.0	5.98e-01	0	55	0	680525824	61	4713
2026-01-04 23:21:19.59	99.03	9.03	-49.2	-51.6	20.9	6.00e-01	0	56	0	682098688	61	4809
2026-01-04 23:21:20.58	99.20	8.99	-49.2	-51.6	20.9	6.03e-01	0	56	0	684195840	61	4789
2026-01-04 23:21:21.57	99.38	8.95	-49.1	-51.5	21.0	6.02e-01	0	56	0	686292992	61	4757
2026-01-04 23:21:22.56	99.56	8.92	-49.1	-51.5	21.0	6.02e-01	0	56	0	687865856	61	4754
2026-01-04 23:21:23.55	99.74	8.88	-49.1	-51.5	21.0	6.02e-01	0	56	0	689963008	61	4731
2026-01-04 23:21:24.54	99.91	8.84	-49.2	-51.6	20.9	6.00e-01	0	56	0	691535872	61	4792
2026-01-04 23:21:25.53	100.09	8.80	-49.2	-51.7	20.8	6.03e-01	0	56	0	693633024	61	4837
2026-01-04 23:21:26.51	100.26	8.76	-49.1	-51.5	21.0	5.99e-01	0	56	0	695205888	61	4708
2026-01-04 23:21:27.50	100.43	8.73	-49.1	-51.4	21.1	6.03e-01	0	56	0	697303040	61	4686
2026-01-04 23:21:28.48	100.61	8.69	-49.1	-51.4	21.0	6.02e-01	0	56	0	698875904	61	4691
2026-01-04 23:21:29.46	100.78	8.65	-49.1	-51.5	20.9	6.01e-01	0	56	0	700973056	61	4752
2026-01-04 23:21:30.45	100.95	8.61	-49.1	-51.6	20.9	6.04e-01	0	56	0	702545920	61	4765
2026-01-04 23:21:31.44	101.12	8.57	-49.1	-51.5	20.9	6.02e-01	0	56	0	704643072	61	4743
2026-01-04 23:21:32.43	101.30	8.53	-49.2	-51.7	20.8	6.02e-01	0	56	0	706215936	61	4828
2026-01-04 23:21:33.42	101.47	8.49	-49.2	-51.7	20.8	6.00e-01	0	56	0	708313088	61	4832
2026-01-04 23:21:34.41	101.64	8.45	-49.1	-51.5	21.0	6.02e-01	0	56	0	710410240	61	4740
2026-01-04 23:21:35.40	101.81	8.41	-49.0	-51.4	21.0	6.00e-01	0	56	0	711983104	61	4690
2026-01-04 23:21:36.39	101.98	8.37	-49.0	-51.4	21.1	5.99e-01	0	56	0	714080256	61	4671
2026-01-04 23:21:37.39	102.15	8.33	-49.0	-51.4	21.1	5.97e-01	0	56	0	715653120	61	4663
2026-01-04 23:21:38.38	102.32	8.29	-49.1	-51.5	21.0	6.02e-01	0	56	0	717750272	61	4721
2026-01-04 23:21:39.36	102.49	8.25	-49.2	-51.7	20.8	6.04e-01	0	56	0	719323136	61	4828
2026-01-04 23:21:40.35	102.65	8.21	-49.3	-51.8	20.6	6.01e-01	0	56	0	721420288	61	4904
2026-01-04 23:21:41.34	102.82	8.17	-49.2	-51.7	20.7	6.03e-01	0	56	0	722993152	61	4833
2026-01-04 23:21:42.34	102.99	8.13	-49.2	-51.6	20.8	6.00e-01	0	56	0	725090304	61	4805
2026-01-04 23:21:43.33	103.16	8.09	-49.2	-51.7	20.7	6.03e-01	0	56	0	726663168	61	4816
2026-01-04 23:21:44.32	103.32	8.05	-49.2	-51.7	20.8	6.01e-01	0	56	0	728760320	61	4832
2026-01-04 23:21:45.31	103.49	8.01	-49.2	-51.7	20.7	6.04e-01	0	56	0	730857472	61	4828
2026-01-04 23:21:46.29	103.65	7.97	-49.1	-51.6	20.9	5.97e-01	0	56	0	732430336	61	4761
2026-01-04 23:21:47.28	103.82	7.92	-49.1	-51.5	20.9	6.02e-01	0	56	0	734527488	61	4731
2026-01-04 23:21:48.27	103.98	7.88	-49.1	-51.6	20.9	6.02e-01	0	56	0	736100352	61	4762
2026-01-04 23:21:49.26	104.15	7.84	-49.2	-51.7	20.7	5.98e-01	0	56	0	738197504	61	4844
2026-01-04 23:21:50.25	104.31	7.80	-49.4	-51.9	20.5	6.00e-01	0	56	0	739770368	61	4972
2026-01-04 23:21:51.24	104.47	7.76	-49.4	-51.9	20.5	6.01e-01	0	56	0	741867520	61	4973
2026-01-04 23:21:52.22	104.63	7.72	-49.4	-52.0	20.5	6.00e-01	0	56	0	743440384	61	5003
2026-01-04 23:21:53.21	104.79	7.67	-49.4	-52.0	20.4	6.00e-01	0	56	0	745537536	61	5035
2026-01-04 23:21:54.20	104.96	7.63	-49.5	-52.2	20.2	6.02e-01	0	56	0	747110400	61	5145
2026-01-04 23:21:55.19	105.12	7.59	-49.6	-52.3	20.1	6.03e-01	0	56	0	749207552	61	5175
2026-01-04 23:21:56.17	105.28	7.55	-49.5	-52.2	20.2	6.00e-01	0	56	0	750780416	61	5140
2026-01-04 23:21:57.17	105.44	7.51	-49.6	-52.3	20.0	6.01e-01	0	56	0	752877568	61	5216
2026-01-04 23:21:58.15	105.59	7.46	-49.5	-52.2	20.1	6.01e-01	0	56	0	754450432	61	5133
2026-01-04 23:21:59.15	105.76	7.42	-49.5	-52.1	20.2	6.01e-01	0	56	0	756547584	61	5099
2026-01-04 23:22:00.14	105.91	7.38	-49.6	-52.3	20.1	6.01e-01	0	56	0	758120448	61	5185
2026-01-04 23:22:01.12	106.07	7.34	-49.6	-52.4	20.1	6.01e-01	0	56	0	760217600	61	5233
2026-01-04 23:22:02.12	106.23	7.29	-49.7	-52.5	19.8	6.02e-01	0	56	0	762314752	61	5336
2026-01-04 23:22:03.10	106.38	7.25	-49.6	-52.4	20.0	6.00e-01	0	56	0	763887616	61	5240
2026-01-04 23:22:04.09	106.54	7.21	-49.5	-52.2	20.1	5.96e-01	0	56	0	765984768	61	5138
2026-01-04 23:22:05.07	106.70	7.16	-49.5	-52.1	20.2	6.02e-01	0	56	0	767557632	61	5085
2026-01-04 23:22:06.05	106.85	7.12	-49.5	-52.2	20.2	6.02e-01	0	56	0	769654784	61	5129
2026-01-04 23:22:07.04	107.00	7.08	-49.7	-52.5	19.8	6.00e-01	0	56	0	771227648	61	5323
2026-01-04 23:22:08.03	107.16	7.04	-49.6	-52.4	20.0	6.04e-01	0	56	0	773324800	61	5226
2026-01-04 23:22:09.03	107.31	6.99	-49.7	-52.5	19.9	5.98e-01	0	56	0	774897664	61	5307
2026-01-04 23:22:10.02	107.47	6.95	-49.8	-52.7	19.7	5.99e-01	0	56	0	776994816	61	5442
2026-01-04 23:22:11.01	107.62	6.90	-49.7	-52.5	19.8	6.03e-01	0	56	0	778567680	61	5322
2026-01-04 23:22:12.00	107.77	6.86	-49.6	-52.4	20.0	6.00e-01	0	56	0	780664832	61	5244
2026-01-04 23:22:12.99	107.93	6.82	-49.7	-52.6	19.8	6.01e-01	0	56	0	782237696	61	5351
2026-01-04 23:22:13.98	108.08	6.77	-49.8	-52.7	19.7	6.02e-01	0	56	0	784334848	61	5409
2026-01-04 23:22:14.98	108.23	6.73	-49.7	-52.5	19.8	6.02e-01	0	56	0	786432000	61	5323
2026-01-04 23:22:15.97	108.38	6.68	-49.9	-52.9	19.5	6.02e-01	0	56	0	788004864	61	5550
2026-01-04 23:22:16.95	108.53	6.64	-49.8	-52.8	19.6	6.03e-01	0	56	0	790102016	62	5170
2026-01-04 23:22:17.94	108.68	6.60	-49.7	-52.5	19.8	5.99e-01	0	56	0	791674880	62	4998
2026-01-04 23:22:18.92	108.83	6.55	-49.6	-52.4	19.9	6.02e-01	0	56	0	793772032	62	4942
2026-01-04 23:22:19.91	108.98	6.51	-49.6	-52.4	19.9	6.01e-01	0	56	0	795344896	62	4959
2026-01-04 23:22:20.90	109.12	6.46	-49.7	-52.5	19.7	6.01e-01	0	56	0	797442048	62	5041
2026-01-04 23:22:21.89	109.27	6.42	-49.8	-52.7	19.5	6.03e-01	0	56	0	799014912	62	5154
2026-01-04 23:22:22.87	109.42	6.38	-50.0	-53.1	19.3	6.00e-01	0	56	0	801112064	62	5341
2026-01-04 23:22:23.86	109.56	6.33	-49.9	-52.9	19.4	5.97e-01	0	56	0	802684928	62	5276
2026-01-04 23:22:24.86	109.71	6.29	-49.8	-52.8	19.5	6.00e-01	0	56	0	804782080	62	5186
2026-01-04 23:22:25.85	109.86	6.24	-49.8	-52.8	19.4	6.02e-01	0	56	0	806354944	62	5197
2026-01-04 23:22:26.84	110.00	6.20	-49.9	-52.9	19.3	6.02e-01	0	56	0	808452096	62	5260
2026-01-04 23:22:27.82	110.15	6.15	-49.9	-52.9	19.3	6.00e-01	0	56	0	810549248	62	5261
2026-01-04 23:22:28.81	110.29	6.11	-49.7	-52.7	19.5	6.01e-01	0	56	0	812122112	62	5135
2026-01-04 23:22:29.79	110.43	6.06	-49.7	-52.6	19.6	6.01e-01	0	56	0	814219264	62	5054
2026-01-04 23:22:30.78	110.58	6.02	-49.5	-52.4	19.8	5.99e-01	0	56	0	815792128	62	4932
2026-01-04 23:22:31.77	110.72	5.97	-49.5	-52.4	19.8	6.03e-01	0	56	0	817889280	62	4949
2026-01-04 23:22:32.77	110.87	5.93	-49.6	-52.4	19.8	6.02e-01	0	56	0	819462144	62	4962
2026-01-04 23:22:33.76	111.01	5.88	-49.6	-52.4	19.8	6.01e-01	0	56	0	821559296	62	4962
2026-01-04 23:22:34.75	111.15	5.84	-49.6	-52.5	19.7	6.03e-01	0	56	0	823132160	62	5001
2026-01-04 23:22:35.75	111.29	5.79	-49.6	-52.5	19.6	6.03e-01	0	56	0	825229312	62	5037
2026-01-04 23:22:36.74	111.43	5.75	-49.7	-52.6	19.6	6.00e-01	0	56	0	826802176	62	5051
2026-01-04 23:22:37.73	111.57	5.70	-49.7	-52.6	19.6	5.99e-01	0	56	0	828899328	62	5054
2026-01-04 23:22:38.73	111.71	5.66	-49.8	-52.8	19.4	5.98e-01	0	56	0	830996480	62	5181
2026-01-04 23:22:39.72	111.85	5.61	-49.8	-52.7	19.5	6.03e-01	0	56	0	832569344	62	5143
2026-01-04 23:22:40.71	111.99	5.56	-49.7	-52.7	19.5	6.03e-01	0	56	0	834666496	62	5141
2026-01-04 23:22:41.70	112.13	5.52	-49.9	-52.9	19.2	6.02e-01	0	56	0	836239360	62	5279
2026-01-04 23:22:42.68	112.27	5.47	-49.8	-52.8	19.4	6.02e-01	0	56	0	838336512	62	5164
2026-01-04 23:22:43.67	112.41	5.43	-49.8	-52.8	19.3	6.01e-01	0	56	0	839909376	62	5172
2026-01-04 23:22:44.66	112.54	5.38	-49.8	-52.9	19.2	6.02e-01	0	56	0	842006528	62	5258
2026-01-04 23:22:45.65	112.68	5.34	-49.8	-52.9	19.2	5.99e-01	0	56	0	843579392	62	5258
2026-01-04 23:22:46.64	112.82	5.29	-49.8	-52.9	19.2	6.01e-01	0	56	0	845676544	62	5270
2026-01-04 23:22:47.63	112.95	5.25	-49.9	-53.1	19.1	6.00e-01	0	56	0	847249408	62	5371
2026-01-04 23:22:48.62	113.09	5.20	-49.9	-53.1	19.0	6.01e-01	0	56	0	849346560	62	5365
2026-01-04 23:22:49.62	113.22	5.15	-50.0	-53.2	18.9	6.02e-01	0	56	0	850919424	62	5437
2026-01-04 23:22:50.61	113.36	5.11	-50.0	-53.2	18.9	6.00e-01	0	56	0	853016576	62	5418
2026-01-04 23:22:51.59	113.49	5.06	-49.9	-53.0	19.1	6.02e-01	0	56	0	854589440	62	5294
2026-01-04 23:22:52.58	113.62	5.02	-53.4	-71.7	3.7	7.42e-01	0	56	104	856162304	68	32503
2026-01-04 23:22:53.57	113.76	4.97	-53.6	-73.5	3.8	7.47e-01	0	56	104	856162304	69	37510
2026-01-04 23:22:54.57	113.89	4.92	-53.8	-73.7	3.8	7.44e-01	0	56	104	856162304	69	38516
2026-01-04 23:22:55.56	114.02	4.88	-53.9	-73.9	3.8	7.47e-01	0	56	104	856162304	70	36976
2026-01-04 23:22:56.55	114.16	4.83	-54.0	-73.9	3.8	7.47e-01	0	56	104	856162304	70	37369
2026-01-04 23:22:57.53	114.29	4.79	-54.1	-74.0	3.8	7.48e-01	0	56	104	856162304	70	37781
2026-01-04 23:22:58.51	114.42	4.74	-54.2	-74.1	3.8	7.44e-01	0	56	104	856162304	70	37979
2026-01-04 23:22:59.51	114.55	4.69	-54.2	-74.1	3.8	7.49e-01	0	56	104	856162304	70	38190
2026-01-04 23:23:00.49	114.68	4.65	-54.2	-74.2	3.8	7.45e-01	0	56	104	856162304	70	38247
2026-01-04 23:23:01.48	114.81	4.60	-53.8	-73.5	3.8	7.49e-01	0	56	104	856162304	69	37798
2026-01-04 23:23:02.47	114.94	4.56	-54.3	-74.2	3.8	7.45e-01	0	56	104	856162304	70	38484
2026-01-04 23:23:03.45	115.06	4.51	-54.3	-74.2	3.8	7.45e-01	0	56	104	856162304	70	38599
2026-01-04 23:23:04.44	115.19	4.46	-54.3	-74.2	3.8	7.44e-01	0	57	104	856162304	70	38582
2026-01-04 23:23:05.44	115.32	4.42	-54.3	-74.3	3.8	7.43e-01	0	56	104	856162304	70	38798
2026-01-04 23:23:06.43	115.45	4.37	-54.4	-74.3	3.8	7.46e-01	0	56	104	856162304	70	38943
2026-01-04 23:23:07.41	115.57	4.32	-54.4	-74.3	3.8	7.49e-01	0	56	104	856162304	70	39018
2026-01-04 23:23:08.40	115.70	4.28	-54.4	-74.4	3.8	7.44e-01	0	57	104	856162304	71	36983
2026-01-04 23:23:09.37	115.83	4.23	-54.4	-74.4	3.8	7.45e-01	0	57	104	856162304	71	36986
2026-01-04 23:23:10.36	115.95	4.19	-54.4	-74.4	3.8	7.44e-01	0	57	104	856162304	71	37029
2026-01-04 23:23:11.36	116.08	4.14	-54.4	-74.4	3.8	7.45e-01	0	57	104	856162304	71	37094
2026-01-04 23:23:12.35	116.20	4.09	-54.4	-74.4	3.8	7.43e-01	0	56	104	856162304	71	37233
2026-01-04 23:23:13.34	116.33	4.05	-54.5	-74.4	3.8	7.46e-01	0	56	104	856162304	71	37119
2026-01-04 23:23:14.33	116.45	4.00	-54.5	-74.4	3.8	7.45e-01	0	56	104	856162304	71	37261
2026-01-04 23:23:15.32	116.58	3.95	-54.5	-74.4	3.8	7.45e-01	0	56	104	856162304	71	37314
2026-01-04 23:23:16.31	116.70	3.91	-54.5	-74.4	3.8	7.43e-01	0	56	104	856162304	71	37349
2026-01-04 23:23:17.30	116.82	3.86	-54.5	-74.4	3.8	7.42e-01	0	56	104	856162304	71	37336
2026-01-04 23:23:18.29	116.94	3.81	-54.5	-74.4	3.8	7.46e-01	0	56	104	856162304	71	37373
2026-01-04 23:23:19.29	117.07	3.77	-54.5	-74.4	3.8	7.42e-01	0	57	104	856162304	71	37330
2026-01-04 23:23:20.28	117.19	3.72	-54.5	-74.4	3.8	7.48e-01	0	57	104	856162304	71	37270
2026-01-04 23:23:21.27	117.31	3.67	-54.5	-74.4	3.8	7.49e-01	0	57	104	856162304	71	37289
2026-01-04 23:23:22.26	117.43	3.63	-54.5	-74.4	3.8	7.47e-01	0	56	104	856162304	71	37168
2026-01-04 23:23:23.25	117.55	3.58	-54.5	-74.4	3.8	7.43e-01	0	57	104	856162304	71	37180
2026-01-04 23:23:24.24	117.67	3.54	-54.5	-74.4	3.8	7.48e-01	0	56	104	856162304	71	37231
2026-01-04 23:23:25.23	117.79	3.49	-54.5	-74.4	3.8	7.44e-01	0	57	104	856162304	71	37170
2026-01-04 23:23:26.21	117.91	3.44	-54.5	-74.4	3.8	7.44e-01	0	57	104	856162304	71	37208
2026-01-04 23:23:27.20	118.03	3.40	-54.5	-74.4	3.8	7.45e-01	0	57	104	856162304	71	37125
2026-01-04 23:23:28.17	118.15	3.35	-54.5	-74.4	3.8	7.45e-01	0	57	104	856162304	71	37258
2026-01-04 23:23:29.16	118.26	3.30	-54.5	-74.4	3.8	7.46e-01	0	57	104	856162304	71	37301
2026-01-04 23:23:30.15	118.38	3.26	-54.5	-74.4	3.8	7.44e-01	0	57	104	856162304	71	37214
2026-01-04 23:23:31.13	118.50	3.21	-54.5	-74.4	3.8	7.46e-01	0	57	104	856162304	71	37191
2026-01-04 23:23:32.12	118.62	3.16	-54.5	-74.4	3.8	7.44e-01	0	57	104	856162304	71	37142
2026-01-04 23:23:33.10	118.73	3.12	-54.5	-74.4	3.8	7.45e-01	0	57	104	856162304	71	37234
2026-01-04 23:23:34.08	118.85	3.07	-54.4	-74.4	3.8	7.44e-01	0	57	104	856162304	71	37243
2026-01-04 23:23:35.08	118.96	3.03	-54.5	-74.4	3.8	7.42e-01	0	57	104	856162304	71	37181
2026-01-04 23:23:36.07	119.08	2.98	-54.5	-74.4	3.8	7.45e-01	0	57	104	856162304	71	37186
2026-01-04 23:23:37.06	119.19	2.93	-54.5	-74.4	3.8	7.47e-01	0	56	104	856162304	71	37174
2026-01-04 23:23:38.05	119.31	2.89	-54.5	-74.4	3.8	7.44e-01	0	57	104	856162304	71	37258

#Closed at: 2026-01-04 23:23:38
#Recorded file [856 MB]: D:/Data/31026_260105_022252.dat