passes_logs/2026/01/04/R3.0SM8_Murmansk_STILSPACE/R3.0SM8_Murmansk_STILSPACE__20260104_031834_NOAA_20_JPSS-1_rec.log

#Pass ID: 20260104_031834_NOAA 20 (JPSS-1)
#Satellite: NOAA 20 (JPSS-1)
#Configuration: NOAA 20
#almurnet v.1.7.20240730
#Start time: 2026-01-04 03:18:34

#Version: 2.2.20231116
#Station: R3.0SM8_Murmansk_STILSPACE
#Location: 33.092731 lon 68.902999 lat
#TLE: 1 43013U 17073A   26003.41800368  .00000169  00000+0  10117-3 0  9998
#TLE: 2 43013  98.7624 304.4804 0001884  56.1176 304.0179 14.19532918421092

#Time	Az	El	Level	Level2	SNR	BER	BlckErr	Temp	State	Recorded	gain1	gain2
2026-01-04 03:18:34.20	39.40	3.00	-52.2	-66.1	3.8	1.49e+00	0	47	0	0	66	18623
2026-01-04 03:18:35.19	39.34	3.06	-52.3	-66.0	3.8	1.49e+00	0	47	104	0	67	17423
2026-01-04 03:18:36.19	39.29	3.12	-52.2	-66.0	3.8	1.49e+00	0	47	104	0	67	17374
2026-01-04 03:18:37.17	39.23	3.18	-52.2	-65.9	3.8	1.49e+00	0	47	104	0	67	17241
2026-01-04 03:18:38.16	39.18	3.25	-52.1	-65.9	3.8	1.49e+00	0	47	104	0	67	17197
2026-01-04 03:18:39.15	39.12	3.31	-52.0	-65.8	3.8	1.49e+00	0	47	104	0	67	16992
2026-01-04 03:18:40.14	39.07	3.37	-51.9	-65.7	3.8	1.49e+00	0	47	104	0	66	17849
2026-01-04 03:18:41.13	39.01	3.43	-51.7	-65.5	3.8	1.49e+00	0	47	104	0	66	17461
2026-01-04 03:18:42.12	38.95	3.49	-51.5	-65.3	3.8	1.49e+00	0	47	104	0	66	16922
2026-01-04 03:18:43.11	38.90	3.55	-51.4	-65.1	3.8	1.49e+00	0	48	104	0	65	17650
2026-01-04 03:18:44.11	38.84	3.61	-51.4	-65.2	3.8	1.49e+00	0	47	104	0	65	17734
2026-01-04 03:18:45.10	38.78	3.67	-51.4	-65.2	3.8	1.49e+00	0	48	104	0	65	17692
2026-01-04 03:18:46.08	38.73	3.74	-51.4	-65.1	3.8	1.49e+00	0	48	104	0	65	17622
2026-01-04 03:18:47.07	38.67	3.80	-51.3	-65.2	3.8	1.49e+00	0	48	104	0	65	17713
2026-01-04 03:18:48.06	38.61	3.86	-51.4	-65.2	3.8	1.49e+00	0	48	104	0	65	17688
2026-01-04 03:18:49.05	38.55	3.92	-51.4	-65.1	3.8	1.49e+00	0	48	104	0	65	17617
2026-01-04 03:18:50.04	38.50	3.98	-51.4	-65.1	3.8	1.49e+00	0	48	104	0	65	17676
2026-01-04 03:18:51.03	38.44	4.05	-51.4	-65.1	3.8	1.49e+00	0	48	104	0	65	17568
2026-01-04 03:18:52.02	38.38	4.11	-51.4	-65.1	3.8	1.49e+00	0	48	104	0	65	17530
2026-01-04 03:18:53.00	38.32	4.17	-51.4	-65.0	3.8	1.49e+00	0	48	104	0	65	17454
2026-01-04 03:18:53.99	38.26	4.23	-51.4	-64.8	3.8	1.49e+00	0	48	104	0	65	16957
2026-01-04 03:18:54.99	38.20	4.30	-51.3	-64.5	3.8	1.49e+00	0	48	104	0	65	16408
2026-01-04 03:18:55.98	38.14	4.36	-51.3	-64.2	3.8	1.49e+00	0	48	104	0	65	15790
2026-01-04 03:18:56.96	38.08	4.42	-51.3	-63.6	3.8	1.49e+00	0	48	104	0	65	14857
2026-01-04 03:18:57.96	38.02	4.48	-51.3	-62.9	3.8	1.49e+00	0	49	104	0	65	13710
2026-01-04 03:18:58.95	37.96	4.55	-51.1	-62.2	3.9	1.46e+00	0	48	104	0	65	12664
2026-01-04 03:18:59.94	37.90	4.61	-51.1	-61.3	4.3	1.41e+00	0	48	0	0	65	11394
2026-01-04 03:19:00.93	37.84	4.67	-51.0	-60.5	4.5	1.06e+00	0	49	0	1048576	65	10406
2026-01-04 03:19:01.92	37.78	4.74	-50.9	-59.5	5.1	8.01e-01	0	49	0	3145728	64	9753
2026-01-04 03:19:02.90	37.71	4.80	-50.7	-58.8	5.5	5.63e-01	0	49	0	4194304	64	9065
2026-01-04 03:19:03.89	37.65	4.86	-50.7	-58.1	6.0	4.42e-01	0	49	0	6291456	64	8357
2026-01-04 03:19:04.89	37.59	4.93	-50.5	-57.5	6.5	2.59e-01	0	49	0	8388608	64	7760
2026-01-04 03:19:05.87	37.53	4.99	-50.5	-57.2	6.9	1.86e-01	0	49	0	10485760	63	7927
2026-01-04 03:19:06.87	37.46	5.06	-50.4	-56.7	7.3	1.47e-01	0	49	0	11534336	63	7490
2026-01-04 03:19:07.86	37.40	5.12	-50.4	-56.4	7.6	9.53e-02	0	49	0	13631488	63	7221
2026-01-04 03:19:08.84	37.34	5.18	-50.5	-56.9	7.2	1.11e-01	0	49	0	15728640	63	7651
2026-01-04 03:19:09.83	37.27	5.25	-50.4	-56.6	7.5	1.30e-01	0	49	0	17825792	63	7378
2026-01-04 03:19:10.82	37.21	5.31	-50.4	-56.3	7.7	9.94e-02	0	49	0	19922944	63	7167
2026-01-04 03:19:11.81	37.15	5.38	-50.3	-56.1	7.9	7.74e-02	0	49	0	20971520	63	6992
2026-01-04 03:19:12.80	37.08	5.44	-50.3	-55.9	8.1	6.49e-02	0	49	0	23068672	63	6823
2026-01-04 03:19:13.79	37.02	5.51	-50.3	-56.0	8.0	6.00e-02	0	49	0	25165824	63	6959
2026-01-04 03:19:14.78	36.95	5.57	-50.3	-56.2	7.8	7.47e-02	0	49	0	27262976	63	7084
2026-01-04 03:19:15.77	36.89	5.64	-50.1	-55.5	8.6	4.69e-02	0	49	0	28311552	63	6497
2026-01-04 03:19:16.76	36.82	5.70	-50.0	-54.9	9.1	2.83e-02	0	50	0	30408704	63	6086
2026-01-04 03:19:17.76	36.75	5.77	-49.8	-54.4	9.7	1.70e-02	0	49	0	32505856	62	6090
2026-01-04 03:19:18.75	36.69	5.83	-49.6	-54.1	10.0	8.71e-03	0	50	0	34603008	62	5891
2026-01-04 03:19:19.74	36.62	5.90	-49.4	-53.5	10.5	4.68e-03	0	50	0	35651584	62	5523
2026-01-04 03:19:20.72	36.55	5.96	-49.2	-53.1	11.1	2.52e-03	0	50	0	37748736	61	5538
2026-01-04 03:19:21.71	36.48	6.03	-49.1	-52.9	11.2	1.34e-03	0	50	0	39845888	61	5444
2026-01-04 03:19:22.70	36.42	6.10	-49.0	-52.7	11.4	9.86e-04	0	50	0	41943040	61	5308
2026-01-04 03:19:23.69	36.35	6.16	-48.9	-52.4	11.8	5.80e-04	0	50	0	44040192	60	5424
2026-01-04 03:19:24.68	36.28	6.23	-48.9	-52.3	11.8	4.26e-04	0	50	0	45088768	60	5381
2026-01-04 03:19:25.67	36.21	6.29	-48.8	-52.3	11.9	3.49e-04	0	50	0	47185920	60	5362
2026-01-04 03:19:26.67	36.14	6.36	-48.8	-52.2	12.0	3.43e-04	0	50	0	49283072	60	5303
2026-01-04 03:19:27.65	36.07	6.43	-48.8	-52.1	12.0	2.90e-04	0	50	0	51380224	60	5265
2026-01-04 03:19:28.63	36.00	6.49	-48.8	-52.2	12.0	3.91e-04	0	50	0	52428800	60	5333
2026-01-04 03:19:29.61	35.93	6.56	-48.9	-52.3	11.9	3.51e-04	0	50	0	54525952	60	5390
2026-01-04 03:19:30.60	35.86	6.63	-48.9	-52.3	11.9	4.51e-04	0	50	0	56623104	60	5394
2026-01-04 03:19:31.59	35.79	6.69	-48.9	-52.3	12.0	4.19e-04	0	50	0	58720256	60	5361
2026-01-04 03:19:32.58	35.72	6.76	-49.1	-52.8	11.4	5.45e-04	0	51	0	59768832	60	5689
2026-01-04 03:19:33.57	35.65	6.83	-49.1	-52.8	11.4	1.21e-03	0	50	0	61865984	60	5684
2026-01-04 03:19:34.56	35.58	6.90	-49.1	-52.7	11.5	8.41e-04	0	51	0	63963136	60	5627
2026-01-04 03:19:35.54	35.51	6.96	-49.1	-52.8	11.5	1.06e-03	0	51	0	66060288	60	5664
2026-01-04 03:19:36.53	35.43	7.03	-49.0	-52.6	11.6	6.64e-04	0	51	0	68157440	60	5555
2026-01-04 03:19:37.52	35.36	7.10	-49.1	-52.7	11.6	5.64e-04	0	50	0	69206016	60	5612
2026-01-04 03:19:38.51	35.29	7.17	-49.0	-52.6	11.7	6.68e-04	0	51	0	71303168	60	5557
2026-01-04 03:19:39.50	35.21	7.24	-49.2	-52.8	11.5	6.24e-04	0	50	0	73400320	60	5684
2026-01-04 03:19:40.49	35.14	7.30	-49.2	-52.8	11.4	1.16e-03	0	51	0	75497472	60	5721
2026-01-04 03:19:41.48	35.07	7.37	-48.9	-52.3	12.0	7.01e-04	0	51	0	76546048	60	5364
2026-01-04 03:19:42.46	34.99	7.44	-48.8	-52.0	12.3	1.79e-04	0	51	0	78643200	60	5171
2026-01-04 03:19:43.46	34.92	7.51	-48.6	-51.7	12.6	1.24e-04	0	51	0	80740352	60	5025
2026-01-04 03:19:44.45	34.84	7.58	-48.6	-51.6	12.8	8.23e-05	0	51	0	82837504	60	4939
2026-01-04 03:19:45.44	34.76	7.65	-48.6	-51.7	12.6	7.47e-05	0	51	0	83886080	60	5006
2026-01-04 03:19:46.43	34.69	7.72	-48.6	-51.6	12.7	1.07e-04	0	51	0	85983232	60	4969
2026-01-04 03:19:47.41	34.61	7.79	-48.6	-51.6	12.8	7.47e-05	0	51	0	88080384	60	4939
2026-01-04 03:19:48.40	34.54	7.86	-48.6	-51.7	12.7	6.25e-05	0	51	0	90177536	60	4997
2026-01-04 03:19:49.39	34.46	7.93	-48.6	-51.6	12.8	6.33e-05	0	51	0	91226112	60	4948
2026-01-04 03:19:50.38	34.38	8.00	-48.6	-51.7	12.7	6.17e-05	0	51	0	93323264	60	4994
2026-01-04 03:19:51.37	34.30	8.07	-48.6	-51.7	12.7	7.40e-05	0	51	0	95420416	60	4997
2026-01-04 03:19:52.36	34.22	8.14	-48.6	-51.7	12.7	6.71e-05	0	51	0	97517568	60	4989
2026-01-04 03:19:53.35	34.15	8.21	-48.5	-51.5	12.9	4.65e-05	0	51	0	99614720	60	4888
2026-01-04 03:19:54.34	34.07	8.28	-48.5	-51.5	12.9	4.42e-05	0	51	0	100663296	60	4911
2026-01-04 03:19:55.33	33.99	8.35	-48.5	-51.4	12.9	4.27e-05	0	51	0	102760448	60	4858
2026-01-04 03:19:56.31	33.91	8.42	-48.6	-51.6	12.9	3.73e-05	0	51	0	104857600	60	4945
2026-01-04 03:19:57.30	33.83	8.49	-48.6	-51.7	12.8	8.23e-05	0	51	0	106954752	60	4989
2026-01-04 03:19:58.29	33.75	8.56	-48.5	-51.4	13.0	3.43e-05	0	51	0	108003328	60	4844
2026-01-04 03:19:59.28	33.66	8.63	-48.4	-51.3	13.2	2.44e-05	0	52	0	110100480	60	4784
2026-01-04 03:20:00.28	33.58	8.70	-48.5	-51.3	13.2	2.21e-05	0	51	0	112197632	59	5067
2026-01-04 03:20:01.26	33.50	8.77	-48.5	-51.3	13.2	2.67e-05	0	52	0	114294784	59	5094
2026-01-04 03:20:02.25	33.42	8.84	-48.6	-51.4	13.1	3.66e-05	0	52	0	116391936	59	5128
2026-01-04 03:20:03.24	33.33	8.91	-48.5	-51.3	13.2	2.36e-05	0	52	0	117440512	59	5052
2026-01-04 03:20:04.23	33.25	8.99	-48.4	-51.2	13.3	1.60e-05	0	52	0	119537664	59	4985
2026-01-04 03:20:05.22	33.17	9.06	-48.4	-51.2	13.3	1.60e-05	0	51	0	121634816	59	4988
2026-01-04 03:20:06.22	33.08	9.13	-48.4	-51.1	13.4	1.06e-05	0	52	0	123731968	59	4954
2026-01-04 03:20:07.21	33.00	9.20	-48.5	-51.2	13.3	1.37e-05	0	52	0	124780544	59	5017
2026-01-04 03:20:08.20	32.91	9.27	-48.4	-51.1	13.4	1.37e-05	0	52	0	126877696	59	4932
2026-01-04 03:20:09.19	32.83	9.35	-48.5	-51.2	13.3	1.29e-05	0	52	0	128974848	59	5021
2026-01-04 03:20:10.18	32.74	9.42	-48.6	-51.4	13.1	1.44e-05	0	52	0	131072000	59	5117
2026-01-04 03:20:11.18	32.65	9.49	-48.4	-51.2	13.4	2.44e-05	0	52	0	132120576	59	4997
2026-01-04 03:20:12.16	32.57	9.57	-48.6	-51.4	13.1	1.98e-05	0	52	0	134217728	59	5141
2026-01-04 03:20:13.15	32.48	9.64	-48.8	-51.8	12.8	5.41e-05	0	52	0	136314880	59	5347
2026-01-04 03:20:14.14	32.39	9.71	-48.5	-51.3	13.2	4.04e-05	0	52	0	138412032	59	5100
2026-01-04 03:20:15.14	32.30	9.79	-48.6	-51.4	13.2	2.13e-05	0	52	0	140509184	59	5140
2026-01-04 03:20:16.12	32.21	9.86	-48.6	-51.3	13.2	2.44e-05	0	52	0	141557760	59	5090
2026-01-04 03:20:17.11	32.12	9.93	-48.5	-51.4	13.2	2.59e-05	0	52	0	143654912	59	5125
2026-01-04 03:20:18.10	32.03	10.01	-48.7	-51.6	12.9	3.05e-05	0	52	0	145752064	59	5265
2026-01-04 03:20:19.09	31.94	10.08	-48.6	-51.4	13.2	3.50e-05	0	52	0	147849216	59	5132
2026-01-04 03:20:20.08	31.85	10.15	-48.6	-51.4	13.1	3.12e-05	0	52	0	148897792	59	5156
2026-01-04 03:20:21.07	31.76	10.23	-48.8	-51.8	12.8	4.88e-05	0	52	0	150994944	59	5362
2026-01-04 03:20:22.05	31.67	10.30	-49.0	-52.1	12.5	7.93e-05	0	52	0	153092096	59	5550
2026-01-04 03:20:23.04	31.58	10.38	-48.7	-51.7	12.9	5.41e-05	0	52	0	155189248	59	5286
2026-01-04 03:20:24.04	31.49	10.45	-48.6	-51.4	13.2	2.36e-05	0	52	0	156237824	59	5155
2026-01-04 03:20:25.02	31.39	10.53	-48.5	-51.2	13.4	1.37e-05	0	52	0	158334976	59	5019
2026-01-04 03:20:26.01	31.30	10.60	-48.4	-51.2	13.5	7.60e-06	0	52	0	160432128	59	4994
2026-01-04 03:20:27.00	31.21	10.68	-48.5	-51.2	13.4	1.75e-05	0	52	0	162529280	59	5025
2026-01-04 03:20:27.98	31.11	10.75	-48.6	-51.4	13.2	1.90e-05	0	53	0	164626432	59	5113
2026-01-04 03:20:28.96	31.02	10.83	-48.8	-51.7	12.9	2.44e-05	0	53	0	165675008	59	5315
2026-01-04 03:20:29.94	30.92	10.90	-48.6	-51.4	13.3	3.96e-05	0	52	0	167772160	59	5117
2026-01-04 03:20:30.92	30.83	10.98	-48.4	-51.1	13.6	1.06e-05	0	52	0	169869312	59	4936
2026-01-04 03:20:31.91	30.73	11.05	-48.2	-50.8	13.8	1.50e-06	0	53	0	171966464	59	4784
2026-01-04 03:20:32.90	30.63	11.13	-48.1	-50.6	14.0	4.50e-06	0	52	0	173015040	59	4677
2026-01-04 03:20:33.89	30.54	11.20	-48.1	-50.5	14.1	2.20e-06	0	53	0	175112192	59	4641
2026-01-04 03:20:34.87	30.44	11.28	-48.2	-50.6	14.0	2.20e-06	0	53	0	177209344	59	4690
2026-01-04 03:20:35.86	30.34	11.36	-48.2	-50.7	14.0	3.00e-06	0	53	0	179306496	59	4728
2026-01-04 03:20:36.85	30.24	11.43	-48.2	-50.7	14.0	3.00e-06	0	53	0	180355072	59	4735
2026-01-04 03:20:37.83	30.14	11.51	-48.2	-50.7	13.9	7.00e-07	0	53	0	182452224	59	4756
2026-01-04 03:20:38.82	30.04	11.59	-48.4	-51.0	13.7	1.50e-06	0	53	0	184549376	59	4893
2026-01-04 03:20:39.82	29.94	11.66	-48.3	-50.9	13.8	2.20e-06	0	53	0	186646528	59	4837
2026-01-04 03:20:40.80	29.84	11.74	-48.4	-51.0	13.7	3.00e-06	0	53	0	187695104	59	4889
2026-01-04 03:20:41.79	29.74	11.82	-48.5	-51.2	13.5	1.52e-05	0	53	0	189792256	59	5030
2026-01-04 03:20:42.77	29.64	11.89	-48.5	-51.2	13.5	5.30e-06	0	53	0	191889408	59	4988
2026-01-04 03:20:43.76	29.53	11.97	-48.5	-51.3	13.4	9.90e-06	0	53	0	193986560	59	5055
2026-01-04 03:20:44.75	29.43	12.05	-48.7	-51.5	13.2	1.52e-05	0	53	0	195035136	59	5192
2026-01-04 03:20:45.73	29.33	12.13	-48.6	-51.4	13.3	2.82e-05	0	53	0	197132288	59	5129
2026-01-04 03:20:46.72	29.22	12.21	-48.5	-51.2	13.5	8.30e-06	0	53	0	199229440	59	5024
2026-01-04 03:20:47.71	29.12	12.28	-48.5	-51.3	13.4	1.44e-05	0	53	0	201326592	59	5064
2026-01-04 03:20:48.70	29.01	12.36	-48.8	-51.6	13.1	2.05e-05	0	53	0	203423744	59	5246
2026-01-04 03:20:49.69	28.90	12.44	-48.6	-51.4	13.2	2.36e-05	0	53	0	204472320	59	5152
2026-01-04 03:20:50.68	28.80	12.52	-48.5	-51.2	13.5	1.44e-05	0	53	0	206569472	59	5004
2026-01-04 03:20:51.66	28.69	12.60	-48.3	-50.9	13.8	4.50e-06	0	53	0	208666624	59	4849
2026-01-04 03:20:52.65	28.58	12.68	-48.3	-50.9	13.8	1.50e-06	0	53	0	210763776	59	4827
2026-01-04 03:20:53.63	28.47	12.76	-48.3	-50.9	13.8	1.50e-06	0	53	0	211812352	59	4831
2026-01-04 03:20:54.63	28.36	12.84	-48.4	-51.1	13.6	7.60e-06	0	53	0	213909504	59	4929
2026-01-04 03:20:55.62	28.25	12.92	-48.4	-51.1	13.6	7.60e-06	0	53	0	216006656	59	4927
2026-01-04 03:20:56.61	28.14	13.00	-48.4	-51.0	13.7	3.80e-06	0	53	0	218103808	59	4926
2026-01-04 03:20:57.60	28.03	13.08	-48.4	-51.1	13.7	6.80e-06	0	53	0	219152384	59	4934
2026-01-04 03:20:58.59	27.92	13.16	-48.3	-50.9	13.9	4.50e-06	0	53	0	221249536	59	4841
2026-01-04 03:20:59.58	27.80	13.24	-48.2	-50.7	14.0	7.00e-07	0	53	0	223346688	59	4724
2026-01-04 03:21:00.57	27.69	13.32	-48.2	-50.7	14.1	0.00e+00	0	53	0	225443840	59	4709
2026-01-04 03:21:01.56	27.58	13.40	-48.3	-50.8	14.0	1.50e-06	0	53	0	227540992	59	4769
2026-01-04 03:21:02.55	27.46	13.48	-48.4	-51.0	13.7	5.30e-06	0	53	0	228589568	59	4886
2026-01-04 03:21:03.53	27.35	13.56	-48.4	-51.0	13.7	7.60e-06	0	54	0	230686720	59	4925
2026-01-04 03:21:04.52	27.23	13.64	-48.3	-50.9	13.8	4.50e-06	0	53	0	232783872	59	4838
2026-01-04 03:21:05.50	27.12	13.72	-48.6	-51.2	13.5	6.10e-06	0	53	0	234881024	59	5040
2026-01-04 03:21:06.49	27.00	13.80	-48.7	-51.4	13.3	2.59e-05	0	53	0	235929600	59	5134
2026-01-04 03:21:07.48	26.88	13.88	-48.6	-51.3	13.5	1.06e-05	0	54	0	238026752	59	5052
2026-01-04 03:21:08.47	26.76	13.96	-48.7	-51.4	13.3	1.67e-05	0	54	0	240123904	59	5154
2026-01-04 03:21:09.46	26.64	14.04	-48.7	-51.5	13.3	2.67e-05	0	54	0	242221056	59	5168
2026-01-04 03:21:10.46	26.52	14.13	-48.5	-51.2	13.5	1.14e-05	0	54	0	244318208	59	5000
2026-01-04 03:21:11.45	26.40	14.21	-48.6	-51.2	13.5	9.10e-06	0	54	0	245366784	59	5009
2026-01-04 03:21:12.45	26.28	14.29	-48.5	-51.2	13.5	6.80e-06	0	54	0	247463936	59	5024
2026-01-04 03:21:13.44	26.16	14.37	-48.6	-51.3	13.4	1.52e-05	0	54	0	249561088	59	5054
2026-01-04 03:21:14.42	26.04	14.46	-48.4	-51.0	13.7	1.06e-05	0	54	0	251658240	59	4894
2026-01-04 03:21:15.40	25.92	14.54	-48.2	-50.7	14.1	2.20e-06	0	54	0	252706816	59	4736
2026-01-04 03:21:16.39	25.79	14.62	-48.1	-50.5	14.3	0.00e+00	0	54	0	254803968	59	4638
2026-01-04 03:21:17.38	25.67	14.70	-48.1	-50.5	14.2	7.00e-07	0	54	0	256901120	59	4639
2026-01-04 03:21:18.36	25.54	14.78	-48.2	-50.5	14.2	0.00e+00	0	54	0	258998272	59	4648
2026-01-04 03:21:19.35	25.42	14.87	-48.2	-50.7	14.1	7.00e-07	0	54	0	260046848	59	4711
2026-01-04 03:21:20.34	25.29	14.95	-48.3	-50.9	13.9	2.20e-06	0	54	0	262144000	59	4819
2026-01-04 03:21:21.33	25.16	15.03	-48.4	-50.9	13.8	3.00e-06	0	54	0	264241152	59	4865
2026-01-04 03:21:22.31	25.03	15.12	-48.4	-50.9	13.9	1.50e-06	0	54	0	266338304	59	4849
2026-01-04 03:21:23.30	24.91	15.20	-48.4	-51.0	13.8	3.00e-06	0	54	0	267386880	59	4879
2026-01-04 03:21:24.28	24.78	15.28	-48.5	-51.1	13.6	9.10e-06	0	54	0	269484032	59	4981
2026-01-04 03:21:25.28	24.65	15.37	-48.4	-50.9	13.9	6.10e-06	0	54	0	271581184	59	4839
2026-01-04 03:21:26.28	24.51	15.45	-48.2	-50.6	14.2	3.80e-06	0	54	0	273678336	59	4689
2026-01-04 03:21:27.27	24.38	15.54	-48.3	-50.7	14.1	0.00e+00	0	54	0	275775488	59	4728
2026-01-04 03:21:28.24	24.25	15.62	-48.4	-50.9	13.8	1.50e-06	0	54	0	276824064	59	4852
2026-01-04 03:21:29.23	24.12	15.71	-48.6	-51.3	13.5	7.60e-06	0	54	0	278921216	59	5047
2026-01-04 03:21:30.21	23.98	15.79	-48.4	-50.9	13.9	6.10e-06	0	54	0	281018368	59	4856
2026-01-04 03:21:31.20	23.85	15.87	-48.2	-50.6	14.2	3.80e-06	0	54	0	283115520	59	4680
2026-01-04 03:21:32.19	23.71	15.96	-48.1	-50.5	14.3	7.00e-07	0	54	0	284164096	59	4648
2026-01-04 03:21:33.18	23.58	16.04	-48.1	-50.5	14.3	7.00e-07	0	54	0	286261248	59	4617
2026-01-04 03:21:34.17	23.44	16.13	-48.1	-50.4	14.4	0.00e+00	0	54	0	288358400	59	4565
2026-01-04 03:21:35.15	23.30	16.21	-48.1	-50.5	14.3	0.00e+00	0	54	0	290455552	59	4606
2026-01-04 03:21:36.14	23.16	16.30	-48.0	-50.2	14.6	7.00e-07	0	54	0	291504128	59	4466
2026-01-04 03:21:37.12	23.02	16.38	-47.8	-50.0	14.8	0.00e+00	0	54	0	293601280	58	4621
2026-01-04 03:21:38.10	22.88	16.47	-47.7	-49.8	15.0	0.00e+00	0	54	0	295698432	58	4542
2026-01-04 03:21:39.09	22.74	16.55	-47.7	-49.8	15.0	0.00e+00	0	54	0	297795584	58	4510
2026-01-04 03:21:40.09	22.60	16.64	-47.8	-50.0	14.9	0.00e+00	0	54	0	298844160	58	4603
2026-01-04 03:21:41.07	22.46	16.73	-47.9	-50.1	14.7	7.00e-07	0	54	0	300941312	58	4699
2026-01-04 03:21:42.06	22.31	16.81	-48.0	-50.2	14.6	0.00e+00	0	54	0	303038464	58	4737
2026-01-04 03:21:43.05	22.17	16.90	-48.1	-50.4	14.5	0.00e+00	0	54	0	305135616	58	4835
2026-01-04 03:21:44.05	22.02	16.99	-47.9	-50.1	14.7	0.00e+00	0	54	0	306184192	58	4702
2026-01-04 03:21:45.04	21.87	17.07	-47.8	-50.0	14.8	0.00e+00	0	54	0	308281344	58	4638
2026-01-04 03:21:46.03	21.73	17.16	-47.9	-50.1	14.8	0.00e+00	0	54	0	310378496	58	4682
2026-01-04 03:21:47.02	21.58	17.24	-47.8	-50.0	14.9	0.00e+00	0	54	0	312475648	58	4633
2026-01-04 03:21:48.00	21.43	17.33	-48.0	-50.3	14.5	0.00e+00	0	54	0	314572800	58	4792
2026-01-04 03:21:49.00	21.28	17.42	-47.9	-50.1	14.7	0.00e+00	0	54	0	315621376	58	4693
2026-01-04 03:21:49.98	21.13	17.50	-48.0	-50.3	14.5	7.00e-07	0	55	0	317718528	58	4800
2026-01-04 03:21:50.98	20.98	17.59	-48.2	-50.6	14.2	0.00e+00	0	54	0	319815680	58	4958
2026-01-04 03:21:51.97	20.82	17.68	-48.0	-50.3	14.6	0.00e+00	0	54	0	321912832	58	4777
2026-01-04 03:21:52.95	20.67	17.77	-47.8	-49.9	14.9	0.00e+00	0	54	0	322961408	58	4591
2026-01-04 03:21:53.94	20.52	17.85	-47.7	-49.7	15.2	0.00e+00	0	54	0	325058560	58	4473
2026-01-04 03:21:54.93	20.36	17.94	-47.5	-49.6	15.3	0.00e+00	0	54	0	327155712	58	4397
2026-01-04 03:21:55.92	20.20	18.03	-47.5	-49.5	15.3	0.00e+00	0	54	0	329252864	58	4373
2026-01-04 03:21:56.91	20.05	18.12	-47.5	-49.6	15.3	0.00e+00	0	55	0	331350016	58	4393
2026-01-04 03:21:57.90	19.89	18.20	-47.6	-49.6	15.3	0.00e+00	0	55	0	332398592	58	4429
2026-01-04 03:21:58.89	19.73	18.29	-47.7	-49.8	15.0	0.00e+00	0	54	0	334495744	58	4528
2026-01-04 03:21:59.88	19.57	18.38	-47.6	-49.7	15.2	0.00e+00	0	55	0	336592896	58	4442
2026-01-04 03:22:00.87	19.41	18.47	-47.7	-49.8	15.1	0.00e+00	0	55	0	338690048	58	4527
2026-01-04 03:22:01.87	19.25	18.56	-47.9	-50.1	14.8	0.00e+00	0	55	0	339738624	58	4668
2026-01-04 03:22:02.85	19.08	18.64	-47.6	-49.6	15.2	0.00e+00	0	54	0	341835776	58	4432
2026-01-04 03:22:03.85	18.92	18.73	-47.6	-49.7	15.3	0.00e+00	0	55	0	343932928	58	4446
2026-01-04 03:22:04.83	18.75	18.82	-47.7	-49.8	15.1	0.00e+00	0	55	0	346030080	58	4543
2026-01-04 03:22:05.82	18.59	18.91	-47.9	-50.1	14.8	0.00e+00	0	55	0	347078656	58	4665
2026-01-04 03:22:06.81	18.42	19.00	-47.8	-50.0	14.9	0.00e+00	0	55	0	349175808	58	4609
2026-01-04 03:22:07.80	18.25	19.08	-48.0	-50.2	14.8	0.00e+00	0	55	0	351272960	58	4711
2026-01-04 03:22:08.78	18.09	19.17	-47.9	-50.0	14.8	0.00e+00	0	55	0	353370112	58	4651
2026-01-04 03:22:09.77	17.92	19.26	-47.8	-49.9	15.0	0.00e+00	0	55	0	355467264	58	4556
2026-01-04 03:22:10.76	17.75	19.35	-47.8	-50.0	14.9	0.00e+00	0	55	0	356515840	58	4639
2026-01-04 03:22:11.75	17.57	19.44	-48.1	-50.3	14.5	0.00e+00	0	55	0	358612992	58	4807
2026-01-04 03:22:12.74	17.40	19.53	-48.0	-50.2	14.7	0.00e+00	0	55	0	360710144	58	4728
2026-01-04 03:22:13.72	17.23	19.61	-47.8	-49.9	15.0	7.00e-07	0	55	0	362807296	58	4573
2026-01-04 03:22:14.70	17.06	19.70	-47.8	-49.9	15.1	0.00e+00	0	55	0	363855872	58	4555
2026-01-04 03:22:15.69	16.88	19.79	-47.8	-50.0	15.0	0.00e+00	0	55	0	365953024	58	4599
2026-01-04 03:22:16.68	16.70	19.88	-48.0	-50.1	14.8	0.00e+00	0	55	0	368050176	58	4705
2026-01-04 03:22:17.67	16.53	19.97	-48.0	-50.1	14.8	0.00e+00	0	55	0	370147328	58	4703
2026-01-04 03:22:18.66	16.35	20.06	-48.0	-50.3	14.6	0.00e+00	0	55	0	371195904	58	4770
2026-01-04 03:22:19.65	16.17	20.15	-48.0	-50.3	14.6	0.00e+00	0	55	0	373293056	58	4782
2026-01-04 03:22:20.64	15.98	20.24	-47.9	-50.2	14.7	0.00e+00	0	55	0	375390208	58	4716
2026-01-04 03:22:21.63	15.80	20.32	-47.9	-50.1	14.8	0.00e+00	0	55	0	377487360	58	4683
2026-01-04 03:22:22.62	15.62	20.41	-47.9	-50.0	14.9	0.00e+00	0	55	0	379584512	58	4651
2026-01-04 03:22:23.62	15.43	20.50	-47.9	-50.2	14.8	7.00e-07	0	55	0	380633088	58	4709
2026-01-04 03:22:24.61	15.25	20.59	-47.9	-50.1	14.8	0.00e+00	0	55	0	382730240	58	4657
2026-01-04 03:22:25.59	15.06	20.68	-47.8	-49.9	15.0	0.00e+00	0	55	0	384827392	58	4572
2026-01-04 03:22:26.57	14.88	20.77	-47.8	-49.9	15.1	0.00e+00	0	55	0	386924544	58	4556
2026-01-04 03:22:27.56	14.69	20.86	-48.0	-50.1	14.8	0.00e+00	0	55	0	387973120	58	4700
2026-01-04 03:22:28.55	14.50	20.95	-47.9	-50.1	14.9	7.00e-07	0	55	0	390070272	58	4653
2026-01-04 03:22:29.53	14.31	21.03	-47.7	-49.8	15.1	0.00e+00	0	55	0	392167424	58	4518
2026-01-04 03:22:30.52	14.12	21.12	-47.8	-50.0	15.0	0.00e+00	0	55	0	394264576	58	4599
2026-01-04 03:22:31.50	13.93	21.21	-47.9	-50.1	14.9	0.00e+00	0	55	0	395313152	58	4653
2026-01-04 03:22:32.49	13.73	21.30	-48.0	-50.2	14.7	0.00e+00	0	55	0	397410304	58	4712
2026-01-04 03:22:33.47	13.54	21.39	-47.7	-49.8	15.1	0.00e+00	0	55	0	399507456	58	4529
2026-01-04 03:22:34.47	13.34	21.48	-47.6	-49.6	15.3	0.00e+00	0	55	0	401604608	58	4421
2026-01-04 03:22:35.46	13.14	21.56	-47.5	-49.4	15.5	0.00e+00	0	55	0	402653184	57	4598
2026-01-04 03:22:36.45	12.94	21.65	-47.4	-49.3	15.6	0.00e+00	0	55	0	404750336	57	4544
2026-01-04 03:22:37.44	12.74	21.74	-47.3	-49.2	15.6	0.00e+00	0	55	0	406847488	57	4471
2026-01-04 03:22:38.43	12.54	21.83	-47.3	-49.2	15.7	0.00e+00	0	55	0	408944640	57	4490
2026-01-04 03:22:39.42	12.34	21.92	-47.3	-49.3	15.6	0.00e+00	0	55	0	411041792	57	4527
2026-01-04 03:22:40.41	12.13	22.01	-47.3	-49.3	15.6	7.00e-07	0	55	0	412090368	57	4495
2026-01-04 03:22:41.40	11.93	22.09	-47.2	-49.2	15.7	0.00e+00	0	55	0	414187520	57	4457
2026-01-04 03:22:42.39	11.72	22.18	-47.4	-49.3	15.6	0.00e+00	0	55	0	416284672	57	4518
2026-01-04 03:22:43.38	11.52	22.27	-47.4	-49.3	15.6	0.00e+00	0	55	0	418381824	57	4520
2026-01-04 03:22:44.37	11.31	22.36	-47.3	-49.3	15.6	0.00e+00	0	55	0	419430400	57	4499
2026-01-04 03:22:45.35	11.10	22.44	-47.3	-49.3	15.6	0.00e+00	0	55	0	421527552	57	4496
2026-01-04 03:22:46.34	10.89	22.53	-47.1	-49.0	15.9	0.00e+00	0	55	0	423624704	57	4358
2026-01-04 03:22:47.33	10.68	22.62	-47.1	-49.0	15.8	0.00e+00	0	55	0	425721856	57	4350
2026-01-04 03:22:48.32	10.46	22.71	-47.0	-48.9	15.9	0.00e+00	0	55	0	426770432	57	4298
2026-01-04 03:22:49.31	10.25	22.79	-46.8	-48.6	16.1	0.00e+00	0	55	0	428867584	56	4431
2026-01-04 03:22:50.31	10.03	22.88	-46.8	-48.6	16.0	0.00e+00	0	55	0	430964736	56	4408
2026-01-04 03:22:51.30	9.82	22.97	-46.6	-48.3	16.2	0.00e+00	0	55	0	433061888	56	4273
2026-01-04 03:22:52.28	9.60	23.05	-46.8	-48.6	15.8	0.00e+00	0	55	0	435159040	56	4440
2026-01-04 03:22:53.27	9.38	23.14	-47.0	-49.1	15.1	0.00e+00	0	55	0	436207616	56	4671
2026-01-04 03:22:54.26	9.16	23.23	-47.2	-49.4	14.7	0.00e+00	0	55	0	438304768	56	4842
2026-01-04 03:22:55.26	8.94	23.31	-47.6	-50.2	13.8	7.00e-07	0	55	0	440401920	57	4988
2026-01-04 03:22:56.25	8.71	23.40	-48.0	-51.0	13.0	1.14e-05	0	55	0	442499072	57	5467
2026-01-04 03:22:57.24	8.49	23.49	-48.2	-51.4	12.4	9.30e-05	0	55	0	443547648	58	5427
2026-01-04 03:22:58.23	8.26	23.57	-48.6	-52.2	11.5	6.34e-04	0	55	0	445644800	59	5624
2026-01-04 03:22:59.22	8.04	23.66	-48.7	-52.5	11.2	8.32e-04	0	55	0	447741952	59	5798
2026-01-04 03:23:00.21	7.81	23.74	-48.7	-52.4	11.2	1.79e-03	0	55	0	449839104	59	5787
2026-01-04 03:23:01.20	7.58	23.83	-48.6	-52.2	11.5	1.19e-03	0	55	0	450887680	59	5593
2026-01-04 03:23:02.19	7.35	23.91	-48.5	-51.9	11.9	5.09e-04	0	55	0	452984832	59	5420
2026-01-04 03:23:03.19	7.11	24.00	-48.3	-51.3	12.6	2.08e-04	0	56	0	455081984	59	5070
2026-01-04 03:23:04.17	6.88	24.08	-48.1	-50.9	13.3	5.26e-05	0	55	0	457179136	59	4815
2026-01-04 03:23:05.17	6.65	24.17	-48.0	-50.6	13.7	1.29e-05	0	55	0	459276288	59	4694
2026-01-04 03:23:06.15	6.41	24.25	-48.2	-50.7	13.8	9.10e-06	0	55	0	460324864	59	4727
2026-01-04 03:23:07.14	6.18	24.33	-47.6	-49.7	14.8	0.00e+00	0	56	0	462422016	58	4490
2026-01-04 03:23:08.13	5.94	24.42	-47.1	-49.0	15.7	1.50e-06	0	56	0	464519168	57	4353
2026-01-04 03:23:09.12	5.70	24.50	-46.5	-48.1	16.5	0.00e+00	0	55	0	466616320	56	4192
2026-01-04 03:23:10.10	5.46	24.58	-46.1	-47.6	16.9	0.00e+00	0	55	0	467664896	55	4184
2026-01-04 03:23:11.10	5.22	24.66	-46.4	-48.1	16.4	0.00e+00	0	56	0	469762048	55	4436
2026-01-04 03:23:12.09	4.97	24.75	-47.4	-49.7	14.7	0.00e+00	0	55	0	471859200	56	4989
2026-01-04 03:23:13.08	4.73	24.83	-48.0	-50.8	13.2	6.10e-06	0	56	0	473956352	57	5377
2026-01-04 03:23:14.07	4.48	24.91	-48.8	-52.6	11.0	3.43e-04	0	56	0	476053504	59	5920
2026-01-04 03:23:15.05	4.24	24.99	-49.2	-54.3	9.0	7.31e-03	0	56	0	477102080	60	6762
2026-01-04 03:23:16.03	3.99	25.07	-49.6	-55.8	7.4	8.85e-02	0	56	0	479199232	61	7575
2026-01-04 03:23:17.02	3.74	25.15	-49.6	-55.6	7.7	1.07e-01	0	56	0	481296384	61	7376
2026-01-04 03:23:18.01	3.49	25.23	-49.6	-54.8	8.7	5.73e-02	0	56	0	483393536	61	6791
2026-01-04 03:23:18.99	3.24	25.31	-49.1	-52.8	11.2	1.25e-02	0	56	0	484442112	61	5392
2026-01-04 03:23:19.98	2.99	25.39	-48.4	-51.1	13.5	3.89e-05	0	56	0	486539264	60	4679
2026-01-04 03:23:20.97	2.73	25.47	-48.2	-50.6	14.3	2.20e-06	0	56	0	488636416	59	4678
2026-01-04 03:23:21.96	2.48	25.55	-48.3	-50.7	14.2	7.00e-07	0	56	0	490733568	59	4739
2026-01-04 03:23:22.95	2.22	25.63	-48.0	-50.1	14.8	0.00e+00	0	56	0	491782144	59	4428
2026-01-04 03:23:23.93	1.97	25.70	-47.5	-49.4	15.5	0.00e+00	0	56	0	493879296	58	4319
2026-01-04 03:23:24.93	1.70	25.78	-47.2	-49.0	15.9	0.00e+00	0	56	0	495976448	57	4378
2026-01-04 03:23:25.91	1.44	25.86	-47.0	-48.8	16.2	0.00e+00	0	56	0	498073600	57	4261
2026-01-04 03:23:26.90	1.18	25.93	-47.0	-48.8	16.2	0.00e+00	0	56	0	500170752	57	4254
2026-01-04 03:23:27.89	0.92	26.01	-47.1	-48.9	16.1	0.00e+00	0	56	0	501219328	57	4305
2026-01-04 03:23:28.88	0.65	26.08	-47.0	-48.7	16.2	0.00e+00	0	56	0	503316480	57	4239
2026-01-04 03:23:29.86	0.39	26.16	-47.1	-48.9	16.1	0.00e+00	0	56	0	505413632	57	4310
2026-01-04 03:23:30.85	0.12	26.23	-47.0	-48.8	16.2	0.00e+00	0	56	0	506462208	57	4270
2026-01-04 03:23:31.84	359.85	26.31	-47.1	-48.9	16.1	0.00e+00	0	56	0	508559360	57	4307
2026-01-04 03:23:32.83	359.58	26.38	-47.2	-49.1	15.9	0.00e+00	0	56	0	510656512	57	4423
2026-01-04 03:23:33.82	359.31	26.45	-47.4	-49.3	15.7	0.00e+00	0	56	0	512753664	57	4544
2026-01-04 03:23:34.80	359.04	26.53	-47.5	-49.4	15.6	0.00e+00	0	56	0	514850816	57	4585
2026-01-04 03:23:35.78	358.77	26.60	-47.4	-49.3	15.7	0.00e+00	0	56	0	515899392	57	4527
2026-01-04 03:23:36.76	358.50	26.67	-47.4	-49.3	15.7	0.00e+00	0	56	0	517996544	57	4538
2026-01-04 03:23:37.75	358.22	26.74	-47.2	-49.0	15.9	0.00e+00	0	56	0	520093696	57	4388
2026-01-04 03:23:38.73	357.95	26.81	-47.1	-49.0	16.0	0.00e+00	0	56	0	522190848	57	4357
2026-01-04 03:23:39.72	357.67	26.88	-47.3	-49.1	15.9	0.00e+00	0	56	0	523239424	57	4433
2026-01-04 03:23:40.72	357.39	26.95	-47.3	-49.2	15.8	0.00e+00	0	56	0	525336576	57	4477
2026-01-04 03:23:41.71	357.10	27.02	-47.3	-49.1	15.8	0.00e+00	0	56	0	527433728	57	4440
2026-01-04 03:23:42.70	356.82	27.09	-47.2	-49.1	15.9	0.00e+00	0	56	0	529530880	57	4404
2026-01-04 03:23:43.69	356.54	27.15	-47.3	-49.1	15.9	0.00e+00	0	56	0	530579456	57	4438
2026-01-04 03:23:44.68	356.25	27.22	-47.2	-49.1	15.9	0.00e+00	0	56	0	532676608	57	4408
2026-01-04 03:23:45.67	355.97	27.29	-47.5	-49.4	15.6	0.00e+00	0	56	0	534773760	57	4574
2026-01-04 03:23:46.66	355.68	27.35	-47.5	-49.4	15.6	0.00e+00	0	56	0	536870912	57	4559
2026-01-04 03:23:47.64	355.39	27.42	-47.5	-49.4	15.6	0.00e+00	0	56	0	538968064	57	4565
2026-01-04 03:23:48.62	355.11	27.48	-47.6	-49.6	15.4	0.00e+00	0	56	0	540016640	57	4699
2026-01-04 03:23:49.61	354.82	27.55	-47.6	-49.7	15.4	0.00e+00	0	56	0	542113792	57	4713
2026-01-04 03:23:50.61	354.52	27.61	-47.5	-49.5	15.5	0.00e+00	0	56	0	544210944	57	4613
2026-01-04 03:23:51.60	354.23	27.67	-47.5	-49.4	15.6	0.00e+00	0	56	0	546308096	57	4579
2026-01-04 03:23:52.59	353.93	27.73	-47.7	-49.7	15.3	0.00e+00	0	56	0	547356672	57	4737
2026-01-04 03:23:53.58	353.64	27.79	-47.9	-50.1	14.9	0.00e+00	0	56	0	549453824	57	4944
2026-01-04 03:23:54.57	353.34	27.85	-48.0	-50.2	14.8	0.00e+00	0	56	0	551550976	57	5023
2026-01-04 03:23:55.55	353.05	27.91	-47.9	-50.0	15.0	0.00e+00	0	56	0	553648128	57	4912
2026-01-04 03:23:56.54	352.75	27.97	-47.8	-49.8	15.2	0.00e+00	0	56	0	554696704	57	4787
2026-01-04 03:23:57.53	352.45	28.03	-47.6	-49.7	15.3	0.00e+00	0	56	0	556793856	57	4743
2026-01-04 03:23:58.52	352.15	28.09	-47.6	-49.7	15.3	0.00e+00	0	56	0	558891008	57	4728
2026-01-04 03:23:59.50	351.85	28.14	-47.8	-49.9	15.1	0.00e+00	0	56	0	560988160	57	4839
2026-01-04 03:24:00.49	351.54	28.20	-47.8	-50.0	15.0	0.00e+00	0	56	0	562036736	57	4891
2026-01-04 03:24:01.49	351.24	28.25	-47.8	-49.9	15.1	0.00e+00	0	56	0	564133888	57	4842
2026-01-04 03:24:02.48	350.93	28.31	-47.8	-49.8	15.1	0.00e+00	0	56	0	566231040	57	4807
2026-01-04 03:24:03.47	350.63	28.36	-47.8	-49.9	15.1	0.00e+00	0	56	0	568328192	57	4863
2026-01-04 03:24:04.47	350.32	28.41	-47.9	-50.2	14.8	0.00e+00	0	56	0	570425344	57	4994
2026-01-04 03:24:05.46	350.01	28.47	-48.0	-50.2	14.9	0.00e+00	0	56	0	571473920	58	4714
2026-01-04 03:24:06.44	349.70	28.52	-48.0	-50.1	14.9	0.00e+00	0	56	0	573571072	58	4688
2026-01-04 03:24:07.43	349.39	28.57	-48.1	-50.3	14.6	0.00e+00	0	56	0	575668224	58	4811
2026-01-04 03:24:08.42	349.08	28.62	-48.2	-50.5	14.6	2.20e-06	0	56	0	577765376	58	4884
2026-01-04 03:24:09.40	348.77	28.66	-48.4	-50.7	14.3	7.00e-07	0	56	0	578813952	58	5030
2026-01-04 03:24:10.39	348.46	28.71	-48.3	-50.6	14.4	2.20e-06	0	56	0	580911104	58	4971
2026-01-04 03:24:11.38	348.14	28.76	-48.3	-50.6	14.4	1.50e-06	0	56	0	583008256	58	4945
2026-01-04 03:24:12.38	347.82	28.80	-48.4	-50.7	14.3	7.00e-07	0	56	0	585105408	58	5026
2026-01-04 03:24:13.36	347.51	28.85	-48.2	-50.5	14.5	1.50e-06	0	56	0	587202560	58	4897
2026-01-04 03:24:14.35	347.19	28.89	-48.2	-50.5	14.5	7.00e-07	0	56	0	588251136	58	4908
2026-01-04 03:24:15.33	346.88	28.93	-48.3	-50.6	14.4	0.00e+00	0	56	0	590348288	58	4979
2026-01-04 03:24:16.33	346.56	28.98	-48.4	-50.7	14.3	0.00e+00	0	56	0	592445440	58	5019
2026-01-04 03:24:17.31	346.24	29.02	-48.3	-50.6	14.4	0.00e+00	0	56	0	594542592	58	4937
2026-01-04 03:24:18.31	345.92	29.06	-48.2	-50.5	14.5	7.00e-07	0	56	0	595591168	58	4915
2026-01-04 03:24:19.30	345.60	29.10	-48.3	-50.6	14.4	1.50e-06	0	56	0	597688320	58	4959
2026-01-04 03:24:20.29	345.28	29.14	-48.0	-50.2	14.8	0.00e+00	0	56	0	599785472	58	4752
2026-01-04 03:24:21.28	344.95	29.17	-48.0	-50.2	14.9	0.00e+00	0	56	0	601882624	58	4706
2026-01-04 03:24:22.27	344.63	29.21	-48.1	-50.3	14.7	0.00e+00	0	56	0	602931200	58	4813
2026-01-04 03:24:23.26	344.31	29.24	-48.2	-50.5	14.5	7.00e-07	0	56	0	605028352	58	4912
2026-01-04 03:24:24.25	343.98	29.28	-48.1	-50.3	14.7	7.00e-07	0	56	0	607125504	58	4809
2026-01-04 03:24:25.24	343.66	29.31	-48.0	-50.2	14.8	0.00e+00	0	56	0	609222656	58	4714
2026-01-04 03:24:26.23	343.33	29.34	-48.0	-50.1	14.9	0.00e+00	0	56	0	611319808	58	4691
2026-01-04 03:24:27.22	343.00	29.38	-48.1	-50.3	14.7	0.00e+00	0	56	0	612368384	58	4783
2026-01-04 03:24:28.21	342.68	29.41	-48.0	-50.1	14.9	0.00e+00	0	56	0	614465536	58	4685
2026-01-04 03:24:29.20	342.35	29.43	-48.0	-50.2	14.8	0.00e+00	0	56	0	616562688	58	4721
2026-01-04 03:24:30.19	342.02	29.46	-48.2	-50.4	14.6	0.00e+00	0	56	0	618659840	58	4848
2026-01-04 03:24:31.18	341.69	29.49	-48.3	-50.6	14.5	0.00e+00	0	56	0	619708416	58	4941
2026-01-04 03:24:32.18	341.36	29.52	-48.4	-50.8	14.3	7.00e-07	0	56	0	621805568	58	5055
2026-01-04 03:24:33.17	341.03	29.54	-48.3	-50.7	14.4	1.50e-06	0	56	0	623902720	58	4992
2026-01-04 03:24:34.16	340.70	29.57	-48.3	-50.7	14.3	3.00e-06	0	56	0	625999872	58	4994
2026-01-04 03:24:35.15	340.37	29.59	-48.3	-50.6	14.4	7.00e-07	0	56	0	628097024	58	4960
2026-01-04 03:24:36.14	340.03	29.61	-48.4	-50.9	14.2	2.20e-06	0	56	0	629145600	58	5116
2026-01-04 03:24:37.14	339.70	29.63	-48.7	-51.2	13.8	3.00e-06	0	56	0	631242752	59	5030
2026-01-04 03:24:38.12	339.37	29.65	-48.6	-51.2	13.8	2.20e-06	0	56	0	633339904	59	4993
2026-01-04 03:24:39.11	339.04	29.67	-48.7	-51.3	13.7	6.80e-06	0	56	0	635437056	59	5070
2026-01-04 03:24:40.09	338.71	29.69	-48.6	-51.1	14.0	1.50e-06	0	56	0	636485632	59	4929
2026-01-04 03:24:41.09	338.37	29.70	-48.5	-50.9	14.1	1.50e-06	0	56	0	638582784	59	4843
2026-01-04 03:24:42.08	338.03	29.72	-48.5	-50.9	14.1	2.20e-06	0	56	0	640679936	59	4859
2026-01-04 03:24:43.07	337.70	29.73	-48.5	-50.9	14.1	1.50e-06	0	56	0	642777088	59	4851
2026-01-04 03:24:44.07	337.36	29.75	-48.7	-51.2	13.8	2.20e-06	0	56	0	643825664	59	5026
2026-01-04 03:24:45.06	337.03	29.76	-48.7	-51.4	13.7	7.60e-06	0	56	0	645922816	59	5119
2026-01-04 03:24:46.05	336.69	29.77	-48.7	-51.2	13.9	4.50e-06	0	56	0	648019968	59	5022
2026-01-04 03:24:47.04	336.36	29.78	-48.7	-51.3	13.7	6.80e-06	0	56	0	650117120	59	5086
2026-01-04 03:24:48.04	336.02	29.79	-48.9	-51.7	13.4	9.10e-06	0	56	0	652214272	59	5297
2026-01-04 03:24:49.02	335.69	29.80	-48.8	-51.5	13.5	9.90e-06	0	56	0	653262848	59	5201
2026-01-04 03:24:50.01	335.35	29.81	-48.8	-51.5	13.6	9.10e-06	0	56	0	655360000	59	5191
2026-01-04 03:24:51.00	335.01	29.81	-48.8	-51.3	13.7	6.80e-06	0	57	0	657457152	59	5087
2026-01-04 03:24:52.00	334.67	29.82	-48.8	-51.5	13.6	1.29e-05	0	56	0	659554304	59	5167
2026-01-04 03:24:52.98	334.34	29.82	-49.0	-51.8	13.2	7.60e-06	0	56	0	660602880	59	5402
2026-01-04 03:24:53.97	334.00	29.82	-49.0	-51.8	13.2	1.67e-05	0	56	0	662700032	59	5376
2026-01-04 03:24:54.96	333.67	29.82	-49.1	-52.1	13.0	3.81e-05	0	56	0	664797184	60	5221
2026-01-04 03:24:55.94	333.34	29.82	-49.0	-51.8	13.2	2.89e-05	0	56	0	666894336	60	5089
2026-01-04 03:24:56.93	333.00	29.82	-48.8	-51.5	13.6	1.60e-05	0	56	0	667942912	60	4884
2026-01-04 03:24:57.92	332.66	29.82	-48.6	-51.2	13.9	3.80e-06	0	56	0	670040064	60	4730
2026-01-04 03:24:58.91	332.33	29.82	-48.5	-51.1	14.0	3.00e-06	0	56	0	672137216	60	4678
2026-01-04 03:24:59.90	331.99	29.81	-48.6	-51.1	14.0	2.20e-06	0	56	0	674234368	60	4658
2026-01-04 03:25:00.89	331.65	29.81	-48.4	-50.9	14.2	2.20e-06	0	56	0	675282944	60	4562
2026-01-04 03:25:01.88	331.32	29.80	-48.3	-50.7	14.3	7.00e-07	0	56	0	677380096	59	4757
2026-01-04 03:25:02.87	330.98	29.79	-48.5	-51.0	14.0	7.00e-07	0	56	0	679477248	59	4911
2026-01-04 03:25:03.85	330.65	29.78	-48.5	-50.9	14.1	1.50e-06	0	56	0	681574400	59	4860
2026-01-04 03:25:04.84	330.31	29.77	-48.5	-51.0	14.2	2.20e-06	0	56	0	683671552	59	4871
2026-01-04 03:25:05.83	329.98	29.76	-48.5	-50.8	14.2	1.50e-06	0	56	0	684720128	59	4810
2026-01-04 03:25:06.82	329.64	29.75	-48.5	-50.9	14.2	3.00e-06	0	56	0	686817280	59	4855
2026-01-04 03:25:07.81	329.31	29.74	-48.4	-50.7	14.3	1.50e-06	0	56	0	688914432	59	4758
2026-01-04 03:25:08.80	328.97	29.72	-48.3	-50.6	14.4	0.00e+00	0	56	0	691011584	59	4700
2026-01-04 03:25:09.79	328.64	29.71	-48.2	-50.5	14.6	1.50e-06	0	56	0	692060160	59	4618
2026-01-04 03:25:10.78	328.31	29.69	-48.3	-50.7	14.4	0.00e+00	0	56	0	694157312	59	4717
2026-01-04 03:25:11.77	327.97	29.67	-48.3	-50.5	14.6	0.00e+00	0	56	0	696254464	59	4638
2026-01-04 03:25:12.76	327.64	29.66	-48.2	-50.5	14.6	0.00e+00	0	56	0	698351616	59	4614
2026-01-04 03:25:13.75	327.31	29.64	-48.0	-50.2	14.9	7.00e-07	0	56	0	699400192	59	4447
2026-01-04 03:25:14.73	326.98	29.62	-47.8	-49.8	15.2	0.00e+00	0	56	0	701497344	58	4542
2026-01-04 03:25:15.71	326.65	29.59	-47.8	-49.9	15.2	0.00e+00	0	56	0	703594496	58	4594
2026-01-04 03:25:16.70	326.32	29.57	-47.8	-49.9	15.2	0.00e+00	0	56	0	705691648	58	4578
2026-01-04 03:25:17.69	325.99	29.55	-47.9	-50.0	15.1	0.00e+00	0	57	0	707788800	58	4641
2026-01-04 03:25:18.68	325.66	29.52	-48.2	-50.4	14.7	7.00e-07	0	56	0	708837376	58	4855
2026-01-04 03:25:19.66	325.33	29.50	-48.2	-50.4	14.6	7.00e-07	0	56	0	710934528	58	4867
2026-01-04 03:25:20.65	325.00	29.47	-48.2	-50.4	14.7	0.00e+00	0	56	0	713031680	58	4859
2026-01-04 03:25:21.64	324.67	29.44	-48.1	-50.3	14.7	0.00e+00	0	56	0	715128832	58	4806
2026-01-04 03:25:22.64	324.34	29.41	-47.9	-49.9	15.2	0.00e+00	0	56	0	716177408	58	4574
2026-01-04 03:25:23.62	324.02	29.38	-47.9	-49.9	15.2	0.00e+00	0	56	0	718274560	58	4589
2026-01-04 03:25:24.61	323.69	29.35	-47.8	-49.8	15.4	0.00e+00	0	57	0	720371712	58	4502
2026-01-04 03:25:25.60	323.36	29.32	-47.7	-49.7	15.3	0.00e+00	0	56	0	722468864	58	4491
2026-01-04 03:25:26.59	323.04	29.29	-47.8	-49.8	15.3	0.00e+00	0	56	0	723517440	58	4542
2026-01-04 03:25:27.57	322.72	29.25	-47.9	-49.9	15.2	0.00e+00	0	56	0	725614592	58	4570
2026-01-04 03:25:28.56	322.39	29.22	-47.6	-49.6	15.5	0.00e+00	0	56	0	727711744	58	4417
2026-01-04 03:25:29.55	322.07	29.18	-47.7	-49.7	15.4	0.00e+00	0	56	0	729808896	58	4457
2026-01-04 03:25:30.54	321.74	29.14	-47.9	-49.9	15.2	0.00e+00	0	56	0	731906048	58	4596
2026-01-04 03:25:31.52	321.43	29.11	-47.9	-50.1	15.0	7.00e-07	0	56	0	732954624	58	4669
2026-01-04 03:25:32.51	321.10	29.07	-47.7	-49.8	15.3	0.00e+00	0	56	0	735051776	58	4509
2026-01-04 03:25:33.51	320.78	29.03	-47.8	-49.8	15.4	0.00e+00	0	57	0	737148928	58	4510
2026-01-04 03:25:34.50	320.46	28.99	-47.8	-49.8	15.4	0.00e+00	0	57	0	739246080	58	4500
2026-01-04 03:25:35.50	320.14	28.94	-47.9	-50.0	15.1	0.00e+00	0	56	0	740294656	58	4626
2026-01-04 03:25:36.49	319.82	28.90	-47.9	-50.0	15.1	7.00e-07	0	56	0	742391808	58	4636
2026-01-04 03:25:37.47	319.51	28.86	-48.0	-50.1	15.0	0.00e+00	0	56	0	744488960	58	4698
2026-01-04 03:25:38.47	319.19	28.81	-48.2	-50.5	14.6	0.00e+00	0	56	0	746586112	58	4883
2026-01-04 03:25:39.46	318.87	28.77	-48.3	-50.6	14.6	0.00e+00	0	57	0	748683264	58	4936
2026-01-04 03:25:40.45	318.56	28.72	-48.2	-50.5	14.5	1.50e-06	0	57	0	749731840	58	4918
2026-01-04 03:25:41.43	318.25	28.68	-48.3	-50.7	14.4	7.00e-07	0	56	0	751828992	58	4995
2026-01-04 03:25:42.42	317.93	28.63	-48.4	-50.8	14.3	7.00e-07	0	57	0	753926144	58	5070
2026-01-04 03:25:43.41	317.62	28.58	-48.6	-51.0	14.1	1.50e-06	0	57	0	756023296	59	4912
2026-01-04 03:25:44.40	317.31	28.53	-48.6	-51.2	13.9	2.20e-06	0	56	0	757071872	59	5007
2026-01-04 03:25:45.39	317.00	28.48	-48.9	-51.5	13.6	6.80e-06	0	57	0	759169024	59	5173
2026-01-04 03:25:46.37	316.70	28.43	-48.7	-51.3	13.8	4.50e-06	0	56	0	761266176	59	5049
2026-01-04 03:25:47.36	316.39	28.37	-48.7	-51.2	13.9	3.80e-06	0	57	0	763363328	59	5038
2026-01-04 03:25:48.34	316.08	28.32	-48.7	-51.4	13.7	3.80e-06	0	56	0	764411904	59	5130
2026-01-04 03:25:49.32	315.78	28.27	-48.6	-51.1	14.0	3.80e-06	0	56	0	766509056	59	4972
2026-01-04 03:25:50.31	315.48	28.21	-48.4	-50.9	14.2	1.50e-06	0	57	0	768606208	59	4826
2026-01-04 03:25:51.30	315.17	28.16	-48.4	-50.8	14.3	7.00e-07	0	56	0	770703360	59	4786
2026-01-04 03:25:52.29	314.87	28.10	-48.5	-50.9	14.2	7.00e-07	0	57	0	771751936	59	4836
2026-01-04 03:25:53.28	314.57	28.04	-48.5	-51.0	14.1	1.50e-06	0	56	0	773849088	59	4914
2026-01-04 03:25:54.26	314.27	27.99	-48.6	-51.2	13.9	3.80e-06	0	57	0	775946240	59	5030
2026-01-04 03:25:55.25	313.97	27.93	-48.5	-51.0	14.1	2.20e-06	0	57	0	778043392	59	4878
2026-01-04 03:25:56.24	313.67	27.87	-48.3	-50.7	14.4	7.00e-07	0	57	0	779091968	59	4716
2026-01-04 03:25:57.24	313.37	27.81	-48.2	-50.6	14.5	0.00e+00	0	57	0	781189120	59	4652
2026-01-04 03:25:58.23	313.08	27.75	-48.2	-50.4	14.6	7.00e-07	0	56	0	783286272	59	4597
2026-01-04 03:25:59.22	312.78	27.69	-48.3	-50.6	14.5	0.00e+00	0	56	0	785383424	59	4691
2026-01-04 03:26:00.21	312.49	27.62	-48.5	-50.8	14.3	0.00e+00	0	57	0	787480576	59	4803
2026-01-04 03:26:01.20	312.20	27.56	-48.5	-50.9	14.2	7.00e-07	0	56	0	788529152	59	4854
2026-01-04 03:26:02.19	311.90	27.50	-48.5	-51.0	14.1	4.50e-06	0	56	0	790626304	59	4876
2026-01-04 03:26:03.18	311.61	27.43	-48.7	-51.2	14.0	3.00e-06	0	57	0	792723456	59	4999
2026-01-04 03:26:04.17	311.32	27.37	-48.7	-51.3	13.7	4.50e-06	0	57	0	794820608	59	5083
2026-01-04 03:26:05.15	311.04	27.30	-48.7	-51.2	13.8	3.80e-06	0	56	0	795869184	59	5033
2026-01-04 03:26:06.14	310.75	27.24	-48.6	-51.2	13.9	3.80e-06	0	56	0	797966336	59	5033
2026-01-04 03:26:07.13	310.47	27.17	-48.7	-51.3	13.7	2.20e-06	0	56	0	800063488	59	5085
2026-01-04 03:26:08.13	310.18	27.10	-48.8	-51.5	13.6	6.80e-06	0	57	0	802160640	59	5192
2026-01-04 03:26:09.12	309.90	27.03	-48.6	-51.1	13.9	3.00e-06	0	56	0	804257792	59	4965
2026-01-04 03:26:10.11	309.61	26.97	-48.5	-50.9	14.2	4.50e-06	0	57	0	805306368	59	4853
2026-01-04 03:26:11.10	309.33	26.90	-48.3	-50.6	14.4	0.00e+00	0	57	0	807403520	59	4703
2026-01-04 03:26:12.09	309.05	26.83	-48.4	-50.8	14.2	0.00e+00	0	57	0	809500672	59	4797
2026-01-04 03:26:13.09	308.77	26.76	-48.3	-50.7	14.4	0.00e+00	0	56	0	811597824	59	4721
2026-01-04 03:26:14.08	308.50	26.68	-48.5	-50.9	14.2	1.50e-06	0	56	0	812646400	59	4833
2026-01-04 03:26:15.06	308.22	26.61	-48.4	-50.7	14.4	0.00e+00	0	57	0	814743552	59	4732
2026-01-04 03:26:16.06	307.95	26.54	-48.4	-50.8	14.3	1.50e-06	0	57	0	816840704	59	4764
2026-01-04 03:26:17.05	307.67	26.47	-48.3	-50.7	14.4	2.20e-06	0	56	0	818937856	59	4721
2026-01-04 03:26:18.04	307.40	26.39	-48.3	-50.7	14.4	1.50e-06	0	56	0	819986432	59	4720
2026-01-04 03:26:19.03	307.13	26.32	-48.3	-50.5	14.5	7.00e-07	0	57	0	822083584	59	4650
2026-01-04 03:26:20.02	306.86	26.25	-48.4	-50.8	14.3	7.00e-07	0	57	0	824180736	59	4776
2026-01-04 03:26:21.01	306.59	26.17	-48.5	-50.9	14.2	7.00e-07	0	57	0	826277888	59	4852
2026-01-04 03:26:21.99	306.33	26.10	-48.3	-50.6	14.4	7.00e-07	0	57	0	828375040	59	4695
2026-01-04 03:26:22.99	306.06	26.02	-48.2	-50.4	14.6	7.00e-07	0	57	0	829423616	59	4568
2026-01-04 03:26:23.97	305.80	25.95	-48.2	-50.4	14.7	0.00e+00	0	57	0	831520768	59	4553
2026-01-04 03:26:24.96	305.54	25.87	-48.2	-50.4	14.6	0.00e+00	0	57	0	833617920	59	4594
2026-01-04 03:26:25.94	305.28	25.79	-48.4	-50.7	14.4	7.00e-07	0	57	0	835715072	59	4732
2026-01-04 03:26:26.92	305.02	25.72	-48.2	-50.4	14.6	0.00e+00	0	57	0	836763648	59	4591
2026-01-04 03:26:27.91	304.76	25.64	-48.0	-50.2	14.9	0.00e+00	0	57	0	838860800	59	4442
2026-01-04 03:26:28.88	304.51	25.56	-47.8	-49.9	15.2	0.00e+00	0	57	0	840957952	58	4571
2026-01-04 03:26:29.87	304.25	25.48	-47.7	-49.6	15.4	0.00e+00	0	56	0	843055104	58	4438
2026-01-04 03:26:30.86	304.00	25.40	-47.8	-49.8	15.3	0.00e+00	0	57	0	844103680	58	4501
2026-01-04 03:26:31.85	303.74	25.33	-47.6	-49.6	15.5	0.00e+00	0	57	0	846200832	58	4416
2026-01-04 03:26:32.84	303.49	25.25	-47.7	-49.8	15.3	0.00e+00	0	57	0	848297984	58	4499
2026-01-04 03:26:33.82	303.24	25.17	-47.5	-49.4	15.6	0.00e+00	0	57	0	850395136	58	4327
2026-01-04 03:26:34.81	302.99	25.09	-47.4	-49.2	15.9	0.00e+00	0	57	0	851443712	57	4486
2026-01-04 03:26:35.81	302.74	25.00	-47.3	-49.1	15.9	0.00e+00	0	57	0	853540864	57	4438
2026-01-04 03:26:36.79	302.49	24.92	-47.4	-49.2	15.8	0.00e+00	0	57	0	855638016	57	4487
2026-01-04 03:26:37.78	302.25	24.84	-47.3	-49.2	15.9	0.00e+00	0	56	0	857735168	57	4454
2026-01-04 03:26:38.77	302.00	24.76	-47.4	-49.2	15.8	0.00e+00	0	57	0	859832320	57	4486
2026-01-04 03:26:39.77	301.75	24.68	-47.3	-49.2	15.8	0.00e+00	0	57	0	860880896	57	4462
2026-01-04 03:26:40.76	301.51	24.60	-47.3	-49.1	16.0	0.00e+00	0	57	0	862978048	57	4412
2026-01-04 03:26:41.76	301.27	24.51	-47.4	-49.2	15.8	0.00e+00	0	57	0	865075200	57	4488
2026-01-04 03:26:42.75	301.03	24.43	-47.2	-49.0	16.0	0.00e+00	0	57	0	867172352	57	4368
2026-01-04 03:26:43.74	300.79	24.35	-47.1	-48.8	16.2	0.00e+00	0	57	0	868220928	57	4275
2026-01-04 03:26:44.73	300.55	24.26	-47.0	-48.7	16.4	0.00e+00	0	57	0	870318080	57	4209
2026-01-04 03:26:45.71	300.32	24.18	-46.9	-48.6	16.4	0.00e+00	0	57	0	872415232	57	4184
2026-01-04 03:26:46.70	300.08	24.09	-47.0	-48.7	16.3	0.00e+00	0	57	0	874512384	57	4219
2026-01-04 03:26:47.69	299.85	24.01	-47.1	-48.8	16.2	0.00e+00	0	57	0	875560960	57	4273
2026-01-04 03:26:48.69	299.61	23.92	-47.1	-48.9	16.1	0.00e+00	0	57	0	877658112	57	4320
2026-01-04 03:26:49.68	299.38	23.84	-47.0	-48.7	16.3	0.00e+00	0	57	0	879755264	57	4238
2026-01-04 03:26:50.67	299.15	23.75	-46.8	-48.5	16.6	0.00e+00	0	57	0	881852416	56	4346
2026-01-04 03:26:51.65	298.93	23.67	-46.6	-48.2	16.8	0.00e+00	0	57	0	883949568	56	4200
2026-01-04 03:26:52.65	298.70	23.58	-46.5	-48.0	17.0	0.00e+00	0	57	0	884998144	56	4139
2026-01-04 03:26:53.63	298.47	23.50	-46.4	-47.9	17.1	0.00e+00	0	56	0	887095296	56	4090
2026-01-04 03:26:54.62	298.25	23.41	-46.4	-48.0	17.0	0.00e+00	0	57	0	889192448	56	4117
2026-01-04 03:26:55.60	298.03	23.33	-46.5	-48.1	16.9	0.00e+00	0	57	0	891289600	56	4168
2026-01-04 03:26:56.60	297.80	23.24	-46.5	-48.1	17.0	0.00e+00	0	57	0	892338176	56	4153
2026-01-04 03:26:57.59	297.58	23.15	-46.7	-48.3	16.7	0.00e+00	0	57	0	894435328	56	4268
2026-01-04 03:26:58.58	297.36	23.07	-46.6	-48.2	16.8	0.00e+00	0	57	0	896532480	56	4218
2026-01-04 03:26:59.57	297.14	22.98	-46.2	-47.7	17.2	0.00e+00	0	57	0	898629632	55	4218
2026-01-04 03:27:00.56	296.93	22.89	-46.1	-47.5	17.4	0.00e+00	0	57	0	900726784	55	4127
2026-01-04 03:27:01.55	296.71	22.81	-46.0	-47.5	17.4	0.00e+00	0	57	0	901775360	55	4101
2026-01-04 03:27:02.54	296.50	22.72	-46.0	-47.4	17.5	0.00e+00	0	57	0	903872512	55	4083
2026-01-04 03:27:03.52	296.28	22.63	-46.0	-47.4	17.5	0.00e+00	0	57	0	905969664	55	4061
2026-01-04 03:27:04.52	296.07	22.54	-45.9	-47.4	17.5	0.00e+00	0	57	0	908066816	55	4053
2026-01-04 03:27:05.51	295.86	22.46	-45.9	-47.3	17.6	0.00e+00	0	57	0	909115392	54	4245
2026-01-04 03:27:06.50	295.65	22.37	-45.9	-47.2	17.6	0.00e+00	0	57	0	911212544	54	4233
2026-01-04 03:27:07.49	295.44	22.28	-45.8	-47.2	17.7	0.00e+00	0	57	0	913309696	54	4201
2026-01-04 03:27:08.47	295.23	22.19	-45.8	-47.2	17.7	0.00e+00	0	57	0	915406848	54	4223
2026-01-04 03:27:09.46	295.03	22.11	-45.8	-47.2	17.7	0.00e+00	0	57	0	916455424	54	4207
2026-01-04 03:27:10.45	294.82	22.02	-45.8	-47.1	17.8	0.00e+00	0	57	0	918552576	54	4175
2026-01-04 03:27:11.44	294.62	21.93	-45.8	-47.1	17.7	0.00e+00	0	57	0	920649728	54	4190
2026-01-04 03:27:12.43	294.41	21.84	-45.8	-47.1	17.8	0.00e+00	0	57	0	922746880	54	4173
2026-01-04 03:27:13.42	294.21	21.75	-45.5	-46.8	18.0	0.00e+00	0	57	0	924844032	54	4049
2026-01-04 03:27:14.41	294.01	21.66	-45.5	-46.8	18.1	0.00e+00	0	57	0	925892608	54	4031
2026-01-04 03:27:15.40	293.81	21.57	-45.5	-46.9	18.0	0.00e+00	0	57	0	927989760	54	4055
2026-01-04 03:27:16.38	293.61	21.49	-45.7	-47.0	17.8	0.00e+00	0	57	0	930086912	54	4129
2026-01-04 03:27:17.37	293.42	21.40	-45.8	-47.2	17.6	0.00e+00	0	57	0	932184064	54	4225
2026-01-04 03:27:18.35	293.22	21.31	-45.9	-47.4	17.5	0.00e+00	0	57	0	933232640	54	4304
2026-01-04 03:27:19.34	293.03	21.22	-45.9	-47.4	17.4	0.00e+00	0	57	0	935329792	54	4303
2026-01-04 03:27:20.33	292.83	21.13	-46.1	-47.6	17.2	0.00e+00	0	57	0	937426944	54	4397
2026-01-04 03:27:21.32	292.64	21.04	-46.1	-47.7	17.1	0.00e+00	0	57	0	939524096	54	4451
2026-01-04 03:27:22.31	292.45	20.96	-46.3	-47.9	16.8	0.00e+00	0	57	0	940572672	54	4564
2026-01-04 03:27:23.29	292.26	20.87	-46.4	-48.1	16.5	0.00e+00	0	57	0	942669824	54	4669
2026-01-04 03:27:24.28	292.07	20.78	-46.7	-48.5	16.1	0.00e+00	0	57	0	944766976	55	4608
2026-01-04 03:27:25.27	291.88	20.69	-46.9	-48.8	15.8	0.00e+00	0	57	0	946864128	55	4765
2026-01-04 03:27:26.26	291.70	20.60	-47.4	-49.5	15.0	0.00e+00	0	57	0	947912704	56	4896
2026-01-04 03:27:27.25	291.51	20.51	-47.6	-49.9	14.6	7.00e-07	0	57	0	950009856	57	4835
2026-01-04 03:27:28.23	291.33	20.42	-48.1	-50.8	13.6	6.10e-06	0	57	0	952107008	58	5053
2026-01-04 03:27:29.23	291.14	20.33	-48.4	-51.4	12.8	3.96e-05	0	57	0	954204160	58	5423
2026-01-04 03:27:30.21	290.96	20.25	-48.7	-51.9	12.2	1.11e-04	0	57	0	956301312	59	5445
2026-01-04 03:27:31.20	290.78	20.16	-48.8	-52.4	11.6	5.19e-04	0	57	0	957349888	59	5754
2026-01-04 03:27:32.19	290.60	20.07	-49.0	-52.8	11.1	1.22e-03	0	57	0	959447040	59	6050
2026-01-04 03:27:33.18	290.42	19.98	-49.1	-53.3	10.5	2.72e-03	0	57	0	961544192	60	6004
2026-01-04 03:27:34.16	290.24	19.89	-49.3	-53.8	10.0	5.59e-03	0	57	0	963641344	60	6355
2026-01-04 03:27:35.15	290.06	19.80	-49.1	-53.6	10.1	7.24e-03	0	57	0	964689920	60	6261
2026-01-04 03:27:36.14	289.89	19.71	-49.3	-53.8	9.9	7.84e-03	0	57	0	966787072	60	6378
2026-01-04 03:27:37.13	289.71	19.62	-49.5	-54.6	9.0	1.59e-02	0	57	0	968884224	60	6997
2026-01-04 03:27:38.13	289.54	19.53	-49.6	-54.8	8.8	2.62e-02	0	57	0	970981376	61	6774
2026-01-04 03:27:39.12	289.36	19.45	-49.8	-55.5	8.1	5.10e-02	0	57	0	972029952	61	7293
2026-01-04 03:27:40.11	289.19	19.36	-49.9	-55.8	7.6	7.11e-02	0	57	0	974127104	61	7625
2026-01-04 03:27:41.10	289.02	19.27	-49.9	-56.1	7.4	9.95e-02	0	57	0	976224256	61	7890
2026-01-04 03:27:42.09	288.85	19.18	-49.8	-55.6	7.9	8.25e-02	0	57	0	978321408	61	7441
2026-01-04 03:27:43.08	288.68	19.09	-49.8	-55.5	8.1	6.76e-02	0	57	0	980418560	61	7298
2026-01-04 03:27:44.07	288.51	19.00	-49.7	-55.4	8.1	6.09e-02	0	57	0	981467136	61	7209
2026-01-04 03:27:45.07	288.34	18.91	-49.9	-55.9	7.5	7.42e-02	0	57	0	983564288	61	7719
2026-01-04 03:27:46.05	288.18	18.83	-49.8	-55.9	7.6	9.69e-02	0	57	0	985661440	61	7686
2026-01-04 03:27:47.04	288.01	18.74	-50.1	-56.7	6.8	1.39e-01	0	57	0	987758592	61	8415
2026-01-04 03:27:48.03	287.85	18.65	-49.8	-56.8	6.7	1.94e-01	0	57	0	988807168	61	8526
2026-01-04 03:27:49.02	287.68	18.56	-50.1	-57.2	6.4	2.14e-01	0	57	0	990904320	62	8402
2026-01-04 03:27:50.01	287.52	18.47	-50.2	-57.4	6.2	2.75e-01	0	57	0	993001472	62	8598
2026-01-04 03:27:50.99	287.36	18.38	-50.2	-57.6	6.1	3.07e-01	0	57	0	995098624	62	8823
2026-01-04 03:27:51.98	287.20	18.30	-50.2	-57.7	6.0	3.32e-01	0	57	0	996147200	62	8912
2026-01-04 03:27:52.97	287.04	18.21	-50.2	-57.8	5.8	3.51e-01	0	57	0	998244352	62	9067
2026-01-04 03:27:53.95	286.88	18.12	-50.3	-58.4	5.5	4.53e-01	0	57	0	1000341504	62	9640
2026-01-04 03:27:54.95	286.72	18.03	-50.3	-58.2	5.6	4.91e-01	0	57	0	1002438656	62	9437
2026-01-04 03:27:55.93	286.57	17.95	-50.3	-58.5	5.3	4.82e-01	0	57	0	1004535808	62	9817
2026-01-04 03:27:56.92	286.41	17.86	-50.2	-58.3	5.5	5.08e-01	0	57	0	1005584384	62	9521
2026-01-04 03:27:57.91	286.26	17.77	-50.1	-57.8	5.8	4.13e-01	0	57	0	1007681536	62	8977
2026-01-04 03:27:58.90	286.10	17.68	-50.0	-57.3	6.2	3.25e-01	0	57	0	1009778688	62	8468
2026-01-04 03:27:59.89	285.95	17.60	-50.0	-56.8	6.6	2.49e-01	0	57	0	1011875840	62	8045
2026-01-04 03:28:00.88	285.80	17.51	-49.9	-56.5	6.9	1.78e-01	0	57	0	1012924416	62	7765
2026-01-04 03:28:01.86	285.65	17.42	-49.9	-56.3	7.2	1.44e-01	0	57	0	1015021568	62	7560
2026-01-04 03:28:02.85	285.50	17.34	-49.9	-56.2	7.2	1.35e-01	0	57	0	1017118720	62	7522
2026-01-04 03:28:03.84	285.35	17.25	-49.9	-55.9	7.6	1.21e-01	0	57	0	1019215872	62	7221
2026-01-04 03:28:04.83	285.20	17.16	-49.6	-55.1	8.4	5.65e-02	0	57	0	1020264448	62	6635
2026-01-04 03:28:05.83	285.05	17.07	-49.5	-54.4	9.3	2.64e-02	0	57	0	1022361600	62	6075
2026-01-04 03:28:06.81	284.90	16.99	-49.3	-53.7	10.0	1.17e-02	0	57	0	1024458752	61	5992
2026-01-04 03:28:07.80	284.76	16.90	-49.2	-53.2	10.7	5.52e-03	0	57	0	1026555904	61	5647
2026-01-04 03:28:08.79	284.61	16.82	-49.0	-52.8	11.3	1.58e-03	0	57	0	1027604480	61	5353
2026-01-04 03:28:09.78	284.47	16.73	-49.0	-52.6	11.5	9.84e-04	0	57	0	1029701632	61	5270
2026-01-04 03:28:10.77	284.32	16.64	-49.0	-52.6	11.6	7.35e-04	0	57	0	1031798784	61	5258
2026-01-04 03:28:11.75	284.18	16.56	-48.8	-52.3	12.0	5.61e-04	0	57	0	1033895936	60	5345
2026-01-04 03:28:12.74	284.04	16.47	-48.8	-52.0	12.4	2.03e-04	0	57	0	1035993088	60	5175
2026-01-04 03:28:13.73	283.90	16.39	-48.7	-51.8	12.5	1.33e-04	0	57	0	1037041664	60	5060
2026-01-04 03:28:14.72	283.76	16.30	-48.6	-51.7	12.7	8.85e-05	0	57	0	1039138816	60	5004
2026-01-04 03:28:15.69	283.62	16.22	-48.6	-51.7	12.7	6.71e-05	0	57	0	1041235968	60	4987
2026-01-04 03:28:16.68	283.48	16.13	-48.7	-51.7	12.7	6.86e-05	0	57	0	1043333120	60	5015
2026-01-04 03:28:17.68	283.34	16.05	-48.5	-51.4	13.1	5.11e-05	0	57	0	1044381696	60	4825
2026-01-04 03:28:18.66	283.21	15.96	-48.4	-51.0	13.5	2.28e-05	0	57	0	1046478848	59	4925
2026-01-04 03:28:19.65	283.07	15.88	-48.2	-50.6	13.9	3.80e-06	0	57	0	1048576000	59	4699
2026-01-04 03:28:20.64	282.93	15.79	-48.0	-50.5	14.1	7.00e-07	0	57	0	1050673152	59	4621
2026-01-04 03:28:21.64	282.80	15.71	-48.0	-50.4	14.2	3.80e-06	0	57	0	1051721728	59	4579
2026-01-04 03:28:22.63	282.66	15.62	-48.1	-50.5	14.1	0.00e+00	0	57	0	1053818880	59	4626
2026-01-04 03:28:23.61	282.53	15.54	-48.2	-50.8	13.9	1.50e-06	0	57	0	1055916032	59	4768
2026-01-04 03:28:24.59	282.40	15.45	-48.3	-50.9	13.8	6.80e-06	0	57	0	1058013184	59	4818
2026-01-04 03:28:25.58	282.27	15.37	-48.3	-50.9	13.8	3.00e-06	0	57	0	1060110336	59	4850
2026-01-04 03:28:26.57	282.14	15.29	-48.2	-50.7	14.0	6.80e-06	0	57	0	1061158912	59	4750
2026-01-04 03:28:27.57	282.00	15.20	-48.0	-50.3	14.4	7.00e-07	0	57	0	1063256064	59	4529
2026-01-04 03:28:28.56	281.88	15.12	-47.9	-50.1	14.7	7.00e-07	0	57	0	1065353216	59	4433
2026-01-04 03:28:29.54	281.75	15.03	-47.8	-50.0	14.8	0.00e+00	0	57	0	1067450368	58	4623
2026-01-04 03:28:30.53	281.62	14.95	-47.8	-49.9	14.9	0.00e+00	0	57	0	1068498944	58	4568
2026-01-04 03:28:31.51	281.49	14.87	-47.8	-50.0	14.9	0.00e+00	0	57	0	1070596096	58	4602
2026-01-04 03:28:32.51	281.37	14.78	-47.9	-50.1	14.8	0.00e+00	0	57	0	1072693248	58	4660
2026-01-04 03:28:33.50	281.24	14.70	-47.7	-49.8	15.1	0.00e+00	0	57	0	1074790400	58	4513
2026-01-04 03:28:34.50	281.11	14.62	-47.6	-49.7	15.1	0.00e+00	0	57	0	1075838976	58	4477
2026-01-04 03:28:35.49	280.99	14.53	-47.7	-49.8	15.1	0.00e+00	0	57	0	1077936128	58	4522
2026-01-04 03:28:36.47	280.87	14.45	-47.8	-50.0	14.9	0.00e+00	0	57	0	1080033280	58	4624
2026-01-04 03:28:37.46	280.74	14.37	-47.9	-50.1	14.8	0.00e+00	0	57	0	1082130432	58	4668
2026-01-04 03:28:38.45	280.62	14.29	-47.8	-50.0	14.9	0.00e+00	0	57	0	1084227584	58	4628
2026-01-04 03:28:39.44	280.50	14.21	-47.9	-50.0	14.8	0.00e+00	0	57	0	1085276160	58	4632
2026-01-04 03:28:40.43	280.38	14.12	-47.9	-50.1	14.8	0.00e+00	0	57	0	1087373312	58	4682
2026-01-04 03:28:41.42	280.26	14.04	-47.9	-50.2	14.7	0.00e+00	0	57	0	1089470464	58	4731
2026-01-04 03:28:42.40	280.14	13.96	-47.9	-50.1	14.8	0.00e+00	0	57	0	1091567616	58	4671
2026-01-04 03:28:43.39	280.02	13.88	-47.9	-50.1	14.8	0.00e+00	0	57	0	1092616192	58	4665
2026-01-04 03:28:44.38	279.90	13.80	-48.0	-50.2	14.6	0.00e+00	0	57	0	1094713344	58	4742
2026-01-04 03:28:45.38	279.78	13.71	-47.9	-50.1	14.7	0.00e+00	0	57	0	1096810496	58	4693
2026-01-04 03:28:46.37	279.67	13.63	-48.0	-50.3	14.6	0.00e+00	0	57	0	1098907648	58	4772
2026-01-04 03:28:47.36	279.55	13.55	-48.0	-50.3	14.5	1.50e-06	0	57	0	1101004800	58	4794
2026-01-04 03:28:48.35	279.43	13.47	-48.1	-50.4	14.4	0.00e+00	0	57	0	1102053376	58	4853
2026-01-04 03:28:49.34	279.32	13.39	-48.1	-50.5	14.3	1.50e-06	0	57	0	1104150528	58	4892
2026-01-04 03:28:50.32	279.21	13.31	-48.2	-50.6	14.2	1.50e-06	0	57	0	1106247680	58	4953
2026-01-04 03:28:51.31	279.09	13.23	-48.3	-50.7	14.1	2.20e-06	0	57	0	1108344832	58	5030
2026-01-04 03:28:52.31	278.98	13.15	-48.2	-50.5	14.3	2.20e-06	0	57	0	1109393408	58	4926
2026-01-04 03:28:53.30	278.87	13.07	-48.1	-50.4	14.4	0.00e+00	0	57	0	1111490560	58	4834
2026-01-04 03:28:54.28	278.75	12.99	-48.1	-50.5	14.3	0.00e+00	0	57	0	1113587712	58	4886
2026-01-04 03:28:55.28	278.64	12.91	-48.3	-50.7	14.1	1.50e-06	0	57	0	1115684864	58	5012
2026-01-04 03:28:56.27	278.53	12.83	-48.4	-50.9	13.9	4.50e-06	0	57	0	1116733440	58	5120
2026-01-04 03:28:57.25	278.42	12.75	-48.3	-50.8	14.0	1.50e-06	0	57	0	1118830592	58	5076
2026-01-04 03:28:58.25	278.31	12.67	-48.4	-50.9	13.9	4.50e-06	0	57	0	1120927744	58	5121
2026-01-04 03:28:59.24	278.20	12.59	-48.3	-50.8	14.0	2.20e-06	0	57	0	1123024896	58	5068
2026-01-04 03:29:00.22	278.10	12.51	-48.4	-50.9	13.8	6.10e-06	0	57	0	1124073472	58	5153
2026-01-04 03:29:01.22	277.99	12.43	-48.4	-51.1	13.7	3.80e-06	0	57	0	1126170624	58	5230
2026-01-04 03:29:02.21	277.88	12.35	-48.5	-51.1	13.6	3.80e-06	0	57	0	1128267776	58	5263
2026-01-04 03:29:03.20	277.77	12.28	-48.5	-51.1	13.6	6.80e-06	0	57	0	1130364928	58	5277
2026-01-04 03:29:04.20	277.67	12.20	-48.8	-51.6	13.1	1.90e-05	0	57	0	1132462080	59	5222
2026-01-04 03:29:05.19	277.56	12.12	-48.7	-51.4	13.3	1.52e-05	0	57	0	1133510656	59	5149
2026-01-04 03:29:06.18	277.46	12.04	-48.8	-51.7	13.0	3.20e-05	0	57	0	1135607808	59	5282
2026-01-04 03:29:07.17	277.35	11.96	-48.6	-51.3	13.4	2.67e-05	0	57	0	1137704960	59	5099
2026-01-04 03:29:08.16	277.25	11.88	-48.4	-51.0	13.7	5.30e-06	0	57	0	1139802112	59	4897
2026-01-04 03:29:09.15	277.15	11.81	-48.3	-50.8	13.9	3.00e-06	0	57	0	1140850688	59	4781
2026-01-04 03:29:10.14	277.04	11.73	-48.1	-50.6	14.1	3.00e-06	0	57	0	1142947840	59	4659
2026-01-04 03:29:11.12	276.94	11.65	-48.1	-50.5	14.1	2.20e-06	0	57	0	1145044992	59	4628
2026-01-04 03:29:12.11	276.84	11.58	-48.1	-50.6	14.1	3.00e-06	0	57	0	1147142144	59	4662
2026-01-04 03:29:13.10	276.74	11.50	-48.2	-50.7	13.9	3.00e-06	0	57	0	1149239296	59	4746
2026-01-04 03:29:14.09	276.64	11.42	-48.3	-51.0	13.6	4.50e-06	0	57	0	1150287872	59	4878
2026-01-04 03:29:15.08	276.54	11.34	-48.3	-50.9	13.7	8.30e-06	0	57	0	1152385024	59	4816
2026-01-04 03:29:16.07	276.44	11.27	-48.2	-50.8	13.8	6.10e-06	0	57	0	1154482176	59	4785
2026-01-04 03:29:17.06	276.34	11.19	-48.3	-50.9	13.7	6.80e-06	0	57	0	1156579328	59	4855
2026-01-04 03:29:18.06	276.24	11.11	-48.3	-50.9	13.6	6.10e-06	0	57	0	1157627904	59	4846
2026-01-04 03:29:19.05	276.15	11.04	-48.4	-51.2	13.3	1.06e-05	0	57	0	1159725056	59	5027
2026-01-04 03:29:20.03	276.05	10.96	-48.4	-51.2	13.3	1.29e-05	0	57	0	1161822208	59	5001
2026-01-04 03:29:21.01	275.95	10.89	-48.3	-51.1	13.3	2.05e-05	0	57	0	1163919360	59	4936
2026-01-04 03:29:22.00	275.86	10.81	-48.4	-51.2	13.2	2.36e-05	0	57	0	1164967936	59	5034
2026-01-04 03:29:22.99	275.76	10.74	-48.4	-51.2	13.1	2.89e-05	0	57	0	1167065088	59	4998
2026-01-04 03:29:23.98	275.67	10.66	-48.4	-51.3	13.0	3.73e-05	0	57	0	1169162240	59	5062
2026-01-04 03:29:24.96	275.57	10.59	-48.4	-51.4	12.8	5.64e-05	0	57	0	1171259392	59	5106
2026-01-04 03:29:25.95	275.48	10.51	-48.4	-51.4	12.7	5.79e-05	0	57	0	1173356544	59	5146
2026-01-04 03:29:26.95	275.39	10.44	-48.6	-51.7	12.5	9.99e-05	0	57	0	1174405120	59	5300
2026-01-04 03:29:27.93	275.29	10.36	-48.5	-51.6	12.5	1.24e-04	0	57	0	1176502272	59	5237
2026-01-04 03:29:28.91	275.20	10.29	-48.5	-51.6	12.4	1.30e-04	0	57	0	1178599424	59	5264
2026-01-04 03:29:29.89	275.11	10.21	-48.5	-51.8	12.2	1.52e-04	0	57	0	1180696576	59	5390
2026-01-04 03:29:30.88	275.02	10.14	-48.5	-51.9	12.0	3.11e-04	0	57	0	1181745152	59	5441
2026-01-04 03:29:31.87	274.93	10.07	-48.5	-51.9	12.0	3.46e-04	0	57	0	1183842304	59	5429
2026-01-04 03:29:32.87	274.84	9.99	-48.7	-52.3	11.6	5.10e-04	0	57	0	1185939456	59	5659
2026-01-04 03:29:33.86	274.75	9.92	-48.6	-52.3	11.5	7.75e-04	0	57	0	1188036608	59	5666
2026-01-04 03:29:34.85	274.66	9.84	-48.8	-52.6	11.1	1.31e-03	0	57	0	1189085184	59	5897
2026-01-04 03:29:35.84	274.57	9.77	-48.8	-52.7	11.0	1.86e-03	0	57	0	1191182336	59	5943
2026-01-04 03:29:36.84	274.48	9.69	-48.9	-52.9	10.7	2.21e-03	0	57	0	1193279488	59	6105
2026-01-04 03:29:37.82	274.39	9.62	-49.0	-53.2	10.3	3.62e-03	0	57	0	1195376640	59	6342
2026-01-04 03:29:38.80	274.30	9.55	-49.1	-53.3	10.3	5.13e-03	0	57	0	1197473792	59	6381
2026-01-04 03:29:39.79	274.22	9.48	-49.1	-53.4	10.1	6.15e-03	0	57	0	1198522368	59	6446
2026-01-04 03:29:40.79	274.13	9.40	-49.0	-53.4	10.0	7.40e-03	0	57	0	1200619520	60	6094
2026-01-04 03:29:41.78	274.04	9.33	-49.0	-53.4	10.0	7.21e-03	0	57	0	1202716672	60	6121
2026-01-04 03:29:42.77	273.96	9.26	-49.1	-53.7	9.6	1.12e-02	0	57	0	1204813824	60	6306
2026-01-04 03:29:43.75	273.87	9.19	-49.0	-53.6	9.7	1.22e-02	0	57	0	1205862400	60	6246
2026-01-04 03:29:44.74	273.79	9.11	-48.9	-53.4	9.8	1.08e-02	0	57	0	1207959552	60	6101
2026-01-04 03:29:45.74	273.70	9.04	-48.8	-53.3	9.8	9.23e-03	0	57	0	1210056704	60	6033
2026-01-04 03:29:46.73	273.62	8.97	-48.8	-53.4	9.7	1.10e-02	0	57	0	1212153856	60	6084
2026-01-04 03:29:47.71	273.53	8.90	-48.9	-53.9	9.1	1.59e-02	0	57	0	1213202432	60	6441
2026-01-04 03:29:48.70	273.45	8.83	-48.9	-54.0	9.0	2.46e-02	0	57	0	1215299584	60	6501
2026-01-04 03:29:49.70	273.37	8.75	-48.8	-53.8	9.1	2.29e-02	0	57	0	1217396736	60	6358
2026-01-04 03:29:50.69	273.28	8.68	-48.8	-53.9	8.9	2.56e-02	0	57	0	1219493888	60	6465
2026-01-04 03:29:51.68	273.20	8.61	-48.8	-54.2	8.6	3.26e-02	0	57	0	1220542464	60	6654
2026-01-04 03:29:52.67	273.12	8.54	-48.8	-54.2	8.4	4.33e-02	0	57	0	1222639616	60	6707
2026-01-04 03:29:53.67	273.04	8.47	-48.8	-54.4	8.2	5.25e-02	0	57	0	1224736768	60	6864
2026-01-04 03:29:54.66	272.96	8.40	-48.9	-54.6	8.0	6.82e-02	0	57	0	1226833920	60	6994
2026-01-04 03:29:55.65	272.87	8.33	-48.8	-54.7	7.8	7.44e-02	0	57	0	1228931072	60	7092
2026-01-04 03:29:56.64	272.79	8.26	-49.0	-55.3	7.3	9.13e-02	0	57	0	1229979648	60	7569
