passes_logs/2026/01/04/R3.0SM8_Murmansk_STILSPACE/R3.0SM8_Murmansk_STILSPACE__20260104_021841_FENGYUN_3D_rec.log

#Pass ID: 20260104_021841_FENGYUN 3D
#Satellite: FENGYUN 3D
#Configuration: FENGYUN 3D
#almurnet v.1.7.20240730
#Start time: 2026-01-04 02:18:43

#Version: 2.2.20231116
#Station: R3.0SM8_Murmansk_STILSPACE
#Location: 33.092731 lon 68.902999 lat
#TLE: 1 43010U 17072A   26003.51579816  .00000092  00000+0  65324-4 0  9992
#TLE: 2 43010  98.9912 335.1548 0001916 128.4619 231.6729 14.19692074421623

#Time	Az	El	Level	Level2	SNR	BER	BlckErr	Temp	State	Recorded	gain1	gain2
2026-01-04 02:18:43.05	23.86	3.10	-52.2	-63.1	3.8	8.45e-01	0	46	0	0	66	13123
2026-01-04 02:18:44.03	23.87	3.16	-52.1	-62.9	3.8	8.46e-01	0	46	104	0	67	12103
2026-01-04 02:18:45.02	23.89	3.23	-52.1	-62.8	3.8	8.47e-01	0	46	104	0	66	12692
2026-01-04 02:18:46.00	23.91	3.29	-51.9	-62.5	3.8	8.45e-01	0	46	104	0	66	12360
2026-01-04 02:18:47.00	23.92	3.36	-51.7	-62.3	3.8	8.45e-01	0	46	104	0	66	12005
2026-01-04 02:18:47.99	23.94	3.43	-50.3	-56.0	5.1	8.42e-01	0	46	104	0	63	6954
2026-01-04 02:18:48.98	23.96	3.49	-48.2	-51.1	9.5	8.22e-03	0	46	0	4194304	59	4950
2026-01-04 02:18:49.97	23.98	3.56	-48.1	-50.9	9.7	7.69e-03	0	47	0	9437184	58	5107
2026-01-04 02:18:50.96	23.99	3.62	-47.7	-50.2	10.5	3.21e-03	0	46	0	15728640	58	4712
2026-01-04 02:18:51.95	24.01	3.69	-47.5	-49.9	10.8	2.60e-03	0	47	0	20971520	58	4567
2026-01-04 02:18:52.94	24.03	3.76	-47.3	-49.6	11.1	1.27e-03	0	47	0	26214400	57	4666
2026-01-04 02:18:53.92	24.05	3.82	-47.2	-49.5	11.2	8.52e-04	0	47	0	32505856	57	4612
2026-01-04 02:18:54.91	24.06	3.89	-47.4	-49.7	11.0	1.39e-03	0	47	0	37748736	57	4749
2026-01-04 02:18:55.90	24.08	3.96	-47.1	-49.2	11.5	9.04e-04	0	47	0	42991616	57	4491
2026-01-04 02:18:56.88	24.10	4.02	-46.9	-49.0	11.7	3.40e-04	0	47	0	48234496	56	4615
2026-01-04 02:18:57.86	24.12	4.09	-47.1	-49.3	11.4	6.44e-04	0	47	0	54525952	56	4774
2026-01-04 02:18:58.85	24.13	4.16	-47.0	-49.2	11.6	6.75e-04	0	47	0	59768832	56	4708
2026-01-04 02:18:59.84	24.15	4.23	-47.0	-49.2	11.5	4.54e-04	0	47	0	65011712	56	4728
2026-01-04 02:19:00.83	24.17	4.29	-47.0	-49.1	11.6	6.81e-04	0	47	0	71303168	56	4691
2026-01-04 02:19:01.82	24.19	4.36	-47.0	-49.1	11.6	5.13e-04	0	47	0	76546048	56	4673
2026-01-04 02:19:02.81	24.21	4.43	-47.0	-49.1	11.6	5.00e-04	0	47	0	81788928	56	4670
2026-01-04 02:19:03.81	24.22	4.50	-47.4	-49.7	11.0	1.21e-03	0	48	0	88080384	56	5023
2026-01-04 02:19:04.80	24.24	4.57	-47.2	-49.5	11.2	1.07e-03	0	48	0	93323264	56	4906
2026-01-04 02:19:05.80	24.26	4.64	-47.5	-49.9	10.8	1.71e-03	0	48	0	98566144	56	5101
2026-01-04 02:19:06.79	24.28	4.71	-47.8	-50.4	10.3	3.66e-03	0	48	0	103809024	57	5113
2026-01-04 02:19:07.78	24.30	4.78	-47.9	-50.7	10.0	5.69e-03	0	48	0	110100480	57	5281
2026-01-04 02:19:08.77	24.32	4.85	-48.2	-51.0	9.6	8.55e-03	0	48	0	115343360	58	5204
2026-01-04 02:19:09.76	24.33	4.92	-48.6	-51.7	8.9	2.29e-02	0	48	0	121634816	58	5654
2026-01-04 02:19:10.75	24.35	4.99	-48.8	-52.2	8.3	3.66e-02	0	48	0	126877696	59	5653
2026-01-04 02:19:11.74	24.37	5.06	-48.8	-52.2	8.4	4.35e-02	0	48	0	132120576	59	5606
2026-01-04 02:19:12.72	24.39	5.13	-48.6	-51.7	8.9	2.93e-02	0	48	0	137363456	59	5335
2026-01-04 02:19:13.71	24.41	5.20	-48.6	-51.8	8.8	1.85e-02	0	48	0	143654912	59	5364
2026-01-04 02:19:14.70	24.43	5.27	-48.4	-51.4	9.3	2.54e-02	0	48	0	148897792	59	5104
2026-01-04 02:19:15.69	24.45	5.34	-48.1	-50.8	9.9	8.43e-03	0	48	0	154140672	59	4803
2026-01-04 02:19:16.66	24.47	5.41	-47.7	-50.2	10.6	3.83e-03	0	48	0	160432128	58	4739
2026-01-04 02:19:17.66	24.48	5.48	-47.3	-49.5	11.4	7.43e-04	0	48	0	165675008	57	4608
2026-01-04 02:19:18.64	24.50	5.55	-47.0	-49.1	11.9	3.81e-04	0	49	0	170917888	57	4400
2026-01-04 02:19:19.62	24.52	5.62	-46.8	-48.7	12.3	1.45e-04	0	49	0	176160768	56	4456
2026-01-04 02:19:20.61	24.54	5.69	-46.5	-48.2	12.8	5.60e-05	0	49	0	182452224	56	4236
2026-01-04 02:19:21.60	24.56	5.76	-46.5	-48.3	12.8	3.43e-05	0	49	0	187695104	56	4260
2026-01-04 02:19:22.59	24.58	5.83	-46.3	-48.1	12.9	2.97e-05	0	49	0	192937984	55	4403
2026-01-04 02:19:23.58	24.60	5.91	-46.7	-48.6	12.4	5.37e-05	0	49	0	199229440	55	4659
2026-01-04 02:19:24.57	24.62	5.98	-46.8	-48.7	12.3	1.60e-04	0	49	0	204472320	55	4729
2026-01-04 02:19:25.56	24.64	6.05	-46.2	-47.8	13.2	2.05e-05	0	49	0	209715200	55	4277
2026-01-04 02:19:26.55	24.66	6.12	-45.8	-47.3	13.7	5.70e-06	0	49	0	214958080	54	4269
2026-01-04 02:19:27.54	24.68	6.20	-45.3	-46.7	14.4	1.10e-06	0	49	0	221249536	53	4232
2026-01-04 02:19:28.52	24.70	6.27	-45.1	-46.4	14.7	0.00e+00	0	49	0	226492416	53	4058
2026-01-04 02:19:29.51	24.72	6.34	-44.7	-45.9	15.3	0.00e+00	0	49	0	232783872	52	4057
2026-01-04 02:19:30.50	24.74	6.42	-44.7	-45.9	15.3	0.00e+00	0	49	0	238026752	52	4058
2026-01-04 02:19:31.49	24.76	6.49	-44.6	-45.8	15.4	0.00e+00	0	49	0	243269632	52	4025
2026-01-04 02:19:32.48	24.78	6.57	-44.7	-45.9	15.3	0.00e+00	0	49	0	248512512	52	4069
2026-01-04 02:19:33.47	24.80	6.64	-44.8	-46.0	15.1	0.00e+00	0	49	0	254803968	52	4137
2026-01-04 02:19:34.46	24.82	6.71	-44.7	-45.9	15.3	0.00e+00	0	49	0	260046848	52	4079
2026-01-04 02:19:35.45	24.84	6.79	-44.8	-46.1	15.1	0.00e+00	0	50	0	265289728	52	4158
2026-01-04 02:19:36.44	24.86	6.86	-45.0	-46.3	14.9	0.00e+00	0	49	0	271581184	52	4267
2026-01-04 02:19:37.43	24.88	6.94	-44.6	-45.8	15.4	0.00e+00	0	50	0	276824064	52	4042
2026-01-04 02:19:38.42	24.90	7.01	-44.5	-45.6	15.6	0.00e+00	0	50	0	282066944	52	3942
2026-01-04 02:19:39.41	24.92	7.09	-44.4	-45.6	15.8	0.00e+00	0	50	0	288358400	51	4160
2026-01-04 02:19:40.40	24.94	7.17	-44.5	-45.6	15.7	0.00e+00	0	50	0	293601280	51	4175
2026-01-04 02:19:41.39	24.96	7.24	-44.6	-45.7	15.6	0.00e+00	0	50	0	298844160	51	4237
2026-01-04 02:19:42.38	24.99	7.32	-44.6	-45.7	15.6	0.00e+00	0	50	0	304087040	51	4228
2026-01-04 02:19:43.37	25.01	7.39	-44.6	-45.7	15.6	0.00e+00	0	50	0	310378496	51	4242
2026-01-04 02:19:44.36	25.03	7.47	-44.7	-45.9	15.4	0.00e+00	0	50	0	315621376	51	4322
2026-01-04 02:19:45.35	25.05	7.55	-44.5	-45.6	15.7	0.00e+00	0	50	0	320864256	51	4184
2026-01-04 02:19:46.34	25.07	7.63	-44.4	-45.4	16.0	0.00e+00	0	50	0	327155712	51	4087
2026-01-04 02:19:47.33	25.09	7.70	-44.3	-45.3	16.1	0.00e+00	0	50	0	332398592	51	4046
2026-01-04 02:19:48.32	25.11	7.78	-44.3	-45.4	16.1	0.00e+00	0	50	0	337641472	51	4054
2026-01-04 02:19:49.32	25.14	7.86	-44.5	-45.6	15.8	0.00e+00	0	50	0	343932928	51	4179
2026-01-04 02:19:50.31	25.16	7.94	-44.6	-45.8	15.6	0.00e+00	0	50	0	349175808	51	4254
2026-01-04 02:19:51.30	25.18	8.02	-44.3	-45.4	16.0	0.00e+00	0	50	0	354418688	51	4068
2026-01-04 02:19:52.28	25.20	8.09	-44.1	-45.1	16.3	0.00e+00	0	50	0	360710144	51	3945
2026-01-04 02:19:53.28	25.22	8.17	-43.9	-44.9	16.5	0.00e+00	0	50	0	365953024	51	3865
2026-01-04 02:19:54.27	25.24	8.25	-43.9	-44.9	16.6	0.00e+00	0	50	0	371195904	51	3847
2026-01-04 02:19:55.26	25.27	8.33	-44.0	-45.0	16.5	0.00e+00	0	51	0	377487360	51	3875
2026-01-04 02:19:56.25	25.29	8.41	-43.9	-44.9	16.6	0.00e+00	0	51	0	382730240	51	3831
2026-01-04 02:19:57.24	25.31	8.49	-44.0	-45.0	16.5	0.00e+00	0	51	0	387973120	50	4104
2026-01-04 02:19:58.23	25.33	8.57	-44.2	-45.2	16.3	0.00e+00	0	51	0	393216000	50	4210
2026-01-04 02:19:59.21	25.36	8.65	-44.4	-45.4	16.1	0.00e+00	0	51	0	399507456	50	4330
2026-01-04 02:20:00.21	25.38	8.73	-44.1	-45.1	16.4	0.00e+00	0	51	0	404750336	50	4160
2026-01-04 02:20:01.20	25.40	8.81	-43.8	-44.8	16.7	0.00e+00	0	51	0	409993216	50	4009
2026-01-04 02:20:02.19	25.43	8.89	-43.6	-44.6	17.0	0.00e+00	0	51	0	416284672	50	3921
2026-01-04 02:20:03.18	25.45	8.97	-43.6	-44.5	17.1	0.00e+00	0	51	0	421527552	50	3879
2026-01-04 02:20:04.16	25.47	9.06	-43.8	-44.7	16.9	0.00e+00	0	51	0	426770432	50	3993
2026-01-04 02:20:05.15	25.49	9.14	-43.8	-44.7	16.8	0.00e+00	0	51	0	432013312	50	4004
2026-01-04 02:20:06.15	25.52	9.22	-43.7	-44.6	16.9	0.00e+00	0	51	0	438304768	50	3957
2026-01-04 02:20:07.14	25.54	9.30	-43.8	-44.7	16.8	0.00e+00	0	51	0	443547648	50	4004
2026-01-04 02:20:08.13	25.56	9.39	-43.6	-44.6	17.0	0.00e+00	0	51	0	449839104	50	3933
2026-01-04 02:20:09.13	25.59	9.47	-43.7	-44.6	17.0	0.00e+00	0	51	0	455081984	50	3948
2026-01-04 02:20:10.11	25.61	9.55	-43.7	-44.7	16.9	0.00e+00	0	51	0	460324864	50	3966
2026-01-04 02:20:11.10	25.64	9.64	-43.7	-44.6	16.9	0.00e+00	0	51	0	466616320	50	3954
2026-01-04 02:20:12.09	25.66	9.72	-43.9	-44.9	16.7	0.00e+00	0	51	0	471859200	50	4058
2026-01-04 02:20:13.09	25.68	9.80	-43.9	-44.9	16.7	0.00e+00	0	51	0	477102080	50	4086
2026-01-04 02:20:14.08	25.71	9.89	-43.9	-44.9	16.7	0.00e+00	0	51	0	483393536	50	4057
2026-01-04 02:20:15.07	25.73	9.97	-43.9	-44.9	16.7	0.00e+00	0	51	0	488636416	50	4070
2026-01-04 02:20:16.07	25.76	10.06	-44.0	-45.0	16.6	0.00e+00	0	51	0	493879296	50	4133
2026-01-04 02:20:17.05	25.78	10.14	-43.9	-44.8	16.8	0.00e+00	0	51	0	499122176	50	4048
2026-01-04 02:20:18.03	25.81	10.23	-43.8	-44.8	16.8	0.00e+00	0	51	0	505413632	50	4025
2026-01-04 02:20:19.02	25.83	10.31	-43.8	-44.8	16.8	0.00e+00	0	51	0	510656512	50	4028
2026-01-04 02:20:20.02	25.86	10.40	-44.1	-45.1	16.5	0.00e+00	0	51	0	515899392	50	4183
2026-01-04 02:20:21.01	25.88	10.49	-43.8	-44.8	16.8	0.00e+00	0	52	0	522190848	50	4023
2026-01-04 02:20:22.00	25.91	10.57	-43.7	-44.6	17.0	0.00e+00	0	52	0	527433728	50	3938
2026-01-04 02:20:22.99	25.93	10.66	-43.6	-44.5	17.2	0.00e+00	0	52	0	532676608	50	3887
2026-01-04 02:20:23.97	25.96	10.75	-43.7	-44.6	17.0	0.00e+00	0	52	0	538968064	50	3942
2026-01-04 02:20:24.97	25.98	10.84	-43.8	-44.8	16.9	0.00e+00	0	52	0	544210944	50	4016
2026-01-04 02:20:25.95	26.01	10.92	-43.8	-44.7	16.9	0.00e+00	0	52	0	549453824	50	3989
2026-01-04 02:20:26.94	26.03	11.01	-43.8	-44.8	16.9	0.00e+00	0	52	0	554696704	50	4014
2026-01-04 02:20:27.92	26.06	11.10	-43.9	-44.9	16.8	0.00e+00	0	52	0	560988160	50	4052
2026-01-04 02:20:28.91	26.09	11.19	-43.8	-44.7	17.0	0.00e+00	0	52	0	566231040	50	3992
2026-01-04 02:20:29.90	26.11	11.28	-43.8	-44.8	16.9	0.00e+00	0	52	0	572522496	50	4010
2026-01-04 02:20:30.90	26.14	11.37	-43.8	-44.8	16.9	0.00e+00	0	52	0	577765376	50	4017
2026-01-04 02:20:31.88	26.16	11.46	-44.0	-44.9	16.7	0.00e+00	0	52	0	583008256	50	4098
2026-01-04 02:20:32.88	26.19	11.55	-43.8	-44.8	16.9	0.00e+00	0	52	0	588251136	50	4025
2026-01-04 02:20:33.87	26.22	11.64	-43.6	-44.5	17.2	0.00e+00	0	52	0	594542592	50	3903
2026-01-04 02:20:34.86	26.24	11.73	-43.5	-44.4	17.4	0.00e+00	0	52	0	599785472	50	3832
2026-01-04 02:20:35.85	26.27	11.82	-43.5	-44.4	17.4	0.00e+00	0	52	0	605028352	50	3830
2026-01-04 02:20:36.85	26.30	11.91	-43.5	-44.4	17.4	0.00e+00	0	52	0	611319808	50	3825
2026-01-04 02:20:37.84	26.33	12.00	-43.5	-44.4	17.3	0.00e+00	0	52	0	616562688	50	3845
2026-01-04 02:20:38.83	26.35	12.10	-43.5	-44.4	17.3	0.00e+00	0	52	0	621805568	50	3859
2026-01-04 02:20:39.82	26.38	12.19	-43.7	-44.6	17.1	0.00e+00	0	52	0	628097024	50	3926
2026-01-04 02:20:40.81	26.41	12.28	-43.5	-44.4	17.3	0.00e+00	0	52	0	633339904	50	3853
2026-01-04 02:20:41.79	26.44	12.37	-43.4	-44.3	17.4	0.00e+00	0	52	0	638582784	50	3809
2026-01-04 02:20:42.79	26.47	12.47	-43.4	-44.3	17.5	0.00e+00	0	52	0	643825664	49	4019
2026-01-04 02:20:43.77	26.49	12.56	-43.3	-44.2	17.5	0.00e+00	0	52	0	650117120	49	3981
2026-01-04 02:20:44.76	26.52	12.66	-43.4	-44.3	17.4	0.00e+00	0	52	0	655360000	49	4024
2026-01-04 02:20:45.75	26.55	12.75	-43.6	-44.5	17.2	0.00e+00	0	52	0	660602880	49	4117
2026-01-04 02:20:46.74	26.58	12.85	-43.5	-44.4	17.3	0.00e+00	0	52	0	666894336	49	4064
2026-01-04 02:20:47.72	26.61	12.94	-43.3	-44.2	17.5	0.00e+00	0	52	0	672137216	49	3980
2026-01-04 02:20:48.72	26.64	13.04	-43.2	-44.1	17.6	0.00e+00	0	52	0	677380096	49	3935
2026-01-04 02:20:49.71	26.67	13.13	-43.4	-44.3	17.4	0.00e+00	0	52	0	683671552	49	4041
2026-01-04 02:20:50.69	26.69	13.23	-43.6	-44.4	17.3	0.00e+00	0	53	0	688914432	49	4097
2026-01-04 02:20:51.69	26.72	13.33	-43.5	-44.5	17.3	0.00e+00	0	53	0	694157312	49	4100
2026-01-04 02:20:52.68	26.75	13.42	-43.5	-44.4	17.3	0.00e+00	0	53	0	700448768	49	4085
2026-01-04 02:20:53.66	26.78	13.52	-43.6	-44.5	17.3	0.00e+00	0	53	0	705691648	49	4119
2026-01-04 02:20:54.65	26.81	13.62	-43.7	-44.6	17.1	0.00e+00	0	52	0	710934528	49	4183
2026-01-04 02:20:55.64	26.84	13.72	-43.7	-44.6	17.2	0.00e+00	0	53	0	716177408	49	4164
2026-01-04 02:20:56.63	26.87	13.82	-43.7	-44.7	17.1	0.00e+00	0	53	0	722468864	49	4194
2026-01-04 02:20:57.61	26.90	13.91	-43.6	-44.5	17.2	0.00e+00	0	53	0	727711744	49	4144
2026-01-04 02:20:58.59	26.93	14.01	-43.4	-44.2	17.5	0.00e+00	0	53	0	732954624	49	3993
2026-01-04 02:20:59.58	26.96	14.11	-43.1	-43.9	17.9	0.00e+00	0	53	0	739246080	49	3841
2026-01-04 02:21:00.56	26.99	14.21	-42.9	-43.7	18.1	0.00e+00	0	53	0	744488960	49	3751
2026-01-04 02:21:01.55	27.03	14.31	-42.8	-43.6	18.2	0.00e+00	0	53	0	749731840	48	3935
2026-01-04 02:21:02.53	27.06	14.41	-42.8	-43.6	18.2	0.00e+00	0	53	0	754974720	48	3932
2026-01-04 02:21:03.52	27.09	14.52	-42.7	-43.5	18.3	0.00e+00	0	53	0	761266176	48	3909
2026-01-04 02:21:04.50	27.12	14.62	-42.6	-43.4	18.4	0.00e+00	0	53	0	766509056	48	3825
2026-01-04 02:21:05.49	27.15	14.72	-42.6	-43.3	18.5	0.00e+00	0	53	0	771751936	48	3817
2026-01-04 02:21:06.48	27.18	14.82	-42.6	-43.3	18.5	0.00e+00	0	53	0	778043392	48	3817
2026-01-04 02:21:07.47	27.22	14.93	-42.5	-43.3	18.5	0.00e+00	0	53	0	783286272	48	3789
2026-01-04 02:21:08.46	27.25	15.03	-42.5	-43.2	18.6	0.00e+00	0	53	0	788529152	48	3762
2026-01-04 02:21:09.45	27.28	15.13	-42.5	-43.3	18.5	0.00e+00	0	53	0	793772032	48	3805
2026-01-04 02:21:10.43	27.31	15.24	-42.6	-43.4	18.4	0.00e+00	0	53	0	800063488	48	3835
2026-01-04 02:21:11.41	27.35	15.34	-42.6	-43.3	18.5	0.00e+00	0	53	0	805306368	48	3816
2026-01-04 02:21:12.40	27.38	15.45	-42.2	-43.0	18.7	0.00e+00	0	53	0	810549248	47	3887
2026-01-04 02:21:13.37	27.41	15.55	-42.2	-42.9	18.7	0.00e+00	0	53	0	816840704	47	3857
2026-01-04 02:21:14.36	27.45	15.66	-42.1	-42.9	18.8	0.00e+00	0	53	0	822083584	47	3837
2026-01-04 02:21:15.35	27.48	15.76	-42.2	-42.9	18.8	0.00e+00	0	53	0	827326464	47	3853
2026-01-04 02:21:16.34	27.51	15.87	-42.3	-43.1	18.6	0.00e+00	0	53	0	832569344	47	3928
2026-01-04 02:21:17.33	27.55	15.98	-42.5	-43.2	18.4	0.00e+00	0	53	0	838860800	47	3998
2026-01-04 02:21:18.32	27.58	16.09	-42.2	-43.0	18.7	0.00e+00	0	53	0	844103680	47	3878
2026-01-04 02:21:19.32	27.62	16.20	-41.9	-42.7	19.0	0.00e+00	0	53	0	850395136	47	3750
2026-01-04 02:21:20.31	27.65	16.31	-41.9	-42.6	19.1	0.00e+00	0	53	0	855638016	46	3919
2026-01-04 02:21:21.30	27.69	16.42	-41.8	-42.5	19.2	0.00e+00	0	53	0	860880896	46	3903
2026-01-04 02:21:22.29	27.72	16.53	-41.8	-42.5	19.2	0.00e+00	0	53	0	866123776	46	3895
2026-01-04 02:21:23.28	27.76	16.64	-41.9	-42.6	19.1	0.00e+00	0	53	0	872415232	46	3948
2026-01-04 02:21:24.26	27.79	16.75	-42.0	-42.7	19.0	0.00e+00	0	53	0	877658112	46	3983
2026-01-04 02:21:25.24	27.83	16.86	-41.8	-42.5	19.2	0.00e+00	0	53	0	882900992	46	3882
2026-01-04 02:21:26.23	27.87	16.97	-41.7	-42.4	19.3	0.00e+00	0	53	0	889192448	46	3842
2026-01-04 02:21:27.22	27.90	17.08	-41.7	-42.4	19.3	0.00e+00	0	53	0	894435328	46	3859
2026-01-04 02:21:28.20	27.94	17.20	-41.9	-42.6	19.1	0.00e+00	0	53	0	899678208	46	3933
2026-01-04 02:21:29.19	27.98	17.31	-41.7	-42.4	19.3	0.00e+00	0	54	0	904921088	46	3864
2026-01-04 02:21:30.18	28.01	17.42	-41.8	-42.5	19.2	0.00e+00	0	54	0	911212544	46	3887
2026-01-04 02:21:31.17	28.05	17.54	-42.0	-42.7	19.0	0.00e+00	0	53	0	916455424	46	3977
2026-01-04 02:21:32.15	28.09	17.65	-42.2	-42.9	18.8	0.00e+00	0	54	0	921698304	46	4093
2026-01-04 02:21:33.15	28.13	17.77	-42.0	-42.7	19.0	0.00e+00	0	54	0	927989760	46	3980
2026-01-04 02:21:34.13	28.16	17.89	-41.8	-42.5	19.2	0.00e+00	0	53	0	933232640	46	3882
2026-01-04 02:21:35.12	28.20	18.00	-41.7	-42.4	19.3	0.00e+00	0	54	0	938475520	46	3840
2026-01-04 02:21:36.11	28.24	18.12	-41.7	-42.4	19.3	0.00e+00	0	54	0	944766976	46	3848
2026-01-04 02:21:37.10	28.28	18.24	-42.0	-42.7	19.1	0.00e+00	0	54	0	950009856	46	3969
2026-01-04 02:21:38.09	28.32	18.36	-41.8	-42.5	19.3	0.00e+00	0	54	0	955252736	46	3873
2026-01-04 02:21:39.08	28.36	18.48	-41.9	-42.6	19.1	0.00e+00	0	54	0	960495616	46	3952
2026-01-04 02:21:40.06	28.40	18.60	-42.1	-42.9	18.9	0.00e+00	0	54	0	966787072	46	4063
2026-01-04 02:21:41.06	28.44	18.72	-41.9	-42.6	19.2	0.00e+00	0	54	0	972029952	46	3924
2026-01-04 02:21:42.04	28.48	18.84	-41.6	-42.3	19.4	0.00e+00	0	54	0	977272832	46	3808
2026-01-04 02:21:43.04	28.52	18.96	-41.5	-42.1	19.6	0.00e+00	0	54	0	983564288	46	3730
2026-01-04 02:21:44.03	28.56	19.08	-41.4	-42.1	19.6	0.00e+00	0	54	0	988807168	46	3717
2026-01-04 02:21:45.03	28.60	19.21	-41.5	-42.1	19.6	0.00e+00	0	54	0	994050048	46	3731
2026-01-04 02:21:46.02	28.65	19.33	-41.4	-42.0	19.7	0.00e+00	0	54	0	1000341504	45	3895
2026-01-04 02:21:46.99	28.69	19.45	-41.4	-42.1	19.7	0.00e+00	0	54	0	1005584384	45	3930
2026-01-04 02:21:47.98	28.73	19.58	-41.6	-42.4	19.4	0.00e+00	0	54	0	1010827264	45	4059
2026-01-04 02:21:48.98	28.77	19.70	-41.5	-42.2	19.6	0.00e+00	0	54	0	1017118720	45	3959
2026-01-04 02:21:49.98	28.82	19.83	-41.6	-42.3	19.5	0.00e+00	0	54	0	1022361600	45	4030
2026-01-04 02:21:50.97	28.86	19.96	-41.9	-42.6	19.1	0.00e+00	0	54	0	1027604480	45	4192
2026-01-04 02:21:51.96	28.90	20.08	-41.7	-42.4	19.3	0.00e+00	0	54	0	1033895936	45	4092
2026-01-04 02:21:52.96	28.95	20.21	-41.7	-42.4	19.4	0.00e+00	0	54	0	1039138816	45	4060
2026-01-04 02:21:53.95	28.99	20.34	-41.7	-42.5	19.3	0.00e+00	0	54	0	1044381696	45	4100
2026-01-04 02:21:54.93	29.04	20.47	-41.9	-42.6	19.2	0.00e+00	0	54	0	1050673152	45	4164
2026-01-04 02:21:55.91	29.08	20.60	-41.7	-42.4	19.4	0.00e+00	0	54	0	1055916032	45	4068
2026-01-04 02:21:56.90	29.12	20.73	-41.6	-42.3	19.5	0.00e+00	0	54	0	1061158912	45	4030
2026-01-04 02:21:57.89	29.17	20.86	-41.6	-42.2	19.6	0.00e+00	0	54	0	1066401792	45	3991
2026-01-04 02:21:58.88	29.22	20.99	-41.6	-42.3	19.5	0.00e+00	0	54	0	1072693248	45	4013
2026-01-04 02:21:59.86	29.26	21.12	-41.4	-42.1	19.7	0.00e+00	0	54	0	1077936128	45	3928
2026-01-04 02:22:00.85	29.31	21.25	-41.2	-41.8	20.0	0.00e+00	0	54	0	1083179008	45	3809
2026-01-04 02:22:01.83	29.36	21.39	-41.1	-41.7	20.0	0.00e+00	0	54	0	1089470464	45	3778
2026-01-04 02:22:02.83	29.40	21.52	-41.0	-41.6	20.1	0.00e+00	0	54	0	1094713344	45	3728
2026-01-04 02:22:03.82	29.45	21.66	-41.0	-41.6	20.1	0.00e+00	0	54	0	1099956224	45	3736
2026-01-04 02:22:04.81	29.50	21.79	-41.2	-41.8	19.9	0.00e+00	0	54	0	1106247680	45	3807
2026-01-04 02:22:05.80	29.55	21.93	-41.2	-41.8	20.0	0.00e+00	0	54	0	1111490560	45	3809
2026-01-04 02:22:06.79	29.60	22.07	-41.1	-41.7	20.1	0.00e+00	0	54	0	1116733440	45	3762
2026-01-04 02:22:07.78	29.65	22.21	-41.1	-41.8	20.0	0.00e+00	0	54	0	1121976320	45	3797
2026-01-04 02:22:08.76	29.69	22.34	-41.2	-41.9	19.9	0.00e+00	0	54	0	1128267776	45	3848
2026-01-04 02:22:09.75	29.74	22.48	-41.1	-41.8	20.0	0.00e+00	0	54	0	1133510656	45	3790
2026-01-04 02:22:10.74	29.80	22.62	-41.0	-41.6	20.2	0.00e+00	0	54	0	1138753536	45	3712
2026-01-04 02:22:11.73	29.85	22.76	-40.9	-41.5	20.3	0.00e+00	0	54	0	1145044992	44	3894
2026-01-04 02:22:12.72	29.90	22.91	-40.9	-41.5	20.3	0.00e+00	0	54	0	1150287872	44	3889
2026-01-04 02:22:13.71	29.95	23.05	-41.0	-41.7	20.1	0.00e+00	0	55	0	1155530752	44	3966
2026-01-04 02:22:14.70	30.00	23.19	-40.9	-41.5	20.3	0.00e+00	0	54	0	1160773632	44	3880
2026-01-04 02:22:15.68	30.05	23.33	-40.6	-41.2	20.6	0.00e+00	0	54	0	1167065088	44	3749
2026-01-04 02:22:16.66	30.11	23.48	-40.3	-40.8	20.8	0.00e+00	0	55	0	1172307968	43	3823
2026-01-04 02:22:17.65	30.16	23.62	-40.2	-40.8	20.9	0.00e+00	0	55	0	1178599424	43	3783
2026-01-04 02:22:18.64	30.21	23.77	-40.2	-40.8	20.9	0.00e+00	0	54	0	1183842304	43	3786
2026-01-04 02:22:19.63	30.27	23.92	-40.2	-40.8	20.8	0.00e+00	0	55	0	1189085184	43	3811
2026-01-04 02:22:20.63	30.32	24.07	-40.2	-40.8	20.8	0.00e+00	0	55	0	1194328064	43	3805
2026-01-04 02:22:21.63	30.38	24.22	-40.2	-40.8	20.9	0.00e+00	0	55	0	1200619520	43	3783
2026-01-04 02:22:22.62	30.44	24.37	-40.2	-40.8	20.9	0.00e+00	0	55	0	1205862400	43	3783
2026-01-04 02:22:23.60	30.49	24.52	-40.3	-40.9	20.8	0.00e+00	0	54	0	1211105280	43	3839
2026-01-04 02:22:24.59	30.55	24.67	-40.3	-40.8	20.8	0.00e+00	0	55	0	1217396736	43	3823
2026-01-04 02:22:25.59	30.61	24.82	-40.2	-40.7	20.9	0.00e+00	0	55	0	1222639616	43	3770
2026-01-04 02:22:26.57	30.66	24.97	-40.2	-40.7	20.9	0.00e+00	0	54	0	1227882496	43	3777
2026-01-04 02:22:27.56	30.72	25.13	-40.2	-40.8	20.9	0.00e+00	0	55	0	1234173952	43	3792
2026-01-04 02:22:28.55	30.78	25.28	-40.3	-40.9	20.8	0.00e+00	0	55	0	1239416832	43	3836
2026-01-04 02:22:29.53	30.84	25.44	-40.3	-40.9	20.8	0.00e+00	0	55	0	1244659712	43	3842
2026-01-04 02:22:30.52	30.90	25.59	-40.1	-40.7	20.9	0.00e+00	0	55	0	1250951168	43	3770
2026-01-04 02:22:31.51	30.96	25.75	-40.1	-40.7	20.9	0.00e+00	0	55	0	1256194048	43	3769
2026-01-04 02:22:32.49	31.02	25.91	-40.2	-40.8	20.9	0.00e+00	0	55	0	1261436928	43	3788
2026-01-04 02:22:33.48	31.08	26.07	-40.3	-40.9	20.8	0.00e+00	0	55	0	1266679808	43	3837
2026-01-04 02:22:34.48	31.15	26.23	-40.3	-40.8	20.8	0.00e+00	0	55	0	1272971264	43	3824
2026-01-04 02:22:35.46	31.21	26.39	-40.2	-40.7	20.9	0.00e+00	0	55	0	1278214144	43	3774
2026-01-04 02:22:36.45	31.27	26.55	-40.1	-40.6	21.0	0.00e+00	0	55	0	1283457024	43	3732
2026-01-04 02:22:37.44	31.34	26.71	-40.0	-40.6	21.1	0.00e+00	0	55	0	1289748480	43	3714
2026-01-04 02:22:38.43	31.40	26.88	-40.1	-40.6	21.0	0.00e+00	0	55	0	1294991360	43	3728
2026-01-04 02:22:39.41	31.47	27.04	-40.0	-40.6	21.1	0.00e+00	0	55	0	1300234240	43	3711
2026-01-04 02:22:40.41	31.53	27.21	-39.9	-40.4	21.2	0.00e+00	0	55	0	1306525696	43	3641
2026-01-04 02:22:41.40	31.60	27.38	-39.9	-40.5	21.2	0.00e+00	0	55	0	1311768576	42	3869
2026-01-04 02:22:42.39	31.67	27.54	-40.0	-40.5	21.1	0.00e+00	0	55	0	1317011456	42	3910
2026-01-04 02:22:43.39	31.74	27.72	-40.1	-40.6	21.0	0.00e+00	0	55	0	1322254336	42	3958
2026-01-04 02:22:44.38	31.81	27.89	-40.1	-40.6	21.1	0.00e+00	0	55	0	1328545792	42	3942
2026-01-04 02:22:45.37	31.87	28.06	-40.1	-40.7	21.0	0.00e+00	0	55	0	1333788672	42	3965
2026-01-04 02:22:46.35	31.94	28.23	-40.1	-40.6	21.0	0.00e+00	0	55	0	1339031552	42	3957
2026-01-04 02:22:47.34	32.01	28.40	-40.0	-40.5	21.2	0.00e+00	0	55	0	1345323008	42	3906
2026-01-04 02:22:48.33	32.09	28.57	-40.0	-40.6	21.1	0.00e+00	0	55	0	1350565888	42	3916
2026-01-04 02:22:49.31	32.16	28.75	-40.1	-40.7	21.0	0.00e+00	0	55	0	1355808768	42	3984
2026-01-04 02:22:50.30	32.23	28.92	-40.2	-40.8	20.9	0.00e+00	0	55	0	1361051648	42	4021
2026-01-04 02:22:51.30	32.31	29.10	-40.1	-40.7	21.0	0.00e+00	0	55	0	1367343104	42	3961
2026-01-04 02:22:52.29	32.38	29.28	-40.2	-40.8	20.9	0.00e+00	0	55	0	1372585984	42	4021
2026-01-04 02:22:53.27	32.45	29.46	-40.3	-40.9	20.8	0.00e+00	0	55	0	1378877440	42	4087
2026-01-04 02:22:54.27	32.53	29.64	-40.3	-40.9	20.9	0.00e+00	0	55	0	1384120320	42	4058
2026-01-04 02:22:55.25	32.61	29.82	-40.3	-40.9	20.8	0.00e+00	0	55	0	1389363200	42	4068
2026-01-04 02:22:56.24	32.69	30.00	-40.2	-40.8	21.0	0.00e+00	0	55	0	1394606080	42	4009
2026-01-04 02:22:57.23	32.76	30.19	-40.3	-40.8	20.9	0.00e+00	0	55	0	1400897536	42	4046
2026-01-04 02:22:58.23	32.84	30.38	-40.4	-40.9	20.8	0.00e+00	0	55	0	1406140416	42	4096
2026-01-04 02:22:59.22	32.92	30.56	-40.4	-41.0	20.7	0.00e+00	0	55	0	1411383296	42	4127
2026-01-04 02:23:00.21	33.01	30.75	-40.6	-41.2	20.5	0.00e+00	0	55	0	1417674752	43	3991
2026-01-04 02:23:01.20	33.09	30.94	-40.3	-40.9	20.8	0.00e+00	0	55	0	1422917632	43	3842
2026-01-04 02:23:02.18	33.17	31.13	-40.0	-40.6	21.1	0.00e+00	0	55	0	1428160512	43	3715
2026-01-04 02:23:03.17	33.25	31.32	-39.8	-40.3	21.4	0.00e+00	0	55	0	1434451968	42	3812
2026-01-04 02:23:04.16	33.34	31.51	-39.7	-40.2	21.5	0.00e+00	0	55	0	1439694848	42	3776
2026-01-04 02:23:05.16	33.43	31.70	-39.7	-40.3	21.4	0.00e+00	0	55	0	1444937728	42	3800
2026-01-04 02:23:06.14	33.51	31.90	-39.8	-40.4	21.3	0.00e+00	0	55	0	1450180608	42	3845
2026-01-04 02:23:07.13	33.60	32.09	-40.1	-40.6	21.1	0.00e+00	0	55	0	1456472064	42	3952
2026-01-04 02:23:08.12	33.69	32.29	-40.0	-40.6	21.1	0.00e+00	0	55	0	1461714944	42	3947
2026-01-04 02:23:09.11	33.78	32.49	-40.0	-40.6	21.1	0.00e+00	0	55	0	1468006400	42	3944
2026-01-04 02:23:10.09	33.87	32.69	-39.9	-40.4	21.3	0.00e+00	0	56	0	1473249280	42	3858
2026-01-04 02:23:11.08	33.96	32.89	-39.8	-40.4	21.3	0.00e+00	0	55	0	1478492160	42	3831
2026-01-04 02:23:12.08	34.05	33.09	-39.6	-40.2	21.5	0.00e+00	0	55	0	1483735040	42	3746
2026-01-04 02:23:13.07	34.15	33.29	-39.7	-40.2	21.5	0.00e+00	0	55	0	1490026496	42	3756
2026-01-04 02:23:14.07	34.25	33.50	-39.8	-40.3	21.4	0.00e+00	0	55	0	1495269376	42	3812
2026-01-04 02:23:15.06	34.34	33.71	-40.0	-40.6	21.2	0.00e+00	0	55	0	1500512256	42	3932
2026-01-04 02:23:16.05	34.44	33.91	-39.8	-40.4	21.3	0.00e+00	0	56	0	1506803712	42	3843
2026-01-04 02:23:17.04	34.54	34.12	-40.2	-40.8	21.0	0.00e+00	0	55	0	1512046592	42	4029
2026-01-04 02:23:18.03	34.64	34.33	-40.0	-40.6	21.1	0.00e+00	0	55	0	1517289472	42	3953
2026-01-04 02:23:19.02	34.74	34.54	-40.4	-41.0	20.8	0.00e+00	0	56	0	1523580928	42	4102
2026-01-04 02:23:20.01	34.84	34.76	-40.4	-41.0	20.8	0.00e+00	0	56	0	1528823808	42	4120
2026-01-04 02:23:21.00	34.95	34.97	-40.2	-40.8	21.0	0.00e+00	0	55	0	1534066688	42	4017
2026-01-04 02:23:21.99	35.05	35.19	-40.1	-40.7	21.1	0.00e+00	0	56	0	1540358144	42	3967
2026-01-04 02:23:22.98	35.16	35.40	-40.2	-40.8	21.0	0.00e+00	0	55	0	1545601024	42	4009
2026-01-04 02:23:23.97	35.27	35.62	-40.5	-41.1	20.7	0.00e+00	0	55	0	1550843904	42	4169
2026-01-04 02:23:24.96	35.38	35.84	-40.4	-41.0	20.8	0.00e+00	0	56	0	1557135360	42	4102
2026-01-04 02:23:25.95	35.49	36.06	-40.7	-41.3	20.5	0.00e+00	0	55	0	1562378240	43	4014
2026-01-04 02:23:26.94	35.60	36.28	-40.4	-41.0	20.7	0.00e+00	0	55	0	1567621120	43	3912
2026-01-04 02:23:27.93	35.71	36.51	-40.1	-40.7	21.1	0.00e+00	0	55	0	1572864000	43	3739
2026-01-04 02:23:28.91	35.83	36.73	-39.7	-40.3	21.5	0.00e+00	0	56	0	1579155456	42	3781
2026-01-04 02:23:29.89	35.94	36.95	-39.6	-40.1	21.6	0.00e+00	0	56	0	1584398336	42	3725
2026-01-04 02:23:30.88	36.06	37.18	-39.6	-40.1	21.6	0.00e+00	0	56	0	1589641216	42	3716
2026-01-04 02:23:31.87	36.18	37.41	-39.6	-40.2	21.6	0.00e+00	0	55	0	1595932672	42	3743
2026-01-04 02:23:32.86	36.30	37.64	-40.0	-40.5	21.2	0.00e+00	0	56	0	1601175552	42	3906
2026-01-04 02:23:33.86	36.43	37.88	-39.7	-40.2	21.5	0.00e+00	0	56	0	1606418432	42	3769
2026-01-04 02:23:34.85	36.55	38.11	-39.4	-39.9	21.8	0.00e+00	0	56	0	1611661312	42	3634
2026-01-04 02:23:35.85	36.68	38.35	-39.2	-39.7	22.0	0.00e+00	0	56	0	1617952768	41	3743
2026-01-04 02:23:36.84	36.81	38.59	-39.2	-39.7	22.0	0.00e+00	0	56	0	1623195648	41	3756
2026-01-04 02:23:37.83	36.94	38.82	-39.1	-39.6	22.1	0.00e+00	0	56	0	1629487104	41	3706
2026-01-04 02:23:38.83	37.07	39.07	-39.1	-39.7	22.0	0.00e+00	0	56	0	1634729984	41	3743
2026-01-04 02:23:39.82	37.21	39.31	-39.1	-39.7	22.0	0.00e+00	0	56	0	1639972864	41	3743
2026-01-04 02:23:40.81	37.34	39.55	-39.3	-39.8	21.9	0.00e+00	0	56	0	1646264320	41	3823
2026-01-04 02:23:41.81	37.48	39.80	-39.6	-40.2	21.6	0.00e+00	0	56	0	1651507200	41	3972
2026-01-04 02:23:42.79	37.62	40.04	-39.7	-40.2	21.5	0.00e+00	0	55	0	1656750080	41	3994
2026-01-04 02:23:43.77	37.76	40.29	-39.8	-40.3	21.5	0.00e+00	0	56	0	1661992960	41	4030
2026-01-04 02:23:44.77	37.91	40.54	-40.0	-40.5	21.2	0.00e+00	0	56	0	1668284416	41	4136
2026-01-04 02:23:45.75	38.05	40.79	-40.1	-40.7	21.1	0.00e+00	0	56	0	1673527296	42	3986
2026-01-04 02:23:46.75	38.20	41.04	-40.1	-40.7	21.1	0.00e+00	0	56	0	1678770176	42	3985
2026-01-04 02:23:47.73	38.35	41.29	-40.2	-40.7	21.1	0.00e+00	0	56	0	1685061632	42	3994
2026-01-04 02:23:48.73	38.51	41.55	-40.3	-40.9	20.9	0.00e+00	0	56	0	1690304512	42	4064
2026-01-04 02:23:49.72	38.67	41.81	-40.2	-40.8	21.0	0.00e+00	0	56	0	1695547392	42	4030
2026-01-04 02:23:50.70	38.82	42.07	-40.2	-40.7	21.1	0.00e+00	0	56	0	1701838848	42	3990
2026-01-04 02:23:51.69	38.98	42.33	-40.1	-40.6	21.2	0.00e+00	0	56	0	1707081728	42	3942
2026-01-04 02:23:52.69	39.15	42.59	-40.4	-40.9	20.9	0.00e+00	0	56	0	1712324608	42	4090
2026-01-04 02:23:53.68	39.31	42.85	-40.4	-41.0	20.8	0.00e+00	0	56	0	1718616064	42	4121
2026-01-04 02:23:54.66	39.48	43.12	-40.7	-41.3	20.5	0.00e+00	0	56	0	1723858944	43	4029
2026-01-04 02:23:55.65	39.65	43.38	-40.6	-41.2	20.6	0.00e+00	0	56	0	1729101824	43	3978
2026-01-04 02:23:56.63	39.82	43.65	-40.3	-40.8	21.0	0.00e+00	0	56	0	1734344704	43	3810
2026-01-04 02:23:57.62	40.00	43.92	-40.0	-40.5	21.3	0.00e+00	0	56	0	1740636160	43	3692
2026-01-04 02:23:58.61	40.18	44.19	-40.0	-40.5	21.3	0.00e+00	0	56	0	1745879040	43	3674
2026-01-04 02:23:59.60	40.37	44.46	-40.2	-40.8	21.1	0.00e+00	0	56	0	1751121920	43	3786
2026-01-04 02:24:00.59	40.55	44.74	-40.4	-41.0	20.8	0.00e+00	0	56	0	1757413376	43	3897
2026-01-04 02:24:01.57	40.74	45.01	-40.4	-41.0	20.9	0.00e+00	0	56	0	1762656256	43	3875
2026-01-04 02:24:02.56	40.93	45.29	-40.3	-40.9	20.9	0.00e+00	0	56	0	1767899136	43	3841
2026-01-04 02:24:03.55	41.13	45.57	-40.4	-41.0	20.9	0.00e+00	0	56	0	1773142016	43	3884
2026-01-04 02:24:04.54	41.33	45.85	-40.3	-40.9	21.0	0.00e+00	0	56	0	1779433472	43	3833
2026-01-04 02:24:05.54	41.53	46.14	-39.9	-40.4	21.4	0.00e+00	0	56	0	1784676352	43	3646
2026-01-04 02:24:06.53	41.74	46.42	-39.8	-40.3	21.5	0.00e+00	0	56	0	1789919232	42	3810
2026-01-04 02:24:07.52	41.95	46.71	-39.9	-40.4	21.4	0.00e+00	0	56	0	1796210688	42	3843
2026-01-04 02:24:08.51	42.16	47.00	-40.1	-40.6	21.2	0.00e+00	0	56	0	1801453568	42	3952
2026-01-04 02:24:09.50	42.38	47.28	-40.2	-40.8	21.1	0.00e+00	0	56	0	1806696448	42	4024
2026-01-04 02:24:10.48	42.60	47.57	-40.3	-40.9	21.0	0.00e+00	0	56	0	1812987904	42	4061
2026-01-04 02:24:11.47	42.83	47.86	-40.2	-40.8	21.0	0.00e+00	0	56	0	1818230784	42	4020
2026-01-04 02:24:12.46	43.06	48.16	-39.9	-40.4	21.4	0.00e+00	0	56	0	1823473664	42	3860
2026-01-04 02:24:13.45	43.29	48.45	-39.7	-40.2	21.6	0.00e+00	0	56	0	1829765120	42	3773
2026-01-04 02:24:14.43	43.53	48.75	-39.7	-40.2	21.6	0.00e+00	0	56	0	1835008000	42	3774
2026-01-04 02:24:15.41	43.77	49.04	-40.0	-40.6	21.3	0.00e+00	0	56	0	1840250880	42	3914
2026-01-04 02:24:16.40	44.02	49.34	-40.4	-41.0	20.9	0.00e+00	0	56	0	1845493760	42	4109
2026-01-04 02:24:17.39	44.27	49.64	-40.5	-41.1	20.8	0.00e+00	0	56	0	1851785216	42	4157
2026-01-04 02:24:18.38	44.53	49.95	-40.4	-41.0	20.8	0.00e+00	0	56	0	1857028096	42	4130
2026-01-04 02:24:19.37	44.79	50.25	-40.3	-40.9	21.0	0.00e+00	0	56	0	1862270976	42	4063
2026-01-04 02:24:20.35	45.06	50.55	-40.2	-40.8	21.0	0.00e+00	0	56	0	1868562432	42	4029
2026-01-04 02:24:21.34	45.33	50.86	-40.3	-40.9	21.0	0.00e+00	0	56	0	1873805312	42	4079
2026-01-04 02:24:22.34	45.61	51.17	-40.3	-40.8	21.0	0.00e+00	0	56	0	1879048192	42	4039
2026-01-04 02:24:23.33	45.90	51.48	-40.3	-40.8	21.0	0.00e+00	0	56	0	1885339648	42	4048
2026-01-04 02:24:24.33	46.19	51.79	-40.4	-40.9	20.9	0.00e+00	0	56	0	1890582528	42	4097
2026-01-04 02:24:25.32	46.49	52.11	-40.7	-41.3	20.6	0.00e+00	0	56	0	1895825408	43	4006
2026-01-04 02:24:26.31	46.79	52.42	-41.1	-41.7	20.2	0.00e+00	0	56	0	1902116864	43	4230
2026-01-04 02:24:27.30	47.10	52.73	-41.2	-41.8	20.2	0.00e+00	0	56	0	1907359744	44	4023
2026-01-04 02:24:28.28	47.42	53.05	-41.2	-41.8	20.2	0.00e+00	0	56	0	1912602624	44	4024
2026-01-04 02:24:29.27	47.74	53.36	-41.2	-41.8	20.2	0.00e+00	0	56	0	1918894080	44	4042
2026-01-04 02:24:30.26	48.07	53.68	-41.2	-41.8	20.2	0.00e+00	0	56	0	1924136960	44	4017
2026-01-04 02:24:31.25	48.41	54.00	-40.9	-41.5	20.5	0.00e+00	0	56	0	1929379840	44	3870
2026-01-04 02:24:32.23	48.75	54.32	-40.8	-41.4	20.6	0.00e+00	0	56	0	1934622720	44	3855
2026-01-04 02:24:33.21	49.10	54.63	-41.2	-41.8	20.2	0.00e+00	0	56	0	1940914176	44	4038
2026-01-04 02:24:34.20	49.46	54.96	-41.4	-42.1	19.9	0.00e+00	0	56	0	1946157056	44	4161
2026-01-04 02:24:35.19	49.83	55.28	-41.4	-42.0	20.0	0.00e+00	0	56	0	1951399936	44	4126
2026-01-04 02:24:36.18	50.21	55.60	-41.1	-41.7	20.3	0.00e+00	0	56	0	1957691392	44	4003
2026-01-04 02:24:37.18	50.59	55.93	-41.2	-41.8	20.2	0.00e+00	0	56	0	1962934272	44	4026
2026-01-04 02:24:38.17	50.99	56.25	-41.7	-42.3	19.7	0.00e+00	0	56	0	1968177152	45	4047
2026-01-04 02:24:39.16	51.39	56.58	-41.5	-42.1	19.9	0.00e+00	0	56	0	1974468608	45	3952
2026-01-04 02:24:40.15	51.81	56.91	-41.5	-42.1	19.9	0.00e+00	0	56	0	1979711488	45	3940
2026-01-04 02:24:41.14	52.23	57.23	-41.5	-42.2	19.9	0.00e+00	0	56	0	1984954368	45	3959
2026-01-04 02:24:42.13	52.67	57.56	-41.8	-42.5	19.6	0.00e+00	0	56	0	1990197248	45	4103
2026-01-04 02:24:43.13	53.11	57.89	-42.5	-43.3	18.8	0.00e+00	0	56	0	1996488704	46	4245
2026-01-04 02:24:44.12	53.57	58.22	-42.5	-43.2	18.9	0.00e+00	0	56	0	2001731584	46	4234
2026-01-04 02:24:45.10	54.03	58.54	-42.7	-43.4	18.7	0.00e+00	0	56	0	2008023040	47	4085
2026-01-04 02:24:46.09	54.51	58.87	-42.2	-42.9	19.1	0.00e+00	0	56	0	2013265920	47	3859
2026-01-04 02:24:47.08	55.00	59.20	-42.0	-42.7	19.4	0.00e+00	0	56	0	2018508800	47	3747
2026-01-04 02:24:48.07	55.50	59.52	-41.7	-42.4	19.7	0.00e+00	0	56	0	2023751680	46	3830
2026-01-04 02:24:49.06	56.02	59.85	-41.5	-42.1	19.9	0.00e+00	0	56	0	2030043136	46	3721
2026-01-04 02:24:50.05	56.54	60.18	-41.5	-42.1	19.9	0.00e+00	0	56	0	2035286016	46	3726
2026-01-04 02:24:51.04	57.09	60.50	-41.3	-41.9	20.1	0.00e+00	0	56	0	2040528896	45	3841
2026-01-04 02:24:52.03	57.64	60.83	-41.7	-42.4	19.7	0.00e+00	0	56	0	2046820352	45	4059
2026-01-04 02:24:53.03	58.22	61.16	-41.0	-41.6	20.4	0.00e+00	0	56	0	2052063232	45	3701
2026-01-04 02:24:54.02	58.80	61.48	-40.7	-41.3	20.7	0.00e+00	0	56	0	2057306112	44	3796
2026-01-04 02:24:55.01	59.40	61.80	-40.7	-41.3	20.7	0.00e+00	0	56	0	2063597568	44	3802
2026-01-04 02:24:55.99	60.01	62.12	-40.7	-41.3	20.7	0.00e+00	0	56	0	2068840448	44	3820
2026-01-04 02:24:56.98	60.64	62.44	-40.9	-41.5	20.5	0.00e+00	0	56	0	2074083328	44	3907
2026-01-04 02:24:57.97	61.29	62.76	-41.2	-41.8	20.2	0.00e+00	0	56	0	2079326208	44	4039
2026-01-04 02:24:58.96	61.96	63.08	-40.8	-41.4	20.6	0.00e+00	0	56	0	2085617664	44	3849
2026-01-04 02:24:59.94	62.64	63.39	-40.6	-41.2	20.8	0.00e+00	0	56	0	2090860544	44	3758
2026-01-04 02:25:00.94	63.34	63.71	-40.4	-41.0	21.0	0.00e+00	0	56	0	2096103424	44	3661
2026-01-04 02:25:01.93	64.07	64.02	-40.3	-40.9	21.0	0.00e+00	0	56	0	2102394880	43	3849
2026-01-04 02:25:02.92	64.81	64.33	-40.4	-41.0	20.9	0.00e+00	0	56	0	2107637760	43	3905
2026-01-04 02:25:03.91	65.57	64.63	-40.0	-40.6	21.3	0.00e+00	0	56	0	2112880640	43	3720
2026-01-04 02:25:04.90	66.35	64.94	-39.4	-39.9	21.9	0.00e+00	0	56	0	2119172096	42	3631
2026-01-04 02:25:05.89	67.15	65.24	-38.9	-39.3	22.4	0.00e+00	0	56	0	2124414976	41	3608
2026-01-04 02:25:06.88	67.98	65.54	-39.3	-39.8	22.0	0.00e+00	0	56	0	2129657856	41	3804
2026-01-04 02:25:07.87	68.82	65.83	-39.4	-40.0	21.8	0.00e+00	0	56	0	2135949312	41	3889
2026-01-04 02:25:08.86	69.69	66.12	-39.2	-39.7	22.1	0.00e+00	0	56	0	2141192192	41	3773
2026-01-04 02:25:09.86	70.59	66.41	-39.7	-40.2	21.6	0.00e+00	0	56	0	2146435072	41	3993
2026-01-04 02:25:10.85	71.51	66.69	-39.7	-40.2	21.6	0.00e+00	0	56	0	2151677952	41	4001
2026-01-04 02:25:11.83	72.44	66.96	-40.0	-40.5	21.3	0.00e+00	0	56	0	2157969408	41	4145
2026-01-04 02:25:12.83	73.42	67.24	-39.7	-40.3	21.6	0.00e+00	0	56	0	2163212288	42	3799
2026-01-04 02:25:13.82	74.41	67.50	-39.1	-39.6	22.2	0.00e+00	0	56	0	2169503744	41	3727
2026-01-04 02:25:14.81	75.42	67.77	-38.8	-39.3	22.5	0.00e+00	0	56	0	2174746624	40	3788
2026-01-04 02:25:15.80	76.47	68.02	-39.1	-39.6	22.2	0.00e+00	0	56	0	2179989504	40	3953
2026-01-04 02:25:16.79	77.54	68.27	-39.2	-39.7	22.1	0.00e+00	0	56	0	2185232384	40	3978
2026-01-04 02:25:17.78	78.63	68.51	-38.7	-39.2	22.5	0.00e+00	0	56	0	2191523840	40	3764
2026-01-04 02:25:18.76	79.74	68.75	-38.8	-39.2	22.5	0.00e+00	0	56	0	2196766720	40	3772
2026-01-04 02:25:19.75	80.89	68.98	-39.0	-39.5	22.3	0.00e+00	0	56	0	2202009600	40	3889
2026-01-04 02:25:20.74	82.06	69.20	-38.8	-39.3	22.5	0.00e+00	0	56	0	2208301056	40	3782
2026-01-04 02:25:21.73	83.27	69.41	-38.7	-39.2	22.5	0.00e+00	0	56	0	2213543936	40	3776
2026-01-04 02:25:22.72	84.49	69.62	-39.1	-39.6	22.2	0.00e+00	0	56	0	2218786816	40	3934
2026-01-04 02:25:23.71	85.75	69.82	-39.3	-39.8	22.0	0.00e+00	0	56	0	2225078272	40	4032
2026-01-04 02:25:24.70	87.03	70.01	-39.0	-39.5	22.3	0.00e+00	0	56	0	2230321152	40	3891
2026-01-04 02:25:25.69	88.34	70.19	-39.2	-39.7	22.1	0.00e+00	0	57	0	2235564032	40	3969
2026-01-04 02:25:26.68	89.67	70.36	-38.9	-39.4	22.4	0.00e+00	0	56	0	2240806912	40	3841
2026-01-04 02:25:27.67	91.02	70.52	-38.7	-39.2	22.6	0.00e+00	0	57	0	2247098368	40	3754
2026-01-04 02:25:28.66	92.40	70.67	-39.1	-39.6	22.1	0.00e+00	0	56	0	2252341248	40	3956
2026-01-04 02:25:29.65	93.80	70.81	-39.5	-40.0	21.8	0.00e+00	0	57	0	2257584128	40	4124
2026-01-04 02:25:30.64	95.23	70.94	-39.4	-39.9	21.9	0.00e+00	0	56	0	2263875584	41	3863
2026-01-04 02:25:31.62	96.65	71.06	-39.1	-39.7	22.1	0.00e+00	0	57	0	2269118464	41	3741
2026-01-04 02:25:32.62	98.13	71.16	-38.6	-39.1	22.6	0.00e+00	0	56	0	2274361344	40	3718
2026-01-04 02:25:33.61	99.60	71.26	-38.5	-38.9	22.8	0.00e+00	0	56	0	2280652800	40	3640
2026-01-04 02:25:34.60	101.10	71.35	-38.8	-39.3	22.5	0.00e+00	0	56	0	2285895680	40	3796
2026-01-04 02:25:35.60	102.62	71.42	-38.8	-39.3	22.5	0.00e+00	0	56	0	2291138560	40	3793
2026-01-04 02:25:36.59	104.13	71.48	-38.7	-39.2	22.6	0.00e+00	0	57	0	2297430016	40	3756
2026-01-04 02:25:37.58	105.66	71.53	-39.1	-39.6	22.2	0.00e+00	0	57	0	2302672896	40	3917
2026-01-04 02:25:38.58	107.21	71.56	-39.3	-39.8	22.0	0.00e+00	0	57	0	2307915776	40	4019
2026-01-04 02:25:39.57	108.75	71.58	-39.4	-40.0	21.9	0.00e+00	0	56	0	2314207232	40	4107
2026-01-04 02:25:40.56	110.29	71.60	-39.6	-40.1	21.7	0.00e+00	0	56	0	2319450112	41	3934
2026-01-04 02:25:41.55	111.83	71.59	-39.5	-40.0	21.8	0.00e+00	0	57	0	2324692992	41	3912
2026-01-04 02:25:42.54	113.38	71.58	-39.9	-40.4	21.4	0.00e+00	0	57	0	2329935872	41	4074
2026-01-04 02:25:43.52	114.90	71.55	-40.2	-40.8	21.1	0.00e+00	0	57	0	2336227328	42	4008
2026-01-04 02:25:44.51	116.43	71.51	-40.5	-41.1	20.8	0.00e+00	0	57	0	2341470208	42	4180
2026-01-04 02:25:45.50	117.95	71.46	-40.3	-40.9	21.0	0.00e+00	0	57	0	2346713088	43	3832
2026-01-04 02:25:46.49	119.47	71.40	-39.7	-40.3	21.6	0.00e+00	0	57	0	2353004544	42	3788
2026-01-04 02:25:47.48	120.97	71.32	-39.4	-39.9	21.9	0.00e+00	0	57	0	2358247424	42	3621
2026-01-04 02:25:48.46	122.44	71.23	-39.0	-39.5	22.3	0.00e+00	0	56	0	2363490304	41	3659
2026-01-04 02:25:49.45	123.92	71.14	-39.3	-39.9	22.0	0.00e+00	0	57	0	2369781760	41	3828
2026-01-04 02:25:50.45	125.39	71.02	-39.5	-40.1	21.7	0.00e+00	0	57	0	2375024640	41	3929
2026-01-04 02:25:51.44	126.82	70.90	-39.5	-40.1	21.7	0.00e+00	0	56	0	2380267520	41	3914
2026-01-04 02:25:52.43	128.24	70.77	-39.8	-40.3	21.6	0.00e+00	0	57	0	2386558976	41	4038
2026-01-04 02:25:53.42	129.64	70.63	-40.0	-40.6	21.3	0.00e+00	0	57	0	2391801856	41	4165
2026-01-04 02:25:54.41	131.01	70.47	-40.1	-40.7	21.2	0.00e+00	0	57	0	2397044736	42	3979
2026-01-04 02:25:55.40	132.36	70.31	-39.7	-40.2	21.7	0.00e+00	0	57	0	2402287616	42	3748
2026-01-04 02:25:56.39	133.68	70.13	-39.5	-40.0	21.9	0.00e+00	0	57	0	2408579072	42	3656
2026-01-04 02:25:57.39	135.00	69.95	-39.5	-40.1	21.8	0.00e+00	0	57	0	2413821952	42	3706
2026-01-04 02:25:58.37	136.26	69.76	-39.4	-40.0	21.9	0.00e+00	0	57	0	2420113408	42	3657
2026-01-04 02:25:59.36	137.50	69.56	-39.1	-39.6	22.1	0.00e+00	0	57	0	2425356288	41	3737
2026-01-04 02:26:00.34	138.71	69.35	-39.3	-39.8	22.0	0.00e+00	0	57	0	2430599168	41	3807
2026-01-04 02:26:01.34	139.92	69.13	-39.4	-39.9	21.9	0.00e+00	0	57	0	2435842048	41	3864
2026-01-04 02:26:02.34	141.10	68.91	-39.2	-39.7	22.1	0.00e+00	0	57	0	2442133504	41	3770
2026-01-04 02:26:03.33	142.24	68.67	-39.5	-40.1	21.8	0.00e+00	0	57	0	2447376384	41	3922
2026-01-04 02:26:04.33	143.37	68.43	-39.6	-40.2	21.7	0.00e+00	0	57	0	2452619264	41	3963
2026-01-04 02:26:05.31	144.44	68.19	-39.4	-39.9	21.9	0.00e+00	0	57	0	2458910720	41	3867
2026-01-04 02:26:06.30	145.51	67.94	-39.6	-40.1	21.7	0.00e+00	0	57	0	2464153600	41	3941
2026-01-04 02:26:07.29	146.54	67.68	-39.7	-40.2	21.6	0.00e+00	0	57	0	2469396480	41	3974
2026-01-04 02:26:08.28	147.55	67.42	-39.3	-39.8	22.0	0.00e+00	0	57	0	2475687936	41	3797
2026-01-04 02:26:09.27	148.53	67.15	-39.3	-39.8	22.0	0.00e+00	0	56	0	2480930816	41	3799
2026-01-04 02:26:10.26	149.49	66.87	-39.2	-39.8	22.1	0.00e+00	0	57	0	2486173696	41	3784
2026-01-04 02:26:11.25	150.43	66.60	-39.1	-39.6	22.2	0.00e+00	0	57	0	2491416576	41	3733
2026-01-04 02:26:12.24	151.34	66.31	-39.1	-39.6	22.2	0.00e+00	0	57	0	2497708032	41	3703
2026-01-04 02:26:13.23	152.22	66.02	-39.2	-39.7	22.1	0.00e+00	0	57	0	2502950912	41	3750
2026-01-04 02:26:14.22	153.09	65.73	-39.1	-39.7	22.2	0.00e+00	0	57	0	2509242368	41	3742
2026-01-04 02:26:15.21	153.93	65.44	-39.3	-39.8	22.0	0.00e+00	0	57	0	2514485248	41	3802
2026-01-04 02:26:16.20	154.74	65.14	-39.7	-40.2	21.7	0.00e+00	0	57	0	2519728128	41	3975
2026-01-04 02:26:17.19	155.54	64.84	-39.6	-40.2	21.7	0.00e+00	0	57	0	2524971008	41	3972
2026-01-04 02:26:18.18	156.32	64.53	-39.8	-40.4	21.5	0.00e+00	0	57	0	2531262464	41	4071
2026-01-04 02:26:19.17	157.07	64.22	-39.7	-40.2	21.7	0.00e+00	0	57	0	2536505344	41	3989
2026-01-04 02:26:20.16	157.81	63.91	-39.7	-40.2	21.7	0.00e+00	0	57	0	2541748224	41	3978
2026-01-04 02:26:21.15	158.52	63.60	-39.8	-40.4	21.5	0.00e+00	0	57	0	2548039680	41	4058
2026-01-04 02:26:22.14	159.22	63.29	-39.9	-40.4	21.4	0.00e+00	0	57	0	2553282560	41	4097
2026-01-04 02:26:23.13	159.90	62.97	-40.0	-40.6	21.3	0.00e+00	0	57	0	2558525440	41	4167
2026-01-04 02:26:24.12	160.56	62.65	-40.5	-41.1	20.8	0.00e+00	0	57	0	2564816896	43	3938
2026-01-04 02:26:25.11	161.21	62.33	-39.8	-40.3	21.6	0.00e+00	0	56	0	2570059776	42	3792
2026-01-04 02:26:26.09	161.83	62.01	-39.5	-40.0	21.8	0.00e+00	0	57	0	2575302656	42	3661
2026-01-04 02:26:27.08	162.44	61.69	-39.6	-40.1	21.8	0.00e+00	0	57	0	2580545536	42	3712
2026-01-04 02:26:28.08	163.04	61.36	-40.0	-40.6	21.3	0.00e+00	0	57	0	2586836992	42	3939
2026-01-04 02:26:29.07	163.62	61.04	-39.7	-40.2	21.6	0.00e+00	0	57	0	2592079872	42	3780
2026-01-04 02:26:30.05	164.18	60.72	-39.6	-40.2	21.7	0.00e+00	0	57	0	2597322752	42	3744
2026-01-04 02:26:31.04	164.73	60.39	-40.0	-40.6	21.3	0.00e+00	0	57	0	2603614208	42	3921
2026-01-04 02:26:32.03	165.27	60.06	-40.3	-40.8	21.1	0.00e+00	0	57	0	2608857088	42	4034
2026-01-04 02:26:33.01	165.79	59.74	-40.4	-40.9	21.0	0.00e+00	0	57	0	2614099968	42	4086
2026-01-04 02:26:34.00	166.30	59.41	-40.4	-40.9	21.0	0.00e+00	0	57	0	2619342848	42	4087
2026-01-04 02:26:35.00	166.81	59.08	-40.4	-41.0	20.9	0.00e+00	0	57	0	2625634304	42	4105
2026-01-04 02:26:35.99	167.29	58.75	-40.7	-41.2	20.7	0.00e+00	0	57	0	2630877184	43	3997
2026-01-04 02:26:36.98	167.77	58.42	-40.7	-41.3	20.6	0.00e+00	0	57	0	2637168640	43	4045
2026-01-04 02:26:37.97	168.23	58.09	-41.1	-41.7	20.2	0.00e+00	0	57	0	2642411520	43	4232
2026-01-04 02:26:38.96	168.68	57.76	-40.9	-41.5	20.5	0.00e+00	0	57	0	2647654400	44	3893
2026-01-04 02:26:39.95	169.12	57.44	-40.8	-41.4	20.6	0.00e+00	0	57	0	2652897280	44	3846
2026-01-04 02:26:40.93	169.55	57.11	-41.0	-41.7	20.4	0.00e+00	0	57	0	2659188736	44	3965
2026-01-04 02:26:41.92	169.97	56.78	-41.0	-41.6	20.4	0.00e+00	0	57	0	2664431616	44	3956
2026-01-04 02:26:42.91	170.38	56.46	-41.1	-41.8	20.3	0.00e+00	0	57	0	2669674496	44	4015
2026-01-04 02:26:43.90	170.79	56.13	-41.4	-42.0	20.0	0.00e+00	0	57	0	2675965952	44	4114
2026-01-04 02:26:44.88	171.17	55.81	-41.3	-42.0	20.1	0.00e+00	0	57	0	2681208832	44	4100
2026-01-04 02:26:45.88	171.56	55.48	-41.1	-41.8	20.3	0.00e+00	0	57	0	2686451712	44	4009
2026-01-04 02:26:46.87	171.94	55.16	-41.2	-41.8	20.3	0.00e+00	0	57	0	2692743168	44	4011
2026-01-04 02:26:47.86	172.30	54.83	-41.1	-41.7	20.3	0.00e+00	0	57	0	2697986048	44	3999
2026-01-04 02:26:48.85	172.66	54.51	-41.2	-41.8	20.2	0.00e+00	0	57	0	2703228928	44	4051
2026-01-04 02:26:49.84	173.01	54.19	-41.4	-42.1	20.0	0.00e+00	0	57	0	2709520384	44	4161
2026-01-04 02:26:50.83	173.36	53.87	-41.1	-41.8	20.3	0.00e+00	0	57	0	2714763264	44	4009
2026-01-04 02:26:51.82	173.69	53.55	-41.0	-41.6	20.5	0.00e+00	0	57	0	2720006144	44	3921
2026-01-04 02:26:52.81	174.02	53.23	-40.9	-41.5	20.6	0.00e+00	0	57	0	2726297600	44	3884
2026-01-04 02:26:53.81	174.34	52.91	-40.9	-41.5	20.5	0.00e+00	0	57	0	2731540480	44	3905
2026-01-04 02:26:54.80	174.66	52.59	-40.9	-41.6	20.5	0.00e+00	0	57	0	2736783360	44	3917
2026-01-04 02:26:55.80	174.97	52.28	-41.1	-41.7	20.3	0.00e+00	0	57	0	2742026240	44	3991
2026-01-04 02:26:56.79	175.27	51.96	-41.3	-41.9	20.1	0.00e+00	0	57	0	2748317696	44	4066
2026-01-04 02:26:57.78	175.57	51.65	-41.3	-41.9	20.2	0.00e+00	0	57	0	2753560576	44	4058
2026-01-04 02:26:58.77	175.86	51.34	-41.4	-42.0	20.0	0.00e+00	0	57	0	2759852032	44	4127
2026-01-04 02:26:59.76	176.14	51.03	-41.6	-42.2	19.8	0.00e+00	0	57	0	2765094912	44	4234
2026-01-04 02:27:00.75	176.42	50.72	-41.4	-42.0	20.0	0.00e+00	0	57	0	2770337792	45	3897
2026-01-04 02:27:01.74	176.69	50.41	-41.0	-41.7	20.4	0.00e+00	0	57	0	2775580672	45	3746
2026-01-04 02:27:02.73	176.96	50.11	-40.9	-41.5	20.6	0.00e+00	0	57	0	2781872128	44	3877
2026-01-04 02:27:03.72	177.22	49.80	-40.8	-41.4	20.6	0.00e+00	0	57	0	2787115008	44	3835
2026-01-04 02:27:04.71	177.47	49.50	-40.7	-41.3	20.7	0.00e+00	0	57	0	2792357888	44	3815
2026-01-04 02:27:05.69	177.72	49.20	-41.1	-41.7	20.3	0.00e+00	0	57	0	2798649344	44	3985
2026-01-04 02:27:06.68	177.97	48.90	-41.0	-41.6	20.4	0.00e+00	0	57	0	2803892224	44	3933
2026-01-04 02:27:07.68	178.22	48.60	-40.7	-41.3	20.7	0.00e+00	0	57	0	2809135104	44	3809
2026-01-04 02:27:08.66	178.45	48.30	-40.6	-41.2	20.8	0.00e+00	0	57	0	2815426560	44	3750
2026-01-04 02:27:09.65	178.68	48.01	-40.9	-41.5	20.5	0.00e+00	0	57	0	2820669440	44	3889
2026-01-04 02:27:10.63	178.91	47.72	-41.0	-41.6	20.4	0.00e+00	0	57	0	2825912320	44	3952
2026-01-04 02:27:11.62	179.14	47.42	-40.8	-41.5	20.6	0.00e+00	0	57	0	2831155200	44	3870
2026-01-04 02:27:12.60	179.35	47.14	-40.7	-41.3	20.7	0.00e+00	0	57	0	2837446656	44	3795
2026-01-04 02:27:13.60	179.57	46.84	-40.6	-41.2	20.8	0.00e+00	0	57	0	2842689536	44	3748
2026-01-04 02:27:14.59	179.79	46.56	-40.4	-41.0	21.0	0.00e+00	0	57	0	2847932416	44	3662
2026-01-04 02:27:15.58	179.99	46.27	-40.1	-40.7	21.2	0.00e+00	0	57	0	2854223872	43	3742
2026-01-04 02:27:16.56	180.20	45.99	-40.1	-40.7	21.2	0.00e+00	0	57	0	2859466752	43	3751
2026-01-04 02:27:17.55	180.40	45.70	-40.4	-41.0	20.9	0.00e+00	0	57	0	2864709632	43	3896
2026-01-04 02:27:18.53	180.60	45.43	-40.5	-41.1	20.8	0.00e+00	0	57	0	2869952512	43	3945
2026-01-04 02:27:19.53	180.79	45.14	-40.2	-40.8	21.1	0.00e+00	0	57	0	2876243968	43	3781
2026-01-04 02:27:20.52	180.98	44.86	-39.9	-40.5	21.4	0.00e+00	0	57	0	2881486848	43	3658
2026-01-04 02:27:21.51	181.17	44.59	-39.7	-40.3	21.6	0.00e+00	0	57	0	2887778304	42	3786
2026-01-04 02:27:22.50	181.36	44.31	-39.7	-40.2	21.6	0.00e+00	0	57	0	2893021184	42	3763
2026-01-04 02:27:23.49	181.54	44.04	-39.7	-40.3	21.6	0.00e+00	0	57	0	2898264064	42	3782
2026-01-04 02:27:24.48	181.72	43.77	-39.8	-40.3	21.5	0.00e+00	0	57	0	2903506944	42	3797
2026-01-04 02:27:25.47	181.89	43.50	-39.9	-40.4	21.4	0.00e+00	0	57	0	2909798400	42	3852
2026-01-04 02:27:26.46	182.07	43.23	-39.9	-40.4	21.4	0.00e+00	0	57	0	2915041280	42	3867
2026-01-04 02:27:27.45	182.24	42.96	-39.9	-40.5	21.4	0.00e+00	0	57	0	2920284160	42	3891
2026-01-04 02:27:28.43	182.40	42.70	-40.1	-40.7	21.2	0.00e+00	0	57	0	2926575616	42	3962
2026-01-04 02:27:29.42	182.57	42.43	-40.0	-40.6	21.3	0.00e+00	0	57	0	2931818496	42	3933
2026-01-04 02:27:30.40	182.73	42.17	-39.7	-40.3	21.6	0.00e+00	0	57	0	2937061376	42	3793
2026-01-04 02:27:31.39	182.89	41.91	-39.7	-40.2	21.6	0.00e+00	0	57	0	2942304256	42	3773
2026-01-04 02:27:32.37	183.05	41.66	-39.8	-40.3	21.5	0.00e+00	0	57	0	2948595712	42	3814
2026-01-04 02:27:33.35	183.20	41.40	-39.8	-40.3	21.5	0.00e+00	0	57	0	2953838592	42	3824
2026-01-04 02:27:34.34	183.35	41.15	-39.6	-40.1	21.7	0.00e+00	0	57	0	2959081472	42	3713
2026-01-04 02:27:35.33	183.50	40.89	-39.4	-39.9	21.9	0.00e+00	0	57	0	2965372928	42	3647
2026-01-04 02:27:36.32	183.65	40.64	-39.3	-39.8	22.0	0.00e+00	0	57	0	2970615808	41	3805
2026-01-04 02:27:37.31	183.80	40.39	-39.2	-39.7	22.1	0.00e+00	0	57	0	2975858688	41	3768
2026-01-04 02:27:38.30	183.94	40.14	-39.1	-39.6	22.2	0.00e+00	0	57	0	2981101568	41	3718
2026-01-04 02:27:39.28	184.08	39.89	-39.1	-39.6	22.2	0.00e+00	0	57	0	2987393024	41	3710
2026-01-04 02:27:40.27	184.22	39.65	-39.1	-39.6	22.2	0.00e+00	0	57	0	2992635904	41	3717
2026-01-04 02:27:41.26	184.36	39.40	-39.2	-39.7	22.1	0.00e+00	0	57	0	2998927360	41	3766
2026-01-04 02:27:42.25	184.49	39.16	-39.1	-39.6	22.1	0.00e+00	0	57	0	3004170240	41	3737
2026-01-04 02:27:43.23	184.62	38.92	-39.2	-39.7	22.1	0.00e+00	0	57	0	3009413120	41	3757
2026-01-04 02:27:44.22	184.76	38.68	-39.3	-39.8	22.0	0.00e+00	0	57	0	3014656000	41	3794
2026-01-04 02:27:45.21	184.89	38.44	-39.5	-40.0	21.8	0.00e+00	0	57	0	3020947456	41	3895
2026-01-04 02:27:46.20	185.01	38.20	-39.5	-40.0	21.8	0.00e+00	0	57	0	3026190336	41	3895
2026-01-04 02:27:47.20	185.14	37.96	-39.7	-40.3	21.6	0.00e+00	0	57	0	3031433216	41	4020
2026-01-04 02:27:48.18	185.26	37.73	-39.7	-40.2	21.6	0.00e+00	0	57	0	3037724672	41	4002
2026-01-04 02:27:49.18	185.39	37.50	-39.9	-40.4	21.4	0.00e+00	0	57	0	3042967552	41	4094
2026-01-04 02:27:50.17	185.51	37.26	-39.7	-40.3	21.6	0.00e+00	0	57	0	3048210432	41	4005
2026-01-04 02:27:51.16	185.63	37.03	-39.6	-40.1	21.7	0.00e+00	0	57	0	3054501888	41	3948
2026-01-04 02:27:52.15	185.75	36.81	-39.6	-40.1	21.7	0.00e+00	0	57	0	3059744768	41	3954
2026-01-04 02:27:53.13	185.86	36.58	-39.6	-40.2	21.6	0.00e+00	0	57	0	3064987648	41	3968
2026-01-04 02:27:54.12	185.98	36.36	-39.5	-40.0	21.8	0.00e+00	0	57	0	3070230528	41	3892
2026-01-04 02:27:55.11	186.09	36.13	-39.5	-40.0	21.8	0.00e+00	0	57	0	3076521984	41	3891
2026-01-04 02:27:56.10	186.20	35.91	-39.4	-39.9	21.8	0.00e+00	0	57	0	3081764864	41	3867
2026-01-04 02:27:57.09	186.31	35.69	-39.6	-40.1	21.7	0.00e+00	0	57	0	3087007744	41	3926
2026-01-04 02:27:58.09	186.42	35.47	-39.8	-40.3	21.5	0.00e+00	0	57	0	3093299200	41	4032
2026-01-04 02:27:59.08	186.53	35.25	-39.8	-40.4	21.4	0.00e+00	0	57	0	3098542080	41	4055
2026-01-04 02:28:00.08	186.64	35.03	-39.8	-40.4	21.5	0.00e+00	0	57	0	3103784960	41	4054
2026-01-04 02:28:01.06	186.74	34.82	-39.9	-40.5	21.3	0.00e+00	0	57	0	3110076416	41	4125
2026-01-04 02:28:02.06	186.84	34.60	-39.8	-40.4	21.4	0.00e+00	0	57	0	3115319296	41	4071
2026-01-04 02:28:03.05	186.95	34.39	-39.9	-40.4	21.4	0.00e+00	0	57	0	3120562176	41	4086
2026-01-04 02:28:04.04	187.05	34.17	-40.1	-40.7	21.2	0.00e+00	0	57	0	3126853632	41	4195
2026-01-04 02:28:05.03	187.15	33.96	-40.0	-40.6	21.2	0.00e+00	0	57	0	3132096512	42	3932
2026-01-04 02:28:06.02	187.25	33.76	-40.0	-40.6	21.2	0.00e+00	0	57	0	3137339392	42	3937
2026-01-04 02:28:07.00	187.34	33.55	-40.2	-40.7	21.1	0.00e+00	0	57	0	3142582272	42	4002
2026-01-04 02:28:07.98	187.44	33.35	-40.1	-40.7	21.2	0.00e+00	0	57	0	3148873728	42	3960
2026-01-04 02:28:08.97	187.53	33.14	-40.2	-40.8	21.0	0.00e+00	0	57	0	3154116608	42	4036
2026-01-04 02:28:09.96	187.63	32.94	-40.6	-41.2	20.7	0.00e+00	0	57	0	3159359488	42	4208
2026-01-04 02:28:10.95	187.72	32.73	-40.3	-40.9	21.0	0.00e+00	0	57	0	3165650944	43	3833
2026-01-04 02:28:11.93	187.81	32.54	-40.1	-40.6	21.2	0.00e+00	0	57	0	3170893824	43	3724
2026-01-04 02:28:12.93	187.90	32.33	-39.9	-40.5	21.4	0.00e+00	0	57	0	3176136704	43	3655
2026-01-04 02:28:13.91	187.99	32.14	-39.9	-40.5	21.3	0.00e+00	0	57	0	3182428160	43	3679
2026-01-04 02:28:14.90	188.08	31.94	-40.0	-40.6	21.2	0.00e+00	0	57	0	3187671040	43	3704
2026-01-04 02:28:15.88	188.16	31.75	-40.2	-40.7	21.1	0.00e+00	0	57	0	3192913920	43	3774
2026-01-04 02:28:16.87	188.25	31.55	-40.0	-40.6	21.2	0.00e+00	0	57	0	3198156800	43	3710
2026-01-04 02:28:17.85	188.33	31.36	-40.2	-40.8	21.0	0.00e+00	0	57	0	3204448256	43	3802
2026-01-04 02:28:18.84	188.42	31.17	-40.1	-40.7	21.1	0.00e+00	0	57	0	3209691136	43	3749
2026-01-04 02:28:19.84	188.50	30.97	-39.9	-40.4	21.4	0.00e+00	0	57	0	3214934016	43	3639
2026-01-04 02:28:20.83	188.59	30.78	-39.8	-40.3	21.5	0.00e+00	0	57	0	3221225472	42	3802
2026-01-04 02:28:21.81	188.67	30.60	-39.8	-40.3	21.4	0.00e+00	0	57	0	3226468352	42	3824
2026-01-04 02:28:22.81	188.75	30.41	-39.7	-40.3	21.5	0.00e+00	0	57	0	3231711232	42	3796
2026-01-04 02:28:23.80	188.83	30.22	-39.8	-40.4	21.4	0.00e+00	0	57	0	3236954112	42	3833
2026-01-04 02:28:24.78	188.91	30.04	-39.8	-40.3	21.5	0.00e+00	0	57	0	3243245568	42	3813
2026-01-04 02:28:25.77	188.98	29.85	-39.8	-40.3	21.5	0.00e+00	0	57	0	3248488448	42	3813
2026-01-04 02:28:26.76	189.06	29.67	-39.8	-40.3	21.5	0.00e+00	0	57	0	3254779904	42	3807
2026-01-04 02:28:27.74	189.14	29.49	-39.9	-40.4	21.4	0.00e+00	0	57	0	3260022784	42	3849
2026-01-04 02:28:28.73	189.21	29.31	-39.8	-40.4	21.4	0.00e+00	0	57	0	3265265664	42	3845
2026-01-04 02:28:29.72	189.29	29.13	-39.8	-40.3	21.4	0.00e+00	0	57	0	3270508544	42	3821
2026-01-04 02:28:30.71	189.36	28.95	-39.9	-40.4	21.4	0.00e+00	0	57	0	3276800000	42	3850
2026-01-04 02:28:31.71	189.44	28.77	-39.8	-40.3	21.4	0.00e+00	0	57	0	3282042880	42	3823
2026-01-04 02:28:32.70	189.51	28.59	-39.7	-40.3	21.5	0.00e+00	0	57	0	3287285760	42	3793
2026-01-04 02:28:33.69	189.58	28.42	-39.7	-40.3	21.5	0.00e+00	0	57	0	3293577216	42	3791
2026-01-04 02:28:34.68	189.65	28.24	-39.8	-40.3	21.4	0.00e+00	0	57	0	3298820096	42	3812
2026-01-04 02:28:35.67	189.72	28.07	-39.9	-40.5	21.3	0.00e+00	0	57	0	3304062976	42	3874
2026-01-04 02:28:36.65	189.79	27.90	-39.9	-40.4	21.4	0.00e+00	0	57	0	3309305856	42	3858
2026-01-04 02:28:37.65	189.86	27.73	-39.9	-40.4	21.3	0.00e+00	0	57	0	3315597312	42	3865
2026-01-04 02:28:38.63	189.93	27.56	-40.2	-40.7	21.0	0.00e+00	0	57	0	3320840192	42	3998
2026-01-04 02:28:39.62	190.00	27.39	-40.2	-40.8	21.0	0.00e+00	0	57	0	3327131648	42	4012
2026-01-04 02:28:40.61	190.06	27.22	-40.2	-40.8	21.0	0.00e+00	0	57	0	3332374528	42	4040
2026-01-04 02:28:41.61	190.13	27.05	-40.3	-40.9	20.9	0.00e+00	0	57	0	3337617408	42	4052
2026-01-04 02:28:42.60	190.19	26.89	-40.3	-40.9	20.9	0.00e+00	0	57	0	3343908864	42	4072
2026-01-04 02:28:43.60	190.26	26.72	-40.4	-41.0	20.8	0.00e+00	0	57	0	3349151744	42	4122
2026-01-04 02:28:44.58	190.32	26.56	-40.2	-40.8	21.0	0.00e+00	0	57	0	3354394624	42	4014
2026-01-04 02:28:45.58	190.39	26.39	-40.2	-40.8	21.0	0.00e+00	0	57	0	3359637504	42	4005
2026-01-04 02:28:46.56	190.45	26.23	-40.2	-40.8	21.0	0.00e+00	0	57	0	3365928960	42	4030
2026-01-04 02:28:47.55	190.51	26.07	-40.4	-41.0	20.8	0.00e+00	0	57	0	3371171840	42	4107
2026-01-04 02:28:48.54	190.58	25.91	-40.6	-41.2	20.6	0.00e+00	0	57	0	3376414720	42	4222
2026-01-04 02:28:49.53	190.64	25.75	-40.6	-41.2	20.6	0.00e+00	0	57	0	3382706176	43	4001
2026-01-04 02:28:50.52	190.70	25.59	-40.7	-41.3	20.5	0.00e+00	0	57	0	3387949056	43	4032
2026-01-04 02:28:51.52	190.76	25.43	-40.7	-41.3	20.5	0.00e+00	0	57	0	3393191936	43	4045
2026-01-04 02:28:52.50	190.82	25.27	-40.5	-41.1	20.7	0.00e+00	0	57	0	3398434816	43	3926
2026-01-04 02:28:53.49	190.88	25.12	-40.4	-40.9	20.8	0.00e+00	0	57	0	3404726272	43	3865
2026-01-04 02:28:54.48	190.93	24.96	-40.4	-41.0	20.8	0.00e+00	0	57	0	3409969152	43	3871
2026-01-04 02:28:55.47	190.99	24.81	-40.5	-41.2	20.7	0.00e+00	0	57	0	3416260608	43	3959
2026-01-04 02:28:56.46	191.05	24.66	-40.6	-41.2	20.6	0.00e+00	0	57	0	3421503488	43	3990
2026-01-04 02:28:57.45	191.11	24.50	-40.4	-41.0	20.7	0.00e+00	0	57	0	3426746368	43	3902
2026-01-04 02:28:58.44	191.16	24.35	-40.4	-40.9	20.8	0.00e+00	0	57	0	3431989248	43	3861
2026-01-04 02:28:59.43	191.22	24.20	-40.4	-41.0	20.8	0.00e+00	0	57	0	3438280704	43	3882
2026-01-04 02:29:00.42	191.27	24.05	-40.4	-41.0	20.7	0.00e+00	0	57	0	3443523584	43	3903
2026-01-04 02:29:01.40	191.33	23.90	-40.5	-41.1	20.7	0.00e+00	0	57	0	3448766464	43	3918
2026-01-04 02:29:02.39	191.38	23.75	-40.6	-41.2	20.6	0.00e+00	0	57	0	3455057920	43	3966
2026-01-04 02:29:03.37	191.44	23.61	-40.5	-41.0	20.7	0.00e+00	0	57	0	3460300800	43	3912
2026-01-04 02:29:04.36	191.49	23.46	-40.5	-41.1	20.7	0.00e+00	0	57	0	3465543680	43	3918
2026-01-04 02:29:05.35	191.54	23.32	-40.6	-41.2	20.6	0.00e+00	0	57	0	3470786560	43	3963
2026-01-04 02:29:06.33	191.60	23.17	-40.7	-41.3	20.5	0.00e+00	0	57	0	3477078016	43	4022
2026-01-04 02:29:07.32	191.65	23.03	-40.6	-41.2	20.6	0.00e+00	0	57	0	3482320896	43	3987
2026-01-04 02:29:08.30	191.70	22.89	-40.8	-41.4	20.4	0.00e+00	0	57	0	3487563776	43	4077
2026-01-04 02:29:09.29	191.75	22.74	-40.9	-41.5	20.3	0.00e+00	0	57	0	3493855232	43	4109
2026-01-04 02:29:10.28	191.80	22.60	-40.8	-41.4	20.3	0.00e+00	0	57	0	3499098112	43	4092
2026-01-04 02:29:11.26	191.85	22.46	-40.9	-41.5	20.3	0.00e+00	0	57	0	3504340992	43	4127
2026-01-04 02:29:12.25	191.90	22.32	-41.0	-41.6	20.1	0.00e+00	0	57	0	3509583872	43	4187
2026-01-04 02:29:13.23	191.95	22.18	-40.9	-41.5	20.3	0.00e+00	0	57	0	3515875328	43	4112
2026-01-04 02:29:14.23	192.00	22.04	-40.9	-41.6	20.2	0.00e+00	0	57	0	3521118208	43	4147
2026-01-04 02:29:15.22	192.05	21.90	-41.2	-41.8	20.0	0.00e+00	0	58	0	3526361088	44	4051
2026-01-04 02:29:16.21	192.10	21.77	-41.0	-41.7	20.2	0.00e+00	0	57	0	3532652544	44	3971
2026-01-04 02:29:17.19	192.15	21.63	-41.3	-42.0	19.9	0.00e+00	0	57	0	3537895424	44	4103
2026-01-04 02:29:18.18	192.19	21.50	-41.6	-42.2	19.7	0.00e+00	0	57	0	3543138304	45	4004
2026-01-04 02:29:19.17	192.24	21.36	-41.2	-41.9	20.0	0.00e+00	0	58	0	3549429760	45	3831
2026-01-04 02:29:20.16	192.29	21.23	-41.0	-41.6	20.3	0.00e+00	0	57	0	3554672640	45	3716
2026-01-04 02:29:21.16	192.33	21.09	-40.8	-41.4	20.5	0.00e+00	0	57	0	3559915520	44	3848
2026-01-04 02:29:22.15	192.38	20.96	-40.8	-41.4	20.4	0.00e+00	0	57	0	3565158400	44	3846
2026-01-04 02:29:23.14	192.43	20.82	-40.8	-41.4	20.4	0.00e+00	0	57	0	3571449856	44	3868
2026-01-04 02:29:24.12	192.47	20.69	-41.0	-41.6	20.3	0.00e+00	0	57	0	3576692736	44	3932
2026-01-04 02:29:25.11	192.52	20.56	-41.2	-41.8	20.1	0.00e+00	0	58	0	3582984192	44	4032
2026-01-04 02:29:26.10	192.56	20.43	-41.0	-41.6	20.2	0.00e+00	0	58	0	3588227072	44	3939
2026-01-04 02:29:27.09	192.61	20.30	-41.0	-41.6	20.3	0.00e+00	0	57	0	3593469952	44	3926
2026-01-04 02:29:28.08	192.65	20.17	-41.0	-41.6	20.2	0.00e+00	0	57	0	3598712832	44	3944
2026-01-04 02:29:29.08	192.69	20.04	-41.0	-41.6	20.2	0.00e+00	0	57	0	3605004288	44	3956
2026-01-04 02:29:30.06	192.74	19.92	-41.2	-41.9	20.0	0.00e+00	0	57	0	3610247168	44	4063
2026-01-04 02:29:31.05	192.78	19.79	-41.1	-41.7	20.1	0.00e+00	0	57	0	3615490048	44	3996
2026-01-04 02:29:32.02	192.82	19.66	-41.3	-41.9	19.9	0.00e+00	0	57	0	3621781504	44	4086
2026-01-04 02:29:33.02	192.86	19.54	-41.2	-41.9	20.0	0.00e+00	0	57	0	3627024384	44	4052
2026-01-04 02:29:34.01	192.91	19.41	-41.4	-42.1	19.8	0.00e+00	0	57	0	3632267264	44	4149
2026-01-04 02:29:34.99	192.95	19.29	-41.7	-42.4	19.5	0.00e+00	0	57	0	3637510144	45	4086
2026-01-04 02:29:35.98	192.99	19.16	-41.5	-42.2	19.7	0.00e+00	0	57	0	3643801600	45	3979
2026-01-04 02:29:36.97	193.03	19.04	-41.6	-42.3	19.5	0.00e+00	0	57	0	3649044480	45	4024
2026-01-04 02:29:37.97	193.07	18.92	-41.6	-42.3	19.6	0.00e+00	0	57	0	3655335936	45	4019
2026-01-04 02:29:38.95	193.11	18.80	-41.7	-42.3	19.5	0.00e+00	0	57	0	3660578816	45	4044
2026-01-04 02:29:39.95	193.15	18.67	-41.8	-42.5	19.4	0.00e+00	0	57	0	3665821696	45	4106
2026-01-04 02:29:40.93	193.19	18.55	-41.8	-42.4	19.4	0.00e+00	0	57	0	3671064576	45	4096
2026-01-04 02:29:41.92	193.23	18.43	-41.8	-42.5	19.4	0.00e+00	0	57	0	3677356032	45	4100
2026-01-04 02:29:42.91	193.27	18.31	-42.0	-42.7	19.1	0.00e+00	0	57	0	3682598912	45	4228
2026-01-04 02:29:43.90	193.31	18.19	-41.9	-42.6	19.2	0.00e+00	0	57	0	3687841792	45	4169
2026-01-04 02:29:44.89	193.35	18.07	-41.7	-42.4	19.4	0.00e+00	0	57	0	3694133248	45	4071
2026-01-04 02:29:45.87	193.39	17.96	-41.7	-42.3	19.5	0.00e+00	0	57	0	3699376128	45	4034
2026-01-04 02:29:46.86	193.43	17.84	-41.7	-42.4	19.5	0.00e+00	0	57	0	3704619008	45	4053
2026-01-04 02:29:47.85	193.46	17.72	-41.7	-42.4	19.5	0.00e+00	0	57	0	3710910464	45	4062
2026-01-04 02:29:48.85	193.50	17.60	-41.7	-42.3	19.5	0.00e+00	0	57	0	3716153344	45	4050
2026-01-04 02:29:49.84	193.54	17.49	-41.8	-42.5	19.3	0.00e+00	0	57	0	3721396224	45	4104
2026-01-04 02:29:50.83	193.58	17.37	-41.8	-42.5	19.4	0.00e+00	0	57	0	3726639104	45	4100
2026-01-04 02:29:51.82	193.61	17.26	-41.8	-42.5	19.3	0.00e+00	0	57	0	3732930560	45	4117
2026-01-04 02:29:52.81	193.65	17.14	-41.9	-42.6	19.2	0.00e+00	0	58	0	3738173440	45	4161
2026-01-04 02:29:53.80	193.69	17.03	-42.1	-42.8	19.0	0.00e+00	0	57	0	3743416320	45	4265
2026-01-04 02:29:54.78	193.72	16.92	-42.2	-42.9	18.9	0.00e+00	0	57	0	3749707776	46	4098
2026-01-04 02:29:55.77	193.76	16.80	-42.3	-43.0	18.8	0.00e+00	0	57	0	3754950656	46	4121
2026-01-04 02:29:56.75	193.79	16.69	-42.3	-43.1	18.8	0.00e+00	0	57	0	3760193536	46	4160
2026-01-04 02:29:57.74	193.83	16.58	-42.5	-43.2	18.6	0.00e+00	0	58	0	3765436416	46	4239
2026-01-04 02:29:58.73	193.86	16.47	-42.5	-43.2	18.6	0.00e+00	0	57	0	3771727872	46	4225
2026-01-04 02:29:59.72	193.90	16.36	-42.5	-43.3	18.5	0.00e+00	0	57	0	3776970752	46	4259
