passes_logs/2026/01/04/R3.0SM8_Murmansk_STILSPACE/R3.0SM8_Murmansk_STILSPACE__20260104_035901_FENGYUN_3D_rec.log

#Pass ID: 20260104_035901_FENGYUN 3D
#Satellite: FENGYUN 3D
#Configuration: FENGYUN 3D
#almurnet v.1.7.20240730
#Start time: 2026-01-04 03:59:03

#Version: 2.2.20231116
#Station: R3.0SM8_Murmansk_STILSPACE
#Location: 33.092731 lon 68.902999 lat
#TLE: 1 43010U 17072A   26003.51579816  .00000092  00000+0  65324-4 0  9992
#TLE: 2 43010  98.9912 335.1548 0001916 128.4619 231.6729 14.19692074421623

#Time	Az	El	Level	Level2	SNR	BER	BlckErr	Temp	State	Recorded	gain1	gain2
2026-01-04 03:59:03.39	30.48	3.14	-52.4	-63.1	3.8	8.46e-01	0	46	0	0	67	12519
2026-01-04 03:59:04.37	30.45	3.20	-52.3	-63.0	3.8	8.45e-01	0	46	104	0	67	12270
2026-01-04 03:59:05.37	30.42	3.27	-52.2	-62.9	3.8	8.47e-01	0	46	104	0	67	12205
2026-01-04 03:59:06.36	30.39	3.33	-52.1	-62.8	3.8	8.45e-01	0	46	104	0	67	12055
2026-01-04 03:59:07.35	30.37	3.40	-51.9	-62.6	3.8	8.45e-01	0	46	104	0	66	12408
2026-01-04 03:59:08.34	30.34	3.46	-51.6	-61.8	3.8	8.46e-01	0	46	104	0	66	11322
2026-01-04 03:59:09.33	30.31	3.53	-51.5	-61.8	3.8	8.46e-01	0	46	104	0	66	11340
2026-01-04 03:59:10.31	30.28	3.59	-51.5	-61.7	3.8	8.47e-01	0	47	104	0	66	11274
2026-01-04 03:59:11.30	30.25	3.66	-51.5	-61.7	3.8	8.47e-01	0	47	104	0	66	11184
2026-01-04 03:59:12.29	30.22	3.72	-51.5	-61.5	3.8	8.47e-01	0	47	104	0	65	11558
2026-01-04 03:59:13.28	30.19	3.79	-51.4	-61.3	3.8	8.47e-01	0	47	104	0	65	11388
2026-01-04 03:59:14.28	30.17	3.85	-51.4	-61.2	3.8	8.46e-01	0	47	104	0	65	11284
2026-01-04 03:59:15.27	30.14	3.92	-51.3	-61.0	3.8	8.46e-01	0	47	104	0	65	10950
2026-01-04 03:59:16.26	30.11	3.99	-51.4	-60.7	3.8	8.45e-01	0	47	104	0	65	10638
2026-01-04 03:59:17.25	30.08	4.05	-51.3	-60.4	3.9	8.46e-01	0	47	104	0	65	10223
2026-01-04 03:59:18.25	30.05	4.12	-51.2	-60.1	3.8	8.46e-01	0	47	104	0	65	9859
2026-01-04 03:59:19.23	30.02	4.19	-51.2	-59.7	4.0	8.44e-01	0	47	104	0	65	9473
2026-01-04 03:59:20.22	29.99	4.25	-51.1	-59.2	4.1	8.41e-01	0	47	0	0	65	8880
2026-01-04 03:59:21.21	29.96	4.32	-51.1	-58.4	4.3	8.36e-01	0	47	0	0	65	8155
2026-01-04 03:59:22.20	29.93	4.39	-50.9	-57.7	4.6	8.25e-01	0	47	0	0	64	7904
2026-01-04 03:59:23.20	29.90	4.46	-50.7	-56.7	5.0	7.77e-01	0	48	0	0	64	7058
2026-01-04 03:59:24.18	29.86	4.52	-50.4	-55.9	5.5	7.24e-01	0	48	0	0	64	6490
2026-01-04 03:59:25.16	29.83	4.59	-50.3	-55.3	6.0	3.87e-01	0	47	0	4194304	63	6404
2026-01-04 03:59:26.16	29.80	4.66	-50.0	-54.4	6.8	2.40e-01	0	48	0	9437184	63	5787
2026-01-04 03:59:27.14	29.77	4.73	-49.7	-53.7	7.5	1.55e-01	0	48	0	15728640	62	5594
2026-01-04 03:59:28.13	29.74	4.80	-49.3	-52.8	8.3	6.79e-02	0	48	0	20971520	61	5349
2026-01-04 03:59:29.11	29.71	4.86	-48.7	-51.7	9.4	2.86e-02	0	48	0	26214400	60	5039
2026-01-04 03:59:30.09	29.68	4.93	-48.4	-51.1	10.0	1.10e-02	0	48	0	31457280	60	4691
2026-01-04 03:59:31.08	29.65	5.00	-48.1	-50.5	10.8	4.12e-03	0	48	0	37748736	59	4608
2026-01-04 03:59:32.08	29.61	5.07	-47.8	-50.0	11.3	2.11e-03	0	48	0	42991616	58	4632
2026-01-04 03:59:33.06	29.58	5.14	-47.7	-50.0	11.3	1.58e-03	0	48	0	48234496	58	4628
2026-01-04 03:59:34.05	29.55	5.21	-48.2	-50.6	10.6	3.28e-03	0	48	0	54525952	58	4962
2026-01-04 03:59:35.05	29.52	5.28	-47.7	-49.9	11.5	1.56e-03	0	48	0	59768832	58	4560
2026-01-04 03:59:36.03	29.48	5.35	-47.4	-49.4	12.0	6.28e-04	0	48	0	65011712	57	4558
2026-01-04 03:59:37.02	29.45	5.42	-47.0	-48.8	12.6	2.12e-04	0	48	0	71303168	57	4264
2026-01-04 03:59:38.02	29.42	5.49	-46.8	-48.5	12.8	9.04e-05	0	48	0	76546048	56	4385
2026-01-04 03:59:39.01	29.38	5.56	-46.5	-48.2	13.1	4.46e-05	0	48	0	81788928	56	4238
2026-01-04 03:59:40.01	29.35	5.63	-46.2	-47.8	13.5	2.17e-05	0	49	0	88080384	55	4279
2026-01-04 03:59:40.99	29.32	5.70	-46.2	-47.8	13.5	2.63e-05	0	49	0	93323264	55	4249
2026-01-04 03:59:41.97	29.28	5.77	-46.2	-47.8	13.6	3.20e-05	0	49	0	98566144	55	4246
2026-01-04 03:59:42.95	29.25	5.84	-46.0	-47.5	13.8	1.48e-05	0	49	0	103809024	55	4130
2026-01-04 03:59:43.94	29.22	5.91	-45.7	-47.1	14.2	5.70e-06	0	49	0	110100480	54	4166
2026-01-04 03:59:44.93	29.18	5.98	-45.4	-46.8	14.5	0.00e+00	0	49	0	115343360	54	4030
2026-01-04 03:59:45.91	29.15	6.05	-45.1	-46.4	14.9	1.10e-06	0	49	0	120586240	53	4079
2026-01-04 03:59:46.91	29.11	6.12	-44.9	-46.1	15.2	0.00e+00	0	49	0	126877696	53	3953
2026-01-04 03:59:47.89	29.08	6.19	-44.9	-46.1	15.2	0.00e+00	0	49	0	132120576	52	4174
2026-01-04 03:59:48.88	29.04	6.27	-44.9	-46.2	15.2	0.00e+00	0	49	0	137363456	52	4207
2026-01-04 03:59:49.88	29.01	6.34	-44.9	-46.1	15.2	0.00e+00	0	49	0	142606336	52	4187
2026-01-04 03:59:50.87	28.97	6.41	-44.8	-46.1	15.3	0.00e+00	0	49	0	148897792	52	4146
2026-01-04 03:59:51.85	28.94	6.48	-44.9	-46.1	15.3	0.00e+00	0	49	0	154140672	52	4158
2026-01-04 03:59:52.84	28.90	6.56	-44.9	-46.1	15.3	0.00e+00	0	49	0	160432128	52	4182
2026-01-04 03:59:53.83	28.86	6.63	-45.0	-46.3	15.1	0.00e+00	0	50	0	165675008	52	4253
2026-01-04 03:59:54.82	28.83	6.70	-44.9	-46.1	15.3	0.00e+00	0	50	0	170917888	52	4149
2026-01-04 03:59:55.81	28.79	6.77	-44.7	-45.9	15.5	0.00e+00	0	50	0	176160768	52	4076
2026-01-04 03:59:56.80	28.75	6.85	-44.6	-45.7	15.7	0.00e+00	0	50	0	182452224	52	3992
2026-01-04 03:59:57.79	28.72	6.92	-44.6	-45.7	15.7	0.00e+00	0	50	0	187695104	52	3993
2026-01-04 03:59:58.78	28.68	7.00	-44.6	-45.7	15.7	0.00e+00	0	50	0	192937984	52	3996
2026-01-04 03:59:59.77	28.64	7.07	-44.8	-45.9	15.5	0.00e+00	0	50	0	199229440	52	4097
2026-01-04 04:00:00.76	28.60	7.14	-44.6	-45.7	15.7	0.00e+00	0	50	0	204472320	52	3995
2026-01-04 04:00:01.75	28.57	7.22	-44.4	-45.5	15.9	0.00e+00	0	50	0	209715200	52	3883
2026-01-04 04:00:02.74	28.53	7.29	-44.5	-45.6	15.9	0.00e+00	0	50	0	216006656	51	4186
2026-01-04 04:00:03.73	28.49	7.37	-44.6	-45.7	15.9	0.00e+00	0	50	0	221249536	51	4204
2026-01-04 04:00:04.72	28.45	7.44	-44.5	-45.6	15.9	0.00e+00	0	50	0	226492416	51	4193
2026-01-04 04:00:05.72	28.41	7.52	-44.6	-45.7	15.9	0.00e+00	0	50	0	231735296	51	4206
2026-01-04 04:00:06.70	28.37	7.59	-44.6	-45.8	15.8	0.00e+00	0	50	0	238026752	51	4248
2026-01-04 04:00:07.69	28.34	7.67	-45.0	-46.2	15.4	0.00e+00	0	50	0	243269632	51	4462
2026-01-04 04:00:08.69	28.30	7.75	-44.8	-45.9	15.7	0.00e+00	0	50	0	249561088	51	4318
2026-01-04 04:00:09.68	28.26	7.82	-44.6	-45.7	15.9	0.00e+00	0	50	0	254803968	51	4223
2026-01-04 04:00:10.67	28.22	7.90	-44.5	-45.5	16.1	0.00e+00	0	50	0	260046848	51	4140
2026-01-04 04:00:11.67	28.18	7.98	-44.5	-45.6	16.1	0.00e+00	0	50	0	265289728	51	4146
2026-01-04 04:00:12.66	28.14	8.05	-44.5	-45.6	16.0	0.00e+00	0	50	0	271581184	51	4173
2026-01-04 04:00:13.65	28.09	8.13	-44.5	-45.6	16.1	0.00e+00	0	50	0	276824064	51	4159
2026-01-04 04:00:14.63	28.05	8.21	-44.4	-45.5	16.2	0.00e+00	0	50	0	282066944	51	4120
2026-01-04 04:00:15.62	28.01	8.28	-44.5	-45.6	16.1	0.00e+00	0	51	0	288358400	51	4163
2026-01-04 04:00:16.61	27.97	8.36	-44.7	-45.8	15.9	0.00e+00	0	50	0	293601280	51	4245
2026-01-04 04:00:17.60	27.93	8.44	-44.6	-45.7	16.0	0.00e+00	0	50	0	298844160	51	4199
2026-01-04 04:00:18.58	27.89	8.52	-44.6	-45.7	16.0	0.00e+00	0	51	0	304087040	51	4207
2026-01-04 04:00:19.57	27.85	8.60	-44.6	-45.6	16.1	0.00e+00	0	51	0	310378496	51	4189
2026-01-04 04:00:20.57	27.80	8.67	-44.5	-45.5	16.1	0.00e+00	0	51	0	315621376	51	4145
2026-01-04 04:00:21.56	27.76	8.75	-44.6	-45.6	16.0	0.00e+00	0	51	0	320864256	51	4191
2026-01-04 04:00:22.55	27.72	8.83	-44.6	-45.7	16.0	0.00e+00	0	51	0	327155712	51	4222
2026-01-04 04:00:23.54	27.68	8.91	-44.7	-45.8	15.9	0.00e+00	0	51	0	332398592	51	4247
2026-01-04 04:00:24.53	27.63	8.99	-44.6	-45.7	16.0	0.00e+00	0	51	0	337641472	51	4239
2026-01-04 04:00:25.52	27.59	9.07	-44.8	-46.0	15.8	0.00e+00	0	51	0	343932928	51	4344
2026-01-04 04:00:26.52	27.55	9.15	-45.0	-46.2	15.6	0.00e+00	0	51	0	349175808	51	4454
2026-01-04 04:00:27.50	27.50	9.23	-44.9	-46.1	15.5	0.00e+00	0	51	0	354418688	52	4181
2026-01-04 04:00:28.50	27.46	9.31	-44.7	-45.8	15.8	0.00e+00	0	51	0	360710144	52	4046
2026-01-04 04:00:29.49	27.41	9.39	-44.6	-45.7	15.9	0.00e+00	0	51	0	365953024	52	4003
2026-01-04 04:00:30.48	27.37	9.47	-44.7	-45.8	15.8	0.00e+00	0	51	0	371195904	52	4044
2026-01-04 04:00:31.48	27.32	9.56	-44.8	-46.0	15.7	0.00e+00	0	51	0	377487360	52	4105
2026-01-04 04:00:32.47	27.28	9.64	-44.8	-46.0	15.7	0.00e+00	0	51	0	382730240	52	4116
2026-01-04 04:00:33.46	27.23	9.72	-44.6	-45.7	16.0	0.00e+00	0	51	0	387973120	52	3990
2026-01-04 04:00:34.45	27.19	9.80	-44.4	-45.5	16.2	0.00e+00	0	51	0	394264576	52	3888
2026-01-04 04:00:35.44	27.14	9.88	-44.4	-45.5	16.2	0.00e+00	0	51	0	399507456	52	3883
2026-01-04 04:00:36.43	27.09	9.97	-44.4	-45.5	16.2	0.00e+00	0	51	0	404750336	52	3898
2026-01-04 04:00:37.43	27.05	10.05	-44.6	-45.6	16.1	0.00e+00	0	51	0	411041792	52	3953
2026-01-04 04:00:38.41	27.00	10.13	-44.6	-45.7	16.0	0.00e+00	0	52	0	416284672	52	3965
2026-01-04 04:00:39.41	26.95	10.22	-44.4	-45.5	16.2	0.00e+00	0	51	0	421527552	52	3901
2026-01-04 04:00:40.40	26.90	10.30	-44.4	-45.5	16.3	0.00e+00	0	52	0	427819008	51	4114
2026-01-04 04:00:41.38	26.86	10.38	-44.6	-45.6	16.2	0.00e+00	0	51	0	433061888	51	4191
2026-01-04 04:00:42.37	26.81	10.47	-44.7	-45.8	16.1	0.00e+00	0	52	0	438304768	51	4244
2026-01-04 04:00:43.36	26.76	10.55	-44.7	-45.7	16.0	0.00e+00	0	52	0	443547648	51	4242
2026-01-04 04:00:44.35	26.71	10.64	-44.5	-45.6	16.2	0.00e+00	0	52	0	449839104	51	4168
2026-01-04 04:00:45.35	26.66	10.72	-44.5	-45.5	16.3	0.00e+00	0	52	0	455081984	51	4142
2026-01-04 04:00:46.33	26.61	10.81	-44.6	-45.6	16.2	0.00e+00	0	52	0	460324864	51	4173
2026-01-04 04:00:47.33	26.56	10.89	-44.5	-45.6	16.2	0.00e+00	0	52	0	466616320	51	4168
2026-01-04 04:00:48.32	26.51	10.98	-44.3	-45.3	16.5	0.00e+00	0	52	0	471859200	51	4047
2026-01-04 04:00:49.31	26.46	11.06	-44.3	-45.3	16.5	0.00e+00	0	52	0	477102080	51	4028
2026-01-04 04:00:50.30	26.41	11.15	-44.4	-45.4	16.4	0.00e+00	0	52	0	483393536	51	4076
2026-01-04 04:00:51.29	26.36	11.24	-44.4	-45.4	16.4	0.00e+00	0	52	0	488636416	51	4082
2026-01-04 04:00:52.27	26.31	11.32	-44.6	-45.6	16.2	0.00e+00	0	52	0	493879296	51	4188
2026-01-04 04:00:53.26	26.26	11.41	-44.3	-45.3	16.6	0.00e+00	0	52	0	500170752	51	4021
2026-01-04 04:00:54.25	26.21	11.50	-44.5	-45.6	16.3	0.00e+00	0	52	0	505413632	51	4153
2026-01-04 04:00:55.24	26.15	11.58	-44.7	-45.7	16.1	0.00e+00	0	52	0	510656512	51	4229
2026-01-04 04:00:56.23	26.10	11.67	-44.4	-45.4	16.5	0.00e+00	0	52	0	515899392	51	4069
2026-01-04 04:00:57.22	26.05	11.76	-44.1	-45.0	16.8	0.00e+00	0	52	0	522190848	51	3902
2026-01-04 04:00:58.22	25.99	11.85	-43.8	-44.7	17.2	0.00e+00	0	52	0	527433728	50	3992
2026-01-04 04:00:59.21	25.94	11.94	-43.6	-44.5	17.4	0.00e+00	0	52	0	532676608	50	3886
2026-01-04 04:01:00.20	25.89	12.03	-43.5	-44.4	17.5	0.00e+00	0	52	0	538968064	50	3849
2026-01-04 04:01:01.18	25.83	12.12	-43.6	-44.5	17.4	0.00e+00	0	52	0	544210944	50	3892
2026-01-04 04:01:02.17	25.78	12.21	-43.6	-44.5	17.3	0.00e+00	0	52	0	549453824	50	3898
2026-01-04 04:01:03.16	25.72	12.30	-43.7	-44.6	17.3	0.00e+00	0	52	0	555745280	50	3945
2026-01-04 04:01:04.14	25.67	12.38	-43.5	-44.4	17.5	0.00e+00	0	52	0	560988160	50	3829
2026-01-04 04:01:05.13	25.61	12.48	-43.4	-44.3	17.6	0.00e+00	0	52	0	566231040	50	3794
2026-01-04 04:01:06.12	25.55	12.57	-43.5	-44.4	17.5	0.00e+00	0	52	0	571473920	49	4065
2026-01-04 04:01:07.11	25.50	12.66	-43.4	-44.2	17.6	0.00e+00	0	52	0	577765376	49	3996
2026-01-04 04:01:08.10	25.44	12.75	-43.5	-44.4	17.5	0.00e+00	0	52	0	583008256	49	4081
2026-01-04 04:01:09.10	25.38	12.84	-43.7	-44.6	17.2	0.00e+00	0	52	0	589299712	49	4190
2026-01-04 04:01:10.08	25.33	12.93	-43.5	-44.4	17.5	0.00e+00	0	52	0	594542592	49	4068
2026-01-04 04:01:11.07	25.27	13.03	-43.4	-44.2	17.7	0.00e+00	0	52	0	599785472	49	3991
2026-01-04 04:01:12.06	25.21	13.12	-43.2	-44.1	17.8	0.00e+00	0	52	0	605028352	49	3919
2026-01-04 04:01:13.05	25.15	13.21	-43.3	-44.1	17.7	0.00e+00	0	53	0	611319808	49	3952
2026-01-04 04:01:14.04	25.09	13.30	-43.2	-44.1	17.8	0.00e+00	0	53	0	616562688	49	3930
2026-01-04 04:01:15.03	25.03	13.40	-43.3	-44.1	17.8	0.00e+00	0	53	0	621805568	49	3948
2026-01-04 04:01:16.02	24.97	13.49	-43.4	-44.3	17.6	0.00e+00	0	53	0	628097024	49	4023
2026-01-04 04:01:17.00	24.91	13.59	-43.3	-44.1	17.8	0.00e+00	0	53	0	633339904	49	3938
2026-01-04 04:01:18.00	24.85	13.68	-43.1	-44.0	17.9	0.00e+00	0	53	0	638582784	49	3878
2026-01-04 04:01:18.99	24.79	13.78	-43.2	-44.1	17.8	0.00e+00	0	53	0	644874240	49	3930
2026-01-04 04:01:19.98	24.73	13.87	-43.4	-44.3	17.6	0.00e+00	0	53	0	650117120	49	4018
2026-01-04 04:01:20.97	24.66	13.97	-43.2	-44.1	17.9	0.00e+00	0	53	0	655360000	49	3915
2026-01-04 04:01:21.96	24.60	14.06	-43.3	-44.2	17.8	0.00e+00	0	53	0	661651456	49	3965
2026-01-04 04:01:22.95	24.54	14.16	-43.5	-44.4	17.5	0.00e+00	0	53	0	666894336	49	4052
2026-01-04 04:01:23.94	24.48	14.26	-43.3	-44.1	17.8	0.00e+00	0	53	0	672137216	49	3953
2026-01-04 04:01:24.93	24.41	14.35	-43.4	-44.3	17.7	0.00e+00	0	53	0	677380096	49	4008
2026-01-04 04:01:25.92	24.35	14.45	-43.7	-44.5	17.4	0.00e+00	0	53	0	683671552	49	4142
2026-01-04 04:01:26.91	24.28	14.55	-43.5	-44.3	17.6	0.00e+00	0	53	0	688914432	49	4047
2026-01-04 04:01:27.89	24.22	14.65	-43.5	-44.4	17.6	0.00e+00	0	53	0	694157312	49	4057
2026-01-04 04:01:28.88	24.15	14.75	-43.7	-44.6	17.4	0.00e+00	0	53	0	700448768	49	4166
2026-01-04 04:01:29.87	24.09	14.84	-43.6	-44.4	17.5	0.00e+00	0	53	0	705691648	49	4088
2026-01-04 04:01:30.86	24.02	14.94	-43.3	-44.1	17.8	0.00e+00	0	53	0	710934528	49	3954
2026-01-04 04:01:31.85	23.95	15.04	-43.2	-44.0	18.0	0.00e+00	0	53	0	717225984	49	3889
2026-01-04 04:01:32.84	23.88	15.14	-43.2	-44.0	18.0	0.00e+00	0	53	0	722468864	49	3880
2026-01-04 04:01:33.83	23.82	15.24	-43.1	-43.9	18.1	0.00e+00	0	53	0	727711744	49	3844
2026-01-04 04:01:34.83	23.75	15.35	-42.9	-43.6	18.3	0.00e+00	0	53	0	732954624	48	3948
2026-01-04 04:01:35.82	23.68	15.45	-42.7	-43.4	18.5	0.00e+00	0	53	0	739246080	48	3866
2026-01-04 04:01:36.80	23.61	15.55	-42.6	-43.4	18.6	0.00e+00	0	53	0	744488960	48	3828
2026-01-04 04:01:37.79	23.54	15.65	-42.6	-43.3	18.6	0.00e+00	0	53	0	750780416	48	3818
2026-01-04 04:01:38.78	23.47	15.75	-42.6	-43.4	18.6	0.00e+00	0	53	0	756023296	48	3840
2026-01-04 04:01:39.77	23.40	15.85	-42.6	-43.3	18.6	0.00e+00	0	53	0	761266176	48	3813
2026-01-04 04:01:40.76	23.33	15.96	-42.5	-43.3	18.7	0.00e+00	0	53	0	766509056	48	3803
2026-01-04 04:01:41.76	23.25	16.06	-42.7	-43.5	18.5	0.00e+00	0	53	0	772800512	48	3880
2026-01-04 04:01:42.74	23.18	16.17	-42.6	-43.3	18.6	0.00e+00	0	53	0	778043392	48	3818
2026-01-04 04:01:43.74	23.11	16.27	-42.4	-43.2	18.8	0.00e+00	0	54	0	783286272	48	3753
2026-01-04 04:01:44.73	23.03	16.38	-42.5	-43.2	18.8	0.00e+00	0	53	0	789577728	48	3761
2026-01-04 04:01:45.73	22.96	16.48	-42.6	-43.4	18.6	0.00e+00	0	54	0	794820608	48	3834
2026-01-04 04:01:46.72	22.88	16.59	-42.5	-43.3	18.7	0.00e+00	0	54	0	800063488	48	3802
2026-01-04 04:01:47.71	22.81	16.69	-42.4	-43.2	18.8	0.00e+00	0	53	0	806354944	48	3754
2026-01-04 04:01:48.69	22.73	16.80	-42.4	-43.2	18.8	0.00e+00	0	53	0	811597824	48	3743
2026-01-04 04:01:49.68	22.66	16.90	-42.4	-43.2	18.8	0.00e+00	0	54	0	816840704	48	3747
2026-01-04 04:01:50.67	22.58	17.01	-42.6	-43.3	18.7	0.00e+00	0	54	0	822083584	48	3811
2026-01-04 04:01:51.66	22.50	17.12	-42.4	-43.2	18.8	0.00e+00	0	54	0	828375040	48	3754
2026-01-04 04:01:52.65	22.42	17.23	-42.2	-42.9	18.9	0.00e+00	0	54	0	833617920	47	3844
2026-01-04 04:01:53.63	22.35	17.33	-42.1	-42.8	19.1	0.00e+00	0	54	0	838860800	47	3799
2026-01-04 04:01:54.62	22.27	17.44	-42.0	-42.7	19.1	0.00e+00	0	54	0	845152256	47	3777
2026-01-04 04:01:55.61	22.19	17.55	-41.9	-42.6	19.2	0.00e+00	0	54	0	850395136	47	3723
2026-01-04 04:01:56.60	22.11	17.66	-41.8	-42.5	19.3	0.00e+00	0	54	0	855638016	46	3905
2026-01-04 04:01:57.60	22.02	17.77	-41.8	-42.5	19.3	0.00e+00	0	54	0	861929472	46	3893
2026-01-04 04:01:58.59	21.94	17.88	-42.0	-42.6	19.2	0.00e+00	0	54	0	867172352	46	3958
2026-01-04 04:01:59.57	21.86	17.99	-41.9	-42.6	19.3	0.00e+00	0	54	0	872415232	46	3918
2026-01-04 04:02:00.57	21.78	18.11	-41.7	-42.4	19.4	0.00e+00	0	54	0	878706688	46	3836
2026-01-04 04:02:01.56	21.69	18.22	-41.7	-42.4	19.4	0.00e+00	0	54	0	883949568	46	3842
2026-01-04 04:02:02.56	21.61	18.33	-41.7	-42.3	19.5	0.00e+00	0	54	0	889192448	46	3818
2026-01-04 04:02:03.56	21.52	18.44	-41.6	-42.2	19.6	0.00e+00	0	54	0	895483904	46	3769
2026-01-04 04:02:04.55	21.44	18.56	-41.6	-42.3	19.6	0.00e+00	0	54	0	900726784	46	3781
2026-01-04 04:02:05.54	21.35	18.67	-41.7	-42.4	19.4	0.00e+00	0	54	0	905969664	46	3860
2026-01-04 04:02:06.53	21.26	18.79	-41.7	-42.4	19.4	0.00e+00	0	54	0	912261120	46	3856
2026-01-04 04:02:07.52	21.17	18.90	-41.7	-42.4	19.5	0.00e+00	0	54	0	917504000	46	3847
2026-01-04 04:02:08.52	21.08	19.02	-42.0	-42.7	19.2	0.00e+00	0	54	0	922746880	46	3983
2026-01-04 04:02:09.50	21.00	19.13	-42.3	-43.0	18.8	0.00e+00	0	54	0	929038336	46	4142
2026-01-04 04:02:10.49	20.91	19.25	-42.3	-43.1	18.8	0.00e+00	0	54	0	934281216	46	4169
2026-01-04 04:02:11.48	20.82	19.36	-42.3	-43.1	18.8	0.00e+00	0	54	0	939524096	46	4151
2026-01-04 04:02:12.47	20.72	19.48	-42.4	-43.2	18.7	0.00e+00	0	54	0	944766976	46	4200
2026-01-04 04:02:13.46	20.63	19.60	-42.4	-43.1	18.8	0.00e+00	0	54	0	951058432	46	4178
2026-01-04 04:02:14.45	20.54	19.71	-42.2	-42.9	18.9	0.00e+00	0	54	0	956301312	46	4096
2026-01-04 04:02:15.43	20.45	19.83	-42.2	-42.9	19.0	0.00e+00	0	54	0	961544192	46	4067
2026-01-04 04:02:16.42	20.35	19.95	-42.1	-42.9	19.0	0.00e+00	0	54	0	967835648	46	4058
2026-01-04 04:02:17.41	20.26	20.07	-42.1	-42.8	19.1	0.00e+00	0	54	0	973078528	46	4033
2026-01-04 04:02:18.41	20.16	20.19	-42.0	-42.7	19.1	0.00e+00	0	54	0	978321408	46	3999
2026-01-04 04:02:19.40	20.06	20.31	-42.1	-42.8	19.1	0.00e+00	0	54	0	984612864	46	4014
2026-01-04 04:02:20.39	19.97	20.43	-41.6	-42.3	19.6	0.00e+00	0	54	0	989855744	46	3781
2026-01-04 04:02:21.38	19.87	20.55	-41.3	-42.0	19.8	0.00e+00	0	54	0	995098624	45	3891
2026-01-04 04:02:22.37	19.77	20.67	-41.3	-41.9	19.9	0.00e+00	0	54	0	1001390080	45	3849
2026-01-04 04:02:23.37	19.67	20.80	-41.2	-41.8	20.0	0.00e+00	0	54	0	1006632960	45	3807
2026-01-04 04:02:24.36	19.57	20.92	-41.2	-41.9	19.9	0.00e+00	0	55	0	1011875840	45	3846
2026-01-04 04:02:25.34	19.47	21.04	-41.3	-42.0	19.9	0.00e+00	0	54	0	1018167296	45	3879
2026-01-04 04:02:26.34	19.36	21.17	-41.4	-42.1	19.8	0.00e+00	0	54	0	1023410176	45	3929
2026-01-04 04:02:27.32	19.26	21.29	-41.3	-41.9	19.9	0.00e+00	0	54	0	1028653056	45	3866
2026-01-04 04:02:28.31	19.16	21.41	-41.3	-41.9	20.0	0.00e+00	0	54	0	1033895936	45	3851
2026-01-04 04:02:29.30	19.05	21.54	-41.4	-42.0	19.8	0.00e+00	0	54	0	1040187392	45	3903
2026-01-04 04:02:30.28	18.95	21.66	-41.4	-42.1	19.8	0.00e+00	0	55	0	1045430272	45	3927
2026-01-04 04:02:31.27	18.84	21.79	-41.3	-42.0	19.9	0.00e+00	0	54	0	1050673152	45	3873
2026-01-04 04:02:32.26	18.74	21.92	-41.4	-42.0	19.8	0.00e+00	0	55	0	1056964608	45	3907
2026-01-04 04:02:33.26	18.63	22.04	-41.5	-42.2	19.7	0.00e+00	0	54	0	1062207488	45	3979
2026-01-04 04:02:34.25	18.52	22.17	-41.5	-42.2	19.7	0.00e+00	0	55	0	1067450368	45	3982
2026-01-04 04:02:35.24	18.41	22.30	-41.2	-41.9	20.0	0.00e+00	0	55	0	1073741824	45	3826
2026-01-04 04:02:36.23	18.29	22.43	-40.9	-41.6	20.3	0.00e+00	0	55	0	1078984704	45	3714
2026-01-04 04:02:37.21	18.18	22.56	-40.7	-41.3	20.5	0.00e+00	0	55	0	1084227584	44	3815
2026-01-04 04:02:38.20	18.07	22.69	-40.7	-41.3	20.6	0.00e+00	0	55	0	1090519040	44	3786
2026-01-04 04:02:39.19	17.96	22.82	-40.8	-41.4	20.4	0.00e+00	0	55	0	1095761920	44	3854
2026-01-04 04:02:40.18	17.84	22.95	-40.7	-41.3	20.5	0.00e+00	0	55	0	1101004800	44	3808
2026-01-04 04:02:41.17	17.72	23.08	-40.7	-41.3	20.5	0.00e+00	0	54	0	1106247680	44	3808
2026-01-04 04:02:42.16	17.61	23.21	-40.8	-41.4	20.4	0.00e+00	0	55	0	1112539136	44	3844
2026-01-04 04:02:43.16	17.49	23.35	-40.8	-41.4	20.4	0.00e+00	0	55	0	1117782016	44	3847
2026-01-04 04:02:44.14	17.37	23.48	-40.9	-41.5	20.3	0.00e+00	0	55	0	1123024896	44	3891
2026-01-04 04:02:45.13	17.25	23.61	-41.0	-41.7	20.2	0.00e+00	0	55	0	1129316352	44	3972
2026-01-04 04:02:46.12	17.13	23.75	-40.9	-41.5	20.4	0.00e+00	0	55	0	1134559232	44	3881
2026-01-04 04:02:47.10	17.01	23.88	-40.8	-41.4	20.4	0.00e+00	0	55	0	1139802112	44	3853
2026-01-04 04:02:48.09	16.88	24.01	-40.9	-41.5	20.4	0.00e+00	0	55	0	1146093568	44	3884
2026-01-04 04:02:49.08	16.76	24.15	-40.7	-41.3	20.5	0.00e+00	0	55	0	1151336448	44	3822
2026-01-04 04:02:50.08	16.63	24.29	-40.7	-41.3	20.5	0.00e+00	0	55	0	1156579328	44	3821
2026-01-04 04:02:51.07	16.51	24.43	-40.8	-41.5	20.4	0.00e+00	0	55	0	1161822208	44	3869
2026-01-04 04:02:52.06	16.38	24.56	-41.0	-41.6	20.3	0.00e+00	0	55	0	1168113664	44	3934
2026-01-04 04:02:53.04	16.25	24.70	-40.7	-41.3	20.6	0.00e+00	0	55	0	1173356544	44	3804
2026-01-04 04:02:54.03	16.12	24.84	-40.5	-41.1	20.7	0.00e+00	0	55	0	1178599424	44	3725
2026-01-04 04:02:55.02	15.99	24.98	-40.4	-41.0	20.8	0.00e+00	0	55	0	1184890880	44	3661
2026-01-04 04:02:56.02	15.85	25.12	-40.5	-41.1	20.8	0.00e+00	0	55	0	1190133760	44	3696
2026-01-04 04:02:57.01	15.72	25.26	-40.7	-41.3	20.5	0.00e+00	0	55	0	1195376640	44	3806
2026-01-04 04:02:58.00	15.58	25.40	-40.7	-41.3	20.5	0.00e+00	0	55	0	1201668096	44	3795
2026-01-04 04:02:58.99	15.45	25.54	-40.9	-41.5	20.3	0.00e+00	0	55	0	1206910976	44	3898
2026-01-04 04:02:59.98	15.31	25.68	-40.7	-41.3	20.4	0.00e+00	0	55	0	1212153856	44	3806
2026-01-04 04:03:00.97	15.17	25.83	-40.5	-41.1	20.6	0.00e+00	0	55	0	1218445312	44	3735
2026-01-04 04:03:01.96	15.03	25.97	-40.2	-40.8	20.7	0.00e+00	0	55	0	1223688192	43	3820
2026-01-04 04:03:02.95	14.89	26.11	-40.2	-40.8	20.7	0.00e+00	0	55	0	1228931072	43	3785
2026-01-04 04:03:03.94	14.75	26.26	-40.3	-41.0	20.4	0.00e+00	0	55	0	1235222528	43	3881
2026-01-04 04:03:04.93	14.60	26.40	-40.4	-41.0	20.2	0.00e+00	0	55	0	1240465408	43	3913
2026-01-04 04:03:05.91	14.46	26.55	-40.8	-41.5	19.6	0.00e+00	0	55	0	1245708288	43	4118
2026-01-04 04:03:06.91	14.31	26.70	-41.3	-42.0	19.2	0.00e+00	0	55	0	1251999744	44	4108
2026-01-04 04:03:07.90	14.16	26.84	-41.8	-42.5	18.5	0.00e+00	0	55	0	1257242624	45	4143
2026-01-04 04:03:08.90	14.01	26.99	-42.3	-43.1	17.9	0.00e+00	0	55	0	1262485504	46	4178
2026-01-04 04:03:09.88	13.86	27.14	-43.1	-44.0	16.9	0.00e+00	0	55	0	1267728384	47	4377
2026-01-04 04:03:10.87	13.71	27.29	-43.8	-44.8	16.1	0.00e+00	0	55	0	1274019840	49	4281
2026-01-04 04:03:11.86	13.55	27.44	-44.6	-45.8	15.0	0.00e+00	0	55	0	1279262720	50	4543
2026-01-04 04:03:12.85	13.40	27.58	-44.8	-46.1	14.7	0.00e+00	0	55	0	1284505600	51	4441
2026-01-04 04:03:13.84	13.24	27.74	-45.0	-46.4	14.3	2.20e-06	0	55	0	1290797056	52	4330
2026-01-04 04:03:14.84	13.08	27.89	-45.2	-46.6	14.1	3.40e-06	0	55	0	1296039936	52	4433
2026-01-04 04:03:15.83	12.92	28.04	-45.3	-46.7	14.1	2.20e-06	0	55	0	1301282816	52	4484
2026-01-04 04:03:16.82	12.76	28.19	-45.6	-47.1	13.9	6.80e-06	0	55	0	1307574272	52	4661
2026-01-04 04:03:17.81	12.60	28.34	-45.1	-46.5	14.6	1.10e-06	0	55	0	1312817152	53	4102
2026-01-04 04:03:18.80	12.43	28.50	-44.1	-45.2	16.2	0.00e+00	0	55	0	1318060032	51	3978
2026-01-04 04:03:19.79	12.26	28.65	-42.9	-43.8	17.7	0.00e+00	0	55	0	1323302912	49	3790
2026-01-04 04:03:20.78	12.10	28.80	-41.6	-42.3	19.1	0.00e+00	0	55	0	1329594368	46	3814
2026-01-04 04:03:21.77	11.93	28.96	-40.7	-41.3	20.2	0.00e+00	0	55	0	1334837248	44	3821
2026-01-04 04:03:22.76	11.76	29.11	-40.4	-41.0	20.6	0.00e+00	0	55	0	1341128704	44	3660
2026-01-04 04:03:23.75	11.58	29.27	-40.4	-41.0	20.5	0.00e+00	0	55	0	1346371584	43	3908
2026-01-04 04:03:24.73	11.41	29.43	-40.4	-41.0	20.6	0.00e+00	0	55	0	1351614464	43	3886
2026-01-04 04:03:25.73	11.23	29.58	-40.5	-41.1	20.6	0.00e+00	0	55	0	1356857344	43	3927
2026-01-04 04:03:26.72	11.05	29.74	-40.5	-41.1	20.6	0.00e+00	0	56	0	1363148800	43	3919
2026-01-04 04:03:27.71	10.87	29.90	-40.5	-41.1	20.6	0.00e+00	0	55	0	1368391680	43	3922
2026-01-04 04:03:28.69	10.69	30.06	-40.8	-41.4	20.3	0.00e+00	0	56	0	1373634560	43	4092
2026-01-04 04:03:29.67	10.51	30.21	-40.7	-41.3	20.4	0.00e+00	0	55	0	1379926016	43	4043
2026-01-04 04:03:30.67	10.32	30.38	-40.7	-41.3	20.5	0.00e+00	0	55	0	1385168896	43	4012
2026-01-04 04:03:31.66	10.14	30.54	-40.6	-41.2	20.5	0.00e+00	0	55	0	1390411776	43	3980
2026-01-04 04:03:32.65	9.95	30.70	-40.3	-40.9	20.9	0.00e+00	0	55	0	1396703232	43	3851
2026-01-04 04:03:33.65	9.75	30.86	-40.3	-40.8	20.9	0.00e+00	0	56	0	1401946112	43	3822
2026-01-04 04:03:34.63	9.56	31.02	-40.1	-40.6	21.1	0.00e+00	0	55	0	1407188992	43	3733
2026-01-04 04:03:35.62	9.37	31.18	-40.0	-40.6	21.2	0.00e+00	0	56	0	1412431872	43	3712
2026-01-04 04:03:36.61	9.17	31.35	-40.0	-40.6	21.2	0.00e+00	0	56	0	1418723328	43	3702
2026-01-04 04:03:37.60	8.97	31.51	-40.1	-40.7	21.1	0.00e+00	0	55	0	1423966208	43	3742
2026-01-04 04:03:38.59	8.77	31.67	-40.3	-40.8	21.0	0.00e+00	0	55	0	1430257664	43	3820
2026-01-04 04:03:39.58	8.56	31.84	-40.3	-40.9	20.9	0.00e+00	0	56	0	1435500544	43	3840
2026-01-04 04:03:40.57	8.36	32.00	-40.3	-40.9	20.9	0.00e+00	0	56	0	1440743424	43	3856
2026-01-04 04:03:41.56	8.15	32.17	-40.4	-40.9	20.9	0.00e+00	0	55	0	1445986304	43	3859
2026-01-04 04:03:42.55	7.94	32.34	-40.4	-41.0	20.9	0.00e+00	0	56	0	1452277760	43	3872
2026-01-04 04:03:43.54	7.73	32.50	-40.5	-41.1	20.7	0.00e+00	0	56	0	1457520640	43	3948
2026-01-04 04:03:44.53	7.51	32.67	-40.5	-41.1	20.8	0.00e+00	0	55	0	1462763520	43	3918
2026-01-04 04:03:45.50	7.30	32.83	-40.5	-41.0	20.8	0.00e+00	0	56	0	1469054976	43	3912
2026-01-04 04:03:46.50	7.08	33.00	-40.6	-41.2	20.6	0.00e+00	0	55	0	1474297856	43	3992
2026-01-04 04:03:47.49	6.86	33.17	-40.5	-41.1	20.7	0.00e+00	0	56	0	1479540736	43	3942
2026-01-04 04:03:48.49	6.63	33.34	-40.2	-40.8	21.1	0.00e+00	0	56	0	1485832192	43	3791
2026-01-04 04:03:49.48	6.41	33.51	-39.8	-40.4	21.4	0.00e+00	0	56	0	1491075072	42	3843
2026-01-04 04:03:50.47	6.18	33.68	-39.7	-40.2	21.6	0.00e+00	0	56	0	1496317952	42	3762
2026-01-04 04:03:51.46	5.95	33.85	-39.7	-40.3	21.5	0.00e+00	0	56	0	1502609408	42	3787
2026-01-04 04:03:52.45	5.72	34.02	-39.8	-40.4	21.4	0.00e+00	0	56	0	1507852288	42	3837
2026-01-04 04:03:53.44	5.48	34.19	-39.9	-40.4	21.4	0.00e+00	0	56	0	1513095168	42	3852
2026-01-04 04:03:54.42	5.24	34.36	-39.9	-40.5	21.3	0.00e+00	0	56	0	1518338048	42	3881
2026-01-04 04:03:55.41	5.00	34.53	-40.1	-40.7	21.1	0.00e+00	0	56	0	1524629504	42	3982
2026-01-04 04:03:56.41	4.76	34.71	-40.2	-40.8	21.0	0.00e+00	0	56	0	1529872384	42	4031
2026-01-04 04:03:57.39	4.51	34.88	-40.3	-40.9	20.9	0.00e+00	0	56	0	1535115264	42	4083
2026-01-04 04:03:58.38	4.27	35.05	-40.7	-41.4	20.5	0.00e+00	0	56	0	1541406720	43	4058
2026-01-04 04:03:59.37	4.01	35.22	-40.8	-41.4	20.5	0.00e+00	0	56	0	1546649600	43	4074
2026-01-04 04:04:00.36	3.76	35.40	-40.7	-41.4	20.5	0.00e+00	0	56	0	1551892480	43	4052
2026-01-04 04:04:01.36	3.50	35.57	-40.5	-41.1	20.8	0.00e+00	0	56	0	1558183936	43	3936
2026-01-04 04:04:02.34	3.24	35.75	-40.4	-41.0	20.8	0.00e+00	0	56	0	1563426816	43	3906
2026-01-04 04:04:03.33	2.98	35.92	-40.5	-41.1	20.8	0.00e+00	0	56	0	1568669696	43	3922
2026-01-04 04:04:04.31	2.72	36.09	-40.5	-41.1	20.8	0.00e+00	0	56	0	1573912576	43	3915
2026-01-04 04:04:05.31	2.45	36.27	-40.6	-41.2	20.6	0.00e+00	0	56	0	1580204032	43	3997
2026-01-04 04:04:06.30	2.18	36.44	-40.1	-40.6	21.2	0.00e+00	0	56	0	1585446912	43	3723
2026-01-04 04:04:07.29	1.90	36.62	-39.8	-40.4	21.5	0.00e+00	0	56	0	1591738368	42	3825
2026-01-04 04:04:08.28	1.63	36.79	-39.8	-40.3	21.5	0.00e+00	0	56	0	1596981248	42	3812
2026-01-04 04:04:09.27	1.35	36.97	-39.9	-40.4	21.4	0.00e+00	0	56	0	1602224128	42	3855
2026-01-04 04:04:10.26	1.06	37.14	-39.9	-40.5	21.3	0.00e+00	0	56	0	1607467008	42	3891
2026-01-04 04:04:11.24	0.78	37.32	-40.0	-40.6	21.2	0.00e+00	0	56	0	1613758464	42	3918
2026-01-04 04:04:12.23	0.49	37.49	-39.9	-40.5	21.3	0.00e+00	0	56	0	1619001344	42	3889
2026-01-04 04:04:13.22	0.20	37.67	-40.0	-40.6	21.2	0.00e+00	0	56	0	1624244224	42	3923
2026-01-04 04:04:14.21	359.90	37.85	-40.2	-40.8	21.1	0.00e+00	0	56	0	1630535680	42	4009
2026-01-04 04:04:15.21	359.60	38.02	-40.1	-40.7	21.1	0.00e+00	0	56	0	1635778560	42	3983
2026-01-04 04:04:16.20	359.30	38.20	-40.3	-40.8	21.0	0.00e+00	0	56	0	1641021440	42	4047
2026-01-04 04:04:17.19	358.99	38.38	-40.0	-40.6	21.3	0.00e+00	0	56	0	1647312896	42	3921
2026-01-04 04:04:18.18	358.68	38.55	-40.1	-40.7	21.1	0.00e+00	0	56	0	1652555776	42	3986
2026-01-04 04:04:19.17	358.37	38.73	-39.9	-40.5	21.3	0.00e+00	0	56	0	1657798656	42	3877
2026-01-04 04:04:20.16	358.05	38.90	-39.9	-40.4	21.4	0.00e+00	0	56	0	1663041536	42	3852
2026-01-04 04:04:21.16	357.73	39.08	-39.9	-40.5	21.4	0.00e+00	0	56	0	1669332992	42	3882
2026-01-04 04:04:22.15	357.41	39.26	-40.1	-40.6	21.2	0.00e+00	0	56	0	1674575872	42	3946
2026-01-04 04:04:23.13	357.09	39.43	-39.9	-40.5	21.4	0.00e+00	0	56	0	1679818752	42	3877
2026-01-04 04:04:24.13	356.75	39.61	-40.0	-40.5	21.3	0.00e+00	0	56	0	1686110208	42	3904
2026-01-04 04:04:25.12	356.42	39.78	-40.1	-40.7	21.1	0.00e+00	0	56	0	1691353088	42	3985
2026-01-04 04:04:26.11	356.08	39.96	-40.0	-40.5	21.3	0.00e+00	0	56	0	1696595968	42	3903
2026-01-04 04:04:27.11	355.74	40.13	-39.9	-40.5	21.4	0.00e+00	0	56	0	1702887424	42	3869
2026-01-04 04:04:28.09	355.40	40.31	-40.0	-40.6	21.2	0.00e+00	0	56	0	1708130304	42	3914
2026-01-04 04:04:29.08	355.05	40.48	-39.9	-40.4	21.4	0.00e+00	0	56	0	1713373184	42	3863
2026-01-04 04:04:30.06	354.70	40.65	-39.8	-40.4	21.5	0.00e+00	0	56	0	1719664640	42	3829
2026-01-04 04:04:31.05	354.34	40.82	-39.8	-40.3	21.5	0.00e+00	0	56	0	1724907520	42	3814
2026-01-04 04:04:32.04	353.98	41.00	-39.7	-40.2	21.6	0.00e+00	0	56	0	1730150400	42	3765
2026-01-04 04:04:33.04	353.62	41.17	-39.8	-40.4	21.5	0.00e+00	0	56	0	1735393280	42	3837
2026-01-04 04:04:34.03	353.25	41.34	-40.1	-40.7	21.1	0.00e+00	0	56	0	1741684736	42	3992
2026-01-04 04:04:35.02	352.88	41.51	-40.0	-40.6	21.3	0.00e+00	0	56	0	1746927616	42	3929
2026-01-04 04:04:36.01	352.50	41.68	-40.0	-40.6	21.3	0.00e+00	0	56	0	1752170496	42	3926
2026-01-04 04:04:36.99	352.13	41.85	-39.9	-40.5	21.3	0.00e+00	0	56	0	1758461952	42	3886
2026-01-04 04:04:37.97	351.75	42.02	-39.7	-40.2	21.6	0.00e+00	0	56	0	1763704832	42	3756
2026-01-04 04:04:38.97	351.36	42.19	-39.5	-40.0	21.8	0.00e+00	0	56	0	1768947712	42	3687
2026-01-04 04:04:39.96	350.96	42.36	-39.7	-40.2	21.6	0.00e+00	0	56	0	1775239168	42	3754
2026-01-04 04:04:40.94	350.57	42.52	-39.6	-40.1	21.7	0.00e+00	0	56	0	1780482048	42	3716
2026-01-04 04:04:41.93	350.17	42.69	-39.7	-40.2	21.6	0.00e+00	0	56	0	1785724928	42	3755
2026-01-04 04:04:42.92	349.77	42.86	-39.9	-40.4	21.4	0.00e+00	0	56	0	1792016384	42	3864
2026-01-04 04:04:43.91	349.36	43.02	-40.0	-40.6	21.3	0.00e+00	0	56	0	1797259264	42	3914
2026-01-04 04:04:44.89	348.95	43.18	-40.0	-40.5	21.3	0.00e+00	0	56	0	1802502144	42	3911
2026-01-04 04:04:45.88	348.53	43.34	-40.1	-40.7	21.2	0.00e+00	0	56	0	1807745024	42	3967
2026-01-04 04:04:46.87	348.11	43.51	-39.9	-40.4	21.4	0.00e+00	0	56	0	1814036480	42	3862
2026-01-04 04:04:47.86	347.69	43.67	-40.0	-40.5	21.3	0.00e+00	0	56	0	1819279360	42	3906
2026-01-04 04:04:48.85	347.26	43.83	-40.2	-40.8	21.1	0.00e+00	0	56	0	1824522240	42	4022
2026-01-04 04:04:49.84	346.82	43.98	-40.1	-40.7	21.2	0.00e+00	0	56	0	1830813696	42	3968
2026-01-04 04:04:50.82	346.39	44.14	-40.0	-40.6	21.3	0.00e+00	0	56	0	1836056576	42	3917
2026-01-04 04:04:51.81	345.95	44.29	-40.0	-40.5	21.3	0.00e+00	0	56	0	1841299456	42	3902
2026-01-04 04:04:52.81	345.50	44.45	-40.2	-40.8	21.1	0.00e+00	0	56	0	1847590912	42	4019
2026-01-04 04:04:53.80	345.04	44.60	-40.1	-40.7	21.2	0.00e+00	0	56	0	1852833792	42	3965
2026-01-04 04:04:54.79	344.59	44.75	-40.4	-41.0	20.9	0.00e+00	0	56	0	1858076672	42	4124
2026-01-04 04:04:55.78	344.13	44.90	-40.6	-41.3	20.6	0.00e+00	0	56	0	1863319552	43	4012
2026-01-04 04:04:56.77	343.66	45.05	-40.5	-41.1	20.8	0.00e+00	0	56	0	1869611008	43	3916
2026-01-04 04:04:57.76	343.19	45.20	-40.2	-40.8	21.1	0.00e+00	0	56	0	1874853888	43	3804
2026-01-04 04:04:58.75	342.72	45.35	-40.3	-40.9	21.0	0.00e+00	0	56	0	1881145344	43	3842
2026-01-04 04:04:59.74	342.24	45.49	-40.3	-40.9	21.0	0.00e+00	0	56	0	1886388224	43	3858
2026-01-04 04:05:00.73	341.76	45.63	-40.5	-41.1	20.8	0.00e+00	0	56	0	1891631104	43	3952
2026-01-04 04:05:01.71	341.28	45.77	-40.5	-41.1	20.8	0.00e+00	0	56	0	1896873984	43	3945
2026-01-04 04:05:02.69	340.79	45.91	-40.5	-41.1	20.8	0.00e+00	0	56	0	1903165440	43	3948
2026-01-04 04:05:03.68	340.30	46.04	-40.4	-41.0	20.9	0.00e+00	0	56	0	1908408320	43	3879
2026-01-04 04:05:04.67	339.80	46.18	-40.4	-41.0	20.9	0.00e+00	0	56	0	1913651200	43	3890
2026-01-04 04:05:05.67	339.29	46.31	-40.8	-41.4	20.6	0.00e+00	0	56	0	1919942656	43	4061
2026-01-04 04:05:06.66	338.78	46.44	-40.8	-41.4	20.5	0.00e+00	0	56	0	1925185536	43	4091
2026-01-04 04:05:07.66	338.27	46.57	-41.0	-41.7	20.3	0.00e+00	0	56	0	1930428416	43	4199
2026-01-04 04:05:08.65	337.75	46.70	-40.9	-41.5	20.5	0.00e+00	0	56	0	1936719872	43	4110
2026-01-04 04:05:09.65	337.22	46.82	-40.9	-41.5	20.5	0.00e+00	0	56	0	1941962752	43	4100
2026-01-04 04:05:10.64	336.70	46.94	-41.5	-42.1	20.0	0.00e+00	0	56	0	1947205632	44	4181
2026-01-04 04:05:11.62	336.18	47.06	-41.7	-42.4	19.7	0.00e+00	0	56	0	1952448512	45	4076
2026-01-04 04:05:12.62	335.64	47.18	-41.4	-42.1	20.0	0.00e+00	0	56	0	1958739968	45	3934
2026-01-04 04:05:13.60	335.11	47.29	-41.2	-41.8	20.2	0.00e+00	0	56	0	1963982848	45	3815
2026-01-04 04:05:14.59	334.57	47.41	-41.3	-41.9	20.2	0.00e+00	0	56	0	1970274304	45	3837
2026-01-04 04:05:15.57	334.03	47.52	-41.2	-41.8	20.3	0.00e+00	0	56	0	1975517184	45	3805
2026-01-04 04:05:16.55	333.48	47.62	-41.4	-42.1	20.0	0.00e+00	0	56	0	1980760064	45	3931
2026-01-04 04:05:17.54	332.93	47.73	-41.3	-42.0	20.1	0.00e+00	0	56	0	1986002944	45	3879
2026-01-04 04:05:18.52	332.38	47.83	-41.0	-41.7	20.4	0.00e+00	0	56	0	1991245824	45	3741
2026-01-04 04:05:19.51	331.82	47.93	-40.7	-41.3	20.7	0.00e+00	0	56	0	1997537280	44	3811
2026-01-04 04:05:20.50	331.26	48.02	-40.6	-41.2	20.8	0.00e+00	0	56	0	2002780160	44	3753
2026-01-04 04:05:21.50	330.69	48.12	-40.7	-41.3	20.7	0.00e+00	0	56	0	2009071616	44	3795
2026-01-04 04:05:22.49	330.12	48.21	-41.0	-41.6	20.5	0.00e+00	0	56	0	2014314496	44	3922
2026-01-04 04:05:23.48	329.54	48.29	-41.1	-41.7	20.4	0.00e+00	0	56	0	2019557376	44	3973
2026-01-04 04:05:24.48	328.96	48.38	-40.9	-41.6	20.5	0.00e+00	0	56	0	2024800256	44	3914
2026-01-04 04:05:25.47	328.38	48.46	-40.8	-41.4	20.6	0.00e+00	0	56	0	2031091712	44	3857
2026-01-04 04:05:26.46	327.80	48.54	-41.0	-41.6	20.4	0.00e+00	0	56	0	2036334592	44	3947
2026-01-04 04:05:27.45	327.21	48.62	-41.1	-41.7	20.3	0.00e+00	0	56	0	2041577472	44	3982
2026-01-04 04:05:28.43	326.63	48.69	-40.8	-41.4	20.7	0.00e+00	0	56	0	2047868928	44	3832
2026-01-04 04:05:29.41	326.04	48.76	-40.7	-41.3	20.7	0.00e+00	0	56	0	2053111808	44	3813
2026-01-04 04:05:30.40	325.45	48.82	-40.8	-41.4	20.7	0.00e+00	0	56	0	2058354688	44	3828
2026-01-04 04:05:31.39	324.85	48.89	-40.8	-41.4	20.6	0.00e+00	0	56	0	2064646144	44	3855
2026-01-04 04:05:32.38	324.26	48.95	-40.7	-41.2	20.8	0.00e+00	0	56	0	2069889024	44	3779
2026-01-04 04:05:33.38	323.65	49.00	-40.4	-41.0	21.0	0.00e+00	0	57	0	2075131904	44	3671
2026-01-04 04:05:34.37	323.04	49.06	-40.5	-41.1	20.9	0.00e+00	0	56	0	2081423360	44	3722
2026-01-04 04:05:35.35	322.45	49.10	-40.5	-41.1	20.9	0.00e+00	0	56	0	2086666240	44	3733
2026-01-04 04:05:36.34	321.84	49.15	-40.2	-40.8	21.1	0.00e+00	0	56	0	2091909120	43	3796
2026-01-04 04:05:37.33	321.23	49.19	-40.3	-40.8	21.1	0.00e+00	0	56	0	2097152000	43	3819
2026-01-04 04:05:38.32	320.62	49.23	-40.6	-41.1	20.8	0.00e+00	0	57	0	2103443456	43	3956
2026-01-04 04:05:39.31	320.01	49.27	-40.9	-41.5	20.5	0.00e+00	0	57	0	2108686336	43	4114
2026-01-04 04:05:40.31	319.39	49.30	-41.2	-41.8	20.2	0.00e+00	0	56	0	2113929216	44	4026
2026-01-04 04:05:41.30	318.77	49.33	-40.7	-41.2	20.8	0.00e+00	0	56	0	2120220672	44	3774
2026-01-04 04:05:42.29	318.16	49.36	-40.6	-41.1	20.9	0.00e+00	0	56	0	2125463552	44	3736
2026-01-04 04:05:43.27	317.55	49.38	-40.7	-41.4	20.7	0.00e+00	0	57	0	2130706432	44	3825
2026-01-04 04:05:44.26	316.93	49.39	-40.7	-41.3	20.7	0.00e+00	0	57	0	2136997888	44	3808
2026-01-04 04:05:45.25	316.31	49.41	-40.5	-41.1	20.9	0.00e+00	0	57	0	2142240768	44	3722
2026-01-04 04:05:46.24	315.69	49.42	-40.4	-41.0	21.1	0.00e+00	0	57	0	2147483648	44	3657
2026-01-04 04:05:47.22	315.08	49.43	-40.5	-41.1	20.9	0.00e+00	0	56	0	2152726528	44	3703
2026-01-04 04:05:48.21	314.46	49.43	-40.8	-41.4	20.6	0.00e+00	0	57	0	2159017984	44	3868
2026-01-04 04:05:49.21	313.83	49.43	-40.6	-41.2	20.9	0.00e+00	0	56	0	2164260864	44	3743
2026-01-04 04:05:50.20	313.21	49.43	-40.1	-40.6	21.3	0.00e+00	0	57	0	2170552320	43	3731
2026-01-04 04:05:51.19	312.59	49.42	-40.0	-40.5	21.3	0.00e+00	0	57	0	2175795200	43	3693
2026-01-04 04:05:52.18	311.97	49.41	-40.3	-40.9	21.0	0.00e+00	0	57	0	2181038080	43	3853
2026-01-04 04:05:53.18	311.35	49.40	-40.5	-41.1	20.8	0.00e+00	0	57	0	2186280960	43	3935
2026-01-04 04:05:54.16	310.74	49.38	-40.7	-41.3	20.6	0.00e+00	0	57	0	2192572416	43	4023
2026-01-04 04:05:55.15	310.12	49.36	-40.6	-41.2	20.7	0.00e+00	0	57	0	2197815296	43	3978
2026-01-04 04:05:56.15	309.50	49.33	-40.8	-41.4	20.6	0.00e+00	0	57	0	2203058176	43	4058
2026-01-04 04:05:57.15	308.88	49.30	-40.8	-41.4	20.5	0.00e+00	0	57	0	2209349632	43	4073
2026-01-04 04:05:58.13	308.27	49.27	-40.5	-41.0	20.9	0.00e+00	0	57	0	2214592512	43	3902
2026-01-04 04:05:59.12	307.66	49.24	-40.6	-41.2	20.7	0.00e+00	0	56	0	2219835392	43	3996
2026-01-04 04:06:00.11	307.05	49.20	-41.2	-41.8	20.2	0.00e+00	0	57	0	2226126848	44	4051
2026-01-04 04:06:01.11	306.43	49.16	-41.5	-42.2	19.9	0.00e+00	0	57	0	2231369728	44	4196
2026-01-04 04:06:02.10	305.82	49.11	-41.0	-41.7	20.4	0.00e+00	0	57	0	2236612608	44	3959
2026-01-04 04:06:03.09	305.22	49.06	-40.7	-41.2	20.8	0.00e+00	0	57	0	2241855488	44	3773
2026-01-04 04:06:04.08	304.61	49.01	-40.5	-41.1	20.9	0.00e+00	0	57	0	2248146944	44	3717
2026-01-04 04:06:05.07	304.01	48.95	-40.6	-41.2	20.8	0.00e+00	0	57	0	2253389824	44	3770
2026-01-04 04:06:06.05	303.42	48.89	-40.5	-41.1	20.9	0.00e+00	0	57	0	2259681280	44	3724
2026-01-04 04:06:07.04	302.82	48.83	-40.2	-40.8	21.1	0.00e+00	0	57	0	2264924160	43	3807
2026-01-04 04:06:08.02	302.23	48.77	-40.2	-40.8	21.1	0.00e+00	0	56	0	2270167040	43	3795
2026-01-04 04:06:09.01	301.64	48.70	-40.4	-41.0	20.9	0.00e+00	0	57	0	2275409920	43	3878
2026-01-04 04:06:10.00	301.05	48.63	-40.2	-40.8	21.1	0.00e+00	0	57	0	2281701376	43	3787
2026-01-04 04:06:10.98	300.47	48.55	-40.1	-40.7	21.2	0.00e+00	0	57	0	2286944256	43	3740
2026-01-04 04:06:11.98	299.88	48.47	-40.3	-40.8	21.1	0.00e+00	0	57	0	2292187136	43	3816
2026-01-04 04:06:12.97	299.30	48.39	-40.2	-40.7	21.2	0.00e+00	0	57	0	2298478592	43	3778
2026-01-04 04:06:13.96	298.72	48.31	-40.3	-40.9	21.0	0.00e+00	0	56	0	2303721472	43	3851
2026-01-04 04:06:14.96	298.14	48.22	-40.2	-40.8	21.1	0.00e+00	0	57	0	2308964352	43	3801
2026-01-04 04:06:15.94	297.58	48.13	-40.0	-40.5	21.3	0.00e+00	0	57	0	2315255808	43	3683
2026-01-04 04:06:16.93	297.01	48.03	-40.0	-40.5	21.3	0.00e+00	0	57	0	2320498688	43	3676
2026-01-04 04:06:17.91	296.45	47.94	-39.8	-40.4	21.5	0.00e+00	0	57	0	2325741568	42	3830
2026-01-04 04:06:18.91	295.89	47.84	-39.9	-40.5	21.4	0.00e+00	0	57	0	2330984448	42	3874
2026-01-04 04:06:19.89	295.33	47.74	-40.1	-40.7	21.2	0.00e+00	0	57	0	2337275904	42	3975
2026-01-04 04:06:20.88	294.78	47.64	-40.3	-40.9	21.1	0.00e+00	0	57	0	2342518784	42	4055
2026-01-04 04:06:21.88	294.23	47.53	-40.0	-40.5	21.3	0.00e+00	0	56	0	2347761664	42	3910
2026-01-04 04:06:22.87	293.68	47.42	-40.0	-40.6	21.3	0.00e+00	0	57	0	2354053120	42	3935
2026-01-04 04:06:23.86	293.14	47.31	-40.4	-40.9	21.0	0.00e+00	0	57	0	2359296000	42	4094
2026-01-04 04:06:24.85	292.60	47.19	-40.2	-40.7	21.2	0.00e+00	0	57	0	2364538880	42	3993
2026-01-04 04:06:25.84	292.07	47.07	-40.0	-40.5	21.4	0.00e+00	0	57	0	2370830336	42	3885
2026-01-04 04:06:26.83	291.54	46.95	-40.0	-40.5	21.3	0.00e+00	0	57	0	2376073216	42	3911
2026-01-04 04:06:27.82	291.01	46.83	-40.0	-40.5	21.3	0.00e+00	0	57	0	2381316096	42	3910
2026-01-04 04:06:28.81	290.49	46.71	-39.9	-40.4	21.4	0.00e+00	0	57	0	2387607552	42	3863
2026-01-04 04:06:29.79	289.98	46.58	-39.8	-40.4	21.5	0.00e+00	0	57	0	2392850432	42	3837
2026-01-04 04:06:30.79	289.46	46.45	-39.9	-40.4	21.5	0.00e+00	0	57	0	2398093312	42	3851
2026-01-04 04:06:31.78	288.95	46.32	-40.0	-40.6	21.3	0.00e+00	0	57	0	2403336192	42	3928
2026-01-04 04:06:32.77	288.44	46.19	-39.9	-40.4	21.5	0.00e+00	0	57	0	2409627648	42	3854
2026-01-04 04:06:33.75	287.95	46.06	-39.8	-40.3	21.5	0.00e+00	0	57	0	2414870528	42	3807
2026-01-04 04:06:34.74	287.45	45.92	-39.8	-40.4	21.5	0.00e+00	0	57	0	2421161984	42	3843
2026-01-04 04:06:35.73	286.96	45.78	-39.9	-40.5	21.4	0.00e+00	0	57	0	2426404864	42	3893
2026-01-04 04:06:36.72	286.47	45.64	-39.7	-40.3	21.6	0.00e+00	0	57	0	2431647744	42	3793
2026-01-04 04:06:37.71	285.99	45.50	-39.6	-40.1	21.8	0.00e+00	0	57	0	2436890624	42	3715
2026-01-04 04:06:38.69	285.51	45.36	-40.0	-40.5	21.4	0.00e+00	0	57	0	2443182080	42	3890
2026-01-04 04:06:39.68	285.04	45.21	-39.9	-40.5	21.4	0.00e+00	0	57	0	2448424960	42	3896
2026-01-04 04:06:40.67	284.57	45.07	-40.0	-40.6	21.3	0.00e+00	0	57	0	2453667840	42	3936
2026-01-04 04:06:41.66	284.10	44.92	-40.3	-40.8	21.1	0.00e+00	0	57	0	2459959296	42	4040
2026-01-04 04:06:42.65	283.64	44.77	-40.4	-41.0	20.9	0.00e+00	0	57	0	2465202176	42	4126
2026-01-04 04:06:43.64	283.19	44.62	-40.6	-41.2	20.7	0.00e+00	0	57	0	2470445056	43	3964
2026-01-04 04:06:44.63	282.73	44.46	-40.8	-41.4	20.6	0.00e+00	0	57	0	2475687936	43	4057
2026-01-04 04:06:45.62	282.28	44.31	-40.8	-41.4	20.5	0.00e+00	0	57	0	2481979392	43	4075
2026-01-04 04:06:46.60	281.84	44.15	-40.8	-41.4	20.5	0.00e+00	0	57	0	2487222272	43	4093
2026-01-04 04:06:47.60	281.40	44.00	-40.8	-41.4	20.5	0.00e+00	0	57	0	2492465152	43	4097
2026-01-04 04:06:48.59	280.96	43.84	-41.1	-41.7	20.3	0.00e+00	0	57	0	2498756608	43	4207
2026-01-04 04:06:49.57	280.54	43.68	-41.1	-41.7	20.4	0.00e+00	0	57	0	2503999488	44	3963
2026-01-04 04:06:50.56	280.11	43.52	-40.6	-41.2	20.8	0.00e+00	0	57	0	2509242368	44	3770
2026-01-04 04:06:51.55	279.69	43.36	-40.2	-40.7	21.1	0.00e+00	0	57	0	2515533824	43	3772
2026-01-04 04:06:52.54	279.27	43.19	-39.8	-40.4	21.5	0.00e+00	0	57	0	2520776704	42	3835
2026-01-04 04:06:53.52	278.86	43.03	-39.7	-40.2	21.7	0.00e+00	0	57	0	2526019584	42	3756
2026-01-04 04:06:54.51	278.45	42.87	-39.6	-40.2	21.7	0.00e+00	0	57	0	2531262464	42	3741
2026-01-04 04:06:55.50	278.05	42.70	-39.9	-40.5	21.4	0.00e+00	0	57	0	2537553920	42	3869
2026-01-04 04:06:56.48	277.65	42.54	-40.0	-40.5	21.3	0.00e+00	0	57	0	2542796800	42	3900
2026-01-04 04:06:57.47	277.25	42.37	-39.8	-40.3	21.5	0.00e+00	0	57	0	2548039680	42	3821
2026-01-04 04:06:58.46	276.86	42.20	-39.8	-40.3	21.5	0.00e+00	0	57	0	2554331136	42	3808
2026-01-04 04:06:59.45	276.47	42.03	-39.7	-40.2	21.6	0.00e+00	0	57	0	2559574016	42	3773
2026-01-04 04:07:00.44	276.08	41.86	-39.7	-40.3	21.6	0.00e+00	0	57	0	2564816896	42	3791
2026-01-04 04:07:01.44	275.70	41.69	-40.0	-40.5	21.3	0.00e+00	0	57	0	2570059776	42	3912
2026-01-04 04:07:02.43	275.32	41.52	-40.2	-40.8	21.1	0.00e+00	0	57	0	2576351232	42	4038
2026-01-04 04:07:03.43	274.95	41.35	-40.3	-40.8	21.0	0.00e+00	0	57	0	2581594112	42	4051
2026-01-04 04:07:04.41	274.58	41.18	-40.3	-40.8	21.0	0.00e+00	0	57	0	2587885568	42	4047
2026-01-04 04:07:05.40	274.22	41.00	-39.9	-40.4	21.4	0.00e+00	0	57	0	2593128448	42	3864
2026-01-04 04:07:06.39	273.86	40.83	-39.8	-40.3	21.6	0.00e+00	0	57	0	2598371328	42	3791
2026-01-04 04:07:07.38	273.50	40.66	-39.8	-40.3	21.5	0.00e+00	0	57	0	2603614208	42	3815
2026-01-04 04:07:08.37	273.15	40.48	-39.9	-40.5	21.4	0.00e+00	0	57	0	2609905664	42	3873
2026-01-04 04:07:09.36	272.80	40.31	-39.9	-40.4	21.4	0.00e+00	0	57	0	2615148544	42	3853
2026-01-04 04:07:10.35	272.45	40.14	-40.1	-40.6	21.2	0.00e+00	0	57	0	2620391424	42	3953
2026-01-04 04:07:11.34	272.11	39.96	-40.1	-40.7	21.2	0.00e+00	0	57	0	2626682880	42	3971
2026-01-04 04:07:12.33	271.77	39.79	-39.8	-40.4	21.5	0.00e+00	0	57	0	2631925760	42	3838
2026-01-04 04:07:13.32	271.44	39.61	-39.7	-40.3	21.5	0.00e+00	0	57	0	2637168640	42	3793
2026-01-04 04:07:14.31	271.10	39.43	-39.8	-40.4	21.5	0.00e+00	0	57	0	2643460096	42	3831
2026-01-04 04:07:15.30	270.78	39.26	-39.8	-40.3	21.5	0.00e+00	0	57	0	2648702976	42	3817
2026-01-04 04:07:16.30	270.45	39.08	-39.7	-40.2	21.6	0.00e+00	0	57	0	2653945856	42	3773
2026-01-04 04:07:17.29	270.13	38.90	-39.6	-40.1	21.7	0.00e+00	0	57	0	2660237312	42	3719
2026-01-04 04:07:18.28	269.81	38.73	-39.5	-40.0	21.8	0.00e+00	0	57	0	2665480192	42	3681
2026-01-04 04:07:19.27	269.50	38.55	-39.5	-40.0	21.8	0.00e+00	0	57	0	2670723072	42	3671
2026-01-04 04:07:20.26	269.19	38.37	-39.7	-40.2	21.6	0.00e+00	0	57	0	2677014528	42	3753
2026-01-04 04:07:21.24	268.89	38.20	-39.9	-40.4	21.4	0.00e+00	0	57	0	2682257408	42	3858
2026-01-04 04:07:22.23	268.58	38.02	-39.6	-40.2	21.7	0.00e+00	0	57	0	2687500288	42	3748
2026-01-04 04:07:23.22	268.28	37.85	-39.7	-40.2	21.6	0.00e+00	0	57	0	2692743168	42	3773
2026-01-04 04:07:24.21	267.99	37.67	-39.6	-40.1	21.7	0.00e+00	0	57	0	2699034624	42	3731
2026-01-04 04:07:25.20	267.69	37.49	-39.7	-40.2	21.6	0.00e+00	0	57	0	2704277504	42	3754
2026-01-04 04:07:26.19	267.40	37.32	-39.8	-40.4	21.5	0.00e+00	0	57	0	2709520384	42	3830
2026-01-04 04:07:27.18	267.11	37.14	-39.7	-40.2	21.6	0.00e+00	0	57	0	2715811840	42	3761
2026-01-04 04:07:28.16	266.83	36.97	-39.5	-40.1	21.7	0.00e+00	0	57	0	2721054720	42	3702
2026-01-04 04:07:29.14	266.55	36.79	-39.2	-39.7	22.0	0.00e+00	0	57	0	2726297600	41	3780
2026-01-04 04:07:30.12	266.28	36.62	-39.2	-39.7	22.1	0.00e+00	0	57	0	2731540480	41	3750
2026-01-04 04:07:31.11	266.00	36.44	-39.3	-39.9	21.9	0.00e+00	0	57	0	2737831936	41	3832
2026-01-04 04:07:32.10	265.73	36.27	-39.6	-40.1	21.7	0.00e+00	0	57	0	2743074816	41	3952
2026-01-04 04:07:33.09	265.46	36.09	-39.4	-39.9	21.9	0.00e+00	0	57	0	2749366272	41	3858
2026-01-04 04:07:34.09	265.19	35.92	-39.7	-40.2	21.6	0.00e+00	0	57	0	2754609152	41	3987
2026-01-04 04:07:35.08	264.93	35.74	-39.7	-40.3	21.5	0.00e+00	0	57	0	2759852032	41	4011
2026-01-04 04:07:36.07	264.67	35.57	-39.7	-40.3	21.5	0.00e+00	0	57	0	2765094912	41	4007
2026-01-04 04:07:37.06	264.41	35.39	-39.7	-40.3	21.5	0.00e+00	0	57	0	2771386368	41	4006
2026-01-04 04:07:38.04	264.16	35.22	-39.8	-40.4	21.4	0.00e+00	0	57	0	2776629248	41	4061
2026-01-04 04:07:39.03	263.91	35.05	-40.0	-40.5	21.3	0.00e+00	0	57	0	2781872128	41	4144
2026-01-04 04:07:40.02	263.66	34.87	-39.8	-40.3	21.5	0.00e+00	0	57	0	2788163584	41	4033
2026-01-04 04:07:41.01	263.41	34.70	-40.0	-40.6	21.2	0.00e+00	0	57	0	2793406464	41	4157
2026-01-04 04:07:42.00	263.17	34.53	-39.7	-40.3	21.5	0.00e+00	0	57	0	2798649344	41	4012
2026-01-04 04:07:42.99	262.92	34.36	-39.5	-40.1	21.7	0.00e+00	0	57	0	2804940800	41	3924
2026-01-04 04:07:43.98	262.69	34.18	-39.5	-40.0	21.8	0.00e+00	0	57	0	2810183680	41	3888
2026-01-04 04:07:44.97	262.45	34.01	-39.5	-40.1	21.7	0.00e+00	0	57	0	2815426560	41	3923
2026-01-04 04:07:45.95	262.22	33.84	-39.8	-40.3	21.5	0.00e+00	0	57	0	2820669440	41	4026
2026-01-04 04:07:46.95	261.98	33.67	-39.6	-40.1	21.6	0.00e+00	0	57	0	2826960896	41	3957
2026-01-04 04:07:47.94	261.75	33.50	-39.6	-40.1	21.7	0.00e+00	0	57	0	2832203776	41	3934
2026-01-04 04:07:48.94	261.52	33.33	-39.6	-40.2	21.6	0.00e+00	0	57	0	2837446656	41	3977
2026-01-04 04:07:49.92	261.30	33.16	-39.8	-40.4	21.4	0.00e+00	0	57	0	2843738112	41	4076
2026-01-04 04:07:50.91	261.08	32.99	-39.9	-40.5	21.3	0.00e+00	0	57	0	2848980992	41	4110
2026-01-04 04:07:51.91	260.86	32.82	-39.8	-40.4	21.4	0.00e+00	0	57	0	2854223872	41	4073
2026-01-04 04:07:52.90	260.64	32.65	-39.9	-40.4	21.4	0.00e+00	0	57	0	2860515328	41	4088
2026-01-04 04:07:53.89	260.43	32.49	-39.8	-40.3	21.5	0.00e+00	0	57	0	2865758208	41	4032
2026-01-04 04:07:54.89	260.21	32.32	-39.7	-40.3	21.5	0.00e+00	0	57	0	2871001088	41	4017
2026-01-04 04:07:55.87	260.00	32.15	-39.8	-40.4	21.4	0.00e+00	0	57	0	2877292544	41	4057
2026-01-04 04:07:56.87	259.79	31.98	-39.9	-40.4	21.4	0.00e+00	0	57	0	2882535424	41	4088
2026-01-04 04:07:57.86	259.58	31.82	-40.0	-40.6	21.2	0.00e+00	0	57	0	2887778304	41	4163
2026-01-04 04:07:58.85	259.38	31.65	-40.0	-40.6	21.2	0.00e+00	0	57	0	2894069760	41	4175
2026-01-04 04:07:59.84	259.18	31.49	-39.9	-40.4	21.4	0.00e+00	0	57	0	2899312640	41	4082
2026-01-04 04:08:00.84	258.98	31.32	-39.8	-40.3	21.5	0.00e+00	0	57	0	2904555520	41	4039
2026-01-04 04:08:01.83	258.78	31.16	-39.8	-40.4	21.4	0.00e+00	0	57	0	2909798400	41	4059
2026-01-04 04:08:02.82	258.58	31.00	-39.9	-40.4	21.4	0.00e+00	0	57	0	2916089856	41	4077
2026-01-04 04:08:03.81	258.39	30.83	-39.9	-40.5	21.3	0.00e+00	0	57	0	2921332736	41	4111
2026-01-04 04:08:04.80	258.20	30.67	-40.1	-40.7	21.1	0.00e+00	0	57	0	2927624192	41	4197
2026-01-04 04:08:05.79	258.01	30.51	-40.2	-40.8	21.1	0.00e+00	0	57	0	2932867072	42	4007
2026-01-04 04:08:06.78	257.82	30.35	-40.2	-40.8	21.0	0.00e+00	0	57	0	2938109952	42	4034
2026-01-04 04:08:07.77	257.63	30.19	-40.4	-40.9	20.9	0.00e+00	0	57	0	2943352832	42	4095
2026-01-04 04:08:08.76	257.45	30.03	-40.2	-40.8	21.1	0.00e+00	0	57	0	2949644288	42	4007
2026-01-04 04:08:09.75	257.26	29.87	-40.0	-40.5	21.3	0.00e+00	0	57	0	2954887168	42	3900
2026-01-04 04:08:10.74	257.08	29.71	-40.0	-40.5	21.3	0.00e+00	0	57	0	2961178624	42	3906
2026-01-04 04:08:11.72	256.91	29.55	-40.0	-40.6	21.2	0.00e+00	0	57	0	2966421504	42	3935
2026-01-04 04:08:12.70	256.73	29.40	-40.3	-40.9	21.0	0.00e+00	0	57	0	2971664384	42	4055
2026-01-04 04:08:13.69	256.55	29.24	-40.2	-40.8	21.0	0.00e+00	0	57	0	2976907264	42	4017
2026-01-04 04:08:14.68	256.38	29.09	-40.0	-40.5	21.3	0.00e+00	0	57	0	2982150144	42	3909
2026-01-04 04:08:15.66	256.21	28.93	-39.8	-40.4	21.4	0.00e+00	0	57	0	2988441600	42	3845
2026-01-04 04:08:16.65	256.04	28.78	-39.8	-40.4	21.4	0.00e+00	0	57	0	2993684480	42	3828
2026-01-04 04:08:17.63	255.87	28.62	-39.9	-40.4	21.4	0.00e+00	0	57	0	2998927360	42	3861
2026-01-04 04:08:18.61	255.71	28.47	-39.9	-40.5	21.3	0.00e+00	0	57	0	3005218816	42	3877
2026-01-04 04:08:19.61	255.54	28.31	-40.0	-40.6	21.2	0.00e+00	0	57	0	3010461696	42	3925
2026-01-04 04:08:20.59	255.38	28.16	-40.0	-40.6	21.2	0.00e+00	0	57	0	3015704576	42	3935
2026-01-04 04:08:21.58	255.22	28.01	-40.1	-40.7	21.1	0.00e+00	0	57	0	3020947456	42	3982
2026-01-04 04:08:22.58	255.05	27.86	-40.2	-40.8	21.0	0.00e+00	0	57	0	3027238912	42	4015
2026-01-04 04:08:23.56	254.90	27.71	-40.3	-40.8	21.0	0.00e+00	0	57	0	3032481792	42	4046
2026-01-04 04:08:24.55	254.74	27.56	-40.3	-40.9	20.9	0.00e+00	0	57	0	3038773248	42	4055
2026-01-04 04:08:25.55	254.58	27.40	-40.2	-40.8	21.0	0.00e+00	0	57	0	3044016128	42	4016
2026-01-04 04:08:26.54	254.42	27.25	-40.2	-40.8	21.0	0.00e+00	0	57	0	3049259008	42	4027
2026-01-04 04:08:27.53	254.27	27.11	-40.3	-40.9	20.9	0.00e+00	0	57	0	3054501888	42	4077
2026-01-04 04:08:28.50	254.12	26.96	-40.4	-41.0	20.9	0.00e+00	0	57	0	3060793344	42	4099
2026-01-04 04:08:29.49	253.97	26.81	-40.2	-40.8	21.0	0.00e+00	0	57	0	3066036224	42	4025
2026-01-04 04:08:30.47	253.82	26.67	-40.2	-40.8	21.0	0.00e+00	0	57	0	3071279104	42	4023
2026-01-04 04:08:31.46	253.68	26.52	-40.2	-40.7	21.1	0.00e+00	0	57	0	3077570560	42	3995
2026-01-04 04:08:32.45	253.53	26.37	-40.0	-40.6	21.2	0.00e+00	0	57	0	3082813440	42	3929
2026-01-04 04:08:33.43	253.39	26.23	-40.0	-40.5	21.2	0.00e+00	0	57	0	3088056320	42	3902
2026-01-04 04:08:34.43	253.24	26.08	-39.9	-40.5	21.2	0.00e+00	0	57	0	3093299200	42	3894
2026-01-04 04:08:35.42	253.10	25.94	-40.0	-40.5	21.3	0.00e+00	0	57	0	3099590656	42	3898
2026-01-04 04:08:36.41	252.96	25.80	-40.1	-40.7	21.1	0.00e+00	0	57	0	3104833536	42	3982
2026-01-04 04:08:37.40	252.82	25.65	-40.2	-40.8	21.0	0.00e+00	0	57	0	3110076416	42	4015
2026-01-04 04:08:38.38	252.68	25.51	-40.1	-40.7	21.1	0.00e+00	0	57	0	3116367872	42	3975
2026-01-04 04:08:39.36	252.55	25.37	-40.2	-40.8	20.9	0.00e+00	0	57	0	3121610752	42	4036
2026-01-04 04:08:40.34	252.41	25.23	-40.2	-40.8	21.0	0.00e+00	0	57	0	3126853632	42	4026
2026-01-04 04:08:41.33	252.28	25.09	-40.3	-40.9	20.9	0.00e+00	0	57	0	3132096512	42	4054
2026-01-04 04:08:42.32	252.14	24.95	-40.2	-40.8	21.0	0.00e+00	0	57	0	3138387968	42	4027
2026-01-04 04:08:43.31	252.01	24.81	-40.3	-40.8	20.9	0.00e+00	0	57	0	3143630848	42	4051
2026-01-04 04:08:44.30	251.88	24.67	-40.2	-40.8	20.9	0.00e+00	0	57	0	3148873728	42	4034
2026-01-04 04:08:45.29	251.75	24.53	-40.3	-40.9	20.9	0.00e+00	0	57	0	3155165184	42	4068
2026-01-04 04:08:46.28	251.62	24.39	-40.2	-40.8	21.0	0.00e+00	0	57	0	3160408064	42	4021
2026-01-04 04:08:47.26	251.50	24.26	-40.3	-40.8	20.9	0.00e+00	0	58	0	3165650944	42	4037
2026-01-04 04:08:48.25	251.37	24.12	-40.3	-40.9	20.9	0.00e+00	0	57	0	3171942400	42	4065
2026-01-04 04:08:49.24	251.24	23.98	-40.2	-40.8	21.0	0.00e+00	0	57	0	3177185280	42	4014
2026-01-04 04:08:50.23	251.12	23.85	-40.2	-40.8	21.0	0.00e+00	0	57	0	3182428160	42	4018
2026-01-04 04:08:51.22	251.00	23.71	-40.3	-40.9	20.9	0.00e+00	0	57	0	3187671040	42	4054
2026-01-04 04:08:52.21	250.88	23.58	-40.4	-41.0	20.7	0.00e+00	0	57	0	3193962496	42	4141
2026-01-04 04:08:53.21	250.75	23.44	-40.2	-40.8	20.9	0.00e+00	0	57	0	3199205376	42	4039
2026-01-04 04:08:54.19	250.63	23.31	-40.1	-40.7	21.0	0.00e+00	0	57	0	3205496832	42	3987
2026-01-04 04:08:55.18	250.52	23.18	-40.1	-40.7	21.0	0.00e+00	0	57	0	3210739712	42	3982
2026-01-04 04:08:56.17	250.40	23.04	-40.2	-40.8	21.0	0.00e+00	0	57	0	3215982592	42	4007
2026-01-04 04:08:57.16	250.28	22.91	-40.4	-40.9	20.8	0.00e+00	0	57	0	3221225472	42	4096
2026-01-04 04:08:58.15	250.16	22.78	-40.4	-41.0	20.8	0.00e+00	0	57	0	3227516928	42	4110
2026-01-04 04:08:59.14	250.05	22.65	-40.4	-41.0	20.7	0.00e+00	0	57	0	3232759808	42	4140
2026-01-04 04:09:00.13	249.94	22.52	-40.6	-41.2	20.6	0.00e+00	0	57	0	3238002688	42	4202
2026-01-04 04:09:01.12	249.82	22.39	-40.8	-41.4	20.4	0.00e+00	0	57	0	3244294144	43	4074
2026-01-04 04:09:02.11	249.71	22.26	-40.6	-41.2	20.5	0.00e+00	0	57	0	3249537024	43	4001
2026-01-04 04:09:03.10	249.60	22.13	-40.6	-41.2	20.5	0.00e+00	0	57	0	3254779904	43	4002
2026-01-04 04:09:04.09	249.49	22.00	-40.7	-41.3	20.4	0.00e+00	0	57	0	3260022784	43	4030
2026-01-04 04:09:05.07	249.38	21.88	-40.9	-41.5	20.2	0.00e+00	0	57	0	3266314240	43	4141
2026-01-04 04:09:06.07	249.27	21.75	-40.7	-41.3	20.4	0.00e+00	0	57	0	3271557120	43	4043
2026-01-04 04:09:07.06	249.17	21.62	-40.7	-41.3	20.5	0.00e+00	0	57	0	3277848576	43	4024
2026-01-04 04:09:08.05	249.06	21.50	-40.7	-41.3	20.5	0.00e+00	0	57	0	3283091456	43	4012
2026-01-04 04:09:09.04	248.95	21.37	-40.6	-41.2	20.5	0.00e+00	0	57	0	3288334336	43	3992
2026-01-04 04:09:10.04	248.85	21.24	-40.7	-41.3	20.4	0.00e+00	0	57	0	3294625792	43	4035
2026-01-04 04:09:11.03	248.74	21.12	-40.9	-41.5	20.3	0.00e+00	0	57	0	3299868672	43	4109
2026-01-04 04:09:12.02	248.64	21.00	-40.7	-41.3	20.5	0.00e+00	0	57	0	3305111552	43	4011
2026-01-04 04:09:13.01	248.54	20.87	-40.6	-41.2	20.6	0.00e+00	0	57	0	3310354432	43	3964
2026-01-04 04:09:14.00	248.44	20.75	-40.7	-41.3	20.4	0.00e+00	0	57	0	3316645888	43	4021
2026-01-04 04:09:14.99	248.34	20.63	-40.9	-41.5	20.2	0.00e+00	0	57	0	3321888768	43	4124
2026-01-04 04:09:15.98	248.24	20.50	-40.7	-41.3	20.4	0.00e+00	0	58	0	3327131648	43	4034
2026-01-04 04:09:16.97	248.14	20.38	-40.9	-41.6	20.2	0.00e+00	0	57	0	3333423104	43	4160
2026-01-04 04:09:17.96	248.04	20.26	-40.8	-41.4	20.3	0.00e+00	0	57	0	3338665984	43	4076
2026-01-04 04:09:18.95	247.94	20.14	-40.7	-41.3	20.4	0.00e+00	0	57	0	3343908864	43	4046
2026-01-04 04:09:19.94	247.85	20.02	-40.8	-41.4	20.3	0.00e+00	0	57	0	3350200320	43	4086
2026-01-04 04:09:20.92	247.75	19.90	-40.8	-41.4	20.3	0.00e+00	0	57	0	3355443200	43	4089
2026-01-04 04:09:21.91	247.66	19.78	-40.9	-41.5	20.2	0.00e+00	0	57	0	3360686080	43	4127
2026-01-04 04:09:22.91	247.56	19.66	-40.9	-41.5	20.2	0.00e+00	0	57	0	3366977536	43	4107
2026-01-04 04:09:23.89	247.47	19.55	-40.9	-41.5	20.2	0.00e+00	0	58	0	3372220416	43	4145
2026-01-04 04:09:24.88	247.38	19.43	-41.0	-41.6	20.1	0.00e+00	0	57	0	3377463296	43	4169
2026-01-04 04:09:25.86	247.29	19.31	-41.2	-41.9	20.0	0.00e+00	0	57	0	3382706176	44	4060
2026-01-04 04:09:26.84	247.20	19.20	-41.2	-41.9	20.0	0.00e+00	0	57	0	3388997632	44	4062
2026-01-04 04:09:27.84	247.11	19.08	-41.3	-42.0	19.8	0.00e+00	0	57	0	3394240512	44	4120
2026-01-04 04:09:28.82	247.02	18.96	-41.6	-42.3	19.6	0.00e+00	0	57	0	3399483392	44	4262
2026-01-04 04:09:29.81	246.93	18.85	-41.7	-42.4	19.4	0.00e+00	0	57	0	3405774848	45	4077
2026-01-04 04:09:30.79	246.84	18.74	-41.8	-42.5	19.4	0.00e+00	0	57	0	3411017728	45	4102
2026-01-04 04:09:31.78	246.75	18.62	-41.8	-42.5	19.3	0.00e+00	0	57	0	3416260608	45	4133
2026-01-04 04:09:32.77	246.67	18.51	-41.9	-42.6	19.2	0.00e+00	0	57	0	3421503488	45	4177
2026-01-04 04:09:33.76	246.58	18.39	-42.0	-42.8	19.1	0.00e+00	0	57	0	3427794944	45	4257
2026-01-04 04:09:34.75	246.49	18.28	-42.0	-42.7	19.2	0.00e+00	0	57	0	3433037824	46	3979
2026-01-04 04:09:35.74	246.41	18.17	-42.1	-42.9	19.0	0.00e+00	0	57	0	3438280704	46	4062
2026-01-04 04:09:36.73	246.32	18.06	-42.0	-42.7	19.1	0.00e+00	0	57	0	3444572160	46	3999
2026-01-04 04:09:37.72	246.24	17.94	-41.8	-42.5	19.4	0.00e+00	0	57	0	3449815040	46	3880
2026-01-04 04:09:38.71	246.16	17.83	-41.6	-42.3	19.5	0.00e+00	0	57	0	3455057920	46	3814
2026-01-04 04:09:39.70	246.08	17.72	-41.6	-42.2	19.6	0.00e+00	0	57	0	3461349376	46	3776
2026-01-04 04:09:40.69	245.99	17.61	-41.5	-42.2	19.6	0.00e+00	0	57	0	3466592256	46	3760
2026-01-04 04:09:41.69	245.91	17.50	-41.5	-42.1	19.7	0.00e+00	0	57	0	3471835136	46	3730
2026-01-04 04:09:42.67	245.83	17.39	-41.5	-42.2	19.6	0.00e+00	0	58	0	3477078016	46	3747
2026-01-04 04:09:43.66	245.75	17.28	-41.5	-42.2	19.6	0.00e+00	0	57	0	3483369472	46	3754
2026-01-04 04:09:44.64	245.67	17.18	-41.6	-42.2	19.6	0.00e+00	0	57	0	3488612352	46	3762
2026-01-04 04:09:45.64	245.59	17.07	-41.8	-42.4	19.4	0.00e+00	0	57	0	3494903808	46	3862
2026-01-04 04:09:46.63	245.51	16.96	-41.7	-42.4	19.4	0.00e+00	0	57	0	3500146688	46	3850
2026-01-04 04:09:47.61	245.44	16.85	-41.8	-42.5	19.4	0.00e+00	0	57	0	3505389568	46	3869
2026-01-04 04:09:48.59	245.36	16.75	-42.0	-42.7	19.2	0.00e+00	0	57	0	3510632448	46	3975
2026-01-04 04:09:49.58	245.29	16.64	-42.0	-42.7	19.1	0.00e+00	0	57	0	3515875328	46	3989
2026-01-04 04:09:50.57	245.21	16.53	-42.1	-42.8	19.0	0.00e+00	0	57	0	3522166784	46	4016
2026-01-04 04:09:51.56	245.13	16.43	-42.1	-42.8	19.0	0.00e+00	0	57	0	3527409664	46	4029
2026-01-04 04:09:52.55	245.06	16.32	-42.0	-42.7	19.2	0.00e+00	0	57	0	3533701120	46	3968
2026-01-04 04:09:53.54	244.98	16.22	-42.0	-42.7	19.1	0.00e+00	0	57	0	3538944000	46	3971
2026-01-04 04:09:54.53	244.91	16.11	-42.0	-42.7	19.1	0.00e+00	0	57	0	3544186880	46	3988
2026-01-04 04:09:55.52	244.84	16.01	-42.0	-42.7	19.1	0.00e+00	0	58	0	3549429760	46	4002
2026-01-04 04:09:56.50	244.77	15.91	-42.2	-42.9	18.9	0.00e+00	0	57	0	3555721216	46	4072
2026-01-04 04:09:57.49	244.69	15.80	-42.2	-42.9	18.9	0.00e+00	0	57	0	3560964096	46	4079
2026-01-04 04:09:58.48	244.62	15.70	-42.1	-42.8	19.0	0.00e+00	0	57	0	3566206976	46	4037
2026-01-04 04:09:59.47	244.55	15.60	-42.1	-42.8	19.0	0.00e+00	0	57	0	3572498432	46	4044
2026-01-04 04:10:00.46	244.48	15.49	-42.2	-42.9	18.9	0.00e+00	0	57	0	3577741312	46	4081
2026-01-04 04:10:01.44	244.41	15.39	-42.3	-43.0	18.8	0.00e+00	0	57	0	3582984192	46	4120
2026-01-04 04:10:02.44	244.34	15.29	-42.4	-43.1	18.7	0.00e+00	0	58	0	3588227072	46	4164
2026-01-04 04:10:03.43	244.27	15.19	-42.3	-43.1	18.7	0.00e+00	0	57	0	3594518528	46	4161
2026-01-04 04:10:04.42	244.20	15.09	-42.4	-43.2	18.6	0.00e+00	0	57	0	3599761408	46	4213
2026-01-04 04:10:05.42	244.13	14.99	-42.3	-43.1	18.7	0.00e+00	0	57	0	3606052864	46	4167
2026-01-04 04:10:06.40	244.07	14.89	-42.4	-43.2	18.6	0.00e+00	0	58	0	3611295744	46	4203
2026-01-04 04:10:07.40	244.00	14.79	-42.5	-43.3	18.5	0.00e+00	0	57	0	3616538624	46	4269
2026-01-04 04:10:08.39	243.93	14.69	-42.6	-43.4	18.4	0.00e+00	0	57	0	3621781504	46	4293
2026-01-04 04:10:09.37	243.87	14.59	-42.7	-43.5	18.3	0.00e+00	0	57	0	3628072960	47	4110
2026-01-04 04:10:10.36	243.80	14.49	-42.7	-43.5	18.2	0.00e+00	0	57	0	3633315840	47	4131
2026-01-04 04:10:11.36	243.73	14.39	-42.8	-43.6	18.2	0.00e+00	0	57	0	3638558720	47	4180
2026-01-04 04:10:12.34	243.67	14.30	-42.8	-43.7	18.1	0.00e+00	0	57	0	3644850176	47	4204
2026-01-04 04:10:13.34	243.60	14.20	-42.9	-43.8	18.0	0.00e+00	0	57	0	3650093056	47	4257
2026-01-04 04:10:14.32	243.54	14.10	-43.2	-44.1	17.9	0.00e+00	0	57	0	3655335936	48	4148
2026-01-04 04:10:15.32	243.48	14.00	-43.1	-44.0	18.0	0.00e+00	0	57	0	3661627392	48	4115
2026-01-04 04:10:16.31	243.41	13.91	-43.2	-44.1	17.9	0.00e+00	0	57	0	3666870272	48	4162
2026-01-04 04:10:17.31	243.35	13.81	-43.2	-44.0	17.9	0.00e+00	0	57	0	3672113152	48	4133
2026-01-04 04:10:18.30	243.29	13.71	-43.2	-44.1	17.8	0.00e+00	0	57	0	3678404608	48	4176
2026-01-04 04:10:19.29	243.23	13.62	-43.1	-43.9	18.0	0.00e+00	0	57	0	3683647488	48	4092
2026-01-04 04:10:20.29	243.16	13.52	-43.0	-43.9	18.0	0.00e+00	0	58	0	3688890368	48	4069
