passes_logs/2026/01/04/R3.0SM8_Murmansk_STILSPACE/R3.0SM8_Murmansk_STILSPACE__20260104_001355_AQUA_rec.log

#Pass ID: 20260104_001355_AQUA
#Satellite: AQUA
#Configuration: AQUA
#almurnet v.1.7.20240730
#Start time: 2026-01-04 00:13:56

#Version: 2.2.20231116
#Station: R3.0SM8_Murmansk_STILSPACE
#Location: 33.092731 lon 68.902999 lat
#TLE: 1 27424U 02022A   25365.92641127  .00002078  00000+0  42628-3 0  9999
#TLE: 2 27424  98.4058 327.1196 0001962  94.7781 340.6230 14.61783896258835

#Time	Az	El	Level	Level2	SNR	BER	BlckErr	Temp	State	Recorded	gain1	gain2
2026-01-04 00:13:56.88	22.40	3.07	-54.3	-74.2	3.8	7.46e-01	0	53	0	0	70	38639
2026-01-04 00:13:57.86	22.48	3.13	-54.1	-74.0	3.8	7.45e-01	0	53	104	0	70	37480
2026-01-04 00:13:58.85	22.56	3.19	-54.0	-73.8	3.8	7.44e-01	0	52	104	0	70	36867
2026-01-04 00:13:59.84	22.64	3.24	-53.8	-73.6	3.8	7.43e-01	0	53	104	0	70	35944
2026-01-04 00:14:00.83	22.72	3.30	-53.6	-73.2	3.8	7.44e-01	0	53	104	0	70	34313
2026-01-04 00:14:01.82	22.80	3.36	-53.4	-73.0	3.8	7.46e-01	0	53	104	0	70	33507
2026-01-04 00:14:02.81	22.89	3.42	-53.4	-73.0	3.8	7.47e-01	0	53	104	0	70	33406
2026-01-04 00:14:03.80	22.97	3.48	-53.4	-72.9	3.8	7.41e-01	0	53	104	0	70	33015
2026-01-04 00:14:04.78	23.05	3.54	-53.4	-72.6	3.8	7.41e-01	0	53	104	0	70	32123
2026-01-04 00:14:05.77	23.13	3.60	-53.4	-72.6	3.8	7.47e-01	0	53	104	0	70	31959
2026-01-04 00:14:06.75	23.21	3.66	-53.4	-72.6	3.8	7.46e-01	0	53	104	0	70	31997
2026-01-04 00:14:07.74	23.30	3.72	-53.4	-72.8	3.8	7.46e-01	0	53	104	0	70	32730
2026-01-04 00:14:08.72	23.38	3.78	-53.4	-73.0	3.8	7.45e-01	0	53	104	0	70	33630
2026-01-04 00:14:09.70	23.46	3.84	-53.4	-73.2	3.8	7.44e-01	0	53	104	0	70	34224
2026-01-04 00:14:10.69	23.55	3.90	-53.4	-73.2	3.8	7.47e-01	0	53	104	0	70	34424
2026-01-04 00:14:11.68	23.63	3.96	-53.4	-73.2	3.8	7.44e-01	0	53	104	0	70	34197
2026-01-04 00:14:12.67	23.72	4.02	-53.4	-72.9	3.8	7.42e-01	0	53	104	0	70	33294
2026-01-04 00:14:13.66	23.80	4.08	-53.4	-72.8	3.8	7.43e-01	0	53	104	0	70	32926
2026-01-04 00:14:14.65	23.89	4.14	-53.4	-72.7	3.8	7.45e-01	0	53	104	0	70	32241
2026-01-04 00:14:15.64	23.98	4.20	-53.4	-72.6	3.8	7.46e-01	0	53	104	0	70	31827
2026-01-04 00:14:16.63	24.06	4.26	-53.4	-72.5	3.8	7.43e-01	0	53	104	0	70	31471
2026-01-04 00:14:17.62	24.15	4.32	-53.4	-72.5	3.8	7.49e-01	0	53	104	0	70	31503
2026-01-04 00:14:18.61	24.24	4.38	-53.4	-72.9	3.8	7.46e-01	0	53	104	0	70	33206
2026-01-04 00:14:19.59	24.33	4.44	-53.4	-73.1	3.8	7.42e-01	0	53	104	0	70	33998
2026-01-04 00:14:20.58	24.41	4.50	-53.4	-72.9	3.8	7.47e-01	0	53	104	0	70	33101
2026-01-04 00:14:21.58	24.50	4.56	-53.3	-71.6	3.8	7.45e-01	0	53	104	0	70	28465
2026-01-04 00:14:22.57	24.59	4.62	-53.3	-68.8	4.1	7.29e-01	0	53	104	0	70	20550
2026-01-04 00:14:23.56	24.68	4.69	-53.2	-66.1	6.0	6.84e-01	92	53	0	0	69	15948
2026-01-04 00:14:24.55	24.77	4.75	-53.0	-63.5	8.4	6.40e-01	25	53	0	2097152	69	11912
2026-01-04 00:14:25.54	24.86	4.81	-52.7	-61.5	10.4	6.18e-01	0	53	0	3670016	69	9401
2026-01-04 00:14:26.53	24.95	4.87	-52.4	-59.9	12.2	6.06e-01	0	53	0	5767168	68	8292
2026-01-04 00:14:27.51	25.04	4.93	-52.0	-58.3	13.8	6.02e-01	0	53	0	7340032	67	7307
2026-01-04 00:14:28.50	25.13	4.99	-51.7	-57.2	14.9	6.03e-01	0	53	0	9437184	67	6476
2026-01-04 00:14:29.48	25.23	5.06	-51.4	-56.3	15.8	6.02e-01	0	53	0	11534336	66	6173
2026-01-04 00:14:30.47	25.32	5.12	-51.5	-56.7	15.5	6.03e-01	0	53	0	13107200	66	6423
2026-01-04 00:14:31.45	25.41	5.18	-51.6	-57.0	15.1	6.01e-01	0	53	0	15204352	66	6691
2026-01-04 00:14:32.44	25.50	5.24	-51.3	-56.1	16.0	6.03e-01	0	54	0	16777216	66	6023
2026-01-04 00:14:33.42	25.59	5.30	-51.1	-55.5	16.6	6.01e-01	0	53	0	18874368	65	5964
2026-01-04 00:14:34.42	25.69	5.37	-51.0	-55.3	16.8	6.01e-01	0	54	0	20447232	65	5850
2026-01-04 00:14:35.40	25.78	5.43	-51.1	-55.4	16.7	6.01e-01	0	53	0	22544384	65	5913
2026-01-04 00:14:36.39	25.88	5.49	-50.8	-54.8	17.3	5.99e-01	0	53	0	24117248	65	5508
2026-01-04 00:14:37.38	25.97	5.55	-50.8	-54.9	17.3	6.03e-01	0	54	0	26214400	65	5553
2026-01-04 00:14:38.37	26.07	5.62	-50.8	-54.8	17.4	6.01e-01	0	54	0	27787264	65	5491
2026-01-04 00:14:39.36	26.16	5.68	-50.7	-54.6	17.6	6.01e-01	0	54	0	29884416	65	5390
2026-01-04 00:14:40.35	26.26	5.74	-50.5	-54.3	17.9	6.01e-01	0	54	0	31457280	64	5471
2026-01-04 00:14:41.35	26.36	5.81	-50.3	-53.6	18.7	6.03e-01	0	54	0	33554432	63	5372
2026-01-04 00:14:42.33	26.45	5.87	-50.1	-53.3	18.9	5.99e-01	0	54	0	35651584	63	5194
2026-01-04 00:14:43.32	26.55	5.93	-49.9	-52.9	19.3	6.07e-01	0	54	0	37224448	63	4972
2026-01-04 00:14:44.32	26.65	6.00	-49.8	-52.8	19.4	6.02e-01	0	54	0	39321600	63	4921
2026-01-04 00:14:45.31	26.75	6.06	-49.8	-52.8	19.4	6.01e-01	0	54	0	40894464	63	4909
2026-01-04 00:14:46.30	26.85	6.12	-49.8	-52.8	18.8	6.02e-01	0	54	0	42991616	63	4886
2026-01-04 00:14:47.28	26.95	6.19	-49.9	-52.9	19.4	6.03e-01	0	54	0	44564480	63	4938
2026-01-04 00:14:48.27	27.05	6.25	-49.9	-52.9	19.4	6.00e-01	0	54	0	46661632	63	4929
2026-01-04 00:14:49.26	27.15	6.32	-49.6	-52.5	19.8	6.01e-01	0	54	0	48234496	62	4986
2026-01-04 00:14:50.25	27.25	6.38	-49.7	-52.6	19.7	6.01e-01	0	54	0	50331648	62	5045
2026-01-04 00:14:51.23	27.35	6.44	-49.5	-52.3	20.0	5.99e-01	0	54	0	51904512	62	4908
2026-01-04 00:14:52.22	27.45	6.51	-49.6	-52.4	19.9	6.02e-01	0	54	0	54001664	62	4949
2026-01-04 00:14:53.20	27.55	6.57	-49.5	-52.2	20.0	6.04e-01	0	54	0	55574528	62	4869
2026-01-04 00:14:54.19	27.66	6.64	-49.6	-52.3	20.0	5.99e-01	0	54	0	57671680	62	4902
2026-01-04 00:14:55.18	27.76	6.70	-49.7	-52.5	19.8	5.99e-01	0	54	0	59768832	62	4996
2026-01-04 00:14:56.16	27.86	6.77	-49.7	-52.5	19.8	6.01e-01	0	54	0	61341696	62	5022
2026-01-04 00:14:57.16	27.97	6.83	-49.6	-52.4	19.9	5.99e-01	0	54	0	62914560	62	4966
2026-01-04 00:14:58.14	28.07	6.90	-49.7	-52.6	19.8	6.01e-01	0	54	0	65011712	62	5046
2026-01-04 00:14:59.13	28.17	6.96	-49.8	-52.7	19.7	6.03e-01	0	54	0	67108864	62	5130
2026-01-04 00:15:00.12	28.28	7.03	-49.7	-52.6	19.8	6.01e-01	0	54	0	68681728	62	5058
2026-01-04 00:15:01.10	28.39	7.09	-49.7	-52.5	19.9	6.03e-01	0	54	0	70778880	62	4997
2026-01-04 00:15:02.08	28.49	7.16	-49.6	-52.4	20.0	6.02e-01	0	54	0	72351744	62	4959
2026-01-04 00:15:03.07	28.60	7.22	-49.6	-52.3	20.1	5.98e-01	0	54	0	74448896	62	4917
2026-01-04 00:15:04.06	28.71	7.29	-49.8	-52.6	19.8	6.00e-01	0	54	0	76021760	62	5058
2026-01-04 00:15:05.05	28.81	7.35	-49.9	-52.9	19.6	6.02e-01	0	54	0	78118912	62	5240
2026-01-04 00:15:06.03	28.92	7.42	-49.7	-52.5	19.9	6.02e-01	0	54	0	79691776	62	5001
2026-01-04 00:15:07.01	29.03	7.49	-49.6	-52.3	20.1	6.03e-01	0	54	0	81788928	62	4903
2026-01-04 00:15:08.00	29.14	7.55	-49.5	-52.1	20.4	6.01e-01	0	54	0	83361792	62	4773
2026-01-04 00:15:08.98	29.25	7.62	-49.4	-52.0	20.5	6.02e-01	0	54	0	85458944	62	4730
2026-01-04 00:15:09.96	29.36	7.68	-49.5	-52.1	20.4	6.00e-01	0	54	0	87031808	62	4778
2026-01-04 00:15:10.96	29.47	7.75	-49.6	-52.2	20.2	6.04e-01	0	54	0	89128960	62	4866
2026-01-04 00:15:11.95	29.58	7.82	-49.6	-52.3	20.2	6.01e-01	0	54	0	90701824	62	4894
2026-01-04 00:15:12.94	29.69	7.88	-49.6	-52.4	20.1	6.02e-01	0	54	0	92798976	62	4928
2026-01-04 00:15:13.93	29.81	7.95	-49.5	-52.2	20.3	6.04e-01	0	54	0	94896128	62	4833
2026-01-04 00:15:14.92	29.92	8.02	-49.5	-52.1	20.4	6.02e-01	0	55	0	96468992	62	4768
2026-01-04 00:15:15.91	30.03	8.08	-49.5	-52.1	20.4	6.02e-01	0	55	0	98566144	62	4787
2026-01-04 00:15:16.90	30.15	8.15	-49.4	-51.9	20.6	6.00e-01	0	54	0	100139008	62	4681
2026-01-04 00:15:17.89	30.26	8.22	-49.3	-51.9	20.6	6.03e-01	0	55	0	102236160	62	4661
2026-01-04 00:15:18.88	30.38	8.29	-49.5	-52.1	20.4	6.01e-01	0	55	0	103809024	62	4776
2026-01-04 00:15:19.87	30.49	8.35	-49.4	-52.0	20.5	6.03e-01	0	55	0	105906176	62	4731
2026-01-04 00:15:20.86	30.61	8.42	-49.5	-52.2	20.4	5.99e-01	0	55	0	107479040	62	4816
2026-01-04 00:15:21.85	30.73	8.49	-49.7	-52.4	20.1	6.01e-01	0	55	0	109576192	62	4965
2026-01-04 00:15:22.84	30.85	8.56	-49.7	-52.4	20.2	6.00e-01	0	55	0	111149056	62	4937
2026-01-04 00:15:23.83	30.96	8.63	-49.7	-52.4	20.1	6.00e-01	0	55	0	113246208	62	4977
2026-01-04 00:15:24.81	31.08	8.69	-49.8	-52.5	20.0	6.02e-01	0	54	0	114819072	62	5013
2026-01-04 00:15:25.80	31.20	8.76	-49.8	-52.5	20.1	6.05e-01	0	55	0	116916224	62	5008
2026-01-04 00:15:26.80	31.32	8.83	-49.9	-52.7	19.9	5.99e-01	0	55	0	119013376	62	5117
2026-01-04 00:15:27.78	31.44	8.90	-49.8	-52.5	20.1	6.03e-01	0	55	0	120586240	62	4991
2026-01-04 00:15:28.76	31.56	8.97	-49.6	-52.3	20.3	6.02e-01	0	55	0	122159104	62	4884
2026-01-04 00:15:29.74	31.68	9.03	-49.7	-52.3	20.3	6.00e-01	0	55	0	124256256	62	4901
2026-01-04 00:15:30.73	31.81	9.10	-49.8	-52.4	20.2	6.03e-01	0	55	0	126353408	62	4983
2026-01-04 00:15:31.72	31.93	9.17	-49.6	-52.3	20.3	6.01e-01	0	55	0	127926272	62	4885
2026-01-04 00:15:32.71	32.05	9.24	-49.5	-52.0	20.6	6.00e-01	0	55	0	130023424	62	4739
2026-01-04 00:15:33.70	32.18	9.31	-49.4	-51.9	20.8	6.02e-01	0	55	0	131596288	62	4655
2026-01-04 00:15:34.69	32.30	9.38	-49.3	-51.7	20.9	6.01e-01	0	55	0	133693440	62	4576
2026-01-04 00:15:35.68	32.43	9.45	-49.3	-51.7	20.9	6.04e-01	0	55	0	135266304	62	4557
2026-01-04 00:15:36.67	32.55	9.52	-49.3	-51.7	20.9	6.01e-01	0	55	0	137363456	62	4564
2026-01-04 00:15:37.66	32.68	9.59	-49.3	-51.7	20.9	6.03e-01	0	55	0	138936320	62	4585
2026-01-04 00:15:38.65	32.81	9.66	-49.4	-51.8	20.9	6.02e-01	0	55	0	141033472	62	4623
2026-01-04 00:15:39.64	32.94	9.73	-49.4	-51.8	20.8	6.02e-01	0	55	0	142606336	62	4645
2026-01-04 00:15:40.63	33.06	9.80	-49.3	-51.7	21.0	6.00e-01	0	55	0	144703488	62	4563
2026-01-04 00:15:41.62	33.19	9.87	-49.1	-51.5	21.1	6.00e-01	0	55	0	146276352	61	4718
2026-01-04 00:15:42.61	33.32	9.94	-49.2	-51.5	21.1	6.01e-01	0	55	0	148373504	61	4731
2026-01-04 00:15:43.60	33.45	10.01	-49.2	-51.6	21.1	6.01e-01	0	55	0	150470656	61	4764
2026-01-04 00:15:44.59	33.59	10.08	-49.3	-51.6	21.1	6.02e-01	0	55	0	152043520	61	4801
2026-01-04 00:15:45.58	33.72	10.15	-49.3	-51.7	21.0	6.02e-01	0	55	0	154140672	61	4822
2026-01-04 00:15:46.56	33.85	10.22	-49.2	-51.6	21.1	6.02e-01	0	55	0	155713536	61	4775
2026-01-04 00:15:47.55	33.98	10.29	-49.2	-51.6	21.1	6.00e-01	0	55	0	157810688	61	4761
2026-01-04 00:15:48.53	34.11	10.36	-49.2	-51.6	21.1	6.02e-01	0	55	0	159383552	61	4765
2026-01-04 00:15:49.51	34.25	10.43	-49.3	-51.7	21.0	6.02e-01	0	55	0	161480704	61	4825
2026-01-04 00:15:50.51	34.38	10.50	-49.2	-51.6	21.0	6.03e-01	0	55	0	163053568	61	4791
2026-01-04 00:15:51.50	34.52	10.57	-49.3	-51.6	21.1	6.02e-01	0	55	0	165150720	61	4790
2026-01-04 00:15:52.49	34.66	10.64	-49.3	-51.6	21.1	6.03e-01	0	55	0	166723584	61	4800
2026-01-04 00:15:53.47	34.79	10.71	-49.2	-51.5	21.2	6.04e-01	0	55	0	168820736	61	4715
2026-01-04 00:15:54.46	34.93	10.78	-49.1	-51.4	21.3	6.01e-01	0	55	0	170393600	61	4682
2026-01-04 00:15:55.45	35.07	10.85	-49.3	-51.7	21.0	6.01e-01	0	55	0	172490752	61	4826
2026-01-04 00:15:56.44	35.21	10.92	-49.3	-51.7	21.0	6.02e-01	0	55	0	174587904	61	4816
2026-01-04 00:15:57.44	35.35	11.00	-49.2	-51.5	21.2	6.02e-01	0	55	0	176160768	61	4735
2026-01-04 00:15:58.42	35.49	11.07	-49.1	-51.4	21.3	6.00e-01	0	55	0	178257920	61	4684
2026-01-04 00:15:59.41	35.63	11.14	-49.2	-51.5	21.3	6.02e-01	0	55	0	179830784	61	4730
2026-01-04 00:16:00.40	35.77	11.21	-49.3	-51.6	21.2	6.02e-01	0	55	0	181927936	61	4790
2026-01-04 00:16:01.39	35.92	11.28	-49.2	-51.5	21.2	6.00e-01	0	55	0	183500800	61	4745
2026-01-04 00:16:02.38	36.06	11.35	-49.3	-51.6	21.1	6.00e-01	0	55	0	185597952	61	4802
2026-01-04 00:16:03.37	36.20	11.43	-49.1	-51.4	21.3	6.02e-01	0	55	0	187170816	61	4661
2026-01-04 00:16:04.36	36.35	11.50	-48.9	-51.1	21.6	6.02e-01	0	55	0	189267968	61	4520
2026-01-04 00:16:05.35	36.50	11.57	-48.9	-51.1	21.7	6.02e-01	0	55	0	190840832	61	4499
2026-01-04 00:16:06.34	36.64	11.64	-48.9	-51.0	21.7	6.03e-01	0	55	0	192937984	61	4477
2026-01-04 00:16:07.33	36.79	11.72	-48.9	-51.0	21.7	6.01e-01	0	55	0	195035136	61	4465
2026-01-04 00:16:08.32	36.94	11.79	-48.9	-51.1	21.7	6.04e-01	0	55	0	196608000	61	4519
2026-01-04 00:16:09.30	37.09	11.86	-49.1	-51.3	21.4	6.02e-01	0	55	0	198705152	61	4639
2026-01-04 00:16:10.30	37.24	11.93	-49.2	-51.4	21.3	6.03e-01	0	55	0	200278016	61	4705
2026-01-04 00:16:11.29	37.39	12.01	-49.0	-51.2	21.6	6.03e-01	0	55	0	202375168	61	4582
2026-01-04 00:16:12.28	37.54	12.08	-49.0	-51.1	21.6	6.03e-01	0	55	0	203948032	61	4542
2026-01-04 00:16:13.27	37.69	12.15	-49.0	-51.2	21.6	6.02e-01	0	55	0	206045184	61	4569
2026-01-04 00:16:14.26	37.84	12.22	-49.1	-51.4	21.4	5.98e-01	0	55	0	207618048	61	4684
2026-01-04 00:16:15.25	38.00	12.30	-49.2	-51.5	21.2	6.02e-01	0	55	0	209715200	61	4751
2026-01-04 00:16:16.24	38.15	12.37	-49.1	-51.4	21.4	6.02e-01	0	55	0	211288064	61	4669
2026-01-04 00:16:17.23	38.31	12.44	-49.3	-51.7	21.1	6.01e-01	0	55	0	213385216	61	4832
2026-01-04 00:16:18.22	38.46	12.52	-49.5	-51.9	20.9	6.03e-01	0	55	0	215482368	61	4939
2026-01-04 00:16:19.21	38.62	12.59	-49.2	-51.5	21.3	6.01e-01	0	55	0	217055232	61	4725
2026-01-04 00:16:20.21	38.78	12.66	-49.0	-51.2	21.7	6.00e-01	0	55	0	218628096	61	4547
2026-01-04 00:16:21.20	38.94	12.74	-48.9	-51.0	21.8	6.04e-01	0	55	0	220725248	61	4450
2026-01-04 00:16:22.17	39.09	12.81	-48.8	-50.8	22.0	6.01e-01	0	55	0	222298112	61	4385
2026-01-04 00:16:23.16	39.25	12.88	-48.9	-51.0	21.8	6.02e-01	0	55	0	224395264	61	4451
2026-01-04 00:16:24.15	39.41	12.95	-48.9	-51.0	21.8	5.99e-01	0	55	0	226492416	61	4469
2026-01-04 00:16:25.14	39.58	13.03	-49.0	-51.2	21.6	6.01e-01	0	55	0	228065280	61	4584
2026-01-04 00:16:26.13	39.74	13.10	-48.8	-50.9	21.9	6.02e-01	0	55	0	230162432	61	4395
2026-01-04 00:16:27.12	39.90	13.18	-48.6	-50.6	22.2	6.01e-01	0	55	0	231735296	60	4517
2026-01-04 00:16:28.09	40.06	13.25	-48.6	-50.5	22.3	6.00e-01	0	55	0	233832448	60	4488
2026-01-04 00:16:29.08	40.23	13.32	-48.6	-50.6	22.2	6.02e-01	0	55	0	235405312	60	4537
2026-01-04 00:16:30.06	40.39	13.39	-48.6	-50.7	22.1	6.01e-01	0	56	0	237502464	60	4556
2026-01-04 00:16:31.04	40.56	13.47	-48.6	-50.6	22.2	6.01e-01	0	55	0	239075328	60	4542
2026-01-04 00:16:32.03	40.73	13.54	-48.6	-50.6	22.2	6.03e-01	0	56	0	241172480	60	4503
2026-01-04 00:16:33.02	40.89	13.62	-48.7	-50.7	22.2	5.99e-01	0	55	0	242745344	60	4555
2026-01-04 00:16:34.01	41.06	13.69	-48.8	-50.9	22.0	6.02e-01	0	56	0	244842496	60	4671
2026-01-04 00:16:35.00	41.23	13.76	-48.6	-50.6	22.2	6.03e-01	0	56	0	246415360	60	4532
2026-01-04 00:16:35.99	41.40	13.84	-48.8	-50.9	21.9	6.03e-01	0	56	0	248512512	60	4691
2026-01-04 00:16:36.98	41.58	13.91	-48.9	-51.0	21.8	6.02e-01	0	55	0	250609664	60	4732
2026-01-04 00:16:37.97	41.75	13.99	-48.9	-51.0	21.6	6.01e-01	0	56	0	252182528	60	4710
2026-01-04 00:16:38.95	41.92	14.06	-48.9	-51.0	21.8	6.02e-01	0	56	0	254279680	60	4758
2026-01-04 00:16:39.94	42.10	14.13	-49.0	-51.1	21.7	6.02e-01	0	55	0	255852544	60	4814
2026-01-04 00:16:40.93	42.27	14.21	-49.1	-51.3	21.6	6.03e-01	0	56	0	257949696	60	4915
2026-01-04 00:16:41.92	42.45	14.28	-49.0	-51.1	21.7	6.01e-01	0	56	0	259522560	60	4812
2026-01-04 00:16:42.91	42.63	14.35	-49.1	-51.3	21.6	6.03e-01	0	56	0	261619712	60	4897
2026-01-04 00:16:43.90	42.81	14.43	-49.3	-51.6	21.3	6.03e-01	0	56	0	263192576	60	5086
2026-01-04 00:16:44.88	42.98	14.50	-49.2	-51.4	21.5	6.02e-01	0	56	0	265289728	60	4968
2026-01-04 00:16:45.86	43.16	14.58	-49.3	-51.6	21.3	6.00e-01	0	56	0	266862592	60	5085
2026-01-04 00:16:46.85	43.34	14.65	-49.6	-52.0	20.9	6.02e-01	0	56	0	268959744	61	5040
2026-01-04 00:16:47.84	43.53	14.72	-49.4	-51.7	21.2	6.01e-01	0	56	0	270532608	61	4848
2026-01-04 00:16:48.84	43.71	14.80	-49.1	-51.3	21.6	5.99e-01	0	56	0	272629760	61	4633
2026-01-04 00:16:49.82	43.89	14.87	-48.9	-51.0	21.9	6.01e-01	0	56	0	274726912	61	4473
2026-01-04 00:16:50.81	44.08	14.95	-48.8	-50.9	22.0	6.03e-01	0	55	0	276299776	61	4421
2026-01-04 00:16:51.80	44.26	15.02	-48.9	-51.0	21.9	6.02e-01	0	56	0	278396928	61	4481
2026-01-04 00:16:52.79	44.45	15.09	-49.1	-51.3	21.6	6.03e-01	0	55	0	279969792	61	4612
2026-01-04 00:16:53.78	44.64	15.17	-49.0	-51.1	21.8	6.01e-01	0	55	0	282066944	61	4518
2026-01-04 00:16:54.77	44.83	15.24	-48.8	-50.9	22.0	6.03e-01	0	56	0	283639808	61	4405
2026-01-04 00:16:55.76	45.02	15.32	-48.7	-50.7	22.2	5.99e-01	0	56	0	285736960	61	4337
2026-01-04 00:16:56.76	45.21	15.39	-48.6	-50.6	22.3	6.04e-01	0	56	0	287309824	60	4528
2026-01-04 00:16:57.75	45.40	15.47	-48.7	-50.7	22.2	6.02e-01	0	55	0	289406976	60	4562
2026-01-04 00:16:58.73	45.59	15.54	-48.6	-50.6	22.3	6.00e-01	0	56	0	290979840	60	4521
2026-01-04 00:16:59.72	45.79	15.61	-48.8	-50.8	22.1	6.00e-01	0	56	0	293076992	60	4623
2026-01-04 00:17:00.70	45.98	15.69	-48.7	-50.7	22.2	6.00e-01	0	56	0	294649856	60	4561
2026-01-04 00:17:01.69	46.18	15.76	-48.5	-50.5	22.4	6.02e-01	0	56	0	296747008	60	4448
2026-01-04 00:17:02.67	46.37	15.83	-48.4	-50.3	22.6	5.99e-01	0	56	0	298319872	60	4367
2026-01-04 00:17:03.66	46.57	15.91	-48.4	-50.2	22.7	6.02e-01	0	56	0	300417024	60	4331
2026-01-04 00:17:04.65	46.77	15.98	-48.3	-50.2	22.7	6.04e-01	0	56	0	301989888	60	4307
2026-01-04 00:17:05.65	46.97	16.05	-48.3	-50.2	22.7	6.02e-01	0	56	0	304087040	60	4315
2026-01-04 00:17:06.63	47.17	16.13	-48.5	-50.4	22.5	6.04e-01	0	56	0	306184192	60	4401
2026-01-04 00:17:07.62	47.37	16.20	-48.5	-50.4	22.5	6.04e-01	0	56	0	307757056	60	4406
2026-01-04 00:17:08.61	47.57	16.27	-48.5	-50.4	22.5	6.02e-01	0	56	0	309854208	60	4408
2026-01-04 00:17:09.59	47.77	16.35	-48.6	-50.5	22.4	6.03e-01	0	56	0	311427072	60	4473
2026-01-04 00:17:10.58	47.98	16.42	-48.5	-50.4	22.5	6.02e-01	0	56	0	313524224	60	4428
2026-01-04 00:17:11.58	48.19	16.49	-48.4	-50.2	22.7	6.01e-01	0	56	0	315097088	60	4321
2026-01-04 00:17:12.56	48.39	16.57	-48.4	-50.3	22.6	6.03e-01	0	56	0	317194240	60	4345
2026-01-04 00:17:13.54	48.60	16.64	-48.6	-50.5	22.5	6.00e-01	0	56	0	318767104	60	4458
2026-01-04 00:17:14.54	48.81	16.71	-48.6	-50.5	22.4	6.00e-01	0	56	0	320864256	60	4467
2026-01-04 00:17:15.53	49.02	16.78	-48.4	-50.3	22.6	5.99e-01	0	56	0	322437120	60	4365
2026-01-04 00:17:16.53	49.23	16.86	-48.4	-50.3	22.6	6.02e-01	0	56	0	324534272	60	4377
2026-01-04 00:17:17.52	49.45	16.93	-48.5	-50.4	22.5	6.01e-01	0	56	0	326631424	60	4433
2026-01-04 00:17:18.51	49.66	17.00	-48.5	-50.5	22.4	6.00e-01	0	56	0	328204288	60	4456
2026-01-04 00:17:19.50	49.87	17.07	-48.6	-50.5	22.4	6.03e-01	0	56	0	330301440	60	4470
2026-01-04 00:17:20.49	50.09	17.15	-48.7	-50.7	22.2	6.00e-01	0	56	0	331874304	60	4572
2026-01-04 00:17:21.49	50.31	17.22	-48.7	-50.7	22.2	5.99e-01	0	56	0	333971456	60	4557
2026-01-04 00:17:22.47	50.52	17.29	-48.5	-50.4	22.5	6.01e-01	0	56	0	335544320	60	4413
2026-01-04 00:17:23.46	50.74	17.36	-48.4	-50.2	22.7	6.03e-01	0	56	0	337641472	60	4328
2026-01-04 00:17:24.45	50.96	17.43	-48.4	-50.3	22.6	5.99e-01	0	56	0	339214336	60	4372
2026-01-04 00:17:25.44	51.18	17.50	-48.5	-50.4	22.5	6.02e-01	0	56	0	341311488	60	4407
2026-01-04 00:17:26.43	51.41	17.58	-48.5	-50.4	22.6	6.01e-01	0	56	0	342884352	60	4404
2026-01-04 00:17:27.42	51.63	17.65	-48.5	-50.4	22.6	6.01e-01	0	56	0	344981504	60	4412
2026-01-04 00:17:28.40	51.85	17.72	-48.5	-50.5	22.5	5.99e-01	0	56	0	346554368	60	4450
2026-01-04 00:17:29.39	52.08	17.79	-48.5	-50.4	22.5	6.05e-01	0	56	0	348651520	60	4422
2026-01-04 00:17:30.37	52.30	17.86	-48.6	-50.6	22.4	6.01e-01	0	56	0	350224384	60	4497
2026-01-04 00:17:31.35	52.53	17.93	-48.7	-50.7	22.2	6.01e-01	0	56	0	352321536	60	4582
2026-01-04 00:17:32.35	52.76	18.00	-48.9	-50.9	22.1	6.02e-01	0	56	0	354418688	60	4687
2026-01-04 00:17:33.34	52.99	18.07	-48.8	-50.8	22.2	6.02e-01	0	56	0	355991552	60	4610
2026-01-04 00:17:34.33	53.22	18.14	-48.7	-50.7	22.2	6.02e-01	0	56	0	358088704	60	4569
2026-01-04 00:17:35.32	53.45	18.21	-48.8	-50.8	22.2	6.04e-01	0	56	0	359661568	60	4633
2026-01-04 00:17:36.31	53.68	18.28	-48.9	-51.0	22.0	6.02e-01	0	56	0	361758720	60	4738
2026-01-04 00:17:37.30	53.92	18.34	-48.9	-51.0	22.0	6.03e-01	0	56	0	363331584	60	4722
2026-01-04 00:17:38.29	54.15	18.41	-49.0	-51.1	21.9	6.01e-01	0	56	0	365428736	60	4766
2026-01-04 00:17:39.28	54.39	18.48	-48.7	-50.7	22.2	6.00e-01	0	56	0	367001600	60	4587
2026-01-04 00:17:40.27	54.62	18.55	-48.6	-50.5	22.5	6.03e-01	0	56	0	369098752	60	4464
2026-01-04 00:17:41.27	54.87	18.62	-48.6	-50.5	22.5	6.01e-01	0	56	0	370671616	60	4450
2026-01-04 00:17:42.25	55.10	18.69	-48.7	-50.6	22.4	6.02e-01	0	56	0	372768768	60	4533
2026-01-04 00:17:43.24	55.34	18.75	-48.9	-50.9	22.1	5.99e-01	0	56	0	374865920	60	4671
2026-01-04 00:17:44.23	55.58	18.82	-48.7	-50.7	22.2	6.03e-01	0	56	0	376438784	60	4589
2026-01-04 00:17:45.22	55.83	18.89	-48.6	-50.5	22.5	6.01e-01	0	56	0	378535936	60	4470
2026-01-04 00:17:46.21	56.07	18.95	-48.5	-50.4	22.6	6.01e-01	0	56	0	380108800	60	4412
2026-01-04 00:17:47.19	56.31	19.02	-48.6	-50.5	22.5	6.00e-01	0	56	0	382205952	60	4477
2026-01-04 00:17:48.18	56.56	19.09	-48.5	-50.4	22.5	6.03e-01	0	56	0	383778816	60	4429
2026-01-04 00:17:49.16	56.81	19.15	-48.5	-50.4	22.6	6.02e-01	0	56	0	385875968	60	4425
2026-01-04 00:17:50.15	57.05	19.22	-48.7	-50.6	22.4	6.01e-01	0	56	0	387448832	60	4529
2026-01-04 00:17:51.14	57.30	19.28	-48.8	-50.9	22.2	6.01e-01	0	56	0	389545984	60	4654
2026-01-04 00:17:52.14	57.56	19.35	-48.8	-50.8	22.2	6.05e-01	0	56	0	391118848	60	4629
2026-01-04 00:17:53.12	57.81	19.41	-48.9	-51.0	22.0	6.01e-01	0	56	0	393216000	60	4707
2026-01-04 00:17:54.12	58.06	19.48	-48.8	-50.8	22.2	6.04e-01	0	56	0	394788864	60	4610
2026-01-04 00:17:55.10	58.31	19.54	-48.7	-50.6	22.3	6.02e-01	0	56	0	396886016	60	4538
2026-01-04 00:17:56.09	58.57	19.60	-48.7	-50.7	22.3	6.02e-01	0	56	0	398458880	60	4565
2026-01-04 00:17:57.07	58.82	19.67	-48.9	-50.9	22.1	6.04e-01	0	56	0	400556032	60	4686
2026-01-04 00:17:58.07	59.08	19.73	-48.7	-50.7	22.2	5.99e-01	0	56	0	402128896	60	4589
2026-01-04 00:17:59.06	59.34	19.79	-48.6	-50.6	22.4	6.05e-01	0	56	0	404226048	60	4496
2026-01-04 00:18:00.05	59.60	19.85	-48.6	-50.5	22.5	6.03e-01	0	56	0	406323200	60	4463
2026-01-04 00:18:01.04	59.86	19.92	-48.7	-50.7	22.3	6.00e-01	0	56	0	407896064	60	4553
2026-01-04 00:18:02.03	60.12	19.98	-48.8	-50.8	22.2	6.01e-01	0	56	0	409993216	60	4635
2026-01-04 00:18:03.03	60.39	20.04	-48.6	-50.6	22.4	6.02e-01	0	56	0	411566080	60	4508
2026-01-04 00:18:04.01	60.65	20.10	-48.8	-50.7	22.3	6.02e-01	0	56	0	413663232	60	4588
2026-01-04 00:18:05.01	60.92	20.16	-48.7	-50.6	22.4	6.03e-01	0	56	0	415236096	60	4536
2026-01-04 00:18:06.00	61.18	20.22	-48.7	-50.6	22.4	6.04e-01	0	56	0	417333248	60	4527
2026-01-04 00:18:06.99	61.45	20.28	-48.7	-50.7	22.3	5.99e-01	0	56	0	418906112	60	4559
2026-01-04 00:18:07.98	61.72	20.34	-48.6	-50.5	22.6	6.04e-01	0	56	0	421003264	60	4448
2026-01-04 00:18:08.98	61.99	20.39	-48.7	-50.6	22.4	6.02e-01	0	56	0	423100416	60	4518
2026-01-04 00:18:09.96	62.26	20.45	-48.7	-50.7	22.4	6.02e-01	0	56	0	424673280	60	4558
2026-01-04 00:18:10.95	62.53	20.51	-48.7	-50.6	22.4	6.02e-01	0	56	0	426770432	60	4538
2026-01-04 00:18:11.94	62.80	20.57	-48.8	-50.8	22.2	6.01e-01	0	56	0	428343296	60	4651
2026-01-04 00:18:12.93	63.07	20.62	-48.7	-50.7	22.3	6.05e-01	0	56	0	430440448	60	4587
2026-01-04 00:18:13.91	63.34	20.68	-48.9	-51.0	22.1	6.02e-01	0	56	0	432013312	60	4723
2026-01-04 00:18:14.90	63.62	20.73	-48.8	-50.8	22.2	6.03e-01	0	56	0	434110464	60	4615
2026-01-04 00:18:15.90	63.90	20.79	-48.8	-50.7	22.3	6.00e-01	0	56	0	435683328	60	4589
2026-01-04 00:18:16.89	64.18	20.84	-48.8	-50.8	22.3	6.01e-01	0	56	0	437780480	60	4617
2026-01-04 00:18:17.87	64.45	20.90	-48.9	-50.9	22.1	6.00e-01	0	56	0	439353344	60	4673
2026-01-04 00:18:18.86	64.73	20.95	-48.7	-50.7	22.3	5.99e-01	0	56	0	441450496	60	4566
2026-01-04 00:18:19.85	65.01	21.00	-48.8	-50.8	22.3	6.02e-01	0	56	0	443023360	60	4608
2026-01-04 00:18:20.84	65.29	21.05	-48.8	-50.8	22.3	6.02e-01	0	56	0	445120512	60	4623
2026-01-04 00:18:21.83	65.57	21.11	-48.8	-50.8	22.3	6.03e-01	0	56	0	447217664	60	4627
2026-01-04 00:18:22.83	65.86	21.16	-49.1	-51.2	21.9	6.01e-01	0	56	0	448790528	60	4859
2026-01-04 00:18:23.82	66.15	21.21	-49.1	-51.3	21.8	6.02e-01	0	56	0	450887680	60	4875
2026-01-04 00:18:24.81	66.43	21.26	-49.1	-51.2	21.9	6.03e-01	0	56	0	452460544	60	4818
2026-01-04 00:18:25.80	66.72	21.31	-49.2	-51.4	21.7	6.02e-01	0	56	0	454557696	60	4964
2026-01-04 00:18:26.80	67.01	21.36	-49.3	-51.5	21.6	6.02e-01	0	56	0	456130560	60	4986
2026-01-04 00:18:27.78	67.29	21.40	-49.2	-51.4	21.7	6.01e-01	0	56	0	458227712	60	4939
2026-01-04 00:18:28.76	67.58	21.45	-49.3	-51.5	21.6	6.01e-01	0	56	0	459800576	60	5036
2026-01-04 00:18:29.74	67.87	21.50	-49.4	-51.6	21.5	6.01e-01	0	56	0	461897728	61	4807
2026-01-04 00:18:30.72	68.15	21.54	-49.5	-51.9	21.3	6.02e-01	0	56	0	463470592	61	4927
2026-01-04 00:18:31.72	68.45	21.59	-49.3	-51.5	21.5	6.02e-01	0	56	0	465567744	61	4752
2026-01-04 00:18:32.70	68.74	21.64	-49.2	-51.3	21.8	6.02e-01	0	56	0	467140608	61	4618
2026-01-04 00:18:33.69	69.03	21.68	-49.1	-51.2	21.8	6.03e-01	0	56	0	469237760	61	4590
2026-01-04 00:18:34.69	69.33	21.72	-49.1	-51.2	21.9	6.02e-01	0	56	0	471334912	61	4571
2026-01-04 00:18:35.68	69.62	21.77	-49.2	-51.4	21.8	6.00e-01	0	56	0	472907776	61	4652
2026-01-04 00:18:36.68	69.92	21.81	-49.5	-51.8	21.3	6.02e-01	0	56	0	475004928	61	4913
2026-01-04 00:18:37.66	70.22	21.85	-49.4	-51.6	21.5	6.01e-01	0	56	0	476577792	61	4793
2026-01-04 00:18:38.65	70.52	21.89	-49.2	-51.3	21.8	6.01e-01	0	56	0	478674944	61	4613
2026-01-04 00:18:39.64	70.81	21.93	-49.2	-51.4	21.7	6.01e-01	0	56	0	480247808	61	4658
2026-01-04 00:18:40.63	71.11	21.97	-49.2	-51.4	21.7	6.01e-01	0	56	0	482344960	61	4685
2026-01-04 00:18:41.63	71.42	22.01	-49.3	-51.4	21.7	6.02e-01	0	56	0	483917824	61	4687
2026-01-04 00:18:42.62	71.72	22.05	-49.5	-51.8	21.3	6.01e-01	0	56	0	486014976	61	4913
2026-01-04 00:18:43.60	72.02	22.09	-49.6	-52.0	21.1	6.03e-01	0	56	0	487587840	61	4996
2026-01-04 00:18:44.59	72.32	22.13	-49.5	-51.8	21.3	6.05e-01	0	56	0	489684992	61	4890
2026-01-04 00:18:45.57	72.62	22.16	-49.7	-52.1	21.0	6.00e-01	0	56	0	491257856	61	5093
2026-01-04 00:18:46.57	72.93	22.20	-49.7	-52.2	20.9	6.00e-01	0	56	0	493355008	61	5104
2026-01-04 00:18:47.55	73.23	22.23	-49.5	-51.8	21.3	6.03e-01	0	56	0	494927872	61	4909
2026-01-04 00:18:48.54	73.53	22.27	-49.4	-51.6	21.5	5.98e-01	0	56	0	497025024	61	4778
2026-01-04 00:18:49.53	73.84	22.30	-49.2	-51.4	21.7	6.04e-01	0	56	0	499122176	61	4662
2026-01-04 00:18:50.52	74.15	22.33	-49.1	-51.2	21.9	6.01e-01	0	56	0	500695040	61	4566
2026-01-04 00:18:51.52	74.46	22.37	-49.0	-51.0	22.0	6.01e-01	0	56	0	502792192	61	4487
2026-01-04 00:18:52.50	74.76	22.40	-49.1	-51.2	21.9	6.05e-01	0	56	0	504365056	61	4556
2026-01-04 00:18:53.49	75.07	22.43	-49.1	-51.3	21.9	6.01e-01	0	56	0	506462208	61	4606
2026-01-04 00:18:54.48	75.38	22.46	-49.1	-51.2	21.8	6.01e-01	0	56	0	508035072	61	4596
2026-01-04 00:18:55.47	75.69	22.48	-49.4	-51.7	21.5	6.01e-01	0	56	0	510132224	61	4822
2026-01-04 00:18:56.45	76.00	22.51	-49.5	-51.8	21.3	6.03e-01	0	56	0	511705088	61	4892
2026-01-04 00:18:57.45	76.31	22.54	-49.2	-51.3	21.8	6.01e-01	0	56	0	513802240	61	4608
2026-01-04 00:18:58.43	76.62	22.57	-49.0	-51.0	22.0	5.99e-01	0	56	0	515375104	61	4473
2026-01-04 00:18:59.41	76.93	22.59	-48.9	-50.9	22.2	6.02e-01	0	56	0	517472256	61	4419
2026-01-04 00:19:00.40	77.24	22.62	-48.9	-50.9	22.1	5.99e-01	0	56	0	519045120	61	4436
2026-01-04 00:19:01.39	77.55	22.64	-49.0	-51.0	22.1	6.03e-01	0	56	0	521142272	61	4477
2026-01-04 00:19:02.38	77.87	22.66	-49.2	-51.4	21.7	6.02e-01	0	56	0	523239424	61	4687
2026-01-04 00:19:03.37	78.18	22.69	-49.3	-51.5	21.5	6.03e-01	0	56	0	524812288	61	4758
2026-01-04 00:19:04.36	78.50	22.71	-49.0	-51.1	21.9	6.02e-01	0	56	0	526909440	61	4522
2026-01-04 00:19:05.35	78.81	22.73	-48.9	-50.9	22.2	6.02e-01	0	56	0	528482304	61	4404
2026-01-04 00:19:06.34	79.13	22.75	-48.8	-50.7	22.3	6.00e-01	0	56	0	530579456	61	4329
2026-01-04 00:19:07.33	79.44	22.77	-48.7	-50.7	22.4	6.01e-01	0	56	0	532152320	61	4314
2026-01-04 00:19:08.32	79.76	22.79	-48.9	-51.0	22.1	6.04e-01	0	56	0	534249472	61	4447
2026-01-04 00:19:09.30	80.07	22.80	-49.0	-51.0	22.1	6.00e-01	0	56	0	535822336	61	4478
2026-01-04 00:19:10.29	80.39	22.82	-48.8	-50.7	22.3	6.03e-01	0	56	0	537919488	61	4331
2026-01-04 00:19:11.28	80.71	22.83	-48.8	-50.8	22.3	6.01e-01	0	56	0	539492352	61	4375
2026-01-04 00:19:12.26	81.02	22.85	-49.0	-51.1	22.0	6.01e-01	0	56	0	541589504	61	4508
2026-01-04 00:19:13.26	81.34	22.86	-49.1	-51.1	21.9	5.99e-01	0	56	0	543162368	61	4538
2026-01-04 00:19:14.24	81.66	22.88	-49.2	-51.3	21.8	6.04e-01	0	56	0	545259520	61	4629
2026-01-04 00:19:15.24	81.98	22.89	-49.1	-51.1	22.0	6.01e-01	0	56	0	547356672	61	4536
2026-01-04 00:19:16.22	82.30	22.90	-49.1	-51.2	21.9	6.02e-01	0	56	0	548929536	61	4570
2026-01-04 00:19:17.21	82.62	22.91	-49.1	-51.2	21.9	5.99e-01	0	56	0	551026688	61	4558
2026-01-04 00:19:18.20	82.94	22.92	-49.0	-51.0	22.1	6.02e-01	0	56	0	552599552	61	4477
2026-01-04 00:19:19.19	83.25	22.93	-49.2	-51.3	21.8	6.03e-01	0	56	0	554696704	61	4627
2026-01-04 00:19:20.18	83.57	22.94	-49.2	-51.4	21.7	6.02e-01	0	56	0	556269568	61	4659
2026-01-04 00:19:21.17	83.89	22.94	-48.9	-50.9	22.2	6.02e-01	0	56	0	558366720	61	4427
2026-01-04 00:19:22.16	84.21	22.95	-48.6	-50.5	22.5	6.01e-01	0	56	0	559939584	60	4493
2026-01-04 00:19:23.14	84.53	22.95	-48.6	-50.5	22.5	6.01e-01	0	56	0	562036736	60	4481
2026-01-04 00:19:24.13	84.85	22.96	-48.7	-50.7	22.4	5.99e-01	0	56	0	563609600	60	4568
2026-01-04 00:19:25.12	85.17	22.96	-48.9	-50.9	22.2	6.02e-01	0	56	0	565706752	60	4658
2026-01-04 00:19:26.11	85.49	22.97	-48.7	-50.7	22.4	6.02e-01	0	56	0	567279616	60	4573
2026-01-04 00:19:27.10	85.81	22.97	-48.7	-50.6	22.5	6.02e-01	0	56	0	569376768	60	4510
2026-01-04 00:19:28.08	86.13	22.97	-48.7	-50.6	22.5	6.04e-01	0	56	0	570949632	60	4521
2026-01-04 00:19:29.07	86.45	22.97	-48.7	-50.7	22.4	6.00e-01	0	56	0	573046784	60	4547
2026-01-04 00:19:30.05	86.77	22.97	-48.6	-50.5	22.5	6.02e-01	0	56	0	574619648	60	4486
2026-01-04 00:19:31.03	87.09	22.97	-48.8	-50.7	22.3	6.00e-01	0	56	0	576716800	60	4593
2026-01-04 00:19:32.02	87.41	22.96	-48.7	-50.7	22.4	6.00e-01	0	56	0	578289664	60	4565
2026-01-04 00:19:33.00	87.72	22.96	-48.7	-50.7	22.4	6.04e-01	0	56	0	580386816	60	4549
2026-01-04 00:19:33.99	88.04	22.95	-49.0	-51.0	22.0	6.04e-01	0	56	0	582483968	60	4749
2026-01-04 00:19:34.99	88.37	22.95	-48.7	-50.7	22.4	6.04e-01	0	56	0	584056832	60	4559
2026-01-04 00:19:35.98	88.69	22.94	-48.7	-50.6	22.5	6.02e-01	0	56	0	586153984	60	4507
2026-01-04 00:19:36.97	89.01	22.94	-48.8	-50.9	22.3	6.04e-01	0	56	0	587726848	60	4652
2026-01-04 00:19:37.95	89.32	22.93	-48.7	-50.6	22.4	6.03e-01	0	56	0	589824000	60	4542
2026-01-04 00:19:38.94	89.64	22.92	-48.8	-50.7	22.3	6.05e-01	0	56	0	591396864	60	4585
2026-01-04 00:19:39.93	89.96	22.91	-48.9	-51.0	22.1	6.01e-01	0	56	0	593494016	60	4709
2026-01-04 00:19:40.92	90.28	22.90	-48.8	-50.8	22.3	6.01e-01	0	56	0	595066880	60	4600
2026-01-04 00:19:41.90	90.60	22.89	-48.7	-50.6	22.5	5.99e-01	0	56	0	597164032	60	4505
2026-01-04 00:19:42.88	90.91	22.88	-48.6	-50.6	22.5	6.00e-01	0	56	0	598736896	60	4505
2026-01-04 00:19:43.86	91.23	22.86	-48.7	-50.6	22.4	6.02e-01	0	56	0	600834048	60	4544
2026-01-04 00:19:44.85	91.55	22.85	-48.7	-50.7	22.4	6.01e-01	0	56	0	602406912	60	4569
2026-01-04 00:19:45.85	91.87	22.83	-48.7	-50.6	22.5	6.01e-01	0	56	0	604504064	60	4509
2026-01-04 00:19:46.84	92.19	22.82	-48.7	-50.7	22.4	6.00e-01	0	56	0	606601216	60	4550
2026-01-04 00:19:47.83	92.50	22.80	-48.6	-50.6	22.5	6.02e-01	0	56	0	608174080	60	4499
2026-01-04 00:19:48.82	92.82	22.78	-48.6	-50.5	22.6	6.03e-01	0	56	0	610271232	60	4450
2026-01-04 00:19:49.81	93.14	22.77	-48.6	-50.5	22.5	6.02e-01	0	56	0	611844096	60	4491
2026-01-04 00:19:50.80	93.45	22.75	-48.9	-50.9	22.2	6.01e-01	0	56	0	613941248	60	4672
2026-01-04 00:19:51.79	93.77	22.73	-48.7	-50.7	22.4	6.01e-01	0	56	0	615514112	60	4558
2026-01-04 00:19:52.78	94.09	22.71	-48.5	-50.4	22.6	6.03e-01	0	56	0	617611264	60	4433
2026-01-04 00:19:53.77	94.40	22.68	-48.5	-50.4	22.6	5.98e-01	0	56	0	619184128	60	4419
2026-01-04 00:19:54.76	94.71	22.66	-48.5	-50.4	22.6	6.01e-01	0	56	0	621281280	60	4436
2026-01-04 00:19:55.74	95.03	22.64	-48.6	-50.5	22.5	6.01e-01	0	56	0	622854144	60	4481
2026-01-04 00:19:56.73	95.34	22.61	-48.8	-50.8	22.3	6.02e-01	0	56	0	624951296	60	4606
2026-01-04 00:19:57.73	95.66	22.59	-48.7	-50.7	22.4	6.01e-01	0	56	0	627048448	60	4553
2026-01-04 00:19:58.71	95.97	22.56	-48.5	-50.4	22.7	6.00e-01	0	56	0	628621312	60	4411
2026-01-04 00:19:59.70	96.28	22.54	-48.4	-50.2	22.9	6.02e-01	0	56	0	630194176	60	4300
2026-01-04 00:20:00.70	96.59	22.51	-48.5	-50.3	22.8	6.02e-01	0	56	0	632291328	60	4369
2026-01-04 00:20:01.69	96.90	22.48	-48.6	-50.5	22.6	6.02e-01	0	56	0	634388480	60	4443
2026-01-04 00:20:02.68	97.21	22.45	-48.5	-50.3	22.7	5.99e-01	0	56	0	635961344	60	4376
2026-01-04 00:20:03.68	97.53	22.42	-48.6	-50.5	22.6	6.02e-01	0	56	0	638058496	60	4470
2026-01-04 00:20:04.66	97.83	22.39	-48.6	-50.6	22.5	6.02e-01	0	56	0	639631360	60	4505
2026-01-04 00:20:05.64	98.14	22.36	-48.6	-50.5	22.5	6.02e-01	0	56	0	641728512	60	4476
2026-01-04 00:20:06.64	98.45	22.33	-48.7	-50.7	22.4	6.00e-01	0	56	0	643301376	60	4566
2026-01-04 00:20:07.62	98.75	22.30	-48.6	-50.6	22.5	5.99e-01	0	56	0	645398528	60	4495
2026-01-04 00:20:08.62	99.06	22.26	-48.6	-50.6	22.5	6.03e-01	0	56	0	646971392	60	4498
2026-01-04 00:20:09.61	99.37	22.23	-48.8	-50.7	22.3	6.01e-01	0	56	0	649068544	60	4592
2026-01-04 00:20:10.59	99.67	22.19	-48.7	-50.7	22.4	6.03e-01	0	56	0	650641408	60	4563
2026-01-04 00:20:11.58	99.97	22.16	-48.6	-50.5	22.6	6.04e-01	0	56	0	652738560	60	4446
2026-01-04 00:20:12.57	100.28	22.12	-48.6	-50.4	22.6	6.03e-01	0	56	0	654835712	60	4434
2026-01-04 00:20:13.56	100.58	22.08	-48.6	-50.6	22.5	6.00e-01	0	56	0	656408576	60	4506
2026-01-04 00:20:14.55	100.88	22.05	-48.5	-50.4	22.6	6.01e-01	0	56	0	658505728	60	4426
2026-01-04 00:20:15.54	101.19	22.01	-48.3	-50.1	22.9	6.02e-01	0	56	0	660078592	60	4268
2026-01-04 00:20:16.53	101.49	21.97	-48.3	-50.1	23.0	6.01e-01	0	57	0	662175744	60	4257
2026-01-04 00:20:17.52	101.79	21.93	-48.4	-50.2	22.9	6.00e-01	0	57	0	663748608	60	4315
2026-01-04 00:20:18.51	102.09	21.89	-48.5	-50.3	22.7	6.02e-01	0	56	0	665845760	60	4378
2026-01-04 00:20:19.51	102.39	21.85	-48.4	-50.3	22.7	6.01e-01	0	56	0	667418624	60	4362
2026-01-04 00:20:20.50	102.68	21.80	-48.4	-50.2	22.8	6.02e-01	0	56	0	669515776	60	4313
2026-01-04 00:20:21.50	102.98	21.76	-48.3	-50.2	22.9	6.02e-01	0	56	0	671088640	60	4303
2026-01-04 00:20:22.48	103.28	21.72	-48.3	-50.1	23.0	5.99e-01	0	56	0	673185792	60	4262
2026-01-04 00:20:23.48	103.58	21.67	-48.4	-50.2	22.9	6.02e-01	0	56	0	675282944	60	4306
2026-01-04 00:20:24.46	103.87	21.63	-48.4	-50.2	22.8	5.99e-01	0	56	0	676855808	60	4334
2026-01-04 00:20:25.45	104.16	21.58	-48.5	-50.3	22.7	6.00e-01	0	56	0	678952960	60	4378
2026-01-04 00:20:26.44	104.45	21.54	-48.6	-50.5	22.5	6.03e-01	0	56	0	680525824	60	4459
2026-01-04 00:20:27.43	104.74	21.49	-48.5	-50.4	22.7	6.01e-01	0	56	0	682622976	60	4398
2026-01-04 00:20:28.42	105.03	21.44	-48.4	-50.3	22.7	6.03e-01	0	56	0	684195840	60	4349
2026-01-04 00:20:29.41	105.32	21.40	-48.4	-50.2	22.8	6.00e-01	0	56	0	686292992	60	4311
2026-01-04 00:20:30.39	105.61	21.35	-48.6	-50.5	22.6	6.01e-01	0	56	0	687865856	60	4447
2026-01-04 00:20:31.38	105.90	21.30	-48.7	-50.7	22.4	6.03e-01	0	56	0	689963008	60	4546
2026-01-04 00:20:32.36	106.18	21.25	-48.5	-50.4	22.6	6.02e-01	0	57	0	691535872	60	4397
2026-01-04 00:20:33.35	106.47	21.20	-48.3	-50.1	22.9	6.01e-01	0	56	0	693633024	60	4290
2026-01-04 00:20:34.34	106.75	21.15	-48.5	-50.3	22.7	6.00e-01	0	57	0	695205888	60	4376
2026-01-04 00:20:35.33	107.04	21.10	-48.5	-50.4	22.6	6.00e-01	0	56	0	697303040	60	4406
2026-01-04 00:20:36.31	107.32	21.04	-48.4	-50.2	22.8	6.03e-01	0	56	0	698875904	60	4317
2026-01-04 00:20:37.30	107.60	20.99	-48.2	-50.0	22.9	6.04e-01	0	56	0	700973056	60	4219
2026-01-04 00:20:38.29	107.88	20.94	-48.2	-50.0	23.0	6.02e-01	0	56	0	703070208	60	4212
2026-01-04 00:20:39.27	108.16	20.89	-48.3	-50.0	23.0	6.02e-01	0	56	0	704643072	60	4236
2026-01-04 00:20:40.26	108.44	20.83	-48.2	-50.0	23.0	6.03e-01	0	56	0	706740224	60	4221
2026-01-04 00:20:41.24	108.71	20.78	-48.2	-50.0	23.0	6.01e-01	0	56	0	708313088	60	4241
2026-01-04 00:20:42.24	108.99	20.72	-48.4	-50.2	22.8	6.01e-01	0	56	0	710410240	60	4327
2026-01-04 00:20:43.23	109.27	20.67	-48.5	-50.4	22.6	6.03e-01	0	56	0	711983104	60	4400
2026-01-04 00:20:44.22	109.54	20.61	-48.4	-50.3	22.7	6.00e-01	0	56	0	714080256	60	4368
2026-01-04 00:20:45.21	109.82	20.55	-48.5	-50.5	22.5	6.00e-01	0	56	0	715653120	60	4445
2026-01-04 00:20:46.20	110.09	20.50	-48.3	-50.1	22.8	5.99e-01	0	56	0	717750272	60	4289
2026-01-04 00:20:47.19	110.36	20.44	-48.5	-50.3	23.0	6.02e-01	0	56	0	719323136	59	4635
2026-01-04 00:20:48.17	110.63	20.38	-48.5	-50.3	23.0	6.02e-01	0	56	0	721420288	59	4642
2026-01-04 00:20:49.16	110.90	20.32	-48.5	-50.3	23.0	6.00e-01	0	56	0	722993152	59	4647
2026-01-04 00:20:50.15	111.17	20.26	-48.6	-50.4	23.0	6.02e-01	0	56	0	725090304	59	4661
2026-01-04 00:20:51.13	111.43	20.20	-48.5	-50.3	23.0	5.99e-01	0	56	0	726663168	59	4631
2026-01-04 00:20:52.12	111.70	20.15	-48.5	-50.3	23.0	6.00e-01	0	56	0	728760320	59	4650
2026-01-04 00:20:53.10	111.96	20.09	-48.5	-50.3	23.0	6.02e-01	0	56	0	730333184	59	4642
2026-01-04 00:20:54.10	112.23	20.02	-48.6	-50.4	22.9	6.02e-01	0	56	0	732430336	59	4695
2026-01-04 00:20:55.10	112.50	19.96	-48.6	-50.5	22.9	6.03e-01	0	56	0	734527488	59	4718
2026-01-04 00:20:56.08	112.76	19.90	-48.7	-50.6	22.7	6.05e-01	0	56	0	736100352	59	4777
2026-01-04 00:20:57.07	113.02	19.84	-48.8	-50.6	22.7	5.99e-01	0	56	0	738197504	59	4813
2026-01-04 00:20:58.06	113.28	19.78	-48.9	-50.8	22.5	6.01e-01	0	57	0	739770368	59	4913
2026-01-04 00:20:59.05	113.54	19.71	-48.6	-50.4	22.9	6.00e-01	0	57	0	741867520	59	4670
2026-01-04 00:21:00.04	113.80	19.65	-48.4	-50.2	23.1	6.03e-01	0	56	0	743440384	59	4585
2026-01-04 00:21:01.02	114.05	19.59	-48.5	-50.3	23.1	6.02e-01	0	56	0	745537536	59	4599
2026-01-04 00:21:02.02	114.31	19.52	-48.6	-50.5	22.9	6.03e-01	0	57	0	747110400	59	4706
2026-01-04 00:21:03.00	114.56	19.46	-48.7	-50.6	22.8	6.01e-01	0	56	0	749207552	59	4780
2026-01-04 00:21:03.98	114.81	19.40	-48.6	-50.5	22.8	6.01e-01	0	56	0	750780416	59	4707
2026-01-04 00:21:04.96	115.06	19.33	-48.5	-50.3	23.0	6.03e-01	0	56	0	752877568	59	4643
2026-01-04 00:21:05.95	115.31	19.27	-48.5	-50.3	23.0	6.02e-01	0	56	0	754450432	59	4637
2026-01-04 00:21:06.94	115.56	19.20	-48.7	-50.6	22.7	6.02e-01	0	56	0	756547584	59	4779
2026-01-04 00:21:07.93	115.81	19.14	-48.6	-50.5	22.8	6.01e-01	0	56	0	758644736	59	4715
2026-01-04 00:21:08.92	116.06	19.07	-48.7	-50.6	22.7	6.01e-01	0	56	0	760217600	59	4790
2026-01-04 00:21:09.91	116.31	19.00	-48.6	-50.5	21.9	6.05e-01	0	56	0	762314752	60	4488
2026-01-04 00:21:10.90	116.55	18.94	-48.9	-51.0	22.0	6.02e-01	0	57	0	763887616	60	4731
2026-01-04 00:21:11.89	116.80	18.87	-48.7	-50.7	22.3	6.02e-01	0	56	0	765984768	60	4562
2026-01-04 00:21:12.88	117.04	18.80	-48.4	-50.3	22.7	5.99e-01	0	57	0	767557632	60	4367
2026-01-04 00:21:13.87	117.28	18.73	-48.3	-50.1	22.8	6.01e-01	0	56	0	769654784	60	4291
2026-01-04 00:21:14.86	117.53	18.67	-48.2	-50.0	22.9	6.02e-01	0	56	0	771227648	60	4234
2026-01-04 00:21:15.86	117.77	18.60	-48.2	-50.1	22.9	6.01e-01	0	56	0	773324800	60	4244
2026-01-04 00:21:16.85	118.01	18.53	-48.3	-50.2	22.8	6.02e-01	0	56	0	774897664	60	4292
2026-01-04 00:21:17.84	118.25	18.46	-48.2	-50.0	22.9	6.03e-01	0	56	0	776994816	60	4221
2026-01-04 00:21:18.83	118.48	18.39	-48.5	-50.3	23.0	6.04e-01	0	56	0	779091968	59	4608
2026-01-04 00:21:19.82	118.72	18.32	-48.5	-50.4	22.9	6.02e-01	0	56	0	780664832	59	4662
2026-01-04 00:21:20.80	118.95	18.25	-48.5	-50.3	23.0	6.01e-01	0	56	0	782761984	59	4631
2026-01-04 00:21:21.78	119.18	18.18	-48.4	-50.2	23.1	6.01e-01	0	56	0	784334848	59	4564
2026-01-04 00:21:22.77	119.42	18.11	-48.4	-50.2	23.1	6.02e-01	0	56	0	786432000	59	4587
2026-01-04 00:21:23.75	119.64	18.04	-48.6	-50.4	22.9	6.01e-01	0	56	0	788004864	59	4678
2026-01-04 00:21:24.74	119.87	17.97	-48.4	-50.2	23.1	6.00e-01	0	56	0	790102016	59	4590
2026-01-04 00:21:25.74	120.11	17.90	-48.4	-50.1	23.1	6.00e-01	0	56	0	791674880	59	4533
2026-01-04 00:21:26.73	120.33	17.83	-48.3	-50.1	23.2	6.01e-01	0	56	0	793772032	59	4530
2026-01-04 00:21:27.72	120.56	17.76	-48.4	-50.2	23.2	6.00e-01	0	57	0	795344896	59	4554
2026-01-04 00:21:28.70	120.79	17.69	-48.4	-50.2	23.1	6.00e-01	0	57	0	797442048	59	4558
2026-01-04 00:21:29.68	121.01	17.62	-48.4	-50.2	23.1	6.00e-01	0	57	0	799014912	59	4593
2026-01-04 00:21:30.67	121.23	17.55	-48.6	-50.4	22.9	6.03e-01	0	56	0	801112064	59	4678
2026-01-04 00:21:31.66	121.45	17.48	-48.5	-50.3	22.9	6.02e-01	0	57	0	802684928	59	4648
2026-01-04 00:21:32.65	121.68	17.41	-48.4	-50.2	23.1	6.02e-01	0	56	0	804782080	59	4570
2026-01-04 00:21:33.63	121.89	17.33	-48.5	-50.3	23.0	6.02e-01	0	56	0	806354944	59	4643
2026-01-04 00:21:34.62	122.11	17.26	-48.5	-50.3	22.9	6.02e-01	0	56	0	808452096	59	4632
2026-01-04 00:21:35.62	122.34	17.19	-48.5	-50.4	22.9	6.03e-01	0	57	0	810024960	59	4667
2026-01-04 00:21:36.60	122.55	17.12	-48.5	-50.3	23.0	6.02e-01	0	56	0	812122112	59	4640
2026-01-04 00:21:37.59	122.77	17.04	-48.4	-50.2	23.1	5.99e-01	0	56	0	814219264	59	4564
2026-01-04 00:21:38.57	122.98	16.97	-48.3	-50.1	23.1	6.01e-01	0	56	0	815792128	59	4516
2026-01-04 00:21:39.56	123.19	16.90	-48.4	-50.2	23.0	6.03e-01	0	56	0	817889280	59	4547
2026-01-04 00:21:40.55	123.41	16.83	-48.4	-50.2	23.1	6.01e-01	0	56	0	819462144	59	4551
2026-01-04 00:21:41.54	123.62	16.75	-48.3	-50.0	23.1	6.02e-01	0	57	0	821559296	59	4488
2026-01-04 00:21:42.54	123.83	16.68	-48.4	-50.1	23.1	6.04e-01	0	57	0	823132160	59	4532
2026-01-04 00:21:43.52	124.04	16.61	-48.4	-50.3	23.0	6.02e-01	0	57	0	825229312	59	4599
2026-01-04 00:21:44.51	124.25	16.53	-48.6	-50.5	22.8	6.03e-01	0	56	0	826802176	59	4713
2026-01-04 00:21:45.50	124.46	16.46	-48.6	-50.4	22.8	6.04e-01	0	56	0	828899328	59	4704
2026-01-04 00:21:46.49	124.66	16.39	-48.6	-50.4	22.8	6.00e-01	0	56	0	830472192	59	4684
2026-01-04 00:21:47.48	124.87	16.31	-48.7	-50.6	22.6	6.02e-01	0	56	0	832569344	59	4812
2026-01-04 00:21:48.47	125.07	16.24	-48.8	-50.7	22.6	6.00e-01	0	56	0	834142208	59	4826
2026-01-04 00:21:49.46	125.28	16.17	-48.7	-50.5	22.7	6.01e-01	0	56	0	836239360	59	4747
2026-01-04 00:21:50.46	125.48	16.09	-48.6	-50.5	22.7	6.02e-01	0	56	0	838336512	59	4741
2026-01-04 00:21:51.44	125.68	16.02	-48.6	-50.4	22.8	6.05e-01	0	57	0	839909376	59	4684
2026-01-04 00:21:52.43	125.88	15.94	-48.6	-50.4	22.8	6.01e-01	0	57	0	842006528	59	4688
2026-01-04 00:21:53.42	126.08	15.87	-48.6	-50.5	22.7	5.99e-01	0	56	0	843579392	59	4737
2026-01-04 00:21:54.41	126.28	15.80	-48.8	-50.7	22.6	6.01e-01	0	56	0	845676544	59	4843
2026-01-04 00:21:55.40	126.48	15.72	-48.6	-50.6	22.4	6.04e-01	0	57	0	847249408	60	4496
2026-01-04 00:21:56.39	126.67	15.65	-48.8	-50.8	22.1	6.01e-01	0	57	0	849346560	60	4630
2026-01-04 00:21:57.38	126.87	15.57	-48.9	-50.9	22.0	6.01e-01	0	56	0	850919424	60	4702
2026-01-04 00:21:58.37	127.06	15.50	-48.7	-50.6	22.2	6.02e-01	0	57	0	853016576	60	4539
2026-01-04 00:21:59.36	127.26	15.42	-48.5	-50.4	22.5	6.03e-01	0	56	0	854589440	60	4417
2026-01-04 00:22:00.35	127.45	15.35	-48.3	-50.2	22.7	6.02e-01	0	57	0	856686592	60	4300
2026-01-04 00:22:01.34	127.64	15.28	-48.3	-50.1	22.8	6.02e-01	0	56	0	858783744	60	4258
2026-01-04 00:22:02.32	127.83	15.20	-48.3	-50.1	22.7	6.03e-01	0	57	0	860356608	60	4274
2026-01-04 00:22:03.31	128.02	15.13	-48.3	-50.1	22.7	6.03e-01	0	56	0	862453760	60	4289
2026-01-04 00:22:04.30	128.21	15.05	-48.5	-50.4	22.8	6.04e-01	0	56	0	864026624	59	4661
2026-01-04 00:22:05.29	128.39	14.98	-48.4	-50.3	23.0	6.04e-01	0	57	0	866123776	59	4602
2026-01-04 00:22:06.28	128.58	14.90	-48.5	-50.3	22.9	6.01e-01	0	57	0	867696640	59	4619
2026-01-04 00:22:07.27	128.77	14.83	-48.4	-50.2	23.0	6.03e-01	0	57	0	869793792	59	4557
2026-01-04 00:22:08.25	128.95	14.75	-48.4	-50.2	23.0	6.02e-01	0	57	0	871366656	59	4561
2026-01-04 00:22:09.24	129.13	14.68	-48.4	-50.2	23.0	6.01e-01	0	57	0	873463808	59	4559
2026-01-04 00:22:10.22	129.31	14.61	-48.3	-50.1	23.1	6.05e-01	0	57	0	875036672	59	4531
2026-01-04 00:22:11.21	129.50	14.53	-48.4	-50.2	22.9	6.01e-01	0	56	0	877133824	59	4593
2026-01-04 00:22:12.20	129.68	14.46	-48.4	-50.2	22.9	6.03e-01	0	57	0	878706688	59	4590
2026-01-04 00:22:13.20	129.86	14.38	-48.6	-50.4	22.7	5.98e-01	0	57	0	880803840	59	4695
2026-01-04 00:22:14.18	130.04	14.31	-48.6	-50.5	22.4	5.99e-01	0	57	0	882900992	59	4738
2026-01-04 00:22:15.17	130.21	14.23	-48.4	-50.3	22.9	6.02e-01	0	57	0	884473856	59	4608
2026-01-04 00:22:16.17	130.39	14.16	-48.4	-50.1	23.0	6.06e-01	0	56	0	886046720	59	4542
2026-01-04 00:22:17.15	130.57	14.08	-48.5	-50.4	22.8	6.01e-01	0	56	0	888143872	59	4652
2026-01-04 00:22:18.15	130.74	14.01	-48.6	-50.4	22.8	6.03e-01	0	56	0	890241024	59	4696
2026-01-04 00:22:19.14	130.92	13.93	-48.6	-50.5	22.7	6.03e-01	0	56	0	891813888	59	4707
2026-01-04 00:22:20.13	131.09	13.86	-48.5	-50.4	22.7	6.04e-01	0	57	0	893911040	59	4691
2026-01-04 00:22:21.12	131.26	13.78	-48.7	-50.6	22.6	6.03e-01	0	57	0	895483904	59	4788
2026-01-04 00:22:22.11	131.44	13.71	-48.6	-50.5	22.7	6.03e-01	0	56	0	897581056	59	4723
2026-01-04 00:22:23.09	131.61	13.64	-48.7	-50.7	22.5	6.03e-01	0	57	0	899153920	59	4815
2026-01-04 00:22:24.08	131.78	13.56	-48.8	-50.8	22.3	6.00e-01	0	56	0	901251072	59	4899
2026-01-04 00:22:25.07	131.94	13.49	-48.6	-50.5	22.7	6.02e-01	0	57	0	902823936	59	4722
2026-01-04 00:22:26.06	132.11	13.41	-48.5	-50.3	22.8	6.01e-01	0	57	0	904921088	59	4643
2026-01-04 00:22:27.05	132.28	13.34	-48.6	-50.4	22.7	6.02e-01	0	57	0	906493952	59	4691
2026-01-04 00:22:28.04	132.45	13.26	-48.6	-50.5	22.6	6.00e-01	0	57	0	908591104	59	4749
2026-01-04 00:22:29.02	132.61	13.19	-48.7	-50.6	22.6	6.02e-01	0	57	0	910163968	59	4775
2026-01-04 00:22:30.00	132.77	13.12	-48.8	-50.8	22.3	6.01e-01	0	57	0	912261120	59	4890
2026-01-04 00:22:30.99	132.94	13.04	-48.6	-50.5	22.6	6.04e-01	0	57	0	914358272	59	4730
2026-01-04 00:22:31.98	133.10	12.97	-48.6	-50.5	22.6	6.01e-01	0	57	0	915931136	59	4739
2026-01-04 00:22:32.98	133.26	12.90	-48.6	-50.6	22.6	6.02e-01	0	57	0	918028288	59	4765
2026-01-04 00:22:33.97	133.42	12.82	-48.8	-50.8	22.4	6.04e-01	0	57	0	919601152	59	4884
2026-01-04 00:22:34.96	133.59	12.75	-48.7	-50.6	22.5	6.00e-01	0	57	0	921698304	59	4777
2026-01-04 00:22:35.94	133.74	12.67	-48.6	-50.4	22.7	6.03e-01	0	57	0	923271168	59	4695
2026-01-04 00:22:36.93	133.90	12.60	-48.6	-50.5	22.6	6.02e-01	0	57	0	925368320	59	4716
2026-01-04 00:22:37.92	134.06	12.53	-48.6	-50.5	22.6	6.02e-01	0	57	0	926941184	59	4736
2026-01-04 00:22:38.91	134.22	12.45	-48.7	-50.7	22.3	6.02e-01	0	57	0	929038336	59	4849
2026-01-04 00:22:39.90	134.37	12.38	-48.7	-50.7	22.4	6.00e-01	0	57	0	930611200	59	4827
2026-01-04 00:22:40.89	134.53	12.31	-48.7	-50.7	22.3	5.99e-01	0	57	0	932708352	59	4858
2026-01-04 00:22:41.88	134.68	12.23	-48.6	-50.6	21.9	6.04e-01	0	57	0	934805504	60	4520
2026-01-04 00:22:42.86	134.84	12.16	-48.8	-50.9	21.5	6.02e-01	0	57	0	936378368	60	4675
2026-01-04 00:22:43.86	134.99	12.09	-48.6	-50.7	21.7	6.01e-01	0	57	0	938475520	60	4555
2026-01-04 00:22:44.85	135.14	12.01	-48.7	-50.7	21.7	6.00e-01	0	57	0	940048384	60	4595
2026-01-04 00:22:45.84	135.29	11.94	-48.7	-50.7	21.7	6.01e-01	0	57	0	942145536	60	4591
2026-01-04 00:22:46.83	135.45	11.87	-48.7	-50.8	21.7	5.99e-01	0	57	0	943718400	60	4626
2026-01-04 00:22:47.82	135.60	11.79	-48.8	-50.9	21.6	6.02e-01	0	57	0	945815552	60	4703
2026-01-04 00:22:48.80	135.74	11.72	-48.8	-50.9	21.6	6.01e-01	0	57	0	947388416	60	4663
2026-01-04 00:22:49.79	135.89	11.65	-48.7	-50.8	21.6	6.01e-01	0	57	0	949485568	60	4636
2026-01-04 00:22:50.79	136.04	11.57	-48.6	-50.6	21.9	6.02e-01	0	57	0	951058432	60	4515
2026-01-04 00:22:51.78	136.19	11.50	-48.4	-50.4	22.3	6.03e-01	0	57	0	953155584	60	4396
2026-01-04 00:22:52.76	136.33	11.43	-48.3	-50.2	22.5	6.02e-01	0	57	0	954728448	60	4327
2026-01-04 00:22:53.75	136.48	11.36	-48.4	-50.3	22.4	6.01e-01	0	56	0	956825600	60	4375
2026-01-04 00:22:54.74	136.62	11.28	-48.4	-50.3	22.4	6.00e-01	0	57	0	958922752	60	4352
2026-01-04 00:22:55.73	136.77	11.21	-48.4	-50.4	22.3	6.01e-01	0	57	0	960495616	60	4393
2026-01-04 00:22:56.72	136.91	11.14	-48.4	-50.4	22.3	6.03e-01	0	57	0	962592768	60	4394
2026-01-04 00:22:57.71	137.05	11.07	-48.5	-50.4	22.2	6.02e-01	0	57	0	964165632	60	4431
2026-01-04 00:22:58.70	137.19	11.00	-48.5	-50.5	22.1	6.02e-01	0	57	0	966262784	60	4478
2026-01-04 00:22:59.70	137.34	10.92	-48.6	-50.7	21.9	6.01e-01	0	56	0	967835648	60	4572
2026-01-04 00:23:00.69	137.48	10.85	-48.6	-50.6	22.0	6.02e-01	0	57	0	969932800	60	4540
2026-01-04 00:23:01.68	137.62	10.78	-48.4	-50.4	22.2	6.02e-01	0	57	0	971505664	60	4404
2026-01-04 00:23:02.67	137.75	10.71	-48.5	-50.5	22.1	6.03e-01	0	57	0	973602816	60	4466
2026-01-04 00:23:03.67	137.89	10.63	-48.4	-50.4	22.2	6.01e-01	0	57	0	975175680	60	4404
2026-01-04 00:23:04.66	138.03	10.56	-48.5	-50.5	21.9	6.02e-01	0	57	0	977272832	60	4477
2026-01-04 00:23:05.65	138.17	10.49	-48.6	-50.7	21.5	6.03e-01	0	57	0	978845696	60	4577
2026-01-04 00:23:06.64	138.30	10.42	-48.6	-50.7	21.6	6.01e-01	0	57	0	980942848	60	4567
2026-01-04 00:23:07.63	138.44	10.35	-48.5	-50.6	21.9	6.01e-01	0	57	0	983040000	60	4494
2026-01-04 00:23:08.62	138.57	10.28	-48.6	-50.7	21.7	6.02e-01	0	57	0	984612864	60	4548
2026-01-04 00:23:09.61	138.71	10.21	-48.6	-50.7	21.7	6.02e-01	0	57	0	986710016	60	4561
2026-01-04 00:23:10.59	138.84	10.14	-48.6	-50.7	21.7	6.00e-01	0	57	0	988282880	60	4555
2026-01-04 00:23:11.58	138.97	10.07	-48.6	-50.6	21.8	5.99e-01	0	57	0	990380032	60	4544
2026-01-04 00:23:12.57	139.11	9.99	-48.6	-50.7	21.7	6.00e-01	0	57	0	991952896	60	4557
2026-01-04 00:23:13.56	139.24	9.92	-48.7	-50.9	21.5	6.02e-01	0	57	0	994050048	60	4669
2026-01-04 00:23:14.55	139.37	9.85	-48.8	-51.0	21.3	6.03e-01	0	57	0	995622912	60	4722
2026-01-04 00:23:15.54	139.50	9.78	-48.7	-50.9	21.4	5.99e-01	0	57	0	997720064	60	4667
2026-01-04 00:23:16.53	139.63	9.71	-48.7	-50.9	21.2	6.01e-01	0	57	0	999292928	60	4686
2026-01-04 00:23:17.52	139.76	9.64	-48.9	-51.1	20.6	6.00e-01	0	57	0	1001390080	60	4811
2026-01-04 00:23:18.52	139.88	9.57	-48.8	-51.1	20.7	6.02e-01	0	57	0	1002962944	60	4771
2026-01-04 00:23:19.52	140.01	9.50	-48.7	-51.0	21.1	6.01e-01	0	57	0	1005060096	60	4706
2026-01-04 00:23:20.51	140.14	9.43	-48.7	-50.9	21.5	6.02e-01	0	57	0	1007157248	60	4652
2026-01-04 00:23:21.51	140.27	9.36	-48.7	-50.8	21.5	6.01e-01	0	57	0	1008730112	60	4628
2026-01-04 00:23:22.50	140.39	9.29	-48.7	-50.9	21.2	6.04e-01	0	57	0	1010827264	60	4689
2026-01-04 00:23:23.49	140.52	9.22	-48.7	-50.9	21.2	6.01e-01	0	57	0	1012400128	60	4684
2026-01-04 00:23:24.49	140.64	9.15	-48.8	-51.0	21.2	6.01e-01	0	57	0	1014497280	60	4712
2026-01-04 00:23:25.47	140.77	9.08	-48.8	-51.0	21.1	6.01e-01	0	57	0	1016070144	60	4734
2026-01-04 00:23:26.46	140.89	9.01	-48.8	-51.1	21.0	6.01e-01	0	57	0	1018167296	60	4762
2026-01-04 00:23:27.45	141.01	8.94	-48.7	-50.9	21.1	6.04e-01	0	57	0	1019740160	60	4683
2026-01-04 00:23:28.43	141.13	8.87	-48.7	-50.9	21.1	6.05e-01	0	57	0	1021837312	60	4687
2026-01-04 00:23:29.41	141.25	8.81	-48.8	-51.0	21.0	6.00e-01	0	57	0	1023410176	60	4722
2026-01-04 00:23:30.39	141.37	8.74	-48.8	-51.1	20.5	6.03e-01	0	57	0	1025507328	60	4805
2026-01-04 00:23:31.38	141.49	8.67	-48.8	-51.2	20.3	6.02e-01	0	57	0	1027604480	60	4834
2026-01-04 00:23:32.37	141.61	8.60	-48.8	-51.1	20.7	6.01e-01	0	57	0	1029177344	60	4777
2026-01-04 00:23:33.36	141.73	8.53	-48.7	-51.0	20.9	6.04e-01	0	57	0	1031274496	60	4728
2026-01-04 00:23:34.35	141.85	8.46	-48.9	-51.3	20.3	5.99e-01	0	57	0	1032847360	60	4876
2026-01-04 00:23:35.33	141.96	8.40	-49.0	-51.4	19.9	6.00e-01	0	57	0	1034944512	60	4969
2026-01-04 00:23:36.31	142.08	8.33	-48.9	-51.4	19.9	6.01e-01	0	57	0	1036517376	60	4935
2026-01-04 00:23:37.30	142.20	8.26	-49.0	-51.4	19.9	6.01e-01	0	57	0	1038614528	60	4972
2026-01-04 00:23:38.28	142.31	8.19	-48.9	-51.4	19.9	6.03e-01	0	57	0	1040187392	60	4963
2026-01-04 00:23:39.27	142.43	8.13	-49.0	-51.5	19.8	6.06e-01	0	57	0	1042284544	60	4998
2026-01-04 00:23:40.26	142.54	8.06	-49.1	-51.6	19.7	6.00e-01	0	57	0	1043857408	60	5088
2026-01-04 00:23:41.25	142.66	7.99	-49.2	-51.8	19.6	6.02e-01	0	57	0	1045954560	60	5206
2026-01-04 00:23:42.24	142.77	7.92	-49.2	-51.7	19.9	6.02e-01	0	57	0	1047527424	60	5134
2026-01-04 00:23:43.22	142.88	7.86	-49.3	-51.9	19.5	6.01e-01	0	57	0	1049624576	60	5256
2026-01-04 00:23:44.21	143.00	7.79	-49.1	-51.6	20.1	6.03e-01	0	57	0	1051197440	60	5049
2026-01-04 00:23:45.20	143.11	7.72	-49.2	-51.6	20.3	5.98e-01	0	57	0	1053294592	60	5091
2026-01-04 00:23:46.19	143.22	7.65	-49.3	-51.8	20.3	6.00e-01	0	57	0	1055391744	60	5204
2026-01-04 00:23:47.17	143.33	7.59	-49.2	-51.8	20.1	6.03e-01	0	57	0	1056964608	60	5188
2026-01-04 00:23:48.16	143.44	7.52	-49.0	-51.5	20.4	6.03e-01	0	57	0	1058537472	60	4994
2026-01-04 00:23:49.15	143.55	7.45	-49.0	-51.4	20.4	6.00e-01	0	57	0	1060634624	60	4983
2026-01-04 00:23:50.14	143.66	7.39	-49.0	-51.4	20.4	6.00e-01	0	57	0	1062731776	60	4962
2026-01-04 00:23:51.13	143.77	7.32	-49.1	-51.6	20.3	6.02e-01	0	57	0	1064304640	60	5071
2026-01-04 00:23:52.13	143.88	7.25	-49.2	-51.7	20.2	6.04e-01	0	57	0	1066401792	60	5139
2026-01-04 00:23:53.12	143.99	7.19	-49.2	-51.7	20.1	6.01e-01	0	57	0	1067974656	60	5127
2026-01-04 00:23:54.12	144.09	7.12	-49.1	-51.6	20.2	6.01e-01	0	57	0	1070071808	60	5062
2026-01-04 00:23:55.11	144.20	7.05	-49.1	-51.6	20.3	6.02e-01	0	57	0	1071644672	60	5047
2026-01-04 00:23:56.09	144.31	6.99	-49.2	-51.8	19.9	6.02e-01	0	57	0	1073741824	60	5168
2026-01-04 00:23:57.09	144.41	6.92	-49.1	-51.7	20.2	6.00e-01	0	57	0	1075314688	60	5105
2026-01-04 00:23:58.07	144.52	6.86	-49.2	-51.8	19.8	6.00e-01	0	57	0	1077411840	60	5217
2026-01-04 00:23:59.06	144.62	6.79	-49.3	-52.0	19.5	6.04e-01	0	57	0	1078984704	60	5316
2026-01-04 00:24:00.05	144.73	6.73	-49.2	-51.8	19.8	6.01e-01	0	57	0	1081081856	60	5200
2026-01-04 00:24:01.04	144.83	6.66	-49.2	-51.7	20.1	6.01e-01	0	57	0	1083179008	60	5156
2026-01-04 00:24:02.03	144.93	6.60	-49.2	-51.9	19.8	6.00e-01	0	57	0	1084751872	60	5242
2026-01-04 00:24:03.02	145.04	6.53	-49.3	-52.0	19.6	5.98e-01	0	57	0	1086849024	60	5281
2026-01-04 00:24:04.02	145.14	6.46	-49.2	-51.9	19.6	6.01e-01	0	57	0	1088421888	60	5269
2026-01-04 00:24:05.01	145.24	6.40	-49.3	-51.9	19.7	6.00e-01	0	57	0	1090519040	60	5272
2026-01-04 00:24:06.00	145.34	6.33	-49.5	-52.3	19.4	6.04e-01	0	57	0	1092091904	61	5172
2026-01-04 00:24:06.99	145.45	6.27	-49.4	-52.1	19.5	6.03e-01	0	57	0	1094189056	61	5077
2026-01-04 00:24:07.98	145.55	6.21	-49.3	-52.0	19.6	6.00e-01	0	57	0	1095761920	61	5007
2026-01-04 00:24:08.97	145.65	6.14	-49.2	-51.9	19.7	6.02e-01	0	57	0	1097859072	61	4934
2026-01-04 00:24:09.96	145.75	6.08	-49.4	-52.2	19.2	6.01e-01	0	57	0	1099431936	61	5111
2026-01-04 00:24:10.96	145.85	6.01	-49.2	-52.0	19.5	6.02e-01	0	57	0	1101529088	61	4990
2026-01-04 00:24:11.95	145.95	5.95	-49.3	-52.0	19.6	6.02e-01	0	57	0	1103626240	61	5041
2026-01-04 00:24:12.94	146.04	5.88	-49.2	-51.9	19.6	6.01e-01	0	57	0	1105199104	61	4930
2026-01-04 00:24:13.93	146.14	5.82	-49.2	-51.9	19.4	6.01e-01	0	57	0	1107296256	61	4969
2026-01-04 00:24:14.92	146.24	5.75	-49.5	-52.4	19.0	6.00e-01	0	57	0	1108869120	61	5236
2026-01-04 00:24:15.92	146.34	5.69	-49.3	-52.1	19.2	6.02e-01	0	57	0	1110966272	61	5077
2026-01-04 00:24:16.92	146.43	5.63	-49.5	-52.4	19.0	6.01e-01	0	57	0	1112539136	61	5237
2026-01-04 00:24:17.90	146.53	5.56	-49.4	-52.3	19.1	5.99e-01	0	57	0	1114636288	61	5175
2026-01-04 00:24:18.89	146.63	5.50	-49.5	-52.5	18.9	6.02e-01	0	57	0	1116209152	61	5299
2026-01-04 00:24:19.89	146.72	5.44	-49.4	-52.4	19.0	6.01e-01	0	57	0	1118306304	61	5225
2026-01-04 00:24:20.88	146.82	5.37	-49.3	-52.0	19.4	6.02e-01	0	57	0	1120403456	61	5030
2026-01-04 00:24:21.87	146.91	5.31	-49.4	-52.3	19.0	6.03e-01	0	57	0	1121976320	61	5186
2026-01-04 00:24:22.85	147.00	5.25	-49.5	-52.5	19.0	6.00e-01	0	57	0	1124073472	61	5314
2026-01-04 00:24:23.84	147.10	5.18	-49.6	-52.6	18.9	6.02e-01	0	57	0	1125646336	61	5362
2026-01-04 00:24:24.83	147.19	5.12	-49.6	-52.7	18.8	6.04e-01	0	57	0	1127743488	61	5403
2026-01-04 00:24:25.83	147.28	5.06	-50.3	-53.9	17.7	6.01e-01	0	57	0	1129316352	62	5912
2026-01-04 00:24:26.82	147.38	5.00	-53.6	-73.1	3.8	7.46e-01	0	57	104	1130364928	69	35992
2026-01-04 00:24:27.80	147.47	4.93	-53.8	-73.7	3.8	7.46e-01	0	57	104	1130364928	69	38259
2026-01-04 00:24:28.79	147.56	4.87	-54.0	-73.9	3.8	7.44e-01	0	57	104	1130364928	70	37233
2026-01-04 00:24:29.77	147.65	4.81	-54.1	-74.0	3.8	7.47e-01	0	57	104	1130364928	70	37756
2026-01-04 00:24:30.76	147.74	4.75	-54.2	-74.1	3.8	7.44e-01	0	57	104	1130364928	70	38071
2026-01-04 00:24:31.75	147.83	4.69	-54.2	-74.2	3.8	7.48e-01	0	57	104	1130364928	70	38288
2026-01-04 00:24:32.73	147.92	4.62	-54.3	-74.2	3.8	7.47e-01	0	57	104	1130364928	70	38467
2026-01-04 00:24:33.73	148.01	4.56	-54.3	-74.3	3.8	7.46e-01	0	57	104	1130364928	70	38791
2026-01-04 00:24:34.73	148.10	4.50	-54.4	-74.3	3.8	7.48e-01	0	57	104	1130364928	70	38867
2026-01-04 00:24:35.72	148.19	4.44	-54.4	-74.3	3.8	7.48e-01	0	57	104	1130364928	71	36847
2026-01-04 00:24:36.71	148.28	4.38	-54.4	-74.3	3.8	7.41e-01	0	57	104	1130364928	71	36919
2026-01-04 00:24:37.70	148.36	4.32	-54.4	-74.2	3.8	7.42e-01	0	57	104	1130364928	71	36450
2026-01-04 00:24:38.69	148.45	4.25	-54.5	-74.4	3.8	7.45e-01	0	57	104	1130364928	71	37083
2026-01-04 00:24:39.68	148.54	4.19	-54.4	-74.4	3.8	7.46e-01	0	57	104	1130364928	71	37119
2026-01-04 00:24:40.67	148.63	4.13	-54.5	-74.4	3.8	7.44e-01	0	57	104	1130364928	71	37139
2026-01-04 00:24:41.66	148.71	4.07	-54.5	-74.4	3.8	7.44e-01	0	57	104	1130364928	71	37335
2026-01-04 00:24:42.65	148.80	4.01	-54.5	-74.4	3.8	7.44e-01	0	57	104	1130364928	71	37361
2026-01-04 00:24:43.64	148.88	3.95	-54.5	-74.5	3.8	7.43e-01	0	57	104	1130364928	71	37446
2026-01-04 00:24:44.64	148.97	3.89	-54.5	-74.5	3.8	7.44e-01	0	57	104	1130364928	71	37502
2026-01-04 00:24:45.62	149.05	3.83	-54.6	-74.5	3.8	7.47e-01	0	57	104	1130364928	71	37506
2026-01-04 00:24:46.61	149.14	3.77	-54.6	-74.5	3.8	7.47e-01	0	57	104	1130364928	71	37626
2026-01-04 00:24:47.61	149.22	3.71	-54.6	-74.5	3.8	7.41e-01	0	57	104	1130364928	71	37574
2026-01-04 00:24:48.60	149.31	3.65	-54.6	-74.5	3.8	7.45e-01	0	57	104	1130364928	71	37667
2026-01-04 00:24:49.58	149.39	3.59	-54.6	-74.5	3.8	7.44e-01	0	57	104	1130364928	71	37761
2026-01-04 00:24:50.57	149.47	3.53	-54.6	-74.5	3.8	7.47e-01	0	57	104	1130364928	71	37778
2026-01-04 00:24:51.56	149.56	3.47	-54.6	-74.6	3.8	7.46e-01	0	57	104	1130364928	71	37825
2026-01-04 00:24:52.55	149.64	3.41	-54.6	-74.5	3.8	7.45e-01	0	57	104	1130364928	71	37629
2026-01-04 00:24:53.54	149.72	3.35	-54.6	-74.5	3.8	7.45e-01	0	57	104	1130364928	71	37733
2026-01-04 00:24:54.54	149.80	3.29	-54.6	-74.5	3.8	7.41e-01	0	57	104	1130364928	71	37645
2026-01-04 00:24:55.54	149.88	3.23	-54.6	-74.5	3.8	7.47e-01	0	57	104	1130364928	71	37602
2026-01-04 00:24:56.53	149.97	3.17	-54.5	-74.5	3.8	7.48e-01	0	57	104	1130364928	71	37540
2026-01-04 00:24:57.52	150.05	3.11	-54.6	-74.5	3.8	7.46e-01	0	57	104	1130364928	71	37595
2026-01-04 00:24:58.51	150.13	3.05	-54.6	-74.5	3.8	7.47e-01	0	57	104	1130364928	71	37564
2026-01-04 00:24:59.49	150.21	2.99	-54.6	-74.5	3.8	7.45e-01	0	57	104	1130364928	71	37604
2026-01-04 00:25:00.49	150.29	2.93	-54.6	-74.5	3.8	7.43e-01	0	57	104	1130364928	71	37530
2026-01-04 00:25:01.48	150.37	2.87	-54.6	-74.5	3.8	7.47e-01	0	57	104	1130364928	71	37644

#Closed at: 2026-01-04 00:25:01
#Recorded file [1130 MB]: D:/Data/31026_260104_032426.dat