passes_logs/2026/01/04/R3.0SM8_Murmansk_STILSPACE/R3.0SM8_Murmansk_STILSPACE__20260104_085654_FENGYUN_3D_rec.log

#Pass ID: 20260104_085654_FENGYUN 3D
#Satellite: FENGYUN 3D
#Configuration: FENGYUN 3D
#almurnet v.1.7.20240730
#Start time: 2026-01-04 08:56:54

#Version: 2.2.20231116
#Station: R3.0SM8_Murmansk_STILSPACE
#Location: 33.092731 lon 68.902999 lat
#TLE: 1 43010U 17072A   26003.51579816  .00000092  00000+0  65324-4 0  9992
#TLE: 2 43010  98.9912 335.1548 0001916 128.4619 231.6729 14.19692074421623

#Time	Az	El	Level	Level2	SNR	BER	BlckErr	Temp	State	Recorded	gain1	gain2
2026-01-04 08:56:54.40	92.72	2.98	-52.5	-63.2	3.8	8.46e-01	0	46	0	0	67	12663
2026-01-04 08:56:55.39	92.67	3.04	-52.3	-63.1	3.8	8.45e-01	0	46	104	0	67	12508
2026-01-04 08:56:56.39	92.62	3.10	-52.3	-63.1	3.8	8.47e-01	0	46	104	0	67	12509
2026-01-04 08:56:57.38	92.56	3.17	-52.4	-63.1	3.8	8.46e-01	0	46	104	0	67	12380
2026-01-04 08:56:58.37	92.51	3.23	-52.3	-63.0	3.8	8.46e-01	0	46	104	0	67	12325
2026-01-04 08:56:59.36	92.45	3.29	-52.2	-62.9	3.8	8.45e-01	0	47	104	0	67	12173
2026-01-04 08:57:00.34	92.40	3.35	-52.1	-62.8	3.8	8.47e-01	0	47	104	0	67	12046
2026-01-04 08:57:01.32	92.34	3.41	-52.0	-62.7	3.8	8.45e-01	0	47	104	0	67	11849
2026-01-04 08:57:02.30	92.29	3.47	-51.8	-62.3	3.8	8.46e-01	0	47	104	0	66	12028
2026-01-04 08:57:03.29	92.23	3.53	-51.7	-62.3	3.8	8.46e-01	0	47	104	0	66	11958
2026-01-04 08:57:04.28	92.18	3.59	-51.6	-62.3	3.8	8.46e-01	0	47	104	0	66	11966
2026-01-04 08:57:05.27	92.12	3.66	-51.6	-62.3	3.8	8.46e-01	0	47	104	0	66	12010
2026-01-04 08:57:06.27	92.06	3.72	-51.5	-62.3	3.8	8.47e-01	0	47	104	0	66	12037
2026-01-04 08:57:07.25	92.01	3.78	-51.6	-62.4	3.8	8.47e-01	0	47	104	0	66	12111
2026-01-04 08:57:08.24	91.95	3.84	-51.6	-62.4	3.8	8.46e-01	0	47	104	0	66	12159
2026-01-04 08:57:09.23	91.89	3.90	-51.7	-62.4	3.8	8.45e-01	0	47	104	0	66	12101
2026-01-04 08:57:10.21	91.83	3.97	-51.7	-62.4	3.8	8.46e-01	0	47	104	0	66	12128
2026-01-04 08:57:11.21	91.78	4.03	-51.7	-62.3	3.8	8.46e-01	0	48	104	0	66	11996
2026-01-04 08:57:12.20	91.72	4.09	-51.7	-62.2	3.8	8.47e-01	0	48	104	0	66	11856
2026-01-04 08:57:13.20	91.66	4.15	-51.7	-62.0	3.8	8.47e-01	0	47	104	0	66	11579
2026-01-04 08:57:14.19	91.60	4.22	-51.6	-61.7	3.8	8.46e-01	0	48	104	0	66	11204
2026-01-04 08:57:15.17	91.54	4.28	-51.6	-61.4	3.8	8.45e-01	0	48	104	0	66	10835
2026-01-04 08:57:16.16	91.48	4.34	-51.6	-61.2	3.8	8.46e-01	0	48	104	0	66	10617
2026-01-04 08:57:17.15	91.42	4.41	-51.5	-60.6	3.8	8.45e-01	0	48	104	0	65	10496
2026-01-04 08:57:18.15	91.36	4.47	-51.3	-60.2	3.8	8.45e-01	0	48	104	0	65	9965
2026-01-04 08:57:19.14	91.30	4.53	-51.3	-59.3	4.1	8.44e-01	0	48	104	0	65	9016
2026-01-04 08:57:20.13	91.24	4.60	-51.2	-58.5	4.3	8.36e-01	0	48	0	0	65	8231
2026-01-04 08:57:21.11	91.18	4.66	-51.0	-57.6	4.6	8.14e-01	0	48	0	0	65	7390
2026-01-04 08:57:22.10	91.12	4.72	-50.7	-56.5	5.2	7.65e-01	0	48	0	0	64	6901
2026-01-04 08:57:23.09	91.06	4.79	-50.5	-55.8	5.7	6.59e-01	0	48	0	1048576	64	6364
2026-01-04 08:57:24.08	91.00	4.85	-50.3	-55.0	6.4	3.02e-01	0	48	0	6291456	63	6158
2026-01-04 08:57:25.06	90.94	4.92	-50.1	-54.5	6.8	2.43e-01	0	48	0	11534336	63	5806
2026-01-04 08:57:26.06	90.88	4.98	-49.7	-53.8	7.5	1.35e-01	0	48	0	17825792	62	5690
2026-01-04 08:57:27.05	90.81	5.04	-49.5	-53.2	8.1	8.65e-02	0	48	0	23068672	62	5289
2026-01-04 08:57:28.05	90.75	5.11	-49.5	-53.2	8.0	8.03e-02	0	49	0	28311552	62	5292
2026-01-04 08:57:29.03	90.69	5.17	-49.7	-53.7	7.6	1.06e-01	0	49	0	34603008	62	5609
2026-01-04 08:57:30.01	90.63	5.24	-49.5	-53.1	8.2	8.22e-02	0	49	0	39845888	62	5230
2026-01-04 08:57:31.01	90.56	5.30	-49.3	-52.6	8.6	4.57e-02	0	49	0	45088768	61	5269
2026-01-04 08:57:31.99	90.50	5.37	-49.1	-52.3	8.9	3.99e-02	0	49	0	51380224	61	5099
2026-01-04 08:57:32.98	90.44	5.43	-48.9	-51.9	9.3	2.31e-02	0	49	0	56623104	60	5148
2026-01-04 08:57:33.97	90.37	5.50	-48.8	-51.8	9.5	1.78e-02	0	49	0	61865984	60	5059
2026-01-04 08:57:34.96	90.31	5.56	-48.7	-51.6	9.7	1.86e-02	0	49	0	68157440	60	4968
2026-01-04 08:57:35.95	90.24	5.63	-48.7	-51.7	9.6	1.43e-02	0	49	0	73400320	60	5031
2026-01-04 08:57:36.93	90.18	5.69	-49.2	-52.6	8.7	3.20e-02	0	49	0	78643200	60	5541
2026-01-04 08:57:37.92	90.11	5.76	-48.8	-51.8	9.5	2.61e-02	0	49	0	83886080	60	5054
2026-01-04 08:57:38.91	90.05	5.83	-48.2	-50.6	10.8	4.72e-03	0	49	0	90177536	59	4697
2026-01-04 08:57:39.90	89.98	5.89	-47.8	-50.1	11.3	2.28e-03	0	49	0	95420416	58	4668
2026-01-04 08:57:40.89	89.91	5.96	-47.4	-49.4	12.1	5.29e-04	0	49	0	100663296	57	4563
2026-01-04 08:57:41.88	89.85	6.02	-46.9	-48.7	12.7	1.74e-04	0	49	0	106954752	57	4230
2026-01-04 08:57:42.87	89.78	6.09	-46.5	-48.2	13.3	5.37e-05	0	49	0	112197632	56	4201
2026-01-04 08:57:43.86	89.71	6.16	-45.9	-47.4	13.9	6.80e-06	0	49	0	117440512	55	4097
2026-01-04 08:57:44.85	89.64	6.22	-45.6	-47.1	14.3	3.40e-06	0	50	0	122683392	54	4158
2026-01-04 08:57:45.84	89.58	6.29	-45.3	-46.6	14.8	2.20e-06	0	49	0	128974848	53	4177
2026-01-04 08:57:46.83	89.51	6.36	-45.1	-46.4	14.9	0.00e+00	0	50	0	134217728	53	4081
2026-01-04 08:57:47.82	89.44	6.43	-44.9	-46.1	15.3	0.00e+00	0	50	0	140509184	52	4175
2026-01-04 08:57:48.80	89.37	6.49	-44.8	-46.0	15.4	0.00e+00	0	50	0	145752064	52	4130
2026-01-04 08:57:49.79	89.30	6.56	-44.8	-46.0	15.3	0.00e+00	0	50	0	150994944	52	4128
2026-01-04 08:57:50.78	89.23	6.63	-44.9	-46.1	15.3	0.00e+00	0	50	0	156237824	52	4156
2026-01-04 08:57:51.76	89.16	6.69	-45.0	-46.2	15.2	0.00e+00	0	50	0	162529280	52	4215
2026-01-04 08:57:52.76	89.09	6.76	-44.9	-46.1	15.3	0.00e+00	0	50	0	167772160	52	4156
2026-01-04 08:57:53.74	89.02	6.83	-44.7	-45.9	15.5	0.00e+00	0	50	0	173015040	52	4069
2026-01-04 08:57:54.72	88.95	6.90	-44.8	-46.0	15.4	0.00e+00	0	50	0	179306496	52	4139
2026-01-04 08:57:55.71	88.88	6.96	-44.8	-46.0	15.4	0.00e+00	0	50	0	184549376	52	4116
2026-01-04 08:57:56.69	88.81	7.03	-45.0	-46.2	15.2	0.00e+00	0	50	0	189792256	52	4232
2026-01-04 08:57:57.69	88.74	7.10	-44.9	-46.1	15.3	0.00e+00	0	50	0	195035136	52	4176
2026-01-04 08:57:58.68	88.66	7.17	-44.7	-45.9	15.6	0.00e+00	0	50	0	201326592	52	4060
2026-01-04 08:57:59.67	88.59	7.24	-44.4	-45.6	15.8	0.00e+00	0	50	0	206569472	52	3932
2026-01-04 08:58:00.67	88.52	7.31	-44.5	-45.6	15.8	0.00e+00	0	50	0	211812352	52	3952
2026-01-04 08:58:01.65	88.44	7.38	-44.4	-45.5	15.9	0.00e+00	0	50	0	218103808	52	3910
2026-01-04 08:58:02.64	88.37	7.45	-44.6	-45.7	15.9	0.00e+00	0	50	0	223346688	51	4217
2026-01-04 08:58:03.63	88.30	7.52	-44.6	-45.7	15.8	0.00e+00	0	51	0	228589568	51	4232
2026-01-04 08:58:04.61	88.22	7.58	-44.6	-45.7	15.9	0.00e+00	0	51	0	234881024	51	4211
2026-01-04 08:58:05.61	88.15	7.65	-44.6	-45.8	15.8	0.00e+00	0	50	0	240123904	51	4261
2026-01-04 08:58:06.61	88.07	7.72	-44.7	-45.8	15.8	0.00e+00	0	51	0	245366784	51	4269
2026-01-04 08:58:07.60	87.99	7.79	-44.5	-45.7	15.9	0.00e+00	0	51	0	250609664	51	4209
2026-01-04 08:58:08.59	87.92	7.86	-44.5	-45.7	15.9	0.00e+00	0	51	0	256901120	51	4206
2026-01-04 08:58:09.58	87.84	7.93	-44.5	-45.7	15.9	0.00e+00	0	51	0	262144000	51	4194
2026-01-04 08:58:10.57	87.76	8.01	-44.6	-45.7	15.9	0.00e+00	0	51	0	268435456	51	4214
2026-01-04 08:58:11.57	87.69	8.08	-44.6	-45.7	15.9	0.00e+00	0	51	0	273678336	51	4228
2026-01-04 08:58:12.56	87.61	8.15	-44.6	-45.8	15.8	0.00e+00	0	51	0	278921216	51	4260
2026-01-04 08:58:13.55	87.53	8.22	-44.7	-45.9	15.8	0.00e+00	0	51	0	284164096	51	4294
2026-01-04 08:58:14.53	87.45	8.29	-44.7	-45.9	15.7	1.10e-06	0	51	0	290455552	51	4331
2026-01-04 08:58:15.52	87.37	8.36	-44.5	-45.7	15.9	0.00e+00	0	51	0	295698432	51	4199
2026-01-04 08:58:16.52	87.29	8.43	-44.4	-45.5	16.1	0.00e+00	0	51	0	301989888	51	4142
2026-01-04 08:58:17.51	87.21	8.50	-44.4	-45.5	16.1	0.00e+00	0	51	0	307232768	51	4127
2026-01-04 08:58:18.49	87.13	8.57	-44.5	-45.6	16.0	0.00e+00	0	51	0	312475648	51	4175
2026-01-04 08:58:19.48	87.05	8.64	-44.5	-45.6	16.0	0.00e+00	0	51	0	317718528	51	4184
2026-01-04 08:58:20.48	86.97	8.72	-44.5	-45.6	16.0	0.00e+00	0	51	0	324009984	51	4187
2026-01-04 08:58:21.47	86.89	8.79	-44.6	-45.7	15.9	0.00e+00	0	51	0	329252864	51	4241
2026-01-04 08:58:22.46	86.81	8.86	-44.6	-45.7	15.9	0.00e+00	0	51	0	334495744	51	4232
2026-01-04 08:58:23.44	86.73	8.93	-44.5	-45.6	16.0	0.00e+00	0	51	0	340787200	51	4190
2026-01-04 08:58:24.43	86.65	9.00	-44.4	-45.5	16.1	0.00e+00	0	51	0	346030080	51	4134
2026-01-04 08:58:25.43	86.56	9.08	-44.4	-45.5	16.2	0.00e+00	0	51	0	351272960	51	4123
2026-01-04 08:58:26.43	86.48	9.15	-44.5	-45.6	16.1	0.00e+00	0	51	0	357564416	51	4155
2026-01-04 08:58:27.42	86.39	9.22	-44.5	-45.7	16.0	0.00e+00	0	51	0	362807296	51	4216
2026-01-04 08:58:28.40	86.31	9.30	-44.6	-45.7	16.0	0.00e+00	0	51	0	368050176	51	4232
2026-01-04 08:58:29.39	86.23	9.37	-44.4	-45.5	16.3	0.00e+00	0	52	0	373293056	51	4108
2026-01-04 08:58:30.38	86.14	9.44	-44.3	-45.4	16.3	0.00e+00	0	52	0	379584512	51	4053
2026-01-04 08:58:31.37	86.05	9.52	-44.2	-45.3	16.4	0.00e+00	0	52	0	384827392	51	4011
2026-01-04 08:58:32.36	85.97	9.59	-44.1	-45.2	16.5	0.00e+00	0	51	0	391118848	51	3969
2026-01-04 08:58:33.36	85.88	9.66	-44.0	-45.0	16.6	0.00e+00	0	52	0	396361728	51	3908
2026-01-04 08:58:34.35	85.79	9.74	-44.1	-45.1	16.6	0.00e+00	0	52	0	401604608	51	3941
2026-01-04 08:58:35.34	85.71	9.81	-44.1	-45.2	16.5	0.00e+00	0	52	0	406847488	51	3983
2026-01-04 08:58:36.34	85.62	9.89	-44.0	-45.0	16.7	0.00e+00	0	52	0	413138944	51	3891
2026-01-04 08:58:37.33	85.53	9.96	-43.9	-44.9	16.8	0.00e+00	0	52	0	418381824	51	3863
2026-01-04 08:58:38.32	85.44	10.04	-44.0	-45.0	16.7	0.00e+00	0	52	0	423624704	51	3887
2026-01-04 08:58:39.31	85.35	10.11	-44.1	-45.1	16.6	0.00e+00	0	52	0	429916160	51	3949
2026-01-04 08:58:40.31	85.26	10.19	-43.9	-44.9	16.8	0.00e+00	0	52	0	435159040	51	3842
2026-01-04 08:58:41.29	85.17	10.26	-43.9	-44.9	16.8	0.00e+00	0	52	0	440401920	50	4076
2026-01-04 08:58:42.29	85.08	10.34	-44.0	-45.1	16.7	0.00e+00	0	52	0	446693376	50	4148
2026-01-04 08:58:43.28	84.99	10.41	-44.2	-45.3	16.5	0.00e+00	0	52	0	451936256	50	4257
2026-01-04 08:58:44.27	84.90	10.49	-44.0	-45.1	16.7	0.00e+00	0	52	0	457179136	50	4151
2026-01-04 08:58:45.26	84.80	10.56	-44.0	-45.0	16.8	0.00e+00	0	52	0	463470592	50	4113
2026-01-04 08:58:46.25	84.71	10.64	-44.0	-45.0	16.8	0.00e+00	0	52	0	468713472	50	4138
2026-01-04 08:58:47.23	84.62	10.71	-43.9	-44.9	16.8	0.00e+00	0	52	0	473956352	50	4086
2026-01-04 08:58:48.22	84.53	10.79	-44.0	-45.0	16.8	0.00e+00	0	52	0	480247808	50	4106
2026-01-04 08:58:49.21	84.43	10.87	-44.0	-45.0	16.7	0.00e+00	0	52	0	485490688	50	4137
2026-01-04 08:58:50.21	84.34	10.94	-44.0	-45.0	16.8	0.00e+00	0	52	0	490733568	50	4105
2026-01-04 08:58:51.20	84.24	11.02	-43.9	-44.9	16.8	0.00e+00	0	52	0	495976448	50	4098
2026-01-04 08:58:52.19	84.14	11.10	-43.9	-44.9	16.8	0.00e+00	0	52	0	502267904	50	4095
2026-01-04 08:58:53.18	84.05	11.17	-44.1	-45.1	16.7	0.00e+00	0	52	0	507510784	50	4162
2026-01-04 08:58:54.17	83.95	11.25	-44.2	-45.3	16.5	0.00e+00	0	52	0	512753664	50	4250
2026-01-04 08:58:55.16	83.85	11.33	-43.9	-44.9	16.9	0.00e+00	0	52	0	519045120	50	4080
2026-01-04 08:58:56.15	83.76	11.41	-43.7	-44.7	17.1	0.00e+00	0	52	0	524288000	50	3995
2026-01-04 08:58:57.14	83.66	11.48	-43.6	-44.6	17.2	0.00e+00	0	52	0	529530880	50	3923
2026-01-04 08:58:58.13	83.56	11.56	-43.6	-44.6	17.2	0.00e+00	0	52	0	535822336	50	3917
2026-01-04 08:58:59.12	83.46	11.64	-43.6	-44.6	17.2	0.00e+00	0	52	0	541065216	50	3917
2026-01-04 08:59:00.10	83.36	11.72	-43.7	-44.7	17.1	0.00e+00	0	52	0	546308096	50	3977
2026-01-04 08:59:01.09	83.26	11.79	-43.9	-44.9	17.0	0.00e+00	0	52	0	551550976	50	4053
2026-01-04 08:59:02.08	83.16	11.87	-43.6	-44.6	17.2	0.00e+00	0	52	0	557842432	50	3926
2026-01-04 08:59:03.07	83.06	11.95	-43.5	-44.5	17.4	0.00e+00	0	53	0	563085312	50	3871
2026-01-04 08:59:04.05	82.96	12.03	-43.7	-44.6	17.2	0.00e+00	0	53	0	569376768	50	3947
2026-01-04 08:59:05.05	82.85	12.11	-43.9	-44.9	17.0	0.00e+00	0	53	0	574619648	50	4053
2026-01-04 08:59:06.03	82.75	12.19	-43.7	-44.7	17.2	0.00e+00	0	52	0	579862528	50	3959
2026-01-04 08:59:07.03	82.65	12.27	-43.8	-44.8	17.1	0.00e+00	0	53	0	585105408	50	4015
2026-01-04 08:59:08.03	82.54	12.35	-43.9	-44.9	16.9	0.00e+00	0	53	0	591396864	50	4084
2026-01-04 08:59:09.02	82.43	12.43	-43.7	-44.7	17.2	0.00e+00	0	53	0	596639744	50	3968
2026-01-04 08:59:10.01	82.33	12.51	-43.5	-44.4	17.4	0.00e+00	0	53	0	602931200	50	3844
2026-01-04 08:59:11.00	82.22	12.59	-43.4	-44.3	17.5	0.00e+00	0	53	0	608174080	49	4022
2026-01-04 08:59:11.99	82.12	12.67	-43.4	-44.3	17.5	0.00e+00	0	53	0	613416960	49	4027
2026-01-04 08:59:12.97	82.01	12.74	-43.4	-44.4	17.5	0.00e+00	0	53	0	618659840	49	4056
2026-01-04 08:59:13.96	81.90	12.82	-43.3	-44.2	17.6	0.00e+00	0	53	0	624951296	49	4000
2026-01-04 08:59:14.96	81.79	12.91	-43.3	-44.2	17.6	0.00e+00	0	53	0	630194176	49	3983
2026-01-04 08:59:15.95	81.68	12.99	-43.3	-44.3	17.6	0.00e+00	0	53	0	635437056	49	4010
2026-01-04 08:59:16.94	81.57	13.07	-43.5	-44.4	17.4	0.00e+00	0	53	0	641728512	49	4087
2026-01-04 08:59:17.93	81.46	13.15	-43.4	-44.3	17.6	0.00e+00	0	53	0	646971392	49	4011
2026-01-04 08:59:18.91	81.35	13.23	-43.3	-44.2	17.8	0.00e+00	0	53	0	652214272	49	3961
2026-01-04 08:59:19.91	81.24	13.31	-43.3	-44.2	17.7	0.00e+00	0	53	0	658505728	49	3969
2026-01-04 08:59:20.89	81.13	13.39	-43.4	-44.2	17.7	0.00e+00	0	53	0	663748608	49	4001
2026-01-04 08:59:21.89	81.01	13.47	-43.5	-44.4	17.6	0.00e+00	0	53	0	668991488	49	4052
2026-01-04 08:59:22.88	80.90	13.56	-43.7	-44.6	17.4	0.00e+00	0	53	0	674234368	49	4146
2026-01-04 08:59:23.87	80.79	13.64	-43.4	-44.3	17.7	0.00e+00	0	53	0	680525824	49	4026
2026-01-04 08:59:24.86	80.67	13.72	-43.3	-44.1	17.8	0.00e+00	0	53	0	685768704	49	3939
2026-01-04 08:59:25.85	80.56	13.80	-43.2	-44.0	17.9	0.00e+00	0	53	0	691011584	49	3891
2026-01-04 08:59:26.84	80.44	13.88	-43.2	-44.0	17.9	0.00e+00	0	53	0	697303040	49	3887
2026-01-04 08:59:27.82	80.32	13.97	-43.3	-44.1	17.8	0.00e+00	0	53	0	702545920	49	3938
2026-01-04 08:59:28.81	80.21	14.05	-43.4	-44.2	17.7	0.00e+00	0	53	0	707788800	49	4003
2026-01-04 08:59:29.80	80.09	14.13	-43.2	-44.1	17.9	0.00e+00	0	53	0	713031680	49	3919
2026-01-04 08:59:30.78	79.97	14.21	-43.0	-43.8	18.2	0.00e+00	0	53	0	719323136	49	3790
2026-01-04 08:59:31.78	79.85	14.30	-42.9	-43.7	18.3	0.00e+00	0	53	0	724566016	48	3971
2026-01-04 08:59:32.77	79.73	14.38	-42.9	-43.6	18.3	0.00e+00	0	53	0	730857472	48	3958
2026-01-04 08:59:33.74	79.61	14.46	-42.9	-43.7	18.3	0.00e+00	0	54	0	736100352	48	3990
2026-01-04 08:59:34.73	79.49	14.55	-43.1	-43.9	18.1	0.00e+00	0	53	0	741343232	48	4068
2026-01-04 08:59:35.73	79.36	14.63	-43.0	-43.8	18.1	0.00e+00	0	53	0	746586112	48	4051
2026-01-04 08:59:36.72	79.24	14.71	-43.1	-43.9	18.0	0.00e+00	0	53	0	752877568	48	4092
2026-01-04 08:59:37.70	79.12	14.80	-43.3	-44.2	17.8	0.00e+00	0	53	0	758120448	48	4195
2026-01-04 08:59:38.69	78.99	14.88	-43.2	-44.0	18.0	0.00e+00	0	53	0	763363328	48	4133
2026-01-04 08:59:39.68	78.87	14.97	-43.0	-43.8	18.2	0.00e+00	0	53	0	769654784	48	4032
2026-01-04 08:59:40.68	78.74	15.05	-42.9	-43.6	18.3	0.00e+00	0	53	0	774897664	48	3958
2026-01-04 08:59:41.67	78.62	15.14	-42.9	-43.7	18.3	0.00e+00	0	54	0	780140544	48	3975
2026-01-04 08:59:42.65	78.49	15.22	-43.1	-43.9	18.1	0.00e+00	0	53	0	785383424	48	4070
2026-01-04 08:59:43.64	78.36	15.31	-43.1	-43.9	18.1	0.00e+00	0	54	0	791674880	48	4061
2026-01-04 08:59:44.62	78.23	15.39	-42.9	-43.6	18.4	0.00e+00	0	54	0	796917760	48	3953
2026-01-04 08:59:45.62	78.10	15.48	-42.8	-43.5	18.5	0.00e+00	0	54	0	802160640	48	3903
2026-01-04 08:59:46.61	77.97	15.56	-42.7	-43.5	18.6	0.00e+00	0	54	0	808452096	48	3869
2026-01-04 08:59:47.59	77.84	15.65	-42.7	-43.5	18.5	0.00e+00	0	54	0	813694976	48	3893
2026-01-04 08:59:48.58	77.71	15.73	-42.8	-43.6	18.4	0.00e+00	0	54	0	818937856	48	3935
2026-01-04 08:59:49.58	77.58	15.82	-43.1	-43.9	18.2	0.00e+00	0	54	0	825229312	48	4055
2026-01-04 08:59:50.57	77.44	15.90	-43.0	-43.8	18.2	0.00e+00	0	54	0	830472192	48	4031
2026-01-04 08:59:51.56	77.31	15.99	-42.8	-43.6	18.4	0.00e+00	0	54	0	835715072	48	3914
2026-01-04 08:59:52.55	77.17	16.08	-42.5	-43.3	18.7	0.00e+00	0	54	0	840957952	48	3803
2026-01-04 08:59:53.54	77.04	16.16	-42.4	-43.2	18.8	0.00e+00	0	54	0	847249408	48	3753
2026-01-04 08:59:54.52	76.90	16.25	-42.4	-43.1	18.9	0.00e+00	0	54	0	852492288	48	3723
2026-01-04 08:59:55.51	76.76	16.34	-42.5	-43.2	18.8	0.00e+00	0	54	0	858783744	48	3764
2026-01-04 08:59:56.49	76.63	16.42	-42.5	-43.2	18.8	0.00e+00	0	54	0	864026624	48	3778
2026-01-04 08:59:57.49	76.49	16.51	-42.2	-42.9	19.0	0.00e+00	0	54	0	869269504	47	3837
2026-01-04 08:59:58.47	76.35	16.60	-42.0	-42.8	19.1	0.00e+00	0	54	0	874512384	47	3784
2026-01-04 08:59:59.46	76.21	16.68	-42.0	-42.7	19.1	0.00e+00	0	54	0	880803840	47	3768
2026-01-04 09:00:00.45	76.07	16.77	-42.0	-42.7	19.1	0.00e+00	0	54	0	886046720	47	3774
2026-01-04 09:00:01.44	75.92	16.86	-42.1	-42.9	19.0	0.00e+00	0	54	0	891289600	47	3832
2026-01-04 09:00:02.43	75.78	16.95	-42.3	-43.0	18.9	0.00e+00	0	54	0	897581056	47	3896
2026-01-04 09:00:03.42	75.64	17.03	-42.3	-43.1	18.8	0.00e+00	0	54	0	902823936	47	3921
2026-01-04 09:00:04.41	75.49	17.12	-42.3	-43.0	18.8	0.00e+00	0	54	0	908066816	47	3911
2026-01-04 09:00:05.40	75.34	17.21	-42.4	-43.2	18.7	0.00e+00	0	54	0	913309696	47	3964
2026-01-04 09:00:06.39	75.20	17.30	-42.4	-43.1	18.7	0.00e+00	0	54	0	919601152	47	3956
2026-01-04 09:00:07.38	75.05	17.39	-42.3	-43.0	18.8	0.00e+00	0	54	0	924844032	47	3905
2026-01-04 09:00:08.37	74.90	17.47	-42.3	-43.0	18.9	0.00e+00	0	54	0	931135488	47	3887
2026-01-04 09:00:09.36	74.75	17.56	-42.4	-43.1	18.7	0.00e+00	0	54	0	936378368	47	3944
2026-01-04 09:00:10.35	74.60	17.65	-42.4	-43.2	18.7	0.00e+00	0	54	0	941621248	47	3967
2026-01-04 09:00:11.34	74.45	17.74	-42.1	-42.8	19.1	0.00e+00	0	54	0	946864128	47	3792
2026-01-04 09:00:12.32	74.30	17.83	-41.9	-42.6	19.3	0.00e+00	0	54	0	953155584	46	3920
2026-01-04 09:00:13.32	74.15	17.92	-41.8	-42.5	19.3	0.00e+00	0	54	0	958398464	46	3898
2026-01-04 09:00:14.31	73.99	18.01	-41.9	-42.6	19.2	0.00e+00	0	54	0	963641344	46	3941
2026-01-04 09:00:15.30	73.84	18.10	-42.0	-42.7	19.2	0.00e+00	0	54	0	969932800	46	3992
2026-01-04 09:00:16.29	73.68	18.18	-41.9	-42.6	19.2	0.00e+00	0	54	0	975175680	46	3947
2026-01-04 09:00:17.29	73.52	18.28	-41.9	-42.6	19.3	0.00e+00	0	54	0	980418560	46	3944
2026-01-04 09:00:18.27	73.37	18.36	-42.0	-42.7	19.2	0.00e+00	0	54	0	986710016	46	3984
2026-01-04 09:00:19.26	73.21	18.45	-42.0	-42.7	19.2	0.00e+00	0	54	0	991952896	46	3971
2026-01-04 09:00:20.25	73.05	18.54	-42.2	-42.9	19.0	0.00e+00	0	54	0	997195776	46	4090
2026-01-04 09:00:21.24	72.89	18.63	-42.3	-43.1	18.9	0.00e+00	0	54	0	1002438656	46	4148
2026-01-04 09:00:22.24	72.73	18.72	-42.0	-42.7	19.1	0.00e+00	0	54	0	1008730112	46	4003
2026-01-04 09:00:23.24	72.56	18.81	-41.9	-42.6	19.3	0.00e+00	0	54	0	1013972992	46	3948
2026-01-04 09:00:24.23	72.40	18.90	-42.0	-42.7	19.2	0.00e+00	0	54	0	1020264448	46	3969
2026-01-04 09:00:25.21	72.23	18.99	-42.0	-42.7	19.2	0.00e+00	0	54	0	1025507328	46	4003
2026-01-04 09:00:26.21	72.07	19.08	-41.9	-42.6	19.3	0.00e+00	0	54	0	1030750208	46	3933
2026-01-04 09:00:27.20	71.90	19.17	-41.9	-42.6	19.3	0.00e+00	0	54	0	1035993088	46	3934
2026-01-04 09:00:28.19	71.73	19.26	-41.9	-42.7	19.3	0.00e+00	0	54	0	1042284544	46	3959
2026-01-04 09:00:29.17	71.57	19.35	-41.7	-42.4	19.5	0.00e+00	0	55	0	1047527424	46	3853
2026-01-04 09:00:30.17	71.40	19.45	-41.6	-42.3	19.6	0.00e+00	0	54	0	1052770304	46	3803
2026-01-04 09:00:31.16	71.23	19.54	-41.6	-42.3	19.6	0.00e+00	0	54	0	1059061760	46	3817
2026-01-04 09:00:32.15	71.05	19.63	-41.8	-42.5	19.5	0.00e+00	0	54	0	1064304640	46	3876
2026-01-04 09:00:33.13	70.88	19.72	-41.7	-42.4	19.5	0.00e+00	0	54	0	1069547520	46	3862
2026-01-04 09:00:34.12	70.71	19.81	-41.9	-42.6	19.3	0.00e+00	0	54	0	1075838976	46	3928
2026-01-04 09:00:35.11	70.54	19.90	-42.0	-42.7	19.2	0.00e+00	0	54	0	1081081856	46	3974
2026-01-04 09:00:36.09	70.36	19.99	-41.8	-42.5	19.5	0.00e+00	0	54	0	1086324736	46	3875
2026-01-04 09:00:37.08	70.18	20.08	-41.6	-42.3	19.6	0.00e+00	0	54	0	1091567616	46	3804
2026-01-04 09:00:38.07	70.01	20.17	-41.7	-42.4	19.5	0.00e+00	0	54	0	1097859072	46	3841
2026-01-04 09:00:39.06	69.83	20.26	-41.5	-42.2	19.7	0.00e+00	0	55	0	1103101952	46	3756
2026-01-04 09:00:40.05	69.65	20.35	-41.5	-42.1	19.8	0.00e+00	0	55	0	1108344832	46	3729
2026-01-04 09:00:41.04	69.47	20.44	-41.6	-42.3	19.6	0.00e+00	0	55	0	1114636288	46	3791
2026-01-04 09:00:42.03	69.28	20.53	-41.4	-42.1	19.8	0.00e+00	0	54	0	1119879168	46	3705
2026-01-04 09:00:43.02	69.10	20.62	-41.3	-42.0	19.9	0.00e+00	0	54	0	1125122048	45	3886
2026-01-04 09:00:44.01	68.92	20.72	-41.4	-42.1	19.8	0.00e+00	0	55	0	1131413504	45	3933
2026-01-04 09:00:45.01	68.73	20.81	-41.6	-42.3	19.6	0.00e+00	0	55	0	1136656384	45	4024
2026-01-04 09:00:46.00	68.54	20.90	-41.5	-42.1	19.8	0.00e+00	0	54	0	1141899264	45	3944
2026-01-04 09:00:46.99	68.36	20.99	-41.6	-42.3	19.6	0.00e+00	0	55	0	1148190720	45	4017
2026-01-04 09:00:47.97	68.17	21.08	-41.4	-42.0	19.9	0.00e+00	0	55	0	1153433600	45	3906
2026-01-04 09:00:48.97	67.98	21.17	-41.3	-42.0	19.9	0.00e+00	0	55	0	1158676480	45	3892
2026-01-04 09:00:49.96	67.79	21.26	-41.3	-42.0	19.9	0.00e+00	0	55	0	1164967936	45	3890
2026-01-04 09:00:50.95	67.59	21.35	-41.4	-42.1	19.8	0.00e+00	0	55	0	1170210816	45	3935
2026-01-04 09:00:51.94	67.40	21.44	-41.6	-42.3	19.6	0.00e+00	0	55	0	1175453696	45	4030
2026-01-04 09:00:52.92	67.21	21.53	-41.4	-42.1	19.8	0.00e+00	0	55	0	1181745152	45	3937
2026-01-04 09:00:53.91	67.01	21.62	-41.3	-42.0	19.9	0.00e+00	0	55	0	1186988032	45	3879
2026-01-04 09:00:54.90	66.82	21.72	-41.4	-42.0	19.9	0.00e+00	0	55	0	1192230912	45	3905
2026-01-04 09:00:55.89	66.62	21.81	-41.5	-42.1	19.8	0.00e+00	0	55	0	1197473792	45	3952
2026-01-04 09:00:56.88	66.42	21.90	-41.7	-42.4	19.6	0.00e+00	0	55	0	1203765248	45	4063
2026-01-04 09:00:57.87	66.22	21.99	-41.5	-42.2	19.8	0.00e+00	0	55	0	1209008128	45	3962
2026-01-04 09:00:58.86	66.02	22.08	-41.3	-41.9	20.0	0.00e+00	0	55	0	1214251008	45	3861
2026-01-04 09:00:59.84	65.82	22.17	-41.1	-41.8	20.1	0.00e+00	0	55	0	1220542464	45	3793
2026-01-04 09:01:00.84	65.61	22.26	-41.0	-41.7	20.2	0.00e+00	0	55	0	1225785344	45	3738
2026-01-04 09:01:01.82	65.41	22.35	-40.9	-41.5	20.4	0.00e+00	0	55	0	1231028224	45	3684
2026-01-04 09:01:02.81	65.20	22.44	-40.8	-41.4	20.5	0.00e+00	0	55	0	1237319680	44	3846
2026-01-04 09:01:03.80	64.99	22.53	-40.9	-41.5	20.4	0.00e+00	0	55	0	1242562560	44	3872
2026-01-04 09:01:04.78	64.79	22.62	-41.1	-41.7	20.2	0.00e+00	0	55	0	1247805440	44	3992
2026-01-04 09:01:05.78	64.58	22.71	-41.0	-41.7	20.2	0.00e+00	0	55	0	1253048320	44	3973
2026-01-04 09:01:06.76	64.37	22.80	-41.2	-41.9	20.1	0.00e+00	0	55	0	1259339776	44	4052
2026-01-04 09:01:07.76	64.15	22.89	-41.2	-41.8	20.1	0.00e+00	0	55	0	1264582656	44	4035
2026-01-04 09:01:08.74	63.94	22.98	-41.1	-41.7	20.2	0.00e+00	0	55	0	1269825536	44	3984
2026-01-04 09:01:09.73	63.73	23.07	-41.1	-41.8	20.1	0.00e+00	0	55	0	1276116992	44	4019
2026-01-04 09:01:10.73	63.51	23.16	-41.2	-41.9	20.1	0.00e+00	0	55	0	1281359872	44	4059
2026-01-04 09:01:11.72	63.29	23.25	-41.0	-41.6	20.3	0.00e+00	0	55	0	1286602752	44	3953
2026-01-04 09:01:12.71	63.07	23.34	-40.7	-41.3	20.6	0.00e+00	0	55	0	1292894208	44	3813
2026-01-04 09:01:13.71	62.85	23.43	-40.6	-41.2	20.7	0.00e+00	0	55	0	1298137088	44	3740
2026-01-04 09:01:14.69	62.63	23.52	-40.6	-41.2	20.7	0.00e+00	0	55	0	1303379968	44	3751
2026-01-04 09:01:15.68	62.41	23.61	-40.6	-41.2	20.7	0.00e+00	0	55	0	1309671424	44	3760
2026-01-04 09:01:16.67	62.18	23.69	-40.8	-41.4	20.5	0.00e+00	0	55	0	1314914304	44	3839
2026-01-04 09:01:17.66	61.96	23.78	-40.7	-41.3	20.6	0.00e+00	0	55	0	1320157184	44	3816
2026-01-04 09:01:18.66	61.73	23.87	-40.6	-41.2	20.7	0.00e+00	0	55	0	1326448640	44	3759
2026-01-04 09:01:19.65	61.50	23.96	-40.6	-41.2	20.7	0.00e+00	0	55	0	1331691520	44	3744
2026-01-04 09:01:20.64	61.27	24.05	-40.7	-41.3	20.6	0.00e+00	0	55	0	1336934400	44	3808
2026-01-04 09:01:21.63	61.04	24.14	-40.9	-41.6	20.4	0.00e+00	0	55	0	1342177280	44	3923
2026-01-04 09:01:22.62	60.81	24.22	-40.8	-41.4	20.5	0.00e+00	0	55	0	1348468736	44	3839
2026-01-04 09:01:23.61	60.58	24.31	-40.6	-41.2	20.7	0.00e+00	0	55	0	1353711616	44	3768
2026-01-04 09:01:24.59	60.35	24.40	-40.7	-41.3	20.6	0.00e+00	0	55	0	1358954496	44	3809
2026-01-04 09:01:25.59	60.11	24.48	-40.9	-41.5	20.5	0.00e+00	0	55	0	1365245952	44	3884
2026-01-04 09:01:26.58	59.87	24.57	-40.9	-41.5	20.4	0.00e+00	0	55	0	1370488832	44	3897
2026-01-04 09:01:27.57	59.63	24.66	-41.0	-41.6	20.4	0.00e+00	0	55	0	1375731712	44	3922
2026-01-04 09:01:28.55	59.40	24.74	-41.1	-41.7	20.2	0.00e+00	0	55	0	1380974592	44	3977
2026-01-04 09:01:29.54	59.16	24.83	-41.0	-41.6	20.4	0.00e+00	0	55	0	1387266048	44	3938
2026-01-04 09:01:30.52	58.92	24.91	-41.0	-41.6	20.4	0.00e+00	0	55	0	1392508928	44	3940
2026-01-04 09:01:31.51	58.67	25.00	-41.0	-41.6	20.3	0.00e+00	0	55	0	1398800384	44	3948
2026-01-04 09:01:32.50	58.43	25.08	-41.1	-41.7	20.3	0.00e+00	0	55	0	1404043264	44	3977
2026-01-04 09:01:33.49	58.18	25.17	-40.9	-41.5	20.4	0.00e+00	0	55	0	1409286144	44	3907
2026-01-04 09:01:34.47	57.94	25.25	-40.7	-41.2	20.7	0.00e+00	0	55	0	1414529024	44	3780
2026-01-04 09:01:35.46	57.69	25.33	-40.5	-41.1	20.8	0.00e+00	0	55	0	1420820480	44	3725
2026-01-04 09:01:36.44	57.44	25.42	-40.6	-41.2	20.7	0.00e+00	0	55	0	1426063360	44	3751
2026-01-04 09:01:37.43	57.19	25.50	-40.7	-41.3	20.6	0.00e+00	0	55	0	1431306240	44	3809
2026-01-04 09:01:38.42	56.94	25.58	-40.8	-41.4	20.5	0.00e+00	0	55	0	1437597696	44	3854
2026-01-04 09:01:39.42	56.68	25.67	-41.0	-41.6	20.4	0.00e+00	0	55	0	1442840576	44	3936
2026-01-04 09:01:40.40	56.43	25.75	-41.0	-41.6	20.4	0.00e+00	0	55	0	1448083456	44	3925
2026-01-04 09:01:41.40	56.17	25.83	-41.1	-41.7	20.3	0.00e+00	0	55	0	1453326336	44	3983
2026-01-04 09:01:42.39	55.91	25.91	-41.0	-41.7	20.3	0.00e+00	0	55	0	1459617792	44	3966
2026-01-04 09:01:43.38	55.65	25.99	-40.7	-41.3	20.6	0.00e+00	0	55	0	1464860672	44	3802
2026-01-04 09:01:44.38	55.39	26.07	-40.5	-41.1	20.8	0.00e+00	0	55	0	1471152128	44	3727
2026-01-04 09:01:45.37	55.13	26.15	-40.5	-41.1	20.9	0.00e+00	0	55	0	1476395008	44	3702
2026-01-04 09:01:46.36	54.86	26.23	-40.5	-41.1	20.9	0.00e+00	0	55	0	1481637888	44	3703
2026-01-04 09:01:47.35	54.60	26.31	-40.4	-40.9	21.0	0.00e+00	0	55	0	1486880768	44	3649
2026-01-04 09:01:48.34	54.33	26.39	-40.1	-40.6	21.2	0.00e+00	0	55	0	1493172224	43	3719
2026-01-04 09:01:49.32	54.07	26.47	-40.0	-40.5	21.3	0.00e+00	0	55	0	1498415104	43	3683
2026-01-04 09:01:50.32	53.80	26.55	-40.0	-40.5	21.3	0.00e+00	0	55	0	1503657984	43	3691
2026-01-04 09:01:51.31	53.53	26.63	-39.9	-40.4	21.4	0.00e+00	0	55	0	1509949440	42	3854
2026-01-04 09:01:52.29	53.26	26.70	-39.9	-40.5	21.3	0.00e+00	0	56	0	1515192320	42	3902
2026-01-04 09:01:53.28	52.99	26.78	-40.1	-40.7	21.2	0.00e+00	0	55	0	1520435200	42	3966
2026-01-04 09:01:54.27	52.71	26.86	-40.1	-40.7	21.1	0.00e+00	0	55	0	1526726656	42	3988
2026-01-04 09:01:55.26	52.44	26.93	-40.3	-40.8	21.0	0.00e+00	0	55	0	1531969536	42	4046
2026-01-04 09:01:56.24	52.16	27.01	-40.3	-40.9	20.9	0.00e+00	0	55	0	1537212416	42	4081
2026-01-04 09:01:57.23	51.89	27.08	-40.3	-40.9	20.9	0.00e+00	0	55	0	1542455296	42	4079
2026-01-04 09:01:58.22	51.61	27.15	-40.2	-40.8	21.0	0.00e+00	0	55	0	1548746752	42	4022
2026-01-04 09:01:59.21	51.33	27.23	-40.2	-40.8	21.0	0.00e+00	0	55	0	1553989632	42	4031
2026-01-04 09:02:00.20	51.05	27.30	-40.4	-40.9	20.9	0.00e+00	0	55	0	1559232512	42	4086
2026-01-04 09:02:01.19	50.76	27.37	-40.4	-41.0	20.9	0.00e+00	0	55	0	1565523968	42	4100
2026-01-04 09:02:02.18	50.48	27.44	-40.3	-40.8	21.0	0.00e+00	0	55	0	1570766848	42	4051
2026-01-04 09:02:03.16	50.20	27.51	-40.4	-41.0	20.9	0.00e+00	0	55	0	1576009728	42	4101
2026-01-04 09:02:04.15	49.91	27.58	-40.5	-41.1	20.8	0.00e+00	0	56	0	1581252608	42	4174
2026-01-04 09:02:05.15	49.62	27.65	-40.5	-41.1	20.8	0.00e+00	0	55	0	1587544064	42	4159
2026-01-04 09:02:06.13	49.33	27.72	-40.5	-41.1	20.8	0.00e+00	0	56	0	1592786944	42	4170
2026-01-04 09:02:07.12	49.04	27.79	-40.6	-41.2	20.7	0.00e+00	0	55	0	1599078400	43	3971
2026-01-04 09:02:08.10	48.75	27.86	-40.8	-41.4	20.5	0.00e+00	0	55	0	1604321280	43	4077
2026-01-04 09:02:09.10	48.46	27.93	-40.5	-41.1	20.7	0.00e+00	0	55	0	1609564160	43	3947
2026-01-04 09:02:10.09	48.16	27.99	-40.9	-41.5	20.4	0.00e+00	0	56	0	1614807040	43	4125
2026-01-04 09:02:11.07	47.87	28.06	-40.6	-41.2	20.7	0.00e+00	0	56	0	1621098496	43	3973
2026-01-04 09:02:12.06	47.57	28.12	-40.2	-40.8	21.0	0.00e+00	0	56	0	1626341376	43	3812
2026-01-04 09:02:13.06	47.27	28.19	-40.0	-40.5	21.3	0.00e+00	0	55	0	1631584256	43	3692
2026-01-04 09:02:14.05	46.97	28.25	-39.9	-40.4	21.4	0.00e+00	0	55	0	1637875712	42	3849
2026-01-04 09:02:15.04	46.67	28.31	-39.8	-40.4	21.5	0.00e+00	0	56	0	1643118592	42	3827
2026-01-04 09:02:16.03	46.37	28.38	-40.0	-40.6	21.3	0.00e+00	0	56	0	1648361472	42	3915
2026-01-04 09:02:17.03	46.06	28.44	-39.9	-40.5	21.4	0.00e+00	0	55	0	1654652928	42	3879
2026-01-04 09:02:18.02	45.76	28.50	-39.9	-40.5	21.3	0.00e+00	0	56	0	1659895808	42	3886
2026-01-04 09:02:19.02	45.45	28.56	-40.0	-40.6	21.2	0.00e+00	0	56	0	1665138688	42	3937
2026-01-04 09:02:20.01	45.15	28.62	-40.3	-40.9	21.0	0.00e+00	0	56	0	1671430144	42	4058
2026-01-04 09:02:20.99	44.84	28.68	-40.1	-40.6	21.2	0.00e+00	0	56	0	1676673024	42	3953
2026-01-04 09:02:21.99	44.53	28.73	-39.8	-40.4	21.4	0.00e+00	0	56	0	1681915904	42	3849
2026-01-04 09:02:22.97	44.22	28.79	-39.7	-40.3	21.6	0.00e+00	0	56	0	1688207360	42	3783
2026-01-04 09:02:23.96	43.91	28.85	-39.8	-40.4	21.4	0.00e+00	0	55	0	1693450240	42	3838
2026-01-04 09:02:24.96	43.60	28.90	-39.8	-40.3	21.5	0.00e+00	0	56	0	1698693120	42	3818
2026-01-04 09:02:25.94	43.29	28.96	-39.8	-40.3	21.5	0.00e+00	0	56	0	1703936000	42	3824
2026-01-04 09:02:26.94	42.97	29.01	-39.9	-40.4	21.4	0.00e+00	0	56	0	1710227456	42	3850
2026-01-04 09:02:27.93	42.66	29.06	-39.8	-40.4	21.5	0.00e+00	0	56	0	1715470336	42	3835
2026-01-04 09:02:28.91	42.34	29.11	-39.9	-40.4	21.4	0.00e+00	0	56	0	1721761792	42	3854
2026-01-04 09:02:29.90	42.03	29.16	-40.0	-40.6	21.3	0.00e+00	0	56	0	1727004672	42	3922
2026-01-04 09:02:30.89	41.71	29.21	-39.8	-40.4	21.4	0.00e+00	0	56	0	1732247552	42	3837
2026-01-04 09:02:31.88	41.39	29.26	-39.7	-40.2	21.6	0.00e+00	0	55	0	1737490432	42	3762
2026-01-04 09:02:32.87	41.07	29.31	-39.8	-40.3	21.5	0.00e+00	0	56	0	1743781888	42	3802
2026-01-04 09:02:33.86	40.75	29.36	-39.8	-40.3	21.5	0.00e+00	0	56	0	1749024768	42	3824
2026-01-04 09:02:34.86	40.42	29.40	-39.8	-40.3	21.5	0.00e+00	0	56	0	1754267648	42	3822
2026-01-04 09:02:35.85	40.10	29.45	-39.7	-40.3	21.6	0.00e+00	0	56	0	1760559104	42	3785
2026-01-04 09:02:36.84	39.78	29.49	-39.6	-40.2	21.6	0.00e+00	0	56	0	1765801984	42	3754
2026-01-04 09:02:37.83	39.45	29.54	-39.4	-39.9	21.9	0.00e+00	0	56	0	1771044864	42	3649
2026-01-04 09:02:38.82	39.13	29.58	-39.3	-39.8	22.0	0.00e+00	0	56	0	1777336320	41	3808
2026-01-04 09:02:39.82	38.80	29.62	-39.5	-40.0	21.7	0.00e+00	0	56	0	1782579200	41	3892
2026-01-04 09:02:40.81	38.47	29.66	-39.5	-40.1	21.7	0.00e+00	0	56	0	1787822080	41	3931
2026-01-04 09:02:41.79	38.15	29.70	-39.6	-40.1	21.7	0.00e+00	0	56	0	1793064960	41	3955
2026-01-04 09:02:42.78	37.82	29.74	-39.6	-40.2	21.6	0.00e+00	0	56	0	1799356416	41	3961
2026-01-04 09:02:43.77	37.49	29.78	-39.6	-40.2	21.6	0.00e+00	0	56	0	1804599296	41	3971
2026-01-04 09:02:44.76	37.16	29.81	-39.8	-40.3	21.5	0.00e+00	0	56	0	1810890752	41	4041
2026-01-04 09:02:45.76	36.83	29.85	-40.0	-40.5	21.3	0.00e+00	0	56	0	1816133632	41	4134
2026-01-04 09:02:46.75	36.49	29.88	-40.2	-40.8	21.1	0.00e+00	0	56	0	1821376512	42	4031
2026-01-04 09:02:47.73	36.16	29.91	-40.2	-40.8	21.1	0.00e+00	0	56	0	1826619392	42	4023
2026-01-04 09:02:48.72	35.83	29.95	-40.1	-40.6	21.2	0.00e+00	0	56	0	1832910848	42	3949
2026-01-04 09:02:49.71	35.50	29.98	-40.0	-40.6	21.3	0.00e+00	0	56	0	1838153728	42	3923
2026-01-04 09:02:50.70	35.16	30.01	-39.8	-40.4	21.4	0.00e+00	0	56	0	1843396608	42	3845
2026-01-04 09:02:51.68	34.83	30.04	-40.0	-40.5	21.3	0.00e+00	0	56	0	1849688064	42	3891
2026-01-04 09:02:52.67	34.50	30.06	-39.9	-40.5	21.4	0.00e+00	0	56	0	1854930944	42	3882
2026-01-04 09:02:53.66	34.16	30.09	-40.1	-40.6	21.2	0.00e+00	0	56	0	1860173824	42	3957
2026-01-04 09:02:54.65	33.82	30.12	-40.1	-40.6	21.2	0.00e+00	0	56	0	1865416704	42	3948
2026-01-04 09:02:55.64	33.49	30.14	-39.8	-40.4	21.5	0.00e+00	0	56	0	1871708160	42	3840
2026-01-04 09:02:56.63	33.15	30.16	-39.6	-40.1	21.7	0.00e+00	0	56	0	1876951040	42	3733
2026-01-04 09:02:57.61	32.82	30.19	-39.4	-40.0	21.8	0.00e+00	0	56	0	1882193920	42	3659
2026-01-04 09:02:58.60	32.48	30.21	-39.5	-40.0	21.8	0.00e+00	0	56	0	1888485376	42	3667
2026-01-04 09:02:59.60	32.13	30.23	-39.4	-39.9	21.9	0.00e+00	0	56	0	1893728256	42	3648
2026-01-04 09:03:00.59	31.79	30.25	-39.3	-39.8	21.9	0.00e+00	0	56	0	1898971136	41	3816
2026-01-04 09:03:01.58	31.46	30.27	-39.3	-39.9	21.9	0.00e+00	0	56	0	1905262592	41	3832
2026-01-04 09:03:02.57	31.11	30.28	-39.5	-40.0	21.8	0.00e+00	0	56	0	1910505472	41	3895
2026-01-04 09:03:03.56	30.77	30.30	-39.6	-40.1	21.7	0.00e+00	0	56	0	1915748352	41	3950
2026-01-04 09:03:04.56	30.43	30.31	-39.6	-40.1	21.7	0.00e+00	0	56	0	1922039808	41	3948
2026-01-04 09:03:05.55	30.09	30.33	-39.6	-40.1	21.6	0.00e+00	0	56	0	1927282688	41	3955
2026-01-04 09:03:06.53	29.75	30.34	-39.5	-40.0	21.8	0.00e+00	0	56	0	1932525568	41	3903
2026-01-04 09:03:07.53	29.41	30.35	-39.5	-40.0	21.7	0.00e+00	0	56	0	1938817024	41	3899
2026-01-04 09:03:08.52	29.06	30.36	-39.7	-40.3	21.5	0.00e+00	0	56	0	1944059904	41	4019
2026-01-04 09:03:09.51	28.72	30.37	-39.8	-40.4	21.4	0.00e+00	0	56	0	1949302784	41	4066
2026-01-04 09:03:10.50	28.38	30.38	-39.8	-40.3	21.5	0.00e+00	0	56	0	1955594240	41	4034
2026-01-04 09:03:11.50	28.03	30.38	-39.9	-40.4	21.4	0.00e+00	0	56	0	1960837120	41	4070
2026-01-04 09:03:12.49	27.69	30.39	-39.9	-40.4	21.4	0.00e+00	0	56	0	1966080000	41	4080
2026-01-04 09:03:13.48	27.35	30.39	-39.7	-40.3	21.5	0.00e+00	0	56	0	1971322880	41	4017
2026-01-04 09:03:14.47	27.01	30.40	-39.6	-40.1	21.7	0.00e+00	0	56	0	1977614336	41	3945
2026-01-04 09:03:15.46	26.66	30.40	-39.5	-40.0	21.8	0.00e+00	0	56	0	1982857216	41	3897
2026-01-04 09:03:16.45	26.32	30.40	-39.4	-39.9	21.8	0.00e+00	0	56	0	1988100096	41	3864
2026-01-04 09:03:17.43	25.98	30.40	-39.4	-40.0	21.8	0.00e+00	0	56	0	1994391552	41	3880
2026-01-04 09:03:18.43	25.64	30.40	-39.7	-40.2	21.5	0.00e+00	0	56	0	1999634432	41	3993
2026-01-04 09:03:19.42	25.29	30.39	-39.7	-40.3	21.5	0.00e+00	0	56	0	2004877312	41	4020
2026-01-04 09:03:20.41	24.95	30.39	-39.5	-40.0	21.7	0.00e+00	0	56	0	2011168768	41	3910
2026-01-04 09:03:21.40	24.61	30.38	-39.5	-40.0	21.7	0.00e+00	0	56	0	2016411648	41	3888
2026-01-04 09:03:22.38	24.27	30.38	-39.4	-39.9	21.8	0.00e+00	0	56	0	2021654528	41	3859
2026-01-04 09:03:23.38	23.92	30.37	-39.5	-40.0	21.7	0.00e+00	0	56	0	2027945984	41	3886
2026-01-04 09:03:24.36	23.58	30.36	-39.5	-40.1	21.6	0.00e+00	0	56	0	2033188864	41	3914
2026-01-04 09:03:25.35	23.24	30.35	-39.5	-40.0	21.7	0.00e+00	0	56	0	2038431744	41	3887
2026-01-04 09:03:26.35	22.90	30.34	-39.4	-39.9	21.7	0.00e+00	0	56	0	2043674624	41	3849
2026-01-04 09:03:27.34	22.56	30.33	-39.3	-39.9	21.7	0.00e+00	0	56	0	2049966080	41	3839
2026-01-04 09:03:28.33	22.22	30.32	-39.5	-40.0	21.5	0.00e+00	0	56	0	2055208960	41	3913
2026-01-04 09:03:29.31	21.88	30.30	-39.6	-40.1	21.4	0.00e+00	0	56	0	2061500416	41	3954
2026-01-04 09:03:30.29	21.54	30.29	-39.5	-40.1	21.4	0.00e+00	0	56	0	2066743296	41	3931
2026-01-04 09:03:31.28	21.20	30.27	-39.7	-40.2	21.2	0.00e+00	0	56	0	2071986176	41	4000
2026-01-04 09:03:32.27	20.86	30.25	-39.9	-40.5	20.9	0.00e+00	0	56	0	2077229056	41	4124
2026-01-04 09:03:33.26	20.52	30.24	-40.0	-40.6	20.8	0.00e+00	0	56	0	2083520512	41	4175
2026-01-04 09:03:34.25	20.18	30.22	-40.2	-40.8	20.6	0.00e+00	0	56	0	2088763392	42	4024
2026-01-04 09:03:35.24	19.84	30.20	-40.4	-41.0	20.3	0.00e+00	0	56	0	2094006272	42	4113
2026-01-04 09:03:36.23	19.51	30.17	-40.6	-41.2	20.0	0.00e+00	0	56	0	2100297728	42	4240
2026-01-04 09:03:37.22	19.17	30.15	-40.9	-41.5	19.7	0.00e+00	0	56	0	2105540608	43	4134
2026-01-04 09:03:38.21	18.83	30.13	-41.0	-41.7	19.5	0.00e+00	0	56	0	2110783488	43	4210
2026-01-04 09:03:39.19	18.50	30.10	-41.3	-42.0	19.3	0.00e+00	0	56	0	2116026368	44	4099
2026-01-04 09:03:40.18	18.16	30.08	-41.6	-42.4	18.8	0.00e+00	0	56	0	2122317824	45	4053
2026-01-04 09:03:41.17	17.83	30.05	-42.0	-42.8	18.4	0.00e+00	0	56	0	2127560704	45	4263
2026-01-04 09:03:42.16	17.49	30.02	-42.2	-43.0	18.1	0.00e+00	0	56	0	2132803584	46	4140
2026-01-04 09:03:43.14	17.16	29.99	-42.5	-43.3	17.8	0.00e+00	0	56	0	2139095040	46	4289
2026-01-04 09:03:44.14	16.82	29.96	-42.9	-43.8	17.3	0.00e+00	0	56	0	2144337920	47	4264
2026-01-04 09:03:45.13	16.49	29.93	-43.2	-44.2	17.1	0.00e+00	0	56	0	2149580800	48	4202
2026-01-04 09:03:46.11	16.16	29.89	-43.4	-44.4	16.8	0.00e+00	0	56	0	2155872256	48	4313
2026-01-04 09:03:47.10	15.83	29.86	-43.7	-44.8	16.4	0.00e+00	0	56	0	2161115136	49	4252
2026-01-04 09:03:48.09	15.50	29.83	-43.9	-45.0	16.2	0.00e+00	0	56	0	2166358016	49	4355
2026-01-04 09:03:49.08	15.17	29.79	-44.0	-45.1	16.1	0.00e+00	0	56	0	2171600896	49	4396
2026-01-04 09:03:50.06	14.84	29.75	-43.9	-45.0	16.3	0.00e+00	0	56	0	2177892352	49	4361
2026-01-04 09:03:51.06	14.51	29.72	-43.9	-44.9	16.5	0.00e+00	0	56	0	2183135232	49	4329
2026-01-04 09:03:52.05	14.18	29.68	-42.9	-43.8	17.8	0.00e+00	0	56	0	2188378112	49	3791
2026-01-04 09:03:53.04	13.85	29.64	-41.9	-42.7	18.9	0.00e+00	0	56	0	2194669568	47	3741
2026-01-04 09:03:54.03	13.53	29.60	-41.6	-42.3	19.4	0.00e+00	0	56	0	2199912448	46	3804
2026-01-04 09:03:55.02	13.20	29.55	-41.5	-42.2	19.5	0.00e+00	0	56	0	2205155328	46	3771
2026-01-04 09:03:56.01	12.88	29.51	-41.6	-42.3	19.5	0.00e+00	0	56	0	2211446784	46	3819
2026-01-04 09:03:56.99	12.56	29.47	-41.1	-41.8	20.0	0.00e+00	0	56	0	2216689664	45	3800
2026-01-04 09:03:57.99	12.23	29.42	-41.5	-42.1	19.8	0.00e+00	0	56	0	2221932544	45	3945
2026-01-04 09:03:58.97	11.91	29.38	-41.0	-41.6	20.2	0.00e+00	0	56	0	2228224000	45	3736
2026-01-04 09:03:59.96	11.59	29.33	-40.8	-41.4	20.5	0.00e+00	0	56	0	2233466880	44	3845
2026-01-04 09:04:00.96	11.27	29.28	-40.5	-41.1	20.7	0.00e+00	0	56	0	2238709760	44	3727
2026-01-04 09:04:01.95	10.95	29.23	-40.4	-41.0	20.8	0.00e+00	0	56	0	2243952640	44	3664
2026-01-04 09:04:02.94	10.63	29.19	-40.2	-40.8	21.0	0.00e+00	0	56	0	2250244096	43	3786
2026-01-04 09:04:03.93	10.31	29.14	-39.8	-40.4	21.4	0.00e+00	0	56	0	2255486976	42	3835
2026-01-04 09:04:04.92	10.00	29.08	-39.6	-40.2	21.5	0.00e+00	0	56	0	2260729856	42	3750
2026-01-04 09:04:05.90	9.69	29.03	-39.5	-40.0	21.7	0.00e+00	0	56	0	2267021312	42	3674
2026-01-04 09:04:06.89	9.37	28.98	-39.5	-40.1	21.6	0.00e+00	0	56	0	2272264192	42	3704
2026-01-04 09:04:07.88	9.06	28.93	-39.9	-40.4	21.3	0.00e+00	0	56	0	2277507072	42	3844
2026-01-04 09:04:08.87	8.75	28.87	-39.7	-40.2	21.5	0.00e+00	0	56	0	2283798528	42	3770
2026-01-04 09:04:09.85	8.44	28.82	-39.6	-40.1	21.6	0.00e+00	0	56	0	2289041408	42	3728
2026-01-04 09:04:10.83	8.13	28.76	-39.7	-40.2	21.5	0.00e+00	0	56	0	2294284288	42	3780
2026-01-04 09:04:11.82	7.82	28.70	-39.8	-40.4	21.4	0.00e+00	0	56	0	2300575744	42	3827
2026-01-04 09:04:12.81	7.52	28.65	-39.9	-40.4	21.3	0.00e+00	0	56	0	2305818624	42	3858
2026-01-04 09:04:13.80	7.21	28.59	-39.7	-40.3	21.5	0.00e+00	0	56	0	2311061504	42	3783
2026-01-04 09:04:14.78	6.91	28.53	-39.6	-40.1	21.6	0.00e+00	0	56	0	2316304384	42	3723
2026-01-04 09:04:15.77	6.60	28.47	-39.8	-40.3	21.4	0.00e+00	0	56	0	2322595840	42	3816
2026-01-04 09:04:16.76	6.30	28.41	-39.8	-40.4	21.4	0.00e+00	0	56	0	2327838720	42	3842
2026-01-04 09:04:17.75	6.00	28.35	-39.9	-40.5	21.3	0.00e+00	0	56	0	2333081600	42	3883
2026-01-04 09:04:18.74	5.70	28.28	-40.1	-40.7	21.1	0.00e+00	0	56	0	2339373056	42	3980
2026-01-04 09:04:19.74	5.40	28.22	-40.1	-40.7	21.1	0.00e+00	0	56	0	2344615936	42	3974
2026-01-04 09:04:20.72	5.10	28.16	-39.8	-40.4	21.4	0.00e+00	0	56	0	2349858816	42	3843
2026-01-04 09:04:21.70	4.81	28.09	-39.7	-40.3	21.5	0.00e+00	0	56	0	2356150272	42	3789
2026-01-04 09:04:22.70	4.51	28.03	-39.7	-40.3	21.4	0.00e+00	0	56	0	2361393152	42	3793
2026-01-04 09:04:23.68	4.22	27.96	-39.7	-40.3	21.3	0.00e+00	0	56	0	2366636032	42	3799
2026-01-04 09:04:24.68	3.92	27.89	-40.0	-40.5	21.1	0.00e+00	0	56	0	2371878912	42	3908
2026-01-04 09:04:25.67	3.63	27.83	-40.0	-40.5	21.2	0.00e+00	0	56	0	2378170368	42	3913
2026-01-04 09:04:26.66	3.34	27.76	-40.0	-40.6	21.2	0.00e+00	0	56	0	2383413248	42	3915
2026-01-04 09:04:27.65	3.05	27.69	-40.2	-40.8	21.0	0.00e+00	0	56	0	2388656128	42	4041
2026-01-04 09:04:28.64	2.76	27.62	-40.2	-40.8	21.0	0.00e+00	0	56	0	2394947584	42	4014
2026-01-04 09:04:29.62	2.47	27.55	-39.8	-40.4	21.4	0.00e+00	0	56	0	2400190464	42	3852
2026-01-04 09:04:30.60	2.19	27.48	-39.6	-40.2	21.6	0.00e+00	0	56	0	2405433344	42	3752
2026-01-04 09:04:31.59	1.91	27.41	-39.6	-40.1	21.6	0.00e+00	0	56	0	2410676224	42	3716
2026-01-04 09:04:32.58	1.62	27.34	-39.7	-40.2	21.5	0.00e+00	0	56	0	2416967680	42	3774
2026-01-04 09:04:33.58	1.34	27.26	-39.8	-40.3	21.5	0.00e+00	0	56	0	2422210560	42	3806
2026-01-04 09:04:34.57	1.06	27.19	-39.8	-40.3	21.5	0.00e+00	0	56	0	2428502016	42	3814
2026-01-04 09:04:35.57	0.77	27.12	-40.0	-40.6	21.2	0.00e+00	0	56	0	2433744896	42	3915
2026-01-04 09:04:36.56	0.50	27.04	-40.1	-40.7	21.1	0.00e+00	0	56	0	2438987776	42	3983
2026-01-04 09:04:37.55	0.22	26.97	-40.1	-40.7	21.1	0.00e+00	0	56	0	2444230656	42	3970
2026-01-04 09:04:38.54	359.94	26.89	-40.3	-40.9	20.9	0.00e+00	0	56	0	2450522112	42	4074
2026-01-04 09:04:39.53	359.67	26.82	-40.3	-40.8	20.9	0.00e+00	0	56	0	2455764992	42	4051
2026-01-04 09:04:40.51	359.40	26.74	-40.1	-40.6	21.1	0.00e+00	0	56	0	2461007872	42	3958
2026-01-04 09:04:41.51	359.13	26.66	-40.0	-40.5	21.2	0.00e+00	0	56	0	2467299328	42	3899
2026-01-04 09:04:42.49	358.86	26.59	-40.0	-40.6	21.2	0.00e+00	0	56	0	2472542208	42	3929
2026-01-04 09:04:43.48	358.59	26.51	-40.1	-40.6	21.2	0.00e+00	0	56	0	2477785088	42	3954
2026-01-04 09:04:44.47	358.32	26.43	-40.1	-40.6	21.2	0.00e+00	0	56	0	2484076544	42	3948
2026-01-04 09:04:45.46	358.06	26.35	-40.1	-40.7	21.1	0.00e+00	0	56	0	2489319424	42	3987
2026-01-04 09:04:46.46	357.79	26.27	-40.1	-40.7	21.1	0.00e+00	0	56	0	2494562304	42	3973
2026-01-04 09:04:47.45	357.52	26.19	-39.9	-40.5	21.3	0.00e+00	0	56	0	2499805184	42	3883
2026-01-04 09:04:48.44	357.26	26.11	-39.9	-40.4	21.3	0.00e+00	0	56	0	2506096640	42	3843
2026-01-04 09:04:49.43	357.00	26.03	-39.9	-40.5	21.3	0.00e+00	0	57	0	2511339520	42	3873
2026-01-04 09:04:50.42	356.74	25.95	-40.2	-40.8	21.0	0.00e+00	0	56	0	2517630976	42	4009
2026-01-04 09:04:51.41	356.48	25.87	-40.4	-41.0	20.8	0.00e+00	0	56	0	2522873856	42	4123
2026-01-04 09:04:52.40	356.23	25.79	-40.5	-41.1	20.7	0.00e+00	0	56	0	2528116736	42	4160
2026-01-04 09:04:53.38	355.97	25.71	-40.5	-41.1	20.7	0.00e+00	0	56	0	2533359616	43	3952
2026-01-04 09:04:54.37	355.72	25.63	-40.2	-40.8	21.0	0.00e+00	0	56	0	2539651072	43	3783
2026-01-04 09:04:55.36	355.47	25.54	-39.9	-40.5	21.3	0.00e+00	0	56	0	2544893952	43	3668
2026-01-04 09:04:56.35	355.21	25.46	-39.9	-40.4	21.3	0.00e+00	0	56	0	2550136832	43	3651
2026-01-04 09:04:57.34	354.96	25.38	-40.0	-40.5	21.3	0.00e+00	0	56	0	2556428288	43	3676
2026-01-04 09:04:58.33	354.72	25.29	-40.0	-40.5	21.3	0.00e+00	0	56	0	2561671168	43	3675
2026-01-04 09:04:59.32	354.47	25.21	-40.1	-40.6	21.1	0.00e+00	0	56	0	2566914048	43	3725
2026-01-04 09:05:00.31	354.22	25.13	-40.1	-40.7	21.1	0.00e+00	0	56	0	2573205504	43	3761
2026-01-04 09:05:01.30	353.98	25.04	-40.0	-40.6	21.2	0.00e+00	0	56	0	2578448384	43	3697
2026-01-04 09:05:02.29	353.73	24.96	-40.0	-40.6	21.2	0.00e+00	0	56	0	2583691264	43	3713
2026-01-04 09:05:03.28	353.49	24.87	-40.1	-40.7	21.1	0.00e+00	0	57	0	2589982720	43	3764
2026-01-04 09:05:04.28	353.25	24.78	-40.1	-40.7	21.0	0.00e+00	0	56	0	2595225600	43	3765
2026-01-04 09:05:05.26	353.01	24.70	-40.2	-40.8	21.0	0.00e+00	0	56	0	2600468480	43	3784
2026-01-04 09:05:06.26	352.77	24.61	-40.3	-40.8	20.9	0.00e+00	0	56	0	2606759936	43	3819
2026-01-04 09:05:07.24	352.54	24.53	-40.0	-40.6	21.2	0.00e+00	0	57	0	2612002816	43	3707
2026-01-04 09:05:08.22	352.30	24.44	-39.9	-40.5	21.3	0.00e+00	0	56	0	2617245696	43	3668
2026-01-04 09:05:09.22	352.07	24.35	-40.0	-40.5	21.2	0.00e+00	0	56	0	2622488576	43	3690
2026-01-04 09:05:10.21	351.83	24.27	-40.1	-40.6	21.1	0.00e+00	0	56	0	2628780032	43	3720
2026-01-04 09:05:11.20	351.60	24.18	-40.3	-40.9	20.9	0.00e+00	0	56	0	2634022912	43	3830
2026-01-04 09:05:12.19	351.37	24.09	-40.4	-41.0	20.8	0.00e+00	0	57	0	2639265792	43	3887
2026-01-04 09:05:13.18	351.14	24.00	-40.4	-41.0	20.7	0.00e+00	0	57	0	2645557248	43	3906
2026-01-04 09:05:14.16	350.92	23.92	-40.4	-41.0	20.7	0.00e+00	0	57	0	2650800128	43	3910
2026-01-04 09:05:15.16	350.69	23.83	-40.5	-41.1	20.6	0.00e+00	0	57	0	2656043008	43	3950
2026-01-04 09:05:16.15	350.46	23.74	-40.6	-41.2	20.5	0.00e+00	0	56	0	2661285888	43	4003
2026-01-04 09:05:17.14	350.24	23.65	-40.5	-41.1	20.7	0.00e+00	0	57	0	2667577344	43	3918
2026-01-04 09:05:18.12	350.02	23.56	-40.7	-41.3	20.5	0.00e+00	0	56	0	2672820224	43	4026
2026-01-04 09:05:19.11	349.80	23.47	-40.6	-41.2	20.6	0.00e+00	0	56	0	2679111680	43	3974
2026-01-04 09:05:20.10	349.58	23.39	-40.8	-41.4	20.3	0.00e+00	0	57	0	2684354560	43	4096
2026-01-04 09:05:21.08	349.36	23.30	-40.7	-41.3	20.4	0.00e+00	0	57	0	2689597440	43	4041
2026-01-04 09:05:22.07	349.14	23.21	-40.6	-41.2	20.5	0.00e+00	0	57	0	2694840320	43	3986
2026-01-04 09:05:23.06	348.92	23.12	-40.7	-41.3	20.4	0.00e+00	0	56	0	2701131776	43	4044
2026-01-04 09:05:24.05	348.71	23.03	-40.6	-41.2	20.5	0.00e+00	0	56	0	2706374656	43	3987
2026-01-04 09:05:25.04	348.50	22.94	-40.7	-41.3	20.4	0.00e+00	0	57	0	2711617536	43	4032
2026-01-04 09:05:26.02	348.28	22.85	-40.9	-41.5	20.2	0.00e+00	0	57	0	2717908992	43	4136
2026-01-04 09:05:27.01	348.07	22.76	-40.8	-41.4	20.4	0.00e+00	0	57	0	2723151872	43	4057
2026-01-04 09:05:28.01	347.86	22.67	-40.9	-41.6	20.2	0.00e+00	0	57	0	2728394752	43	4151
2026-01-04 09:05:28.99	347.65	22.58	-41.3	-41.9	20.0	0.00e+00	0	57	0	2733637632	44	4077
2026-01-04 09:05:29.98	347.45	22.49	-41.2	-41.8	20.0	0.00e+00	0	56	0	2739929088	44	4034
2026-01-04 09:05:30.98	347.24	22.40	-41.2	-41.8	20.0	0.00e+00	0	56	0	2745171968	44	4032
2026-01-04 09:05:31.96	347.03	22.31	-41.2	-41.8	20.1	0.00e+00	0	57	0	2750414848	44	4024
2026-01-04 09:05:32.95	346.83	22.22	-41.3	-42.0	19.9	0.00e+00	0	57	0	2756706304	44	4105
2026-01-04 09:05:33.94	346.63	22.13	-41.3	-42.0	19.8	0.00e+00	0	57	0	2761949184	44	4126
2026-01-04 09:05:34.92	346.43	22.04	-41.4	-42.1	19.8	0.00e+00	0	56	0	2767192064	44	4158
2026-01-04 09:05:35.91	346.23	21.95	-41.6	-42.2	19.6	0.00e+00	0	56	0	2773483520	44	4242
2026-01-04 09:05:36.90	346.03	21.86	-41.4	-42.0	19.8	0.00e+00	0	56	0	2778726400	45	3911
2026-01-04 09:05:37.89	345.83	21.77	-41.3	-41.9	19.9	0.00e+00	0	57	0	2783969280	45	3841
2026-01-04 09:05:38.88	345.63	21.68	-41.2	-41.9	20.0	0.00e+00	0	57	0	2789212160	45	3828
2026-01-04 09:05:39.87	345.44	21.59	-41.1	-41.8	20.0	0.00e+00	0	57	0	2795503616	45	3791
2026-01-04 09:05:40.86	345.24	21.50	-41.1	-41.8	20.1	0.00e+00	0	56	0	2800746496	45	3783
2026-01-04 09:05:41.85	345.05	21.41	-41.1	-41.7	20.1	0.00e+00	0	57	0	2805989376	45	3754
2026-01-04 09:05:42.84	344.86	21.31	-41.4	-42.1	19.8	0.00e+00	0	57	0	2812280832	45	3918
2026-01-04 09:05:43.84	344.66	21.22	-41.2	-41.9	19.9	0.00e+00	0	57	0	2817523712	45	3832
2026-01-04 09:05:44.83	344.47	21.13	-41.0	-41.6	20.1	0.00e+00	0	57	0	2822766592	45	3734
2026-01-04 09:05:45.82	344.28	21.04	-40.9	-41.5	20.3	0.00e+00	0	57	0	2829058048	45	3677
2026-01-04 09:05:46.81	344.10	20.95	-41.0	-41.7	20.1	0.00e+00	0	57	0	2834300928	45	3755
2026-01-04 09:05:47.80	343.91	20.86	-41.1	-41.7	20.1	0.00e+00	0	57	0	2839543808	45	3759
2026-01-04 09:05:48.79	343.72	20.77	-41.0	-41.6	20.2	0.00e+00	0	57	0	2845835264	45	3719
2026-01-04 09:05:49.77	343.54	20.68	-41.3	-42.0	19.8	0.00e+00	0	57	0	2851078144	45	3889
2026-01-04 09:05:50.77	343.36	20.59	-41.3	-41.9	19.8	0.00e+00	0	57	0	2856321024	45	3851
2026-01-04 09:05:51.76	343.17	20.50	-41.4	-42.0	19.7	0.00e+00	0	57	0	2862612480	45	3895
2026-01-04 09:05:52.75	342.99	20.40	-41.3	-42.0	19.8	0.00e+00	0	57	0	2867855360	45	3871
2026-01-04 09:05:53.73	342.81	20.31	-41.6	-42.3	19.4	0.00e+00	0	57	0	2873098240	45	4021
2026-01-04 09:05:54.72	342.64	20.22	-42.0	-42.8	19.0	0.00e+00	0	57	0	2878341120	45	4245
2026-01-04 09:05:55.71	342.46	20.13	-42.3	-43.1	18.6	0.00e+00	0	57	0	2884632576	46	4166
2026-01-04 09:05:56.71	342.28	20.04	-42.5	-43.3	18.5	0.00e+00	0	57	0	2889875456	46	4255
2026-01-04 09:05:57.69	342.11	19.95	-42.7	-43.5	18.2	0.00e+00	0	57	0	2895118336	47	4127
2026-01-04 09:05:58.68	341.93	19.86	-43.0	-43.9	17.8	0.00e+00	0	57	0	2901409792	47	4309
2026-01-04 09:05:59.67	341.76	19.77	-43.5	-44.4	17.4	0.00e+00	0	57	0	2906652672	48	4299
2026-01-04 09:06:00.65	341.59	19.68	-44.0	-45.0	16.7	0.00e+00	0	57	0	2911895552	49	4369
2026-01-04 09:06:01.65	341.41	19.59	-44.3	-45.4	16.2	0.00e+00	0	57	0	2918187008	50	4310
2026-01-04 09:06:02.63	341.24	19.50	-44.7	-45.9	15.7	0.00e+00	0	57	0	2923429888	51	4292
2026-01-04 09:06:03.62	341.07	19.41	-44.9	-46.1	15.3	0.00e+00	0	57	0	2928672768	51	4413
2026-01-04 09:06:04.61	340.91	19.32	-45.0	-46.3	15.1	0.00e+00	0	57	0	2934964224	51	4501
2026-01-04 09:06:05.60	340.74	19.23	-45.0	-46.2	15.0	0.00e+00	0	57	0	2940207104	52	4224
2026-01-04 09:06:06.59	340.57	19.14	-45.2	-46.6	14.7	2.20e-06	0	57	0	2945449984	52	4404
2026-01-04 09:06:07.58	340.41	19.05	-45.5	-46.9	14.4	0.00e+00	0	57	0	2950692864	52	4550
2026-01-04 09:06:08.57	340.24	18.96	-45.4	-46.8	14.5	1.10e-06	0	57	0	2956984320	52	4494
2026-01-04 09:06:09.56	340.08	18.87	-45.1	-46.3	15.0	2.20e-06	0	57	0	2962227200	52	4277
2026-01-04 09:06:10.55	339.92	18.78	-44.4	-45.5	15.9	0.00e+00	0	57	0	2967470080	51	4129
2026-01-04 09:06:11.55	339.75	18.69	-43.8	-44.8	16.6	0.00e+00	0	57	0	2973761536	50	4039
2026-01-04 09:06:12.54	339.59	18.60	-43.6	-44.5	16.9	0.00e+00	0	57	0	2979004416	50	3910
2026-01-04 09:06:13.52	339.43	18.51	-43.9	-45.0	16.5	0.00e+00	0	57	0	2984247296	50	4103
2026-01-04 09:06:14.51	339.27	18.42	-43.7	-44.6	16.8	0.00e+00	0	57	0	2990538752	50	3953
2026-01-04 09:06:15.50	339.12	18.33	-43.0	-43.9	17.6	0.00e+00	0	57	0	2995781632	49	3829
2026-01-04 09:06:16.50	338.96	18.24	-43.0	-43.8	17.6	0.00e+00	0	57	0	3001024512	49	3809
2026-01-04 09:06:17.49	338.80	18.15	-43.4	-44.3	17.1	0.00e+00	0	57	0	3007315968	49	4036
2026-01-04 09:06:18.48	338.65	18.06	-44.1	-45.1	16.4	0.00e+00	0	57	0	3012558848	49	4427
2026-01-04 09:06:19.47	338.49	17.97	-44.8	-46.0	15.5	0.00e+00	0	57	0	3017801728	51	4357
2026-01-04 09:06:20.46	338.34	17.89	-44.7	-45.9	15.7	0.00e+00	0	57	0	3024093184	51	4305
2026-01-04 09:06:21.46	338.19	17.80	-44.3	-45.4	16.2	0.00e+00	0	57	0	3029336064	51	4064
2026-01-04 09:06:22.44	338.04	17.71	-43.9	-44.8	16.9	0.00e+00	0	57	0	3034578944	51	3808
2026-01-04 09:06:23.43	337.89	17.62	-43.6	-44.5	17.4	0.00e+00	0	57	0	3039821824	50	3871
2026-01-04 09:06:24.42	337.74	17.53	-43.4	-44.3	17.6	0.00e+00	0	57	0	3046113280	50	3800
2026-01-04 09:06:25.41	337.59	17.44	-43.6	-44.4	17.5	0.00e+00	0	57	0	3051356160	50	3863
2026-01-04 09:06:26.40	337.44	17.35	-43.7	-44.6	17.3	0.00e+00	0	57	0	3057647616	50	3931
2026-01-04 09:06:27.39	337.29	17.27	-43.8	-44.7	17.2	0.00e+00	0	57	0	3062890496	50	3988
2026-01-04 09:06:28.38	337.15	17.18	-43.6	-44.5	17.5	0.00e+00	0	57	0	3068133376	50	3895
2026-01-04 09:06:29.36	337.00	17.09	-43.1	-44.0	18.0	0.00e+00	0	57	0	3073376256	49	3876
2026-01-04 09:06:30.35	336.86	17.00	-43.0	-43.8	18.2	0.00e+00	0	57	0	3079667712	49	3790
2026-01-04 09:06:31.35	336.71	16.92	-42.7	-43.5	18.5	0.00e+00	0	57	0	3084910592	48	3872
2026-01-04 09:06:32.34	336.57	16.83	-42.6	-43.4	18.6	0.00e+00	0	57	0	3090153472	48	3839
2026-01-04 09:06:33.33	336.43	16.74	-42.5	-43.3	18.7	0.00e+00	0	57	0	3096444928	48	3784
2026-01-04 09:06:34.32	336.29	16.65	-42.5	-43.3	18.7	0.00e+00	0	57	0	3101687808	48	3786
2026-01-04 09:06:35.31	336.15	16.57	-42.7	-43.4	18.5	0.00e+00	0	57	0	3106930688	48	3862
2026-01-04 09:06:36.30	336.01	16.48	-42.9	-43.7	18.3	0.00e+00	0	57	0	3113222144	48	3985
2026-01-04 09:06:37.30	335.87	16.39	-42.7	-43.5	18.5	0.00e+00	0	57	0	3118465024	48	3875
2026-01-04 09:06:38.29	335.73	16.31	-42.6	-43.4	18.6	0.00e+00	0	57	0	3123707904	48	3845
2026-01-04 09:06:39.28	335.60	16.22	-42.9	-43.7	18.3	0.00e+00	0	57	0	3128950784	48	3960
2026-01-04 09:06:40.28	335.46	16.13	-43.1	-43.9	18.1	0.00e+00	0	57	0	3135242240	48	4059
2026-01-04 09:06:41.27	335.32	16.05	-42.8	-43.6	18.4	0.00e+00	0	57	0	3140485120	48	3914
2026-01-04 09:06:42.25	335.19	15.96	-42.9	-43.6	18.3	0.00e+00	0	57	0	3146776576	48	3951
2026-01-04 09:06:43.25	335.06	15.87	-42.9	-43.7	18.3	0.00e+00	0	57	0	3152019456	48	3984
2026-01-04 09:06:44.23	334.92	15.79	-42.8	-43.6	18.4	0.00e+00	0	57	0	3157262336	48	3930
2026-01-04 09:06:45.22	334.79	15.70	-43.1	-43.9	18.1	0.00e+00	0	57	0	3162505216	48	4055
2026-01-04 09:06:46.22	334.66	15.62	-43.2	-44.0	18.0	0.00e+00	0	57	0	3168796672	48	4124
2026-01-04 09:06:47.21	334.53	15.53	-43.2	-44.0	18.0	0.00e+00	0	57	0	3174039552	48	4140
2026-01-04 09:06:48.19	334.40	15.45	-43.5	-44.4	17.6	0.00e+00	0	57	0	3179282432	48	4305
2026-01-04 09:06:49.18	334.27	15.36	-43.4	-44.3	17.7	0.00e+00	0	57	0	3185573888	48	4260
2026-01-04 09:06:50.18	334.14	15.28	-43.6	-44.5	17.5	0.00e+00	0	57	0	3190816768	49	4134
2026-01-04 09:06:51.17	334.02	15.19	-43.4	-44.2	17.8	0.00e+00	0	57	0	3196059648	49	4001
2026-01-04 09:06:52.16	333.89	15.11	-43.2	-44.0	18.0	0.00e+00	0	57	0	3202351104	49	3872
2026-01-04 09:06:53.15	333.76	15.02	-43.0	-43.8	18.2	0.00e+00	0	57	0	3207593984	49	3794
2026-01-04 09:06:54.13	333.64	14.94	-43.0	-43.7	18.3	0.00e+00	0	57	0	3212836864	48	3998
2026-01-04 09:06:55.13	333.51	14.85	-43.0	-43.7	18.2	0.00e+00	0	57	0	3219128320	48	4004
2026-01-04 09:06:56.11	333.39	14.77	-42.9	-43.6	18.4	0.00e+00	0	57	0	3224371200	48	3953
2026-01-04 09:06:57.10	333.27	14.69	-42.8	-43.6	18.4	0.00e+00	0	57	0	3229614080	48	3925
2026-01-04 09:06:58.10	333.14	14.60	-42.8	-43.6	18.4	0.00e+00	0	57	0	3234856960	48	3951
2026-01-04 09:06:59.09	333.02	14.52	-42.8	-43.6	18.4	0.00e+00	0	57	0	3241148416	48	3928
2026-01-04 09:07:00.08	332.90	14.43	-43.0	-43.7	18.3	0.00e+00	0	57	0	3246391296	48	3998
2026-01-04 09:07:01.07	332.78	14.35	-42.9	-43.7	18.3	0.00e+00	0	57	0	3251634176	48	3994
2026-01-04 09:07:02.06	332.66	14.27	-43.1	-43.9	18.0	0.00e+00	0	57	0	3257925632	48	4096
2026-01-04 09:07:03.05	332.54	14.18	-42.9	-43.7	18.3	0.00e+00	0	57	0	3263168512	48	3981
2026-01-04 09:07:04.03	332.43	14.10	-42.8	-43.6	18.4	0.00e+00	0	57	0	3268411392	48	3924
2026-01-04 09:07:05.03	332.31	14.02	-42.8	-43.5	18.5	0.00e+00	0	57	0	3274702848	48	3901
2026-01-04 09:07:06.01	332.19	13.94	-42.8	-43.6	18.4	0.00e+00	0	57	0	3279945728	48	3922
2026-01-04 09:07:07.01	332.07	13.85	-42.9	-43.7	18.3	0.00e+00	0	57	0	3285188608	48	3973
2026-01-04 09:07:08.00	331.96	13.77	-43.0	-43.8	18.2	0.00e+00	0	57	0	3290431488	48	4033
2026-01-04 09:07:09.00	331.84	13.69	-43.2	-44.0	18.0	0.00e+00	0	57	0	3296722944	48	4117
2026-01-04 09:07:09.98	331.73	13.61	-43.1	-43.9	18.1	0.00e+00	0	57	0	3301965824	48	4062
2026-01-04 09:07:10.98	331.61	13.53	-43.2	-44.0	18.0	0.00e+00	0	57	0	3308257280	48	4125
2026-01-04 09:07:11.97	331.50	13.44	-43.4	-44.3	17.7	0.00e+00	0	57	0	3313500160	48	4257
2026-01-04 09:07:12.95	331.39	13.36	-43.3	-44.1	17.9	0.00e+00	0	57	0	3318743040	48	4173
2026-01-04 09:07:13.94	331.28	13.28	-43.4	-44.3	17.7	0.00e+00	0	57	0	3323985920	48	4258
2026-01-04 09:07:14.94	331.17	13.20	-43.4	-44.2	17.8	0.00e+00	0	57	0	3330277376	48	4228
2026-01-04 09:07:15.92	331.06	13.12	-43.6	-44.4	17.5	0.00e+00	0	57	0	3335520256	48	4334
2026-01-04 09:07:16.92	330.95	13.04	-43.4	-44.3	17.7	0.00e+00	0	57	0	3340763136	48	4273
2026-01-04 09:07:17.91	330.84	12.96	-43.3	-44.2	17.8	0.00e+00	0	57	0	3347054592	48	4197
2026-01-04 09:07:18.90	330.73	12.88	-43.4	-44.3	17.7	0.00e+00	0	57	0	3352297472	48	4247
2026-01-04 09:07:19.89	330.62	12.80	-43.6	-44.5	17.5	0.00e+00	0	57	0	3357540352	49	4109
2026-01-04 09:07:20.88	330.51	12.72	-43.7	-44.6	17.3	0.00e+00	0	57	0	3363831808	49	4184
2026-01-04 09:07:21.87	330.41	12.64	-44.0	-45.0	17.0	0.00e+00	0	57	0	3369074688	49	4345
2026-01-04 09:07:22.84	330.30	12.56	-43.9	-44.8	17.2	0.00e+00	0	57	0	3374317568	49	4263
2026-01-04 09:07:23.83	330.20	12.48	-43.7	-44.6	17.4	0.00e+00	0	57	0	3379560448	49	4165
2026-01-04 09:07:24.83	330.09	12.40	-43.6	-44.5	17.5	0.00e+00	0	57	0	3385851904	49	4113
2026-01-04 09:07:25.82	329.99	12.32	-43.7	-44.6	17.4	0.00e+00	0	57	0	3391094784	49	4154
2026-01-04 09:07:26.80	329.88	12.24	-43.9	-44.8	17.1	0.00e+00	0	57	0	3396337664	49	4274
2026-01-04 09:07:27.79	329.78	12.16	-43.9	-44.8	17.2	0.00e+00	0	57	0	3402629120	49	4250
2026-01-04 09:07:28.78	329.68	12.08	-44.0	-45.0	17.0	0.00e+00	0	57	0	3407872000	49	4342
2026-01-04 09:07:29.76	329.58	12.01	-43.9	-44.9	17.1	0.00e+00	0	57	0	3413114880	49	4306
2026-01-04 09:07:30.75	329.47	11.93	-44.0	-45.0	17.0	0.00e+00	0	57	0	3418357760	49	4357
2026-01-04 09:07:31.74	329.37	11.85	-44.4	-45.4	16.6	0.00e+00	0	57	0	3424649216	50	4299
2026-01-04 09:07:32.73	329.27	11.77	-44.4	-45.4	16.5	0.00e+00	0	57	0	3429892096	50	4327
2026-01-04 09:07:33.72	329.17	11.69	-44.4	-45.5	16.5	0.00e+00	0	57	0	3436183552	50	4347
2026-01-04 09:07:34.71	329.07	11.62	-44.5	-45.5	16.4	0.00e+00	0	57	0	3441426432	50	4383
2026-01-04 09:07:35.70	328.98	11.54	-44.6	-45.6	16.3	0.00e+00	0	57	0	3446669312	50	4409
2026-01-04 09:07:36.69	328.88	11.46	-44.5	-45.6	16.3	0.00e+00	0	57	0	3451912192	50	4412
2026-01-04 09:07:37.68	328.78	11.38	-44.6	-45.7	16.3	0.00e+00	0	57	0	3458203648	51	4203
2026-01-04 09:07:38.67	328.68	11.31	-44.5	-45.5	16.4	0.00e+00	0	57	0	3463446528	51	4130
2026-01-04 09:07:39.67	328.58	11.23	-44.3	-45.3	16.6	0.00e+00	0	57	0	3468689408	51	4028
2026-01-04 09:07:40.66	328.49	11.15	-44.2	-45.2	16.7	0.00e+00	0	57	0	3474980864	51	3982
2026-01-04 09:07:41.65	328.39	11.08	-44.3	-45.3	16.6	0.00e+00	0	57	0	3480223744	51	4026
2026-01-04 09:07:42.64	328.30	11.00	-44.5	-45.5	16.4	0.00e+00	0	57	0	3485466624	51	4113
2026-01-04 09:07:43.64	328.20	10.92	-44.4	-45.5	16.4	0.00e+00	0	57	0	3491758080	51	4109
2026-01-04 09:07:44.63	328.11	10.85	-44.5	-45.5	16.4	0.00e+00	0	57	0	3497000960	51	4112
2026-01-04 09:07:45.61	328.02	10.77	-44.7	-45.8	16.1	0.00e+00	0	57	0	3502243840	51	4265
2026-01-04 09:07:46.60	327.92	10.69	-44.7	-45.8	16.1	0.00e+00	0	57	0	3508535296	51	4246
2026-01-04 09:07:47.59	327.83	10.62	-44.5	-45.5	16.4	0.00e+00	0	57	0	3513778176	51	4111
2026-01-04 09:07:48.58	327.74	10.54	-44.4	-45.4	16.5	0.00e+00	0	57	0	3519021056	51	4056
2026-01-04 09:07:49.56	327.65	10.47	-44.4	-45.5	16.4	0.00e+00	0	57	0	3525312512	51	4113
2026-01-04 09:07:50.55	327.56	10.39	-44.5	-45.6	16.3	0.00e+00	0	57	0	3530555392	51	4162
2026-01-04 09:07:51.54	327.46	10.32	-44.8	-45.8	16.1	0.00e+00	0	57	0	3535798272	51	4276
2026-01-04 09:07:52.53	327.37	10.24	-44.8	-45.8	16.0	0.00e+00	0	57	0	3541041152	51	4288
2026-01-04 09:07:53.52	327.29	10.17	-44.6	-45.6	16.3	0.00e+00	0	57	0	3547332608	51	4169
2026-01-04 09:07:54.52	327.19	10.09	-44.4	-45.4	16.5	0.00e+00	0	57	0	3552575488	51	4074
2026-01-04 09:07:55.51	327.11	10.02	-44.4	-45.4	16.5	0.00e+00	0	57	0	3558866944	51	4069
2026-01-04 09:07:56.50	327.02	9.94	-44.4	-45.4	16.5	0.00e+00	0	57	0	3564109824	51	4078
2026-01-04 09:07:57.49	326.93	9.87	-44.6	-45.7	16.2	0.00e+00	0	57	0	3569352704	51	4210
2026-01-04 09:07:58.48	326.84	9.80	-44.7	-45.7	16.1	0.00e+00	0	57	0	3574595584	51	4229
2026-01-04 09:07:59.47	326.76	9.72	-44.4	-45.4	16.5	0.00e+00	0	57	0	3580887040	51	4056
2026-01-04 09:08:00.46	326.67	9.65	-44.1	-45.1	16.7	0.00e+00	0	57	0	3586129920	51	3937
2026-01-04 09:08:01.46	326.58	9.57	-44.1	-45.1	16.8	0.00e+00	0	57	0	3591372800	51	3923
2026-01-04 09:08:02.44	326.50	9.50	-44.2	-45.2	16.7	0.00e+00	0	57	0	3597664256	51	3961
2026-01-04 09:08:03.44	326.41	9.43	-44.2	-45.2	16.6	0.00e+00	0	57	0	3602907136	51	3976
2026-01-04 09:08:04.43	326.33	9.35	-44.2	-45.2	16.6	0.00e+00	0	57	0	3608150016	51	3998
2026-01-04 09:08:05.42	326.24	9.28	-44.4	-45.4	16.4	0.00e+00	0	57	0	3614441472	51	4065
2026-01-04 09:08:06.41	326.16	9.21	-44.4	-45.4	16.4	0.00e+00	0	57	0	3619684352	51	4083
2026-01-04 09:08:07.39	326.08	9.14	-44.2	-45.2	16.6	0.00e+00	0	57	0	3624927232	51	3968
2026-01-04 09:08:08.39	325.99	9.06	-44.1	-45.1	16.7	0.00e+00	0	57	0	3630170112	51	3936
2026-01-04 09:08:09.38	325.91	8.99	-44.1	-45.1	16.7	0.00e+00	0	57	0	3636461568	51	3943
2026-01-04 09:08:10.38	325.83	8.92	-44.3	-45.3	16.5	0.00e+00	0	57	0	3641704448	51	4011
2026-01-04 09:08:11.37	325.75	8.85	-44.2	-45.2	16.5	0.00e+00	0	57	0	3647995904	51	3996
2026-01-04 09:08:12.36	325.67	8.77	-44.3	-45.3	16.5	0.00e+00	0	57	0	3653238784	51	4021
2026-01-04 09:08:13.35	325.58	8.70	-44.4	-45.4	16.4	0.00e+00	0	57	0	3658481664	51	4069
2026-01-04 09:08:14.34	325.50	8.63	-44.4	-45.5	16.3	0.00e+00	0	57	0	3663724544	51	4105
