passes_logs/2026/01/04/R3.0SM8_Murmansk_STILSPACE/R3.0SM8_Murmansk_STILSPACE__20260104_025754_SUOMI_NPP_rec.log

#Pass ID: 20260104_025754_SUOMI NPP
#Satellite: SUOMI NPP
#Configuration: NPP
#almurnet v.1.7.20240730
#Start time: 2026-01-04 02:57:55

#Version: 2.2.20231116
#Station: R3.0SM8_Murmansk_STILSPACE
#Location: 33.092731 lon 68.902999 lat
#TLE: 1 37849U 11061A   26001.07732418  .00000182  00000+0  10735-3 0  9990
#TLE: 2 37849  98.7795 303.2470 0002580  87.2016 272.9455 14.19520779734739

#Time	Az	El	Level	Level2	SNR	BER	BlckErr	Temp	State	Recorded	gain1	gain2
2026-01-04 02:57:55.77	36.02	3.08	-52.3	-66.1	3.8	1.49e+00	0	46	0	0	67	17608
2026-01-04 02:57:56.75	35.97	3.14	-52.2	-66.0	3.8	1.49e+00	0	46	104	0	67	17342
2026-01-04 02:57:57.74	35.92	3.20	-52.1	-65.9	3.8	1.49e+00	0	46	104	0	67	17150
2026-01-04 02:57:58.73	35.88	3.26	-52.0	-65.8	3.8	1.49e+00	0	46	104	0	67	17005
2026-01-04 02:57:59.72	35.83	3.33	-51.9	-65.7	3.8	1.49e+00	0	46	104	0	66	17711
2026-01-04 02:58:00.71	35.78	3.39	-51.7	-65.5	3.8	1.49e+00	0	46	104	0	66	17303
2026-01-04 02:58:01.70	35.73	3.45	-51.5	-65.2	3.8	1.49e+00	0	46	104	0	66	16785
2026-01-04 02:58:02.69	35.68	3.51	-51.4	-65.2	3.8	1.49e+00	0	46	104	0	65	17746
2026-01-04 02:58:03.69	35.63	3.58	-51.4	-65.2	3.8	1.49e+00	0	47	104	0	65	17730
2026-01-04 02:58:04.68	35.58	3.64	-51.5	-65.2	3.8	1.49e+00	0	47	104	0	65	17775
2026-01-04 02:58:05.67	35.53	3.70	-51.4	-65.2	3.8	1.49e+00	0	47	104	0	65	17700
2026-01-04 02:58:06.66	35.48	3.76	-51.4	-65.2	3.8	1.49e+00	0	47	104	0	65	17686
2026-01-04 02:58:07.66	35.43	3.83	-51.4	-65.1	3.8	1.49e+00	0	47	104	0	65	17627
2026-01-04 02:58:08.65	35.38	3.89	-51.4	-65.1	3.8	1.49e+00	0	47	104	0	65	17525
2026-01-04 02:58:09.63	35.33	3.95	-51.4	-65.0	3.8	1.49e+00	0	47	104	0	65	17426
2026-01-04 02:58:10.62	35.28	4.02	-51.4	-64.9	3.8	1.49e+00	0	47	104	0	65	17209
2026-01-04 02:58:11.62	35.22	4.08	-51.4	-64.8	3.8	1.49e+00	0	47	104	0	65	16929
2026-01-04 02:58:12.61	35.17	4.15	-51.4	-64.5	3.8	1.49e+00	0	47	104	0	65	16444
2026-01-04 02:58:13.59	35.12	4.21	-51.4	-64.3	3.8	1.49e+00	0	47	104	0	65	15982
2026-01-04 02:58:14.57	35.07	4.27	-51.4	-63.9	3.8	1.49e+00	0	47	104	0	65	15338
2026-01-04 02:58:15.57	35.02	4.34	-51.3	-63.5	3.8	1.49e+00	0	47	104	0	65	14561
2026-01-04 02:58:16.55	34.96	4.40	-51.3	-62.9	3.9	1.49e+00	0	47	104	0	65	13651
2026-01-04 02:58:17.53	34.91	4.46	-51.3	-62.3	3.9	1.47e+00	0	47	104	0	65	12766
2026-01-04 02:58:18.52	34.86	4.53	-51.1	-61.6	4.2	1.39e+00	0	47	0	0	65	11700
2026-01-04 02:58:19.51	34.80	4.59	-51.1	-60.7	4.5	1.16e+00	0	48	0	1048576	65	10607
2026-01-04 02:58:20.49	34.75	4.66	-51.0	-60.2	4.8	9.25e-01	0	48	0	3145728	65	9988
2026-01-04 02:58:21.49	34.70	4.72	-50.8	-59.4	5.2	7.18e-01	0	48	0	4194304	64	9609
2026-01-04 02:58:22.49	34.64	4.79	-50.7	-58.5	5.7	4.58e-01	0	48	0	6291456	64	8741
2026-01-04 02:58:23.47	34.59	4.85	-50.6	-57.9	6.2	3.23e-01	0	48	0	8388608	64	8145
2026-01-04 02:58:24.46	34.53	4.92	-50.5	-57.5	6.5	2.44e-01	0	48	0	10485760	64	7806
2026-01-04 02:58:25.45	34.48	4.98	-50.4	-57.1	7.0	2.00e-01	0	48	0	11534336	63	7818
2026-01-04 02:58:26.44	34.42	5.05	-50.4	-56.9	7.2	1.25e-01	0	48	0	13631488	63	7688
2026-01-04 02:58:27.43	34.37	5.12	-50.5	-57.0	7.1	1.32e-01	0	48	0	15728640	63	7808
2026-01-04 02:58:28.41	34.31	5.18	-50.5	-57.0	7.1	1.72e-01	0	48	0	17825792	63	7763
2026-01-04 02:58:29.39	34.26	5.25	-50.4	-56.7	7.4	1.25e-01	0	48	0	19922944	63	7477
2026-01-04 02:58:30.38	34.20	5.31	-50.4	-56.6	7.4	1.16e-01	0	48	0	20971520	63	7400
2026-01-04 02:58:31.37	34.14	5.38	-50.4	-56.7	7.4	1.08e-01	0	48	0	23068672	63	7514
2026-01-04 02:58:32.36	34.09	5.44	-50.3	-56.4	7.6	1.22e-01	0	49	0	25165824	63	7257
2026-01-04 02:58:33.35	34.03	5.51	-50.3	-56.1	7.9	7.80e-02	0	49	0	27262976	63	7022
2026-01-04 02:58:34.34	33.97	5.58	-50.0	-55.3	8.8	4.38e-02	0	49	0	28311552	63	6365
2026-01-04 02:58:35.32	33.92	5.64	-49.8	-54.7	9.3	2.53e-02	0	49	0	30408704	62	6345
2026-01-04 02:58:36.32	33.86	5.71	-49.6	-54.2	9.8	1.41e-02	0	49	0	32505856	62	5980
2026-01-04 02:58:37.31	33.80	5.78	-49.5	-54.0	10.0	7.55e-03	0	49	0	34603008	62	5845
2026-01-04 02:58:38.29	33.74	5.85	-49.3	-53.6	10.5	5.55e-03	0	49	0	35651584	61	5861
2026-01-04 02:58:39.28	33.68	5.91	-49.2	-53.2	10.9	2.54e-03	0	49	0	37748736	61	5602
2026-01-04 02:58:40.27	33.62	5.98	-49.0	-52.8	11.3	1.76e-03	0	49	0	39845888	61	5379
2026-01-04 02:58:41.26	33.56	6.05	-48.8	-52.6	11.6	7.57e-04	0	49	0	41943040	60	5530
2026-01-04 02:58:42.25	33.50	6.12	-48.7	-52.1	12.0	3.82e-04	0	49	0	44040192	60	5275
2026-01-04 02:58:43.24	33.44	6.18	-48.8	-52.4	11.7	4.01e-04	0	49	0	45088768	60	5448
2026-01-04 02:58:44.23	33.38	6.25	-48.8	-52.5	11.7	4.78e-04	0	49	0	47185920	60	5472
2026-01-04 02:58:45.22	33.32	6.32	-48.8	-52.4	11.8	5.51e-04	0	49	0	49283072	60	5427
2026-01-04 02:58:46.21	33.26	6.39	-48.8	-52.3	11.8	4.60e-04	0	49	0	51380224	60	5395
2026-01-04 02:58:47.20	33.20	6.46	-49.0	-52.7	11.5	5.73e-04	0	49	0	52428800	60	5608
2026-01-04 02:58:48.20	33.14	6.53	-49.0	-52.8	11.4	7.68e-04	0	49	0	54525952	60	5674
2026-01-04 02:58:49.19	33.08	6.59	-48.9	-52.4	11.8	6.58e-04	0	50	0	56623104	60	5432
2026-01-04 02:58:50.18	33.01	6.66	-48.6	-51.9	12.2	3.78e-04	0	50	0	58720256	60	5155
2026-01-04 02:58:51.18	32.95	6.73	-48.8	-52.2	12.0	2.18e-04	0	49	0	60817408	60	5329
2026-01-04 02:58:52.17	32.89	6.80	-48.7	-52.0	12.2	2.65e-04	0	50	0	61865984	60	5193
2026-01-04 02:58:53.16	32.82	6.87	-48.8	-52.1	12.2	2.57e-04	0	50	0	63963136	60	5258
2026-01-04 02:58:54.15	32.76	6.94	-48.8	-52.2	12.1	4.06e-04	0	50	0	66060288	60	5292
2026-01-04 02:58:55.14	32.70	7.01	-48.7	-52.0	12.3	2.83e-04	0	50	0	68157440	60	5194
2026-01-04 02:58:56.13	32.63	7.08	-48.6	-51.8	12.5	9.46e-05	0	50	0	69206016	60	5064
2026-01-04 02:58:57.12	32.57	7.15	-48.6	-51.8	12.5	1.20e-04	0	50	0	71303168	60	5065
2026-01-04 02:58:58.11	32.50	7.22	-48.5	-51.6	12.7	1.34e-04	0	50	0	73400320	60	4936
2026-01-04 02:58:59.10	32.44	7.29	-48.7	-52.0	12.3	6.63e-05	0	50	0	75497472	60	5190
2026-01-04 02:59:00.09	32.37	7.36	-48.9	-52.3	12.0	2.66e-04	0	50	0	76546048	60	5354
2026-01-04 02:59:01.08	32.31	7.43	-48.5	-51.6	12.7	1.69e-04	0	50	0	78643200	60	4940
2026-01-04 02:59:02.08	32.24	7.50	-48.5	-51.4	12.9	8.16e-05	0	50	0	80740352	59	5122
2026-01-04 02:59:03.07	32.17	7.58	-48.5	-51.4	12.9	5.11e-05	0	50	0	82837504	59	5144
2026-01-04 02:59:04.06	32.11	7.65	-48.3	-51.3	13.0	2.13e-05	0	50	0	84934656	59	5062
2026-01-04 02:59:05.06	32.04	7.72	-48.4	-51.4	13.0	3.35e-05	0	50	0	85983232	59	5122
2026-01-04 02:59:06.04	31.97	7.79	-48.4	-51.3	13.1	4.11e-05	0	50	0	88080384	59	5071
2026-01-04 02:59:07.03	31.90	7.86	-48.4	-51.4	12.9	2.89e-05	0	50	0	90177536	59	5124
2026-01-04 02:59:08.02	31.84	7.93	-48.4	-51.3	13.0	3.96e-05	0	50	0	92274688	59	5074
2026-01-04 02:59:09.01	31.77	8.01	-48.3	-51.0	13.3	3.20e-05	0	51	0	93323264	59	4921
2026-01-04 02:59:10.00	31.70	8.08	-48.3	-51.2	13.2	2.51e-05	0	51	0	95420416	59	4993
2026-01-04 02:59:10.99	31.63	8.15	-48.4	-51.3	13.1	1.75e-05	0	51	0	97517568	59	5075
2026-01-04 02:59:11.98	31.56	8.22	-48.4	-51.3	13.1	1.52e-05	0	51	0	99614720	59	5087
2026-01-04 02:59:12.96	31.49	8.29	-48.5	-51.4	13.1	4.11e-05	0	51	0	100663296	59	5104
2026-01-04 02:59:13.95	31.42	8.37	-48.6	-51.5	12.9	3.73e-05	0	51	0	102760448	59	5212
2026-01-04 02:59:14.94	31.35	8.44	-48.5	-51.4	13.0	2.97e-05	0	51	0	104857600	59	5121
2026-01-04 02:59:15.93	31.28	8.51	-48.6	-51.6	12.8	4.80e-05	0	51	0	106954752	59	5267
2026-01-04 02:59:16.92	31.21	8.59	-48.3	-51.1	13.3	3.89e-05	0	51	0	109051904	59	4977
2026-01-04 02:59:17.92	31.13	8.66	-48.4	-51.3	13.2	1.98e-05	0	51	0	110100480	59	5043
2026-01-04 02:59:18.91	31.06	8.73	-48.6	-51.6	12.8	3.50e-05	0	51	0	112197632	59	5237
2026-01-04 02:59:19.89	30.99	8.81	-48.3	-51.1	13.4	2.67e-05	0	51	0	114294784	59	4935
2026-01-04 02:59:20.88	30.92	8.88	-48.5	-51.6	12.9	2.82e-05	0	51	0	116391936	59	5226
2026-01-04 02:59:21.87	30.84	8.96	-48.5	-51.5	13.0	4.88e-05	0	51	0	117440512	59	5188
2026-01-04 02:59:22.86	30.77	9.03	-48.7	-51.8	12.7	4.95e-05	0	51	0	119537664	59	5365
2026-01-04 02:59:23.85	30.70	9.10	-48.5	-51.4	13.1	5.11e-05	0	51	0	121634816	59	5124
2026-01-04 02:59:24.84	30.62	9.18	-48.4	-51.2	13.3	2.36e-05	0	51	0	123731968	59	5016
2026-01-04 02:59:25.83	30.55	9.25	-48.3	-51.1	13.3	2.13e-05	0	51	0	124780544	59	4969
2026-01-04 02:59:26.81	30.47	9.33	-48.2	-51.0	13.4	6.80e-06	0	51	0	126877696	59	4913
2026-01-04 02:59:27.80	30.40	9.40	-48.1	-50.8	13.7	1.14e-05	0	51	0	128974848	59	4790
2026-01-04 02:59:28.78	30.32	9.48	-48.3	-51.1	13.4	1.14e-05	0	51	0	131072000	59	4956
2026-01-04 02:59:29.77	30.24	9.55	-48.1	-50.8	13.7	8.30e-06	0	51	0	132120576	59	4782
2026-01-04 02:59:30.75	30.17	9.63	-48.1	-50.7	13.8	7.00e-07	0	52	0	134217728	58	4985
2026-01-04 02:59:31.75	30.09	9.70	-48.2	-50.9	13.6	2.20e-06	0	51	0	136314880	58	5147
2026-01-04 02:59:32.73	30.01	9.78	-48.0	-50.5	14.0	1.06e-05	0	51	0	138412032	58	4914
2026-01-04 02:59:33.72	29.93	9.86	-48.0	-50.6	14.0	1.50e-06	0	51	0	140509184	58	4947
2026-01-04 02:59:34.72	29.85	9.93	-48.0	-50.6	14.0	3.00e-06	0	51	0	141557760	58	4949
2026-01-04 02:59:35.70	29.78	10.01	-47.9	-50.4	14.1	1.50e-06	0	51	0	143654912	58	4822
2026-01-04 02:59:36.69	29.70	10.09	-48.0	-50.6	14.0	2.20e-06	0	51	0	145752064	58	4952
2026-01-04 02:59:37.68	29.62	10.16	-48.2	-50.8	13.8	3.00e-06	0	52	0	147849216	58	5084
2026-01-04 02:59:38.67	29.54	10.24	-48.0	-50.6	14.0	7.60e-06	0	52	0	148897792	58	4964
2026-01-04 02:59:39.67	29.45	10.32	-48.0	-50.5	14.0	2.20e-06	0	51	0	150994944	58	4905
2026-01-04 02:59:40.66	29.37	10.40	-47.9	-50.4	14.2	1.50e-06	0	52	0	153092096	58	4817
2026-01-04 02:59:41.65	29.29	10.47	-47.9	-50.4	14.2	2.20e-06	0	52	0	155189248	58	4825
2026-01-04 02:59:42.64	29.21	10.55	-47.9	-50.4	14.1	2.20e-06	0	52	0	157286400	58	4834
2026-01-04 02:59:43.62	29.13	10.63	-48.0	-50.5	14.0	2.20e-06	0	52	0	158334976	58	4902
2026-01-04 02:59:44.61	29.04	10.71	-47.9	-50.2	14.3	2.20e-06	0	52	0	160432128	58	4749
2026-01-04 02:59:45.59	28.96	10.78	-47.8	-50.1	14.5	7.00e-07	0	52	0	162529280	58	4683
2026-01-04 02:59:46.58	28.88	10.86	-47.5	-49.8	14.8	7.00e-07	0	52	0	164626432	58	4498
2026-01-04 02:59:47.56	28.79	10.94	-47.6	-49.9	14.7	7.00e-07	0	52	0	165675008	58	4563
2026-01-04 02:59:48.54	28.71	11.02	-47.6	-50.0	14.6	1.50e-06	0	52	0	167772160	58	4606
2026-01-04 02:59:49.53	28.62	11.10	-47.7	-50.1	14.5	0.00e+00	0	52	0	169869312	58	4656
2026-01-04 02:59:50.52	28.54	11.18	-47.7	-50.0	14.6	7.00e-07	0	52	0	171966464	58	4619
2026-01-04 02:59:51.51	28.45	11.26	-47.7	-49.9	14.7	7.00e-07	0	52	0	173015040	58	4593
2026-01-04 02:59:52.50	28.36	11.34	-48.0	-50.5	14.1	3.00e-06	0	52	0	175112192	58	4898
2026-01-04 02:59:53.49	28.28	11.42	-47.9	-50.4	14.2	7.00e-07	0	52	0	177209344	58	4849
2026-01-04 02:59:54.48	28.19	11.50	-47.9	-50.3	14.2	7.00e-07	0	52	0	179306496	58	4809
2026-01-04 02:59:55.48	28.10	11.58	-48.0	-50.5	14.1	7.00e-07	0	52	0	181403648	58	4904
2026-01-04 02:59:56.47	28.01	11.66	-48.1	-50.7	14.0	4.50e-06	0	52	0	182452224	58	5000
2026-01-04 02:59:57.46	27.92	11.74	-48.3	-51.0	13.6	7.00e-07	0	52	0	184549376	58	5178
2026-01-04 02:59:58.45	27.83	11.82	-48.2	-50.8	13.8	5.30e-06	0	52	0	186646528	58	5072
2026-01-04 02:59:59.43	27.74	11.90	-48.3	-50.9	13.7	6.10e-06	0	52	0	188743680	58	5119
2026-01-04 03:00:00.43	27.65	11.98	-48.4	-51.0	13.6	7.60e-06	0	52	0	189792256	58	5206
2026-01-04 03:00:01.42	27.56	12.07	-48.1	-50.7	14.0	3.00e-06	0	52	0	191889408	58	5003
2026-01-04 03:00:02.41	27.46	12.15	-48.1	-50.6	14.1	3.00e-06	0	52	0	193986560	58	4936
2026-01-04 03:00:03.41	27.37	12.23	-48.1	-50.6	14.0	3.00e-06	0	52	0	196083712	58	4977
2026-01-04 03:00:04.41	27.28	12.31	-48.0	-50.5	14.1	2.20e-06	0	53	0	197132288	58	4889
2026-01-04 03:00:05.40	27.18	12.40	-47.9	-50.3	14.3	7.00e-07	0	52	0	199229440	58	4789
2026-01-04 03:00:06.39	27.09	12.48	-47.9	-50.2	14.4	0.00e+00	0	53	0	201326592	58	4742
2026-01-04 03:00:07.38	26.99	12.56	-47.9	-50.2	14.4	0.00e+00	0	52	0	203423744	58	4741
2026-01-04 03:00:08.37	26.90	12.64	-47.9	-50.3	14.3	7.00e-07	0	52	0	205520896	58	4796
2026-01-04 03:00:09.36	26.80	12.73	-47.8	-50.2	14.4	1.50e-06	0	53	0	206569472	58	4754
2026-01-04 03:00:10.35	26.70	12.81	-47.9	-50.2	14.4	0.00e+00	0	53	0	208666624	58	4751
2026-01-04 03:00:11.34	26.61	12.89	-47.8	-50.2	14.5	0.00e+00	0	53	0	210763776	58	4713
2026-01-04 03:00:12.33	26.51	12.98	-48.0	-50.4	14.2	1.50e-06	0	53	0	212860928	58	4841
2026-01-04 03:00:13.32	26.41	13.06	-47.6	-49.8	14.7	7.00e-07	0	53	0	213909504	58	4543
2026-01-04 03:00:14.31	26.31	13.15	-47.6	-49.8	14.8	0.00e+00	0	53	0	216006656	58	4536
2026-01-04 03:00:15.30	26.21	13.23	-47.6	-49.9	14.8	7.00e-07	0	53	0	218103808	58	4554
2026-01-04 03:00:16.29	26.11	13.31	-47.5	-49.8	14.9	0.00e+00	0	53	0	220200960	58	4495
2026-01-04 03:00:17.29	26.01	13.40	-47.7	-50.0	14.7	0.00e+00	0	53	0	221249536	58	4625
2026-01-04 03:00:18.28	25.91	13.49	-47.9	-50.2	14.4	7.00e-07	0	53	0	223346688	58	4748
2026-01-04 03:00:19.27	25.81	13.57	-47.6	-49.9	14.8	7.00e-07	0	53	0	225443840	58	4555
2026-01-04 03:00:20.26	25.71	13.66	-47.7	-50.0	14.7	0.00e+00	0	53	0	227540992	58	4611
2026-01-04 03:00:21.24	25.60	13.74	-47.8	-50.1	14.6	0.00e+00	0	53	0	229638144	58	4688
2026-01-04 03:00:22.23	25.50	13.83	-48.0	-50.4	14.3	0.00e+00	0	53	0	230686720	58	4831
2026-01-04 03:00:23.22	25.40	13.91	-47.9	-50.2	14.5	0.00e+00	0	53	0	232783872	58	4742
2026-01-04 03:00:24.20	25.29	14.00	-47.8	-50.1	14.6	0.00e+00	0	53	0	234881024	58	4684
2026-01-04 03:00:25.19	25.19	14.08	-48.0	-50.4	14.4	1.50e-06	0	53	0	236978176	58	4819
2026-01-04 03:00:26.18	25.08	14.17	-47.6	-49.8	14.9	0.00e+00	0	53	0	238026752	58	4510
2026-01-04 03:00:27.17	24.97	14.26	-47.6	-49.7	15.0	0.00e+00	0	53	0	240123904	58	4467
2026-01-04 03:00:28.17	24.86	14.35	-47.5	-49.7	15.0	0.00e+00	0	53	0	242221056	58	4460
2026-01-04 03:00:29.15	24.76	14.43	-47.4	-49.5	15.2	0.00e+00	0	53	0	244318208	57	4599
2026-01-04 03:00:30.14	24.65	14.52	-47.5	-49.6	15.2	0.00e+00	0	53	0	245366784	57	4657
2026-01-04 03:00:31.12	24.54	14.61	-47.6	-49.8	15.0	0.00e+00	0	53	0	247463936	57	4764
2026-01-04 03:00:32.11	24.43	14.69	-47.5	-49.5	15.2	0.00e+00	0	53	0	249561088	57	4630
2026-01-04 03:00:33.09	24.32	14.78	-47.6	-49.7	15.1	0.00e+00	0	53	0	251658240	57	4709
2026-01-04 03:00:34.08	24.21	14.87	-47.5	-49.6	15.1	0.00e+00	0	53	0	253755392	57	4672
2026-01-04 03:00:35.07	24.10	14.96	-47.6	-49.7	15.0	0.00e+00	0	53	0	254803968	57	4739
2026-01-04 03:00:36.06	23.98	15.05	-47.7	-49.9	14.8	0.00e+00	0	53	0	256901120	57	4856
2026-01-04 03:00:37.05	23.87	15.14	-47.5	-49.6	15.1	0.00e+00	0	53	0	258998272	57	4691
2026-01-04 03:00:38.04	23.76	15.23	-47.8	-50.0	14.7	0.00e+00	0	53	0	261095424	57	4897
2026-01-04 03:00:39.03	23.64	15.31	-47.5	-49.6	15.1	0.00e+00	0	53	0	262144000	57	4681
2026-01-04 03:00:40.02	23.53	15.40	-47.2	-49.1	15.6	0.00e+00	0	53	0	264241152	57	4403
2026-01-04 03:00:41.02	23.41	15.49	-47.6	-49.6	15.1	0.00e+00	0	54	0	266338304	57	4705
2026-01-04 03:00:42.01	23.29	15.58	-47.8	-50.0	14.8	0.00e+00	0	53	0	268435456	57	4872
2026-01-04 03:00:43.00	23.17	15.68	-47.5	-49.6	15.2	0.00e+00	0	54	0	269484032	57	4655
2026-01-04 03:00:43.99	23.05	15.77	-47.5	-49.6	15.2	0.00e+00	0	53	0	271581184	57	4665
2026-01-04 03:00:44.98	22.94	15.86	-47.7	-49.8	14.9	0.00e+00	0	54	0	273678336	57	4798
2026-01-04 03:00:45.96	22.82	15.95	-47.6	-49.7	15.0	0.00e+00	0	54	0	275775488	57	4752
2026-01-04 03:00:46.95	22.70	16.04	-47.7	-50.0	14.7	0.00e+00	0	54	0	277872640	57	4900
2026-01-04 03:00:47.95	22.57	16.13	-47.6	-49.8	14.9	0.00e+00	0	54	0	278921216	57	4780
2026-01-04 03:00:48.94	22.45	16.22	-47.8	-50.1	14.7	0.00e+00	0	54	0	281018368	57	4966
2026-01-04 03:00:49.93	22.33	16.31	-47.6	-49.8	14.9	0.00e+00	0	54	0	283115520	57	4790
2026-01-04 03:00:50.91	22.21	16.40	-47.4	-49.4	15.4	0.00e+00	0	54	0	285212672	57	4571
2026-01-04 03:00:51.90	22.08	16.50	-47.5	-49.6	15.1	0.00e+00	0	54	0	286261248	57	4700
2026-01-04 03:00:52.90	21.95	16.59	-47.3	-49.3	15.4	0.00e+00	0	54	0	288358400	57	4534
2026-01-04 03:00:53.88	21.83	16.68	-47.4	-49.4	15.3	0.00e+00	0	54	0	290455552	57	4587
2026-01-04 03:00:54.86	21.70	16.77	-47.6	-49.7	15.1	0.00e+00	0	54	0	292552704	57	4716
2026-01-04 03:00:55.85	21.58	16.86	-47.6	-49.7	15.0	0.00e+00	0	54	0	293601280	57	4735
2026-01-04 03:00:56.84	21.45	16.96	-47.8	-50.0	14.8	7.00e-07	0	54	0	295698432	57	4896
2026-01-04 03:00:57.84	21.32	17.05	-47.6	-49.7	15.0	0.00e+00	0	54	0	297795584	57	4756
2026-01-04 03:00:58.83	21.19	17.15	-47.5	-49.6	15.2	0.00e+00	0	54	0	299892736	57	4657
2026-01-04 03:00:59.82	21.05	17.24	-47.5	-49.6	15.1	0.00e+00	0	54	0	301989888	57	4702
2026-01-04 03:01:00.81	20.92	17.33	-47.4	-49.4	15.3	0.00e+00	0	54	0	303038464	57	4576
2026-01-04 03:01:01.80	20.79	17.43	-47.6	-49.7	15.1	0.00e+00	0	54	0	305135616	57	4710
2026-01-04 03:01:02.79	20.66	17.52	-47.8	-49.9	14.9	0.00e+00	0	54	0	307232768	57	4869
2026-01-04 03:01:03.77	20.52	17.61	-47.6	-49.8	15.0	0.00e+00	0	54	0	309329920	57	4788
2026-01-04 03:01:04.76	20.39	17.71	-47.4	-49.5	15.3	0.00e+00	0	54	0	310378496	57	4638
2026-01-04 03:01:05.75	20.25	17.80	-47.4	-49.5	15.3	0.00e+00	0	54	0	312475648	57	4600
2026-01-04 03:01:06.75	20.11	17.90	-47.4	-49.4	15.4	0.00e+00	0	54	0	314572800	57	4583
2026-01-04 03:01:07.73	19.98	17.99	-47.7	-49.8	15.0	0.00e+00	0	54	0	316669952	57	4788
2026-01-04 03:01:08.73	19.84	18.09	-47.6	-49.8	14.9	0.00e+00	0	54	0	317718528	57	4803
2026-01-04 03:01:09.71	19.70	18.19	-47.8	-50.0	14.8	0.00e+00	0	54	0	319815680	57	4923
2026-01-04 03:01:10.70	19.56	18.28	-48.0	-50.3	14.5	0.00e+00	0	54	0	321912832	57	5058
2026-01-04 03:01:11.69	19.42	18.38	-48.0	-50.4	14.4	7.00e-07	0	54	0	324009984	57	5101
2026-01-04 03:01:12.68	19.27	18.47	-48.0	-50.3	14.4	0.00e+00	0	54	0	326107136	57	5099
2026-01-04 03:01:13.67	19.13	18.57	-48.0	-50.4	14.4	1.50e-06	0	54	0	327155712	57	5128
2026-01-04 03:01:14.66	18.98	18.67	-48.1	-50.4	14.4	7.00e-07	0	54	0	329252864	58	4851
2026-01-04 03:01:15.66	18.84	18.76	-48.1	-50.5	14.3	0.00e+00	0	54	0	331350016	58	4902
2026-01-04 03:01:16.65	18.69	18.86	-48.2	-50.6	14.2	0.00e+00	0	54	0	333447168	58	4973
2026-01-04 03:01:17.64	18.54	18.96	-48.2	-50.6	14.2	2.20e-06	0	54	0	334495744	58	4962
2026-01-04 03:01:18.64	18.39	19.06	-48.0	-50.4	14.4	7.00e-07	0	54	0	336592896	58	4820
2026-01-04 03:01:19.63	18.25	19.15	-48.1	-50.5	14.3	0.00e+00	0	54	0	338690048	58	4922
2026-01-04 03:01:20.62	18.10	19.25	-48.1	-50.5	14.3	7.00e-07	0	54	0	340787200	58	4919
2026-01-04 03:01:21.61	17.94	19.35	-48.1	-50.5	14.3	1.50e-06	0	54	0	341835776	58	4890
2026-01-04 03:01:22.61	17.79	19.45	-48.2	-50.6	14.2	3.80e-06	0	54	0	343932928	58	4980
2026-01-04 03:01:23.59	17.64	19.55	-48.1	-50.5	14.3	7.00e-07	0	54	0	346030080	58	4907
2026-01-04 03:01:24.58	17.48	19.64	-48.1	-50.5	14.3	0.00e+00	0	54	0	348127232	58	4919
2026-01-04 03:01:25.57	17.33	19.74	-48.1	-50.5	14.3	1.50e-06	0	54	0	350224384	58	4894
2026-01-04 03:01:26.56	17.17	19.84	-47.8	-50.0	14.8	0.00e+00	0	54	0	351272960	58	4608
2026-01-04 03:01:27.55	17.02	19.94	-47.7	-49.8	15.0	0.00e+00	0	54	0	353370112	58	4538
2026-01-04 03:01:28.54	16.86	20.04	-47.8	-49.9	14.9	0.00e+00	0	54	0	355467264	58	4593
2026-01-04 03:01:29.52	16.70	20.14	-47.8	-50.0	14.9	0.00e+00	0	54	0	357564416	58	4605
2026-01-04 03:01:30.51	16.54	20.24	-47.9	-50.1	14.7	0.00e+00	0	54	0	358612992	58	4678
2026-01-04 03:01:31.50	16.38	20.34	-47.8	-50.0	14.8	0.00e+00	0	54	0	360710144	58	4629
2026-01-04 03:01:32.49	16.22	20.44	-47.7	-49.8	15.0	0.00e+00	0	54	0	362807296	58	4535
2026-01-04 03:01:33.47	16.05	20.53	-47.7	-49.8	15.0	0.00e+00	0	55	0	364904448	58	4532
2026-01-04 03:01:34.47	15.89	20.64	-47.5	-49.6	15.3	0.00e+00	0	55	0	367001600	58	4409
2026-01-04 03:01:35.46	15.72	20.74	-47.6	-49.7	15.2	0.00e+00	0	55	0	368050176	58	4449
2026-01-04 03:01:36.44	15.56	20.84	-47.6	-49.7	15.2	0.00e+00	0	54	0	370147328	58	4454
2026-01-04 03:01:37.43	15.39	20.94	-47.6	-49.7	15.3	0.00e+00	0	55	0	372244480	58	4454
2026-01-04 03:01:38.43	15.22	21.04	-47.7	-49.8	15.0	0.00e+00	0	55	0	374341632	57	4795
2026-01-04 03:01:39.42	15.05	21.14	-47.4	-49.5	15.3	0.00e+00	0	55	0	375390208	57	4625
2026-01-04 03:01:40.41	14.88	21.24	-47.6	-49.8	15.1	0.00e+00	0	54	0	377487360	57	4767
2026-01-04 03:01:41.40	14.70	21.34	-47.8	-50.0	14.8	7.00e-07	0	54	0	379584512	57	4905
2026-01-04 03:01:42.39	14.53	21.44	-47.9	-50.1	14.8	0.00e+00	0	55	0	381681664	57	4955
2026-01-04 03:01:43.38	14.36	21.54	-47.9	-50.2	14.7	0.00e+00	0	55	0	382730240	57	5002
2026-01-04 03:01:44.36	14.18	21.64	-47.8	-50.0	14.9	7.00e-07	0	55	0	384827392	58	4612
2026-01-04 03:01:45.36	14.00	21.74	-47.9	-50.2	14.7	0.00e+00	0	54	0	386924544	58	4723
2026-01-04 03:01:46.35	13.82	21.85	-48.3	-50.7	14.2	0.00e+00	0	55	0	389021696	58	5028
2026-01-04 03:01:47.34	13.65	21.95	-47.8	-50.0	14.8	0.00e+00	0	55	0	391118848	58	4637
2026-01-04 03:01:48.32	13.47	22.05	-47.7	-49.9	15.0	0.00e+00	0	55	0	392167424	58	4547
2026-01-04 03:01:49.31	13.28	22.15	-47.8	-50.0	14.8	7.00e-07	0	55	0	394264576	58	4649
2026-01-04 03:01:50.30	13.10	22.25	-48.0	-50.4	14.5	0.00e+00	0	55	0	396361728	58	4830
2026-01-04 03:01:51.29	12.92	22.35	-48.2	-50.6	14.2	1.50e-06	0	55	0	398458880	58	4971
2026-01-04 03:01:52.29	12.73	22.46	-48.3	-50.9	14.0	1.50e-06	0	55	0	399507456	58	5135
2026-01-04 03:01:53.28	12.54	22.56	-48.4	-50.9	13.9	2.20e-06	0	55	0	401604608	58	5159
2026-01-04 03:01:54.27	12.35	22.66	-48.5	-51.2	13.6	6.80e-06	0	55	0	403701760	58	5339
2026-01-04 03:01:55.26	12.17	22.76	-48.4	-51.0	13.8	3.80e-06	0	55	0	405798912	59	4876
2026-01-04 03:01:56.25	11.97	22.86	-48.5	-51.2	13.6	7.60e-06	0	55	0	406847488	59	5024
2026-01-04 03:01:57.23	11.78	22.97	-48.3	-50.9	13.9	3.00e-06	0	55	0	408944640	59	4818
2026-01-04 03:01:58.22	11.59	23.07	-48.3	-51.0	13.8	5.30e-06	0	55	0	411041792	59	4881
2026-01-04 03:01:59.21	11.40	23.17	-48.5	-51.4	13.4	1.29e-05	0	55	0	413138944	59	5120
2026-01-04 03:02:00.20	11.20	23.27	-48.2	-50.8	13.9	1.37e-05	0	55	0	414187520	59	4787
2026-01-04 03:02:01.18	11.01	23.38	-48.0	-50.4	14.3	3.00e-06	0	55	0	416284672	59	4581
2026-01-04 03:02:02.18	10.81	23.48	-47.5	-49.6	14.8	0.00e+00	0	55	0	418381824	58	4439
2026-01-04 03:02:03.17	10.61	23.58	-47.6	-49.8	14.7	7.00e-07	0	55	0	420478976	58	4540
2026-01-04 03:02:04.16	10.41	23.68	-47.7	-50.1	14.4	0.00e+00	0	55	0	422576128	58	4673
2026-01-04 03:02:05.15	10.20	23.79	-47.7	-50.2	14.0	1.50e-06	0	55	0	423624704	58	4749
2026-01-04 03:02:06.14	10.00	23.89	-47.9	-50.6	13.5	7.60e-06	0	55	0	425721856	58	4948
2026-01-04 03:02:07.13	9.79	23.99	-48.1	-51.1	12.7	2.36e-05	0	55	0	427819008	58	5274
2026-01-04 03:02:08.12	9.59	24.09	-48.5	-52.0	11.7	3.21e-04	0	55	0	429916160	58	5807
2026-01-04 03:02:09.11	9.38	24.20	-49.0	-53.2	10.3	1.59e-03	0	55	0	430964736	59	6284
2026-01-04 03:02:10.10	9.17	24.30	-49.2	-54.2	9.1	1.65e-02	0	55	0	433061888	60	6689
2026-01-04 03:02:11.09	8.96	24.40	-49.4	-54.9	8.4	4.03e-02	0	55	0	435159040	60	7210
2026-01-04 03:02:12.08	8.75	24.51	-49.6	-55.5	7.8	6.46e-02	0	55	0	437256192	60	7725
2026-01-04 03:02:13.08	8.53	24.61	-49.6	-55.7	7.6	8.57e-02	0	55	0	439353344	61	7480
2026-01-04 03:02:14.06	8.32	24.71	-49.7	-55.9	7.4	9.82e-02	0	55	0	440401920	61	7713
2026-01-04 03:02:15.05	8.10	24.81	-49.5	-54.7	8.8	5.23e-02	0	55	0	442499072	61	6703
2026-01-04 03:02:16.04	7.89	24.92	-49.1	-53.3	10.5	1.29e-02	0	55	0	444596224	61	5690
2026-01-04 03:02:17.03	7.67	25.02	-48.8	-52.3	11.8	8.28e-04	0	55	0	446693376	60	5378
2026-01-04 03:02:18.03	7.44	25.12	-48.4	-51.4	12.9	1.81e-04	0	55	0	447741952	60	4846
2026-01-04 03:02:19.01	7.22	25.22	-48.0	-50.5	14.0	1.83e-05	0	55	0	449839104	59	4637
2026-01-04 03:02:20.00	7.00	25.32	-47.8	-50.1	14.5	2.20e-06	0	55	0	451936256	58	4696
2026-01-04 03:02:20.99	6.78	25.43	-48.1	-50.5	14.2	1.50e-06	0	55	0	454033408	58	4914
2026-01-04 03:02:21.98	6.55	25.53	-47.8	-50.1	14.6	1.50e-06	0	55	0	455081984	58	4679
2026-01-04 03:02:22.97	6.32	25.63	-48.1	-50.6	14.1	2.20e-06	0	55	0	457179136	58	4957
2026-01-04 03:02:23.96	6.09	25.73	-48.2	-50.8	13.9	4.50e-06	0	55	0	459276288	58	5100
2026-01-04 03:02:24.95	5.86	25.83	-48.4	-51.1	13.6	7.60e-06	0	55	0	461373440	58	5260
2026-01-04 03:02:25.94	5.63	25.94	-48.6	-51.4	13.2	1.37e-05	0	55	0	463470592	59	5153
2026-01-04 03:02:26.93	5.40	26.04	-48.5	-51.3	13.1	2.36e-05	0	55	0	464519168	59	5087
2026-01-04 03:02:27.92	5.16	26.14	-48.4	-51.3	12.9	3.81e-05	0	55	0	466616320	59	5060
2026-01-04 03:02:28.91	4.92	26.24	-48.7	-52.1	11.9	1.46e-04	0	55	0	468713472	59	5534
2026-01-04 03:02:29.90	4.68	26.34	-49.4	-54.0	9.8	2.74e-03	0	55	0	470810624	60	6498
2026-01-04 03:02:30.88	4.45	26.44	-49.5	-54.4	9.3	2.14e-02	0	55	0	471859200	61	6494
2026-01-04 03:02:31.87	4.21	26.54	-50.0	-55.7	8.1	2.95e-02	0	55	0	473956352	61	7464
2026-01-04 03:02:32.86	3.96	26.64	-49.8	-54.8	9.0	3.16e-02	0	55	0	476053504	61	6783
2026-01-04 03:02:33.85	3.72	26.74	-49.5	-53.9	10.1	1.07e-02	0	55	0	478150656	61	6098
2026-01-04 03:02:34.84	3.47	26.84	-49.2	-52.9	11.4	2.61e-03	0	55	0	479199232	61	5408
2026-01-04 03:02:35.83	3.22	26.94	-48.7	-51.8	12.7	1.16e-04	0	55	0	481296384	60	5060
2026-01-04 03:02:36.82	2.97	27.04	-48.0	-50.4	14.5	1.50e-06	0	55	0	483393536	59	4584
2026-01-04 03:02:37.80	2.73	27.14	-47.4	-49.4	15.4	0.00e+00	0	55	0	485490688	58	4302
2026-01-04 03:02:38.78	2.48	27.24	-47.1	-49.0	15.8	0.00e+00	0	55	0	487587840	57	4365
2026-01-04 03:02:39.77	2.22	27.33	-47.6	-49.7	15.2	0.00e+00	0	55	0	488636416	57	4732
2026-01-04 03:02:40.76	1.97	27.43	-47.6	-49.7	15.3	0.00e+00	0	55	0	490733568	57	4729
2026-01-04 03:02:41.74	1.71	27.53	-47.5	-49.6	15.3	0.00e+00	0	55	0	492830720	57	4654
2026-01-04 03:02:42.73	1.45	27.63	-47.6	-49.6	15.3	0.00e+00	0	55	0	494927872	57	4687
2026-01-04 03:02:43.72	1.19	27.73	-47.6	-49.7	15.1	0.00e+00	0	55	0	495976448	57	4758
2026-01-04 03:02:44.71	0.93	27.82	-47.6	-49.7	15.2	0.00e+00	0	55	0	498073600	57	4720
2026-01-04 03:02:45.71	0.66	27.92	-47.8	-50.0	14.9	0.00e+00	0	56	0	500170752	57	4894
2026-01-04 03:02:46.71	0.40	28.02	-48.0	-50.4	14.5	0.00e+00	0	56	0	502267904	57	5122
2026-01-04 03:02:47.70	0.13	28.11	-48.4	-50.9	14.0	3.80e-06	0	55	0	503316480	58	5123
2026-01-04 03:02:48.69	359.86	28.21	-48.6	-51.2	13.7	4.50e-06	0	56	0	505413632	59	5027
2026-01-04 03:02:49.68	359.59	28.31	-48.3	-50.7	14.2	3.00e-06	0	56	0	507510784	59	4747
2026-01-04 03:02:50.66	359.32	28.40	-48.0	-50.3	14.7	0.00e+00	0	56	0	509607936	59	4502
2026-01-04 03:02:51.65	359.05	28.49	-48.1	-50.5	14.4	7.00e-07	0	56	0	510656512	59	4651
2026-01-04 03:02:52.64	358.77	28.59	-48.5	-51.2	13.8	7.00e-07	0	56	0	512753664	59	4993
2026-01-04 03:02:53.63	358.50	28.68	-48.7	-51.7	13.2	1.29e-05	0	56	0	514850816	59	5318
2026-01-04 03:02:54.62	358.22	28.78	-48.9	-51.9	13.0	2.97e-05	0	56	0	516947968	59	5451
2026-01-04 03:02:55.60	357.94	28.87	-49.1	-52.6	12.4	8.16e-05	0	56	0	519045120	60	5576
2026-01-04 03:02:56.59	357.66	28.96	-49.0	-52.1	12.8	7.55e-05	0	56	0	520093696	60	5250
2026-01-04 03:02:57.58	357.38	29.05	-48.9	-51.9	13.0	3.58e-05	0	56	0	522190848	60	5102
2026-01-04 03:02:58.57	357.09	29.14	-48.7	-51.6	13.3	1.98e-05	0	56	0	524288000	60	4955
2026-01-04 03:02:59.56	356.81	29.23	-48.5	-51.2	13.7	9.90e-06	0	56	0	526385152	60	4744
2026-01-04 03:03:00.55	356.52	29.33	-48.5	-51.3	13.7	6.10e-06	0	56	0	527433728	60	4780
2026-01-04 03:03:01.54	356.23	29.41	-48.5	-51.1	13.8	4.50e-06	0	56	0	529530880	59	4940
2026-01-04 03:03:02.52	355.94	29.50	-48.9	-51.7	13.2	8.30e-06	0	56	0	531628032	59	5315
2026-01-04 03:03:03.52	355.64	29.59	-49.0	-52.1	12.8	4.11e-05	0	56	0	533725184	60	5272
2026-01-04 03:03:04.51	355.35	29.68	-49.3	-52.8	12.1	6.94e-05	0	56	0	534773760	60	5685
2026-01-04 03:03:05.51	355.05	29.77	-49.4	-52.9	12.0	3.08e-04	0	56	0	536870912	60	5739
2026-01-04 03:03:06.50	354.75	29.86	-49.3	-52.7	12.1	3.76e-04	0	56	0	538968064	60	5647
2026-01-04 03:03:07.49	354.45	29.94	-49.1	-52.4	12.4	1.87e-04	0	56	0	541065216	60	5457
2026-01-04 03:03:08.48	354.15	30.03	-49.0	-52.2	12.8	9.61e-05	0	56	0	543162368	60	5294
2026-01-04 03:03:09.46	353.85	30.11	-49.4	-53.0	12.0	2.46e-04	0	56	0	544210944	60	5800
2026-01-04 03:03:10.44	353.55	30.20	-50.0	-54.3	10.6	1.83e-03	0	56	0	546308096	61	6374
2026-01-04 03:03:11.44	353.24	30.28	-50.3	-55.0	9.9	4.45e-03	0	56	0	548405248	62	6522
2026-01-04 03:03:12.43	352.93	30.37	-50.1	-54.5	10.4	1.42e-02	0	56	0	550502400	62	6136
2026-01-04 03:03:13.43	352.62	30.45	-49.8	-53.8	11.0	2.72e-03	0	56	0	551550976	62	5713
2026-01-04 03:03:14.41	352.31	30.53	-49.8	-54.0	10.9	1.32e-03	0	56	0	553648128	62	5808
2026-01-04 03:03:15.40	352.00	30.61	-49.6	-53.3	11.5	8.59e-04	0	56	0	555745280	62	5376
2026-01-04 03:03:16.39	351.69	30.69	-49.8	-53.9	10.9	1.20e-03	0	56	0	557842432	62	5757
2026-01-04 03:03:17.37	351.37	30.77	-49.8	-53.8	11.1	7.25e-04	0	56	0	559939584	62	5679
2026-01-04 03:03:18.37	351.05	30.85	-49.4	-53.1	11.8	7.09e-04	0	56	0	560988160	62	5221
2026-01-04 03:03:19.35	350.74	30.93	-49.2	-52.4	12.4	2.08e-04	0	56	0	563085312	61	5150
2026-01-04 03:03:20.34	350.42	31.00	-49.2	-52.4	12.5	5.87e-05	0	56	0	565182464	61	5131
2026-01-04 03:03:21.33	350.10	31.08	-49.1	-52.2	12.7	1.02e-04	0	56	0	567279616	61	5003
2026-01-04 03:03:22.32	349.77	31.16	-49.1	-52.4	12.5	8.85e-05	0	56	0	568328192	60	5436
2026-01-04 03:03:23.31	349.45	31.23	-49.3	-52.7	12.1	1.09e-04	0	56	0	570425344	60	5654
2026-01-04 03:03:24.30	349.12	31.30	-49.4	-53.0	11.8	4.24e-04	0	56	0	572522496	60	5851
2026-01-04 03:03:25.29	348.79	31.38	-49.4	-53.1	11.7	7.29e-04	0	56	0	574619648	60	5887
2026-01-04 03:03:26.27	348.47	31.45	-49.3	-52.9	11.9	4.41e-04	0	56	0	575668224	60	5778
2026-01-04 03:03:27.26	348.14	31.52	-49.4	-53.0	11.9	5.16e-04	0	56	0	577765376	60	5794
2026-01-04 03:03:28.25	347.81	31.59	-49.2	-52.9	12.0	4.98e-04	0	56	0	579862528	60	5731
2026-01-04 03:03:29.24	347.47	31.66	-49.2	-52.7	12.1	1.36e-04	0	56	0	581959680	60	5653
2026-01-04 03:03:30.22	347.14	31.73	-48.9	-52.2	12.7	1.96e-04	0	56	0	583008256	60	5298
2026-01-04 03:03:31.21	346.80	31.79	-48.9	-52.3	12.6	2.03e-04	0	56	0	585105408	60	5351
2026-01-04 03:03:32.20	346.47	31.86	-48.7	-51.8	12.9	5.26e-05	0	56	0	587202560	60	5081
2026-01-04 03:03:33.18	346.13	31.93	-48.6	-51.6	13.2	2.82e-05	0	56	0	589299712	60	4961
2026-01-04 03:03:34.17	345.79	31.99	-48.4	-51.1	13.8	8.30e-06	0	56	0	591396864	59	4961
2026-01-04 03:03:35.17	345.44	32.05	-48.4	-51.1	13.9	3.00e-06	0	56	0	592445440	59	4945
2026-01-04 03:03:36.16	345.10	32.12	-48.6	-51.3	13.6	6.10e-06	0	56	0	594542592	59	5085
2026-01-04 03:03:37.14	344.76	32.18	-48.6	-51.4	13.6	1.44e-05	0	56	0	596639744	59	5108
2026-01-04 03:03:38.12	344.42	32.24	-48.8	-51.7	13.4	8.30e-06	0	56	0	598736896	59	5321
2026-01-04 03:03:39.12	344.07	32.30	-48.8	-51.6	13.3	9.10e-06	0	56	0	599785472	59	5266
2026-01-04 03:03:40.11	343.72	32.36	-48.7	-51.5	13.4	9.10e-06	0	56	0	601882624	59	5208
2026-01-04 03:03:41.11	343.37	32.41	-48.1	-50.5	14.4	3.80e-06	0	56	0	603979776	59	4627
2026-01-04 03:03:42.09	343.02	32.47	-48.1	-50.5	14.5	7.00e-07	0	56	0	606076928	59	4615
2026-01-04 03:03:43.08	342.67	32.52	-48.3	-50.9	14.1	0.00e+00	0	56	0	607125504	59	4824
2026-01-04 03:03:44.07	342.31	32.58	-48.5	-51.2	13.7	1.06e-05	0	56	0	609222656	59	5026
2026-01-04 03:03:45.05	341.96	32.63	-48.9	-51.9	13.0	1.67e-05	0	56	0	611319808	59	5424
2026-01-04 03:03:46.04	341.61	32.68	-48.5	-51.2	13.7	1.83e-05	0	56	0	613416960	59	4996
2026-01-04 03:03:47.03	341.25	32.73	-47.8	-50.2	14.7	7.00e-07	0	56	0	615514112	58	4726
2026-01-04 03:03:48.02	340.89	32.78	-47.5	-49.7	15.2	0.00e+00	0	56	0	616562688	58	4446
2026-01-04 03:03:49.00	340.54	32.83	-47.6	-49.8	15.1	0.00e+00	0	56	0	618659840	58	4497
2026-01-04 03:03:49.98	340.18	32.87	-48.0	-50.4	14.5	0.00e+00	0	56	0	620756992	58	4831
2026-01-04 03:03:50.98	339.81	32.92	-48.5	-51.3	13.7	6.80e-06	0	56	0	622854144	58	5364
2026-01-04 03:03:51.97	339.45	32.96	-48.9	-52.0	12.9	1.83e-05	0	56	0	623902720	59	5508
2026-01-04 03:03:52.96	339.09	33.01	-48.8	-51.9	13.0	7.40e-05	0	56	0	625999872	60	5136
2026-01-04 03:03:53.95	338.73	33.05	-48.5	-51.2	13.7	2.74e-05	0	56	0	628097024	60	4754
2026-01-04 03:03:54.93	338.36	33.09	-47.7	-50.0	14.9	0.00e+00	0	56	0	630194176	58	4601
2026-01-04 03:03:55.93	337.99	33.13	-47.4	-49.4	15.5	0.00e+00	0	56	0	631242752	58	4313
2026-01-04 03:03:56.91	337.63	33.17	-47.3	-49.3	15.7	0.00e+00	0	56	0	633339904	57	4507
2026-01-04 03:03:57.90	337.26	33.20	-47.7	-49.8	15.2	0.00e+00	0	56	0	635437056	57	4807
2026-01-04 03:03:58.89	336.90	33.24	-47.7	-49.9	15.0	0.00e+00	0	56	0	637534208	57	4852
2026-01-04 03:03:59.88	336.53	33.27	-47.7	-49.8	15.1	0.00e+00	0	56	0	639631360	57	4791
2026-01-04 03:04:00.88	336.15	33.31	-47.3	-49.3	15.7	0.00e+00	0	56	0	640679936	57	4500
2026-01-04 03:04:01.87	335.78	33.34	-47.3	-49.2	15.8	0.00e+00	0	56	0	642777088	57	4485
2026-01-04 03:04:02.86	335.41	33.37	-47.5	-49.5	15.4	0.00e+00	0	56	0	644874240	57	4649
2026-01-04 03:04:03.85	335.04	33.40	-48.2	-50.5	14.4	0.00e+00	0	56	0	646971392	58	4915
2026-01-04 03:04:04.85	334.66	33.42	-48.8	-51.7	13.2	5.30e-06	0	56	0	648019968	59	5335
2026-01-04 03:04:05.83	334.29	33.45	-49.3	-52.8	12.1	2.10e-04	0	56	0	650117120	60	5717
2026-01-04 03:04:06.82	333.92	33.47	-49.1	-52.3	12.6	2.64e-04	0	56	0	652214272	60	5375
2026-01-04 03:04:07.82	333.54	33.50	-48.5	-51.2	13.7	1.67e-05	0	56	0	654311424	60	4718
2026-01-04 03:04:08.80	333.17	33.52	-48.1	-50.5	14.5	3.80e-06	0	56	0	655360000	59	4627
2026-01-04 03:04:09.79	332.79	33.54	-48.2	-50.6	14.4	0.00e+00	0	56	0	657457152	59	4654
2026-01-04 03:04:10.78	332.42	33.56	-48.2	-50.7	14.3	0.00e+00	0	56	0	659554304	58	4989
2026-01-04 03:04:11.77	332.04	33.58	-48.0	-50.3	14.7	7.00e-07	0	56	0	661651456	58	4793
2026-01-04 03:04:12.75	331.67	33.59	-48.0	-50.3	14.7	0.00e+00	0	56	0	663748608	58	4771
2026-01-04 03:04:13.74	331.29	33.61	-48.2	-50.6	14.3	1.50e-06	0	56	0	664797184	58	4972
2026-01-04 03:04:14.73	330.91	33.62	-48.1	-50.3	14.7	0.00e+00	0	56	0	666894336	58	4791
2026-01-04 03:04:15.72	330.53	33.63	-47.9	-50.0	15.0	0.00e+00	0	56	0	668991488	58	4611
2026-01-04 03:04:16.71	330.16	33.65	-47.5	-49.5	15.5	0.00e+00	0	56	0	671088640	58	4382
2026-01-04 03:04:17.70	329.78	33.65	-47.6	-49.7	15.3	0.00e+00	0	56	0	672137216	58	4457
2026-01-04 03:04:18.70	329.40	33.66	-47.8	-49.9	15.1	0.00e+00	0	56	0	674234368	58	4593
2026-01-04 03:04:19.69	329.02	33.67	-48.2	-50.6	14.5	0.00e+00	0	56	0	676331520	58	4937
2026-01-04 03:04:20.68	328.64	33.67	-48.6	-51.2	13.9	3.00e-06	0	56	0	678428672	58	5282
2026-01-04 03:04:21.66	328.26	33.68	-48.9	-52.0	13.1	2.97e-05	0	56	0	679477248	60	5170
2026-01-04 03:04:22.65	327.88	33.68	-49.4	-52.7	12.2	1.07e-04	0	56	0	681574400	60	5648
2026-01-04 03:04:23.64	327.50	33.68	-49.8	-53.7	11.2	3.84e-04	0	56	0	683671552	61	5969
2026-01-04 03:04:24.63	327.13	33.68	-49.4	-52.9	12.0	6.39e-04	0	56	0	685768704	61	5423
2026-01-04 03:04:25.62	326.75	33.68	-48.9	-51.9	13.0	8.01e-05	0	56	0	687865856	61	4855
2026-01-04 03:04:26.62	326.36	33.67	-48.5	-51.2	13.8	1.67e-05	0	56	0	688914432	60	4733
2026-01-04 03:04:27.60	325.99	33.67	-48.6	-51.4	13.7	8.30e-06	0	56	0	691011584	60	4831
2026-01-04 03:04:28.58	325.61	33.66	-48.8	-51.8	13.2	1.75e-05	0	56	0	693108736	60	5069
2026-01-04 03:04:29.56	325.24	33.66	-48.8	-51.9	13.1	2.44e-05	0	56	0	695205888	60	5113
2026-01-04 03:04:30.55	324.86	33.65	-48.5	-51.3	13.7	1.83e-05	0	56	0	696254464	60	4767
2026-01-04 03:04:31.53	324.49	33.64	-48.4	-50.9	14.2	3.00e-06	0	56	0	698351616	59	4842
2026-01-04 03:04:32.52	324.11	33.62	-48.3	-50.7	14.2	2.20e-06	0	56	0	700448768	59	4752
2026-01-04 03:04:33.51	323.73	33.61	-48.4	-51.0	14.1	0.00e+00	0	56	0	702545920	59	4901
2026-01-04 03:04:34.50	323.35	33.60	-48.3	-50.9	14.1	5.30e-06	0	56	0	703594496	59	4832
2026-01-04 03:04:35.49	322.98	33.58	-48.5	-51.2	13.8	1.50e-06	0	56	0	705691648	59	5008
2026-01-04 03:04:36.48	322.60	33.56	-48.8	-51.7	13.4	1.98e-05	0	56	0	707788800	59	5287
2026-01-04 03:04:37.47	322.22	33.54	-49.1	-52.3	12.8	3.81e-05	0	56	0	709885952	60	5353
2026-01-04 03:04:38.46	321.85	33.52	-48.9	-51.9	13.1	5.11e-05	0	56	0	710934528	60	5115
2026-01-04 03:04:39.44	321.48	33.50	-48.5	-51.2	13.7	2.21e-05	0	56	0	713031680	60	4721
2026-01-04 03:04:40.43	321.10	33.48	-48.4	-50.8	14.1	3.80e-06	0	56	0	715128832	59	4813
2026-01-04 03:04:41.42	320.73	33.45	-48.6	-51.3	13.7	8.30e-06	0	56	0	717225984	59	5096
2026-01-04 03:04:42.41	320.35	33.43	-48.7	-51.6	13.2	2.44e-05	0	56	0	719323136	60	4982
2026-01-04 03:04:43.40	319.98	33.40	-49.2	-52.5	12.5	3.12e-05	0	57	0	720371712	60	5524
2026-01-04 03:04:44.39	319.61	33.37	-49.2	-52.4	12.5	1.46e-04	0	56	0	722468864	60	5449
2026-01-04 03:04:45.37	319.24	33.34	-48.9	-52.0	13.0	2.51e-05	0	57	0	724566016	60	5197
2026-01-04 03:04:46.36	318.87	33.31	-48.9	-51.9	13.1	4.04e-05	0	56	0	726663168	60	5134
2026-01-04 03:04:47.36	318.50	33.28	-48.7	-51.6	13.4	2.74e-05	0	56	0	727711744	60	4958
2026-01-04 03:04:48.35	318.13	33.24	-48.7	-51.7	13.3	3.28e-05	0	56	0	729808896	60	5001
2026-01-04 03:04:49.34	317.76	33.21	-48.5	-51.2	13.8	2.20e-06	0	56	0	731906048	59	5030
2026-01-04 03:04:50.33	317.39	33.17	-48.6	-51.3	13.8	7.00e-07	0	56	0	734003200	59	5045
2026-01-04 03:04:51.31	317.03	33.13	-48.6	-51.3	13.7	3.80e-06	0	56	0	735051776	59	5075
2026-01-04 03:04:52.30	316.66	33.10	-48.3	-50.8	14.2	1.50e-06	0	56	0	737148928	59	4788
2026-01-04 03:04:53.29	316.29	33.06	-47.9	-50.1	14.8	0.00e+00	0	56	0	739246080	58	4700
2026-01-04 03:04:54.28	315.93	33.01	-47.9	-50.2	14.8	0.00e+00	0	56	0	741343232	58	4729
2026-01-04 03:04:55.27	315.57	32.97	-48.0	-50.4	14.6	0.00e+00	0	56	0	743440384	58	4822
2026-01-04 03:04:56.25	315.21	32.93	-48.0	-50.4	14.6	0.00e+00	0	56	0	744488960	58	4824
2026-01-04 03:04:57.24	314.85	32.88	-48.3	-50.8	14.1	7.00e-07	0	56	0	746586112	58	5084
2026-01-04 03:04:58.23	314.49	32.83	-48.5	-51.3	13.7	3.80e-06	0	56	0	748683264	59	5051
2026-01-04 03:04:59.23	314.12	32.79	-48.6	-51.3	13.7	3.00e-06	0	56	0	750780416	59	5081
2026-01-04 03:05:00.22	313.76	32.74	-48.7	-51.5	13.5	5.30e-06	0	56	0	751828992	59	5211
2026-01-04 03:05:01.22	313.40	32.69	-48.7	-51.5	13.5	1.37e-05	0	56	0	753926144	59	5205
2026-01-04 03:05:02.21	313.05	32.64	-48.6	-51.5	13.5	1.75e-05	0	56	0	756023296	59	5160
2026-01-04 03:05:03.20	312.69	32.58	-48.6	-51.3	13.6	1.29e-05	0	56	0	758120448	59	5075
2026-01-04 03:05:04.19	312.34	32.53	-48.0	-50.4	14.5	7.00e-07	0	56	0	760217600	59	4551
2026-01-04 03:05:05.19	311.98	32.47	-47.8	-50.1	14.9	0.00e+00	0	56	0	761266176	58	4668
2026-01-04 03:05:06.17	311.63	32.42	-48.0	-50.3	14.8	0.00e+00	0	56	0	763363328	58	4787
2026-01-04 03:05:07.16	311.28	32.36	-48.1	-50.5	14.5	0.00e+00	0	56	0	765460480	58	4880
2026-01-04 03:05:08.16	310.93	32.30	-48.0	-50.4	14.5	0.00e+00	0	57	0	767557632	58	4858
2026-01-04 03:05:09.14	310.59	32.24	-47.7	-49.9	15.0	0.00e+00	0	57	0	768606208	58	4580
2026-01-04 03:05:10.13	310.24	32.18	-47.7	-49.9	15.1	0.00e+00	0	56	0	770703360	58	4561
2026-01-04 03:05:11.12	309.90	32.12	-47.6	-49.7	15.3	0.00e+00	0	56	0	772800512	58	4456
2026-01-04 03:05:12.11	309.55	32.06	-47.6	-49.7	15.3	0.00e+00	0	57	0	774897664	57	4725
2026-01-04 03:05:13.10	309.21	32.00	-47.8	-50.1	14.9	0.00e+00	0	56	0	775946240	57	4942
2026-01-04 03:05:14.09	308.87	31.93	-48.2	-50.7	14.3	0.00e+00	0	56	0	778043392	58	5005
2026-01-04 03:05:15.07	308.53	31.87	-48.4	-51.0	14.0	0.00e+00	0	56	0	780140544	58	5165
2026-01-04 03:05:16.07	308.19	31.80	-48.1	-50.5	14.5	0.00e+00	0	56	0	782237696	58	4874
2026-01-04 03:05:17.06	307.85	31.73	-48.1	-50.4	14.6	0.00e+00	0	56	0	783286272	58	4828
2026-01-04 03:05:18.04	307.52	31.66	-47.9	-50.1	14.9	1.50e-06	0	56	0	785383424	58	4686
2026-01-04 03:05:19.03	307.19	31.60	-48.1	-50.5	14.5	0.00e+00	0	56	0	787480576	58	4888
2026-01-04 03:05:20.02	306.86	31.53	-48.2	-50.7	14.3	7.00e-07	0	57	0	789577728	58	5017
2026-01-04 03:05:21.01	306.52	31.45	-48.7	-51.4	13.6	1.50e-06	0	57	0	791674880	59	5141
2026-01-04 03:05:22.00	306.19	31.38	-48.8	-51.7	13.2	8.30e-06	0	56	0	792723456	59	5321
2026-01-04 03:05:22.99	305.87	31.31	-48.9	-51.9	13.0	1.90e-05	0	56	0	794820608	59	5448
2026-01-04 03:05:23.99	305.54	31.23	-48.7	-51.5	13.4	1.90e-05	0	57	0	796917760	59	5199
2026-01-04 03:05:24.97	305.21	31.16	-48.9	-52.0	12.9	2.36e-05	0	57	0	799014912	59	5500
2026-01-04 03:05:25.95	304.89	31.09	-49.0	-52.1	12.8	3.96e-05	0	56	0	800063488	59	5588
2026-01-04 03:05:26.95	304.57	31.01	-49.2	-52.6	12.3	7.93e-05	0	57	0	802160640	60	5559
2026-01-04 03:05:27.93	304.25	30.93	-49.1	-52.4	12.5	1.91e-04	0	57	0	804257792	60	5429
2026-01-04 03:05:28.92	303.93	30.85	-49.1	-52.3	12.6	1.13e-04	0	57	0	806354944	60	5398
2026-01-04 03:05:29.90	303.62	30.78	-48.8	-51.9	13.0	3.43e-05	0	57	0	807403520	60	5112
2026-01-04 03:05:30.89	303.30	30.70	-48.8	-51.7	13.3	7.60e-06	0	57	0	809500672	60	5007
2026-01-04 03:05:31.88	302.99	30.62	-48.8	-51.8	13.2	1.37e-05	0	56	0	811597824	60	5080
2026-01-04 03:05:32.87	302.67	30.53	-48.6	-51.5	13.4	1.29e-05	0	57	0	813694976	60	4906
2026-01-04 03:05:33.85	302.37	30.45	-48.5	-51.3	13.7	9.10e-06	0	57	0	815792128	60	4772
2026-01-04 03:05:34.85	302.05	30.37	-48.4	-51.1	13.9	6.80e-06	0	57	0	816840704	59	4933
2026-01-04 03:05:35.83	301.75	30.29	-48.6	-51.3	13.6	3.80e-06	0	56	0	818937856	59	5073
2026-01-04 03:05:36.83	301.44	30.20	-48.1	-50.6	14.4	1.50e-06	0	56	0	821035008	59	4663
2026-01-04 03:05:37.81	301.14	30.12	-48.0	-50.4	14.5	0.00e+00	0	57	0	823132160	59	4565
2026-01-04 03:05:38.81	300.83	30.03	-47.9	-50.2	14.8	0.00e+00	0	57	0	824180736	58	4707
2026-01-04 03:05:39.80	300.53	29.95	-48.1	-50.5	14.5	7.00e-07	0	57	0	826277888	58	4887
2026-01-04 03:05:40.79	300.23	29.86	-47.5	-49.6	15.4	0.00e+00	0	57	0	828375040	58	4418
2026-01-04 03:05:41.77	299.93	29.77	-46.8	-48.6	16.3	0.00e+00	0	57	0	830472192	56	4429
2026-01-04 03:05:42.76	299.64	29.69	-46.5	-48.1	16.7	0.00e+00	0	57	0	831520768	56	4184
2026-01-04 03:05:43.75	299.34	29.60	-47.0	-48.8	16.1	0.00e+00	0	57	0	833617920	56	4532
2026-01-04 03:05:44.74	299.05	29.51	-47.1	-49.0	15.9	0.00e+00	0	56	0	835715072	56	4642
2026-01-04 03:05:45.73	298.75	29.42	-47.3	-49.3	15.6	0.00e+00	0	57	0	837812224	56	4773
2026-01-04 03:05:46.71	298.47	29.33	-47.6	-49.8	15.1	0.00e+00	0	56	0	839909376	57	4805
2026-01-04 03:05:47.70	298.18	29.24	-48.4	-50.9	14.0	7.00e-07	0	57	0	840957952	58	5148
2026-01-04 03:05:48.70	297.89	29.15	-48.8	-51.8	13.1	1.14e-05	0	57	0	843055104	59	5397
2026-01-04 03:05:49.69	297.60	29.06	-48.9	-51.9	13.1	2.74e-05	0	57	0	845152256	59	5419
2026-01-04 03:05:50.68	297.32	28.96	-48.2	-50.8	14.1	8.30e-06	0	57	0	847249408	59	4801
2026-01-04 03:05:51.67	297.04	28.87	-47.9	-50.2	14.8	0.00e+00	0	56	0	848297984	58	4723
2026-01-04 03:05:52.67	296.75	28.78	-47.5	-49.7	15.3	0.00e+00	0	57	0	850395136	58	4443
2026-01-04 03:05:53.65	296.48	28.69	-47.9	-50.2	14.8	0.00e+00	0	57	0	852492288	58	4727
2026-01-04 03:05:54.65	296.20	28.59	-48.8	-51.7	13.2	3.80e-06	0	57	0	854589440	59	5321
2026-01-04 03:05:55.64	295.92	28.50	-49.2	-52.7	12.3	1.03e-04	0	57	0	856686592	60	5630
2026-01-04 03:05:56.63	295.65	28.40	-49.9	-54.0	10.8	1.10e-03	0	57	0	857735168	61	6199
2026-01-04 03:05:57.62	295.38	28.31	-49.7	-53.6	11.3	1.46e-03	0	56	0	859832320	61	5913
2026-01-04 03:05:58.61	295.10	28.21	-49.6	-53.5	11.4	1.04e-03	0	57	0	861929472	61	5790
2026-01-04 03:05:59.60	294.84	28.12	-49.3	-52.6	12.4	3.60e-04	0	57	0	864026624	61	5248
2026-01-04 03:06:00.59	294.57	28.02	-49.3	-52.6	12.3	1.85e-04	0	57	0	865075200	61	5268
2026-01-04 03:06:01.58	294.30	27.92	-49.2	-52.5	12.5	1.38e-04	0	57	0	867172352	61	5181
2026-01-04 03:06:02.57	294.04	27.83	-49.2	-52.6	12.5	1.23e-04	0	57	0	869269504	61	5219
2026-01-04 03:06:03.56	293.78	27.73	-48.6	-51.3	13.6	2.21e-05	0	57	0	871366656	60	4808
2026-01-04 03:06:04.55	293.51	27.63	-48.4	-51.0	14.0	2.20e-06	0	56	0	872415232	59	4913
2026-01-04 03:06:05.53	293.26	27.53	-48.6	-51.3	13.7	1.50e-06	0	57	0	874512384	59	5098
2026-01-04 03:06:06.52	293.00	27.43	-48.8	-51.6	13.4	1.29e-05	0	57	0	876609536	59	5247
2026-01-04 03:06:07.51	292.74	27.34	-48.5	-51.1	13.8	1.06e-05	0	57	0	878706688	59	4974
2026-01-04 03:06:08.51	292.49	27.24	-47.8	-50.0	15.0	0.00e+00	0	57	0	879755264	58	4624
2026-01-04 03:06:09.49	292.24	27.14	-47.3	-49.3	15.7	0.00e+00	0	57	0	881852416	57	4499
2026-01-04 03:06:10.49	291.98	27.04	-47.1	-48.8	16.1	0.00e+00	0	57	0	883949568	57	4282
2026-01-04 03:06:11.47	291.73	26.94	-47.0	-48.7	16.2	0.00e+00	0	57	0	886046720	57	4238
2026-01-04 03:06:12.47	291.48	26.84	-46.9	-48.7	16.2	0.00e+00	0	57	0	888143872	57	4223
2026-01-04 03:06:13.45	291.24	26.74	-47.1	-48.9	16.1	0.00e+00	0	57	0	889192448	56	4559
2026-01-04 03:06:14.44	290.99	26.64	-47.1	-49.0	16.0	0.00e+00	0	57	0	891289600	56	4602
2026-01-04 03:06:15.43	290.75	26.54	-47.1	-49.0	15.8	0.00e+00	0	57	0	893386752	56	4622
2026-01-04 03:06:16.42	290.51	26.44	-47.2	-49.2	15.7	0.00e+00	0	57	0	895483904	56	4708
2026-01-04 03:06:17.42	290.27	26.34	-47.5	-49.5	15.4	0.00e+00	0	57	0	896532480	56	4896
2026-01-04 03:06:18.41	290.03	26.23	-47.6	-49.7	15.2	0.00e+00	0	57	0	898629632	57	4734
2026-01-04 03:06:19.41	289.79	26.13	-47.8	-50.1	14.8	0.00e+00	0	57	0	900726784	57	4941
2026-01-04 03:06:20.40	289.55	26.03	-47.8	-50.1	14.8	7.00e-07	0	57	0	902823936	57	4931
2026-01-04 03:06:21.39	289.32	25.93	-47.7	-49.8	15.0	7.00e-07	0	57	0	904921088	57	4793
2026-01-04 03:06:22.39	289.08	25.83	-47.4	-49.5	15.4	0.00e+00	0	57	0	905969664	57	4599
2026-01-04 03:06:23.38	288.85	25.73	-47.4	-49.4	15.4	0.00e+00	0	57	0	908066816	57	4558
2026-01-04 03:06:24.37	288.62	25.62	-47.6	-49.8	15.1	0.00e+00	0	57	0	910163968	57	4774
2026-01-04 03:06:25.36	288.39	25.52	-47.8	-50.0	15.0	0.00e+00	0	57	0	912261120	57	4906
2026-01-04 03:06:26.35	288.16	25.42	-47.9	-50.2	14.8	0.00e+00	0	57	0	913309696	57	4997
2026-01-04 03:06:27.33	287.94	25.32	-47.8	-50.1	14.8	0.00e+00	0	57	0	915406848	57	4956
2026-01-04 03:06:28.33	287.72	25.21	-47.6	-49.9	15.0	0.00e+00	0	57	0	917504000	57	4844
2026-01-04 03:06:29.31	287.50	25.11	-47.5	-49.6	15.3	0.00e+00	0	57	0	919601152	57	4655
2026-01-04 03:06:30.30	287.27	25.01	-47.3	-49.2	15.7	0.00e+00	0	57	0	920649728	57	4474
2026-01-04 03:06:31.29	287.05	24.91	-47.0	-48.8	16.1	0.00e+00	0	57	0	922746880	57	4255
2026-01-04 03:06:32.29	286.83	24.80	-46.8	-48.6	16.2	0.00e+00	0	57	0	924844032	56	4410
2026-01-04 03:06:33.28	286.62	24.70	-46.8	-48.6	16.2	0.00e+00	0	57	0	926941184	56	4435
2026-01-04 03:06:34.27	286.40	24.60	-46.5	-48.2	16.6	0.00e+00	0	57	0	929038336	56	4209
2026-01-04 03:06:35.26	286.19	24.50	-46.8	-48.5	16.2	0.00e+00	0	57	0	930086912	56	4388
2026-01-04 03:06:36.25	285.98	24.39	-46.6	-48.3	16.5	0.00e+00	0	57	0	932184064	56	4273
2026-01-04 03:06:37.24	285.76	24.29	-46.9	-48.7	16.0	0.00e+00	0	57	0	934281216	56	4490
2026-01-04 03:06:38.23	285.56	24.19	-47.4	-49.5	15.3	0.00e+00	0	57	0	936378368	56	4886
2026-01-04 03:06:39.22	285.35	24.08	-47.6	-49.8	15.0	0.00e+00	0	57	0	937426944	57	4795
2026-01-04 03:06:40.21	285.14	23.98	-48.0	-50.3	14.5	7.00e-07	0	57	0	939524096	57	5060
2026-01-04 03:06:41.20	284.93	23.88	-48.1	-50.5	14.2	3.00e-06	0	57	0	941621248	58	4925
2026-01-04 03:06:42.19	284.73	23.78	-47.4	-49.4	15.3	7.00e-07	0	57	0	943718400	58	4301
2026-01-04 03:06:43.18	284.53	23.67	-47.0	-48.8	15.9	0.00e+00	0	57	0	945815552	57	4284
2026-01-04 03:06:44.17	284.33	23.57	-47.0	-48.9	15.9	0.00e+00	0	57	0	946864128	57	4292
2026-01-04 03:06:45.17	284.12	23.47	-46.8	-48.6	16.1	0.00e+00	0	57	0	948961280	56	4410
2026-01-04 03:06:46.17	283.92	23.36	-47.0	-49.0	15.8	0.00e+00	0	57	0	951058432	56	4602
2026-01-04 03:06:47.15	283.73	23.26	-47.2	-49.1	15.7	0.00e+00	0	57	0	953155584	56	4696
2026-01-04 03:06:48.15	283.53	23.16	-47.3	-49.2	15.5	0.00e+00	0	57	0	954204160	56	4759
2026-01-04 03:06:49.14	283.33	23.05	-47.0	-48.9	15.9	0.00e+00	0	57	0	956301312	56	4556
2026-01-04 03:06:50.13	283.14	22.95	-47.0	-48.9	16.0	0.00e+00	0	57	0	958398464	56	4556
2026-01-04 03:06:51.12	282.95	22.85	-47.0	-48.8	16.1	0.00e+00	0	57	0	960495616	56	4504
2026-01-04 03:06:52.10	282.76	22.75	-47.0	-48.8	16.0	0.00e+00	0	57	0	961544192	56	4520
2026-01-04 03:06:53.09	282.57	22.65	-47.1	-48.9	16.0	0.00e+00	0	57	0	963641344	56	4565
2026-01-04 03:06:54.08	282.38	22.54	-47.3	-49.3	15.6	0.00e+00	0	57	0	965738496	56	4775
2026-01-04 03:06:55.07	282.19	22.44	-47.0	-48.9	16.0	0.00e+00	0	57	0	967835648	56	4582
2026-01-04 03:06:56.05	282.01	22.34	-46.7	-48.4	16.5	0.00e+00	0	57	0	969932800	56	4300
2026-01-04 03:06:57.03	281.83	22.24	-46.3	-47.8	16.9	0.00e+00	0	57	0	970981376	55	4288
2026-01-04 03:06:58.03	281.64	22.14	-46.1	-47.7	17.1	0.00e+00	0	57	0	973078528	55	4196
2026-01-04 03:06:59.02	281.46	22.03	-46.4	-48.0	16.7	0.00e+00	0	57	0	975175680	55	4388
2026-01-04 03:07:00.00	281.28	21.93	-46.2	-47.7	17.0	0.00e+00	0	57	0	977272832	55	4239
2026-01-04 03:07:00.99	281.10	21.83	-46.7	-48.4	16.4	0.00e+00	0	57	0	978321408	55	4588
2026-01-04 03:07:01.98	280.92	21.73	-46.6	-48.3	16.5	0.00e+00	0	57	0	980418560	55	4505
2026-01-04 03:07:02.97	280.74	21.63	-46.6	-48.3	16.5	0.00e+00	0	57	0	982515712	55	4521
2026-01-04 03:07:03.96	280.57	21.53	-46.8	-48.5	16.3	0.00e+00	0	57	0	984612864	55	4635
2026-01-04 03:07:04.94	280.39	21.43	-46.7	-48.5	16.4	0.00e+00	0	57	0	985661440	55	4616
2026-01-04 03:07:05.94	280.22	21.32	-46.8	-48.6	16.2	0.00e+00	0	57	0	987758592	55	4676
2026-01-04 03:07:06.93	280.04	21.22	-46.6	-48.3	16.5	0.00e+00	0	57	0	989855744	55	4512
2026-01-04 03:07:07.92	279.87	21.12	-46.6	-48.4	16.4	0.00e+00	0	57	0	991952896	55	4556
2026-01-04 03:07:08.92	279.70	21.02	-46.6	-48.3	16.5	0.00e+00	0	57	0	994050048	55	4517
2026-01-04 03:07:09.91	279.53	20.92	-46.8	-48.6	16.2	0.00e+00	0	57	0	995098624	55	4659
2026-01-04 03:07:10.90	279.36	20.82	-46.6	-48.2	16.5	0.00e+00	0	57	0	997195776	55	4489
2026-01-04 03:07:11.89	279.20	20.72	-46.5	-48.2	16.6	0.00e+00	0	57	0	999292928	55	4460
2026-01-04 03:07:12.88	279.03	20.62	-46.5	-48.1	16.7	0.00e+00	0	57	0	1001390080	55	4441
2026-01-04 03:07:13.88	278.86	20.52	-46.6	-48.2	16.6	0.00e+00	0	57	0	1002438656	55	4477
2026-01-04 03:07:14.87	278.70	20.42	-47.0	-48.8	16.0	0.00e+00	0	57	0	1004535808	55	4797
2026-01-04 03:07:15.86	278.54	20.32	-46.9	-48.7	16.1	0.00e+00	0	57	0	1006632960	55	4743
2026-01-04 03:07:16.85	278.37	20.22	-47.2	-49.1	15.8	0.00e+00	0	57	0	1008730112	56	4665
2026-01-04 03:07:17.84	278.21	20.12	-47.4	-49.4	15.5	0.00e+00	0	57	0	1009778688	56	4868
2026-01-04 03:07:18.83	278.05	20.02	-47.9	-50.2	14.7	0.00e+00	0	57	0	1011875840	57	5016
2026-01-04 03:07:19.82	277.89	19.92	-48.0	-50.2	14.7	0.00e+00	0	57	0	1013972992	58	4745
2026-01-04 03:07:20.81	277.74	19.82	-48.2	-50.6	14.3	7.00e-07	0	57	0	1016070144	58	4968
2026-01-04 03:07:21.80	277.58	19.72	-48.0	-50.3	14.7	0.00e+00	0	57	0	1018167296	58	4767
2026-01-04 03:07:22.79	277.42	19.62	-47.6	-49.7	15.2	7.00e-07	0	57	0	1019215872	58	4447
2026-01-04 03:07:23.77	277.27	19.52	-47.3	-49.2	15.7	0.00e+00	0	57	0	1021313024	57	4484
2026-01-04 03:07:24.76	277.12	19.43	-47.1	-48.9	16.0	0.00e+00	0	57	0	1023410176	57	4335
2026-01-04 03:07:25.76	276.96	19.33	-47.0	-48.9	16.0	0.00e+00	0	57	0	1025507328	57	4303
2026-01-04 03:07:26.75	276.81	19.23	-46.8	-48.6	16.3	0.00e+00	0	57	0	1026555904	56	4410
2026-01-04 03:07:27.74	276.66	19.13	-46.9	-48.7	16.2	0.00e+00	0	57	0	1028653056	56	4447
2026-01-04 03:07:28.72	276.51	19.03	-46.9	-48.7	16.1	0.00e+00	0	57	0	1030750208	56	4474
2026-01-04 03:07:29.71	276.36	18.94	-47.2	-49.0	15.8	0.00e+00	0	57	0	1032847360	56	4649
2026-01-04 03:07:30.70	276.22	18.84	-47.4	-49.3	15.5	0.00e+00	0	57	0	1033895936	56	4809
2026-01-04 03:07:31.69	276.07	18.74	-47.4	-49.4	15.5	0.00e+00	0	57	0	1035993088	56	4823
2026-01-04 03:07:32.68	275.92	18.65	-47.4	-49.4	15.4	0.00e+00	0	57	0	1038090240	56	4867
2026-01-04 03:07:33.67	275.78	18.55	-47.4	-49.3	15.5	0.00e+00	0	57	0	1040187392	56	4813
2026-01-04 03:07:34.67	275.63	18.45	-47.3	-49.3	15.5	0.00e+00	0	57	0	1042284544	56	4794
2026-01-04 03:07:35.65	275.49	18.36	-47.0	-48.8	16.1	0.00e+00	0	57	0	1043333120	56	4513
2026-01-04 03:07:36.65	275.35	18.26	-46.9	-48.7	16.1	0.00e+00	0	57	0	1045430272	56	4480
2026-01-04 03:07:37.65	275.21	18.16	-46.9	-48.7	16.2	0.00e+00	0	57	0	1047527424	56	4446
2026-01-04 03:07:38.64	275.07	18.07	-46.9	-48.7	16.1	0.00e+00	0	57	0	1049624576	56	4483
2026-01-04 03:07:39.62	274.93	17.97	-46.9	-48.7	16.1	0.00e+00	0	57	0	1050673152	56	4483
2026-01-04 03:07:40.61	274.79	17.88	-46.9	-48.7	16.1	0.00e+00	0	57	0	1052770304	56	4486
2026-01-04 03:07:41.60	274.65	17.78	-47.1	-49.0	15.9	0.00e+00	0	57	0	1054867456	56	4630
2026-01-04 03:07:42.59	274.52	17.69	-47.0	-48.8	16.1	0.00e+00	0	57	0	1056964608	56	4519
2026-01-04 03:07:43.57	274.38	17.59	-47.1	-49.0	15.8	0.00e+00	0	57	0	1059061760	56	4606
2026-01-04 03:07:44.57	274.25	17.50	-47.2	-49.1	15.7	0.00e+00	0	57	0	1060110336	56	4672
2026-01-04 03:07:45.55	274.11	17.40	-47.3	-49.3	15.6	0.00e+00	0	57	0	1062207488	56	4770
2026-01-04 03:07:46.54	273.98	17.31	-47.4	-49.5	15.4	0.00e+00	0	57	0	1064304640	57	4613
2026-01-04 03:07:47.53	273.85	17.21	-47.3	-49.3	15.6	0.00e+00	0	57	0	1066401792	57	4508
2026-01-04 03:07:48.52	273.72	17.12	-47.4	-49.4	15.5	0.00e+00	0	57	0	1067450368	57	4554
2026-01-04 03:07:49.51	273.58	17.03	-47.1	-49.0	15.9	0.00e+00	0	57	0	1069547520	57	4348
2026-01-04 03:07:50.51	273.45	16.93	-47.1	-48.9	15.9	0.00e+00	0	57	0	1071644672	57	4320
2026-01-04 03:07:51.49	273.33	16.84	-47.0	-48.8	16.0	0.00e+00	0	57	0	1073741824	57	4269
2026-01-04 03:07:52.48	273.20	16.75	-46.9	-48.6	16.2	0.00e+00	0	57	0	1074790400	56	4428
2026-01-04 03:07:53.47	273.07	16.65	-46.8	-48.5	16.3	0.00e+00	0	57	0	1076887552	56	4387
2026-01-04 03:07:54.46	272.94	16.56	-46.7	-48.4	16.4	0.00e+00	0	57	0	1078984704	56	4333
2026-01-04 03:07:55.45	272.82	16.47	-46.8	-48.5	16.3	0.00e+00	0	57	0	1081081856	56	4372
2026-01-04 03:07:56.44	272.69	16.38	-46.8	-48.5	16.3	0.00e+00	0	57	0	1083179008	56	4381
2026-01-04 03:07:57.44	272.57	16.28	-47.1	-49.0	15.8	0.00e+00	0	57	0	1084227584	56	4604
2026-01-04 03:07:58.42	272.45	16.19	-47.1	-48.9	15.9	0.00e+00	0	57	0	1086324736	56	4590
2026-01-04 03:07:59.41	272.32	16.10	-47.3	-49.3	15.5	0.00e+00	0	57	0	1088421888	56	4804
2026-01-04 03:08:00.40	272.20	16.01	-47.8	-50.0	14.9	0.00e+00	0	57	0	1090519040	57	4882
2026-01-04 03:08:01.39	272.08	15.92	-48.1	-50.5	14.3	7.00e-07	0	57	0	1091567616	58	4918
2026-01-04 03:08:02.38	271.96	15.83	-48.4	-51.1	13.7	5.30e-06	0	57	0	1093664768	58	5235
2026-01-04 03:08:03.37	271.84	15.74	-48.7	-51.4	13.4	1.06e-05	0	57	0	1095761920	59	5148
2026-01-04 03:08:04.36	271.72	15.65	-48.7	-51.5	13.3	2.05e-05	0	57	0	1097859072	59	5176
2026-01-04 03:08:05.35	271.60	15.56	-48.4	-51.0	13.8	4.50e-06	0	57	0	1098907648	59	4883
2026-01-04 03:08:06.34	271.48	15.47	-48.2	-50.6	14.2	7.00e-07	0	57	0	1101004800	59	4688
2026-01-04 03:08:07.32	271.37	15.38	-48.0	-50.3	14.5	1.50e-06	0	57	0	1103101952	59	4539
2026-01-04 03:08:08.31	271.25	15.29	-47.9	-50.2	14.6	0.00e+00	0	57	0	1105199104	58	4742
2026-01-04 03:08:09.31	271.14	15.20	-47.8	-49.8	15.0	7.00e-07	0	57	0	1106247680	58	4538
2026-01-04 03:08:10.30	271.02	15.11	-47.3	-49.2	15.7	0.00e+00	0	57	0	1108344832	57	4447
2026-01-04 03:08:11.30	270.91	15.02	-47.4	-49.3	15.5	0.00e+00	0	57	0	1110441984	57	4518
2026-01-04 03:08:12.29	270.79	14.93	-47.6	-49.7	15.2	0.00e+00	0	57	0	1112539136	57	4707
2026-01-04 03:08:13.28	270.68	14.84	-47.8	-50.0	14.9	0.00e+00	0	57	0	1114636288	57	4876
2026-01-04 03:08:14.26	270.57	14.75	-47.8	-49.9	14.9	7.00e-07	0	57	0	1115684864	57	4864
2026-01-04 03:08:15.25	270.46	14.66	-48.1	-50.4	14.5	0.00e+00	0	57	0	1117782016	58	4837
2026-01-04 03:08:16.24	270.35	14.58	-48.2	-50.5	14.3	7.00e-07	0	57	0	1119879168	58	4907
2026-01-04 03:08:17.23	270.24	14.49	-48.6	-51.3	13.6	4.50e-06	0	57	0	1121976320	59	5065
2026-01-04 03:08:18.22	270.13	14.40	-49.1	-52.1	12.7	2.51e-05	0	57	0	1123024896	59	5542
2026-01-04 03:08:19.21	270.02	14.31	-49.1	-52.1	12.7	6.40e-05	0	57	0	1125122048	60	5268
2026-01-04 03:08:20.20	269.91	14.23	-49.3	-52.6	12.2	1.64e-04	0	57	0	1127219200	60	5558
2026-01-04 03:08:21.20	269.80	14.14	-49.2	-52.5	12.4	2.09e-04	0	57	0	1129316352	60	5466
2026-01-04 03:08:22.20	269.70	14.05	-49.4	-52.7	12.1	2.46e-04	0	57	0	1131413504	60	5627
2026-01-04 03:08:23.19	269.59	13.96	-49.2	-52.5	12.3	1.56e-04	0	57	0	1132462080	60	5466
2026-01-04 03:08:24.18	269.49	13.88	-49.3	-52.7	12.1	3.17e-04	0	57	0	1134559232	60	5635
2026-01-04 03:08:25.18	269.38	13.79	-49.1	-52.2	12.6	2.24e-04	0	57	0	1136656384	60	5315
2026-01-04 03:08:26.16	269.28	13.71	-49.0	-52.0	12.8	7.78e-05	0	57	0	1138753536	60	5200
2026-01-04 03:08:27.16	269.17	13.62	-48.8	-51.6	13.1	4.11e-05	0	57	0	1139802112	60	4975
2026-01-04 03:08:28.14	269.07	13.53	-48.6	-51.4	13.4	2.21e-05	0	57	0	1141899264	60	4831
2026-01-04 03:08:29.12	268.97	13.45	-48.6	-51.4	13.4	1.06e-05	0	57	0	1143996416	60	4847
2026-01-04 03:08:30.10	268.87	13.37	-48.7	-51.5	13.3	1.22e-05	0	57	0	1146093568	60	4871
2026-01-04 03:08:31.08	268.77	13.28	-48.9	-51.9	12.8	3.35e-05	0	57	0	1147142144	60	5142
2026-01-04 03:08:32.07	268.67	13.20	-48.7	-51.5	13.3	1.44e-05	0	57	0	1149239296	60	4906
2026-01-04 03:08:33.06	268.57	13.11	-48.5	-51.1	13.6	1.37e-05	0	57	0	1151336448	60	4690
2026-01-04 03:08:34.05	268.47	13.03	-48.4	-51.0	13.7	3.80e-06	0	57	0	1153433600	60	4646
2026-01-04 03:08:35.04	268.37	12.94	-48.5	-51.1	13.7	6.80e-06	0	57	0	1155530752	59	4955
2026-01-04 03:08:36.03	268.27	12.86	-48.5	-51.2	13.6	7.60e-06	0	57	0	1156579328	59	4991
2026-01-04 03:08:37.02	268.17	12.78	-48.7	-51.5	13.3	1.22e-05	0	57	0	1158676480	59	5166
2026-01-04 03:08:38.01	268.08	12.69	-48.6	-51.2	13.5	8.30e-06	0	57	0	1160773632	59	5030
2026-01-04 03:08:39.00	267.98	12.61	-48.7	-51.5	13.2	1.75e-05	0	57	0	1162870784	59	5208
2026-01-04 03:08:39.99	267.89	12.53	-48.6	-51.4	13.4	1.37e-05	0	57	0	1163919360	59	5124
2026-01-04 03:08:40.97	267.79	12.44	-48.9	-51.7	13.0	1.83e-05	0	57	0	1166016512	59	5324
2026-01-04 03:08:41.95	267.70	12.36	-48.7	-51.4	13.4	1.75e-05	0	57	0	1168113664	59	5138
2026-01-04 03:08:42.95	267.60	12.28	-48.7	-51.5	13.3	1.60e-05	0	57	0	1170210816	59	5171
2026-01-04 03:08:43.94	267.51	12.20	-48.7	-51.4	13.3	1.29e-05	0	57	0	1171259392	59	5130
2026-01-04 03:08:44.93	267.42	12.11	-48.7	-51.5	13.2	2.13e-05	0	57	0	1173356544	59	5187
2026-01-04 03:08:45.92	267.32	12.03	-48.5	-51.1	13.6	7.60e-06	0	57	0	1175453696	59	4938
2026-01-04 03:08:46.92	267.23	11.95	-48.3	-50.8	13.9	3.80e-06	0	57	0	1177550848	59	4790
2026-01-04 03:08:47.91	267.14	11.87	-48.2	-50.7	14.1	2.20e-06	0	57	0	1179648000	59	4714
2026-01-04 03:08:48.89	267.05	11.79	-48.1	-50.4	14.3	3.00e-06	0	57	0	1180696576	59	4593
2026-01-04 03:08:49.89	266.96	11.71	-48.0	-50.4	14.4	0.00e+00	0	57	0	1182793728	59	4554
2026-01-04 03:08:50.88	266.87	11.63	-47.9	-50.1	14.7	1.50e-06	0	57	0	1184890880	58	4662
2026-01-04 03:08:51.87	266.78	11.54	-47.9	-50.1	14.6	0.00e+00	0	57	0	1186988032	58	4694
2026-01-04 03:08:52.86	266.69	11.46	-48.0	-50.3	14.5	0.00e+00	0	57	0	1188036608	58	4804
2026-01-04 03:08:53.85	266.60	11.38	-47.8	-50.0	14.7	0.00e+00	0	57	0	1190133760	58	4599
2026-01-04 03:08:54.83	266.51	11.30	-47.7	-49.8	15.0	0.00e+00	0	57	0	1192230912	58	4495
2026-01-04 03:08:55.82	266.42	11.22	-47.5	-49.6	15.1	7.00e-07	0	57	0	1194328064	58	4428
2026-01-04 03:08:56.81	266.34	11.14	-47.5	-49.6	15.1	0.00e+00	0	57	0	1195376640	58	4418
2026-01-04 03:08:57.79	266.25	11.07	-47.7	-49.8	14.8	0.00e+00	0	57	0	1197473792	58	4539
2026-01-04 03:08:58.78	266.17	10.99	-47.9	-50.1	14.6	0.00e+00	0	57	0	1199570944	58	4671
2026-01-04 03:08:59.77	266.08	10.91	-48.1	-50.5	14.2	0.00e+00	0	57	0	1201668096	58	4910
2026-01-04 03:09:00.76	266.00	10.83	-48.3	-50.8	13.9	7.00e-07	0	57	0	1202716672	58	5070
2026-01-04 03:09:01.75	265.91	10.75	-48.5	-51.1	13.6	4.50e-06	0	57	0	1204813824	58	5262
2026-01-04 03:09:02.74	265.83	10.67	-48.7	-51.4	13.3	8.30e-06	0	57	0	1206910976	59	5130
2026-01-04 03:09:03.73	265.74	10.59	-48.8	-51.7	13.0	1.98e-05	0	57	0	1209008128	59	5324
2026-01-04 03:09:04.72	265.66	10.51	-48.9	-51.9	12.8	7.40e-05	0	57	0	1211105280	59	5431
2026-01-04 03:09:05.71	265.58	10.44	-49.1	-52.2	12.4	1.04e-04	0	57	0	1212153856	59	5630
2026-01-04 03:09:06.69	265.50	10.36	-49.1	-52.3	12.3	1.60e-04	0	57	0	1214251008	60	5364
2026-01-04 03:09:07.68	265.41	10.28	-49.1	-52.3	12.3	1.81e-04	0	57	0	1216348160	60	5390
2026-01-04 03:09:08.68	265.33	10.20	-49.1	-52.5	12.2	2.39e-04	0	57	0	1218445312	60	5465
2026-01-04 03:09:09.67	265.25	10.13	-49.2	-52.6	12.0	2.24e-04	0	57	0	1219493888	60	5535
2026-01-04 03:09:10.66	265.17	10.05	-49.3	-52.7	11.9	3.19e-04	0	57	0	1221591040	60	5647
2026-01-04 03:09:11.64	265.09	9.97	-49.2	-52.6	12.0	3.99e-04	0	57	0	1223688192	60	5554
2026-01-04 03:09:12.63	265.01	9.90	-49.2	-52.6	12.0	4.99e-04	0	57	0	1225785344	60	5564
2026-01-04 03:09:13.62	264.93	9.82	-49.1	-52.4	12.3	3.15e-04	0	57	0	1227882496	60	5425
2026-01-04 03:09:14.61	264.85	9.74	-49.1	-52.4	12.1	2.39e-04	0	57	0	1228931072	60	5464
2026-01-04 03:09:15.60	264.78	9.67	-49.0	-52.2	12.3	2.00e-04	0	57	0	1231028224	60	5339
2026-01-04 03:09:16.59	264.70	9.59	-49.1	-52.4	12.2	1.84e-04	0	57	0	1233125376	60	5421
2026-01-04 03:09:17.58	264.62	9.52	-49.0	-52.3	12.2	2.34e-04	0	57	0	1235222528	60	5401
