passes_logs/2026/01/04/R3.0SM8_Murmansk_STILSPACE/R3.0SM8_Murmansk_STILSPACE__20260104_045757_NOAA_20_JPSS-1_rec.log

#Pass ID: 20260104_045757_NOAA 20 (JPSS-1)
#Satellite: NOAA 20 (JPSS-1)
#Configuration: NOAA 20
#almurnet v.1.7.20240730
#Start time: 2026-01-04 04:57:59

#Version: 2.2.20231116
#Station: R3.0SM8_Murmansk_STILSPACE
#Location: 33.092731 lon 68.902999 lat
#TLE: 1 43013U 17073A   26003.41800368  .00000169  00000+0  10117-3 0  9998
#TLE: 2 43013  98.7624 304.4804 0001884  56.1176 304.0179 14.19532918421092

#Time	Az	El	Level	Level2	SNR	BER	BlckErr	Temp	State	Recorded	gain1	gain2
2026-01-04 04:57:59.40	57.96	3.13	-52.3	-66.2	3.8	1.49e+00	0	46	0	0	67	17685
2026-01-04 04:58:00.39	57.89	3.19	-52.1	-66.0	3.8	1.49e+00	0	47	104	0	67	17285
2026-01-04 04:58:01.38	57.83	3.25	-52.0	-65.8	3.8	1.49e+00	0	47	104	0	67	16996
2026-01-04 04:58:02.37	57.76	3.31	-51.8	-65.7	3.8	1.49e+00	0	47	104	0	66	17687
2026-01-04 04:58:03.35	57.69	3.36	-51.5	-65.4	3.8	1.49e+00	0	47	104	0	66	17112
2026-01-04 04:58:04.34	57.62	3.42	-51.4	-65.3	3.8	1.49e+00	0	47	104	0	65	17953
2026-01-04 04:58:05.33	57.55	3.48	-51.3	-65.3	3.8	1.49e+00	0	47	104	0	65	17920
2026-01-04 04:58:06.32	57.48	3.54	-51.5	-65.3	3.8	1.49e+00	0	47	104	0	65	17937
2026-01-04 04:58:07.31	57.41	3.59	-51.5	-65.2	3.8	1.49e+00	0	47	104	0	65	17856
2026-01-04 04:58:08.29	57.34	3.65	-51.4	-65.3	3.8	1.49e+00	0	47	104	0	65	17919
2026-01-04 04:58:09.29	57.27	3.71	-51.4	-65.2	3.8	1.49e+00	0	47	104	0	65	17819
2026-01-04 04:58:10.28	57.19	3.77	-51.5	-65.2	3.8	1.49e+00	0	47	104	0	65	17843
2026-01-04 04:58:11.27	57.12	3.83	-51.5	-65.2	3.8	1.49e+00	0	47	104	0	65	17724
2026-01-04 04:58:12.26	57.05	3.89	-51.4	-65.2	3.8	1.49e+00	0	48	104	0	65	17779
2026-01-04 04:58:13.25	56.98	3.95	-51.5	-65.2	3.8	1.49e+00	0	48	104	0	65	17788
2026-01-04 04:58:14.24	56.91	4.00	-51.4	-65.2	3.8	1.49e+00	0	48	104	0	65	17828
2026-01-04 04:58:15.23	56.83	4.06	-51.4	-65.3	3.8	1.49e+00	0	48	104	0	65	17898
2026-01-04 04:58:16.22	56.76	4.12	-51.4	-65.3	3.8	1.49e+00	0	48	104	0	65	17935
2026-01-04 04:58:17.21	56.69	4.18	-51.4	-65.2	3.8	1.49e+00	0	48	104	0	65	17878
2026-01-04 04:58:18.20	56.61	4.24	-51.5	-65.2	3.8	1.49e+00	0	48	104	0	65	17818
2026-01-04 04:58:19.18	56.54	4.30	-51.5	-65.1	3.8	1.49e+00	0	48	104	0	65	17639
2026-01-04 04:58:20.17	56.47	4.36	-51.4	-65.0	3.8	1.49e+00	0	48	104	0	65	17330
2026-01-04 04:58:21.16	56.39	4.42	-51.4	-64.7	3.8	1.49e+00	0	48	104	0	65	16704
2026-01-04 04:58:22.15	56.32	4.48	-51.4	-64.1	3.8	1.49e+00	0	48	104	0	65	15723
2026-01-04 04:58:23.14	56.24	4.54	-51.3	-63.6	3.8	1.49e+00	0	48	104	0	65	14716
2026-01-04 04:58:24.13	56.16	4.60	-51.2	-62.7	3.8	1.49e+00	0	48	104	0	65	13311
2026-01-04 04:58:25.12	56.09	4.66	-51.3	-61.9	4.1	1.44e+00	0	48	104	0	65	12189
2026-01-04 04:58:26.10	56.01	4.72	-51.1	-61.0	4.4	1.30e+00	54	49	0	0	65	10946
2026-01-04 04:58:27.09	55.94	4.78	-51.0	-60.1	4.8	9.13e-01	0	48	0	2097152	65	9927
2026-01-04 04:58:28.07	55.86	4.83	-50.8	-59.3	5.2	6.80e-01	0	49	0	3145728	64	9528
2026-01-04 04:58:29.06	55.78	4.89	-50.8	-58.6	5.7	5.18e-01	0	48	0	5242880	64	8851
2026-01-04 04:58:30.04	55.71	4.95	-50.8	-58.2	6.0	3.52e-01	0	49	0	7340032	64	8383
2026-01-04 04:58:31.04	55.63	5.01	-50.5	-57.7	6.4	2.67e-01	0	49	0	9437184	64	7918
2026-01-04 04:58:32.03	55.55	5.08	-50.7	-57.9	6.2	2.66e-01	0	49	0	10485760	64	8167
2026-01-04 04:58:33.01	55.47	5.14	-50.8	-58.0	6.1	2.79e-01	0	49	0	12582912	64	8269
2026-01-04 04:58:33.99	55.39	5.19	-50.7	-57.8	6.3	2.59e-01	0	49	0	14680064	64	8024
2026-01-04 04:58:34.99	55.31	5.26	-50.7	-57.4	6.7	2.11e-01	0	49	0	16777216	64	7707
2026-01-04 04:58:35.97	55.23	5.32	-50.6	-57.3	6.7	2.13e-01	0	49	0	18874368	64	7622
2026-01-04 04:58:36.96	55.15	5.38	-50.6	-57.5	6.6	2.08e-01	0	49	0	19922944	64	7781
2026-01-04 04:58:37.95	55.07	5.44	-50.8	-58.3	6.0	2.83e-01	0	49	0	22020096	64	8526
2026-01-04 04:58:38.94	54.99	5.50	-50.7	-57.7	6.4	2.85e-01	0	49	0	24117248	64	7953
2026-01-04 04:58:39.93	54.91	5.56	-50.5	-56.7	7.3	1.69e-01	0	49	0	26214400	64	7091
2026-01-04 04:58:40.92	54.83	5.62	-50.4	-56.1	8.0	7.35e-02	0	49	0	27262976	63	7021
2026-01-04 04:58:41.90	54.75	5.68	-50.2	-55.5	8.6	4.71e-02	0	49	0	29360128	63	6512
2026-01-04 04:58:42.89	54.67	5.74	-50.0	-54.9	9.2	2.54e-02	0	49	0	31457280	63	6109
2026-01-04 04:58:43.88	54.59	5.80	-49.9	-54.6	9.5	1.63e-02	0	49	0	33554432	62	6247
2026-01-04 04:58:44.88	54.50	5.87	-49.7	-54.1	10.1	7.40e-03	0	50	0	34603008	62	5863
2026-01-04 04:58:45.87	54.42	5.93	-49.5	-53.7	10.6	4.27e-03	0	50	0	36700160	62	5593
2026-01-04 04:58:46.86	54.34	5.99	-49.3	-53.3	10.9	2.66e-03	0	50	0	38797312	61	5675
2026-01-04 04:58:47.85	54.25	6.05	-49.2	-53.0	11.3	1.65e-03	0	50	0	40894464	61	5467
2026-01-04 04:58:48.85	54.17	6.11	-49.1	-52.8	11.4	9.64e-04	0	50	0	42991616	61	5392
2026-01-04 04:58:49.84	54.08	6.17	-49.1	-52.6	11.6	7.95e-04	0	50	0	44040192	61	5261
2026-01-04 04:58:50.83	54.00	6.24	-49.1	-52.7	11.5	7.95e-04	0	50	0	46137344	61	5315
2026-01-04 04:58:51.81	53.91	6.30	-49.1	-52.7	11.6	6.36e-04	0	50	0	48234496	61	5300
2026-01-04 04:58:52.81	53.83	6.36	-49.0	-52.6	11.6	7.04e-04	0	50	0	50331648	61	5274
2026-01-04 04:58:53.80	53.74	6.42	-49.2	-53.0	11.2	8.73e-04	0	50	0	51380224	61	5514
2026-01-04 04:58:54.79	53.65	6.49	-49.2	-52.9	11.4	1.28e-03	0	50	0	53477376	61	5415
2026-01-04 04:58:55.78	53.57	6.55	-49.1	-52.7	11.6	7.45e-04	0	50	0	55574528	61	5285
2026-01-04 04:58:56.77	53.48	6.61	-49.1	-52.6	11.7	5.26e-04	0	50	0	57671680	61	5230
2026-01-04 04:58:57.76	53.39	6.67	-49.1	-52.6	11.8	5.42e-04	0	50	0	59768832	61	5230
2026-01-04 04:58:58.75	53.30	6.74	-49.2	-52.7	11.6	5.36e-04	0	50	0	60817408	61	5327
2026-01-04 04:58:59.74	53.21	6.80	-49.1	-52.7	11.6	6.92e-04	0	50	0	62914560	61	5314
2026-01-04 04:59:00.73	53.12	6.86	-49.1	-52.7	11.7	6.64e-04	0	50	0	65011712	61	5307
2026-01-04 04:59:01.72	53.04	6.92	-49.2	-52.8	11.6	6.93e-04	0	50	0	67108864	61	5385
2026-01-04 04:59:02.70	52.95	6.99	-49.4	-53.1	11.3	9.01e-04	0	50	0	68157440	61	5564
2026-01-04 04:59:03.69	52.86	7.05	-49.3	-53.0	11.3	1.18e-03	0	50	0	70254592	61	5519
2026-01-04 04:59:04.68	52.77	7.11	-49.3	-53.1	11.3	9.65e-04	0	50	0	72351744	61	5555
2026-01-04 04:59:05.67	52.68	7.18	-49.3	-52.9	11.5	1.18e-03	0	50	0	74448896	61	5459
2026-01-04 04:59:06.66	52.58	7.24	-49.2	-52.7	11.8	7.09e-04	0	51	0	75497472	61	5286
2026-01-04 04:59:07.65	52.49	7.30	-49.2	-52.7	11.7	5.60e-04	0	51	0	77594624	61	5311
2026-01-04 04:59:08.64	52.40	7.37	-49.2	-52.7	11.7	5.54e-04	0	51	0	79691776	61	5329
2026-01-04 04:59:09.63	52.31	7.43	-49.3	-52.8	11.6	6.63e-04	0	51	0	81788928	61	5380
2026-01-04 04:59:10.62	52.21	7.49	-49.3	-53.0	11.4	9.86e-04	0	51	0	83886080	61	5523
2026-01-04 04:59:11.61	52.12	7.56	-49.3	-52.9	11.5	1.06e-03	0	51	0	84934656	61	5463
2026-01-04 04:59:12.60	52.03	7.62	-49.2	-52.8	11.6	7.50e-04	0	51	0	87031808	61	5368
2026-01-04 04:59:13.59	51.93	7.68	-49.1	-52.6	11.8	5.23e-04	0	51	0	89128960	61	5247
2026-01-04 04:59:14.58	51.84	7.75	-49.1	-52.5	12.0	3.45e-04	0	51	0	91226112	61	5168
2026-01-04 04:59:15.57	51.74	7.81	-49.1	-52.5	12.0	3.65e-04	0	51	0	92274688	61	5184
2026-01-04 04:59:16.55	51.65	7.88	-49.0	-52.3	12.2	2.50e-04	0	51	0	94371840	61	5083
2026-01-04 04:59:17.53	51.55	7.94	-49.1	-52.5	12.0	2.92e-04	0	51	0	96468992	61	5171
2026-01-04 04:59:18.52	51.46	8.00	-49.1	-52.5	12.0	3.61e-04	0	51	0	98566144	61	5167
2026-01-04 04:59:19.51	51.36	8.07	-49.0	-52.2	12.3	2.01e-04	0	51	0	99614720	61	5009
2026-01-04 04:59:20.49	51.26	8.13	-48.9	-52.2	12.3	1.47e-04	0	51	0	101711872	61	5006
2026-01-04 04:59:21.48	51.17	8.20	-49.0	-52.2	12.3	1.58e-04	0	51	0	103809024	61	5005
2026-01-04 04:59:22.48	51.07	8.26	-49.0	-52.4	12.2	1.62e-04	0	51	0	105906176	61	5107
2026-01-04 04:59:23.46	50.97	8.33	-49.1	-52.5	12.0	3.20e-04	0	51	0	106954752	61	5179
2026-01-04 04:59:24.45	50.87	8.39	-49.1	-52.4	12.2	2.51e-04	0	51	0	109051904	61	5115
2026-01-04 04:59:25.44	50.77	8.46	-49.2	-52.5	12.0	2.65e-04	0	51	0	111149056	61	5213
2026-01-04 04:59:26.43	50.67	8.52	-49.2	-52.5	12.0	3.74e-04	0	51	0	113246208	61	5211
2026-01-04 04:59:27.41	50.57	8.59	-49.1	-52.3	12.2	2.70e-04	0	51	0	115343360	61	5076
2026-01-04 04:59:28.40	50.47	8.65	-49.0	-52.3	12.3	2.34e-04	0	51	0	116391936	61	5050
2026-01-04 04:59:29.39	50.37	8.72	-49.0	-52.2	12.3	1.84e-04	0	51	0	118489088	61	5020
2026-01-04 04:59:30.38	50.27	8.78	-49.1	-52.3	12.2	1.65e-04	0	51	0	120586240	61	5092
2026-01-04 04:59:31.35	50.17	8.85	-49.2	-52.5	12.0	3.50e-04	0	51	0	122683392	61	5196
2026-01-04 04:59:32.34	50.06	8.91	-49.0	-52.2	12.3	2.09e-04	0	52	0	123731968	61	5034
2026-01-04 04:59:33.33	49.96	8.98	-48.8	-51.9	12.7	1.13e-04	0	52	0	125829120	60	5107
2026-01-04 04:59:34.32	49.86	9.04	-48.8	-51.8	12.9	5.34e-05	0	52	0	127926272	60	5048
2026-01-04 04:59:35.30	49.75	9.11	-48.7	-51.7	13.0	5.11e-05	0	52	0	130023424	60	4990
2026-01-04 04:59:36.29	49.65	9.17	-48.8	-51.8	12.8	4.19e-05	0	52	0	131072000	60	5060
2026-01-04 04:59:37.28	49.54	9.24	-48.8	-51.7	12.9	4.19e-05	0	52	0	133169152	60	5031
2026-01-04 04:59:38.27	49.44	9.30	-48.8	-51.9	12.8	5.11e-05	0	52	0	135266304	60	5101
2026-01-04 04:59:39.26	49.33	9.37	-48.9	-52.1	12.6	9.07e-05	0	52	0	137363456	60	5241
2026-01-04 04:59:40.25	49.22	9.44	-48.9	-52.0	12.7	8.39e-05	0	52	0	138412032	60	5184
2026-01-04 04:59:41.24	49.12	9.50	-49.0	-52.1	12.5	9.30e-05	0	52	0	140509184	60	5276
2026-01-04 04:59:42.22	49.01	9.57	-49.1	-52.4	12.2	1.52e-04	0	52	0	142606336	60	5447
2026-01-04 04:59:43.22	48.90	9.64	-49.1	-52.2	12.5	1.41e-04	0	52	0	144703488	60	5324
2026-01-04 04:59:44.21	48.79	9.70	-49.2	-52.5	12.1	1.49e-04	0	52	0	146800640	60	5520
2026-01-04 04:59:45.20	48.68	9.77	-49.2	-52.5	12.1	2.36e-04	0	52	0	147849216	60	5500
2026-01-04 04:59:46.20	48.57	9.84	-49.2	-52.6	12.1	2.74e-04	0	52	0	149946368	60	5533
2026-01-04 04:59:47.18	48.46	9.90	-49.3	-52.7	12.0	3.05e-04	0	52	0	152043520	60	5630
2026-01-04 04:59:48.17	48.35	9.97	-49.3	-52.7	11.9	3.55e-04	0	52	0	154140672	60	5654
2026-01-04 04:59:49.17	48.24	10.04	-49.3	-52.6	12.0	2.81e-04	0	52	0	155189248	60	5579
2026-01-04 04:59:50.16	48.13	10.10	-49.3	-52.6	12.1	2.66e-04	0	52	0	157286400	60	5545
2026-01-04 04:59:51.15	48.02	10.17	-49.2	-52.7	12.0	2.80e-04	0	52	0	159383552	60	5610
2026-01-04 04:59:52.14	47.90	10.24	-49.1	-52.4	12.4	1.82e-04	0	52	0	161480704	60	5405
2026-01-04 04:59:53.13	47.79	10.30	-49.0	-52.1	12.6	1.08e-04	0	52	0	163577856	60	5237
2026-01-04 04:59:54.11	47.68	10.37	-48.9	-51.9	12.8	7.55e-05	0	52	0	164626432	60	5144
2026-01-04 04:59:55.10	47.56	10.44	-48.9	-52.0	12.7	5.72e-05	0	52	0	166723584	60	5178
2026-01-04 04:59:56.09	47.45	10.51	-48.9	-52.0	12.8	6.48e-05	0	52	0	168820736	60	5164
2026-01-04 04:59:57.08	47.33	10.57	-48.9	-52.0	12.7	6.56e-05	0	52	0	170917888	60	5184
2026-01-04 04:59:58.08	47.21	10.64	-49.0	-52.1	12.6	6.86e-05	0	52	0	171966464	60	5277
2026-01-04 04:59:59.06	47.10	10.71	-49.1	-52.4	12.4	1.21e-04	0	52	0	174063616	60	5406
2026-01-04 05:00:00.05	46.98	10.78	-48.9	-52.0	12.7	9.99e-05	0	52	0	176160768	60	5202
2026-01-04 05:00:01.04	46.86	10.84	-48.9	-51.8	12.9	5.18e-05	0	52	0	178257920	60	5082
2026-01-04 05:00:02.02	46.75	10.91	-48.8	-51.6	13.2	2.51e-05	0	52	0	179306496	60	4946
2026-01-04 05:00:03.00	46.63	10.98	-48.8	-51.6	13.1	1.75e-05	0	52	0	181403648	60	4983
2026-01-04 05:00:03.99	46.51	11.05	-48.8	-51.6	13.2	2.51e-05	0	52	0	183500800	60	4952
2026-01-04 05:00:04.98	46.39	11.11	-48.9	-51.8	13.0	3.28e-05	0	53	0	185597952	60	5059
2026-01-04 05:00:05.96	46.27	11.18	-48.7	-51.5	13.2	2.44e-05	0	52	0	186646528	60	4923
2026-01-04 05:00:06.96	46.15	11.25	-48.6	-51.3	13.5	1.37e-05	0	53	0	188743680	60	4791
2026-01-04 05:00:07.95	46.03	11.32	-48.6	-51.3	13.4	1.22e-05	0	53	0	190840832	60	4810
2026-01-04 05:00:08.94	45.90	11.39	-48.5	-51.2	13.6	6.80e-06	0	53	0	192937984	60	4737
2026-01-04 05:00:09.93	45.78	11.45	-48.5	-51.2	13.6	1.06e-05	0	53	0	195035136	60	4725
2026-01-04 05:00:10.92	45.66	11.52	-48.5	-51.3	13.5	3.00e-06	0	53	0	196083712	60	4805
2026-01-04 05:00:11.91	45.53	11.59	-48.6	-51.3	13.5	7.60e-06	0	53	0	198180864	60	4808
2026-01-04 05:00:12.89	45.41	11.66	-48.7	-51.5	13.3	1.83e-05	0	53	0	200278016	60	4909
2026-01-04 05:00:13.88	45.28	11.73	-48.6	-51.4	13.4	1.37e-05	0	53	0	202375168	60	4822
2026-01-04 05:00:14.88	45.16	11.80	-48.7	-51.5	13.3	1.60e-05	0	53	0	203423744	60	4905
2026-01-04 05:00:15.87	45.03	11.86	-48.8	-51.8	13.0	2.82e-05	0	53	0	205520896	60	5061
2026-01-04 05:00:16.85	44.91	11.93	-48.8	-51.6	13.2	3.96e-05	0	53	0	207618048	60	4969
2026-01-04 05:00:17.83	44.78	12.00	-48.9	-51.8	13.0	2.59e-05	0	53	0	209715200	60	5051
2026-01-04 05:00:18.82	44.65	12.07	-48.8	-51.7	13.1	3.05e-05	0	53	0	210763776	60	4984
2026-01-04 05:00:19.81	44.52	12.14	-48.8	-51.7	13.1	1.60e-05	0	53	0	212860928	60	5013
2026-01-04 05:00:20.79	44.39	12.21	-49.0	-52.0	12.8	3.66e-05	0	53	0	214958080	60	5188
2026-01-04 05:00:21.77	44.26	12.27	-48.9	-51.8	13.0	6.40e-05	0	53	0	217055232	60	5100
2026-01-04 05:00:22.75	44.14	12.34	-49.0	-52.0	12.9	3.58e-05	0	53	0	219152384	60	5184
2026-01-04 05:00:23.74	44.00	12.41	-48.9	-51.9	13.0	4.65e-05	0	53	0	220200960	60	5103
2026-01-04 05:00:24.72	43.87	12.48	-48.8	-51.7	13.2	3.66e-05	0	53	0	222298112	60	4999
2026-01-04 05:00:25.70	43.74	12.55	-48.8	-51.6	13.2	2.36e-05	0	53	0	224395264	60	4973
2026-01-04 05:00:26.70	43.61	12.62	-48.8	-51.7	13.2	2.44e-05	0	53	0	226492416	60	5008
2026-01-04 05:00:27.68	43.47	12.69	-48.8	-51.6	13.3	2.28e-05	0	53	0	227540992	60	4930
2026-01-04 05:00:28.66	43.34	12.75	-48.7	-51.4	13.5	1.90e-05	0	53	0	229638144	60	4858
2026-01-04 05:00:29.65	43.21	12.82	-48.7	-51.4	13.5	1.52e-05	0	53	0	231735296	60	4849
2026-01-04 05:00:30.64	43.07	12.89	-48.7	-51.4	13.5	1.90e-05	0	53	0	233832448	60	4823
2026-01-04 05:00:31.63	42.93	12.96	-48.7	-51.5	13.4	1.37e-05	0	53	0	234881024	60	4882
2026-01-04 05:00:32.61	42.80	13.03	-48.6	-51.2	13.6	1.67e-05	0	53	0	236978176	60	4740
2026-01-04 05:00:33.60	42.66	13.10	-48.4	-50.9	14.0	1.50e-06	0	53	0	239075328	59	4831
2026-01-04 05:00:34.59	42.52	13.17	-48.2	-50.6	14.3	7.00e-07	0	53	0	241172480	59	4673
2026-01-04 05:00:35.57	42.38	13.24	-48.1	-50.4	14.5	7.00e-07	0	53	0	242221056	59	4555
2026-01-04 05:00:36.56	42.24	13.31	-48.0	-50.2	14.7	7.00e-07	0	53	0	244318208	59	4460
2026-01-04 05:00:37.55	42.10	13.38	-48.0	-50.2	14.7	1.50e-06	0	53	0	246415360	59	4444
2026-01-04 05:00:38.54	41.96	13.45	-48.0	-50.3	14.7	7.00e-07	0	53	0	248512512	59	4496
2026-01-04 05:00:39.52	41.82	13.52	-48.1	-50.4	14.5	7.00e-07	0	53	0	249561088	59	4570
2026-01-04 05:00:40.51	41.68	13.58	-48.1	-50.4	14.6	1.50e-06	0	53	0	251658240	59	4548
2026-01-04 05:00:41.50	41.54	13.65	-48.0	-50.2	14.7	7.00e-07	0	53	0	253755392	59	4472
2026-01-04 05:00:42.48	41.39	13.72	-48.0	-50.3	14.7	0.00e+00	0	53	0	255852544	59	4500
2026-01-04 05:00:43.47	41.25	13.79	-48.2	-50.5	14.5	7.00e-07	0	53	0	257949696	59	4601
2026-01-04 05:00:44.47	41.10	13.86	-48.2	-50.6	14.4	7.00e-07	0	53	0	258998272	59	4661
2026-01-04 05:00:45.46	40.96	13.93	-48.2	-50.6	14.4	0.00e+00	0	53	0	261095424	59	4671
2026-01-04 05:00:46.45	40.81	14.00	-48.3	-50.6	14.3	7.00e-07	0	53	0	263192576	59	4694
2026-01-04 05:00:47.44	40.66	14.07	-48.3	-50.6	14.3	7.00e-07	0	54	0	265289728	59	4700
2026-01-04 05:00:48.42	40.52	14.14	-48.3	-50.6	14.3	0.00e+00	0	54	0	266338304	59	4693
2026-01-04 05:00:49.41	40.37	14.21	-48.3	-50.7	14.2	1.50e-06	0	53	0	268435456	59	4755
2026-01-04 05:00:50.41	40.22	14.28	-48.3	-50.7	14.2	7.00e-07	0	53	0	270532608	59	4720
2026-01-04 05:00:51.40	40.07	14.35	-48.2	-50.6	14.3	1.50e-06	0	53	0	272629760	59	4665
2026-01-04 05:00:52.40	39.91	14.42	-48.3	-50.6	14.3	0.00e+00	0	54	0	273678336	59	4668
2026-01-04 05:00:53.39	39.76	14.49	-48.3	-50.7	14.3	7.00e-07	0	54	0	275775488	59	4716
2026-01-04 05:00:54.37	39.61	14.56	-48.3	-50.8	14.2	2.20e-06	0	54	0	277872640	59	4764
2026-01-04 05:00:55.37	39.46	14.63	-48.3	-50.7	14.2	2.20e-06	0	54	0	279969792	59	4758
2026-01-04 05:00:56.35	39.30	14.70	-48.4	-50.9	14.0	7.00e-07	0	54	0	282066944	59	4867
2026-01-04 05:00:57.34	39.15	14.77	-48.4	-51.0	14.0	3.00e-06	0	54	0	283115520	59	4880
2026-01-04 05:00:58.32	39.00	14.84	-48.5	-51.1	13.9	5.30e-06	0	54	0	285212672	59	4940
2026-01-04 05:00:59.31	38.84	14.91	-48.6	-51.1	13.8	5.30e-06	0	54	0	287309824	59	4978
2026-01-04 05:01:00.30	38.68	14.98	-48.6	-51.2	13.8	6.10e-06	0	54	0	289406976	59	5009
2026-01-04 05:01:01.30	38.52	15.05	-48.7	-51.3	13.7	3.80e-06	0	54	0	290455552	59	5057
2026-01-04 05:01:02.30	38.36	15.12	-48.7	-51.3	13.7	7.60e-06	0	54	0	292552704	59	5089
2026-01-04 05:01:03.28	38.21	15.19	-48.8	-51.4	13.5	9.90e-06	0	54	0	294649856	59	5157
2026-01-04 05:01:04.27	38.05	15.25	-48.8	-51.4	13.6	7.60e-06	0	54	0	296747008	59	5131
2026-01-04 05:01:05.26	37.89	15.32	-48.8	-51.5	13.4	1.44e-05	0	54	0	298844160	59	5213
2026-01-04 05:01:06.23	37.73	15.39	-48.9	-51.7	13.3	1.83e-05	0	54	0	299892736	59	5290
2026-01-04 05:01:07.23	37.56	15.46	-48.8	-51.4	13.5	9.10e-06	0	54	0	301989888	59	5127
2026-01-04 05:01:08.22	37.40	15.53	-48.6	-51.2	13.8	4.50e-06	0	54	0	304087040	59	5005
2026-01-04 05:01:09.21	37.24	15.60	-48.6	-51.2	13.8	3.80e-06	0	54	0	306184192	59	5006
2026-01-04 05:01:10.20	37.07	15.67	-48.7	-51.2	13.7	6.10e-06	0	54	0	307232768	59	5031
2026-01-04 05:01:11.19	36.91	15.74	-48.8	-51.4	13.6	6.80e-06	0	54	0	309329920	59	5133
2026-01-04 05:01:12.18	36.74	15.81	-48.6	-51.2	13.8	4.50e-06	0	54	0	311427072	59	5016
2026-01-04 05:01:13.16	36.58	15.88	-48.5	-51.0	14.0	4.50e-06	0	54	0	313524224	59	4884
2026-01-04 05:01:14.15	36.41	15.95	-48.5	-51.0	14.0	7.00e-07	0	54	0	314572800	59	4887
2026-01-04 05:01:15.14	36.24	16.01	-48.6	-51.1	13.9	1.50e-06	0	54	0	316669952	59	4948
2026-01-04 05:01:16.13	36.07	16.08	-48.6	-51.1	13.9	4.50e-06	0	54	0	318767104	59	4948
2026-01-04 05:01:17.12	35.90	16.15	-48.7	-51.3	13.7	3.00e-06	0	54	0	320864256	59	5073
2026-01-04 05:01:18.10	35.73	16.22	-48.5	-51.1	13.9	3.80e-06	0	54	0	322961408	59	4964
2026-01-04 05:01:19.09	35.56	16.29	-48.7	-51.3	13.7	1.14e-05	0	54	0	324009984	59	5099
2026-01-04 05:01:20.09	35.39	16.36	-48.8	-51.5	13.5	6.10e-06	0	54	0	326107136	59	5193
2026-01-04 05:01:21.08	35.22	16.43	-48.6	-51.2	13.8	7.60e-06	0	54	0	328204288	59	4997
2026-01-04 05:01:22.07	35.04	16.50	-48.6	-51.1	13.9	5.30e-06	0	54	0	330301440	59	4950
2026-01-04 05:01:23.06	34.87	16.56	-48.5	-51.0	14.0	3.80e-06	0	54	0	331350016	59	4891
2026-01-04 05:01:24.04	34.69	16.63	-48.6	-51.2	13.8	5.30e-06	0	54	0	333447168	59	5009
2026-01-04 05:01:25.04	34.52	16.70	-48.6	-51.2	13.8	5.30e-06	0	54	0	335544320	59	5007
2026-01-04 05:01:26.02	34.34	16.77	-48.6	-51.2	13.8	2.20e-06	0	54	0	337641472	59	5029
2026-01-04 05:01:27.01	34.16	16.84	-48.6	-51.1	13.9	2.20e-06	0	54	0	338690048	59	4951
2026-01-04 05:01:28.00	33.98	16.90	-48.6	-51.2	13.8	3.00e-06	0	54	0	340787200	59	5006
2026-01-04 05:01:28.98	33.81	16.97	-48.8	-51.5	13.5	5.30e-06	0	54	0	342884352	59	5179
2026-01-04 05:01:29.97	33.63	17.04	-48.6	-51.2	13.8	5.30e-06	0	54	0	344981504	59	5023
2026-01-04 05:01:30.96	33.44	17.11	-48.5	-51.0	14.1	2.20e-06	0	54	0	346030080	59	4881
2026-01-04 05:01:31.95	33.26	17.17	-48.5	-51.0	14.0	3.80e-06	0	54	0	348127232	59	4878
2026-01-04 05:01:32.94	33.08	17.24	-48.5	-51.0	14.0	3.80e-06	0	55	0	350224384	59	4887
2026-01-04 05:01:33.93	32.90	17.31	-48.6	-51.1	13.9	2.20e-06	0	54	0	352321536	59	4978
2026-01-04 05:01:34.91	32.71	17.38	-48.6	-51.1	13.9	4.50e-06	0	54	0	354418688	59	4971
2026-01-04 05:01:35.90	32.53	17.44	-48.7	-51.4	13.6	3.00e-06	0	54	0	355467264	59	5119
2026-01-04 05:01:36.90	32.34	17.51	-48.5	-51.0	14.0	6.80e-06	0	54	0	357564416	59	4909
2026-01-04 05:01:37.89	32.15	17.58	-48.3	-50.7	14.3	0.00e+00	0	54	0	359661568	59	4728
2026-01-04 05:01:38.87	31.97	17.64	-48.2	-50.4	14.6	0.00e+00	0	54	0	361758720	59	4595
2026-01-04 05:01:39.86	31.78	17.71	-48.1	-50.3	14.7	7.00e-07	0	54	0	362807296	59	4537
2026-01-04 05:01:40.85	31.59	17.78	-48.1	-50.3	14.8	1.50e-06	0	55	0	364904448	59	4494
2026-01-04 05:01:41.84	31.40	17.84	-48.0	-50.2	14.9	0.00e+00	0	54	0	367001600	59	4450
2026-01-04 05:01:42.83	31.21	17.91	-48.0	-50.3	14.8	7.00e-07	0	55	0	369098752	59	4500
2026-01-04 05:01:43.82	31.02	17.97	-48.1	-50.4	14.7	0.00e+00	0	55	0	370147328	59	4555
2026-01-04 05:01:44.80	30.82	18.04	-47.9	-50.0	15.1	0.00e+00	0	54	0	372244480	58	4610
2026-01-04 05:01:45.79	30.63	18.10	-47.6	-49.6	15.4	0.00e+00	0	54	0	374341632	58	4426
2026-01-04 05:01:46.77	30.44	18.17	-47.5	-49.4	15.6	0.00e+00	0	54	0	376438784	58	4319
2026-01-04 05:01:47.76	30.24	18.23	-47.4	-49.3	15.8	0.00e+00	0	55	0	378535936	57	4500
2026-01-04 05:01:48.75	30.05	18.30	-47.3	-49.2	15.8	0.00e+00	0	55	0	379584512	57	4472
2026-01-04 05:01:49.73	29.85	18.36	-47.2	-49.0	16.0	0.00e+00	0	54	0	381681664	57	4374
2026-01-04 05:01:50.73	29.65	18.43	-47.1	-48.8	16.2	0.00e+00	0	55	0	383778816	57	4265
2026-01-04 05:01:51.72	29.45	18.49	-47.2	-49.0	16.1	0.00e+00	0	55	0	385875968	57	4363
2026-01-04 05:01:52.72	29.25	18.56	-47.1	-48.9	16.2	0.00e+00	0	55	0	386924544	57	4330
2026-01-04 05:01:53.70	29.05	18.62	-47.0	-48.8	16.2	0.00e+00	0	55	0	389021696	57	4273
2026-01-04 05:01:54.69	28.85	18.69	-47.0	-48.8	16.3	0.00e+00	0	55	0	391118848	57	4251
2026-01-04 05:01:55.68	28.65	18.75	-47.0	-48.6	16.4	0.00e+00	0	55	0	393216000	57	4185
2026-01-04 05:01:56.67	28.45	18.81	-46.9	-48.6	16.5	0.00e+00	0	55	0	394264576	56	4401
2026-01-04 05:01:57.65	28.24	18.88	-46.9	-48.6	16.5	0.00e+00	0	55	0	396361728	56	4409
2026-01-04 05:01:58.64	28.04	18.94	-47.0	-48.7	16.4	0.00e+00	0	55	0	398458880	56	4456
2026-01-04 05:01:59.63	27.83	19.00	-46.9	-48.6	16.5	0.00e+00	0	54	0	400556032	56	4406
2026-01-04 05:02:00.61	27.63	19.06	-46.8	-48.4	16.7	0.00e+00	0	55	0	402653184	56	4311
2026-01-04 05:02:01.60	27.42	19.13	-46.8	-48.4	16.7	0.00e+00	0	55	0	403701760	56	4300
2026-01-04 05:02:02.59	27.21	19.19	-46.8	-48.4	16.6	0.00e+00	0	55	0	405798912	56	4336
2026-01-04 05:02:03.57	27.01	19.25	-46.8	-48.4	16.6	0.00e+00	0	55	0	407896064	56	4325
2026-01-04 05:02:04.56	26.80	19.31	-46.8	-48.4	16.7	0.00e+00	0	55	0	409993216	56	4317
2026-01-04 05:02:05.55	26.59	19.37	-46.8	-48.4	16.7	0.00e+00	0	55	0	411041792	56	4309
2026-01-04 05:02:06.55	26.37	19.44	-46.7	-48.3	16.8	0.00e+00	0	55	0	413138944	56	4252
2026-01-04 05:02:07.53	26.16	19.50	-46.6	-48.2	16.8	0.00e+00	0	55	0	415236096	56	4234
2026-01-04 05:02:08.52	25.95	19.56	-46.7	-48.2	16.9	0.00e+00	0	55	0	417333248	56	4228
2026-01-04 05:02:09.51	25.73	19.62	-46.7	-48.3	16.8	0.00e+00	0	55	0	418381824	56	4264
2026-01-04 05:02:10.50	25.52	19.68	-46.8	-48.4	16.7	0.00e+00	0	55	0	420478976	56	4317
2026-01-04 05:02:11.48	25.31	19.74	-46.8	-48.4	16.7	0.00e+00	0	55	0	422576128	56	4312
2026-01-04 05:02:12.47	25.09	19.80	-46.7	-48.2	16.8	0.00e+00	0	55	0	424673280	56	4228
2026-01-04 05:02:13.46	24.87	19.85	-46.7	-48.3	16.8	0.00e+00	0	55	0	425721856	56	4256
2026-01-04 05:02:14.45	24.65	19.91	-46.7	-48.3	16.7	0.00e+00	0	55	0	427819008	56	4290
2026-01-04 05:02:15.43	24.44	19.97	-46.7	-48.3	16.8	0.00e+00	0	55	0	429916160	56	4255
2026-01-04 05:02:16.43	24.21	20.03	-46.7	-48.3	16.8	0.00e+00	0	55	0	432013312	56	4248
2026-01-04 05:02:17.42	23.99	20.09	-46.7	-48.3	16.8	0.00e+00	0	55	0	434110464	56	4272
2026-01-04 05:02:18.40	23.77	20.15	-46.8	-48.4	16.6	0.00e+00	0	55	0	435159040	56	4334
2026-01-04 05:02:19.40	23.55	20.20	-46.7	-48.3	16.8	0.00e+00	0	55	0	437256192	56	4253
2026-01-04 05:02:20.39	23.32	20.26	-46.6	-48.1	16.9	0.00e+00	0	55	0	439353344	56	4193
2026-01-04 05:02:21.37	23.10	20.32	-46.6	-48.2	16.9	0.00e+00	0	55	0	441450496	56	4218
2026-01-04 05:02:22.36	22.88	20.37	-46.8	-48.5	16.6	0.00e+00	0	55	0	442499072	56	4351
2026-01-04 05:02:23.35	22.65	20.43	-46.9	-48.6	16.4	0.00e+00	0	55	0	444596224	56	4441
2026-01-04 05:02:24.34	22.42	20.48	-46.9	-48.6	16.5	0.00e+00	0	55	0	446693376	56	4399
2026-01-04 05:02:25.33	22.20	20.54	-46.9	-48.5	16.6	0.00e+00	0	55	0	448790528	56	4377
2026-01-04 05:02:26.31	21.97	20.59	-46.9	-48.7	16.4	0.00e+00	0	55	0	449839104	56	4447
2026-01-04 05:02:27.30	21.74	20.65	-47.0	-48.7	16.4	0.00e+00	0	55	0	451936256	56	4460
2026-01-04 05:02:28.28	21.51	20.70	-46.9	-48.7	16.4	0.00e+00	0	55	0	454033408	56	4442
2026-01-04 05:02:29.26	21.28	20.76	-47.0	-48.8	16.3	0.00e+00	0	55	0	456130560	56	4505
2026-01-04 05:02:30.25	21.05	20.81	-47.0	-48.8	16.3	0.00e+00	0	55	0	457179136	56	4502
2026-01-04 05:02:31.24	20.82	20.86	-46.9	-48.6	16.5	0.00e+00	0	55	0	459276288	56	4397
2026-01-04 05:02:32.22	20.59	20.91	-46.9	-48.6	16.5	0.00e+00	0	55	0	461373440	56	4437
2026-01-04 05:02:33.21	20.35	20.97	-47.0	-48.7	16.4	0.00e+00	0	55	0	463470592	56	4448
2026-01-04 05:02:34.20	20.12	21.02	-46.9	-48.5	16.6	0.00e+00	0	55	0	465567744	56	4373
2026-01-04 05:02:35.19	19.88	21.07	-46.9	-48.6	16.5	0.00e+00	0	55	0	466616320	56	4433
2026-01-04 05:02:36.18	19.65	21.12	-46.9	-48.6	16.5	0.00e+00	0	55	0	468713472	56	4400
2026-01-04 05:02:37.18	19.41	21.17	-47.0	-48.6	16.5	0.00e+00	0	55	0	470810624	56	4441
2026-01-04 05:02:38.17	19.17	21.22	-46.7	-48.3	16.8	0.00e+00	0	55	0	472907776	56	4286
2026-01-04 05:02:39.16	18.93	21.27	-46.5	-48.1	17.0	0.00e+00	0	55	0	473956352	56	4154
2026-01-04 05:02:40.14	18.69	21.32	-46.4	-47.9	17.2	0.00e+00	0	55	0	476053504	56	4091
2026-01-04 05:02:41.13	18.45	21.37	-46.3	-47.8	17.2	0.00e+00	0	55	0	478150656	55	4258
2026-01-04 05:02:42.12	18.21	21.42	-46.4	-47.9	17.1	0.00e+00	0	55	0	480247808	55	4324
2026-01-04 05:02:43.11	17.97	21.47	-46.3	-47.8	17.2	0.00e+00	0	55	0	482344960	55	4264
2026-01-04 05:02:44.09	17.73	21.51	-46.7	-48.3	16.7	0.00e+00	0	55	0	483393536	55	4506
2026-01-04 05:02:45.08	17.49	21.56	-46.4	-48.0	17.0	0.00e+00	0	55	0	485490688	55	4346
2026-01-04 05:02:46.07	17.24	21.61	-46.2	-47.7	17.3	0.00e+00	0	55	0	487587840	55	4217
2026-01-04 05:02:47.05	17.00	21.65	-46.1	-47.5	17.5	0.00e+00	0	55	0	489684992	55	4130
2026-01-04 05:02:48.05	16.75	21.70	-46.0	-47.3	17.6	0.00e+00	0	55	0	490733568	55	4047
2026-01-04 05:02:49.04	16.50	21.75	-45.8	-47.2	17.8	0.00e+00	0	55	0	492830720	54	4221
2026-01-04 05:02:50.03	16.26	21.79	-45.8	-47.1	17.8	0.00e+00	0	55	0	494927872	54	4191
2026-01-04 05:02:51.02	16.01	21.83	-45.9	-47.3	17.7	0.00e+00	0	55	0	497025024	54	4252
2026-01-04 05:02:52.00	15.76	21.88	-46.2	-47.6	17.3	0.00e+00	0	55	0	498073600	54	4435
2026-01-04 05:02:52.99	15.51	21.92	-46.1	-47.5	17.5	0.00e+00	0	55	0	500170752	54	4378
2026-01-04 05:02:53.98	15.26	21.96	-46.2	-47.7	17.3	0.00e+00	0	55	0	502267904	54	4442
2026-01-04 05:02:54.97	15.01	22.01	-46.3	-47.8	17.1	0.00e+00	0	55	0	504365056	54	4544
2026-01-04 05:02:55.95	14.76	22.05	-46.1	-47.5	17.5	0.00e+00	0	55	0	505413632	54	4365
2026-01-04 05:02:56.94	14.51	22.09	-46.2	-47.6	17.3	0.00e+00	0	55	0	507510784	54	4439
2026-01-04 05:02:57.93	14.26	22.13	-46.3	-47.8	17.2	0.00e+00	0	55	0	509607936	54	4501
2026-01-04 05:02:58.92	14.01	22.17	-46.4	-47.9	17.1	0.00e+00	0	55	0	511705088	54	4570
2026-01-04 05:02:59.91	13.75	22.21	-46.5	-48.0	17.0	0.00e+00	0	55	0	513802240	54	4616
2026-01-04 05:03:00.89	13.50	22.25	-46.5	-48.1	16.9	0.00e+00	0	55	0	514850816	54	4657
2026-01-04 05:03:01.88	13.24	22.29	-46.5	-48.1	16.9	0.00e+00	0	55	0	516947968	54	4683
2026-01-04 05:03:02.87	12.99	22.32	-46.6	-48.1	16.9	0.00e+00	0	55	0	519045120	54	4690
2026-01-04 05:03:03.86	12.73	22.36	-46.8	-48.4	16.5	0.00e+00	0	55	0	521142272	55	4591
2026-01-04 05:03:04.84	12.48	22.40	-46.7	-48.3	16.7	0.00e+00	0	55	0	522190848	55	4511
2026-01-04 05:03:05.84	12.22	22.43	-46.4	-48.0	17.0	0.00e+00	0	55	0	524288000	55	4355
2026-01-04 05:03:06.83	11.96	22.47	-46.4	-47.9	17.1	0.00e+00	0	55	0	526385152	55	4296
2026-01-04 05:03:07.82	11.70	22.50	-46.4	-47.9	17.0	0.00e+00	0	56	0	528482304	55	4340
2026-01-04 05:03:08.81	11.44	22.54	-46.5	-48.1	16.9	0.00e+00	0	55	0	529530880	55	4392
2026-01-04 05:03:09.80	11.18	22.57	-46.5	-48.0	16.9	0.00e+00	0	55	0	531628032	55	4378
2026-01-04 05:03:10.79	10.92	22.61	-46.6	-48.3	16.6	0.00e+00	0	55	0	533725184	55	4501
2026-01-04 05:03:11.78	10.66	22.64	-46.8	-48.6	16.2	0.00e+00	0	55	0	535822336	55	4682
2026-01-04 05:03:12.77	10.40	22.67	-47.1	-49.0	15.9	0.00e+00	0	55	0	537919488	56	4631
2026-01-04 05:03:13.75	10.14	22.70	-47.2	-49.1	15.7	0.00e+00	0	55	0	538968064	56	4700
2026-01-04 05:03:14.75	9.87	22.73	-47.3	-49.2	15.6	0.00e+00	0	55	0	541065216	56	4733
2026-01-04 05:03:15.74	9.61	22.76	-47.0	-48.8	15.8	0.00e+00	0	55	0	543162368	56	4539
2026-01-04 05:03:16.73	9.34	22.79	-46.9	-48.8	15.9	0.00e+00	0	55	0	545259520	56	4499
2026-01-04 05:03:17.72	9.08	22.82	-46.9	-48.8	15.7	0.00e+00	0	56	0	546308096	56	4532
2026-01-04 05:03:18.71	8.81	22.85	-47.2	-49.3	15.1	0.00e+00	0	56	0	548405248	56	4772
2026-01-04 05:03:19.70	8.55	22.88	-47.4	-49.7	14.6	7.00e-07	0	55	0	550502400	56	5014
2026-01-04 05:03:20.69	8.28	22.91	-47.7	-50.2	14.0	1.50e-06	0	56	0	552599552	57	5005
2026-01-04 05:03:21.67	8.02	22.93	-48.3	-51.2	12.9	1.06e-05	0	55	0	553648128	58	5304
2026-01-04 05:03:22.66	7.75	22.96	-48.7	-52.1	11.8	1.75e-04	0	56	0	555745280	59	5589
2026-01-04 05:03:23.65	7.48	22.98	-49.2	-53.5	10.3	2.47e-03	0	56	0	557842432	60	6153
2026-01-04 05:03:24.64	7.22	23.01	-49.5	-54.5	9.0	1.67e-02	0	55	0	559939584	60	6953
2026-01-04 05:03:25.62	6.95	23.03	-49.7	-56.2	7.3	5.45e-02	0	55	0	560988160	61	7919
2026-01-04 05:03:26.62	6.68	23.06	-49.9	-56.9	6.5	1.85e-01	0	56	0	563085312	61	8632
2026-01-04 05:03:27.60	6.41	23.08	-49.9	-56.9	6.6	2.24e-01	0	56	0	565182464	61	8614
2026-01-04 05:03:28.59	6.14	23.10	-49.8	-56.7	6.7	2.03e-01	0	55	0	567279616	61	8422
2026-01-04 05:03:29.57	5.88	23.12	-50.0	-56.8	6.7	1.92e-01	0	55	0	569376768	61	8485
2026-01-04 05:03:30.56	5.61	23.14	-50.0	-56.5	7.2	1.47e-01	0	56	0	570425344	61	8204
2026-01-04 05:03:31.54	5.34	23.16	-50.3	-56.6	7.2	1.23e-01	0	56	0	572522496	62	7853
2026-01-04 05:03:32.53	5.07	23.18	-50.2	-56.2	7.7	1.19e-01	0	56	0	574619648	62	7511
2026-01-04 05:03:33.52	4.80	23.20	-50.1	-55.6	8.2	6.48e-02	0	56	0	576716800	62	7013
2026-01-04 05:03:34.51	4.53	23.22	-50.0	-55.6	8.3	5.05e-02	0	55	0	577765376	62	6966
2026-01-04 05:03:35.49	4.26	23.23	-49.9	-55.6	8.2	5.76e-02	0	56	0	579862528	62	6985
2026-01-04 05:03:36.48	3.99	23.25	-49.9	-55.6	8.0	6.29e-02	0	56	0	581959680	62	6994
2026-01-04 05:03:37.47	3.71	23.27	-49.9	-55.4	8.2	6.51e-02	0	56	0	584056832	62	6870
2026-01-04 05:03:38.46	3.44	23.28	-49.6	-54.3	9.5	2.31e-02	0	56	0	585105408	62	6028
2026-01-04 05:03:39.45	3.17	23.30	-49.3	-53.3	10.8	4.98e-03	0	55	0	587202560	61	5679
2026-01-04 05:03:40.44	2.90	23.31	-48.8	-52.1	12.4	5.42e-04	0	55	0	589299712	60	5222
2026-01-04 05:03:41.43	2.62	23.32	-48.6	-51.4	13.5	3.81e-05	0	56	0	591396864	60	4822
2026-01-04 05:03:42.41	2.35	23.34	-48.6	-51.3	13.7	8.30e-06	0	56	0	593494016	60	4808
2026-01-04 05:03:43.41	2.07	23.35	-48.5	-51.2	13.8	9.90e-06	0	56	0	594542592	60	4724
2026-01-04 05:03:44.40	1.80	23.36	-48.3	-50.6	14.5	7.00e-07	0	56	0	596639744	59	4683
2026-01-04 05:03:45.38	1.53	23.37	-48.2	-50.5	14.6	7.00e-07	0	56	0	598736896	59	4616
2026-01-04 05:03:46.36	1.26	23.38	-48.2	-50.6	14.5	7.00e-07	0	56	0	600834048	59	4666
2026-01-04 05:03:47.36	0.98	23.39	-48.3	-50.7	14.4	0.00e+00	0	56	0	601882624	59	4731
2026-01-04 05:03:48.35	0.71	23.40	-48.3	-50.5	14.5	0.00e+00	0	56	0	603979776	59	4643
2026-01-04 05:03:49.35	0.43	23.40	-48.3	-50.6	14.4	7.00e-07	0	56	0	606076928	59	4701
2026-01-04 05:03:50.33	0.16	23.41	-48.3	-50.6	14.5	7.00e-07	0	56	0	608174080	59	4668
2026-01-04 05:03:51.31	359.88	23.42	-48.2	-50.5	14.5	7.00e-07	0	56	0	609222656	59	4648
2026-01-04 05:03:52.30	359.61	23.42	-47.9	-50.0	15.1	0.00e+00	0	56	0	611319808	59	4373
2026-01-04 05:03:53.29	359.33	23.43	-47.7	-49.6	15.5	0.00e+00	0	56	0	613416960	58	4438
2026-01-04 05:03:54.28	359.06	23.43	-47.6	-49.6	15.5	0.00e+00	0	56	0	615514112	58	4404
2026-01-04 05:03:55.27	358.78	23.43	-47.6	-49.6	15.5	0.00e+00	0	56	0	617611264	58	4419
2026-01-04 05:03:56.26	358.51	23.44	-47.8	-49.8	15.3	0.00e+00	0	56	0	618659840	58	4501
2026-01-04 05:03:57.25	358.23	23.44	-47.7	-49.8	15.3	0.00e+00	0	56	0	620756992	58	4507
2026-01-04 05:03:58.24	357.96	23.44	-47.9	-49.9	15.1	0.00e+00	0	56	0	622854144	58	4587
2026-01-04 05:03:59.23	357.68	23.44	-47.7	-49.7	15.4	0.00e+00	0	56	0	624951296	58	4454
2026-01-04 05:04:00.22	357.41	23.44	-47.5	-49.4	15.7	0.00e+00	0	56	0	625999872	58	4298
2026-01-04 05:04:01.21	357.13	23.44	-47.4	-49.3	15.8	0.00e+00	0	56	0	628097024	58	4252
2026-01-04 05:04:02.20	356.86	23.44	-47.5	-49.4	15.8	0.00e+00	0	56	0	630194176	58	4302
2026-01-04 05:04:03.18	356.58	23.43	-47.7	-49.7	15.5	0.00e+00	0	56	0	632291328	58	4449
2026-01-04 05:04:04.17	356.31	23.43	-47.4	-49.3	15.8	0.00e+00	0	56	0	633339904	58	4249
2026-01-04 05:04:05.16	356.03	23.43	-47.4	-49.3	15.8	0.00e+00	0	56	0	635437056	57	4503
2026-01-04 05:04:06.15	355.76	23.42	-47.5	-49.4	15.7	0.00e+00	0	56	0	637534208	57	4560
2026-01-04 05:04:07.14	355.48	23.42	-47.4	-49.2	15.9	0.00e+00	0	56	0	639631360	57	4475
2026-01-04 05:04:08.13	355.21	23.41	-47.3	-49.1	16.0	0.00e+00	0	56	0	640679936	57	4417
2026-01-04 05:04:09.12	354.93	23.40	-47.3	-49.1	16.0	0.00e+00	0	56	0	642777088	57	4410
2026-01-04 05:04:10.11	354.66	23.40	-47.1	-48.9	16.2	0.00e+00	0	56	0	644874240	57	4302
2026-01-04 05:04:11.10	354.38	23.39	-47.0	-48.7	16.4	0.00e+00	0	56	0	646971392	57	4198
2026-01-04 05:04:12.10	354.11	23.38	-46.8	-48.5	16.6	0.00e+00	0	56	0	649068544	56	4353
2026-01-04 05:04:13.08	353.84	23.37	-46.8	-48.4	16.7	0.00e+00	0	56	0	650117120	56	4311
2026-01-04 05:04:14.08	353.56	23.36	-46.8	-48.4	16.6	0.00e+00	0	56	0	652214272	56	4338
2026-01-04 05:04:15.07	353.28	23.35	-46.7	-48.3	16.7	0.00e+00	0	56	0	654311424	56	4283
2026-01-04 05:04:16.06	353.01	23.34	-46.6	-48.2	16.9	0.00e+00	0	56	0	656408576	56	4222
2026-01-04 05:04:17.04	352.74	23.32	-46.6	-48.1	17.0	0.00e+00	0	56	0	657457152	56	4187
2026-01-04 05:04:18.03	352.47	23.31	-46.6	-48.1	16.9	0.00e+00	0	56	0	659554304	56	4189
2026-01-04 05:04:19.02	352.19	23.30	-46.0	-47.5	17.5	0.00e+00	0	56	0	661651456	55	4116
2026-01-04 05:04:20.01	351.92	23.28	-46.0	-47.4	17.5	0.00e+00	0	56	0	663748608	55	4095
2026-01-04 05:04:21.00	351.65	23.27	-46.1	-47.6	17.4	0.00e+00	0	56	0	664797184	55	4147
2026-01-04 05:04:21.98	351.38	23.25	-46.3	-47.8	17.1	0.00e+00	0	56	0	666894336	55	4274
2026-01-04 05:04:22.98	351.10	23.23	-46.2	-47.6	17.3	0.00e+00	0	56	0	668991488	55	4185
2026-01-04 05:04:23.97	350.83	23.22	-46.3	-47.8	17.1	0.00e+00	0	56	0	671088640	55	4279
2026-01-04 05:04:24.95	350.56	23.20	-46.5	-48.1	16.8	0.00e+00	0	56	0	673185792	55	4429
2026-01-04 05:04:25.94	350.29	23.18	-46.8	-48.4	16.5	0.00e+00	0	56	0	674234368	55	4574
2026-01-04 05:04:26.94	350.02	23.16	-46.5	-48.1	16.8	0.00e+00	0	56	0	676331520	55	4421
2026-01-04 05:04:27.92	349.75	23.14	-46.4	-47.9	17.0	0.00e+00	0	56	0	678428672	55	4320
2026-01-04 05:04:28.91	349.48	23.12	-46.3	-47.8	17.2	0.00e+00	0	56	0	680525824	55	4267
2026-01-04 05:04:29.89	349.21	23.10	-46.2	-47.7	17.3	0.00e+00	0	56	0	681574400	55	4206
2026-01-04 05:04:30.87	348.95	23.08	-46.2	-47.7	17.2	0.00e+00	0	56	0	683671552	55	4220
2026-01-04 05:04:31.87	348.68	23.06	-46.5	-48.0	16.9	0.00e+00	0	56	0	685768704	55	4370
2026-01-04 05:04:32.87	348.41	23.03	-46.2	-47.6	17.3	0.00e+00	0	56	0	687865856	55	4191
2026-01-04 05:04:33.86	348.14	23.01	-46.0	-47.4	17.6	0.00e+00	0	56	0	689963008	55	4052
2026-01-04 05:04:34.85	347.87	22.98	-45.8	-47.2	17.8	0.00e+00	0	56	0	691011584	54	4197
2026-01-04 05:04:35.84	347.60	22.96	-45.8	-47.1	17.8	0.00e+00	0	56	0	693108736	54	4177
2026-01-04 05:04:36.83	347.34	22.93	-45.8	-47.2	17.8	0.00e+00	0	56	0	695205888	54	4201
2026-01-04 05:04:37.81	347.07	22.91	-45.8	-47.2	17.7	0.00e+00	0	56	0	697303040	54	4218
2026-01-04 05:04:38.80	346.81	22.88	-46.1	-47.6	17.4	0.00e+00	0	56	0	698351616	54	4403
2026-01-04 05:04:39.78	346.54	22.85	-46.1	-47.5	17.4	0.00e+00	0	56	0	700448768	54	4374
2026-01-04 05:04:40.78	346.28	22.82	-46.1	-47.6	17.3	0.00e+00	0	56	0	702545920	54	4410
2026-01-04 05:04:41.76	346.01	22.79	-46.3	-47.8	17.1	0.00e+00	0	56	0	704643072	54	4528
2026-01-04 05:04:42.76	345.75	22.76	-46.2	-47.7	17.2	0.00e+00	0	56	0	705691648	54	4468
2026-01-04 05:04:43.75	345.48	22.73	-46.0	-47.4	17.5	0.00e+00	0	56	0	707788800	54	4320
2026-01-04 05:04:44.74	345.22	22.70	-45.9	-47.3	17.6	0.00e+00	0	56	0	709885952	54	4282
2026-01-04 05:04:45.74	344.96	22.67	-46.0	-47.5	17.5	0.00e+00	0	56	0	711983104	54	4352
2026-01-04 05:04:46.73	344.69	22.64	-46.1	-47.6	17.3	0.00e+00	0	56	0	714080256	54	4419
2026-01-04 05:04:47.72	344.43	22.61	-46.3	-47.8	17.1	0.00e+00	0	56	0	715128832	54	4513
2026-01-04 05:04:48.71	344.17	22.57	-46.3	-47.8	17.1	0.00e+00	0	56	0	717225984	54	4521
2026-01-04 05:04:49.71	343.91	22.54	-46.4	-48.0	17.0	0.00e+00	0	56	0	719323136	54	4615
2026-01-04 05:04:50.70	343.65	22.50	-46.5	-48.0	16.9	0.00e+00	0	56	0	721420288	54	4638
2026-01-04 05:04:51.69	343.39	22.47	-46.4	-48.0	16.9	0.00e+00	0	56	0	722468864	54	4640
2026-01-04 05:04:52.68	343.13	22.43	-46.6	-48.2	16.7	0.00e+00	0	56	0	724566016	55	4484
2026-01-04 05:04:53.67	342.88	22.40	-46.7	-48.4	16.5	0.00e+00	0	56	0	726663168	55	4577
2026-01-04 05:04:54.66	342.62	22.36	-46.8	-48.5	16.4	0.00e+00	0	56	0	728760320	55	4625
2026-01-04 05:04:55.64	342.36	22.32	-46.9	-48.6	16.4	0.00e+00	0	56	0	729808896	55	4675
2026-01-04 05:04:56.63	342.11	22.28	-46.9	-48.7	16.3	0.00e+00	0	56	0	731906048	55	4719
2026-01-04 05:04:57.62	341.85	22.25	-46.9	-48.6	16.4	0.00e+00	0	56	0	734003200	55	4668
2026-01-04 05:04:58.60	341.60	22.21	-46.8	-48.5	16.5	0.00e+00	0	56	0	736100352	55	4599
2026-01-04 05:04:59.60	341.34	22.17	-46.7	-48.4	16.5	0.00e+00	0	56	0	737148928	55	4560
2026-01-04 05:05:00.59	341.09	22.13	-46.9	-48.5	16.4	0.00e+00	0	56	0	739246080	55	4650
2026-01-04 05:05:01.58	340.84	22.09	-47.0	-48.7	16.2	0.00e+00	0	56	0	741343232	55	4714
2026-01-04 05:05:02.58	340.58	22.05	-47.2	-49.0	16.0	0.00e+00	0	56	0	743440384	56	4635
2026-01-04 05:05:03.57	340.33	22.00	-47.5	-49.4	15.6	0.00e+00	0	56	0	745537536	56	4847
2026-01-04 05:05:04.57	340.08	21.96	-47.6	-49.6	15.5	0.00e+00	0	56	0	746586112	57	4660
2026-01-04 05:05:05.56	339.83	21.92	-47.6	-49.6	15.4	0.00e+00	0	56	0	748683264	57	4682
2026-01-04 05:05:06.55	339.58	21.87	-47.6	-49.6	15.4	0.00e+00	0	56	0	750780416	57	4695
2026-01-04 05:05:07.55	339.33	21.83	-47.7	-49.7	15.3	0.00e+00	0	56	0	752877568	57	4736
2026-01-04 05:05:08.54	339.08	21.79	-47.5	-49.5	15.4	0.00e+00	0	56	0	753926144	57	4629
2026-01-04 05:05:09.53	338.83	21.74	-47.5	-49.5	15.4	0.00e+00	0	56	0	756023296	57	4639
2026-01-04 05:05:10.53	338.59	21.70	-47.7	-49.8	15.0	0.00e+00	0	56	0	758120448	57	4784
2026-01-04 05:05:11.51	338.34	21.65	-47.8	-50.0	14.8	7.00e-07	0	56	0	760217600	57	4897
2026-01-04 05:05:12.50	338.10	21.60	-48.0	-50.4	14.4	7.00e-07	0	56	0	762314752	57	5105
2026-01-04 05:05:13.49	337.85	21.56	-48.3	-50.8	13.9	1.50e-06	0	56	0	763363328	58	5080
2026-01-04 05:05:14.48	337.61	21.51	-48.5	-51.2	13.3	4.50e-06	0	56	0	765460480	58	5335
2026-01-04 05:05:15.46	337.37	21.46	-48.7	-51.6	12.9	2.97e-05	0	56	0	767557632	59	5278
2026-01-04 05:05:16.45	337.13	21.42	-48.9	-52.1	12.4	1.56e-04	0	56	0	769654784	59	5547
2026-01-04 05:05:17.45	336.88	21.37	-49.1	-52.5	11.8	2.62e-04	0	56	0	770703360	60	5506
2026-01-04 05:05:18.44	336.64	21.32	-49.3	-52.9	11.4	7.30e-04	0	56	0	772800512	60	5787
2026-01-04 05:05:19.43	336.40	21.27	-49.2	-52.9	11.5	7.48e-04	0	56	0	774897664	60	5755
2026-01-04 05:05:20.43	336.16	21.22	-49.2	-52.8	11.6	1.05e-03	0	56	0	776994816	60	5667
2026-01-04 05:05:21.42	335.92	21.17	-49.0	-52.5	11.9	5.48e-04	0	56	0	779091968	60	5477
2026-01-04 05:05:22.41	335.69	21.12	-49.1	-52.5	11.9	3.71e-04	0	57	0	780140544	60	5504
2026-01-04 05:05:23.40	335.45	21.07	-49.2	-52.8	11.6	5.78e-04	0	56	0	782237696	60	5699
2026-01-04 05:05:24.39	335.22	21.01	-49.4	-53.1	11.3	1.25e-03	0	56	0	784334848	60	5895
2026-01-04 05:05:25.38	334.98	20.96	-49.4	-53.3	11.1	1.28e-03	0	56	0	786432000	60	6024
2026-01-04 05:05:26.36	334.75	20.91	-49.5	-53.5	10.8	2.40e-03	0	56	0	787480576	60	6151
2026-01-04 05:05:27.35	334.52	20.86	-49.3	-53.1	11.2	1.76e-03	0	56	0	789577728	60	5858
2026-01-04 05:05:28.33	334.28	20.80	-49.0	-52.3	12.0	7.48e-04	0	56	0	791674880	60	5392
2026-01-04 05:05:29.31	334.06	20.75	-48.7	-51.8	12.7	1.92e-04	0	56	0	793772032	60	5045
2026-01-04 05:05:30.30	333.82	20.70	-48.5	-51.3	13.4	4.19e-05	0	56	0	794820608	60	4784
2026-01-04 05:05:31.28	333.60	20.64	-48.4	-50.9	14.0	4.50e-06	0	56	0	796917760	59	4825
2026-01-04 05:05:32.27	333.37	20.59	-48.2	-50.5	14.5	0.00e+00	0	57	0	799014912	59	4616
2026-01-04 05:05:33.25	333.14	20.54	-48.2	-50.4	14.7	0.00e+00	0	56	0	801112064	59	4561
2026-01-04 05:05:34.24	332.91	20.48	-47.9	-50.0	15.1	0.00e+00	0	56	0	802160640	59	4372
2026-01-04 05:05:35.23	332.69	20.42	-48.1	-50.3	14.9	0.00e+00	0	56	0	804257792	59	4497
2026-01-04 05:05:36.23	332.46	20.37	-48.3	-50.6	14.4	0.00e+00	0	56	0	806354944	59	4698
2026-01-04 05:05:37.21	332.24	20.31	-48.1	-50.3	14.8	7.00e-07	0	57	0	808452096	59	4503
2026-01-04 05:05:38.20	332.01	20.26	-47.9	-49.9	15.1	0.00e+00	0	56	0	810549248	58	4596
2026-01-04 05:05:39.19	331.79	20.20	-47.8	-49.8	15.3	0.00e+00	0	56	0	811597824	58	4526
2026-01-04 05:05:40.18	331.57	20.14	-47.8	-49.8	15.3	0.00e+00	0	56	0	813694976	58	4510
2026-01-04 05:05:41.17	331.34	20.08	-47.8	-49.8	15.2	0.00e+00	0	56	0	815792128	58	4542
2026-01-04 05:05:42.16	331.12	20.02	-47.6	-49.6	15.5	0.00e+00	0	56	0	817889280	58	4396
2026-01-04 05:05:43.15	330.90	19.97	-47.5	-49.3	15.8	0.00e+00	0	56	0	818937856	58	4290
2026-01-04 05:05:44.14	330.68	19.91	-47.4	-49.3	15.8	0.00e+00	0	57	0	821035008	57	4516
2026-01-04 05:05:45.13	330.47	19.85	-47.4	-49.4	15.7	0.00e+00	0	56	0	823132160	57	4547
2026-01-04 05:05:46.12	330.25	19.79	-47.6	-49.6	15.6	0.00e+00	0	56	0	825229312	57	4658
2026-01-04 05:05:47.10	330.03	19.73	-47.4	-49.3	15.8	0.00e+00	0	56	0	826277888	57	4539
2026-01-04 05:05:48.08	329.82	19.67	-47.6	-49.5	15.6	0.00e+00	0	57	0	828375040	57	4637
2026-01-04 05:05:49.08	329.60	19.61	-47.7	-49.7	15.3	0.00e+00	0	56	0	830472192	57	4755
2026-01-04 05:05:50.07	329.39	19.55	-47.5	-49.5	15.7	0.00e+00	0	57	0	832569344	57	4599
2026-01-04 05:05:51.06	329.18	19.49	-47.4	-49.3	15.8	0.00e+00	0	56	0	834666496	57	4525
2026-01-04 05:05:52.04	328.97	19.43	-47.4	-49.2	15.8	0.00e+00	0	56	0	835715072	57	4490
2026-01-04 05:05:53.04	328.75	19.37	-47.5	-49.4	15.7	0.00e+00	0	56	0	837812224	57	4570
2026-01-04 05:05:54.03	328.54	19.31	-47.4	-49.3	15.8	0.00e+00	0	57	0	839909376	57	4525
2026-01-04 05:05:55.01	328.33	19.25	-47.5	-49.3	15.7	0.00e+00	0	57	0	842006528	57	4542
2026-01-04 05:05:56.01	328.12	19.18	-47.4	-49.3	15.8	0.00e+00	0	56	0	843055104	57	4518
2026-01-04 05:05:57.00	327.91	19.12	-47.5	-49.5	15.7	0.00e+00	0	56	0	845152256	57	4601
2026-01-04 05:05:57.98	327.71	19.06	-47.5	-49.4	15.7	0.00e+00	0	56	0	847249408	57	4547
2026-01-04 05:05:58.97	327.50	19.00	-47.5	-49.4	15.7	0.00e+00	0	57	0	849346560	57	4560
2026-01-04 05:05:59.96	327.30	18.93	-47.6	-49.5	15.6	0.00e+00	0	57	0	850395136	57	4611
2026-01-04 05:06:00.95	327.09	18.87	-47.6	-49.6	15.5	0.00e+00	0	56	0	852492288	57	4695
2026-01-04 05:06:01.93	326.89	18.81	-47.8	-49.9	15.2	0.00e+00	0	56	0	854589440	57	4829
2026-01-04 05:06:02.92	326.69	18.74	-47.6	-49.6	15.5	0.00e+00	0	56	0	856686592	57	4678
2026-01-04 05:06:03.91	326.49	18.68	-47.4	-49.4	15.7	0.00e+00	0	56	0	858783744	57	4552
2026-01-04 05:06:04.90	326.28	18.62	-47.4	-49.3	15.8	0.00e+00	0	57	0	859832320	57	4496
2026-01-04 05:06:05.89	326.08	18.55	-47.4	-49.4	15.7	0.00e+00	0	56	0	861929472	57	4562
2026-01-04 05:06:06.88	325.88	18.49	-47.5	-49.4	15.6	0.00e+00	0	57	0	864026624	57	4590
2026-01-04 05:06:07.87	325.69	18.42	-47.7	-49.8	15.4	0.00e+00	0	56	0	866123776	57	4760
2026-01-04 05:06:08.86	325.49	18.36	-47.6	-49.6	15.4	0.00e+00	0	57	0	867172352	57	4704
2026-01-04 05:06:09.86	325.29	18.29	-47.8	-49.9	15.2	0.00e+00	0	56	0	869269504	57	4824
2026-01-04 05:06:10.85	325.09	18.23	-48.0	-50.2	14.8	0.00e+00	0	56	0	871366656	57	5029
2026-01-04 05:06:11.84	324.90	18.16	-47.9	-50.0	15.1	0.00e+00	0	57	0	873463808	57	4874
2026-01-04 05:06:12.82	324.70	18.10	-47.7	-49.6	15.4	0.00e+00	0	56	0	874512384	57	4705
2026-01-04 05:06:13.81	324.51	18.03	-47.5	-49.5	15.6	0.00e+00	0	56	0	876609536	57	4601
2026-01-04 05:06:14.80	324.32	17.97	-47.7	-49.7	15.4	0.00e+00	0	57	0	878706688	57	4721
2026-01-04 05:06:15.78	324.13	17.90	-47.7	-49.6	15.4	0.00e+00	0	57	0	880803840	57	4700
2026-01-04 05:06:16.77	323.94	17.83	-47.6	-49.7	15.4	0.00e+00	0	56	0	882900992	57	4713
2026-01-04 05:06:17.76	323.75	17.77	-47.7	-49.7	15.3	0.00e+00	0	57	0	883949568	57	4742
2026-01-04 05:06:18.75	323.56	17.70	-47.8	-49.9	15.2	0.00e+00	0	56	0	886046720	57	4834
2026-01-04 05:06:19.75	323.37	17.64	-47.8	-49.8	15.2	0.00e+00	0	56	0	888143872	57	4791
2026-01-04 05:06:20.74	323.18	17.57	-47.6	-49.6	15.4	0.00e+00	0	56	0	890241024	57	4697
2026-01-04 05:06:21.73	322.99	17.50	-47.6	-49.6	15.4	0.00e+00	0	56	0	891289600	57	4703
2026-01-04 05:06:22.71	322.81	17.44	-47.8	-49.9	15.1	0.00e+00	0	57	0	893386752	57	4841
2026-01-04 05:06:23.70	322.62	17.37	-47.7	-49.8	15.2	0.00e+00	0	56	0	895483904	57	4797
2026-01-04 05:06:24.68	322.44	17.30	-47.6	-49.6	15.5	0.00e+00	0	56	0	897581056	57	4673
2026-01-04 05:06:25.67	322.26	17.23	-47.5	-49.4	15.6	0.00e+00	0	57	0	898629632	57	4581
2026-01-04 05:06:26.65	322.08	17.17	-47.5	-49.4	15.6	0.00e+00	0	57	0	900726784	57	4574
2026-01-04 05:06:27.63	321.90	17.10	-47.5	-49.4	15.6	0.00e+00	0	56	0	902823936	57	4565
2026-01-04 05:06:28.60	321.72	17.03	-47.5	-49.4	15.6	0.00e+00	0	57	0	904921088	57	4567
2026-01-04 05:06:29.59	321.54	16.97	-47.5	-49.4	15.6	0.00e+00	0	56	0	905969664	57	4593
2026-01-04 05:06:30.57	321.36	16.90	-47.5	-49.5	15.6	0.00e+00	0	56	0	908066816	57	4612
2026-01-04 05:06:31.56	321.18	16.83	-47.7	-49.7	15.4	0.00e+00	0	57	0	910163968	57	4720
2026-01-04 05:06:32.55	321.01	16.76	-47.6	-49.6	15.4	0.00e+00	0	57	0	912261120	57	4690
2026-01-04 05:06:33.54	320.83	16.70	-47.4	-49.3	15.7	0.00e+00	0	57	0	913309696	57	4526
2026-01-04 05:06:34.53	320.65	16.63	-47.2	-49.1	16.0	0.00e+00	0	57	0	915406848	57	4393
2026-01-04 05:06:35.51	320.48	16.56	-47.1	-48.9	16.2	0.00e+00	0	57	0	917504000	57	4293
2026-01-04 05:06:36.51	320.30	16.49	-47.1	-48.8	16.2	0.00e+00	0	56	0	919601152	57	4286
2026-01-04 05:06:37.50	320.13	16.42	-47.1	-48.9	16.2	0.00e+00	0	57	0	921698304	57	4305
2026-01-04 05:06:38.49	319.96	16.35	-47.0	-48.7	16.3	0.00e+00	0	56	0	922746880	57	4240
2026-01-04 05:06:39.48	319.78	16.28	-47.0	-48.8	16.2	0.00e+00	0	57	0	924844032	57	4258
2026-01-04 05:06:40.46	319.61	16.22	-47.2	-49.0	16.1	0.00e+00	0	57	0	926941184	57	4344
2026-01-04 05:06:41.45	319.44	16.15	-47.2	-49.0	16.0	0.00e+00	0	57	0	929038336	57	4371
2026-01-04 05:06:42.44	319.27	16.08	-47.3	-49.1	15.9	0.00e+00	0	57	0	930086912	57	4404
2026-01-04 05:06:43.43	319.10	16.01	-47.3	-49.1	15.9	0.00e+00	0	57	0	932184064	57	4405
2026-01-04 05:06:44.43	318.93	15.94	-47.4	-49.3	15.7	0.00e+00	0	57	0	934281216	57	4528
2026-01-04 05:06:45.42	318.77	15.87	-47.4	-49.4	15.6	0.00e+00	0	57	0	936378368	57	4550
2026-01-04 05:06:46.40	318.60	15.80	-47.3	-49.1	15.9	0.00e+00	0	57	0	937426944	57	4433
2026-01-04 05:06:47.40	318.44	15.73	-47.2	-49.0	15.9	0.00e+00	0	57	0	939524096	57	4383
2026-01-04 05:06:48.39	318.27	15.66	-47.1	-48.9	16.1	0.00e+00	0	57	0	941621248	57	4323
2026-01-04 05:06:49.38	318.11	15.60	-47.1	-48.9	16.1	0.00e+00	0	57	0	943718400	57	4331
2026-01-04 05:06:50.37	317.94	15.53	-47.3	-49.1	15.9	0.00e+00	0	57	0	945815552	57	4411
2026-01-04 05:06:51.36	317.78	15.46	-47.3	-49.1	15.8	0.00e+00	0	57	0	946864128	57	4441
2026-01-04 05:06:52.35	317.62	15.39	-47.0	-48.8	16.2	0.00e+00	0	57	0	948961280	57	4273
2026-01-04 05:06:53.35	317.45	15.32	-46.9	-48.6	16.4	0.00e+00	0	57	0	951058432	57	4180
2026-01-04 05:06:54.33	317.30	15.25	-46.9	-48.7	16.2	0.00e+00	0	57	0	953155584	57	4238
2026-01-04 05:06:55.32	317.14	15.18	-47.1	-48.9	16.1	0.00e+00	0	57	0	954204160	57	4299
2026-01-04 05:06:56.31	316.98	15.11	-47.1	-48.9	16.1	0.00e+00	0	57	0	956301312	57	4323
2026-01-04 05:06:57.29	316.82	15.04	-47.1	-48.9	16.1	0.00e+00	0	57	0	958398464	57	4310
2026-01-04 05:06:58.28	316.66	14.97	-47.3	-49.2	15.8	0.00e+00	0	57	0	960495616	57	4463
2026-01-04 05:06:59.28	316.50	14.90	-47.4	-49.3	15.7	0.00e+00	0	57	0	962592768	57	4504
2026-01-04 05:07:00.27	316.35	14.83	-47.3	-49.1	15.9	0.00e+00	0	57	0	963641344	57	4416
2026-01-04 05:07:01.26	316.19	14.76	-47.0	-48.8	16.2	0.00e+00	0	57	0	965738496	57	4254
2026-01-04 05:07:02.26	316.04	14.69	-47.0	-48.7	16.3	0.00e+00	0	57	0	967835648	57	4210
2026-01-04 05:07:03.25	315.88	14.62	-46.9	-48.7	16.3	0.00e+00	0	57	0	969932800	56	4460
2026-01-04 05:07:04.23	315.73	14.55	-47.0	-48.7	16.3	0.00e+00	0	57	0	970981376	56	4462
2026-01-04 05:07:05.22	315.58	14.48	-47.0	-48.7	16.3	0.00e+00	0	57	0	973078528	56	4468
2026-01-04 05:07:06.21	315.43	14.41	-47.2	-49.1	15.9	0.00e+00	0	57	0	975175680	56	4654
2026-01-04 05:07:07.20	315.28	14.34	-47.5	-49.5	15.5	0.00e+00	0	57	0	977272832	56	4876
2026-01-04 05:07:08.19	315.13	14.27	-47.2	-49.0	15.9	0.00e+00	0	57	0	978321408	56	4647
2026-01-04 05:07:09.19	314.98	14.20	-47.0	-48.8	16.2	0.00e+00	0	57	0	980418560	56	4498
2026-01-04 05:07:10.18	314.83	14.13	-46.9	-48.6	16.3	0.00e+00	0	57	0	982515712	56	4436
2026-01-04 05:07:11.17	314.68	14.07	-46.8	-48.5	16.4	0.00e+00	0	57	0	984612864	56	4385
2026-01-04 05:07:12.16	314.53	14.00	-46.9	-48.7	16.3	0.00e+00	0	57	0	986710016	56	4442
2026-01-04 05:07:13.15	314.39	13.93	-46.9	-48.7	16.3	0.00e+00	0	56	0	987758592	56	4457
2026-01-04 05:07:14.14	314.24	13.86	-47.0	-48.8	16.2	0.00e+00	0	57	0	989855744	56	4505
2026-01-04 05:07:15.13	314.10	13.79	-47.0	-48.8	16.2	0.00e+00	0	57	0	991952896	56	4503
2026-01-04 05:07:16.12	313.95	13.72	-47.0	-48.9	16.1	0.00e+00	0	57	0	994050048	56	4557
2026-01-04 05:07:17.11	313.81	13.65	-47.1	-49.0	15.9	0.00e+00	0	57	0	995098624	56	4617
2026-01-04 05:07:18.10	313.66	13.58	-47.1	-48.9	16.0	0.00e+00	0	57	0	997195776	56	4576
2026-01-04 05:07:19.10	313.52	13.51	-47.3	-49.2	15.7	0.00e+00	0	57	0	999292928	56	4750
2026-01-04 05:07:20.09	313.38	13.44	-47.2	-49.0	15.9	0.00e+00	0	57	0	1001390080	56	4644
2026-01-04 05:07:21.08	313.24	13.37	-47.2	-49.0	15.9	0.00e+00	0	57	0	1003487232	56	4641
2026-01-04 05:07:22.07	313.10	13.30	-47.4	-49.3	15.7	0.00e+00	0	57	0	1004535808	56	4772
2026-01-04 05:07:23.06	312.96	13.23	-47.3	-49.3	15.6	0.00e+00	0	57	0	1006632960	56	4771
2026-01-04 05:07:24.05	312.82	13.16	-47.5	-49.5	15.4	0.00e+00	0	57	0	1008730112	56	4902
2026-01-04 05:07:25.04	312.68	13.09	-47.7	-49.7	15.2	0.00e+00	0	57	0	1010827264	57	4757
2026-01-04 05:07:26.03	312.54	13.02	-47.6	-49.6	15.3	0.00e+00	0	57	0	1011875840	57	4699
2026-01-04 05:07:27.02	312.41	12.95	-47.4	-49.4	15.5	0.00e+00	0	57	0	1013972992	57	4582
2026-01-04 05:07:28.00	312.27	12.88	-47.4	-49.4	15.5	0.00e+00	0	57	0	1016070144	57	4575
2026-01-04 05:07:28.98	312.14	12.82	-47.3	-49.3	15.6	0.00e+00	0	57	0	1018167296	57	4516
2026-01-04 05:07:29.96	312.00	12.75	-47.3	-49.3	15.7	0.00e+00	0	57	0	1019215872	57	4494
2026-01-04 05:07:30.96	311.87	12.68	-47.4	-49.3	15.6	0.00e+00	0	57	0	1021313024	57	4538
2026-01-04 05:07:31.95	311.73	12.61	-47.2	-49.1	15.8	0.00e+00	0	57	0	1023410176	57	4433
2026-01-04 05:07:32.94	311.60	12.54	-47.3	-49.2	15.7	0.00e+00	0	57	0	1025507328	57	4487
2026-01-04 05:07:33.93	311.47	12.47	-47.3	-49.3	15.6	0.00e+00	0	57	0	1026555904	57	4510
2026-01-04 05:07:34.92	311.34	12.40	-47.4	-49.4	15.5	0.00e+00	0	57	0	1028653056	57	4571
2026-01-04 05:07:35.91	311.20	12.33	-47.4	-49.4	15.5	0.00e+00	0	57	0	1030750208	57	4562
2026-01-04 05:07:36.90	311.07	12.26	-47.6	-49.6	15.2	0.00e+00	0	57	0	1032847360	57	4694
2026-01-04 05:07:37.89	310.94	12.19	-47.6	-49.6	15.2	0.00e+00	0	57	0	1034944512	57	4695
2026-01-04 05:07:38.88	310.81	12.13	-47.7	-49.8	15.1	0.00e+00	0	57	0	1035993088	57	4804
2026-01-04 05:07:39.86	310.69	12.06	-47.8	-50.1	14.8	0.00e+00	0	57	0	1038090240	57	4950
2026-01-04 05:07:40.85	310.56	11.99	-47.8	-50.0	14.9	0.00e+00	0	57	0	1040187392	57	4873
2026-01-04 05:07:41.83	310.43	11.92	-48.0	-50.2	14.6	7.00e-07	0	57	0	1042284544	57	5038
2026-01-04 05:07:42.82	310.30	11.85	-47.9	-50.1	14.8	0.00e+00	0	57	0	1043333120	57	4937
2026-01-04 05:07:43.80	310.18	11.79	-47.9	-50.2	14.7	0.00e+00	0	57	0	1045430272	57	4985
2026-01-04 05:07:44.79	310.05	11.72	-47.9	-50.1	14.8	0.00e+00	0	57	0	1047527424	57	4943
2026-01-04 05:07:45.77	309.93	11.65	-47.7	-49.9	14.9	0.00e+00	0	57	0	1049624576	57	4862
2026-01-04 05:07:46.76	309.81	11.58	-47.7	-49.9	15.0	0.00e+00	0	57	0	1050673152	57	4836
2026-01-04 05:07:47.75	309.68	11.51	-47.7	-49.9	15.0	0.00e+00	0	57	0	1052770304	57	4829
2026-01-04 05:07:48.74	309.56	11.44	-47.8	-50.0	14.8	0.00e+00	0	57	0	1054867456	57	4898
2026-01-04 05:07:49.73	309.44	11.38	-47.8	-50.0	14.9	7.00e-07	0	57	0	1056964608	57	4892
2026-01-04 05:07:50.72	309.31	11.31	-47.8	-50.0	14.8	0.00e+00	0	57	0	1059061760	57	4897
2026-01-04 05:07:51.71	309.19	11.24	-47.8	-50.1	14.7	7.00e-07	0	57	0	1060110336	57	4940
2026-01-04 05:07:52.69	309.07	11.17	-48.0	-50.2	14.6	0.00e+00	0	57	0	1062207488	57	5040
2026-01-04 05:07:53.68	308.95	11.10	-47.9	-50.1	14.7	0.00e+00	0	57	0	1064304640	57	4971
2026-01-04 05:07:54.67	308.83	11.04	-47.9	-50.1	14.7	7.00e-07	0	57	0	1066401792	57	4953
2026-01-04 05:07:55.66	308.71	10.97	-47.8	-50.1	14.8	0.00e+00	0	57	0	1067450368	57	4927
2026-01-04 05:07:56.65	308.59	10.90	-47.9	-50.2	14.6	0.00e+00	0	57	0	1069547520	57	4993
2026-01-04 05:07:57.64	308.47	10.83	-48.0	-50.3	14.5	0.00e+00	0	57	0	1071644672	57	5061
2026-01-04 05:07:58.63	308.36	10.77	-48.0	-50.3	14.4	7.00e-07	0	57	0	1073741824	57	5089
2026-01-04 05:07:59.63	308.24	10.70	-48.0	-50.4	14.4	0.00e+00	0	57	0	1074790400	58	4848
2026-01-04 05:08:00.61	308.12	10.63	-48.1	-50.5	14.3	7.00e-07	0	57	0	1076887552	58	4893
2026-01-04 05:08:01.60	308.01	10.56	-48.1	-50.6	14.2	7.00e-07	0	57	0	1078984704	58	4935
2026-01-04 05:08:02.59	307.89	10.50	-48.1	-50.6	14.2	7.00e-07	0	57	0	1081081856	58	4937
2026-01-04 05:08:03.58	307.78	10.43	-48.2	-50.7	14.1	3.80e-06	0	57	0	1083179008	58	5002
2026-01-04 05:08:04.57	307.66	10.36	-48.3	-50.8	14.0	1.50e-06	0	57	0	1084227584	58	5072
2026-01-04 05:08:05.56	307.55	10.29	-48.3	-50.8	14.0	3.80e-06	0	57	0	1086324736	58	5079
2026-01-04 05:08:06.55	307.44	10.23	-48.5	-51.1	13.6	3.80e-06	0	57	0	1088421888	58	5271
2026-01-04 05:08:07.54	307.32	10.16	-48.6	-51.2	13.5	1.14e-05	0	57	0	1090519040	59	5023
2026-01-04 05:08:08.52	307.21	10.09	-48.5	-51.1	13.7	3.80e-06	0	57	0	1091567616	59	4933
2026-01-04 05:08:09.51	307.10	10.03	-48.6	-51.3	13.4	6.10e-06	0	57	0	1093664768	59	5088
2026-01-04 05:08:10.50	306.99	9.96	-48.6	-51.3	13.4	1.44e-05	0	57	0	1095761920	59	5079
2026-01-04 05:08:11.49	306.88	9.89	-48.5	-51.1	13.7	1.14e-05	0	57	0	1097859072	59	4935
2026-01-04 05:08:12.48	306.77	9.83	-48.3	-50.9	13.8	3.80e-06	0	57	0	1098907648	59	4847
2026-01-04 05:08:13.47	306.66	9.76	-48.3	-50.9	13.9	2.20e-06	0	57	0	1101004800	59	4817
2026-01-04 05:08:14.46	306.55	9.69	-48.3	-50.7	14.0	3.00e-06	0	57	0	1103101952	59	4759
2026-01-04 05:08:15.45	306.44	9.63	-48.2	-50.6	14.1	1.50e-06	0	57	0	1105199104	59	4670
2026-01-04 05:08:16.44	306.33	9.56	-48.2	-50.6	14.1	0.00e+00	0	57	0	1106247680	59	4683
2026-01-04 05:08:17.42	306.23	9.49	-48.2	-50.7	14.0	3.80e-06	0	57	0	1108344832	59	4710
2026-01-04 05:08:18.41	306.12	9.43	-48.2	-50.6	14.1	0.00e+00	0	57	0	1110441984	59	4679
2026-01-04 05:08:19.39	306.01	9.36	-48.3	-50.9	13.8	3.00e-06	0	57	0	1112539136	59	4817
2026-01-04 05:08:20.38	305.91	9.30	-48.2	-50.8	13.8	4.50e-06	0	57	0	1114636288	59	4800
2026-01-04 05:08:21.38	305.80	9.23	-48.4	-51.0	13.6	3.80e-06	0	57	0	1115684864	59	4925
2026-01-04 05:08:22.37	305.70	9.16	-48.5	-51.3	13.3	1.06e-05	0	57	0	1117782016	59	5052
2026-01-04 05:08:23.36	305.59	9.10	-48.5	-51.3	13.3	1.60e-05	0	57	0	1119879168	59	5085
2026-01-04 05:08:24.35	305.49	9.03	-48.7	-51.5	13.1	3.12e-05	0	57	0	1121976320	59	5187
2026-01-04 05:08:25.34	305.38	8.97	-48.7	-51.6	13.0	2.36e-05	0	57	0	1123024896	59	5226
2026-01-04 05:08:26.33	305.28	8.90	-48.7	-51.7	12.8	4.73e-05	0	57	0	1125122048	59	5331
2026-01-04 05:08:27.32	305.18	8.84	-48.7	-51.6	12.9	5.34e-05	0	57	0	1127219200	59	5256
2026-01-04 05:08:28.30	305.08	8.77	-48.7	-51.7	12.8	3.66e-05	0	57	0	1129316352	59	5308
2026-01-04 05:08:29.29	304.97	8.71	-48.8	-51.8	12.7	7.01e-05	0	57	0	1130364928	59	5346
2026-01-04 05:08:30.27	304.87	8.64	-48.8	-51.8	12.7	6.02e-05	0	57	0	1132462080	59	5359
2026-01-04 05:08:31.26	304.77	8.58	-48.8	-51.9	12.6	6.94e-05	0	57	0	1134559232	59	5407
2026-01-04 05:08:32.25	304.67	8.51	-48.9	-52.1	12.4	1.06e-04	0	57	0	1136656384	59	5542
2026-01-04 05:08:33.23	304.57	8.45	-48.8	-51.9	12.5	1.39e-04	0	57	0	1138753536	59	5439
2026-01-04 05:08:34.22	304.47	8.38	-49.0	-52.3	12.1	2.06e-04	0	57	0	1139802112	59	5666
2026-01-04 05:08:35.21	304.37	8.32	-49.1	-52.6	11.8	4.19e-04	0	57	0	1141899264	60	5547
2026-01-04 05:08:36.20	304.28	8.25	-49.0	-52.5	11.8	3.88e-04	0	57	0	1143996416	60	5515
2026-01-04 05:08:37.19	304.18	8.19	-49.2	-52.8	11.5	6.62e-04	0	57	0	1146093568	60	5711
2026-01-04 05:08:38.18	304.08	8.12	-49.1	-52.7	11.5	7.65e-04	0	57	0	1147142144	60	5648
2026-01-04 05:08:39.17	303.98	8.06	-49.2	-53.2	11.0	1.30e-03	0	57	0	1149239296	60	5956
2026-01-04 05:08:40.17	303.89	7.99	-49.3	-53.3	10.9	2.01e-03	0	57	0	1151336448	60	6058
2026-01-04 05:08:41.16	303.79	7.93	-49.3	-53.5	10.7	3.03e-03	0	57	0	1153433600	60	6152
2026-01-04 05:08:42.15	303.69	7.87	-49.4	-53.6	10.5	3.63e-03	0	57	0	1154482176	60	6260
2026-01-04 05:08:43.14	303.60	7.80	-49.3	-53.4	10.7	3.68e-03	0	57	0	1156579328	60	6103
2026-01-04 05:08:44.13	303.50	7.74	-49.4	-53.6	10.5	3.16e-03	0	57	0	1158676480	60	6203
2026-01-04 05:08:45.12	303.41	7.67	-49.3	-53.5	10.6	3.59e-03	0	57	0	1160773632	60	6155
2026-01-04 05:08:46.11	303.31	7.61	-49.3	-53.6	10.4	4.25e-03	0	57	0	1162870784	60	6221
2026-01-04 05:08:47.09	303.22	7.55	-49.4	-53.9	10.1	6.24e-03	0	57	0	1163919360	60	6452
2026-01-04 05:08:48.08	303.13	7.48	-49.3	-53.5	10.4	6.34e-03	0	57	0	1166016512	60	6170
2026-01-04 05:08:49.07	303.03	7.42	-49.2	-53.2	10.7	3.14e-03	0	57	0	1168113664	60	5963
2026-01-04 05:08:50.06	302.94	7.36	-49.0	-53.0	10.8	2.57e-03	0	57	0	1170210816	60	5830
2026-01-04 05:08:51.04	302.85	7.29	-49.0	-53.0	10.7	2.70e-03	0	57	0	1171259392	60	5832
2026-01-04 05:08:52.04	302.76	7.23	-49.0	-53.2	10.6	3.02e-03	0	57	0	1173356544	60	5924
2026-01-04 05:08:53.03	302.67	7.17	-49.1	-53.4	10.3	5.06e-03	0	57	0	1175453696	60	6066
2026-01-04 05:08:54.01	302.58	7.10	-49.1	-53.5	10.1	6.86e-03	0	57	0	1177550848	60	6155
2026-01-04 05:08:55.00	302.49	7.04	-49.0	-53.4	10.2	6.00e-03	0	57	0	1179648000	60	6111
2026-01-04 05:08:56.00	302.40	6.98	-49.1	-53.5	10.1	6.62e-03	0	57	0	1180696576	60	6150
2026-01-04 05:08:56.99	302.31	6.91	-49.2	-53.7	9.7	9.40e-03	0	57	0	1182793728	60	6339
2026-01-04 05:08:57.98	302.22	6.85	-49.2	-53.9	9.6	1.04e-02	0	57	0	1184890880	60	6449
2026-01-04 05:08:58.96	302.13	6.79	-49.2	-54.2	9.2	1.46e-02	0	57	0	1186988032	60	6684
2026-01-04 05:08:59.95	302.04	6.73	-49.2	-54.2	9.2	1.97e-02	0	57	0	1188036608	60	6701
2026-01-04 05:09:00.94	301.95	6.66	-49.3	-54.5	8.9	2.73e-02	0	57	0	1190133760	60	6885
2026-01-04 05:09:01.92	301.87	6.60	-49.3	-54.5	8.7	3.02e-02	0	57	0	1192230912	60	6923
2026-01-04 05:09:02.91	301.78	6.54	-49.4	-54.9	8.3	4.20e-02	0	57	0	1194328064	60	7272
2026-01-04 05:09:03.91	301.69	6.48	-49.3	-54.8	8.4	4.93e-02	0	57	0	1195376640	60	7177
2026-01-04 05:09:04.89	301.61	6.41	-49.4	-55.3	7.8	6.85e-02	0	57	0	1197473792	60	7567
2026-01-04 05:09:05.88	301.52	6.35	-49.4	-55.3	7.8	8.19e-02	0	57	0	1199570944	60	7619
2026-01-04 05:09:06.87	301.43	6.29	-49.4	-55.5	7.6	8.18e-02	0	57	0	1201668096	60	7720
2026-01-04 05:09:07.87	301.35	6.23	-49.3	-55.4	7.6	9.58e-02	0	57	0	1202716672	60	7676
2026-01-04 05:09:08.86	301.26	6.17	-49.4	-55.7	7.3	1.13e-01	0	57	0	1204813824	60	7913
2026-01-04 05:09:09.84	301.18	6.10	-49.3	-55.5	7.4	1.19e-01	0	57	0	1206910976	60	7734
2026-01-04 05:09:10.83	301.09	6.04	-49.3	-55.9	7.0	1.29e-01	0	57	0	1209008128	60	8114
2026-01-04 05:09:11.82	301.01	5.98	-49.5	-56.2	6.7	1.98e-01	0	57	0	1211105280	60	8439
2026-01-04 05:09:12.81	300.93	5.92	-49.4	-56.3	6.6	2.05e-01	0	57	0	1212153856	60	8518
2026-01-04 05:09:13.80	300.84	5.86	-49.4	-56.5	6.4	2.31e-01	0	57	0	1214251008	60	8742
2026-01-04 05:09:14.78	300.76	5.80	-49.4	-56.7	6.1	2.83e-01	0	57	0	1216348160	60	8913
2026-01-04 05:09:15.77	300.68	5.74	-49.4	-56.7	6.1	3.05e-01	0	57	0	1218445312	60	8933
2026-01-04 05:09:16.76	300.60	5.67	-49.5	-57.4	5.6	3.86e-01	0	57	0	1219493888	60	9626
2026-01-04 05:09:17.74	300.52	5.61	-49.4	-57.1	5.8	4.45e-01	0	57	0	1221591040	60	9282
2026-01-04 05:09:18.74	300.43	5.55	-49.3	-56.9	5.9	4.06e-01	0	57	0	1223688192	60	9146
2026-01-04 05:09:19.73	300.35	5.49	-49.3	-57.0	5.7	3.81e-01	0	57	0	1225785344	60	9261
2026-01-04 05:09:20.72	300.27	5.43	-49.2	-57.0	5.7	3.94e-01	0	57	0	1226833920	60	9240
2026-01-04 05:09:21.71	300.19	5.37	-49.3	-57.7	5.2	5.03e-01	0	57	0	1228931072	60	10054
2026-01-04 05:09:22.70	300.11	5.31	-49.3	-57.9	5.1	6.55e-01	0	57	0	1231028224	60	10246
