passes_logs/2026/01/04/R3.0SM8_Murmansk_STILSPACE/R3.0SM8_Murmansk_STILSPACE__20260104_095453_AQUA_rec.log

#Pass ID: 20260104_095453_AQUA
#Satellite: AQUA
#Configuration: AQUA
#almurnet v.1.7.20240730
#Start time: 2026-01-04 09:54:54

#Version: 2.2.20231116
#Station: R3.0SM8_Murmansk_STILSPACE
#Location: 33.092731 lon 68.902999 lat
#TLE: 1 27424U 02022A   25365.92641127  .00002078  00000+0  42628-3 0  9999
#TLE: 2 27424  98.4058 327.1196 0001962  94.7781 340.6230 14.61783896258835

#Time	Az	El	Level	Level2	SNR	BER	BlckErr	Temp	State	Recorded	gain1	gain2
2026-01-04 09:54:54.09	118.82	3.02	-54.3	-74.3	3.8	7.45e-01	0	47	0	0	71	36545
2026-01-04 09:54:55.09	118.78	3.08	-54.2	-74.1	3.8	7.43e-01	0	47	104	0	70	37990
2026-01-04 09:54:56.08	118.74	3.15	-54.1	-74.0	3.8	7.46e-01	0	47	104	0	70	37771
2026-01-04 09:54:57.07	118.70	3.22	-54.1	-74.0	3.8	7.45e-01	0	47	104	0	70	37507
2026-01-04 09:54:58.06	118.66	3.28	-54.0	-73.9	3.8	7.47e-01	0	47	104	0	70	36993
2026-01-04 09:54:59.06	118.62	3.35	-53.9	-73.8	3.8	7.43e-01	0	47	104	0	70	36592
2026-01-04 09:55:00.05	118.57	3.42	-53.7	-73.3	3.8	7.46e-01	0	47	104	0	70	34711
2026-01-04 09:55:01.04	118.53	3.49	-53.5	-72.6	3.8	7.43e-01	0	47	104	0	70	32063
2026-01-04 09:55:02.03	118.49	3.55	-53.4	-71.1	3.9	7.46e-01	0	47	104	0	70	26863
2026-01-04 09:55:03.01	118.45	3.62	-53.4	-70.8	3.9	7.41e-01	0	48	104	0	70	25947
2026-01-04 09:55:04.01	118.40	3.69	-53.4	-70.8	4.0	7.45e-01	0	47	104	0	70	26142
2026-01-04 09:55:05.00	118.36	3.76	-53.4	-70.4	4.1	7.40e-01	0	48	104	0	70	24745
2026-01-04 09:55:06.00	118.32	3.83	-53.4	-70.8	4.0	7.45e-01	0	48	104	0	70	25860
2026-01-04 09:55:06.98	118.27	3.89	-53.4	-70.3	3.9	7.39e-01	0	48	104	0	70	24669
2026-01-04 09:55:07.98	118.23	3.96	-53.4	-69.8	4.2	7.34e-01	0	48	104	0	70	23293
2026-01-04 09:55:08.97	118.18	4.03	-53.3	-69.5	3.9	7.28e-01	0	48	104	0	70	22405
2026-01-04 09:55:09.96	118.14	4.10	-53.3	-68.9	4.4	7.25e-01	0	48	104	0	70	20914
2026-01-04 09:55:10.96	118.09	4.17	-53.3	-68.5	4.2	7.21e-01	0	48	104	0	70	19984
2026-01-04 09:55:11.95	118.05	4.24	-53.3	-67.9	4.9	7.13e-01	0	48	104	0	70	18579
2026-01-04 09:55:12.94	118.00	4.31	-53.3	-67.2	5.3	7.04e-01	31	48	0	0	70	17186
2026-01-04 09:55:13.92	117.96	4.38	-53.2	-66.6	5.7	6.92e-01	0	48	0	0	70	16069
2026-01-04 09:55:14.91	117.91	4.45	-53.2	-65.9	6.2	6.81e-01	92	48	0	1572864	70	14842
2026-01-04 09:55:15.90	117.87	4.52	-53.2	-65.3	6.7	6.67e-01	93	48	0	3145728	69	14677
2026-01-04 09:55:16.89	117.82	4.59	-53.1	-64.9	7.1	6.63e-01	91	49	0	5242880	69	13893
2026-01-04 09:55:17.87	117.77	4.66	-53.1	-64.0	8.0	6.47e-01	87	48	0	6815744	69	12621
2026-01-04 09:55:18.87	117.73	4.73	-53.0	-63.3	8.7	6.37e-01	2	49	0	8912896	69	11566
2026-01-04 09:55:19.85	117.68	4.80	-52.9	-62.8	9.1	6.32e-01	0	49	0	10485760	69	10998
2026-01-04 09:55:20.84	117.63	4.87	-52.9	-62.3	9.7	6.27e-01	0	49	0	12582912	69	10340
2026-01-04 09:55:21.83	117.59	4.94	-52.8	-61.7	10.4	6.22e-01	0	49	0	14155776	69	9618
2026-01-04 09:55:22.82	117.54	5.01	-52.7	-61.0	11.1	6.15e-01	0	49	0	16252928	69	8933
2026-01-04 09:55:23.80	117.49	5.08	-52.6	-60.3	11.8	6.11e-01	0	49	0	17825792	68	8724
2026-01-04 09:55:24.78	117.44	5.15	-52.6	-60.5	11.7	6.12e-01	0	49	0	19922944	68	8902
2026-01-04 09:55:25.77	117.39	5.22	-52.6	-60.8	11.4	6.17e-01	0	49	0	21495808	68	9191
2026-01-04 09:55:26.76	117.35	5.30	-52.6	-60.3	11.8	6.14e-01	0	49	0	23592960	68	8731
2026-01-04 09:55:27.75	117.30	5.37	-52.4	-59.7	12.5	6.13e-01	0	49	0	25690112	68	8125
2026-01-04 09:55:28.73	117.25	5.44	-52.3	-59.3	12.9	6.09e-01	0	49	0	27262976	68	7737
2026-01-04 09:55:29.72	117.20	5.51	-52.3	-58.9	13.3	6.10e-01	0	49	0	28835840	68	7394
2026-01-04 09:55:30.70	117.15	5.58	-52.2	-58.6	13.6	6.09e-01	0	49	0	30932992	68	7165
2026-01-04 09:55:31.69	117.10	5.66	-52.0	-58.2	14.0	6.06e-01	0	49	0	33030144	67	7264
2026-01-04 09:55:32.67	117.05	5.73	-52.0	-58.1	14.1	6.07e-01	0	49	0	34603008	67	7148
2026-01-04 09:55:33.66	117.00	5.80	-52.0	-58.1	14.2	6.09e-01	0	49	0	36700160	67	7136
2026-01-04 09:55:34.66	116.94	5.88	-52.1	-58.3	13.9	6.06e-01	0	50	0	38273024	67	7363
2026-01-04 09:55:35.65	116.89	5.95	-51.8	-57.5	14.8	6.06e-01	0	50	0	40370176	67	6649
2026-01-04 09:55:36.63	116.84	6.02	-51.5	-56.3	15.9	6.08e-01	0	50	0	41943040	66	6180
2026-01-04 09:55:37.62	116.79	6.10	-51.1	-55.5	16.7	6.06e-01	0	50	0	44040192	65	5984
2026-01-04 09:55:38.61	116.74	6.17	-50.9	-55.0	17.2	6.06e-01	0	50	0	45613056	65	5611
2026-01-04 09:55:39.60	116.68	6.25	-50.6	-54.4	17.9	6.04e-01	0	50	0	47710208	64	5543
2026-01-04 09:55:40.59	116.63	6.32	-50.3	-53.7	18.5	6.05e-01	0	50	0	49283072	64	5128
2026-01-04 09:55:41.58	116.58	6.40	-50.1	-53.3	19.0	6.06e-01	0	50	0	51380224	63	5177
2026-01-04 09:55:42.57	116.52	6.47	-49.7	-52.7	19.7	6.04e-01	0	50	0	52953088	63	4815
2026-01-04 09:55:43.56	116.47	6.55	-49.6	-52.4	19.9	6.06e-01	0	50	0	55050240	62	4950
2026-01-04 09:55:44.55	116.41	6.62	-49.3	-51.9	20.3	6.06e-01	0	50	0	57147392	62	4692
2026-01-04 09:55:45.54	116.36	6.70	-49.2	-51.8	20.5	6.07e-01	0	50	0	58720256	62	4604
2026-01-04 09:55:46.53	116.31	6.78	-49.0	-51.4	20.8	6.08e-01	0	50	0	60817408	61	4705
2026-01-04 09:55:47.50	116.25	6.85	-49.0	-51.4	20.8	6.06e-01	0	50	0	62390272	61	4682
2026-01-04 09:55:48.49	116.20	6.93	-49.0	-51.4	20.9	6.06e-01	0	50	0	64487424	61	4696
2026-01-04 09:55:49.48	116.14	7.01	-48.9	-51.3	21.0	6.06e-01	0	50	0	66060288	61	4611
2026-01-04 09:55:50.47	116.08	7.08	-48.7	-51.0	21.3	6.05e-01	0	50	0	68157440	61	4477
2026-01-04 09:55:51.46	116.03	7.16	-48.9	-51.3	21.1	6.08e-01	0	50	0	69730304	61	4611
2026-01-04 09:55:52.45	115.97	7.24	-48.9	-51.2	21.2	6.08e-01	0	50	0	71827456	61	4585
2026-01-04 09:55:53.44	115.91	7.32	-48.9	-51.2	21.1	6.09e-01	0	50	0	73400320	61	4592
2026-01-04 09:55:54.43	115.85	7.39	-48.9	-51.2	21.2	6.05e-01	0	50	0	75497472	61	4574
2026-01-04 09:55:55.42	115.80	7.47	-49.0	-51.4	21.0	6.07e-01	0	51	0	77070336	61	4683
2026-01-04 09:55:56.41	115.74	7.55	-49.0	-51.4	21.0	6.07e-01	0	50	0	79167488	61	4688
2026-01-04 09:55:57.40	115.68	7.63	-48.9	-51.3	21.1	6.07e-01	0	51	0	81264640	61	4604
2026-01-04 09:55:58.39	115.62	7.71	-49.0	-51.3	21.1	6.08e-01	0	50	0	82837504	61	4623
2026-01-04 09:55:59.37	115.56	7.79	-48.9	-51.3	21.1	6.07e-01	0	50	0	84934656	61	4599
2026-01-04 09:56:00.35	115.50	7.87	-49.0	-51.3	21.1	6.06e-01	0	51	0	86507520	61	4627
2026-01-04 09:56:01.34	115.44	7.95	-49.0	-51.4	21.1	6.05e-01	0	51	0	88604672	61	4684
2026-01-04 09:56:02.33	115.38	8.03	-49.1	-51.4	21.0	6.07e-01	0	51	0	90177536	61	4699
2026-01-04 09:56:03.32	115.32	8.11	-48.9	-51.2	21.2	6.06e-01	0	51	0	92274688	61	4575
2026-01-04 09:56:04.30	115.26	8.19	-48.7	-50.9	21.5	6.06e-01	0	51	0	93847552	61	4426
2026-01-04 09:56:05.30	115.20	8.27	-48.7	-50.9	21.5	6.08e-01	0	51	0	95944704	61	4438
2026-01-04 09:56:06.29	115.13	8.35	-48.7	-51.0	21.6	6.06e-01	0	51	0	97517568	61	4442
2026-01-04 09:56:07.27	115.07	8.43	-48.8	-51.1	21.4	6.08e-01	0	51	0	99614720	61	4504
2026-01-04 09:56:08.26	115.01	8.51	-48.8	-51.0	21.4	6.06e-01	0	51	0	101187584	61	4493
2026-01-04 09:56:09.25	114.94	8.59	-48.8	-51.1	21.4	6.05e-01	0	51	0	103284736	61	4502
2026-01-04 09:56:10.23	114.88	8.67	-49.0	-51.3	21.2	6.07e-01	0	51	0	104857600	61	4633
2026-01-04 09:56:11.22	114.82	8.76	-48.8	-51.1	21.5	6.05e-01	0	51	0	106954752	61	4498
2026-01-04 09:56:12.21	114.75	8.84	-48.8	-51.0	21.5	6.07e-01	0	51	0	108527616	61	4468
2026-01-04 09:56:13.20	114.69	8.92	-48.8	-51.0	21.5	6.08e-01	0	51	0	110624768	61	4485
2026-01-04 09:56:14.19	114.62	9.01	-48.9	-51.2	21.4	6.04e-01	0	51	0	112721920	61	4563
2026-01-04 09:56:15.18	114.56	9.09	-49.2	-51.6	21.0	6.05e-01	0	51	0	114294784	61	4768
2026-01-04 09:56:16.17	114.49	9.17	-48.9	-51.2	21.4	6.08e-01	0	51	0	116391936	61	4555
2026-01-04 09:56:17.16	114.42	9.26	-48.7	-50.9	21.7	6.08e-01	0	51	0	117964800	61	4410
2026-01-04 09:56:18.15	114.36	9.34	-48.6	-50.7	21.9	6.05e-01	0	51	0	120061952	60	4546
2026-01-04 09:56:19.13	114.29	9.42	-48.6	-50.8	21.8	6.06e-01	0	51	0	121634816	60	4613
2026-01-04 09:56:20.11	114.22	9.51	-48.7	-50.8	21.7	6.07e-01	0	52	0	123731968	60	4639
2026-01-04 09:56:21.11	114.15	9.59	-48.8	-51.0	21.5	6.05e-01	0	51	0	125304832	60	4757
2026-01-04 09:56:22.09	114.08	9.68	-48.6	-50.7	21.9	6.05e-01	0	52	0	127401984	60	4562
2026-01-04 09:56:23.08	114.01	9.77	-48.5	-50.6	22.0	6.07e-01	0	52	0	128974848	60	4497
2026-01-04 09:56:24.07	113.94	9.85	-48.3	-50.3	22.3	6.07e-01	0	52	0	131072000	60	4367
2026-01-04 09:56:25.06	113.87	9.94	-48.4	-50.4	22.1	6.06e-01	0	51	0	132644864	60	4423
2026-01-04 09:56:26.05	113.80	10.02	-48.3	-50.3	22.2	6.05e-01	0	52	0	134742016	60	4379
2026-01-04 09:56:27.05	113.73	10.11	-48.4	-50.4	22.1	6.05e-01	0	52	0	136839168	60	4439
2026-01-04 09:56:28.03	113.66	10.20	-48.3	-50.3	22.3	6.04e-01	0	52	0	138412032	60	4382
2026-01-04 09:56:29.01	113.59	10.29	-48.3	-50.3	22.3	6.04e-01	0	52	0	140509184	60	4352
2026-01-04 09:56:29.99	113.52	10.37	-48.3	-50.3	22.3	6.06e-01	0	52	0	142082048	60	4349
2026-01-04 09:56:30.99	113.44	10.46	-48.4	-50.4	22.2	6.07e-01	0	52	0	144179200	60	4396
2026-01-04 09:56:31.98	113.37	10.55	-48.5	-50.5	22.1	6.08e-01	0	52	0	145752064	60	4492
2026-01-04 09:56:32.97	113.29	10.64	-48.4	-50.5	22.2	6.06e-01	0	52	0	147849216	60	4444
2026-01-04 09:56:33.97	113.22	10.73	-48.5	-50.5	22.1	6.06e-01	0	52	0	149422080	60	4488
2026-01-04 09:56:34.96	113.14	10.82	-48.5	-50.6	22.1	6.04e-01	0	52	0	151519232	60	4515
2026-01-04 09:56:35.94	113.07	10.91	-48.7	-50.8	21.9	6.05e-01	0	52	0	153092096	60	4607
2026-01-04 09:56:36.93	112.99	11.00	-48.6	-50.6	22.0	6.07e-01	0	52	0	155189248	60	4527
2026-01-04 09:56:37.92	112.91	11.09	-48.6	-50.6	22.0	6.05e-01	0	52	0	156762112	60	4529
2026-01-04 09:56:38.92	112.84	11.18	-48.7	-50.8	21.9	6.07e-01	0	52	0	158859264	60	4630
2026-01-04 09:56:39.90	112.76	11.27	-48.5	-50.6	22.1	6.10e-01	0	52	0	160956416	60	4507
2026-01-04 09:56:40.89	112.68	11.36	-48.7	-50.8	21.8	6.07e-01	0	52	0	162529280	60	4644
2026-01-04 09:56:41.87	112.60	11.45	-48.6	-50.6	22.1	6.08e-01	0	52	0	164626432	60	4519
2026-01-04 09:56:42.87	112.52	11.54	-48.3	-50.2	22.4	6.05e-01	0	52	0	166199296	60	4340
2026-01-04 09:56:43.85	112.44	11.63	-48.3	-50.2	22.5	6.06e-01	0	52	0	168296448	60	4312
2026-01-04 09:56:44.84	112.36	11.73	-48.3	-50.2	22.5	6.06e-01	0	52	0	169869312	60	4318
2026-01-04 09:56:45.83	112.28	11.82	-48.4	-50.3	22.3	6.08e-01	0	52	0	171966464	60	4387
2026-01-04 09:56:46.81	112.20	11.91	-48.5	-50.5	22.2	6.08e-01	0	52	0	173539328	60	4454
2026-01-04 09:56:47.80	112.12	12.01	-48.7	-50.8	21.9	6.06e-01	0	52	0	175636480	60	4614
2026-01-04 09:56:48.79	112.03	12.10	-48.6	-50.6	22.1	6.06e-01	0	52	0	177209344	60	4523
2026-01-04 09:56:49.78	111.95	12.19	-48.4	-50.4	22.3	6.07e-01	0	52	0	179306496	60	4410
2026-01-04 09:56:50.78	111.86	12.29	-48.2	-50.1	22.6	6.07e-01	0	52	0	180879360	60	4279
2026-01-04 09:56:51.77	111.78	12.38	-48.5	-50.4	22.6	6.06e-01	0	52	0	182976512	59	4695
2026-01-04 09:56:52.76	111.69	12.48	-48.5	-50.5	22.6	6.06e-01	0	52	0	185073664	59	4707
2026-01-04 09:56:53.75	111.61	12.58	-48.7	-50.8	22.3	6.04e-01	0	52	0	186646528	59	4871
2026-01-04 09:56:54.73	111.52	12.67	-48.6	-50.6	22.4	6.05e-01	0	52	0	188219392	59	4783
2026-01-04 09:56:55.72	111.43	12.77	-48.4	-50.3	22.7	6.05e-01	0	52	0	190316544	59	4622
2026-01-04 09:56:56.71	111.35	12.86	-48.4	-50.2	22.8	6.07e-01	0	53	0	192413696	59	4575
2026-01-04 09:56:57.71	111.26	12.96	-48.4	-50.2	22.9	6.05e-01	0	53	0	193986560	59	4582
2026-01-04 09:56:58.69	111.17	13.06	-48.5	-50.4	22.7	6.06e-01	0	53	0	196083712	59	4681
2026-01-04 09:56:59.68	111.08	13.16	-48.5	-50.5	22.6	6.06e-01	0	53	0	197656576	59	4706
2026-01-04 09:57:00.67	110.99	13.26	-48.5	-50.4	22.7	6.03e-01	0	53	0	199753728	59	4656
2026-01-04 09:57:01.65	110.90	13.35	-48.6	-50.5	22.6	6.06e-01	0	53	0	201326592	59	4758
2026-01-04 09:57:02.64	110.81	13.45	-48.6	-50.5	22.6	6.08e-01	0	53	0	203423744	59	4721
2026-01-04 09:57:03.63	110.71	13.55	-48.6	-50.5	22.5	6.04e-01	0	53	0	204996608	59	4750
2026-01-04 09:57:04.62	110.62	13.65	-48.8	-50.8	22.3	6.06e-01	0	53	0	207093760	59	4891
2026-01-04 09:57:05.60	110.53	13.75	-48.8	-50.8	22.3	6.06e-01	0	53	0	208666624	59	4871
2026-01-04 09:57:06.59	110.43	13.85	-48.8	-50.8	22.3	6.06e-01	0	53	0	210763776	59	4902
2026-01-04 09:57:07.58	110.34	13.95	-48.4	-50.3	22.4	6.07e-01	0	53	0	212336640	60	4385
2026-01-04 09:57:08.57	110.24	14.05	-48.2	-50.1	22.7	6.05e-01	0	53	0	214433792	60	4261
2026-01-04 09:57:09.56	110.14	14.15	-48.5	-50.4	22.7	6.06e-01	0	53	0	216530944	59	4697
2026-01-04 09:57:10.55	110.05	14.26	-48.5	-50.4	22.7	6.07e-01	0	53	0	218103808	59	4695
2026-01-04 09:57:11.54	109.95	14.36	-48.6	-50.5	22.6	6.05e-01	0	53	0	220200960	59	4738
2026-01-04 09:57:12.53	109.85	14.46	-48.7	-50.7	22.4	6.06e-01	0	53	0	221773824	59	4842
2026-01-04 09:57:13.52	109.75	14.56	-48.7	-50.7	22.4	6.06e-01	0	53	0	223870976	59	4857
2026-01-04 09:57:14.51	109.65	14.67	-48.8	-50.8	22.4	6.04e-01	0	53	0	225443840	59	4876
2026-01-04 09:57:15.50	109.55	14.77	-48.6	-50.5	22.3	6.07e-01	0	53	0	227540992	60	4493
2026-01-04 09:57:16.49	109.44	14.88	-48.8	-50.9	22.0	6.06e-01	0	53	0	229113856	60	4681
2026-01-04 09:57:17.48	109.34	14.98	-48.8	-51.0	21.8	6.07e-01	0	53	0	231211008	60	4707
2026-01-04 09:57:18.47	109.24	15.09	-48.8	-50.8	22.0	6.06e-01	0	53	0	232783872	60	4649
2026-01-04 09:57:19.45	109.13	15.19	-48.7	-50.8	22.0	6.07e-01	0	53	0	234881024	60	4608
2026-01-04 09:57:20.45	109.03	15.30	-48.6	-50.6	22.2	6.06e-01	0	53	0	236978176	60	4515
2026-01-04 09:57:21.44	108.92	15.41	-48.6	-50.6	22.2	6.04e-01	0	53	0	238551040	60	4525
2026-01-04 09:57:22.43	108.81	15.51	-48.6	-50.6	22.3	6.08e-01	0	53	0	240648192	60	4506
2026-01-04 09:57:23.42	108.71	15.62	-48.6	-50.6	22.2	6.07e-01	0	53	0	242221056	60	4513
2026-01-04 09:57:24.41	108.60	15.73	-48.8	-50.9	22.0	6.07e-01	0	53	0	244318208	60	4657
2026-01-04 09:57:25.40	108.49	15.84	-48.9	-51.0	21.9	6.05e-01	0	53	0	245891072	60	4715
2026-01-04 09:57:26.39	108.38	15.94	-48.6	-50.6	22.3	6.04e-01	0	53	0	247988224	60	4507
2026-01-04 09:57:27.38	108.27	16.05	-48.4	-50.3	22.6	6.07e-01	0	53	0	249561088	60	4346
2026-01-04 09:57:28.37	108.15	16.16	-48.2	-50.1	22.7	6.04e-01	0	53	0	251658240	60	4255
2026-01-04 09:57:29.35	108.04	16.27	-48.5	-50.4	22.8	6.04e-01	0	53	0	253231104	59	4680
2026-01-04 09:57:30.33	107.93	16.38	-48.6	-50.6	22.6	6.07e-01	0	53	0	255328256	59	4767
2026-01-04 09:57:31.32	107.81	16.49	-48.7	-50.7	22.5	6.07e-01	0	53	0	256901120	59	4826
2026-01-04 09:57:32.31	107.70	16.60	-48.7	-50.7	22.5	6.05e-01	0	53	0	258998272	59	4830
2026-01-04 09:57:33.30	107.58	16.71	-48.8	-50.8	22.4	6.05e-01	0	53	0	261095424	59	4909
2026-01-04 09:57:34.29	107.46	16.83	-48.5	-50.4	22.4	6.07e-01	0	54	0	262668288	60	4440
2026-01-04 09:57:35.28	107.35	16.94	-48.3	-50.2	22.6	6.06e-01	0	53	0	264241152	60	4328
2026-01-04 09:57:36.27	107.23	17.05	-48.3	-50.1	22.7	6.06e-01	0	53	0	266338304	60	4287
2026-01-04 09:57:37.27	107.10	17.17	-48.4	-50.3	22.6	6.07e-01	0	53	0	268435456	60	4347
2026-01-04 09:57:38.25	106.98	17.28	-48.5	-50.5	22.4	6.08e-01	0	53	0	270008320	60	4446
2026-01-04 09:57:39.25	106.86	17.39	-48.3	-50.1	22.7	6.06e-01	0	54	0	272105472	60	4266
2026-01-04 09:57:40.24	106.74	17.51	-48.5	-50.3	22.9	6.07e-01	0	54	0	273678336	59	4634
2026-01-04 09:57:41.23	106.61	17.63	-48.6	-50.5	22.7	6.06e-01	0	54	0	275775488	59	4735
2026-01-04 09:57:42.22	106.49	17.74	-48.4	-50.2	23.0	6.06e-01	0	53	0	277348352	59	4546
2026-01-04 09:57:43.21	106.36	17.86	-48.2	-50.0	23.2	6.05e-01	0	54	0	279445504	59	4457
2026-01-04 09:57:44.20	106.23	17.97	-48.1	-49.9	23.3	6.06e-01	0	54	0	281542656	59	4396
2026-01-04 09:57:45.19	106.10	18.09	-48.2	-50.0	23.2	6.04e-01	0	54	0	283115520	59	4474
2026-01-04 09:57:46.18	105.97	18.21	-48.4	-50.2	22.9	6.06e-01	0	54	0	284688384	59	4597
2026-01-04 09:57:47.17	105.84	18.33	-48.2	-50.0	23.2	6.07e-01	0	54	0	286785536	59	4472
2026-01-04 09:57:48.16	105.71	18.45	-48.1	-49.9	23.3	6.04e-01	0	54	0	288882688	59	4404
2026-01-04 09:57:49.15	105.57	18.56	-48.2	-49.9	23.3	6.06e-01	0	54	0	290455552	59	4428
2026-01-04 09:57:50.15	105.44	18.68	-48.2	-50.0	23.2	6.05e-01	0	54	0	292552704	59	4445
2026-01-04 09:57:51.14	105.30	18.80	-48.6	-60.0	3.9	7.40e-01	0	54	104	292552704	59	14082
2026-01-04 09:57:52.13	105.17	18.93	-48.8	-60.4	3.8	7.48e-01	0	54	104	292552704	59	14782
2026-01-04 09:57:53.12	105.03	19.05	-48.7	-60.3	3.8	7.48e-01	0	54	104	292552704	60	13874
2026-01-04 09:57:54.10	104.89	19.17	-49.0	-60.7	3.9	7.47e-01	0	54	104	292552704	60	14427
2026-01-04 09:57:55.09	104.75	19.29	-49.3	-61.2	3.8	7.45e-01	0	54	104	292552704	60	15274
2026-01-04 09:57:56.08	104.61	19.41	-49.7	-61.5	3.9	7.42e-01	0	54	104	292552704	61	15051
2026-01-04 09:57:57.08	104.46	19.53	-50.0	-62.2	3.8	7.46e-01	0	54	104	292552704	62	15292
2026-01-04 09:57:58.07	104.32	19.66	-50.5	-62.8	3.9	7.39e-01	0	54	104	292552704	63	15507
2026-01-04 09:57:59.05	104.18	19.78	-50.6	-63.1	3.8	7.43e-01	0	54	104	292552704	63	16082
2026-01-04 09:58:00.04	104.03	19.90	-50.8	-63.3	3.9	7.40e-01	0	54	104	292552704	63	16495
2026-01-04 09:58:01.04	103.88	20.03	-51.0	-63.8	3.8	7.47e-01	0	54	104	292552704	64	16493
2026-01-04 09:58:02.03	103.73	20.16	-51.3	-64.2	3.9	7.47e-01	0	54	104	292552704	64	17195
2026-01-04 09:58:03.03	103.58	20.28	-51.6	-65.0	3.8	7.45e-01	0	54	104	292552704	65	17761
2026-01-04 09:58:04.01	103.43	20.41	-52.0	-65.7	3.8	7.44e-01	0	54	104	292552704	66	18289
2026-01-04 09:58:05.00	103.28	20.53	-52.3	-66.6	3.8	7.43e-01	0	54	104	292552704	66	20088
2026-01-04 09:58:05.99	103.12	20.66	-52.7	-67.4	3.8	7.47e-01	0	54	104	292552704	67	20805
2026-01-04 09:58:06.98	102.97	20.79	-53.0	-68.2	3.8	7.45e-01	0	54	104	292552704	68	21565
2026-01-04 09:58:07.96	102.81	20.92	-53.2	-68.8	4.0	7.39e-01	0	54	104	292552704	68	23301
2026-01-04 09:58:08.95	102.65	21.05	-53.4	-69.6	3.8	7.44e-01	0	54	104	292552704	68	25451
2026-01-04 09:58:09.94	102.49	21.17	-53.5	-70.1	3.8	7.44e-01	0	54	104	292552704	69	25518
2026-01-04 09:58:10.92	102.33	21.30	-53.5	-70.3	3.8	7.47e-01	0	54	104	292552704	69	25928
2026-01-04 09:58:11.91	102.17	21.43	-53.6	-70.6	3.8	7.47e-01	0	54	104	292552704	69	26811
2026-01-04 09:58:12.90	102.01	21.56	-53.6	-70.4	3.8	7.43e-01	0	54	104	292552704	69	26287
2026-01-04 09:58:13.89	101.84	21.69	-53.5	-70.1	3.8	7.45e-01	0	54	104	292552704	69	25404
2026-01-04 09:58:14.88	101.67	21.83	-53.5	-69.9	3.8	7.47e-01	0	54	104	292552704	69	24864
2026-01-04 09:58:15.88	101.50	21.96	-53.4	-69.8	3.8	7.44e-01	0	54	104	292552704	69	24680
2026-01-04 09:58:16.87	101.33	22.09	-53.6	-70.4	3.8	7.46e-01	0	54	104	292552704	69	26415
2026-01-04 09:58:17.86	101.16	22.23	-53.7	-71.0	3.8	7.44e-01	0	54	104	292552704	69	28098
2026-01-04 09:58:18.85	100.99	22.36	-53.8	-71.6	3.8	7.45e-01	0	54	104	292552704	69	30165
2026-01-04 09:58:19.84	100.81	22.49	-53.9	-72.1	3.8	7.47e-01	0	54	104	292552704	70	30305
2026-01-04 09:58:20.83	100.63	22.63	-54.0	-72.8	3.8	7.46e-01	0	55	104	292552704	70	32628
2026-01-04 09:58:21.82	100.45	22.76	-54.0	-72.5	3.8	7.44e-01	0	54	104	292552704	70	31631
2026-01-04 09:58:22.81	100.27	22.90	-53.9	-71.9	3.8	7.45e-01	0	54	104	292552704	70	29666
2026-01-04 09:58:23.81	100.09	23.04	-53.9	-71.9	3.8	7.47e-01	0	54	104	292552704	70	29382
2026-01-04 09:58:24.80	99.91	23.17	-53.9	-72.0	3.8	7.48e-01	0	55	104	292552704	70	29906
2026-01-04 09:58:25.78	99.72	23.31	-53.9	-72.2	3.8	7.45e-01	0	55	104	292552704	70	30419
2026-01-04 09:58:26.78	99.54	23.45	-54.0	-72.4	3.8	7.44e-01	0	55	104	292552704	70	31422
2026-01-04 09:58:27.77	99.35	23.58	-54.0	-72.7	3.8	7.46e-01	0	55	104	292552704	70	32417
2026-01-04 09:58:28.74	99.16	23.72	-54.1	-73.2	3.8	7.46e-01	0	55	104	292552704	70	34118
2026-01-04 09:58:29.73	98.97	23.86	-54.1	-72.9	3.8	7.46e-01	0	55	104	292552704	70	33280
2026-01-04 09:58:30.72	98.77	24.00	-54.0	-72.3	3.8	7.42e-01	0	55	104	292552704	70	30853
2026-01-04 09:58:31.71	98.58	24.14	-53.8	-71.1	3.8	7.43e-01	0	54	104	292552704	70	26957
2026-01-04 09:58:32.69	98.38	24.28	-53.4	-69.6	3.8	7.43e-01	0	55	104	292552704	70	22633
2026-01-04 09:58:33.68	98.18	24.42	-53.0	-68.0	3.8	7.43e-01	0	55	104	292552704	69	20066
2026-01-04 09:58:34.67	97.98	24.56	-52.4	-66.6	3.8	7.48e-01	0	55	104	292552704	68	17918
2026-01-04 09:58:35.66	97.78	24.70	-52.3	-66.2	3.8	7.44e-01	0	55	104	292552704	68	17139
2026-01-04 09:58:36.65	97.57	24.84	-52.3	-66.3	3.8	7.46e-01	0	55	104	292552704	68	17335
2026-01-04 09:58:37.65	97.36	24.99	-52.3	-66.4	3.8	7.43e-01	0	55	104	292552704	68	17586
2026-01-04 09:58:38.63	97.16	25.13	-52.3	-66.3	3.8	7.44e-01	0	55	104	292552704	68	17360
2026-01-04 09:58:39.62	96.95	25.27	-52.3	-66.2	3.8	7.44e-01	0	55	104	292552704	68	17229
2026-01-04 09:58:40.61	96.73	25.41	-52.2	-66.2	3.8	7.44e-01	0	55	104	292552704	68	17088
2026-01-04 09:58:41.60	96.52	25.56	-51.9	-65.4	3.8	7.41e-01	0	55	104	292552704	67	16559
2026-01-04 09:58:42.59	96.30	25.70	-51.3	-64.3	3.8	7.46e-01	0	55	104	292552704	66	15465
2026-01-04 09:58:43.58	96.08	25.85	-50.7	-63.2	3.8	7.45e-01	0	55	104	292552704	65	14525
2026-01-04 09:58:44.57	95.86	25.99	-50.2	-62.4	3.8	7.46e-01	0	55	104	292552704	64	13917
2026-01-04 09:58:45.57	95.63	26.14	-50.2	-62.3	3.8	7.48e-01	0	55	104	292552704	63	14678
2026-01-04 09:58:46.55	95.41	26.28	-50.7	-63.1	3.8	7.43e-01	0	55	104	292552704	63	15977
2026-01-04 09:58:47.54	95.18	26.43	-51.2	-64.0	3.8	7.44e-01	0	55	104	292552704	64	16743
2026-01-04 09:58:48.52	94.95	26.58	-51.5	-64.7	3.8	7.47e-01	0	55	104	292552704	65	17128
2026-01-04 09:58:49.51	94.72	26.72	-51.7	-65.0	3.8	7.46e-01	0	55	104	292552704	65	17831
2026-01-04 09:58:50.50	94.49	26.87	-51.8	-65.3	3.8	7.47e-01	0	55	104	292552704	65	18452
2026-01-04 09:58:51.49	94.25	27.02	-52.0	-65.7	3.8	7.46e-01	0	55	104	292552704	66	18128
2026-01-04 09:58:52.49	94.01	27.17	-52.2	-66.1	3.8	7.43e-01	0	55	104	292552704	66	18956
2026-01-04 09:58:53.48	93.76	27.32	-52.4	-66.6	3.9	7.44e-01	0	55	104	292552704	67	19037
2026-01-04 09:58:54.47	93.52	27.47	-52.7	-67.4	3.8	7.42e-01	0	55	104	292552704	67	20883
2026-01-04 09:58:55.45	93.28	27.61	-53.0	-68.2	3.8	7.42e-01	0	55	104	292552704	68	21585
2026-01-04 09:58:56.45	93.02	27.76	-53.2	-68.9	3.8	7.45e-01	0	55	104	292552704	68	23347
2026-01-04 09:58:57.44	92.77	27.91	-53.4	-69.5	3.8	7.47e-01	0	55	104	292552704	68	25112
2026-01-04 09:58:58.43	92.52	28.06	-53.5	-70.1	3.8	7.45e-01	0	55	104	292552704	69	25295
2026-01-04 09:58:59.42	92.26	28.21	-53.7	-70.5	3.8	7.46e-01	0	55	104	292552704	69	26742
2026-01-04 09:59:00.41	92.00	28.36	-53.7	-70.9	3.8	7.45e-01	0	55	104	292552704	69	27790
2026-01-04 09:59:01.40	91.74	28.52	-53.7	-71.0	3.8	7.46e-01	0	55	104	292552704	69	28133
2026-01-04 09:59:02.39	91.48	28.67	-53.8	-71.0	3.8	7.45e-01	0	55	104	292552704	69	28144
2026-01-04 09:59:03.38	91.21	28.82	-53.7	-70.8	3.8	7.44e-01	0	55	104	292552704	69	27512
2026-01-04 09:59:04.37	90.94	28.97	-53.7	-70.6	3.8	7.41e-01	0	55	104	292552704	69	27007
2026-01-04 09:59:05.36	90.67	29.12	-53.7	-70.5	3.8	7.46e-01	0	55	104	292552704	69	26670
2026-01-04 09:59:06.36	90.39	29.27	-53.7	-70.7	3.8	7.45e-01	0	55	104	292552704	69	27240
2026-01-04 09:59:07.34	90.12	29.42	-53.8	-71.3	3.8	7.46e-01	0	55	104	292552704	69	29174
2026-01-04 09:59:08.32	89.84	29.57	-54.0	-72.0	3.8	7.49e-01	0	55	104	292552704	70	29702
2026-01-04 09:59:09.32	89.56	29.73	-54.0	-72.2	3.8	7.41e-01	0	55	104	292552704	70	30590
2026-01-04 09:59:10.31	89.27	29.88	-53.9	-71.5	3.8	7.49e-01	0	55	104	292552704	70	28037
2026-01-04 09:59:11.30	88.98	30.03	-53.7	-70.8	3.8	7.41e-01	0	55	104	292552704	70	25930
2026-01-04 09:59:12.29	88.69	30.18	-53.6	-70.2	3.8	7.40e-01	0	55	104	292552704	70	24309
2026-01-04 09:59:13.28	88.40	30.34	-53.5	-69.7	3.8	7.43e-01	0	55	104	292552704	70	22993
2026-01-04 09:59:14.28	88.10	30.49	-53.5	-69.7	3.8	7.43e-01	0	55	104	292552704	70	22909
2026-01-04 09:59:15.26	87.80	30.64	-53.5	-69.8	3.8	7.45e-01	0	55	104	292552704	70	23246
2026-01-04 09:59:16.25	87.50	30.79	-53.6	-70.1	3.8	7.42e-01	0	55	104	292552704	70	23900
2026-01-04 09:59:17.25	87.19	30.95	-53.7	-70.4	3.8	7.44e-01	0	55	104	292552704	70	24861
2026-01-04 09:59:18.24	86.88	31.10	-53.8	-70.9	3.8	7.43e-01	0	55	104	292552704	70	26264
2026-01-04 09:59:19.23	86.57	31.25	-53.8	-71.1	3.8	7.44e-01	0	55	104	292552704	70	27038
2026-01-04 09:59:20.22	86.25	31.40	-53.6	-69.9	3.8	7.45e-01	0	55	104	292552704	70	23526
2026-01-04 09:59:21.22	85.93	31.56	-53.1	-68.4	3.8	7.43e-01	0	56	104	292552704	69	20939
2026-01-04 09:59:22.20	85.61	31.71	-52.5	-66.7	3.8	7.47e-01	0	55	104	292552704	68	18264
2026-01-04 09:59:23.20	85.28	31.86	-51.8	-65.1	3.8	7.46e-01	0	55	104	292552704	67	16094
2026-01-04 09:59:24.19	84.96	32.01	-51.2	-64.0	3.8	7.39e-01	0	55	104	292552704	66	14975
2026-01-04 09:59:25.18	84.63	32.16	-50.7	-63.2	3.8	7.49e-01	0	56	104	292552704	65	14425
2026-01-04 09:59:26.16	84.29	32.31	-50.9	-63.6	3.8	7.47e-01	0	56	104	292552704	65	15070
2026-01-04 09:59:27.15	83.96	32.46	-51.2	-64.1	3.8	7.43e-01	0	55	104	292552704	65	16123
2026-01-04 09:59:28.14	83.62	32.61	-51.0	-63.7	3.8	7.44e-01	0	55	104	292552704	65	15259
2026-01-04 09:59:29.12	83.28	32.76	-50.8	-63.3	3.8	7.44e-01	0	55	104	292552704	65	14590
2026-01-04 09:59:30.11	82.93	32.91	-50.6	-63.0	3.8	7.45e-01	0	56	104	292552704	64	14984
2026-01-04 09:59:31.09	82.58	33.06	-50.6	-63.0	3.8	7.45e-01	0	56	104	292552704	64	14936
2026-01-04 09:59:32.08	82.23	33.21	-50.2	-62.3	3.8	7.46e-01	0	55	104	292552704	63	14668
2026-01-04 09:59:33.07	81.87	33.36	-49.9	-61.8	3.8	7.44e-01	0	56	104	292552704	63	13876
2026-01-04 09:59:34.06	81.51	33.50	-50.5	-62.8	3.8	7.45e-01	0	56	104	292552704	63	15501
2026-01-04 09:59:35.05	81.15	33.65	-50.9	-63.5	3.8	7.48e-01	0	55	104	292552704	64	15807
2026-01-04 09:59:36.04	80.78	33.80	-51.4	-64.6	3.8	7.40e-01	0	55	104	292552704	65	16891
2026-01-04 09:59:37.03	80.41	33.94	-52.0	-65.6	3.8	7.46e-01	0	55	104	292552704	66	17910
2026-01-04 09:59:38.02	80.04	34.09	-52.6	-66.9	3.8	7.49e-01	0	55	104	292552704	67	19788
2026-01-04 09:59:39.01	79.66	34.23	-52.6	-66.9	3.8	7.46e-01	0	55	104	292552704	67	19667
2026-01-04 09:59:40.00	79.28	34.38	-52.6	-67.0	3.8	7.45e-01	0	55	104	292552704	67	19997
2026-01-04 09:59:40.99	78.90	34.52	-52.7	-67.3	3.8	7.45e-01	0	55	104	292552704	67	20618
2026-01-04 09:59:41.99	78.50	34.67	-52.9	-67.7	3.8	7.45e-01	0	56	104	292552704	67	21603
2026-01-04 09:59:42.98	78.11	34.81	-53.1	-68.3	3.8	7.46e-01	0	56	104	292552704	68	21955
2026-01-04 09:59:43.98	77.71	34.95	-53.3	-68.8	3.8	7.49e-01	0	56	104	292552704	68	23060
2026-01-04 09:59:44.97	77.32	35.09	-53.4	-69.4	3.8	7.49e-01	0	55	104	292552704	69	23389
2026-01-04 09:59:45.95	76.92	35.23	-53.6	-70.1	3.8	7.46e-01	0	56	104	292552704	69	25416
2026-01-04 09:59:46.93	76.52	35.37	-53.7	-70.5	3.8	7.44e-01	0	56	104	292552704	69	26755
2026-01-04 09:59:47.92	76.11	35.50	-53.8	-71.0	3.8	7.43e-01	0	56	104	292552704	69	28130
2026-01-04 09:59:48.91	75.70	35.64	-53.9	-71.4	3.8	7.42e-01	0	56	104	292552704	70	27947
2026-01-04 09:59:49.90	75.28	35.78	-54.0	-71.9	3.8	7.46e-01	0	56	104	292552704	70	29536
2026-01-04 09:59:50.89	74.86	35.91	-54.0	-72.1	3.8	7.46e-01	0	56	104	292552704	70	30180
2026-01-04 09:59:51.88	74.44	36.04	-54.1	-72.2	3.8	7.47e-01	0	56	104	292552704	70	30704
2026-01-04 09:59:52.87	74.01	36.18	-54.0	-72.1	3.8	7.45e-01	0	56	104	292552704	70	30053
2026-01-04 09:59:53.86	73.58	36.31	-54.0	-71.9	3.8	7.44e-01	0	56	104	292552704	70	29362
2026-01-04 09:59:54.85	73.15	36.44	-54.0	-71.9	3.8	7.43e-01	0	56	104	292552704	70	29473
2026-01-04 09:59:55.84	72.71	36.56	-54.0	-71.8	3.8	7.42e-01	0	56	104	292552704	70	29109
2026-01-04 09:59:56.83	72.27	36.69	-54.0	-72.1	3.8	7.47e-01	0	56	104	292552704	70	30163
2026-01-04 09:59:57.82	71.82	36.82	-54.0	-71.7	3.8	7.42e-01	0	55	104	292552704	70	28828
2026-01-04 09:59:58.81	71.38	36.94	-53.9	-71.3	3.8	7.45e-01	0	56	104	292552704	70	27578
2026-01-04 09:59:59.80	70.92	37.06	-53.8	-70.9	3.8	7.44e-01	0	56	104	292552704	70	26366
2026-01-04 10:00:00.79	70.47	37.18	-53.7	-70.5	3.8	7.45e-01	0	56	104	292552704	70	25083
2026-01-04 10:00:01.78	70.01	37.30	-53.6	-70.0	3.8	7.45e-01	0	56	104	292552704	70	23601
2026-01-04 10:00:02.77	69.55	37.42	-53.4	-69.2	3.8	7.47e-01	0	55	104	292552704	70	21695
2026-01-04 10:00:03.77	69.08	37.54	-53.2	-68.6	3.8	7.43e-01	0	56	104	292552704	70	20164
2026-01-04 10:00:04.76	68.61	37.65	-53.2	-68.6	3.8	7.45e-01	0	56	104	292552704	70	20199
2026-01-04 10:00:05.74	68.14	37.76	-53.2	-68.6	3.8	7.48e-01	0	56	104	292552704	70	20246
2026-01-04 10:00:06.74	67.66	37.88	-53.3	-68.7	3.8	7.47e-01	0	56	104	292552704	70	20427
2026-01-04 10:00:07.73	67.19	37.98	-53.3	-68.6	3.8	7.47e-01	0	56	104	292552704	70	20268
2026-01-04 10:00:08.72	66.70	38.09	-53.4	-69.1	3.8	7.48e-01	0	56	104	292552704	70	21329
2026-01-04 10:00:09.72	66.22	38.20	-53.2	-68.6	3.8	7.43e-01	0	56	104	292552704	70	20102
2026-01-04 10:00:10.71	65.73	38.30	-52.8	-67.3	3.8	7.45e-01	0	56	104	292552704	69	18439
2026-01-04 10:00:11.70	65.24	38.40	-52.2	-66.0	3.8	7.45e-01	0	56	104	292552704	68	16764
2026-01-04 10:00:12.69	64.74	38.50	-51.8	-65.1	3.8	7.43e-01	0	56	104	292552704	67	15991
2026-01-04 10:00:13.67	64.25	38.60	-51.4	-64.3	3.8	7.44e-01	0	56	104	292552704	66	15498
2026-01-04 10:00:14.67	63.74	38.69	-51.0	-63.8	3.8	7.43e-01	0	56	104	292552704	65	15420
2026-01-04 10:00:15.66	63.24	38.79	-51.0	-63.5	3.8	7.45e-01	0	56	104	292552704	65	15036
2026-01-04 10:00:16.64	62.74	38.87	-51.3	-64.2	3.8	7.43e-01	0	56	104	292552704	65	16182
2026-01-04 10:00:17.63	62.23	38.96	-51.2	-64.0	3.8	7.44e-01	0	56	104	292552704	65	15904
2026-01-04 10:00:18.63	61.71	39.05	-51.0	-63.7	3.8	7.42e-01	0	56	104	292552704	65	15270
2026-01-04 10:00:19.62	61.20	39.13	-50.7	-63.1	3.8	7.42e-01	0	56	104	292552704	65	14251
2026-01-04 10:00:20.61	60.68	39.21	-50.5	-62.8	3.8	7.44e-01	0	56	104	292552704	64	14566
2026-01-04 10:00:21.60	60.16	39.29	-50.8	-63.5	3.8	7.45e-01	0	56	104	292552704	64	15821
2026-01-04 10:00:22.59	59.64	39.37	-51.1	-63.9	3.8	7.45e-01	0	56	104	292552704	64	16539
2026-01-04 10:00:23.59	59.11	39.44	-51.6	-64.8	3.8	7.44e-01	0	56	104	292552704	65	17467
2026-01-04 10:00:24.58	58.58	39.51	-52.1	-65.6	3.8	7.44e-01	0	56	104	292552704	66	17940
2026-01-04 10:00:25.56	58.06	39.58	-52.5	-66.6	3.8	7.44e-01	0	56	104	292552704	67	19122
2026-01-04 10:00:26.56	57.52	39.65	-52.9	-67.7	3.8	7.45e-01	0	56	104	292552704	67	21521
2026-01-04 10:00:27.54	56.99	39.71	-53.3	-68.7	3.8	7.43e-01	0	56	104	292552704	68	23018
2026-01-04 10:00:28.53	56.46	39.77	-53.3	-68.8	3.8	7.45e-01	0	56	104	292552704	68	23084
2026-01-04 10:00:29.52	55.92	39.83	-53.3	-68.7	3.8	7.46e-01	0	56	104	292552704	68	22994
2026-01-04 10:00:30.50	55.38	39.88	-53.3	-68.8	3.8	7.44e-01	0	56	104	292552704	68	23302
2026-01-04 10:00:31.50	54.84	39.94	-53.3	-68.9	3.8	7.44e-01	0	56	104	292552704	68	23500
2026-01-04 10:00:32.48	54.30	39.99	-53.4	-69.2	3.9	7.46e-01	0	56	104	292552704	69	22987
2026-01-04 10:00:33.47	53.75	40.03	-53.5	-69.5	3.8	7.45e-01	0	56	104	292552704	69	23833
2026-01-04 10:00:34.46	53.21	40.08	-53.7	-70.3	3.8	7.44e-01	0	56	104	292552704	69	25921
2026-01-04 10:00:35.45	52.66	40.12	-53.8	-71.0	3.8	7.49e-01	0	56	104	292552704	69	28079
2026-01-04 10:00:36.44	52.11	40.16	-53.9	-71.3	3.8	7.46e-01	0	56	104	292552704	70	27674
2026-01-04 10:00:37.42	51.56	40.19	-54.0	-71.7	3.8	7.48e-01	0	56	104	292552704	70	28734
2026-01-04 10:00:38.40	51.02	40.22	-54.1	-72.0	3.8	7.49e-01	0	56	104	292552704	70	29786
2026-01-04 10:00:39.40	50.46	40.25	-54.1	-72.1	3.8	7.47e-01	0	56	104	292552704	70	30273
2026-01-04 10:00:40.39	49.90	40.28	-54.1	-72.1	3.8	7.45e-01	0	56	104	292552704	70	30070
2026-01-04 10:00:41.38	49.35	40.30	-54.1	-72.6	3.8	7.44e-01	0	56	104	292552704	70	31942
2026-01-04 10:00:42.37	48.79	40.32	-54.2	-72.5	3.8	7.44e-01	0	56	104	292552704	70	31809
2026-01-04 10:00:43.36	48.24	40.34	-54.1	-72.2	3.8	7.45e-01	0	56	104	292552704	70	30716
2026-01-04 10:00:44.35	47.68	40.36	-54.0	-71.8	3.8	7.44e-01	0	56	104	292552704	70	29339
2026-01-04 10:00:45.34	47.12	40.37	-53.9	-71.3	3.8	7.45e-01	0	56	104	292552704	70	27682
2026-01-04 10:00:46.32	46.57	40.38	-53.9	-71.0	3.8	7.42e-01	0	56	104	292552704	70	26754
2026-01-04 10:00:47.32	46.01	40.38	-53.7	-70.4	3.8	7.48e-01	0	56	104	292552704	70	24862
2026-01-04 10:00:48.31	45.45	40.38	-53.6	-69.7	3.8	7.42e-01	0	56	104	292552704	70	23031
2026-01-04 10:00:49.29	44.90	40.38	-53.4	-69.0	3.8	7.44e-01	0	56	104	292552704	70	21146
2026-01-04 10:00:50.29	44.34	40.38	-53.0	-68.0	3.8	7.47e-01	0	56	104	292552704	69	19890
2026-01-04 10:00:51.27	43.78	40.37	-52.6	-66.8	3.8	7.43e-01	0	56	104	292552704	68	18348
2026-01-04 10:00:52.27	43.22	40.36	-52.2	-65.8	3.8	7.45e-01	0	56	104	292552704	68	16431
2026-01-04 10:00:53.26	42.66	40.35	-51.7	-65.0	3.8	7.45e-01	0	56	104	292552704	67	15837
2026-01-04 10:00:54.25	42.11	40.33	-51.6	-64.6	3.8	7.47e-01	0	56	104	292552704	66	16108
2026-01-04 10:00:55.25	41.55	40.31	-51.5	-64.4	3.8	7.42e-01	0	56	104	292552704	66	15714
2026-01-04 10:00:56.24	40.99	40.29	-51.6	-64.5	3.8	7.45e-01	0	56	104	292552704	66	15942
2026-01-04 10:00:57.23	40.44	40.27	-51.8	-65.1	3.8	7.45e-01	0	56	104	292552704	66	17042
2026-01-04 10:00:58.23	39.88	40.24	-51.9	-65.3	3.8	7.47e-01	0	56	104	292552704	66	17443
2026-01-04 10:00:59.21	39.33	40.21	-52.0	-65.4	3.8	7.47e-01	0	56	104	292552704	66	17501
2026-01-04 10:01:00.19	38.78	40.18	-51.6	-64.8	3.8	7.42e-01	0	56	104	292552704	66	16444
2026-01-04 10:01:01.18	38.23	40.14	-51.3	-64.1	3.8	7.46e-01	0	56	104	292552704	66	15192
2026-01-04 10:01:02.17	37.69	40.10	-51.0	-63.5	3.8	7.43e-01	0	56	104	292552704	65	14893
2026-01-04 10:01:03.16	37.14	40.06	-50.9	-63.3	3.8	7.44e-01	0	57	104	292552704	65	14649
2026-01-04 10:01:04.16	36.59	40.01	-51.0	-63.6	3.8	7.45e-01	0	56	104	292552704	65	15113
2026-01-04 10:01:05.15	36.04	39.96	-51.4	-64.3	3.8	7.44e-01	0	56	104	292552704	65	16487
2026-01-04 10:01:06.14	35.50	39.91	-51.7	-65.0	3.8	7.46e-01	0	56	104	292552704	65	17741
2026-01-04 10:01:07.13	34.96	39.86	-51.9	-65.3	3.8	7.42e-01	0	56	104	292552704	66	17385
2026-01-04 10:01:08.12	34.42	39.80	-51.6	-64.8	3.8	7.46e-01	0	56	104	292552704	66	16340
2026-01-04 10:01:09.11	33.89	39.74	-51.3	-64.1	3.8	7.45e-01	0	56	104	292552704	66	15223
2026-01-04 10:01:10.11	33.35	39.68	-50.9	-63.3	3.8	7.43e-01	0	56	104	292552704	65	14706
2026-01-04 10:01:11.10	32.81	39.62	-50.8	-63.3	3.8	7.47e-01	0	56	104	292552704	65	14644
2026-01-04 10:01:12.09	32.28	39.55	-51.2	-64.0	3.8	7.45e-01	0	56	104	292552704	65	15795
2026-01-04 10:01:13.09	31.75	39.48	-51.6	-64.6	3.8	7.40e-01	0	56	104	292552704	65	17072
2026-01-04 10:01:14.09	31.22	39.41	-52.0	-65.5	3.8	7.42e-01	0	56	104	292552704	66	17802
2026-01-04 10:01:15.06	30.71	39.33	-52.4	-66.5	3.8	7.43e-01	0	56	104	292552704	67	18769
2026-01-04 10:01:16.05	30.19	39.26	-52.8	-67.4	3.8	7.44e-01	0	56	104	292552704	67	20853
2026-01-04 10:01:17.04	29.67	39.18	-53.1	-68.4	3.8	7.47e-01	0	56	104	292552704	68	22117
2026-01-04 10:01:18.04	29.15	39.09	-53.4	-69.0	3.8	7.43e-01	0	56	104	292552704	68	23780
2026-01-04 10:01:19.02	28.64	39.01	-53.3	-68.9	3.8	7.44e-01	0	56	104	292552704	68	23338
2026-01-04 10:01:20.02	28.12	38.92	-53.3	-68.9	3.8	7.43e-01	0	56	104	292552704	68	23374
2026-01-04 10:01:21.00	27.62	38.83	-53.3	-68.9	3.8	7.44e-01	0	56	104	292552704	68	23533
2026-01-04 10:01:21.99	27.12	38.74	-53.3	-68.9	3.8	7.45e-01	0	56	104	292552704	68	23579
2026-01-04 10:01:22.97	26.62	38.65	-53.4	-69.0	3.8	7.43e-01	0	56	104	292552704	68	23835
2026-01-04 10:01:23.96	26.12	38.56	-53.4	-69.3	3.8	7.40e-01	0	56	104	292552704	69	23239
2026-01-04 10:01:24.94	25.63	38.46	-53.7	-70.5	3.8	7.46e-01	0	56	104	292552704	69	26705
2026-01-04 10:01:25.92	25.15	38.36	-53.9	-71.3	3.8	7.43e-01	0	56	104	292552704	69	29097
2026-01-04 10:01:26.91	24.66	38.26	-54.0	-71.9	3.8	7.45e-01	0	56	104	292552704	70	29612
2026-01-04 10:01:27.90	24.17	38.15	-53.9	-71.5	3.8	7.44e-01	0	56	104	292552704	70	28203
2026-01-04 10:01:28.89	23.69	38.05	-53.7	-70.6	3.8	7.48e-01	0	56	104	292552704	70	25273
2026-01-04 10:01:29.87	23.21	37.94	-53.4	-69.3	3.8	7.46e-01	0	56	104	292552704	70	21821
2026-01-04 10:01:30.86	22.74	37.83	-53.4	-69.4	3.8	7.45e-01	0	57	104	292552704	70	22180
2026-01-04 10:01:31.85	22.26	37.72	-53.5	-69.7	3.8	7.44e-01	0	56	104	292552704	70	23013
2026-01-04 10:01:32.85	21.79	37.61	-53.4	-69.4	3.8	7.44e-01	0	56	104	292552704	70	22027
2026-01-04 10:01:33.83	21.33	37.49	-53.3	-68.9	3.8	7.46e-01	0	57	104	292552704	70	20833
2026-01-04 10:01:34.82	20.86	37.38	-53.2	-68.7	3.8	7.44e-01	0	56	104	292552704	70	20527
2026-01-04 10:01:35.81	20.41	37.26	-53.2	-68.8	3.8	7.43e-01	0	56	104	292552704	70	20596
2026-01-04 10:01:36.80	19.95	37.14	-52.9	-67.6	3.8	7.46e-01	0	57	104	292552704	69	19167
2026-01-04 10:01:37.79	19.50	37.02	-52.3	-66.1	3.8	7.42e-01	0	56	104	292552704	68	16981
2026-01-04 10:01:38.78	19.05	36.89	-51.9	-65.2	3.8	7.45e-01	0	56	104	292552704	67	16239
2026-01-04 10:01:39.78	18.60	36.77	-51.5	-64.7	3.8	7.42e-01	0	57	104	292552704	66	16199
2026-01-04 10:01:40.77	18.16	36.64	-51.1	-63.9	3.8	7.43e-01	0	56	104	292552704	65	15717
2026-01-04 10:01:41.76	17.72	36.52	-50.6	-62.9	3.8	7.44e-01	0	56	104	292552704	64	14781
2026-01-04 10:01:42.76	17.28	36.39	-50.2	-62.1	3.8	7.46e-01	0	57	104	292552704	64	13567
2026-01-04 10:01:43.75	16.85	36.26	-50.3	-62.4	3.8	7.45e-01	0	56	104	292552704	63	14716
2026-01-04 10:01:44.74	16.42	36.13	-50.4	-62.7	3.8	7.43e-01	0	56	104	292552704	63	15398
2026-01-04 10:01:45.72	16.00	35.99	-50.5	-62.8	3.8	7.44e-01	0	56	104	292552704	63	15531
2026-01-04 10:01:46.72	15.57	35.86	-50.7	-63.1	3.8	7.46e-01	0	56	104	292552704	63	16077
2026-01-04 10:01:47.72	15.15	35.72	-50.9	-63.5	3.8	7.41e-01	0	57	104	292552704	64	15936
2026-01-04 10:01:48.70	14.74	35.59	-51.3	-64.1	3.8	7.46e-01	0	56	104	292552704	64	17031
2026-01-04 10:01:49.69	14.33	35.45	-51.4	-64.2	3.8	7.44e-01	0	56	104	292552704	65	16232
2026-01-04 10:01:50.68	13.93	35.32	-51.3	-64.5	3.8	7.44e-01	0	56	104	292552704	65	16698
2026-01-04 10:01:51.67	13.52	35.18	-51.3	-64.2	3.8	7.46e-01	0	57	104	292552704	65	16264
2026-01-04 10:01:52.67	13.12	35.04	-51.3	-63.9	3.8	7.46e-01	0	57	104	292552704	65	15707
2026-01-04 10:01:53.66	12.72	34.90	-51.5	-64.4	3.8	7.46e-01	0	57	104	292552704	65	16629
2026-01-04 10:01:54.65	12.33	34.75	-51.7	-65.1	3.8	7.43e-01	0	57	104	292552704	65	18002
2026-01-04 10:01:55.63	11.95	34.61	-52.0	-65.7	3.8	7.44e-01	0	57	104	292552704	66	18126
2026-01-04 10:01:56.63	11.56	34.47	-52.4	-66.5	3.8	7.45e-01	0	56	104	292552704	67	18826
2026-01-04 10:01:57.62	11.17	34.33	-52.3	-66.3	3.8	7.45e-01	0	56	104	292552704	67	18480
2026-01-04 10:01:58.61	10.80	34.18	-51.9	-65.3	3.8	7.44e-01	0	57	104	292552704	67	16378
2026-01-04 10:01:59.60	10.42	34.04	-51.5	-64.4	3.8	7.40e-01	0	57	104	292552704	66	15624
2026-01-04 10:02:00.59	10.05	33.89	-51.1	-63.9	3.8	7.45e-01	0	57	104	292552704	65	15598
2026-01-04 10:02:01.58	9.68	33.75	-51.1	-64.0	3.8	7.42e-01	0	57	104	292552704	65	15824
2026-01-04 10:02:02.57	9.32	33.60	-51.4	-64.4	3.8	7.47e-01	0	57	104	292552704	65	16672
2026-01-04 10:02:03.56	8.95	33.45	-51.8	-65.0	3.8	7.46e-01	0	56	104	292552704	65	17818
2026-01-04 10:02:04.56	8.59	33.30	-52.2	-65.9	3.8	7.49e-01	0	57	104	292552704	66	18693
2026-01-04 10:02:05.55	8.24	33.15	-52.5	-66.9	3.8	7.46e-01	0	56	104	292552704	67	19661
2026-01-04 10:02:06.54	7.89	33.01	-52.8	-67.4	3.8	7.44e-01	0	56	104	292552704	67	20967
2026-01-04 10:02:07.54	7.54	32.86	-53.1	-68.2	3.8	7.47e-01	0	56	104	292552704	68	21697
2026-01-04 10:02:08.52	7.20	32.71	-53.2	-68.8	3.8	7.45e-01	0	56	104	292552704	68	23105
2026-01-04 10:02:09.52	6.85	32.56	-53.2	-68.6	3.8	7.46e-01	0	56	104	292552704	68	22590
2026-01-04 10:02:10.50	6.52	32.41	-53.1	-68.1	3.8	7.49e-01	0	57	104	292552704	68	21454
2026-01-04 10:02:11.49	6.18	32.26	-53.0	-67.9	3.8	7.46e-01	0	57	104	292552704	68	20859
2026-01-04 10:02:12.49	5.85	32.11	-52.9	-67.7	3.8	7.44e-01	0	57	104	292552704	68	20336
2026-01-04 10:02:13.48	5.52	31.95	-53.0	-67.9	3.8	7.44e-01	0	57	104	292552704	68	20924
2026-01-04 10:02:14.47	5.19	31.80	-53.2	-68.6	3.8	7.45e-01	0	57	104	292552704	68	22707
2026-01-04 10:02:15.47	4.87	31.65	-53.2	-68.8	3.8	7.44e-01	0	57	104	292552704	68	23093
2026-01-04 10:02:16.47	4.54	31.50	-52.8	-67.4	3.8	7.43e-01	0	57	104	292552704	68	19730
2026-01-04 10:02:17.46	4.23	31.35	-52.2	-65.8	3.8	7.49e-01	0	56	104	292552704	68	16454
2026-01-04 10:02:18.45	3.92	31.20	-51.6	-64.7	3.8	7.45e-01	0	57	104	292552704	66	16265
2026-01-04 10:02:19.44	3.61	31.04	-51.1	-64.0	3.8	7.46e-01	0	57	104	292552704	65	15895
2026-01-04 10:02:20.43	3.30	30.89	-50.9	-63.5	3.8	7.46e-01	0	56	104	292552704	65	15035
2026-01-04 10:02:21.41	3.00	30.74	-51.0	-63.7	3.8	7.47e-01	0	57	104	292552704	65	15266
2026-01-04 10:02:22.40	2.70	30.59	-51.0	-63.6	3.8	7.44e-01	0	57	104	292552704	65	15207
2026-01-04 10:02:23.39	2.40	30.44	-50.8	-63.3	3.8	7.47e-01	0	57	104	292552704	65	14674
2026-01-04 10:02:24.39	2.10	30.28	-50.6	-62.9	3.8	7.47e-01	0	57	104	292552704	64	14713
2026-01-04 10:02:25.39	1.81	30.13	-50.5	-62.6	3.8	7.44e-01	0	57	104	292552704	64	14312
2026-01-04 10:02:26.38	1.52	29.98	-50.4	-62.7	3.8	7.43e-01	0	56	104	292552704	64	14470
2026-01-04 10:02:27.37	1.23	29.83	-50.1	-62.4	3.8	7.44e-01	0	57	104	292552704	63	14817
2026-01-04 10:02:28.36	0.95	29.68	-49.8	-61.7	3.8	7.45e-01	0	56	104	292552704	63	13578
2026-01-04 10:02:29.34	0.67	29.53	-49.3	-60.7	3.8	7.46e-01	0	56	104	292552704	62	12952
2026-01-04 10:02:30.34	0.39	29.37	-49.1	-60.6	3.8	7.48e-01	0	57	104	292552704	61	13435
2026-01-04 10:02:31.33	0.11	29.22	-48.9	-60.7	3.8	7.45e-01	0	57	104	292552704	61	13713
2026-01-04 10:02:32.33	359.84	29.07	-48.8	-60.5	3.8	7.43e-01	0	57	104	292552704	61	13334
2026-01-04 10:02:33.31	359.57	28.92	-48.9	-60.2	3.8	7.45e-01	0	57	104	292552704	61	12863
2026-01-04 10:02:34.30	359.30	28.77	-49.2	-60.8	3.8	7.42e-01	0	56	104	292552704	61	13802
2026-01-04 10:02:35.29	359.04	28.62	-49.8	-61.8	3.8	7.47e-01	0	57	104	292552704	61	15520
2026-01-04 10:02:36.28	358.78	28.47	-50.3	-62.7	3.8	7.46e-01	0	57	104	292552704	62	16261
2026-01-04 10:02:37.27	358.52	28.32	-50.7	-63.2	3.8	7.44e-01	0	57	104	292552704	63	16301
2026-01-04 10:02:38.26	358.26	28.17	-51.0	-63.5	3.8	7.44e-01	0	57	104	292552704	64	15903
2026-01-04 10:02:39.26	358.00	28.02	-51.3	-64.1	3.8	7.49e-01	0	56	104	292552704	64	17023
2026-01-04 10:02:40.24	357.75	27.87	-51.3	-64.3	3.8	7.46e-01	0	57	104	292552704	64	17389
2026-01-04 10:02:41.23	357.50	27.72	-51.3	-64.3	3.8	7.44e-01	0	57	104	292552704	64	17306
2026-01-04 10:02:42.23	357.25	27.57	-51.3	-64.1	3.8	7.47e-01	0	56	104	292552704	64	16982
2026-01-04 10:02:43.22	357.01	27.42	-51.4	-64.4	3.8	7.43e-01	0	57	104	292552704	65	16600
2026-01-04 10:02:44.20	356.77	27.27	-51.7	-65.0	3.8	7.46e-01	0	57	104	292552704	65	17702
2026-01-04 10:02:45.19	356.53	27.13	-52.0	-65.8	3.8	7.44e-01	0	57	104	292552704	66	18506
2026-01-04 10:02:46.18	356.29	26.98	-52.4	-66.7	3.8	7.44e-01	0	57	104	292552704	67	19311
2026-01-04 10:02:47.17	356.06	26.83	-52.7	-67.3	3.9	7.43e-01	0	57	104	292552704	67	20652
2026-01-04 10:02:48.16	355.82	26.68	-52.3	-66.3	3.8	7.45e-01	0	57	104	292552704	67	18464
2026-01-04 10:02:49.15	355.59	26.54	-51.9	-65.4	3.8	7.44e-01	0	57	104	292552704	67	16673
2026-01-04 10:02:50.14	355.36	26.39	-51.4	-64.6	3.8	7.43e-01	0	57	104	292552704	66	16009
2026-01-04 10:02:51.13	355.14	26.25	-51.1	-63.9	3.8	7.46e-01	0	57	104	292552704	65	15685
2026-01-04 10:02:52.12	354.91	26.10	-51.3	-64.3	3.8	7.47e-01	0	57	104	292552704	65	16329
2026-01-04 10:02:53.10	354.69	25.96	-51.7	-64.9	3.8	7.45e-01	0	57	104	292552704	65	17591
2026-01-04 10:02:54.09	354.47	25.81	-52.0	-65.7	3.8	7.46e-01	0	57	104	292552704	66	18248
2026-01-04 10:02:55.09	354.25	25.67	-52.4	-66.6	3.8	7.46e-01	0	57	104	292552704	66	20270
2026-01-04 10:02:56.07	354.04	25.52	-52.7	-67.7	3.8	7.46e-01	0	57	104	292552704	67	21648
2026-01-04 10:02:57.06	353.83	25.38	-53.0	-68.4	3.8	7.46e-01	0	57	104	292552704	68	22243
2026-01-04 10:02:58.05	353.62	25.24	-52.8	-67.5	3.8	7.45e-01	0	57	104	292552704	68	19949
2026-01-04 10:02:59.04	353.41	25.10	-52.5	-66.9	3.8	7.42e-01	0	57	104	292552704	68	18559
2026-01-04 10:03:00.03	353.20	24.95	-52.3	-66.2	3.8	7.45e-01	0	57	104	292552704	68	17255
2026-01-04 10:03:01.02	352.99	24.81	-52.2	-66.1	3.8	7.45e-01	0	57	104	292552704	68	16936
2026-01-04 10:03:02.01	352.79	24.67	-52.0	-65.7	3.8	7.45e-01	0	57	104	292552704	67	17177
2026-01-04 10:03:03.00	352.59	24.53	-51.9	-65.7	3.8	7.44e-01	0	57	104	292552704	67	17133
2026-01-04 10:03:04.00	352.38	24.39	-51.9	-65.5	3.8	7.44e-01	0	57	104	292552704	67	16755
2026-01-04 10:03:04.99	352.19	24.25	-51.4	-64.6	3.8	7.43e-01	0	57	104	292552704	66	16009
2026-01-04 10:03:05.98	351.99	24.11	-51.0	-63.8	3.8	7.42e-01	0	57	104	292552704	65	15478
2026-01-04 10:03:06.98	351.79	23.97	-50.5	-63.0	3.8	7.41e-01	0	57	104	292552704	64	14966
2026-01-04 10:03:07.95	351.61	23.83	-50.2	-62.6	3.8	7.44e-01	0	57	104	292552704	63	15094
2026-01-04 10:03:08.94	351.41	23.69	-49.8	-61.7	3.8	7.45e-01	0	57	104	292552704	63	13666
2026-01-04 10:03:09.94	351.22	23.55	-49.5	-61.3	3.8	7.42e-01	0	57	104	292552704	62	13885
2026-01-04 10:03:10.92	351.04	23.42	-49.4	-61.0	3.8	7.45e-01	0	57	104	292552704	62	13333
2026-01-04 10:03:11.90	350.86	23.28	-49.3	-61.2	3.8	7.45e-01	0	57	104	292552704	62	13572
2026-01-04 10:03:12.89	350.67	23.15	-49.3	-60.8	3.8	7.45e-01	0	57	104	292552704	62	13002
2026-01-04 10:03:13.88	350.49	23.01	-49.2	-61.1	3.8	7.44e-01	0	56	104	292552704	62	13441
2026-01-04 10:03:14.86	350.31	22.88	-49.3	-60.8	3.9	7.46e-01	0	57	104	292552704	62	13105
2026-01-04 10:03:15.85	350.13	22.74	-49.5	-61.3	3.8	7.44e-01	0	57	104	292552704	62	13754
2026-01-04 10:03:16.85	349.95	22.61	-49.4	-61.0	3.8	7.45e-01	0	57	104	292552704	62	13317
2026-01-04 10:03:17.84	349.78	22.47	-49.3	-61.2	3.8	7.45e-01	0	57	104	292552704	62	13626
2026-01-04 10:03:18.83	349.60	22.34	-49.3	-61.2	3.8	7.44e-01	0	57	104	292552704	62	13571
2026-01-04 10:03:19.82	349.43	22.21	-49.4	-61.5	3.8	7.45e-01	0	57	104	292552704	62	14141
2026-01-04 10:03:20.81	349.26	22.07	-49.5	-61.3	3.8	7.46e-01	0	57	104	292552704	62	13877
2026-01-04 10:03:21.79	349.09	21.94	-49.4	-61.3	3.8	7.41e-01	0	57	104	292552704	62	13768
2026-01-04 10:03:22.78	348.93	21.81	-49.3	-60.9	3.8	7.48e-01	0	57	104	292552704	62	13125
2026-01-04 10:03:23.78	348.76	21.68	-49.5	-61.3	3.8	7.45e-01	0	57	104	292552704	62	13883
2026-01-04 10:03:24.77	348.59	21.55	-49.8	-61.7	3.8	7.46e-01	0	57	104	292552704	62	14529
2026-01-04 10:03:25.76	348.43	21.42	-50.2	-62.6	3.8	7.46e-01	0	57	104	292552704	62	15988
2026-01-04 10:03:26.74	348.27	21.29	-50.6	-63.0	3.8	7.45e-01	0	57	104	292552704	63	15906
2026-01-04 10:03:27.73	348.11	21.16	-50.9	-63.6	3.8	7.45e-01	0	57	104	292552704	64	16094
2026-01-04 10:03:28.73	347.95	21.03	-51.3	-64.4	3.8	7.45e-01	0	57	104	292552704	64	17513
2026-01-04 10:03:29.71	347.79	20.90	-51.5	-64.7	3.8	7.45e-01	0	57	104	292552704	65	17263
2026-01-04 10:03:30.70	347.64	20.78	-51.5	-64.9	3.8	7.42e-01	0	57	104	292552704	65	17573
2026-01-04 10:03:31.69	347.48	20.65	-51.6	-65.1	3.8	7.40e-01	0	57	104	292552704	65	17928
2026-01-04 10:03:32.68	347.33	20.52	-51.8	-65.7	3.8	7.44e-01	0	57	104	292552704	65	19186
2026-01-04 10:03:33.67	347.18	20.40	-52.1	-66.0	3.8	7.47e-01	0	57	104	292552704	66	18872
2026-01-04 10:03:34.66	347.03	20.27	-52.3	-66.8	3.8	7.43e-01	0	57	104	292552704	66	20691
2026-01-04 10:03:35.64	346.88	20.15	-52.6	-67.6	3.8	7.43e-01	0	57	104	292552704	67	21356
2026-01-04 10:03:36.63	346.73	20.02	-53.1	-69.5	3.8	7.45e-01	0	57	104	292552704	68	25151
2026-01-04 10:03:37.62	346.58	19.90	-53.4	-71.2	3.8	7.49e-01	0	57	104	292552704	68	30466
2026-01-04 10:03:38.61	346.44	19.77	-53.4	-71.7	3.8	7.43e-01	0	57	104	292552704	69	30640
2026-01-04 10:03:39.60	346.30	19.65	-52.8	-68.6	3.8	7.45e-01	0	57	104	292552704	69	21398
2026-01-04 10:03:40.58	346.15	19.53	-51.7	-65.1	3.8	7.43e-01	0	57	104	292552704	66	16956
2026-01-04 10:03:41.57	346.01	19.41	-51.3	-64.7	3.8	7.44e-01	0	57	104	292552704	66	16218
2026-01-04 10:03:42.56	345.87	19.29	-51.7	-65.4	3.8	7.46e-01	0	57	104	292552704	66	17626
2026-01-04 10:03:43.55	345.73	19.16	-51.9	-65.7	3.8	7.44e-01	0	57	104	292552704	66	18206
2026-01-04 10:03:44.54	345.59	19.04	-52.0	-66.2	3.8	7.43e-01	0	57	104	292552704	66	19274
2026-01-04 10:03:45.53	345.46	18.92	-51.8	-65.7	3.8	7.45e-01	0	57	104	292552704	66	18220
2026-01-04 10:03:46.52	345.32	18.80	-51.6	-65.4	3.8	7.46e-01	0	57	104	292552704	66	17588
2026-01-04 10:03:47.51	345.19	18.68	-51.6	-65.3	3.8	7.48e-01	0	57	104	292552704	66	17398
2026-01-04 10:03:48.50	345.05	18.57	-51.5	-65.0	3.8	7.46e-01	0	57	104	292552704	66	16872
2026-01-04 10:03:49.49	344.92	18.45	-51.5	-64.9	3.8	7.44e-01	0	57	104	292552704	66	16628
2026-01-04 10:03:50.48	344.79	18.33	-51.1	-55.3	7.3	6.00e-01	1	57	104	292552704	65	5791
2026-01-04 10:03:51.48	344.66	18.21	-51.1	-55.3	17.0	6.01e-01	0	57	0	1048576	65	5825
2026-01-04 10:03:52.47	344.53	18.09	-51.2	-55.5	16.8	6.01e-01	0	57	0	3145728	65	5984
2026-01-04 10:03:53.46	344.40	17.98	-51.2	-55.6	16.6	6.01e-01	0	57	0	4718592	65	6057
2026-01-04 10:03:54.44	344.28	17.86	-51.1	-55.6	16.4	6.01e-01	0	57	0	6815744	65	6034
2026-01-04 10:03:55.42	344.15	17.75	-51.2	-56.2	15.8	6.02e-01	0	57	0	8388608	65	6433
2026-01-04 10:03:56.41	344.03	17.63	-51.3	-56.6	15.2	6.01e-01	0	57	0	10485760	65	6769
2026-01-04 10:03:57.41	343.90	17.52	-51.1	-56.0	15.7	6.06e-01	0	57	0	12582912	65	6339
2026-01-04 10:03:58.40	343.78	17.40	-50.9	-55.6	16.1	6.01e-01	0	57	0	14155776	65	5994
2026-01-04 10:03:59.39	343.66	17.29	-50.4	-54.5	17.2	6.02e-01	0	57	0	16252928	64	5598
2026-01-04 10:04:00.38	343.54	17.17	-50.0	-53.4	18.3	6.03e-01	0	57	0	17825792	63	5255
2026-01-04 10:04:01.37	343.42	17.06	-49.5	-52.5	19.3	6.01e-01	0	57	0	19922944	62	4998
2026-01-04 10:04:02.36	343.30	16.95	-49.3	-52.2	19.6	6.00e-01	0	57	0	21495808	62	4833
2026-01-04 10:04:03.36	343.18	16.84	-49.1	-52.0	19.8	6.01e-01	0	57	0	23592960	61	4995
2026-01-04 10:04:04.35	343.06	16.72	-48.9	-51.7	20.1	6.03e-01	0	57	0	25165824	61	4828
2026-01-04 10:04:05.35	342.95	16.61	-48.8	-51.5	20.2	6.03e-01	0	57	0	27262976	61	4749
2026-01-04 10:04:06.34	342.83	16.50	-48.8	-51.5	20.1	6.01e-01	0	57	0	29360128	61	4722
2026-01-04 10:04:07.32	342.72	16.39	-48.6	-51.2	20.3	6.02e-01	0	57	0	30932992	60	4821
2026-01-04 10:04:08.31	342.60	16.28	-48.5	-50.9	20.7	6.02e-01	0	57	0	33030144	60	4691
2026-01-04 10:04:09.30	342.49	16.17	-48.7	-51.3	20.2	6.01e-01	0	57	0	34603008	60	4907
2026-01-04 10:04:10.29	342.38	16.06	-49.0	-52.0	19.5	6.02e-01	0	57	0	36700160	60	5310
2026-01-04 10:04:11.28	342.27	15.95	-48.4	-51.0	20.2	6.00e-01	0	57	0	38273024	60	4717
2026-01-04 10:04:12.27	342.16	15.85	-48.3	-50.8	20.6	6.03e-01	0	57	0	40370176	59	4912
2026-01-04 10:04:13.25	342.05	15.74	-48.5	-51.2	20.1	6.00e-01	0	57	0	41943040	59	5142
2026-01-04 10:04:14.24	341.95	15.63	-48.8	-52.0	18.9	6.01e-01	0	57	0	44040192	60	5297
2026-01-04 10:04:15.23	341.84	15.53	-49.1	-52.9	17.7	6.02e-01	0	57	0	45613056	60	5861
2026-01-04 10:04:16.22	341.73	15.42	-49.3	-53.4	17.1	6.02e-01	0	57	0	47710208	60	6213
2026-01-04 10:04:17.20	341.63	15.31	-49.5	-54.4	15.8	5.97e-01	0	57	0	49283072	61	6623
2026-01-04 10:04:18.19	341.52	15.21	-49.7	-55.1	15.2	6.03e-01	0	57	0	51380224	61	7165
2026-01-04 10:04:19.18	341.42	15.10	-49.8	-55.8	14.0	6.04e-01	0	57	0	52953088	61	7789
2026-01-04 10:04:20.16	341.32	15.00	-49.8	-55.9	14.0	6.03e-01	0	57	0	55050240	62	7457
2026-01-04 10:04:21.15	341.22	14.90	-50.1	-57.5	12.1	6.04e-01	0	57	0	57147392	62	8941
2026-01-04 10:04:22.15	341.11	14.79	-50.0	-57.9	11.3	6.10e-01	0	57	0	58720256	62	9385
2026-01-04 10:04:23.13	341.01	14.69	-50.3	-59.6	9.7	6.23e-01	0	57	0	60817408	62	11331
2026-01-04 10:04:24.11	340.92	14.59	-50.1	-59.5	9.8	6.23e-01	0	57	0	62390272	62	11259
2026-01-04 10:04:25.10	340.82	14.48	-50.3	-61.0	8.1	6.45e-01	80	57	0	64487424	62	13332
2026-01-04 10:04:26.10	340.72	14.38	-50.1	-61.0	7.8	6.48e-01	88	57	0	66060288	62	13297
2026-01-04 10:04:27.09	340.62	14.28	-50.2	-62.5	6.6	6.74e-01	93	57	0	68157440	62	15831
2026-01-04 10:04:28.08	340.52	14.18	-50.3	-62.7	6.2	6.75e-01	91	57	0	69730304	62	16191
2026-01-04 10:04:29.07	340.43	14.07	-50.1	-63.4	5.7	6.90e-01	14	57	0	71303168	62	17483
2026-01-04 10:04:30.06	340.33	13.97	-50.2	-63.4	5.7	6.89e-01	84	57	0	72351744	62	17675
2026-01-04 10:04:31.06	340.24	13.87	-50.0	-64.4	4.9	7.10e-01	0	57	0	72876032	62	19807
2026-01-04 10:04:32.05	340.14	13.77	-50.1	-65.6	3.9	7.40e-01	0	57	104	72876032	62	22660
2026-01-04 10:04:33.03	340.05	13.67	-50.0	-66.5	4.2	7.44e-01	0	57	104	72876032	62	25196
2026-01-04 10:04:34.02	339.96	13.57	-49.9	-66.4	4.2	7.35e-01	0	57	104	72876032	62	24754
2026-01-04 10:04:35.00	339.87	13.48	-49.8	-67.3	4.0	7.46e-01	0	57	104	72876032	62	27389
2026-01-04 10:04:35.99	339.77	13.38	-49.9	-67.9	3.8	7.45e-01	0	57	104	72876032	62	29638
2026-01-04 10:04:36.98	339.68	13.28	-49.7	-68.0	3.8	7.46e-01	0	57	104	72876032	62	29938
2026-01-04 10:04:37.97	339.59	13.18	-49.8	-68.0	3.8	7.47e-01	0	57	104	72876032	62	29819
2026-01-04 10:04:38.94	339.51	13.09	-49.8	-68.4	3.8	7.45e-01	0	57	104	72876032	62	31174
2026-01-04 10:04:39.93	339.42	12.99	-49.8	-68.8	3.8	7.44e-01	0	57	104	72876032	62	32639
2026-01-04 10:04:40.91	339.33	12.89	-49.9	-69.3	3.8	7.47e-01	0	57	104	72876032	62	34640
2026-01-04 10:04:41.90	339.24	12.80	-49.9	-69.5	3.8	7.42e-01	0	57	104	72876032	62	35323
2026-01-04 10:04:42.88	339.16	12.70	-49.9	-68.5	3.8	7.49e-01	0	57	104	72876032	62	31523
2026-01-04 10:04:43.87	339.07	12.61	-49.9	-66.1	3.8	7.43e-01	0	57	104	72876032	62	23909
2026-01-04 10:04:44.87	338.99	12.51	-49.8	-62.9	5.8	6.87e-01	75	57	0	72876032	62	16662
2026-01-04 10:04:45.85	338.90	12.42	-49.8	-60.9	7.7	6.49e-01	91	57	0	1572864	62	13200
2026-01-04 10:04:46.84	338.82	12.32	-49.8	-59.5	9.2	6.30e-01	0	57	0	3145728	62	11231
2026-01-04 10:04:47.84	338.73	12.23	-49.9	-58.6	10.5	6.19e-01	0	57	0	5242880	62	10070
2026-01-04 10:04:48.83	338.65	12.13	-49.9	-57.4	11.9	6.12e-01	0	57	0	6815744	62	8833
2026-01-04 10:04:49.81	338.57	12.04	-49.8	-56.3	13.4	6.06e-01	0	57	0	8912896	62	7725
2026-01-04 10:04:50.79	338.49	11.95	-49.8	-55.3	14.8	6.03e-01	0	57	0	11010048	62	6898
2026-01-04 10:04:51.78	338.41	11.85	-49.9	-54.8	15.7	6.02e-01	0	57	0	12582912	62	6529
2026-01-04 10:04:52.78	338.33	11.76	-50.2	-55.0	15.9	6.03e-01	0	57	0	14680064	62	6679
2026-01-04 10:04:53.77	338.25	11.67	-50.1	-54.7	16.4	6.05e-01	0	57	0	16252928	62	6427
2026-01-04 10:04:54.76	338.17	11.58	-50.3	-54.9	16.3	6.00e-01	0	57	0	18350080	62	6608
2026-01-04 10:04:55.75	338.09	11.48	-50.3	-54.7	16.8	6.04e-01	0	57	0	19922944	62	6423
2026-01-04 10:04:56.73	338.01	11.39	-50.4	-54.3	17.5	6.02e-01	0	57	0	22020096	62	6149
2026-01-04 10:04:57.72	337.93	11.30	-50.3	-54.0	18.0	6.04e-01	0	57	0	23592960	62	5930
2026-01-04 10:04:58.71	337.86	11.21	-50.2	-53.6	18.5	6.03e-01	0	57	0	25690112	62	5684
2026-01-04 10:04:59.70	337.78	11.12	-50.2	-53.5	18.8	6.03e-01	0	57	0	27262976	62	5600
2026-01-04 10:05:00.70	337.70	11.03	-50.1	-53.3	19.0	6.04e-01	0	57	0	29360128	62	5486
2026-01-04 10:05:01.69	337.63	10.94	-50.1	-53.3	18.9	6.00e-01	0	57	0	31457280	62	5501
2026-01-04 10:05:02.68	337.55	10.85	-50.1	-53.3	19.0	6.02e-01	0	57	0	33030144	62	5483
2026-01-04 10:05:03.67	337.48	10.76	-49.8	-52.7	19.5	6.01e-01	0	57	0	35127296	62	5148
2026-01-04 10:05:04.67	337.40	10.67	-49.4	-52.0	20.2	6.04e-01	0	57	0	36700160	62	4754
2026-01-04 10:05:05.66	337.33	10.58	-49.1	-51.5	20.7	6.02e-01	0	57	0	38797312	61	4748
2026-01-04 10:05:06.65	337.25	10.50	-48.8	-51.1	21.1	6.03e-01	0	57	0	40370176	61	4508
2026-01-04 10:05:07.65	337.18	10.41	-48.5	-50.8	21.4	6.04e-01	0	57	0	42467328	60	4614
2026-01-04 10:05:08.64	337.11	10.32	-48.5	-50.7	21.4	6.03e-01	0	57	0	44040192	60	4588
2026-01-04 10:05:09.63	337.04	10.23	-48.5	-50.7	21.5	6.02e-01	0	57	0	46137344	60	4585
2026-01-04 10:05:10.62	336.97	10.15	-48.6	-50.9	21.3	6.02e-01	0	57	0	47710208	60	4675
2026-01-04 10:05:11.61	336.90	10.06	-48.6	-50.9	21.3	6.02e-01	0	57	0	49807360	60	4683
2026-01-04 10:05:12.60	336.83	9.97	-48.7	-51.0	21.2	6.02e-01	0	57	0	51904512	60	4747
2026-01-04 10:05:13.59	336.76	9.89	-48.8	-51.1	21.1	6.05e-01	0	57	0	53477376	60	4812
2026-01-04 10:05:14.58	336.69	9.80	-48.8	-51.1	21.0	6.05e-01	0	57	0	55574528	60	4813
2026-01-04 10:05:15.57	336.62	9.72	-48.8	-51.1	21.1	6.03e-01	0	57	0	57147392	60	4791
2026-01-04 10:05:16.57	336.55	9.63	-48.8	-51.2	21.0	6.02e-01	0	57	0	59244544	60	4822
2026-01-04 10:05:17.55	336.48	9.55	-48.8	-51.1	21.1	6.03e-01	0	57	0	60817408	60	4786
2026-01-04 10:05:18.54	336.41	9.46	-48.8	-51.2	21.1	6.01e-01	0	57	0	62914560	60	4820
2026-01-04 10:05:19.53	336.35	9.38	-48.8	-51.2	21.0	6.04e-01	0	57	0	64487424	60	4869
2026-01-04 10:05:20.52	336.28	9.29	-48.8	-51.2	21.0	6.05e-01	0	57	0	66584576	60	4841
2026-01-04 10:05:21.51	336.21	9.21	-48.9	-51.3	21.0	6.02e-01	0	57	0	68157440	60	4883
2026-01-04 10:05:22.50	336.15	9.13	-48.9	-51.4	20.9	6.02e-01	0	57	0	70254592	60	4938
2026-01-04 10:05:23.49	336.08	9.04	-48.8	-51.2	21.0	6.02e-01	0	57	0	72351744	60	4837
2026-01-04 10:05:24.48	336.02	8.96	-48.8	-51.2	21.0	6.02e-01	0	57	0	73924608	60	4837
2026-01-04 10:05:25.47	335.95	8.88	-49.0	-51.4	20.8	6.01e-01	0	57	0	75497472	60	4962
2026-01-04 10:05:26.46	335.89	8.79	-48.9	-51.4	20.8	6.05e-01	0	57	0	77594624	60	4947
2026-01-04 10:05:27.45	335.83	8.71	-48.9	-51.3	20.9	6.02e-01	0	57	0	79691776	60	4898
2026-01-04 10:05:28.43	335.76	8.63	-49.1	-51.6	20.6	6.04e-01	0	57	0	81264640	60	5078
2026-01-04 10:05:29.42	335.70	8.55	-49.1	-51.7	20.5	6.02e-01	0	57	0	83361792	60	5127
2026-01-04 10:05:30.41	335.64	8.47	-49.0	-51.5	20.8	6.06e-01	0	57	0	84934656	60	4986
2026-01-04 10:05:31.41	335.58	8.39	-48.9	-51.4	20.8	6.04e-01	0	57	0	87031808	60	4938
2026-01-04 10:05:32.39	335.52	8.31	-48.9	-51.3	20.8	6.03e-01	0	57	0	88604672	60	4906
2026-01-04 10:05:33.38	335.45	8.23	-49.0	-51.5	20.7	6.03e-01	0	57	0	90701824	60	4984
2026-01-04 10:05:34.36	335.39	8.15	-49.1	-51.6	20.6	6.01e-01	0	57	0	92274688	60	5057
2026-01-04 10:05:35.35	335.33	8.07	-48.9	-51.4	20.8	6.02e-01	0	57	0	94371840	60	4953
2026-01-04 10:05:36.34	335.27	7.99	-48.9	-51.3	20.8	6.01e-01	0	57	0	95944704	60	4921
2026-01-04 10:05:37.34	335.21	7.91	-49.0	-51.4	20.7	6.02e-01	0	57	0	98041856	60	4980
2026-01-04 10:05:38.32	335.15	7.83	-48.9	-51.4	20.8	6.04e-01	0	57	0	99614720	60	4929
2026-01-04 10:05:39.31	335.10	7.75	-49.0	-51.5	20.7	6.03e-01	0	57	0	101711872	60	4994
2026-01-04 10:05:40.30	335.04	7.67	-48.9	-51.3	20.8	6.01e-01	0	57	0	103809024	60	4922
2026-01-04 10:05:41.29	334.98	7.59	-49.0	-51.5	20.7	6.03e-01	0	57	0	105381888	60	4991
2026-01-04 10:05:42.29	334.92	7.51	-48.9	-51.4	20.8	6.01e-01	0	57	0	107479040	60	4927
2026-01-04 10:05:43.28	334.86	7.43	-49.1	-51.6	20.6	6.03e-01	0	57	0	109051904	60	5054
2026-01-04 10:05:44.27	334.81	7.36	-49.0	-51.5	20.7	6.01e-01	0	57	0	111149056	60	4996
2026-01-04 10:05:45.25	334.75	7.28	-49.1	-51.7	20.4	6.02e-01	0	57	0	112721920	60	5142
2026-01-04 10:05:46.25	334.69	7.20	-49.3	-52.0	20.1	6.02e-01	0	57	0	114819072	60	5303
2026-01-04 10:05:47.23	334.64	7.13	-49.3	-52.1	20.1	6.04e-01	0	57	0	116391936	60	5341
2026-01-04 10:05:48.23	334.58	7.05	-49.3	-51.9	20.2	6.03e-01	0	57	0	118489088	60	5269
2026-01-04 10:05:49.22	334.53	6.97	-49.4	-52.1	20.0	6.04e-01	0	57	0	120061952	60	5367
2026-01-04 10:05:50.20	334.47	6.90	-49.5	-52.2	19.9	6.01e-01	0	57	0	122159104	61	5159
2026-01-04 10:05:51.19	334.42	6.82	-49.3	-52.0	20.1	6.03e-01	0	57	0	124256256	61	5040
2026-01-04 10:05:52.18	334.36	6.74	-49.4	-52.2	19.9	6.05e-01	0	57	0	125829120	61	5121
2026-01-04 10:05:53.17	334.31	6.67	-49.4	-52.1	20.0	6.02e-01	0	57	0	127926272	61	5074
2026-01-04 10:05:54.17	334.25	6.59	-49.2	-51.9	20.2	6.02e-01	0	57	0	129499136	61	4954
2026-01-04 10:05:55.16	334.20	6.52	-49.2	-51.9	20.2	6.02e-01	0	57	0	131596288	61	4932
2026-01-04 10:05:56.15	334.15	6.44	-49.3	-52.0	20.1	6.04e-01	0	57	0	133169152	61	5034
2026-01-04 10:05:57.14	334.10	6.37	-49.5	-52.3	19.7	6.04e-01	0	57	0	135266304	61	5182
2026-01-04 10:05:58.13	334.04	6.29	-49.2	-51.9	20.1	6.01e-01	0	57	0	136839168	61	4983
2026-01-04 10:05:59.13	333.99	6.22	-49.2	-51.9	20.1	6.02e-01	0	57	0	138936320	61	4966
2026-01-04 10:06:00.12	333.94	6.14	-49.3	-52.1	19.9	6.03e-01	0	57	0	140509184	61	5075
2026-01-04 10:06:01.10	333.89	6.07	-49.5	-52.4	19.7	6.03e-01	0	57	0	142606336	61	5235
2026-01-04 10:06:02.09	333.84	5.99	-49.4	-52.3	19.7	6.03e-01	0	57	0	144703488	61	5173
2026-01-04 10:06:03.08	333.79	5.92	-49.5	-52.4	19.6	6.03e-01	0	57	0	146276352	61	5229
2026-01-04 10:06:04.07	333.74	5.85	-49.4	-52.3	19.7	6.04e-01	0	57	0	148373504	61	5171
2026-01-04 10:06:05.06	333.68	5.77	-49.4	-52.3	19.7	6.03e-01	0	57	0	149946368	61	5208
2026-01-04 10:06:06.05	333.63	5.70	-49.4	-52.3	19.8	6.02e-01	0	57	0	152043520	61	5169
2026-01-04 10:06:07.04	333.59	5.63	-49.6	-52.5	19.4	6.04e-01	0	57	0	153616384	61	5323
2026-01-04 10:06:08.03	333.54	5.56	-49.4	-52.4	19.6	6.05e-01	0	57	0	155713536	61	5231
2026-01-04 10:06:09.02	333.49	5.48	-49.5	-52.5	19.4	6.02e-01	0	57	0	157286400	61	5309
2026-01-04 10:06:10.01	333.44	5.41	-49.5	-52.5	19.4	6.03e-01	0	57	0	159383552	61	5328
