passes_logs/2026/01/04/R3.0SM8_Murmansk_STILSPACE/R3.0SM8_Murmansk_STILSPACE__20260104_093446_SUOMI_NPP_rec.log

#Pass ID: 20260104_093446_SUOMI NPP
#Satellite: SUOMI NPP
#Configuration: NPP
#almurnet v.1.7.20240730
#Start time: 2026-01-04 09:34:47

#Version: 2.2.20231116
#Station: R3.0SM8_Murmansk_STILSPACE
#Location: 33.092731 lon 68.902999 lat
#TLE: 1 37849U 11061A   26001.07732418  .00000182  00000+0  10735-3 0  9990
#TLE: 2 37849  98.7795 303.2470 0002580  87.2016 272.9455 14.19520779734739

#Time	Az	El	Level	Level2	SNR	BER	BlckErr	Temp	State	Recorded	gain1	gain2
2026-01-04 09:34:47.81	151.31	3.07	-52.4	-66.2	3.8	1.49e+00	0	46	0	0	67	17880
2026-01-04 09:34:48.79	151.32	3.14	-52.3	-66.1	3.8	1.49e+00	0	46	104	0	67	17590
2026-01-04 09:34:49.78	151.32	3.21	-52.3	-66.1	3.8	1.49e+00	0	46	104	0	67	17510
2026-01-04 09:34:50.77	151.32	3.27	-52.1	-66.0	3.8	1.49e+00	0	46	104	0	67	17387
2026-01-04 09:34:51.76	151.32	3.34	-52.1	-65.9	3.8	1.49e+00	0	46	104	0	67	17262
2026-01-04 09:34:52.76	151.32	3.41	-51.9	-65.8	3.8	1.49e+00	0	46	104	0	66	18059
2026-01-04 09:34:53.74	151.33	3.47	-51.8	-65.7	3.8	1.49e+00	0	46	104	0	66	17865
2026-01-04 09:34:54.73	151.33	3.54	-51.7	-65.5	3.8	1.49e+00	0	46	104	0	66	17448
2026-01-04 09:34:55.72	151.33	3.61	-51.4	-65.2	3.8	1.49e+00	0	47	104	0	65	17767
2026-01-04 09:34:56.72	151.33	3.67	-51.4	-65.2	3.8	1.49e+00	0	46	104	0	65	17783
2026-01-04 09:34:57.71	151.34	3.74	-51.3	-65.2	3.8	1.49e+00	0	46	104	0	65	17780
2026-01-04 09:34:58.69	151.34	3.81	-51.4	-65.2	3.8	1.49e+00	0	47	104	0	65	17782
2026-01-04 09:34:59.68	151.34	3.88	-51.4	-65.2	3.8	1.49e+00	0	47	104	0	65	17841
2026-01-04 09:35:00.68	151.34	3.95	-51.4	-65.2	3.8	1.49e+00	0	47	104	0	65	17804
2026-01-04 09:35:01.67	151.35	4.01	-51.4	-65.2	3.8	1.49e+00	0	47	104	0	65	17791
2026-01-04 09:35:02.66	151.35	4.08	-51.4	-65.2	3.8	1.49e+00	0	47	104	0	65	17708
2026-01-04 09:35:03.65	151.35	4.15	-51.4	-65.1	3.8	1.49e+00	0	47	104	0	65	17671
2026-01-04 09:35:04.64	151.35	4.22	-51.4	-65.0	3.8	1.49e+00	0	47	104	0	65	17373
2026-01-04 09:35:05.63	151.36	4.29	-51.4	-64.9	3.8	1.49e+00	0	47	104	0	65	17145
2026-01-04 09:35:06.62	151.36	4.36	-51.4	-64.7	3.8	1.49e+00	0	47	104	0	65	16832
2026-01-04 09:35:07.61	151.36	4.43	-51.3	-64.5	3.8	1.49e+00	0	47	104	0	65	16380
2026-01-04 09:35:08.61	151.36	4.50	-51.3	-64.2	3.8	1.49e+00	0	47	104	0	65	15837
2026-01-04 09:35:09.60	151.37	4.57	-51.3	-63.9	3.8	1.49e+00	0	47	104	0	65	15342
2026-01-04 09:35:10.60	151.37	4.64	-51.3	-63.5	3.8	1.49e+00	0	47	104	0	65	14589
2026-01-04 09:35:11.59	151.37	4.71	-51.3	-62.9	3.9	1.49e+00	0	47	104	0	65	13674
2026-01-04 09:35:12.58	151.37	4.78	-51.2	-62.5	4.0	1.49e+00	0	48	104	0	65	12981
2026-01-04 09:35:13.57	151.38	4.85	-51.1	-61.7	4.2	1.43e+00	0	48	0	0	65	11897
2026-01-04 09:35:14.57	151.38	4.92	-51.1	-60.9	4.4	1.29e+00	0	48	0	0	65	10883
2026-01-04 09:35:15.55	151.38	4.99	-51.0	-60.2	4.7	9.77e-01	0	48	0	2097152	65	10020
2026-01-04 09:35:16.54	151.38	5.06	-50.9	-59.5	5.1	7.11e-01	0	48	0	4194304	64	9753
2026-01-04 09:35:17.53	151.38	5.13	-50.8	-59.0	5.4	5.96e-01	0	48	0	5242880	64	9183
2026-01-04 09:35:18.52	151.39	5.20	-50.8	-59.2	5.3	5.18e-01	0	48	0	7340032	64	9394
2026-01-04 09:35:19.51	151.39	5.28	-51.0	-59.3	5.2	6.71e-01	0	48	0	9437184	64	9591
2026-01-04 09:35:20.50	151.39	5.35	-50.8	-58.3	6.0	4.51e-01	0	48	0	11534336	64	8473
2026-01-04 09:35:21.49	151.39	5.42	-50.6	-57.4	6.6	3.05e-01	0	48	0	12582912	64	7714
2026-01-04 09:35:22.48	151.40	5.49	-50.5	-57.0	6.9	1.78e-01	0	48	0	14680064	64	7356
2026-01-04 09:35:23.48	151.40	5.56	-50.4	-56.6	7.4	1.21e-01	0	48	0	16777216	63	7377
2026-01-04 09:35:24.47	151.40	5.64	-50.4	-56.4	7.7	9.49e-02	0	48	0	18874368	63	7228
2026-01-04 09:35:25.46	151.40	5.71	-50.3	-56.1	7.9	7.34e-02	0	49	0	20971520	63	7005
2026-01-04 09:35:26.45	151.41	5.78	-50.2	-55.6	8.3	5.67e-02	0	48	0	22020096	63	6641
2026-01-04 09:35:27.44	151.41	5.86	-50.1	-55.4	8.6	3.89e-02	0	49	0	24117248	63	6467
2026-01-04 09:35:28.42	151.41	5.93	-50.1	-55.4	8.6	4.25e-02	0	49	0	26214400	63	6443
2026-01-04 09:35:29.41	151.41	6.00	-50.1	-55.4	8.7	3.70e-02	0	49	0	28311552	63	6434
2026-01-04 09:35:30.40	151.41	6.08	-50.3	-55.8	8.2	4.01e-02	0	49	0	29360128	63	6776
2026-01-04 09:35:31.39	151.42	6.15	-50.2	-56.0	8.1	5.94e-02	0	49	0	31457280	63	6925
2026-01-04 09:35:32.38	151.42	6.22	-50.2	-55.6	8.5	5.61e-02	0	49	0	33554432	63	6592
2026-01-04 09:35:33.37	151.42	6.30	-50.1	-55.3	8.8	3.46e-02	0	49	0	35651584	63	6409
2026-01-04 09:35:34.36	151.42	6.37	-50.0	-54.8	9.3	2.00e-02	0	49	0	37748736	63	6014
2026-01-04 09:35:35.35	151.43	6.45	-49.8	-54.3	9.8	1.17e-02	0	49	0	38797312	62	6061
2026-01-04 09:35:36.34	151.43	6.52	-49.8	-54.1	10.1	1.03e-02	0	49	0	40894464	62	5913
2026-01-04 09:35:37.33	151.43	6.60	-49.8	-54.3	9.9	9.77e-03	0	49	0	42991616	62	6047
2026-01-04 09:35:38.33	151.43	6.68	-49.9	-54.6	9.6	1.34e-02	0	49	0	45088768	62	6215
2026-01-04 09:35:39.31	151.43	6.75	-49.8	-54.4	9.9	9.92e-03	0	49	0	46137344	62	6071
2026-01-04 09:35:40.29	151.44	6.83	-49.7	-54.1	10.2	8.71e-03	0	49	0	48234496	62	5876
2026-01-04 09:35:41.28	151.44	6.90	-49.7	-53.9	10.4	5.42e-03	0	49	0	50331648	62	5754
2026-01-04 09:35:42.27	151.44	6.98	-49.6	-53.8	10.5	3.56e-03	0	49	0	52428800	62	5672
2026-01-04 09:35:43.26	151.44	7.05	-49.6	-53.8	10.4	3.66e-03	0	50	0	53477376	62	5708
2026-01-04 09:35:44.24	151.45	7.13	-49.5	-53.7	10.6	3.80e-03	0	50	0	55574528	62	5615
2026-01-04 09:35:45.23	151.45	7.21	-49.6	-53.8	10.4	4.48e-03	0	49	0	57671680	62	5700
2026-01-04 09:35:46.22	151.45	7.29	-49.4	-53.3	11.0	2.09e-03	0	50	0	59768832	62	5390
2026-01-04 09:35:47.21	151.45	7.36	-49.4	-53.2	11.2	1.62e-03	0	50	0	61865984	61	5603
2026-01-04 09:35:48.20	151.45	7.44	-49.4	-53.2	11.1	1.49e-03	0	50	0	62914560	61	5621
2026-01-04 09:35:49.20	151.46	7.52	-49.4	-53.3	11.0	1.78e-03	0	50	0	65011712	61	5690
2026-01-04 09:35:50.18	151.46	7.60	-49.5	-53.4	10.9	1.69e-03	0	50	0	67108864	61	5771
2026-01-04 09:35:51.17	151.46	7.68	-49.5	-53.5	10.9	1.91e-03	0	50	0	69206016	61	5807
2026-01-04 09:35:52.16	151.46	7.75	-49.5	-53.7	10.7	2.97e-03	0	50	0	70254592	61	5928
2026-01-04 09:35:53.15	151.46	7.83	-49.5	-53.5	10.9	2.24e-03	0	50	0	72351744	61	5833
2026-01-04 09:35:54.13	151.47	7.91	-49.5	-53.4	11.0	1.73e-03	0	50	0	74448896	61	5744
2026-01-04 09:35:55.13	151.47	7.99	-49.6	-53.5	11.0	1.82e-03	0	50	0	76546048	61	5790
2026-01-04 09:35:56.12	151.47	8.07	-49.6	-53.6	10.8	2.77e-03	0	50	0	77594624	61	5920
2026-01-04 09:35:57.11	151.47	8.15	-49.5	-53.2	11.2	2.12e-03	0	50	0	79691776	61	5654
2026-01-04 09:35:58.10	151.47	8.23	-49.7	-53.6	10.8	2.14e-03	0	50	0	81788928	61	5888
2026-01-04 09:35:59.09	151.48	8.31	-49.8	-54.0	10.4	3.21e-03	0	50	0	83886080	61	6152
2026-01-04 09:36:00.08	151.48	8.39	-49.6	-53.5	10.9	2.61e-03	0	50	0	85983232	61	5825
2026-01-04 09:36:01.07	151.48	8.47	-49.5	-53.1	11.3	1.56e-03	0	50	0	87031808	61	5573
2026-01-04 09:36:02.05	151.48	8.56	-49.4	-53.0	11.5	8.94e-04	0	50	0	89128960	61	5470
2026-01-04 09:36:03.04	151.49	8.64	-49.3	-52.8	11.7	6.64e-04	0	51	0	91226112	61	5377
2026-01-04 09:36:04.03	151.49	8.72	-49.2	-52.7	11.8	4.33e-04	0	50	0	93323264	61	5294
2026-01-04 09:36:05.01	151.49	8.80	-49.2	-52.7	11.8	4.48e-04	0	50	0	94371840	61	5305
2026-01-04 09:36:06.01	151.49	8.88	-49.2	-52.8	11.8	3.90e-04	0	50	0	96468992	61	5343
2026-01-04 09:36:06.99	151.49	8.97	-49.3	-52.8	11.8	4.68e-04	0	51	0	98566144	61	5345
2026-01-04 09:36:07.99	151.50	9.05	-49.4	-53.0	11.5	6.90e-04	0	51	0	100663296	61	5526
2026-01-04 09:36:08.98	151.50	9.13	-49.3	-52.9	11.6	7.65e-04	0	51	0	101711872	61	5430
2026-01-04 09:36:09.98	151.50	9.22	-49.5	-53.2	11.4	6.39e-04	0	51	0	103809024	61	5611
2026-01-04 09:36:10.97	151.50	9.30	-49.3	-52.9	11.7	6.75e-04	0	51	0	105906176	61	5417
2026-01-04 09:36:11.96	151.50	9.38	-49.5	-53.2	11.4	6.55e-04	0	51	0	108003328	61	5625
2026-01-04 09:36:12.94	151.51	9.47	-49.4	-53.0	11.6	9.28e-04	0	51	0	109051904	61	5465
2026-01-04 09:36:13.92	151.51	9.55	-49.3	-52.8	11.8	5.01e-04	0	51	0	111149056	61	5380
2026-01-04 09:36:14.92	151.51	9.64	-49.3	-52.7	11.8	4.67e-04	0	51	0	113246208	61	5340
2026-01-04 09:36:15.91	151.51	9.72	-49.2	-52.6	11.9	5.51e-04	0	51	0	115343360	61	5276
2026-01-04 09:36:16.90	151.51	9.81	-49.3	-52.8	11.7	4.91e-04	0	51	0	117440512	61	5400
2026-01-04 09:36:17.89	151.52	9.89	-49.3	-52.7	11.9	6.29e-04	0	51	0	118489088	61	5309
2026-01-04 09:36:18.87	151.52	9.98	-49.3	-52.6	12.0	3.70e-04	0	51	0	120586240	61	5263
2026-01-04 09:36:19.86	151.52	10.07	-49.2	-52.6	12.0	3.70e-04	0	51	0	122683392	61	5257
2026-01-04 09:36:20.84	151.52	10.15	-49.1	-52.4	12.1	3.66e-04	0	51	0	124780544	61	5153
2026-01-04 09:36:21.83	151.52	10.24	-49.1	-52.3	12.4	1.70e-04	0	51	0	125829120	61	5069
2026-01-04 09:36:22.81	151.52	10.33	-49.0	-52.1	12.6	1.02e-04	0	51	0	127926272	61	4940
2026-01-04 09:36:23.81	151.53	10.41	-48.9	-51.9	12.8	5.49e-05	0	51	0	130023424	60	5108
2026-01-04 09:36:24.79	151.53	10.50	-48.8	-51.8	12.9	4.88e-05	0	51	0	132120576	60	5062
2026-01-04 09:36:25.78	151.53	10.59	-48.8	-51.8	12.8	4.73e-05	0	51	0	133169152	60	5063
2026-01-04 09:36:26.76	151.53	10.68	-48.8	-51.7	12.9	3.96e-05	0	51	0	135266304	60	5038
2026-01-04 09:36:27.74	151.53	10.76	-48.7	-51.6	13.0	3.66e-05	0	51	0	137363456	60	4983
2026-01-04 09:36:28.73	151.54	10.85	-48.8	-51.7	13.0	3.50e-05	0	51	0	139460608	60	4999
2026-01-04 09:36:29.71	151.54	10.94	-48.8	-51.6	13.0	3.12e-05	0	51	0	140509184	60	4978
2026-01-04 09:36:30.69	151.54	11.03	-48.7	-51.6	13.1	2.74e-05	0	51	0	142606336	60	4938
2026-01-04 09:36:31.69	151.54	11.12	-48.7	-51.5	13.2	1.98e-05	0	51	0	144703488	60	4919
2026-01-04 09:36:32.68	151.54	11.21	-48.8	-51.6	13.1	3.43e-05	0	52	0	146800640	60	4974
2026-01-04 09:36:33.67	151.54	11.30	-48.8	-51.7	13.1	3.81e-05	0	51	0	148897792	60	4992
2026-01-04 09:36:34.65	151.55	11.39	-48.7	-51.5	13.2	3.35e-05	0	52	0	149946368	60	4891
2026-01-04 09:36:35.65	151.55	11.49	-48.7	-51.6	13.2	2.89e-05	0	52	0	152043520	60	4945
2026-01-04 09:36:36.64	151.55	11.58	-48.7	-51.5	13.2	3.43e-05	0	52	0	154140672	60	4914
2026-01-04 09:36:37.63	151.55	11.67	-48.7	-51.5	13.3	1.90e-05	0	52	0	156237824	60	4875
2026-01-04 09:36:38.61	151.55	11.76	-48.7	-51.5	13.2	2.67e-05	0	52	0	157286400	60	4883
2026-01-04 09:36:39.60	151.56	11.86	-48.6	-51.4	13.4	1.06e-05	0	52	0	159383552	60	4827
2026-01-04 09:36:40.59	151.56	11.95	-48.7	-51.5	13.3	1.37e-05	0	52	0	161480704	60	4877
2026-01-04 09:36:41.58	151.56	12.04	-48.7	-51.5	13.3	3.28e-05	0	52	0	163577856	60	4878
2026-01-04 09:36:42.57	151.56	12.14	-48.5	-51.2	13.6	9.90e-06	0	52	0	165675008	60	4707
2026-01-04 09:36:43.56	151.56	12.23	-48.4	-51.0	13.9	9.10e-06	0	52	0	166723584	59	4874
2026-01-04 09:36:44.55	151.56	12.33	-48.3	-50.8	14.0	1.50e-06	0	52	0	168820736	59	4809
2026-01-04 09:36:45.55	151.57	12.42	-48.2	-50.7	14.1	0.00e+00	0	52	0	170917888	59	4716
2026-01-04 09:36:46.55	151.57	12.52	-48.3	-50.8	14.0	4.50e-06	0	52	0	173015040	59	4789
2026-01-04 09:36:47.54	151.57	12.61	-48.3	-50.7	14.2	1.50e-06	0	52	0	174063616	59	4711
2026-01-04 09:36:48.52	151.57	12.71	-48.3	-50.8	14.0	1.50e-06	0	52	0	176160768	59	4771
2026-01-04 09:36:49.51	151.57	12.81	-48.4	-50.9	13.9	5.30e-06	0	52	0	178257920	59	4866
2026-01-04 09:36:50.50	151.57	12.90	-48.2	-50.5	14.3	7.00e-07	0	52	0	180355072	59	4626
2026-01-04 09:36:51.49	151.57	13.00	-48.2	-50.6	14.2	7.00e-07	0	52	0	181403648	59	4673
2026-01-04 09:36:52.49	151.58	13.10	-48.2	-50.6	14.2	3.80e-06	0	52	0	183500800	59	4659
2026-01-04 09:36:53.48	151.58	13.20	-48.2	-50.5	14.3	7.00e-07	0	52	0	185597952	59	4623
2026-01-04 09:36:54.47	151.58	13.30	-48.3	-50.6	14.2	1.50e-06	0	52	0	187695104	59	4701
2026-01-04 09:36:55.47	151.58	13.40	-48.2	-50.5	14.3	7.00e-07	0	52	0	189792256	59	4620
2026-01-04 09:36:56.46	151.58	13.50	-48.1	-50.4	14.4	1.50e-06	0	52	0	190840832	59	4576
2026-01-04 09:36:57.44	151.58	13.59	-48.1	-50.4	14.4	7.00e-07	0	52	0	192937984	59	4564
2026-01-04 09:36:58.43	151.59	13.69	-48.1	-50.4	14.4	7.00e-07	0	52	0	195035136	59	4561
2026-01-04 09:36:59.43	151.59	13.80	-48.3	-50.6	14.2	1.50e-06	0	52	0	197132288	59	4685
2026-01-04 09:37:00.41	151.59	13.90	-48.3	-50.7	14.2	1.50e-06	0	52	0	198180864	59	4718
2026-01-04 09:37:01.40	151.59	14.00	-48.1	-50.4	14.5	2.20e-06	0	52	0	200278016	59	4560
2026-01-04 09:37:02.39	151.59	14.10	-48.2	-50.7	14.2	1.50e-06	0	53	0	202375168	59	4706
2026-01-04 09:37:03.38	151.59	14.20	-48.2	-50.5	14.4	1.50e-06	0	53	0	204472320	59	4625
2026-01-04 09:37:04.37	151.59	14.30	-48.1	-50.6	14.3	0.00e+00	0	53	0	205520896	59	4668
2026-01-04 09:37:05.37	151.60	14.41	-48.3	-50.7	14.2	3.80e-06	0	53	0	207618048	59	4742
2026-01-04 09:37:06.36	151.60	14.51	-48.2	-50.5	14.3	1.50e-06	0	53	0	209715200	59	4645
2026-01-04 09:37:07.35	151.60	14.62	-48.3	-50.7	14.2	3.00e-06	0	53	0	211812352	59	4741
2026-01-04 09:37:08.34	151.60	14.72	-48.5	-51.0	13.9	3.00e-06	0	53	0	213909504	59	4876
2026-01-04 09:37:09.33	151.60	14.83	-48.0	-50.4	14.4	7.00e-07	0	53	0	214958080	59	4570
2026-01-04 09:37:10.32	151.60	14.93	-47.9	-50.3	14.6	0.00e+00	0	53	0	217055232	59	4516
2026-01-04 09:37:11.31	151.60	15.04	-47.7	-50.1	14.7	7.00e-07	0	53	0	219152384	58	4681
2026-01-04 09:37:12.30	151.61	15.14	-47.6	-50.0	14.9	7.00e-07	0	53	0	221249536	58	4599
2026-01-04 09:37:13.28	151.61	15.25	-47.7	-50.0	14.8	0.00e+00	0	53	0	222298112	58	4636
2026-01-04 09:37:14.27	151.61	15.36	-47.6	-50.0	14.9	0.00e+00	0	53	0	224395264	58	4605
2026-01-04 09:37:15.25	151.61	15.46	-47.7	-50.1	14.8	0.00e+00	0	53	0	226492416	58	4683
2026-01-04 09:37:16.24	151.61	15.57	-47.9	-50.3	14.6	7.00e-07	0	53	0	228589568	58	4774
2026-01-04 09:37:17.23	151.61	15.68	-47.5	-49.7	15.1	0.00e+00	0	53	0	229638144	58	4481
2026-01-04 09:37:18.22	151.61	15.79	-47.5	-49.8	15.1	7.00e-07	0	53	0	231735296	58	4525
2026-01-04 09:37:19.21	151.61	15.90	-47.4	-49.6	15.2	0.00e+00	0	53	0	233832448	57	4702
2026-01-04 09:37:20.21	151.62	16.01	-47.4	-49.5	15.4	0.00e+00	0	53	0	235929600	57	4620
2026-01-04 09:37:21.20	151.62	16.12	-47.4	-49.6	15.2	0.00e+00	0	53	0	238026752	57	4686
2026-01-04 09:37:22.20	151.62	16.23	-47.3	-49.4	15.5	0.00e+00	0	53	0	239075328	57	4553
2026-01-04 09:37:23.19	151.62	16.35	-47.4	-49.5	15.3	0.00e+00	0	53	0	241172480	57	4623
2026-01-04 09:37:24.17	151.62	16.46	-47.5	-49.7	15.2	0.00e+00	0	53	0	243269632	57	4728
2026-01-04 09:37:25.16	151.62	16.57	-47.3	-49.4	15.4	0.00e+00	0	53	0	245366784	57	4588
2026-01-04 09:37:26.15	151.62	16.68	-47.6	-49.8	15.1	0.00e+00	0	53	0	246415360	57	4776
2026-01-04 09:37:27.15	151.62	16.80	-47.4	-49.7	15.2	0.00e+00	0	53	0	248512512	57	4714
2026-01-04 09:37:28.13	151.62	16.91	-47.5	-49.7	15.2	0.00e+00	0	53	0	250609664	57	4720
2026-01-04 09:37:29.12	151.62	17.03	-47.6	-49.9	15.0	0.00e+00	0	53	0	252706816	57	4824
2026-01-04 09:37:30.10	151.63	17.14	-47.6	-49.8	15.1	0.00e+00	0	53	0	253755392	57	4774
2026-01-04 09:37:31.09	151.63	17.26	-47.6	-49.8	15.0	0.00e+00	0	53	0	255852544	57	4805
2026-01-04 09:37:32.08	151.63	17.37	-47.6	-49.9	14.9	0.00e+00	0	53	0	257949696	57	4839
2026-01-04 09:37:33.07	151.63	17.49	-47.4	-49.6	15.2	0.00e+00	0	53	0	260046848	57	4688
2026-01-04 09:37:34.05	151.63	17.61	-47.5	-49.7	15.2	0.00e+00	0	53	0	262144000	57	4729
2026-01-04 09:37:35.04	151.63	17.72	-47.6	-49.8	15.1	0.00e+00	0	53	0	263192576	57	4771
2026-01-04 09:37:36.03	151.63	17.84	-47.5	-49.7	15.2	0.00e+00	0	53	0	265289728	57	4753
2026-01-04 09:37:37.02	151.63	17.96	-47.8	-50.1	14.8	0.00e+00	0	53	0	267386880	57	4928
2026-01-04 09:37:38.02	151.63	18.08	-47.6	-49.9	15.0	0.00e+00	0	53	0	269484032	57	4819
2026-01-04 09:37:39.01	151.63	18.20	-47.4	-49.5	15.4	0.00e+00	0	53	0	270532608	57	4605
2026-01-04 09:37:39.99	151.63	18.32	-47.1	-49.1	15.8	0.00e+00	0	53	0	272629760	57	4403
2026-01-04 09:37:40.98	151.64	18.45	-46.9	-48.9	16.0	0.00e+00	0	53	0	274726912	57	4306
2026-01-04 09:37:41.97	151.64	18.57	-46.9	-48.8	16.0	0.00e+00	0	53	0	276824064	56	4538
2026-01-04 09:37:42.96	151.64	18.69	-47.0	-49.0	15.9	0.00e+00	0	53	0	278921216	56	4611
2026-01-04 09:37:43.95	151.64	18.82	-46.8	-48.7	16.1	0.00e+00	0	53	0	279969792	56	4482
2026-01-04 09:37:44.94	151.64	18.94	-46.8	-48.7	16.2	0.00e+00	0	54	0	282066944	56	4454
2026-01-04 09:37:45.93	151.64	19.06	-47.0	-48.8	16.0	0.00e+00	0	54	0	284164096	56	4543
2026-01-04 09:37:46.92	151.64	19.19	-46.9	-48.8	16.0	0.00e+00	0	54	0	286261248	56	4536
2026-01-04 09:37:47.91	151.64	19.32	-46.8	-48.7	16.2	0.00e+00	0	53	0	287309824	56	4475
2026-01-04 09:37:48.90	151.64	19.44	-47.0	-48.9	15.9	0.00e+00	0	54	0	289406976	56	4594
2026-01-04 09:37:49.89	151.64	19.57	-46.9	-48.9	16.0	0.00e+00	0	54	0	291504128	56	4554
2026-01-04 09:37:50.89	151.64	19.70	-47.0	-48.9	16.0	0.00e+00	0	54	0	293601280	56	4573
2026-01-04 09:37:51.87	151.64	19.83	-47.1	-49.1	15.8	0.00e+00	0	54	0	294649856	56	4659
2026-01-04 09:37:52.86	151.64	19.96	-47.1	-49.0	15.9	0.00e+00	0	54	0	296747008	56	4644
2026-01-04 09:37:53.85	151.64	20.09	-47.1	-49.1	15.8	0.00e+00	0	54	0	298844160	56	4668
2026-01-04 09:37:54.84	151.64	20.22	-47.3	-49.3	15.6	0.00e+00	0	54	0	300941312	56	4794
2026-01-04 09:37:55.83	151.64	20.35	-47.3	-49.4	15.5	0.00e+00	0	54	0	301989888	56	4819
2026-01-04 09:37:56.82	151.64	20.48	-47.4	-49.6	15.4	0.00e+00	0	54	0	304087040	56	4957
2026-01-04 09:37:57.81	151.64	20.61	-47.3	-49.3	15.6	0.00e+00	0	54	0	306184192	56	4811
2026-01-04 09:37:58.80	151.65	20.75	-47.1	-49.0	15.9	0.00e+00	0	54	0	308281344	56	4644
2026-01-04 09:37:59.78	151.65	20.88	-47.1	-49.1	15.8	0.00e+00	0	54	0	310378496	56	4682
2026-01-04 09:38:00.78	151.65	21.02	-47.1	-49.1	15.8	0.00e+00	0	54	0	311427072	56	4674
2026-01-04 09:38:01.77	151.65	21.15	-47.1	-49.0	16.0	0.00e+00	0	54	0	313524224	56	4604
2026-01-04 09:38:02.76	151.65	21.29	-47.2	-49.1	15.8	0.00e+00	0	54	0	315621376	56	4689
2026-01-04 09:38:03.75	151.65	21.43	-47.1	-49.0	15.9	0.00e+00	0	54	0	317718528	56	4626
2026-01-04 09:38:04.74	151.65	21.56	-46.9	-48.8	16.2	0.00e+00	0	54	0	318767104	56	4504
2026-01-04 09:38:05.73	151.65	21.70	-46.9	-48.7	16.2	0.00e+00	0	54	0	320864256	56	4487
2026-01-04 09:38:06.71	151.65	21.84	-47.2	-49.2	15.7	0.00e+00	0	54	0	322961408	56	4743
2026-01-04 09:38:07.70	151.65	21.98	-47.2	-49.2	15.8	0.00e+00	0	54	0	325058560	56	4724
2026-01-04 09:38:08.70	151.65	22.12	-47.2	-49.2	15.8	0.00e+00	0	54	0	326107136	56	4715
2026-01-04 09:38:09.69	151.65	22.26	-47.3	-49.3	15.7	0.00e+00	0	54	0	328204288	56	4761
2026-01-04 09:38:10.68	151.65	22.41	-47.3	-49.3	15.6	0.00e+00	0	54	0	330301440	56	4806
2026-01-04 09:38:11.66	151.65	22.55	-47.5	-49.5	15.5	0.00e+00	0	54	0	332398592	56	4905
2026-01-04 09:38:12.65	151.65	22.69	-47.4	-49.4	15.6	0.00e+00	0	54	0	334495744	56	4851
2026-01-04 09:38:13.63	151.65	22.84	-47.4	-49.4	15.6	0.00e+00	0	54	0	335544320	56	4868
2026-01-04 09:38:14.62	151.65	22.98	-47.5	-49.5	15.5	0.00e+00	0	54	0	337641472	56	4897
2026-01-04 09:38:15.61	151.65	23.13	-48.0	-50.2	14.8	0.00e+00	0	54	0	339738624	57	5037
2026-01-04 09:38:16.60	151.65	23.28	-48.1	-50.3	14.7	0.00e+00	0	54	0	341835776	58	4808
2026-01-04 09:38:17.59	151.65	23.42	-47.6	-49.6	15.4	0.00e+00	0	54	0	342884352	58	4410
2026-01-04 09:38:18.57	151.65	23.57	-47.3	-49.2	15.8	0.00e+00	0	54	0	344981504	57	4491
2026-01-04 09:38:19.56	151.64	23.72	-47.2	-49.0	16.0	0.00e+00	0	54	0	347078656	57	4380
2026-01-04 09:38:20.56	151.64	23.87	-47.1	-48.9	16.1	0.00e+00	0	54	0	349175808	57	4339
2026-01-04 09:38:21.55	151.64	24.03	-47.2	-49.0	16.0	0.00e+00	0	54	0	350224384	57	4377
2026-01-04 09:38:22.54	151.64	24.18	-47.3	-49.2	15.8	0.00e+00	0	54	0	352321536	57	4478
2026-01-04 09:38:23.54	151.64	24.33	-47.5	-49.5	15.5	0.00e+00	0	54	0	354418688	57	4647
2026-01-04 09:38:24.52	151.64	24.49	-47.5	-49.6	15.5	0.00e+00	0	54	0	356515840	57	4663
2026-01-04 09:38:25.52	151.64	24.64	-47.7	-49.8	15.2	0.00e+00	0	54	0	358612992	57	4783
2026-01-04 09:38:26.50	151.64	24.80	-47.9	-50.2	14.9	7.00e-07	0	54	0	359661568	57	4989
2026-01-04 09:38:27.49	151.64	24.96	-47.5	-49.5	15.5	0.00e+00	0	54	0	361758720	57	4647
2026-01-04 09:38:28.46	151.64	25.11	-47.4	-49.4	15.7	0.00e+00	0	55	0	363855872	57	4570
2026-01-04 09:38:29.45	151.64	25.27	-47.4	-49.4	15.6	0.00e+00	0	54	0	365953024	57	4588
2026-01-04 09:38:30.43	151.64	25.43	-47.4	-49.4	15.6	0.00e+00	0	54	0	367001600	57	4576
2026-01-04 09:38:31.41	151.64	25.59	-47.5	-49.5	15.5	0.00e+00	0	54	0	369098752	57	4634
2026-01-04 09:38:32.40	151.64	25.75	-47.7	-49.7	15.3	0.00e+00	0	54	0	371195904	57	4757
2026-01-04 09:38:33.39	151.64	25.91	-47.5	-49.5	15.6	0.00e+00	0	54	0	373293056	57	4611
2026-01-04 09:38:34.38	151.63	26.08	-47.3	-49.3	15.8	0.00e+00	0	54	0	374341632	57	4501
2026-01-04 09:38:35.37	151.63	26.24	-47.2	-49.2	15.9	0.00e+00	0	54	0	376438784	57	4470
2026-01-04 09:38:36.36	151.63	26.41	-47.5	-49.5	15.7	0.00e+00	0	54	0	378535936	57	4625
2026-01-04 09:38:37.34	151.63	26.57	-47.7	-49.9	15.1	0.00e+00	0	54	0	380633088	57	4852
2026-01-04 09:38:38.34	151.63	26.74	-47.7	-49.9	15.2	0.00e+00	0	54	0	381681664	57	4841
2026-01-04 09:38:39.33	151.63	26.91	-47.8	-50.0	15.1	0.00e+00	0	54	0	383778816	57	4891
2026-01-04 09:38:40.32	151.63	27.08	-47.9	-50.2	14.9	0.00e+00	0	55	0	385875968	57	5003
2026-01-04 09:38:41.30	151.63	27.25	-48.2	-50.6	14.5	0.00e+00	0	54	0	387973120	58	4951
2026-01-04 09:38:42.29	151.63	27.42	-48.2	-50.7	14.5	7.00e-07	0	55	0	390070272	58	5009
2026-01-04 09:38:43.28	151.62	27.60	-48.2	-50.5	14.7	1.50e-06	0	55	0	391118848	58	4885
2026-01-04 09:38:44.28	151.62	27.77	-48.1	-50.5	14.7	7.00e-07	0	54	0	393216000	58	4872
2026-01-04 09:38:45.27	151.62	27.95	-48.5	-51.1	14.1	7.00e-07	0	55	0	395313152	58	5234
2026-01-04 09:38:46.26	151.62	28.13	-48.4	-50.8	14.3	0.00e+00	0	54	0	397410304	58	5089
2026-01-04 09:38:47.25	151.62	28.30	-48.2	-50.6	14.6	0.00e+00	0	55	0	398458880	58	4931
2026-01-04 09:38:48.25	151.62	28.49	-48.6	-51.2	13.9	3.00e-06	0	55	0	400556032	59	5016
2026-01-04 09:38:49.24	151.61	28.67	-48.6	-51.2	13.9	1.50e-06	0	55	0	402653184	59	4994
2026-01-04 09:38:50.22	151.61	28.85	-48.6	-51.2	14.0	3.80e-06	0	55	0	404750336	59	5018
2026-01-04 09:38:51.21	151.61	29.03	-48.6	-51.2	13.9	3.80e-06	0	55	0	406847488	59	5004
2026-01-04 09:38:52.20	151.61	29.21	-48.9	-51.7	13.4	2.36e-05	0	55	0	407896064	59	5329
2026-01-04 09:38:53.20	151.61	29.40	-48.8	-51.6	13.5	1.29e-05	0	55	0	409993216	59	5237
2026-01-04 09:38:54.19	151.60	29.58	-49.0	-52.0	13.2	1.06e-05	0	55	0	412090368	59	5476
2026-01-04 09:38:55.17	151.60	29.77	-49.0	-51.8	13.3	1.67e-05	0	55	0	414187520	59	5392
2026-01-04 09:38:56.16	151.60	29.96	-48.6	-51.1	13.9	6.80e-06	0	55	0	415236096	60	4705
2026-01-04 09:38:57.15	151.60	30.15	-48.6	-51.2	13.9	7.00e-07	0	55	0	417333248	59	5020
2026-01-04 09:38:58.14	151.60	30.34	-48.2	-50.5	14.6	0.00e+00	0	55	0	419430400	59	4646
2026-01-04 09:38:59.12	151.59	30.53	-48.1	-50.4	14.7	0.00e+00	0	55	0	421527552	59	4567
2026-01-04 09:39:00.11	151.59	30.72	-48.3	-50.6	14.6	0.00e+00	0	55	0	422576128	59	4655
2026-01-04 09:39:01.10	151.59	30.92	-48.1	-50.3	14.7	7.00e-07	0	55	0	424673280	59	4542
2026-01-04 09:39:02.08	151.59	31.11	-48.3	-50.6	14.5	0.00e+00	0	55	0	426770432	59	4695
2026-01-04 09:39:03.08	151.58	31.31	-48.6	-51.2	13.9	3.00e-06	0	55	0	428867584	59	5011
2026-01-04 09:39:04.06	151.58	31.51	-48.4	-50.8	14.3	2.20e-06	0	55	0	430964736	59	4807
2026-01-04 09:39:05.06	151.58	31.71	-48.9	-51.7	13.4	3.80e-06	0	55	0	432013312	59	5305
2026-01-04 09:39:06.05	151.57	31.92	-48.9	-51.9	13.2	1.83e-05	0	55	0	434110464	60	5146
2026-01-04 09:39:07.04	151.57	32.12	-49.1	-52.1	13.0	1.14e-05	0	55	0	436207616	60	5274
2026-01-04 09:39:08.03	151.57	32.32	-48.9	-51.9	13.2	2.28e-05	0	55	0	438304768	60	5101
2026-01-04 09:39:09.03	151.56	32.53	-49.0	-52.1	13.0	3.12e-05	0	55	0	439353344	60	5240
2026-01-04 09:39:10.02	151.56	32.74	-48.9	-51.9	13.3	1.22e-05	0	55	0	441450496	60	5133
2026-01-04 09:39:11.01	151.56	32.95	-49.0	-52.2	12.9	2.82e-05	0	55	0	443547648	60	5340
2026-01-04 09:39:12.01	151.55	33.16	-49.1	-52.2	12.9	6.63e-05	0	55	0	445644800	60	5335
2026-01-04 09:39:13.00	151.55	33.37	-49.3	-52.6	12.5	1.01e-04	0	55	0	446693376	60	5535
2026-01-04 09:39:13.99	151.55	33.58	-49.3	-52.6	12.5	8.39e-05	0	55	0	448790528	60	5543
2026-01-04 09:39:14.98	151.54	33.80	-49.5	-52.9	12.2	1.03e-04	0	55	0	450887680	60	5764
2026-01-04 09:39:15.97	151.54	34.02	-49.2	-52.6	12.5	1.45e-04	0	55	0	452984832	60	5573
2026-01-04 09:39:16.96	151.54	34.23	-48.8	-51.7	13.5	6.33e-05	0	55	0	455081984	60	4988
2026-01-04 09:39:17.95	151.53	34.45	-48.8	-51.6	13.5	1.29e-05	0	55	0	456130560	60	4973
2026-01-04 09:39:18.94	151.53	34.67	-48.6	-51.3	13.8	5.30e-06	0	55	0	458227712	60	4799
2026-01-04 09:39:19.92	151.52	34.89	-48.6	-51.3	13.9	1.50e-06	0	55	0	460324864	59	5044
2026-01-04 09:39:20.91	151.52	35.12	-48.3	-50.7	14.5	7.00e-07	0	55	0	462422016	59	4730
2026-01-04 09:39:21.90	151.51	35.34	-47.9	-50.1	15.1	0.00e+00	0	55	0	463470592	58	4671
2026-01-04 09:39:22.89	151.51	35.57	-47.6	-49.7	15.4	0.00e+00	0	55	0	465567744	58	4468
2026-01-04 09:39:23.88	151.50	35.80	-47.5	-49.5	15.6	0.00e+00	0	55	0	467664896	57	4634
2026-01-04 09:39:24.86	151.50	36.03	-47.3	-49.3	15.8	0.00e+00	0	55	0	469762048	57	4514
2026-01-04 09:39:25.86	151.49	36.26	-47.5	-49.5	15.7	0.00e+00	0	55	0	471859200	57	4612
2026-01-04 09:39:26.86	151.49	36.50	-47.0	-48.8	16.3	0.00e+00	0	55	0	472907776	57	4285
2026-01-04 09:39:27.85	151.48	36.73	-46.9	-48.6	16.6	0.00e+00	0	55	0	475004928	56	4419
2026-01-04 09:39:28.83	151.48	36.97	-46.5	-48.1	17.0	0.00e+00	0	55	0	477102080	56	4161
2026-01-04 09:39:29.82	151.47	37.21	-46.3	-47.9	17.1	0.00e+00	0	55	0	479199232	55	4322
2026-01-04 09:39:30.81	151.47	37.45	-46.5	-48.2	16.7	0.00e+00	0	55	0	480247808	55	4478
2026-01-04 09:39:31.80	151.46	37.69	-46.4	-48.0	17.1	0.00e+00	0	55	0	482344960	55	4354
2026-01-04 09:39:32.79	151.46	37.94	-46.6	-48.3	16.7	0.00e+00	0	55	0	484442112	55	4503
2026-01-04 09:39:33.79	151.45	38.18	-47.0	-48.8	16.2	0.00e+00	0	55	0	486539264	55	4813
2026-01-04 09:39:34.78	151.44	38.43	-46.9	-48.8	16.2	0.00e+00	0	55	0	487587840	55	4784
2026-01-04 09:39:35.78	151.44	38.68	-46.8	-48.6	16.4	0.00e+00	0	55	0	489684992	55	4704
2026-01-04 09:39:36.77	151.43	38.94	-46.5	-48.2	16.8	0.00e+00	0	55	0	491782144	55	4487
2026-01-04 09:39:37.76	151.42	39.19	-46.4	-48.1	17.0	0.00e+00	0	55	0	493879296	55	4392
2026-01-04 09:39:38.75	151.42	39.44	-46.4	-48.1	16.9	0.00e+00	0	55	0	494927872	55	4401
2026-01-04 09:39:39.74	151.41	39.70	-46.4	-48.1	16.9	0.00e+00	0	55	0	497025024	55	4413
2026-01-04 09:39:40.73	151.40	39.96	-46.5	-48.1	16.9	0.00e+00	0	55	0	499122176	55	4437
2026-01-04 09:39:41.73	151.40	40.22	-46.5	-48.1	16.9	0.00e+00	0	55	0	501219328	55	4441
2026-01-04 09:39:42.72	151.39	40.49	-46.7	-48.4	16.7	0.00e+00	0	55	0	503316480	55	4562
2026-01-04 09:39:43.71	151.38	40.75	-46.7	-48.3	16.7	0.00e+00	0	55	0	504365056	55	4518
2026-01-04 09:39:44.70	151.37	41.02	-46.8	-48.6	16.5	0.00e+00	0	55	0	506462208	55	4652
2026-01-04 09:39:45.69	151.37	41.29	-46.9	-48.6	16.4	0.00e+00	0	55	0	508559360	55	4673
2026-01-04 09:39:46.68	151.36	41.56	-46.5	-48.2	16.8	0.00e+00	0	55	0	510656512	55	4483
2026-01-04 09:39:47.67	151.35	41.83	-46.9	-48.7	16.4	0.00e+00	0	55	0	512753664	55	4708
2026-01-04 09:39:48.67	151.34	42.11	-47.4	-49.4	15.9	0.00e+00	0	55	0	513802240	56	4815
2026-01-04 09:39:49.66	151.33	42.39	-47.5	-49.5	15.7	0.00e+00	0	55	0	515899392	56	4871
2026-01-04 09:39:50.65	151.32	42.66	-47.5	-49.6	15.6	0.00e+00	0	55	0	517996544	57	4680
2026-01-04 09:39:51.64	151.31	42.95	-47.7	-50.0	15.2	0.00e+00	0	55	0	520093696	57	4871
2026-01-04 09:39:52.63	151.30	43.23	-47.5	-49.6	15.6	0.00e+00	0	55	0	521142272	57	4678
2026-01-04 09:39:53.63	151.29	43.52	-47.3	-49.2	16.0	0.00e+00	0	55	0	523239424	57	4455
2026-01-04 09:39:54.62	151.28	43.80	-47.4	-49.4	15.8	0.00e+00	0	55	0	525336576	57	4578
2026-01-04 09:39:55.61	151.27	44.09	-47.3	-49.2	16.1	0.00e+00	0	55	0	527433728	57	4445
2026-01-04 09:39:56.60	151.26	44.39	-47.4	-49.4	15.8	0.00e+00	0	55	0	528482304	57	4569
2026-01-04 09:39:57.59	151.25	44.68	-47.7	-49.9	15.2	0.00e+00	0	55	0	530579456	57	4847
2026-01-04 09:39:58.58	151.24	44.98	-47.9	-50.3	14.9	0.00e+00	0	55	0	532676608	57	5054
2026-01-04 09:39:59.57	151.23	45.28	-48.4	-51.1	14.1	1.50e-06	0	55	0	534773760	58	5233
2026-01-04 09:40:00.57	151.22	45.58	-48.9	-51.9	13.4	1.06e-05	0	55	0	536870912	59	5450
2026-01-04 09:40:01.56	151.21	45.88	-49.3	-52.8	12.4	5.41e-05	0	55	0	537919488	60	5680
2026-01-04 09:40:02.56	151.19	46.19	-49.6	-53.4	11.9	2.60e-04	0	55	0	540016640	61	5751
2026-01-04 09:40:03.55	151.18	46.50	-49.7	-53.6	11.5	8.48e-04	0	55	0	542113792	61	5865
2026-01-04 09:40:04.54	151.17	46.81	-49.5	-53.3	11.9	7.79e-04	0	55	0	544210944	61	5666
2026-01-04 09:40:05.52	151.15	47.12	-49.7	-53.7	11.5	8.12e-04	0	55	0	545259520	61	5960
2026-01-04 09:40:06.51	151.14	47.43	-49.7	-53.6	11.6	1.19e-03	0	55	0	547356672	61	5866
2026-01-04 09:40:07.50	151.13	47.75	-49.3	-52.9	12.3	4.96e-04	0	55	0	549453824	61	5405
2026-01-04 09:40:08.50	151.11	48.07	-49.1	-52.6	12.5	1.12e-04	0	55	0	551550976	61	5249
2026-01-04 09:40:09.50	151.10	48.39	-48.7	-51.8	13.3	1.44e-05	0	55	0	552599552	60	5072
2026-01-04 09:40:10.49	151.08	48.72	-48.3	-51.0	14.2	9.90e-06	0	55	0	554696704	59	4892
2026-01-04 09:40:11.48	151.07	49.05	-48.1	-50.5	14.6	7.00e-07	0	55	0	556793856	59	4626
2026-01-04 09:40:12.47	151.05	49.37	-47.9	-50.1	15.1	0.00e+00	0	55	0	558891008	58	4702
2026-01-04 09:40:13.47	151.03	49.71	-47.5	-49.6	15.6	0.00e+00	0	55	0	560988160	58	4400
2026-01-04 09:40:14.46	151.02	50.04	-47.4	-49.4	15.8	0.00e+00	0	55	0	562036736	57	4578
2026-01-04 09:40:15.45	151.00	50.38	-47.0	-48.9	16.2	0.00e+00	0	55	0	564133888	57	4336
2026-01-04 09:40:16.43	150.98	50.71	-46.9	-48.7	16.4	0.00e+00	0	55	0	566231040	57	4239
2026-01-04 09:40:17.43	150.97	51.06	-46.6	-48.2	16.9	0.00e+00	0	55	0	568328192	56	4230
2026-01-04 09:40:18.42	150.95	51.40	-46.4	-48.1	17.0	0.00e+00	0	55	0	569376768	55	4413
2026-01-04 09:40:19.41	150.93	51.75	-46.3	-48.0	17.1	0.00e+00	0	55	0	571473920	55	4343
2026-01-04 09:40:20.39	150.91	52.09	-46.3	-47.9	17.2	0.00e+00	0	55	0	573571072	55	4306
2026-01-04 09:40:21.38	150.89	52.44	-46.6	-48.3	16.8	0.00e+00	0	55	0	575668224	55	4498
2026-01-04 09:40:22.37	150.87	52.80	-47.2	-49.1	16.1	0.00e+00	0	55	0	577765376	56	4679
2026-01-04 09:40:23.36	150.85	53.15	-47.2	-49.1	16.1	0.00e+00	0	55	0	578813952	56	4666
2026-01-04 09:40:24.35	150.82	53.51	-47.2	-49.1	16.2	0.00e+00	0	56	0	580911104	56	4652
2026-01-04 09:40:25.34	150.80	53.87	-47.1	-49.0	16.2	0.00e+00	0	55	0	583008256	56	4631
2026-01-04 09:40:26.34	150.78	54.24	-47.0	-48.8	16.3	0.00e+00	0	55	0	585105408	56	4538
2026-01-04 09:40:27.33	150.75	54.61	-46.9	-48.6	16.6	0.00e+00	0	55	0	586153984	56	4411
2026-01-04 09:40:28.32	150.73	54.98	-46.4	-47.9	17.2	0.00e+00	0	55	0	588251136	56	4097
2026-01-04 09:40:29.30	150.70	55.34	-46.3	-47.8	17.3	0.00e+00	0	55	0	590348288	55	4253
2026-01-04 09:40:30.29	150.68	55.72	-46.2	-47.7	17.4	0.00e+00	0	56	0	592445440	55	4215
2026-01-04 09:40:31.28	150.65	56.09	-46.8	-48.4	16.7	0.00e+00	0	56	0	593494016	55	4598
2026-01-04 09:40:32.27	150.62	56.47	-47.3	-49.2	16.0	0.00e+00	0	55	0	595591168	56	4736
2026-01-04 09:40:33.26	150.59	56.85	-47.9	-50.0	15.3	0.00e+00	0	56	0	597688320	57	4904
2026-01-04 09:40:34.24	150.56	57.24	-47.5	-49.5	15.7	0.00e+00	0	56	0	599785472	57	4605
2026-01-04 09:40:35.23	150.53	57.62	-47.5	-49.4	15.8	0.00e+00	0	56	0	601882624	57	4547
2026-01-04 09:40:36.22	150.50	58.01	-47.3	-49.1	16.1	0.00e+00	0	56	0	602931200	57	4435
2026-01-04 09:40:37.20	150.47	58.40	-47.7	-49.8	15.5	0.00e+00	0	55	0	605028352	57	4774
2026-01-04 09:40:38.20	150.43	58.80	-48.4	-50.9	14.3	0.00e+00	0	55	0	607125504	58	5131
2026-01-04 09:40:39.20	150.40	59.20	-48.2	-50.7	14.5	7.00e-07	0	56	0	609222656	58	5036
2026-01-04 09:40:40.18	150.36	59.60	-47.4	-49.4	15.7	0.00e+00	0	55	0	610271232	57	4585
2026-01-04 09:40:41.17	150.33	60.00	-46.8	-48.6	16.5	0.00e+00	0	55	0	612368384	56	4414
2026-01-04 09:40:42.16	150.29	60.40	-46.9	-48.7	16.4	0.00e+00	0	55	0	614465536	56	4453
2026-01-04 09:40:43.15	150.25	60.81	-47.4	-49.5	15.7	0.00e+00	0	55	0	616562688	56	4873
2026-01-04 09:40:44.14	150.21	61.22	-47.2	-49.2	15.9	0.00e+00	0	55	0	617611264	56	4729
2026-01-04 09:40:45.13	150.16	61.63	-46.8	-48.6	16.5	0.00e+00	0	56	0	619708416	56	4405
2026-01-04 09:40:46.12	150.12	62.05	-46.4	-48.0	17.0	0.00e+00	0	55	0	621805568	55	4388
2026-01-04 09:40:47.11	150.07	62.47	-46.1	-47.7	17.4	0.00e+00	0	56	0	623902720	55	4211
2026-01-04 09:40:48.10	150.02	62.89	-45.7	-47.0	18.0	0.00e+00	0	55	0	625999872	54	4140
2026-01-04 09:40:49.09	149.97	63.31	-45.3	-46.5	18.5	0.00e+00	0	55	0	627048448	53	4127
2026-01-04 09:40:50.09	149.92	63.74	-45.1	-46.3	18.6	0.00e+00	0	55	0	629145600	53	4005
2026-01-04 09:40:51.07	149.87	64.16	-46.0	-47.5	17.6	0.00e+00	0	56	0	631242752	53	4614
2026-01-04 09:40:52.06	149.81	64.59	-46.2	-47.7	17.4	0.00e+00	0	56	0	633339904	54	4473
2026-01-04 09:40:53.05	149.75	65.03	-47.0	-48.7	16.5	0.00e+00	0	56	0	634388480	56	4476
2026-01-04 09:40:54.04	149.69	65.46	-46.9	-48.5	16.7	0.00e+00	0	55	0	636485632	56	4380
2026-01-04 09:40:55.03	149.63	65.90	-46.8	-48.3	17.0	0.00e+00	0	56	0	638582784	56	4267
2026-01-04 09:40:56.02	149.56	66.34	-47.3	-49.0	16.2	0.00e+00	0	55	0	640679936	56	4648
2026-01-04 09:40:57.00	149.49	66.78	-48.0	-50.2	15.2	0.00e+00	0	56	0	641728512	57	4989
2026-01-04 09:40:57.98	149.42	67.22	-48.1	-50.2	15.2	0.00e+00	0	56	0	643825664	58	4726
2026-01-04 09:40:58.98	149.34	67.67	-48.2	-50.3	15.0	0.00e+00	0	56	0	645922816	58	4807
2026-01-04 09:40:59.97	149.26	68.12	-48.6	-51.1	14.2	7.00e-07	0	56	0	648019968	59	4930
2026-01-04 09:41:00.96	149.18	68.57	-49.3	-52.2	13.0	1.29e-05	0	56	0	650117120	60	5335
2026-01-04 09:41:01.96	149.09	69.03	-49.6	-52.8	12.7	1.01e-04	0	56	0	651165696	61	5383
2026-01-04 09:41:02.95	149.00	69.48	-50.1	-54.2	11.0	8.04e-04	0	56	0	653262848	62	5929
2026-01-04 09:41:03.94	148.91	69.94	-50.8	-55.9	9.2	9.42e-03	0	56	0	655360000	63	6837
2026-01-04 09:41:04.92	148.81	70.40	-50.7	-55.6	9.6	1.69e-02	0	56	0	657457152	63	6632
2026-01-04 09:41:05.92	148.70	70.86	-50.0	-53.6	11.6	2.66e-03	0	56	0	658505728	63	5249
2026-01-04 09:41:06.91	148.59	71.33	-49.5	-52.8	12.5	5.15e-04	0	56	0	660602880	61	5356
2026-01-04 09:41:07.90	148.47	71.80	-49.7	-53.0	12.2	9.61e-05	0	56	0	662700032	61	5528
2026-01-04 09:41:08.89	148.34	72.26	-49.9	-53.5	11.8	5.21e-04	0	56	0	664797184	61	5794
2026-01-04 09:41:09.88	148.21	72.73	-50.0	-53.8	11.4	1.39e-03	0	56	0	665845760	62	5714
2026-01-04 09:41:10.87	148.07	73.21	-49.8	-53.3	12.0	5.60e-04	0	56	0	667942912	62	5359
2026-01-04 09:41:11.86	147.92	73.68	-49.5	-52.7	12.6	1.20e-04	0	56	0	670040064	62	4991
2026-01-04 09:41:12.86	147.76	74.16	-49.5	-52.7	12.7	9.68e-05	0	56	0	672137216	61	5298
2026-01-04 09:41:13.85	147.59	74.64	-49.8	-53.2	12.1	1.97e-04	0	56	0	674234368	61	5627
2026-01-04 09:41:14.84	147.40	75.12	-50.0	-53.8	11.5	3.97e-04	0	56	0	675282944	61	5995
2026-01-04 09:41:15.83	147.21	75.60	-49.3	-52.3	13.0	2.01e-04	0	56	0	677380096	61	5050
2026-01-04 09:41:16.82	147.00	76.08	-49.3	-52.4	13.0	1.06e-05	0	56	0	679477248	61	5116
2026-01-04 09:41:17.81	146.78	76.56	-50.3	-54.5	10.7	8.43e-04	0	56	0	681574400	62	6152
2026-01-04 09:41:18.80	146.53	77.05	-50.9	-56.0	9.2	1.10e-02	0	56	0	682622976	63	6925
2026-01-04 09:41:19.79	146.27	77.53	-50.3	-54.5	10.6	1.12e-02	0	56	0	684720128	63	5804
2026-01-04 09:41:20.77	145.99	78.02	-50.4	-54.6	10.5	2.37e-03	0	56	0	686817280	63	5921
2026-01-04 09:41:21.76	145.68	78.51	-50.8	-56.0	9.1	1.51e-02	0	56	0	688914432	63	6896
2026-01-04 09:41:22.74	145.35	78.99	-50.8	-56.2	8.9	1.68e-02	0	56	0	689963008	63	7054
2026-01-04 09:41:23.73	144.98	79.48	-50.1	-54.1	11.1	2.28e-03	0	56	0	692060160	63	5569
2026-01-04 09:41:24.72	144.57	79.97	-49.1	-52.0	13.3	1.11e-04	0	56	0	694157312	61	4879
2026-01-04 09:41:25.70	144.12	80.46	-48.4	-50.6	14.7	0.00e+00	0	56	0	696254464	59	4686
2026-01-04 09:41:26.69	143.62	80.95	-48.6	-51.0	14.2	7.00e-07	0	56	0	698351616	59	4925
2026-01-04 09:41:27.67	143.07	81.44	-49.8	-53.4	11.8	2.50e-04	0	56	0	699400192	61	5738
2026-01-04 09:41:28.66	142.44	81.93	-49.0	-52.0	13.2	1.84e-04	0	56	0	701497344	61	4894
2026-01-04 09:41:29.64	141.74	82.42	-48.1	-50.2	15.0	7.00e-07	0	56	0	703594496	59	4493
2026-01-04 09:41:30.63	140.93	82.91	-47.6	-49.7	15.5	0.00e+00	0	56	0	705691648	58	4443
2026-01-04 09:41:31.62	140.00	83.41	-47.0	-48.7	16.5	0.00e+00	0	56	0	706740224	57	4209
2026-01-04 09:41:32.61	138.91	83.90	-46.1	-47.6	17.5	0.00e+00	0	56	0	708837376	55	4158
2026-01-04 09:41:33.59	137.65	84.38	-46.0	-47.4	17.7	0.00e+00	0	56	0	710934528	54	4309
2026-01-04 09:41:34.59	136.12	84.87	-46.3	-47.8	17.2	0.00e+00	0	56	0	713031680	54	4537
2026-01-04 09:41:35.57	134.30	85.35	-46.6	-48.3	16.8	0.00e+00	0	56	0	714080256	55	4496
2026-01-04 09:41:36.55	132.06	85.82	-46.9	-48.7	16.5	0.00e+00	0	56	0	716177408	55	4723
2026-01-04 09:41:37.54	129.23	86.29	-46.9	-48.6	16.6	0.00e+00	0	56	0	718274560	56	4413
2026-01-04 09:41:38.54	125.54	86.75	-48.1	-50.3	14.9	0.00e+00	0	56	0	720371712	58	4774
2026-01-04 09:41:39.53	120.71	87.19	-50.0	-53.7	11.4	2.37e-04	0	56	0	722468864	61	5958
2026-01-04 09:41:40.51	114.22	87.60	-50.1	-54.0	11.2	8.22e-04	0	56	0	723517440	62	5825
2026-01-04 09:41:41.50	105.12	87.97	-51.5	-58.1	7.3	1.61e-02	0	56	0	725614592	64	8357
2026-01-04 09:41:42.49	92.45	88.27	-51.6	-58.5	6.5	2.65e-01	0	56	0	727711744	65	8196
2026-01-04 09:41:43.48	75.72	88.45	-51.3	-57.1	8.2	4.79e-02	0	56	0	729808896	65	6991
2026-01-04 09:41:44.47	56.60	88.48	-51.7	-58.8	6.3	9.37e-02	0	56	0	730857472	65	8531
2026-01-04 09:41:45.46	38.82	88.34	-52.0	-60.5	5.1	5.50e-01	0	56	0	732954624	66	9788
2026-01-04 09:41:46.44	24.98	88.08	-51.6	-58.2	7.2	3.84e-01	0	56	0	735051776	66	7494
2026-01-04 09:41:47.43	14.84	87.73	-51.9	-59.4	6.0	2.02e-01	0	56	0	737148928	66	8629
2026-01-04 09:41:48.42	7.58	87.33	-52.2	-61.7	4.6	7.53e-01	0	56	0	738197504	66	11225
2026-01-04 09:41:49.41	2.28	86.89	-52.4	-63.3	4.1	1.25e+00	0	56	0	739246080	66	13481
2026-01-04 09:41:50.39	358.34	86.44	-52.6	-65.7	3.8	1.49e+00	0	56	104	739246080	66	17807
2026-01-04 09:41:51.39	355.24	85.97	-52.5	-66.4	3.8	1.49e+00	0	56	104	739246080	67	18187
2026-01-04 09:41:52.37	352.84	85.50	-52.4	-65.9	3.8	1.49e+00	0	56	104	739246080	67	17188
2026-01-04 09:41:53.35	350.90	85.03	-52.5	-65.8	3.8	1.49e+00	0	56	104	739246080	67	17002
2026-01-04 09:41:54.35	349.27	84.54	-52.5	-66.1	3.8	1.49e+00	0	56	104	739246080	67	17482
2026-01-04 09:41:55.34	347.92	84.05	-52.6	-65.9	3.8	1.49e+00	0	56	104	739246080	67	17179
2026-01-04 09:41:56.33	346.78	83.56	-52.5	-65.7	3.8	1.49e+00	0	56	104	739246080	67	16765
2026-01-04 09:41:57.32	345.81	83.07	-52.6	-65.9	3.8	1.49e+00	0	56	104	739246080	67	17207
2026-01-04 09:41:58.31	344.96	82.58	-52.5	-66.2	3.8	1.49e+00	0	56	104	739246080	67	17844
2026-01-04 09:41:59.30	344.22	82.08	-52.6	-66.5	3.8	1.49e+00	0	56	104	739246080	67	18321
2026-01-04 09:42:00.29	343.57	81.59	-52.6	-66.2	3.8	1.49e+00	0	56	104	739246080	67	17867
2026-01-04 09:42:01.28	342.99	81.10	-52.5	-66.1	3.8	1.49e+00	0	56	104	739246080	67	17579
2026-01-04 09:42:02.26	342.48	80.61	-52.6	-66.2	3.8	1.49e+00	0	56	104	739246080	67	17745
2026-01-04 09:42:03.25	342.02	80.12	-52.6	-66.2	3.8	1.49e+00	0	56	104	739246080	67	17766
2026-01-04 09:42:04.24	341.60	79.63	-52.6	-66.2	3.8	1.49e+00	0	56	104	739246080	67	17826
2026-01-04 09:42:05.23	341.22	79.14	-52.5	-66.3	3.8	1.49e+00	0	56	104	739246080	67	18043
2026-01-04 09:42:06.22	340.87	78.65	-52.6	-66.4	3.8	1.49e+00	0	56	104	739246080	67	18117
2026-01-04 09:42:07.21	340.55	78.16	-52.7	-66.2	3.8	1.49e+00	0	56	104	739246080	67	17821
2026-01-04 09:42:08.20	340.26	77.67	-52.6	-66.2	3.8	1.49e+00	0	56	104	739246080	67	17768
2026-01-04 09:42:09.18	340.00	77.19	-52.6	-66.4	3.8	1.49e+00	0	56	104	739246080	67	18131
2026-01-04 09:42:10.18	339.75	76.70	-52.5	-66.4	3.8	1.49e+00	0	56	104	739246080	67	18098
2026-01-04 09:42:11.16	339.52	76.22	-52.5	-66.4	3.8	1.49e+00	0	56	104	739246080	67	18215
2026-01-04 09:42:12.16	339.31	75.74	-52.6	-66.4	3.8	1.49e+00	0	56	104	739246080	67	18259
2026-01-04 09:42:13.14	339.11	75.26	-52.7	-66.4	3.8	1.49e+00	0	56	104	739246080	67	18193
2026-01-04 09:42:14.13	338.92	74.78	-52.6	-66.4	3.8	1.49e+00	0	56	104	739246080	67	18118
2026-01-04 09:42:15.13	338.75	74.30	-52.6	-66.4	3.8	1.49e+00	0	56	104	739246080	67	18110
2026-01-04 09:42:16.11	338.59	73.83	-52.6	-66.4	3.8	1.49e+00	0	56	104	739246080	67	18155
2026-01-04 09:42:17.09	338.44	73.36	-52.6	-66.4	3.8	1.49e+00	0	56	104	739246080	67	18302
2026-01-04 09:42:18.09	338.29	72.88	-52.6	-66.4	3.8	1.49e+00	0	56	104	739246080	67	18282
2026-01-04 09:42:19.07	338.16	72.42	-52.7	-66.5	3.8	1.49e+00	0	56	104	739246080	67	18315
2026-01-04 09:42:20.06	338.03	71.95	-52.6	-66.4	3.8	1.49e+00	0	56	104	739246080	67	18292
2026-01-04 09:42:21.04	337.91	71.49	-52.6	-66.4	3.8	1.49e+00	0	56	104	739246080	67	18279
2026-01-04 09:42:22.04	337.80	71.02	-52.6	-66.5	3.8	1.49e+00	0	56	104	739246080	67	18331
2026-01-04 09:42:23.03	337.69	70.56	-52.6	-66.5	3.8	1.49e+00	0	56	104	739246080	67	18321
2026-01-04 09:42:24.02	337.58	70.10	-52.7	-66.4	3.8	1.49e+00	0	56	104	739246080	67	18288
2026-01-04 09:42:25.00	337.49	69.64	-52.5	-66.5	3.8	1.49e+00	0	56	104	739246080	67	18310
2026-01-04 09:42:25.99	337.40	69.19	-52.5	-66.4	3.8	1.49e+00	0	56	104	739246080	67	18283
2026-01-04 09:42:26.98	337.31	68.73	-52.6	-66.4	3.8	1.49e+00	0	56	104	739246080	67	18203
2026-01-04 09:42:27.96	337.22	68.29	-52.6	-66.4	3.8	1.49e+00	0	56	104	739246080	67	18213
2026-01-04 09:42:28.93	337.14	67.85	-52.7	-66.4	3.8	1.49e+00	0	56	104	739246080	67	18159
2026-01-04 09:42:29.92	337.07	67.40	-52.6	-66.4	3.8	1.49e+00	0	56	104	739246080	67	18278
2026-01-04 09:42:30.91	336.99	66.95	-52.7	-66.4	3.8	1.49e+00	0	56	104	739246080	67	18291
2026-01-04 09:42:31.90	336.92	66.51	-52.6	-66.4	3.8	1.49e+00	0	56	104	739246080	67	18287
2026-01-04 09:42:32.89	336.86	66.07	-52.7	-66.4	3.8	1.49e+00	0	56	104	739246080	67	18281
2026-01-04 09:42:33.88	336.79	65.63	-52.7	-66.5	3.8	1.49e+00	0	56	104	739246080	67	18337
2026-01-04 09:42:34.87	336.73	65.20	-52.6	-66.4	3.8	1.49e+00	0	56	104	739246080	67	18279
2026-01-04 09:42:35.86	336.67	64.77	-52.6	-66.4	3.8	1.49e+00	0	56	104	739246080	67	18281
2026-01-04 09:42:36.85	336.61	64.34	-52.6	-66.4	3.8	1.49e+00	0	56	104	739246080	67	18256
2026-01-04 09:42:37.84	336.56	63.91	-52.6	-66.4	3.8	1.49e+00	0	56	104	739246080	67	18203
2026-01-04 09:42:38.82	336.51	63.49	-52.6	-66.4	3.8	1.49e+00	0	56	104	739246080	67	18186
2026-01-04 09:42:39.82	336.46	63.06	-52.6	-66.3	3.8	1.49e+00	0	56	104	739246080	67	18095
2026-01-04 09:42:40.81	336.41	62.64	-52.6	-66.4	3.8	1.49e+00	0	56	104	739246080	67	18141
2026-01-04 09:42:41.79	336.36	62.23	-52.6	-66.4	3.8	1.49e+00	0	56	104	739246080	67	18227
2026-01-04 09:42:42.79	336.32	61.81	-52.6	-66.4	3.8	1.49e+00	0	56	104	739246080	67	18222
2026-01-04 09:42:43.77	336.27	61.40	-52.5	-66.4	3.8	1.49e+00	0	56	104	739246080	67	18220
2026-01-04 09:42:44.76	336.23	60.99	-52.5	-66.4	3.8	1.49e+00	0	56	104	739246080	67	18247
2026-01-04 09:42:45.75	336.19	60.58	-52.6	-66.4	3.8	1.49e+00	0	56	104	739246080	67	18196
2026-01-04 09:42:46.74	336.15	60.17	-52.6	-66.4	3.8	1.49e+00	0	56	104	739246080	67	18224
2026-01-04 09:42:47.72	336.11	59.78	-52.6	-66.4	3.8	1.49e+00	0	56	104	739246080	67	18170
2026-01-04 09:42:48.71	336.08	59.38	-52.6	-66.4	3.8	1.49e+00	0	56	104	739246080	67	18200
2026-01-04 09:42:49.70	336.04	58.98	-52.6	-66.4	3.8	1.49e+00	0	56	104	739246080	67	18176
2026-01-04 09:42:50.69	336.01	58.58	-52.6	-66.4	3.8	1.49e+00	0	56	104	739246080	67	18224
2026-01-04 09:42:51.68	335.97	58.19	-52.4	-66.4	3.8	1.49e+00	0	56	104	739246080	67	18214
2026-01-04 09:42:52.68	335.94	57.80	-52.6	-66.4	3.8	1.49e+00	0	56	104	739246080	67	18219
2026-01-04 09:42:53.66	335.91	57.41	-52.5	-66.4	3.8	1.49e+00	0	57	104	739246080	67	18210
2026-01-04 09:42:54.65	335.88	57.03	-52.5	-66.4	3.8	1.49e+00	0	56	104	739246080	67	18177
2026-01-04 09:42:55.63	335.85	56.65	-52.6	-66.4	3.8	1.49e+00	0	56	104	739246080	67	18197
2026-01-04 09:42:56.63	335.82	56.27	-52.4	-66.4	3.8	1.49e+00	0	56	104	739246080	67	18164
2026-01-04 09:42:57.61	335.80	55.90	-52.6	-66.4	3.8	1.49e+00	0	56	104	739246080	67	18208
2026-01-04 09:42:58.60	335.77	55.52	-52.4	-66.4	3.8	1.49e+00	0	56	104	739246080	67	18216
2026-01-04 09:42:59.59	335.75	55.15	-52.4	-66.4	3.8	1.49e+00	0	56	104	739246080	67	18166
2026-01-04 09:43:00.59	335.72	54.78	-52.6	-66.4	3.8	1.49e+00	0	56	104	739246080	67	18227
2026-01-04 09:43:01.58	335.70	54.41	-52.5	-66.4	3.8	1.49e+00	0	56	104	739246080	67	18201
2026-01-04 09:43:02.57	335.67	54.05	-52.4	-66.4	3.8	1.49e+00	0	57	104	739246080	67	18135
2026-01-04 09:43:03.55	335.65	53.69	-52.6	-66.4	3.8	1.49e+00	0	56	104	739246080	67	18191
2026-01-04 09:43:04.53	335.63	53.34	-52.5	-66.4	3.8	1.49e+00	0	57	104	739246080	67	18144
2026-01-04 09:43:05.52	335.61	52.98	-52.6	-66.4	3.8	1.49e+00	0	57	104	739246080	67	18154
2026-01-04 09:43:06.51	335.59	52.63	-52.6	-66.4	3.8	1.49e+00	0	56	104	739246080	67	18157
2026-01-04 09:43:07.50	335.57	52.27	-52.6	-66.4	3.8	1.49e+00	0	56	104	739246080	67	18171
2026-01-04 09:43:08.50	335.55	51.92	-52.6	-66.4	3.8	1.49e+00	0	56	104	739246080	67	18194
2026-01-04 09:43:09.49	335.53	51.58	-52.6	-66.4	3.8	1.49e+00	0	56	104	739246080	67	18164
2026-01-04 09:43:10.48	335.51	51.23	-52.6	-66.4	3.8	1.49e+00	0	56	104	739246080	67	18176
2026-01-04 09:43:11.46	335.49	50.89	-52.6	-66.4	3.8	1.49e+00	0	56	104	739246080	67	18140
2026-01-04 09:43:12.45	335.47	50.56	-52.6	-66.4	3.8	1.49e+00	0	56	104	739246080	67	18176
2026-01-04 09:43:13.44	335.45	50.22	-52.6	-66.4	3.8	1.49e+00	0	56	104	739246080	67	18147
2026-01-04 09:43:14.42	335.44	49.89	-52.5	-66.4	3.8	1.49e+00	0	57	104	739246080	67	18156
2026-01-04 09:43:15.41	335.42	49.56	-52.5	-66.4	3.8	1.49e+00	0	57	104	739246080	67	18140
2026-01-04 09:43:16.41	335.41	49.23	-52.6	-66.4	3.8	1.49e+00	0	57	104	739246080	67	18129
2026-01-04 09:43:17.39	335.39	48.90	-52.5	-66.4	3.8	1.49e+00	0	57	104	739246080	67	18176
2026-01-04 09:43:18.37	335.38	48.58	-52.5	-66.4	3.8	1.49e+00	0	57	104	739246080	67	18132
2026-01-04 09:43:19.36	335.36	48.26	-52.5	-66.4	3.8	1.49e+00	0	57	104	739246080	67	18147
2026-01-04 09:43:20.35	335.35	47.94	-52.6	-66.3	3.8	1.49e+00	0	57	104	739246080	67	18095
2026-01-04 09:43:21.34	335.33	47.62	-52.5	-66.4	3.8	1.49e+00	0	57	104	739246080	67	18142
2026-01-04 09:43:22.32	335.32	47.31	-52.5	-66.4	3.8	1.49e+00	0	56	104	739246080	67	18121
2026-01-04 09:43:23.32	335.31	47.00	-52.5	-66.3	3.8	1.49e+00	0	57	104	739246080	67	18091
2026-01-04 09:43:24.30	335.29	46.69	-52.4	-66.4	3.8	1.49e+00	0	56	104	739246080	67	18116
2026-01-04 09:43:25.29	335.28	46.38	-52.5	-66.3	3.8	1.49e+00	0	57	104	739246080	67	18055
2026-01-04 09:43:26.28	335.27	46.08	-52.5	-66.4	3.8	1.49e+00	0	57	104	739246080	67	18115
2026-01-04 09:43:27.27	335.26	45.77	-52.5	-66.3	3.8	1.49e+00	0	57	104	739246080	67	18075
2026-01-04 09:43:28.25	335.25	45.48	-52.4	-66.4	3.8	1.49e+00	0	56	104	739246080	67	18118
2026-01-04 09:43:29.24	335.23	45.18	-52.5	-66.3	3.8	1.49e+00	0	57	104	739246080	67	18087
2026-01-04 09:43:30.22	335.22	44.88	-52.4	-66.3	3.8	1.49e+00	0	57	104	739246080	67	18065
2026-01-04 09:43:31.21	335.21	44.59	-52.5	-66.3	3.8	1.49e+00	0	57	104	739246080	67	18049
2026-01-04 09:43:32.20	335.20	44.30	-52.5	-66.3	3.8	1.49e+00	0	56	104	739246080	67	18095
2026-01-04 09:43:33.19	335.19	44.01	-52.5	-66.4	3.8	1.49e+00	0	56	104	739246080	67	18125
2026-01-04 09:43:34.19	335.18	43.72	-52.5	-66.4	3.8	1.49e+00	0	57	104	739246080	67	18110
2026-01-04 09:43:35.18	335.17	43.43	-52.5	-66.3	3.8	1.49e+00	0	57	104	739246080	67	18095
2026-01-04 09:43:36.16	335.16	43.15	-52.5	-66.4	3.8	1.49e+00	0	57	104	739246080	67	18104
2026-01-04 09:43:37.15	335.15	42.87	-52.6	-66.3	3.8	1.49e+00	0	57	104	739246080	67	18076
2026-01-04 09:43:38.14	335.14	42.59	-52.6	-66.4	3.8	1.49e+00	0	57	104	739246080	67	18103
2026-01-04 09:43:39.13	335.14	42.31	-52.5	-66.3	3.8	1.49e+00	0	57	104	739246080	67	18095
2026-01-04 09:43:40.12	335.13	42.04	-52.5	-66.3	3.8	1.49e+00	0	57	104	739246080	67	18095
2026-01-04 09:43:41.11	335.12	41.76	-52.6	-66.3	3.8	1.49e+00	0	57	104	739246080	67	18081
2026-01-04 09:43:42.10	335.11	41.49	-52.5	-66.3	3.8	1.49e+00	0	57	104	739246080	67	18083
2026-01-04 09:43:43.09	335.10	41.22	-52.5	-66.3	3.8	1.49e+00	0	57	104	739246080	67	18051
2026-01-04 09:43:44.08	335.10	40.96	-52.6	-66.3	3.8	1.49e+00	0	57	104	739246080	67	18093
2026-01-04 09:43:45.08	335.09	40.69	-52.5	-66.4	3.8	1.49e+00	0	57	104	739246080	67	18137
2026-01-04 09:43:46.07	335.08	40.43	-52.5	-66.3	3.8	1.49e+00	0	57	104	739246080	67	18091
2026-01-04 09:43:47.05	335.07	40.17	-52.5	-66.3	3.8	1.49e+00	0	57	104	739246080	67	18045
2026-01-04 09:43:48.04	335.07	39.91	-52.4	-66.3	3.8	1.49e+00	0	57	104	739246080	67	18024
2026-01-04 09:43:49.03	335.06	39.65	-52.5	-66.3	3.8	1.49e+00	0	57	104	739246080	67	18063
2026-01-04 09:43:50.02	335.05	39.39	-52.5	-66.3	3.8	1.49e+00	0	57	104	739246080	67	18045
2026-01-04 09:43:51.01	335.05	39.14	-52.4	-66.3	3.8	1.49e+00	0	57	104	739246080	67	18094
2026-01-04 09:43:52.01	335.04	38.89	-52.5	-66.3	3.8	1.49e+00	0	57	104	739246080	67	18083
2026-01-04 09:43:52.99	335.03	38.64	-52.5	-66.3	3.8	1.49e+00	0	57	104	739246080	67	18064
2026-01-04 09:43:53.98	335.03	38.39	-52.5	-66.3	3.8	1.49e+00	0	57	104	739246080	67	18064
2026-01-04 09:43:54.97	335.02	38.14	-52.5	-66.3	3.8	1.49e+00	0	57	104	739246080	67	18070
2026-01-04 09:43:55.96	335.02	37.90	-52.5	-66.3	3.8	1.49e+00	0	57	104	739246080	67	17995
2026-01-04 09:43:56.95	335.01	37.66	-52.5	-66.3	3.8	1.49e+00	0	57	104	739246080	67	18056
2026-01-04 09:43:57.94	335.01	37.42	-52.5	-66.3	3.8	1.49e+00	0	57	104	739246080	67	18052
2026-01-04 09:43:58.93	335.00	37.18	-52.5	-66.3	3.8	1.49e+00	0	57	104	739246080	67	18045
2026-01-04 09:43:59.92	334.99	36.94	-52.5	-66.3	3.8	1.49e+00	0	57	104	739246080	67	18047
2026-01-04 09:44:00.91	334.99	36.70	-52.3	-66.3	3.8	1.49e+00	0	57	104	739246080	67	18027
2026-01-04 09:44:01.89	334.98	36.47	-52.5	-66.3	3.8	1.49e+00	0	57	104	739246080	67	17980
2026-01-04 09:44:02.88	334.98	36.24	-52.5	-66.3	3.8	1.49e+00	0	57	104	739246080	67	18052
2026-01-04 09:44:03.86	334.98	36.01	-52.4	-66.3	3.8	1.49e+00	0	57	104	739246080	67	17993
2026-01-04 09:44:04.86	334.97	35.78	-52.4	-66.3	3.8	1.49e+00	0	57	104	739246080	67	17983
2026-01-04 09:44:05.85	334.97	35.55	-52.3	-66.3	3.8	1.49e+00	0	57	104	739246080	67	18014
2026-01-04 09:44:06.83	334.96	35.33	-52.5	-66.3	3.8	1.49e+00	0	57	104	739246080	67	18052
2026-01-04 09:44:07.83	334.96	35.10	-52.4	-66.3	3.8	1.49e+00	0	56	104	739246080	67	18050
2026-01-04 09:44:08.82	334.95	34.88	-52.4	-66.3	3.8	1.49e+00	0	57	104	739246080	67	18046
2026-01-04 09:44:09.81	334.95	34.66	-52.4	-66.3	3.8	1.49e+00	0	57	104	739246080	67	18020
2026-01-04 09:44:10.80	334.95	34.44	-52.5	-66.3	3.8	1.49e+00	0	57	104	739246080	67	18037
2026-01-04 09:44:11.79	334.94	34.22	-52.5	-66.3	3.8	1.49e+00	0	57	104	739246080	67	18005
2026-01-04 09:44:12.79	334.94	34.00	-52.5	-66.3	3.8	1.49e+00	0	57	104	739246080	67	18034
2026-01-04 09:44:13.77	334.94	33.79	-52.4	-66.3	3.8	1.49e+00	0	57	104	739246080	67	17990
2026-01-04 09:44:14.76	334.93	33.57	-52.5	-66.3	3.8	1.49e+00	0	57	104	739246080	67	18045
2026-01-04 09:44:15.75	334.93	33.36	-52.5	-66.3	3.8	1.49e+00	0	57	104	739246080	67	17975
2026-01-04 09:44:16.74	334.93	33.15	-52.5	-66.3	3.8	1.49e+00	0	57	104	739246080	67	17973
2026-01-04 09:44:17.72	334.92	32.94	-52.5	-66.3	3.8	1.49e+00	0	57	104	739246080	67	17892
2026-01-04 09:44:18.71	334.92	32.74	-52.5	-66.3	3.8	1.49e+00	0	57	104	739246080	67	17961
2026-01-04 09:44:19.69	334.92	32.53	-52.5	-66.3	3.8	1.49e+00	0	57	104	739246080	67	17975
2026-01-04 09:44:20.68	334.91	32.33	-52.5	-66.3	3.8	1.49e+00	0	57	104	739246080	67	17940
2026-01-04 09:44:21.67	334.91	32.12	-52.5	-66.3	3.8	1.49e+00	0	57	104	739246080	67	17962
2026-01-04 09:44:22.67	334.91	31.92	-52.4	-66.3	3.8	1.49e+00	0	57	104	739246080	67	17898
2026-01-04 09:44:23.65	334.91	31.72	-52.3	-66.3	3.8	1.49e+00	0	57	104	739246080	67	17943
2026-01-04 09:44:24.64	334.90	31.52	-52.3	-66.3	3.8	1.49e+00	0	56	104	739246080	67	17892
2026-01-04 09:44:25.63	334.90	31.32	-52.4	-66.3	3.8	1.49e+00	0	57	104	739246080	67	17899
2026-01-04 09:44:26.63	334.90	31.13	-52.4	-66.3	3.8	1.49e+00	0	57	104	739246080	67	17930
2026-01-04 09:44:27.61	334.90	30.93	-52.4	-66.3	3.8	1.49e+00	0	57	104	739246080	67	17937
2026-01-04 09:44:28.60	334.89	30.74	-52.3	-66.2	3.8	1.49e+00	0	57	104	739246080	67	17870
2026-01-04 09:44:29.59	334.89	30.55	-52.5	-66.3	3.8	1.49e+00	0	57	104	739246080	67	17910
2026-01-04 09:44:30.58	334.89	30.35	-52.3	-66.3	3.8	1.49e+00	0	57	104	739246080	67	17905
2026-01-04 09:44:31.57	334.89	30.16	-52.4	-66.3	3.8	1.49e+00	0	57	104	739246080	67	17944
2026-01-04 09:44:32.56	334.88	29.98	-52.3	-66.3	3.8	1.49e+00	0	57	104	739246080	67	17894
2026-01-04 09:44:33.55	334.88	29.79	-52.4	-66.3	3.8	1.49e+00	0	57	104	739246080	67	17899
2026-01-04 09:44:34.54	334.88	29.60	-52.3	-66.2	3.8	1.49e+00	0	57	104	739246080	67	17881
2026-01-04 09:44:35.54	334.88	29.41	-52.4	-66.2	3.8	1.49e+00	0	57	104	739246080	67	17868
2026-01-04 09:44:36.53	334.88	29.23	-52.4	-66.2	3.8	1.49e+00	0	57	104	739246080	67	17823
2026-01-04 09:44:37.52	334.88	29.05	-52.4	-66.2	3.8	1.49e+00	0	57	104	739246080	67	17788
2026-01-04 09:44:38.50	334.87	28.87	-52.4	-66.2	3.8	1.49e+00	0	57	104	739246080	67	17839
2026-01-04 09:44:39.50	334.87	28.69	-52.4	-66.2	3.8	1.49e+00	0	57	104	739246080	67	17844
2026-01-04 09:44:40.49	334.87	28.51	-52.3	-66.2	3.8	1.49e+00	0	57	104	739246080	67	17849
2026-01-04 09:44:41.49	334.87	28.33	-52.4	-66.2	3.8	1.49e+00	0	57	104	739246080	67	17827
2026-01-04 09:44:42.48	334.87	28.15	-52.4	-66.2	3.8	1.49e+00	0	57	104	739246080	67	17800
2026-01-04 09:44:43.47	334.87	27.97	-52.3	-66.2	3.8	1.49e+00	0	57	104	739246080	67	17778
2026-01-04 09:44:44.46	334.87	27.80	-52.4	-66.2	3.8	1.49e+00	0	57	104	739246080	67	17795
2026-01-04 09:44:45.45	334.87	27.62	-52.2	-66.2	3.8	1.49e+00	0	57	104	739246080	67	17713
2026-01-04 09:44:46.44	334.86	27.45	-52.2	-66.1	3.8	1.49e+00	0	57	104	739246080	67	17679
2026-01-04 09:44:47.43	334.86	27.28	-52.4	-66.2	3.8	1.49e+00	0	57	104	739246080	67	17730
2026-01-04 09:44:48.42	334.86	27.11	-52.3	-66.2	3.8	1.49e+00	0	57	104	739246080	67	17710
2026-01-04 09:44:49.41	334.86	26.94	-52.3	-66.2	3.8	1.49e+00	0	57	104	739246080	67	17695
2026-01-04 09:44:50.40	334.86	26.77	-52.3	-66.2	3.8	1.49e+00	0	57	104	739246080	67	17697
2026-01-04 09:44:51.38	334.86	26.61	-52.3	-66.1	3.8	1.49e+00	0	57	104	739246080	67	17641
2026-01-04 09:44:52.37	334.86	26.44	-52.3	-66.1	3.8	1.49e+00	0	57	104	739246080	67	17599
2026-01-04 09:44:53.36	334.86	26.28	-52.3	-66.0	3.8	1.49e+00	0	57	104	739246080	67	17481
2026-01-04 09:44:54.35	334.86	26.11	-52.2	-66.0	3.8	1.49e+00	0	57	104	739246080	67	17450
2026-01-04 09:44:55.35	334.86	25.95	-52.2	-66.0	3.8	1.49e+00	0	57	104	739246080	67	17418
2026-01-04 09:44:56.34	334.86	25.78	-52.1	-66.0	3.8	1.49e+00	0	57	104	739246080	67	17320
2026-01-04 09:44:57.33	334.86	25.62	-51.9	-65.9	3.8	1.49e+00	0	57	104	739246080	67	17243
2026-01-04 09:44:58.32	334.86	25.46	-52.0	-65.9	3.8	1.49e+00	0	57	104	739246080	67	17149
2026-01-04 09:44:59.31	334.86	25.30	-52.0	-65.8	3.8	1.49e+00	0	57	104	739246080	67	17049
2026-01-04 09:45:00.30	334.85	25.15	-52.0	-65.8	3.8	1.49e+00	0	57	104	739246080	66	18058
2026-01-04 09:45:01.29	334.85	24.99	-52.0	-65.8	3.8	1.49e+00	0	57	104	739246080	66	18014
2026-01-04 09:45:02.28	334.85	24.83	-52.0	-65.8	3.8	1.49e+00	0	57	104	739246080	66	18072
2026-01-04 09:45:03.27	334.85	24.68	-51.9	-65.9	3.8	1.49e+00	0	57	104	739246080	66	18100
2026-01-04 09:45:04.25	334.85	24.52	-52.1	-65.9	3.8	1.49e+00	0	57	104	739246080	66	18163
2026-01-04 09:45:05.24	334.85	24.37	-51.8	-65.8	3.8	1.49e+00	0	57	104	739246080	66	18046
2026-01-04 09:45:06.23	334.85	24.22	-51.8	-65.8	3.8	1.49e+00	0	57	104	739246080	66	17980
2026-01-04 09:45:07.22	334.85	24.06	-51.8	-65.7	3.8	1.49e+00	0	57	104	739246080	66	17789
2026-01-04 09:45:08.21	334.85	23.91	-51.8	-65.6	3.8	1.49e+00	0	57	104	739246080	66	17640
2026-01-04 09:45:09.20	334.85	23.76	-51.7	-65.7	3.8	1.49e+00	0	57	104	739246080	66	17741
2026-01-04 09:45:10.19	334.85	23.61	-51.8	-65.7	3.8	1.49e+00	0	57	104	739246080	66	17765
2026-01-04 09:45:11.18	334.85	23.47	-51.6	-65.6	3.8	1.49e+00	0	57	104	739246080	66	17534
2026-01-04 09:45:12.16	334.85	23.32	-51.5	-65.4	3.8	1.49e+00	0	57	104	739246080	66	17179
2026-01-04 09:45:13.15	334.85	23.17	-51.4	-65.2	3.8	1.49e+00	0	57	104	739246080	65	17783
2026-01-04 09:45:14.13	334.85	23.03	-51.1	-65.0	3.8	1.49e+00	0	57	104	739246080	65	17403
2026-01-04 09:45:15.12	334.85	22.88	-51.2	-65.0	3.8	1.49e+00	0	57	104	739246080	65	17376
2026-01-04 09:45:16.11	334.85	22.74	-51.0	-65.0	3.8	1.49e+00	0	57	104	739246080	65	17316
2026-01-04 09:45:17.10	334.86	22.60	-50.9	-64.8	3.8	1.49e+00	0	57	104	739246080	64	17980
2026-01-04 09:45:18.09	334.86	22.45	-50.8	-64.7	3.8	1.49e+00	0	57	104	739246080	64	17746
2026-01-04 09:45:19.08	334.86	22.31	-50.6	-64.5	3.8	1.49e+00	0	57	104	739246080	64	17382
2026-01-04 09:45:20.08	334.86	22.17	-50.5	-64.4	3.8	1.49e+00	0	57	104	739246080	64	17087
2026-01-04 09:45:21.06	334.86	22.03	-50.4	-64.3	3.8	1.49e+00	0	57	104	739246080	63	18026
2026-01-04 09:45:22.05	334.86	21.89	-50.4	-64.2	3.8	1.49e+00	0	57	104	739246080	63	17840
2026-01-04 09:45:23.04	334.86	21.75	-50.3	-64.2	3.8	1.49e+00	0	57	104	739246080	63	17722
2026-01-04 09:45:24.03	334.86	21.61	-50.3	-64.2	3.8	1.49e+00	0	57	104	739246080	63	17690
2026-01-04 09:45:25.01	334.86	21.48	-50.4	-64.2	3.8	1.49e+00	0	57	104	739246080	63	17688
2026-01-04 09:45:26.00	334.86	21.34	-50.4	-64.1	3.8	1.49e+00	0	57	104	739246080	63	17640
2026-01-04 09:45:26.99	334.86	21.21	-50.3	-64.1	3.8	1.49e+00	0	57	104	739246080	63	17599
2026-01-04 09:45:27.98	334.86	21.07	-50.3	-64.1	3.8	1.49e+00	0	57	104	739246080	63	17588
2026-01-04 09:45:28.97	334.86	20.94	-50.3	-64.1	3.8	1.49e+00	0	57	104	739246080	63	17620
2026-01-04 09:45:29.95	334.86	20.80	-50.3	-64.1	3.8	1.49e+00	0	57	104	739246080	63	17552
2026-01-04 09:45:30.94	334.86	20.67	-50.3	-64.1	3.8	1.49e+00	0	57	104	739246080	63	17581
2026-01-04 09:45:31.93	334.86	20.54	-50.3	-64.1	3.8	1.49e+00	0	57	104	739246080	63	17639
2026-01-04 09:45:32.93	334.86	20.41	-50.4	-64.2	3.8	1.49e+00	0	57	104	739246080	63	17851
2026-01-04 09:45:33.92	334.87	20.27	-50.4	-64.2	3.8	1.49e+00	0	57	104	739246080	63	17813
2026-01-04 09:45:34.91	334.87	20.14	-50.5	-64.2	3.8	1.49e+00	0	57	104	739246080	63	17846
2026-01-04 09:45:35.91	334.87	20.01	-50.4	-64.2	3.8	1.49e+00	0	57	104	739246080	63	17838
2026-01-04 09:45:36.90	334.87	19.88	-50.4	-64.2	3.8	1.49e+00	0	57	104	739246080	63	17843
2026-01-04 09:45:37.89	334.87	19.76	-50.4	-64.2	3.8	1.49e+00	0	57	104	739246080	63	17831
2026-01-04 09:45:38.88	334.87	19.63	-50.6	-64.3	3.8	1.49e+00	0	57	104	739246080	63	18089
2026-01-04 09:45:39.87	334.87	19.50	-50.6	-64.5	3.8	1.49e+00	0	57	104	739246080	63	18354
2026-01-04 09:45:40.87	334.87	19.38	-50.8	-64.6	3.8	1.49e+00	0	57	104	739246080	63	18677
2026-01-04 09:45:41.85	334.87	19.25	-50.9	-64.7	3.8	1.49e+00	0	57	104	739246080	63	18837
2026-01-04 09:45:42.85	334.87	19.12	-50.9	-64.7	3.8	1.49e+00	0	57	104	739246080	63	18849
2026-01-04 09:45:43.84	334.88	19.00	-51.0	-64.7	3.8	1.49e+00	0	57	104	739246080	63	18932
2026-01-04 09:45:44.83	334.88	18.88	-50.9	-64.7	3.8	1.49e+00	0	57	104	739246080	63	18943
2026-01-04 09:45:45.81	334.88	18.76	-50.9	-64.7	3.8	1.49e+00	0	57	104	739246080	63	18856
2026-01-04 09:45:46.80	334.88	18.63	-50.9	-64.7	3.8	1.49e+00	0	57	104	739246080	63	18898
2026-01-04 09:45:47.79	334.88	18.51	-51.0	-64.8	3.8	1.49e+00	0	57	104	739246080	63	19040
2026-01-04 09:45:48.78	334.88	18.39	-51.0	-64.9	3.8	1.49e+00	0	57	104	739246080	64	18110
2026-01-04 09:45:49.77	334.88	18.27	-51.2	-64.9	3.8	1.49e+00	0	57	104	739246080	64	18262
2026-01-04 09:45:50.76	334.88	18.15	-51.3	-65.0	3.8	1.49e+00	0	57	104	739246080	64	18477
2026-01-04 09:45:51.75	334.88	18.03	-51.4	-65.1	3.8	1.49e+00	0	57	104	739246080	64	18647
2026-01-04 09:45:52.74	334.89	17.91	-51.5	-65.2	3.8	1.49e+00	0	57	104	739246080	64	18929
2026-01-04 09:45:53.73	334.89	17.79	-51.5	-65.3	3.8	1.49e+00	0	57	104	739246080	64	18989
2026-01-04 09:45:54.71	334.89	17.68	-51.5	-65.2	3.8	1.49e+00	0	57	104	739246080	65	17887
2026-01-04 09:45:55.70	334.89	17.56	-51.5	-65.2	3.8	1.49e+00	0	57	104	739246080	65	17814
2026-01-04 09:45:56.69	334.89	17.44	-51.3	-65.1	3.8	1.49e+00	0	57	104	739246080	65	17618
2026-01-04 09:45:57.68	334.89	17.33	-51.2	-65.0	3.8	1.49e+00	0	57	104	739246080	65	17365
2026-01-04 09:45:58.67	334.89	17.21	-51.2	-65.0	3.8	1.49e+00	0	57	104	739246080	65	17407
2026-01-04 09:45:59.66	334.90	17.10	-51.3	-65.2	3.8	1.49e+00	0	57	104	739246080	65	17761
2026-01-04 09:46:00.65	334.90	16.98	-51.3	-65.2	3.8	1.49e+00	0	57	104	739246080	65	17861
2026-01-04 09:46:01.64	334.90	16.87	-51.5	-65.2	3.8	1.49e+00	0	57	104	739246080	65	17817
