passes_logs/2026/01/04/R3.0SM8_Murmansk_STILSPACE/R3.0SM8_Murmansk_STILSPACE__20260104_004810_NOAA_21_JPSS-2_rec.log

#Pass ID: 20260104_004810_NOAA 21 (JPSS-2)
#Satellite: NOAA 21 (JPSS-2)
#Configuration: NOAA-21
#almurnet v.1.7.20240730
#Start time: 2026-01-04 00:51:06

#Version: 2.2.20231116
#Station: R3.0SM8_Murmansk_STILSPACE
#Location: 33.092731 lon 68.902999 lat
#TLE: 1 54234U 22150A   26003.45311712  .00000198  00000+0  11468-3 0  9993
#TLE: 2 54234  98.7487 304.4932 0001159 347.5017  12.6130 14.19531745163172

#Time	Az	El	Level	Level2	SNR	BER	BlckErr	Temp	State	Recorded	gain1	gain2
2026-01-04 00:51:06.68	24.53	18.47	-52.6	-63.4	3.8	8.45e-01	0	57	0	0	67	12873
2026-01-04 00:51:07.67	24.52	18.59	-52.8	-64.2	3.8	1.49e+00	0	57	104	0	68	13408
2026-01-04 00:51:08.66	24.51	18.71	-52.7	-64.3	3.8	1.49e+00	0	57	104	0	68	13427
2026-01-04 00:51:09.64	24.50	18.83	-52.7	-64.2	3.8	1.49e+00	0	57	104	0	68	13378
2026-01-04 00:51:10.63	24.50	18.96	-52.8	-64.3	3.8	1.49e+00	0	57	104	0	68	13421
2026-01-04 00:51:11.61	24.49	19.08	-52.6	-64.3	3.8	1.49e+00	0	57	104	0	68	13438
2026-01-04 00:51:12.61	24.48	19.20	-52.8	-64.3	3.8	1.49e+00	0	57	104	0	68	13459
2026-01-04 00:51:13.60	24.48	19.33	-52.8	-64.3	3.8	1.49e+00	0	57	104	0	68	13452
2026-01-04 00:51:14.58	24.47	19.45	-52.8	-64.3	3.8	1.49e+00	0	57	104	0	68	13445
2026-01-04 00:51:15.58	24.46	19.58	-52.8	-64.3	3.8	1.49e+00	0	57	104	0	68	13477
2026-01-04 00:51:16.56	24.45	19.71	-52.8	-64.3	3.8	1.49e+00	0	57	104	0	68	13457
2026-01-04 00:51:17.55	24.44	19.84	-52.8	-64.3	3.8	1.49e+00	0	57	104	0	68	13415
2026-01-04 00:51:18.53	24.44	19.96	-52.8	-64.2	3.8	1.49e+00	0	57	104	0	68	13373
2026-01-04 00:51:19.52	24.43	20.09	-52.8	-64.2	3.8	1.49e+00	0	57	104	0	68	13385
2026-01-04 00:51:20.50	24.42	20.22	-52.7	-64.2	3.8	1.49e+00	0	57	104	0	68	13364
2026-01-04 00:51:21.48	24.41	20.35	-52.7	-64.2	3.8	1.49e+00	0	57	104	0	68	13389
2026-01-04 00:51:22.48	24.40	20.48	-52.6	-64.2	3.8	1.49e+00	0	57	104	0	68	13305
2026-01-04 00:51:23.48	24.39	20.61	-52.7	-64.2	3.8	1.49e+00	0	57	104	0	68	13266
2026-01-04 00:51:24.47	24.39	20.75	-52.6	-64.1	3.8	1.49e+00	0	57	104	0	68	13243
2026-01-04 00:51:25.46	24.38	20.88	-52.6	-64.2	3.8	1.49e+00	0	57	104	0	68	13280
2026-01-04 00:51:26.45	24.37	21.01	-52.7	-64.1	3.8	1.49e+00	0	57	104	0	68	13250
2026-01-04 00:51:27.43	24.36	21.15	-52.3	-63.8	3.8	1.49e+00	0	57	104	0	67	13536
2026-01-04 00:51:28.42	24.35	21.28	-51.1	-62.6	3.8	1.49e+00	0	57	104	0	65	13201
2026-01-04 00:51:29.41	24.34	21.42	-52.1	-63.7	3.8	1.49e+00	0	57	104	0	66	14172
2026-01-04 00:51:30.39	24.33	21.55	-52.5	-63.9	3.8	1.49e+00	0	57	104	0	66	14472
2026-01-04 00:51:31.38	24.32	21.69	-52.4	-63.9	3.8	1.49e+00	0	57	104	0	66	14534
2026-01-04 00:51:32.37	24.31	21.83	-52.4	-64.0	3.8	1.49e+00	0	57	104	0	66	14561
2026-01-04 00:51:33.36	24.30	21.97	-52.5	-63.9	3.8	1.49e+00	0	57	104	0	66	14503
2026-01-04 00:51:34.34	24.29	22.10	-52.4	-63.9	3.8	1.49e+00	0	57	104	0	66	14447
2026-01-04 00:51:35.33	24.28	22.24	-52.4	-63.9	3.8	1.49e+00	0	57	104	0	66	14404
2026-01-04 00:51:36.32	24.27	22.39	-52.5	-63.8	3.8	1.49e+00	0	57	104	0	66	14275
2026-01-04 00:51:37.31	24.26	22.53	-52.4	-63.7	3.8	1.49e+00	0	57	104	0	66	14200
2026-01-04 00:51:38.29	24.25	22.67	-52.5	-63.7	3.8	1.49e+00	0	57	104	0	66	14095
2026-01-04 00:51:39.29	24.24	22.81	-52.4	-63.8	3.8	1.49e+00	0	57	104	0	66	14327
2026-01-04 00:51:40.28	24.23	22.96	-52.4	-63.7	3.8	1.49e+00	0	57	104	0	66	14065
2026-01-04 00:51:41.28	24.22	23.11	-52.3	-63.9	3.8	1.49e+00	0	57	104	0	66	14445
2026-01-04 00:51:42.26	24.21	23.25	-52.4	-63.8	3.8	1.49e+00	0	57	104	0	66	14312
2026-01-04 00:51:43.26	24.20	23.40	-52.3	-63.9	3.8	1.49e+00	0	57	104	0	66	14485
2026-01-04 00:51:44.25	24.19	23.55	-52.4	-63.8	3.8	1.49e+00	0	57	104	0	66	14278
2026-01-04 00:51:45.23	24.18	23.69	-52.3	-63.6	3.8	1.49e+00	0	57	104	0	66	14000
2026-01-04 00:51:46.22	24.16	23.84	-52.3	-63.1	3.8	1.49e+00	0	57	104	0	66	13236
2026-01-04 00:51:47.21	24.15	23.99	-52.2	-62.6	3.8	1.49e+00	0	57	104	0	66	12385
2026-01-04 00:51:48.20	24.14	24.14	-52.2	-62.0	3.8	1.49e+00	0	57	104	0	66	11668
2026-01-04 00:51:49.19	24.13	24.30	-52.1	-61.2	4.0	1.48e+00	0	57	104	0	66	10573
2026-01-04 00:51:50.18	24.12	24.45	-52.1	-61.6	3.9	1.48e+00	0	57	104	0	66	11117
2026-01-04 00:51:51.17	24.10	24.60	-52.2	-61.3	4.0	1.48e+00	0	57	104	0	66	10771
2026-01-04 00:51:52.16	24.09	24.76	-52.1	-61.4	4.0	1.48e+00	0	57	104	0	66	10810
2026-01-04 00:51:53.14	24.08	24.91	-52.0	-60.5	4.2	1.47e+00	0	57	104	0	66	9756
2026-01-04 00:51:54.13	24.07	25.07	-51.9	-59.3	4.6	1.36e+00	0	57	104	0	66	8499
2026-01-04 00:51:55.11	24.05	25.22	-51.4	-57.7	5.4	5.60e-01	0	57	0	1048576	66	7084
2026-01-04 00:51:56.10	24.04	25.38	-51.1	-56.4	6.4	3.36e-01	0	57	0	4194304	65	6434
2026-01-04 00:51:57.09	24.03	25.54	-50.6	-55.0	7.6	1.29e-01	0	57	0	7340032	64	5855
2026-01-04 00:51:58.08	24.01	25.70	-50.2	-53.8	8.9	4.04e-02	0	57	0	10485760	63	5371
2026-01-04 00:51:59.07	24.00	25.86	-49.5	-52.3	10.5	5.88e-03	0	57	0	13631488	62	4774
2026-01-04 00:52:00.06	23.99	26.02	-48.4	-50.6	12.2	7.09e-04	0	57	0	16777216	60	4435
2026-01-04 00:52:01.05	23.97	26.19	-47.5	-49.1	13.8	1.60e-05	0	57	0	19922944	58	4174
2026-01-04 00:52:02.05	23.96	26.35	-47.5	-49.1	13.8	3.80e-06	0	57	0	23068672	57	4430
2026-01-04 00:52:03.03	23.94	26.52	-48.4	-50.5	12.4	6.71e-05	0	57	0	26214400	58	4881
2026-01-04 00:52:04.02	23.93	26.68	-47.8	-49.6	13.3	5.03e-05	0	57	0	29360128	58	4402
2026-01-04 00:52:05.00	23.91	26.85	-47.2	-48.8	14.0	4.50e-06	0	57	0	32505856	57	4268
2026-01-04 00:52:05.99	23.90	27.02	-46.8	-48.2	14.6	7.00e-07	0	57	0	35651584	56	4225
2026-01-04 00:52:06.98	23.88	27.19	-46.2	-47.5	15.2	0.00e+00	0	57	0	38797312	55	4134
2026-01-04 00:52:07.97	23.87	27.36	-45.9	-47.2	15.6	0.00e+00	0	57	0	40894464	55	3967
2026-01-04 00:52:08.95	23.85	27.53	-45.6	-46.8	16.0	0.00e+00	0	57	0	44040192	54	4007
2026-01-04 00:52:09.95	23.84	27.70	-45.4	-46.5	16.2	0.00e+00	0	57	0	47185920	54	3893
2026-01-04 00:52:10.95	23.82	27.88	-45.3	-46.4	16.4	0.00e+00	0	57	0	50331648	53	4057
2026-01-04 00:52:11.94	23.81	28.05	-45.4	-46.5	16.2	0.00e+00	0	57	0	53477376	53	4122
2026-01-04 00:52:12.92	23.79	28.22	-45.5	-46.7	16.1	0.00e+00	0	57	0	56623104	53	4213
2026-01-04 00:52:13.91	23.77	28.40	-45.8	-47.0	15.8	0.00e+00	0	57	0	59768832	53	4367
2026-01-04 00:52:14.90	23.76	28.58	-45.6	-46.8	16.0	0.00e+00	0	57	0	62914560	53	4257
2026-01-04 00:52:15.89	23.74	28.76	-45.4	-46.5	16.2	0.00e+00	0	57	0	66060288	53	4133
2026-01-04 00:52:16.88	23.72	28.94	-45.3	-46.4	16.3	0.00e+00	0	57	0	69206016	53	4096
2026-01-04 00:52:17.86	23.70	29.12	-45.3	-46.4	16.3	0.00e+00	0	57	0	72351744	53	4097
2026-01-04 00:52:18.85	23.69	29.30	-45.6	-46.7	16.0	0.00e+00	0	57	0	75497472	53	4228
2026-01-04 00:52:19.84	23.67	29.48	-45.3	-46.4	16.3	0.00e+00	0	57	0	78643200	53	4092
2026-01-04 00:52:20.83	23.65	29.67	-45.1	-46.1	16.6	0.00e+00	0	57	0	81788928	53	3948
2026-01-04 00:52:21.82	23.63	29.86	-44.9	-46.0	16.7	0.00e+00	0	57	0	84934656	53	3874
2026-01-04 00:52:22.81	23.61	30.04	-44.7	-45.7	17.0	0.00e+00	0	57	0	88080384	52	3972
2026-01-04 00:52:23.80	23.59	30.23	-44.5	-45.5	17.2	0.00e+00	0	57	0	91226112	52	3870
2026-01-04 00:52:24.78	23.57	30.42	-44.5	-45.5	17.1	0.00e+00	0	57	0	94371840	52	3903
2026-01-04 00:52:25.78	23.55	30.61	-44.7	-45.7	16.9	0.00e+00	0	57	0	96468992	52	3980
2026-01-04 00:52:26.77	23.53	30.81	-44.6	-45.6	16.9	0.00e+00	0	57	0	99614720	52	3929
2026-01-04 00:52:27.75	23.51	31.00	-44.4	-45.4	17.2	0.00e+00	0	57	0	102760448	51	4068
2026-01-04 00:52:28.75	23.49	31.19	-44.0	-44.9	17.6	0.00e+00	0	57	0	105906176	51	3857
2026-01-04 00:52:29.73	23.47	31.39	-44.0	-44.9	17.5	0.00e+00	0	57	0	109051904	51	3865
2026-01-04 00:52:30.72	23.45	31.59	-44.0	-44.9	17.3	0.00e+00	0	57	0	112197632	51	3867
2026-01-04 00:52:31.72	23.43	31.79	-44.1	-45.1	17.1	0.00e+00	0	57	0	115343360	51	3947
2026-01-04 00:52:32.70	23.41	31.99	-44.5	-45.5	16.5	0.00e+00	0	57	0	118489088	51	4132
2026-01-04 00:52:33.69	23.39	32.19	-44.9	-46.1	15.9	0.00e+00	0	57	0	121634816	51	4434
2026-01-04 00:52:34.68	23.36	32.39	-45.4	-46.8	15.0	0.00e+00	0	57	0	124780544	52	4506
2026-01-04 00:52:35.67	23.34	32.59	-46.0	-47.6	14.1	7.00e-07	0	57	0	127926272	53	4678
2026-01-04 00:52:36.66	23.32	32.80	-46.6	-48.5	13.2	9.10e-06	0	57	0	131072000	55	4600
2026-01-04 00:52:37.65	23.29	33.01	-47.6	-49.8	11.9	2.17e-04	0	57	0	134217728	56	5094
2026-01-04 00:52:38.64	23.27	33.22	-48.1	-50.7	11.0	1.77e-03	0	57	0	137363456	57	5316
2026-01-04 00:52:39.63	23.25	33.43	-48.5	-51.3	10.3	3.23e-03	0	57	0	140509184	58	5387
2026-01-04 00:52:40.62	23.22	33.64	-48.5	-51.5	10.1	6.84e-03	0	57	0	143654912	59	5204
2026-01-04 00:52:41.61	23.20	33.85	-48.5	-51.3	10.4	5.30e-03	0	57	0	146800640	59	5092
2026-01-04 00:52:42.60	23.17	34.07	-48.1	-50.7	11.2	1.78e-03	0	57	0	149946368	59	4712
2026-01-04 00:52:43.59	23.15	34.28	-48.0	-50.5	11.5	9.22e-04	0	57	0	153092096	59	4609
2026-01-04 00:52:44.57	23.12	34.50	-47.9	-50.2	11.9	4.28e-04	0	57	0	155189248	58	4743
2026-01-04 00:52:45.57	23.09	34.72	-48.0	-50.3	11.9	5.30e-04	0	57	0	158334976	58	4806
2026-01-04 00:52:46.56	23.07	34.94	-48.0	-50.1	12.2	2.38e-04	0	57	0	161480704	58	4692
2026-01-04 00:52:47.55	23.04	35.16	-48.2	-50.4	12.1	2.19e-04	0	57	0	164626432	58	4827
2026-01-04 00:52:48.54	23.01	35.38	-48.2	-50.4	12.2	3.16e-04	0	57	0	167772160	58	4832
2026-01-04 00:52:49.53	22.98	35.61	-48.0	-50.0	12.7	1.01e-04	0	57	0	170917888	58	4610
2026-01-04 00:52:50.53	22.95	35.84	-47.6	-49.4	13.3	2.59e-05	0	57	0	174063616	58	4320
2026-01-04 00:52:51.52	22.93	36.07	-47.3	-49.0	13.8	5.30e-06	0	57	0	177209344	57	4362
2026-01-04 00:52:52.50	22.90	36.30	-46.8	-48.3	14.5	7.00e-07	0	57	0	180355072	56	4282
2026-01-04 00:52:53.48	22.87	36.52	-46.7	-48.1	14.8	7.00e-07	0	57	0	183500800	56	4148
2026-01-04 00:52:54.47	22.84	36.76	-46.6	-48.0	14.8	0.00e+00	0	57	0	186646528	56	4143
2026-01-04 00:52:55.46	22.81	36.99	-46.6	-47.9	14.9	0.00e+00	0	57	0	189792256	56	4087
2026-01-04 00:52:56.45	22.77	37.23	-46.5	-47.8	15.1	0.00e+00	0	57	0	192937984	56	4038
2026-01-04 00:52:57.43	22.74	37.47	-46.2	-47.5	15.2	0.00e+00	0	57	0	196083712	55	4142
2026-01-04 00:52:58.42	22.71	37.71	-46.0	-47.3	15.5	0.00e+00	0	57	0	199229440	55	4021
2026-01-04 00:52:59.41	22.68	37.95	-46.1	-47.4	15.4	0.00e+00	0	57	0	202375168	55	4059
2026-01-04 00:53:00.40	22.64	38.19	-46.0	-47.2	15.5	0.00e+00	0	57	0	205520896	55	3990
2026-01-04 00:53:01.39	22.61	38.44	-46.3	-47.6	15.2	7.00e-07	0	57	0	208666624	55	4161
2026-01-04 00:53:02.37	22.57	38.68	-46.1	-47.3	15.5	0.00e+00	0	57	0	211812352	55	4039
2026-01-04 00:53:03.37	22.54	38.93	-46.0	-47.3	15.6	0.00e+00	0	57	0	214958080	55	4006
2026-01-04 00:53:04.36	22.50	39.18	-46.2	-47.4	15.5	0.00e+00	0	57	0	217055232	55	4070
2026-01-04 00:53:05.35	22.47	39.44	-46.2	-47.4	15.4	0.00e+00	0	57	0	220200960	55	4091
2026-01-04 00:53:06.35	22.43	39.69	-45.9	-47.2	15.7	0.00e+00	0	57	0	223346688	55	3964
2026-01-04 00:53:07.34	22.39	39.95	-46.2	-47.5	15.3	0.00e+00	0	57	0	226492416	55	4125
2026-01-04 00:53:08.32	22.35	40.20	-46.2	-47.5	15.3	0.00e+00	0	57	0	229638144	55	4129
2026-01-04 00:53:09.32	22.31	40.47	-46.3	-47.6	15.3	0.00e+00	0	57	0	232783872	55	4147
2026-01-04 00:53:10.31	22.27	40.73	-46.4	-47.8	15.0	0.00e+00	0	57	0	235929600	55	4277
2026-01-04 00:53:11.30	22.23	40.99	-46.6	-48.0	14.9	7.00e-07	0	57	0	239075328	55	4368
2026-01-04 00:53:12.30	22.19	41.26	-46.8	-48.3	14.6	0.00e+00	0	57	0	242221056	55	4517
2026-01-04 00:53:13.29	22.15	41.53	-46.7	-48.1	14.7	0.00e+00	0	57	0	245366784	55	4427
2026-01-04 00:53:14.27	22.11	41.80	-46.8	-48.3	14.5	7.00e-07	0	57	0	248512512	55	4498
2026-01-04 00:53:15.26	22.06	42.07	-46.8	-48.2	14.6	7.00e-07	0	57	0	251658240	55	4469
2026-01-04 00:53:16.24	22.02	42.34	-46.4	-47.8	15.1	7.00e-07	0	58	0	254803968	55	4263
2026-01-04 00:53:17.23	21.97	42.61	-46.3	-47.6	15.2	0.00e+00	0	57	0	257949696	55	4190
2026-01-04 00:53:18.22	21.93	42.89	-46.4	-47.8	15.1	0.00e+00	0	58	0	261095424	55	4243
2026-01-04 00:53:19.21	21.88	43.17	-46.4	-47.8	15.1	0.00e+00	0	57	0	264241152	55	4247
2026-01-04 00:53:20.20	21.83	43.45	-46.6	-48.1	14.8	7.00e-07	0	57	0	267386880	55	4406
2026-01-04 00:53:21.19	21.78	43.74	-46.7	-48.2	14.6	0.00e+00	0	57	0	270532608	55	4469
2026-01-04 00:53:22.18	21.73	44.02	-47.0	-48.6	14.2	0.00e+00	0	57	0	273678336	55	4668
2026-01-04 00:53:23.17	21.68	44.31	-47.4	-49.0	13.9	1.50e-06	0	58	0	276824064	56	4634
2026-01-04 00:53:24.15	21.63	44.60	-47.4	-49.0	14.0	5.30e-06	0	57	0	278921216	56	4644
2026-01-04 00:53:25.14	21.58	44.89	-47.3	-48.9	14.1	2.20e-06	0	58	0	282066944	56	4573
2026-01-04 00:53:26.14	21.52	45.19	-47.4	-49.0	14.0	3.00e-06	0	57	0	285212672	56	4629
2026-01-04 00:53:27.13	21.47	45.48	-47.1	-48.6	14.4	7.00e-07	0	57	0	288358400	56	4411
2026-01-04 00:53:28.12	21.41	45.78	-46.9	-48.3	14.6	0.00e+00	0	58	0	291504128	56	4287
2026-01-04 00:53:29.10	21.35	46.08	-46.9	-48.3	14.7	7.00e-07	0	57	0	294649856	56	4289
2026-01-04 00:53:30.08	21.30	46.38	-46.9	-48.3	14.6	0.00e+00	0	57	0	297795584	56	4286
2026-01-04 00:53:31.08	21.24	46.69	-46.7	-48.1	14.9	0.00e+00	0	57	0	300941312	56	4158
2026-01-04 00:53:32.06	21.18	46.99	-46.5	-47.9	15.0	0.00e+00	0	58	0	304087040	56	4070
2026-01-04 00:53:33.05	21.11	47.30	-46.5	-47.9	15.1	7.00e-07	0	57	0	307232768	56	4053
2026-01-04 00:53:34.04	21.05	47.62	-46.7	-48.1	14.8	7.00e-07	0	57	0	310378496	56	4179
2026-01-04 00:53:35.03	20.98	47.93	-47.0	-48.4	14.5	0.00e+00	0	57	0	313524224	56	4318
2026-01-04 00:53:36.03	20.92	48.25	-46.2	-47.5	15.3	0.00e+00	0	57	0	316669952	55	4132
2026-01-04 00:53:37.02	20.85	48.57	-45.8	-46.9	15.9	0.00e+00	0	57	0	319815680	54	4083
2026-01-04 00:53:38.00	20.78	48.89	-45.3	-46.3	16.5	0.00e+00	0	58	0	322961408	53	4034
2026-01-04 00:53:39.00	20.71	49.21	-45.3	-46.3	16.5	0.00e+00	0	58	0	326107136	53	4033
2026-01-04 00:53:39.98	20.64	49.54	-45.4	-46.5	16.4	0.00e+00	0	57	0	329252864	53	4103
2026-01-04 00:53:40.97	20.56	49.86	-45.5	-46.5	16.4	0.00e+00	0	57	0	332398592	53	4132
2026-01-04 00:53:41.97	20.49	50.20	-45.9	-47.1	15.8	0.00e+00	0	57	0	335544320	53	4414
2026-01-04 00:53:42.96	20.41	50.53	-45.8	-47.0	15.9	0.00e+00	0	57	0	338690048	53	4356
2026-01-04 00:53:43.95	20.33	50.86	-45.7	-46.9	16.0	0.00e+00	0	57	0	341835776	53	4297
2026-01-04 00:53:44.94	20.25	51.20	-45.7	-46.9	16.0	0.00e+00	0	57	0	343932928	53	4310
2026-01-04 00:53:45.93	20.17	51.54	-45.6	-46.8	16.1	0.00e+00	0	57	0	347078656	53	4263
2026-01-04 00:53:46.91	20.08	51.88	-45.9	-47.0	15.9	0.00e+00	0	57	0	350224384	53	4384
2026-01-04 00:53:47.90	19.99	52.23	-45.7	-46.8	16.1	0.00e+00	0	57	0	353370112	53	4266
2026-01-04 00:53:48.88	19.91	52.57	-45.3	-46.4	16.5	0.00e+00	0	57	0	356515840	53	4055
2026-01-04 00:53:49.88	19.81	52.92	-45.3	-46.4	16.5	0.00e+00	0	57	0	359661568	53	4072
2026-01-04 00:53:50.86	19.72	53.27	-45.3	-46.4	16.5	0.00e+00	0	57	0	362807296	53	4063
2026-01-04 00:53:51.85	19.62	53.62	-45.5	-46.6	16.3	0.00e+00	0	57	0	365953024	53	4159
2026-01-04 00:53:52.84	19.52	53.98	-45.2	-46.2	16.6	0.00e+00	0	57	0	369098752	53	4000
2026-01-04 00:53:53.83	19.42	54.34	-44.9	-45.9	17.0	0.00e+00	0	57	0	372244480	53	3834
2026-01-04 00:53:54.83	19.32	54.70	-44.6	-45.6	17.3	0.00e+00	0	57	0	375390208	52	3934
2026-01-04 00:53:55.82	19.21	55.07	-44.4	-45.3	17.6	0.00e+00	0	57	0	378535936	51	4026
2026-01-04 00:53:56.81	19.10	55.43	-44.0	-44.8	18.0	0.00e+00	0	57	0	381681664	51	3817
2026-01-04 00:53:57.81	18.99	55.81	-43.7	-44.5	18.3	0.00e+00	0	57	0	384827392	50	3902
2026-01-04 00:53:58.79	18.87	56.17	-43.8	-44.6	18.3	0.00e+00	0	57	0	387973120	50	3929
2026-01-04 00:53:59.79	18.75	56.55	-43.9	-44.7	18.2	0.00e+00	0	57	0	391118848	50	3966
2026-01-04 00:54:00.78	18.63	56.93	-44.0	-44.8	18.1	0.00e+00	0	57	0	394264576	50	4035
2026-01-04 00:54:01.77	18.50	57.30	-44.1	-44.9	18.1	0.00e+00	0	57	0	397410304	50	4062
2026-01-04 00:54:02.76	18.37	57.69	-43.9	-44.7	18.2	0.00e+00	0	57	0	400556032	50	4004
2026-01-04 00:54:03.75	18.24	58.07	-43.8	-44.6	18.3	0.00e+00	0	57	0	403701760	50	3946
2026-01-04 00:54:04.74	18.10	58.45	-44.0	-44.8	18.1	0.00e+00	0	57	0	405798912	50	4032
2026-01-04 00:54:05.72	17.96	58.84	-43.8	-44.6	18.2	0.00e+00	0	57	0	408944640	50	3940
2026-01-04 00:54:06.70	17.82	59.22	-43.6	-44.3	18.6	0.00e+00	0	57	0	412090368	50	3801
2026-01-04 00:54:07.69	17.66	59.62	-43.5	-44.3	18.6	0.00e+00	0	57	0	415236096	50	3787
2026-01-04 00:54:08.68	17.51	60.01	-43.9	-44.7	18.3	0.00e+00	0	57	0	418381824	50	3972
2026-01-04 00:54:09.67	17.35	60.41	-43.9	-44.8	18.2	0.00e+00	0	57	0	421527552	50	4011
2026-01-04 00:54:10.66	17.18	60.81	-44.1	-44.9	18.0	0.00e+00	0	58	0	424673280	50	4068
2026-01-04 00:54:11.66	17.01	61.21	-44.0	-44.8	18.1	0.00e+00	0	57	0	427819008	50	4027
2026-01-04 00:54:12.65	16.83	61.62	-43.6	-44.4	18.5	0.00e+00	0	57	0	430964736	50	3831
2026-01-04 00:54:13.64	16.65	62.02	-43.4	-44.2	18.7	0.00e+00	0	57	0	434110464	50	3748
2026-01-04 00:54:14.63	16.46	62.43	-43.3	-44.0	18.9	0.00e+00	0	57	0	437256192	49	3909
2026-01-04 00:54:15.61	16.27	62.84	-43.3	-44.0	18.9	0.00e+00	0	57	0	440401920	49	3891
2026-01-04 00:54:16.61	16.06	63.25	-43.2	-44.0	18.9	0.00e+00	0	57	0	443547648	49	3869
2026-01-04 00:54:17.59	15.85	63.66	-43.3	-44.0	18.9	0.00e+00	0	57	0	446693376	49	3882
2026-01-04 00:54:18.59	15.63	64.08	-43.3	-44.0	18.8	0.00e+00	0	58	0	449839104	49	3913
2026-01-04 00:54:19.58	15.41	64.50	-43.4	-44.2	18.7	0.00e+00	0	57	0	452984832	49	3972
2026-01-04 00:54:20.57	15.17	64.92	-43.3	-44.0	18.8	0.00e+00	0	57	0	456130560	49	3913
2026-01-04 00:54:21.56	14.93	65.34	-43.1	-43.8	19.1	0.00e+00	0	57	0	459276288	49	3782
2026-01-04 00:54:22.56	14.67	65.77	-42.9	-43.6	19.2	0.00e+00	0	57	0	462422016	49	3736
2026-01-04 00:54:23.54	14.41	66.19	-42.7	-43.4	19.4	0.00e+00	0	57	0	465567744	48	3836
2026-01-04 00:54:24.53	14.14	66.62	-42.7	-43.3	19.5	0.00e+00	0	57	0	467664896	48	3812
2026-01-04 00:54:25.52	13.85	67.05	-42.8	-43.5	19.4	0.00e+00	0	57	0	470810624	48	3871
2026-01-04 00:54:26.51	13.55	67.48	-42.9	-43.6	19.3	0.00e+00	0	57	0	473956352	48	3945
2026-01-04 00:54:27.50	13.24	67.92	-42.6	-43.3	19.5	0.00e+00	0	57	0	477102080	48	3808
2026-01-04 00:54:28.48	12.92	68.35	-42.6	-43.2	19.6	0.00e+00	0	57	0	480247808	48	3775
2026-01-04 00:54:29.46	12.59	68.78	-42.7	-43.3	19.5	0.00e+00	0	57	0	483393536	48	3822
2026-01-04 00:54:30.45	12.23	69.22	-43.0	-43.8	19.1	0.00e+00	0	57	0	486539264	48	4012
2026-01-04 00:54:31.44	11.86	69.65	-43.3	-44.1	18.8	0.00e+00	0	57	0	489684992	48	4162
2026-01-04 00:54:32.43	11.47	70.09	-43.3	-44.0	18.9	0.00e+00	0	57	0	492830720	48	4118
2026-01-04 00:54:33.42	11.06	70.53	-43.2	-43.9	18.9	0.00e+00	0	57	0	495976448	48	4092
2026-01-04 00:54:34.41	10.64	70.98	-43.4	-44.1	18.7	0.00e+00	0	57	0	499122176	48	4173
2026-01-04 00:54:35.40	10.19	71.42	-43.5	-44.3	18.6	0.00e+00	0	57	0	502267904	48	4279
2026-01-04 00:54:36.39	9.71	71.86	-43.5	-44.2	18.7	0.00e+00	0	57	0	505413632	48	4231
2026-01-04 00:54:37.37	9.22	72.30	-43.6	-44.3	18.6	0.00e+00	0	57	0	508559360	49	4038
2026-01-04 00:54:38.36	8.69	72.75	-43.6	-44.4	18.5	0.00e+00	0	57	0	511705088	49	4069
2026-01-04 00:54:39.34	8.14	73.19	-43.6	-44.5	18.5	0.00e+00	0	57	0	514850816	49	4101
2026-01-04 00:54:40.33	7.55	73.63	-43.8	-44.6	18.4	0.00e+00	0	57	0	517996544	49	4182
2026-01-04 00:54:41.32	6.93	74.08	-43.8	-44.6	18.4	0.00e+00	0	57	0	520093696	49	4164
2026-01-04 00:54:42.32	6.27	74.52	-43.7	-44.5	18.5	0.00e+00	0	57	0	523239424	49	4100
2026-01-04 00:54:43.31	5.57	74.97	-43.5	-44.3	18.6	0.00e+00	0	57	0	526385152	49	4037
2026-01-04 00:54:44.30	4.82	75.41	-43.6	-44.3	18.6	0.00e+00	0	57	0	529530880	49	4050
2026-01-04 00:54:45.28	4.03	75.85	-43.3	-44.1	18.8	0.00e+00	0	57	0	532676608	49	3919
2026-01-04 00:54:46.27	3.19	76.29	-43.1	-43.8	19.1	0.00e+00	0	58	0	535822336	49	3824
2026-01-04 00:54:47.26	2.28	76.73	-43.3	-44.1	18.8	0.00e+00	0	57	0	538968064	49	3926
2026-01-04 00:54:48.25	1.31	77.17	-43.5	-44.3	18.6	0.00e+00	0	57	0	542113792	49	4046
2026-01-04 00:54:49.23	0.28	77.60	-43.4	-44.2	18.7	0.00e+00	0	57	0	545259520	49	3987
2026-01-04 00:54:50.22	359.17	78.03	-43.4	-44.1	18.8	0.00e+00	0	57	0	548405248	49	3949
2026-01-04 00:54:51.21	357.97	78.45	-43.4	-44.1	18.8	0.00e+00	0	57	0	551550976	49	3945
2026-01-04 00:54:52.21	356.66	78.88	-43.5	-44.2	18.6	0.00e+00	0	57	0	554696704	49	4002
2026-01-04 00:54:53.20	355.26	79.30	-43.2	-43.9	19.0	0.00e+00	0	57	0	557842432	49	3843
2026-01-04 00:54:54.18	353.76	79.71	-43.0	-43.7	19.2	0.00e+00	0	57	0	560988160	49	3751
2026-01-04 00:54:55.17	352.11	80.11	-43.0	-43.7	19.2	0.00e+00	0	57	0	564133888	49	3743
2026-01-04 00:54:56.15	350.35	80.51	-42.9	-43.6	19.3	0.00e+00	0	57	0	567279616	48	3918
2026-01-04 00:54:57.14	348.41	80.89	-43.2	-43.9	19.0	0.00e+00	0	57	0	570425344	48	4070
2026-01-04 00:54:58.13	346.29	81.27	-43.2	-44.0	18.9	0.00e+00	0	57	0	573571072	48	4104
2026-01-04 00:54:59.11	344.01	81.63	-43.1	-43.9	19.0	0.00e+00	0	58	0	575668224	48	4068
2026-01-04 00:55:00.10	341.50	81.98	-43.2	-43.9	18.9	0.00e+00	0	57	0	578813952	48	4094
2026-01-04 00:55:01.09	338.76	82.32	-43.7	-44.5	18.3	0.00e+00	0	57	0	581959680	49	4102
2026-01-04 00:55:02.08	335.77	82.64	-43.8	-44.6	18.2	0.00e+00	0	57	0	585105408	49	4180
2026-01-04 00:55:03.07	332.53	82.93	-44.2	-45.0	17.9	0.00e+00	0	57	0	588251136	50	4134
2026-01-04 00:55:04.06	329.00	83.20	-44.4	-45.4	17.6	0.00e+00	0	57	0	591396864	50	4298
2026-01-04 00:55:05.04	325.24	83.45	-44.5	-45.4	17.5	0.00e+00	0	57	0	594542592	50	4340
2026-01-04 00:55:06.04	321.13	83.66	-44.5	-45.4	17.5	0.00e+00	0	57	0	597688320	51	4095
2026-01-04 00:55:07.03	316.78	83.84	-44.7	-45.6	17.3	0.00e+00	0	57	0	600834048	51	4185
2026-01-04 00:55:08.02	312.21	83.98	-44.8	-45.7	17.2	0.00e+00	0	57	0	603979776	51	4220
2026-01-04 00:55:09.01	307.44	84.09	-44.6	-45.5	17.5	0.00e+00	0	57	0	607125504	51	4120
2026-01-04 00:55:10.00	302.54	84.15	-44.2	-45.0	17.9	0.00e+00	0	57	0	610271232	51	3907
2026-01-04 00:55:10.99	297.58	84.16	-44.0	-44.8	18.1	0.00e+00	0	57	0	613416960	51	3800
2026-01-04 00:55:11.98	292.62	84.14	-44.4	-45.3	17.7	0.00e+00	0	57	0	616562688	51	4008
2026-01-04 00:55:12.97	287.74	84.07	-45.8	-47.0	15.9	0.00e+00	0	57	0	619708416	53	4356
2026-01-04 00:55:13.96	283.01	83.95	-45.8	-47.0	15.9	0.00e+00	0	57	0	622854144	53	4375
2026-01-04 00:55:14.96	278.44	83.80	-47.0	-48.5	14.5	0.00e+00	0	57	0	625999872	55	4615
2026-01-04 00:55:15.94	274.20	83.62	-47.9	-49.7	13.3	1.22e-05	0	57	0	629145600	57	4758
2026-01-04 00:55:16.93	270.18	83.40	-47.9	-49.6	13.4	1.52e-05	0	57	0	632291328	57	4687
2026-01-04 00:55:17.92	266.44	83.15	-47.4	-49.0	14.1	4.50e-06	0	57	0	635437056	57	4375
2026-01-04 00:55:18.91	262.98	82.87	-47.5	-49.0	14.0	1.50e-06	0	57	0	637534208	57	4378
2026-01-04 00:55:19.90	259.79	82.57	-47.8	-49.5	13.5	9.90e-06	0	57	0	640679936	57	4639
2026-01-04 00:55:20.88	256.89	82.25	-48.0	-49.8	13.2	1.83e-05	0	58	0	643825664	57	4780
2026-01-04 00:55:21.88	254.17	81.91	-47.2	-48.6	14.4	1.50e-06	0	57	0	646971392	57	4191
2026-01-04 00:55:22.86	251.73	81.56	-46.7	-48.0	15.1	7.00e-07	0	57	0	650117120	56	4117
2026-01-04 00:55:23.86	249.45	81.18	-46.5	-47.8	15.3	0.00e+00	0	57	0	653262848	56	4018
2026-01-04 00:55:24.85	247.37	80.80	-46.1	-47.3	15.7	0.00e+00	0	57	0	656408576	55	4026
2026-01-04 00:55:25.83	245.49	80.42	-45.7	-46.8	16.1	0.00e+00	0	57	0	659554304	54	4022
2026-01-04 00:55:26.81	243.75	80.02	-45.4	-46.5	16.5	0.00e+00	0	57	0	662700032	54	3870
2026-01-04 00:55:27.80	242.14	79.61	-45.0	-46.0	16.8	0.00e+00	0	57	0	665845760	53	3906
2026-01-04 00:55:28.79	240.65	79.20	-44.5	-45.4	17.5	0.00e+00	0	57	0	668991488	52	3832
2026-01-04 00:55:29.76	239.30	78.79	-44.3	-45.1	17.8	0.00e+00	0	57	0	672137216	51	3938
2026-01-04 00:55:30.75	238.02	78.36	-44.5	-45.4	17.6	0.00e+00	0	57	0	675282944	51	4098
2026-01-04 00:55:31.75	236.83	77.93	-44.9	-45.9	17.1	0.00e+00	0	57	0	678428672	51	4303
2026-01-04 00:55:32.73	235.74	77.50	-44.0	-44.8	18.1	0.00e+00	0	57	0	681574400	51	3808
2026-01-04 00:55:33.72	234.72	77.07	-43.3	-44.1	18.8	0.00e+00	0	57	0	684720128	49	3923
2026-01-04 00:55:34.71	233.76	76.63	-43.1	-43.8	19.1	0.00e+00	0	57	0	687865856	49	3809
2026-01-04 00:55:35.69	232.88	76.20	-42.9	-43.6	19.2	0.00e+00	0	57	0	691011584	48	3916
2026-01-04 00:55:36.69	232.03	75.75	-43.1	-43.8	18.9	0.00e+00	0	58	0	694157312	48	4044
2026-01-04 00:55:37.68	231.25	75.31	-43.7	-44.5	18.4	0.00e+00	0	57	0	696254464	49	4120
2026-01-04 00:55:38.66	230.52	74.87	-43.9	-44.7	18.1	0.00e+00	0	57	0	699400192	49	4214
2026-01-04 00:55:39.65	229.83	74.42	-43.2	-43.9	18.9	0.00e+00	0	57	0	702545920	49	3841
2026-01-04 00:55:40.64	229.18	73.98	-42.7	-43.3	19.5	0.00e+00	0	57	0	705691648	48	3799
2026-01-04 00:55:41.62	228.57	73.54	-42.6	-43.3	19.5	0.00e+00	0	57	0	708837376	48	3784
2026-01-04 00:55:42.61	227.99	73.09	-43.0	-43.7	19.1	0.00e+00	0	57	0	711983104	48	3986
2026-01-04 00:55:43.60	227.44	72.65	-43.3	-44.0	18.8	0.00e+00	0	57	0	715128832	48	4132
2026-01-04 00:55:44.59	226.92	72.20	-43.6	-44.4	18.2	0.00e+00	0	57	0	718274560	49	4084
2026-01-04 00:55:45.59	226.42	71.75	-43.4	-44.1	18.6	0.00e+00	0	57	0	721420288	49	3952
2026-01-04 00:55:46.58	225.95	71.31	-42.7	-43.4	19.4	0.00e+00	0	57	0	724566016	48	3839
2026-01-04 00:55:47.56	225.51	70.87	-42.1	-42.7	19.9	0.00e+00	0	57	0	727711744	47	3779
2026-01-04 00:55:48.56	225.08	70.42	-42.4	-43.1	19.6	0.00e+00	0	57	0	730857472	47	3914
2026-01-04 00:55:49.54	224.68	69.99	-43.4	-44.1	18.8	0.00e+00	0	57	0	734003200	48	4176
2026-01-04 00:55:50.53	224.30	69.55	-44.1	-45.1	17.9	0.00e+00	0	57	0	737148928	50	4147
2026-01-04 00:55:51.52	223.93	69.11	-44.5	-45.4	17.6	0.00e+00	0	57	0	740294656	50	4324
2026-01-04 00:55:52.51	223.58	68.67	-43.9	-44.7	18.3	0.00e+00	0	57	0	743440384	50	3962
2026-01-04 00:55:53.50	223.24	68.23	-43.1	-43.9	19.0	0.00e+00	0	57	0	746586112	49	3826
2026-01-04 00:55:54.49	222.92	67.80	-42.8	-43.5	19.3	0.00e+00	0	57	0	749731840	48	3889
2026-01-04 00:55:55.48	222.61	67.37	-43.1	-43.8	19.1	0.00e+00	0	57	0	752877568	48	4009
2026-01-04 00:55:56.47	222.32	66.94	-43.1	-43.9	18.8	0.00e+00	0	57	0	754974720	48	4053
2026-01-04 00:55:57.46	222.03	66.51	-43.2	-43.9	18.8	0.00e+00	0	58	0	758120448	48	4082
2026-01-04 00:55:58.45	221.76	66.08	-43.8	-44.6	18.2	0.00e+00	0	57	0	761266176	49	4187
2026-01-04 00:55:59.44	221.50	65.65	-44.0	-44.9	17.8	0.00e+00	0	57	0	764411904	50	4052
2026-01-04 00:56:00.43	221.25	65.23	-43.4	-44.1	18.5	0.00e+00	0	57	0	767557632	50	3728
2026-01-04 00:56:01.42	221.01	64.80	-42.8	-43.5	19.2	0.00e+00	0	57	0	770703360	48	3884
2026-01-04 00:56:02.41	220.77	64.38	-42.0	-42.6	19.9	0.00e+00	0	57	0	773849088	47	3728
2026-01-04 00:56:03.40	220.55	63.96	-42.1	-42.7	19.9	0.00e+00	0	57	0	776994816	47	3748
2026-01-04 00:56:04.39	220.33	63.55	-42.9	-43.5	19.1	0.00e+00	0	57	0	780140544	47	4141
2026-01-04 00:56:05.38	220.13	63.13	-43.2	-44.0	18.9	0.00e+00	0	57	0	783286272	48	4100
2026-01-04 00:56:06.37	219.92	62.72	-44.0	-44.8	18.1	0.00e+00	0	57	0	786432000	49	4250
2026-01-04 00:56:07.35	219.73	62.31	-44.4	-45.3	17.6	0.00e+00	0	57	0	789577728	50	4274
2026-01-04 00:56:08.34	219.54	61.91	-44.5	-45.3	17.4	0.00e+00	0	57	0	792723456	51	4051
2026-01-04 00:56:09.33	219.36	61.50	-43.7	-44.4	18.3	0.00e+00	0	57	0	795869184	50	3867
2026-01-04 00:56:10.32	219.19	61.10	-43.1	-43.8	18.9	0.00e+00	0	57	0	799014912	49	3817
2026-01-04 00:56:11.31	219.02	60.69	-42.9	-43.6	19.2	0.00e+00	0	57	0	802160640	49	3708
2026-01-04 00:56:12.30	218.85	60.29	-42.9	-43.6	19.2	0.00e+00	0	57	0	805306368	48	3927
2026-01-04 00:56:13.29	218.69	59.90	-43.5	-44.3	18.5	0.00e+00	0	57	0	808452096	48	4256
2026-01-04 00:56:14.29	218.54	59.50	-44.2	-45.1	17.6	0.00e+00	0	57	0	811597824	50	4151
2026-01-04 00:56:15.27	218.39	59.11	-44.2	-45.1	17.7	0.00e+00	0	57	0	813694976	50	4149
2026-01-04 00:56:16.26	218.24	58.72	-45.0	-46.0	16.9	0.00e+00	0	57	0	816840704	52	4112
2026-01-04 00:56:17.25	218.10	58.33	-45.0	-46.0	16.8	0.00e+00	0	57	0	819986432	52	4101
2026-01-04 00:56:18.24	217.96	57.95	-45.1	-46.0	16.7	0.00e+00	0	57	0	823132160	52	4142
2026-01-04 00:56:19.23	217.83	57.56	-44.2	-45.0	17.8	0.00e+00	0	57	0	826277888	51	3879
2026-01-04 00:56:20.21	217.70	57.19	-43.5	-44.3	18.5	0.00e+00	0	57	0	829423616	50	3794
2026-01-04 00:56:21.20	217.58	56.81	-43.7	-44.4	18.4	0.00e+00	0	57	0	832569344	50	3868
2026-01-04 00:56:22.19	217.46	56.43	-44.2	-45.0	17.9	0.00e+00	0	57	0	835715072	50	4130
2026-01-04 00:56:23.19	217.34	56.05	-44.6	-45.5	17.4	0.00e+00	0	58	0	838860800	51	4123
2026-01-04 00:56:24.18	217.22	55.68	-45.2	-46.3	16.6	0.00e+00	0	57	0	842006528	52	4253
2026-01-04 00:56:25.16	217.11	55.32	-45.6	-46.7	16.2	0.00e+00	0	58	0	845152256	52	4456
2026-01-04 00:56:26.15	217.00	54.95	-46.0	-47.2	15.7	0.00e+00	0	57	0	848297984	53	4484
2026-01-04 00:56:27.15	216.89	54.58	-45.7	-46.9	16.0	0.00e+00	0	57	0	851443712	53	4300
2026-01-04 00:56:28.13	216.79	54.23	-45.8	-47.0	15.8	0.00e+00	0	57	0	854589440	53	4378
2026-01-04 00:56:29.12	216.69	53.87	-46.4	-47.8	15.0	0.00e+00	0	57	0	857735168	54	4519
2026-01-04 00:56:30.11	216.59	53.51	-46.0	-47.2	15.6	0.00e+00	0	57	0	860880896	54	4233
2026-01-04 00:56:31.10	216.49	53.16	-45.2	-46.3	16.5	0.00e+00	0	57	0	864026624	53	4007
2026-01-04 00:56:32.09	216.40	52.80	-44.7	-45.6	17.2	0.00e+00	0	57	0	867172352	52	3937
2026-01-04 00:56:33.08	216.31	52.45	-44.6	-45.5	17.3	0.00e+00	0	57	0	869269504	52	3906
2026-01-04 00:56:34.07	216.22	52.11	-45.1	-46.1	16.7	0.00e+00	0	57	0	872415232	52	4165
2026-01-04 00:56:35.05	216.13	51.77	-45.5	-46.7	16.2	0.00e+00	0	57	0	875560960	52	4443
2026-01-04 00:56:36.04	216.05	51.42	-46.5	-47.8	15.1	0.00e+00	0	57	0	878706688	54	4523
2026-01-04 00:56:37.03	215.96	51.08	-46.5	-47.9	15.0	0.00e+00	0	57	0	881852416	55	4310
2026-01-04 00:56:38.02	215.88	50.75	-46.5	-47.9	15.1	0.00e+00	0	57	0	884998144	55	4298
2026-01-04 00:56:39.01	215.80	50.41	-46.7	-48.1	14.8	0.00e+00	0	57	0	888143872	55	4439
2026-01-04 00:56:40.01	215.73	50.07	-46.8	-48.2	14.8	0.00e+00	0	57	0	891289600	55	4451
2026-01-04 00:56:41.00	215.65	49.74	-47.4	-49.0	14.0	3.00e-06	0	57	0	894435328	56	4631
2026-01-04 00:56:41.99	215.58	49.41	-47.6	-49.3	13.7	5.30e-06	0	57	0	897581056	57	4519
2026-01-04 00:56:42.99	215.50	49.09	-48.0	-49.9	13.1	2.97e-05	0	57	0	900726784	57	4841
2026-01-04 00:56:43.98	215.43	48.76	-47.6	-49.3	13.6	9.10e-06	0	57	0	903872512	57	4534
2026-01-04 00:56:44.97	215.36	48.44	-46.9	-48.4	14.6	7.00e-07	0	57	0	907018240	57	4060
2026-01-04 00:56:45.96	215.30	48.12	-46.2	-47.4	15.4	7.00e-07	0	57	0	910163968	55	4080
2026-01-04 00:56:46.95	215.23	47.80	-45.8	-46.9	16.0	0.00e+00	0	57	0	913309696	54	4062
2026-01-04 00:56:47.94	215.16	47.49	-46.0	-47.2	15.7	0.00e+00	0	57	0	916455424	54	4194
2026-01-04 00:56:48.93	215.10	47.18	-46.8	-48.2	14.7	0.00e+00	0	57	0	919601152	55	4475
2026-01-04 00:56:49.92	215.04	46.87	-47.6	-49.3	13.8	7.00e-07	0	57	0	922746880	57	4501
2026-01-04 00:56:50.91	214.98	46.56	-47.7	-49.5	13.5	8.30e-06	0	57	0	925892608	57	4638
2026-01-04 00:56:51.90	214.92	46.26	-48.2	-50.1	12.9	4.11e-05	0	57	0	929038336	58	4691
2026-01-04 00:56:52.89	214.86	45.95	-48.3	-50.3	12.7	6.94e-05	0	57	0	932184064	58	4765
2026-01-04 00:56:53.88	214.80	45.65	-48.4	-50.4	12.5	1.06e-04	0	57	0	935329792	58	4864
2026-01-04 00:56:54.87	214.75	45.35	-48.2	-50.2	12.8	6.25e-05	0	57	0	937426944	58	4710
2026-01-04 00:56:55.86	214.69	45.06	-48.6	-50.6	12.3	1.25e-04	0	57	0	940572672	58	4977
2026-01-04 00:56:56.85	214.64	44.76	-48.7	-50.8	12.1	3.39e-04	0	57	0	943718400	59	4800
2026-01-04 00:56:57.85	214.58	44.47	-49.2	-51.8	11.1	8.47e-04	0	57	0	946864128	60	5067
2026-01-04 00:56:58.84	214.53	44.18	-49.1	-51.7	11.2	1.86e-03	0	58	0	950009856	60	4998
2026-01-04 00:56:59.83	214.48	43.89	-49.1	-51.7	11.3	1.12e-03	0	57	0	953155584	60	4990
2026-01-04 00:57:00.82	214.43	43.60	-49.3	-52.1	10.9	2.11e-03	0	57	0	956301312	60	5229
2026-01-04 00:57:01.82	214.38	43.31	-49.3	-51.9	11.0	1.93e-03	0	57	0	959447040	60	5119
2026-01-04 00:57:02.80	214.34	43.04	-49.0	-51.3	11.6	9.16e-04	0	57	0	962592768	60	4798
2026-01-04 00:57:03.78	214.29	42.76	-48.7	-50.9	12.1	3.40e-04	0	57	0	965738496	60	4563
2026-01-04 00:57:04.77	214.24	42.48	-48.8	-51.0	11.9	3.67e-04	0	57	0	968884224	60	4643
2026-01-04 00:57:05.76	214.20	42.20	-48.9	-51.3	11.7	6.06e-04	0	57	0	972029952	60	4766
2026-01-04 00:57:06.75	214.15	41.93	-49.2	-51.8	11.2	9.35e-04	0	57	0	975175680	60	5052
2026-01-04 00:57:07.74	214.11	41.66	-49.4	-52.0	10.9	2.44e-03	0	57	0	978321408	60	5218
2026-01-04 00:57:08.72	214.07	41.39	-49.1	-51.7	11.3	1.51e-03	0	57	0	981467136	60	4984
2026-01-04 00:57:09.71	214.02	41.12	-48.8	-51.1	11.8	5.62e-04	0	57	0	984612864	60	4686
2026-01-04 00:57:10.70	213.98	40.86	-48.4	-50.6	12.4	2.34e-04	0	57	0	987758592	60	4404
2026-01-04 00:57:11.69	213.94	40.59	-48.2	-50.1	12.9	8.69e-05	0	57	0	990904320	59	4411
2026-01-04 00:57:12.68	213.90	40.33	-47.8	-49.6	13.4	1.29e-05	0	57	0	994050048	58	4404
2026-01-04 00:57:13.67	213.86	40.07	-47.6	-49.2	13.8	8.30e-06	0	57	0	996147200	58	4239
2026-01-04 00:57:14.67	213.82	39.81	-47.6	-49.2	13.8	2.20e-06	0	57	0	999292928	58	4230
2026-01-04 00:57:15.66	213.79	39.55	-47.6	-49.2	13.8	4.50e-06	0	57	0	1002438656	58	4220
2026-01-04 00:57:16.64	213.75	39.30	-47.3	-48.8	14.2	3.00e-06	0	57	0	1005584384	57	4263
2026-01-04 00:57:17.63	213.71	39.05	-46.9	-48.3	14.7	7.00e-07	0	57	0	1008730112	56	4262
2026-01-04 00:57:18.62	213.68	38.80	-46.6	-48.0	15.0	0.00e+00	0	57	0	1011875840	56	4100
2026-01-04 00:57:19.61	213.64	38.55	-46.5	-47.8	15.2	0.00e+00	0	57	0	1015021568	56	4022
2026-01-04 00:57:20.60	213.61	38.30	-46.4	-47.8	15.2	0.00e+00	0	57	0	1018167296	56	4013
2026-01-04 00:57:21.59	213.57	38.06	-46.5	-47.9	15.1	0.00e+00	0	57	0	1021313024	56	4095
2026-01-04 00:57:22.58	213.54	37.81	-46.6	-48.0	15.0	0.00e+00	0	57	0	1024458752	56	4124
2026-01-04 00:57:23.57	213.50	37.57	-46.5	-47.9	15.1	0.00e+00	0	57	0	1027604480	56	4062
2026-01-04 00:57:24.57	213.47	37.33	-46.4	-47.8	15.2	0.00e+00	0	57	0	1030750208	56	4010
2026-01-04 00:57:25.56	213.44	37.09	-46.3	-47.6	15.3	0.00e+00	0	57	0	1033895936	55	4151
2026-01-04 00:57:26.54	213.41	36.86	-46.4	-47.8	15.1	0.00e+00	0	57	0	1037041664	55	4248
2026-01-04 00:57:27.53	213.38	36.62	-46.3	-47.6	15.2	0.00e+00	0	57	0	1040187392	55	4184
2026-01-04 00:57:28.51	213.35	36.39	-46.0	-47.2	15.6	0.00e+00	0	57	0	1043333120	55	4002
2026-01-04 00:57:29.50	213.32	36.16	-46.0	-47.2	15.7	0.00e+00	0	57	0	1046478848	55	3976
2026-01-04 00:57:30.48	213.29	35.93	-46.2	-47.4	15.4	0.00e+00	0	57	0	1049624576	55	4087
2026-01-04 00:57:31.47	213.26	35.70	-46.5	-47.8	15.1	0.00e+00	0	57	0	1052770304	55	4253
2026-01-04 00:57:32.47	213.23	35.47	-46.6	-48.0	14.9	0.00e+00	0	57	0	1054867456	55	4357
2026-01-04 00:57:33.46	213.20	35.25	-46.9	-48.4	14.5	7.00e-07	0	57	0	1058013184	55	4568
2026-01-04 00:57:34.44	213.17	35.03	-46.9	-48.4	14.4	0.00e+00	0	57	0	1061158912	55	4593
2026-01-04 00:57:35.42	213.15	34.81	-47.0	-48.6	14.3	0.00e+00	0	58	0	1064304640	55	4675
2026-01-04 00:57:36.41	213.12	34.58	-47.3	-48.9	14.0	4.50e-06	0	57	0	1067450368	56	4589
2026-01-04 00:57:37.40	213.09	34.37	-46.9	-48.4	14.6	3.00e-06	0	57	0	1070596096	56	4297
2026-01-04 00:57:38.38	213.07	34.15	-46.6	-48.0	15.0	0.00e+00	0	58	0	1073741824	56	4099
2026-01-04 00:57:39.37	213.04	33.93	-46.2	-47.4	15.4	0.00e+00	0	57	0	1076887552	55	4090
2026-01-04 00:57:40.35	213.01	33.72	-46.0	-47.3	15.6	0.00e+00	0	57	0	1080033280	55	4015
2026-01-04 00:57:41.35	212.99	33.51	-45.8	-47.0	15.8	0.00e+00	0	57	0	1083179008	54	4141
2026-01-04 00:57:42.34	212.96	33.29	-45.7	-46.9	16.0	0.00e+00	0	57	0	1086324736	54	4055
2026-01-04 00:57:43.31	212.94	33.09	-45.5	-46.6	16.3	0.00e+00	0	57	0	1089470464	54	3920
2026-01-04 00:57:44.30	212.92	32.88	-45.6	-46.8	16.1	0.00e+00	0	57	0	1092616192	54	4015
2026-01-04 00:57:45.28	212.89	32.67	-45.8	-46.9	15.9	0.00e+00	0	57	0	1095761920	54	4077
2026-01-04 00:57:46.27	212.87	32.47	-45.4	-46.4	16.4	0.00e+00	0	57	0	1098907648	53	4095
2026-01-04 00:57:47.26	212.85	32.26	-45.0	-46.0	16.8	0.00e+00	0	57	0	1102053376	53	3888
2026-01-04 00:57:48.25	212.82	32.06	-44.7	-45.7	17.1	0.00e+00	0	57	0	1105199104	52	3965
2026-01-04 00:57:49.24	212.80	31.86	-44.7	-45.7	17.1	0.00e+00	0	57	0	1108344832	52	3975
2026-01-04 00:57:50.24	212.78	31.66	-45.0	-46.1	16.7	0.00e+00	0	58	0	1111490560	52	4147
2026-01-04 00:57:51.22	212.76	31.46	-45.3	-46.3	16.5	0.00e+00	0	57	0	1113587712	52	4283
2026-01-04 00:57:52.21	212.74	31.26	-45.4	-46.5	16.3	0.00e+00	0	58	0	1116733440	52	4362
2026-01-04 00:57:53.20	212.72	31.06	-45.5	-46.6	16.2	0.00e+00	0	58	0	1119879168	52	4428
2026-01-04 00:57:54.19	212.70	30.87	-45.4	-46.5	16.2	0.00e+00	0	57	0	1123024896	52	4390
2026-01-04 00:57:55.18	212.67	30.67	-45.5	-46.6	16.1	0.00e+00	0	57	0	1126170624	52	4431
2026-01-04 00:57:56.17	212.65	30.48	-45.5	-46.6	16.1	0.00e+00	0	57	0	1129316352	52	4429
2026-01-04 00:57:57.16	212.63	30.29	-45.3	-46.4	16.4	0.00e+00	0	57	0	1132462080	52	4296
2026-01-04 00:57:58.15	212.61	30.10	-45.1	-46.1	16.6	0.00e+00	0	57	0	1135607808	52	4188
2026-01-04 00:57:59.13	212.60	29.91	-45.0	-46.1	16.7	0.00e+00	0	57	0	1138753536	52	4177
2026-01-04 00:58:00.11	212.58	29.73	-45.1	-46.1	16.6	0.00e+00	0	57	0	1141899264	52	4186
2026-01-04 00:58:01.10	212.56	29.54	-44.9	-45.9	16.8	0.00e+00	0	57	0	1145044992	52	4090
2026-01-04 00:58:02.09	212.54	29.36	-45.0	-46.1	16.7	0.00e+00	0	58	0	1148190720	52	4160
2026-01-04 00:58:03.09	212.52	29.17	-45.2	-46.2	16.6	0.00e+00	0	58	0	1151336448	52	4226
2026-01-04 00:58:04.08	212.50	28.99	-44.9	-45.9	16.8	0.00e+00	0	58	0	1154482176	52	4084
2026-01-04 00:58:05.08	212.48	28.80	-44.7	-45.7	17.0	0.00e+00	0	58	0	1157627904	52	3991
2026-01-04 00:58:06.06	212.47	28.63	-44.7	-45.7	17.0	0.00e+00	0	57	0	1160773632	52	4004
2026-01-04 00:58:07.05	212.45	28.45	-44.6	-45.6	17.1	0.00e+00	0	58	0	1163919360	52	3937
2026-01-04 00:58:08.04	212.43	28.27	-44.6	-45.6	17.1	0.00e+00	0	57	0	1167065088	52	3929
2026-01-04 00:58:09.03	212.42	28.09	-44.9	-45.9	16.8	0.00e+00	0	58	0	1170210816	52	4075
2026-01-04 00:58:10.02	212.40	27.92	-44.6	-45.6	17.1	0.00e+00	0	57	0	1172307968	52	3933
2026-01-04 00:58:11.01	212.38	27.74	-44.7	-45.7	17.1	0.00e+00	0	57	0	1175453696	52	3963
2026-01-04 00:58:12.00	212.37	27.57	-44.9	-45.9	16.9	0.00e+00	0	58	0	1178599424	52	4055
2026-01-04 00:58:12.98	212.35	27.40	-44.6	-45.5	17.2	0.00e+00	0	57	0	1181745152	52	3896
2026-01-04 00:58:13.98	212.33	27.22	-44.3	-45.2	17.6	0.00e+00	0	58	0	1184890880	51	3974
2026-01-04 00:58:14.97	212.32	27.05	-44.1	-45.0	17.9	0.00e+00	0	57	0	1188036608	51	3874
2026-01-04 00:58:15.96	212.30	26.88	-44.0	-44.9	17.9	0.00e+00	0	57	0	1191182336	51	3833
2026-01-04 00:58:16.95	212.29	26.71	-44.0	-44.9	17.9	0.00e+00	0	58	0	1194328064	51	3830
2026-01-04 00:58:17.94	212.27	26.55	-44.0	-44.9	17.9	0.00e+00	0	58	0	1197473792	51	3827
2026-01-04 00:58:18.94	212.26	26.38	-44.0	-44.8	17.9	0.00e+00	0	58	0	1200619520	51	3814
2026-01-04 00:58:19.94	212.24	26.21	-44.2	-45.0	17.7	0.00e+00	0	58	0	1203765248	51	3912
2026-01-04 00:58:20.92	212.23	26.05	-44.1	-44.9	17.9	0.00e+00	0	57	0	1206910976	51	3857
2026-01-04 00:58:21.91	212.21	25.89	-44.1	-45.0	17.8	0.00e+00	0	57	0	1210056704	51	3897
2026-01-04 00:58:22.91	212.20	25.72	-44.5	-45.4	17.4	0.00e+00	0	58	0	1213202432	51	4068
2026-01-04 00:58:23.90	212.19	25.56	-44.5	-45.4	17.4	0.00e+00	0	57	0	1216348160	51	4090
2026-01-04 00:58:24.89	212.17	25.40	-44.6	-45.5	17.3	0.00e+00	0	57	0	1219493888	51	4126
2026-01-04 00:58:25.89	212.16	25.24	-44.7	-45.6	17.2	0.00e+00	0	58	0	1222639616	51	4192
2026-01-04 00:58:26.88	212.15	25.08	-44.6	-45.5	17.3	0.00e+00	0	57	0	1225785344	51	4125
2026-01-04 00:58:27.87	212.13	24.92	-44.5	-45.4	17.4	0.00e+00	0	57	0	1228931072	51	4069
2026-01-04 00:58:28.87	212.12	24.77	-44.5	-45.4	17.4	0.00e+00	0	57	0	1232076800	51	4093
2026-01-04 00:58:29.85	212.11	24.61	-44.6	-45.6	17.2	0.00e+00	0	57	0	1235222528	51	4153
2026-01-04 00:58:30.84	212.09	24.46	-44.4	-45.3	17.4	0.00e+00	0	57	0	1238368256	51	4041
2026-01-04 00:58:31.83	212.08	24.30	-44.3	-45.2	17.6	0.00e+00	0	58	0	1241513984	51	3969
2026-01-04 00:58:32.82	212.07	24.15	-44.3	-45.2	17.5	0.00e+00	0	58	0	1243611136	51	3994
2026-01-04 00:58:33.81	212.06	24.00	-44.6	-45.5	17.3	0.00e+00	0	58	0	1246756864	51	4131
2026-01-04 00:58:34.81	212.04	23.85	-44.6	-45.5	17.3	0.00e+00	0	57	0	1249902592	51	4122
2026-01-04 00:58:35.80	212.03	23.70	-44.7	-45.6	17.2	0.00e+00	0	58	0	1253048320	51	4170
2026-01-04 00:58:36.79	212.02	23.55	-44.8	-45.8	17.0	0.00e+00	0	58	0	1256194048	51	4274
2026-01-04 00:58:37.78	212.01	23.40	-44.8	-45.8	17.0	0.00e+00	0	57	0	1259339776	51	4264
2026-01-04 00:58:38.76	212.00	23.25	-44.7	-45.7	17.1	0.00e+00	0	57	0	1262485504	51	4207
2026-01-04 00:58:39.75	211.99	23.10	-44.7	-45.7	17.1	0.00e+00	0	57	0	1265631232	51	4202
2026-01-04 00:58:40.74	211.97	22.96	-44.9	-45.9	16.9	0.00e+00	0	57	0	1268776960	51	4312
2026-01-04 00:58:41.74	211.96	22.81	-44.9	-45.8	16.9	0.00e+00	0	58	0	1271922688	51	4283
2026-01-04 00:58:42.73	211.95	22.67	-44.9	-45.9	16.9	0.00e+00	0	58	0	1275068416	51	4296
2026-01-04 00:58:43.72	211.94	22.52	-44.9	-45.8	16.9	0.00e+00	0	58	0	1278214144	51	4285
2026-01-04 00:58:44.71	211.93	22.38	-44.5	-45.4	17.4	0.00e+00	0	58	0	1281359872	51	4071
2026-01-04 00:58:45.70	211.92	22.24	-44.2	-45.1	17.7	0.00e+00	0	57	0	1284505600	51	3917
2026-01-04 00:58:46.69	211.91	22.10	-44.1	-44.9	17.8	0.00e+00	0	58	0	1287651328	51	3858
2026-01-04 00:58:47.67	211.90	21.96	-44.0	-44.8	17.9	0.00e+00	0	58	0	1290797056	51	3817
2026-01-04 00:58:48.66	211.89	21.82	-43.9	-44.7	18.0	0.00e+00	0	58	0	1293942784	51	3762
2026-01-04 00:58:49.65	211.88	21.68	-44.0	-44.8	17.9	0.00e+00	0	58	0	1297088512	50	4026
2026-01-04 00:58:50.65	211.87	21.54	-44.2	-45.0	17.7	0.00e+00	0	58	0	1300234240	50	4132
2026-01-04 00:58:51.64	211.86	21.40	-44.1	-44.9	17.8	0.00e+00	0	57	0	1303379968	50	4079
2026-01-04 00:58:52.63	211.85	21.27	-43.9	-44.8	17.9	0.00e+00	0	57	0	1306525696	50	4008
2026-01-04 00:58:53.63	211.84	21.13	-43.8	-44.7	18.0	0.00e+00	0	57	0	1308622848	50	3980
2026-01-04 00:58:54.62	211.83	20.99	-43.9	-44.7	18.0	0.00e+00	0	57	0	1311768576	50	3969
2026-01-04 00:58:55.61	211.82	20.86	-44.0	-44.8	17.9	0.00e+00	0	58	0	1314914304	50	4043
2026-01-04 00:58:56.59	211.81	20.73	-44.0	-44.9	17.8	0.00e+00	0	57	0	1318060032	50	4056
2026-01-04 00:58:57.58	211.80	20.59	-43.9	-44.8	17.9	0.00e+00	0	58	0	1321205760	50	4006
2026-01-04 00:58:58.57	211.79	20.46	-44.0	-44.8	17.9	0.00e+00	0	58	0	1324351488	50	4018
2026-01-04 00:58:59.56	211.78	20.33	-44.1	-44.9	17.8	0.00e+00	0	58	0	1327497216	50	4074
2026-01-04 00:59:00.55	211.78	20.20	-44.2	-45.1	17.6	0.00e+00	0	58	0	1330642944	50	4154
2026-01-04 00:59:01.54	211.77	20.07	-44.2	-45.1	17.6	0.00e+00	0	57	0	1333788672	50	4158
2026-01-04 00:59:02.53	211.76	19.94	-44.2	-45.1	17.6	0.00e+00	0	58	0	1336934400	50	4180
2026-01-04 00:59:03.52	211.75	19.81	-44.2	-45.1	17.6	0.00e+00	0	58	0	1340080128	50	4156
2026-01-04 00:59:04.50	211.74	19.68	-44.2	-45.1	17.6	0.00e+00	0	58	0	1343225856	50	4149
2026-01-04 00:59:05.49	211.73	19.56	-44.3	-45.2	17.5	0.00e+00	0	58	0	1346371584	50	4233
2026-01-04 00:59:06.48	211.72	19.43	-44.4	-45.3	17.4	0.00e+00	0	58	0	1349517312	50	4253
2026-01-04 00:59:07.48	211.72	19.30	-44.4	-45.3	17.4	0.00e+00	0	57	0	1352663040	50	4247
2026-01-04 00:59:08.47	211.71	19.17	-44.6	-45.5	17.2	0.00e+00	0	58	0	1355808768	50	4362
2026-01-04 00:59:09.45	211.70	19.05	-44.7	-45.7	17.0	0.00e+00	0	58	0	1358954496	51	4200
2026-01-04 00:59:10.45	211.69	18.93	-44.6	-45.6	17.1	0.00e+00	0	58	0	1362100224	51	4154
2026-01-04 00:59:11.43	211.68	18.80	-44.8	-45.7	16.9	0.00e+00	0	58	0	1365245952	51	4234
2026-01-04 00:59:12.42	211.68	18.68	-44.6	-45.5	17.2	0.00e+00	0	58	0	1367343104	51	4134
2026-01-04 00:59:13.41	211.67	18.56	-44.5	-45.4	17.3	0.00e+00	0	58	0	1370488832	51	4076
2026-01-04 00:59:14.39	211.66	18.44	-44.5	-45.4	17.3	0.00e+00	0	58	0	1373634560	51	4077
2026-01-04 00:59:15.38	211.65	18.31	-44.6	-45.5	17.1	0.00e+00	0	58	0	1376780288	51	4143
2026-01-04 00:59:16.37	211.65	18.19	-44.7	-45.7	17.0	0.00e+00	0	58	0	1379926016	51	4219
2026-01-04 00:59:17.35	211.64	18.07	-44.7	-45.6	17.0	0.00e+00	0	58	0	1383071744	51	4191
2026-01-04 00:59:18.34	211.63	17.96	-44.7	-45.6	17.0	0.00e+00	0	58	0	1386217472	51	4182
2026-01-04 00:59:19.33	211.63	17.84	-44.8	-45.8	16.9	0.00e+00	0	58	0	1389363200	51	4255
2026-01-04 00:59:20.31	211.62	17.72	-44.8	-45.8	16.9	0.00e+00	0	58	0	1392508928	51	4277
2026-01-04 00:59:21.30	211.61	17.60	-44.8	-45.8	16.8	0.00e+00	0	58	0	1395654656	51	4285
2026-01-04 00:59:22.29	211.60	17.48	-44.9	-46.0	16.7	0.00e+00	0	58	0	1398800384	51	4351
2026-01-04 00:59:23.28	211.60	17.37	-45.0	-46.0	16.7	0.00e+00	0	58	0	1401946112	51	4363
2026-01-04 00:59:24.27	211.59	17.25	-45.1	-46.2	16.5	0.00e+00	0	58	0	1405091840	51	4447
2026-01-04 00:59:25.26	211.58	17.13	-45.2	-46.2	16.3	0.00e+00	0	58	0	1408237568	52	4239
2026-01-04 00:59:26.25	211.58	17.02	-45.0	-46.1	16.5	0.00e+00	0	58	0	1411383296	52	4156
2026-01-04 00:59:27.24	211.57	16.91	-45.0	-46.1	16.5	0.00e+00	0	58	0	1414529024	52	4160
2026-01-04 00:59:28.23	211.57	16.79	-45.1	-46.2	16.4	0.00e+00	0	58	0	1417674752	52	4225
2026-01-04 00:59:29.22	211.56	16.68	-45.2	-46.3	16.3	0.00e+00	0	58	0	1419771904	52	4275
2026-01-04 00:59:30.20	211.55	16.57	-45.1	-46.1	16.4	0.00e+00	0	58	0	1422917632	52	4193
2026-01-04 00:59:31.20	211.55	16.45	-45.3	-46.4	16.2	0.00e+00	0	58	0	1426063360	52	4312
2026-01-04 00:59:32.19	211.54	16.34	-45.4	-46.6	16.0	0.00e+00	0	58	0	1429209088	52	4431
2026-01-04 00:59:33.17	211.53	16.23	-45.2	-46.4	16.2	0.00e+00	0	58	0	1432354816	52	4295
2026-01-04 00:59:34.16	211.53	16.12	-45.1	-46.2	16.3	0.00e+00	0	58	0	1435500544	52	4228
2026-01-04 00:59:35.15	211.52	16.01	-45.1	-46.1	16.4	0.00e+00	0	58	0	1438646272	52	4187
2026-01-04 00:59:36.13	211.52	15.90	-45.2	-46.3	16.2	0.00e+00	0	58	0	1441792000	52	4263
2026-01-04 00:59:37.12	211.51	15.79	-45.3	-46.4	16.1	0.00e+00	0	58	0	1444937728	52	4318
2026-01-04 00:59:38.12	211.51	15.68	-45.1	-46.2	16.4	0.00e+00	0	58	0	1448083456	52	4194
2026-01-04 00:59:39.10	211.50	15.57	-45.0	-46.1	16.4	0.00e+00	0	58	0	1451229184	52	4150
2026-01-04 00:59:40.09	211.49	15.46	-45.0	-46.0	16.5	0.00e+00	0	58	0	1454374912	52	4143
2026-01-04 00:59:41.08	211.49	15.36	-44.9	-46.0	16.5	0.00e+00	0	58	0	1457520640	52	4113
2026-01-04 00:59:42.07	211.48	15.25	-45.0	-46.1	16.4	0.00e+00	0	58	0	1460666368	52	4177
2026-01-04 00:59:43.06	211.48	15.14	-45.4	-46.5	16.0	0.00e+00	0	58	0	1463812096	52	4391
2026-01-04 00:59:44.05	211.47	15.04	-45.2	-46.3	16.2	0.00e+00	0	58	0	1466957824	52	4288
2026-01-04 00:59:45.04	211.47	14.93	-45.5	-46.7	15.8	0.00e+00	0	58	0	1470103552	52	4451
2026-01-04 00:59:46.03	211.46	14.83	-45.3	-46.5	16.0	0.00e+00	0	58	0	1472200704	52	4379
2026-01-04 00:59:47.02	211.46	14.72	-45.5	-46.7	15.8	0.00e+00	0	58	0	1475346432	52	4467
2026-01-04 00:59:48.00	211.45	14.62	-45.3	-46.4	16.0	0.00e+00	0	58	0	1478492160	52	4334
2026-01-04 00:59:49.00	211.45	14.51	-45.1	-46.2	16.3	0.00e+00	0	58	0	1481637888	52	4219
2026-01-04 00:59:49.99	211.44	14.41	-45.1	-46.3	16.2	0.00e+00	0	58	0	1484783616	52	4253
2026-01-04 00:59:50.98	211.44	14.31	-45.3	-46.4	16.1	0.00e+00	0	58	0	1487929344	52	4329
2026-01-04 00:59:51.96	211.43	14.20	-45.3	-46.4	16.1	0.00e+00	0	58	0	1491075072	52	4315
2026-01-04 00:59:52.95	211.43	14.10	-45.3	-46.5	15.9	0.00e+00	0	58	0	1494220800	52	4374
2026-01-04 00:59:53.94	211.42	14.00	-45.5	-46.7	15.8	0.00e+00	0	58	0	1497366528	52	4479
2026-01-04 00:59:54.93	211.42	13.90	-45.4	-46.5	15.9	0.00e+00	0	58	0	1500512256	52	4381
2026-01-04 00:59:55.93	211.41	13.80	-45.2	-46.3	16.1	0.00e+00	0	58	0	1503657984	52	4279
2026-01-04 00:59:56.91	211.41	13.70	-45.2	-46.4	16.1	0.00e+00	0	58	0	1506803712	52	4302
2026-01-04 00:59:57.90	211.40	13.60	-45.3	-46.4	16.1	0.00e+00	0	58	0	1509949440	52	4319
2026-01-04 00:59:58.89	211.40	13.50	-45.4	-46.6	15.8	0.00e+00	0	58	0	1513095168	52	4438
2026-01-04 00:59:59.87	211.40	13.40	-45.4	-46.6	15.9	0.00e+00	0	58	0	1516240896	52	4404
2026-01-04 01:00:00.86	211.39	13.30	-45.4	-46.6	15.9	0.00e+00	0	58	0	1519386624	52	4411
2026-01-04 01:00:01.86	211.39	13.20	-45.5	-46.7	15.7	0.00e+00	0	58	0	1522532352	52	4467
2026-01-04 01:00:02.84	211.38	13.10	-45.4	-46.6	15.9	0.00e+00	0	58	0	1525678080	52	4393
2026-01-04 01:00:03.83	211.38	13.01	-45.3	-46.4	16.0	0.00e+00	0	58	0	1528823808	52	4319
2026-01-04 01:00:04.82	211.37	12.91	-45.3	-46.5	15.9	0.00e+00	0	58	0	1531969536	52	4368
2026-01-04 01:00:05.80	211.37	12.81	-45.3	-46.5	16.0	0.00e+00	0	58	0	1534066688	52	4346
2026-01-04 01:00:06.80	211.37	12.72	-45.3	-46.5	15.9	0.00e+00	0	58	0	1537212416	52	4373
2026-01-04 01:00:07.79	211.36	12.62	-45.5	-46.7	15.8	0.00e+00	0	58	0	1540358144	52	4452
2026-01-04 01:00:08.78	211.36	12.52	-45.5	-46.7	15.7	0.00e+00	0	58	0	1543503872	52	4449
2026-01-04 01:00:09.77	211.35	12.43	-45.6	-46.8	15.6	0.00e+00	0	58	0	1546649600	52	4505
2026-01-04 01:00:10.76	211.35	12.33	-45.7	-47.0	15.4	0.00e+00	0	58	0	1549795328	53	4350
2026-01-04 01:00:11.76	211.35	12.24	-45.6	-46.8	15.6	0.00e+00	0	58	0	1552941056	53	4275
2026-01-04 01:00:12.75	211.34	12.14	-45.6	-46.8	15.5	0.00e+00	0	58	0	1556086784	53	4281
2026-01-04 01:00:13.75	211.34	12.05	-45.7	-47.0	15.4	0.00e+00	0	58	0	1559232512	53	4359
2026-01-04 01:00:14.74	211.34	11.96	-45.7	-46.9	15.5	0.00e+00	0	58	0	1562378240	53	4317
2026-01-04 01:00:15.73	211.33	11.86	-45.8	-47.1	15.3	0.00e+00	0	58	0	1565523968	53	4435
2026-01-04 01:00:16.72	211.33	11.77	-45.8	-47.1	15.3	0.00e+00	0	58	0	1568669696	53	4420
2026-01-04 01:00:17.71	211.32	11.68	-45.9	-47.2	15.2	0.00e+00	0	58	0	1571815424	53	4471
2026-01-04 01:00:18.70	211.32	11.59	-45.8	-47.1	15.2	7.00e-07	0	58	0	1574961152	53	4441
2026-01-04 01:00:19.69	211.32	11.49	-45.7	-46.9	15.4	0.00e+00	0	58	0	1578106880	53	4338
2026-01-04 01:00:20.67	211.31	11.40	-45.6	-46.9	15.5	0.00e+00	0	58	0	1581252608	53	4300
2026-01-04 01:00:21.66	211.31	11.31	-45.6	-46.8	15.5	0.00e+00	0	58	0	1584398336	53	4273
2026-01-04 01:00:22.65	211.31	11.22	-45.6	-46.9	15.4	0.00e+00	0	58	0	1587544064	53	4338
2026-01-04 01:00:23.65	211.30	11.13	-45.7	-47.0	15.3	0.00e+00	0	58	0	1590689792	53	4382
2026-01-04 01:00:24.63	211.30	11.04	-45.8	-47.2	15.2	0.00e+00	0	58	0	1593835520	53	4446
2026-01-04 01:00:25.62	211.30	10.95	-46.1	-47.5	14.9	0.00e+00	0	58	0	1596981248	53	4604
2026-01-04 01:00:26.60	211.30	10.86	-46.1	-47.5	14.9	7.00e-07	0	58	0	1599078400	54	4341
2026-01-04 01:00:27.59	211.29	10.77	-45.9	-47.3	15.1	0.00e+00	0	58	0	1602224128	54	4246
2026-01-04 01:00:28.57	211.29	10.69	-45.9	-47.2	15.1	0.00e+00	0	58	0	1605369856	54	4242
2026-01-04 01:00:29.56	211.29	10.60	-46.0	-47.4	15.0	0.00e+00	0	58	0	1608515584	54	4294
2026-01-04 01:00:30.55	211.28	10.51	-46.1	-47.5	14.9	0.00e+00	0	58	0	1611661312	54	4353
2026-01-04 01:00:31.54	211.28	10.42	-46.1	-47.5	14.8	0.00e+00	0	58	0	1614807040	54	4364
2026-01-04 01:00:32.53	211.28	10.33	-46.2	-47.6	14.7	0.00e+00	0	58	0	1617952768	54	4425
2026-01-04 01:00:33.52	211.27	10.25	-46.1	-47.5	14.8	0.00e+00	0	58	0	1621098496	54	4378
2026-01-04 01:00:34.51	211.27	10.16	-46.3	-47.9	14.5	0.00e+00	0	58	0	1624244224	54	4552
2026-01-04 01:00:35.50	211.27	10.07	-46.5	-48.1	14.2	4.50e-06	0	58	0	1627389952	54	4685
2026-01-04 01:00:36.48	211.27	9.99	-46.4	-47.9	14.4	1.50e-06	0	58	0	1630535680	54	4577
2026-01-04 01:00:37.48	211.26	9.90	-46.6	-48.1	14.2	7.00e-07	0	58	0	1633681408	54	4698
2026-01-04 01:00:38.47	211.26	9.81	-46.6	-48.2	14.1	3.00e-06	0	58	0	1636827136	55	4473
2026-01-04 01:00:39.46	211.26	9.73	-46.7	-48.3	14.0	3.80e-06	0	58	0	1639972864	55	4527
2026-01-04 01:00:40.45	211.25	9.64	-46.7	-48.3	13.9	5.30e-06	0	58	0	1643118592	55	4531
2026-01-04 01:00:41.44	211.25	9.56	-46.7	-48.3	13.9	1.50e-06	0	58	0	1646264320	55	4525
2026-01-04 01:00:42.43	211.25	9.47	-46.7	-48.4	13.9	4.50e-06	0	58	0	1649410048	55	4567
2026-01-04 01:00:43.41	211.25	9.39	-46.7	-48.3	13.9	2.20e-06	0	58	0	1652555776	55	4540
2026-01-04 01:00:44.40	211.24	9.31	-46.8	-48.4	13.9	4.50e-06	0	58	0	1655701504	55	4564
2026-01-04 01:00:45.39	211.24	9.22	-46.5	-48.1	14.2	1.50e-06	0	58	0	1658847232	55	4414
2026-01-04 01:00:46.38	211.24	9.14	-46.3	-47.8	14.5	0.00e+00	0	58	0	1660944384	55	4273
2026-01-04 01:00:47.37	211.24	9.06	-46.2	-47.6	14.6	0.00e+00	0	58	0	1664090112	55	4181
2026-01-04 01:00:48.36	211.23	8.97	-46.2	-47.6	14.6	0.00e+00	0	58	0	1667235840	55	4176
2026-01-04 01:00:49.35	211.23	8.89	-46.1	-47.5	14.8	0.00e+00	0	58	0	1670381568	55	4121
2026-01-04 01:00:50.34	211.23	8.81	-46.2	-47.7	14.5	0.00e+00	0	58	0	1673527296	55	4209
2026-01-04 01:00:51.33	211.23	8.73	-46.3	-47.7	14.5	1.50e-06	0	58	0	1676673024	55	4229
2026-01-04 01:00:52.33	211.23	8.64	-46.3	-47.8	14.5	7.00e-07	0	58	0	1679818752	55	4256
2026-01-04 01:00:53.32	211.22	8.56	-46.5	-48.0	14.2	7.00e-07	0	58	0	1682964480	55	4375
2026-01-04 01:00:54.32	211.22	8.48	-46.6	-48.1	14.1	2.20e-06	0	58	0	1686110208	55	4425
2026-01-04 01:00:55.31	211.22	8.40	-46.4	-47.9	14.3	7.00e-07	0	58	0	1689255936	55	4339
2026-01-04 01:00:56.29	211.22	8.32	-46.4	-47.9	14.3	7.00e-07	0	58	0	1692401664	55	4329
2026-01-04 01:00:57.28	211.21	8.24	-46.5	-48.0	14.2	2.20e-06	0	58	0	1695547392	55	4379
2026-01-04 01:00:58.28	211.21	8.16	-46.6	-48.3	13.9	3.00e-06	0	58	0	1698693120	55	4537
2026-01-04 01:00:59.27	211.21	8.08	-46.5	-48.2	14.0	7.00e-07	0	58	0	1701838848	55	4453
2026-01-04 01:01:00.26	211.21	8.00	-46.7	-48.4	13.8	2.20e-06	0	58	0	1704984576	55	4562
2026-01-04 01:01:01.25	211.21	7.92	-46.7	-48.4	13.8	5.30e-06	0	58	0	1708130304	55	4595
2026-01-04 01:01:02.23	211.20	7.84	-46.7	-48.3	13.8	1.50e-06	0	58	0	1711276032	55	4527
2026-01-04 01:01:03.22	211.20	7.76	-46.8	-48.5	13.6	2.20e-06	0	58	0	1714421760	55	4644
2026-01-04 01:01:04.22	211.20	7.68	-46.9	-48.7	13.4	1.52e-05	0	58	0	1717567488	55	4739
2026-01-04 01:01:05.20	211.20	7.60	-46.9	-48.7	13.4	8.30e-06	0	58	0	1720713216	55	4749
2026-01-04 01:01:06.19	211.20	7.53	-47.2	-49.0	13.2	2.51e-05	0	58	0	1723858944	56	4637
2026-01-04 01:01:07.18	211.20	7.45	-47.0	-48.8	13.5	8.30e-06	0	58	0	1725956096	56	4505
2026-01-04 01:01:08.17	211.19	7.37	-46.9	-48.7	13.5	1.14e-05	0	58	0	1729101824	56	4454
2026-01-04 01:01:09.16	211.19	7.29	-46.9	-48.6	13.7	9.10e-06	0	58	0	1732247552	56	4394
2026-01-04 01:01:10.15	211.19	7.22	-46.8	-48.5	13.7	1.50e-06	0	58	0	1735393280	56	4370
2026-01-04 01:01:11.14	211.19	7.14	-46.9	-48.7	13.5	1.22e-05	0	58	0	1738539008	56	4463
2026-01-04 01:01:12.13	211.19	7.06	-47.1	-48.9	13.3	1.52e-05	0	58	0	1741684736	56	4555
2026-01-04 01:01:13.13	211.19	6.98	-47.0	-48.8	13.4	2.05e-05	0	58	0	1744830464	56	4497
2026-01-04 01:01:14.12	211.18	6.91	-47.1	-49.0	13.2	1.06e-05	0	58	0	1747976192	56	4601
2026-01-04 01:01:15.11	211.18	6.83	-47.0	-48.7	13.4	7.60e-06	0	58	0	1751121920	56	4474
2026-01-04 01:01:16.11	211.18	6.75	-46.8	-48.6	13.6	5.30e-06	0	58	0	1754267648	56	4399
2026-01-04 01:01:17.09	211.18	6.68	-46.8	-48.6	13.6	9.10e-06	0	58	0	1757413376	56	4405
2026-01-04 01:01:18.09	211.18	6.60	-46.8	-48.6	13.6	6.80e-06	0	58	0	1760559104	56	4415
2026-01-04 01:01:19.07	211.18	6.53	-47.1	-48.9	13.3	1.60e-05	0	58	0	1763704832	56	4547
2026-01-04 01:01:20.06	211.17	6.45	-47.0	-48.8	13.3	1.60e-05	0	58	0	1766850560	56	4524
2026-01-04 01:01:21.05	211.17	6.38	-47.1	-49.0	13.0	2.82e-05	0	58	0	1769996288	56	4647
2026-01-04 01:01:22.05	211.17	6.30	-47.0	-48.9	13.2	2.28e-05	0	58	0	1773142016	56	4571
2026-01-04 01:01:23.03	211.17	6.23	-47.2	-49.1	12.9	4.50e-05	0	58	0	1776287744	56	4695
2026-01-04 01:01:24.03	211.17	6.16	-47.2	-49.1	13.0	3.66e-05	0	58	0	1779433472	56	4688
2026-01-04 01:01:25.02	211.17	6.08	-47.5	-49.5	12.6	8.23e-05	0	58	0	1782579200	56	4892
2026-01-04 01:01:26.01	211.17	6.01	-47.3	-49.3	12.8	8.62e-05	0	58	0	1785724928	56	4763
2026-01-04 01:01:27.00	211.16	5.93	-47.4	-49.3	12.7	6.63e-05	0	58	0	1787822080	56	4799
2026-01-04 01:01:27.98	211.16	5.86	-47.4	-49.5	12.6	7.85e-05	0	58	0	1790967808	56	4879
2026-01-04 01:01:28.96	211.16	5.79	-47.4	-49.4	12.6	9.84e-05	0	58	0	1794113536	56	4862
2026-01-04 01:01:29.95	211.16	5.72	-47.4	-49.3	12.7	7.09e-05	0	58	0	1797259264	56	4803
2026-01-04 01:01:30.93	211.16	5.64	-47.6	-49.8	12.3	2.04e-04	0	58	0	1800404992	57	4779
2026-01-04 01:01:31.92	211.16	5.57	-47.6	-49.6	12.4	1.65e-04	0	58	0	1803550720	57	4689
2026-01-04 01:01:32.91	211.16	5.50	-47.3	-49.4	12.6	1.09e-04	0	58	0	1806696448	57	4551
2026-01-04 01:01:33.89	211.16	5.43	-47.4	-49.6	12.4	1.18e-04	0	58	0	1809842176	57	4654
2026-01-04 01:01:34.88	211.16	5.36	-47.3	-49.3	12.7	9.15e-05	0	58	0	1812987904	57	4512
2026-01-04 01:01:35.87	211.15	5.28	-47.5	-49.6	12.3	1.33e-04	0	58	0	1816133632	57	4699
2026-01-04 01:01:36.86	211.15	5.21	-47.5	-49.5	12.4	1.82e-04	0	58	0	1819279360	57	4648
2026-01-04 01:01:37.84	211.15	5.14	-47.5	-49.6	12.3	1.48e-04	0	58	0	1822425088	57	4689
2026-01-04 01:01:38.84	211.15	5.07	-48.6	-51.4	10.5	1.76e-04	0	58	0	1825570816	58	5456
2026-01-04 01:01:39.83	211.15	5.00	-51.5	-63.0	3.8	1.49e+00	0	58	104	1826619392	64	14662
2026-01-04 01:01:40.82	211.15	4.93	-51.3	-62.8	3.8	1.49e+00	0	58	104	1826619392	64	14250
2026-01-04 01:01:41.81	211.15	4.86	-51.8	-63.3	3.8	1.49e+00	0	58	104	1826619392	65	14210
2026-01-04 01:01:42.80	211.15	4.79	-52.2	-63.6	3.8	1.49e+00	0	58	104	1826619392	66	14043
2026-01-04 01:01:43.78	211.15	4.72	-52.3	-63.7	3.8	1.49e+00	0	58	104	1826619392	66	14186
2026-01-04 01:01:44.77	211.15	4.65	-52.3	-63.8	3.8	1.49e+00	0	58	104	1826619392	66	14271
2026-01-04 01:01:45.77	211.14	4.58	-52.2	-63.8	3.8	1.49e+00	0	58	104	1826619392	66	14334
2026-01-04 01:01:46.76	211.14	4.51	-52.2	-63.7	3.8	1.49e+00	0	58	104	1826619392	66	14151
2026-01-04 01:01:47.74	211.14	4.44	-52.4	-63.9	3.8	1.49e+00	0	58	104	1826619392	66	14434
2026-01-04 01:01:48.73	211.14	4.37	-52.4	-63.9	3.8	1.49e+00	0	58	104	1826619392	66	14470
2026-01-04 01:01:49.72	211.14	4.30	-52.4	-63.9	3.8	1.49e+00	0	58	104	1826619392	66	14528
2026-01-04 01:01:50.72	211.14	4.23	-52.5	-63.9	3.8	1.49e+00	0	58	104	1826619392	66	14508
2026-01-04 01:01:51.70	211.14	4.16	-52.5	-63.9	3.8	1.49e+00	0	58	104	1826619392	66	14506
2026-01-04 01:01:52.69	211.14	4.09	-52.4	-64.0	3.8	1.49e+00	0	58	104	1826619392	66	14584
2026-01-04 01:01:53.67	211.14	4.03	-52.5	-64.0	3.8	1.49e+00	0	58	104	1826619392	66	14593
2026-01-04 01:01:54.66	211.14	3.96	-52.5	-64.0	3.8	1.49e+00	0	58	104	1826619392	66	14602
2026-01-04 01:01:55.65	211.14	3.89	-52.6	-64.0	3.8	1.49e+00	0	58	104	1826619392	66	14631
2026-01-04 01:01:56.65	211.14	3.82	-52.6	-64.0	3.8	1.49e+00	0	58	104	1826619392	67	13861
2026-01-04 01:01:57.64	211.14	3.75	-52.6	-64.1	3.8	1.49e+00	0	58	104	1826619392	67	13894
2026-01-04 01:01:58.62	211.13	3.69	-52.6	-64.0	3.8	1.49e+00	0	58	104	1826619392	67	13868
2026-01-04 01:01:59.62	211.13	3.62	-52.6	-64.1	3.8	1.49e+00	0	58	104	1826619392	67	13895
2026-01-04 01:02:00.60	211.13	3.55	-52.6	-64.1	3.8	1.49e+00	0	58	104	1826619392	67	13936
2026-01-04 01:02:01.59	211.13	3.48	-52.6	-64.1	3.8	1.49e+00	0	58	104	1826619392	67	13904
2026-01-04 01:02:02.59	211.13	3.42	-52.7	-64.1	3.8	1.49e+00	0	58	104	1826619392	67	13951
2026-01-04 01:02:03.57	211.13	3.35	-52.7	-64.1	3.8	1.49e+00	0	58	104	1826619392	67	13958
2026-01-04 01:02:04.56	211.13	3.28	-52.7	-64.1	3.8	1.49e+00	0	58	104	1826619392	67	13935
2026-01-04 01:02:05.54	211.13	3.22	-52.6	-64.1	3.8	1.49e+00	0	58	104	1826619392	67	13941
2026-01-04 01:02:06.53	211.13	3.15	-52.6	-64.1	3.8	1.49e+00	0	58	104	1826619392	67	13897
2026-01-04 01:02:07.52	211.13	3.09	-52.6	-64.0	3.8	1.49e+00	0	58	104	1826619392	67	13880
2026-01-04 01:02:08.51	211.13	3.02	-52.6	-64.1	3.8	1.49e+00	0	58	104	1826619392	67	13894

#Closed at: 2026-01-04 01:02:09
#Recorded file [1826 MB]: D:/Data/31026_260104_040139.dat