passes_logs/2026/01/04/R3.0SM8_Murmansk_STILSPACE/R3.0SM8_Murmansk_STILSPACE__20260104_111556_SUOMI_NPP_rec.log

#Pass ID: 20260104_111556_SUOMI NPP
#Satellite: SUOMI NPP
#Configuration: NPP
#almurnet v.1.7.20240730
#Start time: 2026-01-04 11:15:58

#Version: 2.2.20231116
#Station: R3.0SM8_Murmansk_STILSPACE
#Location: 33.092731 lon 68.902999 lat
#TLE: 1 37849U 11061A   26001.07732418  .00000182  00000+0  10735-3 0  9990
#TLE: 2 37849  98.7795 303.2470 0002580  87.2016 272.9455 14.19520779734739

#Time	Az	El	Level	Level2	SNR	BER	BlckErr	Temp	State	Recorded	gain1	gain2
2026-01-04 11:15:58.93	194.09	3.12	-52.4	-66.2	3.8	1.49e+00	0	46	0	0	67	17770
2026-01-04 11:15:59.91	194.14	3.18	-52.0	-66.0	3.8	1.49e+00	0	46	104	0	67	17432
2026-01-04 11:16:00.90	194.19	3.24	-52.1	-65.9	3.8	1.49e+00	0	46	104	0	67	17235
2026-01-04 11:16:01.89	194.25	3.31	-52.0	-65.8	3.8	1.49e+00	0	46	104	0	67	17082
2026-01-04 11:16:02.87	194.30	3.37	-51.8	-65.7	3.8	1.49e+00	0	46	104	0	66	17779
2026-01-04 11:16:03.87	194.35	3.43	-51.6	-65.5	3.8	1.49e+00	0	46	104	0	66	17337
2026-01-04 11:16:04.86	194.41	3.49	-51.5	-65.3	3.8	1.49e+00	0	47	104	0	66	16942
2026-01-04 11:16:05.85	194.46	3.55	-51.5	-65.2	3.8	1.49e+00	0	46	104	0	65	17887
2026-01-04 11:16:06.85	194.52	3.62	-51.5	-65.2	3.8	1.49e+00	0	46	104	0	65	17870
2026-01-04 11:16:07.84	194.57	3.68	-51.5	-65.2	3.8	1.49e+00	0	47	104	0	65	17824
2026-01-04 11:16:08.83	194.63	3.74	-51.5	-65.2	3.8	1.49e+00	0	46	104	0	65	17854
2026-01-04 11:16:09.82	194.68	3.80	-51.4	-65.3	3.8	1.49e+00	0	47	104	0	65	17900
2026-01-04 11:16:10.82	194.74	3.87	-51.5	-65.2	3.8	1.49e+00	0	47	104	0	65	17846
2026-01-04 11:16:11.81	194.80	3.93	-51.5	-65.2	3.8	1.49e+00	0	47	104	0	65	17874
2026-01-04 11:16:12.79	194.85	3.99	-51.4	-65.3	3.8	1.49e+00	0	47	104	0	65	17927
2026-01-04 11:16:13.78	194.91	4.06	-51.5	-65.3	3.8	1.49e+00	0	47	104	0	65	17927
2026-01-04 11:16:14.77	194.96	4.12	-51.5	-65.3	3.8	1.49e+00	0	47	104	0	65	18002
2026-01-04 11:16:15.77	195.02	4.18	-51.5	-65.3	3.8	1.49e+00	0	47	104	0	65	17986
2026-01-04 11:16:16.77	195.08	4.25	-51.5	-65.2	3.8	1.49e+00	0	47	104	0	65	17760
2026-01-04 11:16:17.76	195.14	4.31	-51.5	-65.0	3.8	1.49e+00	0	47	104	0	65	17339
2026-01-04 11:16:18.75	195.19	4.37	-51.4	-64.5	3.8	1.49e+00	0	47	104	0	65	16376
2026-01-04 11:16:19.75	195.25	4.44	-51.4	-63.8	3.8	1.49e+00	0	47	104	0	65	15097
2026-01-04 11:16:20.74	195.31	4.50	-51.4	-62.7	4.0	1.49e+00	0	48	104	0	65	13379
2026-01-04 11:16:21.73	195.37	4.57	-51.2	-61.6	4.2	1.40e+00	0	48	0	0	65	11715
2026-01-04 11:16:22.73	195.43	4.63	-51.2	-60.7	4.6	1.17e+00	0	48	0	1048576	65	10557
2026-01-04 11:16:23.72	195.49	4.70	-51.0	-59.2	5.3	7.80e-01	0	48	0	3145728	65	8954
2026-01-04 11:16:24.71	195.54	4.76	-50.8	-58.3	5.9	4.08e-01	0	48	0	4194304	64	8560
2026-01-04 11:16:25.70	195.60	4.83	-50.7	-57.6	6.5	2.67e-01	0	48	0	6291456	64	7860
2026-01-04 11:16:26.70	195.66	4.89	-50.5	-56.8	7.2	1.86e-01	0	48	0	8388608	64	7189
2026-01-04 11:16:27.69	195.72	4.96	-50.4	-56.4	7.7	1.01e-01	0	48	0	10485760	63	7223
2026-01-04 11:16:28.67	195.78	5.02	-50.3	-55.9	8.2	5.95e-02	0	48	0	11534336	63	6853
2026-01-04 11:16:29.65	195.84	5.09	-50.2	-55.5	8.6	3.96e-02	0	48	0	13631488	63	6548
2026-01-04 11:16:30.63	195.90	5.15	-50.2	-55.7	8.5	3.38e-02	0	48	0	15728640	63	6657
2026-01-04 11:16:31.62	195.96	5.22	-50.3	-55.8	8.3	4.79e-02	0	48	0	17825792	63	6767
2026-01-04 11:16:32.61	196.02	5.28	-50.2	-55.4	8.7	3.72e-02	0	48	0	19922944	63	6483
2026-01-04 11:16:33.60	196.08	5.35	-50.0	-54.9	9.2	2.01e-02	0	48	0	20971520	63	6099
2026-01-04 11:16:34.59	196.15	5.41	-49.8	-54.6	9.6	1.59e-02	0	48	0	23068672	62	6215
2026-01-04 11:16:35.58	196.21	5.48	-49.7	-54.3	9.9	1.25e-02	0	49	0	25165824	62	6001
2026-01-04 11:16:36.58	196.27	5.55	-49.6	-53.9	10.3	6.30e-03	0	48	0	27262976	62	5765
2026-01-04 11:16:37.57	196.33	5.61	-49.5	-53.7	10.5	5.07e-03	0	48	0	28311552	62	5640
2026-01-04 11:16:38.56	196.39	5.68	-49.5	-53.8	10.5	4.07e-03	0	49	0	30408704	62	5670
2026-01-04 11:16:39.55	196.46	5.75	-49.5	-53.7	10.6	4.01e-03	0	49	0	32505856	62	5602
2026-01-04 11:16:40.54	196.52	5.81	-49.5	-53.6	10.6	3.65e-03	0	49	0	34603008	62	5590
2026-01-04 11:16:41.53	196.58	5.88	-49.2	-53.1	11.1	2.10e-03	0	49	0	36700160	61	5588
2026-01-04 11:16:42.52	196.65	5.95	-49.3	-53.2	11.0	1.77e-03	0	49	0	37748736	61	5605
2026-01-04 11:16:43.51	196.71	6.01	-49.2	-52.9	11.4	1.08e-03	0	49	0	39845888	61	5405
2026-01-04 11:16:44.50	196.78	6.08	-49.1	-52.7	11.5	8.90e-04	0	49	0	41943040	61	5336
2026-01-04 11:16:45.49	196.84	6.15	-49.2	-53.0	11.3	1.03e-03	0	49	0	44040192	61	5498
2026-01-04 11:16:46.47	196.90	6.21	-49.2	-52.8	11.5	1.25e-03	0	49	0	45088768	61	5348
2026-01-04 11:16:47.45	196.97	6.28	-49.0	-52.7	11.6	6.83e-04	0	49	0	47185920	61	5282
2026-01-04 11:16:48.44	197.03	6.35	-49.2	-53.0	11.3	8.22e-04	0	49	0	49283072	61	5485
2026-01-04 11:16:49.43	197.10	6.42	-49.2	-52.8	11.5	1.19e-03	0	49	0	51380224	61	5391
2026-01-04 11:16:50.42	197.16	6.49	-49.1	-52.8	11.5	5.96e-04	0	49	0	52428800	61	5381
2026-01-04 11:16:51.42	197.23	6.56	-49.0	-52.4	11.9	3.97e-04	0	49	0	54525952	61	5124
2026-01-04 11:16:52.40	197.30	6.62	-49.0	-52.6	11.8	4.90e-04	0	49	0	56623104	61	5222
2026-01-04 11:16:53.39	197.36	6.69	-49.2	-52.9	11.4	6.37e-04	0	49	0	58720256	61	5447
2026-01-04 11:16:54.38	197.43	6.76	-49.3	-53.0	11.4	9.80e-04	0	49	0	59768832	61	5492
2026-01-04 11:16:55.38	197.50	6.83	-49.3	-53.1	11.2	1.28e-03	0	50	0	61865984	61	5591
2026-01-04 11:16:56.37	197.57	6.90	-49.3	-53.0	11.3	1.31e-03	0	49	0	63963136	61	5516
2026-01-04 11:16:57.36	197.63	6.97	-49.3	-53.1	11.3	1.35e-03	0	49	0	66060288	61	5557
2026-01-04 11:16:58.34	197.70	7.04	-49.2	-52.9	11.5	8.89e-04	0	50	0	68157440	61	5409
2026-01-04 11:16:59.33	197.77	7.11	-49.1	-52.6	11.8	6.29e-04	0	50	0	69206016	61	5274
2026-01-04 11:17:00.32	197.84	7.18	-49.2	-52.7	11.8	5.18e-04	0	50	0	71303168	61	5280
2026-01-04 11:17:01.32	197.91	7.25	-49.1	-52.5	11.9	4.68e-04	0	50	0	73400320	61	5216
2026-01-04 11:17:02.30	197.98	7.32	-49.4	-53.0	11.4	7.95e-04	0	50	0	75497472	61	5490
2026-01-04 11:17:03.29	198.05	7.39	-49.4	-53.0	11.4	1.22e-03	0	50	0	76546048	61	5517
2026-01-04 11:17:04.29	198.12	7.46	-49.1	-52.6	11.9	5.68e-04	0	50	0	78643200	61	5251
2026-01-04 11:17:05.28	198.19	7.53	-49.0	-52.3	12.1	2.85e-04	0	50	0	80740352	61	5069
2026-01-04 11:17:06.26	198.26	7.60	-48.6	-51.7	12.7	9.23e-05	0	50	0	82837504	60	5025
2026-01-04 11:17:07.26	198.33	7.67	-48.6	-51.5	13.0	5.03e-05	0	50	0	83886080	60	4896
2026-01-04 11:17:08.25	198.40	7.74	-48.4	-51.3	13.2	3.58e-05	0	50	0	85983232	60	4776
2026-01-04 11:17:09.24	198.47	7.81	-48.3	-51.0	13.5	2.44e-05	0	50	0	88080384	59	4900
2026-01-04 11:17:10.23	198.55	7.88	-48.4	-51.2	13.3	2.36e-05	0	50	0	90177536	59	5040
2026-01-04 11:17:11.22	198.62	7.96	-48.4	-51.2	13.4	2.05e-05	0	50	0	92274688	59	4984
2026-01-04 11:17:12.22	198.69	8.03	-48.3	-51.0	13.5	1.67e-05	0	50	0	93323264	59	4897
2026-01-04 11:17:13.20	198.76	8.10	-48.5	-51.3	13.2	2.05e-05	0	50	0	95420416	59	5089
2026-01-04 11:17:14.19	198.84	8.17	-48.4	-51.1	13.4	1.14e-05	0	50	0	97517568	59	4952
2026-01-04 11:17:15.18	198.91	8.24	-48.5	-51.3	13.2	1.44e-05	0	50	0	99614720	59	5084
2026-01-04 11:17:16.17	198.98	8.32	-48.5	-51.3	13.2	1.67e-05	0	50	0	100663296	59	5085
2026-01-04 11:17:17.17	199.06	8.39	-48.5	-51.2	13.3	6.80e-06	0	50	0	102760448	59	5023
2026-01-04 11:17:18.16	199.13	8.46	-48.3	-51.0	13.5	1.06e-05	0	50	0	104857600	59	4917
2026-01-04 11:17:19.16	199.21	8.53	-48.4	-51.2	13.4	8.30e-06	0	50	0	106954752	59	4988
2026-01-04 11:17:20.15	199.29	8.61	-48.5	-51.3	13.3	1.44e-05	0	50	0	109051904	59	5060
2026-01-04 11:17:21.14	199.36	8.68	-48.5	-51.2	13.4	2.05e-05	0	51	0	110100480	59	5007
2026-01-04 11:17:22.13	199.44	8.75	-48.5	-51.2	13.4	1.52e-05	0	51	0	112197632	59	5010
2026-01-04 11:17:23.12	199.51	8.83	-48.7	-51.7	12.9	2.59e-05	0	51	0	114294784	59	5315
2026-01-04 11:17:24.11	199.59	8.90	-48.6	-51.6	13.0	2.36e-05	0	51	0	116391936	59	5219
2026-01-04 11:17:25.11	199.67	8.98	-48.7	-51.4	13.1	1.29e-05	0	51	0	117440512	59	5158
2026-01-04 11:17:26.10	199.75	9.05	-48.6	-51.5	13.1	2.74e-05	0	51	0	119537664	59	5171
2026-01-04 11:17:27.10	199.83	9.13	-48.5	-51.4	13.2	2.13e-05	0	51	0	121634816	59	5135
2026-01-04 11:17:28.08	199.90	9.20	-48.5	-51.4	13.3	1.98e-05	0	51	0	123731968	59	5103
2026-01-04 11:17:29.07	199.98	9.27	-48.7	-51.5	13.1	1.60e-05	0	51	0	124780544	59	5191
2026-01-04 11:17:30.06	200.06	9.35	-48.8	-51.7	12.9	6.48e-05	0	51	0	126877696	59	5323
2026-01-04 11:17:31.05	200.14	9.42	-48.6	-51.4	13.3	6.71e-05	0	51	0	128974848	59	5122
2026-01-04 11:17:32.04	200.22	9.50	-48.4	-51.1	13.6	1.37e-05	0	51	0	131072000	59	4927
2026-01-04 11:17:33.02	200.30	9.57	-48.4	-51.0	13.6	9.10e-06	0	51	0	133169152	59	4901
2026-01-04 11:17:34.01	200.38	9.65	-48.3	-50.9	13.8	8.30e-06	0	51	0	134217728	59	4845
2026-01-04 11:17:35.00	200.46	9.72	-48.3	-50.8	13.8	3.80e-06	0	51	0	136314880	59	4814
2026-01-04 11:17:35.99	200.54	9.80	-48.3	-50.8	13.9	2.20e-06	0	51	0	138412032	59	4787
2026-01-04 11:17:36.98	200.63	9.88	-48.4	-51.0	13.7	3.00e-06	0	51	0	140509184	59	4912
2026-01-04 11:17:37.98	200.71	9.95	-48.2	-50.7	14.0	2.20e-06	0	51	0	141557760	59	4740
2026-01-04 11:17:38.97	200.79	10.03	-48.1	-50.6	14.1	2.20e-06	0	51	0	143654912	59	4657
2026-01-04 11:17:39.96	200.88	10.11	-48.1	-50.5	14.2	7.00e-07	0	51	0	145752064	59	4644
2026-01-04 11:17:40.96	200.96	10.18	-48.1	-50.5	14.2	1.50e-06	0	51	0	147849216	59	4645
2026-01-04 11:17:41.95	201.04	10.26	-48.0	-50.4	14.3	0.00e+00	0	51	0	149946368	59	4552
2026-01-04 11:17:42.94	201.13	10.34	-48.0	-50.4	14.3	7.00e-07	0	52	0	150994944	59	4559
2026-01-04 11:17:43.93	201.21	10.42	-48.0	-50.4	14.4	1.50e-06	0	52	0	153092096	59	4556
2026-01-04 11:17:44.92	201.30	10.49	-48.2	-50.6	14.2	7.00e-07	0	51	0	155189248	59	4655
2026-01-04 11:17:45.91	201.38	10.57	-48.3	-50.9	13.8	1.50e-06	0	52	0	157286400	59	4832
2026-01-04 11:17:46.89	201.47	10.65	-48.1	-50.6	14.2	2.20e-06	0	51	0	158334976	59	4653
2026-01-04 11:17:47.89	201.56	10.73	-48.0	-50.4	14.4	7.00e-07	0	52	0	160432128	59	4555
2026-01-04 11:17:48.88	201.64	10.81	-47.9	-50.1	14.6	7.00e-07	0	52	0	162529280	58	4688
2026-01-04 11:17:49.87	201.73	10.88	-47.8	-50.1	14.7	0.00e+00	0	52	0	164626432	58	4665
2026-01-04 11:17:50.86	201.82	10.96	-47.7	-49.9	14.8	0.00e+00	0	52	0	165675008	58	4587
2026-01-04 11:17:51.85	201.91	11.04	-47.9	-50.1	14.6	0.00e+00	0	52	0	167772160	58	4686
2026-01-04 11:17:52.83	202.00	11.12	-47.7	-49.8	14.9	0.00e+00	0	52	0	169869312	58	4532
2026-01-04 11:17:53.82	202.09	11.20	-47.6	-49.7	15.1	0.00e+00	0	52	0	171966464	58	4453
2026-01-04 11:17:54.81	202.18	11.28	-47.6	-49.7	15.0	0.00e+00	0	52	0	174063616	58	4488
2026-01-04 11:17:55.81	202.27	11.36	-47.7	-49.7	15.0	0.00e+00	0	52	0	175112192	58	4493
2026-01-04 11:17:56.79	202.36	11.44	-47.8	-50.0	14.8	0.00e+00	0	52	0	177209344	58	4641
2026-01-04 11:17:57.78	202.45	11.52	-48.0	-50.4	14.4	0.00e+00	0	52	0	179306496	58	4817
2026-01-04 11:17:58.77	202.54	11.60	-48.0	-50.3	14.5	1.50e-06	0	52	0	181403648	58	4769
2026-01-04 11:17:59.76	202.63	11.68	-48.2	-50.6	14.2	0.00e+00	0	52	0	182452224	58	4939
2026-01-04 11:18:00.75	202.72	11.76	-48.2	-50.6	14.1	7.00e-07	0	52	0	184549376	58	4971
2026-01-04 11:18:01.74	202.82	11.84	-48.3	-50.7	14.1	7.00e-07	0	52	0	186646528	58	5007
2026-01-04 11:18:02.73	202.91	11.92	-48.0	-50.3	14.5	7.00e-07	0	52	0	188743680	58	4768
2026-01-04 11:18:03.72	203.01	12.00	-47.9	-50.2	14.6	1.50e-06	0	52	0	189792256	58	4756
2026-01-04 11:18:04.72	203.10	12.09	-48.0	-50.4	14.4	0.00e+00	0	52	0	191889408	58	4846
2026-01-04 11:18:05.71	203.20	12.17	-48.1	-50.5	14.3	7.00e-07	0	52	0	193986560	58	4902
2026-01-04 11:18:06.70	203.29	12.25	-48.1	-50.4	14.4	7.00e-07	0	52	0	196083712	58	4866
2026-01-04 11:18:07.69	203.39	12.33	-47.8	-50.1	14.7	0.00e+00	0	52	0	198180864	58	4681
2026-01-04 11:18:08.68	203.48	12.41	-47.5	-49.7	15.1	0.00e+00	0	52	0	199229440	58	4445
2026-01-04 11:18:09.66	203.58	12.50	-47.5	-49.5	15.3	0.00e+00	0	52	0	201326592	58	4383
2026-01-04 11:18:10.66	203.68	12.58	-47.4	-49.4	15.4	0.00e+00	0	52	0	203423744	58	4329
2026-01-04 11:18:11.64	203.78	12.66	-47.5	-49.5	15.4	0.00e+00	0	52	0	205520896	57	4615
2026-01-04 11:18:12.63	203.88	12.75	-47.6	-49.6	15.2	0.00e+00	0	52	0	206569472	57	4684
2026-01-04 11:18:13.63	203.98	12.83	-47.6	-49.7	15.1	0.00e+00	0	52	0	208666624	57	4744
2026-01-04 11:18:14.61	204.07	12.91	-47.6	-49.8	15.0	7.00e-07	0	52	0	210763776	57	4772
2026-01-04 11:18:15.60	204.18	13.00	-47.6	-49.6	15.2	0.00e+00	0	52	0	212860928	57	4690
2026-01-04 11:18:16.58	204.27	13.08	-47.5	-49.6	15.2	0.00e+00	0	52	0	214958080	57	4681
2026-01-04 11:18:17.57	204.38	13.16	-47.4	-49.4	15.4	0.00e+00	0	52	0	216006656	57	4578
2026-01-04 11:18:18.56	204.48	13.25	-47.5	-49.4	15.4	0.00e+00	0	53	0	218103808	57	4597
2026-01-04 11:18:19.55	204.58	13.33	-47.6	-49.7	15.1	0.00e+00	0	53	0	220200960	57	4731
2026-01-04 11:18:20.54	204.68	13.42	-47.7	-49.8	15.1	7.00e-07	0	53	0	222298112	57	4764
2026-01-04 11:18:21.52	204.79	13.50	-47.6	-49.7	15.2	0.00e+00	0	53	0	223346688	57	4707
2026-01-04 11:18:22.51	204.89	13.59	-47.6	-49.6	15.2	0.00e+00	0	53	0	225443840	57	4686
2026-01-04 11:18:23.50	205.00	13.67	-47.5	-49.5	15.3	0.00e+00	0	53	0	227540992	57	4622
2026-01-04 11:18:24.49	205.10	13.76	-47.3	-49.2	15.6	0.00e+00	0	53	0	229638144	57	4474
2026-01-04 11:18:25.48	205.21	13.84	-47.3	-49.3	15.6	0.00e+00	0	53	0	230686720	57	4495
2026-01-04 11:18:26.47	205.31	13.93	-47.4	-49.3	15.5	0.00e+00	0	53	0	232783872	57	4508
2026-01-04 11:18:27.46	205.42	14.02	-47.2	-49.1	15.8	0.00e+00	0	53	0	234881024	57	4408
2026-01-04 11:18:28.44	205.53	14.10	-47.2	-49.0	15.8	0.00e+00	0	53	0	236978176	57	4378
2026-01-04 11:18:29.43	205.64	14.19	-47.1	-49.0	15.9	0.00e+00	0	53	0	238026752	57	4342
2026-01-04 11:18:30.41	205.74	14.28	-47.3	-49.1	15.7	0.00e+00	0	53	0	240123904	57	4430
2026-01-04 11:18:31.40	205.85	14.36	-47.3	-49.3	15.6	0.00e+00	0	53	0	242221056	57	4494
2026-01-04 11:18:32.38	205.96	14.45	-47.2	-49.2	15.7	0.00e+00	0	53	0	244318208	57	4445
2026-01-04 11:18:33.36	206.07	14.54	-47.4	-49.4	15.5	0.00e+00	0	53	0	245366784	57	4563
2026-01-04 11:18:34.36	206.19	14.63	-47.5	-49.5	15.4	0.00e+00	0	53	0	247463936	57	4603
2026-01-04 11:18:35.35	206.30	14.71	-47.4	-49.4	15.5	0.00e+00	0	53	0	249561088	57	4569
2026-01-04 11:18:36.34	206.41	14.80	-47.5	-49.6	15.2	0.00e+00	0	53	0	251658240	57	4669
2026-01-04 11:18:37.33	206.52	14.89	-47.6	-49.6	15.2	0.00e+00	0	53	0	253755392	57	4690
2026-01-04 11:18:38.31	206.64	14.98	-47.7	-49.8	15.2	0.00e+00	0	53	0	254803968	57	4769
2026-01-04 11:18:39.30	206.75	15.07	-47.6	-49.6	15.3	0.00e+00	0	53	0	256901120	57	4684
2026-01-04 11:18:40.28	206.87	15.16	-47.5	-49.5	15.3	0.00e+00	0	53	0	258998272	57	4645
2026-01-04 11:18:41.27	206.98	15.25	-47.4	-49.4	15.5	0.00e+00	0	53	0	261095424	57	4546
2026-01-04 11:18:42.26	207.10	15.34	-47.3	-49.2	15.7	0.00e+00	0	53	0	262144000	57	4469
2026-01-04 11:18:43.25	207.22	15.43	-47.4	-49.3	15.6	0.00e+00	0	53	0	264241152	57	4532
2026-01-04 11:18:44.24	207.33	15.52	-47.3	-49.1	15.7	0.00e+00	0	53	0	266338304	57	4434
2026-01-04 11:18:45.22	207.45	15.60	-47.1	-48.9	16.0	0.00e+00	0	53	0	268435456	57	4312
2026-01-04 11:18:46.21	207.57	15.70	-47.2	-49.0	15.9	0.00e+00	0	53	0	269484032	57	4370
2026-01-04 11:18:47.19	207.69	15.79	-47.2	-49.1	15.8	0.00e+00	0	53	0	271581184	57	4400
2026-01-04 11:18:48.19	207.81	15.88	-47.2	-49.0	15.9	0.00e+00	0	53	0	273678336	57	4350
2026-01-04 11:18:49.18	207.93	15.97	-47.3	-49.2	15.7	0.00e+00	0	53	0	275775488	57	4456
2026-01-04 11:18:50.17	208.06	16.06	-47.5	-49.5	15.4	0.00e+00	0	53	0	276824064	57	4618
2026-01-04 11:18:51.16	208.18	16.15	-47.2	-49.0	15.9	0.00e+00	0	53	0	278921216	57	4389
2026-01-04 11:18:52.14	208.30	16.24	-47.5	-49.5	15.4	0.00e+00	0	53	0	281018368	57	4619
2026-01-04 11:18:53.13	208.43	16.33	-47.6	-49.7	15.2	0.00e+00	0	53	0	283115520	57	4721
2026-01-04 11:18:54.12	208.55	16.43	-47.4	-49.5	15.5	0.00e+00	0	53	0	285212672	57	4600
2026-01-04 11:18:55.10	208.68	16.52	-47.6	-49.7	15.3	0.00e+00	0	54	0	286261248	57	4711
2026-01-04 11:18:56.09	208.80	16.61	-47.5	-49.5	15.3	0.00e+00	0	54	0	288358400	57	4651
2026-01-04 11:18:57.08	208.93	16.70	-47.6	-49.7	15.3	0.00e+00	0	53	0	290455552	57	4710
2026-01-04 11:18:58.07	209.06	16.80	-47.8	-49.9	15.0	0.00e+00	0	54	0	292552704	57	4829
2026-01-04 11:18:59.06	209.19	16.89	-47.7	-49.8	15.1	0.00e+00	0	53	0	293601280	57	4809
2026-01-04 11:19:00.05	209.32	16.99	-47.9	-50.1	14.8	0.00e+00	0	54	0	295698432	57	4959
2026-01-04 11:19:01.00	209.44	17.08	-47.8	-49.9	15.1	7.00e-07	0	54	0	297795584	57	4828
2026-01-04 11:19:02.00	209.57	17.17	-48.3	-50.8	14.2	7.00e-07	0	54	0	299892736	58	5049
2026-01-04 11:19:02.98	209.71	17.26	-48.1	-50.4	14.6	0.00e+00	0	53	0	300941312	58	4841
2026-01-04 11:19:03.98	209.84	17.36	-47.7	-49.9	15.1	0.00e+00	0	54	0	303038464	58	4554
2026-01-04 11:19:04.97	209.97	17.45	-47.8	-50.0	15.0	0.00e+00	0	54	0	305135616	58	4617
2026-01-04 11:19:05.97	210.11	17.55	-47.9	-50.1	14.9	0.00e+00	0	53	0	307232768	58	4663
2026-01-04 11:19:06.96	210.24	17.65	-47.8	-49.9	15.0	0.00e+00	0	54	0	309329920	58	4595
2026-01-04 11:19:07.95	210.38	17.74	-48.0	-50.2	14.8	7.00e-07	0	54	0	310378496	58	4723
2026-01-04 11:19:08.94	210.52	17.84	-48.0	-50.2	14.8	0.00e+00	0	54	0	312475648	58	4725
2026-01-04 11:19:09.93	210.66	17.93	-47.6	-49.6	15.4	0.00e+00	0	54	0	314572800	58	4410
2026-01-04 11:19:10.93	210.80	18.03	-47.6	-49.7	15.2	0.00e+00	0	54	0	316669952	58	4462
2026-01-04 11:19:11.92	210.94	18.13	-47.7	-49.8	15.2	0.00e+00	0	54	0	317718528	58	4530
2026-01-04 11:19:12.91	211.08	18.22	-47.8	-49.9	15.1	0.00e+00	0	54	0	319815680	58	4562
2026-01-04 11:19:13.90	211.22	18.32	-47.8	-49.9	15.1	0.00e+00	0	54	0	321912832	58	4566
2026-01-04 11:19:14.89	211.36	18.42	-47.8	-49.9	15.1	0.00e+00	0	54	0	324009984	58	4580
2026-01-04 11:19:15.88	211.50	18.51	-48.1	-50.3	14.7	0.00e+00	0	54	0	325058560	58	4796
2026-01-04 11:19:16.87	211.65	18.61	-47.9	-50.1	14.9	0.00e+00	0	54	0	327155712	58	4669
2026-01-04 11:19:17.85	211.79	18.71	-47.9	-50.1	14.9	0.00e+00	0	54	0	329252864	58	4663
2026-01-04 11:19:18.84	211.94	18.81	-48.0	-50.2	14.8	0.00e+00	0	54	0	331350016	58	4706
2026-01-04 11:19:19.83	212.08	18.90	-47.9	-50.1	14.9	7.00e-07	0	54	0	333447168	58	4673
2026-01-04 11:19:20.81	212.23	19.00	-47.9	-50.0	15.0	0.00e+00	0	54	0	334495744	58	4638
2026-01-04 11:19:21.80	212.38	19.10	-47.8	-49.9	15.1	0.00e+00	0	54	0	336592896	58	4583
2026-01-04 11:19:22.79	212.53	19.20	-48.0	-50.2	14.9	0.00e+00	0	54	0	338690048	58	4710
2026-01-04 11:19:23.78	212.68	19.30	-48.1	-50.3	14.7	7.00e-07	0	54	0	340787200	58	4789
2026-01-04 11:19:24.77	212.83	19.40	-48.1	-50.3	14.6	0.00e+00	0	54	0	341835776	58	4814
2026-01-04 11:19:25.77	212.98	19.50	-48.2	-50.6	14.5	1.50e-06	0	54	0	343932928	58	4936
2026-01-04 11:19:26.75	213.13	19.59	-48.3	-50.8	14.2	0.00e+00	0	54	0	346030080	58	5085
2026-01-04 11:19:27.73	213.29	19.69	-48.3	-50.7	14.3	1.50e-06	0	54	0	348127232	58	4987
2026-01-04 11:19:28.73	213.44	19.79	-48.4	-50.8	14.3	7.00e-07	0	54	0	349175808	58	5068
2026-01-04 11:19:29.70	213.60	19.89	-48.4	-50.8	14.2	3.00e-06	0	54	0	351272960	58	5094
2026-01-04 11:19:30.69	213.75	19.99	-48.2	-50.6	14.4	1.50e-06	0	54	0	353370112	58	4952
2026-01-04 11:19:31.69	213.91	20.09	-48.1	-50.3	14.7	0.00e+00	0	54	0	355467264	58	4780
2026-01-04 11:19:32.67	214.07	20.19	-48.0	-50.2	14.9	0.00e+00	0	54	0	356515840	58	4723
2026-01-04 11:19:33.66	214.23	20.29	-48.1	-50.3	14.7	0.00e+00	0	54	0	358612992	58	4785
2026-01-04 11:19:34.65	214.39	20.40	-48.0	-50.2	14.9	0.00e+00	0	54	0	360710144	58	4711
2026-01-04 11:19:35.63	214.55	20.50	-48.0	-50.2	14.8	0.00e+00	0	54	0	362807296	58	4745
2026-01-04 11:19:36.63	214.72	20.60	-48.3	-50.6	14.5	0.00e+00	0	54	0	364904448	58	4929
2026-01-04 11:19:37.62	214.88	20.70	-48.0	-50.2	14.9	0.00e+00	0	54	0	365953024	58	4709
2026-01-04 11:19:38.61	215.05	20.80	-48.0	-50.1	14.9	7.00e-07	0	54	0	368050176	58	4680
2026-01-04 11:19:39.60	215.21	20.90	-48.0	-50.3	14.8	0.00e+00	0	54	0	370147328	58	4768
2026-01-04 11:19:40.59	215.38	21.01	-47.9	-50.0	15.0	0.00e+00	0	54	0	372244480	58	4624
2026-01-04 11:19:41.58	215.55	21.11	-47.9	-50.1	15.0	0.00e+00	0	54	0	373293056	58	4662
2026-01-04 11:19:42.57	215.72	21.21	-47.9	-50.1	15.0	0.00e+00	0	54	0	375390208	58	4654
2026-01-04 11:19:43.56	215.89	21.31	-47.8	-49.8	15.2	0.00e+00	0	54	0	377487360	58	4529
2026-01-04 11:19:44.55	216.06	21.42	-47.8	-49.9	15.1	0.00e+00	0	54	0	379584512	58	4596
2026-01-04 11:19:45.54	216.23	21.52	-47.7	-49.8	15.2	0.00e+00	0	54	0	381681664	58	4545
2026-01-04 11:19:46.53	216.41	21.62	-47.8	-49.9	15.2	0.00e+00	0	54	0	382730240	58	4554
2026-01-04 11:19:47.51	216.58	21.72	-47.9	-49.9	15.1	7.00e-07	0	54	0	384827392	58	4598
2026-01-04 11:19:48.50	216.76	21.83	-48.2	-50.5	14.7	0.00e+00	0	54	0	386924544	58	4905
2026-01-04 11:19:49.49	216.93	21.93	-48.3	-50.6	14.5	0.00e+00	0	54	0	389021696	58	4956
2026-01-04 11:19:50.47	217.11	22.03	-48.1	-50.3	14.8	2.20e-06	0	54	0	390070272	58	4798
2026-01-04 11:19:51.46	217.29	22.14	-48.0	-50.2	14.9	0.00e+00	0	54	0	392167424	58	4717
2026-01-04 11:19:52.45	217.47	22.24	-48.2	-50.4	14.7	0.00e+00	0	54	0	394264576	58	4838
2026-01-04 11:19:53.43	217.65	22.34	-48.2	-50.4	14.6	0.00e+00	0	54	0	396361728	58	4868
2026-01-04 11:19:54.42	217.83	22.45	-48.3	-50.7	14.4	7.00e-07	0	54	0	397410304	58	5001
2026-01-04 11:19:55.42	218.02	22.55	-48.3	-50.6	14.5	2.20e-06	0	54	0	399507456	58	4944
2026-01-04 11:19:56.40	218.21	22.66	-47.9	-50.1	15.0	0.00e+00	0	54	0	401604608	58	4657
2026-01-04 11:19:57.39	218.39	22.76	-47.7	-49.7	15.3	0.00e+00	0	54	0	403701760	58	4478
2026-01-04 11:19:58.38	218.58	22.87	-47.3	-49.1	16.0	0.00e+00	0	54	0	405798912	57	4407
2026-01-04 11:19:59.37	218.77	22.97	-46.9	-48.6	16.4	0.00e+00	0	54	0	406847488	57	4168
2026-01-04 11:20:00.36	218.96	23.08	-46.6	-48.2	16.8	0.00e+00	0	55	0	408944640	56	4205
2026-01-04 11:20:01.35	219.15	23.18	-46.4	-47.9	17.0	0.00e+00	0	55	0	411041792	55	4339
2026-01-04 11:20:02.35	219.35	23.29	-46.4	-48.0	17.0	0.00e+00	0	55	0	413138944	55	4367
2026-01-04 11:20:03.34	219.54	23.39	-46.3	-47.9	17.1	0.00e+00	0	54	0	414187520	55	4294
2026-01-04 11:20:04.32	219.73	23.50	-46.5	-48.1	16.9	0.00e+00	0	54	0	416284672	55	4401
2026-01-04 11:20:05.32	219.93	23.61	-46.4	-48.0	17.0	0.00e+00	0	55	0	418381824	55	4350
2026-01-04 11:20:06.31	220.13	23.71	-46.5	-48.1	16.9	0.00e+00	0	55	0	420478976	55	4402
2026-01-04 11:20:07.30	220.33	23.82	-46.3	-47.7	17.2	0.00e+00	0	55	0	421527552	55	4233
2026-01-04 11:20:08.28	220.53	23.92	-46.3	-47.7	17.2	0.00e+00	0	54	0	423624704	55	4237
2026-01-04 11:20:09.28	220.73	24.03	-46.1	-47.5	17.4	0.00e+00	0	55	0	425721856	55	4138
2026-01-04 11:20:10.27	220.94	24.13	-46.3	-47.7	17.2	0.00e+00	0	55	0	427819008	55	4235
2026-01-04 11:20:11.26	221.14	24.24	-46.1	-47.6	17.4	0.00e+00	0	55	0	429916160	55	4151
2026-01-04 11:20:12.25	221.35	24.35	-46.4	-47.9	17.0	0.00e+00	0	54	0	430964736	55	4337
2026-01-04 11:20:13.25	221.56	24.45	-46.3	-47.8	17.1	0.00e+00	0	55	0	433061888	55	4269
2026-01-04 11:20:14.24	221.77	24.56	-46.5	-48.1	16.9	0.00e+00	0	55	0	435159040	55	4395
2026-01-04 11:20:15.22	221.98	24.66	-46.3	-47.8	17.2	0.00e+00	0	55	0	437256192	55	4261
2026-01-04 11:20:16.21	222.19	24.77	-46.4	-48.0	17.0	0.00e+00	0	55	0	438304768	55	4356
2026-01-04 11:20:17.20	222.40	24.88	-46.7	-48.4	16.6	0.00e+00	0	55	0	440401920	55	4559
2026-01-04 11:20:18.20	222.62	24.98	-46.5	-48.1	16.9	0.00e+00	0	55	0	442499072	55	4405
2026-01-04 11:20:19.19	222.83	25.09	-46.6	-48.2	16.7	0.00e+00	0	55	0	444596224	55	4482
2026-01-04 11:20:20.17	223.05	25.20	-46.6	-48.2	16.7	0.00e+00	0	55	0	445644800	55	4468
2026-01-04 11:20:21.16	223.27	25.30	-46.5	-48.1	16.9	0.00e+00	0	55	0	447741952	55	4394
2026-01-04 11:20:22.14	223.49	25.41	-46.4	-47.9	17.1	0.00e+00	0	55	0	449839104	55	4325
2026-01-04 11:20:23.13	223.71	25.51	-46.7	-48.3	16.7	0.00e+00	0	55	0	451936256	55	4509
2026-01-04 11:20:24.12	223.93	25.62	-46.4	-48.0	17.0	0.00e+00	0	55	0	452984832	55	4362
2026-01-04 11:20:25.11	224.15	25.72	-46.7	-48.4	16.6	0.00e+00	0	55	0	455081984	55	4569
2026-01-04 11:20:26.10	224.38	25.83	-46.6	-48.2	16.8	0.00e+00	0	55	0	457179136	55	4478
2026-01-04 11:20:27.08	224.61	25.94	-46.8	-48.5	16.5	0.00e+00	0	55	0	459276288	55	4626
2026-01-04 11:20:28.07	224.84	26.04	-47.2	-49.0	16.1	0.00e+00	0	55	0	461373440	56	4619
2026-01-04 11:20:29.05	225.06	26.15	-47.1	-48.9	16.2	0.00e+00	0	55	0	462422016	56	4565
2026-01-04 11:20:30.03	225.29	26.25	-47.3	-49.1	16.0	0.00e+00	0	55	0	464519168	56	4705
2026-01-04 11:20:31.02	225.53	26.36	-47.3	-49.1	15.9	0.00e+00	0	55	0	466616320	56	4698
2026-01-04 11:20:32.01	225.76	26.46	-47.5	-49.4	15.7	0.00e+00	0	55	0	468713472	56	4844
2026-01-04 11:20:33.00	226.00	26.57	-47.1	-48.9	16.1	0.00e+00	0	55	0	469762048	56	4593
2026-01-04 11:20:33.99	226.24	26.67	-47.0	-48.7	16.3	0.00e+00	0	55	0	471859200	56	4482
2026-01-04 11:20:34.98	226.48	26.78	-46.8	-48.4	16.6	0.00e+00	0	55	0	473956352	56	4336
2026-01-04 11:20:35.97	226.72	26.89	-46.7	-48.3	16.8	0.00e+00	0	55	0	476053504	56	4268
2026-01-04 11:20:36.96	226.96	26.99	-46.8	-48.4	16.7	0.00e+00	0	55	0	477102080	56	4312
2026-01-04 11:20:37.96	227.21	27.10	-46.9	-48.6	16.5	0.00e+00	0	55	0	479199232	56	4394
2026-01-04 11:20:38.95	227.45	27.20	-47.3	-49.1	16.0	0.00e+00	0	55	0	481296384	56	4703
2026-01-04 11:20:39.93	227.70	27.31	-47.3	-49.1	16.1	0.00e+00	0	55	0	483393536	56	4655
2026-01-04 11:20:40.92	227.95	27.41	-47.4	-49.2	15.9	0.00e+00	0	55	0	485490688	56	4758
2026-01-04 11:20:41.90	228.19	27.51	-47.3	-49.1	16.0	0.00e+00	0	55	0	486539264	56	4684
2026-01-04 11:20:42.89	228.45	27.62	-47.1	-48.8	16.3	0.00e+00	0	55	0	488636416	56	4521
2026-01-04 11:20:43.88	228.70	27.72	-46.9	-48.6	16.5	0.00e+00	0	55	0	490733568	56	4399
2026-01-04 11:20:44.87	228.96	27.83	-46.9	-48.5	16.6	0.00e+00	0	55	0	492830720	56	4355
2026-01-04 11:20:45.85	229.21	27.93	-46.7	-48.3	16.8	0.00e+00	0	55	0	493879296	56	4261
2026-01-04 11:20:46.84	229.47	28.03	-46.9	-48.5	16.6	0.00e+00	0	55	0	495976448	56	4376
2026-01-04 11:20:47.84	229.73	28.14	-47.0	-48.7	16.4	0.00e+00	0	55	0	498073600	56	4442
2026-01-04 11:20:48.83	229.99	28.24	-47.0	-48.7	16.4	0.00e+00	0	55	0	500170752	56	4464
2026-01-04 11:20:49.82	230.26	28.34	-47.3	-49.1	16.0	0.00e+00	0	55	0	501219328	56	4691
2026-01-04 11:20:50.80	230.52	28.44	-47.4	-49.2	15.9	0.00e+00	0	55	0	503316480	56	4740
2026-01-04 11:20:51.79	230.79	28.54	-47.6	-49.5	15.7	0.00e+00	0	55	0	505413632	57	4621
2026-01-04 11:20:52.78	231.06	28.65	-47.9	-50.0	15.2	0.00e+00	0	55	0	507510784	57	4876
2026-01-04 11:20:53.77	231.33	28.75	-48.1	-50.4	14.8	0.00e+00	0	55	0	509607936	58	4826
2026-01-04 11:20:54.75	231.60	28.85	-48.1	-50.3	14.9	0.00e+00	0	55	0	510656512	58	4802
2026-01-04 11:20:55.75	231.87	28.95	-48.1	-50.4	14.8	7.00e-07	0	55	0	512753664	58	4830
2026-01-04 11:20:56.74	232.15	29.05	-48.2	-50.4	14.7	7.00e-07	0	55	0	514850816	58	4849
2026-01-04 11:20:57.73	232.42	29.15	-48.4	-50.6	14.5	1.50e-06	0	55	0	516947968	58	4982
2026-01-04 11:20:58.72	232.70	29.25	-48.5	-50.9	14.3	0.00e+00	0	55	0	517996544	58	5101
2026-01-04 11:20:59.71	232.98	29.35	-48.5	-50.9	14.2	7.00e-07	0	55	0	520093696	58	5125
2026-01-04 11:21:00.70	233.26	29.45	-48.8	-51.3	13.8	4.50e-06	0	55	0	522190848	59	5084
2026-01-04 11:21:01.68	233.55	29.55	-49.0	-52.0	13.3	1.67e-05	0	55	0	524288000	60	5163
2026-01-04 11:21:02.69	233.84	29.65	-49.3	-52.3	12.9	6.25e-05	0	55	0	526385152	60	5358
2026-01-04 11:21:03.67	234.12	29.74	-49.5	-52.8	12.4	8.39e-05	0	55	0	527433728	60	5677
2026-01-04 11:21:04.67	234.41	29.84	-49.7	-53.1	12.0	2.67e-04	0	55	0	529530880	61	5539
2026-01-04 11:21:05.66	234.70	29.94	-49.8	-53.3	11.8	3.34e-04	0	55	0	531628032	61	5657
2026-01-04 11:21:06.65	235.00	30.04	-49.8	-53.3	11.7	4.29e-04	0	55	0	533725184	61	5701
2026-01-04 11:21:07.64	235.29	30.13	-49.6	-53.1	11.9	3.22e-04	0	55	0	534773760	61	5547
2026-01-04 11:21:08.63	235.59	30.23	-49.7	-53.2	11.9	2.68e-04	0	55	0	536870912	61	5644
2026-01-04 11:21:09.62	235.88	30.32	-49.7	-53.1	11.9	4.80e-04	0	55	0	538968064	61	5590
2026-01-04 11:21:10.60	236.18	30.42	-49.4	-52.4	12.8	1.79e-04	0	55	0	541065216	61	5134
2026-01-04 11:21:11.59	236.48	30.51	-49.3	-52.4	12.7	6.17e-05	0	55	0	542113792	61	5135
2026-01-04 11:21:12.58	236.78	30.60	-49.4	-52.7	12.5	1.11e-04	0	55	0	544210944	61	5300
2026-01-04 11:21:13.57	237.09	30.70	-49.3	-52.5	12.7	1.30e-04	0	55	0	546308096	61	5169
2026-01-04 11:21:14.56	237.39	30.79	-49.4	-52.7	12.5	9.15e-05	0	55	0	548405248	61	5293
2026-01-04 11:21:15.55	237.70	30.88	-49.6	-53.1	12.1	1.85e-04	0	55	0	549453824	61	5534
2026-01-04 11:21:16.54	238.01	30.97	-49.6	-53.0	12.1	4.13e-04	0	55	0	551550976	61	5485
2026-01-04 11:21:17.53	238.32	31.06	-49.7	-53.1	12.0	3.80e-04	0	55	0	553648128	61	5588
2026-01-04 11:21:18.52	238.63	31.15	-49.6	-52.8	12.3	2.68e-04	0	55	0	555745280	61	5346
2026-01-04 11:21:19.51	238.95	31.24	-49.6	-52.8	12.3	2.06e-04	0	56	0	557842432	61	5367
2026-01-04 11:21:20.50	239.27	31.33	-49.5	-52.6	12.5	1.13e-04	0	55	0	558891008	61	5272
2026-01-04 11:21:21.49	239.58	31.42	-49.5	-52.7	12.4	6.63e-05	0	55	0	560988160	61	5308
2026-01-04 11:21:22.49	239.91	31.50	-49.5	-52.7	12.4	1.94e-04	0	56	0	563085312	61	5330
2026-01-04 11:21:23.48	240.23	31.59	-49.8	-53.4	11.7	2.18e-04	0	56	0	565182464	61	5754
2026-01-04 11:21:24.45	240.54	31.67	-49.8	-53.4	11.7	4.55e-04	0	55	0	566231040	61	5768
2026-01-04 11:21:25.43	240.86	31.76	-49.7	-53.2	12.0	4.78e-04	0	55	0	568328192	61	5599
2026-01-04 11:21:26.42	241.19	31.84	-49.8	-53.2	11.9	4.70e-04	0	56	0	570425344	61	5603
2026-01-04 11:21:27.42	241.52	31.93	-49.5	-52.7	12.4	2.84e-04	0	55	0	572522496	61	5326
2026-01-04 11:21:28.40	241.85	32.01	-49.4	-52.6	12.5	1.22e-04	0	56	0	573571072	61	5233
2026-01-04 11:21:29.38	242.18	32.09	-49.5	-52.7	12.5	1.07e-04	0	55	0	575668224	61	5280
2026-01-04 11:21:30.36	242.51	32.17	-49.5	-52.8	12.3	1.43e-04	0	56	0	577765376	61	5382
2026-01-04 11:21:31.35	242.84	32.25	-49.4	-52.4	12.6	1.18e-04	0	55	0	579862528	61	5135
2026-01-04 11:21:32.34	243.18	32.33	-48.5	-51.0	14.1	5.30e-06	0	55	0	581959680	60	4615
2026-01-04 11:21:33.32	243.51	32.41	-48.5	-50.9	14.2	7.00e-07	0	55	0	583008256	60	4577
2026-01-04 11:21:34.31	243.85	32.48	-48.8	-51.4	13.8	6.80e-06	0	55	0	585105408	60	4815
2026-01-04 11:21:35.30	244.19	32.56	-49.2	-52.1	13.0	2.05e-05	0	55	0	587202560	60	5247
2026-01-04 11:21:36.28	244.53	32.64	-49.9	-53.4	11.7	4.69e-04	0	55	0	589299712	61	5774
2026-01-04 11:21:37.28	244.88	32.71	-49.9	-53.5	11.6	6.06e-04	0	55	0	590348288	61	5846
2026-01-04 11:21:38.26	245.22	32.78	-50.1	-53.9	11.3	1.06e-03	0	55	0	592445440	62	5733
2026-01-04 11:21:39.25	245.57	32.86	-50.0	-53.6	11.5	9.90e-04	0	55	0	594542592	62	5583
2026-01-04 11:21:40.24	245.91	32.93	-49.4	-52.4	12.7	1.46e-04	0	55	0	596639744	61	5146
2026-01-04 11:21:41.24	246.27	33.00	-48.9	-51.6	13.6	2.44e-05	0	56	0	597688320	60	4956
2026-01-04 11:21:42.23	246.62	33.07	-48.5	-50.9	14.2	3.00e-06	0	56	0	599785472	60	4588
2026-01-04 11:21:43.23	246.98	33.14	-48.7	-51.3	13.9	0.00e+00	0	55	0	601882624	60	4775
2026-01-04 11:21:44.22	247.33	33.21	-49.2	-52.2	13.0	1.60e-05	0	55	0	603979776	60	5299
2026-01-04 11:21:45.20	247.68	33.27	-49.6	-53.0	12.1	6.86e-05	0	56	0	606076928	61	5510
2026-01-04 11:21:46.20	248.04	33.34	-49.8	-53.5	11.7	3.87e-04	0	56	0	607125504	61	5793
2026-01-04 11:21:47.18	248.40	33.41	-49.8	-53.4	11.7	5.48e-04	0	56	0	609222656	61	5727
2026-01-04 11:21:48.16	248.76	33.47	-49.7	-53.1	12.0	3.47e-04	0	55	0	611319808	61	5567
2026-01-04 11:21:49.16	249.12	33.53	-50.0	-53.7	11.4	3.63e-04	0	56	0	613416960	61	5976
2026-01-04 11:21:50.15	249.48	33.59	-50.1	-54.1	11.0	9.95e-04	0	56	0	614465536	62	5909
2026-01-04 11:21:51.13	249.84	33.65	-50.3	-54.4	10.8	2.32e-03	0	56	0	616562688	62	6099
2026-01-04 11:21:52.11	250.21	33.71	-50.1	-53.7	11.3	1.74e-03	0	56	0	618659840	62	5652
2026-01-04 11:21:53.10	250.57	33.77	-50.1	-54.0	11.1	1.18e-03	0	56	0	620756992	62	5821
2026-01-04 11:21:54.08	250.94	33.83	-50.2	-54.2	10.8	1.89e-03	0	56	0	621805568	62	5963
2026-01-04 11:21:55.07	251.31	33.88	-50.3	-54.4	10.7	2.67e-03	0	56	0	623902720	62	6078
2026-01-04 11:21:56.06	251.68	33.94	-50.6	-55.1	10.0	4.91e-03	0	56	0	625999872	63	6232
2026-01-04 11:21:57.04	252.04	33.99	-50.7	-55.2	9.7	8.90e-03	0	56	0	628097024	63	6342
2026-01-04 11:21:58.04	252.42	34.04	-50.7	-55.4	9.7	1.09e-02	0	56	0	629145600	63	6443
2026-01-04 11:21:59.03	252.79	34.09	-50.6	-55.3	9.8	1.20e-02	0	56	0	631242752	63	6376
2026-01-04 11:22:00.03	253.17	34.14	-50.6	-55.3	9.6	8.43e-03	0	56	0	633339904	63	6414
2026-01-04 11:22:01.02	253.55	34.19	-50.9	-55.8	9.3	1.30e-02	0	56	0	635437056	63	6738
2026-01-04 11:22:02.01	253.93	34.24	-50.6	-55.3	9.5	1.93e-02	0	56	0	637534208	63	6414
2026-01-04 11:22:03.00	254.31	34.28	-51.0	-56.3	8.7	2.53e-02	0	56	0	638582784	63	7135
2026-01-04 11:22:03.98	254.68	34.33	-50.6	-55.2	9.7	1.83e-02	0	56	0	640679936	64	5983
2026-01-04 11:22:04.97	255.06	34.37	-50.2	-54.2	10.9	6.29e-03	0	56	0	642777088	63	5603
2026-01-04 11:22:05.96	255.44	34.41	-50.0	-53.6	11.5	8.89e-04	0	56	0	644874240	62	5538
2026-01-04 11:22:06.95	255.83	34.45	-50.1	-53.9	11.2	8.31e-04	0	56	0	645922816	62	5775
2026-01-04 11:22:07.94	256.21	34.49	-50.3	-54.4	10.7	1.88e-03	0	56	0	648019968	62	6073
2026-01-04 11:22:08.93	256.59	34.53	-50.7	-55.2	9.8	5.37e-03	0	56	0	650117120	63	6339
2026-01-04 11:22:09.92	256.98	34.56	-50.4	-54.6	10.4	8.61e-03	0	56	0	652214272	63	5864
2026-01-04 11:22:10.91	257.36	34.60	-49.9	-53.4	11.8	1.18e-03	0	56	0	653262848	62	5407
2026-01-04 11:22:11.90	257.75	34.63	-49.4	-52.6	12.5	1.87e-04	0	56	0	655360000	61	5254
2026-01-04 11:22:12.89	258.14	34.66	-49.2	-52.2	13.0	5.87e-05	0	56	0	657457152	61	4996
2026-01-04 11:22:13.88	258.52	34.69	-49.1	-51.9	13.3	3.58e-05	0	56	0	659554304	61	4841
2026-01-04 11:22:14.87	258.91	34.72	-49.2	-52.1	13.0	4.11e-05	0	56	0	661651456	61	4958
2026-01-04 11:22:15.86	259.30	34.75	-49.0	-51.8	13.4	3.28e-05	0	56	0	662700032	61	4760
2026-01-04 11:22:16.85	259.69	34.78	-49.4	-52.4	12.8	5.95e-05	0	56	0	664797184	61	5131
2026-01-04 11:22:17.84	260.08	34.80	-49.5	-52.7	12.3	1.22e-04	0	56	0	666894336	61	5339
2026-01-04 11:22:18.84	260.48	34.83	-49.8	-53.4	11.7	3.95e-04	0	56	0	668991488	61	5773
2026-01-04 11:22:19.83	260.87	34.85	-50.0	-53.8	11.4	9.89e-04	0	56	0	670040064	61	5993
2026-01-04 11:22:20.81	261.26	34.87	-50.1	-53.9	11.2	1.87e-03	0	56	0	672137216	62	5774
2026-01-04 11:22:21.80	261.65	34.89	-50.1	-54.0	11.1	1.67e-03	0	56	0	674234368	62	5791
2026-01-04 11:22:22.78	262.04	34.91	-50.5	-54.9	10.2	4.90e-03	0	56	0	676331520	62	6447
2026-01-04 11:22:23.78	262.44	34.92	-50.7	-55.6	9.5	1.02e-02	0	56	0	677380096	63	6605
2026-01-04 11:22:24.76	262.83	34.94	-50.7	-55.2	9.9	1.05e-02	0	56	0	679477248	63	6291
2026-01-04 11:22:25.75	263.22	34.95	-50.3	-54.2	10.7	5.44e-03	0	56	0	681574400	63	5631
2026-01-04 11:22:26.75	263.62	34.96	-50.0	-53.7	11.4	1.60e-03	0	56	0	683671552	63	5288
2026-01-04 11:22:27.73	264.01	34.97	-50.1	-53.7	11.4	1.01e-03	0	56	0	685768704	63	5335
2026-01-04 11:22:28.72	264.41	34.98	-50.2	-54.1	11.0	1.72e-03	0	56	0	686817280	63	5569
2026-01-04 11:22:29.72	264.80	34.99	-50.4	-54.5	10.7	2.18e-03	0	56	0	688914432	63	5794
2026-01-04 11:22:30.70	265.20	34.99	-50.4	-54.5	10.6	2.95e-03	0	56	0	691011584	63	5811
2026-01-04 11:22:31.68	265.59	35.00	-50.7	-55.2	9.8	5.19e-03	0	56	0	693108736	63	6282
2026-01-04 11:22:32.67	265.98	35.00	-50.8	-55.6	9.5	8.46e-03	0	56	0	694157312	63	6584
2026-01-04 11:22:33.66	266.38	35.00	-51.0	-56.4	8.7	2.89e-02	0	56	0	696254464	63	7213
2026-01-04 11:22:34.64	266.77	35.00	-51.3	-57.3	7.7	6.57e-02	0	56	0	698351616	64	7591
2026-01-04 11:22:35.63	267.17	35.00	-51.4	-57.9	7.0	1.82e-01	0	56	0	700448768	64	8147
2026-01-04 11:22:36.63	267.56	35.00	-51.6	-58.9	6.2	2.80e-01	0	56	0	701497344	65	8616
2026-01-04 11:22:37.62	267.96	34.99	-51.5	-58.3	6.7	2.29e-01	0	56	0	703594496	65	8007
2026-01-04 11:22:38.61	268.36	34.99	-51.4	-58.1	6.7	2.07e-01	0	56	0	705691648	65	7823
2026-01-04 11:22:39.61	268.75	34.98	-51.1	-56.7	8.1	8.90e-02	0	56	0	707788800	65	6714
2026-01-04 11:22:40.59	269.14	34.97	-50.8	-55.9	9.0	4.11e-02	0	56	0	709885952	64	6453
2026-01-04 11:22:41.58	269.54	34.96	-50.7	-55.7	9.3	2.39e-02	0	56	0	710934528	64	6308
2026-01-04 11:22:42.58	269.94	34.95	-50.7	-55.5	9.3	2.52e-02	0	56	0	713031680	64	6199
2026-01-04 11:22:43.57	270.33	34.93	-50.6	-55.2	9.7	1.13e-02	0	56	0	715128832	64	5936
2026-01-04 11:22:44.56	270.73	34.92	-50.5	-55.2	9.8	1.40e-02	0	56	0	717225984	64	5940
2026-01-04 11:22:45.55	271.12	34.90	-50.5	-55.2	9.8	1.03e-02	0	56	0	718274560	64	5939
2026-01-04 11:22:46.54	271.51	34.88	-50.8	-55.4	9.6	8.77e-03	0	56	0	720371712	63	6492
2026-01-04 11:22:47.52	271.90	34.87	-51.0	-56.0	9.0	2.12e-02	0	56	0	722468864	63	6952
2026-01-04 11:22:48.52	272.30	34.84	-51.2	-57.2	7.7	5.72e-02	0	56	0	724566016	64	7511
2026-01-04 11:22:49.51	272.69	34.82	-51.4	-58.0	6.9	1.17e-01	0	56	0	725614592	64	8249
2026-01-04 11:22:50.50	273.08	34.80	-51.1	-57.1	7.8	1.28e-01	0	56	0	727711744	64	7421
2026-01-04 11:22:51.47	273.46	34.77	-50.6	-55.5	9.4	2.60e-02	0	56	0	729808896	64	6169
2026-01-04 11:22:52.47	273.85	34.75	-50.0	-53.9	11.1	3.97e-03	0	56	0	731906048	63	5450
2026-01-04 11:22:53.46	274.24	34.72	-49.9	-53.5	11.6	9.70e-04	0	56	0	734003200	62	5499
2026-01-04 11:22:54.45	274.63	34.69	-49.7	-53.1	12.0	4.80e-04	0	56	0	735051776	62	5267
2026-01-04 11:22:55.43	275.01	34.66	-49.6	-53.0	12.1	2.82e-04	0	56	0	737148928	62	5217
2026-01-04 11:22:56.43	275.40	34.63	-49.5	-52.7	12.4	2.05e-04	0	56	0	739246080	62	5032
2026-01-04 11:22:57.41	275.79	34.59	-49.3	-52.3	12.8	9.07e-05	0	56	0	741343232	61	5081
2026-01-04 11:22:58.41	276.18	34.56	-49.8	-53.3	11.8	2.55e-04	0	56	0	742391808	61	5685
2026-01-04 11:22:59.40	276.56	34.52	-50.4	-54.8	10.3	2.59e-03	0	56	0	744488960	62	6394
2026-01-04 11:23:00.39	276.94	34.48	-51.1	-57.1	7.8	3.66e-02	0	56	0	746586112	64	7455
2026-01-04 11:23:01.39	277.33	34.44	-51.0	-57.0	7.9	1.18e-01	0	56	0	748683264	64	7305
2026-01-04 11:23:02.37	277.71	34.40	-50.9	-56.2	8.7	4.85e-02	0	56	0	749731840	64	6699
2026-01-04 11:23:03.36	278.09	34.36	-50.7	-55.4	9.6	1.85e-02	0	56	0	751828992	64	6118
2026-01-04 11:23:04.35	278.47	34.32	-50.7	-55.3	9.6	2.00e-02	0	56	0	753926144	64	6049
2026-01-04 11:23:05.35	278.85	34.27	-50.8	-55.8	9.1	1.88e-02	0	56	0	756023296	64	6415
2026-01-04 11:23:06.33	279.23	34.23	-51.1	-56.8	8.0	4.43e-02	0	56	0	758120448	64	7151
2026-01-04 11:23:07.32	279.60	34.18	-51.1	-56.8	7.9	8.32e-02	0	56	0	759169024	64	7144
2026-01-04 11:23:08.30	279.97	34.13	-50.8	-55.8	9.1	4.15e-02	0	56	0	761266176	64	6412
2026-01-04 11:23:09.29	280.35	34.08	-50.5	-55.1	9.8	1.79e-02	0	56	0	763363328	64	5897
2026-01-04 11:23:10.28	280.72	34.03	-50.6	-55.7	9.2	1.48e-02	0	56	0	765460480	64	6310
2026-01-04 11:23:11.27	281.09	33.98	-51.0	-57.1	7.7	5.81e-02	0	56	0	766509056	64	7455
2026-01-04 11:23:12.27	281.47	33.93	-51.1	-57.1	7.8	9.38e-02	0	56	0	768606208	64	7396
2026-01-04 11:23:13.25	281.83	33.87	-50.7	-55.4	9.4	2.59e-02	0	56	0	770703360	64	6127
2026-01-04 11:23:14.25	282.21	33.82	-50.1	-54.2	10.9	4.49e-03	0	56	0	772800512	63	5624
2026-01-04 11:23:15.24	282.57	33.76	-50.1	-54.1	11.0	1.39e-03	0	56	0	774897664	63	5544
2026-01-04 11:23:16.23	282.94	33.70	-50.5	-55.0	10.0	2.98e-03	0	56	0	775946240	63	6196
2026-01-04 11:23:17.21	283.30	33.64	-50.6	-55.3	9.6	9.41e-03	0	56	0	778043392	63	6415
2026-01-04 11:23:18.20	283.66	33.58	-50.7	-55.5	9.5	2.09e-02	0	56	0	780140544	63	6559
2026-01-04 11:23:19.19	284.03	33.52	-50.5	-55.0	10.0	1.77e-02	0	56	0	782237696	63	6178
2026-01-04 11:23:20.17	284.38	33.46	-50.3	-54.6	10.4	6.88e-03	0	56	0	783286272	63	5902
2026-01-04 11:23:21.16	284.74	33.40	-50.0	-53.9	11.2	2.54e-03	0	56	0	785383424	63	5403
2026-01-04 11:23:22.15	285.10	33.33	-50.1	-54.1	11.0	1.96e-03	0	56	0	787480576	63	5543
2026-01-04 11:23:23.13	285.45	33.27	-50.1	-54.1	10.9	2.13e-03	0	56	0	789577728	63	5574
2026-01-04 11:23:24.12	285.81	33.20	-50.0	-54.0	11.0	2.03e-03	0	56	0	790626304	63	5516
2026-01-04 11:23:25.11	286.16	33.13	-49.9	-53.5	11.5	1.91e-03	0	56	0	792723456	62	5497
2026-01-04 11:23:26.10	286.51	33.06	-49.7	-53.2	11.9	7.29e-04	0	56	0	794820608	62	5339
2026-01-04 11:23:27.09	286.86	32.99	-49.5	-52.7	12.4	3.78e-04	0	56	0	796917760	62	5035
2026-01-04 11:23:28.08	287.21	32.92	-49.3	-52.4	12.7	1.12e-04	0	56	0	797966336	61	5101
2026-01-04 11:23:29.06	287.56	32.85	-49.2	-52.3	12.9	1.03e-04	0	56	0	800063488	61	5080
2026-01-04 11:23:30.04	287.90	32.78	-49.5	-53.0	12.1	1.54e-04	0	56	0	802160640	61	5471
2026-01-04 11:23:31.03	288.24	32.71	-49.8	-53.5	11.5	2.21e-04	0	56	0	804257792	61	5833
2026-01-04 11:23:32.02	288.59	32.63	-49.3	-52.3	12.8	9.91e-05	0	56	0	805306368	61	5082
2026-01-04 11:23:33.01	288.93	32.56	-49.1	-51.9	13.2	3.28e-05	0	56	0	807403520	61	4849
2026-01-04 11:23:34.00	289.27	32.48	-48.9	-51.7	13.4	2.05e-05	0	56	0	809500672	61	4722
2026-01-04 11:23:34.99	289.61	32.40	-48.9	-51.6	13.5	6.80e-06	0	56	0	811597824	60	4976
2026-01-04 11:23:35.98	289.94	32.32	-48.6	-51.2	14.0	8.30e-06	0	56	0	813694976	60	4716
2026-01-04 11:23:36.96	290.27	32.25	-48.5	-50.9	14.3	7.00e-07	0	56	0	814743552	59	4844
2026-01-04 11:23:37.96	290.61	32.16	-48.7	-51.3	13.8	0.00e+00	0	56	0	816840704	59	5045
2026-01-04 11:23:38.95	290.94	32.08	-48.6	-51.0	14.1	2.20e-06	0	56	0	818937856	59	4888
2026-01-04 11:23:39.93	291.27	32.00	-48.5	-50.9	14.2	1.50e-06	0	56	0	821035008	59	4829
2026-01-04 11:23:40.92	291.60	31.92	-48.7	-51.2	13.9	0.00e+00	0	56	0	822083584	59	5038
2026-01-04 11:23:41.91	291.93	31.84	-48.4	-50.8	14.3	7.00e-07	0	56	0	824180736	59	4796
2026-01-04 11:23:42.90	292.25	31.75	-48.3	-50.6	14.6	0.00e+00	0	56	0	826277888	59	4657
2026-01-04 11:23:43.89	292.57	31.67	-48.5	-50.9	14.3	1.50e-06	0	56	0	828375040	59	4846
2026-01-04 11:23:44.88	292.90	31.58	-48.2	-50.4	14.7	7.00e-07	0	56	0	830472192	59	4579
2026-01-04 11:23:45.87	293.22	31.50	-48.0	-50.2	14.9	0.00e+00	0	56	0	831520768	59	4486
2026-01-04 11:23:46.86	293.53	31.41	-47.9	-50.1	15.0	0.00e+00	0	56	0	833617920	59	4428
2026-01-04 11:23:47.85	293.85	31.32	-48.0	-50.1	15.0	0.00e+00	0	56	0	835715072	58	4705
2026-01-04 11:23:48.83	294.16	31.24	-48.1	-50.4	14.7	0.00e+00	0	56	0	837812224	58	4865
2026-01-04 11:23:49.82	294.48	31.15	-48.3	-50.5	14.6	0.00e+00	0	56	0	838860800	58	4909
2026-01-04 11:23:50.82	294.79	31.06	-48.1	-50.3	14.9	0.00e+00	0	56	0	840957952	58	4773
2026-01-04 11:23:51.81	295.10	30.97	-48.0	-50.1	15.0	0.00e+00	0	56	0	843055104	58	4698
2026-01-04 11:23:52.80	295.41	30.88	-47.9	-50.0	15.1	0.00e+00	0	56	0	845152256	58	4637
2026-01-04 11:23:53.79	295.72	30.78	-47.9	-50.1	15.0	0.00e+00	0	56	0	846200832	58	4679
2026-01-04 11:23:54.77	296.02	30.69	-48.1	-50.3	14.8	0.00e+00	0	56	0	848297984	58	4796
2026-01-04 11:23:55.77	296.33	30.60	-47.8	-49.9	15.2	0.00e+00	0	56	0	850395136	58	4560
2026-01-04 11:23:56.76	296.63	30.51	-47.8	-49.9	15.2	0.00e+00	0	56	0	852492288	58	4565
2026-01-04 11:23:57.74	296.92	30.41	-48.0	-50.2	14.9	0.00e+00	0	56	0	854589440	58	4721
2026-01-04 11:23:58.74	297.22	30.32	-48.4	-50.8	14.3	0.00e+00	0	56	0	855638016	58	5060
2026-01-04 11:23:59.73	297.52	30.22	-48.3	-50.6	14.4	2.20e-06	0	56	0	857735168	58	4980
2026-01-04 11:24:00.72	297.82	30.13	-47.9	-50.1	15.1	0.00e+00	0	56	0	859832320	58	4662
2026-01-04 11:24:01.71	298.11	30.03	-47.7	-49.8	15.3	0.00e+00	0	56	0	861929472	58	4519
2026-01-04 11:24:02.69	298.40	29.94	-47.4	-49.2	15.9	0.00e+00	0	56	0	862978048	57	4449
2026-01-04 11:24:03.68	298.69	29.84	-47.2	-49.1	16.0	0.00e+00	0	56	0	865075200	57	4395
2026-01-04 11:24:04.66	298.97	29.75	-47.4	-49.3	15.7	0.00e+00	0	57	0	867172352	57	4529
2026-01-04 11:24:05.65	299.26	29.65	-48.1	-50.2	14.9	0.00e+00	0	56	0	869269504	57	5034
2026-01-04 11:24:06.63	299.54	29.55	-48.1	-50.3	14.8	0.00e+00	0	56	0	870318080	58	4803
2026-01-04 11:24:07.62	299.82	29.45	-47.8	-49.8	15.3	0.00e+00	0	56	0	872415232	58	4545
2026-01-04 11:24:08.61	300.10	29.35	-47.5	-49.4	15.7	0.00e+00	0	56	0	874512384	58	4326
2026-01-04 11:24:09.60	300.38	29.26	-47.4	-49.3	15.8	0.00e+00	0	56	0	876609536	58	4267
2026-01-04 11:24:10.60	300.66	29.15	-47.6	-49.5	15.6	0.00e+00	0	56	0	878706688	57	4618
2026-01-04 11:24:11.59	300.94	29.05	-47.7	-49.6	15.4	0.00e+00	0	56	0	879755264	57	4704
2026-01-04 11:24:12.58	301.21	28.95	-48.1	-50.3	14.8	0.00e+00	0	56	0	881852416	58	4790
2026-01-04 11:24:13.58	301.49	28.85	-48.1	-50.3	14.8	7.00e-07	0	56	0	883949568	58	4777
2026-01-04 11:24:14.57	301.76	28.75	-47.3	-49.1	16.0	0.00e+00	0	56	0	886046720	57	4393
2026-01-04 11:24:15.57	302.03	28.65	-46.6	-48.1	16.9	0.00e+00	0	56	0	887095296	56	4186
2026-01-04 11:24:16.56	302.30	28.55	-46.2	-47.6	17.3	0.00e+00	0	56	0	889192448	55	4177
2026-01-04 11:24:17.55	302.57	28.45	-46.7	-48.3	16.6	0.00e+00	0	56	0	891289600	55	4538
2026-01-04 11:24:18.54	302.83	28.35	-47.6	-49.5	15.6	0.00e+00	0	56	0	893386752	56	4907
2026-01-04 11:24:19.53	303.09	28.24	-47.9	-50.0	15.1	0.00e+00	0	56	0	894435328	57	4921
2026-01-04 11:24:20.51	303.35	28.14	-48.6	-51.1	14.0	7.00e-07	0	56	0	896532480	59	4969
2026-01-04 11:24:21.50	303.61	28.04	-48.1	-50.3	14.8	3.00e-06	0	56	0	898629632	59	4502
2026-01-04 11:24:22.49	303.87	27.94	-47.3	-49.1	16.0	0.00e+00	0	57	0	900726784	57	4417
2026-01-04 11:24:23.48	304.12	27.83	-46.8	-48.5	16.6	0.00e+00	0	56	0	901775360	56	4342
2026-01-04 11:24:24.46	304.38	27.73	-46.9	-48.5	16.5	0.00e+00	0	56	0	903872512	56	4380
2026-01-04 11:24:25.45	304.63	27.63	-47.3	-49.2	15.9	0.00e+00	0	56	0	905969664	56	4744
2026-01-04 11:24:26.44	304.88	27.52	-47.9	-50.1	15.0	0.00e+00	0	56	0	908066816	57	4953
2026-01-04 11:24:27.43	305.13	27.42	-48.7	-51.2	13.8	1.50e-06	0	56	0	910163968	59	5032
2026-01-04 11:24:28.42	305.38	27.32	-48.8	-51.5	13.5	1.98e-05	0	56	0	911212544	59	5215
2026-01-04 11:24:29.41	305.62	27.21	-48.8	-51.4	13.6	8.30e-06	0	56	0	913309696	59	5158
2026-01-04 11:24:30.40	305.87	27.11	-48.5	-50.9	14.2	5.30e-06	0	56	0	915406848	59	4845
2026-01-04 11:24:31.39	306.11	27.00	-48.0	-50.2	14.9	0.00e+00	0	56	0	917504000	59	4469
2026-01-04 11:24:32.37	306.35	26.90	-48.2	-50.6	14.6	0.00e+00	0	56	0	918552576	59	4660
2026-01-04 11:24:33.36	306.59	26.79	-48.7	-51.2	13.9	5.30e-06	0	56	0	920649728	59	5030
2026-01-04 11:24:34.36	306.83	26.69	-48.7	-51.3	13.8	3.80e-06	0	56	0	922746880	59	5075
2026-01-04 11:24:35.35	307.07	26.58	-49.1	-51.9	13.2	3.20e-05	0	56	0	924844032	60	5125
2026-01-04 11:24:36.33	307.30	26.48	-49.0	-51.8	13.3	2.51e-05	0	56	0	926941184	60	5065
2026-01-04 11:24:37.33	307.54	26.37	-48.8	-51.6	13.5	1.83e-05	0	56	0	927989760	60	4953
2026-01-04 11:24:38.31	307.77	26.27	-48.7	-51.3	13.7	8.30e-06	0	56	0	930086912	60	4810
2026-01-04 11:24:39.31	308.00	26.16	-48.8	-51.4	13.6	6.10e-06	0	56	0	932184064	60	4867
2026-01-04 11:24:40.30	308.23	26.06	-48.7	-51.3	13.8	7.60e-06	0	56	0	934281216	60	4791
2026-01-04 11:24:41.28	308.46	25.95	-49.2	-52.2	12.9	1.29e-05	0	56	0	935329792	60	5326
2026-01-04 11:24:42.28	308.69	25.85	-49.9	-53.7	11.3	3.03e-04	0	56	0	937426944	61	5985
2026-01-04 11:24:43.27	308.91	25.74	-49.9	-53.8	11.2	1.27e-03	0	56	0	939524096	61	6042
2026-01-04 11:24:44.27	309.14	25.63	-49.9	-53.9	11.1	1.73e-03	0	56	0	941621248	61	6085
2026-01-04 11:24:45.25	309.36	25.53	-49.6	-53.2	11.8	1.05e-03	0	56	0	942669824	62	5286
2026-01-04 11:24:46.24	309.58	25.42	-49.2	-52.4	12.7	4.19e-04	0	56	0	944766976	61	5132
2026-01-04 11:24:47.23	309.80	25.32	-49.2	-52.2	12.8	5.26e-05	0	56	0	946864128	61	5027
2026-01-04 11:24:48.22	310.02	25.21	-49.3	-52.4	12.6	6.56e-05	0	56	0	948961280	61	5151
2026-01-04 11:24:49.20	310.23	25.11	-49.2	-52.4	12.6	6.79e-05	0	56	0	951058432	61	5122
2026-01-04 11:24:50.19	310.45	25.00	-49.5	-52.8	12.2	1.23e-04	0	56	0	952107008	61	5402
2026-01-04 11:24:51.18	310.66	24.90	-49.8	-53.4	11.6	6.19e-04	0	56	0	954204160	61	5724
2026-01-04 11:24:52.17	310.87	24.79	-49.7	-53.1	12.0	7.32e-04	0	56	0	956301312	61	5543
2026-01-04 11:24:53.16	311.08	24.69	-49.6	-53.1	11.9	3.50e-04	0	56	0	958398464	61	5539
2026-01-04 11:24:54.15	311.29	24.58	-49.3	-52.4	12.6	1.65e-04	0	56	0	959447040	61	5136
2026-01-04 11:24:55.14	311.50	24.48	-49.3	-52.4	12.6	1.44e-04	0	56	0	961544192	61	5130
2026-01-04 11:24:56.13	311.71	24.37	-49.4	-52.8	12.3	1.36e-04	0	56	0	963641344	61	5368
2026-01-04 11:24:57.11	311.91	24.27	-49.5	-52.9	12.1	2.01e-04	0	56	0	965738496	61	5442
2026-01-04 11:24:58.10	312.12	24.16	-49.4	-52.6	12.4	1.41e-04	0	56	0	966787072	61	5262
2026-01-04 11:24:59.09	312.32	24.05	-49.5	-52.9	12.2	1.59e-04	0	56	0	968884224	61	5409
2026-01-04 11:25:00.08	312.52	23.95	-49.9	-53.6	11.4	7.09e-04	0	56	0	970981376	61	5870
2026-01-04 11:25:01.06	312.72	23.85	-49.5	-52.8	12.1	6.32e-04	0	56	0	973078528	61	5381
2026-01-04 11:25:02.05	312.92	23.74	-49.1	-52.1	13.0	8.01e-05	0	56	0	975175680	61	4936
2026-01-04 11:25:03.04	313.12	23.64	-48.6	-51.1	13.9	1.44e-05	0	56	0	976224256	60	4684
2026-01-04 11:25:04.02	313.31	23.53	-48.3	-50.6	14.5	3.00e-06	0	56	0	978321408	59	4653
2026-01-04 11:25:05.01	313.51	23.43	-48.4	-50.7	14.4	7.00e-07	0	56	0	980418560	59	4721
2026-01-04 11:25:06.00	313.70	23.32	-48.2	-50.5	14.5	2.20e-06	0	56	0	982515712	59	4639
2026-01-04 11:25:07.00	313.89	23.22	-48.4	-50.7	14.4	2.20e-06	0	56	0	983564288	59	4717
2026-01-04 11:25:07.98	314.08	23.11	-48.6	-51.1	14.0	3.00e-06	0	56	0	985661440	59	4958
2026-01-04 11:25:08.97	314.27	23.01	-48.3	-50.6	14.4	7.00e-07	0	56	0	987758592	59	4695
2026-01-04 11:25:09.96	314.46	22.90	-47.6	-49.5	15.5	0.00e+00	0	56	0	989855744	58	4382
2026-01-04 11:25:10.95	314.65	22.80	-46.8	-48.5	16.5	0.00e+00	0	56	0	990904320	56	4345
2026-01-04 11:25:11.95	314.84	22.70	-46.0	-47.4	17.4	0.00e+00	0	56	0	993001472	55	4096
2026-01-04 11:25:12.94	315.02	22.59	-45.7	-47.0	17.9	0.00e+00	0	56	0	995098624	54	4110
2026-01-04 11:25:13.93	315.21	22.49	-45.6	-46.9	18.0	0.00e+00	0	56	0	997195776	54	4058
2026-01-04 11:25:14.92	315.39	22.38	-45.6	-47.0	17.9	0.00e+00	0	56	0	998244352	54	4112
2026-01-04 11:25:15.91	315.57	22.28	-46.1	-47.5	17.4	0.00e+00	0	56	0	1000341504	54	4365
2026-01-04 11:25:16.90	315.75	22.18	-46.5	-48.1	16.8	0.00e+00	0	57	0	1002438656	54	4679
2026-01-04 11:25:17.89	315.93	22.07	-47.2	-49.1	15.9	0.00e+00	0	56	0	1004535808	56	4681
2026-01-04 11:25:18.88	316.11	21.97	-47.4	-49.3	15.7	0.00e+00	0	56	0	1006632960	56	4788
2026-01-04 11:25:19.87	316.29	21.87	-47.9	-50.0	15.1	0.00e+00	0	56	0	1007681536	57	4881
2026-01-04 11:25:20.87	316.46	21.76	-47.7	-49.7	15.3	0.00e+00	0	56	0	1009778688	57	4724
2026-01-04 11:25:21.85	316.64	21.66	-47.5	-49.4	15.6	0.00e+00	0	56	0	1011875840	57	4564
2026-01-04 11:25:22.84	316.81	21.56	-47.3	-49.1	15.9	0.00e+00	0	56	0	1013972992	57	4409
2026-01-04 11:25:23.82	316.98	21.46	-47.3	-49.1	16.0	0.00e+00	0	56	0	1015021568	57	4397
2026-01-04 11:25:24.81	317.15	21.36	-47.0	-48.7	16.3	0.00e+00	0	56	0	1017118720	57	4222
2026-01-04 11:25:25.80	317.32	21.25	-46.9	-48.5	16.4	0.00e+00	0	57	0	1019215872	56	4382
2026-01-04 11:25:26.80	317.49	21.15	-46.8	-48.4	16.6	0.00e+00	0	56	0	1021313024	56	4331
2026-01-04 11:25:27.79	317.66	21.05	-46.8	-48.4	16.5	0.00e+00	0	56	0	1023410176	56	4332
2026-01-04 11:25:28.78	317.83	20.95	-46.7	-48.4	16.6	0.00e+00	0	56	0	1024458752	56	4299
2026-01-04 11:25:29.77	317.99	20.85	-46.7	-48.3	16.7	0.00e+00	0	56	0	1026555904	56	4261
2026-01-04 11:25:30.76	318.16	20.75	-46.8	-48.5	16.5	0.00e+00	0	56	0	1028653056	56	4358
2026-01-04 11:25:31.74	318.32	20.65	-46.8	-48.5	16.5	0.00e+00	0	56	0	1030750208	56	4364
2026-01-04 11:25:32.74	318.49	20.54	-46.5	-48.1	16.8	0.00e+00	0	57	0	1031798784	56	4167
2026-01-04 11:25:33.72	318.65	20.44	-46.7	-48.3	16.7	0.00e+00	0	56	0	1033895936	56	4255
2026-01-04 11:25:34.71	318.81	20.34	-46.7	-48.3	16.6	0.00e+00	0	56	0	1035993088	56	4270
2026-01-04 11:25:35.69	318.96	20.24	-46.7	-48.4	16.6	0.00e+00	0	57	0	1038090240	56	4294
2026-01-04 11:25:36.69	319.12	20.14	-46.6	-48.2	16.8	0.00e+00	0	56	0	1039138816	56	4217
2026-01-04 11:25:37.67	319.28	20.04	-46.7	-48.3	16.7	0.00e+00	0	56	0	1041235968	56	4260
2026-01-04 11:25:38.66	319.44	19.94	-46.6	-48.2	16.7	0.00e+00	0	56	0	1043333120	56	4242
2026-01-04 11:25:39.65	319.59	19.85	-46.8	-48.5	16.5	0.00e+00	0	57	0	1045430272	56	4350
2026-01-04 11:25:40.64	319.75	19.75	-46.8	-48.4	16.5	0.00e+00	0	56	0	1047527424	56	4315
2026-01-04 11:25:41.63	319.90	19.65	-46.8	-48.4	16.5	0.00e+00	0	56	0	1048576000	56	4324
2026-01-04 11:25:42.61	320.05	19.55	-46.9	-48.6	16.3	0.00e+00	0	57	0	1050673152	56	4428
2026-01-04 11:25:43.60	320.20	19.45	-47.0	-48.8	16.2	0.00e+00	0	56	0	1052770304	56	4509
2026-01-04 11:25:44.59	320.36	19.35	-47.0	-48.7	16.3	0.00e+00	0	56	0	1054867456	56	4459
2026-01-04 11:25:45.58	320.51	19.25	-47.0	-48.8	16.2	0.00e+00	0	56	0	1055916032	56	4498
2026-01-04 11:25:46.57	320.65	19.16	-47.0	-48.7	16.2	0.00e+00	0	56	0	1058013184	56	4476
2026-01-04 11:25:47.55	320.80	19.06	-46.6	-48.3	16.7	0.00e+00	0	57	0	1060110336	56	4245
2026-01-04 11:25:48.54	320.95	18.96	-46.5	-48.0	17.0	0.00e+00	0	56	0	1062207488	56	4114
2026-01-04 11:25:49.53	321.10	18.86	-46.1	-47.6	17.2	0.00e+00	0	56	0	1063256064	55	4178
2026-01-04 11:25:50.52	321.24	18.77	-46.1	-47.6	17.2	0.00e+00	0	57	0	1065353216	55	4173
2026-01-04 11:25:51.52	321.39	18.67	-46.3	-47.8	17.1	0.00e+00	0	56	0	1067450368	55	4273
2026-01-04 11:25:52.51	321.53	18.57	-46.5	-48.1	16.7	0.00e+00	0	56	0	1069547520	55	4409
2026-01-04 11:25:53.50	321.67	18.48	-46.5	-48.1	16.7	0.00e+00	0	56	0	1070596096	55	4416
2026-01-04 11:25:54.49	321.81	18.38	-46.3	-47.9	16.9	0.00e+00	0	57	0	1072693248	55	4305
2026-01-04 11:25:55.48	321.96	18.28	-46.2	-47.8	17.0	0.00e+00	0	57	0	1074790400	55	4246
2026-01-04 11:25:56.47	322.10	18.19	-46.6	-48.3	16.5	0.00e+00	0	56	0	1076887552	55	4498
2026-01-04 11:25:57.45	322.23	18.09	-46.8	-48.5	16.3	0.00e+00	0	56	0	1078984704	55	4599
2026-01-04 11:25:58.44	322.37	18.00	-46.8	-48.5	16.3	0.00e+00	0	56	0	1080033280	55	4642
2026-01-04 11:25:59.43	322.51	17.90	-47.2	-49.1	15.9	0.00e+00	0	56	0	1082130432	56	4659
2026-01-04 11:26:00.42	322.65	17.81	-46.9	-48.7	16.3	0.00e+00	0	57	0	1084227584	56	4450
2026-01-04 11:26:01.41	322.78	17.71	-47.2	-49.1	15.9	0.00e+00	0	57	0	1086324736	56	4665
2026-01-04 11:26:02.39	322.92	17.62	-47.3	-49.1	15.8	0.00e+00	0	56	0	1087373312	56	4688
2026-01-04 11:26:03.38	323.05	17.52	-47.0	-48.7	16.2	0.00e+00	0	56	0	1089470464	56	4474
2026-01-04 11:26:04.37	323.18	17.43	-47.1	-49.0	16.0	0.00e+00	0	56	0	1091567616	56	4612
2026-01-04 11:26:05.36	323.32	17.33	-47.0	-48.8	16.1	0.00e+00	0	57	0	1093664768	56	4510
2026-01-04 11:26:06.34	323.45	17.24	-46.9	-48.6	16.3	0.00e+00	0	57	0	1094713344	56	4413
2026-01-04 11:26:07.33	323.58	17.15	-47.2	-49.0	15.9	0.00e+00	0	56	0	1096810496	56	4629
2026-01-04 11:26:08.32	323.71	17.05	-47.3	-49.1	15.7	0.00e+00	0	56	0	1098907648	56	4702
2026-01-04 11:26:09.31	323.84	16.96	-47.6	-49.6	15.3	0.00e+00	0	57	0	1101004800	56	4944
2026-01-04 11:26:10.30	323.97	16.87	-47.8	-49.9	15.1	0.00e+00	0	56	0	1103101952	57	4837
2026-01-04 11:26:11.29	324.10	16.78	-47.8	-49.9	15.0	0.00e+00	0	56	0	1104150528	57	4845
2026-01-04 11:26:12.28	324.22	16.68	-48.1	-50.4	14.5	0.00e+00	0	56	0	1106247680	58	4843
2026-01-04 11:26:13.26	324.35	16.59	-48.1	-50.5	14.5	0.00e+00	0	57	0	1108344832	58	4888
2026-01-04 11:26:14.25	324.47	16.50	-48.4	-50.8	14.1	3.00e-06	0	56	0	1110441984	58	5086
2026-01-04 11:26:15.24	324.60	16.41	-48.5	-51.0	14.0	5.30e-06	0	57	0	1111490560	58	5163
2026-01-04 11:26:16.23	324.72	16.32	-48.6	-51.1	13.8	5.30e-06	0	57	0	1113587712	59	4974
2026-01-04 11:26:17.23	324.85	16.22	-48.5	-51.1	13.8	3.00e-06	0	56	0	1115684864	59	4945
2026-01-04 11:26:18.22	324.97	16.13	-48.5	-50.9	14.0	7.00e-07	0	57	0	1117782016	59	4870
2026-01-04 11:26:19.21	325.09	16.04	-48.4	-50.8	14.1	3.80e-06	0	56	0	1118830592	59	4794
2026-01-04 11:26:20.20	325.22	15.95	-48.5	-50.9	13.9	2.20e-06	0	57	0	1120927744	59	4870
2026-01-04 11:26:21.19	325.34	15.86	-48.3	-50.7	14.2	3.80e-06	0	56	0	1123024896	59	4732
2026-01-04 11:26:22.18	325.46	15.77	-48.3	-50.7	14.2	1.50e-06	0	56	0	1125122048	59	4729
2026-01-04 11:26:23.16	325.57	15.68	-48.3	-50.8	14.0	1.50e-06	0	56	0	1127219200	59	4805
2026-01-04 11:26:24.15	325.69	15.59	-48.2	-50.5	14.4	4.50e-06	0	56	0	1128267776	59	4618
2026-01-04 11:26:25.14	325.81	15.50	-47.9	-50.1	14.8	0.00e+00	0	56	0	1130364928	58	4686
2026-01-04 11:26:26.13	325.93	15.41	-47.8	-49.9	15.0	0.00e+00	0	56	0	1132462080	58	4566
2026-01-04 11:26:27.12	326.05	15.32	-47.7	-49.7	15.2	0.00e+00	0	56	0	1134559232	58	4485
2026-01-04 11:26:28.11	326.16	15.23	-47.8	-49.9	15.0	0.00e+00	0	57	0	1135607808	58	4572
2026-01-04 11:26:29.11	326.28	15.14	-47.7	-49.9	15.0	7.00e-07	0	56	0	1137704960	58	4568
2026-01-04 11:26:30.09	326.39	15.06	-47.8	-50.0	14.9	0.00e+00	0	57	0	1139802112	58	4606
2026-01-04 11:26:31.08	326.51	14.97	-47.8	-49.9	14.9	0.00e+00	0	56	0	1141899264	58	4573
2026-01-04 11:26:32.07	326.62	14.88	-47.9	-50.1	14.8	0.00e+00	0	56	0	1142947840	58	4705
2026-01-04 11:26:33.06	326.73	14.79	-47.9	-50.2	14.7	0.00e+00	0	57	0	1145044992	58	4725
2026-01-04 11:26:34.04	326.84	14.71	-48.1	-50.3	14.6	7.00e-07	0	56	0	1147142144	58	4790
2026-01-04 11:26:35.03	326.95	14.62	-47.7	-49.9	15.0	0.00e+00	0	56	0	1149239296	58	4548
2026-01-04 11:26:36.02	327.07	14.53	-47.6	-49.6	15.2	0.00e+00	0	56	0	1150287872	58	4435
2026-01-04 11:26:37.01	327.18	14.44	-47.4	-49.4	15.4	0.00e+00	0	56	0	1152385024	57	4582
2026-01-04 11:26:38.00	327.29	14.36	-47.2	-49.1	15.7	0.00e+00	0	56	0	1154482176	57	4440
2026-01-04 11:26:39.00	327.40	14.27	-47.1	-49.0	15.8	0.00e+00	0	56	0	1156579328	57	4354
2026-01-04 11:26:39.99	327.50	14.18	-47.1	-48.9	15.9	0.00e+00	0	56	0	1158676480	57	4340
2026-01-04 11:26:40.99	327.61	14.10	-47.3	-49.2	15.6	0.00e+00	0	57	0	1159725056	57	4479
2026-01-04 11:26:41.98	327.72	14.01	-47.1	-48.9	15.9	0.00e+00	0	56	0	1161822208	57	4309
2026-01-04 11:26:42.97	327.83	13.93	-47.0	-48.7	16.1	0.00e+00	0	56	0	1163919360	57	4232
2026-01-04 11:26:43.96	327.93	13.84	-47.0	-48.8	16.0	0.00e+00	0	56	0	1166016512	57	4273
2026-01-04 11:26:44.95	328.04	13.76	-47.1	-49.0	15.8	0.00e+00	0	57	0	1167065088	57	4370
2026-01-04 11:26:45.93	328.14	13.67	-47.3	-49.2	15.6	0.00e+00	0	57	0	1169162240	57	4474
2026-01-04 11:26:46.91	328.25	13.59	-47.4	-49.3	15.5	0.00e+00	0	57	0	1171259392	57	4524
2026-01-04 11:26:47.90	328.35	13.50	-47.6	-49.6	15.2	0.00e+00	0	57	0	1173356544	57	4696
2026-01-04 11:26:48.89	328.45	13.42	-47.7	-49.7	15.1	0.00e+00	0	56	0	1175453696	57	4749
2026-01-04 11:26:49.87	328.55	13.33	-47.8	-49.9	14.9	0.00e+00	0	57	0	1176502272	57	4858
2026-01-04 11:26:50.86	328.66	13.25	-48.0	-50.2	14.7	7.00e-07	0	57	0	1178599424	57	5028
2026-01-04 11:26:51.85	328.76	13.17	-47.8	-50.0	14.8	7.00e-07	0	57	0	1180696576	57	4883
2026-01-04 11:26:52.85	328.86	13.08	-47.8	-50.0	14.8	0.00e+00	0	57	0	1182793728	57	4905
2026-01-04 11:26:53.84	328.96	13.00	-47.6	-49.8	15.0	0.00e+00	0	57	0	1183842304	57	4794
2026-01-04 11:26:54.83	329.06	12.92	-47.7	-49.8	15.0	0.00e+00	0	57	0	1185939456	57	4803
2026-01-04 11:26:55.81	329.16	12.83	-47.7	-49.9	15.0	7.00e-07	0	57	0	1188036608	57	4815
2026-01-04 11:26:56.81	329.26	12.75	-47.5	-49.6	15.2	0.00e+00	0	57	0	1190133760	57	4673
2026-01-04 11:26:57.80	329.36	12.67	-47.5	-49.6	15.2	0.00e+00	0	56	0	1191182336	57	4658
2026-01-04 11:26:58.79	329.45	12.59	-47.7	-49.8	15.0	0.00e+00	0	57	0	1193279488	57	4765
2026-01-04 11:26:59.78	329.55	12.50	-47.5	-49.6	15.2	0.00e+00	0	56	0	1195376640	57	4682
2026-01-04 11:27:00.77	329.65	12.42	-47.4	-49.3	15.4	0.00e+00	0	56	0	1197473792	57	4542
2026-01-04 11:27:01.76	329.75	12.34	-47.4	-49.3	15.4	0.00e+00	0	57	0	1199570944	57	4531
2026-01-04 11:27:02.75	329.84	12.26	-47.4	-49.4	15.3	0.00e+00	0	57	0	1200619520	57	4578
2026-01-04 11:27:03.75	329.94	12.18	-47.4	-49.5	15.3	0.00e+00	0	56	0	1202716672	57	4599
2026-01-04 11:27:04.73	330.03	12.10	-47.7	-49.8	14.9	0.00e+00	0	57	0	1204813824	57	4807
2026-01-04 11:27:05.72	330.13	12.02	-47.7	-49.9	14.9	7.00e-07	0	57	0	1206910976	57	4817
2026-01-04 11:27:06.70	330.22	11.94	-48.0	-50.3	14.4	0.00e+00	0	57	0	1207959552	57	5088
2026-01-04 11:27:07.68	330.31	11.86	-48.0	-50.3	14.4	7.00e-07	0	57	0	1210056704	57	5078
2026-01-04 11:27:08.68	330.40	11.77	-48.1	-50.5	14.3	0.00e+00	0	57	0	1212153856	57	5176
2026-01-04 11:27:09.66	330.50	11.70	-48.1	-50.5	14.2	3.00e-06	0	57	0	1214251008	58	4897
2026-01-04 11:27:10.65	330.59	11.62	-48.1	-50.5	14.3	1.50e-06	0	57	0	1215299584	58	4879
2026-01-04 11:27:11.65	330.68	11.54	-48.1	-50.5	14.3	0.00e+00	0	57	0	1217396736	58	4892
2026-01-04 11:27:12.63	330.77	11.46	-48.1	-50.6	14.2	0.00e+00	0	57	0	1219493888	58	4939
2026-01-04 11:27:13.62	330.86	11.38	-48.1	-50.6	14.1	7.00e-07	0	57	0	1221591040	58	4938
2026-01-04 11:27:14.60	330.95	11.30	-48.3	-50.8	13.9	1.50e-06	0	57	0	1223688192	58	5059
2026-01-04 11:27:15.59	331.04	11.22	-48.1	-50.6	14.1	3.00e-06	0	57	0	1224736768	58	4949
2026-01-04 11:27:16.59	331.13	11.14	-47.9	-50.2	14.4	0.00e+00	0	57	0	1226833920	58	4747
2026-01-04 11:27:17.57	331.22	11.06	-47.9	-50.2	14.5	7.00e-07	0	57	0	1228931072	58	4726
