passes_logs/2026/01/04/R3.0SM8_Murmansk_STILSPACE/R3.0SM8_Murmansk_STILSPACE__20260104_154418_FENGYUN_3E_rec.log

#Pass ID: 20260104_154418_FENGYUN 3E
#Satellite: FENGYUN 3E
#Configuration: FENGYUN 3E
#almurnet v.1.7.20240730
#Start time: 2026-01-04 15:44:19

#Version: 2.2.20231116
#Station: R3.0SM8_Murmansk_STILSPACE
#Location: 33.092731 lon 68.902999 lat
#TLE: 1 49008U 21062A   26004.01270550 -.00000256  00000+0 -10014-3 0  9997
#TLE: 2 49008  98.7472   9.2701 0001499 161.2681 198.8551 14.19882497233285

#Time	Az	El	Level	Level2	SNR	BER	BlckErr	Temp	State	Recorded	gain1	gain2
2026-01-04 15:44:19.56	201.03	3.07	-52.3	-62.6	3.8	8.46e-01	0	46	0	0	66	12254
2026-01-04 15:44:20.53	201.09	3.13	-52.1	-62.3	3.8	8.46e-01	0	47	104	0	67	11193
2026-01-04 15:44:21.52	201.15	3.19	-52.0	-62.2	3.8	8.47e-01	0	47	104	0	66	11735
2026-01-04 15:44:22.51	201.21	3.25	-51.9	-62.0	3.8	8.47e-01	0	47	104	0	66	11518
2026-01-04 15:44:23.49	201.27	3.31	-51.7	-61.7	3.8	8.47e-01	0	47	104	0	66	11100
2026-01-04 15:44:24.48	201.33	3.37	-51.4	-61.5	3.8	8.46e-01	0	47	104	0	65	11513
2026-01-04 15:44:25.47	201.39	3.43	-51.3	-61.6	3.8	8.46e-01	0	47	104	0	65	11551
2026-01-04 15:44:26.45	201.45	3.49	-51.4	-61.4	3.8	8.46e-01	0	47	104	0	65	11376
2026-01-04 15:44:27.44	201.52	3.55	-51.3	-61.4	3.8	8.46e-01	0	47	104	0	65	11296
2026-01-04 15:44:28.43	201.58	3.61	-51.3	-61.3	3.8	8.45e-01	0	47	104	0	65	11261
2026-01-04 15:44:29.41	201.64	3.67	-51.4	-61.3	3.8	8.47e-01	0	47	104	0	65	11160
2026-01-04 15:44:30.40	201.71	3.73	-51.3	-61.1	3.8	8.47e-01	0	47	104	0	65	11005
2026-01-04 15:44:31.39	201.77	3.79	-51.3	-61.2	3.8	8.47e-01	0	47	104	0	65	11035
2026-01-04 15:44:32.38	201.83	3.85	-51.4	-61.2	3.8	8.46e-01	0	47	104	0	65	11141
2026-01-04 15:44:33.37	201.90	3.91	-51.4	-61.3	3.8	8.47e-01	0	48	104	0	65	11197
2026-01-04 15:44:34.37	201.96	3.98	-51.4	-61.5	3.8	8.46e-01	0	48	104	0	65	11422
2026-01-04 15:44:35.36	202.03	4.04	-51.4	-61.5	3.8	8.46e-01	0	48	104	0	65	11517
2026-01-04 15:44:36.35	202.09	4.10	-51.4	-61.5	3.8	8.47e-01	0	48	104	0	65	11488
2026-01-04 15:44:37.33	202.16	4.16	-51.4	-61.2	3.8	8.46e-01	0	48	104	0	65	11136
2026-01-04 15:44:38.32	202.22	4.22	-51.1	-60.5	3.8	8.46e-01	0	48	104	0	65	10256
2026-01-04 15:44:39.31	202.29	4.28	-51.0	-59.3	3.8	8.45e-01	0	48	104	0	65	8925
2026-01-04 15:44:40.30	202.35	4.34	-50.8	-57.8	4.3	8.38e-01	0	48	0	0	64	7971
2026-01-04 15:44:41.28	202.42	4.41	-50.5	-56.4	4.9	7.97e-01	0	48	0	0	63	7124
2026-01-04 15:44:42.27	202.48	4.47	-50.0	-54.5	6.1	4.54e-01	0	48	0	2097152	62	6082
2026-01-04 15:44:43.27	202.55	4.53	-49.3	-52.9	7.5	1.34e-01	0	48	0	9437184	61	5398
2026-01-04 15:44:44.25	202.62	4.59	-48.7	-51.7	8.7	4.33e-02	0	48	0	15728640	60	4934
2026-01-04 15:44:45.24	202.69	4.65	-48.3	-50.8	9.7	1.64e-02	0	48	0	23068672	59	4735
2026-01-04 15:44:46.24	202.75	4.72	-47.7	-49.9	10.7	4.12e-03	0	49	0	30408704	58	4508
2026-01-04 15:44:47.23	202.82	4.78	-47.1	-49.0	11.6	1.24e-03	0	48	0	37748736	57	4324
2026-01-04 15:44:48.22	202.89	4.84	-46.6	-48.3	12.3	2.06e-04	0	49	0	45088768	56	4207
2026-01-04 15:44:49.21	202.96	4.91	-45.9	-47.4	13.2	5.14e-05	0	49	0	52428800	54	4253
2026-01-04 15:44:50.20	203.03	4.97	-45.5	-46.8	13.8	1.02e-05	0	49	0	58720256	54	3978
2026-01-04 15:44:51.19	203.09	5.03	-45.1	-46.3	14.2	0.00e+00	0	49	0	66060288	53	3996
2026-01-04 15:44:52.18	203.16	5.09	-45.3	-46.5	14.1	1.10e-06	0	49	0	73400320	53	4085
2026-01-04 15:44:53.17	203.23	5.16	-45.5	-46.8	13.8	3.40e-06	0	49	0	80740352	53	4202
2026-01-04 15:44:54.16	203.30	5.22	-45.1	-46.3	14.3	2.20e-06	0	49	0	88080384	53	3996
2026-01-04 15:44:55.16	203.37	5.29	-45.0	-46.2	14.4	0.00e+00	0	49	0	95420416	53	3948
2026-01-04 15:44:56.15	203.44	5.35	-44.9	-46.1	14.6	0.00e+00	0	49	0	101711872	52	4109
2026-01-04 15:44:57.13	203.51	5.41	-44.9	-46.1	14.6	5.70e-06	0	49	0	109051904	52	4113
2026-01-04 15:44:58.13	203.58	5.48	-45.0	-46.2	14.5	4.50e-06	0	49	0	116391936	52	4151
2026-01-04 15:44:59.12	203.66	5.54	-44.9	-46.0	14.6	0.00e+00	0	49	0	123731968	52	4088
2026-01-04 15:45:00.12	203.73	5.61	-45.0	-46.2	14.5	2.20e-06	0	49	0	131072000	52	4149
2026-01-04 15:45:01.11	203.80	5.67	-45.1	-46.3	14.3	0.00e+00	0	49	0	138412032	52	4226
2026-01-04 15:45:02.09	203.87	5.73	-45.1	-46.3	14.4	0.00e+00	0	49	0	144703488	52	4217
2026-01-04 15:45:03.08	203.94	5.80	-44.9	-46.1	14.6	0.00e+00	0	49	0	152043520	52	4100
2026-01-04 15:45:04.07	204.02	5.86	-45.3	-46.6	14.1	1.10e-06	0	49	0	159383552	52	4374
2026-01-04 15:45:05.06	204.09	5.93	-45.0	-46.2	14.6	1.10e-06	0	50	0	166723584	52	4147
2026-01-04 15:45:06.05	204.16	5.99	-45.2	-46.5	14.2	2.20e-06	0	50	0	173015040	52	4294
2026-01-04 15:45:07.04	204.24	6.06	-45.7	-47.0	13.6	3.40e-06	0	50	0	180355072	53	4339
2026-01-04 15:45:08.04	204.31	6.12	-45.4	-46.6	14.1	3.40e-06	0	50	0	187695104	53	4144
2026-01-04 15:45:09.02	204.38	6.19	-45.0	-46.2	14.6	1.10e-06	0	50	0	195035136	53	3918
2026-01-04 15:45:10.01	204.46	6.25	-44.9	-46.1	14.7	0.00e+00	0	50	0	202375168	52	4112
2026-01-04 15:45:11.01	204.53	6.32	-45.0	-46.1	14.6	1.10e-06	0	50	0	209715200	52	4138
2026-01-04 15:45:12.00	204.61	6.38	-45.1	-46.3	14.5	0.00e+00	0	50	0	216006656	52	4223
2026-01-04 15:45:12.99	204.68	6.45	-44.9	-46.1	14.8	0.00e+00	0	50	0	223346688	52	4100
2026-01-04 15:45:13.98	204.76	6.52	-45.1	-46.2	14.5	0.00e+00	0	50	0	230686720	52	4190
2026-01-04 15:45:14.97	204.84	6.58	-45.3	-46.5	14.3	2.20e-06	0	50	0	238026752	52	4335
2026-01-04 15:45:15.96	204.91	6.65	-45.5	-46.8	14.0	4.50e-06	0	50	0	245366784	52	4458
2026-01-04 15:45:16.95	204.99	6.71	-45.3	-46.5	14.3	2.20e-06	0	50	0	252706816	52	4333
2026-01-04 15:45:17.93	205.07	6.78	-45.7	-47.0	13.8	1.10e-06	0	50	0	258998272	53	4313
2026-01-04 15:45:18.92	205.14	6.85	-45.3	-46.6	14.3	1.10e-06	0	50	0	266338304	53	4109
2026-01-04 15:45:19.91	205.22	6.91	-45.2	-46.3	14.5	2.20e-06	0	50	0	273678336	53	3994
2026-01-04 15:45:20.89	205.30	6.98	-44.9	-46.1	14.8	0.00e+00	0	50	0	281018368	52	4100
2026-01-04 15:45:21.88	205.38	7.05	-44.8	-45.9	15.0	0.00e+00	0	50	0	288358400	52	4015
2026-01-04 15:45:22.87	205.46	7.11	-44.8	-45.9	15.0	0.00e+00	0	51	0	294649856	52	4032
2026-01-04 15:45:23.86	205.53	7.18	-44.8	-45.9	15.0	0.00e+00	0	50	0	301989888	52	4010
2026-01-04 15:45:24.85	205.61	7.25	-44.8	-45.9	14.9	0.00e+00	0	51	0	309329920	52	4050
2026-01-04 15:45:25.84	205.69	7.32	-44.6	-45.6	15.3	0.00e+00	0	51	0	316669952	52	3893
2026-01-04 15:45:26.84	205.77	7.38	-44.4	-45.4	15.6	0.00e+00	0	51	0	324009984	51	4027
2026-01-04 15:45:27.83	205.86	7.45	-44.1	-45.1	15.9	0.00e+00	0	51	0	331350016	51	3880
2026-01-04 15:45:28.81	205.94	7.52	-44.1	-45.0	15.9	0.00e+00	0	51	0	337641472	50	4091
2026-01-04 15:45:29.79	206.02	7.59	-44.1	-45.0	16.0	0.00e+00	0	51	0	344981504	50	4075
2026-01-04 15:45:30.78	206.10	7.65	-44.1	-45.0	16.0	0.00e+00	0	51	0	352321536	50	4078
2026-01-04 15:45:31.77	206.18	7.72	-44.2	-45.1	15.9	0.00e+00	0	51	0	359661568	50	4119
2026-01-04 15:45:32.76	206.26	7.79	-44.3	-45.2	15.7	0.00e+00	0	51	0	367001600	50	4193
2026-01-04 15:45:33.75	206.34	7.86	-44.1	-45.1	15.9	0.00e+00	0	51	0	373293056	50	4109
2026-01-04 15:45:34.74	206.43	7.93	-44.1	-45.0	16.0	0.00e+00	0	51	0	380633088	50	4060
2026-01-04 15:45:35.73	206.51	8.00	-44.1	-45.0	16.0	0.00e+00	0	51	0	387973120	50	4091
2026-01-04 15:45:36.71	206.59	8.06	-44.2	-45.1	15.9	0.00e+00	0	51	0	395313152	50	4118
2026-01-04 15:45:37.69	206.68	8.13	-44.4	-45.4	15.7	0.00e+00	0	51	0	401604608	50	4255
2026-01-04 15:45:38.68	206.76	8.20	-44.4	-45.4	15.6	0.00e+00	0	51	0	408944640	50	4276
2026-01-04 15:45:39.66	206.85	8.27	-44.2	-45.1	15.9	0.00e+00	0	51	0	416284672	50	4127
2026-01-04 15:45:40.65	206.93	8.34	-44.1	-45.0	16.1	0.00e+00	0	51	0	423624704	50	4079
2026-01-04 15:45:41.64	207.02	8.41	-44.0	-44.9	16.1	0.00e+00	0	51	0	430964736	50	4048
2026-01-04 15:45:42.62	207.10	8.48	-44.1	-45.0	16.0	0.00e+00	0	52	0	437256192	50	4083
2026-01-04 15:45:43.62	207.19	8.55	-44.1	-45.1	16.0	0.00e+00	0	51	0	444596224	50	4116
2026-01-04 15:45:44.60	207.28	8.62	-44.1	-45.0	16.1	0.00e+00	0	52	0	451936256	50	4059
2026-01-04 15:45:45.60	207.36	8.69	-43.9	-44.8	16.3	0.00e+00	0	51	0	459276288	50	3980
2026-01-04 15:45:46.58	207.45	8.76	-43.7	-44.6	16.5	0.00e+00	0	52	0	466616320	50	3885
2026-01-04 15:45:47.57	207.54	8.83	-43.6	-44.5	16.6	0.00e+00	0	52	0	473956352	50	3831
2026-01-04 15:45:48.56	207.63	8.90	-43.6	-44.4	16.6	0.00e+00	0	52	0	480247808	49	4032
2026-01-04 15:45:49.54	207.71	8.97	-43.7	-44.5	16.6	0.00e+00	0	52	0	487587840	49	4082
2026-01-04 15:45:50.54	207.80	9.04	-43.6	-44.4	16.6	0.00e+00	0	52	0	494927872	49	4047
2026-01-04 15:45:51.53	207.89	9.11	-43.6	-44.5	16.6	0.00e+00	0	52	0	502267904	49	4069
2026-01-04 15:45:52.53	207.99	9.19	-43.6	-44.4	16.6	0.00e+00	0	52	0	509607936	49	4048
2026-01-04 15:45:53.51	208.08	9.26	-43.5	-44.4	16.7	0.00e+00	0	52	0	515899392	49	4005
2026-01-04 15:45:54.49	208.17	9.33	-43.4	-44.2	16.8	0.00e+00	0	52	0	523239424	49	3958
2026-01-04 15:45:55.48	208.26	9.40	-43.4	-44.2	16.9	0.00e+00	0	52	0	530579456	49	3949
2026-01-04 15:45:56.47	208.35	9.47	-43.6	-44.4	16.7	0.00e+00	0	52	0	537919488	49	4026
2026-01-04 15:45:57.46	208.44	9.54	-43.6	-44.4	16.7	0.00e+00	0	52	0	545259520	49	4035
2026-01-04 15:45:58.45	208.53	9.61	-43.5	-44.3	16.8	0.00e+00	0	52	0	551550976	49	3965
2026-01-04 15:45:59.44	208.63	9.69	-43.3	-44.1	17.1	0.00e+00	0	52	0	558891008	49	3876
2026-01-04 15:46:00.43	208.72	9.76	-43.3	-44.1	17.0	0.00e+00	0	52	0	566231040	49	3884
2026-01-04 15:46:01.43	208.82	9.83	-43.3	-44.1	17.0	0.00e+00	0	52	0	573571072	49	3886
2026-01-04 15:46:02.42	208.91	9.90	-43.4	-44.2	16.9	0.00e+00	0	52	0	580911104	49	3931
2026-01-04 15:46:03.41	209.00	9.98	-43.5	-44.3	16.8	0.00e+00	0	52	0	588251136	49	3994
2026-01-04 15:46:04.40	209.10	10.05	-43.4	-44.2	16.9	0.00e+00	0	52	0	594542592	49	3944
2026-01-04 15:46:05.39	209.20	10.12	-43.5	-44.3	16.9	0.00e+00	0	52	0	601882624	49	3966
2026-01-04 15:46:06.39	209.29	10.20	-43.3	-44.0	17.1	0.00e+00	0	52	0	609222656	49	3863
2026-01-04 15:46:07.37	209.39	10.27	-43.1	-43.8	17.3	0.00e+00	0	53	0	616562688	49	3764
2026-01-04 15:46:08.36	209.49	10.34	-43.0	-43.8	17.4	0.00e+00	0	52	0	623902720	49	3745
2026-01-04 15:46:09.36	209.58	10.42	-43.1	-43.9	17.3	0.00e+00	0	53	0	631242752	48	4014
2026-01-04 15:46:10.35	209.68	10.49	-43.1	-43.9	17.3	0.00e+00	0	52	0	637534208	48	4020
2026-01-04 15:46:11.34	209.78	10.57	-43.1	-43.9	17.3	0.00e+00	0	53	0	644874240	48	4031
2026-01-04 15:46:12.33	209.88	10.64	-43.3	-44.0	17.1	0.00e+00	0	53	0	652214272	48	4094
2026-01-04 15:46:13.32	209.98	10.71	-43.4	-44.2	17.0	0.00e+00	0	53	0	659554304	48	4175
2026-01-04 15:46:14.31	210.08	10.79	-43.6	-44.4	16.8	0.00e+00	0	53	0	666894336	48	4267
2026-01-04 15:46:15.31	210.18	10.86	-43.3	-44.1	17.0	0.00e+00	0	53	0	674234368	48	4133
2026-01-04 15:46:16.30	210.28	10.94	-43.2	-43.9	17.2	0.00e+00	0	53	0	680525824	48	4043
2026-01-04 15:46:17.29	210.38	11.01	-43.1	-43.9	17.3	0.00e+00	0	53	0	687865856	48	4013
2026-01-04 15:46:18.28	210.49	11.09	-43.2	-44.0	17.2	0.00e+00	0	53	0	695205888	48	4075
2026-01-04 15:46:19.27	210.59	11.16	-43.3	-44.0	17.1	0.00e+00	0	53	0	702545920	48	4094
2026-01-04 15:46:20.27	210.69	11.24	-43.2	-43.9	17.3	0.00e+00	0	53	0	709885952	48	4036
2026-01-04 15:46:21.26	210.80	11.32	-43.1	-43.8	17.4	0.00e+00	0	53	0	717225984	48	3994
2026-01-04 15:46:22.25	210.90	11.39	-43.1	-43.8	17.3	0.00e+00	0	53	0	723517440	48	4001
2026-01-04 15:46:23.25	211.01	11.47	-43.2	-43.9	17.2	0.00e+00	0	53	0	730857472	48	4041
2026-01-04 15:46:24.24	211.11	11.54	-43.1	-43.8	17.4	0.00e+00	0	53	0	738197504	48	3990
2026-01-04 15:46:25.22	211.22	11.62	-43.2	-44.0	17.3	0.00e+00	0	53	0	745537536	48	4055
2026-01-04 15:46:26.21	211.32	11.69	-43.0	-43.7	17.5	0.00e+00	0	53	0	752877568	48	3936
2026-01-04 15:46:27.20	211.43	11.77	-43.0	-43.8	17.4	0.00e+00	0	53	0	759169024	48	3964
2026-01-04 15:46:28.19	211.54	11.85	-43.1	-43.9	17.3	0.00e+00	0	53	0	766509056	48	4022
2026-01-04 15:46:29.18	211.64	11.92	-43.2	-44.0	17.3	0.00e+00	0	53	0	773849088	48	4057
2026-01-04 15:46:30.18	211.75	12.00	-43.1	-43.8	17.4	0.00e+00	0	53	0	781189120	48	3981
2026-01-04 15:46:31.18	211.86	12.08	-43.0	-43.8	17.4	0.00e+00	0	53	0	788529152	48	3969
2026-01-04 15:46:32.17	211.97	12.16	-43.1	-43.8	17.4	0.00e+00	0	53	0	795869184	48	3977
2026-01-04 15:46:33.16	212.08	12.23	-43.2	-43.9	17.3	0.00e+00	0	53	0	802160640	48	4038
2026-01-04 15:46:34.15	212.19	12.31	-43.0	-43.8	17.4	0.00e+00	0	53	0	809500672	48	3976
2026-01-04 15:46:35.14	212.31	12.39	-42.9	-43.7	17.6	0.00e+00	0	53	0	816840704	48	3915
2026-01-04 15:46:36.14	212.42	12.47	-42.9	-43.6	17.6	0.00e+00	0	53	0	824180736	48	3905
2026-01-04 15:46:37.13	212.53	12.55	-42.8	-43.5	17.7	0.00e+00	0	53	0	831520768	48	3863
2026-01-04 15:46:38.12	212.64	12.62	-42.8	-43.5	17.7	0.00e+00	0	53	0	838860800	48	3858
2026-01-04 15:46:39.11	212.76	12.70	-42.8	-43.5	17.7	0.00e+00	0	54	0	845152256	48	3848
2026-01-04 15:46:40.10	212.87	12.78	-42.9	-43.6	17.7	0.00e+00	0	54	0	852492288	48	3892
2026-01-04 15:46:41.09	212.98	12.86	-43.0	-43.8	17.5	0.00e+00	0	53	0	859832320	48	3964
2026-01-04 15:46:42.08	213.10	12.94	-42.9	-43.6	17.7	0.00e+00	0	54	0	867172352	48	3882
2026-01-04 15:46:43.07	213.22	13.02	-42.9	-43.6	17.7	0.00e+00	0	54	0	874512384	48	3877
2026-01-04 15:46:44.06	213.33	13.10	-42.9	-43.7	17.6	0.00e+00	0	54	0	881852416	48	3926
2026-01-04 15:46:45.05	213.45	13.17	-43.0	-43.7	17.6	0.00e+00	0	54	0	888143872	48	3945
2026-01-04 15:46:46.03	213.57	13.25	-43.1	-43.8	17.4	0.00e+00	0	54	0	895483904	48	4004
2026-01-04 15:46:47.03	213.68	13.33	-43.2	-44.0	17.3	0.00e+00	0	54	0	902823936	48	4052
2026-01-04 15:46:48.01	213.80	13.41	-43.1	-43.8	17.5	0.00e+00	0	54	0	910163968	48	3990
2026-01-04 15:46:49.00	213.92	13.49	-42.9	-43.7	17.6	0.00e+00	0	54	0	916455424	48	3920
2026-01-04 15:46:49.99	214.04	13.57	-42.9	-43.7	17.6	0.00e+00	0	54	0	923795456	48	3914
2026-01-04 15:46:50.98	214.16	13.65	-43.0	-43.8	17.5	0.00e+00	0	54	0	931135488	48	3975
2026-01-04 15:46:51.97	214.28	13.73	-42.8	-43.5	17.7	0.00e+00	0	54	0	938475520	48	3853
2026-01-04 15:46:52.97	214.41	13.81	-42.8	-43.5	17.8	0.00e+00	0	54	0	945815552	48	3845
2026-01-04 15:46:53.96	214.53	13.89	-42.7	-43.4	17.9	0.00e+00	0	54	0	953155584	48	3792
2026-01-04 15:46:54.95	214.65	13.97	-42.7	-43.4	17.9	0.00e+00	0	54	0	959447040	48	3809
2026-01-04 15:46:55.94	214.78	14.06	-42.7	-43.4	17.9	0.00e+00	0	54	0	966787072	48	3795
2026-01-04 15:46:56.93	214.90	14.14	-42.8	-43.4	17.8	0.00e+00	0	54	0	974127104	48	3821
2026-01-04 15:46:57.92	215.03	14.22	-42.7	-43.4	17.9	0.00e+00	0	54	0	981467136	48	3811
2026-01-04 15:46:58.92	215.15	14.30	-42.7	-43.4	17.9	0.00e+00	0	54	0	988807168	48	3787
2026-01-04 15:46:59.91	215.28	14.38	-42.7	-43.4	17.8	0.00e+00	0	54	0	996147200	48	3819
2026-01-04 15:47:00.90	215.41	14.46	-42.8	-43.5	17.8	0.00e+00	0	54	0	1002438656	48	3827
2026-01-04 15:47:01.89	215.53	14.54	-42.9	-43.7	17.6	0.00e+00	0	54	0	1009778688	48	3920
2026-01-04 15:47:02.88	215.66	14.63	-43.0	-43.8	17.5	0.00e+00	0	54	0	1017118720	48	3968
2026-01-04 15:47:03.87	215.79	14.71	-43.0	-43.7	17.6	0.00e+00	0	54	0	1024458752	48	3951
2026-01-04 15:47:04.87	215.92	14.79	-42.8	-43.5	17.8	0.00e+00	0	54	0	1031798784	48	3866
2026-01-04 15:47:05.86	216.05	14.87	-42.8	-43.5	17.8	0.00e+00	0	54	0	1039138816	48	3866
2026-01-04 15:47:06.85	216.18	14.96	-42.9	-43.6	17.7	0.00e+00	0	54	0	1045430272	48	3910
2026-01-04 15:47:07.83	216.31	15.04	-43.1	-43.8	17.5	0.00e+00	0	54	0	1052770304	48	3988
2026-01-04 15:47:08.82	216.45	15.12	-42.9	-43.6	17.7	0.00e+00	0	54	0	1060110336	48	3890
2026-01-04 15:47:09.81	216.58	15.20	-43.1	-43.8	17.5	0.00e+00	0	54	0	1067450368	48	3983
2026-01-04 15:47:10.80	216.71	15.29	-42.9	-43.6	17.7	0.00e+00	0	54	0	1073741824	48	3913
2026-01-04 15:47:11.79	216.85	15.37	-42.7	-43.3	18.0	0.00e+00	0	54	0	1081081856	48	3779
2026-01-04 15:47:12.77	216.98	15.45	-42.6	-43.3	18.1	0.00e+00	0	54	0	1088421888	48	3749
2026-01-04 15:47:13.76	217.12	15.53	-42.5	-43.1	18.0	0.00e+00	0	54	0	1095761920	47	3905
2026-01-04 15:47:14.74	217.26	15.62	-42.6	-43.3	17.8	0.00e+00	0	54	0	1103101952	47	4001
2026-01-04 15:47:15.73	217.39	15.70	-42.6	-43.3	17.8	0.00e+00	0	54	0	1109393408	47	3981
2026-01-04 15:47:16.72	217.53	15.78	-42.4	-43.1	18.1	0.00e+00	0	54	0	1116733440	47	3887
2026-01-04 15:47:17.72	217.67	15.87	-42.4	-43.0	18.1	0.00e+00	0	54	0	1124073472	47	3862
2026-01-04 15:47:18.70	217.81	15.95	-42.4	-43.1	18.0	0.00e+00	0	55	0	1131413504	47	3894
2026-01-04 15:47:19.69	217.95	16.04	-42.4	-43.1	18.0	0.00e+00	0	55	0	1138753536	47	3889
2026-01-04 15:47:20.69	218.09	16.12	-42.6	-43.2	17.9	0.00e+00	0	54	0	1145044992	47	3955
2026-01-04 15:47:21.68	218.24	16.21	-42.5	-43.1	18.0	0.00e+00	0	54	0	1152385024	47	3909
2026-01-04 15:47:22.68	218.38	16.29	-42.3	-43.0	18.2	0.00e+00	0	55	0	1159725056	47	3842
2026-01-04 15:47:23.67	218.52	16.38	-42.2	-42.9	18.2	0.00e+00	0	55	0	1167065088	47	3803
2026-01-04 15:47:24.66	218.67	16.46	-42.1	-42.7	18.4	0.00e+00	0	54	0	1174405120	47	3723
2026-01-04 15:47:25.66	218.82	16.55	-42.1	-42.8	18.4	0.00e+00	0	54	0	1181745152	47	3742
2026-01-04 15:47:26.63	218.96	16.63	-42.1	-42.7	18.4	0.00e+00	0	55	0	1188036608	47	3730
2026-01-04 15:47:27.62	219.11	16.71	-42.1	-42.8	18.4	0.00e+00	0	54	0	1195376640	47	3754
2026-01-04 15:47:28.60	219.25	16.80	-42.1	-42.8	18.4	0.00e+00	0	55	0	1202716672	47	3753
2026-01-04 15:47:29.59	219.40	16.88	-42.0	-42.6	18.5	0.00e+00	0	55	0	1210056704	47	3686
2026-01-04 15:47:30.58	219.55	16.97	-41.9	-42.6	18.6	0.00e+00	0	55	0	1217396736	46	3876
2026-01-04 15:47:31.58	219.70	17.06	-42.0	-42.6	18.6	0.00e+00	0	55	0	1224736768	46	3881
2026-01-04 15:47:32.57	219.85	17.14	-42.0	-42.6	18.5	0.00e+00	0	55	0	1231028224	46	3908
2026-01-04 15:47:33.55	220.00	17.23	-42.0	-42.6	18.6	0.00e+00	0	55	0	1238368256	46	3879
2026-01-04 15:47:34.54	220.16	17.31	-41.8	-42.4	18.8	0.00e+00	0	55	0	1245708288	46	3781
2026-01-04 15:47:35.53	220.31	17.40	-41.7	-42.3	18.9	0.00e+00	0	55	0	1253048320	46	3764
2026-01-04 15:47:36.53	220.47	17.49	-41.8	-42.4	18.7	0.00e+00	0	55	0	1260388352	46	3815
2026-01-04 15:47:37.52	220.62	17.57	-41.8	-42.4	18.7	0.00e+00	0	55	0	1266679808	46	3807
2026-01-04 15:47:38.50	220.78	17.66	-42.0	-42.6	18.6	0.00e+00	0	55	0	1274019840	46	3882
2026-01-04 15:47:39.49	220.93	17.74	-42.1	-42.7	18.5	0.00e+00	0	55	0	1281359872	46	3932
2026-01-04 15:47:40.47	221.09	17.83	-41.8	-42.4	18.8	0.00e+00	0	55	0	1288699904	46	3814
2026-01-04 15:47:41.46	221.25	17.92	-41.7	-42.3	18.9	0.00e+00	0	55	0	1296039936	46	3746
2026-01-04 15:47:42.45	221.41	18.00	-41.5	-42.1	19.1	0.00e+00	0	55	0	1302331392	46	3683
2026-01-04 15:47:43.44	221.57	18.09	-41.5	-42.1	19.1	0.00e+00	0	55	0	1309671424	45	3899
2026-01-04 15:47:44.42	221.73	18.18	-41.4	-42.0	19.2	0.00e+00	0	55	0	1317011456	45	3841
2026-01-04 15:47:45.42	221.89	18.26	-41.3	-41.9	19.3	0.00e+00	0	55	0	1324351488	45	3811
2026-01-04 15:47:46.40	222.05	18.35	-41.3	-41.9	19.3	0.00e+00	0	55	0	1330642944	45	3816
2026-01-04 15:47:47.39	222.22	18.44	-41.5	-42.1	19.1	0.00e+00	0	55	0	1337982976	45	3890
2026-01-04 15:47:48.38	222.38	18.53	-41.7	-42.3	18.9	0.00e+00	0	55	0	1345323008	45	3990
2026-01-04 15:47:49.37	222.55	18.61	-41.7	-42.3	18.9	0.00e+00	0	55	0	1352663040	45	3994
2026-01-04 15:47:50.35	222.71	18.70	-41.4	-42.0	19.2	0.00e+00	0	55	0	1360003072	45	3851
2026-01-04 15:47:51.34	222.88	18.79	-41.1	-41.7	19.5	0.00e+00	0	55	0	1366294528	45	3708
2026-01-04 15:47:52.33	223.05	18.87	-41.1	-41.6	19.6	0.00e+00	0	55	0	1373634560	45	3676
2026-01-04 15:47:53.32	223.22	18.96	-41.0	-41.6	19.6	0.00e+00	0	55	0	1380974592	45	3668
2026-01-04 15:47:54.31	223.39	19.05	-41.0	-41.5	19.7	0.00e+00	0	55	0	1388314624	44	3855
2026-01-04 15:47:55.30	223.56	19.14	-41.0	-41.5	19.7	0.00e+00	0	55	0	1395654656	44	3852
2026-01-04 15:47:56.29	223.73	19.23	-41.2	-41.8	19.5	0.00e+00	0	55	0	1402994688	44	3966
2026-01-04 15:47:57.28	223.91	19.31	-41.3	-41.9	19.4	0.00e+00	0	55	0	1409286144	44	4011
2026-01-04 15:47:58.26	224.08	19.40	-41.0	-41.6	19.6	0.00e+00	0	55	0	1416626176	44	3890
2026-01-04 15:47:59.25	224.26	19.49	-41.0	-41.5	19.7	0.00e+00	0	55	0	1423966208	44	3859
2026-01-04 15:48:00.23	224.43	19.58	-41.0	-41.5	19.7	0.00e+00	0	55	0	1431306240	44	3846
2026-01-04 15:48:01.22	224.61	19.66	-41.1	-41.7	19.5	0.00e+00	0	55	0	1438646272	44	3927
2026-01-04 15:48:02.21	224.79	19.75	-41.2	-41.8	19.4	0.00e+00	0	55	0	1445986304	44	3968
2026-01-04 15:48:03.20	224.97	19.84	-41.1	-41.7	19.6	0.00e+00	0	55	0	1452277760	44	3921
2026-01-04 15:48:04.20	225.15	19.93	-41.3	-41.9	19.4	0.00e+00	0	55	0	1459617792	44	4007
2026-01-04 15:48:05.20	225.33	20.02	-41.5	-42.1	19.2	0.00e+00	0	55	0	1466957824	44	4111
2026-01-04 15:48:06.18	225.51	20.11	-41.2	-41.8	19.5	0.00e+00	0	55	0	1474297856	44	3974
2026-01-04 15:48:07.18	225.70	20.20	-41.0	-41.6	19.7	0.00e+00	0	55	0	1481637888	44	3875
2026-01-04 15:48:08.17	225.88	20.28	-40.9	-41.5	19.7	0.00e+00	0	55	0	1487929344	44	3836
2026-01-04 15:48:09.16	226.07	20.37	-40.9	-41.4	19.8	0.00e+00	0	55	0	1495269376	44	3799
2026-01-04 15:48:10.14	226.25	20.46	-41.0	-41.6	19.7	0.00e+00	0	55	0	1502609408	44	3879
2026-01-04 15:48:11.13	226.44	20.55	-41.2	-41.7	19.5	0.00e+00	0	55	0	1509949440	44	3948
2026-01-04 15:48:12.12	226.63	20.64	-40.9	-41.4	19.8	0.00e+00	0	55	0	1517289472	44	3807
2026-01-04 15:48:13.11	226.82	20.73	-40.7	-41.2	20.0	0.00e+00	0	55	0	1524629504	44	3704
2026-01-04 15:48:14.11	227.01	20.81	-40.6	-41.1	20.1	0.00e+00	0	55	0	1530920960	44	3673
2026-01-04 15:48:15.10	227.20	20.90	-40.6	-41.2	20.1	0.00e+00	0	55	0	1538260992	44	3699
2026-01-04 15:48:16.08	227.39	20.99	-41.0	-41.5	19.8	0.00e+00	0	55	0	1545601024	44	3853
2026-01-04 15:48:17.07	227.59	21.08	-41.0	-41.5	19.7	0.00e+00	0	55	0	1552941056	44	3850
2026-01-04 15:48:18.06	227.78	21.17	-40.6	-41.1	20.1	0.00e+00	0	56	0	1560281088	44	3693
2026-01-04 15:48:19.05	227.98	21.26	-40.5	-41.0	20.2	0.00e+00	0	55	0	1566572544	44	3639
2026-01-04 15:48:20.03	228.17	21.34	-40.3	-40.8	20.2	0.00e+00	0	55	0	1573912576	43	3780
2026-01-04 15:48:21.03	228.37	21.43	-40.5	-41.0	20.1	0.00e+00	0	56	0	1581252608	43	3863
2026-01-04 15:48:22.02	228.57	21.52	-40.4	-40.9	20.2	0.00e+00	0	56	0	1588592640	43	3820
2026-01-04 15:48:23.02	228.78	21.61	-40.7	-41.2	19.9	0.00e+00	0	56	0	1595932672	43	3936
2026-01-04 15:48:24.00	228.98	21.70	-40.5	-41.0	20.1	0.00e+00	0	56	0	1602224128	43	3853
2026-01-04 15:48:25.00	229.18	21.79	-40.6	-41.2	20.0	0.00e+00	0	56	0	1609564160	43	3920
2026-01-04 15:48:25.98	229.38	21.87	-40.9	-41.4	19.8	0.00e+00	0	56	0	1616904192	43	4033
2026-01-04 15:48:26.97	229.59	21.96	-40.5	-41.0	20.1	0.00e+00	0	56	0	1624244224	43	3842
2026-01-04 15:48:27.96	229.79	22.05	-40.3	-40.8	20.3	0.00e+00	0	56	0	1631584256	43	3761
2026-01-04 15:48:28.94	230.00	22.14	-40.3	-40.8	20.4	0.00e+00	0	56	0	1637875712	43	3738
2026-01-04 15:48:29.92	230.21	22.22	-40.3	-40.8	20.3	0.00e+00	0	56	0	1645215744	43	3752
2026-01-04 15:48:30.90	230.41	22.31	-40.2	-40.7	20.4	0.00e+00	0	56	0	1652555776	43	3711
2026-01-04 15:48:31.89	230.62	22.40	-40.4	-40.9	20.2	0.00e+00	0	56	0	1659895808	43	3797
2026-01-04 15:48:32.88	230.84	22.49	-40.2	-40.7	20.4	0.00e+00	0	56	0	1667235840	43	3728
2026-01-04 15:48:33.87	231.05	22.57	-40.1	-40.6	20.5	0.00e+00	0	56	0	1673527296	43	3685
2026-01-04 15:48:34.86	231.26	22.66	-40.3	-40.8	20.3	0.00e+00	0	56	0	1680867328	43	3761
2026-01-04 15:48:35.85	231.48	22.75	-40.2	-40.7	20.4	0.00e+00	0	56	0	1688207360	43	3702
2026-01-04 15:48:36.84	231.70	22.83	-40.1	-40.6	20.6	0.00e+00	0	56	0	1695547392	43	3669
2026-01-04 15:48:37.83	231.91	22.92	-40.2	-40.7	20.4	0.00e+00	0	56	0	1702887424	43	3717
2026-01-04 15:48:38.82	232.13	23.01	-40.1	-40.6	20.5	0.00e+00	0	56	0	1709178880	43	3679
2026-01-04 15:48:39.82	232.35	23.10	-40.0	-40.5	20.7	0.00e+00	0	56	0	1716518912	43	3617
2026-01-04 15:48:40.80	232.57	23.18	-40.0	-40.5	20.7	0.00e+00	0	56	0	1723858944	42	3837
2026-01-04 15:48:41.79	232.80	23.27	-40.0	-40.5	20.6	0.00e+00	0	56	0	1731198976	42	3836
2026-01-04 15:48:42.79	233.02	23.36	-40.2	-40.7	20.5	0.00e+00	0	56	0	1738539008	42	3918
2026-01-04 15:48:43.78	233.25	23.44	-40.3	-40.8	20.4	0.00e+00	0	56	0	1745879040	42	3975
2026-01-04 15:48:44.77	233.47	23.53	-40.3	-40.7	20.4	0.00e+00	0	56	0	1752170496	42	3957
2026-01-04 15:48:45.76	233.70	23.61	-40.3	-40.8	20.4	0.00e+00	0	56	0	1759510528	42	3959
2026-01-04 15:48:46.75	233.93	23.70	-40.4	-40.9	20.3	0.00e+00	0	56	0	1766850560	42	4033
2026-01-04 15:48:47.75	234.16	23.79	-40.4	-40.9	20.3	0.00e+00	0	56	0	1774190592	42	4031
2026-01-04 15:48:48.73	234.39	23.87	-40.6	-41.1	20.1	0.00e+00	0	56	0	1781530624	42	4114
2026-01-04 15:48:49.72	234.62	23.95	-40.8	-41.3	19.9	0.00e+00	0	56	0	1788870656	43	3997
2026-01-04 15:48:50.71	234.86	24.04	-40.6	-41.1	20.1	0.00e+00	0	56	0	1795162112	43	3909
2026-01-04 15:48:51.69	235.09	24.12	-40.4	-40.9	20.3	0.00e+00	0	56	0	1802502144	43	3812
2026-01-04 15:48:52.69	235.33	24.21	-40.3	-40.8	20.4	0.00e+00	0	56	0	1809842176	43	3748
2026-01-04 15:48:53.67	235.56	24.29	-40.2	-40.7	20.5	0.00e+00	0	56	0	1817182208	43	3716
2026-01-04 15:48:54.65	235.80	24.38	-40.2	-40.6	20.5	0.00e+00	0	56	0	1823473664	43	3691
2026-01-04 15:48:55.65	236.04	24.46	-40.1	-40.6	20.6	0.00e+00	0	56	0	1830813696	43	3683
2026-01-04 15:48:56.63	236.28	24.54	-40.2	-40.7	20.5	0.00e+00	0	56	0	1838153728	43	3705
2026-01-04 15:48:57.62	236.52	24.63	-40.3	-40.7	20.4	0.00e+00	0	56	0	1845493760	43	3730
2026-01-04 15:48:58.62	236.77	24.71	-40.0	-40.5	20.7	0.00e+00	0	56	0	1852833792	42	3832
2026-01-04 15:48:59.61	237.01	24.79	-39.9	-40.4	20.8	0.00e+00	0	56	0	1860173824	42	3789
2026-01-04 15:49:00.59	237.25	24.87	-39.9	-40.4	20.8	0.00e+00	0	56	0	1866465280	42	3792
2026-01-04 15:49:01.59	237.50	24.96	-40.0	-40.5	20.7	0.00e+00	0	56	0	1873805312	42	3839
2026-01-04 15:49:02.58	237.75	25.04	-40.2	-40.7	20.5	0.00e+00	0	56	0	1881145344	42	3930
2026-01-04 15:49:03.56	238.00	25.12	-40.4	-40.9	20.3	0.00e+00	0	56	0	1888485376	42	4008
2026-01-04 15:49:04.55	238.25	25.20	-40.4	-40.9	20.3	0.00e+00	0	56	0	1894776832	42	4009
2026-01-04 15:49:05.54	238.50	25.28	-40.1	-40.6	20.6	0.00e+00	0	56	0	1902116864	42	3877
2026-01-04 15:49:06.53	238.76	25.36	-40.0	-40.5	20.7	0.00e+00	0	56	0	1909456896	42	3857
2026-01-04 15:49:07.53	239.01	25.44	-40.2	-40.7	20.5	0.00e+00	0	56	0	1916796928	42	3922
2026-01-04 15:49:08.51	239.27	25.52	-40.2	-40.7	20.5	0.00e+00	0	56	0	1924136960	42	3939
2026-01-04 15:49:09.50	239.52	25.60	-40.4	-40.9	20.3	0.00e+00	0	56	0	1930428416	42	4012
2026-01-04 15:49:10.50	239.78	25.68	-40.4	-40.9	20.3	0.00e+00	0	56	0	1937768448	42	4012
2026-01-04 15:49:11.49	240.04	25.76	-40.1	-40.5	20.6	0.00e+00	0	56	0	1945108480	42	3868
2026-01-04 15:49:12.48	240.31	25.84	-39.9	-40.4	20.8	0.00e+00	0	56	0	1952448512	42	3789
2026-01-04 15:49:13.47	240.57	25.92	-39.8	-40.3	20.9	0.00e+00	0	56	0	1959788544	42	3759
2026-01-04 15:49:14.46	240.83	25.99	-39.8	-40.2	20.9	0.00e+00	0	56	0	1967128576	42	3730
2026-01-04 15:49:15.44	241.09	26.07	-39.7	-40.2	21.0	0.00e+00	0	56	0	1973420032	42	3705
2026-01-04 15:49:16.44	241.36	26.15	-39.7	-40.2	21.0	0.00e+00	0	56	0	1980760064	42	3722
2026-01-04 15:49:17.42	241.63	26.22	-39.8	-40.3	20.9	0.00e+00	0	56	0	1988100096	42	3759
2026-01-04 15:49:18.40	241.89	26.30	-39.9	-40.4	20.8	0.00e+00	0	56	0	1995440128	42	3810
2026-01-04 15:49:19.39	242.16	26.37	-39.8	-40.3	20.9	0.00e+00	0	56	0	2002780160	42	3743
2026-01-04 15:49:20.38	242.43	26.45	-39.7	-40.2	21.0	0.00e+00	0	56	0	2010120192	42	3718
2026-01-04 15:49:21.36	242.70	26.52	-39.8	-40.3	20.9	0.00e+00	0	56	0	2016411648	42	3748
2026-01-04 15:49:22.36	242.98	26.60	-39.8	-40.3	20.9	0.00e+00	0	56	0	2023751680	42	3761
2026-01-04 15:49:23.34	243.25	26.67	-39.7	-40.2	21.0	0.00e+00	0	56	0	2031091712	42	3696
2026-01-04 15:49:24.33	243.53	26.74	-39.7	-40.1	21.0	0.00e+00	0	56	0	2038431744	42	3688
2026-01-04 15:49:25.31	243.80	26.82	-39.7	-40.2	21.0	0.00e+00	0	56	0	2045771776	42	3711
2026-01-04 15:49:26.30	244.08	26.89	-39.6	-40.1	21.1	0.00e+00	0	56	0	2052063232	42	3659
2026-01-04 15:49:27.28	244.36	26.96	-39.7	-40.1	21.0	0.00e+00	0	56	0	2059403264	42	3686
2026-01-04 15:49:28.27	244.64	27.03	-39.8	-40.2	21.0	0.00e+00	0	56	0	2066743296	42	3730
2026-01-04 15:49:29.26	244.92	27.10	-39.8	-40.2	20.9	0.00e+00	0	56	0	2074083328	42	3736
2026-01-04 15:49:30.23	245.20	27.17	-39.8	-40.2	21.0	0.00e+00	0	56	0	2080374784	42	3727
2026-01-04 15:49:31.23	245.49	27.24	-39.9	-40.4	20.8	0.00e+00	0	57	0	2087714816	42	3785
2026-01-04 15:49:32.22	245.77	27.31	-40.0	-40.5	20.7	0.00e+00	0	57	0	2095054848	42	3844
2026-01-04 15:49:33.21	246.06	27.37	-39.7	-40.2	21.0	0.00e+00	0	56	0	2102394880	42	3697
2026-01-04 15:49:34.20	246.35	27.44	-39.5	-40.0	21.2	0.00e+00	0	56	0	2109734912	42	3617
2026-01-04 15:49:35.18	246.63	27.51	-39.4	-39.9	21.3	0.00e+00	0	56	0	2116026368	41	3791
2026-01-04 15:49:36.17	246.92	27.58	-39.4	-39.9	21.3	0.00e+00	0	57	0	2123366400	41	3792
2026-01-04 15:49:37.16	247.21	27.64	-39.5	-39.9	21.2	0.00e+00	0	57	0	2130706432	41	3806
2026-01-04 15:49:38.15	247.51	27.71	-39.7	-40.1	21.0	0.00e+00	0	57	0	2138046464	41	3909
2026-01-04 15:49:39.13	247.80	27.77	-39.6	-40.0	21.2	0.00e+00	0	57	0	2145386496	41	3859
2026-01-04 15:49:40.12	248.09	27.83	-39.9	-40.3	20.9	0.00e+00	0	57	0	2151677952	41	4000
2026-01-04 15:49:41.11	248.39	27.90	-39.7	-40.1	21.0	0.00e+00	0	57	0	2159017984	41	3912
2026-01-04 15:49:42.10	248.69	27.96	-39.9	-40.4	20.7	0.00e+00	0	57	0	2166358016	41	4026
2026-01-04 15:49:43.09	248.99	28.02	-40.3	-40.8	20.4	0.00e+00	0	57	0	2173698048	42	3987
2026-01-04 15:49:44.09	249.29	28.08	-40.4	-40.9	20.3	0.00e+00	0	57	0	2181038080	42	4032
2026-01-04 15:49:45.08	249.59	28.14	-40.4	-40.9	20.3	0.00e+00	0	57	0	2188378112	42	4041
2026-01-04 15:49:46.07	249.89	28.20	-40.5	-41.0	20.2	0.00e+00	0	57	0	2194669568	42	4073
2026-01-04 15:49:47.06	250.19	28.26	-40.7	-41.2	20.0	0.00e+00	0	57	0	2202009600	42	4170
2026-01-04 15:49:48.04	250.50	28.32	-40.6	-41.1	20.1	0.00e+00	0	57	0	2209349632	42	4116
2026-01-04 15:49:49.03	250.80	28.38	-40.5	-41.0	20.2	0.00e+00	0	57	0	2216689664	42	4097
2026-01-04 15:49:50.02	251.11	28.43	-40.6	-41.1	20.1	0.00e+00	0	57	0	2224029696	42	4119
2026-01-04 15:49:51.01	251.41	28.49	-40.8	-41.4	19.8	0.00e+00	0	57	0	2231369728	43	4021
2026-01-04 15:49:52.01	251.73	28.55	-40.3	-40.8	20.4	0.00e+00	0	57	0	2237661184	43	3751
2026-01-04 15:49:53.00	252.03	28.60	-40.0	-40.4	20.7	0.00e+00	0	57	0	2245001216	42	3822
2026-01-04 15:49:53.98	252.34	28.65	-39.7	-40.2	21.0	0.00e+00	0	57	0	2252341248	42	3717
2026-01-04 15:49:54.97	252.65	28.71	-39.7	-40.2	21.0	0.00e+00	0	57	0	2259681280	42	3708
2026-01-04 15:49:55.95	252.96	28.76	-39.8	-40.3	20.9	0.00e+00	0	57	0	2265972736	42	3744
2026-01-04 15:49:56.94	253.28	28.81	-39.9	-40.3	20.9	0.00e+00	0	56	0	2273312768	42	3769
2026-01-04 15:49:57.94	253.59	28.86	-40.0	-40.5	20.7	0.00e+00	0	57	0	2280652800	42	3837
2026-01-04 15:49:58.93	253.91	28.91	-39.8	-40.3	20.9	0.00e+00	0	56	0	2287992832	42	3744
2026-01-04 15:49:59.92	254.23	28.96	-39.6	-40.1	21.1	0.00e+00	0	57	0	2295332864	42	3672
2026-01-04 15:50:00.90	254.54	29.01	-39.7	-40.1	21.1	0.00e+00	0	57	0	2301624320	42	3681
2026-01-04 15:50:01.89	254.86	29.05	-39.7	-40.2	21.0	0.00e+00	0	57	0	2308964352	42	3699
2026-01-04 15:50:02.88	255.18	29.10	-39.7	-40.2	21.0	0.00e+00	0	57	0	2316304384	42	3695
2026-01-04 15:50:03.87	255.50	29.15	-39.8	-40.3	20.9	0.00e+00	0	57	0	2323644416	42	3741
2026-01-04 15:50:04.87	255.82	29.19	-39.8	-40.3	20.9	0.00e+00	0	57	0	2330984448	42	3744
2026-01-04 15:50:05.86	256.14	29.23	-39.9	-40.4	20.8	0.00e+00	0	57	0	2338324480	42	3805
2026-01-04 15:50:06.84	256.46	29.28	-39.7	-40.2	21.0	0.00e+00	0	57	0	2344615936	42	3704
2026-01-04 15:50:07.83	256.78	29.32	-39.6	-40.1	21.1	0.00e+00	0	57	0	2351955968	42	3658
2026-01-04 15:50:08.83	257.11	29.36	-39.6	-40.1	21.1	0.00e+00	0	57	0	2359296000	42	3667
2026-01-04 15:50:09.82	257.44	29.40	-39.4	-39.8	21.3	0.00e+00	0	57	0	2366636032	41	3754
2026-01-04 15:50:10.81	257.76	29.44	-39.3	-39.7	21.4	0.00e+00	0	57	0	2373976064	41	3737
2026-01-04 15:50:11.79	258.09	29.48	-39.2	-39.6	21.5	0.00e+00	0	56	0	2380267520	41	3679
2026-01-04 15:50:12.78	258.41	29.51	-39.2	-39.7	21.5	0.00e+00	0	57	0	2387607552	41	3700
2026-01-04 15:50:13.77	258.74	29.55	-39.3	-39.7	21.4	0.00e+00	0	57	0	2394947584	41	3713
2026-01-04 15:50:14.76	259.07	29.58	-39.4	-39.8	21.4	0.00e+00	0	57	0	2402287616	41	3757
2026-01-04 15:50:15.75	259.40	29.62	-39.4	-39.9	21.3	0.00e+00	0	57	0	2409627648	41	3790
2026-01-04 15:50:16.74	259.73	29.65	-39.8	-40.2	21.0	0.00e+00	0	57	0	2415919104	41	3943
2026-01-04 15:50:17.73	260.06	29.68	-39.6	-40.1	21.1	0.00e+00	0	57	0	2423259136	41	3890
2026-01-04 15:50:18.72	260.39	29.72	-39.5	-40.0	21.2	0.00e+00	0	57	0	2430599168	41	3848
2026-01-04 15:50:19.70	260.72	29.75	-39.5	-39.9	21.3	0.00e+00	0	57	0	2437939200	41	3806
2026-01-04 15:50:20.69	261.05	29.77	-39.6	-40.1	21.1	0.00e+00	0	57	0	2445279232	41	3874
2026-01-04 15:50:21.69	261.39	29.80	-39.9	-40.4	20.9	0.00e+00	0	56	0	2452619264	41	4008
2026-01-04 15:50:22.67	261.72	29.83	-39.8	-40.3	20.9	0.00e+00	0	57	0	2458910720	41	3983
2026-01-04 15:50:23.66	262.05	29.86	-40.0	-40.5	20.8	0.00e+00	0	57	0	2466250752	41	4054
2026-01-04 15:50:24.65	262.39	29.88	-40.0	-40.5	20.7	0.00e+00	0	57	0	2473590784	41	4065
2026-01-04 15:50:25.63	262.72	29.91	-40.0	-40.5	20.7	0.00e+00	0	57	0	2480930816	41	4088
2026-01-04 15:50:26.62	263.05	29.93	-40.0	-40.4	20.8	0.00e+00	0	57	0	2488270848	41	4040
2026-01-04 15:50:27.61	263.39	29.95	-39.7	-40.1	21.0	0.00e+00	0	57	0	2495610880	41	3893
2026-01-04 15:50:28.60	263.73	29.97	-39.5	-40.0	21.2	0.00e+00	0	57	0	2501902336	41	3828
2026-01-04 15:50:29.58	264.06	29.99	-39.5	-40.0	21.2	0.00e+00	0	57	0	2509242368	41	3831
2026-01-04 15:50:30.58	264.40	30.01	-39.6	-40.0	21.2	0.00e+00	0	57	0	2516582400	41	3852
2026-01-04 15:50:31.58	264.74	30.03	-39.4	-39.8	21.4	0.00e+00	0	57	0	2523922432	41	3776
2026-01-04 15:50:32.56	265.08	30.05	-39.4	-39.9	21.3	0.00e+00	0	57	0	2531262464	41	3787
2026-01-04 15:50:33.55	265.42	30.06	-39.4	-39.8	21.3	0.00e+00	0	57	0	2537553920	41	3774
2026-01-04 15:50:34.55	265.76	30.08	-39.4	-39.9	21.3	0.00e+00	0	57	0	2544893952	41	3801
2026-01-04 15:50:35.54	266.10	30.09	-39.5	-39.9	21.3	0.00e+00	0	57	0	2552233984	41	3819
2026-01-04 15:50:36.52	266.43	30.10	-39.5	-39.9	21.2	0.00e+00	0	57	0	2559574016	41	3824
2026-01-04 15:50:37.52	266.77	30.11	-39.6	-40.1	21.0	0.00e+00	0	57	0	2566914048	41	3887
2026-01-04 15:50:38.51	267.11	30.12	-39.7	-40.2	21.0	0.00e+00	0	57	0	2574254080	41	3936
2026-01-04 15:50:39.50	267.45	30.13	-39.7	-40.2	21.0	0.00e+00	0	57	0	2580545536	41	3947
2026-01-04 15:50:40.49	267.79	30.14	-39.8	-40.2	20.9	0.00e+00	0	57	0	2587885568	41	3957
2026-01-04 15:50:41.48	268.14	30.15	-40.0	-40.4	20.7	0.00e+00	0	57	0	2595225600	41	4047
2026-01-04 15:50:42.47	268.48	30.16	-40.0	-40.5	20.8	0.00e+00	0	57	0	2602565632	41	4065
2026-01-04 15:50:43.46	268.82	30.16	-40.0	-40.5	20.7	0.00e+00	0	57	0	2609905664	41	4058
2026-01-04 15:50:44.45	269.16	30.17	-40.0	-40.5	20.7	0.00e+00	0	57	0	2616197120	41	4087
2026-01-04 15:50:45.44	269.50	30.17	-39.9	-40.4	20.8	0.00e+00	0	57	0	2623537152	41	4005
2026-01-04 15:50:46.42	269.83	30.17	-39.9	-40.4	20.8	0.00e+00	0	57	0	2630877184	41	4015
2026-01-04 15:50:47.41	270.18	30.17	-39.8	-40.3	20.9	0.00e+00	0	57	0	2638217216	41	3963
2026-01-04 15:50:48.40	270.52	30.17	-39.7	-40.2	21.0	0.00e+00	0	57	0	2644508672	41	3916
2026-01-04 15:50:49.39	270.86	30.17	-39.7	-40.1	21.1	0.00e+00	0	57	0	2651848704	41	3905
2026-01-04 15:50:50.38	271.20	30.17	-39.7	-40.2	21.0	0.00e+00	0	57	0	2659188736	41	3925
2026-01-04 15:50:51.37	271.54	30.16	-39.6	-40.0	21.2	0.00e+00	0	57	0	2666528768	41	3864
2026-01-04 15:50:52.35	271.87	30.16	-39.6	-40.1	21.1	0.00e+00	0	57	0	2673868800	41	3879
2026-01-04 15:50:53.35	272.22	30.15	-39.8	-40.2	21.0	0.00e+00	0	57	0	2680160256	41	3946
2026-01-04 15:50:54.34	272.56	30.15	-39.9	-40.3	20.9	0.00e+00	0	57	0	2687500288	41	3994
2026-01-04 15:50:55.33	272.90	30.14	-39.7	-40.1	21.1	0.00e+00	0	57	0	2694840320	41	3902
2026-01-04 15:50:56.33	273.24	30.13	-39.6	-40.1	21.1	0.00e+00	0	57	0	2702180352	41	3872
2026-01-04 15:50:57.32	273.58	30.12	-39.7	-40.1	21.1	0.00e+00	0	57	0	2709520384	41	3899
2026-01-04 15:50:58.31	273.92	30.11	-39.7	-40.2	21.0	0.00e+00	0	57	0	2716860416	41	3930
2026-01-04 15:50:59.30	274.26	30.09	-40.0	-40.5	20.8	0.00e+00	0	57	0	2723151872	41	4062
2026-01-04 15:51:00.29	274.60	30.08	-40.0	-40.5	20.7	0.00e+00	0	57	0	2730491904	41	4091
2026-01-04 15:51:01.28	274.94	30.07	-39.8	-40.3	21.0	0.00e+00	0	57	0	2737831936	41	3962
2026-01-04 15:51:02.27	275.28	30.05	-39.7	-40.2	21.0	0.00e+00	0	57	0	2745171968	41	3928
2026-01-04 15:51:03.26	275.61	30.03	-39.6	-40.1	21.1	0.00e+00	0	57	0	2752512000	41	3895
2026-01-04 15:51:04.25	275.95	30.02	-39.6	-40.1	21.1	0.00e+00	0	57	0	2758803456	41	3889
2026-01-04 15:51:05.24	276.29	30.00	-39.7	-40.2	21.0	0.00e+00	0	57	0	2766143488	41	3931
2026-01-04 15:51:06.23	276.63	29.98	-39.8	-40.2	21.0	0.00e+00	0	57	0	2773483520	41	3938
2026-01-04 15:51:07.22	276.96	29.96	-39.5	-39.9	21.2	0.00e+00	0	57	0	2780823552	41	3822
2026-01-04 15:51:08.20	277.29	29.94	-39.4	-39.9	21.3	0.00e+00	0	57	0	2788163584	41	3786
2026-01-04 15:51:09.19	277.63	29.91	-39.6	-40.1	21.1	0.00e+00	0	57	0	2795503616	41	3877
2026-01-04 15:51:10.18	277.97	29.89	-39.8	-40.3	20.9	0.00e+00	0	57	0	2801795072	41	3984
2026-01-04 15:51:11.18	278.30	29.86	-39.9	-40.4	20.8	0.00e+00	0	57	0	2809135104	41	4018
2026-01-04 15:51:12.17	278.64	29.84	-39.9	-40.4	20.8	0.00e+00	0	57	0	2816475136	41	4030
2026-01-04 15:51:13.16	278.97	29.81	-39.9	-40.4	20.8	0.00e+00	0	57	0	2823815168	41	4025
2026-01-04 15:51:14.14	279.30	29.78	-40.1	-40.6	20.6	0.00e+00	0	57	0	2831155200	41	4129
2026-01-04 15:51:15.13	279.63	29.76	-40.0	-40.4	20.8	0.00e+00	0	57	0	2838495232	41	4042
2026-01-04 15:51:16.12	279.96	29.73	-40.0	-40.5	20.7	0.00e+00	0	57	0	2844786688	41	4076
2026-01-04 15:51:17.12	280.30	29.69	-40.2	-40.7	20.5	0.00e+00	0	57	0	2852126720	41	4150
2026-01-04 15:51:18.11	280.63	29.66	-40.4	-40.9	20.3	0.00e+00	0	57	0	2859466752	42	4038
2026-01-04 15:51:19.11	280.96	29.63	-40.1	-40.6	20.6	0.00e+00	0	57	0	2866806784	42	3878
2026-01-04 15:51:20.09	281.29	29.60	-39.7	-40.2	21.0	0.00e+00	0	57	0	2874146816	42	3711
2026-01-04 15:51:21.08	281.62	29.56	-39.5	-40.0	21.2	0.00e+00	0	57	0	2880438272	42	3622
2026-01-04 15:51:22.06	281.94	29.52	-39.5	-39.9	21.2	0.00e+00	0	57	0	2887778304	41	3820
2026-01-04 15:51:23.06	282.27	29.49	-39.6	-40.0	21.1	0.00e+00	0	57	0	2895118336	41	3867
2026-01-04 15:51:24.05	282.60	29.45	-39.4	-39.9	21.3	0.00e+00	0	57	0	2902458368	41	3788
2026-01-04 15:51:25.03	282.92	29.41	-39.7	-40.1	21.0	0.00e+00	0	57	0	2909798400	41	3899
2026-01-04 15:51:26.03	283.25	29.37	-39.5	-39.9	21.2	0.00e+00	0	57	0	2917138432	41	3818
2026-01-04 15:51:27.02	283.57	29.33	-39.6	-40.1	21.1	0.00e+00	0	57	0	2923429888	41	3886
2026-01-04 15:51:28.01	283.89	29.29	-40.0	-40.5	20.7	0.00e+00	0	57	0	2930769920	41	4082
2026-01-04 15:51:28.99	284.21	29.25	-39.7	-40.2	21.0	0.00e+00	0	57	0	2938109952	41	3929
2026-01-04 15:51:29.98	284.53	29.20	-39.5	-39.9	21.3	0.00e+00	0	57	0	2945449984	41	3813
2026-01-04 15:51:30.97	284.86	29.16	-39.4	-39.8	21.4	0.00e+00	0	57	0	2952790016	41	3755
2026-01-04 15:51:31.97	285.18	29.12	-39.3	-39.8	21.4	0.00e+00	0	57	0	2960130048	41	3753
2026-01-04 15:51:32.95	285.49	29.07	-39.2	-39.6	21.5	0.00e+00	0	57	0	2966421504	41	3694
2026-01-04 15:51:33.94	285.81	29.02	-39.3	-39.8	21.4	0.00e+00	0	57	0	2973761536	41	3740
2026-01-04 15:51:34.93	286.13	28.98	-39.5	-39.9	21.3	0.00e+00	0	57	0	2981101568	41	3806
2026-01-04 15:51:35.92	286.44	28.93	-39.6	-40.1	21.1	0.00e+00	0	57	0	2988441600	41	3874
2026-01-04 15:51:36.90	286.76	28.88	-39.8	-40.3	20.9	0.00e+00	0	57	0	2994733056	41	3985
2026-01-04 15:51:37.89	287.07	28.83	-39.8	-40.2	20.9	0.00e+00	0	57	0	3002073088	41	3957
2026-01-04 15:51:38.87	287.38	28.78	-39.8	-40.3	20.9	0.00e+00	0	57	0	3009413120	41	3974
2026-01-04 15:51:39.86	287.69	28.73	-39.8	-40.2	21.0	0.00e+00	0	57	0	3016753152	41	3954
2026-01-04 15:51:40.85	288.00	28.67	-39.9	-40.3	20.8	0.00e+00	0	57	0	3023044608	41	3998
2026-01-04 15:51:41.84	288.31	28.62	-40.0	-40.5	20.7	0.00e+00	0	57	0	3030384640	41	4065
2026-01-04 15:51:42.83	288.62	28.57	-39.8	-40.3	20.9	0.00e+00	0	57	0	3037724672	41	3984
2026-01-04 15:51:43.82	288.93	28.51	-39.8	-40.2	20.9	0.00e+00	0	57	0	3045064704	41	3951
2026-01-04 15:51:44.81	289.24	28.46	-39.9	-40.3	20.9	0.00e+00	0	57	0	3052404736	41	4000
2026-01-04 15:51:45.80	289.54	28.40	-40.1	-40.6	20.6	0.00e+00	0	57	0	3059744768	41	4132
2026-01-04 15:51:46.79	289.85	28.34	-40.1	-40.6	20.6	0.00e+00	0	57	0	3066036224	42	3885
2026-01-04 15:51:47.78	290.15	28.28	-40.1	-40.6	20.6	0.00e+00	0	57	0	3073376256	42	3897
2026-01-04 15:51:48.78	290.46	28.23	-40.3	-40.8	20.4	0.00e+00	0	57	0	3080716288	42	3991
2026-01-04 15:51:49.76	290.76	28.17	-40.3	-40.8	20.5	0.00e+00	0	57	0	3088056320	42	3962
2026-01-04 15:51:50.75	291.06	28.11	-40.1	-40.6	20.7	0.00e+00	0	57	0	3095396352	42	3876
2026-01-04 15:51:51.73	291.35	28.05	-40.1	-40.6	20.6	0.00e+00	0	57	0	3101687808	42	3876
2026-01-04 15:51:52.72	291.65	27.99	-40.0	-40.5	20.7	0.00e+00	0	57	0	3109027840	42	3860
2026-01-04 15:51:53.71	291.95	27.92	-40.3	-40.8	20.5	0.00e+00	0	57	0	3116367872	42	3966
2026-01-04 15:51:54.70	292.25	27.86	-40.1	-40.6	20.6	0.00e+00	0	57	0	3123707904	42	3894
2026-01-04 15:51:55.69	292.54	27.80	-39.9	-40.3	20.9	0.00e+00	0	57	0	3131047936	42	3768
2026-01-04 15:51:56.67	292.83	27.73	-39.9	-40.3	20.8	0.00e+00	0	57	0	3138387968	42	3768
2026-01-04 15:51:57.67	293.13	27.67	-39.8	-40.2	20.9	0.00e+00	0	57	0	3144679424	42	3733
2026-01-04 15:51:58.66	293.42	27.60	-39.9	-40.4	20.9	0.00e+00	0	57	0	3152019456	42	3790
2026-01-04 15:51:59.66	293.71	27.54	-39.9	-40.4	20.8	0.00e+00	0	57	0	3159359488	42	3793
2026-01-04 15:52:00.65	294.00	27.47	-40.0	-40.5	20.8	0.00e+00	0	57	0	3166699520	42	3826
2026-01-04 15:52:01.64	294.29	27.40	-40.1	-40.6	20.5	0.00e+00	0	57	0	3174039552	42	3907
2026-01-04 15:52:02.64	294.58	27.33	-40.1	-40.6	20.6	0.00e+00	0	57	0	3181379584	42	3907
2026-01-04 15:52:03.62	294.86	27.27	-40.1	-40.6	20.6	0.00e+00	0	57	0	3187671040	42	3878
2026-01-04 15:52:04.61	295.14	27.20	-40.1	-40.6	20.6	0.00e+00	0	57	0	3195011072	42	3903
2026-01-04 15:52:05.60	295.43	27.13	-40.1	-40.6	20.6	0.00e+00	0	57	0	3202351104	42	3897
2026-01-04 15:52:06.59	295.71	27.06	-40.0	-40.4	20.8	0.00e+00	0	57	0	3209691136	42	3824
2026-01-04 15:52:07.58	295.99	26.99	-39.9	-40.3	20.8	0.00e+00	0	57	0	3217031168	42	3780
2026-01-04 15:52:08.58	296.27	26.92	-39.8	-40.3	20.9	0.00e+00	0	57	0	3223322624	42	3767
2026-01-04 15:52:09.57	296.55	26.84	-39.7	-40.2	21.0	0.00e+00	0	57	0	3230662656	42	3721
2026-01-04 15:52:10.56	296.83	26.77	-39.6	-40.0	21.2	0.00e+00	0	58	0	3238002688	42	3651
2026-01-04 15:52:11.55	297.10	26.70	-39.6	-40.0	21.1	0.00e+00	0	57	0	3245342720	42	3647
2026-01-04 15:52:12.53	297.37	26.63	-39.7	-40.2	20.8	0.00e+00	0	58	0	3252682752	42	3715
2026-01-04 15:52:13.53	297.65	26.55	-39.9	-40.4	20.8	0.00e+00	0	58	0	3260022784	42	3788
2026-01-04 15:52:14.52	297.92	26.48	-39.9	-40.4	20.8	0.00e+00	0	57	0	3266314240	42	3803
2026-01-04 15:52:15.51	298.19	26.40	-39.7	-40.2	21.0	0.00e+00	0	57	0	3273654272	42	3708
2026-01-04 15:52:16.50	298.46	26.33	-39.7	-40.2	21.0	0.00e+00	0	58	0	3280994304	42	3701
2026-01-04 15:52:17.48	298.73	26.25	-39.9	-40.4	20.8	0.00e+00	0	58	0	3288334336	42	3807
2026-01-04 15:52:18.47	299.00	26.18	-40.2	-40.7	20.5	0.00e+00	0	57	0	3295674368	42	3930
2026-01-04 15:52:19.46	299.26	26.10	-40.4	-40.9	20.4	0.00e+00	0	57	0	3303014400	42	4010
2026-01-04 15:52:20.46	299.53	26.03	-40.5	-41.0	20.2	0.00e+00	0	57	0	3309305856	42	4077
2026-01-04 15:52:21.44	299.79	25.95	-40.6	-41.2	20.1	0.00e+00	0	57	0	3316645888	42	4159
2026-01-04 15:52:22.44	300.05	25.87	-40.7	-41.2	19.9	0.00e+00	0	57	0	3323985920	43	3947
2026-01-04 15:52:23.43	300.31	25.79	-40.8	-41.4	19.9	0.00e+00	0	57	0	3331325952	43	4015
2026-01-04 15:52:24.41	300.57	25.72	-40.7	-41.3	19.9	0.00e+00	0	58	0	3338665984	43	3963
2026-01-04 15:52:25.40	300.83	25.64	-40.5	-41.0	20.2	0.00e+00	0	57	0	3344957440	43	3854
2026-01-04 15:52:26.39	301.09	25.56	-40.3	-40.8	20.4	0.00e+00	0	58	0	3352297472	43	3739
2026-01-04 15:52:27.38	301.34	25.48	-40.2	-40.7	20.5	0.00e+00	0	58	0	3359637504	43	3704
2026-01-04 15:52:28.37	301.60	25.40	-40.0	-40.5	20.6	0.00e+00	0	57	0	3366977536	43	3636
2026-01-04 15:52:29.35	301.85	25.32	-40.0	-40.4	20.7	0.00e+00	0	58	0	3373268992	42	3820
2026-01-04 15:52:30.33	302.10	25.24	-40.0	-40.5	20.7	0.00e+00	0	57	0	3380609024	42	3836
2026-01-04 15:52:31.32	302.35	25.16	-40.2	-40.6	20.5	0.00e+00	0	57	0	3387949056	42	3908
2026-01-04 15:52:32.31	302.60	25.08	-40.2	-40.7	20.5	0.00e+00	0	57	0	3395289088	42	3944
2026-01-04 15:52:33.30	302.84	25.00	-40.1	-40.6	20.5	0.00e+00	0	58	0	3402629120	42	3907
2026-01-04 15:52:34.29	303.09	24.92	-40.2	-40.7	20.5	0.00e+00	0	58	0	3408920576	42	3947
2026-01-04 15:52:35.28	303.34	24.83	-40.2	-40.7	20.5	0.00e+00	0	58	0	3416260608	42	3937
2026-01-04 15:52:36.27	303.58	24.75	-40.3	-40.8	20.4	0.00e+00	0	58	0	3423600640	42	3974
2026-01-04 15:52:37.25	303.82	24.67	-40.4	-40.9	20.3	0.00e+00	0	58	0	3430940672	42	4035
2026-01-04 15:52:38.24	304.06	24.59	-40.4	-40.9	20.3	0.00e+00	0	57	0	3438280704	42	4009
2026-01-04 15:52:39.23	304.30	24.50	-40.6	-41.1	20.1	0.00e+00	0	58	0	3444572160	42	4119
2026-01-04 15:52:40.21	304.54	24.42	-40.5	-41.0	20.3	0.00e+00	0	58	0	3451912192	42	4066
2026-01-04 15:52:41.20	304.78	24.34	-40.7	-41.2	20.1	0.00e+00	0	58	0	3459252224	43	3926
2026-01-04 15:52:42.19	305.02	24.25	-40.4	-40.9	20.3	0.00e+00	0	57	0	3466592256	43	3815
2026-01-04 15:52:43.18	305.25	24.17	-40.2	-40.7	20.5	0.00e+00	0	58	0	3473932288	43	3721
2026-01-04 15:52:44.16	305.48	24.09	-40.2	-40.6	20.5	0.00e+00	0	58	0	3481272320	43	3693
2026-01-04 15:52:45.16	305.72	24.00	-40.3	-40.8	20.4	0.00e+00	0	58	0	3487563776	43	3745
2026-01-04 15:52:46.14	305.95	23.92	-40.3	-40.8	20.4	0.00e+00	0	57	0	3494903808	43	3754
2026-01-04 15:52:47.13	306.18	23.83	-40.4	-40.9	20.3	0.00e+00	0	58	0	3502243840	43	3806
2026-01-04 15:52:48.12	306.41	23.75	-40.4	-40.9	20.3	0.00e+00	0	58	0	3509583872	43	3783
2026-01-04 15:52:49.10	306.64	23.66	-40.4	-41.0	20.2	0.00e+00	0	58	0	3516923904	43	3833
2026-01-04 15:52:50.09	306.86	23.58	-40.6	-41.1	20.1	0.00e+00	0	58	0	3523215360	43	3889
2026-01-04 15:52:51.08	307.09	23.49	-40.9	-41.4	19.9	0.00e+00	0	58	0	3530555392	43	4019
2026-01-04 15:52:52.08	307.32	23.41	-40.8	-41.3	19.9	0.00e+00	0	58	0	3537895424	43	3972
2026-01-04 15:52:53.07	307.54	23.32	-40.9	-41.4	19.8	0.00e+00	0	58	0	3545235456	43	4031
2026-01-04 15:52:54.06	307.76	23.23	-41.1	-41.6	19.6	0.00e+00	0	58	0	3552575488	43	4115
2026-01-04 15:52:55.05	307.98	23.15	-41.0	-41.5	19.7	0.00e+00	0	58	0	3558866944	43	4087
2026-01-04 15:52:56.03	308.20	23.06	-41.2	-41.7	19.5	0.00e+00	0	58	0	3566206976	43	4188
2026-01-04 15:52:57.03	308.42	22.98	-41.0	-41.6	19.6	0.00e+00	0	58	0	3573547008	43	4121
2026-01-04 15:52:58.01	308.64	22.89	-41.6	-42.2	19.2	0.00e+00	0	58	0	3580887040	44	4148
2026-01-04 15:52:59.00	308.85	22.80	-41.2	-41.8	19.6	0.00e+00	0	58	0	3587178496	44	3969
2026-01-04 15:52:59.99	309.07	22.72	-40.9	-41.5	19.8	0.00e+00	0	58	0	3594518528	44	3825
2026-01-04 15:53:00.98	309.28	22.63	-40.7	-41.2	20.0	0.00e+00	0	58	0	3601858560	44	3732
2026-01-04 15:53:01.97	309.50	22.54	-40.7	-41.2	20.0	0.00e+00	0	58	0	3609198592	44	3730
2026-01-04 15:53:02.96	309.71	22.46	-40.8	-41.3	20.0	0.00e+00	0	58	0	3616538624	44	3749
2026-01-04 15:53:03.95	309.92	22.37	-41.0	-41.5	19.8	0.00e+00	0	58	0	3623878656	44	3846
2026-01-04 15:53:04.94	310.13	22.28	-41.2	-41.8	19.5	0.00e+00	0	58	0	3630170112	44	3977
2026-01-04 15:53:05.93	310.34	22.19	-41.2	-41.7	19.5	0.00e+00	0	58	0	3637510144	44	3948
2026-01-04 15:53:06.92	310.54	22.11	-41.3	-41.9	19.4	0.00e+00	0	57	0	3644850176	44	4019
2026-01-04 15:53:07.91	310.75	22.02	-41.1	-41.7	19.6	0.00e+00	0	58	0	3652190208	44	3934
2026-01-04 15:53:08.91	310.96	21.93	-41.0	-41.6	19.7	0.00e+00	0	58	0	3659530240	44	3877
2026-01-04 15:53:09.90	311.16	21.84	-41.0	-41.6	19.7	0.00e+00	0	58	0	3665821696	44	3882
2026-01-04 15:53:10.89	311.36	21.76	-41.0	-41.6	19.7	0.00e+00	0	58	0	3673161728	44	3871
2026-01-04 15:53:11.88	311.56	21.67	-41.2	-41.8	19.5	0.00e+00	0	58	0	3680501760	44	3976
2026-01-04 15:53:12.87	311.76	21.58	-41.0	-41.5	19.8	0.00e+00	0	58	0	3687841792	44	3844
2026-01-04 15:53:13.86	311.96	21.49	-40.7	-41.2	20.0	0.00e+00	0	58	0	3695181824	44	3734
2026-01-04 15:53:14.86	312.16	21.40	-40.6	-41.1	20.2	0.00e+00	0	58	0	3702521856	44	3684
2026-01-04 15:53:15.84	312.36	21.32	-40.6	-41.1	20.2	0.00e+00	0	58	0	3708813312	44	3666
2026-01-04 15:53:16.83	312.55	21.23	-40.6	-41.1	20.2	0.00e+00	0	58	0	3716153344	44	3672
2026-01-04 15:53:17.82	312.75	21.14	-40.7	-41.2	20.1	0.00e+00	0	58	0	3723493376	44	3716
2026-01-04 15:53:18.80	312.94	21.05	-40.8	-41.3	20.0	0.00e+00	0	58	0	3730833408	44	3759
2026-01-04 15:53:19.80	313.14	20.97	-40.9	-41.5	19.8	0.00e+00	0	58	0	3738173440	44	3841
2026-01-04 15:53:20.79	313.33	20.88	-41.0	-41.6	19.7	0.00e+00	0	58	0	3745513472	44	3889
2026-01-04 15:53:21.78	313.52	20.79	-41.2	-41.8	19.5	0.00e+00	0	58	0	3751804928	44	3973
2026-01-04 15:53:22.77	313.71	20.70	-41.2	-41.8	19.4	0.00e+00	0	58	0	3759144960	44	3994
2026-01-04 15:53:23.75	313.90	20.62	-41.4	-42.0	19.3	0.00e+00	0	58	0	3766484992	44	4071
2026-01-04 15:53:24.74	314.08	20.53	-41.6	-42.2	19.1	0.00e+00	0	58	0	3773825024	44	4154
2026-01-04 15:53:25.74	314.27	20.44	-41.8	-42.4	18.8	0.00e+00	0	58	0	3781165056	45	4050
2026-01-04 15:53:26.73	314.46	20.35	-41.6	-42.2	19.0	0.00e+00	0	58	0	3787456512	45	3954
2026-01-04 15:53:27.71	314.64	20.26	-41.4	-41.9	19.3	0.00e+00	0	58	0	3794796544	45	3821
2026-01-04 15:53:28.69	314.82	20.18	-41.2	-41.7	19.6	0.00e+00	0	58	0	3802136576	45	3728
2026-01-04 15:53:29.68	315.00	20.09	-41.1	-41.7	19.6	0.00e+00	0	58	0	3809476608	45	3719
2026-01-04 15:53:30.67	315.18	20.00	-41.0	-41.6	19.7	0.00e+00	0	58	0	3816816640	45	3673
2026-01-04 15:53:31.66	315.36	19.91	-41.0	-41.5	19.7	0.00e+00	0	58	0	3824156672	44	3854
2026-01-04 15:53:32.65	315.54	19.83	-40.9	-41.5	19.8	0.00e+00	0	58	0	3830448128	44	3845
2026-01-04 15:53:33.63	315.72	19.74	-41.0	-41.6	19.7	0.00e+00	0	58	0	3837788160	44	3884
2026-01-04 15:53:34.63	315.90	19.65	-41.2	-41.8	19.5	0.00e+00	0	58	0	3845128192	44	3967
2026-01-04 15:53:35.61	316.07	19.56	-41.2	-41.8	19.5	0.00e+00	0	58	0	3852468224	44	3967
2026-01-04 15:53:36.60	316.25	19.48	-41.3	-41.8	19.4	0.00e+00	0	57	0	3858759680	44	4001
2026-01-04 15:53:37.58	316.42	19.39	-41.5	-42.1	19.2	0.00e+00	0	58	0	3866099712	44	4101
2026-01-04 15:53:38.57	316.60	19.30	-41.5	-42.1	19.1	0.00e+00	0	58	0	3873439744	44	4136
2026-01-04 15:53:39.55	316.77	19.22	-41.7	-42.3	19.0	0.00e+00	0	58	0	3880779776	44	4206
2026-01-04 15:53:40.55	316.94	19.13	-41.8	-42.4	18.9	0.00e+00	0	58	0	3887071232	45	4018
2026-01-04 15:53:41.54	317.11	19.04	-41.9	-42.5	18.8	0.00e+00	0	58	0	3894411264	45	4070
2026-01-04 15:53:42.52	317.28	18.95	-41.9	-42.6	18.7	0.00e+00	0	58	0	3901751296	45	4105
2026-01-04 15:53:43.50	317.45	18.87	-42.1	-42.7	18.6	0.00e+00	0	58	0	3909091328	45	4186
2026-01-04 15:53:44.49	317.61	18.78	-42.1	-42.8	18.5	0.00e+00	0	58	0	3916431360	46	3968
2026-01-04 15:53:45.48	317.78	18.69	-42.1	-42.7	18.6	0.00e+00	0	58	0	3923771392	46	3945
2026-01-04 15:53:46.47	317.95	18.61	-42.1	-42.7	18.6	0.00e+00	0	58	0	3930062848	46	3952
2026-01-04 15:53:47.46	318.11	18.52	-41.8	-42.4	18.9	0.00e+00	0	58	0	3937402880	46	3812
2026-01-04 15:53:48.44	318.27	18.43	-41.6	-42.2	19.1	0.00e+00	0	58	0	3944742912	46	3700
2026-01-04 15:53:49.43	318.44	18.35	-41.4	-42.0	19.3	0.00e+00	0	58	0	3952082944	45	3847
2026-01-04 15:53:50.42	318.60	18.26	-41.4	-41.9	19.3	0.00e+00	0	58	0	3959422976	45	3814
2026-01-04 15:53:51.42	318.76	18.17	-41.3	-41.9	19.4	0.00e+00	0	58	0	3966763008	45	3790
2026-01-04 15:53:52.40	318.92	18.09	-41.2	-41.8	19.4	0.00e+00	0	58	0	3973054464	45	3756
2026-01-04 15:53:53.39	319.08	18.00	-41.2	-41.8	19.5	0.00e+00	0	58	0	3980394496	45	3744
2026-01-04 15:53:54.38	319.24	17.92	-41.1	-41.7	19.5	0.00e+00	0	58	0	3987734528	45	3713
2026-01-04 15:53:55.37	319.40	17.83	-41.2	-41.8	19.4	0.00e+00	0	58	0	3995074560	45	3759
2026-01-04 15:53:56.36	319.55	17.74	-41.3	-41.9	19.3	0.00e+00	0	58	0	4002414592	45	3791
2026-01-04 15:53:57.35	319.71	17.66	-41.3	-41.9	19.3	0.00e+00	0	58	0	4008706048	45	3786
2026-01-04 15:53:58.34	319.87	17.57	-41.4	-42.0	19.3	0.00e+00	0	58	0	4016046080	45	3834
2026-01-04 15:53:59.33	320.02	17.49	-41.6	-42.2	19.0	0.00e+00	0	58	0	4023386112	45	3948
2026-01-04 15:54:00.32	320.17	17.40	-41.8	-42.5	18.8	0.00e+00	0	58	0	4030726144	45	4053
2026-01-04 15:54:01.31	320.33	17.31	-41.9	-42.5	18.8	0.00e+00	0	58	0	4038066176	45	4079
2026-01-04 15:54:02.30	320.48	17.23	-42.0	-42.6	18.6	0.00e+00	0	58	0	4044357632	45	4142
2026-01-04 15:54:03.29	320.63	17.14	-42.1	-42.7	18.5	0.00e+00	0	58	0	4051697664	45	4170
2026-01-04 15:54:04.28	320.78	17.06	-42.2	-42.8	18.5	0.00e+00	0	58	0	4059037696	46	3979
2026-01-04 15:54:05.28	320.93	16.97	-42.2	-42.8	18.4	0.00e+00	0	58	0	4066377728	46	3990
2026-01-04 15:54:06.27	321.08	16.89	-42.3	-43.0	18.3	0.00e+00	0	58	0	4073717760	46	4076
2026-01-04 15:54:07.26	321.23	16.80	-42.1	-42.8	18.5	0.00e+00	0	58	0	4081057792	46	3964
2026-01-04 15:54:08.24	321.37	16.72	-42.0	-42.7	18.6	0.00e+00	0	58	0	4087349248	46	3914
2026-01-04 15:54:09.23	321.52	16.63	-42.0	-42.7	18.6	0.00e+00	0	58	0	4094689280	46	3920
2026-01-04 15:54:10.22	321.67	16.55	-42.1	-42.7	18.5	0.00e+00	0	58	0	4102029312	46	3944
2026-01-04 15:54:11.21	321.81	16.47	-41.9	-42.5	18.7	0.00e+00	0	58	0	4109369344	46	3847
2026-01-04 15:54:12.21	321.96	16.38	-41.8	-42.4	18.8	0.00e+00	0	58	0	4116709376	46	3821
2026-01-04 15:54:13.19	322.10	16.30	-42.0	-42.6	18.7	0.00e+00	0	58	0	4123000832	46	3873
2026-01-04 15:54:14.18	322.24	16.21	-42.0	-42.7	18.6	0.00e+00	0	58	0	4130340864	46	3926
2026-01-04 15:54:15.17	322.38	16.13	-41.8	-42.4	18.8	0.00e+00	0	58	0	4137680896	46	3801
2026-01-04 15:54:16.16	322.52	16.05	-41.6	-42.2	19.0	0.00e+00	0	58	0	4145020928	46	3731
2026-01-04 15:54:17.14	322.66	15.96	-41.7	-42.3	18.9	0.00e+00	0	58	0	4151312384	46	3741
2026-01-04 15:54:18.13	322.80	15.88	-41.7	-42.3	18.9	0.00e+00	0	58	0	4158652416	46	3739
2026-01-04 15:54:19.12	322.94	15.80	-41.7	-42.3	18.9	0.00e+00	0	58	0	4165992448	46	3747
2026-01-04 15:54:20.11	323.08	15.71	-41.9	-42.5	18.7	0.00e+00	0	58	0	4173332480	46	3827
2026-01-04 15:54:21.09	323.21	15.63	-41.8	-42.4	18.8	0.00e+00	0	58	0	4180672512	46	3796
2026-01-04 15:54:22.08	323.35	15.55	-42.0	-42.6	18.6	0.00e+00	0	58	0	4186963968	46	3876
2026-01-04 15:54:23.06	323.48	15.47	-42.2	-42.9	18.4	0.00e+00	0	58	0	4194304000	46	4013
2026-01-04 15:54:24.05	323.62	15.38	-42.0	-42.7	18.5	0.00e+00	0	58	0	4201644032	46	3919
2026-01-04 15:54:25.04	323.75	15.30	-41.9	-42.5	18.6	0.00e+00	0	58	0	4208984064	46	3865
2026-01-04 15:54:26.03	323.89	15.22	-42.1	-42.7	18.4	0.00e+00	0	58	0	4216324096	46	3948
2026-01-04 15:54:27.02	324.02	15.14	-42.0	-42.6	18.5	0.00e+00	0	58	0	4223664128	46	3905
2026-01-04 15:54:28.01	324.15	15.05	-42.0	-42.6	18.5	0.00e+00	0	58	0	4229955584	46	3910
2026-01-04 15:54:29.00	324.28	14.97	-42.2	-42.8	18.4	0.00e+00	0	58	0	4237295616	46	3975
2026-01-04 15:54:29.99	324.41	14.89	-42.1	-42.8	18.3	0.00e+00	0	58	0	4244635648	46	3981
2026-01-04 15:54:30.97	324.54	14.81	-42.2	-42.8	18.3	0.00e+00	0	58	0	4251975680	46	4000
2026-01-04 15:54:31.96	324.67	14.73	-42.2	-42.9	18.3	0.00e+00	0	58	0	4259315712	46	4020
2026-01-04 15:54:32.95	324.80	14.65	-42.3	-42.9	18.3	0.00e+00	0	58	0	4265607168	46	4028
2026-01-04 15:54:33.94	324.93	14.57	-42.4	-43.0	18.1	0.00e+00	0	58	0	4272947200	46	4087
2026-01-04 15:54:34.92	325.05	14.49	-42.5	-43.2	17.9	0.00e+00	0	58	0	4280287232	46	4189
2026-01-04 15:54:35.91	325.18	14.40	-42.3	-43.0	18.2	0.00e+00	0	58	0	4287627264	46	4063
2026-01-04 15:54:36.89	325.30	14.32	-42.1	-42.8	18.3	0.00e+00	0	58	0	4293918720	46	3967
2026-01-04 15:54:37.88	325.43	14.24	-42.1	-42.7	18.3	0.00e+00	0	58	0	4301258752	46	3947
2026-01-04 15:54:38.87	325.55	14.16	-42.1	-42.8	18.4	0.00e+00	0	58	0	4308598784	46	3968
2026-01-04 15:54:39.86	325.68	14.08	-42.2	-42.9	18.2	0.00e+00	0	58	0	4315938816	46	4006
2026-01-04 15:54:40.85	325.80	14.00	-42.4	-43.1	18.1	0.00e+00	0	58	0	4323278848	46	4105
2026-01-04 15:54:41.84	325.93	13.92	-42.3	-42.9	18.2	0.00e+00	0	58	0	4329570304	46	4046
2026-01-04 15:54:42.83	326.05	13.84	-42.1	-42.8	18.4	0.00e+00	0	58	0	4336910336	46	3971
2026-01-04 15:54:43.81	326.17	13.76	-42.1	-42.7	18.4	0.00e+00	0	58	0	4344250368	46	3950
2026-01-04 15:54:44.80	326.29	13.68	-42.1	-42.8	18.3	0.00e+00	0	58	0	4351590400	46	3980
2026-01-04 15:54:45.78	326.41	13.61	-42.2	-42.9	18.3	0.00e+00	0	58	0	4358930432	46	4023
2026-01-04 15:54:46.77	326.53	13.53	-42.3	-42.9	18.2	0.00e+00	0	58	0	4366270464	46	4030
2026-01-04 15:54:47.76	326.65	13.45	-42.3	-43.0	18.2	0.00e+00	0	58	0	4372561920	46	4061
2026-01-04 15:54:48.75	326.76	13.37	-42.5	-43.2	17.8	0.00e+00	0	58	0	4379901952	46	4180
2026-01-04 15:54:49.74	326.88	13.29	-42.5	-43.2	17.8	0.00e+00	0	58	0	4387241984	46	4173
2026-01-04 15:54:50.73	327.00	13.21	-42.4	-43.1	17.9	0.00e+00	0	58	0	4394582016	46	4112
2026-01-04 15:54:51.71	327.12	13.13	-42.4	-43.1	17.9	0.00e+00	0	58	0	4401922048	46	4124
2026-01-04 15:54:52.70	327.23	13.05	-42.5	-43.2	17.7	0.00e+00	0	58	0	4408213504	46	4164
2026-01-04 15:54:53.69	327.35	12.98	-42.6	-43.3	17.7	0.00e+00	0	58	0	4415553536	46	4198
2026-01-04 15:54:54.67	327.46	12.90	-42.7	-43.4	17.6	0.00e+00	0	58	0	4422893568	46	4262
2026-01-04 15:54:55.66	327.57	12.82	-42.7	-43.4	17.6	0.00e+00	0	58	0	4430233600	47	4021
2026-01-04 15:54:56.66	327.69	12.74	-42.7	-43.5	17.5	0.00e+00	0	58	0	4437573632	47	4054
2026-01-04 15:54:57.65	327.80	12.66	-42.9	-43.7	17.4	0.00e+00	0	58	0	4443865088	47	4146
2026-01-04 15:54:58.64	327.92	12.59	-42.9	-43.6	17.4	0.00e+00	0	58	0	4451205120	47	4134
2026-01-04 15:54:59.63	328.03	12.51	-42.9	-43.7	17.3	0.00e+00	0	58	0	4458545152	47	4165
2026-01-04 15:55:00.61	328.14	12.43	-42.9	-43.6	17.3	0.00e+00	0	58	0	4465885184	47	4131
2026-01-04 15:55:01.60	328.25	12.36	-42.8	-43.5	17.5	0.00e+00	0	58	0	4473225216	47	4077
2026-01-04 15:55:02.59	328.36	12.28	-42.8	-43.5	17.5	0.00e+00	0	58	0	4479516672	47	4094
2026-01-04 15:55:03.58	328.47	12.20	-42.9	-43.6	17.5	0.00e+00	0	58	0	4486856704	47	4121
2026-01-04 15:55:04.57	328.58	12.13	-43.0	-43.7	17.4	0.00e+00	0	58	0	4494196736	47	4187
2026-01-04 15:55:05.57	328.69	12.05	-43.3	-44.1	17.2	0.00e+00	0	58	0	4501536768	48	4112
2026-01-04 15:55:06.55	328.79	11.97	-43.4	-44.1	17.2	0.00e+00	0	58	0	4508876800	48	4143
2026-01-04 15:55:07.54	328.90	11.90	-43.4	-44.2	17.2	0.00e+00	0	58	0	4515168256	48	4153
2026-01-04 15:55:08.53	329.01	11.82	-43.5	-44.2	17.1	0.00e+00	0	58	0	4522508288	48	4181
2026-01-04 15:55:09.51	329.12	11.75	-43.3	-44.1	17.2	0.00e+00	0	58	0	4529848320	48	4122
2026-01-04 15:55:10.50	329.22	11.67	-43.4	-44.2	17.1	0.00e+00	0	58	0	4537188352	48	4153
2026-01-04 15:55:11.49	329.33	11.59	-43.3	-44.1	17.0	0.00e+00	0	58	0	4544528384	48	4107
2026-01-04 15:55:12.48	329.43	11.52	-43.2	-44.0	17.2	0.00e+00	0	58	0	4550819840	48	4060
2026-01-04 15:55:13.46	329.54	11.44	-43.3	-44.0	17.2	0.00e+00	0	58	0	4558159872	48	4086
2026-01-04 15:55:14.45	329.64	11.37	-43.3	-44.1	17.2	0.00e+00	0	58	0	4565499904	48	4114
2026-01-04 15:55:15.44	329.74	11.29	-43.4	-44.1	17.1	0.00e+00	0	58	0	4572839936	48	4140
2026-01-04 15:55:16.43	329.85	11.22	-43.4	-44.2	17.0	0.00e+00	0	58	0	4580179968	48	4192
2026-01-04 15:55:17.42	329.95	11.14	-43.4	-44.2	17.1	0.00e+00	0	58	0	4587520000	48	4165
2026-01-04 15:55:18.41	330.05	11.07	-43.5	-44.3	16.9	0.00e+00	0	58	0	4593811456	48	4240
2026-01-04 15:55:19.40	330.15	11.00	-43.6	-44.4	16.8	0.00e+00	0	58	0	4601151488	48	4266
2026-01-04 15:55:20.39	330.25	10.92	-43.5	-44.3	16.8	0.00e+00	0	58	0	4608491520	48	4221
2026-01-04 15:55:21.38	330.35	10.85	-43.7	-44.5	16.6	0.00e+00	0	58	0	4615831552	49	4095
2026-01-04 15:55:22.36	330.45	10.77	-43.9	-44.7	16.5	0.00e+00	0	58	0	4623171584	49	4186
2026-01-04 15:55:23.36	330.55	10.70	-43.6	-44.4	16.7	0.00e+00	0	58	0	4629463040	49	4049
2026-01-04 15:55:24.35	330.65	10.63	-43.5	-44.3	16.9	0.00e+00	0	58	0	4636803072	49	3965
2026-01-04 15:55:25.34	330.75	10.55	-43.4	-44.2	17.0	0.00e+00	0	58	0	4644143104	49	3936
2026-01-04 15:55:26.32	330.85	10.48	-43.4	-44.2	16.9	0.00e+00	0	58	0	4651483136	49	3947
2026-01-04 15:55:27.31	330.95	10.41	-43.6	-44.4	16.8	0.00e+00	0	58	0	4658823168	49	4017
2026-01-04 15:55:28.30	331.04	10.33	-43.4	-44.2	16.9	0.00e+00	0	58	0	4665114624	49	3930
2026-01-04 15:55:29.29	331.14	10.26	-43.3	-44.1	17.0	0.00e+00	0	58	0	4672454656	49	3882
2026-01-04 15:55:30.27	331.24	10.19	-43.3	-44.1	17.0	0.00e+00	0	58	0	4679794688	49	3880
2026-01-04 15:55:31.26	331.33	10.12	-43.3	-44.1	17.0	0.00e+00	0	58	0	4687134720	49	3891
2026-01-04 15:55:32.25	331.43	10.04	-43.4	-44.2	16.9	0.00e+00	0	58	0	4693426176	49	3957
