passes_logs/2026/01/04/R3.0SM8_Murmansk_STILSPACE/R3.0SM8_Murmansk_STILSPACE__20260104_081540_NOAA_20_JPSS-1_rec.log

#Pass ID: 20260104_081540_NOAA 20 (JPSS-1)
#Satellite: NOAA 20 (JPSS-1)
#Configuration: NOAA 20
#almurnet v.1.7.20240730
#Start time: 2026-01-04 08:15:39

#Version: 2.2.20231116
#Station: R3.0SM8_Murmansk_STILSPACE
#Location: 33.092731 lon 68.902999 lat
#TLE: 1 43013U 17073A   26003.41800368  .00000169  00000+0  10117-3 0  9998
#TLE: 2 43013  98.7624 304.4804 0001884  56.1176 304.0179 14.19532918421092

#Time	Az	El	Level	Level2	SNR	BER	BlckErr	Temp	State	Recorded	gain1	gain2
2026-01-04 08:15:39.96	121.73	3.00	-52.3	-66.2	3.8	1.49e+00	0	47	0	0	67	17870
2026-01-04 08:15:40.94	121.71	3.06	-52.3	-66.2	3.8	1.49e+00	0	47	104	0	67	17724
2026-01-04 08:15:41.93	121.68	3.13	-52.3	-66.1	3.8	1.49e+00	0	47	104	0	67	17652
2026-01-04 08:15:42.93	121.64	3.19	-52.3	-66.1	3.8	1.49e+00	0	47	104	0	67	17567
2026-01-04 08:15:43.92	121.61	3.26	-52.3	-66.1	3.8	1.49e+00	0	47	104	0	67	17485
2026-01-04 08:15:44.91	121.58	3.32	-52.1	-66.0	3.8	1.49e+00	0	47	104	0	67	17327
2026-01-04 08:15:45.90	121.55	3.39	-52.0	-65.9	3.8	1.49e+00	0	47	104	0	67	17141
2026-01-04 08:15:46.89	121.52	3.45	-51.9	-65.7	3.8	1.49e+00	0	48	104	0	67	16794
2026-01-04 08:15:47.88	121.49	3.52	-51.8	-65.6	3.8	1.49e+00	0	48	104	0	66	17515
2026-01-04 08:15:48.87	121.46	3.58	-51.5	-65.0	3.8	1.49e+00	0	48	104	0	66	16419
2026-01-04 08:15:49.86	121.43	3.65	-51.5	-65.0	3.8	1.49e+00	0	48	104	0	66	16492
2026-01-04 08:15:50.84	121.40	3.71	-51.6	-65.0	3.8	1.49e+00	0	48	104	0	66	16416
2026-01-04 08:15:51.83	121.37	3.78	-51.6	-64.9	3.8	1.49e+00	0	48	104	0	66	16155
2026-01-04 08:15:52.83	121.33	3.85	-51.6	-64.8	3.8	1.49e+00	0	48	104	0	66	16024
2026-01-04 08:15:53.81	121.30	3.91	-51.6	-64.6	3.8	1.49e+00	0	48	104	0	66	15607
2026-01-04 08:15:54.81	121.27	3.98	-51.5	-64.6	3.8	1.49e+00	0	48	104	0	66	15582
2026-01-04 08:15:55.79	121.24	4.05	-51.6	-64.2	3.8	1.49e+00	0	48	104	0	66	14928
2026-01-04 08:15:56.78	121.21	4.11	-51.6	-64.0	3.8	1.49e+00	0	48	104	0	66	14646
2026-01-04 08:15:57.77	121.17	4.18	-51.6	-63.6	3.8	1.49e+00	0	48	104	0	66	14004
2026-01-04 08:15:58.76	121.14	4.25	-51.5	-63.2	3.8	1.48e+00	0	48	104	0	66	13379
2026-01-04 08:15:59.76	121.11	4.31	-51.5	-62.8	4.0	1.48e+00	0	48	104	0	66	12737
2026-01-04 08:16:00.75	121.07	4.38	-51.5	-62.4	4.1	1.48e+00	0	48	0	0	65	12869
2026-01-04 08:16:01.74	121.04	4.45	-51.4	-61.8	4.2	1.44e+00	0	48	0	0	65	11983
2026-01-04 08:16:02.74	121.01	4.52	-51.3	-61.3	4.4	1.33e+00	87	49	0	0	65	11342
2026-01-04 08:16:03.73	120.97	4.58	-51.2	-60.9	4.5	1.04e+00	0	49	0	2097152	65	10899
2026-01-04 08:16:04.73	120.94	4.65	-51.2	-60.2	4.8	9.61e-01	0	48	0	3145728	65	10000
2026-01-04 08:16:05.72	120.91	4.72	-51.1	-59.5	5.2	7.25e-01	0	49	0	5242880	65	9248
2026-01-04 08:16:06.71	120.87	4.79	-51.0	-59.1	5.5	5.36e-01	0	49	0	7340032	65	8794
2026-01-04 08:16:07.69	120.84	4.86	-50.9	-58.4	6.0	4.03e-01	0	49	0	9437184	64	8620
2026-01-04 08:16:08.68	120.80	4.93	-50.8	-58.0	6.2	3.16e-01	0	49	0	10485760	64	8269
2026-01-04 08:16:09.67	120.77	5.00	-50.6	-57.5	6.7	2.05e-01	0	49	0	12582912	64	7754
2026-01-04 08:16:10.66	120.73	5.06	-50.7	-57.3	6.9	1.51e-01	0	49	0	14680064	64	7580
2026-01-04 08:16:11.65	120.70	5.13	-50.8	-57.6	6.6	1.81e-01	0	49	0	16777216	64	7882
2026-01-04 08:16:12.64	120.66	5.20	-50.8	-57.4	6.7	2.39e-01	0	49	0	17825792	64	7717
2026-01-04 08:16:13.62	120.63	5.27	-50.6	-56.8	7.4	1.22e-01	0	49	0	19922944	64	7126
2026-01-04 08:16:14.62	120.59	5.34	-50.5	-56.1	8.2	8.08e-02	0	49	0	22020096	63	6979
2026-01-04 08:16:15.60	120.56	5.41	-50.4	-55.8	8.4	4.98e-02	0	49	0	24117248	63	6764
2026-01-04 08:16:16.59	120.52	5.48	-50.3	-55.5	8.7	3.02e-02	0	49	0	25165824	63	6543
2026-01-04 08:16:17.58	120.49	5.55	-50.1	-55.0	9.3	2.03e-02	0	49	0	27262976	63	6174
2026-01-04 08:16:18.58	120.45	5.62	-50.1	-54.9	9.4	1.92e-02	0	50	0	29360128	63	6062
2026-01-04 08:16:19.57	120.41	5.69	-50.0	-54.8	9.5	1.41e-02	0	50	0	31457280	63	6008
2026-01-04 08:16:20.56	120.38	5.76	-50.1	-54.9	9.3	1.41e-02	0	50	0	33554432	63	6123
2026-01-04 08:16:21.56	120.34	5.84	-50.2	-55.2	9.1	1.90e-02	0	50	0	34603008	63	6326
2026-01-04 08:16:22.56	120.30	5.91	-50.2	-55.4	8.8	3.30e-02	0	50	0	36700160	63	6471
2026-01-04 08:16:23.55	120.27	5.98	-49.9	-54.6	9.7	1.73e-02	0	50	0	38797312	63	5894
2026-01-04 08:16:24.54	120.23	6.05	-49.7	-53.9	10.4	4.96e-03	0	50	0	40894464	62	5766
2026-01-04 08:16:25.53	120.19	6.12	-49.5	-53.3	11.0	2.64e-03	0	50	0	41943040	62	5398
2026-01-04 08:16:26.52	120.15	6.19	-49.2	-52.8	11.6	1.47e-03	0	50	0	44040192	61	5389
2026-01-04 08:16:27.51	120.11	6.27	-49.1	-52.5	12.0	4.55e-04	0	50	0	46137344	61	5172
2026-01-04 08:16:28.49	120.08	6.34	-48.8	-52.0	12.4	1.89e-04	0	50	0	48234496	60	5189
2026-01-04 08:16:29.48	120.04	6.41	-48.6	-51.8	12.7	9.53e-05	0	50	0	50331648	60	5060
2026-01-04 08:16:30.46	120.00	6.48	-48.4	-51.3	13.2	5.26e-05	0	50	0	51380224	60	4774
2026-01-04 08:16:31.45	119.96	6.56	-48.4	-51.1	13.4	1.60e-05	0	50	0	53477376	59	4956
2026-01-04 08:16:32.44	119.92	6.63	-48.4	-51.1	13.4	1.22e-05	0	50	0	55574528	59	4953
2026-01-04 08:16:33.43	119.88	6.70	-48.5	-51.2	13.3	1.83e-05	0	50	0	57671680	59	5026
2026-01-04 08:16:34.42	119.84	6.78	-48.6	-51.4	13.1	2.13e-05	0	50	0	58720256	59	5142
2026-01-04 08:16:35.41	119.80	6.85	-48.5	-51.2	13.3	2.05e-05	0	50	0	60817408	59	5037
2026-01-04 08:16:36.39	119.76	6.92	-48.4	-51.3	13.3	2.28e-05	0	50	0	62914560	59	5050
2026-01-04 08:16:37.39	119.72	7.00	-48.4	-51.1	13.4	1.75e-05	0	50	0	65011712	59	4971
2026-01-04 08:16:38.37	119.68	7.07	-48.4	-51.0	13.6	1.06e-05	0	50	0	66060288	59	4899
2026-01-04 08:16:39.36	119.64	7.14	-48.3	-51.0	13.6	7.60e-06	0	51	0	68157440	59	4901
2026-01-04 08:16:40.36	119.60	7.22	-48.5	-51.2	13.3	1.06e-05	0	51	0	70254592	59	5034
2026-01-04 08:16:41.35	119.56	7.29	-48.5	-51.3	13.3	2.67e-05	0	51	0	72351744	59	5054
2026-01-04 08:16:42.34	119.52	7.37	-48.4	-51.0	13.6	1.44e-05	0	51	0	74448896	59	4894
2026-01-04 08:16:43.32	119.48	7.44	-48.2	-50.7	13.9	6.80e-06	0	51	0	75497472	59	4726
2026-01-04 08:16:44.32	119.44	7.52	-48.1	-50.6	14.0	3.00e-06	0	51	0	77594624	59	4659
2026-01-04 08:16:45.31	119.39	7.60	-48.1	-50.5	14.0	7.00e-07	0	51	0	79691776	59	4651
2026-01-04 08:16:46.30	119.35	7.67	-48.1	-50.6	14.0	2.20e-06	0	51	0	81788928	59	4661
2026-01-04 08:16:47.29	119.31	7.75	-48.1	-50.6	14.0	2.20e-06	0	51	0	82837504	59	4680
2026-01-04 08:16:48.27	119.27	7.82	-48.1	-50.6	14.0	3.00e-06	0	51	0	84934656	59	4701
2026-01-04 08:16:49.26	119.23	7.90	-48.2	-50.7	13.9	3.00e-06	0	51	0	87031808	59	4751
2026-01-04 08:16:50.25	119.18	7.98	-48.1	-50.5	14.2	7.00e-07	0	51	0	89128960	59	4611
2026-01-04 08:16:51.24	119.14	8.05	-48.1	-50.5	14.1	2.20e-06	0	51	0	90177536	59	4647
2026-01-04 08:16:52.23	119.10	8.13	-48.2	-50.7	14.0	3.80e-06	0	51	0	92274688	59	4730
2026-01-04 08:16:53.23	119.05	8.21	-48.3	-50.9	13.7	3.00e-06	0	51	0	94371840	59	4837
2026-01-04 08:16:54.22	119.01	8.29	-48.2	-50.8	13.9	3.00e-06	0	51	0	96468992	59	4765
2026-01-04 08:16:55.21	118.96	8.36	-48.3	-50.8	13.9	7.00e-07	0	51	0	98566144	59	4772
2026-01-04 08:16:56.20	118.92	8.44	-48.3	-50.8	13.9	6.80e-06	0	51	0	99614720	59	4774
2026-01-04 08:16:57.19	118.87	8.52	-48.3	-50.9	13.8	6.10e-06	0	51	0	101711872	59	4841
2026-01-04 08:16:58.18	118.83	8.60	-48.2	-50.7	14.0	3.00e-06	0	51	0	103809024	59	4737
2026-01-04 08:16:59.18	118.78	8.68	-48.2	-50.7	14.0	2.20e-06	0	52	0	105906176	59	4725
2026-01-04 08:17:00.16	118.74	8.76	-48.2	-50.6	14.1	7.00e-07	0	51	0	106954752	59	4696
2026-01-04 08:17:01.15	118.69	8.83	-48.1	-50.6	14.1	0.00e+00	0	51	0	109051904	59	4688
2026-01-04 08:17:02.14	118.64	8.91	-48.3	-50.8	13.9	3.00e-06	0	52	0	111149056	59	4795
2026-01-04 08:17:03.13	118.60	8.99	-48.1	-50.5	14.2	3.80e-06	0	51	0	113246208	59	4638
2026-01-04 08:17:04.11	118.55	9.07	-47.9	-50.3	14.5	1.50e-06	0	52	0	114294784	59	4496
2026-01-04 08:17:05.10	118.50	9.15	-47.9	-50.2	14.5	1.50e-06	0	51	0	116391936	59	4471
2026-01-04 08:17:06.09	118.46	9.23	-48.0	-50.3	14.4	7.00e-07	0	52	0	118489088	58	4802
2026-01-04 08:17:07.08	118.41	9.31	-48.1	-50.5	14.2	1.50e-06	0	52	0	120586240	58	4911
2026-01-04 08:17:08.07	118.36	9.39	-47.9	-50.2	14.5	1.50e-06	0	52	0	122683392	58	4729
2026-01-04 08:17:09.06	118.31	9.48	-47.9	-50.2	14.5	1.50e-06	0	52	0	123731968	58	4742
2026-01-04 08:17:10.05	118.27	9.56	-48.0	-50.3	14.5	7.00e-07	0	52	0	125829120	58	4789
2026-01-04 08:17:11.04	118.22	9.64	-48.2	-50.7	14.1	2.20e-06	0	52	0	127926272	58	4992
2026-01-04 08:17:12.04	118.17	9.72	-48.0	-50.3	14.5	0.00e+00	0	52	0	130023424	58	4786
2026-01-04 08:17:13.03	118.12	9.80	-47.9	-50.2	14.6	2.20e-06	0	52	0	131072000	58	4735
2026-01-04 08:17:14.02	118.07	9.89	-48.0	-50.3	14.5	0.00e+00	0	52	0	133169152	58	4773
2026-01-04 08:17:15.01	118.02	9.97	-48.1	-50.5	14.3	0.00e+00	0	52	0	135266304	58	4911
2026-01-04 08:17:16.00	117.97	10.05	-48.0	-50.2	14.6	7.00e-07	0	52	0	137363456	58	4752
2026-01-04 08:17:16.99	117.92	10.13	-47.9	-50.1	14.7	7.00e-07	0	52	0	138412032	58	4704
2026-01-04 08:17:17.98	117.87	10.22	-47.9	-50.0	14.7	1.50e-06	0	52	0	140509184	58	4651
2026-01-04 08:17:18.97	117.82	10.30	-47.9	-50.1	14.8	0.00e+00	0	52	0	142606336	58	4659
2026-01-04 08:17:19.96	117.76	10.38	-47.9	-50.1	14.7	0.00e+00	0	52	0	144703488	58	4700
2026-01-04 08:17:20.96	117.71	10.47	-48.1	-50.3	14.5	1.50e-06	0	52	0	146800640	58	4804
2026-01-04 08:17:21.94	117.66	10.55	-47.9	-50.2	14.7	0.00e+00	0	52	0	147849216	58	4718
2026-01-04 08:17:22.92	117.61	10.64	-48.0	-50.4	14.5	0.00e+00	0	52	0	149946368	58	4833
2026-01-04 08:17:23.91	117.56	10.72	-48.2	-50.6	14.2	7.00e-07	0	52	0	152043520	58	4972
2026-01-04 08:17:24.90	117.50	10.81	-48.0	-50.3	14.5	7.00e-07	0	52	0	154140672	58	4803
2026-01-04 08:17:25.89	117.45	10.89	-47.8	-50.0	14.9	0.00e+00	0	52	0	155189248	58	4618
2026-01-04 08:17:26.87	117.40	10.98	-47.8	-50.0	14.9	0.00e+00	0	52	0	157286400	58	4602
2026-01-04 08:17:27.86	117.34	11.06	-47.8	-50.0	14.9	0.00e+00	0	52	0	159383552	58	4600
2026-01-04 08:17:28.85	117.29	11.15	-47.9	-50.1	14.7	7.00e-07	0	52	0	161480704	58	4698
2026-01-04 08:17:29.83	117.23	11.23	-48.1	-50.4	14.5	0.00e+00	0	53	0	162529280	58	4818
2026-01-04 08:17:30.83	117.18	11.32	-47.9	-50.2	14.7	7.00e-07	0	53	0	164626432	58	4722
2026-01-04 08:17:31.83	117.12	11.41	-47.8	-49.9	15.0	7.00e-07	0	52	0	166723584	58	4574
2026-01-04 08:17:32.80	117.07	11.50	-47.7	-49.8	15.1	0.00e+00	0	53	0	168820736	58	4517
2026-01-04 08:17:33.80	117.01	11.58	-47.7	-49.7	15.1	0.00e+00	0	53	0	170917888	58	4491
2026-01-04 08:17:34.80	116.96	11.67	-47.6	-49.8	15.1	0.00e+00	0	53	0	171966464	58	4499
2026-01-04 08:17:35.79	116.90	11.76	-47.7	-49.8	15.1	0.00e+00	0	53	0	174063616	58	4543
2026-01-04 08:17:36.78	116.84	11.85	-47.6	-49.7	15.2	0.00e+00	0	53	0	176160768	58	4459
2026-01-04 08:17:37.78	116.78	11.94	-47.5	-49.4	15.5	0.00e+00	0	53	0	178257920	58	4336
2026-01-04 08:17:38.77	116.73	12.03	-47.5	-49.4	15.5	0.00e+00	0	53	0	179306496	58	4319
2026-01-04 08:17:39.75	116.67	12.12	-47.4	-49.3	15.5	0.00e+00	0	53	0	181403648	57	4545
2026-01-04 08:17:40.75	116.61	12.21	-47.4	-49.4	15.5	0.00e+00	0	53	0	183500800	57	4586
2026-01-04 08:17:41.75	116.55	12.30	-47.4	-49.3	15.5	0.00e+00	0	53	0	185597952	57	4534
2026-01-04 08:17:42.74	116.49	12.39	-47.4	-49.4	15.5	0.00e+00	0	53	0	187695104	57	4575
2026-01-04 08:17:43.72	116.43	12.48	-47.3	-49.3	15.6	0.00e+00	0	53	0	188743680	57	4530
2026-01-04 08:17:44.71	116.37	12.57	-47.3	-49.3	15.7	0.00e+00	0	53	0	190840832	57	4499
2026-01-04 08:17:45.71	116.31	12.66	-47.3	-49.2	15.7	0.00e+00	0	53	0	192937984	57	4490
2026-01-04 08:17:46.69	116.25	12.75	-47.3	-49.2	15.7	0.00e+00	0	53	0	195035136	57	4479
2026-01-04 08:17:47.68	116.19	12.84	-47.4	-49.4	15.6	0.00e+00	0	53	0	196083712	57	4560
2026-01-04 08:17:48.68	116.13	12.94	-47.5	-49.5	15.4	0.00e+00	0	53	0	198180864	57	4640
2026-01-04 08:17:49.67	116.06	13.03	-47.5	-49.4	15.5	0.00e+00	0	53	0	200278016	57	4569
2026-01-04 08:17:50.67	116.00	13.12	-47.4	-49.3	15.7	0.00e+00	0	53	0	202375168	57	4503
2026-01-04 08:17:51.65	115.94	13.21	-47.4	-49.3	15.6	0.00e+00	0	53	0	203423744	57	4514
2026-01-04 08:17:52.65	115.87	13.31	-47.5	-49.4	15.5	0.00e+00	0	53	0	205520896	57	4595
2026-01-04 08:17:53.65	115.81	13.40	-47.5	-49.4	15.5	0.00e+00	0	53	0	207618048	57	4596
2026-01-04 08:17:54.64	115.75	13.50	-47.5	-49.5	15.5	0.00e+00	0	53	0	209715200	57	4624
2026-01-04 08:17:55.63	115.68	13.59	-47.8	-49.9	15.1	0.00e+00	0	53	0	211812352	57	4823
2026-01-04 08:17:56.62	115.62	13.69	-47.8	-49.8	15.1	0.00e+00	0	53	0	212860928	57	4794
2026-01-04 08:17:57.61	115.55	13.78	-47.5	-49.5	15.5	0.00e+00	0	53	0	214958080	57	4613
2026-01-04 08:17:58.60	115.48	13.88	-47.3	-49.2	15.8	0.00e+00	0	53	0	217055232	57	4469
2026-01-04 08:17:59.58	115.42	13.97	-47.3	-49.2	15.7	0.00e+00	0	53	0	219152384	57	4483
2026-01-04 08:18:00.56	115.35	14.07	-47.4	-49.4	15.6	0.00e+00	0	53	0	220200960	57	4550
2026-01-04 08:18:01.54	115.29	14.16	-47.6	-49.7	15.3	0.00e+00	0	53	0	222298112	57	4713
2026-01-04 08:18:02.54	115.22	14.26	-47.6	-49.6	15.3	0.00e+00	0	53	0	224395264	57	4691
2026-01-04 08:18:03.53	115.15	14.36	-47.6	-49.5	15.4	0.00e+00	0	53	0	226492416	57	4646
2026-01-04 08:18:04.51	115.08	14.45	-47.6	-49.6	15.4	0.00e+00	0	54	0	227540992	57	4662
2026-01-04 08:18:05.50	115.01	14.55	-47.7	-49.7	15.3	0.00e+00	0	54	0	229638144	57	4724
2026-01-04 08:18:06.48	114.94	14.65	-47.6	-49.6	15.4	0.00e+00	0	53	0	231735296	57	4688
2026-01-04 08:18:07.48	114.87	14.75	-47.7	-49.8	15.2	0.00e+00	0	54	0	233832448	57	4767
2026-01-04 08:18:08.47	114.80	14.85	-47.8	-49.8	15.1	0.00e+00	0	53	0	235929600	57	4800
2026-01-04 08:18:09.46	114.73	14.95	-47.5	-49.6	15.4	0.00e+00	0	54	0	236978176	57	4655
2026-01-04 08:18:10.45	114.66	15.05	-47.3	-49.3	15.7	0.00e+00	0	54	0	239075328	57	4502
2026-01-04 08:18:11.44	114.59	15.15	-47.2	-49.1	16.0	0.00e+00	0	54	0	241172480	57	4394
2026-01-04 08:18:12.42	114.51	15.24	-47.2	-49.0	16.0	0.00e+00	0	54	0	243269632	57	4358
2026-01-04 08:18:13.41	114.44	15.34	-47.2	-49.0	16.0	0.00e+00	0	53	0	244318208	57	4373
2026-01-04 08:18:14.40	114.37	15.45	-47.2	-49.1	15.9	0.00e+00	0	54	0	246415360	57	4398
2026-01-04 08:18:15.38	114.29	15.55	-47.2	-49.1	15.9	0.00e+00	0	54	0	248512512	57	4425
2026-01-04 08:18:16.36	114.22	15.65	-47.1	-48.9	16.1	0.00e+00	0	54	0	250609664	57	4331
2026-01-04 08:18:17.36	114.14	15.75	-47.1	-48.9	16.1	0.00e+00	0	54	0	251658240	57	4317
2026-01-04 08:18:18.35	114.07	15.85	-47.3	-49.1	15.9	0.00e+00	0	54	0	253755392	57	4423
2026-01-04 08:18:19.34	113.99	15.96	-47.3	-49.1	15.9	0.00e+00	0	54	0	255852544	57	4427
2026-01-04 08:18:20.32	113.92	16.06	-47.1	-48.9	16.1	0.00e+00	0	54	0	257949696	57	4317
2026-01-04 08:18:21.31	113.84	16.16	-47.2	-49.1	16.0	0.00e+00	0	54	0	260046848	57	4392
2026-01-04 08:18:22.31	113.76	16.27	-47.3	-49.2	15.9	0.00e+00	0	54	0	261095424	57	4449
2026-01-04 08:18:23.30	113.68	16.37	-47.4	-49.3	15.8	0.00e+00	0	54	0	263192576	57	4494
2026-01-04 08:18:24.28	113.60	16.47	-47.2	-49.0	16.0	0.00e+00	0	54	0	265289728	57	4390
2026-01-04 08:18:25.28	113.52	16.58	-47.2	-49.0	16.1	0.00e+00	0	54	0	267386880	57	4347
2026-01-04 08:18:26.26	113.44	16.68	-47.3	-49.1	16.0	0.00e+00	0	54	0	268435456	57	4399
2026-01-04 08:18:27.25	113.36	16.79	-47.5	-49.3	15.7	0.00e+00	0	54	0	270532608	57	4537
2026-01-04 08:18:28.23	113.28	16.90	-47.5	-49.5	15.5	0.00e+00	0	54	0	272629760	57	4622
2026-01-04 08:18:29.21	113.20	17.00	-47.5	-49.4	15.6	0.00e+00	0	54	0	274726912	57	4594
2026-01-04 08:18:30.20	113.12	17.11	-47.6	-49.6	15.5	0.00e+00	0	54	0	275775488	57	4682
2026-01-04 08:18:31.18	113.04	17.21	-47.7	-49.8	15.3	0.00e+00	0	54	0	277872640	57	4770
2026-01-04 08:18:32.17	112.95	17.32	-47.6	-49.5	15.5	0.00e+00	0	54	0	279969792	57	4647
2026-01-04 08:18:33.17	112.87	17.43	-47.4	-49.3	15.7	0.00e+00	0	54	0	282066944	57	4540
2026-01-04 08:18:34.15	112.78	17.54	-47.3	-49.2	15.9	0.00e+00	0	54	0	283115520	57	4456
2026-01-04 08:18:35.15	112.70	17.65	-47.3	-49.1	15.9	0.00e+00	0	54	0	285212672	57	4439
2026-01-04 08:18:36.15	112.61	17.76	-47.4	-49.3	15.8	0.00e+00	0	54	0	287309824	57	4529
2026-01-04 08:18:37.14	112.52	17.87	-47.7	-49.7	15.3	0.00e+00	0	54	0	289406976	57	4749
2026-01-04 08:18:38.13	112.43	17.98	-47.5	-49.4	15.7	0.00e+00	0	54	0	291504128	57	4578
2026-01-04 08:18:39.13	112.35	18.09	-47.3	-49.2	15.9	0.00e+00	0	54	0	292552704	57	4447
2026-01-04 08:18:40.12	112.26	18.20	-47.3	-49.1	16.0	0.00e+00	0	54	0	294649856	57	4405
2026-01-04 08:18:41.11	112.17	18.32	-47.3	-49.1	16.0	0.00e+00	0	54	0	296747008	57	4394
2026-01-04 08:18:42.11	112.08	18.43	-47.3	-49.2	15.9	0.00e+00	0	54	0	298844160	57	4462
2026-01-04 08:18:43.10	111.98	18.54	-47.4	-49.4	15.7	0.00e+00	0	54	0	299892736	57	4551
2026-01-04 08:18:44.08	111.89	18.65	-47.4	-49.2	15.8	0.00e+00	0	54	0	301989888	57	4489
2026-01-04 08:18:45.06	111.80	18.77	-47.5	-49.4	15.6	0.00e+00	0	54	0	304087040	57	4587
2026-01-04 08:18:46.05	111.71	18.88	-47.5	-49.4	15.7	0.00e+00	0	54	0	306184192	57	4555
2026-01-04 08:18:47.04	111.62	18.99	-47.6	-49.5	15.5	0.00e+00	0	54	0	308281344	57	4645
2026-01-04 08:18:48.04	111.52	19.11	-47.8	-49.8	15.3	7.00e-07	0	55	0	309329920	57	4805
2026-01-04 08:18:49.03	111.42	19.23	-47.8	-49.9	15.2	0.00e+00	0	54	0	311427072	57	4850
2026-01-04 08:18:50.02	111.33	19.34	-47.9	-50.0	15.1	0.00e+00	0	54	0	313524224	57	4890
2026-01-04 08:18:51.02	111.23	19.46	-48.0	-50.1	15.0	7.00e-07	0	54	0	315621376	57	4953
2026-01-04 08:18:52.01	111.13	19.58	-48.1	-50.3	14.8	0.00e+00	0	54	0	316669952	58	4798
2026-01-04 08:18:53.00	111.03	19.69	-48.0	-50.1	15.0	0.00e+00	0	54	0	318767104	58	4669
2026-01-04 08:18:54.00	110.93	19.81	-48.2	-50.4	14.7	7.00e-07	0	55	0	320864256	58	4815
2026-01-04 08:18:54.99	110.83	19.93	-48.3	-50.7	14.4	0.00e+00	0	55	0	322961408	58	5003
2026-01-04 08:18:55.99	110.73	20.05	-48.3	-50.6	14.5	7.00e-07	0	55	0	325058560	58	4944
2026-01-04 08:18:56.98	110.63	20.17	-48.5	-50.8	14.3	0.00e+00	0	55	0	326107136	58	5086
2026-01-04 08:18:57.98	110.53	20.29	-48.4	-50.7	14.4	7.00e-07	0	55	0	328204288	58	5031
2026-01-04 08:18:58.96	110.43	20.41	-48.6	-51.0	14.1	1.50e-06	0	55	0	330301440	58	5188
2026-01-04 08:18:59.96	110.32	20.53	-48.4	-50.8	14.3	3.80e-06	0	55	0	332398592	59	4775
2026-01-04 08:19:00.95	110.22	20.65	-48.3	-50.6	14.5	0.00e+00	0	55	0	333447168	59	4672
2026-01-04 08:19:01.94	110.11	20.77	-48.3	-50.6	14.5	0.00e+00	0	55	0	335544320	59	4664
2026-01-04 08:19:02.92	110.00	20.89	-48.4	-50.7	14.4	0.00e+00	0	55	0	337641472	59	4728
2026-01-04 08:19:03.91	109.90	21.01	-48.1	-50.3	14.8	0.00e+00	0	55	0	339738624	59	4530
2026-01-04 08:19:04.90	109.79	21.14	-47.9	-50.1	15.1	0.00e+00	0	55	0	340787200	59	4403
2026-01-04 08:19:05.89	109.68	21.26	-47.9	-49.9	15.2	0.00e+00	0	55	0	342884352	58	4573
2026-01-04 08:19:06.88	109.57	21.38	-47.9	-50.0	15.1	0.00e+00	0	55	0	344981504	58	4626
2026-01-04 08:19:07.87	109.46	21.51	-48.0	-50.0	15.1	0.00e+00	0	55	0	347078656	58	4636
2026-01-04 08:19:08.85	109.35	21.63	-48.1	-50.2	14.9	0.00e+00	0	55	0	348127232	58	4754
2026-01-04 08:19:09.85	109.23	21.76	-48.1	-50.3	14.8	0.00e+00	0	55	0	350224384	58	4792
2026-01-04 08:19:10.84	109.12	21.88	-48.1	-50.2	14.9	0.00e+00	0	55	0	352321536	58	4752
2026-01-04 08:19:11.82	109.01	22.01	-48.1	-50.4	14.8	0.00e+00	0	55	0	354418688	58	4818
2026-01-04 08:19:12.81	108.89	22.14	-48.1	-50.3	14.8	0.00e+00	0	55	0	356515840	58	4767
2026-01-04 08:19:13.80	108.77	22.26	-47.9	-50.1	15.0	0.00e+00	0	55	0	357564416	58	4689
2026-01-04 08:19:14.78	108.66	22.39	-47.9	-50.0	15.1	0.00e+00	0	55	0	359661568	58	4648
2026-01-04 08:19:15.77	108.54	22.52	-48.0	-50.1	15.1	0.00e+00	0	55	0	361758720	58	4678
2026-01-04 08:19:16.76	108.42	22.65	-48.1	-50.3	14.9	0.00e+00	0	55	0	363855872	58	4772
2026-01-04 08:19:17.75	108.30	22.78	-48.0	-50.2	14.9	0.00e+00	0	55	0	364904448	58	4753
2026-01-04 08:19:18.74	108.18	22.90	-48.1	-50.2	14.9	0.00e+00	0	55	0	367001600	58	4727
2026-01-04 08:19:19.72	108.05	23.03	-48.3	-50.5	14.6	0.00e+00	0	55	0	369098752	58	4921
2026-01-04 08:19:20.71	107.93	23.16	-48.3	-50.5	14.6	1.50e-06	0	55	0	371195904	58	4898
2026-01-04 08:19:21.70	107.81	23.30	-48.3	-50.5	14.6	7.00e-07	0	55	0	372244480	58	4909
2026-01-04 08:19:22.69	107.68	23.43	-48.2	-50.4	14.7	1.50e-06	0	55	0	374341632	58	4860
2026-01-04 08:19:23.68	107.55	23.56	-48.2	-50.4	14.7	0.00e+00	0	55	0	376438784	58	4867
2026-01-04 08:19:24.68	107.42	23.69	-48.2	-50.4	14.8	0.00e+00	0	55	0	378535936	58	4852
2026-01-04 08:19:25.66	107.30	23.83	-48.2	-50.4	14.8	0.00e+00	0	55	0	380633088	58	4859
2026-01-04 08:19:26.66	107.16	23.96	-48.2	-50.3	14.8	7.00e-07	0	55	0	381681664	58	4814
2026-01-04 08:19:27.65	107.03	24.10	-48.2	-50.4	14.7	0.00e+00	0	55	0	383778816	58	4868
2026-01-04 08:19:28.63	106.90	24.23	-48.3	-50.6	14.5	0.00e+00	0	55	0	385875968	58	4979
2026-01-04 08:19:29.62	106.77	24.36	-48.2	-50.4	14.8	0.00e+00	0	55	0	387973120	58	4826
2026-01-04 08:19:30.61	106.63	24.50	-48.0	-50.1	15.0	7.00e-07	0	55	0	389021696	58	4705
2026-01-04 08:19:31.60	106.50	24.64	-48.0	-50.1	15.1	0.00e+00	0	55	0	391118848	58	4686
2026-01-04 08:19:32.58	106.36	24.77	-48.0	-50.1	15.1	0.00e+00	0	55	0	393216000	58	4666
2026-01-04 08:19:33.58	106.22	24.91	-48.0	-50.1	15.1	0.00e+00	0	55	0	395313152	58	4694
2026-01-04 08:19:34.57	106.08	25.05	-48.0	-50.2	15.0	0.00e+00	0	55	0	397410304	58	4708
2026-01-04 08:19:35.56	105.94	25.19	-48.2	-50.4	14.8	0.00e+00	0	55	0	398458880	58	4848
2026-01-04 08:19:36.56	105.79	25.33	-48.3	-50.5	14.7	0.00e+00	0	55	0	400556032	58	4890
2026-01-04 08:19:37.55	105.65	25.47	-48.0	-50.1	15.1	0.00e+00	0	55	0	402653184	58	4691
2026-01-04 08:19:38.54	105.51	25.61	-47.8	-49.9	15.3	0.00e+00	0	55	0	404750336	58	4589
2026-01-04 08:19:39.54	105.36	25.75	-47.7	-49.7	15.5	0.00e+00	0	55	0	405798912	58	4478
2026-01-04 08:19:40.53	105.21	25.89	-47.8	-49.8	15.4	0.00e+00	0	55	0	407896064	58	4542
2026-01-04 08:19:41.52	105.06	26.03	-47.9	-49.9	15.3	0.00e+00	0	55	0	409993216	58	4574
2026-01-04 08:19:42.51	104.91	26.18	-47.9	-49.9	15.3	0.00e+00	0	55	0	412090368	58	4587
2026-01-04 08:19:43.51	104.76	26.32	-48.0	-50.1	15.1	0.00e+00	0	55	0	413138944	58	4700
2026-01-04 08:19:44.50	104.60	26.46	-48.1	-50.3	14.9	7.00e-07	0	55	0	415236096	58	4791
2026-01-04 08:19:45.49	104.45	26.61	-48.1	-50.2	15.0	0.00e+00	0	55	0	417333248	58	4733
2026-01-04 08:19:46.47	104.30	26.75	-48.3	-50.4	14.8	0.00e+00	0	55	0	419430400	58	4867
2026-01-04 08:19:47.45	104.14	26.90	-48.2	-50.4	14.8	7.00e-07	0	55	0	421527552	58	4823
2026-01-04 08:19:48.44	103.98	27.04	-47.9	-50.0	15.2	0.00e+00	0	55	0	422576128	58	4602
2026-01-04 08:19:49.43	103.82	27.19	-47.8	-49.8	15.4	0.00e+00	0	55	0	424673280	58	4534
2026-01-04 08:19:50.42	103.66	27.33	-47.8	-49.8	15.4	7.00e-07	0	55	0	426770432	58	4514
2026-01-04 08:19:51.41	103.49	27.48	-47.9	-50.0	15.2	0.00e+00	0	55	0	428867584	58	4627
2026-01-04 08:19:52.40	103.33	27.63	-48.0	-50.2	15.0	0.00e+00	0	55	0	429916160	58	4745
2026-01-04 08:19:53.39	103.16	27.78	-48.1	-50.2	15.1	0.00e+00	0	55	0	432013312	58	4720
2026-01-04 08:19:54.38	102.99	27.93	-48.0	-50.2	15.0	0.00e+00	0	55	0	434110464	58	4719
2026-01-04 08:19:55.37	102.82	28.07	-47.9	-50.1	15.1	0.00e+00	0	55	0	436207616	58	4668
2026-01-04 08:19:56.35	102.66	28.22	-48.0	-50.1	15.1	0.00e+00	0	55	0	437256192	58	4671
2026-01-04 08:19:57.34	102.48	28.37	-48.0	-50.1	15.1	0.00e+00	0	55	0	439353344	58	4678
2026-01-04 08:19:58.33	102.31	28.52	-48.0	-50.1	15.2	0.00e+00	0	55	0	441450496	58	4653
2026-01-04 08:19:59.31	102.13	28.67	-48.1	-50.2	15.0	0.00e+00	0	55	0	443547648	58	4715
2026-01-04 08:20:00.30	101.96	28.83	-48.0	-50.0	15.3	0.00e+00	0	56	0	444596224	58	4615
2026-01-04 08:20:01.29	101.78	28.98	-47.9	-49.9	15.3	0.00e+00	0	56	0	446693376	58	4598
2026-01-04 08:20:02.28	101.59	29.13	-48.0	-50.0	15.3	0.00e+00	0	55	0	448790528	58	4612
2026-01-04 08:20:03.28	101.41	29.29	-48.1	-50.2	15.0	0.00e+00	0	56	0	450887680	58	4730
2026-01-04 08:20:04.27	101.22	29.44	-48.3	-50.4	14.8	0.00e+00	0	56	0	452984832	58	4869
2026-01-04 08:20:05.26	101.04	29.59	-48.4	-50.7	14.4	0.00e+00	0	55	0	454033408	58	5037
2026-01-04 08:20:06.25	100.85	29.75	-48.4	-50.8	14.5	0.00e+00	0	56	0	456130560	58	5045
2026-01-04 08:20:07.23	100.66	29.90	-48.6	-51.0	14.3	0.00e+00	0	56	0	458227712	58	5178
2026-01-04 08:20:08.22	100.47	30.06	-48.6	-51.1	14.1	0.00e+00	0	56	0	460324864	59	4979
2026-01-04 08:20:09.21	100.27	30.21	-48.9	-51.5	13.7	5.30e-06	0	56	0	461373440	59	5193
2026-01-04 08:20:10.20	100.08	30.37	-49.1	-51.8	13.5	9.10e-06	0	56	0	463470592	59	5350
2026-01-04 08:20:11.19	99.88	30.53	-49.4	-52.5	12.7	2.67e-05	0	56	0	465567744	60	5520
2026-01-04 08:20:12.18	99.68	30.69	-49.3	-52.2	13.0	3.20e-05	0	56	0	467664896	60	5325
2026-01-04 08:20:13.17	99.48	30.84	-49.5	-52.6	12.6	8.08e-05	0	56	0	469762048	60	5555
2026-01-04 08:20:14.16	99.27	31.00	-49.3	-52.2	13.0	7.17e-05	0	56	0	470810624	60	5315
2026-01-04 08:20:15.15	99.07	31.16	-49.0	-51.9	13.3	2.44e-05	0	56	0	472907776	60	5132
2026-01-04 08:20:16.15	98.86	31.32	-49.1	-51.9	13.3	1.29e-05	0	56	0	475004928	60	5137
2026-01-04 08:20:17.14	98.65	31.48	-49.2	-52.0	13.2	1.37e-05	0	56	0	477102080	60	5216
2026-01-04 08:20:18.13	98.43	31.64	-49.2	-52.1	13.1	3.58e-05	0	56	0	478150656	60	5263
2026-01-04 08:20:19.11	98.22	31.80	-49.3	-52.3	12.9	3.58e-05	0	56	0	480247808	60	5369
2026-01-04 08:20:20.10	98.01	31.96	-49.2	-52.1	13.1	3.28e-05	0	56	0	482344960	60	5259
2026-01-04 08:20:21.08	97.79	32.12	-49.2	-52.2	13.0	4.04e-05	0	56	0	484442112	60	5312
2026-01-04 08:20:22.07	97.57	32.28	-49.2	-52.3	13.0	4.80e-05	0	56	0	485490688	60	5347
2026-01-04 08:20:23.05	97.35	32.44	-49.5	-52.7	12.5	5.87e-05	0	56	0	487587840	60	5598
2026-01-04 08:20:24.03	97.12	32.61	-49.4	-52.4	12.8	7.01e-05	0	56	0	489684992	60	5410
2026-01-04 08:20:25.03	96.89	32.77	-49.5	-52.6	12.7	6.56e-05	0	56	0	491782144	60	5544
2026-01-04 08:20:26.02	96.66	32.93	-49.6	-53.0	12.2	1.50e-04	0	56	0	493879296	61	5473
2026-01-04 08:20:27.01	96.43	33.10	-49.5	-52.6	12.5	1.36e-04	0	56	0	494927872	61	5252
2026-01-04 08:20:28.00	96.20	33.26	-49.7	-53.1	12.0	2.37e-04	0	56	0	497025024	61	5548
2026-01-04 08:20:28.98	95.96	33.42	-49.4	-52.7	12.5	2.04e-04	0	56	0	499122176	61	5299
2026-01-04 08:20:29.97	95.72	33.59	-49.5	-52.7	12.5	1.22e-04	0	56	0	501219328	61	5339
2026-01-04 08:20:30.96	95.48	33.75	-49.6	-53.0	12.3	1.70e-04	0	56	0	502267904	61	5492
2026-01-04 08:20:31.96	95.23	33.92	-49.8	-53.2	12.0	3.60e-04	0	56	0	504365056	61	5638
2026-01-04 08:20:32.95	94.99	34.09	-49.7	-52.9	12.3	2.72e-04	0	56	0	506462208	61	5415
2026-01-04 08:20:33.94	94.74	34.25	-49.4	-52.5	12.7	1.15e-04	0	56	0	508559360	61	5182
2026-01-04 08:20:34.92	94.49	34.42	-49.4	-52.4	12.8	5.03e-05	0	56	0	509607936	61	5140
2026-01-04 08:20:35.91	94.23	34.58	-49.2	-52.1	13.1	3.20e-05	0	56	0	511705088	61	4977
2026-01-04 08:20:36.90	93.97	34.75	-49.4	-52.3	12.9	2.21e-05	0	56	0	513802240	61	5094
2026-01-04 08:20:37.90	93.71	34.92	-49.3	-52.3	12.9	5.72e-05	0	56	0	515899392	61	5081
2026-01-04 08:20:38.88	93.45	35.08	-49.5	-52.6	12.7	6.17e-05	0	56	0	517996544	61	5234
2026-01-04 08:20:39.87	93.19	35.25	-49.3	-52.3	13.0	7.47e-05	0	56	0	519045120	61	5060
2026-01-04 08:20:40.85	92.92	35.42	-49.2	-52.1	13.1	2.82e-05	0	56	0	521142272	61	4965
2026-01-04 08:20:41.84	92.65	35.58	-49.0	-51.7	13.6	8.30e-06	0	56	0	523239424	61	4710
2026-01-04 08:20:42.83	92.37	35.75	-49.0	-51.6	13.7	3.00e-06	0	56	0	525336576	60	4939
2026-01-04 08:20:43.82	92.10	35.92	-49.0	-51.7	13.5	1.22e-05	0	56	0	526385152	60	5026
2026-01-04 08:20:44.81	91.82	36.09	-48.9	-51.5	13.7	1.14e-05	0	56	0	528482304	60	4899
2026-01-04 08:20:45.80	91.54	36.26	-48.8	-51.4	13.9	5.30e-06	0	56	0	530579456	60	4847
2026-01-04 08:20:46.79	91.25	36.42	-49.0	-51.7	13.6	3.80e-06	0	56	0	532676608	60	4986
2026-01-04 08:20:47.78	90.96	36.59	-48.9	-51.6	13.7	5.30e-06	0	56	0	533725184	60	4927
2026-01-04 08:20:48.77	90.67	36.76	-48.9	-51.6	13.7	8.30e-06	0	56	0	535822336	60	4937
2026-01-04 08:20:49.74	90.38	36.92	-49.1	-51.9	13.4	8.30e-06	0	56	0	537919488	60	5110
2026-01-04 08:20:50.73	90.08	37.09	-48.9	-51.6	13.5	9.10e-06	0	56	0	540016640	60	4939
2026-01-04 08:20:51.72	89.78	37.26	-48.6	-51.1	14.1	3.00e-06	0	56	0	542113792	60	4670
2026-01-04 08:20:52.72	89.48	37.43	-48.4	-50.8	14.5	1.50e-06	0	56	0	543162368	60	4516
2026-01-04 08:20:53.71	89.17	37.60	-48.4	-50.8	14.6	7.00e-07	0	56	0	545259520	59	4766
2026-01-04 08:20:54.70	88.86	37.76	-48.5	-50.8	14.5	1.50e-06	0	56	0	547356672	59	4765
2026-01-04 08:20:55.69	88.55	37.93	-48.5	-50.8	14.5	1.50e-06	0	56	0	549453824	59	4811
2026-01-04 08:20:56.68	88.23	38.10	-48.6	-51.0	14.2	7.00e-07	0	56	0	550502400	59	4909
2026-01-04 08:20:57.67	87.91	38.27	-48.8	-51.3	14.0	1.50e-06	0	56	0	552599552	59	5077
2026-01-04 08:20:58.66	87.59	38.43	-48.3	-51.3	13.9	1.29e-05	0	56	0	554696704	59	5090
2026-01-04 08:20:59.66	87.26	38.60	-48.4	-51.5	13.8	3.00e-06	0	56	0	556793856	59	5170
2026-01-04 08:21:00.65	86.93	38.77	-48.9	-51.5	13.7	6.10e-06	0	56	0	557842432	59	5216
2026-01-04 08:21:01.65	86.59	38.94	-48.8	-51.3	14.0	5.30e-06	0	56	0	559939584	59	5055
2026-01-04 08:21:02.63	86.25	39.10	-48.7	-51.2	14.1	1.50e-06	0	56	0	562036736	59	5021
2026-01-04 08:21:03.62	85.91	39.27	-48.8	-51.4	13.9	2.20e-06	0	56	0	564133888	59	5101
2026-01-04 08:21:04.61	85.57	39.43	-48.8	-51.4	13.9	4.50e-06	0	56	0	565182464	59	5107
2026-01-04 08:21:05.60	85.22	39.60	-48.7	-51.1	14.1	1.50e-06	0	56	0	567279616	59	4983
2026-01-04 08:21:06.59	84.87	39.76	-48.6	-51.0	14.3	7.00e-07	0	56	0	569376768	59	4890
2026-01-04 08:21:07.58	84.52	39.93	-48.8	-51.2	14.1	0.00e+00	0	56	0	571473920	59	5036
2026-01-04 08:21:08.57	84.16	40.09	-49.0	-51.6	13.7	1.50e-06	0	56	0	573571072	59	5247
2026-01-04 08:21:09.56	83.80	40.25	-49.2	-52.0	13.2	7.60e-06	0	56	0	574619648	60	5203
2026-01-04 08:21:10.55	83.43	40.41	-49.3	-52.2	13.1	3.81e-05	0	56	0	576716800	60	5304
2026-01-04 08:21:11.54	83.06	40.58	-49.3	-52.2	13.1	2.89e-05	0	56	0	578813952	60	5282
2026-01-04 08:21:12.53	82.69	40.74	-49.2	-52.0	13.2	1.83e-05	0	56	0	580911104	60	5213
2026-01-04 08:21:13.53	82.31	40.90	-49.3	-52.1	13.1	3.12e-05	0	56	0	581959680	60	5270
2026-01-04 08:21:14.52	81.93	41.06	-49.2	-52.1	13.2	2.13e-05	0	56	0	584056832	60	5231
2026-01-04 08:21:15.50	81.55	41.21	-49.4	-52.4	12.9	2.97e-05	0	56	0	586153984	60	5459
2026-01-04 08:21:16.49	81.16	41.37	-49.4	-52.4	12.9	5.18e-05	0	56	0	588251136	60	5436
2026-01-04 08:21:17.48	80.77	41.53	-49.1	-51.8	13.4	3.20e-05	0	56	0	590348288	60	5093
2026-01-04 08:21:18.47	80.37	41.69	-48.9	-51.5	13.8	7.60e-06	0	56	0	591396864	60	4898
2026-01-04 08:21:19.46	79.97	41.84	-48.7	-51.2	14.1	3.00e-06	0	56	0	593494016	60	4751
2026-01-04 08:21:20.45	79.57	42.00	-48.6	-51.0	14.3	3.80e-06	0	56	0	595591168	60	4601
2026-01-04 08:21:21.44	79.16	42.15	-48.7	-51.2	14.0	7.00e-07	0	56	0	597688320	60	4745
2026-01-04 08:21:22.43	78.75	42.30	-48.6	-51.1	14.2	4.50e-06	0	56	0	598736896	60	4700
2026-01-04 08:21:23.42	78.34	42.45	-48.3	-50.4	15.0	0.00e+00	0	56	0	600834048	59	4557
2026-01-04 08:21:24.41	77.92	42.60	-48.2	-50.3	15.0	0.00e+00	0	56	0	602931200	59	4509
2026-01-04 08:21:25.40	77.49	42.75	-48.2	-50.2	15.1	0.00e+00	0	56	0	605028352	59	4481
2026-01-04 08:21:26.39	77.07	42.90	-48.1	-50.2	15.1	7.00e-07	0	56	0	606076928	59	4471
2026-01-04 08:21:27.37	76.64	43.05	-48.3	-50.5	14.9	0.00e+00	0	56	0	608174080	59	4599
2026-01-04 08:21:28.35	76.21	43.19	-48.4	-50.7	14.6	7.00e-07	0	56	0	610271232	59	4726
2026-01-04 08:21:29.34	75.77	43.33	-48.2	-50.2	15.1	7.00e-07	0	56	0	612368384	59	4485
2026-01-04 08:21:30.33	75.33	43.48	-47.9	-49.8	15.5	7.00e-07	0	56	0	614465536	58	4535
2026-01-04 08:21:31.31	74.89	43.62	-47.7	-49.6	15.8	0.00e+00	0	56	0	615514112	58	4394
2026-01-04 08:21:32.30	74.44	43.76	-47.6	-49.5	15.9	0.00e+00	0	56	0	617611264	58	4341
2026-01-04 08:21:33.30	73.98	43.90	-47.4	-49.2	16.1	0.00e+00	0	56	0	619708416	58	4224
2026-01-04 08:21:34.28	73.52	44.03	-47.6	-49.5	15.9	0.00e+00	0	56	0	621805568	57	4606
2026-01-04 08:21:35.28	73.06	44.17	-47.7	-49.6	15.7	0.00e+00	0	56	0	622854144	57	4663
2026-01-04 08:21:36.27	72.59	44.30	-47.3	-49.0	16.4	0.00e+00	0	56	0	624951296	57	4368
2026-01-04 08:21:37.26	72.12	44.43	-46.9	-48.5	16.8	0.00e+00	0	57	0	627048448	57	4141
2026-01-04 08:21:38.26	71.64	44.57	-46.8	-48.3	17.0	0.00e+00	0	57	0	629145600	56	4288
2026-01-04 08:21:39.24	71.17	44.69	-46.9	-48.5	16.8	0.00e+00	0	56	0	630194176	56	4364
2026-01-04 08:21:40.23	70.69	44.82	-47.4	-49.2	16.1	0.00e+00	0	56	0	632291328	56	4734
2026-01-04 08:21:41.23	70.19	44.95	-47.9	-49.9	15.4	0.00e+00	0	56	0	634388480	57	4840
2026-01-04 08:21:42.22	69.71	45.07	-48.4	-50.6	14.8	0.00e+00	0	57	0	636485632	58	4954
2026-01-04 08:21:43.21	69.21	45.19	-48.5	-50.7	14.6	0.00e+00	0	56	0	638582784	58	5034
2026-01-04 08:21:44.20	68.71	45.31	-48.4	-50.7	14.7	0.00e+00	0	57	0	639631360	58	4990
2026-01-04 08:21:45.18	68.22	45.42	-48.4	-50.6	14.7	0.00e+00	0	56	0	641728512	58	4972
2026-01-04 08:21:46.17	67.71	45.54	-48.5	-50.8	14.5	7.00e-07	0	56	0	643825664	58	5059
2026-01-04 08:21:47.16	67.21	45.65	-48.8	-51.2	14.2	7.00e-07	0	56	0	645922816	59	4994
2026-01-04 08:21:48.16	66.69	45.76	-48.7	-51.0	14.3	2.20e-06	0	56	0	646971392	59	4919
2026-01-04 08:21:49.15	66.17	45.87	-48.8	-51.3	14.1	3.80e-06	0	56	0	649068544	59	5047
2026-01-04 08:21:50.14	65.66	45.97	-48.8	-51.2	14.2	0.00e+00	0	56	0	651165696	59	4994
2026-01-04 08:21:51.14	65.13	46.08	-48.8	-51.2	14.0	2.20e-06	0	56	0	653262848	59	5023
2026-01-04 08:21:52.12	64.61	46.18	-49.1	-51.9	13.5	3.80e-06	0	56	0	655360000	60	5103
2026-01-04 08:21:53.12	64.07	46.28	-49.1	-51.8	13.5	3.00e-06	0	57	0	656408576	60	5053
2026-01-04 08:21:54.11	63.54	46.37	-49.3	-52.3	13.2	2.05e-05	0	56	0	658505728	60	5353
2026-01-04 08:21:55.10	63.00	46.47	-49.6	-52.7	12.6	4.19e-05	0	56	0	660602880	61	5294
2026-01-04 08:21:56.09	62.47	46.56	-49.4	-52.4	12.9	5.49e-05	0	57	0	662700032	61	5117
2026-01-04 08:21:57.09	61.92	46.65	-49.6	-52.7	12.6	7.62e-05	0	57	0	663748608	61	5287
2026-01-04 08:21:58.06	61.39	46.73	-49.7	-53.0	12.3	1.66e-04	0	57	0	665845760	61	5494
2026-01-04 08:21:59.05	60.84	46.81	-49.6	-52.8	12.5	1.73e-04	0	57	0	667942912	61	5390
2026-01-04 08:22:00.04	60.29	46.89	-49.6	-52.8	12.5	1.40e-04	0	56	0	670040064	61	5377
2026-01-04 08:22:01.03	59.73	46.97	-49.7	-52.9	12.5	1.03e-04	0	57	0	671088640	61	5403
2026-01-04 08:22:02.02	59.18	47.05	-49.6	-52.8	12.5	1.14e-04	0	56	0	673185792	61	5374
2026-01-04 08:22:03.01	58.62	47.12	-49.6	-52.7	12.6	1.01e-04	0	57	0	675282944	61	5295
2026-01-04 08:22:03.99	58.06	47.18	-49.5	-52.5	12.9	6.71e-05	0	57	0	677380096	61	5175
2026-01-04 08:22:04.98	57.50	47.25	-49.5	-52.6	12.7	5.64e-05	0	57	0	678428672	61	5240
2026-01-04 08:22:05.97	56.93	47.31	-49.3	-52.1	13.2	1.75e-05	0	57	0	680525824	61	4983
2026-01-04 08:22:06.96	56.37	47.37	-49.1	-51.7	13.5	2.28e-05	0	57	0	682622976	61	4759
2026-01-04 08:22:07.96	55.79	47.43	-49.1	-51.8	13.6	7.60e-06	0	56	0	684720128	61	4764
2026-01-04 08:22:08.94	55.22	47.48	-49.1	-51.8	13.6	9.10e-06	0	57	0	686817280	61	4769
2026-01-04 08:22:09.93	54.65	47.53	-49.2	-51.9	13.4	1.44e-05	0	57	0	687865856	61	4833
2026-01-04 08:22:10.91	54.08	47.58	-49.2	-52.0	13.4	1.90e-05	0	56	0	689963008	61	4926
2026-01-04 08:22:11.90	53.50	47.63	-49.2	-52.0	13.4	2.44e-05	0	57	0	692060160	61	4873
2026-01-04 08:22:12.89	52.92	47.67	-49.3	-52.2	13.1	2.21e-05	0	57	0	694157312	61	4986
2026-01-04 08:22:13.88	52.34	47.71	-49.2	-52.0	13.3	1.98e-05	0	57	0	695205888	61	4884
2026-01-04 08:22:14.87	51.76	47.74	-49.0	-51.7	13.7	9.90e-06	0	57	0	697303040	61	4717
2026-01-04 08:22:15.86	51.17	47.77	-49.1	-51.7	13.6	5.30e-06	0	57	0	699400192	61	4746
2026-01-04 08:22:16.85	50.59	47.80	-49.1	-51.8	13.5	7.60e-06	0	57	0	701497344	61	4783
2026-01-04 08:22:17.84	50.00	47.83	-49.3	-52.2	13.2	2.51e-05	0	57	0	702545920	61	5014
2026-01-04 08:22:18.84	49.41	47.85	-49.2	-51.9	13.3	4.04e-05	0	57	0	704643072	61	4841
2026-01-04 08:22:19.82	48.83	47.87	-49.0	-51.6	13.6	7.60e-06	0	57	0	706740224	61	4698
2026-01-04 08:22:20.82	48.24	47.88	-49.0	-51.5	13.8	3.80e-06	0	57	0	708837376	60	4903
2026-01-04 08:22:21.81	47.65	47.90	-49.0	-51.6	13.7	5.30e-06	0	57	0	710934528	60	4947
2026-01-04 08:22:22.79	47.07	47.91	-48.9	-51.5	13.9	2.20e-06	0	57	0	711983104	60	4914
2026-01-04 08:22:23.79	46.47	47.91	-48.9	-51.5	13.9	3.00e-06	0	57	0	714080256	60	4871
2026-01-04 08:22:24.78	45.88	47.91	-48.8	-51.3	14.1	1.50e-06	0	57	0	716177408	60	4783
2026-01-04 08:22:25.77	45.29	47.91	-48.9	-51.4	13.9	2.20e-06	0	57	0	718274560	60	4840
2026-01-04 08:22:26.76	44.70	47.91	-48.8	-51.3	13.9	2.20e-06	0	57	0	719323136	60	4786
2026-01-04 08:22:27.75	44.11	47.90	-48.8	-51.5	13.8	3.00e-06	0	57	0	721420288	60	4893
2026-01-04 08:22:28.74	43.53	47.89	-49.1	-51.9	13.4	8.30e-06	0	57	0	723517440	60	5155
2026-01-04 08:22:29.72	42.94	47.88	-49.1	-52.0	13.3	1.75e-05	0	57	0	725614592	60	5169
2026-01-04 08:22:30.71	42.36	47.86	-49.1	-51.9	13.4	9.90e-06	0	57	0	726663168	60	5118
2026-01-04 08:22:31.70	41.77	47.84	-49.1	-51.8	13.5	8.30e-06	0	57	0	728760320	60	5095
2026-01-04 08:22:32.69	41.18	47.81	-49.1	-51.9	13.3	1.67e-05	0	57	0	730857472	60	5136
2026-01-04 08:22:33.68	40.60	47.79	-49.1	-51.9	13.4	9.90e-06	0	57	0	732954624	60	5123
2026-01-04 08:22:34.67	40.01	47.76	-49.5	-52.5	12.9	3.50e-05	0	57	0	735051776	60	5476
2026-01-04 08:22:35.66	39.43	47.72	-49.3	-52.3	13.0	5.03e-05	0	57	0	736100352	60	5396
2026-01-04 08:22:36.66	38.85	47.69	-49.4	-52.5	12.8	5.34e-05	0	57	0	738197504	60	5471
2026-01-04 08:22:37.65	38.27	47.65	-49.3	-52.3	13.0	4.95e-05	0	57	0	740294656	60	5355
2026-01-04 08:22:38.63	37.69	47.60	-49.3	-52.3	13.0	4.73e-05	0	57	0	742391808	60	5359
2026-01-04 08:22:39.62	37.12	47.56	-49.2	-52.0	13.4	3.20e-05	0	57	0	743440384	60	5176
2026-01-04 08:22:40.61	36.54	47.51	-49.1	-51.9	13.4	1.52e-05	0	57	0	745537536	60	5114
2026-01-04 08:22:41.59	35.97	47.46	-49.1	-51.8	13.6	1.14e-05	0	57	0	747634688	60	5064
2026-01-04 08:22:42.59	35.40	47.40	-49.2	-52.0	13.3	2.13e-05	0	57	0	749731840	60	5206
2026-01-04 08:22:43.58	34.83	47.34	-49.6	-52.8	12.6	2.13e-05	0	57	0	751828992	61	5348
2026-01-04 08:22:44.57	34.26	47.28	-49.6	-52.7	12.5	1.54e-04	0	57	0	752877568	61	5337
2026-01-04 08:22:45.56	33.70	47.22	-49.4	-52.4	12.8	5.64e-05	0	57	0	754974720	61	5121
2026-01-04 08:22:46.55	33.14	47.15	-49.3	-52.2	13.2	4.27e-05	0	57	0	757071872	61	5006
2026-01-04 08:22:47.55	32.57	47.08	-49.1	-51.8	13.6	8.30e-06	0	57	0	759169024	61	4776
2026-01-04 08:22:48.53	32.02	47.01	-49.2	-52.0	13.4	6.80e-06	0	57	0	760217600	61	4924
2026-01-04 08:22:49.52	31.47	46.93	-49.3	-52.1	13.2	2.36e-05	0	57	0	762314752	61	4940
2026-01-04 08:22:50.50	30.92	46.85	-49.3	-52.1	13.2	3.20e-05	0	57	0	764411904	61	4929
2026-01-04 08:22:51.49	30.37	46.77	-49.2	-52.1	13.3	1.83e-05	0	57	0	766509056	61	4931
2026-01-04 08:22:52.47	29.83	46.69	-49.1	-51.8	13.5	1.67e-05	0	57	0	767557632	61	4775
2026-01-04 08:22:53.46	29.29	46.60	-49.1	-51.9	13.4	6.80e-06	0	57	0	769654784	61	4858
2026-01-04 08:22:54.45	28.75	46.51	-49.4	-52.3	13.0	4.11e-05	0	57	0	771751936	61	5062
2026-01-04 08:22:55.44	28.21	46.42	-49.0	-51.7	13.6	1.37e-05	0	57	0	773849088	61	4757
2026-01-04 08:22:56.43	27.68	46.33	-48.9	-51.4	13.9	6.10e-06	0	57	0	774897664	60	4862
2026-01-04 08:22:57.42	27.15	46.23	-48.8	-51.3	14.1	4.50e-06	0	57	0	776994816	60	4798
2026-01-04 08:22:58.42	26.62	46.13	-48.8	-51.3	14.1	3.80e-06	0	57	0	779091968	60	4764
2026-01-04 08:22:59.42	26.09	46.02	-48.8	-51.3	14.0	1.50e-06	0	57	0	781189120	60	4801
2026-01-04 08:23:00.41	25.57	45.92	-48.8	-51.3	14.1	1.50e-06	0	57	0	783286272	60	4774
2026-01-04 08:23:01.39	25.06	45.81	-48.7	-51.2	14.1	7.00e-07	0	57	0	784334848	60	4720
2026-01-04 08:23:02.40	24.53	45.70	-48.8	-51.3	14.0	2.20e-06	0	57	0	786432000	60	4787
2026-01-04 08:23:03.38	24.03	45.59	-48.7	-51.1	14.2	1.50e-06	0	57	0	788529152	60	4697
2026-01-04 08:23:04.37	23.52	45.48	-48.7	-51.2	14.1	3.80e-06	0	57	0	790626304	60	4730
2026-01-04 08:23:05.37	23.02	45.36	-48.8	-51.4	13.9	2.20e-06	0	57	0	791674880	60	4841
2026-01-04 08:23:06.36	22.52	45.25	-48.7	-51.3	14.0	4.50e-06	0	57	0	793772032	60	4805
2026-01-04 08:23:07.36	22.02	45.13	-48.7	-51.3	14.0	3.80e-06	0	57	0	795869184	60	4777
2026-01-04 08:23:08.35	21.53	45.00	-48.5	-50.8	14.5	7.00e-07	0	57	0	797966336	60	4517
2026-01-04 08:23:09.34	21.04	44.88	-48.3	-50.5	14.8	0.00e+00	0	57	0	800063488	59	4645
2026-01-04 08:23:10.33	20.56	44.75	-48.2	-50.3	15.1	0.00e+00	0	57	0	801112064	59	4512
2026-01-04 08:23:11.31	20.08	44.63	-48.1	-50.1	15.2	0.00e+00	0	57	0	803209216	59	4428
2026-01-04 08:23:12.31	19.60	44.50	-48.1	-50.2	15.2	0.00e+00	0	57	0	805306368	59	4472
2026-01-04 08:23:13.30	19.13	44.37	-48.3	-50.4	14.9	0.00e+00	0	57	0	807403520	59	4591
2026-01-04 08:23:14.28	18.67	44.24	-48.2	-50.3	15.0	0.00e+00	0	57	0	808452096	59	4533
2026-01-04 08:23:15.27	18.21	44.10	-48.1	-50.1	15.2	0.00e+00	0	57	0	810549248	59	4441
2026-01-04 08:23:16.25	17.75	43.97	-47.9	-49.8	15.5	0.00e+00	0	57	0	812646400	58	4542
2026-01-04 08:23:17.25	17.29	43.83	-47.6	-49.3	16.0	0.00e+00	0	57	0	814743552	58	4289
2026-01-04 08:23:18.24	16.84	43.69	-47.5	-49.3	16.1	0.00e+00	0	57	0	815792128	58	4248
2026-01-04 08:23:19.22	16.40	43.55	-47.5	-49.2	16.1	0.00e+00	0	57	0	817889280	58	4238
2026-01-04 08:23:20.21	15.95	43.41	-47.4	-49.1	16.2	0.00e+00	0	57	0	819986432	57	4412
2026-01-04 08:23:21.20	15.51	43.27	-47.2	-48.9	16.4	0.00e+00	0	57	0	822083584	57	4317
2026-01-04 08:23:22.19	15.08	43.12	-47.1	-48.7	16.6	0.00e+00	0	57	0	824180736	57	4234
2026-01-04 08:23:23.18	14.65	42.98	-46.8	-48.4	17.0	0.00e+00	0	57	0	825229312	56	4294
2026-01-04 08:23:24.18	14.21	42.83	-46.7	-48.2	17.2	0.00e+00	0	57	0	827326464	56	4206
2026-01-04 08:23:25.17	13.79	42.68	-46.6	-48.0	17.3	0.00e+00	0	57	0	829423616	56	4128
2026-01-04 08:23:26.17	13.36	42.53	-46.7	-48.2	17.1	0.00e+00	0	57	0	831520768	56	4204
2026-01-04 08:23:27.16	12.95	42.38	-46.5	-47.9	17.3	0.00e+00	0	57	0	832569344	56	4092
2026-01-04 08:23:28.14	12.54	42.23	-46.7	-48.2	17.1	0.00e+00	0	57	0	834666496	56	4241
2026-01-04 08:23:29.12	12.14	42.08	-47.0	-48.7	16.7	0.00e+00	0	57	0	836763648	56	4442
2026-01-04 08:23:30.11	11.73	41.92	-47.1	-48.7	16.6	0.00e+00	0	57	0	838860800	56	4482
2026-01-04 08:23:31.10	11.33	41.77	-47.2	-48.9	16.4	0.00e+00	0	57	0	839909376	56	4591
2026-01-04 08:23:32.09	10.93	41.61	-47.1	-48.7	16.6	0.00e+00	0	57	0	842006528	56	4470
2026-01-04 08:23:33.09	10.54	41.45	-47.0	-48.6	16.7	0.00e+00	0	57	0	844103680	56	4417
2026-01-04 08:23:34.07	10.15	41.30	-47.2	-49.0	16.4	0.00e+00	0	57	0	846200832	56	4599
2026-01-04 08:23:35.06	9.77	41.14	-47.1	-48.8	16.6	0.00e+00	0	57	0	848297984	56	4504
2026-01-04 08:23:36.05	9.39	40.98	-47.2	-48.9	16.5	0.00e+00	0	57	0	849346560	56	4552
2026-01-04 08:23:37.05	9.00	40.82	-47.2	-48.9	16.4	0.00e+00	0	57	0	851443712	56	4590
2026-01-04 08:23:38.04	8.63	40.66	-47.5	-49.3	16.0	0.00e+00	0	57	0	853540864	56	4784
2026-01-04 08:23:39.03	8.26	40.50	-47.4	-49.1	16.2	0.00e+00	0	57	0	855638016	56	4674
2026-01-04 08:23:40.02	7.89	40.34	-47.2	-48.9	16.5	0.00e+00	0	57	0	856686592	56	4548
2026-01-04 08:23:41.01	7.53	40.18	-47.2	-48.9	16.4	0.00e+00	0	57	0	858783744	56	4586
2026-01-04 08:23:42.01	7.17	40.01	-47.1	-48.8	16.5	0.00e+00	0	57	0	860880896	56	4520
2026-01-04 08:23:43.00	6.81	39.85	-47.3	-49.1	16.3	0.00e+00	0	57	0	862978048	56	4667
2026-01-04 08:23:44.00	6.46	39.68	-47.4	-49.2	16.2	0.00e+00	0	57	0	865075200	56	4715
2026-01-04 08:23:45.00	6.11	39.52	-47.2	-48.9	16.4	0.00e+00	0	57	0	866123776	56	4594
2026-01-04 08:23:45.98	5.76	39.35	-47.2	-48.9	16.4	0.00e+00	0	57	0	868220928	56	4549
2026-01-04 08:23:46.97	5.42	39.19	-47.5	-49.3	16.1	0.00e+00	0	57	0	870318080	56	4764
2026-01-04 08:23:47.96	5.09	39.02	-47.6	-49.4	16.0	0.00e+00	0	57	0	872415232	57	4553
2026-01-04 08:23:48.95	4.75	38.86	-47.7	-49.6	15.7	0.00e+00	0	57	0	873463808	57	4685
2026-01-04 08:23:49.95	4.42	38.69	-47.7	-49.6	15.7	0.00e+00	0	57	0	875560960	57	4670
2026-01-04 08:23:50.94	4.09	38.52	-47.9	-49.9	15.4	0.00e+00	0	57	0	877658112	57	4866
2026-01-04 08:23:51.93	3.77	38.36	-48.0	-50.1	15.2	0.00e+00	0	57	0	879755264	57	4959
2026-01-04 08:23:52.92	3.44	38.19	-48.2	-50.4	15.0	0.00e+00	0	57	0	881852416	58	4827
2026-01-04 08:23:53.90	3.13	38.03	-48.1	-50.2	15.1	0.00e+00	0	57	0	882900992	58	4741
2026-01-04 08:23:54.89	2.82	37.86	-48.3	-50.5	14.8	0.00e+00	0	57	0	884998144	58	4898
2026-01-04 08:23:55.88	2.50	37.69	-48.3	-50.5	14.9	0.00e+00	0	57	0	887095296	58	4873
2026-01-04 08:23:56.88	2.19	37.52	-48.6	-50.9	14.4	1.50e-06	0	57	0	889192448	58	5146
2026-01-04 08:23:57.86	1.89	37.36	-48.5	-50.8	14.6	7.00e-07	0	57	0	890241024	59	4763
2026-01-04 08:23:58.86	1.59	37.19	-48.4	-50.7	14.6	7.00e-07	0	57	0	892338176	59	4712
2026-01-04 08:23:59.85	1.29	37.02	-48.6	-50.9	14.4	0.00e+00	0	57	0	894435328	59	4868
2026-01-04 08:24:00.85	0.99	36.85	-48.8	-51.4	13.9	1.50e-06	0	57	0	896532480	59	5111
2026-01-04 08:24:01.84	0.70	36.68	-49.0	-51.6	13.6	3.00e-06	0	57	0	897581056	59	5260
2026-01-04 08:24:02.83	0.41	36.52	-49.2	-52.0	13.3	6.10e-06	0	57	0	899678208	60	5196
2026-01-04 08:24:03.82	0.12	36.35	-49.1	-51.8	13.5	1.22e-05	0	57	0	901775360	60	5051
2026-01-04 08:24:04.80	359.84	36.18	-49.2	-52.0	13.2	2.21e-05	0	57	0	903872512	60	5202
2026-01-04 08:24:05.79	359.56	36.02	-49.3	-52.2	13.1	1.90e-05	0	57	0	904921088	60	5313
2026-01-04 08:24:06.78	359.29	35.85	-49.3	-52.2	13.1	3.12e-05	0	57	0	907018240	60	5288
2026-01-04 08:24:07.77	359.01	35.68	-49.3	-52.2	13.0	3.81e-05	0	57	0	909115392	60	5338
2026-01-04 08:24:08.77	358.74	35.51	-49.3	-52.4	12.9	4.57e-05	0	57	0	911212544	60	5408
2026-01-04 08:24:09.75	358.47	35.35	-49.4	-52.4	12.9	4.95e-05	0	57	0	913309696	60	5417
2026-01-04 08:24:10.74	358.20	35.18	-49.5	-52.6	12.6	8.62e-05	0	57	0	914358272	60	5555
2026-01-04 08:24:11.74	357.94	35.01	-49.5	-52.6	12.6	1.14e-04	0	57	0	916455424	60	5566
2026-01-04 08:24:12.73	357.68	34.85	-49.5	-52.8	12.4	1.36e-04	0	57	0	918552576	61	5368
2026-01-04 08:24:13.72	357.42	34.68	-49.4	-52.6	12.6	1.45e-04	0	57	0	920649728	61	5249
2026-01-04 08:24:14.70	357.17	34.52	-49.6	-52.8	12.5	1.39e-04	0	57	0	921698304	61	5350
2026-01-04 08:24:15.69	356.91	34.35	-49.8	-53.2	12.0	2.14e-04	0	57	0	923795456	61	5605
2026-01-04 08:24:16.68	356.66	34.18	-49.9	-53.3	11.9	3.64e-04	0	57	0	925892608	61	5718
2026-01-04 08:24:17.66	356.42	34.02	-49.8	-53.2	12.1	3.05e-04	0	57	0	927989760	61	5602
2026-01-04 08:24:18.65	356.17	33.86	-50.0	-53.5	11.6	4.98e-04	0	57	0	929038336	61	5836
2026-01-04 08:24:19.64	355.93	33.69	-50.0	-53.6	11.5	7.84e-04	0	57	0	931135488	61	5886
2026-01-04 08:24:20.62	355.69	33.53	-50.1	-53.7	11.5	8.70e-04	0	57	0	933232640	62	5643
2026-01-04 08:24:21.62	355.45	33.36	-49.9	-53.2	11.9	5.20e-04	0	57	0	935329792	62	5332
2026-01-04 08:24:22.61	355.22	33.20	-49.8	-53.2	12.0	3.62e-04	0	57	0	937426944	62	5287
2026-01-04 08:24:23.59	354.99	33.04	-49.7	-53.1	12.2	2.41e-04	0	57	0	938475520	62	5231
2026-01-04 08:24:24.59	354.76	32.87	-49.8	-53.1	12.1	2.24e-04	0	57	0	940572672	62	5241
2026-01-04 08:24:25.57	354.53	32.71	-49.7	-52.9	12.3	2.59e-04	0	57	0	942669824	62	5132
2026-01-04 08:24:26.56	354.30	32.55	-49.5	-52.6	12.6	9.99e-05	0	57	0	944766976	62	4967
2026-01-04 08:24:27.55	354.08	32.39	-49.3	-52.3	13.0	6.40e-05	0	57	0	945815552	61	5043
2026-01-04 08:24:28.54	353.86	32.23	-49.2	-52.1	13.1	3.20e-05	0	57	0	947912704	61	4959
2026-01-04 08:24:29.53	353.64	32.06	-49.1	-51.9	13.4	2.05e-05	0	57	0	950009856	61	4839
2026-01-04 08:24:30.52	353.42	31.90	-49.1	-51.8	13.4	9.90e-06	0	57	0	952107008	61	4804
2026-01-04 08:24:31.52	353.21	31.74	-49.2	-52.1	13.1	2.05e-05	0	57	0	954204160	61	4955
2026-01-04 08:24:32.52	352.99	31.58	-49.2	-52.2	13.0	4.19e-05	0	57	0	955252736	61	5000
2026-01-04 08:24:33.50	352.78	31.42	-49.1	-52.0	13.2	2.89e-05	0	57	0	957349888	61	4881
2026-01-04 08:24:34.50	352.57	31.26	-49.2	-52.0	13.3	1.37e-05	0	57	0	959447040	61	4877
2026-01-04 08:24:35.48	352.37	31.10	-49.3	-52.3	12.9	2.74e-05	0	57	0	961544192	61	5050
2026-01-04 08:24:36.47	352.16	30.95	-49.3	-52.2	13.0	5.34e-05	0	57	0	962592768	61	5014
2026-01-04 08:24:37.46	351.96	30.79	-49.2	-52.1	13.0	2.44e-05	0	57	0	964689920	61	4980
2026-01-04 08:24:38.45	351.76	30.63	-49.2	-52.1	13.1	3.96e-05	0	57	0	966787072	61	4932
2026-01-04 08:24:39.45	351.56	30.47	-49.3	-52.2	12.9	2.82e-05	0	57	0	968884224	61	5030
2026-01-04 08:24:40.44	351.36	30.32	-49.3	-52.3	12.9	4.88e-05	0	57	0	969932800	61	5064
2026-01-04 08:24:41.43	351.17	30.16	-49.4	-52.4	12.8	4.57e-05	0	57	0	972029952	61	5101
2026-01-04 08:24:42.42	350.98	30.00	-49.2	-52.2	13.0	5.03e-05	0	57	0	974127104	61	5002
2026-01-04 08:24:43.40	350.79	29.85	-48.9	-51.6	13.5	1.44e-05	0	57	0	976224256	61	4700
2026-01-04 08:24:44.38	350.60	29.70	-48.8	-51.3	13.9	4.50e-06	0	57	0	978321408	60	4772
2026-01-04 08:24:45.37	350.42	29.54	-48.6	-51.1	14.1	2.20e-06	0	57	0	979369984	60	4678
2026-01-04 08:24:46.36	350.23	29.39	-48.7	-51.2	14.0	3.80e-06	0	57	0	981467136	60	4740
2026-01-04 08:24:47.36	350.04	29.24	-48.6	-51.2	14.1	1.50e-06	0	57	0	983564288	60	4707
2026-01-04 08:24:48.35	349.86	29.08	-48.6	-51.1	14.2	3.00e-06	0	57	0	985661440	60	4653
2026-01-04 08:24:49.34	349.68	28.93	-48.7	-51.2	13.9	1.50e-06	0	57	0	986710016	60	4759
2026-01-04 08:24:50.34	349.50	28.78	-48.9	-51.5	13.7	0.00e+00	0	57	0	988807168	60	4884
2026-01-04 08:24:51.33	349.33	28.63	-48.6	-51.1	14.1	2.20e-06	0	57	0	990904320	60	4672
2026-01-04 08:24:52.31	349.15	28.48	-48.7	-51.3	13.9	3.00e-06	0	57	0	993001472	60	4795
2026-01-04 08:24:53.31	348.98	28.33	-48.8	-51.3	13.8	7.60e-06	0	57	0	994050048	60	4809
2026-01-04 08:24:54.29	348.81	28.18	-48.7	-51.3	13.9	5.30e-06	0	57	0	996147200	60	4786
2026-01-04 08:24:55.28	348.64	28.03	-48.6	-51.1	14.1	2.20e-06	0	57	0	998244352	60	4658
2026-01-04 08:24:56.27	348.47	27.88	-48.5	-51.0	14.2	1.50e-06	0	57	0	1000341504	60	4603
2026-01-04 08:24:57.25	348.31	27.73	-48.4	-50.6	14.6	0.00e+00	0	57	0	1001390080	59	4698
2026-01-04 08:24:58.24	348.14	27.59	-48.3	-50.5	14.7	0.00e+00	0	57	0	1003487232	59	4630
2026-01-04 08:24:59.23	347.98	27.44	-48.3	-50.6	14.6	0.00e+00	0	57	0	1005584384	59	4655
2026-01-04 08:25:00.22	347.82	27.29	-48.5	-50.9	14.3	0.00e+00	0	57	0	1007681536	59	4815
2026-01-04 08:25:01.21	347.66	27.15	-48.5	-50.9	14.3	0.00e+00	0	57	0	1009778688	59	4821
2026-01-04 08:25:02.20	347.50	27.00	-48.5	-50.9	14.3	7.00e-07	0	57	0	1010827264	59	4838
2026-01-04 08:25:03.18	347.34	26.86	-48.5	-50.9	14.3	0.00e+00	0	57	0	1012924416	59	4833
2026-01-04 08:25:04.18	347.18	26.71	-48.5	-50.9	14.3	0.00e+00	0	57	0	1015021568	59	4864
2026-01-04 08:25:05.17	347.03	26.57	-48.5	-50.9	14.3	7.00e-07	0	57	0	1017118720	59	4854
2026-01-04 08:25:06.16	346.87	26.43	-48.6	-51.1	14.1	3.00e-06	0	57	0	1018167296	59	4944
2026-01-04 08:25:07.16	346.72	26.28	-48.6	-51.1	14.1	2.20e-06	0	57	0	1020264448	59	4932
2026-01-04 08:25:08.15	346.57	26.14	-48.8	-51.3	13.9	3.80e-06	0	57	0	1022361600	59	5047
2026-01-04 08:25:09.14	346.42	26.00	-48.6	-51.1	14.0	2.20e-06	0	57	0	1024458752	59	4982
2026-01-04 08:25:10.13	346.27	25.86	-48.7	-51.2	13.9	0.00e+00	0	57	0	1026555904	59	5030
2026-01-04 08:25:11.11	346.13	25.72	-48.8	-51.3	13.8	3.00e-06	0	57	0	1027604480	59	5092
2026-01-04 08:25:12.11	345.98	25.58	-48.8	-51.4	13.7	5.30e-06	0	57	0	1029701632	59	5155
2026-01-04 08:25:13.10	345.84	25.44	-48.7	-51.3	13.9	9.10e-06	0	57	0	1031798784	59	5063
2026-01-04 08:25:14.09	345.70	25.30	-48.9	-51.6	13.5	6.10e-06	0	57	0	1033895936	59	5259
2026-01-04 08:25:15.08	345.55	25.16	-48.6	-51.1	14.0	2.20e-06	0	57	0	1034944512	59	4950
2026-01-04 08:25:16.08	345.41	25.02	-48.4	-50.8	14.4	1.50e-06	0	57	0	1037041664	59	4761
2026-01-04 08:25:17.06	345.28	24.89	-48.2	-50.4	14.7	0.00e+00	0	57	0	1039138816	59	4584
2026-01-04 08:25:18.05	345.14	24.75	-48.1	-50.3	14.9	7.00e-07	0	57	0	1041235968	59	4506
2026-01-04 08:25:19.05	345.00	24.61	-48.1	-50.2	14.9	0.00e+00	0	57	0	1042284544	59	4489
2026-01-04 08:25:20.04	344.87	24.47	-47.9	-50.1	15.1	0.00e+00	0	57	0	1044381696	59	4402
2026-01-04 08:25:21.03	344.73	24.34	-47.9	-50.0	15.2	0.00e+00	0	57	0	1046478848	58	4616
2026-01-04 08:25:22.01	344.60	24.21	-47.7	-49.8	15.3	0.00e+00	0	57	0	1048576000	58	4539
2026-01-04 08:25:23.00	344.47	24.07	-47.8	-49.9	15.3	0.00e+00	0	57	0	1050673152	58	4557
2026-01-04 08:25:23.99	344.34	23.94	-47.8	-49.8	15.3	0.00e+00	0	57	0	1051721728	58	4527
2026-01-04 08:25:24.98	344.21	23.81	-47.8	-49.9	15.2	0.00e+00	0	57	0	1053818880	58	4570
2026-01-04 08:25:25.97	344.08	23.67	-47.8	-49.9	15.2	0.00e+00	0	57	0	1055916032	58	4558
2026-01-04 08:25:26.97	343.95	23.54	-48.0	-50.1	15.0	0.00e+00	0	57	0	1058013184	58	4689
2026-01-04 08:25:27.95	343.83	23.41	-48.1	-50.4	14.7	0.00e+00	0	57	0	1059061760	58	4815
2026-01-04 08:25:28.94	343.70	23.28	-48.0	-50.2	15.0	7.00e-07	0	57	0	1061158912	58	4711
2026-01-04 08:25:29.92	343.58	23.15	-48.1	-50.3	14.8	0.00e+00	0	57	0	1063256064	58	4778
2026-01-04 08:25:30.91	343.46	23.02	-48.3	-50.6	14.4	2.20e-06	0	57	0	1065353216	58	4983
2026-01-04 08:25:31.90	343.34	22.89	-48.2	-50.4	14.7	7.00e-07	0	57	0	1066401792	58	4835
2026-01-04 08:25:32.89	343.22	22.76	-48.1	-50.3	14.8	0.00e+00	0	57	0	1068498944	58	4791
2026-01-04 08:25:33.88	343.10	22.63	-48.2	-50.5	14.6	0.00e+00	0	57	0	1070596096	58	4897
2026-01-04 08:25:34.88	342.98	22.50	-48.1	-50.4	14.7	0.00e+00	0	57	0	1072693248	58	4826
2026-01-04 08:25:35.87	342.86	22.37	-48.2	-50.5	14.6	0.00e+00	0	57	0	1074790400	58	4876
2026-01-04 08:25:36.86	342.74	22.25	-48.3	-50.6	14.5	7.00e-07	0	57	0	1075838976	58	4954
2026-01-04 08:25:37.85	342.63	22.12	-48.5	-50.9	14.2	7.00e-07	0	57	0	1077936128	58	5129
2026-01-04 08:25:38.84	342.51	21.99	-48.3	-50.6	14.4	7.00e-07	0	57	0	1080033280	58	4962
2026-01-04 08:25:39.83	342.40	21.87	-48.1	-50.4	14.7	0.00e+00	0	57	0	1082130432	58	4825
2026-01-04 08:25:40.83	342.28	21.74	-48.2	-50.4	14.7	7.00e-07	0	57	0	1083179008	58	4823
2026-01-04 08:25:41.82	342.17	21.62	-48.1	-50.4	14.7	0.00e+00	0	57	0	1085276160	58	4818
2026-01-04 08:25:42.81	342.06	21.49	-48.2	-50.5	14.5	1.50e-06	0	57	0	1087373312	58	4906
2026-01-04 08:25:43.80	341.95	21.37	-48.4	-50.8	14.2	4.50e-06	0	57	0	1089470464	58	5068
2026-01-04 08:25:44.79	341.84	21.25	-48.4	-50.8	14.2	4.50e-06	0	57	0	1091567616	58	5071
2026-01-04 08:25:45.78	341.73	21.12	-48.4	-50.8	14.2	7.00e-07	0	57	0	1092616192	58	5090
2026-01-04 08:25:46.77	341.63	21.00	-48.5	-51.0	14.0	7.00e-07	0	57	0	1094713344	58	5191
2026-01-04 08:25:47.76	341.52	20.88	-48.3	-50.7	14.3	2.20e-06	0	57	0	1096810496	59	4722
2026-01-04 08:25:48.75	341.42	20.76	-48.0	-50.2	14.8	7.00e-07	0	57	0	1098907648	59	4479
2026-01-04 08:25:49.74	341.31	20.64	-48.0	-50.2	14.7	0.00e+00	0	57	0	1099956224	59	4466
2026-01-04 08:25:50.73	341.21	20.52	-48.2	-50.6	14.3	0.00e+00	0	57	0	1102053376	59	4689
2026-01-04 08:25:51.72	341.10	20.40	-48.6	-51.3	13.6	3.00e-06	0	57	0	1104150528	59	5044
2026-01-04 08:25:52.71	341.00	20.28	-48.7	-51.4	13.4	1.44e-05	0	57	0	1106247680	59	5120
2026-01-04 08:25:53.71	340.90	20.16	-48.9	-52.0	12.8	1.98e-05	0	57	0	1107296256	59	5466
2026-01-04 08:25:54.70	340.80	20.04	-49.2	-52.5	12.1	2.13e-04	0	57	0	1109393408	60	5487
2026-01-04 08:25:55.69	340.70	19.92	-49.3	-52.9	11.6	4.45e-04	0	57	0	1111490560	60	5766
2026-01-04 08:25:56.68	340.60	19.81	-49.4	-53.3	11.2	1.35e-03	0	57	0	1113587712	60	5997
2026-01-04 08:25:57.67	340.50	19.69	-49.4	-53.1	11.2	1.56e-03	0	57	0	1115684864	60	5893
2026-01-04 08:25:58.65	340.41	19.57	-49.2	-52.8	11.4	1.06e-03	0	57	0	1116733440	60	5719
2026-01-04 08:25:59.65	340.31	19.46	-49.0	-52.6	11.7	7.28e-04	0	57	0	1118830592	60	5561
2026-01-04 08:26:00.63	340.21	19.34	-48.9	-52.3	12.0	4.51e-04	0	57	0	1120927744	60	5387
2026-01-04 08:26:01.62	340.12	19.23	-48.9	-52.3	12.0	3.29e-04	0	57	0	1123024896	60	5358
2026-01-04 08:26:02.61	340.02	19.11	-48.9	-52.3	12.0	3.04e-04	0	57	0	1124073472	60	5372
2026-01-04 08:26:03.60	339.93	19.00	-49.0	-52.5	11.8	4.18e-04	0	57	0	1126170624	60	5504
2026-01-04 08:26:04.58	339.84	18.89	-49.2	-52.8	11.5	5.80e-04	0	57	0	1128267776	60	5674
2026-01-04 08:26:05.57	339.74	18.77	-49.0	-52.5	11.8	7.31e-04	0	57	0	1130364928	60	5519
2026-01-04 08:26:06.57	339.65	18.66	-48.7	-51.8	12.5	1.84e-04	0	57	0	1131413504	60	5100
2026-01-04 08:26:07.55	339.56	18.55	-48.6	-51.6	12.9	6.48e-05	0	57	0	1133510656	60	4929
2026-01-04 08:26:08.55	339.47	18.43	-48.5	-51.5	13.1	3.81e-05	0	57	0	1135607808	60	4871
2026-01-04 08:26:09.54	339.38	18.32	-48.5	-51.2	13.4	3.50e-05	0	57	0	1137704960	59	4988
2026-01-04 08:26:10.53	339.29	18.21	-48.3	-50.9	13.7	5.30e-06	0	57	0	1139802112	59	4840
2026-01-04 08:26:11.52	339.20	18.10	-48.4	-50.9	13.8	4.50e-06	0	57	0	1140850688	59	4852
2026-01-04 08:26:12.51	339.12	17.99	-48.3	-50.7	14.0	3.80e-06	0	57	0	1142947840	59	4758
2026-01-04 08:26:13.50	339.03	17.88	-47.9	-50.2	14.6	1.50e-06	0	57	0	1145044992	59	4459
2026-01-04 08:26:14.49	338.94	17.77	-47.8	-50.1	14.8	0.00e+00	0	57	0	1147142144	58	4656
2026-01-04 08:26:15.49	338.86	17.66	-48.0	-50.4	14.4	7.00e-07	0	57	0	1148190720	58	4840
2026-01-04 08:26:16.48	338.77	17.55	-48.2	-50.7	14.2	0.00e+00	0	57	0	1150287872	58	4990
2026-01-04 08:26:17.46	338.69	17.44	-48.3	-50.8	14.0	5.30e-06	0	57	0	1152385024	58	5051
2026-01-04 08:26:18.45	338.61	17.34	-48.1	-50.5	14.3	7.00e-07	0	57	0	1154482176	58	4892
2026-01-04 08:26:19.44	338.52	17.23	-48.0	-50.2	14.7	1.50e-06	0	57	0	1155530752	58	4719
2026-01-04 08:26:20.43	338.44	17.12	-48.0	-50.2	14.6	0.00e+00	0	57	0	1157627904	58	4751
2026-01-04 08:26:21.42	338.36	17.02	-48.2	-50.5	14.4	7.00e-07	0	57	0	1159725056	58	4921
2026-01-04 08:26:22.41	338.28	16.91	-48.4	-51.0	14.0	7.00e-07	0	57	0	1161822208	58	5160
2026-01-04 08:26:23.39	338.20	16.80	-48.2	-50.7	14.2	2.20e-06	0	57	0	1163919360	58	4987
2026-01-04 08:26:24.39	338.12	16.70	-48.2	-50.6	14.3	3.80e-06	0	57	0	1164967936	58	4975
2026-01-04 08:26:25.38	338.04	16.59	-48.2	-50.6	14.3	3.80e-06	0	57	0	1167065088	58	4968
2026-01-04 08:26:26.37	337.96	16.49	-48.2	-50.6	14.3	1.50e-06	0	57	0	1169162240	58	4943
2026-01-04 08:26:27.36	337.88	16.38	-48.2	-50.6	14.3	1.50e-06	0	57	0	1171259392	58	4960
2026-01-04 08:26:28.34	337.80	16.28	-48.2	-50.5	14.4	0.00e+00	0	57	0	1172307968	58	4918
2026-01-04 08:26:29.32	337.73	16.18	-48.3	-50.8	14.1	7.00e-07	0	57	0	1174405120	58	5053
2026-01-04 08:26:30.30	337.65	16.08	-48.5	-51.0	13.9	2.20e-06	0	57	0	1176502272	58	5177
2026-01-04 08:26:31.29	337.58	15.97	-48.2	-50.6	14.3	1.50e-06	0	57	0	1178599424	58	4965
2026-01-04 08:26:32.28	337.50	15.87	-48.1	-50.5	14.4	7.00e-07	0	57	0	1179648000	58	4878
2026-01-04 08:26:33.27	337.43	15.77	-48.1	-50.4	14.5	0.00e+00	0	57	0	1181745152	58	4835
2026-01-04 08:26:34.26	337.35	15.67	-48.2	-50.6	14.2	0.00e+00	0	57	0	1183842304	58	4981
2026-01-04 08:26:35.25	337.28	15.57	-48.3	-50.9	14.0	7.00e-07	0	57	0	1185939456	58	5106
2026-01-04 08:26:36.24	337.20	15.47	-48.4	-50.9	14.0	2.20e-06	0	57	0	1188036608	58	5137
2026-01-04 08:26:37.23	337.13	15.37	-48.5	-51.1	13.8	0.00e+00	0	57	0	1189085184	58	5219
2026-01-04 08:26:38.21	337.06	15.27	-48.5	-51.2	13.7	4.50e-06	0	57	0	1191182336	59	4995
2026-01-04 08:26:39.20	336.99	15.17	-48.6	-51.2	13.6	5.30e-06	0	57	0	1193279488	59	5034
2026-01-04 08:26:40.20	336.92	15.07	-48.6	-51.3	13.5	1.14e-05	0	57	0	1195376640	59	5081
2026-01-04 08:26:41.19	336.84	14.97	-48.7	-51.4	13.4	8.30e-06	0	57	0	1196425216	59	5147
2026-01-04 08:26:42.18	336.77	14.87	-48.9	-51.7	13.1	2.36e-05	0	57	0	1198522368	59	5295
2026-01-04 08:26:43.17	336.70	14.77	-48.7	-51.4	13.3	1.37e-05	0	57	0	1200619520	59	5155
2026-01-04 08:26:44.16	336.64	14.67	-48.6	-51.2	13.7	1.14e-05	0	57	0	1202716672	59	4990
2026-01-04 08:26:45.16	336.57	14.57	-48.5	-51.1	13.7	4.50e-06	0	57	0	1203765248	59	4974
2026-01-04 08:26:46.15	336.50	14.48	-48.6	-51.2	13.6	7.60e-06	0	57	0	1205862400	59	5002
2026-01-04 08:26:47.14	336.43	14.38	-48.6	-51.2	13.7	7.60e-06	0	57	0	1207959552	59	5009
2026-01-04 08:26:48.13	336.36	14.28	-48.6	-51.4	13.5	9.90e-06	0	57	0	1210056704	59	5106
2026-01-04 08:26:49.11	336.30	14.19	-48.6	-51.2	13.6	7.60e-06	0	57	0	1212153856	59	5041
2026-01-04 08:26:50.10	336.23	14.09	-48.5	-51.1	13.7	8.30e-06	0	57	0	1213202432	59	4948
2026-01-04 08:26:51.09	336.16	14.00	-48.6	-51.2	13.6	6.80e-06	0	57	0	1215299584	59	5021
2026-01-04 08:26:52.08	336.10	13.90	-48.5	-51.2	13.7	6.80e-06	0	57	0	1217396736	59	4995
2026-01-04 08:26:53.07	336.03	13.81	-48.6	-51.3	13.6	1.06e-05	0	57	0	1219493888	59	5048
2026-01-04 08:26:54.07	335.97	13.71	-48.8	-51.6	13.2	9.90e-06	0	57	0	1220542464	59	5272
2026-01-04 08:26:55.06	335.90	13.62	-48.8	-51.7	13.1	2.74e-05	0	57	0	1222639616	59	5284
2026-01-04 08:26:56.05	335.84	13.52	-48.8	-51.6	13.3	2.28e-05	0	57	0	1224736768	59	5221
2026-01-04 08:26:57.04	335.78	13.43	-48.8	-51.7	13.1	2.82e-05	0	57	0	1226833920	59	5296
2026-01-04 08:26:58.04	335.71	13.33	-49.0	-51.9	12.9	3.43e-05	0	57	0	1227882496	59	5448
2026-01-04 08:26:59.04	335.65	13.24	-48.8	-51.7	13.1	3.35e-05	0	57	0	1229979648	59	5327
2026-01-04 08:27:00.03	335.59	13.15	-48.8	-51.6	13.2	1.98e-05	0	57	0	1232076800	59	5247
2026-01-04 08:27:01.03	335.52	13.05	-48.8	-51.7	13.1	2.82e-05	0	57	0	1234173952	59	5289
