passes_logs/2026/01/04/R3.0SM8_Murmansk_STILSPACE/R3.0SM8_Murmansk_STILSPACE__20260104_113153_AQUA_rec.log

#Pass ID: 20260104_113153_AQUA
#Satellite: AQUA
#Configuration: AQUA
#almurnet v.1.7.20240730
#Start time: 2026-01-04 11:31:54

#Version: 2.2.20231116
#Station: R3.0SM8_Murmansk_STILSPACE
#Location: 33.092731 lon 68.902999 lat
#TLE: 1 27424U 02022A   25365.92641127  .00002078  00000+0  42628-3 0  9999
#TLE: 2 27424  98.4058 327.1196 0001962  94.7781 340.6230 14.61783896258835

#Time	Az	El	Level	Level2	SNR	BER	BlckErr	Temp	State	Recorded	gain1	gain2
2026-01-04 11:31:54.48	159.29	3.04	-54.3	-74.3	3.8	7.44e-01	0	50	0	0	71	36548
2026-01-04 11:31:55.46	159.30	3.11	-54.1	-74.1	3.8	7.46e-01	0	50	104	0	70	37810
2026-01-04 11:31:56.45	159.31	3.18	-54.1	-74.0	3.8	7.43e-01	0	50	104	0	70	37536
2026-01-04 11:31:57.44	159.33	3.25	-54.0	-73.9	3.8	7.45e-01	0	50	104	0	70	37021
2026-01-04 11:31:58.44	159.34	3.32	-53.8	-73.7	3.8	7.45e-01	0	51	104	0	70	36449
2026-01-04 11:31:59.43	159.35	3.38	-53.6	-73.5	3.8	7.46e-01	0	50	104	0	70	35593
2026-01-04 11:32:00.42	159.36	3.45	-53.0	-72.6	3.8	7.44e-01	0	51	104	0	69	33819
2026-01-04 11:32:01.41	159.37	3.52	-50.3	-69.5	3.8	7.43e-01	0	51	104	0	64	31749
2026-01-04 11:32:02.40	159.38	3.59	-50.2	-69.8	3.8	7.45e-01	0	51	104	0	63	34651
2026-01-04 11:32:03.39	159.40	3.66	-50.2	-69.8	3.8	7.45e-01	0	51	104	0	63	34488
2026-01-04 11:32:04.39	159.41	3.74	-50.2	-69.5	3.8	7.44e-01	0	51	104	0	63	33372
2026-01-04 11:32:05.39	159.42	3.81	-50.2	-69.0	3.8	7.47e-01	0	51	104	0	63	31770
2026-01-04 11:32:06.39	159.43	3.88	-50.2	-68.3	3.8	7.43e-01	0	51	104	0	63	29128
2026-01-04 11:32:07.37	159.44	3.95	-50.2	-67.1	3.9	7.38e-01	0	51	104	0	63	25382
2026-01-04 11:32:08.36	159.46	4.02	-50.1	-66.0	4.3	7.30e-01	0	51	104	0	63	22344
2026-01-04 11:32:09.36	159.47	4.09	-50.1	-64.8	4.2	7.16e-01	0	51	104	0	63	19537
2026-01-04 11:32:10.35	159.48	4.16	-50.1	-63.8	5.3	7.01e-01	0	51	0	0	63	17478
2026-01-04 11:32:11.34	159.49	4.24	-50.0	-63.2	5.8	6.88e-01	0	51	0	524288	63	16147
2026-01-04 11:32:12.33	159.50	4.31	-50.0	-62.8	6.0	6.83e-01	91	51	0	1572864	63	15453
2026-01-04 11:32:13.33	159.52	4.38	-50.0	-62.3	6.4	6.74e-01	94	51	0	3145728	63	14645
2026-01-04 11:32:14.32	159.53	4.45	-50.0	-62.1	6.6	6.71e-01	91	51	0	5242880	63	14272
2026-01-04 11:32:15.30	159.54	4.52	-50.0	-62.0	6.7	6.69e-01	91	51	0	6815744	63	14110
2026-01-04 11:32:16.29	159.55	4.60	-50.0	-62.2	6.6	6.72e-01	91	52	0	8912896	63	14392
2026-01-04 11:32:17.28	159.57	4.67	-50.0	-62.4	6.4	6.75e-01	92	52	0	10485760	63	14824
2026-01-04 11:32:18.27	159.58	4.74	-50.0	-62.9	6.0	6.83e-01	91	52	0	12058624	63	15634
2026-01-04 11:32:19.27	159.59	4.82	-50.0	-63.1	5.8	6.91e-01	25	52	0	13631488	63	16071
2026-01-04 11:32:20.26	159.60	4.89	-50.0	-63.4	5.7	6.93e-01	4	52	0	14680064	63	16535
2026-01-04 11:32:21.25	159.62	4.97	-50.0	-63.1	5.8	6.90e-01	72	52	0	16252928	63	16092
2026-01-04 11:32:22.23	159.63	5.04	-50.0	-63.5	4.2	7.29e-01	0	52	104	17301504	63	16723
2026-01-04 11:32:23.23	159.64	5.11	-50.0	-61.9	6.8	6.69e-01	91	52	0	1048576	63	13987
2026-01-04 11:32:24.21	159.66	5.19	-49.9	-60.8	7.8	6.50e-01	90	52	0	2621440	63	12335
2026-01-04 11:32:25.20	159.67	5.26	-49.8	-59.5	9.1	6.32e-01	0	52	0	4718592	63	10648
2026-01-04 11:32:26.19	159.68	5.34	-49.7	-57.9	11.0	6.18e-01	0	52	0	6291456	62	9384
2026-01-04 11:32:27.19	159.69	5.41	-49.6	-57.5	11.5	6.14e-01	0	52	0	8388608	62	8884
2026-01-04 11:32:28.17	159.71	5.49	-49.6	-57.5	11.4	6.15e-01	0	52	0	9961472	62	8912
2026-01-04 11:32:29.14	159.72	5.56	-49.5	-57.4	11.4	6.15e-01	0	52	0	12058624	62	8833
2026-01-04 11:32:30.12	159.73	5.64	-49.4	-56.1	13.0	6.09e-01	0	52	0	13631488	62	7582
2026-01-04 11:32:31.12	159.75	5.72	-49.6	-56.6	12.7	6.12e-01	0	52	0	15728640	62	8053
2026-01-04 11:32:32.11	159.76	5.79	-49.5	-55.9	13.5	6.09e-01	0	52	0	17301504	62	7389
2026-01-04 11:32:33.11	159.77	5.87	-49.4	-55.4	14.1	6.08e-01	0	52	0	19398656	62	6981
2026-01-04 11:32:34.10	159.79	5.95	-49.4	-55.4	14.2	6.06e-01	0	52	0	20971520	62	6974
2026-01-04 11:32:35.09	159.80	6.03	-49.8	-56.2	13.4	6.11e-01	0	52	0	23068672	62	7696
2026-01-04 11:32:36.08	159.81	6.10	-49.9	-56.6	13.2	6.09e-01	0	52	0	25165824	62	8072
2026-01-04 11:32:37.07	159.83	6.18	-50.3	-58.6	11.1	6.16e-01	0	52	0	26738688	62	10161
2026-01-04 11:32:38.07	159.84	6.26	-50.4	-57.8	12.1	6.14e-01	0	52	0	28835840	62	9230
2026-01-04 11:32:39.05	159.85	6.34	-50.3	-56.7	13.4	6.10e-01	0	52	0	30408704	62	8123
2026-01-04 11:32:40.04	159.87	6.42	-50.1	-55.4	15.1	6.06e-01	0	52	0	32505856	62	6980
2026-01-04 11:32:41.04	159.88	6.50	-49.8	-54.2	16.6	6.05e-01	0	52	0	34078720	62	6080
2026-01-04 11:32:42.02	159.90	6.57	-49.5	-53.2	17.8	6.06e-01	0	53	0	36175872	62	5429
2026-01-04 11:32:43.01	159.91	6.65	-49.2	-52.5	18.8	6.06e-01	0	53	0	37748736	62	5014
2026-01-04 11:32:44.00	159.92	6.73	-49.0	-52.0	19.5	6.05e-01	0	53	0	39845888	61	4987
2026-01-04 11:32:44.99	159.94	6.81	-49.0	-51.7	19.9	6.06e-01	0	53	0	41418752	61	4865
2026-01-04 11:32:45.98	159.95	6.89	-48.9	-51.6	20.2	6.08e-01	0	53	0	43515904	61	4788
2026-01-04 11:32:46.97	159.97	6.97	-49.3	-52.1	19.7	6.05e-01	0	53	0	45088768	61	5091
2026-01-04 11:32:47.96	159.98	7.06	-49.7	-52.8	19.1	6.06e-01	0	53	0	47185920	61	5493
2026-01-04 11:32:48.95	159.99	7.14	-49.5	-52.5	19.5	6.07e-01	0	53	0	49283072	61	5284
2026-01-04 11:32:49.94	160.01	7.22	-49.2	-51.9	20.1	6.07e-01	0	53	0	50855936	61	4941
2026-01-04 11:32:50.93	160.02	7.30	-48.9	-51.5	20.5	6.06e-01	0	53	0	52953088	61	4707
2026-01-04 11:32:51.92	160.04	7.38	-48.9	-51.4	20.7	6.06e-01	0	53	0	54525952	61	4677
2026-01-04 11:32:52.91	160.05	7.46	-48.9	-51.4	20.7	6.07e-01	0	53	0	56623104	61	4681
2026-01-04 11:32:53.90	160.07	7.55	-49.2	-51.8	20.3	6.07e-01	0	53	0	58195968	61	4909
2026-01-04 11:32:54.88	160.08	7.63	-49.0	-51.6	20.6	6.05e-01	0	53	0	60293120	61	4763
2026-01-04 11:32:55.88	160.10	7.71	-48.9	-51.3	20.9	6.07e-01	0	53	0	61865984	61	4639
2026-01-04 11:32:56.87	160.11	7.80	-48.8	-51.1	21.1	6.06e-01	0	53	0	63963136	61	4537
2026-01-04 11:32:57.85	160.13	7.88	-48.8	-51.1	21.1	6.05e-01	0	53	0	65536000	61	4542
2026-01-04 11:32:58.85	160.14	7.96	-48.9	-51.2	21.1	6.06e-01	0	53	0	67633152	61	4580
2026-01-04 11:32:59.83	160.16	8.05	-48.9	-51.3	21.0	6.07e-01	0	53	0	69730304	61	4601
2026-01-04 11:33:00.83	160.17	8.13	-48.9	-51.3	21.0	6.08e-01	0	53	0	71303168	61	4614
2026-01-04 11:33:01.81	160.19	8.22	-49.1	-51.6	20.8	6.05e-01	0	53	0	73400320	61	4780
2026-01-04 11:33:02.81	160.20	8.30	-49.0	-51.5	20.8	6.07e-01	0	53	0	74973184	61	4720
2026-01-04 11:33:03.80	160.22	8.39	-49.1	-51.6	20.7	6.08e-01	0	53	0	77070336	61	4812
2026-01-04 11:33:04.79	160.23	8.48	-49.0	-51.5	20.9	6.07e-01	0	53	0	78643200	61	4716
2026-01-04 11:33:05.78	160.25	8.56	-48.9	-51.2	21.1	6.05e-01	0	53	0	80740352	61	4577
2026-01-04 11:33:06.76	160.26	8.65	-48.8	-51.1	21.2	6.07e-01	0	53	0	82313216	61	4541
2026-01-04 11:33:07.76	160.28	8.74	-48.8	-51.2	21.2	6.06e-01	0	53	0	84410368	61	4547
2026-01-04 11:33:08.75	160.30	8.82	-48.8	-51.1	21.2	6.06e-01	0	53	0	85983232	61	4534
2026-01-04 11:33:09.74	160.31	8.91	-48.9	-51.2	21.2	6.06e-01	0	53	0	88080384	61	4588
2026-01-04 11:33:10.72	160.33	9.00	-48.9	-51.2	21.2	6.05e-01	0	54	0	89653248	61	4547
2026-01-04 11:33:11.71	160.34	9.09	-48.8	-51.0	21.3	6.06e-01	0	53	0	91750400	61	4493
2026-01-04 11:33:12.70	160.36	9.18	-48.7	-51.0	21.5	6.06e-01	0	53	0	93847552	61	4447
2026-01-04 11:33:13.69	160.38	9.27	-48.9	-51.2	21.2	6.05e-01	0	53	0	95420416	61	4546
2026-01-04 11:33:14.69	160.39	9.36	-48.9	-51.3	21.1	6.09e-01	0	54	0	97517568	61	4615
2026-01-04 11:33:15.68	160.41	9.45	-49.0	-51.4	21.0	6.07e-01	0	54	0	99090432	61	4663
2026-01-04 11:33:16.68	160.43	9.54	-49.0	-51.3	21.1	6.07e-01	0	54	0	101187584	61	4620
2026-01-04 11:33:17.67	160.44	9.63	-49.0	-51.3	21.1	6.07e-01	0	54	0	102760448	61	4630
2026-01-04 11:33:18.65	160.46	9.72	-49.0	-51.4	21.0	6.07e-01	0	53	0	104857600	61	4679
2026-01-04 11:33:19.64	160.47	9.81	-49.0	-51.3	21.1	6.06e-01	0	54	0	106430464	61	4639
2026-01-04 11:33:20.63	160.49	9.90	-48.9	-51.2	21.3	6.08e-01	0	53	0	108527616	61	4557
2026-01-04 11:33:21.62	160.51	9.99	-48.8	-51.0	21.4	6.05e-01	0	54	0	110100480	61	4474
2026-01-04 11:33:22.61	160.53	10.08	-48.8	-51.0	21.5	6.06e-01	0	54	0	112197632	61	4468
2026-01-04 11:33:23.61	160.54	10.18	-48.9	-51.1	21.4	6.09e-01	0	54	0	114294784	61	4526
2026-01-04 11:33:24.59	160.56	10.27	-49.0	-51.3	21.2	6.06e-01	0	54	0	115867648	61	4648
2026-01-04 11:33:25.58	160.58	10.36	-49.0	-51.3	21.2	6.08e-01	0	54	0	117964800	61	4602
2026-01-04 11:33:26.58	160.59	10.46	-48.7	-50.9	21.6	6.05e-01	0	54	0	119537664	61	4417
2026-01-04 11:33:27.57	160.61	10.55	-48.5	-50.6	21.9	6.05e-01	0	54	0	121634816	60	4517
2026-01-04 11:33:28.56	160.63	10.65	-48.3	-50.3	22.2	6.06e-01	0	54	0	123207680	60	4371
2026-01-04 11:33:29.55	160.65	10.74	-48.2	-50.2	22.3	6.05e-01	0	54	0	125304832	60	4326
2026-01-04 11:33:30.53	160.66	10.84	-48.2	-50.2	22.3	6.05e-01	0	54	0	126877696	60	4305
2026-01-04 11:33:31.52	160.68	10.93	-48.3	-50.2	22.3	6.06e-01	0	54	0	128974848	60	4327
2026-01-04 11:33:32.51	160.70	11.03	-48.3	-50.3	22.2	6.06e-01	0	54	0	130547712	60	4381
2026-01-04 11:33:33.50	160.72	11.13	-48.4	-50.4	22.2	6.07e-01	0	54	0	132644864	60	4399
2026-01-04 11:33:34.49	160.74	11.23	-48.2	-50.2	22.3	6.06e-01	0	54	0	134217728	60	4308
2026-01-04 11:33:35.48	160.76	11.32	-48.2	-50.1	22.4	6.06e-01	0	54	0	136314880	60	4276
2026-01-04 11:33:36.47	160.77	11.42	-48.6	-50.6	22.3	6.06e-01	0	54	0	137887744	59	4778
2026-01-04 11:33:37.46	160.79	11.52	-48.6	-50.6	22.4	6.06e-01	0	54	0	139984896	59	4767
2026-01-04 11:33:38.45	160.81	11.62	-48.6	-50.6	22.3	6.07e-01	0	54	0	142082048	59	4769
2026-01-04 11:33:39.44	160.83	11.72	-48.5	-50.5	22.4	6.06e-01	0	54	0	143654912	59	4708
2026-01-04 11:33:40.42	160.85	11.82	-48.5	-50.5	22.4	6.07e-01	0	54	0	145752064	59	4719
2026-01-04 11:33:41.41	160.87	11.92	-48.6	-50.5	22.4	6.04e-01	0	54	0	147324928	59	4754
2026-01-04 11:33:42.40	160.89	12.02	-48.7	-50.8	22.2	6.07e-01	0	54	0	149422080	59	4875
2026-01-04 11:33:43.40	160.90	12.12	-48.8	-50.9	22.1	6.06e-01	0	54	0	150994944	59	4963
2026-01-04 11:33:44.38	160.92	12.22	-48.8	-50.9	22.0	6.07e-01	0	54	0	153092096	59	4956
2026-01-04 11:33:45.37	160.94	12.32	-48.9	-51.0	22.0	6.06e-01	0	54	0	154664960	59	4993
2026-01-04 11:33:46.36	160.96	12.43	-48.6	-50.7	21.9	6.06e-01	0	54	0	156762112	60	4580
2026-01-04 11:33:47.35	160.98	12.53	-48.7	-50.8	21.8	6.05e-01	0	54	0	158334976	60	4628
2026-01-04 11:33:48.34	161.00	12.63	-48.6	-50.7	22.0	6.05e-01	0	54	0	160432128	60	4556
2026-01-04 11:33:49.33	161.02	12.74	-48.5	-50.5	22.1	6.06e-01	0	54	0	162529280	60	4479
2026-01-04 11:33:50.32	161.04	12.84	-48.5	-50.6	22.1	6.08e-01	0	54	0	164102144	60	4497
2026-01-04 11:33:51.31	161.06	12.95	-48.6	-50.6	22.0	6.04e-01	0	54	0	166199296	60	4539
2026-01-04 11:33:52.29	161.08	13.05	-48.7	-50.8	21.9	6.07e-01	0	54	0	167772160	60	4605
2026-01-04 11:33:53.29	161.10	13.16	-48.5	-50.4	22.2	6.07e-01	0	54	0	169869312	60	4441
2026-01-04 11:33:54.28	161.12	13.27	-48.3	-50.3	22.4	6.06e-01	0	55	0	171442176	60	4341
2026-01-04 11:33:55.28	161.14	13.38	-48.3	-50.2	22.5	6.07e-01	0	55	0	173539328	60	4309
2026-01-04 11:33:56.26	161.16	13.48	-48.3	-50.3	22.4	6.06e-01	0	54	0	175112192	60	4344
2026-01-04 11:33:57.25	161.19	13.59	-48.4	-50.4	22.3	6.05e-01	0	54	0	177209344	60	4425
2026-01-04 11:33:58.25	161.21	13.70	-48.6	-50.6	22.1	6.07e-01	0	54	0	178782208	60	4507
2026-01-04 11:33:59.24	161.23	13.81	-48.5	-50.6	22.1	6.05e-01	0	54	0	180879360	60	4494
2026-01-04 11:34:00.23	161.25	13.92	-48.5	-50.5	22.2	6.06e-01	0	54	0	182976512	60	4487
2026-01-04 11:34:01.22	161.27	14.03	-48.6	-50.6	22.1	6.06e-01	0	55	0	184549376	60	4510
2026-01-04 11:34:02.21	161.29	14.14	-48.7	-50.7	22.0	6.05e-01	0	54	0	186646528	60	4581
2026-01-04 11:34:03.20	161.31	14.25	-48.5	-50.4	22.3	6.06e-01	0	55	0	188219392	60	4438
2026-01-04 11:34:04.19	161.34	14.37	-48.3	-50.3	22.4	6.07e-01	0	55	0	190316544	60	4347
2026-01-04 11:34:05.18	161.36	14.48	-48.3	-50.2	22.5	6.05e-01	0	55	0	191889408	60	4317
2026-01-04 11:34:06.17	161.38	14.59	-48.3	-50.2	22.5	6.05e-01	0	55	0	193986560	60	4320
2026-01-04 11:34:07.17	161.40	14.71	-48.4	-50.4	22.3	6.05e-01	0	55	0	195559424	60	4421
2026-01-04 11:34:08.17	161.43	14.82	-48.2	-50.1	22.6	6.06e-01	0	54	0	197656576	60	4261
2026-01-04 11:34:09.15	161.45	14.94	-48.4	-50.3	22.8	6.06e-01	0	55	0	199229440	59	4626
2026-01-04 11:34:10.15	161.47	15.05	-48.6	-50.5	22.5	6.06e-01	0	55	0	201326592	59	4754
2026-01-04 11:34:11.13	161.49	15.17	-48.4	-50.2	22.8	6.07e-01	0	55	0	203423744	59	4596
2026-01-04 11:34:12.12	161.52	15.29	-48.3	-50.1	23.0	6.06e-01	0	55	0	204996608	59	4512
2026-01-04 11:34:13.11	161.54	15.40	-48.2	-50.0	23.1	6.04e-01	0	55	0	207093760	59	4461
2026-01-04 11:34:14.10	161.56	15.52	-48.3	-50.2	22.9	6.07e-01	0	55	0	208666624	59	4549
2026-01-04 11:34:15.09	161.59	15.64	-48.4	-50.2	22.6	6.07e-01	0	55	0	210763776	59	4597
2026-01-04 11:34:16.08	161.61	15.76	-48.3	-50.1	23.0	6.06e-01	0	55	0	212336640	59	4536
2026-01-04 11:34:17.08	161.63	15.88	-48.3	-50.1	23.0	6.06e-01	0	55	0	214433792	59	4542
2026-01-04 11:34:18.07	161.66	16.00	-48.4	-50.2	22.9	6.08e-01	0	55	0	216006656	59	4566
2026-01-04 11:34:19.06	161.68	16.12	-48.3	-50.2	22.9	6.09e-01	0	55	0	218103808	59	4546
2026-01-04 11:34:20.06	161.71	16.25	-48.4	-50.2	22.9	6.05e-01	0	55	0	219676672	59	4583
2026-01-04 11:34:21.05	161.73	16.37	-48.3	-50.2	23.0	6.07e-01	0	55	0	221773824	59	4546
2026-01-04 11:34:22.04	161.76	16.49	-48.5	-50.3	22.8	6.07e-01	0	55	0	223870976	59	4625
2026-01-04 11:34:23.04	161.78	16.62	-48.7	-50.6	22.5	6.09e-01	0	55	0	225443840	59	4801
2026-01-04 11:34:24.03	161.81	16.74	-48.4	-50.3	22.8	6.05e-01	0	55	0	227540992	59	4615
2026-01-04 11:34:25.03	161.83	16.87	-48.3	-50.1	23.0	6.07e-01	0	55	0	229113856	59	4508
2026-01-04 11:34:26.02	161.86	17.00	-48.2	-49.9	23.2	6.07e-01	0	55	0	231211008	59	4434
2026-01-04 11:34:27.01	161.89	17.12	-48.2	-49.9	23.2	6.07e-01	0	55	0	232783872	59	4414
2026-01-04 11:34:28.00	161.91	17.25	-48.1	-49.8	23.3	6.07e-01	0	55	0	234881024	59	4386
2026-01-04 11:34:28.98	161.94	17.38	-48.1	-49.8	23.3	6.08e-01	0	55	0	236453888	59	4364
2026-01-04 11:34:29.97	161.96	17.51	-48.2	-49.9	23.2	6.06e-01	0	55	0	238551040	59	4422
2026-01-04 11:34:30.96	161.99	17.64	-48.1	-49.8	23.3	6.05e-01	0	55	0	240123904	59	4376
2026-01-04 11:34:31.95	162.02	17.77	-48.1	-49.8	23.3	6.06e-01	0	55	0	242221056	59	4364
2026-01-04 11:34:32.94	162.04	17.90	-48.1	-49.8	23.3	6.05e-01	0	55	0	244318208	59	4375
2026-01-04 11:34:33.93	162.07	18.03	-48.2	-49.9	23.3	6.05e-01	0	55	0	245891072	59	4427
2026-01-04 11:34:34.93	162.10	18.17	-48.2	-50.0	23.2	6.05e-01	0	55	0	247988224	59	4453
2026-01-04 11:34:35.92	162.13	18.30	-48.2	-50.0	23.2	6.07e-01	0	55	0	249561088	59	4472
2026-01-04 11:34:36.90	162.15	18.43	-48.3	-50.1	23.1	6.07e-01	0	55	0	251658240	59	4528
2026-01-04 11:34:37.89	162.18	18.57	-48.5	-50.3	22.9	6.08e-01	0	55	0	253231104	59	4625
2026-01-04 11:34:38.89	162.21	18.71	-48.3	-50.1	23.0	6.07e-01	0	55	0	255328256	59	4543
2026-01-04 11:34:39.88	162.24	18.84	-48.3	-50.1	23.1	6.06e-01	0	55	0	256901120	59	4521
2026-01-04 11:34:40.87	162.27	18.98	-48.4	-50.2	23.0	6.05e-01	0	55	0	258998272	59	4592
2026-01-04 11:34:41.86	162.30	19.12	-48.4	-50.2	23.0	6.07e-01	0	55	0	260571136	59	4560
2026-01-04 11:34:42.85	162.33	19.26	-48.4	-50.2	23.0	6.05e-01	0	55	0	262668288	59	4579
2026-01-04 11:34:43.85	162.36	19.40	-48.6	-50.5	22.8	6.06e-01	0	55	0	264765440	59	4717
2026-01-04 11:34:44.83	162.39	19.54	-48.5	-50.3	22.9	6.05e-01	0	55	0	266338304	59	4633
2026-01-04 11:34:45.82	162.42	19.68	-48.4	-50.2	23.1	6.06e-01	0	55	0	267911168	59	4548
2026-01-04 11:34:46.81	162.45	19.83	-48.3	-50.0	23.2	6.05e-01	0	55	0	270008320	59	4484
2026-01-04 11:34:47.81	162.48	19.97	-48.3	-50.1	23.1	6.08e-01	0	55	0	272105472	59	4514
2026-01-04 11:34:48.80	162.51	20.12	-48.4	-50.2	23.0	6.06e-01	0	55	0	273678336	59	4590
2026-01-04 11:34:49.80	162.54	20.27	-48.3	-50.1	23.1	6.06e-01	0	55	0	275775488	59	4528
2026-01-04 11:34:50.79	162.57	20.41	-48.2	-50.0	23.3	6.05e-01	0	55	0	277348352	59	4466
2026-01-04 11:34:51.79	162.60	20.56	-48.3	-50.1	23.2	6.07e-01	0	55	0	279445504	59	4502
2026-01-04 11:34:52.79	162.64	20.71	-48.5	-50.3	23.0	6.07e-01	0	55	0	281542656	59	4604
2026-01-04 11:34:53.78	162.67	20.86	-48.4	-50.2	23.0	6.06e-01	0	56	0	283115520	59	4582
2026-01-04 11:34:54.78	162.70	21.01	-48.6	-50.5	22.8	6.04e-01	0	55	0	285212672	59	4713
2026-01-04 11:34:55.76	162.73	21.16	-48.6	-50.5	22.8	6.08e-01	0	55	0	286785536	59	4738
2026-01-04 11:34:56.76	162.77	21.32	-48.7	-50.6	22.7	6.08e-01	0	55	0	288882688	59	4771
2026-01-04 11:34:57.75	162.80	21.47	-48.8	-50.7	22.6	6.06e-01	0	55	0	290455552	59	4833
2026-01-04 11:34:58.74	162.84	21.63	-48.7	-50.7	22.6	6.07e-01	0	55	0	292552704	59	4824
2026-01-04 11:34:59.73	162.87	21.78	-48.7	-50.5	22.7	6.06e-01	0	55	0	294125568	59	4756
2026-01-04 11:35:00.72	162.90	21.94	-48.7	-50.6	22.7	6.07e-01	0	55	0	296222720	59	4767
2026-01-04 11:35:01.72	162.94	22.10	-48.8	-50.7	22.5	6.07e-01	0	55	0	297795584	59	4865
2026-01-04 11:35:02.70	162.97	22.26	-48.7	-50.6	22.7	6.05e-01	0	55	0	299892736	59	4803
2026-01-04 11:35:03.68	163.01	22.41	-48.6	-50.4	22.9	6.05e-01	0	55	0	301989888	59	4679
2026-01-04 11:35:04.67	163.04	22.57	-48.5	-50.3	23.0	6.06e-01	0	55	0	303562752	59	4604
2026-01-04 11:35:05.66	163.08	22.74	-48.5	-50.3	23.0	6.07e-01	0	55	0	305135616	59	4616
2026-01-04 11:35:06.65	163.12	22.90	-48.5	-50.3	23.0	6.06e-01	0	55	0	307232768	59	4599
2026-01-04 11:35:07.64	163.15	23.06	-48.5	-50.3	23.0	6.05e-01	0	55	0	309329920	59	4647
2026-01-04 11:35:08.63	163.19	23.23	-48.5	-50.3	23.0	6.07e-01	0	56	0	310902784	59	4606
2026-01-04 11:35:09.62	163.23	23.40	-48.4	-50.2	23.1	6.05e-01	0	55	0	312999936	59	4573
2026-01-04 11:35:10.61	163.27	23.56	-48.4	-50.2	23.1	6.04e-01	0	56	0	314572800	59	4579
2026-01-04 11:35:11.60	163.31	23.73	-48.5	-50.3	23.0	6.08e-01	0	56	0	316669952	59	4628
2026-01-04 11:35:12.58	163.34	23.90	-48.5	-50.4	22.9	6.06e-01	0	56	0	318242816	59	4657
2026-01-04 11:35:13.57	163.38	24.07	-48.5	-50.4	23.0	6.06e-01	0	55	0	320339968	59	4654
2026-01-04 11:35:14.56	163.42	24.25	-48.6	-50.5	22.8	6.08e-01	0	55	0	321912832	59	4725
2026-01-04 11:35:15.55	163.46	24.42	-48.8	-50.7	22.6	6.04e-01	0	56	0	324009984	59	4859
2026-01-04 11:35:16.53	163.50	24.59	-48.4	-50.3	22.7	6.07e-01	0	55	0	325582848	60	4361
2026-01-04 11:35:17.52	163.54	24.77	-48.3	-50.1	22.9	6.06e-01	0	56	0	327680000	60	4263
2026-01-04 11:35:18.51	163.59	24.95	-48.2	-50.0	23.0	6.07e-01	0	56	0	329252864	60	4203
2026-01-04 11:35:19.50	163.63	25.13	-48.6	-50.4	23.0	6.07e-01	0	55	0	331350016	59	4675
2026-01-04 11:35:20.49	163.67	25.31	-48.6	-50.5	22.9	6.07e-01	0	55	0	333447168	59	4733
2026-01-04 11:35:21.49	163.71	25.49	-48.7	-50.5	22.8	6.07e-01	0	56	0	335020032	59	4755
2026-01-04 11:35:22.48	163.76	25.67	-48.6	-50.5	22.9	6.07e-01	0	56	0	337117184	59	4731
2026-01-04 11:35:23.48	163.80	25.86	-48.7	-50.6	22.7	6.07e-01	0	55	0	338690048	59	4795
2026-01-04 11:35:24.47	163.84	26.04	-48.7	-50.6	22.7	6.05e-01	0	55	0	340787200	59	4795
2026-01-04 11:35:25.46	163.89	26.23	-48.5	-50.3	23.0	6.07e-01	0	56	0	342360064	59	4629
2026-01-04 11:35:26.45	163.93	26.42	-48.4	-50.1	23.2	6.07e-01	0	56	0	344457216	59	4538
2026-01-04 11:35:27.44	163.98	26.61	-48.4	-50.1	23.2	6.07e-01	0	56	0	346030080	59	4532
2026-01-04 11:35:28.42	164.02	26.80	-48.3	-50.1	23.3	6.06e-01	0	56	0	348127232	59	4513
2026-01-04 11:35:29.40	164.07	26.99	-48.3	-50.0	23.3	6.05e-01	0	56	0	349700096	59	4493
2026-01-04 11:35:30.38	164.12	27.18	-48.4	-50.1	23.2	6.07e-01	0	56	0	351797248	59	4540
2026-01-04 11:35:31.37	164.17	27.38	-48.4	-50.1	23.2	6.10e-01	0	56	0	353370112	59	4535
2026-01-04 11:35:32.35	164.21	27.57	-48.2	-49.8	23.5	6.04e-01	0	56	0	355467264	59	4387
2026-01-04 11:35:33.34	164.26	27.77	-48.0	-49.6	23.7	6.06e-01	0	56	0	357564416	59	4284
2026-01-04 11:35:34.33	164.31	27.97	-48.0	-49.6	23.7	6.07e-01	0	56	0	359137280	59	4288
2026-01-04 11:35:35.32	164.36	28.17	-48.0	-49.7	23.6	6.06e-01	0	56	0	361234432	59	4294
2026-01-04 11:35:36.31	164.41	28.37	-47.9	-49.6	23.8	6.06e-01	0	56	0	362807296	59	4247
2026-01-04 11:35:37.30	164.46	28.58	-48.0	-49.6	23.7	6.04e-01	0	56	0	364904448	59	4282
2026-01-04 11:35:38.28	164.51	28.78	-48.1	-49.7	23.6	6.05e-01	0	56	0	366477312	59	4326
2026-01-04 11:35:39.27	164.57	28.99	-47.9	-49.6	23.8	6.07e-01	0	56	0	368574464	59	4251
2026-01-04 11:35:40.26	164.62	29.20	-47.9	-49.6	23.8	6.05e-01	0	56	0	370147328	59	4245
2026-01-04 11:35:41.25	164.67	29.41	-48.0	-49.7	23.7	6.07e-01	0	56	0	372244480	59	4295
2026-01-04 11:35:42.24	164.73	29.62	-48.1	-49.8	23.6	6.05e-01	0	56	0	373817344	59	4369
2026-01-04 11:35:43.24	164.78	29.84	-48.1	-49.8	23.6	6.06e-01	0	56	0	375914496	59	4355
2026-01-04 11:35:44.22	164.84	30.06	-48.1	-49.7	23.6	6.07e-01	0	56	0	377487360	59	4327
2026-01-04 11:35:45.21	164.90	30.27	-48.1	-49.8	23.6	6.07e-01	0	56	0	379584512	59	4366
2026-01-04 11:35:46.20	164.95	30.49	-48.2	-49.9	23.5	6.08e-01	0	56	0	381681664	59	4400
2026-01-04 11:35:47.19	165.01	30.72	-48.1	-49.8	23.6	6.06e-01	0	56	0	383254528	59	4368
2026-01-04 11:35:48.18	165.07	30.94	-48.2	-49.8	23.6	6.05e-01	0	56	0	384827392	59	4383
2026-01-04 11:35:49.16	165.13	31.16	-48.2	-49.9	23.5	6.05e-01	0	56	0	386924544	59	4423
2026-01-04 11:35:50.16	165.19	31.39	-48.5	-50.3	23.0	6.07e-01	0	56	0	389021696	59	4633
2026-01-04 11:35:51.15	165.25	31.62	-48.3	-50.0	23.4	6.06e-01	0	56	0	390594560	59	4457
2026-01-04 11:35:52.14	165.32	31.85	-48.1	-49.7	23.7	6.04e-01	0	56	0	392691712	59	4318
2026-01-04 11:35:53.13	165.38	32.08	-48.0	-49.6	23.8	6.06e-01	0	56	0	394264576	59	4282
2026-01-04 11:35:54.13	165.44	32.32	-48.2	-49.9	23.5	6.07e-01	0	56	0	396361728	59	4401
2026-01-04 11:35:55.12	165.51	32.56	-48.3	-50.0	23.4	6.06e-01	0	56	0	397934592	59	4455
2026-01-04 11:35:56.11	165.57	32.80	-48.3	-50.1	23.4	6.07e-01	0	56	0	400031744	59	4506
2026-01-04 11:35:57.11	165.64	33.04	-48.4	-50.2	23.3	6.06e-01	0	56	0	401604608	59	4547
2026-01-04 11:35:58.10	165.71	33.28	-48.5	-50.3	23.1	6.07e-01	0	56	0	403701760	59	4640
2026-01-04 11:35:59.09	165.78	33.53	-48.4	-50.2	23.3	6.05e-01	0	56	0	405798912	59	4556
2026-01-04 11:36:00.09	165.85	33.78	-48.6	-50.4	23.0	6.06e-01	0	56	0	407371776	59	4687
2026-01-04 11:36:01.07	165.92	34.02	-48.6	-50.5	23.0	6.04e-01	0	56	0	409468928	59	4715
2026-01-04 11:36:02.05	165.99	34.27	-48.8	-50.7	22.8	6.06e-01	0	56	0	411041792	59	4825
2026-01-04 11:36:03.04	166.06	34.52	-48.7	-50.6	22.5	6.07e-01	0	56	0	413138944	60	4545
2026-01-04 11:36:04.03	166.14	34.78	-49.0	-51.1	22.1	6.05e-01	0	56	0	414711808	60	4769
2026-01-04 11:36:05.01	166.21	35.03	-48.8	-50.7	22.4	6.07e-01	0	56	0	416808960	60	4576
2026-01-04 11:36:05.99	166.29	35.29	-48.7	-50.6	22.6	6.07e-01	0	56	0	418381824	60	4502
2026-01-04 11:36:06.99	166.36	35.56	-48.8	-50.7	22.5	6.05e-01	0	56	0	420478976	60	4575
2026-01-04 11:36:07.97	166.44	35.82	-48.9	-50.9	22.2	6.06e-01	0	56	0	422051840	60	4693
2026-01-04 11:36:08.96	166.52	36.08	-48.9	-50.9	22.3	6.06e-01	0	56	0	424148992	60	4659
2026-01-04 11:36:09.96	166.60	36.35	-49.1	-51.2	22.0	6.05e-01	0	56	0	425721856	60	4841
2026-01-04 11:36:10.95	166.69	36.63	-49.2	-51.3	21.9	6.07e-01	0	56	0	427819008	60	4899
2026-01-04 11:36:11.94	166.77	36.90	-49.5	-51.8	21.4	6.07e-01	0	56	0	429916160	61	4885
2026-01-04 11:36:12.93	166.86	37.17	-49.5	-51.7	21.4	6.07e-01	0	56	0	431489024	61	4868
2026-01-04 11:36:13.93	166.94	37.46	-49.6	-51.8	21.4	6.07e-01	0	56	0	433586176	61	4905
2026-01-04 11:36:14.92	167.03	37.74	-49.8	-52.2	21.0	6.05e-01	0	56	0	435159040	61	5118
2026-01-04 11:36:15.91	167.12	38.02	-49.9	-52.3	20.9	6.05e-01	0	56	0	437256192	61	5198
2026-01-04 11:36:16.89	167.21	38.30	-50.1	-52.6	20.6	6.06e-01	0	56	0	438829056	62	5089
2026-01-04 11:36:17.88	167.31	38.59	-50.0	-52.5	20.7	6.08e-01	0	56	0	440926208	62	5009
2026-01-04 11:36:18.87	167.40	38.88	-49.9	-52.3	20.9	6.06e-01	0	56	0	442499072	62	4886
2026-01-04 11:36:19.86	167.50	39.17	-49.9	-52.4	20.9	6.07e-01	0	56	0	444596224	62	4931
2026-01-04 11:36:20.85	167.59	39.47	-49.9	-52.4	20.9	6.07e-01	0	56	0	446169088	62	4929
2026-01-04 11:36:21.84	167.69	39.77	-50.1	-52.7	20.6	6.06e-01	0	56	0	448266240	62	5112
2026-01-04 11:36:22.82	167.79	40.06	-50.0	-52.5	20.8	6.04e-01	0	56	0	449839104	62	4989
2026-01-04 11:36:23.81	167.90	40.37	-49.7	-52.1	21.1	6.07e-01	0	56	0	451936256	62	4773
2026-01-04 11:36:24.80	168.00	40.67	-49.3	-51.5	21.7	6.06e-01	0	56	0	454033408	62	4459
2026-01-04 11:36:25.79	168.11	40.98	-49.1	-51.2	22.0	6.04e-01	0	56	0	455606272	61	4549
2026-01-04 11:36:26.77	168.22	41.29	-48.9	-50.9	22.2	6.05e-01	0	56	0	457703424	61	4434
2026-01-04 11:36:27.76	168.33	41.60	-48.9	-50.9	22.3	6.04e-01	0	56	0	459276288	61	4425
2026-01-04 11:36:28.75	168.44	41.92	-48.7	-50.6	22.5	6.09e-01	0	56	0	461373440	61	4278
2026-01-04 11:36:29.74	168.56	42.24	-48.6	-50.5	22.7	6.04e-01	0	56	0	462946304	60	4444
2026-01-04 11:36:30.73	168.68	42.56	-48.4	-50.3	22.9	6.05e-01	0	56	0	465043456	60	4350
2026-01-04 11:36:31.72	168.80	42.89	-48.5	-50.3	22.9	6.07e-01	0	56	0	466616320	60	4381
2026-01-04 11:36:32.71	168.92	43.21	-48.7	-50.6	22.6	6.06e-01	0	56	0	468713472	60	4523
2026-01-04 11:36:33.70	169.04	43.54	-48.6	-50.5	22.6	6.07e-01	0	56	0	470286336	60	4487
2026-01-04 11:36:34.69	169.17	43.88	-48.5	-50.3	23.1	6.07e-01	0	56	0	472383488	59	4617
2026-01-04 11:36:35.68	169.30	44.21	-48.2	-49.9	23.6	6.07e-01	0	56	0	474480640	59	4410
2026-01-04 11:36:36.67	169.44	44.55	-48.4	-50.1	23.5	6.07e-01	0	56	0	476053504	59	4502
2026-01-04 11:36:37.65	169.57	44.89	-48.2	-49.9	23.5	6.06e-01	0	56	0	478150656	59	4429
2026-01-04 11:36:38.64	169.71	45.24	-48.1	-49.8	23.7	6.06e-01	0	56	0	479723520	59	4343
2026-01-04 11:36:39.64	169.85	45.59	-48.4	-50.1	23.5	6.05e-01	0	56	0	481820672	59	4508
2026-01-04 11:36:40.62	170.00	45.94	-48.2	-49.9	23.6	6.06e-01	0	56	0	483393536	59	4406
2026-01-04 11:36:41.61	170.14	46.29	-48.1	-49.8	23.7	6.06e-01	0	56	0	485490688	59	4354
2026-01-04 11:36:42.60	170.30	46.65	-48.4	-50.1	23.4	6.07e-01	0	56	0	487063552	59	4533
2026-01-04 11:36:43.58	170.45	47.01	-48.3	-49.9	23.5	6.06e-01	0	56	0	489160704	59	4431
2026-01-04 11:36:44.57	170.61	47.37	-48.3	-49.9	23.6	6.09e-01	0	56	0	490733568	59	4434
2026-01-04 11:36:45.56	170.77	47.74	-48.4	-50.1	23.4	6.06e-01	0	56	0	492830720	59	4538
2026-01-04 11:36:46.55	170.94	48.10	-48.4	-50.1	23.4	6.06e-01	0	56	0	494403584	59	4534
2026-01-04 11:36:47.54	171.11	48.48	-48.4	-50.1	23.4	6.06e-01	0	56	0	496500736	59	4511
2026-01-04 11:36:48.53	171.28	48.85	-48.3	-50.0	23.5	6.06e-01	0	56	0	498073600	59	4465
2026-01-04 11:36:49.52	171.46	49.23	-48.2	-49.9	23.6	6.04e-01	0	56	0	500170752	59	4419
2026-01-04 11:36:50.51	171.64	49.61	-48.4	-50.1	23.4	6.07e-01	0	56	0	501743616	59	4518
2026-01-04 11:36:51.51	171.83	50.00	-48.1	-49.7	23.8	6.08e-01	0	56	0	503840768	59	4299
2026-01-04 11:36:52.50	172.02	50.39	-48.2	-49.9	23.6	6.06e-01	0	56	0	505937920	59	4398
2026-01-04 11:36:53.49	172.22	50.78	-48.1	-49.8	23.7	6.06e-01	0	56	0	507510784	59	4345
2026-01-04 11:36:54.47	172.42	51.17	-47.9	-49.5	24.0	6.05e-01	0	56	0	509607936	59	4200
2026-01-04 11:36:55.47	172.63	51.57	-47.7	-49.2	24.3	6.04e-01	0	56	0	511180800	58	4295
2026-01-04 11:36:56.46	172.85	51.97	-47.6	-49.0	24.4	6.06e-01	0	56	0	513277952	58	4231
2026-01-04 11:36:57.44	173.06	52.37	-47.8	-49.3	24.2	6.05e-01	0	56	0	514850816	58	4370
2026-01-04 11:36:58.43	173.29	52.78	-47.7	-49.2	24.2	6.06e-01	0	56	0	516947968	58	4322
2026-01-04 11:36:59.41	173.52	53.18	-47.5	-49.0	24.4	6.05e-01	0	56	0	518520832	58	4221
2026-01-04 11:37:00.41	173.76	53.60	-47.4	-48.8	24.6	6.05e-01	0	56	0	520617984	58	4130
2026-01-04 11:37:01.39	174.00	54.01	-47.6	-49.1	24.4	6.04e-01	0	56	0	522190848	58	4244
2026-01-04 11:37:02.38	174.25	54.43	-47.6	-49.1	24.4	6.06e-01	0	56	0	524288000	58	4243
2026-01-04 11:37:03.37	174.51	54.85	-48.0	-49.6	23.9	6.05e-01	0	56	0	525860864	58	4527
2026-01-04 11:37:04.36	174.78	55.28	-47.9	-49.5	24.0	6.06e-01	0	56	0	527958016	58	4467
2026-01-04 11:37:05.35	175.05	55.70	-48.2	-49.8	23.7	6.08e-01	0	56	0	530055168	58	4628
2026-01-04 11:37:06.34	175.34	56.13	-48.3	-50.0	23.5	6.08e-01	0	56	0	531628032	58	4745
2026-01-04 11:37:07.34	175.63	56.57	-48.7	-50.5	23.0	6.01e-01	0	56	0	533725184	59	4721
2026-01-04 11:37:08.33	175.93	57.01	-48.5	-50.2	23.3	6.00e-01	0	56	0	535298048	59	4584
2026-01-04 11:37:09.32	176.25	57.45	-48.5	-50.4	22.8	6.03e-01	0	56	0	537395200	60	4406
2026-01-04 11:37:10.30	176.56	57.88	-48.4	-50.1	23.1	6.01e-01	0	56	0	538968064	60	4282
2026-01-04 11:37:11.29	176.90	58.33	-48.8	-50.7	22.5	5.99e-01	0	56	0	541065216	60	4584
2026-01-04 11:37:12.28	177.24	58.77	-48.6	-50.5	22.8	6.03e-01	0	56	0	542638080	60	4451
2026-01-04 11:37:13.27	177.60	59.22	-48.9	-50.9	22.3	5.99e-01	0	56	0	544735232	60	4679
2026-01-04 11:37:14.26	177.96	59.67	-49.0	-51.0	22.3	6.02e-01	0	56	0	546308096	60	4720
2026-01-04 11:37:15.24	178.34	60.12	-49.1	-51.1	22.1	6.02e-01	0	56	0	548405248	60	4790
2026-01-04 11:37:16.23	178.73	60.58	-49.5	-51.6	21.7	6.02e-01	0	56	0	550502400	61	4809
2026-01-04 11:37:17.22	179.14	61.04	-49.4	-51.6	21.7	6.01e-01	0	56	0	552075264	61	4779
2026-01-04 11:37:18.21	179.57	61.50	-49.8	-52.1	21.1	6.00e-01	0	56	0	554172416	62	4811
2026-01-04 11:37:19.19	180.00	61.95	-49.8	-52.1	21.2	6.01e-01	0	56	0	555745280	62	4805
2026-01-04 11:37:20.18	180.46	62.42	-49.9	-52.2	21.0	6.04e-01	0	56	0	557842432	62	4861
2026-01-04 11:37:21.17	180.93	62.88	-50.2	-52.8	20.6	6.00e-01	0	56	0	559415296	62	5169
2026-01-04 11:37:22.15	181.42	63.34	-50.4	-53.0	20.3	6.01e-01	0	56	0	561512448	63	5038
2026-01-04 11:37:23.14	181.93	63.81	-50.6	-53.3	20.0	6.02e-01	0	56	0	563085312	63	5203
2026-01-04 11:37:24.12	182.46	64.28	-50.8	-53.9	19.3	6.03e-01	0	56	0	565182464	64	5260
2026-01-04 11:37:25.11	183.02	64.75	-51.0	-54.2	19.0	6.00e-01	0	56	0	566755328	64	5434
2026-01-04 11:37:26.10	183.59	65.22	-51.0	-54.2	19.1	6.01e-01	0	56	0	568852480	64	5458
2026-01-04 11:37:27.09	184.20	65.69	-51.5	-55.2	18.1	6.00e-01	0	56	0	570425344	65	5748
2026-01-04 11:37:28.07	184.82	66.16	-51.2	-54.6	18.7	5.98e-01	0	56	0	572522496	65	5380
2026-01-04 11:37:29.05	185.47	66.63	-51.7	-55.5	17.7	6.01e-01	0	56	0	574095360	65	5954
2026-01-04 11:37:30.04	186.16	67.10	-51.5	-55.1	18.2	6.00e-01	0	56	0	576192512	65	5695
2026-01-04 11:37:31.03	186.88	67.57	-51.5	-55.1	18.2	6.01e-01	0	56	0	577765376	65	5684
2026-01-04 11:37:32.01	187.62	68.04	-51.8	-55.9	17.4	6.00e-01	0	56	0	579862528	65	6236
2026-01-04 11:37:32.99	188.40	68.51	-51.6	-55.3	18.0	6.00e-01	0	56	0	581435392	65	5798
2026-01-04 11:37:33.97	189.22	68.97	-51.6	-55.5	17.8	6.01e-01	0	57	0	583532544	65	5934
2026-01-04 11:37:34.96	190.09	69.44	-51.9	-56.1	17.3	6.01e-01	0	56	0	585105408	66	5998
2026-01-04 11:37:35.95	190.99	69.90	-51.8	-55.7	17.5	6.01e-01	0	56	0	587202560	66	5726
2026-01-04 11:37:36.95	191.96	70.37	-51.4	-55.0	18.4	6.01e-01	0	56	0	589299712	66	5284
2026-01-04 11:37:37.94	192.96	70.83	-51.7	-55.7	17.6	6.01e-01	0	56	0	590872576	66	5723
2026-01-04 11:37:38.93	194.02	71.29	-51.3	-54.8	18.5	6.00e-01	0	56	0	592969728	66	5196
2026-01-04 11:37:39.92	195.13	71.74	-51.1	-54.4	18.9	6.02e-01	0	56	0	594542592	65	5250
2026-01-04 11:37:40.91	196.30	72.19	-51.0	-54.2	19.1	6.00e-01	0	56	0	596639744	65	5120
2026-01-04 11:37:41.90	197.54	72.63	-51.3	-54.7	18.5	6.02e-01	0	56	0	598212608	65	5427
2026-01-04 11:37:42.88	198.83	73.06	-50.5	-53.3	19.9	6.02e-01	0	56	0	600309760	64	4902
2026-01-04 11:37:43.87	200.20	73.49	-51.1	-54.5	18.8	6.01e-01	0	56	0	601882624	64	5593
2026-01-04 11:37:44.86	201.65	73.91	-50.7	-53.6	19.7	6.00e-01	0	56	0	603979776	64	5052
2026-01-04 11:37:45.84	203.16	74.31	-50.2	-52.8	20.4	6.00e-01	0	56	0	605552640	64	4640
2026-01-04 11:37:46.83	204.77	74.72	-50.3	-52.9	20.4	6.01e-01	0	56	0	607649792	63	4956
2026-01-04 11:37:47.82	206.47	75.11	-50.5	-53.3	20.1	6.00e-01	0	57	0	609222656	63	5198
2026-01-04 11:37:48.81	208.27	75.49	-50.2	-52.7	20.5	6.02e-01	0	56	0	611319808	63	4854
2026-01-04 11:37:49.79	210.14	75.85	-50.4	-53.1	20.2	6.04e-01	0	56	0	613416960	63	5080
2026-01-04 11:37:50.79	212.16	76.20	-50.6	-53.4	19.9	6.00e-01	0	57	0	614989824	63	5273
2026-01-04 11:37:51.77	214.24	76.53	-50.3	-52.9	20.3	6.01e-01	0	56	0	617086976	63	4979
2026-01-04 11:37:52.76	216.44	76.85	-50.9	-53.9	19.5	6.05e-01	0	57	0	618659840	63	5542
2026-01-04 11:37:53.76	218.78	77.15	-50.5	-53.3	19.8	6.02e-01	0	56	0	620756992	64	4915
2026-01-04 11:37:54.74	221.18	77.42	-50.2	-52.7	20.6	6.00e-01	0	56	0	622329856	63	4837
2026-01-04 11:37:55.73	223.71	77.68	-50.1	-52.7	20.6	6.01e-01	0	57	0	624427008	63	4827
2026-01-04 11:37:56.72	226.34	77.91	-49.9	-52.2	21.1	6.02e-01	0	56	0	625999872	63	4592
2026-01-04 11:37:57.71	229.08	78.12	-49.4	-51.5	21.7	6.01e-01	0	56	0	628097024	62	4486
2026-01-04 11:37:58.71	231.93	78.30	-50.1	-52.6	20.7	6.00e-01	0	56	0	629669888	62	5062
2026-01-04 11:37:59.69	234.81	78.44	-50.1	-52.6	20.8	6.04e-01	0	57	0	631767040	62	5053
2026-01-04 11:38:00.68	237.79	78.57	-49.8	-52.1	21.3	6.02e-01	0	56	0	633864192	62	4765
2026-01-04 11:38:01.66	240.79	78.65	-50.4	-53.0	20.4	6.01e-01	0	56	0	635437056	62	5315
2026-01-04 11:38:02.66	243.90	78.71	-50.3	-52.9	20.4	6.03e-01	0	57	0	637009920	63	4958
2026-01-04 11:38:03.64	246.97	78.74	-50.8	-53.7	19.8	6.03e-01	0	56	0	639107072	63	5413
2026-01-04 11:38:04.63	250.07	78.73	-51.2	-54.6	18.7	6.01e-01	0	56	0	641204224	64	5716
2026-01-04 11:38:05.62	253.17	78.70	-50.8	-53.8	19.4	6.01e-01	0	56	0	642777088	64	5196
2026-01-04 11:38:06.60	256.20	78.63	-50.3	-53.0	20.3	6.00e-01	0	56	0	644874240	64	4710
2026-01-04 11:38:07.60	259.24	78.53	-50.4	-53.2	20.1	6.02e-01	0	56	0	646447104	64	4841
2026-01-04 11:38:08.59	262.20	78.40	-50.4	-53.1	20.1	6.01e-01	0	56	0	648544256	64	4776
2026-01-04 11:38:09.57	265.05	78.24	-51.1	-54.3	19.1	6.04e-01	0	57	0	650117120	64	5491
2026-01-04 11:38:10.56	267.84	78.05	-51.4	-55.0	18.2	6.01e-01	0	56	0	652214272	65	5647
2026-01-04 11:38:11.54	270.52	77.84	-50.6	-53.5	19.8	6.01e-01	0	57	0	653787136	64	4995
2026-01-04 11:38:12.54	273.14	77.60	-50.7	-53.7	19.5	6.01e-01	0	56	0	655884288	64	5130
2026-01-04 11:38:13.52	275.61	77.34	-50.2	-52.7	20.6	6.02e-01	0	57	0	657457152	63	4856
2026-01-04 11:38:14.51	278.00	77.05	-50.5	-53.3	20.0	6.02e-01	0	56	0	659554304	63	5218
2026-01-04 11:38:15.50	280.27	76.75	-50.5	-53.3	20.1	6.02e-01	0	57	0	661127168	63	5161
2026-01-04 11:38:16.49	282.44	76.42	-51.0	-54.2	19.1	6.01e-01	0	57	0	663224320	64	5454
2026-01-04 11:38:17.48	284.50	76.08	-50.8	-53.8	19.4	5.99e-01	0	56	0	665321472	64	5198
2026-01-04 11:38:18.47	286.46	75.73	-51.2	-54.7	18.7	6.02e-01	0	57	0	666894336	64	5723
2026-01-04 11:38:19.46	288.32	75.36	-51.4	-54.9	18.3	6.01e-01	0	56	0	668991488	64	5913
2026-01-04 11:38:20.45	290.08	74.98	-51.0	-54.1	19.1	6.00e-01	0	56	0	670564352	64	5380
2026-01-04 11:38:21.44	291.75	74.58	-51.4	-54.9	18.3	6.02e-01	0	56	0	672661504	64	5889
2026-01-04 11:38:22.43	293.33	74.18	-51.7	-55.5	17.8	5.99e-01	0	57	0	674234368	65	5970
2026-01-04 11:38:23.42	294.83	73.76	-51.7	-55.5	17.7	6.01e-01	0	57	0	676331520	66	5637
2026-01-04 11:38:24.41	296.25	73.34	-51.3	-54.8	18.5	6.01e-01	0	57	0	677904384	66	5161
2026-01-04 11:38:25.39	297.59	72.91	-50.9	-54.1	19.2	6.00e-01	0	57	0	680001536	65	5066
2026-01-04 11:38:26.38	298.86	72.48	-51.0	-54.3	19.0	6.03e-01	0	57	0	681574400	65	5165
2026-01-04 11:38:27.37	300.07	72.03	-51.1	-54.5	18.8	6.00e-01	0	57	0	683671552	65	5282
2026-01-04 11:38:28.35	301.21	71.59	-51.0	-54.2	19.0	5.98e-01	0	57	0	685244416	65	5142
2026-01-04 11:38:29.33	302.29	71.14	-51.2	-54.5	18.8	6.01e-01	0	57	0	687341568	65	5298
2026-01-04 11:38:30.31	303.32	70.69	-51.4	-55.0	18.3	6.02e-01	0	57	0	688914432	65	5620
2026-01-04 11:38:31.30	304.31	70.23	-51.4	-55.0	18.2	6.02e-01	0	57	0	691011584	65	5655
2026-01-04 11:38:32.29	305.25	69.77	-51.3	-54.7	18.6	5.99e-01	0	57	0	693108736	65	5441
2026-01-04 11:38:33.28	306.14	69.30	-51.4	-55.1	18.2	6.01e-01	0	57	0	694681600	65	5674
2026-01-04 11:38:34.27	307.00	68.84	-51.6	-55.4	17.9	6.00e-01	0	56	0	696254464	65	5913
2026-01-04 11:38:35.25	307.80	68.37	-51.6	-55.4	17.8	6.01e-01	0	57	0	698351616	65	5892
2026-01-04 11:38:36.24	308.58	67.90	-51.2	-54.6	18.6	6.00e-01	0	57	0	700448768	65	5359
2026-01-04 11:38:37.23	309.32	67.43	-50.8	-53.9	19.4	6.01e-01	0	57	0	702021632	65	4966
2026-01-04 11:38:38.23	310.03	66.95	-50.9	-54.0	19.3	6.00e-01	0	57	0	704118784	65	5005
2026-01-04 11:38:39.22	310.71	66.48	-50.9	-53.9	19.3	6.02e-01	0	56	0	705691648	65	4978
2026-01-04 11:38:40.22	311.36	66.00	-50.3	-52.9	20.2	6.02e-01	0	57	0	707788800	64	4678
2026-01-04 11:38:41.22	311.99	65.53	-50.2	-52.8	20.5	6.00e-01	0	57	0	709361664	63	4903
2026-01-04 11:38:42.20	312.58	65.06	-50.0	-52.5	20.7	6.00e-01	0	57	0	711458816	63	4742
2026-01-04 11:38:43.19	313.15	64.59	-49.8	-52.1	21.2	6.01e-01	0	57	0	713555968	63	4529
2026-01-04 11:38:44.19	313.70	64.12	-49.8	-52.2	21.1	6.00e-01	0	56	0	715128832	63	4547
2026-01-04 11:38:45.18	314.22	63.65	-49.5	-51.7	21.5	6.02e-01	0	56	0	716701696	62	4596
2026-01-04 11:38:46.18	314.73	63.18	-49.7	-51.9	21.3	6.04e-01	0	57	0	718798848	62	4694
2026-01-04 11:38:47.17	315.22	62.71	-49.5	-51.8	21.6	6.03e-01	0	57	0	720896000	62	4601
2026-01-04 11:38:48.16	315.68	62.25	-49.3	-51.4	21.8	5.99e-01	0	57	0	722468864	62	4430
2026-01-04 11:38:49.15	316.13	61.79	-48.8	-50.7	22.6	6.00e-01	0	57	0	724566016	61	4297
2026-01-04 11:38:50.13	316.56	61.33	-49.3	-51.4	21.8	6.00e-01	0	56	0	726138880	61	4683
2026-01-04 11:38:51.12	316.98	60.87	-48.8	-50.8	22.5	6.01e-01	0	57	0	728236032	61	4344
2026-01-04 11:38:52.10	317.38	60.42	-48.8	-50.7	22.4	5.98e-01	0	57	0	729808896	61	4332
2026-01-04 11:38:53.09	317.77	59.97	-48.5	-50.4	22.8	6.02e-01	0	57	0	731906048	60	4405
2026-01-04 11:38:54.08	318.14	59.52	-48.4	-50.1	23.1	6.01e-01	0	57	0	733478912	60	4274
2026-01-04 11:38:55.07	318.50	59.07	-48.5	-50.3	22.8	6.02e-01	0	57	0	735576064	60	4387
2026-01-04 11:38:56.07	318.86	58.62	-48.5	-50.3	22.9	6.02e-01	0	57	0	737148928	60	4352
2026-01-04 11:38:57.06	319.20	58.17	-48.2	-49.9	23.2	6.01e-01	0	57	0	739246080	60	4173
2026-01-04 11:38:58.05	319.52	57.73	-48.7	-50.5	23.0	6.01e-01	0	57	0	741343232	59	4754
2026-01-04 11:38:59.04	319.84	57.29	-48.5	-50.3	23.2	6.03e-01	0	57	0	742916096	59	4610
2026-01-04 11:39:00.03	320.15	56.85	-48.5	-50.3	23.2	5.98e-01	0	57	0	745013248	59	4628
2026-01-04 11:39:01.02	320.45	56.42	-48.3	-50.0	23.5	6.03e-01	0	57	0	746586112	59	4451
2026-01-04 11:39:02.01	320.74	55.99	-48.5	-50.3	23.3	5.99e-01	0	57	0	748683264	59	4609
2026-01-04 11:39:03.00	321.02	55.56	-48.7	-50.6	22.7	5.98e-01	0	57	0	750256128	60	4497
2026-01-04 11:39:03.99	321.29	55.14	-48.5	-50.3	23.0	6.02e-01	0	57	0	752353280	59	4622
2026-01-04 11:39:04.98	321.55	54.71	-48.1	-49.7	23.8	6.01e-01	0	57	0	753926144	59	4307
2026-01-04 11:39:05.98	321.81	54.29	-47.9	-49.4	24.1	6.02e-01	0	57	0	756023296	59	4182
2026-01-04 11:39:06.97	322.06	53.87	-47.7	-49.2	24.2	6.01e-01	0	57	0	757596160	59	4088
2026-01-04 11:39:07.96	322.30	53.46	-47.9	-49.4	24.1	6.00e-01	0	57	0	759693312	59	4177
2026-01-04 11:39:08.95	322.54	53.05	-48.1	-49.7	23.7	6.01e-01	0	57	0	761790464	59	4324
2026-01-04 11:39:09.95	322.77	52.64	-48.2	-49.8	23.6	6.03e-01	0	57	0	763363328	59	4389
2026-01-04 11:39:10.93	322.99	52.24	-48.6	-50.4	23.1	6.02e-01	0	57	0	765460480	59	4697
2026-01-04 11:39:11.92	323.20	51.84	-48.6	-50.3	23.1	6.01e-01	0	57	0	767033344	59	4651
2026-01-04 11:39:12.91	323.41	51.44	-48.7	-50.5	22.9	6.00e-01	0	57	0	769130496	59	4756
2026-01-04 11:39:13.90	323.62	51.05	-48.7	-50.6	22.6	6.01e-01	0	57	0	770703360	60	4505
2026-01-04 11:39:14.89	323.82	50.65	-49.2	-51.3	22.0	6.03e-01	0	57	0	772800512	60	4893
2026-01-04 11:39:15.88	324.02	50.27	-49.1	-51.1	22.1	6.02e-01	0	57	0	774373376	60	4796
2026-01-04 11:39:16.88	324.21	49.88	-49.0	-51.0	22.2	6.03e-01	0	57	0	776470528	60	4717
2026-01-04 11:39:17.87	324.39	49.49	-48.9	-50.9	22.3	6.00e-01	0	57	0	778043392	60	4661
2026-01-04 11:39:18.85	324.57	49.12	-49.1	-51.1	22.1	6.00e-01	0	57	0	780140544	60	4805
2026-01-04 11:39:19.84	324.75	48.74	-49.1	-51.2	22.0	6.01e-01	0	57	0	782237696	60	4835
2026-01-04 11:39:20.83	324.92	48.37	-48.9	-50.9	22.2	6.03e-01	0	57	0	783810560	60	4689
2026-01-04 11:39:21.82	325.09	48.00	-48.9	-50.9	22.3	6.00e-01	0	57	0	785907712	60	4664
2026-01-04 11:39:22.80	325.25	47.64	-49.1	-51.1	22.1	6.04e-01	0	57	0	787480576	60	4783
2026-01-04 11:39:23.79	325.41	47.27	-49.4	-51.5	21.7	6.01e-01	0	57	0	789577728	60	5026
2026-01-04 11:39:24.78	325.57	46.91	-49.4	-51.6	21.6	6.04e-01	0	57	0	791150592	61	4797
2026-01-04 11:39:25.78	325.73	46.55	-49.5	-51.7	21.5	6.01e-01	0	57	0	793247744	61	4859
2026-01-04 11:39:26.77	325.88	46.19	-49.4	-51.6	21.6	6.00e-01	0	57	0	794820608	61	4791
2026-01-04 11:39:27.76	326.02	45.84	-49.1	-51.2	21.9	6.00e-01	0	57	0	796917760	61	4579
2026-01-04 11:39:28.75	326.17	45.49	-48.9	-50.8	22.3	6.03e-01	0	57	0	798490624	61	4376
2026-01-04 11:39:29.74	326.31	45.15	-48.9	-50.8	22.3	6.00e-01	0	57	0	800587776	61	4374
2026-01-04 11:39:30.73	326.45	44.80	-49.0	-51.0	22.1	6.01e-01	0	57	0	802684928	61	4471
2026-01-04 11:39:31.72	326.58	44.46	-48.9	-50.9	22.3	6.01e-01	0	57	0	804257792	61	4408
2026-01-04 11:39:32.71	326.71	44.13	-48.5	-50.4	22.7	6.05e-01	0	57	0	806354944	60	4399
2026-01-04 11:39:33.70	326.84	43.79	-48.3	-50.1	23.0	6.02e-01	0	57	0	807927808	60	4270
2026-01-04 11:39:34.69	326.97	43.46	-48.5	-50.4	22.7	6.02e-01	0	57	0	810024960	60	4408
2026-01-04 11:39:35.68	327.09	43.13	-48.8	-50.7	22.4	6.02e-01	0	57	0	811597824	60	4589
2026-01-04 11:39:36.67	327.21	42.81	-48.9	-50.9	22.3	6.05e-01	0	57	0	813694976	60	4652
2026-01-04 11:39:37.65	327.33	42.49	-48.9	-50.9	22.2	6.01e-01	0	57	0	815267840	60	4687
2026-01-04 11:39:38.65	327.45	42.16	-49.1	-51.1	22.0	6.01e-01	0	57	0	817364992	60	4807
2026-01-04 11:39:39.64	327.57	41.85	-49.2	-51.3	21.9	6.00e-01	0	57	0	818937856	60	4898
2026-01-04 11:39:40.63	327.68	41.53	-49.1	-51.2	21.9	6.02e-01	0	57	0	821035008	60	4860
2026-01-04 11:39:41.62	327.79	41.22	-49.2	-51.4	21.8	6.02e-01	0	57	0	822607872	60	4936
2026-01-04 11:39:42.61	327.90	40.91	-49.1	-51.1	22.0	6.01e-01	0	57	0	824705024	60	4792
2026-01-04 11:39:43.61	328.00	40.60	-48.9	-50.9	22.2	6.03e-01	0	57	0	826802176	60	4670
2026-01-04 11:39:44.59	328.11	40.30	-49.0	-51.0	22.1	6.01e-01	0	57	0	828375040	60	4751
2026-01-04 11:39:45.58	328.21	40.00	-49.2	-51.4	21.7	6.00e-01	0	57	0	830472192	60	4960
2026-01-04 11:39:46.57	328.31	39.70	-49.3	-51.5	21.6	6.00e-01	0	57	0	832045056	60	4988
2026-01-04 11:39:47.55	328.41	39.41	-49.3	-51.6	21.5	6.02e-01	0	57	0	834142208	60	5064
2026-01-04 11:39:48.55	328.51	39.11	-49.2	-51.3	21.7	6.02e-01	0	56	0	835715072	60	4919
2026-01-04 11:39:49.54	328.60	38.82	-49.1	-51.2	21.7	6.02e-01	0	57	0	837812224	60	4853
2026-01-04 11:39:50.52	328.70	38.54	-49.2	-51.3	21.8	6.01e-01	0	57	0	839385088	60	4908
2026-01-04 11:39:51.52	328.79	38.25	-49.3	-51.4	21.7	6.03e-01	0	57	0	841482240	60	4965
2026-01-04 11:39:52.51	328.88	37.96	-49.2	-51.5	21.6	6.02e-01	0	57	0	843055104	60	4996
2026-01-04 11:39:53.50	328.97	37.68	-49.3	-51.6	21.4	6.00e-01	0	57	0	845152256	60	5062
2026-01-04 11:39:54.49	329.06	37.40	-49.3	-51.6	21.4	6.00e-01	0	57	0	846725120	61	4798
2026-01-04 11:39:55.48	329.14	37.13	-49.1	-51.4	21.5	6.00e-01	0	57	0	848822272	61	4684
2026-01-04 11:39:56.48	329.23	36.85	-49.1	-51.2	21.9	6.04e-01	0	57	0	850919424	61	4567
2026-01-04 11:39:57.46	329.31	36.58	-49.0	-51.1	22.0	6.01e-01	0	57	0	852492288	61	4505
2026-01-04 11:39:58.45	329.39	36.31	-49.0	-51.2	21.7	6.00e-01	0	57	0	854589440	61	4591
2026-01-04 11:39:59.44	329.47	36.05	-49.1	-51.2	21.9	6.01e-01	0	57	0	856162304	61	4557
2026-01-04 11:40:00.43	329.55	35.78	-48.3	-51.1	21.0	6.02e-01	0	57	0	858259456	59	5088
2026-01-04 11:40:01.42	329.63	35.52	-46.5	-51.0	18.6	6.03e-01	0	57	0	859832320	56	5941
2026-01-04 11:40:02.40	329.71	35.26	-46.4	-51.0	18.5	6.00e-01	0	57	0	861929472	56	5926
2026-01-04 11:40:03.39	329.78	35.01	-47.4	-50.6	20.5	6.01e-01	0	57	0	863502336	56	5673
2026-01-04 11:40:04.38	329.86	34.75	-48.6	-50.6	22.4	5.99e-01	0	57	0	865599488	59	4807
2026-01-04 11:40:05.37	329.93	34.50	-48.7	-50.6	22.7	6.01e-01	0	57	0	867172352	59	4814
2026-01-04 11:40:06.37	330.01	34.24	-48.5	-50.3	22.9	6.02e-01	0	56	0	869269504	59	4634
2026-01-04 11:40:07.36	330.08	33.99	-48.3	-50.1	23.2	6.02e-01	0	57	0	870842368	59	4525
2026-01-04 11:40:08.35	330.15	33.75	-48.2	-50.0	23.3	6.03e-01	0	57	0	872939520	59	4463
2026-01-04 11:40:09.34	330.22	33.50	-48.2	-49.9	23.4	6.01e-01	0	57	0	875036672	59	4439
2026-01-04 11:40:10.33	330.29	33.26	-48.1	-49.8	23.5	6.05e-01	0	57	0	876609536	59	4379
2026-01-04 11:40:11.31	330.35	33.02	-47.9	-49.5	23.7	6.03e-01	0	57	0	878706688	59	4235
2026-01-04 11:40:12.31	330.42	32.78	-47.8	-49.4	23.9	5.98e-01	0	57	0	880279552	59	4146
2026-01-04 11:40:13.30	330.49	32.54	-47.8	-49.4	23.8	6.00e-01	0	57	0	882376704	59	4185
2026-01-04 11:40:14.29	330.55	32.31	-47.7	-49.3	23.9	6.04e-01	0	57	0	883949568	59	4136
2026-01-04 11:40:15.28	330.61	32.07	-47.7	-49.3	23.9	5.99e-01	0	57	0	886046720	59	4140
2026-01-04 11:40:16.26	330.68	31.84	-47.7	-49.3	24.0	6.01e-01	0	57	0	887619584	59	4106
2026-01-04 11:40:17.25	330.74	31.61	-47.8	-49.4	23.9	5.99e-01	0	57	0	889716736	59	4146
2026-01-04 11:40:18.24	330.80	31.39	-47.6	-49.1	24.2	6.03e-01	0	57	0	891289600	58	4260
2026-01-04 11:40:19.24	330.86	31.16	-47.4	-48.9	24.4	6.03e-01	0	57	0	893386752	58	4182
2026-01-04 11:40:20.23	330.92	30.93	-47.4	-48.9	24.4	6.00e-01	0	57	0	895483904	58	4150
2026-01-04 11:40:21.22	330.98	30.71	-47.4	-48.8	24.5	5.99e-01	0	57	0	897056768	58	4131
2026-01-04 11:40:22.21	331.04	30.49	-47.5	-49.0	24.3	6.00e-01	0	57	0	899153920	58	4212
2026-01-04 11:40:23.20	331.10	30.27	-47.6	-49.1	24.2	6.02e-01	0	57	0	900726784	58	4269
2026-01-04 11:40:24.20	331.15	30.05	-47.6	-49.1	24.2	6.02e-01	0	57	0	902823936	58	4251
2026-01-04 11:40:25.19	331.21	29.84	-47.7	-49.2	24.1	6.01e-01	0	57	0	904396800	58	4319
2026-01-04 11:40:26.19	331.26	29.62	-47.7	-49.3	24.0	6.02e-01	0	57	0	906493952	58	4343
2026-01-04 11:40:27.18	331.32	29.41	-47.8	-49.4	23.9	6.01e-01	0	57	0	908066816	58	4416
2026-01-04 11:40:28.17	331.37	29.20	-47.9	-49.6	23.8	5.99e-01	0	57	0	910163968	58	4499
2026-01-04 11:40:29.16	331.43	28.99	-48.0	-49.6	23.7	6.01e-01	0	57	0	911736832	58	4516
2026-01-04 11:40:30.15	331.48	28.79	-48.1	-49.7	23.5	6.00e-01	0	57	0	913833984	58	4597
2026-01-04 11:40:31.14	331.53	28.58	-48.1	-49.7	23.6	6.01e-01	0	57	0	915931136	58	4584
2026-01-04 11:40:32.13	331.58	28.38	-48.1	-49.8	23.6	6.01e-01	0	57	0	917504000	58	4602
2026-01-04 11:40:33.11	331.63	28.18	-48.2	-49.9	23.3	5.99e-01	0	57	0	919601152	58	4698
2026-01-04 11:40:34.10	331.68	27.98	-48.1	-49.8	23.5	6.03e-01	0	57	0	921174016	58	4616
2026-01-04 11:40:35.10	331.73	27.78	-48.1	-49.7	23.6	6.02e-01	0	57	0	923271168	58	4578
2026-01-04 11:40:36.09	331.78	27.58	-48.1	-49.7	23.6	5.99e-01	0	57	0	924844032	58	4581
2026-01-04 11:40:37.08	331.83	27.38	-48.3	-50.0	23.3	6.02e-01	0	57	0	926941184	58	4723
2026-01-04 11:40:38.08	331.88	27.19	-48.1	-49.8	23.5	6.00e-01	0	57	0	928514048	58	4622
2026-01-04 11:40:39.07	331.92	27.00	-48.1	-49.7	23.5	6.02e-01	0	57	0	930611200	58	4588
2026-01-04 11:40:40.06	331.97	26.80	-48.3	-50.0	23.3	6.01e-01	0	57	0	932184064	58	4731
2026-01-04 11:40:41.05	332.02	26.61	-48.3	-50.0	23.3	6.02e-01	0	57	0	934281216	58	4724
2026-01-04 11:40:42.04	332.06	26.43	-48.4	-50.1	23.2	6.01e-01	0	57	0	936378368	58	4804
2026-01-04 11:40:43.04	332.11	26.24	-48.5	-50.4	23.0	6.00e-01	0	57	0	937951232	59	4661
2026-01-04 11:40:44.03	332.15	26.05	-48.5	-50.3	23.0	6.02e-01	0	57	0	940048384	59	4623
2026-01-04 11:40:45.02	332.20	25.87	-48.6	-50.5	22.8	6.04e-01	0	57	0	941621248	59	4724
2026-01-04 11:40:46.01	332.24	25.68	-48.6	-50.4	22.9	6.01e-01	0	57	0	943718400	59	4679
2026-01-04 11:40:47.00	332.28	25.50	-48.6	-50.5	22.8	5.98e-01	0	57	0	945291264	59	4711
2026-01-04 11:40:47.99	332.33	25.32	-48.8	-50.7	22.6	6.01e-01	0	57	0	947388416	59	4844
2026-01-04 11:40:48.98	332.37	25.14	-48.8	-50.7	22.6	6.02e-01	0	57	0	948961280	59	4835
2026-01-04 11:40:49.97	332.41	24.97	-48.8	-50.7	22.6	6.04e-01	0	57	0	951058432	59	4824
2026-01-04 11:40:50.96	332.45	24.79	-48.6	-50.5	22.5	5.99e-01	0	57	0	952631296	60	4459
2026-01-04 11:40:51.95	332.49	24.61	-48.7	-50.7	22.3	6.03e-01	0	57	0	954728448	60	4569
2026-01-04 11:40:52.94	332.53	24.44	-48.6	-50.5	22.4	6.00e-01	0	57	0	956825600	60	4470
2026-01-04 11:40:53.93	332.57	24.27	-48.5	-50.4	22.6	6.02e-01	0	57	0	958398464	60	4395
2026-01-04 11:40:54.92	332.61	24.10	-48.6	-50.5	22.4	6.00e-01	0	57	0	959971328	60	4493
2026-01-04 11:40:55.92	332.65	23.92	-48.8	-50.9	22.1	6.02e-01	0	57	0	962068480	60	4655
2026-01-04 11:40:56.91	332.69	23.75	-48.7	-50.7	22.3	6.01e-01	0	57	0	964165632	60	4562
2026-01-04 11:40:57.90	332.73	23.59	-48.9	-51.0	21.9	6.02e-01	0	57	0	965738496	60	4741
2026-01-04 11:40:58.89	332.77	23.42	-48.7	-50.7	22.2	6.00e-01	0	57	0	967835648	60	4596
2026-01-04 11:40:59.87	332.81	23.26	-48.6	-50.5	22.4	6.01e-01	0	57	0	969408512	60	4492
2026-01-04 11:41:00.87	332.84	23.09	-48.5	-50.4	22.4	6.00e-01	0	57	0	971505664	60	4415
2026-01-04 11:41:01.86	332.88	22.93	-48.5	-50.5	22.4	6.02e-01	0	57	0	973078528	60	4462
2026-01-04 11:41:02.85	332.92	22.76	-48.7	-50.7	22.2	5.99e-01	0	57	0	975175680	60	4576
2026-01-04 11:41:03.84	332.95	22.60	-48.6	-50.6	22.3	6.02e-01	0	57	0	977272832	60	4507
2026-01-04 11:41:04.82	332.99	22.44	-48.4	-50.3	22.6	6.03e-01	0	57	0	978845696	60	4362
2026-01-04 11:41:05.81	333.02	22.29	-48.3	-50.2	22.7	6.04e-01	0	57	0	980418560	60	4294
2026-01-04 11:41:06.80	333.06	22.13	-48.3	-50.2	22.7	6.03e-01	0	57	0	982515712	60	4302
2026-01-04 11:41:07.80	333.10	21.97	-48.4	-50.2	22.7	6.00e-01	0	57	0	984612864	60	4330
2026-01-04 11:41:08.79	333.13	21.81	-48.6	-50.5	22.4	6.01e-01	0	57	0	986185728	60	4472
2026-01-04 11:41:09.78	333.16	21.66	-48.6	-50.5	22.3	6.02e-01	0	57	0	988282880	60	4475
2026-01-04 11:41:10.76	333.20	21.51	-48.6	-50.6	22.2	6.01e-01	0	57	0	989855744	60	4533
2026-01-04 11:41:11.75	333.23	21.35	-48.6	-50.6	22.2	6.02e-01	0	57	0	991952896	60	4529
2026-01-04 11:41:12.75	333.27	21.20	-48.5	-50.4	22.4	6.01e-01	0	57	0	993525760	60	4437
2026-01-04 11:41:13.74	333.30	21.05	-48.4	-50.3	22.5	6.02e-01	0	57	0	995622912	60	4352
2026-01-04 11:41:14.72	333.33	20.90	-48.4	-50.3	22.5	6.01e-01	0	57	0	997195776	60	4348
2026-01-04 11:41:15.71	333.36	20.75	-48.3	-50.2	22.5	6.01e-01	0	57	0	999292928	60	4332
2026-01-04 11:41:16.70	333.40	20.60	-48.5	-50.4	22.4	6.02e-01	0	57	0	1000865792	60	4414
2026-01-04 11:41:17.70	333.43	20.46	-48.5	-50.4	22.3	6.03e-01	0	57	0	1002962944	60	4425
2026-01-04 11:41:18.68	333.46	20.31	-48.4	-50.4	22.4	6.01e-01	0	57	0	1005060096	60	4407
2026-01-04 11:41:19.68	333.49	20.17	-48.6	-50.6	22.2	6.05e-01	0	57	0	1006632960	60	4525
2026-01-04 11:41:20.66	333.52	20.02	-48.4	-50.4	22.4	6.03e-01	0	57	0	1008730112	60	4403
2026-01-04 11:41:21.65	333.55	19.88	-48.3	-50.2	22.9	6.00e-01	0	57	0	1010302976	59	4555
2026-01-04 11:41:22.64	333.58	19.74	-47.9	-49.6	23.5	6.05e-01	0	57	0	1012400128	59	4269
2026-01-04 11:41:23.64	333.61	19.59	-47.9	-49.6	23.5	6.02e-01	0	57	0	1013972992	59	4279
2026-01-04 11:41:24.64	333.64	19.45	-48.2	-50.0	23.2	6.02e-01	0	57	0	1016070144	59	4445
2026-01-04 11:41:25.63	333.67	19.31	-48.3	-50.1	23.0	6.01e-01	0	57	0	1017643008	59	4545
2026-01-04 11:41:26.63	333.70	19.17	-48.4	-50.2	22.9	6.01e-01	0	57	0	1019740160	59	4563
2026-01-04 11:41:27.62	333.73	19.03	-48.3	-50.1	23.0	6.01e-01	0	57	0	1021313024	59	4520
2026-01-04 11:41:28.61	333.76	18.90	-48.3	-50.1	23.0	6.04e-01	0	57	0	1023410176	59	4542
2026-01-04 11:41:29.59	333.79	18.76	-48.3	-50.1	23.0	6.00e-01	0	57	0	1025507328	59	4519
2026-01-04 11:41:30.59	333.82	18.62	-48.2	-50.0	23.1	6.01e-01	0	57	0	1027080192	59	4452
2026-01-04 11:41:31.57	333.85	18.49	-48.2	-50.0	23.1	6.01e-01	0	57	0	1029177344	59	4453
2026-01-04 11:41:32.57	333.88	18.36	-48.2	-50.0	23.1	6.02e-01	0	57	0	1030750208	59	4453
2026-01-04 11:41:33.56	333.91	18.22	-48.3	-50.1	23.0	6.02e-01	0	57	0	1032847360	59	4536
2026-01-04 11:41:34.55	333.93	18.09	-48.3	-50.1	23.0	6.00e-01	0	57	0	1034420224	59	4522
2026-01-04 11:41:35.54	333.96	17.96	-48.3	-50.1	23.0	6.01e-01	0	57	0	1036517376	59	4510
2026-01-04 11:41:36.54	333.99	17.83	-48.3	-50.1	23.0	6.00e-01	0	57	0	1038090240	59	4504
2026-01-04 11:41:37.53	334.02	17.70	-48.3	-50.1	23.0	5.99e-01	0	57	0	1040187392	59	4510
2026-01-04 11:41:38.51	334.04	17.57	-48.4	-50.3	22.8	6.02e-01	0	57	0	1041760256	59	4610
2026-01-04 11:41:39.50	334.07	17.44	-48.4	-50.3	22.8	6.01e-01	0	57	0	1043857408	59	4625
2026-01-04 11:41:40.50	334.10	17.31	-48.5	-50.4	22.7	6.02e-01	0	57	0	1045954560	59	4656
2026-01-04 11:41:41.49	334.12	17.18	-48.5	-50.4	22.7	6.03e-01	0	57	0	1047527424	59	4678
2026-01-04 11:41:42.48	334.15	17.06	-48.5	-50.4	22.7	6.04e-01	0	57	0	1049624576	59	4694
2026-01-04 11:41:43.47	334.17	16.93	-48.7	-50.6	22.4	6.02e-01	0	57	0	1051197440	59	4807
2026-01-04 11:41:44.47	334.20	16.81	-48.8	-50.8	22.3	6.01e-01	0	57	0	1053294592	59	4884
2026-01-04 11:41:45.46	334.23	16.68	-48.7	-50.7	22.3	6.00e-01	0	57	0	1054867456	59	4870
2026-01-04 11:41:46.44	334.25	16.56	-48.6	-50.6	22.1	6.01e-01	0	57	0	1056964608	60	4513
2026-01-04 11:41:47.43	334.28	16.44	-48.8	-50.9	21.8	6.02e-01	0	57	0	1058537472	60	4668
2026-01-04 11:41:48.41	334.30	16.32	-48.9	-51.0	21.7	6.00e-01	0	57	0	1060634624	60	4744
2026-01-04 11:41:49.41	334.33	16.19	-48.6	-50.7	22.0	6.01e-01	0	57	0	1062207488	60	4558
2026-01-04 11:41:50.40	334.35	16.07	-48.6	-50.6	22.1	6.02e-01	0	57	0	1064304640	60	4538
2026-01-04 11:41:51.40	334.38	15.95	-48.7	-50.7	22.0	6.02e-01	0	57	0	1066401792	60	4589
2026-01-04 11:41:52.39	334.40	15.83	-48.4	-50.4	22.3	6.00e-01	0	57	0	1067974656	60	4401
2026-01-04 11:41:53.38	334.42	15.71	-48.3	-50.2	22.4	6.00e-01	0	57	0	1070071808	60	4336
2026-01-04 11:41:54.36	334.45	15.59	-48.5	-50.5	22.3	6.02e-01	0	57	0	1071644672	59	4724
2026-01-04 11:41:55.36	334.47	15.48	-48.6	-50.5	22.5	6.01e-01	0	57	0	1073741824	59	4751
2026-01-04 11:41:56.35	334.50	15.36	-48.7	-50.6	22.4	5.99e-01	0	57	0	1075314688	59	4799
2026-01-04 11:41:57.34	334.52	15.24	-48.8	-50.8	22.2	6.01e-01	0	57	0	1077411840	59	4894
2026-01-04 11:41:58.33	334.54	15.13	-48.5	-50.5	22.1	6.01e-01	0	57	0	1078984704	60	4469
2026-01-04 11:41:59.32	334.57	15.01	-48.3	-50.2	22.4	6.00e-01	0	57	0	1081081856	60	4325
2026-01-04 11:42:00.30	334.59	14.90	-48.6	-50.5	22.4	6.01e-01	0	57	0	1082654720	59	4725
2026-01-04 11:42:01.29	334.61	14.78	-48.6	-50.5	22.5	6.00e-01	0	57	0	1084751872	59	4728
2026-01-04 11:42:02.28	334.63	14.67	-48.6	-50.6	22.4	6.03e-01	0	57	0	1086849024	59	4770
2026-01-04 11:42:03.26	334.66	14.56	-48.6	-50.6	22.4	6.02e-01	0	57	0	1088421888	59	4792
2026-01-04 11:42:04.26	334.68	14.45	-48.5	-50.4	22.5	6.03e-01	0	57	0	1090519040	59	4693
2026-01-04 11:42:05.25	334.70	14.33	-48.5	-50.4	22.5	6.02e-01	0	57	0	1092091904	59	4696
2026-01-04 11:42:06.24	334.72	14.22	-48.6	-50.6	22.3	6.02e-01	0	57	0	1094189056	59	4795
2026-01-04 11:42:07.23	334.74	14.11	-48.6	-50.6	22.3	6.04e-01	0	57	0	1095761920	59	4809
2026-01-04 11:42:08.23	334.77	14.00	-48.5	-50.5	22.5	6.00e-01	0	57	0	1097859072	59	4708
2026-01-04 11:42:09.22	334.79	13.89	-48.5	-50.4	22.5	6.03e-01	0	57	0	1099431936	59	4691
2026-01-04 11:42:10.22	334.81	13.78	-48.4	-50.3	22.6	6.02e-01	0	57	0	1101529088	59	4644
2026-01-04 11:42:11.21	334.83	13.67	-48.5	-50.4	22.5	6.03e-01	0	57	0	1103101952	59	4697
2026-01-04 11:42:12.19	334.85	13.57	-48.6	-50.6	22.3	6.00e-01	0	57	0	1105199104	59	4774
2026-01-04 11:42:13.18	334.87	13.46	-48.4	-50.3	22.5	6.03e-01	0	57	0	1107296256	59	4646
2026-01-04 11:42:14.18	334.90	13.35	-48.3	-50.2	22.7	6.00e-01	0	57	0	1108869120	59	4560
2026-01-04 11:42:15.17	334.92	13.24	-48.3	-50.2	22.7	6.02e-01	0	57	0	1110441984	59	4547
2026-01-04 11:42:16.16	334.94	13.14	-48.3	-50.2	22.7	6.01e-01	0	57	0	1112539136	59	4546
2026-01-04 11:42:17.16	334.96	13.03	-48.3	-50.2	22.7	6.01e-01	0	57	0	1114636288	59	4553
2026-01-04 11:42:18.15	334.98	12.93	-48.3	-50.1	22.7	6.03e-01	0	57	0	1116209152	59	4539
2026-01-04 11:42:19.15	335.00	12.82	-48.3	-50.2	22.6	6.02e-01	0	57	0	1118306304	59	4586
2026-01-04 11:42:20.14	335.02	12.72	-48.3	-50.2	22.6	6.02e-01	0	57	0	1119879168	59	4565
2026-01-04 11:42:21.12	335.04	12.62	-48.3	-50.3	22.5	6.02e-01	0	57	0	1121976320	59	4604
2026-01-04 11:42:22.10	335.06	12.51	-48.4	-50.4	22.4	6.02e-01	0	57	0	1123549184	59	4668
2026-01-04 11:42:23.09	335.08	12.41	-48.4	-50.3	22.5	6.02e-01	0	57	0	1125646336	59	4616
2026-01-04 11:42:24.08	335.10	12.31	-48.3	-50.2	22.5	6.03e-01	0	57	0	1127219200	59	4598
2026-01-04 11:42:25.06	335.12	12.21	-48.4	-50.3	22.4	6.01e-01	0	57	0	1129316352	59	4644
2026-01-04 11:42:26.05	335.14	12.11	-48.4	-50.4	22.4	6.00e-01	0	57	0	1130889216	59	4680
2026-01-04 11:42:27.04	335.16	12.01	-48.4	-50.4	22.4	6.00e-01	0	57	0	1132986368	59	4660
2026-01-04 11:42:28.03	335.18	11.91	-48.4	-50.4	22.3	5.99e-01	0	57	0	1135083520	59	4681
2026-01-04 11:42:29.02	335.20	11.81	-48.6	-50.6	22.1	6.02e-01	0	57	0	1136656384	59	4785
2026-01-04 11:42:30.00	335.21	11.71	-48.5	-50.5	22.2	6.00e-01	0	57	0	1138753536	59	4734
2026-01-04 11:42:30.99	335.23	11.61	-48.6	-50.7	22.1	6.00e-01	0	57	0	1140326400	59	4826
2026-01-04 11:42:31.97	335.25	11.51	-48.7	-50.8	22.0	6.03e-01	0	57	0	1142423552	59	4880
2026-01-04 11:42:32.96	335.27	11.42	-48.6	-50.6	22.1	6.01e-01	0	57	0	1143996416	59	4813
2026-01-04 11:42:33.96	335.29	11.32	-48.7	-50.8	21.9	6.02e-01	0	57	0	1146093568	59	4907
2026-01-04 11:42:34.95	335.31	11.22	-49.4	-51.3	21.6	6.01e-01	0	57	0	1147666432	60	4914
2026-01-04 11:42:35.93	335.33	11.13	-48.4	-50.5	21.9	6.00e-01	0	57	0	1149763584	60	4443
2026-01-04 11:42:36.92	335.35	11.03	-48.3	-50.4	22.0	6.02e-01	0	57	0	1151336448	60	4412
2026-01-04 11:42:37.91	335.36	10.93	-48.4	-50.5	21.8	6.00e-01	0	57	0	1153433600	60	4472
2026-01-04 11:42:38.90	335.38	10.84	-48.5	-50.7	21.7	6.03e-01	0	57	0	1155006464	60	4557
2026-01-04 11:42:39.90	335.40	10.74	-48.5	-50.6	21.7	6.00e-01	0	57	0	1157103616	60	4534
2026-01-04 11:42:40.89	335.42	10.65	-48.4	-50.5	21.8	6.02e-01	0	57	0	1159200768	60	4492
2026-01-04 11:42:41.87	335.44	10.56	-48.4	-50.6	21.7	6.00e-01	0	57	0	1160773632	60	4508
2026-01-04 11:42:42.87	335.45	10.46	-48.6	-50.8	21.6	6.00e-01	0	57	0	1162870784	60	4612
2026-01-04 11:42:43.85	335.47	10.37	-48.5	-50.7	21.6	6.01e-01	0	57	0	1164443648	60	4561
2026-01-04 11:42:44.84	335.49	10.28	-48.7	-50.9	21.4	6.00e-01	0	57	0	1166540800	60	4672
2026-01-04 11:42:45.83	335.51	10.18	-48.6	-50.8	21.4	6.02e-01	0	57	0	1168113664	60	4630
2026-01-04 11:42:46.82	335.52	10.09	-48.5	-50.6	21.6	6.01e-01	0	57	0	1170210816	60	4537
2026-01-04 11:42:47.81	335.54	10.00	-48.6	-50.7	21.6	6.02e-01	0	57	0	1171783680	60	4597
2026-01-04 11:42:48.80	335.56	9.91	-48.5	-50.7	21.5	6.02e-01	0	57	0	1173880832	60	4583
2026-01-04 11:42:49.79	335.58	9.82	-48.6	-50.9	21.4	6.03e-01	0	57	0	1175453696	60	4658
2026-01-04 11:42:50.78	335.59	9.73	-48.5	-50.7	21.5	6.00e-01	0	57	0	1177550848	60	4580
2026-01-04 11:42:51.78	335.61	9.64	-48.5	-50.7	21.6	6.00e-01	0	57	0	1179648000	60	4557
2026-01-04 11:42:52.77	335.63	9.55	-48.5	-50.7	21.5	5.99e-01	0	57	0	1181220864	60	4564
2026-01-04 11:42:53.75	335.64	9.46	-48.6	-50.9	21.4	6.02e-01	0	57	0	1183318016	60	4656
2026-01-04 11:42:54.74	335.66	9.37	-48.7	-50.9	21.3	6.05e-01	0	57	0	1184890880	60	4689
2026-01-04 11:42:55.73	335.68	9.28	-48.7	-50.9	21.3	6.00e-01	0	57	0	1186988032	60	4696
2026-01-04 11:42:56.71	335.69	9.19	-48.8	-51.2	21.0	6.01e-01	0	57	0	1188560896	60	4853
2026-01-04 11:42:57.70	335.71	9.10	-49.0	-51.4	20.8	6.02e-01	0	57	0	1190658048	60	4969
2026-01-04 11:42:58.69	335.73	9.02	-49.0	-51.4	20.8	6.02e-01	0	57	0	1192230912	60	4968
2026-01-04 11:42:59.68	335.74	8.93	-49.0	-51.5	20.7	6.03e-01	0	57	0	1194328064	60	5035
2026-01-04 11:43:00.67	335.76	8.84	-49.1	-51.7	20.5	6.01e-01	0	57	0	1195900928	60	5109
2026-01-04 11:43:01.66	335.78	8.75	-49.1	-51.6	20.5	6.05e-01	0	57	0	1197998080	60	5094
2026-01-04 11:43:02.65	335.79	8.67	-49.0	-51.4	20.7	6.02e-01	0	57	0	1199570944	60	4965
2026-01-04 11:43:03.63	335.81	8.58	-49.0	-51.5	20.7	6.00e-01	0	57	0	1201668096	60	5016
2026-01-04 11:43:04.62	335.83	8.50	-49.1	-51.6	20.6	6.03e-01	0	57	0	1203240960	60	5046
2026-01-04 11:43:05.62	335.84	8.41	-49.2	-51.7	20.4	6.00e-01	0	57	0	1205338112	60	5153
2026-01-04 11:43:06.61	335.86	8.33	-49.2	-51.8	20.3	6.01e-01	0	57	0	1206910976	60	5205
2026-01-04 11:43:07.59	335.87	8.24	-49.0	-51.5	20.7	6.03e-01	0	57	0	1209008128	60	4997
2026-01-04 11:43:08.58	335.89	8.16	-48.9	-51.3	20.8	6.03e-01	0	57	0	1211105280	60	4893
2026-01-04 11:43:09.57	335.90	8.07	-48.7	-51.1	21.0	6.02e-01	0	57	0	1212678144	60	4771
2026-01-04 11:43:10.57	335.92	7.99	-48.7	-51.0	21.1	6.03e-01	0	57	0	1214775296	60	4718
2026-01-04 11:43:11.56	335.94	7.90	-48.7	-51.0	21.0	6.02e-01	0	57	0	1216348160	60	4758
2026-01-04 11:43:12.55	335.95	7.82	-48.7	-51.1	20.9	6.03e-01	0	57	0	1218445312	60	4805
