passes_logs/2026/01/04/R3.0SM8_Murmansk_STILSPACE/R3.0SM8_Murmansk_STILSPACE__20260104_121609_FENGYUN_3D_rec.log

#Pass ID: 20260104_121609_FENGYUN 3D
#Satellite: FENGYUN 3D
#Configuration: FENGYUN 3D
#almurnet v.1.7.20240730
#Start time: 2026-01-04 12:16:08

#Version: 2.2.20231116
#Station: R3.0SM8_Murmansk_STILSPACE
#Location: 33.092731 lon 68.902999 lat
#TLE: 1 43010U 17072A   26003.51579816  .00000092  00000+0  65324-4 0  9992
#TLE: 2 43010  98.9912 335.1548 0001916 128.4619 231.6729 14.19692074421623

#Time	Az	El	Level	Level2	SNR	BER	BlckErr	Temp	State	Recorded	gain1	gain2
2026-01-04 12:16:08.92	169.53	2.99	-52.5	-63.3	3.8	8.46e-01	0	46	0	0	67	12737
2026-01-04 12:16:09.91	169.55	3.06	-52.4	-63.2	3.8	8.46e-01	0	46	104	0	67	12614
2026-01-04 12:16:10.90	169.58	3.12	-52.4	-63.2	3.8	8.46e-01	0	46	104	0	67	12560
2026-01-04 12:16:11.89	169.60	3.19	-52.4	-63.1	3.8	8.46e-01	0	46	104	0	67	12473
2026-01-04 12:16:12.88	169.63	3.25	-52.2	-63.1	3.8	8.46e-01	0	46	104	0	67	12457
2026-01-04 12:16:13.88	169.65	3.32	-52.3	-63.0	3.8	8.46e-01	0	46	104	0	67	12349
2026-01-04 12:16:14.87	169.68	3.38	-52.1	-62.9	3.8	8.45e-01	0	46	104	0	67	12229
2026-01-04 12:16:15.84	169.70	3.45	-52.0	-62.8	3.8	8.46e-01	0	46	104	0	67	12034
2026-01-04 12:16:16.83	169.73	3.51	-51.8	-62.6	3.8	8.45e-01	0	46	104	0	66	12458
2026-01-04 12:16:17.82	169.75	3.58	-51.4	-62.1	3.8	8.46e-01	0	47	104	0	65	12396
2026-01-04 12:16:18.81	169.78	3.65	-51.3	-62.0	3.8	8.46e-01	0	46	104	0	65	12277
2026-01-04 12:16:19.80	169.80	3.71	-51.2	-61.9	3.8	8.46e-01	0	47	104	0	65	12162
2026-01-04 12:16:20.79	169.83	3.78	-51.3	-61.8	3.8	8.47e-01	0	47	104	0	65	12057
2026-01-04 12:16:21.78	169.86	3.85	-51.4	-61.7	3.8	8.46e-01	0	47	104	0	65	11908
2026-01-04 12:16:22.77	169.88	3.91	-51.3	-61.7	3.8	8.46e-01	0	47	104	0	65	11844
2026-01-04 12:16:23.76	169.91	3.98	-51.3	-61.5	3.8	8.46e-01	0	47	104	0	65	11678
2026-01-04 12:16:24.76	169.93	4.05	-51.3	-61.5	3.8	8.47e-01	0	47	104	0	65	11591
2026-01-04 12:16:25.74	169.96	4.11	-51.3	-61.4	3.8	8.45e-01	0	47	104	0	65	11447
2026-01-04 12:16:26.73	169.99	4.18	-51.2	-61.2	3.8	8.46e-01	0	47	104	0	65	11228
2026-01-04 12:16:27.71	170.01	4.25	-51.2	-60.9	3.8	8.48e-01	0	47	104	0	65	10897
2026-01-04 12:16:28.70	170.04	4.32	-51.2	-60.5	3.8	8.46e-01	0	47	104	0	65	10365
2026-01-04 12:16:29.69	170.07	4.39	-51.1	-59.8	3.8	8.45e-01	0	47	104	0	65	9532
2026-01-04 12:16:30.67	170.09	4.45	-50.9	-58.5	4.2	8.39e-01	0	47	0	0	64	8758
2026-01-04 12:16:31.66	170.12	4.52	-50.6	-57.3	4.7	8.21e-01	0	48	0	0	64	7565
2026-01-04 12:16:32.66	170.15	4.59	-50.4	-55.9	5.5	7.55e-01	0	48	0	0	63	6829
2026-01-04 12:16:33.65	170.17	4.66	-49.9	-54.6	6.5	3.05e-01	0	48	0	4194304	62	6244
2026-01-04 12:16:34.64	170.20	4.73	-49.4	-53.2	7.7	1.40e-01	0	48	0	10485760	61	5644
2026-01-04 12:16:35.63	170.23	4.80	-48.7	-52.0	9.0	3.63e-02	0	48	0	15728640	60	5180
2026-01-04 12:16:36.62	170.26	4.87	-48.3	-51.0	10.1	1.43e-02	0	48	0	20971520	59	4891
2026-01-04 12:16:37.60	170.28	4.94	-47.7	-50.1	11.0	4.28e-03	0	48	0	26214400	58	4678
2026-01-04 12:16:38.59	170.31	5.01	-47.2	-49.3	11.8	8.38e-04	0	48	0	32505856	57	4510
2026-01-04 12:16:39.57	170.34	5.07	-47.0	-49.0	12.2	3.83e-04	0	48	0	37748736	57	4345
2026-01-04 12:16:40.56	170.37	5.14	-47.2	-49.3	11.9	4.02e-04	0	48	0	42991616	57	4500
2026-01-04 12:16:41.55	170.40	5.22	-47.3	-49.4	11.7	1.14e-03	0	48	0	49283072	57	4593
2026-01-04 12:16:42.55	170.42	5.29	-47.1	-49.1	12.2	5.01e-04	0	48	0	54525952	57	4396
2026-01-04 12:16:43.53	170.45	5.36	-46.7	-48.6	12.6	1.81e-04	0	48	0	59768832	56	4412
2026-01-04 12:16:44.53	170.48	5.43	-46.6	-48.4	12.9	1.21e-04	0	48	0	66060288	56	4293
2026-01-04 12:16:45.52	170.51	5.50	-46.1	-47.7	13.4	2.97e-05	0	48	0	71303168	55	4214
2026-01-04 12:16:46.51	170.54	5.57	-45.7	-47.2	13.9	3.40e-06	0	48	0	76546048	54	4242
2026-01-04 12:16:47.50	170.57	5.64	-45.3	-46.7	14.4	1.10e-06	0	49	0	82837504	53	4210
2026-01-04 12:16:48.49	170.60	5.71	-44.9	-46.2	14.9	1.10e-06	0	49	0	88080384	53	3990
2026-01-04 12:16:49.48	170.62	5.78	-44.7	-45.9	15.2	0.00e+00	0	49	0	93323264	52	4088
2026-01-04 12:16:50.47	170.65	5.86	-44.5	-45.6	15.5	0.00e+00	0	49	0	98566144	52	3957
2026-01-04 12:16:51.46	170.68	5.93	-44.4	-45.6	15.6	0.00e+00	0	49	0	104857600	51	4190
2026-01-04 12:16:52.46	170.71	6.00	-44.5	-45.7	15.5	0.00e+00	0	49	0	110100480	51	4208
2026-01-04 12:16:53.43	170.74	6.07	-44.5	-45.6	15.6	0.00e+00	0	49	0	115343360	51	4191
2026-01-04 12:16:54.42	170.77	6.14	-44.5	-45.7	15.6	0.00e+00	0	49	0	121634816	51	4197
2026-01-04 12:16:55.41	170.80	6.22	-44.5	-45.6	15.7	0.00e+00	0	49	0	126877696	51	4188
2026-01-04 12:16:56.40	170.83	6.29	-44.5	-45.6	15.7	0.00e+00	0	49	0	132120576	51	4191
2026-01-04 12:16:57.39	170.86	6.36	-44.3	-45.4	16.0	0.00e+00	0	49	0	138412032	51	4070
2026-01-04 12:16:58.39	170.89	6.44	-44.3	-45.4	15.9	0.00e+00	0	49	0	143654912	51	4090
2026-01-04 12:16:59.38	170.92	6.51	-44.3	-45.4	16.0	0.00e+00	0	49	0	148897792	51	4076
2026-01-04 12:17:00.36	170.95	6.58	-44.4	-45.5	15.9	0.00e+00	0	49	0	154140672	51	4132
2026-01-04 12:17:01.36	170.98	6.66	-44.4	-45.6	15.9	0.00e+00	0	49	0	160432128	51	4156
2026-01-04 12:17:02.35	171.01	6.73	-44.5	-45.7	15.8	0.00e+00	0	49	0	165675008	51	4212
2026-01-04 12:17:03.33	171.04	6.81	-44.4	-45.5	15.9	0.00e+00	0	49	0	171966464	51	4143
2026-01-04 12:17:04.32	171.08	6.88	-44.2	-45.2	16.2	0.00e+00	0	49	0	177209344	51	4001
2026-01-04 12:17:05.31	171.11	6.96	-44.0	-45.1	16.4	0.00e+00	0	49	0	182452224	51	3918
2026-01-04 12:17:06.30	171.14	7.03	-44.2	-45.2	16.2	0.00e+00	0	49	0	187695104	51	4001
2026-01-04 12:17:07.29	171.17	7.11	-44.1	-45.2	16.3	0.00e+00	0	49	0	193986560	51	3973
2026-01-04 12:17:08.28	171.20	7.18	-44.1	-45.1	16.4	0.00e+00	0	50	0	199229440	51	3947
2026-01-04 12:17:09.28	171.23	7.26	-44.0	-45.1	16.4	0.00e+00	0	50	0	204472320	51	3926
2026-01-04 12:17:10.27	171.26	7.34	-44.1	-45.2	16.4	0.00e+00	0	50	0	210763776	51	3961
2026-01-04 12:17:11.25	171.30	7.41	-44.0	-45.0	16.5	0.00e+00	0	50	0	216006656	51	3912
2026-01-04 12:17:12.25	171.33	7.49	-44.0	-45.1	16.5	0.00e+00	0	50	0	221249536	51	3920
2026-01-04 12:17:13.24	171.36	7.57	-44.1	-45.1	16.4	0.00e+00	0	50	0	227540992	51	3942
2026-01-04 12:17:14.22	171.39	7.64	-44.1	-45.2	16.3	0.00e+00	0	50	0	232783872	51	3979
2026-01-04 12:17:15.21	171.43	7.72	-44.0	-45.1	16.5	0.00e+00	0	50	0	238026752	51	3927
2026-01-04 12:17:16.20	171.46	7.80	-44.1	-45.1	16.4	0.00e+00	0	50	0	243269632	51	3940
2026-01-04 12:17:17.19	171.49	7.87	-44.0	-45.1	16.5	0.00e+00	0	50	0	249561088	51	3929
2026-01-04 12:17:18.18	171.53	7.95	-44.0	-45.1	16.5	0.00e+00	0	50	0	254803968	51	3929
2026-01-04 12:17:19.17	171.56	8.03	-44.1	-45.2	16.4	0.00e+00	0	50	0	261095424	51	3999
2026-01-04 12:17:20.17	171.59	8.11	-44.0	-45.0	16.6	0.00e+00	0	50	0	266338304	51	3908
2026-01-04 12:17:21.16	171.63	8.19	-44.1	-45.2	16.4	0.00e+00	0	50	0	271581184	51	3985
2026-01-04 12:17:22.15	171.66	8.27	-44.0	-45.0	16.6	0.00e+00	0	50	0	276824064	51	3899
2026-01-04 12:17:23.14	171.69	8.34	-44.1	-45.1	16.5	0.00e+00	0	50	0	283115520	51	3946
2026-01-04 12:17:24.13	171.73	8.42	-44.3	-45.4	16.3	0.00e+00	0	50	0	288358400	51	4053
2026-01-04 12:17:25.13	171.76	8.50	-44.2	-45.2	16.4	0.00e+00	0	50	0	293601280	51	3998
2026-01-04 12:17:26.11	171.80	8.58	-44.0	-45.1	16.6	0.00e+00	0	50	0	299892736	51	3928
2026-01-04 12:17:27.10	171.83	8.66	-44.2	-45.2	16.4	0.00e+00	0	50	0	305135616	51	3991
2026-01-04 12:17:28.09	171.87	8.74	-44.0	-45.1	16.6	0.00e+00	0	50	0	310378496	51	3918
2026-01-04 12:17:29.08	171.90	8.82	-43.9	-44.9	16.8	0.00e+00	0	51	0	316669952	50	4078
2026-01-04 12:17:30.08	171.94	8.91	-43.8	-44.8	16.8	0.00e+00	0	51	0	321912832	50	4049
2026-01-04 12:17:31.06	171.97	8.99	-43.8	-44.8	16.8	0.00e+00	0	51	0	327155712	50	4048
2026-01-04 12:17:32.05	172.01	9.07	-43.8	-44.8	16.9	0.00e+00	0	51	0	333447168	50	4024
2026-01-04 12:17:33.04	172.04	9.15	-43.8	-44.8	16.9	0.00e+00	0	51	0	338690048	50	4033
2026-01-04 12:17:34.03	172.08	9.23	-43.8	-44.8	16.9	0.00e+00	0	51	0	343932928	50	4038
2026-01-04 12:17:35.02	172.11	9.31	-44.0	-45.0	16.7	0.00e+00	0	51	0	350224384	50	4111
2026-01-04 12:17:36.02	172.15	9.40	-43.9	-44.9	16.8	0.00e+00	0	51	0	355467264	50	4076
2026-01-04 12:17:37.01	172.19	9.48	-43.8	-44.8	16.9	0.00e+00	0	51	0	360710144	50	4032
2026-01-04 12:17:38.00	172.22	9.56	-43.8	-44.8	16.9	0.00e+00	0	51	0	365953024	50	4029
2026-01-04 12:17:39.00	172.26	9.64	-43.8	-44.8	16.9	0.00e+00	0	51	0	372244480	50	4018
2026-01-04 12:17:39.99	172.30	9.73	-43.9	-44.9	16.9	0.00e+00	0	51	0	377487360	50	4064
2026-01-04 12:17:40.98	172.33	9.81	-43.8	-44.8	16.9	0.00e+00	0	51	0	383778816	50	4030
2026-01-04 12:17:41.97	172.37	9.90	-43.8	-44.8	16.9	0.00e+00	0	51	0	389021696	50	4030
2026-01-04 12:17:42.96	172.41	9.98	-43.8	-44.8	17.0	0.00e+00	0	51	0	394264576	50	4006
2026-01-04 12:17:43.95	172.45	10.06	-43.8	-44.8	17.0	0.00e+00	0	51	0	399507456	50	4028
2026-01-04 12:17:44.94	172.49	10.15	-44.0	-45.0	16.8	0.00e+00	0	51	0	405798912	50	4120
2026-01-04 12:17:45.92	172.52	10.23	-44.0	-45.0	16.8	0.00e+00	0	51	0	411041792	50	4130
2026-01-04 12:17:46.91	172.56	10.32	-44.0	-45.0	16.8	0.00e+00	0	51	0	416284672	50	4144
2026-01-04 12:17:47.90	172.60	10.40	-44.1	-45.1	16.7	0.00e+00	0	51	0	422576128	50	4188
2026-01-04 12:17:48.89	172.64	10.49	-44.3	-45.3	16.5	0.00e+00	0	51	0	427819008	50	4286
2026-01-04 12:17:49.88	172.68	10.58	-44.1	-45.1	16.7	0.00e+00	0	51	0	433061888	50	4181
2026-01-04 12:17:50.87	172.72	10.66	-44.0	-45.0	16.8	0.00e+00	0	51	0	439353344	50	4110
2026-01-04 12:17:51.86	172.76	10.75	-43.9	-44.9	16.9	0.00e+00	0	51	0	444596224	50	4078
2026-01-04 12:17:52.85	172.80	10.84	-44.1	-45.1	16.7	0.00e+00	0	51	0	449839104	50	4192
2026-01-04 12:17:53.83	172.83	10.92	-44.0	-45.1	16.8	0.00e+00	0	51	0	455081984	50	4149
2026-01-04 12:17:54.82	172.87	11.01	-44.1	-45.1	16.7	0.00e+00	0	51	0	461373440	50	4164
2026-01-04 12:17:55.81	172.91	11.10	-44.3	-45.3	16.5	0.00e+00	0	52	0	466616320	50	4286
2026-01-04 12:17:56.79	172.95	11.19	-44.2	-45.2	16.6	0.00e+00	0	51	0	471859200	50	4210
2026-01-04 12:17:57.78	173.00	11.27	-43.9	-44.9	16.9	0.00e+00	0	52	0	478150656	50	4078
2026-01-04 12:17:58.77	173.04	11.36	-43.7	-44.6	17.2	0.00e+00	0	52	0	483393536	50	3954
2026-01-04 12:17:59.76	173.08	11.45	-43.6	-44.5	17.3	0.00e+00	0	52	0	488636416	50	3899
2026-01-04 12:18:00.76	173.12	11.54	-43.5	-44.5	17.4	0.00e+00	0	52	0	493879296	50	3880
2026-01-04 12:18:01.75	173.16	11.63	-43.6	-44.5	17.3	0.00e+00	0	52	0	500170752	50	3910
2026-01-04 12:18:02.75	173.20	11.72	-43.7	-44.7	17.1	0.00e+00	0	52	0	505413632	50	3984
2026-01-04 12:18:03.75	173.25	11.82	-43.6	-44.6	17.2	0.00e+00	0	52	0	511705088	50	3935
2026-01-04 12:18:04.73	173.29	11.91	-43.5	-44.4	17.4	0.00e+00	0	52	0	516947968	50	3860
2026-01-04 12:18:05.72	173.33	12.00	-43.5	-44.4	17.5	0.00e+00	0	52	0	522190848	50	3837
2026-01-04 12:18:06.71	173.37	12.09	-43.4	-44.4	17.5	0.00e+00	0	52	0	527433728	50	3834
2026-01-04 12:18:07.71	173.42	12.18	-43.5	-44.5	17.4	0.00e+00	0	52	0	533725184	50	3874
2026-01-04 12:18:08.70	173.46	12.27	-43.8	-44.7	17.1	0.00e+00	0	52	0	538968064	50	4002
2026-01-04 12:18:09.70	173.50	12.37	-43.7	-44.7	17.2	0.00e+00	0	52	0	544210944	50	3970
2026-01-04 12:18:10.68	173.55	12.46	-43.8	-44.7	17.1	0.00e+00	0	52	0	550502400	50	4004
2026-01-04 12:18:11.67	173.59	12.55	-44.1	-45.1	16.8	0.00e+00	0	52	0	555745280	50	4149
2026-01-04 12:18:12.66	173.63	12.64	-44.0	-45.0	16.9	0.00e+00	0	52	0	560988160	50	4129
2026-01-04 12:18:13.65	173.68	12.74	-43.9	-44.8	17.1	0.00e+00	0	52	0	567279616	50	4051
2026-01-04 12:18:14.65	173.72	12.83	-43.9	-44.9	17.0	0.00e+00	0	52	0	572522496	50	4066
2026-01-04 12:18:15.64	173.77	12.93	-43.8	-44.8	17.1	0.00e+00	0	52	0	577765376	50	4040
2026-01-04 12:18:16.63	173.81	13.02	-43.9	-44.9	17.1	0.00e+00	0	52	0	584056832	50	4062
2026-01-04 12:18:17.62	173.86	13.12	-43.8	-44.8	17.1	0.00e+00	0	52	0	589299712	50	4019
2026-01-04 12:18:18.61	173.91	13.21	-43.8	-44.7	17.2	0.00e+00	0	52	0	594542592	50	4001
2026-01-04 12:18:19.61	173.95	13.31	-43.8	-44.7	17.2	0.00e+00	0	52	0	600834048	50	3993
2026-01-04 12:18:20.60	174.00	13.41	-43.9	-44.9	17.1	0.00e+00	0	52	0	606076928	50	4064
2026-01-04 12:18:21.59	174.05	13.50	-43.9	-44.8	17.1	0.00e+00	0	52	0	611319808	50	4046
2026-01-04 12:18:22.57	174.09	13.60	-43.6	-44.5	17.4	0.00e+00	0	52	0	616562688	50	3879
2026-01-04 12:18:23.56	174.14	13.70	-43.3	-44.2	17.7	0.00e+00	0	52	0	622854144	49	3980
2026-01-04 12:18:24.55	174.19	13.80	-43.1	-44.0	17.9	0.00e+00	0	52	0	628097024	49	3882
2026-01-04 12:18:25.54	174.23	13.89	-43.1	-43.9	18.0	0.00e+00	0	52	0	634388480	49	3862
2026-01-04 12:18:26.53	174.28	13.99	-43.1	-44.0	17.9	0.00e+00	0	52	0	639631360	49	3892
2026-01-04 12:18:27.52	174.33	14.09	-43.3	-44.1	17.8	0.00e+00	0	53	0	644874240	49	3952
2026-01-04 12:18:28.51	174.38	14.19	-43.2	-44.1	17.8	0.00e+00	0	52	0	650117120	49	3934
2026-01-04 12:18:29.50	174.43	14.29	-43.0	-43.9	18.1	0.00e+00	0	53	0	656408576	49	3830
2026-01-04 12:18:30.49	174.48	14.39	-42.9	-43.7	18.2	0.00e+00	0	52	0	661651456	48	3989
2026-01-04 12:18:31.49	174.53	14.49	-42.9	-43.7	18.2	0.00e+00	0	53	0	666894336	48	3979
2026-01-04 12:18:32.48	174.58	14.59	-42.9	-43.7	18.2	0.00e+00	0	53	0	673185792	48	3989
2026-01-04 12:18:33.47	174.63	14.69	-43.0	-43.9	18.1	0.00e+00	0	53	0	678428672	48	4057
2026-01-04 12:18:34.45	174.68	14.79	-43.0	-43.8	18.1	0.00e+00	0	53	0	683671552	48	4051
2026-01-04 12:18:35.44	174.73	14.90	-42.7	-43.5	18.4	0.00e+00	0	53	0	689963008	48	3911
2026-01-04 12:18:36.43	174.78	15.00	-42.5	-43.3	18.6	0.00e+00	0	53	0	695205888	48	3823
2026-01-04 12:18:37.42	174.83	15.10	-42.4	-43.2	18.7	0.00e+00	0	53	0	700448768	48	3770
2026-01-04 12:18:38.42	174.88	15.21	-42.4	-43.2	18.7	0.00e+00	0	53	0	705691648	48	3765
2026-01-04 12:18:39.41	174.94	15.31	-42.2	-43.0	18.8	0.00e+00	0	53	0	711983104	47	3888
2026-01-04 12:18:40.40	174.99	15.42	-42.3	-43.1	18.6	0.00e+00	0	53	0	717225984	47	3950
2026-01-04 12:18:41.39	175.04	15.52	-42.4	-43.2	18.6	0.00e+00	0	53	0	723517440	47	3976
2026-01-04 12:18:42.38	175.10	15.63	-42.2	-43.0	18.8	0.00e+00	0	53	0	728760320	47	3870
2026-01-04 12:18:43.37	175.15	15.73	-42.1	-42.9	18.9	0.00e+00	0	53	0	734003200	47	3828
2026-01-04 12:18:44.36	175.20	15.84	-42.1	-42.9	18.9	0.00e+00	0	53	0	739246080	47	3841
2026-01-04 12:18:45.35	175.26	15.94	-42.1	-42.9	18.9	0.00e+00	0	53	0	745537536	47	3851
2026-01-04 12:18:46.34	175.31	16.05	-42.1	-42.8	18.9	0.00e+00	0	53	0	750780416	47	3813
2026-01-04 12:18:47.33	175.37	16.16	-42.1	-42.9	18.9	0.00e+00	0	53	0	756023296	47	3830
2026-01-04 12:18:48.32	175.42	16.27	-42.0	-42.8	19.0	0.00e+00	0	53	0	762314752	47	3781
2026-01-04 12:18:49.31	175.48	16.37	-41.9	-42.7	19.1	0.00e+00	0	53	0	767557632	47	3763
2026-01-04 12:18:50.29	175.53	16.48	-42.0	-42.8	19.0	0.00e+00	0	53	0	772800512	47	3789
2026-01-04 12:18:51.29	175.59	16.59	-42.1	-42.8	18.9	0.00e+00	0	53	0	779091968	47	3817
2026-01-04 12:18:52.28	175.65	16.70	-42.2	-43.0	18.8	0.00e+00	0	53	0	784334848	47	3876
2026-01-04 12:18:53.27	175.70	16.81	-42.2	-43.0	18.8	0.00e+00	0	53	0	789577728	47	3880
2026-01-04 12:18:54.26	175.76	16.92	-42.1	-42.9	18.9	0.00e+00	0	53	0	794820608	47	3837
2026-01-04 12:18:55.25	175.82	17.03	-42.1	-42.8	18.9	0.00e+00	0	53	0	801112064	47	3824
2026-01-04 12:18:56.24	175.88	17.14	-42.2	-42.9	18.8	0.00e+00	0	53	0	806354944	47	3867
2026-01-04 12:18:57.22	175.94	17.25	-42.3	-43.1	18.7	0.00e+00	0	53	0	812646400	47	3948
2026-01-04 12:18:58.22	176.00	17.37	-42.1	-42.9	18.9	0.00e+00	0	53	0	817889280	47	3853
2026-01-04 12:18:59.21	176.06	17.48	-42.3	-43.1	18.7	0.00e+00	0	53	0	823132160	47	3937
2026-01-04 12:19:00.19	176.12	17.59	-42.1	-42.8	19.0	0.00e+00	0	53	0	828375040	47	3815
2026-01-04 12:19:01.18	176.18	17.71	-41.8	-42.6	19.2	0.00e+00	0	53	0	834666496	46	3927
2026-01-04 12:19:02.18	176.24	17.82	-41.7	-42.5	19.3	0.00e+00	0	53	0	839909376	46	3881
2026-01-04 12:19:03.17	176.30	17.94	-41.6	-42.4	19.4	0.00e+00	0	53	0	845152256	46	3829
2026-01-04 12:19:04.16	176.36	18.05	-41.6	-42.3	19.5	0.00e+00	0	54	0	851443712	46	3803
2026-01-04 12:19:05.15	176.42	18.17	-41.4	-42.2	19.6	0.00e+00	0	53	0	856686592	46	3744
2026-01-04 12:19:06.14	176.49	18.29	-41.4	-42.1	19.6	0.00e+00	0	54	0	861929472	46	3727
2026-01-04 12:19:07.13	176.55	18.40	-41.5	-42.2	19.6	0.00e+00	0	54	0	868220928	46	3769
2026-01-04 12:19:08.12	176.61	18.52	-41.4	-42.1	19.7	0.00e+00	0	54	0	873463808	46	3723
2026-01-04 12:19:09.11	176.68	18.64	-41.3	-42.0	19.7	0.00e+00	0	54	0	878706688	45	3909
2026-01-04 12:19:10.09	176.74	18.76	-41.3	-42.0	19.7	0.00e+00	0	54	0	883949568	45	3911
2026-01-04 12:19:11.09	176.81	18.88	-41.4	-42.1	19.6	0.00e+00	0	54	0	890241024	45	3948
2026-01-04 12:19:12.07	176.87	19.00	-41.5	-42.2	19.5	0.00e+00	0	54	0	895483904	45	3997
2026-01-04 12:19:13.06	176.94	19.12	-41.4	-42.2	19.6	0.00e+00	0	54	0	900726784	45	3965
2026-01-04 12:19:14.04	177.00	19.24	-41.5	-42.2	19.5	0.00e+00	0	54	0	907018240	45	4000
2026-01-04 12:19:15.03	177.07	19.36	-41.6	-42.4	19.4	0.00e+00	0	54	0	912261120	45	4060
2026-01-04 12:19:16.02	177.14	19.48	-41.9	-42.6	19.2	0.00e+00	0	54	0	917504000	45	4182
2026-01-04 12:19:17.01	177.21	19.60	-41.6	-42.3	19.5	0.00e+00	0	54	0	923795456	45	4032
2026-01-04 12:19:18.00	177.28	19.72	-41.7	-42.5	19.4	0.00e+00	0	54	0	929038336	45	4102
2026-01-04 12:19:19.00	177.34	19.85	-41.7	-42.4	19.4	0.00e+00	0	54	0	934281216	45	4098
2026-01-04 12:19:19.99	177.41	19.97	-41.6	-42.3	19.5	0.00e+00	0	54	0	940572672	45	4029
2026-01-04 12:19:20.97	177.48	20.10	-41.4	-42.1	19.7	0.00e+00	0	54	0	945815552	45	3947
2026-01-04 12:19:21.96	177.55	20.22	-41.3	-42.0	19.7	0.00e+00	0	54	0	951058432	45	3912
2026-01-04 12:19:22.94	177.62	20.35	-41.3	-42.0	19.7	0.00e+00	0	54	0	956301312	45	3911
2026-01-04 12:19:23.93	177.70	20.47	-41.5	-42.2	19.6	0.00e+00	0	54	0	962592768	45	3968
2026-01-04 12:19:24.93	177.77	20.60	-41.7	-42.5	19.3	0.00e+00	0	54	0	967835648	45	4116
2026-01-04 12:19:25.92	177.84	20.73	-41.5	-42.2	19.6	0.00e+00	0	54	0	973078528	45	3993
2026-01-04 12:19:26.90	177.92	20.86	-41.3	-42.0	19.8	0.00e+00	0	54	0	979369984	45	3880
2026-01-04 12:19:27.88	177.99	20.99	-41.2	-41.9	19.9	0.00e+00	0	54	0	984612864	45	3834
2026-01-04 12:19:28.86	178.06	21.11	-41.2	-41.9	19.9	0.00e+00	0	54	0	989855744	45	3840
2026-01-04 12:19:29.85	178.14	21.24	-41.4	-42.1	19.7	0.00e+00	0	54	0	995098624	45	3939
2026-01-04 12:19:30.84	178.21	21.37	-41.3	-42.1	19.8	0.00e+00	0	54	0	1001390080	45	3918
2026-01-04 12:19:31.84	178.29	21.51	-41.2	-41.9	19.9	0.00e+00	0	54	0	1006632960	45	3865
2026-01-04 12:19:32.83	178.37	21.64	-41.2	-41.9	19.9	0.00e+00	0	54	0	1012924416	45	3860
2026-01-04 12:19:33.82	178.45	21.77	-41.1	-41.8	20.0	0.00e+00	0	54	0	1018167296	45	3800
2026-01-04 12:19:34.81	178.52	21.91	-41.1	-41.8	20.0	0.00e+00	0	54	0	1023410176	45	3782
2026-01-04 12:19:35.81	178.60	22.04	-41.1	-41.8	20.0	0.00e+00	0	54	0	1028653056	45	3787
2026-01-04 12:19:36.80	178.68	22.18	-41.1	-41.8	20.0	0.00e+00	0	54	0	1034944512	45	3787
2026-01-04 12:19:37.79	178.76	22.31	-41.2	-41.9	19.9	0.00e+00	0	54	0	1040187392	45	3857
2026-01-04 12:19:38.79	178.85	22.45	-41.1	-41.8	20.0	0.00e+00	0	54	0	1045430272	45	3800
2026-01-04 12:19:39.77	178.93	22.58	-40.9	-41.5	20.2	0.00e+00	0	54	0	1051721728	44	3908
2026-01-04 12:19:40.76	179.01	22.72	-40.7	-41.4	20.4	0.00e+00	0	54	0	1056964608	44	3842
2026-01-04 12:19:41.76	179.09	22.86	-40.7	-41.4	20.4	0.00e+00	0	54	0	1062207488	44	3836
2026-01-04 12:19:42.74	179.17	23.00	-40.8	-41.4	20.4	0.00e+00	0	54	0	1068498944	44	3856
2026-01-04 12:19:43.73	179.26	23.14	-40.9	-41.6	20.2	0.00e+00	0	54	0	1073741824	44	3917
2026-01-04 12:19:44.72	179.34	23.28	-40.8	-41.5	20.3	0.00e+00	0	54	0	1078984704	44	3872
2026-01-04 12:19:45.70	179.43	23.42	-40.7	-41.3	20.5	0.00e+00	0	54	0	1084227584	44	3811
2026-01-04 12:19:46.69	179.52	23.56	-40.7	-41.3	20.5	0.00e+00	0	54	0	1090519040	44	3810
2026-01-04 12:19:47.69	179.60	23.70	-40.6	-41.3	20.5	0.00e+00	0	54	0	1095761920	44	3806
2026-01-04 12:19:48.68	179.69	23.85	-40.7	-41.4	20.4	0.00e+00	0	54	0	1102053376	44	3833
2026-01-04 12:19:49.66	179.78	23.99	-40.7	-41.4	20.4	0.00e+00	0	54	0	1107296256	44	3848
2026-01-04 12:19:50.66	179.87	24.14	-40.7	-41.3	20.5	0.00e+00	0	54	0	1112539136	44	3810
2026-01-04 12:19:51.64	179.96	24.28	-40.7	-41.3	20.5	0.00e+00	0	54	0	1117782016	44	3809
2026-01-04 12:19:52.62	180.05	24.42	-40.8	-41.5	20.4	0.00e+00	0	54	0	1124073472	44	3869
2026-01-04 12:19:53.61	180.14	24.57	-40.7	-41.4	20.4	0.00e+00	0	54	0	1129316352	44	3833
2026-01-04 12:19:54.60	180.24	24.72	-40.6	-41.2	20.6	0.00e+00	0	54	0	1134559232	44	3780
2026-01-04 12:19:55.59	180.33	24.87	-40.7	-41.3	20.5	0.00e+00	0	54	0	1140850688	44	3801
2026-01-04 12:19:56.58	180.42	25.02	-40.9	-41.5	20.3	0.00e+00	0	55	0	1146093568	44	3901
2026-01-04 12:19:57.57	180.52	25.16	-40.8	-41.5	20.3	0.00e+00	0	55	0	1151336448	44	3886
2026-01-04 12:19:58.56	180.62	25.32	-40.7	-41.3	20.5	0.00e+00	0	54	0	1156579328	44	3811
2026-01-04 12:19:59.55	180.71	25.47	-40.6	-41.2	20.6	0.00e+00	0	55	0	1162870784	44	3771
2026-01-04 12:20:00.54	180.81	25.62	-40.4	-41.1	20.7	0.00e+00	0	55	0	1168113664	44	3712
2026-01-04 12:20:01.53	180.91	25.77	-40.4	-41.0	20.8	0.00e+00	0	55	0	1174405120	44	3678
2026-01-04 12:20:02.52	181.01	25.93	-40.3	-40.9	20.7	0.00e+00	0	55	0	1179648000	43	3868
2026-01-04 12:20:03.51	181.11	26.08	-40.2	-40.9	20.9	0.00e+00	0	54	0	1184890880	43	3828
2026-01-04 12:20:04.51	181.21	26.24	-40.2	-40.8	20.9	0.00e+00	0	55	0	1190133760	43	3792
2026-01-04 12:20:05.50	181.32	26.39	-40.1	-40.7	20.9	0.00e+00	0	55	0	1196425216	43	3772
2026-01-04 12:20:06.49	181.42	26.55	-40.0	-40.6	21.1	0.00e+00	0	55	0	1201668096	43	3720
2026-01-04 12:20:07.48	181.53	26.71	-40.0	-40.6	21.1	0.00e+00	0	55	0	1206910976	43	3723
2026-01-04 12:20:08.48	181.63	26.87	-40.1	-40.7	21.0	0.00e+00	0	55	0	1213202432	43	3753
2026-01-04 12:20:09.47	181.74	27.03	-40.0	-40.7	21.0	0.00e+00	0	54	0	1218445312	43	3746
2026-01-04 12:20:10.46	181.85	27.19	-40.1	-40.7	21.0	0.00e+00	0	54	0	1223688192	43	3763
2026-01-04 12:20:11.45	181.96	27.35	-40.1	-40.7	21.0	0.00e+00	0	55	0	1229979648	43	3749
2026-01-04 12:20:12.43	182.06	27.51	-40.2	-40.8	20.9	0.00e+00	0	55	0	1235222528	43	3802
2026-01-04 12:20:13.42	182.17	27.67	-40.2	-40.9	20.9	0.00e+00	0	55	0	1240465408	43	3829
2026-01-04 12:20:14.42	182.29	27.84	-40.2	-40.8	20.9	0.00e+00	0	55	0	1245708288	43	3796
2026-01-04 12:20:15.41	182.40	28.00	-40.1	-40.8	20.9	0.00e+00	0	55	0	1251999744	43	3788
2026-01-04 12:20:16.40	182.52	28.17	-40.2	-40.8	20.9	0.00e+00	0	55	0	1257242624	43	3801
2026-01-04 12:20:17.38	182.63	28.33	-40.2	-40.8	20.9	0.00e+00	0	55	0	1263534080	43	3792
2026-01-04 12:20:18.37	182.75	28.50	-40.2	-40.9	20.8	0.00e+00	0	55	0	1268776960	43	3835
2026-01-04 12:20:19.37	182.87	28.67	-40.3	-40.9	20.8	0.00e+00	0	55	0	1274019840	43	3861
2026-01-04 12:20:20.36	182.98	28.84	-40.3	-40.9	20.8	0.00e+00	0	55	0	1279262720	43	3851
2026-01-04 12:20:21.36	183.11	29.01	-40.5	-41.2	20.5	0.00e+00	0	55	0	1285554176	43	3991
2026-01-04 12:20:22.35	183.23	29.18	-40.7	-41.4	20.3	0.00e+00	0	55	0	1290797056	43	4078
2026-01-04 12:20:23.34	183.35	29.35	-40.6	-41.3	20.5	0.00e+00	0	55	0	1296039936	43	4028
2026-01-04 12:20:24.33	183.47	29.52	-40.6	-41.3	20.5	0.00e+00	0	55	0	1302331392	43	4016
2026-01-04 12:20:25.32	183.60	29.70	-40.6	-41.2	20.5	0.00e+00	0	55	0	1307574272	43	4001
2026-01-04 12:20:26.30	183.72	29.87	-40.3	-41.0	20.7	0.00e+00	0	55	0	1312817152	43	3881
2026-01-04 12:20:27.30	183.85	30.05	-40.3	-40.9	20.8	0.00e+00	0	55	0	1319108608	43	3855
2026-01-04 12:20:28.29	183.98	30.22	-40.4	-41.0	20.7	0.00e+00	0	55	0	1324351488	43	3892
2026-01-04 12:20:29.27	184.11	30.40	-40.5	-41.1	20.6	0.00e+00	0	55	0	1329594368	43	3957
2026-01-04 12:20:30.26	184.24	30.58	-40.9	-41.5	20.3	0.00e+00	0	55	0	1334837248	43	4135
2026-01-04 12:20:31.25	184.38	30.76	-40.7	-41.4	20.4	0.00e+00	0	55	0	1341128704	43	4078
2026-01-04 12:20:32.23	184.51	30.93	-41.0	-41.6	20.3	0.00e+00	0	55	0	1346371584	43	4188
2026-01-04 12:20:33.23	184.65	31.12	-40.6	-41.2	20.7	0.00e+00	0	55	0	1352663040	43	3988
2026-01-04 12:20:34.22	184.79	31.30	-40.3	-40.9	21.1	0.00e+00	0	55	0	1357905920	43	3829
2026-01-04 12:20:35.21	184.93	31.48	-40.1	-40.6	21.3	0.00e+00	0	55	0	1363148800	43	3718
2026-01-04 12:20:36.20	185.07	31.67	-40.0	-40.6	21.3	0.00e+00	0	55	0	1368391680	43	3696
2026-01-04 12:20:37.19	185.21	31.85	-40.1	-40.6	21.3	0.00e+00	0	55	0	1374683136	43	3724
2026-01-04 12:20:38.19	185.36	32.04	-40.1	-40.7	21.2	0.00e+00	0	55	0	1379926016	43	3749
2026-01-04 12:20:39.18	185.50	32.22	-40.2	-40.7	21.2	0.00e+00	0	55	0	1385168896	43	3776
2026-01-04 12:20:40.18	185.65	32.41	-40.2	-40.7	21.2	0.00e+00	0	55	0	1391460352	43	3777
2026-01-04 12:20:41.17	185.80	32.60	-40.1	-40.7	21.3	0.00e+00	0	55	0	1396703232	43	3738
2026-01-04 12:20:42.16	185.95	32.79	-40.1	-40.7	21.3	0.00e+00	0	55	0	1401946112	43	3744
2026-01-04 12:20:43.16	186.10	32.99	-40.3	-40.9	21.1	0.00e+00	0	55	0	1408237568	43	3831
2026-01-04 12:20:44.15	186.26	33.18	-40.6	-41.2	20.8	0.00e+00	0	55	0	1413480448	43	3980
2026-01-04 12:20:45.14	186.41	33.37	-40.6	-41.2	20.7	0.00e+00	0	55	0	1418723328	43	3997
2026-01-04 12:20:46.13	186.57	33.56	-40.6	-41.2	20.7	0.00e+00	0	55	0	1425014784	43	3987
2026-01-04 12:20:47.13	186.73	33.76	-40.7	-41.3	20.6	0.00e+00	0	55	0	1430257664	43	4035
2026-01-04 12:20:48.12	186.89	33.96	-40.9	-41.5	20.5	0.00e+00	0	55	0	1435500544	43	4115
2026-01-04 12:20:49.11	187.06	34.15	-40.6	-41.2	20.8	0.00e+00	0	55	0	1441792000	43	3976
2026-01-04 12:20:50.09	187.22	34.35	-40.5	-41.0	20.9	0.00e+00	0	55	0	1447034880	43	3909
2026-01-04 12:20:51.09	187.39	34.55	-40.5	-41.1	20.8	0.00e+00	0	55	0	1452277760	43	3936
2026-01-04 12:20:52.08	187.56	34.75	-40.5	-41.1	20.8	0.00e+00	0	55	0	1458569216	43	3943
2026-01-04 12:20:53.08	187.73	34.95	-41.3	-41.9	20.2	0.00e+00	0	55	0	1463812096	44	4074
2026-01-04 12:20:54.07	187.91	35.15	-40.7	-41.3	20.8	0.00e+00	0	55	0	1469054976	44	3812
2026-01-04 12:20:55.06	188.08	35.36	-40.2	-40.8	21.1	0.00e+00	0	55	0	1475346432	43	3798
2026-01-04 12:20:56.05	188.26	35.56	-39.9	-40.4	21.5	0.00e+00	0	55	0	1480589312	42	3848
2026-01-04 12:20:57.04	188.44	35.76	-39.6	-40.2	21.7	0.00e+00	0	55	0	1485832192	42	3751
2026-01-04 12:20:58.04	188.62	35.97	-39.6	-40.2	21.8	0.00e+00	0	55	0	1492123648	42	3744
2026-01-04 12:20:59.03	188.81	36.18	-39.7	-40.3	21.6	0.00e+00	0	55	0	1497366528	42	3798
2026-01-04 12:21:00.02	188.99	36.39	-39.6	-40.1	21.8	0.00e+00	0	55	0	1502609408	42	3720
2026-01-04 12:21:01.01	189.18	36.60	-39.6	-40.1	21.8	0.00e+00	0	55	0	1507852288	42	3720
2026-01-04 12:21:01.99	189.37	36.80	-39.7	-40.2	21.7	0.00e+00	0	55	0	1514143744	42	3777
2026-01-04 12:21:02.98	189.57	37.01	-39.5	-40.1	21.8	0.00e+00	0	55	0	1519386624	42	3706
2026-01-04 12:21:03.97	189.76	37.23	-39.5	-40.0	21.9	0.00e+00	0	55	0	1525678080	42	3667
2026-01-04 12:21:04.96	189.96	37.44	-39.4	-40.0	21.9	0.00e+00	0	55	0	1530920960	42	3668
2026-01-04 12:21:05.94	190.16	37.65	-39.6	-40.2	21.7	0.00e+00	0	55	0	1536163840	42	3750
2026-01-04 12:21:06.93	190.36	37.87	-39.8	-40.3	21.6	0.00e+00	0	55	0	1541406720	42	3822
2026-01-04 12:21:07.93	190.57	38.08	-39.8	-40.3	21.6	0.00e+00	0	55	0	1547698176	42	3814
2026-01-04 12:21:08.92	190.78	38.30	-39.8	-40.3	21.6	0.00e+00	0	55	0	1552941056	42	3810
2026-01-04 12:21:09.91	190.99	38.52	-40.0	-40.5	21.4	0.00e+00	0	55	0	1558183936	42	3909
2026-01-04 12:21:10.90	191.21	38.74	-39.9	-40.5	21.5	0.00e+00	0	55	0	1564475392	42	3872
2026-01-04 12:21:11.89	191.43	38.96	-39.9	-40.5	21.5	0.00e+00	0	55	0	1569718272	42	3872
2026-01-04 12:21:12.88	191.65	39.18	-40.2	-40.8	21.2	0.00e+00	0	55	0	1574961152	42	4019
2026-01-04 12:21:13.87	191.87	39.40	-40.1	-40.7	21.3	0.00e+00	0	55	0	1580204032	42	3966
2026-01-04 12:21:14.86	192.10	39.62	-40.1	-40.7	21.3	0.00e+00	0	55	0	1586495488	42	3976
2026-01-04 12:21:15.84	192.32	39.84	-40.3	-40.9	21.1	0.00e+00	0	55	0	1591738368	42	4073
2026-01-04 12:21:16.83	192.56	40.07	-40.0	-40.5	21.4	0.00e+00	0	55	0	1596981248	42	3908
2026-01-04 12:21:17.82	192.79	40.29	-39.8	-40.3	21.6	0.00e+00	0	55	0	1603272704	42	3823
2026-01-04 12:21:18.81	193.03	40.52	-40.1	-40.7	21.3	0.00e+00	0	55	0	1608515584	42	3962
2026-01-04 12:21:19.81	193.28	40.75	-40.4	-40.9	21.0	0.00e+00	0	56	0	1613758464	42	4094
2026-01-04 12:21:20.80	193.52	40.98	-40.4	-41.0	21.0	0.00e+00	0	56	0	1620049920	42	4110
2026-01-04 12:21:21.79	193.77	41.20	-40.2	-40.8	21.2	0.00e+00	0	56	0	1625292800	42	4027
2026-01-04 12:21:22.78	194.02	41.43	-40.4	-40.9	21.0	0.00e+00	0	56	0	1630535680	42	4091
2026-01-04 12:21:23.77	194.28	41.66	-40.4	-40.9	21.1	0.00e+00	0	56	0	1636827136	42	4086
2026-01-04 12:21:24.76	194.54	41.90	-40.3	-40.9	21.1	0.00e+00	0	56	0	1642070016	42	4076
2026-01-04 12:21:25.75	194.80	42.13	-40.4	-41.0	21.0	0.00e+00	0	56	0	1647312896	42	4128
2026-01-04 12:21:26.74	195.07	42.36	-40.3	-40.9	21.1	0.00e+00	0	56	0	1653604352	42	4081
2026-01-04 12:21:27.73	195.34	42.59	-40.2	-40.7	21.2	0.00e+00	0	55	0	1658847232	42	4000
2026-01-04 12:21:28.71	195.61	42.83	-40.1	-40.7	21.3	0.00e+00	0	56	0	1664090112	42	3974
2026-01-04 12:21:29.70	195.89	43.06	-40.1	-40.6	21.4	0.00e+00	0	56	0	1669332992	42	3937
2026-01-04 12:21:30.68	196.17	43.30	-40.1	-40.6	21.4	0.00e+00	0	56	0	1675624448	42	3951
2026-01-04 12:21:31.67	196.46	43.53	-40.3	-40.8	21.2	0.00e+00	0	56	0	1680867328	42	4041
2026-01-04 12:21:32.66	196.75	43.77	-40.3	-40.9	21.1	0.00e+00	0	56	0	1686110208	42	4087
2026-01-04 12:21:33.64	197.05	44.00	-40.3	-40.8	21.1	0.00e+00	0	56	0	1692401664	42	4049
2026-01-04 12:21:34.63	197.35	44.24	-40.2	-40.7	21.3	0.00e+00	0	56	0	1697644544	42	3988
2026-01-04 12:21:35.62	197.65	44.48	-40.1	-40.6	21.3	0.00e+00	0	56	0	1702887424	42	3949
2026-01-04 12:21:36.61	197.96	44.72	-40.0	-40.5	21.4	0.00e+00	0	56	0	1708130304	42	3911
2026-01-04 12:21:37.60	198.27	44.96	-40.0	-40.5	21.5	0.00e+00	0	56	0	1714421760	42	3896
2026-01-04 12:21:38.58	198.59	45.20	-40.0	-40.6	21.4	0.00e+00	0	56	0	1719664640	42	3925
2026-01-04 12:21:39.57	198.91	45.44	-40.2	-40.8	21.2	0.00e+00	0	56	0	1724907520	42	4007
2026-01-04 12:21:40.57	199.24	45.69	-40.2	-40.7	21.3	0.00e+00	0	56	0	1731198976	42	3998
2026-01-04 12:21:41.55	199.57	45.93	-40.0	-40.5	21.5	0.00e+00	0	56	0	1736441856	42	3895
2026-01-04 12:21:42.55	199.91	46.17	-40.0	-40.6	21.4	0.00e+00	0	56	0	1741684736	42	3922
2026-01-04 12:21:43.53	200.25	46.41	-40.1	-40.7	21.3	0.00e+00	0	56	0	1747976192	42	3983
2026-01-04 12:21:44.52	200.60	46.65	-40.2	-40.7	21.3	0.00e+00	0	56	0	1753219072	42	3985
2026-01-04 12:21:45.52	200.96	46.90	-40.1	-40.7	21.3	0.00e+00	0	56	0	1758461952	42	3975
2026-01-04 12:21:46.51	201.32	47.14	-40.2	-40.7	21.3	0.00e+00	0	56	0	1764753408	42	3993
2026-01-04 12:21:47.50	201.68	47.39	-40.4	-41.0	21.0	0.00e+00	0	56	0	1769996288	42	4115
2026-01-04 12:21:48.48	202.05	47.63	-40.5	-41.0	21.0	0.00e+00	0	56	0	1775239168	42	4142
2026-01-04 12:21:49.47	202.43	47.87	-40.3	-40.8	21.2	0.00e+00	0	56	0	1780482048	42	4036
2026-01-04 12:21:50.46	202.81	48.12	-40.5	-41.1	20.9	0.00e+00	0	56	0	1786773504	42	4165
2026-01-04 12:21:51.45	203.20	48.36	-40.7	-41.3	20.7	0.00e+00	0	56	0	1792016384	43	4041
2026-01-04 12:21:52.44	203.59	48.61	-40.7	-41.3	20.7	0.00e+00	0	56	0	1797259264	43	4043
2026-01-04 12:21:53.43	203.99	48.85	-40.8	-41.4	20.7	0.00e+00	0	56	0	1803550720	43	4057
2026-01-04 12:21:54.41	204.39	49.09	-40.8	-41.4	20.6	0.00e+00	0	56	0	1808793600	43	4075
2026-01-04 12:21:55.41	204.81	49.34	-40.8	-41.4	20.6	0.00e+00	0	56	0	1814036480	43	4074
2026-01-04 12:21:56.40	205.23	49.58	-40.9	-41.5	20.6	0.00e+00	0	56	0	1820327936	43	4123
2026-01-04 12:21:57.39	205.66	49.83	-40.8	-41.4	20.6	0.00e+00	0	56	0	1825570816	43	4090
2026-01-04 12:21:58.37	206.09	50.07	-40.5	-41.1	20.8	0.00e+00	0	56	0	1830813696	43	3949
2026-01-04 12:21:59.35	206.52	50.31	-40.6	-41.2	20.8	0.00e+00	0	56	0	1836056576	43	3990
2026-01-04 12:22:00.35	206.97	50.55	-40.8	-41.4	20.7	0.00e+00	0	56	0	1842348032	43	4081
2026-01-04 12:22:01.33	207.42	50.79	-40.7	-41.3	20.7	0.00e+00	0	56	0	1847590912	43	4034
2026-01-04 12:22:02.32	207.89	51.03	-40.5	-41.0	21.0	0.00e+00	0	56	0	1853882368	43	3908
2026-01-04 12:22:03.31	208.35	51.27	-40.4	-41.0	21.0	0.00e+00	0	56	0	1859125248	43	3883
2026-01-04 12:22:04.30	208.83	51.51	-40.7	-41.3	20.8	0.00e+00	0	56	0	1864368128	43	4008
2026-01-04 12:22:05.30	209.32	51.75	-40.8	-41.4	20.7	0.00e+00	0	56	0	1869611008	43	4071
2026-01-04 12:22:06.29	209.81	51.99	-41.3	-41.9	20.3	0.00e+00	0	56	0	1875902464	44	4073
2026-01-04 12:22:07.28	210.31	52.22	-41.2	-41.8	20.3	0.00e+00	0	56	0	1881145344	44	4049
2026-01-04 12:22:08.27	210.82	52.46	-41.2	-41.8	20.4	0.00e+00	0	56	0	1886388224	44	4018
2026-01-04 12:22:09.27	211.34	52.70	-40.7	-41.2	20.9	0.00e+00	0	56	0	1892679680	44	3770
2026-01-04 12:22:10.26	211.86	52.93	-40.5	-41.1	21.0	0.00e+00	0	56	0	1897922560	44	3710
2026-01-04 12:22:11.24	212.39	53.16	-40.9	-41.5	20.6	0.00e+00	0	56	0	1903165440	44	3903
2026-01-04 12:22:12.24	212.94	53.39	-41.0	-41.6	20.6	0.00e+00	0	56	0	1909456896	44	3941
2026-01-04 12:22:13.23	213.49	53.62	-40.8	-41.4	20.7	0.00e+00	0	56	0	1914699776	44	3845
2026-01-04 12:22:14.21	214.04	53.84	-40.7	-41.3	20.9	0.00e+00	0	56	0	1919942656	44	3794
2026-01-04 12:22:15.20	214.60	54.07	-41.0	-41.6	20.6	0.00e+00	0	56	0	1925185536	44	3930
2026-01-04 12:22:16.18	215.17	54.29	-41.0	-41.7	20.5	0.00e+00	0	56	0	1931476992	44	3964
2026-01-04 12:22:17.16	215.75	54.51	-41.1	-41.7	20.4	0.00e+00	0	56	0	1936719872	44	3994
2026-01-04 12:22:18.14	216.34	54.73	-40.9	-41.5	20.6	0.00e+00	0	56	0	1941962752	44	3905
2026-01-04 12:22:19.13	216.94	54.94	-40.9	-41.4	20.7	0.00e+00	0	56	0	1948254208	44	3868
2026-01-04 12:22:20.12	217.55	55.16	-40.8	-41.4	20.7	0.00e+00	0	56	0	1953497088	44	3850
2026-01-04 12:22:21.11	218.17	55.37	-40.8	-41.4	20.8	0.00e+00	0	56	0	1958739968	44	3825
2026-01-04 12:22:22.10	218.80	55.58	-40.9	-41.5	20.6	0.00e+00	0	56	0	1963982848	44	3903
2026-01-04 12:22:23.08	219.43	55.79	-41.1	-41.8	20.5	0.00e+00	0	56	0	1970274304	44	4007
2026-01-04 12:22:24.08	220.09	56.00	-41.5	-42.2	20.0	0.00e+00	0	56	0	1975517184	44	4204
2026-01-04 12:22:25.07	220.75	56.20	-41.2	-41.8	20.4	0.00e+00	0	56	0	1980760064	44	4014
2026-01-04 12:22:26.05	221.41	56.39	-40.6	-41.2	21.0	0.00e+00	0	56	0	1987051520	44	3742
2026-01-04 12:22:27.05	222.09	56.59	-40.8	-41.3	20.8	0.00e+00	0	56	0	1992294400	44	3806
2026-01-04 12:22:28.03	222.77	56.78	-40.8	-41.3	20.8	0.00e+00	0	56	0	1997537280	44	3818
2026-01-04 12:22:29.01	223.46	56.97	-41.2	-41.9	20.3	0.00e+00	0	56	0	2002780160	44	4066
2026-01-04 12:22:29.98	224.15	57.15	-41.1	-41.7	20.4	0.00e+00	0	56	0	2009071616	44	3997
2026-01-04 12:22:30.97	224.86	57.34	-41.2	-41.9	20.4	0.00e+00	0	56	0	2014314496	44	4053
2026-01-04 12:22:31.96	225.59	57.52	-41.7	-42.3	19.8	0.00e+00	0	56	0	2019557376	45	4051
2026-01-04 12:22:32.95	226.32	57.69	-41.1	-41.8	20.4	0.00e+00	0	56	0	2025848832	45	3781
2026-01-04 12:22:33.94	227.06	57.86	-40.8	-41.3	20.8	0.00e+00	0	56	0	2031091712	44	3820
2026-01-04 12:22:34.92	227.81	58.03	-40.8	-41.5	20.7	0.00e+00	0	56	0	2036334592	44	3877
2026-01-04 12:22:35.92	228.58	58.19	-41.1	-41.7	20.5	0.00e+00	0	56	0	2042626048	44	3993
2026-01-04 12:22:36.90	229.34	58.35	-41.3	-41.9	20.3	0.00e+00	0	56	0	2047868928	44	4076
2026-01-04 12:22:37.89	230.12	58.51	-40.7	-41.3	20.9	0.00e+00	0	56	0	2053111808	44	3798
2026-01-04 12:22:38.88	230.91	58.66	-40.2	-40.7	21.3	0.00e+00	0	56	0	2059403264	43	3771
2026-01-04 12:22:39.87	231.71	58.80	-40.2	-40.8	21.3	0.00e+00	0	56	0	2064646144	43	3789
2026-01-04 12:22:40.86	232.51	58.94	-40.3	-40.8	21.2	0.00e+00	0	56	0	2069889024	43	3817
2026-01-04 12:22:41.85	233.33	59.08	-40.5	-41.1	21.0	0.00e+00	0	56	0	2075131904	43	3925
2026-01-04 12:22:42.84	234.15	59.21	-40.4	-41.0	21.1	0.00e+00	0	56	0	2081423360	43	3872
2026-01-04 12:22:43.84	234.99	59.34	-40.5	-41.1	20.9	0.00e+00	0	56	0	2086666240	43	3943
2026-01-04 12:22:44.83	235.83	59.46	-41.0	-41.6	20.5	0.00e+00	0	56	0	2092957696	43	4154
2026-01-04 12:22:45.82	236.67	59.57	-40.7	-41.3	20.7	0.00e+00	0	56	0	2098200576	43	4042
2026-01-04 12:22:46.81	237.52	59.68	-40.3	-40.9	21.1	0.00e+00	0	56	0	2103443456	43	3846
2026-01-04 12:22:47.81	238.39	59.79	-40.1	-40.7	21.4	0.00e+00	0	56	0	2108686336	43	3740
2026-01-04 12:22:48.80	239.26	59.89	-40.0	-40.5	21.5	0.00e+00	0	56	0	2114977792	43	3693
2026-01-04 12:22:49.79	240.13	59.98	-40.2	-40.8	21.3	0.00e+00	0	56	0	2120220672	43	3790
2026-01-04 12:22:50.78	241.01	60.07	-40.2	-40.7	21.3	0.00e+00	0	56	0	2125463552	43	3774
2026-01-04 12:22:51.77	241.90	60.15	-40.1	-40.7	21.3	0.00e+00	0	56	0	2131755008	43	3756
2026-01-04 12:22:52.76	242.79	60.22	-40.2	-40.7	21.3	0.00e+00	0	56	0	2136997888	43	3774
2026-01-04 12:22:53.74	243.68	60.29	-41.0	-41.6	20.5	0.00e+00	0	56	0	2142240768	43	4162
2026-01-04 12:22:54.73	244.58	60.35	-41.3	-41.9	20.3	0.00e+00	0	56	0	2148532224	44	4089
2026-01-04 12:22:55.72	245.48	60.41	-41.1	-41.7	20.4	0.00e+00	0	56	0	2153775104	44	4001
2026-01-04 12:22:56.71	246.39	60.46	-41.6	-42.2	19.9	0.00e+00	0	56	0	2159017984	44	4241
2026-01-04 12:22:57.70	247.30	60.51	-41.8	-42.5	19.7	0.00e+00	0	56	0	2164260864	45	4144
2026-01-04 12:22:58.69	248.22	60.54	-41.4	-42.0	20.2	0.00e+00	0	56	0	2170552320	45	3880
2026-01-04 12:22:59.68	249.13	60.58	-41.3	-41.9	20.3	0.00e+00	0	56	0	2175795200	45	3837
2026-01-04 12:23:00.67	250.05	60.60	-41.5	-42.2	20.0	0.00e+00	0	56	0	2181038080	45	3979
2026-01-04 12:23:01.65	250.96	60.62	-41.3	-42.0	20.2	0.00e+00	0	56	0	2187329536	45	3885
2026-01-04 12:23:02.65	251.90	60.63	-41.0	-41.6	20.5	0.00e+00	0	56	0	2192572416	45	3733
2026-01-04 12:23:03.64	252.82	60.64	-40.8	-41.3	20.8	0.00e+00	0	56	0	2197815296	44	3821
2026-01-04 12:23:04.63	253.74	60.64	-41.0	-41.7	20.5	0.00e+00	0	56	0	2204106752	44	3959
2026-01-04 12:23:05.62	254.66	60.63	-41.3	-42.0	20.2	0.00e+00	0	56	0	2209349632	44	4101
2026-01-04 12:23:06.60	255.57	60.61	-40.8	-41.4	20.8	0.00e+00	0	56	0	2214592512	44	3829
2026-01-04 12:23:07.59	256.49	60.59	-40.0	-40.5	21.5	0.00e+00	0	56	0	2220883968	43	3675
2026-01-04 12:23:08.58	257.41	60.57	-39.7	-40.2	21.8	0.00e+00	0	56	0	2226126848	42	3777
2026-01-04 12:23:09.57	258.33	60.53	-40.0	-40.6	21.4	0.00e+00	0	56	0	2231369728	42	3933
2026-01-04 12:23:10.57	259.25	60.49	-40.2	-40.8	21.3	0.00e+00	0	56	0	2236612608	42	4005
2026-01-04 12:23:11.56	260.16	60.45	-40.0	-40.6	21.5	0.00e+00	0	56	0	2242904064	42	3919
2026-01-04 12:23:12.55	261.07	60.40	-40.0	-40.6	21.4	0.00e+00	0	56	0	2248146944	42	3938
2026-01-04 12:23:13.53	261.96	60.34	-40.1	-40.7	21.4	0.00e+00	0	56	0	2253389824	42	3963
2026-01-04 12:23:14.51	262.85	60.27	-40.0	-40.6	21.4	0.00e+00	0	56	0	2259681280	42	3934
2026-01-04 12:23:15.51	263.76	60.20	-39.9	-40.4	21.6	0.00e+00	0	56	0	2264924160	42	3841
2026-01-04 12:23:16.50	264.64	60.13	-39.8	-40.3	21.6	0.00e+00	0	56	0	2270167040	42	3819
2026-01-04 12:23:17.50	265.54	60.04	-40.2	-40.8	21.3	0.00e+00	0	56	0	2276458496	42	4014
2026-01-04 12:23:18.50	266.42	59.95	-40.2	-40.8	21.2	0.00e+00	0	56	0	2281701376	42	4042
2026-01-04 12:23:19.48	267.29	59.86	-40.1	-40.6	21.4	0.00e+00	0	56	0	2286944256	42	3958
2026-01-04 12:23:20.47	268.15	59.76	-40.2	-40.8	21.3	0.00e+00	0	56	0	2292187136	42	4005
2026-01-04 12:23:21.45	269.00	59.65	-40.5	-41.1	21.0	0.00e+00	0	56	0	2298478592	42	4156
2026-01-04 12:23:22.44	269.85	59.54	-40.8	-41.5	20.6	0.00e+00	0	56	0	2303721472	43	4102
2026-01-04 12:23:23.44	270.70	59.43	-40.7	-41.3	20.7	0.00e+00	0	56	0	2310012928	43	4037
2026-01-04 12:23:24.43	271.54	59.30	-40.2	-40.7	21.3	0.00e+00	0	56	0	2315255808	43	3767
2026-01-04 12:23:25.42	272.37	59.18	-40.4	-41.0	21.0	0.00e+00	0	56	0	2320498688	43	3885
2026-01-04 12:23:26.40	273.18	59.05	-40.9	-41.5	20.6	0.00e+00	0	56	0	2325741568	43	4125
2026-01-04 12:23:27.38	273.98	58.91	-40.6	-41.2	20.9	0.00e+00	0	56	0	2332033024	43	3969
2026-01-04 12:23:28.36	274.78	58.77	-40.3	-40.9	21.1	0.00e+00	0	57	0	2337275904	43	3843
2026-01-04 12:23:29.34	275.56	58.62	-40.6	-41.2	20.9	0.00e+00	0	56	0	2342518784	43	3978
2026-01-04 12:23:30.33	276.35	58.47	-41.0	-41.6	20.5	0.00e+00	0	56	0	2348810240	43	4175
2026-01-04 12:23:31.32	277.12	58.32	-40.9	-41.5	20.5	0.00e+00	0	56	0	2354053120	43	4141
2026-01-04 12:23:32.31	277.89	58.16	-40.9	-41.5	20.6	0.00e+00	0	56	0	2359296000	43	4101
2026-01-04 12:23:33.29	278.64	58.00	-41.0	-41.6	20.5	0.00e+00	0	56	0	2364538880	43	4157
2026-01-04 12:23:34.28	279.39	57.83	-41.5	-42.1	20.1	0.00e+00	0	56	0	2370830336	44	4169
2026-01-04 12:23:35.28	280.14	57.65	-42.0	-42.7	19.5	0.00e+00	0	56	0	2376073216	45	4212
2026-01-04 12:23:36.27	280.87	57.48	-41.7	-42.3	19.9	0.00e+00	0	56	0	2381316096	45	4038
2026-01-04 12:23:37.26	281.59	57.30	-41.1	-41.7	20.4	0.00e+00	0	56	0	2387607552	45	3780
2026-01-04 12:23:38.25	282.30	57.11	-41.3	-42.0	20.2	0.00e+00	0	56	0	2392850432	45	3870
2026-01-04 12:23:39.24	283.00	56.93	-41.8	-42.4	19.7	0.00e+00	0	56	0	2398093312	45	4098
2026-01-04 12:23:40.24	283.70	56.73	-41.7	-42.4	19.8	0.00e+00	0	56	0	2404384768	45	4071
2026-01-04 12:23:41.22	284.38	56.54	-41.3	-41.9	20.3	0.00e+00	0	56	0	2409627648	45	3836
2026-01-04 12:23:42.22	285.06	56.34	-40.9	-41.5	20.6	0.00e+00	0	56	0	2414870528	45	3681
2026-01-04 12:23:43.22	285.73	56.14	-40.8	-41.4	20.7	0.00e+00	0	56	0	2421161984	44	3863
2026-01-04 12:23:44.20	286.38	55.94	-40.9	-41.6	20.6	0.00e+00	0	56	0	2426404864	44	3923
2026-01-04 12:23:45.19	287.02	55.74	-40.9	-41.5	20.6	0.00e+00	0	56	0	2431647744	44	3907
2026-01-04 12:23:46.18	287.66	55.53	-40.9	-41.5	20.6	0.00e+00	0	56	0	2437939200	44	3896
2026-01-04 12:23:47.16	288.28	55.32	-41.1	-41.7	20.5	0.00e+00	0	57	0	2443182080	44	3979
2026-01-04 12:23:48.15	288.89	55.11	-41.5	-42.1	20.1	0.00e+00	0	56	0	2448424960	44	4189
2026-01-04 12:23:49.14	289.50	54.89	-41.4	-42.0	20.1	0.00e+00	0	56	0	2453667840	44	4127
2026-01-04 12:23:50.13	290.10	54.67	-41.4	-42.1	20.1	0.00e+00	0	57	0	2459959296	44	4159
2026-01-04 12:23:51.11	290.68	54.46	-41.8	-42.4	19.7	0.00e+00	0	56	0	2465202176	45	4094
2026-01-04 12:23:52.10	291.26	54.24	-41.6	-42.3	19.9	0.00e+00	0	56	0	2470445056	45	4011
2026-01-04 12:23:53.09	291.84	54.01	-41.4	-42.1	20.1	0.00e+00	0	57	0	2476736512	45	3931
2026-01-04 12:23:54.08	292.40	53.79	-41.7	-42.4	19.8	0.00e+00	0	56	0	2481979392	45	4056
2026-01-04 12:23:55.07	292.95	53.56	-42.0	-42.7	19.5	0.00e+00	0	56	0	2487222272	45	4242
2026-01-04 12:23:56.05	293.49	53.33	-41.7	-42.3	19.9	0.00e+00	0	56	0	2492465152	45	4041
2026-01-04 12:23:57.05	294.04	53.10	-41.2	-41.9	20.3	0.00e+00	0	57	0	2498756608	45	3836
2026-01-04 12:23:58.03	294.56	52.87	-41.1	-41.7	20.4	0.00e+00	0	56	0	2503999488	45	3766
2026-01-04 12:23:59.02	295.08	52.64	-41.2	-41.9	20.3	0.00e+00	0	56	0	2509242368	45	3826
2026-01-04 12:24:00.01	295.59	52.41	-41.2	-41.9	20.3	0.00e+00	0	56	0	2515533824	45	3839
2026-01-04 12:24:01.00	296.10	52.17	-41.4	-42.1	20.1	0.00e+00	0	57	0	2520776704	45	3925
2026-01-04 12:24:01.99	296.59	51.93	-41.0	-41.6	20.6	0.00e+00	0	57	0	2526019584	45	3704
2026-01-04 12:24:02.98	297.08	51.70	-40.6	-41.2	20.9	0.00e+00	0	56	0	2532311040	44	3759
2026-01-04 12:24:03.97	297.56	51.46	-40.6	-41.1	21.0	0.00e+00	0	56	0	2537553920	44	3732
2026-01-04 12:24:04.96	298.04	51.22	-40.6	-41.2	20.9	0.00e+00	0	57	0	2542796800	44	3767
2026-01-04 12:24:05.95	298.50	50.98	-40.6	-41.2	21.0	0.00e+00	0	56	0	2549088256	44	3744
2026-01-04 12:24:06.94	298.96	50.74	-40.8	-41.4	20.7	0.00e+00	0	56	0	2554331136	44	3853
2026-01-04 12:24:07.93	299.42	50.50	-40.7	-41.2	20.9	0.00e+00	0	56	0	2559574016	44	3776
2026-01-04 12:24:08.92	299.86	50.26	-40.5	-41.1	21.0	0.00e+00	0	57	0	2565865472	44	3711
2026-01-04 12:24:09.91	300.30	50.02	-40.4	-41.0	21.1	0.00e+00	0	56	0	2571108352	44	3676
2026-01-04 12:24:10.91	300.73	49.77	-40.2	-40.7	21.2	0.00e+00	0	57	0	2576351232	43	3776
2026-01-04 12:24:11.90	301.16	49.53	-40.1	-40.7	21.4	0.00e+00	0	57	0	2581594112	43	3745
2026-01-04 12:24:12.89	301.57	49.29	-40.2	-40.7	21.2	0.00e+00	0	57	0	2587885568	43	3780
2026-01-04 12:24:13.88	301.99	49.04	-40.4	-41.0	21.0	0.00e+00	0	57	0	2593128448	43	3881
2026-01-04 12:24:14.87	302.39	48.80	-40.5	-41.1	20.9	0.00e+00	0	57	0	2599419904	43	3958
2026-01-04 12:24:15.86	302.79	48.56	-40.5	-41.1	20.9	0.00e+00	0	56	0	2604662784	43	3937
2026-01-04 12:24:16.85	303.18	48.31	-40.5	-41.1	21.0	0.00e+00	0	56	0	2609905664	43	3921
2026-01-04 12:24:17.84	303.57	48.07	-40.5	-41.1	20.9	0.00e+00	0	57	0	2615148544	43	3945
2026-01-04 12:24:18.83	303.95	47.82	-41.0	-41.6	20.4	0.00e+00	0	56	0	2621440000	43	4180
2026-01-04 12:24:19.82	304.32	47.58	-41.4	-42.0	20.2	0.00e+00	0	56	0	2626682880	44	4121
2026-01-04 12:24:20.81	304.69	47.34	-41.3	-42.0	20.2	0.00e+00	0	56	0	2631925760	44	4112
2026-01-04 12:24:21.81	305.06	47.09	-41.4	-42.1	20.1	0.00e+00	0	57	0	2638217216	44	4152
2026-01-04 12:24:22.79	305.41	46.85	-41.7	-42.3	19.8	0.00e+00	0	56	0	2643460096	45	4042
2026-01-04 12:24:23.79	305.76	46.61	-41.9	-42.6	19.6	0.00e+00	0	56	0	2648702976	45	4153
2026-01-04 12:24:24.77	306.11	46.37	-42.0	-42.7	19.5	0.00e+00	0	56	0	2654994432	45	4225
2026-01-04 12:24:25.76	306.45	46.12	-41.8	-42.5	19.7	0.00e+00	0	56	0	2660237312	45	4124
2026-01-04 12:24:26.74	306.78	45.89	-41.4	-42.0	20.2	0.00e+00	0	56	0	2665480192	45	3882
2026-01-04 12:24:27.73	307.11	45.64	-41.1	-41.7	20.4	0.00e+00	0	57	0	2671771648	45	3761
2026-01-04 12:24:28.72	307.44	45.40	-41.0	-41.7	20.5	0.00e+00	0	57	0	2677014528	45	3741
2026-01-04 12:24:29.71	307.76	45.16	-41.0	-41.6	20.5	0.00e+00	0	57	0	2682257408	45	3725
2026-01-04 12:24:30.70	308.08	44.92	-41.1	-41.7	20.4	0.00e+00	0	57	0	2687500288	45	3771
2026-01-04 12:24:31.69	308.39	44.68	-41.0	-41.6	20.5	0.00e+00	0	56	0	2693791744	45	3731
2026-01-04 12:24:32.68	308.70	44.45	-41.1	-41.7	20.4	0.00e+00	0	57	0	2699034624	45	3777
2026-01-04 12:24:33.67	309.00	44.21	-41.0	-41.6	20.5	0.00e+00	0	56	0	2704277504	45	3726
2026-01-04 12:24:34.66	309.30	43.97	-40.6	-41.2	20.9	0.00e+00	0	56	0	2710568960	44	3760
2026-01-04 12:24:35.65	309.59	43.73	-40.4	-41.0	21.1	0.00e+00	0	57	0	2715811840	44	3668
2026-01-04 12:24:36.63	309.88	43.50	-40.2	-40.8	21.2	0.00e+00	0	56	0	2721054720	43	3792
2026-01-04 12:24:37.61	310.16	43.27	-40.3	-40.9	21.1	0.00e+00	0	56	0	2726297600	43	3846
2026-01-04 12:24:38.61	310.45	43.03	-40.3	-40.9	21.2	0.00e+00	0	57	0	2732589056	43	3828
2026-01-04 12:24:39.60	310.72	42.79	-40.4	-41.0	21.0	0.00e+00	0	57	0	2737831936	43	3875
2026-01-04 12:24:40.59	311.00	42.56	-40.6	-41.2	20.8	0.00e+00	0	56	0	2743074816	43	3980
2026-01-04 12:24:41.58	311.27	42.33	-40.5	-41.1	20.9	0.00e+00	0	57	0	2749366272	43	3925
2026-01-04 12:24:42.57	311.53	42.10	-40.1	-40.7	21.3	0.00e+00	0	57	0	2754609152	43	3741
2026-01-04 12:24:43.56	311.79	41.86	-40.0	-40.5	21.4	0.00e+00	0	56	0	2759852032	43	3674
2026-01-04 12:24:44.55	312.05	41.63	-40.0	-40.6	21.4	0.00e+00	0	56	0	2766143488	43	3716
2026-01-04 12:24:45.54	312.31	41.40	-40.2	-40.8	21.2	0.00e+00	0	57	0	2771386368	43	3798
2026-01-04 12:24:46.54	312.56	41.17	-40.1	-40.7	21.3	0.00e+00	0	57	0	2776629248	43	3768
2026-01-04 12:24:47.52	312.81	40.95	-40.1	-40.7	21.3	0.00e+00	0	57	0	2781872128	43	3769
2026-01-04 12:24:48.50	313.05	40.72	-40.2	-40.8	21.2	0.00e+00	0	57	0	2788163584	43	3815
2026-01-04 12:24:49.49	313.29	40.50	-40.2	-40.8	21.2	0.00e+00	0	56	0	2793406464	43	3795
2026-01-04 12:24:50.48	313.53	40.27	-39.9	-40.5	21.4	0.00e+00	0	56	0	2799697920	43	3672
2026-01-04 12:24:51.46	313.76	40.05	-39.8	-40.3	21.6	0.00e+00	0	57	0	2804940800	42	3820
2026-01-04 12:24:52.45	313.99	39.83	-39.8	-40.4	21.6	0.00e+00	0	57	0	2810183680	42	3834
2026-01-04 12:24:53.44	314.22	39.60	-39.8	-40.4	21.6	0.00e+00	0	57	0	2815426560	42	3829
2026-01-04 12:24:54.43	314.45	39.38	-39.9	-40.5	21.5	0.00e+00	0	57	0	2821718016	42	3886
2026-01-04 12:24:55.42	314.67	39.16	-40.1	-40.7	21.3	0.00e+00	0	56	0	2826960896	42	3964
2026-01-04 12:24:56.40	314.89	38.95	-39.8	-40.4	21.6	0.00e+00	0	57	0	2832203776	42	3825
2026-01-04 12:24:57.39	315.10	38.73	-39.5	-40.1	21.8	0.00e+00	0	57	0	2838495232	42	3704
2026-01-04 12:24:58.38	315.32	38.51	-39.4	-40.0	21.9	0.00e+00	0	56	0	2843738112	42	3655
2026-01-04 12:24:59.37	315.53	38.29	-39.4	-39.9	21.9	0.00e+00	0	56	0	2848980992	42	3647
2026-01-04 12:25:00.36	315.74	38.08	-39.3	-39.8	22.0	0.00e+00	0	57	0	2854223872	41	3824
2026-01-04 12:25:01.36	315.94	37.86	-39.5	-40.0	21.9	0.00e+00	0	57	0	2860515328	41	3894
2026-01-04 12:25:02.35	316.15	37.65	-39.6	-40.1	21.8	0.00e+00	0	57	0	2865758208	41	3938
2026-01-04 12:25:03.33	316.35	37.44	-39.4	-40.0	21.9	0.00e+00	0	56	0	2871001088	41	3875
2026-01-04 12:25:04.33	316.55	37.22	-39.7	-40.2	21.7	0.00e+00	0	57	0	2877292544	41	3981
2026-01-04 12:25:05.32	316.74	37.01	-39.8	-40.4	21.5	0.00e+00	0	57	0	2882535424	41	4056
2026-01-04 12:25:06.31	316.93	36.80	-39.5	-40.1	21.8	0.00e+00	0	56	0	2887778304	41	3919
2026-01-04 12:25:07.31	317.13	36.59	-39.4	-40.0	21.9	0.00e+00	0	57	0	2894069760	41	3881
2026-01-04 12:25:08.30	317.32	36.38	-39.5	-40.0	21.9	0.00e+00	0	57	0	2899312640	41	3905
2026-01-04 12:25:09.29	317.50	36.18	-39.7	-40.2	21.6	0.00e+00	0	57	0	2904555520	41	3998
2026-01-04 12:25:10.28	317.68	35.97	-39.8	-40.4	21.5	0.00e+00	0	57	0	2910846976	41	4058
2026-01-04 12:25:11.26	317.86	35.77	-39.8	-40.4	21.5	0.00e+00	0	57	0	2916089856	41	4056
2026-01-04 12:25:12.25	318.04	35.56	-39.9	-40.5	21.4	0.00e+00	0	56	0	2921332736	41	4113
2026-01-04 12:25:13.23	318.22	35.36	-40.1	-40.6	21.3	0.00e+00	0	56	0	2927624192	41	4185
2026-01-04 12:25:14.22	318.39	35.16	-39.9	-40.5	21.4	0.00e+00	0	57	0	2932867072	41	4115
2026-01-04 12:25:15.21	318.57	34.96	-40.1	-40.7	21.2	0.00e+00	0	57	0	2938109952	42	3976
2026-01-04 12:25:16.19	318.74	34.76	-40.2	-40.8	21.1	0.00e+00	0	57	0	2943352832	42	4038
2026-01-04 12:25:17.18	318.90	34.56	-40.1	-40.7	21.2	0.00e+00	0	57	0	2949644288	42	3988
2026-01-04 12:25:18.17	319.07	34.37	-40.3	-40.9	21.1	0.00e+00	0	57	0	2954887168	42	4059
2026-01-04 12:25:19.16	319.24	34.17	-40.4	-41.0	20.9	0.00e+00	0	56	0	2960130048	42	4136
2026-01-04 12:25:20.14	319.40	33.97	-40.1	-40.7	21.2	0.00e+00	0	57	0	2966421504	42	3985
2026-01-04 12:25:21.13	319.56	33.78	-39.9	-40.5	21.4	0.00e+00	0	57	0	2971664384	42	3876
2026-01-04 12:25:22.13	319.72	33.58	-39.8	-40.3	21.5	0.00e+00	0	57	0	2976907264	42	3824
2026-01-04 12:25:23.11	319.88	33.39	-39.9	-40.4	21.5	0.00e+00	0	57	0	2982150144	42	3850
2026-01-04 12:25:24.11	320.03	33.20	-40.1	-40.7	21.3	0.00e+00	0	57	0	2988441600	42	3968
2026-01-04 12:25:25.10	320.19	33.01	-39.8	-40.3	21.5	0.00e+00	0	57	0	2993684480	42	3824
2026-01-04 12:25:26.08	320.34	32.82	-39.6	-40.2	21.7	0.00e+00	0	57	0	2999975936	42	3740
2026-01-04 12:25:27.07	320.49	32.63	-39.6	-40.1	21.8	0.00e+00	0	57	0	3005218816	42	3722
2026-01-04 12:25:28.05	320.63	32.45	-39.7	-40.2	21.7	0.00e+00	0	57	0	3010461696	42	3758
2026-01-04 12:25:29.04	320.78	32.26	-39.6	-40.2	21.7	0.00e+00	0	57	0	3015704576	42	3746
2026-01-04 12:25:30.02	320.93	32.07	-39.9	-40.4	21.5	0.00e+00	0	57	0	3021996032	42	3854
2026-01-04 12:25:31.02	321.07	31.89	-39.7	-40.3	21.6	0.00e+00	0	57	0	3027238912	42	3786
2026-01-04 12:25:32.01	321.21	31.70	-40.0	-40.5	21.4	0.00e+00	0	57	0	3032481792	42	3897
2026-01-04 12:25:33.00	321.35	31.52	-39.8	-40.4	21.5	0.00e+00	0	57	0	3038773248	42	3825
2026-01-04 12:25:34.00	321.49	31.34	-40.1	-40.6	21.3	0.00e+00	0	57	0	3044016128	42	3949
2026-01-04 12:25:34.98	321.63	31.16	-39.9	-40.5	21.4	0.00e+00	0	57	0	3049259008	42	3870
2026-01-04 12:25:35.97	321.77	30.98	-40.1	-40.7	21.2	0.00e+00	0	57	0	3054501888	42	3984
2026-01-04 12:25:36.96	321.90	30.80	-40.3	-40.8	21.1	0.00e+00	0	57	0	3060793344	42	4042
2026-01-04 12:25:37.95	322.03	30.62	-40.2	-40.8	21.1	0.00e+00	0	57	0	3066036224	42	4019
2026-01-04 12:25:38.94	322.17	30.44	-40.2	-40.8	21.1	0.00e+00	0	57	0	3071279104	42	4031
2026-01-04 12:25:39.93	322.30	30.27	-40.4	-41.0	21.0	0.00e+00	0	57	0	3077570560	42	4105
2026-01-04 12:25:40.92	322.43	30.09	-40.2	-40.8	21.1	0.00e+00	0	57	0	3082813440	42	4020
2026-01-04 12:25:41.92	322.56	29.91	-40.1	-40.7	21.2	0.00e+00	0	57	0	3088056320	42	3982
2026-01-04 12:25:42.91	322.68	29.74	-40.2	-40.8	21.1	0.00e+00	0	57	0	3094347776	42	4008
2026-01-04 12:25:43.90	322.81	29.57	-40.4	-41.0	20.9	0.00e+00	0	57	0	3099590656	42	4129
2026-01-04 12:25:44.89	322.93	29.40	-40.2	-40.8	21.1	0.00e+00	0	57	0	3104833536	42	4021
2026-01-04 12:25:45.88	323.05	29.23	-40.0	-40.6	21.3	0.00e+00	0	57	0	3111124992	42	3916
2026-01-04 12:25:46.86	323.17	29.06	-39.9	-40.4	21.5	0.00e+00	0	57	0	3116367872	42	3857
2026-01-04 12:25:47.86	323.29	28.89	-39.9	-40.4	21.5	0.00e+00	0	57	0	3121610752	42	3850
2026-01-04 12:25:48.85	323.41	28.72	-39.9	-40.4	21.5	0.00e+00	0	57	0	3127902208	42	3846
2026-01-04 12:25:49.84	323.53	28.55	-40.0	-40.6	21.3	0.00e+00	0	57	0	3133145088	42	3917
2026-01-04 12:25:50.83	323.65	28.38	-39.9	-40.4	21.5	0.00e+00	0	57	0	3138387968	42	3848
2026-01-04 12:25:51.82	323.76	28.22	-39.8	-40.3	21.5	0.00e+00	0	57	0	3143630848	42	3818
2026-01-04 12:25:52.81	323.88	28.05	-39.8	-40.4	21.5	0.00e+00	0	57	0	3149922304	42	3828
2026-01-04 12:25:53.80	323.99	27.89	-39.8	-40.3	21.5	0.00e+00	0	57	0	3155165184	42	3823
2026-01-04 12:25:54.79	324.10	27.73	-39.9	-40.4	21.4	0.00e+00	0	57	0	3160408064	42	3857
2026-01-04 12:25:55.78	324.21	27.56	-40.0	-40.6	21.3	0.00e+00	0	57	0	3166699520	42	3934
2026-01-04 12:25:56.76	324.32	27.41	-40.0	-40.6	21.3	0.00e+00	0	57	0	3171942400	42	3937
2026-01-04 12:25:57.75	324.43	27.24	-40.2	-40.7	21.1	0.00e+00	0	57	0	3177185280	42	3992
2026-01-04 12:25:58.74	324.54	27.09	-40.1	-40.7	21.2	0.00e+00	0	57	0	3183476736	42	3972
2026-01-04 12:25:59.72	324.65	26.93	-40.2	-40.7	21.1	0.00e+00	0	57	0	3188719616	42	4003
2026-01-04 12:26:00.71	324.75	26.77	-40.4	-41.0	20.9	0.00e+00	0	57	0	3193962496	42	4107
2026-01-04 12:26:01.70	324.86	26.61	-40.3	-40.9	20.9	0.00e+00	0	57	0	3200253952	42	4076
2026-01-04 12:26:02.69	324.96	26.46	-40.3	-40.9	20.9	0.00e+00	0	57	0	3205496832	42	4091
2026-01-04 12:26:03.68	325.06	26.30	-40.6	-41.2	20.7	0.00e+00	0	57	0	3210739712	43	3992
2026-01-04 12:26:04.67	325.16	26.15	-40.5	-41.1	20.7	0.00e+00	0	57	0	3215982592	43	3953
2026-01-04 12:26:05.66	325.27	25.99	-40.3	-40.9	20.9	0.00e+00	0	57	0	3222274048	43	3855
2026-01-04 12:26:06.65	325.37	25.84	-40.2	-40.8	21.0	0.00e+00	0	57	0	3227516928	43	3794
2026-01-04 12:26:07.63	325.46	25.69	-40.3	-40.8	21.0	0.00e+00	0	57	0	3232759808	43	3819
2026-01-04 12:26:08.63	325.56	25.54	-40.3	-40.9	21.0	0.00e+00	0	57	0	3239051264	43	3849
2026-01-04 12:26:09.61	325.66	25.39	-40.5	-41.1	20.8	0.00e+00	0	57	0	3244294144	43	3923
2026-01-04 12:26:10.60	325.76	25.24	-40.5	-41.0	20.8	0.00e+00	0	57	0	3249537024	43	3911
2026-01-04 12:26:11.59	325.85	25.09	-40.5	-41.1	20.8	0.00e+00	0	57	0	3255828480	43	3936
2026-01-04 12:26:12.57	325.94	24.94	-40.6	-41.2	20.7	0.00e+00	0	57	0	3261071360	43	3971
2026-01-04 12:26:13.56	326.04	24.79	-40.4	-41.0	20.8	0.00e+00	0	57	0	3266314240	43	3900
2026-01-04 12:26:14.55	326.13	24.65	-40.5	-41.1	20.8	0.00e+00	0	57	0	3271557120	43	3917
2026-01-04 12:26:15.54	326.22	24.50	-40.6	-41.2	20.6	0.00e+00	0	57	0	3277848576	43	3997
2026-01-04 12:26:16.54	326.32	24.35	-40.7	-41.3	20.6	0.00e+00	0	57	0	3283091456	43	4023
2026-01-04 12:26:17.52	326.41	24.21	-40.7	-41.3	20.6	0.00e+00	0	57	0	3289382912	43	4031
2026-01-04 12:26:18.51	326.50	24.07	-40.8	-41.4	20.4	0.00e+00	0	57	0	3294625792	43	4089
2026-01-04 12:26:19.50	326.58	23.92	-40.8	-41.4	20.4	0.00e+00	0	57	0	3299868672	43	4088
2026-01-04 12:26:20.49	326.67	23.78	-40.8	-41.5	20.4	0.00e+00	0	57	0	3305111552	43	4103
2026-01-04 12:26:21.48	326.76	23.64	-41.0	-41.6	20.2	0.00e+00	0	57	0	3311403008	43	4183
2026-01-04 12:26:22.47	326.85	23.50	-41.1	-41.8	20.2	0.00e+00	0	57	0	3316645888	44	4020
2026-01-04 12:26:23.46	326.93	23.36	-41.1	-41.7	20.3	0.00e+00	0	57	0	3321888768	44	3982
2026-01-04 12:26:24.44	327.02	23.22	-41.3	-42.0	20.0	0.00e+00	0	57	0	3328180224	44	4113
2026-01-04 12:26:25.43	327.10	23.08	-41.4	-42.1	19.9	0.00e+00	0	57	0	3333423104	44	4158
2026-01-04 12:26:26.42	327.19	22.94	-41.2	-41.8	20.2	0.00e+00	0	57	0	3338665984	44	4041
2026-01-04 12:26:27.40	327.27	22.80	-41.0	-41.7	20.3	0.00e+00	0	57	0	3343908864	44	3965
2026-01-04 12:26:28.39	327.35	22.67	-41.0	-41.6	20.4	0.00e+00	0	57	0	3350200320	44	3930
2026-01-04 12:26:29.37	327.43	22.53	-41.0	-41.7	20.3	0.00e+00	0	57	0	3355443200	44	3961
2026-01-04 12:26:30.35	327.51	22.40	-41.0	-41.7	20.3	0.00e+00	0	57	0	3360686080	44	3967
2026-01-04 12:26:31.35	327.59	22.26	-40.9	-41.6	20.4	0.00e+00	0	57	0	3366977536	44	3920
2026-01-04 12:26:32.33	327.67	22.13	-40.9	-41.6	20.4	0.00e+00	0	57	0	3372220416	44	3923
2026-01-04 12:26:33.33	327.75	21.99	-41.1	-41.7	20.3	0.00e+00	0	57	0	3377463296	44	3990
2026-01-04 12:26:34.32	327.83	21.86	-41.2	-41.9	20.1	0.00e+00	0	57	0	3383754752	44	4056
2026-01-04 12:26:35.31	327.91	21.73	-41.1	-41.7	20.2	0.00e+00	0	57	0	3388997632	44	3988
2026-01-04 12:26:36.30	327.99	21.60	-41.1	-41.8	20.2	0.00e+00	0	57	0	3394240512	44	4011
2026-01-04 12:26:37.28	328.06	21.47	-41.2	-41.8	20.1	0.00e+00	0	57	0	3399483392	44	4051
2026-01-04 12:26:38.27	328.14	21.34	-41.3	-41.9	20.0	0.00e+00	0	57	0	3405774848	44	4097
2026-01-04 12:26:39.26	328.21	21.21	-41.2	-41.9	20.1	0.00e+00	0	57	0	3411017728	44	4072
2026-01-04 12:26:40.26	328.29	21.08	-41.4	-42.1	19.9	0.00e+00	0	57	0	3416260608	44	4166
2026-01-04 12:26:41.25	328.36	20.95	-41.5	-42.2	19.7	0.00e+00	0	57	0	3422552064	44	4223
2026-01-04 12:26:42.24	328.44	20.82	-41.4	-42.0	19.9	0.00e+00	0	57	0	3427794944	44	4134
2026-01-04 12:26:43.23	328.51	20.69	-41.3	-42.0	20.0	0.00e+00	0	57	0	3433037824	44	4102
2026-01-04 12:26:44.22	328.58	20.57	-41.4	-42.1	19.8	0.00e+00	0	57	0	3439329280	44	4171
2026-01-04 12:26:45.21	328.66	20.44	-41.5	-42.2	19.7	0.00e+00	0	57	0	3444572160	44	4222
2026-01-04 12:26:46.20	328.73	20.31	-41.5	-42.2	19.8	0.00e+00	0	57	0	3449815040	44	4202
2026-01-04 12:26:47.18	328.80	20.19	-41.7	-42.4	19.6	0.00e+00	0	57	0	3456106496	45	4067
2026-01-04 12:26:48.17	328.87	20.07	-41.9	-42.6	19.3	0.00e+00	0	57	0	3461349376	45	4175
2026-01-04 12:26:49.16	328.94	19.94	-41.8	-42.5	19.5	0.00e+00	0	57	0	3466592256	45	4112
2026-01-04 12:26:50.15	329.01	19.82	-42.0	-42.7	19.2	0.00e+00	0	57	0	3471835136	45	4220
2026-01-04 12:26:51.13	329.08	19.70	-41.9	-42.6	19.3	0.00e+00	0	57	0	3478126592	45	4165
2026-01-04 12:26:52.12	329.14	19.58	-42.0	-42.7	19.3	0.00e+00	0	57	0	3483369472	45	4205
2026-01-04 12:26:53.10	329.21	19.45	-42.0	-42.8	19.2	0.00e+00	0	57	0	3488612352	45	4252
2026-01-04 12:26:54.09	329.28	19.33	-42.0	-42.7	19.2	0.00e+00	0	57	0	3494903808	45	4233
2026-01-04 12:26:55.08	329.35	19.21	-42.2	-42.9	19.1	0.00e+00	0	57	0	3500146688	46	4067
2026-01-04 12:26:56.07	329.41	19.09	-42.1	-42.9	19.1	0.00e+00	0	57	0	3505389568	46	4061
2026-01-04 12:26:57.06	329.48	18.97	-42.2	-43.0	19.0	0.00e+00	0	57	0	3510632448	46	4108
2026-01-04 12:26:58.04	329.54	18.86	-42.6	-43.4	18.6	0.00e+00	0	57	0	3516923904	47	4072
2026-01-04 12:26:59.03	329.61	18.74	-42.3	-43.1	18.9	0.00e+00	0	57	0	3522166784	47	3921
2026-01-04 12:27:00.02	329.67	18.62	-42.1	-42.8	19.2	0.00e+00	0	57	0	3528458240	47	3793
2026-01-04 12:27:01.01	329.74	18.50	-42.0	-42.7	19.2	0.00e+00	0	57	0	3533701120	47	3759
2026-01-04 12:27:02.00	329.80	18.39	-42.2	-42.9	19.0	0.00e+00	0	57	0	3538944000	47	3841
2026-01-04 12:27:02.99	329.86	18.27	-42.1	-42.8	19.1	0.00e+00	0	57	0	3544186880	47	3799
2026-01-04 12:27:03.98	329.93	18.16	-42.2	-43.0	19.0	0.00e+00	0	57	0	3550478336	47	3879
2026-01-04 12:27:04.98	329.99	18.04	-42.2	-42.9	19.0	0.00e+00	0	57	0	3555721216	47	3846
2026-01-04 12:27:05.97	330.05	17.92	-42.3	-43.1	18.9	0.00e+00	0	57	0	3560964096	47	3924
2026-01-04 12:27:06.96	330.11	17.81	-42.6	-43.3	18.6	0.00e+00	0	57	0	3567255552	47	4042
2026-01-04 12:27:07.95	330.17	17.70	-42.4	-43.2	18.8	0.00e+00	0	57	0	3572498432	47	3975
2026-01-04 12:27:08.94	330.23	17.58	-42.6	-43.4	18.5	0.00e+00	0	57	0	3577741312	47	4078
2026-01-04 12:27:09.93	330.29	17.47	-42.7	-43.5	18.4	0.00e+00	0	57	0	3584032768	47	4138
2026-01-04 12:27:10.92	330.35	17.36	-42.9	-43.7	18.2	0.00e+00	0	57	0	3589275648	47	4236
2026-01-04 12:27:11.91	330.41	17.25	-42.8	-43.6	18.3	0.00e+00	0	57	0	3594518528	47	4167
2026-01-04 12:27:12.90	330.47	17.14	-42.7	-43.5	18.4	0.00e+00	0	57	0	3599761408	47	4121
2026-01-04 12:27:13.89	330.53	17.03	-42.7	-43.5	18.4	0.00e+00	0	57	0	3606052864	47	4139
2026-01-04 12:27:14.87	330.59	16.92	-42.9	-43.7	18.2	0.00e+00	0	57	0	3611295744	47	4240
2026-01-04 12:27:15.86	330.64	16.81	-42.8	-43.6	18.3	0.00e+00	0	57	0	3616538624	47	4175
2026-01-04 12:27:16.85	330.70	16.70	-42.6	-43.4	18.5	0.00e+00	0	57	0	3622830080	47	4092
2026-01-04 12:27:17.84	330.76	16.59	-42.6	-43.3	18.6	0.00e+00	0	57	0	3628072960	47	4047
2026-01-04 12:27:18.83	330.81	16.48	-42.6	-43.4	18.5	0.00e+00	0	57	0	3633315840	47	4073
2026-01-04 12:27:19.82	330.87	16.37	-42.6	-43.4	18.5	0.00e+00	0	57	0	3638558720	47	4064
2026-01-04 12:27:20.81	330.93	16.26	-42.6	-43.4	18.5	0.00e+00	0	57	0	3644850176	47	4064
2026-01-04 12:27:21.79	330.98	16.16	-42.7	-43.5	18.4	0.00e+00	0	57	0	3650093056	47	4140
