passes_logs/2026/01/04/R3.0SM8_Murmansk_STILSPACE/R3.0SM8_Murmansk_STILSPACE__20260104_011745_SUOMI_NPP_rec.log

#Pass ID: 20260104_011745_SUOMI NPP
#Satellite: SUOMI NPP
#Configuration: NPP
#almurnet v.1.7.20240730
#Start time: 2026-01-04 01:17:47

#Version: 2.2.20231116
#Station: R3.0SM8_Murmansk_STILSPACE
#Location: 33.092731 lon 68.902999 lat
#TLE: 1 37849U 11061A   26001.07732418  .00000182  00000+0  10735-3 0  9990
#TLE: 2 37849  98.7795 303.2470 0002580  87.2016 272.9455 14.19520779734739

#Time	Az	El	Level	Level2	SNR	BER	BlckErr	Temp	State	Recorded	gain1	gain2
2026-01-04 01:17:47.03	26.60	3.11	-52.3	-66.1	3.8	1.49e+00	0	46	0	0	67	17543
2026-01-04 01:17:48.03	26.59	3.17	-51.9	-66.0	3.8	1.49e+00	0	47	104	0	67	17291
2026-01-04 01:17:49.02	26.58	3.24	-52.0	-65.9	3.8	1.49e+00	0	46	104	0	67	17091
2026-01-04 01:17:50.01	26.57	3.30	-52.0	-65.8	3.8	1.49e+00	0	46	104	0	66	17941
2026-01-04 01:17:51.00	26.56	3.37	-51.8	-65.6	3.8	1.49e+00	0	46	104	0	66	17638
2026-01-04 01:17:51.98	26.55	3.44	-51.6	-65.3	3.8	1.49e+00	0	47	104	0	66	17035
2026-01-04 01:17:52.97	26.53	3.50	-51.4	-64.7	3.8	1.49e+00	0	47	104	0	65	16801
2026-01-04 01:17:53.96	26.52	3.57	-51.4	-64.7	3.8	1.49e+00	0	47	104	0	65	16849
2026-01-04 01:17:54.95	26.51	3.64	-51.5	-64.6	3.8	1.49e+00	0	47	104	0	65	16621
2026-01-04 01:17:55.93	26.50	3.70	-51.3	-64.5	3.8	1.49e+00	0	47	104	0	65	16379
2026-01-04 01:17:56.93	26.49	3.77	-51.2	-64.1	3.8	1.49e+00	0	47	104	0	65	15632
2026-01-04 01:17:57.92	26.48	3.84	-51.3	-63.9	3.8	1.49e+00	0	47	104	0	65	15349
2026-01-04 01:17:58.91	26.47	3.90	-51.3	-63.7	3.8	1.49e+00	0	47	104	0	65	14937
2026-01-04 01:17:59.89	26.45	3.97	-51.2	-63.5	3.8	1.49e+00	0	47	104	0	65	14626
2026-01-04 01:18:00.88	26.44	4.04	-51.2	-63.2	3.8	1.49e+00	0	47	104	0	65	14120
2026-01-04 01:18:01.88	26.43	4.11	-51.3	-62.8	3.8	1.48e+00	0	47	104	0	65	13508
2026-01-04 01:18:02.87	26.42	4.18	-51.3	-62.4	4.0	1.47e+00	0	47	104	0	65	12945
2026-01-04 01:18:03.86	26.41	4.24	-51.2	-61.9	4.2	1.43e+00	0	48	0	0	65	12155
2026-01-04 01:18:04.86	26.39	4.31	-51.2	-61.4	4.3	1.40e+00	0	48	0	0	65	11518
2026-01-04 01:18:05.84	26.38	4.38	-51.1	-61.0	4.4	1.30e+00	0	48	0	0	65	11014
2026-01-04 01:18:06.83	26.37	4.45	-51.1	-60.5	4.6	1.00e+00	0	48	0	2097152	65	10397
2026-01-04 01:18:07.82	26.36	4.52	-51.0	-60.2	4.8	8.83e-01	0	48	0	4194304	65	9994
2026-01-04 01:18:08.81	26.34	4.59	-50.9	-59.4	5.2	7.42e-01	0	48	0	6291456	64	9609
2026-01-04 01:18:09.80	26.33	4.66	-50.8	-58.6	5.7	4.82e-01	0	48	0	7340032	64	8790
2026-01-04 01:18:10.79	26.32	4.73	-50.6	-58.0	6.1	3.63e-01	0	48	0	9437184	64	8196
2026-01-04 01:18:11.78	26.31	4.79	-50.5	-57.4	6.6	2.40e-01	0	48	0	11534336	64	7700
2026-01-04 01:18:12.76	26.29	4.86	-50.4	-56.6	7.4	1.69e-01	0	48	0	13631488	63	7439
2026-01-04 01:18:13.75	26.28	4.93	-50.3	-56.2	7.8	9.87e-02	0	48	0	15728640	63	7077
2026-01-04 01:18:14.74	26.27	5.00	-50.1	-55.6	8.4	6.10e-02	0	48	0	16777216	63	6637
2026-01-04 01:18:15.73	26.25	5.07	-50.1	-55.6	8.5	4.17e-02	0	48	0	18874368	63	6580
2026-01-04 01:18:16.72	26.24	5.14	-50.2	-55.8	8.3	3.68e-02	0	48	0	20971520	63	6731
2026-01-04 01:18:17.72	26.23	5.22	-50.2	-55.7	8.4	5.59e-02	0	49	0	23068672	63	6694
2026-01-04 01:18:18.71	26.21	5.29	-49.9	-55.0	9.0	3.31e-02	0	49	0	24117248	63	6188
2026-01-04 01:18:19.70	26.20	5.36	-49.7	-54.3	9.8	1.53e-02	0	49	0	26214400	62	6030
2026-01-04 01:18:20.69	26.19	5.43	-49.6	-54.0	10.1	8.04e-03	0	49	0	28311552	62	5837
2026-01-04 01:18:21.69	26.17	5.50	-49.3	-53.5	10.6	4.85e-03	0	49	0	30408704	61	5801
2026-01-04 01:18:22.68	26.16	5.57	-49.0	-53.0	11.2	2.13e-03	0	49	0	32505856	61	5474
2026-01-04 01:18:23.67	26.15	5.65	-49.1	-52.8	11.3	1.30e-03	0	49	0	33554432	61	5399
2026-01-04 01:18:24.65	26.13	5.72	-49.1	-52.9	11.3	1.23e-03	0	49	0	35651584	61	5412
2026-01-04 01:18:25.65	26.12	5.79	-49.2	-53.0	11.1	1.99e-03	0	49	0	37748736	61	5511
2026-01-04 01:18:26.63	26.10	5.86	-49.4	-53.5	10.6	1.61e-03	0	49	0	39845888	61	5839
2026-01-04 01:18:27.62	26.09	5.93	-49.3	-53.5	10.7	3.97e-03	0	49	0	40894464	61	5800
2026-01-04 01:18:28.61	26.08	6.01	-49.1	-52.9	11.3	1.62e-03	0	49	0	42991616	61	5451
2026-01-04 01:18:29.59	26.06	6.08	-48.9	-52.5	11.6	1.22e-03	0	49	0	45088768	61	5201
2026-01-04 01:18:30.58	26.05	6.15	-48.8	-52.3	11.9	4.76e-04	0	49	0	47185920	60	5400
2026-01-04 01:18:31.57	26.03	6.23	-48.7	-52.1	12.1	3.11e-04	0	49	0	48234496	60	5232
2026-01-04 01:18:32.55	26.02	6.30	-48.8	-52.2	12.1	2.92e-04	0	49	0	50331648	60	5297
2026-01-04 01:18:33.54	26.00	6.37	-48.8	-52.3	12.0	2.94e-04	0	49	0	52428800	60	5361
2026-01-04 01:18:34.53	25.99	6.45	-48.9	-52.4	11.9	3.90e-04	0	50	0	54525952	60	5423
2026-01-04 01:18:35.52	25.97	6.52	-48.8	-52.2	12.1	2.88e-04	0	49	0	55574528	60	5323
2026-01-04 01:18:36.51	25.96	6.59	-48.9	-52.4	11.9	3.54e-04	0	50	0	57671680	60	5446
2026-01-04 01:18:37.51	25.94	6.67	-48.9	-52.5	11.8	6.21e-04	0	50	0	59768832	60	5502
2026-01-04 01:18:38.49	25.93	6.74	-48.9	-52.4	11.8	3.41e-04	0	50	0	61865984	60	5462
2026-01-04 01:18:39.48	25.91	6.82	-49.0	-52.6	11.7	7.08e-04	0	50	0	63963136	60	5564
2026-01-04 01:18:40.48	25.90	6.90	-49.0	-52.7	11.7	8.57e-04	0	50	0	65011712	60	5596
2026-01-04 01:18:41.46	25.88	6.97	-49.0	-52.5	11.8	5.36e-04	0	50	0	67108864	60	5507
2026-01-04 01:18:42.45	25.87	7.05	-48.9	-52.4	11.9	3.07e-04	0	50	0	69206016	60	5460
2026-01-04 01:18:43.44	25.85	7.12	-48.8	-52.2	12.2	2.75e-04	0	50	0	71303168	60	5310
2026-01-04 01:18:44.43	25.84	7.20	-48.9	-52.3	12.1	3.41e-04	0	50	0	72351744	60	5364
2026-01-04 01:18:45.43	25.82	7.28	-48.9	-52.4	11.9	3.88e-04	0	50	0	74448896	60	5443
2026-01-04 01:18:46.43	25.80	7.35	-49.0	-52.5	11.9	3.29e-04	0	50	0	76546048	60	5487
2026-01-04 01:18:47.41	25.79	7.43	-49.0	-52.5	11.8	5.36e-04	0	50	0	78643200	60	5494
2026-01-04 01:18:48.41	25.77	7.51	-48.8	-52.0	12.4	3.36e-04	0	50	0	80740352	60	5210
2026-01-04 01:18:49.39	25.76	7.58	-48.5	-51.6	12.8	1.10e-04	0	50	0	81788928	60	4954
2026-01-04 01:18:50.38	25.74	7.66	-48.5	-51.4	13.0	3.58e-05	0	50	0	83886080	59	5142
2026-01-04 01:18:51.36	25.72	7.74	-48.2	-51.0	13.4	1.52e-05	0	50	0	85983232	59	4895
2026-01-04 01:18:52.35	25.71	7.82	-48.2	-50.9	13.6	1.37e-05	0	51	0	88080384	59	4820
2026-01-04 01:18:53.34	25.69	7.89	-48.2	-50.9	13.5	7.60e-06	0	50	0	89128960	59	4858
2026-01-04 01:18:54.33	25.67	7.97	-48.0	-50.7	13.7	5.30e-06	0	50	0	91226112	59	4730
2026-01-04 01:18:55.32	25.66	8.05	-48.0	-50.6	13.8	3.80e-06	0	50	0	93323264	59	4701
2026-01-04 01:18:56.31	25.64	8.13	-47.9	-50.5	14.0	3.00e-06	0	50	0	95420416	59	4609
2026-01-04 01:18:57.30	25.62	8.21	-47.9	-50.5	14.0	2.20e-06	0	51	0	96468992	58	4890
2026-01-04 01:18:58.28	25.60	8.29	-48.0	-50.5	13.9	1.50e-06	0	50	0	98566144	58	4916
2026-01-04 01:18:59.27	25.59	8.37	-47.9	-50.4	14.0	5.30e-06	0	51	0	100663296	58	4843
2026-01-04 01:19:00.25	25.57	8.45	-47.9	-50.5	14.0	1.50e-06	0	51	0	102760448	58	4871
2026-01-04 01:19:01.25	25.55	8.53	-48.1	-50.7	13.8	1.50e-06	0	51	0	103809024	58	4996
2026-01-04 01:19:02.24	25.53	8.61	-48.0	-50.6	13.9	3.80e-06	0	51	0	105906176	58	4947
2026-01-04 01:19:03.23	25.52	8.69	-48.1	-50.7	13.8	2.20e-06	0	51	0	108003328	58	4997
2026-01-04 01:19:04.23	25.50	8.77	-48.1	-50.7	13.8	9.90e-06	0	51	0	110100480	58	5026
2026-01-04 01:19:05.21	25.48	8.85	-48.0	-50.6	13.9	4.50e-06	0	51	0	112197632	58	4953
2026-01-04 01:19:06.20	25.46	8.93	-48.1	-50.7	13.8	4.50e-06	0	51	0	113246208	58	5009
2026-01-04 01:19:07.19	25.44	9.02	-48.2	-50.9	13.7	3.80e-06	0	51	0	115343360	58	5110
2026-01-04 01:19:08.18	25.42	9.10	-48.2	-50.9	13.7	7.60e-06	0	51	0	117440512	58	5108
2026-01-04 01:19:09.17	25.41	9.18	-48.1	-50.7	13.8	6.10e-06	0	51	0	119537664	58	5033
2026-01-04 01:19:10.16	25.39	9.26	-48.0	-50.5	14.0	3.80e-06	0	51	0	120586240	58	4920
2026-01-04 01:19:11.15	25.37	9.35	-48.2	-50.9	13.8	2.20e-06	0	51	0	122683392	58	5105
2026-01-04 01:19:12.14	25.35	9.43	-48.2	-50.8	13.9	1.22e-05	0	51	0	124780544	58	5049
2026-01-04 01:19:13.13	25.33	9.51	-48.2	-50.9	14.0	4.50e-06	0	51	0	126877696	58	5137
2026-01-04 01:19:14.12	25.31	9.60	-48.2	-50.9	13.9	5.30e-06	0	51	0	127926272	58	5137
2026-01-04 01:19:15.11	25.29	9.68	-48.1	-50.7	13.9	2.20e-06	0	51	0	130023424	58	4995
2026-01-04 01:19:16.09	25.27	9.76	-48.8	-51.9	13.4	7.60e-06	0	51	0	132120576	59	5410
2026-01-04 01:19:17.08	25.25	9.85	-50.2	-54.9	9.2	8.16e-03	0	51	0	134217728	62	6492
2026-01-04 01:19:18.07	25.23	9.93	-48.6	-51.5	13.6	5.87e-05	0	51	0	136314880	59	5163
2026-01-04 01:19:19.06	25.21	10.02	-48.0	-50.5	14.1	6.80e-06	0	51	0	137363456	58	4917
2026-01-04 01:19:20.04	25.19	10.10	-47.9	-50.4	14.2	7.00e-07	0	51	0	139460608	58	4825
2026-01-04 01:19:21.03	25.17	10.19	-48.0	-50.4	14.1	7.00e-07	0	52	0	141557760	58	4852
2026-01-04 01:19:22.02	25.15	10.27	-47.9	-50.3	14.3	7.00e-07	0	52	0	143654912	58	4767
2026-01-04 01:19:23.01	25.13	10.36	-47.9	-50.2	14.4	7.00e-07	0	52	0	144703488	58	4745
2026-01-04 01:19:24.00	25.11	10.45	-47.8	-50.2	14.4	1.50e-06	0	52	0	146800640	58	4738
2026-01-04 01:19:24.99	25.09	10.53	-47.9	-50.3	14.4	7.00e-07	0	52	0	148897792	58	4767
2026-01-04 01:19:25.98	25.07	10.62	-48.0	-50.5	14.1	0.00e+00	0	52	0	150994944	58	4904
2026-01-04 01:19:26.97	25.05	10.71	-47.9	-50.4	14.2	3.80e-06	0	52	0	152043520	58	4848
2026-01-04 01:19:27.95	25.03	10.79	-48.1	-50.7	14.0	1.50e-06	0	52	0	154140672	58	4986
2026-01-04 01:19:28.94	25.00	10.88	-47.9	-50.2	14.4	7.00e-07	0	52	0	156237824	58	4751
2026-01-04 01:19:29.93	24.98	10.97	-47.8	-50.1	14.6	0.00e+00	0	52	0	158334976	58	4656
2026-01-04 01:19:30.91	24.96	11.06	-47.6	-49.9	14.7	7.00e-07	0	52	0	159383552	58	4555
2026-01-04 01:19:31.91	24.94	11.15	-47.6	-49.9	14.7	0.00e+00	0	52	0	161480704	58	4577
2026-01-04 01:19:32.90	24.92	11.24	-47.7	-50.0	14.6	0.00e+00	0	52	0	163577856	58	4650
2026-01-04 01:19:33.89	24.89	11.33	-47.8	-50.2	14.4	7.00e-07	0	52	0	165675008	58	4723
2026-01-04 01:19:34.88	24.87	11.42	-48.0	-50.4	14.3	0.00e+00	0	52	0	167772160	58	4860
2026-01-04 01:19:35.87	24.85	11.51	-47.9	-50.2	14.4	1.50e-06	0	52	0	168820736	58	4757
2026-01-04 01:19:36.86	24.83	11.60	-47.7	-50.0	14.7	0.00e+00	0	52	0	170917888	58	4619
2026-01-04 01:19:37.85	24.80	11.69	-47.7	-50.0	14.7	7.00e-07	0	52	0	173015040	58	4612
2026-01-04 01:19:38.84	24.78	11.78	-47.6	-49.9	14.8	0.00e+00	0	52	0	175112192	58	4555
2026-01-04 01:19:39.82	24.76	11.87	-47.7	-50.0	14.7	7.00e-07	0	52	0	176160768	58	4614
2026-01-04 01:19:40.81	24.73	11.96	-47.9	-50.2	14.5	1.50e-06	0	52	0	178257920	58	4730
2026-01-04 01:19:41.80	24.71	12.06	-47.7	-50.0	14.7	0.00e+00	0	52	0	180355072	58	4611
2026-01-04 01:19:42.79	24.69	12.15	-47.6	-49.7	15.0	0.00e+00	0	52	0	182452224	58	4480
2026-01-04 01:19:43.79	24.66	12.24	-47.4	-49.5	15.2	0.00e+00	0	52	0	184549376	58	4386
2026-01-04 01:19:44.77	24.64	12.34	-47.3	-49.3	15.3	0.00e+00	0	52	0	185597952	57	4541
2026-01-04 01:19:45.76	24.61	12.43	-47.3	-49.5	15.2	0.00e+00	0	52	0	187695104	57	4600
2026-01-04 01:19:46.76	24.59	12.52	-47.2	-49.3	15.3	0.00e+00	0	52	0	189792256	57	4535
2026-01-04 01:19:47.75	24.56	12.62	-47.4	-49.4	15.3	0.00e+00	0	52	0	191889408	57	4591
2026-01-04 01:19:48.74	24.54	12.71	-47.6	-49.8	15.0	0.00e+00	0	52	0	192937984	57	4762
2026-01-04 01:19:49.73	24.51	12.81	-47.5	-49.7	15.0	0.00e+00	0	52	0	195035136	57	4750
2026-01-04 01:19:50.71	24.49	12.90	-47.5	-49.7	15.0	0.00e+00	0	52	0	197132288	57	4706
2026-01-04 01:19:51.70	24.46	13.00	-47.9	-50.2	14.5	0.00e+00	0	52	0	199229440	57	5036
2026-01-04 01:19:52.69	24.44	13.10	-47.8	-50.2	14.5	0.00e+00	0	52	0	200278016	57	5005
2026-01-04 01:19:53.68	24.41	13.19	-47.7	-49.9	14.7	0.00e+00	0	52	0	202375168	57	4863
2026-01-04 01:19:54.66	24.39	13.29	-47.7	-50.0	14.7	7.00e-07	0	53	0	204472320	57	4889
2026-01-04 01:19:55.64	24.36	13.38	-47.7	-50.0	14.7	0.00e+00	0	53	0	206569472	57	4897
2026-01-04 01:19:56.64	24.33	13.48	-47.9	-50.3	14.5	7.00e-07	0	53	0	208666624	57	5055
2026-01-04 01:19:57.63	24.31	13.58	-47.9	-50.2	14.5	7.00e-07	0	53	0	209715200	57	5027
2026-01-04 01:19:58.61	24.28	13.68	-47.7	-49.9	14.8	0.00e+00	0	53	0	211812352	57	4848
2026-01-04 01:19:59.60	24.25	13.78	-47.6	-49.8	14.9	0.00e+00	0	53	0	213909504	57	4806
2026-01-04 01:20:00.59	24.23	13.88	-47.6	-49.8	14.9	0.00e+00	0	53	0	216006656	57	4802
2026-01-04 01:20:01.59	24.20	13.98	-47.4	-49.6	15.2	0.00e+00	0	53	0	217055232	57	4653
2026-01-04 01:20:02.58	24.17	14.08	-47.2	-49.2	15.5	0.00e+00	0	53	0	219152384	57	4460
2026-01-04 01:20:03.57	24.14	14.18	-46.9	-48.8	15.9	0.00e+00	0	53	0	221249536	57	4288
2026-01-04 01:20:04.55	24.11	14.28	-47.0	-48.9	15.9	0.00e+00	0	53	0	223346688	56	4553
2026-01-04 01:20:05.54	24.09	14.38	-46.9	-48.8	16.0	0.00e+00	0	53	0	224395264	56	4506
2026-01-04 01:20:06.52	24.06	14.48	-46.8	-48.6	16.1	0.00e+00	0	53	0	226492416	56	4411
2026-01-04 01:20:07.50	24.03	14.58	-46.7	-48.6	16.2	0.00e+00	0	53	0	228589568	56	4396
2026-01-04 01:20:08.49	24.00	14.68	-46.7	-48.5	16.2	0.00e+00	0	53	0	230686720	56	4385
2026-01-04 01:20:09.48	23.97	14.79	-46.7	-48.4	16.3	0.00e+00	0	53	0	232783872	56	4327
2026-01-04 01:20:10.46	23.94	14.89	-46.7	-48.4	16.3	0.00e+00	0	53	0	233832448	56	4325
2026-01-04 01:20:11.45	23.91	14.99	-46.9	-48.8	15.9	0.00e+00	0	53	0	235929600	56	4526
2026-01-04 01:20:12.44	23.88	15.10	-47.0	-48.8	15.9	0.00e+00	0	53	0	238026752	56	4539
2026-01-04 01:20:13.43	23.85	15.20	-46.6	-48.4	16.4	0.00e+00	0	53	0	240123904	56	4298
2026-01-04 01:20:14.42	23.82	15.31	-46.3	-47.9	16.7	0.00e+00	0	53	0	241172480	55	4331
2026-01-04 01:20:15.42	23.79	15.42	-46.1	-47.8	16.9	0.00e+00	0	53	0	243269632	55	4244
2026-01-04 01:20:16.41	23.76	15.52	-46.1	-47.7	16.8	0.00e+00	0	53	0	245366784	55	4241
2026-01-04 01:20:17.41	23.73	15.63	-46.2	-47.8	16.8	0.00e+00	0	53	0	247463936	55	4258
2026-01-04 01:20:18.39	23.70	15.74	-46.0	-47.6	17.0	0.00e+00	0	53	0	248512512	55	4156
2026-01-04 01:20:19.38	23.67	15.84	-46.1	-47.7	16.9	0.00e+00	0	53	0	250609664	55	4219
2026-01-04 01:20:20.36	23.63	15.95	-46.1	-47.7	16.9	0.00e+00	0	53	0	252706816	55	4215
2026-01-04 01:20:21.35	23.60	16.06	-46.1	-47.7	16.9	0.00e+00	0	53	0	254803968	55	4233
2026-01-04 01:20:22.34	23.57	16.17	-46.0	-47.7	17.0	0.00e+00	0	53	0	256901120	55	4194
2026-01-04 01:20:23.33	23.54	16.28	-45.9	-47.4	17.2	0.00e+00	0	53	0	257949696	55	4089
2026-01-04 01:20:24.32	23.50	16.39	-46.0	-47.5	17.2	0.00e+00	0	53	0	260046848	54	4366
2026-01-04 01:20:25.31	23.47	16.50	-46.0	-47.5	17.1	0.00e+00	0	53	0	262144000	54	4363
2026-01-04 01:20:26.30	23.44	16.61	-46.1	-47.6	17.0	0.00e+00	0	53	0	264241152	54	4421
2026-01-04 01:20:27.29	23.40	16.72	-46.2	-47.8	16.9	0.00e+00	0	53	0	265289728	54	4523
2026-01-04 01:20:28.27	23.37	16.83	-46.3	-48.0	16.7	0.00e+00	0	53	0	267386880	54	4612
2026-01-04 01:20:29.25	23.34	16.94	-46.1	-47.7	17.0	0.00e+00	0	53	0	269484032	54	4442
2026-01-04 01:20:30.22	23.30	17.05	-46.4	-48.0	16.6	0.00e+00	0	53	0	271581184	54	4638
2026-01-04 01:20:31.21	23.27	17.17	-46.7	-48.6	16.2	0.00e+00	0	53	0	272629760	55	4652
2026-01-04 01:20:32.21	23.23	17.28	-46.7	-48.5	16.3	0.00e+00	0	53	0	274726912	55	4604
2026-01-04 01:20:33.20	23.20	17.39	-46.8	-48.6	16.2	0.00e+00	0	53	0	276824064	55	4654
2026-01-04 01:20:34.19	23.16	17.51	-46.8	-48.7	16.0	0.00e+00	0	53	0	278921216	55	4708
2026-01-04 01:20:35.18	23.12	17.63	-46.8	-48.6	16.1	0.00e+00	0	54	0	279969792	55	4697
2026-01-04 01:20:36.16	23.09	17.74	-46.8	-48.6	16.2	0.00e+00	0	54	0	282066944	55	4669
2026-01-04 01:20:37.15	23.05	17.86	-46.8	-48.6	16.1	0.00e+00	0	53	0	284164096	55	4698
2026-01-04 01:20:38.14	23.01	17.97	-46.8	-48.7	16.0	0.00e+00	0	54	0	286261248	55	4738
2026-01-04 01:20:39.13	22.98	18.09	-47.2	-49.1	15.7	0.00e+00	0	53	0	288358400	56	4701
2026-01-04 01:20:40.11	22.94	18.21	-46.8	-48.6	16.3	0.00e+00	0	54	0	289406976	56	4436
2026-01-04 01:20:41.11	22.90	18.33	-46.6	-48.3	16.5	0.00e+00	0	54	0	291504128	56	4277
2026-01-04 01:20:42.10	22.86	18.45	-46.5	-48.2	16.6	0.00e+00	0	53	0	293601280	56	4240
2026-01-04 01:20:43.08	22.82	18.57	-46.3	-48.0	16.7	0.00e+00	0	53	0	295698432	55	4353
2026-01-04 01:20:44.07	22.79	18.69	-46.2	-47.8	17.0	0.00e+00	0	54	0	296747008	55	4265
2026-01-04 01:20:45.06	22.75	18.81	-46.2	-47.8	16.9	0.00e+00	0	54	0	298844160	55	4257
2026-01-04 01:20:46.05	22.71	18.93	-46.2	-47.8	17.0	0.00e+00	0	54	0	300941312	55	4248
2026-01-04 01:20:47.04	22.67	19.05	-46.2	-47.7	17.0	0.00e+00	0	54	0	303038464	55	4230
2026-01-04 01:20:48.03	22.63	19.17	-46.2	-47.7	17.0	0.00e+00	0	54	0	304087040	55	4221
2026-01-04 01:20:49.02	22.58	19.30	-46.0	-47.6	17.1	0.00e+00	0	54	0	306184192	55	4190
2026-01-04 01:20:50.00	22.54	19.42	-46.0	-47.6	17.2	0.00e+00	0	54	0	308281344	55	4153
2026-01-04 01:20:50.99	22.50	19.54	-46.1	-47.6	17.1	0.00e+00	0	54	0	310378496	55	4181
2026-01-04 01:20:51.98	22.46	19.67	-46.2	-47.8	17.0	0.00e+00	0	54	0	312475648	55	4245
2026-01-04 01:20:52.97	22.42	19.80	-46.4	-48.0	16.8	0.00e+00	0	54	0	313524224	55	4365
2026-01-04 01:20:53.96	22.38	19.92	-46.2	-47.8	17.0	0.00e+00	0	54	0	315621376	55	4256
2026-01-04 01:20:54.95	22.33	20.05	-46.0	-47.6	17.2	0.00e+00	0	54	0	317718528	55	4158
2026-01-04 01:20:55.94	22.29	20.18	-45.9	-47.4	17.3	0.00e+00	0	54	0	319815680	55	4060
2026-01-04 01:20:56.93	22.25	20.30	-46.1	-47.6	17.1	0.00e+00	0	54	0	320864256	55	4148
2026-01-04 01:20:57.91	22.20	20.43	-45.9	-47.4	17.3	0.00e+00	0	54	0	322961408	55	4079
2026-01-04 01:20:58.90	22.16	20.56	-45.9	-47.3	17.4	0.00e+00	0	54	0	325058560	54	4282
2026-01-04 01:20:59.89	22.11	20.69	-46.0	-47.5	17.2	0.00e+00	0	54	0	327155712	54	4363
2026-01-04 01:21:00.87	22.07	20.82	-46.0	-47.5	17.3	0.00e+00	0	54	0	328204288	54	4346
2026-01-04 01:21:01.86	22.02	20.95	-45.8	-47.3	17.5	0.00e+00	0	54	0	330301440	54	4251
2026-01-04 01:21:02.83	21.98	21.08	-46.0	-47.5	17.2	0.00e+00	0	54	0	332398592	54	4358
2026-01-04 01:21:03.82	21.93	21.22	-45.9	-47.3	17.4	0.00e+00	0	54	0	334495744	54	4276
2026-01-04 01:21:04.81	21.88	21.35	-45.8	-47.2	17.5	0.00e+00	0	54	0	335544320	54	4216
2026-01-04 01:21:05.80	21.83	21.48	-45.9	-47.3	17.5	0.00e+00	0	54	0	337641472	54	4255
2026-01-04 01:21:06.79	21.79	21.62	-45.8	-47.3	17.5	0.00e+00	0	54	0	339738624	54	4251
2026-01-04 01:21:07.77	21.74	21.75	-46.0	-47.5	17.3	0.00e+00	0	54	0	341835776	54	4350
2026-01-04 01:21:08.76	21.69	21.89	-45.9	-47.4	17.4	0.00e+00	0	54	0	342884352	54	4319
2026-01-04 01:21:09.75	21.64	22.03	-46.1	-47.6	17.2	0.00e+00	0	54	0	344981504	54	4433
2026-01-04 01:21:10.74	21.59	22.16	-46.0	-47.5	17.2	0.00e+00	0	54	0	347078656	54	4376
2026-01-04 01:21:11.73	21.54	22.30	-46.0	-47.4	17.3	0.00e+00	0	54	0	349175808	54	4336
2026-01-04 01:21:12.72	21.49	22.44	-46.2	-47.8	17.0	0.00e+00	0	54	0	351272960	54	4505
2026-01-04 01:21:13.72	21.44	22.58	-46.2	-47.8	17.0	0.00e+00	0	54	0	352321536	54	4509
2026-01-04 01:21:14.70	21.38	22.72	-46.0	-47.5	17.3	0.00e+00	0	54	0	354418688	54	4366
2026-01-04 01:21:15.69	21.33	22.86	-46.2	-47.7	17.1	0.00e+00	0	54	0	356515840	54	4481
2026-01-04 01:21:16.67	21.28	23.00	-46.2	-47.7	17.0	0.00e+00	0	54	0	358612992	54	4484
2026-01-04 01:21:17.66	21.23	23.15	-46.2	-47.7	17.1	0.00e+00	0	54	0	359661568	54	4481
2026-01-04 01:21:18.65	21.17	23.29	-46.3	-47.8	17.0	0.00e+00	0	54	0	361758720	54	4525
2026-01-04 01:21:19.64	21.12	23.44	-46.4	-48.0	16.8	0.00e+00	0	54	0	363855872	54	4626
2026-01-04 01:21:20.63	21.06	23.58	-46.5	-48.1	16.7	0.00e+00	0	54	0	365953024	54	4687
2026-01-04 01:21:21.63	21.01	23.73	-46.4	-48.0	16.8	0.00e+00	0	54	0	368050176	54	4629
2026-01-04 01:21:22.61	20.95	23.87	-46.1	-47.7	17.1	0.00e+00	0	54	0	369098752	54	4461
2026-01-04 01:21:23.61	20.89	24.02	-46.5	-48.1	16.7	0.00e+00	0	54	0	371195904	54	4682
2026-01-04 01:21:24.60	20.84	24.17	-46.5	-48.2	16.6	0.00e+00	0	55	0	373293056	55	4466
2026-01-04 01:21:25.59	20.78	24.32	-46.6	-48.3	16.5	0.00e+00	0	54	0	375390208	55	4525
2026-01-04 01:21:26.58	20.72	24.47	-46.6	-48.2	16.6	0.00e+00	0	54	0	376438784	55	4489
2026-01-04 01:21:27.56	20.66	24.62	-46.6	-48.2	16.7	0.00e+00	0	55	0	378535936	55	4456
2026-01-04 01:21:28.55	20.60	24.77	-46.6	-48.3	16.6	0.00e+00	0	55	0	380633088	55	4517
2026-01-04 01:21:29.52	20.54	24.92	-46.8	-48.5	16.4	0.00e+00	0	54	0	382730240	55	4631
2026-01-04 01:21:30.51	20.48	25.08	-46.6	-48.3	16.5	0.00e+00	0	55	0	383778816	55	4510
2026-01-04 01:21:31.50	20.42	25.23	-46.9	-48.7	16.2	0.00e+00	0	54	0	385875968	55	4744
2026-01-04 01:21:32.48	20.36	25.38	-47.2	-49.1	15.9	0.00e+00	0	54	0	387973120	56	4657
2026-01-04 01:21:33.48	20.30	25.54	-47.2	-49.0	15.9	0.00e+00	0	54	0	390070272	56	4649
2026-01-04 01:21:34.47	20.23	25.70	-47.5	-49.5	15.5	0.00e+00	0	55	0	391118848	56	4917
2026-01-04 01:21:35.45	20.17	25.85	-47.5	-49.5	15.5	0.00e+00	0	54	0	393216000	57	4627
2026-01-04 01:21:36.44	20.10	26.01	-47.2	-49.0	16.0	0.00e+00	0	55	0	395313152	57	4370
2026-01-04 01:21:37.43	20.04	26.17	-47.1	-48.9	16.0	0.00e+00	0	55	0	397410304	57	4328
2026-01-04 01:21:38.42	19.97	26.33	-46.8	-48.6	16.4	0.00e+00	0	55	0	398458880	56	4397
2026-01-04 01:21:39.41	19.91	26.49	-47.0	-48.8	16.2	0.00e+00	0	55	0	400556032	56	4508
2026-01-04 01:21:40.40	19.84	26.66	-47.1	-48.9	16.1	0.00e+00	0	55	0	402653184	56	4588
2026-01-04 01:21:41.39	19.77	26.82	-47.1	-49.0	16.1	0.00e+00	0	54	0	404750336	56	4607
2026-01-04 01:21:42.37	19.70	26.98	-47.5	-49.4	15.6	0.00e+00	0	55	0	406847488	56	4849
2026-01-04 01:21:43.37	19.63	27.15	-47.4	-49.5	15.5	0.00e+00	0	55	0	407896064	57	4605
2026-01-04 01:21:44.36	19.56	27.32	-47.9	-50.1	14.8	0.00e+00	0	55	0	409993216	57	4956
2026-01-04 01:21:45.35	19.49	27.48	-48.1	-50.5	14.5	0.00e+00	0	55	0	412090368	58	4911
2026-01-04 01:21:46.33	19.42	27.65	-47.9	-50.1	14.8	0.00e+00	0	54	0	414187520	58	4704
2026-01-04 01:21:47.33	19.34	27.82	-48.2	-50.6	14.3	0.00e+00	0	55	0	415236096	58	4980
2026-01-04 01:21:48.32	19.27	27.99	-48.2	-50.6	14.3	7.00e-07	0	55	0	417333248	58	4969
2026-01-04 01:21:49.30	19.20	28.16	-47.8	-50.0	14.9	0.00e+00	0	55	0	419430400	58	4635
2026-01-04 01:21:50.29	19.12	28.33	-48.0	-50.4	14.5	7.00e-07	0	55	0	421527552	58	4820
2026-01-04 01:21:51.27	19.04	28.50	-47.9	-50.2	14.6	7.00e-07	0	55	0	422576128	58	4751
2026-01-04 01:21:52.25	18.97	28.68	-47.8	-50.1	14.8	7.00e-07	0	55	0	424673280	58	4669
2026-01-04 01:21:53.24	18.89	28.85	-47.9	-50.3	14.4	7.00e-07	0	55	0	426770432	58	4790
2026-01-04 01:21:54.22	18.81	29.02	-47.8	-50.2	14.5	1.50e-06	0	55	0	428867584	58	4744
2026-01-04 01:21:55.21	18.73	29.20	-47.9	-50.3	14.4	7.00e-07	0	55	0	430964736	58	4769
2026-01-04 01:21:56.19	18.65	29.38	-48.1	-50.8	13.8	1.50e-06	0	55	0	432013312	58	5052
2026-01-04 01:21:57.18	18.57	29.56	-47.9	-50.5	14.0	6.10e-06	0	55	0	434110464	58	4888
2026-01-04 01:21:58.17	18.49	29.74	-48.5	-51.4	12.9	2.44e-05	0	55	0	436207616	58	5456
2026-01-04 01:21:59.16	18.40	29.92	-48.9	-52.3	11.9	2.13e-04	0	55	0	438304768	59	5721
2026-01-04 01:22:00.14	18.32	30.10	-49.0	-52.7	11.5	4.38e-04	0	55	0	439353344	59	5941
2026-01-04 01:22:01.13	18.23	30.28	-49.2	-53.2	10.8	1.45e-03	0	55	0	441450496	60	5988
2026-01-04 01:22:02.12	18.15	30.47	-49.4	-53.8	10.1	4.08e-03	0	55	0	443547648	60	6401
2026-01-04 01:22:03.12	18.06	30.66	-49.5	-54.1	9.8	9.41e-03	0	55	0	445644800	60	6640
2026-01-04 01:22:04.11	17.97	30.84	-49.6	-54.4	9.6	1.06e-02	0	55	0	446693376	61	6447
2026-01-04 01:22:05.09	17.88	31.03	-49.5	-54.1	10.0	1.18e-02	0	55	0	448790528	61	6205
2026-01-04 01:22:06.08	17.79	31.22	-49.6	-54.0	10.1	8.22e-03	0	55	0	450887680	61	6154
2026-01-04 01:22:07.08	17.70	31.41	-49.5	-53.9	10.2	6.76e-03	0	55	0	452984832	61	6078
2026-01-04 01:22:08.06	17.60	31.60	-49.3	-53.2	11.0	3.90e-03	0	55	0	455081984	61	5631
2026-01-04 01:22:09.05	17.51	31.79	-49.2	-52.9	11.4	2.45e-03	0	55	0	456130560	61	5448
2026-01-04 01:22:10.03	17.41	31.99	-49.3	-52.9	11.5	1.37e-03	0	55	0	458227712	61	5447
2026-01-04 01:22:11.02	17.32	32.18	-49.5	-53.4	11.1	8.45e-04	0	55	0	460324864	61	5774
2026-01-04 01:22:12.01	17.22	32.38	-49.7	-53.5	11.1	9.09e-04	0	55	0	462422016	61	5842
2026-01-04 01:22:13.00	17.12	32.57	-49.7	-53.7	11.0	1.56e-03	0	55	0	463470592	61	5926
2026-01-04 01:22:13.99	17.02	32.77	-49.2	-52.5	12.3	3.46e-04	0	55	0	465567744	61	5214
2026-01-04 01:22:14.98	16.92	32.97	-49.2	-52.5	12.4	1.04e-04	0	55	0	467664896	61	5165
2026-01-04 01:22:15.97	16.82	33.17	-49.1	-52.2	12.7	1.35e-04	0	55	0	469762048	61	4999
2026-01-04 01:22:16.96	16.71	33.38	-49.3	-52.6	12.3	1.43e-04	0	55	0	470810624	61	5271
2026-01-04 01:22:17.95	16.61	33.58	-49.4	-52.8	12.2	1.87e-04	0	55	0	472907776	61	5364
2026-01-04 01:22:18.94	16.50	33.78	-49.5	-53.0	12.0	1.62e-04	0	55	0	475004928	61	5508
2026-01-04 01:22:19.93	16.39	33.99	-49.6	-53.2	11.8	4.16e-04	0	55	0	477102080	61	5618
2026-01-04 01:22:20.91	16.28	34.20	-49.9	-53.9	11.1	1.02e-03	0	55	0	478150656	61	6118
2026-01-04 01:22:21.90	16.17	34.40	-49.7	-53.3	11.6	1.24e-03	0	55	0	480247808	61	5709
2026-01-04 01:22:22.89	16.06	34.61	-49.6	-53.2	11.7	5.16e-04	0	55	0	482344960	61	5642
2026-01-04 01:22:23.88	15.94	34.83	-48.9	-51.8	13.0	2.64e-04	0	55	0	484442112	61	4790
2026-01-04 01:22:24.87	15.83	35.04	-48.8	-51.8	13.2	3.50e-05	0	55	0	486539264	60	5045
2026-01-04 01:22:25.86	15.71	35.25	-48.8	-51.7	13.4	1.22e-05	0	55	0	487587840	60	4988
2026-01-04 01:22:26.85	15.59	35.47	-48.7	-51.5	13.6	3.80e-06	0	55	0	489684992	59	5210
2026-01-04 01:22:27.83	15.47	35.68	-48.7	-51.4	13.7	8.30e-06	0	55	0	491782144	59	5135
2026-01-04 01:22:28.83	15.35	35.90	-48.9	-51.7	13.4	1.14e-05	0	55	0	493879296	59	5309
2026-01-04 01:22:29.81	15.22	36.12	-48.9	-51.8	13.3	9.10e-06	0	55	0	494927872	59	5355
2026-01-04 01:22:30.81	15.10	36.34	-49.2	-52.3	12.8	5.11e-05	0	55	0	497025024	60	5393
2026-01-04 01:22:31.80	14.97	36.56	-48.9	-51.9	13.1	1.81e-04	0	55	0	499122176	60	5131
2026-01-04 01:22:32.79	14.84	36.78	-49.5	-53.1	11.9	2.51e-04	0	55	0	501219328	60	5889
2026-01-04 01:22:33.77	14.71	37.01	-49.4	-52.9	12.1	2.39e-04	0	55	0	502267904	60	5778
2026-01-04 01:22:34.76	14.57	37.23	-49.1	-52.1	13.0	8.31e-05	0	55	0	504365056	60	5276
2026-01-04 01:22:35.74	14.44	37.46	-49.1	-52.3	12.8	1.34e-04	0	55	0	506462208	60	5374
2026-01-04 01:22:36.73	14.30	37.69	-48.9	-51.8	13.2	6.17e-05	0	55	0	508559360	60	5079
2026-01-04 01:22:37.72	14.16	37.92	-49.2	-52.3	12.8	3.50e-05	0	55	0	510656512	60	5382
2026-01-04 01:22:38.71	14.02	38.15	-49.0	-52.0	13.1	5.11e-05	0	55	0	511705088	60	5192
2026-01-04 01:22:39.70	13.88	38.38	-48.6	-51.3	13.8	1.14e-05	0	55	0	513802240	60	4799
2026-01-04 01:22:40.69	13.73	38.61	-48.6	-51.3	13.7	1.29e-05	0	55	0	515899392	60	4807
2026-01-04 01:22:41.68	13.59	38.85	-48.9	-51.8	13.2	1.75e-05	0	55	0	517996544	60	5051
2026-01-04 01:22:42.67	13.44	39.09	-49.2	-52.5	12.6	5.49e-05	0	56	0	519045120	60	5481
2026-01-04 01:22:43.65	13.29	39.32	-49.4	-52.8	12.3	1.86e-04	0	55	0	521142272	60	5697
2026-01-04 01:22:44.65	13.13	39.56	-49.3	-52.7	12.4	2.45e-04	0	55	0	523239424	60	5619
2026-01-04 01:22:45.64	12.98	39.81	-49.4	-53.0	12.0	4.26e-04	0	55	0	525336576	61	5491
2026-01-04 01:22:46.62	12.82	40.05	-49.4	-52.9	12.2	1.84e-04	0	55	0	526385152	61	5419
2026-01-04 01:22:47.61	12.66	40.29	-49.5	-53.1	11.9	1.96e-04	0	56	0	528482304	61	5584
2026-01-04 01:22:48.61	12.49	40.54	-49.4	-52.8	12.3	2.07e-04	0	56	0	530579456	61	5345
2026-01-04 01:22:49.60	12.32	40.78	-49.3	-52.6	12.5	1.62e-04	0	55	0	532676608	61	5237
2026-01-04 01:22:50.58	12.16	41.03	-49.5	-53.1	12.0	1.87e-04	0	55	0	534773760	61	5529
2026-01-04 01:22:51.57	11.98	41.28	-49.3	-52.5	12.6	1.27e-04	0	56	0	535822336	61	5202
2026-01-04 01:22:52.56	11.81	41.53	-49.0	-52.0	13.1	4.50e-05	0	56	0	537919488	61	4883
2026-01-04 01:22:53.54	11.63	41.78	-48.5	-51.1	14.0	1.14e-05	0	56	0	540016640	60	4662
2026-01-04 01:22:54.53	11.45	42.03	-48.4	-50.8	14.3	3.00e-06	0	56	0	542113792	59	4808
2026-01-04 01:22:55.52	11.27	42.29	-48.0	-50.2	14.8	7.00e-07	0	55	0	543162368	59	4479
2026-01-04 01:22:56.52	11.08	42.55	-48.1	-50.3	14.8	1.50e-06	0	55	0	545259520	59	4522
2026-01-04 01:22:57.51	10.89	42.81	-48.1	-50.4	14.7	7.00e-07	0	55	0	547356672	59	4557
2026-01-04 01:22:58.51	10.70	43.07	-48.5	-51.1	14.1	0.00e+00	0	55	0	549453824	59	4933
2026-01-04 01:22:59.50	10.50	43.33	-48.4	-50.9	14.3	7.00e-07	0	55	0	551550976	59	4828
2026-01-04 01:23:00.49	10.31	43.59	-48.4	-51.0	14.1	3.00e-06	0	56	0	552599552	59	4894
2026-01-04 01:23:01.47	10.11	43.85	-48.3	-50.8	14.3	6.80e-06	0	56	0	554696704	59	4800
2026-01-04 01:23:02.46	9.90	44.12	-48.1	-50.4	14.8	1.50e-06	0	56	0	556793856	59	4553
2026-01-04 01:23:03.45	9.69	44.39	-48.1	-50.4	14.7	0.00e+00	0	56	0	558891008	59	4569
2026-01-04 01:23:04.44	9.48	44.65	-47.6	-49.8	15.2	0.00e+00	0	56	0	559939584	58	4525
2026-01-04 01:23:05.43	9.26	44.92	-47.7	-49.8	15.3	0.00e+00	0	56	0	562036736	58	4503
2026-01-04 01:23:06.42	9.04	45.19	-48.0	-50.4	14.6	0.00e+00	0	56	0	564133888	58	4860
2026-01-04 01:23:07.41	8.82	45.47	-48.2	-50.7	14.4	0.00e+00	0	56	0	566231040	58	5006
2026-01-04 01:23:08.41	8.59	45.74	-48.3	-50.9	14.2	7.00e-07	0	56	0	567279616	58	5136
2026-01-04 01:23:09.39	8.36	46.01	-48.1	-50.5	14.6	3.80e-06	0	56	0	569376768	58	4917
2026-01-04 01:23:10.39	8.12	46.29	-48.2	-50.8	14.3	7.00e-07	0	56	0	571473920	58	5062
2026-01-04 01:23:11.38	7.88	46.57	-48.1	-50.5	14.6	0.00e+00	0	56	0	573571072	58	4893
2026-01-04 01:23:12.37	7.63	46.85	-48.2	-50.6	14.5	7.00e-07	0	56	0	574619648	58	4935
2026-01-04 01:23:13.36	7.38	47.13	-47.8	-50.0	15.2	0.00e+00	0	56	0	576716800	58	4612
2026-01-04 01:23:14.36	7.13	47.41	-47.8	-49.9	15.3	0.00e+00	0	56	0	578813952	58	4584
2026-01-04 01:23:15.33	6.87	47.69	-48.2	-50.8	14.4	0.00e+00	0	56	0	580911104	58	5045
2026-01-04 01:23:16.33	6.61	47.98	-48.6	-51.3	13.9	3.00e-06	0	56	0	583008256	59	5078
2026-01-04 01:23:17.32	6.34	48.26	-48.8	-51.7	13.4	1.50e-06	0	56	0	584056832	59	5323
2026-01-04 01:23:18.31	6.07	48.55	-48.4	-51.0	14.2	3.00e-06	0	56	0	586153984	59	4877
2026-01-04 01:23:19.29	5.79	48.83	-48.2	-50.4	14.8	0.00e+00	0	56	0	588251136	59	4577
2026-01-04 01:23:20.28	5.51	49.12	-48.0	-50.2	14.9	0.00e+00	0	56	0	590348288	59	4485
2026-01-04 01:23:21.27	5.22	49.41	-47.5	-49.4	15.7	0.00e+00	0	56	0	591396864	58	4336
2026-01-04 01:23:22.26	4.92	49.70	-47.2	-49.1	15.9	0.00e+00	0	56	0	593494016	57	4431
2026-01-04 01:23:23.25	4.62	49.99	-46.7	-48.4	16.6	0.00e+00	0	56	0	595591168	56	4315
2026-01-04 01:23:24.24	4.31	50.28	-46.1	-47.7	17.2	0.00e+00	0	56	0	597688320	55	4215
2026-01-04 01:23:25.23	4.00	50.58	-45.9	-47.4	17.6	0.00e+00	0	56	0	598736896	54	4308
2026-01-04 01:23:26.22	3.68	50.87	-45.9	-47.4	17.6	0.00e+00	0	56	0	600834048	54	4308
2026-01-04 01:23:27.21	3.36	51.17	-46.3	-47.9	17.1	0.00e+00	0	56	0	602931200	54	4569
2026-01-04 01:23:28.20	3.03	51.46	-46.7	-48.5	16.5	0.00e+00	0	56	0	605028352	55	4599
2026-01-04 01:23:29.19	2.69	51.76	-47.0	-48.8	16.2	0.00e+00	0	56	0	607125504	55	4785
2026-01-04 01:23:30.18	2.34	52.06	-46.8	-48.5	16.6	0.00e+00	0	56	0	608174080	55	4645
2026-01-04 01:23:31.18	1.99	52.36	-46.6	-48.3	16.7	0.00e+00	0	56	0	610271232	55	4507
2026-01-04 01:23:32.16	1.63	52.66	-46.8	-48.5	16.6	0.00e+00	0	56	0	612368384	55	4599
2026-01-04 01:23:33.16	1.26	52.96	-46.8	-48.5	16.5	0.00e+00	0	56	0	614465536	55	4602
2026-01-04 01:23:34.15	0.88	53.26	-47.3	-49.2	15.9	0.00e+00	0	56	0	615514112	56	4734
2026-01-04 01:23:35.14	0.50	53.56	-47.8	-50.0	15.2	0.00e+00	0	56	0	617611264	57	4909
2026-01-04 01:23:36.12	0.11	53.86	-47.7	-49.8	15.3	0.00e+00	0	56	0	619708416	57	4766
2026-01-04 01:23:37.10	359.72	54.16	-47.4	-49.4	15.6	0.00e+00	0	56	0	621805568	57	4585
2026-01-04 01:23:38.09	359.31	54.46	-47.3	-49.3	16.1	0.00e+00	0	56	0	623902720	57	4499
2026-01-04 01:23:39.08	358.89	54.76	-47.3	-49.2	15.9	0.00e+00	0	56	0	624951296	57	4492
2026-01-04 01:23:40.07	358.47	55.07	-47.6	-49.7	15.4	0.00e+00	0	56	0	627048448	57	4731
2026-01-04 01:23:41.06	358.03	55.37	-48.6	-51.3	13.9	0.00e+00	0	56	0	629145600	59	5070
2026-01-04 01:23:42.05	357.59	55.67	-48.2	-50.7	14.5	2.20e-06	0	56	0	631242752	59	4707
2026-01-04 01:23:43.04	357.13	55.97	-47.7	-49.9	15.2	7.00e-07	0	56	0	632291328	58	4560
2026-01-04 01:23:44.03	356.67	56.28	-47.7	-49.9	15.3	0.00e+00	0	56	0	634388480	58	4573
2026-01-04 01:23:45.02	356.19	56.58	-48.2	-50.5	14.6	7.00e-07	0	56	0	636485632	58	4881
2026-01-04 01:23:46.01	355.71	56.88	-49.0	-51.8	13.5	7.00e-07	0	56	0	638582784	59	5386
2026-01-04 01:23:47.00	355.21	57.18	-49.3	-52.5	12.7	2.97e-05	0	56	0	639631360	60	5484
2026-01-04 01:23:47.99	354.70	57.48	-49.0	-51.9	13.3	2.44e-05	0	56	0	641728512	60	5103
2026-01-04 01:23:48.98	354.19	57.78	-48.6	-51.1	14.1	5.30e-06	0	56	0	643825664	59	4953
2026-01-04 01:23:49.97	353.65	58.08	-48.7	-51.3	13.8	5.30e-06	0	56	0	645922816	59	5089
2026-01-04 01:23:50.95	353.12	58.38	-48.0	-50.3	14.8	2.20e-06	0	56	0	648019968	59	4500
2026-01-04 01:23:51.94	352.56	58.68	-47.6	-49.6	15.5	0.00e+00	0	56	0	649068544	57	4674
2026-01-04 01:23:52.93	352.00	58.97	-47.6	-49.6	15.5	0.00e+00	0	56	0	651165696	57	4677
2026-01-04 01:23:53.93	351.41	59.27	-47.6	-49.7	15.4	0.00e+00	0	56	0	653262848	57	4726
2026-01-04 01:23:54.92	350.81	59.57	-48.1	-50.4	14.7	0.00e+00	0	56	0	655360000	58	4869
2026-01-04 01:23:55.91	350.21	59.86	-48.0	-50.3	14.9	0.00e+00	0	56	0	656408576	58	4765
2026-01-04 01:23:56.90	349.59	60.15	-48.1	-50.3	14.8	7.00e-07	0	56	0	658505728	58	4811
2026-01-04 01:23:57.89	348.95	60.44	-47.7	-49.8	15.4	0.00e+00	0	56	0	660602880	58	4545
2026-01-04 01:23:58.88	348.30	60.73	-47.8	-49.9	15.3	0.00e+00	0	56	0	662700032	58	4559
2026-01-04 01:23:59.87	347.63	61.01	-47.3	-49.1	16.0	0.00e+00	0	56	0	663748608	57	4428
2026-01-04 01:24:00.85	346.96	61.29	-46.8	-48.5	16.6	0.00e+00	0	56	0	665845760	56	4373
2026-01-04 01:24:01.85	346.26	61.58	-46.2	-47.6	17.3	0.00e+00	0	56	0	667942912	55	4191
2026-01-04 01:24:02.84	345.54	61.86	-46.1	-47.6	17.4	0.00e+00	0	56	0	670040064	55	4153
2026-01-04 01:24:03.82	344.82	62.13	-46.5	-48.1	16.9	0.00e+00	0	56	0	671088640	55	4422
2026-01-04 01:24:04.82	344.07	62.40	-46.6	-48.3	16.7	0.00e+00	0	56	0	673185792	55	4523
2026-01-04 01:24:05.81	343.31	62.67	-46.7	-48.4	16.6	0.00e+00	0	56	0	675282944	55	4587
2026-01-04 01:24:06.80	342.53	62.94	-46.6	-48.3	16.8	0.00e+00	0	56	0	677380096	55	4516
2026-01-04 01:24:07.78	341.74	63.20	-46.7	-48.4	16.6	0.00e+00	0	56	0	679477248	55	4562
2026-01-04 01:24:08.78	340.91	63.46	-46.8	-48.6	16.5	0.00e+00	0	56	0	680525824	55	4672
2026-01-04 01:24:09.76	340.09	63.71	-47.4	-49.4	15.9	0.00e+00	0	56	0	682622976	56	4833
2026-01-04 01:24:10.75	339.24	63.96	-47.2	-49.1	16.1	0.00e+00	0	56	0	684720128	56	4670
2026-01-04 01:24:11.75	338.36	64.21	-46.6	-48.2	16.9	0.00e+00	0	56	0	686817280	56	4235
2026-01-04 01:24:12.74	337.47	64.45	-46.1	-47.6	17.4	0.00e+00	0	56	0	687865856	55	4174
2026-01-04 01:24:13.73	336.56	64.69	-46.6	-48.3	16.8	0.00e+00	0	56	0	689963008	55	4516
2026-01-04 01:24:14.72	335.64	64.92	-46.6	-48.3	16.8	0.00e+00	0	56	0	692060160	55	4508
2026-01-04 01:24:15.71	334.69	65.14	-46.8	-48.5	16.5	0.00e+00	0	56	0	694157312	55	4644
2026-01-04 01:24:16.69	333.74	65.36	-46.7	-48.4	16.7	0.00e+00	0	56	0	696254464	55	4568
2026-01-04 01:24:17.69	332.74	65.58	-47.0	-48.7	16.4	0.00e+00	0	56	0	697303040	55	4754
2026-01-04 01:24:18.68	331.74	65.79	-47.4	-49.3	16.0	0.00e+00	0	56	0	699400192	56	4794
2026-01-04 01:24:19.68	330.71	65.99	-47.2	-48.9	16.3	0.00e+00	0	56	0	701497344	56	4588
2026-01-04 01:24:20.66	329.68	66.18	-47.1	-48.8	16.4	0.00e+00	0	56	0	703594496	56	4508
2026-01-04 01:24:21.65	328.62	66.37	-46.8	-48.5	16.7	0.00e+00	0	56	0	704643072	56	4365
2026-01-04 01:24:22.64	327.54	66.55	-46.9	-48.6	16.5	0.00e+00	0	56	0	706740224	56	4405
2026-01-04 01:24:23.64	326.44	66.73	-47.6	-49.5	15.7	0.00e+00	0	56	0	708837376	56	4915
2026-01-04 01:24:24.62	325.33	66.90	-48.7	-51.3	14.0	0.00e+00	0	56	0	710934528	59	5088
2026-01-04 01:24:25.61	324.20	67.05	-49.1	-52.0	13.2	2.36e-05	0	56	0	711983104	60	5196
2026-01-04 01:24:26.60	323.05	67.20	-48.8	-51.5	13.8	2.20e-06	0	56	0	714080256	60	4871
2026-01-04 01:24:27.59	321.89	67.35	-49.6	-53.0	12.1	2.36e-05	0	56	0	716177408	61	5511
2026-01-04 01:24:28.57	320.72	67.48	-50.4	-55.1	10.2	6.08e-03	0	56	0	718274560	62	6575
2026-01-04 01:24:29.55	319.54	67.60	-50.4	-54.9	10.3	1.24e-02	0	56	0	720371712	63	6099
2026-01-04 01:24:30.54	318.33	67.72	-49.6	-52.9	12.2	1.44e-03	0	56	0	721420288	62	5112
2026-01-04 01:24:31.52	317.12	67.83	-48.8	-51.5	13.9	3.50e-05	0	56	0	723517440	60	4893
2026-01-04 01:24:32.51	315.89	67.92	-48.8	-51.4	13.9	7.00e-07	0	56	0	725614592	59	5101
2026-01-04 01:24:33.50	314.64	68.01	-48.3	-50.6	14.7	7.00e-07	0	56	0	727711744	59	4666
2026-01-04 01:24:34.49	313.38	68.09	-48.5	-50.8	14.4	7.00e-07	0	56	0	728760320	59	4804
2026-01-04 01:24:35.48	312.12	68.16	-48.4	-50.6	14.6	0.00e+00	0	56	0	730857472	59	4675
2026-01-04 01:24:36.48	310.83	68.22	-48.9	-51.5	13.8	1.50e-06	0	56	0	732954624	59	5193
2026-01-04 01:24:37.46	309.56	68.27	-49.5	-52.6	12.8	1.06e-05	0	56	0	735051776	60	5532
2026-01-04 01:24:38.45	308.28	68.31	-49.1	-52.0	13.1	1.12e-04	0	56	0	736100352	61	4901
2026-01-04 01:24:39.45	306.97	68.34	-48.8	-51.4	13.8	1.60e-05	0	56	0	738197504	60	4854
2026-01-04 01:24:40.44	305.68	68.36	-48.5	-51.1	14.1	3.00e-06	0	56	0	740294656	60	4673
2026-01-04 01:24:41.43	304.38	68.37	-48.4	-50.8	14.3	3.00e-06	0	56	0	742391808	60	4501
2026-01-04 01:24:42.41	303.10	68.36	-48.1	-50.2	15.0	7.00e-07	0	57	0	744488960	58	4721
2026-01-04 01:24:43.40	301.80	68.35	-48.1	-50.3	14.9	0.00e+00	0	56	0	745537536	58	4768
2026-01-04 01:24:44.39	300.51	68.33	-47.7	-49.7	15.4	0.00e+00	0	56	0	747634688	58	4489
2026-01-04 01:24:45.38	299.22	68.30	-48.4	-50.7	14.4	7.00e-07	0	56	0	749731840	58	5008
2026-01-04 01:24:46.36	297.95	68.26	-47.9	-50.0	15.2	0.00e+00	0	56	0	751828992	58	4620
2026-01-04 01:24:47.35	296.67	68.20	-47.9	-50.0	15.2	0.00e+00	0	56	0	752877568	58	4622
2026-01-04 01:24:48.33	295.41	68.14	-48.5	-51.0	14.2	0.00e+00	0	56	0	754974720	58	5202
2026-01-04 01:24:49.32	294.15	68.07	-48.6	-51.2	13.9	7.00e-07	0	56	0	757071872	59	5037
2026-01-04 01:24:50.31	292.89	67.99	-48.4	-50.8	14.4	0.00e+00	0	56	0	759169024	59	4812
2026-01-04 01:24:51.31	291.64	67.89	-49.0	-51.9	13.3	1.14e-05	0	56	0	760217600	60	5121
2026-01-04 01:24:52.30	290.41	67.79	-49.8	-53.4	11.7	1.94e-04	0	56	0	762314752	61	5769
2026-01-04 01:24:53.29	289.19	67.68	-50.1	-54.3	10.9	2.48e-03	0	56	0	764411904	62	6000
2026-01-04 01:24:54.28	287.98	67.56	-50.0	-53.9	11.3	2.83e-03	0	56	0	766509056	62	5749
2026-01-04 01:24:55.28	286.78	67.43	-49.4	-52.5	12.7	2.25e-04	0	56	0	767557632	62	4925
2026-01-04 01:24:56.27	285.61	67.30	-49.4	-52.6	12.6	4.20e-04	0	56	0	769654784	61	5252
2026-01-04 01:24:57.27	284.43	67.15	-49.5	-52.8	12.4	1.07e-04	0	56	0	771751936	61	5387
2026-01-04 01:24:58.26	283.29	67.00	-49.5	-52.8	12.2	2.02e-04	0	56	0	773849088	61	5399
2026-01-04 01:24:59.24	282.18	66.84	-49.0	-51.9	13.2	9.61e-05	0	56	0	775946240	61	4841
2026-01-04 01:25:00.24	281.06	66.67	-47.6	-49.6	15.6	1.50e-06	0	57	0	776994816	58	4397
2026-01-04 01:25:01.22	279.98	66.49	-47.2	-48.9	16.3	0.00e+00	0	56	0	779091968	57	4315
2026-01-04 01:25:02.21	278.91	66.31	-46.9	-48.5	16.7	0.00e+00	0	56	0	781189120	56	4383
2026-01-04 01:25:03.20	277.85	66.12	-47.9	-50.0	15.3	0.00e+00	0	56	0	783286272	57	4907
2026-01-04 01:25:04.20	276.81	65.92	-47.9	-50.2	15.1	0.00e+00	0	56	0	784334848	57	4986
2026-01-04 01:25:05.19	275.79	65.71	-46.9	-48.7	16.4	0.00e+00	0	56	0	786432000	57	4203
2026-01-04 01:25:06.18	274.80	65.50	-45.6	-46.9	18.0	0.00e+00	0	56	0	788529152	54	4084
2026-01-04 01:25:07.17	273.82	65.28	-45.3	-46.5	18.4	0.00e+00	0	56	0	790626304	53	4144
2026-01-04 01:25:08.16	272.86	65.06	-45.3	-46.6	18.3	0.00e+00	0	57	0	792723456	53	4169
2026-01-04 01:25:09.15	271.92	64.83	-46.1	-47.7	17.4	0.00e+00	0	56	0	793772032	54	4459
2026-01-04 01:25:10.15	270.99	64.60	-46.1	-47.7	17.4	0.00e+00	0	56	0	795869184	54	4463
2026-01-04 01:25:11.14	270.09	64.36	-45.6	-47.0	18.1	0.00e+00	0	56	0	797966336	54	4107
2026-01-04 01:25:12.13	269.21	64.12	-45.4	-46.6	18.3	0.00e+00	0	56	0	800063488	53	4189
2026-01-04 01:25:13.12	268.34	63.87	-45.7	-47.0	17.9	0.00e+00	0	57	0	801112064	53	4383
2026-01-04 01:25:14.11	267.50	63.62	-46.4	-48.0	17.0	0.00e+00	0	56	0	803209216	54	4647
2026-01-04 01:25:15.10	266.67	63.36	-46.8	-48.5	16.4	0.00e+00	0	57	0	805306368	55	4622
2026-01-04 01:25:16.09	265.86	63.10	-46.4	-48.0	17.0	0.00e+00	0	57	0	807403520	55	4346
2026-01-04 01:25:17.08	265.07	62.83	-46.8	-48.6	16.4	0.00e+00	0	57	0	809500672	55	4700
2026-01-04 01:25:18.07	264.30	62.57	-47.8	-50.0	15.2	0.00e+00	0	56	0	810549248	57	4896
2026-01-04 01:25:19.06	263.54	62.30	-47.3	-49.3	15.9	0.00e+00	0	57	0	812646400	57	4514
2026-01-04 01:25:20.05	262.80	62.02	-47.0	-48.7	16.3	0.00e+00	0	57	0	814743552	57	4237
2026-01-04 01:25:21.05	262.07	61.74	-47.6	-49.6	15.5	0.00e+00	0	56	0	816840704	57	4698
2026-01-04 01:25:22.04	261.36	61.46	-48.1	-50.5	14.7	0.00e+00	0	57	0	817889280	58	4912
2026-01-04 01:25:23.03	260.67	61.18	-47.7	-49.8	15.4	0.00e+00	0	57	0	819986432	58	4528
2026-01-04 01:25:24.03	259.99	60.89	-47.6	-49.7	15.5	0.00e+00	0	57	0	822083584	58	4465
2026-01-04 01:25:25.01	259.34	60.61	-47.9	-50.1	15.1	0.00e+00	0	57	0	824180736	58	4695
2026-01-04 01:25:26.00	258.69	60.32	-48.4	-50.9	14.3	0.00e+00	0	57	0	825229312	58	5146
2026-01-04 01:25:26.99	258.06	60.03	-49.2	-52.4	12.8	1.37e-05	0	57	0	827326464	60	5464
2026-01-04 01:25:27.97	257.45	59.74	-48.5	-51.0	14.1	6.94e-05	0	57	0	829423616	60	4650
2026-01-04 01:25:28.96	256.85	59.45	-48.0	-50.2	15.0	0.00e+00	0	57	0	831520768	59	4450
2026-01-04 01:25:29.95	256.26	59.15	-47.7	-49.7	15.5	0.00e+00	0	57	0	833617920	58	4477
2026-01-04 01:25:30.95	255.67	58.85	-47.8	-49.9	15.2	0.00e+00	0	57	0	834666496	58	4597
2026-01-04 01:25:31.94	255.11	58.56	-48.5	-51.0	14.2	0.00e+00	0	57	0	836763648	58	5178
2026-01-04 01:25:32.93	254.56	58.26	-47.9	-50.0	15.0	2.20e-06	0	57	0	838860800	58	4651
2026-01-04 01:25:33.92	254.02	57.96	-47.0	-48.7	16.4	0.00e+00	0	56	0	840957952	57	4234
2026-01-04 01:25:34.90	253.50	57.66	-45.6	-46.9	18.1	0.00e+00	0	57	0	842006528	54	4061
2026-01-04 01:25:35.88	252.99	57.36	-45.4	-46.7	18.3	0.00e+00	0	57	0	844103680	53	4236
2026-01-04 01:25:36.87	252.49	57.06	-45.4	-46.7	18.2	0.00e+00	0	57	0	846200832	53	4238
2026-01-04 01:25:37.87	251.99	56.75	-45.8	-47.2	17.7	0.00e+00	0	57	0	848297984	53	4478
2026-01-04 01:25:38.85	251.51	56.45	-46.3	-47.9	17.0	0.00e+00	0	56	0	849346560	54	4593
2026-01-04 01:25:39.84	251.04	56.15	-46.9	-48.6	16.4	0.00e+00	0	57	0	851443712	55	4684
2026-01-04 01:25:40.82	250.58	55.85	-46.7	-48.4	16.5	0.00e+00	0	57	0	853540864	55	4587
2026-01-04 01:25:41.81	250.13	55.55	-46.6	-48.2	16.9	0.00e+00	0	57	0	855638016	56	4202
2026-01-04 01:25:42.80	249.69	55.24	-46.6	-48.1	16.9	0.00e+00	0	57	0	857735168	55	4438
2026-01-04 01:25:43.79	249.26	54.94	-47.2	-48.9	16.1	0.00e+00	0	57	0	858783744	56	4591
2026-01-04 01:25:44.77	248.84	54.64	-47.5	-49.5	15.7	0.00e+00	0	56	0	860880896	56	4916
2026-01-04 01:25:45.76	248.42	54.34	-46.9	-48.6	16.5	0.00e+00	0	56	0	862978048	57	4175
2026-01-04 01:25:46.75	248.02	54.04	-47.0	-48.7	16.5	0.00e+00	0	57	0	865075200	56	4485
2026-01-04 01:25:47.74	247.62	53.73	-47.4	-49.3	15.9	0.00e+00	0	57	0	866123776	56	4792
2026-01-04 01:25:48.73	247.23	53.43	-47.1	-48.9	16.2	0.00e+00	0	57	0	868220928	56	4584
2026-01-04 01:25:49.71	246.86	53.13	-46.9	-48.6	16.5	0.00e+00	0	57	0	870318080	56	4395
2026-01-04 01:25:50.71	246.48	52.83	-47.1	-49.0	16.2	0.00e+00	0	56	0	872415232	56	4601
2026-01-04 01:25:51.70	246.12	52.53	-47.7	-49.9	15.4	0.00e+00	0	57	0	873463808	57	4832
2026-01-04 01:25:52.69	245.76	52.23	-47.9	-50.3	14.8	0.00e+00	0	56	0	875560960	57	5045
2026-01-04 01:25:53.68	245.41	51.93	-48.0	-50.3	14.9	0.00e+00	0	57	0	877658112	57	5071
2026-01-04 01:25:54.67	245.06	51.63	-48.0	-50.3	14.9	0.00e+00	0	57	0	879755264	57	5091
2026-01-04 01:25:55.66	244.73	51.33	-48.0	-50.3	14.9	0.00e+00	0	57	0	880803840	58	4776
2026-01-04 01:25:56.65	244.40	51.04	-47.9	-50.0	15.3	0.00e+00	0	56	0	882900992	58	4606
2026-01-04 01:25:57.63	244.08	50.74	-47.7	-49.7	15.5	0.00e+00	0	57	0	884998144	58	4455
2026-01-04 01:25:58.62	243.76	50.45	-48.0	-50.2	15.1	0.00e+00	0	57	0	887095296	58	4708
2026-01-04 01:25:59.61	243.45	50.16	-47.8	-49.8	15.4	0.00e+00	0	57	0	889192448	58	4520
2026-01-04 01:26:00.60	243.14	49.86	-47.0	-48.8	16.4	0.00e+00	0	57	0	890241024	57	4251
2026-01-04 01:26:01.59	242.84	49.57	-46.6	-48.2	16.9	0.00e+00	0	57	0	892338176	56	4232
2026-01-04 01:26:02.59	242.55	49.28	-47.4	-49.4	15.9	0.00e+00	0	57	0	894435328	56	4823
2026-01-04 01:26:03.58	242.26	48.99	-48.5	-50.9	14.2	0.00e+00	0	57	0	896532480	59	4866
2026-01-04 01:26:04.57	241.98	48.70	-48.7	-51.3	13.9	4.50e-06	0	57	0	897581056	59	5064
2026-01-04 01:26:05.56	241.70	48.41	-48.1	-50.4	14.8	0.00e+00	0	57	0	899678208	59	4558
2026-01-04 01:26:06.56	241.43	48.12	-47.8	-49.9	15.3	7.00e-07	0	57	0	901775360	58	4550
2026-01-04 01:26:07.55	241.16	47.84	-48.8	-51.5	13.6	2.20e-06	0	57	0	903872512	59	5199
2026-01-04 01:26:08.54	240.90	47.55	-49.8	-53.5	11.5	1.18e-04	0	57	0	905969664	61	5848
2026-01-04 01:26:09.53	240.64	47.27	-49.7	-53.3	11.9	2.44e-04	0	57	0	907018240	61	5677
2026-01-04 01:26:10.52	240.39	46.99	-49.5	-52.8	12.4	1.30e-04	0	57	0	909115392	61	5362
2026-01-04 01:26:11.50	240.14	46.71	-49.3	-52.4	12.7	1.91e-04	0	57	0	911212544	61	5142
2026-01-04 01:26:12.49	239.90	46.43	-48.8	-51.5	13.7	4.50e-05	0	57	0	913309696	60	4884
2026-01-04 01:26:13.47	239.66	46.16	-48.3	-50.5	14.7	1.50e-06	0	57	0	914358272	59	4647
2026-01-04 01:26:14.46	239.43	45.88	-48.1	-50.4	14.8	0.00e+00	0	57	0	916455424	59	4550
2026-01-04 01:26:15.44	239.20	45.61	-48.6	-51.1	14.0	0.00e+00	0	57	0	918552576	59	4947
2026-01-04 01:26:16.43	238.97	45.34	-49.0	-51.9	13.2	1.98e-05	0	57	0	920649728	60	5151
2026-01-04 01:26:17.42	238.75	45.06	-48.5	-51.0	14.1	2.20e-06	0	56	0	921698304	60	4629
2026-01-04 01:26:18.41	238.53	44.79	-48.2	-50.4	14.8	1.50e-06	0	57	0	923795456	59	4570
2026-01-04 01:26:19.39	238.31	44.53	-48.7	-51.2	14.1	0.00e+00	0	57	0	925892608	59	4999
2026-01-04 01:26:20.38	238.10	44.26	-49.2	-52.2	13.0	4.88e-05	0	57	0	927989760	60	5306
2026-01-04 01:26:21.37	237.89	43.99	-49.0	-51.8	13.3	2.28e-05	0	57	0	929038336	60	5088
2026-01-04 01:26:22.36	237.69	43.72	-49.0	-51.9	13.4	3.20e-05	0	57	0	931135488	60	5116
2026-01-04 01:26:23.36	237.49	43.46	-49.3	-52.5	12.6	7.09e-05	0	57	0	933232640	60	5493
2026-01-04 01:26:24.34	237.29	43.20	-50.1	-54.2	10.8	2.79e-03	0	57	0	935329792	62	5971
2026-01-04 01:26:25.33	237.10	42.94	-50.6	-55.5	9.5	6.22e-03	0	57	0	937426944	63	6503
2026-01-04 01:26:26.32	236.90	42.68	-51.0	-57.3	7.7	4.86e-02	0	57	0	938475520	64	7551
2026-01-04 01:26:27.31	236.72	42.42	-51.0	-56.7	8.2	7.67e-02	0	57	0	940572672	64	7110
2026-01-04 01:26:28.29	236.53	42.16	-50.8	-56.2	8.7	5.99e-02	0	57	0	942669824	64	6721
2026-01-04 01:26:29.27	236.35	41.91	-50.2	-54.4	10.6	1.50e-02	0	57	0	944766976	63	5738
2026-01-04 01:26:30.26	236.17	41.66	-49.8	-53.4	11.7	2.65e-03	0	57	0	945815552	62	5456
2026-01-04 01:26:31.25	236.00	41.41	-49.5	-52.8	12.3	4.72e-04	0	57	0	947912704	62	5096
2026-01-04 01:26:32.24	235.82	41.15	-49.1	-52.2	12.9	7.93e-05	0	57	0	950009856	61	4997
2026-01-04 01:26:33.22	235.65	40.91	-48.6	-51.2	13.9	1.50e-06	0	57	0	952107008	60	4717
2026-01-04 01:26:34.21	235.48	40.66	-48.5	-51.1	13.9	2.20e-06	0	57	0	953155584	59	4929
2026-01-04 01:26:35.20	235.32	40.41	-48.4	-50.9	14.3	4.50e-06	0	57	0	955252736	59	4823
2026-01-04 01:26:36.19	235.15	40.17	-48.5	-51.1	14.1	4.50e-06	0	57	0	957349888	59	4936
2026-01-04 01:26:37.19	234.99	39.92	-48.8	-51.6	13.6	9.90e-06	0	57	0	959447040	60	4980
2026-01-04 01:26:38.18	234.83	39.68	-49.2	-52.4	12.7	9.10e-06	0	57	0	961544192	60	5415
2026-01-04 01:26:39.17	234.68	39.44	-49.7	-53.4	11.7	1.20e-04	0	57	0	962592768	61	5753
2026-01-04 01:26:40.17	234.52	39.19	-49.3	-52.7	12.4	2.49e-04	0	57	0	964689920	61	5329
2026-01-04 01:26:41.16	234.37	38.96	-49.5	-53.4	11.3	1.09e-03	0	57	0	966787072	61	5764
2026-01-04 01:26:42.15	234.22	38.72	-49.3	-53.1	11.4	7.93e-04	0	57	0	968884224	61	5589
2026-01-04 01:26:43.14	234.07	38.48	-49.2	-53.0	11.6	8.45e-04	0	57	0	969932800	61	5499
2026-01-04 01:26:44.13	233.93	38.25	-49.4	-53.1	11.6	3.39e-04	0	57	0	972029952	61	5582
2026-01-04 01:26:45.12	233.79	38.02	-50.0	-54.6	10.0	1.71e-03	0	57	0	974127104	61	6613
2026-01-04 01:26:46.11	233.64	37.78	-50.0	-54.3	10.4	7.71e-03	0	57	0	976224256	62	6040
2026-01-04 01:26:47.10	233.51	37.55	-50.2	-54.7	10.0	8.32e-03	0	57	0	977272832	62	6340
2026-01-04 01:26:48.10	233.37	37.32	-49.8	-53.7	11.1	2.51e-03	0	57	0	979369984	62	5606
2026-01-04 01:26:49.08	233.23	37.10	-49.4	-52.8	12.0	6.52e-04	0	57	0	981467136	62	5096
2026-01-04 01:26:50.07	233.10	36.87	-49.0	-51.9	13.0	1.40e-04	0	57	0	983564288	61	4859
2026-01-04 01:26:51.06	232.97	36.65	-48.4	-50.8	14.3	1.50e-06	0	57	0	985661440	59	4780
2026-01-04 01:26:52.05	232.84	36.43	-48.6	-51.1	14.0	7.00e-07	0	57	0	986710016	59	4956
2026-01-04 01:26:53.04	232.71	36.20	-48.5	-50.9	14.3	0.00e+00	0	57	0	988807168	59	4857
2026-01-04 01:26:54.03	232.59	35.98	-48.6	-51.1	14.1	7.00e-07	0	57	0	990904320	59	4936
2026-01-04 01:26:55.02	232.46	35.76	-48.8	-51.5	13.7	6.80e-06	0	57	0	993001472	59	5162
2026-01-04 01:26:56.01	232.34	35.55	-48.8	-51.5	13.6	1.29e-05	0	57	0	994050048	60	4894
2026-01-04 01:26:56.99	232.22	35.33	-49.2	-52.2	13.0	1.60e-05	0	57	0	996147200	60	5284
2026-01-04 01:26:57.97	232.10	35.12	-49.3	-52.4	12.7	5.11e-05	0	57	0	998244352	60	5458
2026-01-04 01:26:58.96	231.99	34.91	-49.8	-53.4	11.7	5.83e-04	0	57	0	1000341504	61	5766
2026-01-04 01:26:59.94	231.87	34.69	-50.5	-54.9	10.2	2.31e-03	0	57	0	1001390080	62	6480
2026-01-04 01:27:00.93	231.76	34.48	-50.2	-54.3	10.7	5.45e-03	0	57	0	1003487232	62	6056
2026-01-04 01:27:01.93	231.64	34.27	-50.3	-54.5	10.5	3.34e-03	0	57	0	1005584384	62	6199
2026-01-04 01:27:02.92	231.53	34.06	-50.3	-54.2	10.9	2.98e-03	0	57	0	1007681536	62	5976
2026-01-04 01:27:03.91	231.42	33.86	-50.2	-54.1	10.9	1.70e-03	0	57	0	1009778688	62	5913
2026-01-04 01:27:04.90	231.31	33.65	-50.1	-53.9	11.2	2.08e-03	0	57	0	1010827264	62	5784
2026-01-04 01:27:05.89	231.21	33.44	-50.4	-54.7	10.5	2.96e-03	0	57	0	1012924416	62	6301
2026-01-04 01:27:06.88	231.10	33.24	-50.5	-54.9	10.2	7.14e-03	0	57	0	1015021568	63	6082
2026-01-04 01:27:07.87	231.00	33.04	-50.6	-55.1	10.0	6.02e-03	0	57	0	1017118720	63	6248
2026-01-04 01:27:08.85	230.90	32.84	-50.4	-54.7	10.2	8.11e-03	0	57	0	1018167296	63	5946
2026-01-04 01:27:09.85	230.79	32.64	-50.2	-54.3	10.8	5.33e-03	0	57	0	1020264448	63	5659
2026-01-04 01:27:10.83	230.69	32.44	-50.0	-53.8	11.3	1.82e-03	0	57	0	1022361600	63	5370
2026-01-04 01:27:11.82	230.59	32.24	-50.0	-53.9	11.2	1.31e-03	0	57	0	1024458752	63	5455
2026-01-04 01:27:12.82	230.50	32.05	-50.3	-54.5	10.6	2.79e-03	0	57	0	1025507328	63	5831
2026-01-04 01:27:13.80	230.40	31.85	-50.5	-54.9	10.1	6.03e-03	0	57	0	1027604480	63	6123
2026-01-04 01:27:14.79	230.30	31.66	-50.0	-54.0	11.0	5.16e-03	0	57	0	1029701632	63	5512
2026-01-04 01:27:15.78	230.21	31.47	-49.8	-53.6	11.5	1.98e-03	0	57	0	1031798784	63	5222
2026-01-04 01:27:16.77	230.12	31.27	-49.3	-52.3	12.8	1.36e-04	0	57	0	1033895936	61	5086
2026-01-04 01:27:17.76	230.02	31.08	-49.0	-51.9	13.2	2.59e-05	0	57	0	1034944512	61	4840
2026-01-04 01:27:18.76	229.93	30.89	-48.6	-51.1	14.1	7.60e-06	0	57	0	1037041664	60	4661
2026-01-04 01:27:19.75	229.84	30.70	-48.9	-51.5	13.7	7.00e-07	0	57	0	1039138816	59	5211
2026-01-04 01:27:20.74	229.75	30.52	-49.1	-52.0	13.1	1.83e-05	0	57	0	1041235968	60	5202
2026-01-04 01:27:21.73	229.67	30.33	-49.6	-53.0	12.1	1.20e-04	0	57	0	1042284544	61	5521
2026-01-04 01:27:22.72	229.58	30.15	-50.0	-53.8	11.3	7.44e-04	0	57	0	1044381696	62	5695
2026-01-04 01:27:23.72	229.49	29.96	-50.3	-54.4	10.6	1.61e-03	0	57	0	1046478848	62	6123
2026-01-04 01:27:24.70	229.41	29.78	-50.3	-54.6	10.4	4.38e-03	0	57	0	1048576000	62	6259
2026-01-04 01:27:25.69	229.33	29.60	-50.0	-53.9	11.2	3.39e-03	0	57	0	1050673152	62	5734
2026-01-04 01:27:26.69	229.24	29.42	-49.9	-53.6	11.4	1.82e-03	0	57	0	1051721728	62	5584
2026-01-04 01:27:27.68	229.16	29.24	-49.6	-53.0	12.1	7.29e-04	0	57	0	1053818880	62	5200
2026-01-04 01:27:28.67	229.08	29.06	-49.9	-53.5	11.6	7.41e-04	0	57	0	1055916032	62	5508
2026-01-04 01:27:29.65	229.00	28.88	-49.9	-53.7	11.4	1.00e-03	0	57	0	1058013184	62	5603
2026-01-04 01:27:30.63	228.92	28.71	-50.0	-53.7	11.4	9.57e-04	0	57	0	1059061760	62	5630
2026-01-04 01:27:31.62	228.84	28.53	-50.0	-53.8	11.3	1.55e-03	0	57	0	1061158912	62	5703
2026-01-04 01:27:32.60	228.77	28.36	-50.3	-54.5	10.6	3.15e-03	0	57	0	1063256064	62	6139
2026-01-04 01:27:33.59	228.69	28.19	-50.2	-54.3	10.7	3.99e-03	0	57	0	1065353216	62	6045
2026-01-04 01:27:34.58	228.62	28.02	-49.9	-53.6	11.5	1.84e-03	0	57	0	1066401792	62	5582
2026-01-04 01:27:35.57	228.54	27.85	-49.9	-53.6	11.7	7.06e-04	0	57	0	1068498944	62	5547
2026-01-04 01:27:36.56	228.47	27.68	-49.6	-52.9	12.2	3.75e-04	0	57	0	1070596096	62	5144
2026-01-04 01:27:37.55	228.39	27.51	-49.4	-52.6	12.5	2.04e-04	0	57	0	1072693248	61	5247
2026-01-04 01:27:38.54	228.32	27.34	-49.2	-52.2	12.9	8.23e-05	0	57	0	1073741824	61	5034
2026-01-04 01:27:39.52	228.25	27.17	-48.9	-51.7	13.5	2.67e-05	0	57	0	1075838976	60	5009
2026-01-04 01:27:40.51	228.18	27.01	-48.9	-51.7	13.5	1.98e-05	0	57	0	1077936128	60	4989
2026-01-04 01:27:41.50	228.11	26.84	-49.0	-51.8	13.3	1.98e-05	0	57	0	1080033280	60	5081
2026-01-04 01:27:42.49	228.04	26.68	-49.1	-52.0	13.1	2.51e-05	0	57	0	1082130432	60	5217
2026-01-04 01:27:43.49	227.97	26.51	-49.0	-51.9	13.1	1.37e-05	0	57	0	1083179008	60	5142
2026-01-04 01:27:44.48	227.90	26.35	-48.8	-51.7	13.4	1.37e-05	0	57	0	1085276160	60	4998
2026-01-04 01:27:45.47	227.84	26.19	-48.8	-51.5	13.7	8.30e-06	0	57	0	1087373312	60	4883
2026-01-04 01:27:46.46	227.77	26.03	-49.1	-51.9	13.2	3.80e-06	0	57	0	1089470464	60	5132
2026-01-04 01:27:47.45	227.71	25.87	-49.4	-52.4	12.7	4.34e-05	0	57	0	1090519040	60	5463
2026-01-04 01:27:48.44	227.64	25.71	-49.4	-52.5	12.6	5.95e-05	0	57	0	1092616192	60	5483
2026-01-04 01:27:49.43	227.58	25.55	-49.5	-52.8	12.3	1.51e-04	0	57	0	1094713344	61	5347
2026-01-04 01:27:50.42	227.51	25.40	-49.7	-53.0	12.0	2.72e-04	0	57	0	1096810496	61	5526
2026-01-04 01:27:51.41	227.45	25.24	-49.6	-52.9	12.2	2.53e-04	0	57	0	1097859072	61	5415
2026-01-04 01:27:52.40	227.39	25.08	-49.4	-52.6	12.5	1.22e-04	0	57	0	1099956224	61	5253
2026-01-04 01:27:53.40	227.33	24.93	-49.5	-52.7	12.4	1.56e-04	0	57	0	1102053376	61	5304
2026-01-04 01:27:54.39	227.26	24.77	-49.3	-52.3	12.8	9.00e-05	0	57	0	1104150528	61	5065
2026-01-04 01:27:55.38	227.20	24.62	-48.8	-51.4	13.8	1.44e-05	0	57	0	1106247680	60	4821
2026-01-04 01:27:56.37	227.14	24.47	-48.5	-51.0	14.1	2.20e-06	0	57	0	1107296256	60	4603
2026-01-04 01:27:57.35	227.09	24.32	-48.2	-50.3	14.8	7.00e-07	0	57	0	1109393408	59	4531
2026-01-04 01:27:58.34	227.03	24.17	-48.3	-50.6	14.6	0.00e+00	0	57	0	1111490560	59	4662
2026-01-04 01:27:59.34	226.97	24.02	-48.4	-50.6	14.4	0.00e+00	0	57	0	1113587712	59	4700
2026-01-04 01:28:00.33	226.91	23.87	-48.4	-50.7	14.4	7.00e-07	0	57	0	1114636288	59	4756
2026-01-04 01:28:01.32	226.85	23.72	-48.7	-51.1	14.0	0.00e+00	0	57	0	1116733440	59	4959
2026-01-04 01:28:02.32	226.80	23.58	-48.9	-51.4	13.7	1.50e-06	0	57	0	1118830592	59	5134
2026-01-04 01:28:03.32	226.74	23.43	-48.9	-51.6	13.6	7.60e-06	0	57	0	1120927744	59	5221
2026-01-04 01:28:04.31	226.69	23.28	-48.8	-51.4	13.7	4.50e-06	0	57	0	1123024896	59	5142
2026-01-04 01:28:05.29	226.63	23.14	-49.3	-52.3	12.9	4.42e-05	0	57	0	1124073472	60	5352
2026-01-04 01:28:06.28	226.58	23.00	-49.0	-51.7	13.3	3.35e-05	0	57	0	1126170624	60	5034
2026-01-04 01:28:07.28	226.52	22.85	-48.9	-51.6	13.6	4.50e-06	0	57	0	1128267776	60	4931
2026-01-04 01:28:08.27	226.47	22.71	-49.0	-51.8	13.3	2.51e-05	0	57	0	1130364928	60	5094
2026-01-04 01:28:09.25	226.42	22.57	-48.9	-51.6	13.5	1.14e-05	0	57	0	1131413504	60	4940
2026-01-04 01:28:10.24	226.37	22.43	-48.6	-51.1	14.0	3.80e-06	0	57	0	1133510656	60	4696
2026-01-04 01:28:11.23	226.32	22.29	-48.4	-50.8	14.3	1.50e-06	0	57	0	1135607808	60	4535
2026-01-04 01:28:12.22	226.26	22.15	-48.4	-50.8	14.4	7.00e-07	0	57	0	1137704960	59	4795
2026-01-04 01:28:13.21	226.21	22.01	-48.4	-50.8	14.3	0.00e+00	0	57	0	1138753536	59	4773
2026-01-04 01:28:14.20	226.16	21.87	-48.3	-50.6	14.5	7.00e-07	0	57	0	1140850688	59	4674
2026-01-04 01:28:15.19	226.11	21.74	-48.3	-50.6	14.5	0.00e+00	0	57	0	1142947840	59	4671
2026-01-04 01:28:16.17	226.07	21.60	-48.3	-50.5	14.6	0.00e+00	0	57	0	1145044992	59	4641
2026-01-04 01:28:17.17	226.02	21.47	-48.6	-51.0	14.1	2.20e-06	0	57	0	1147142144	59	4916
2026-01-04 01:28:18.15	225.97	21.33	-48.5	-51.0	14.0	6.10e-06	0	57	0	1148190720	59	4893
2026-01-04 01:28:19.14	225.92	21.20	-48.7	-51.3	13.8	3.80e-06	0	57	0	1150287872	59	5071
2026-01-04 01:28:20.13	225.87	21.06	-49.0	-51.8	13.3	1.44e-05	0	57	0	1152385024	59	5352
2026-01-04 01:28:21.12	225.83	20.93	-49.0	-51.9	13.2	1.90e-05	0	57	0	1154482176	60	5118
2026-01-04 01:28:22.11	225.78	20.80	-49.3	-52.3	12.7	4.88e-05	0	57	0	1155530752	60	5385
2026-01-04 01:28:23.10	225.73	20.67	-49.3	-52.4	12.6	1.14e-04	0	57	0	1157627904	60	5452
2026-01-04 01:28:24.09	225.69	20.54	-49.1	-52.1	12.8	5.56e-05	0	57	0	1159725056	60	5273
2026-01-04 01:28:25.08	225.64	20.41	-49.0	-51.8	13.2	2.82e-05	0	57	0	1161822208	60	5079
2026-01-04 01:28:26.06	225.60	20.28	-48.9	-51.7	13.4	1.37e-05	0	57	0	1162870784	60	4987
2026-01-04 01:28:27.06	225.55	20.15	-49.0	-51.8	13.2	1.29e-05	0	57	0	1164967936	60	5074
2026-01-04 01:28:28.04	225.51	20.02	-48.9	-51.8	13.2	2.36e-05	0	57	0	1167065088	60	5079
2026-01-04 01:28:29.03	225.47	19.89	-48.6	-51.3	13.7	1.06e-05	0	57	0	1169162240	60	4807
2026-01-04 01:28:30.01	225.42	19.77	-48.7	-51.4	13.6	7.60e-06	0	57	0	1170210816	60	4841
2026-01-04 01:28:30.99	225.38	19.64	-48.4	-50.9	14.1	6.10e-06	0	57	0	1172307968	60	4587
2026-01-04 01:28:31.98	225.34	19.52	-48.4	-50.8	14.2	3.00e-06	0	57	0	1174405120	59	4773
2026-01-04 01:28:32.97	225.30	19.39	-48.3	-50.7	14.3	1.50e-06	0	57	0	1176502272	59	4757
2026-01-04 01:28:33.97	225.25	19.27	-48.3	-50.7	14.4	7.00e-07	0	57	0	1178599424	59	4727
2026-01-04 01:28:34.96	225.21	19.14	-48.5	-51.0	14.0	1.50e-06	0	57	0	1179648000	59	4904
2026-01-04 01:28:35.95	225.17	19.02	-48.3	-50.6	14.4	7.00e-07	0	57	0	1181745152	59	4677
2026-01-04 01:28:36.92	225.13	18.90	-48.3	-50.7	14.3	0.00e+00	0	57	0	1183842304	59	4732
2026-01-04 01:28:37.91	225.09	18.78	-48.3	-50.6	14.4	1.50e-06	0	57	0	1185939456	59	4663
2026-01-04 01:28:38.90	225.05	18.66	-48.5	-51.0	14.0	1.50e-06	0	57	0	1186988032	59	4893
2026-01-04 01:28:39.89	225.01	18.53	-48.5	-50.9	14.1	2.20e-06	0	57	0	1189085184	59	4829
2026-01-04 01:28:40.88	224.97	18.41	-48.5	-51.0	13.9	2.20e-06	0	57	0	1191182336	59	4911
2026-01-04 01:28:41.87	224.93	18.29	-48.4	-50.8	14.1	7.00e-07	0	57	0	1193279488	59	4800
2026-01-04 01:28:42.86	224.89	18.18	-48.6	-51.1	13.8	7.00e-07	0	57	0	1194328064	59	4968
2026-01-04 01:28:43.85	224.86	18.06	-48.4	-50.8	14.1	3.80e-06	0	57	0	1196425216	59	4780
2026-01-04 01:28:44.84	224.82	17.94	-48.3	-50.6	14.3	7.00e-07	0	57	0	1198522368	59	4666
2026-01-04 01:28:45.83	224.78	17.82	-48.3	-50.7	14.2	1.50e-06	0	57	0	1200619520	59	4713
2026-01-04 01:28:46.81	224.74	17.71	-48.2	-50.5	14.4	0.00e+00	0	57	0	1202716672	59	4611
2026-01-04 01:28:47.80	224.71	17.59	-48.4	-50.8	14.1	7.00e-07	0	57	0	1203765248	59	4774
2026-01-04 01:28:48.80	224.67	17.47	-48.3	-50.6	14.3	1.50e-06	0	57	0	1205862400	59	4687
2026-01-04 01:28:49.78	224.63	17.36	-48.0	-50.2	14.7	2.20e-06	0	57	0	1207959552	59	4481
2026-01-04 01:28:50.77	224.60	17.24	-47.8	-49.9	15.0	0.00e+00	0	57	0	1210056704	58	4553
2026-01-04 01:28:51.76	224.56	17.13	-48.0	-50.2	14.7	0.00e+00	0	57	0	1211105280	58	4746
2026-01-04 01:28:52.75	224.53	17.01	-48.0	-50.3	14.6	7.00e-07	0	57	0	1213202432	58	4760
2026-01-04 01:28:53.74	224.49	16.90	-48.1	-50.4	14.6	0.00e+00	0	57	0	1215299584	58	4817
2026-01-04 01:28:54.74	224.46	16.79	-48.2	-50.5	14.3	1.50e-06	0	57	0	1217396736	58	4921
2026-01-04 01:28:55.73	224.42	16.67	-48.3	-50.7	14.2	2.20e-06	0	57	0	1218445312	58	4999
2026-01-04 01:28:56.71	224.39	16.56	-48.2	-50.5	14.4	0.00e+00	0	57	0	1220542464	58	4892
2026-01-04 01:28:57.71	224.35	16.45	-48.4	-50.9	13.9	1.50e-06	0	57	0	1222639616	58	5147
2026-01-04 01:28:58.70	224.32	16.34	-48.5	-51.0	13.8	3.00e-06	0	57	0	1224736768	58	5171
2026-01-04 01:28:59.68	224.29	16.23	-48.6	-51.2	13.6	7.60e-06	0	57	0	1226833920	58	5300
2026-01-04 01:29:00.67	224.25	16.12	-48.6	-51.2	13.5	8.30e-06	0	57	0	1227882496	59	5037
2026-01-04 01:29:01.66	224.22	16.01	-48.6	-51.4	13.4	7.60e-06	0	57	0	1229979648	59	5138
2026-01-04 01:29:02.65	224.19	15.90	-48.6	-51.4	13.4	1.90e-05	0	57	0	1232076800	59	5116
2026-01-04 01:29:03.65	224.15	15.79	-48.6	-51.2	13.5	1.14e-05	0	57	0	1234173952	59	5037
2026-01-04 01:29:04.63	224.12	15.69	-48.7	-51.4	13.3	1.06e-05	0	57	0	1235222528	59	5155
2026-01-04 01:29:05.62	224.09	15.58	-48.7	-51.5	13.3	2.21e-05	0	57	0	1237319680	59	5184
2026-01-04 01:29:06.61	224.06	15.47	-48.7	-51.5	13.4	1.14e-05	0	57	0	1239416832	59	5166
2026-01-04 01:29:07.59	224.03	15.37	-48.8	-51.7	13.0	2.28e-05	0	57	0	1241513984	59	5319
2026-01-04 01:29:08.58	224.00	15.26	-48.9	-51.7	13.0	3.81e-05	0	57	0	1242562560	59	5325
