passes_logs/2026/01/04/R3.0SM8_Murmansk_STILSPACE/R3.0SM8_Murmansk_STILSPACE__20260104_135811_FENGYUN_3D_rec.log

#Pass ID: 20260104_135811_FENGYUN 3D
#Satellite: FENGYUN 3D
#Configuration: FENGYUN 3D
#almurnet v.1.7.20240730
#Start time: 2026-01-04 13:58:13

#Version: 2.2.20231116
#Station: R3.0SM8_Murmansk_STILSPACE
#Location: 33.092731 lon 68.902999 lat
#TLE: 1 43010U 17072A   26003.93866112 -.00000029  00000+0  82070-5 0  9995
#TLE: 2 43010  98.9913 335.5841 0001959 128.6134 231.5217 14.19691935421687

#Time	Az	El	Level	Level2	SNR	BER	BlckErr	Temp	State	Recorded	gain1	gain2
2026-01-04 13:58:13.38	214.38	3.09	-52.4	-63.2	3.8	8.46e-01	0	46	0	0	67	12630
2026-01-04 13:58:14.37	214.45	3.15	-52.2	-63.1	3.8	8.45e-01	0	47	104	0	67	12410
2026-01-04 13:58:15.36	214.53	3.21	-52.2	-62.9	3.8	8.47e-01	0	47	104	0	67	12228
2026-01-04 13:58:16.35	214.61	3.26	-52.0	-62.9	3.8	8.45e-01	0	47	104	0	67	12127
2026-01-04 13:58:17.34	214.68	3.32	-51.9	-62.6	3.8	8.46e-01	0	47	104	0	66	12476
2026-01-04 13:58:18.33	214.76	3.37	-51.6	-62.4	3.8	8.46e-01	0	47	104	0	66	12120
2026-01-04 13:58:19.32	214.84	3.43	-51.3	-62.1	3.8	8.46e-01	0	47	104	0	65	12440
2026-01-04 13:58:20.31	214.92	3.49	-51.1	-61.1	3.8	8.46e-01	0	47	104	0	65	11033
2026-01-04 13:58:21.30	215.00	3.54	-51.1	-61.0	3.8	8.46e-01	0	47	104	0	65	11021
2026-01-04 13:58:22.29	215.07	3.60	-51.1	-61.2	3.8	8.45e-01	0	47	104	0	65	11214
2026-01-04 13:58:23.28	215.15	3.65	-51.2	-61.4	3.8	8.47e-01	0	47	104	0	65	11460
2026-01-04 13:58:24.27	215.23	3.71	-51.1	-61.6	3.8	8.46e-01	0	47	104	0	65	11698
2026-01-04 13:58:25.26	215.31	3.77	-51.1	-61.8	3.8	8.46e-01	0	47	104	0	65	12055
2026-01-04 13:58:26.26	215.39	3.82	-51.3	-61.9	3.8	8.45e-01	0	48	104	0	65	12199
2026-01-04 13:58:27.24	215.47	3.88	-51.3	-62.0	3.8	8.45e-01	0	48	104	0	65	12281
2026-01-04 13:58:28.23	215.55	3.94	-51.2	-62.1	3.8	8.46e-01	0	48	104	0	65	12376
2026-01-04 13:58:29.21	215.63	3.99	-51.2	-62.0	3.8	8.46e-01	0	48	104	0	65	12370
2026-01-04 13:58:30.18	215.71	4.05	-51.2	-62.0	3.8	8.46e-01	0	48	104	0	65	12351
2026-01-04 13:58:31.16	215.79	4.10	-51.2	-62.0	3.8	8.45e-01	0	48	104	0	65	12334
2026-01-04 13:58:32.15	215.87	4.16	-51.3	-62.0	3.8	8.47e-01	0	48	104	0	65	12282
2026-01-04 13:58:33.13	215.95	4.22	-51.2	-61.8	3.8	8.47e-01	0	48	104	0	65	12044
2026-01-04 13:58:34.12	216.04	4.28	-51.1	-61.4	3.8	8.47e-01	0	48	104	0	65	11423
2026-01-04 13:58:35.11	216.12	4.33	-51.1	-60.6	3.8	8.47e-01	0	48	104	0	65	10470
2026-01-04 13:58:36.11	216.20	4.39	-50.9	-59.4	3.9	8.44e-01	0	48	104	0	64	9707
2026-01-04 13:58:37.09	216.28	4.45	-50.8	-58.1	4.3	8.37e-01	0	48	0	0	64	8346
2026-01-04 13:58:38.08	216.37	4.50	-50.5	-56.9	4.8	8.06e-01	0	48	0	0	64	7231
2026-01-04 13:58:39.07	216.45	4.56	-50.3	-55.8	5.5	7.39e-01	0	48	0	0	63	6799
2026-01-04 13:58:40.05	216.53	4.62	-50.0	-55.1	6.0	4.48e-01	0	48	0	3145728	63	6212
2026-01-04 13:58:41.05	216.62	4.68	-49.7	-54.2	6.7	2.36e-01	0	48	0	8388608	62	5946
2026-01-04 13:58:42.04	216.70	4.73	-49.5	-53.7	7.2	1.88e-01	0	48	0	14680064	62	5612
2026-01-04 13:58:43.04	216.79	4.79	-49.3	-53.1	7.8	1.07e-01	0	48	0	19922944	61	5540
2026-01-04 13:58:44.03	216.88	4.85	-49.2	-52.8	8.0	8.13e-02	0	49	0	25165824	61	5344
2026-01-04 13:58:45.01	216.96	4.91	-48.9	-52.3	8.6	5.86e-02	0	49	0	31457280	60	5352
2026-01-04 13:58:46.00	217.05	4.97	-48.5	-51.6	9.3	3.08e-02	0	49	0	36700160	60	4967
2026-01-04 13:58:46.99	217.13	5.02	-48.2	-50.9	10.1	1.33e-02	0	49	0	41943040	59	4822
2026-01-04 13:58:47.99	217.22	5.08	-48.0	-50.6	10.3	6.12e-03	0	49	0	48234496	59	4690
2026-01-04 13:58:48.98	217.31	5.14	-48.4	-51.2	9.7	1.10e-02	0	49	0	53477376	59	5037
2026-01-04 13:58:49.97	217.39	5.20	-48.1	-50.7	10.2	1.12e-02	0	49	0	58720256	59	4754
2026-01-04 13:58:50.96	217.48	5.26	-47.9	-50.4	10.6	4.82e-03	0	49	0	65011712	58	4818
2026-01-04 13:58:51.95	217.57	5.32	-47.5	-49.7	11.3	2.49e-03	0	49	0	70254592	58	4450
2026-01-04 13:58:52.94	217.66	5.38	-47.1	-49.1	11.9	7.83e-04	0	49	0	75497472	57	4436
2026-01-04 13:58:53.92	217.74	5.43	-46.8	-48.7	12.3	2.92e-04	0	49	0	80740352	56	4482
2026-01-04 13:58:54.91	217.83	5.49	-46.5	-48.3	12.8	1.85e-04	0	49	0	87031808	56	4263
2026-01-04 13:58:55.91	217.92	5.55	-46.2	-47.9	13.1	5.95e-05	0	49	0	92274688	55	4294
2026-01-04 13:58:56.90	218.01	5.61	-45.9	-47.5	13.5	2.63e-05	0	49	0	98566144	55	4142
2026-01-04 13:58:57.89	218.10	5.67	-45.9	-47.5	13.5	2.05e-05	0	50	0	103809024	54	4383
2026-01-04 13:58:58.87	218.19	5.73	-46.0	-47.6	13.4	2.28e-05	0	49	0	109051904	54	4441
2026-01-04 13:58:59.86	218.28	5.79	-46.1	-47.7	13.2	2.97e-05	0	49	0	114294784	54	4492
2026-01-04 13:59:00.85	218.37	5.85	-46.0	-47.7	13.3	2.86e-05	0	50	0	120586240	54	4456
2026-01-04 13:59:01.84	218.47	5.90	-46.0	-47.6	13.4	3.08e-05	0	50	0	125829120	54	4414
2026-01-04 13:59:02.82	218.56	5.96	-46.0	-47.6	13.4	3.20e-05	0	49	0	131072000	54	4439
2026-01-04 13:59:03.81	218.65	6.02	-46.0	-47.6	13.4	2.86e-05	0	50	0	137363456	54	4424
2026-01-04 13:59:04.79	218.74	6.08	-46.0	-47.6	13.5	2.05e-05	0	50	0	142606336	54	4402
2026-01-04 13:59:05.79	218.83	6.14	-46.0	-47.6	13.5	2.51e-05	0	50	0	147849216	54	4412
2026-01-04 13:59:06.78	218.93	6.20	-46.1	-47.8	13.3	2.28e-05	0	50	0	153092096	54	4500
2026-01-04 13:59:07.76	219.02	6.26	-46.0	-47.7	13.4	2.28e-05	0	50	0	159383552	54	4442
2026-01-04 13:59:08.75	219.11	6.32	-45.8	-47.3	13.7	1.71e-05	0	50	0	164626432	54	4283
2026-01-04 13:59:09.75	219.21	6.38	-45.8	-47.3	13.8	1.14e-05	0	50	0	169869312	54	4248
2026-01-04 13:59:10.74	219.30	6.44	-45.8	-47.3	13.8	6.80e-06	0	50	0	176160768	54	4259
2026-01-04 13:59:11.72	219.40	6.50	-45.9	-47.4	13.6	1.60e-05	0	50	0	181403648	54	4329
2026-01-04 13:59:12.71	219.49	6.56	-45.9	-47.5	13.5	3.08e-05	0	50	0	186646528	54	4365
2026-01-04 13:59:13.70	219.59	6.62	-45.9	-47.5	13.6	1.25e-05	0	50	0	192937984	54	4361
2026-01-04 13:59:14.69	219.68	6.68	-46.0	-47.6	13.4	2.17e-05	0	50	0	198180864	54	4433
2026-01-04 13:59:15.68	219.78	6.74	-46.0	-47.6	13.5	1.83e-05	0	50	0	203423744	54	4419
2026-01-04 13:59:16.67	219.88	6.80	-46.0	-47.6	13.4	2.40e-05	0	50	0	208666624	54	4432
2026-01-04 13:59:17.65	219.97	6.86	-46.0	-47.6	13.5	2.17e-05	0	50	0	214958080	54	4408
2026-01-04 13:59:18.65	220.07	6.92	-46.2	-47.9	13.2	2.05e-05	0	50	0	220200960	54	4570
2026-01-04 13:59:19.64	220.17	6.98	-46.1	-47.8	13.3	3.66e-05	0	50	0	226492416	54	4498
2026-01-04 13:59:20.63	220.27	7.04	-45.9	-47.5	13.6	1.71e-05	0	51	0	231735296	54	4353
2026-01-04 13:59:21.61	220.37	7.10	-45.8	-47.4	13.7	8.00e-06	0	51	0	236978176	54	4298
2026-01-04 13:59:22.60	220.46	7.16	-45.9	-47.4	13.7	1.25e-05	0	51	0	242221056	54	4328
2026-01-04 13:59:23.59	220.56	7.22	-45.9	-47.5	13.6	1.02e-05	0	51	0	248512512	54	4341
2026-01-04 13:59:24.58	220.66	7.29	-46.2	-47.8	13.3	2.63e-05	0	51	0	253755392	54	4520
2026-01-04 13:59:25.57	220.76	7.35	-46.3	-48.0	13.0	4.34e-05	0	51	0	258998272	54	4644
2026-01-04 13:59:26.55	220.86	7.41	-46.3	-48.0	13.1	5.26e-05	0	51	0	265289728	54	4618
2026-01-04 13:59:27.54	220.97	7.47	-46.4	-48.1	12.9	7.43e-05	0	51	0	270532608	54	4702
2026-01-04 13:59:28.53	221.07	7.53	-46.4	-48.2	12.9	1.06e-04	0	51	0	275775488	54	4724
2026-01-04 13:59:29.51	221.17	7.59	-46.4	-48.2	12.9	7.43e-05	0	51	0	281018368	54	4714
2026-01-04 13:59:30.50	221.27	7.65	-46.4	-48.2	12.9	9.15e-05	0	51	0	287309824	54	4731
2026-01-04 13:59:31.49	221.37	7.71	-46.6	-48.4	12.7	9.38e-05	0	51	0	292552704	54	4846
2026-01-04 13:59:32.47	221.47	7.77	-46.6	-48.5	12.5	2.10e-04	0	51	0	297795584	55	4636
2026-01-04 13:59:33.47	221.58	7.84	-46.7	-48.5	12.5	9.72e-05	0	51	0	304087040	55	4630
2026-01-04 13:59:34.46	221.68	7.90	-46.6	-48.4	12.6	2.18e-04	0	51	0	309329920	55	4596
2026-01-04 13:59:35.44	221.79	7.96	-46.4	-48.2	12.9	8.12e-05	0	51	0	314572800	55	4453
2026-01-04 13:59:36.43	221.89	8.02	-46.2	-47.9	13.2	4.00e-05	0	51	0	320864256	55	4312
2026-01-04 13:59:37.42	222.00	8.08	-46.2	-47.8	13.3	3.66e-05	0	51	0	326107136	55	4276
2026-01-04 13:59:38.41	222.10	8.14	-46.1	-47.7	13.3	3.43e-05	0	51	0	331350016	55	4227
2026-01-04 13:59:39.40	222.21	8.21	-46.1	-47.7	13.4	3.20e-05	0	51	0	337641472	55	4214
2026-01-04 13:59:40.40	222.32	8.27	-46.2	-47.8	13.2	4.11e-05	0	51	0	342884352	55	4281
2026-01-04 13:59:41.38	222.42	8.33	-46.2	-47.9	13.2	5.60e-05	0	51	0	348127232	55	4304
2026-01-04 13:59:42.37	222.53	8.39	-46.0	-47.6	13.4	2.63e-05	0	52	0	353370112	55	4183
2026-01-04 13:59:43.37	222.64	8.46	-46.0	-47.6	13.5	2.63e-05	0	51	0	359661568	55	4153
2026-01-04 13:59:44.35	222.75	8.52	-46.0	-47.6	13.5	1.94e-05	0	51	0	364904448	55	4155
2026-01-04 13:59:45.32	222.85	8.58	-46.1	-47.7	13.4	2.40e-05	0	52	0	370147328	55	4212
2026-01-04 13:59:46.31	222.96	8.64	-46.1	-47.8	13.3	2.28e-05	0	52	0	376438784	55	4245
2026-01-04 13:59:47.30	223.07	8.70	-46.1	-47.8	13.3	2.63e-05	0	52	0	381681664	55	4264
2026-01-04 13:59:48.30	223.18	8.77	-46.2	-47.9	13.2	4.46e-05	0	52	0	386924544	55	4298
2026-01-04 13:59:49.29	223.29	8.83	-46.1	-47.8	13.3	3.20e-05	0	52	0	393216000	55	4256
2026-01-04 13:59:50.28	223.41	8.89	-46.2	-47.8	13.3	2.97e-05	0	52	0	398458880	55	4259
2026-01-04 13:59:51.27	223.52	8.96	-46.2	-47.8	13.3	3.20e-05	0	52	0	403701760	55	4278
2026-01-04 13:59:52.27	223.63	9.02	-46.2	-47.9	13.2	3.43e-05	0	52	0	408944640	55	4300
2026-01-04 13:59:53.26	223.74	9.08	-46.0	-47.6	13.5	3.20e-05	0	52	0	415236096	55	4170
2026-01-04 13:59:54.26	223.86	9.15	-45.9	-47.5	13.6	1.83e-05	0	52	0	420478976	55	4124
2026-01-04 13:59:55.25	223.97	9.21	-45.9	-47.5	13.6	1.25e-05	0	52	0	426770432	55	4125
2026-01-04 13:59:56.23	224.08	9.27	-46.0	-47.6	13.5	1.48e-05	0	52	0	432013312	55	4165
2026-01-04 13:59:57.22	224.20	9.33	-46.1	-47.7	13.4	2.40e-05	0	52	0	437256192	55	4219
2026-01-04 13:59:58.22	224.31	9.40	-45.9	-47.5	13.7	1.37e-05	0	52	0	442499072	55	4105
2026-01-04 13:59:59.21	224.43	9.46	-46.1	-47.7	13.4	2.74e-05	0	52	0	448790528	55	4208
2026-01-04 14:00:00.20	224.54	9.53	-46.2	-47.8	13.3	3.77e-05	0	52	0	454033408	55	4290
2026-01-04 14:00:01.20	224.66	9.59	-46.1	-47.6	13.5	1.48e-05	0	52	0	459276288	55	4192
2026-01-04 14:00:02.19	224.78	9.65	-46.0	-47.6	13.6	1.94e-05	0	52	0	465567744	55	4160
2026-01-04 14:00:03.17	224.89	9.72	-46.1	-47.6	13.5	1.25e-05	0	52	0	470810624	55	4178
2026-01-04 14:00:04.16	225.01	9.78	-46.0	-47.6	13.5	1.83e-05	0	52	0	476053504	55	4173
2026-01-04 14:00:05.15	225.13	9.84	-45.9	-47.4	13.7	8.00e-06	0	52	0	482344960	55	4085
2026-01-04 14:00:06.14	225.25	9.91	-45.7	-47.1	14.0	3.40e-06	0	52	0	487587840	54	4192
2026-01-04 14:00:07.14	225.37	9.97	-45.6	-47.0	14.1	2.20e-06	0	52	0	492830720	54	4132
2026-01-04 14:00:08.13	225.49	10.04	-45.4	-46.8	14.3	5.70e-06	0	52	0	499122176	54	4037
2026-01-04 14:00:09.13	225.61	10.10	-45.4	-46.8	14.3	6.80e-06	0	53	0	504365056	54	4031
2026-01-04 14:00:10.12	225.73	10.16	-45.4	-46.7	14.4	2.20e-06	0	52	0	509607936	53	4239
2026-01-04 14:00:11.11	225.85	10.23	-45.2	-46.5	14.6	0.00e+00	0	53	0	515899392	53	4140
2026-01-04 14:00:12.10	225.97	10.29	-45.2	-46.6	14.6	1.10e-06	0	52	0	521142272	53	4173
2026-01-04 14:00:13.09	226.10	10.36	-45.4	-46.8	14.4	0.00e+00	0	52	0	526385152	53	4244
2026-01-04 14:00:14.09	226.22	10.42	-45.2	-46.5	14.7	2.20e-06	0	53	0	532676608	53	4121
2026-01-04 14:00:15.08	226.34	10.49	-45.0	-46.3	14.9	0.00e+00	0	52	0	537919488	53	4018
2026-01-04 14:00:16.07	226.47	10.55	-45.0	-46.2	15.0	0.00e+00	0	53	0	543162368	53	3998
2026-01-04 14:00:17.05	226.59	10.61	-45.0	-46.3	14.9	0.00e+00	0	53	0	548405248	53	4010
2026-01-04 14:00:18.04	226.72	10.68	-45.2	-46.5	14.8	1.10e-06	0	53	0	554696704	53	4102
2026-01-04 14:00:19.03	226.84	10.74	-45.2	-46.5	14.7	2.20e-06	0	53	0	559939584	53	4135
2026-01-04 14:00:20.02	226.97	10.81	-45.1	-46.4	14.9	2.20e-06	0	53	0	565182464	53	4069
2026-01-04 14:00:21.01	227.09	10.87	-45.1	-46.3	15.0	0.00e+00	0	53	0	571473920	53	4033
2026-01-04 14:00:22.00	227.22	10.94	-45.1	-46.3	14.9	0.00e+00	0	53	0	576716800	53	4048
2026-01-04 14:00:22.99	227.35	11.00	-45.2	-46.5	14.8	1.10e-06	0	53	0	581959680	53	4123
2026-01-04 14:00:23.97	227.47	11.06	-45.1	-46.3	14.9	0.00e+00	0	53	0	588251136	53	4048
2026-01-04 14:00:24.96	227.60	11.13	-45.2	-46.5	14.8	0.00e+00	0	53	0	593494016	53	4109
2026-01-04 14:00:25.94	227.73	11.19	-45.4	-46.8	14.5	1.10e-06	0	53	0	598736896	53	4279
2026-01-04 14:00:26.93	227.86	11.26	-45.2	-46.5	14.8	0.00e+00	0	53	0	605028352	53	4100
2026-01-04 14:00:27.90	227.99	11.32	-45.0	-46.2	15.0	0.00e+00	0	53	0	610271232	53	4004
2026-01-04 14:00:28.89	228.12	11.39	-44.9	-46.1	15.2	1.10e-06	0	53	0	615514112	52	4170
2026-01-04 14:00:29.87	228.25	11.45	-44.8	-46.1	15.2	0.00e+00	0	53	0	620756992	52	4152
2026-01-04 14:00:30.86	228.38	11.52	-44.8	-45.9	15.4	0.00e+00	0	53	0	627048448	52	4098
2026-01-04 14:00:31.85	228.51	11.58	-44.6	-45.7	15.6	0.00e+00	0	53	0	632291328	52	3999
2026-01-04 14:00:32.84	228.65	11.65	-44.4	-45.6	15.7	0.00e+00	0	53	0	637534208	52	3925
2026-01-04 14:00:33.82	228.78	11.71	-44.4	-45.5	15.9	0.00e+00	0	53	0	642777088	51	4130
2026-01-04 14:00:34.81	228.91	11.78	-44.3	-45.4	16.0	0.00e+00	0	53	0	649068544	51	4054
2026-01-04 14:00:35.80	229.05	11.84	-44.2	-45.3	16.1	0.00e+00	0	53	0	654311424	51	4007
2026-01-04 14:00:36.80	229.18	11.91	-44.3	-45.4	16.0	0.00e+00	0	53	0	659554304	51	4072
2026-01-04 14:00:37.79	229.32	11.97	-44.3	-45.3	16.1	0.00e+00	0	53	0	665845760	51	4050
2026-01-04 14:00:38.78	229.46	12.04	-44.3	-45.4	16.1	0.00e+00	0	53	0	671088640	51	4069
2026-01-04 14:00:39.76	229.59	12.10	-44.4	-45.5	16.0	0.00e+00	0	53	0	676331520	51	4112
2026-01-04 14:00:40.75	229.73	12.17	-44.5	-45.7	15.8	0.00e+00	0	53	0	682622976	51	4210
2026-01-04 14:00:41.74	229.87	12.23	-44.4	-45.5	15.9	0.00e+00	0	54	0	687865856	51	4122
2026-01-04 14:00:42.73	230.01	12.30	-44.2	-45.3	16.2	0.00e+00	0	53	0	693108736	51	4005
2026-01-04 14:00:43.72	230.15	12.36	-44.1	-45.2	16.3	0.00e+00	0	53	0	698351616	51	3963
2026-01-04 14:00:44.71	230.29	12.43	-44.1	-45.1	16.4	0.00e+00	0	53	0	704643072	51	3952
2026-01-04 14:00:45.69	230.43	12.49	-44.2	-45.2	16.2	0.00e+00	0	53	0	709885952	51	4000
2026-01-04 14:00:46.68	230.57	12.56	-44.0	-45.0	16.5	0.00e+00	0	54	0	715128832	51	3910
2026-01-04 14:00:47.67	230.71	12.62	-43.7	-44.7	16.8	0.00e+00	0	53	0	721420288	50	3985
2026-01-04 14:00:48.66	230.85	12.69	-43.5	-44.5	17.0	0.00e+00	0	54	0	726663168	50	3880
2026-01-04 14:00:49.64	230.99	12.75	-43.5	-44.4	17.1	0.00e+00	0	54	0	731906048	50	3854
2026-01-04 14:00:50.63	231.14	12.82	-43.4	-44.3	17.3	0.00e+00	0	53	0	738197504	50	3793
2026-01-04 14:00:51.63	231.28	12.89	-43.4	-44.3	17.2	0.00e+00	0	53	0	743440384	49	4049
2026-01-04 14:00:52.61	231.43	12.95	-43.6	-44.5	17.1	0.00e+00	0	53	0	748683264	49	4123
2026-01-04 14:00:53.60	231.57	13.02	-43.5	-44.4	17.1	0.00e+00	0	54	0	754974720	49	4092
2026-01-04 14:00:54.59	231.72	13.08	-43.2	-44.1	17.5	0.00e+00	0	54	0	760217600	49	3932
2026-01-04 14:00:55.59	231.87	13.15	-43.0	-43.9	17.7	0.00e+00	0	54	0	765460480	49	3830
2026-01-04 14:00:56.57	232.01	13.21	-43.0	-43.8	17.8	0.00e+00	0	53	0	770703360	49	3810
2026-01-04 14:00:57.56	232.16	13.28	-43.0	-43.9	17.7	0.00e+00	0	53	0	776994816	49	3844
2026-01-04 14:00:58.55	232.31	13.35	-43.1	-43.9	17.7	0.00e+00	0	54	0	782237696	49	3867
2026-01-04 14:00:59.54	232.46	13.41	-43.3	-44.2	17.5	0.00e+00	0	54	0	787480576	49	3959
2026-01-04 14:01:00.53	232.61	13.48	-43.3	-44.2	17.5	0.00e+00	0	54	0	793772032	49	3962
2026-01-04 14:01:01.53	232.76	13.54	-43.1	-43.9	17.7	0.00e+00	0	54	0	799014912	49	3865
2026-01-04 14:01:02.52	232.91	13.61	-43.0	-43.9	17.8	0.00e+00	0	54	0	804257792	49	3828
2026-01-04 14:01:03.51	233.06	13.67	-43.0	-43.9	17.8	0.00e+00	0	54	0	810549248	49	3843
2026-01-04 14:01:04.50	233.22	13.74	-43.1	-43.9	17.8	0.00e+00	0	54	0	815792128	49	3856
2026-01-04 14:01:05.49	233.37	13.81	-43.1	-43.9	17.8	0.00e+00	0	54	0	821035008	49	3864
2026-01-04 14:01:06.48	233.52	13.87	-43.0	-43.9	17.8	0.00e+00	0	54	0	827326464	49	3840
2026-01-04 14:01:07.48	233.68	13.94	-43.2	-44.1	17.6	0.00e+00	0	54	0	832569344	49	3933
2026-01-04 14:01:08.46	233.83	14.00	-43.2	-44.1	17.7	0.00e+00	0	54	0	837812224	49	3933
2026-01-04 14:01:09.45	233.99	14.07	-43.0	-43.8	17.9	0.00e+00	0	54	0	844103680	49	3811
2026-01-04 14:01:10.43	234.15	14.13	-42.9	-43.7	18.1	0.00e+00	0	54	0	849346560	48	3974
2026-01-04 14:01:11.42	234.30	14.20	-42.8	-43.6	18.2	0.00e+00	0	54	0	854589440	48	3933
2026-01-04 14:01:12.41	234.46	14.26	-42.7	-43.5	18.2	0.00e+00	0	54	0	859832320	48	3901
2026-01-04 14:01:13.39	234.62	14.33	-42.7	-43.5	18.2	0.00e+00	0	54	0	866123776	48	3899
2026-01-04 14:01:14.38	234.78	14.39	-42.8	-43.6	18.2	0.00e+00	0	54	0	871366656	48	3926
2026-01-04 14:01:15.36	234.94	14.46	-42.9	-43.7	18.1	0.00e+00	0	54	0	876609536	48	3974
2026-01-04 14:01:16.35	235.10	14.52	-42.7	-43.5	18.3	0.00e+00	0	54	0	882900992	48	3901
2026-01-04 14:01:17.34	235.26	14.59	-42.7	-43.5	18.3	0.00e+00	0	54	0	888143872	48	3871
2026-01-04 14:01:18.33	235.42	14.65	-42.7	-43.5	18.3	0.00e+00	0	54	0	893386752	48	3911
2026-01-04 14:01:19.32	235.58	14.72	-42.8	-43.6	18.2	0.00e+00	0	54	0	898629632	48	3930
2026-01-04 14:01:20.30	235.74	14.78	-42.7	-43.5	18.3	0.00e+00	0	54	0	904921088	48	3876
2026-01-04 14:01:21.29	235.91	14.85	-42.7	-43.5	18.3	0.00e+00	0	54	0	910163968	48	3906
2026-01-04 14:01:22.29	236.07	14.92	-42.9	-43.7	18.2	0.00e+00	0	54	0	916455424	48	3963
2026-01-04 14:01:23.28	236.24	14.98	-42.9	-43.7	18.1	0.00e+00	0	54	0	921698304	48	3984
2026-01-04 14:01:24.26	236.40	15.04	-42.7	-43.4	18.4	0.00e+00	0	54	0	926941184	48	3865
2026-01-04 14:01:25.25	236.57	15.11	-42.5	-43.3	18.6	0.00e+00	0	54	0	932184064	48	3796
2026-01-04 14:01:26.24	236.74	15.17	-42.5	-43.2	18.6	0.00e+00	0	54	0	938475520	48	3775
2026-01-04 14:01:27.23	236.91	15.24	-42.6	-43.3	18.5	0.00e+00	0	54	0	943718400	48	3824
2026-01-04 14:01:28.21	237.07	15.30	-42.7	-43.5	18.5	0.00e+00	0	54	0	948961280	48	3879
2026-01-04 14:01:29.19	237.24	15.37	-42.5	-43.2	18.7	0.00e+00	0	54	0	955252736	48	3759
2026-01-04 14:01:30.18	237.41	15.43	-42.2	-43.0	18.8	0.00e+00	0	54	0	960495616	47	3875
2026-01-04 14:01:31.17	237.58	15.50	-42.2	-42.9	18.8	0.00e+00	0	54	0	965738496	47	3861
2026-01-04 14:01:32.15	237.75	15.56	-42.1	-42.9	18.9	0.00e+00	0	54	0	970981376	47	3842
2026-01-04 14:01:33.15	237.93	15.63	-42.3	-43.0	18.8	0.00e+00	0	54	0	977272832	47	3905
2026-01-04 14:01:34.13	238.10	15.69	-42.4	-43.2	18.7	0.00e+00	0	54	0	982515712	47	3964
2026-01-04 14:01:35.11	238.27	15.75	-42.6	-43.3	18.5	0.00e+00	0	54	0	987758592	47	4044
2026-01-04 14:01:36.10	238.45	15.82	-42.3	-43.1	18.7	0.00e+00	0	54	0	994050048	47	3926
2026-01-04 14:01:37.10	238.62	15.88	-42.2	-42.9	18.9	0.00e+00	0	54	0	999292928	47	3862
2026-01-04 14:01:38.08	238.80	15.95	-42.2	-43.0	18.9	0.00e+00	0	55	0	1004535808	47	3872
2026-01-04 14:01:39.07	238.97	16.01	-42.3	-43.1	18.8	0.00e+00	0	54	0	1009778688	47	3925
2026-01-04 14:01:40.06	239.15	16.07	-42.1	-42.8	19.0	0.00e+00	0	54	0	1016070144	47	3821
2026-01-04 14:01:41.06	239.33	16.14	-42.2	-43.0	18.9	0.00e+00	0	55	0	1021313024	47	3870
2026-01-04 14:01:42.04	239.51	16.20	-42.5	-43.3	18.6	0.00e+00	0	55	0	1026555904	47	4024
2026-01-04 14:01:43.03	239.69	16.27	-42.3	-43.1	18.8	0.00e+00	0	54	0	1032847360	47	3929
2026-01-04 14:01:44.02	239.87	16.33	-42.3	-43.0	18.8	0.00e+00	0	55	0	1038090240	47	3891
2026-01-04 14:01:45.01	240.05	16.39	-42.4	-43.2	18.6	0.00e+00	0	55	0	1043333120	47	3977
2026-01-04 14:01:46.00	240.23	16.46	-42.2	-43.0	18.8	0.00e+00	0	55	0	1049624576	47	3880
2026-01-04 14:01:46.99	240.42	16.52	-42.1	-42.8	19.0	0.00e+00	0	55	0	1054867456	47	3815
2026-01-04 14:01:47.98	240.60	16.58	-42.0	-42.7	19.1	0.00e+00	0	55	0	1060110336	47	3768
2026-01-04 14:01:48.97	240.78	16.65	-41.9	-42.6	19.2	0.00e+00	0	55	0	1065353216	47	3713
2026-01-04 14:01:49.96	240.97	16.71	-41.8	-42.6	19.3	0.00e+00	0	55	0	1071644672	46	3915
2026-01-04 14:01:50.94	241.15	16.77	-41.9	-42.6	19.2	0.00e+00	0	55	0	1076887552	46	3956
2026-01-04 14:01:51.93	241.34	16.83	-42.1	-42.8	19.0	0.00e+00	0	55	0	1083179008	46	4037
2026-01-04 14:01:52.92	241.53	16.90	-42.2	-43.0	18.9	0.00e+00	0	55	0	1088421888	46	4101
2026-01-04 14:01:53.91	241.71	16.96	-42.1	-42.8	19.0	0.00e+00	0	55	0	1093664768	46	4037
2026-01-04 14:01:54.90	241.90	17.02	-42.0	-42.7	19.1	0.00e+00	0	55	0	1098907648	46	3999
2026-01-04 14:01:55.89	242.09	17.08	-42.0	-42.7	19.2	0.00e+00	0	55	0	1105199104	46	3986
2026-01-04 14:01:56.88	242.28	17.15	-42.1	-42.8	19.1	0.00e+00	0	55	0	1110441984	46	4037
2026-01-04 14:01:57.87	242.47	17.21	-42.3	-43.0	18.8	0.00e+00	0	55	0	1115684864	46	4138
2026-01-04 14:01:58.86	242.67	17.27	-42.2	-42.9	18.9	0.00e+00	0	55	0	1121976320	46	4092
2026-01-04 14:01:59.85	242.86	17.33	-42.4	-43.1	18.8	0.00e+00	0	55	0	1127219200	46	4173
2026-01-04 14:02:00.84	243.05	17.39	-42.2	-42.9	18.9	0.00e+00	0	55	0	1132462080	46	4089
2026-01-04 14:02:01.83	243.25	17.45	-42.1	-42.9	19.0	0.00e+00	0	55	0	1138753536	46	4064
2026-01-04 14:02:02.82	243.44	17.51	-42.2	-43.0	18.9	0.00e+00	0	55	0	1143996416	46	4115
2026-01-04 14:02:03.82	243.64	17.58	-42.4	-43.2	18.7	0.00e+00	0	55	0	1149239296	46	4221
2026-01-04 14:02:04.81	243.83	17.64	-42.3	-43.1	18.8	0.00e+00	0	55	0	1155530752	46	4164
2026-01-04 14:02:05.79	244.03	17.70	-42.5	-43.2	18.6	0.00e+00	0	55	0	1160773632	46	4232
2026-01-04 14:02:06.79	244.23	17.76	-42.4	-43.1	18.8	0.00e+00	0	55	0	1166016512	46	4169
2026-01-04 14:02:07.78	244.43	17.82	-42.2	-42.9	19.0	0.00e+00	0	55	0	1172307968	46	4073
2026-01-04 14:02:08.76	244.63	17.88	-42.0	-42.7	19.2	0.00e+00	0	55	0	1177550848	46	3985
2026-01-04 14:02:09.76	244.83	17.94	-41.9	-42.6	19.3	0.00e+00	0	55	0	1182793728	46	3929
2026-01-04 14:02:10.75	245.03	18.00	-41.8	-42.5	19.4	0.00e+00	0	55	0	1188036608	46	3906
2026-01-04 14:02:11.74	245.23	18.06	-41.7	-42.4	19.5	0.00e+00	0	55	0	1194328064	46	3854
2026-01-04 14:02:12.74	245.44	18.12	-41.5	-42.2	19.6	0.00e+00	0	55	0	1199570944	46	3758
2026-01-04 14:02:13.73	245.64	18.18	-41.4	-42.1	19.8	0.00e+00	0	55	0	1204813824	46	3699
2026-01-04 14:02:14.72	245.84	18.23	-41.5	-42.1	19.8	0.00e+00	0	55	0	1211105280	46	3723
2026-01-04 14:02:15.71	246.05	18.29	-41.4	-42.1	19.8	0.00e+00	0	55	0	1216348160	46	3705
2026-01-04 14:02:16.70	246.25	18.35	-41.4	-42.1	19.8	0.00e+00	0	55	0	1221591040	46	3708
2026-01-04 14:02:17.68	246.46	18.41	-41.6	-42.2	19.7	0.00e+00	0	55	0	1227882496	46	3764
2026-01-04 14:02:18.67	246.67	18.47	-41.7	-42.4	19.5	0.00e+00	0	55	0	1233125376	46	3831
2026-01-04 14:02:19.66	246.87	18.52	-41.7	-42.3	19.5	0.00e+00	0	55	0	1238368256	46	3822
2026-01-04 14:02:20.64	247.08	18.58	-41.5	-42.2	19.7	0.00e+00	0	55	0	1244659712	46	3761
2026-01-04 14:02:21.63	247.29	18.64	-41.5	-42.2	19.7	0.00e+00	0	55	0	1249902592	46	3758
2026-01-04 14:02:22.62	247.50	18.70	-41.7	-42.3	19.5	0.00e+00	0	55	0	1255145472	46	3819
2026-01-04 14:02:23.60	247.71	18.75	-41.6	-42.3	19.6	0.00e+00	0	55	0	1260388352	46	3786
2026-01-04 14:02:24.58	247.92	18.81	-41.6	-42.2	19.6	0.00e+00	0	55	0	1266679808	46	3766
2026-01-04 14:02:25.57	248.13	18.86	-41.8	-42.5	19.4	0.00e+00	0	55	0	1271922688	46	3888
2026-01-04 14:02:26.55	248.34	18.92	-41.9	-42.6	19.3	0.00e+00	0	55	0	1277165568	46	3918
2026-01-04 14:02:27.54	248.56	18.98	-42.0	-42.7	19.2	0.00e+00	0	55	0	1283457024	46	3966
2026-01-04 14:02:28.53	248.77	19.03	-42.1	-42.8	19.1	0.00e+00	0	55	0	1288699904	46	4016
2026-01-04 14:02:29.51	248.98	19.09	-42.1	-42.8	19.1	0.00e+00	0	55	0	1293942784	46	4033
2026-01-04 14:02:30.51	249.20	19.14	-42.1	-42.8	19.1	0.00e+00	0	55	0	1299185664	46	4008
2026-01-04 14:02:31.50	249.42	19.20	-41.8	-42.5	19.4	0.00e+00	0	55	0	1305477120	46	3897
2026-01-04 14:02:32.49	249.64	19.25	-41.7	-42.3	19.5	0.00e+00	0	55	0	1310720000	46	3823
2026-01-04 14:02:33.48	249.86	19.30	-41.6	-42.3	19.6	0.00e+00	0	55	0	1315962880	46	3812
2026-01-04 14:02:34.48	250.08	19.36	-41.6	-42.2	19.6	0.00e+00	0	55	0	1322254336	46	3774
2026-01-04 14:02:35.46	250.30	19.41	-41.5	-42.1	19.7	0.00e+00	0	55	0	1327497216	46	3737
2026-01-04 14:02:36.45	250.52	19.46	-41.6	-42.3	19.6	0.00e+00	0	55	0	1332740096	46	3781
2026-01-04 14:02:37.44	250.74	19.52	-41.6	-42.3	19.6	0.00e+00	0	55	0	1339031552	46	3808
2026-01-04 14:02:38.43	250.96	19.57	-41.5	-42.2	19.7	0.00e+00	0	55	0	1344274432	46	3740
2026-01-04 14:02:39.42	251.18	19.62	-41.4	-42.1	19.8	0.00e+00	0	55	0	1349517312	46	3713
2026-01-04 14:02:40.40	251.40	19.67	-41.4	-42.1	19.8	0.00e+00	0	55	0	1354760192	46	3715
2026-01-04 14:02:41.39	251.63	19.73	-41.5	-42.1	19.8	0.00e+00	0	55	0	1361051648	46	3736
2026-01-04 14:02:42.38	251.85	19.78	-41.4	-42.1	19.8	0.00e+00	0	55	0	1366294528	46	3709
2026-01-04 14:02:43.38	252.08	19.83	-41.4	-42.1	19.8	0.00e+00	0	55	0	1371537408	45	3924
2026-01-04 14:02:44.36	252.31	19.88	-41.4	-42.1	19.8	0.00e+00	0	55	0	1377828864	45	3932
2026-01-04 14:02:45.35	252.53	19.93	-41.2	-41.8	20.1	0.00e+00	0	55	0	1383071744	45	3792
2026-01-04 14:02:46.34	252.76	19.98	-40.9	-41.6	20.3	0.00e+00	0	55	0	1388314624	45	3697
2026-01-04 14:02:47.33	252.99	20.03	-40.8	-41.5	20.4	0.00e+00	0	55	0	1394606080	44	3869
2026-01-04 14:02:48.31	253.22	20.08	-40.8	-41.4	20.5	0.00e+00	0	55	0	1399848960	44	3836
2026-01-04 14:02:49.30	253.45	20.13	-40.8	-41.3	20.5	0.00e+00	0	55	0	1405091840	44	3822
2026-01-04 14:02:50.30	253.68	20.18	-40.8	-41.4	20.5	0.00e+00	0	55	0	1411383296	44	3849
2026-01-04 14:02:51.29	253.91	20.22	-40.9	-41.5	20.3	0.00e+00	0	55	0	1416626176	44	3896
2026-01-04 14:02:52.28	254.15	20.27	-41.1	-41.7	20.2	0.00e+00	0	55	0	1421869056	44	3985
2026-01-04 14:02:53.27	254.38	20.32	-41.2	-41.8	20.0	0.00e+00	0	55	0	1427111936	44	4045
2026-01-04 14:02:54.26	254.61	20.37	-41.1	-41.7	20.2	0.00e+00	0	55	0	1433403392	44	3981
2026-01-04 14:02:55.24	254.85	20.41	-41.2	-41.8	20.0	0.00e+00	0	56	0	1438646272	44	4047
2026-01-04 14:02:56.23	255.08	20.46	-41.4	-42.1	19.8	0.00e+00	0	56	0	1444937728	44	4151
2026-01-04 14:02:57.22	255.32	20.50	-41.4	-42.1	19.8	0.00e+00	0	56	0	1450180608	44	4174
2026-01-04 14:02:58.21	255.55	20.55	-41.3	-42.0	19.9	0.00e+00	0	55	0	1455423488	44	4116
2026-01-04 14:02:59.20	255.79	20.60	-41.3	-41.9	20.0	0.00e+00	0	55	0	1460666368	44	4083
2026-01-04 14:03:00.20	256.03	20.64	-41.3	-42.0	19.9	0.00e+00	0	55	0	1466957824	44	4109
2026-01-04 14:03:01.18	256.27	20.68	-41.6	-42.3	19.6	0.00e+00	0	55	0	1472200704	45	4015
2026-01-04 14:03:02.16	256.50	20.73	-41.9	-42.6	19.3	0.00e+00	0	56	0	1477443584	45	4173
2026-01-04 14:03:03.15	256.74	20.77	-41.9	-42.6	19.3	0.00e+00	0	55	0	1483735040	45	4167
2026-01-04 14:03:04.14	256.98	20.81	-42.1	-42.8	19.1	0.00e+00	0	55	0	1488977920	45	4253
2026-01-04 14:03:05.13	257.23	20.86	-41.9	-42.6	19.3	0.00e+00	0	55	0	1494220800	45	4156
2026-01-04 14:03:06.12	257.47	20.90	-41.7	-42.4	19.5	0.00e+00	0	55	0	1499463680	45	4074
2026-01-04 14:03:07.12	257.71	20.94	-41.7	-42.4	19.5	0.00e+00	0	55	0	1505755136	45	4074
2026-01-04 14:03:08.12	257.96	20.98	-41.9	-42.6	19.3	0.00e+00	0	56	0	1510998016	45	4159
2026-01-04 14:03:09.10	258.20	21.02	-42.1	-42.8	19.1	0.00e+00	0	56	0	1516240896	46	4038
2026-01-04 14:03:10.10	258.45	21.06	-41.9	-42.6	19.3	0.00e+00	0	55	0	1522532352	46	3935
2026-01-04 14:03:11.09	258.69	21.10	-41.6	-42.3	19.6	0.00e+00	0	56	0	1527775232	46	3794
2026-01-04 14:03:12.08	258.94	21.14	-41.5	-42.1	19.8	0.00e+00	0	56	0	1534066688	46	3724
2026-01-04 14:03:13.07	259.18	21.18	-41.4	-42.1	19.9	0.00e+00	0	56	0	1539309568	46	3697
2026-01-04 14:03:14.06	259.43	21.22	-41.4	-42.0	19.9	0.00e+00	0	56	0	1544552448	46	3693
2026-01-04 14:03:15.04	259.68	21.26	-41.4	-42.0	19.9	0.00e+00	0	56	0	1549795328	45	3912
2026-01-04 14:03:16.04	259.93	21.30	-41.7	-42.4	19.5	0.00e+00	0	56	0	1556086784	45	4074
2026-01-04 14:03:17.02	260.17	21.33	-41.3	-42.0	19.9	0.00e+00	0	56	0	1561329664	45	3875
2026-01-04 14:03:18.01	260.42	21.37	-41.0	-41.6	20.3	0.00e+00	0	56	0	1566572544	45	3724
2026-01-04 14:03:18.99	260.67	21.41	-40.8	-41.4	20.5	0.00e+00	0	56	0	1572864000	44	3847
2026-01-04 14:03:19.98	260.92	21.44	-40.7	-41.3	20.6	0.00e+00	0	56	0	1578106880	44	3785
2026-01-04 14:03:20.97	261.17	21.48	-40.7	-41.3	20.6	0.00e+00	0	56	0	1583349760	44	3795
2026-01-04 14:03:21.96	261.42	21.51	-40.5	-41.1	20.7	0.00e+00	0	56	0	1588592640	44	3728
2026-01-04 14:03:22.94	261.67	21.55	-40.7	-41.3	20.6	0.00e+00	0	56	0	1594884096	44	3799
2026-01-04 14:03:23.93	261.92	21.58	-40.6	-41.1	20.7	0.00e+00	0	56	0	1600126976	44	3734
2026-01-04 14:03:24.93	262.18	21.61	-40.5	-41.1	20.7	0.00e+00	0	56	0	1605369856	44	3718
2026-01-04 14:03:25.92	262.43	21.64	-40.6	-41.2	20.6	0.00e+00	0	56	0	1611661312	44	3779
2026-01-04 14:03:26.91	262.69	21.68	-40.6	-41.3	20.6	0.00e+00	0	56	0	1616904192	44	3792
2026-01-04 14:03:27.89	262.94	21.71	-40.8	-41.4	20.5	0.00e+00	0	56	0	1622147072	44	3835
2026-01-04 14:03:28.87	263.19	21.74	-40.8	-41.4	20.5	0.00e+00	0	56	0	1627389952	44	3853
2026-01-04 14:03:29.86	263.45	21.77	-40.7	-41.3	20.6	0.00e+00	0	56	0	1633681408	44	3811
2026-01-04 14:03:30.86	263.70	21.80	-40.8	-41.4	20.5	0.00e+00	0	56	0	1638924288	44	3846
2026-01-04 14:03:31.85	263.96	21.83	-40.9	-41.5	20.4	0.00e+00	0	56	0	1644167168	44	3872
2026-01-04 14:03:32.84	264.22	21.86	-40.9	-41.5	20.4	0.00e+00	0	56	0	1650458624	44	3882
2026-01-04 14:03:33.83	264.48	21.89	-40.9	-41.6	20.3	0.00e+00	0	56	0	1655701504	44	3918
2026-01-04 14:03:34.82	264.73	21.91	-41.1	-41.7	20.2	0.00e+00	0	56	0	1660944384	44	3976
2026-01-04 14:03:35.80	264.99	21.94	-41.0	-41.6	20.3	0.00e+00	0	56	0	1667235840	44	3916
2026-01-04 14:03:36.80	265.25	21.97	-41.0	-41.6	20.3	0.00e+00	0	56	0	1672478720	44	3930
2026-01-04 14:03:37.79	265.51	21.99	-41.0	-41.7	20.2	0.00e+00	0	56	0	1677721600	44	3964
2026-01-04 14:03:38.78	265.77	22.02	-41.0	-41.6	20.3	0.00e+00	0	56	0	1684013056	44	3937
2026-01-04 14:03:39.77	266.03	22.04	-40.8	-41.4	20.5	0.00e+00	0	56	0	1689255936	44	3860
2026-01-04 14:03:40.76	266.29	22.07	-40.8	-41.5	20.4	0.00e+00	0	56	0	1694498816	44	3873
2026-01-04 14:03:41.75	266.55	22.09	-40.7	-41.3	20.5	0.00e+00	0	56	0	1700790272	44	3804
2026-01-04 14:03:42.74	266.81	22.12	-40.9	-41.5	20.4	0.00e+00	0	56	0	1706033152	44	3871
2026-01-04 14:03:43.72	267.07	22.14	-40.9	-41.5	20.4	0.00e+00	0	56	0	1711276032	44	3875
2026-01-04 14:03:44.70	267.33	22.16	-41.0	-41.6	20.3	0.00e+00	0	56	0	1716518912	44	3938
2026-01-04 14:03:45.69	267.59	22.18	-41.2	-41.9	20.0	0.00e+00	0	56	0	1722810368	44	4066
2026-01-04 14:03:46.68	267.86	22.20	-41.0	-41.6	20.3	0.00e+00	0	56	0	1728053248	44	3942
2026-01-04 14:03:47.67	268.12	22.22	-40.7	-41.2	20.6	0.00e+00	0	56	0	1733296128	44	3776
2026-01-04 14:03:48.66	268.38	22.24	-40.4	-41.0	20.8	0.00e+00	0	56	0	1739587584	44	3678
2026-01-04 14:03:49.65	268.65	22.26	-40.3	-40.8	20.9	0.00e+00	0	56	0	1744830464	43	3818
2026-01-04 14:03:50.64	268.91	22.28	-40.4	-41.0	20.7	0.00e+00	0	56	0	1750073344	43	3897
2026-01-04 14:03:51.63	269.17	22.30	-40.6	-41.2	20.6	0.00e+00	0	56	0	1755316224	43	3973
2026-01-04 14:03:52.62	269.44	22.32	-40.5	-41.1	20.7	0.00e+00	0	56	0	1761607680	43	3937
2026-01-04 14:03:53.62	269.71	22.33	-40.3	-40.9	20.9	0.00e+00	0	56	0	1766850560	43	3849
2026-01-04 14:03:54.60	269.97	22.35	-40.3	-40.8	20.9	0.00e+00	0	56	0	1773142016	43	3821
2026-01-04 14:03:55.60	270.24	22.36	-40.3	-40.9	20.9	0.00e+00	0	56	0	1778384896	43	3845
2026-01-04 14:03:56.59	270.50	22.38	-40.3	-40.9	20.9	0.00e+00	0	56	0	1783627776	43	3844
2026-01-04 14:03:57.57	270.76	22.39	-40.4	-40.9	20.8	0.00e+00	0	56	0	1788870656	43	3865
2026-01-04 14:03:58.56	271.03	22.41	-40.6	-41.2	20.6	0.00e+00	0	56	0	1795162112	43	3987
2026-01-04 14:03:59.56	271.30	22.42	-40.7	-41.4	20.4	0.00e+00	0	56	0	1800404992	43	4061
2026-01-04 14:04:00.55	271.57	22.43	-40.8	-41.5	20.3	0.00e+00	0	56	0	1805647872	43	4104
2026-01-04 14:04:01.54	271.83	22.44	-41.0	-41.7	20.1	0.00e+00	0	56	0	1811939328	43	4213
2026-01-04 14:04:02.52	272.10	22.45	-41.0	-41.7	20.2	0.00e+00	0	56	0	1817182208	44	3972
2026-01-04 14:04:03.51	272.36	22.47	-40.8	-41.4	20.5	0.00e+00	0	56	0	1822425088	44	3837
2026-01-04 14:04:04.50	272.63	22.48	-40.7	-41.3	20.6	0.00e+00	0	56	0	1828716544	44	3796
2026-01-04 14:04:05.49	272.90	22.48	-40.7	-41.3	20.6	0.00e+00	0	56	0	1833959424	44	3785
2026-01-04 14:04:06.49	273.17	22.49	-40.8	-41.4	20.6	0.00e+00	0	56	0	1839202304	44	3831
2026-01-04 14:04:07.48	273.44	22.50	-40.8	-41.5	20.4	0.00e+00	0	56	0	1844445184	44	3869
2026-01-04 14:04:08.47	273.70	22.51	-40.9	-41.5	20.4	0.00e+00	0	56	0	1850736640	44	3893
2026-01-04 14:04:09.47	273.97	22.52	-40.8	-41.5	20.4	0.00e+00	0	56	0	1855979520	44	3878
2026-01-04 14:04:10.45	274.24	22.52	-40.7	-41.3	20.6	0.00e+00	0	56	0	1862270976	44	3813
2026-01-04 14:04:11.45	274.51	22.53	-40.6	-41.2	20.7	0.00e+00	0	56	0	1867513856	44	3762
2026-01-04 14:04:12.43	274.78	22.53	-40.6	-41.2	20.7	0.00e+00	0	56	0	1872756736	44	3742
2026-01-04 14:04:13.42	275.04	22.54	-40.5	-41.1	20.8	0.00e+00	0	56	0	1877999616	44	3726
2026-01-04 14:04:14.42	275.32	22.54	-40.6	-41.2	20.7	0.00e+00	0	56	0	1884291072	44	3750
2026-01-04 14:04:15.40	275.58	22.54	-40.6	-41.1	20.8	0.00e+00	0	56	0	1889533952	44	3730
2026-01-04 14:04:16.39	275.85	22.55	-40.6	-41.2	20.7	0.00e+00	0	56	0	1894776832	44	3765
2026-01-04 14:04:17.38	276.12	22.55	-40.7	-41.3	20.6	0.00e+00	0	56	0	1901068288	44	3805
2026-01-04 14:04:18.36	276.38	22.55	-40.6	-41.2	20.7	0.00e+00	0	56	0	1906311168	44	3774
2026-01-04 14:04:19.35	276.65	22.55	-40.8	-41.4	20.5	0.00e+00	0	56	0	1911554048	44	3826
2026-01-04 14:04:20.34	276.92	22.55	-40.6	-41.2	20.7	0.00e+00	0	56	0	1917845504	44	3742
2026-01-04 14:04:21.33	277.19	22.55	-40.5	-41.1	20.8	0.00e+00	0	56	0	1923088384	44	3707
2026-01-04 14:04:22.32	277.46	22.55	-40.4	-41.0	20.9	0.00e+00	0	56	0	1928331264	44	3672
2026-01-04 14:04:23.30	277.72	22.54	-40.5	-41.0	20.8	0.00e+00	0	56	0	1933574144	44	3693
2026-01-04 14:04:24.29	277.99	22.54	-40.6	-41.2	20.7	0.00e+00	0	56	0	1939865600	44	3776
2026-01-04 14:04:25.28	278.26	22.54	-40.8	-41.4	20.5	0.00e+00	0	56	0	1945108480	44	3853
2026-01-04 14:04:26.27	278.53	22.53	-40.6	-41.2	20.7	0.00e+00	0	56	0	1950351360	44	3756
2026-01-04 14:04:27.25	278.79	22.53	-40.5	-41.1	20.8	0.00e+00	0	56	0	1956642816	44	3706
2026-01-04 14:04:28.24	279.06	22.52	-40.5	-41.1	20.8	0.00e+00	0	56	0	1961885696	44	3697
2026-01-04 14:04:29.22	279.33	22.52	-40.5	-41.1	20.8	0.00e+00	0	56	0	1967128576	44	3716
2026-01-04 14:04:30.21	279.59	22.51	-40.6	-41.2	20.7	0.00e+00	0	56	0	1973420032	44	3754
2026-01-04 14:04:31.20	279.86	22.50	-40.6	-41.2	20.7	0.00e+00	0	56	0	1978662912	44	3751
2026-01-04 14:04:32.19	280.13	22.50	-40.8	-41.4	20.5	0.00e+00	0	56	0	1983905792	44	3836
2026-01-04 14:04:33.17	280.39	22.49	-40.9	-41.5	20.4	0.00e+00	0	56	0	1989148672	44	3898
2026-01-04 14:04:34.16	280.66	22.48	-40.6	-41.2	20.6	0.00e+00	0	56	0	1995440128	44	3777
2026-01-04 14:04:35.15	280.93	22.47	-40.6	-41.1	20.7	0.00e+00	0	56	0	2000683008	44	3735
2026-01-04 14:04:36.14	281.20	22.46	-40.8	-41.4	20.5	0.00e+00	0	56	0	2005925888	44	3853
2026-01-04 14:04:37.14	281.46	22.45	-41.0	-41.6	20.3	0.00e+00	0	56	0	2012217344	44	3955
2026-01-04 14:04:38.13	281.73	22.44	-41.0	-41.6	20.3	0.00e+00	0	56	0	2017460224	44	3946
2026-01-04 14:04:39.13	282.00	22.42	-41.2	-41.8	20.1	0.00e+00	0	56	0	2022703104	44	4024
2026-01-04 14:04:40.12	282.27	22.41	-40.9	-41.5	20.3	0.00e+00	0	56	0	2028994560	44	3902
2026-01-04 14:04:41.11	282.53	22.40	-40.9	-41.5	20.4	0.00e+00	0	56	0	2034237440	44	3878
2026-01-04 14:04:42.10	282.80	22.38	-41.1	-41.7	20.1	0.00e+00	0	56	0	2039480320	44	4001
2026-01-04 14:04:43.08	283.06	22.37	-41.6	-42.2	19.5	0.00e+00	0	56	0	2045771776	44	4242
2026-01-04 14:04:44.07	283.33	22.36	-41.7	-42.3	19.4	0.00e+00	0	56	0	2051014656	45	4050
2026-01-04 14:04:45.05	283.59	22.34	-42.0	-42.7	19.0	0.00e+00	0	56	0	2056257536	45	4233
2026-01-04 14:04:46.05	283.86	22.32	-42.1	-42.8	18.9	0.00e+00	0	56	0	2062548992	45	4262
2026-01-04 14:04:47.03	284.12	22.31	-42.4	-43.1	18.5	0.00e+00	0	57	0	2067791872	46	4188
2026-01-04 14:04:48.02	284.38	22.29	-42.4	-43.2	18.5	0.00e+00	0	56	0	2073034752	46	4199
2026-01-04 14:04:49.01	284.65	22.27	-42.7	-43.5	18.1	0.00e+00	0	57	0	2078277632	47	4136
2026-01-04 14:04:50.00	284.91	22.25	-42.7	-43.5	18.1	0.00e+00	0	56	0	2084569088	47	4137
2026-01-04 14:04:50.99	285.17	22.23	-43.0	-43.9	17.7	0.00e+00	0	57	0	2089811968	47	4301
2026-01-04 14:04:51.97	285.43	22.21	-43.0	-43.9	17.7	0.00e+00	0	56	0	2095054848	47	4307
2026-01-04 14:04:52.95	285.69	22.19	-43.4	-44.3	17.4	0.00e+00	0	57	0	2101346304	48	4282
2026-01-04 14:04:53.93	285.95	22.17	-43.4	-44.3	17.4	0.00e+00	0	56	0	2106589184	48	4267
2026-01-04 14:04:54.92	286.21	22.15	-43.7	-44.6	17.1	0.00e+00	0	57	0	2111832064	49	4167
2026-01-04 14:04:55.91	286.47	22.13	-43.6	-44.5	17.2	0.00e+00	0	56	0	2117074944	49	4122
2026-01-04 14:04:56.91	286.74	22.10	-43.9	-44.9	16.8	0.00e+00	0	56	0	2123366400	49	4304
2026-01-04 14:04:57.90	287.00	22.08	-43.9	-44.8	16.8	0.00e+00	0	57	0	2128609280	49	4285
2026-01-04 14:04:58.89	287.26	22.06	-43.8	-44.7	16.9	0.00e+00	0	57	0	2133852160	49	4231
2026-01-04 14:04:59.88	287.52	22.03	-44.0	-45.0	16.6	0.00e+00	0	57	0	2140143616	49	4361
2026-01-04 14:05:00.87	287.78	22.01	-43.8	-44.8	16.8	0.00e+00	0	56	0	2145386496	49	4271
2026-01-04 14:05:01.87	288.04	21.98	-44.0	-45.0	16.5	0.00e+00	0	56	0	2150629376	49	4381
2026-01-04 14:05:02.85	288.30	21.95	-43.9	-44.9	16.7	0.00e+00	0	56	0	2156920832	50	4055
2026-01-04 14:05:03.85	288.56	21.93	-44.2	-45.2	16.3	0.00e+00	0	56	0	2162163712	50	4224
2026-01-04 14:05:04.84	288.81	21.90	-44.1	-45.1	16.4	0.00e+00	0	57	0	2167406592	50	4175
2026-01-04 14:05:05.82	289.07	21.87	-43.9	-44.9	16.5	0.00e+00	0	56	0	2172649472	50	4073
2026-01-04 14:05:06.81	289.33	21.84	-43.9	-44.9	16.5	0.00e+00	0	56	0	2178940928	50	4082
2026-01-04 14:05:07.79	289.58	21.81	-44.1	-45.1	16.3	0.00e+00	0	57	0	2184183808	50	4162
2026-01-04 14:05:08.78	289.84	21.78	-44.3	-45.4	16.0	0.00e+00	0	57	0	2190475264	50	4331
2026-01-04 14:05:09.77	290.09	21.75	-44.1	-45.2	16.2	0.00e+00	0	56	0	2195718144	50	4223
2026-01-04 14:05:10.76	290.35	21.72	-43.8	-44.7	16.6	0.00e+00	0	56	0	2200961024	50	3997
2026-01-04 14:05:11.74	290.60	21.69	-43.5	-44.4	16.9	0.00e+00	0	57	0	2206203904	50	3846
2026-01-04 14:05:12.74	290.85	21.66	-43.3	-44.2	17.1	0.00e+00	0	56	0	2212495360	49	3983
2026-01-04 14:05:13.73	291.11	21.63	-43.2	-44.1	17.3	0.00e+00	0	56	0	2217738240	49	3953
2026-01-04 14:05:14.73	291.36	21.60	-43.3	-44.2	17.3	0.00e+00	0	57	0	2222981120	49	3978
2026-01-04 14:05:15.72	291.62	21.56	-43.1	-43.9	17.6	0.00e+00	0	56	0	2229272576	49	3865
2026-01-04 14:05:16.71	291.87	21.53	-42.9	-43.7	18.0	0.00e+00	0	56	0	2234515456	49	3767
2026-01-04 14:05:17.70	292.12	21.49	-42.8	-43.6	18.2	0.00e+00	0	56	0	2239758336	48	3948
2026-01-04 14:05:18.68	292.37	21.46	-42.8	-43.6	18.4	0.00e+00	0	57	0	2246049792	48	3921
2026-01-04 14:05:19.67	292.62	21.42	-42.4	-43.2	18.8	0.00e+00	0	56	0	2251292672	48	3749
2026-01-04 14:05:20.67	292.87	21.39	-41.9	-42.6	19.2	0.00e+00	0	56	0	2256535552	46	3930
2026-01-04 14:05:21.66	293.12	21.35	-41.6	-42.3	19.5	0.00e+00	0	56	0	2261778432	46	3814
2026-01-04 14:05:22.65	293.37	21.32	-41.6	-42.3	19.6	0.00e+00	0	57	0	2268069888	46	3793
2026-01-04 14:05:23.63	293.61	21.28	-41.6	-42.3	19.5	0.00e+00	0	56	0	2273312768	46	3809
2026-01-04 14:05:24.63	293.86	21.24	-41.4	-42.1	19.7	0.00e+00	0	56	0	2278555648	46	3722
2026-01-04 14:05:25.62	294.11	21.20	-41.1	-41.7	20.1	0.00e+00	0	57	0	2284847104	45	3764
2026-01-04 14:05:26.61	294.35	21.16	-40.9	-41.5	20.3	0.00e+00	0	57	0	2290089984	45	3678
2026-01-04 14:05:27.59	294.60	21.12	-40.9	-41.5	20.3	0.00e+00	0	56	0	2295332864	44	3886
2026-01-04 14:05:28.58	294.84	21.09	-40.9	-41.6	20.3	0.00e+00	0	57	0	2301624320	44	3925
2026-01-04 14:05:29.57	295.09	21.05	-41.1	-41.7	20.1	0.00e+00	0	57	0	2306867200	44	3983
2026-01-04 14:05:30.56	295.33	21.00	-41.1	-41.8	20.1	0.00e+00	0	56	0	2312110080	44	4024
2026-01-04 14:05:31.55	295.57	20.96	-41.3	-41.9	19.9	0.00e+00	0	56	0	2318401536	44	4087
2026-01-04 14:05:32.54	295.81	20.92	-41.3	-41.9	19.9	0.00e+00	0	57	0	2323644416	44	4093
2026-01-04 14:05:33.53	296.06	20.88	-41.4	-42.0	19.9	0.00e+00	0	57	0	2328887296	44	4133
2026-01-04 14:05:34.53	296.30	20.84	-41.5	-42.2	19.7	0.00e+00	0	57	0	2335178752	44	4204
2026-01-04 14:05:35.53	296.54	20.79	-41.4	-42.1	19.8	0.00e+00	0	56	0	2340421632	45	3936
2026-01-04 14:05:36.52	296.78	20.75	-41.2	-41.9	20.0	0.00e+00	0	57	0	2345664512	45	3826
2026-01-04 14:05:37.52	297.02	20.71	-41.1	-41.8	20.1	0.00e+00	0	56	0	2351955968	45	3784
2026-01-04 14:05:38.51	297.26	20.66	-41.1	-41.7	20.1	0.00e+00	0	56	0	2357198848	45	3771
2026-01-04 14:05:39.50	297.50	20.62	-41.1	-41.7	20.2	0.00e+00	0	57	0	2362441728	45	3763
2026-01-04 14:05:40.49	297.74	20.57	-41.2	-41.8	20.0	0.00e+00	0	57	0	2368733184	45	3809
2026-01-04 14:05:41.49	297.97	20.53	-41.2	-41.8	20.0	0.00e+00	0	57	0	2373976064	45	3824
2026-01-04 14:05:42.47	298.21	20.48	-41.2	-41.8	20.1	0.00e+00	0	56	0	2379218944	45	3808
2026-01-04 14:05:43.46	298.44	20.44	-41.2	-41.9	20.0	0.00e+00	0	57	0	2384461824	45	3837
2026-01-04 14:05:44.45	298.68	20.39	-41.3	-42.0	19.9	0.00e+00	0	57	0	2390753280	45	3873
2026-01-04 14:05:45.44	298.91	20.34	-41.4	-42.0	19.9	0.00e+00	0	57	0	2395996160	45	3900
2026-01-04 14:05:46.44	299.15	20.30	-41.5	-42.2	19.7	0.00e+00	0	57	0	2402287616	45	3983
2026-01-04 14:05:47.43	299.38	20.25	-41.5	-42.2	19.7	0.00e+00	0	56	0	2407530496	45	3969
2026-01-04 14:05:48.42	299.61	20.20	-41.3	-42.0	19.9	0.00e+00	0	57	0	2412773376	45	3894
2026-01-04 14:05:49.41	299.84	20.15	-41.4	-42.0	19.9	0.00e+00	0	57	0	2418016256	45	3903
2026-01-04 14:05:50.39	300.07	20.11	-41.5	-42.2	19.7	0.00e+00	0	56	0	2424307712	45	3975
2026-01-04 14:05:51.38	300.30	20.06	-41.7	-42.4	19.5	0.00e+00	0	57	0	2429550592	45	4062
2026-01-04 14:05:52.37	300.53	20.01	-41.7	-42.4	19.5	0.00e+00	0	57	0	2434793472	45	4081
2026-01-04 14:05:53.35	300.75	19.96	-41.6	-42.3	19.6	0.00e+00	0	57	0	2441084928	45	4028
2026-01-04 14:05:54.35	300.98	19.91	-41.6	-42.3	19.6	0.00e+00	0	57	0	2446327808	45	4010
2026-01-04 14:05:55.35	301.21	19.86	-41.6	-42.3	19.6	0.00e+00	0	56	0	2451570688	45	4006
2026-01-04 14:05:56.34	301.44	19.81	-41.7	-42.4	19.5	0.00e+00	0	57	0	2457862144	45	4077
2026-01-04 14:05:57.33	301.66	19.76	-41.9	-42.6	19.3	0.00e+00	0	56	0	2463105024	45	4146
2026-01-04 14:05:58.32	301.88	19.70	-41.8	-42.5	19.4	0.00e+00	0	57	0	2468347904	45	4131
2026-01-04 14:05:59.31	302.11	19.65	-41.9	-42.7	19.2	0.00e+00	0	57	0	2473590784	45	4196
2026-01-04 14:06:00.30	302.33	19.60	-41.8	-42.5	19.4	0.00e+00	0	57	0	2479882240	45	4124
2026-01-04 14:06:01.28	302.55	19.55	-41.8	-42.5	19.4	0.00e+00	0	57	0	2485125120	45	4106
2026-01-04 14:06:02.27	302.77	19.50	-41.9	-42.6	19.3	0.00e+00	0	57	0	2490368000	45	4169
2026-01-04 14:06:03.26	302.99	19.44	-42.0	-42.7	19.2	0.00e+00	0	57	0	2496659456	45	4221
2026-01-04 14:06:04.26	303.21	19.39	-41.9	-42.7	19.3	0.00e+00	0	57	0	2501902336	45	4196
2026-01-04 14:06:05.26	303.44	19.34	-42.1	-42.9	19.1	0.00e+00	0	57	0	2507145216	46	4056
2026-01-04 14:06:06.24	303.65	19.28	-42.0	-42.7	19.2	0.00e+00	0	56	0	2513436672	46	3986
2026-01-04 14:06:07.23	303.87	19.23	-42.2	-42.9	19.0	0.00e+00	0	57	0	2518679552	46	4089
2026-01-04 14:06:08.23	304.09	19.17	-42.0	-42.7	19.2	0.00e+00	0	57	0	2523922432	46	3976
2026-01-04 14:06:09.21	304.30	19.12	-41.8	-42.5	19.4	0.00e+00	0	57	0	2530213888	46	3874
2026-01-04 14:06:10.20	304.52	19.06	-41.6	-42.3	19.6	0.00e+00	0	57	0	2535456768	46	3801
2026-01-04 14:06:11.20	304.73	19.01	-41.5	-42.2	19.7	0.00e+00	0	57	0	2540699648	46	3763
2026-01-04 14:06:12.18	304.94	18.95	-41.5	-42.1	19.7	0.00e+00	0	57	0	2545942528	46	3725
2026-01-04 14:06:13.17	305.16	18.90	-41.3	-42.0	19.9	0.00e+00	0	57	0	2552233984	45	3882
2026-01-04 14:06:14.16	305.37	18.84	-41.4	-42.0	19.8	0.00e+00	0	57	0	2557476864	45	3890
2026-01-04 14:06:15.16	305.58	18.79	-41.4	-42.1	19.7	0.00e+00	0	57	0	2562719744	45	3934
2026-01-04 14:06:16.15	305.79	18.73	-41.6	-42.3	19.5	0.00e+00	0	57	0	2569011200	45	4041
2026-01-04 14:06:17.14	306.00	18.67	-41.8	-42.5	19.4	0.00e+00	0	57	0	2574254080	45	4121
2026-01-04 14:06:18.13	306.21	18.62	-42.0	-42.7	19.1	0.00e+00	0	57	0	2580545536	45	4228
2026-01-04 14:06:19.12	306.42	18.56	-42.0	-42.8	19.1	0.00e+00	0	57	0	2585788416	45	4260
2026-01-04 14:06:20.11	306.63	18.50	-42.1	-42.9	19.0	0.00e+00	0	57	0	2591031296	45	4296
2026-01-04 14:06:21.10	306.84	18.44	-42.2	-43.0	18.9	0.00e+00	0	57	0	2596274176	46	4101
2026-01-04 14:06:22.09	307.04	18.39	-42.0	-42.7	19.2	0.00e+00	0	57	0	2602565632	46	3981
2026-01-04 14:06:23.08	307.25	18.33	-41.9	-42.6	19.3	0.00e+00	0	57	0	2607808512	46	3940
2026-01-04 14:06:24.07	307.45	18.27	-41.9	-42.6	19.3	0.00e+00	0	57	0	2613051392	46	3940
2026-01-04 14:06:25.06	307.66	18.21	-41.8	-42.5	19.4	0.00e+00	0	57	0	2619342848	46	3871
2026-01-04 14:06:26.05	307.86	18.15	-42.0	-42.7	19.2	0.00e+00	0	57	0	2624585728	46	3960
2026-01-04 14:06:27.05	308.06	18.09	-42.2	-43.0	18.9	0.00e+00	0	57	0	2629828608	46	4106
2026-01-04 14:06:28.03	308.26	18.04	-42.0	-42.7	19.2	0.00e+00	0	57	0	2636120064	46	3968
2026-01-04 14:06:29.02	308.46	17.98	-41.8	-42.5	19.3	0.00e+00	0	57	0	2641362944	46	3899
2026-01-04 14:06:30.01	308.66	17.92	-41.8	-42.5	19.4	0.00e+00	0	57	0	2646605824	46	3875
2026-01-04 14:06:31.00	308.86	17.86	-41.8	-42.5	19.3	0.00e+00	0	57	0	2652897280	46	3911
2026-01-04 14:06:31.99	309.06	17.80	-42.0	-42.8	19.1	0.00e+00	0	57	0	2658140160	46	4005
2026-01-04 14:06:32.98	309.26	17.74	-42.1	-42.9	19.0	0.00e+00	0	57	0	2663383040	46	4053
2026-01-04 14:06:33.97	309.46	17.68	-42.1	-42.8	19.1	0.00e+00	0	57	0	2668625920	46	4019
2026-01-04 14:06:34.96	309.65	17.62	-42.1	-42.8	19.1	0.00e+00	0	57	0	2674917376	46	4027
2026-01-04 14:06:35.95	309.85	17.56	-42.3	-43.0	18.9	0.00e+00	0	57	0	2680160256	46	4131
2026-01-04 14:06:36.95	310.04	17.49	-42.2	-43.0	18.9	0.00e+00	0	57	0	2685403136	46	4110
2026-01-04 14:06:37.93	310.24	17.43	-42.4	-43.2	18.6	0.00e+00	0	57	0	2691694592	46	4228
2026-01-04 14:06:38.92	310.43	17.37	-42.4	-43.1	18.7	0.00e+00	0	57	0	2696937472	46	4182
2026-01-04 14:06:39.91	310.62	17.31	-42.4	-43.2	18.7	0.00e+00	0	57	0	2702180352	46	4211
2026-01-04 14:06:40.90	310.81	17.25	-42.4	-43.2	18.6	0.00e+00	0	57	0	2708471808	46	4228
2026-01-04 14:06:41.88	311.00	17.19	-42.6	-43.4	18.5	0.00e+00	0	57	0	2713714688	47	4070
2026-01-04 14:06:42.87	311.19	17.13	-42.5	-43.3	18.6	0.00e+00	0	57	0	2718957568	47	4016
2026-01-04 14:06:43.86	311.38	17.07	-42.5	-43.2	18.6	0.00e+00	0	57	0	2724200448	47	3993
2026-01-04 14:06:44.84	311.57	17.01	-42.6	-43.4	18.5	0.00e+00	0	57	0	2730491904	47	4054
2026-01-04 14:06:45.83	311.75	16.94	-42.6	-43.3	18.5	0.00e+00	0	57	0	2735734784	47	4039
2026-01-04 14:06:46.83	311.94	16.88	-42.6	-43.3	18.5	0.00e+00	0	57	0	2740977664	47	4049
2026-01-04 14:06:47.81	312.13	16.82	-42.6	-43.4	18.4	0.00e+00	0	57	0	2747269120	47	4086
2026-01-04 14:06:48.81	312.32	16.76	-42.6	-43.4	18.5	0.00e+00	0	57	0	2752512000	47	4084
2026-01-04 14:06:49.80	312.50	16.69	-42.6	-43.4	18.5	0.00e+00	0	57	0	2757754880	47	4072
2026-01-04 14:06:50.79	312.68	16.63	-42.6	-43.4	18.4	0.00e+00	0	57	0	2764046336	47	4082
2026-01-04 14:06:51.78	312.87	16.57	-42.7	-43.5	18.3	0.00e+00	0	57	0	2769289216	47	4136
2026-01-04 14:06:52.78	313.05	16.51	-42.9	-43.7	18.2	0.00e+00	0	57	0	2774532096	47	4221
2026-01-04 14:06:53.77	313.23	16.44	-42.8	-43.6	18.3	0.00e+00	0	57	0	2780823552	47	4157
2026-01-04 14:06:54.75	313.41	16.38	-42.6	-43.4	18.5	0.00e+00	0	57	0	2786066432	47	4062
2026-01-04 14:06:55.74	313.59	16.32	-42.7	-43.5	18.4	0.00e+00	0	57	0	2791309312	47	4118
2026-01-04 14:06:56.72	313.77	16.25	-42.9	-43.8	18.1	0.00e+00	0	57	0	2796552192	47	4243
2026-01-04 14:06:57.71	313.95	16.19	-42.8	-43.7	18.2	0.00e+00	0	57	0	2802843648	47	4197
2026-01-04 14:06:58.70	314.13	16.13	-42.9	-43.7	18.2	0.00e+00	0	57	0	2808086528	47	4205
2026-01-04 14:06:59.69	314.31	16.06	-42.7	-43.5	18.3	0.00e+00	0	57	0	2813329408	47	4131
2026-01-04 14:07:00.67	314.48	16.00	-42.5	-43.2	18.6	0.00e+00	0	57	0	2819620864	47	3997
2026-01-04 14:07:01.66	314.66	15.94	-42.3	-43.1	18.8	0.00e+00	0	57	0	2824863744	47	3930
2026-01-04 14:07:02.65	314.83	15.87	-42.4	-43.1	18.7	0.00e+00	0	57	0	2830106624	47	3947
2026-01-04 14:07:03.64	315.01	15.81	-42.4	-43.1	18.7	0.00e+00	0	57	0	2836398080	47	3952
2026-01-04 14:07:04.64	315.18	15.75	-42.3	-43.0	18.8	0.00e+00	0	57	0	2841640960	47	3896
2026-01-04 14:07:05.62	315.35	15.68	-42.3	-43.1	18.7	0.00e+00	0	57	0	2846883840	47	3934
2026-01-04 14:07:06.61	315.53	15.62	-42.4	-43.2	18.6	0.00e+00	0	57	0	2852126720	47	3967
2026-01-04 14:07:07.61	315.70	15.55	-42.5	-43.3	18.6	0.00e+00	0	57	0	2858418176	47	4007
2026-01-04 14:07:08.61	315.87	15.49	-42.8	-43.6	18.3	0.00e+00	0	57	0	2863661056	47	4150
2026-01-04 14:07:09.60	316.04	15.42	-42.8	-43.6	18.2	0.00e+00	0	57	0	2869952512	47	4186
2026-01-04 14:07:10.59	316.21	15.36	-42.8	-43.6	18.2	0.00e+00	0	57	0	2875195392	47	4179
2026-01-04 14:07:11.58	316.38	15.29	-42.8	-43.6	18.2	0.00e+00	0	57	0	2880438272	47	4185
2026-01-04 14:07:12.57	316.55	15.23	-42.8	-43.6	18.2	0.00e+00	0	57	0	2885681152	47	4185
2026-01-04 14:07:13.57	316.72	15.17	-42.8	-43.7	18.2	0.00e+00	0	57	0	2891972608	47	4198
2026-01-04 14:07:14.56	316.88	15.10	-42.9	-43.7	18.1	0.00e+00	0	57	0	2897215488	47	4208
2026-01-04 14:07:15.55	317.05	15.04	-43.0	-43.8	18.0	0.00e+00	0	57	0	2903506944	47	4259
2026-01-04 14:07:16.53	317.21	14.97	-43.0	-43.8	18.0	0.00e+00	0	57	0	2908749824	47	4268
2026-01-04 14:07:17.52	317.38	14.91	-42.9	-43.7	18.1	0.00e+00	0	57	0	2913992704	47	4225
2026-01-04 14:07:18.52	317.54	14.84	-42.9	-43.8	18.0	0.00e+00	0	57	0	2919235584	47	4253
2026-01-04 14:07:19.51	317.71	14.78	-43.2	-44.1	17.9	0.00e+00	0	57	0	2925527040	48	4170
2026-01-04 14:07:20.50	317.87	14.71	-43.4	-44.2	17.8	0.00e+00	0	57	0	2930769920	48	4225
2026-01-04 14:07:21.49	318.03	14.65	-43.3	-44.1	17.8	0.00e+00	0	57	0	2936012800	48	4192
2026-01-04 14:07:22.48	318.19	14.58	-43.3	-44.2	17.8	0.00e+00	0	57	0	2942304256	48	4219
2026-01-04 14:07:23.46	318.35	14.52	-43.5	-44.3	17.6	0.00e+00	0	57	0	2947547136	48	4287
2026-01-04 14:07:24.44	318.51	14.45	-43.5	-44.4	17.6	0.00e+00	0	57	0	2952790016	49	4070
2026-01-04 14:07:25.44	318.67	14.39	-43.2	-44.1	17.9	0.00e+00	0	57	0	2959081472	49	3931
2026-01-04 14:07:26.43	318.83	14.32	-43.0	-43.8	18.1	0.00e+00	0	57	0	2964324352	49	3817
2026-01-04 14:07:27.41	318.98	14.26	-42.9	-43.7	18.2	0.00e+00	0	57	0	2969567232	49	3775
2026-01-04 14:07:28.40	319.14	14.19	-42.9	-43.7	18.3	0.00e+00	0	57	0	2974810112	49	3752
2026-01-04 14:07:29.39	319.30	14.13	-43.0	-43.8	18.2	0.00e+00	0	57	0	2981101568	49	3801
2026-01-04 14:07:30.38	319.45	14.06	-43.0	-43.8	18.1	0.00e+00	0	57	0	2986344448	49	3824
2026-01-04 14:07:31.37	319.61	14.00	-42.9	-43.7	18.3	0.00e+00	0	57	0	2991587328	49	3762
2026-01-04 14:07:32.36	319.76	13.93	-42.9	-43.7	18.2	0.00e+00	0	57	0	2997878784	49	3776
2026-01-04 14:07:33.35	319.92	13.87	-43.0	-43.9	18.1	0.00e+00	0	57	0	3003121664	49	3833
2026-01-04 14:07:34.34	320.07	13.80	-43.1	-43.9	18.0	0.00e+00	0	57	0	3008364544	49	3847
2026-01-04 14:07:35.33	320.22	13.74	-43.0	-43.8	18.1	0.00e+00	0	57	0	3014656000	49	3813
2026-01-04 14:07:36.33	320.38	13.67	-43.0	-43.9	18.1	0.00e+00	0	57	0	3019898880	49	3838
2026-01-04 14:07:37.31	320.53	13.61	-43.0	-43.8	18.1	0.00e+00	0	57	0	3025141760	49	3806
2026-01-04 14:07:38.30	320.68	13.54	-43.2	-44.0	17.9	0.00e+00	0	57	0	3031433216	49	3908
2026-01-04 14:07:39.28	320.82	13.48	-43.3	-44.2	17.8	0.00e+00	0	57	0	3036676096	49	3968
2026-01-04 14:07:40.27	320.97	13.41	-43.2	-44.0	17.9	0.00e+00	0	57	0	3041918976	49	3894
2026-01-04 14:07:41.26	321.12	13.35	-43.1	-43.9	18.0	0.00e+00	0	57	0	3047161856	49	3849
2026-01-04 14:07:42.25	321.27	13.28	-43.1	-43.9	18.0	0.00e+00	0	57	0	3053453312	49	3841
2026-01-04 14:07:43.23	321.42	13.22	-43.0	-43.9	18.1	0.00e+00	0	57	0	3058696192	49	3836
2026-01-04 14:07:44.22	321.56	13.15	-43.0	-43.8	18.1	0.00e+00	0	57	0	3063939072	49	3798
2026-01-04 14:07:45.22	321.71	13.09	-43.0	-43.8	18.1	0.00e+00	0	57	0	3070230528	49	3810
2026-01-04 14:07:46.20	321.85	13.02	-43.0	-43.8	18.1	0.00e+00	0	57	0	3075473408	49	3796
2026-01-04 14:07:47.19	322.00	12.96	-43.1	-43.9	18.0	0.00e+00	0	57	0	3080716288	49	3834
2026-01-04 14:07:48.18	322.14	12.89	-43.2	-44.0	17.9	0.00e+00	0	57	0	3087007744	49	3909
2026-01-04 14:07:49.17	322.29	12.83	-43.1	-44.0	17.9	0.00e+00	0	57	0	3092250624	49	3872
2026-01-04 14:07:50.16	322.43	12.76	-43.3	-44.2	17.7	0.00e+00	0	57	0	3097493504	49	3988
2026-01-04 14:07:51.15	322.57	12.70	-43.5	-44.4	17.5	0.00e+00	0	57	0	3102736384	49	4059
2026-01-04 14:07:52.14	322.71	12.63	-43.5	-44.3	17.6	0.00e+00	0	57	0	3109027840	49	4048
2026-01-04 14:07:53.13	322.86	12.57	-43.6	-44.5	17.4	0.00e+00	0	57	0	3114270720	49	4127
2026-01-04 14:07:54.13	323.00	12.50	-43.5	-44.4	17.4	0.00e+00	0	57	0	3119513600	49	4098
2026-01-04 14:07:55.11	323.14	12.44	-43.7	-44.6	17.3	0.00e+00	0	57	0	3125805056	49	4171
2026-01-04 14:07:56.09	323.27	12.37	-43.9	-44.9	17.0	0.00e+00	0	57	0	3131047936	49	4300
2026-01-04 14:07:57.09	323.42	12.31	-43.8	-44.7	17.2	0.00e+00	0	57	0	3136290816	49	4219
2026-01-04 14:07:58.07	323.55	12.24	-43.9	-44.8	17.1	0.00e+00	0	57	0	3141533696	49	4270
2026-01-04 14:07:59.06	323.69	12.18	-44.1	-45.0	16.9	0.00e+00	0	57	0	3147825152	49	4390
2026-01-04 14:08:00.04	323.83	12.11	-43.8	-44.7	17.1	0.00e+00	0	57	0	3153068032	49	4242
2026-01-04 14:08:01.04	323.96	12.05	-43.7	-44.7	17.2	0.00e+00	0	57	0	3159359488	49	4195
2026-01-04 14:08:02.03	324.10	11.98	-43.8	-44.8	17.1	0.00e+00	0	57	0	3164602368	49	4261
2026-01-04 14:08:03.02	324.23	11.92	-44.1	-45.1	16.8	0.00e+00	0	57	0	3169845248	50	4188
2026-01-04 14:08:04.00	324.37	11.85	-43.9	-44.8	17.0	0.00e+00	0	57	0	3175088128	50	4047
2026-01-04 14:08:05.00	324.50	11.79	-44.2	-45.2	16.7	0.00e+00	0	57	0	3181379584	50	4230
2026-01-04 14:08:05.99	324.64	11.72	-44.0	-45.0	16.9	0.00e+00	0	57	0	3186622464	50	4119
2026-01-04 14:08:06.98	324.77	11.66	-43.9	-44.8	17.1	0.00e+00	0	57	0	3191865344	50	4030
2026-01-04 14:08:07.97	324.90	11.59	-43.8	-44.7	17.1	0.00e+00	0	57	0	3198156800	50	4002
2026-01-04 14:08:08.96	325.04	11.53	-44.0	-44.9	16.9	0.00e+00	0	57	0	3203399680	50	4090
2026-01-04 14:08:09.95	325.17	11.47	-43.9	-44.8	17.0	0.00e+00	0	57	0	3208642560	50	4050
2026-01-04 14:08:10.95	325.30	11.40	-44.1	-45.1	16.8	0.00e+00	0	57	0	3214934016	50	4153
2026-01-04 14:08:11.94	325.43	11.34	-44.3	-45.3	16.5	0.00e+00	0	57	0	3220176896	50	4290
2026-01-04 14:08:12.93	325.56	11.27	-44.2	-45.2	16.7	0.00e+00	0	57	0	3225419776	50	4214
2026-01-04 14:08:13.93	325.69	11.21	-44.1	-45.1	16.8	0.00e+00	0	57	0	3231711232	50	4152
2026-01-04 14:08:14.92	325.82	11.14	-44.0	-45.0	16.8	0.00e+00	0	57	0	3236954112	50	4142
2026-01-04 14:08:15.91	325.95	11.08	-44.1	-45.1	16.8	0.00e+00	0	57	0	3242196992	50	4166
2026-01-04 14:08:16.90	326.07	11.01	-44.3	-45.3	16.5	0.00e+00	0	57	0	3248488448	50	4281
2026-01-04 14:08:17.89	326.20	10.95	-44.2	-45.2	16.6	0.00e+00	0	57	0	3253731328	50	4220
2026-01-04 14:08:18.89	326.33	10.89	-44.3	-45.3	16.5	0.00e+00	0	57	0	3258974208	50	4276
2026-01-04 14:08:19.88	326.45	10.82	-44.5	-45.6	16.2	0.00e+00	0	57	0	3265265664	50	4419
2026-01-04 14:08:20.87	326.58	10.76	-44.4	-45.5	16.4	0.00e+00	0	57	0	3270508544	51	4104
2026-01-04 14:08:21.86	326.70	10.69	-44.6	-45.7	16.1	0.00e+00	0	57	0	3275751424	51	4214
2026-01-04 14:08:22.85	326.83	10.63	-44.6	-45.7	16.1	0.00e+00	0	57	0	3282042880	51	4221
2026-01-04 14:08:23.83	326.95	10.57	-44.7	-45.8	16.1	0.00e+00	0	57	0	3287285760	51	4243
2026-01-04 14:08:24.81	327.07	10.50	-44.8	-45.9	15.9	0.00e+00	0	57	0	3292528640	51	4318
2026-01-04 14:08:25.80	327.20	10.44	-44.7	-45.8	16.0	0.00e+00	0	57	0	3297771520	51	4273
2026-01-04 14:08:26.80	327.32	10.37	-44.7	-45.8	16.0	0.00e+00	0	57	0	3304062976	51	4291
2026-01-04 14:08:27.78	327.44	10.31	-44.7	-45.8	16.0	0.00e+00	0	57	0	3309305856	51	4284
2026-01-04 14:08:28.77	327.56	10.25	-44.9	-46.1	15.7	0.00e+00	0	57	0	3314548736	51	4403
2026-01-04 14:08:29.75	327.68	10.18	-44.9	-46.0	15.8	0.00e+00	0	57	0	3320840192	51	4362
2026-01-04 14:08:30.74	327.80	10.12	-45.0	-46.2	15.6	0.00e+00	0	57	0	3326083072	51	4450
2026-01-04 14:08:31.72	327.92	10.06	-44.9	-46.0	15.8	0.00e+00	0	57	0	3331325952	51	4381
2026-01-04 14:08:32.71	328.04	10.00	-44.6	-45.7	16.1	0.00e+00	0	57	0	3336568832	51	4213
2026-01-04 14:08:33.70	328.16	9.93	-44.3	-45.3	16.4	0.00e+00	0	57	0	3342860288	51	4044
2026-01-04 14:08:34.68	328.28	9.87	-44.2	-45.1	16.6	0.00e+00	0	57	0	3348103168	51	3950
2026-01-04 14:08:35.68	328.40	9.81	-44.1	-45.1	16.7	0.00e+00	0	57	0	3353346048	51	3929
2026-01-04 14:08:36.67	328.51	9.74	-44.1	-45.1	16.7	0.00e+00	0	57	0	3359637504	51	3915
2026-01-04 14:08:37.65	328.63	9.68	-44.2	-45.2	16.6	0.00e+00	0	57	0	3364880384	51	3962
2026-01-04 14:08:38.64	328.74	9.62	-44.1	-45.1	16.6	0.00e+00	0	57	0	3370123264	51	3943
2026-01-04 14:08:39.63	328.86	9.55	-44.1	-45.0	16.7	0.00e+00	0	57	0	3375366144	51	3895
2026-01-04 14:08:40.62	328.98	9.49	-44.1	-45.0	16.7	0.00e+00	0	57	0	3381657600	51	3900
2026-01-04 14:08:41.61	329.09	9.43	-44.2	-45.2	16.5	0.00e+00	0	57	0	3386900480	51	3999
2026-01-04 14:08:42.59	329.20	9.37	-44.2	-45.2	16.5	0.00e+00	0	57	0	3392143360	51	3979
2026-01-04 14:08:43.59	329.32	9.30	-44.3	-45.3	16.4	0.00e+00	0	57	0	3398434816	51	4016
2026-01-04 14:08:44.58	329.43	9.24	-44.3	-45.4	16.3	0.00e+00	0	57	0	3403677696	51	4066
2026-01-04 14:08:45.57	329.55	9.18	-44.4	-45.5	16.2	0.00e+00	0	57	0	3408920576	51	4114
2026-01-04 14:08:46.56	329.66	9.11	-44.5	-45.6	16.1	0.00e+00	0	57	0	3415212032	51	4178
2026-01-04 14:08:47.55	329.77	9.05	-44.6	-45.7	16.0	0.00e+00	0	57	0	3420454912	51	4217
2026-01-04 14:08:48.54	329.88	8.99	-44.6	-45.7	16.0	0.00e+00	0	57	0	3425697792	51	4239
2026-01-04 14:08:49.53	329.99	8.93	-44.8	-46.0	15.7	0.00e+00	0	57	0	3430940672	51	4351
2026-01-04 14:08:50.51	330.10	8.87	-44.8	-46.0	15.7	0.00e+00	0	57	0	3437232128	51	4372
2026-01-04 14:08:51.49	330.21	8.80	-44.9	-46.1	15.6	0.00e+00	0	57	0	3442475008	51	4412
2026-01-04 14:08:52.48	330.32	8.74	-45.0	-46.2	15.5	0.00e+00	0	57	0	3448766464	51	4484
2026-01-04 14:08:53.47	330.43	8.68	-44.9	-46.1	15.4	0.00e+00	0	57	0	3454009344	52	4189
2026-01-04 14:08:54.46	330.54	8.62	-44.8	-45.9	15.7	0.00e+00	0	57	0	3459252224	52	4090
2026-01-04 14:08:55.45	330.65	8.56	-44.7	-45.8	15.8	0.00e+00	0	57	0	3464495104	52	4023
2026-01-04 14:08:56.44	330.76	8.49	-44.6	-45.7	15.9	0.00e+00	0	57	0	3470786560	52	3988
2026-01-04 14:08:57.43	330.87	8.43	-44.7	-45.8	15.7	0.00e+00	0	57	0	3476029440	52	4045
2026-01-04 14:08:58.42	330.97	8.37	-44.8	-46.0	15.6	0.00e+00	0	57	0	3481272320	52	4100
2026-01-04 14:08:59.41	331.08	8.31	-44.6	-45.7	15.9	0.00e+00	0	57	0	3487563776	52	3962
2026-01-04 14:09:00.39	331.19	8.25	-44.4	-45.5	16.1	0.00e+00	0	57	0	3492806656	51	4135
2026-01-04 14:09:01.38	331.29	8.19	-44.3	-45.4	16.2	0.00e+00	0	57	0	3498049536	51	4072
2026-01-04 14:09:02.38	331.40	8.12	-44.5	-45.6	16.1	0.00e+00	0	57	0	3503292416	51	4151
2026-01-04 14:09:03.36	331.50	8.06	-44.7	-45.8	15.8	0.00e+00	0	57	0	3509583872	51	4285
2026-01-04 14:09:04.35	331.61	8.00	-44.7	-45.8	15.8	0.00e+00	0	57	0	3514826752	51	4263
2026-01-04 14:09:05.34	331.71	7.94	-44.8	-45.9	15.7	0.00e+00	0	57	0	3521118208	51	4326
2026-01-04 14:09:06.32	331.81	7.88	-44.8	-46.0	15.6	0.00e+00	0	57	0	3526361088	51	4348
2026-01-04 14:09:07.31	331.92	7.82	-45.0	-46.2	15.5	0.00e+00	0	57	0	3531603968	51	4443
2026-01-04 14:09:08.30	332.02	7.76	-45.0	-46.2	15.3	0.00e+00	0	57	0	3536846848	52	4212
2026-01-04 14:09:09.29	332.12	7.70	-44.9	-46.2	15.3	0.00e+00	0	57	0	3543138304	52	4201
2026-01-04 14:09:10.28	332.23	7.64	-45.1	-46.3	15.1	0.00e+00	0	57	0	3548381184	52	4272
2026-01-04 14:09:11.27	332.33	7.57	-44.9	-46.1	15.3	0.00e+00	0	57	0	3553624064	52	4183
2026-01-04 14:09:12.26	332.43	7.51	-44.8	-46.0	15.4	0.00e+00	0	57	0	3559915520	52	4133
2026-01-04 14:09:13.25	332.53	7.45	-44.9	-46.1	15.4	0.00e+00	0	57	0	3565158400	52	4149
2026-01-04 14:09:14.24	332.63	7.39	-44.9	-46.1	15.3	0.00e+00	0	57	0	3570401280	52	4190
2026-01-04 14:09:15.24	332.73	7.33	-45.1	-46.4	15.1	0.00e+00	0	57	0	3576692736	52	4297
2026-01-04 14:09:16.22	332.83	7.27	-45.0	-46.2	15.2	0.00e+00	0	57	0	3581935616	52	4224
2026-01-04 14:09:17.21	332.93	7.21	-44.8	-46.1	15.3	0.00e+00	0	57	0	3587178496	52	4151
2026-01-04 14:09:18.21	333.03	7.15	-44.7	-45.9	15.5	0.00e+00	0	57	0	3592421376	52	4089
2026-01-04 14:09:19.19	333.13	7.09	-44.9	-46.1	15.2	0.00e+00	0	57	0	3598712832	52	4193
2026-01-04 14:09:20.19	333.23	7.03	-44.8	-46.0	15.4	0.00e+00	0	57	0	3603955712	52	4120
2026-01-04 14:09:21.18	333.32	6.97	-44.9	-46.2	15.2	0.00e+00	0	57	0	3609198592	52	4203
2026-01-04 14:09:22.16	333.42	6.91	-44.9	-46.1	15.3	0.00e+00	0	57	0	3615490048	52	4172
2026-01-04 14:09:23.15	333.52	6.85	-44.9	-46.1	15.2	0.00e+00	0	57	0	3620732928	52	4182
2026-01-04 14:09:24.14	333.62	6.79	-45.0	-46.2	15.2	0.00e+00	0	57	0	3625975808	52	4221
2026-01-04 14:09:25.13	333.71	6.73	-44.9	-46.1	15.2	0.00e+00	0	57	0	3631218688	52	4168
2026-01-04 14:09:26.13	333.81	6.67	-45.0	-46.3	15.1	1.10e-06	0	57	0	3637510144	52	4251
2026-01-04 14:09:27.12	333.90	6.61	-45.2	-46.5	14.8	0.00e+00	0	57	0	3642753024	52	4389
2026-01-04 14:09:28.10	334.00	6.55	-45.1	-46.3	15.0	0.00e+00	0	57	0	3649044480	52	4287
