passes_logs/2026/01/04/R3.0SM8_Murmansk_STILSPACE/R3.0SM8_Murmansk_STILSPACE__20260104_145131_AQUA_rec.log

#Pass ID: 20260104_145131_AQUA
#Satellite: AQUA
#Configuration: AQUA
#almurnet v.1.7.20240730
#Start time: 2026-01-04 14:51:32

#Version: 2.2.20231116
#Station: R3.0SM8_Murmansk_STILSPACE
#Location: 33.092731 lon 68.902999 lat
#TLE: 1 27424U 02022A   26003.93831471  .00001925  00000+0  39553-3 0  9996
#TLE: 2 27424  98.4067 330.1809 0002002  92.1714 343.8415 14.61796291259276

#Time	Az	El	Level	Level2	SNR	BER	BlckErr	Temp	State	Recorded	gain1	gain2
2026-01-04 14:51:32.24	256.08	3.05	-54.3	-74.3	3.8	7.45e-01	0	45	0	0	70	38858
2026-01-04 14:51:33.23	256.21	3.09	-54.3	-74.3	3.8	7.46e-01	0	45	104	0	70	38877
2026-01-04 14:51:34.22	256.34	3.12	-54.3	-74.3	3.8	7.50e-01	0	46	104	0	70	38811
2026-01-04 14:51:35.22	256.47	3.16	-54.3	-74.3	3.8	7.46e-01	0	46	104	0	70	38873
2026-01-04 14:51:36.20	256.60	3.20	-54.3	-74.3	3.8	7.47e-01	0	46	104	0	70	38856
2026-01-04 14:51:37.20	256.74	3.24	-54.3	-74.3	3.8	7.45e-01	0	46	104	0	70	38831
2026-01-04 14:51:38.19	256.87	3.28	-54.3	-74.3	3.8	7.46e-01	0	46	104	0	70	38702
2026-01-04 14:51:39.17	257.00	3.32	-54.3	-74.2	3.8	7.41e-01	0	46	104	0	70	38632
2026-01-04 14:51:40.16	257.13	3.36	-54.3	-74.3	3.8	7.46e-01	0	46	104	0	70	38748
2026-01-04 14:51:41.15	257.26	3.39	-54.3	-74.2	3.8	7.42e-01	0	46	104	0	70	38485
2026-01-04 14:51:42.14	257.40	3.43	-54.2	-74.2	3.8	7.46e-01	0	46	104	0	70	38398
2026-01-04 14:51:43.12	257.53	3.47	-54.2	-74.2	3.8	7.46e-01	0	46	104	0	70	38427
2026-01-04 14:51:44.12	257.66	3.51	-54.2	-74.2	3.8	7.45e-01	0	46	104	0	70	38342
2026-01-04 14:51:45.11	257.80	3.55	-54.2	-74.2	3.8	7.43e-01	0	46	104	0	70	38358
2026-01-04 14:51:46.09	257.93	3.58	-54.2	-74.2	3.8	7.46e-01	0	46	104	0	70	38301
2026-01-04 14:51:47.08	258.07	3.62	-54.2	-74.1	3.8	7.47e-01	0	47	104	0	70	38218
2026-01-04 14:51:48.07	258.20	3.66	-54.1	-74.1	3.8	7.43e-01	0	47	104	0	70	38035
2026-01-04 14:51:49.07	258.34	3.70	-54.1	-74.1	3.8	7.46e-01	0	47	104	0	70	37844
2026-01-04 14:51:50.05	258.48	3.74	-54.1	-74.0	3.8	7.43e-01	0	47	104	0	70	37640
2026-01-04 14:51:51.05	258.61	3.77	-54.0	-74.0	3.8	7.45e-01	0	47	104	0	70	37489
2026-01-04 14:51:52.04	258.75	3.81	-54.0	-73.9	3.8	7.45e-01	0	47	104	0	70	37268
2026-01-04 14:51:53.03	258.89	3.85	-53.9	-73.9	3.8	7.42e-01	0	47	104	0	70	37048
2026-01-04 14:51:54.02	259.03	3.89	-53.8	-73.7	3.8	7.45e-01	0	47	104	0	70	36269
2026-01-04 14:51:55.01	259.16	3.93	-53.7	-73.6	3.8	7.43e-01	0	47	104	0	70	35774
2026-01-04 14:51:56.00	259.30	3.96	-53.5	-73.3	3.8	7.47e-01	0	47	104	0	70	34584
2026-01-04 14:51:56.99	259.44	4.00	-53.2	-72.7	3.8	7.46e-01	0	47	104	0	69	34464
2026-01-04 14:51:57.98	259.58	4.04	-53.0	-72.8	3.8	7.45e-01	0	47	104	0	69	34552
2026-01-04 14:51:58.97	259.72	4.07	-53.0	-72.7	3.8	7.43e-01	0	48	104	0	69	34311
2026-01-04 14:51:59.95	259.86	4.11	-53.0	-72.6	3.8	7.48e-01	0	47	104	0	69	34003
2026-01-04 14:52:00.95	260.00	4.15	-53.0	-72.5	3.8	7.46e-01	0	48	104	0	69	33442
2026-01-04 14:52:01.94	260.14	4.19	-53.0	-72.4	3.8	7.47e-01	0	48	104	0	69	33000
2026-01-04 14:52:02.93	260.28	4.22	-53.0	-72.2	3.8	7.47e-01	0	48	104	0	69	32454
2026-01-04 14:52:03.92	260.42	4.26	-53.0	-72.2	3.8	7.44e-01	0	48	104	0	69	32332
2026-01-04 14:52:04.91	260.56	4.30	-53.0	-72.2	3.8	7.45e-01	0	48	104	0	69	32517
2026-01-04 14:52:05.89	260.71	4.33	-53.0	-72.2	3.8	7.47e-01	0	48	104	0	69	32421
2026-01-04 14:52:06.89	260.85	4.37	-53.0	-72.2	3.8	7.44e-01	0	48	104	0	69	32235
2026-01-04 14:52:07.87	260.99	4.41	-53.0	-72.0	3.8	7.45e-01	0	48	104	0	69	31749
2026-01-04 14:52:08.87	261.14	4.44	-53.0	-71.9	3.8	7.45e-01	0	48	104	0	69	31444
2026-01-04 14:52:09.85	261.28	4.48	-53.0	-71.9	3.8	7.45e-01	0	48	104	0	69	31410
2026-01-04 14:52:10.84	261.42	4.51	-53.0	-72.0	3.8	7.50e-01	0	48	104	0	69	31625
2026-01-04 14:52:11.83	261.57	4.55	-53.0	-72.2	3.8	7.48e-01	0	48	104	0	69	32222
2026-01-04 14:52:12.82	261.71	4.59	-53.0	-72.4	3.8	7.45e-01	0	48	104	0	69	33044
2026-01-04 14:52:13.81	261.86	4.62	-53.0	-72.6	3.8	7.48e-01	0	48	104	0	69	33844
2026-01-04 14:52:14.80	262.00	4.66	-53.0	-72.8	3.8	7.48e-01	0	48	104	0	69	34629
2026-01-04 14:52:15.80	262.15	4.70	-53.0	-72.9	3.8	7.45e-01	0	49	104	0	69	34982
2026-01-04 14:52:16.78	262.29	4.73	-53.0	-72.7	3.8	7.49e-01	0	49	104	0	69	34134
2026-01-04 14:52:17.77	262.44	4.77	-53.0	-71.5	3.8	7.44e-01	0	49	104	0	69	29970
2026-01-04 14:52:18.76	262.59	4.80	-52.9	-68.6	4.4	7.26e-01	0	49	104	0	69	21296
2026-01-04 14:52:19.75	262.74	4.84	-52.8	-65.3	6.3	6.76e-01	91	49	0	0	69	14700
2026-01-04 14:52:20.73	262.88	4.87	-52.6	-62.6	8.8	6.37e-01	0	49	0	2097152	68	11375
2026-01-04 14:52:21.73	263.03	4.91	-52.2	-60.1	11.5	6.14e-01	0	49	0	3670016	68	8527
2026-01-04 14:52:22.71	263.18	4.94	-51.6	-57.8	13.9	6.08e-01	0	49	0	5767168	66	7301
2026-01-04 14:52:23.69	263.33	4.98	-51.1	-56.1	15.6	6.08e-01	0	49	0	7340032	65	6380
2026-01-04 14:52:24.68	263.48	5.01	-50.6	-54.8	16.9	6.08e-01	0	49	0	9437184	64	5807
2026-01-04 14:52:25.68	263.63	5.05	-50.3	-54.2	17.5	6.06e-01	0	49	0	11010048	64	5444
2026-01-04 14:52:26.67	263.78	5.08	-50.4	-54.5	17.3	6.06e-01	0	49	0	13107200	64	5616
2026-01-04 14:52:27.65	263.93	5.12	-50.4	-54.3	17.4	6.07e-01	0	49	0	14680064	64	5515
2026-01-04 14:52:28.64	264.08	5.15	-50.2	-53.9	18.0	6.05e-01	0	49	0	16777216	63	5550
2026-01-04 14:52:29.62	264.23	5.19	-50.0	-53.5	18.3	6.06e-01	0	49	0	18350080	63	5299
2026-01-04 14:52:30.61	264.38	5.22	-49.8	-53.2	18.7	6.07e-01	0	49	0	20447232	63	5118
2026-01-04 14:52:31.60	264.53	5.25	-49.8	-53.1	18.8	6.04e-01	0	49	0	22544384	63	5050
2026-01-04 14:52:32.60	264.68	5.29	-49.7	-53.0	18.9	6.06e-01	0	49	0	24117248	63	5005
2026-01-04 14:52:33.59	264.84	5.32	-49.8	-53.2	18.7	6.07e-01	0	49	0	26214400	63	5122
2026-01-04 14:52:34.58	264.99	5.36	-49.8	-53.2	18.7	6.08e-01	0	50	0	27787264	63	5104
2026-01-04 14:52:35.57	265.14	5.39	-49.8	-53.1	18.8	6.05e-01	0	50	0	29884416	63	5060
2026-01-04 14:52:36.55	265.29	5.42	-49.8	-53.0	18.8	6.07e-01	0	50	0	31457280	63	5039
2026-01-04 14:52:37.55	265.45	5.46	-49.8	-53.1	18.8	6.07e-01	0	50	0	33554432	63	5068
2026-01-04 14:52:38.54	265.61	5.49	-49.9	-53.2	18.3	6.04e-01	0	50	0	35127296	63	5123
2026-01-04 14:52:39.53	265.76	5.52	-49.8	-53.1	18.8	6.09e-01	0	50	0	37224448	63	5089
2026-01-04 14:52:40.52	265.92	5.56	-49.9	-53.3	18.5	6.06e-01	0	50	0	38797312	63	5216
2026-01-04 14:52:41.51	266.07	5.59	-49.9	-53.3	18.5	6.08e-01	0	50	0	40894464	63	5213
2026-01-04 14:52:42.51	266.23	5.62	-49.8	-53.2	18.7	6.06e-01	0	50	0	42991616	63	5112
2026-01-04 14:52:43.50	266.38	5.66	-49.9	-53.3	18.5	6.05e-01	0	50	0	44564480	63	5206
2026-01-04 14:52:44.49	266.54	5.69	-50.0	-53.5	18.2	6.05e-01	0	50	0	46661632	63	5323
2026-01-04 14:52:45.47	266.70	5.72	-49.9	-53.5	18.2	6.07e-01	0	50	0	48234496	63	5298
2026-01-04 14:52:46.46	266.85	5.75	-50.0	-53.8	17.9	6.04e-01	0	50	0	50331648	63	5482
2026-01-04 14:52:47.45	267.01	5.79	-50.2	-54.2	17.4	6.05e-01	0	50	0	51904512	63	5762
2026-01-04 14:52:48.44	267.17	5.82	-50.2	-54.3	17.2	6.07e-01	0	50	0	54001664	63	5831
2026-01-04 14:52:49.43	267.33	5.85	-50.3	-54.6	16.8	6.03e-01	0	50	0	55574528	63	6028
2026-01-04 14:52:50.42	267.49	5.88	-50.3	-54.9	16.4	6.07e-01	0	50	0	57671680	63	6223
2026-01-04 14:52:51.40	267.65	5.91	-50.4	-55.1	16.1	6.07e-01	0	50	0	59244544	63	6352
2026-01-04 14:52:52.40	267.81	5.95	-50.4	-55.2	16.0	6.08e-01	0	50	0	61341696	63	6437
2026-01-04 14:52:53.40	267.97	5.98	-50.4	-55.4	15.6	6.08e-01	0	51	0	63438848	63	6614
2026-01-04 14:52:54.38	268.13	6.01	-50.4	-55.6	15.4	6.09e-01	0	50	0	65011712	63	6740
2026-01-04 14:52:55.37	268.29	6.04	-50.4	-55.9	15.0	6.09e-01	0	51	0	67108864	63	6987
2026-01-04 14:52:56.37	268.45	6.07	-50.5	-56.1	14.7	6.09e-01	0	51	0	68681728	63	7167
2026-01-04 14:52:57.36	268.61	6.10	-50.6	-56.7	14.0	6.06e-01	0	51	0	70778880	63	7636
2026-01-04 14:52:58.35	268.78	6.13	-50.5	-56.5	14.1	6.10e-01	0	51	0	72351744	63	7540
2026-01-04 14:52:59.34	268.94	6.17	-50.6	-57.2	13.3	6.09e-01	0	51	0	74448896	63	8174
2026-01-04 14:53:00.33	269.10	6.20	-50.6	-57.4	12.9	6.10e-01	0	51	0	76021760	63	8334
2026-01-04 14:53:01.32	269.26	6.23	-50.5	-57.5	12.8	6.10e-01	0	51	0	78118912	63	8426
2026-01-04 14:53:02.32	269.43	6.26	-50.5	-57.8	12.3	6.14e-01	0	51	0	79691776	63	8669
2026-01-04 14:53:03.31	269.59	6.29	-50.5	-58.2	11.9	6.15e-01	0	51	0	81788928	63	9099
2026-01-04 14:53:04.29	269.75	6.32	-50.5	-58.5	11.4	6.13e-01	0	51	0	83886080	63	9458
2026-01-04 14:53:05.28	269.92	6.35	-50.5	-58.9	10.9	6.17e-01	0	51	0	85458944	63	9894
2026-01-04 14:53:06.27	270.08	6.38	-50.4	-58.4	11.3	6.15e-01	0	51	0	87031808	63	9372
2026-01-04 14:53:07.27	270.25	6.41	-50.3	-58.1	11.6	6.16e-01	0	51	0	89128960	63	9063
2026-01-04 14:53:08.26	270.42	6.44	-50.2	-58.0	11.6	6.13e-01	0	51	0	91226112	63	8915
2026-01-04 14:53:09.24	270.58	6.46	-50.2	-57.9	11.7	6.13e-01	0	51	0	92798976	63	8854
2026-01-04 14:53:10.23	270.75	6.49	-50.2	-58.2	11.4	6.12e-01	0	51	0	94896128	63	9111
2026-01-04 14:53:11.22	270.91	6.52	-50.2	-58.6	10.8	6.20e-01	0	51	0	96468992	63	9598
2026-01-04 14:53:12.21	271.08	6.55	-50.2	-58.9	10.5	6.22e-01	0	51	0	98566144	63	9841
2026-01-04 14:53:13.21	271.25	6.58	-50.2	-59.1	10.2	6.22e-01	0	51	0	100139008	63	10138
2026-01-04 14:53:14.20	271.42	6.61	-50.2	-59.3	10.0	6.24e-01	0	51	0	102236160	63	10325
2026-01-04 14:53:15.19	271.58	6.64	-50.2	-59.7	9.5	6.30e-01	0	51	0	103809024	63	10898
2026-01-04 14:53:16.18	271.75	6.67	-50.2	-59.9	9.3	6.30e-01	0	52	0	105906176	63	11038
2026-01-04 14:53:17.16	271.92	6.69	-50.3	-60.3	8.8	6.36e-01	1	52	0	107479040	63	11634
2026-01-04 14:53:18.15	272.09	6.72	-50.2	-60.1	9.0	6.33e-01	1	51	0	109576192	63	11380
2026-01-04 14:53:19.13	272.25	6.75	-50.2	-60.2	8.9	6.34e-01	0	51	0	111149056	63	11505
2026-01-04 14:53:20.13	272.43	6.78	-50.2	-60.1	9.1	6.36e-01	0	52	0	113246208	63	11338
2026-01-04 14:53:21.11	272.59	6.80	-50.3	-60.1	9.1	6.31e-01	0	52	0	115343360	63	11403
2026-01-04 14:53:22.10	272.76	6.83	-50.3	-60.1	9.2	6.32e-01	0	52	0	116916224	63	11367
2026-01-04 14:53:23.09	272.93	6.86	-50.4	-60.2	9.1	6.33e-01	0	52	0	119013376	63	11548
2026-01-04 14:53:24.08	273.11	6.88	-50.4	-59.7	9.7	6.28e-01	0	52	0	120586240	63	10856
2026-01-04 14:53:25.06	273.28	6.91	-50.2	-59.0	10.4	6.22e-01	0	52	0	122683392	63	9982
2026-01-04 14:53:26.05	273.45	6.94	-50.1	-58.3	10.9	6.18e-01	0	52	0	124256256	63	9257
2026-01-04 14:53:27.04	273.62	6.96	-50.0	-57.8	11.4	6.16e-01	0	52	0	126353408	63	8760
2026-01-04 14:53:28.02	273.79	6.99	-50.0	-57.3	12.1	6.13e-01	0	52	0	127926272	63	8251
2026-01-04 14:53:29.01	273.96	7.02	-49.9	-57.1	12.5	6.09e-01	0	52	0	130023424	63	8014
2026-01-04 14:53:29.99	274.13	7.04	-49.9	-56.9	12.6	6.11e-01	0	52	0	131596288	63	7880
2026-01-04 14:53:30.97	274.30	7.07	-49.9	-56.8	12.7	6.10e-01	0	52	0	133693440	63	7793
2026-01-04 14:53:31.96	274.48	7.09	-50.0	-57.0	12.5	6.11e-01	0	52	0	135266304	63	7934
2026-01-04 14:53:32.96	274.65	7.12	-50.0	-57.2	12.3	6.12e-01	0	52	0	137363456	63	8114
2026-01-04 14:53:33.94	274.83	7.14	-50.0	-56.8	12.8	6.11e-01	0	52	0	139460608	63	7758
2026-01-04 14:53:34.94	275.00	7.17	-49.9	-56.5	13.2	6.12e-01	0	52	0	141033472	63	7503
2026-01-04 14:53:35.92	275.17	7.19	-49.9	-56.3	13.4	6.11e-01	0	52	0	143130624	63	7309
2026-01-04 14:53:36.91	275.35	7.22	-49.8	-56.1	13.6	6.07e-01	0	52	0	144703488	63	7152
2026-01-04 14:53:37.90	275.52	7.24	-49.8	-56.1	13.5	6.09e-01	0	52	0	146800640	63	7180
2026-01-04 14:53:38.89	275.70	7.27	-49.8	-56.0	13.6	6.09e-01	0	52	0	148373504	63	7120
2026-01-04 14:53:39.87	275.87	7.29	-49.9	-56.2	13.6	6.04e-01	0	52	0	150470656	63	7243
2026-01-04 14:53:40.86	276.05	7.31	-49.9	-56.1	13.8	6.08e-01	0	52	0	152043520	63	7134
2026-01-04 14:53:41.85	276.23	7.34	-49.7	-55.6	14.2	6.08e-01	0	52	0	154140672	63	6790
2026-01-04 14:53:42.83	276.40	7.36	-49.7	-55.5	14.3	6.07e-01	0	52	0	155713536	62	7051
2026-01-04 14:53:43.82	276.58	7.38	-49.7	-55.3	14.6	6.08e-01	0	52	0	157810688	62	6924
2026-01-04 14:53:44.81	276.76	7.41	-49.8	-55.4	14.6	6.06e-01	0	52	0	159383552	62	7022
2026-01-04 14:53:45.80	276.93	7.43	-49.7	-55.2	14.8	6.07e-01	0	52	0	161480704	62	6877
2026-01-04 14:53:46.80	277.11	7.45	-49.7	-55.1	14.9	6.07e-01	0	53	0	163577856	62	6770
2026-01-04 14:53:47.78	277.29	7.47	-49.7	-55.0	15.0	6.06e-01	0	52	0	165150720	62	6716
2026-01-04 14:53:48.77	277.47	7.50	-49.8	-55.1	15.0	6.08e-01	0	53	0	166723584	62	6793
2026-01-04 14:53:49.77	277.65	7.52	-49.9	-55.4	14.8	6.08e-01	0	53	0	168820736	62	6995
2026-01-04 14:53:50.76	277.83	7.54	-49.9	-55.2	15.0	6.06e-01	0	53	0	170917888	62	6879
2026-01-04 14:53:51.75	278.01	7.56	-49.7	-54.8	15.4	6.08e-01	0	53	0	172490752	62	6537
2026-01-04 14:53:52.74	278.19	7.58	-49.6	-54.5	15.8	6.07e-01	0	52	0	174587904	62	6317
2026-01-04 14:53:53.73	278.37	7.60	-49.6	-54.3	16.1	6.07e-01	0	53	0	176160768	62	6149
2026-01-04 14:53:54.72	278.55	7.62	-49.5	-54.1	16.3	6.06e-01	0	53	0	178257920	62	6023
2026-01-04 14:53:55.71	278.73	7.65	-49.5	-54.1	16.3	6.06e-01	0	53	0	179830784	62	6015
2026-01-04 14:53:56.69	278.91	7.67	-49.5	-53.9	16.5	6.06e-01	0	53	0	181927936	62	5901
2026-01-04 14:53:57.69	279.09	7.69	-49.5	-53.8	16.7	6.06e-01	0	53	0	183500800	62	5850
2026-01-04 14:53:58.69	279.27	7.71	-49.6	-54.0	16.6	6.06e-01	0	53	0	185597952	62	5944
2026-01-04 14:53:59.67	279.45	7.73	-49.6	-54.0	16.6	6.07e-01	0	53	0	187170816	62	5966
2026-01-04 14:54:00.66	279.64	7.75	-49.6	-53.8	16.9	6.07e-01	0	53	0	189267968	62	5842
2026-01-04 14:54:01.65	279.82	7.77	-49.5	-53.6	17.2	6.05e-01	0	53	0	191365120	62	5713
2026-01-04 14:54:02.63	280.00	7.78	-49.6	-53.7	17.2	6.07e-01	0	53	0	192937984	62	5752
2026-01-04 14:54:03.62	280.18	7.80	-49.7	-53.8	17.1	6.09e-01	0	53	0	195035136	62	5796
2026-01-04 14:54:04.61	280.36	7.82	-49.6	-53.6	17.3	6.05e-01	0	53	0	196608000	62	5698
2026-01-04 14:54:05.61	280.55	7.84	-49.5	-53.4	17.4	6.09e-01	0	53	0	198705152	62	5587
2026-01-04 14:54:06.60	280.73	7.86	-49.6	-53.6	17.3	6.06e-01	0	53	0	200278016	62	5676
2026-01-04 14:54:07.59	280.92	7.88	-49.7	-53.8	17.1	6.06e-01	0	53	0	202375168	62	5828
2026-01-04 14:54:08.59	281.10	7.90	-49.7	-53.8	17.1	6.09e-01	0	53	0	203948032	62	5838
2026-01-04 14:54:09.57	281.28	7.91	-49.7	-53.6	17.3	6.04e-01	0	53	0	206045184	62	5713
2026-01-04 14:54:10.56	281.47	7.93	-49.7	-53.5	17.6	6.08e-01	0	53	0	207618048	62	5646
2026-01-04 14:54:11.54	281.65	7.95	-49.7	-53.5	17.7	6.07e-01	0	53	0	209715200	62	5618
2026-01-04 14:54:12.52	281.83	7.96	-49.8	-53.5	17.7	6.06e-01	0	53	0	211288064	62	5656
2026-01-04 14:54:13.52	282.02	7.98	-49.7	-53.3	18.1	6.08e-01	0	53	0	213385216	62	5498
2026-01-04 14:54:14.51	282.21	8.00	-49.5	-52.8	18.7	6.01e-01	0	53	0	215482368	62	5204
2026-01-04 14:54:15.49	282.39	8.01	-49.5	-52.6	19.1	6.04e-01	0	53	0	217055232	62	5074
2026-01-04 14:54:16.49	282.58	8.03	-49.5	-52.6	19.2	6.01e-01	0	53	0	219152384	62	5048
2026-01-04 14:54:17.48	282.76	8.05	-49.4	-52.4	19.5	6.01e-01	0	53	0	220725248	62	4956
2026-01-04 14:54:18.47	282.95	8.06	-49.5	-52.5	19.4	6.02e-01	0	53	0	222822400	62	5022
2026-01-04 14:54:19.46	283.13	8.08	-49.5	-52.5	19.4	6.01e-01	0	53	0	224395264	62	5040
2026-01-04 14:54:20.46	283.32	8.09	-49.6	-52.6	19.3	6.02e-01	0	53	0	226492416	62	5079
2026-01-04 14:54:21.44	283.51	8.11	-49.6	-52.6	19.3	6.04e-01	0	53	0	228065280	62	5085
2026-01-04 14:54:22.43	283.69	8.12	-49.4	-52.4	19.5	6.04e-01	0	53	0	230162432	62	4965
2026-01-04 14:54:23.42	283.88	8.14	-49.5	-52.6	19.4	6.00e-01	0	53	0	231735296	62	5045
2026-01-04 14:54:24.40	284.07	8.15	-49.7	-52.8	19.0	6.06e-01	0	53	0	233832448	62	5213
2026-01-04 14:54:25.39	284.25	8.16	-49.8	-53.1	18.7	6.02e-01	0	53	0	235405312	62	5361
2026-01-04 14:54:26.38	284.44	8.18	-49.9	-53.4	18.3	6.02e-01	0	53	0	237502464	62	5564
2026-01-04 14:54:27.36	284.63	8.19	-50.0	-53.7	18.0	6.03e-01	0	53	0	239599616	62	5742
2026-01-04 14:54:28.36	284.82	8.20	-50.1	-53.9	17.7	6.00e-01	0	53	0	241172480	62	5909
2026-01-04 14:54:29.35	285.00	8.22	-50.1	-54.1	17.4	6.02e-01	0	53	0	243269632	62	6057
2026-01-04 14:54:30.34	285.19	8.23	-50.2	-54.2	17.2	6.00e-01	0	53	0	244842496	62	6122
2026-01-04 14:54:31.33	285.38	8.24	-50.2	-54.3	17.1	6.04e-01	0	53	0	246939648	62	6197
2026-01-04 14:54:32.32	285.57	8.26	-50.3	-54.9	16.5	6.02e-01	0	53	0	248512512	62	6583
2026-01-04 14:54:33.31	285.76	8.27	-50.4	-55.0	16.3	6.02e-01	0	54	0	250609664	62	6692
2026-01-04 14:54:34.30	285.95	8.28	-50.4	-55.3	15.8	6.02e-01	0	53	0	252182528	63	6564
2026-01-04 14:54:35.29	286.14	8.29	-50.4	-55.3	15.8	6.01e-01	0	53	0	254279680	63	6557
2026-01-04 14:54:36.28	286.33	8.30	-50.4	-55.5	15.5	6.01e-01	0	54	0	255852544	63	6710
2026-01-04 14:54:37.27	286.52	8.31	-50.4	-55.6	15.5	6.02e-01	0	54	0	257949696	63	6729
2026-01-04 14:54:38.26	286.71	8.32	-50.5	-55.8	15.2	6.03e-01	0	54	0	260046848	63	6954
2026-01-04 14:54:39.25	286.89	8.33	-50.6	-55.9	15.1	6.05e-01	0	54	0	261619712	63	7024
2026-01-04 14:54:40.23	287.08	8.34	-50.6	-56.0	15.0	6.04e-01	0	54	0	263192576	63	7066
2026-01-04 14:54:41.23	287.27	8.35	-50.6	-56.1	14.9	6.04e-01	0	54	0	265289728	63	7161
2026-01-04 14:54:42.22	287.46	8.36	-50.5	-55.9	15.1	6.02e-01	0	54	0	267386880	63	7010
2026-01-04 14:54:43.21	287.65	8.37	-50.5	-55.9	15.0	6.02e-01	0	54	0	268959744	63	7003
2026-01-04 14:54:44.20	287.85	8.38	-50.5	-56.0	14.9	6.02e-01	0	54	0	271056896	63	7078
2026-01-04 14:54:45.19	288.04	8.39	-50.5	-55.9	15.0	6.01e-01	0	54	0	272629760	63	7014
2026-01-04 14:54:46.18	288.23	8.40	-50.5	-55.9	15.0	5.99e-01	0	54	0	274726912	63	6973
2026-01-04 14:54:47.17	288.42	8.41	-50.5	-56.0	14.9	6.02e-01	0	54	0	276299776	63	7071
2026-01-04 14:54:48.16	288.61	8.42	-50.5	-56.0	14.9	6.02e-01	0	54	0	278396928	63	7076
2026-01-04 14:54:49.15	288.80	8.43	-50.6	-56.2	14.7	6.04e-01	0	54	0	279969792	63	7215
2026-01-04 14:54:50.15	288.99	8.43	-50.7	-56.3	14.6	6.02e-01	0	54	0	282066944	63	7330
2026-01-04 14:54:51.13	289.18	8.44	-50.6	-56.1	14.9	6.04e-01	0	54	0	283639808	63	7169
2026-01-04 14:54:52.12	289.37	8.45	-50.6	-56.1	14.9	6.02e-01	0	54	0	285736960	63	7137
2026-01-04 14:54:53.11	289.56	8.45	-50.7	-56.1	15.0	6.04e-01	0	54	0	287834112	63	7158
2026-01-04 14:54:54.10	289.75	8.46	-50.7	-56.0	15.1	6.03e-01	0	54	0	289406976	63	7076
2026-01-04 14:54:55.09	289.95	8.47	-50.7	-56.1	15.2	6.01e-01	0	54	0	291504128	63	7129
2026-01-04 14:54:56.07	290.14	8.47	-50.9	-56.3	15.0	6.03e-01	0	54	0	293076992	63	7297
2026-01-04 14:54:57.06	290.33	8.48	-50.8	-56.1	15.2	6.02e-01	0	54	0	295174144	63	7170
2026-01-04 14:54:58.05	290.52	8.49	-50.8	-56.0	15.3	6.04e-01	0	54	0	296747008	63	7087
2026-01-04 14:54:59.04	290.71	8.49	-50.8	-56.2	15.1	6.03e-01	0	54	0	298844160	64	6854
2026-01-04 14:55:00.03	290.90	8.50	-50.9	-56.2	15.1	6.04e-01	0	54	0	300417024	64	6861
2026-01-04 14:55:01.02	291.09	8.50	-50.8	-56.1	15.2	6.03e-01	0	54	0	302514176	64	6771
2026-01-04 14:55:02.01	291.29	8.51	-50.9	-56.3	15.1	6.02e-01	0	54	0	304087040	64	6919
2026-01-04 14:55:03.01	291.48	8.51	-50.9	-56.2	15.1	6.03e-01	0	54	0	306184192	64	6879
2026-01-04 14:55:04.00	291.67	8.51	-50.8	-56.0	15.3	6.04e-01	0	54	0	308281344	64	6715
2026-01-04 14:55:05.00	291.87	8.52	-50.7	-55.9	15.4	6.02e-01	0	54	0	309854208	64	6602
2026-01-04 14:55:05.99	292.06	8.52	-50.6	-55.5	15.8	6.01e-01	0	54	0	311951360	64	6306
2026-01-04 14:55:06.98	292.25	8.52	-50.4	-55.2	16.0	6.04e-01	0	54	0	313524224	64	6091
2026-01-04 14:55:07.98	292.45	8.53	-50.4	-55.0	16.2	6.01e-01	0	54	0	315621376	64	5974
2026-01-04 14:55:08.97	292.64	8.53	-50.3	-55.0	16.1	6.00e-01	0	54	0	317194240	64	5975
2026-01-04 14:55:09.96	292.83	8.53	-50.3	-55.0	16.2	6.00e-01	0	54	0	319291392	64	5932
2026-01-04 14:55:10.95	293.02	8.54	-50.3	-54.7	16.5	6.02e-01	0	54	0	320864256	64	5770
2026-01-04 14:55:11.94	293.21	8.54	-50.2	-54.5	16.7	6.00e-01	0	54	0	322961408	64	5653
2026-01-04 14:55:12.94	293.41	8.54	-50.2	-54.4	17.0	6.01e-01	0	54	0	324534272	63	5890
2026-01-04 14:55:13.93	293.60	8.54	-50.2	-54.3	17.1	6.03e-01	0	54	0	326631424	63	5852
2026-01-04 14:55:14.92	293.79	8.54	-50.2	-54.3	17.1	6.00e-01	0	54	0	328728576	63	5854
2026-01-04 14:55:15.91	293.99	8.54	-50.1	-54.1	17.3	6.01e-01	0	54	0	330301440	63	5692
2026-01-04 14:55:16.90	294.18	8.54	-50.1	-54.2	17.3	6.05e-01	0	54	0	332398592	63	5743
2026-01-04 14:55:17.90	294.37	8.54	-50.1	-54.1	17.3	6.03e-01	0	54	0	333971456	63	5704
2026-01-04 14:55:18.89	294.57	8.54	-50.0	-54.0	17.3	6.03e-01	0	54	0	336068608	63	5645
2026-01-04 14:55:19.88	294.76	8.54	-49.9	-53.9	17.3	6.02e-01	0	54	0	337641472	63	5587
2026-01-04 14:55:20.87	294.95	8.54	-50.0	-54.0	17.2	6.01e-01	0	54	0	339738624	63	5652
2026-01-04 14:55:21.87	295.15	8.54	-50.1	-54.3	17.0	6.02e-01	0	54	0	341311488	63	5802
2026-01-04 14:55:22.86	295.34	8.54	-50.2	-54.5	16.7	6.02e-01	0	54	0	343408640	63	5960
2026-01-04 14:55:23.85	295.53	8.54	-50.1	-54.5	16.6	5.99e-01	0	54	0	345505792	63	5972
2026-01-04 14:55:24.84	295.72	8.54	-50.2	-54.8	16.3	6.00e-01	0	54	0	347078656	63	6162
2026-01-04 14:55:25.83	295.92	8.54	-50.3	-55.0	16.0	6.05e-01	0	54	0	349175808	63	6332
2026-01-04 14:55:26.82	296.11	8.54	-50.3	-55.3	15.6	6.01e-01	0	55	0	350748672	63	6551
2026-01-04 14:55:27.80	296.30	8.53	-50.4	-55.6	15.3	6.01e-01	0	54	0	352845824	63	6746
2026-01-04 14:55:28.79	296.49	8.53	-50.4	-55.9	14.9	6.03e-01	0	54	0	354418688	63	7009
2026-01-04 14:55:29.77	296.68	8.53	-50.4	-56.0	14.6	6.03e-01	0	54	0	356515840	63	7095
2026-01-04 14:55:30.75	296.87	8.52	-50.5	-56.4	14.2	6.03e-01	0	54	0	358088704	63	7406
2026-01-04 14:55:31.74	297.06	8.52	-50.5	-56.6	13.9	6.00e-01	0	54	0	360185856	63	7572
2026-01-04 14:55:32.73	297.26	8.52	-50.6	-57.0	13.4	6.04e-01	0	54	0	361758720	63	7986
2026-01-04 14:55:33.72	297.45	8.51	-50.5	-57.0	13.4	6.04e-01	0	55	0	363855872	63	7977
2026-01-04 14:55:34.72	297.64	8.51	-50.6	-57.4	13.0	6.03e-01	0	55	0	365428736	63	8332
2026-01-04 14:55:35.70	297.83	8.51	-50.7	-57.9	12.5	6.05e-01	0	55	0	367525888	63	8830
2026-01-04 14:55:36.69	298.02	8.50	-50.7	-58.0	12.3	6.06e-01	0	55	0	369098752	63	8935
2026-01-04 14:55:37.69	298.22	8.50	-50.7	-57.9	12.4	6.07e-01	0	54	0	371195904	63	8850
2026-01-04 14:55:38.68	298.41	8.49	-50.7	-57.9	12.4	6.10e-01	0	55	0	373293056	63	8818
2026-01-04 14:55:39.67	298.60	8.49	-50.7	-57.9	12.4	6.04e-01	0	55	0	374865920	63	8843
2026-01-04 14:55:40.66	298.79	8.48	-50.8	-58.0	12.4	6.06e-01	0	55	0	376963072	63	8952
2026-01-04 14:55:41.65	298.98	8.47	-50.9	-58.2	12.3	6.06e-01	0	55	0	378535936	63	9105
2026-01-04 14:55:42.65	299.18	8.47	-50.7	-57.6	12.9	6.01e-01	0	55	0	380633088	64	7996
2026-01-04 14:55:43.64	299.37	8.46	-50.5	-56.8	13.6	6.03e-01	0	55	0	382205952	64	7368
2026-01-04 14:55:44.63	299.56	8.45	-50.3	-56.1	14.4	6.05e-01	0	55	0	384303104	64	6768
2026-01-04 14:55:45.62	299.75	8.45	-50.2	-55.6	15.0	6.02e-01	0	55	0	385875968	63	6783
2026-01-04 14:55:46.61	299.94	8.44	-50.2	-55.3	15.4	6.01e-01	0	55	0	387973120	63	6538
2026-01-04 14:55:47.60	300.13	8.43	-50.1	-55.2	15.5	6.02e-01	0	55	0	390070272	63	6469
2026-01-04 14:55:48.59	300.32	8.43	-50.1	-54.9	15.8	6.01e-01	0	55	0	391643136	63	6249
2026-01-04 14:55:49.58	300.51	8.42	-50.1	-54.7	16.1	6.02e-01	0	55	0	393740288	63	6111
2026-01-04 14:55:50.56	300.70	8.41	-50.1	-54.8	16.2	6.04e-01	0	55	0	395313152	63	6138
2026-01-04 14:55:51.55	300.89	8.40	-50.3	-54.9	16.2	6.00e-01	0	55	0	397410304	63	6246
2026-01-04 14:55:52.54	301.08	8.39	-50.2	-54.6	16.6	6.03e-01	0	55	0	398983168	63	6029
2026-01-04 14:55:53.53	301.27	8.38	-50.0	-54.2	17.1	6.02e-01	0	55	0	401080320	63	5741
2026-01-04 14:55:54.52	301.46	8.37	-49.9	-53.7	17.6	6.03e-01	0	55	0	402653184	63	5458
2026-01-04 14:55:55.51	301.65	8.36	-49.7	-53.3	18.1	6.04e-01	0	55	0	404750336	63	5201
2026-01-04 14:55:56.49	301.84	8.35	-49.7	-53.2	18.3	6.03e-01	0	55	0	406323200	62	5413
2026-01-04 14:55:57.48	302.03	8.34	-49.6	-53.0	18.5	6.03e-01	0	55	0	408420352	62	5310
2026-01-04 14:55:58.47	302.22	8.33	-49.6	-52.9	18.7	6.01e-01	0	55	0	409993216	62	5248
2026-01-04 14:55:59.46	302.41	8.32	-49.5	-52.8	18.9	6.03e-01	0	55	0	412090368	62	5167
2026-01-04 14:56:00.44	302.60	8.31	-49.5	-52.6	19.1	6.03e-01	0	55	0	413663232	62	5061
2026-01-04 14:56:01.43	302.79	8.30	-49.5	-52.5	19.3	6.01e-01	0	55	0	415760384	62	5002
2026-01-04 14:56:02.42	302.98	8.29	-49.5	-52.5	19.4	6.03e-01	0	55	0	417333248	62	5000
2026-01-04 14:56:03.40	303.16	8.28	-49.5	-52.5	19.4	6.02e-01	0	55	0	419430400	62	5028
2026-01-04 14:56:04.39	303.35	8.27	-49.6	-52.6	19.4	6.03e-01	0	55	0	421003264	62	5071
2026-01-04 14:56:05.38	303.54	8.26	-49.6	-52.6	19.3	6.01e-01	0	55	0	423100416	62	5091
2026-01-04 14:56:06.36	303.73	8.24	-49.5	-52.5	19.5	6.02e-01	0	55	0	425197568	62	4994
2026-01-04 14:56:07.35	303.91	8.23	-49.5	-52.4	19.6	6.02e-01	0	55	0	426770432	62	4938
2026-01-04 14:56:08.33	304.10	8.22	-49.5	-52.4	19.6	6.04e-01	0	55	0	428867584	62	4956
2026-01-04 14:56:09.32	304.29	8.21	-49.6	-52.5	19.5	6.02e-01	0	55	0	430440448	62	5022
2026-01-04 14:56:10.31	304.48	8.19	-49.6	-52.6	19.5	6.02e-01	0	55	0	432537600	62	5058
2026-01-04 14:56:11.30	304.66	8.18	-49.5	-52.3	19.8	6.01e-01	0	55	0	434110464	62	4916
2026-01-04 14:56:12.29	304.85	8.17	-49.4	-52.2	19.9	6.03e-01	0	55	0	436207616	62	4817
2026-01-04 14:56:13.28	305.04	8.15	-49.4	-52.2	19.9	6.01e-01	0	55	0	437780480	62	4821
2026-01-04 14:56:14.27	305.22	8.14	-49.4	-52.1	20.0	6.00e-01	0	55	0	439877632	62	4804
2026-01-04 14:56:15.25	305.41	8.12	-49.3	-52.0	20.1	6.03e-01	0	55	0	441450496	62	4720
2026-01-04 14:56:16.23	305.59	8.11	-49.2	-51.9	20.2	6.01e-01	0	55	0	443547648	62	4688
2026-01-04 14:56:17.22	305.78	8.09	-49.4	-52.2	20.0	6.02e-01	0	55	0	445120512	62	4830
2026-01-04 14:56:18.21	305.97	8.08	-49.5	-52.4	19.8	6.03e-01	0	55	0	447217664	62	4946
2026-01-04 14:56:19.20	306.15	8.06	-49.4	-52.1	20.1	6.04e-01	0	56	0	449314816	62	4799
2026-01-04 14:56:20.19	306.34	8.05	-49.3	-52.0	20.2	6.04e-01	0	55	0	450887680	62	4709
2026-01-04 14:56:21.17	306.52	8.03	-49.3	-52.0	20.2	6.04e-01	0	55	0	452984832	62	4717
2026-01-04 14:56:22.16	306.71	8.02	-49.3	-51.9	20.3	6.03e-01	0	55	0	454557696	62	4704
2026-01-04 14:56:23.15	306.89	8.00	-49.3	-52.0	20.2	6.04e-01	0	55	0	456654848	62	4735
2026-01-04 14:56:24.13	307.07	7.98	-49.4	-52.1	20.1	6.00e-01	0	55	0	458227712	62	4809
2026-01-04 14:56:25.12	307.26	7.97	-49.6	-52.4	19.8	6.02e-01	0	55	0	460324864	62	4974
2026-01-04 14:56:26.11	307.44	7.95	-49.4	-52.1	20.0	6.02e-01	0	55	0	461897728	62	4806
2026-01-04 14:56:27.10	307.63	7.93	-49.3	-51.9	20.3	6.04e-01	0	55	0	463994880	62	4700
2026-01-04 14:56:28.08	307.81	7.92	-49.3	-52.0	20.2	5.99e-01	0	55	0	465567744	62	4710
2026-01-04 14:56:29.07	307.99	7.90	-49.3	-52.0	20.2	6.06e-01	0	55	0	467664896	62	4752
2026-01-04 14:56:30.06	308.18	7.88	-49.4	-52.1	20.2	6.02e-01	0	55	0	469237760	62	4782
2026-01-04 14:56:31.04	308.36	7.86	-49.5	-52.2	20.1	6.02e-01	0	55	0	471334912	62	4841
2026-01-04 14:56:32.04	308.54	7.84	-49.6	-52.4	19.9	6.03e-01	0	55	0	472907776	62	4960
2026-01-04 14:56:33.03	308.73	7.83	-49.5	-52.2	20.1	6.01e-01	0	56	0	475004928	62	4844
2026-01-04 14:56:34.02	308.91	7.81	-49.3	-52.0	20.2	6.05e-01	0	55	0	476577792	62	4739
2026-01-04 14:56:35.01	309.09	7.79	-49.2	-51.9	20.4	6.01e-01	0	55	0	478674944	62	4656
2026-01-04 14:56:35.99	309.27	7.77	-49.3	-52.0	20.3	6.03e-01	0	55	0	480772096	62	4723
2026-01-04 14:56:36.98	309.45	7.75	-49.4	-52.1	20.2	6.00e-01	0	55	0	482344960	62	4776
2026-01-04 14:56:37.97	309.63	7.73	-49.5	-52.3	20.0	6.03e-01	0	55	0	484442112	62	4904
2026-01-04 14:56:38.96	309.81	7.71	-49.5	-52.2	20.0	6.00e-01	0	56	0	486014976	62	4869
2026-01-04 14:56:39.95	309.99	7.69	-49.6	-52.5	19.8	6.04e-01	0	55	0	488112128	62	4986
2026-01-04 14:56:40.94	310.18	7.67	-49.5	-52.3	20.0	6.01e-01	0	55	0	489684992	62	4880
2026-01-04 14:56:41.93	310.36	7.65	-49.4	-52.0	20.2	6.01e-01	0	55	0	491782144	62	4754
2026-01-04 14:56:42.92	310.54	7.63	-49.3	-52.0	20.3	6.01e-01	0	55	0	493355008	62	4722
2026-01-04 14:56:43.90	310.71	7.61	-49.4	-52.0	20.2	6.02e-01	0	55	0	495452160	62	4750
2026-01-04 14:56:44.90	310.90	7.59	-49.5	-52.2	20.0	6.03e-01	0	56	0	497025024	62	4861
2026-01-04 14:56:45.89	311.07	7.57	-49.4	-52.1	20.1	6.02e-01	0	55	0	499122176	62	4813
2026-01-04 14:56:46.88	311.25	7.55	-49.4	-52.1	20.1	6.02e-01	0	55	0	500695040	62	4799
2026-01-04 14:56:47.87	311.43	7.52	-49.6	-52.4	19.9	6.01e-01	0	56	0	502792192	62	4948
2026-01-04 14:56:48.86	311.61	7.50	-49.5	-52.3	20.0	6.01e-01	0	56	0	504889344	62	4884
2026-01-04 14:56:49.85	311.79	7.48	-49.4	-52.1	20.1	6.04e-01	0	56	0	506462208	62	4813
2026-01-04 14:56:50.85	311.97	7.46	-49.4	-52.0	20.2	6.04e-01	0	55	0	508559360	62	4752
2026-01-04 14:56:51.84	312.15	7.43	-49.4	-52.2	20.1	6.04e-01	0	56	0	510132224	62	4817
2026-01-04 14:56:52.83	312.32	7.41	-49.4	-52.2	20.1	6.04e-01	0	56	0	512229376	62	4822
2026-01-04 14:56:53.81	312.50	7.39	-49.5	-52.3	20.0	6.03e-01	0	56	0	513802240	62	4900
2026-01-04 14:56:54.80	312.68	7.37	-49.5	-52.3	19.9	6.02e-01	0	56	0	515899392	62	4905
2026-01-04 14:56:55.79	312.85	7.34	-49.6	-52.4	19.9	6.03e-01	0	56	0	517472256	62	4944
2026-01-04 14:56:56.77	313.03	7.32	-49.5	-52.3	19.9	6.04e-01	0	56	0	519569408	62	4896
2026-01-04 14:56:57.76	313.20	7.30	-49.4	-52.1	20.2	6.02e-01	0	55	0	521142272	62	4781
2026-01-04 14:56:58.75	313.38	7.27	-49.4	-52.1	20.2	6.01e-01	0	56	0	523239424	62	4777
2026-01-04 14:56:59.74	313.55	7.25	-49.4	-52.1	20.1	6.03e-01	0	56	0	524812288	62	4793
2026-01-04 14:57:00.73	313.73	7.22	-49.4	-52.1	20.1	6.02e-01	0	55	0	526909440	62	4811
2026-01-04 14:57:01.72	313.90	7.20	-49.4	-52.1	20.1	6.02e-01	0	56	0	529006592	62	4777
2026-01-04 14:57:02.70	314.07	7.18	-49.5	-52.2	20.0	6.02e-01	0	56	0	530579456	62	4859
2026-01-04 14:57:03.69	314.25	7.15	-49.5	-52.3	19.9	6.04e-01	0	56	0	532676608	62	4873
2026-01-04 14:57:04.68	314.42	7.13	-49.6	-52.4	19.8	6.03e-01	0	55	0	534249472	62	4953
2026-01-04 14:57:05.67	314.59	7.10	-49.5	-52.3	19.9	6.03e-01	0	56	0	536346624	62	4905
2026-01-04 14:57:06.66	314.77	7.08	-49.5	-52.3	19.9	6.02e-01	0	56	0	537919488	62	4921
2026-01-04 14:57:07.65	314.94	7.05	-49.6	-52.4	19.8	6.02e-01	0	56	0	540016640	62	4982
2026-01-04 14:57:08.64	315.11	7.02	-49.6	-52.4	19.8	6.03e-01	0	56	0	541589504	62	4977
2026-01-04 14:57:09.63	315.28	7.00	-49.7	-52.6	19.6	6.01e-01	0	56	0	543686656	62	5053
2026-01-04 14:57:10.62	315.46	6.97	-49.6	-52.5	19.6	5.99e-01	0	56	0	545259520	62	5019
2026-01-04 14:57:11.61	315.63	6.95	-49.6	-52.4	19.8	6.00e-01	0	56	0	547356672	62	4981
2026-01-04 14:57:12.59	315.80	6.92	-49.6	-52.5	19.6	6.03e-01	0	55	0	548929536	62	5021
2026-01-04 14:57:13.58	315.97	6.89	-49.6	-52.5	19.7	6.00e-01	0	56	0	551026688	62	5022
2026-01-04 14:57:14.57	316.14	6.87	-49.7	-52.6	19.5	6.02e-01	0	56	0	552599552	62	5093
2026-01-04 14:57:15.54	316.30	6.84	-49.7	-52.7	19.4	6.02e-01	0	56	0	554696704	62	5154
2026-01-04 14:57:16.54	316.48	6.81	-49.7	-52.7	19.5	6.03e-01	0	56	0	556269568	62	5130
2026-01-04 14:57:17.53	316.65	6.79	-49.6	-52.6	19.5	6.05e-01	0	55	0	558366720	62	5089
2026-01-04 14:57:18.52	316.81	6.76	-49.8	-52.9	19.3	6.03e-01	0	56	0	560463872	62	5253
2026-01-04 14:57:19.51	316.98	6.73	-49.8	-52.9	19.2	6.00e-01	0	56	0	562036736	62	5252
2026-01-04 14:57:20.51	317.15	6.70	-49.6	-52.6	19.5	6.02e-01	0	56	0	564133888	62	5063
2026-01-04 14:57:21.49	317.32	6.68	-49.4	-52.3	19.7	6.03e-01	0	56	0	565706752	62	4922
2026-01-04 14:57:22.48	317.49	6.65	-49.4	-52.3	19.8	6.02e-01	0	56	0	567803904	62	4896
2026-01-04 14:57:23.47	317.65	6.62	-49.3	-52.3	19.7	6.02e-01	0	56	0	569376768	62	4916
2026-01-04 14:57:24.45	317.82	6.59	-49.3	-52.5	19.4	6.05e-01	0	56	0	571473920	62	4991
2026-01-04 14:57:25.44	317.99	6.56	-49.3	-52.5	19.4	6.03e-01	0	56	0	573046784	62	5001
2026-01-04 14:57:26.43	318.15	6.53	-49.5	-52.6	19.3	6.02e-01	0	56	0	575143936	62	5095
2026-01-04 14:57:27.42	318.32	6.51	-49.4	-52.8	19.1	6.03e-01	0	56	0	576716800	62	5173
2026-01-04 14:57:28.40	318.48	6.48	-48.5	-52.6	18.3	6.00e-01	0	56	0	578813952	60	5672
2026-01-04 14:57:29.39	318.65	6.45	-47.2	-53.1	16.4	6.03e-01	0	56	0	580386816	58	6771
2026-01-04 14:57:30.37	318.81	6.42	-45.5	-53.0	14.7	6.04e-01	0	56	0	582483968	54	8432
2026-01-04 14:57:31.36	318.98	6.39	-44.5	-53.3	13.3	6.04e-01	0	56	0	584581120	52	9762
2026-01-04 14:57:32.36	319.14	6.36	-44.5	-53.2	13.2	6.04e-01	0	56	0	586153984	52	9703
2026-01-04 14:57:33.34	319.30	6.33	-45.6	-53.3	14.2	6.03e-01	0	56	0	588251136	53	9237
2026-01-04 14:57:34.33	319.47	6.30	-47.3	-53.4	15.9	6.04e-01	0	56	0	589824000	56	7898
2026-01-04 14:57:35.32	319.63	6.27	-48.7	-53.4	17.4	6.04e-01	0	56	0	591921152	59	6641
2026-01-04 14:57:36.31	319.79	6.24	-49.7	-53.1	18.8	6.02e-01	0	56	0	593494016	61	5686
2026-01-04 14:57:37.31	319.96	6.21	-49.9	-53.1	19.1	6.01e-01	0	56	0	595591168	62	5368
2026-01-04 14:57:38.30	320.12	6.18	-49.9	-53.2	18.9	6.03e-01	0	56	0	597164032	62	5432
2026-01-04 14:57:39.29	320.28	6.15	-50.1	-53.4	18.7	6.05e-01	0	56	0	599261184	62	5555
2026-01-04 14:57:40.28	320.44	6.12	-49.9	-53.1	19.1	6.03e-01	0	56	0	600834048	62	5363
2026-01-04 14:57:41.27	320.60	6.09	-49.8	-52.9	19.2	6.04e-01	0	56	0	602931200	62	5274
2026-01-04 14:57:42.26	320.76	6.06	-49.8	-53.0	19.1	6.00e-01	0	56	0	605028352	62	5281
2026-01-04 14:57:43.25	320.93	6.03	-49.7	-52.7	19.3	6.01e-01	0	56	0	606601216	62	5120
2026-01-04 14:57:44.24	321.09	5.99	-49.8	-52.9	19.2	6.03e-01	0	56	0	608698368	62	5227
2026-01-04 14:57:45.23	321.24	5.96	-49.8	-52.9	19.2	6.01e-01	0	56	0	610271232	62	5261
2026-01-04 14:57:46.22	321.40	5.93	-49.9	-53.1	19.0	6.04e-01	0	56	0	612368384	62	5349
2026-01-04 14:57:47.21	321.56	5.90	-49.7	-52.8	19.3	6.05e-01	0	56	0	613941248	62	5180
2026-01-04 14:57:48.19	321.72	5.87	-49.6	-52.6	19.4	6.04e-01	0	56	0	616038400	62	5096
2026-01-04 14:57:49.18	321.88	5.84	-49.6	-52.6	19.4	6.01e-01	0	56	0	617611264	62	5094
2026-01-04 14:57:50.16	322.03	5.80	-49.7	-52.8	19.3	6.02e-01	0	56	0	619708416	62	5185
2026-01-04 14:57:51.15	322.19	5.77	-49.7	-52.9	19.2	6.03e-01	0	56	0	621281280	62	5230
2026-01-04 14:57:52.14	322.35	5.74	-50.0	-53.3	18.8	6.01e-01	0	56	0	623378432	62	5471
2026-01-04 14:57:53.13	322.50	5.71	-49.9	-53.2	18.9	6.02e-01	0	56	0	624951296	62	5430
2026-01-04 14:57:54.12	322.66	5.68	-50.0	-53.3	18.7	5.99e-01	0	56	0	627048448	62	5497
2026-01-04 14:57:55.10	322.82	5.64	-49.9	-53.1	18.8	6.03e-01	0	56	0	629145600	62	5384
2026-01-04 14:57:56.09	322.97	5.61	-50.0	-53.3	18.8	6.01e-01	0	56	0	630718464	62	5485
2026-01-04 14:57:57.08	323.13	5.58	-50.0	-53.3	18.8	6.03e-01	0	56	0	632291328	62	5469
2026-01-04 14:57:58.07	323.28	5.54	-50.2	-53.6	18.5	6.05e-01	0	56	0	634388480	62	5703
2026-01-04 14:57:59.06	323.44	5.51	-50.0	-53.2	18.8	6.04e-01	0	56	0	636485632	62	5449
2026-01-04 14:58:00.05	323.59	5.48	-49.9	-53.2	18.9	6.03e-01	0	56	0	638058496	62	5412
2026-01-04 14:58:01.04	323.74	5.45	-50.1	-53.5	18.6	6.02e-01	0	56	0	640155648	62	5597
2026-01-04 14:58:02.03	323.90	5.41	-50.0	-53.4	18.6	5.99e-01	0	56	0	641728512	62	5570
2026-01-04 14:58:03.02	324.05	5.38	-50.1	-53.6	18.5	6.02e-01	0	56	0	643825664	62	5671
2026-01-04 14:58:04.00	324.20	5.34	-50.2	-53.8	18.2	6.02e-01	0	56	0	645398528	62	5827
2026-01-04 14:58:05.00	324.35	5.31	-50.1	-53.6	18.4	6.01e-01	0	56	0	647495680	62	5706
2026-01-04 14:58:05.98	324.50	5.28	-50.1	-53.5	18.5	6.02e-01	0	56	0	649068544	62	5621
2026-01-04 14:58:06.97	324.66	5.24	-50.0	-53.4	18.6	6.03e-01	0	56	0	651165696	62	5536
2026-01-04 14:58:07.96	324.81	5.21	-50.0	-53.4	18.5	6.00e-01	0	56	0	652738560	62	5590
2026-01-04 14:58:08.95	324.96	5.17	-50.1	-53.5	18.5	6.02e-01	0	56	0	654835712	62	5610
2026-01-04 14:58:09.94	325.11	5.14	-50.1	-53.5	18.5	6.03e-01	0	56	0	656408576	62	5645
2026-01-04 14:58:10.93	325.26	5.11	-49.8	-53.1	18.9	6.03e-01	0	56	0	658505728	62	5364
2026-01-04 14:58:11.92	325.41	5.07	-49.7	-52.8	19.1	6.01e-01	0	56	0	660602880	62	5202
2026-01-04 14:58:12.91	325.56	5.04	-50.4	-54.2	18.1	6.03e-01	0	56	0	662175744	62	6076
2026-01-04 14:58:13.90	325.71	5.00	-53.2	-72.4	3.8	7.42e-01	0	56	104	662700032	68	34997
2026-01-04 14:58:14.90	325.86	4.97	-49.5	-69.2	3.8	7.50e-01	0	56	104	662700032	62	34145
2026-01-04 14:58:15.89	326.00	4.93	-49.4	-69.1	3.8	7.44e-01	0	56	104	662700032	62	33958
2026-01-04 14:58:16.88	326.15	4.90	-49.5	-69.2	3.8	7.47e-01	0	56	104	662700032	61	36253
2026-01-04 14:58:17.87	326.30	4.86	-52.8	-72.6	3.8	7.44e-01	0	56	104	662700032	67	38204
2026-01-04 14:58:18.85	326.44	4.83	-53.0	-73.3	3.8	7.44e-01	0	56	104	662700032	68	38718
2026-01-04 14:58:19.84	326.59	4.79	-53.9	-73.9	3.8	7.47e-01	0	56	104	662700032	70	37062
2026-01-04 14:58:20.82	326.74	4.76	-54.1	-74.0	3.8	7.46e-01	0	56	104	662700032	70	37610
2026-01-04 14:58:21.81	326.88	4.72	-54.1	-74.1	3.8	7.46e-01	0	56	104	662700032	70	37862
2026-01-04 14:58:22.80	327.03	4.69	-54.2	-74.1	3.8	7.47e-01	0	56	104	662700032	70	38021
2026-01-04 14:58:23.80	327.17	4.65	-54.2	-74.2	3.8	7.47e-01	0	56	104	662700032	70	38284
2026-01-04 14:58:24.79	327.32	4.61	-54.2	-74.2	3.8	7.47e-01	0	56	104	662700032	70	38386
2026-01-04 14:58:25.78	327.46	4.58	-54.3	-74.2	3.8	7.46e-01	0	56	104	662700032	70	38484
2026-01-04 14:58:26.77	327.61	4.54	-54.3	-74.2	3.8	7.44e-01	0	56	104	662700032	70	38663
2026-01-04 14:58:27.76	327.75	4.51	-54.3	-74.3	3.8	7.47e-01	0	56	104	662700032	70	38762
2026-01-04 14:58:28.75	327.89	4.47	-54.3	-74.3	3.8	7.47e-01	0	56	104	662700032	70	38769
2026-01-04 14:58:29.73	328.03	4.44	-54.4	-74.3	3.8	7.46e-01	0	56	104	662700032	70	38932
2026-01-04 14:58:30.72	328.18	4.40	-54.4	-74.3	3.8	7.45e-01	0	56	104	662700032	70	38955
2026-01-04 14:58:31.72	328.32	4.36	-54.4	-74.3	3.8	7.46e-01	0	56	104	662700032	70	38917
2026-01-04 14:58:32.70	328.46	4.33	-54.4	-74.3	3.8	7.45e-01	0	56	104	662700032	70	38975
2026-01-04 14:58:33.69	328.60	4.29	-54.4	-74.3	3.8	7.48e-01	0	56	104	662700032	71	36939
2026-01-04 14:58:34.68	328.74	4.25	-54.4	-74.4	3.8	7.45e-01	0	56	104	662700032	71	36998
2026-01-04 14:58:35.67	328.88	4.22	-54.4	-74.4	3.8	7.42e-01	0	56	104	662700032	71	37020
2026-01-04 14:58:36.66	329.02	4.18	-54.4	-74.4	3.8	7.46e-01	0	56	104	662700032	71	37129
2026-01-04 14:58:37.65	329.16	4.14	-54.4	-74.4	3.8	7.45e-01	0	56	104	662700032	71	37067
2026-01-04 14:58:38.64	329.30	4.11	-54.4	-74.4	3.8	7.45e-01	0	56	104	662700032	71	37134
2026-01-04 14:58:39.63	329.44	4.07	-54.4	-74.4	3.8	7.44e-01	0	56	104	662700032	71	37132
2026-01-04 14:58:40.62	329.58	4.03	-54.4	-74.4	3.8	7.45e-01	0	56	104	662700032	71	37084
2026-01-04 14:58:41.61	329.72	4.00	-54.4	-74.4	3.8	7.45e-01	0	57	104	662700032	71	37068
2026-01-04 14:58:42.59	329.86	3.96	-54.4	-74.4	3.8	7.46e-01	0	57	104	662700032	71	36964
2026-01-04 14:58:43.58	329.99	3.92	-54.4	-74.4	3.8	7.45e-01	0	56	104	662700032	71	36995
2026-01-04 14:58:44.56	330.13	3.88	-54.4	-74.4	3.8	7.46e-01	0	56	104	662700032	71	36967
2026-01-04 14:58:45.55	330.27	3.85	-54.4	-74.3	3.8	7.45e-01	0	56	104	662700032	71	36907
2026-01-04 14:58:46.54	330.40	3.81	-54.4	-74.3	3.8	7.43e-01	0	56	104	662700032	71	36931
2026-01-04 14:58:47.53	330.54	3.77	-54.4	-74.4	3.8	7.48e-01	0	56	104	662700032	71	36951
2026-01-04 14:58:48.52	330.68	3.73	-54.4	-74.4	3.8	7.47e-01	0	56	104	662700032	71	36982
2026-01-04 14:58:49.51	330.81	3.70	-54.4	-74.4	3.8	7.40e-01	0	57	104	662700032	71	36989
2026-01-04 14:58:50.49	330.95	3.66	-54.4	-74.4	3.8	7.45e-01	0	56	104	662700032	71	36986
2026-01-04 14:58:51.48	331.08	3.62	-54.4	-74.3	3.8	7.46e-01	0	56	104	662700032	71	36930
2026-01-04 14:58:52.46	331.21	3.58	-54.4	-74.3	3.8	7.46e-01	0	56	104	662700032	71	36904
2026-01-04 14:58:53.44	331.35	3.55	-54.4	-74.3	3.8	7.46e-01	0	56	104	662700032	71	36937
2026-01-04 14:58:54.43	331.48	3.51	-54.4	-74.4	3.8	7.47e-01	0	56	104	662700032	71	36948
2026-01-04 14:58:55.40	331.61	3.47	-54.4	-74.3	3.8	7.49e-01	0	57	104	662700032	71	36901
2026-01-04 14:58:56.39	331.74	3.43	-54.4	-74.4	3.8	7.46e-01	0	57	104	662700032	71	36957
2026-01-04 14:58:57.38	331.88	3.40	-54.4	-74.4	3.8	7.43e-01	0	57	104	662700032	71	36952
2026-01-04 14:58:58.36	332.01	3.36	-54.4	-74.4	3.8	7.46e-01	0	57	104	662700032	71	36975
2026-01-04 14:58:59.34	332.14	3.32	-54.4	-74.4	3.8	7.46e-01	0	56	104	662700032	71	36975
2026-01-04 14:59:00.33	332.27	3.28	-54.4	-74.3	3.8	7.48e-01	0	56	104	662700032	71	36907
2026-01-04 14:59:01.32	332.40	3.24	-54.4	-74.4	3.8	7.43e-01	0	56	104	662700032	71	36962
2026-01-04 14:59:02.32	332.53	3.21	-54.4	-74.3	3.8	7.46e-01	0	57	104	662700032	71	36863
2026-01-04 14:59:03.31	332.66	3.17	-54.4	-74.4	3.8	7.45e-01	0	56	104	662700032	71	36964
2026-01-04 14:59:04.29	332.79	3.13	-54.4	-74.3	3.8	7.48e-01	0	56	104	662700032	71	36938
2026-01-04 14:59:05.28	332.92	3.09	-54.4	-74.4	3.8	7.45e-01	0	57	104	662700032	71	36958
2026-01-04 14:59:06.27	333.05	3.05	-54.4	-74.3	3.8	7.44e-01	0	56	104	662700032	71	36860
2026-01-04 14:59:07.27	333.18	3.01	-54.4	-74.3	3.8	7.43e-01	0	57	104	662700032	71	36888
2026-01-04 14:59:08.25	333.31	2.97	-54.4	-74.3	3.8	7.46e-01	0	57	104	662700032	71	36890
2026-01-04 14:59:09.24	333.44	2.94	-54.4	-74.3	3.8	7.44e-01	0	57	104	662700032	71	36897

#Closed at: 2026-01-04 14:59:09
#Recorded file [662 MB]: D:/Data/31026_260104_175813.dat