passes_logs/2026/01/04/R3.0SM8_Murmansk_STILSPACE/R3.0SM8_Murmansk_STILSPACE__20260104_050617_AQUA_rec.log

#Pass ID: 20260104_050617_AQUA
#Satellite: AQUA
#Configuration: AQUA
#almurnet v.1.7.20240730
#Start time: 2026-01-04 05:10:08

#Version: 2.2.20231116
#Station: R3.0SM8_Murmansk_STILSPACE
#Location: 33.092731 lon 68.902999 lat
#TLE: 1 27424U 02022A   25365.92641127  .00002078  00000+0  42628-3 0  9999
#TLE: 2 27424  98.4058 327.1196 0001962  94.7781 340.6230 14.61783896258835

#Time	Az	El	Level	Level2	SNR	BER	BlckErr	Temp	State	Recorded	gain1	gain2
2026-01-04 05:10:08.85	3.70	19.76	-52.5	-66.4	3.8	1.49e+00	0	56	0	0	67	18181
2026-01-04 05:10:09.83	3.45	19.83	-54.4	-74.4	3.8	7.43e-01	0	57	104	0	71	37086
2026-01-04 05:10:10.82	3.19	19.89	-54.5	-74.4	3.8	7.45e-01	0	57	104	0	71	37137
2026-01-04 05:10:11.82	2.94	19.96	-54.5	-74.4	3.8	7.44e-01	0	57	104	0	71	37198
2026-01-04 05:10:12.80	2.69	20.03	-54.5	-74.4	3.8	7.47e-01	0	57	104	0	71	37253
2026-01-04 05:10:13.79	2.43	20.10	-54.5	-74.4	3.8	7.45e-01	0	57	104	0	71	37228
2026-01-04 05:10:14.78	2.17	20.17	-54.5	-74.4	3.8	7.46e-01	0	57	104	0	71	37261
2026-01-04 05:10:15.76	1.92	20.23	-54.5	-74.4	3.8	7.44e-01	0	57	104	0	71	37104
2026-01-04 05:10:16.75	1.66	20.30	-54.5	-74.4	3.8	7.45e-01	0	57	104	0	71	37143
2026-01-04 05:10:17.75	1.39	20.37	-54.4	-74.4	3.8	7.45e-01	0	57	104	0	71	37031
2026-01-04 05:10:18.74	1.13	20.43	-54.4	-74.4	3.8	7.45e-01	0	57	104	0	71	37087
2026-01-04 05:10:19.73	0.87	20.50	-54.4	-74.4	3.8	7.43e-01	0	57	104	0	71	36982
2026-01-04 05:10:20.71	0.61	20.56	-54.4	-74.3	3.8	7.47e-01	0	57	104	0	71	36927
2026-01-04 05:10:21.70	0.34	20.63	-54.4	-74.3	3.8	7.44e-01	0	57	104	0	71	36822
2026-01-04 05:10:22.69	0.07	20.69	-54.4	-74.3	3.8	7.45e-01	0	57	104	0	71	36672
2026-01-04 05:10:23.68	359.80	20.75	-54.4	-74.3	3.8	7.44e-01	0	57	104	0	71	36673
2026-01-04 05:10:24.67	359.54	20.82	-54.3	-74.3	3.8	7.45e-01	0	57	104	0	71	36627
2026-01-04 05:10:25.66	359.27	20.88	-54.3	-74.2	3.8	7.43e-01	0	57	104	0	71	36521
2026-01-04 05:10:26.65	358.99	20.94	-54.3	-74.2	3.8	7.44e-01	0	57	104	0	71	36407
2026-01-04 05:10:27.65	358.72	21.01	-54.2	-74.2	3.8	7.45e-01	0	57	104	0	71	36362
2026-01-04 05:10:28.64	358.44	21.07	-54.2	-74.2	3.8	7.46e-01	0	57	104	0	71	36204
2026-01-04 05:10:29.63	358.17	21.13	-54.2	-74.1	3.8	7.47e-01	0	57	104	0	71	35946
2026-01-04 05:10:30.61	357.90	21.19	-54.1	-74.0	3.8	7.47e-01	0	57	104	0	71	35656
2026-01-04 05:10:31.60	357.62	21.25	-54.1	-74.0	3.8	7.46e-01	0	57	104	0	71	35419
2026-01-04 05:10:32.59	357.34	21.31	-54.1	-74.0	3.8	7.45e-01	0	57	104	0	71	35418
2026-01-04 05:10:33.59	357.06	21.37	-54.1	-74.0	3.8	7.43e-01	0	57	104	0	71	35332
2026-01-04 05:10:34.58	356.78	21.42	-54.1	-74.0	3.8	7.46e-01	0	57	104	0	71	35327
2026-01-04 05:10:35.56	356.50	21.48	-54.1	-74.0	3.8	7.48e-01	0	57	104	0	71	35324
2026-01-04 05:10:36.55	356.21	21.54	-54.1	-73.9	3.8	7.46e-01	0	57	104	0	71	35244
2026-01-04 05:10:37.54	355.93	21.59	-54.0	-74.0	3.8	7.43e-01	0	57	104	0	71	35307
2026-01-04 05:10:38.53	355.65	21.65	-54.1	-73.9	3.8	7.47e-01	0	57	104	0	71	35200
2026-01-04 05:10:39.52	355.36	21.70	-54.0	-73.9	3.8	7.42e-01	0	57	104	0	71	35243
2026-01-04 05:10:40.50	355.07	21.76	-54.1	-73.9	3.8	7.48e-01	0	57	104	0	71	35181
2026-01-04 05:10:41.49	354.79	21.81	-54.1	-73.9	3.8	7.47e-01	0	57	104	0	71	35258
2026-01-04 05:10:42.48	354.50	21.87	-54.1	-73.9	3.8	7.44e-01	0	57	104	0	71	35243
2026-01-04 05:10:43.47	354.21	21.92	-54.0	-73.9	3.8	7.45e-01	0	57	104	0	71	35144
2026-01-04 05:10:44.46	353.91	21.97	-54.0	-73.8	3.8	7.47e-01	0	57	104	0	71	34822
2026-01-04 05:10:45.45	353.62	22.02	-54.0	-73.8	3.8	7.47e-01	0	57	104	0	71	34619
2026-01-04 05:10:46.44	353.33	22.07	-54.0	-73.8	3.8	7.44e-01	0	57	104	0	71	34551
2026-01-04 05:10:47.44	353.03	22.12	-54.0	-73.8	3.8	7.44e-01	0	57	104	0	71	34791
2026-01-04 05:10:48.43	352.74	22.17	-54.0	-73.9	3.8	7.47e-01	0	57	104	0	71	35003
2026-01-04 05:10:49.41	352.44	22.22	-54.0	-73.9	3.8	7.48e-01	0	57	104	0	71	34926
2026-01-04 05:10:50.41	352.14	22.27	-54.0	-73.8	3.8	7.44e-01	0	57	104	0	71	34561
2026-01-04 05:10:51.40	351.84	22.32	-54.0	-73.7	3.8	7.47e-01	0	57	104	0	71	34131
2026-01-04 05:10:52.38	351.55	22.36	-54.0	-73.6	3.8	7.45e-01	0	57	104	0	71	33876
2026-01-04 05:10:53.38	351.24	22.41	-54.0	-73.6	3.8	7.46e-01	0	57	104	0	71	33795
2026-01-04 05:10:54.37	350.94	22.46	-54.0	-73.5	3.8	7.45e-01	0	57	104	0	71	33626
2026-01-04 05:10:55.36	350.64	22.50	-54.0	-73.5	3.8	7.45e-01	0	57	104	0	71	33369
2026-01-04 05:10:56.35	350.34	22.54	-54.0	-73.5	3.8	7.45e-01	0	57	104	0	71	33551
2026-01-04 05:10:57.33	350.03	22.59	-54.0	-73.7	3.8	7.47e-01	0	57	104	0	71	34221
2026-01-04 05:10:58.32	349.73	22.63	-54.0	-73.5	3.8	7.42e-01	0	57	104	0	71	33519
2026-01-04 05:10:59.31	349.42	22.67	-53.7	-71.1	3.8	7.45e-01	0	57	104	0	70	26961
2026-01-04 05:11:00.30	349.12	22.71	-52.8	-68.1	3.8	7.45e-01	0	57	104	0	69	20136
2026-01-04 05:11:01.29	348.81	22.75	-51.5	-64.9	3.8	7.44e-01	0	57	104	0	66	16578
2026-01-04 05:11:02.28	348.50	22.79	-50.3	-62.7	3.8	7.45e-01	0	57	104	0	64	14471
2026-01-04 05:11:03.27	348.19	22.83	-50.1	-62.3	3.8	7.49e-01	0	57	104	0	63	14550
2026-01-04 05:11:04.26	347.88	22.87	-50.0	-62.2	3.8	7.45e-01	0	57	104	0	63	14470
2026-01-04 05:11:05.25	347.57	22.90	-50.1	-62.3	3.8	7.43e-01	0	57	104	0	63	14575
2026-01-04 05:11:06.24	347.26	22.94	-50.2	-62.4	3.8	7.47e-01	0	57	104	0	63	14823
2026-01-04 05:11:07.23	346.95	22.97	-50.4	-62.8	3.8	7.46e-01	0	57	104	0	63	15480
2026-01-04 05:11:08.23	346.63	23.01	-50.6	-63.1	3.8	7.44e-01	0	57	104	0	63	16074
2026-01-04 05:11:09.23	346.31	23.04	-50.8	-63.5	3.9	7.45e-01	0	57	104	0	64	15912
2026-01-04 05:11:10.22	346.00	23.07	-51.2	-64.2	3.8	7.42e-01	0	57	104	0	64	17208
2026-01-04 05:11:11.20	345.69	23.11	-51.5	-64.8	3.8	7.45e-01	0	57	104	0	65	17413
2026-01-04 05:11:12.20	345.37	23.14	-51.9	-65.8	3.9	7.43e-01	0	57	104	0	66	18397
2026-01-04 05:11:13.19	345.05	23.17	-52.2	-66.5	3.8	7.45e-01	0	57	104	0	66	19890
2026-01-04 05:11:14.17	344.74	23.20	-52.7	-67.5	3.8	7.46e-01	0	57	104	0	67	21229
2026-01-04 05:11:15.16	344.42	23.22	-52.9	-68.3	3.8	7.45e-01	0	57	104	0	68	21890
2026-01-04 05:11:16.15	344.10	23.25	-52.7	-67.6	3.8	7.40e-01	0	57	104	0	68	20157
2026-01-04 05:11:17.15	343.78	23.28	-52.8	-67.9	3.8	7.46e-01	0	57	104	0	68	20958
2026-01-04 05:11:18.14	343.46	23.30	-52.6	-67.2	3.8	7.48e-01	0	57	104	0	68	19285
2026-01-04 05:11:19.13	343.14	23.33	-52.4	-66.7	3.8	7.45e-01	0	57	104	0	68	18291
2026-01-04 05:11:20.12	342.82	23.35	-52.3	-66.4	3.8	7.43e-01	0	57	104	0	68	17648
2026-01-04 05:11:21.11	342.50	23.37	-52.1	-66.2	3.8	7.43e-01	0	57	104	0	67	18224
2026-01-04 05:11:22.10	342.18	23.40	-52.0	-66.0	3.8	7.45e-01	0	57	104	0	67	17781
2026-01-04 05:11:23.09	341.86	23.42	-51.6	-64.9	3.8	7.48e-01	0	57	104	0	66	16657
2026-01-04 05:11:24.08	341.53	23.44	-51.0	-63.9	3.8	7.45e-01	0	57	104	0	65	15636
2026-01-04 05:11:25.07	341.21	23.46	-50.6	-63.1	3.8	7.48e-01	0	57	104	0	64	15091
2026-01-04 05:11:26.06	340.89	23.47	-50.2	-62.6	3.8	7.47e-01	0	57	104	0	64	14299
2026-01-04 05:11:27.05	340.56	23.49	-49.9	-62.0	3.8	7.44e-01	0	57	104	0	63	14175
2026-01-04 05:11:28.03	340.24	23.51	-49.6	-61.5	3.8	7.46e-01	0	57	104	0	62	14145
2026-01-04 05:11:29.02	339.92	23.52	-49.6	-61.5	3.8	7.48e-01	0	57	104	0	62	14133
2026-01-04 05:11:30.00	339.60	23.54	-49.7	-61.7	3.8	7.48e-01	0	57	104	0	62	14484
2026-01-04 05:11:31.00	339.27	23.55	-49.9	-62.0	3.8	7.45e-01	0	57	104	0	62	14978
2026-01-04 05:11:31.99	338.94	23.56	-50.1	-62.3	3.8	7.46e-01	0	57	104	0	62	15543
2026-01-04 05:11:32.98	338.62	23.58	-50.5	-62.9	3.8	7.45e-01	0	57	104	0	63	15609
2026-01-04 05:11:33.97	338.29	23.59	-50.8	-63.4	3.8	7.47e-01	0	57	104	0	63	16624
2026-01-04 05:11:34.96	337.97	23.60	-50.7	-63.2	3.8	7.44e-01	0	57	104	0	63	16184
2026-01-04 05:11:35.95	337.64	23.60	-50.7	-63.2	3.8	7.41e-01	0	57	104	0	63	16270
2026-01-04 05:11:36.94	337.31	23.61	-50.7	-63.2	3.8	7.45e-01	0	57	104	0	63	16147
2026-01-04 05:11:37.93	336.99	23.62	-50.7	-63.3	3.8	7.45e-01	0	57	104	0	63	16470
2026-01-04 05:11:38.92	336.66	23.62	-50.6	-63.2	3.8	7.45e-01	0	57	104	0	63	16217
2026-01-04 05:11:39.92	336.33	23.63	-50.7	-63.2	3.8	7.43e-01	0	57	104	0	63	16168
2026-01-04 05:11:40.91	336.00	23.63	-50.8	-63.4	3.8	7.41e-01	0	57	104	0	63	16518
2026-01-04 05:11:41.90	335.68	23.64	-51.0	-64.0	3.8	7.48e-01	0	57	104	0	64	16696
2026-01-04 05:11:42.90	335.35	23.64	-50.6	-63.2	3.8	7.41e-01	0	57	104	0	64	15284
2026-01-04 05:11:43.88	335.02	23.64	-50.2	-62.6	3.8	7.44e-01	0	57	104	0	64	14285
2026-01-04 05:11:44.87	334.69	23.64	-49.9	-61.9	3.8	7.43e-01	0	57	104	0	63	13963
2026-01-04 05:11:45.85	334.37	23.64	-49.5	-61.3	3.8	7.43e-01	0	57	104	0	62	13838
2026-01-04 05:11:46.85	334.04	23.64	-49.2	-61.0	3.8	7.45e-01	0	57	104	0	62	13317
2026-01-04 05:11:47.83	333.72	23.63	-49.3	-61.1	3.8	7.46e-01	0	57	104	0	62	13429
2026-01-04 05:11:48.82	333.39	23.63	-49.6	-61.4	3.8	7.44e-01	0	57	104	0	62	14025
2026-01-04 05:11:49.81	333.06	23.62	-49.7	-61.7	3.8	7.46e-01	0	57	104	0	62	14389
2026-01-04 05:11:50.80	332.74	23.62	-50.0	-61.9	3.8	7.45e-01	0	57	104	0	62	14872
2026-01-04 05:11:51.79	332.41	23.61	-50.2	-62.5	3.8	7.45e-01	0	57	104	0	62	15818
2026-01-04 05:11:52.78	332.08	23.60	-50.6	-63.0	3.8	7.46e-01	0	57	104	0	63	15791
2026-01-04 05:11:53.77	331.76	23.60	-50.5	-62.9	3.8	7.46e-01	0	57	104	0	63	15595
2026-01-04 05:11:54.77	331.43	23.59	-50.5	-62.8	3.8	7.40e-01	0	57	104	0	63	15536
2026-01-04 05:11:55.76	331.10	23.57	-50.6	-63.0	3.8	7.46e-01	0	57	104	0	63	15777
2026-01-04 05:11:56.75	330.78	23.56	-50.7	-63.1	3.8	7.43e-01	0	57	104	0	63	16108
2026-01-04 05:11:57.74	330.45	23.55	-50.8	-63.5	3.8	7.47e-01	0	57	104	0	63	16790
2026-01-04 05:11:58.72	330.13	23.54	-50.9	-63.6	3.8	7.44e-01	0	57	104	0	64	16043
2026-01-04 05:11:59.72	329.80	23.52	-51.2	-64.1	3.8	7.45e-01	0	57	104	0	64	16936
2026-01-04 05:12:00.71	329.48	23.51	-51.6	-64.8	3.8	7.47e-01	0	57	104	0	65	17342
2026-01-04 05:12:01.70	329.15	23.49	-52.0	-65.7	3.8	7.48e-01	0	57	104	0	66	18218
2026-01-04 05:12:02.69	328.83	23.47	-52.4	-67.1	3.8	7.39e-01	0	57	104	0	67	20244
2026-01-04 05:12:03.68	328.50	23.45	-52.3	-66.4	3.8	7.45e-01	0	57	104	0	67	18728
2026-01-04 05:12:04.67	328.18	23.44	-51.8	-65.3	3.8	7.44e-01	0	57	104	0	67	16398
2026-01-04 05:12:05.66	327.86	23.42	-51.5	-64.6	3.8	7.44e-01	0	57	104	0	66	16062
2026-01-04 05:12:06.66	327.53	23.39	-51.5	-64.9	3.8	7.45e-01	0	57	104	0	66	16589
2026-01-04 05:12:07.65	327.21	23.37	-51.3	-64.3	3.8	7.43e-01	0	57	104	0	66	15438
2026-01-04 05:12:08.64	326.89	23.35	-51.1	-63.8	3.8	7.46e-01	0	57	104	0	65	15546
2026-01-04 05:12:09.63	326.57	23.33	-51.0	-64.0	3.8	7.43e-01	0	57	104	0	65	15853
2026-01-04 05:12:10.61	326.25	23.30	-50.8	-63.5	3.8	7.42e-01	0	57	104	0	65	14987
2026-01-04 05:12:11.60	325.93	23.28	-50.7	-63.0	3.8	7.43e-01	0	57	104	0	65	14093
2026-01-04 05:12:12.59	325.61	23.25	-50.4	-62.8	3.8	7.44e-01	0	57	104	0	64	14635
2026-01-04 05:12:13.58	325.30	23.22	-50.2	-62.6	3.8	7.41e-01	0	57	104	0	63	15115
2026-01-04 05:12:14.58	324.97	23.19	-50.0	-62.1	3.8	7.45e-01	0	57	104	0	63	14314
2026-01-04 05:12:15.57	324.66	23.16	-49.7	-61.4	3.8	7.45e-01	0	57	104	0	63	13250
2026-01-04 05:12:16.56	324.34	23.13	-49.4	-61.1	3.8	7.43e-01	0	57	104	0	62	13469
2026-01-04 05:12:17.55	324.03	23.10	-49.3	-61.2	3.8	7.44e-01	0	57	104	0	62	13677
2026-01-04 05:12:18.53	323.71	23.07	-49.3	-61.0	3.8	7.42e-01	0	57	104	0	62	13265
2026-01-04 05:12:19.52	323.40	23.04	-49.5	-61.2	3.8	7.44e-01	0	57	104	0	62	13663
2026-01-04 05:12:20.51	323.08	23.00	-49.8	-62.0	3.8	7.46e-01	0	57	104	0	62	14953
2026-01-04 05:12:21.50	322.77	22.97	-50.1	-62.2	3.8	7.44e-01	0	57	104	0	62	15231
2026-01-04 05:12:22.49	322.46	22.94	-50.5	-62.4	3.8	7.46e-01	0	57	104	0	63	14873
2026-01-04 05:12:23.48	322.15	22.90	-50.9	-64.1	3.8	7.46e-01	0	57	104	0	64	17033
2026-01-04 05:12:24.48	321.83	22.86	-51.1	-64.3	3.8	7.47e-01	0	57	104	0	64	17380
2026-01-04 05:12:25.47	321.52	22.82	-51.1	-63.4	3.8	7.44e-01	0	57	104	0	64	15585
2026-01-04 05:12:26.45	321.22	22.79	-51.2	-64.3	3.8	7.44e-01	0	57	104	0	64	17454
2026-01-04 05:12:27.44	320.91	22.75	-51.2	-64.4	3.8	7.45e-01	0	57	104	0	64	17552
2026-01-04 05:12:28.42	320.60	22.71	-51.2	-63.7	3.8	7.44e-01	0	57	104	0	64	16252
2026-01-04 05:12:29.41	320.30	22.67	-51.2	-64.8	3.8	7.45e-01	0	57	104	0	64	18452
2026-01-04 05:12:30.40	319.99	22.63	-51.1	-64.5	3.8	7.49e-01	0	57	104	0	64	17778
2026-01-04 05:12:31.39	319.68	22.58	-51.2	-63.1	3.8	7.45e-01	0	57	104	0	64	15063
2026-01-04 05:12:32.38	319.38	22.54	-51.4	-64.6	3.8	7.45e-01	0	57	104	0	65	16976
2026-01-04 05:12:33.37	319.08	22.50	-51.0	-64.4	3.8	7.45e-01	0	57	104	0	65	16585
2026-01-04 05:12:34.36	318.77	22.45	-50.6	-63.1	3.8	7.43e-01	0	57	104	0	64	15148
2026-01-04 05:12:35.35	318.47	22.41	-50.3	-63.0	3.8	7.47e-01	0	57	104	0	64	14991
2026-01-04 05:12:36.35	318.17	22.36	-50.1	-62.0	3.8	7.45e-01	0	57	104	0	63	14059
2026-01-04 05:12:37.34	317.87	22.31	-49.8	-61.0	3.8	7.47e-01	0	57	104	0	63	12662
2026-01-04 05:12:38.34	317.57	22.27	-49.8	-62.4	3.8	7.43e-01	0	57	104	0	63	14765
2026-01-04 05:12:39.32	317.27	22.22	-50.0	-62.6	3.8	7.42e-01	0	57	104	0	63	15140
2026-01-04 05:12:40.31	316.98	22.17	-50.3	-62.1	3.9	7.41e-01	0	57	104	0	63	14347
2026-01-04 05:12:41.30	316.68	22.12	-50.6	-63.5	3.8	7.47e-01	0	57	104	0	63	16723
2026-01-04 05:12:42.29	316.39	22.07	-50.2	-53.0	19.3	6.03e-01	0	57	104	0	63	4997
2026-01-04 05:12:43.28	316.09	22.02	-50.0	-52.6	20.0	6.02e-01	0	57	0	1572864	63	4776
2026-01-04 05:12:44.26	315.80	21.97	-50.4	-53.4	19.6	6.03e-01	0	57	0	3145728	63	5254
2026-01-04 05:12:45.26	315.51	21.91	-49.8	-52.2	20.7	6.04e-01	0	57	0	5242880	62	4869
2026-01-04 05:12:46.25	315.22	21.86	-49.8	-52.3	20.6	6.02e-01	0	57	0	7340032	62	4919
2026-01-04 05:12:47.24	314.93	21.81	-49.7	-52.2	20.8	6.04e-01	0	57	0	8912896	62	4841
2026-01-04 05:12:48.24	314.63	21.75	-50.2	-53.1	19.9	6.01e-01	0	57	0	11010048	62	5348
2026-01-04 05:12:49.22	314.35	21.70	-49.9	-52.4	20.6	6.00e-01	0	57	0	12582912	62	4968
2026-01-04 05:12:50.21	314.06	21.64	-49.3	-51.5	21.3	6.02e-01	0	57	0	14680064	62	4488
2026-01-04 05:12:51.21	313.78	21.59	-50.0	-52.6	20.4	6.01e-01	0	57	0	16252928	62	5073
2026-01-04 05:12:52.19	313.49	21.53	-49.9	-52.4	20.5	6.03e-01	0	57	0	18350080	62	4981
2026-01-04 05:12:53.18	313.21	21.47	-50.1	-52.8	20.2	6.01e-01	0	57	0	19922944	62	5191
2026-01-04 05:12:54.18	312.93	21.42	-50.2	-52.9	19.2	6.01e-01	0	57	0	22020096	62	5269
2026-01-04 05:12:55.17	312.64	21.36	-49.9	-52.4	20.5	6.01e-01	0	57	0	23592960	62	4975
2026-01-04 05:12:56.15	312.37	21.30	-50.1	-52.9	20.1	6.05e-01	0	57	0	25690112	62	5235
2026-01-04 05:12:57.14	312.09	21.24	-50.2	-52.9	19.9	6.03e-01	0	57	0	27262976	62	5270
2026-01-04 05:12:58.14	311.81	21.18	-50.2	-53.1	19.9	6.02e-01	0	57	0	29360128	62	5353
2026-01-04 05:12:59.13	311.53	21.12	-49.8	-52.2	20.7	6.05e-01	0	57	0	31457280	62	4867
2026-01-04 05:13:00.12	311.26	21.06	-50.3	-53.3	19.7	6.03e-01	0	57	0	33030144	62	5480
2026-01-04 05:13:01.11	310.98	21.00	-49.9	-52.5	20.5	6.04e-01	0	57	0	35127296	62	4988
2026-01-04 05:13:02.11	310.71	20.93	-50.1	-52.9	19.9	6.02e-01	0	57	0	36700160	63	4961
2026-01-04 05:13:03.09	310.44	20.87	-50.3	-53.2	19.8	6.03e-01	0	57	0	38797312	63	5119
2026-01-04 05:13:04.08	310.17	20.81	-50.1	-52.8	20.2	6.05e-01	0	57	0	40370176	63	4872
2026-01-04 05:13:05.07	309.90	20.75	-50.0	-52.7	20.2	6.04e-01	0	57	0	42467328	63	4831
2026-01-04 05:13:06.06	309.63	20.68	-49.7	-52.1	20.8	6.03e-01	0	57	0	44040192	62	4801
2026-01-04 05:13:07.05	309.36	20.62	-49.2	-51.4	21.4	6.01e-01	0	57	0	46137344	62	4426
2026-01-04 05:13:08.04	309.10	20.55	-49.4	-51.8	21.1	6.01e-01	0	57	0	47710208	61	4921
2026-01-04 05:13:09.03	308.83	20.49	-48.9	-50.9	22.0	6.02e-01	0	57	0	49807360	61	4433
2026-01-04 05:13:10.03	308.56	20.42	-49.7	-52.3	20.5	6.06e-01	0	57	0	51904512	61	5188
2026-01-04 05:13:11.01	308.30	20.36	-49.2	-51.4	21.4	6.05e-01	0	57	0	53477376	61	4704
2026-01-04 05:13:12.01	308.04	20.29	-49.2	-51.4	21.2	6.07e-01	0	57	0	55574528	62	4396
2026-01-04 05:13:13.00	307.78	20.22	-49.5	-51.9	20.9	6.01e-01	0	57	0	57147392	61	4966
2026-01-04 05:13:13.99	307.52	20.16	-48.8	-50.8	21.9	6.02e-01	0	57	0	59244544	61	4351
2026-01-04 05:13:14.98	307.26	20.09	-49.7	-52.3	20.6	6.04e-01	0	57	0	60817408	61	5188
2026-01-04 05:13:15.97	307.01	20.02	-48.9	-50.9	22.0	6.04e-01	0	57	0	62914560	61	4422
2026-01-04 05:13:16.95	306.76	19.95	-49.8	-52.4	20.5	6.01e-01	0	57	0	64487424	61	5229
2026-01-04 05:13:17.94	306.50	19.88	-48.9	-51.0	21.9	6.04e-01	0	57	0	66584576	61	4477
2026-01-04 05:13:18.93	306.25	19.81	-49.1	-51.3	21.5	6.04e-01	0	57	0	68157440	61	4619
2026-01-04 05:13:19.93	305.99	19.74	-49.0	-51.2	21.7	6.04e-01	0	57	0	70254592	61	4551
2026-01-04 05:13:20.92	305.74	19.67	-49.3	-51.5	21.2	6.02e-01	0	57	0	72351744	61	4757
2026-01-04 05:13:21.91	305.50	19.60	-49.3	-51.6	21.3	6.03e-01	0	57	0	73924608	61	4781
2026-01-04 05:13:22.90	305.25	19.53	-48.6	-50.6	22.1	6.04e-01	0	57	0	76021760	60	4494
2026-01-04 05:13:23.89	305.00	19.46	-49.0	-51.2	21.6	6.01e-01	0	57	0	77594624	60	4840
2026-01-04 05:13:24.87	304.76	19.39	-48.5	-50.4	22.3	6.04e-01	0	57	0	79691776	60	4430
2026-01-04 05:13:25.86	304.51	19.32	-49.1	-51.4	21.5	6.02e-01	0	57	0	81264640	60	4947
2026-01-04 05:13:26.85	304.27	19.25	-48.6	-50.5	22.2	6.03e-01	0	57	0	83361792	60	4465
2026-01-04 05:13:27.84	304.03	19.18	-48.9	-51.0	21.9	6.04e-01	0	57	0	84934656	60	4725
2026-01-04 05:13:28.82	303.79	19.11	-48.8	-50.8	22.0	6.01e-01	0	57	0	87031808	60	4636
2026-01-04 05:13:29.81	303.55	19.03	-48.8	-50.8	22.0	6.01e-01	0	57	0	88604672	60	4645
2026-01-04 05:13:30.80	303.31	18.96	-49.0	-51.2	21.6	6.04e-01	0	57	0	90701824	60	4842
2026-01-04 05:13:31.78	303.08	18.89	-48.9	-51.0	21.8	6.04e-01	0	57	0	92274688	60	4755
2026-01-04 05:13:32.77	302.84	18.81	-48.9	-51.0	21.9	6.04e-01	0	57	0	94371840	60	4719
2026-01-04 05:13:33.76	302.61	18.74	-49.0	-51.2	21.7	6.03e-01	0	57	0	95944704	60	4817
2026-01-04 05:13:34.75	302.37	18.67	-48.9	-51.0	21.8	6.04e-01	0	57	0	98041856	60	4736
2026-01-04 05:13:35.75	302.14	18.59	-48.8	-50.9	22.0	6.02e-01	0	57	0	100139008	60	4670
2026-01-04 05:13:36.74	301.91	18.52	-48.7	-50.8	22.1	6.02e-01	0	57	0	101711872	60	4605
2026-01-04 05:13:37.73	301.68	18.44	-49.1	-51.3	21.5	6.05e-01	0	57	0	103809024	60	4922
2026-01-04 05:13:38.72	301.45	18.37	-48.9	-51.1	21.7	6.02e-01	0	57	0	105381888	60	4771
2026-01-04 05:13:39.71	301.22	18.29	-48.7	-50.7	22.1	6.03e-01	0	57	0	107479040	60	4570
2026-01-04 05:13:40.70	301.00	18.22	-48.9	-51.0	21.8	6.04e-01	0	57	0	109051904	60	4735
2026-01-04 05:13:41.69	300.77	18.14	-48.3	-50.1	22.6	6.03e-01	0	57	0	111149056	60	4287
2026-01-04 05:13:42.68	300.55	18.07	-48.8	-50.9	21.8	6.01e-01	0	57	0	112721920	60	4691
2026-01-04 05:13:43.67	300.33	17.99	-48.9	-51.1	21.6	6.04e-01	0	57	0	114819072	60	4785
2026-01-04 05:13:44.67	300.10	17.92	-48.4	-50.2	22.5	6.03e-01	0	57	0	116391936	60	4335
2026-01-04 05:13:45.67	299.88	17.84	-49.1	-51.3	21.5	6.02e-01	0	57	0	118489088	60	4921
2026-01-04 05:13:46.66	299.66	17.76	-48.7	-50.8	22.0	6.03e-01	0	57	0	120586240	60	4633
2026-01-04 05:13:47.64	299.44	17.69	-48.6	-50.7	22.1	6.03e-01	0	57	0	122159104	60	4551
2026-01-04 05:13:48.64	299.23	17.61	-48.6	-50.6	22.2	6.03e-01	0	57	0	124256256	60	4520
2026-01-04 05:13:49.63	299.01	17.54	-48.6	-50.6	22.1	6.04e-01	0	57	0	125829120	60	4536
2026-01-04 05:13:50.61	298.80	17.46	-48.6	-50.6	22.2	6.02e-01	0	57	0	127926272	60	4519
2026-01-04 05:13:51.61	298.58	17.38	-48.6	-50.6	22.1	6.04e-01	0	57	0	129499136	60	4530
2026-01-04 05:13:52.60	298.37	17.30	-48.6	-50.5	22.2	6.04e-01	0	57	0	131596288	60	4491
2026-01-04 05:13:53.59	298.16	17.23	-49.0	-51.3	21.6	6.02e-01	0	57	0	133169152	60	4873
2026-01-04 05:13:54.58	297.95	17.15	-48.9	-51.1	21.6	6.01e-01	0	57	0	135266304	60	4807
2026-01-04 05:13:55.57	297.74	17.07	-48.4	-50.3	22.4	6.02e-01	0	57	0	136839168	60	4366
2026-01-04 05:13:56.56	297.53	17.00	-48.4	-50.4	22.4	6.03e-01	0	57	0	138936320	60	4393
2026-01-04 05:13:57.55	297.33	16.92	-48.8	-51.0	21.8	6.03e-01	0	57	0	141033472	60	4711
2026-01-04 05:13:58.54	297.12	16.84	-48.4	-50.4	22.4	6.04e-01	0	57	0	142606336	60	4393
2026-01-04 05:13:59.53	296.92	16.76	-48.4	-50.3	22.4	6.00e-01	0	57	0	144703488	60	4368
2026-01-04 05:14:00.52	296.72	16.69	-48.6	-50.7	22.1	6.03e-01	0	57	0	146276352	60	4564
2026-01-04 05:14:01.50	296.52	16.61	-48.4	-50.3	22.4	6.04e-01	0	57	0	148373504	60	4360
2026-01-04 05:14:02.50	296.31	16.53	-48.5	-50.4	22.6	6.02e-01	0	57	0	149946368	59	4682
2026-01-04 05:14:03.48	296.12	16.45	-48.9	-51.0	22.1	6.01e-01	0	57	0	152043520	59	5002
2026-01-04 05:14:04.47	295.92	16.37	-48.5	-50.5	22.1	6.04e-01	0	57	0	153616384	60	4493
2026-01-04 05:14:05.46	295.72	16.30	-48.3	-50.3	22.4	6.03e-01	0	57	0	155713536	60	4344
2026-01-04 05:14:06.45	295.52	16.22	-48.6	-50.6	22.1	6.03e-01	0	57	0	157286400	60	4506
2026-01-04 05:14:07.44	295.33	16.14	-48.7	-50.8	21.9	6.01e-01	0	57	0	159383552	60	4615
2026-01-04 05:14:08.43	295.13	16.06	-48.4	-50.3	22.3	6.04e-01	0	57	0	160956416	60	4391
2026-01-04 05:14:09.42	294.94	15.98	-48.4	-50.3	22.4	6.02e-01	0	57	0	163053568	60	4362
2026-01-04 05:14:10.42	294.75	15.91	-48.4	-50.4	22.3	6.03e-01	0	57	0	165150720	60	4424
2026-01-04 05:14:11.41	294.56	15.83	-48.6	-50.7	22.0	6.02e-01	0	57	0	166723584	60	4551
2026-01-04 05:14:12.40	294.37	15.75	-48.3	-50.2	22.4	6.00e-01	0	57	0	168820736	60	4321
2026-01-04 05:14:13.39	294.18	15.67	-48.6	-50.5	22.5	6.05e-01	0	57	0	170393600	59	4728
2026-01-04 05:14:14.38	293.99	15.59	-48.6	-50.6	22.1	6.03e-01	0	57	0	172490752	60	4530
2026-01-04 05:14:15.37	293.80	15.51	-48.8	-51.0	21.7	6.03e-01	0	57	0	174063616	60	4724
2026-01-04 05:14:16.37	293.62	15.43	-48.6	-50.7	21.8	6.02e-01	0	57	0	176160768	60	4590
2026-01-04 05:14:17.36	293.43	15.36	-48.3	-50.2	22.3	6.03e-01	0	57	0	177733632	60	4332
2026-01-04 05:14:18.35	293.25	15.28	-48.6	-50.7	21.9	6.05e-01	0	57	0	179830784	60	4552
2026-01-04 05:14:19.35	293.06	15.20	-48.7	-50.8	21.7	6.03e-01	0	57	0	181927936	60	4642
2026-01-04 05:14:20.33	292.89	15.12	-48.5	-50.6	21.9	6.02e-01	0	57	0	183500800	60	4521
2026-01-04 05:14:21.32	292.70	15.04	-48.6	-50.8	21.7	6.02e-01	0	57	0	185597952	60	4604
2026-01-04 05:14:22.31	292.53	14.96	-49.1	-51.5	20.9	6.03e-01	0	57	0	187170816	60	5012
2026-01-04 05:14:23.30	292.35	14.89	-49.3	-51.9	20.5	6.02e-01	0	57	0	189267968	60	5271
2026-01-04 05:14:24.28	292.17	14.81	-49.2	-51.8	20.4	6.03e-01	0	57	0	190840832	60	5202
2026-01-04 05:14:25.27	292.00	14.73	-49.1	-51.5	20.7	6.01e-01	0	57	0	192937984	60	5027
2026-01-04 05:14:26.26	291.82	14.65	-49.3	-52.0	20.2	6.02e-01	0	57	0	194510848	60	5283
2026-01-04 05:14:27.25	291.65	14.57	-49.7	-52.9	19.3	6.02e-01	0	57	0	196608000	61	5530
2026-01-04 05:14:28.24	291.47	14.49	-49.9	-53.3	18.7	6.05e-01	0	57	0	198180864	62	5465
2026-01-04 05:14:29.23	291.30	14.42	-49.9	-53.2	18.6	6.02e-01	0	57	0	200278016	62	5411
2026-01-04 05:14:30.21	291.13	14.34	-49.9	-53.4	18.4	6.01e-01	0	57	0	201850880	62	5553
2026-01-04 05:14:31.19	290.96	14.26	-50.1	-53.8	17.9	6.04e-01	0	57	0	203948032	62	5802
2026-01-04 05:14:32.19	290.79	14.18	-50.4	-54.7	16.8	6.02e-01	0	57	0	205520896	62	6444
2026-01-04 05:14:33.18	290.62	14.10	-50.5	-55.1	16.4	6.05e-01	0	57	0	207618048	63	6376
2026-01-04 05:14:34.16	290.46	14.03	-50.5	-55.2	16.1	6.02e-01	0	57	0	209190912	63	6428
2026-01-04 05:14:35.15	290.29	13.95	-50.2	-54.6	16.7	6.03e-01	0	57	0	211288064	63	6001
2026-01-04 05:14:36.15	290.12	13.87	-50.2	-54.6	16.7	6.05e-01	0	57	0	213385216	63	6003
2026-01-04 05:14:37.13	289.96	13.79	-50.4	-55.1	16.1	6.01e-01	0	57	0	214958080	63	6414
2026-01-04 05:14:38.12	289.80	13.72	-50.6	-55.7	15.4	6.05e-01	0	57	0	217055232	63	6866
2026-01-04 05:14:39.11	289.63	13.64	-50.6	-56.1	15.1	6.02e-01	0	57	0	218628096	63	7125
2026-01-04 05:14:40.10	289.47	13.56	-50.6	-56.0	15.0	6.04e-01	0	57	0	220725248	63	7099
2026-01-04 05:14:41.09	289.31	13.48	-50.5	-55.6	15.4	6.03e-01	0	57	0	222298112	63	6776
2026-01-04 05:14:42.08	289.15	13.40	-50.5	-55.7	15.2	6.04e-01	0	57	0	224395264	63	6863
2026-01-04 05:14:43.07	288.99	13.33	-50.7	-56.3	14.6	6.04e-01	0	57	0	225968128	63	7349
2026-01-04 05:14:44.06	288.83	13.25	-50.7	-56.7	14.2	6.02e-01	0	57	0	228065280	63	7673
2026-01-04 05:14:45.05	288.68	13.17	-50.9	-57.3	13.5	6.07e-01	0	57	0	229638144	63	8246
2026-01-04 05:14:46.04	288.52	13.09	-50.8	-57.4	13.3	6.04e-01	0	57	0	231735296	64	7846
2026-01-04 05:14:47.03	288.37	13.02	-50.7	-57.2	13.4	6.04e-01	0	57	0	233832448	64	7696
2026-01-04 05:14:48.01	288.21	12.94	-50.7	-57.3	13.4	6.06e-01	0	57	0	235405312	64	7726
2026-01-04 05:14:49.00	288.06	12.86	-50.7	-57.1	13.5	6.03e-01	0	57	0	237502464	64	7585
2026-01-04 05:14:49.98	287.91	12.79	-50.7	-57.4	13.2	6.04e-01	0	57	0	239075328	64	7853
2026-01-04 05:14:50.97	287.76	12.71	-50.8	-57.7	12.8	6.08e-01	0	57	0	241172480	64	8155
2026-01-04 05:14:51.97	287.60	12.63	-50.8	-58.1	12.5	6.06e-01	0	57	0	242745344	64	8484
2026-01-04 05:14:52.95	287.45	12.56	-50.9	-58.4	12.1	6.11e-01	0	57	0	244842496	64	8816
2026-01-04 05:14:53.95	287.30	12.48	-50.9	-58.1	12.4	6.07e-01	0	57	0	246415360	64	8508
2026-01-04 05:14:54.94	287.16	12.40	-50.8	-57.6	12.9	6.07e-01	0	57	0	248512512	64	8035
2026-01-04 05:14:55.92	287.01	12.33	-50.7	-57.2	13.4	6.06e-01	0	57	0	250085376	64	7674
2026-01-04 05:14:56.91	286.86	12.25	-50.6	-56.7	14.0	6.03e-01	0	57	0	252182528	64	7223
2026-01-04 05:14:57.89	286.72	12.17	-50.5	-56.3	14.3	6.03e-01	0	57	0	253755392	64	6955
2026-01-04 05:14:58.88	286.57	12.10	-50.5	-56.2	14.6	6.03e-01	0	57	0	255852544	64	6819
2026-01-04 05:14:59.88	286.43	12.02	-50.5	-56.2	14.5	6.03e-01	0	57	0	257425408	64	6866
2026-01-04 05:15:00.87	286.28	11.94	-50.5	-55.9	14.9	6.03e-01	0	57	0	259522560	64	6639
2026-01-04 05:15:01.87	286.14	11.87	-50.4	-55.6	15.4	6.02e-01	0	57	0	261619712	64	6358
2026-01-04 05:15:02.86	286.00	11.79	-50.3	-55.1	15.9	6.02e-01	0	57	0	263192576	64	6059
2026-01-04 05:15:03.85	285.86	11.72	-50.2	-54.7	16.5	6.02e-01	0	57	0	265289728	64	5786
2026-01-04 05:15:04.85	285.71	11.64	-50.2	-54.5	16.8	6.05e-01	0	57	0	266862592	64	5634
2026-01-04 05:15:05.84	285.57	11.56	-50.3	-54.5	17.0	6.04e-01	0	57	0	268959744	64	5638
2026-01-04 05:15:06.82	285.44	11.49	-50.2	-54.1	17.5	6.01e-01	0	57	0	270532608	63	5708
2026-01-04 05:15:07.81	285.30	11.41	-50.0	-53.6	18.0	6.04e-01	0	57	0	272629760	63	5394
2026-01-04 05:15:08.80	285.16	11.34	-49.8	-53.3	18.5	6.03e-01	0	57	0	274202624	63	5174
2026-01-04 05:15:09.79	285.03	11.26	-49.9	-53.2	18.5	6.03e-01	0	57	0	276299776	63	5159
2026-01-04 05:15:10.78	284.89	11.19	-49.9	-53.4	18.5	6.01e-01	0	57	0	277872640	63	5229
2026-01-04 05:15:11.77	284.75	11.11	-49.9	-53.3	18.6	6.03e-01	0	57	0	279969792	63	5177
2026-01-04 05:15:12.76	284.62	11.04	-49.8	-53.1	18.8	6.02e-01	0	57	0	282066944	63	5078
2026-01-04 05:15:13.76	284.49	10.96	-49.9	-53.1	18.8	6.03e-01	0	57	0	283639808	63	5091
2026-01-04 05:15:14.74	284.35	10.89	-49.8	-53.0	19.0	6.02e-01	0	57	0	285736960	63	5036
2026-01-04 05:15:15.73	284.22	10.81	-49.6	-52.6	19.4	6.02e-01	0	57	0	287309824	62	5047
2026-01-04 05:15:16.72	284.09	10.74	-49.3	-52.0	20.0	6.01e-01	0	57	0	289406976	62	4740
2026-01-04 05:15:17.71	283.96	10.67	-49.1	-51.7	20.4	6.06e-01	0	57	0	290979840	61	4837
2026-01-04 05:15:18.70	283.83	10.59	-49.0	-51.5	20.5	6.00e-01	0	57	0	293076992	61	4736
2026-01-04 05:15:19.69	283.70	10.52	-49.0	-51.6	20.5	6.02e-01	0	57	0	294649856	61	4762
2026-01-04 05:15:20.68	283.57	10.44	-49.1	-51.6	20.5	6.04e-01	0	57	0	296747008	61	4810
2026-01-04 05:15:21.67	283.45	10.37	-49.3	-51.9	20.2	6.02e-01	0	57	0	298319872	61	4977
2026-01-04 05:15:22.66	283.32	10.30	-49.4	-52.1	20.0	6.03e-01	0	57	0	300417024	61	5083
2026-01-04 05:15:23.65	283.19	10.22	-49.3	-52.0	20.1	6.02e-01	0	57	0	301989888	61	5038
2026-01-04 05:15:24.65	283.07	10.15	-49.3	-52.1	20.2	6.04e-01	0	57	0	304087040	61	5044
2026-01-04 05:15:25.63	282.94	10.07	-49.5	-52.2	20.0	6.02e-01	0	57	0	306184192	61	5149
2026-01-04 05:15:26.61	282.82	10.00	-49.5	-52.2	20.0	6.03e-01	0	57	0	307757056	61	5142
2026-01-04 05:15:27.60	282.70	9.93	-49.5	-52.2	20.0	6.03e-01	0	57	0	309854208	61	5134
2026-01-04 05:15:28.59	282.57	9.86	-49.6	-52.5	19.7	6.02e-01	0	57	0	311427072	61	5329
2026-01-04 05:15:29.57	282.45	9.78	-49.6	-52.5	19.7	6.01e-01	0	57	0	313524224	61	5316
2026-01-04 05:15:30.56	282.33	9.71	-49.5	-52.4	19.8	6.00e-01	0	57	0	315097088	61	5229
2026-01-04 05:15:31.55	282.21	9.64	-49.5	-52.3	19.9	6.02e-01	0	57	0	317194240	61	5165
2026-01-04 05:15:32.54	282.09	9.57	-49.5	-52.4	19.7	6.04e-01	0	57	0	318767104	61	5230
2026-01-04 05:15:33.54	281.97	9.49	-49.7	-52.8	19.4	6.03e-01	0	57	0	320864256	61	5474
2026-01-04 05:15:34.53	281.85	9.42	-49.8	-52.9	19.1	6.04e-01	0	57	0	322437120	61	5592
2026-01-04 05:15:35.52	281.73	9.35	-49.8	-53.1	18.9	6.04e-01	0	57	0	324534272	61	5658
2026-01-04 05:15:36.51	281.62	9.28	-49.9	-53.3	18.7	6.03e-01	0	57	0	326107136	62	5470
2026-01-04 05:15:37.51	281.50	9.20	-50.0	-53.3	18.6	6.02e-01	0	57	0	328204288	62	5521
2026-01-04 05:15:38.49	281.38	9.13	-50.0	-53.5	18.4	6.06e-01	0	57	0	330301440	62	5605
2026-01-04 05:15:39.49	281.27	9.06	-50.1	-53.6	18.1	6.02e-01	0	57	0	331874304	62	5713
2026-01-04 05:15:40.48	281.15	8.99	-50.1	-53.8	17.9	6.05e-01	0	57	0	333971456	62	5829
2026-01-04 05:15:41.47	281.04	8.92	-50.2	-54.0	17.7	6.02e-01	0	57	0	335544320	62	5966
2026-01-04 05:15:42.46	280.92	8.84	-50.3	-54.3	17.4	6.04e-01	0	57	0	337641472	62	6166
2026-01-04 05:15:43.45	280.81	8.77	-50.1	-53.8	17.8	6.03e-01	0	57	0	339214336	62	5849
2026-01-04 05:15:44.44	280.70	8.70	-49.9	-53.5	18.1	6.02e-01	0	57	0	341311488	62	5599
2026-01-04 05:15:45.43	280.59	8.63	-49.8	-53.3	18.2	6.04e-01	0	57	0	342884352	62	5506
2026-01-04 05:15:46.43	280.47	8.56	-49.7	-53.3	18.2	6.04e-01	0	57	0	344981504	62	5471
2026-01-04 05:15:47.42	280.36	8.49	-49.7	-53.3	18.1	6.02e-01	0	57	0	346554368	62	5519
2026-01-04 05:15:48.41	280.25	8.42	-49.8	-53.5	17.9	6.05e-01	0	57	0	348651520	62	5648
2026-01-04 05:15:49.40	280.14	8.35	-49.8	-53.6	17.7	6.00e-01	0	57	0	350748672	62	5708
2026-01-04 05:15:50.40	280.03	8.28	-49.9	-53.8	17.5	6.02e-01	0	57	0	352321536	62	5796
2026-01-04 05:15:51.40	279.93	8.21	-49.9	-54.0	17.3	6.04e-01	0	57	0	354418688	62	5963
2026-01-04 05:15:52.39	279.82	8.14	-50.0	-54.3	16.9	6.03e-01	0	57	0	355991552	62	6160
2026-01-04 05:15:53.38	279.71	8.07	-50.0	-54.3	16.8	6.02e-01	0	57	0	358088704	62	6175
2026-01-04 05:15:54.37	279.60	8.00	-50.1	-54.5	16.6	6.03e-01	0	57	0	359661568	62	6337
2026-01-04 05:15:55.37	279.50	7.93	-50.2	-54.7	16.3	6.04e-01	0	57	0	361758720	62	6494
2026-01-04 05:15:56.35	279.39	7.86	-50.1	-54.7	16.3	6.04e-01	0	57	0	363331584	62	6491
2026-01-04 05:15:57.34	279.29	7.79	-50.1	-54.8	16.2	6.04e-01	0	57	0	365428736	62	6547
2026-01-04 05:15:58.33	279.18	7.72	-50.2	-55.0	15.9	6.02e-01	0	57	0	367525888	62	6716
2026-01-04 05:15:59.32	279.08	7.65	-50.1	-55.0	15.9	6.04e-01	0	57	0	369098752	62	6674
2026-01-04 05:16:00.31	278.98	7.58	-50.3	-55.4	15.4	6.03e-01	0	57	0	371195904	62	7032
2026-01-04 05:16:01.30	278.87	7.51	-50.3	-55.6	15.2	6.04e-01	0	57	0	372768768	62	7174
2026-01-04 05:16:02.29	278.77	7.44	-50.4	-56.0	14.7	6.07e-01	0	57	0	374865920	63	7105
2026-01-04 05:16:03.28	278.67	7.37	-50.4	-56.1	14.5	6.05e-01	0	57	0	376438784	63	7185
2026-01-04 05:16:04.27	278.57	7.30	-50.5	-56.6	13.9	6.05e-01	0	57	0	378535936	63	7620
2026-01-04 05:16:05.26	278.47	7.24	-50.5	-56.7	13.8	6.04e-01	0	57	0	380108800	63	7665
2026-01-04 05:16:06.24	278.37	7.17	-50.6	-57.3	13.1	6.04e-01	0	57	0	382205952	63	8262
2026-01-04 05:16:07.23	278.27	7.10	-50.5	-57.2	13.1	6.08e-01	0	57	0	383778816	63	8152
2026-01-04 05:16:08.22	278.17	7.03	-50.5	-57.5	12.8	6.08e-01	0	57	0	385875968	63	8387
2026-01-04 05:16:09.22	278.07	6.96	-50.4	-57.3	12.8	6.07e-01	0	57	0	387448832	63	8240
2026-01-04 05:16:10.21	277.98	6.89	-50.4	-57.4	12.6	6.07e-01	0	57	0	389545984	63	8345
2026-01-04 05:16:11.20	277.88	6.83	-50.5	-57.9	12.2	6.07e-01	0	57	0	391643136	63	8762
2026-01-04 05:16:12.19	277.78	6.76	-50.4	-57.8	12.1	6.10e-01	0	57	0	393216000	63	8743
2026-01-04 05:16:13.18	277.68	6.69	-50.5	-58.5	11.4	6.11e-01	0	57	0	395313152	63	9452
2026-01-04 05:16:14.18	277.59	6.62	-50.6	-59.1	10.7	6.16e-01	0	57	0	396886016	63	10163
2026-01-04 05:16:15.17	277.49	6.56	-50.5	-59.0	10.8	6.15e-01	0	57	0	398983168	63	9986
2026-01-04 05:16:16.16	277.40	6.49	-50.6	-59.8	9.9	6.20e-01	0	57	0	400556032	63	10921
2026-01-04 05:16:17.15	277.30	6.42	-50.5	-59.6	10.0	6.25e-01	0	57	0	402653184	63	10710
2026-01-04 05:16:18.14	277.21	6.36	-50.5	-59.6	10.0	6.22e-01	0	57	0	404226048	63	10668
2026-01-04 05:16:19.13	277.12	6.29	-50.5	-60.0	9.5	6.25e-01	0	57	0	406323200	63	11230
2026-01-04 05:16:20.12	277.02	6.22	-50.4	-59.9	9.5	6.26e-01	0	57	0	407896064	63	11072
2026-01-04 05:16:21.11	276.93	6.16	-50.3	-59.5	9.9	6.21e-01	0	57	0	409993216	63	10561
2026-01-04 05:16:22.11	276.84	6.09	-50.3	-59.7	9.6	6.25e-01	0	57	0	412090368	63	10851
2026-01-04 05:16:23.10	276.75	6.02	-50.3	-59.9	9.4	6.29e-01	0	57	0	413663232	63	11080
2026-01-04 05:16:24.09	276.66	5.96	-50.3	-59.9	9.3	6.27e-01	0	57	0	415760384	63	11134
2026-01-04 05:16:25.07	276.57	5.89	-50.3	-60.2	9.0	6.33e-01	0	57	0	417333248	63	11491
2026-01-04 05:16:26.06	276.48	5.82	-50.2	-60.2	9.0	6.33e-01	0	57	0	419430400	63	11418
2026-01-04 05:16:27.05	276.39	5.76	-50.3	-60.7	8.4	6.41e-01	23	57	0	421003264	63	12210
2026-01-04 05:16:28.03	276.30	5.69	-50.2	-60.8	8.3	6.40e-01	41	57	0	423100416	63	12248
2026-01-04 05:16:29.01	276.21	5.63	-50.3	-61.3	7.8	6.46e-01	90	57	0	424673280	63	13030
2026-01-04 05:16:30.00	276.12	5.56	-50.2	-61.3	7.8	6.50e-01	91	57	0	426770432	63	13000
2026-01-04 05:16:30.98	276.03	5.50	-50.3	-61.6	7.4	6.53e-01	91	57	0	428343296	63	13532
2026-01-04 05:16:31.97	275.95	5.43	-50.2	-61.7	7.3	6.58e-01	92	57	0	430440448	63	13614
2026-01-04 05:16:32.97	275.86	5.37	-50.2	-61.6	7.3	6.57e-01	91	57	0	432013312	63	13516
2026-01-04 05:16:33.96	275.77	5.30	-50.2	-61.8	7.1	6.58e-01	92	57	0	434110464	63	13823
2026-01-04 05:16:34.96	275.69	5.24	-50.2	-61.9	7.0	6.63e-01	91	57	0	435683328	63	13979
2026-01-04 05:16:35.94	275.60	5.17	-50.1	-61.7	7.3	6.58e-01	91	57	0	437780480	63	13577
2026-01-04 05:16:36.93	275.52	5.11	-50.1	-61.7	7.1	6.61e-01	92	57	0	439353344	63	13705
2026-01-04 05:16:37.92	275.43	5.04	-50.3	-63.8	5.9	6.95e-01	91	57	0	441450496	63	17419
2026-01-04 05:16:38.91	275.35	4.98	-51.3	-71.0	3.8	7.49e-01	0	57	104	441450496	64	37589
2026-01-04 05:16:39.90	275.26	4.92	-52.3	-72.0	3.8	7.46e-01	0	58	104	441450496	66	37546
2026-01-04 05:16:40.89	275.18	4.85	-53.3	-73.1	3.8	7.45e-01	0	57	104	441450496	68	38207
2026-01-04 05:16:41.89	275.10	4.79	-53.9	-73.8	3.8	7.44e-01	0	57	104	441450496	69	38729
2026-01-04 05:16:42.88	275.01	4.72	-54.0	-73.9	3.8	7.47e-01	0	57	104	441450496	70	37085
2026-01-04 05:16:43.88	274.93	4.66	-53.7	-73.7	3.8	7.43e-01	0	57	104	441450496	70	36126
2026-01-04 05:16:44.87	274.85	4.60	-54.0	-73.9	3.8	7.45e-01	0	58	104	441450496	70	37027
2026-01-04 05:16:45.86	274.77	4.53	-54.1	-74.0	3.8	7.45e-01	0	57	104	441450496	70	37521
2026-01-04 05:16:46.85	274.69	4.47	-54.1	-74.0	3.8	7.44e-01	0	57	104	441450496	70	37731
2026-01-04 05:16:47.84	274.60	4.41	-54.2	-74.1	3.8	7.43e-01	0	57	104	441450496	70	37945
2026-01-04 05:16:48.83	274.52	4.34	-54.2	-74.1	3.8	7.47e-01	0	57	104	441450496	70	38168
2026-01-04 05:16:49.81	274.45	4.28	-54.2	-74.2	3.8	7.46e-01	0	57	104	441450496	70	38255
2026-01-04 05:16:50.80	274.37	4.22	-54.3	-74.2	3.8	7.47e-01	0	58	104	441450496	70	38391
2026-01-04 05:16:51.80	274.29	4.15	-54.3	-74.2	3.8	7.47e-01	0	57	104	441450496	70	38542
2026-01-04 05:16:52.78	274.21	4.09	-54.3	-74.2	3.8	7.41e-01	0	57	104	441450496	70	38662
2026-01-04 05:16:53.77	274.13	4.03	-54.3	-74.3	3.8	7.45e-01	0	57	104	441450496	70	38802
2026-01-04 05:16:54.76	274.05	3.97	-54.3	-74.3	3.8	7.41e-01	0	57	104	441450496	70	38807
2026-01-04 05:16:55.76	273.97	3.90	-54.4	-74.3	3.8	7.49e-01	0	57	104	441450496	70	38873
2026-01-04 05:16:56.75	273.90	3.84	-54.4	-74.3	3.8	7.46e-01	0	57	104	441450496	70	38934
2026-01-04 05:16:57.74	273.82	3.78	-54.4	-74.3	3.8	7.47e-01	0	57	104	441450496	70	38938
2026-01-04 05:16:58.73	273.74	3.72	-54.4	-74.3	3.8	7.42e-01	0	57	104	441450496	70	39030
2026-01-04 05:16:59.72	273.67	3.65	-54.4	-74.3	3.8	7.45e-01	0	57	104	441450496	71	36925
2026-01-04 05:17:00.70	273.59	3.59	-54.4	-74.3	3.8	7.47e-01	0	57	104	441450496	71	36924
2026-01-04 05:17:01.69	273.52	3.53	-54.4	-74.4	3.8	7.43e-01	0	58	104	441450496	71	36965
2026-01-04 05:17:02.68	273.44	3.47	-54.4	-74.4	3.8	7.44e-01	0	57	104	441450496	71	37038
2026-01-04 05:17:03.66	273.37	3.41	-54.4	-74.4	3.8	7.45e-01	0	58	104	441450496	71	37043
2026-01-04 05:17:04.65	273.29	3.35	-54.4	-74.4	3.8	7.47e-01	0	57	104	441450496	71	37012
2026-01-04 05:17:05.64	273.22	3.29	-54.4	-74.4	3.8	7.42e-01	0	58	104	441450496	71	36994
2026-01-04 05:17:06.63	273.15	3.23	-54.4	-74.3	3.8	7.46e-01	0	58	104	441450496	71	36896
2026-01-04 05:17:07.62	273.07	3.16	-54.4	-74.4	3.8	7.44e-01	0	58	104	441450496	71	36950
2026-01-04 05:17:08.60	273.00	3.10	-54.4	-74.3	3.8	7.44e-01	0	57	104	441450496	71	36865
2026-01-04 05:17:09.60	272.93	3.04	-54.4	-74.3	3.8	7.46e-01	0	57	104	441450496	71	36849
2026-01-04 05:17:10.58	272.85	2.98	-54.4	-74.3	3.8	7.44e-01	0	58	104	441450496	71	36868

#Closed at: 2026-01-04 05:17:10
#Recorded file [441 MB]: D:/Data/31026_260104_081637.dat