passes_logs/2026/01/04/R3.0SM8_Murmansk_STILSPACE/R3.0SM8_Murmansk_STILSPACE__20260104_013832_NOAA_20_JPSS-1_rec.log

#Pass ID: 20260104_013832_NOAA 20 (JPSS-1)
#Satellite: NOAA 20 (JPSS-1)
#Configuration: NOAA 20
#almurnet v.1.7.20240730
#Start time: 2026-01-04 01:38:32

#Version: 2.2.20231116
#Station: R3.0SM8_Murmansk_STILSPACE
#Location: 33.092731 lon 68.902999 lat
#TLE: 1 43013U 17073A   26003.41800368  .00000169  00000+0  10117-3 0  9998
#TLE: 2 43013  98.7624 304.4804 0001884  56.1176 304.0179 14.19532918421092

#Time	Az	El	Level	Level2	SNR	BER	BlckErr	Temp	State	Recorded	gain1	gain2
2026-01-04 01:38:32.12	28.46	2.98	-52.3	-66.2	3.8	1.49e+00	0	47	0	0	67	17754
2026-01-04 01:38:33.12	28.44	3.05	-52.3	-66.1	3.8	1.49e+00	0	47	104	0	67	17516
2026-01-04 01:38:34.11	28.42	3.11	-52.3	-66.0	3.8	1.49e+00	0	47	104	0	67	17454
2026-01-04 01:38:35.11	28.40	3.18	-52.2	-66.0	3.8	1.49e+00	0	48	104	0	67	17404
2026-01-04 01:38:36.10	28.37	3.24	-52.1	-65.9	3.8	1.49e+00	0	48	104	0	67	17255
2026-01-04 01:38:37.09	28.35	3.31	-52.0	-65.9	3.8	1.49e+00	0	48	104	0	66	18157
2026-01-04 01:38:38.09	28.33	3.38	-51.9	-65.8	3.8	1.49e+00	0	48	104	0	66	17893
2026-01-04 01:38:39.08	28.31	3.44	-51.7	-65.6	3.8	1.49e+00	0	48	104	0	66	17648
2026-01-04 01:38:40.06	28.29	3.51	-51.5	-65.1	3.8	1.49e+00	0	48	104	0	66	16690
2026-01-04 01:38:41.05	28.26	3.57	-51.4	-64.4	3.8	1.49e+00	0	48	104	0	65	16281
2026-01-04 01:38:42.05	28.24	3.64	-51.4	-64.3	3.8	1.49e+00	0	48	104	0	65	15945
2026-01-04 01:38:43.04	28.22	3.70	-51.3	-64.3	3.8	1.49e+00	0	48	104	0	65	16019
2026-01-04 01:38:44.03	28.20	3.77	-51.4	-63.9	3.8	1.49e+00	0	48	104	0	65	15325
2026-01-04 01:38:45.03	28.17	3.84	-51.4	-63.7	3.8	1.49e+00	0	48	104	0	65	14967
2026-01-04 01:38:46.02	28.15	3.91	-51.4	-63.5	3.8	1.49e+00	0	48	104	0	65	14665
2026-01-04 01:38:47.00	28.13	3.97	-51.3	-63.1	3.8	1.49e+00	0	48	104	0	65	13992
2026-01-04 01:38:47.99	28.10	4.04	-51.2	-62.5	4.0	1.48e+00	0	48	104	0	65	12960
2026-01-04 01:38:48.98	28.08	4.11	-51.1	-62.0	4.1	1.46e+00	0	49	0	0	65	12313
2026-01-04 01:38:49.97	28.06	4.17	-51.2	-61.5	4.3	1.39e+00	0	49	0	0	65	11672
2026-01-04 01:38:50.97	28.03	4.24	-51.2	-61.2	4.4	1.30e+00	70	49	0	0	65	11195
2026-01-04 01:38:51.96	28.01	4.31	-51.1	-60.6	4.6	1.14e+00	0	49	0	2097152	65	10532
2026-01-04 01:38:52.95	27.98	4.38	-51.0	-60.1	4.8	8.97e-01	0	49	0	4194304	65	9851
2026-01-04 01:38:53.93	27.96	4.44	-51.0	-59.4	5.2	7.53e-01	0	49	0	6291456	64	9689
2026-01-04 01:38:54.93	27.94	4.51	-50.9	-59.0	5.5	5.34e-01	0	49	0	7340032	64	9180
2026-01-04 01:38:55.91	27.91	4.58	-50.8	-58.5	5.8	4.36e-01	0	49	0	9437184	64	8706
2026-01-04 01:38:56.90	27.89	4.65	-50.6	-57.5	6.6	2.83e-01	0	49	0	11534336	64	7732
2026-01-04 01:38:57.89	27.86	4.72	-50.5	-57.1	6.9	1.93e-01	0	49	0	13631488	64	7430
2026-01-04 01:38:58.88	27.84	4.79	-50.4	-56.6	7.5	1.21e-01	0	49	0	14680064	63	7390
2026-01-04 01:38:59.87	27.81	4.86	-50.2	-55.8	8.3	6.27e-02	0	49	0	16777216	63	6738
2026-01-04 01:39:00.86	27.79	4.92	-50.1	-55.3	8.8	4.72e-02	0	49	0	18874368	63	6361
2026-01-04 01:39:01.84	27.76	4.99	-49.7	-54.1	10.0	9.01e-03	0	49	0	20971520	62	5911
2026-01-04 01:39:02.83	27.74	5.06	-49.8	-54.5	9.6	9.59e-03	0	49	0	22020096	62	6189
2026-01-04 01:39:03.82	27.71	5.13	-50.2	-55.7	8.3	2.73e-02	0	49	0	24117248	62	7114
2026-01-04 01:39:04.80	27.69	5.20	-50.0	-54.9	9.3	3.69e-02	0	49	0	26214400	62	6425
2026-01-04 01:39:05.79	27.66	5.27	-49.6	-54.1	10.1	8.50e-03	0	50	0	28311552	62	5878
2026-01-04 01:39:06.78	27.64	5.34	-49.5	-53.7	10.5	4.99e-03	0	49	0	29360128	62	5638
2026-01-04 01:39:07.77	27.61	5.41	-49.4	-53.4	10.8	4.36e-03	0	49	0	31457280	61	5745
2026-01-04 01:39:08.75	27.58	5.48	-49.2	-53.1	11.1	2.64e-03	0	50	0	33554432	61	5550
2026-01-04 01:39:09.74	27.56	5.55	-49.1	-52.8	11.4	1.29e-03	0	50	0	35651584	61	5387
2026-01-04 01:39:10.74	27.53	5.62	-49.1	-52.8	11.4	9.41e-04	0	50	0	37748736	61	5374
2026-01-04 01:39:11.73	27.50	5.70	-49.1	-52.9	11.4	1.01e-03	0	50	0	38797312	61	5404
2026-01-04 01:39:12.71	27.48	5.77	-49.1	-52.8	11.4	1.36e-03	0	50	0	40894464	61	5350
2026-01-04 01:39:13.69	27.45	5.84	-48.8	-52.1	12.1	3.17e-04	0	50	0	42991616	60	5249
2026-01-04 01:39:14.68	27.42	5.91	-48.5	-51.4	12.8	9.61e-05	0	50	0	45088768	60	4863
2026-01-04 01:39:15.67	27.40	5.98	-48.4	-51.2	13.2	2.97e-05	0	50	0	46137344	59	5000
2026-01-04 01:39:16.67	27.37	6.05	-48.2	-50.8	13.5	1.22e-05	0	50	0	48234496	59	4806
2026-01-04 01:39:17.66	27.34	6.13	-48.0	-50.5	13.8	4.50e-06	0	50	0	50331648	59	4624
2026-01-04 01:39:18.64	27.31	6.20	-47.9	-50.4	14.0	3.80e-06	0	50	0	52428800	58	4820
2026-01-04 01:39:19.63	27.29	6.27	-47.7	-50.1	14.2	2.20e-06	0	50	0	53477376	58	4695
2026-01-04 01:39:20.62	27.26	6.34	-47.7	-50.0	14.3	7.00e-07	0	50	0	55574528	58	4644
2026-01-04 01:39:21.61	27.23	6.42	-47.7	-50.1	14.3	7.00e-07	0	50	0	57671680	58	4687
2026-01-04 01:39:22.59	27.20	6.49	-47.7	-50.2	14.2	0.00e+00	0	50	0	59768832	58	4719
2026-01-04 01:39:23.58	27.17	6.56	-47.7	-50.0	14.4	0.00e+00	0	50	0	61865984	58	4611
2026-01-04 01:39:24.58	27.14	6.64	-47.6	-49.8	14.6	0.00e+00	0	50	0	62914560	58	4530
2026-01-04 01:39:25.57	27.12	6.71	-47.5	-49.8	14.6	7.00e-07	0	50	0	65011712	58	4512
2026-01-04 01:39:26.56	27.09	6.78	-47.5	-49.8	14.6	0.00e+00	0	51	0	67108864	58	4507
2026-01-04 01:39:27.54	27.06	6.86	-47.6	-49.8	14.6	0.00e+00	0	51	0	69206016	58	4539
2026-01-04 01:39:28.53	27.03	6.93	-47.5	-49.7	14.8	0.00e+00	0	51	0	70254592	58	4442
2026-01-04 01:39:29.51	27.00	7.01	-47.4	-49.6	14.9	0.00e+00	0	51	0	72351744	58	4404
2026-01-04 01:39:30.49	26.97	7.08	-47.5	-49.7	14.7	0.00e+00	0	51	0	74448896	58	4467
2026-01-04 01:39:31.48	26.94	7.16	-47.4	-49.5	14.9	0.00e+00	0	51	0	76546048	57	4618
2026-01-04 01:39:32.46	26.91	7.23	-47.4	-49.6	14.9	0.00e+00	0	51	0	77594624	57	4681
2026-01-04 01:39:33.45	26.88	7.31	-47.5	-49.7	14.8	7.00e-07	0	51	0	79691776	57	4722
2026-01-04 01:39:34.44	26.85	7.38	-47.6	-49.8	14.6	7.00e-07	0	51	0	81788928	57	4814
2026-01-04 01:39:35.43	26.82	7.46	-47.5	-49.8	14.7	0.00e+00	0	51	0	83886080	57	4768
2026-01-04 01:39:36.42	26.79	7.53	-47.5	-49.7	14.8	7.00e-07	0	51	0	85983232	57	4734
2026-01-04 01:39:37.40	26.76	7.61	-47.5	-49.8	14.7	0.00e+00	0	51	0	87031808	57	4788
2026-01-04 01:39:38.39	26.73	7.69	-47.6	-49.9	14.6	7.00e-07	0	51	0	89128960	57	4832
2026-01-04 01:39:39.38	26.69	7.76	-47.6	-49.9	14.7	0.00e+00	0	51	0	91226112	57	4825
2026-01-04 01:39:40.37	26.66	7.84	-47.6	-49.9	14.6	0.00e+00	0	51	0	92274688	57	4833
2026-01-04 01:39:41.36	26.63	7.92	-47.7	-49.9	14.6	0.00e+00	0	51	0	94371840	57	4843
2026-01-04 01:39:42.35	26.60	7.99	-47.7	-50.0	14.5	7.00e-07	0	51	0	96468992	57	4900
2026-01-04 01:39:43.34	26.57	8.07	-47.7	-49.9	14.6	1.50e-06	0	51	0	98566144	57	4838
2026-01-04 01:39:44.33	26.54	8.15	-47.8	-50.1	14.4	7.00e-07	0	51	0	100663296	57	4966
2026-01-04 01:39:45.32	26.50	8.23	-47.9	-50.3	14.2	3.00e-06	0	51	0	101711872	57	5088
2026-01-04 01:39:46.31	26.47	8.31	-47.8	-50.0	14.6	7.00e-07	0	51	0	103809024	57	4908
2026-01-04 01:39:47.30	26.44	8.39	-47.6	-49.7	14.9	7.00e-07	0	52	0	105906176	57	4740
2026-01-04 01:39:48.29	26.40	8.46	-47.3	-49.4	15.2	0.00e+00	0	52	0	108003328	57	4569
2026-01-04 01:39:49.28	26.37	8.54	-47.3	-49.3	15.2	7.00e-07	0	52	0	109051904	57	4539
2026-01-04 01:39:50.27	26.34	8.62	-47.2	-49.2	15.3	0.00e+00	0	52	0	111149056	57	4490
2026-01-04 01:39:51.26	26.30	8.70	-47.3	-49.2	15.3	0.00e+00	0	51	0	113246208	57	4493
2026-01-04 01:39:52.24	26.27	8.78	-47.3	-49.3	15.3	0.00e+00	0	52	0	115343360	57	4501
2026-01-04 01:39:53.23	26.24	8.86	-47.3	-49.4	15.3	0.00e+00	0	52	0	117440512	57	4546
2026-01-04 01:39:54.22	26.20	8.94	-47.4	-49.5	15.2	0.00e+00	0	52	0	118489088	57	4602
2026-01-04 01:39:55.21	26.17	9.02	-47.6	-49.7	15.0	0.00e+00	0	52	0	120586240	57	4723
2026-01-04 01:39:56.20	26.13	9.10	-47.4	-49.5	15.2	0.00e+00	0	52	0	122683392	57	4606
2026-01-04 01:39:57.19	26.10	9.18	-47.1	-49.1	15.6	0.00e+00	0	52	0	124780544	57	4416
2026-01-04 01:39:58.17	26.06	9.27	-47.0	-49.0	15.6	0.00e+00	0	52	0	125829120	57	4364
2026-01-04 01:39:59.16	26.03	9.35	-47.1	-49.0	15.6	0.00e+00	0	52	0	127926272	57	4364
2026-01-04 01:40:00.15	25.99	9.43	-47.1	-49.1	15.6	0.00e+00	0	52	0	130023424	57	4400
2026-01-04 01:40:01.14	25.96	9.51	-47.2	-49.2	15.5	0.00e+00	0	52	0	132120576	57	4463
2026-01-04 01:40:02.13	25.92	9.59	-47.3	-49.3	15.4	0.00e+00	0	52	0	133169152	57	4510
2026-01-04 01:40:03.11	25.89	9.68	-47.2	-49.1	15.6	0.00e+00	0	52	0	135266304	57	4420
2026-01-04 01:40:04.10	25.85	9.76	-47.3	-49.2	15.5	0.00e+00	0	52	0	137363456	57	4469
2026-01-04 01:40:05.10	25.81	9.84	-47.5	-49.6	15.1	0.00e+00	0	52	0	139460608	57	4678
2026-01-04 01:40:06.09	25.77	9.93	-47.4	-49.4	15.3	0.00e+00	0	52	0	141557760	57	4560
2026-01-04 01:40:07.08	25.74	10.01	-47.4	-49.4	15.3	0.00e+00	0	52	0	142606336	57	4587
2026-01-04 01:40:08.07	25.70	10.09	-47.5	-49.6	15.1	0.00e+00	0	52	0	144703488	57	4664
2026-01-04 01:40:09.06	25.66	10.18	-47.7	-49.9	14.8	0.00e+00	0	52	0	146800640	57	4834
2026-01-04 01:40:10.04	25.63	10.26	-47.4	-49.5	15.2	0.00e+00	0	52	0	148897792	57	4603
2026-01-04 01:40:11.03	25.59	10.35	-47.4	-49.4	15.3	0.00e+00	0	52	0	149946368	57	4574
2026-01-04 01:40:12.02	25.55	10.43	-47.3	-49.3	15.4	0.00e+00	0	52	0	152043520	57	4516
2026-01-04 01:40:13.01	25.51	10.52	-47.4	-49.4	15.4	0.00e+00	0	52	0	154140672	57	4546
2026-01-04 01:40:14.00	25.47	10.60	-47.2	-49.2	15.5	0.00e+00	0	52	0	156237824	57	4455
2026-01-04 01:40:14.99	25.43	10.69	-47.3	-49.3	15.5	0.00e+00	0	52	0	157286400	57	4499
2026-01-04 01:40:15.98	25.39	10.77	-47.5	-49.5	15.2	0.00e+00	0	53	0	159383552	57	4635
2026-01-04 01:40:16.98	25.35	10.86	-47.3	-49.3	15.4	0.00e+00	0	52	0	161480704	57	4532
2026-01-04 01:40:17.96	25.31	10.95	-47.5	-49.6	15.1	0.00e+00	0	52	0	163577856	57	4676
2026-01-04 01:40:18.94	25.27	11.03	-47.4	-49.4	15.4	0.00e+00	0	52	0	165675008	57	4549
2026-01-04 01:40:19.94	25.23	11.12	-47.5	-49.6	15.2	0.00e+00	0	52	0	166723584	57	4660
2026-01-04 01:40:20.93	25.19	11.21	-47.7	-49.8	15.0	0.00e+00	0	53	0	168820736	57	4786
2026-01-04 01:40:21.92	25.15	11.30	-47.5	-49.6	15.1	0.00e+00	0	52	0	170917888	57	4681
2026-01-04 01:40:22.91	25.11	11.39	-47.6	-49.7	15.1	0.00e+00	0	53	0	173015040	57	4724
2026-01-04 01:40:23.90	25.07	11.47	-47.7	-49.8	15.0	0.00e+00	0	53	0	174063616	57	4802
2026-01-04 01:40:24.89	25.03	11.56	-47.6	-49.6	15.1	0.00e+00	0	53	0	176160768	57	4699
2026-01-04 01:40:25.87	24.98	11.65	-47.5	-49.5	15.3	0.00e+00	0	52	0	178257920	57	4642
2026-01-04 01:40:26.86	24.94	11.74	-47.5	-49.6	15.2	0.00e+00	0	53	0	180355072	57	4685
2026-01-04 01:40:27.85	24.90	11.83	-47.8	-49.9	14.8	0.00e+00	0	53	0	181403648	57	4869
2026-01-04 01:40:28.84	24.86	11.92	-47.6	-49.6	15.2	0.00e+00	0	53	0	183500800	57	4702
2026-01-04 01:40:29.83	24.81	12.01	-47.4	-49.4	15.4	0.00e+00	0	53	0	185597952	57	4580
2026-01-04 01:40:30.83	24.77	12.10	-47.2	-49.2	15.6	0.00e+00	0	53	0	187695104	57	4458
2026-01-04 01:40:31.82	24.73	12.19	-47.2	-49.0	15.8	0.00e+00	0	53	0	188743680	57	4376
2026-01-04 01:40:32.80	24.68	12.28	-47.0	-48.9	15.9	0.00e+00	0	53	0	190840832	57	4308
2026-01-04 01:40:33.79	24.64	12.38	-47.1	-48.9	15.9	0.00e+00	0	53	0	192937984	57	4302
2026-01-04 01:40:34.79	24.59	12.47	-47.2	-49.2	15.7	0.00e+00	0	53	0	195035136	57	4445
2026-01-04 01:40:35.77	24.55	12.56	-47.1	-49.0	15.9	0.00e+00	0	53	0	197132288	57	4342
2026-01-04 01:40:36.76	24.50	12.65	-46.9	-48.7	16.1	0.00e+00	0	53	0	198180864	57	4232
2026-01-04 01:40:37.76	24.46	12.75	-46.9	-48.6	16.2	0.00e+00	0	53	0	200278016	56	4423
2026-01-04 01:40:38.75	24.41	12.84	-46.9	-48.6	16.2	0.00e+00	0	53	0	202375168	56	4430
2026-01-04 01:40:39.73	24.37	12.93	-47.0	-48.9	16.0	0.00e+00	0	53	0	204472320	56	4550
2026-01-04 01:40:40.72	24.32	13.03	-47.0	-48.8	16.0	0.00e+00	0	53	0	205520896	56	4536
2026-01-04 01:40:41.72	24.27	13.12	-47.1	-48.9	16.0	0.00e+00	0	53	0	207618048	56	4558
2026-01-04 01:40:42.70	24.23	13.22	-47.2	-49.0	15.9	0.00e+00	0	53	0	209715200	56	4636
2026-01-04 01:40:43.69	24.18	13.31	-47.1	-49.0	15.9	0.00e+00	0	53	0	211812352	56	4618
2026-01-04 01:40:44.68	24.13	13.41	-47.0	-48.8	16.1	0.00e+00	0	53	0	213909504	56	4513
2026-01-04 01:40:45.68	24.08	13.50	-46.9	-48.7	16.2	0.00e+00	0	53	0	214958080	56	4449
2026-01-04 01:40:46.67	24.03	13.60	-46.9	-48.7	16.2	0.00e+00	0	53	0	217055232	56	4447
2026-01-04 01:40:47.66	23.98	13.70	-46.8	-48.6	16.2	0.00e+00	0	53	0	219152384	56	4412
2026-01-04 01:40:48.65	23.93	13.79	-46.8	-48.4	16.4	0.00e+00	0	53	0	221249536	56	4339
2026-01-04 01:40:49.64	23.88	13.89	-46.8	-48.5	16.4	0.00e+00	0	53	0	222298112	56	4369
2026-01-04 01:40:50.64	23.83	13.99	-46.9	-48.7	16.2	0.00e+00	0	53	0	224395264	56	4442
2026-01-04 01:40:51.62	23.78	14.09	-46.8	-48.6	16.3	0.00e+00	0	53	0	226492416	56	4392
2026-01-04 01:40:52.61	23.73	14.18	-46.7	-48.4	16.5	0.00e+00	0	53	0	228589568	56	4315
2026-01-04 01:40:53.60	23.68	14.28	-46.7	-48.3	16.5	0.00e+00	0	53	0	229638144	56	4268
2026-01-04 01:40:54.59	23.63	14.38	-46.7	-48.4	16.5	0.00e+00	0	53	0	231735296	56	4299
2026-01-04 01:40:55.58	23.58	14.48	-46.7	-48.3	16.6	0.00e+00	0	53	0	233832448	56	4289
2026-01-04 01:40:56.57	23.53	14.58	-46.7	-48.3	16.6	0.00e+00	0	53	0	235929600	56	4275
2026-01-04 01:40:57.55	23.48	14.68	-46.6	-48.2	16.6	0.00e+00	0	54	0	238026752	56	4241
2026-01-04 01:40:58.54	23.42	14.78	-46.7	-48.4	16.5	0.00e+00	0	53	0	239075328	56	4302
2026-01-04 01:40:59.53	23.37	14.88	-46.7	-48.4	16.5	0.00e+00	0	53	0	241172480	56	4301
2026-01-04 01:41:00.52	23.32	14.98	-46.7	-48.4	16.6	0.00e+00	0	53	0	243269632	56	4292
2026-01-04 01:41:01.50	23.26	15.08	-46.8	-48.6	16.3	0.00e+00	0	53	0	245366784	56	4392
2026-01-04 01:41:02.50	23.21	15.19	-46.9	-48.6	16.3	0.00e+00	0	53	0	246415360	56	4438
2026-01-04 01:41:03.48	23.15	15.29	-46.9	-48.6	16.3	0.00e+00	0	53	0	248512512	56	4424
2026-01-04 01:41:04.47	23.10	15.39	-46.8	-48.5	16.4	0.00e+00	0	53	0	250609664	56	4345
2026-01-04 01:41:05.46	23.04	15.50	-46.8	-48.4	16.5	0.00e+00	0	54	0	252706816	56	4339
2026-01-04 01:41:06.45	22.99	15.60	-46.8	-48.5	16.4	0.00e+00	0	53	0	253755392	56	4364
2026-01-04 01:41:07.44	22.93	15.70	-46.8	-48.5	16.4	0.00e+00	0	54	0	255852544	56	4364
2026-01-04 01:41:08.42	22.87	15.81	-46.9	-48.7	16.2	0.00e+00	0	54	0	257949696	56	4468
2026-01-04 01:41:09.42	22.82	15.91	-47.0	-48.8	16.1	0.00e+00	0	54	0	260046848	56	4518
2026-01-04 01:41:10.41	22.76	16.02	-46.9	-48.6	16.4	0.00e+00	0	54	0	262144000	56	4407
2026-01-04 01:41:11.40	22.70	16.12	-46.7	-48.3	16.6	0.00e+00	0	54	0	263192576	56	4289
2026-01-04 01:41:12.39	22.64	16.23	-46.7	-48.3	16.6	0.00e+00	0	54	0	265289728	56	4260
2026-01-04 01:41:13.38	22.58	16.34	-46.6	-48.2	16.7	0.00e+00	0	54	0	267386880	56	4215
2026-01-04 01:41:14.37	22.52	16.45	-46.7	-48.3	16.6	0.00e+00	0	54	0	269484032	56	4257
2026-01-04 01:41:15.35	22.46	16.55	-46.7	-48.3	16.6	0.00e+00	0	54	0	270532608	56	4278
2026-01-04 01:41:16.35	22.40	16.66	-46.6	-48.2	16.7	0.00e+00	0	53	0	272629760	56	4224
2026-01-04 01:41:17.34	22.34	16.77	-46.6	-48.2	16.7	0.00e+00	0	53	0	274726912	56	4231
2026-01-04 01:41:18.33	22.28	16.88	-46.7	-48.3	16.7	0.00e+00	0	54	0	276824064	56	4256
2026-01-04 01:41:19.32	22.22	16.99	-46.8	-48.4	16.5	0.00e+00	0	54	0	278921216	56	4332
2026-01-04 01:41:20.32	22.16	17.10	-46.9	-48.6	16.4	0.00e+00	0	54	0	279969792	56	4422
2026-01-04 01:41:21.31	22.09	17.21	-46.9	-48.6	16.3	0.00e+00	0	54	0	282066944	56	4421
2026-01-04 01:41:22.30	22.03	17.32	-47.0	-48.7	16.3	0.00e+00	0	54	0	284164096	56	4458
2026-01-04 01:41:23.29	21.97	17.43	-46.9	-48.6	16.3	0.00e+00	0	54	0	286261248	56	4433
2026-01-04 01:41:24.28	21.90	17.54	-47.0	-48.7	16.3	0.00e+00	0	54	0	287309824	56	4488
2026-01-04 01:41:25.27	21.84	17.66	-47.1	-48.9	16.1	0.00e+00	0	54	0	289406976	56	4546
2026-01-04 01:41:26.27	21.77	17.77	-47.1	-48.9	16.1	0.00e+00	0	54	0	291504128	56	4574
2026-01-04 01:41:27.26	21.70	17.88	-47.0	-48.7	16.3	0.00e+00	0	54	0	293601280	56	4463
2026-01-04 01:41:28.24	21.64	18.00	-47.0	-48.8	16.2	0.00e+00	0	54	0	294649856	56	4509
2026-01-04 01:41:29.22	21.57	18.11	-47.0	-48.8	16.2	0.00e+00	0	54	0	296747008	56	4509
2026-01-04 01:41:30.20	21.51	18.22	-47.2	-49.0	16.0	0.00e+00	0	54	0	298844160	56	4600
2026-01-04 01:41:31.19	21.44	18.34	-47.0	-48.7	16.3	0.00e+00	0	54	0	300941312	56	4442
2026-01-04 01:41:32.17	21.37	18.45	-46.9	-48.6	16.4	0.00e+00	0	54	0	301989888	56	4423
2026-01-04 01:41:33.17	21.30	18.57	-46.9	-48.6	16.4	0.00e+00	0	54	0	304087040	56	4411
2026-01-04 01:41:34.16	21.23	18.69	-46.9	-48.6	16.4	0.00e+00	0	54	0	306184192	56	4427
2026-01-04 01:41:35.15	21.16	18.80	-47.1	-48.8	16.2	0.00e+00	0	54	0	308281344	56	4536
2026-01-04 01:41:36.13	21.09	18.92	-46.9	-48.5	16.5	0.00e+00	0	54	0	310378496	56	4389
2026-01-04 01:41:37.13	21.02	19.04	-46.7	-48.3	16.7	0.00e+00	0	54	0	311427072	56	4247
2026-01-04 01:41:38.13	20.95	19.16	-46.6	-48.1	16.9	0.00e+00	0	54	0	313524224	56	4190
2026-01-04 01:41:39.12	20.87	19.28	-46.6	-48.2	16.8	0.00e+00	0	54	0	315621376	56	4236
2026-01-04 01:41:40.11	20.80	19.40	-46.8	-48.5	16.6	0.00e+00	0	54	0	317718528	56	4345
2026-01-04 01:41:41.10	20.73	19.52	-46.6	-48.2	16.8	0.00e+00	0	54	0	318767104	56	4212
2026-01-04 01:41:42.10	20.65	19.64	-46.6	-48.3	16.8	0.00e+00	0	54	0	320864256	56	4245
2026-01-04 01:41:43.09	20.58	19.76	-46.8	-48.5	16.5	0.00e+00	0	54	0	322961408	56	4360
2026-01-04 01:41:44.07	20.50	19.88	-46.7	-48.3	16.7	0.00e+00	0	54	0	325058560	56	4256
2026-01-04 01:41:45.06	20.43	20.00	-46.6	-48.2	16.9	0.00e+00	0	54	0	326107136	56	4205
2026-01-04 01:41:46.05	20.35	20.13	-46.6	-48.2	16.9	0.00e+00	0	54	0	328204288	56	4197
2026-01-04 01:41:47.04	20.27	20.25	-46.6	-48.1	16.9	0.00e+00	0	54	0	330301440	56	4189
2026-01-04 01:41:48.02	20.19	20.37	-46.5	-48.0	17.0	0.00e+00	0	54	0	332398592	56	4132
2026-01-04 01:41:49.01	20.12	20.50	-46.6	-48.1	16.9	0.00e+00	0	54	0	334495744	56	4189
2026-01-04 01:41:50.00	20.04	20.62	-46.7	-48.2	16.8	0.00e+00	0	54	0	335544320	56	4242
2026-01-04 01:41:51.00	19.96	20.75	-46.5	-48.1	17.0	0.00e+00	0	54	0	337641472	56	4155
2026-01-04 01:41:51.98	19.88	20.87	-46.4	-47.9	17.1	0.00e+00	0	54	0	339738624	56	4079
2026-01-04 01:41:52.98	19.79	21.00	-46.4	-47.9	17.1	0.00e+00	0	54	0	341835776	55	4300
2026-01-04 01:41:53.97	19.71	21.13	-46.4	-47.9	17.1	0.00e+00	0	54	0	342884352	55	4304
2026-01-04 01:41:54.96	19.63	21.26	-46.4	-47.9	17.1	0.00e+00	0	54	0	344981504	55	4299
2026-01-04 01:41:55.96	19.54	21.39	-46.4	-47.9	17.0	0.00e+00	0	55	0	347078656	55	4310
2026-01-04 01:41:56.95	19.46	21.52	-46.3	-47.8	17.1	0.00e+00	0	54	0	349175808	55	4278
2026-01-04 01:41:57.94	19.37	21.65	-46.3	-47.8	17.2	0.00e+00	0	54	0	351272960	55	4263
2026-01-04 01:41:58.93	19.29	21.78	-46.3	-47.8	17.1	0.00e+00	0	55	0	352321536	55	4282
2026-01-04 01:41:59.92	19.20	21.91	-46.5	-48.0	16.9	0.00e+00	0	55	0	354418688	55	4364
2026-01-04 01:42:00.91	19.11	22.04	-46.4	-48.0	17.0	0.00e+00	0	55	0	356515840	55	4363
2026-01-04 01:42:01.91	19.02	22.17	-46.4	-47.9	17.0	0.00e+00	0	54	0	358612992	55	4332
2026-01-04 01:42:02.90	18.94	22.31	-46.5	-48.1	16.8	0.00e+00	0	55	0	359661568	55	4413
2026-01-04 01:42:03.88	18.85	22.44	-46.5	-48.0	16.9	0.00e+00	0	55	0	361758720	55	4386
2026-01-04 01:42:04.87	18.76	22.57	-46.5	-48.1	16.8	0.00e+00	0	55	0	363855872	55	4431
2026-01-04 01:42:05.85	18.67	22.71	-46.7	-48.3	16.7	0.00e+00	0	54	0	365953024	55	4517
2026-01-04 01:42:06.84	18.57	22.84	-46.8	-48.4	16.6	0.00e+00	0	55	0	367001600	55	4566
2026-01-04 01:42:07.84	18.48	22.98	-46.9	-48.5	16.4	0.00e+00	0	55	0	369098752	55	4646
2026-01-04 01:42:08.83	18.39	23.12	-47.0	-48.7	16.3	0.00e+00	0	55	0	371195904	55	4713
2026-01-04 01:42:09.82	18.29	23.25	-47.0	-48.7	16.3	0.00e+00	0	55	0	373293056	55	4708
2026-01-04 01:42:10.82	18.19	23.39	-47.0	-48.8	16.2	0.00e+00	0	55	0	375390208	55	4770
2026-01-04 01:42:11.81	18.10	23.53	-47.3	-49.1	16.0	0.00e+00	0	55	0	376438784	56	4670
2026-01-04 01:42:12.80	18.00	23.67	-47.2	-49.0	16.1	0.00e+00	0	55	0	378535936	56	4620
2026-01-04 01:42:13.79	17.90	23.81	-47.4	-49.2	15.9	0.00e+00	0	55	0	380633088	56	4738
2026-01-04 01:42:14.78	17.80	23.95	-47.4	-49.2	15.9	0.00e+00	0	55	0	382730240	56	4745
2026-01-04 01:42:15.77	17.70	24.09	-47.6	-49.5	15.6	0.00e+00	0	55	0	383778816	57	4630
2026-01-04 01:42:16.76	17.60	24.23	-47.6	-49.5	15.7	0.00e+00	0	55	0	385875968	57	4607
2026-01-04 01:42:17.75	17.50	24.38	-47.7	-49.7	15.4	0.00e+00	0	55	0	387973120	57	4733
2026-01-04 01:42:18.74	17.40	24.52	-47.8	-49.8	15.3	0.00e+00	0	55	0	390070272	57	4777
2026-01-04 01:42:19.73	17.29	24.66	-47.9	-50.0	15.1	0.00e+00	0	55	0	392167424	57	4895
2026-01-04 01:42:20.72	17.19	24.81	-47.9	-50.0	15.1	0.00e+00	0	55	0	393216000	57	4873
2026-01-04 01:42:21.71	17.08	24.95	-48.0	-50.1	15.0	0.00e+00	0	55	0	395313152	57	4927
2026-01-04 01:42:22.70	16.97	25.10	-48.2	-50.5	14.6	7.00e-07	0	55	0	397410304	58	4893
2026-01-04 01:42:23.69	16.87	25.24	-48.2	-50.4	14.7	0.00e+00	0	55	0	399507456	58	4851
2026-01-04 01:42:24.67	16.76	25.39	-48.3	-50.7	14.4	0.00e+00	0	55	0	400556032	58	5005
2026-01-04 01:42:25.67	16.65	25.54	-48.2	-50.5	14.6	7.00e-07	0	55	0	402653184	58	4880
2026-01-04 01:42:26.66	16.54	25.69	-48.3	-50.6	14.5	0.00e+00	0	55	0	404750336	58	4959
2026-01-04 01:42:27.65	16.42	25.84	-48.4	-50.8	14.2	2.20e-06	0	55	0	406847488	58	5076
2026-01-04 01:42:28.63	16.31	25.99	-48.6	-51.2	13.9	2.20e-06	0	55	0	407896064	59	4989
2026-01-04 01:42:29.62	16.20	26.14	-48.7	-51.3	13.6	5.30e-06	0	55	0	409993216	59	5090
2026-01-04 01:42:30.60	16.08	26.29	-48.8	-51.4	13.5	4.50e-06	0	55	0	412090368	59	5141
2026-01-04 01:42:31.59	15.96	26.44	-48.6	-51.2	13.6	9.90e-06	0	55	0	414187520	59	5030
2026-01-04 01:42:32.57	15.85	26.59	-48.4	-50.9	13.9	7.00e-07	0	55	0	415236096	59	4858
2026-01-04 01:42:33.57	15.73	26.75	-48.4	-50.9	13.9	7.00e-07	0	55	0	417333248	59	4854
2026-01-04 01:42:34.56	15.61	26.90	-48.6	-51.3	13.4	6.10e-06	0	55	0	419430400	59	5068
2026-01-04 01:42:35.56	15.48	27.06	-48.9	-51.9	12.6	4.80e-05	0	55	0	421527552	59	5463
2026-01-04 01:42:36.55	15.36	27.21	-49.0	-52.5	11.8	3.62e-04	0	55	0	423624704	60	5518
2026-01-04 01:42:37.54	15.24	27.37	-49.4	-53.4	10.8	8.56e-04	0	55	0	424673280	60	6081
2026-01-04 01:42:38.53	15.11	27.53	-49.6	-54.0	9.9	7.81e-03	0	55	0	426770432	60	6545
2026-01-04 01:42:39.53	14.98	27.69	-49.6	-54.5	9.3	1.20e-02	0	55	0	428867584	61	6533
2026-01-04 01:42:40.52	14.86	27.85	-49.7	-55.0	8.7	3.93e-02	0	55	0	430964736	61	6895
2026-01-04 01:42:41.50	14.73	28.01	-49.8	-55.5	8.0	4.47e-02	0	55	0	432013312	61	7370
2026-01-04 01:42:42.50	14.60	28.17	-50.0	-56.1	7.4	1.04e-01	0	55	0	434110464	61	7889
2026-01-04 01:42:43.49	14.47	28.33	-50.1	-56.5	7.1	1.23e-01	0	55	0	436207616	61	8207
2026-01-04 01:42:44.47	14.33	28.49	-50.1	-56.5	7.2	1.39e-01	0	55	0	438304768	62	7752
2026-01-04 01:42:45.46	14.20	28.65	-50.2	-56.5	7.3	1.40e-01	0	55	0	439353344	62	7722
2026-01-04 01:42:46.45	14.06	28.82	-50.1	-56.0	7.8	8.96e-02	0	55	0	441450496	62	7314
2026-01-04 01:42:47.44	13.93	28.98	-50.1	-55.3	8.6	4.95e-02	0	55	0	443547648	62	6799
2026-01-04 01:42:48.43	13.79	29.14	-49.8	-54.4	9.8	2.24e-02	0	55	0	445644800	62	6081
2026-01-04 01:42:49.42	13.65	29.31	-49.7	-53.9	10.5	8.67e-03	0	55	0	447741952	62	5728
2026-01-04 01:42:50.41	13.50	29.48	-49.6	-53.6	10.9	2.43e-03	0	55	0	448790528	62	5538
2026-01-04 01:42:51.40	13.36	29.64	-49.8	-53.8	10.9	1.60e-03	0	55	0	450887680	62	5659
2026-01-04 01:42:52.39	13.22	29.81	-49.9	-53.7	11.0	2.36e-03	0	55	0	452984832	62	5631
2026-01-04 01:42:53.39	13.07	29.98	-49.5	-52.9	12.0	1.13e-03	0	55	0	455081984	62	5138
2026-01-04 01:42:54.39	12.92	30.16	-49.3	-52.4	12.5	1.75e-04	0	55	0	456130560	61	5151
2026-01-04 01:42:55.37	12.77	30.32	-49.3	-52.5	12.5	1.15e-04	0	55	0	458227712	61	5193
2026-01-04 01:42:56.36	12.62	30.50	-49.3	-52.3	12.6	1.20e-04	0	55	0	460324864	61	5097
2026-01-04 01:42:57.35	12.47	30.67	-49.3	-52.4	12.6	8.54e-05	0	55	0	462422016	61	5147
2026-01-04 01:42:58.34	12.31	30.84	-49.5	-52.7	12.4	1.15e-04	0	55	0	464519168	61	5283
2026-01-04 01:42:59.33	12.15	31.01	-49.7	-53.1	12.0	1.94e-04	0	55	0	465567744	61	5543
2026-01-04 01:43:00.32	12.00	31.19	-49.8	-53.4	11.6	6.20e-04	0	55	0	467664896	61	5750
2026-01-04 01:43:01.31	11.84	31.36	-49.5	-52.7	12.4	2.23e-04	0	55	0	469762048	61	5319
2026-01-04 01:43:02.30	11.68	31.54	-49.4	-52.4	12.7	7.47e-05	0	55	0	471859200	61	5147
2026-01-04 01:43:03.30	11.51	31.72	-49.0	-51.9	13.2	6.10e-05	0	55	0	472907776	61	4862
2026-01-04 01:43:04.29	11.34	31.90	-48.8	-51.5	13.6	9.90e-06	0	55	0	475004928	60	4902
2026-01-04 01:43:05.27	11.18	32.07	-48.8	-51.4	13.7	7.60e-06	0	55	0	477102080	60	4849
2026-01-04 01:43:06.26	11.01	32.25	-48.6	-51.1	14.1	1.50e-06	0	56	0	479199232	60	4667
2026-01-04 01:43:07.25	10.84	32.43	-48.5	-50.9	14.2	2.20e-06	0	55	0	480247808	60	4597
2026-01-04 01:43:08.24	10.67	32.61	-48.6	-51.1	14.1	7.00e-07	0	55	0	482344960	60	4684
2026-01-04 01:43:09.23	10.49	32.80	-48.7	-51.2	14.0	3.00e-06	0	56	0	484442112	60	4748
2026-01-04 01:43:10.21	10.32	32.98	-48.9	-51.6	13.6	8.30e-06	0	55	0	486539264	60	4962
2026-01-04 01:43:11.21	10.14	33.16	-48.8	-51.3	13.8	3.00e-06	0	56	0	488636416	60	4813
2026-01-04 01:43:12.20	9.95	33.35	-49.0	-51.7	13.4	9.10e-06	0	55	0	489684992	60	5031
2026-01-04 01:43:13.18	9.77	33.53	-48.8	-51.5	13.7	6.10e-06	0	56	0	491782144	60	4871
2026-01-04 01:43:14.17	9.59	33.71	-49.0	-51.8	13.4	5.30e-06	0	55	0	493879296	60	5060
2026-01-04 01:43:15.17	9.40	33.90	-48.9	-51.6	13.6	1.37e-05	0	56	0	495976448	60	4943
2026-01-04 01:43:16.16	9.21	34.09	-49.1	-51.9	13.3	1.75e-05	0	55	0	497025024	60	5148
2026-01-04 01:43:17.14	9.02	34.28	-49.3	-52.2	13.0	4.19e-05	0	55	0	499122176	60	5300
2026-01-04 01:43:18.13	8.83	34.46	-49.2	-52.1	13.1	3.81e-05	0	55	0	501219328	60	5265
2026-01-04 01:43:19.13	8.63	34.66	-49.4	-52.5	12.6	6.86e-05	0	56	0	503316480	60	5526
2026-01-04 01:43:20.11	8.43	34.84	-49.5	-52.7	12.5	9.61e-05	0	56	0	504365056	60	5604
2026-01-04 01:43:21.10	8.23	35.03	-49.6	-52.9	12.3	1.15e-04	0	56	0	506462208	61	5415
2026-01-04 01:43:22.09	8.03	35.23	-49.7	-53.1	12.1	2.10e-04	0	56	0	508559360	61	5551
2026-01-04 01:43:23.08	7.82	35.42	-49.4	-52.5	12.7	2.07e-04	0	56	0	510656512	61	5192
2026-01-04 01:43:24.06	7.61	35.61	-49.4	-52.4	12.8	6.17e-05	0	56	0	511705088	61	5119
2026-01-04 01:43:25.05	7.40	35.80	-49.5	-52.6	12.6	5.11e-05	0	56	0	513802240	61	5242
2026-01-04 01:43:26.04	7.19	36.00	-49.6	-52.7	12.5	1.28e-04	0	56	0	515899392	61	5320
2026-01-04 01:43:27.03	6.97	36.19	-49.8	-53.2	12.0	3.20e-04	0	55	0	517996544	61	5605
2026-01-04 01:43:28.01	6.76	36.39	-49.8	-53.2	11.9	3.82e-04	0	56	0	520093696	61	5628
2026-01-04 01:43:29.00	6.53	36.59	-49.9	-53.5	11.7	3.84e-04	0	56	0	521142272	61	5812
2026-01-04 01:43:29.99	6.31	36.78	-49.8	-53.2	11.9	4.27e-04	0	56	0	523239424	61	5623
2026-01-04 01:43:30.98	6.08	36.98	-49.8	-53.1	12.0	3.06e-04	0	56	0	525336576	61	5567
2026-01-04 01:43:31.96	5.86	37.18	-49.8	-53.1	12.0	3.26e-04	0	56	0	527433728	61	5580
2026-01-04 01:43:32.96	5.62	37.38	-49.8	-53.4	11.8	4.71e-04	0	56	0	528482304	61	5734
2026-01-04 01:43:33.95	5.39	37.58	-49.7	-53.1	12.1	4.03e-04	0	56	0	530579456	61	5530
2026-01-04 01:43:34.93	5.15	37.78	-49.7	-53.2	12.0	3.69e-04	0	56	0	532676608	61	5608
2026-01-04 01:43:35.92	4.91	37.98	-49.7	-52.9	12.3	2.89e-04	0	56	0	534773760	61	5440
2026-01-04 01:43:36.91	4.66	38.18	-49.7	-52.9	12.3	2.46e-04	0	56	0	535822336	61	5446
2026-01-04 01:43:37.90	4.42	38.38	-49.7	-53.1	12.1	2.17e-04	0	56	0	537919488	61	5547
2026-01-04 01:43:38.89	4.17	38.59	-49.7	-53.0	12.2	2.23e-04	0	56	0	540016640	61	5497
2026-01-04 01:43:39.87	3.91	38.79	-49.8	-53.2	12.0	2.94e-04	0	56	0	542113792	61	5625
2026-01-04 01:43:40.86	3.66	38.99	-49.9	-53.4	11.7	4.03e-04	0	56	0	544210944	61	5760
2026-01-04 01:43:41.84	3.40	39.20	-50.1	-53.9	11.3	5.68e-04	0	56	0	545259520	62	5728
2026-01-04 01:43:42.83	3.13	39.40	-49.9	-53.4	11.7	4.99e-04	0	56	0	547356672	62	5434
2026-01-04 01:43:43.82	2.87	39.61	-49.8	-53.1	12.1	3.71e-04	0	55	0	549453824	62	5251
2026-01-04 01:43:44.81	2.60	39.81	-49.6	-52.8	12.4	2.21e-04	0	56	0	551550976	62	5099
2026-01-04 01:43:45.80	2.32	40.02	-49.7	-53.0	12.2	1.60e-04	0	56	0	552599552	62	5174
2026-01-04 01:43:46.79	2.05	40.23	-49.7	-52.9	12.2	2.66e-04	0	56	0	554696704	62	5150
2026-01-04 01:43:47.78	1.76	40.44	-49.9	-53.4	11.8	2.91e-04	0	56	0	556793856	62	5423
2026-01-04 01:43:48.77	1.48	40.64	-49.9	-53.3	11.8	4.55e-04	0	56	0	558891008	62	5392
2026-01-04 01:43:49.75	1.19	40.85	-49.7	-53.1	12.1	3.36e-04	0	56	0	559939584	62	5232
2026-01-04 01:43:50.75	0.90	41.06	-49.9	-53.3	11.9	3.59e-04	0	56	0	562036736	62	5346
2026-01-04 01:43:51.73	0.60	41.27	-49.6	-52.8	12.4	3.06e-04	0	56	0	564133888	62	5054
2026-01-04 01:43:52.72	0.30	41.48	-49.2	-52.1	13.1	8.77e-05	0	56	0	566231040	61	4947
2026-01-04 01:43:53.72	360.00	41.69	-49.1	-51.9	13.4	1.75e-05	0	56	0	568328192	61	4847
2026-01-04 01:43:54.70	359.69	41.90	-49.2	-52.0	13.2	1.83e-05	0	56	0	569376768	61	4876
2026-01-04 01:43:55.69	359.38	42.11	-49.0	-51.6	13.7	1.44e-05	0	56	0	571473920	61	4679
2026-01-04 01:43:56.69	359.06	42.32	-48.8	-51.4	13.9	2.20e-06	0	56	0	573571072	60	4820
2026-01-04 01:43:57.68	358.74	42.53	-48.8	-51.4	13.8	3.00e-06	0	56	0	575668224	60	4857
2026-01-04 01:43:58.67	358.41	42.74	-48.9	-51.6	13.7	2.20e-06	0	56	0	576716800	60	4945
2026-01-04 01:43:59.66	358.08	42.96	-48.9	-51.5	13.7	1.22e-05	0	56	0	578813952	60	4916
2026-01-04 01:44:00.64	357.75	43.16	-48.7	-51.2	14.0	3.80e-06	0	56	0	580911104	60	4741
2026-01-04 01:44:01.63	357.41	43.38	-48.6	-50.9	14.3	0.00e+00	0	56	0	583008256	60	4595
2026-01-04 01:44:02.62	357.07	43.59	-48.5	-50.8	14.2	2.20e-06	0	56	0	584056832	60	4537
2026-01-04 01:44:03.61	356.72	43.80	-48.6	-51.0	14.2	7.00e-07	0	56	0	586153984	60	4606
2026-01-04 01:44:04.60	356.37	44.01	-48.9	-51.5	13.7	7.00e-07	0	56	0	588251136	60	4919
2026-01-04 01:44:05.60	356.01	44.22	-49.0	-51.7	13.6	8.30e-06	0	56	0	590348288	60	4999
2026-01-04 01:44:06.59	355.65	44.43	-48.9	-51.5	13.8	3.80e-06	0	56	0	592445440	60	4915
2026-01-04 01:44:07.57	355.29	44.64	-48.9	-51.5	13.8	6.10e-06	0	56	0	593494016	60	4884
2026-01-04 01:44:08.56	354.92	44.85	-48.9	-51.7	13.6	6.10e-06	0	56	0	595591168	60	4984
2026-01-04 01:44:09.55	354.54	45.06	-49.1	-51.8	13.5	1.44e-05	0	56	0	597688320	60	5064
2026-01-04 01:44:10.54	354.16	45.27	-49.0	-51.7	13.5	1.44e-05	0	56	0	599785472	60	5009
2026-01-04 01:44:11.53	353.77	45.48	-49.0	-51.7	13.5	7.60e-06	0	56	0	600834048	60	5040
2026-01-04 01:44:12.51	353.38	45.69	-48.9	-51.4	13.8	5.30e-06	0	56	0	602931200	60	4849
2026-01-04 01:44:13.49	352.99	45.90	-48.9	-51.6	13.7	3.00e-06	0	56	0	605028352	60	4951
2026-01-04 01:44:14.48	352.59	46.11	-48.9	-51.5	13.8	3.80e-06	0	56	0	607125504	60	4874
2026-01-04 01:44:15.47	352.18	46.32	-48.8	-51.3	14.0	1.50e-06	0	56	0	608174080	60	4768
2026-01-04 01:44:16.46	351.77	46.52	-48.7	-51.1	14.2	1.50e-06	0	56	0	610271232	60	4659
2026-01-04 01:44:17.45	351.35	46.73	-48.8	-51.2	14.1	5.30e-06	0	56	0	612368384	60	4742
2026-01-04 01:44:18.43	350.93	46.93	-48.9	-51.6	13.7	4.50e-06	0	56	0	614465536	60	4927
2026-01-04 01:44:19.42	350.50	47.14	-49.1	-51.9	13.3	1.06e-05	0	56	0	616562688	60	5126
2026-01-04 01:44:20.41	350.06	47.34	-49.2	-52.0	13.3	2.05e-05	0	56	0	617611264	60	5182
2026-01-04 01:44:21.41	349.62	47.55	-49.1	-52.0	13.4	2.28e-05	0	56	0	619708416	60	5163
2026-01-04 01:44:22.40	349.17	47.75	-49.1	-51.8	13.4	8.30e-06	0	56	0	621805568	60	5075
2026-01-04 01:44:23.40	348.71	47.96	-49.3	-52.1	13.2	2.05e-05	0	56	0	623902720	60	5260
2026-01-04 01:44:24.38	348.26	48.15	-49.3	-52.2	13.0	3.66e-05	0	56	0	624951296	60	5296
2026-01-04 01:44:25.37	347.79	48.35	-49.2	-52.0	13.3	2.97e-05	0	56	0	627048448	60	5177
2026-01-04 01:44:26.36	347.32	48.55	-49.0	-51.7	13.5	1.06e-05	0	56	0	629145600	60	5039
2026-01-04 01:44:27.35	346.84	48.75	-49.1	-51.8	13.5	4.50e-06	0	56	0	631242752	60	5054
2026-01-04 01:44:28.33	346.36	48.94	-49.1	-51.9	13.4	1.06e-05	0	56	0	632291328	60	5133
2026-01-04 01:44:29.31	345.88	49.14	-49.0	-51.7	13.6	1.22e-05	0	56	0	634388480	60	4990
2026-01-04 01:44:30.30	345.38	49.33	-49.0	-51.7	13.6	7.60e-06	0	56	0	636485632	60	4985
2026-01-04 01:44:31.29	344.88	49.52	-48.9	-51.5	13.7	6.10e-06	0	56	0	638582784	60	4923
2026-01-04 01:44:32.28	344.37	49.71	-48.8	-51.4	14.0	3.80e-06	0	56	0	640679936	60	4824
2026-01-04 01:44:33.27	343.86	49.90	-48.6	-51.1	14.2	7.00e-07	0	56	0	641728512	60	4654
2026-01-04 01:44:34.26	343.34	50.09	-48.6	-51.1	14.3	3.00e-06	0	56	0	643825664	60	4662
2026-01-04 01:44:35.25	342.81	50.27	-48.5	-50.8	14.6	7.00e-07	0	56	0	645922816	60	4500
2026-01-04 01:44:36.24	342.27	50.46	-48.0	-50.0	15.3	0.00e+00	0	56	0	648019968	59	4358
2026-01-04 01:44:37.22	341.74	50.63	-47.3	-49.0	16.3	0.00e+00	0	56	0	649068544	57	4381
2026-01-04 01:44:38.21	341.19	50.81	-46.9	-48.5	16.8	0.00e+00	0	56	0	651165696	57	4119
2026-01-04 01:44:39.20	340.64	50.99	-46.9	-48.5	16.8	0.00e+00	0	56	0	653262848	56	4369
2026-01-04 01:44:40.20	340.07	51.17	-46.9	-48.6	16.8	0.00e+00	0	56	0	655360000	56	4409
2026-01-04 01:44:41.19	339.50	51.34	-46.6	-48.1	17.2	0.00e+00	0	56	0	656408576	56	4181
2026-01-04 01:44:42.18	338.93	51.51	-46.6	-48.1	17.2	0.00e+00	0	56	0	658505728	56	4148
2026-01-04 01:44:43.17	338.35	51.68	-46.9	-48.5	16.9	0.00e+00	0	56	0	660602880	56	4366
2026-01-04 01:44:44.16	337.76	51.84	-46.9	-48.4	16.9	0.00e+00	0	56	0	662700032	56	4329
2026-01-04 01:44:45.15	337.17	52.00	-47.2	-48.9	16.4	0.00e+00	0	56	0	664797184	56	4573
2026-01-04 01:44:46.13	336.57	52.16	-46.9	-48.5	16.9	0.00e+00	0	56	0	665845760	56	4367
2026-01-04 01:44:47.12	335.97	52.32	-46.8	-48.3	17.0	0.00e+00	0	56	0	667942912	56	4291
2026-01-04 01:44:48.11	335.35	52.47	-46.9	-48.4	16.9	0.00e+00	0	56	0	670040064	56	4322
2026-01-04 01:44:49.09	334.74	52.62	-47.2	-48.9	16.4	0.00e+00	0	56	0	672137216	56	4566
2026-01-04 01:44:50.09	334.11	52.77	-47.8	-49.8	15.6	0.00e+00	0	56	0	673185792	57	4777
2026-01-04 01:44:51.08	333.48	52.92	-47.7	-49.5	15.8	0.00e+00	0	56	0	675282944	57	4632
2026-01-04 01:44:52.06	332.85	53.06	-47.7	-49.5	15.8	0.00e+00	0	56	0	677380096	57	4621
2026-01-04 01:44:53.04	332.21	53.20	-47.8	-49.7	15.6	0.00e+00	0	56	0	679477248	57	4748
2026-01-04 01:44:54.03	331.56	53.33	-47.9	-49.9	15.4	0.00e+00	0	56	0	680525824	57	4854
2026-01-04 01:44:55.01	330.91	53.46	-47.9	-50.0	15.4	0.00e+00	0	56	0	682622976	57	4871
2026-01-04 01:44:56.01	330.24	53.59	-47.7	-49.7	15.7	0.00e+00	0	56	0	684720128	57	4715
2026-01-04 01:44:57.00	329.57	53.72	-47.4	-49.2	16.1	0.00e+00	0	56	0	686817280	57	4458
2026-01-04 01:44:58.00	328.89	53.84	-47.2	-49.0	16.4	0.00e+00	0	56	0	687865856	57	4351
2026-01-04 01:44:58.98	328.22	53.95	-47.6	-49.5	15.8	0.00e+00	0	56	0	689963008	57	4608
2026-01-04 01:44:59.97	327.53	54.07	-47.4	-49.1	16.3	0.00e+00	0	56	0	692060160	57	4410
2026-01-04 01:45:00.97	326.83	54.18	-47.5	-49.3	16.0	0.00e+00	0	56	0	694157312	57	4541
2026-01-04 01:45:01.95	326.14	54.28	-47.7	-49.6	15.7	0.00e+00	0	56	0	696254464	57	4681
2026-01-04 01:45:02.94	325.44	54.38	-47.6	-49.5	15.9	0.00e+00	0	56	0	697303040	57	4609
2026-01-04 01:45:03.93	324.74	54.48	-48.0	-50.0	15.4	0.00e+00	0	56	0	699400192	57	4892
2026-01-04 01:45:04.92	324.03	54.57	-48.1	-50.2	15.2	0.00e+00	0	56	0	701497344	58	4713
2026-01-04 01:45:05.90	323.32	54.66	-48.1	-50.2	15.2	0.00e+00	0	56	0	703594496	58	4718
2026-01-04 01:45:06.88	322.61	54.74	-47.8	-49.7	15.6	0.00e+00	0	56	0	704643072	58	4444
2026-01-04 01:45:07.87	321.88	54.82	-47.7	-49.5	15.9	0.00e+00	0	56	0	706740224	58	4370
2026-01-04 01:45:08.85	321.16	54.90	-47.6	-49.4	16.0	0.00e+00	0	56	0	708837376	58	4299
2026-01-04 01:45:09.84	320.43	54.97	-47.1	-48.8	16.6	0.00e+00	0	56	0	710934528	57	4244
2026-01-04 01:45:10.83	319.70	55.03	-47.3	-49.0	16.4	0.00e+00	0	56	0	711983104	57	4349
2026-01-04 01:45:11.83	318.95	55.10	-46.9	-48.5	16.9	0.00e+00	0	56	0	714080256	57	4132
2026-01-04 01:45:12.82	318.21	55.15	-46.5	-47.9	17.4	0.00e+00	0	56	0	716177408	56	4090
2026-01-04 01:45:13.81	317.47	55.21	-46.1	-47.4	17.8	0.00e+00	0	56	0	718274560	55	4087
2026-01-04 01:45:14.80	316.72	55.25	-45.7	-47.0	18.2	0.00e+00	0	56	0	720371712	54	4110
2026-01-04 01:45:15.79	315.97	55.30	-45.3	-46.5	18.7	0.00e+00	0	56	0	721420288	53	4121
2026-01-04 01:45:16.77	315.23	55.33	-45.3	-46.4	18.7	0.00e+00	0	56	0	723517440	53	4093
2026-01-04 01:45:17.76	314.48	55.37	-45.4	-46.6	18.6	0.00e+00	0	56	0	725614592	53	4154
2026-01-04 01:45:18.75	313.72	55.40	-45.6	-46.9	18.3	0.00e+00	0	56	0	727711744	53	4302
2026-01-04 01:45:19.74	312.96	55.42	-45.4	-46.6	18.6	0.00e+00	0	56	0	728760320	53	4161
2026-01-04 01:45:20.72	312.21	55.44	-45.2	-46.3	18.9	0.00e+00	0	56	0	730857472	53	4041
2026-01-04 01:45:21.71	311.46	55.45	-45.3	-46.5	18.8	0.00e+00	0	56	0	732954624	53	4099
2026-01-04 01:45:22.71	310.69	55.46	-45.3	-46.4	18.8	0.00e+00	0	56	0	735051776	53	4098
2026-01-04 01:45:23.70	309.93	55.46	-45.4	-46.6	18.6	0.00e+00	0	56	0	736100352	53	4177
2026-01-04 01:45:24.68	309.18	55.46	-45.7	-46.9	18.3	0.00e+00	0	56	0	738197504	53	4325
2026-01-04 01:45:25.68	308.41	55.45	-45.7	-47.0	18.2	0.00e+00	0	56	0	740294656	53	4363
2026-01-04 01:45:26.67	307.65	55.44	-45.8	-47.1	18.1	0.00e+00	0	56	0	742391808	53	4403
2026-01-04 01:45:27.65	306.90	55.43	-46.1	-47.4	17.8	0.00e+00	0	56	0	744488960	53	4592
2026-01-04 01:45:28.64	306.15	55.40	-46.2	-47.6	17.6	0.00e+00	0	56	0	745537536	54	4426
2026-01-04 01:45:29.63	305.39	55.38	-46.2	-47.6	17.7	0.00e+00	0	56	0	747634688	54	4415
2026-01-04 01:45:30.62	304.64	55.35	-46.4	-47.8	17.4	0.00e+00	0	56	0	749731840	54	4541
2026-01-04 01:45:31.60	303.89	55.31	-46.5	-48.0	17.2	0.00e+00	0	56	0	751828992	54	4650
2026-01-04 01:45:32.59	303.14	55.27	-46.3	-47.7	17.5	0.00e+00	0	56	0	752877568	55	4209
2026-01-04 01:45:33.58	302.40	55.22	-46.1	-47.4	17.8	0.00e+00	0	57	0	754974720	55	4080
2026-01-04 01:45:34.58	301.64	55.17	-46.0	-47.4	17.8	0.00e+00	0	56	0	757071872	55	4072
2026-01-04 01:45:35.57	300.90	55.12	-46.0	-47.3	17.9	0.00e+00	0	56	0	759169024	55	4034
2026-01-04 01:45:36.56	300.16	55.06	-45.8	-47.1	18.1	0.00e+00	0	56	0	760217600	54	4175
2026-01-04 01:45:37.55	299.42	54.99	-45.9	-47.2	18.0	0.00e+00	0	56	0	762314752	54	4217
2026-01-04 01:45:38.54	298.69	54.92	-45.8	-47.1	18.1	0.00e+00	0	56	0	764411904	54	4167
2026-01-04 01:45:39.54	297.96	54.85	-45.8	-47.1	18.2	0.00e+00	0	56	0	766509056	54	4146
2026-01-04 01:45:40.53	297.23	54.77	-46.0	-47.4	17.8	0.00e+00	0	56	0	768606208	54	4304
2026-01-04 01:45:41.52	296.51	54.69	-46.1	-47.4	17.8	0.00e+00	0	56	0	769654784	54	4304
2026-01-04 01:45:42.51	295.79	54.60	-45.9	-47.2	18.0	0.00e+00	0	57	0	771751936	54	4231
2026-01-04 01:45:43.50	295.08	54.51	-45.6	-46.9	18.3	0.00e+00	0	56	0	773849088	54	4060
2026-01-04 01:45:44.49	294.37	54.41	-45.4	-46.6	18.6	0.00e+00	0	56	0	775946240	54	3940
2026-01-04 01:45:45.47	293.68	54.32	-45.3	-46.5	18.7	0.00e+00	0	57	0	776994816	53	4125
2026-01-04 01:45:46.47	292.97	54.21	-45.6	-46.9	18.3	0.00e+00	0	56	0	779091968	53	4300
2026-01-04 01:45:47.45	292.29	54.10	-46.4	-47.8	17.4	0.00e+00	0	57	0	781189120	54	4513
2026-01-04 01:45:48.44	291.60	53.99	-46.7	-48.3	16.9	0.00e+00	0	56	0	783286272	55	4513
2026-01-04 01:45:49.43	290.92	53.88	-46.3	-47.7	17.4	0.00e+00	0	56	0	784334848	55	4233
2026-01-04 01:45:50.41	290.25	53.76	-46.1	-47.5	17.8	0.00e+00	0	56	0	786432000	55	4106
2026-01-04 01:45:51.40	289.58	53.63	-45.8	-47.1	18.1	0.00e+00	0	56	0	788529152	54	4186
2026-01-04 01:45:52.39	288.91	53.51	-45.6	-46.9	18.3	0.00e+00	0	56	0	790626304	54	4083
2026-01-04 01:45:53.37	288.26	53.38	-45.5	-46.7	18.5	0.00e+00	0	56	0	792723456	54	3995
2026-01-04 01:45:54.36	287.61	53.24	-45.8	-47.0	18.2	0.00e+00	0	56	0	793772032	54	4137
2026-01-04 01:45:55.35	286.96	53.11	-46.2	-47.6	17.6	0.00e+00	0	56	0	795869184	54	4415
2026-01-04 01:45:56.35	286.31	52.96	-46.7	-48.3	16.9	0.00e+00	0	56	0	797966336	55	4522
2026-01-04 01:45:57.34	285.68	52.82	-47.1	-48.7	16.6	0.00e+00	0	56	0	800063488	55	4732
2026-01-04 01:45:58.33	285.05	52.67	-47.2	-48.9	16.5	0.00e+00	0	56	0	801112064	56	4554
2026-01-04 01:45:59.33	284.42	52.52	-47.1	-48.7	16.6	0.00e+00	0	56	0	803209216	56	4471
2026-01-04 01:46:00.32	283.80	52.37	-46.8	-48.4	16.9	0.00e+00	0	56	0	805306368	56	4315
2026-01-04 01:46:01.30	283.20	52.21	-46.9	-48.4	16.9	0.00e+00	0	56	0	807403520	56	4320
2026-01-04 01:46:02.29	282.60	52.05	-47.0	-48.6	16.8	0.00e+00	0	56	0	808452096	56	4417
2026-01-04 01:46:03.28	282.00	51.89	-47.2	-48.9	16.5	0.00e+00	0	56	0	810549248	56	4557
2026-01-04 01:46:04.27	281.41	51.73	-47.6	-49.5	15.8	0.00e+00	0	56	0	812646400	57	4619
2026-01-04 01:46:05.27	280.82	51.56	-47.8	-49.6	15.7	0.00e+00	0	56	0	814743552	57	4701
2026-01-04 01:46:06.26	280.25	51.39	-47.9	-49.9	15.5	0.00e+00	0	57	0	816840704	57	4815
2026-01-04 01:46:07.25	279.68	51.22	-47.5	-49.3	16.1	0.00e+00	0	56	0	817889280	57	4514
2026-01-04 01:46:08.24	279.11	51.04	-47.2	-48.9	16.4	0.00e+00	0	57	0	819986432	57	4334
2026-01-04 01:46:09.24	278.55	50.86	-47.1	-48.8	16.6	0.00e+00	0	56	0	822083584	57	4257
2026-01-04 01:46:10.23	278.00	50.68	-47.3	-48.9	16.4	0.00e+00	0	56	0	824180736	57	4340
2026-01-04 01:46:11.22	277.46	50.50	-47.6	-49.4	15.9	0.00e+00	0	56	0	825229312	57	4587
2026-01-04 01:46:12.21	276.92	50.32	-48.4	-50.6	14.8	0.00e+00	0	56	0	827326464	58	4927
2026-01-04 01:46:13.21	276.38	50.13	-48.5	-50.8	14.6	0.00e+00	0	56	0	829423616	58	5097
2026-01-04 01:46:14.20	275.86	49.95	-48.6	-50.9	14.4	7.00e-07	0	56	0	831520768	59	4853
2026-01-04 01:46:15.20	275.34	49.76	-47.9	-49.9	15.4	0.00e+00	0	56	0	833617920	59	4317
2026-01-04 01:46:16.17	274.84	49.57	-47.9	-49.8	15.5	7.00e-07	0	56	0	834666496	58	4514
2026-01-04 01:46:17.16	274.33	49.38	-48.0	-49.9	15.4	0.00e+00	0	56	0	836763648	58	4584
2026-01-04 01:46:18.15	273.83	49.19	-48.4	-50.6	14.8	0.00e+00	0	57	0	838860800	58	4956
2026-01-04 01:46:19.14	273.34	48.99	-48.9	-51.4	13.9	2.20e-06	0	57	0	840957952	59	5150
2026-01-04 01:46:20.13	272.85	48.80	-49.5	-52.6	12.6	4.50e-05	0	56	0	842006528	60	5583
2026-01-04 01:46:21.12	272.37	48.60	-49.6	-52.8	12.5	1.28e-04	0	57	0	844103680	61	5376
2026-01-04 01:46:22.10	271.91	48.40	-49.6	-52.8	12.4	1.78e-04	0	57	0	846200832	61	5402
2026-01-04 01:46:23.09	271.44	48.20	-49.8	-53.1	12.2	1.36e-04	0	56	0	848297984	61	5539
2026-01-04 01:46:24.08	270.98	48.00	-50.1	-53.8	11.5	4.65e-04	0	57	0	849346560	62	5696
2026-01-04 01:46:25.07	270.52	47.80	-50.3	-54.1	11.2	6.84e-04	0	57	0	851443712	62	5863
2026-01-04 01:46:26.06	270.07	47.60	-50.4	-54.4	10.8	1.73e-03	0	56	0	853540864	62	6124
2026-01-04 01:46:27.05	269.63	47.39	-50.8	-55.6	9.6	9.15e-03	0	56	0	855638016	63	6607
2026-01-04 01:46:28.03	269.19	47.19	-50.7	-55.3	9.9	1.08e-02	0	57	0	857735168	63	6355
2026-01-04 01:46:29.02	268.76	46.98	-50.6	-55.0	10.2	6.88e-03	0	57	0	858783744	63	6156
2026-01-04 01:46:30.00	268.34	46.78	-50.6	-54.9	10.3	6.38e-03	0	56	0	860880896	63	6104
2026-01-04 01:46:30.99	267.92	46.57	-50.6	-55.1	10.1	5.91e-03	0	56	0	862978048	63	6251
2026-01-04 01:46:31.98	267.50	46.37	-50.3	-54.1	11.0	2.89e-03	0	57	0	865075200	63	5585
2026-01-04 01:46:32.97	267.09	46.16	-50.2	-53.9	11.4	1.15e-03	0	57	0	866123776	63	5449
2026-01-04 01:46:33.96	266.69	45.95	-50.4	-54.3	10.9	1.20e-03	0	57	0	868220928	63	5679
2026-01-04 01:46:34.94	266.29	45.74	-50.4	-54.3	11.0	1.96e-03	0	57	0	870318080	63	5701
2026-01-04 01:46:35.94	265.90	45.53	-50.6	-54.8	10.4	3.43e-03	0	57	0	872415232	63	6000
2026-01-04 01:46:36.92	265.51	45.32	-50.4	-54.5	10.6	3.85e-03	0	56	0	873463808	63	5838
2026-01-04 01:46:37.92	265.12	45.11	-50.1	-53.8	11.4	2.33e-03	0	57	0	875560960	63	5349
2026-01-04 01:46:38.92	264.74	44.90	-49.7	-52.9	12.4	2.58e-04	0	57	0	877658112	62	5123
2026-01-04 01:46:39.91	264.37	44.68	-49.0	-51.7	13.6	3.50e-05	0	57	0	879755264	61	4729
2026-01-04 01:46:40.89	264.00	44.47	-48.7	-51.1	14.2	3.00e-06	0	57	0	880803840	60	4681
2026-01-04 01:46:41.88	263.64	44.26	-48.7	-51.2	14.2	2.20e-06	0	57	0	882900992	60	4725
2026-01-04 01:46:42.87	263.28	44.05	-48.9	-51.4	13.8	3.00e-06	0	57	0	884998144	60	4864
2026-01-04 01:46:43.86	262.93	43.84	-49.1	-51.9	13.4	9.10e-06	0	57	0	887095296	60	5154
2026-01-04 01:46:44.85	262.58	43.63	-49.3	-52.2	13.1	1.37e-05	0	57	0	889192448	60	5288
2026-01-04 01:46:45.84	262.23	43.42	-49.3	-52.2	13.1	3.35e-05	0	57	0	890241024	60	5293
2026-01-04 01:46:46.83	261.89	43.20	-49.0	-51.7	13.7	2.21e-05	0	56	0	892338176	60	4992
2026-01-04 01:46:47.82	261.56	42.99	-48.6	-51.0	14.3	1.50e-06	0	57	0	894435328	60	4604
2026-01-04 01:46:48.81	261.23	42.78	-48.6	-50.9	14.4	1.50e-06	0	57	0	896532480	60	4589
2026-01-04 01:46:49.79	260.90	42.57	-48.7	-51.1	14.2	1.50e-06	0	57	0	897581056	60	4665
2026-01-04 01:46:50.78	260.58	42.36	-49.1	-51.8	13.5	4.50e-06	0	57	0	899678208	60	5100
2026-01-04 01:46:51.78	260.26	42.15	-49.3	-52.2	13.1	1.67e-05	0	57	0	901775360	60	5307
2026-01-04 01:46:52.77	259.94	41.94	-49.6	-52.9	12.4	5.18e-05	0	57	0	903872512	61	5406
2026-01-04 01:46:53.76	259.63	41.73	-49.8	-53.1	12.2	2.75e-04	0	57	0	904921088	61	5552
2026-01-04 01:46:54.75	259.33	41.51	-49.8	-53.1	12.1	4.16e-04	0	57	0	907018240	61	5579
2026-01-04 01:46:55.74	259.03	41.30	-49.9	-53.3	12.0	3.26e-04	0	57	0	909115392	61	5680
2026-01-04 01:46:56.73	258.73	41.09	-49.9	-53.2	12.0	3.07e-04	0	57	0	911212544	61	5632
2026-01-04 01:46:57.72	258.43	40.88	-50.0	-53.4	11.8	4.07e-04	0	57	0	913309696	61	5773
2026-01-04 01:46:58.71	258.14	40.68	-50.1	-53.7	11.5	8.04e-04	0	57	0	914358272	62	5643
2026-01-04 01:46:59.69	257.86	40.47	-50.1	-53.9	11.3	1.05e-03	0	57	0	916455424	62	5765
2026-01-04 01:47:00.68	257.58	40.26	-50.1	-54.0	11.3	1.27e-03	0	57	0	918552576	62	5802
2026-01-04 01:47:01.67	257.30	40.05	-50.2	-53.8	11.4	9.67e-04	0	57	0	920649728	62	5713
2026-01-04 01:47:02.66	257.02	39.85	-50.1	-54.0	11.2	1.53e-03	0	57	0	921698304	62	5811
2026-01-04 01:47:03.66	256.75	39.64	-50.2	-54.1	11.1	1.14e-03	0	57	0	923795456	62	5872
2026-01-04 01:47:04.66	256.48	39.43	-50.2	-53.9	11.3	1.60e-03	0	57	0	925892608	62	5764
2026-01-04 01:47:05.64	256.21	39.22	-50.0	-53.7	11.6	7.56e-04	0	57	0	927989760	62	5618
2026-01-04 01:47:06.63	255.95	39.02	-50.0	-53.6	11.6	5.83e-04	0	56	0	930086912	62	5570
2026-01-04 01:47:07.61	255.70	38.81	-49.9	-53.4	11.9	4.03e-04	0	57	0	931135488	62	5457
2026-01-04 01:47:08.60	255.44	38.61	-50.0	-53.5	11.8	5.06e-04	0	57	0	933232640	62	5467
2026-01-04 01:47:09.60	255.19	38.40	-49.8	-53.2	12.0	3.72e-04	0	57	0	935329792	62	5306
2026-01-04 01:47:10.59	254.94	38.20	-49.9	-53.3	11.9	2.98e-04	0	57	0	937426944	62	5371
2026-01-04 01:47:11.59	254.69	38.00	-49.7	-53.0	12.3	2.97e-04	0	57	0	938475520	62	5174
2026-01-04 01:47:12.58	254.45	37.79	-49.6	-52.7	12.6	1.16e-04	0	57	0	940572672	62	5007
2026-01-04 01:47:13.56	254.21	37.60	-49.3	-52.3	13.0	5.87e-05	0	57	0	942669824	61	5065
2026-01-04 01:47:14.55	253.97	37.39	-49.1	-51.9	13.4	2.97e-05	0	57	0	944766976	61	4841
2026-01-04 01:47:15.54	253.74	37.19	-49.0	-51.7	13.6	4.50e-06	0	57	0	945815552	61	4731
2026-01-04 01:47:16.52	253.51	37.00	-49.3	-52.3	13.0	3.12e-05	0	57	0	947912704	61	5042
2026-01-04 01:47:17.52	253.28	36.80	-49.4	-52.4	12.8	4.88e-05	0	57	0	950009856	61	5147
2026-01-04 01:47:18.51	253.05	36.60	-49.7	-52.9	12.4	7.24e-05	0	57	0	952107008	61	5432
2026-01-04 01:47:19.50	252.83	36.40	-49.6	-52.7	12.6	1.27e-04	0	57	0	954204160	61	5280
2026-01-04 01:47:20.49	252.61	36.20	-49.2	-52.1	13.1	5.11e-05	0	57	0	955252736	61	4971
2026-01-04 01:47:21.48	252.40	36.01	-48.9	-51.5	13.7	2.28e-05	0	57	0	957349888	61	4648
2026-01-04 01:47:22.47	252.18	35.81	-48.8	-51.3	14.0	6.80e-06	0	57	0	959447040	60	4790
2026-01-04 01:47:23.45	251.97	35.62	-48.8	-51.3	13.9	7.00e-07	0	57	0	961544192	60	4809
2026-01-04 01:47:24.45	251.76	35.42	-48.8	-51.4	13.8	6.80e-06	0	57	0	962592768	60	4854
2026-01-04 01:47:25.44	251.55	35.23	-48.8	-51.3	14.0	1.50e-06	0	57	0	964689920	60	4777
2026-01-04 01:47:26.43	251.35	35.04	-48.9	-51.5	13.8	2.20e-06	0	57	0	966787072	60	4888
2026-01-04 01:47:27.42	251.15	34.85	-49.1	-51.9	13.4	1.22e-05	0	57	0	968884224	60	5146
2026-01-04 01:47:28.40	250.95	34.66	-49.4	-52.4	12.9	3.12e-05	0	57	0	969932800	60	5435
2026-01-04 01:47:29.39	250.75	34.47	-49.6	-52.7	12.5	9.53e-05	0	57	0	972029952	61	5312
2026-01-04 01:47:30.37	250.56	34.28	-49.5	-52.5	12.7	6.17e-05	0	57	0	974127104	61	5175
2026-01-04 01:47:31.36	250.37	34.09	-49.6	-52.8	12.5	9.38e-05	0	57	0	976224256	61	5355
2026-01-04 01:47:32.35	250.17	33.90	-49.5	-52.7	12.5	1.22e-04	0	57	0	977272832	61	5314
2026-01-04 01:47:33.34	249.99	33.72	-49.7	-52.9	12.4	1.75e-04	0	57	0	979369984	61	5404
2026-01-04 01:47:34.33	249.80	33.53	-49.4	-52.5	12.8	7.85e-05	0	57	0	981467136	61	5160
2026-01-04 01:47:35.32	249.62	33.35	-49.5	-52.6	12.6	9.15e-05	0	57	0	983564288	61	5250
2026-01-04 01:47:36.31	249.43	33.16	-49.4	-52.4	12.8	8.39e-05	0	57	0	985661440	61	5142
2026-01-04 01:47:37.29	249.26	32.98	-49.5	-52.6	12.7	7.01e-05	0	57	0	986710016	61	5222
2026-01-04 01:47:38.28	249.08	32.80	-49.5	-52.6	12.7	9.00e-05	0	57	0	988807168	61	5228
2026-01-04 01:47:39.26	248.90	32.62	-49.4	-52.4	12.8	7.40e-05	0	57	0	990904320	61	5103
2026-01-04 01:47:40.25	248.73	32.43	-49.2	-52.0	13.3	3.58e-05	0	57	0	993001472	61	4889
2026-01-04 01:47:41.24	248.56	32.25	-49.1	-51.8	13.4	1.75e-05	0	57	0	994050048	61	4807
2026-01-04 01:47:42.24	248.39	32.07	-49.1	-51.8	13.4	1.22e-05	0	57	0	996147200	61	4805
2026-01-04 01:47:43.23	248.22	31.89	-49.2	-52.0	13.3	1.22e-05	0	57	0	998244352	61	4893
2026-01-04 01:47:44.22	248.05	31.71	-49.3	-52.1	13.1	2.82e-05	0	57	0	1000341504	61	4979
2026-01-04 01:47:45.21	247.89	31.54	-49.3	-52.2	13.1	2.36e-05	0	57	0	1001390080	61	4986
2026-01-04 01:47:46.20	247.73	31.36	-49.5	-52.5	12.7	7.47e-05	0	57	0	1003487232	61	5214
2026-01-04 01:47:47.19	247.57	31.18	-49.5	-52.6	12.7	6.48e-05	0	57	0	1005584384	61	5222
2026-01-04 01:47:48.18	247.41	31.01	-49.5	-52.5	12.7	7.24e-05	0	57	0	1007681536	61	5210
2026-01-04 01:47:49.17	247.25	30.83	-49.6	-52.7	12.5	9.07e-05	0	57	0	1009778688	61	5304
2026-01-04 01:47:50.16	247.09	30.66	-49.7	-52.8	12.4	1.29e-04	0	57	0	1010827264	61	5401
2026-01-04 01:47:51.15	246.94	30.49	-49.3	-52.3	12.9	7.93e-05	0	57	0	1012924416	61	5067
2026-01-04 01:47:52.13	246.79	30.32	-49.3	-52.2	13.0	4.04e-05	0	57	0	1015021568	61	5019
2026-01-04 01:47:53.11	246.64	30.15	-49.3	-52.2	13.1	3.43e-05	0	57	0	1017118720	61	4993
2026-01-04 01:47:54.10	246.49	29.98	-49.2	-52.2	13.0	4.11e-05	0	57	0	1018167296	61	5006
2026-01-04 01:47:55.09	246.35	29.81	-49.3	-52.2	13.0	2.74e-05	0	57	0	1020264448	61	5016
2026-01-04 01:47:56.09	246.20	29.64	-49.2	-52.1	13.2	3.66e-05	0	57	0	1022361600	61	4930
2026-01-04 01:47:57.08	246.05	29.47	-49.2	-52.2	13.0	3.66e-05	0	57	0	1024458752	61	4986
2026-01-04 01:47:58.07	245.91	29.30	-48.9	-51.6	13.7	1.22e-05	0	57	0	1026555904	60	4931
2026-01-04 01:47:59.06	245.77	29.14	-48.7	-51.2	14.1	3.00e-06	0	57	0	1027604480	60	4719
2026-01-04 01:48:00.05	245.63	28.97	-48.6	-51.0	14.2	7.00e-07	0	57	0	1029701632	60	4631
2026-01-04 01:48:01.05	245.49	28.80	-48.6	-51.0	14.2	1.50e-06	0	57	0	1031798784	60	4650
2026-01-04 01:48:02.04	245.35	28.64	-48.7	-51.2	14.0	2.20e-06	0	57	0	1033895936	60	4734
2026-01-04 01:48:03.03	245.22	28.48	-48.9	-51.5	13.7	4.50e-06	0	57	0	1034944512	60	4897
2026-01-04 01:48:04.01	245.09	28.32	-48.7	-51.1	14.1	2.20e-06	0	57	0	1037041664	60	4693
2026-01-04 01:48:05.01	244.95	28.15	-48.4	-50.7	14.5	7.00e-07	0	57	0	1039138816	60	4489
2026-01-04 01:48:05.99	244.82	27.99	-48.3	-50.5	14.8	0.00e+00	0	57	0	1041235968	59	4611
2026-01-04 01:48:06.98	244.69	27.83	-48.3	-50.5	14.8	0.00e+00	0	57	0	1042284544	59	4609
2026-01-04 01:48:07.98	244.56	27.67	-48.3	-50.4	14.8	7.00e-07	0	57	0	1044381696	59	4592
2026-01-04 01:48:08.97	244.44	27.51	-48.3	-50.5	14.8	0.00e+00	0	57	0	1046478848	59	4620
2026-01-04 01:48:09.96	244.31	27.35	-48.4	-50.7	14.5	0.00e+00	0	57	0	1048576000	59	4754
2026-01-04 01:48:10.96	244.18	27.20	-48.6	-51.0	14.3	2.20e-06	0	57	0	1050673152	59	4884
2026-01-04 01:48:11.95	244.06	27.04	-48.5	-50.8	14.4	1.50e-06	0	57	0	1051721728	59	4784
2026-01-04 01:48:12.94	243.94	26.88	-48.4	-50.6	14.6	7.00e-07	0	57	0	1053818880	59	4683
2026-01-04 01:48:13.93	243.82	26.73	-48.4	-50.7	14.5	7.00e-07	0	57	0	1055916032	59	4730
2026-01-04 01:48:14.92	243.70	26.57	-48.5	-50.7	14.4	0.00e+00	0	57	0	1058013184	59	4755
2026-01-04 01:48:15.91	243.58	26.42	-48.5	-50.9	14.3	0.00e+00	0	57	0	1059061760	59	4847
2026-01-04 01:48:16.90	243.46	26.27	-48.5	-50.8	14.4	0.00e+00	0	57	0	1061158912	59	4768
2026-01-04 01:48:17.89	243.34	26.12	-48.4	-50.7	14.6	0.00e+00	0	57	0	1063256064	59	4710
2026-01-04 01:48:18.87	243.23	25.97	-48.4	-50.7	14.5	0.00e+00	0	57	0	1065353216	59	4749
2026-01-04 01:48:19.86	243.12	25.81	-48.5	-50.9	14.3	1.50e-06	0	57	0	1066401792	59	4858
2026-01-04 01:48:20.85	243.00	25.66	-48.4	-50.7	14.5	2.20e-06	0	57	0	1068498944	59	4742
2026-01-04 01:48:21.85	242.89	25.51	-48.2	-50.4	14.8	0.00e+00	0	57	0	1070596096	59	4580
2026-01-04 01:48:22.84	242.78	25.37	-48.2	-50.3	14.9	0.00e+00	0	57	0	1072693248	59	4538
2026-01-04 01:48:23.82	242.67	25.22	-48.2	-50.3	14.9	0.00e+00	0	57	0	1074790400	59	4528
2026-01-04 01:48:24.82	242.56	25.07	-48.1	-50.2	15.0	0.00e+00	0	57	0	1075838976	59	4466
2026-01-04 01:48:25.81	242.45	24.92	-48.1	-50.3	15.0	7.00e-07	0	57	0	1077936128	59	4498
2026-01-04 01:48:26.80	242.35	24.78	-48.3	-50.5	14.7	0.00e+00	0	57	0	1080033280	59	4605
2026-01-04 01:48:27.79	242.24	24.63	-48.2	-50.3	14.9	0.00e+00	0	57	0	1082130432	59	4536
2026-01-04 01:48:28.76	242.14	24.49	-47.9	-49.9	15.2	0.00e+00	0	57	0	1083179008	59	4339
2026-01-04 01:48:29.75	242.04	24.35	-47.7	-49.6	15.6	0.00e+00	0	57	0	1085276160	58	4439
2026-01-04 01:48:30.74	241.93	24.21	-47.5	-49.4	15.8	0.00e+00	0	57	0	1087373312	58	4338
2026-01-04 01:48:31.72	241.83	24.06	-47.5	-49.4	15.8	0.00e+00	0	57	0	1089470464	58	4314
2026-01-04 01:48:32.71	241.73	23.92	-47.5	-49.3	15.9	0.00e+00	0	57	0	1090519040	58	4281
2026-01-04 01:48:33.69	241.63	23.78	-47.4	-49.3	16.0	0.00e+00	0	57	0	1092616192	58	4264
2026-01-04 01:48:34.68	241.53	23.64	-47.5	-49.5	15.8	0.00e+00	0	57	0	1094713344	58	4341
2026-01-04 01:48:35.67	241.43	23.50	-47.5	-49.4	15.8	0.00e+00	0	57	0	1096810496	58	4311
2026-01-04 01:48:36.66	241.34	23.36	-47.6	-49.6	15.7	0.00e+00	0	57	0	1097859072	58	4393
2026-01-04 01:48:37.65	241.24	23.23	-47.6	-49.5	15.7	0.00e+00	0	57	0	1099956224	58	4369
2026-01-04 01:48:38.63	241.15	23.09	-47.7	-49.7	15.5	0.00e+00	0	57	0	1102053376	58	4451
2026-01-04 01:48:39.62	241.05	22.95	-47.9	-49.9	15.3	0.00e+00	0	57	0	1104150528	58	4576
2026-01-04 01:48:40.61	240.96	22.82	-48.0	-50.0	15.2	0.00e+00	0	57	0	1106247680	58	4634
2026-01-04 01:48:41.60	240.87	22.68	-47.9	-49.9	15.2	7.00e-07	0	57	0	1107296256	58	4581
2026-01-04 01:48:42.59	240.77	22.55	-47.9	-50.0	15.2	0.00e+00	0	57	0	1109393408	58	4602
2026-01-04 01:48:43.57	240.68	22.41	-48.1	-50.2	15.0	0.00e+00	0	57	0	1111490560	58	4734
2026-01-04 01:48:44.55	240.59	22.28	-48.0	-50.0	15.2	0.00e+00	0	57	0	1113587712	58	4626
2026-01-04 01:48:45.55	240.50	22.15	-48.1	-50.2	15.0	0.00e+00	0	57	0	1114636288	58	4750
2026-01-04 01:48:46.53	240.42	22.01	-48.1	-50.2	15.0	0.00e+00	0	57	0	1116733440	58	4737
2026-01-04 01:48:47.52	240.33	21.88	-48.0	-50.1	15.1	0.00e+00	0	57	0	1118830592	58	4678
2026-01-04 01:48:48.51	240.24	21.75	-48.2	-50.4	14.7	0.00e+00	0	57	0	1120927744	58	4867
2026-01-04 01:48:49.50	240.15	21.62	-48.2	-50.5	14.7	7.00e-07	0	57	0	1121976320	58	4907
2026-01-04 01:48:50.49	240.07	21.49	-48.0	-50.1	15.0	0.00e+00	0	57	0	1124073472	58	4689
2026-01-04 01:48:51.48	239.98	21.36	-47.9	-49.9	15.2	0.00e+00	0	57	0	1126170624	58	4593
2026-01-04 01:48:52.47	239.90	21.23	-47.8	-49.9	15.3	0.00e+00	0	57	0	1128267776	58	4547
2026-01-04 01:48:53.46	239.81	21.10	-47.9	-49.9	15.3	0.00e+00	0	57	0	1130364928	58	4577
2026-01-04 01:48:54.45	239.73	20.97	-48.0	-50.1	15.1	0.00e+00	0	57	0	1131413504	58	4696
2026-01-04 01:48:55.44	239.65	20.85	-48.2	-50.3	14.8	0.00e+00	0	57	0	1133510656	58	4800
2026-01-04 01:48:56.43	239.57	20.72	-48.0	-50.2	15.0	0.00e+00	0	57	0	1135607808	58	4706
2026-01-04 01:48:57.41	239.49	20.60	-48.1	-50.2	14.9	7.00e-07	0	57	0	1137704960	58	4755
2026-01-04 01:48:58.40	239.41	20.47	-48.2	-50.5	14.7	0.00e+00	0	57	0	1138753536	58	4872
2026-01-04 01:48:59.39	239.33	20.34	-48.3	-50.5	14.6	0.00e+00	0	57	0	1140850688	58	4918
2026-01-04 01:49:00.38	239.25	20.22	-48.1	-50.2	14.9	0.00e+00	0	57	0	1142947840	58	4757
2026-01-04 01:49:01.36	239.17	20.10	-48.1	-50.4	14.8	0.00e+00	0	57	0	1145044992	58	4816
2026-01-04 01:49:02.35	239.10	19.97	-48.3	-50.6	14.5	1.50e-06	0	57	0	1146093568	58	4955
2026-01-04 01:49:03.34	239.02	19.85	-48.4	-50.7	14.4	0.00e+00	0	57	0	1148190720	58	5003
2026-01-04 01:49:04.33	238.94	19.73	-48.1	-50.2	15.0	0.00e+00	0	57	0	1150287872	58	4722
2026-01-04 01:49:05.32	238.87	19.61	-47.7	-49.7	15.5	0.00e+00	0	57	0	1152385024	58	4466
2026-01-04 01:49:06.31	238.79	19.49	-47.5	-49.4	15.7	0.00e+00	0	57	0	1153433600	58	4337
2026-01-04 01:49:07.30	238.72	19.37	-47.5	-49.4	15.8	0.00e+00	0	57	0	1155530752	58	4306
2026-01-04 01:49:08.28	238.64	19.25	-47.5	-49.4	15.8	0.00e+00	0	57	0	1157627904	58	4297
2026-01-04 01:49:09.27	238.57	19.13	-47.5	-49.3	15.8	0.00e+00	0	57	0	1159725056	58	4270
2026-01-04 01:49:10.26	238.50	19.01	-47.4	-49.2	15.9	0.00e+00	0	57	0	1161822208	57	4487
2026-01-04 01:49:11.24	238.43	18.89	-47.5	-49.4	15.7	0.00e+00	0	57	0	1162870784	57	4587
2026-01-04 01:49:12.23	238.36	18.77	-47.5	-49.4	15.7	0.00e+00	0	57	0	1164967936	57	4583
2026-01-04 01:49:13.22	238.29	18.65	-47.7	-49.6	15.5	0.00e+00	0	57	0	1167065088	57	4685
2026-01-04 01:49:14.21	238.22	18.54	-47.7	-49.6	15.5	0.00e+00	0	57	0	1169162240	57	4702
2026-01-04 01:49:15.21	238.14	18.42	-47.8	-49.9	15.2	0.00e+00	0	57	0	1170210816	57	4832
2026-01-04 01:49:16.20	238.08	18.30	-47.9	-50.0	15.1	0.00e+00	0	57	0	1172307968	57	4898
2026-01-04 01:49:17.18	238.01	18.19	-47.9	-49.9	15.2	0.00e+00	0	57	0	1174405120	57	4850
2026-01-04 01:49:18.17	237.94	18.07	-47.9	-49.9	15.1	0.00e+00	0	57	0	1176502272	57	4860
2026-01-04 01:49:19.16	237.87	17.96	-48.0	-50.2	14.9	7.00e-07	0	57	0	1177550848	57	5003
2026-01-04 01:49:20.15	237.81	17.85	-48.2	-50.5	14.6	0.00e+00	0	57	0	1179648000	58	4900
2026-01-04 01:49:21.14	237.74	17.73	-47.9	-50.1	15.0	0.00e+00	0	57	0	1181745152	58	4665
2026-01-04 01:49:22.13	237.67	17.62	-47.8	-49.9	15.2	0.00e+00	0	57	0	1183842304	58	4570
2026-01-04 01:49:23.12	237.61	17.51	-47.8	-49.9	15.2	0.00e+00	0	57	0	1185939456	58	4550
2026-01-04 01:49:24.10	237.54	17.40	-47.9	-49.9	15.2	0.00e+00	0	57	0	1186988032	58	4585
2026-01-04 01:49:25.10	237.48	17.28	-48.0	-50.2	14.9	0.00e+00	0	57	0	1189085184	58	4719
2026-01-04 01:49:26.10	237.41	17.17	-48.3	-50.6	14.4	0.00e+00	0	57	0	1191182336	58	4942
2026-01-04 01:49:27.08	237.35	17.06	-48.1	-50.3	14.7	1.50e-06	0	57	0	1193279488	58	4808
2026-01-04 01:49:28.07	237.29	16.95	-48.4	-50.7	14.3	0.00e+00	0	57	0	1194328064	58	5010
2026-01-04 01:49:29.05	237.23	16.84	-48.3	-50.6	14.4	2.20e-06	0	57	0	1196425216	58	4955
2026-01-04 01:49:30.04	237.16	16.73	-48.5	-51.0	14.1	7.00e-07	0	57	0	1198522368	58	5177
2026-01-04 01:49:31.03	237.10	16.62	-48.6	-51.1	13.9	3.80e-06	0	57	0	1200619520	59	4976
2026-01-04 01:49:32.02	237.04	16.52	-48.7	-51.3	13.7	5.30e-06	0	57	0	1202716672	59	5068
2026-01-04 01:49:33.01	236.98	16.41	-48.8	-51.6	13.4	9.90e-06	0	57	0	1203765248	59	5235
2026-01-04 01:49:34.01	236.92	16.30	-48.8	-51.5	13.5	1.44e-05	0	57	0	1205862400	59	5207
2026-01-04 01:49:35.00	236.86	16.19	-49.0	-51.8	13.2	1.60e-05	0	57	0	1207959552	59	5342
2026-01-04 01:49:35.98	236.80	16.09	-48.9	-51.7	13.3	1.83e-05	0	57	0	1210056704	59	5280
2026-01-04 01:49:36.98	236.74	15.98	-49.1	-52.0	13.0	2.51e-05	0	57	0	1211105280	59	5478
2026-01-04 01:49:37.96	236.69	15.87	-48.9	-51.7	13.2	3.73e-05	0	57	0	1213202432	60	5040
2026-01-04 01:49:38.95	236.63	15.77	-48.6	-51.3	13.7	9.90e-06	0	57	0	1215299584	60	4761
2026-01-04 01:49:39.94	236.57	15.66	-48.5	-51.1	13.9	4.50e-06	0	57	0	1217396736	60	4657
2026-01-04 01:49:40.93	236.51	15.56	-48.4	-50.8	14.1	3.00e-06	0	57	0	1218445312	59	4803
2026-01-04 01:49:41.93	236.46	15.45	-48.3	-50.6	14.3	7.00e-07	0	57	0	1220542464	59	4683
2026-01-04 01:49:42.92	236.40	15.35	-48.2	-50.6	14.3	7.00e-07	0	57	0	1222639616	59	4664
2026-01-04 01:49:43.91	236.34	15.25	-48.2	-50.5	14.4	1.50e-06	0	57	0	1224736768	59	4633
2026-01-04 01:49:44.90	236.29	15.14	-48.1	-50.4	14.6	7.00e-07	0	57	0	1226833920	59	4558
2026-01-04 01:49:45.88	236.23	15.04	-48.1	-50.4	14.5	1.50e-06	0	57	0	1227882496	59	4588
2026-01-04 01:49:46.87	236.18	14.94	-48.1	-50.4	14.5	0.00e+00	0	57	0	1229979648	59	4556
2026-01-04 01:49:47.86	236.12	14.84	-48.4	-50.8	14.0	2.20e-06	0	57	0	1232076800	59	4807
2026-01-04 01:49:48.85	236.07	14.74	-48.3	-50.7	14.1	4.50e-06	0	57	0	1234173952	59	4758
2026-01-04 01:49:49.83	236.02	14.64	-48.2	-50.5	14.3	7.00e-07	0	57	0	1235222528	59	4648
2026-01-04 01:49:50.82	235.96	14.54	-48.1	-50.5	14.4	1.50e-06	0	57	0	1237319680	59	4609
2026-01-04 01:49:51.81	235.91	14.44	-48.2	-50.6	14.2	2.20e-06	0	57	0	1239416832	59	4676
2026-01-04 01:49:52.79	235.86	14.34	-48.3	-50.7	14.1	7.00e-07	0	57	0	1241513984	59	4757
2026-01-04 01:49:53.78	235.81	14.24	-48.3	-50.8	14.1	7.00e-07	0	57	0	1242562560	59	4760
