passes_logs/2026/01/04/R3.0SM8_Murmansk_STILSPACE/R3.0SM8_Murmansk_STILSPACE__20260104_172804_FENGYUN_3E_rec.log

#Pass ID: 20260104_172804_FENGYUN 3E
#Satellite: FENGYUN 3E
#Configuration: FENGYUN 3E
#almurnet v.1.7.20240730
#Start time: 2026-01-04 17:28:05

#Version: 2.2.20231116
#Station: R3.0SM8_Murmansk_STILSPACE
#Location: 33.092731 lon 68.902999 lat
#TLE: 1 49008U 21062A   26004.01270550 -.00000256  00000+0 -10014-3 0  9997
#TLE: 2 49008  98.7472   9.2701 0001499 161.2681 198.8551 14.19882497233285

#Time	Az	El	Level	Level2	SNR	BER	BlckErr	Temp	State	Recorded	gain1	gain2
2026-01-04 17:28:05.47	250.72	3.03	-52.6	-62.8	3.8	8.46e-01	0	46	0	0	67	11891
2026-01-04 17:28:06.46	250.83	3.07	-52.7	-62.9	3.8	8.47e-01	0	46	104	0	68	11385
2026-01-04 17:28:07.45	250.94	3.11	-52.6	-62.9	3.8	8.47e-01	0	46	104	0	68	11344
2026-01-04 17:28:08.44	251.05	3.15	-52.6	-62.9	3.8	8.46e-01	0	47	104	0	68	11358
2026-01-04 17:28:09.43	251.16	3.20	-52.6	-62.8	3.8	8.47e-01	0	47	104	0	67	11886
2026-01-04 17:28:10.42	251.27	3.24	-52.5	-62.8	3.8	8.47e-01	0	47	104	0	67	11865
2026-01-04 17:28:11.41	251.38	3.28	-52.5	-62.8	3.8	8.45e-01	0	47	104	0	67	11829
2026-01-04 17:28:12.41	251.49	3.32	-52.6	-62.7	3.8	8.45e-01	0	47	104	0	67	11816
2026-01-04 17:28:13.40	251.60	3.36	-52.4	-62.7	3.8	8.47e-01	0	47	104	0	67	11769
2026-01-04 17:28:14.40	251.71	3.40	-52.4	-62.7	3.8	8.46e-01	0	47	104	0	67	11777
2026-01-04 17:28:15.39	251.83	3.44	-52.5	-62.7	3.8	8.46e-01	0	47	104	0	67	11769
2026-01-04 17:28:16.39	251.94	3.49	-52.5	-62.7	3.8	8.47e-01	0	47	104	0	67	11738
2026-01-04 17:28:17.38	252.05	3.53	-52.4	-62.7	3.8	8.47e-01	0	47	104	0	67	11721
2026-01-04 17:28:18.36	252.16	3.57	-52.4	-62.6	3.8	8.47e-01	0	47	104	0	67	11667
2026-01-04 17:28:19.34	252.28	3.61	-52.3	-62.6	3.8	8.46e-01	0	47	104	0	67	11572
2026-01-04 17:28:20.34	252.39	3.65	-52.3	-62.6	3.8	8.46e-01	0	47	104	0	67	11613
2026-01-04 17:28:21.33	252.50	3.69	-52.2	-62.5	3.8	8.45e-01	0	47	104	0	67	11464
2026-01-04 17:28:22.32	252.62	3.73	-52.2	-62.5	3.8	8.46e-01	0	48	104	0	67	11422
2026-01-04 17:28:23.31	252.73	3.77	-52.1	-62.4	3.8	8.46e-01	0	48	104	0	67	11329
2026-01-04 17:28:24.30	252.85	3.82	-52.0	-62.2	3.8	8.48e-01	0	48	104	0	66	11803
2026-01-04 17:28:25.28	252.96	3.86	-51.8	-61.9	3.8	8.46e-01	0	48	104	0	66	11398
2026-01-04 17:28:26.27	253.07	3.90	-51.5	-61.7	3.8	8.46e-01	0	48	104	0	65	11796
2026-01-04 17:28:27.25	253.19	3.94	-51.4	-61.3	3.8	8.48e-01	0	48	104	0	65	11242
2026-01-04 17:28:28.24	253.30	3.98	-51.4	-61.3	3.8	8.47e-01	0	48	104	0	65	11281
2026-01-04 17:28:29.22	253.42	4.02	-51.4	-61.4	3.8	8.47e-01	0	48	104	0	65	11291
2026-01-04 17:28:30.22	253.54	4.06	-51.4	-61.4	3.8	8.46e-01	0	48	104	0	65	11345
2026-01-04 17:28:31.20	253.65	4.10	-51.4	-61.4	3.8	8.47e-01	0	48	104	0	65	11398
2026-01-04 17:28:32.20	253.77	4.14	-51.4	-61.5	3.8	8.46e-01	0	48	104	0	65	11501
2026-01-04 17:28:33.19	253.89	4.18	-51.5	-61.6	3.8	8.46e-01	0	48	104	0	65	11582
2026-01-04 17:28:34.18	254.01	4.22	-51.5	-61.5	3.8	8.46e-01	0	48	104	0	65	11497
2026-01-04 17:28:35.17	254.12	4.26	-51.5	-61.5	3.8	8.46e-01	0	49	104	0	65	11487
2026-01-04 17:28:36.16	254.24	4.30	-51.4	-61.4	3.8	8.46e-01	0	48	104	0	65	11330
2026-01-04 17:28:37.15	254.36	4.35	-51.4	-61.4	3.8	8.46e-01	0	48	104	0	65	11315
2026-01-04 17:28:38.14	254.48	4.39	-51.4	-61.4	3.8	8.46e-01	0	49	104	0	65	11288
2026-01-04 17:28:39.13	254.60	4.43	-51.4	-61.4	3.8	8.46e-01	0	49	104	0	65	11288
2026-01-04 17:28:40.13	254.72	4.47	-51.4	-61.4	3.8	8.47e-01	0	49	104	0	65	11382
2026-01-04 17:28:41.12	254.84	4.51	-51.4	-61.5	3.8	8.46e-01	0	49	104	0	65	11490
2026-01-04 17:28:42.11	254.96	4.55	-51.5	-61.6	3.8	8.47e-01	0	49	104	0	65	11636
2026-01-04 17:28:43.11	255.08	4.59	-51.4	-61.7	3.8	8.47e-01	0	49	104	0	65	11754
2026-01-04 17:28:44.10	255.20	4.63	-51.5	-61.6	3.8	8.47e-01	0	49	104	0	65	11560
2026-01-04 17:28:45.08	255.32	4.67	-51.4	-61.2	3.8	8.46e-01	0	49	104	0	65	11073
2026-01-04 17:28:46.08	255.44	4.71	-51.3	-60.3	3.8	8.46e-01	0	49	104	0	65	9981
2026-01-04 17:28:47.07	255.56	4.75	-51.0	-58.9	3.9	8.44e-01	0	49	104	0	65	8496
2026-01-04 17:28:48.07	255.69	4.79	-50.7	-57.0	4.5	8.26e-01	0	49	0	0	64	7276
2026-01-04 17:28:49.06	255.81	4.83	-50.2	-55.2	5.6	7.33e-01	0	49	0	0	63	6246
2026-01-04 17:28:50.05	255.93	4.87	-49.5	-53.3	7.1	1.67e-01	0	49	0	6291456	62	5338
2026-01-04 17:28:51.05	256.06	4.91	-48.7	-51.6	8.8	4.60e-02	0	49	0	13631488	60	4925
2026-01-04 17:28:52.04	256.18	4.95	-47.7	-49.9	10.7	7.38e-03	0	49	0	20971520	58	4516
2026-01-04 17:28:53.03	256.30	4.99	-47.0	-48.8	11.9	7.09e-04	0	49	0	28311552	57	4212
2026-01-04 17:28:54.02	256.43	5.03	-46.2	-47.7	12.9	9.61e-05	0	50	0	34603008	55	4172
2026-01-04 17:28:55.01	256.55	5.07	-46.0	-47.5	13.1	2.97e-05	0	50	0	41943040	55	4076
2026-01-04 17:28:56.00	256.68	5.11	-46.6	-48.3	11.8	1.27e-04	0	50	0	49283072	55	4448
2026-01-04 17:28:56.99	256.80	5.15	-46.1	-47.6	13.0	7.66e-05	0	50	0	56623104	55	4105
2026-01-04 17:28:57.97	256.93	5.19	-45.7	-47.0	13.6	1.48e-05	0	50	0	62914560	54	4098
2026-01-04 17:28:58.97	257.05	5.23	-45.5	-46.8	13.8	9.10e-06	0	50	0	70254592	54	3975
2026-01-04 17:28:59.96	257.18	5.27	-45.2	-46.4	14.3	1.10e-06	0	50	0	77594624	53	4025
2026-01-04 17:29:00.95	257.30	5.31	-45.0	-46.2	14.5	1.10e-06	0	50	0	84934656	53	3938
2026-01-04 17:29:01.93	257.43	5.35	-44.9	-46.0	14.6	0.00e+00	0	50	0	92274688	52	4098
2026-01-04 17:29:02.93	257.56	5.39	-44.9	-46.1	14.5	1.10e-06	0	50	0	99614720	52	4126
2026-01-04 17:29:03.92	257.69	5.43	-44.9	-46.1	14.6	0.00e+00	0	50	0	105906176	52	4124
2026-01-04 17:29:04.91	257.81	5.47	-44.9	-46.0	14.6	0.00e+00	0	50	0	113246208	52	4095
2026-01-04 17:29:05.90	257.94	5.51	-45.1	-46.3	14.3	1.10e-06	0	50	0	120586240	52	4216
2026-01-04 17:29:06.89	258.07	5.54	-44.9	-46.0	14.6	0.00e+00	0	50	0	127926272	52	4096
2026-01-04 17:29:07.88	258.20	5.58	-44.9	-46.1	14.6	0.00e+00	0	50	0	135266304	52	4124
2026-01-04 17:29:08.87	258.33	5.62	-44.9	-46.0	14.7	0.00e+00	0	51	0	141557760	52	4070
2026-01-04 17:29:09.86	258.46	5.66	-44.9	-46.1	14.6	0.00e+00	0	51	0	148897792	52	4131
2026-01-04 17:29:10.85	258.59	5.70	-45.0	-46.2	14.6	1.10e-06	0	51	0	156237824	52	4154
2026-01-04 17:29:11.84	258.71	5.74	-45.0	-46.1	14.6	2.20e-06	0	51	0	163577856	52	4132
2026-01-04 17:29:12.84	258.85	5.78	-44.9	-46.1	14.7	0.00e+00	0	51	0	170917888	52	4129
2026-01-04 17:29:13.83	258.98	5.82	-44.9	-46.1	14.7	0.00e+00	0	51	0	178257920	52	4113
2026-01-04 17:29:14.82	259.11	5.86	-44.9	-46.0	14.7	0.00e+00	0	51	0	184549376	52	4094
2026-01-04 17:29:15.80	259.24	5.89	-45.3	-46.5	14.3	1.10e-06	0	51	0	191889408	52	4294
2026-01-04 17:29:16.79	259.37	5.93	-45.2	-46.4	14.4	1.10e-06	0	51	0	199229440	52	4275
2026-01-04 17:29:17.77	259.50	5.97	-45.0	-46.1	14.7	1.10e-06	0	51	0	206569472	52	4130
2026-01-04 17:29:18.77	259.63	6.01	-44.9	-46.0	14.8	0.00e+00	0	51	0	212860928	52	4082
2026-01-04 17:29:19.76	259.77	6.05	-44.9	-46.0	14.8	0.00e+00	0	51	0	220200960	52	4076
2026-01-04 17:29:20.74	259.90	6.09	-45.0	-46.2	14.7	1.10e-06	0	51	0	227540992	52	4150
2026-01-04 17:29:21.72	260.03	6.12	-44.9	-46.0	14.8	1.10e-06	0	51	0	234881024	52	4097
2026-01-04 17:29:22.71	260.16	6.16	-44.8	-45.9	14.8	0.00e+00	0	51	0	242221056	52	4050
2026-01-04 17:29:23.70	260.30	6.20	-44.9	-46.0	14.8	0.00e+00	0	51	0	249561088	52	4073
2026-01-04 17:29:24.70	260.43	6.24	-44.8	-45.9	14.9	0.00e+00	0	51	0	255852544	52	4037
2026-01-04 17:29:25.68	260.57	6.28	-44.8	-45.9	14.9	0.00e+00	0	51	0	263192576	52	4016
2026-01-04 17:29:26.67	260.70	6.31	-44.7	-45.7	15.1	0.00e+00	0	51	0	270532608	52	3952
2026-01-04 17:29:27.65	260.83	6.35	-44.7	-45.8	15.0	0.00e+00	0	51	0	277872640	52	3985
2026-01-04 17:29:28.64	260.97	6.39	-44.9	-46.0	14.9	0.00e+00	0	51	0	285212672	52	4060
2026-01-04 17:29:29.62	261.10	6.43	-44.8	-45.9	14.9	0.00e+00	0	51	0	291504128	52	4038
2026-01-04 17:29:30.61	261.24	6.46	-44.6	-45.7	15.1	0.00e+00	0	51	0	298844160	52	3935
2026-01-04 17:29:31.59	261.38	6.50	-44.7	-45.7	15.1	0.00e+00	0	52	0	306184192	52	3936
2026-01-04 17:29:32.59	261.51	6.54	-44.6	-45.6	15.2	0.00e+00	0	52	0	313524224	52	3901
2026-01-04 17:29:33.57	261.65	6.57	-44.6	-45.6	15.2	0.00e+00	0	52	0	319815680	52	3908
2026-01-04 17:29:34.56	261.79	6.61	-44.6	-45.6	15.2	0.00e+00	0	52	0	327155712	52	3906
2026-01-04 17:29:35.55	261.92	6.65	-44.6	-45.6	15.2	0.00e+00	0	52	0	334495744	52	3894
2026-01-04 17:29:36.54	262.06	6.69	-44.6	-45.6	15.3	1.10e-06	0	52	0	341835776	51	4138
2026-01-04 17:29:37.53	262.20	6.72	-44.5	-45.5	15.5	0.00e+00	0	52	0	349175808	51	4061
2026-01-04 17:29:38.53	262.34	6.76	-44.4	-45.4	15.5	0.00e+00	0	52	0	356515840	51	4022
2026-01-04 17:29:39.52	262.48	6.80	-44.4	-45.4	15.5	0.00e+00	0	52	0	362807296	51	4025
2026-01-04 17:29:40.51	262.62	6.83	-44.5	-45.5	15.5	0.00e+00	0	52	0	370147328	51	4074
2026-01-04 17:29:41.50	262.76	6.87	-44.4	-45.4	15.6	0.00e+00	0	52	0	377487360	51	4028
2026-01-04 17:29:42.48	262.90	6.91	-44.4	-45.4	15.5	0.00e+00	0	52	0	384827392	51	4025
2026-01-04 17:29:43.48	263.04	6.94	-44.4	-45.4	15.6	0.00e+00	0	52	0	392167424	51	4025
2026-01-04 17:29:44.47	263.18	6.98	-44.5	-45.5	15.5	0.00e+00	0	52	0	398458880	51	4079
2026-01-04 17:29:45.46	263.32	7.02	-44.6	-45.6	15.4	0.00e+00	0	52	0	405798912	51	4109
2026-01-04 17:29:46.45	263.46	7.05	-44.8	-45.9	15.2	0.00e+00	0	52	0	413138944	51	4251
2026-01-04 17:29:47.44	263.61	7.09	-44.9	-45.9	15.1	0.00e+00	0	52	0	420478976	51	4281
2026-01-04 17:29:48.43	263.75	7.12	-44.7	-45.7	15.3	0.00e+00	0	52	0	427819008	51	4171
2026-01-04 17:29:49.42	263.89	7.16	-44.5	-45.5	15.5	0.00e+00	0	52	0	434110464	51	4087
2026-01-04 17:29:50.42	264.04	7.20	-44.4	-45.4	15.5	0.00e+00	0	52	0	441450496	51	4044
2026-01-04 17:29:51.41	264.18	7.23	-44.4	-45.4	15.6	0.00e+00	0	52	0	448790528	51	4006
2026-01-04 17:29:52.39	264.32	7.27	-44.4	-45.3	15.6	0.00e+00	0	52	0	456130560	51	3997
2026-01-04 17:29:53.38	264.47	7.30	-44.5	-45.4	15.5	0.00e+00	0	52	0	463470592	51	4045
2026-01-04 17:29:54.37	264.61	7.34	-44.3	-45.2	15.7	0.00e+00	0	52	0	470810624	51	3957
2026-01-04 17:29:55.36	264.75	7.37	-44.3	-45.2	15.8	0.00e+00	0	52	0	477102080	51	3943
2026-01-04 17:29:56.35	264.90	7.41	-44.4	-45.4	15.6	0.00e+00	0	52	0	484442112	51	4012
2026-01-04 17:29:57.34	265.04	7.44	-44.5	-45.5	15.5	0.00e+00	0	52	0	491782144	51	4066
2026-01-04 17:29:58.33	265.19	7.48	-44.6	-45.5	15.4	0.00e+00	0	52	0	499122176	51	4097
2026-01-04 17:29:59.31	265.33	7.51	-44.6	-45.6	15.4	0.00e+00	0	52	0	506462208	51	4129
2026-01-04 17:30:00.31	265.48	7.55	-44.5	-45.5	15.5	0.00e+00	0	52	0	512753664	51	4093
2026-01-04 17:30:01.31	265.63	7.58	-44.7	-45.7	15.3	0.00e+00	0	53	0	520093696	51	4155
2026-01-04 17:30:02.30	265.78	7.62	-44.6	-45.6	15.3	0.00e+00	0	52	0	527433728	51	4133
2026-01-04 17:30:03.28	265.92	7.65	-44.7	-45.7	15.3	0.00e+00	0	53	0	534773760	51	4151
2026-01-04 17:30:04.27	266.07	7.68	-44.7	-45.7	15.3	0.00e+00	0	53	0	542113792	51	4169
2026-01-04 17:30:05.26	266.22	7.72	-44.4	-45.4	15.5	0.00e+00	0	53	0	549453824	51	4045
2026-01-04 17:30:06.25	266.37	7.75	-44.4	-45.4	15.5	0.00e+00	0	53	0	555745280	51	4049
2026-01-04 17:30:07.23	266.51	7.79	-44.7	-45.7	15.2	0.00e+00	0	53	0	563085312	51	4192
2026-01-04 17:30:08.21	266.66	7.82	-44.9	-46.0	14.9	0.00e+00	0	53	0	570425344	51	4317
2026-01-04 17:30:09.21	266.81	7.85	-44.7	-45.7	15.2	0.00e+00	0	53	0	577765376	51	4170
2026-01-04 17:30:10.20	266.96	7.89	-44.5	-45.5	15.4	0.00e+00	0	53	0	585105408	51	4092
2026-01-04 17:30:11.19	267.11	7.92	-44.4	-45.4	15.4	0.00e+00	0	53	0	592445440	51	4050
2026-01-04 17:30:12.17	267.26	7.95	-44.4	-45.5	15.4	0.00e+00	0	53	0	598736896	51	4057
2026-01-04 17:30:13.17	267.41	7.99	-44.6	-45.6	15.2	0.00e+00	0	53	0	606076928	51	4121
2026-01-04 17:30:14.15	267.56	8.02	-44.6	-45.7	15.0	1.10e-06	0	53	0	613416960	51	4173
2026-01-04 17:30:15.14	267.71	8.05	-44.7	-45.8	14.9	1.10e-06	0	53	0	620756992	51	4208
2026-01-04 17:30:16.13	267.86	8.08	-44.8	-46.0	14.7	0.00e+00	0	53	0	628097024	51	4294
2026-01-04 17:30:17.13	268.02	8.12	-44.8	-46.0	14.6	1.10e-06	0	53	0	634388480	51	4301
2026-01-04 17:30:18.11	268.17	8.15	-45.0	-46.2	14.3	0.00e+00	0	53	0	641728512	51	4435
2026-01-04 17:30:19.10	268.32	8.18	-45.1	-46.4	14.0	1.10e-06	0	53	0	649068544	51	4517
2026-01-04 17:30:20.09	268.47	8.21	-45.1	-46.4	14.0	3.40e-06	0	53	0	656408576	51	4526
2026-01-04 17:30:21.08	268.63	8.25	-45.3	-46.7	13.6	1.25e-05	0	53	0	663748608	52	4393
2026-01-04 17:30:22.07	268.78	8.28	-45.3	-46.6	13.6	9.10e-06	0	53	0	671088640	52	4380
2026-01-04 17:30:23.07	268.94	8.31	-45.5	-46.9	13.2	2.40e-05	0	53	0	677380096	52	4529
2026-01-04 17:30:24.05	269.09	8.34	-45.5	-47.0	13.2	2.74e-05	0	53	0	684720128	52	4546
2026-01-04 17:30:25.04	269.24	8.37	-45.7	-47.3	12.8	6.63e-05	0	53	0	692060160	53	4459
2026-01-04 17:30:26.03	269.40	8.40	-45.6	-47.2	12.8	8.81e-05	0	54	0	699400192	53	4403
2026-01-04 17:30:27.01	269.55	8.44	-45.6	-47.2	12.7	8.35e-05	0	53	0	705691648	53	4430
2026-01-04 17:30:28.00	269.71	8.47	-45.6	-47.3	12.5	1.20e-04	0	53	0	713031680	53	4448
2026-01-04 17:30:28.98	269.86	8.50	-45.6	-47.3	12.4	1.57e-04	0	54	0	720371712	53	4467
2026-01-04 17:30:29.97	270.02	8.53	-45.7	-47.4	12.2	2.20e-04	0	53	0	727711744	53	4519
2026-01-04 17:30:30.96	270.17	8.56	-45.6	-47.3	12.3	1.97e-04	0	54	0	734003200	53	4442
2026-01-04 17:30:31.94	270.33	8.59	-45.6	-47.3	12.2	2.14e-04	0	53	0	741343232	53	4479
2026-01-04 17:30:32.93	270.49	8.62	-45.8	-47.5	12.0	3.88e-04	0	54	0	748683264	53	4565
2026-01-04 17:30:33.93	270.64	8.65	-45.6	-47.3	12.2	2.44e-04	0	54	0	756023296	53	4457
2026-01-04 17:30:34.92	270.80	8.68	-45.4	-47.1	12.4	1.67e-04	0	54	0	763363328	53	4367
2026-01-04 17:30:35.91	270.96	8.71	-45.5	-47.1	12.4	1.53e-04	0	53	0	770703360	53	4375
2026-01-04 17:30:36.90	271.12	8.74	-45.5	-47.2	12.3	1.72e-04	0	54	0	776994816	53	4399
2026-01-04 17:30:37.89	271.28	8.77	-45.4	-47.0	12.4	1.60e-04	0	54	0	784334848	53	4336
2026-01-04 17:30:38.87	271.43	8.80	-45.6	-47.2	12.3	1.93e-04	0	54	0	791674880	53	4439
2026-01-04 17:30:39.86	271.59	8.83	-45.5	-47.2	12.3	2.41e-04	0	54	0	799014912	53	4396
2026-01-04 17:30:40.86	271.76	8.86	-45.6	-47.3	12.2	2.22e-04	0	54	0	806354944	53	4450
2026-01-04 17:30:41.85	271.91	8.89	-45.8	-47.5	12.0	3.20e-04	0	54	0	813694976	53	4595
2026-01-04 17:30:42.84	272.07	8.91	-45.5	-47.2	12.4	2.00e-04	0	54	0	819986432	53	4415
2026-01-04 17:30:43.83	272.24	8.94	-45.2	-46.7	12.8	8.01e-05	0	54	0	827326464	53	4191
2026-01-04 17:30:44.82	272.40	8.97	-44.9	-46.4	13.1	4.00e-05	0	54	0	834666496	52	4270
2026-01-04 17:30:45.81	272.56	9.00	-44.6	-46.0	13.4	1.48e-05	0	54	0	842006528	52	4072
2026-01-04 17:30:46.80	272.72	9.03	-44.6	-45.9	13.6	6.80e-06	0	54	0	849346560	51	4258
2026-01-04 17:30:47.79	272.88	9.06	-44.5	-45.8	13.8	1.02e-05	0	54	0	855638016	51	4233
2026-01-04 17:30:48.79	273.04	9.08	-44.5	-45.8	13.9	9.10e-06	0	54	0	862978048	51	4195
2026-01-04 17:30:49.78	273.21	9.11	-44.5	-45.8	13.9	1.10e-06	0	54	0	870318080	51	4194
2026-01-04 17:30:50.76	273.37	9.14	-44.5	-45.7	14.0	2.20e-06	0	54	0	877658112	51	4176
2026-01-04 17:30:51.75	273.53	9.17	-44.7	-45.9	13.8	4.50e-06	0	54	0	884998144	51	4289
2026-01-04 17:30:52.74	273.69	9.19	-44.6	-45.9	13.9	3.40e-06	0	54	0	892338176	51	4262
2026-01-04 17:30:53.73	273.86	9.22	-44.7	-45.9	13.9	4.50e-06	0	54	0	898629632	51	4286
2026-01-04 17:30:54.73	274.02	9.25	-44.8	-46.1	13.9	1.10e-06	0	54	0	905969664	51	4341
2026-01-04 17:30:55.72	274.19	9.28	-44.9	-46.3	13.8	3.40e-06	0	54	0	913309696	51	4449
2026-01-04 17:30:56.71	274.35	9.30	-44.8	-46.1	14.0	1.10e-06	0	54	0	920649728	51	4361
2026-01-04 17:30:57.69	274.51	9.33	-44.5	-45.7	14.4	0.00e+00	0	54	0	927989760	51	4192
2026-01-04 17:30:58.68	274.68	9.35	-44.4	-45.5	14.6	1.10e-06	0	54	0	935329792	51	4082
2026-01-04 17:30:59.67	274.84	9.38	-44.3	-45.4	14.7	1.10e-06	0	54	0	941621248	51	4032
2026-01-04 17:31:00.65	275.01	9.41	-44.1	-45.2	14.9	0.00e+00	0	54	0	948961280	51	3933
2026-01-04 17:31:01.65	275.17	9.43	-44.2	-45.3	15.0	0.00e+00	0	54	0	956301312	51	3964
2026-01-04 17:31:02.64	275.34	9.46	-44.3	-45.4	14.8	1.10e-06	0	54	0	963641344	51	4048
2026-01-04 17:31:03.63	275.51	9.48	-44.2	-45.2	15.0	0.00e+00	0	54	0	970981376	51	3949
2026-01-04 17:31:04.62	275.67	9.51	-44.0	-45.0	15.3	0.00e+00	0	54	0	977272832	51	3851
2026-01-04 17:31:05.60	275.84	9.53	-43.8	-44.8	15.5	0.00e+00	0	54	0	984612864	50	3993
2026-01-04 17:31:06.59	276.00	9.56	-43.8	-44.8	15.6	0.00e+00	0	54	0	991952896	50	3961
2026-01-04 17:31:07.58	276.17	9.58	-43.8	-44.8	15.5	0.00e+00	0	54	0	999292928	50	3980
2026-01-04 17:31:08.57	276.34	9.61	-43.9	-44.9	15.5	0.00e+00	0	54	0	1005584384	50	4024
2026-01-04 17:31:09.56	276.51	9.63	-43.9	-45.0	15.4	0.00e+00	0	54	0	1012924416	50	4066
2026-01-04 17:31:10.56	276.68	9.65	-43.9	-44.9	15.4	0.00e+00	0	54	0	1020264448	50	4026
2026-01-04 17:31:11.55	276.85	9.68	-43.9	-44.9	15.5	0.00e+00	0	54	0	1027604480	50	4032
2026-01-04 17:31:12.53	277.01	9.70	-44.0	-45.0	15.5	0.00e+00	0	54	0	1034944512	50	4071
2026-01-04 17:31:13.52	277.18	9.72	-44.1	-45.1	15.4	0.00e+00	0	54	0	1041235968	50	4138
2026-01-04 17:31:14.50	277.35	9.75	-44.1	-45.2	15.4	0.00e+00	0	55	0	1048576000	50	4155
2026-01-04 17:31:15.49	277.52	9.77	-44.0	-45.0	15.6	0.00e+00	0	54	0	1055916032	50	4072
2026-01-04 17:31:16.49	277.69	9.79	-44.1	-45.1	15.5	0.00e+00	0	55	0	1063256064	50	4137
2026-01-04 17:31:17.48	277.86	9.82	-44.1	-45.1	15.6	0.00e+00	0	55	0	1070596096	50	4126
2026-01-04 17:31:18.47	278.03	9.84	-44.1	-45.1	15.6	0.00e+00	0	55	0	1076887552	50	4128
2026-01-04 17:31:19.46	278.20	9.86	-44.0	-45.0	15.7	0.00e+00	0	55	0	1084227584	50	4073
2026-01-04 17:31:20.45	278.37	9.88	-44.1	-45.1	15.7	0.00e+00	0	55	0	1091567616	50	4116
2026-01-04 17:31:21.43	278.54	9.90	-44.1	-45.0	15.8	0.00e+00	0	55	0	1098907648	50	4095
2026-01-04 17:31:22.41	278.71	9.92	-44.1	-45.0	15.8	0.00e+00	0	55	0	1106247680	50	4095
2026-01-04 17:31:23.41	278.88	9.95	-44.2	-45.2	15.6	0.00e+00	0	55	0	1113587712	50	4166
2026-01-04 17:31:24.39	279.05	9.97	-44.3	-45.3	15.5	0.00e+00	0	55	0	1119879168	50	4206
2026-01-04 17:31:25.39	279.23	9.99	-44.3	-45.3	15.5	0.00e+00	0	55	0	1127219200	50	4221
2026-01-04 17:31:26.38	279.40	10.01	-44.3	-45.3	15.6	0.00e+00	0	55	0	1134559232	50	4215
2026-01-04 17:31:27.36	279.57	10.03	-44.3	-45.4	15.5	0.00e+00	0	55	0	1141899264	50	4243
2026-01-04 17:31:28.35	279.74	10.05	-44.4	-45.4	15.5	0.00e+00	0	55	0	1149239296	50	4244
2026-01-04 17:31:29.34	279.91	10.07	-44.1	-45.0	15.8	0.00e+00	0	55	0	1156579328	50	4086
2026-01-04 17:31:30.33	280.09	10.09	-44.1	-45.0	15.8	0.00e+00	0	55	0	1162870784	50	4084
2026-01-04 17:31:31.32	280.26	10.11	-44.2	-45.2	15.7	0.00e+00	0	55	0	1170210816	50	4149
2026-01-04 17:31:32.31	280.43	10.13	-44.0	-45.0	15.9	0.00e+00	0	55	0	1177550848	50	4053
2026-01-04 17:31:33.31	280.61	10.15	-44.1	-45.1	15.8	0.00e+00	0	55	0	1184890880	50	4114
2026-01-04 17:31:34.30	280.78	10.17	-44.2	-45.2	15.7	0.00e+00	0	55	0	1192230912	50	4153
2026-01-04 17:31:35.29	280.96	10.19	-44.3	-45.2	15.7	0.00e+00	0	55	0	1198522368	50	4187
2026-01-04 17:31:36.28	281.13	10.21	-44.1	-45.0	15.8	0.00e+00	0	55	0	1205862400	50	4098
2026-01-04 17:31:37.27	281.31	10.22	-44.2	-45.1	15.8	0.00e+00	0	55	0	1213202432	50	4135
2026-01-04 17:31:38.26	281.48	10.24	-44.3	-45.2	15.7	0.00e+00	0	55	0	1220542464	50	4187
2026-01-04 17:31:39.25	281.66	10.26	-44.3	-45.3	15.6	0.00e+00	0	55	0	1227882496	50	4228
2026-01-04 17:31:40.24	281.83	10.28	-44.4	-45.4	15.6	0.00e+00	0	55	0	1235222528	50	4243
2026-01-04 17:31:41.23	282.01	10.29	-44.2	-45.2	15.8	0.00e+00	0	55	0	1241513984	50	4164
2026-01-04 17:31:42.22	282.18	10.31	-44.3	-45.2	15.8	0.00e+00	0	55	0	1248854016	50	4175
2026-01-04 17:31:43.20	282.36	10.33	-44.3	-45.2	15.8	0.00e+00	0	55	0	1256194048	50	4165
2026-01-04 17:31:44.19	282.53	10.35	-44.1	-45.0	16.1	0.00e+00	0	55	0	1263534080	50	4063
2026-01-04 17:31:45.18	282.71	10.36	-43.8	-44.7	16.4	0.00e+00	0	55	0	1270874112	50	3914
2026-01-04 17:31:46.17	282.88	10.38	-43.7	-44.6	16.4	0.00e+00	0	55	0	1278214144	50	3897
2026-01-04 17:31:47.17	283.06	10.40	-43.7	-44.6	16.5	0.00e+00	0	55	0	1284505600	50	3876
2026-01-04 17:31:48.16	283.24	10.41	-43.8	-44.7	16.3	0.00e+00	0	55	0	1291845632	50	3934
2026-01-04 17:31:49.15	283.42	10.43	-43.9	-44.8	16.2	0.00e+00	0	55	0	1299185664	50	3982
2026-01-04 17:31:50.13	283.59	10.44	-43.8	-44.7	16.2	0.00e+00	0	55	0	1306525696	50	3935
2026-01-04 17:31:51.11	283.77	10.46	-43.8	-44.7	16.2	0.00e+00	0	55	0	1312817152	50	3933
2026-01-04 17:31:52.10	283.94	10.47	-43.9	-44.9	15.9	0.00e+00	0	55	0	1320157184	50	4017
2026-01-04 17:31:53.09	284.12	10.49	-43.9	-44.9	15.9	0.00e+00	0	55	0	1327497216	50	4015
2026-01-04 17:31:54.08	284.30	10.50	-44.1	-45.0	15.7	0.00e+00	0	55	0	1334837248	50	4091
2026-01-04 17:31:55.07	284.48	10.52	-44.4	-45.4	15.2	0.00e+00	0	55	0	1341128704	50	4289
2026-01-04 17:31:56.06	284.66	10.53	-44.3	-45.3	15.2	0.00e+00	0	55	0	1348468736	50	4240
2026-01-04 17:31:57.05	284.83	10.54	-44.2	-45.2	15.3	0.00e+00	0	55	0	1355808768	50	4193
2026-01-04 17:31:58.04	285.01	10.56	-44.5	-45.6	14.9	0.00e+00	0	55	0	1363148800	50	4357
2026-01-04 17:31:59.03	285.19	10.57	-44.5	-45.6	14.8	0.00e+00	0	55	0	1370488832	50	4370
2026-01-04 17:32:00.02	285.37	10.58	-44.8	-46.0	14.3	1.10e-06	0	55	0	1377828864	51	4335
2026-01-04 17:32:01.02	285.55	10.60	-44.9	-46.1	14.2	2.20e-06	0	55	0	1384120320	51	4386
2026-01-04 17:32:02.01	285.73	10.61	-45.1	-46.5	13.7	6.80e-06	0	55	0	1391460352	52	4297
2026-01-04 17:32:03.00	285.91	10.62	-45.2	-46.6	13.4	1.94e-05	0	55	0	1398800384	52	4377
2026-01-04 17:32:03.99	286.09	10.63	-45.5	-47.0	12.9	3.20e-05	0	55	0	1406140416	52	4568
2026-01-04 17:32:04.98	286.27	10.65	-45.6	-47.1	12.8	5.03e-05	0	55	0	1413480448	52	4637
2026-01-04 17:32:05.96	286.45	10.66	-45.9	-47.5	12.2	1.70e-04	0	55	0	1419771904	53	4593
2026-01-04 17:32:06.95	286.63	10.67	-45.9	-47.6	12.1	2.83e-04	0	55	0	1427111936	53	4641
2026-01-04 17:32:07.94	286.81	10.68	-46.3	-48.2	11.4	6.04e-04	0	55	0	1434451968	54	4694
2026-01-04 17:32:08.93	286.99	10.69	-46.4	-48.3	11.4	1.11e-03	0	55	0	1441792000	54	4730
2026-01-04 17:32:09.93	287.17	10.70	-46.7	-48.9	10.7	2.23e-03	0	56	0	1449132032	55	4785
2026-01-04 17:32:10.92	287.35	10.71	-46.7	-48.9	10.7	3.37e-03	0	56	0	1456472064	55	4776
2026-01-04 17:32:11.91	287.53	10.72	-47.0	-49.3	10.3	4.81e-03	0	56	0	1462763520	55	5026
2026-01-04 17:32:12.90	287.71	10.73	-46.9	-49.2	10.4	5.31e-03	0	55	0	1470103552	55	4946
2026-01-04 17:32:13.90	287.89	10.74	-47.0	-49.2	10.4	5.45e-03	0	55	0	1477443584	55	4962
2026-01-04 17:32:14.89	288.07	10.75	-47.0	-49.3	10.4	5.40e-03	0	55	0	1484783616	55	4998
2026-01-04 17:32:15.88	288.25	10.76	-47.0	-49.3	10.3	5.48e-03	0	56	0	1492123648	55	5010
2026-01-04 17:32:16.88	288.44	10.77	-47.1	-49.4	10.3	5.69e-03	0	56	0	1499463680	55	5046
2026-01-04 17:32:17.87	288.62	10.78	-47.1	-49.4	10.3	5.63e-03	0	55	0	1505755136	55	5054
2026-01-04 17:32:18.85	288.80	10.79	-46.9	-49.0	10.7	3.28e-03	0	56	0	1513095168	55	4867
2026-01-04 17:32:19.84	288.98	10.80	-46.7	-48.7	11.0	2.17e-03	0	56	0	1520435200	55	4679
2026-01-04 17:32:20.83	289.16	10.80	-46.5	-48.5	11.3	1.42e-03	0	56	0	1527775232	55	4558
2026-01-04 17:32:21.82	289.34	10.81	-46.4	-48.3	11.5	1.02e-03	0	56	0	1535115264	55	4452
2026-01-04 17:32:22.81	289.52	10.82	-46.3	-48.1	11.7	6.74e-04	0	56	0	1541406720	55	4382
2026-01-04 17:32:23.80	289.70	10.83	-46.3	-48.1	11.7	6.16e-04	0	56	0	1548746752	55	4380
2026-01-04 17:32:24.80	289.89	10.83	-46.1	-47.8	12.1	2.99e-04	0	56	0	1556086784	55	4212
2026-01-04 17:32:25.79	290.07	10.84	-45.7	-47.3	12.7	1.26e-04	0	56	0	1563426816	54	4218
2026-01-04 17:32:26.78	290.25	10.85	-45.6	-47.0	13.1	3.54e-05	0	56	0	1570766848	54	4088
2026-01-04 17:32:27.76	290.43	10.85	-45.4	-46.8	13.4	1.94e-05	0	56	0	1578106880	53	4199
2026-01-04 17:32:28.75	290.61	10.86	-45.2	-46.6	13.8	3.40e-06	0	56	0	1584398336	53	4105
2026-01-04 17:32:29.73	290.79	10.86	-45.1	-46.4	14.1	2.20e-06	0	56	0	1591738368	53	4013
2026-01-04 17:32:30.71	290.97	10.87	-45.1	-46.4	14.1	0.00e+00	0	56	0	1599078400	53	4019
2026-01-04 17:32:31.70	291.15	10.87	-45.2	-46.5	14.1	4.50e-06	0	56	0	1606418432	53	4060
2026-01-04 17:32:32.69	291.34	10.88	-45.1	-46.3	14.3	4.50e-06	0	56	0	1613758464	53	3981
2026-01-04 17:32:33.67	291.52	10.88	-45.1	-46.3	14.3	0.00e+00	0	56	0	1620049920	52	4209
2026-01-04 17:32:34.66	291.70	10.89	-45.1	-46.3	14.3	2.20e-06	0	56	0	1627389952	52	4231
2026-01-04 17:32:35.65	291.88	10.89	-45.0	-46.2	14.4	2.20e-06	0	56	0	1634729984	52	4168
2026-01-04 17:32:36.64	292.06	10.90	-44.7	-45.8	14.8	0.00e+00	0	56	0	1642070016	52	3993
2026-01-04 17:32:37.64	292.25	10.90	-44.6	-45.7	15.0	0.00e+00	0	56	0	1649410048	52	3915
2026-01-04 17:32:38.63	292.43	10.90	-44.6	-45.7	14.9	0.00e+00	0	56	0	1656750080	52	3932
2026-01-04 17:32:39.62	292.61	10.91	-44.6	-45.7	15.0	0.00e+00	0	56	0	1663041536	52	3925
2026-01-04 17:32:40.61	292.80	10.91	-44.8	-45.9	14.7	0.00e+00	0	56	0	1670381568	52	4036
2026-01-04 17:32:41.60	292.98	10.91	-44.8	-45.9	14.7	0.00e+00	0	56	0	1677721600	52	4036
2026-01-04 17:32:42.58	293.16	10.91	-44.8	-46.0	14.7	0.00e+00	0	56	0	1685061632	52	4076
2026-01-04 17:32:43.57	293.34	10.92	-44.8	-46.0	14.7	1.10e-06	0	56	0	1691353088	52	4075
2026-01-04 17:32:44.57	293.53	10.92	-44.5	-45.6	15.1	0.00e+00	0	56	0	1698693120	52	3884
2026-01-04 17:32:45.55	293.71	10.92	-44.4	-45.5	15.3	0.00e+00	0	56	0	1706033152	51	4056
2026-01-04 17:32:46.53	293.89	10.92	-44.3	-45.3	15.5	0.00e+00	0	56	0	1713373184	51	3966
2026-01-04 17:32:47.53	294.07	10.92	-44.2	-45.2	15.6	0.00e+00	0	56	0	1720713216	51	3930
2026-01-04 17:32:48.52	294.26	10.92	-44.1	-45.1	15.7	0.00e+00	0	56	0	1727004672	51	3890
2026-01-04 17:32:49.50	294.44	10.92	-44.2	-45.1	15.6	0.00e+00	0	56	0	1734344704	51	3897
2026-01-04 17:32:50.49	294.62	10.92	-44.1	-45.1	15.7	0.00e+00	0	56	0	1741684736	51	3890
2026-01-04 17:32:51.48	294.80	10.92	-44.1	-45.0	15.8	0.00e+00	0	56	0	1749024768	51	3856
2026-01-04 17:32:52.47	294.99	10.92	-44.2	-45.2	15.7	0.00e+00	0	56	0	1756364800	51	3942
2026-01-04 17:32:53.46	295.17	10.92	-44.2	-45.2	15.7	0.00e+00	0	56	0	1762656256	51	3941
2026-01-04 17:32:54.46	295.35	10.92	-44.3	-45.3	15.5	0.00e+00	0	56	0	1769996288	51	3991
2026-01-04 17:32:55.44	295.53	10.92	-44.4	-45.3	15.6	0.00e+00	0	56	0	1777336320	51	4004
2026-01-04 17:32:56.43	295.72	10.92	-44.4	-45.3	15.5	0.00e+00	0	56	0	1784676352	51	3999
2026-01-04 17:32:57.42	295.90	10.92	-44.5	-45.5	15.3	0.00e+00	0	56	0	1792016384	51	4085
2026-01-04 17:32:58.41	296.08	10.92	-44.6	-45.7	15.1	0.00e+00	0	56	0	1799356416	51	4172
2026-01-04 17:32:59.40	296.27	10.92	-44.6	-45.7	15.1	0.00e+00	0	56	0	1805647872	51	4186
2026-01-04 17:33:00.39	296.45	10.91	-44.8	-45.9	14.8	0.00e+00	0	56	0	1812987904	51	4275
2026-01-04 17:33:01.37	296.63	10.91	-44.9	-46.0	14.7	0.00e+00	0	56	0	1820327936	51	4314
2026-01-04 17:33:02.36	296.81	10.91	-44.8	-45.9	14.7	2.20e-06	0	56	0	1827667968	51	4276
2026-01-04 17:33:03.35	296.99	10.91	-44.9	-46.1	14.5	0.00e+00	0	56	0	1835008000	51	4362
2026-01-04 17:33:04.35	297.18	10.90	-44.7	-45.8	14.7	0.00e+00	0	56	0	1842348032	51	4217
2026-01-04 17:33:05.34	297.36	10.90	-44.5	-45.6	14.9	1.10e-06	0	56	0	1848639488	51	4120
2026-01-04 17:33:06.33	297.54	10.89	-44.5	-45.5	14.9	1.10e-06	0	56	0	1855979520	51	4095
2026-01-04 17:33:07.32	297.73	10.89	-44.4	-45.5	14.9	0.00e+00	0	56	0	1863319552	51	4059
2026-01-04 17:33:08.30	297.91	10.89	-44.3	-45.4	15.0	0.00e+00	0	56	0	1870659584	51	4034
2026-01-04 17:33:09.30	298.09	10.88	-44.5	-45.6	14.8	1.10e-06	0	56	0	1877999616	51	4118
2026-01-04 17:33:10.29	298.27	10.88	-44.7	-45.8	14.6	1.10e-06	0	56	0	1884291072	51	4225
2026-01-04 17:33:11.27	298.45	10.87	-44.4	-45.5	14.9	0.00e+00	0	56	0	1891631104	51	4067
2026-01-04 17:33:12.25	298.63	10.87	-44.2	-45.2	15.3	0.00e+00	0	56	0	1898971136	51	3929
2026-01-04 17:33:13.25	298.82	10.86	-44.0	-45.0	15.5	0.00e+00	0	56	0	1906311168	51	3842
2026-01-04 17:33:14.25	299.00	10.86	-44.0	-45.0	15.5	0.00e+00	0	56	0	1913651200	50	4079
2026-01-04 17:33:15.24	299.18	10.85	-44.1	-45.1	15.5	0.00e+00	0	56	0	1920991232	50	4114
2026-01-04 17:33:16.23	299.36	10.84	-44.3	-45.3	15.3	0.00e+00	0	56	0	1927282688	50	4211
2026-01-04 17:33:17.22	299.55	10.84	-44.0	-44.9	15.7	0.00e+00	0	56	0	1934622720	50	4034
2026-01-04 17:33:18.21	299.73	10.83	-43.8	-44.8	15.8	0.00e+00	0	56	0	1941962752	50	3972
2026-01-04 17:33:19.20	299.91	10.82	-43.7	-44.7	15.9	0.00e+00	0	56	0	1949302784	50	3926
2026-01-04 17:33:20.18	300.09	10.82	-43.7	-44.6	16.0	0.00e+00	0	56	0	1956642816	50	3897
2026-01-04 17:33:21.17	300.27	10.81	-43.7	-44.6	16.1	0.00e+00	0	56	0	1962934272	50	3897
2026-01-04 17:33:22.16	300.45	10.80	-43.8	-44.7	16.0	0.00e+00	0	56	0	1970274304	50	3941
2026-01-04 17:33:23.15	300.63	10.79	-43.7	-44.6	16.2	0.00e+00	0	56	0	1977614336	50	3869
2026-01-04 17:33:24.14	300.81	10.78	-43.6	-44.5	16.3	0.00e+00	0	56	0	1984954368	50	3839
2026-01-04 17:33:25.13	300.99	10.77	-43.6	-44.5	16.3	0.00e+00	0	56	0	1992294400	50	3864
2026-01-04 17:33:26.12	301.17	10.77	-43.6	-44.5	16.3	0.00e+00	0	56	0	1998585856	50	3852
2026-01-04 17:33:27.11	301.36	10.76	-43.7	-44.6	16.3	0.00e+00	0	56	0	2005925888	50	3883
2026-01-04 17:33:28.10	301.54	10.75	-43.5	-44.4	16.5	0.00e+00	0	56	0	2013265920	50	3801
2026-01-04 17:33:29.09	301.72	10.74	-43.4	-44.2	16.7	0.00e+00	0	56	0	2020605952	49	3953
2026-01-04 17:33:30.08	301.90	10.73	-43.3	-44.2	16.8	0.00e+00	0	56	0	2027945984	49	3915
2026-01-04 17:33:31.06	302.08	10.72	-43.3	-44.1	16.9	0.00e+00	0	56	0	2034237440	49	3902
2026-01-04 17:33:32.06	302.26	10.71	-43.4	-44.2	16.9	0.00e+00	0	56	0	2041577472	49	3927
2026-01-04 17:33:33.06	302.44	10.70	-43.2	-44.0	17.1	0.00e+00	0	56	0	2048917504	49	3860
2026-01-04 17:33:34.05	302.62	10.69	-43.2	-44.0	17.2	0.00e+00	0	56	0	2056257536	49	3828
2026-01-04 17:33:35.04	302.80	10.68	-43.3	-44.1	17.0	0.00e+00	0	57	0	2063597568	49	3897
2026-01-04 17:33:36.02	302.98	10.66	-43.1	-43.9	17.3	0.00e+00	0	56	0	2069889024	49	3800
2026-01-04 17:33:37.01	303.16	10.65	-43.1	-43.9	17.3	0.00e+00	0	56	0	2077229056	49	3788
2026-01-04 17:33:38.00	303.34	10.64	-43.2	-43.9	17.2	0.00e+00	0	56	0	2084569088	49	3824
2026-01-04 17:33:38.99	303.51	10.63	-43.1	-43.8	17.4	0.00e+00	0	57	0	2091909120	49	3766
2026-01-04 17:33:39.98	303.69	10.62	-43.0	-43.8	17.4	0.00e+00	0	56	0	2099249152	49	3745
2026-01-04 17:33:40.98	303.87	10.60	-43.2	-43.9	17.3	0.00e+00	0	57	0	2106589184	49	3801
2026-01-04 17:33:41.97	304.05	10.59	-43.1	-43.8	17.4	0.00e+00	0	56	0	2112880640	49	3755
2026-01-04 17:33:42.96	304.23	10.58	-43.1	-43.9	17.4	0.00e+00	0	56	0	2120220672	49	3782
2026-01-04 17:33:43.95	304.41	10.56	-43.1	-43.9	17.3	0.00e+00	0	56	0	2127560704	49	3793
2026-01-04 17:33:44.94	304.59	10.55	-43.2	-44.0	17.3	0.00e+00	0	56	0	2134900736	49	3827
2026-01-04 17:33:45.92	304.76	10.54	-43.2	-44.0	17.3	0.00e+00	0	56	0	2142240768	49	3847
2026-01-04 17:33:46.91	304.94	10.52	-43.4	-44.1	17.1	0.00e+00	0	57	0	2148532224	49	3907
2026-01-04 17:33:47.90	305.12	10.51	-43.4	-44.2	17.1	0.00e+00	0	56	0	2155872256	49	3919
2026-01-04 17:33:48.89	305.30	10.50	-43.4	-44.2	17.1	0.00e+00	0	57	0	2163212288	49	3930
2026-01-04 17:33:49.88	305.48	10.48	-43.6	-44.4	16.9	0.00e+00	0	57	0	2170552320	49	4017
2026-01-04 17:33:50.88	305.65	10.47	-43.5	-44.2	17.0	0.00e+00	0	56	0	2177892352	49	3957
2026-01-04 17:33:51.87	305.83	10.45	-43.5	-44.3	16.9	0.00e+00	0	57	0	2185232384	49	3996
2026-01-04 17:33:52.86	306.01	10.44	-43.8	-44.7	16.6	0.00e+00	0	57	0	2191523840	49	4163
2026-01-04 17:33:53.85	306.19	10.42	-43.7	-44.5	16.7	0.00e+00	0	57	0	2198863872	49	4096
2026-01-04 17:33:54.84	306.36	10.40	-43.6	-44.4	16.9	0.00e+00	0	57	0	2206203904	49	4031
2026-01-04 17:33:55.83	306.54	10.39	-43.7	-44.6	16.7	0.00e+00	0	56	0	2213543936	49	4107
2026-01-04 17:33:56.82	306.71	10.37	-43.7	-44.5	16.8	0.00e+00	0	57	0	2220883968	49	4076
2026-01-04 17:33:57.81	306.89	10.36	-43.8	-44.7	16.6	0.00e+00	0	57	0	2227175424	49	4146
2026-01-04 17:33:58.80	307.07	10.34	-43.8	-44.7	16.6	0.00e+00	0	57	0	2234515456	49	4162
2026-01-04 17:33:59.79	307.24	10.32	-43.7	-44.5	16.7	0.00e+00	0	57	0	2241855488	49	4079
2026-01-04 17:34:00.79	307.42	10.30	-43.7	-44.5	16.7	0.00e+00	0	57	0	2249195520	49	4092
2026-01-04 17:34:01.77	307.59	10.29	-43.8	-44.7	16.6	0.00e+00	0	57	0	2256535552	49	4165
2026-01-04 17:34:02.76	307.77	10.27	-43.7	-44.6	16.7	0.00e+00	0	57	0	2263875584	49	4102
2026-01-04 17:34:03.74	307.94	10.25	-43.6	-44.4	16.8	0.00e+00	0	57	0	2270167040	49	4039
2026-01-04 17:34:04.73	308.11	10.23	-43.6	-44.5	16.8	0.00e+00	0	57	0	2277507072	49	4063
2026-01-04 17:34:05.72	308.29	10.22	-43.8	-44.6	16.7	0.00e+00	0	57	0	2284847104	49	4121
2026-01-04 17:34:06.71	308.46	10.20	-43.6	-44.5	16.8	0.00e+00	0	57	0	2292187136	49	4053
2026-01-04 17:34:07.69	308.64	10.18	-43.7	-44.5	16.7	0.00e+00	0	57	0	2299527168	49	4092
2026-01-04 17:34:08.69	308.81	10.16	-44.0	-44.9	16.4	0.00e+00	0	57	0	2306867200	49	4267
2026-01-04 17:34:09.68	308.98	10.14	-43.9	-44.8	16.5	0.00e+00	0	57	0	2313158656	50	3984
2026-01-04 17:34:10.68	309.16	10.12	-43.7	-44.5	16.7	0.00e+00	0	57	0	2320498688	50	3853
2026-01-04 17:34:11.67	309.33	10.10	-43.5	-44.3	16.9	0.00e+00	0	57	0	2327838720	50	3769
2026-01-04 17:34:12.66	309.51	10.08	-43.4	-44.2	17.1	0.00e+00	0	57	0	2335178752	49	3935
2026-01-04 17:34:13.65	309.68	10.06	-43.4	-44.2	17.0	0.00e+00	0	57	0	2342518784	49	3953
2026-01-04 17:34:14.65	309.85	10.04	-43.4	-44.2	17.0	0.00e+00	0	57	0	2348810240	49	3947
2026-01-04 17:34:15.63	310.02	10.02	-43.6	-44.4	16.9	0.00e+00	0	57	0	2356150272	49	4007
2026-01-04 17:34:16.63	310.20	10.00	-43.6	-44.3	16.9	0.00e+00	0	57	0	2363490304	49	4001
2026-01-04 17:34:17.62	310.37	9.98	-43.5	-44.3	16.7	0.00e+00	0	57	0	2370830336	49	3960
2026-01-04 17:34:18.60	310.54	9.96	-43.5	-44.3	17.0	0.00e+00	0	57	0	2378170368	49	3963
2026-01-04 17:34:19.59	310.71	9.94	-43.6	-44.5	16.7	0.00e+00	0	57	0	2385510400	49	4060
2026-01-04 17:34:20.58	310.88	9.92	-43.6	-44.4	16.8	0.00e+00	0	57	0	2391801856	49	4049
2026-01-04 17:34:21.57	311.05	9.90	-43.5	-44.3	16.9	0.00e+00	0	57	0	2399141888	49	3990
2026-01-04 17:34:22.56	311.22	9.87	-43.6	-44.4	16.8	0.00e+00	0	57	0	2406481920	49	4033
2026-01-04 17:34:23.55	311.39	9.85	-43.8	-44.6	16.6	0.00e+00	0	57	0	2413821952	49	4126
2026-01-04 17:34:24.54	311.56	9.83	-43.9	-44.7	16.5	0.00e+00	0	57	0	2421161984	49	4176
2026-01-04 17:34:25.53	311.73	9.81	-43.6	-44.4	16.8	0.00e+00	0	57	0	2428502016	49	4039
2026-01-04 17:34:26.52	311.90	9.78	-43.7	-44.5	16.7	0.00e+00	0	57	0	2434793472	49	4062
2026-01-04 17:34:27.50	312.07	9.76	-43.9	-44.8	16.5	0.00e+00	0	57	0	2442133504	49	4197
2026-01-04 17:34:28.49	312.24	9.74	-44.1	-45.0	16.2	0.00e+00	0	57	0	2449473536	49	4315
2026-01-04 17:34:29.47	312.40	9.72	-44.2	-45.1	16.2	0.00e+00	0	57	0	2455764992	50	4126
2026-01-04 17:34:30.45	312.57	9.69	-44.0	-44.9	16.3	0.00e+00	0	57	0	2463105024	50	4034
2026-01-04 17:34:31.44	312.74	9.67	-44.1	-45.0	16.2	0.00e+00	0	57	0	2470445056	50	4094
2026-01-04 17:34:32.42	312.90	9.65	-44.3	-45.2	16.0	0.00e+00	0	57	0	2477785088	50	4189
2026-01-04 17:34:33.41	313.07	9.62	-44.4	-45.4	15.9	0.00e+00	0	57	0	2485125120	50	4243
2026-01-04 17:34:34.40	313.24	9.60	-44.5	-45.4	15.8	0.00e+00	0	57	0	2491416576	50	4289
2026-01-04 17:34:35.38	313.40	9.57	-44.6	-45.5	15.7	0.00e+00	0	57	0	2498756608	51	4097
2026-01-04 17:34:36.37	313.57	9.55	-44.3	-45.2	16.0	0.00e+00	0	57	0	2506096640	51	3958
2026-01-04 17:34:37.36	313.74	9.52	-44.1	-44.9	16.3	0.00e+00	0	57	0	2513436672	51	3819
2026-01-04 17:34:38.35	313.90	9.50	-44.0	-44.8	16.4	0.00e+00	0	57	0	2520776704	50	3999
2026-01-04 17:34:39.33	314.07	9.48	-44.1	-45.0	16.3	0.00e+00	0	57	0	2528116736	50	4056
2026-01-04 17:34:40.33	314.24	9.45	-44.3	-45.2	16.1	0.00e+00	0	57	0	2534408192	50	4171
2026-01-04 17:34:41.32	314.40	9.42	-44.3	-45.2	16.0	0.00e+00	0	57	0	2541748224	50	4191
2026-01-04 17:34:42.32	314.57	9.40	-44.4	-45.3	15.9	0.00e+00	0	57	0	2549088256	50	4223
2026-01-04 17:34:43.30	314.73	9.37	-44.2	-45.1	16.2	0.00e+00	0	57	0	2556428288	50	4121
2026-01-04 17:34:44.30	314.90	9.35	-44.1	-45.0	16.3	0.00e+00	0	57	0	2563768320	50	4073
2026-01-04 17:34:45.28	315.06	9.32	-43.9	-44.8	16.4	0.00e+00	0	57	0	2570059776	50	3977
2026-01-04 17:34:46.27	315.22	9.29	-44.0	-44.8	16.3	0.00e+00	0	57	0	2577399808	50	4002
2026-01-04 17:34:47.25	315.39	9.27	-44.0	-44.8	16.4	0.00e+00	0	57	0	2584739840	50	3998
2026-01-04 17:34:48.25	315.55	9.24	-44.2	-45.1	16.0	0.00e+00	0	57	0	2592079872	50	4133
2026-01-04 17:34:49.24	315.71	9.21	-44.0	-44.9	16.3	0.00e+00	0	57	0	2599419904	50	4014
2026-01-04 17:34:50.22	315.87	9.19	-43.8	-44.6	16.6	0.00e+00	0	57	0	2605711360	50	3908
2026-01-04 17:34:51.21	316.04	9.16	-43.8	-44.6	16.6	0.00e+00	0	57	0	2613051392	50	3887
2026-01-04 17:34:52.20	316.20	9.13	-43.9	-44.7	16.5	0.00e+00	0	57	0	2620391424	50	3934
2026-01-04 17:34:53.19	316.36	9.11	-44.0	-44.8	16.4	0.00e+00	0	57	0	2627731456	50	3998
2026-01-04 17:34:54.18	316.52	9.08	-43.9	-44.8	16.4	0.00e+00	0	57	0	2635071488	50	3964
2026-01-04 17:34:55.17	316.68	9.05	-44.1	-45.0	16.3	0.00e+00	0	57	0	2641362944	50	4053
2026-01-04 17:34:56.16	316.85	9.02	-44.2	-45.1	16.1	0.00e+00	0	57	0	2648702976	50	4112
2026-01-04 17:34:57.15	317.01	8.99	-44.1	-45.0	16.3	0.00e+00	0	57	0	2656043008	50	4052
2026-01-04 17:34:58.14	317.17	8.97	-44.3	-45.2	16.0	0.00e+00	0	57	0	2663383040	50	4173
2026-01-04 17:34:59.13	317.33	8.94	-44.5	-45.5	15.7	0.00e+00	0	57	0	2670723072	50	4292
2026-01-04 17:35:00.12	317.49	8.91	-44.2	-45.2	16.0	0.00e+00	0	57	0	2677014528	50	4162
2026-01-04 17:35:01.11	317.65	8.88	-44.2	-45.1	16.1	0.00e+00	0	57	0	2684354560	50	4104
2026-01-04 17:35:02.10	317.81	8.85	-44.2	-45.2	16.0	0.00e+00	0	57	0	2691694592	50	4165
2026-01-04 17:35:03.09	317.96	8.82	-44.3	-45.2	16.0	0.00e+00	0	57	0	2699034624	50	4175
2026-01-04 17:35:04.08	318.12	8.79	-44.2	-45.2	16.0	0.00e+00	0	57	0	2706374656	50	4156
2026-01-04 17:35:05.07	318.28	8.76	-44.3	-45.2	16.0	0.00e+00	0	57	0	2712666112	50	4169
2026-01-04 17:35:06.06	318.44	8.73	-44.4	-45.3	15.9	0.00e+00	0	57	0	2720006144	50	4218
2026-01-04 17:35:07.04	318.60	8.71	-44.3	-45.2	16.0	0.00e+00	0	57	0	2727346176	50	4166
2026-01-04 17:35:08.03	318.75	8.68	-44.6	-45.5	15.7	0.00e+00	0	57	0	2734686208	50	4339
2026-01-04 17:35:09.02	318.91	8.65	-44.3	-45.3	15.9	0.00e+00	0	57	0	2742026240	50	4196
2026-01-04 17:35:10.01	319.07	8.62	-44.0	-44.9	16.3	0.00e+00	0	57	0	2749366272	50	4036
2026-01-04 17:35:10.99	319.22	8.59	-43.9	-44.8	16.4	0.00e+00	0	57	0	2755657728	50	3988
2026-01-04 17:35:11.99	319.38	8.55	-43.9	-44.8	16.4	0.00e+00	0	57	0	2762997760	50	3977
2026-01-04 17:35:12.98	319.54	8.52	-43.9	-44.8	16.4	0.00e+00	0	57	0	2770337792	50	3984
2026-01-04 17:35:13.97	319.69	8.49	-43.8	-44.7	16.5	0.00e+00	0	57	0	2777677824	50	3923
2026-01-04 17:35:14.96	319.85	8.46	-43.8	-44.7	16.5	0.00e+00	0	57	0	2785017856	50	3921
2026-01-04 17:35:15.95	320.00	8.43	-44.0	-44.9	16.3	0.00e+00	0	57	0	2791309312	50	4013
2026-01-04 17:35:16.94	320.16	8.40	-43.9	-44.7	16.5	0.00e+00	0	57	0	2798649344	50	3937
2026-01-04 17:35:17.93	320.31	8.37	-43.9	-44.7	16.5	0.00e+00	0	57	0	2805989376	50	3946
2026-01-04 17:35:18.92	320.46	8.34	-44.0	-44.8	16.3	0.00e+00	0	57	0	2813329408	50	4001
2026-01-04 17:35:19.91	320.62	8.31	-44.2	-45.1	16.1	0.00e+00	0	57	0	2820669440	50	4119
2026-01-04 17:35:20.90	320.77	8.27	-44.2	-45.1	16.0	0.00e+00	0	57	0	2828009472	50	4117
2026-01-04 17:35:21.88	320.92	8.24	-44.2	-45.2	16.0	0.00e+00	0	57	0	2834300928	50	4152
2026-01-04 17:35:22.88	321.08	8.21	-44.2	-45.1	16.0	0.00e+00	0	57	0	2841640960	50	4132
2026-01-04 17:35:23.87	321.23	8.18	-44.4	-45.3	15.8	0.00e+00	0	57	0	2848980992	50	4224
2026-01-04 17:35:24.87	321.38	8.15	-44.4	-45.4	15.7	0.00e+00	0	57	0	2856321024	50	4277
2026-01-04 17:35:25.86	321.53	8.11	-44.4	-45.4	15.8	0.00e+00	0	57	0	2863661056	50	4264
2026-01-04 17:35:26.85	321.68	8.08	-44.6	-45.6	15.5	0.00e+00	0	57	0	2871001088	50	4380
2026-01-04 17:35:27.83	321.83	8.05	-44.5	-45.5	15.7	0.00e+00	0	57	0	2877292544	51	4062
2026-01-04 17:35:28.81	321.98	8.02	-44.7	-45.7	15.5	0.00e+00	0	57	0	2884632576	51	4168
2026-01-04 17:35:29.80	322.13	7.98	-44.9	-45.9	15.2	0.00e+00	0	57	0	2891972608	51	4273
2026-01-04 17:35:30.80	322.29	7.95	-44.7	-45.7	15.4	0.00e+00	0	57	0	2899312640	51	4181
2026-01-04 17:35:31.79	322.43	7.92	-44.8	-45.8	15.3	0.00e+00	0	57	0	2906652672	51	4215
2026-01-04 17:35:32.78	322.58	7.88	-44.7	-45.7	15.4	0.00e+00	0	57	0	2912944128	51	4179
2026-01-04 17:35:33.77	322.73	7.85	-44.7	-45.8	15.3	0.00e+00	0	57	0	2920284160	51	4209
2026-01-04 17:35:34.77	322.88	7.82	-45.0	-46.0	15.0	0.00e+00	0	57	0	2927624192	51	4324
2026-01-04 17:35:35.76	323.03	7.78	-44.9	-45.9	15.1	0.00e+00	0	57	0	2934964224	51	4276
2026-01-04 17:35:36.75	323.18	7.75	-44.6	-45.6	15.5	0.00e+00	0	57	0	2942304256	51	4100
2026-01-04 17:35:37.74	323.33	7.72	-44.6	-45.6	15.5	0.00e+00	0	57	0	2949644288	51	4115
2026-01-04 17:35:38.74	323.48	7.68	-44.6	-45.6	15.4	0.00e+00	0	57	0	2955935744	51	4145
2026-01-04 17:35:39.73	323.62	7.65	-44.9	-46.0	15.1	0.00e+00	0	57	0	2963275776	51	4316
2026-01-04 17:35:40.72	323.77	7.61	-44.8	-45.8	15.2	1.10e-06	0	57	0	2970615808	51	4216
2026-01-04 17:35:41.72	323.92	7.58	-44.6	-45.6	15.5	0.00e+00	0	57	0	2977955840	51	4110
2026-01-04 17:35:42.71	324.06	7.54	-44.5	-45.5	15.5	0.00e+00	0	57	0	2985295872	51	4074
2026-01-04 17:35:43.70	324.21	7.51	-44.5	-45.5	15.5	0.00e+00	0	57	0	2992635904	51	4085
2026-01-04 17:35:44.69	324.35	7.48	-44.5	-45.6	15.5	0.00e+00	0	57	0	2998927360	51	4106
2026-01-04 17:35:45.68	324.50	7.44	-44.6	-45.6	15.5	0.00e+00	0	57	0	3006267392	51	4110
2026-01-04 17:35:46.68	324.65	7.41	-44.7	-45.7	15.4	0.00e+00	0	57	0	3013607424	51	4173
2026-01-04 17:35:47.67	324.79	7.37	-44.6	-45.7	15.4	1.10e-06	0	57	0	3020947456	51	4159
2026-01-04 17:35:48.66	324.93	7.34	-44.6	-45.7	15.4	0.00e+00	0	57	0	3028287488	51	4151
2026-01-04 17:35:49.65	325.08	7.30	-44.7	-45.7	15.4	0.00e+00	0	57	0	3034578944	51	4169
2026-01-04 17:35:50.63	325.22	7.27	-44.7	-45.7	15.3	0.00e+00	0	57	0	3041918976	51	4188
2026-01-04 17:35:51.63	325.36	7.23	-44.7	-45.8	15.2	0.00e+00	0	58	0	3049259008	51	4225
2026-01-04 17:35:52.63	325.51	7.19	-44.8	-45.9	15.1	0.00e+00	0	57	0	3056599040	51	4277
2026-01-04 17:35:53.62	325.65	7.16	-44.9	-45.9	15.1	0.00e+00	0	57	0	3063939072	51	4273
2026-01-04 17:35:54.60	325.79	7.12	-44.7	-45.8	15.3	0.00e+00	0	57	0	3071279104	51	4214
2026-01-04 17:35:55.60	325.93	7.09	-44.8	-45.8	15.2	0.00e+00	0	57	0	3077570560	51	4229
2026-01-04 17:35:56.59	326.08	7.05	-44.9	-46.0	15.1	0.00e+00	0	57	0	3084910592	51	4304
2026-01-04 17:35:57.57	326.22	7.02	-44.9	-45.9	15.1	0.00e+00	0	57	0	3092250624	51	4275
2026-01-04 17:35:58.56	326.36	6.98	-44.9	-46.0	15.1	0.00e+00	0	57	0	3099590656	51	4295
2026-01-04 17:35:59.56	326.50	6.94	-45.0	-46.1	14.9	0.00e+00	0	57	0	3106930688	51	4367
2026-01-04 17:36:00.54	326.64	6.91	-45.0	-46.2	14.9	0.00e+00	0	57	0	3114270720	51	4400
2026-01-04 17:36:01.53	326.78	6.87	-45.0	-46.1	14.9	0.00e+00	0	57	0	3120562176	51	4365
2026-01-04 17:36:02.52	326.92	6.84	-45.0	-46.1	14.9	0.00e+00	0	57	0	3127902208	51	4358
2026-01-04 17:36:03.51	327.05	6.80	-44.9	-46.0	15.0	0.00e+00	0	57	0	3135242240	51	4306
2026-01-04 17:36:04.51	327.19	6.76	-44.8	-45.9	15.1	0.00e+00	0	57	0	3142582272	51	4254
2026-01-04 17:36:05.49	327.33	6.73	-44.7	-45.8	15.2	0.00e+00	0	57	0	3149922304	51	4211
2026-01-04 17:36:06.48	327.47	6.69	-44.8	-45.9	15.1	0.00e+00	0	58	0	3156213760	51	4270
2026-01-04 17:36:07.46	327.61	6.65	-45.0	-46.0	14.9	0.00e+00	0	57	0	3163553792	51	4327
2026-01-04 17:36:08.45	327.74	6.62	-44.8	-45.9	15.0	0.00e+00	0	57	0	3170893824	51	4263
2026-01-04 17:36:09.43	327.88	6.58	-44.6	-45.7	15.3	0.00e+00	0	57	0	3178233856	51	4149
2026-01-04 17:36:10.42	328.02	6.54	-44.8	-45.8	15.2	1.10e-06	0	57	0	3184525312	51	4226
2026-01-04 17:36:11.41	328.15	6.51	-44.7	-45.8	15.1	0.00e+00	0	57	0	3191865344	51	4222
2026-01-04 17:36:12.39	328.29	6.47	-44.7	-45.8	15.2	0.00e+00	0	58	0	3199205376	51	4211
2026-01-04 17:36:13.38	328.42	6.43	-44.7	-45.7	15.2	0.00e+00	0	57	0	3206545408	51	4186
2026-01-04 17:36:14.38	328.56	6.39	-44.9	-46.0	15.0	0.00e+00	0	57	0	3213885440	51	4302
2026-01-04 17:36:15.37	328.69	6.36	-45.1	-46.2	14.8	0.00e+00	0	58	0	3220176896	51	4423
2026-01-04 17:36:16.35	328.83	6.32	-44.8	-45.8	15.1	0.00e+00	0	57	0	3227516928	51	4227
2026-01-04 17:36:17.34	328.96	6.28	-44.7	-45.8	15.1	0.00e+00	0	57	0	3234856960	51	4204
2026-01-04 17:36:18.33	329.10	6.24	-44.7	-45.7	15.1	0.00e+00	0	58	0	3242196992	51	4181
2026-01-04 17:36:19.32	329.23	6.21	-44.7	-45.8	15.1	0.00e+00	0	57	0	3249537024	51	4218
2026-01-04 17:36:20.31	329.36	6.17	-44.9	-46.0	14.9	0.00e+00	0	57	0	3255828480	51	4306
2026-01-04 17:36:21.30	329.50	6.13	-44.9	-46.0	14.9	0.00e+00	0	57	0	3263168512	51	4309
2026-01-04 17:36:22.28	329.63	6.09	-45.0	-46.2	14.6	1.10e-06	0	58	0	3270508544	52	4181
2026-01-04 17:36:23.27	329.76	6.06	-45.1	-46.2	14.6	1.10e-06	0	58	0	3277848576	52	4172
2026-01-04 17:36:24.25	329.89	6.02	-45.0	-46.1	14.7	1.10e-06	0	57	0	3285188608	52	4140
2026-01-04 17:36:25.25	330.02	5.98	-45.0	-46.2	14.6	1.10e-06	0	58	0	3292528640	52	4173
2026-01-04 17:36:26.24	330.15	5.94	-45.1	-46.3	14.5	0.00e+00	0	57	0	3298820096	52	4194
2026-01-04 17:36:27.23	330.29	5.90	-45.2	-46.4	14.4	0.00e+00	0	57	0	3306160128	52	4249
2026-01-04 17:36:28.22	330.42	5.86	-45.1	-46.3	14.5	0.00e+00	0	57	0	3313500160	52	4202
2026-01-04 17:36:29.21	330.55	5.83	-45.1	-46.3	14.4	0.00e+00	0	57	0	3320840192	52	4210
2026-01-04 17:36:30.20	330.68	5.79	-45.4	-46.6	14.1	1.10e-06	0	58	0	3328180224	52	4379
2026-01-04 17:36:31.18	330.80	5.75	-45.1	-46.3	14.4	1.10e-06	0	57	0	3335520256	52	4214
2026-01-04 17:36:32.18	330.94	5.71	-44.9	-46.0	14.7	1.10e-06	0	58	0	3341811712	52	4062
2026-01-04 17:36:33.17	331.06	5.67	-44.9	-46.0	14.7	0.00e+00	0	58	0	3349151744	52	4098
2026-01-04 17:36:34.15	331.19	5.63	-44.9	-46.1	14.7	2.20e-06	0	57	0	3356491776	52	4105
2026-01-04 17:36:35.14	331.32	5.59	-45.1	-46.3	14.4	2.20e-06	0	58	0	3363831808	52	4201
2026-01-04 17:36:36.13	331.45	5.56	-44.9	-46.0	14.7	0.00e+00	0	57	0	3371171840	52	4085
2026-01-04 17:36:37.12	331.58	5.52	-44.6	-45.7	15.0	0.00e+00	0	57	0	3377463296	52	3947
2026-01-04 17:36:38.11	331.70	5.48	-44.6	-45.7	15.1	2.20e-06	0	58	0	3384803328	52	3919
2026-01-04 17:36:39.10	331.83	5.44	-44.7	-45.8	14.9	0.00e+00	0	57	0	3392143360	52	3983
2026-01-04 17:36:40.08	331.96	5.40	-44.7	-45.8	14.8	0.00e+00	0	58	0	3399483392	52	4000
2026-01-04 17:36:41.07	332.08	5.36	-44.6	-45.7	15.0	0.00e+00	0	58	0	3405774848	52	3933
2026-01-04 17:36:42.06	332.21	5.32	-44.8	-46.0	14.7	0.00e+00	0	58	0	3413114880	52	4062
2026-01-04 17:36:43.05	332.33	5.28	-44.8	-45.9	14.8	0.00e+00	0	57	0	3420454912	52	4034
2026-01-04 17:36:44.04	332.46	5.24	-45.0	-46.2	14.4	0.00e+00	0	58	0	3427794944	52	4156
2026-01-04 17:36:45.03	332.59	5.20	-45.3	-46.6	14.1	1.10e-06	0	57	0	3435134976	52	4372
2026-01-04 17:36:46.01	332.71	5.16	-45.2	-46.5	14.2	1.10e-06	0	57	0	3441426432	52	4295
2026-01-04 17:36:47.00	332.83	5.13	-45.0	-46.2	14.4	1.10e-06	0	57	0	3448766464	52	4177
2026-01-04 17:36:47.99	332.96	5.09	-45.0	-46.2	14.4	1.10e-06	0	58	0	3456106496	52	4174
2026-01-04 17:36:48.98	333.08	5.05	-45.2	-46.5	14.1	2.20e-06	0	58	0	3463446528	52	4300
2026-01-04 17:36:49.97	333.20	5.01	-47.1	-49.1	11.6	3.40e-06	0	58	0	3470786560	55	4877
2026-01-04 17:36:50.95	333.33	4.97	-51.5	-61.2	3.8	8.47e-01	0	57	104	3471835136	64	11717
2026-01-04 17:36:51.94	333.45	4.93	-51.8	-61.9	3.8	8.46e-01	0	57	104	3471835136	65	12013
2026-01-04 17:36:52.93	333.57	4.89	-52.0	-62.2	3.8	8.46e-01	0	58	104	3471835136	65	12450
2026-01-04 17:36:53.92	333.69	4.85	-52.0	-62.4	3.8	8.45e-01	0	57	104	3471835136	65	12739
2026-01-04 17:36:54.91	333.82	4.81	-52.1	-62.4	3.8	8.46e-01	0	58	104	3471835136	66	12024
2026-01-04 17:36:55.90	333.94	4.77	-51.5	-61.8	3.8	8.48e-01	0	58	104	3471835136	65	11841
2026-01-04 17:36:56.89	334.06	4.73	-52.2	-62.6	3.8	8.47e-01	0	58	104	3471835136	66	12280
2026-01-04 17:36:57.88	334.18	4.69	-52.4	-62.7	3.8	8.46e-01	0	58	104	3471835136	66	12381
2026-01-04 17:36:58.87	334.30	4.65	-52.4	-62.7	3.8	8.45e-01	0	57	104	3471835136	66	12434
2026-01-04 17:36:59.86	334.42	4.61	-52.5	-62.7	3.8	8.46e-01	0	58	104	3471835136	66	12408
2026-01-04 17:37:00.84	334.54	4.57	-52.6	-62.7	3.8	8.47e-01	0	57	104	3471835136	66	12519
2026-01-04 17:37:01.83	334.66	4.53	-52.6	-62.7	3.8	8.46e-01	0	58	104	3471835136	66	12496
2026-01-04 17:37:02.82	334.78	4.49	-52.6	-62.8	3.8	8.47e-01	0	58	104	3471835136	66	12604
2026-01-04 17:37:03.81	334.90	4.45	-52.7	-62.9	3.8	8.46e-01	0	57	104	3471835136	66	12668
2026-01-04 17:37:04.80	335.02	4.41	-52.6	-62.8	3.8	8.47e-01	0	58	104	3471835136	66	12633
2026-01-04 17:37:05.78	335.13	4.37	-52.7	-62.9	3.8	8.46e-01	0	58	104	3471835136	67	12002
2026-01-04 17:37:06.77	335.25	4.33	-52.7	-62.9	3.8	8.46e-01	0	58	104	3471835136	67	11961
2026-01-04 17:37:07.76	335.37	4.29	-52.7	-62.9	3.8	8.47e-01	0	58	104	3471835136	67	12030
2026-01-04 17:37:08.75	335.49	4.25	-52.7	-62.9	3.8	8.45e-01	0	58	104	3471835136	67	12017
2026-01-04 17:37:09.74	335.61	4.21	-52.7	-62.9	3.8	8.46e-01	0	57	104	3471835136	67	12051
2026-01-04 17:37:10.72	335.72	4.17	-52.7	-62.9	3.8	8.45e-01	0	58	104	3471835136	67	12080
2026-01-04 17:37:11.71	335.84	4.13	-52.8	-62.9	3.8	8.45e-01	0	58	104	3471835136	67	12030
2026-01-04 17:37:12.70	335.95	4.09	-52.8	-63.0	3.8	8.46e-01	0	58	104	3471835136	67	12095
2026-01-04 17:37:13.70	336.07	4.04	-52.7	-62.9	3.8	8.46e-01	0	58	104	3471835136	67	12068
2026-01-04 17:37:14.68	336.19	4.00	-52.6	-62.9	3.8	8.46e-01	0	58	104	3471835136	67	12059
2026-01-04 17:37:15.67	336.30	3.96	-52.7	-62.9	3.8	8.47e-01	0	58	104	3471835136	67	12039
2026-01-04 17:37:16.66	336.42	3.92	-52.7	-62.9	3.8	8.47e-01	0	58	104	3471835136	67	12052
2026-01-04 17:37:17.65	336.53	3.88	-52.7	-62.9	3.8	8.46e-01	0	58	104	3471835136	67	12069
2026-01-04 17:37:18.64	336.65	3.84	-52.8	-62.9	3.8	8.46e-01	0	58	104	3471835136	67	12007
2026-01-04 17:37:19.63	336.76	3.80	-52.7	-62.9	3.8	8.46e-01	0	58	104	3471835136	67	12073
2026-01-04 17:37:20.62	336.87	3.76	-52.7	-62.9	3.8	8.47e-01	0	58	104	3471835136	67	12053
2026-01-04 17:37:21.61	336.99	3.72	-52.7	-62.9	3.8	8.47e-01	0	58	104	3471835136	67	12055
2026-01-04 17:37:22.60	337.10	3.68	-52.8	-62.9	3.8	8.46e-01	0	58	104	3471835136	67	12030
2026-01-04 17:37:23.59	337.21	3.64	-52.7	-62.9	3.8	8.46e-01	0	58	104	3471835136	67	12033
2026-01-04 17:37:24.58	337.33	3.60	-52.7	-62.9	3.8	8.47e-01	0	58	104	3471835136	67	12089
2026-01-04 17:37:25.58	337.44	3.56	-52.7	-62.9	3.8	8.46e-01	0	58	104	3471835136	67	12051
2026-01-04 17:37:26.57	337.55	3.51	-52.7	-62.9	3.8	8.46e-01	0	58	104	3471835136	67	12058
2026-01-04 17:37:27.56	337.66	3.47	-52.7	-63.0	3.8	8.47e-01	0	58	104	3471835136	67	12143
2026-01-04 17:37:28.55	337.77	3.43	-52.8	-62.9	3.8	8.46e-01	0	58	104	3471835136	67	12062
2026-01-04 17:37:29.53	337.88	3.39	-52.7	-62.9	3.8	8.47e-01	0	58	104	3471835136	67	12061
2026-01-04 17:37:30.52	338.00	3.35	-52.7	-62.9	3.8	8.46e-01	0	58	104	3471835136	67	12022
2026-01-04 17:37:31.51	338.11	3.31	-52.7	-62.9	3.8	8.46e-01	0	58	104	3471835136	67	12035
2026-01-04 17:37:32.50	338.22	3.27	-52.7	-62.9	3.8	8.46e-01	0	58	104	3471835136	67	12032
2026-01-04 17:37:33.50	338.33	3.23	-52.7	-62.9	3.8	8.46e-01	0	58	104	3471835136	67	12042
2026-01-04 17:37:34.48	338.44	3.19	-52.6	-62.9	3.8	8.45e-01	0	58	104	3471835136	67	12041
2026-01-04 17:37:35.48	338.55	3.15	-52.6	-62.9	3.8	8.46e-01	0	58	104	3471835136	67	12073
2026-01-04 17:37:36.46	338.65	3.10	-52.7	-63.0	3.8	8.47e-01	0	58	104	3471835136	67	12103
2026-01-04 17:37:37.45	338.76	3.06	-52.7	-62.9	3.8	8.46e-01	0	58	104	3471835136	67	12078
2026-01-04 17:37:38.44	338.87	3.02	-52.8	-62.9	3.8	8.46e-01	0	58	104	3471835136	67	12035
2026-01-04 17:37:39.44	338.98	2.98	-52.8	-62.9	3.8	8.44e-01	0	58	104	3471835136	67	12048

#Closed at: 2026-01-04 17:37:40
#Recorded file [3471 MB]: D:/Data/31026_260104_203650.dat