passes_logs/2026/01/04/R3.0SM8_Murmansk_STILSPACE/R3.0SM8_Murmansk_STILSPACE__20260104_072557_NOAA_21_JPSS-2_rec.log

#Pass ID: 20260104_072557_NOAA 21 (JPSS-2)
#Satellite: NOAA 21 (JPSS-2)
#Configuration: NOAA-21
#almurnet v.1.7.20240730
#Start time: 2026-01-04 07:30:26

#Version: 2.2.20231116
#Station: R3.0SM8_Murmansk_STILSPACE
#Location: 33.092731 lon 68.902999 lat
#TLE: 1 54234U 22150A   26003.45311712  .00000198  00000+0  11468-3 0  9993
#TLE: 2 54234  98.7487 304.4932 0001159 347.5017  12.6130 14.19531745163172

#Time	Az	El	Level	Level2	SNR	BER	BlckErr	Temp	State	Recorded	gain1	gain2
2026-01-04 07:30:26.51	73.68	26.19	-52.6	-63.5	3.8	8.47e-01	0	56	0	0	67	12975
2026-01-04 07:30:27.48	73.46	26.30	-52.8	-64.3	3.8	1.49e+00	0	57	104	0	68	13557
2026-01-04 07:30:28.47	73.23	26.40	-52.9	-64.4	3.8	1.49e+00	0	57	104	0	68	13578
2026-01-04 07:30:29.45	72.99	26.51	-52.9	-64.4	3.8	1.49e+00	0	57	104	0	68	13581
2026-01-04 07:30:30.44	72.76	26.61	-52.9	-64.4	3.8	1.49e+00	0	57	104	0	68	13622
2026-01-04 07:30:31.43	72.52	26.72	-52.9	-64.4	3.8	1.49e+00	0	57	104	0	68	13620
2026-01-04 07:30:32.43	72.28	26.83	-52.8	-64.3	3.8	1.49e+00	0	57	104	0	68	13519
2026-01-04 07:30:33.42	72.04	26.93	-52.9	-64.3	3.8	1.49e+00	0	57	104	0	68	13523
2026-01-04 07:30:34.41	71.80	27.04	-52.9	-64.3	3.8	1.49e+00	0	57	104	0	68	13562
2026-01-04 07:30:35.40	71.56	27.14	-52.9	-64.4	3.8	1.49e+00	0	57	104	0	68	13570
2026-01-04 07:30:36.39	71.31	27.25	-52.8	-64.3	3.8	1.49e+00	0	57	104	0	68	13522
2026-01-04 07:30:37.39	71.06	27.35	-52.8	-64.3	3.8	1.49e+00	0	57	104	0	68	13504
2026-01-04 07:30:38.38	70.81	27.46	-52.8	-64.3	3.8	1.49e+00	0	57	104	0	68	13500
2026-01-04 07:30:39.37	70.57	27.56	-52.8	-64.3	3.8	1.49e+00	0	57	104	0	68	13481
2026-01-04 07:30:40.36	70.31	27.67	-52.8	-64.2	3.8	1.49e+00	0	57	104	0	68	13382
2026-01-04 07:30:41.35	70.06	27.77	-52.7	-64.2	3.8	1.49e+00	0	57	104	0	68	13375
2026-01-04 07:30:42.34	69.81	27.87	-52.7	-64.2	3.8	1.49e+00	0	57	104	0	68	13385
2026-01-04 07:30:43.33	69.55	27.98	-52.8	-64.2	3.8	1.49e+00	0	57	104	0	68	13281
2026-01-04 07:30:44.31	69.29	28.08	-52.6	-63.7	3.8	1.49e+00	0	57	104	0	68	12577
2026-01-04 07:30:45.31	69.03	28.18	-41.7	-48.2	3.9	1.49e+00	0	57	104	0	46	7503
2026-01-04 07:30:46.30	68.77	28.28	-45.9	-52.7	3.8	1.49e+00	0	57	104	0	53	8382
2026-01-04 07:30:47.28	68.51	28.39	-46.0	-52.8	3.8	1.49e+00	0	57	104	0	53	8561
2026-01-04 07:30:48.28	68.24	28.49	-47.3	-54.4	3.8	1.49e+00	0	57	104	0	56	8577
2026-01-04 07:30:49.27	67.98	28.59	-49.1	-56.8	3.8	1.49e+00	0	57	104	0	59	9500
2026-01-04 07:30:50.25	67.71	28.69	-50.9	-59.7	3.8	1.49e+00	0	57	104	0	63	10585
2026-01-04 07:30:51.24	67.44	28.79	-52.0	-62.3	3.8	1.49e+00	0	57	104	0	65	12720
2026-01-04 07:30:52.23	67.17	28.89	-52.4	-63.5	3.8	1.49e+00	0	57	104	0	66	13750
2026-01-04 07:30:53.23	66.89	28.99	-52.5	-63.5	3.8	1.49e+00	0	57	104	0	66	13853
2026-01-04 07:30:54.22	66.62	29.09	-52.4	-63.3	3.8	1.49e+00	0	57	104	0	66	13564
2026-01-04 07:30:55.21	66.34	29.19	-52.4	-63.1	3.8	1.49e+00	0	57	104	0	66	13260
2026-01-04 07:30:56.20	66.06	29.29	-52.3	-63.1	3.8	1.49e+00	0	57	104	0	66	13250
2026-01-04 07:30:57.19	65.78	29.39	-52.4	-63.3	3.8	1.49e+00	0	57	104	0	66	13423
2026-01-04 07:30:58.18	65.50	29.49	-52.5	-63.7	3.8	1.49e+00	0	57	104	0	66	14053
2026-01-04 07:30:59.17	65.22	29.59	-52.5	-63.8	3.8	1.49e+00	0	57	104	0	67	13476
2026-01-04 07:31:00.16	64.93	29.68	-52.5	-63.5	3.8	1.49e+00	0	57	104	0	67	13071
2026-01-04 07:31:01.15	64.65	29.78	-52.5	-63.5	3.8	1.49e+00	0	57	104	0	67	12991
2026-01-04 07:31:02.13	64.36	29.88	-52.4	-63.4	3.8	1.49e+00	0	57	104	0	67	12943
2026-01-04 07:31:03.13	64.07	29.97	-52.5	-63.4	3.8	1.49e+00	0	57	104	0	67	12842
2026-01-04 07:31:04.12	63.77	30.07	-52.5	-63.3	3.8	1.49e+00	0	57	104	0	67	12722
2026-01-04 07:31:05.11	63.48	30.16	-52.4	-63.1	3.8	1.49e+00	0	57	104	0	67	12452
2026-01-04 07:31:06.09	63.19	30.26	-52.5	-62.9	3.8	1.49e+00	0	57	104	0	67	12098
2026-01-04 07:31:07.08	62.89	30.35	-52.5	-62.6	3.8	1.49e+00	0	57	104	0	67	11788
2026-01-04 07:31:08.07	62.59	30.44	-52.4	-62.6	3.8	1.49e+00	0	57	104	0	67	11718
2026-01-04 07:31:09.06	62.29	30.53	-52.5	-62.9	3.8	1.49e+00	0	57	104	0	67	12126
2026-01-04 07:31:10.05	61.99	30.63	-52.6	-63.3	3.8	1.49e+00	0	57	104	0	67	12771
2026-01-04 07:31:11.03	61.69	30.72	-52.6	-63.4	3.8	1.49e+00	0	57	104	0	67	12952
2026-01-04 07:31:12.01	61.38	30.81	-52.5	-63.2	3.8	1.49e+00	0	57	104	0	67	12572
2026-01-04 07:31:13.01	61.07	30.90	-52.5	-63.0	3.8	1.49e+00	0	57	104	0	67	12250
2026-01-04 07:31:14.01	60.76	30.99	-52.6	-63.2	3.8	1.49e+00	0	57	104	0	67	12526
2026-01-04 07:31:15.00	60.45	31.08	-52.6	-63.8	3.8	1.49e+00	0	57	104	0	67	13478
2026-01-04 07:31:15.99	60.13	31.16	-52.6	-63.8	3.8	1.49e+00	0	57	104	0	67	13430
2026-01-04 07:31:16.99	59.82	31.25	-52.4	-61.9	3.8	1.49e+00	0	57	104	0	67	10886
2026-01-04 07:31:17.98	59.50	31.34	-51.6	-57.8	5.4	1.24e+00	0	57	104	0	66	7185
2026-01-04 07:31:18.97	59.18	31.42	-50.4	-54.4	8.3	1.06e-01	0	57	0	2097152	64	5418
2026-01-04 07:31:19.96	58.86	31.51	-49.7	-52.6	10.3	7.94e-03	0	57	0	5242880	62	4952
2026-01-04 07:31:20.95	58.54	31.59	-49.6	-52.4	10.5	4.22e-03	0	57	0	8388608	62	4843
2026-01-04 07:31:21.95	58.21	31.68	-49.8	-52.8	10.0	5.70e-03	0	57	0	11534336	62	5085
2026-01-04 07:31:22.94	57.89	31.76	-49.8	-52.9	10.0	7.33e-03	0	57	0	14680064	62	5109
2026-01-04 07:31:23.92	57.57	31.84	-50.0	-53.2	9.7	9.21e-03	0	57	0	17825792	62	5311
2026-01-04 07:31:24.91	57.24	31.92	-50.0	-53.1	9.8	1.13e-02	0	57	0	20971520	62	5249
2026-01-04 07:31:25.90	56.91	32.00	-50.1	-53.5	9.4	1.37e-02	0	57	0	24117248	62	5496
2026-01-04 07:31:26.89	56.58	32.08	-49.8	-52.8	10.1	9.19e-03	0	57	0	27262976	62	5048
2026-01-04 07:31:27.87	56.25	32.16	-49.2	-51.7	11.2	1.99e-03	0	57	0	30408704	61	4735
2026-01-04 07:31:28.85	55.92	32.24	-48.7	-50.9	12.1	3.80e-04	0	57	0	33554432	60	4560
2026-01-04 07:31:29.83	55.58	32.31	-48.2	-50.1	12.9	1.09e-04	0	57	0	36700160	59	4426
2026-01-04 07:31:30.83	55.24	32.39	-47.7	-49.4	13.7	1.75e-05	0	57	0	39845888	58	4310
2026-01-04 07:31:31.81	54.91	32.46	-47.2	-48.7	14.3	3.80e-06	0	57	0	42991616	57	4219
2026-01-04 07:31:32.81	54.56	32.54	-46.8	-48.2	14.8	7.00e-07	0	57	0	46137344	56	4206
2026-01-04 07:31:33.79	54.22	32.61	-46.4	-47.7	15.3	0.00e+00	0	57	0	49283072	56	3984
2026-01-04 07:31:34.79	53.88	32.68	-45.9	-47.1	15.7	0.00e+00	0	57	0	52428800	55	3954
2026-01-04 07:31:35.78	53.53	32.75	-45.6	-46.7	16.2	0.00e+00	0	57	0	55574528	54	4002
2026-01-04 07:31:36.78	53.18	32.82	-45.4	-46.5	16.4	0.00e+00	0	57	0	57671680	53	4125
2026-01-04 07:31:37.77	52.83	32.89	-45.3	-46.4	16.5	0.00e+00	0	57	0	60817408	53	4065
2026-01-04 07:31:38.76	52.48	32.96	-45.3	-46.4	16.5	0.00e+00	0	57	0	63963136	53	4071
2026-01-04 07:31:39.75	52.13	33.02	-45.6	-46.7	16.2	0.00e+00	0	57	0	67108864	53	4235
2026-01-04 07:31:40.73	51.78	33.09	-45.4	-46.5	16.4	0.00e+00	0	57	0	70254592	53	4137
2026-01-04 07:31:41.72	51.43	33.15	-45.1	-46.2	16.7	0.00e+00	0	57	0	73400320	53	3962
2026-01-04 07:31:42.71	51.07	33.22	-45.0	-46.0	16.9	0.00e+00	0	57	0	76546048	53	3905
2026-01-04 07:31:43.70	50.71	33.28	-45.1	-46.1	16.8	0.00e+00	0	57	0	79691776	53	3935
2026-01-04 07:31:44.70	50.35	33.34	-45.2	-46.2	16.7	0.00e+00	0	57	0	82837504	53	3978
2026-01-04 07:31:45.69	49.99	33.40	-45.2	-46.2	16.6	0.00e+00	0	57	0	85983232	53	4003
2026-01-04 07:31:46.68	49.63	33.46	-45.4	-46.4	16.5	0.00e+00	0	57	0	89128960	53	4084
2026-01-04 07:31:47.67	49.27	33.52	-45.4	-46.5	16.3	0.00e+00	0	57	0	92274688	53	4123
2026-01-04 07:31:48.66	48.90	33.57	-45.5	-46.6	16.3	0.00e+00	0	57	0	95420416	53	4183
2026-01-04 07:31:49.65	48.54	33.63	-45.5	-46.6	16.3	0.00e+00	0	57	0	98566144	53	4166
2026-01-04 07:31:50.64	48.17	33.68	-45.3	-46.3	16.5	0.00e+00	0	57	0	101711872	53	4045
2026-01-04 07:31:51.63	47.81	33.73	-45.2	-46.2	16.7	0.00e+00	0	57	0	104857600	53	3992
2026-01-04 07:31:52.62	47.44	33.78	-45.1	-46.1	16.7	0.00e+00	0	57	0	108003328	53	3954
2026-01-04 07:31:53.61	47.07	33.83	-45.3	-46.3	16.6	0.00e+00	0	57	0	111149056	53	4035
2026-01-04 07:31:54.60	46.70	33.88	-45.5	-46.6	16.3	0.00e+00	0	57	0	114294784	53	4172
2026-01-04 07:31:55.60	46.32	33.93	-45.5	-46.6	16.3	0.00e+00	0	57	0	117440512	53	4163
2026-01-04 07:31:56.58	45.95	33.98	-45.2	-46.2	16.7	0.00e+00	0	57	0	120586240	53	3978
2026-01-04 07:31:57.58	45.58	34.02	-45.0	-46.0	16.9	0.00e+00	0	57	0	122683392	53	3895
2026-01-04 07:31:58.57	45.20	34.06	-45.0	-46.0	16.9	0.00e+00	0	57	0	125829120	53	3899
2026-01-04 07:31:59.56	44.83	34.11	-45.1	-46.1	16.8	0.00e+00	0	57	0	128974848	53	3927
2026-01-04 07:32:00.55	44.45	34.15	-45.1	-46.1	16.7	0.00e+00	0	57	0	132120576	53	3948
2026-01-04 07:32:01.54	44.07	34.19	-45.3	-46.3	16.6	0.00e+00	0	57	0	135266304	53	4041
2026-01-04 07:32:02.53	43.69	34.22	-45.4	-46.5	16.4	0.00e+00	0	57	0	138412032	53	4120
2026-01-04 07:32:03.53	43.31	34.26	-45.5	-46.6	16.3	0.00e+00	0	57	0	141557760	53	4185
2026-01-04 07:32:04.51	42.93	34.30	-45.5	-46.6	16.3	0.00e+00	0	57	0	144703488	53	4190
2026-01-04 07:32:05.50	42.55	34.33	-45.6	-46.7	16.2	0.00e+00	0	57	0	147849216	53	4237
2026-01-04 07:32:06.48	42.17	34.36	-45.7	-46.8	16.0	0.00e+00	0	57	0	150994944	53	4291
2026-01-04 07:32:07.47	41.79	34.39	-45.8	-47.0	15.9	0.00e+00	0	57	0	154140672	53	4363
2026-01-04 07:32:08.46	41.41	34.42	-45.9	-47.1	15.8	0.00e+00	0	57	0	157286400	53	4427
2026-01-04 07:32:09.45	41.02	34.45	-45.9	-47.1	15.8	0.00e+00	0	57	0	160432128	53	4434
2026-01-04 07:32:10.43	40.64	34.48	-45.9	-47.1	15.9	0.00e+00	0	57	0	163577856	53	4394
2026-01-04 07:32:11.42	40.26	34.50	-45.8	-47.0	15.9	0.00e+00	0	57	0	166723584	53	4377
2026-01-04 07:32:12.41	39.87	34.53	-45.8	-47.0	15.9	0.00e+00	0	57	0	169869312	53	4368
2026-01-04 07:32:13.40	39.48	34.55	-46.0	-47.2	15.7	0.00e+00	0	57	0	173015040	53	4460
2026-01-04 07:32:14.40	39.09	34.57	-46.1	-47.3	15.7	0.00e+00	0	57	0	176160768	54	4252
2026-01-04 07:32:15.39	38.71	34.59	-45.6	-46.7	16.2	0.00e+00	0	57	0	179306496	54	3989
2026-01-04 07:32:16.39	38.31	34.61	-45.2	-46.2	16.6	0.00e+00	0	57	0	182452224	53	4002
2026-01-04 07:32:17.38	37.93	34.62	-45.1	-46.1	16.8	0.00e+00	0	57	0	184549376	53	3938
2026-01-04 07:32:18.37	37.54	34.64	-45.2	-46.3	16.6	0.00e+00	0	57	0	187695104	53	4023
2026-01-04 07:32:19.36	37.15	34.65	-45.2	-46.2	16.7	0.00e+00	0	57	0	190840832	53	4001
2026-01-04 07:32:20.35	36.76	34.66	-45.4	-46.4	16.4	0.00e+00	0	57	0	193986560	53	4097
2026-01-04 07:32:21.34	36.37	34.67	-45.5	-46.6	16.3	0.00e+00	0	57	0	197132288	53	4175
2026-01-04 07:32:22.32	35.98	34.68	-45.4	-46.5	16.5	0.00e+00	0	57	0	200278016	53	4105
2026-01-04 07:32:23.31	35.59	34.69	-45.4	-46.5	16.3	0.00e+00	0	57	0	203423744	53	4140
2026-01-04 07:32:24.30	35.20	34.70	-45.7	-46.9	16.0	0.00e+00	0	57	0	206569472	53	4308
2026-01-04 07:32:25.28	34.82	34.70	-45.5	-46.6	16.3	0.00e+00	0	57	0	209715200	53	4185
2026-01-04 07:32:26.27	34.43	34.70	-45.1	-46.1	16.8	0.00e+00	0	57	0	212860928	53	3932
2026-01-04 07:32:27.26	34.04	34.70	-45.1	-46.0	16.8	0.00e+00	0	57	0	216006656	53	3913
2026-01-04 07:32:28.25	33.65	34.70	-45.2	-46.3	16.6	0.00e+00	0	57	0	219152384	53	4006
2026-01-04 07:32:29.24	33.26	34.70	-45.2	-46.2	16.7	0.00e+00	0	57	0	222298112	53	3979
2026-01-04 07:32:30.22	32.87	34.70	-45.4	-46.4	16.4	0.00e+00	0	57	0	225443840	53	4095
2026-01-04 07:32:31.22	32.48	34.69	-45.6	-46.8	16.1	0.00e+00	0	57	0	228589568	53	4253
2026-01-04 07:32:32.21	32.09	34.69	-45.5	-46.6	16.3	0.00e+00	0	57	0	231735296	53	4189
2026-01-04 07:32:33.20	31.70	34.68	-45.6	-46.7	16.2	0.00e+00	0	57	0	234881024	53	4234
2026-01-04 07:32:34.19	31.31	34.67	-45.8	-47.0	15.8	0.00e+00	0	57	0	238026752	53	4376
2026-01-04 07:32:35.18	30.92	34.66	-45.7	-46.9	16.0	0.00e+00	0	57	0	241172480	53	4314
2026-01-04 07:32:36.17	30.53	34.65	-45.6	-46.7	16.1	0.00e+00	0	57	0	244318208	53	4231
2026-01-04 07:32:37.16	30.14	34.63	-45.6	-46.8	16.1	0.00e+00	0	57	0	246415360	53	4272
2026-01-04 07:32:38.15	29.75	34.62	-45.7	-46.8	16.0	0.00e+00	0	57	0	249561088	53	4287
2026-01-04 07:32:39.14	29.36	34.60	-45.6	-46.8	16.1	0.00e+00	0	57	0	252706816	53	4245
2026-01-04 07:32:40.13	28.97	34.58	-45.6	-46.8	16.1	0.00e+00	0	57	0	255852544	53	4244
2026-01-04 07:32:41.11	28.59	34.56	-46.0	-47.2	15.7	0.00e+00	0	57	0	258998272	53	4460
2026-01-04 07:32:42.10	28.20	34.54	-46.0	-47.2	15.7	0.00e+00	0	57	0	262144000	53	4452
2026-01-04 07:32:43.09	27.82	34.52	-46.2	-47.5	15.4	0.00e+00	0	57	0	265289728	54	4358
2026-01-04 07:32:44.08	27.43	34.49	-45.9	-47.1	15.8	0.00e+00	0	57	0	268435456	54	4164
2026-01-04 07:32:45.07	27.05	34.47	-45.7	-46.8	16.0	0.00e+00	0	57	0	271581184	54	4044
2026-01-04 07:32:46.05	26.67	34.44	-45.6	-46.8	16.0	0.00e+00	0	57	0	274726912	54	4022
2026-01-04 07:32:47.04	26.28	34.41	-45.8	-47.0	15.7	0.00e+00	0	57	0	277872640	54	4134
2026-01-04 07:32:48.03	25.90	34.38	-46.3	-47.7	14.9	0.00e+00	0	57	0	281018368	54	4459
2026-01-04 07:32:49.02	25.52	34.35	-46.8	-48.5	13.7	3.80e-06	0	57	0	284164096	55	4617
2026-01-04 07:32:50.00	25.14	34.32	-47.4	-49.4	12.7	2.89e-05	0	57	0	287309824	56	4870
2026-01-04 07:32:50.99	24.76	34.29	-47.8	-50.3	11.5	5.13e-04	0	57	0	290455552	57	5052
2026-01-04 07:32:51.98	24.38	34.25	-48.1	-50.9	10.8	1.90e-03	0	57	0	293601280	58	5114
2026-01-04 07:32:52.97	24.00	34.21	-48.4	-51.3	10.3	5.13e-03	0	57	0	296747008	58	5355
2026-01-04 07:32:53.97	23.62	34.17	-48.6	-51.7	10.0	6.99e-03	0	57	0	299892736	59	5285
2026-01-04 07:32:54.96	23.24	34.13	-48.5	-51.3	10.4	5.76e-03	0	57	0	303038464	59	5090
2026-01-04 07:32:55.95	22.87	34.09	-48.3	-51.0	10.8	2.63e-03	0	57	0	305135616	59	4885
2026-01-04 07:32:56.94	22.49	34.05	-48.3	-50.9	10.9	2.11e-03	0	57	0	308281344	59	4865
2026-01-04 07:32:57.93	22.12	34.01	-47.8	-50.0	12.1	3.76e-04	0	57	0	311427072	58	4601
2026-01-04 07:32:58.92	21.74	33.96	-47.2	-49.1	13.1	4.27e-05	0	57	0	314572800	57	4423
2026-01-04 07:32:59.91	21.37	33.92	-47.0	-48.7	13.6	9.10e-06	0	57	0	317718528	57	4235
2026-01-04 07:33:00.90	21.00	33.87	-46.9	-48.6	13.8	3.00e-06	0	57	0	320864256	57	4162
2026-01-04 07:33:01.89	20.63	33.82	-46.8	-48.4	14.0	3.00e-06	0	57	0	324009984	56	4336
2026-01-04 07:33:02.88	20.26	33.77	-46.9	-48.5	14.1	1.50e-06	0	57	0	327155712	56	4354
2026-01-04 07:33:03.87	19.89	33.72	-47.0	-48.6	14.1	7.00e-07	0	57	0	330301440	56	4416
2026-01-04 07:33:04.86	19.53	33.66	-47.1	-48.7	14.0	2.20e-06	0	57	0	333447168	56	4481
2026-01-04 07:33:05.85	19.16	33.61	-46.8	-48.3	14.5	2.20e-06	0	57	0	336592896	56	4269
2026-01-04 07:33:06.84	18.80	33.56	-46.5	-47.8	15.0	0.00e+00	0	57	0	339738624	56	4045
2026-01-04 07:33:07.83	18.44	33.50	-46.1	-47.4	15.3	0.00e+00	0	57	0	342884352	55	4077
2026-01-04 07:33:08.82	18.07	33.44	-46.1	-47.4	15.4	0.00e+00	0	57	0	346030080	55	4069
2026-01-04 07:33:09.82	17.71	33.38	-46.0	-47.3	15.6	0.00e+00	0	57	0	349175808	55	4014
2026-01-04 07:33:10.80	17.35	33.32	-45.8	-47.0	15.8	0.00e+00	0	57	0	352321536	54	4123
2026-01-04 07:33:11.79	17.00	33.26	-45.8	-47.0	15.8	0.00e+00	0	57	0	355467264	54	4117
2026-01-04 07:33:12.78	16.64	33.20	-45.8	-47.0	15.9	0.00e+00	0	57	0	358612992	54	4107
2026-01-04 07:33:13.78	16.28	33.14	-45.9	-47.2	15.6	0.00e+00	0	57	0	361758720	54	4242
2026-01-04 07:33:14.76	15.93	33.07	-45.8	-46.9	15.9	0.00e+00	0	57	0	364904448	54	4094
2026-01-04 07:33:15.75	15.58	33.01	-45.5	-46.7	16.2	0.00e+00	0	57	0	367001600	54	3961
2026-01-04 07:33:16.75	15.23	32.94	-45.3	-46.4	16.4	0.00e+00	0	57	0	370147328	53	4089
2026-01-04 07:33:17.74	14.88	32.87	-45.3	-46.4	16.5	0.00e+00	0	57	0	373293056	53	4059
2026-01-04 07:33:18.73	14.53	32.80	-45.2	-46.3	16.5	0.00e+00	0	57	0	376438784	53	4034
2026-01-04 07:33:19.72	14.18	32.73	-45.1	-46.1	16.6	0.00e+00	0	57	0	379584512	53	3954
2026-01-04 07:33:20.71	13.84	32.66	-44.9	-45.9	16.9	0.00e+00	0	57	0	382730240	53	3851
2026-01-04 07:33:21.70	13.50	32.59	-44.7	-45.7	17.1	0.00e+00	0	57	0	385875968	52	3963
2026-01-04 07:33:22.69	13.16	32.52	-44.7	-45.7	17.1	0.00e+00	0	57	0	389021696	52	3975
2026-01-04 07:33:23.68	12.82	32.44	-44.8	-45.8	17.0	0.00e+00	0	57	0	392167424	52	4018
2026-01-04 07:33:24.67	12.48	32.37	-44.9	-45.9	16.9	0.00e+00	0	57	0	395313152	52	4071
2026-01-04 07:33:25.66	12.14	32.29	-44.7	-45.6	17.2	0.00e+00	0	57	0	398458880	52	3955
2026-01-04 07:33:26.65	11.81	32.21	-44.5	-45.4	17.4	0.00e+00	0	57	0	401604608	52	3850
2026-01-04 07:33:27.63	11.47	32.14	-44.6	-45.5	17.3	0.00e+00	0	57	0	404750336	52	3905
2026-01-04 07:33:28.62	11.14	32.06	-44.5	-45.5	17.3	0.00e+00	0	57	0	407896064	52	3878
2026-01-04 07:33:29.60	10.82	31.98	-44.6	-45.5	17.3	0.00e+00	0	57	0	411041792	52	3906
2026-01-04 07:33:30.60	10.48	31.90	-45.0	-46.0	16.8	0.00e+00	0	57	0	414187520	52	4139
2026-01-04 07:33:31.59	10.16	31.82	-45.3	-46.3	16.5	0.00e+00	0	57	0	417333248	52	4291
2026-01-04 07:33:32.58	9.83	31.74	-45.2	-46.3	16.5	0.00e+00	0	57	0	420478976	52	4287
2026-01-04 07:33:33.56	9.51	31.66	-45.3	-46.4	16.5	0.00e+00	0	57	0	423624704	52	4298
2026-01-04 07:33:34.56	9.19	31.57	-45.2	-46.3	16.6	0.00e+00	0	57	0	426770432	52	4256
2026-01-04 07:33:35.55	8.87	31.49	-44.8	-45.8	17.0	0.00e+00	0	57	0	428867584	52	4033
2026-01-04 07:33:36.53	8.55	31.40	-44.6	-45.6	17.3	0.00e+00	0	57	0	432013312	52	3914
2026-01-04 07:33:37.51	8.24	31.32	-44.5	-45.5	17.4	0.00e+00	0	57	0	435159040	52	3872
2026-01-04 07:33:38.50	7.92	31.23	-44.6	-45.6	17.3	0.00e+00	0	57	0	438304768	52	3922
2026-01-04 07:33:39.48	7.61	31.14	-45.0	-46.0	16.8	0.00e+00	0	57	0	441450496	52	4136
2026-01-04 07:33:40.47	7.30	31.06	-45.3	-46.4	16.5	0.00e+00	0	57	0	444596224	52	4306
2026-01-04 07:33:41.45	6.99	30.97	-45.3	-46.4	16.4	0.00e+00	0	57	0	447741952	52	4339
2026-01-04 07:33:42.45	6.68	30.88	-45.1	-46.2	16.6	0.00e+00	0	57	0	450887680	52	4212
2026-01-04 07:33:43.44	6.37	30.79	-44.6	-45.5	17.3	0.00e+00	0	57	0	454033408	52	3906
2026-01-04 07:33:44.43	6.07	30.70	-44.2	-45.1	17.8	0.00e+00	0	57	0	457179136	51	3951
2026-01-04 07:33:45.43	5.76	30.61	-44.1	-45.0	17.9	0.00e+00	0	57	0	460324864	51	3891
2026-01-04 07:33:46.41	5.46	30.52	-44.2	-45.0	17.9	0.00e+00	0	57	0	463470592	51	3888
2026-01-04 07:33:47.41	5.16	30.42	-44.3	-45.1	17.7	0.00e+00	0	57	0	466616320	51	3944
2026-01-04 07:33:48.39	4.86	30.33	-44.7	-45.6	17.3	0.00e+00	0	57	0	469762048	51	4187
2026-01-04 07:33:49.39	4.56	30.24	-45.0	-46.0	16.8	0.00e+00	0	57	0	472907776	51	4389
2026-01-04 07:33:50.38	4.27	30.14	-45.2	-46.3	16.6	0.00e+00	0	57	0	476053504	52	4259
2026-01-04 07:33:51.37	3.98	30.05	-45.1	-46.2	16.6	0.00e+00	0	57	0	479199232	52	4212
2026-01-04 07:33:52.36	3.69	29.95	-44.9	-45.9	17.0	0.00e+00	0	57	0	482344960	52	4053
2026-01-04 07:33:53.35	3.40	29.86	-44.8	-45.7	17.1	0.00e+00	0	57	0	484442112	52	3997
2026-01-04 07:33:54.34	3.11	29.76	-44.7	-45.7	17.1	0.00e+00	0	57	0	487587840	52	3985
2026-01-04 07:33:55.33	2.82	29.66	-45.0	-46.0	16.8	0.00e+00	0	57	0	490733568	52	4124
2026-01-04 07:33:56.31	2.54	29.57	-45.0	-46.0	16.8	0.00e+00	0	57	0	493879296	52	4135
2026-01-04 07:33:57.31	2.26	29.47	-45.3	-46.4	16.5	0.00e+00	0	57	0	497025024	52	4296
2026-01-04 07:33:58.29	1.98	29.37	-45.4	-46.5	16.3	0.00e+00	0	57	0	500170752	52	4366
2026-01-04 07:33:59.28	1.70	29.27	-45.5	-46.6	16.2	0.00e+00	0	57	0	503316480	52	4428
2026-01-04 07:34:00.28	1.42	29.17	-45.5	-46.7	16.2	0.00e+00	0	57	0	506462208	52	4443
2026-01-04 07:34:01.27	1.14	29.07	-45.5	-46.7	16.2	0.00e+00	0	57	0	509607936	52	4449
2026-01-04 07:34:02.26	0.87	28.97	-45.8	-47.0	15.9	0.00e+00	0	58	0	512753664	53	4341
2026-01-04 07:34:03.25	0.60	28.87	-45.3	-46.4	16.4	0.00e+00	0	57	0	515899392	53	4082
2026-01-04 07:34:04.24	0.33	28.77	-45.0	-46.1	16.7	0.00e+00	0	57	0	519045120	53	3921
2026-01-04 07:34:05.23	0.06	28.67	-44.8	-45.8	17.0	0.00e+00	0	57	0	522190848	52	4017
2026-01-04 07:34:06.22	359.79	28.57	-44.5	-45.5	17.2	0.00e+00	0	57	0	525336576	52	3906
2026-01-04 07:34:07.21	359.53	28.47	-44.5	-45.5	17.3	0.00e+00	0	57	0	528482304	52	3893
2026-01-04 07:34:08.20	359.26	28.37	-44.6	-45.5	17.2	0.00e+00	0	57	0	531628032	52	3896
2026-01-04 07:34:09.19	359.00	28.27	-44.7	-45.6	17.2	0.00e+00	0	57	0	534773760	52	3953
2026-01-04 07:34:10.17	358.74	28.17	-44.6	-45.6	17.2	0.00e+00	0	57	0	537919488	52	3949
2026-01-04 07:34:11.17	358.48	28.06	-44.6	-45.6	17.2	0.00e+00	0	57	0	541065216	52	3938
2026-01-04 07:34:12.15	358.23	27.96	-44.3	-45.2	17.7	0.00e+00	0	57	0	543162368	51	3983
2026-01-04 07:34:13.15	357.97	27.86	-44.0	-44.9	17.9	0.00e+00	0	57	0	546308096	51	3838
2026-01-04 07:34:14.14	357.71	27.75	-44.1	-44.9	17.9	0.00e+00	0	57	0	549453824	51	3864
2026-01-04 07:34:15.12	357.47	27.65	-44.3	-45.2	17.7	0.00e+00	0	57	0	552599552	51	3969
2026-01-04 07:34:16.11	357.22	27.55	-44.4	-45.3	17.5	0.00e+00	0	57	0	555745280	51	4048
2026-01-04 07:34:17.10	356.97	27.44	-44.6	-45.6	17.3	0.00e+00	0	57	0	558891008	51	4161
2026-01-04 07:34:18.09	356.72	27.34	-44.6	-45.5	17.4	0.00e+00	0	57	0	562036736	51	4128
2026-01-04 07:34:19.08	356.47	27.23	-44.4	-45.4	17.5	0.00e+00	0	57	0	565182464	51	4065
2026-01-04 07:34:20.07	356.23	27.13	-44.4	-45.4	17.5	0.00e+00	0	57	0	568328192	51	4068
2026-01-04 07:34:21.06	355.99	27.02	-44.6	-45.6	17.3	0.00e+00	0	57	0	571473920	51	4149
2026-01-04 07:34:22.06	355.74	26.92	-44.7	-45.6	17.2	0.00e+00	0	57	0	574619648	51	4175
2026-01-04 07:34:23.04	355.51	26.81	-44.8	-45.8	17.1	0.00e+00	0	57	0	577765376	51	4258
2026-01-04 07:34:24.03	355.27	26.71	-44.7	-45.6	17.2	0.00e+00	0	57	0	580911104	51	4192
2026-01-04 07:34:25.02	355.04	26.60	-44.9	-45.9	17.0	0.00e+00	0	57	0	584056832	51	4311
2026-01-04 07:34:26.01	354.80	26.50	-44.9	-45.8	17.0	0.00e+00	0	57	0	587202560	51	4290
2026-01-04 07:34:27.00	354.57	26.39	-44.8	-45.8	17.0	0.00e+00	0	57	0	590348288	51	4280
2026-01-04 07:34:27.99	354.34	26.29	-44.9	-46.0	16.9	0.00e+00	0	57	0	593494016	51	4345
2026-01-04 07:34:28.98	354.11	26.18	-44.7	-45.7	17.2	0.00e+00	0	57	0	596639744	51	4197
2026-01-04 07:34:29.95	353.88	26.08	-44.5	-45.4	17.4	0.00e+00	0	57	0	599785472	51	4084
2026-01-04 07:34:30.94	353.66	25.97	-44.3	-45.2	17.6	0.00e+00	0	57	0	601882624	51	4003
2026-01-04 07:34:31.93	353.43	25.86	-44.3	-45.2	17.6	0.00e+00	0	57	0	605028352	51	3964
2026-01-04 07:34:32.92	353.21	25.76	-44.3	-45.2	17.6	0.00e+00	0	57	0	608174080	51	3975
2026-01-04 07:34:33.92	352.99	25.65	-44.4	-45.3	17.5	0.00e+00	0	57	0	611319808	51	4018
2026-01-04 07:34:34.91	352.76	25.54	-44.6	-45.5	17.3	0.00e+00	0	57	0	614465536	51	4125
2026-01-04 07:34:35.90	352.55	25.44	-44.4	-45.4	17.5	0.00e+00	0	57	0	617611264	51	4052
2026-01-04 07:34:36.88	352.33	25.33	-44.3	-45.2	17.6	0.00e+00	0	57	0	620756992	51	3980
2026-01-04 07:34:37.87	352.11	25.23	-44.3	-45.2	17.6	0.00e+00	0	57	0	623902720	51	3969
2026-01-04 07:34:38.86	351.90	25.12	-44.4	-45.3	17.5	0.00e+00	0	57	0	627048448	51	4015
2026-01-04 07:34:39.85	351.69	25.01	-44.6	-45.5	17.3	0.00e+00	0	57	0	630194176	51	4117
2026-01-04 07:34:40.85	351.47	24.91	-44.5	-45.4	17.4	0.00e+00	0	57	0	633339904	51	4075
2026-01-04 07:34:41.84	351.26	24.80	-44.7	-45.7	17.1	0.00e+00	0	57	0	636485632	51	4228
2026-01-04 07:34:42.83	351.05	24.69	-44.6	-45.5	17.2	0.00e+00	0	57	0	639631360	51	4138
2026-01-04 07:34:43.81	350.85	24.59	-44.3	-45.1	17.6	0.00e+00	0	57	0	642777088	51	3958
2026-01-04 07:34:44.81	350.64	24.48	-44.0	-44.9	17.9	0.00e+00	0	57	0	645922816	51	3843
2026-01-04 07:34:45.80	350.44	24.37	-43.9	-44.7	18.0	0.00e+00	0	57	0	649068544	50	3982
2026-01-04 07:34:46.80	350.23	24.27	-43.8	-44.6	18.1	0.00e+00	0	57	0	652214272	50	3951
2026-01-04 07:34:47.79	350.03	24.16	-43.8	-44.6	18.1	0.00e+00	0	57	0	655360000	50	3936
2026-01-04 07:34:48.77	349.83	24.06	-43.6	-44.4	18.3	0.00e+00	0	57	0	658505728	50	3845
2026-01-04 07:34:49.76	349.63	23.95	-43.3	-44.1	18.6	0.00e+00	0	57	0	661651456	49	3921
2026-01-04 07:34:50.75	349.44	23.84	-43.2	-44.0	18.7	0.00e+00	0	57	0	664797184	49	3873
2026-01-04 07:34:51.74	349.24	23.74	-43.3	-44.0	18.6	0.00e+00	0	57	0	666894336	49	3900
2026-01-04 07:34:52.73	349.05	23.63	-43.4	-44.2	18.5	0.00e+00	0	57	0	670040064	49	3974
2026-01-04 07:34:53.71	348.85	23.53	-43.5	-44.3	18.3	0.00e+00	0	57	0	673185792	49	4046
2026-01-04 07:34:54.71	348.66	23.42	-43.7	-44.6	18.1	0.00e+00	0	57	0	676331520	49	4150
2026-01-04 07:34:55.70	348.47	23.31	-44.0	-44.8	17.9	0.00e+00	0	57	0	679477248	49	4290
2026-01-04 07:34:56.68	348.28	23.21	-44.1	-45.0	17.7	0.00e+00	0	57	0	682622976	50	4107
2026-01-04 07:34:57.68	348.09	23.10	-44.1	-45.0	17.7	0.00e+00	0	57	0	685768704	50	4115
2026-01-04 07:34:58.66	347.91	23.00	-44.2	-45.1	17.6	0.00e+00	0	57	0	688914432	50	4155
2026-01-04 07:34:59.65	347.72	22.89	-44.4	-45.3	17.4	0.00e+00	0	57	0	692060160	50	4250
2026-01-04 07:35:00.65	347.53	22.79	-44.3	-45.2	17.4	0.00e+00	0	57	0	695205888	50	4241
2026-01-04 07:35:01.64	347.35	22.68	-44.4	-45.3	17.4	0.00e+00	0	57	0	698351616	50	4254
2026-01-04 07:35:02.63	347.17	22.58	-44.5	-45.4	17.3	0.00e+00	0	57	0	701497344	50	4318
2026-01-04 07:35:03.61	346.99	22.47	-44.4	-45.3	17.4	0.00e+00	0	57	0	704643072	50	4259
2026-01-04 07:35:04.60	346.81	22.37	-44.3	-45.2	17.5	0.00e+00	0	57	0	707788800	50	4239
2026-01-04 07:35:05.59	346.63	22.26	-44.4	-45.3	17.4	0.00e+00	0	57	0	710934528	50	4272
2026-01-04 07:35:06.58	346.46	22.16	-44.6	-45.5	17.2	0.00e+00	0	57	0	714080256	50	4371
2026-01-04 07:35:07.56	346.28	22.06	-44.6	-45.6	17.2	0.00e+00	0	57	0	717225984	51	4149
2026-01-04 07:35:08.55	346.11	21.95	-44.8	-45.7	17.0	0.00e+00	0	57	0	720371712	51	4237
2026-01-04 07:35:09.53	345.93	21.85	-44.7	-45.7	17.0	0.00e+00	0	57	0	723517440	51	4207
2026-01-04 07:35:10.52	345.76	21.74	-44.3	-45.3	17.4	0.00e+00	0	57	0	726663168	51	4016
2026-01-04 07:35:11.51	345.59	21.64	-44.1	-45.0	17.7	0.00e+00	0	57	0	728760320	51	3880
2026-01-04 07:35:12.50	345.42	21.54	-43.9	-44.7	17.9	0.00e+00	0	57	0	731906048	50	3985
2026-01-04 07:35:13.50	345.25	21.43	-43.7	-44.5	18.1	0.00e+00	0	57	0	735051776	50	3899
2026-01-04 07:35:14.49	345.08	21.33	-43.8	-44.6	18.0	0.00e+00	0	57	0	738197504	50	3941
2026-01-04 07:35:15.48	344.92	21.23	-43.8	-44.7	18.0	0.00e+00	0	57	0	741343232	50	3960
2026-01-04 07:35:16.48	344.75	21.12	-44.0	-44.9	17.8	0.00e+00	0	57	0	744488960	50	4059
2026-01-04 07:35:17.47	344.59	21.02	-44.1	-45.0	17.6	0.00e+00	0	57	0	747634688	50	4127
2026-01-04 07:35:18.46	344.42	20.92	-44.3	-45.3	17.3	0.00e+00	0	57	0	750780416	50	4255
2026-01-04 07:35:19.45	344.26	20.81	-44.5	-45.5	17.1	0.00e+00	0	57	0	753926144	50	4362
2026-01-04 07:35:20.44	344.10	20.71	-44.5	-45.5	17.1	0.00e+00	0	57	0	757071872	50	4364
2026-01-04 07:35:21.43	343.94	20.61	-44.5	-45.4	17.2	0.00e+00	0	57	0	760217600	50	4324
2026-01-04 07:35:22.42	343.78	20.51	-44.7	-45.7	16.9	0.00e+00	0	57	0	763363328	51	4230
2026-01-04 07:35:23.40	343.63	20.41	-44.9	-45.9	16.7	0.00e+00	0	57	0	766509056	51	4312
2026-01-04 07:35:24.40	343.47	20.30	-44.6	-45.6	16.9	0.00e+00	0	57	0	769654784	51	4183
2026-01-04 07:35:25.39	343.31	20.20	-44.3	-45.2	17.3	0.00e+00	0	57	0	772800512	51	3992
2026-01-04 07:35:26.38	343.16	20.10	-44.0	-45.0	17.5	0.00e+00	0	57	0	775946240	51	3877
2026-01-04 07:35:27.36	343.01	20.00	-44.2	-45.1	17.3	0.00e+00	0	57	0	779091968	51	3941
2026-01-04 07:35:28.35	342.85	19.90	-44.4	-45.4	16.9	0.00e+00	0	57	0	782237696	51	4092
2026-01-04 07:35:29.34	342.70	19.80	-44.8	-45.9	16.3	0.00e+00	0	57	0	785383424	51	4304
2026-01-04 07:35:30.33	342.55	19.70	-44.6	-45.7	16.4	0.00e+00	0	57	0	788529152	51	4227
2026-01-04 07:35:31.31	342.40	19.60	-44.5	-45.6	16.3	0.00e+00	0	57	0	791674880	51	4185
2026-01-04 07:35:32.30	342.25	19.50	-44.7	-45.9	15.9	0.00e+00	0	57	0	793772032	51	4335
2026-01-04 07:35:33.28	342.11	19.40	-45.3	-46.7	15.0	0.00e+00	0	57	0	796917760	52	4466
2026-01-04 07:35:34.27	341.96	19.30	-46.2	-48.0	13.6	1.50e-06	0	57	0	800063488	54	4615
2026-01-04 07:35:35.26	341.82	19.20	-47.4	-49.6	11.9	2.13e-04	0	57	0	803209216	56	4968
2026-01-04 07:35:36.25	341.67	19.10	-48.1	-51.0	10.4	2.37e-03	0	57	0	806354944	58	5206
2026-01-04 07:35:37.24	341.53	19.00	-48.4	-51.5	9.8	8.67e-03	0	57	0	809500672	58	5490
2026-01-04 07:35:38.23	341.39	18.90	-48.2	-51.0	10.3	6.33e-03	0	57	0	812646400	58	5195
2026-01-04 07:35:39.22	341.24	18.80	-47.8	-50.3	11.1	2.00e-03	0	57	0	815792128	58	4793
2026-01-04 07:35:40.21	341.10	18.71	-47.8	-50.3	11.1	1.56e-03	0	57	0	818937856	58	4795
2026-01-04 07:35:41.20	340.96	18.61	-48.0	-50.7	10.8	2.09e-03	0	57	0	822083584	58	4985
2026-01-04 07:35:42.19	340.82	18.51	-47.9	-50.5	11.1	2.28e-03	0	57	0	825229312	58	4899
2026-01-04 07:35:43.17	340.69	18.41	-47.6	-49.8	11.9	6.20e-04	0	57	0	828375040	58	4510
2026-01-04 07:35:44.16	340.55	18.32	-46.7	-48.4	13.5	2.21e-05	0	57	0	831520768	56	4319
2026-01-04 07:35:45.15	340.41	18.22	-45.7	-47.1	14.7	0.00e+00	0	57	0	834666496	54	4183
2026-01-04 07:35:46.13	340.28	18.12	-45.1	-46.4	15.6	0.00e+00	0	57	0	837812224	53	4054
2026-01-04 07:35:47.12	340.15	18.02	-44.7	-45.9	16.1	0.00e+00	0	57	0	840957952	52	4061
2026-01-04 07:35:48.11	340.01	17.93	-44.5	-45.6	16.4	0.00e+00	0	57	0	844103680	52	3946
2026-01-04 07:35:49.10	339.88	17.83	-44.6	-45.6	16.4	0.00e+00	0	57	0	847249408	52	3955
2026-01-04 07:35:50.09	339.75	17.74	-44.3	-45.3	16.8	0.00e+00	0	57	0	849346560	51	4041
2026-01-04 07:35:51.08	339.62	17.64	-44.6	-45.7	16.6	0.00e+00	0	57	0	852492288	51	4202
2026-01-04 07:35:52.07	339.49	17.54	-45.1	-46.2	16.1	0.00e+00	0	57	0	855638016	51	4482
2026-01-04 07:35:53.07	339.36	17.45	-45.3	-46.4	15.9	0.00e+00	0	57	0	858783744	52	4331
2026-01-04 07:35:54.06	339.23	17.35	-45.4	-46.6	15.7	0.00e+00	0	57	0	861929472	52	4437
2026-01-04 07:35:55.05	339.10	17.26	-45.4	-46.6	15.7	0.00e+00	0	57	0	865075200	52	4428
2026-01-04 07:35:56.04	338.97	17.16	-45.3	-46.5	15.8	0.00e+00	0	57	0	868220928	52	4378
2026-01-04 07:35:57.03	338.85	17.07	-45.4	-46.7	15.7	0.00e+00	0	57	0	871366656	52	4453
2026-01-04 07:35:58.02	338.72	16.97	-45.8	-47.1	15.3	0.00e+00	0	57	0	874512384	53	4441
2026-01-04 07:35:59.01	338.60	16.88	-45.6	-46.8	15.6	0.00e+00	0	57	0	877658112	53	4277
2026-01-04 07:35:59.99	338.48	16.78	-45.3	-46.5	15.9	0.00e+00	0	57	0	880803840	53	4122
2026-01-04 07:36:00.98	338.35	16.69	-45.0	-46.1	16.3	0.00e+00	0	57	0	883949568	53	3942
2026-01-04 07:36:01.97	338.23	16.60	-44.8	-45.8	16.6	0.00e+00	0	57	0	887095296	52	4039
2026-01-04 07:36:02.96	338.11	16.50	-44.8	-45.8	16.6	0.00e+00	0	57	0	890241024	52	4032
2026-01-04 07:36:03.95	337.99	16.41	-44.7	-45.8	16.7	0.00e+00	0	57	0	893386752	52	4019
2026-01-04 07:36:04.94	337.87	16.32	-45.0	-46.1	16.3	0.00e+00	0	57	0	896532480	52	4176
2026-01-04 07:36:05.92	337.75	16.22	-44.8	-45.9	16.5	0.00e+00	0	57	0	899678208	52	4060
2026-01-04 07:36:06.91	337.63	16.13	-44.7	-45.8	16.6	0.00e+00	0	57	0	902823936	52	4026
2026-01-04 07:36:07.90	337.52	16.04	-44.8	-45.8	16.6	0.00e+00	0	57	0	905969664	52	4045
2026-01-04 07:36:08.89	337.40	15.95	-44.8	-45.9	16.6	0.00e+00	0	57	0	908066816	52	4053
2026-01-04 07:36:09.87	337.29	15.86	-45.0	-46.1	16.4	0.00e+00	0	57	0	911212544	52	4174
2026-01-04 07:36:10.86	337.17	15.76	-45.1	-46.3	16.2	0.00e+00	0	57	0	914358272	52	4258
2026-01-04 07:36:11.85	337.06	15.67	-45.1	-46.2	16.2	0.00e+00	0	57	0	917504000	52	4231
2026-01-04 07:36:12.85	336.94	15.58	-45.3	-46.4	16.1	7.00e-07	0	57	0	920649728	52	4329
2026-01-04 07:36:13.84	336.83	15.49	-45.3	-46.4	16.0	0.00e+00	0	57	0	923795456	52	4337
2026-01-04 07:36:14.83	336.72	15.40	-45.3	-46.5	16.0	0.00e+00	0	57	0	926941184	52	4351
2026-01-04 07:36:15.81	336.61	15.31	-45.4	-46.6	15.9	0.00e+00	0	57	0	930086912	52	4415
2026-01-04 07:36:16.80	336.49	15.22	-45.6	-46.8	15.7	0.00e+00	0	57	0	933232640	53	4281
2026-01-04 07:36:17.78	336.39	15.13	-45.5	-46.7	15.8	0.00e+00	0	57	0	936378368	53	4217
2026-01-04 07:36:18.77	336.28	15.04	-45.5	-46.7	15.8	0.00e+00	0	57	0	939524096	53	4228
2026-01-04 07:36:19.77	336.17	14.95	-45.8	-47.1	15.4	0.00e+00	0	57	0	942669824	53	4399
2026-01-04 07:36:20.76	336.06	14.86	-45.6	-46.8	15.6	0.00e+00	0	57	0	945815552	53	4289
2026-01-04 07:36:21.75	335.95	14.77	-45.4	-46.6	15.9	0.00e+00	0	57	0	948961280	53	4149
2026-01-04 07:36:22.74	335.84	14.68	-45.2	-46.3	16.1	0.00e+00	0	57	0	952107008	53	4051
2026-01-04 07:36:23.72	335.74	14.59	-45.1	-46.2	16.3	0.00e+00	0	57	0	955252736	53	3986
2026-01-04 07:36:24.72	335.63	14.50	-45.0	-46.1	16.3	0.00e+00	0	57	0	958398464	53	3946
2026-01-04 07:36:25.71	335.53	14.42	-45.2	-46.4	16.1	0.00e+00	0	57	0	961544192	53	4058
2026-01-04 07:36:26.70	335.42	14.33	-45.1	-46.3	16.2	0.00e+00	0	57	0	963641344	53	4015
2026-01-04 07:36:27.68	335.32	14.24	-45.0	-46.0	16.4	0.00e+00	0	57	0	966787072	53	3909
2026-01-04 07:36:28.66	335.22	14.15	-44.9	-45.9	16.6	0.00e+00	0	57	0	969932800	52	4077
2026-01-04 07:36:29.65	335.11	14.07	-44.9	-45.9	16.6	0.00e+00	0	57	0	973078528	52	4089
2026-01-04 07:36:30.63	335.01	13.98	-44.9	-46.0	16.5	0.00e+00	0	57	0	976224256	52	4114
2026-01-04 07:36:31.61	334.91	13.89	-45.0	-46.1	16.3	0.00e+00	0	57	0	979369984	52	4188
2026-01-04 07:36:32.60	334.81	13.81	-45.1	-46.2	16.3	0.00e+00	0	57	0	982515712	52	4200
2026-01-04 07:36:33.59	334.71	13.72	-45.1	-46.2	16.3	0.00e+00	0	57	0	985661440	52	4232
2026-01-04 07:36:34.58	334.61	13.63	-45.4	-46.6	15.9	0.00e+00	0	57	0	988807168	52	4396
2026-01-04 07:36:35.56	334.52	13.55	-45.5	-46.6	15.9	0.00e+00	0	57	0	991952896	52	4430
2026-01-04 07:36:36.55	334.42	13.46	-45.3	-46.5	16.0	0.00e+00	0	57	0	995098624	52	4359
2026-01-04 07:36:37.54	334.32	13.38	-45.3	-46.4	16.1	0.00e+00	0	57	0	998244352	52	4326
2026-01-04 07:36:38.53	334.22	13.29	-45.3	-46.5	16.0	0.00e+00	0	57	0	1001390080	52	4345
2026-01-04 07:36:39.53	334.13	13.21	-45.4	-46.6	15.9	0.00e+00	0	57	0	1004535808	52	4432
2026-01-04 07:36:40.51	334.03	13.12	-45.4	-46.6	15.8	0.00e+00	0	57	0	1007681536	52	4438
2026-01-04 07:36:41.51	333.93	13.04	-45.3	-46.5	16.0	0.00e+00	0	57	0	1010827264	52	4365
2026-01-04 07:36:42.49	333.84	12.95	-45.4	-46.6	15.9	0.00e+00	0	57	0	1013972992	52	4395
2026-01-04 07:36:43.48	333.75	12.87	-45.4	-46.6	15.9	0.00e+00	0	57	0	1017118720	52	4396
2026-01-04 07:36:44.49	333.65	12.78	-45.6	-46.8	15.6	0.00e+00	0	57	0	1020264448	53	4281
2026-01-04 07:36:45.47	333.56	12.70	-45.7	-46.9	15.5	0.00e+00	0	57	0	1022361600	53	4339
2026-01-04 07:36:46.46	333.47	12.61	-45.6	-46.8	15.6	0.00e+00	0	57	0	1025507328	53	4274
2026-01-04 07:36:47.45	333.37	12.53	-45.6	-46.9	15.6	0.00e+00	0	57	0	1028653056	53	4295
2026-01-04 07:36:48.43	333.28	12.45	-45.6	-46.8	15.6	0.00e+00	0	57	0	1031798784	53	4285
2026-01-04 07:36:49.42	333.19	12.36	-45.5	-46.7	15.8	0.00e+00	0	57	0	1034944512	53	4202
2026-01-04 07:36:50.41	333.10	12.28	-45.5	-46.6	15.8	0.00e+00	0	57	0	1038090240	53	4188
2026-01-04 07:36:51.40	333.01	12.20	-45.5	-46.6	15.8	0.00e+00	0	57	0	1041235968	53	4189
2026-01-04 07:36:52.40	332.92	12.12	-45.5	-46.7	15.7	0.00e+00	0	57	0	1044381696	53	4234
2026-01-04 07:36:53.39	332.83	12.03	-45.6	-46.9	15.6	0.00e+00	0	57	0	1047527424	53	4296
2026-01-04 07:36:54.38	332.75	11.95	-45.3	-46.5	15.9	0.00e+00	0	57	0	1050673152	53	4122
2026-01-04 07:36:55.36	332.66	11.87	-45.1	-46.2	16.2	0.00e+00	0	57	0	1053818880	53	3992
2026-01-04 07:36:56.35	332.57	11.79	-45.0	-46.1	16.3	0.00e+00	0	57	0	1056964608	53	3930
2026-01-04 07:36:57.34	332.49	11.71	-45.0	-46.1	16.3	0.00e+00	0	57	0	1060110336	53	3936
2026-01-04 07:36:58.32	332.40	11.63	-45.1	-46.2	16.2	0.00e+00	0	57	0	1063256064	53	3996
2026-01-04 07:36:59.31	332.31	11.55	-45.1	-46.3	16.1	0.00e+00	0	57	0	1066401792	53	4013
2026-01-04 07:37:00.29	332.23	11.47	-45.2	-46.3	16.0	0.00e+00	0	57	0	1069547520	53	4047
2026-01-04 07:37:01.28	332.14	11.38	-45.3	-46.5	15.9	0.00e+00	0	57	0	1072693248	53	4110
2026-01-04 07:37:02.27	332.06	11.30	-45.3	-46.5	15.9	0.00e+00	0	57	0	1075838976	53	4116
2026-01-04 07:37:03.26	331.98	11.22	-45.4	-46.6	15.8	0.00e+00	0	57	0	1078984704	53	4172
2026-01-04 07:37:04.26	331.89	11.14	-45.4	-46.6	15.8	0.00e+00	0	57	0	1082130432	53	4182
2026-01-04 07:37:05.25	331.81	11.06	-45.5	-46.7	15.7	0.00e+00	0	57	0	1084227584	53	4228
2026-01-04 07:37:06.24	331.73	10.98	-45.4	-46.7	15.7	0.00e+00	0	57	0	1087373312	53	4199
2026-01-04 07:37:07.23	331.65	10.90	-45.6	-46.9	15.5	0.00e+00	0	57	0	1090519040	53	4312
2026-01-04 07:37:08.22	331.56	10.82	-45.9	-47.2	15.2	0.00e+00	0	57	0	1093664768	53	4460
2026-01-04 07:37:09.21	331.48	10.75	-45.7	-47.0	15.4	0.00e+00	0	57	0	1096810496	53	4365
2026-01-04 07:37:10.20	331.40	10.67	-46.0	-47.3	15.1	0.00e+00	0	57	0	1099956224	53	4528
2026-01-04 07:37:11.19	331.32	10.59	-46.0	-47.4	15.0	7.00e-07	0	57	0	1103101952	53	4578
2026-01-04 07:37:12.18	331.24	10.51	-46.0	-47.4	15.0	0.00e+00	0	57	0	1106247680	53	4571
2026-01-04 07:37:13.17	331.16	10.43	-46.1	-47.4	15.0	0.00e+00	0	57	0	1109393408	53	4591
2026-01-04 07:37:14.16	331.08	10.35	-46.1	-47.6	14.9	0.00e+00	0	57	0	1112539136	54	4394
2026-01-04 07:37:15.15	331.01	10.27	-46.1	-47.5	14.9	0.00e+00	0	57	0	1115684864	54	4356
2026-01-04 07:37:16.13	330.93	10.20	-46.2	-47.6	14.8	0.00e+00	0	57	0	1118830592	54	4404
2026-01-04 07:37:17.12	330.85	10.12	-46.3	-47.7	14.6	0.00e+00	0	57	0	1121976320	54	4476
2026-01-04 07:37:18.11	330.77	10.04	-46.2	-47.6	14.7	0.00e+00	0	57	0	1125122048	54	4428
2026-01-04 07:37:19.11	330.70	9.96	-46.1	-47.4	14.9	0.00e+00	0	57	0	1128267776	54	4340
2026-01-04 07:37:20.10	330.62	9.89	-46.2	-47.6	14.8	0.00e+00	0	57	0	1131413504	54	4418
2026-01-04 07:37:21.09	330.55	9.81	-46.3	-47.7	14.6	7.00e-07	0	57	0	1134559232	54	4474
2026-01-04 07:37:22.09	330.47	9.73	-46.1	-47.5	14.8	0.00e+00	0	57	0	1137704960	54	4372
2026-01-04 07:37:23.08	330.39	9.66	-46.0	-47.4	14.9	7.00e-07	0	57	0	1140850688	54	4323
2026-01-04 07:37:24.07	330.32	9.58	-46.1	-47.4	14.9	0.00e+00	0	57	0	1143996416	54	4333
2026-01-04 07:37:25.07	330.24	9.50	-46.1	-47.4	14.9	0.00e+00	0	57	0	1146093568	54	4337
2026-01-04 07:37:26.05	330.17	9.43	-46.3	-47.8	14.5	7.00e-07	0	57	0	1149239296	54	4512
2026-01-04 07:37:27.04	330.10	9.35	-46.1	-47.5	14.8	0.00e+00	0	57	0	1152385024	54	4381
2026-01-04 07:37:28.03	330.03	9.28	-45.9	-47.3	15.0	0.00e+00	0	57	0	1155530752	54	4262
2026-01-04 07:37:29.00	329.95	9.20	-46.2	-47.6	14.8	0.00e+00	0	57	0	1158676480	54	4401
2026-01-04 07:37:29.99	329.88	9.13	-46.4	-47.8	14.5	0.00e+00	0	57	0	1161822208	54	4542
2026-01-04 07:37:30.98	329.81	9.05	-46.2	-47.7	14.7	7.00e-07	0	57	0	1164967936	54	4442
2026-01-04 07:37:31.97	329.74	8.98	-46.3	-47.7	14.6	7.00e-07	0	57	0	1168113664	54	4493
2026-01-04 07:37:32.95	329.67	8.90	-46.5	-48.0	14.3	7.00e-07	0	57	0	1171259392	54	4637
2026-01-04 07:37:33.94	329.60	8.83	-46.4	-47.9	14.4	7.00e-07	0	57	0	1174405120	54	4570
2026-01-04 07:37:34.93	329.53	8.76	-46.5	-48.1	14.2	1.50e-06	0	57	0	1177550848	54	4680
2026-01-04 07:37:35.92	329.46	8.68	-46.8	-48.4	13.9	3.00e-06	0	57	0	1180696576	55	4565
2026-01-04 07:37:36.90	329.39	8.61	-46.5	-48.1	14.2	3.80e-06	0	57	0	1183842304	55	4423
2026-01-04 07:37:37.89	329.32	8.53	-46.4	-47.9	14.3	7.00e-07	0	57	0	1186988032	55	4340
2026-01-04 07:37:38.88	329.25	8.46	-46.6	-48.1	14.2	7.00e-07	0	57	0	1190133760	55	4424
2026-01-04 07:37:39.86	329.18	8.39	-46.8	-48.4	13.9	2.20e-06	0	57	0	1193279488	55	4575
2026-01-04 07:37:40.86	329.12	8.31	-46.6	-48.2	14.0	3.00e-06	0	57	0	1196425216	55	4468
2026-01-04 07:37:41.84	329.05	8.24	-46.5	-48.0	14.2	7.00e-07	0	57	0	1198522368	55	4390
2026-01-04 07:37:42.83	328.98	8.17	-46.3	-47.8	14.4	7.00e-07	0	57	0	1201668096	55	4283
2026-01-04 07:37:43.82	328.91	8.10	-46.3	-47.8	14.5	0.00e+00	0	57	0	1204813824	55	4248
2026-01-04 07:37:44.81	328.85	8.02	-46.3	-47.8	14.4	7.00e-07	0	57	0	1207959552	55	4276
2026-01-04 07:37:45.80	328.78	7.95	-46.2	-47.7	14.5	7.00e-07	0	57	0	1211105280	55	4209
2026-01-04 07:37:46.78	328.72	7.88	-46.1	-47.6	14.6	7.00e-07	0	57	0	1214251008	55	4161
2026-01-04 07:37:47.77	328.65	7.81	-46.1	-47.6	14.6	0.00e+00	0	57	0	1217396736	55	4180
2026-01-04 07:37:48.76	328.58	7.74	-46.1	-47.6	14.6	0.00e+00	0	57	0	1220542464	55	4173
2026-01-04 07:37:49.76	328.52	7.66	-46.2	-47.7	14.5	0.00e+00	0	57	0	1223688192	55	4241
2026-01-04 07:37:50.75	328.45	7.59	-46.3	-47.7	14.5	1.50e-06	0	57	0	1226833920	55	4233
2026-01-04 07:37:51.73	328.39	7.52	-46.3	-47.8	14.4	1.50e-06	0	57	0	1229979648	55	4260
2026-01-04 07:37:52.71	328.33	7.45	-46.5	-48.1	14.0	1.50e-06	0	57	0	1233125376	55	4425
2026-01-04 07:37:53.71	328.26	7.38	-46.5	-48.0	14.1	0.00e+00	0	57	0	1236271104	55	4384
2026-01-04 07:37:54.69	328.20	7.31	-46.4	-48.0	14.2	7.00e-07	0	57	0	1239416832	55	4347
2026-01-04 07:37:55.68	328.14	7.24	-46.4	-48.0	14.2	0.00e+00	0	57	0	1242562560	55	4354
2026-01-04 07:37:56.66	328.08	7.17	-46.6	-48.3	13.9	1.50e-06	0	57	0	1245708288	55	4496
2026-01-04 07:37:57.65	328.01	7.10	-46.8	-48.4	13.7	6.10e-06	0	57	0	1248854016	55	4587
2026-01-04 07:37:58.64	327.95	7.03	-46.7	-48.4	13.7	7.60e-06	0	57	0	1250951168	55	4582
2026-01-04 07:37:59.63	327.89	6.96	-46.8	-48.5	13.7	9.90e-06	0	57	0	1254096896	55	4618
2026-01-04 07:38:00.62	327.83	6.89	-46.8	-48.5	13.6	1.60e-05	0	57	0	1257242624	55	4648
2026-01-04 07:38:01.62	327.77	6.82	-46.9	-48.6	13.5	9.10e-06	0	57	0	1260388352	55	4669
2026-01-04 07:38:02.61	327.71	6.75	-47.0	-48.8	13.4	1.22e-05	0	57	0	1263534080	55	4770
2026-01-04 07:38:03.60	327.65	6.68	-46.9	-48.7	13.4	1.06e-05	0	57	0	1266679808	55	4740
2026-01-04 07:38:04.59	327.59	6.61	-47.1	-48.9	13.2	1.37e-05	0	57	0	1269825536	55	4836
2026-01-04 07:38:05.58	327.53	6.54	-47.2	-49.0	13.2	1.98e-05	0	57	0	1272971264	56	4642
2026-01-04 07:38:06.57	327.47	6.47	-47.2	-49.0	13.2	1.60e-05	0	57	0	1276116992	56	4636
2026-01-04 07:38:07.56	327.41	6.40	-47.3	-49.2	13.1	3.12e-05	0	57	0	1279262720	56	4706
2026-01-04 07:38:08.56	327.35	6.33	-47.3	-49.2	13.0	3.43e-05	0	57	0	1282408448	56	4721
2026-01-04 07:38:09.55	327.29	6.26	-47.3	-49.2	13.0	4.34e-05	0	57	0	1285554176	56	4734
2026-01-04 07:38:10.54	327.23	6.20	-47.3	-49.2	13.0	3.96e-05	0	57	0	1288699904	56	4724
2026-01-04 07:38:11.53	327.17	6.13	-47.3	-49.1	13.0	3.89e-05	0	57	0	1291845632	56	4703
2026-01-04 07:38:12.51	327.12	6.06	-47.2	-49.0	13.1	1.83e-05	0	57	0	1294991360	56	4648
2026-01-04 07:38:13.51	327.06	5.99	-47.2	-49.1	13.0	2.28e-05	0	57	0	1298137088	56	4698
2026-01-04 07:38:14.50	327.00	5.92	-47.3	-49.2	12.9	3.28e-05	0	57	0	1301282816	56	4748
2026-01-04 07:38:15.47	326.95	5.86	-47.4	-49.3	12.8	5.56e-05	0	57	0	1304428544	56	4807
2026-01-04 07:38:16.46	326.89	5.79	-47.3	-49.2	12.9	5.41e-05	0	57	0	1307574272	56	4739
2026-01-04 07:38:17.45	326.83	5.72	-47.4	-49.4	12.7	7.24e-05	0	57	0	1310720000	56	4839
2026-01-04 07:38:18.44	326.78	5.65	-47.1	-49.1	13.0	3.58e-05	0	57	0	1312817152	56	4667
2026-01-04 07:38:19.43	326.72	5.59	-47.1	-49.1	13.1	2.89e-05	0	57	0	1315962880	56	4663
2026-01-04 07:38:20.42	326.67	5.52	-47.1	-48.9	13.1	2.44e-05	0	57	0	1319108608	56	4590
2026-01-04 07:38:21.42	326.61	5.45	-47.2	-49.1	13.0	3.43e-05	0	57	0	1322254336	56	4679
2026-01-04 07:38:22.40	326.56	5.39	-47.3	-49.3	12.8	5.11e-05	0	57	0	1325400064	56	4783
2026-01-04 07:38:23.40	326.50	5.32	-47.4	-49.5	12.6	7.85e-05	0	57	0	1328545792	56	4872
2026-01-04 07:38:24.39	326.45	5.25	-47.2	-49.2	12.9	4.42e-05	0	57	0	1331691520	56	4727
2026-01-04 07:38:25.37	326.39	5.19	-47.3	-49.2	12.8	5.49e-05	0	57	0	1334837248	56	4754
2026-01-04 07:38:26.36	326.34	5.12	-47.3	-49.3	12.7	6.33e-05	0	57	0	1337982976	56	4804
2026-01-04 07:38:27.35	326.28	5.06	-47.4	-49.4	12.7	6.86e-05	0	57	0	1341128704	56	4830
2026-01-04 07:38:28.34	326.23	4.99	-51.5	-63.1	3.8	7.40e-01	0	57	104	1343225856	65	13973
2026-01-04 07:38:29.33	326.18	4.92	-51.6	-63.1	3.8	1.49e+00	0	57	104	1343225856	65	14039
2026-01-04 07:38:30.32	326.13	4.86	-48.7	-60.2	3.8	1.49e+00	0	57	104	1343225856	59	14066
2026-01-04 07:38:31.31	326.07	4.79	-48.3	-59.7	3.8	1.49e+00	0	57	104	1343225856	59	13335
2026-01-04 07:38:32.30	326.02	4.73	-49.3	-60.9	3.8	1.49e+00	0	57	104	1343225856	60	14429
2026-01-04 07:38:33.28	325.97	4.66	-51.4	-62.9	3.8	1.49e+00	0	57	104	1343225856	64	14491
2026-01-04 07:38:34.27	325.92	4.60	-52.4	-63.8	3.8	1.49e+00	0	57	104	1343225856	66	14322
2026-01-04 07:38:35.27	325.86	4.53	-52.4	-63.9	3.8	1.49e+00	0	57	104	1343225856	66	14517
2026-01-04 07:38:36.25	325.81	4.47	-52.5	-64.0	3.8	1.49e+00	0	57	104	1343225856	66	14548
2026-01-04 07:38:37.25	325.76	4.40	-52.6	-64.0	3.8	1.49e+00	0	57	104	1343225856	66	14624
2026-01-04 07:38:38.23	325.71	4.34	-52.4	-64.1	3.8	1.49e+00	0	57	104	1343225856	67	13900
2026-01-04 07:38:39.22	325.66	4.28	-52.6	-64.1	3.8	1.49e+00	0	57	104	1343225856	67	13969
2026-01-04 07:38:40.21	325.61	4.21	-52.5	-64.1	3.8	1.49e+00	0	57	104	1343225856	67	13979
2026-01-04 07:38:41.20	325.56	4.15	-52.6	-64.1	3.8	1.49e+00	0	57	104	1343225856	67	14004
2026-01-04 07:38:42.19	325.51	4.08	-52.6	-64.2	3.8	1.49e+00	0	57	104	1343225856	67	14052
2026-01-04 07:38:43.18	325.46	4.02	-52.7	-64.2	3.8	1.49e+00	0	57	104	1343225856	67	14082
2026-01-04 07:38:44.17	325.41	3.96	-52.6	-64.2	3.8	1.49e+00	0	57	104	1343225856	67	14056
2026-01-04 07:38:45.16	325.36	3.89	-52.8	-64.2	3.8	1.49e+00	0	57	104	1343225856	67	14111
2026-01-04 07:38:46.15	325.31	3.83	-52.8	-64.2	3.8	1.49e+00	0	57	104	1343225856	67	14132
2026-01-04 07:38:47.14	325.26	3.76	-52.8	-64.2	3.8	1.49e+00	0	57	104	1343225856	67	14187
2026-01-04 07:38:48.12	325.22	3.70	-52.7	-64.2	3.8	1.49e+00	0	57	104	1343225856	67	14116
2026-01-04 07:38:49.12	325.17	3.64	-52.7	-64.2	3.8	1.49e+00	0	57	104	1343225856	67	14194
2026-01-04 07:38:50.11	325.12	3.58	-52.8	-64.3	3.8	1.49e+00	0	57	104	1343225856	67	14235
2026-01-04 07:38:51.09	325.07	3.51	-52.8	-64.2	3.8	1.49e+00	0	57	104	1343225856	67	14164
2026-01-04 07:38:52.08	325.02	3.45	-52.8	-64.2	3.8	1.49e+00	0	57	104	1343225856	67	14194
2026-01-04 07:38:53.07	324.98	3.39	-52.8	-64.2	3.8	1.49e+00	0	57	104	1343225856	67	14183
2026-01-04 07:38:54.06	324.93	3.33	-52.8	-64.3	3.8	1.49e+00	0	57	104	1343225856	67	14224
2026-01-04 07:38:55.05	324.88	3.26	-52.8	-64.2	3.8	1.49e+00	0	57	104	1343225856	67	14199
2026-01-04 07:38:56.04	324.84	3.20	-52.7	-64.2	3.8	1.49e+00	0	57	104	1343225856	67	14187
2026-01-04 07:38:57.02	324.79	3.14	-52.8	-64.2	3.8	1.49e+00	0	57	104	1343225856	67	14179
2026-01-04 07:38:58.00	324.74	3.08	-52.7	-64.2	3.8	1.49e+00	0	57	104	1343225856	67	14164
2026-01-04 07:38:59.00	324.70	3.02	-52.8	-64.2	3.8	1.49e+00	0	57	104	1343225856	67	14204

#Closed at: 2026-01-04 07:38:59
#Recorded file [1343 MB]: D:/Data/31026_260104_103828.dat