passes_logs/2026/01/04/R3.0SM8_Murmansk_STILSPACE/R3.0SM8_Murmansk_STILSPACE__20260104_032904_AQUA_rec.log

#Pass ID: 20260104_032904_AQUA
#Satellite: AQUA
#Configuration: AQUA
#almurnet v.1.7.20240730
#Start time: 2026-01-04 03:31:25

#Version: 2.2.20231116
#Station: R3.0SM8_Murmansk_STILSPACE
#Location: 33.092731 lon 68.902999 lat
#TLE: 1 27424U 02022A   25365.92641127  .00002078  00000+0  42628-3 0  9999
#TLE: 2 27424  98.4058 327.1196 0001962  94.7781 340.6230 14.61783896258835

#Time	Az	El	Level	Level2	SNR	BER	BlckErr	Temp	State	Recorded	gain1	gain2
2026-01-04 03:31:25.66	19.39	14.86	-52.4	-66.3	3.8	1.49e+00	0	56	0	0	67	18065
2026-01-04 03:31:26.87	19.28	14.99	-54.4	-74.3	3.8	7.47e-01	0	57	104	0	70	38980
2026-01-04 03:31:27.71	19.20	15.08	-54.4	-74.3	3.8	7.47e-01	0	57	104	0	70	38968
2026-01-04 03:31:28.84	19.10	15.21	-54.4	-74.3	3.8	7.45e-01	0	57	104	0	71	36888
2026-01-04 03:31:29.69	19.02	15.30	-54.4	-74.4	3.8	7.46e-01	0	57	104	0	71	36972
2026-01-04 03:31:30.82	18.92	15.43	-54.4	-74.3	3.8	7.44e-01	0	57	104	0	71	36913
2026-01-04 03:31:31.66	18.84	15.52	-54.4	-74.4	3.8	7.48e-01	0	57	104	0	71	37024
2026-01-04 03:31:32.79	18.74	15.64	-54.4	-74.4	3.8	7.44e-01	0	57	104	0	71	36959
2026-01-04 03:31:33.63	18.66	15.74	-54.4	-74.3	3.8	7.47e-01	0	57	104	0	71	36853
2026-01-04 03:31:34.77	18.55	15.87	-54.4	-74.3	3.8	7.44e-01	0	57	104	0	71	36915
2026-01-04 03:31:35.61	18.47	15.96	-54.4	-74.3	3.8	7.45e-01	0	57	104	0	71	36871
2026-01-04 03:31:36.74	18.36	16.09	-54.4	-74.3	3.8	7.42e-01	0	57	104	0	71	36847
2026-01-04 03:31:37.59	18.28	16.18	-54.4	-74.3	3.8	7.46e-01	0	57	104	0	71	36773
2026-01-04 03:31:38.72	18.17	16.31	-54.4	-74.3	3.8	7.45e-01	0	57	104	0	71	36727
2026-01-04 03:31:39.56	18.09	16.41	-54.3	-74.3	3.8	7.45e-01	0	57	104	0	71	36709
2026-01-04 03:31:40.69	17.97	16.54	-54.3	-74.3	3.8	7.48e-01	0	57	104	0	71	36664
2026-01-04 03:31:41.54	17.89	16.64	-54.3	-74.3	3.8	7.47e-01	0	57	104	0	71	36537
2026-01-04 03:31:42.67	17.77	16.77	-54.3	-74.2	3.8	7.45e-01	0	57	104	0	71	36460
2026-01-04 03:31:43.52	17.69	16.87	-54.3	-74.2	3.8	7.45e-01	0	57	104	0	71	36384
2026-01-04 03:31:44.66	17.57	17.00	-54.3	-74.2	3.8	7.42e-01	0	57	104	0	71	36218
2026-01-04 03:31:45.51	17.48	17.10	-54.2	-74.2	3.8	7.45e-01	0	57	104	0	71	36211
2026-01-04 03:31:46.64	17.36	17.24	-54.2	-74.1	3.8	7.44e-01	0	57	104	0	71	35982
2026-01-04 03:31:47.49	17.27	17.34	-54.0	-73.9	3.8	7.44e-01	0	57	104	0	71	35211
2026-01-04 03:31:48.62	17.15	17.47	-52.6	-72.4	3.8	7.43e-01	0	57	104	0	68	34912
2026-01-04 03:31:49.47	17.06	17.57	-53.8	-73.6	3.8	7.47e-01	0	57	104	0	69	37991
2026-01-04 03:31:50.60	16.94	17.71	-54.1	-74.0	3.8	7.46e-01	0	57	104	0	70	37418
2026-01-04 03:31:51.45	16.85	17.81	-54.0	-74.0	3.8	7.49e-01	0	57	104	0	70	37421
2026-01-04 03:31:52.58	16.72	17.95	-54.0	-73.9	3.8	7.46e-01	0	57	104	0	70	37300
2026-01-04 03:31:53.43	16.63	18.05	-54.0	-74.0	3.8	7.47e-01	0	57	104	0	70	37375
2026-01-04 03:31:54.57	16.50	18.19	-54.1	-74.0	3.8	7.49e-01	0	57	104	0	70	37421
2026-01-04 03:31:55.41	16.41	18.30	-54.1	-74.0	3.8	7.48e-01	0	57	104	0	70	37386
2026-01-04 03:31:56.55	16.28	18.44	-54.1	-74.0	3.8	7.43e-01	0	57	104	0	70	37481
2026-01-04 03:31:57.40	16.18	18.54	-54.1	-74.0	3.8	7.43e-01	0	57	104	0	70	37432
2026-01-04 03:31:58.53	16.05	18.68	-54.0	-73.9	3.8	7.46e-01	0	57	104	0	70	37325
2026-01-04 03:31:59.38	15.95	18.79	-54.1	-73.9	3.8	7.45e-01	0	57	104	0	70	37239
2026-01-04 03:32:00.52	15.81	18.93	-54.1	-73.9	3.8	7.45e-01	0	57	104	0	70	37247
2026-01-04 03:32:01.37	15.71	19.04	-54.0	-73.9	3.8	7.44e-01	0	57	104	0	70	37095
2026-01-04 03:32:02.50	15.58	19.18	-54.0	-73.8	3.8	7.47e-01	0	57	104	0	70	36666
2026-01-04 03:32:03.35	15.47	19.29	-54.0	-73.7	3.8	7.45e-01	0	57	104	0	70	36515
2026-01-04 03:32:04.48	15.33	19.44	-54.0	-73.7	3.8	7.47e-01	0	57	104	0	70	36238
2026-01-04 03:32:05.32	15.23	19.54	-54.0	-73.6	3.8	7.45e-01	0	57	104	0	70	36060
2026-01-04 03:32:06.45	15.09	19.69	-54.0	-73.7	3.8	7.46e-01	0	57	104	0	70	36208
2026-01-04 03:32:07.30	14.98	19.80	-54.0	-73.7	3.8	7.45e-01	0	57	104	0	70	36209
2026-01-04 03:32:08.43	14.84	19.95	-54.0	-73.7	3.8	7.43e-01	0	57	104	0	70	36223
2026-01-04 03:32:09.27	14.73	20.06	-54.0	-73.7	3.8	7.47e-01	0	57	104	0	70	36365
2026-01-04 03:32:10.41	14.58	20.21	-54.0	-73.8	3.8	7.44e-01	0	57	104	0	70	36688
2026-01-04 03:32:11.26	14.47	20.32	-54.0	-73.8	3.8	7.49e-01	0	57	104	0	70	36745
2026-01-04 03:32:12.40	14.32	20.47	-54.0	-73.9	3.8	7.45e-01	0	57	104	0	70	36966
2026-01-04 03:32:13.24	14.21	20.59	-54.0	-73.8	3.8	7.45e-01	0	57	104	0	70	36673
2026-01-04 03:32:14.37	14.06	20.74	-53.9	-73.1	3.8	7.46e-01	0	57	104	0	70	33706
2026-01-04 03:32:15.22	13.94	20.85	-53.8	-72.1	3.8	7.45e-01	0	57	104	0	70	30116
2026-01-04 03:32:16.34	13.79	21.00	-53.4	-69.9	3.8	7.44e-01	0	57	104	0	70	23509
2026-01-04 03:32:17.19	13.67	21.12	-52.9	-68.1	3.8	7.45e-01	0	57	104	0	69	20225
2026-01-04 03:32:18.32	13.51	21.27	-51.9	-65.7	3.8	7.42e-01	0	57	104	0	67	17117
2026-01-04 03:32:19.17	13.39	21.39	-51.2	-64.1	3.8	7.45e-01	0	57	104	0	65	16035
2026-01-04 03:32:20.30	13.23	21.55	-50.4	-62.8	3.8	7.47e-01	0	57	104	0	64	14677
2026-01-04 03:32:21.15	13.11	21.66	-50.4	-62.9	3.8	7.45e-01	0	57	104	0	64	14793
2026-01-04 03:32:22.28	12.95	21.82	-50.8	-63.6	3.8	7.40e-01	0	57	104	0	64	15989
2026-01-04 03:32:23.13	12.82	21.94	-51.1	-64.2	3.8	7.42e-01	0	57	104	0	64	17084
2026-01-04 03:32:24.27	12.66	22.10	-51.6	-65.1	3.8	7.48e-01	0	57	104	0	65	18021
2026-01-04 03:32:25.12	12.53	22.22	-51.9	-65.8	3.9	7.44e-01	0	57	104	0	66	18408
2026-01-04 03:32:26.25	12.36	22.38	-52.3	-66.8	3.8	7.44e-01	0	57	104	0	66	20609
2026-01-04 03:32:27.09	12.23	22.50	-52.5	-67.2	3.8	7.42e-01	0	57	104	0	67	20526
2026-01-04 03:32:28.23	12.06	22.66	-52.6	-67.8	3.8	7.43e-01	0	57	104	0	67	21835
2026-01-04 03:32:29.07	11.93	22.78	-52.7	-68.3	3.8	7.44e-01	0	57	104	0	67	23190
2026-01-04 03:32:30.19	11.75	22.94	-52.8	-68.8	3.8	7.45e-01	0	57	104	0	67	24469
2026-01-04 03:32:31.04	11.62	23.07	-52.7	-69.0	3.8	7.43e-01	0	57	104	0	67	25076
2026-01-04 03:32:32.16	11.44	23.23	-52.7	-69.6	3.8	7.45e-01	0	57	104	0	67	26855
2026-01-04 03:32:33.01	11.30	23.35	-52.6	-69.5	3.8	7.43e-01	0	57	104	0	67	26696
2026-01-04 03:32:34.14	11.12	23.52	-52.5	-69.4	3.8	7.44e-01	0	57	104	0	67	26177
2026-01-04 03:32:34.99	10.98	23.65	-52.5	-69.6	3.8	7.44e-01	0	57	104	0	67	27029
2026-01-04 03:32:36.13	10.79	23.81	-52.1	-68.7	3.8	7.45e-01	0	57	104	0	67	24295
2026-01-04 03:32:36.98	10.65	23.94	-51.8	-67.8	3.8	7.45e-01	0	57	104	0	67	21857
2026-01-04 03:32:38.11	10.45	24.11	-51.7	-67.7	3.8	7.45e-01	0	57	104	0	67	21539
2026-01-04 03:32:38.96	10.31	24.24	-51.4	-67.4	3.8	7.42e-01	0	57	104	0	66	22051
2026-01-04 03:32:40.09	10.11	24.41	-51.3	-67.1	3.8	7.45e-01	0	57	104	0	66	21459
2026-01-04 03:32:40.94	9.96	24.54	-51.2	-66.9	3.8	7.44e-01	0	57	104	0	65	22203
2026-01-04 03:32:42.06	9.77	24.71	-51.4	-67.4	3.8	7.47e-01	0	57	104	0	65	23517
2026-01-04 03:32:42.91	9.62	24.84	-51.8	-68.8	3.8	7.43e-01	0	57	104	0	65	27595
2026-01-04 03:32:44.04	9.41	25.01	-52.2	-70.3	3.8	7.43e-01	0	57	104	0	66	31080
2026-01-04 03:32:44.89	9.26	25.14	-52.1	-69.3	3.8	7.43e-01	0	57	104	0	66	27410
2026-01-04 03:32:46.01	9.05	25.31	-51.7	-67.3	3.8	7.44e-01	0	57	104	0	66	21924
2026-01-04 03:32:46.86	8.89	25.45	-51.5	-66.4	3.8	7.43e-01	0	57	104	0	66	19841
2026-01-04 03:32:47.99	8.68	25.62	-51.4	-65.8	3.8	7.45e-01	0	57	104	0	66	18430
2026-01-04 03:32:48.84	8.52	25.76	-51.3	-65.2	3.8	7.43e-01	0	57	104	0	66	17261
2026-01-04 03:32:49.97	8.31	25.93	-50.9	-64.1	3.8	7.47e-01	0	57	104	0	65	16062
2026-01-04 03:32:50.82	8.14	26.07	-50.5	-63.4	3.8	7.44e-01	0	57	104	0	64	15677
2026-01-04 03:32:51.96	7.92	26.25	-49.9	-62.1	3.8	7.48e-01	0	57	104	0	63	14219
2026-01-04 03:32:52.80	7.75	26.38	-49.5	-61.4	3.8	7.43e-01	0	57	104	0	62	13949
2026-01-04 03:32:53.93	7.53	26.56	-49.0	-60.7	3.8	7.44e-01	0	57	104	0	61	13690
2026-01-04 03:32:54.78	7.35	26.70	-48.9	-60.6	3.8	7.45e-01	0	57	104	0	61	13528
2026-01-04 03:32:55.92	7.12	26.88	-48.6	-60.2	3.8	7.44e-01	0	57	104	0	60	13593
2026-01-04 03:32:56.76	6.95	27.02	-48.4	-59.9	3.8	7.46e-01	0	57	104	0	60	13229
2026-01-04 03:32:57.90	6.71	27.21	-48.3	-59.8	3.8	7.46e-01	0	57	104	0	60	12976
2026-01-04 03:32:58.74	6.53	27.34	-48.4	-59.8	3.8	7.46e-01	0	57	104	0	60	13108
2026-01-04 03:32:59.88	6.29	27.53	-48.6	-60.1	3.8	7.48e-01	0	57	104	0	60	13500
2026-01-04 03:33:00.72	6.11	27.67	-48.7	-60.3	3.8	7.46e-01	0	57	104	0	60	13750
2026-01-04 03:33:01.85	5.87	27.85	-48.9	-60.5	3.8	7.45e-01	0	57	104	0	60	14071
2026-01-04 03:33:02.70	5.68	27.99	-48.9	-60.5	3.8	7.47e-01	0	57	104	0	60	14106
2026-01-04 03:33:03.83	5.43	28.18	-48.9	-60.6	3.8	7.48e-01	0	57	104	0	60	14226
2026-01-04 03:33:04.68	5.24	28.32	-48.8	-60.4	3.8	7.44e-01	0	57	104	0	60	13951
2026-01-04 03:33:05.81	4.98	28.51	-48.9	-60.4	3.8	7.43e-01	0	57	104	0	60	14011
2026-01-04 03:33:06.65	4.79	28.65	-49.0	-60.7	3.8	7.43e-01	0	57	104	0	60	14515
2026-01-04 03:33:07.78	4.53	28.84	-49.3	-61.1	3.8	7.41e-01	0	57	104	0	60	15186
2026-01-04 03:33:08.62	4.33	28.99	-49.6	-61.4	3.8	7.45e-01	0	57	104	0	61	14854
2026-01-04 03:33:09.75	4.06	29.18	-50.0	-62.1	3.8	7.43e-01	0	57	104	0	62	15119
2026-01-04 03:33:10.60	3.86	29.32	-50.4	-62.8	3.8	7.43e-01	0	57	104	0	63	15402
2026-01-04 03:33:11.74	3.58	29.52	-50.9	-63.6	3.8	7.41e-01	0	57	104	0	64	16051
2026-01-04 03:33:12.59	3.37	29.66	-51.2	-64.2	3.8	7.45e-01	0	57	104	0	64	17243
2026-01-04 03:33:13.72	3.09	29.86	-51.8	-65.3	3.8	7.40e-01	0	57	104	0	65	18493
2026-01-04 03:33:14.57	2.88	30.00	-52.2	-66.2	3.8	7.45e-01	0	57	104	0	66	19250
2026-01-04 03:33:15.70	2.59	30.20	-52.0	-65.8	3.8	7.45e-01	0	57	104	0	66	18426
2026-01-04 03:33:16.54	2.38	30.34	-51.9	-65.6	3.8	7.42e-01	0	57	104	0	66	17956
2026-01-04 03:33:17.66	2.09	30.54	-52.3	-66.3	3.8	7.46e-01	0	57	104	0	66	19514
2026-01-04 03:33:18.51	1.87	30.69	-52.5	-66.8	3.8	7.44e-01	0	57	104	0	67	19453
2026-01-04 03:33:19.63	1.57	30.88	-52.7	-67.5	3.8	7.44e-01	0	57	104	0	67	21132
2026-01-04 03:33:20.48	1.34	31.03	-53.0	-68.2	3.8	7.40e-01	0	57	104	0	68	21604
2026-01-04 03:33:21.60	1.04	31.23	-53.2	-69.0	3.8	7.44e-01	0	57	104	0	68	23648
2026-01-04 03:33:22.44	0.81	31.38	-53.2	-69.0	3.8	7.46e-01	0	57	104	0	68	23714
2026-01-04 03:33:23.57	0.49	31.57	-53.1	-68.4	3.8	7.46e-01	0	57	104	0	68	22088
2026-01-04 03:33:24.42	0.26	31.72	-52.9	-67.9	3.8	7.44e-01	0	57	104	0	68	20950
2026-01-04 03:33:25.55	359.94	31.92	-52.7	-67.4	3.8	7.46e-01	0	57	104	0	68	19767
2026-01-04 03:33:26.40	359.69	32.08	-52.6	-67.2	3.8	7.44e-01	0	57	104	0	68	19196
2026-01-04 03:33:27.53	359.37	32.28	-52.6	-67.0	3.8	7.45e-01	0	57	104	0	68	18794
2026-01-04 03:33:28.37	359.12	32.43	-52.4	-66.5	3.8	7.42e-01	0	57	104	0	68	17827
2026-01-04 03:33:29.50	358.79	32.63	-51.8	-65.3	3.8	7.47e-01	0	57	104	0	67	16380
2026-01-04 03:33:30.34	358.53	32.78	-51.4	-64.5	3.8	7.42e-01	0	57	104	0	66	15824
2026-01-04 03:33:31.46	358.19	32.98	-50.7	-63.2	3.8	7.44e-01	0	57	104	0	65	14528
2026-01-04 03:33:32.31	357.93	33.13	-50.2	-62.4	3.8	7.44e-01	0	57	104	0	64	13935
2026-01-04 03:33:33.43	357.59	33.33	-49.7	-61.5	3.8	7.46e-01	0	57	104	0	63	13385
2026-01-04 03:33:34.28	357.32	33.48	-49.4	-61.2	3.8	7.44e-01	0	57	104	0	62	13662
2026-01-04 03:33:35.41	356.96	33.69	-49.4	-61.2	3.8	7.43e-01	0	57	104	0	62	13670
2026-01-04 03:33:36.26	356.69	33.84	-49.5	-61.3	3.8	7.47e-01	0	57	104	0	62	13772
2026-01-04 03:33:37.39	356.32	34.04	-49.5	-61.3	3.8	7.47e-01	0	57	104	0	62	13768
2026-01-04 03:33:38.23	356.05	34.19	-49.7	-61.6	3.8	7.46e-01	0	57	104	0	62	14341
2026-01-04 03:33:39.37	355.67	34.40	-50.0	-62.1	3.8	7.44e-01	0	57	104	0	62	15168
2026-01-04 03:33:40.22	355.39	34.55	-49.9	-61.8	3.8	7.47e-01	0	57	104	0	62	14669
2026-01-04 03:33:41.36	355.00	34.76	-49.7	-61.6	3.8	7.46e-01	0	57	104	0	62	14230
2026-01-04 03:33:42.21	354.71	34.91	-49.4	-61.2	3.8	7.46e-01	0	57	104	0	62	13664
2026-01-04 03:33:43.35	354.31	35.11	-49.0	-60.6	3.8	7.43e-01	0	57	104	0	61	13497
2026-01-04 03:33:44.19	354.02	35.27	-48.8	-60.3	3.8	7.47e-01	0	57	104	0	61	13068
2026-01-04 03:33:45.32	353.62	35.47	-48.7	-60.3	3.8	7.47e-01	0	57	104	0	61	13036
2026-01-04 03:33:46.17	353.31	35.62	-48.8	-60.5	3.8	7.42e-01	0	57	104	0	61	13295
2026-01-04 03:33:47.30	352.90	35.82	-48.9	-60.5	3.8	7.45e-01	0	57	104	0	61	13341
2026-01-04 03:33:48.14	352.59	35.97	-48.9	-60.4	3.8	7.42e-01	0	57	104	0	61	13250
2026-01-04 03:33:49.27	352.17	36.18	-48.9	-60.4	3.8	7.43e-01	0	57	104	0	61	13196
2026-01-04 03:33:50.12	351.85	36.33	-49.0	-60.6	3.8	7.46e-01	0	57	104	0	61	13498
2026-01-04 03:33:51.25	351.43	36.53	-49.4	-61.2	3.8	7.44e-01	0	57	104	0	61	14381
2026-01-04 03:33:52.09	351.10	36.68	-49.8	-61.8	3.8	7.39e-01	0	57	104	0	61	15406
2026-01-04 03:33:53.22	350.66	36.88	-50.5	-62.8	3.8	7.42e-01	0	57	104	0	63	15567
2026-01-04 03:33:54.07	350.33	37.03	-50.6	-62.9	3.8	7.49e-01	0	57	104	0	63	15680
2026-01-04 03:33:55.21	349.88	37.23	-50.6	-63.0	3.8	7.48e-01	0	57	104	0	63	15787
2026-01-04 03:33:56.05	349.54	37.38	-50.6	-63.0	3.8	7.46e-01	0	57	104	0	63	15821
2026-01-04 03:33:57.19	349.08	37.58	-50.7	-63.1	3.8	7.47e-01	0	57	104	0	63	16049
2026-01-04 03:33:58.04	348.73	37.72	-50.8	-63.4	3.9	7.47e-01	0	57	104	0	64	15750
2026-01-04 03:33:59.17	348.26	37.92	-51.2	-63.9	3.8	7.45e-01	0	57	104	0	64	16676
2026-01-04 03:34:00.03	347.90	38.07	-51.6	-64.8	3.8	7.46e-01	0	57	104	0	65	17451
2026-01-04 03:34:01.16	347.42	38.26	-52.1	-65.8	3.8	7.47e-01	0	57	104	0	66	18457
2026-01-04 03:34:02.01	347.06	38.41	-52.3	-66.2	3.8	7.46e-01	0	57	104	0	66	19337
2026-01-04 03:34:03.14	346.57	38.60	-52.6	-67.0	3.8	7.45e-01	0	57	104	0	67	20059
2026-01-04 03:34:03.99	346.20	38.75	-52.2	-66.2	3.8	7.44e-01	0	57	104	0	67	18205
2026-01-04 03:34:05.11	345.70	38.94	-51.9	-65.3	3.8	7.41e-01	0	57	104	0	67	16502
2026-01-04 03:34:05.96	345.32	39.08	-51.6	-64.7	3.8	7.46e-01	0	57	104	0	66	16260
2026-01-04 03:34:07.10	344.81	39.27	-51.9	-65.3	3.8	7.45e-01	0	57	104	0	66	17474
2026-01-04 03:34:07.94	344.42	39.41	-52.0	-65.8	3.8	7.44e-01	0	57	104	0	66	18364
2026-01-04 03:34:09.08	343.90	39.59	-52.2	-66.1	3.8	7.48e-01	0	57	104	0	66	19024
2026-01-04 03:34:09.93	343.50	39.73	-52.6	-66.9	3.8	7.44e-01	0	57	104	0	67	19797
2026-01-04 03:34:11.05	342.98	39.91	-53.0	-68.1	3.8	7.42e-01	0	57	104	0	68	21323
2026-01-04 03:34:11.90	342.57	40.05	-53.2	-68.7	3.8	7.48e-01	0	57	104	0	68	22813
2026-01-04 03:34:13.03	342.03	40.23	-53.1	-68.5	3.8	7.41e-01	0	57	104	0	68	22313
2026-01-04 03:34:13.88	341.62	40.36	-52.9	-67.7	3.8	7.45e-01	0	57	104	0	68	20378
2026-01-04 03:34:15.01	341.07	40.54	-52.8	-67.4	3.8	7.42e-01	0	57	104	0	68	19826
2026-01-04 03:34:15.86	340.65	40.67	-52.8	-67.4	3.8	7.43e-01	0	57	104	0	68	19764
2026-01-04 03:34:17.00	340.08	40.84	-52.8	-67.4	3.8	7.44e-01	0	57	104	0	68	19656
2026-01-04 03:34:17.84	339.65	40.97	-52.8	-67.4	3.8	7.42e-01	0	57	104	0	68	19768
2026-01-04 03:34:18.97	339.08	41.13	-52.3	-66.1	3.8	7.46e-01	0	57	104	0	68	16980
2026-01-04 03:34:19.81	338.65	41.26	-51.7	-65.0	3.8	7.43e-01	0	57	104	0	67	15865
2026-01-04 03:34:20.94	338.06	41.42	-51.2	-64.0	3.8	7.46e-01	0	57	104	0	66	15046
2026-01-04 03:34:21.78	337.62	41.54	-50.7	-63.2	3.8	7.45e-01	0	57	104	0	65	14420
2026-01-04 03:34:22.91	337.03	41.70	-50.4	-62.7	3.8	7.48e-01	0	57	104	0	64	14467
2026-01-04 03:34:23.76	336.58	41.82	-50.2	-62.4	3.8	7.45e-01	0	57	104	0	64	14038
2026-01-04 03:34:24.89	335.97	41.97	-50.0	-52.6	20.1	6.00e-01	0	57	0	0	63	4798
2026-01-04 03:34:25.75	335.50	42.09	-50.2	-52.8	20.3	6.01e-01	0	57	0	1572864	63	4912
2026-01-04 03:34:26.87	334.89	42.23	-50.1	-52.7	20.4	6.01e-01	0	57	0	3670016	63	4859
2026-01-04 03:34:27.71	334.43	42.34	-49.9	-52.4	20.8	6.01e-01	0	57	0	5242880	63	4658
2026-01-04 03:34:28.84	333.80	42.49	-49.7	-52.1	21.1	6.03e-01	0	57	0	7340032	63	4503
2026-01-04 03:34:29.68	333.34	42.59	-49.7	-52.1	21.1	6.01e-01	0	57	0	8912896	63	4514
2026-01-04 03:34:30.81	332.70	42.73	-49.9	-52.4	20.8	6.01e-01	0	57	0	11010048	62	4948
2026-01-04 03:34:31.67	332.21	42.83	-50.0	-52.5	20.7	6.02e-01	0	57	0	12582912	62	5022
2026-01-04 03:34:32.81	331.56	42.96	-49.6	-52.0	21.2	6.03e-01	0	57	0	14680064	62	4717
2026-01-04 03:34:33.65	331.08	43.06	-49.7	-52.0	21.1	6.02e-01	0	57	0	16252928	62	4742
2026-01-04 03:34:34.78	330.42	43.18	-49.7	-52.1	21.1	6.01e-01	0	57	0	18874368	62	4799
2026-01-04 03:34:35.63	329.92	43.27	-49.6	-51.8	21.3	6.00e-01	0	57	0	20447232	62	4647
2026-01-04 03:34:36.76	329.26	43.39	-49.1	-51.1	22.0	6.02e-01	0	57	0	22544384	61	4523
2026-01-04 03:34:37.61	328.76	43.48	-48.9	-50.9	22.1	6.02e-01	0	57	0	24117248	61	4439
2026-01-04 03:34:38.75	328.08	43.59	-49.0	-51.1	22.0	5.99e-01	0	57	0	26214400	61	4504
2026-01-04 03:34:39.60	327.57	43.67	-49.0	-51.1	22.0	6.01e-01	0	57	0	27787264	61	4515
2026-01-04 03:34:40.73	326.89	43.78	-48.7	-50.7	22.5	6.01e-01	0	57	0	29884416	61	4295
2026-01-04 03:34:41.58	326.37	43.85	-48.8	-50.7	22.4	6.02e-01	0	57	0	31457280	61	4329
2026-01-04 03:34:42.70	325.69	43.95	-49.0	-51.0	22.2	6.01e-01	0	57	0	33554432	61	4460
2026-01-04 03:34:43.55	325.17	44.02	-49.0	-51.1	22.1	5.98e-01	0	57	0	35127296	61	4505
2026-01-04 03:34:44.69	324.47	44.11	-49.0	-51.1	22.1	6.02e-01	0	57	0	37224448	61	4499
2026-01-04 03:34:45.54	323.94	44.17	-49.1	-51.2	22.0	6.00e-01	0	57	0	38797312	61	4547
2026-01-04 03:34:46.67	323.24	44.25	-49.1	-51.2	22.0	6.00e-01	0	57	0	40894464	61	4550
2026-01-04 03:34:47.52	322.71	44.31	-49.3	-51.5	21.6	6.00e-01	0	57	0	42467328	61	4756
2026-01-04 03:34:48.65	322.00	44.38	-49.2	-51.4	21.7	6.01e-01	0	57	0	44564480	61	4673
2026-01-04 03:34:49.49	321.47	44.44	-48.8	-50.7	22.3	6.01e-01	0	57	0	46137344	61	4340
2026-01-04 03:34:50.62	320.75	44.50	-49.1	-51.2	22.0	6.03e-01	0	57	0	48234496	61	4571
2026-01-04 03:34:51.47	320.21	44.55	-49.0	-51.0	22.1	6.00e-01	0	57	0	49807360	61	4468
2026-01-04 03:34:52.61	319.49	44.60	-48.9	-50.9	22.3	6.01e-01	0	57	0	51904512	61	4396
2026-01-04 03:34:53.46	318.95	44.64	-49.0	-51.1	22.0	6.00e-01	0	57	0	53477376	61	4496
2026-01-04 03:34:54.59	318.22	44.69	-48.7	-50.7	22.4	6.00e-01	0	57	0	55574528	61	4296
2026-01-04 03:34:55.42	317.69	44.72	-48.5	-50.4	22.7	6.04e-01	0	57	0	57147392	60	4409
2026-01-04 03:34:56.55	316.96	44.76	-48.8	-50.7	22.4	6.03e-01	0	57	0	59244544	60	4574
2026-01-04 03:34:57.40	316.41	44.79	-48.7	-50.7	22.4	6.00e-01	0	57	0	60817408	60	4569
2026-01-04 03:34:58.52	315.69	44.82	-48.6	-50.5	22.7	6.00e-01	0	57	0	63438848	60	4447
2026-01-04 03:34:59.37	315.14	44.83	-48.6	-50.5	22.5	6.00e-01	0	57	0	65011712	60	4475
2026-01-04 03:35:00.51	314.40	44.86	-48.5	-50.4	22.7	6.02e-01	0	57	0	66584576	60	4405
2026-01-04 03:35:01.35	313.86	44.87	-48.9	-50.9	22.2	6.02e-01	0	57	0	68681728	60	4685
2026-01-04 03:35:02.48	313.12	44.88	-48.9	-50.9	22.2	6.01e-01	0	57	0	70778880	60	4672
2026-01-04 03:35:03.32	312.58	44.89	-48.4	-50.3	22.8	6.03e-01	0	57	0	72351744	60	4349
2026-01-04 03:35:04.44	311.85	44.89	-48.9	-50.9	22.3	6.01e-01	0	57	0	74448896	60	4669
2026-01-04 03:35:05.29	311.30	44.89	-49.0	-51.1	22.1	6.01e-01	0	57	0	76021760	60	4766
2026-01-04 03:35:06.42	310.56	44.88	-48.6	-50.5	22.7	6.00e-01	0	57	0	78118912	60	4448
2026-01-04 03:35:07.27	310.01	44.87	-48.8	-50.8	22.3	6.04e-01	0	57	0	79691776	60	4604
2026-01-04 03:35:08.40	309.28	44.86	-48.6	-50.5	22.6	6.00e-01	0	57	0	81788928	60	4475
2026-01-04 03:35:09.26	308.72	44.84	-48.8	-50.7	22.5	6.02e-01	0	57	0	83361792	60	4581
2026-01-04 03:35:10.39	307.99	44.82	-48.7	-50.6	22.4	6.01e-01	0	57	0	85458944	60	4527
2026-01-04 03:35:11.23	307.45	44.80	-48.5	-50.4	22.7	5.99e-01	0	57	0	87031808	60	4416
2026-01-04 03:35:12.36	306.72	44.77	-48.9	-50.9	22.2	6.01e-01	0	57	0	89128960	60	4683
2026-01-04 03:35:13.21	306.17	44.74	-49.0	-51.0	22.1	6.00e-01	0	57	0	90701824	60	4726
2026-01-04 03:35:14.34	305.44	44.70	-48.8	-50.7	22.4	6.00e-01	0	57	0	92798976	60	4577
2026-01-04 03:35:15.18	304.91	44.66	-49.2	-51.4	21.7	5.99e-01	0	57	0	94371840	60	4947
2026-01-04 03:35:16.31	304.18	44.61	-48.8	-50.7	22.3	6.03e-01	0	57	0	96468992	60	4583
2026-01-04 03:35:17.16	303.64	44.57	-49.0	-51.0	22.1	6.01e-01	0	57	0	98041856	60	4739
2026-01-04 03:35:18.28	302.93	44.51	-49.1	-51.2	21.9	6.02e-01	0	57	0	100139008	61	4554
2026-01-04 03:35:19.13	302.39	44.47	-49.0	-51.1	21.9	6.01e-01	0	57	0	101711872	61	4508
2026-01-04 03:35:20.26	301.68	44.40	-48.5	-50.4	22.7	6.01e-01	0	57	0	103809024	60	4403
2026-01-04 03:35:21.10	301.15	44.34	-48.6	-50.4	22.7	6.02e-01	0	57	0	105381888	60	4418
2026-01-04 03:35:22.23	300.44	44.27	-48.7	-50.6	22.5	6.04e-01	0	57	0	107479040	60	4528
2026-01-04 03:35:23.08	299.91	44.21	-48.6	-50.5	22.7	5.99e-01	0	57	0	109051904	60	4462
2026-01-04 03:35:24.21	299.21	44.13	-48.9	-51.0	22.3	6.02e-01	0	57	0	111149056	60	4707
2026-01-04 03:35:25.06	298.69	44.06	-48.9	-50.9	22.2	6.03e-01	0	57	0	112721920	60	4684
2026-01-04 03:35:26.20	297.99	43.97	-49.1	-51.2	22.0	5.99e-01	0	57	0	114819072	60	4835
2026-01-04 03:35:27.05	297.47	43.90	-49.2	-51.4	21.8	6.01e-01	0	57	0	116391936	60	4948
2026-01-04 03:35:28.18	296.78	43.80	-48.9	-50.9	22.0	6.03e-01	0	57	0	119013376	60	4703
2026-01-04 03:35:29.02	296.27	43.72	-49.2	-51.4	21.7	6.00e-01	0	57	0	120586240	60	4954
2026-01-04 03:35:30.15	295.59	43.61	-49.1	-51.2	21.9	6.01e-01	0	57	0	122683392	60	4815
2026-01-04 03:35:31.00	295.08	43.53	-48.9	-50.9	22.2	6.01e-01	0	57	0	124256256	60	4701
2026-01-04 03:35:32.13	294.41	43.42	-48.8	-50.7	22.4	5.99e-01	0	57	0	126353408	60	4593
2026-01-04 03:35:32.98	293.91	43.33	-49.0	-51.0	22.2	6.00e-01	0	57	0	127926272	60	4731
2026-01-04 03:35:34.10	293.25	43.21	-48.9	-50.9	22.2	6.01e-01	0	57	0	130023424	60	4689
2026-01-04 03:35:34.96	292.75	43.11	-49.5	-51.8	21.3	5.99e-01	0	57	0	131596288	61	4897
2026-01-04 03:35:36.10	292.09	42.99	-49.1	-51.2	21.7	5.99e-01	0	57	0	133693440	61	4555
2026-01-04 03:35:36.93	291.62	42.89	-49.3	-51.5	21.6	6.02e-01	0	57	0	135266304	60	5025
2026-01-04 03:35:38.07	290.97	42.76	-49.2	-51.4	21.7	6.00e-01	0	57	0	137363456	60	4967
2026-01-04 03:35:38.91	290.49	42.65	-48.9	-50.9	22.6	6.01e-01	0	57	0	138936320	59	4927
2026-01-04 03:35:40.04	289.86	42.51	-48.8	-50.7	22.8	6.02e-01	0	57	0	141033472	59	4824
2026-01-04 03:35:40.89	289.39	42.41	-48.3	-50.1	23.0	6.00e-01	0	57	0	142606336	60	4278
2026-01-04 03:35:42.02	288.76	42.26	-48.4	-50.2	22.9	6.02e-01	0	57	0	144703488	60	4317
2026-01-04 03:35:42.86	288.30	42.15	-48.3	-50.1	22.8	6.01e-01	0	57	0	146276352	60	4259
2026-01-04 03:35:43.99	287.69	42.00	-48.4	-50.1	22.5	6.01e-01	0	57	0	148373504	59	4515
2026-01-04 03:35:44.85	287.22	41.88	-49.1	-51.3	21.7	6.01e-01	0	57	0	149946368	60	4920
2026-01-04 03:35:45.97	286.62	41.73	-49.6	-52.1	21.1	6.04e-01	0	57	0	152043520	61	5046
2026-01-04 03:35:46.82	286.17	41.61	-48.7	-50.5	22.7	6.01e-01	0	57	0	153616384	59	4727
2026-01-04 03:35:47.95	285.58	41.45	-48.1	-49.7	23.7	6.00e-01	0	57	0	155713536	59	4308
2026-01-04 03:35:48.80	285.14	41.33	-48.6	-50.5	21.8	6.01e-01	0	57	0	157286400	60	4467
2026-01-04 03:35:49.93	284.56	41.16	-49.1	-51.2	21.0	6.00e-01	0	57	0	159383552	61	4581
2026-01-04 03:35:50.78	284.12	41.04	-49.1	-51.3	21.4	6.01e-01	0	57	0	160956416	60	4888
2026-01-04 03:35:51.92	283.54	40.87	-48.7	-50.6	22.1	6.01e-01	0	57	0	163053568	60	4539
2026-01-04 03:35:52.77	283.12	40.74	-48.4	-50.2	22.2	6.00e-01	0	57	0	165150720	60	4315
2026-01-04 03:35:53.89	282.56	40.56	-49.9	-52.4	20.1	5.98e-01	0	57	0	166723584	62	4972
2026-01-04 03:35:54.74	282.14	40.43	-50.1	-52.7	20.1	6.03e-01	0	57	0	168296448	62	5148
2026-01-04 03:35:55.87	281.59	40.26	-49.2	-51.3	21.7	6.01e-01	0	57	0	170917888	60	4875
2026-01-04 03:35:56.72	281.18	40.12	-49.6	-51.9	20.8	6.02e-01	0	57	0	172490752	62	4681
2026-01-04 03:35:57.85	280.64	39.94	-50.5	-53.5	19.6	6.01e-01	0	57	0	174587904	63	5293
2026-01-04 03:35:58.70	280.24	39.80	-49.4	-51.5	21.6	5.99e-01	0	57	0	176160768	62	4491
2026-01-04 03:35:59.83	279.71	39.62	-49.8	-52.2	20.8	6.00e-01	0	57	0	178257920	62	4865
2026-01-04 03:36:00.68	279.32	39.48	-50.7	-53.8	19.4	6.01e-01	0	57	0	179830784	63	5490
2026-01-04 03:36:01.80	278.80	39.30	-49.9	-52.3	20.8	6.01e-01	0	57	0	181927936	62	4902
2026-01-04 03:36:02.65	278.42	39.15	-50.5	-53.3	19.7	6.02e-01	0	57	0	183500800	63	5204
2026-01-04 03:36:03.79	277.91	38.96	-50.6	-53.6	19.5	6.00e-01	0	57	0	185597952	63	5397
2026-01-04 03:36:04.64	277.53	38.82	-49.9	-52.3	20.8	6.01e-01	0	57	0	187170816	63	4631
2026-01-04 03:36:05.77	277.03	38.63	-51.1	-54.6	18.5	6.01e-01	0	57	0	189267968	64	5688
2026-01-04 03:36:06.61	276.67	38.49	-50.6	-53.5	19.6	5.99e-01	0	57	0	190840832	64	5007
2026-01-04 03:36:07.75	276.17	38.29	-50.2	-52.9	20.0	6.00e-01	0	57	0	192937984	64	4661
2026-01-04 03:36:08.59	275.82	38.15	-49.5	-51.8	21.3	6.01e-01	0	57	0	194510848	62	4634
2026-01-04 03:36:09.72	275.34	37.95	-49.4	-51.7	21.4	6.02e-01	0	57	0	196608000	62	4559
2026-01-04 03:36:10.57	274.99	37.80	-49.4	-51.7	21.4	6.01e-01	0	57	0	198180864	62	4559
2026-01-04 03:36:11.70	274.52	37.60	-49.3	-51.4	21.7	6.00e-01	0	57	0	200278016	62	4431
2026-01-04 03:36:12.55	274.17	37.46	-49.9	-52.4	20.7	6.01e-01	0	57	0	201850880	62	4955
2026-01-04 03:36:13.68	273.72	37.26	-49.2	-51.3	21.7	5.99e-01	0	57	0	203948032	62	4370
2026-01-04 03:36:14.53	273.38	37.11	-49.3	-51.5	21.6	5.99e-01	0	57	0	205520896	61	4733
2026-01-04 03:36:15.66	272.93	36.91	-49.3	-51.4	21.6	5.99e-01	0	57	0	207618048	61	4694
2026-01-04 03:36:16.51	272.60	36.76	-49.2	-51.4	21.7	6.01e-01	0	57	0	209190912	61	4659
2026-01-04 03:36:17.64	272.16	36.55	-49.3	-51.5	21.5	6.02e-01	0	57	0	211288064	61	4752
2026-01-04 03:36:18.49	271.84	36.40	-49.4	-51.7	21.5	6.02e-01	0	57	0	212860928	61	4829
2026-01-04 03:36:19.62	271.41	36.20	-49.7	-52.0	21.0	6.02e-01	0	57	0	215482368	62	4758
2026-01-04 03:36:20.47	271.09	36.05	-49.0	-51.0	22.1	6.01e-01	0	57	0	217055232	61	4479
2026-01-04 03:36:21.60	270.68	35.85	-49.1	-51.2	21.9	5.99e-01	0	57	0	219152384	61	4583
2026-01-04 03:36:22.45	270.37	35.69	-49.3	-51.4	21.7	6.02e-01	0	57	0	220725248	61	4700
2026-01-04 03:36:23.59	269.95	35.49	-49.4	-51.6	21.5	6.03e-01	0	57	0	222822400	61	4796
2026-01-04 03:36:24.44	269.65	35.33	-49.3	-51.6	21.4	6.02e-01	0	57	0	224395264	61	4776
2026-01-04 03:36:25.58	269.25	35.13	-49.0	-51.0	22.1	6.03e-01	0	57	0	226492416	61	4460
2026-01-04 03:36:26.43	268.95	34.98	-49.1	-51.2	21.9	6.01e-01	0	57	0	228065280	61	4577
2026-01-04 03:36:27.56	268.56	34.77	-48.9	-51.0	22.1	6.02e-01	0	57	0	230162432	61	4444
2026-01-04 03:36:28.41	268.27	34.62	-48.9	-50.9	22.2	5.97e-01	0	57	0	231735296	61	4440
2026-01-04 03:36:29.53	267.89	34.42	-49.1	-51.2	21.9	6.01e-01	0	57	0	233832448	61	4584
2026-01-04 03:36:30.37	267.61	34.27	-48.6	-50.5	22.4	5.98e-01	0	57	0	235405312	60	4479
2026-01-04 03:36:31.51	267.24	34.06	-48.5	-50.3	22.8	6.02e-01	0	57	0	237502464	60	4362
2026-01-04 03:36:32.36	266.96	33.91	-48.5	-50.4	22.6	6.00e-01	0	57	0	239075328	60	4401
2026-01-04 03:36:33.49	266.59	33.70	-48.5	-50.4	22.7	6.01e-01	0	57	0	241172480	60	4412
2026-01-04 03:36:34.33	266.33	33.55	-48.7	-50.7	22.4	6.01e-01	0	57	0	242745344	60	4554
2026-01-04 03:36:35.46	265.97	33.35	-48.5	-50.4	22.6	6.02e-01	0	57	0	244842496	60	4416
2026-01-04 03:36:36.31	265.71	33.20	-48.6	-50.4	22.6	6.02e-01	0	57	0	246415360	60	4438
2026-01-04 03:36:37.44	265.36	32.99	-48.7	-50.7	22.4	6.03e-01	0	57	0	248512512	60	4559
2026-01-04 03:36:38.29	265.10	32.84	-48.5	-50.4	22.7	6.02e-01	0	57	0	250085376	60	4412
2026-01-04 03:36:39.43	264.75	32.64	-48.3	-50.1	23.0	6.02e-01	0	57	0	252182528	60	4243
2026-01-04 03:36:40.27	264.50	32.49	-48.5	-50.3	23.1	6.03e-01	0	57	0	253755392	59	4620
2026-01-04 03:36:41.41	264.17	32.28	-48.6	-50.5	22.6	6.00e-01	0	57	0	255852544	60	4451
2026-01-04 03:36:42.26	263.92	32.13	-48.6	-50.6	22.5	6.02e-01	0	56	0	257425408	60	4514
2026-01-04 03:36:43.39	263.60	31.93	-48.4	-50.2	22.8	6.02e-01	0	57	0	259522560	60	4307
2026-01-04 03:36:44.24	263.35	31.78	-48.5	-50.2	23.1	6.04e-01	0	57	0	261619712	59	4598
2026-01-04 03:36:45.37	263.03	31.58	-48.7	-50.6	22.8	6.02e-01	0	57	0	263716864	59	4787
2026-01-04 03:36:46.22	262.80	31.43	-48.9	-50.9	22.6	6.00e-01	0	57	0	265289728	59	4929
2026-01-04 03:36:47.35	262.49	31.23	-48.5	-50.3	22.7	6.00e-01	0	57	0	267386880	60	4370
2026-01-04 03:36:48.19	262.26	31.08	-48.5	-50.4	22.6	6.02e-01	0	57	0	268959744	60	4420
2026-01-04 03:36:49.33	261.95	30.88	-49.2	-51.3	21.7	6.00e-01	0	57	0	271056896	60	4905
2026-01-04 03:36:50.17	261.73	30.73	-49.2	-51.4	21.7	6.00e-01	0	57	0	272629760	60	4973
2026-01-04 03:36:51.30	261.43	30.53	-49.4	-51.6	21.4	5.99e-01	0	57	0	274726912	61	4790
2026-01-04 03:36:52.15	261.21	30.39	-48.7	-50.7	22.3	6.01e-01	0	57	0	276299776	61	4293
2026-01-04 03:36:53.28	260.92	30.19	-48.5	-50.3	22.9	6.01e-01	0	57	0	278396928	59	4614
2026-01-04 03:36:54.13	260.70	30.04	-48.5	-50.3	23.0	6.00e-01	0	57	0	279969792	59	4633
2026-01-04 03:36:55.25	260.42	29.85	-48.7	-50.6	22.4	6.01e-01	0	57	0	282066944	60	4524
2026-01-04 03:36:56.10	260.21	29.70	-48.9	-50.9	22.2	6.02e-01	0	57	0	283639808	60	4672
2026-01-04 03:36:57.24	259.93	29.51	-48.5	-50.4	22.6	6.00e-01	0	57	0	285736960	60	4420
2026-01-04 03:36:58.09	259.72	29.36	-48.4	-50.2	22.8	6.02e-01	0	57	0	287309824	60	4330
2026-01-04 03:36:59.22	259.45	29.17	-48.4	-50.3	22.7	6.00e-01	0	57	0	289406976	60	4370
2026-01-04 03:37:00.07	259.24	29.02	-48.3	-50.2	22.8	6.01e-01	0	57	0	290979840	60	4292
2026-01-04 03:37:01.20	258.98	28.83	-48.3	-50.2	22.8	6.01e-01	0	57	0	293076992	60	4293
2026-01-04 03:37:02.06	258.78	28.69	-48.7	-50.6	22.5	6.01e-01	0	57	0	294649856	60	4510
2026-01-04 03:37:03.19	258.52	28.49	-48.5	-50.4	22.5	6.04e-01	0	57	0	296747008	60	4435
2026-01-04 03:37:04.04	258.32	28.35	-48.5	-50.5	22.6	5.99e-01	0	57	0	298319872	60	4442
2026-01-04 03:37:05.17	258.07	28.16	-48.9	-50.9	22.1	6.00e-01	0	57	0	300417024	60	4685
2026-01-04 03:37:06.02	257.88	28.02	-48.5	-50.4	22.5	6.02e-01	0	57	0	301989888	60	4431
2026-01-04 03:37:07.15	257.63	27.83	-48.5	-50.3	23.0	5.99e-01	0	57	0	304087040	59	4609
2026-01-04 03:37:08.00	257.44	27.69	-48.4	-50.2	23.1	5.99e-01	0	57	0	305659904	59	4572
2026-01-04 03:37:09.12	257.20	27.51	-48.7	-50.5	22.8	6.01e-01	0	57	0	308281344	59	4750
2026-01-04 03:37:09.98	257.02	27.37	-48.7	-50.5	22.8	6.01e-01	0	57	0	309854208	59	4751
2026-01-04 03:37:11.10	256.78	27.18	-48.6	-50.4	22.9	6.01e-01	0	57	0	311951360	59	4671
2026-01-04 03:37:11.96	256.60	27.04	-48.6	-50.5	22.8	6.01e-01	0	57	0	313524224	59	4725
2026-01-04 03:37:13.08	256.37	26.86	-48.7	-50.6	22.4	6.01e-01	0	57	0	315621376	60	4540
2026-01-04 03:37:13.94	256.19	26.72	-49.0	-51.1	22.0	6.02e-01	0	57	0	317194240	60	4771
2026-01-04 03:37:15.07	255.96	26.54	-48.9	-50.9	22.1	6.01e-01	0	57	0	319291392	60	4677
2026-01-04 03:37:15.92	255.79	26.40	-49.1	-51.3	21.7	6.01e-01	0	57	0	320864256	60	4912
2026-01-04 03:37:17.05	255.56	26.22	-49.0	-51.1	21.9	6.00e-01	0	57	0	322961408	60	4762
2026-01-04 03:37:17.90	255.40	26.09	-48.7	-50.7	22.2	6.03e-01	0	57	0	324534272	60	4589
2026-01-04 03:37:19.03	255.18	25.91	-48.7	-50.6	22.4	6.00e-01	0	57	0	326631424	60	4524
2026-01-04 03:37:19.89	255.01	25.77	-48.7	-50.6	22.3	6.02e-01	0	57	0	328204288	60	4520
2026-01-04 03:37:21.01	254.80	25.60	-48.7	-50.7	22.3	5.98e-01	0	57	0	330301440	60	4564
2026-01-04 03:37:21.86	254.64	25.46	-48.8	-50.8	22.2	6.00e-01	0	57	0	331874304	60	4639
2026-01-04 03:37:22.99	254.43	25.29	-48.5	-50.4	22.5	6.01e-01	0	57	0	333971456	60	4441
2026-01-04 03:37:23.83	254.27	25.16	-48.4	-50.3	22.7	5.99e-01	0	57	0	335544320	60	4346
2026-01-04 03:37:24.97	254.06	24.98	-48.3	-50.1	22.8	6.01e-01	0	57	0	337641472	60	4284
2026-01-04 03:37:25.82	253.91	24.85	-48.4	-50.3	22.6	6.01e-01	0	57	0	339214336	60	4373
2026-01-04 03:37:26.95	253.71	24.67	-48.5	-50.4	22.6	6.00e-01	0	57	0	341311488	60	4395
2026-01-04 03:37:27.79	253.56	24.55	-48.5	-50.4	22.6	6.01e-01	0	57	0	342884352	60	4412
2026-01-04 03:37:28.92	253.36	24.37	-48.3	-50.2	22.8	6.02e-01	0	57	0	344981504	60	4303
2026-01-04 03:37:29.76	253.21	24.25	-48.2	-50.0	22.9	6.03e-01	0	57	0	346554368	60	4215
2026-01-04 03:37:30.89	253.02	24.08	-48.6	-50.4	22.9	5.99e-01	0	57	0	348651520	59	4664
2026-01-04 03:37:31.74	252.88	23.95	-48.5	-50.3	23.0	5.99e-01	0	57	0	350224384	59	4611
2026-01-04 03:37:32.87	252.68	23.78	-48.6	-50.5	22.8	6.04e-01	0	57	0	352845824	59	4718
2026-01-04 03:37:33.72	252.54	23.65	-48.7	-50.6	22.7	6.03e-01	0	57	0	354418688	59	4777
2026-01-04 03:37:34.85	252.36	23.49	-48.8	-50.7	22.5	6.00e-01	0	57	0	355991552	59	4859
2026-01-04 03:37:35.70	252.22	23.36	-48.8	-50.7	22.5	6.01e-01	0	57	0	358088704	59	4868
2026-01-04 03:37:36.82	252.04	23.20	-48.7	-50.6	22.6	6.00e-01	0	57	0	360185856	59	4790
2026-01-04 03:37:37.68	251.90	23.07	-48.6	-50.5	22.7	6.02e-01	0	57	0	361758720	59	4745
2026-01-04 03:37:38.82	251.72	22.91	-48.5	-50.4	22.8	6.01e-01	0	57	0	363855872	59	4668
2026-01-04 03:37:39.66	251.58	22.78	-48.5	-50.3	22.9	6.01e-01	0	57	0	365428736	59	4636
2026-01-04 03:37:40.79	251.41	22.62	-48.7	-50.5	22.7	6.00e-01	0	57	0	367525888	59	4755
2026-01-04 03:37:41.63	251.28	22.50	-48.7	-50.6	22.7	6.00e-01	0	57	0	369098752	59	4778
2026-01-04 03:37:42.76	251.11	22.34	-48.8	-50.7	22.5	5.99e-01	0	57	0	371195904	59	4868
2026-01-04 03:37:43.61	250.98	22.22	-48.8	-50.7	22.6	6.01e-01	0	57	0	372768768	59	4837
2026-01-04 03:37:44.75	250.81	22.06	-48.8	-50.7	22.6	6.02e-01	0	57	0	374865920	59	4829
2026-01-04 03:37:45.59	250.68	21.94	-48.9	-50.8	22.5	6.02e-01	0	57	0	376438784	59	4912
2026-01-04 03:37:46.72	250.52	21.78	-48.7	-50.7	22.2	6.03e-01	0	57	0	378535936	60	4584
2026-01-04 03:37:47.57	250.39	21.66	-48.6	-50.6	22.3	6.01e-01	0	57	0	380108800	60	4526
2026-01-04 03:37:48.70	250.23	21.50	-48.6	-50.5	22.4	6.01e-01	0	57	0	382205952	60	4460
2026-01-04 03:37:49.55	250.11	21.39	-48.6	-50.5	22.4	6.02e-01	0	57	0	383778816	60	4480
2026-01-04 03:37:50.68	249.95	21.23	-48.6	-50.5	22.4	6.01e-01	0	57	0	385875968	60	4466
2026-01-04 03:37:51.54	249.83	21.11	-48.6	-50.6	22.3	6.01e-01	0	57	0	387448832	60	4525
2026-01-04 03:37:52.67	249.67	20.96	-48.8	-50.9	22.1	6.01e-01	0	57	0	389545984	60	4653
2026-01-04 03:37:53.52	249.55	20.84	-48.8	-50.8	22.0	6.01e-01	0	57	0	391118848	60	4645
2026-01-04 03:37:54.65	249.40	20.69	-48.6	-50.5	22.3	6.02e-01	0	57	0	393216000	60	4486
2026-01-04 03:37:55.50	249.28	20.58	-48.5	-50.4	22.4	6.00e-01	0	57	0	394788864	60	4408
2026-01-04 03:37:56.63	249.13	20.42	-48.4	-50.2	22.6	6.01e-01	0	57	0	396886016	60	4335
2026-01-04 03:37:57.48	249.02	20.31	-48.3	-50.2	22.7	6.02e-01	0	57	0	398458880	60	4325
2026-01-04 03:37:58.60	248.87	20.16	-48.4	-50.3	22.6	6.00e-01	0	57	0	400556032	60	4344
2026-01-04 03:37:59.44	248.76	20.05	-48.5	-50.4	22.5	6.01e-01	0	57	0	402128896	60	4406
2026-01-04 03:38:00.58	248.62	19.90	-48.7	-50.7	22.2	6.01e-01	0	57	0	404750336	60	4573
2026-01-04 03:38:01.43	248.51	19.79	-48.7	-50.7	22.1	6.01e-01	0	57	0	406323200	60	4577
2026-01-04 03:38:02.55	248.37	19.64	-48.6	-50.5	22.4	5.98e-01	0	57	0	408420352	60	4468
2026-01-04 03:38:03.40	248.26	19.53	-48.5	-50.4	22.5	6.00e-01	0	57	0	409993216	60	4426
2026-01-04 03:38:04.53	248.12	19.39	-48.5	-50.4	22.4	6.00e-01	0	57	0	412090368	60	4418
2026-01-04 03:38:05.38	248.01	19.28	-48.5	-50.5	22.4	6.02e-01	0	57	0	413663232	60	4446
2026-01-04 03:38:06.52	247.87	19.13	-48.5	-50.4	22.4	6.01e-01	0	57	0	415760384	60	4429
2026-01-04 03:38:07.36	247.77	19.02	-48.4	-50.2	22.6	5.98e-01	0	57	0	417333248	60	4334
2026-01-04 03:38:08.49	247.64	18.88	-48.3	-50.2	22.7	5.99e-01	0	57	0	419430400	60	4297
2026-01-04 03:38:09.34	247.54	18.77	-48.3	-50.2	22.6	6.00e-01	0	57	0	421003264	60	4326
2026-01-04 03:38:10.48	247.40	18.63	-48.5	-50.4	22.4	6.03e-01	0	57	0	423100416	60	4432
2026-01-04 03:38:11.32	247.30	18.53	-48.6	-50.6	22.3	6.01e-01	0	57	0	424673280	60	4507
2026-01-04 03:38:12.46	247.17	18.38	-48.6	-50.6	22.3	6.00e-01	0	57	0	426770432	60	4540
2026-01-04 03:38:13.31	247.07	18.28	-48.7	-50.7	22.1	6.02e-01	0	57	0	428343296	60	4574
2026-01-04 03:38:14.44	246.94	18.14	-48.6	-50.6	22.3	6.02e-01	0	57	0	430440448	60	4518
2026-01-04 03:38:15.29	246.85	18.03	-48.5	-50.5	22.4	6.02e-01	0	57	0	432013312	60	4451
2026-01-04 03:38:16.41	246.72	17.90	-48.4	-50.4	22.5	6.00e-01	0	57	0	434110464	60	4394
2026-01-04 03:38:17.26	246.63	17.79	-48.5	-50.4	22.4	6.01e-01	0	57	0	435683328	60	4438
2026-01-04 03:38:18.40	246.50	17.66	-48.7	-50.6	22.2	5.99e-01	0	57	0	437780480	60	4537
2026-01-04 03:38:19.23	246.41	17.56	-48.8	-50.9	21.9	6.00e-01	0	57	0	439353344	60	4655
2026-01-04 03:38:20.36	246.29	17.42	-48.8	-50.8	22.0	6.01e-01	0	57	0	441450496	60	4641
2026-01-04 03:38:21.21	246.20	17.32	-48.8	-50.9	21.9	6.00e-01	0	57	0	443023360	60	4666
2026-01-04 03:38:22.34	246.08	17.18	-48.9	-51.0	21.9	6.04e-01	0	57	0	445120512	60	4712
2026-01-04 03:38:23.18	245.99	17.08	-49.0	-51.1	21.7	6.02e-01	0	57	0	446693376	60	4805
2026-01-04 03:38:24.32	245.87	16.95	-49.0	-51.2	21.7	6.00e-01	0	57	0	448790528	60	4822
2026-01-04 03:38:25.16	245.79	16.85	-49.0	-51.2	21.6	6.00e-01	0	57	0	450363392	60	4849
2026-01-04 03:38:26.29	245.67	16.72	-48.7	-50.8	22.0	5.99e-01	0	57	0	452460544	60	4621
2026-01-04 03:38:27.15	245.58	16.62	-48.5	-50.5	22.3	6.01e-01	0	56	0	454557696	60	4454
2026-01-04 03:38:28.27	245.47	16.49	-48.3	-50.2	22.6	5.99e-01	0	57	0	456654848	60	4326
2026-01-04 03:38:29.12	245.38	16.39	-48.3	-50.2	22.6	6.01e-01	0	57	0	458227712	60	4319
2026-01-04 03:38:30.25	245.27	16.26	-48.4	-50.3	22.5	6.00e-01	0	57	0	460324864	60	4354
2026-01-04 03:38:31.10	245.19	16.16	-48.5	-50.4	22.4	6.02e-01	0	56	0	461897728	60	4426
2026-01-04 03:38:32.22	245.08	16.04	-48.3	-50.2	22.5	6.01e-01	0	57	0	463994880	60	4335
2026-01-04 03:38:33.06	245.00	15.94	-48.4	-50.3	22.4	6.02e-01	0	57	0	465567744	60	4388
2026-01-04 03:38:34.20	244.89	15.81	-48.4	-50.4	22.4	5.99e-01	0	56	0	467664896	60	4408
2026-01-04 03:38:35.05	244.81	15.72	-48.5	-50.4	22.3	6.01e-01	0	57	0	469237760	60	4430
2026-01-04 03:38:36.18	244.70	15.59	-48.5	-50.5	22.2	6.00e-01	0	57	0	471334912	60	4477
2026-01-04 03:38:37.02	244.62	15.50	-48.6	-50.6	22.2	6.00e-01	0	57	0	472907776	60	4540
2026-01-04 03:38:38.16	244.51	15.37	-48.8	-51.0	21.8	6.02e-01	0	56	0	475004928	60	4707
2026-01-04 03:38:39.01	244.44	15.27	-48.8	-50.9	21.9	6.02e-01	0	56	0	476577792	60	4659
2026-01-04 03:38:40.13	244.33	15.15	-48.7	-50.8	22.0	6.04e-01	0	57	0	478674944	60	4607
2026-01-04 03:38:40.98	244.26	15.06	-48.8	-50.8	21.9	5.99e-01	0	57	0	480247808	60	4645
2026-01-04 03:38:42.11	244.15	14.93	-48.9	-51.1	21.7	6.02e-01	0	57	0	482344960	60	4776
2026-01-04 03:38:42.96	244.08	14.84	-48.8	-50.9	21.9	6.02e-01	0	57	0	483917824	60	4652
2026-01-04 03:38:44.09	243.98	14.72	-48.6	-50.7	22.0	5.99e-01	0	57	0	486014976	60	4564
2026-01-04 03:38:44.94	243.90	14.63	-48.6	-50.6	22.1	6.03e-01	0	56	0	487587840	60	4544
2026-01-04 03:38:46.07	243.80	14.51	-48.8	-51.0	21.8	6.01e-01	0	56	0	489684992	60	4708
2026-01-04 03:38:46.91	243.73	14.42	-48.6	-50.6	22.1	6.01e-01	0	57	0	491257856	60	4517
2026-01-04 03:38:48.05	243.63	14.30	-48.4	-50.4	22.3	6.00e-01	0	57	0	493355008	60	4417
2026-01-04 03:38:48.89	243.56	14.21	-48.3	-50.3	22.4	5.98e-01	0	57	0	494927872	60	4352
2026-01-04 03:38:50.03	243.47	14.09	-48.3	-50.2	22.5	6.00e-01	0	56	0	497025024	60	4303
2026-01-04 03:38:50.88	243.39	14.00	-48.3	-50.3	22.4	6.04e-01	0	57	0	498597888	60	4345
2026-01-04 03:38:52.02	243.30	13.88	-48.5	-50.5	22.3	5.99e-01	0	56	0	501219328	60	4447
2026-01-04 03:38:52.87	243.23	13.79	-48.4	-50.4	22.3	6.01e-01	0	56	0	502792192	60	4394
2026-01-04 03:38:54.00	243.14	13.67	-48.6	-50.6	22.1	6.01e-01	0	57	0	504889344	60	4509
2026-01-04 03:38:54.85	243.07	13.58	-48.5	-50.5	22.3	6.00e-01	0	57	0	506462208	60	4447
2026-01-04 03:38:55.98	242.98	13.47	-48.6	-50.7	22.0	5.98e-01	0	56	0	508559360	60	4564
2026-01-04 03:38:56.83	242.91	13.38	-48.5	-50.6	22.1	6.00e-01	0	56	0	510132224	60	4502
2026-01-04 03:38:57.96	242.82	13.27	-48.6	-50.7	22.0	6.00e-01	0	56	0	512229376	60	4557
2026-01-04 03:38:58.80	242.75	13.18	-48.6	-50.6	22.0	6.02e-01	0	57	0	513802240	60	4540
2026-01-04 03:38:59.94	242.66	13.07	-48.5	-50.6	22.1	6.00e-01	0	56	0	515899392	60	4501
2026-01-04 03:39:00.79	242.60	12.98	-48.6	-50.6	22.1	6.01e-01	0	56	0	517472256	60	4514
2026-01-04 03:39:01.92	242.51	12.87	-48.6	-50.7	22.0	6.00e-01	0	57	0	519569408	60	4581
2026-01-04 03:39:02.77	242.44	12.78	-48.6	-50.7	22.0	5.99e-01	0	56	0	521142272	60	4548
2026-01-04 03:39:03.90	242.36	12.67	-48.6	-50.6	22.0	6.01e-01	0	56	0	523239424	60	4528
2026-01-04 03:39:04.75	242.29	12.58	-48.5	-50.5	22.1	6.00e-01	0	56	0	524812288	60	4486
2026-01-04 03:39:05.87	242.21	12.47	-48.5	-50.5	22.1	6.00e-01	0	56	0	526909440	60	4467
2026-01-04 03:39:06.71	242.15	12.39	-48.5	-50.5	22.1	6.02e-01	0	57	0	528482304	60	4489
2026-01-04 03:39:07.84	242.06	12.28	-48.7	-50.7	21.9	6.01e-01	0	56	0	530579456	60	4598
2026-01-04 03:39:08.69	242.00	12.20	-48.6	-50.6	22.0	6.02e-01	0	56	0	532152320	60	4533
2026-01-04 03:39:09.81	241.92	12.09	-48.5	-50.5	22.1	6.02e-01	0	57	0	534249472	60	4477
2026-01-04 03:39:10.66	241.86	12.01	-48.5	-50.6	22.0	6.02e-01	0	57	0	535822336	60	4518
2026-01-04 03:39:11.78	241.78	11.90	-48.5	-50.6	22.0	6.02e-01	0	57	0	537919488	60	4525
2026-01-04 03:39:12.63	241.72	11.82	-48.6	-50.7	21.8	6.01e-01	0	56	0	539492352	60	4586
2026-01-04 03:39:13.75	241.64	11.71	-48.6	-50.8	21.8	6.04e-01	0	57	0	541589504	60	4602
2026-01-04 03:39:14.60	241.58	11.63	-48.6	-50.7	21.8	6.01e-01	0	56	0	543162368	60	4578
2026-01-04 03:39:15.73	241.50	11.52	-48.7	-50.9	21.7	6.01e-01	0	57	0	545259520	60	4668
2026-01-04 03:39:16.57	241.44	11.44	-48.7	-50.8	21.7	6.02e-01	0	56	0	546832384	60	4636
2026-01-04 03:39:17.71	241.36	11.33	-48.7	-50.9	21.7	5.99e-01	0	57	0	548929536	60	4676
2026-01-04 03:39:18.55	241.31	11.25	-48.8	-50.9	21.6	6.00e-01	0	56	0	550502400	60	4691
2026-01-04 03:39:19.68	241.23	11.15	-48.8	-50.9	21.6	6.03e-01	0	57	0	552599552	60	4695
2026-01-04 03:39:20.53	241.17	11.07	-48.9	-51.2	21.4	6.01e-01	0	57	0	554172416	60	4822
2026-01-04 03:39:21.66	241.10	10.96	-48.9	-51.1	21.4	6.03e-01	0	56	0	556793856	60	4804
2026-01-04 03:39:22.50	241.04	10.89	-48.8	-51.0	21.5	6.00e-01	0	56	0	557842432	60	4736
2026-01-04 03:39:23.63	240.97	10.78	-48.8	-51.1	21.4	6.01e-01	0	56	0	560463872	60	4771
2026-01-04 03:39:24.48	240.91	10.70	-48.9	-51.2	21.3	6.01e-01	0	56	0	562036736	60	4826
2026-01-04 03:39:25.61	240.84	10.60	-48.9	-51.2	21.2	6.01e-01	0	57	0	564133888	60	4848
2026-01-04 03:39:26.46	240.78	10.52	-49.0	-51.3	21.2	6.00e-01	0	57	0	565706752	60	4910
2026-01-04 03:39:27.58	240.71	10.42	-49.1	-51.4	21.0	6.02e-01	0	57	0	567803904	60	4981
2026-01-04 03:39:28.43	240.66	10.34	-49.0	-51.4	21.1	6.02e-01	0	57	0	569376768	60	4961
2026-01-04 03:39:29.55	240.59	10.24	-49.1	-51.6	20.9	6.02e-01	0	56	0	571473920	60	5049
2026-01-04 03:39:30.40	240.53	10.17	-49.2	-51.7	20.8	6.00e-01	0	56	0	573046784	60	5102
2026-01-04 03:39:31.53	240.46	10.06	-49.1	-51.5	21.0	6.00e-01	0	56	0	575143936	60	5016
2026-01-04 03:39:32.38	240.41	9.99	-49.0	-51.3	21.1	6.00e-01	0	56	0	576716800	60	4910
2026-01-04 03:39:33.51	240.34	9.89	-49.0	-51.4	21.0	6.02e-01	0	56	0	578813952	60	4952
2026-01-04 03:39:34.35	240.29	9.81	-49.1	-51.5	20.9	6.00e-01	0	56	0	580386816	60	4993
2026-01-04 03:39:35.48	240.22	9.71	-49.1	-51.6	20.8	6.01e-01	0	57	0	582483968	60	5070
2026-01-04 03:39:36.34	240.17	9.64	-49.1	-51.5	20.9	6.01e-01	0	57	0	584056832	60	5028
2026-01-04 03:39:37.47	240.10	9.54	-49.1	-51.5	20.8	6.02e-01	0	56	0	586153984	60	5032
2026-01-04 03:39:38.32	240.05	9.47	-49.0	-51.5	20.9	6.01e-01	0	57	0	587726848	60	4992
2026-01-04 03:39:39.45	239.99	9.37	-49.1	-51.5	20.9	6.03e-01	0	57	0	589824000	60	4994
2026-01-04 03:39:40.30	239.94	9.29	-49.2	-51.7	20.7	6.01e-01	0	57	0	591396864	60	5110
2026-01-04 03:39:41.43	239.87	9.20	-49.3	-51.9	20.4	6.00e-01	0	57	0	593494016	60	5273
2026-01-04 03:39:42.28	239.82	9.12	-49.2	-51.8	20.6	6.01e-01	0	57	0	595066880	60	5175
2026-01-04 03:39:43.41	239.76	9.03	-49.3	-52.0	20.4	6.01e-01	0	57	0	597164032	60	5288
2026-01-04 03:39:44.25	239.71	8.95	-49.3	-51.9	20.4	6.00e-01	0	56	0	598736896	60	5258
2026-01-04 03:39:45.38	239.64	8.86	-49.4	-52.0	20.3	6.00e-01	0	57	0	600834048	60	5322
2026-01-04 03:39:46.22	239.60	8.79	-49.5	-52.3	20.0	6.00e-01	0	56	0	602406912	61	5191
2026-01-04 03:39:47.35	239.53	8.69	-49.4	-52.0	20.2	6.01e-01	0	56	0	604504064	61	5036
2026-01-04 03:39:48.20	239.49	8.62	-49.3	-51.9	20.4	6.01e-01	0	56	0	606076928	61	4938
2026-01-04 03:39:49.32	239.42	8.52	-49.3	-52.0	20.2	6.00e-01	0	56	0	608174080	61	4986
2026-01-04 03:39:50.17	239.38	8.45	-49.6	-52.3	19.9	6.00e-01	0	56	0	610271232	61	5212
2026-01-04 03:39:51.30	239.32	8.36	-49.6	-52.4	19.8	6.01e-01	0	57	0	611844096	61	5266
2026-01-04 03:39:52.15	239.27	8.29	-49.6	-52.4	19.8	6.01e-01	0	56	0	613416960	61	5262
2026-01-04 03:39:53.28	239.21	8.19	-49.7	-52.6	19.6	6.00e-01	0	57	0	616038400	61	5346
2026-01-04 03:39:54.13	239.16	8.12	-49.9	-53.0	19.2	6.02e-01	0	56	0	617611264	62	5315
2026-01-04 03:39:55.26	239.10	8.03	-49.8	-52.7	19.4	6.01e-01	0	56	0	619708416	62	5159
2026-01-04 03:39:56.11	239.06	7.96	-49.8	-52.8	19.4	6.02e-01	0	57	0	621281280	62	5211
2026-01-04 03:39:57.24	239.00	7.87	-50.1	-53.4	18.7	6.02e-01	0	56	0	623378432	62	5587
2026-01-04 03:39:58.09	238.96	7.80	-49.9	-53.0	19.1	6.01e-01	0	57	0	624951296	62	5333
2026-01-04 03:39:59.22	238.90	7.71	-50.0	-53.2	18.9	6.03e-01	0	57	0	627048448	62	5458
2026-01-04 03:40:00.06	238.85	7.64	-50.0	-53.1	19.0	6.02e-01	0	56	0	628621312	62	5399
2026-01-04 03:40:01.19	238.80	7.55	-49.8	-52.9	19.2	6.00e-01	0	56	0	630718464	62	5222
2026-01-04 03:40:02.04	238.75	7.48	-49.7	-52.8	19.3	6.00e-01	0	57	0	632291328	62	5180
2026-01-04 03:40:03.16	238.70	7.39	-49.8	-52.9	19.2	5.99e-01	0	56	0	634388480	62	5223
2026-01-04 03:40:04.01	238.65	7.32	-49.8	-52.9	19.2	5.99e-01	0	56	0	635961344	62	5242
2026-01-04 03:40:05.14	238.60	7.23	-49.7	-52.7	19.3	6.00e-01	0	57	0	638058496	62	5149
2026-01-04 03:40:05.99	238.56	7.16	-49.8	-52.9	19.1	6.03e-01	0	56	0	639631360	62	5262
2026-01-04 03:40:07.12	238.50	7.07	-49.6	-52.7	19.3	6.01e-01	0	57	0	641728512	62	5106
2026-01-04 03:40:07.97	238.46	7.01	-49.5	-52.5	19.5	6.02e-01	0	57	0	643301376	62	4996
2026-01-04 03:40:09.11	238.40	6.92	-49.5	-52.5	19.4	6.01e-01	0	57	0	645398528	62	5002
2026-01-04 03:40:09.95	238.36	6.85	-49.6	-52.6	19.3	6.02e-01	0	57	0	646971392	62	5067
2026-01-04 03:40:11.08	238.31	6.76	-49.6	-52.7	19.2	6.02e-01	0	56	0	649068544	62	5119
2026-01-04 03:40:11.92	238.27	6.70	-49.8	-53.0	18.9	6.00e-01	0	57	0	650641408	62	5339
2026-01-04 03:40:13.06	238.21	6.61	-49.8	-53.1	18.8	6.00e-01	0	57	0	652738560	62	5360
2026-01-04 03:40:13.91	238.17	6.54	-49.7	-52.8	19.1	6.00e-01	0	56	0	654311424	62	5185
2026-01-04 03:40:15.03	238.12	6.46	-49.8	-53.1	18.8	6.00e-01	0	56	0	656408576	62	5345
2026-01-04 03:40:15.88	238.08	6.39	-49.9	-53.2	18.7	6.02e-01	0	56	0	657981440	62	5424
2026-01-04 03:40:17.01	238.03	6.30	-49.7	-53.0	18.9	5.98e-01	0	56	0	660602880	62	5280
2026-01-04 03:40:17.86	237.99	6.24	-49.7	-52.9	18.9	6.00e-01	0	56	0	662175744	62	5266
2026-01-04 03:40:18.99	237.94	6.15	-49.7	-52.9	18.9	6.01e-01	0	57	0	664272896	62	5240
2026-01-04 03:40:19.84	237.90	6.09	-49.8	-53.1	18.7	6.01e-01	0	57	0	665845760	62	5356
2026-01-04 03:40:20.97	237.85	6.00	-49.9	-53.4	18.4	5.98e-01	0	56	0	667942912	62	5549
2026-01-04 03:40:21.82	237.81	5.94	-49.9	-53.4	18.3	6.00e-01	0	57	0	669515776	62	5577
2026-01-04 03:40:22.95	237.76	5.85	-50.0	-53.6	18.1	6.00e-01	0	56	0	671612928	62	5705
2026-01-04 03:40:23.80	237.72	5.79	-50.0	-53.5	18.2	6.01e-01	0	57	0	673185792	62	5653
2026-01-04 03:40:24.94	237.67	5.70	-50.0	-53.6	18.0	6.00e-01	0	57	0	675282944	62	5708
2026-01-04 03:40:25.79	237.64	5.64	-50.0	-53.7	18.0	5.98e-01	0	56	0	676855808	62	5729
2026-01-04 03:40:26.91	237.59	5.56	-50.2	-54.0	17.7	6.01e-01	0	56	0	678952960	62	5958
2026-01-04 03:40:27.75	237.55	5.49	-50.1	-53.8	17.9	6.00e-01	0	57	0	680525824	62	5799
2026-01-04 03:40:28.88	237.50	5.41	-50.1	-53.8	17.9	5.99e-01	0	56	0	682622976	62	5819
2026-01-04 03:40:29.72	237.47	5.35	-50.1	-54.0	17.7	6.01e-01	0	56	0	684195840	62	5925
2026-01-04 03:40:30.86	237.42	5.26	-50.1	-53.9	17.7	6.01e-01	0	56	0	686292992	62	5858
2026-01-04 03:40:31.71	237.38	5.20	-50.1	-54.0	17.6	6.01e-01	0	56	0	687865856	62	5935
2026-01-04 03:40:32.83	237.33	5.12	-50.1	-54.0	17.6	6.00e-01	0	57	0	689963008	62	5947
2026-01-04 03:40:33.68	237.30	5.06	-50.1	-54.1	17.5	6.02e-01	0	56	0	691535872	62	6002
2026-01-04 03:40:34.81	237.25	4.97	-53.2	-72.2	3.8	7.48e-01	0	56	104	692584448	68	34126
2026-01-04 03:40:35.65	237.22	4.91	-53.6	-73.2	3.8	7.49e-01	0	56	104	692584448	69	36376
2026-01-04 03:40:36.78	237.17	4.83	-53.8	-73.7	3.8	7.46e-01	0	56	104	692584448	69	38303
2026-01-04 03:40:37.63	237.14	4.77	-53.8	-73.7	3.8	7.45e-01	0	56	104	692584448	69	38587
2026-01-04 03:40:38.77	237.09	4.69	-53.1	-72.7	3.8	7.44e-01	0	57	104	692584448	69	34276
2026-01-04 03:40:39.62	237.06	4.63	-53.9	-73.9	3.8	7.44e-01	0	56	104	692584448	70	37212
2026-01-04 03:40:40.75	237.01	4.55	-54.1	-74.0	3.8	7.45e-01	0	56	104	692584448	70	37719
2026-01-04 03:40:41.60	236.98	4.48	-54.2	-74.1	3.8	7.44e-01	0	56	104	692584448	70	38033
2026-01-04 03:40:42.74	236.93	4.40	-54.2	-74.1	3.8	7.48e-01	0	56	104	692584448	70	38169
2026-01-04 03:40:43.58	236.90	4.34	-54.2	-74.1	3.8	7.47e-01	0	57	104	692584448	70	38043
2026-01-04 03:40:44.72	236.85	4.26	-54.2	-74.2	3.8	7.45e-01	0	57	104	692584448	70	38354
2026-01-04 03:40:45.57	236.82	4.20	-54.3	-74.2	3.8	7.44e-01	0	56	104	692584448	70	38372
2026-01-04 03:40:46.70	236.78	4.12	-54.3	-74.2	3.8	7.46e-01	0	57	104	692584448	70	38491
2026-01-04 03:40:47.55	236.74	4.06	-54.3	-74.2	3.8	7.47e-01	0	57	104	692584448	70	38581
2026-01-04 03:40:48.68	236.70	3.98	-54.3	-74.3	3.8	7.47e-01	0	56	104	692584448	70	38760
2026-01-04 03:40:49.52	236.67	3.93	-54.4	-74.3	3.8	7.47e-01	0	56	104	692584448	70	38845
2026-01-04 03:40:50.65	236.63	3.85	-54.4	-74.3	3.8	7.43e-01	0	56	104	692584448	70	38941
2026-01-04 03:40:51.50	236.59	3.79	-54.4	-74.3	3.8	7.46e-01	0	57	104	692584448	70	38913
2026-01-04 03:40:52.63	236.55	3.71	-54.4	-74.3	3.8	7.44e-01	0	57	104	692584448	71	36856
2026-01-04 03:40:53.49	236.52	3.65	-54.4	-74.3	3.8	7.46e-01	0	57	104	692584448	71	36882
2026-01-04 03:40:54.61	236.48	3.57	-54.4	-74.3	3.8	7.44e-01	0	57	104	692584448	71	36917
2026-01-04 03:40:55.46	236.45	3.51	-54.4	-74.3	3.8	7.45e-01	0	57	104	692584448	71	36929
2026-01-04 03:40:56.58	236.40	3.44	-54.4	-74.4	3.8	7.45e-01	0	57	104	692584448	71	37090
2026-01-04 03:40:57.43	236.37	3.38	-54.4	-74.4	3.8	7.43e-01	0	57	104	692584448	71	37037
2026-01-04 03:40:58.56	236.33	3.30	-54.4	-74.4	3.8	7.46e-01	0	56	104	692584448	71	37137
2026-01-04 03:40:59.41	236.30	3.24	-54.4	-74.4	3.8	7.46e-01	0	57	104	692584448	71	37109
2026-01-04 03:41:00.54	236.26	3.17	-54.5	-74.4	3.8	7.46e-01	0	57	104	692584448	71	37102
2026-01-04 03:41:01.39	236.23	3.11	-54.4	-74.4	3.8	7.50e-01	0	57	104	692584448	71	37121
2026-01-04 03:41:02.53	236.19	3.03	-54.4	-74.4	3.8	7.46e-01	0	57	104	692584448	71	37003
2026-01-04 03:41:03.38	236.16	2.97	-54.4	-74.4	3.8	7.45e-01	0	57	104	692584448	71	37064

#Closed at: 2026-01-04 03:41:04
#Recorded file [692 MB]: D:/Data/31026_260104_064034.dat