passes_logs/2026/01/04/R3.0SM8_Murmansk_STILSPACE/R3.0SM8_Murmansk_STILSPACE__20260104_061622_SUOMI_NPP_rec.log

#Pass ID: 20260104_061622_SUOMI NPP
#Satellite: SUOMI NPP
#Configuration: NPP
#almurnet v.1.7.20240730
#Start time: 2026-01-04 06:16:22

#Version: 2.2.20231116
#Station: R3.0SM8_Murmansk_STILSPACE
#Location: 33.092731 lon 68.902999 lat
#TLE: 1 37849U 11061A   26001.07732418  .00000182  00000+0  10735-3 0  9990
#TLE: 2 37849  98.7795 303.2470 0002580  87.2016 272.9455 14.19520779734739

#Time	Az	El	Level	Level2	SNR	BER	BlckErr	Temp	State	Recorded	gain1	gain2
2026-01-04 06:16:22.04	78.44	2.98	-52.4	-66.1	3.8	1.49e+00	0	45	0	0	66	18688
2026-01-04 06:16:23.02	78.37	3.04	-52.2	-66.0	3.8	1.49e+00	0	46	104	0	67	17451
2026-01-04 06:16:24.01	78.31	3.09	-52.2	-66.0	3.8	1.49e+00	0	45	104	0	67	17282
2026-01-04 06:16:25.01	78.25	3.15	-52.1	-65.9	3.8	1.49e+00	0	46	104	0	67	17180
2026-01-04 06:16:26.00	78.18	3.21	-52.1	-65.8	3.8	1.49e+00	0	46	104	0	67	17063
2026-01-04 06:16:26.99	78.12	3.27	-52.0	-65.8	3.8	1.49e+00	0	46	104	0	66	17896
2026-01-04 06:16:27.97	78.05	3.33	-51.8	-65.6	3.8	1.49e+00	0	46	104	0	66	17648
2026-01-04 06:16:28.96	77.99	3.39	-51.6	-65.4	3.8	1.49e+00	0	46	104	0	66	17199
2026-01-04 06:16:29.94	77.93	3.45	-51.5	-65.3	3.8	1.49e+00	0	46	104	0	66	16962
2026-01-04 06:16:30.93	77.86	3.51	-51.5	-65.3	3.8	1.49e+00	0	46	104	0	66	16895
2026-01-04 06:16:31.92	77.79	3.57	-51.5	-65.3	3.8	1.49e+00	0	46	104	0	66	16890
2026-01-04 06:16:32.92	77.73	3.63	-51.5	-65.2	3.8	1.49e+00	0	46	104	0	65	17846
2026-01-04 06:16:33.91	77.66	3.69	-51.5	-65.2	3.8	1.49e+00	0	46	104	0	65	17836
2026-01-04 06:16:34.89	77.60	3.75	-51.5	-65.2	3.8	1.49e+00	0	47	104	0	65	17853
2026-01-04 06:16:35.89	77.53	3.81	-51.4	-65.2	3.8	1.49e+00	0	46	104	0	65	17882
2026-01-04 06:16:36.88	77.46	3.87	-51.4	-65.2	3.8	1.49e+00	0	47	104	0	65	17846
2026-01-04 06:16:37.87	77.39	3.93	-51.4	-65.2	3.8	1.49e+00	0	47	104	0	65	17863
2026-01-04 06:16:38.86	77.33	3.99	-51.4	-65.3	3.8	1.49e+00	0	47	104	0	65	17927
2026-01-04 06:16:39.85	77.26	4.05	-51.4	-65.3	3.8	1.49e+00	0	47	104	0	65	17893
2026-01-04 06:16:40.84	77.19	4.11	-51.5	-65.2	3.8	1.49e+00	0	47	104	0	65	17872
2026-01-04 06:16:41.85	77.12	4.17	-51.5	-65.2	3.8	1.49e+00	0	47	104	0	65	17800
2026-01-04 06:16:42.84	77.05	4.23	-51.5	-65.2	3.8	1.49e+00	0	47	104	0	65	17703
2026-01-04 06:16:43.82	76.98	4.29	-51.5	-65.0	3.8	1.49e+00	0	47	104	0	65	17407
2026-01-04 06:16:44.81	76.91	4.35	-51.5	-64.9	3.8	1.49e+00	0	47	104	0	65	17198
2026-01-04 06:16:45.80	76.84	4.41	-51.5	-64.6	3.8	1.49e+00	0	47	104	0	65	16631
2026-01-04 06:16:46.78	76.78	4.47	-51.4	-64.3	3.8	1.49e+00	0	47	104	0	65	16055
2026-01-04 06:16:47.78	76.70	4.53	-51.4	-63.8	3.8	1.49e+00	0	47	104	0	65	15196
2026-01-04 06:16:48.77	76.63	4.59	-51.3	-63.0	3.8	1.49e+00	0	47	104	0	65	13806
2026-01-04 06:16:49.77	76.56	4.66	-51.3	-62.4	4.0	1.47e+00	0	47	104	0	65	12882
2026-01-04 06:16:50.76	76.49	4.72	-51.3	-61.9	4.1	1.42e+00	0	48	0	0	65	12182
2026-01-04 06:16:51.75	76.42	4.78	-51.1	-60.9	4.4	1.28e+00	0	48	0	0	65	10878
2026-01-04 06:16:52.74	76.35	4.84	-51.1	-60.4	4.6	9.13e-01	0	48	0	2097152	65	10267
2026-01-04 06:16:53.72	76.28	4.90	-51.0	-59.9	4.9	8.64e-01	0	48	0	4194304	65	9617
2026-01-04 06:16:54.71	76.20	4.96	-50.9	-59.1	5.4	6.57e-01	0	48	0	5242880	64	9302
2026-01-04 06:16:55.70	76.13	5.02	-50.7	-58.6	5.7	4.28e-01	0	48	0	7340032	64	8765
2026-01-04 06:16:56.70	76.06	5.09	-50.7	-58.4	5.8	3.76e-01	0	48	0	9437184	64	8615
2026-01-04 06:16:57.69	75.98	5.15	-50.8	-58.6	5.8	3.74e-01	0	48	0	11534336	64	8768
2026-01-04 06:16:58.69	75.91	5.21	-50.7	-58.4	5.9	4.46e-01	0	48	0	13631488	64	8569
2026-01-04 06:16:59.68	75.83	5.27	-50.7	-58.2	6.0	3.44e-01	0	48	0	14680064	64	8453
2026-01-04 06:17:00.66	75.76	5.33	-50.7	-57.8	6.4	2.63e-01	0	48	0	16777216	64	8010
2026-01-04 06:17:01.66	75.69	5.40	-50.6	-57.6	6.4	2.34e-01	0	48	0	18874368	64	7899
2026-01-04 06:17:02.65	75.61	5.46	-50.6	-57.7	6.5	2.48e-01	0	48	0	20971520	64	7908
2026-01-04 06:17:03.64	75.54	5.52	-50.8	-58.4	5.9	2.91e-01	0	48	0	22020096	64	8566
2026-01-04 06:17:04.64	75.46	5.59	-50.8	-58.2	6.0	4.24e-01	0	49	0	24117248	64	8421
2026-01-04 06:17:05.63	75.38	5.65	-50.6	-57.1	6.9	2.34e-01	0	49	0	26214400	64	7450
2026-01-04 06:17:06.62	75.31	5.71	-50.4	-56.4	7.7	1.05e-01	0	49	0	28311552	63	7287
2026-01-04 06:17:07.60	75.23	5.77	-50.2	-55.8	8.3	5.73e-02	0	49	0	29360128	63	6743
2026-01-04 06:17:08.59	75.15	5.84	-49.9	-54.8	9.3	2.73e-02	0	49	0	31457280	62	6400
2026-01-04 06:17:09.58	75.08	5.90	-49.8	-54.5	9.6	1.46e-02	0	49	0	33554432	62	6148
2026-01-04 06:17:10.56	75.00	5.96	-49.6	-54.0	10.1	6.17e-03	0	49	0	35651584	62	5834
2026-01-04 06:17:11.55	74.92	6.03	-49.3	-53.5	10.6	4.73e-03	0	49	0	36700160	61	5811
2026-01-04 06:17:12.54	74.84	6.09	-49.2	-53.2	11.0	3.00e-03	0	49	0	38797312	61	5631
2026-01-04 06:17:13.53	74.76	6.15	-49.0	-52.9	11.3	1.98e-03	0	49	0	40894464	61	5437
2026-01-04 06:17:14.52	74.68	6.22	-48.8	-52.5	11.7	8.77e-04	0	49	0	42991616	60	5482
2026-01-04 06:17:15.50	74.60	6.28	-48.8	-52.4	11.8	4.20e-04	0	49	0	45088768	60	5454
2026-01-04 06:17:16.48	74.53	6.34	-48.9	-52.6	11.7	7.02e-04	0	49	0	46137344	60	5542
2026-01-04 06:17:17.46	74.45	6.41	-49.1	-52.8	11.4	6.10e-04	0	49	0	48234496	60	5714
2026-01-04 06:17:18.44	74.37	6.47	-49.0	-52.7	11.5	8.08e-04	0	49	0	50331648	60	5614
2026-01-04 06:17:19.43	74.28	6.53	-48.9	-52.3	11.9	3.85e-04	0	49	0	52428800	60	5402
2026-01-04 06:17:20.42	74.20	6.60	-48.8	-52.3	12.0	4.71e-04	0	49	0	53477376	60	5360
2026-01-04 06:17:21.42	74.12	6.66	-49.0	-52.5	11.7	3.61e-04	0	49	0	55574528	60	5516
2026-01-04 06:17:22.40	74.04	6.73	-49.0	-52.6	11.6	7.20e-04	0	49	0	57671680	60	5556
2026-01-04 06:17:23.39	73.96	6.79	-49.0	-52.5	11.8	4.88e-04	0	49	0	59768832	60	5505
2026-01-04 06:17:24.38	73.87	6.86	-49.1	-52.9	11.4	6.78e-04	0	50	0	60817408	60	5744
2026-01-04 06:17:25.37	73.79	6.92	-49.4	-53.4	10.8	1.35e-03	0	50	0	62914560	60	6126
2026-01-04 06:17:26.36	73.71	6.99	-49.0	-52.6	11.7	8.70e-04	0	50	0	65011712	60	5548
2026-01-04 06:17:27.36	73.62	7.05	-48.9	-52.5	11.8	5.33e-04	0	50	0	67108864	60	5508
2026-01-04 06:17:28.34	73.54	7.12	-48.8	-52.2	12.1	4.09e-04	0	50	0	69206016	60	5332
2026-01-04 06:17:29.33	73.45	7.18	-48.7	-52.0	12.3	2.25e-04	0	50	0	70254592	60	5196
2026-01-04 06:17:30.32	73.37	7.25	-48.5	-51.7	12.6	1.07e-04	0	50	0	72351744	60	4988
2026-01-04 06:17:31.31	73.28	7.31	-48.5	-51.6	12.6	8.31e-05	0	50	0	74448896	60	4983
2026-01-04 06:17:32.30	73.20	7.38	-48.5	-51.5	12.8	8.46e-05	0	50	0	76546048	60	4909
2026-01-04 06:17:33.29	73.11	7.44	-48.5	-51.6	12.8	4.11e-05	0	50	0	77594624	59	5223
2026-01-04 06:17:34.29	73.02	7.51	-48.6	-51.6	12.8	6.25e-05	0	50	0	79691776	59	5230
2026-01-04 06:17:35.28	72.93	7.58	-48.6	-51.7	12.6	9.53e-05	0	50	0	81788928	59	5314
2026-01-04 06:17:36.26	72.85	7.64	-48.7	-51.8	12.6	7.78e-05	0	50	0	83886080	59	5362
2026-01-04 06:17:37.25	72.76	7.71	-48.7	-51.9	12.5	1.07e-04	0	50	0	84934656	59	5403
2026-01-04 06:17:38.24	72.67	7.77	-48.9	-52.2	12.2	1.57e-04	0	50	0	87031808	59	5625
2026-01-04 06:17:39.24	72.58	7.84	-48.7	-51.9	12.5	2.02e-04	0	50	0	89128960	59	5432
2026-01-04 06:17:40.23	72.49	7.91	-48.9	-52.2	12.2	1.48e-04	0	50	0	91226112	59	5626
2026-01-04 06:17:41.21	72.40	7.97	-48.9	-52.2	12.2	2.22e-04	0	50	0	93323264	59	5641
2026-01-04 06:17:42.20	72.31	8.04	-48.9	-52.1	12.2	2.69e-04	0	51	0	94371840	59	5573
2026-01-04 06:17:43.20	72.22	8.11	-48.9	-52.2	12.2	1.64e-04	0	51	0	96468992	59	5629
2026-01-04 06:17:44.19	72.13	8.17	-48.9	-52.2	12.2	2.68e-04	0	50	0	98566144	59	5639
2026-01-04 06:17:45.18	72.04	8.24	-48.9	-52.2	12.3	2.37e-04	0	51	0	100663296	59	5594
2026-01-04 06:17:46.16	71.95	8.31	-49.0	-52.4	11.9	2.31e-04	0	51	0	101711872	59	5747
2026-01-04 06:17:47.15	71.85	8.38	-49.1	-52.9	11.4	5.98e-04	0	51	0	103809024	60	5764
2026-01-04 06:17:48.15	71.76	8.44	-49.1	-52.8	11.7	6.05e-04	0	51	0	105906176	60	5661
2026-01-04 06:17:49.13	71.67	8.51	-49.0	-52.6	11.8	5.20e-04	0	51	0	108003328	60	5579
2026-01-04 06:17:50.11	71.57	8.58	-48.9	-52.4	11.9	5.77e-04	0	51	0	109051904	60	5448
2026-01-04 06:17:51.10	71.48	8.64	-48.9	-52.4	12.0	2.38e-04	0	51	0	111149056	60	5441
2026-01-04 06:17:52.10	71.38	8.71	-49.0	-52.5	11.9	3.04e-04	0	51	0	113246208	60	5490
2026-01-04 06:17:53.08	71.29	8.78	-48.7	-51.9	12.5	1.93e-04	0	51	0	115343360	60	5135
2026-01-04 06:17:54.07	71.20	8.85	-48.7	-52.0	12.5	1.38e-04	0	51	0	116391936	60	5172
2026-01-04 06:17:55.06	71.10	8.92	-48.8	-52.0	12.5	1.23e-04	0	51	0	118489088	60	5214
2026-01-04 06:17:56.05	71.00	8.98	-49.0	-52.4	12.1	2.04e-04	0	51	0	120586240	60	5429
2026-01-04 06:17:57.04	70.91	9.05	-48.8	-52.1	12.4	2.08e-04	0	51	0	122683392	60	5226
2026-01-04 06:17:58.03	70.81	9.12	-49.0	-52.5	12.0	2.72e-04	0	51	0	124780544	60	5468
2026-01-04 06:17:59.02	70.71	9.19	-48.9	-52.2	12.3	2.31e-04	0	51	0	125829120	60	5314
2026-01-04 06:18:00.00	70.61	9.26	-49.0	-52.5	12.0	2.69e-04	0	51	0	127926272	60	5492
2026-01-04 06:18:00.96	70.52	9.32	-49.0	-52.4	12.1	3.66e-04	0	51	0	130023424	60	5446
2026-01-04 06:18:01.94	70.42	9.39	-49.2	-52.8	11.7	3.86e-04	0	51	0	132120576	60	5661
2026-01-04 06:18:02.93	70.32	9.46	-49.0	-52.5	12.0	6.03e-04	0	51	0	133169152	60	5501
2026-01-04 06:18:03.93	70.22	9.53	-48.9	-52.2	12.3	1.91e-04	0	51	0	135266304	60	5306
2026-01-04 06:18:04.91	70.12	9.60	-48.7	-51.9	12.6	1.19e-04	0	51	0	137363456	60	5114
2026-01-04 06:18:05.90	70.02	9.67	-48.7	-51.8	12.7	1.07e-04	0	51	0	139460608	60	5072
2026-01-04 06:18:06.89	69.91	9.74	-48.7	-51.8	12.7	7.24e-05	0	51	0	140509184	60	5046
2026-01-04 06:18:07.87	69.81	9.81	-48.6	-51.7	12.8	5.03e-05	0	51	0	142606336	60	5017
2026-01-04 06:18:08.87	69.71	9.88	-48.8	-52.0	12.6	8.62e-05	0	51	0	144703488	60	5169
2026-01-04 06:18:09.86	69.61	9.95	-48.8	-51.9	12.6	1.27e-04	0	51	0	146800640	60	5152
2026-01-04 06:18:10.85	69.50	10.01	-48.9	-52.3	12.3	1.62e-04	0	51	0	148897792	60	5348
2026-01-04 06:18:11.84	69.40	10.08	-48.7	-51.8	12.7	1.08e-04	0	52	0	149946368	60	5098
2026-01-04 06:18:12.84	69.29	10.16	-48.6	-51.6	12.9	5.79e-05	0	52	0	152043520	60	4943
2026-01-04 06:18:13.83	69.19	10.23	-48.5	-51.3	13.3	2.67e-05	0	52	0	154140672	59	5073
2026-01-04 06:18:14.83	69.08	10.30	-48.3	-51.2	13.4	7.60e-06	0	52	0	156237824	59	4984
2026-01-04 06:18:15.81	68.97	10.37	-48.3	-51.1	13.5	1.29e-05	0	52	0	157286400	59	4943
2026-01-04 06:18:16.80	68.87	10.44	-48.3	-51.1	13.5	9.90e-06	0	52	0	159383552	59	4937
2026-01-04 06:18:17.78	68.76	10.51	-48.3	-51.1	13.5	1.06e-05	0	52	0	161480704	59	4933
2026-01-04 06:18:18.77	68.65	10.58	-48.4	-51.2	13.3	1.37e-05	0	52	0	163577856	59	5031
2026-01-04 06:18:19.76	68.55	10.65	-48.3	-51.0	13.6	1.14e-05	0	52	0	164626432	59	4885
2026-01-04 06:18:20.75	68.44	10.72	-48.3	-51.0	13.5	5.30e-06	0	52	0	166723584	59	4925
2026-01-04 06:18:21.74	68.33	10.79	-48.4	-51.3	13.4	1.37e-05	0	52	0	168820736	59	5046
2026-01-04 06:18:22.73	68.22	10.86	-48.3	-50.9	13.7	6.10e-06	0	52	0	170917888	59	4850
2026-01-04 06:18:23.72	68.11	10.93	-48.4	-51.2	13.4	5.30e-06	0	52	0	173015040	59	5016
2026-01-04 06:18:24.71	67.99	11.00	-48.5	-51.3	13.3	1.75e-05	0	52	0	174063616	59	5052
2026-01-04 06:18:25.69	67.88	11.07	-48.4	-51.1	13.5	1.22e-05	0	52	0	176160768	59	4973
2026-01-04 06:18:26.69	67.77	11.14	-48.5	-51.4	13.2	2.67e-05	0	52	0	178257920	59	5115
2026-01-04 06:18:27.68	67.66	11.22	-48.5	-51.4	13.2	2.97e-05	0	52	0	180355072	59	5151
2026-01-04 06:18:28.67	67.54	11.29	-48.5	-51.3	13.3	1.98e-05	0	52	0	181403648	59	5100
2026-01-04 06:18:29.65	67.43	11.36	-48.6	-51.5	13.1	2.44e-05	0	52	0	183500800	59	5206
2026-01-04 06:18:30.64	67.32	11.43	-48.5	-51.4	13.2	3.05e-05	0	52	0	185597952	59	5128
2026-01-04 06:18:31.62	67.20	11.50	-48.7	-51.6	13.0	2.82e-05	0	52	0	187695104	59	5260
2026-01-04 06:18:32.61	67.09	11.57	-48.8	-51.8	12.9	3.43e-05	0	52	0	188743680	59	5357
2026-01-04 06:18:33.61	66.97	11.64	-48.8	-51.9	12.8	6.94e-05	0	52	0	190840832	59	5406
2026-01-04 06:18:34.59	66.85	11.72	-48.9	-51.9	12.7	7.40e-05	0	52	0	192937984	59	5461
2026-01-04 06:18:35.59	66.73	11.79	-48.8	-51.7	12.9	8.54e-05	0	53	0	195035136	59	5322
2026-01-04 06:18:36.58	66.62	11.86	-48.9	-52.0	12.7	7.32e-05	0	52	0	196083712	59	5478
2026-01-04 06:18:37.57	66.50	11.93	-49.0	-52.3	12.4	1.10e-04	0	53	0	198180864	59	5697
2026-01-04 06:18:38.56	66.38	12.01	-48.8	-52.0	12.6	1.40e-04	0	53	0	200278016	60	5205
2026-01-04 06:18:39.55	66.26	12.08	-48.7	-52.0	12.7	9.00e-05	0	53	0	202375168	60	5166
2026-01-04 06:18:40.54	66.14	12.15	-48.5	-51.6	13.1	5.64e-05	0	53	0	204472320	60	4933
2026-01-04 06:18:41.53	66.02	12.22	-48.5	-51.2	13.4	1.37e-05	0	53	0	205520896	59	5041
2026-01-04 06:18:42.52	65.90	12.30	-48.4	-51.1	13.6	1.06e-05	0	53	0	207618048	59	4954
2026-01-04 06:18:43.51	65.77	12.37	-48.2	-50.9	13.7	3.80e-06	0	53	0	209715200	59	4856
2026-01-04 06:18:44.50	65.65	12.44	-48.3	-51.0	13.7	3.80e-06	0	53	0	211812352	59	4872
2026-01-04 06:18:45.50	65.53	12.52	-48.3	-51.0	13.7	6.80e-06	0	53	0	212860928	59	4880
2026-01-04 06:18:46.48	65.40	12.59	-48.2	-50.7	13.9	2.20e-06	0	53	0	214958080	59	4759
2026-01-04 06:18:47.47	65.28	12.66	-48.0	-50.5	14.2	7.00e-07	0	53	0	217055232	59	4628
2026-01-04 06:18:48.46	65.15	12.74	-48.0	-50.5	14.1	7.00e-07	0	53	0	219152384	59	4649
2026-01-04 06:18:49.45	65.03	12.81	-48.1	-50.6	14.1	1.50e-06	0	53	0	221249536	59	4654
2026-01-04 06:18:50.44	64.90	12.88	-47.8	-50.1	14.6	7.00e-07	0	53	0	222298112	58	4683
2026-01-04 06:18:51.43	64.77	12.96	-47.7	-49.9	14.8	0.00e+00	0	53	0	224395264	58	4589
2026-01-04 06:18:52.42	64.64	13.03	-47.7	-50.0	14.7	0.00e+00	0	53	0	226492416	58	4615
2026-01-04 06:18:53.41	64.51	13.10	-47.7	-49.9	14.7	0.00e+00	0	53	0	228589568	58	4598
2026-01-04 06:18:54.39	64.39	13.18	-47.7	-50.0	14.8	0.00e+00	0	53	0	229638144	58	4602
2026-01-04 06:18:55.39	64.26	13.25	-47.8	-50.1	14.6	0.00e+00	0	53	0	231735296	58	4683
2026-01-04 06:18:56.38	64.12	13.32	-47.7	-50.0	14.7	7.00e-07	0	53	0	233832448	58	4626
2026-01-04 06:18:57.37	63.99	13.40	-47.7	-50.1	14.6	7.00e-07	0	53	0	235929600	58	4652
2026-01-04 06:18:58.36	63.86	13.47	-47.8	-50.1	14.6	0.00e+00	0	53	0	236978176	58	4663
2026-01-04 06:18:59.34	63.73	13.55	-47.7	-50.0	14.7	0.00e+00	0	53	0	239075328	58	4641
2026-01-04 06:19:00.33	63.60	13.62	-47.8	-50.2	14.5	0.00e+00	0	53	0	241172480	58	4733
2026-01-04 06:19:01.32	63.46	13.69	-47.9	-50.2	14.5	7.00e-07	0	53	0	243269632	58	4737
2026-01-04 06:19:02.31	63.33	13.77	-47.9	-50.3	14.5	0.00e+00	0	53	0	245366784	58	4772
2026-01-04 06:19:03.30	63.19	13.84	-47.8	-50.1	14.6	7.00e-07	0	53	0	246415360	58	4692
2026-01-04 06:19:04.29	63.06	13.92	-47.7	-50.0	14.8	7.00e-07	0	53	0	248512512	58	4603
2026-01-04 06:19:05.29	62.92	13.99	-47.7	-50.0	14.7	0.00e+00	0	53	0	250609664	58	4619
2026-01-04 06:19:06.28	62.78	14.07	-47.7	-50.0	14.8	0.00e+00	0	53	0	252706816	58	4624
2026-01-04 06:19:07.27	62.64	14.14	-47.7	-50.0	14.7	0.00e+00	0	53	0	253755392	58	4639
2026-01-04 06:19:08.26	62.50	14.22	-47.7	-50.0	14.7	0.00e+00	0	53	0	255852544	58	4628
2026-01-04 06:19:09.25	62.36	14.29	-47.6	-49.8	15.0	7.00e-07	0	53	0	257949696	58	4513
2026-01-04 06:19:10.24	62.22	14.37	-47.6	-49.7	15.0	0.00e+00	0	53	0	260046848	58	4467
2026-01-04 06:19:11.24	62.08	14.44	-47.5	-49.7	15.0	0.00e+00	0	53	0	261095424	58	4456
2026-01-04 06:19:12.22	61.94	14.52	-47.4	-49.5	15.2	0.00e+00	0	53	0	263192576	57	4640
2026-01-04 06:19:13.22	61.79	14.59	-47.5	-49.7	15.0	7.00e-07	0	53	0	265289728	57	4759
2026-01-04 06:19:14.21	61.65	14.67	-47.5	-49.6	15.1	0.00e+00	0	53	0	267386880	57	4681
2026-01-04 06:19:15.19	61.51	14.74	-47.5	-49.7	15.0	0.00e+00	0	53	0	269484032	57	4741
2026-01-04 06:19:16.18	61.36	14.82	-47.6	-49.9	14.8	0.00e+00	0	53	0	270532608	57	4834
2026-01-04 06:19:17.17	61.22	14.89	-47.4	-49.6	15.1	0.00e+00	0	54	0	272629760	57	4684
2026-01-04 06:19:18.16	61.07	14.97	-47.5	-49.6	15.1	0.00e+00	0	53	0	274726912	57	4702
2026-01-04 06:19:19.15	60.92	15.04	-47.6	-49.9	14.9	0.00e+00	0	53	0	276824064	57	4824
2026-01-04 06:19:20.14	60.78	15.12	-47.4	-49.6	15.2	0.00e+00	0	54	0	277872640	57	4652
2026-01-04 06:19:21.12	60.63	15.19	-47.4	-49.6	15.1	0.00e+00	0	54	0	279969792	57	4684
2026-01-04 06:19:22.11	60.48	15.27	-47.5	-49.7	15.1	0.00e+00	0	54	0	282066944	57	4747
2026-01-04 06:19:23.10	60.33	15.34	-47.5	-49.7	15.0	0.00e+00	0	54	0	284164096	57	4756
2026-01-04 06:19:24.09	60.18	15.42	-47.7	-50.0	14.8	0.00e+00	0	54	0	286261248	57	4884
2026-01-04 06:19:25.08	60.03	15.50	-47.8	-50.2	14.6	7.00e-07	0	54	0	287309824	57	4991
2026-01-04 06:19:26.06	59.88	15.57	-48.0	-50.6	14.2	7.00e-07	0	54	0	289406976	57	5241
2026-01-04 06:19:27.05	59.72	15.65	-48.0	-50.6	14.2	0.00e+00	0	54	0	291504128	57	5244
2026-01-04 06:19:28.04	59.57	15.72	-47.9	-50.5	14.3	7.00e-07	0	54	0	292552704	57	5160
2026-01-04 06:19:29.03	59.41	15.80	-48.1	-50.6	14.1	1.50e-06	0	54	0	294649856	58	4979
2026-01-04 06:19:30.01	59.26	15.87	-48.1	-50.6	14.2	2.20e-06	0	54	0	296747008	58	4958
2026-01-04 06:19:31.00	59.10	15.95	-48.2	-50.9	13.9	3.80e-06	0	54	0	298844160	58	5126
2026-01-04 06:19:32.00	58.95	16.02	-48.1	-50.7	14.1	4.50e-06	0	54	0	300941312	58	5010
2026-01-04 06:19:32.99	58.79	16.10	-48.2	-50.8	13.9	6.10e-06	0	54	0	301989888	58	5069
2026-01-04 06:19:33.98	58.63	16.17	-48.2	-50.9	14.0	4.50e-06	0	54	0	304087040	58	5105
2026-01-04 06:19:34.97	58.47	16.25	-48.2	-50.7	14.0	3.00e-06	0	54	0	306184192	58	5036
2026-01-04 06:19:35.95	58.31	16.33	-48.1	-50.6	14.2	2.20e-06	0	54	0	308281344	58	4967
2026-01-04 06:19:36.94	58.15	16.40	-48.1	-50.6	14.2	7.00e-07	0	54	0	309329920	58	4948
2026-01-04 06:19:37.93	57.99	16.48	-48.1	-50.6	14.2	2.20e-06	0	54	0	311427072	58	4970
2026-01-04 06:19:38.92	57.82	16.55	-48.3	-51.0	13.9	3.00e-06	0	54	0	313524224	58	5161
2026-01-04 06:19:39.90	57.66	16.63	-48.4	-51.1	13.8	5.30e-06	0	54	0	315621376	58	5240
2026-01-04 06:19:40.89	57.50	16.70	-48.5	-51.3	13.5	5.30e-06	0	54	0	317718528	58	5347
2026-01-04 06:19:41.88	57.33	16.78	-48.3	-50.9	13.9	5.30e-06	0	54	0	318767104	58	5120
2026-01-04 06:19:42.87	57.16	16.85	-48.3	-50.8	14.0	4.50e-06	0	54	0	320864256	58	5078
2026-01-04 06:19:43.86	57.00	16.93	-48.5	-51.2	13.7	5.30e-06	0	54	0	322961408	58	5314
2026-01-04 06:19:44.84	56.83	17.00	-48.3	-51.0	13.8	3.00e-06	0	54	0	325058560	58	5206
2026-01-04 06:19:45.82	56.66	17.08	-48.5	-51.2	13.6	8.30e-06	0	54	0	326107136	58	5320
2026-01-04 06:19:46.81	56.49	17.16	-48.3	-50.9	14.0	3.80e-06	0	54	0	328204288	58	5130
2026-01-04 06:19:47.81	56.32	17.23	-48.0	-50.5	14.4	0.00e+00	0	54	0	330301440	58	4881
2026-01-04 06:19:48.80	56.15	17.31	-47.9	-50.3	14.6	0.00e+00	0	54	0	332398592	58	4774
2026-01-04 06:19:49.79	55.98	17.38	-47.6	-49.9	14.9	0.00e+00	0	54	0	333447168	58	4564
2026-01-04 06:19:50.77	55.81	17.46	-47.8	-50.2	14.7	0.00e+00	0	54	0	335544320	58	4708
2026-01-04 06:19:51.75	55.63	17.53	-47.8	-50.1	14.8	0.00e+00	0	54	0	337641472	58	4675
2026-01-04 06:19:52.75	55.46	17.61	-47.7	-50.0	14.8	7.00e-07	0	54	0	339738624	58	4620
2026-01-04 06:19:53.74	55.28	17.68	-47.7	-50.0	14.9	0.00e+00	0	54	0	341835776	58	4624
2026-01-04 06:19:54.73	55.10	17.76	-47.9	-50.3	14.5	0.00e+00	0	54	0	342884352	58	4793
2026-01-04 06:19:55.73	54.92	17.83	-48.0	-50.4	14.4	7.00e-07	0	54	0	344981504	58	4864
2026-01-04 06:19:56.72	54.75	17.91	-48.0	-50.5	14.3	0.00e+00	0	54	0	347078656	58	4908
2026-01-04 06:19:57.72	54.56	17.99	-47.9	-50.3	14.5	0.00e+00	0	54	0	349175808	58	4798
2026-01-04 06:19:58.71	54.38	18.06	-47.9	-50.3	14.5	7.00e-07	0	54	0	350224384	58	4804
2026-01-04 06:19:59.69	54.21	18.13	-47.8	-50.1	14.8	0.00e+00	0	54	0	352321536	58	4694
2026-01-04 06:20:00.69	54.02	18.21	-47.9	-50.3	14.6	0.00e+00	0	54	0	354418688	58	4792
2026-01-04 06:20:01.68	53.84	18.28	-47.8	-50.2	14.7	0.00e+00	0	54	0	356515840	58	4713
2026-01-04 06:20:02.67	53.65	18.36	-47.9	-50.2	14.6	0.00e+00	0	54	0	357564416	58	4756
2026-01-04 06:20:03.66	53.47	18.43	-47.8	-50.1	14.7	0.00e+00	0	54	0	359661568	58	4683
2026-01-04 06:20:04.66	53.28	18.51	-47.8	-50.0	14.8	7.00e-07	0	54	0	361758720	58	4644
2026-01-04 06:20:05.65	53.09	18.58	-47.7	-49.9	15.0	0.00e+00	0	54	0	363855872	58	4560
2026-01-04 06:20:06.64	52.91	18.66	-47.8	-50.1	14.7	0.00e+00	0	54	0	365953024	58	4683
2026-01-04 06:20:07.63	52.72	18.73	-47.8	-50.0	14.9	7.00e-07	0	54	0	367001600	58	4628
2026-01-04 06:20:08.62	52.53	18.81	-47.7	-50.1	14.8	0.00e+00	0	54	0	369098752	58	4654
2026-01-04 06:20:09.61	52.34	18.88	-47.8	-50.2	14.7	0.00e+00	0	54	0	371195904	58	4713
2026-01-04 06:20:10.60	52.15	18.95	-47.9	-50.4	14.5	0.00e+00	0	54	0	373293056	58	4828
2026-01-04 06:20:11.59	51.95	19.03	-47.8	-50.1	14.7	1.50e-06	0	55	0	374341632	58	4701
2026-01-04 06:20:12.57	51.76	19.10	-47.8	-50.0	14.9	0.00e+00	0	55	0	376438784	58	4621
2026-01-04 06:20:13.56	51.57	19.17	-47.7	-50.0	14.9	0.00e+00	0	55	0	378535936	58	4608
2026-01-04 06:20:14.55	51.37	19.25	-47.6	-49.7	15.1	0.00e+00	0	54	0	380633088	58	4489
2026-01-04 06:20:15.54	51.18	19.32	-47.6	-49.7	15.3	0.00e+00	0	55	0	382730240	58	4473
2026-01-04 06:20:16.54	50.98	19.40	-47.5	-49.6	15.3	0.00e+00	0	55	0	383778816	58	4413
2026-01-04 06:20:17.54	50.78	19.47	-47.5	-49.6	15.3	0.00e+00	0	55	0	385875968	57	4655
2026-01-04 06:20:18.53	50.58	19.54	-47.5	-49.6	15.2	0.00e+00	0	55	0	387973120	57	4659
2026-01-04 06:20:19.52	50.38	19.61	-47.4	-49.5	15.3	7.00e-07	0	55	0	390070272	57	4638
2026-01-04 06:20:20.51	50.18	19.69	-47.5	-49.6	15.2	0.00e+00	0	54	0	391118848	57	4698
2026-01-04 06:20:21.49	49.98	19.76	-47.5	-49.6	15.2	0.00e+00	0	55	0	393216000	57	4690
2026-01-04 06:20:22.48	49.77	19.83	-47.5	-49.6	15.2	0.00e+00	0	55	0	395313152	57	4694
2026-01-04 06:20:23.47	49.57	19.90	-47.3	-49.4	15.4	0.00e+00	0	55	0	397410304	57	4555
2026-01-04 06:20:24.46	49.37	19.98	-47.3	-49.4	15.5	0.00e+00	0	55	0	398458880	57	4567
2026-01-04 06:20:25.45	49.16	20.05	-47.2	-49.2	15.6	0.00e+00	0	55	0	400556032	57	4470
2026-01-04 06:20:26.44	48.95	20.12	-46.9	-48.8	16.0	0.00e+00	0	55	0	402653184	56	4535
2026-01-04 06:20:27.43	48.74	20.19	-46.7	-48.5	16.3	0.00e+00	0	55	0	404750336	56	4385
2026-01-04 06:20:28.41	48.54	20.26	-46.7	-48.6	16.3	0.00e+00	0	55	0	405798912	56	4407
2026-01-04 06:20:29.40	48.33	20.33	-46.8	-48.7	16.1	0.00e+00	0	55	0	407896064	56	4475
2026-01-04 06:20:30.38	48.12	20.40	-46.9	-48.7	16.1	0.00e+00	0	55	0	409993216	56	4484
2026-01-04 06:20:31.37	47.91	20.47	-46.7	-48.4	16.4	0.00e+00	0	55	0	412090368	56	4319
2026-01-04 06:20:32.36	47.70	20.54	-46.4	-48.1	16.7	0.00e+00	0	55	0	414187520	56	4182
2026-01-04 06:20:33.35	47.48	20.61	-46.3	-48.0	16.7	0.00e+00	0	55	0	415236096	55	4343
2026-01-04 06:20:34.34	47.27	20.68	-46.3	-47.9	16.8	0.00e+00	0	55	0	417333248	55	4335
2026-01-04 06:20:35.32	47.05	20.75	-46.3	-48.0	16.6	0.00e+00	0	55	0	419430400	55	4384
2026-01-04 06:20:36.31	46.84	20.82	-46.3	-48.0	16.7	0.00e+00	0	55	0	421527552	55	4346
2026-01-04 06:20:37.30	46.62	20.89	-46.6	-48.4	16.3	0.00e+00	0	55	0	422576128	55	4556
2026-01-04 06:20:38.29	46.40	20.96	-46.6	-48.3	16.4	0.00e+00	0	55	0	424673280	55	4537
2026-01-04 06:20:39.28	46.18	21.03	-46.5	-48.2	16.5	0.00e+00	0	55	0	426770432	55	4459
2026-01-04 06:20:40.28	45.96	21.10	-46.4	-48.1	16.6	0.00e+00	0	55	0	428867584	55	4404
2026-01-04 06:20:41.26	45.74	21.16	-46.5	-48.2	16.5	0.00e+00	0	55	0	429916160	55	4481
2026-01-04 06:20:42.25	45.52	21.23	-46.7	-48.5	16.2	0.00e+00	0	55	0	432013312	55	4636
2026-01-04 06:20:43.24	45.29	21.30	-46.8	-48.6	16.1	0.00e+00	0	55	0	434110464	55	4692
2026-01-04 06:20:44.23	45.07	21.37	-46.9	-48.8	16.0	0.00e+00	0	55	0	436207616	55	4790
2026-01-04 06:20:45.22	44.84	21.43	-46.6	-48.4	16.3	0.00e+00	0	55	0	438304768	55	4593
2026-01-04 06:20:46.20	44.62	21.50	-46.6	-48.4	16.3	0.00e+00	0	55	0	439353344	55	4581
2026-01-04 06:20:47.19	44.39	21.56	-46.6	-48.4	16.4	0.00e+00	0	55	0	441450496	55	4568
2026-01-04 06:20:48.16	44.17	21.63	-46.7	-48.5	16.2	0.00e+00	0	55	0	443547648	55	4625
2026-01-04 06:20:49.16	43.94	21.70	-46.9	-48.8	15.9	0.00e+00	0	55	0	445644800	55	4807
2026-01-04 06:20:50.14	43.71	21.76	-46.7	-48.5	16.2	0.00e+00	0	55	0	446693376	55	4636
2026-01-04 06:20:51.13	43.48	21.82	-46.5	-48.2	16.5	0.00e+00	0	55	0	448790528	55	4457
2026-01-04 06:20:52.12	43.24	21.89	-46.2	-47.8	16.9	0.00e+00	0	55	0	450887680	55	4253
2026-01-04 06:20:53.11	43.01	21.95	-46.2	-47.8	16.9	0.00e+00	0	55	0	452984832	55	4257
2026-01-04 06:20:54.09	42.78	22.02	-46.1	-47.7	17.0	0.00e+00	0	55	0	454033408	55	4219
2026-01-04 06:20:55.08	42.54	22.08	-46.3	-47.9	16.9	0.00e+00	0	55	0	456130560	55	4297
2026-01-04 06:20:56.06	42.31	22.14	-46.2	-47.7	17.0	0.00e+00	0	55	0	458227712	55	4222
2026-01-04 06:20:57.05	42.07	22.21	-46.0	-47.5	17.2	0.00e+00	0	55	0	460324864	55	4138
2026-01-04 06:20:58.05	41.83	22.27	-46.2	-47.7	17.0	0.00e+00	0	55	0	462422016	55	4237
2026-01-04 06:20:59.03	41.60	22.33	-46.1	-47.6	17.2	0.00e+00	0	55	0	463470592	55	4177
2026-01-04 06:21:00.02	41.36	22.39	-46.4	-48.0	16.8	0.00e+00	0	55	0	465567744	55	4363
2026-01-04 06:21:01.01	41.11	22.45	-46.4	-48.0	16.8	0.00e+00	0	55	0	467664896	55	4376
2026-01-04 06:21:02.01	40.87	22.52	-46.6	-48.4	16.4	0.00e+00	0	55	0	469762048	55	4551
2026-01-04 06:21:02.99	40.63	22.58	-46.5	-48.2	16.6	0.00e+00	0	55	0	470810624	55	4449
2026-01-04 06:21:03.98	40.39	22.64	-46.5	-48.2	16.6	0.00e+00	0	55	0	472907776	55	4453
2026-01-04 06:21:04.97	40.14	22.70	-46.8	-48.6	16.3	0.00e+00	0	55	0	475004928	55	4658
2026-01-04 06:21:05.96	39.89	22.76	-46.6	-48.3	16.5	0.00e+00	0	55	0	477102080	55	4497
2026-01-04 06:21:06.95	39.65	22.81	-46.6	-48.3	16.5	0.00e+00	0	55	0	478150656	55	4507
2026-01-04 06:21:07.94	39.40	22.87	-46.6	-48.3	16.5	0.00e+00	0	55	0	480247808	55	4522
2026-01-04 06:21:08.92	39.15	22.93	-46.8	-48.6	16.2	0.00e+00	0	55	0	482344960	55	4672
2026-01-04 06:21:09.91	38.90	22.99	-46.5	-48.2	16.6	0.00e+00	0	55	0	484442112	55	4460
2026-01-04 06:21:10.90	38.65	23.04	-46.2	-47.8	16.9	0.00e+00	0	55	0	485490688	55	4256
2026-01-04 06:21:11.89	38.40	23.10	-46.3	-47.9	16.8	0.00e+00	0	55	0	487587840	55	4318
2026-01-04 06:21:12.88	38.15	23.16	-46.3	-48.0	16.8	0.00e+00	0	55	0	489684992	55	4365
2026-01-04 06:21:13.87	37.90	23.21	-46.7	-48.4	16.4	0.00e+00	0	55	0	491782144	55	4593
2026-01-04 06:21:14.86	37.64	23.27	-46.6	-48.4	16.4	0.00e+00	0	55	0	493879296	55	4551
2026-01-04 06:21:15.85	37.39	23.32	-46.3	-47.9	16.9	0.00e+00	0	55	0	494927872	55	4310
2026-01-04 06:21:16.83	37.14	23.38	-46.0	-47.5	17.3	0.00e+00	0	55	0	497025024	55	4131
2026-01-04 06:21:17.82	36.88	23.43	-45.9	-47.4	17.4	0.00e+00	0	55	0	499122176	54	4327
2026-01-04 06:21:18.82	36.62	23.48	-46.1	-47.7	17.1	0.00e+00	0	55	0	501219328	54	4460
2026-01-04 06:21:19.81	36.36	23.54	-46.2	-47.8	17.0	0.00e+00	0	55	0	502267904	54	4519
2026-01-04 06:21:20.80	36.10	23.59	-46.1	-47.7	17.1	0.00e+00	0	55	0	504365056	54	4464
2026-01-04 06:21:21.80	35.84	23.64	-45.9	-47.4	17.4	0.00e+00	0	55	0	506462208	54	4306
2026-01-04 06:21:22.79	35.58	23.69	-46.0	-47.5	17.3	0.00e+00	0	56	0	508559360	54	4371
2026-01-04 06:21:23.78	35.31	23.74	-45.9	-47.4	17.4	0.00e+00	0	55	0	509607936	54	4301
2026-01-04 06:21:24.78	35.05	23.79	-46.0	-47.5	17.3	0.00e+00	0	55	0	511705088	54	4359
2026-01-04 06:21:25.77	34.78	23.84	-46.2	-47.7	17.1	0.00e+00	0	55	0	513802240	54	4465
2026-01-04 06:21:26.76	34.52	23.89	-46.0	-47.5	17.3	0.00e+00	0	56	0	515899392	54	4388
2026-01-04 06:21:27.74	34.26	23.94	-45.9	-47.3	17.5	0.00e+00	0	55	0	517996544	54	4285
2026-01-04 06:21:28.73	33.99	23.99	-46.2	-47.7	17.1	0.00e+00	0	56	0	519045120	54	4468
2026-01-04 06:21:29.72	33.72	24.03	-46.1	-47.6	17.2	0.00e+00	0	56	0	521142272	54	4417
2026-01-04 06:21:30.70	33.46	24.08	-45.9	-47.4	17.4	0.00e+00	0	56	0	523239424	54	4323
2026-01-04 06:21:31.69	33.19	24.12	-45.9	-47.4	17.3	0.00e+00	0	56	0	525336576	54	4331
2026-01-04 06:21:32.68	32.92	24.17	-46.0	-47.5	17.3	0.00e+00	0	56	0	526385152	54	4357
2026-01-04 06:21:33.67	32.65	24.21	-46.3	-47.8	17.0	0.00e+00	0	56	0	528482304	54	4534
2026-01-04 06:21:34.66	32.38	24.26	-45.9	-47.4	17.3	0.00e+00	0	56	0	530579456	54	4316
2026-01-04 06:21:35.65	32.11	24.30	-45.9	-47.3	17.4	0.00e+00	0	55	0	532676608	54	4282
2026-01-04 06:21:36.63	31.84	24.34	-45.5	-46.9	17.8	0.00e+00	0	56	0	533725184	54	4071
2026-01-04 06:21:37.62	31.57	24.39	-45.7	-47.1	17.7	0.00e+00	0	56	0	535822336	53	4411
2026-01-04 06:21:38.61	31.29	24.43	-45.9	-47.4	17.4	0.00e+00	0	56	0	537919488	53	4562
2026-01-04 06:21:39.60	31.02	24.47	-46.2	-47.7	17.1	0.00e+00	0	56	0	540016640	54	4458
2026-01-04 06:21:40.59	30.74	24.51	-46.2	-47.7	17.1	0.00e+00	0	56	0	542113792	54	4470
2026-01-04 06:21:41.58	30.47	24.55	-46.3	-47.9	16.9	0.00e+00	0	56	0	543162368	54	4575
2026-01-04 06:21:42.57	30.19	24.59	-46.6	-48.3	16.5	0.00e+00	0	56	0	545259520	55	4520
2026-01-04 06:21:43.56	29.91	24.62	-46.9	-48.6	16.1	0.00e+00	0	56	0	547356672	55	4705
2026-01-04 06:21:44.55	29.63	24.66	-47.4	-49.4	15.5	0.00e+00	0	56	0	549453824	56	4861
2026-01-04 06:21:45.54	29.36	24.70	-47.7	-49.8	15.2	0.00e+00	0	56	0	550502400	57	4770
2026-01-04 06:21:46.53	29.08	24.74	-47.8	-50.0	14.9	0.00e+00	0	56	0	552599552	57	4902
2026-01-04 06:21:47.51	28.80	24.77	-47.9	-50.1	14.9	0.00e+00	0	56	0	554696704	57	4968
2026-01-04 06:21:48.51	28.52	24.81	-47.8	-50.0	14.9	0.00e+00	0	56	0	556793856	57	4905
2026-01-04 06:21:49.50	28.23	24.84	-47.6	-49.7	15.2	7.00e-07	0	56	0	558891008	57	4715
2026-01-04 06:21:50.48	27.96	24.87	-47.4	-49.4	15.6	0.00e+00	0	56	0	559939584	57	4550
2026-01-04 06:21:51.48	27.67	24.91	-47.3	-49.3	15.7	0.00e+00	0	56	0	562036736	57	4531
2026-01-04 06:21:52.47	27.39	24.94	-47.2	-49.1	15.8	0.00e+00	0	56	0	564133888	57	4429
2026-01-04 06:21:53.45	27.11	24.97	-47.3	-49.3	15.6	0.00e+00	0	56	0	566231040	57	4533
2026-01-04 06:21:54.45	26.82	25.00	-47.4	-49.5	15.4	0.00e+00	0	56	0	567279616	57	4644
2026-01-04 06:21:55.44	26.53	25.03	-47.5	-49.6	15.3	0.00e+00	0	56	0	569376768	57	4701
2026-01-04 06:21:56.43	26.25	25.06	-47.4	-49.4	15.5	0.00e+00	0	56	0	571473920	57	4587
2026-01-04 06:21:57.43	25.96	25.09	-47.4	-49.5	15.5	0.00e+00	0	56	0	573571072	57	4606
2026-01-04 06:21:58.42	25.67	25.11	-47.4	-49.4	15.6	0.00e+00	0	56	0	574619648	57	4547
2026-01-04 06:21:59.42	25.39	25.14	-47.4	-49.5	15.5	0.00e+00	0	56	0	576716800	57	4603
2026-01-04 06:22:00.40	25.10	25.17	-47.5	-49.6	15.3	0.00e+00	0	56	0	578813952	57	4683
2026-01-04 06:22:01.39	24.81	25.19	-47.5	-49.5	15.4	0.00e+00	0	56	0	580911104	57	4644
2026-01-04 06:22:02.38	24.53	25.21	-47.6	-49.8	15.2	0.00e+00	0	56	0	581959680	57	4791
2026-01-04 06:22:03.38	24.23	25.24	-47.9	-50.3	14.7	0.00e+00	0	56	0	584056832	57	5059
2026-01-04 06:22:04.36	23.95	25.26	-48.0	-50.4	14.6	7.00e-07	0	56	0	586153984	57	5104
2026-01-04 06:22:05.34	23.66	25.28	-48.1	-50.5	14.4	1.50e-06	0	56	0	588251136	58	4911
2026-01-04 06:22:06.33	23.37	25.30	-48.1	-50.4	14.5	1.50e-06	0	56	0	590348288	58	4865
2026-01-04 06:22:07.32	23.08	25.32	-48.0	-50.3	14.6	7.00e-07	0	56	0	591396864	58	4779
2026-01-04 06:22:08.31	22.79	25.34	-47.9	-50.2	14.7	7.00e-07	0	56	0	593494016	58	4752
2026-01-04 06:22:09.30	22.50	25.36	-48.1	-50.5	14.5	0.00e+00	0	56	0	595591168	58	4879
2026-01-04 06:22:10.30	22.21	25.38	-48.1	-50.5	14.5	0.00e+00	0	56	0	597688320	58	4912
2026-01-04 06:22:11.28	21.92	25.40	-47.9	-50.2	14.8	0.00e+00	0	56	0	598736896	58	4713
2026-01-04 06:22:12.27	21.62	25.41	-47.8	-50.0	14.9	0.00e+00	0	56	0	600834048	58	4641
2026-01-04 06:22:13.25	21.34	25.43	-47.7	-50.0	15.0	0.00e+00	0	56	0	602931200	58	4603
2026-01-04 06:22:14.24	21.04	25.44	-47.8	-50.1	14.9	0.00e+00	0	56	0	605028352	58	4671
2026-01-04 06:22:15.24	20.75	25.46	-47.9	-50.2	14.8	1.50e-06	0	56	0	607125504	58	4715
2026-01-04 06:22:16.24	20.45	25.47	-48.1	-50.5	14.5	0.00e+00	0	56	0	608174080	58	4876
2026-01-04 06:22:17.22	20.16	25.48	-48.2	-50.7	14.2	1.50e-06	0	56	0	610271232	58	5025
2026-01-04 06:22:18.22	19.87	25.50	-48.1	-50.5	14.4	0.00e+00	0	56	0	612368384	58	4893
2026-01-04 06:22:19.21	19.57	25.51	-48.3	-50.8	14.1	0.00e+00	0	56	0	614465536	58	5083
2026-01-04 06:22:20.20	19.28	25.52	-48.2	-50.7	14.2	1.50e-06	0	56	0	615514112	58	5017
2026-01-04 06:22:21.19	18.98	25.53	-48.4	-51.0	14.0	7.00e-07	0	56	0	617611264	58	5202
2026-01-04 06:22:22.19	18.69	25.53	-48.3	-50.8	14.1	7.00e-07	0	56	0	619708416	58	5085
2026-01-04 06:22:23.18	18.39	25.54	-47.8	-50.0	14.9	7.00e-07	0	56	0	621805568	58	4650
2026-01-04 06:22:24.16	18.10	25.55	-47.7	-49.8	15.1	0.00e+00	0	56	0	622854144	58	4524
2026-01-04 06:22:25.15	17.81	25.55	-47.6	-49.7	15.2	0.00e+00	0	56	0	624951296	58	4477
2026-01-04 06:22:26.14	17.51	25.56	-47.6	-49.7	15.2	7.00e-07	0	56	0	627048448	58	4459
2026-01-04 06:22:27.13	17.22	25.56	-47.6	-49.6	15.3	0.00e+00	0	56	0	629145600	58	4430
2026-01-04 06:22:28.11	16.92	25.57	-47.5	-49.5	15.4	0.00e+00	0	56	0	631242752	58	4355
2026-01-04 06:22:29.10	16.63	25.57	-47.5	-49.6	15.3	0.00e+00	0	56	0	632291328	57	4672
2026-01-04 06:22:30.09	16.34	25.57	-48.1	-50.5	14.4	0.00e+00	0	56	0	634388480	58	4921
2026-01-04 06:22:31.08	16.04	25.57	-48.5	-51.3	13.6	3.80e-06	0	56	0	636485632	58	5366
2026-01-04 06:22:32.07	15.75	25.57	-48.5	-51.3	13.5	6.10e-06	0	56	0	638582784	58	5379
2026-01-04 06:22:33.07	15.45	25.57	-48.7	-51.7	13.2	2.05e-05	0	56	0	639631360	59	5284
2026-01-04 06:22:34.07	15.15	25.57	-48.6	-51.4	13.3	2.21e-05	0	56	0	641728512	59	5154
2026-01-04 06:22:35.06	14.85	25.57	-48.6	-51.6	13.2	1.90e-05	0	56	0	643825664	59	5232
2026-01-04 06:22:36.05	14.56	25.56	-48.5	-51.5	13.1	2.97e-05	0	56	0	645922816	59	5174
2026-01-04 06:22:37.03	14.27	25.56	-48.2	-50.9	13.6	1.52e-05	0	56	0	646971392	59	4866
2026-01-04 06:22:38.02	13.97	25.55	-47.7	-50.2	14.3	3.00e-06	0	56	0	649068544	58	4708
2026-01-04 06:22:39.01	13.68	25.55	-47.3	-49.6	14.7	0.00e+00	0	56	0	651165696	57	4671
2026-01-04 06:22:40.00	13.38	25.54	-47.2	-49.5	14.7	0.00e+00	0	56	0	653262848	57	4599
2026-01-04 06:22:40.99	13.09	25.53	-47.3	-49.6	14.5	7.00e-07	0	56	0	655360000	57	4702
2026-01-04 06:22:41.98	12.80	25.53	-47.3	-49.6	14.4	7.00e-07	0	56	0	656408576	57	4673
2026-01-04 06:22:42.96	12.51	25.52	-47.1	-49.4	14.6	0.00e+00	0	56	0	658505728	57	4598
2026-01-04 06:22:43.95	12.21	25.51	-47.5	-50.1	13.9	0.00e+00	0	56	0	660602880	57	4940
2026-01-04 06:22:44.94	11.92	25.50	-47.7	-50.4	13.5	6.10e-06	0	56	0	662700032	57	5128
2026-01-04 06:22:45.94	11.62	25.48	-48.2	-51.4	12.4	1.52e-05	0	56	0	663748608	58	5423
2026-01-04 06:22:46.93	11.33	25.47	-48.4	-51.8	11.8	2.46e-04	0	56	0	665845760	58	5698
2026-01-04 06:22:47.92	11.04	25.46	-48.9	-53.2	10.3	2.20e-03	0	56	0	667942912	59	6307
2026-01-04 06:22:48.90	10.75	25.44	-49.0	-53.9	9.4	1.10e-02	0	56	0	670040064	60	6433
2026-01-04 06:22:49.89	10.45	25.43	-49.3	-54.9	8.2	2.80e-02	0	56	0	672137216	60	7257
2026-01-04 06:22:50.88	10.16	25.41	-49.3	-54.9	8.3	7.81e-02	0	56	0	673185792	60	7219
2026-01-04 06:22:51.87	9.87	25.40	-49.3	-54.5	8.8	3.91e-02	0	56	0	675282944	60	6935
2026-01-04 06:22:52.86	9.58	25.38	-49.2	-53.9	9.6	2.09e-02	0	56	0	677380096	60	6438
2026-01-04 06:22:53.85	9.29	25.36	-48.9	-53.0	10.7	7.41e-03	0	56	0	679477248	60	5824
2026-01-04 06:22:54.84	9.00	25.34	-48.7	-52.3	11.7	8.64e-04	0	56	0	680525824	60	5350
2026-01-04 06:22:55.83	8.71	25.32	-48.6	-51.7	12.6	1.98e-04	0	56	0	682622976	60	5002
2026-01-04 06:22:56.82	8.42	25.30	-48.7	-51.7	12.8	1.07e-04	0	56	0	684720128	60	4985
2026-01-04 06:22:57.81	8.13	25.28	-48.3	-50.9	13.6	3.66e-05	0	56	0	686817280	59	4849
2026-01-04 06:22:58.80	7.84	25.26	-47.8	-50.1	14.5	7.00e-07	0	56	0	687865856	58	4696
2026-01-04 06:22:59.79	7.55	25.24	-47.5	-49.5	15.1	0.00e+00	0	56	0	689963008	58	4383
2026-01-04 06:23:00.78	7.26	25.21	-47.1	-49.0	15.6	0.00e+00	0	56	0	692060160	57	4364
2026-01-04 06:23:01.76	6.97	25.19	-46.8	-48.5	16.2	0.00e+00	0	56	0	694157312	56	4386
2026-01-04 06:23:02.75	6.69	25.16	-46.6	-48.4	16.4	0.00e+00	0	56	0	695205888	56	4305
2026-01-04 06:23:03.74	6.40	25.14	-46.8	-48.5	16.2	0.00e+00	0	56	0	697303040	56	4382
2026-01-04 06:23:04.73	6.11	25.11	-46.3	-47.9	16.8	0.00e+00	0	56	0	699400192	55	4301
2026-01-04 06:23:05.72	5.83	25.08	-46.0	-47.5	17.1	0.00e+00	0	56	0	701497344	55	4126
2026-01-04 06:23:06.71	5.54	25.06	-46.1	-47.6	16.9	0.00e+00	0	56	0	703594496	55	4192
2026-01-04 06:23:07.70	5.26	25.03	-46.4	-48.1	16.4	0.00e+00	0	57	0	704643072	55	4407
2026-01-04 06:23:08.68	4.97	25.00	-47.0	-49.2	15.1	0.00e+00	0	57	0	706740224	55	5015
2026-01-04 06:23:09.67	4.69	24.97	-47.9	-50.7	13.2	2.20e-06	0	57	0	708837376	57	5323
2026-01-04 06:23:10.66	4.41	24.94	-48.9	-53.1	10.5	1.03e-03	0	56	0	710934528	59	6224
2026-01-04 06:23:11.65	4.12	24.90	-49.5	-55.0	8.4	2.44e-02	0	56	0	711983104	60	7315
2026-01-04 06:23:12.64	3.84	24.87	-49.5	-54.9	8.4	5.73e-02	0	56	0	714080256	60	7236
2026-01-04 06:23:13.63	3.56	24.84	-49.0	-53.1	10.5	8.82e-03	0	56	0	716177408	60	5897
2026-01-04 06:23:14.62	3.28	24.80	-48.5	-51.5	12.6	3.00e-04	0	56	0	718274560	59	5198
2026-01-04 06:23:15.60	3.00	24.77	-48.1	-50.6	13.9	1.44e-05	0	56	0	719323136	59	4667
2026-01-04 06:23:16.59	2.72	24.73	-48.2	-50.6	14.2	1.50e-06	0	56	0	721420288	59	4657
2026-01-04 06:23:17.59	2.44	24.70	-48.2	-50.6	14.4	7.00e-07	0	56	0	723517440	59	4653
2026-01-04 06:23:18.58	2.16	24.66	-48.2	-50.5	14.4	7.00e-07	0	56	0	725614592	59	4599
2026-01-04 06:23:19.56	1.89	24.62	-47.6	-49.6	15.3	0.00e+00	0	56	0	727711744	58	4401
2026-01-04 06:23:20.55	1.61	24.59	-47.4	-49.3	15.6	0.00e+00	0	56	0	728760320	57	4514
2026-01-04 06:23:21.54	1.33	24.55	-47.6	-49.6	15.3	0.00e+00	0	57	0	730857472	57	4672
2026-01-04 06:23:22.53	1.06	24.51	-47.6	-49.6	15.3	0.00e+00	0	56	0	732954624	57	4682
2026-01-04 06:23:23.52	0.78	24.47	-47.6	-49.7	15.2	0.00e+00	0	56	0	735051776	57	4737
2026-01-04 06:23:24.51	0.51	24.43	-48.0	-50.3	14.7	0.00e+00	0	57	0	736100352	57	5045
2026-01-04 06:23:25.50	0.23	24.39	-48.1	-50.5	14.5	7.00e-07	0	57	0	738197504	58	4898
2026-01-04 06:23:26.49	359.96	24.34	-48.2	-50.7	14.2	7.00e-07	0	57	0	740294656	58	5024
2026-01-04 06:23:27.47	359.69	24.30	-48.5	-51.1	13.8	4.50e-06	0	56	0	742391808	58	5232
2026-01-04 06:23:28.46	359.42	24.26	-48.6	-51.2	13.8	3.00e-06	0	56	0	743440384	58	5312
2026-01-04 06:23:29.44	359.15	24.21	-48.4	-50.9	14.0	3.00e-06	0	57	0	745537536	59	4862
2026-01-04 06:23:30.43	358.88	24.17	-48.4	-50.9	14.1	2.20e-06	0	56	0	747634688	59	4829
2026-01-04 06:23:31.43	358.61	24.12	-48.5	-51.1	13.8	6.80e-06	0	56	0	749731840	59	4945
2026-01-04 06:23:32.41	358.34	24.08	-48.6	-51.3	13.7	6.10e-06	0	56	0	751828992	59	5057
2026-01-04 06:23:33.40	358.08	24.03	-48.8	-51.7	13.3	1.90e-05	0	56	0	752877568	59	5295
2026-01-04 06:23:34.40	357.81	23.99	-48.5	-51.2	13.7	6.10e-06	0	57	0	754974720	59	4997
2026-01-04 06:23:35.39	357.54	23.94	-48.3	-50.8	14.2	1.50e-06	0	57	0	757071872	59	4770
2026-01-04 06:23:36.38	357.28	23.89	-48.0	-50.3	14.6	0.00e+00	0	56	0	759169024	59	4545
2026-01-04 06:23:37.37	357.01	23.84	-47.9	-50.2	14.8	1.50e-06	0	57	0	760217600	59	4447
2026-01-04 06:23:38.36	356.75	23.79	-47.8	-50.0	14.9	0.00e+00	0	57	0	762314752	58	4632
2026-01-04 06:23:39.34	356.49	23.74	-47.6	-49.8	15.1	0.00e+00	0	56	0	764411904	58	4512
2026-01-04 06:23:40.33	356.23	23.69	-47.6	-49.8	15.1	0.00e+00	0	57	0	766509056	58	4536
2026-01-04 06:23:41.32	355.97	23.64	-47.9	-50.2	14.7	7.00e-07	0	56	0	767557632	58	4741
2026-01-04 06:23:42.31	355.71	23.59	-48.0	-50.3	14.6	0.00e+00	0	57	0	769654784	58	4768
2026-01-04 06:23:43.30	355.45	23.54	-48.1	-50.6	14.2	2.20e-06	0	57	0	771751936	58	4977
2026-01-04 06:23:44.29	355.19	23.48	-48.0	-50.4	14.4	0.00e+00	0	57	0	773849088	58	4870
2026-01-04 06:23:45.27	354.93	23.43	-47.9	-50.2	14.6	0.00e+00	0	56	0	774897664	58	4755
2026-01-04 06:23:46.26	354.68	23.38	-47.9	-50.2	14.7	7.00e-07	0	56	0	776994816	58	4709
2026-01-04 06:23:47.25	354.42	23.32	-47.6	-49.7	15.1	0.00e+00	0	57	0	779091968	58	4489
2026-01-04 06:23:48.24	354.17	23.27	-47.5	-49.6	15.3	0.00e+00	0	57	0	781189120	58	4422
2026-01-04 06:23:49.22	353.92	23.21	-47.6	-49.7	15.1	0.00e+00	0	57	0	783286272	58	4486
2026-01-04 06:23:50.22	353.66	23.16	-47.4	-49.5	15.3	0.00e+00	0	57	0	784334848	58	4380
2026-01-04 06:23:51.21	353.41	23.10	-47.6	-49.7	15.2	0.00e+00	0	57	0	786432000	58	4461
2026-01-04 06:23:52.20	353.16	23.05	-47.6	-49.7	15.1	0.00e+00	0	57	0	788529152	58	4480
2026-01-04 06:23:53.19	352.91	22.99	-47.9	-50.3	14.6	0.00e+00	0	57	0	790626304	58	4783
2026-01-04 06:23:54.18	352.66	22.93	-48.3	-50.8	14.0	0.00e+00	0	57	0	791674880	58	5075
2026-01-04 06:23:55.17	352.41	22.87	-48.3	-51.0	13.9	7.00e-07	0	56	0	793772032	58	5193
2026-01-04 06:23:56.16	352.16	22.82	-48.3	-50.9	13.9	1.50e-06	0	57	0	795869184	58	5149
2026-01-04 06:23:57.15	351.91	22.76	-48.3	-50.9	13.9	3.00e-06	0	57	0	797966336	58	5105
2026-01-04 06:23:58.14	351.67	22.70	-48.1	-50.6	14.2	3.00e-06	0	57	0	800063488	58	4970
2026-01-04 06:23:59.13	351.42	22.64	-48.2	-50.8	14.0	1.50e-06	0	57	0	801112064	58	5062
2026-01-04 06:24:00.13	351.18	22.58	-47.8	-50.2	14.6	2.20e-06	0	56	0	803209216	58	4723
2026-01-04 06:24:01.11	350.94	22.52	-47.8	-50.1	14.7	7.00e-07	0	57	0	805306368	58	4700
2026-01-04 06:24:02.10	350.70	22.46	-47.9	-50.4	14.5	0.00e+00	0	57	0	807403520	58	4820
2026-01-04 06:24:03.09	350.46	22.39	-48.2	-50.9	14.0	0.00e+00	0	57	0	808452096	58	5125
2026-01-04 06:24:04.08	350.22	22.33	-48.4	-51.1	13.7	3.00e-06	0	57	0	810549248	58	5272
2026-01-04 06:24:05.07	349.98	22.27	-48.3	-51.1	13.8	3.80e-06	0	57	0	812646400	58	5219
2026-01-04 06:24:06.07	349.74	22.21	-48.5	-51.3	13.5	8.30e-06	0	57	0	814743552	58	5394
2026-01-04 06:24:07.06	349.50	22.15	-48.3	-51.1	13.7	1.83e-05	0	57	0	815792128	58	5236
2026-01-04 06:24:08.05	349.26	22.08	-48.2	-50.8	14.1	6.10e-06	0	57	0	817889280	58	5045
2026-01-04 06:24:09.03	349.03	22.02	-47.9	-50.2	14.6	0.00e+00	0	57	0	819986432	58	4757
2026-01-04 06:24:10.03	348.79	21.95	-47.8	-50.1	14.8	0.00e+00	0	57	0	822083584	58	4654
2026-01-04 06:24:11.03	348.56	21.89	-48.0	-50.3	14.5	0.00e+00	0	57	0	824180736	58	4798
2026-01-04 06:24:12.01	348.33	21.83	-47.7	-49.9	15.0	0.00e+00	0	57	0	825229312	58	4556
2026-01-04 06:24:13.00	348.10	21.76	-47.8	-50.1	14.8	0.00e+00	0	57	0	827326464	58	4665
2026-01-04 06:24:13.99	347.87	21.70	-48.0	-50.5	14.3	0.00e+00	0	56	0	829423616	58	4886
2026-01-04 06:24:14.99	347.64	21.63	-48.3	-51.0	13.9	0.00e+00	0	57	0	831520768	58	5163
2026-01-04 06:24:15.98	347.41	21.56	-48.1	-50.6	14.3	1.50e-06	0	57	0	832569344	58	4933
2026-01-04 06:24:16.97	347.18	21.50	-48.1	-50.6	14.1	7.00e-07	0	57	0	834666496	58	4964
2026-01-04 06:24:17.96	346.96	21.43	-48.0	-50.6	14.2	1.50e-06	0	57	0	836763648	58	4928
2026-01-04 06:24:18.96	346.73	21.36	-47.7	-50.0	14.8	7.00e-07	0	57	0	838860800	58	4611
2026-01-04 06:24:19.95	346.50	21.30	-47.3	-49.4	15.3	0.00e+00	0	57	0	840957952	57	4572
2026-01-04 06:24:20.93	346.28	21.23	-47.0	-49.0	15.8	0.00e+00	0	56	0	842006528	56	4604
2026-01-04 06:24:21.93	346.06	21.16	-46.8	-48.6	16.1	0.00e+00	0	57	0	844103680	56	4423
2026-01-04 06:24:22.91	345.84	21.09	-46.4	-48.1	16.6	0.00e+00	0	57	0	846200832	56	4159
2026-01-04 06:24:23.91	345.62	21.02	-46.3	-48.0	16.6	0.00e+00	0	57	0	848297984	55	4352
2026-01-04 06:24:24.91	345.40	20.95	-46.1	-47.7	16.8	0.00e+00	0	57	0	849346560	55	4235
2026-01-04 06:24:25.90	345.18	20.89	-46.6	-48.3	16.2	0.00e+00	0	57	0	851443712	55	4539
2026-01-04 06:24:26.89	344.96	20.82	-46.4	-48.1	16.4	0.00e+00	0	57	0	853540864	55	4426
2026-01-04 06:24:27.88	344.74	20.75	-46.5	-48.3	16.3	0.00e+00	0	57	0	855638016	55	4528
2026-01-04 06:24:28.88	344.53	20.68	-46.8	-48.7	15.8	0.00e+00	0	57	0	856686592	55	4709
2026-01-04 06:24:29.85	344.32	20.61	-46.9	-48.8	15.8	0.00e+00	0	57	0	858783744	55	4767
2026-01-04 06:24:30.85	344.10	20.54	-47.1	-49.1	15.5	0.00e+00	0	57	0	860880896	55	4940
2026-01-04 06:24:31.83	343.89	20.47	-47.2	-49.2	15.4	0.00e+00	0	57	0	862978048	56	4738
2026-01-04 06:24:32.82	343.68	20.40	-47.3	-49.3	15.3	0.00e+00	0	57	0	865075200	56	4806
2026-01-04 06:24:33.82	343.47	20.33	-47.2	-49.3	15.3	0.00e+00	0	57	0	866123776	56	4809
2026-01-04 06:24:34.80	343.26	20.26	-47.0	-49.0	15.6	0.00e+00	0	57	0	868220928	56	4637
2026-01-04 06:24:35.79	343.05	20.19	-46.9	-49.0	15.7	0.00e+00	0	57	0	870318080	56	4605
2026-01-04 06:24:36.78	342.84	20.11	-47.0	-49.1	15.5	0.00e+00	0	57	0	872415232	56	4675
2026-01-04 06:24:37.77	342.64	20.04	-47.3	-49.5	15.1	0.00e+00	0	57	0	873463808	56	4908
2026-01-04 06:24:38.75	342.43	19.97	-47.7	-50.2	14.4	0.00e+00	0	57	0	875560960	57	5004
2026-01-04 06:24:39.74	342.23	19.90	-47.8	-50.3	14.2	7.00e-07	0	57	0	877658112	57	5061
2026-01-04 06:24:40.73	342.03	19.83	-48.0	-50.6	13.9	6.10e-06	0	57	0	879755264	57	5247
2026-01-04 06:24:41.73	341.82	19.76	-48.1	-50.9	13.5	4.50e-06	0	57	0	880803840	58	5144
2026-01-04 06:24:42.72	341.62	19.68	-48.3	-51.2	13.2	6.80e-06	0	57	0	882900992	58	5286
2026-01-04 06:24:43.71	341.42	19.61	-48.3	-51.3	13.0	3.66e-05	0	57	0	884998144	58	5365
2026-01-04 06:24:44.70	341.22	19.54	-48.3	-51.3	12.8	4.34e-05	0	57	0	887095296	58	5364
2026-01-04 06:24:45.69	341.02	19.47	-48.5	-51.7	12.3	9.99e-05	0	57	0	889192448	58	5649
2026-01-04 06:24:46.69	340.82	19.39	-48.6	-52.0	12.0	3.41e-04	0	57	0	890241024	59	5525
2026-01-04 06:24:47.68	340.62	19.32	-48.8	-52.4	11.7	5.30e-04	0	57	0	892338176	59	5757
2026-01-04 06:24:48.67	340.43	19.25	-48.8	-52.2	11.8	6.69e-04	0	57	0	894435328	59	5632
2026-01-04 06:24:49.66	340.23	19.17	-48.7	-52.1	12.0	3.44e-04	0	57	0	896532480	59	5584
2026-01-04 06:24:50.64	340.04	19.10	-48.6	-51.8	12.3	2.53e-04	0	57	0	897581056	59	5363
2026-01-04 06:24:51.63	339.85	19.03	-48.3	-51.3	12.9	7.55e-05	0	57	0	899678208	59	5054
2026-01-04 06:24:52.63	339.65	18.95	-48.1	-50.8	13.4	2.74e-05	0	57	0	901775360	59	4793
2026-01-04 06:24:53.60	339.47	18.88	-47.9	-50.6	13.6	1.06e-05	0	57	0	903872512	59	4670
2026-01-04 06:24:54.60	339.28	18.80	-47.8	-50.4	13.8	4.50e-06	0	57	0	904921088	58	4837
2026-01-04 06:24:55.59	339.09	18.73	-47.5	-49.9	14.3	2.20e-06	0	57	0	907018240	58	4583
2026-01-04 06:24:56.59	338.90	18.66	-47.3	-49.6	14.6	3.00e-06	0	57	0	909115392	57	4687
2026-01-04 06:24:57.58	338.71	18.58	-47.1	-49.3	14.9	0.00e+00	0	57	0	911212544	57	4514
2026-01-04 06:24:58.57	338.52	18.51	-46.7	-48.8	15.4	0.00e+00	0	57	0	913309696	56	4515
2026-01-04 06:24:59.56	338.34	18.43	-46.5	-48.5	15.8	0.00e+00	0	57	0	914358272	56	4357
2026-01-04 06:25:00.55	338.15	18.36	-46.4	-48.3	15.9	0.00e+00	0	57	0	916455424	55	4544
2026-01-04 06:25:01.55	337.97	18.28	-46.6	-48.5	15.8	0.00e+00	0	57	0	918552576	55	4641
2026-01-04 06:25:02.53	337.79	18.21	-46.9	-48.9	15.4	0.00e+00	0	57	0	920649728	55	4855
2026-01-04 06:25:03.52	337.60	18.13	-47.1	-49.2	15.2	0.00e+00	0	57	0	921698304	56	4721
2026-01-04 06:25:04.52	337.42	18.06	-47.1	-49.1	15.5	0.00e+00	0	57	0	923795456	56	4671
2026-01-04 06:25:05.51	337.24	17.98	-47.2	-49.3	15.4	0.00e+00	0	57	0	925892608	56	4769
2026-01-04 06:25:06.50	337.06	17.91	-47.1	-49.0	15.6	0.00e+00	0	57	0	927989760	56	4631
2026-01-04 06:25:07.49	336.88	17.83	-47.1	-49.0	15.7	0.00e+00	0	57	0	930086912	56	4636
2026-01-04 06:25:08.49	336.70	17.76	-47.2	-49.3	15.5	0.00e+00	0	57	0	931135488	56	4762
2026-01-04 06:25:09.49	336.53	17.68	-47.6	-49.8	14.9	0.00e+00	0	57	0	933232640	57	4786
2026-01-04 06:25:10.48	336.35	17.61	-47.9	-50.2	14.5	0.00e+00	0	57	0	935329792	57	5028
2026-01-04 06:25:11.46	336.18	17.53	-47.7	-49.9	14.9	0.00e+00	0	57	0	937426944	57	4826
2026-01-04 06:25:12.45	336.00	17.46	-47.9	-50.3	14.5	0.00e+00	0	57	0	938475520	57	5051
2026-01-04 06:25:13.44	335.83	17.38	-47.9	-50.1	14.7	0.00e+00	0	57	0	940572672	57	4961
2026-01-04 06:25:14.43	335.66	17.31	-47.4	-49.4	15.4	0.00e+00	0	57	0	942669824	57	4561
2026-01-04 06:25:15.43	335.49	17.23	-47.0	-48.8	16.0	0.00e+00	0	57	0	944766976	57	4270
2026-01-04 06:25:16.42	335.32	17.15	-46.7	-48.4	16.4	0.00e+00	0	57	0	945815552	56	4312
2026-01-04 06:25:17.40	335.15	17.08	-46.4	-48.1	16.7	0.00e+00	0	57	0	947912704	56	4161
2026-01-04 06:25:18.39	334.98	17.00	-46.6	-48.3	16.5	0.00e+00	0	57	0	950009856	56	4282
2026-01-04 06:25:19.38	334.81	16.93	-46.7	-48.5	16.3	0.00e+00	0	57	0	952107008	56	4362
2026-01-04 06:25:20.37	334.65	16.85	-46.6	-48.4	16.4	0.00e+00	0	57	0	954204160	56	4306
2026-01-04 06:25:21.37	334.48	16.78	-46.8	-48.6	16.2	0.00e+00	0	57	0	955252736	56	4392
2026-01-04 06:25:22.36	334.31	16.70	-46.7	-48.6	16.2	0.00e+00	0	57	0	957349888	56	4401
2026-01-04 06:25:23.35	334.15	16.63	-46.9	-48.7	16.1	0.00e+00	0	57	0	959447040	56	4490
2026-01-04 06:25:24.35	333.98	16.55	-46.9	-48.7	16.1	0.00e+00	0	57	0	961544192	56	4471
2026-01-04 06:25:25.33	333.82	16.47	-47.1	-49.0	15.8	0.00e+00	0	57	0	962592768	56	4626
2026-01-04 06:25:26.32	333.66	16.40	-46.8	-48.6	16.2	0.00e+00	0	57	0	964689920	56	4413
2026-01-04 06:25:27.30	333.50	16.32	-46.7	-48.5	16.3	0.00e+00	0	57	0	966787072	56	4341
2026-01-04 06:25:28.28	333.34	16.25	-46.5	-48.1	16.6	0.00e+00	0	57	0	968884224	56	4187
2026-01-04 06:25:29.27	333.18	16.17	-46.2	-47.8	16.9	0.00e+00	0	57	0	969932800	55	4277
2026-01-04 06:25:30.25	333.03	16.10	-46.2	-47.7	17.0	0.00e+00	0	57	0	972029952	55	4219
2026-01-04 06:25:31.24	332.87	16.02	-46.2	-47.8	16.9	0.00e+00	0	57	0	974127104	55	4249
2026-01-04 06:25:32.23	332.71	15.95	-46.4	-48.0	16.7	0.00e+00	0	57	0	976224256	55	4353
2026-01-04 06:25:33.22	332.56	15.87	-46.3	-47.9	16.7	0.00e+00	0	57	0	978321408	55	4316
2026-01-04 06:25:34.22	332.40	15.80	-46.7	-48.6	16.1	0.00e+00	0	57	0	979369984	55	4661
2026-01-04 06:25:35.21	332.24	15.72	-47.0	-48.8	15.8	0.00e+00	0	57	0	981467136	55	4804
2026-01-04 06:25:36.20	332.09	15.64	-47.4	-49.5	15.4	0.00e+00	0	57	0	983564288	56	4886
2026-01-04 06:25:37.19	331.94	15.57	-47.5	-49.6	15.2	0.00e+00	0	57	0	985661440	56	4983
2026-01-04 06:25:38.19	331.78	15.49	-47.7	-49.8	14.9	0.00e+00	0	57	0	986710016	57	4795
2026-01-04 06:25:39.18	331.63	15.42	-47.4	-49.5	15.3	0.00e+00	0	57	0	988807168	57	4633
2026-01-04 06:25:40.17	331.48	15.34	-47.5	-49.6	15.2	0.00e+00	0	57	0	990904320	57	4654
2026-01-04 06:25:41.16	331.33	15.27	-47.6	-49.7	15.0	0.00e+00	0	57	0	993001472	57	4755
2026-01-04 06:25:42.16	331.18	15.19	-47.1	-49.0	15.8	0.00e+00	0	57	0	995098624	57	4365
2026-01-04 06:25:43.15	331.03	15.12	-46.8	-48.6	16.2	0.00e+00	0	57	0	996147200	56	4400
2026-01-04 06:25:44.14	330.89	15.04	-46.7	-48.4	16.4	0.00e+00	0	57	0	998244352	56	4292
2026-01-04 06:25:45.12	330.74	14.97	-46.5	-48.2	16.5	0.00e+00	0	57	0	1000341504	56	4232
2026-01-04 06:25:46.11	330.60	14.89	-46.5	-48.2	16.6	0.00e+00	0	57	0	1002438656	56	4223
2026-01-04 06:25:47.10	330.45	14.82	-46.3	-48.0	16.7	0.00e+00	0	57	0	1003487232	55	4352
2026-01-04 06:25:48.09	330.31	14.74	-46.6	-48.3	16.3	0.00e+00	0	57	0	1005584384	55	4533
2026-01-04 06:25:49.08	330.16	14.67	-46.4	-48.0	16.6	0.00e+00	0	57	0	1007681536	55	4370
2026-01-04 06:25:50.07	330.02	14.59	-46.3	-47.9	16.7	0.00e+00	0	57	0	1009778688	55	4326
2026-01-04 06:25:51.05	329.88	14.52	-46.6	-48.4	16.3	0.00e+00	0	57	0	1010827264	55	4558
2026-01-04 06:25:52.05	329.74	14.44	-46.6	-48.3	16.4	0.00e+00	0	57	0	1012924416	55	4534
2026-01-04 06:25:53.04	329.59	14.37	-47.0	-48.9	15.8	0.00e+00	0	57	0	1015021568	55	4854
2026-01-04 06:25:54.03	329.45	14.29	-47.3	-49.4	15.4	0.00e+00	0	57	0	1017118720	56	4839
2026-01-04 06:25:55.02	329.32	14.22	-47.7	-49.9	14.9	0.00e+00	0	57	0	1018167296	57	4847
2026-01-04 06:25:56.00	329.18	14.14	-47.7	-49.9	14.9	0.00e+00	0	57	0	1020264448	57	4840
2026-01-04 06:25:56.99	329.04	14.07	-47.8	-50.1	14.7	0.00e+00	0	57	0	1022361600	57	4969
2026-01-04 06:25:57.98	328.90	13.99	-47.7	-49.9	14.9	0.00e+00	0	57	0	1024458752	57	4835
2026-01-04 06:25:58.96	328.77	13.92	-47.5	-49.7	15.1	0.00e+00	0	57	0	1026555904	57	4706
2026-01-04 06:25:59.96	328.63	13.84	-47.5	-49.6	15.2	0.00e+00	0	57	0	1027604480	57	4655
2026-01-04 06:26:00.95	328.50	13.77	-47.4	-49.4	15.3	0.00e+00	0	57	0	1029701632	57	4586
2026-01-04 06:26:01.94	328.36	13.70	-47.5	-49.5	15.3	0.00e+00	0	57	0	1031798784	57	4639
2026-01-04 06:26:02.93	328.23	13.62	-47.1	-48.9	15.8	0.00e+00	0	57	0	1033895936	57	4334
2026-01-04 06:26:03.91	328.10	13.55	-47.3	-49.3	15.5	0.00e+00	0	57	0	1034944512	57	4506
2026-01-04 06:26:04.90	327.96	13.47	-46.9	-48.7	16.1	0.00e+00	0	57	0	1037041664	57	4236
2026-01-04 06:26:05.89	327.83	13.40	-46.9	-48.7	16.1	0.00e+00	0	57	0	1039138816	56	4470
2026-01-04 06:26:06.87	327.70	13.33	-47.1	-49.0	15.7	0.00e+00	0	57	0	1041235968	56	4642
2026-01-04 06:26:07.86	327.57	13.25	-47.0	-48.9	15.9	0.00e+00	0	57	0	1042284544	56	4559
2026-01-04 06:26:08.85	327.44	13.18	-47.2	-49.1	15.7	0.00e+00	0	57	0	1044381696	56	4664
2026-01-04 06:26:09.83	327.31	13.11	-47.4	-49.4	15.3	0.00e+00	0	57	0	1046478848	56	4859
2026-01-04 06:26:10.82	327.19	13.03	-47.4	-49.4	15.3	0.00e+00	0	57	0	1048576000	56	4849
2026-01-04 06:26:11.81	327.06	12.96	-47.0	-48.8	15.9	0.00e+00	0	57	0	1050673152	56	4535
2026-01-04 06:26:12.79	326.93	12.89	-46.8	-48.6	16.2	0.00e+00	0	57	0	1051721728	56	4420
2026-01-04 06:26:13.79	326.80	12.81	-46.9	-48.7	16.1	0.00e+00	0	57	0	1053818880	56	4447
2026-01-04 06:26:14.77	326.68	12.74	-46.9	-48.6	16.1	0.00e+00	0	57	0	1055916032	56	4434
2026-01-04 06:26:15.76	326.55	12.67	-47.1	-49.1	15.7	0.00e+00	0	57	0	1058013184	56	4658
2026-01-04 06:26:16.75	326.43	12.59	-47.1	-49.0	15.8	0.00e+00	0	57	0	1059061760	56	4600
2026-01-04 06:26:17.75	326.30	12.52	-47.3	-49.3	15.5	0.00e+00	0	57	0	1061158912	56	4780
2026-01-04 06:26:18.74	326.18	12.45	-47.2	-49.2	15.5	0.00e+00	0	57	0	1063256064	56	4737
2026-01-04 06:26:19.73	326.06	12.37	-47.2	-49.3	15.5	0.00e+00	0	57	0	1065353216	56	4772
2026-01-04 06:26:20.73	325.94	12.30	-47.4	-49.5	15.3	0.00e+00	0	57	0	1066401792	56	4873
2026-01-04 06:26:21.72	325.81	12.23	-47.4	-49.4	15.3	0.00e+00	0	57	0	1068498944	56	4870
2026-01-04 06:26:22.70	325.69	12.16	-47.4	-49.5	15.2	0.00e+00	0	57	0	1070596096	56	4914
2026-01-04 06:26:23.69	325.57	12.08	-47.3	-49.4	15.3	0.00e+00	0	57	0	1072693248	56	4851
2026-01-04 06:26:24.68	325.45	12.01	-47.5	-49.6	15.1	7.00e-07	0	57	0	1074790400	56	4968
2026-01-04 06:26:25.67	325.34	11.94	-47.5	-49.7	15.1	0.00e+00	0	57	0	1075838976	56	4989
2026-01-04 06:26:26.66	325.22	11.87	-47.6	-49.9	14.9	0.00e+00	0	57	0	1077936128	57	4824
2026-01-04 06:26:27.65	325.10	11.79	-47.6	-49.8	14.9	0.00e+00	0	57	0	1080033280	57	4775
2026-01-04 06:26:28.63	324.98	11.72	-47.8	-50.1	14.6	1.50e-06	0	57	0	1082130432	57	4952
2026-01-04 06:26:29.62	324.87	11.65	-47.9	-50.4	14.3	7.00e-07	0	57	0	1083179008	57	5124
2026-01-04 06:26:30.61	324.75	11.58	-47.9	-50.4	14.3	0.00e+00	0	57	0	1085276160	57	5125
2026-01-04 06:26:31.60	324.64	11.51	-48.1	-50.6	14.1	7.00e-07	0	57	0	1087373312	58	4932
2026-01-04 06:26:32.58	324.52	11.44	-48.0	-50.5	14.1	3.00e-06	0	57	0	1089470464	58	4917
2026-01-04 06:26:33.57	324.41	11.36	-48.2	-50.7	14.0	4.50e-06	0	57	0	1090519040	58	4995
2026-01-04 06:26:34.56	324.29	11.29	-48.2	-50.6	14.0	2.20e-06	0	57	0	1092616192	58	4970
2026-01-04 06:26:35.56	324.18	11.22	-47.9	-50.2	14.5	7.00e-07	0	57	0	1094713344	58	4739
2026-01-04 06:26:36.55	324.07	11.15	-47.8	-50.1	14.5	0.00e+00	0	57	0	1096810496	58	4704
2026-01-04 06:26:37.53	323.96	11.08	-47.6	-49.8	14.9	7.00e-07	0	57	0	1097859072	58	4496
2026-01-04 06:26:38.52	323.84	11.01	-47.7	-49.9	14.8	0.00e+00	0	57	0	1099956224	58	4570
2026-01-04 06:26:39.51	323.73	10.94	-47.6	-49.8	14.8	0.00e+00	0	57	0	1102053376	58	4516
2026-01-04 06:26:40.51	323.62	10.87	-47.5	-49.6	15.1	0.00e+00	0	57	0	1104150528	58	4411
2026-01-04 06:26:41.49	323.51	10.80	-47.6	-49.7	15.0	0.00e+00	0	57	0	1106247680	58	4472
2026-01-04 06:26:42.48	323.40	10.72	-47.7	-49.9	14.7	0.00e+00	0	57	0	1107296256	58	4597
2026-01-04 06:26:43.47	323.30	10.65	-47.9	-50.2	14.4	1.50e-06	0	57	0	1109393408	58	4756
2026-01-04 06:26:44.46	323.19	10.58	-47.8	-50.1	14.6	0.00e+00	0	57	0	1111490560	58	4671
2026-01-04 06:26:45.46	323.08	10.51	-48.0	-50.4	14.2	7.00e-07	0	57	0	1113587712	58	4870
2026-01-04 06:26:46.45	322.97	10.44	-48.1	-50.5	14.1	1.50e-06	0	57	0	1114636288	58	4912
2026-01-04 06:26:47.43	322.87	10.37	-48.2	-50.8	13.8	5.30e-06	0	57	0	1116733440	58	5083
2026-01-04 06:26:48.42	322.76	10.30	-48.3	-51.0	13.7	6.10e-06	0	57	0	1118830592	58	5164
2026-01-04 06:26:49.41	322.65	10.23	-48.3	-51.0	13.6	4.50e-06	0	57	0	1120927744	58	5191
2026-01-04 06:26:50.40	322.55	10.16	-48.4	-51.1	13.5	8.30e-06	0	57	0	1123024896	58	5264
2026-01-04 06:26:51.40	322.44	10.09	-48.4	-51.2	13.4	6.10e-06	0	57	0	1124073472	58	5309
2026-01-04 06:26:52.38	322.34	10.02	-48.4	-51.1	13.5	1.22e-05	0	57	0	1126170624	58	5239
2026-01-04 06:26:53.37	322.24	9.95	-48.2	-50.8	13.8	5.30e-06	0	57	0	1128267776	58	5057
2026-01-04 06:26:54.36	322.13	9.88	-48.0	-50.5	14.1	0.00e+00	0	57	0	1130364928	58	4896
2026-01-04 06:26:55.35	322.03	9.81	-47.9	-50.2	14.4	2.20e-06	0	57	0	1131413504	58	4746
2026-01-04 06:26:56.35	321.93	9.74	-47.9	-50.2	14.4	0.00e+00	0	57	0	1133510656	58	4737
2026-01-04 06:26:57.33	321.83	9.68	-47.9	-50.3	14.3	2.20e-06	0	57	0	1135607808	58	4790
2026-01-04 06:26:58.32	321.73	9.61	-47.8	-50.1	14.6	1.50e-06	0	57	0	1137704960	58	4654
2026-01-04 06:26:59.31	321.63	9.54	-47.7	-50.0	14.7	0.00e+00	0	57	0	1138753536	58	4608
2026-01-04 06:27:00.30	321.53	9.47	-47.8	-50.1	14.5	0.00e+00	0	57	0	1140850688	58	4685
2026-01-04 06:27:01.29	321.43	9.40	-47.8	-50.1	14.5	7.00e-07	0	57	0	1142947840	58	4681
2026-01-04 06:27:02.28	321.33	9.33	-47.8	-50.2	14.4	1.50e-06	0	57	0	1145044992	58	4733
2026-01-04 06:27:03.27	321.23	9.26	-47.9	-50.4	14.2	1.50e-06	0	57	0	1147142144	58	4820
2026-01-04 06:27:04.26	321.13	9.19	-48.3	-50.9	13.7	4.50e-06	0	57	0	1148190720	58	5114
2026-01-04 06:27:05.24	321.04	9.13	-48.2	-50.8	13.7	5.30e-06	0	57	0	1150287872	58	5095
2026-01-04 06:27:06.23	320.94	9.06	-48.3	-51.0	13.6	6.10e-06	0	57	0	1152385024	58	5172
2026-01-04 06:27:07.22	320.84	8.99	-48.4	-51.2	13.3	1.83e-05	0	57	0	1154482176	58	5335
2026-01-04 06:27:08.22	320.74	8.92	-48.5	-51.4	13.2	1.98e-05	0	57	0	1155530752	58	5403
2026-01-04 06:27:09.21	320.65	8.85	-48.6	-51.5	13.0	2.59e-05	0	57	0	1157627904	59	5216
2026-01-04 06:27:10.20	320.55	8.79	-48.7	-51.9	12.7	6.10e-05	0	57	0	1159725056	59	5412
2026-01-04 06:27:11.19	320.46	8.72	-48.7	-51.8	12.7	8.31e-05	0	57	0	1161822208	59	5348
2026-01-04 06:27:12.17	320.37	8.65	-48.8	-52.1	12.4	1.52e-04	0	57	0	1162870784	59	5541
2026-01-04 06:27:13.16	320.27	8.58	-49.0	-52.3	12.2	1.81e-04	0	57	0	1164967936	59	5670
2026-01-04 06:27:14.15	320.18	8.52	-48.9	-52.1	12.4	1.49e-04	0	57	0	1167065088	59	5536
2026-01-04 06:27:15.15	320.08	8.45	-48.9	-52.1	12.4	1.57e-04	0	57	0	1169162240	59	5539
2026-01-04 06:27:16.14	319.99	8.38	-49.0	-52.2	12.3	1.74e-04	0	57	0	1171259392	59	5625
2026-01-04 06:27:17.13	319.90	8.31	-48.9	-52.1	12.4	1.55e-04	0	57	0	1172307968	59	5561
2026-01-04 06:27:18.11	319.81	8.25	-48.9	-52.2	12.3	1.43e-04	0	57	0	1174405120	59	5596
2026-01-04 06:27:19.10	319.72	8.18	-49.0	-52.2	12.3	2.00e-04	0	57	0	1176502272	59	5632
2026-01-04 06:27:20.08	319.63	8.12	-48.9	-52.1	12.4	1.73e-04	0	57	0	1178599424	59	5533
2026-01-04 06:27:21.07	319.54	8.05	-48.8	-52.0	12.5	1.18e-04	0	57	0	1179648000	59	5484
2026-01-04 06:27:22.05	319.45	7.98	-48.8	-52.0	12.5	1.05e-04	0	57	0	1181745152	59	5485
2026-01-04 06:27:23.03	319.36	7.92	-48.9	-52.0	12.4	1.16e-04	0	57	0	1183842304	59	5516
2026-01-04 06:27:24.03	319.27	7.85	-48.9	-52.0	12.4	1.26e-04	0	57	0	1185939456	59	5508
2026-01-04 06:27:25.01	319.18	7.78	-49.0	-52.4	12.1	1.77e-04	0	57	0	1186988032	59	5725
2026-01-04 06:27:26.00	319.09	7.72	-48.9	-52.1	12.3	2.38e-04	0	57	0	1189085184	59	5563
2026-01-04 06:27:27.00	319.01	7.65	-48.9	-52.0	12.5	1.21e-04	0	57	0	1191182336	59	5498
2026-01-04 06:27:27.99	318.92	7.59	-48.8	-52.0	12.4	1.23e-04	0	57	0	1193279488	59	5498
2026-01-04 06:27:28.98	318.83	7.52	-49.0	-52.4	12.1	2.44e-04	0	57	0	1194328064	59	5733
2026-01-04 06:27:29.97	318.74	7.45	-49.0	-52.3	12.1	3.11e-04	0	57	0	1196425216	59	5700
2026-01-04 06:27:30.96	318.66	7.39	-49.0	-52.5	11.9	3.42e-04	0	57	0	1198522368	60	5509
2026-01-04 06:27:31.95	318.57	7.32	-49.1	-52.6	11.8	5.27e-04	0	57	0	1200619520	60	5577
2026-01-04 06:27:32.94	318.49	7.26	-49.3	-53.0	11.4	8.68e-04	0	57	0	1202716672	60	5831
2026-01-04 06:27:33.93	318.40	7.19	-49.2	-53.0	11.4	1.24e-03	0	57	0	1203765248	60	5810
2026-01-04 06:27:34.92	318.32	7.13	-49.4	-53.4	11.0	1.59e-03	0	57	0	1205862400	60	6064
2026-01-04 06:27:35.90	318.23	7.06	-49.5	-53.5	10.8	1.86e-03	0	57	0	1207959552	60	6189
2026-01-04 06:27:36.89	318.15	7.00	-49.4	-53.4	10.9	1.79e-03	0	57	0	1210056704	60	6114
2026-01-04 06:27:37.88	318.07	6.93	-49.4	-53.4	10.9	2.32e-03	0	57	0	1211105280	60	6109
2026-01-04 06:27:38.87	317.98	6.87	-49.5	-53.6	10.8	2.15e-03	0	57	0	1213202432	60	6204
2026-01-04 06:27:39.85	317.90	6.80	-49.3	-53.3	11.0	1.96e-03	0	57	0	1215299584	60	6016
2026-01-04 06:27:40.84	317.82	6.74	-49.2	-53.0	11.4	1.45e-03	0	57	0	1217396736	60	5813
2026-01-04 06:27:41.82	317.74	6.68	-49.0	-52.6	11.7	8.18e-04	0	57	0	1218445312	60	5560
2026-01-04 06:27:42.82	317.66	6.61	-49.0	-52.5	11.8	5.29e-04	0	57	0	1220542464	60	5517
2026-01-04 06:27:43.80	317.58	6.55	-48.9	-52.4	12.0	3.75e-04	0	57	0	1222639616	60	5411
2026-01-04 06:27:44.80	317.49	6.48	-48.8	-52.1	12.2	2.72e-04	0	57	0	1224736768	60	5257
2026-01-04 06:27:45.79	317.41	6.42	-48.9	-52.2	12.1	2.81e-04	0	57	0	1226833920	60	5326
2026-01-04 06:27:46.79	317.33	6.35	-48.7	-52.0	12.3	1.80e-04	0	57	0	1227882496	60	5183
