passes_logs/2026/01/04/R3.0SM8_Murmansk_STILSPACE/R3.0SM8_Murmansk_STILSPACE__20260104_213801_SUOMI_NPP_rec.log

#Pass ID: 20260104_213801_SUOMI NPP
#Satellite: SUOMI NPP
#Configuration: NPP
#almurnet v.1.7.20240730
#Start time: 2026-01-04 21:38:01

#Version: 2.2.20231116
#Station: R3.0SM8_Murmansk_STILSPACE
#Location: 33.092731 lon 68.902999 lat
#TLE: 1 37849U 11061A   26003.96724563  .00000164  00000+0  98899-4 0  9990
#TLE: 2 37849  98.7800 306.1116 0002573  82.3190 277.8279 14.19522066735141

#Time	Az	El	Level	Level2	SNR	BER	BlckErr	Temp	State	Recorded	gain1	gain2
2026-01-04 21:38:01.78	20.40	3.00	-52.6	-66.3	3.8	1.49e+00	0	45	0	0	67	18078
2026-01-04 21:38:02.75	20.49	3.05	-52.5	-66.3	3.8	1.49e+00	0	45	104	0	67	18055
2026-01-04 21:38:03.74	20.59	3.10	-52.5	-66.3	3.8	1.49e+00	0	45	104	0	67	17977
2026-01-04 21:38:04.73	20.68	3.15	-52.5	-66.3	3.8	1.49e+00	0	46	104	0	67	17925
2026-01-04 21:38:05.72	20.78	3.19	-51.8	-65.7	3.8	1.49e+00	0	46	104	0	66	17845
2026-01-04 21:38:06.70	20.88	3.24	-51.4	-65.3	3.8	1.49e+00	0	46	104	0	65	18067
2026-01-04 21:38:07.69	20.98	3.29	-52.3	-66.2	3.8	1.49e+00	0	46	104	0	66	18794
2026-01-04 21:38:08.69	21.08	3.34	-52.4	-66.2	3.8	1.49e+00	0	46	104	0	66	18805
2026-01-04 21:38:09.68	21.17	3.38	-52.3	-66.2	3.8	1.49e+00	0	46	104	0	66	18800
2026-01-04 21:38:10.68	21.27	3.43	-52.2	-66.1	3.8	1.49e+00	0	46	104	0	66	18668
2026-01-04 21:38:11.66	21.37	3.48	-52.2	-66.1	3.8	1.49e+00	0	46	104	0	66	18605
2026-01-04 21:38:12.65	21.47	3.53	-52.0	-66.0	3.8	1.49e+00	0	46	104	0	66	18392
2026-01-04 21:38:13.64	21.57	3.57	-52.0	-65.9	3.8	1.49e+00	0	46	104	0	66	18283
2026-01-04 21:38:14.63	21.67	3.62	-51.9	-65.8	3.8	1.49e+00	0	46	104	0	66	17924
2026-01-04 21:38:15.62	21.77	3.67	-51.8	-65.6	3.8	1.49e+00	0	46	104	0	66	17567
2026-01-04 21:38:16.61	21.87	3.72	-51.6	-65.4	3.8	1.49e+00	0	47	104	0	66	17134
2026-01-04 21:38:17.59	21.97	3.76	-51.5	-65.3	3.8	1.49e+00	0	46	104	0	65	18027
2026-01-04 21:38:18.57	22.07	3.81	-51.6	-65.3	3.8	1.49e+00	0	46	104	0	65	17983
2026-01-04 21:38:19.55	22.17	3.86	-51.5	-65.3	3.8	1.49e+00	0	46	104	0	65	17940
2026-01-04 21:38:20.54	22.27	3.91	-51.4	-65.3	3.8	1.49e+00	0	46	104	0	65	17939
2026-01-04 21:38:21.53	22.37	3.95	-51.4	-65.3	3.8	1.49e+00	0	47	104	0	65	17976
2026-01-04 21:38:22.52	22.48	4.00	-51.5	-65.3	3.8	1.49e+00	0	47	104	0	65	18029
2026-01-04 21:38:23.50	22.58	4.05	-51.4	-65.3	3.8	1.49e+00	0	47	104	0	65	18065
2026-01-04 21:38:24.48	22.68	4.10	-51.4	-65.3	3.8	1.49e+00	0	47	104	0	65	18047
2026-01-04 21:38:25.47	22.78	4.14	-51.4	-65.4	3.8	1.49e+00	0	47	104	0	65	18112
2026-01-04 21:38:26.45	22.89	4.19	-51.4	-65.3	3.8	1.49e+00	0	47	104	0	65	18072
2026-01-04 21:38:27.44	22.99	4.24	-51.5	-65.4	3.8	1.49e+00	0	47	104	0	65	18167
2026-01-04 21:38:28.43	23.09	4.29	-51.5	-65.3	3.8	1.49e+00	0	47	104	0	65	18056
2026-01-04 21:38:29.41	23.20	4.33	-51.4	-65.3	3.8	1.49e+00	0	47	104	0	65	17970
2026-01-04 21:38:30.40	23.30	4.38	-51.4	-65.2	3.8	1.49e+00	0	47	104	0	65	17818
2026-01-04 21:38:31.39	23.41	4.43	-51.3	-65.2	3.8	1.49e+00	0	47	104	0	65	17703
2026-01-04 21:38:32.38	23.51	4.48	-51.5	-65.2	3.8	1.49e+00	0	47	104	0	65	17722
2026-01-04 21:38:33.36	23.62	4.52	-51.5	-65.2	3.8	1.49e+00	0	47	104	0	65	17806
2026-01-04 21:38:34.35	23.73	4.57	-51.4	-65.1	3.8	1.49e+00	0	47	104	0	65	17646
2026-01-04 21:38:35.34	23.83	4.62	-51.3	-64.9	3.8	1.49e+00	0	48	104	0	65	17256
2026-01-04 21:38:36.33	23.94	4.67	-51.3	-64.5	3.8	1.49e+00	0	47	104	0	65	16363
2026-01-04 21:38:37.31	24.04	4.72	-51.2	-63.4	3.8	1.49e+00	0	48	104	0	65	14416
2026-01-04 21:38:38.30	24.15	4.76	-51.2	-61.9	4.2	1.47e+00	0	48	0	0	65	12132
2026-01-04 21:38:39.29	24.26	4.81	-51.0	-59.9	4.9	1.22e+00	0	48	0	1048576	65	9684
2026-01-04 21:38:40.29	24.37	4.86	-50.8	-58.4	5.9	4.49e-01	0	48	0	3145728	64	8612
2026-01-04 21:38:41.28	24.48	4.91	-50.4	-56.9	7.1	2.15e-01	0	48	0	4194304	64	7271
2026-01-04 21:38:42.26	24.59	4.96	-50.2	-55.7	8.5	7.68e-02	0	48	0	6291456	63	6653
2026-01-04 21:38:43.25	24.70	5.00	-49.8	-54.5	9.5	2.75e-02	0	48	0	8388608	62	6187
2026-01-04 21:38:44.25	24.81	5.05	-49.5	-53.8	10.4	6.45e-03	0	48	0	10485760	62	5695
2026-01-04 21:38:45.23	24.91	5.10	-49.6	-53.8	10.4	4.80e-03	0	48	0	11534336	62	5707
2026-01-04 21:38:46.22	25.02	5.15	-49.6	-53.9	10.3	6.26e-03	0	48	0	13631488	62	5766
2026-01-04 21:38:47.21	25.14	5.19	-49.6	-53.8	10.4	4.99e-03	0	48	0	15728640	62	5712
2026-01-04 21:38:48.20	25.25	5.24	-49.4	-53.5	10.7	3.62e-03	0	48	0	17825792	61	5839
2026-01-04 21:38:49.20	25.36	5.29	-49.3	-53.2	11.0	2.67e-03	0	48	0	18874368	61	5643
2026-01-04 21:38:50.19	25.47	5.34	-49.2	-53.0	11.2	1.29e-03	0	48	0	20971520	61	5517
2026-01-04 21:38:51.18	25.58	5.39	-49.4	-53.3	11.0	1.59e-03	0	48	0	23068672	61	5665
2026-01-04 21:38:52.18	25.70	5.44	-49.4	-53.5	10.8	2.15e-03	0	48	0	25165824	61	5794
2026-01-04 21:38:53.16	25.81	5.48	-49.6	-53.7	10.4	3.72e-03	0	49	0	26214400	61	5972
2026-01-04 21:38:54.15	25.92	5.53	-49.4	-53.5	10.8	3.46e-03	0	49	0	28311552	61	5820
2026-01-04 21:38:55.14	26.03	5.58	-49.2	-53.0	11.2	1.49e-03	0	48	0	30408704	61	5510
2026-01-04 21:38:56.13	26.15	5.63	-49.2	-52.8	11.4	1.06e-03	0	49	0	32505856	61	5383
2026-01-04 21:38:57.12	26.26	5.67	-48.9	-52.4	11.8	7.34e-04	0	49	0	34603008	61	5131
2026-01-04 21:38:58.11	26.38	5.72	-49.1	-52.7	11.6	5.42e-04	0	49	0	35651584	61	5309
2026-01-04 21:38:59.09	26.49	5.77	-49.2	-53.1	11.3	1.16e-03	0	49	0	37748736	61	5533
2026-01-04 21:39:00.08	26.61	5.82	-49.2	-53.0	11.3	1.31e-03	0	49	0	39845888	61	5487
2026-01-04 21:39:01.07	26.72	5.87	-49.3	-53.2	11.1	1.30e-03	0	49	0	41943040	61	5612
2026-01-04 21:39:02.07	26.84	5.91	-49.4	-53.3	11.1	1.66e-03	0	49	0	42991616	61	5676
2026-01-04 21:39:03.06	26.95	5.96	-49.7	-54.0	10.3	4.20e-03	0	49	0	45088768	61	6132
2026-01-04 21:39:04.05	27.07	6.01	-49.4	-53.4	10.9	3.02e-03	0	49	0	47185920	61	5779
2026-01-04 21:39:05.04	27.19	6.06	-49.6	-53.9	10.5	2.31e-03	0	49	0	49283072	61	6062
2026-01-04 21:39:06.02	27.30	6.10	-49.5	-53.6	10.8	2.93e-03	0	49	0	50331648	61	5879
2026-01-04 21:39:07.01	27.42	6.15	-49.6	-53.8	10.5	3.32e-03	0	49	0	52428800	61	6035
2026-01-04 21:39:08.00	27.54	6.20	-49.4	-53.3	10.9	2.52e-03	0	49	0	54525952	61	5714
2026-01-04 21:39:09.00	27.66	6.25	-49.4	-53.3	11.1	1.79e-03	0	50	0	56623104	61	5670
2026-01-04 21:39:09.99	27.78	6.30	-49.3	-53.1	11.2	1.55e-03	0	49	0	58720256	61	5539
2026-01-04 21:39:10.98	27.90	6.34	-49.3	-53.1	11.3	1.21e-03	0	50	0	59768832	61	5529
2026-01-04 21:39:11.96	28.02	6.39	-49.1	-52.7	11.6	7.61e-04	0	49	0	61865984	61	5323
2026-01-04 21:39:12.94	28.14	6.44	-49.0	-52.5	11.9	6.32e-04	0	49	0	63963136	61	5197
2026-01-04 21:39:13.93	28.26	6.49	-48.9	-52.2	12.3	2.15e-04	0	50	0	66060288	60	5297
2026-01-04 21:39:14.92	28.38	6.53	-48.9	-52.2	12.2	1.81e-04	0	50	0	67108864	60	5299
2026-01-04 21:39:15.91	28.50	6.58	-48.8	-52.0	12.5	1.22e-04	0	50	0	69206016	60	5169
2026-01-04 21:39:16.91	28.62	6.63	-48.8	-52.0	12.4	1.06e-04	0	50	0	71303168	60	5208
2026-01-04 21:39:17.89	28.74	6.68	-48.8	-51.9	12.5	1.41e-04	0	50	0	73400320	60	5154
2026-01-04 21:39:18.88	28.86	6.72	-49.0	-52.4	12.0	2.04e-04	0	50	0	75497472	60	5460
2026-01-04 21:39:19.87	28.99	6.77	-48.8	-52.1	12.3	2.65e-04	0	50	0	76546048	60	5225
2026-01-04 21:39:20.86	29.11	6.82	-48.6	-51.5	12.9	1.20e-04	0	50	0	78643200	60	4923
2026-01-04 21:39:21.85	29.23	6.87	-48.5	-51.4	13.1	5.34e-05	0	50	0	80740352	60	4845
2026-01-04 21:39:22.84	29.36	6.91	-48.6	-51.5	13.0	2.51e-05	0	50	0	82837504	59	5189
2026-01-04 21:39:23.84	29.48	6.96	-48.8	-51.9	12.7	4.80e-05	0	50	0	83886080	59	5413
2026-01-04 21:39:24.83	29.61	7.01	-48.6	-51.6	13.0	7.93e-05	0	50	0	85983232	59	5245
2026-01-04 21:39:25.82	29.73	7.06	-48.7	-51.8	12.7	3.73e-05	0	50	0	88080384	59	5344
2026-01-04 21:39:26.80	29.86	7.10	-48.6	-51.5	12.9	4.19e-05	0	50	0	90177536	59	5216
2026-01-04 21:39:27.78	29.98	7.15	-48.5	-51.3	13.2	2.97e-05	0	50	0	91226112	59	5071
2026-01-04 21:39:28.76	30.11	7.20	-48.5	-51.3	13.2	1.83e-05	0	50	0	93323264	59	5073
2026-01-04 21:39:29.73	30.23	7.25	-48.5	-51.3	13.2	2.21e-05	0	50	0	95420416	59	5077
2026-01-04 21:39:30.72	30.36	7.29	-48.6	-51.6	13.0	2.82e-05	0	50	0	97517568	59	5227
2026-01-04 21:39:31.72	30.49	7.34	-48.7	-51.6	13.0	6.48e-05	0	50	0	98566144	59	5263
2026-01-04 21:39:32.71	30.61	7.39	-48.8	-51.8	12.8	4.11e-05	0	50	0	100663296	59	5358
2026-01-04 21:39:33.70	30.74	7.43	-48.9	-52.1	12.5	7.70e-05	0	51	0	102760448	59	5564
2026-01-04 21:39:34.68	30.87	7.48	-48.8	-51.8	12.7	1.13e-04	0	51	0	104857600	59	5370
2026-01-04 21:39:35.67	31.00	7.53	-48.6	-51.6	13.0	6.02e-05	0	51	0	105906176	59	5225
2026-01-04 21:39:36.66	31.13	7.58	-48.3	-51.0	13.5	1.60e-05	0	51	0	108003328	59	4882
2026-01-04 21:39:37.65	31.26	7.62	-48.1	-50.7	13.9	6.80e-06	0	51	0	110100480	59	4716
2026-01-04 21:39:38.65	31.39	7.67	-47.9	-50.4	14.2	3.00e-06	0	51	0	112197632	59	4562
2026-01-04 21:39:39.64	31.52	7.72	-47.7	-50.1	14.5	0.00e+00	0	51	0	114294784	58	4661
2026-01-04 21:39:40.62	31.65	7.76	-47.6	-49.8	14.8	7.00e-07	0	51	0	115343360	58	4533
2026-01-04 21:39:41.60	31.78	7.81	-47.6	-49.8	14.8	7.00e-07	0	51	0	117440512	58	4541
2026-01-04 21:39:42.59	31.91	7.86	-47.6	-49.9	14.7	0.00e+00	0	51	0	119537664	58	4550
2026-01-04 21:39:43.57	32.04	7.90	-47.7	-49.9	14.7	7.00e-07	0	51	0	121634816	58	4550
2026-01-04 21:39:44.56	32.17	7.95	-47.9	-50.2	14.3	0.00e+00	0	51	0	122683392	58	4754
2026-01-04 21:39:45.54	32.30	8.00	-47.9	-50.2	14.3	1.50e-06	0	51	0	124780544	58	4725
2026-01-04 21:39:46.52	32.44	8.04	-47.7	-49.9	14.7	7.00e-07	0	51	0	126877696	58	4590
2026-01-04 21:39:47.51	32.57	8.09	-47.7	-49.9	14.7	0.00e+00	0	51	0	128974848	58	4552
2026-01-04 21:39:48.49	32.70	8.14	-47.7	-50.0	14.7	0.00e+00	0	51	0	130023424	58	4620
2026-01-04 21:39:49.47	32.84	8.18	-47.9	-50.2	14.5	7.00e-07	0	51	0	132120576	58	4711
2026-01-04 21:39:50.46	32.97	8.23	-47.9	-50.2	14.4	0.00e+00	0	51	0	134217728	58	4755
2026-01-04 21:39:51.45	33.11	8.28	-48.0	-50.4	14.3	0.00e+00	0	51	0	136314880	58	4816
2026-01-04 21:39:52.44	33.24	8.32	-47.9	-50.2	14.4	1.50e-06	0	51	0	138412032	58	4749
2026-01-04 21:39:53.43	33.38	8.37	-48.0	-50.3	14.3	0.00e+00	0	51	0	139460608	58	4811
2026-01-04 21:39:54.42	33.52	8.42	-47.9	-50.3	14.3	7.00e-07	0	51	0	141557760	58	4775
2026-01-04 21:39:55.41	33.65	8.46	-47.8	-50.1	14.5	0.00e+00	0	51	0	143654912	58	4694
2026-01-04 21:39:56.39	33.79	8.51	-47.9	-50.3	14.3	7.00e-07	0	51	0	145752064	58	4772
2026-01-04 21:39:57.38	33.93	8.55	-48.0	-50.3	14.4	7.00e-07	0	51	0	146800640	58	4775
2026-01-04 21:39:58.36	34.06	8.60	-47.7	-50.0	14.7	0.00e+00	0	51	0	148897792	58	4609
2026-01-04 21:39:59.35	34.20	8.65	-47.7	-49.9	14.8	0.00e+00	0	51	0	150994944	58	4555
2026-01-04 21:40:00.34	34.34	8.69	-47.7	-49.9	14.8	0.00e+00	0	51	0	153092096	58	4561
2026-01-04 21:40:01.33	34.48	8.74	-47.8	-50.0	14.6	0.00e+00	0	51	0	154140672	58	4630
2026-01-04 21:40:02.32	34.62	8.78	-47.9	-50.2	14.5	7.00e-07	0	52	0	156237824	58	4732
2026-01-04 21:40:03.31	34.76	8.83	-48.0	-50.3	14.3	7.00e-07	0	51	0	158334976	58	4800
2026-01-04 21:40:04.30	34.90	8.88	-48.1	-50.4	14.2	7.00e-07	0	52	0	160432128	58	4857
2026-01-04 21:40:05.28	35.04	8.92	-48.2	-50.6	14.1	1.50e-06	0	51	0	162529280	58	4944
2026-01-04 21:40:06.27	35.19	8.97	-48.1	-50.6	14.0	7.00e-07	0	52	0	163577856	58	4933
2026-01-04 21:40:07.25	35.33	9.01	-48.3	-50.8	13.9	3.00e-06	0	52	0	165675008	58	5081
2026-01-04 21:40:08.24	35.47	9.06	-48.3	-50.9	13.7	7.00e-07	0	52	0	167772160	58	5141
2026-01-04 21:40:09.23	35.61	9.10	-48.2	-50.7	14.0	3.80e-06	0	52	0	169869312	58	5022
2026-01-04 21:40:10.22	35.76	9.15	-48.2	-50.8	13.9	7.00e-07	0	52	0	170917888	58	5046
2026-01-04 21:40:11.21	35.90	9.19	-48.5	-51.1	13.6	8.30e-06	0	52	0	173015040	58	5233
2026-01-04 21:40:12.20	36.04	9.24	-48.3	-50.9	13.8	4.50e-06	0	52	0	175112192	58	5106
2026-01-04 21:40:13.19	36.19	9.28	-48.5	-51.1	13.6	4.50e-06	0	52	0	177209344	58	5271
2026-01-04 21:40:14.17	36.33	9.33	-48.3	-50.9	13.9	4.50e-06	0	52	0	178257920	58	5108
2026-01-04 21:40:15.16	36.48	9.37	-48.1	-50.6	14.1	2.20e-06	0	52	0	180355072	58	4981
2026-01-04 21:40:16.15	36.62	9.42	-48.0	-50.4	14.2	7.00e-07	0	52	0	182452224	58	4869
2026-01-04 21:40:17.13	36.77	9.46	-48.2	-50.7	14.0	2.20e-06	0	52	0	184549376	58	5037
2026-01-04 21:40:18.12	36.92	9.51	-48.3	-50.9	13.8	5.30e-06	0	52	0	185597952	58	5146
2026-01-04 21:40:19.11	37.06	9.55	-48.1	-50.6	14.2	1.50e-06	0	52	0	187695104	58	4956
2026-01-04 21:40:20.10	37.21	9.60	-48.1	-50.4	14.3	2.20e-06	0	52	0	189792256	58	4850
2026-01-04 21:40:21.09	37.36	9.64	-48.2	-50.6	14.1	7.00e-07	0	52	0	191889408	58	4961
2026-01-04 21:40:22.09	37.51	9.69	-48.3	-50.7	14.0	2.20e-06	0	52	0	193986560	58	5040
2026-01-04 21:40:23.07	37.66	9.73	-48.5	-51.1	13.7	3.80e-06	0	52	0	195035136	58	5254
2026-01-04 21:40:24.06	37.81	9.78	-48.4	-51.0	13.8	4.50e-06	0	52	0	197132288	58	5173
2026-01-04 21:40:25.05	37.96	9.82	-48.5	-51.1	13.6	6.10e-06	0	52	0	199229440	58	5235
2026-01-04 21:40:26.04	38.11	9.86	-48.7	-51.4	13.5	8.30e-06	0	52	0	201326592	59	5119
2026-01-04 21:40:27.03	38.26	9.91	-48.6	-51.3	13.4	1.52e-05	0	52	0	202375168	59	5078
2026-01-04 21:40:28.02	38.41	9.95	-48.8	-51.8	13.0	2.05e-05	0	52	0	204472320	59	5350
2026-01-04 21:40:29.01	38.56	10.00	-48.7	-51.6	13.2	2.44e-05	0	52	0	206569472	59	5221
2026-01-04 21:40:29.99	38.71	10.04	-49.0	-52.1	12.7	4.73e-05	0	52	0	208666624	59	5536
2026-01-04 21:40:30.98	38.87	10.08	-48.8	-51.7	13.1	3.96e-05	0	52	0	209715200	59	5301
2026-01-04 21:40:31.98	39.02	10.13	-48.5	-51.2	13.5	2.59e-05	0	52	0	211812352	59	4988
2026-01-04 21:40:32.97	39.17	10.17	-48.3	-50.8	13.9	5.30e-06	0	52	0	213909504	59	4807
2026-01-04 21:40:33.96	39.33	10.21	-48.2	-50.6	14.2	1.50e-06	0	52	0	216006656	59	4667
2026-01-04 21:40:34.95	39.48	10.26	-48.0	-50.3	14.5	0.00e+00	0	52	0	218103808	59	4513
2026-01-04 21:40:35.94	39.64	10.30	-47.9	-50.2	14.5	0.00e+00	0	52	0	219152384	59	4477
2026-01-04 21:40:36.94	39.79	10.34	-48.2	-50.6	14.2	7.00e-07	0	52	0	221249536	59	4681
2026-01-04 21:40:37.93	39.95	10.39	-48.1	-50.6	14.2	7.00e-07	0	53	0	223346688	59	4663
2026-01-04 21:40:38.92	40.11	10.43	-48.4	-51.0	13.8	0.00e+00	0	53	0	225443840	59	4885
2026-01-04 21:40:39.91	40.26	10.47	-48.3	-50.8	13.9	3.80e-06	0	53	0	226492416	59	4787
2026-01-04 21:40:40.91	40.42	10.51	-48.5	-51.1	13.6	5.30e-06	0	53	0	228589568	59	4975
2026-01-04 21:40:41.89	40.58	10.56	-48.4	-51.0	13.8	9.10e-06	0	53	0	230686720	59	4923
2026-01-04 21:40:42.88	40.74	10.60	-48.4	-50.9	13.9	0.00e+00	0	53	0	232783872	59	4858
2026-01-04 21:40:43.87	40.89	10.64	-48.4	-51.0	13.8	1.50e-06	0	53	0	233832448	59	4884
2026-01-04 21:40:44.86	41.05	10.68	-48.2	-50.7	14.1	1.50e-06	0	53	0	235929600	59	4735
2026-01-04 21:40:45.85	41.21	10.73	-48.3	-50.8	14.0	3.00e-06	0	53	0	238026752	59	4783
2026-01-04 21:40:46.84	41.37	10.77	-48.4	-51.0	13.8	6.80e-06	0	53	0	240123904	59	4892
2026-01-04 21:40:47.83	41.53	10.81	-48.4	-50.9	14.0	3.80e-06	0	53	0	242221056	59	4815
2026-01-04 21:40:48.82	41.69	10.85	-48.4	-51.0	13.9	1.50e-06	0	53	0	243269632	59	4895
2026-01-04 21:40:49.81	41.85	10.89	-48.6	-51.3	13.5	7.60e-06	0	53	0	245366784	59	5052
2026-01-04 21:40:50.80	42.02	10.93	-48.7	-51.4	13.4	1.37e-05	0	53	0	247463936	59	5110
2026-01-04 21:40:51.79	42.18	10.98	-48.6	-51.3	13.5	7.60e-06	0	53	0	249561088	59	5070
2026-01-04 21:40:52.78	42.34	11.02	-48.8	-51.6	13.2	1.67e-05	0	53	0	250609664	59	5231
2026-01-04 21:40:53.77	42.50	11.06	-48.9	-51.7	13.2	2.51e-05	0	53	0	252706816	59	5318
2026-01-04 21:40:54.77	42.67	11.10	-49.0	-51.9	13.0	2.05e-05	0	53	0	254803968	59	5411
2026-01-04 21:40:55.75	42.83	11.14	-49.0	-51.9	12.9	4.34e-05	0	53	0	256901120	59	5416
2026-01-04 21:40:56.75	43.00	11.18	-49.1	-52.2	12.6	7.01e-05	0	53	0	258998272	60	5335
2026-01-04 21:40:57.75	43.16	11.22	-49.1	-52.1	12.6	1.24e-04	0	53	0	260046848	60	5264
2026-01-04 21:40:58.74	43.33	11.26	-49.0	-52.0	12.9	6.17e-05	0	53	0	262144000	60	5195
2026-01-04 21:40:59.72	43.49	11.30	-48.8	-51.6	13.2	3.20e-05	0	53	0	264241152	60	4937
2026-01-04 21:41:00.71	43.66	11.34	-48.6	-51.3	13.5	2.05e-05	0	53	0	266338304	60	4789
2026-01-04 21:41:01.70	43.82	11.38	-48.7	-51.5	13.4	1.60e-05	0	53	0	267386880	60	4878
2026-01-04 21:41:02.69	43.99	11.42	-48.6	-51.3	13.5	1.37e-05	0	53	0	269484032	60	4783
2026-01-04 21:41:03.68	44.16	11.46	-48.6	-51.3	13.4	1.67e-05	0	53	0	271581184	60	4809
2026-01-04 21:41:04.67	44.33	11.50	-48.7	-51.5	13.5	7.60e-06	0	53	0	273678336	60	4871
2026-01-04 21:41:05.66	44.49	11.54	-48.7	-51.4	13.4	1.60e-05	0	53	0	274726912	60	4840
2026-01-04 21:41:06.65	44.66	11.58	-48.8	-51.6	13.3	9.10e-06	0	53	0	276824064	60	4963
2026-01-04 21:41:07.64	44.83	11.62	-48.6	-51.3	13.5	1.75e-05	0	53	0	278921216	60	4805
2026-01-04 21:41:08.62	45.00	11.66	-48.8	-51.7	13.1	1.52e-05	0	53	0	281018368	60	4984
2026-01-04 21:41:09.61	45.17	11.69	-48.9	-51.9	12.9	3.81e-05	0	53	0	282066944	60	5149
2026-01-04 21:41:10.60	45.34	11.73	-49.0	-52.1	12.7	5.03e-05	0	53	0	284164096	60	5240
2026-01-04 21:41:11.59	45.51	11.77	-49.0	-52.0	12.9	4.04e-05	0	53	0	286261248	60	5179
2026-01-04 21:41:12.58	45.68	11.81	-49.1	-52.2	12.6	3.73e-05	0	53	0	288358400	60	5298
2026-01-04 21:41:13.58	45.86	11.85	-49.1	-52.0	12.8	9.07e-05	0	53	0	290455552	60	5214
2026-01-04 21:41:14.57	46.03	11.89	-48.9	-51.7	13.1	5.11e-05	0	54	0	291504128	60	5016
2026-01-04 21:41:15.57	46.20	11.92	-48.8	-51.7	13.1	1.67e-05	0	54	0	293601280	60	4991
2026-01-04 21:41:16.56	46.37	11.96	-48.7	-51.4	13.4	1.52e-05	0	53	0	295698432	60	4838
2026-01-04 21:41:17.54	46.55	12.00	-48.7	-51.5	13.3	1.60e-05	0	53	0	297795584	60	4896
2026-01-04 21:41:18.52	46.72	12.03	-48.7	-51.4	13.4	2.44e-05	0	53	0	298844160	60	4848
2026-01-04 21:41:19.52	46.89	12.07	-48.6	-51.2	13.6	1.06e-05	0	53	0	300941312	60	4734
2026-01-04 21:41:20.51	47.07	12.11	-48.6	-51.3	13.6	8.30e-06	0	54	0	303038464	60	4792
2026-01-04 21:41:21.49	47.24	12.14	-48.8	-51.6	13.3	1.75e-05	0	54	0	305135616	60	4942
2026-01-04 21:41:22.47	47.42	12.18	-48.6	-51.3	13.6	1.37e-05	0	53	0	306184192	60	4766
2026-01-04 21:41:23.47	47.59	12.22	-48.6	-51.4	13.5	1.06e-05	0	53	0	308281344	60	4819
2026-01-04 21:41:24.46	47.77	12.25	-48.7	-51.5	13.4	9.10e-06	0	54	0	310378496	60	4903
2026-01-04 21:41:25.46	47.95	12.29	-48.6	-51.4	13.4	1.44e-05	0	54	0	312475648	60	4839
2026-01-04 21:41:26.45	48.13	12.32	-48.7	-51.6	13.2	1.75e-05	0	54	0	314572800	60	4957
2026-01-04 21:41:27.44	48.30	12.36	-48.6	-51.3	13.7	1.75e-05	0	54	0	315621376	60	4771
2026-01-04 21:41:28.43	48.48	12.40	-48.6	-51.3	13.6	3.00e-06	0	54	0	317718528	60	4786
2026-01-04 21:41:29.42	48.66	12.43	-48.6	-51.3	13.5	8.30e-06	0	54	0	319815680	60	4796
2026-01-04 21:41:30.40	48.84	12.46	-48.7	-51.4	13.5	1.37e-05	0	54	0	321912832	60	4839
2026-01-04 21:41:31.40	49.02	12.50	-48.7	-51.5	13.4	8.30e-06	0	54	0	322961408	60	4900
2026-01-04 21:41:32.40	49.20	12.53	-48.9	-51.9	12.9	2.51e-05	0	54	0	325058560	60	5132
2026-01-04 21:41:33.38	49.38	12.57	-49.0	-52.0	12.8	4.34e-05	0	54	0	327155712	60	5185
2026-01-04 21:41:34.37	49.56	12.60	-48.9	-51.9	13.0	3.50e-05	0	54	0	329252864	60	5128
2026-01-04 21:41:35.36	49.74	12.64	-49.2	-52.4	12.5	3.28e-05	0	54	0	331350016	60	5423
2026-01-04 21:41:36.35	49.92	12.67	-49.1	-52.1	12.7	1.15e-04	0	54	0	332398592	60	5273
2026-01-04 21:41:37.34	50.10	12.70	-49.0	-52.0	12.9	5.95e-05	0	54	0	334495744	60	5211
2026-01-04 21:41:38.33	50.28	12.74	-49.0	-52.0	12.9	5.03e-05	0	54	0	336592896	60	5186
2026-01-04 21:41:39.32	50.47	12.77	-48.9	-51.8	13.1	4.11e-05	0	54	0	338690048	60	5055
2026-01-04 21:41:40.31	50.65	12.80	-48.9	-51.7	13.1	2.21e-05	0	54	0	339738624	60	5041
2026-01-04 21:41:41.29	50.83	12.83	-49.0	-51.9	12.9	5.11e-05	0	54	0	341835776	60	5151
2026-01-04 21:41:42.28	51.01	12.87	-48.7	-51.5	13.4	3.20e-05	0	54	0	343932928	60	4877
2026-01-04 21:41:43.28	51.20	12.90	-48.6	-51.4	13.5	1.06e-05	0	54	0	346030080	60	4839
2026-01-04 21:41:44.26	51.38	12.93	-48.6	-51.4	13.5	1.06e-05	0	54	0	347078656	60	4833
2026-01-04 21:41:45.25	51.57	12.96	-48.4	-51.1	13.9	8.30e-06	0	54	0	349175808	60	4653
2026-01-04 21:41:46.24	51.75	12.99	-48.2	-50.6	14.3	0.00e+00	0	54	0	351272960	59	4676
2026-01-04 21:41:47.23	51.94	13.02	-48.0	-50.2	14.8	7.00e-07	0	54	0	353370112	58	4738
2026-01-04 21:41:48.22	52.12	13.06	-48.0	-50.2	14.7	0.00e+00	0	54	0	355467264	58	4756
2026-01-04 21:41:49.22	52.31	13.09	-48.1	-50.4	14.5	7.00e-07	0	54	0	356515840	58	4826
2026-01-04 21:41:50.20	52.50	13.12	-47.9	-50.0	14.9	0.00e+00	0	54	0	358612992	58	4618
2026-01-04 21:41:51.19	52.68	13.15	-47.7	-49.7	15.2	0.00e+00	0	54	0	360710144	58	4462
2026-01-04 21:41:52.19	52.87	13.18	-47.6	-49.7	15.3	0.00e+00	0	54	0	362807296	58	4451
2026-01-04 21:41:53.18	53.06	13.21	-47.6	-49.7	15.2	0.00e+00	0	54	0	363855872	58	4452
2026-01-04 21:41:54.17	53.25	13.24	-47.7	-49.7	15.2	0.00e+00	0	54	0	365953024	58	4484
2026-01-04 21:41:55.16	53.44	13.27	-47.9	-50.1	14.8	0.00e+00	0	54	0	368050176	58	4681
2026-01-04 21:41:56.15	53.63	13.30	-47.9	-50.1	14.9	7.00e-07	0	54	0	370147328	58	4652
2026-01-04 21:41:57.14	53.82	13.32	-47.9	-50.2	14.8	0.00e+00	0	54	0	372244480	58	4713
2026-01-04 21:41:58.13	54.01	13.35	-48.0	-50.2	14.7	0.00e+00	0	54	0	373293056	58	4751
2026-01-04 21:41:59.12	54.20	13.38	-48.0	-50.3	14.6	0.00e+00	0	54	0	375390208	58	4766
2026-01-04 21:42:00.11	54.39	13.41	-48.0	-50.2	14.7	0.00e+00	0	54	0	377487360	58	4740
2026-01-04 21:42:01.10	54.58	13.44	-47.8	-49.8	15.1	0.00e+00	0	54	0	379584512	58	4537
2026-01-04 21:42:02.09	54.77	13.46	-47.6	-49.5	15.4	0.00e+00	0	54	0	380633088	58	4387
2026-01-04 21:42:03.08	54.96	13.49	-47.5	-49.6	15.4	0.00e+00	0	54	0	382730240	58	4401
2026-01-04 21:42:04.07	55.15	13.52	-47.8	-49.9	15.0	0.00e+00	0	54	0	384827392	58	4598
2026-01-04 21:42:05.05	55.34	13.54	-47.7	-49.8	15.1	7.00e-07	0	54	0	386924544	58	4542
2026-01-04 21:42:06.05	55.54	13.57	-48.1	-50.3	14.7	1.50e-06	0	54	0	387973120	58	4806
2026-01-04 21:42:07.04	55.73	13.60	-47.9	-50.2	14.8	0.00e+00	0	54	0	390070272	58	4707
2026-01-04 21:42:08.02	55.92	13.62	-48.1	-50.5	14.4	7.00e-07	0	54	0	392167424	58	4879
2026-01-04 21:42:09.01	56.11	13.65	-48.0	-50.2	14.7	0.00e+00	0	54	0	394264576	58	4733
2026-01-04 21:42:10.01	56.31	13.67	-48.0	-50.3	14.7	0.00e+00	0	54	0	395313152	58	4762
2026-01-04 21:42:11.00	56.50	13.70	-48.1	-50.3	14.7	7.00e-07	0	54	0	397410304	58	4809
2026-01-04 21:42:11.99	56.70	13.72	-48.2	-50.5	14.5	0.00e+00	0	55	0	399507456	58	4880
2026-01-04 21:42:12.97	56.89	13.75	-48.0	-50.2	14.8	7.00e-07	0	54	0	401604608	58	4709
2026-01-04 21:42:13.95	57.08	13.77	-48.0	-50.2	14.8	0.00e+00	0	54	0	403701760	58	4708
2026-01-04 21:42:14.95	57.28	13.80	-48.2	-50.5	14.5	0.00e+00	0	54	0	404750336	58	4909
2026-01-04 21:42:15.93	57.48	13.82	-48.4	-50.8	14.2	0.00e+00	0	54	0	406847488	58	5070
2026-01-04 21:42:16.92	57.67	13.84	-48.6	-51.1	13.8	3.80e-06	0	55	0	408944640	58	5274
2026-01-04 21:42:17.91	57.87	13.87	-48.6	-51.3	13.7	3.80e-06	0	54	0	411041792	59	5070
2026-01-04 21:42:18.90	58.06	13.89	-48.7	-51.3	13.6	7.60e-06	0	55	0	412090368	59	5077
2026-01-04 21:42:19.89	58.26	13.91	-48.7	-51.2	13.8	3.80e-06	0	55	0	414187520	59	5031
2026-01-04 21:42:20.89	58.46	13.93	-48.8	-51.5	13.4	1.44e-05	0	54	0	416284672	59	5216
2026-01-04 21:42:21.87	58.66	13.96	-48.6	-51.2	13.8	3.00e-06	0	55	0	418381824	59	4991
2026-01-04 21:42:22.87	58.86	13.98	-48.6	-51.2	13.8	4.50e-06	0	55	0	419430400	59	4997
2026-01-04 21:42:23.85	59.05	14.00	-49.0	-51.9	13.1	7.60e-06	0	55	0	421527552	59	5418
2026-01-04 21:42:24.85	59.25	14.02	-49.1	-52.3	12.6	8.39e-05	0	55	0	423624704	60	5377
2026-01-04 21:42:25.83	59.45	14.04	-49.5	-53.0	11.9	2.10e-04	0	55	0	425721856	61	5505
2026-01-04 21:42:26.82	59.65	14.06	-49.6	-53.1	11.9	6.39e-04	0	55	0	427819008	61	5535
2026-01-04 21:42:27.80	59.84	14.08	-49.6	-53.1	11.9	6.50e-04	0	55	0	428867584	61	5542
2026-01-04 21:42:28.79	60.04	14.10	-49.4	-52.8	12.1	3.55e-04	0	55	0	430964736	61	5385
2026-01-04 21:42:29.77	60.24	14.12	-49.3	-52.5	12.4	1.20e-04	0	55	0	433061888	61	5217
2026-01-04 21:42:30.76	60.44	14.14	-49.2	-52.3	12.6	1.07e-04	0	55	0	435159040	61	5097
2026-01-04 21:42:31.75	60.64	14.16	-49.0	-51.9	13.0	8.39e-05	0	54	0	436207616	61	4861
2026-01-04 21:42:32.74	60.84	14.18	-49.1	-52.0	13.0	2.51e-05	0	55	0	438304768	60	5160
2026-01-04 21:42:33.72	61.04	14.20	-49.3	-52.6	12.4	8.62e-05	0	55	0	440401920	60	5545
2026-01-04 21:42:34.71	61.24	14.21	-49.5	-53.0	12.0	2.20e-04	0	55	0	442499072	60	5803
2026-01-04 21:42:35.70	61.44	14.23	-49.5	-52.9	12.0	1.97e-04	0	55	0	443547648	60	5784
2026-01-04 21:42:36.69	61.64	14.25	-49.4	-53.0	12.0	4.42e-04	0	55	0	445644800	61	5466
2026-01-04 21:42:37.68	61.85	14.27	-49.3	-52.5	12.5	1.90e-04	0	55	0	447741952	61	5214
2026-01-04 21:42:38.67	62.05	14.28	-49.0	-52.0	12.9	7.47e-05	0	55	0	449839104	61	4925
2026-01-04 21:42:39.65	62.25	14.30	-48.6	-51.3	13.7	9.10e-06	0	55	0	451936256	60	4773
2026-01-04 21:42:40.64	62.45	14.32	-48.5	-51.1	13.9	3.80e-06	0	55	0	452984832	59	4937
2026-01-04 21:42:41.62	62.65	14.33	-48.3	-50.8	14.3	7.00e-07	0	55	0	455081984	59	4775
2026-01-04 21:42:42.61	62.85	14.35	-48.1	-50.4	14.5	0.00e+00	0	55	0	457179136	59	4590
2026-01-04 21:42:43.60	63.06	14.36	-48.4	-50.7	14.3	7.00e-07	0	55	0	459276288	59	4737
2026-01-04 21:42:44.60	63.26	14.38	-48.3	-50.6	14.3	7.00e-07	0	55	0	460324864	59	4690
2026-01-04 21:42:45.59	63.46	14.39	-48.1	-50.3	14.5	7.00e-07	0	55	0	462422016	59	4537
2026-01-04 21:42:46.57	63.67	14.41	-47.8	-49.9	14.9	0.00e+00	0	55	0	464519168	58	4597
2026-01-04 21:42:47.56	63.87	14.42	-47.6	-49.6	15.3	0.00e+00	0	55	0	466616320	58	4423
2026-01-04 21:42:48.55	64.07	14.43	-47.5	-49.5	15.5	0.00e+00	0	55	0	467664896	58	4352
2026-01-04 21:42:49.53	64.27	14.45	-47.6	-49.5	15.5	0.00e+00	0	55	0	469762048	58	4374
2026-01-04 21:42:50.52	64.48	14.46	-47.6	-49.7	15.4	0.00e+00	0	55	0	471859200	58	4449
2026-01-04 21:42:51.52	64.69	14.47	-47.7	-49.8	15.2	0.00e+00	0	55	0	473956352	58	4495
2026-01-04 21:42:52.51	64.89	14.49	-47.9	-50.1	14.9	0.00e+00	0	55	0	475004928	58	4670
2026-01-04 21:42:53.50	65.09	14.50	-48.2	-50.4	14.7	0.00e+00	0	55	0	477102080	58	4845
2026-01-04 21:42:54.48	65.30	14.51	-48.2	-50.5	14.4	7.00e-07	0	55	0	479199232	58	4907
2026-01-04 21:42:55.47	65.50	14.52	-48.1	-50.3	14.5	0.00e+00	0	55	0	481296384	58	4806
2026-01-04 21:42:56.47	65.71	14.53	-48.1	-50.4	14.7	0.00e+00	0	55	0	483393536	58	4822
2026-01-04 21:42:57.46	65.92	14.54	-48.0	-50.3	14.8	0.00e+00	0	55	0	484442112	58	4773
2026-01-04 21:42:58.45	66.12	14.55	-48.0	-50.2	14.8	0.00e+00	0	55	0	486539264	58	4730
2026-01-04 21:42:59.44	66.33	14.56	-47.7	-49.7	15.2	0.00e+00	0	55	0	488636416	58	4492
2026-01-04 21:43:00.43	66.53	14.57	-47.8	-49.8	15.2	0.00e+00	0	55	0	490733568	58	4511
2026-01-04 21:43:01.42	66.74	14.58	-47.8	-50.0	15.1	0.00e+00	0	55	0	491782144	58	4603
2026-01-04 21:43:02.40	66.94	14.59	-48.1	-50.3	14.8	0.00e+00	0	55	0	493879296	58	4775
2026-01-04 21:43:03.38	67.15	14.60	-48.2	-50.5	14.6	7.00e-07	0	55	0	495976448	58	4898
2026-01-04 21:43:04.38	67.35	14.61	-48.3	-50.7	14.3	0.00e+00	0	55	0	498073600	58	4998
2026-01-04 21:43:05.37	67.56	14.62	-48.4	-50.8	14.3	0.00e+00	0	55	0	499122176	58	5047
2026-01-04 21:43:06.36	67.77	14.62	-48.5	-50.9	14.1	3.00e-06	0	55	0	501219328	59	4862
2026-01-04 21:43:07.35	67.97	14.63	-48.3	-50.5	14.4	1.50e-06	0	55	0	503316480	59	4648
2026-01-04 21:43:08.34	68.18	14.64	-48.1	-50.3	14.7	7.00e-07	0	55	0	505413632	59	4543
2026-01-04 21:43:09.33	68.39	14.64	-47.9	-50.1	14.9	7.00e-07	0	55	0	507510784	59	4397
2026-01-04 21:43:10.33	68.60	14.65	-48.0	-50.2	14.8	0.00e+00	0	55	0	508559360	59	4451
2026-01-04 21:43:11.31	68.80	14.66	-48.0	-50.2	14.8	0.00e+00	0	55	0	510656512	59	4443
2026-01-04 21:43:12.30	69.01	14.66	-48.0	-50.2	14.8	0.00e+00	0	55	0	512753664	59	4480
2026-01-04 21:43:13.30	69.22	14.67	-47.9	-50.0	15.0	0.00e+00	0	55	0	514850816	58	4650
2026-01-04 21:43:14.28	69.42	14.67	-47.9	-50.1	14.9	0.00e+00	0	55	0	515899392	58	4672
2026-01-04 21:43:15.27	69.63	14.68	-48.0	-50.2	14.8	0.00e+00	0	55	0	517996544	58	4747
2026-01-04 21:43:16.26	69.84	14.68	-48.3	-50.6	14.5	1.50e-06	0	55	0	520093696	58	4957
2026-01-04 21:43:17.25	70.04	14.68	-48.2	-50.5	14.6	7.00e-07	0	55	0	522190848	58	4885
2026-01-04 21:43:18.23	70.25	14.69	-48.4	-50.8	14.1	7.00e-07	0	55	0	524288000	58	5100
2026-01-04 21:43:19.22	70.46	14.69	-48.4	-50.8	14.1	1.50e-06	0	55	0	525336576	58	5079
2026-01-04 21:43:20.20	70.66	14.69	-48.5	-50.9	14.0	0.00e+00	0	55	0	527433728	58	5157
2026-01-04 21:43:21.19	70.87	14.70	-48.4	-50.7	14.3	3.00e-06	0	55	0	529530880	58	5033
2026-01-04 21:43:22.19	71.08	14.70	-47.9	-50.0	14.8	1.50e-06	0	55	0	531628032	58	4640
2026-01-04 21:43:23.17	71.29	14.70	-47.9	-50.0	15.1	0.00e+00	0	55	0	532676608	58	4617
2026-01-04 21:43:24.15	71.49	14.70	-47.6	-49.6	15.4	0.00e+00	0	55	0	534773760	58	4408
2026-01-04 21:43:25.15	71.70	14.70	-47.7	-49.7	15.4	0.00e+00	0	55	0	536870912	58	4462
2026-01-04 21:43:26.13	71.91	14.70	-47.9	-50.0	15.0	0.00e+00	0	55	0	538968064	58	4610
2026-01-04 21:43:27.12	72.11	14.70	-47.9	-50.0	15.0	0.00e+00	0	55	0	540016640	58	4632
2026-01-04 21:43:28.10	72.32	14.70	-48.1	-50.3	14.7	0.00e+00	0	55	0	542113792	58	4809
2026-01-04 21:43:29.09	72.53	14.70	-47.8	-50.0	15.0	0.00e+00	0	55	0	544210944	58	4612
2026-01-04 21:43:30.07	72.73	14.70	-47.5	-49.5	15.4	0.00e+00	0	55	0	546308096	58	4381
2026-01-04 21:43:31.07	72.94	14.70	-47.4	-49.3	15.8	0.00e+00	0	55	0	547356672	57	4511
2026-01-04 21:43:32.07	73.15	14.70	-47.3	-49.2	15.9	0.00e+00	0	55	0	549453824	57	4443
2026-01-04 21:43:33.04	73.36	14.70	-47.1	-49.0	16.0	0.00e+00	0	55	0	551550976	57	4352
2026-01-04 21:43:34.04	73.57	14.70	-47.2	-49.1	15.9	0.00e+00	0	55	0	553648128	57	4407
2026-01-04 21:43:35.03	73.77	14.69	-47.5	-49.5	15.5	0.00e+00	0	55	0	555745280	57	4624
2026-01-04 21:43:36.02	73.98	14.69	-47.5	-49.4	15.6	0.00e+00	0	55	0	556793856	57	4558
2026-01-04 21:43:37.01	74.19	14.69	-47.6	-49.6	15.3	0.00e+00	0	55	0	558891008	57	4695
2026-01-04 21:43:38.02	74.40	14.68	-47.7	-49.8	15.2	0.00e+00	0	55	0	560988160	57	4770
2026-01-04 21:43:39.01	74.61	14.68	-47.4	-49.2	15.7	0.00e+00	0	55	0	563085312	57	4492
2026-01-04 21:43:39.98	74.81	14.68	-47.3	-49.1	15.9	0.00e+00	0	56	0	564133888	57	4402
2026-01-04 21:43:40.97	75.02	14.67	-47.1	-48.9	16.0	0.00e+00	0	56	0	566231040	57	4313
2026-01-04 21:43:41.96	75.23	14.67	-47.2	-49.0	15.9	0.00e+00	0	56	0	568328192	57	4386
2026-01-04 21:43:42.95	75.43	14.66	-47.1	-48.8	16.2	0.00e+00	0	56	0	570425344	57	4268
2026-01-04 21:43:43.94	75.64	14.66	-47.0	-48.8	16.2	0.00e+00	0	55	0	571473920	57	4248
2026-01-04 21:43:44.93	75.85	14.65	-47.3	-49.1	15.9	0.00e+00	0	55	0	573571072	57	4398
2026-01-04 21:43:45.92	76.05	14.64	-47.5	-49.4	15.6	0.00e+00	0	56	0	575668224	57	4555
2026-01-04 21:43:46.90	76.26	14.64	-47.5	-49.4	15.6	0.00e+00	0	56	0	577765376	57	4594
2026-01-04 21:43:47.88	76.46	14.63	-47.7	-49.8	15.2	0.00e+00	0	55	0	579862528	57	4779
2026-01-04 21:43:48.87	76.67	14.62	-47.7	-49.8	15.3	7.00e-07	0	55	0	580911104	57	4761
2026-01-04 21:43:49.86	76.88	14.62	-47.8	-49.9	15.1	0.00e+00	0	56	0	583008256	57	4820
2026-01-04 21:43:50.85	77.08	14.61	-47.7	-49.7	15.3	0.00e+00	0	56	0	585105408	57	4741
2026-01-04 21:43:51.82	77.29	14.60	-47.7	-49.7	15.3	7.00e-07	0	56	0	587202560	57	4726
2026-01-04 21:43:52.81	77.49	14.59	-47.6	-49.6	15.3	0.00e+00	0	56	0	588251136	57	4701
2026-01-04 21:43:53.80	77.70	14.58	-47.8	-49.9	15.1	0.00e+00	0	55	0	590348288	57	4837
2026-01-04 21:43:54.79	77.91	14.57	-47.7	-49.8	15.2	0.00e+00	0	55	0	592445440	57	4767
2026-01-04 21:43:55.78	78.11	14.56	-47.6	-49.6	15.4	0.00e+00	0	56	0	594542592	57	4669
2026-01-04 21:43:56.78	78.32	14.55	-47.7	-49.7	15.3	0.00e+00	0	55	0	595591168	57	4722
2026-01-04 21:43:57.77	78.53	14.54	-47.6	-49.6	15.3	0.00e+00	0	56	0	597688320	57	4690
2026-01-04 21:43:58.76	78.73	14.53	-47.7	-49.7	15.3	0.00e+00	0	56	0	599785472	57	4709
2026-01-04 21:43:59.75	78.94	14.52	-47.8	-49.9	15.1	0.00e+00	0	56	0	601882624	57	4849
2026-01-04 21:44:00.74	79.14	14.51	-47.7	-49.7	15.2	0.00e+00	0	55	0	603979776	57	4721
2026-01-04 21:44:01.73	79.35	14.50	-47.6	-49.6	15.3	0.00e+00	0	55	0	605028352	57	4684
2026-01-04 21:44:02.73	79.55	14.49	-47.6	-49.7	15.4	7.00e-07	0	55	0	607125504	57	4727
2026-01-04 21:44:03.71	79.76	14.47	-47.6	-49.7	15.3	0.00e+00	0	55	0	609222656	57	4709
2026-01-04 21:44:04.70	79.96	14.46	-47.8	-49.9	15.1	0.00e+00	0	56	0	611319808	57	4835
2026-01-04 21:44:05.70	80.17	14.45	-47.7	-49.9	15.1	0.00e+00	0	56	0	612368384	57	4823
2026-01-04 21:44:06.68	80.37	14.44	-47.8	-49.9	15.1	0.00e+00	0	56	0	614465536	57	4843
2026-01-04 21:44:07.66	80.57	14.42	-47.6	-49.7	15.3	0.00e+00	0	56	0	616562688	57	4744
2026-01-04 21:44:08.65	80.78	14.41	-47.5	-49.5	15.5	0.00e+00	0	55	0	618659840	57	4619
2026-01-04 21:44:09.64	80.98	14.39	-47.5	-49.4	15.6	0.00e+00	0	56	0	619708416	57	4582
2026-01-04 21:44:10.63	81.18	14.38	-47.4	-49.4	15.6	0.00e+00	0	56	0	621805568	57	4566
2026-01-04 21:44:11.62	81.39	14.36	-47.4	-49.3	15.6	0.00e+00	0	56	0	623902720	57	4533
2026-01-04 21:44:12.62	81.59	14.35	-47.3	-49.1	15.8	0.00e+00	0	56	0	625999872	57	4433
2026-01-04 21:44:13.61	81.79	14.33	-47.4	-49.3	15.7	0.00e+00	0	56	0	628097024	57	4532
2026-01-04 21:44:14.60	82.00	14.32	-47.5	-49.4	15.5	0.00e+00	0	55	0	629145600	57	4597
2026-01-04 21:44:15.59	82.20	14.30	-47.4	-49.2	15.7	0.00e+00	0	56	0	631242752	57	4478
2026-01-04 21:44:16.58	82.40	14.28	-47.1	-48.9	16.1	0.00e+00	0	56	0	633339904	57	4307
2026-01-04 21:44:17.57	82.60	14.27	-46.9	-48.5	16.4	0.00e+00	0	56	0	635437056	56	4389
2026-01-04 21:44:18.55	82.80	14.25	-46.7	-48.4	16.6	0.00e+00	0	56	0	636485632	56	4303
2026-01-04 21:44:19.55	83.01	14.23	-46.8	-48.4	16.5	0.00e+00	0	56	0	638582784	56	4328
2026-01-04 21:44:20.54	83.21	14.22	-46.9	-48.6	16.3	0.00e+00	0	56	0	640679936	56	4441
2026-01-04 21:44:21.52	83.41	14.20	-47.0	-48.8	16.2	0.00e+00	0	56	0	642777088	56	4507
2026-01-04 21:44:22.51	83.61	14.18	-46.9	-48.6	16.3	0.00e+00	0	56	0	643825664	56	4437
2026-01-04 21:44:23.49	83.81	14.16	-46.7	-48.4	16.6	0.00e+00	0	56	0	645922816	56	4323
2026-01-04 21:44:24.49	84.01	14.14	-46.8	-48.5	16.4	0.00e+00	0	56	0	648019968	56	4351
2026-01-04 21:44:25.47	84.21	14.12	-46.8	-48.5	16.4	0.00e+00	0	56	0	650117120	56	4358
2026-01-04 21:44:26.46	84.41	14.10	-46.9	-48.6	16.4	0.00e+00	0	56	0	651165696	56	4419
2026-01-04 21:44:27.45	84.61	14.08	-47.0	-48.7	16.3	0.00e+00	0	56	0	653262848	56	4487
2026-01-04 21:44:28.44	84.81	14.06	-47.2	-49.0	15.9	0.00e+00	0	56	0	655360000	56	4602
2026-01-04 21:44:29.43	85.01	14.04	-47.2	-49.0	16.0	0.00e+00	0	56	0	657457152	56	4632
2026-01-04 21:44:30.42	85.21	14.02	-47.3	-49.2	15.7	0.00e+00	0	56	0	659554304	56	4744
2026-01-04 21:44:31.41	85.41	14.00	-47.3	-49.1	15.9	0.00e+00	0	56	0	660602880	56	4670
2026-01-04 21:44:32.39	85.60	13.98	-47.2	-49.1	15.9	0.00e+00	0	56	0	662700032	56	4670
2026-01-04 21:44:33.38	85.80	13.96	-47.3	-49.2	15.8	0.00e+00	0	56	0	664797184	56	4717
2026-01-04 21:44:34.37	86.00	13.93	-47.4	-49.3	15.7	0.00e+00	0	56	0	666894336	56	4801
2026-01-04 21:44:35.35	86.19	13.91	-47.4	-49.3	15.6	0.00e+00	0	56	0	667942912	56	4786
2026-01-04 21:44:36.35	86.39	13.89	-47.2	-49.1	15.8	0.00e+00	0	56	0	670040064	56	4677
2026-01-04 21:44:37.33	86.59	13.87	-47.3	-49.2	15.8	0.00e+00	0	56	0	672137216	56	4720
2026-01-04 21:44:38.32	86.78	13.84	-47.2	-49.0	15.9	0.00e+00	0	56	0	674234368	56	4639
2026-01-04 21:44:39.30	86.98	13.82	-47.2	-49.1	15.9	0.00e+00	0	56	0	675282944	56	4672
2026-01-04 21:44:40.29	87.18	13.80	-47.1	-48.8	16.1	0.00e+00	0	56	0	677380096	56	4526
2026-01-04 21:44:41.29	87.37	13.77	-47.1	-48.8	16.1	0.00e+00	0	56	0	679477248	56	4526
2026-01-04 21:44:42.28	87.57	13.75	-47.1	-48.9	16.1	0.00e+00	0	56	0	681574400	56	4560
2026-01-04 21:44:43.26	87.76	13.72	-46.9	-48.5	16.4	0.00e+00	0	56	0	683671552	56	4380
2026-01-04 21:44:44.26	87.96	13.70	-46.8	-48.5	16.4	0.00e+00	0	56	0	684720128	56	4374
2026-01-04 21:44:45.25	88.15	13.67	-46.7	-48.3	16.6	0.00e+00	0	56	0	686817280	56	4273
2026-01-04 21:44:46.24	88.35	13.65	-46.7	-48.3	16.6	0.00e+00	0	56	0	688914432	56	4253
2026-01-04 21:44:47.24	88.54	13.62	-46.6	-48.2	16.7	0.00e+00	0	56	0	691011584	56	4222
2026-01-04 21:44:48.22	88.73	13.60	-46.8	-48.4	16.6	0.00e+00	0	56	0	692060160	56	4297
2026-01-04 21:44:49.21	88.93	13.57	-46.6	-48.2	16.7	0.00e+00	0	56	0	694157312	56	4223
2026-01-04 21:44:50.21	89.12	13.54	-46.7	-48.3	16.7	0.00e+00	0	56	0	696254464	56	4250
2026-01-04 21:44:51.19	89.31	13.52	-46.9	-48.6	16.3	0.00e+00	0	56	0	698351616	56	4418
2026-01-04 21:44:52.18	89.51	13.49	-46.7	-48.4	16.6	0.00e+00	0	56	0	700448768	56	4302
2026-01-04 21:44:53.16	89.70	13.46	-46.9	-48.6	16.3	0.00e+00	0	56	0	701497344	56	4417
2026-01-04 21:44:54.15	89.89	13.43	-47.1	-48.9	16.2	0.00e+00	0	56	0	703594496	56	4547
2026-01-04 21:44:55.14	90.08	13.41	-46.8	-48.5	16.4	0.00e+00	0	56	0	705691648	56	4390
2026-01-04 21:44:56.14	90.27	13.38	-46.8	-48.6	16.3	0.00e+00	0	56	0	707788800	56	4402
2026-01-04 21:44:57.12	90.46	13.35	-47.0	-48.8	16.1	0.00e+00	0	56	0	708837376	56	4533
2026-01-04 21:44:58.11	90.65	13.32	-47.0	-48.8	16.1	0.00e+00	0	56	0	710934528	56	4530
2026-01-04 21:44:59.10	90.84	13.29	-47.3	-49.1	15.8	0.00e+00	0	56	0	713031680	56	4699
2026-01-04 21:45:00.09	91.03	13.26	-47.1	-48.9	16.1	0.00e+00	0	56	0	715128832	56	4553
2026-01-04 21:45:01.08	91.22	13.23	-47.0	-48.8	16.2	0.00e+00	0	56	0	716177408	56	4500
2026-01-04 21:45:02.07	91.41	13.20	-46.9	-48.5	16.4	0.00e+00	0	56	0	718274560	56	4382
2026-01-04 21:45:03.06	91.60	13.17	-46.9	-48.6	16.4	0.00e+00	0	56	0	720371712	56	4402
2026-01-04 21:45:04.04	91.78	13.15	-46.8	-48.5	16.4	0.00e+00	0	56	0	722468864	56	4356
2026-01-04 21:45:05.03	91.97	13.11	-46.7	-48.4	16.6	0.00e+00	0	56	0	724566016	56	4307
2026-01-04 21:45:06.02	92.16	13.08	-46.9	-48.7	16.3	0.00e+00	0	56	0	725614592	56	4442
2026-01-04 21:45:07.02	92.35	13.05	-46.9	-48.6	16.3	0.00e+00	0	56	0	727711744	56	4414
2026-01-04 21:45:08.01	92.53	13.02	-47.0	-48.8	16.2	0.00e+00	0	56	0	729808896	56	4523
2026-01-04 21:45:09.00	92.72	12.99	-46.9	-48.7	16.2	0.00e+00	0	56	0	731906048	56	4467
2026-01-04 21:45:09.99	92.90	12.96	-46.9	-48.6	16.3	0.00e+00	0	56	0	732954624	56	4400
2026-01-04 21:45:10.97	93.09	12.93	-46.8	-48.5	16.4	0.00e+00	0	56	0	735051776	56	4364
2026-01-04 21:45:11.97	93.27	12.90	-46.9	-48.6	16.4	0.00e+00	0	56	0	737148928	56	4414
2026-01-04 21:45:12.95	93.46	12.86	-47.0	-48.7	16.2	0.00e+00	0	56	0	739246080	56	4478
2026-01-04 21:45:13.94	93.64	12.83	-47.0	-48.9	16.1	0.00e+00	0	56	0	740294656	56	4558
2026-01-04 21:45:14.92	93.82	12.80	-47.2	-49.1	15.8	0.00e+00	0	56	0	742391808	56	4671
2026-01-04 21:45:15.91	94.01	12.77	-47.3	-49.2	15.7	0.00e+00	0	56	0	744488960	56	4753
2026-01-04 21:45:16.90	94.19	12.73	-47.5	-49.4	15.5	0.00e+00	0	56	0	746586112	56	4848
2026-01-04 21:45:17.89	94.37	12.70	-47.6	-49.5	15.4	0.00e+00	0	56	0	747634688	57	4640
2026-01-04 21:45:18.88	94.55	12.67	-47.8	-50.0	15.0	0.00e+00	0	56	0	749731840	57	4878
2026-01-04 21:45:19.86	94.73	12.63	-47.8	-49.9	15.1	0.00e+00	0	56	0	751828992	57	4826
2026-01-04 21:45:20.85	94.92	12.60	-48.0	-50.1	14.9	0.00e+00	0	56	0	753926144	57	4965
2026-01-04 21:45:21.84	95.10	12.56	-47.8	-50.0	15.0	0.00e+00	0	56	0	756023296	57	4879
2026-01-04 21:45:22.83	95.28	12.53	-48.0	-50.2	14.8	0.00e+00	0	56	0	757071872	57	5006
2026-01-04 21:45:23.82	95.46	12.50	-47.9	-50.0	14.9	7.00e-07	0	56	0	759169024	57	4906
2026-01-04 21:45:24.81	95.64	12.46	-47.8	-49.9	15.0	0.00e+00	0	56	0	761266176	57	4850
2026-01-04 21:45:25.80	95.82	12.43	-47.8	-49.8	15.1	0.00e+00	0	56	0	763363328	57	4802
2026-01-04 21:45:26.79	96.00	12.39	-47.9	-50.0	14.9	1.50e-06	0	56	0	764411904	57	4909
2026-01-04 21:45:27.78	96.17	12.35	-47.9	-50.1	14.8	0.00e+00	0	56	0	766509056	57	4949
2026-01-04 21:45:28.77	96.35	12.32	-48.2	-50.5	14.5	7.00e-07	0	56	0	768606208	58	4903
2026-01-04 21:45:29.75	96.53	12.28	-48.2	-50.5	14.4	7.00e-07	0	56	0	770703360	58	4923
2026-01-04 21:45:30.74	96.71	12.25	-48.6	-51.0	14.0	7.00e-07	0	56	0	771751936	58	5213
2026-01-04 21:45:31.73	96.88	12.21	-48.5	-51.0	14.0	6.10e-06	0	56	0	773849088	59	4890
2026-01-04 21:45:32.72	97.06	12.18	-48.4	-50.9	14.1	7.00e-07	0	56	0	775946240	59	4815
2026-01-04 21:45:33.71	97.23	12.14	-48.3	-50.7	14.3	3.00e-06	0	56	0	778043392	59	4709
2026-01-04 21:45:34.71	97.41	12.10	-48.3	-50.7	14.3	7.00e-07	0	56	0	780140544	59	4735
2026-01-04 21:45:35.70	97.59	12.06	-48.2	-50.6	14.4	7.00e-07	0	56	0	781189120	59	4655
2026-01-04 21:45:36.68	97.76	12.03	-48.2	-50.7	14.3	7.00e-07	0	56	0	783286272	59	4710
2026-01-04 21:45:37.67	97.93	11.99	-48.3	-50.8	14.1	2.20e-06	0	56	0	785383424	59	4790
2026-01-04 21:45:38.66	98.11	11.95	-48.5	-51.0	13.9	4.50e-06	0	56	0	787480576	59	4925
2026-01-04 21:45:39.66	98.28	11.92	-48.6	-51.2	13.8	5.30e-06	0	56	0	788529152	59	5005
2026-01-04 21:45:40.65	98.46	11.88	-48.6	-51.2	13.7	6.80e-06	0	56	0	790626304	59	4987
2026-01-04 21:45:41.64	98.63	11.84	-48.5	-51.1	13.8	9.10e-06	0	56	0	792723456	59	4948
2026-01-04 21:45:42.63	98.80	11.80	-48.5	-51.0	13.9	7.00e-07	0	56	0	794820608	59	4903
2026-01-04 21:45:43.62	98.97	11.76	-48.5	-50.9	14.0	5.30e-06	0	56	0	795869184	59	4863
2026-01-04 21:45:44.60	99.14	11.72	-48.4	-50.9	14.0	5.30e-06	0	56	0	797966336	59	4844
2026-01-04 21:45:45.60	99.32	11.69	-48.4	-50.9	14.0	1.50e-06	0	56	0	800063488	59	4838
2026-01-04 21:45:46.58	99.48	11.65	-48.4	-50.9	14.1	1.50e-06	0	56	0	802160640	59	4835
2026-01-04 21:45:47.58	99.66	11.61	-48.5	-51.1	13.9	4.50e-06	0	56	0	803209216	59	4929
2026-01-04 21:45:48.56	99.82	11.57	-48.6	-51.2	13.7	4.50e-06	0	56	0	805306368	59	5006
2026-01-04 21:45:49.55	99.99	11.53	-48.8	-51.5	13.4	1.06e-05	0	56	0	807403520	59	5194
2026-01-04 21:45:50.54	100.16	11.49	-48.8	-51.5	13.4	2.05e-05	0	56	0	809500672	59	5201
2026-01-04 21:45:51.53	100.33	11.45	-48.8	-51.5	13.4	6.10e-06	0	56	0	811597824	59	5199
2026-01-04 21:45:52.52	100.50	11.41	-48.9	-51.6	13.4	1.83e-05	0	56	0	812646400	59	5246
2026-01-04 21:45:53.52	100.67	11.37	-48.8	-51.5	13.4	1.83e-05	0	56	0	814743552	59	5177
2026-01-04 21:45:54.50	100.83	11.33	-48.9	-51.7	13.2	1.44e-05	0	56	0	816840704	59	5306
2026-01-04 21:45:55.49	101.00	11.29	-48.9	-51.8	13.2	3.05e-05	0	56	0	818937856	59	5356
2026-01-04 21:45:56.49	101.17	11.25	-48.9	-51.7	13.2	2.67e-05	0	56	0	821035008	59	5301
2026-01-04 21:45:57.48	101.33	11.21	-49.1	-52.0	13.0	2.51e-05	0	56	0	822083584	59	5470
2026-01-04 21:45:58.47	101.50	11.17	-48.9	-51.8	13.1	2.05e-05	0	56	0	824180736	59	5357
2026-01-04 21:45:59.47	101.66	11.13	-49.0	-51.9	13.0	4.42e-05	0	56	0	826277888	59	5444
2026-01-04 21:46:00.47	101.83	11.09	-48.8	-51.6	13.3	2.44e-05	0	56	0	828375040	60	4940
2026-01-04 21:46:01.46	101.99	11.04	-48.6	-51.3	13.6	3.80e-06	0	56	0	829423616	60	4794
2026-01-04 21:46:02.44	102.16	11.00	-48.4	-50.9	14.0	5.30e-06	0	56	0	831520768	59	4854
2026-01-04 21:46:03.42	102.32	10.96	-48.2	-50.6	14.3	3.80e-06	0	56	0	833617920	59	4669
2026-01-04 21:46:04.42	102.48	10.92	-48.4	-50.9	14.1	1.50e-06	0	56	0	835715072	59	4828
2026-01-04 21:46:05.41	102.64	10.88	-48.4	-50.9	14.0	2.20e-06	0	56	0	836763648	59	4851
2026-01-04 21:46:06.40	102.80	10.84	-48.4	-50.8	14.1	7.00e-07	0	56	0	838860800	59	4774
2026-01-04 21:46:07.39	102.97	10.80	-48.6	-51.2	13.7	3.00e-06	0	56	0	840957952	59	4984
2026-01-04 21:46:08.38	103.13	10.75	-48.5	-51.1	13.8	4.50e-06	0	56	0	843055104	59	4953
2026-01-04 21:46:09.36	103.29	10.71	-48.7	-51.4	13.5	3.00e-06	0	56	0	844103680	59	5134
2026-01-04 21:46:10.34	103.44	10.67	-48.8	-51.6	13.2	6.80e-06	0	56	0	846200832	59	5244
2026-01-04 21:46:11.32	103.60	10.63	-48.7	-51.3	13.6	1.37e-05	0	56	0	848297984	59	5081
2026-01-04 21:46:12.31	103.76	10.59	-48.5	-51.1	13.8	6.10e-06	0	56	0	850395136	59	4932
2026-01-04 21:46:13.30	103.92	10.54	-48.3	-50.8	14.1	1.50e-06	0	56	0	852492288	59	4782
2026-01-04 21:46:14.29	104.08	10.50	-48.2	-50.6	14.2	0.00e+00	0	56	0	853540864	59	4700
2026-01-04 21:46:15.29	104.24	10.46	-48.3	-50.6	14.3	7.00e-07	0	56	0	855638016	59	4689
2026-01-04 21:46:16.28	104.39	10.41	-48.5	-51.0	13.9	7.00e-07	0	56	0	857735168	59	4900
2026-01-04 21:46:17.27	104.55	10.37	-48.7	-51.4	13.5	8.30e-06	0	56	0	859832320	59	5134
2026-01-04 21:46:18.26	104.71	10.33	-48.7	-51.4	13.5	1.06e-05	0	56	0	860880896	59	5138
2026-01-04 21:46:19.25	104.86	10.28	-48.9	-51.8	13.1	2.82e-05	0	56	0	862978048	59	5368
2026-01-04 21:46:20.24	105.02	10.24	-48.9	-51.8	13.0	3.35e-05	0	56	0	865075200	59	5386
2026-01-04 21:46:21.23	105.17	10.20	-49.1	-52.3	12.7	5.18e-05	0	56	0	867172352	60	5350
2026-01-04 21:46:22.23	105.33	10.15	-49.1	-52.2	12.7	8.23e-05	0	56	0	869269504	60	5302
2026-01-04 21:46:23.22	105.48	10.11	-49.1	-52.2	12.6	8.69e-05	0	56	0	870318080	60	5340
2026-01-04 21:46:24.21	105.64	10.06	-49.1	-52.2	12.6	6.17e-05	0	56	0	872415232	60	5337
2026-01-04 21:46:25.21	105.79	10.02	-49.1	-52.3	12.6	1.32e-04	0	56	0	874512384	60	5351
2026-01-04 21:46:26.20	105.94	9.98	-48.8	-51.8	13.0	4.34e-05	0	56	0	876609536	60	5076
2026-01-04 21:46:27.18	106.09	9.93	-48.8	-51.5	13.3	1.98e-05	0	56	0	877658112	60	4921
2026-01-04 21:46:28.17	106.25	9.89	-48.5	-51.2	13.6	1.22e-05	0	56	0	879755264	60	4738
2026-01-04 21:46:29.16	106.40	9.84	-48.5	-51.1	13.8	3.00e-06	0	56	0	881852416	59	4928
2026-01-04 21:46:30.15	106.55	9.80	-48.5	-51.0	13.8	5.30e-06	0	56	0	883949568	59	4912
2026-01-04 21:46:31.13	106.70	9.76	-48.4	-50.8	14.0	4.50e-06	0	56	0	884998144	59	4795
2026-01-04 21:46:32.13	106.85	9.71	-48.3	-50.7	14.1	2.20e-06	0	56	0	887095296	59	4740
2026-01-04 21:46:33.12	107.00	9.67	-48.1	-50.4	14.5	0.00e+00	0	56	0	889192448	59	4551
2026-01-04 21:46:34.11	107.15	9.62	-48.1	-50.4	14.4	7.00e-07	0	57	0	891289600	59	4596
2026-01-04 21:46:35.10	107.30	9.58	-48.2	-50.5	14.2	0.00e+00	0	56	0	893386752	59	4650
2026-01-04 21:46:36.09	107.45	9.53	-48.0	-50.2	14.6	7.00e-07	0	56	0	894435328	59	4483
2026-01-04 21:46:37.08	107.59	9.49	-48.0	-50.2	14.6	0.00e+00	0	56	0	896532480	59	4478
2026-01-04 21:46:38.07	107.74	9.44	-48.0	-50.4	14.4	7.00e-07	0	56	0	898629632	59	4567
2026-01-04 21:46:39.06	107.89	9.40	-48.0	-50.3	14.5	0.00e+00	0	56	0	900726784	59	4497
2026-01-04 21:46:40.05	108.03	9.35	-48.0	-50.2	14.6	7.00e-07	0	56	0	901775360	59	4490
2026-01-04 21:46:41.03	108.18	9.31	-48.0	-50.4	14.5	0.00e+00	0	56	0	903872512	59	4549
2026-01-04 21:46:42.02	108.33	9.26	-48.1	-50.5	14.3	7.00e-07	0	56	0	905969664	59	4637
2026-01-04 21:46:43.01	108.47	9.21	-48.1	-50.5	14.4	7.00e-07	0	56	0	908066816	59	4602
2026-01-04 21:46:44.00	108.62	9.17	-48.2	-50.6	14.2	1.50e-06	0	56	0	909115392	59	4688
2026-01-04 21:46:44.99	108.76	9.12	-48.1	-50.5	14.3	7.00e-07	0	56	0	911212544	59	4647
2026-01-04 21:46:45.98	108.90	9.08	-48.0	-50.4	14.5	7.00e-07	0	56	0	913309696	59	4559
2026-01-04 21:46:46.98	109.05	9.03	-48.2	-50.7	14.2	0.00e+00	0	56	0	915406848	59	4711
2026-01-04 21:46:47.97	109.19	8.99	-48.2	-50.6	14.2	1.50e-06	0	56	0	916455424	59	4702
2026-01-04 21:46:48.96	109.33	8.94	-48.0	-50.3	14.5	0.00e+00	0	56	0	918552576	59	4511
2026-01-04 21:46:49.94	109.48	8.89	-48.0	-50.2	14.6	7.00e-07	0	56	0	920649728	59	4493
2026-01-04 21:46:50.94	109.62	8.85	-47.9	-50.2	14.7	0.00e+00	0	56	0	922746880	58	4714
2026-01-04 21:46:51.92	109.76	8.80	-47.9	-50.1	14.6	7.00e-07	0	56	0	924844032	58	4703
2026-01-04 21:46:52.92	109.90	8.75	-48.0	-50.3	14.4	0.00e+00	0	56	0	925892608	58	4814
2026-01-04 21:46:53.90	110.04	8.71	-48.0	-50.3	14.5	0.00e+00	0	56	0	927989760	58	4762
2026-01-04 21:46:54.89	110.18	8.66	-48.2	-50.6	14.2	2.20e-06	0	56	0	930086912	58	4946
2026-01-04 21:46:55.88	110.32	8.62	-48.2	-50.6	14.2	3.00e-06	0	56	0	932184064	58	4953
2026-01-04 21:46:56.87	110.46	8.57	-48.3	-50.7	14.1	7.00e-07	0	56	0	933232640	58	5041
2026-01-04 21:46:57.86	110.60	8.52	-48.3	-50.8	14.1	2.20e-06	0	56	0	935329792	58	5044
2026-01-04 21:46:58.85	110.74	8.48	-48.2	-50.6	14.1	2.20e-06	0	56	0	937426944	58	4979
2026-01-04 21:46:59.85	110.88	8.43	-48.4	-50.8	13.9	3.00e-06	0	56	0	939524096	58	5088
2026-01-04 21:47:00.83	111.01	8.38	-48.2	-50.7	14.1	7.60e-06	0	56	0	941621248	58	4992
2026-01-04 21:47:01.82	111.15	8.34	-47.9	-50.1	14.6	7.00e-07	0	57	0	942669824	58	4704
2026-01-04 21:47:02.81	111.29	8.29	-47.8	-50.1	14.7	0.00e+00	0	56	0	944766976	58	4659
2026-01-04 21:47:03.80	111.42	8.24	-47.8	-50.0	14.8	7.00e-07	0	56	0	946864128	58	4620
2026-01-04 21:47:04.78	111.56	8.20	-47.7	-49.9	14.8	0.00e+00	0	56	0	948961280	58	4598
2026-01-04 21:47:05.77	111.69	8.15	-48.0	-50.3	14.5	0.00e+00	0	56	0	950009856	58	4776
2026-01-04 21:47:06.75	111.82	8.10	-47.9	-50.1	14.6	1.50e-06	0	56	0	952107008	58	4701
2026-01-04 21:47:07.75	111.96	8.06	-47.8	-50.2	14.6	0.00e+00	0	56	0	954204160	58	4714
2026-01-04 21:47:08.73	112.09	8.01	-48.0	-50.3	14.4	7.00e-07	0	56	0	956301312	58	4813
2026-01-04 21:47:09.72	112.23	7.96	-48.0	-50.4	14.4	1.50e-06	0	56	0	957349888	58	4816
2026-01-04 21:47:10.72	112.36	7.91	-48.1	-50.5	14.2	7.00e-07	0	56	0	959447040	58	4902
2026-01-04 21:47:11.71	112.49	7.87	-48.1	-50.5	14.2	1.50e-06	0	56	0	961544192	58	4924
2026-01-04 21:47:12.70	112.63	7.82	-48.1	-50.5	14.3	3.00e-06	0	56	0	963641344	58	4873
2026-01-04 21:47:13.69	112.76	7.77	-48.3	-50.8	13.9	1.50e-06	0	57	0	965738496	58	5067
2026-01-04 21:47:14.68	112.89	7.72	-48.2	-50.6	14.1	3.80e-06	0	56	0	966787072	58	4981
2026-01-04 21:47:15.67	113.02	7.68	-48.1	-50.5	14.3	1.50e-06	0	57	0	968884224	58	4882
2026-01-04 21:47:16.67	113.15	7.63	-48.1	-50.5	14.2	1.50e-06	0	57	0	970981376	58	4905
2026-01-04 21:47:17.66	113.28	7.58	-48.1	-50.5	14.2	3.00e-06	0	57	0	973078528	58	4923
2026-01-04 21:47:18.64	113.41	7.53	-48.2	-50.6	14.1	1.50e-06	0	56	0	974127104	58	4975
2026-01-04 21:47:19.64	113.54	7.49	-48.3	-50.8	13.9	2.20e-06	0	56	0	976224256	58	5090
2026-01-04 21:47:20.63	113.67	7.44	-48.3	-50.9	13.8	1.50e-06	0	56	0	978321408	58	5126
2026-01-04 21:47:21.61	113.80	7.39	-48.3	-50.9	13.8	7.00e-07	0	56	0	980418560	58	5149
2026-01-04 21:47:22.61	113.93	7.34	-48.3	-50.9	13.8	8.30e-06	0	57	0	981467136	58	5129
2026-01-04 21:47:23.61	114.06	7.30	-48.3	-50.8	13.9	4.50e-06	0	57	0	983564288	58	5093
2026-01-04 21:47:24.59	114.19	7.25	-48.4	-51.1	13.6	4.50e-06	0	56	0	985661440	58	5255
2026-01-04 21:47:25.58	114.31	7.20	-48.6	-51.3	13.4	1.37e-05	0	56	0	987758592	59	5086
2026-01-04 21:47:26.57	114.44	7.15	-48.6	-51.4	13.3	2.05e-05	0	57	0	989855744	59	5119
2026-01-04 21:47:27.57	114.57	7.10	-48.4	-51.1	13.5	1.22e-05	0	56	0	990904320	59	4952
2026-01-04 21:47:28.55	114.69	7.06	-48.4	-51.1	13.6	6.80e-06	0	56	0	993001472	59	4949
2026-01-04 21:47:29.54	114.82	7.01	-48.6	-51.3	13.4	1.75e-05	0	56	0	995098624	59	5056
2026-01-04 21:47:30.53	114.94	6.96	-48.6	-51.5	13.2	1.29e-05	0	57	0	997195776	59	5174
2026-01-04 21:47:31.52	115.07	6.91	-48.6	-51.5	13.2	2.67e-05	0	56	0	998244352	59	5177
2026-01-04 21:47:32.51	115.19	6.87	-48.6	-51.3	13.3	9.10e-06	0	57	0	1000341504	59	5090
2026-01-04 21:47:33.50	115.32	6.82	-48.4	-51.1	13.5	1.52e-05	0	57	0	1002438656	59	4982
2026-01-04 21:47:34.49	115.44	6.77	-48.6	-51.3	13.3	6.10e-06	0	57	0	1004535808	59	5090
2026-01-04 21:47:35.49	115.57	6.72	-48.7	-51.5	13.1	2.51e-05	0	57	0	1006632960	59	5189
2026-01-04 21:47:36.48	115.69	6.67	-48.7	-51.6	13.0	4.80e-05	0	57	0	1007681536	59	5254
2026-01-04 21:47:37.47	115.81	6.63	-48.7	-51.5	13.0	4.04e-05	0	57	0	1009778688	59	5212
2026-01-04 21:47:38.47	115.93	6.58	-48.5	-51.3	13.3	3.89e-05	0	56	0	1011875840	59	5049
2026-01-04 21:47:39.46	116.06	6.53	-48.4	-51.1	13.5	7.60e-06	0	56	0	1013972992	59	4945
2026-01-04 21:47:40.44	116.18	6.48	-48.3	-50.9	13.7	9.10e-06	0	56	0	1015021568	59	4831
2026-01-04 21:47:41.44	116.30	6.43	-48.3	-50.9	13.7	9.10e-06	0	57	0	1017118720	59	4856
2026-01-04 21:47:42.43	116.42	6.38	-48.4	-51.0	13.6	8.30e-06	0	57	0	1019215872	59	4885
2026-01-04 21:47:43.41	116.54	6.34	-48.4	-51.0	13.5	8.30e-06	0	57	0	1021313024	59	4917
2026-01-04 21:47:44.40	116.66	6.29	-48.3	-50.9	13.7	9.90e-06	0	57	0	1022361600	59	4864
2026-01-04 21:47:45.39	116.78	6.24	-48.4	-51.1	13.5	4.50e-06	0	57	0	1024458752	59	4941
2026-01-04 21:47:46.38	116.90	6.19	-48.6	-51.3	13.3	1.44e-05	0	56	0	1026555904	59	5064
2026-01-04 21:47:47.36	117.01	6.14	-48.6	-51.3	13.3	2.59e-05	0	57	0	1028653056	59	5084
2026-01-04 21:47:48.35	117.13	6.10	-48.6	-51.5	13.1	1.37e-05	0	57	0	1030750208	59	5207
2026-01-04 21:47:49.34	117.25	6.05	-48.8	-51.7	12.8	4.50e-05	0	57	0	1031798784	59	5323
2026-01-04 21:47:50.33	117.37	6.00	-48.7	-51.6	12.9	4.27e-05	0	56	0	1033895936	59	5263
2026-01-04 21:47:51.32	117.48	5.95	-48.7	-51.5	13.0	4.19e-05	0	56	0	1035993088	59	5214
2026-01-04 21:47:52.31	117.60	5.90	-48.8	-51.8	12.7	6.25e-05	0	57	0	1038090240	59	5387
2026-01-04 21:47:53.30	117.72	5.86	-48.9	-52.0	12.5	1.19e-04	0	57	0	1039138816	59	5519
2026-01-04 21:47:54.29	117.83	5.81	-48.8	-51.9	12.6	9.00e-05	0	57	0	1041235968	59	5461
2026-01-04 21:47:55.28	117.95	5.76	-48.8	-51.8	12.7	1.39e-04	0	57	0	1043333120	59	5383
2026-01-04 21:47:56.26	118.06	5.71	-48.9	-51.9	12.6	1.30e-04	0	57	0	1045430272	59	5454
2026-01-04 21:47:57.25	118.18	5.66	-48.8	-51.9	12.6	9.76e-05	0	56	0	1046478848	59	5438
2026-01-04 21:47:58.24	118.29	5.61	-49.0	-52.2	12.3	9.99e-05	0	57	0	1048576000	59	5615
2026-01-04 21:47:59.22	118.41	5.57	-48.9	-52.0	12.5	1.11e-04	0	57	0	1050673152	59	5513
2026-01-04 21:48:00.22	118.52	5.52	-48.9	-52.0	12.4	8.77e-05	0	57	0	1052770304	59	5495
2026-01-04 21:48:01.21	118.63	5.47	-49.0	-52.3	12.2	1.30e-04	0	56	0	1053818880	60	5369
2026-01-04 21:48:02.20	118.75	5.42	-48.9	-52.3	12.2	1.77e-04	0	57	0	1055916032	60	5350
2026-01-04 21:48:03.20	118.86	5.37	-49.0	-52.4	12.0	2.39e-04	0	56	0	1058013184	60	5428
2026-01-04 21:48:04.19	118.97	5.32	-49.0	-52.4	12.0	3.56e-04	0	57	0	1060110336	60	5455
2026-01-04 21:48:05.17	119.08	5.28	-49.1	-52.4	11.9	3.58e-04	0	56	0	1062207488	60	5455
2026-01-04 21:48:06.17	119.20	5.23	-49.1	-52.5	11.9	3.55e-04	0	57	0	1063256064	60	5523
2026-01-04 21:48:07.16	119.31	5.18	-49.1	-52.6	11.8	5.31e-04	0	57	0	1065353216	60	5538
2026-01-04 21:48:08.15	119.42	5.13	-49.1	-52.6	11.8	4.36e-04	0	57	0	1067450368	60	5538
2026-01-04 21:48:09.14	119.53	5.08	-49.1	-52.6	11.7	5.18e-04	0	57	0	1069547520	60	5566
2026-01-04 21:48:10.13	119.64	5.03	-51.4	-62.1	4.4	9.79e-04	0	57	0	1070596096	64	13195
2026-01-04 21:48:11.11	119.75	4.99	-51.8	-65.7	3.8	1.49e+00	0	57	104	1070596096	65	18831
2026-01-04 21:48:12.11	119.86	4.94	-52.0	-65.9	3.8	1.49e+00	0	57	104	1070596096	65	19314
2026-01-04 21:48:13.09	119.97	4.89	-52.1	-66.0	3.8	1.49e+00	0	57	104	1070596096	66	18509
2026-01-04 21:48:14.08	120.08	4.84	-52.3	-66.2	3.8	1.49e+00	0	57	104	1070596096	66	18747
2026-01-04 21:48:15.07	120.19	4.79	-52.3	-66.2	3.8	1.49e+00	0	57	104	1070596096	66	18817
2026-01-04 21:48:16.06	120.29	4.75	-52.3	-66.3	3.8	1.49e+00	0	57	104	1070596096	66	18952
2026-01-04 21:48:17.04	120.40	4.70	-52.5	-66.3	3.8	1.49e+00	0	57	104	1070596096	66	19017
2026-01-04 21:48:18.03	120.51	4.65	-52.5	-66.3	3.8	1.49e+00	0	57	104	1070596096	66	19125
2026-01-04 21:48:19.01	120.62	4.60	-52.5	-66.4	3.8	1.49e+00	0	57	104	1070596096	66	19208
2026-01-04 21:48:20.00	120.72	4.55	-52.5	-66.2	3.8	1.49e+00	0	57	104	1070596096	66	18939
2026-01-04 21:48:20.99	120.83	4.51	-52.5	-66.4	3.8	1.49e+00	0	57	104	1070596096	67	18196
2026-01-04 21:48:21.97	120.93	4.46	-52.5	-66.4	3.8	1.49e+00	0	57	104	1070596096	67	18203
2026-01-04 21:48:22.96	121.04	4.41	-52.4	-66.4	3.8	1.49e+00	0	57	104	1070596096	67	18229
2026-01-04 21:48:23.94	121.14	4.36	-52.5	-66.5	3.8	1.49e+00	0	57	104	1070596096	67	18351
2026-01-04 21:48:24.93	121.25	4.31	-52.5	-66.5	3.8	1.49e+00	0	57	104	1070596096	67	18365
2026-01-04 21:48:25.92	121.35	4.27	-52.5	-66.5	3.8	1.49e+00	0	57	104	1070596096	67	18449
2026-01-04 21:48:26.91	121.46	4.22	-52.5	-66.5	3.8	1.49e+00	0	57	104	1070596096	67	18462
2026-01-04 21:48:27.89	121.56	4.17	-52.6	-66.5	3.8	1.49e+00	0	57	104	1070596096	67	18458
2026-01-04 21:48:28.88	121.67	4.12	-52.6	-66.5	3.8	1.49e+00	0	57	104	1070596096	67	18459
2026-01-04 21:48:29.87	121.77	4.07	-52.5	-66.5	3.8	1.49e+00	0	57	104	1070596096	67	18477
2026-01-04 21:48:30.86	121.87	4.02	-52.6	-66.5	3.8	1.49e+00	0	57	104	1070596096	67	18481
2026-01-04 21:48:31.84	121.97	3.98	-52.6	-66.5	3.8	1.49e+00	0	57	104	1070596096	67	18487
2026-01-04 21:48:32.83	122.08	3.93	-52.6	-66.5	3.8	1.49e+00	0	57	104	1070596096	67	18516
2026-01-04 21:48:33.82	122.18	3.88	-52.6	-66.6	3.8	1.49e+00	0	57	104	1070596096	67	18528
2026-01-04 21:48:34.81	122.28	3.83	-52.6	-66.6	3.8	1.49e+00	0	57	104	1070596096	67	18557
2026-01-04 21:48:35.80	122.38	3.78	-52.7	-66.6	3.8	1.49e+00	0	57	104	1070596096	67	18551
2026-01-04 21:48:36.80	122.49	3.74	-52.7	-66.6	3.8	1.49e+00	0	57	104	1070596096	67	18556
2026-01-04 21:48:37.78	122.59	3.69	-52.6	-66.6	3.8	1.49e+00	0	57	104	1070596096	67	18594
2026-01-04 21:48:38.77	122.69	3.64	-52.6	-66.5	3.8	1.49e+00	0	57	104	1070596096	67	18515
2026-01-04 21:48:39.76	122.79	3.59	-52.6	-66.5	3.8	1.49e+00	0	57	104	1070596096	67	18499
2026-01-04 21:48:40.75	122.89	3.54	-52.6	-66.5	3.8	1.49e+00	0	57	104	1070596096	67	18488
2026-01-04 21:48:41.74	122.99	3.50	-52.6	-66.6	3.8	1.49e+00	0	57	104	1070596096	67	18540
2026-01-04 21:48:42.73	123.09	3.45	-52.6	-66.6	3.8	1.49e+00	0	57	104	1070596096	67	18554
2026-01-04 21:48:43.72	123.19	3.40	-52.7	-66.5	3.8	1.49e+00	0	57	104	1070596096	67	18492
2026-01-04 21:48:44.71	123.28	3.35	-52.6	-66.5	3.8	1.49e+00	0	57	104	1070596096	67	18485
2026-01-04 21:48:45.70	123.38	3.30	-52.7	-66.6	3.8	1.49e+00	0	57	104	1070596096	67	18524
2026-01-04 21:48:46.68	123.48	3.26	-52.7	-66.6	3.8	1.49e+00	0	57	104	1070596096	67	18570
2026-01-04 21:48:47.67	123.58	3.21	-52.7	-66.5	3.8	1.49e+00	0	57	104	1070596096	67	18505
2026-01-04 21:48:48.66	123.68	3.16	-52.7	-66.5	3.8	1.49e+00	0	57	104	1070596096	67	18494
2026-01-04 21:48:49.65	123.77	3.11	-52.8	-66.6	3.8	1.49e+00	0	57	104	1070596096	67	18544
2026-01-04 21:48:50.64	123.87	3.07	-52.7	-66.5	3.8	1.49e+00	0	57	104	1070596096	67	18507
2026-01-04 21:48:51.63	123.97	3.02	-52.7	-66.6	3.8	1.49e+00	0	57	104	1070596096	67	18528
2026-01-04 21:48:52.62	124.06	2.97	-52.7	-66.6	3.8	1.49e+00	0	57	104	1070596096	67	18527
2026-01-04 21:48:53.61	124.16	2.92	-52.5	-66.6	3.8	1.49e+00	0	57	104	1070596096	67	18520
2026-01-04 21:48:54.60	124.26	2.87	-52.7	-66.5	3.8	1.49e+00	0	57	104	1070596096	67	18509

#Closed at: 2026-01-04 21:48:54
#Recorded file [1070 MB]: D:/Data/31026_260105_004810.dat