passes_logs/2026/01/04/R3.0SM8_Murmansk_STILSPACE/R3.0SM8_Murmansk_STILSPACE__20260104_224851_NOAA_21_JPSS-2_rec.log

#Pass ID: 20260104_224851_NOAA 21 (JPSS-2)
#Satellite: NOAA 21 (JPSS-2)
#Configuration: NOAA-21
#almurnet v.1.7.20240730
#Start time: 2026-01-04 22:48:51

#Version: 2.2.20231116
#Station: R3.0SM8_Murmansk_STILSPACE
#Location: 33.092731 lon 68.902999 lat
#TLE: 1 54234U 22150A   26004.22845673  .00000174  00000+0  10347-3 0  9996
#TLE: 2 54234  98.7489 305.2591 0001115 345.0884  15.0259 14.19531906163281

#Time	Az	El	Level	Level2	SNR	BER	BlckErr	Temp	State	Recorded	gain1	gain2
2026-01-04 22:48:51.06	20.39	2.99	-52.6	-64.0	3.8	1.49e+00	0	45	0	0	67	13831
2026-01-04 22:48:52.06	20.45	3.05	-52.3	-63.9	3.8	1.49e+00	0	45	104	0	67	13665
2026-01-04 22:48:53.05	20.51	3.11	-52.3	-63.9	3.8	1.49e+00	0	45	104	0	67	13601
2026-01-04 22:48:54.04	20.57	3.17	-52.4	-63.8	3.8	1.49e+00	0	45	104	0	67	13510
2026-01-04 22:48:55.02	20.63	3.23	-52.3	-63.8	3.8	1.49e+00	0	45	104	0	67	13416
2026-01-04 22:48:56.00	20.69	3.29	-52.2	-63.7	3.8	1.49e+00	0	45	104	0	67	13363
2026-01-04 22:48:57.00	20.75	3.35	-52.0	-63.6	3.8	1.49e+00	0	46	104	0	67	13184
2026-01-04 22:48:57.99	20.81	3.41	-52.0	-63.5	3.8	1.49e+00	0	46	104	0	66	13739
2026-01-04 22:48:58.98	20.87	3.47	-51.5	-62.9	3.8	1.49e+00	0	46	104	0	66	12823
2026-01-04 22:48:59.96	20.93	3.53	-51.4	-62.8	3.8	1.49e+00	0	46	104	0	65	13530
2026-01-04 22:49:00.95	20.99	3.59	-51.3	-62.8	3.8	1.49e+00	0	46	104	0	65	13533
2026-01-04 22:49:01.95	21.05	3.65	-51.3	-62.7	3.8	1.49e+00	0	46	104	0	65	13312
2026-01-04 22:49:02.94	21.11	3.71	-51.3	-62.4	3.8	1.49e+00	0	46	104	0	65	12956
2026-01-04 22:49:03.93	21.18	3.77	-51.3	-62.5	3.8	1.49e+00	0	46	104	0	65	13018
2026-01-04 22:49:04.91	21.24	3.83	-51.3	-62.8	3.8	1.49e+00	0	46	104	0	65	13458
2026-01-04 22:49:05.91	21.30	3.89	-51.3	-62.8	3.8	1.49e+00	0	46	104	0	65	13430
2026-01-04 22:49:06.90	21.36	3.95	-51.3	-62.4	3.8	1.49e+00	0	46	104	0	65	12881
2026-01-04 22:49:07.89	21.43	4.02	-51.3	-62.2	3.8	1.49e+00	0	46	104	0	65	12611
2026-01-04 22:49:08.87	21.49	4.08	-51.3	-62.4	3.8	1.49e+00	0	47	104	0	65	12951
2026-01-04 22:49:09.86	21.55	4.14	-51.2	-62.7	3.8	1.49e+00	0	46	104	0	65	13266
2026-01-04 22:49:10.85	21.62	4.20	-51.3	-62.7	3.8	1.49e+00	0	46	104	0	65	13322
2026-01-04 22:49:11.84	21.68	4.26	-51.2	-62.6	3.8	1.49e+00	0	47	104	0	65	13146
2026-01-04 22:49:12.83	21.74	4.32	-51.3	-62.6	3.8	1.49e+00	0	47	104	0	65	13192
2026-01-04 22:49:13.81	21.81	4.38	-51.3	-62.7	3.8	1.49e+00	0	47	104	0	65	13262
2026-01-04 22:49:14.80	21.87	4.44	-51.3	-62.8	3.8	1.49e+00	0	47	104	0	65	13468
2026-01-04 22:49:15.79	21.94	4.51	-51.3	-62.8	3.8	1.49e+00	0	47	104	0	65	13504
2026-01-04 22:49:16.78	22.00	4.57	-51.3	-62.6	3.8	1.49e+00	0	47	104	0	65	13152
2026-01-04 22:49:17.77	22.07	4.63	-51.2	-62.0	3.8	1.49e+00	0	47	104	0	65	12277
2026-01-04 22:49:18.76	22.13	4.69	-51.2	-61.1	3.8	1.49e+00	0	47	104	0	65	11141
2026-01-04 22:49:19.76	22.20	4.76	-51.0	-59.7	4.1	1.48e+00	0	47	104	0	65	9480
2026-01-04 22:49:20.75	22.27	4.82	-50.9	-58.9	4.3	1.46e+00	0	47	104	0	64	9143
2026-01-04 22:49:21.73	22.33	4.88	-50.8	-58.2	4.6	1.16e+00	0	48	104	0	64	8399
2026-01-04 22:49:22.72	22.40	4.94	-50.5	-56.9	5.2	8.30e-01	0	47	104	0	64	7236
2026-01-04 22:49:23.71	22.47	5.00	-50.4	-56.2	5.8	4.57e-01	0	48	0	2097152	63	7060
2026-01-04 22:49:24.70	22.53	5.07	-50.2	-55.6	6.2	3.01e-01	0	48	0	5242880	63	6605
2026-01-04 22:49:25.68	22.60	5.13	-50.2	-55.4	6.4	2.44e-01	0	48	0	8388608	63	6460
2026-01-04 22:49:26.67	22.67	5.19	-50.1	-54.9	6.9	1.94e-01	0	48	0	11534336	63	6089
2026-01-04 22:49:27.65	22.74	5.26	-49.7	-53.8	8.0	8.85e-02	0	48	0	14680064	62	5662
2026-01-04 22:49:28.65	22.80	5.32	-49.0	-52.5	9.2	3.41e-02	0	48	0	17825792	61	5189
2026-01-04 22:49:29.64	22.87	5.38	-48.5	-51.4	10.4	6.92e-03	0	48	0	20971520	60	4824
2026-01-04 22:49:30.62	22.94	5.45	-48.2	-50.8	11.0	1.96e-03	0	48	0	24117248	59	4794
2026-01-04 22:49:31.61	23.01	5.51	-47.9	-50.3	11.6	9.15e-04	0	48	0	27262976	58	4789
2026-01-04 22:49:32.61	23.08	5.57	-47.4	-49.6	12.4	2.43e-04	0	48	0	30408704	58	4400
2026-01-04 22:49:33.59	23.15	5.64	-47.3	-49.3	12.6	1.28e-04	0	48	0	33554432	57	4534
2026-01-04 22:49:34.58	23.22	5.70	-47.2	-49.2	12.7	6.40e-05	0	48	0	36700160	57	4472
2026-01-04 22:49:35.57	23.29	5.77	-47.0	-49.0	13.0	5.03e-05	0	48	0	39845888	57	4361
2026-01-04 22:49:36.56	23.36	5.83	-47.1	-49.1	12.9	7.09e-05	0	48	0	42991616	57	4408
2026-01-04 22:49:37.55	23.43	5.90	-47.0	-48.8	13.2	3.35e-05	0	49	0	46137344	57	4277
2026-01-04 22:49:38.55	23.50	5.96	-46.7	-48.5	13.5	1.60e-05	0	48	0	49283072	56	4351
2026-01-04 22:49:39.53	23.57	6.02	-46.7	-48.5	13.6	8.30e-06	0	48	0	52428800	56	4346
2026-01-04 22:49:40.52	23.65	6.09	-46.7	-48.4	13.7	3.00e-06	0	49	0	55574528	56	4298
2026-01-04 22:49:41.51	23.72	6.15	-46.7	-48.4	13.7	6.80e-06	0	49	0	57671680	56	4334
2026-01-04 22:49:42.49	23.79	6.22	-46.7	-48.3	13.7	6.10e-06	0	49	0	60817408	56	4287
2026-01-04 22:49:43.48	23.86	6.28	-46.7	-48.3	13.8	4.50e-06	0	49	0	63963136	56	4281
2026-01-04 22:49:44.47	23.94	6.35	-46.9	-48.7	13.4	8.30e-06	0	49	0	67108864	56	4473
2026-01-04 22:49:45.46	24.01	6.42	-46.8	-48.5	13.6	1.83e-05	0	49	0	70254592	56	4382
2026-01-04 22:49:46.45	24.08	6.48	-46.5	-48.1	14.0	4.50e-06	0	49	0	73400320	56	4159
2026-01-04 22:49:47.44	24.16	6.55	-46.2	-47.7	14.3	3.00e-06	0	49	0	76546048	55	4235
2026-01-04 22:49:48.43	24.23	6.61	-46.2	-47.8	14.3	7.00e-07	0	49	0	79691776	55	4259
2026-01-04 22:49:49.43	24.31	6.68	-46.1	-47.6	14.4	1.50e-06	0	49	0	82837504	55	4181
2026-01-04 22:49:50.42	24.38	6.75	-46.1	-47.6	14.4	0.00e+00	0	49	0	85983232	55	4184
2026-01-04 22:49:51.41	24.46	6.81	-46.2	-47.7	14.4	7.00e-07	0	49	0	89128960	55	4222
2026-01-04 22:49:52.40	24.53	6.88	-46.3	-47.8	14.2	2.20e-06	0	49	0	92274688	55	4290
2026-01-04 22:49:53.39	24.61	6.94	-46.3	-47.9	14.2	0.00e+00	0	49	0	95420416	55	4315
2026-01-04 22:49:54.38	24.68	7.01	-46.1	-47.6	14.5	3.80e-06	0	49	0	98566144	55	4176
2026-01-04 22:49:55.37	24.76	7.08	-46.1	-47.6	14.5	0.00e+00	0	49	0	101711872	55	4156
2026-01-04 22:49:56.36	24.84	7.15	-46.4	-47.9	14.3	0.00e+00	0	49	0	104857600	55	4330
2026-01-04 22:49:57.35	24.91	7.21	-46.3	-47.9	14.2	1.50e-06	0	49	0	108003328	55	4300
2026-01-04 22:49:58.33	24.99	7.28	-46.2	-47.7	14.4	1.50e-06	0	49	0	111149056	55	4216
2026-01-04 22:49:59.31	25.07	7.35	-46.1	-47.5	14.6	7.00e-07	0	49	0	114294784	55	4135
2026-01-04 22:50:00.30	25.15	7.41	-46.1	-47.6	14.6	7.00e-07	0	49	0	116391936	55	4151
2026-01-04 22:50:01.30	25.22	7.48	-46.0	-47.5	14.6	0.00e+00	0	50	0	119537664	55	4116
2026-01-04 22:50:02.28	25.30	7.55	-46.1	-47.5	14.7	0.00e+00	0	49	0	122683392	55	4129
2026-01-04 22:50:03.27	25.38	7.62	-46.3	-47.7	14.4	0.00e+00	0	49	0	125829120	55	4235
2026-01-04 22:50:04.26	25.46	7.68	-46.3	-47.9	14.3	7.00e-07	0	50	0	128974848	55	4303
2026-01-04 22:50:05.25	25.54	7.75	-46.3	-47.8	14.3	2.20e-06	0	50	0	132120576	55	4269
2026-01-04 22:50:06.24	25.62	7.82	-46.4	-47.9	14.3	7.00e-07	0	50	0	135266304	55	4318
2026-01-04 22:50:07.22	25.70	7.89	-46.3	-47.8	14.3	0.00e+00	0	50	0	138412032	55	4283
2026-01-04 22:50:08.21	25.78	7.96	-46.4	-48.0	14.2	7.00e-07	0	50	0	141557760	55	4369
2026-01-04 22:50:09.20	25.86	8.03	-46.7	-48.4	13.8	5.30e-06	0	50	0	144703488	55	4559
2026-01-04 22:50:10.19	25.94	8.09	-46.9	-48.6	13.6	6.10e-06	0	50	0	147849216	55	4693
2026-01-04 22:50:11.18	26.03	8.16	-46.8	-48.5	13.8	8.30e-06	0	50	0	150994944	55	4618
2026-01-04 22:50:12.16	26.11	8.23	-46.8	-48.5	13.7	5.30e-06	0	50	0	154140672	55	4623
2026-01-04 22:50:13.14	26.19	8.30	-46.8	-48.6	13.7	6.80e-06	0	50	0	157286400	55	4657
2026-01-04 22:50:14.13	26.27	8.37	-46.8	-48.5	13.7	6.80e-06	0	50	0	160432128	55	4643
2026-01-04 22:50:15.12	26.36	8.44	-47.0	-48.8	13.5	1.67e-05	0	50	0	163577856	55	4783
2026-01-04 22:50:16.11	26.44	8.51	-46.8	-48.4	13.8	7.60e-06	0	50	0	166723584	55	4592
2026-01-04 22:50:17.10	26.52	8.58	-46.7	-48.3	14.0	3.80e-06	0	50	0	168820736	55	4527
2026-01-04 22:50:18.09	26.61	8.65	-46.3	-47.8	14.4	7.00e-07	0	50	0	171966464	55	4290
2026-01-04 22:50:19.08	26.69	8.72	-46.3	-47.8	14.5	0.00e+00	0	50	0	175112192	55	4243
2026-01-04 22:50:20.08	26.78	8.79	-46.4	-47.9	14.5	7.00e-07	0	50	0	178257920	55	4305
2026-01-04 22:50:21.07	26.87	8.86	-46.3	-47.8	14.5	0.00e+00	0	51	0	181403648	55	4262
2026-01-04 22:50:22.06	26.95	8.93	-46.5	-48.0	14.3	7.00e-07	0	50	0	184549376	55	4382
2026-01-04 22:50:23.05	27.04	9.00	-46.3	-47.8	14.5	1.50e-06	0	50	0	187695104	55	4261
2026-01-04 22:50:24.04	27.13	9.07	-46.5	-48.1	14.3	7.00e-07	0	51	0	190840832	55	4395
2026-01-04 22:50:25.02	27.21	9.14	-46.2	-47.7	14.6	7.00e-07	0	51	0	193986560	55	4202
2026-01-04 22:50:26.01	27.30	9.22	-46.1	-47.5	14.8	0.00e+00	0	51	0	197132288	55	4123
2026-01-04 22:50:27.00	27.39	9.29	-45.9	-47.3	15.0	0.00e+00	0	51	0	200278016	54	4260
2026-01-04 22:50:27.98	27.48	9.36	-45.9	-47.3	15.0	7.00e-07	0	51	0	203423744	54	4277
2026-01-04 22:50:28.96	27.56	9.43	-46.0	-47.4	14.9	0.00e+00	0	51	0	206569472	54	4319
2026-01-04 22:50:29.95	27.65	9.50	-46.0	-47.5	14.9	0.00e+00	0	51	0	209715200	54	4341
2026-01-04 22:50:30.94	27.74	9.57	-46.0	-47.3	15.0	0.00e+00	0	51	0	212860928	54	4273
2026-01-04 22:50:31.93	27.83	9.64	-46.0	-47.3	15.0	0.00e+00	0	51	0	216006656	54	4281
2026-01-04 22:50:32.91	27.92	9.72	-45.9	-47.3	15.1	0.00e+00	0	51	0	219152384	54	4263
2026-01-04 22:50:33.90	28.01	9.79	-45.9	-47.2	15.1	0.00e+00	0	51	0	222298112	54	4230
2026-01-04 22:50:34.89	28.11	9.86	-46.0	-47.4	15.0	0.00e+00	0	51	0	224395264	54	4297
2026-01-04 22:50:35.88	28.20	9.93	-45.9	-47.2	15.2	0.00e+00	0	51	0	227540992	54	4219
2026-01-04 22:50:36.87	28.29	10.01	-46.0	-47.3	15.0	0.00e+00	0	51	0	230686720	54	4283
2026-01-04 22:50:37.87	28.38	10.08	-45.8	-47.1	15.3	0.00e+00	0	51	0	233832448	54	4163
2026-01-04 22:50:38.86	28.48	10.15	-45.6	-46.9	15.5	0.00e+00	0	51	0	236978176	54	4058
2026-01-04 22:50:39.85	28.57	10.23	-45.5	-46.8	15.6	0.00e+00	0	51	0	240123904	54	4018
2026-01-04 22:50:40.84	28.66	10.30	-45.5	-46.8	15.6	0.00e+00	0	51	0	243269632	54	4009
2026-01-04 22:50:41.83	28.76	10.37	-45.4	-46.6	15.8	0.00e+00	0	51	0	246415360	53	4175
2026-01-04 22:50:42.82	28.85	10.45	-45.4	-46.6	15.8	0.00e+00	0	51	0	249561088	53	4160
2026-01-04 22:50:43.81	28.95	10.52	-45.3	-46.5	15.8	0.00e+00	0	51	0	252706816	53	4129
2026-01-04 22:50:44.79	29.04	10.59	-45.3	-46.5	15.9	0.00e+00	0	51	0	255852544	53	4125
2026-01-04 22:50:45.79	29.14	10.67	-45.5	-46.8	15.6	0.00e+00	0	51	0	258998272	53	4251
2026-01-04 22:50:46.78	29.24	10.74	-45.4	-46.6	15.8	0.00e+00	0	51	0	262144000	53	4170
2026-01-04 22:50:47.77	29.34	10.82	-45.2	-46.3	16.1	0.00e+00	0	51	0	265289728	53	4031
2026-01-04 22:50:48.76	29.43	10.89	-45.1	-46.2	16.2	0.00e+00	0	51	0	268435456	53	3980
2026-01-04 22:50:49.75	29.53	10.97	-45.0	-46.1	16.2	0.00e+00	0	51	0	271581184	53	3955
2026-01-04 22:50:50.74	29.63	11.04	-45.1	-46.2	16.2	0.00e+00	0	51	0	274726912	53	3990
2026-01-04 22:50:51.74	29.73	11.12	-45.1	-46.2	16.2	0.00e+00	0	51	0	277872640	53	3996
2026-01-04 22:50:52.72	29.83	11.19	-45.1	-46.3	16.1	0.00e+00	0	51	0	281018368	53	4016
2026-01-04 22:50:53.71	29.93	11.27	-45.2	-46.4	16.0	0.00e+00	0	52	0	284164096	53	4073
2026-01-04 22:50:54.70	30.03	11.34	-45.2	-46.3	16.1	0.00e+00	0	51	0	287309824	53	4048
2026-01-04 22:50:55.69	30.13	11.42	-45.1	-46.2	16.2	0.00e+00	0	52	0	289406976	53	3993
2026-01-04 22:50:56.68	30.23	11.50	-45.1	-46.2	16.1	0.00e+00	0	52	0	292552704	53	4002
2026-01-04 22:50:57.67	30.34	11.57	-45.2	-46.4	16.0	0.00e+00	0	52	0	295698432	53	4089
2026-01-04 22:50:58.66	30.44	11.65	-45.2	-46.3	16.1	0.00e+00	0	52	0	298844160	53	4035
2026-01-04 22:50:59.66	30.54	11.73	-45.0	-46.1	16.3	0.00e+00	0	52	0	301989888	53	3942
2026-01-04 22:51:00.65	30.65	11.80	-45.0	-46.1	16.3	0.00e+00	0	52	0	305135616	53	3924
2026-01-04 22:51:01.64	30.75	11.88	-44.9	-46.0	16.4	0.00e+00	0	52	0	308281344	53	3901
2026-01-04 22:51:02.63	30.86	11.96	-45.0	-46.1	16.4	0.00e+00	0	52	0	311427072	53	3914
2026-01-04 22:51:03.62	30.96	12.03	-45.1	-46.2	16.3	0.00e+00	0	52	0	314572800	53	3975
2026-01-04 22:51:04.61	31.07	12.11	-45.1	-46.2	16.2	0.00e+00	0	52	0	317718528	53	4003
2026-01-04 22:51:05.60	31.17	12.19	-45.2	-46.3	16.2	0.00e+00	0	52	0	320864256	53	4026
2026-01-04 22:51:06.59	31.28	12.27	-45.2	-46.4	16.1	0.00e+00	0	52	0	324009984	53	4059
2026-01-04 22:51:07.58	31.39	12.34	-45.2	-46.3	16.2	0.00e+00	0	52	0	327155712	53	4022
2026-01-04 22:51:08.57	31.50	12.42	-45.2	-46.3	16.2	0.00e+00	0	52	0	330301440	53	4033
2026-01-04 22:51:09.56	31.60	12.50	-45.1	-46.2	16.3	0.00e+00	0	52	0	333447168	53	3983
2026-01-04 22:51:10.55	31.71	12.58	-45.2	-46.4	16.1	0.00e+00	0	52	0	336592896	53	4068
2026-01-04 22:51:11.53	31.82	12.65	-45.3	-46.5	16.0	0.00e+00	0	52	0	339738624	53	4117
2026-01-04 22:51:12.53	31.93	12.73	-45.0	-46.1	16.3	0.00e+00	0	52	0	342884352	53	3946
2026-01-04 22:51:13.51	32.04	12.81	-44.9	-46.0	16.5	0.00e+00	0	52	0	346030080	52	4113
2026-01-04 22:51:14.51	32.15	12.89	-44.8	-45.9	16.6	0.00e+00	0	52	0	349175808	52	4069
2026-01-04 22:51:15.50	32.27	12.97	-45.0	-46.1	16.4	0.00e+00	0	52	0	351272960	52	4189
2026-01-04 22:51:16.48	32.38	13.05	-45.2	-46.3	16.2	0.00e+00	0	52	0	354418688	52	4262
2026-01-04 22:51:17.47	32.49	13.13	-45.2	-46.3	16.2	0.00e+00	0	52	0	357564416	52	4276
2026-01-04 22:51:18.46	32.60	13.21	-45.2	-46.3	16.2	0.00e+00	0	52	0	360710144	52	4291
2026-01-04 22:51:19.45	32.72	13.29	-45.2	-46.3	16.2	0.00e+00	0	52	0	363855872	52	4273
2026-01-04 22:51:20.43	32.83	13.37	-45.2	-46.3	16.2	0.00e+00	0	52	0	367001600	52	4253
2026-01-04 22:51:21.42	32.95	13.45	-45.2	-46.3	16.2	0.00e+00	0	52	0	370147328	52	4277
2026-01-04 22:51:22.41	33.06	13.53	-45.3	-46.4	16.1	0.00e+00	0	52	0	373293056	52	4315
2026-01-04 22:51:23.40	33.18	13.61	-45.3	-46.5	16.0	0.00e+00	0	53	0	376438784	52	4357
2026-01-04 22:51:24.38	33.30	13.69	-45.1	-46.2	16.3	0.00e+00	0	52	0	379584512	52	4230
2026-01-04 22:51:25.38	33.42	13.77	-44.9	-45.9	16.6	0.00e+00	0	52	0	382730240	52	4086
2026-01-04 22:51:26.37	33.53	13.85	-44.9	-45.9	16.6	0.00e+00	0	52	0	385875968	52	4074
2026-01-04 22:51:27.35	33.65	13.93	-45.0	-46.1	16.4	0.00e+00	0	53	0	389021696	52	4175
2026-01-04 22:51:28.34	33.77	14.01	-45.1	-46.2	16.3	0.00e+00	0	53	0	392167424	52	4235
2026-01-04 22:51:29.33	33.89	14.09	-45.1	-46.2	16.3	0.00e+00	0	53	0	395313152	52	4223
2026-01-04 22:51:30.32	34.01	14.17	-45.3	-46.4	16.1	0.00e+00	0	53	0	398458880	52	4319
2026-01-04 22:51:31.32	34.14	14.26	-45.3	-46.4	16.1	0.00e+00	0	53	0	401604608	52	4336
2026-01-04 22:51:32.30	34.26	14.34	-45.3	-46.4	16.1	0.00e+00	0	53	0	404750336	52	4327
2026-01-04 22:51:33.29	34.38	14.42	-45.5	-46.6	15.9	0.00e+00	0	53	0	407896064	52	4427
2026-01-04 22:51:34.29	34.50	14.50	-45.7	-46.9	15.7	0.00e+00	0	53	0	411041792	53	4303
2026-01-04 22:51:35.28	34.63	14.58	-45.5	-46.7	15.9	0.00e+00	0	53	0	414187520	53	4220
2026-01-04 22:51:36.28	34.75	14.67	-45.7	-46.9	15.7	0.00e+00	0	53	0	416284672	53	4327
2026-01-04 22:51:37.27	34.88	14.75	-45.4	-46.6	15.9	0.00e+00	0	53	0	419430400	53	4175
2026-01-04 22:51:38.25	35.00	14.83	-45.4	-46.5	16.1	0.00e+00	0	53	0	422576128	53	4126
2026-01-04 22:51:39.25	35.13	14.91	-45.3	-46.4	16.1	0.00e+00	0	53	0	425721856	53	4094
2026-01-04 22:51:40.23	35.26	15.00	-45.5	-46.7	15.9	0.00e+00	0	53	0	428867584	53	4202
2026-01-04 22:51:41.22	35.39	15.08	-45.7	-46.9	15.7	0.00e+00	0	53	0	432013312	53	4334
2026-01-04 22:51:42.21	35.52	15.16	-45.8	-47.1	15.6	0.00e+00	0	53	0	435159040	53	4395
2026-01-04 22:51:43.20	35.65	15.25	-45.6	-46.8	15.7	0.00e+00	0	53	0	438304768	53	4287
2026-01-04 22:51:44.20	35.78	15.33	-45.5	-46.7	15.9	0.00e+00	0	53	0	441450496	53	4224
2026-01-04 22:51:45.19	35.91	15.41	-45.4	-46.6	15.9	0.00e+00	0	53	0	444596224	53	4181
2026-01-04 22:51:46.18	36.04	15.50	-45.6	-46.8	15.8	0.00e+00	0	53	0	447741952	53	4270
2026-01-04 22:51:47.16	36.17	15.58	-45.7	-46.9	15.7	0.00e+00	0	53	0	450887680	53	4340
2026-01-04 22:51:48.15	36.30	15.67	-45.6	-46.8	15.8	0.00e+00	0	53	0	454033408	53	4255
2026-01-04 22:51:49.13	36.44	15.75	-45.5	-46.7	16.0	0.00e+00	0	53	0	457179136	53	4203
2026-01-04 22:51:50.12	36.57	15.83	-45.6	-46.9	15.8	0.00e+00	0	53	0	460324864	53	4294
2026-01-04 22:51:51.11	36.71	15.92	-45.8	-47.1	15.5	0.00e+00	0	53	0	463470592	53	4421
2026-01-04 22:51:52.10	36.84	16.00	-45.6	-46.8	15.9	0.00e+00	0	53	0	466616320	53	4258
2026-01-04 22:51:53.10	36.98	16.09	-45.8	-47.0	15.6	0.00e+00	0	53	0	469762048	53	4361
2026-01-04 22:51:54.09	37.12	16.17	-45.6	-46.8	15.8	0.00e+00	0	53	0	472907776	53	4283
2026-01-04 22:51:55.08	37.26	16.26	-45.9	-47.1	15.5	0.00e+00	0	53	0	476053504	53	4438
2026-01-04 22:51:56.07	37.40	16.35	-45.6	-46.8	15.9	0.00e+00	0	53	0	478150656	53	4245
2026-01-04 22:51:57.06	37.54	16.43	-45.5	-46.7	15.9	0.00e+00	0	53	0	481296384	53	4212
2026-01-04 22:51:58.04	37.67	16.52	-45.4	-46.6	16.1	0.00e+00	0	53	0	484442112	53	4148
2026-01-04 22:51:59.04	37.82	16.60	-45.4	-46.5	16.2	0.00e+00	0	53	0	487587840	53	4123
2026-01-04 22:52:00.03	37.96	16.69	-45.5	-46.6	16.1	0.00e+00	0	53	0	490733568	53	4190
2026-01-04 22:52:01.02	38.10	16.77	-45.6	-46.8	15.9	0.00e+00	0	53	0	493879296	53	4248
2026-01-04 22:52:02.01	38.25	16.86	-45.7	-46.9	15.8	0.00e+00	0	53	0	497025024	53	4311
2026-01-04 22:52:03.01	38.39	16.95	-45.4	-46.6	16.0	0.00e+00	0	53	0	500170752	53	4150
2026-01-04 22:52:04.00	38.54	17.03	-45.3	-46.4	16.2	0.00e+00	0	53	0	503316480	53	4085
2026-01-04 22:52:04.99	38.68	17.12	-45.2	-46.3	16.3	0.00e+00	0	53	0	506462208	53	4041
2026-01-04 22:52:05.97	38.83	17.21	-45.3	-46.4	16.2	0.00e+00	0	54	0	509607936	53	4059
2026-01-04 22:52:06.96	38.98	17.29	-45.4	-46.5	16.2	0.00e+00	0	53	0	512753664	53	4109
2026-01-04 22:52:07.96	39.13	17.38	-45.7	-46.9	15.8	0.00e+00	0	54	0	515899392	53	4327
2026-01-04 22:52:08.94	39.27	17.47	-45.6	-46.8	15.9	0.00e+00	0	53	0	519045120	53	4256
2026-01-04 22:52:09.92	39.42	17.55	-45.3	-46.5	16.2	0.00e+00	0	53	0	522190848	53	4111
2026-01-04 22:52:10.91	39.57	17.64	-45.1	-46.2	16.4	0.00e+00	0	53	0	525336576	53	3996
2026-01-04 22:52:11.89	39.72	17.73	-45.0	-46.1	16.6	0.00e+00	0	53	0	528482304	53	3928
2026-01-04 22:52:12.88	39.88	17.82	-45.0	-46.0	16.6	0.00e+00	0	54	0	531628032	53	3913
2026-01-04 22:52:13.87	40.03	17.90	-44.9	-45.9	16.7	0.00e+00	0	53	0	534773760	52	4069
2026-01-04 22:52:14.87	40.19	17.99	-45.1	-46.1	16.5	0.00e+00	0	54	0	537919488	52	4191
2026-01-04 22:52:15.86	40.34	18.08	-45.3	-46.4	16.3	0.00e+00	0	53	0	541065216	52	4317
2026-01-04 22:52:16.85	40.50	18.17	-45.1	-46.1	16.5	0.00e+00	0	54	0	543162368	52	4179
2026-01-04 22:52:17.85	40.66	18.26	-44.8	-45.8	16.8	0.00e+00	0	53	0	546308096	52	4020
2026-01-04 22:52:18.84	40.82	18.35	-44.7	-45.7	17.0	0.00e+00	0	54	0	549453824	52	3987
2026-01-04 22:52:19.83	40.97	18.44	-45.0	-46.0	16.7	0.00e+00	0	54	0	552599552	52	4133
2026-01-04 22:52:20.82	41.13	18.52	-44.8	-45.9	16.7	0.00e+00	0	54	0	555745280	52	4065
2026-01-04 22:52:21.81	41.30	18.61	-45.0	-46.0	16.6	0.00e+00	0	54	0	558891008	52	4142
2026-01-04 22:52:22.80	41.46	18.70	-45.0	-46.1	16.5	0.00e+00	0	54	0	562036736	52	4189
2026-01-04 22:52:23.78	41.62	18.79	-45.1	-46.2	16.5	0.00e+00	0	54	0	565182464	52	4218
2026-01-04 22:52:24.76	41.78	18.88	-45.2	-46.3	16.4	0.00e+00	0	54	0	568328192	52	4252
2026-01-04 22:52:25.75	41.94	18.97	-45.4	-46.6	16.2	0.00e+00	0	54	0	571473920	52	4405
2026-01-04 22:52:26.74	42.11	19.06	-45.2	-46.3	16.4	0.00e+00	0	54	0	574619648	52	4256
2026-01-04 22:52:27.72	42.27	19.14	-44.9	-46.0	16.7	0.00e+00	0	54	0	577765376	52	4105
2026-01-04 22:52:28.70	42.44	19.23	-44.7	-45.8	16.9	0.00e+00	0	54	0	580911104	52	4014
2026-01-04 22:52:29.69	42.61	19.32	-44.9	-45.9	16.8	0.00e+00	0	54	0	584056832	52	4077
2026-01-04 22:52:30.68	42.78	19.41	-44.8	-45.7	16.8	0.00e+00	0	54	0	587202560	52	4004
2026-01-04 22:52:31.67	42.95	19.50	-44.9	-45.9	16.8	0.00e+00	0	54	0	590348288	52	4064
2026-01-04 22:52:32.66	43.12	19.59	-44.9	-45.9	16.7	0.00e+00	0	54	0	593494016	52	4090
2026-01-04 22:52:33.65	43.29	19.68	-45.1	-46.1	16.5	0.00e+00	0	54	0	595591168	52	4191
2026-01-04 22:52:34.64	43.46	19.77	-45.0	-46.0	16.7	0.00e+00	0	54	0	598736896	52	4144
2026-01-04 22:52:35.62	43.64	19.86	-44.7	-45.7	17.0	0.00e+00	0	54	0	601882624	52	3999
2026-01-04 22:52:36.61	43.81	19.95	-44.6	-45.6	17.1	0.00e+00	0	54	0	605028352	52	3944
2026-01-04 22:52:37.61	43.99	20.04	-44.5	-45.4	17.3	0.00e+00	0	54	0	608174080	51	4094
2026-01-04 22:52:38.60	44.17	20.13	-44.4	-45.3	17.5	0.00e+00	0	54	0	611319808	51	4022
2026-01-04 22:52:39.59	44.34	20.22	-44.4	-45.3	17.5	0.00e+00	0	54	0	614465536	51	4025
2026-01-04 22:52:40.58	44.52	20.31	-44.3	-45.1	17.6	0.00e+00	0	54	0	617611264	51	3953
2026-01-04 22:52:41.57	44.70	20.40	-44.0	-44.8	17.9	0.00e+00	0	54	0	620756992	51	3808
2026-01-04 22:52:42.56	44.88	20.49	-43.9	-44.8	17.9	0.00e+00	0	54	0	623902720	51	3803
2026-01-04 22:52:43.55	45.07	20.58	-44.0	-44.8	17.9	0.00e+00	0	54	0	627048448	50	4045
2026-01-04 22:52:44.54	45.25	20.67	-44.0	-44.9	17.9	0.00e+00	0	54	0	630194176	50	4065
2026-01-04 22:52:45.52	45.43	20.76	-44.1	-45.0	17.7	0.00e+00	0	54	0	633339904	50	4140
2026-01-04 22:52:46.51	45.62	20.85	-44.2	-45.1	17.7	0.00e+00	0	54	0	636485632	50	4153
2026-01-04 22:52:47.51	45.80	20.95	-44.3	-45.2	17.6	0.00e+00	0	54	0	639631360	50	4227
2026-01-04 22:52:48.49	45.99	21.03	-44.2	-45.2	17.6	0.00e+00	0	54	0	642777088	50	4200
2026-01-04 22:52:49.47	46.18	21.12	-44.1	-45.0	17.8	0.00e+00	0	54	0	645922816	50	4105
2026-01-04 22:52:50.46	46.37	21.22	-44.0	-44.9	17.8	0.00e+00	0	54	0	648019968	50	4064
2026-01-04 22:52:51.45	46.56	21.31	-44.0	-44.9	17.9	0.00e+00	0	54	0	651165696	50	4067
2026-01-04 22:52:52.44	46.75	21.40	-44.2	-45.0	17.8	0.00e+00	0	54	0	654311424	50	4144
2026-01-04 22:52:53.43	46.94	21.49	-44.2	-45.1	17.7	0.00e+00	0	54	0	657457152	50	4181
2026-01-04 22:52:54.42	47.14	21.58	-44.1	-45.0	17.8	0.00e+00	0	54	0	660602880	50	4132
2026-01-04 22:52:55.41	47.33	21.67	-44.2	-45.0	17.7	0.00e+00	0	54	0	663748608	50	4139
2026-01-04 22:52:56.40	47.53	21.76	-44.3	-45.2	17.6	0.00e+00	0	54	0	666894336	50	4212
2026-01-04 22:52:57.39	47.72	21.85	-44.4	-45.3	17.5	0.00e+00	0	54	0	670040064	50	4270
2026-01-04 22:52:58.38	47.92	21.94	-44.3	-45.2	17.5	0.00e+00	0	54	0	673185792	50	4232
2026-01-04 22:52:59.37	48.12	22.03	-44.4	-45.3	17.4	0.00e+00	0	54	0	676331520	50	4282
2026-01-04 22:53:00.36	48.32	22.12	-44.3	-45.2	17.6	0.00e+00	0	54	0	679477248	50	4224
2026-01-04 22:53:01.34	48.52	22.21	-44.0	-44.9	17.9	0.00e+00	0	54	0	682622976	50	4065
2026-01-04 22:53:02.33	48.73	22.30	-44.0	-44.8	17.9	0.00e+00	0	54	0	685768704	50	4044
2026-01-04 22:53:03.32	48.93	22.39	-44.0	-44.8	17.9	0.00e+00	0	54	0	688914432	50	4043
2026-01-04 22:53:04.32	49.14	22.48	-43.9	-44.8	18.0	0.00e+00	0	54	0	692060160	50	4018
2026-01-04 22:53:05.30	49.34	22.57	-43.8	-44.7	18.0	0.00e+00	0	54	0	695205888	50	3977
2026-01-04 22:53:06.29	49.55	22.66	-44.0	-44.9	17.9	0.00e+00	0	54	0	698351616	50	4078
2026-01-04 22:53:07.28	49.76	22.75	-43.9	-44.7	18.1	0.00e+00	0	54	0	701497344	50	3991
2026-01-04 22:53:08.27	49.97	22.84	-43.8	-44.7	18.1	0.00e+00	0	54	0	704643072	50	3968
2026-01-04 22:53:09.26	50.18	22.93	-44.0	-44.8	18.0	0.00e+00	0	54	0	706740224	50	4032
2026-01-04 22:53:10.24	50.39	23.02	-44.1	-44.9	17.9	0.00e+00	0	54	0	709885952	50	4074
2026-01-04 22:53:11.23	50.60	23.11	-44.0	-44.9	17.9	0.00e+00	0	54	0	713031680	50	4070
2026-01-04 22:53:12.22	50.82	23.20	-44.2	-45.1	17.7	0.00e+00	0	54	0	716177408	50	4148
2026-01-04 22:53:13.21	51.03	23.29	-44.2	-45.1	17.8	0.00e+00	0	54	0	719323136	50	4146
2026-01-04 22:53:14.20	51.25	23.38	-44.3	-45.1	17.6	0.00e+00	0	54	0	722468864	50	4188
2026-01-04 22:53:15.19	51.47	23.47	-44.2	-45.1	17.6	0.00e+00	0	54	0	725614592	50	4190
2026-01-04 22:53:16.17	51.69	23.56	-44.4	-45.3	17.5	0.00e+00	0	54	0	728760320	50	4267
2026-01-04 22:53:17.18	51.91	23.65	-44.3	-45.2	17.6	0.00e+00	0	54	0	731906048	50	4234
2026-01-04 22:53:18.17	52.13	23.74	-44.1	-45.0	17.9	0.00e+00	0	54	0	735051776	50	4101
2026-01-04 22:53:19.16	52.36	23.83	-44.2	-45.0	17.8	0.00e+00	0	54	0	738197504	50	4131
2026-01-04 22:53:20.14	52.58	23.92	-44.3	-45.1	17.7	0.00e+00	0	54	0	741343232	50	4185
2026-01-04 22:53:21.13	52.81	24.01	-44.3	-45.2	17.6	0.00e+00	0	54	0	744488960	50	4228
2026-01-04 22:53:22.12	53.03	24.10	-44.1	-45.0	17.8	0.00e+00	0	54	0	747634688	50	4128
2026-01-04 22:53:23.11	53.26	24.18	-44.0	-44.9	17.9	0.00e+00	0	55	0	750780416	50	4072
2026-01-04 22:53:24.10	53.49	24.27	-44.0	-44.9	17.9	0.00e+00	0	54	0	753926144	50	4072
2026-01-04 22:53:25.09	53.72	24.36	-44.1	-45.0	17.8	0.00e+00	0	55	0	757071872	50	4119
2026-01-04 22:53:26.09	53.96	24.45	-44.6	-45.5	17.3	0.00e+00	0	54	0	760217600	50	4389
2026-01-04 22:53:27.07	54.19	24.54	-44.7	-45.7	17.2	0.00e+00	0	54	0	763363328	51	4203
2026-01-04 22:53:28.05	54.42	24.62	-44.7	-45.6	17.2	0.00e+00	0	55	0	766509056	51	4182
2026-01-04 22:53:29.03	54.65	24.71	-44.9	-45.9	16.9	0.00e+00	0	55	0	769654784	51	4309
2026-01-04 22:53:30.02	54.89	24.80	-44.9	-45.9	17.0	0.00e+00	0	55	0	771751936	51	4308
2026-01-04 22:53:31.00	55.13	24.88	-44.9	-46.0	16.8	0.00e+00	0	55	0	774897664	52	4109
2026-01-04 22:53:31.99	55.37	24.97	-45.1	-46.2	16.6	0.00e+00	0	55	0	778043392	52	4215
2026-01-04 22:53:32.98	55.61	25.06	-45.3	-46.4	16.4	0.00e+00	0	55	0	781189120	52	4306
2026-01-04 22:53:33.98	55.85	25.14	-45.1	-46.1	16.6	0.00e+00	0	55	0	784334848	52	4179
2026-01-04 22:53:34.97	56.10	25.23	-44.8	-45.8	17.0	0.00e+00	0	55	0	787480576	52	4038
2026-01-04 22:53:35.96	56.34	25.32	-44.6	-45.6	17.1	0.00e+00	0	55	0	790626304	52	3926
2026-01-04 22:53:36.95	56.59	25.40	-44.6	-45.6	17.3	0.00e+00	0	55	0	793772032	52	3916
2026-01-04 22:53:37.93	56.83	25.49	-44.6	-45.5	17.2	0.00e+00	0	55	0	796917760	52	3909
2026-01-04 22:53:38.91	57.08	25.57	-44.6	-45.5	17.2	0.00e+00	0	55	0	800063488	52	3903
2026-01-04 22:53:39.90	57.33	25.65	-44.9	-45.9	16.9	0.00e+00	0	55	0	803209216	52	4052
2026-01-04 22:53:40.90	57.58	25.74	-44.7	-45.7	17.1	0.00e+00	0	55	0	806354944	52	3994
2026-01-04 22:53:41.89	57.84	25.82	-44.5	-45.4	17.3	0.00e+00	0	55	0	809500672	52	3856
2026-01-04 22:53:42.88	58.09	25.91	-44.5	-45.5	17.4	0.00e+00	0	55	0	812646400	51	4101
2026-01-04 22:53:43.87	58.35	25.99	-44.6	-45.5	17.4	0.00e+00	0	55	0	815792128	51	4130
2026-01-04 22:53:44.86	58.60	26.07	-44.8	-45.7	17.2	0.00e+00	0	55	0	818937856	51	4232
2026-01-04 22:53:45.85	58.86	26.16	-44.7	-45.7	17.2	0.00e+00	0	55	0	822083584	51	4209
2026-01-04 22:53:46.84	59.12	26.24	-44.9	-45.8	17.1	0.00e+00	0	55	0	825229312	51	4289
2026-01-04 22:53:47.83	59.38	26.32	-45.0	-46.0	16.7	0.00e+00	0	55	0	828375040	52	4143
2026-01-04 22:53:48.82	59.64	26.40	-44.8	-45.8	17.0	0.00e+00	0	55	0	831520768	52	4006
2026-01-04 22:53:49.80	59.90	26.48	-44.6	-45.5	17.2	0.00e+00	0	55	0	833617920	52	3908
2026-01-04 22:53:50.79	60.17	26.56	-44.4	-45.3	17.4	0.00e+00	0	55	0	836763648	52	3809
2026-01-04 22:53:51.78	60.44	26.65	-44.6	-45.5	17.3	0.00e+00	0	55	0	839909376	51	4139
2026-01-04 22:53:52.77	60.70	26.73	-44.8	-45.7	17.1	0.00e+00	0	55	0	843055104	51	4242
2026-01-04 22:53:53.76	60.97	26.80	-44.7	-45.6	17.3	0.00e+00	0	55	0	846200832	51	4168
2026-01-04 22:53:54.75	61.24	26.88	-44.5	-45.4	17.5	0.00e+00	0	55	0	849346560	51	4072
2026-01-04 22:53:55.73	61.51	26.96	-44.3	-45.2	17.6	0.00e+00	0	55	0	852492288	51	3990
2026-01-04 22:53:56.72	61.78	27.04	-44.4	-45.3	17.6	0.00e+00	0	55	0	855638016	51	4005
2026-01-04 22:53:57.71	62.06	27.12	-44.4	-45.3	17.5	0.00e+00	0	55	0	858783744	51	4043
2026-01-04 22:53:58.70	62.33	27.20	-44.4	-45.3	17.5	0.00e+00	0	55	0	861929472	51	4049
2026-01-04 22:53:59.69	62.61	27.27	-44.5	-45.4	17.3	0.00e+00	0	55	0	865075200	51	4081
2026-01-04 22:54:00.67	62.88	27.35	-44.8	-45.7	17.0	0.00e+00	0	55	0	868220928	51	4240
2026-01-04 22:54:01.66	63.16	27.42	-44.6	-45.6	17.2	0.00e+00	0	55	0	871366656	51	4161
2026-01-04 22:54:02.65	63.44	27.50	-44.4	-45.3	17.5	0.00e+00	0	55	0	874512384	51	4017
2026-01-04 22:54:03.63	63.72	27.57	-44.1	-45.0	17.9	0.00e+00	0	55	0	877658112	51	3873
2026-01-04 22:54:04.62	64.01	27.65	-44.0	-44.9	17.9	0.00e+00	0	55	0	880803840	51	3826
2026-01-04 22:54:05.60	64.29	27.72	-44.1	-45.0	17.9	0.00e+00	0	55	0	882900992	51	3881
2026-01-04 22:54:06.59	64.57	27.80	-44.1	-44.9	17.9	0.00e+00	0	55	0	886046720	51	3865
2026-01-04 22:54:07.58	64.86	27.87	-44.3	-45.2	17.7	0.00e+00	0	55	0	889192448	51	3972
2026-01-04 22:54:08.57	65.15	27.94	-44.4	-45.3	17.6	0.00e+00	0	55	0	892338176	51	4032
2026-01-04 22:54:09.56	65.44	28.01	-44.5	-45.5	17.4	0.00e+00	0	55	0	895483904	51	4104
2026-01-04 22:54:10.55	65.73	28.08	-44.7	-45.7	17.2	0.00e+00	0	55	0	898629632	51	4209
2026-01-04 22:54:11.53	66.02	28.15	-44.7	-45.7	17.2	0.00e+00	0	55	0	901775360	51	4200
2026-01-04 22:54:12.53	66.31	28.22	-44.6	-45.6	17.3	0.00e+00	0	55	0	904921088	51	4172
2026-01-04 22:54:13.52	66.61	28.29	-44.4	-45.3	17.5	0.00e+00	0	55	0	908066816	51	4031
2026-01-04 22:54:14.50	66.90	28.36	-44.3	-45.2	17.7	0.00e+00	0	55	0	911212544	51	3991
2026-01-04 22:54:15.49	67.20	28.43	-44.4	-45.3	17.7	0.00e+00	0	55	0	914358272	51	4006
2026-01-04 22:54:16.48	67.50	28.50	-44.4	-45.3	17.6	0.00e+00	0	55	0	917504000	51	4012
2026-01-04 22:54:17.47	67.80	28.56	-44.4	-45.3	17.6	0.00e+00	0	55	0	920649728	51	4011
2026-01-04 22:54:18.46	68.10	28.63	-44.4	-45.3	17.6	0.00e+00	0	55	0	923795456	51	4050
2026-01-04 22:54:19.44	68.40	28.69	-44.7	-45.6	17.3	0.00e+00	0	55	0	926941184	51	4176
2026-01-04 22:54:20.44	68.70	28.76	-44.8	-45.8	17.1	0.00e+00	0	55	0	930086912	51	4260
2026-01-04 22:54:21.43	69.01	28.82	-44.8	-45.7	17.2	0.00e+00	0	55	0	933232640	51	4235
2026-01-04 22:54:22.42	69.31	28.89	-44.9	-45.9	17.1	0.00e+00	0	55	0	936378368	51	4312
2026-01-04 22:54:23.40	69.62	28.95	-44.8	-45.8	17.1	0.00e+00	0	55	0	938475520	51	4264
2026-01-04 22:54:24.39	69.92	29.01	-44.5	-45.4	17.5	0.00e+00	0	55	0	941621248	51	4059
2026-01-04 22:54:25.37	70.23	29.07	-44.3	-45.2	17.7	0.00e+00	0	55	0	944766976	51	3965
2026-01-04 22:54:26.36	70.54	29.13	-44.3	-45.2	17.7	0.00e+00	0	55	0	947912704	51	3985
2026-01-04 22:54:27.35	70.85	29.19	-44.3	-45.2	17.7	0.00e+00	0	55	0	951058432	51	3975
2026-01-04 22:54:28.34	71.16	29.25	-44.4	-45.4	17.6	0.00e+00	0	55	0	954204160	51	4052
2026-01-04 22:54:29.32	71.47	29.30	-44.6	-45.5	17.4	0.00e+00	0	55	0	957349888	51	4134
2026-01-04 22:54:30.31	71.79	29.36	-44.5	-45.5	17.5	0.00e+00	0	55	0	960495616	51	4106
2026-01-04 22:54:31.30	72.10	29.42	-44.8	-45.7	17.2	0.00e+00	0	55	0	963641344	51	4239
2026-01-04 22:54:32.29	72.42	29.47	-44.6	-45.5	17.3	0.00e+00	0	55	0	966787072	51	4135
2026-01-04 22:54:33.27	72.74	29.53	-44.5	-45.4	17.5	0.00e+00	0	55	0	969932800	51	4079
2026-01-04 22:54:34.25	73.05	29.58	-44.4	-45.3	17.6	0.00e+00	0	55	0	973078528	51	4042
2026-01-04 22:54:35.24	73.37	29.63	-44.4	-45.3	17.5	0.00e+00	0	55	0	976224256	51	4047
2026-01-04 22:54:36.24	73.70	29.69	-44.3	-45.2	17.7	0.00e+00	0	55	0	979369984	51	3981
2026-01-04 22:54:37.23	74.02	29.74	-44.3	-45.2	17.7	0.00e+00	0	55	0	982515712	51	3972
2026-01-04 22:54:38.23	74.35	29.79	-44.6	-45.5	17.4	0.00e+00	0	55	0	985661440	51	4123
2026-01-04 22:54:39.23	74.67	29.84	-44.9	-45.8	17.1	0.00e+00	0	55	0	988807168	51	4283
2026-01-04 22:54:40.22	75.00	29.89	-44.9	-45.9	17.0	0.00e+00	0	55	0	991952896	51	4316
2026-01-04 22:54:41.20	75.32	29.93	-45.0	-46.0	16.7	0.00e+00	0	55	0	995098624	52	4135
2026-01-04 22:54:42.19	75.65	29.98	-44.9	-45.9	17.0	0.00e+00	0	55	0	998244352	52	4063
2026-01-04 22:54:43.18	75.98	30.03	-45.0	-46.0	16.9	0.00e+00	0	55	0	1000341504	52	4137
2026-01-04 22:54:44.17	76.30	30.07	-45.1	-46.2	16.6	0.00e+00	0	55	0	1003487232	52	4199
2026-01-04 22:54:45.15	76.63	30.11	-45.0	-46.1	16.7	0.00e+00	0	55	0	1006632960	52	4154
2026-01-04 22:54:46.14	76.96	30.16	-45.0	-46.1	16.8	0.00e+00	0	55	0	1009778688	52	4146
2026-01-04 22:54:47.12	77.29	30.20	-45.0	-46.1	16.8	0.00e+00	0	55	0	1012924416	52	4171
2026-01-04 22:54:48.11	77.62	30.24	-45.1	-46.1	16.7	0.00e+00	0	55	0	1016070144	52	4186
2026-01-04 22:54:49.11	77.96	30.28	-44.9	-45.8	17.0	0.00e+00	0	55	0	1019215872	52	4041
2026-01-04 22:54:50.10	78.29	30.32	-44.8	-45.7	17.1	0.00e+00	0	55	0	1022361600	52	3989
2026-01-04 22:54:51.09	78.63	30.36	-45.0	-46.0	16.9	0.00e+00	0	55	0	1025507328	52	4103
2026-01-04 22:54:52.08	78.96	30.39	-44.9	-46.0	16.9	0.00e+00	0	55	0	1028653056	52	4100
2026-01-04 22:54:53.07	79.30	30.43	-45.1	-46.2	16.6	0.00e+00	0	55	0	1031798784	52	4216
2026-01-04 22:54:54.06	79.64	30.47	-45.0	-46.1	16.8	0.00e+00	0	55	0	1034944512	52	4168
2026-01-04 22:54:55.06	79.98	30.50	-45.2	-46.3	16.6	0.00e+00	0	55	0	1038090240	52	4248
2026-01-04 22:54:56.04	80.31	30.53	-44.7	-45.7	17.2	0.00e+00	0	55	0	1041235968	52	3976
2026-01-04 22:54:57.03	80.65	30.56	-44.5	-45.4	17.4	0.00e+00	0	55	0	1044381696	52	3841
2026-01-04 22:54:58.02	80.99	30.60	-44.5	-45.4	17.4	0.00e+00	0	55	0	1047527424	52	3860
2026-01-04 22:54:59.01	81.33	30.62	-44.8	-45.8	17.1	0.00e+00	0	55	0	1050673152	52	4008
2026-01-04 22:55:00.00	81.67	30.65	-44.8	-45.8	17.0	0.00e+00	0	55	0	1053818880	52	4035
2026-01-04 22:55:00.99	82.01	30.68	-45.0	-46.1	16.7	0.00e+00	0	56	0	1056964608	52	4168
2026-01-04 22:55:01.98	82.36	30.71	-45.0	-46.0	16.9	0.00e+00	0	56	0	1060110336	52	4119
2026-01-04 22:55:02.98	82.70	30.73	-44.8	-45.8	16.9	0.00e+00	0	55	0	1063256064	52	4044
2026-01-04 22:55:03.96	83.04	30.76	-45.0	-46.0	16.8	0.00e+00	0	55	0	1065353216	52	4132
2026-01-04 22:55:04.95	83.39	30.78	-45.3	-46.4	16.5	0.00e+00	0	55	0	1068498944	52	4315
2026-01-04 22:55:05.94	83.73	30.80	-45.1	-46.1	16.8	0.00e+00	0	56	0	1071644672	52	4176
2026-01-04 22:55:06.92	84.07	30.82	-44.8	-45.8	17.1	0.00e+00	0	56	0	1074790400	52	4017
2026-01-04 22:55:07.92	84.42	30.84	-44.6	-45.6	17.2	0.00e+00	0	55	0	1077936128	52	3934
2026-01-04 22:55:08.90	84.76	30.86	-44.6	-45.5	17.3	0.00e+00	0	55	0	1081081856	52	3904
2026-01-04 22:55:09.89	85.11	30.88	-44.6	-45.6	17.2	0.00e+00	0	56	0	1084227584	52	3925
2026-01-04 22:55:10.88	85.45	30.90	-44.9	-45.9	16.9	0.00e+00	0	56	0	1087373312	52	4086
2026-01-04 22:55:11.87	85.80	30.91	-44.9	-45.9	17.0	0.00e+00	0	55	0	1090519040	52	4055
2026-01-04 22:55:12.87	86.15	30.93	-45.1	-46.2	16.7	0.00e+00	0	56	0	1093664768	52	4208
2026-01-04 22:55:13.85	86.49	30.94	-45.1	-46.1	16.8	0.00e+00	0	56	0	1096810496	52	4171
2026-01-04 22:55:14.84	86.84	30.95	-45.1	-46.2	16.6	0.00e+00	0	56	0	1099956224	52	4224
2026-01-04 22:55:15.82	87.19	30.96	-44.9	-45.9	16.9	0.00e+00	0	55	0	1103101952	52	4091
2026-01-04 22:55:16.81	87.53	30.97	-44.9	-45.9	16.9	0.00e+00	0	56	0	1106247680	52	4071
2026-01-04 22:55:17.80	87.88	30.98	-45.1	-46.2	16.7	0.00e+00	0	56	0	1109393408	52	4211
2026-01-04 22:55:18.79	88.23	30.99	-45.1	-46.2	16.6	0.00e+00	0	56	0	1112539136	52	4220
2026-01-04 22:55:19.78	88.58	31.00	-45.2	-46.3	16.6	0.00e+00	0	56	0	1115684864	52	4246
2026-01-04 22:55:20.77	88.93	31.00	-45.4	-46.5	16.4	0.00e+00	0	56	0	1118830592	52	4351
2026-01-04 22:55:21.76	89.28	31.01	-45.3	-46.4	16.5	0.00e+00	0	56	0	1120927744	52	4315
2026-01-04 22:55:22.75	89.63	31.01	-45.1	-46.2	16.7	0.00e+00	0	56	0	1124073472	52	4194
2026-01-04 22:55:23.73	89.97	31.01	-45.2	-46.2	16.6	0.00e+00	0	56	0	1127219200	52	4234
2026-01-04 22:55:24.71	90.32	31.01	-45.4	-46.6	16.3	0.00e+00	0	56	0	1130364928	52	4392
2026-01-04 22:55:25.70	90.67	31.01	-45.4	-46.5	16.3	0.00e+00	0	56	0	1133510656	52	4388
2026-01-04 22:55:26.69	91.01	31.01	-45.4	-46.5	16.4	0.00e+00	0	56	0	1136656384	52	4354
2026-01-04 22:55:27.67	91.36	31.01	-45.5	-46.6	16.2	0.00e+00	0	56	0	1139802112	52	4419
2026-01-04 22:55:28.66	91.71	31.01	-45.7	-46.8	16.0	0.00e+00	0	56	0	1142947840	53	4261
2026-01-04 22:55:29.64	92.05	31.00	-45.8	-47.0	15.8	0.00e+00	0	56	0	1146093568	53	4385
2026-01-04 22:55:30.63	92.40	30.99	-45.8	-46.9	15.9	0.00e+00	0	56	0	1149239296	53	4338
2026-01-04 22:55:31.62	92.75	30.99	-45.7	-46.9	16.0	0.00e+00	0	56	0	1152385024	53	4320
2026-01-04 22:55:32.61	93.10	30.98	-45.9	-47.1	15.7	0.00e+00	0	56	0	1155530752	53	4404
2026-01-04 22:55:33.59	93.44	30.97	-45.9	-47.2	15.7	0.00e+00	0	56	0	1158676480	53	4450
2026-01-04 22:55:34.57	93.79	30.96	-45.9	-47.2	15.7	0.00e+00	0	56	0	1161822208	53	4454
2026-01-04 22:55:35.56	94.14	30.95	-45.8	-47.0	15.9	0.00e+00	0	56	0	1164967936	53	4343
2026-01-04 22:55:36.55	94.48	30.93	-45.3	-46.4	16.5	0.00e+00	0	56	0	1167065088	53	4076
2026-01-04 22:55:37.54	94.83	30.92	-44.9	-45.9	16.9	0.00e+00	0	56	0	1170210816	53	3855
2026-01-04 22:55:38.52	95.18	30.91	-44.9	-45.8	16.9	0.00e+00	0	56	0	1173356544	52	4049
2026-01-04 22:55:39.51	95.52	30.89	-44.9	-45.9	16.9	0.00e+00	0	56	0	1176502272	52	4097
2026-01-04 22:55:40.50	95.87	30.87	-45.1	-46.2	16.7	0.00e+00	0	56	0	1179648000	52	4214
2026-01-04 22:55:41.49	96.21	30.85	-45.2	-46.2	16.7	0.00e+00	0	56	0	1182793728	52	4228
2026-01-04 22:55:42.48	96.56	30.83	-45.2	-46.3	16.5	0.00e+00	0	56	0	1185939456	52	4275
2026-01-04 22:55:43.46	96.90	30.81	-45.3	-46.4	16.4	0.00e+00	0	56	0	1189085184	52	4305
2026-01-04 22:55:44.44	97.24	30.79	-45.3	-46.4	16.5	0.00e+00	0	56	0	1192230912	52	4294
2026-01-04 22:55:45.43	97.59	30.77	-45.1	-46.1	16.7	0.00e+00	0	56	0	1195376640	52	4186
2026-01-04 22:55:46.42	97.93	30.75	-45.0	-46.0	16.8	0.00e+00	0	56	0	1198522368	52	4142
2026-01-04 22:55:47.41	98.27	30.72	-44.9	-45.9	17.0	0.00e+00	0	56	0	1201668096	52	4075
2026-01-04 22:55:48.40	98.62	30.69	-45.0	-46.0	16.8	0.00e+00	0	56	0	1204813824	52	4141
2026-01-04 22:55:49.39	98.96	30.67	-45.3	-46.3	16.6	0.00e+00	0	56	0	1207959552	52	4281
2026-01-04 22:55:50.37	99.30	30.64	-45.3	-46.3	16.5	0.00e+00	0	56	0	1211105280	52	4287
2026-01-04 22:55:51.36	99.64	30.61	-45.5	-46.6	16.3	0.00e+00	0	56	0	1214251008	52	4431
2026-01-04 22:55:52.35	99.98	30.58	-45.3	-46.3	16.5	0.00e+00	0	56	0	1217396736	52	4277
2026-01-04 22:55:53.34	100.32	30.55	-45.0	-46.1	16.8	0.00e+00	0	56	0	1220542464	52	4154
2026-01-04 22:55:54.33	100.66	30.52	-44.7	-45.7	17.1	0.00e+00	0	56	0	1223688192	52	3982
2026-01-04 22:55:55.32	101.00	30.48	-44.5	-45.4	17.5	0.00e+00	0	56	0	1226833920	51	4066
2026-01-04 22:55:56.30	101.33	30.45	-44.4	-45.3	17.6	0.00e+00	0	56	0	1228931072	51	4033
2026-01-04 22:55:57.29	101.67	30.41	-44.5	-45.4	17.6	0.00e+00	0	56	0	1232076800	51	4056
2026-01-04 22:55:58.28	102.00	30.38	-44.4	-45.3	17.6	0.00e+00	0	56	0	1235222528	51	4016
2026-01-04 22:55:59.28	102.34	30.34	-44.5	-45.4	17.5	0.00e+00	0	56	0	1238368256	51	4080
2026-01-04 22:56:00.27	102.68	30.30	-44.8	-45.7	17.2	0.00e+00	0	56	0	1241513984	51	4235
2026-01-04 22:56:01.26	103.01	30.26	-44.8	-45.8	17.1	0.00e+00	0	56	0	1244659712	51	4259
2026-01-04 22:56:02.24	103.34	30.22	-45.0	-45.9	17.0	0.00e+00	0	56	0	1247805440	51	4333
2026-01-04 22:56:03.24	103.68	30.18	-44.9	-45.9	17.0	0.00e+00	0	56	0	1250951168	51	4307
2026-01-04 22:56:04.23	104.01	30.14	-45.0	-46.0	16.8	0.00e+00	0	56	0	1254096896	52	4145
2026-01-04 22:56:05.21	104.34	30.09	-45.1	-46.2	16.7	0.00e+00	0	56	0	1257242624	52	4210
2026-01-04 22:56:06.19	104.66	30.05	-45.0	-46.0	16.9	0.00e+00	0	56	0	1260388352	52	4114
2026-01-04 22:56:07.18	104.99	30.00	-44.8	-45.8	17.0	0.00e+00	0	56	0	1263534080	52	4035
2026-01-04 22:56:08.17	105.32	29.96	-44.9	-45.9	17.0	0.00e+00	0	56	0	1266679808	52	4080
2026-01-04 22:56:09.16	105.65	29.91	-44.7	-45.7	17.1	0.00e+00	0	56	0	1269825536	52	3985
2026-01-04 22:56:10.15	105.97	29.86	-44.7	-45.6	17.2	0.00e+00	0	56	0	1272971264	52	3949
2026-01-04 22:56:11.14	106.30	29.81	-44.7	-45.7	17.2	0.00e+00	0	56	0	1276116992	52	3961
2026-01-04 22:56:12.13	106.62	29.76	-45.1	-46.1	16.7	0.00e+00	0	56	0	1279262720	52	4160
2026-01-04 22:56:13.12	106.95	29.71	-44.7	-45.7	17.2	0.00e+00	0	56	0	1282408448	52	3975
2026-01-04 22:56:14.11	107.27	29.66	-44.4	-45.3	17.5	0.00e+00	0	56	0	1284505600	52	3811
2026-01-04 22:56:15.10	107.59	29.61	-44.5	-45.4	17.6	0.00e+00	0	56	0	1287651328	51	4052
2026-01-04 22:56:16.08	107.91	29.55	-44.6	-45.5	17.4	0.00e+00	0	56	0	1290797056	51	4111
2026-01-04 22:56:17.07	108.22	29.50	-44.7	-45.6	17.3	0.00e+00	0	56	0	1293942784	51	4191
2026-01-04 22:56:18.06	108.54	29.44	-44.9	-45.9	17.1	0.00e+00	0	56	0	1297088512	51	4292
2026-01-04 22:56:19.05	108.86	29.39	-44.7	-45.6	17.3	0.00e+00	0	56	0	1300234240	51	4188
2026-01-04 22:56:20.03	109.17	29.33	-45.0	-46.0	17.0	0.00e+00	0	56	0	1303379968	51	4355
2026-01-04 22:56:21.02	109.49	29.27	-44.9	-45.9	17.1	0.00e+00	0	56	0	1306525696	51	4298
2026-01-04 22:56:22.01	109.80	29.22	-45.0	-46.0	16.9	0.00e+00	0	56	0	1309671424	51	4353
2026-01-04 22:56:23.00	110.11	29.16	-45.0	-46.0	16.8	0.00e+00	0	56	0	1312817152	52	4127
2026-01-04 22:56:24.00	110.43	29.10	-44.6	-45.6	17.3	0.00e+00	0	56	0	1315962880	52	3931
2026-01-04 22:56:24.98	110.74	29.04	-44.7	-45.7	17.1	0.00e+00	0	56	0	1319108608	52	3984
2026-01-04 22:56:25.97	111.04	28.98	-45.2	-46.2	16.7	0.00e+00	0	56	0	1322254336	52	4211
2026-01-04 22:56:26.96	111.35	28.91	-45.0	-46.0	16.9	0.00e+00	0	56	0	1325400064	52	4110
2026-01-04 22:56:27.94	111.66	28.85	-45.4	-46.5	16.4	0.00e+00	0	56	0	1328545792	52	4368
2026-01-04 22:56:28.92	111.96	28.79	-45.1	-46.2	16.6	0.00e+00	0	56	0	1331691520	52	4209
2026-01-04 22:56:29.90	112.26	28.72	-45.0	-46.0	16.8	0.00e+00	0	56	0	1333788672	52	4127
2026-01-04 22:56:30.89	112.56	28.66	-44.8	-45.8	17.0	0.00e+00	0	56	0	1336934400	52	4035
2026-01-04 22:56:31.88	112.87	28.59	-44.8	-45.8	17.0	0.00e+00	0	56	0	1340080128	52	4042
2026-01-04 22:56:32.88	113.17	28.53	-44.8	-45.8	17.0	0.00e+00	0	56	0	1343225856	52	4026
2026-01-04 22:56:33.87	113.47	28.46	-44.7	-45.7	17.1	0.00e+00	0	56	0	1346371584	52	3983
2026-01-04 22:56:34.86	113.77	28.39	-44.9	-45.9	17.0	0.00e+00	0	56	0	1349517312	52	4068
2026-01-04 22:56:35.85	114.07	28.32	-44.6	-45.5	17.3	0.00e+00	0	56	0	1352663040	52	3905
2026-01-04 22:56:36.85	114.36	28.25	-44.4	-45.3	17.6	0.00e+00	0	56	0	1355808768	51	4010
2026-01-04 22:56:37.84	114.66	28.18	-44.3	-45.2	17.7	0.00e+00	0	56	0	1358954496	51	3992
2026-01-04 22:56:38.83	114.95	28.11	-44.5	-45.4	17.5	0.00e+00	0	56	0	1362100224	51	4074
2026-01-04 22:56:39.81	115.24	28.04	-44.5	-45.4	17.5	0.00e+00	0	56	0	1365245952	51	4062
2026-01-04 22:56:40.80	115.53	27.97	-44.6	-45.5	17.4	0.00e+00	0	56	0	1368391680	51	4130
2026-01-04 22:56:41.79	115.82	27.90	-44.6	-45.5	17.4	0.00e+00	0	56	0	1371537408	51	4111
2026-01-04 22:56:42.79	116.11	27.82	-44.5	-45.4	17.5	0.00e+00	0	56	0	1374683136	51	4074
2026-01-04 22:56:43.78	116.40	27.75	-44.4	-45.3	17.6	0.00e+00	0	56	0	1377828864	51	4040
2026-01-04 22:56:44.77	116.69	27.68	-44.6	-45.5	17.4	0.00e+00	0	56	0	1380974592	51	4145
2026-01-04 22:56:45.76	116.97	27.60	-44.6	-45.5	17.4	0.00e+00	0	56	0	1384120320	51	4109
2026-01-04 22:56:46.75	117.25	27.53	-44.7	-45.6	17.3	0.00e+00	0	56	0	1387266048	51	4169
2026-01-04 22:56:47.74	117.54	27.45	-44.7	-45.7	17.2	0.00e+00	0	56	0	1390411776	51	4215
2026-01-04 22:56:48.73	117.82	27.38	-44.6	-45.5	17.4	0.00e+00	0	56	0	1393557504	51	4129
2026-01-04 22:56:49.72	118.10	27.30	-44.4	-45.3	17.6	0.00e+00	0	56	0	1396703232	51	4005
2026-01-04 22:56:50.71	118.37	27.22	-44.4	-45.3	17.6	0.00e+00	0	56	0	1399848960	51	4040
2026-01-04 22:56:51.70	118.65	27.14	-44.4	-45.3	17.6	0.00e+00	0	56	0	1401946112	51	4041
2026-01-04 22:56:52.69	118.93	27.07	-44.6	-45.5	17.4	0.00e+00	0	56	0	1405091840	51	4115
2026-01-04 22:56:53.67	119.20	26.99	-44.6	-45.5	17.4	0.00e+00	0	56	0	1408237568	51	4136
2026-01-04 22:56:54.66	119.47	26.91	-44.7	-45.6	17.3	0.00e+00	0	56	0	1411383296	51	4182
2026-01-04 22:56:55.64	119.74	26.83	-45.0	-46.0	16.9	0.00e+00	0	56	0	1414529024	51	4371
2026-01-04 22:56:56.63	120.01	26.75	-44.9	-45.9	16.9	0.00e+00	0	56	0	1417674752	52	4081
2026-01-04 22:56:57.62	120.28	26.67	-44.5	-45.4	17.4	0.00e+00	0	56	0	1420820480	52	3844
2026-01-04 22:56:58.61	120.54	26.59	-44.3	-45.2	17.7	0.00e+00	0	56	0	1423966208	51	3992
2026-01-04 22:56:59.59	120.81	26.51	-44.0	-44.9	18.0	0.00e+00	0	56	0	1427111936	51	3836
2026-01-04 22:57:00.58	121.07	26.43	-43.9	-44.7	18.1	0.00e+00	0	56	0	1430257664	50	3999
2026-01-04 22:57:01.56	121.33	26.35	-43.8	-44.6	18.3	0.00e+00	0	56	0	1433403392	50	3942
2026-01-04 22:57:02.55	121.60	26.26	-43.8	-44.6	18.3	0.00e+00	0	56	0	1436549120	50	3931
2026-01-04 22:57:03.54	121.86	26.18	-43.9	-44.8	18.1	0.00e+00	0	56	0	1439694848	50	4010
2026-01-04 22:57:04.54	122.12	26.10	-44.0	-44.8	18.0	0.00e+00	0	56	0	1442840576	50	4024
2026-01-04 22:57:05.52	122.37	26.02	-44.2	-45.0	17.8	0.00e+00	0	56	0	1445986304	50	4130
2026-01-04 22:57:06.50	122.63	25.93	-44.3	-45.2	17.7	0.00e+00	0	56	0	1449132032	50	4216
2026-01-04 22:57:07.49	122.88	25.85	-44.1	-45.0	17.9	0.00e+00	0	56	0	1452277760	50	4101
2026-01-04 22:57:08.48	123.14	25.76	-43.9	-44.8	18.1	0.00e+00	0	56	0	1455423488	50	4014
2026-01-04 22:57:09.47	123.39	25.68	-43.9	-44.7	18.1	0.00e+00	0	56	0	1458569216	50	3987
2026-01-04 22:57:10.45	123.64	25.60	-43.9	-44.7	18.1	0.00e+00	0	56	0	1460666368	50	3984
2026-01-04 22:57:11.44	123.89	25.51	-43.9	-44.8	18.1	0.00e+00	0	56	0	1463812096	50	4017
2026-01-04 22:57:12.44	124.14	25.42	-44.1	-45.0	17.9	0.00e+00	0	56	0	1466957824	50	4108
2026-01-04 22:57:13.42	124.39	25.34	-44.2	-45.1	17.8	0.00e+00	0	56	0	1470103552	50	4166
2026-01-04 22:57:14.41	124.63	25.25	-44.2	-45.1	17.8	0.00e+00	0	56	0	1473249280	50	4183
2026-01-04 22:57:15.41	124.88	25.17	-44.3	-45.1	17.7	0.00e+00	0	56	0	1476395008	50	4192
2026-01-04 22:57:16.40	125.12	25.08	-44.1	-44.9	18.0	0.00e+00	0	56	0	1479540736	50	4092
2026-01-04 22:57:17.39	125.37	24.99	-44.0	-44.9	18.0	0.00e+00	0	56	0	1482686464	50	4061
2026-01-04 22:57:18.39	125.61	24.90	-44.1	-45.0	17.9	0.00e+00	0	56	0	1485832192	50	4107
2026-01-04 22:57:19.37	125.85	24.82	-44.2	-45.1	17.8	0.00e+00	0	56	0	1488977920	50	4162
2026-01-04 22:57:20.36	126.09	24.73	-44.3	-45.1	17.8	0.00e+00	0	56	0	1492123648	50	4182
2026-01-04 22:57:21.35	126.32	24.64	-44.3	-45.2	17.7	0.00e+00	0	56	0	1495269376	50	4214
2026-01-04 22:57:22.34	126.56	24.55	-44.4	-45.3	17.6	0.00e+00	0	56	0	1498415104	50	4244
2026-01-04 22:57:23.32	126.79	24.47	-44.1	-44.9	18.0	0.00e+00	0	56	0	1501560832	50	4082
2026-01-04 22:57:24.31	127.03	24.38	-44.0	-44.8	18.0	0.00e+00	0	56	0	1504706560	50	4049
2026-01-04 22:57:25.31	127.26	24.29	-44.2	-45.1	17.8	0.00e+00	0	56	0	1507852288	50	4161
2026-01-04 22:57:26.29	127.49	24.20	-44.5	-45.4	17.5	0.00e+00	0	56	0	1510998016	50	4298
2026-01-04 22:57:27.27	127.72	24.11	-44.5	-45.4	17.5	0.00e+00	0	56	0	1514143744	50	4303
2026-01-04 22:57:28.26	127.94	24.02	-44.4	-45.3	17.6	0.00e+00	0	56	0	1516240896	50	4274
2026-01-04 22:57:29.24	128.17	23.94	-44.3	-45.2	17.6	0.00e+00	0	56	0	1519386624	50	4227
2026-01-04 22:57:30.21	128.39	23.85	-44.5	-45.4	17.5	0.00e+00	0	56	0	1522532352	50	4317
2026-01-04 22:57:31.20	128.61	23.76	-44.3	-45.2	17.6	0.00e+00	0	56	0	1525678080	50	4226
2026-01-04 22:57:32.19	128.84	23.67	-44.3	-45.2	17.7	0.00e+00	0	56	0	1528823808	50	4215
2026-01-04 22:57:33.18	129.06	23.58	-44.4	-45.3	17.5	0.00e+00	0	56	0	1531969536	50	4275
2026-01-04 22:57:34.17	129.28	23.49	-44.6	-45.6	17.3	0.00e+00	0	56	0	1535115264	51	4159
2026-01-04 22:57:35.16	129.50	23.40	-44.4	-45.3	17.6	0.00e+00	0	56	0	1538260992	51	4031
2026-01-04 22:57:36.15	129.72	23.31	-44.3	-45.1	17.7	0.00e+00	0	56	0	1541406720	51	3954
2026-01-04 22:57:37.14	129.94	23.22	-44.2	-45.1	17.8	0.00e+00	0	56	0	1544552448	51	3937
2026-01-04 22:57:38.12	130.15	23.13	-44.2	-45.1	17.7	0.00e+00	0	56	0	1547698176	51	3946
2026-01-04 22:57:39.11	130.36	23.04	-44.5	-45.4	17.5	0.00e+00	0	56	0	1550843904	51	4061
2026-01-04 22:57:40.11	130.58	22.95	-44.3	-45.3	17.6	0.00e+00	0	56	0	1553989632	51	4008
2026-01-04 22:57:41.10	130.79	22.86	-44.5	-45.4	17.5	0.00e+00	0	56	0	1557135360	51	4063
2026-01-04 22:57:42.09	131.00	22.77	-44.4	-45.2	17.6	0.00e+00	0	56	0	1560281088	51	4004
2026-01-04 22:57:43.08	131.21	22.67	-44.4	-45.3	17.5	0.00e+00	0	56	0	1563426816	51	4027
2026-01-04 22:57:44.07	131.42	22.58	-44.5	-45.4	17.5	0.00e+00	0	56	0	1566572544	51	4090
2026-01-04 22:57:45.05	131.63	22.49	-44.3	-45.2	17.6	0.00e+00	0	56	0	1568669696	51	3998
2026-01-04 22:57:46.04	131.83	22.40	-44.4	-45.3	17.5	0.00e+00	0	56	0	1571815424	51	4046
2026-01-04 22:57:47.02	132.04	22.31	-44.6	-45.6	17.3	0.00e+00	0	56	0	1574961152	51	4149
2026-01-04 22:57:48.01	132.24	22.22	-44.3	-45.2	17.6	0.00e+00	0	56	0	1578106880	51	3966
2026-01-04 22:57:49.00	132.45	22.13	-44.2	-45.0	17.8	0.00e+00	0	56	0	1581252608	51	3898
2026-01-04 22:57:49.99	132.65	22.04	-44.0	-44.9	17.9	0.00e+00	0	56	0	1584398336	51	3842
2026-01-04 22:57:50.98	132.85	21.95	-44.1	-45.0	17.9	0.00e+00	0	56	0	1587544064	51	3870
2026-01-04 22:57:51.97	133.05	21.86	-44.2	-45.0	17.8	0.00e+00	0	56	0	1590689792	51	3904
2026-01-04 22:57:52.95	133.24	21.77	-44.2	-45.0	17.8	0.00e+00	0	56	0	1593835520	51	3903
2026-01-04 22:57:53.94	133.44	21.68	-44.3	-45.2	17.6	0.00e+00	0	56	0	1596981248	51	3981
2026-01-04 22:57:54.93	133.64	21.58	-44.3	-45.1	17.7	0.00e+00	0	56	0	1600126976	51	3947
2026-01-04 22:57:55.92	133.83	21.49	-44.2	-45.1	17.8	0.00e+00	0	56	0	1603272704	51	3922
2026-01-04 22:57:56.91	134.03	21.40	-44.2	-45.1	17.7	0.00e+00	0	56	0	1606418432	51	3939
2026-01-04 22:57:57.90	134.22	21.31	-44.4	-45.3	17.5	0.00e+00	0	56	0	1609564160	51	4047
2026-01-04 22:57:58.89	134.41	21.22	-44.4	-45.3	17.5	0.00e+00	0	56	0	1612709888	51	4022
2026-01-04 22:57:59.87	134.60	21.13	-44.4	-45.3	17.5	0.00e+00	0	56	0	1615855616	51	4045
2026-01-04 22:58:00.86	134.79	21.04	-44.7	-45.6	17.2	0.00e+00	0	56	0	1619001344	51	4190
2026-01-04 22:58:01.84	134.97	20.95	-44.5	-45.4	17.4	0.00e+00	0	56	0	1622147072	51	4086
2026-01-04 22:58:02.83	135.16	20.86	-44.4	-45.4	17.5	0.00e+00	0	56	0	1624244224	51	4056
2026-01-04 22:58:03.82	135.35	20.77	-44.5	-45.5	17.4	0.00e+00	0	56	0	1627389952	51	4103
2026-01-04 22:58:04.81	135.53	20.68	-44.8	-45.8	17.1	0.00e+00	0	56	0	1630535680	51	4263
2026-01-04 22:58:05.81	135.72	20.58	-44.8	-45.7	17.1	0.00e+00	0	56	0	1633681408	51	4226
2026-01-04 22:58:06.79	135.90	20.49	-44.6	-45.5	17.3	0.00e+00	0	56	0	1636827136	51	4142
2026-01-04 22:58:07.78	136.08	20.40	-44.5	-45.4	17.4	0.00e+00	0	56	0	1639972864	51	4097
2026-01-04 22:58:08.77	136.26	20.31	-44.5	-45.4	17.4	0.00e+00	0	56	0	1643118592	51	4085
2026-01-04 22:58:09.76	136.44	20.22	-44.5	-45.4	17.4	0.00e+00	0	56	0	1646264320	51	4073
2026-01-04 22:58:10.76	136.62	20.13	-44.7	-45.7	17.2	0.00e+00	0	56	0	1649410048	51	4194
2026-01-04 22:58:11.74	136.80	20.04	-44.6	-45.6	17.2	0.00e+00	0	56	0	1652555776	51	4154
2026-01-04 22:58:12.74	136.98	19.95	-44.4	-45.3	17.5	0.00e+00	0	56	0	1655701504	51	4038
2026-01-04 22:58:13.73	137.16	19.86	-44.4	-45.3	17.5	0.00e+00	0	56	0	1658847232	51	4018
2026-01-04 22:58:14.72	137.33	19.77	-44.4	-45.3	17.5	0.00e+00	0	56	0	1661992960	51	4014
2026-01-04 22:58:15.71	137.50	19.68	-44.5	-45.4	17.4	0.00e+00	0	56	0	1665138688	51	4071
2026-01-04 22:58:16.69	137.68	19.59	-44.3	-45.2	17.6	0.00e+00	0	56	0	1668284416	51	3981
2026-01-04 22:58:17.69	137.85	19.50	-44.3	-45.2	17.6	0.00e+00	0	56	0	1671430144	51	3985
2026-01-04 22:58:18.68	138.02	19.40	-44.4	-45.4	17.4	0.00e+00	0	56	0	1674575872	51	4054
2026-01-04 22:58:19.67	138.19	19.31	-44.7	-45.7	17.2	0.00e+00	0	56	0	1677721600	51	4201
2026-01-04 22:58:20.66	138.36	19.22	-44.5	-45.4	17.4	0.00e+00	0	56	0	1680867328	51	4086
2026-01-04 22:58:21.65	138.53	19.13	-44.3	-45.2	17.6	0.00e+00	0	56	0	1684013056	51	3959
2026-01-04 22:58:22.64	138.69	19.04	-44.1	-45.0	17.8	0.00e+00	0	56	0	1687158784	51	3881
2026-01-04 22:58:23.63	138.86	18.95	-44.2	-45.1	17.7	0.00e+00	0	56	0	1689255936	51	3922
2026-01-04 22:58:24.62	139.03	18.87	-44.3	-45.3	17.5	0.00e+00	0	56	0	1692401664	51	4007
2026-01-04 22:58:25.61	139.19	18.78	-44.3	-45.1	17.7	0.00e+00	0	56	0	1695547392	51	3948
2026-01-04 22:58:26.60	139.35	18.69	-44.2	-45.0	17.8	0.00e+00	0	56	0	1698693120	51	3904
2026-01-04 22:58:27.59	139.51	18.60	-44.2	-45.1	17.7	0.00e+00	0	56	0	1701838848	51	3915
2026-01-04 22:58:28.57	139.67	18.51	-44.3	-45.1	17.6	0.00e+00	0	56	0	1704984576	51	3957
2026-01-04 22:58:29.55	139.83	18.42	-44.3	-45.2	17.6	0.00e+00	0	56	0	1708130304	51	3967
2026-01-04 22:58:30.53	139.99	18.33	-44.3	-45.2	17.6	0.00e+00	0	56	0	1711276032	51	3968
2026-01-04 22:58:31.52	140.15	18.24	-44.4	-45.3	17.5	0.00e+00	0	56	0	1714421760	51	4011
2026-01-04 22:58:32.51	140.31	18.15	-44.4	-45.3	17.4	0.00e+00	0	56	0	1717567488	51	4031
2026-01-04 22:58:33.50	140.47	18.07	-44.4	-45.4	17.4	0.00e+00	0	56	0	1720713216	51	4054
2026-01-04 22:58:34.49	140.62	17.98	-44.2	-45.1	17.7	0.00e+00	0	56	0	1723858944	51	3932
2026-01-04 22:58:35.48	140.78	17.89	-44.2	-45.0	17.7	0.00e+00	0	56	0	1727004672	51	3905
2026-01-04 22:58:36.48	140.93	17.80	-44.2	-45.1	17.7	0.00e+00	0	56	0	1730150400	51	3924
2026-01-04 22:58:37.47	141.09	17.71	-44.3	-45.2	17.5	0.00e+00	0	56	0	1733296128	51	4000
2026-01-04 22:58:38.46	141.24	17.62	-44.3	-45.2	17.6	0.00e+00	0	56	0	1736441856	51	3985
2026-01-04 22:58:39.46	141.39	17.53	-44.2	-45.2	17.6	0.00e+00	0	56	0	1739587584	51	3961
2026-01-04 22:58:40.45	141.54	17.45	-44.5	-45.5	17.3	0.00e+00	0	56	0	1742733312	51	4116
2026-01-04 22:58:41.44	141.69	17.36	-44.6	-45.6	17.2	0.00e+00	0	56	0	1745879040	51	4166
2026-01-04 22:58:42.42	141.84	17.27	-44.6	-45.5	17.3	0.00e+00	0	56	0	1749024768	51	4134
2026-01-04 22:58:43.40	141.99	17.18	-44.7	-45.7	17.1	0.00e+00	0	56	0	1751121920	51	4217
2026-01-04 22:58:44.39	142.13	17.10	-44.9	-45.9	16.9	0.00e+00	0	56	0	1754267648	51	4303
2026-01-04 22:58:45.38	142.28	17.01	-45.0	-46.0	16.8	0.00e+00	0	56	0	1757413376	51	4347
2026-01-04 22:58:46.36	142.43	16.92	-45.1	-46.1	16.7	0.00e+00	0	56	0	1760559104	51	4417
2026-01-04 22:58:47.35	142.57	16.84	-45.1	-46.2	16.5	0.00e+00	0	56	0	1763704832	52	4222
2026-01-04 22:58:48.34	142.71	16.75	-45.2	-46.3	16.4	0.00e+00	0	56	0	1766850560	52	4276
2026-01-04 22:58:49.32	142.86	16.66	-45.2	-46.3	16.4	0.00e+00	0	56	0	1769996288	52	4258
2026-01-04 22:58:50.31	143.00	16.58	-45.3	-46.4	16.3	0.00e+00	0	56	0	1773142016	52	4307
2026-01-04 22:58:51.30	143.14	16.49	-45.1	-46.1	16.6	0.00e+00	0	56	0	1776287744	52	4180
2026-01-04 22:58:52.28	143.28	16.41	-44.9	-46.0	16.7	0.00e+00	0	56	0	1779433472	52	4100
2026-01-04 22:58:53.27	143.42	16.32	-45.0	-46.0	16.7	0.00e+00	0	56	0	1782579200	52	4138
2026-01-04 22:58:54.27	143.56	16.23	-45.1	-46.2	16.5	0.00e+00	0	57	0	1785724928	52	4209
2026-01-04 22:58:55.25	143.70	16.15	-45.3	-46.3	16.4	0.00e+00	0	56	0	1788870656	52	4287
2026-01-04 22:58:56.24	143.84	16.06	-45.1	-46.2	16.5	0.00e+00	0	56	0	1792016384	52	4226
2026-01-04 22:58:57.24	143.98	15.98	-45.2	-46.3	16.4	0.00e+00	0	56	0	1795162112	52	4278
2026-01-04 22:58:58.23	144.11	15.89	-45.0	-46.1	16.6	0.00e+00	0	56	0	1798307840	52	4176
2026-01-04 22:58:59.22	144.25	15.80	-45.1	-46.2	16.5	0.00e+00	0	56	0	1801453568	52	4197
2026-01-04 22:59:00.21	144.38	15.72	-45.1	-46.2	16.5	0.00e+00	0	56	0	1803550720	52	4228
2026-01-04 22:59:01.21	144.52	15.63	-45.2	-46.3	16.4	0.00e+00	0	56	0	1806696448	52	4285
2026-01-04 22:59:02.20	144.65	15.55	-45.1	-46.2	16.5	0.00e+00	0	56	0	1809842176	52	4214
2026-01-04 22:59:03.19	144.79	15.46	-45.1	-46.1	16.5	0.00e+00	0	56	0	1812987904	52	4182
2026-01-04 22:59:04.17	144.92	15.38	-45.0	-46.1	16.6	0.00e+00	0	56	0	1816133632	52	4162
2026-01-04 22:59:05.16	145.05	15.30	-45.0	-46.1	16.6	0.00e+00	0	56	0	1819279360	52	4165
2026-01-04 22:59:06.15	145.18	15.21	-45.1	-46.2	16.5	0.00e+00	0	56	0	1822425088	52	4194
2026-01-04 22:59:07.13	145.31	15.13	-45.3	-46.4	16.2	0.00e+00	0	56	0	1825570816	52	4336
2026-01-04 22:59:08.12	145.44	15.04	-45.2	-46.3	16.3	0.00e+00	0	56	0	1828716544	52	4275
2026-01-04 22:59:09.11	145.57	14.96	-45.1	-46.2	16.5	0.00e+00	0	56	0	1831862272	52	4222
2026-01-04 22:59:10.11	145.69	14.88	-45.2	-46.3	16.3	0.00e+00	0	56	0	1835008000	52	4280
2026-01-04 22:59:11.10	145.82	14.79	-45.3	-46.5	16.2	0.00e+00	0	56	0	1838153728	52	4351
2026-01-04 22:59:12.09	145.95	14.71	-45.4	-46.6	16.1	0.00e+00	0	56	0	1841299456	52	4411
2026-01-04 22:59:13.08	146.07	14.63	-45.5	-46.7	16.0	0.00e+00	0	56	0	1844445184	52	4454
2026-01-04 22:59:14.07	146.20	14.54	-45.4	-46.6	16.1	0.00e+00	0	56	0	1847590912	52	4405
2026-01-04 22:59:15.06	146.32	14.46	-45.5	-46.7	16.0	0.00e+00	0	56	0	1850736640	52	4461
2026-01-04 22:59:16.05	146.45	14.38	-45.4	-46.6	16.1	0.00e+00	0	56	0	1853882368	52	4407
2026-01-04 22:59:17.05	146.57	14.30	-45.6	-46.8	15.8	0.00e+00	0	56	0	1857028096	53	4282
2026-01-04 22:59:18.04	146.69	14.21	-45.4	-46.5	16.1	0.00e+00	0	57	0	1860173824	53	4137
2026-01-04 22:59:19.03	146.82	14.13	-45.2	-46.3	16.3	0.00e+00	0	56	0	1863319552	53	4030
2026-01-04 22:59:20.02	146.94	14.05	-45.1	-46.2	16.4	0.00e+00	0	56	0	1866465280	53	3980
2026-01-04 22:59:21.01	147.06	13.97	-45.1	-46.2	16.4	0.00e+00	0	56	0	1868562432	53	3989
2026-01-04 22:59:21.99	147.18	13.89	-45.3	-46.4	16.2	0.00e+00	0	56	0	1871708160	53	4079
2026-01-04 22:59:22.98	147.30	13.80	-45.4	-46.6	16.0	0.00e+00	0	56	0	1874853888	53	4160
2026-01-04 22:59:23.97	147.41	13.72	-45.6	-46.8	15.8	0.00e+00	0	56	0	1877999616	53	4255
2026-01-04 22:59:24.96	147.53	13.64	-45.5	-46.7	16.0	0.00e+00	0	56	0	1881145344	53	4205
2026-01-04 22:59:25.95	147.65	13.56	-45.6	-46.8	15.8	0.00e+00	0	56	0	1884291072	53	4277
2026-01-04 22:59:26.94	147.77	13.48	-45.9	-47.1	15.5	0.00e+00	0	56	0	1887436800	53	4422
2026-01-04 22:59:27.93	147.88	13.40	-45.7	-46.9	15.7	0.00e+00	0	56	0	1890582528	53	4337
2026-01-04 22:59:28.91	148.00	13.32	-45.9	-47.2	15.5	0.00e+00	0	56	0	1893728256	53	4446
2026-01-04 22:59:29.89	148.11	13.24	-46.2	-47.5	15.1	0.00e+00	0	56	0	1896873984	54	4371
2026-01-04 22:59:30.88	148.23	13.16	-46.0	-47.3	15.3	0.00e+00	0	56	0	1900019712	54	4282
2026-01-04 22:59:31.87	148.34	13.08	-45.8	-47.1	15.5	0.00e+00	0	56	0	1903165440	54	4181
2026-01-04 22:59:32.86	148.45	13.00	-45.7	-46.9	15.7	0.00e+00	0	56	0	1906311168	54	4087
2026-01-04 22:59:33.85	148.57	12.92	-45.7	-46.9	15.7	0.00e+00	0	56	0	1909456896	54	4061
2026-01-04 22:59:34.83	148.68	12.84	-45.6	-46.7	15.8	0.00e+00	0	56	0	1912602624	54	4002
2026-01-04 22:59:35.82	148.79	12.76	-45.3	-46.5	16.1	0.00e+00	0	56	0	1915748352	53	4108
2026-01-04 22:59:36.82	148.90	12.68	-45.2	-46.3	16.3	0.00e+00	0	56	0	1918894080	53	4040
2026-01-04 22:59:37.79	149.01	12.60	-45.2	-46.4	16.2	0.00e+00	0	56	0	1920991232	53	4060
2026-01-04 22:59:38.78	149.12	12.53	-45.3	-46.4	16.2	0.00e+00	0	56	0	1924136960	53	4077
2026-01-04 22:59:39.77	149.23	12.45	-45.3	-46.5	16.1	0.00e+00	0	56	0	1927282688	53	4114
2026-01-04 22:59:40.76	149.34	12.37	-45.5	-46.7	15.9	0.00e+00	0	56	0	1930428416	53	4196
2026-01-04 22:59:41.75	149.44	12.29	-45.6	-46.8	15.8	0.00e+00	0	56	0	1933574144	53	4250
2026-01-04 22:59:42.74	149.55	12.21	-45.5	-46.7	15.8	0.00e+00	0	56	0	1936719872	53	4230
2026-01-04 22:59:43.72	149.66	12.13	-45.6	-46.8	15.8	0.00e+00	0	56	0	1939865600	53	4255
2026-01-04 22:59:44.71	149.76	12.06	-45.7	-46.9	15.6	0.00e+00	0	56	0	1943011328	53	4335
2026-01-04 22:59:45.70	149.87	11.98	-45.7	-46.9	15.7	0.00e+00	0	56	0	1946157056	53	4326
2026-01-04 22:59:46.69	149.98	11.90	-45.8	-47.0	15.5	0.00e+00	0	56	0	1949302784	53	4383
2026-01-04 22:59:47.68	150.08	11.82	-46.0	-47.3	15.2	0.00e+00	0	56	0	1952448512	53	4533
2026-01-04 22:59:48.67	150.18	11.75	-45.9	-47.2	15.3	0.00e+00	0	56	0	1955594240	54	4235
2026-01-04 22:59:49.66	150.29	11.67	-45.8	-47.0	15.5	0.00e+00	0	56	0	1958739968	54	4141
2026-01-04 22:59:50.66	150.39	11.59	-45.7	-47.0	15.6	0.00e+00	0	56	0	1961885696	54	4100
2026-01-04 22:59:51.65	150.50	11.51	-45.8	-47.1	15.5	0.00e+00	0	56	0	1965031424	54	4155
2026-01-04 22:59:52.65	150.60	11.44	-45.8	-47.1	15.5	0.00e+00	0	56	0	1968177152	54	4153
2026-01-04 22:59:53.64	150.70	11.36	-46.1	-47.4	15.2	0.00e+00	0	56	0	1971322880	54	4305
2026-01-04 22:59:54.63	150.80	11.28	-46.0	-47.3	15.2	0.00e+00	0	56	0	1974468608	54	4290
2026-01-04 22:59:55.62	150.90	11.21	-45.8	-47.1	15.4	0.00e+00	0	56	0	1977614336	54	4178
2026-01-04 22:59:56.61	151.00	11.13	-45.8	-47.0	15.5	0.00e+00	0	56	0	1979711488	54	4137
2026-01-04 22:59:57.59	151.10	11.06	-45.8	-47.1	15.5	0.00e+00	0	56	0	1982857216	54	4163
2026-01-04 22:59:58.58	151.20	10.98	-45.9	-47.1	15.4	0.00e+00	0	56	0	1986002944	54	4193
2026-01-04 22:59:59.58	151.30	10.90	-46.0	-47.3	15.2	0.00e+00	0	56	0	1989148672	54	4287
2026-01-04 23:00:00.57	151.40	10.83	-46.1	-47.4	15.1	0.00e+00	0	56	0	1992294400	54	4317
2026-01-04 23:00:01.56	151.50	10.75	-46.0	-47.3	15.2	0.00e+00	0	56	0	1995440128	54	4258
2026-01-04 23:00:02.55	151.59	10.68	-46.0	-47.3	15.2	0.00e+00	0	56	0	1998585856	54	4274
2026-01-04 23:00:03.54	151.69	10.60	-46.0	-47.4	15.2	0.00e+00	0	56	0	2001731584	54	4294
2026-01-04 23:00:04.53	151.79	10.53	-46.1	-47.4	15.1	0.00e+00	0	56	0	2004877312	54	4308
2026-01-04 23:00:05.52	151.88	10.45	-45.9	-47.2	15.3	0.00e+00	0	56	0	2008023040	54	4231
2026-01-04 23:00:06.52	151.98	10.38	-45.9	-47.2	15.2	0.00e+00	0	56	0	2011168768	54	4234
2026-01-04 23:00:07.51	152.07	10.31	-46.1	-47.4	15.1	0.00e+00	0	56	0	2014314496	54	4326
2026-01-04 23:00:08.51	152.17	10.23	-46.0	-47.4	15.1	7.00e-07	0	56	0	2017460224	54	4332
2026-01-04 23:00:09.49	152.26	10.16	-45.8	-47.1	15.4	0.00e+00	0	56	0	2020605952	54	4161
2026-01-04 23:00:10.48	152.36	10.08	-45.6	-46.8	15.6	0.00e+00	0	56	0	2023751680	54	4040
2026-01-04 23:00:11.47	152.45	10.01	-45.5	-46.7	15.7	0.00e+00	0	56	0	2026897408	54	3989
