passes_logs/2026/01/04/R3.0SM8_Murmansk_STILSPACE/R3.0SM8_Murmansk_STILSPACE__20260104_071809_FENGYUN_3D_rec.log

#Pass ID: 20260104_071809_FENGYUN 3D
#Satellite: FENGYUN 3D
#Configuration: FENGYUN 3D
#almurnet v.1.7.20240730
#Start time: 2026-01-04 07:18:10

#Version: 2.2.20231116
#Station: R3.0SM8_Murmansk_STILSPACE
#Location: 33.092731 lon 68.902999 lat
#TLE: 1 43010U 17072A   26003.51579816  .00000092  00000+0  65324-4 0  9992
#TLE: 2 43010  98.9912 335.1548 0001916 128.4619 231.6729 14.19692074421623

#Time	Az	El	Level	Level2	SNR	BER	BlckErr	Temp	State	Recorded	gain1	gain2
2026-01-04 07:18:10.94	62.99	3.07	-52.5	-63.2	3.8	8.46e-01	0	46	0	0	67	12635
2026-01-04 07:18:11.92	62.93	3.13	-52.4	-63.0	3.8	8.46e-01	0	46	104	0	67	12362
2026-01-04 07:18:12.92	62.86	3.19	-48.8	-62.7	3.8	8.45e-01	0	46	104	0	60	17792
2026-01-04 07:18:13.91	62.79	3.25	-52.0	-62.9	3.8	8.46e-01	0	46	104	0	65	13650
2026-01-04 07:18:14.90	62.72	3.30	-52.0	-62.8	3.8	8.46e-01	0	46	104	0	66	12707
2026-01-04 07:18:15.88	62.66	3.36	-51.7	-62.6	3.8	8.46e-01	0	46	104	0	66	12444
2026-01-04 07:18:16.87	62.59	3.42	-51.6	-62.3	3.8	8.47e-01	0	46	104	0	66	12087
2026-01-04 07:18:17.86	62.52	3.48	-51.6	-62.3	3.8	8.46e-01	0	46	104	0	66	12071
2026-01-04 07:18:18.84	62.45	3.54	-51.5	-62.3	3.8	8.46e-01	0	46	104	0	66	11984
2026-01-04 07:18:19.83	62.38	3.60	-51.5	-62.2	3.8	8.46e-01	0	46	104	0	66	11903
2026-01-04 07:18:20.82	62.31	3.65	-51.6	-62.2	3.8	8.45e-01	0	46	104	0	66	11913
2026-01-04 07:18:21.80	62.24	3.71	-51.6	-62.2	3.8	8.45e-01	0	46	104	0	66	11819
2026-01-04 07:18:22.79	62.17	3.77	-51.5	-62.2	3.8	8.46e-01	0	47	104	0	66	11885
2026-01-04 07:18:23.77	62.11	3.83	-51.5	-62.2	3.8	8.46e-01	0	46	104	0	66	11855
2026-01-04 07:18:24.76	62.03	3.89	-51.6	-62.2	3.8	8.47e-01	0	47	104	0	65	12582
2026-01-04 07:18:25.75	61.96	3.95	-51.5	-62.2	3.8	8.46e-01	0	47	104	0	65	12569
2026-01-04 07:18:26.74	61.89	4.01	-51.6	-62.2	3.8	8.46e-01	0	47	104	0	65	12645
2026-01-04 07:18:27.73	61.82	4.07	-51.6	-62.3	3.8	8.47e-01	0	47	104	0	65	12678
2026-01-04 07:18:28.73	61.75	4.13	-51.6	-62.3	3.8	8.45e-01	0	47	104	0	65	12687
2026-01-04 07:18:29.72	61.68	4.19	-51.6	-62.3	3.8	8.45e-01	0	47	104	0	65	12737
2026-01-04 07:18:30.71	61.60	4.24	-51.6	-62.3	3.8	8.45e-01	0	47	104	0	65	12724
2026-01-04 07:18:31.70	61.53	4.30	-51.6	-62.2	3.8	8.45e-01	0	47	104	0	65	12642
2026-01-04 07:18:32.69	61.46	4.36	-51.6	-62.0	3.8	8.46e-01	0	47	104	0	65	12357
2026-01-04 07:18:33.68	61.38	4.42	-51.5	-61.5	3.8	8.46e-01	0	47	104	0	65	11616
2026-01-04 07:18:34.66	61.31	4.48	-51.4	-60.7	3.8	8.46e-01	0	47	104	0	65	10564
2026-01-04 07:18:35.64	61.24	4.54	-51.3	-59.5	4.0	8.43e-01	0	47	104	0	65	9237
2026-01-04 07:18:36.63	61.16	4.60	-51.1	-58.6	4.3	8.38e-01	0	47	0	0	65	8338
2026-01-04 07:18:37.62	61.09	4.66	-50.9	-57.7	4.6	8.23e-01	0	47	0	0	64	7939
2026-01-04 07:18:38.61	61.01	4.72	-50.6	-56.8	5.0	7.81e-01	0	48	0	0	64	7135
2026-01-04 07:18:39.60	60.94	4.78	-50.4	-55.5	6.0	6.20e-01	0	48	0	1048576	63	6507
2026-01-04 07:18:40.59	60.86	4.84	-50.1	-54.7	6.6	2.64e-01	0	48	0	6291456	63	5941
2026-01-04 07:18:41.57	60.79	4.90	-49.7	-53.8	7.4	1.50e-01	0	48	0	12582912	62	5657
2026-01-04 07:18:42.57	60.71	4.96	-49.4	-53.1	8.1	9.34e-02	0	48	0	17825792	62	5253
2026-01-04 07:18:43.56	60.63	5.03	-49.1	-52.5	8.7	4.46e-02	0	48	0	24117248	61	5171
2026-01-04 07:18:44.55	60.56	5.09	-48.9	-52.1	9.0	3.73e-02	0	48	0	29360128	61	4978
2026-01-04 07:18:45.54	60.48	5.15	-49.0	-52.2	9.0	2.97e-02	0	48	0	34603008	60	5307
2026-01-04 07:18:46.53	60.40	5.21	-49.2	-52.6	8.6	4.21e-02	0	48	0	39845888	60	5540
2026-01-04 07:18:47.52	60.33	5.27	-48.9	-51.9	9.3	2.74e-02	0	48	0	46137344	60	5140
2026-01-04 07:18:48.51	60.25	5.33	-48.7	-51.7	9.6	1.78e-02	0	48	0	51380224	60	4989
2026-01-04 07:18:49.50	60.17	5.39	-48.8	-51.7	9.5	1.71e-02	0	48	0	56623104	60	5023
2026-01-04 07:18:50.48	60.09	5.45	-48.7	-51.6	9.6	1.56e-02	0	48	0	62914560	60	4972
2026-01-04 07:18:51.48	60.01	5.51	-49.0	-52.0	9.2	1.80e-02	0	48	0	68157440	60	5193
2026-01-04 07:18:52.47	59.93	5.58	-49.0	-52.0	9.2	3.99e-02	0	49	0	73400320	60	5218
2026-01-04 07:18:53.46	59.85	5.64	-48.5	-51.1	10.2	1.05e-02	0	48	0	79691776	60	4693
2026-01-04 07:18:54.45	59.77	5.70	-48.0	-50.3	11.1	5.04e-03	0	49	0	84934656	59	4509
2026-01-04 07:18:55.43	59.69	5.76	-47.5	-49.5	11.9	6.90e-04	0	49	0	90177536	58	4377
2026-01-04 07:18:56.42	59.61	5.82	-47.2	-49.1	12.4	3.36e-04	0	49	0	95420416	57	4395
2026-01-04 07:18:57.41	59.53	5.88	-46.8	-48.5	12.9	1.36e-04	0	49	0	101711872	56	4372
2026-01-04 07:18:58.41	59.44	5.95	-46.6	-48.3	13.1	3.66e-05	0	49	0	106954752	56	4259
2026-01-04 07:18:59.40	59.36	6.01	-46.1	-47.6	13.7	2.17e-05	0	49	0	113246208	55	4163
2026-01-04 07:19:00.39	59.28	6.07	-45.7	-47.2	14.2	4.50e-06	0	49	0	118489088	54	4199
2026-01-04 07:19:01.38	59.20	6.13	-45.4	-46.7	14.7	0.00e+00	0	49	0	123731968	53	4215
2026-01-04 07:19:02.37	59.11	6.19	-45.2	-46.5	14.8	2.20e-06	0	49	0	128974848	53	4116
2026-01-04 07:19:03.36	59.03	6.26	-45.0	-46.3	15.1	1.10e-06	0	49	0	135266304	53	4018
2026-01-04 07:19:04.35	58.95	6.32	-45.0	-46.2	15.1	0.00e+00	0	49	0	140509184	53	3991
2026-01-04 07:19:05.34	58.86	6.38	-45.0	-46.2	15.1	0.00e+00	0	49	0	145752064	52	4209
2026-01-04 07:19:06.33	58.78	6.44	-45.0	-46.2	15.1	0.00e+00	0	49	0	152043520	52	4224
2026-01-04 07:19:07.31	58.69	6.51	-45.0	-46.3	15.1	0.00e+00	0	49	0	157286400	52	4263
2026-01-04 07:19:08.30	58.61	6.57	-45.1	-46.4	15.0	0.00e+00	0	49	0	162529280	52	4299
2026-01-04 07:19:09.28	58.52	6.63	-44.9	-46.1	15.3	0.00e+00	0	49	0	167772160	52	4183
2026-01-04 07:19:10.27	58.44	6.70	-45.0	-46.2	15.1	0.00e+00	0	49	0	174063616	52	4237
2026-01-04 07:19:11.26	58.35	6.76	-45.0	-46.3	15.1	0.00e+00	0	49	0	179306496	52	4246
2026-01-04 07:19:12.25	58.26	6.82	-44.9	-46.1	15.3	0.00e+00	0	49	0	184549376	52	4161
2026-01-04 07:19:13.23	58.18	6.88	-44.9	-46.1	15.3	0.00e+00	0	50	0	190840832	52	4176
2026-01-04 07:19:14.22	58.09	6.95	-45.0	-46.2	15.2	0.00e+00	0	50	0	196083712	52	4232
2026-01-04 07:19:15.21	58.00	7.01	-45.1	-46.4	15.0	0.00e+00	0	50	0	201326592	52	4317
2026-01-04 07:19:16.21	57.91	7.08	-45.1	-46.3	15.1	0.00e+00	0	50	0	207618048	52	4278
2026-01-04 07:19:17.20	57.82	7.14	-45.2	-46.4	15.0	0.00e+00	0	50	0	212860928	52	4340
2026-01-04 07:19:18.18	57.73	7.20	-45.2	-46.4	15.1	1.10e-06	0	50	0	218103808	52	4330
2026-01-04 07:19:19.17	57.64	7.27	-45.0	-46.2	15.2	0.00e+00	0	50	0	224395264	52	4234
2026-01-04 07:19:20.16	57.55	7.33	-45.0	-46.2	15.2	0.00e+00	0	50	0	229638144	52	4229
2026-01-04 07:19:21.15	57.46	7.39	-45.0	-46.2	15.3	0.00e+00	0	50	0	234881024	52	4197
2026-01-04 07:19:22.14	57.37	7.46	-45.1	-46.3	15.2	0.00e+00	0	50	0	240123904	52	4245
2026-01-04 07:19:23.14	57.28	7.52	-44.9	-46.1	15.4	0.00e+00	0	50	0	246415360	52	4166
2026-01-04 07:19:24.13	57.19	7.59	-44.8	-46.0	15.5	0.00e+00	0	50	0	251658240	52	4120
2026-01-04 07:19:25.12	57.09	7.65	-44.9	-46.1	15.4	0.00e+00	0	50	0	256901120	52	4168
2026-01-04 07:19:26.10	57.00	7.72	-45.0	-46.2	15.3	0.00e+00	0	50	0	263192576	52	4231
2026-01-04 07:19:27.09	56.91	7.78	-44.7	-45.9	15.6	0.00e+00	0	50	0	268435456	52	4072
2026-01-04 07:19:28.08	56.82	7.85	-44.8	-46.0	15.6	0.00e+00	0	50	0	273678336	52	4108
2026-01-04 07:19:29.06	56.72	7.91	-45.0	-46.2	15.4	0.00e+00	0	50	0	279969792	52	4200
2026-01-04 07:19:30.04	56.63	7.97	-44.8	-45.9	15.6	0.00e+00	0	50	0	285212672	52	4092
2026-01-04 07:19:31.03	56.53	8.04	-44.6	-45.7	15.8	0.00e+00	0	50	0	290455552	52	4004
2026-01-04 07:19:32.02	56.44	8.10	-44.4	-45.5	16.0	0.00e+00	0	50	0	295698432	52	3895
2026-01-04 07:19:33.01	56.34	8.17	-44.5	-45.6	15.9	0.00e+00	0	51	0	301989888	52	3949
2026-01-04 07:19:34.00	56.25	8.24	-44.4	-45.5	16.0	0.00e+00	0	50	0	307232768	52	3897
2026-01-04 07:19:34.99	56.15	8.30	-44.4	-45.5	16.2	0.00e+00	0	51	0	312475648	51	4104
2026-01-04 07:19:35.99	56.05	8.37	-44.5	-45.5	16.1	0.00e+00	0	51	0	318767104	51	4129
2026-01-04 07:19:36.98	55.95	8.43	-44.5	-45.6	16.0	0.00e+00	0	51	0	324009984	51	4182
2026-01-04 07:19:37.97	55.86	8.50	-44.8	-45.9	15.8	0.00e+00	0	51	0	329252864	51	4330
2026-01-04 07:19:38.96	55.76	8.56	-44.6	-45.6	16.0	0.00e+00	0	51	0	335544320	51	4191
2026-01-04 07:19:39.96	55.66	8.63	-44.4	-45.5	16.2	0.00e+00	0	51	0	340787200	51	4122
2026-01-04 07:19:40.95	55.56	8.70	-44.4	-45.4	16.3	0.00e+00	0	51	0	346030080	51	4098
2026-01-04 07:19:41.94	55.46	8.76	-44.4	-45.5	16.2	0.00e+00	0	51	0	352321536	51	4127
2026-01-04 07:19:42.93	55.36	8.83	-44.6	-45.6	16.1	0.00e+00	0	51	0	357564416	51	4191
2026-01-04 07:19:43.91	55.26	8.89	-44.6	-45.7	16.0	0.00e+00	0	51	0	362807296	51	4239
2026-01-04 07:19:44.89	55.16	8.96	-44.6	-45.7	16.0	0.00e+00	0	51	0	368050176	51	4223
2026-01-04 07:19:45.89	55.05	9.03	-44.7	-45.7	16.0	0.00e+00	0	51	0	374341632	51	4238
2026-01-04 07:19:46.88	54.95	9.09	-44.8	-45.9	15.9	0.00e+00	0	51	0	379584512	51	4315
2026-01-04 07:19:47.87	54.85	9.16	-44.7	-45.8	16.0	0.00e+00	0	51	0	384827392	51	4243
2026-01-04 07:19:48.87	54.75	9.23	-44.8	-45.9	15.9	0.00e+00	0	51	0	391118848	51	4296
2026-01-04 07:19:49.86	54.64	9.29	-44.6	-45.7	16.1	0.00e+00	0	51	0	396361728	51	4202
2026-01-04 07:19:50.84	54.54	9.36	-44.5	-45.6	16.2	0.00e+00	0	51	0	402653184	51	4154
2026-01-04 07:19:51.83	54.43	9.43	-44.5	-45.6	16.2	0.00e+00	0	51	0	407896064	51	4174
2026-01-04 07:19:52.83	54.33	9.49	-44.5	-45.6	16.2	0.00e+00	0	51	0	413138944	51	4157
2026-01-04 07:19:53.82	54.22	9.56	-44.5	-45.6	16.2	0.00e+00	0	51	0	418381824	51	4175
2026-01-04 07:19:54.81	54.12	9.63	-44.7	-45.8	16.0	0.00e+00	0	51	0	424673280	51	4260
2026-01-04 07:19:55.79	54.01	9.69	-44.7	-45.7	16.1	0.00e+00	0	51	0	429916160	51	4236
2026-01-04 07:19:56.78	53.90	9.76	-44.8	-45.9	16.0	0.00e+00	0	52	0	435159040	51	4297
2026-01-04 07:19:57.77	53.79	9.83	-44.7	-45.8	16.0	0.00e+00	0	51	0	441450496	51	4244
2026-01-04 07:19:58.77	53.69	9.90	-44.6	-45.7	16.1	0.00e+00	0	52	0	446693376	51	4200
2026-01-04 07:19:59.76	53.58	9.96	-44.5	-45.5	16.3	0.00e+00	0	52	0	451936256	51	4139
2026-01-04 07:20:00.73	53.47	10.03	-44.4	-45.5	16.4	0.00e+00	0	52	0	457179136	51	4102
2026-01-04 07:20:01.73	53.36	10.10	-44.5	-45.5	16.3	0.00e+00	0	52	0	463470592	51	4140
2026-01-04 07:20:02.72	53.25	10.17	-44.7	-45.8	16.0	0.00e+00	0	52	0	468713472	51	4243
2026-01-04 07:20:03.71	53.14	10.23	-44.6	-45.6	16.2	0.00e+00	0	52	0	475004928	51	4175
2026-01-04 07:20:04.70	53.03	10.30	-44.4	-45.4	16.4	0.00e+00	0	52	0	480247808	51	4077
2026-01-04 07:20:05.69	52.91	10.37	-44.3	-45.3	16.5	0.00e+00	0	52	0	485490688	51	4018
2026-01-04 07:20:06.68	52.80	10.44	-44.2	-45.2	16.7	0.00e+00	0	52	0	490733568	51	3965
2026-01-04 07:20:07.68	52.69	10.51	-44.2	-45.2	16.7	0.00e+00	0	52	0	497025024	51	3972
2026-01-04 07:20:08.67	52.57	10.58	-44.1	-45.1	16.8	0.00e+00	0	52	0	502267904	51	3916
2026-01-04 07:20:09.64	52.46	10.64	-44.0	-45.0	16.8	0.00e+00	0	52	0	507510784	51	3905
2026-01-04 07:20:10.64	52.35	10.71	-44.2	-45.2	16.6	0.00e+00	0	52	0	513802240	51	3992
2026-01-04 07:20:11.62	52.23	10.78	-44.2	-45.2	16.7	0.00e+00	0	52	0	519045120	51	3983
2026-01-04 07:20:12.61	52.12	10.85	-44.3	-45.3	16.6	0.00e+00	0	52	0	524288000	51	4013
2026-01-04 07:20:13.60	52.00	10.92	-44.4	-45.5	16.4	0.00e+00	0	52	0	530579456	51	4118
2026-01-04 07:20:14.58	51.88	10.99	-44.4	-45.5	16.4	0.00e+00	0	52	0	535822336	51	4115
2026-01-04 07:20:15.57	51.77	11.05	-44.3	-45.3	16.6	0.00e+00	0	52	0	541065216	51	4012
2026-01-04 07:20:16.56	51.65	11.12	-44.2	-45.2	16.7	0.00e+00	0	52	0	546308096	51	3986
2026-01-04 07:20:17.55	51.53	11.19	-44.3	-45.3	16.6	0.00e+00	0	52	0	552599552	51	4049
2026-01-04 07:20:18.53	51.41	11.26	-44.4	-45.4	16.5	0.00e+00	0	52	0	557842432	51	4064
2026-01-04 07:20:19.52	51.29	11.33	-44.2	-45.2	16.7	0.00e+00	0	52	0	563085312	51	3964
2026-01-04 07:20:20.51	51.17	11.40	-44.2	-45.2	16.7	0.00e+00	0	52	0	569376768	51	3966
2026-01-04 07:20:21.50	51.05	11.47	-44.3	-45.3	16.5	0.00e+00	0	52	0	574619648	51	4051
2026-01-04 07:20:22.50	50.93	11.54	-44.3	-45.3	16.7	0.00e+00	0	52	0	579862528	51	4005
2026-01-04 07:20:23.49	50.81	11.61	-44.0	-45.0	16.9	0.00e+00	0	52	0	585105408	51	3875
2026-01-04 07:20:24.47	50.69	11.68	-43.8	-44.7	17.2	0.00e+00	0	52	0	591396864	50	3981
2026-01-04 07:20:25.47	50.56	11.75	-43.7	-44.6	17.3	0.00e+00	0	52	0	596639744	50	3958
2026-01-04 07:20:26.46	50.44	11.82	-43.7	-44.7	17.2	0.00e+00	0	52	0	602931200	50	3968
2026-01-04 07:20:27.45	50.31	11.89	-43.7	-44.7	17.2	0.00e+00	0	52	0	608174080	50	3960
2026-01-04 07:20:28.44	50.19	11.95	-43.8	-44.7	17.2	0.00e+00	0	53	0	613416960	50	3986
2026-01-04 07:20:29.42	50.06	12.02	-43.7	-44.7	17.2	0.00e+00	0	53	0	618659840	50	3973
2026-01-04 07:20:30.40	49.94	12.09	-43.6	-44.6	17.4	0.00e+00	0	53	0	624951296	50	3916
2026-01-04 07:20:31.39	49.81	12.16	-43.6	-44.5	17.4	0.00e+00	0	53	0	630194176	50	3884
2026-01-04 07:20:32.38	49.68	12.23	-43.7	-44.5	17.4	0.00e+00	0	52	0	635437056	50	3911
2026-01-04 07:20:33.38	49.56	12.30	-43.8	-44.7	17.2	0.00e+00	0	52	0	641728512	50	3997
2026-01-04 07:20:34.37	49.43	12.37	-44.0	-44.9	17.0	0.00e+00	0	53	0	646971392	50	4084
2026-01-04 07:20:35.36	49.30	12.44	-43.8	-44.7	17.2	0.00e+00	0	53	0	652214272	50	3980
2026-01-04 07:20:36.35	49.17	12.51	-43.8	-44.8	17.2	0.00e+00	0	53	0	658505728	50	4009
2026-01-04 07:20:37.34	49.04	12.58	-43.9	-44.8	17.1	0.00e+00	0	53	0	663748608	50	4036
2026-01-04 07:20:38.33	48.91	12.65	-43.9	-44.9	17.1	0.00e+00	0	53	0	668991488	50	4057
2026-01-04 07:20:39.32	48.77	12.72	-43.8	-44.7	17.3	0.00e+00	0	53	0	674234368	50	3967
2026-01-04 07:20:40.31	48.64	12.79	-43.6	-44.5	17.5	0.00e+00	0	53	0	680525824	50	3884
2026-01-04 07:20:41.31	48.51	12.87	-43.6	-44.5	17.5	0.00e+00	0	53	0	685768704	50	3887
2026-01-04 07:20:42.30	48.37	12.94	-43.6	-44.5	17.5	0.00e+00	0	53	0	692060160	50	3875
2026-01-04 07:20:43.29	48.24	13.01	-43.4	-44.3	17.7	0.00e+00	0	53	0	697303040	50	3781
2026-01-04 07:20:44.28	48.10	13.08	-43.2	-44.1	17.9	0.00e+00	0	53	0	702545920	49	3922
2026-01-04 07:20:45.27	47.97	13.15	-43.2	-44.0	17.9	0.00e+00	0	53	0	707788800	49	3908
2026-01-04 07:20:46.25	47.83	13.22	-43.2	-44.0	18.0	0.00e+00	0	53	0	714080256	49	3884
2026-01-04 07:20:47.24	47.69	13.29	-43.2	-44.0	18.0	0.00e+00	0	53	0	719323136	49	3906
2026-01-04 07:20:48.23	47.56	13.36	-43.3	-44.2	17.8	0.00e+00	0	53	0	724566016	49	3979
2026-01-04 07:20:49.22	47.42	13.43	-43.5	-44.3	17.6	0.00e+00	0	53	0	730857472	49	4042
2026-01-04 07:20:50.21	47.28	13.50	-43.4	-44.3	17.7	0.00e+00	0	53	0	736100352	49	4016
2026-01-04 07:20:51.20	47.14	13.57	-43.5	-44.3	17.6	0.00e+00	0	53	0	741343232	49	4047
2026-01-04 07:20:52.19	47.00	13.64	-43.6	-44.4	17.5	0.00e+00	0	53	0	746586112	49	4094
2026-01-04 07:20:53.18	46.86	13.71	-43.3	-44.2	17.8	0.00e+00	0	53	0	752877568	49	3967
2026-01-04 07:20:54.17	46.72	13.78	-43.2	-44.0	18.0	0.00e+00	0	53	0	758120448	49	3891
2026-01-04 07:20:55.16	46.57	13.86	-43.2	-44.0	18.0	0.00e+00	0	53	0	764411904	49	3882
2026-01-04 07:20:56.15	46.43	13.93	-43.2	-44.0	18.0	0.00e+00	0	53	0	769654784	49	3907
2026-01-04 07:20:57.14	46.29	14.00	-43.5	-44.3	17.7	0.00e+00	0	53	0	774897664	49	4039
2026-01-04 07:20:58.13	46.14	14.07	-43.2	-44.1	17.9	0.00e+00	0	53	0	780140544	49	3916
2026-01-04 07:20:59.11	46.00	14.14	-43.1	-43.9	18.1	0.00e+00	0	53	0	786432000	49	3856
2026-01-04 07:21:00.10	45.85	14.21	-43.0	-43.8	18.2	0.00e+00	0	53	0	791674880	49	3821
2026-01-04 07:21:01.09	45.70	14.28	-43.1	-43.9	18.1	0.00e+00	0	53	0	796917760	49	3832
2026-01-04 07:21:02.08	45.56	14.35	-43.2	-44.0	18.0	0.00e+00	0	53	0	803209216	49	3879
2026-01-04 07:21:03.07	45.41	14.42	-43.0	-43.8	18.2	0.00e+00	0	53	0	808452096	49	3795
2026-01-04 07:21:04.06	45.26	14.49	-43.1	-43.9	18.1	0.00e+00	0	53	0	813694976	49	3834
2026-01-04 07:21:05.05	45.11	14.57	-42.9	-43.7	18.3	0.00e+00	0	53	0	819986432	49	3777
2026-01-04 07:21:06.04	44.96	14.64	-42.9	-43.7	18.3	0.00e+00	0	53	0	825229312	49	3777
2026-01-04 07:21:07.04	44.81	14.71	-42.9	-43.7	18.3	0.00e+00	0	53	0	830472192	49	3752
2026-01-04 07:21:08.04	44.65	14.78	-43.0	-43.8	18.2	0.00e+00	0	54	0	835715072	49	3793
2026-01-04 07:21:09.03	44.50	14.85	-43.1	-43.9	18.1	0.00e+00	0	54	0	842006528	49	3850
2026-01-04 07:21:10.02	44.35	14.92	-43.2	-44.0	18.0	0.00e+00	0	53	0	847249408	49	3899
2026-01-04 07:21:11.00	44.19	14.99	-43.0	-43.8	18.2	0.00e+00	0	53	0	853540864	49	3789
2026-01-04 07:21:11.99	44.04	15.06	-42.9	-43.7	18.4	0.00e+00	0	53	0	858783744	48	3962
2026-01-04 07:21:12.98	43.88	15.14	-42.9	-43.7	18.3	0.00e+00	0	53	0	864026624	48	3984
2026-01-04 07:21:13.97	43.73	15.21	-42.9	-43.7	18.3	0.00e+00	0	54	0	869269504	48	3991
2026-01-04 07:21:14.95	43.57	15.28	-43.0	-43.8	18.2	0.00e+00	0	54	0	875560960	48	4037
2026-01-04 07:21:15.94	43.41	15.35	-43.2	-44.1	18.0	0.00e+00	0	53	0	880803840	48	4154
2026-01-04 07:21:16.93	43.25	15.42	-43.1	-43.9	18.1	0.00e+00	0	54	0	886046720	48	4068
2026-01-04 07:21:17.92	43.09	15.49	-43.2	-44.1	18.0	0.00e+00	0	54	0	892338176	48	4153
2026-01-04 07:21:18.91	42.93	15.56	-43.0	-43.8	18.2	0.00e+00	0	54	0	897581056	48	4039
2026-01-04 07:21:19.90	42.77	15.63	-42.8	-43.6	18.5	0.00e+00	0	53	0	902823936	48	3930
2026-01-04 07:21:20.90	42.61	15.70	-42.7	-43.4	18.6	0.00e+00	0	54	0	909115392	48	3853
2026-01-04 07:21:21.89	42.45	15.77	-42.6	-43.4	18.6	0.00e+00	0	54	0	914358272	48	3861
2026-01-04 07:21:22.88	42.28	15.85	-42.7	-43.4	18.6	0.00e+00	0	54	0	919601152	48	3854
2026-01-04 07:21:23.87	42.12	15.92	-42.8	-43.5	18.5	0.00e+00	0	54	0	924844032	48	3904
2026-01-04 07:21:24.86	41.95	15.99	-42.9	-43.7	18.3	0.00e+00	0	54	0	931135488	48	4002
2026-01-04 07:21:25.85	41.79	16.06	-42.7	-43.5	18.6	0.00e+00	0	54	0	936378368	48	3885
2026-01-04 07:21:26.83	41.62	16.13	-42.5	-43.3	18.8	0.00e+00	0	54	0	941621248	48	3798
2026-01-04 07:21:27.82	41.46	16.20	-42.4	-43.2	18.9	0.00e+00	0	54	0	947912704	48	3752
2026-01-04 07:21:28.80	41.29	16.27	-42.4	-43.2	18.9	0.00e+00	0	54	0	953155584	48	3750
2026-01-04 07:21:29.78	41.12	16.34	-42.5	-43.3	18.8	0.00e+00	0	54	0	958398464	48	3793
2026-01-04 07:21:30.77	40.95	16.41	-42.7	-43.4	18.7	0.00e+00	0	54	0	963641344	48	3857
2026-01-04 07:21:31.74	40.79	16.48	-42.7	-43.5	18.6	0.00e+00	0	54	0	969932800	48	3888
2026-01-04 07:21:32.73	40.61	16.55	-42.9	-43.6	18.4	0.00e+00	0	54	0	975175680	48	3947
2026-01-04 07:21:33.72	40.44	16.62	-43.0	-43.8	18.3	0.00e+00	0	54	0	980418560	48	4042
2026-01-04 07:21:34.72	40.27	16.69	-42.9	-43.7	18.4	0.00e+00	0	54	0	986710016	48	3982
2026-01-04 07:21:35.71	40.09	16.76	-42.7	-43.5	18.6	0.00e+00	0	54	0	991952896	48	3879
2026-01-04 07:21:36.69	39.92	16.83	-42.7	-43.4	18.6	0.00e+00	0	54	0	997195776	48	3858
2026-01-04 07:21:37.69	39.74	16.90	-42.8	-43.6	18.5	0.00e+00	0	54	0	1002438656	48	3924
2026-01-04 07:21:38.69	39.56	16.97	-43.1	-43.8	18.2	0.00e+00	0	54	0	1008730112	48	4049
2026-01-04 07:21:39.67	39.39	17.04	-42.9	-43.7	18.4	0.00e+00	0	54	0	1013972992	48	3969
2026-01-04 07:21:40.65	39.21	17.11	-42.6	-43.3	18.8	0.00e+00	0	54	0	1020264448	48	3806
2026-01-04 07:21:41.65	39.03	17.18	-42.4	-43.1	19.0	0.00e+00	0	54	0	1025507328	48	3710
2026-01-04 07:21:42.62	38.86	17.25	-42.2	-42.9	19.0	0.00e+00	0	54	0	1030750208	47	3846
2026-01-04 07:21:43.61	38.68	17.32	-42.2	-42.9	19.0	0.00e+00	0	54	0	1035993088	47	3830
2026-01-04 07:21:44.61	38.49	17.39	-42.2	-43.0	18.9	0.00e+00	0	54	0	1042284544	47	3878
2026-01-04 07:21:45.60	38.31	17.46	-42.5	-43.2	18.7	0.00e+00	0	54	0	1047527424	47	3988
2026-01-04 07:21:46.58	38.13	17.53	-42.4	-43.1	18.8	0.00e+00	0	54	0	1052770304	47	3950
2026-01-04 07:21:47.57	37.95	17.60	-42.1	-42.8	19.1	0.00e+00	0	54	0	1059061760	47	3811
2026-01-04 07:21:48.56	37.76	17.67	-41.9	-42.6	19.3	0.00e+00	0	54	0	1064304640	47	3718
2026-01-04 07:21:49.55	37.57	17.74	-41.9	-42.6	19.3	0.00e+00	0	54	0	1069547520	46	3924
2026-01-04 07:21:50.53	37.39	17.80	-41.9	-42.6	19.3	0.00e+00	0	54	0	1074790400	46	3920
2026-01-04 07:21:51.52	37.20	17.87	-41.9	-42.6	19.3	0.00e+00	0	54	0	1081081856	46	3943
2026-01-04 07:21:52.50	37.02	17.94	-41.9	-42.7	19.2	0.00e+00	0	54	0	1086324736	46	3961
2026-01-04 07:21:53.50	36.83	18.01	-41.9	-42.6	19.3	0.00e+00	0	54	0	1092616192	46	3927
2026-01-04 07:21:54.49	36.64	18.08	-41.8	-42.5	19.3	0.00e+00	0	54	0	1097859072	46	3901
2026-01-04 07:21:55.48	36.44	18.15	-41.8	-42.5	19.4	0.00e+00	0	54	0	1103101952	46	3874
2026-01-04 07:21:56.47	36.25	18.21	-41.8	-42.5	19.4	0.00e+00	0	54	0	1108344832	46	3894
2026-01-04 07:21:57.45	36.06	18.28	-42.0	-42.7	19.2	0.00e+00	0	54	0	1114636288	46	3987
2026-01-04 07:21:58.44	35.87	18.35	-42.2	-42.9	19.0	0.00e+00	0	55	0	1119879168	46	4063
2026-01-04 07:21:59.43	35.67	18.42	-42.2	-42.9	19.1	0.00e+00	0	54	0	1125122048	46	4054
2026-01-04 07:22:00.42	35.48	18.48	-42.2	-43.0	19.0	0.00e+00	0	54	0	1131413504	46	4101
2026-01-04 07:22:01.40	35.28	18.55	-42.3	-43.1	18.9	0.00e+00	0	54	0	1136656384	46	4158
2026-01-04 07:22:02.39	35.09	18.62	-42.4	-43.1	18.8	0.00e+00	0	54	0	1141899264	46	4162
2026-01-04 07:22:03.39	34.89	18.69	-42.2	-42.9	19.0	0.00e+00	0	55	0	1147142144	46	4091
2026-01-04 07:22:04.38	34.69	18.75	-42.2	-42.9	19.0	0.00e+00	0	54	0	1153433600	46	4071
2026-01-04 07:22:05.37	34.49	18.82	-42.3	-43.0	18.9	0.00e+00	0	54	0	1158676480	46	4134
2026-01-04 07:22:06.36	34.29	18.88	-42.5	-43.2	18.7	0.00e+00	0	55	0	1163919360	47	3998
2026-01-04 07:22:07.35	34.09	18.95	-42.1	-42.8	19.1	0.00e+00	0	55	0	1170210816	47	3804
2026-01-04 07:22:08.35	33.88	19.02	-41.8	-42.5	19.4	0.00e+00	0	55	0	1175453696	46	3894
2026-01-04 07:22:09.34	33.68	19.08	-41.6	-42.3	19.6	0.00e+00	0	54	0	1180696576	46	3810
2026-01-04 07:22:10.33	33.48	19.15	-41.6	-42.3	19.6	0.00e+00	0	54	0	1186988032	46	3795
2026-01-04 07:22:11.32	33.27	19.21	-41.6	-42.3	19.6	0.00e+00	0	55	0	1192230912	46	3803
2026-01-04 07:22:12.31	33.07	19.28	-41.7	-42.3	19.6	0.00e+00	0	54	0	1197473792	46	3819
2026-01-04 07:22:13.29	32.86	19.34	-41.7	-42.4	19.5	0.00e+00	0	55	0	1203765248	46	3836
2026-01-04 07:22:14.28	32.65	19.41	-41.6	-42.3	19.6	0.00e+00	0	55	0	1209008128	46	3787
2026-01-04 07:22:15.27	32.44	19.47	-41.5	-42.2	19.7	0.00e+00	0	55	0	1214251008	46	3754
2026-01-04 07:22:16.27	32.23	19.54	-41.5	-42.2	19.7	0.00e+00	0	55	0	1220542464	46	3763
2026-01-04 07:22:17.25	32.03	19.60	-41.7	-42.3	19.6	0.00e+00	0	55	0	1225785344	46	3823
2026-01-04 07:22:18.24	31.81	19.67	-41.8	-42.5	19.4	0.00e+00	0	55	0	1231028224	46	3891
2026-01-04 07:22:19.22	31.60	19.73	-41.8	-42.5	19.4	0.00e+00	0	55	0	1236271104	46	3888
2026-01-04 07:22:20.21	31.39	19.79	-41.8	-42.5	19.4	0.00e+00	0	55	0	1242562560	46	3896
2026-01-04 07:22:21.20	31.18	19.85	-41.9	-42.6	19.3	0.00e+00	0	54	0	1247805440	46	3958
2026-01-04 07:22:22.19	30.96	19.92	-42.0	-42.8	19.2	0.00e+00	0	55	0	1253048320	46	4006
2026-01-04 07:22:23.19	30.74	19.98	-41.9	-42.6	19.4	0.00e+00	0	55	0	1259339776	46	3917
2026-01-04 07:22:24.17	30.53	20.04	-41.7	-42.4	19.5	0.00e+00	0	55	0	1264582656	46	3861
2026-01-04 07:22:25.16	30.31	20.10	-41.8	-42.5	19.5	0.00e+00	0	55	0	1269825536	46	3884
2026-01-04 07:22:26.15	30.09	20.17	-41.9	-42.6	19.3	0.00e+00	0	55	0	1276116992	46	3946
2026-01-04 07:22:27.14	29.88	20.23	-41.7	-42.4	19.6	0.00e+00	0	55	0	1281359872	46	3835
2026-01-04 07:22:28.13	29.66	20.29	-41.5	-42.1	19.8	0.00e+00	0	55	0	1286602752	46	3724
2026-01-04 07:22:29.11	29.44	20.35	-41.4	-42.1	19.9	0.00e+00	0	55	0	1292894208	46	3704
2026-01-04 07:22:30.10	29.21	20.41	-41.4	-42.1	19.9	0.00e+00	0	55	0	1298137088	46	3701
2026-01-04 07:22:31.09	28.99	20.47	-41.5	-42.1	19.8	0.00e+00	0	55	0	1303379968	46	3733
2026-01-04 07:22:32.08	28.77	20.53	-41.7	-42.3	19.6	0.00e+00	0	55	0	1308622848	46	3824
2026-01-04 07:22:33.07	28.54	20.59	-41.5	-42.1	19.8	0.00e+00	0	55	0	1314914304	46	3736
2026-01-04 07:22:34.06	28.32	20.65	-41.4	-42.1	19.8	0.00e+00	0	55	0	1320157184	46	3717
2026-01-04 07:22:35.04	28.09	20.71	-41.5	-42.1	19.8	0.00e+00	0	55	0	1325400064	46	3729
2026-01-04 07:22:36.04	27.87	20.77	-41.3	-41.9	20.0	0.00e+00	0	55	0	1331691520	45	3860
2026-01-04 07:22:37.04	27.64	20.82	-41.3	-41.9	20.0	0.00e+00	0	55	0	1336934400	45	3841
2026-01-04 07:22:38.02	27.41	20.88	-41.3	-42.0	20.0	0.00e+00	0	55	0	1342177280	45	3869
2026-01-04 07:22:39.00	27.18	20.94	-41.6	-42.2	19.7	0.00e+00	0	55	0	1348468736	45	3989
2026-01-04 07:22:39.99	26.95	21.00	-41.4	-42.0	19.9	0.00e+00	0	55	0	1353711616	45	3890
2026-01-04 07:22:40.98	26.72	21.05	-41.2	-41.8	20.1	0.00e+00	0	55	0	1358954496	45	3815
2026-01-04 07:22:41.97	26.49	21.11	-41.2	-41.9	20.0	0.00e+00	0	55	0	1364197376	45	3839
2026-01-04 07:22:42.96	26.25	21.16	-41.4	-42.0	19.9	0.00e+00	0	55	0	1370488832	45	3896
2026-01-04 07:22:43.95	26.02	21.22	-41.5	-42.1	19.8	0.00e+00	0	55	0	1375731712	45	3940
2026-01-04 07:22:44.93	25.79	21.27	-41.7	-42.4	19.5	0.00e+00	0	55	0	1380974592	45	4074
2026-01-04 07:22:45.93	25.55	21.33	-41.5	-42.2	19.8	0.00e+00	0	55	0	1387266048	45	3962
2026-01-04 07:22:46.92	25.31	21.38	-41.4	-42.0	19.9	0.00e+00	0	55	0	1392508928	45	3905
2026-01-04 07:22:47.91	25.08	21.44	-41.3	-42.0	19.9	0.00e+00	0	55	0	1397751808	45	3890
2026-01-04 07:22:48.91	24.83	21.49	-41.4	-42.1	19.8	0.00e+00	0	55	0	1404043264	45	3935
2026-01-04 07:22:49.90	24.60	21.55	-41.6	-42.2	19.7	0.00e+00	0	55	0	1409286144	45	3986
2026-01-04 07:22:50.89	24.36	21.60	-41.4	-42.0	19.9	0.00e+00	0	55	0	1414529024	45	3906
2026-01-04 07:22:51.88	24.12	21.65	-41.2	-41.8	20.1	0.00e+00	0	55	0	1420820480	45	3812
2026-01-04 07:22:52.87	23.87	21.70	-41.2	-41.8	20.1	0.00e+00	0	55	0	1426063360	45	3791
2026-01-04 07:22:53.86	23.63	21.75	-41.2	-41.8	20.1	0.00e+00	0	55	0	1431306240	45	3807
2026-01-04 07:22:54.85	23.39	21.81	-41.3	-41.9	20.0	0.00e+00	0	55	0	1437597696	45	3868
2026-01-04 07:22:55.84	23.14	21.86	-41.3	-41.9	20.0	0.00e+00	0	55	0	1442840576	45	3865
2026-01-04 07:22:56.84	22.90	21.91	-41.2	-41.8	20.1	0.00e+00	0	55	0	1448083456	45	3801
2026-01-04 07:22:57.83	22.65	21.96	-41.1	-41.7	20.2	0.00e+00	0	55	0	1453326336	45	3766
2026-01-04 07:22:58.82	22.41	22.01	-41.0	-41.6	20.3	0.00e+00	0	55	0	1459617792	45	3711
2026-01-04 07:22:59.82	22.16	22.05	-40.9	-41.5	20.4	0.00e+00	0	55	0	1464860672	45	3691
2026-01-04 07:23:00.80	21.91	22.10	-40.9	-41.5	20.4	0.00e+00	0	55	0	1471152128	44	3888
2026-01-04 07:23:01.80	21.66	22.15	-40.8	-41.5	20.5	0.00e+00	0	55	0	1476395008	44	3869
2026-01-04 07:23:02.78	21.41	22.20	-40.8	-41.4	20.5	0.00e+00	0	55	0	1481637888	44	3860
2026-01-04 07:23:03.77	21.16	22.24	-40.9	-41.5	20.4	0.00e+00	0	55	0	1486880768	44	3895
2026-01-04 07:23:04.76	20.91	22.29	-41.0	-41.7	20.2	0.00e+00	0	55	0	1493172224	44	3968
2026-01-04 07:23:05.75	20.66	22.34	-40.9	-41.5	20.4	0.00e+00	0	55	0	1498415104	44	3906
2026-01-04 07:23:06.74	20.41	22.38	-40.8	-41.4	20.5	0.00e+00	0	55	0	1503657984	44	3846
2026-01-04 07:23:07.72	20.16	22.43	-40.9	-41.6	20.3	0.00e+00	0	55	0	1509949440	44	3919
2026-01-04 07:23:08.71	19.90	22.47	-41.0	-41.6	20.3	0.00e+00	0	55	0	1515192320	44	3944
2026-01-04 07:23:09.69	19.65	22.51	-41.0	-41.6	20.3	0.00e+00	0	55	0	1520435200	44	3948
2026-01-04 07:23:10.69	19.39	22.56	-41.0	-41.6	20.3	0.00e+00	0	55	0	1525678080	44	3946
2026-01-04 07:23:11.68	19.14	22.60	-41.2	-41.8	20.1	0.00e+00	0	55	0	1531969536	44	4024
2026-01-04 07:23:12.68	18.88	22.64	-41.1	-41.8	20.1	0.00e+00	0	55	0	1537212416	44	4013
2026-01-04 07:23:13.66	18.62	22.68	-41.0	-41.6	20.3	0.00e+00	0	55	0	1542455296	44	3930
2026-01-04 07:23:14.65	18.36	22.72	-41.0	-41.6	20.3	0.00e+00	0	55	0	1548746752	44	3923
2026-01-04 07:23:15.63	18.11	22.76	-40.9	-41.5	20.4	0.00e+00	0	55	0	1553989632	44	3899
2026-01-04 07:23:16.62	17.85	22.80	-40.9	-41.6	20.4	0.00e+00	0	55	0	1559232512	44	3918
2026-01-04 07:23:17.61	17.59	22.84	-41.1	-41.8	20.1	0.00e+00	0	55	0	1565523968	44	4007
2026-01-04 07:23:18.60	17.33	22.88	-41.0	-41.6	20.3	0.00e+00	0	55	0	1570766848	44	3952
2026-01-04 07:23:19.59	17.07	22.92	-40.8	-41.4	20.5	0.00e+00	0	55	0	1576009728	44	3842
2026-01-04 07:23:20.58	16.80	22.96	-40.7	-41.3	20.6	0.00e+00	0	55	0	1582301184	44	3793
2026-01-04 07:23:21.57	16.54	22.99	-40.7	-41.3	20.6	0.00e+00	0	55	0	1587544064	44	3795
2026-01-04 07:23:22.56	16.28	23.03	-40.8	-41.4	20.5	0.00e+00	0	55	0	1592786944	44	3833
2026-01-04 07:23:23.54	16.02	23.07	-40.8	-41.4	20.5	0.00e+00	0	55	0	1599078400	44	3859
2026-01-04 07:23:24.54	15.75	23.10	-40.8	-41.4	20.5	0.00e+00	0	55	0	1604321280	44	3868
2026-01-04 07:23:25.52	15.49	23.13	-40.9	-41.6	20.3	0.00e+00	0	55	0	1609564160	44	3921
2026-01-04 07:23:26.51	15.22	23.17	-41.2	-41.8	20.1	0.00e+00	0	55	0	1614807040	44	4035
2026-01-04 07:23:27.50	14.95	23.20	-41.2	-41.8	20.1	0.00e+00	0	55	0	1621098496	44	4037
2026-01-04 07:23:28.48	14.69	23.23	-41.0	-41.6	20.3	0.00e+00	0	56	0	1626341376	44	3942
2026-01-04 07:23:29.47	14.42	23.27	-40.8	-41.5	20.4	0.00e+00	0	55	0	1631584256	44	3870
2026-01-04 07:23:30.46	14.15	23.30	-40.9	-41.5	20.4	0.00e+00	0	55	0	1637875712	44	3877
2026-01-04 07:23:31.45	13.89	23.33	-40.9	-41.5	20.4	0.00e+00	0	55	0	1643118592	44	3889
2026-01-04 07:23:32.44	13.62	23.36	-40.9	-41.6	20.3	0.00e+00	0	55	0	1648361472	44	3915
2026-01-04 07:23:33.43	13.35	23.39	-41.0	-41.7	20.2	0.00e+00	0	55	0	1653604352	44	3963
2026-01-04 07:23:34.42	13.08	23.42	-41.0	-41.7	20.2	0.00e+00	0	55	0	1659895808	44	3968
2026-01-04 07:23:35.41	12.81	23.44	-40.8	-41.4	20.4	0.00e+00	0	56	0	1665138688	44	3845
2026-01-04 07:23:36.40	12.53	23.47	-40.6	-41.2	20.6	0.00e+00	0	55	0	1671430144	44	3770
2026-01-04 07:23:37.39	12.26	23.50	-40.5	-41.1	20.7	0.00e+00	0	55	0	1676673024	44	3726
2026-01-04 07:23:38.38	11.99	23.52	-40.4	-41.0	20.7	0.00e+00	0	55	0	1681915904	44	3691
2026-01-04 07:23:39.37	11.72	23.55	-40.3	-40.9	20.8	0.00e+00	0	56	0	1687158784	43	3830
2026-01-04 07:23:40.36	11.45	23.57	-40.3	-40.9	20.8	0.00e+00	0	56	0	1693450240	43	3829
2026-01-04 07:23:41.34	11.18	23.60	-40.5	-41.1	20.6	0.00e+00	0	56	0	1698693120	43	3923
2026-01-04 07:23:42.33	10.90	23.62	-40.6	-41.2	20.4	0.00e+00	0	55	0	1703936000	43	3991
2026-01-04 07:23:43.32	10.63	23.64	-40.2	-40.8	20.6	0.00e+00	0	55	0	1710227456	43	3808
2026-01-04 07:23:44.32	10.35	23.67	-40.4	-41.0	20.3	0.00e+00	0	55	0	1715470336	43	3882
2026-01-04 07:23:45.30	10.08	23.69	-40.8	-41.4	19.7	0.00e+00	0	55	0	1720713216	43	4095
2026-01-04 07:23:46.29	9.80	23.71	-41.5	-42.2	19.0	0.00e+00	0	56	0	1727004672	44	4235
2026-01-04 07:23:47.28	9.53	23.73	-42.1	-43.0	18.2	0.00e+00	0	56	0	1732247552	46	4101
2026-01-04 07:23:48.27	9.25	23.75	-42.6	-43.4	17.5	0.00e+00	0	55	0	1737490432	46	4329
2026-01-04 07:23:49.25	8.98	23.77	-43.3	-44.3	16.8	0.00e+00	0	55	0	1742733312	48	4269
2026-01-04 07:23:50.25	8.70	23.78	-43.8	-44.9	16.1	0.00e+00	0	55	0	1749024768	49	4303
2026-01-04 07:23:51.24	8.42	23.80	-44.3	-45.5	15.5	0.00e+00	0	56	0	1754267648	50	4366
2026-01-04 07:23:52.23	8.14	23.82	-44.3	-45.5	15.5	0.00e+00	0	56	0	1759510528	50	4359
2026-01-04 07:23:53.22	7.87	23.83	-44.3	-45.5	15.5	0.00e+00	0	56	0	1765801984	50	4342
2026-01-04 07:23:54.21	7.59	23.85	-44.2	-45.3	15.6	0.00e+00	0	56	0	1771044864	50	4275
2026-01-04 07:23:55.20	7.31	23.86	-43.8	-44.9	16.1	0.00e+00	0	56	0	1776287744	50	4072
2026-01-04 07:23:56.19	7.03	23.88	-43.2	-44.2	16.8	0.00e+00	0	56	0	1781530624	49	3994
2026-01-04 07:23:57.18	6.75	23.89	-42.8	-43.6	17.5	0.00e+00	0	55	0	1787822080	48	3949
2026-01-04 07:23:58.16	6.48	23.90	-42.5	-43.4	17.9	0.00e+00	0	56	0	1793064960	48	3838
2026-01-04 07:23:59.16	6.20	23.91	-42.4	-43.2	18.2	0.00e+00	0	55	0	1799356416	48	3767
2026-01-04 07:24:00.15	5.92	23.92	-42.0	-42.8	18.5	0.00e+00	0	56	0	1804599296	47	3804
2026-01-04 07:24:01.14	5.64	23.93	-42.3	-43.1	18.2	0.00e+00	0	55	0	1809842176	47	3916
2026-01-04 07:24:02.13	5.36	23.94	-42.2	-43.0	18.3	0.00e+00	0	56	0	1815085056	47	3870
2026-01-04 07:24:03.12	5.08	23.95	-43.8	-44.8	16.4	0.00e+00	0	55	0	1821376512	49	4282
2026-01-04 07:24:04.10	4.80	23.96	-44.9	-46.2	14.7	0.00e+00	0	55	0	1826619392	51	4475
2026-01-04 07:24:05.10	4.52	23.96	-46.8	-48.9	11.7	2.40e-04	0	55	0	1831862272	55	4857
2026-01-04 07:24:06.09	4.24	23.97	-47.7	-50.3	10.4	4.69e-03	0	55	0	1838153728	57	5046
2026-01-04 07:24:07.08	3.96	23.97	-46.9	-49.0	11.9	1.25e-03	0	55	0	1843396608	57	4349
2026-01-04 07:24:08.06	3.68	23.98	-45.0	-46.3	14.8	5.70e-06	0	55	0	1848639488	53	4026
2026-01-04 07:24:09.06	3.40	23.98	-43.8	-44.8	16.7	0.00e+00	0	56	0	1854930944	50	4028
2026-01-04 07:24:10.05	3.12	23.99	-43.5	-44.4	17.4	0.00e+00	0	56	0	1860173824	50	3857
2026-01-04 07:24:11.04	2.84	23.99	-43.7	-44.6	17.4	0.00e+00	0	56	0	1865416704	50	3927
2026-01-04 07:24:12.03	2.56	23.99	-43.1	-43.9	18.2	0.00e+00	0	56	0	1871708160	49	3855
2026-01-04 07:24:13.02	2.28	23.99	-42.2	-43.0	18.9	0.00e+00	0	56	0	1876951040	47	3885
2026-01-04 07:24:14.02	1.99	23.99	-41.6	-42.2	19.7	0.00e+00	0	56	0	1882193920	46	3769
2026-01-04 07:24:15.01	1.71	23.99	-41.1	-41.8	20.1	0.00e+00	0	56	0	1888485376	45	3790
2026-01-04 07:24:15.99	1.43	23.99	-40.8	-41.4	20.5	0.00e+00	0	56	0	1893728256	44	3840
2026-01-04 07:24:16.98	1.15	23.99	-40.7	-41.3	20.6	0.00e+00	0	56	0	1898971136	44	3799
2026-01-04 07:24:17.97	0.87	23.98	-40.7	-41.3	20.5	0.00e+00	0	56	0	1904214016	44	3824
2026-01-04 07:24:18.96	0.59	23.98	-40.7	-41.3	20.6	0.00e+00	0	56	0	1910505472	44	3804
2026-01-04 07:24:19.95	0.31	23.98	-40.5	-41.0	20.8	0.00e+00	0	56	0	1915748352	44	3689
2026-01-04 07:24:20.94	0.03	23.97	-40.2	-40.7	21.0	0.00e+00	0	56	0	1920991232	43	3766
2026-01-04 07:24:21.93	359.75	23.97	-40.1	-40.6	21.1	0.00e+00	0	56	0	1927282688	43	3733
2026-01-04 07:24:22.92	359.47	23.96	-40.2	-40.8	21.0	0.00e+00	0	56	0	1932525568	43	3801
2026-01-04 07:24:23.91	359.19	23.95	-40.2	-40.8	21.0	0.00e+00	0	56	0	1937768448	43	3791
2026-01-04 07:24:24.89	358.91	23.94	-40.2	-40.8	21.0	0.00e+00	0	56	0	1944059904	43	3786
2026-01-04 07:24:25.88	358.63	23.93	-40.1	-40.7	21.0	0.00e+00	0	56	0	1949302784	43	3753
2026-01-04 07:24:26.88	358.35	23.93	-40.2	-40.8	20.9	0.00e+00	0	56	0	1954545664	43	3813
2026-01-04 07:24:27.86	358.08	23.91	-40.6	-41.2	20.6	0.00e+00	0	56	0	1960837120	43	3960
2026-01-04 07:24:28.85	357.80	23.90	-40.4	-40.9	20.8	0.00e+00	0	56	0	1966080000	43	3857
2026-01-04 07:24:29.84	357.52	23.89	-40.2	-40.7	21.0	0.00e+00	0	56	0	1971322880	43	3776
2026-01-04 07:24:30.82	357.24	23.88	-40.1	-40.7	21.1	0.00e+00	0	56	0	1976565760	43	3742
2026-01-04 07:24:31.81	356.96	23.87	-40.2	-40.7	21.0	0.00e+00	0	56	0	1982857216	43	3780
2026-01-04 07:24:32.79	356.69	23.85	-40.4	-41.0	20.8	0.00e+00	0	56	0	1988100096	43	3878
2026-01-04 07:24:33.79	356.41	23.84	-40.3	-40.9	20.8	0.00e+00	0	56	0	1993342976	43	3863
2026-01-04 07:24:34.78	356.13	23.82	-40.4	-41.0	20.8	0.00e+00	0	56	0	1999634432	43	3869
2026-01-04 07:24:35.76	355.86	23.81	-40.5	-41.1	20.7	0.00e+00	0	56	0	2004877312	43	3934
2026-01-04 07:24:36.75	355.58	23.79	-40.7	-41.3	20.4	0.00e+00	0	56	0	2010120192	43	4037
2026-01-04 07:24:37.74	355.30	23.77	-40.6	-41.2	20.6	0.00e+00	0	56	0	2015363072	43	3965
2026-01-04 07:24:38.72	355.03	23.75	-40.6	-41.2	20.6	0.00e+00	0	56	0	2021654528	43	3972
2026-01-04 07:24:39.71	354.75	23.74	-40.6	-41.2	20.5	0.00e+00	0	56	0	2026897408	43	3985
2026-01-04 07:24:40.70	354.48	23.72	-40.8	-41.4	20.3	0.00e+00	0	56	0	2032140288	43	4089
2026-01-04 07:24:41.69	354.20	23.70	-40.8	-41.4	20.4	0.00e+00	0	56	0	2038431744	43	4060
2026-01-04 07:24:42.68	353.93	23.67	-40.8	-41.4	20.4	0.00e+00	0	56	0	2043674624	43	4060
2026-01-04 07:24:43.67	353.65	23.65	-40.9	-41.5	20.2	0.00e+00	0	56	0	2048917504	43	4133
2026-01-04 07:24:44.66	353.38	23.63	-40.7	-41.3	20.4	0.00e+00	0	56	0	2055208960	43	4037
2026-01-04 07:24:45.65	353.10	23.61	-40.5	-41.1	20.6	0.00e+00	0	56	0	2060451840	43	3936
2026-01-04 07:24:46.65	352.83	23.58	-40.5	-41.1	20.6	0.00e+00	0	56	0	2065694720	43	3935
2026-01-04 07:24:47.63	352.56	23.56	-40.6	-41.2	20.5	0.00e+00	0	56	0	2070937600	43	4001
2026-01-04 07:24:48.62	352.28	23.53	-40.7	-41.3	20.4	0.00e+00	0	56	0	2077229056	43	4020
2026-01-04 07:24:49.61	352.01	23.51	-40.6	-41.3	20.5	0.00e+00	0	56	0	2082471936	43	4016
2026-01-04 07:24:50.60	351.74	23.48	-40.7	-41.3	20.4	0.00e+00	0	56	0	2088763392	43	4029
2026-01-04 07:24:51.58	351.47	23.46	-40.9	-41.6	20.2	0.00e+00	0	56	0	2094006272	43	4149
2026-01-04 07:24:52.56	351.20	23.43	-41.0	-41.7	20.2	0.00e+00	0	56	0	2099249152	44	3967
2026-01-04 07:24:53.55	350.93	23.40	-40.8	-41.4	20.4	0.00e+00	0	56	0	2104492032	44	3855
2026-01-04 07:24:54.54	350.66	23.37	-40.7	-41.3	20.6	0.00e+00	0	56	0	2110783488	44	3790
2026-01-04 07:24:55.53	350.39	23.34	-40.6	-41.2	20.6	0.00e+00	0	56	0	2116026368	44	3764
2026-01-04 07:24:56.52	350.12	23.31	-40.6	-41.2	20.6	0.00e+00	0	56	0	2121269248	44	3770
2026-01-04 07:24:57.50	349.86	23.28	-40.8	-41.4	20.5	0.00e+00	0	56	0	2127560704	44	3831
2026-01-04 07:24:58.49	349.59	23.25	-40.8	-41.4	20.5	0.00e+00	0	56	0	2132803584	44	3828
2026-01-04 07:24:59.48	349.32	23.22	-40.5	-41.1	20.7	0.00e+00	0	56	0	2138046464	44	3730
2026-01-04 07:25:00.47	349.06	23.18	-40.4	-41.0	20.8	0.00e+00	0	56	0	2143289344	44	3658
2026-01-04 07:25:01.46	348.79	23.15	-40.3	-40.9	20.8	0.00e+00	0	56	0	2149580800	43	3838
2026-01-04 07:25:02.45	348.53	23.11	-40.4	-41.0	20.7	0.00e+00	0	56	0	2154823680	43	3874
2026-01-04 07:25:03.44	348.26	23.08	-40.5	-41.1	20.6	0.00e+00	0	56	0	2160066560	43	3934
2026-01-04 07:25:04.43	348.00	23.04	-40.5	-41.1	20.6	0.00e+00	0	56	0	2166358016	43	3944
2026-01-04 07:25:05.42	347.73	23.01	-40.4	-40.9	20.8	0.00e+00	0	56	0	2171600896	43	3862
2026-01-04 07:25:06.41	347.47	22.97	-40.3	-40.9	20.8	0.00e+00	0	56	0	2176843776	43	3834
2026-01-04 07:25:07.40	347.21	22.93	-40.3	-40.8	20.8	0.00e+00	0	56	0	2183135232	43	3823
2026-01-04 07:25:08.39	346.95	22.90	-40.3	-40.8	20.9	0.00e+00	0	56	0	2188378112	43	3821
2026-01-04 07:25:09.39	346.68	22.86	-40.3	-40.9	20.8	0.00e+00	0	56	0	2193620992	43	3847
2026-01-04 07:25:10.38	346.42	22.82	-40.4	-41.0	20.7	0.00e+00	0	56	0	2199912448	43	3899
2026-01-04 07:25:11.37	346.16	22.78	-40.5	-41.2	20.6	0.00e+00	0	56	0	2205155328	43	3968
2026-01-04 07:25:12.37	345.90	22.74	-40.4	-40.9	20.8	0.00e+00	0	56	0	2210398208	43	3868
2026-01-04 07:25:13.35	345.64	22.70	-40.2	-40.8	20.9	0.00e+00	0	56	0	2216689664	43	3814
2026-01-04 07:25:14.33	345.39	22.66	-40.4	-41.0	20.7	0.00e+00	0	56	0	2221932544	43	3874
2026-01-04 07:25:15.33	345.13	22.62	-40.5	-41.1	20.6	0.00e+00	0	56	0	2227175424	43	3940
2026-01-04 07:25:16.32	344.87	22.57	-40.3	-40.9	20.8	0.00e+00	0	56	0	2232418304	43	3855
2026-01-04 07:25:17.31	344.62	22.53	-40.5	-41.1	20.6	0.00e+00	0	56	0	2238709760	43	3916
2026-01-04 07:25:18.30	344.36	22.49	-40.5	-41.1	20.5	0.00e+00	0	56	0	2243952640	43	3957
2026-01-04 07:25:19.28	344.11	22.44	-40.5	-41.1	20.6	0.00e+00	0	56	0	2249195520	43	3924
2026-01-04 07:25:20.27	343.86	22.40	-40.6	-41.2	20.5	0.00e+00	0	56	0	2255486976	43	3979
2026-01-04 07:25:21.26	343.60	22.35	-40.4	-41.0	20.7	0.00e+00	0	56	0	2260729856	43	3879
2026-01-04 07:25:22.25	343.35	22.31	-40.3	-40.9	20.8	0.00e+00	0	56	0	2265972736	43	3843
2026-01-04 07:25:23.24	343.10	22.26	-40.4	-41.0	20.7	0.00e+00	0	56	0	2271215616	43	3876
2026-01-04 07:25:24.22	342.85	22.22	-40.3	-40.9	20.8	0.00e+00	0	56	0	2277507072	43	3863
2026-01-04 07:25:25.21	342.60	22.17	-40.3	-40.9	20.7	0.00e+00	0	56	0	2282749952	43	3852
2026-01-04 07:25:26.21	342.35	22.12	-40.4	-41.0	20.7	0.00e+00	0	56	0	2289041408	43	3882
2026-01-04 07:25:27.20	342.10	22.07	-40.5	-41.1	20.6	0.00e+00	0	56	0	2294284288	43	3926
2026-01-04 07:25:28.19	341.86	22.02	-40.3	-40.9	20.7	0.00e+00	0	56	0	2299527168	43	3848
2026-01-04 07:25:29.17	341.61	21.98	-40.4	-41.0	20.6	0.00e+00	0	56	0	2304770048	43	3898
2026-01-04 07:25:30.15	341.37	21.93	-40.6	-41.2	20.4	0.00e+00	0	56	0	2311061504	43	3997
2026-01-04 07:25:31.14	341.12	21.88	-40.6	-41.2	20.4	0.00e+00	0	56	0	2316304384	43	3995
2026-01-04 07:25:32.13	340.88	21.83	-40.7	-41.4	20.3	0.00e+00	0	56	0	2321547264	43	4059
2026-01-04 07:25:33.12	340.64	21.78	-40.8	-41.4	20.2	0.00e+00	0	56	0	2327838720	43	4098
2026-01-04 07:25:34.11	340.39	21.72	-40.7	-41.3	20.3	0.00e+00	0	56	0	2333081600	43	4033
2026-01-04 07:25:35.11	340.15	21.67	-40.5	-41.1	20.5	0.00e+00	0	56	0	2338324480	43	3935
2026-01-04 07:25:36.10	339.91	21.62	-40.4	-41.0	20.6	0.00e+00	0	56	0	2344615936	43	3896
2026-01-04 07:25:37.10	339.66	21.57	-40.3	-40.9	20.7	0.00e+00	0	56	0	2349858816	43	3846
2026-01-04 07:25:38.09	339.43	21.51	-40.5	-41.2	20.4	0.00e+00	0	56	0	2355101696	43	3972
2026-01-04 07:25:39.07	339.19	21.46	-40.4	-41.0	20.5	0.00e+00	0	56	0	2360344576	43	3902
2026-01-04 07:25:40.06	338.95	21.41	-40.7	-41.4	20.1	0.00e+00	0	56	0	2366636032	43	4065
2026-01-04 07:25:41.06	338.71	21.35	-40.7	-41.4	20.0	0.00e+00	0	56	0	2371878912	43	4060
2026-01-04 07:25:42.05	338.48	21.30	-41.1	-41.8	19.6	0.00e+00	0	56	0	2378170368	43	4253
2026-01-04 07:25:43.04	338.24	21.24	-41.3	-42.0	19.4	0.00e+00	0	56	0	2383413248	44	4141
2026-01-04 07:25:44.02	338.01	21.19	-42.0	-42.8	18.7	0.00e+00	0	56	0	2388656128	45	4247
2026-01-04 07:25:45.01	337.78	21.13	-42.5	-43.3	18.1	0.00e+00	0	56	0	2393899008	46	4284
2026-01-04 07:25:46.00	337.54	21.07	-43.0	-43.9	17.4	0.00e+00	0	56	0	2400190464	47	4300
2026-01-04 07:25:46.99	337.31	21.02	-43.0	-43.9	17.4	0.00e+00	0	56	0	2405433344	47	4307
2026-01-04 07:25:47.98	337.08	20.96	-42.9	-43.8	17.4	0.00e+00	0	56	0	2410676224	47	4274
2026-01-04 07:25:48.97	336.85	20.90	-43.0	-44.0	17.3	0.00e+00	0	56	0	2416967680	47	4353
2026-01-04 07:25:49.95	336.62	20.85	-43.0	-43.9	17.4	0.00e+00	0	56	0	2422210560	47	4321
2026-01-04 07:25:50.95	336.39	20.79	-42.9	-43.9	17.4	0.00e+00	0	56	0	2427453440	47	4305
2026-01-04 07:25:51.94	336.16	20.73	-43.3	-44.2	17.3	0.00e+00	0	56	0	2432696320	48	4209
2026-01-04 07:25:52.93	335.94	20.67	-43.5	-44.5	17.1	0.00e+00	0	56	0	2438987776	48	4345
2026-01-04 07:25:53.92	335.71	20.61	-43.2	-44.1	17.4	0.00e+00	0	56	0	2444230656	48	4181
2026-01-04 07:25:54.91	335.49	20.55	-42.9	-43.8	17.8	0.00e+00	0	56	0	2450522112	48	4008
2026-01-04 07:25:55.90	335.26	20.49	-42.8	-43.6	18.0	0.00e+00	0	56	0	2455764992	48	3944
2026-01-04 07:25:56.88	335.04	20.43	-42.8	-43.6	17.9	0.00e+00	0	56	0	2461007872	48	3956
2026-01-04 07:25:57.87	334.82	20.37	-42.6	-43.4	18.1	0.00e+00	0	56	0	2466250752	48	3854
2026-01-04 07:25:58.87	334.60	20.31	-42.1	-42.9	18.5	0.00e+00	0	56	0	2472542208	47	3847
2026-01-04 07:25:59.85	334.38	20.25	-41.8	-42.5	18.9	0.00e+00	0	56	0	2477785088	46	3888
2026-01-04 07:26:00.84	334.16	20.19	-41.4	-42.1	19.2	0.00e+00	0	56	0	2483027968	46	3721
2026-01-04 07:26:01.83	333.94	20.13	-41.0	-41.7	19.7	0.00e+00	0	56	0	2489319424	45	3753
2026-01-04 07:26:02.82	333.72	20.07	-40.8	-41.4	20.0	0.00e+00	0	56	0	2494562304	44	3851
2026-01-04 07:26:03.81	333.51	20.00	-41.0	-41.7	19.8	0.00e+00	0	56	0	2499805184	44	3964
2026-01-04 07:26:04.79	333.29	19.94	-41.4	-42.1	19.6	0.00e+00	0	56	0	2506096640	44	4152
2026-01-04 07:26:05.78	333.08	19.88	-41.8	-42.5	19.3	0.00e+00	0	56	0	2511339520	45	4110
2026-01-04 07:26:06.77	332.86	19.82	-42.1	-42.8	19.0	0.00e+00	0	56	0	2516582400	45	4272
2026-01-04 07:26:07.76	332.65	19.75	-42.2	-43.0	18.9	0.00e+00	0	56	0	2521825280	46	4105
2026-01-04 07:26:08.75	332.44	19.69	-42.1	-42.8	19.1	0.00e+00	0	56	0	2528116736	46	4030
2026-01-04 07:26:09.74	332.23	19.63	-42.1	-42.8	19.1	0.00e+00	0	56	0	2533359616	46	4034
2026-01-04 07:26:10.73	332.01	19.56	-42.3	-43.0	18.9	0.00e+00	0	56	0	2538602496	46	4122
2026-01-04 07:26:11.72	331.80	19.50	-42.7	-43.4	18.5	0.00e+00	0	56	0	2544893952	47	4093
2026-01-04 07:26:12.71	331.60	19.43	-42.6	-43.3	18.6	0.00e+00	0	56	0	2550136832	47	4044
2026-01-04 07:26:13.70	331.39	19.37	-42.3	-43.0	18.9	0.00e+00	0	56	0	2555379712	47	3902
2026-01-04 07:26:14.69	331.18	19.30	-42.1	-42.8	19.1	0.00e+00	0	56	0	2560622592	47	3809
2026-01-04 07:26:15.68	330.97	19.24	-41.9	-42.6	19.3	0.00e+00	0	56	0	2566914048	47	3729
2026-01-04 07:26:16.67	330.77	19.17	-41.8	-42.5	19.4	0.00e+00	0	56	0	2572156928	46	3880
2026-01-04 07:26:17.67	330.56	19.11	-41.7	-42.4	19.5	0.00e+00	0	56	0	2578448384	46	3846
2026-01-04 07:26:18.66	330.36	19.04	-41.7	-42.3	19.5	0.00e+00	0	56	0	2583691264	46	3818
2026-01-04 07:26:19.65	330.16	18.98	-41.9	-42.6	19.3	0.00e+00	0	56	0	2588934144	46	3914
2026-01-04 07:26:20.64	329.95	18.91	-41.9	-42.6	19.3	0.00e+00	0	56	0	2594177024	46	3936
2026-01-04 07:26:21.64	329.75	18.84	-42.0	-42.7	19.2	0.00e+00	0	56	0	2600468480	46	3987
2026-01-04 07:26:22.63	329.55	18.78	-41.9	-42.6	19.3	0.00e+00	0	56	0	2605711360	46	3945
2026-01-04 07:26:23.62	329.35	18.71	-41.6	-42.2	19.6	0.00e+00	0	56	0	2610954240	46	3779
2026-01-04 07:26:24.60	329.16	18.64	-41.3	-42.0	19.9	0.00e+00	0	56	0	2617245696	45	3879
2026-01-04 07:26:25.59	328.96	18.58	-41.3	-41.9	19.9	0.00e+00	0	56	0	2622488576	45	3866
2026-01-04 07:26:26.58	328.76	18.51	-41.3	-41.9	19.9	0.00e+00	0	56	0	2627731456	45	3852
2026-01-04 07:26:27.57	328.57	18.44	-41.4	-42.0	19.8	0.00e+00	0	56	0	2634022912	45	3909
2026-01-04 07:26:28.56	328.37	18.37	-41.5	-42.2	19.7	0.00e+00	0	56	0	2639265792	45	3968
2026-01-04 07:26:29.55	328.18	18.31	-41.5	-42.2	19.7	0.00e+00	0	56	0	2644508672	45	3981
2026-01-04 07:26:30.53	327.99	18.24	-41.5	-42.2	19.7	0.00e+00	0	56	0	2649751552	45	3979
2026-01-04 07:26:31.51	327.80	18.17	-41.4	-42.1	19.8	0.00e+00	0	56	0	2656043008	45	3920
2026-01-04 07:26:32.50	327.61	18.10	-41.3	-42.0	19.9	0.00e+00	0	56	0	2661285888	45	3882
2026-01-04 07:26:33.50	327.41	18.03	-41.4	-42.0	19.8	0.00e+00	0	56	0	2667577344	45	3904
2026-01-04 07:26:34.49	327.22	17.97	-41.5	-42.2	19.7	0.00e+00	0	56	0	2672820224	45	3971
2026-01-04 07:26:35.47	327.04	17.90	-41.7	-42.4	19.5	0.00e+00	0	56	0	2678063104	45	4062
2026-01-04 07:26:36.47	326.85	17.83	-41.8	-42.5	19.4	0.00e+00	0	56	0	2683305984	45	4106
2026-01-04 07:26:37.46	326.66	17.76	-41.8	-42.5	19.3	0.00e+00	0	56	0	2689597440	45	4132
2026-01-04 07:26:38.44	326.48	17.69	-41.9	-42.6	19.3	0.00e+00	0	56	0	2694840320	45	4170
2026-01-04 07:26:39.42	326.29	17.62	-42.0	-42.7	19.2	0.00e+00	0	56	0	2700083200	45	4228
2026-01-04 07:26:40.41	326.11	17.55	-42.1	-42.9	19.0	0.00e+00	0	56	0	2706374656	46	4053
2026-01-04 07:26:41.40	325.93	17.48	-42.1	-42.8	19.1	0.00e+00	0	56	0	2711617536	46	4018
2026-01-04 07:26:42.39	325.74	17.42	-42.2	-42.9	19.0	0.00e+00	0	56	0	2716860416	46	4062
2026-01-04 07:26:43.37	325.56	17.35	-42.2	-43.0	18.9	0.00e+00	0	56	0	2722103296	46	4112
2026-01-04 07:26:44.37	325.38	17.28	-42.2	-42.9	19.0	0.00e+00	0	56	0	2728394752	46	4096
2026-01-04 07:26:45.35	325.20	17.21	-42.4	-43.1	18.8	0.00e+00	0	56	0	2733637632	46	4174
2026-01-04 07:26:46.35	325.02	17.14	-42.4	-43.2	18.7	0.00e+00	0	56	0	2738880512	46	4200
2026-01-04 07:26:47.34	324.84	17.07	-42.3	-43.0	18.9	0.00e+00	0	56	0	2745171968	46	4113
2026-01-04 07:26:48.32	324.67	17.00	-42.2	-43.0	18.9	0.00e+00	0	56	0	2750414848	46	4109
2026-01-04 07:26:49.31	324.49	16.93	-42.4	-43.2	18.7	0.00e+00	0	56	0	2755657728	46	4197
2026-01-04 07:26:50.30	324.31	16.86	-42.5	-43.2	18.6	0.00e+00	0	56	0	2761949184	46	4227
2026-01-04 07:26:51.28	324.14	16.79	-42.3	-43.0	18.8	0.00e+00	0	56	0	2767192064	46	4141
2026-01-04 07:26:52.26	323.97	16.72	-42.2	-42.9	18.9	0.00e+00	0	56	0	2772434944	46	4086
2026-01-04 07:26:53.25	323.80	16.65	-42.3	-43.0	18.9	0.00e+00	0	56	0	2778726400	46	4132
2026-01-04 07:26:54.24	323.62	16.58	-42.5	-43.2	18.6	0.00e+00	0	56	0	2783969280	46	4230
2026-01-04 07:26:55.23	323.45	16.51	-42.7	-43.5	18.4	0.00e+00	0	56	0	2789212160	47	4128
2026-01-04 07:26:56.21	323.28	16.44	-42.4	-43.2	18.7	0.00e+00	0	56	0	2794455040	47	3982
2026-01-04 07:26:57.21	323.11	16.37	-42.2	-43.0	18.9	0.00e+00	0	56	0	2800746496	47	3874
2026-01-04 07:26:58.19	322.94	16.30	-42.1	-42.9	19.0	0.00e+00	0	56	0	2805989376	47	3833
2026-01-04 07:26:59.17	322.78	16.23	-42.1	-42.8	19.0	0.00e+00	0	57	0	2811232256	47	3821
2026-01-04 07:27:00.17	322.61	16.15	-42.1	-42.9	19.0	0.00e+00	0	56	0	2817523712	47	3834
2026-01-04 07:27:01.15	322.44	16.08	-42.2	-43.0	18.9	0.00e+00	0	56	0	2822766592	47	3871
2026-01-04 07:27:02.14	322.27	16.01	-42.3	-43.1	18.8	0.00e+00	0	56	0	2828009472	47	3937
2026-01-04 07:27:03.12	322.11	15.94	-42.2	-42.9	18.9	0.00e+00	0	56	0	2833252352	47	3844
2026-01-04 07:27:04.11	321.95	15.87	-42.1	-42.8	19.0	0.00e+00	0	56	0	2839543808	47	3821
2026-01-04 07:27:05.11	321.78	15.80	-42.2	-42.9	18.9	0.00e+00	0	56	0	2844786688	47	3854
2026-01-04 07:27:06.09	321.62	15.73	-42.1	-42.9	19.0	0.00e+00	0	56	0	2850029568	47	3827
2026-01-04 07:27:07.07	321.46	15.66	-42.2	-42.9	18.9	0.00e+00	0	56	0	2856321024	47	3849
2026-01-04 07:27:08.06	321.30	15.59	-42.3	-43.1	18.8	0.00e+00	0	56	0	2861563904	47	3915
2026-01-04 07:27:09.05	321.14	15.52	-42.5	-43.3	18.6	0.00e+00	0	56	0	2866806784	47	4007
2026-01-04 07:27:10.03	320.98	15.45	-42.3	-43.0	18.8	0.00e+00	0	56	0	2872049664	47	3886
2026-01-04 07:27:11.03	320.82	15.38	-42.1	-42.8	19.0	0.00e+00	0	56	0	2878341120	47	3805
2026-01-04 07:27:12.01	320.66	15.30	-42.1	-42.8	19.1	0.00e+00	0	56	0	2883584000	47	3789
2026-01-04 07:27:13.00	320.50	15.23	-42.1	-42.8	19.0	0.00e+00	0	56	0	2888826880	47	3800
2026-01-04 07:27:13.99	320.35	15.16	-42.3	-43.0	18.9	0.00e+00	0	56	0	2895118336	47	3883
2026-01-04 07:27:14.98	320.19	15.09	-42.2	-42.9	18.9	0.00e+00	0	56	0	2900361216	47	3863
2026-01-04 07:27:15.96	320.04	15.02	-42.4	-43.1	18.7	0.00e+00	0	56	0	2905604096	47	3937
2026-01-04 07:27:16.95	319.88	14.95	-42.3	-43.0	18.8	0.00e+00	0	56	0	2911895552	47	3901
2026-01-04 07:27:17.94	319.73	14.88	-42.4	-43.2	18.6	0.00e+00	0	56	0	2917138432	47	3973
2026-01-04 07:27:18.93	319.58	14.81	-42.4	-43.1	18.7	0.00e+00	0	56	0	2922381312	47	3934
2026-01-04 07:27:19.92	319.42	14.74	-42.5	-43.2	18.6	0.00e+00	0	56	0	2927624192	47	3993
2026-01-04 07:27:20.91	319.27	14.67	-42.4	-43.2	18.7	0.00e+00	0	56	0	2933915648	47	3959
2026-01-04 07:27:21.90	319.12	14.59	-42.6	-43.4	18.4	0.00e+00	0	57	0	2939158528	47	4066
2026-01-04 07:27:22.87	318.97	14.52	-42.5	-43.3	18.5	0.00e+00	0	57	0	2944401408	47	4029
2026-01-04 07:27:23.86	318.82	14.45	-42.5	-43.2	18.6	0.00e+00	0	56	0	2950692864	47	4004
2026-01-04 07:27:24.85	318.68	14.38	-42.5	-43.3	18.6	0.00e+00	0	56	0	2955935744	47	4016
2026-01-04 07:27:25.83	318.53	14.31	-42.6	-43.3	18.5	0.00e+00	0	56	0	2961178624	47	4050
2026-01-04 07:27:26.83	318.38	14.24	-42.6	-43.4	18.4	0.00e+00	0	56	0	2966421504	47	4071
2026-01-04 07:27:27.81	318.24	14.17	-42.6	-43.4	18.4	0.00e+00	0	56	0	2972712960	47	4061
2026-01-04 07:27:28.79	318.09	14.10	-42.7	-43.5	18.3	0.00e+00	0	56	0	2977955840	47	4118
2026-01-04 07:27:29.78	317.95	14.03	-42.9	-43.7	18.1	0.00e+00	0	56	0	2983198720	47	4215
2026-01-04 07:27:30.76	317.80	13.96	-42.9	-43.7	18.1	0.00e+00	0	57	0	2989490176	47	4215
2026-01-04 07:27:31.75	317.66	13.89	-43.0	-43.8	18.0	0.00e+00	0	56	0	2994733056	47	4274
2026-01-04 07:27:32.75	317.52	13.81	-43.4	-44.2	17.8	0.00e+00	0	57	0	2999975936	48	4207
2026-01-04 07:27:33.74	317.37	13.74	-43.3	-44.1	17.9	0.00e+00	0	56	0	3006267392	48	4159
2026-01-04 07:27:34.73	317.23	13.67	-43.1	-43.9	18.0	0.00e+00	0	57	0	3011510272	48	4088
2026-01-04 07:27:35.73	317.09	13.60	-43.0	-43.8	18.1	0.00e+00	0	56	0	3016753152	48	4043
2026-01-04 07:27:36.72	316.95	13.53	-43.1	-43.9	18.1	0.00e+00	0	56	0	3023044608	48	4056
2026-01-04 07:27:37.71	316.81	13.46	-43.1	-43.9	18.0	0.00e+00	0	56	0	3028287488	48	4079
2026-01-04 07:27:38.70	316.67	13.39	-43.4	-44.2	17.8	0.00e+00	0	56	0	3033530368	48	4204
2026-01-04 07:27:39.69	316.53	13.32	-43.4	-44.2	17.8	0.00e+00	0	56	0	3038773248	48	4208
2026-01-04 07:27:40.67	316.40	13.25	-43.1	-43.9	18.0	0.00e+00	0	57	0	3045064704	48	4092
2026-01-04 07:27:41.66	316.26	13.18	-43.0	-43.9	18.1	0.00e+00	0	57	0	3050307584	48	4053
2026-01-04 07:27:42.66	316.12	13.11	-43.0	-43.8	18.1	0.00e+00	0	56	0	3056599040	48	4049
2026-01-04 07:27:43.64	315.99	13.04	-43.0	-43.9	18.1	0.00e+00	0	56	0	3061841920	48	4068
2026-01-04 07:27:44.63	315.85	12.97	-43.1	-43.9	18.1	0.00e+00	0	56	0	3067084800	48	4073
2026-01-04 07:27:45.62	315.72	12.90	-43.1	-44.0	18.0	0.00e+00	0	56	0	3072327680	48	4115
2026-01-04 07:27:46.60	315.59	12.83	-43.3	-44.1	17.8	0.00e+00	0	56	0	3078619136	48	4177
2026-01-04 07:27:47.59	315.45	12.76	-43.2	-44.1	17.9	0.00e+00	0	56	0	3083862016	48	4146
2026-01-04 07:27:48.59	315.32	12.68	-43.1	-43.9	18.0	0.00e+00	0	56	0	3089104896	48	4055
2026-01-04 07:27:49.57	315.19	12.61	-43.0	-43.8	18.1	0.00e+00	0	57	0	3095396352	48	4021
2026-01-04 07:27:50.56	315.06	12.54	-43.1	-43.9	18.1	0.00e+00	0	56	0	3100639232	48	4058
2026-01-04 07:27:51.55	314.93	12.47	-43.2	-44.0	18.0	0.00e+00	0	56	0	3105882112	48	4117
2026-01-04 07:27:52.54	314.80	12.40	-43.2	-44.0	17.9	0.00e+00	0	57	0	3112173568	48	4134
2026-01-04 07:27:53.54	314.67	12.33	-43.2	-44.1	17.8	0.00e+00	0	57	0	3117416448	48	4154
2026-01-04 07:27:54.53	314.54	12.26	-43.4	-44.2	17.7	0.00e+00	0	56	0	3122659328	48	4228
2026-01-04 07:27:55.52	314.41	12.19	-43.4	-44.3	17.6	0.00e+00	0	56	0	3127902208	48	4264
2026-01-04 07:27:56.51	314.29	12.12	-43.4	-44.3	17.6	0.00e+00	0	57	0	3134193664	48	4265
2026-01-04 07:27:57.50	314.16	12.05	-43.6	-44.5	17.5	0.00e+00	0	56	0	3139436544	48	4341
2026-01-04 07:27:58.49	314.03	11.98	-43.6	-44.4	17.5	0.00e+00	0	56	0	3145728000	49	4084
2026-01-04 07:27:59.49	313.91	11.91	-43.6	-44.5	17.5	0.00e+00	0	57	0	3150970880	49	4099
2026-01-04 07:28:00.48	313.78	11.84	-43.8	-44.7	17.2	0.00e+00	0	56	0	3156213760	49	4208
2026-01-04 07:28:01.47	313.66	11.77	-43.9	-44.8	17.1	0.00e+00	0	56	0	3161456640	49	4271
2026-01-04 07:28:02.47	313.53	11.70	-43.9	-44.8	17.1	0.00e+00	0	57	0	3167748096	49	4269
2026-01-04 07:28:03.46	313.41	11.63	-43.9	-44.8	17.1	0.00e+00	0	56	0	3172990976	49	4277
2026-01-04 07:28:04.44	313.29	11.57	-43.8	-44.7	17.2	0.00e+00	0	57	0	3178233856	49	4232
2026-01-04 07:28:05.44	313.17	11.50	-43.8	-44.7	17.2	0.00e+00	0	57	0	3184525312	49	4208
2026-01-04 07:28:06.43	313.05	11.43	-43.8	-44.7	17.2	0.00e+00	0	57	0	3189768192	49	4218
2026-01-04 07:28:07.42	312.92	11.36	-44.0	-44.9	17.0	0.00e+00	0	57	0	3195011072	49	4327
2026-01-04 07:28:08.41	312.80	11.29	-44.1	-45.0	16.9	0.00e+00	0	57	0	3201302528	50	4144
2026-01-04 07:28:09.41	312.68	11.22	-44.1	-45.1	16.8	0.00e+00	0	57	0	3206545408	50	4154
2026-01-04 07:28:10.40	312.57	11.15	-44.3	-45.2	16.7	0.00e+00	0	56	0	3211788288	50	4226
2026-01-04 07:28:11.39	312.45	11.08	-44.2	-45.2	16.7	0.00e+00	0	56	0	3217031168	50	4207
2026-01-04 07:28:12.38	312.33	11.01	-44.4	-45.4	16.5	0.00e+00	0	56	0	3223322624	50	4325
2026-01-04 07:28:13.37	312.21	10.94	-44.2	-45.2	16.7	0.00e+00	0	57	0	3228565504	50	4230
2026-01-04 07:28:14.36	312.10	10.87	-44.1	-45.0	16.9	0.00e+00	0	56	0	3234856960	50	4128
2026-01-04 07:28:15.34	311.98	10.81	-44.0	-45.0	16.9	0.00e+00	0	57	0	3240099840	50	4119
2026-01-04 07:28:16.34	311.86	10.74	-44.1	-45.1	16.8	0.00e+00	0	56	0	3245342720	50	4173
2026-01-04 07:28:17.33	311.75	10.67	-44.1	-45.0	16.8	0.00e+00	0	57	0	3250585600	50	4142
2026-01-04 07:28:18.31	311.64	10.60	-44.1	-45.1	16.8	0.00e+00	0	57	0	3256877056	50	4156
2026-01-04 07:28:19.30	311.52	10.53	-44.2	-45.2	16.7	0.00e+00	0	57	0	3262119936	50	4212
2026-01-04 07:28:20.30	311.41	10.46	-44.1	-45.1	16.7	0.00e+00	0	57	0	3267362816	50	4173
2026-01-04 07:28:21.29	311.30	10.40	-44.1	-45.1	16.7	0.00e+00	0	57	0	3273654272	50	4169
2026-01-04 07:28:22.27	311.18	10.33	-44.2	-45.2	16.7	0.00e+00	0	57	0	3278897152	50	4225
2026-01-04 07:28:23.26	311.07	10.26	-44.3	-45.3	16.6	0.00e+00	0	56	0	3284140032	50	4268
2026-01-04 07:28:24.25	310.96	10.19	-44.2	-45.2	16.6	0.00e+00	0	57	0	3290431488	50	4225
2026-01-04 07:28:25.23	310.85	10.12	-44.3	-45.3	16.5	0.00e+00	0	57	0	3295674368	50	4288
2026-01-04 07:28:26.22	310.74	10.06	-44.2	-45.1	16.7	0.00e+00	0	56	0	3300917248	50	4190
2026-01-04 07:28:27.20	310.63	9.99	-44.0	-45.0	16.9	0.00e+00	0	57	0	3306160128	50	4107
2026-01-04 07:28:28.19	310.52	9.92	-44.0	-44.9	16.9	0.00e+00	0	56	0	3312451584	50	4093
2026-01-04 07:28:29.17	310.42	9.86	-44.1	-45.0	16.8	0.00e+00	0	57	0	3317694464	50	4134
2026-01-04 07:28:30.15	310.31	9.79	-44.2	-45.1	16.7	0.00e+00	0	57	0	3322937344	50	4191
2026-01-04 07:28:31.13	310.20	9.72	-44.0	-44.9	16.9	0.00e+00	0	57	0	3328180224	50	4085
2026-01-04 07:28:32.12	310.10	9.65	-43.9	-44.9	16.9	0.00e+00	0	57	0	3334471680	50	4070
2026-01-04 07:28:33.11	309.99	9.59	-44.1	-45.0	16.8	0.00e+00	0	57	0	3339714560	50	4127
2026-01-04 07:28:34.11	309.88	9.52	-44.2	-45.3	16.5	0.00e+00	0	57	0	3346006016	50	4247
2026-01-04 07:28:35.10	309.78	9.45	-44.1	-45.1	16.7	0.00e+00	0	57	0	3351248896	50	4153
2026-01-04 07:28:36.09	309.67	9.39	-44.3	-45.3	16.5	0.00e+00	0	57	0	3356491776	50	4262
2026-01-04 07:28:37.08	309.57	9.32	-44.2	-45.2	16.5	0.00e+00	0	57	0	3361734656	50	4241
2026-01-04 07:28:38.08	309.46	9.25	-44.4	-45.5	16.3	0.00e+00	0	57	0	3368026112	50	4352
2026-01-04 07:28:39.07	309.36	9.19	-44.3	-45.4	16.4	0.00e+00	0	57	0	3373268992	50	4293
2026-01-04 07:28:40.06	309.26	9.12	-44.6	-45.6	16.2	0.00e+00	0	57	0	3378511872	50	4419
2026-01-04 07:28:41.05	309.15	9.05	-44.7	-45.8	16.0	0.00e+00	0	56	0	3384803328	51	4281
2026-01-04 07:28:42.04	309.05	8.99	-44.5	-45.6	16.2	0.00e+00	0	57	0	3390046208	51	4151
2026-01-04 07:28:43.03	308.95	8.92	-44.5	-45.5	16.3	0.00e+00	0	57	0	3395289088	51	4119
2026-01-04 07:28:44.01	308.85	8.85	-44.4	-45.5	16.2	0.00e+00	0	57	0	3401580544	51	4125
2026-01-04 07:28:45.00	308.75	8.79	-44.6	-45.7	16.1	0.00e+00	0	56	0	3406823424	51	4209
2026-01-04 07:28:46.00	308.65	8.72	-44.8	-45.9	15.9	0.00e+00	0	57	0	3412066304	51	4318
2026-01-04 07:28:46.99	308.55	8.65	-44.6	-45.7	16.0	0.00e+00	0	57	0	3417309184	51	4217
2026-01-04 07:28:47.98	308.45	8.59	-44.5	-45.6	16.1	0.00e+00	0	57	0	3423600640	51	4150
2026-01-04 07:28:48.97	308.35	8.52	-44.4	-45.4	16.3	0.00e+00	0	57	0	3428843520	51	4081
2026-01-04 07:28:49.96	308.25	8.46	-44.3	-45.3	16.4	0.00e+00	0	57	0	3435134976	51	4050
2026-01-04 07:28:50.94	308.16	8.39	-44.5	-45.5	16.1	0.00e+00	0	57	0	3440377856	51	4144
2026-01-04 07:28:51.92	308.06	8.33	-44.6	-45.7	16.0	0.00e+00	0	56	0	3445620736	51	4241
2026-01-04 07:28:52.91	307.96	8.26	-44.6	-45.7	16.0	0.00e+00	0	56	0	3450863616	51	4200
2026-01-04 07:28:53.91	307.87	8.20	-44.7	-45.8	15.8	0.00e+00	0	57	0	3457155072	51	4279
2026-01-04 07:28:54.90	307.77	8.13	-44.7	-45.8	15.9	0.00e+00	0	57	0	3462397952	51	4267
2026-01-04 07:28:55.90	307.67	8.07	-44.6	-45.8	15.9	0.00e+00	0	57	0	3467640832	51	4245
2026-01-04 07:28:56.88	307.58	8.00	-44.8	-45.9	15.7	0.00e+00	0	56	0	3473932288	51	4329
2026-01-04 07:28:57.86	307.49	7.94	-44.6	-45.8	15.9	0.00e+00	0	57	0	3479175168	51	4243
2026-01-04 07:28:58.85	307.39	7.87	-44.8	-45.9	15.7	0.00e+00	0	57	0	3484418048	51	4310
2026-01-04 07:28:59.84	307.30	7.81	-44.7	-45.8	15.8	0.00e+00	0	57	0	3489660928	51	4290
2026-01-04 07:29:00.83	307.20	7.74	-45.0	-46.2	15.4	0.00e+00	0	57	0	3495952384	51	4476
2026-01-04 07:29:01.82	307.11	7.68	-44.9	-46.0	15.5	1.10e-06	0	57	0	3501195264	51	4384
2026-01-04 07:29:02.81	307.02	7.61	-44.8	-46.0	15.6	0.00e+00	0	57	0	3506438144	51	4358
2026-01-04 07:29:03.80	306.93	7.55	-44.9	-46.1	15.4	0.00e+00	0	57	0	3512729600	51	4418
2026-01-04 07:29:04.79	306.83	7.48	-45.1	-46.3	15.1	0.00e+00	0	57	0	3517972480	52	4287
2026-01-04 07:29:05.78	306.74	7.42	-45.0	-46.2	15.2	0.00e+00	0	57	0	3523215360	52	4230
2026-01-04 07:29:06.78	306.65	7.36	-44.9	-46.1	15.3	0.00e+00	0	57	0	3529506816	52	4149
2026-01-04 07:29:07.76	306.56	7.29	-44.6	-45.8	15.5	0.00e+00	0	57	0	3534749696	52	4018
2026-01-04 07:29:08.74	306.47	7.23	-44.7	-45.8	15.4	0.00e+00	0	57	0	3539992576	52	4048
2026-01-04 07:29:09.73	306.38	7.16	-44.7	-46.0	15.3	0.00e+00	0	57	0	3545235456	52	4099
2026-01-04 07:29:10.72	306.29	7.10	-44.8	-46.1	15.2	0.00e+00	0	57	0	3551526912	52	4158
2026-01-04 07:29:11.72	306.20	7.04	-45.1	-46.4	14.9	0.00e+00	0	57	0	3556769792	52	4293
2026-01-04 07:29:12.71	306.12	6.97	-45.1	-46.4	14.8	0.00e+00	0	57	0	3563061248	52	4306
2026-01-04 07:29:13.70	306.03	6.91	-45.1	-46.5	14.7	1.10e-06	0	57	0	3568304128	52	4355
2026-01-04 07:29:14.70	305.94	6.85	-45.3	-46.6	14.5	1.10e-06	0	57	0	3573547008	52	4441
2026-01-04 07:29:15.69	305.85	6.78	-45.2	-46.6	14.5	2.20e-06	0	57	0	3578789888	52	4416
2026-01-04 07:29:16.67	305.77	6.72	-45.3	-46.6	14.5	0.00e+00	0	57	0	3585081344	52	4440
2026-01-04 07:29:17.67	305.68	6.66	-45.3	-46.7	14.4	2.20e-06	0	57	0	3590324224	52	4461
2026-01-04 07:29:18.66	305.59	6.59	-45.4	-46.8	14.3	1.10e-06	0	57	0	3595567104	52	4508
2026-01-04 07:29:19.65	305.51	6.53	-45.4	-46.8	14.3	0.00e+00	0	57	0	3601858560	52	4513
2026-01-04 07:29:20.64	305.42	6.47	-45.3	-46.7	14.3	1.10e-06	0	57	0	3607101440	52	4467
2026-01-04 07:29:21.64	305.34	6.40	-45.3	-46.7	14.4	0.00e+00	0	57	0	3612344320	52	4448
2026-01-04 07:29:22.62	305.25	6.34	-45.2	-46.5	14.5	0.00e+00	0	57	0	3618635776	52	4383
2026-01-04 07:29:23.62	305.17	6.28	-45.2	-46.6	14.4	0.00e+00	0	57	0	3623878656	52	4404
2026-01-04 07:29:24.61	305.08	6.22	-45.3	-46.7	14.3	0.00e+00	0	57	0	3629121536	52	4443
2026-01-04 07:29:25.59	305.00	6.15	-45.4	-46.9	14.0	3.40e-06	0	57	0	3635412992	52	4559
2026-01-04 07:29:26.58	304.92	6.09	-45.3	-46.8	14.1	5.70e-06	0	57	0	3640655872	52	4524
2026-01-04 07:29:27.57	304.84	6.03	-45.4	-46.8	14.0	3.40e-06	0	57	0	3645898752	52	4535
2026-01-04 07:29:28.56	304.75	5.97	-45.4	-46.9	13.9	4.50e-06	0	57	0	3652190208	52	4567
2026-01-04 07:29:29.55	304.67	5.90	-45.6	-47.1	13.6	6.80e-06	0	57	0	3657433088	53	4441
2026-01-04 07:29:30.53	304.59	5.84	-45.6	-47.2	13.6	1.02e-05	0	57	0	3662675968	53	4487
