passes_logs/2026/01/04/R3.0SM8_Murmansk_STILSPACE/R3.0SM8_Murmansk_STILSPACE__20260104_043728_SUOMI_NPP_rec.log

#Pass ID: 20260104_043728_SUOMI NPP
#Satellite: SUOMI NPP
#Configuration: NPP
#almurnet v.1.7.20240730
#Start time: 2026-01-04 04:37:29

#Version: 2.2.20231116
#Station: R3.0SM8_Murmansk_STILSPACE
#Location: 33.092731 lon 68.902999 lat
#TLE: 1 37849U 11061A   26001.07732418  .00000182  00000+0  10735-3 0  9990
#TLE: 2 37849  98.7795 303.2470 0002580  87.2016 272.9455 14.19520779734739

#Time	Az	El	Level	Level2	SNR	BER	BlckErr	Temp	State	Recorded	gain1	gain2
2026-01-04 04:37:29.42	52.50	3.07	-52.3	-66.1	3.8	1.49e+00	0	45	0	0	67	17603
2026-01-04 04:37:30.40	52.43	3.13	-52.1	-65.9	3.8	1.49e+00	0	46	104	0	67	17234
2026-01-04 04:37:31.39	52.37	3.19	-52.0	-65.8	3.8	1.49e+00	0	46	104	0	66	18060
2026-01-04 04:37:32.38	52.30	3.25	-52.0	-65.7	3.8	1.49e+00	0	46	104	0	66	17849
2026-01-04 04:37:33.37	52.23	3.30	-51.8	-65.5	3.8	1.49e+00	0	46	104	0	66	17478
2026-01-04 04:37:34.35	52.16	3.36	-51.5	-65.3	3.8	1.49e+00	0	46	104	0	66	16899
2026-01-04 04:37:35.34	52.10	3.42	-51.4	-65.2	3.8	1.49e+00	0	46	104	0	65	17761
2026-01-04 04:37:36.34	52.03	3.48	-51.3	-65.2	3.8	1.49e+00	0	46	104	0	65	17740
2026-01-04 04:37:37.33	51.96	3.54	-51.4	-65.2	3.8	1.49e+00	0	46	104	0	65	17705
2026-01-04 04:37:38.33	51.89	3.60	-51.4	-65.2	3.8	1.49e+00	0	46	104	0	65	17725
2026-01-04 04:37:39.31	51.82	3.65	-51.4	-65.1	3.8	1.49e+00	0	46	104	0	65	17649
2026-01-04 04:37:40.31	51.75	3.71	-51.4	-65.1	3.8	1.49e+00	0	46	104	0	65	17669
2026-01-04 04:37:41.29	51.68	3.77	-51.3	-65.1	3.8	1.49e+00	0	47	104	0	65	17596
2026-01-04 04:37:42.28	51.61	3.83	-51.4	-65.1	3.8	1.49e+00	0	46	104	0	65	17619
2026-01-04 04:37:43.27	51.54	3.89	-51.4	-65.2	3.8	1.49e+00	0	46	104	0	65	17731
2026-01-04 04:37:44.26	51.47	3.95	-51.3	-65.2	3.8	1.49e+00	0	47	104	0	65	17708
2026-01-04 04:37:45.26	51.40	4.01	-51.4	-65.2	3.8	1.49e+00	0	47	104	0	65	17763
2026-01-04 04:37:46.25	51.33	4.07	-51.4	-65.1	3.8	1.49e+00	0	47	104	0	65	17641
2026-01-04 04:37:47.24	51.25	4.13	-51.4	-65.1	3.8	1.49e+00	0	47	104	0	65	17634
2026-01-04 04:37:48.22	51.18	4.19	-51.4	-65.0	3.8	1.49e+00	0	47	104	0	65	17367
2026-01-04 04:37:49.21	51.11	4.25	-51.4	-64.8	3.8	1.49e+00	0	47	104	0	65	16996
2026-01-04 04:37:50.19	51.04	4.30	-51.4	-64.6	3.8	1.49e+00	0	47	104	0	65	16515
2026-01-04 04:37:51.19	50.96	4.36	-51.3	-64.2	3.8	1.49e+00	0	47	104	0	65	15777
2026-01-04 04:37:52.17	50.89	4.42	-51.3	-63.6	3.8	1.49e+00	0	47	104	0	65	14831
2026-01-04 04:37:53.16	50.82	4.48	-51.3	-63.0	3.9	1.49e+00	0	47	104	0	65	13868
2026-01-04 04:37:54.14	50.75	4.54	-51.1	-62.2	3.9	1.47e+00	0	47	104	0	65	12577
2026-01-04 04:37:55.13	50.67	4.60	-51.1	-61.3	4.3	1.40e+00	0	47	0	0	65	11349
2026-01-04 04:37:56.12	50.60	4.66	-51.0	-60.3	4.7	9.43e-01	0	48	0	1048576	65	10092
2026-01-04 04:37:57.12	50.52	4.72	-50.9	-59.9	4.9	8.02e-01	0	48	0	3145728	64	10221
2026-01-04 04:37:58.11	50.45	4.78	-50.8	-59.2	5.3	6.97e-01	0	48	0	5242880	64	9398
2026-01-04 04:37:59.10	50.37	4.84	-50.6	-58.5	5.7	4.88e-01	0	48	0	6291456	64	8726
2026-01-04 04:38:00.08	50.30	4.90	-50.6	-58.5	5.7	3.62e-01	0	48	0	8388608	64	8710
2026-01-04 04:38:01.07	50.22	4.96	-50.6	-58.1	6.0	3.52e-01	0	48	0	10485760	64	8309
2026-01-04 04:38:02.06	50.14	5.03	-50.5	-57.5	6.5	2.56e-01	0	48	0	12582912	64	7737
2026-01-04 04:38:03.05	50.07	5.09	-50.6	-57.9	6.2	2.54e-01	0	48	0	14680064	64	8117
2026-01-04 04:38:04.04	49.99	5.15	-50.6	-57.8	6.2	2.64e-01	0	48	0	15728640	64	8051
2026-01-04 04:38:05.03	49.91	5.21	-50.6	-57.7	6.4	2.91e-01	0	48	0	17825792	64	7904
2026-01-04 04:38:06.02	49.83	5.27	-50.5	-57.6	6.4	2.63e-01	0	48	0	19922944	64	7861
2026-01-04 04:38:07.01	49.76	5.33	-50.5	-57.6	6.4	2.49e-01	0	48	0	22020096	64	7811
2026-01-04 04:38:07.99	49.68	5.39	-50.6	-57.6	6.4	2.27e-01	0	48	0	23068672	64	7839
2026-01-04 04:38:08.98	49.60	5.45	-50.8	-58.5	5.8	3.04e-01	0	48	0	25165824	64	8718
2026-01-04 04:38:09.97	49.52	5.51	-50.5	-57.5	6.6	3.13e-01	0	48	0	27262976	64	7722
2026-01-04 04:38:10.97	49.44	5.58	-50.5	-56.9	7.1	1.67e-01	0	48	0	29360128	63	7716
2026-01-04 04:38:11.96	49.36	5.64	-50.2	-56.1	7.9	8.79e-02	0	49	0	30408704	63	6973
2026-01-04 04:38:12.94	49.28	5.70	-50.0	-55.3	8.7	4.80e-02	0	49	0	32505856	63	6397
2026-01-04 04:38:13.93	49.20	5.76	-49.9	-54.9	9.0	3.25e-02	0	49	0	34603008	62	6491
2026-01-04 04:38:14.92	49.12	5.82	-49.8	-54.7	9.3	1.66e-02	0	49	0	36700160	62	6285
2026-01-04 04:38:15.91	49.04	5.88	-49.6	-54.1	9.9	1.17e-02	0	49	0	38797312	62	5901
2026-01-04 04:38:16.91	48.95	5.95	-49.3	-53.7	10.3	7.05e-03	0	49	0	39845888	61	5928
2026-01-04 04:38:17.89	48.87	6.01	-49.0	-53.1	11.0	3.58e-03	0	49	0	41943040	61	5531
2026-01-04 04:38:18.87	48.79	6.07	-49.1	-53.0	11.1	1.74e-03	0	49	0	44040192	61	5469
2026-01-04 04:38:19.86	48.71	6.13	-49.0	-52.8	11.4	1.07e-03	0	49	0	46137344	60	5663
2026-01-04 04:38:20.84	48.63	6.19	-49.2	-53.2	10.9	1.54e-03	0	49	0	47185920	60	5982
2026-01-04 04:38:21.84	48.54	6.26	-49.2	-53.3	10.8	2.42e-03	0	49	0	49283072	60	5994
2026-01-04 04:38:22.84	48.46	6.32	-49.0	-52.8	11.3	1.06e-03	0	49	0	51380224	60	5697
2026-01-04 04:38:23.82	48.37	6.38	-48.8	-52.4	11.7	6.28e-04	0	49	0	53477376	60	5463
2026-01-04 04:38:24.81	48.29	6.44	-48.9	-52.4	11.8	4.55e-04	0	49	0	54525952	60	5412
2026-01-04 04:38:25.80	48.20	6.51	-48.9	-52.6	11.6	6.84e-04	0	49	0	56623104	60	5578
2026-01-04 04:38:26.78	48.12	6.57	-48.9	-52.5	11.8	5.21e-04	0	49	0	58720256	60	5486
2026-01-04 04:38:27.77	48.03	6.63	-49.0	-52.9	11.4	8.96e-04	0	49	0	60817408	60	5733
2026-01-04 04:38:28.76	47.95	6.70	-49.1	-52.9	11.4	1.72e-03	0	49	0	62914560	60	5733
2026-01-04 04:38:29.74	47.86	6.76	-48.8	-52.3	11.9	5.35e-04	0	49	0	63963136	60	5383
2026-01-04 04:38:30.72	47.78	6.82	-48.6	-51.9	12.3	1.82e-04	0	49	0	66060288	60	5126
2026-01-04 04:38:31.70	47.69	6.88	-48.5	-51.8	12.4	1.46e-04	0	49	0	68157440	60	5090
2026-01-04 04:38:32.69	47.60	6.95	-48.5	-51.8	12.5	1.82e-04	0	50	0	70254592	60	5052
2026-01-04 04:38:33.68	47.51	7.01	-48.9	-52.5	11.8	2.79e-04	0	50	0	71303168	60	5482
2026-01-04 04:38:34.67	47.43	7.07	-48.9	-52.4	11.8	3.52e-04	0	50	0	73400320	60	5458
2026-01-04 04:38:35.66	47.34	7.14	-48.9	-52.5	11.8	4.42e-04	0	50	0	75497472	60	5506
2026-01-04 04:38:36.65	47.25	7.20	-48.9	-52.5	11.8	5.80e-04	0	50	0	77594624	60	5486
2026-01-04 04:38:37.64	47.16	7.27	-49.0	-52.5	11.7	6.51e-04	0	50	0	78643200	60	5526
2026-01-04 04:38:38.63	47.07	7.33	-49.0	-52.6	11.6	6.21e-04	0	50	0	80740352	60	5571
2026-01-04 04:38:39.61	46.98	7.39	-49.0	-52.7	11.6	5.22e-04	0	50	0	82837504	60	5610
2026-01-04 04:38:40.60	46.89	7.46	-49.2	-53.1	11.2	1.00e-03	0	50	0	84934656	60	5891
2026-01-04 04:38:41.59	46.80	7.52	-49.1	-52.9	11.3	1.27e-03	0	50	0	85983232	60	5787
2026-01-04 04:38:42.58	46.70	7.59	-49.1	-52.8	11.5	8.28e-04	0	50	0	88080384	60	5686
2026-01-04 04:38:43.58	46.61	7.65	-48.9	-52.5	11.8	9.08e-04	0	50	0	90177536	60	5472
2026-01-04 04:38:44.56	46.52	7.71	-48.9	-52.4	11.9	3.59e-04	0	50	0	92274688	60	5427
2026-01-04 04:38:45.55	46.43	7.78	-48.8	-52.5	11.9	3.89e-04	0	50	0	94371840	60	5467
2026-01-04 04:38:46.54	46.33	7.84	-48.8	-52.2	12.1	3.22e-04	0	50	0	95420416	60	5339
2026-01-04 04:38:47.52	46.24	7.91	-48.8	-52.3	11.9	3.50e-04	0	50	0	97517568	60	5399
2026-01-04 04:38:48.51	46.14	7.97	-48.8	-52.2	12.1	2.82e-04	0	50	0	99614720	60	5333
2026-01-04 04:38:49.51	46.05	8.04	-48.9	-52.4	12.0	3.05e-04	0	50	0	101711872	60	5405
2026-01-04 04:38:50.50	45.95	8.10	-48.8	-52.2	12.2	2.31e-04	0	50	0	102760448	60	5292
2026-01-04 04:38:51.49	45.86	8.17	-48.7	-52.0	12.3	2.17e-04	0	50	0	104857600	60	5205
2026-01-04 04:38:52.48	45.76	8.23	-48.7	-52.1	12.3	1.95e-04	0	51	0	106954752	60	5220
2026-01-04 04:38:53.47	45.67	8.30	-48.7	-52.0	12.4	1.44e-04	0	51	0	109051904	60	5165
2026-01-04 04:38:54.46	45.57	8.36	-48.5	-51.5	12.9	1.01e-04	0	50	0	110100480	60	4912
2026-01-04 04:38:55.44	45.47	8.43	-48.6	-51.6	12.9	4.11e-05	0	51	0	112197632	59	5234
2026-01-04 04:38:56.43	45.37	8.50	-48.6	-51.6	12.8	7.62e-05	0	51	0	114294784	59	5274
2026-01-04 04:38:57.42	45.28	8.56	-48.5	-51.4	13.0	3.12e-05	0	51	0	116391936	59	5152
2026-01-04 04:38:58.41	45.18	8.63	-48.4	-51.3	13.1	2.82e-05	0	51	0	118489088	59	5084
2026-01-04 04:38:59.40	45.08	8.69	-48.5	-51.4	13.0	3.96e-05	0	51	0	119537664	59	5141
2026-01-04 04:39:00.39	44.98	8.76	-48.3	-51.2	13.3	1.75e-05	0	51	0	121634816	59	5029
2026-01-04 04:39:01.37	44.88	8.82	-48.4	-51.3	13.2	1.83e-05	0	51	0	123731968	59	5052
2026-01-04 04:39:02.37	44.78	8.89	-48.4	-51.3	13.2	1.98e-05	0	51	0	125829120	59	5064
2026-01-04 04:39:03.36	44.68	8.96	-48.5	-51.4	13.1	2.36e-05	0	51	0	126877696	59	5139
2026-01-04 04:39:04.34	44.57	9.02	-48.4	-51.3	13.2	3.43e-05	0	51	0	128974848	59	5051
2026-01-04 04:39:05.33	44.47	9.09	-48.3	-51.0	13.4	1.60e-05	0	51	0	131072000	59	4926
2026-01-04 04:39:06.32	44.37	9.16	-48.3	-51.1	13.3	1.98e-05	0	51	0	133169152	59	4977
2026-01-04 04:39:07.30	44.27	9.22	-48.3	-51.1	13.4	9.10e-06	0	51	0	134217728	59	4960
2026-01-04 04:39:08.30	44.16	9.29	-48.3	-51.1	13.4	1.06e-05	0	51	0	136314880	59	4979
2026-01-04 04:39:09.29	44.06	9.36	-48.4	-51.3	13.3	1.83e-05	0	51	0	138412032	59	5042
2026-01-04 04:39:10.28	43.95	9.42	-48.4	-51.2	13.4	1.14e-05	0	51	0	140509184	59	4989
2026-01-04 04:39:11.27	43.85	9.49	-48.5	-51.4	13.1	2.51e-05	0	51	0	142606336	59	5152
2026-01-04 04:39:12.26	43.74	9.56	-48.7	-51.7	12.8	4.88e-05	0	51	0	143654912	59	5332
2026-01-04 04:39:13.24	43.64	9.62	-48.5	-51.3	13.2	3.89e-05	0	51	0	145752064	59	5085
2026-01-04 04:39:14.24	43.53	9.69	-48.6	-51.6	12.9	3.35e-05	0	51	0	147849216	59	5243
2026-01-04 04:39:15.22	43.43	9.76	-48.6	-51.6	13.0	2.59e-05	0	51	0	149946368	59	5228
2026-01-04 04:39:16.21	43.32	9.83	-48.5	-51.4	13.2	2.36e-05	0	51	0	150994944	59	5131
2026-01-04 04:39:17.19	43.21	9.89	-48.6	-51.5	13.0	3.05e-05	0	51	0	153092096	59	5201
2026-01-04 04:39:18.18	43.10	9.96	-48.5	-51.3	13.3	1.75e-05	0	51	0	155189248	59	5058
2026-01-04 04:39:19.17	42.99	10.03	-48.4	-51.2	13.3	1.37e-05	0	51	0	157286400	59	5041
2026-01-04 04:39:20.15	42.88	10.09	-48.5	-51.3	13.3	2.82e-05	0	51	0	158334976	59	5096
2026-01-04 04:39:21.14	42.77	10.16	-48.7	-51.6	12.9	2.89e-05	0	52	0	160432128	59	5278
2026-01-04 04:39:22.13	42.66	10.23	-48.8	-51.8	12.7	5.64e-05	0	51	0	162529280	59	5380
2026-01-04 04:39:23.12	42.55	10.30	-48.6	-51.6	13.0	5.03e-05	0	52	0	164626432	59	5264
2026-01-04 04:39:24.11	42.44	10.37	-48.5	-51.3	13.3	3.28e-05	0	52	0	165675008	59	5072
2026-01-04 04:39:25.09	42.33	10.43	-48.6	-51.5	13.0	2.28e-05	0	52	0	167772160	59	5213
2026-01-04 04:39:26.08	42.22	10.50	-48.5	-51.3	13.3	1.83e-05	0	52	0	169869312	59	5092
2026-01-04 04:39:27.07	42.10	10.57	-48.6	-51.6	13.0	2.44e-05	0	52	0	171966464	59	5239
2026-01-04 04:39:28.05	41.99	10.64	-48.6	-51.6	13.0	4.88e-05	0	52	0	174063616	59	5259
2026-01-04 04:39:29.04	41.88	10.71	-48.6	-51.5	13.1	3.81e-05	0	52	0	175112192	59	5174
2026-01-04 04:39:30.03	41.76	10.77	-48.7	-51.6	13.0	3.05e-05	0	52	0	177209344	59	5266
2026-01-04 04:39:31.01	41.65	10.84	-48.8	-51.8	12.8	4.27e-05	0	52	0	179306496	59	5401
2026-01-04 04:39:32.01	41.53	10.91	-48.7	-51.6	13.0	5.64e-05	0	52	0	181403648	59	5276
2026-01-04 04:39:33.00	41.41	10.98	-48.9	-52.0	12.6	4.57e-05	0	52	0	182452224	59	5469
2026-01-04 04:39:33.99	41.30	11.05	-48.9	-52.0	12.6	7.09e-05	0	52	0	184549376	59	5473
2026-01-04 04:39:34.98	41.18	11.12	-48.6	-51.5	13.1	4.34e-05	0	52	0	186646528	59	5173
2026-01-04 04:39:35.98	41.06	11.19	-48.6	-51.4	13.2	2.82e-05	0	52	0	188743680	59	5147
2026-01-04 04:39:36.97	40.94	11.26	-48.5	-51.3	13.3	2.59e-05	0	52	0	189792256	59	5062
2026-01-04 04:39:37.96	40.82	11.33	-48.5	-51.4	13.3	1.29e-05	0	52	0	191889408	59	5136
2026-01-04 04:39:38.94	40.70	11.39	-48.4	-51.2	13.4	1.29e-05	0	52	0	193986560	59	5029
2026-01-04 04:39:39.93	40.58	11.46	-48.3	-51.0	13.6	6.80e-06	0	52	0	196083712	59	4904
2026-01-04 04:39:40.91	40.46	11.53	-48.5	-51.2	13.5	6.80e-06	0	52	0	198180864	59	5038
2026-01-04 04:39:41.90	40.34	11.60	-48.3	-50.9	13.7	6.10e-06	0	52	0	199229440	59	4865
2026-01-04 04:39:42.89	40.22	11.67	-48.3	-50.9	13.7	3.00e-06	0	52	0	201326592	59	4856
2026-01-04 04:39:43.89	40.09	11.74	-48.3	-50.9	13.8	6.10e-06	0	52	0	203423744	59	4830
2026-01-04 04:39:44.87	39.97	11.81	-48.3	-51.0	13.7	3.00e-06	0	52	0	205520896	59	4897
2026-01-04 04:39:45.86	39.84	11.88	-48.5	-51.2	13.4	1.44e-05	0	52	0	206569472	59	5041
2026-01-04 04:39:46.85	39.72	11.95	-48.4	-51.3	13.4	9.90e-06	0	52	0	208666624	59	5046
2026-01-04 04:39:47.85	39.59	12.02	-48.5	-51.3	13.3	7.60e-06	0	52	0	210763776	59	5098
2026-01-04 04:39:48.83	39.47	12.09	-48.8	-51.7	13.0	3.20e-05	0	52	0	212860928	59	5338
2026-01-04 04:39:49.83	39.34	12.16	-48.6	-51.5	13.2	3.20e-05	0	52	0	214958080	59	5167
2026-01-04 04:39:50.81	39.21	12.23	-48.4	-51.2	13.5	1.67e-05	0	52	0	216006656	59	5018
2026-01-04 04:39:51.80	39.09	12.30	-48.4	-51.2	13.5	5.30e-06	0	52	0	218103808	59	5024
2026-01-04 04:39:52.79	38.96	12.37	-48.2	-50.9	13.8	1.50e-06	0	52	0	220200960	59	4816
2026-01-04 04:39:53.78	38.83	12.44	-48.3	-51.0	13.7	2.20e-06	0	53	0	222298112	59	4894
2026-01-04 04:39:54.78	38.70	12.51	-48.3	-50.9	13.7	5.30e-06	0	53	0	223346688	59	4855
2026-01-04 04:39:55.77	38.57	12.58	-48.4	-51.0	13.6	4.50e-06	0	53	0	225443840	59	4916
2026-01-04 04:39:56.75	38.44	12.65	-48.3	-50.8	13.9	5.30e-06	0	53	0	227540992	59	4812
2026-01-04 04:39:57.74	38.31	12.72	-47.9	-50.3	14.4	2.20e-06	0	53	0	229638144	58	4806
2026-01-04 04:39:58.73	38.17	12.79	-47.8	-50.2	14.6	7.00e-07	0	53	0	230686720	58	4707
2026-01-04 04:39:59.71	38.04	12.86	-47.9	-50.2	14.5	0.00e+00	0	53	0	232783872	58	4735
2026-01-04 04:40:00.70	37.91	12.93	-47.9	-50.3	14.4	0.00e+00	0	53	0	234881024	58	4791
2026-01-04 04:40:01.68	37.77	13.00	-47.9	-50.2	14.5	0.00e+00	0	53	0	236978176	58	4759
2026-01-04 04:40:02.68	37.64	13.07	-47.8	-50.1	14.7	0.00e+00	0	53	0	239075328	58	4659
2026-01-04 04:40:03.67	37.50	13.14	-47.9	-50.2	14.6	0.00e+00	0	53	0	240123904	58	4726
2026-01-04 04:40:04.66	37.37	13.21	-47.8	-50.1	14.6	7.00e-07	0	53	0	242221056	58	4680
2026-01-04 04:40:05.66	37.23	13.28	-47.6	-49.8	15.0	0.00e+00	0	53	0	244318208	58	4500
2026-01-04 04:40:06.65	37.09	13.35	-47.6	-49.9	14.9	0.00e+00	0	53	0	246415360	58	4557
2026-01-04 04:40:07.64	36.95	13.43	-47.8	-50.1	14.6	0.00e+00	0	53	0	247463936	58	4682
2026-01-04 04:40:08.63	36.81	13.50	-47.7	-49.9	14.9	0.00e+00	0	53	0	249561088	58	4556
2026-01-04 04:40:09.61	36.67	13.57	-47.8	-50.1	14.7	0.00e+00	0	53	0	251658240	58	4659
2026-01-04 04:40:10.60	36.53	13.64	-47.7	-50.0	14.7	7.00e-07	0	53	0	253755392	58	4635
2026-01-04 04:40:11.59	36.39	13.71	-47.6	-49.9	14.9	0.00e+00	0	53	0	254803968	58	4550
2026-01-04 04:40:12.58	36.25	13.78	-47.7	-49.9	14.8	0.00e+00	0	53	0	256901120	58	4555
2026-01-04 04:40:13.56	36.11	13.85	-47.5	-49.7	15.1	0.00e+00	0	53	0	258998272	58	4461
2026-01-04 04:40:14.55	35.97	13.92	-47.5	-49.7	15.0	0.00e+00	0	53	0	261095424	58	4478
2026-01-04 04:40:15.53	35.83	13.99	-47.6	-49.8	15.0	0.00e+00	0	53	0	262144000	58	4516
2026-01-04 04:40:16.53	35.68	14.06	-47.7	-50.0	14.7	0.00e+00	0	53	0	264241152	58	4641
2026-01-04 04:40:17.52	35.53	14.13	-47.8	-50.2	14.5	0.00e+00	0	53	0	266338304	58	4744
2026-01-04 04:40:18.51	35.39	14.20	-47.9	-50.3	14.5	7.00e-07	0	53	0	268435456	58	4776
2026-01-04 04:40:19.51	35.24	14.28	-47.9	-50.4	14.4	7.00e-07	0	53	0	270532608	58	4820
2026-01-04 04:40:20.50	35.09	14.35	-47.9	-50.2	14.5	0.00e+00	0	53	0	271581184	58	4756
2026-01-04 04:40:21.48	34.95	14.42	-47.9	-50.3	14.5	0.00e+00	0	53	0	273678336	58	4764
2026-01-04 04:40:22.47	34.80	14.49	-48.1	-50.6	14.1	7.00e-07	0	53	0	275775488	58	4949
2026-01-04 04:40:23.46	34.65	14.56	-48.1	-50.7	14.1	3.80e-06	0	53	0	277872640	58	4989
2026-01-04 04:40:24.44	34.50	14.63	-48.2	-50.9	13.9	1.50e-06	0	53	0	278921216	58	5102
2026-01-04 04:40:25.44	34.35	14.70	-48.3	-50.9	13.8	4.50e-06	0	53	0	281018368	58	5136
2026-01-04 04:40:26.43	34.19	14.77	-48.3	-50.9	13.8	6.80e-06	0	53	0	283115520	58	5147
2026-01-04 04:40:27.42	34.04	14.84	-48.3	-51.0	13.8	3.80e-06	0	53	0	285212672	58	5176
2026-01-04 04:40:28.40	33.89	14.92	-48.3	-50.9	13.9	1.50e-06	0	53	0	286261248	58	5145
2026-01-04 04:40:29.37	33.74	14.98	-48.2	-50.7	14.1	3.00e-06	0	53	0	288358400	58	5041
2026-01-04 04:40:30.36	33.58	15.06	-48.1	-50.7	14.1	3.00e-06	0	53	0	290455552	58	4987
2026-01-04 04:40:31.34	33.43	15.13	-48.1	-50.5	14.3	0.00e+00	0	53	0	292552704	58	4903
2026-01-04 04:40:32.33	33.27	15.20	-48.1	-50.6	14.2	3.80e-06	0	53	0	294649856	58	4968
2026-01-04 04:40:33.32	33.12	15.27	-48.2	-50.8	14.0	2.20e-06	0	53	0	295698432	58	5059
2026-01-04 04:40:34.31	32.96	15.34	-48.4	-51.2	13.6	6.10e-06	0	53	0	297795584	58	5281
2026-01-04 04:40:35.30	32.80	15.41	-48.3	-50.8	14.0	5.30e-06	0	53	0	299892736	58	5090
2026-01-04 04:40:36.29	32.64	15.48	-48.2	-50.7	14.1	7.00e-07	0	53	0	301989888	58	5030
2026-01-04 04:40:37.28	32.48	15.55	-48.3	-50.8	14.0	3.00e-06	0	53	0	303038464	58	5076
2026-01-04 04:40:38.27	32.32	15.62	-48.3	-50.8	14.0	3.80e-06	0	53	0	305135616	58	5081
2026-01-04 04:40:39.25	32.16	15.69	-48.4	-51.0	13.8	3.00e-06	0	53	0	307232768	58	5181
2026-01-04 04:40:40.24	32.00	15.77	-48.5	-51.2	13.6	3.80e-06	0	54	0	309329920	58	5301
2026-01-04 04:40:41.23	31.84	15.84	-48.6	-51.4	13.4	1.14e-05	0	54	0	310378496	59	5124
2026-01-04 04:40:42.22	31.67	15.91	-48.6	-51.4	13.4	1.22e-05	0	53	0	312475648	59	5152
2026-01-04 04:40:43.21	31.51	15.98	-48.6	-51.5	13.3	1.22e-05	0	54	0	314572800	59	5164
2026-01-04 04:40:44.19	31.34	16.05	-48.7	-51.7	13.1	1.60e-05	0	54	0	316669952	59	5307
2026-01-04 04:40:45.19	31.17	16.12	-48.8	-51.9	12.9	3.73e-05	0	53	0	318767104	59	5452
2026-01-04 04:40:46.17	31.01	16.19	-48.4	-51.2	13.6	1.29e-05	0	53	0	319815680	59	5013
2026-01-04 04:40:47.17	30.84	16.26	-48.3	-50.9	13.8	3.80e-06	0	54	0	321912832	59	4866
2026-01-04 04:40:48.15	30.67	16.33	-48.4	-51.2	13.6	2.20e-06	0	54	0	324009984	59	5019
2026-01-04 04:40:49.14	30.50	16.40	-48.5	-51.2	13.6	9.10e-06	0	54	0	326107136	59	4986
2026-01-04 04:40:50.14	30.33	16.47	-48.7	-51.6	13.3	1.67e-05	0	54	0	327155712	59	5266
2026-01-04 04:40:51.13	30.16	16.54	-48.6	-51.4	13.3	1.67e-05	0	54	0	329252864	59	5138
2026-01-04 04:40:52.12	29.99	16.61	-48.6	-51.4	13.4	1.60e-05	0	54	0	331350016	59	5149
2026-01-04 04:40:53.11	29.81	16.69	-48.6	-51.4	13.4	1.44e-05	0	54	0	333447168	59	5146
2026-01-04 04:40:54.10	29.64	16.76	-48.9	-51.9	12.9	2.44e-05	0	54	0	334495744	59	5417
2026-01-04 04:40:55.09	29.47	16.83	-48.6	-51.4	13.4	3.05e-05	0	54	0	336592896	59	5144
2026-01-04 04:40:56.08	29.29	16.90	-48.9	-51.9	12.8	4.65e-05	0	54	0	338690048	59	5455
2026-01-04 04:40:57.08	29.11	16.97	-48.8	-51.9	12.9	4.42e-05	0	54	0	340787200	59	5437
2026-01-04 04:40:58.07	28.94	17.04	-49.0	-52.5	12.3	6.56e-05	0	54	0	341835776	60	5494
2026-01-04 04:40:59.05	28.76	17.11	-48.9	-52.0	12.8	6.10e-05	0	54	0	343932928	60	5199
2026-01-04 04:41:00.05	28.58	17.18	-49.0	-52.2	12.6	9.46e-05	0	54	0	346030080	60	5293
2026-01-04 04:41:01.04	28.40	17.25	-48.6	-51.6	13.2	4.95e-05	0	54	0	348127232	60	4976
2026-01-04 04:41:02.02	28.22	17.32	-48.6	-51.5	13.3	1.98e-05	0	54	0	350224384	60	4899
2026-01-04 04:41:03.01	28.04	17.39	-48.8	-51.9	13.0	3.89e-05	0	54	0	351272960	60	5105
2026-01-04 04:41:03.99	27.86	17.45	-49.1	-52.4	12.5	7.78e-05	0	54	0	353370112	60	5410
2026-01-04 04:41:04.98	27.68	17.52	-49.1	-52.5	12.3	1.33e-04	0	54	0	355467264	60	5473
2026-01-04 04:41:05.97	27.49	17.59	-49.0	-52.3	12.6	1.43e-04	0	54	0	357564416	60	5349
2026-01-04 04:41:06.96	27.31	17.66	-48.9	-52.2	12.6	7.47e-05	0	54	0	358612992	60	5299
2026-01-04 04:41:07.94	27.12	17.73	-48.8	-51.9	13.0	5.34e-05	0	54	0	360710144	60	5104
2026-01-04 04:41:08.93	26.94	17.80	-49.0	-52.1	12.8	5.41e-05	0	54	0	362807296	60	5221
2026-01-04 04:41:09.92	26.75	17.87	-48.6	-51.5	13.3	4.27e-05	0	54	0	364904448	60	4904
2026-01-04 04:41:10.91	26.56	17.94	-48.4	-51.0	13.9	4.50e-06	0	54	0	365953024	59	4892
2026-01-04 04:41:11.91	26.37	18.01	-48.3	-50.9	14.0	1.50e-06	0	54	0	368050176	59	4858
2026-01-04 04:41:12.89	26.18	18.07	-48.3	-50.8	14.1	5.30e-06	0	54	0	370147328	59	4805
2026-01-04 04:41:13.88	25.99	18.14	-48.2	-50.7	14.2	1.50e-06	0	54	0	372244480	59	4718
2026-01-04 04:41:14.87	25.80	18.21	-48.0	-50.5	14.4	2.20e-06	0	54	0	374341632	59	4601
2026-01-04 04:41:15.86	25.61	18.28	-47.9	-50.2	14.7	0.00e+00	0	54	0	375390208	58	4715
2026-01-04 04:41:16.85	25.42	18.35	-47.8	-50.1	14.7	0.00e+00	0	54	0	377487360	58	4695
2026-01-04 04:41:17.85	25.22	18.41	-48.0	-50.4	14.4	0.00e+00	0	54	0	379584512	58	4851
2026-01-04 04:41:18.84	25.03	18.48	-48.0	-50.4	14.5	3.00e-06	0	54	0	381681664	58	4815
2026-01-04 04:41:19.83	24.83	18.55	-48.0	-50.5	14.4	1.50e-06	0	54	0	382730240	58	4891
2026-01-04 04:41:20.83	24.63	18.62	-48.4	-51.0	13.8	1.50e-06	0	54	0	384827392	58	5216
2026-01-04 04:41:21.82	24.43	18.68	-48.1	-50.7	14.1	3.00e-06	0	54	0	386924544	58	5000
2026-01-04 04:41:22.81	24.23	18.75	-47.7	-50.0	14.9	0.00e+00	0	54	0	389021696	58	4625
2026-01-04 04:41:23.80	24.04	18.82	-47.4	-49.5	15.3	0.00e+00	0	54	0	391118848	57	4628
2026-01-04 04:41:24.79	23.83	18.88	-46.9	-48.9	15.9	0.00e+00	0	54	0	392167424	57	4321
2026-01-04 04:41:25.77	23.64	18.95	-46.7	-48.6	16.2	0.00e+00	0	54	0	394264576	56	4395
2026-01-04 04:41:26.76	23.43	19.02	-46.7	-48.6	16.2	0.00e+00	0	54	0	396361728	56	4406
2026-01-04 04:41:27.74	23.23	19.08	-46.7	-48.5	16.3	0.00e+00	0	55	0	398458880	56	4360
2026-01-04 04:41:28.73	23.03	19.15	-46.9	-48.7	16.1	0.00e+00	0	55	0	399507456	56	4483
2026-01-04 04:41:29.72	22.82	19.21	-46.9	-48.7	16.1	0.00e+00	0	54	0	401604608	56	4481
2026-01-04 04:41:30.70	22.62	19.28	-46.8	-48.6	16.2	0.00e+00	0	54	0	403701760	56	4425
2026-01-04 04:41:31.69	22.41	19.34	-46.7	-48.5	16.3	0.00e+00	0	54	0	405798912	56	4380
2026-01-04 04:41:32.68	22.21	19.41	-46.9	-48.7	16.1	0.00e+00	0	54	0	406847488	56	4478
2026-01-04 04:41:33.67	22.00	19.47	-46.8	-48.7	16.1	0.00e+00	0	54	0	408944640	56	4481
2026-01-04 04:41:34.66	21.79	19.54	-46.9	-48.7	16.1	0.00e+00	0	54	0	411041792	56	4491
2026-01-04 04:41:35.65	21.58	19.60	-46.9	-48.8	16.0	0.00e+00	0	54	0	413138944	56	4512
2026-01-04 04:41:36.65	21.37	19.66	-46.7	-48.6	16.3	0.00e+00	0	54	0	415236096	56	4395
2026-01-04 04:41:37.64	21.15	19.73	-46.7	-48.4	16.4	0.00e+00	0	54	0	416284672	56	4338
2026-01-04 04:41:38.63	20.94	19.79	-46.6	-48.4	16.4	0.00e+00	0	54	0	418381824	56	4305
2026-01-04 04:41:39.62	20.73	19.85	-46.5	-48.2	16.6	0.00e+00	0	54	0	420478976	56	4216
2026-01-04 04:41:40.61	20.51	19.92	-46.5	-48.2	16.6	0.00e+00	0	54	0	422576128	56	4222
2026-01-04 04:41:41.60	20.30	19.98	-46.6	-48.4	16.4	0.00e+00	0	54	0	423624704	56	4310
2026-01-04 04:41:42.59	20.08	20.04	-46.7	-48.6	16.2	0.00e+00	0	55	0	425721856	56	4430
2026-01-04 04:41:43.58	19.86	20.10	-46.8	-48.7	16.1	0.00e+00	0	54	0	427819008	56	4472
2026-01-04 04:41:44.57	19.65	20.17	-46.9	-48.8	16.1	0.00e+00	0	55	0	429916160	56	4531
2026-01-04 04:41:45.56	19.43	20.23	-46.9	-48.8	16.0	0.00e+00	0	54	0	430964736	56	4532
2026-01-04 04:41:46.55	19.21	20.29	-46.8	-48.7	16.1	0.00e+00	0	54	0	433061888	56	4469
2026-01-04 04:41:47.55	18.98	20.35	-47.0	-48.9	15.9	0.00e+00	0	54	0	435159040	56	4576
2026-01-04 04:41:48.54	18.76	20.41	-46.9	-48.9	16.0	0.00e+00	0	55	0	437256192	56	4557
2026-01-04 04:41:49.53	18.54	20.47	-46.7	-48.5	16.3	0.00e+00	0	55	0	439353344	56	4382
2026-01-04 04:41:50.51	18.32	20.53	-46.6	-48.4	16.4	0.00e+00	0	55	0	440401920	56	4339
2026-01-04 04:41:51.50	18.09	20.59	-46.3	-47.9	16.8	0.00e+00	0	55	0	442499072	55	4333
2026-01-04 04:41:52.49	17.87	20.65	-46.1	-47.7	17.0	0.00e+00	0	55	0	444596224	55	4207
2026-01-04 04:41:53.48	17.64	20.71	-45.8	-47.4	17.3	0.00e+00	0	55	0	446693376	54	4298
2026-01-04 04:41:54.48	17.41	20.77	-46.0	-47.5	17.2	0.00e+00	0	54	0	447741952	54	4379
2026-01-04 04:41:55.47	17.18	20.83	-46.1	-47.7	17.0	0.00e+00	0	55	0	449839104	54	4467
2026-01-04 04:41:56.46	16.96	20.88	-46.2	-47.8	16.9	0.00e+00	0	55	0	451936256	54	4520
2026-01-04 04:41:57.45	16.73	20.94	-46.2	-47.8	16.9	0.00e+00	0	54	0	454033408	54	4534
2026-01-04 04:41:58.43	16.50	21.00	-45.9	-47.4	17.3	0.00e+00	0	55	0	455081984	54	4322
2026-01-04 04:41:59.41	16.27	21.05	-45.8	-47.3	17.4	0.00e+00	0	55	0	457179136	54	4272
2026-01-04 04:42:00.40	16.04	21.11	-46.0	-47.5	17.2	0.00e+00	0	55	0	459276288	54	4367
2026-01-04 04:42:01.40	15.80	21.17	-46.2	-47.8	16.9	0.00e+00	0	55	0	461373440	54	4536
2026-01-04 04:42:02.38	15.57	21.22	-46.2	-47.8	16.9	0.00e+00	0	55	0	463470592	54	4519
2026-01-04 04:42:03.37	15.34	21.28	-46.2	-47.8	16.9	0.00e+00	0	55	0	464519168	54	4513
2026-01-04 04:42:04.36	15.10	21.33	-46.2	-47.8	17.0	0.00e+00	0	55	0	466616320	54	4517
2026-01-04 04:42:05.34	14.87	21.39	-46.3	-48.0	16.8	0.00e+00	0	55	0	468713472	54	4623
2026-01-04 04:42:06.32	14.63	21.44	-46.5	-48.2	16.5	0.00e+00	0	55	0	470810624	54	4735
2026-01-04 04:42:07.32	14.39	21.49	-46.5	-48.3	16.5	0.00e+00	0	55	0	471859200	54	4764
2026-01-04 04:42:08.31	14.15	21.55	-46.6	-48.4	16.4	0.00e+00	0	55	0	473956352	55	4568
2026-01-04 04:42:09.29	13.91	21.60	-46.6	-48.3	16.4	0.00e+00	0	55	0	476053504	55	4540
2026-01-04 04:42:10.28	13.67	21.65	-46.5	-48.2	16.5	0.00e+00	0	55	0	478150656	55	4493
2026-01-04 04:42:11.28	13.43	21.71	-46.4	-48.0	16.7	0.00e+00	0	55	0	479199232	55	4389
2026-01-04 04:42:12.28	13.19	21.76	-46.3	-48.0	16.8	0.00e+00	0	55	0	481296384	55	4353
2026-01-04 04:42:13.26	12.95	21.81	-46.3	-48.0	16.8	0.00e+00	0	55	0	483393536	55	4350
2026-01-04 04:42:14.25	12.70	21.86	-46.6	-48.4	16.4	0.00e+00	0	55	0	485490688	55	4580
2026-01-04 04:42:15.24	12.46	21.91	-46.7	-48.5	16.3	0.00e+00	0	55	0	487587840	55	4614
2026-01-04 04:42:16.23	12.21	21.96	-46.9	-48.7	16.0	0.00e+00	0	55	0	488636416	55	4725
2026-01-04 04:42:17.22	11.96	22.01	-46.9	-48.7	16.1	0.00e+00	0	55	0	490733568	55	4736
2026-01-04 04:42:18.21	11.72	22.06	-46.4	-48.0	16.8	0.00e+00	0	55	0	492830720	55	4349
2026-01-04 04:42:19.20	11.47	22.11	-46.2	-47.8	16.9	0.00e+00	0	55	0	494927872	55	4256
2026-01-04 04:42:20.19	11.22	22.15	-46.1	-47.6	17.1	0.00e+00	0	55	0	495976448	55	4181
2026-01-04 04:42:21.18	10.97	22.20	-46.2	-47.8	16.9	0.00e+00	0	55	0	498073600	55	4246
2026-01-04 04:42:22.17	10.72	22.25	-46.3	-47.9	16.8	0.00e+00	0	55	0	500170752	55	4297
2026-01-04 04:42:23.15	10.47	22.29	-46.2	-47.7	16.9	0.00e+00	0	55	0	502267904	55	4242
2026-01-04 04:42:24.14	10.22	22.34	-46.3	-47.9	16.7	0.00e+00	0	55	0	503316480	55	4302
2026-01-04 04:42:25.14	9.97	22.38	-46.1	-47.7	16.9	0.00e+00	0	55	0	505413632	55	4231
2026-01-04 04:42:26.13	9.71	22.43	-46.3	-48.0	16.6	0.00e+00	0	55	0	507510784	55	4359
2026-01-04 04:42:27.11	9.46	22.47	-46.0	-47.6	16.8	0.00e+00	0	55	0	509607936	55	4183
2026-01-04 04:42:28.10	9.21	22.52	-45.9	-47.5	16.8	0.00e+00	0	55	0	511705088	54	4367
2026-01-04 04:42:29.09	8.95	22.56	-45.8	-47.4	16.8	0.00e+00	0	55	0	512753664	54	4333
2026-01-04 04:42:30.07	8.70	22.60	-45.9	-47.5	16.6	0.00e+00	0	55	0	514850816	54	4374
2026-01-04 04:42:31.06	8.44	22.65	-46.3	-48.2	15.9	0.00e+00	0	55	0	516947968	54	4730
2026-01-04 04:42:32.05	8.19	22.69	-46.4	-48.3	15.7	0.00e+00	0	55	0	519045120	54	4803
2026-01-04 04:42:33.04	7.93	22.73	-47.4	-49.8	14.2	0.00e+00	0	55	0	520093696	56	5079
2026-01-04 04:42:34.02	7.67	22.77	-47.7	-50.5	13.4	7.60e-06	0	55	0	522190848	57	5170
2026-01-04 04:42:35.02	7.41	22.81	-48.6	-52.2	11.4	2.43e-04	0	55	0	524288000	58	5986
2026-01-04 04:42:36.00	7.15	22.85	-49.0	-53.3	10.1	2.99e-03	0	55	0	526385152	59	6406
2026-01-04 04:42:36.98	6.89	22.89	-49.4	-55.0	8.2	1.76e-02	0	55	0	527433728	60	7357
2026-01-04 04:42:37.97	6.63	22.92	-49.4	-54.9	8.3	5.70e-02	0	55	0	529530880	60	7213
2026-01-04 04:42:38.96	6.37	22.96	-49.4	-54.8	8.4	4.73e-02	0	55	0	531628032	60	7193
2026-01-04 04:42:39.96	6.10	23.00	-49.4	-54.8	8.5	4.45e-02	0	55	0	533725184	60	7168
2026-01-04 04:42:40.95	5.84	23.04	-49.5	-54.8	8.6	3.60e-02	0	55	0	534773760	60	7127
2026-01-04 04:42:41.94	5.58	23.07	-49.5	-54.6	8.8	3.00e-02	0	55	0	536870912	60	7040
2026-01-04 04:42:42.93	5.31	23.11	-49.3	-54.1	9.4	2.24e-02	0	55	0	538968064	60	6623
2026-01-04 04:42:43.92	5.05	23.14	-49.1	-53.6	10.0	1.11e-02	0	55	0	541065216	60	6237
2026-01-04 04:42:44.91	4.78	23.17	-48.9	-53.2	10.4	5.49e-03	0	55	0	543162368	60	5958
2026-01-04 04:42:45.90	4.52	23.21	-49.3	-54.1	9.5	9.43e-03	0	55	0	544210944	60	6604
2026-01-04 04:42:46.89	4.25	23.24	-49.6	-55.1	8.5	2.74e-02	0	55	0	546308096	60	7378
2026-01-04 04:42:47.88	3.98	23.27	-49.9	-56.0	7.4	6.36e-02	0	55	0	548405248	61	7780
2026-01-04 04:42:48.88	3.71	23.30	-49.8	-55.9	7.8	9.96e-02	0	55	0	550502400	61	7643
2026-01-04 04:42:49.88	3.44	23.34	-49.7	-54.6	9.2	4.70e-02	0	55	0	551550976	61	6641
2026-01-04 04:42:50.87	3.17	23.37	-49.2	-53.2	10.8	7.16e-03	0	55	0	553648128	61	5639
2026-01-04 04:42:51.85	2.90	23.40	-48.7	-51.9	12.5	7.41e-04	0	55	0	555745280	60	5147
2026-01-04 04:42:52.84	2.63	23.42	-48.5	-51.2	13.4	2.05e-05	0	55	0	557842432	60	4732
2026-01-04 04:42:53.83	2.36	23.45	-48.8	-51.6	13.2	9.10e-06	0	55	0	559939584	60	4966
2026-01-04 04:42:54.82	2.09	23.48	-48.6	-51.4	13.4	2.82e-05	0	55	0	560988160	60	4841
2026-01-04 04:42:55.81	1.82	23.51	-48.5	-51.2	13.7	1.22e-05	0	55	0	563085312	60	4727
2026-01-04 04:42:56.80	1.55	23.53	-48.7	-51.5	13.4	1.22e-05	0	55	0	565182464	60	4896
2026-01-04 04:42:57.78	1.28	23.56	-48.4	-51.0	13.9	7.60e-06	0	55	0	567279616	59	4894
2026-01-04 04:42:58.78	1.00	23.58	-48.1	-50.4	14.4	0.00e+00	0	55	0	568328192	59	4597
2026-01-04 04:42:59.77	0.73	23.61	-47.8	-50.0	14.9	0.00e+00	0	55	0	570425344	58	4631
2026-01-04 04:43:00.76	0.46	23.63	-47.7	-49.9	15.0	0.00e+00	0	55	0	572522496	58	4560
2026-01-04 04:43:01.75	0.18	23.65	-48.0	-50.2	14.7	1.50e-06	0	56	0	574619648	58	4751
2026-01-04 04:43:02.74	359.91	23.68	-48.4	-51.0	13.9	2.20e-06	0	55	0	575668224	58	5218
2026-01-04 04:43:03.72	359.63	23.70	-48.4	-51.0	13.9	4.50e-06	0	55	0	577765376	59	4920
2026-01-04 04:43:04.72	359.36	23.72	-48.0	-50.5	14.4	1.50e-06	0	55	0	579862528	59	4600
2026-01-04 04:43:05.70	359.08	23.74	-47.6	-49.7	15.2	0.00e+00	0	55	0	581959680	58	4467
2026-01-04 04:43:06.70	358.80	23.76	-47.2	-49.2	15.7	7.00e-07	0	55	0	584056832	57	4442
2026-01-04 04:43:07.69	358.53	23.78	-47.2	-49.1	15.8	0.00e+00	0	56	0	585105408	57	4427
2026-01-04 04:43:08.68	358.25	23.79	-47.5	-49.6	15.3	0.00e+00	0	56	0	587202560	57	4696
2026-01-04 04:43:09.67	357.97	23.81	-47.8	-50.1	14.8	0.00e+00	0	56	0	589299712	57	4946
2026-01-04 04:43:10.65	357.70	23.83	-47.9	-50.2	14.6	0.00e+00	0	55	0	591396864	57	5032
2026-01-04 04:43:11.64	357.42	23.84	-47.9	-50.3	14.5	0.00e+00	0	55	0	592445440	57	5097
2026-01-04 04:43:12.63	357.14	23.86	-47.9	-50.2	14.7	7.00e-07	0	56	0	594542592	57	5024
2026-01-04 04:43:13.61	356.87	23.87	-47.8	-50.0	14.9	0.00e+00	0	55	0	596639744	57	4905
2026-01-04 04:43:14.60	356.59	23.89	-47.6	-49.8	15.1	0.00e+00	0	55	0	598736896	57	4792
2026-01-04 04:43:15.59	356.31	23.90	-47.7	-49.8	15.1	0.00e+00	0	56	0	599785472	57	4808
2026-01-04 04:43:16.57	356.04	23.91	-47.7	-49.9	15.0	0.00e+00	0	56	0	601882624	57	4860
2026-01-04 04:43:17.57	355.75	23.92	-48.1	-50.5	14.4	0.00e+00	0	55	0	603979776	57	5176
2026-01-04 04:43:18.55	355.48	23.93	-48.3	-50.9	14.0	1.50e-06	0	55	0	606076928	58	5140
2026-01-04 04:43:19.54	355.20	23.94	-48.4	-51.1	13.8	3.80e-06	0	56	0	608174080	58	5221
2026-01-04 04:43:20.53	354.92	23.95	-48.4	-51.0	13.9	1.50e-06	0	55	0	609222656	58	5199
2026-01-04 04:43:21.53	354.64	23.96	-48.2	-50.8	14.1	7.00e-07	0	55	0	611319808	58	5069
2026-01-04 04:43:22.52	354.36	23.97	-48.1	-50.6	14.4	1.50e-06	0	56	0	613416960	58	4943
2026-01-04 04:43:23.51	354.08	23.98	-48.2	-50.7	14.2	2.20e-06	0	55	0	615514112	58	5031
2026-01-04 04:43:24.51	353.79	23.98	-48.3	-50.9	14.0	1.50e-06	0	56	0	616562688	58	5134
2026-01-04 04:43:25.50	353.51	23.99	-48.2	-50.8	14.1	2.20e-06	0	56	0	618659840	58	5062
2026-01-04 04:43:26.49	353.23	23.99	-48.1	-50.5	14.4	1.50e-06	0	55	0	620756992	58	4901
2026-01-04 04:43:27.47	352.96	24.00	-47.9	-50.3	14.6	0.00e+00	0	55	0	622854144	58	4787
2026-01-04 04:43:28.45	352.68	24.00	-47.6	-49.8	15.1	0.00e+00	0	56	0	623902720	58	4511
2026-01-04 04:43:29.43	352.40	24.00	-47.6	-49.8	15.2	0.00e+00	0	56	0	625999872	58	4495
2026-01-04 04:43:30.42	352.12	24.00	-47.8	-50.1	14.8	1.50e-06	0	56	0	628097024	58	4661
2026-01-04 04:43:31.41	351.84	24.00	-48.3	-50.8	14.2	0.00e+00	0	56	0	630194176	58	5061
2026-01-04 04:43:32.40	351.56	24.00	-48.5	-51.1	13.9	7.00e-07	0	56	0	631242752	58	5249
2026-01-04 04:43:33.39	351.28	24.00	-48.8	-51.6	13.3	1.44e-05	0	56	0	633339904	59	5251
2026-01-04 04:43:34.38	351.00	24.00	-48.9	-51.9	13.1	2.21e-05	0	56	0	635437056	59	5435
2026-01-04 04:43:35.36	350.72	24.00	-48.8	-51.7	13.3	3.66e-05	0	56	0	637534208	59	5306
2026-01-04 04:43:36.35	350.44	24.00	-48.5	-51.3	13.6	1.98e-05	0	56	0	639631360	59	5069
2026-01-04 04:43:37.35	350.15	24.00	-48.4	-51.1	13.8	6.10e-06	0	56	0	640679936	59	4950
2026-01-04 04:43:38.33	349.88	23.99	-48.4	-51.0	13.9	1.50e-06	0	56	0	642777088	59	4900
2026-01-04 04:43:39.32	349.60	23.99	-48.3	-50.9	14.0	1.50e-06	0	56	0	644874240	59	4866
2026-01-04 04:43:40.31	349.32	23.98	-48.3	-50.9	14.0	1.50e-06	0	56	0	646971392	59	4857
2026-01-04 04:43:41.30	349.04	23.97	-48.4	-51.0	14.0	4.50e-06	0	56	0	648019968	59	4884
2026-01-04 04:43:42.29	348.76	23.97	-48.0	-50.5	14.4	3.00e-06	0	56	0	650117120	59	4615
2026-01-04 04:43:43.28	348.48	23.96	-47.8	-50.1	14.8	0.00e+00	0	56	0	652214272	58	4661
2026-01-04 04:43:44.27	348.20	23.95	-47.5	-49.7	15.2	0.00e+00	0	56	0	654311424	58	4469
2026-01-04 04:43:45.26	347.92	23.94	-47.2	-49.1	15.7	0.00e+00	0	56	0	655360000	57	4436
2026-01-04 04:43:46.25	347.64	23.93	-46.9	-48.7	16.1	0.00e+00	0	56	0	657457152	56	4492
2026-01-04 04:43:47.23	347.36	23.92	-46.6	-48.3	16.6	0.00e+00	0	56	0	659554304	56	4256
2026-01-04 04:43:48.22	347.08	23.91	-46.2	-47.8	16.9	0.00e+00	0	56	0	661651456	55	4265
2026-01-04 04:43:49.21	346.80	23.90	-46.3	-47.9	16.9	0.00e+00	0	56	0	663748608	55	4307
2026-01-04 04:43:50.20	346.52	23.88	-46.6	-48.4	16.4	0.00e+00	0	56	0	664797184	55	4557
2026-01-04 04:43:51.19	346.25	23.87	-46.7	-48.5	16.3	0.00e+00	0	56	0	666894336	55	4623
2026-01-04 04:43:52.18	345.97	23.86	-47.0	-48.9	15.9	0.00e+00	0	56	0	668991488	55	4842
2026-01-04 04:43:53.17	345.69	23.84	-47.0	-48.9	15.8	0.00e+00	0	56	0	671088640	55	4852
2026-01-04 04:43:54.16	345.41	23.82	-46.8	-48.6	16.2	0.00e+00	0	56	0	672137216	55	4676
2026-01-04 04:43:55.15	345.14	23.81	-46.7	-48.4	16.4	0.00e+00	0	56	0	674234368	55	4551
2026-01-04 04:43:56.14	344.86	23.79	-46.7	-48.4	16.4	0.00e+00	0	56	0	676331520	55	4556
2026-01-04 04:43:57.13	344.58	23.77	-47.0	-48.9	15.9	0.00e+00	0	56	0	678428672	55	4820
2026-01-04 04:43:58.12	344.31	23.75	-46.5	-48.2	16.6	0.00e+00	0	56	0	679477248	55	4465
2026-01-04 04:43:59.11	344.03	23.73	-46.4	-48.1	16.7	0.00e+00	0	56	0	681574400	55	4397
2026-01-04 04:44:00.10	343.75	23.71	-46.3	-47.9	16.9	0.00e+00	0	56	0	683671552	55	4311
2026-01-04 04:44:01.09	343.48	23.69	-46.4	-48.0	16.8	0.00e+00	0	56	0	685768704	55	4363
2026-01-04 04:44:02.08	343.20	23.67	-46.5	-48.1	16.7	0.00e+00	0	56	0	687865856	55	4403
2026-01-04 04:44:03.07	342.93	23.65	-46.7	-48.4	16.4	0.00e+00	0	56	0	688914432	55	4583
2026-01-04 04:44:04.06	342.66	23.63	-46.5	-48.2	16.6	0.00e+00	0	56	0	691011584	55	4462
2026-01-04 04:44:05.04	342.38	23.60	-46.3	-47.9	16.9	0.00e+00	0	56	0	693108736	55	4296
2026-01-04 04:44:06.03	342.11	23.58	-46.1	-47.6	17.2	0.00e+00	0	56	0	695205888	55	4160
2026-01-04 04:44:07.02	341.84	23.55	-45.9	-47.4	17.4	0.00e+00	0	56	0	696254464	55	4063
2026-01-04 04:44:08.01	341.57	23.53	-45.9	-47.4	17.3	0.00e+00	0	56	0	698351616	54	4317
2026-01-04 04:44:09.00	341.29	23.50	-46.1	-47.6	17.2	0.00e+00	0	56	0	700448768	54	4407
2026-01-04 04:44:09.99	341.02	23.47	-46.4	-48.0	16.8	0.00e+00	0	56	0	702545920	54	4637
2026-01-04 04:44:10.98	340.75	23.45	-46.8	-48.5	16.4	0.00e+00	0	56	0	704643072	55	4616
2026-01-04 04:44:11.96	340.48	23.42	-46.6	-48.3	16.5	0.00e+00	0	56	0	705691648	55	4525
2026-01-04 04:44:12.95	340.21	23.39	-46.7	-48.4	16.4	0.00e+00	0	56	0	707788800	55	4557
2026-01-04 04:44:13.94	339.94	23.36	-46.8	-48.7	16.1	0.00e+00	0	56	0	709885952	55	4737
2026-01-04 04:44:14.92	339.68	23.33	-47.2	-49.1	15.8	0.00e+00	0	56	0	710934528	56	4688
2026-01-04 04:44:15.91	339.41	23.30	-47.0	-48.9	16.0	0.00e+00	0	56	0	713031680	56	4557
2026-01-04 04:44:16.89	339.14	23.27	-47.1	-49.0	15.9	0.00e+00	0	56	0	715128832	56	4607
2026-01-04 04:44:17.89	338.87	23.23	-47.3	-49.2	15.7	0.00e+00	0	56	0	717225984	56	4729
2026-01-04 04:44:18.88	338.61	23.20	-47.0	-48.8	16.1	0.00e+00	0	56	0	719323136	56	4535
2026-01-04 04:44:19.86	338.34	23.17	-46.8	-48.4	16.5	0.00e+00	0	56	0	720371712	56	4340
2026-01-04 04:44:20.86	338.08	23.13	-46.9	-48.6	16.4	0.00e+00	0	56	0	722468864	56	4413
2026-01-04 04:44:21.84	337.81	23.10	-47.1	-49.0	16.0	0.00e+00	0	56	0	724566016	56	4599
2026-01-04 04:44:22.83	337.55	23.06	-47.0	-48.8	16.0	0.00e+00	0	56	0	726663168	56	4523
2026-01-04 04:44:23.82	337.28	23.03	-46.8	-48.5	16.3	0.00e+00	0	56	0	727711744	56	4387
2026-01-04 04:44:24.81	337.02	22.99	-46.6	-48.3	16.6	0.00e+00	0	56	0	729808896	56	4249
2026-01-04 04:44:25.81	336.76	22.95	-46.6	-48.2	16.6	0.00e+00	0	56	0	731906048	56	4212
2026-01-04 04:44:26.80	336.49	22.92	-46.3	-47.9	16.8	0.00e+00	0	56	0	734003200	55	4322
2026-01-04 04:44:27.79	336.23	22.88	-46.4	-48.1	16.6	0.00e+00	0	56	0	736100352	55	4404
2026-01-04 04:44:28.78	335.97	22.84	-46.7	-48.4	16.3	0.00e+00	0	56	0	737148928	55	4595
2026-01-04 04:44:29.77	335.71	22.80	-47.2	-49.2	15.6	0.00e+00	0	56	0	739246080	56	4731
2026-01-04 04:44:30.76	335.45	22.76	-47.4	-49.5	15.3	0.00e+00	0	56	0	741343232	56	4889
2026-01-04 04:44:31.75	335.19	22.72	-47.9	-50.2	14.5	0.00e+00	0	56	0	743440384	57	5023
2026-01-04 04:44:32.73	334.94	22.68	-47.9	-50.3	14.4	7.00e-07	0	56	0	744488960	57	5066
2026-01-04 04:44:33.72	334.68	22.64	-47.7	-50.0	14.5	2.20e-06	0	56	0	746586112	57	4910
2026-01-04 04:44:34.71	334.42	22.59	-47.6	-50.0	14.5	0.00e+00	0	56	0	748683264	57	4918
2026-01-04 04:44:35.70	334.17	22.55	-47.9	-50.3	14.3	7.00e-07	0	56	0	750780416	57	5092
2026-01-04 04:44:36.69	333.91	22.51	-48.1	-50.6	14.1	7.00e-07	0	56	0	751828992	58	4958
2026-01-04 04:44:37.67	333.66	22.47	-47.9	-50.3	14.5	0.00e+00	0	56	0	753926144	58	4782
2026-01-04 04:44:38.66	333.41	22.42	-47.7	-49.9	14.9	0.00e+00	0	56	0	756023296	58	4597
2026-01-04 04:44:39.66	333.15	22.38	-47.5	-49.6	15.3	0.00e+00	0	56	0	758120448	58	4437
2026-01-04 04:44:40.64	332.90	22.33	-47.5	-49.6	15.3	0.00e+00	0	56	0	760217600	57	4666
2026-01-04 04:44:41.63	332.65	22.28	-47.6	-49.7	15.2	0.00e+00	0	56	0	761266176	57	4710
2026-01-04 04:44:42.62	332.40	22.24	-47.8	-50.1	14.7	0.00e+00	0	56	0	763363328	57	4971
2026-01-04 04:44:43.61	332.15	22.19	-47.7	-49.9	15.1	0.00e+00	0	56	0	765460480	57	4843
2026-01-04 04:44:44.60	331.90	22.14	-47.9	-50.2	14.8	0.00e+00	0	56	0	767557632	57	4988
2026-01-04 04:44:45.59	331.65	22.10	-48.0	-50.3	14.7	0.00e+00	0	56	0	768606208	58	4801
2026-01-04 04:44:46.58	331.40	22.05	-48.2	-50.7	14.3	0.00e+00	0	56	0	770703360	58	4996
2026-01-04 04:44:47.57	331.16	22.00	-48.3	-50.9	14.2	7.00e-07	0	56	0	772800512	58	5108
2026-01-04 04:44:48.56	330.91	21.95	-48.3	-50.8	14.2	7.00e-07	0	56	0	774897664	58	5072
2026-01-04 04:44:49.55	330.67	21.90	-48.2	-50.7	14.3	7.00e-07	0	56	0	775946240	58	4995
2026-01-04 04:44:50.54	330.42	21.85	-47.6	-49.8	15.2	0.00e+00	0	56	0	778043392	58	4509
2026-01-04 04:44:51.53	330.18	21.80	-47.3	-49.4	15.5	0.00e+00	0	56	0	780140544	57	4570
2026-01-04 04:44:52.52	329.93	21.75	-47.3	-49.3	15.6	0.00e+00	0	56	0	782237696	57	4520
2026-01-04 04:44:53.50	329.70	21.69	-47.3	-49.3	15.6	0.00e+00	0	56	0	783286272	57	4525
2026-01-04 04:44:54.49	329.45	21.64	-47.2	-49.1	15.9	0.00e+00	0	56	0	785383424	57	4414
2026-01-04 04:44:55.48	329.21	21.59	-47.4	-49.3	15.6	0.00e+00	0	56	0	787480576	57	4531
2026-01-04 04:44:56.47	328.97	21.54	-47.2	-49.1	15.8	0.00e+00	0	56	0	789577728	57	4422
2026-01-04 04:44:57.46	328.73	21.48	-47.0	-48.8	16.1	0.00e+00	0	56	0	791674880	57	4259
2026-01-04 04:44:58.46	328.49	21.43	-47.0	-48.9	16.0	0.00e+00	0	56	0	792723456	57	4300
2026-01-04 04:44:59.46	328.25	21.37	-47.1	-49.0	15.9	0.00e+00	0	56	0	794820608	56	4651
2026-01-04 04:45:00.45	328.02	21.32	-47.4	-49.5	15.5	0.00e+00	0	56	0	796917760	56	4896
2026-01-04 04:45:01.44	327.78	21.26	-47.6	-49.8	15.2	0.00e+00	0	56	0	799014912	57	4791
2026-01-04 04:45:02.43	327.55	21.21	-47.8	-50.1	14.8	0.00e+00	0	56	0	801112064	57	4965
2026-01-04 04:45:03.43	327.31	21.15	-48.0	-50.3	14.6	7.00e-07	0	56	0	802160640	57	5085
2026-01-04 04:45:04.42	327.08	21.10	-48.0	-50.3	14.6	0.00e+00	0	56	0	804257792	57	5069
2026-01-04 04:45:05.42	326.84	21.04	-48.0	-50.3	14.6	0.00e+00	0	56	0	806354944	57	5085
2026-01-04 04:45:06.41	326.61	20.98	-48.1	-50.6	14.4	0.00e+00	0	56	0	808452096	58	4930
2026-01-04 04:45:07.39	326.39	20.93	-48.1	-50.6	14.4	7.00e-07	0	56	0	809500672	58	4939
2026-01-04 04:45:08.39	326.15	20.87	-48.3	-50.9	14.1	0.00e+00	0	56	0	811597824	58	5102
2026-01-04 04:45:09.37	325.93	20.81	-48.5	-51.2	13.8	3.80e-06	0	56	0	813694976	58	5324
2026-01-04 04:45:10.36	325.70	20.75	-48.7	-51.7	13.3	1.14e-05	0	56	0	815792128	59	5296
2026-01-04 04:45:11.35	325.47	20.69	-49.0	-52.2	12.7	4.95e-05	0	56	0	816840704	59	5650
2026-01-04 04:45:12.34	325.25	20.63	-49.1	-52.5	12.4	8.23e-05	0	56	0	818937856	60	5478
2026-01-04 04:45:13.33	325.02	20.57	-49.1	-52.6	12.3	1.42e-04	0	56	0	821035008	60	5545
2026-01-04 04:45:14.32	324.80	20.51	-48.7	-51.7	13.2	4.04e-05	0	56	0	823132160	60	5040
2026-01-04 04:45:15.31	324.57	20.45	-48.5	-51.4	13.6	1.22e-05	0	56	0	824180736	60	4816
2026-01-04 04:45:16.29	324.35	20.40	-48.5	-51.1	13.8	9.90e-06	0	56	0	826277888	59	4982
2026-01-04 04:45:17.27	324.13	20.34	-48.4	-51.1	13.9	5.30e-06	0	56	0	828375040	59	4965
2026-01-04 04:45:18.27	323.91	20.27	-48.0	-50.3	14.7	7.00e-07	0	56	0	830472192	59	4523
2026-01-04 04:45:19.25	323.69	20.21	-47.5	-49.6	15.3	7.00e-07	0	56	0	832569344	58	4417
2026-01-04 04:45:20.24	323.48	20.15	-47.4	-49.4	15.5	0.00e+00	0	56	0	833617920	57	4575
2026-01-04 04:45:21.23	323.26	20.09	-47.1	-49.0	15.9	0.00e+00	0	56	0	835715072	57	4372
2026-01-04 04:45:22.22	323.04	20.03	-47.0	-48.9	16.1	0.00e+00	0	56	0	837812224	56	4563
2026-01-04 04:45:23.21	322.82	19.96	-47.0	-49.0	15.9	0.00e+00	0	56	0	839909376	56	4631
2026-01-04 04:45:24.20	322.61	19.90	-47.1	-49.0	15.9	0.00e+00	0	56	0	840957952	56	4627
2026-01-04 04:45:25.19	322.39	19.84	-46.7	-48.4	16.4	0.00e+00	0	56	0	843055104	56	4340
2026-01-04 04:45:26.17	322.18	19.78	-46.6	-48.3	16.5	0.00e+00	0	56	0	845152256	56	4288
2026-01-04 04:45:27.17	321.97	19.71	-46.5	-48.1	16.8	0.00e+00	0	56	0	847249408	56	4181
2026-01-04 04:45:28.15	321.76	19.65	-46.3	-47.9	16.8	0.00e+00	0	56	0	848297984	55	4335
2026-01-04 04:45:29.13	321.55	19.59	-46.2	-47.8	16.9	0.00e+00	0	56	0	850395136	55	4281
2026-01-04 04:45:30.11	321.34	19.52	-45.9	-47.4	17.3	0.00e+00	0	56	0	852492288	55	4068
2026-01-04 04:45:31.10	321.13	19.46	-46.0	-47.5	17.2	0.00e+00	0	56	0	854589440	54	4375
2026-01-04 04:45:32.09	320.92	19.39	-46.1	-47.7	17.0	0.00e+00	0	56	0	856686592	54	4459
2026-01-04 04:45:33.08	320.72	19.33	-46.6	-48.3	16.5	0.00e+00	0	56	0	857735168	55	4524
2026-01-04 04:45:34.08	320.51	19.26	-46.4	-48.1	16.7	0.00e+00	0	56	0	859832320	55	4416
2026-01-04 04:45:35.07	320.30	19.20	-46.9	-48.7	16.0	0.00e+00	0	56	0	861929472	55	4751
2026-01-04 04:45:36.06	320.10	19.13	-46.9	-48.7	16.0	0.00e+00	0	56	0	864026624	55	4744
2026-01-04 04:45:37.06	319.89	19.07	-47.6	-49.7	15.2	0.00e+00	0	56	0	865075200	56	5021
2026-01-04 04:45:38.04	319.69	19.00	-47.8	-50.0	14.9	0.00e+00	0	56	0	867172352	57	4904
2026-01-04 04:45:39.02	319.49	18.93	-48.0	-50.4	14.5	0.00e+00	0	56	0	869269504	57	5131
2026-01-04 04:45:40.01	319.29	18.87	-48.0	-50.5	14.4	1.50e-06	0	56	0	871366656	57	5165
2026-01-04 04:45:41.00	319.09	18.80	-48.0	-50.4	14.4	0.00e+00	0	56	0	872415232	58	4867
2026-01-04 04:45:41.98	318.89	18.74	-48.1	-50.5	14.4	0.00e+00	0	56	0	874512384	58	4908
2026-01-04 04:45:42.97	318.69	18.67	-48.0	-50.5	14.4	1.50e-06	0	56	0	876609536	58	4874
2026-01-04 04:45:43.96	318.50	18.60	-47.7	-50.0	14.8	0.00e+00	0	56	0	878706688	58	4638
2026-01-04 04:45:44.95	318.30	18.53	-47.4	-49.6	15.3	0.00e+00	0	56	0	879755264	58	4417
2026-01-04 04:45:45.94	318.10	18.47	-47.3	-49.4	15.5	0.00e+00	0	56	0	881852416	57	4562
2026-01-04 04:45:46.93	317.91	18.40	-47.2	-49.3	15.6	0.00e+00	0	56	0	883949568	57	4516
2026-01-04 04:45:47.91	317.72	18.33	-47.4	-49.4	15.4	0.00e+00	0	56	0	886046720	57	4592
2026-01-04 04:45:48.90	317.52	18.26	-46.9	-48.8	16.0	0.00e+00	0	56	0	888143872	57	4282
2026-01-04 04:45:49.89	317.33	18.20	-46.9	-48.8	16.0	0.00e+00	0	56	0	889192448	56	4514
2026-01-04 04:45:50.88	317.14	18.13	-46.9	-48.7	16.1	0.00e+00	0	56	0	891289600	56	4484
2026-01-04 04:45:51.88	316.95	18.06	-47.0	-48.9	15.9	0.00e+00	0	56	0	893386752	56	4594
2026-01-04 04:45:52.87	316.76	17.99	-46.7	-48.5	16.3	0.00e+00	0	56	0	895483904	56	4357
2026-01-04 04:45:53.87	316.57	17.92	-46.7	-48.4	16.4	0.00e+00	0	56	0	896532480	56	4323
2026-01-04 04:45:54.86	316.38	17.85	-46.9	-48.8	16.1	0.00e+00	0	56	0	898629632	56	4496
2026-01-04 04:45:55.85	316.19	17.78	-47.4	-49.4	15.4	0.00e+00	0	56	0	900726784	56	4869
2026-01-04 04:45:56.84	316.01	17.72	-47.7	-50.0	15.0	0.00e+00	0	56	0	902823936	57	4887
2026-01-04 04:45:57.82	315.82	17.65	-47.9	-50.2	14.7	0.00e+00	0	56	0	904921088	57	5030
2026-01-04 04:45:58.81	315.64	17.58	-47.7	-50.0	14.9	0.00e+00	0	56	0	905969664	57	4880
2026-01-04 04:45:59.80	315.45	17.51	-47.5	-49.6	15.2	0.00e+00	0	56	0	908066816	57	4699
2026-01-04 04:46:00.79	315.27	17.44	-47.2	-49.2	15.6	0.00e+00	0	56	0	910163968	57	4467
2026-01-04 04:46:01.78	315.09	17.37	-47.2	-49.3	15.6	0.00e+00	0	56	0	912261120	57	4513
2026-01-04 04:46:02.76	314.91	17.30	-47.3	-49.4	15.5	0.00e+00	0	56	0	913309696	57	4548
2026-01-04 04:46:03.75	314.73	17.23	-47.7	-49.9	15.0	0.00e+00	0	56	0	915406848	57	4858
2026-01-04 04:46:04.74	314.55	17.16	-47.7	-49.9	15.0	7.00e-07	0	56	0	917504000	57	4839
2026-01-04 04:46:05.73	314.37	17.09	-47.8	-50.2	14.7	0.00e+00	0	56	0	919601152	57	5014
2026-01-04 04:46:06.72	314.19	17.02	-47.9	-50.2	14.7	0.00e+00	0	56	0	920649728	57	5040
2026-01-04 04:46:07.71	314.02	16.95	-47.9	-50.3	14.6	7.00e-07	0	56	0	922746880	57	5046
2026-01-04 04:46:08.70	313.84	16.88	-48.0	-50.4	14.5	0.00e+00	0	56	0	924844032	57	5139
2026-01-04 04:46:09.69	313.66	16.81	-47.8	-50.2	14.7	0.00e+00	0	57	0	926941184	58	4711
2026-01-04 04:46:10.68	313.49	16.74	-47.9	-50.2	14.7	0.00e+00	0	56	0	929038336	58	4724
2026-01-04 04:46:11.67	313.32	16.67	-47.8	-50.0	14.8	0.00e+00	0	56	0	930086912	58	4640
2026-01-04 04:46:12.66	313.14	16.60	-47.6	-49.7	15.2	0.00e+00	0	56	0	932184064	58	4480
2026-01-04 04:46:13.65	312.97	16.53	-47.5	-49.6	15.2	0.00e+00	0	56	0	934281216	58	4436
2026-01-04 04:46:14.64	312.80	16.46	-47.3	-49.3	15.5	0.00e+00	0	56	0	936378368	57	4516
2026-01-04 04:46:15.64	312.63	16.39	-47.2	-49.2	15.7	0.00e+00	0	56	0	937426944	57	4469
2026-01-04 04:46:16.63	312.46	16.32	-47.3	-49.3	15.5	0.00e+00	0	56	0	939524096	57	4538
2026-01-04 04:46:17.62	312.29	16.25	-47.6	-49.7	15.2	0.00e+00	0	56	0	941621248	57	4720
2026-01-04 04:46:18.61	312.12	16.17	-47.5	-49.6	15.3	0.00e+00	0	56	0	943718400	57	4699
2026-01-04 04:46:19.60	311.96	16.10	-47.4	-49.6	15.3	0.00e+00	0	56	0	944766976	57	4662
2026-01-04 04:46:20.58	311.79	16.03	-47.4	-49.4	15.4	0.00e+00	0	56	0	946864128	57	4550
2026-01-04 04:46:21.58	311.62	15.96	-47.4	-49.5	15.4	0.00e+00	0	56	0	948961280	57	4605
2026-01-04 04:46:22.57	311.46	15.89	-47.4	-49.5	15.4	0.00e+00	0	56	0	951058432	57	4612
2026-01-04 04:46:23.55	311.30	15.82	-47.3	-49.2	15.6	0.00e+00	0	56	0	953155584	57	4458
2026-01-04 04:46:24.54	311.13	15.75	-46.9	-48.7	16.1	0.00e+00	0	57	0	954204160	57	4218
2026-01-04 04:46:25.52	310.97	15.68	-46.9	-48.7	16.2	0.00e+00	0	56	0	956301312	56	4443
2026-01-04 04:46:26.50	310.81	15.61	-46.9	-48.7	16.2	0.00e+00	0	57	0	958398464	56	4475
2026-01-04 04:46:27.50	310.65	15.54	-46.6	-48.3	16.5	0.00e+00	0	56	0	960495616	56	4264
2026-01-04 04:46:28.49	310.49	15.47	-46.5	-48.1	16.7	0.00e+00	0	56	0	961544192	56	4164
2026-01-04 04:46:29.47	310.33	15.40	-46.5	-48.1	16.7	0.00e+00	0	56	0	963641344	56	4165
2026-01-04 04:46:30.46	310.17	15.32	-46.6	-48.2	16.6	0.00e+00	0	56	0	965738496	56	4233
2026-01-04 04:46:31.44	310.02	15.25	-47.0	-48.7	16.2	0.00e+00	0	56	0	967835648	56	4491
2026-01-04 04:46:32.43	309.86	15.18	-46.9	-48.7	16.1	0.00e+00	0	56	0	968884224	56	4480
2026-01-04 04:46:33.42	309.70	15.11	-47.1	-49.0	15.9	0.00e+00	0	56	0	970981376	56	4608
2026-01-04 04:46:34.41	309.55	15.04	-47.1	-49.0	15.8	0.00e+00	0	56	0	973078528	56	4643
2026-01-04 04:46:35.38	309.40	14.97	-47.0	-48.9	16.0	0.00e+00	0	57	0	975175680	56	4566
2026-01-04 04:46:36.36	309.25	14.90	-46.9	-48.7	16.1	0.00e+00	0	56	0	976224256	56	4468
2026-01-04 04:46:37.36	309.09	14.83	-46.9	-48.7	16.1	0.00e+00	0	57	0	978321408	56	4488
2026-01-04 04:46:38.35	308.94	14.76	-47.0	-48.8	16.1	0.00e+00	0	56	0	980418560	56	4499
2026-01-04 04:46:39.34	308.79	14.69	-46.9	-48.7	16.1	0.00e+00	0	56	0	982515712	56	4479
2026-01-04 04:46:40.33	308.64	14.61	-46.9	-48.7	16.2	0.00e+00	0	56	0	984612864	56	4459
2026-01-04 04:46:41.32	308.48	14.54	-46.5	-48.2	16.6	0.00e+00	0	56	0	985661440	56	4206
2026-01-04 04:46:42.31	308.34	14.47	-46.2	-47.8	16.9	0.00e+00	0	56	0	987758592	55	4277
2026-01-04 04:46:43.30	308.19	14.40	-46.2	-47.8	16.9	0.00e+00	0	56	0	989855744	55	4246
2026-01-04 04:46:44.29	308.04	14.33	-46.3	-47.9	16.8	0.00e+00	0	56	0	991952896	55	4337
2026-01-04 04:46:45.28	307.89	14.26	-46.6	-48.3	16.4	0.00e+00	0	56	0	993001472	55	4506
2026-01-04 04:46:46.27	307.74	14.19	-46.7	-48.5	16.2	0.00e+00	0	57	0	995098624	55	4618
2026-01-04 04:46:47.25	307.60	14.12	-47.1	-49.0	15.7	0.00e+00	0	56	0	997195776	55	4899
2026-01-04 04:46:48.24	307.45	14.05	-47.2	-49.2	15.7	0.00e+00	0	56	0	999292928	56	4720
2026-01-04 04:46:49.23	307.31	13.98	-47.5	-49.7	15.2	0.00e+00	0	56	0	1000341504	56	5009
2026-01-04 04:46:50.22	307.17	13.90	-47.5	-49.6	15.3	0.00e+00	0	56	0	1002438656	57	4697
2026-01-04 04:46:51.21	307.02	13.83	-47.5	-49.7	15.2	0.00e+00	0	56	0	1004535808	57	4728
2026-01-04 04:46:52.20	306.88	13.76	-47.5	-49.7	15.1	0.00e+00	0	56	0	1006632960	57	4723
2026-01-04 04:46:53.19	306.74	13.69	-47.4	-49.4	15.5	0.00e+00	0	56	0	1008730112	57	4568
2026-01-04 04:46:54.18	306.60	13.62	-47.3	-49.3	15.6	0.00e+00	0	56	0	1009778688	57	4505
2026-01-04 04:46:55.17	306.46	13.55	-47.1	-49.1	15.7	0.00e+00	0	56	0	1011875840	57	4400
2026-01-04 04:46:56.16	306.32	13.48	-47.2	-49.2	15.6	0.00e+00	0	56	0	1013972992	57	4465
2026-01-04 04:46:57.14	306.18	13.41	-46.9	-48.8	16.0	0.00e+00	0	56	0	1016070144	57	4255
2026-01-04 04:46:58.14	306.04	13.34	-46.8	-48.7	16.1	0.00e+00	0	56	0	1017118720	56	4448
2026-01-04 04:46:59.12	305.90	13.27	-46.7	-48.4	16.3	0.00e+00	0	56	0	1019215872	56	4313
2026-01-04 04:47:00.12	305.77	13.20	-46.5	-48.1	16.6	0.00e+00	0	56	0	1021313024	56	4183
2026-01-04 04:47:01.10	305.63	13.13	-46.5	-48.2	16.5	0.00e+00	0	56	0	1023410176	56	4219
2026-01-04 04:47:02.09	305.50	13.06	-46.2	-47.8	16.8	0.00e+00	0	56	0	1024458752	55	4280
2026-01-04 04:47:03.09	305.36	12.98	-46.2	-47.7	16.9	0.00e+00	0	56	0	1026555904	55	4231
2026-01-04 04:47:04.07	305.23	12.91	-46.2	-47.7	16.9	0.00e+00	0	56	0	1028653056	55	4212
2026-01-04 04:47:05.06	305.09	12.84	-46.7	-48.4	16.3	0.00e+00	0	56	0	1030750208	55	4567
2026-01-04 04:47:06.05	304.96	12.77	-46.9	-48.8	15.9	0.00e+00	0	56	0	1032847360	55	4762
2026-01-04 04:47:07.05	304.83	12.70	-47.1	-49.0	15.6	0.00e+00	0	56	0	1033895936	55	4920
2026-01-04 04:47:08.04	304.69	12.63	-47.6	-49.7	15.1	0.00e+00	0	56	0	1035993088	57	4755
2026-01-04 04:47:09.03	304.56	12.56	-47.8	-50.0	14.8	0.00e+00	0	56	0	1038090240	57	4888
2026-01-04 04:47:10.03	304.43	12.49	-47.9	-50.2	14.6	0.00e+00	0	57	0	1040187392	57	5011
2026-01-04 04:47:11.02	304.30	12.42	-47.9	-50.2	14.6	0.00e+00	0	56	0	1041235968	57	4992
2026-01-04 04:47:12.01	304.17	12.35	-48.2	-50.7	14.1	0.00e+00	0	56	0	1043333120	58	5013
2026-01-04 04:47:12.99	304.05	12.28	-47.7	-49.9	14.9	7.00e-07	0	56	0	1045430272	58	4583
2026-01-04 04:47:13.99	303.92	12.21	-47.3	-49.4	15.4	0.00e+00	0	56	0	1047527424	57	4562
2026-01-04 04:47:14.98	303.79	12.14	-47.1	-49.0	15.7	0.00e+00	0	57	0	1049624576	57	4357
2026-01-04 04:47:15.97	303.66	12.07	-47.0	-48.9	15.8	0.00e+00	0	56	0	1050673152	57	4319
2026-01-04 04:47:16.96	303.54	12.00	-47.0	-48.8	15.9	0.00e+00	0	57	0	1052770304	57	4289
2026-01-04 04:47:17.94	303.41	11.93	-47.0	-48.8	15.9	0.00e+00	0	56	0	1054867456	56	4535
2026-01-04 04:47:18.93	303.29	11.86	-46.9	-48.8	15.9	0.00e+00	0	57	0	1056964608	56	4497
2026-01-04 04:47:19.92	303.16	11.79	-46.8	-48.6	16.0	0.00e+00	0	56	0	1058013184	56	4439
2026-01-04 04:47:20.91	303.04	11.72	-47.1	-49.0	15.7	0.00e+00	0	57	0	1060110336	56	4599
2026-01-04 04:47:21.90	302.92	11.65	-47.0	-49.0	15.6	0.00e+00	0	57	0	1062207488	56	4617
2026-01-04 04:47:22.89	302.79	11.58	-47.1	-49.1	15.6	0.00e+00	0	56	0	1064304640	56	4658
2026-01-04 04:47:23.88	302.67	11.51	-47.1	-49.0	15.6	0.00e+00	0	56	0	1065353216	56	4637
2026-01-04 04:47:24.86	302.55	11.45	-47.2	-49.1	15.4	0.00e+00	0	56	0	1067450368	56	4704
2026-01-04 04:47:25.86	302.43	11.38	-47.2	-49.2	15.4	7.00e-07	0	56	0	1069547520	56	4736
2026-01-04 04:47:26.84	302.31	11.31	-47.2	-49.2	15.3	0.00e+00	0	57	0	1071644672	56	4741
2026-01-04 04:47:27.83	302.19	11.24	-47.3	-49.4	15.1	0.00e+00	0	57	0	1072693248	56	4855
2026-01-04 04:47:28.81	302.07	11.17	-47.4	-49.5	15.0	0.00e+00	0	56	0	1074790400	56	4884
2026-01-04 04:47:29.80	301.96	11.10	-47.4	-49.5	14.9	0.00e+00	0	56	0	1076887552	56	4920
2026-01-04 04:47:30.79	301.84	11.03	-47.6	-50.0	14.4	0.00e+00	0	56	0	1078984704	57	4911
2026-01-04 04:47:31.77	301.72	10.96	-47.8	-50.2	14.2	0.00e+00	0	56	0	1080033280	57	4992
2026-01-04 04:47:32.76	301.60	10.90	-47.8	-50.2	14.1	2.20e-06	0	56	0	1082130432	57	5022
2026-01-04 04:47:33.74	301.49	10.83	-47.9	-50.5	13.8	1.50e-06	0	56	0	1084227584	57	5197
2026-01-04 04:47:34.73	301.37	10.76	-48.1	-50.7	13.6	8.30e-06	0	56	0	1086324736	58	5034
2026-01-04 04:47:35.72	301.26	10.69	-48.1	-50.8	13.5	6.10e-06	0	56	0	1088421888	58	5048
2026-01-04 04:47:36.71	301.14	10.62	-48.1	-50.9	13.3	1.44e-05	0	56	0	1089470464	58	5136
2026-01-04 04:47:37.70	301.03	10.55	-48.3	-51.2	13.0	2.89e-05	0	56	0	1091567616	58	5320
2026-01-04 04:47:38.68	300.92	10.49	-48.2	-51.1	13.1	4.73e-05	0	57	0	1093664768	58	5263
2026-01-04 04:47:39.67	300.81	10.42	-48.5	-51.6	12.5	9.00e-05	0	56	0	1095761920	58	5592
2026-01-04 04:47:40.65	300.69	10.35	-48.6	-52.0	12.1	2.25e-04	0	56	0	1096810496	59	5471
2026-01-04 04:47:41.64	300.58	10.28	-48.6	-52.0	12.0	2.33e-04	0	56	0	1098907648	59	5489
2026-01-04 04:47:42.63	300.47	10.21	-48.7	-52.3	11.7	3.71e-04	0	56	0	1101004800	59	5674
2026-01-04 04:47:43.62	300.36	10.15	-48.8	-52.5	11.4	9.27e-04	0	56	0	1103101952	59	5801
2026-01-04 04:47:44.61	300.25	10.08	-48.8	-52.6	11.3	1.36e-03	0	56	0	1104150528	59	5863
2026-01-04 04:47:45.60	300.14	10.01	-48.7	-52.6	11.2	1.19e-03	0	57	0	1106247680	59	5887
2026-01-04 04:47:46.59	300.03	9.94	-48.9	-52.9	10.9	1.69e-03	0	56	0	1108344832	59	6078
2026-01-04 04:47:47.59	299.92	9.87	-48.9	-52.9	10.8	2.64e-03	0	56	0	1110441984	59	6066
2026-01-04 04:47:48.58	299.81	9.81	-48.9	-53.1	10.5	3.46e-03	0	56	0	1112539136	59	6228
2026-01-04 04:47:49.57	299.71	9.74	-48.9	-53.2	10.3	6.59e-03	0	56	0	1113587712	60	5967
2026-01-04 04:47:50.57	299.60	9.67	-48.8	-53.0	10.5	4.50e-03	0	57	0	1115684864	60	5792
2026-01-04 04:47:51.55	299.49	9.61	-48.7	-52.9	10.5	3.65e-03	0	56	0	1117782016	60	5772
2026-01-04 04:47:52.54	299.39	9.54	-48.6	-52.7	10.6	3.24e-03	0	56	0	1119879168	60	5649
2026-01-04 04:47:53.54	299.28	9.47	-48.6	-52.8	10.5	4.37e-03	0	56	0	1120927744	60	5663
2026-01-04 04:47:54.52	299.18	9.40	-48.5	-52.6	10.6	3.93e-03	0	56	0	1123024896	60	5539
2026-01-04 04:47:55.51	299.07	9.34	-48.6	-52.9	10.3	3.06e-03	0	56	0	1125122048	60	5764
2026-01-04 04:47:56.50	298.97	9.27	-48.6	-52.9	10.3	5.81e-03	0	56	0	1127219200	60	5732
2026-01-04 04:47:57.49	298.86	9.20	-48.4	-52.5	10.6	3.99e-03	0	56	0	1129316352	59	5822
2026-01-04 04:47:58.48	298.76	9.14	-48.5	-52.8	10.2	4.57e-03	0	56	0	1130364928	59	6007
2026-01-04 04:47:59.46	298.66	9.07	-48.6	-53.1	9.8	8.85e-03	0	57	0	1132462080	59	6237
2026-01-04 04:48:00.46	298.56	9.00	-48.6	-53.2	9.7	8.34e-03	0	56	0	1134559232	59	6300
2026-01-04 04:48:01.44	298.46	8.94	-48.7	-53.4	9.4	1.43e-02	0	56	0	1136656384	59	6489
2026-01-04 04:48:02.43	298.35	8.87	-48.7	-53.7	9.2	1.71e-02	0	56	0	1137704960	59	6652
2026-01-04 04:48:03.43	298.25	8.81	-48.9	-54.1	8.6	3.23e-02	0	56	0	1139802112	59	7017
2026-01-04 04:48:04.42	298.15	8.74	-48.9	-54.3	8.4	4.60e-02	0	56	0	1141899264	59	7197
2026-01-04 04:48:05.41	298.05	8.67	-49.0	-54.6	8.1	4.81e-02	0	56	0	1143996416	59	7424
2026-01-04 04:48:06.40	297.95	8.61	-49.0	-54.7	8.0	6.77e-02	0	56	0	1145044992	59	7525
2026-01-04 04:48:07.39	297.85	8.54	-49.0	-54.9	7.7	7.49e-02	0	56	0	1147142144	59	7653
2026-01-04 04:48:08.38	297.76	8.48	-49.0	-54.9	7.7	1.00e-01	0	56	0	1149239296	60	7263
2026-01-04 04:48:09.36	297.66	8.41	-48.9	-54.9	7.7	8.59e-02	0	56	0	1151336448	60	7285
2026-01-04 04:48:10.34	297.56	8.35	-49.0	-55.1	7.4	9.82e-02	0	56	0	1152385024	60	7451
2026-01-04 04:48:11.33	297.46	8.28	-48.8	-54.7	7.7	8.56e-02	0	57	0	1154482176	60	7104
2026-01-04 04:48:12.32	297.37	8.22	-48.8	-54.7	7.7	8.50e-02	0	56	0	1156579328	60	7114
2026-01-04 04:48:13.30	297.27	8.15	-48.7	-54.8	7.6	9.23e-02	0	56	0	1158676480	60	7163
2026-01-04 04:48:14.30	297.18	8.09	-48.8	-54.8	7.7	8.59e-02	0	56	0	1160773632	60	7137
2026-01-04 04:48:15.29	297.08	8.02	-48.8	-54.8	7.6	9.26e-02	0	57	0	1161822208	60	7160
2026-01-04 04:48:16.28	296.99	7.96	-48.8	-54.9	7.6	1.03e-01	0	56	0	1163919360	60	7234
2026-01-04 04:48:17.27	296.89	7.89	-48.8	-55.0	7.4	9.98e-02	0	56	0	1166016512	60	7310
2026-01-04 04:48:18.25	296.80	7.83	-48.8	-55.1	7.3	1.29e-01	0	56	0	1168113664	60	7413
2026-01-04 04:48:19.24	296.71	7.76	-48.7	-54.9	7.5	1.10e-01	0	56	0	1169162240	60	7258
2026-01-04 04:48:20.23	296.61	7.70	-48.7	-54.9	7.5	1.07e-01	0	57	0	1171259392	60	7271
2026-01-04 04:48:21.22	296.52	7.63	-48.7	-54.8	7.5	1.08e-01	0	56	0	1173356544	60	7171
2026-01-04 04:48:22.21	296.43	7.57	-48.8	-55.1	7.3	1.19e-01	0	56	0	1175453696	60	7400
2026-01-04 04:48:23.20	296.34	7.50	-48.9	-55.2	7.2	1.26e-01	0	56	0	1176502272	60	7541
2026-01-04 04:48:24.19	296.24	7.44	-48.9	-55.5	7.0	1.42e-01	0	56	0	1178599424	60	7742
2026-01-04 04:48:25.17	296.15	7.38	-49.0	-55.6	6.9	1.59e-01	0	56	0	1180696576	60	7811
2026-01-04 04:48:26.17	296.06	7.31	-49.0	-55.6	6.9	1.59e-01	0	56	0	1182793728	60	7868
2026-01-04 04:48:27.16	295.97	7.25	-49.1	-55.8	6.8	1.81e-01	0	56	0	1184890880	60	8061
2026-01-04 04:48:28.14	295.88	7.18	-49.1	-55.9	6.7	1.99e-01	0	57	0	1185939456	60	8143
2026-01-04 04:48:29.13	295.79	7.12	-49.2	-56.3	6.3	2.22e-01	0	56	0	1188036608	60	8498
2026-01-04 04:48:30.12	295.71	7.06	-49.1	-55.9	6.6	2.21e-01	0	56	0	1190133760	60	8150
2026-01-04 04:48:31.10	295.62	6.99	-49.0	-55.6	6.9	1.89e-01	0	56	0	1192230912	60	7889
2026-01-04 04:48:32.08	295.53	6.93	-49.0	-55.6	6.9	1.65e-01	0	57	0	1193279488	60	7892
2026-01-04 04:48:33.07	295.44	6.87	-49.0	-55.6	6.9	1.60e-01	0	57	0	1195376640	60	7867
2026-01-04 04:48:34.06	295.36	6.80	-49.0	-55.7	6.9	1.61e-01	0	57	0	1197473792	60	7905
2026-01-04 04:48:35.05	295.27	6.74	-49.0	-55.6	7.0	1.69e-01	0	57	0	1199570944	60	7855
2026-01-04 04:48:36.04	295.18	6.68	-49.0	-55.6	6.8	1.79e-01	0	57	0	1200619520	60	7884
2026-01-04 04:48:37.04	295.09	6.61	-48.9	-55.5	7.0	1.57e-01	0	56	0	1202716672	60	7781
2026-01-04 04:48:38.02	295.01	6.55	-49.0	-55.9	6.7	1.75e-01	0	56	0	1204813824	60	8112
2026-01-04 04:48:39.02	294.92	6.49	-49.0	-55.8	6.7	1.95e-01	0	56	0	1206910976	60	8025
2026-01-04 04:48:40.01	294.84	6.42	-49.0	-55.8	6.6	1.97e-01	0	56	0	1209008128	60	8029
2026-01-04 04:48:40.99	294.75	6.36	-49.0	-55.9	6.6	2.03e-01	0	56	0	1210056704	60	8151
2026-01-04 04:48:41.98	294.67	6.30	-49.0	-56.0	6.5	2.18e-01	0	56	0	1212153856	60	8231
2026-01-04 04:48:42.97	294.59	6.24	-49.0	-56.0	6.5	2.26e-01	0	56	0	1214251008	60	8254
2026-01-04 04:48:43.96	294.50	6.17	-49.0	-56.0	6.5	2.13e-01	0	57	0	1216348160	60	8253
2026-01-04 04:48:44.95	294.42	6.11	-49.1	-56.4	6.2	2.94e-01	0	57	0	1217396736	60	8596
2026-01-04 04:48:45.93	294.34	6.05	-49.1	-56.2	6.3	2.91e-01	0	57	0	1219493888	60	8454
2026-01-04 04:48:46.92	294.26	5.99	-49.1	-56.5	6.0	2.93e-01	0	57	0	1221591040	60	8730
2026-01-04 04:48:47.92	294.17	5.93	-49.1	-56.4	6.1	3.13e-01	0	56	0	1223688192	60	8614
2026-01-04 04:48:48.91	294.09	5.86	-49.2	-56.9	5.8	3.73e-01	0	56	0	1224736768	60	9132
2026-01-04 04:48:49.90	294.01	5.80	-49.2	-56.9	5.7	4.09e-01	0	56	0	1226833920	60	9115
2026-01-04 04:48:50.89	293.93	5.74	-49.2	-57.5	5.3	4.10e-01	0	57	0	1228931072	60	9780
2026-01-04 04:48:51.87	293.85	5.68	-48.8	-57.4	5.4	5.34e-01	0	57	0	1231028224	60	9626
2026-01-04 04:48:52.85	293.77	5.62	-49.2	-57.8	5.1	6.05e-01	0	57	0	1232076800	60	10111
