passes_logs/2026/01/04/R3.0SM8_Murmansk_STILSPACE/R3.0SM8_Murmansk_STILSPACE__20260104_125920_SUOMI_NPP_rec.log

#Pass ID: 20260104_125920_SUOMI NPP
#Satellite: SUOMI NPP
#Configuration: NPP
#almurnet v.1.7.20240730
#Start time: 2026-01-04 12:59:20

#Version: 2.2.20231116
#Station: R3.0SM8_Murmansk_STILSPACE
#Location: 33.092731 lon 68.902999 lat
#TLE: 1 37849U 11061A   26001.07732418  .00000182  00000+0  10735-3 0  9990
#TLE: 2 37849  98.7795 303.2470 0002580  87.2016 272.9455 14.19520779734739

#Time	Az	El	Level	Level2	SNR	BER	BlckErr	Temp	State	Recorded	gain1	gain2
2026-01-04 12:59:20.07	242.36	3.00	-52.4	-66.4	3.8	1.49e+00	0	45	0	0	67	18234
2026-01-04 12:59:21.05	242.47	3.04	-52.4	-66.4	3.8	1.49e+00	0	45	104	0	67	18195
2026-01-04 12:59:22.03	242.57	3.09	-52.4	-66.4	3.8	1.49e+00	0	45	104	0	67	18120
2026-01-04 12:59:23.02	242.67	3.13	-52.3	-66.4	3.8	1.49e+00	0	46	104	0	67	18111
2026-01-04 12:59:24.01	242.77	3.18	-52.2	-66.3	3.8	1.49e+00	0	46	104	0	67	18088
2026-01-04 12:59:25.00	242.88	3.22	-52.3	-66.4	3.8	1.49e+00	0	46	104	0	67	18125
2026-01-04 12:59:25.98	242.98	3.27	-52.3	-66.3	3.8	1.49e+00	0	46	104	0	67	18033
2026-01-04 12:59:26.96	243.08	3.31	-52.2	-66.3	3.8	1.49e+00	0	46	104	0	67	18020
2026-01-04 12:59:27.95	243.19	3.36	-52.2	-66.3	3.8	1.49e+00	0	46	104	0	67	18004
2026-01-04 12:59:28.93	243.29	3.40	-52.2	-66.3	3.8	1.49e+00	0	46	104	0	67	17941
2026-01-04 12:59:29.90	243.39	3.45	-52.2	-66.2	3.8	1.49e+00	0	46	104	0	67	17835
2026-01-04 12:59:30.89	243.50	3.49	-52.1	-66.2	3.8	1.49e+00	0	46	104	0	67	17758
2026-01-04 12:59:31.87	243.60	3.54	-52.1	-66.2	3.8	1.49e+00	0	46	104	0	67	17695
2026-01-04 12:59:32.86	243.71	3.58	-52.1	-66.1	3.8	1.49e+00	0	46	104	0	67	17615
2026-01-04 12:59:33.85	243.81	3.63	-52.0	-66.0	3.8	1.49e+00	0	46	104	0	67	17454
2026-01-04 12:59:34.82	243.92	3.67	-51.9	-65.9	3.8	1.49e+00	0	46	104	0	66	18286
2026-01-04 12:59:35.82	244.03	3.72	-51.8	-65.8	3.8	1.49e+00	0	46	104	0	66	18037
2026-01-04 12:59:36.80	244.13	3.76	-51.6	-65.5	3.8	1.49e+00	0	46	104	0	66	17393
2026-01-04 12:59:37.79	244.24	3.81	-51.3	-65.3	3.8	1.49e+00	0	47	104	0	65	17928
2026-01-04 12:59:38.79	244.35	3.85	-51.3	-65.3	3.8	1.49e+00	0	47	104	0	65	17903
2026-01-04 12:59:39.77	244.46	3.90	-51.3	-65.2	3.8	1.49e+00	0	47	104	0	65	17855
2026-01-04 12:59:40.76	244.56	3.94	-51.3	-65.2	3.8	1.49e+00	0	47	104	0	65	17808
2026-01-04 12:59:41.75	244.67	3.99	-51.3	-65.3	3.8	1.49e+00	0	47	104	0	65	17985
2026-01-04 12:59:42.74	244.78	4.03	-51.4	-65.3	3.8	1.49e+00	0	47	104	0	65	18057
2026-01-04 12:59:43.74	244.89	4.08	-51.3	-65.3	3.8	1.49e+00	0	47	104	0	65	18079
2026-01-04 12:59:44.73	245.00	4.12	-51.3	-65.3	3.8	1.49e+00	0	47	104	0	65	18057
2026-01-04 12:59:45.72	245.11	4.17	-51.4	-65.3	3.8	1.49e+00	0	47	104	0	65	18014
2026-01-04 12:59:46.71	245.22	4.21	-51.4	-65.3	3.8	1.49e+00	0	47	104	0	65	18018
2026-01-04 12:59:47.70	245.33	4.26	-51.4	-65.2	3.8	1.49e+00	0	47	104	0	65	17767
2026-01-04 12:59:48.68	245.44	4.30	-51.3	-65.2	3.8	1.49e+00	0	47	104	0	65	17847
2026-01-04 12:59:49.66	245.55	4.35	-51.3	-65.2	3.8	1.49e+00	0	47	104	0	65	17704
2026-01-04 12:59:50.65	245.67	4.39	-51.3	-65.2	3.8	1.49e+00	0	47	104	0	65	17733
2026-01-04 12:59:51.64	245.78	4.44	-51.3	-65.2	3.8	1.49e+00	0	47	104	0	65	17813
2026-01-04 12:59:52.63	245.89	4.48	-51.4	-65.3	3.8	1.49e+00	0	47	104	0	65	17913
2026-01-04 12:59:53.62	246.00	4.53	-51.3	-65.3	3.8	1.49e+00	0	47	104	0	65	17963
2026-01-04 12:59:54.61	246.12	4.57	-51.3	-65.2	3.8	1.49e+00	0	48	104	0	65	17701
2026-01-04 12:59:55.59	246.23	4.62	-51.3	-64.7	3.8	1.49e+00	0	48	104	0	65	16847
2026-01-04 12:59:56.58	246.34	4.66	-51.2	-64.0	3.8	1.49e+00	0	48	104	0	65	15452
2026-01-04 12:59:57.56	246.45	4.71	-51.2	-62.8	3.9	1.49e+00	0	48	104	0	65	13436
2026-01-04 12:59:58.55	246.57	4.75	-51.2	-61.2	4.4	1.37e+00	0	48	0	0	65	11162
2026-01-04 12:59:59.52	246.68	4.80	-51.0	-59.5	5.1	8.45e-01	0	48	0	1048576	65	9269
2026-01-04 13:00:00.52	246.80	4.84	-50.7	-58.3	5.9	4.85e-01	0	48	0	3145728	64	8533
2026-01-04 13:00:01.50	246.91	4.89	-50.5	-56.7	7.4	2.24e-01	0	48	0	5242880	63	7522
2026-01-04 13:00:02.48	247.02	4.93	-50.1	-55.5	8.5	5.18e-02	0	48	0	7340032	63	6560
2026-01-04 13:00:03.48	247.14	4.98	-49.7	-54.5	9.6	1.81e-02	0	48	0	8388608	62	6157
2026-01-04 13:00:04.47	247.26	5.02	-49.3	-53.5	10.7	6.06e-03	0	48	0	10485760	61	5837
2026-01-04 13:00:05.45	247.37	5.06	-49.0	-52.7	11.5	1.38e-03	0	48	0	12582912	61	5297
2026-01-04 13:00:06.44	247.49	5.11	-49.2	-53.0	11.2	1.01e-03	0	48	0	14680064	61	5503
2026-01-04 13:00:07.43	247.61	5.15	-49.2	-53.2	10.9	2.42e-03	0	48	0	16777216	61	5631
2026-01-04 13:00:08.42	247.73	5.20	-49.0	-52.6	11.6	1.19e-03	0	48	0	17825792	61	5244
2026-01-04 13:00:09.41	247.84	5.24	-48.9	-52.3	11.9	5.07e-04	0	48	0	19922944	60	5381
2026-01-04 13:00:10.40	247.96	5.29	-48.9	-52.5	11.7	4.49e-04	0	49	0	22020096	60	5505
2026-01-04 13:00:11.39	248.08	5.33	-49.0	-52.7	11.6	6.32e-04	0	48	0	24117248	60	5596
2026-01-04 13:00:12.38	248.20	5.38	-49.0	-52.5	11.7	7.10e-04	0	48	0	25165824	60	5519
2026-01-04 13:00:13.37	248.32	5.42	-49.0	-52.7	11.6	6.86e-04	0	49	0	27262976	60	5647
2026-01-04 13:00:14.36	248.44	5.47	-49.0	-52.7	11.6	8.03e-04	0	49	0	29360128	60	5617
2026-01-04 13:00:15.35	248.56	5.51	-48.9	-52.4	11.9	6.12e-04	0	49	0	31457280	60	5460
2026-01-04 13:00:16.33	248.68	5.56	-49.0	-52.5	11.7	4.88e-04	0	49	0	32505856	60	5519
2026-01-04 13:00:17.32	248.80	5.60	-49.0	-52.6	11.7	5.08e-04	0	49	0	34603008	60	5552
2026-01-04 13:00:18.31	248.92	5.64	-49.0	-52.6	11.7	6.74e-04	0	49	0	36700160	60	5572
2026-01-04 13:00:19.29	249.04	5.69	-49.0	-52.5	11.8	5.20e-04	0	49	0	38797312	60	5505
2026-01-04 13:00:20.27	249.16	5.73	-48.6	-51.8	12.5	2.42e-04	0	49	0	40894464	60	5098
2026-01-04 13:00:21.26	249.28	5.78	-48.5	-51.7	12.6	8.92e-05	0	49	0	41943040	60	5007
2026-01-04 13:00:22.25	249.41	5.82	-48.4	-51.4	13.0	5.34e-05	0	49	0	44040192	59	5143
2026-01-04 13:00:23.23	249.53	5.86	-48.4	-51.4	13.0	3.81e-05	0	49	0	46137344	59	5108
2026-01-04 13:00:24.22	249.65	5.91	-48.5	-51.5	12.9	4.65e-05	0	49	0	47185920	59	5187
2026-01-04 13:00:25.21	249.78	5.95	-48.6	-51.7	12.7	8.01e-05	0	49	0	49283072	59	5302
2026-01-04 13:00:26.20	249.90	6.00	-48.6	-51.6	12.7	5.34e-05	0	49	0	51380224	59	5275
2026-01-04 13:00:27.18	250.02	6.04	-48.5	-51.4	13.0	5.03e-05	0	49	0	53477376	59	5150
2026-01-04 13:00:28.17	250.15	6.08	-48.5	-51.5	12.9	4.95e-05	0	49	0	55574528	59	5192
2026-01-04 13:00:29.15	250.27	6.13	-48.5	-51.5	12.9	5.64e-05	0	49	0	56623104	59	5212
2026-01-04 13:00:30.13	250.40	6.17	-48.4	-51.3	13.1	2.13e-05	0	50	0	58720256	59	5051
2026-01-04 13:00:31.12	250.52	6.22	-48.4	-51.3	13.0	3.05e-05	0	49	0	60817408	59	5095
2026-01-04 13:00:32.11	250.65	6.26	-48.3	-51.0	13.4	3.35e-05	0	49	0	62914560	59	4923
2026-01-04 13:00:33.10	250.77	6.30	-48.1	-50.8	13.6	9.90e-06	0	50	0	63963136	59	4807
2026-01-04 13:00:34.08	250.90	6.35	-48.2	-50.8	13.6	1.75e-05	0	50	0	66060288	59	4804
2026-01-04 13:00:35.07	251.03	6.39	-48.3	-51.0	13.4	8.30e-06	0	50	0	68157440	59	4911
2026-01-04 13:00:36.05	251.15	6.43	-48.3	-51.1	13.4	9.10e-06	0	50	0	70254592	59	4930
2026-01-04 13:00:37.03	251.28	6.48	-48.3	-51.1	13.4	9.90e-06	0	50	0	71303168	59	4962
2026-01-04 13:00:38.01	251.41	6.52	-48.5	-51.5	13.0	2.97e-05	0	50	0	73400320	59	5169
2026-01-04 13:00:39.00	251.54	6.56	-48.4	-51.3	13.1	2.51e-05	0	50	0	75497472	59	5099
2026-01-04 13:00:39.99	251.66	6.61	-48.4	-51.3	13.2	2.13e-05	0	50	0	77594624	59	5051
2026-01-04 13:00:40.98	251.79	6.65	-48.5	-51.4	13.1	1.75e-05	0	50	0	79691776	59	5133
2026-01-04 13:00:41.97	251.92	6.70	-48.4	-51.2	13.3	2.44e-05	0	50	0	80740352	59	5013
2026-01-04 13:00:42.96	252.05	6.74	-48.7	-51.7	12.8	3.28e-05	0	50	0	82837504	59	5322
2026-01-04 13:00:43.95	252.18	6.78	-48.4	-51.3	13.2	2.74e-05	0	50	0	84934656	59	5086
2026-01-04 13:00:44.94	252.32	6.83	-48.2	-50.9	13.6	8.30e-06	0	50	0	87031808	59	4815
2026-01-04 13:00:45.92	252.45	6.87	-48.0	-50.5	14.0	2.20e-06	0	50	0	88080384	59	4630
2026-01-04 13:00:46.91	252.58	6.91	-48.0	-50.5	14.0	1.50e-06	0	50	0	90177536	59	4600
2026-01-04 13:00:47.90	252.71	6.96	-47.9	-50.3	14.2	7.00e-07	0	50	0	92274688	58	4781
2026-01-04 13:00:48.89	252.84	7.00	-47.9	-50.4	14.1	7.00e-07	0	50	0	94371840	58	4826
2026-01-04 13:00:49.87	252.97	7.04	-47.9	-50.3	14.2	7.00e-07	0	50	0	95420416	58	4778
2026-01-04 13:00:50.86	253.11	7.08	-47.9	-50.3	14.2	7.00e-07	0	50	0	97517568	58	4797
2026-01-04 13:00:51.85	253.24	7.13	-48.1	-50.7	13.9	1.50e-06	0	50	0	99614720	58	5008
2026-01-04 13:00:52.83	253.37	7.17	-48.0	-50.6	14.0	2.20e-06	0	50	0	101711872	58	4947
2026-01-04 13:00:53.82	253.51	7.21	-48.1	-50.6	14.0	1.50e-06	0	50	0	102760448	58	4929
2026-01-04 13:00:54.81	253.64	7.26	-48.1	-50.7	13.9	3.00e-06	0	50	0	104857600	58	5008
2026-01-04 13:00:55.80	253.78	7.30	-48.1	-50.7	13.9	3.80e-06	0	50	0	106954752	58	5009
2026-01-04 13:00:56.78	253.91	7.34	-48.3	-51.0	13.6	4.50e-06	0	50	0	109051904	58	5160
2026-01-04 13:00:57.76	254.05	7.38	-48.3	-51.0	13.6	5.30e-06	0	51	0	110100480	58	5176
2026-01-04 13:00:58.74	254.18	7.42	-48.3	-51.1	13.5	4.50e-06	0	51	0	112197632	58	5221
2026-01-04 13:00:59.73	254.32	7.47	-48.2	-50.9	13.6	9.10e-06	0	51	0	114294784	58	5153
2026-01-04 13:01:00.72	254.45	7.51	-48.2	-50.7	13.8	6.80e-06	0	50	0	116391936	58	5035
2026-01-04 13:01:01.71	254.59	7.55	-48.1	-50.6	14.0	4.50e-06	0	51	0	118489088	58	4968
2026-01-04 13:01:02.70	254.73	7.59	-48.1	-50.7	13.9	2.20e-06	0	51	0	119537664	58	5008
2026-01-04 13:01:03.68	254.87	7.64	-48.1	-50.6	14.0	3.00e-06	0	51	0	121634816	58	4929
2026-01-04 13:01:04.67	255.01	7.68	-48.0	-50.5	14.1	1.50e-06	0	51	0	123731968	58	4893
2026-01-04 13:01:05.66	255.14	7.72	-48.1	-50.6	14.1	4.50e-06	0	51	0	125829120	58	4934
2026-01-04 13:01:06.64	255.28	7.76	-48.0	-50.4	14.1	7.00e-07	0	51	0	126877696	58	4870
2026-01-04 13:01:07.63	255.42	7.80	-48.1	-50.6	14.0	3.00e-06	0	51	0	128974848	58	4977
2026-01-04 13:01:08.61	255.56	7.84	-48.0	-50.5	14.0	3.00e-06	0	51	0	131072000	58	4926
2026-01-04 13:01:09.59	255.70	7.89	-48.1	-50.7	13.9	2.20e-06	0	51	0	133169152	58	5000
2026-01-04 13:01:10.57	255.84	7.93	-48.2	-50.8	13.8	4.50e-06	0	51	0	134217728	58	5064
2026-01-04 13:01:11.55	255.98	7.97	-48.1	-50.7	13.9	4.50e-06	0	51	0	136314880	58	5017
2026-01-04 13:01:12.55	256.12	8.01	-48.3	-50.9	13.7	5.30e-06	0	51	0	138412032	58	5133
2026-01-04 13:01:13.53	256.26	8.05	-48.3	-50.9	13.7	4.50e-06	0	51	0	140509184	58	5134
2026-01-04 13:01:14.51	256.40	8.09	-48.2	-50.8	13.8	3.80e-06	0	51	0	141557760	58	5064
2026-01-04 13:01:15.51	256.55	8.13	-48.1	-50.7	13.9	6.10e-06	0	51	0	143654912	58	4995
2026-01-04 13:01:16.49	256.69	8.18	-48.1	-50.7	13.9	5.30e-06	0	51	0	145752064	58	5006
2026-01-04 13:01:17.48	256.83	8.22	-48.0	-50.6	14.1	2.20e-06	0	51	0	147849216	58	4930
2026-01-04 13:01:18.47	256.98	8.26	-48.0	-50.5	14.1	6.80e-06	0	51	0	149946368	58	4919
2026-01-04 13:01:19.46	257.12	8.30	-48.1	-50.6	14.0	1.50e-06	0	51	0	150994944	58	4979
2026-01-04 13:01:20.44	257.26	8.34	-48.1	-50.7	14.0	3.80e-06	0	51	0	153092096	58	4985
2026-01-04 13:01:21.44	257.41	8.38	-48.1	-50.5	14.1	2.20e-06	0	51	0	155189248	58	4907
2026-01-04 13:01:22.43	257.56	8.42	-48.0	-50.6	14.1	1.50e-06	0	51	0	157286400	58	4942
2026-01-04 13:01:23.41	257.70	8.46	-48.2	-50.8	13.9	3.80e-06	0	52	0	158334976	58	5046
2026-01-04 13:01:24.40	257.85	8.50	-48.2	-50.8	13.8	4.50e-06	0	51	0	160432128	58	5072
2026-01-04 13:01:25.38	257.99	8.54	-48.1	-50.6	14.0	2.20e-06	0	51	0	162529280	58	4955
2026-01-04 13:01:26.37	258.14	8.58	-48.0	-50.5	14.2	0.00e+00	0	51	0	164626432	58	4901
2026-01-04 13:01:27.34	258.28	8.62	-48.1	-50.6	14.0	7.00e-07	0	51	0	165675008	58	4968
2026-01-04 13:01:28.33	258.43	8.66	-48.1	-50.7	14.0	4.50e-06	0	52	0	167772160	58	5007
2026-01-04 13:01:29.31	258.58	8.70	-48.0	-50.5	14.1	0.00e+00	0	51	0	169869312	58	4917
2026-01-04 13:01:30.30	258.73	8.74	-48.1	-50.7	14.0	3.00e-06	0	52	0	171966464	58	5023
2026-01-04 13:01:31.29	258.88	8.78	-48.3	-50.9	13.7	5.30e-06	0	51	0	173015040	58	5144
2026-01-04 13:01:32.28	259.03	8.82	-48.1	-50.6	14.0	6.80e-06	0	51	0	175112192	58	4969
2026-01-04 13:01:33.27	259.18	8.86	-48.2	-50.8	13.9	3.80e-06	0	51	0	177209344	58	5061
2026-01-04 13:01:34.26	259.33	8.90	-48.2	-50.9	13.8	3.00e-06	0	51	0	179306496	58	5118
2026-01-04 13:01:35.25	259.48	8.94	-48.3	-51.0	13.7	4.50e-06	0	52	0	181403648	58	5194
2026-01-04 13:01:36.24	259.63	8.98	-48.4	-51.1	13.5	6.80e-06	0	52	0	182452224	58	5274
2026-01-04 13:01:37.23	259.78	9.02	-48.3	-50.9	13.8	3.80e-06	0	52	0	184549376	58	5141
2026-01-04 13:01:38.22	259.93	9.06	-48.3	-50.9	13.8	9.10e-06	0	52	0	186646528	58	5111
2026-01-04 13:01:39.21	260.08	9.09	-48.2	-50.7	14.0	2.20e-06	0	52	0	188743680	58	5029
2026-01-04 13:01:40.20	260.24	9.13	-48.1	-50.6	14.1	3.80e-06	0	52	0	189792256	58	4936
2026-01-04 13:01:41.18	260.39	9.17	-48.0	-50.5	14.2	2.20e-06	0	52	0	191889408	58	4907
2026-01-04 13:01:42.17	260.54	9.21	-47.9	-50.4	14.3	0.00e+00	0	52	0	193986560	58	4816
2026-01-04 13:01:43.16	260.69	9.25	-48.1	-50.6	14.1	0.00e+00	0	52	0	196083712	58	4954
2026-01-04 13:01:44.15	260.85	9.29	-48.0	-50.4	14.2	7.00e-07	0	52	0	197132288	58	4866
2026-01-04 13:01:45.14	261.00	9.33	-48.1	-50.7	14.1	7.00e-07	0	52	0	199229440	58	4993
2026-01-04 13:01:46.13	261.16	9.36	-48.2	-50.8	13.9	1.50e-06	0	52	0	201326592	58	5060
2026-01-04 13:01:47.13	261.31	9.40	-48.2	-50.9	13.8	8.30e-06	0	52	0	203423744	58	5112
2026-01-04 13:01:48.11	261.47	9.44	-48.4	-51.1	13.6	6.10e-06	0	52	0	205520896	58	5233
2026-01-04 13:01:49.10	261.62	9.48	-48.4	-51.2	13.6	7.60e-06	0	52	0	206569472	58	5284
2026-01-04 13:01:50.09	261.78	9.52	-48.6	-51.5	13.2	3.28e-05	0	52	0	208666624	59	5173
2026-01-04 13:01:51.08	261.94	9.55	-48.4	-51.2	13.5	2.21e-05	0	52	0	210763776	59	5016
2026-01-04 13:01:52.07	262.09	9.59	-48.3	-51.0	13.7	6.10e-06	0	52	0	212860928	59	4900
2026-01-04 13:01:53.05	262.25	9.63	-48.3	-50.9	13.7	7.60e-06	0	52	0	213909504	59	4866
2026-01-04 13:01:54.03	262.41	9.66	-48.4	-51.1	13.6	6.10e-06	0	52	0	216006656	59	4930
2026-01-04 13:01:55.01	262.56	9.70	-48.3	-50.8	13.9	2.20e-06	0	52	0	218103808	59	4807
2026-01-04 13:01:55.99	262.72	9.74	-48.3	-50.8	13.9	4.50e-06	0	52	0	220200960	59	4774
2026-01-04 13:01:56.98	262.88	9.77	-48.5	-51.2	13.5	1.50e-06	0	52	0	221249536	59	5003
2026-01-04 13:01:57.97	263.04	9.81	-48.3	-50.9	13.9	2.20e-06	0	52	0	223346688	59	4819
2026-01-04 13:01:58.96	263.20	9.85	-48.2	-50.8	13.9	1.50e-06	0	52	0	225443840	59	4791
2026-01-04 13:01:59.94	263.36	9.88	-48.3	-50.9	13.8	1.50e-06	0	52	0	227540992	59	4830
2026-01-04 13:02:00.93	263.52	9.92	-48.5	-51.2	13.5	6.10e-06	0	52	0	228589568	59	5026
2026-01-04 13:02:01.92	263.68	9.95	-48.6	-51.5	13.2	1.22e-05	0	52	0	230686720	59	5198
2026-01-04 13:02:02.91	263.84	9.99	-48.7	-51.5	13.2	1.52e-05	0	52	0	232783872	59	5208
2026-01-04 13:02:03.90	264.00	10.03	-48.7	-51.7	13.1	1.83e-05	0	52	0	234881024	59	5290
2026-01-04 13:02:04.89	264.17	10.06	-48.6	-51.4	13.3	2.82e-05	0	52	0	236978176	59	5138
2026-01-04 13:02:05.88	264.33	10.10	-48.8	-51.7	13.0	3.81e-05	0	52	0	238026752	59	5315
2026-01-04 13:02:06.87	264.49	10.13	-48.8	-51.8	13.0	5.11e-05	0	52	0	240123904	59	5341
2026-01-04 13:02:07.85	264.65	10.17	-49.0	-52.1	12.6	7.70e-05	0	53	0	242221056	59	5590
2026-01-04 13:02:08.83	264.81	10.20	-48.9	-51.9	12.8	5.56e-05	0	52	0	244318208	59	5441
2026-01-04 13:02:09.81	264.98	10.24	-48.9	-51.8	12.8	4.80e-05	0	52	0	245366784	59	5398
2026-01-04 13:02:10.80	265.14	10.27	-48.8	-51.9	12.8	3.73e-05	0	52	0	247463936	59	5448
2026-01-04 13:02:11.79	265.31	10.30	-48.9	-52.0	12.7	7.78e-05	0	52	0	249561088	59	5487
2026-01-04 13:02:12.78	265.47	10.34	-49.1	-52.4	12.3	1.23e-04	0	52	0	251658240	60	5424
2026-01-04 13:02:13.77	265.64	10.37	-49.0	-52.3	12.4	1.89e-04	0	52	0	252706816	60	5397
2026-01-04 13:02:14.75	265.80	10.41	-49.0	-52.3	12.4	1.53e-04	0	52	0	254803968	60	5389
2026-01-04 13:02:15.74	265.97	10.44	-49.0	-52.3	12.4	1.34e-04	0	52	0	256901120	60	5341
2026-01-04 13:02:16.72	266.13	10.47	-49.0	-52.3	12.4	1.34e-04	0	52	0	258998272	60	5358
2026-01-04 13:02:17.71	266.30	10.51	-49.0	-52.2	12.5	1.55e-04	0	52	0	260046848	60	5312
2026-01-04 13:02:18.69	266.47	10.54	-49.0	-52.2	12.4	1.51e-04	0	53	0	262144000	60	5314
2026-01-04 13:02:19.67	266.63	10.57	-48.9	-52.1	12.6	1.19e-04	0	52	0	264241152	60	5238
2026-01-04 13:02:20.66	266.80	10.61	-48.8	-51.9	12.7	8.23e-05	0	53	0	266338304	60	5126
2026-01-04 13:02:21.64	266.97	10.64	-48.7	-51.6	13.0	3.73e-05	0	53	0	268435456	60	4979
2026-01-04 13:02:22.62	267.13	10.67	-48.5	-51.4	13.3	2.21e-05	0	53	0	269484032	60	4844
2026-01-04 13:02:23.61	267.30	10.70	-48.5	-51.2	13.5	1.83e-05	0	53	0	271581184	60	4748
2026-01-04 13:02:24.60	267.47	10.74	-48.6	-51.4	13.3	1.75e-05	0	53	0	273678336	60	4838
2026-01-04 13:02:25.58	267.64	10.77	-48.5	-51.4	13.2	1.60e-05	0	53	0	275775488	60	4863
2026-01-04 13:02:26.57	267.81	10.80	-48.7	-51.6	13.0	2.89e-05	0	53	0	276824064	60	4980
2026-01-04 13:02:27.56	267.98	10.83	-48.6	-51.6	13.0	4.80e-05	0	53	0	278921216	60	4954
2026-01-04 13:02:28.53	268.15	10.86	-48.7	-51.7	12.8	3.05e-05	0	53	0	281018368	60	5025
2026-01-04 13:02:29.52	268.32	10.89	-48.7	-51.8	12.8	6.56e-05	0	53	0	283115520	60	5063
2026-01-04 13:02:30.50	268.49	10.92	-48.7	-51.8	12.8	5.26e-05	0	53	0	284164096	60	5050
2026-01-04 13:02:31.48	268.66	10.95	-48.6	-51.6	12.8	7.40e-05	0	53	0	286261248	60	4969
2026-01-04 13:02:32.47	268.83	10.99	-48.6	-51.6	12.8	5.11e-05	0	53	0	288358400	60	4979
2026-01-04 13:02:33.46	269.01	11.02	-48.5	-51.5	12.8	9.15e-05	0	53	0	290455552	60	4920
2026-01-04 13:02:34.45	269.18	11.05	-48.4	-51.3	13.1	4.57e-05	0	53	0	291504128	59	5056
2026-01-04 13:02:35.43	269.35	11.08	-48.3	-51.2	13.2	1.75e-05	0	53	0	293601280	59	5018
2026-01-04 13:02:36.41	269.52	11.11	-48.3	-51.1	13.3	1.83e-05	0	53	0	295698432	59	4951
2026-01-04 13:02:37.40	269.70	11.14	-48.4	-51.3	13.0	3.96e-05	0	53	0	297795584	59	5084
2026-01-04 13:02:38.38	269.87	11.17	-48.3	-51.1	13.2	3.81e-05	0	53	0	298844160	59	4937
2026-01-04 13:02:39.37	270.04	11.20	-48.2	-51.1	13.2	2.36e-05	0	53	0	300941312	59	4945
2026-01-04 13:02:40.35	270.22	11.22	-48.4	-51.3	13.1	4.80e-05	0	53	0	303038464	59	5045
2026-01-04 13:02:41.34	270.39	11.25	-48.5	-51.4	12.9	2.89e-05	0	53	0	305135616	59	5157
2026-01-04 13:02:42.33	270.57	11.28	-48.5	-51.4	12.9	5.41e-05	0	53	0	307232768	59	5151
2026-01-04 13:02:43.32	270.74	11.31	-48.4	-51.4	12.9	4.50e-05	0	53	0	308281344	59	5122
2026-01-04 13:02:44.31	270.92	11.34	-48.4	-51.3	12.9	2.89e-05	0	53	0	310378496	59	5095
2026-01-04 13:02:45.30	271.10	11.37	-48.4	-51.3	13.0	4.80e-05	0	53	0	312475648	59	5051
2026-01-04 13:02:46.29	271.27	11.40	-48.4	-51.3	13.0	2.74e-05	0	53	0	314572800	59	5088
2026-01-04 13:02:47.28	271.45	11.42	-48.3	-51.2	13.2	3.05e-05	0	53	0	315621376	59	5002
2026-01-04 13:02:48.27	271.63	11.45	-48.5	-51.5	12.9	1.90e-05	0	53	0	317718528	59	5204
2026-01-04 13:02:49.25	271.81	11.48	-48.5	-51.5	12.9	3.89e-05	0	53	0	319815680	59	5187
2026-01-04 13:02:50.24	271.98	11.50	-48.3	-51.1	13.3	1.14e-05	0	53	0	321912832	59	4978
2026-01-04 13:02:51.22	272.16	11.53	-48.3	-51.0	13.5	1.52e-05	0	53	0	322961408	59	4873
2026-01-04 13:02:52.21	272.34	11.56	-48.4	-51.2	13.3	1.60e-05	0	53	0	325058560	59	4986
2026-01-04 13:02:53.20	272.52	11.58	-48.4	-51.3	13.2	1.83e-05	0	53	0	327155712	59	5049
2026-01-04 13:02:54.19	272.70	11.61	-48.2	-51.0	13.5	1.29e-05	0	53	0	329252864	59	4874
2026-01-04 13:02:55.18	272.88	11.64	-48.1	-50.7	13.7	1.06e-05	0	53	0	330301440	59	4754
2026-01-04 13:02:56.16	273.06	11.66	-47.9	-50.4	13.9	5.30e-06	0	53	0	332398592	59	4597
2026-01-04 13:02:57.14	273.24	11.69	-48.0	-50.6	13.9	3.80e-06	0	53	0	334495744	59	4663
2026-01-04 13:02:58.13	273.42	11.71	-47.9	-50.4	14.2	3.80e-06	0	53	0	336592896	59	4553
2026-01-04 13:02:59.11	273.60	11.74	-47.9	-50.4	14.2	0.00e+00	0	53	0	337641472	58	4848
2026-01-04 13:03:00.11	273.78	11.76	-48.2	-50.7	14.0	1.50e-06	0	53	0	339738624	58	5009
2026-01-04 13:03:01.10	273.96	11.79	-48.0	-50.4	14.2	7.00e-07	0	53	0	341835776	58	4853
2026-01-04 13:03:02.09	274.14	11.81	-48.0	-50.5	14.1	7.00e-07	0	53	0	343932928	58	4922
2026-01-04 13:03:03.07	274.32	11.84	-48.4	-51.1	13.5	4.50e-06	0	53	0	346030080	58	5253
2026-01-04 13:03:04.06	274.51	11.86	-48.4	-51.1	13.6	8.30e-06	0	53	0	347078656	58	5270
2026-01-04 13:03:05.05	274.69	11.88	-48.4	-51.0	13.6	7.60e-06	0	53	0	349175808	58	5217
2026-01-04 13:03:06.03	274.87	11.91	-48.5	-51.2	13.5	9.10e-06	0	53	0	351272960	58	5319
2026-01-04 13:03:07.01	275.05	11.93	-48.4	-51.1	13.6	1.75e-05	0	53	0	353370112	59	4951
2026-01-04 13:03:07.99	275.23	11.95	-48.5	-51.1	13.6	4.50e-06	0	53	0	354418688	59	4967
2026-01-04 13:03:08.98	275.42	11.98	-48.3	-50.8	14.0	5.30e-06	0	53	0	356515840	59	4760
2026-01-04 13:03:09.96	275.60	12.00	-48.1	-50.4	14.3	7.00e-07	0	53	0	358612992	59	4579
2026-01-04 13:03:10.95	275.78	12.02	-47.9	-50.3	14.5	0.00e+00	0	53	0	360710144	59	4499
2026-01-04 13:03:11.95	275.97	12.04	-48.1	-50.6	14.1	0.00e+00	0	53	0	361758720	59	4675
2026-01-04 13:03:12.92	276.15	12.06	-48.0	-50.3	14.4	2.20e-06	0	53	0	363855872	59	4543
2026-01-04 13:03:13.91	276.34	12.09	-48.1	-50.6	14.1	7.00e-07	0	53	0	365953024	59	4666
2026-01-04 13:03:14.90	276.52	12.11	-48.2	-50.8	14.0	7.00e-07	0	53	0	368050176	59	4762
2026-01-04 13:03:15.89	276.71	12.13	-48.2	-50.8	13.9	2.20e-06	0	53	0	370147328	59	4770
2026-01-04 13:03:16.87	276.89	12.15	-48.4	-51.0	13.7	7.60e-06	0	53	0	371195904	59	4886
2026-01-04 13:03:17.85	277.08	12.17	-48.1	-50.5	14.2	3.00e-06	0	53	0	373293056	59	4630
2026-01-04 13:03:18.83	277.26	12.19	-47.9	-50.2	14.5	7.00e-07	0	53	0	375390208	59	4487
2026-01-04 13:03:19.82	277.45	12.21	-47.8	-50.0	14.8	0.00e+00	0	53	0	376438784	58	4599
2026-01-04 13:03:20.80	277.63	12.23	-47.8	-49.9	14.8	0.00e+00	0	53	0	378535936	58	4585
2026-01-04 13:03:21.80	277.82	12.25	-47.6	-49.8	14.9	0.00e+00	0	54	0	380633088	58	4500
2026-01-04 13:03:22.79	278.01	12.27	-47.9	-50.2	14.5	0.00e+00	0	53	0	382730240	58	4746
2026-01-04 13:03:23.77	278.20	12.29	-48.0	-50.3	14.4	0.00e+00	0	53	0	384827392	58	4794
2026-01-04 13:03:24.76	278.39	12.31	-48.1	-50.5	14.2	7.00e-07	0	53	0	385875968	58	4914
2026-01-04 13:03:25.74	278.57	12.32	-48.3	-50.9	13.9	1.50e-06	0	53	0	387973120	58	5103
2026-01-04 13:03:26.73	278.76	12.34	-48.4	-51.0	13.8	6.10e-06	0	53	0	390070272	58	5180
2026-01-04 13:03:27.72	278.95	12.36	-48.4	-51.1	13.7	8.30e-06	0	54	0	392167424	58	5234
2026-01-04 13:03:28.70	279.14	12.38	-48.3	-50.9	13.9	4.50e-06	0	53	0	393216000	58	5133
2026-01-04 13:03:29.69	279.33	12.40	-48.2	-50.7	14.1	2.20e-06	0	53	0	395313152	58	5022
2026-01-04 13:03:30.67	279.51	12.41	-48.2	-50.6	14.1	3.00e-06	0	54	0	397410304	58	4972
2026-01-04 13:03:31.66	279.70	12.43	-48.3	-50.8	13.9	7.00e-07	0	53	0	399507456	58	5068
2026-01-04 13:03:32.64	279.89	12.45	-48.6	-51.3	13.5	1.14e-05	0	53	0	400556032	58	5361
2026-01-04 13:03:33.63	280.08	12.46	-49.0	-52.1	12.7	4.19e-05	0	53	0	402653184	59	5529
2026-01-04 13:03:34.63	280.27	12.48	-49.2	-52.5	12.1	1.35e-04	0	54	0	404750336	60	5474
2026-01-04 13:03:35.61	280.46	12.49	-49.2	-52.6	12.0	3.07e-04	0	53	0	406847488	60	5572
2026-01-04 13:03:36.60	280.65	12.51	-49.3	-52.8	11.8	5.48e-04	0	53	0	408944640	60	5690
2026-01-04 13:03:37.58	280.84	12.52	-49.1	-52.4	12.2	2.68e-04	0	54	0	409993216	60	5463
2026-01-04 13:03:38.57	281.03	12.54	-49.0	-52.1	12.5	1.27e-04	0	54	0	412090368	60	5258
2026-01-04 13:03:39.56	281.22	12.55	-48.9	-52.0	12.6	8.62e-05	0	54	0	414187520	60	5201
2026-01-04 13:03:40.55	281.41	12.57	-49.0	-52.1	12.6	6.94e-05	0	54	0	416284672	60	5249
2026-01-04 13:03:41.54	281.60	12.58	-49.0	-52.1	12.6	1.30e-04	0	54	0	417333248	60	5251
2026-01-04 13:03:42.53	281.80	12.60	-49.0	-52.3	12.4	7.24e-05	0	54	0	419430400	60	5370
2026-01-04 13:03:43.52	281.99	12.61	-49.2	-52.7	12.0	2.17e-04	0	54	0	421527552	60	5612
2026-01-04 13:03:44.51	282.18	12.62	-49.4	-53.1	11.6	5.34e-04	0	54	0	423624704	60	5857
2026-01-04 13:03:45.50	282.37	12.64	-49.6	-53.3	11.3	1.09e-03	0	54	0	424673280	60	6030
2026-01-04 13:03:46.48	282.56	12.65	-49.4	-53.1	11.4	1.22e-03	0	53	0	426770432	60	5921
2026-01-04 13:03:47.46	282.75	12.66	-49.3	-53.0	11.5	8.12e-04	0	54	0	428867584	60	5809
2026-01-04 13:03:48.46	282.95	12.67	-49.2	-52.8	11.6	7.24e-04	0	54	0	430964736	60	5699
2026-01-04 13:03:49.44	283.14	12.69	-49.1	-52.6	11.8	5.54e-04	0	54	0	433061888	60	5536
2026-01-04 13:03:50.43	283.33	12.70	-49.1	-52.7	11.6	6.31e-04	0	54	0	434110464	60	5614
2026-01-04 13:03:51.42	283.52	12.71	-49.2	-53.0	11.3	1.12e-03	0	54	0	436207616	60	5820
2026-01-04 13:03:52.41	283.72	12.72	-49.3	-53.3	10.8	2.19e-03	0	54	0	438304768	60	6056
2026-01-04 13:03:53.39	283.91	12.73	-49.4	-53.8	10.3	3.80e-03	0	54	0	440401920	60	6381
2026-01-04 13:03:54.38	284.10	12.74	-49.5	-54.1	10.0	6.20e-03	0	54	0	441450496	60	6601
2026-01-04 13:03:55.37	284.30	12.75	-49.5	-54.1	9.8	8.79e-03	0	54	0	443547648	60	6643
2026-01-04 13:03:56.36	284.49	12.76	-49.4	-54.1	9.7	1.21e-02	0	54	0	445644800	60	6645
2026-01-04 13:03:57.35	284.68	12.77	-49.4	-54.2	9.5	1.46e-02	0	54	0	447741952	60	6688
2026-01-04 13:03:58.33	284.88	12.78	-49.2	-53.8	9.8	1.17e-02	0	54	0	448790528	60	6385
2026-01-04 13:03:59.33	285.07	12.79	-49.1	-53.8	9.8	1.02e-02	0	54	0	450887680	60	6363
2026-01-04 13:04:00.32	285.27	12.80	-49.2	-53.9	9.5	1.08e-02	0	54	0	452984832	60	6479
2026-01-04 13:04:01.30	285.46	12.81	-49.2	-54.1	9.2	1.59e-02	0	54	0	455081984	60	6628
2026-01-04 13:04:02.29	285.65	12.81	-49.3	-54.8	8.5	2.77e-02	0	54	0	456130560	60	7184
2026-01-04 13:04:03.27	285.84	12.82	-49.4	-55.3	7.9	6.46e-02	0	54	0	458227712	60	7557
2026-01-04 13:04:04.26	286.04	12.83	-49.5	-55.7	7.4	9.45e-02	0	54	0	460324864	60	7968
2026-01-04 13:04:05.24	286.23	12.84	-49.5	-56.0	7.1	1.31e-01	0	54	0	462422016	60	8259
2026-01-04 13:04:06.22	286.42	12.84	-49.5	-56.3	6.8	1.56e-01	0	54	0	463470592	61	8043
2026-01-04 13:04:07.20	286.62	12.85	-49.5	-56.4	6.7	1.91e-01	0	54	0	465567744	61	8105
2026-01-04 13:04:08.18	286.81	12.86	-49.5	-56.5	6.5	2.16e-01	0	54	0	467664896	61	8204
2026-01-04 13:04:09.17	287.01	12.86	-49.4	-56.4	6.5	2.29e-01	0	54	0	469762048	61	8127
2026-01-04 13:04:10.15	287.20	12.87	-49.5	-56.6	6.4	2.30e-01	0	54	0	471859200	61	8366
2026-01-04 13:04:11.14	287.39	12.87	-49.6	-56.7	6.3	2.63e-01	0	54	0	472907776	61	8458
2026-01-04 13:04:12.13	287.59	12.88	-49.6	-56.7	6.3	2.58e-01	0	54	0	475004928	61	8438
2026-01-04 13:04:13.11	287.78	12.88	-49.7	-56.9	6.2	2.71e-01	0	54	0	477102080	61	8595
2026-01-04 13:04:14.10	287.98	12.89	-49.5	-56.3	6.8	2.07e-01	0	54	0	479199232	61	8029
2026-01-04 13:04:15.09	288.17	12.89	-49.4	-55.9	7.2	1.51e-01	0	54	0	480247808	61	7632
2026-01-04 13:04:16.08	288.37	12.90	-49.4	-55.5	7.6	1.13e-01	0	54	0	482344960	61	7298
2026-01-04 13:04:17.07	288.56	12.90	-49.4	-55.4	7.7	8.69e-02	0	54	0	484442112	61	7236
2026-01-04 13:04:18.06	288.76	12.90	-49.4	-55.3	7.8	8.19e-02	0	54	0	486539264	61	7185
2026-01-04 13:04:19.04	288.95	12.91	-49.4	-55.4	7.8	8.45e-02	0	54	0	487587840	61	7234
2026-01-04 13:04:20.02	289.15	12.91	-49.4	-55.0	8.2	6.86e-02	0	54	0	489684992	61	6882
2026-01-04 13:04:21.02	289.34	12.91	-49.3	-54.7	8.5	4.99e-02	0	54	0	491782144	61	6717
2026-01-04 13:04:22.01	289.54	12.91	-49.4	-54.7	8.6	3.64e-02	0	54	0	493879296	61	6701
2026-01-04 13:04:22.99	289.73	12.91	-49.3	-54.4	9.1	2.57e-02	0	54	0	494927872	61	6426
2026-01-04 13:04:23.98	289.93	12.92	-49.1	-53.9	9.6	1.64e-02	0	54	0	497025024	61	6063
2026-01-04 13:04:24.96	290.12	12.92	-49.0	-53.5	10.0	1.08e-02	0	54	0	499122176	61	5813
2026-01-04 13:04:25.95	290.32	12.92	-49.0	-53.3	10.3	4.92e-03	0	54	0	501219328	61	5661
2026-01-04 13:04:26.93	290.51	12.92	-48.9	-53.0	10.6	3.69e-03	0	54	0	503316480	60	5847
2026-01-04 13:04:27.92	290.71	12.92	-48.9	-53.0	10.7	3.03e-03	0	54	0	504365056	60	5814
2026-01-04 13:04:28.90	290.90	12.92	-48.8	-52.5	11.3	2.27e-03	0	54	0	506462208	60	5508
2026-01-04 13:04:29.88	291.09	12.92	-48.7	-52.3	11.7	6.36e-04	0	54	0	508559360	60	5387
2026-01-04 13:04:30.87	291.29	12.92	-48.7	-52.2	11.9	4.26e-04	0	54	0	510656512	60	5301
2026-01-04 13:04:31.85	291.48	12.92	-48.8	-52.2	12.0	2.92e-04	0	54	0	511705088	60	5302
2026-01-04 13:04:32.84	291.68	12.92	-48.8	-52.2	12.2	2.79e-04	0	54	0	513802240	60	5283
2026-01-04 13:04:33.82	291.87	12.92	-48.8	-52.2	12.2	2.43e-04	0	54	0	515899392	60	5308
2026-01-04 13:04:34.81	292.07	12.91	-49.1	-52.5	11.9	2.91e-04	0	54	0	517996544	60	5502
2026-01-04 13:04:35.79	292.26	12.91	-48.8	-52.0	12.5	2.56e-04	0	54	0	519045120	60	5163
2026-01-04 13:04:36.78	292.46	12.91	-48.6	-51.6	12.9	7.62e-05	0	54	0	521142272	60	4962
2026-01-04 13:04:37.77	292.65	12.91	-48.6	-51.7	12.9	5.18e-05	0	54	0	523239424	60	4986
2026-01-04 13:04:38.75	292.85	12.90	-48.6	-51.6	13.0	4.04e-05	0	54	0	525336576	60	4968
2026-01-04 13:04:39.73	293.04	12.90	-48.7	-51.7	12.9	4.04e-05	0	54	0	526385152	60	5023
2026-01-04 13:04:40.71	293.23	12.90	-48.6	-51.7	12.9	5.64e-05	0	54	0	528482304	60	4987
2026-01-04 13:04:41.69	293.43	12.89	-48.5	-51.4	13.2	3.28e-05	0	54	0	530579456	60	4817
2026-01-04 13:04:42.69	293.62	12.89	-48.5	-51.4	13.2	2.82e-05	0	54	0	532676608	60	4828
2026-01-04 13:04:43.67	293.82	12.88	-48.4	-51.1	13.5	2.28e-05	0	54	0	533725184	59	4931
2026-01-04 13:04:44.66	294.01	12.88	-48.1	-50.7	13.9	4.50e-06	0	54	0	535822336	59	4727
2026-01-04 13:04:45.64	294.21	12.87	-48.0	-50.5	14.1	3.80e-06	0	54	0	537919488	59	4608
2026-01-04 13:04:46.63	294.40	12.87	-48.0	-50.5	14.1	7.00e-07	0	54	0	540016640	59	4630
2026-01-04 13:04:47.62	294.60	12.86	-48.0	-50.5	14.1	1.50e-06	0	54	0	541065216	59	4614
2026-01-04 13:04:48.60	294.79	12.86	-48.2	-50.8	13.9	4.50e-06	0	54	0	543162368	59	4763
2026-01-04 13:04:49.60	294.99	12.85	-48.1	-50.7	14.0	3.00e-06	0	54	0	545259520	59	4736
2026-01-04 13:04:50.58	295.18	12.84	-48.1	-50.6	14.1	1.50e-06	0	54	0	547356672	59	4655
2026-01-04 13:04:51.56	295.37	12.84	-48.0	-50.5	14.2	1.50e-06	0	54	0	549453824	59	4611
2026-01-04 13:04:52.55	295.57	12.83	-48.0	-50.4	14.3	1.50e-06	0	54	0	550502400	59	4574
2026-01-04 13:04:53.55	295.76	12.82	-47.8	-50.2	14.4	3.80e-06	0	54	0	552599552	58	4750
2026-01-04 13:04:54.53	295.95	12.82	-47.5	-49.6	15.0	0.00e+00	0	54	0	554696704	58	4441
2026-01-04 13:04:55.51	296.15	12.81	-47.4	-49.4	15.2	0.00e+00	0	54	0	556793856	57	4591
2026-01-04 13:04:56.50	296.34	12.80	-47.2	-49.3	15.4	0.00e+00	0	54	0	557842432	57	4513
2026-01-04 13:04:57.49	296.53	12.79	-47.4	-49.5	15.2	0.00e+00	0	54	0	559939584	57	4604
2026-01-04 13:04:58.48	296.73	12.78	-47.5	-49.8	14.9	0.00e+00	0	54	0	562036736	57	4767
2026-01-04 13:04:59.46	296.92	12.77	-47.6	-49.8	14.8	1.50e-06	0	54	0	564133888	57	4791
2026-01-04 13:05:00.44	297.11	12.76	-47.6	-49.8	14.9	0.00e+00	0	54	0	565182464	57	4794
2026-01-04 13:05:01.42	297.30	12.75	-47.6	-49.8	14.8	0.00e+00	0	54	0	567279616	57	4802
2026-01-04 13:05:02.40	297.49	12.74	-47.3	-49.4	15.2	0.00e+00	0	54	0	569376768	57	4591
2026-01-04 13:05:03.39	297.69	12.73	-47.2	-49.2	15.4	0.00e+00	0	54	0	571473920	57	4470
2026-01-04 13:05:04.38	297.88	12.72	-47.0	-49.0	15.7	0.00e+00	0	54	0	573571072	57	4352
2026-01-04 13:05:05.37	298.07	12.71	-47.1	-49.1	15.5	0.00e+00	0	54	0	574619648	57	4399
2026-01-04 13:05:06.36	298.27	12.70	-47.2	-49.2	15.4	0.00e+00	0	54	0	576716800	57	4484
2026-01-04 13:05:07.36	298.46	12.69	-47.4	-49.5	15.1	0.00e+00	0	54	0	578813952	57	4621
2026-01-04 13:05:08.35	298.65	12.68	-47.5	-49.6	15.0	0.00e+00	0	54	0	580911104	57	4699
2026-01-04 13:05:09.34	298.85	12.66	-47.5	-49.7	14.9	0.00e+00	0	54	0	581959680	57	4728
2026-01-04 13:05:10.32	299.04	12.65	-47.5	-49.7	15.0	0.00e+00	0	54	0	584056832	57	4710
2026-01-04 13:05:11.31	299.23	12.64	-47.5	-49.7	15.0	0.00e+00	0	54	0	586153984	57	4706
2026-01-04 13:05:12.29	299.42	12.63	-47.6	-49.7	14.9	0.00e+00	0	54	0	588251136	57	4748
2026-01-04 13:05:13.28	299.61	12.61	-47.6	-49.7	15.0	0.00e+00	0	54	0	589299712	57	4753
2026-01-04 13:05:14.26	299.80	12.60	-47.7	-49.9	14.8	7.00e-07	0	54	0	591396864	57	4849
2026-01-04 13:05:15.25	299.99	12.59	-47.7	-50.0	14.8	0.00e+00	0	54	0	593494016	57	4884
2026-01-04 13:05:16.24	300.18	12.57	-47.5	-49.6	15.1	0.00e+00	0	54	0	595591168	57	4694
2026-01-04 13:05:17.24	300.38	12.56	-47.4	-49.5	15.1	0.00e+00	0	54	0	597688320	57	4639
2026-01-04 13:05:18.23	300.57	12.54	-47.5	-49.6	15.1	0.00e+00	0	54	0	598736896	57	4686
2026-01-04 13:05:19.21	300.76	12.53	-47.5	-49.6	15.0	7.00e-07	0	54	0	600834048	57	4698
2026-01-04 13:05:20.19	300.94	12.51	-47.5	-49.6	15.1	0.00e+00	0	54	0	602931200	57	4694
2026-01-04 13:05:21.18	301.13	12.50	-47.4	-49.4	15.3	0.00e+00	0	54	0	605028352	57	4596
2026-01-04 13:05:22.17	301.32	12.48	-47.4	-49.4	15.2	0.00e+00	0	54	0	606076928	57	4597
2026-01-04 13:05:23.15	301.51	12.47	-47.5	-49.6	15.1	0.00e+00	0	54	0	608174080	57	4692
2026-01-04 13:05:24.14	301.70	12.45	-47.6	-49.7	15.0	0.00e+00	0	54	0	610271232	57	4736
2026-01-04 13:05:25.12	301.89	12.43	-47.3	-49.3	15.4	0.00e+00	0	54	0	612368384	57	4531
2026-01-04 13:05:26.11	302.08	12.42	-47.2	-49.2	15.5	0.00e+00	0	54	0	613416960	57	4457
2026-01-04 13:05:27.09	302.27	12.40	-47.1	-49.0	15.7	0.00e+00	0	54	0	615514112	57	4373
2026-01-04 13:05:28.08	302.45	12.38	-47.1	-49.0	15.7	0.00e+00	0	54	0	617611264	57	4365
2026-01-04 13:05:29.06	302.64	12.37	-47.1	-49.0	15.7	0.00e+00	0	54	0	619708416	57	4378
2026-01-04 13:05:30.05	302.83	12.35	-47.3	-49.3	15.5	0.00e+00	0	54	0	620756992	57	4525
2026-01-04 13:05:31.03	303.02	12.33	-47.2	-49.1	15.6	0.00e+00	0	54	0	622854144	57	4431
2026-01-04 13:05:32.01	303.20	12.31	-47.0	-48.9	15.8	0.00e+00	0	54	0	624951296	57	4328
2026-01-04 13:05:33.00	303.39	12.29	-47.1	-49.0	15.8	0.00e+00	0	54	0	627048448	57	4367
2026-01-04 13:05:33.98	303.58	12.27	-47.2	-49.2	15.6	0.00e+00	0	54	0	628097024	57	4492
2026-01-04 13:05:34.95	303.76	12.26	-47.1	-48.9	15.9	0.00e+00	0	54	0	630194176	57	4332
2026-01-04 13:05:35.94	303.95	12.24	-47.0	-48.9	15.9	0.00e+00	0	54	0	632291328	57	4297
2026-01-04 13:05:36.92	304.13	12.22	-47.1	-49.1	15.7	0.00e+00	0	54	0	634388480	57	4409
2026-01-04 13:05:37.91	304.32	12.20	-47.4	-49.4	15.4	0.00e+00	0	54	0	635437056	57	4569
2026-01-04 13:05:38.89	304.50	12.18	-47.3	-49.2	15.5	0.00e+00	0	54	0	637534208	57	4485
2026-01-04 13:05:39.88	304.69	12.16	-47.2	-49.1	15.7	0.00e+00	0	54	0	639631360	57	4417
2026-01-04 13:05:40.88	304.88	12.14	-47.0	-49.0	15.8	0.00e+00	0	54	0	641728512	57	4343
2026-01-04 13:05:41.86	305.06	12.12	-47.1	-49.0	15.8	0.00e+00	0	54	0	642777088	57	4377
2026-01-04 13:05:42.85	305.24	12.09	-46.9	-48.8	15.9	0.00e+00	0	54	0	644874240	57	4268
2026-01-04 13:05:43.84	305.43	12.07	-46.9	-48.8	16.0	0.00e+00	0	54	0	646971392	57	4249
2026-01-04 13:05:44.83	305.61	12.05	-46.8	-48.6	16.2	0.00e+00	0	54	0	649068544	56	4394
2026-01-04 13:05:45.81	305.80	12.03	-46.8	-48.5	16.3	0.00e+00	0	54	0	651165696	56	4382
2026-01-04 13:05:46.80	305.98	12.01	-46.8	-48.5	16.2	0.00e+00	0	54	0	652214272	56	4384
2026-01-04 13:05:47.78	306.16	11.98	-47.0	-48.8	16.0	0.00e+00	0	54	0	654311424	56	4520
2026-01-04 13:05:48.77	306.35	11.96	-47.0	-48.9	15.9	0.00e+00	0	55	0	656408576	56	4572
2026-01-04 13:05:49.75	306.53	11.94	-47.2	-49.1	15.7	0.00e+00	0	54	0	658505728	56	4658
2026-01-04 13:05:50.74	306.71	11.92	-47.2	-49.2	15.6	0.00e+00	0	55	0	659554304	56	4714
2026-01-04 13:05:51.73	306.89	11.89	-47.3	-49.3	15.5	0.00e+00	0	54	0	661651456	56	4794
2026-01-04 13:05:52.72	307.08	11.87	-47.4	-49.4	15.3	0.00e+00	0	55	0	663748608	56	4859
2026-01-04 13:05:53.71	307.26	11.85	-47.4	-49.5	15.3	0.00e+00	0	55	0	665845760	56	4897
2026-01-04 13:05:54.69	307.44	11.82	-47.3	-49.3	15.5	0.00e+00	0	55	0	666894336	56	4784
2026-01-04 13:05:55.68	307.62	11.80	-47.4	-49.5	15.3	0.00e+00	0	55	0	668991488	56	4902
2026-01-04 13:05:56.67	307.80	11.77	-47.3	-49.3	15.5	0.00e+00	0	55	0	671088640	56	4808
2026-01-04 13:05:57.65	307.98	11.75	-47.1	-49.0	15.8	0.00e+00	0	55	0	673185792	56	4605
2026-01-04 13:05:58.64	308.16	11.72	-46.9	-48.7	16.0	0.00e+00	0	55	0	675282944	56	4478
2026-01-04 13:05:59.62	308.34	11.70	-46.8	-48.6	16.2	0.00e+00	0	54	0	676331520	56	4402
2026-01-04 13:06:00.60	308.52	11.67	-46.9	-48.7	16.1	0.00e+00	0	54	0	678428672	56	4454
2026-01-04 13:06:01.58	308.70	11.65	-46.9	-48.7	16.0	0.00e+00	0	54	0	680525824	56	4486
2026-01-04 13:06:02.56	308.87	11.62	-46.9	-48.6	16.1	0.00e+00	0	55	0	682622976	56	4436
2026-01-04 13:06:03.55	309.05	11.60	-46.9	-48.7	16.1	0.00e+00	0	55	0	683671552	56	4475
2026-01-04 13:06:04.54	309.23	11.57	-46.8	-48.6	16.1	0.00e+00	0	55	0	685768704	56	4429
2026-01-04 13:06:05.52	309.41	11.54	-46.8	-48.6	16.2	0.00e+00	0	54	0	687865856	56	4410
2026-01-04 13:06:06.51	309.59	11.52	-46.6	-48.3	16.4	0.00e+00	0	55	0	689963008	56	4257
2026-01-04 13:06:07.49	309.76	11.49	-46.5	-48.2	16.5	0.00e+00	0	54	0	691011584	56	4231
2026-01-04 13:06:08.47	309.94	11.46	-46.5	-48.2	16.5	0.00e+00	0	54	0	693108736	56	4217
2026-01-04 13:06:09.46	310.12	11.44	-46.3	-47.9	16.7	0.00e+00	0	55	0	695205888	55	4305
2026-01-04 13:06:10.44	310.29	11.41	-46.5	-48.2	16.5	0.00e+00	0	55	0	697303040	55	4451
2026-01-04 13:06:11.44	310.47	11.38	-46.5	-48.2	16.4	0.00e+00	0	55	0	698351616	55	4482
2026-01-04 13:06:12.42	310.65	11.35	-46.4	-48.0	16.6	0.00e+00	0	55	0	700448768	55	4382
2026-01-04 13:06:13.41	310.82	11.32	-46.5	-48.2	16.4	0.00e+00	0	55	0	702545920	55	4469
2026-01-04 13:06:14.39	311.00	11.30	-46.6	-48.4	16.2	0.00e+00	0	55	0	704643072	55	4590
2026-01-04 13:06:15.38	311.17	11.27	-46.8	-48.6	16.1	0.00e+00	0	55	0	705691648	55	4673
2026-01-04 13:06:16.37	311.35	11.24	-46.8	-48.7	16.0	0.00e+00	0	54	0	707788800	55	4709
2026-01-04 13:06:17.36	311.52	11.21	-46.8	-48.7	16.0	0.00e+00	0	54	0	709885952	55	4707
2026-01-04 13:06:18.35	311.69	11.18	-46.9	-48.7	15.9	0.00e+00	0	54	0	711983104	55	4747
2026-01-04 13:06:19.33	311.87	11.15	-46.9	-48.8	15.9	0.00e+00	0	55	0	714080256	55	4772
2026-01-04 13:06:20.31	312.04	11.12	-47.0	-48.9	15.7	0.00e+00	0	55	0	715128832	55	4846
2026-01-04 13:06:21.31	312.21	11.09	-46.9	-48.8	15.9	0.00e+00	0	55	0	717225984	55	4760
2026-01-04 13:06:22.29	312.39	11.06	-46.9	-48.8	15.8	0.00e+00	0	55	0	719323136	55	4779
2026-01-04 13:06:23.28	312.56	11.03	-46.9	-48.8	15.8	0.00e+00	0	55	0	721420288	55	4806
2026-01-04 13:06:24.27	312.73	11.00	-46.7	-48.5	16.1	0.00e+00	0	54	0	722468864	55	4620
2026-01-04 13:06:25.26	312.90	10.97	-46.6	-48.3	16.2	0.00e+00	0	54	0	724566016	55	4543
2026-01-04 13:06:26.24	313.07	10.94	-46.6	-48.4	16.2	0.00e+00	0	55	0	726663168	55	4549
2026-01-04 13:06:27.22	313.24	10.91	-46.6	-48.4	16.2	0.00e+00	0	55	0	728760320	55	4564
2026-01-04 13:06:28.20	313.41	10.88	-46.7	-48.5	16.1	0.00e+00	0	55	0	729808896	55	4641
2026-01-04 13:06:29.19	313.58	10.85	-46.7	-48.6	16.0	0.00e+00	0	55	0	731906048	55	4655
2026-01-04 13:06:30.18	313.75	10.82	-46.9	-48.8	15.8	0.00e+00	0	55	0	734003200	55	4790
2026-01-04 13:06:31.15	313.92	10.79	-46.8	-48.6	15.9	0.00e+00	0	55	0	736100352	55	4694
2026-01-04 13:06:32.15	314.09	10.75	-46.9	-48.8	15.9	0.00e+00	0	55	0	737148928	55	4765
2026-01-04 13:06:33.14	314.26	10.72	-46.8	-48.7	15.8	0.00e+00	0	54	0	739246080	55	4751
2026-01-04 13:06:34.12	314.43	10.69	-46.9	-48.8	15.8	0.00e+00	0	55	0	741343232	55	4802
2026-01-04 13:06:35.11	314.59	10.66	-47.0	-48.9	15.7	0.00e+00	0	55	0	743440384	55	4835
2026-01-04 13:06:36.10	314.76	10.62	-47.3	-49.4	15.2	7.00e-07	0	55	0	744488960	56	4854
2026-01-04 13:06:37.09	314.93	10.59	-47.3	-49.5	15.2	0.00e+00	0	55	0	746586112	56	4875
2026-01-04 13:06:38.07	315.10	10.56	-47.5	-49.8	15.0	0.00e+00	0	55	0	748683264	56	5046
2026-01-04 13:06:39.07	315.26	10.53	-47.5	-49.8	14.9	0.00e+00	0	54	0	750780416	57	4771
2026-01-04 13:06:40.05	315.43	10.49	-47.8	-50.1	14.6	0.00e+00	0	55	0	752877568	57	4936
2026-01-04 13:06:41.04	315.59	10.46	-47.7	-50.0	14.8	0.00e+00	0	54	0	753926144	57	4880
2026-01-04 13:06:42.03	315.76	10.43	-47.9	-50.3	14.4	7.00e-07	0	54	0	756023296	57	5055
2026-01-04 13:06:43.01	315.92	10.39	-47.7	-50.0	14.7	2.20e-06	0	55	0	758120448	57	4915
2026-01-04 13:06:44.00	316.09	10.36	-47.8	-50.1	14.6	0.00e+00	0	55	0	760217600	57	4969
2026-01-04 13:06:44.98	316.25	10.33	-47.9	-50.3	14.4	7.00e-07	0	55	0	761266176	57	5051
2026-01-04 13:06:45.97	316.42	10.29	-47.8	-50.1	14.6	7.00e-07	0	55	0	763363328	57	4959
2026-01-04 13:06:46.95	316.58	10.26	-47.8	-50.2	14.5	0.00e+00	0	55	0	765460480	57	4994
2026-01-04 13:06:47.94	316.74	10.22	-47.8	-50.2	14.5	0.00e+00	0	55	0	767557632	57	5004
2026-01-04 13:06:48.93	316.91	10.19	-47.7	-50.0	14.7	7.00e-07	0	54	0	768606208	57	4902
2026-01-04 13:06:49.91	317.07	10.15	-47.9	-50.3	14.4	0.00e+00	0	55	0	770703360	57	5058
2026-01-04 13:06:50.91	317.23	10.12	-47.9	-50.3	14.4	2.20e-06	0	55	0	772800512	57	5043
2026-01-04 13:06:51.88	317.39	10.08	-48.0	-50.5	14.2	0.00e+00	0	55	0	774897664	57	5191
2026-01-04 13:06:52.87	317.55	10.05	-48.1	-50.5	14.2	1.50e-06	0	55	0	776994816	58	4888
2026-01-04 13:06:53.85	317.71	10.01	-48.3	-50.8	13.9	3.80e-06	0	55	0	778043392	58	5054
2026-01-04 13:06:54.84	317.87	9.98	-48.3	-51.0	13.7	4.50e-06	0	55	0	780140544	58	5168
2026-01-04 13:06:55.83	318.03	9.94	-48.6	-51.4	13.3	1.22e-05	0	55	0	782237696	59	5140
2026-01-04 13:06:56.81	318.19	9.91	-48.7	-51.5	13.2	1.90e-05	0	55	0	784334848	59	5197
2026-01-04 13:06:57.79	318.35	9.87	-48.6	-51.5	13.2	2.89e-05	0	55	0	785383424	59	5189
2026-01-04 13:06:58.78	318.51	9.83	-48.8	-51.8	12.9	2.51e-05	0	55	0	787480576	59	5343
2026-01-04 13:06:59.77	318.67	9.80	-48.6	-51.4	13.2	2.36e-05	0	55	0	789577728	59	5137
2026-01-04 13:07:00.76	318.83	9.76	-48.6	-51.4	13.2	1.75e-05	0	55	0	791674880	59	5159
2026-01-04 13:07:01.75	318.99	9.73	-48.6	-51.5	13.2	1.60e-05	0	54	0	792723456	59	5202
2026-01-04 13:07:02.74	319.14	9.69	-48.8	-51.7	12.9	4.04e-05	0	55	0	794820608	59	5333
2026-01-04 13:07:03.74	319.30	9.65	-48.7	-51.7	13.0	4.50e-05	0	55	0	796917760	59	5290
2026-01-04 13:07:04.72	319.46	9.61	-49.0	-52.1	12.5	4.34e-05	0	55	0	799014912	59	5590
2026-01-04 13:07:05.71	319.62	9.58	-49.0	-52.2	12.5	1.04e-04	0	55	0	800063488	60	5285
2026-01-04 13:07:06.70	319.77	9.54	-49.1	-52.4	12.2	1.63e-04	0	55	0	802160640	60	5415
2026-01-04 13:07:07.68	319.93	9.50	-49.2	-52.6	12.0	2.53e-04	0	55	0	804257792	60	5543
2026-01-04 13:07:08.66	320.08	9.47	-49.2	-52.8	11.8	2.38e-04	0	55	0	806354944	60	5711
2026-01-04 13:07:09.65	320.24	9.43	-49.1	-52.6	12.0	3.26e-04	0	55	0	807403520	60	5546
2026-01-04 13:07:10.64	320.39	9.39	-49.0	-52.2	12.3	1.85e-04	0	55	0	809500672	60	5337
2026-01-04 13:07:11.62	320.54	9.35	-48.9	-52.1	12.5	1.27e-04	0	55	0	811597824	60	5239
2026-01-04 13:07:12.61	320.70	9.32	-48.8	-52.0	12.7	6.79e-05	0	55	0	813694976	60	5166
2026-01-04 13:07:13.59	320.85	9.28	-48.8	-51.8	12.8	7.93e-05	0	55	0	815792128	60	5063
2026-01-04 13:07:14.57	321.00	9.24	-48.9	-52.1	12.5	1.10e-04	0	55	0	816840704	60	5233
2026-01-04 13:07:15.56	321.15	9.20	-48.8	-52.0	12.6	1.25e-04	0	55	0	818937856	60	5190
2026-01-04 13:07:16.54	321.31	9.16	-48.8	-51.9	12.7	8.23e-05	0	55	0	821035008	60	5140
2026-01-04 13:07:17.53	321.46	9.13	-48.9	-52.1	12.6	6.71e-05	0	55	0	823132160	60	5230
2026-01-04 13:07:18.51	321.61	9.09	-49.0	-52.3	12.3	1.61e-04	0	55	0	824180736	60	5355
2026-01-04 13:07:19.50	321.76	9.05	-48.8	-52.0	12.6	1.21e-04	0	55	0	826277888	60	5162
2026-01-04 13:07:20.49	321.91	9.01	-48.8	-51.9	12.7	5.79e-05	0	55	0	828375040	60	5106
2026-01-04 13:07:21.49	322.06	8.97	-48.7	-51.8	12.8	4.65e-05	0	55	0	830472192	60	5067
2026-01-04 13:07:22.47	322.21	8.93	-48.8	-52.0	12.6	7.55e-05	0	55	0	831520768	60	5182
2026-01-04 13:07:23.47	322.36	8.89	-48.8	-51.9	12.6	8.54e-05	0	55	0	833617920	60	5150
2026-01-04 13:07:24.46	322.51	8.85	-48.7	-51.7	12.8	5.41e-05	0	55	0	835715072	60	5033
2026-01-04 13:07:25.45	322.66	8.81	-48.8	-51.9	12.7	6.25e-05	0	55	0	837812224	60	5144
2026-01-04 13:07:26.43	322.81	8.77	-48.8	-52.0	12.6	9.76e-05	0	55	0	839909376	60	5176
2026-01-04 13:07:27.41	322.96	8.74	-48.8	-51.9	12.7	1.51e-04	0	55	0	840957952	60	5126
2026-01-04 13:07:28.39	323.10	8.70	-48.9	-52.0	12.5	1.23e-04	0	55	0	843055104	60	5204
2026-01-04 13:07:29.37	323.25	8.66	-48.9	-52.2	12.4	1.84e-04	0	55	0	845152256	60	5307
2026-01-04 13:07:30.35	323.39	8.62	-49.0	-52.4	12.2	2.19e-04	0	55	0	847249408	60	5406
2026-01-04 13:07:31.33	323.54	8.58	-48.9	-52.2	12.4	1.70e-04	0	55	0	848297984	60	5284
2026-01-04 13:07:32.31	323.68	8.54	-49.0	-52.5	12.1	2.71e-04	0	55	0	850395136	60	5485
2026-01-04 13:07:33.30	323.83	8.50	-49.0	-52.3	12.2	1.99e-04	0	55	0	852492288	60	5385
2026-01-04 13:07:34.28	323.97	8.46	-49.0	-52.3	12.2	1.83e-04	0	55	0	854589440	60	5384
2026-01-04 13:07:35.27	324.12	8.42	-48.9	-52.2	12.3	1.64e-04	0	55	0	855638016	60	5290
2026-01-04 13:07:36.26	324.26	8.38	-48.9	-52.3	12.3	1.35e-04	0	55	0	857735168	60	5349
2026-01-04 13:07:37.25	324.41	8.34	-48.9	-52.3	12.2	2.54e-04	0	55	0	859832320	60	5374
2026-01-04 13:07:38.23	324.55	8.30	-48.8	-52.1	12.4	2.20e-04	0	55	0	861929472	60	5273
2026-01-04 13:07:39.21	324.69	8.26	-49.1	-52.5	12.0	2.93e-04	0	55	0	862978048	60	5524
2026-01-04 13:07:40.20	324.84	8.22	-49.0	-52.5	12.0	3.91e-04	0	55	0	865075200	60	5489
2026-01-04 13:07:41.19	324.98	8.17	-48.9	-52.0	12.4	1.67e-04	0	55	0	867172352	60	5217
2026-01-04 13:07:42.18	325.12	8.13	-48.7	-51.6	13.0	7.40e-05	0	55	0	869269504	60	4935
2026-01-04 13:07:43.17	325.26	8.09	-48.4	-51.2	13.4	1.67e-05	0	55	0	870318080	59	5019
2026-01-04 13:07:44.16	325.40	8.05	-48.3	-51.1	13.4	7.60e-06	0	55	0	872415232	59	4976
2026-01-04 13:07:45.16	325.55	8.01	-48.3	-50.9	13.6	9.10e-06	0	55	0	874512384	59	4861
2026-01-04 13:07:46.14	325.69	7.97	-48.2	-50.8	13.8	7.60e-06	0	55	0	876609536	59	4786
2026-01-04 13:07:47.12	325.83	7.93	-48.4	-51.1	13.4	3.00e-06	0	55	0	878706688	59	4950
2026-01-04 13:07:48.12	325.97	7.89	-48.1	-50.7	13.8	6.80e-06	0	55	0	879755264	59	4755
2026-01-04 13:07:49.10	326.11	7.85	-48.2	-50.8	13.7	3.80e-06	0	55	0	881852416	59	4793
2026-01-04 13:07:50.08	326.24	7.80	-48.3	-51.0	13.5	1.29e-05	0	55	0	883949568	59	4917
2026-01-04 13:07:51.07	326.38	7.76	-48.4	-51.1	13.4	1.67e-05	0	55	0	886046720	59	4978
2026-01-04 13:07:52.06	326.52	7.72	-48.6	-51.6	12.9	1.44e-05	0	55	0	887095296	59	5227
2026-01-04 13:07:53.05	326.66	7.68	-48.7	-51.8	12.7	5.95e-05	0	55	0	889192448	59	5369
2026-01-04 13:07:54.04	326.80	7.64	-48.7	-51.7	12.8	6.17e-05	0	55	0	891289600	59	5282
2026-01-04 13:07:55.03	326.94	7.60	-48.9	-52.1	12.3	1.39e-04	0	55	0	893386752	59	5570
2026-01-04 13:07:56.01	327.07	7.55	-48.8	-52.0	12.5	1.01e-04	0	55	0	894435328	59	5466
2026-01-04 13:07:57.00	327.21	7.51	-48.8	-51.8	12.6	7.78e-05	0	55	0	896532480	59	5400
2026-01-04 13:07:57.99	327.34	7.47	-48.9	-52.0	12.4	1.01e-04	0	55	0	898629632	59	5523
2026-01-04 13:07:58.97	327.48	7.43	-48.7	-51.8	12.7	1.07e-04	0	55	0	900726784	59	5347
2026-01-04 13:07:59.96	327.61	7.39	-48.8	-51.9	12.6	8.92e-05	0	55	0	901775360	59	5446
2026-01-04 13:08:00.95	327.75	7.34	-48.6	-51.6	12.8	3.96e-05	0	55	0	903872512	59	5258
2026-01-04 13:08:01.94	327.88	7.30	-48.5	-51.4	13.1	3.96e-05	0	55	0	905969664	59	5128
2026-01-04 13:08:02.92	328.02	7.26	-48.5	-51.5	12.9	5.11e-05	0	55	0	908066816	59	5183
2026-01-04 13:08:03.91	328.15	7.22	-48.5	-51.4	13.0	3.12e-05	0	55	0	909115392	59	5106
2026-01-04 13:08:04.90	328.29	7.17	-48.6	-51.6	12.8	2.97e-05	0	55	0	911212544	59	5246
2026-01-04 13:08:05.89	328.42	7.13	-48.5	-51.4	13.1	3.73e-05	0	55	0	913309696	59	5125
2026-01-04 13:08:06.87	328.55	7.09	-48.5	-51.5	13.0	2.28e-05	0	55	0	915406848	59	5163
2026-01-04 13:08:07.86	328.68	7.05	-48.6	-51.6	12.9	5.26e-05	0	55	0	917504000	59	5229
2026-01-04 13:08:08.85	328.82	7.00	-48.7	-51.8	12.6	7.17e-05	0	55	0	918552576	59	5395
2026-01-04 13:08:09.84	328.95	6.96	-48.6	-51.6	12.8	7.70e-05	0	55	0	920649728	59	5265
2026-01-04 13:08:10.83	329.08	6.92	-48.3	-51.1	13.3	2.74e-05	0	55	0	922746880	59	4967
2026-01-04 13:08:11.82	329.21	6.87	-48.3	-51.1	13.3	6.10e-06	0	55	0	924844032	59	4932
2026-01-04 13:08:12.80	329.34	6.83	-48.3	-51.0	13.4	1.83e-05	0	55	0	925892608	59	4912
2026-01-04 13:08:13.79	329.47	6.79	-48.2	-51.0	13.4	9.90e-06	0	55	0	927989760	59	4901
2026-01-04 13:08:14.78	329.60	6.75	-48.4	-51.1	13.2	1.29e-05	0	55	0	930086912	59	4979
2026-01-04 13:08:15.77	329.73	6.70	-48.5	-51.5	13.0	3.35e-05	0	55	0	932184064	59	5163
2026-01-04 13:08:16.76	329.86	6.66	-48.5	-51.4	13.0	2.97e-05	0	55	0	933232640	59	5143
2026-01-04 13:08:17.74	329.99	6.62	-48.6	-51.8	12.6	5.64e-05	0	55	0	935329792	59	5357
2026-01-04 13:08:18.72	330.11	6.57	-48.5	-51.5	12.8	1.17e-04	0	55	0	937426944	59	5192
2026-01-04 13:08:19.71	330.24	6.53	-48.6	-51.6	12.8	4.88e-05	0	55	0	939524096	59	5246
2026-01-04 13:08:20.70	330.37	6.49	-48.7	-51.9	12.5	1.20e-04	0	55	0	941621248	59	5410
2026-01-04 13:08:21.68	330.50	6.44	-48.6	-51.7	12.6	1.25e-04	0	55	0	942669824	59	5294
2026-01-04 13:08:22.67	330.62	6.40	-48.6	-51.7	12.7	7.78e-05	0	55	0	944766976	59	5301
2026-01-04 13:08:23.66	330.75	6.36	-48.5	-51.5	12.8	7.70e-05	0	55	0	946864128	59	5213
2026-01-04 13:08:24.64	330.87	6.31	-48.4	-51.4	13.0	4.19e-05	0	55	0	948961280	59	5136
2026-01-04 13:08:25.62	331.00	6.27	-48.5	-51.6	12.8	5.56e-05	0	55	0	950009856	59	5235
2026-01-04 13:08:26.61	331.12	6.23	-48.2	-50.9	13.4	3.66e-05	0	55	0	952107008	59	4868
2026-01-04 13:08:27.59	331.25	6.18	-48.0	-50.7	13.6	1.06e-05	0	55	0	954204160	59	4757
2026-01-04 13:08:28.58	331.37	6.14	-47.8	-50.4	13.9	4.50e-06	0	55	0	956301312	58	4838
2026-01-04 13:08:29.56	331.50	6.10	-47.7	-50.1	14.2	1.50e-06	0	55	0	957349888	58	4675
2026-01-04 13:08:30.54	331.62	6.05	-47.8	-50.3	14.1	3.00e-06	0	55	0	959447040	58	4767
2026-01-04 13:08:31.52	331.74	6.01	-47.9	-50.5	13.9	3.80e-06	0	55	0	961544192	58	4876
2026-01-04 13:08:32.51	331.87	5.97	-47.9	-50.5	13.8	7.00e-07	0	55	0	963641344	58	4875
2026-01-04 13:08:33.50	331.99	5.92	-48.1	-50.8	13.4	5.30e-06	0	55	0	964689920	58	5096
2026-01-04 13:08:34.47	332.11	5.88	-48.0	-50.6	13.6	1.98e-05	0	55	0	966787072	58	4973
2026-01-04 13:08:35.47	332.23	5.84	-48.1	-50.9	13.4	1.29e-05	0	55	0	968884224	58	5107
2026-01-04 13:08:36.45	332.35	5.79	-48.2	-51.0	13.3	1.90e-05	0	55	0	970981376	58	5190
2026-01-04 13:08:37.44	332.48	5.75	-48.2	-51.0	13.3	2.44e-05	0	55	0	972029952	58	5176
2026-01-04 13:08:38.43	332.60	5.70	-48.3	-51.3	12.9	4.27e-05	0	55	0	974127104	58	5393
2026-01-04 13:08:39.41	332.72	5.66	-48.4	-51.6	12.6	8.85e-05	0	55	0	976224256	58	5533
2026-01-04 13:08:40.39	332.84	5.62	-48.4	-51.5	12.7	1.07e-04	0	55	0	978321408	58	5502
2026-01-04 13:08:41.38	332.96	5.57	-48.5	-51.7	12.4	9.76e-05	0	55	0	980418560	59	5329
2026-01-04 13:08:42.36	333.08	5.53	-48.7	-51.9	12.3	1.79e-04	0	55	0	981467136	59	5456
2026-01-04 13:08:43.35	333.19	5.48	-48.6	-51.9	12.3	1.46e-04	0	55	0	983564288	59	5412
2026-01-04 13:08:44.34	333.31	5.44	-48.6	-51.8	12.4	1.04e-04	0	55	0	985661440	59	5366
2026-01-04 13:08:45.33	333.43	5.40	-48.6	-51.9	12.2	1.95e-04	0	55	0	987758592	59	5426
2026-01-04 13:08:46.32	333.55	5.35	-48.6	-51.9	12.4	1.73e-04	0	55	0	988807168	59	5414
2026-01-04 13:08:47.30	333.67	5.31	-48.7	-52.1	12.0	2.97e-04	0	55	0	990904320	59	5592
2026-01-04 13:08:48.30	333.79	5.26	-48.6	-51.9	12.3	2.27e-04	0	55	0	993001472	59	5407
2026-01-04 13:08:49.28	333.90	5.22	-48.6	-51.9	12.2	1.84e-04	0	55	0	995098624	59	5452
2026-01-04 13:08:50.26	334.02	5.18	-48.5	-51.7	12.5	1.39e-04	0	55	0	996147200	59	5316
2026-01-04 13:08:51.26	334.14	5.13	-48.6	-51.9	12.2	1.31e-04	0	55	0	998244352	59	5425
2026-01-04 13:08:52.24	334.25	5.09	-48.4	-51.6	12.5	1.08e-04	0	55	0	1000341504	59	5257
2026-01-04 13:08:53.23	334.37	5.04	-48.5	-51.8	12.3	1.46e-04	0	55	0	1002438656	59	5356
2026-01-04 13:08:54.22	334.49	5.00	-50.4	-56.9	7.6	3.20e-03	0	55	0	1003487232	62	8167
2026-01-04 13:08:55.19	334.60	4.95	-51.4	-65.0	3.8	1.49e+00	0	55	104	1004535808	64	18485
2026-01-04 13:08:56.17	334.71	4.91	-51.7	-65.6	3.8	1.49e+00	0	55	104	1004535808	65	18677
2026-01-04 13:08:57.16	334.83	4.87	-51.8	-65.8	3.8	1.49e+00	0	55	104	1004535808	65	19037
2026-01-04 13:08:58.15	334.94	4.82	-51.9	-65.9	3.8	1.49e+00	0	55	104	1004535808	65	19238
2026-01-04 13:08:59.13	335.06	4.78	-52.0	-65.9	3.8	1.49e+00	0	55	104	1004535808	65	19275
2026-01-04 13:09:00.12	335.17	4.73	-51.4	-65.3	3.8	1.49e+00	0	55	104	1004535808	65	18054
2026-01-04 13:09:01.10	335.28	4.69	-52.0	-65.9	3.8	1.49e+00	0	55	104	1004535808	66	18202
2026-01-04 13:09:02.09	335.40	4.64	-52.2	-66.1	3.8	1.49e+00	0	55	104	1004535808	66	18566
2026-01-04 13:09:03.08	335.51	4.60	-52.2	-66.2	3.8	1.49e+00	0	55	104	1004535808	66	18757
2026-01-04 13:09:04.07	335.62	4.55	-52.2	-66.2	3.8	1.49e+00	0	55	104	1004535808	66	18890
2026-01-04 13:09:05.06	335.73	4.51	-52.2	-66.2	3.8	1.49e+00	0	55	104	1004535808	66	18943
2026-01-04 13:09:06.04	335.84	4.47	-52.2	-66.3	3.8	1.49e+00	0	55	104	1004535808	66	18991
2026-01-04 13:09:07.04	335.96	4.42	-52.3	-66.3	3.8	1.49e+00	0	55	104	1004535808	66	18970
2026-01-04 13:09:08.02	336.07	4.38	-52.3	-66.3	3.8	1.49e+00	0	55	104	1004535808	66	19085
2026-01-04 13:09:09.01	336.18	4.33	-52.2	-66.3	3.8	1.49e+00	0	55	104	1004535808	66	19094
2026-01-04 13:09:10.00	336.29	4.29	-52.3	-66.3	3.8	1.49e+00	0	55	104	1004535808	66	19140
2026-01-04 13:09:10.99	336.40	4.24	-52.3	-66.4	3.8	1.49e+00	0	55	104	1004535808	66	19221
2026-01-04 13:09:11.97	336.51	4.20	-52.4	-66.4	3.8	1.49e+00	0	55	104	1004535808	66	19222
2026-01-04 13:09:12.97	336.62	4.15	-52.4	-66.4	3.8	1.49e+00	0	55	104	1004535808	66	19276
2026-01-04 13:09:13.95	336.73	4.11	-52.3	-66.4	3.8	1.49e+00	0	55	104	1004535808	66	19322
2026-01-04 13:09:14.93	336.83	4.06	-52.4	-66.4	3.8	1.49e+00	0	55	104	1004535808	66	19268
2026-01-04 13:09:15.93	336.94	4.02	-52.4	-66.4	3.8	1.49e+00	0	55	104	1004535808	66	19365
2026-01-04 13:09:16.91	337.05	3.98	-52.4	-66.5	3.8	1.49e+00	0	55	104	1004535808	66	19405
2026-01-04 13:09:17.90	337.16	3.93	-52.5	-66.5	3.8	1.49e+00	0	55	104	1004535808	66	19422
2026-01-04 13:09:18.88	337.27	3.89	-52.4	-66.4	3.8	1.49e+00	0	55	104	1004535808	66	19345
2026-01-04 13:09:19.88	337.37	3.84	-52.5	-66.5	3.8	1.49e+00	0	55	104	1004535808	66	19416
2026-01-04 13:09:20.86	337.48	3.80	-52.6	-66.5	3.8	1.49e+00	0	55	104	1004535808	66	19401
2026-01-04 13:09:21.84	337.59	3.75	-52.3	-66.4	3.8	1.49e+00	0	55	104	1004535808	66	19362
2026-01-04 13:09:22.83	337.69	3.71	-52.3	-66.4	3.8	1.49e+00	0	55	104	1004535808	67	18242
2026-01-04 13:09:23.82	337.80	3.66	-52.4	-66.4	3.8	1.49e+00	0	55	104	1004535808	67	18276
2026-01-04 13:09:24.81	337.91	3.62	-52.5	-66.4	3.8	1.49e+00	0	55	104	1004535808	67	18269
2026-01-04 13:09:25.79	338.01	3.57	-52.4	-66.4	3.8	1.49e+00	0	55	104	1004535808	67	18300
2026-01-04 13:09:26.78	338.12	3.53	-52.4	-66.4	3.8	1.49e+00	0	55	104	1004535808	67	18260
2026-01-04 13:09:27.76	338.22	3.48	-52.4	-66.4	3.8	1.49e+00	0	55	104	1004535808	67	18230
2026-01-04 13:09:28.74	338.32	3.44	-52.4	-66.4	3.8	1.49e+00	0	55	104	1004535808	67	18254
2026-01-04 13:09:29.73	338.43	3.40	-52.3	-66.4	3.8	1.49e+00	0	55	104	1004535808	67	18206
2026-01-04 13:09:30.72	338.53	3.35	-52.4	-66.4	3.8	1.49e+00	0	55	104	1004535808	67	18202
2026-01-04 13:09:31.71	338.64	3.31	-52.4	-66.4	3.8	1.49e+00	0	55	104	1004535808	67	18243
2026-01-04 13:09:32.68	338.74	3.26	-52.4	-66.4	3.8	1.49e+00	0	55	104	1004535808	67	18211
2026-01-04 13:09:33.67	338.84	3.22	-52.4	-66.4	3.8	1.49e+00	0	55	104	1004535808	67	18212
2026-01-04 13:09:34.66	338.94	3.17	-52.4	-66.4	3.8	1.49e+00	0	55	104	1004535808	67	18178
2026-01-04 13:09:35.65	339.05	3.13	-52.4	-66.4	3.8	1.49e+00	0	55	104	1004535808	67	18226
2026-01-04 13:09:36.63	339.15	3.08	-52.3	-66.4	3.8	1.49e+00	0	55	104	1004535808	67	18202
2026-01-04 13:09:37.61	339.25	3.04	-52.3	-66.4	3.8	1.49e+00	0	55	104	1004535808	67	18213
2026-01-04 13:09:38.60	339.35	2.99	-52.4	-66.4	3.8	1.49e+00	0	55	104	1004535808	67	18202
2026-01-04 13:09:39.60	339.45	2.95	-52.4	-66.4	3.8	1.49e+00	0	55	104	1004535808	67	18173

#Closed at: 2026-01-04 13:09:40
#Recorded file [1004 MB]: D:/Data/31026_260104_160854.dat