passes_logs/2026/01/04/R3.0SM8_Murmansk_STILSPACE/R3.0SM8_Murmansk_STILSPACE__20260104_003813_FENGYUN_3D_rec.log

#Pass ID: 20260104_003813_FENGYUN 3D
#Satellite: FENGYUN 3D
#Configuration: FENGYUN 3D
#almurnet v.1.7.20240730
#Start time: 2026-01-04 00:38:15

#Version: 2.2.20231116
#Station: R3.0SM8_Murmansk_STILSPACE
#Location: 33.092731 lon 68.902999 lat
#TLE: 1 43010U 17072A   26003.51579816  .00000092  00000+0  65324-4 0  9992
#TLE: 2 43010  98.9912 335.1548 0001916 128.4619 231.6729 14.19692074421623

#Time	Az	El	Level	Level2	SNR	BER	BlckErr	Temp	State	Recorded	gain1	gain2
2026-01-04 00:38:15.08	21.01	3.12	-52.4	-63.1	3.8	8.46e-01	0	46	0	0	66	13220
2026-01-04 00:38:16.06	21.08	3.17	-52.3	-63.0	3.8	8.47e-01	0	46	104	0	67	12356
2026-01-04 00:38:17.05	21.14	3.23	-52.2	-63.0	3.8	8.46e-01	0	46	104	0	67	12293
2026-01-04 00:38:18.04	21.21	3.29	-52.2	-62.9	3.8	8.47e-01	0	46	104	0	67	12116
2026-01-04 00:38:19.03	21.28	3.35	-52.0	-62.6	3.8	8.46e-01	0	46	104	0	66	12515
2026-01-04 00:38:20.02	21.35	3.40	-51.6	-62.2	3.8	8.46e-01	0	46	104	0	66	11912
2026-01-04 00:38:21.01	21.42	3.46	-51.5	-62.3	3.8	8.46e-01	0	47	104	0	65	12691
2026-01-04 00:38:22.00	21.49	3.52	-51.4	-62.3	3.8	8.45e-01	0	47	104	0	65	12699
2026-01-04 00:38:23.00	21.56	3.58	-51.4	-62.2	3.8	8.46e-01	0	47	104	0	65	12627
2026-01-04 00:38:23.99	21.63	3.64	-51.5	-62.2	3.8	8.47e-01	0	47	104	0	65	12642
2026-01-04 00:38:24.98	21.70	3.70	-51.3	-62.2	3.8	8.46e-01	0	47	104	0	65	12646
2026-01-04 00:38:25.98	21.77	3.76	-51.5	-62.1	3.8	8.46e-01	0	47	104	0	65	12507
2026-01-04 00:38:26.96	21.84	3.81	-51.3	-62.1	3.8	8.47e-01	0	47	104	0	65	12470
2026-01-04 00:38:27.95	21.91	3.87	-51.4	-62.2	3.8	8.47e-01	0	47	104	0	65	12640
2026-01-04 00:38:28.94	21.98	3.93	-51.3	-62.2	3.8	8.46e-01	0	47	104	0	65	12612
2026-01-04 00:38:29.92	22.05	3.99	-51.4	-62.1	3.8	8.46e-01	0	47	104	0	65	12397
2026-01-04 00:38:30.91	22.12	4.05	-51.4	-62.0	3.8	8.46e-01	0	47	104	0	65	12375
2026-01-04 00:38:31.90	22.19	4.11	-51.4	-62.1	3.8	8.46e-01	0	47	104	0	65	12472
2026-01-04 00:38:32.88	22.27	4.17	-51.4	-62.2	3.8	8.47e-01	0	47	104	0	65	12602
2026-01-04 00:38:33.86	22.34	4.22	-51.4	-62.2	3.8	8.46e-01	0	47	104	0	65	12530
2026-01-04 00:38:34.85	22.41	4.28	-51.4	-62.0	3.8	8.46e-01	0	48	104	0	65	12250
2026-01-04 00:38:35.84	22.48	4.34	-51.4	-61.9	3.8	8.45e-01	0	48	104	0	65	12145
2026-01-04 00:38:36.83	22.56	4.40	-51.4	-62.1	3.8	8.46e-01	0	48	104	0	65	12414
2026-01-04 00:38:37.82	22.63	4.46	-51.5	-62.1	3.8	8.46e-01	0	48	104	0	65	12420
2026-01-04 00:38:38.82	22.71	4.52	-51.3	-61.5	3.8	8.46e-01	0	48	104	0	65	11635
2026-01-04 00:38:39.81	22.78	4.58	-51.2	-60.1	3.8	8.45e-01	0	48	104	0	65	9899
2026-01-04 00:38:40.80	22.85	4.64	-50.8	-57.9	4.4	8.37e-01	0	48	0	0	64	8116
2026-01-04 00:38:41.79	22.93	4.70	-50.4	-56.0	5.5	7.38e-01	0	48	0	0	63	6935
2026-01-04 00:38:42.78	23.00	4.76	-50.0	-54.5	6.6	3.25e-01	0	48	0	4194304	63	5855
2026-01-04 00:38:43.77	23.08	4.82	-49.5	-53.2	7.8	1.42e-01	0	48	0	9437184	62	5329
2026-01-04 00:38:44.76	23.15	4.88	-48.7	-51.7	9.3	3.07e-02	0	48	0	15728640	60	5014
2026-01-04 00:38:45.76	23.23	4.94	-48.3	-51.0	10.1	1.25e-02	0	48	0	20971520	59	4924
2026-01-04 00:38:46.76	23.31	5.00	-48.3	-50.9	10.2	7.83e-03	0	48	0	26214400	59	4842
2026-01-04 00:38:47.74	23.38	5.06	-47.9	-50.3	10.9	3.98e-03	0	48	0	32505856	59	4521
2026-01-04 00:38:48.73	23.46	5.13	-48.1	-50.6	10.7	2.92e-03	0	49	0	37748736	58	4933
2026-01-04 00:38:49.71	23.54	5.19	-48.0	-50.3	11.0	3.28e-03	0	48	0	42991616	58	4775
2026-01-04 00:38:50.71	23.61	5.25	-47.7	-49.8	11.5	1.55e-03	0	48	0	49283072	58	4526
2026-01-04 00:38:51.69	23.69	5.31	-47.4	-49.4	11.9	6.43e-04	0	49	0	54525952	57	4574
2026-01-04 00:38:52.68	23.77	5.37	-47.0	-48.8	12.5	2.10e-04	0	48	0	59768832	57	4269
2026-01-04 00:38:53.68	23.85	5.43	-46.8	-48.7	12.7	8.81e-05	0	49	0	65011712	56	4449
2026-01-04 00:38:54.67	23.93	5.49	-46.4	-48.1	13.3	3.43e-05	0	49	0	71303168	56	4174
2026-01-04 00:38:55.66	24.01	5.55	-46.2	-47.9	13.4	1.94e-05	0	49	0	76546048	55	4295
2026-01-04 00:38:56.65	24.08	5.61	-46.2	-47.8	13.5	2.17e-05	0	49	0	81788928	55	4254
2026-01-04 00:38:57.64	24.16	5.68	-46.5	-48.1	13.2	3.43e-05	0	49	0	88080384	55	4431
2026-01-04 00:38:58.63	24.24	5.74	-46.8	-48.7	12.6	6.06e-05	0	49	0	93323264	55	4718
2026-01-04 00:38:59.62	24.32	5.80	-46.7	-48.5	12.8	1.06e-04	0	49	0	98566144	55	4650
2026-01-04 00:39:00.61	24.40	5.86	-46.3	-47.9	13.4	3.20e-05	0	49	0	104857600	55	4308
2026-01-04 00:39:01.60	24.49	5.92	-45.9	-47.4	13.9	5.70e-06	0	49	0	110100480	55	4095
2026-01-04 00:39:02.58	24.57	5.98	-45.5	-46.9	14.5	1.10e-06	0	49	0	115343360	54	4076
2026-01-04 00:39:03.56	24.65	6.05	-45.2	-46.4	14.9	0.00e+00	0	49	0	120586240	53	4081
2026-01-04 00:39:04.55	24.73	6.11	-45.0	-46.2	15.1	0.00e+00	0	49	0	126877696	53	3992
2026-01-04 00:39:05.54	24.81	6.17	-44.7	-45.9	15.5	0.00e+00	0	49	0	132120576	52	4065
2026-01-04 00:39:06.53	24.89	6.23	-44.7	-45.9	15.4	0.00e+00	0	49	0	138412032	52	4070
2026-01-04 00:39:07.52	24.97	6.30	-44.6	-45.8	15.6	0.00e+00	0	49	0	143654912	52	4016
2026-01-04 00:39:08.52	25.06	6.36	-44.6	-45.8	15.6	0.00e+00	0	50	0	148897792	52	4015
2026-01-04 00:39:09.51	25.14	6.42	-44.6	-45.7	15.7	0.00e+00	0	49	0	154140672	52	3997
2026-01-04 00:39:10.50	25.23	6.49	-44.9	-46.1	15.4	0.00e+00	0	50	0	160432128	52	4147
2026-01-04 00:39:11.49	25.31	6.55	-44.8	-46.0	15.5	1.10e-06	0	50	0	165675008	52	4104
2026-01-04 00:39:12.48	25.39	6.61	-44.6	-45.8	15.7	0.00e+00	0	50	0	170917888	52	4020
2026-01-04 00:39:13.48	25.48	6.68	-44.5	-45.6	15.8	0.00e+00	0	50	0	177209344	52	3940
2026-01-04 00:39:14.47	25.57	6.74	-44.5	-45.6	15.9	0.00e+00	0	50	0	182452224	51	4184
2026-01-04 00:39:15.46	25.65	6.80	-44.5	-45.6	16.0	0.00e+00	0	50	0	187695104	51	4159
2026-01-04 00:39:16.45	25.74	6.87	-44.6	-45.6	15.9	0.00e+00	0	50	0	193986560	51	4187
2026-01-04 00:39:17.43	25.82	6.93	-44.6	-45.7	15.8	0.00e+00	0	50	0	199229440	51	4241
2026-01-04 00:39:18.42	25.91	6.99	-44.6	-45.7	15.9	0.00e+00	0	50	0	204472320	51	4196
2026-01-04 00:39:19.41	26.00	7.06	-44.7	-45.8	15.8	0.00e+00	0	50	0	209715200	51	4269
2026-01-04 00:39:20.40	26.08	7.12	-44.8	-46.0	15.6	0.00e+00	0	50	0	216006656	51	4348
2026-01-04 00:39:21.39	26.17	7.18	-44.6	-45.7	15.9	0.00e+00	0	50	0	221249536	51	4218
2026-01-04 00:39:22.38	26.26	7.25	-44.6	-45.7	15.9	0.00e+00	0	50	0	227540992	51	4198
2026-01-04 00:39:23.36	26.35	7.31	-44.7	-45.8	15.8	0.00e+00	0	50	0	232783872	51	4276
2026-01-04 00:39:24.35	26.43	7.38	-44.7	-45.8	15.8	0.00e+00	0	50	0	238026752	51	4276
2026-01-04 00:39:25.35	26.52	7.44	-44.6	-45.7	15.9	0.00e+00	0	50	0	243269632	51	4236
2026-01-04 00:39:26.34	26.61	7.51	-44.6	-45.7	15.9	0.00e+00	0	50	0	249561088	51	4222
2026-01-04 00:39:27.33	26.70	7.57	-44.6	-45.7	15.9	0.00e+00	0	50	0	254803968	51	4232
2026-01-04 00:39:28.33	26.79	7.64	-44.5	-45.6	16.0	0.00e+00	0	50	0	260046848	51	4172
2026-01-04 00:39:29.31	26.88	7.70	-44.6	-45.7	15.9	0.00e+00	0	50	0	266338304	51	4225
2026-01-04 00:39:30.29	26.97	7.77	-44.7	-45.8	15.8	0.00e+00	0	50	0	271581184	51	4278
2026-01-04 00:39:31.28	27.07	7.83	-44.3	-45.4	16.3	0.00e+00	0	51	0	276824064	51	4055
2026-01-04 00:39:32.27	27.16	7.90	-44.2	-45.2	16.4	0.00e+00	0	50	0	282066944	51	3992
2026-01-04 00:39:33.26	27.25	7.96	-44.1	-45.1	16.5	0.00e+00	0	51	0	288358400	51	3941
2026-01-04 00:39:34.24	27.34	8.03	-44.0	-45.0	16.6	0.00e+00	0	51	0	293601280	51	3901
2026-01-04 00:39:35.23	27.43	8.09	-44.1	-45.0	16.6	0.00e+00	0	51	0	299892736	51	3903
2026-01-04 00:39:36.21	27.53	8.16	-44.0	-45.0	16.6	0.00e+00	0	51	0	305135616	51	3894
2026-01-04 00:39:37.20	27.62	8.22	-44.0	-45.0	16.7	0.00e+00	0	51	0	310378496	51	3891
2026-01-04 00:39:38.19	27.71	8.29	-44.0	-45.0	16.6	0.00e+00	0	51	0	315621376	51	3896
2026-01-04 00:39:39.18	27.81	8.35	-44.1	-45.0	16.6	0.00e+00	0	51	0	321912832	51	3906
2026-01-04 00:39:40.17	27.90	8.42	-44.1	-45.1	16.6	0.00e+00	0	51	0	327155712	51	3943
2026-01-04 00:39:41.15	28.00	8.49	-44.3	-45.4	16.3	0.00e+00	0	51	0	332398592	51	4055
2026-01-04 00:39:42.14	28.09	8.55	-44.3	-45.3	16.4	0.00e+00	0	51	0	338690048	51	4028
2026-01-04 00:39:43.13	28.19	8.62	-44.3	-45.3	16.4	0.00e+00	0	51	0	343932928	51	4039
2026-01-04 00:39:44.12	28.29	8.69	-44.3	-45.3	16.4	0.00e+00	0	51	0	349175808	51	4048
2026-01-04 00:39:45.11	28.38	8.75	-44.2	-45.2	16.5	0.00e+00	0	51	0	354418688	51	4002
2026-01-04 00:39:46.09	28.48	8.82	-44.3	-45.3	16.4	0.00e+00	0	51	0	360710144	51	4039
2026-01-04 00:39:47.08	28.58	8.89	-44.2	-45.2	16.5	0.00e+00	0	51	0	365953024	51	3989
2026-01-04 00:39:48.07	28.68	8.95	-44.3	-45.3	16.4	0.00e+00	0	51	0	371195904	51	4032
2026-01-04 00:39:49.06	28.77	9.02	-44.5	-45.6	16.2	0.00e+00	0	51	0	377487360	51	4153
2026-01-04 00:39:50.05	28.87	9.09	-44.4	-45.4	16.4	0.00e+00	0	51	0	382730240	51	4077
2026-01-04 00:39:51.03	28.97	9.15	-44.5	-45.6	16.2	0.00e+00	0	51	0	387973120	51	4165
2026-01-04 00:39:52.03	29.07	9.22	-44.3	-45.3	16.4	0.00e+00	0	51	0	393216000	51	4035
2026-01-04 00:39:53.01	29.17	9.29	-44.1	-45.1	16.6	0.00e+00	0	52	0	399507456	51	3940
2026-01-04 00:39:54.00	29.27	9.36	-44.1	-45.1	16.7	0.00e+00	0	52	0	404750336	51	3929
2026-01-04 00:39:54.99	29.38	9.42	-44.1	-45.1	16.6	0.00e+00	0	51	0	409993216	51	3934
2026-01-04 00:39:55.99	29.48	9.49	-44.2	-45.2	16.6	0.00e+00	0	52	0	416284672	51	3960
2026-01-04 00:39:56.98	29.58	9.56	-44.0	-45.0	16.8	0.00e+00	0	52	0	421527552	51	3892
2026-01-04 00:39:57.97	29.68	9.63	-43.9	-44.9	16.9	0.00e+00	0	51	0	426770432	51	3839
2026-01-04 00:39:58.96	29.79	9.70	-44.0	-44.9	16.9	0.00e+00	0	51	0	433061888	51	3857
2026-01-04 00:39:59.96	29.89	9.77	-44.0	-45.0	16.8	0.00e+00	0	52	0	438304768	51	3901
2026-01-04 00:40:00.95	29.99	9.84	-44.3	-45.3	16.5	0.00e+00	0	52	0	443547648	51	4025
2026-01-04 00:40:01.93	30.10	9.90	-44.0	-45.0	16.8	0.00e+00	0	52	0	449839104	51	3889
2026-01-04 00:40:02.92	30.20	9.97	-44.0	-45.0	16.8	0.00e+00	0	52	0	455081984	51	3894
2026-01-04 00:40:03.92	30.31	10.04	-44.1	-45.1	16.7	0.00e+00	0	52	0	460324864	51	3934
2026-01-04 00:40:04.91	30.42	10.11	-44.2	-45.2	16.6	0.00e+00	0	52	0	466616320	51	3987
2026-01-04 00:40:05.90	30.52	10.18	-44.0	-45.0	16.8	0.00e+00	0	52	0	471859200	51	3896
2026-01-04 00:40:06.88	30.63	10.25	-43.8	-44.8	17.0	0.00e+00	0	52	0	477102080	50	4022
2026-01-04 00:40:07.87	30.74	10.32	-43.8	-44.7	17.1	0.00e+00	0	52	0	482344960	50	3992
2026-01-04 00:40:08.86	30.84	10.39	-43.9	-44.8	17.0	0.00e+00	0	52	0	488636416	50	4031
2026-01-04 00:40:09.85	30.95	10.46	-44.0	-45.0	16.9	0.00e+00	0	52	0	493879296	50	4115
2026-01-04 00:40:10.84	31.06	10.53	-43.9	-44.9	17.0	0.00e+00	0	52	0	499122176	50	4063
2026-01-04 00:40:11.83	31.17	10.60	-44.0	-45.0	16.8	0.00e+00	0	52	0	505413632	50	4116
2026-01-04 00:40:12.82	31.28	10.67	-44.4	-45.4	16.5	0.00e+00	0	52	0	510656512	50	4301
2026-01-04 00:40:13.80	31.39	10.73	-44.2	-45.2	16.7	0.00e+00	0	52	0	515899392	50	4209
2026-01-04 00:40:14.80	31.50	10.81	-43.9	-44.8	17.0	0.00e+00	0	52	0	522190848	50	4035
2026-01-04 00:40:15.79	31.61	10.88	-43.7	-44.6	17.3	0.00e+00	0	52	0	527433728	50	3940
2026-01-04 00:40:16.78	31.72	10.95	-43.5	-44.4	17.4	0.00e+00	0	52	0	532676608	50	3856
2026-01-04 00:40:17.77	31.84	11.02	-43.5	-44.4	17.5	0.00e+00	0	52	0	538968064	50	3831
2026-01-04 00:40:18.76	31.95	11.09	-43.5	-44.4	17.5	0.00e+00	0	52	0	544210944	50	3834
2026-01-04 00:40:19.75	32.06	11.16	-43.5	-44.4	17.5	0.00e+00	0	52	0	549453824	50	3836
2026-01-04 00:40:20.74	32.18	11.23	-43.7	-44.6	17.3	0.00e+00	0	52	0	555745280	50	3914
2026-01-04 00:40:21.73	32.29	11.30	-43.4	-44.3	17.6	0.00e+00	0	52	0	560988160	50	3798
2026-01-04 00:40:22.73	32.41	11.37	-43.2	-44.1	17.7	0.00e+00	0	52	0	566231040	49	3929
2026-01-04 00:40:23.72	32.52	11.44	-43.1	-44.0	17.9	0.00e+00	0	52	0	571473920	49	3879
2026-01-04 00:40:24.72	32.64	11.51	-43.2	-44.0	17.9	0.00e+00	0	52	0	577765376	49	3892
2026-01-04 00:40:25.71	32.76	11.58	-43.3	-44.1	17.7	0.00e+00	0	52	0	583008256	49	3946
2026-01-04 00:40:26.70	32.87	11.66	-43.3	-44.1	17.7	0.00e+00	0	53	0	589299712	49	3945
2026-01-04 00:40:27.69	32.99	11.73	-43.4	-44.2	17.7	0.00e+00	0	52	0	594542592	49	3988
2026-01-04 00:40:28.68	33.11	11.80	-43.5	-44.4	17.5	0.00e+00	0	52	0	599785472	49	4083
2026-01-04 00:40:29.66	33.23	11.87	-43.5	-44.3	17.5	0.00e+00	0	53	0	605028352	49	4045
2026-01-04 00:40:30.65	33.35	11.94	-43.3	-44.2	17.7	0.00e+00	0	53	0	611319808	49	3972
2026-01-04 00:40:31.63	33.47	12.01	-43.3	-44.2	17.7	0.00e+00	0	52	0	616562688	49	3971
2026-01-04 00:40:32.62	33.59	12.08	-43.3	-44.1	17.8	0.00e+00	0	53	0	621805568	49	3947
2026-01-04 00:40:33.61	33.71	12.16	-43.3	-44.2	17.7	0.00e+00	0	53	0	628097024	49	3966
2026-01-04 00:40:34.60	33.83	12.23	-43.3	-44.2	17.7	0.00e+00	0	53	0	633339904	49	3961
2026-01-04 00:40:35.59	33.95	12.30	-43.2	-44.1	17.8	0.00e+00	0	53	0	638582784	49	3918
2026-01-04 00:40:36.58	34.08	12.37	-43.2	-44.0	17.9	0.00e+00	0	53	0	644874240	49	3895
2026-01-04 00:40:37.57	34.20	12.44	-43.3	-44.2	17.7	0.00e+00	0	53	0	650117120	49	3968
2026-01-04 00:40:38.56	34.32	12.52	-43.3	-44.2	17.7	0.00e+00	0	53	0	655360000	49	3966
2026-01-04 00:40:39.55	34.45	12.59	-43.3	-44.2	17.7	0.00e+00	0	53	0	660602880	49	3968
2026-01-04 00:40:40.54	34.57	12.66	-43.5	-44.4	17.5	0.00e+00	0	53	0	666894336	49	4072
2026-01-04 00:40:41.52	34.70	12.73	-43.5	-44.4	17.5	0.00e+00	0	53	0	672137216	49	4061
2026-01-04 00:40:42.52	34.82	12.81	-43.3	-44.2	17.7	0.00e+00	0	53	0	677380096	49	3964
2026-01-04 00:40:43.51	34.95	12.88	-43.2	-44.0	17.9	0.00e+00	0	53	0	683671552	49	3908
2026-01-04 00:40:44.49	35.08	12.95	-43.1	-44.0	17.9	0.00e+00	0	53	0	688914432	49	3878
2026-01-04 00:40:45.48	35.21	13.03	-43.2	-44.0	17.9	0.00e+00	0	53	0	694157312	49	3898
2026-01-04 00:40:46.46	35.33	13.10	-43.2	-44.0	17.9	0.00e+00	0	53	0	699400192	49	3897
2026-01-04 00:40:47.44	35.46	13.17	-43.2	-44.0	17.9	0.00e+00	0	53	0	705691648	49	3907
2026-01-04 00:40:48.43	35.59	13.25	-43.2	-44.0	17.9	0.00e+00	0	53	0	710934528	49	3904
2026-01-04 00:40:49.41	35.72	13.32	-43.3	-44.2	17.8	0.00e+00	0	53	0	716177408	49	3961
2026-01-04 00:40:50.40	35.85	13.39	-43.3	-44.2	17.7	0.00e+00	0	53	0	722468864	49	3980
2026-01-04 00:40:51.39	35.98	13.47	-43.3	-44.1	17.8	0.00e+00	0	53	0	727711744	49	3955
2026-01-04 00:40:52.38	36.12	13.54	-43.5	-44.3	17.6	0.00e+00	0	53	0	732954624	49	4043
2026-01-04 00:40:53.37	36.25	13.61	-43.5	-44.4	17.6	0.00e+00	0	53	0	738197504	49	4059
2026-01-04 00:40:54.36	36.38	13.69	-43.3	-44.2	17.8	0.00e+00	0	53	0	744488960	49	3965
2026-01-04 00:40:55.35	36.52	13.76	-43.2	-44.0	17.9	0.00e+00	0	53	0	749731840	49	3891
2026-01-04 00:40:56.34	36.65	13.84	-43.1	-44.0	18.0	0.00e+00	0	53	0	756023296	49	3871
2026-01-04 00:40:57.33	36.79	13.91	-43.1	-43.9	18.0	0.00e+00	0	53	0	761266176	49	3835
2026-01-04 00:40:58.31	36.92	13.98	-43.1	-43.9	18.0	0.00e+00	0	53	0	766509056	49	3847
2026-01-04 00:40:59.30	37.06	14.06	-43.3	-44.1	17.8	0.00e+00	0	54	0	771751936	49	3956
2026-01-04 00:41:00.29	37.20	14.13	-43.0	-43.8	18.1	0.00e+00	0	53	0	778043392	49	3813
2026-01-04 00:41:01.27	37.34	14.21	-42.9	-43.7	18.2	0.00e+00	0	53	0	783286272	49	3761
2026-01-04 00:41:02.27	37.48	14.28	-42.8	-43.6	18.4	0.00e+00	0	54	0	788529152	48	3935
2026-01-04 00:41:03.25	37.61	14.36	-42.8	-43.6	18.4	0.00e+00	0	53	0	794820608	48	3936
2026-01-04 00:41:04.24	37.75	14.43	-42.8	-43.6	18.4	0.00e+00	0	53	0	800063488	48	3927
2026-01-04 00:41:05.23	37.90	14.51	-42.8	-43.6	18.4	0.00e+00	0	53	0	805306368	48	3942
2026-01-04 00:41:06.22	38.04	14.58	-42.9	-43.7	18.2	0.00e+00	0	54	0	810549248	48	3991
2026-01-04 00:41:07.21	38.18	14.66	-43.0	-43.8	18.1	0.00e+00	0	53	0	816840704	48	4041
2026-01-04 00:41:08.20	38.32	14.73	-42.7	-43.5	18.5	0.00e+00	0	53	0	822083584	48	3870
2026-01-04 00:41:09.19	38.47	14.81	-42.5	-43.2	18.7	0.00e+00	0	53	0	828375040	48	3776
2026-01-04 00:41:10.18	38.61	14.88	-42.3	-43.0	18.8	0.00e+00	0	54	0	833617920	47	3909
2026-01-04 00:41:11.17	38.76	14.96	-42.2	-43.0	18.8	0.00e+00	0	54	0	838860800	47	3885
2026-01-04 00:41:12.16	38.90	15.03	-42.2	-42.9	18.9	0.00e+00	0	54	0	844103680	47	3848
2026-01-04 00:41:13.15	39.05	15.11	-42.3	-43.1	18.7	0.00e+00	0	53	0	850395136	47	3928
2026-01-04 00:41:14.14	39.20	15.18	-42.5	-43.2	18.6	0.00e+00	0	54	0	855638016	47	3997
2026-01-04 00:41:15.13	39.35	15.26	-42.3	-43.0	18.8	0.00e+00	0	54	0	860880896	47	3889
2026-01-04 00:41:16.11	39.49	15.33	-42.2	-43.0	18.9	0.00e+00	0	53	0	867172352	47	3873
2026-01-04 00:41:17.11	39.64	15.41	-42.3	-43.0	18.8	0.00e+00	0	54	0	872415232	47	3909
2026-01-04 00:41:18.10	39.79	15.49	-42.5	-43.2	18.6	0.00e+00	0	54	0	877658112	47	3993
2026-01-04 00:41:19.08	39.94	15.56	-42.5	-43.2	18.6	0.00e+00	0	54	0	883949568	47	3983
2026-01-04 00:41:20.06	40.09	15.64	-42.5	-43.2	18.6	0.00e+00	0	53	0	889192448	47	3991
2026-01-04 00:41:21.06	40.25	15.71	-42.6	-43.3	18.5	0.00e+00	0	54	0	894435328	47	4039
2026-01-04 00:41:22.05	40.40	15.79	-42.8	-43.6	18.3	0.00e+00	0	54	0	899678208	47	4156
2026-01-04 00:41:23.03	40.55	15.86	-42.6	-43.3	18.5	0.00e+00	0	54	0	905969664	47	4050
2026-01-04 00:41:24.02	40.71	15.94	-42.7	-43.5	18.3	0.00e+00	0	54	0	911212544	47	4126
2026-01-04 00:41:25.01	40.86	16.02	-42.9	-43.7	18.1	0.00e+00	0	54	0	916455424	47	4230
2026-01-04 00:41:26.01	41.02	16.09	-42.7	-43.5	18.3	0.00e+00	0	54	0	922746880	47	4116
2026-01-04 00:41:27.00	41.18	16.17	-42.5	-43.3	18.5	0.00e+00	0	54	0	927989760	47	4030
2026-01-04 00:41:27.99	41.34	16.25	-42.5	-43.3	18.6	0.00e+00	0	54	0	933232640	47	4014
2026-01-04 00:41:28.98	41.50	16.32	-42.6	-43.3	18.5	0.00e+00	0	54	0	938475520	47	4044
2026-01-04 00:41:29.96	41.65	16.40	-42.7	-43.5	18.3	0.00e+00	0	54	0	944766976	47	4135
2026-01-04 00:41:30.95	41.81	16.47	-42.6	-43.3	18.5	0.00e+00	0	54	0	950009856	47	4046
2026-01-04 00:41:31.95	41.98	16.55	-42.7	-43.5	18.4	0.00e+00	0	54	0	956301312	47	4107
2026-01-04 00:41:32.95	42.14	16.63	-42.9	-43.7	18.1	0.00e+00	0	54	0	961544192	47	4228
2026-01-04 00:41:33.93	42.30	16.70	-42.6	-43.3	18.5	0.00e+00	0	54	0	966787072	47	4043
2026-01-04 00:41:34.93	42.47	16.78	-42.3	-43.0	18.8	0.00e+00	0	54	0	972029952	47	3888
2026-01-04 00:41:35.92	42.63	16.86	-42.1	-42.8	19.0	0.00e+00	0	54	0	978321408	47	3798
2026-01-04 00:41:36.91	42.80	16.93	-42.0	-42.7	19.1	0.00e+00	0	54	0	983564288	47	3767
2026-01-04 00:41:37.90	42.96	17.01	-42.0	-42.8	19.1	0.00e+00	0	54	0	988807168	47	3786
2026-01-04 00:41:38.89	43.13	17.09	-42.3	-43.1	18.8	0.00e+00	0	54	0	995098624	47	3920
2026-01-04 00:41:39.88	43.30	17.16	-42.2	-42.9	18.9	0.00e+00	0	54	0	1000341504	47	3861
2026-01-04 00:41:40.87	43.46	17.24	-42.4	-43.2	18.7	0.00e+00	0	54	0	1005584384	47	3960
2026-01-04 00:41:41.86	43.63	17.32	-42.3	-43.0	18.8	0.00e+00	0	54	0	1011875840	47	3911
2026-01-04 00:41:42.85	43.80	17.39	-42.1	-42.8	19.1	0.00e+00	0	54	0	1017118720	47	3794
2026-01-04 00:41:43.83	43.97	17.47	-41.9	-42.7	19.2	0.00e+00	0	54	0	1022361600	47	3738
2026-01-04 00:41:44.82	44.15	17.55	-41.9	-42.6	19.2	0.00e+00	0	54	0	1027604480	47	3719
2026-01-04 00:41:45.81	44.32	17.62	-41.9	-42.6	19.2	0.00e+00	0	54	0	1033895936	46	3954
2026-01-04 00:41:46.80	44.49	17.70	-41.8	-42.5	19.3	0.00e+00	0	54	0	1039138816	46	3893
2026-01-04 00:41:47.79	44.67	17.77	-41.7	-42.4	19.5	0.00e+00	0	54	0	1045430272	46	3836
2026-01-04 00:41:48.78	44.84	17.85	-41.7	-42.4	19.4	0.00e+00	0	54	0	1050673152	46	3859
2026-01-04 00:41:49.76	45.01	17.93	-41.9	-42.6	19.3	0.00e+00	0	54	0	1055916032	46	3926
2026-01-04 00:41:50.76	45.19	18.00	-41.8	-42.5	19.4	0.00e+00	0	54	0	1061158912	46	3890
2026-01-04 00:41:51.75	45.37	18.08	-41.8	-42.5	19.3	0.00e+00	0	54	0	1067450368	46	3896
2026-01-04 00:41:52.74	45.55	18.16	-42.0	-42.7	19.1	0.00e+00	0	54	0	1072693248	46	4000
2026-01-04 00:41:53.73	45.73	18.23	-41.9	-42.6	19.3	0.00e+00	0	54	0	1077936128	46	3940
2026-01-04 00:41:54.71	45.91	18.31	-41.7	-42.3	19.5	0.00e+00	0	54	0	1084227584	46	3823
2026-01-04 00:41:55.70	46.09	18.39	-41.7	-42.3	19.5	0.00e+00	0	54	0	1089470464	46	3810
2026-01-04 00:41:56.69	46.27	18.46	-41.8	-42.4	19.4	0.00e+00	0	54	0	1094713344	46	3858
2026-01-04 00:41:57.68	46.45	18.54	-42.0	-42.7	19.2	0.00e+00	0	54	0	1101004800	46	3969
2026-01-04 00:41:58.68	46.64	18.62	-41.9	-42.6	19.3	0.00e+00	0	54	0	1106247680	46	3946
2026-01-04 00:41:59.67	46.83	18.69	-41.8	-42.5	19.4	0.00e+00	0	54	0	1111490560	46	3877
2026-01-04 00:42:00.67	47.01	18.77	-41.7	-42.4	19.5	0.00e+00	0	54	0	1117782016	46	3834
2026-01-04 00:42:01.65	47.20	18.84	-41.7	-42.4	19.5	0.00e+00	0	54	0	1123024896	46	3847
2026-01-04 00:42:02.63	47.38	18.92	-41.9	-42.6	19.3	0.00e+00	0	54	0	1128267776	46	3914
2026-01-04 00:42:03.63	47.57	19.00	-41.8	-42.5	19.4	0.00e+00	0	54	0	1133510656	46	3870
2026-01-04 00:42:04.62	47.76	19.07	-41.8	-42.4	19.4	0.00e+00	0	55	0	1139802112	46	3863
2026-01-04 00:42:05.60	47.95	19.15	-41.9	-42.6	19.3	0.00e+00	0	54	0	1145044992	46	3937
2026-01-04 00:42:06.59	48.14	19.22	-41.9	-42.6	19.2	0.00e+00	0	55	0	1150287872	46	3942
2026-01-04 00:42:07.58	48.33	19.30	-41.7	-42.4	19.5	0.00e+00	0	55	0	1156579328	46	3858
2026-01-04 00:42:08.56	48.53	19.37	-41.7	-42.4	19.5	0.00e+00	0	54	0	1161822208	46	3839
2026-01-04 00:42:09.56	48.72	19.45	-41.7	-42.3	19.5	0.00e+00	0	55	0	1167065088	46	3818
2026-01-04 00:42:10.54	48.91	19.52	-41.6	-42.2	19.7	0.00e+00	0	54	0	1173356544	46	3774
2026-01-04 00:42:11.53	49.11	19.60	-41.4	-42.1	19.8	0.00e+00	0	54	0	1178599424	46	3700
2026-01-04 00:42:12.52	49.31	19.67	-41.5	-42.1	19.7	0.00e+00	0	54	0	1183842304	46	3729
2026-01-04 00:42:13.50	49.50	19.75	-41.5	-42.1	19.7	0.00e+00	0	55	0	1189085184	46	3731
2026-01-04 00:42:14.50	49.70	19.82	-41.4	-42.1	19.8	0.00e+00	0	54	0	1195376640	46	3703
2026-01-04 00:42:15.49	49.90	19.90	-41.3	-42.0	19.8	0.00e+00	0	55	0	1200619520	45	3893
2026-01-04 00:42:16.48	50.10	19.97	-41.3	-42.0	19.8	0.00e+00	0	55	0	1206910976	45	3889
2026-01-04 00:42:17.47	50.31	20.05	-41.4	-42.1	19.8	0.00e+00	0	55	0	1212153856	45	3916
2026-01-04 00:42:18.46	50.51	20.12	-41.6	-42.3	19.6	0.00e+00	0	55	0	1217396736	45	4024
2026-01-04 00:42:19.45	50.71	20.20	-41.6	-42.3	19.6	0.00e+00	0	55	0	1222639616	45	4005
2026-01-04 00:42:20.45	50.92	20.27	-41.4	-42.0	19.8	0.00e+00	0	54	0	1228931072	45	3910
2026-01-04 00:42:21.43	51.12	20.35	-41.2	-41.9	20.0	0.00e+00	0	55	0	1234173952	45	3839
2026-01-04 00:42:22.42	51.33	20.42	-41.3	-42.0	19.9	0.00e+00	0	55	0	1239416832	45	3870
2026-01-04 00:42:23.41	51.54	20.49	-41.4	-42.0	19.8	0.00e+00	0	55	0	1245708288	45	3910
2026-01-04 00:42:24.40	51.74	20.57	-41.5	-42.1	19.7	0.00e+00	0	55	0	1250951168	45	3945
2026-01-04 00:42:25.39	51.95	20.64	-41.5	-42.2	19.7	0.00e+00	0	55	0	1256194048	45	3969
2026-01-04 00:42:26.38	52.16	20.71	-41.4	-42.0	19.9	0.00e+00	0	55	0	1261436928	45	3890
2026-01-04 00:42:27.36	52.37	20.79	-41.4	-42.0	19.9	0.00e+00	0	55	0	1267728384	45	3899
2026-01-04 00:42:28.34	52.58	20.86	-41.5	-42.2	19.7	0.00e+00	0	55	0	1272971264	45	3970
2026-01-04 00:42:29.33	52.80	20.93	-41.6	-42.3	19.6	0.00e+00	0	55	0	1278214144	45	4040
2026-01-04 00:42:30.31	53.01	21.00	-41.5	-42.2	19.7	0.00e+00	0	55	0	1284505600	45	3990
2026-01-04 00:42:31.30	53.22	21.08	-41.7	-42.3	19.6	0.00e+00	0	55	0	1289748480	45	4045
2026-01-04 00:42:32.29	53.44	21.15	-41.5	-42.1	19.7	0.00e+00	0	55	0	1294991360	45	3955
2026-01-04 00:42:33.28	53.66	21.22	-41.4	-42.1	19.8	0.00e+00	0	55	0	1301282816	45	3924
2026-01-04 00:42:34.28	53.88	21.29	-41.5	-42.1	19.8	0.00e+00	0	55	0	1306525696	45	3950
2026-01-04 00:42:35.27	54.10	21.36	-41.5	-42.2	19.7	0.00e+00	0	55	0	1311768576	45	3963
2026-01-04 00:42:36.25	54.31	21.44	-41.6	-42.2	19.7	0.00e+00	0	55	0	1317011456	45	3991
2026-01-04 00:42:37.23	54.53	21.51	-41.7	-42.4	19.5	0.00e+00	0	55	0	1323302912	45	4060
2026-01-04 00:42:38.22	54.76	21.58	-41.7	-42.4	19.5	0.00e+00	0	55	0	1328545792	45	4078
2026-01-04 00:42:39.20	54.98	21.65	-41.3	-42.0	19.9	0.00e+00	0	55	0	1333788672	45	3872
2026-01-04 00:42:40.20	55.20	21.72	-41.0	-41.6	20.2	0.00e+00	0	55	0	1340080128	45	3730
2026-01-04 00:42:41.18	55.43	21.79	-40.9	-41.5	20.3	0.00e+00	0	55	0	1345323008	45	3690
2026-01-04 00:42:42.18	55.65	21.86	-41.0	-41.7	20.2	0.00e+00	0	55	0	1350565888	45	3746
2026-01-04 00:42:43.16	55.88	21.93	-41.3	-41.9	19.9	0.00e+00	0	55	0	1356857344	45	3844
2026-01-04 00:42:44.15	56.11	22.00	-41.3	-41.9	19.9	0.00e+00	0	55	0	1362100224	45	3844
2026-01-04 00:42:45.14	56.34	22.07	-41.3	-42.0	19.9	0.00e+00	0	55	0	1367343104	45	3886
2026-01-04 00:42:46.12	56.56	22.14	-41.4	-42.0	19.8	0.00e+00	0	55	0	1372585984	45	3912
2026-01-04 00:42:47.11	56.80	22.20	-41.5	-42.1	19.8	0.00e+00	0	55	0	1378877440	45	3958
2026-01-04 00:42:48.11	57.03	22.27	-41.6	-42.3	19.6	0.00e+00	0	55	0	1384120320	45	4029
2026-01-04 00:42:49.10	57.26	22.34	-41.2	-41.8	20.1	0.00e+00	0	55	0	1389363200	45	3804
2026-01-04 00:42:50.09	57.50	22.41	-41.3	-41.9	20.0	0.00e+00	0	55	0	1395654656	45	3843
2026-01-04 00:42:51.08	57.73	22.48	-41.5	-42.2	19.7	0.00e+00	0	55	0	1400897536	45	3964
2026-01-04 00:42:52.06	57.97	22.54	-41.5	-42.2	19.7	0.00e+00	0	55	0	1406140416	45	3973
2026-01-04 00:42:53.04	58.20	22.61	-41.8	-42.5	19.4	0.00e+00	0	55	0	1412431872	45	4145
2026-01-04 00:42:54.03	58.44	22.68	-41.7	-42.4	19.5	0.00e+00	0	55	0	1417674752	45	4083
2026-01-04 00:42:55.03	58.68	22.74	-41.9	-42.6	19.3	0.00e+00	0	55	0	1422917632	45	4176
2026-01-04 00:42:56.01	58.92	22.81	-41.6	-42.2	19.7	0.00e+00	0	55	0	1428160512	45	3999
2026-01-04 00:42:57.00	59.16	22.87	-41.2	-41.8	20.1	0.00e+00	0	55	0	1434451968	45	3798
2026-01-04 00:42:57.99	59.40	22.94	-41.0	-41.6	20.3	0.00e+00	0	55	0	1439694848	45	3706
2026-01-04 00:42:58.98	59.65	23.00	-40.9	-41.5	20.4	0.00e+00	0	55	0	1445986304	44	3889
2026-01-04 00:42:59.96	59.89	23.07	-40.9	-41.5	20.3	0.00e+00	0	55	0	1451229184	44	3900
2026-01-04 00:43:00.95	60.13	23.13	-41.1	-41.7	20.2	0.00e+00	0	55	0	1456472064	44	3988
2026-01-04 00:43:01.94	60.38	23.20	-41.0	-41.6	20.2	0.00e+00	0	55	0	1461714944	44	3954
2026-01-04 00:43:02.94	60.63	23.26	-40.8	-41.4	20.5	0.00e+00	0	55	0	1468006400	44	3850
2026-01-04 00:43:03.93	60.88	23.32	-40.9	-41.5	20.4	0.00e+00	0	55	0	1473249280	44	3902
2026-01-04 00:43:04.92	61.13	23.39	-41.2	-41.8	20.1	0.00e+00	0	55	0	1478492160	44	4028
2026-01-04 00:43:05.91	61.38	23.45	-41.0	-41.6	20.3	0.00e+00	0	55	0	1484783616	44	3947
2026-01-04 00:43:06.90	61.63	23.51	-40.8	-41.4	20.5	0.00e+00	0	55	0	1490026496	44	3845
2026-01-04 00:43:07.88	61.88	23.57	-40.6	-41.2	20.7	0.00e+00	0	55	0	1495269376	44	3748
2026-01-04 00:43:08.87	62.13	23.63	-40.5	-41.1	20.8	0.00e+00	0	55	0	1500512256	44	3695
2026-01-04 00:43:09.85	62.38	23.69	-40.4	-41.0	20.9	0.00e+00	0	55	0	1506803712	44	3664
2026-01-04 00:43:10.85	62.64	23.75	-40.2	-40.8	21.0	0.00e+00	0	55	0	1512046592	43	3782
2026-01-04 00:43:11.84	62.89	23.81	-40.1	-40.7	21.1	0.00e+00	0	55	0	1517289472	43	3739
2026-01-04 00:43:12.83	63.15	23.87	-40.3	-40.8	20.9	0.00e+00	0	55	0	1523580928	43	3819
2026-01-04 00:43:13.82	63.41	23.93	-40.5	-41.1	20.6	0.00e+00	0	55	0	1528823808	43	3941
2026-01-04 00:43:14.81	63.67	23.99	-40.5	-41.1	20.7	0.00e+00	0	55	0	1534066688	43	3915
2026-01-04 00:43:15.80	63.93	24.05	-40.5	-41.1	20.6	0.00e+00	0	55	0	1540358144	43	3944
2026-01-04 00:43:16.78	64.18	24.10	-40.4	-41.0	20.8	0.00e+00	0	55	0	1545601024	43	3889
2026-01-04 00:43:17.78	64.45	24.16	-40.4	-41.0	20.8	0.00e+00	0	55	0	1550843904	43	3881
2026-01-04 00:43:18.77	64.71	24.22	-40.5	-41.2	20.6	0.00e+00	0	55	0	1556086784	43	3963
2026-01-04 00:43:19.76	64.97	24.27	-40.4	-41.0	20.8	0.00e+00	0	55	0	1562378240	43	3883
2026-01-04 00:43:20.75	65.24	24.33	-40.2	-40.8	20.9	0.00e+00	0	55	0	1567621120	43	3814
2026-01-04 00:43:21.74	65.50	24.38	-40.1	-40.7	21.1	0.00e+00	0	55	0	1573912576	43	3746
2026-01-04 00:43:22.72	65.77	24.44	-40.0	-40.6	21.2	0.00e+00	0	55	0	1579155456	43	3707
2026-01-04 00:43:23.72	66.04	24.49	-40.1	-40.6	21.1	0.00e+00	0	55	0	1584398336	43	3730
2026-01-04 00:43:24.71	66.31	24.55	-40.2	-40.8	21.0	0.00e+00	0	55	0	1589641216	43	3807
2026-01-04 00:43:25.70	66.57	24.60	-40.4	-41.0	20.8	0.00e+00	0	55	0	1595932672	43	3896
2026-01-04 00:43:26.69	66.84	24.65	-40.4	-40.9	20.8	0.00e+00	0	55	0	1601175552	43	3866
2026-01-04 00:43:27.68	67.11	24.70	-40.3	-40.9	20.9	0.00e+00	0	56	0	1606418432	43	3831
2026-01-04 00:43:28.66	67.38	24.75	-40.3	-40.9	20.9	0.00e+00	0	55	0	1612709888	43	3829
2026-01-04 00:43:29.65	67.66	24.80	-40.3	-40.9	20.9	0.00e+00	0	55	0	1617952768	43	3846
2026-01-04 00:43:30.63	67.93	24.85	-40.3	-40.9	20.9	0.00e+00	0	56	0	1623195648	43	3837
2026-01-04 00:43:31.62	68.20	24.90	-40.5	-41.0	20.7	0.00e+00	0	56	0	1628438528	43	3913
2026-01-04 00:43:32.61	68.48	24.95	-40.5	-41.1	20.7	0.00e+00	0	55	0	1634729984	43	3942
2026-01-04 00:43:33.60	68.75	25.00	-40.3	-40.8	20.9	0.00e+00	0	55	0	1639972864	43	3814
2026-01-04 00:43:34.59	69.03	25.05	-40.1	-40.7	21.1	0.00e+00	0	55	0	1646264320	43	3755
2026-01-04 00:43:35.59	69.31	25.10	-40.0	-40.6	21.1	0.00e+00	0	55	0	1651507200	43	3714
2026-01-04 00:43:36.58	69.59	25.14	-40.0	-40.6	21.2	0.00e+00	0	56	0	1656750080	43	3709
2026-01-04 00:43:37.57	69.87	25.19	-40.0	-40.5	21.2	0.00e+00	0	55	0	1661992960	43	3689
2026-01-04 00:43:38.56	70.14	25.23	-40.0	-40.5	21.2	0.00e+00	0	55	0	1668284416	43	3685
2026-01-04 00:43:39.55	70.43	25.28	-40.1	-40.6	21.1	0.00e+00	0	56	0	1673527296	43	3727
2026-01-04 00:43:40.54	70.71	25.32	-40.1	-40.7	21.1	0.00e+00	0	55	0	1678770176	43	3760
2026-01-04 00:43:41.53	70.99	25.37	-40.0	-40.5	21.2	0.00e+00	0	56	0	1685061632	43	3686
2026-01-04 00:43:42.52	71.27	25.41	-39.9	-40.4	21.3	0.00e+00	0	56	0	1690304512	43	3649
2026-01-04 00:43:43.51	71.56	25.45	-39.9	-40.5	21.3	0.00e+00	0	56	0	1695547392	43	3665
2026-01-04 00:43:44.50	71.84	25.49	-40.0	-40.6	21.2	0.00e+00	0	55	0	1701838848	43	3719
2026-01-04 00:43:45.49	72.13	25.53	-40.1	-40.7	21.1	0.00e+00	0	55	0	1707081728	43	3752
2026-01-04 00:43:46.48	72.41	25.57	-40.2	-40.8	21.0	0.00e+00	0	55	0	1712324608	43	3807
2026-01-04 00:43:47.47	72.70	25.61	-40.3	-40.9	20.9	0.00e+00	0	56	0	1717567488	43	3854
2026-01-04 00:43:48.46	72.98	25.65	-40.2	-40.8	21.0	0.00e+00	0	56	0	1723858944	43	3787
2026-01-04 00:43:49.44	73.27	25.69	-40.1	-40.6	21.1	0.00e+00	0	56	0	1729101824	43	3725
2026-01-04 00:43:50.43	73.56	25.73	-40.1	-40.7	21.1	0.00e+00	0	56	0	1735393280	43	3756
2026-01-04 00:43:51.41	73.84	25.76	-40.1	-40.7	21.1	0.00e+00	0	56	0	1740636160	43	3749
2026-01-04 00:43:52.40	74.13	25.80	-40.1	-40.7	21.0	0.00e+00	0	56	0	1745879040	43	3771
2026-01-04 00:43:53.39	74.43	25.83	-40.3	-40.9	20.8	0.00e+00	0	56	0	1751121920	43	3859
2026-01-04 00:43:54.38	74.72	25.87	-40.3	-40.9	20.8	0.00e+00	0	56	0	1757413376	43	3855
2026-01-04 00:43:55.38	75.01	25.90	-40.0	-40.5	21.2	0.00e+00	0	56	0	1762656256	43	3690
2026-01-04 00:43:56.36	75.30	25.93	-39.8	-40.4	21.4	0.00e+00	0	56	0	1767899136	42	3828
2026-01-04 00:43:57.35	75.59	25.97	-39.8	-40.4	21.4	0.00e+00	0	56	0	1774190592	42	3827
2026-01-04 00:43:58.34	75.89	26.00	-39.9	-40.5	21.3	0.00e+00	0	56	0	1779433472	42	3870
2026-01-04 00:43:59.33	76.18	26.03	-40.0	-40.6	21.1	0.00e+00	0	56	0	1784676352	42	3938
2026-01-04 00:44:00.31	76.47	26.06	-40.0	-40.5	21.3	0.00e+00	0	56	0	1789919232	42	3895
2026-01-04 00:44:01.30	76.77	26.09	-40.1	-40.7	21.1	0.00e+00	0	56	0	1796210688	42	3970
2026-01-04 00:44:02.29	77.06	26.12	-40.2	-40.8	21.0	0.00e+00	0	56	0	1801453568	42	4022
2026-01-04 00:44:03.28	77.36	26.14	-40.0	-40.5	21.2	0.00e+00	0	56	0	1806696448	42	3910
2026-01-04 00:44:04.26	77.65	26.17	-39.9	-40.4	21.3	0.00e+00	0	56	0	1812987904	42	3853
2026-01-04 00:44:05.25	77.95	26.20	-39.8	-40.4	21.3	0.00e+00	0	55	0	1818230784	42	3841
2026-01-04 00:44:06.23	78.25	26.22	-40.1	-40.6	21.1	0.00e+00	0	56	0	1823473664	42	3950
2026-01-04 00:44:07.23	78.55	26.25	-40.1	-40.6	21.1	0.00e+00	0	56	0	1828716544	42	3952
2026-01-04 00:44:08.22	78.85	26.27	-40.0	-40.6	21.2	0.00e+00	0	56	0	1835008000	42	3932
2026-01-04 00:44:09.21	79.15	26.29	-40.1	-40.6	21.1	0.00e+00	0	56	0	1840250880	42	3947
2026-01-04 00:44:10.19	79.44	26.32	-40.2	-40.7	21.0	0.00e+00	0	56	0	1845493760	42	3998
2026-01-04 00:44:11.18	79.74	26.34	-40.0	-40.5	21.2	0.00e+00	0	56	0	1851785216	42	3902
2026-01-04 00:44:12.17	80.04	26.36	-39.9	-40.5	21.3	0.00e+00	0	56	0	1857028096	42	3887
2026-01-04 00:44:13.17	80.35	26.38	-40.1	-40.7	21.1	0.00e+00	0	56	0	1862270976	42	3970
2026-01-04 00:44:14.16	80.65	26.40	-40.4	-41.0	20.8	0.00e+00	0	56	0	1868562432	42	4111
2026-01-04 00:44:15.15	80.95	26.41	-40.3	-40.9	20.9	0.00e+00	0	56	0	1873805312	42	4054
2026-01-04 00:44:16.14	81.25	26.43	-40.5	-41.1	20.7	0.00e+00	0	56	0	1879048192	42	4150
2026-01-04 00:44:17.13	81.55	26.45	-40.6	-41.2	20.5	0.00e+00	0	56	0	1885339648	43	3997
2026-01-04 00:44:18.12	81.86	26.46	-40.4	-41.0	20.8	0.00e+00	0	56	0	1890582528	43	3872
2026-01-04 00:44:19.11	82.16	26.48	-40.2	-40.8	21.0	0.00e+00	0	56	0	1895825408	43	3781
2026-01-04 00:44:20.10	82.46	26.49	-40.0	-40.5	21.2	0.00e+00	0	56	0	1902116864	43	3682
2026-01-04 00:44:21.08	82.76	26.51	-39.9	-40.4	21.3	0.00e+00	0	56	0	1907359744	42	3857
2026-01-04 00:44:22.08	83.07	26.52	-39.9	-40.5	21.3	0.00e+00	0	56	0	1912602624	42	3877
2026-01-04 00:44:23.07	83.37	26.53	-39.9	-40.4	21.3	0.00e+00	0	56	0	1917845504	42	3862
2026-01-04 00:44:24.06	83.68	26.54	-40.0	-40.6	21.1	0.00e+00	0	56	0	1924136960	42	3950
2026-01-04 00:44:25.04	83.98	26.55	-39.8	-40.4	21.3	0.00e+00	0	56	0	1929379840	42	3845
2026-01-04 00:44:26.03	84.28	26.56	-39.5	-40.2	21.5	0.00e+00	0	56	0	1935671296	42	3755
2026-01-04 00:44:27.02	84.59	26.57	-39.5	-40.1	21.6	0.00e+00	0	56	0	1940914176	42	3735
2026-01-04 00:44:28.01	84.89	26.58	-39.8	-40.4	21.4	0.00e+00	0	56	0	1946157056	42	3830
2026-01-04 00:44:28.99	85.19	26.58	-39.7	-40.2	21.5	0.00e+00	0	56	0	1951399936	42	3778
2026-01-04 00:44:29.98	85.50	26.59	-39.9	-40.4	21.3	0.00e+00	0	56	0	1957691392	42	3862
2026-01-04 00:44:30.97	85.80	26.59	-39.9	-40.5	21.3	0.00e+00	0	56	0	1962934272	42	3872
2026-01-04 00:44:31.96	86.11	26.60	-40.0	-40.6	21.2	0.00e+00	0	56	0	1968177152	42	3936
2026-01-04 00:44:32.95	86.41	26.60	-39.9	-40.4	21.3	0.00e+00	0	56	0	1974468608	42	3867
2026-01-04 00:44:33.94	86.72	26.60	-39.9	-40.5	21.2	0.00e+00	0	56	0	1979711488	42	3893
2026-01-04 00:44:34.92	87.02	26.60	-40.2	-40.7	21.0	0.00e+00	0	56	0	1984954368	42	4004
2026-01-04 00:44:35.89	87.32	26.60	-40.4	-41.0	20.8	0.00e+00	0	56	0	1990197248	42	4141
2026-01-04 00:44:36.88	87.63	26.60	-40.2	-40.8	21.0	0.00e+00	0	56	0	1995440128	42	4027
2026-01-04 00:44:37.86	87.93	26.60	-40.0	-40.6	21.2	0.00e+00	0	56	0	2001731584	42	3931
2026-01-04 00:44:38.85	88.23	26.60	-39.9	-40.5	21.2	0.00e+00	0	56	0	2006974464	42	3894
2026-01-04 00:44:39.85	88.54	26.60	-40.0	-40.6	21.2	0.00e+00	0	56	0	2013265920	42	3936
2026-01-04 00:44:40.83	88.84	26.59	-40.1	-40.7	21.1	0.00e+00	0	56	0	2018508800	42	3979
2026-01-04 00:44:41.82	89.15	26.59	-40.0	-40.6	21.1	0.00e+00	0	56	0	2023751680	42	3942
2026-01-04 00:44:42.81	89.45	26.58	-40.2	-40.7	21.0	0.00e+00	0	56	0	2028994560	42	3993
2026-01-04 00:44:43.80	89.76	26.58	-40.0	-40.5	21.2	0.00e+00	0	56	0	2035286016	42	3911
2026-01-04 00:44:44.79	90.06	26.57	-39.7	-40.3	21.4	0.00e+00	0	56	0	2040528896	42	3790
2026-01-04 00:44:45.78	90.37	26.56	-39.6	-40.1	21.6	0.00e+00	0	56	0	2045771776	42	3722
2026-01-04 00:44:46.77	90.67	26.55	-39.6	-40.1	21.6	0.00e+00	0	56	0	2052063232	42	3726
2026-01-04 00:44:47.76	90.98	26.54	-39.6	-40.2	21.6	0.00e+00	0	56	0	2057306112	42	3738
2026-01-04 00:44:48.75	91.28	26.53	-39.7	-40.2	21.5	0.00e+00	0	56	0	2062548992	42	3775
2026-01-04 00:44:49.72	91.58	26.52	-39.9	-40.5	21.3	0.00e+00	0	56	0	2067791872	42	3872
2026-01-04 00:44:50.71	91.88	26.51	-39.9	-40.5	21.3	0.00e+00	0	56	0	2074083328	42	3888
2026-01-04 00:44:51.71	92.19	26.50	-40.0	-40.5	21.2	0.00e+00	0	56	0	2079326208	42	3908
2026-01-04 00:44:52.69	92.49	26.48	-40.1	-40.7	21.0	0.00e+00	0	56	0	2084569088	42	3975
2026-01-04 00:44:53.67	92.79	26.47	-40.1	-40.6	21.1	0.00e+00	0	56	0	2090860544	42	3949
2026-01-04 00:44:54.66	93.09	26.45	-39.9	-40.5	21.2	0.00e+00	0	56	0	2096103424	42	3890
2026-01-04 00:44:55.65	93.40	26.44	-40.0	-40.6	21.1	0.00e+00	0	56	0	2101346304	42	3930
2026-01-04 00:44:56.64	93.70	26.42	-40.1	-40.6	21.1	0.00e+00	0	56	0	2107637760	42	3947
2026-01-04 00:44:57.63	94.00	26.40	-40.0	-40.6	21.1	0.00e+00	0	56	0	2112880640	42	3927
2026-01-04 00:44:58.61	94.30	26.38	-40.1	-40.7	21.1	0.00e+00	0	56	0	2118123520	42	3961
2026-01-04 00:44:59.61	94.60	26.36	-39.9	-40.5	21.2	0.00e+00	0	56	0	2123366400	42	3899
2026-01-04 00:45:00.60	94.90	26.34	-39.7	-40.3	21.5	0.00e+00	0	56	0	2129657856	42	3783
2026-01-04 00:45:01.59	95.20	26.32	-39.6	-40.2	21.6	0.00e+00	0	56	0	2134900736	42	3747
2026-01-04 00:45:02.58	95.50	26.30	-39.7	-40.2	21.5	0.00e+00	0	56	0	2141192192	42	3770
2026-01-04 00:45:03.57	95.80	26.28	-39.9	-40.4	21.3	0.00e+00	0	56	0	2146435072	42	3859
2026-01-04 00:45:04.56	96.10	26.25	-39.9	-40.5	21.2	0.00e+00	0	56	0	2151677952	42	3894
2026-01-04 00:45:05.56	96.40	26.23	-40.0	-40.6	21.2	0.00e+00	0	56	0	2156920832	42	3934
2026-01-04 00:45:06.55	96.70	26.20	-40.3	-40.9	20.9	0.00e+00	0	56	0	2163212288	42	4065
2026-01-04 00:45:07.54	97.00	26.18	-40.3	-40.9	20.9	0.00e+00	0	56	0	2168455168	42	4063
2026-01-04 00:45:08.53	97.30	26.15	-40.0	-40.6	21.1	0.00e+00	0	56	0	2173698048	42	3950
2026-01-04 00:45:09.51	97.59	26.12	-39.9	-40.5	21.2	0.00e+00	0	56	0	2179989504	42	3896
2026-01-04 00:45:10.51	97.89	26.10	-40.0	-40.6	21.2	0.00e+00	0	56	0	2185232384	42	3925
2026-01-04 00:45:11.49	98.18	26.07	-40.1	-40.7	21.0	0.00e+00	0	56	0	2190475264	42	3976
2026-01-04 00:45:12.47	98.48	26.04	-40.1	-40.7	21.0	0.00e+00	0	56	0	2195718144	42	3995
2026-01-04 00:45:13.46	98.77	26.01	-40.1	-40.7	21.1	0.00e+00	0	56	0	2202009600	42	3986
2026-01-04 00:45:14.46	99.07	25.98	-40.1	-40.7	21.0	0.00e+00	0	56	0	2207252480	42	3990
2026-01-04 00:45:15.44	99.36	25.94	-40.3	-40.9	20.9	0.00e+00	0	56	0	2213543936	42	4059
2026-01-04 00:45:16.43	99.65	25.91	-40.3	-40.9	20.9	0.00e+00	0	56	0	2218786816	42	4079
2026-01-04 00:45:17.42	99.95	25.88	-40.2	-40.7	21.0	0.00e+00	0	56	0	2224029696	42	3991
2026-01-04 00:45:18.42	100.24	25.84	-40.2	-40.8	21.0	0.00e+00	0	56	0	2229272576	42	4021
2026-01-04 00:45:19.41	100.53	25.81	-40.5	-41.1	20.7	0.00e+00	0	56	0	2235564032	42	4161
2026-01-04 00:45:20.40	100.82	25.77	-40.6	-41.2	20.5	0.00e+00	0	56	0	2240806912	43	3993
2026-01-04 00:45:21.39	101.11	25.74	-40.6	-41.3	20.5	0.00e+00	0	56	0	2246049792	43	4005
2026-01-04 00:45:22.38	101.40	25.70	-40.6	-41.2	20.6	0.00e+00	0	56	0	2252341248	43	3972
2026-01-04 00:45:23.38	101.69	25.66	-40.5	-41.1	20.7	0.00e+00	0	56	0	2257584128	43	3940
2026-01-04 00:45:24.37	101.98	25.62	-40.5	-41.1	20.7	0.00e+00	0	56	0	2262827008	43	3933
2026-01-04 00:45:25.35	102.27	25.58	-40.5	-41.1	20.7	0.00e+00	0	56	0	2269118464	43	3927
2026-01-04 00:45:26.34	102.55	25.54	-40.6	-41.1	20.6	0.00e+00	0	56	0	2274361344	43	3956
2026-01-04 00:45:27.34	102.84	25.50	-40.3	-40.9	20.8	0.00e+00	0	56	0	2279604224	43	3853
2026-01-04 00:45:28.32	103.12	25.46	-40.2	-40.7	21.0	0.00e+00	0	56	0	2284847104	43	3771
2026-01-04 00:45:29.30	103.40	25.42	-40.0	-40.6	21.2	0.00e+00	0	56	0	2291138560	43	3702
2026-01-04 00:45:30.29	103.69	25.38	-39.9	-40.5	21.3	0.00e+00	0	56	0	2296381440	43	3659
2026-01-04 00:45:31.28	103.97	25.33	-39.8	-40.4	21.3	0.00e+00	0	56	0	2302672896	42	3843
2026-01-04 00:45:32.27	104.25	25.29	-39.8	-40.4	21.4	0.00e+00	0	56	0	2307915776	42	3836
2026-01-04 00:45:33.26	104.54	25.24	-40.1	-40.6	21.1	0.00e+00	0	56	0	2313158656	42	3939
2026-01-04 00:45:34.25	104.82	25.20	-40.3	-40.9	20.8	0.00e+00	0	56	0	2318401536	42	4074
2026-01-04 00:45:35.24	105.10	25.15	-40.2	-40.8	21.0	0.00e+00	0	56	0	2324692992	42	4022
2026-01-04 00:45:36.23	105.38	25.11	-40.2	-40.8	20.9	0.00e+00	0	56	0	2329935872	42	4034
2026-01-04 00:45:37.23	105.66	25.06	-40.3	-40.9	20.9	0.00e+00	0	56	0	2335178752	42	4066
2026-01-04 00:45:38.21	105.93	25.01	-40.4	-41.0	20.8	0.00e+00	0	56	0	2341470208	42	4103
2026-01-04 00:45:39.20	106.21	24.96	-40.2	-40.8	21.0	0.00e+00	0	56	0	2346713088	42	4016
2026-01-04 00:45:40.19	106.48	24.91	-40.1	-40.7	21.0	0.00e+00	0	56	0	2351955968	42	3984
2026-01-04 00:45:41.19	106.76	24.86	-40.2	-40.7	21.0	0.00e+00	0	56	0	2358247424	42	3995
2026-01-04 00:45:42.18	107.04	24.81	-40.4	-40.9	20.8	0.00e+00	0	56	0	2363490304	42	4094
2026-01-04 00:45:43.16	107.31	24.76	-40.6	-41.2	20.6	0.00e+00	0	56	0	2368733184	43	3961
2026-01-04 00:45:44.14	107.58	24.71	-40.5	-41.1	20.7	0.00e+00	0	56	0	2373976064	43	3923
2026-01-04 00:45:45.14	107.85	24.66	-40.6	-41.2	20.6	0.00e+00	0	56	0	2380267520	43	3999
2026-01-04 00:45:46.13	108.12	24.61	-40.5	-41.1	20.6	0.00e+00	0	56	0	2385510400	43	3938
2026-01-04 00:45:47.11	108.39	24.56	-40.4	-41.0	20.7	0.00e+00	0	56	0	2390753280	43	3911
2026-01-04 00:45:48.11	108.66	24.50	-40.3	-40.9	20.9	0.00e+00	0	56	0	2397044736	43	3834
2026-01-04 00:45:49.10	108.93	24.45	-40.4	-40.9	20.8	0.00e+00	0	56	0	2402287616	43	3860
2026-01-04 00:45:50.10	109.20	24.39	-40.6	-41.2	20.5	0.00e+00	0	56	0	2407530496	43	3976
2026-01-04 00:45:51.08	109.46	24.34	-40.9	-41.5	20.3	0.00e+00	0	56	0	2413821952	43	4128
2026-01-04 00:45:52.08	109.73	24.28	-40.8	-41.4	20.3	0.00e+00	0	56	0	2419064832	43	4083
2026-01-04 00:45:53.07	109.99	24.23	-41.0	-41.6	20.2	0.00e+00	0	56	0	2424307712	43	4178
2026-01-04 00:45:54.06	110.26	24.17	-40.7	-41.3	20.4	0.00e+00	0	56	0	2430599168	43	4038
2026-01-04 00:45:55.05	110.52	24.11	-40.6	-41.2	20.6	0.00e+00	0	56	0	2435842048	43	3967
2026-01-04 00:45:56.04	110.78	24.05	-40.5	-41.1	20.7	0.00e+00	0	56	0	2441084928	43	3941
2026-01-04 00:45:57.02	111.04	24.00	-40.6	-41.2	20.5	0.00e+00	0	56	0	2446327808	43	3998
2026-01-04 00:45:58.02	111.30	23.94	-40.6	-41.2	20.5	0.00e+00	0	56	0	2452619264	43	3985
2026-01-04 00:45:59.01	111.56	23.88	-40.5	-41.1	20.6	0.00e+00	0	56	0	2457862144	43	3936
2026-01-04 00:46:00.00	111.82	23.82	-40.5	-41.1	20.6	0.00e+00	0	56	0	2463105024	43	3930
2026-01-04 00:46:00.99	112.07	23.76	-40.6	-41.2	20.5	0.00e+00	0	56	0	2469396480	43	4000
2026-01-04 00:46:01.98	112.33	23.70	-40.5	-41.1	20.6	0.00e+00	0	56	0	2474639360	43	3952
2026-01-04 00:46:02.97	112.59	23.64	-40.6	-41.2	20.6	0.00e+00	0	56	0	2479882240	43	3967
2026-01-04 00:46:03.96	112.84	23.58	-40.7	-41.3	20.5	0.00e+00	0	56	0	2486173696	43	4017
2026-01-04 00:46:04.95	113.09	23.52	-40.6	-41.2	20.5	0.00e+00	0	56	0	2491416576	43	3987
2026-01-04 00:46:05.94	113.34	23.45	-40.7	-41.3	20.5	0.00e+00	0	56	0	2496659456	43	4020
2026-01-04 00:46:06.93	113.60	23.39	-40.9	-41.5	20.3	0.00e+00	0	56	0	2502950912	43	4104
2026-01-04 00:46:07.92	113.85	23.33	-40.7	-41.3	20.4	0.00e+00	0	56	0	2508193792	43	4035
2026-01-04 00:46:08.91	114.09	23.26	-40.6	-41.2	20.5	0.00e+00	0	56	0	2513436672	43	3985
2026-01-04 00:46:09.91	114.35	23.20	-40.8	-41.4	20.4	0.00e+00	0	56	0	2519728128	43	4069
2026-01-04 00:46:10.90	114.59	23.14	-40.8	-41.4	20.4	0.00e+00	0	56	0	2524971008	43	4072
2026-01-04 00:46:11.90	114.84	23.07	-40.7	-41.3	20.4	0.00e+00	0	56	0	2530213888	43	4019
2026-01-04 00:46:12.89	115.09	23.01	-40.6	-41.3	20.3	0.00e+00	0	56	0	2536505344	43	4017
2026-01-04 00:46:13.88	115.33	22.94	-40.7	-41.4	20.2	0.00e+00	0	56	0	2541748224	43	4058
2026-01-04 00:46:14.87	115.57	22.88	-40.7	-41.4	20.2	0.00e+00	0	57	0	2546991104	43	4067
2026-01-04 00:46:15.86	115.82	22.81	-40.8	-41.5	20.1	0.00e+00	0	56	0	2553282560	43	4115
2026-01-04 00:46:16.85	116.06	22.74	-40.9	-41.7	19.9	0.00e+00	0	56	0	2558525440	43	4200
2026-01-04 00:46:17.84	116.30	22.68	-41.0	-41.8	19.8	0.00e+00	0	57	0	2563768320	43	4244
2026-01-04 00:46:18.82	116.53	22.61	-41.2	-42.0	19.7	0.00e+00	0	56	0	2569011200	44	4107
2026-01-04 00:46:19.81	116.77	22.54	-41.1	-41.8	19.9	0.00e+00	0	56	0	2575302656	44	4048
2026-01-04 00:46:20.79	117.01	22.48	-41.0	-41.7	20.0	0.00e+00	0	56	0	2580545536	44	3960
2026-01-04 00:46:21.78	117.24	22.41	-40.9	-41.6	20.1	0.00e+00	0	56	0	2585788416	44	3938
2026-01-04 00:46:22.77	117.48	22.34	-40.9	-41.6	20.1	0.00e+00	0	57	0	2592079872	44	3935
2026-01-04 00:46:23.75	117.71	22.27	-41.1	-41.8	19.9	0.00e+00	0	56	0	2597322752	44	4041
2026-01-04 00:46:24.75	117.95	22.20	-41.1	-41.8	19.9	0.00e+00	0	57	0	2602565632	44	4029
2026-01-04 00:46:25.73	118.18	22.13	-40.9	-41.6	20.1	0.00e+00	0	56	0	2608857088	44	3940
2026-01-04 00:46:26.72	118.41	22.06	-40.8	-41.5	20.1	0.00e+00	0	56	0	2614099968	44	3891
2026-01-04 00:46:27.71	118.64	22.00	-40.7	-41.4	20.2	0.00e+00	0	57	0	2619342848	44	3848
2026-01-04 00:46:28.70	118.87	21.93	-40.8	-41.4	20.3	0.00e+00	0	57	0	2624585728	44	3856
2026-01-04 00:46:29.69	119.09	21.86	-40.8	-41.4	20.3	0.00e+00	0	56	0	2630877184	44	3855
2026-01-04 00:46:30.67	119.32	21.79	-40.9	-41.6	20.1	0.00e+00	0	57	0	2636120064	44	3932
2026-01-04 00:46:31.66	119.54	21.71	-40.9	-41.6	20.1	0.00e+00	0	56	0	2641362944	44	3930
2026-01-04 00:46:32.64	119.77	21.64	-41.1	-41.8	19.9	0.00e+00	0	57	0	2647654400	44	4019
2026-01-04 00:46:33.64	119.99	21.57	-41.2	-41.9	19.8	0.00e+00	0	56	0	2652897280	44	4056
2026-01-04 00:46:34.63	120.22	21.50	-41.3	-42.0	19.7	0.00e+00	0	57	0	2658140160	44	4115
2026-01-04 00:46:35.61	120.44	21.43	-41.5	-42.2	19.4	0.00e+00	0	57	0	2663383040	44	4242
2026-01-04 00:46:36.59	120.66	21.36	-41.6	-42.3	19.4	0.00e+00	0	57	0	2669674496	45	4032
2026-01-04 00:46:37.59	120.88	21.29	-41.5	-42.3	19.5	0.00e+00	0	57	0	2674917376	45	4012
2026-01-04 00:46:38.58	121.10	21.21	-41.6	-42.4	19.3	0.00e+00	0	57	0	2681208832	45	4075
2026-01-04 00:46:39.57	121.32	21.14	-41.7	-42.4	19.3	0.00e+00	0	57	0	2686451712	45	4079
2026-01-04 00:46:40.56	121.53	21.07	-41.7	-42.4	19.3	0.00e+00	0	56	0	2691694592	45	4080
2026-01-04 00:46:41.55	121.75	21.00	-41.7	-42.5	19.2	0.00e+00	0	57	0	2696937472	45	4119
2026-01-04 00:46:42.55	121.97	20.92	-41.7	-42.4	19.3	0.00e+00	0	57	0	2703228928	45	4077
2026-01-04 00:46:43.54	122.18	20.85	-41.5	-42.3	19.5	0.00e+00	0	56	0	2708471808	45	4012
2026-01-04 00:46:44.53	122.39	20.78	-41.4	-42.2	19.5	0.00e+00	0	57	0	2713714688	45	3978
2026-01-04 00:46:45.52	122.61	20.70	-41.5	-42.2	19.5	0.00e+00	0	57	0	2720006144	45	4004
2026-01-04 00:46:46.52	122.82	20.63	-41.7	-42.5	19.2	0.00e+00	0	57	0	2725249024	45	4122
2026-01-04 00:46:47.51	123.03	20.55	-41.8	-42.6	19.1	0.00e+00	0	57	0	2730491904	45	4166
2026-01-04 00:46:48.49	123.24	20.48	-41.7	-42.4	19.3	0.00e+00	0	57	0	2736783360	45	4095
2026-01-04 00:46:49.48	123.44	20.41	-41.5	-42.2	19.5	0.00e+00	0	57	0	2742026240	45	4001
2026-01-04 00:46:50.46	123.65	20.33	-41.5	-42.2	19.5	0.00e+00	0	57	0	2747269120	45	3985
2026-01-04 00:46:51.45	123.86	20.26	-41.3	-42.1	19.6	0.00e+00	0	57	0	2752512000	45	3923
2026-01-04 00:46:52.45	124.06	20.18	-41.2	-41.9	19.8	0.00e+00	0	57	0	2758803456	45	3852
2026-01-04 00:46:53.44	124.27	20.11	-41.2	-41.8	19.8	0.00e+00	0	57	0	2764046336	45	3821
2026-01-04 00:46:54.43	124.47	20.03	-41.1	-41.8	19.8	0.00e+00	0	57	0	2770337792	45	3812
2026-01-04 00:46:55.42	124.67	19.96	-41.2	-41.8	19.8	0.00e+00	0	57	0	2775580672	45	3820
2026-01-04 00:46:56.41	124.88	19.88	-41.2	-41.9	19.8	0.00e+00	0	57	0	2780823552	45	3860
2026-01-04 00:46:57.39	125.07	19.81	-41.3	-42.0	19.7	0.00e+00	0	57	0	2786066432	45	3892
2026-01-04 00:46:58.38	125.27	19.73	-41.4	-42.2	19.5	0.00e+00	0	57	0	2792357888	45	3969
2026-01-04 00:46:59.37	125.47	19.66	-41.5	-42.2	19.5	0.00e+00	0	57	0	2797600768	45	3999
2026-01-04 00:47:00.36	125.67	19.58	-41.6	-42.4	19.3	0.00e+00	0	57	0	2802843648	45	4059
2026-01-04 00:47:01.35	125.87	19.50	-41.6	-42.3	19.4	0.00e+00	0	56	0	2809135104	45	4046
2026-01-04 00:47:02.35	126.06	19.43	-41.6	-42.4	19.3	0.00e+00	0	57	0	2814377984	45	4063
2026-01-04 00:47:03.34	126.26	19.35	-41.5	-42.3	19.4	0.00e+00	0	57	0	2819620864	45	4011
2026-01-04 00:47:04.33	126.45	19.28	-41.5	-42.2	19.4	0.00e+00	0	57	0	2825912320	45	3988
2026-01-04 00:47:05.32	126.65	19.20	-41.5	-42.2	19.4	0.00e+00	0	57	0	2831155200	45	3996
2026-01-04 00:47:06.31	126.84	19.12	-41.7	-42.4	19.3	0.00e+00	0	57	0	2836398080	45	4074
2026-01-04 00:47:07.30	127.03	19.05	-41.6	-42.4	19.3	0.00e+00	0	57	0	2842689536	45	4064
2026-01-04 00:47:08.29	127.22	18.97	-41.7	-42.5	19.2	0.00e+00	0	57	0	2847932416	45	4121
2026-01-04 00:47:09.29	127.41	18.89	-41.8	-42.6	19.1	0.00e+00	0	57	0	2853175296	45	4173
2026-01-04 00:47:10.27	127.60	18.82	-41.9	-42.7	19.0	0.00e+00	0	57	0	2858418176	45	4212
2026-01-04 00:47:11.25	127.78	18.74	-42.0	-42.8	18.9	0.00e+00	0	57	0	2864709632	45	4284
2026-01-04 00:47:12.25	127.97	18.66	-41.9	-42.6	19.1	0.00e+00	0	57	0	2869952512	45	4189
2026-01-04 00:47:13.23	128.15	18.59	-42.0	-42.7	19.0	0.00e+00	0	57	0	2875195392	45	4222
2026-01-04 00:47:14.21	128.34	18.51	-41.9	-42.7	19.0	0.00e+00	0	57	0	2881486848	45	4220
2026-01-04 00:47:15.20	128.52	18.44	-42.1	-42.9	18.8	0.00e+00	0	57	0	2886729728	45	4299
2026-01-04 00:47:16.19	128.70	18.36	-42.3	-43.1	18.7	0.00e+00	0	57	0	2891972608	46	4153
2026-01-04 00:47:17.18	128.89	18.28	-42.2	-43.0	18.7	0.00e+00	0	57	0	2898264064	46	4126
2026-01-04 00:47:18.17	129.07	18.21	-42.2	-43.0	18.7	0.00e+00	0	57	0	2903506944	46	4144
2026-01-04 00:47:19.16	129.25	18.13	-42.3	-43.1	18.6	0.00e+00	0	57	0	2908749824	46	4192
2026-01-04 00:47:20.15	129.43	18.05	-42.4	-43.3	18.4	0.00e+00	0	57	0	2913992704	46	4256
2026-01-04 00:47:21.14	129.60	17.97	-42.2	-43.0	18.7	0.00e+00	0	57	0	2920284160	46	4135
2026-01-04 00:47:22.13	129.78	17.90	-42.1	-42.9	18.8	0.00e+00	0	57	0	2925527040	46	4063
2026-01-04 00:47:23.12	129.96	17.82	-42.0	-42.8	18.9	0.00e+00	0	57	0	2930769920	46	4044
2026-01-04 00:47:24.11	130.13	17.74	-42.1	-42.9	18.9	0.00e+00	0	57	0	2937061376	46	4064
2026-01-04 00:47:25.10	130.31	17.67	-42.0	-42.9	18.8	0.00e+00	0	57	0	2942304256	46	4053
2026-01-04 00:47:26.09	130.48	17.59	-42.1	-43.0	18.7	0.00e+00	0	57	0	2947547136	46	4099
2026-01-04 00:47:27.08	130.66	17.51	-42.2	-43.0	18.7	0.00e+00	0	57	0	2953838592	46	4114
2026-01-04 00:47:28.06	130.83	17.44	-42.2	-43.0	18.7	0.00e+00	0	57	0	2959081472	46	4116
2026-01-04 00:47:29.06	131.00	17.36	-42.3	-43.1	18.6	0.00e+00	0	57	0	2964324352	46	4167
2026-01-04 00:47:30.05	131.17	17.28	-42.5	-43.4	18.4	0.00e+00	0	57	0	2970615808	46	4308
2026-01-04 00:47:31.05	131.34	17.20	-42.2	-43.0	18.6	0.00e+00	0	57	0	2975858688	46	4137
2026-01-04 00:47:32.04	131.51	17.13	-42.1	-42.9	18.8	0.00e+00	0	57	0	2981101568	46	4062
2026-01-04 00:47:33.03	131.68	17.05	-42.1	-42.9	18.8	0.00e+00	0	57	0	2987393024	46	4079
2026-01-04 00:47:34.02	131.85	16.97	-42.2	-43.0	18.7	0.00e+00	0	57	0	2992635904	46	4120
2026-01-04 00:47:35.02	132.02	16.89	-42.3	-43.2	18.5	0.00e+00	0	57	0	2997878784	46	4199
2026-01-04 00:47:36.01	132.18	16.82	-42.6	-43.5	18.2	0.00e+00	0	57	0	3003121664	47	4128
2026-01-04 00:47:37.00	132.35	16.74	-42.5	-43.4	18.3	0.00e+00	0	57	0	3009413120	47	4065
2026-01-04 00:47:37.99	132.51	16.66	-42.7	-43.6	18.1	0.00e+00	0	57	0	3014656000	47	4161
2026-01-04 00:47:38.98	132.67	16.59	-42.5	-43.3	18.4	0.00e+00	0	57	0	3020947456	47	4032
2026-01-04 00:47:39.97	132.84	16.51	-42.3	-43.1	18.6	0.00e+00	0	57	0	3026190336	47	3918
2026-01-04 00:47:40.95	133.00	16.43	-42.1	-42.9	18.8	0.00e+00	0	57	0	3031433216	47	3838
2026-01-04 00:47:41.94	133.16	16.36	-42.1	-42.9	18.8	0.00e+00	0	57	0	3036676096	47	3858
2026-01-04 00:47:42.93	133.32	16.28	-42.1	-42.9	18.8	0.00e+00	0	57	0	3042967552	47	3841
2026-01-04 00:47:43.93	133.48	16.20	-42.3	-43.1	18.6	0.00e+00	0	57	0	3048210432	47	3914
2026-01-04 00:47:44.91	133.63	16.13	-42.5	-43.3	18.4	0.00e+00	0	57	0	3053453312	47	4040
2026-01-04 00:47:45.90	133.79	16.05	-42.3	-43.1	18.6	0.00e+00	0	57	0	3059744768	47	3952
2026-01-04 00:47:46.89	133.95	15.97	-42.2	-43.0	18.6	0.00e+00	0	57	0	3064987648	47	3910
2026-01-04 00:47:47.88	134.11	15.90	-42.3	-43.1	18.6	0.00e+00	0	57	0	3070230528	47	3932
2026-01-04 00:47:48.87	134.26	15.82	-42.3	-43.2	18.5	0.00e+00	0	57	0	3075473408	47	3963
2026-01-04 00:47:49.86	134.42	15.74	-42.3	-43.2	18.6	0.00e+00	0	57	0	3081764864	47	3959
2026-01-04 00:47:50.84	134.57	15.67	-42.4	-43.3	18.5	0.00e+00	0	57	0	3087007744	47	4007
2026-01-04 00:47:51.84	134.72	15.59	-42.4	-43.2	18.5	0.00e+00	0	57	0	3092250624	47	3990
2026-01-04 00:47:52.83	134.87	15.51	-42.4	-43.2	18.5	0.00e+00	0	57	0	3098542080	47	3980
2026-01-04 00:47:53.82	135.03	15.44	-42.4	-43.3	18.5	0.00e+00	0	57	0	3103784960	47	4005
2026-01-04 00:47:54.81	135.18	15.36	-42.5	-43.3	18.4	0.00e+00	0	57	0	3109027840	47	4043
2026-01-04 00:47:55.80	135.33	15.28	-42.7	-43.6	18.1	0.00e+00	0	57	0	3115319296	47	4169
2026-01-04 00:47:56.79	135.48	15.21	-42.8	-43.7	18.1	0.00e+00	0	57	0	3120562176	47	4196
2026-01-04 00:47:57.78	135.62	15.13	-42.8	-43.7	18.0	0.00e+00	0	57	0	3125805056	47	4229
2026-01-04 00:47:58.77	135.77	15.06	-42.9	-43.7	18.0	0.00e+00	0	57	0	3132096512	47	4240
2026-01-04 00:47:59.75	135.92	14.98	-42.9	-43.8	17.9	0.00e+00	0	57	0	3137339392	47	4269
2026-01-04 00:48:00.74	136.06	14.90	-43.1	-44.0	17.7	0.00e+00	0	57	0	3142582272	47	4354
2026-01-04 00:48:01.72	136.21	14.83	-43.2	-44.1	17.8	0.00e+00	0	57	0	3147825152	48	4152
2026-01-04 00:48:02.71	136.35	14.75	-43.3	-44.2	17.6	0.00e+00	0	57	0	3154116608	48	4242
2026-01-04 00:48:03.69	136.50	14.68	-43.3	-44.2	17.7	0.00e+00	0	57	0	3159359488	48	4227
2026-01-04 00:48:04.68	136.64	14.60	-43.4	-44.3	17.6	0.00e+00	0	57	0	3164602368	48	4267
2026-01-04 00:48:05.67	136.78	14.53	-43.6	-44.6	17.3	0.00e+00	0	57	0	3170893824	49	4158
2026-01-04 00:48:06.66	136.93	14.45	-43.6	-44.6	17.3	0.00e+00	0	57	0	3176136704	49	4152
2026-01-04 00:48:07.65	137.07	14.38	-43.8	-44.7	17.2	0.00e+00	0	57	0	3181379584	49	4240
2026-01-04 00:48:08.63	137.21	14.30	-44.0	-45.1	16.9	0.00e+00	0	57	0	3187671040	49	4392
2026-01-04 00:48:09.62	137.35	14.23	-44.1	-45.1	16.8	0.00e+00	0	57	0	3192913920	50	4188
2026-01-04 00:48:10.61	137.49	14.15	-43.9	-44.9	17.0	0.00e+00	0	57	0	3198156800	50	4080
2026-01-04 00:48:11.60	137.62	14.08	-43.9	-44.8	17.1	0.00e+00	0	57	0	3203399680	50	4043
2026-01-04 00:48:12.58	137.76	14.00	-43.9	-44.9	17.0	0.00e+00	0	57	0	3209691136	50	4089
2026-01-04 00:48:13.57	137.90	13.93	-44.0	-45.0	16.9	0.00e+00	0	57	0	3214934016	50	4125
2026-01-04 00:48:14.55	138.03	13.85	-44.1	-45.1	16.8	0.00e+00	0	57	0	3220176896	50	4168
2026-01-04 00:48:15.54	138.17	13.78	-44.1	-45.1	16.8	0.00e+00	0	57	0	3226468352	50	4176
2026-01-04 00:48:16.53	138.31	13.70	-43.7	-44.7	17.2	0.00e+00	0	57	0	3231711232	50	3975
2026-01-04 00:48:17.51	138.44	13.63	-43.6	-44.5	17.4	0.00e+00	0	57	0	3236954112	50	3901
2026-01-04 00:48:18.50	138.57	13.55	-43.3	-44.3	17.6	0.00e+00	0	57	0	3242196992	49	4012
2026-01-04 00:48:19.50	138.71	13.48	-43.2	-44.1	17.7	0.00e+00	0	57	0	3248488448	49	3935
2026-01-04 00:48:20.48	138.84	13.41	-43.0	-43.9	17.9	0.00e+00	0	57	0	3253731328	49	3850
2026-01-04 00:48:21.47	138.97	13.33	-43.0	-43.9	18.0	0.00e+00	0	57	0	3258974208	49	3826
2026-01-04 00:48:22.46	139.10	13.26	-43.0	-43.9	17.9	0.00e+00	0	57	0	3265265664	49	3847
2026-01-04 00:48:23.45	139.23	13.18	-42.9	-43.8	18.0	0.00e+00	0	57	0	3270508544	49	3805
2026-01-04 00:48:24.44	139.36	13.11	-42.9	-43.8	18.1	0.00e+00	0	57	0	3275751424	49	3786
2026-01-04 00:48:25.43	139.49	13.03	-43.0	-43.9	18.0	0.00e+00	0	57	0	3282042880	49	3835
2026-01-04 00:48:26.42	139.62	12.96	-43.1	-44.0	17.8	0.00e+00	0	57	0	3287285760	49	3884
2026-01-04 00:48:27.40	139.75	12.89	-43.0	-43.9	17.9	0.00e+00	0	57	0	3292528640	49	3840
2026-01-04 00:48:28.39	139.88	12.81	-43.0	-43.8	18.0	0.00e+00	0	57	0	3298820096	49	3814
2026-01-04 00:48:29.37	140.00	12.74	-43.0	-43.8	18.0	0.00e+00	0	57	0	3304062976	49	3818
2026-01-04 00:48:30.35	140.13	12.67	-43.1	-44.0	17.8	0.00e+00	0	57	0	3309305856	49	3894
2026-01-04 00:48:31.34	140.26	12.60	-43.2	-44.1	17.7	0.00e+00	0	57	0	3314548736	49	3941
2026-01-04 00:48:32.33	140.38	12.52	-43.2	-44.1	17.7	0.00e+00	0	57	0	3319791616	49	3917
2026-01-04 00:48:33.31	140.50	12.45	-43.2	-44.1	17.7	0.00e+00	0	57	0	3326083072	49	3957
2026-01-04 00:48:34.30	140.63	12.38	-43.2	-44.1	17.7	0.00e+00	0	57	0	3331325952	49	3952
2026-01-04 00:48:35.29	140.75	12.30	-43.2	-44.1	17.7	0.00e+00	0	57	0	3337617408	49	3934
2026-01-04 00:48:36.28	140.87	12.23	-43.2	-44.1	17.7	0.00e+00	0	57	0	3342860288	49	3958
2026-01-04 00:48:37.26	141.00	12.16	-43.2	-44.1	17.7	0.00e+00	0	57	0	3348103168	49	3940
2026-01-04 00:48:38.26	141.12	12.09	-43.3	-44.2	17.6	0.00e+00	0	57	0	3353346048	49	3972
2026-01-04 00:48:39.25	141.24	12.01	-43.2	-44.1	17.8	0.00e+00	0	57	0	3359637504	49	3919
2026-01-04 00:48:40.24	141.36	11.94	-43.2	-44.1	17.7	0.00e+00	0	57	0	3364880384	49	3941
2026-01-04 00:48:41.22	141.48	11.87	-43.2	-44.1	17.7	0.00e+00	0	57	0	3370123264	49	3948
2026-01-04 00:48:42.22	141.60	11.80	-43.2	-44.1	17.6	0.00e+00	0	57	0	3376414720	49	3956
2026-01-04 00:48:43.21	141.72	11.72	-43.3	-44.2	17.6	0.00e+00	0	57	0	3381657600	49	3975
2026-01-04 00:48:44.20	141.84	11.65	-43.4	-44.3	17.5	0.00e+00	0	57	0	3386900480	49	4023
2026-01-04 00:48:45.18	141.95	11.58	-43.5	-44.5	17.3	0.00e+00	0	57	0	3393191936	49	4104
2026-01-04 00:48:46.17	142.07	11.51	-43.5	-44.5	17.3	0.00e+00	0	57	0	3398434816	49	4102
2026-01-04 00:48:47.16	142.19	11.44	-43.7	-44.7	17.1	0.00e+00	0	57	0	3403677696	49	4208
2026-01-04 00:48:48.15	142.31	11.37	-43.6	-44.6	17.2	0.00e+00	0	57	0	3409969152	49	4163
2026-01-04 00:48:49.14	142.42	11.29	-43.9	-44.9	16.9	0.00e+00	0	57	0	3415212032	49	4295
2026-01-04 00:48:50.14	142.54	11.22	-43.7	-44.8	17.1	0.00e+00	0	57	0	3420454912	49	4243
2026-01-04 00:48:51.12	142.65	11.15	-43.9	-44.9	16.9	0.00e+00	0	57	0	3425697792	49	4307
2026-01-04 00:48:52.12	142.77	11.08	-44.1	-45.2	16.6	0.00e+00	0	57	0	3431989248	50	4208
2026-01-04 00:48:53.10	142.88	11.01	-43.9	-44.9	16.9	0.00e+00	0	57	0	3437232128	50	4076
2026-01-04 00:48:54.09	142.99	10.94	-43.8	-44.7	17.0	0.00e+00	0	57	0	3442475008	50	4004
2026-01-04 00:48:55.08	143.10	10.87	-43.8	-44.8	17.0	0.00e+00	0	57	0	3448766464	50	4026
2026-01-04 00:48:56.07	143.22	10.80	-43.8	-44.8	17.0	0.00e+00	0	57	0	3454009344	50	4019
2026-01-04 00:48:57.06	143.33	10.73	-43.9	-44.9	16.9	0.00e+00	0	57	0	3459252224	50	4090
2026-01-04 00:48:58.04	143.44	10.66	-43.7	-44.7	17.1	0.00e+00	0	57	0	3465543680	50	3989
2026-01-04 00:48:59.03	143.55	10.59	-43.7	-44.7	17.1	0.00e+00	0	57	0	3470786560	50	3962
2026-01-04 00:49:00.01	143.66	10.52	-43.8	-44.8	17.0	0.00e+00	0	57	0	3476029440	50	4037
2026-01-04 00:49:01.01	143.77	10.44	-44.0	-45.0	16.8	0.00e+00	0	57	0	3481272320	50	4110
2026-01-04 00:49:02.00	143.88	10.37	-43.9	-44.9	16.8	0.00e+00	0	57	0	3487563776	50	4084
2026-01-04 00:49:02.99	143.98	10.30	-44.0	-45.0	16.8	0.00e+00	0	57	0	3492806656	50	4114
2026-01-04 00:49:03.98	144.09	10.23	-44.2	-45.2	16.6	0.00e+00	0	57	0	3499098112	50	4218
2026-01-04 00:49:04.96	144.20	10.17	-44.1	-45.1	16.7	0.00e+00	0	57	0	3504340992	50	4178
2026-01-04 00:49:05.95	144.31	10.10	-44.0	-45.0	16.7	0.00e+00	0	57	0	3509583872	50	4141
2026-01-04 00:49:06.93	144.41	10.03	-44.1	-45.2	16.6	0.00e+00	0	57	0	3514826752	50	4213
2026-01-04 00:49:07.92	144.52	9.96	-44.1	-45.1	16.6	0.00e+00	0	57	0	3520069632	50	4182
2026-01-04 00:49:08.90	144.62	9.89	-44.0	-45.1	16.6	0.00e+00	0	57	0	3526361088	50	4171
2026-01-04 00:49:09.89	144.73	9.82	-44.1	-45.2	16.6	0.00e+00	0	57	0	3531603968	50	4199
2026-01-04 00:49:10.88	144.83	9.75	-44.2	-45.3	16.4	0.00e+00	0	57	0	3537895424	50	4289
2026-01-04 00:49:11.87	144.94	9.68	-44.2	-45.3	16.4	0.00e+00	0	57	0	3543138304	50	4259
2026-01-04 00:49:12.85	145.04	9.61	-44.1	-45.2	16.5	0.00e+00	0	57	0	3548381184	50	4238
2026-01-04 00:49:13.84	145.14	9.54	-44.2	-45.3	16.4	0.00e+00	0	57	0	3553624064	50	4272
2026-01-04 00:49:14.83	145.24	9.48	-44.3	-45.4	16.3	0.00e+00	0	57	0	3559915520	50	4294
2026-01-04 00:49:15.82	145.35	9.41	-44.4	-45.5	16.2	0.00e+00	0	57	0	3565158400	50	4373
2026-01-04 00:49:16.81	145.45	9.34	-44.4	-45.5	16.2	0.00e+00	0	57	0	3570401280	50	4375
2026-01-04 00:49:17.79	145.55	9.27	-44.5	-45.6	16.1	1.10e-06	0	57	0	3576692736	50	4411
2026-01-04 00:49:18.79	145.65	9.20	-44.7	-45.8	15.9	0.00e+00	0	57	0	3581935616	51	4290
2026-01-04 00:49:19.78	145.75	9.13	-44.6	-45.8	15.9	0.00e+00	0	57	0	3587178496	51	4251
2026-01-04 00:49:20.76	145.85	9.07	-44.5	-45.6	16.1	0.00e+00	0	57	0	3592421376	51	4177
2026-01-04 00:49:21.75	145.95	9.00	-44.4	-45.5	16.2	0.00e+00	0	57	0	3598712832	51	4109
2026-01-04 00:49:22.74	146.05	8.93	-44.4	-45.6	16.1	0.00e+00	0	57	0	3603955712	51	4147
2026-01-04 00:49:23.73	146.15	8.86	-44.5	-45.6	16.1	0.00e+00	0	57	0	3609198592	51	4167
2026-01-04 00:49:24.71	146.24	8.80	-44.5	-45.6	16.1	0.00e+00	0	57	0	3615490048	51	4177
2026-01-04 00:49:25.71	146.34	8.73	-44.7	-45.9	15.7	0.00e+00	0	57	0	3620732928	51	4325
2026-01-04 00:49:26.70	146.44	8.66	-44.7	-45.9	15.8	0.00e+00	0	57	0	3625975808	51	4311
2026-01-04 00:49:27.69	146.54	8.59	-44.8	-46.0	15.7	0.00e+00	0	57	0	3632267264	51	4373
2026-01-04 00:49:28.68	146.63	8.53	-45.1	-46.3	15.4	0.00e+00	0	57	0	3637510144	51	4527
2026-01-04 00:49:29.66	146.73	8.46	-44.9	-46.1	15.4	0.00e+00	0	57	0	3642753024	52	4190
2026-01-04 00:49:30.64	146.82	8.39	-44.8	-46.0	15.5	0.00e+00	0	57	0	3647995904	52	4124
2026-01-04 00:49:31.64	146.92	8.33	-45.0	-46.2	15.4	0.00e+00	0	57	0	3654287360	52	4208
2026-01-04 00:49:32.62	147.01	8.26	-44.9	-46.2	15.4	1.10e-06	0	57	0	3659530240	52	4197
2026-01-04 00:49:33.61	147.11	8.20	-44.7	-45.9	15.6	0.00e+00	0	57	0	3664773120	52	4071
