passes_logs/2026/01/04/R3.0SM8_Murmansk_STILSPACE/R3.0SM8_Murmansk_STILSPACE__20260104_231828_SUOMI_NPP_rec.log

#Pass ID: 20260104_231828_SUOMI NPP
#Satellite: SUOMI NPP
#Configuration: NPP
#almurnet v.1.7.20240730
#Start time: 2026-01-04 23:23:45

#Version: 2.2.20231116
#Station: R3.0SM8_Murmansk_STILSPACE
#Location: 33.092731 lon 68.902999 lat
#TLE: 1 37849U 11061A   26003.96724563  .00000164  00000+0  98899-4 0  9990
#TLE: 2 37849  98.7800 306.1116 0002573  82.3190 277.8279 14.19522066735141

#Time	Az	El	Level	Level2	SNR	BER	BlckErr	Temp	State	Recorded	gain1	gain2
2026-01-04 23:23:45.73	61.02	33.12	-54.4	-74.4	3.8	7.45e-01	0	56	0	0	71	37214
2026-01-04 23:23:46.72	61.33	33.23	-52.7	-66.5	3.8	1.49e+00	0	56	104	0	68	17481
2026-01-04 23:23:47.71	61.64	33.35	-52.7	-66.6	3.8	1.49e+00	0	56	104	0	68	17514
2026-01-04 23:23:48.69	61.95	33.47	-52.7	-66.6	3.8	1.49e+00	0	56	104	0	68	17529
2026-01-04 23:23:49.68	62.27	33.58	-52.7	-66.6	3.8	1.49e+00	0	56	104	0	68	17515
2026-01-04 23:23:50.67	62.59	33.70	-52.7	-66.6	3.8	1.49e+00	0	56	104	0	68	17571
2026-01-04 23:23:51.66	62.91	33.81	-52.7	-66.6	3.8	1.49e+00	0	56	104	0	68	17528
2026-01-04 23:23:52.65	63.23	33.93	-52.7	-66.6	3.8	1.49e+00	0	56	104	0	68	17551
2026-01-04 23:23:53.64	63.55	34.04	-52.7	-66.6	3.8	1.49e+00	0	56	104	0	68	17521
2026-01-04 23:23:54.63	63.88	34.16	-52.7	-66.5	3.8	1.49e+00	0	56	104	0	68	17460
2026-01-04 23:23:55.62	64.21	34.27	-52.7	-66.5	3.8	1.49e+00	0	56	104	0	68	17452
2026-01-04 23:23:56.62	64.54	34.38	-52.7	-66.5	3.8	1.49e+00	0	56	104	0	68	17421
2026-01-04 23:23:57.60	64.87	34.50	-52.7	-66.5	3.8	1.49e+00	0	56	104	0	68	17466
2026-01-04 23:23:58.59	65.21	34.61	-52.7	-66.5	3.8	1.49e+00	0	56	104	0	68	17416
2026-01-04 23:23:59.58	65.55	34.72	-52.7	-66.5	3.8	1.49e+00	0	56	104	0	68	17385
2026-01-04 23:24:00.55	65.88	34.83	-52.7	-66.5	3.8	1.49e+00	0	56	104	0	68	17407
2026-01-04 23:24:01.54	66.22	34.93	-52.6	-66.5	3.8	1.49e+00	0	56	104	0	68	17343
2026-01-04 23:24:02.54	66.57	35.04	-52.5	-66.5	3.8	1.49e+00	0	56	104	0	68	17353
2026-01-04 23:24:03.53	66.92	35.15	-52.5	-66.4	3.8	1.49e+00	0	57	104	0	68	17273
2026-01-04 23:24:04.53	67.27	35.26	-52.6	-66.5	3.8	1.49e+00	0	56	104	0	68	17292
2026-01-04 23:24:05.51	67.62	35.36	-52.6	-66.5	3.8	1.49e+00	0	56	104	0	68	17299
2026-01-04 23:24:06.51	67.98	35.47	-52.6	-66.5	3.8	1.49e+00	0	56	104	0	68	17295
2026-01-04 23:24:07.49	68.33	35.57	-52.7	-66.4	3.8	1.49e+00	0	57	104	0	68	17260
2026-01-04 23:24:08.48	68.69	35.68	-52.6	-66.5	3.8	1.49e+00	0	56	104	0	68	17355
2026-01-04 23:24:09.47	69.05	35.78	-52.6	-66.5	3.8	1.49e+00	0	56	104	0	68	17359
2026-01-04 23:24:10.45	69.41	35.88	-52.6	-66.4	3.8	1.49e+00	0	56	104	0	68	17261
2026-01-04 23:24:11.44	69.77	35.98	-52.6	-66.5	3.8	1.49e+00	0	56	104	0	68	17334
2026-01-04 23:24:12.43	70.14	36.08	-52.5	-66.4	3.8	1.49e+00	0	56	104	0	68	17276
2026-01-04 23:24:13.42	70.51	36.18	-52.7	-66.4	3.8	1.49e+00	0	56	104	0	68	17278
2026-01-04 23:24:14.41	70.88	36.28	-52.5	-66.5	3.8	1.49e+00	0	56	104	0	68	17300
2026-01-04 23:24:15.40	71.26	36.37	-52.6	-66.5	3.8	1.49e+00	0	57	104	0	68	17354
2026-01-04 23:24:16.39	71.63	36.47	-52.6	-66.5	3.8	1.49e+00	0	57	104	0	68	17347
2026-01-04 23:24:17.38	72.01	36.56	-52.7	-66.5	3.8	1.49e+00	0	56	104	0	68	17306
2026-01-04 23:24:18.37	72.39	36.66	-52.5	-66.4	3.8	1.49e+00	0	56	104	0	68	17212
2026-01-04 23:24:19.37	72.78	36.75	-52.6	-66.4	3.8	1.49e+00	0	56	104	0	68	17260
2026-01-04 23:24:20.35	73.16	36.84	-52.6	-66.4	3.8	1.49e+00	0	56	104	0	68	17200
2026-01-04 23:24:21.34	73.55	36.93	-52.6	-66.4	3.8	1.49e+00	0	56	104	0	68	17194
2026-01-04 23:24:22.33	73.94	37.02	-52.5	-66.4	3.8	1.49e+00	0	56	104	0	68	17236
2026-01-04 23:24:23.32	74.33	37.11	-52.6	-66.5	3.8	1.49e+00	0	56	104	0	68	17319
2026-01-04 23:24:24.31	74.72	37.19	-52.6	-66.5	3.8	1.49e+00	0	56	104	0	68	17338
2026-01-04 23:24:25.30	75.11	37.28	-52.6	-66.5	3.8	1.49e+00	0	56	104	0	68	17283
2026-01-04 23:24:26.29	75.51	37.36	-52.6	-66.4	3.8	1.49e+00	0	56	104	0	68	17275
2026-01-04 23:24:27.28	75.91	37.45	-52.6	-66.4	3.8	1.49e+00	0	56	104	0	68	17241
2026-01-04 23:24:28.27	76.31	37.53	-52.6	-66.5	3.8	1.49e+00	0	56	104	0	68	17284
2026-01-04 23:24:29.25	76.71	37.61	-52.7	-66.5	3.8	1.49e+00	0	57	104	0	68	17322
2026-01-04 23:24:30.24	77.12	37.68	-52.6	-66.4	3.8	1.49e+00	0	56	104	0	68	17218
2026-01-04 23:24:31.23	77.52	37.76	-52.6	-66.4	3.8	1.49e+00	0	56	104	0	68	17234
2026-01-04 23:24:32.22	77.93	37.84	-52.5	-66.5	3.8	1.49e+00	0	56	104	0	68	17302
2026-01-04 23:24:33.20	78.34	37.91	-52.6	-66.1	3.8	1.49e+00	0	56	104	0	68	16555
2026-01-04 23:24:34.19	78.75	37.98	-52.5	-64.8	3.9	1.49e+00	0	56	104	0	68	14297
2026-01-04 23:24:35.17	79.16	38.05	-52.4	-64.0	3.9	1.48e+00	0	56	104	0	67	13846
2026-01-04 23:24:36.16	79.58	38.12	-52.3	-63.8	3.8	1.48e+00	0	57	104	0	67	13470
2026-01-04 23:24:37.15	80.00	38.19	-52.0	-60.9	4.9	1.39e+00	0	56	0	0	67	9629
2026-01-04 23:24:38.12	80.41	38.26	-50.8	-55.8	9.2	2.93e-01	0	57	0	2097152	64	6362
2026-01-04 23:24:39.12	80.83	38.32	-49.3	-52.2	13.1	2.77e-04	0	56	0	4194304	61	4999
2026-01-04 23:24:40.11	81.26	38.39	-48.6	-50.9	14.4	3.00e-06	0	56	0	5242880	60	4582
2026-01-04 23:24:41.10	81.68	38.45	-48.8	-51.3	14.0	3.80e-06	0	56	0	7340032	60	4785
2026-01-04 23:24:42.09	82.11	38.51	-48.8	-51.3	13.9	3.80e-06	0	57	0	9437184	60	4811
2026-01-04 23:24:43.08	82.54	38.57	-49.2	-52.0	13.2	9.90e-06	0	56	0	11534336	60	5200
2026-01-04 23:24:44.06	82.96	38.62	-49.2	-52.2	13.1	2.36e-05	0	57	0	12582912	60	5287
2026-01-04 23:24:45.06	83.40	38.68	-49.2	-52.2	13.1	1.83e-05	0	57	0	14680064	60	5321
2026-01-04 23:24:46.04	83.82	38.73	-49.3	-52.3	12.9	4.42e-05	0	56	0	16777216	60	5382
2026-01-04 23:24:47.04	84.26	38.78	-49.8	-53.2	12.1	1.52e-04	0	56	0	18874368	61	5630
2026-01-04 23:24:48.03	84.70	38.83	-49.9	-53.6	11.6	5.71e-04	0	57	0	19922944	61	5865
2026-01-04 23:24:49.02	85.13	38.88	-49.8	-53.5	11.8	5.53e-04	0	56	0	22020096	61	5796
2026-01-04 23:24:50.00	85.57	38.93	-49.5	-52.8	12.4	2.32e-04	0	56	0	24117248	61	5394
2026-01-04 23:24:50.99	86.00	38.97	-49.5	-52.5	12.7	9.91e-05	0	57	0	26214400	61	5217
2026-01-04 23:24:51.97	86.44	39.02	-49.7	-53.0	12.2	1.36e-04	0	57	0	28311552	61	5502
2026-01-04 23:24:52.97	86.89	39.06	-49.6	-52.7	12.5	2.93e-04	0	56	0	29360128	61	5280
2026-01-04 23:24:53.96	87.33	39.10	-49.8	-53.2	12.1	2.14e-04	0	56	0	31457280	61	5616
2026-01-04 23:24:54.94	87.77	39.13	-49.6	-52.8	12.4	2.63e-04	0	56	0	33554432	61	5358
2026-01-04 23:24:55.92	88.21	39.17	-49.7	-52.9	12.3	1.89e-04	0	57	0	35651584	61	5440
2026-01-04 23:24:56.91	88.65	39.20	-50.1	-53.7	11.5	1.98e-04	0	56	0	36700160	61	5945
2026-01-04 23:24:57.90	89.10	39.24	-50.4	-54.5	10.7	2.66e-03	0	56	0	38797312	62	6185
2026-01-04 23:24:58.89	89.54	39.27	-50.7	-55.1	10.1	6.22e-03	0	57	0	40894464	63	6208
2026-01-04 23:24:59.88	89.99	39.29	-50.8	-55.2	10.0	8.92e-03	0	57	0	42991616	63	6301
2026-01-04 23:25:00.87	90.44	39.32	-50.8	-55.2	9.9	9.11e-03	0	56	0	44040192	63	6308
2026-01-04 23:25:01.86	90.89	39.35	-50.7	-55.0	10.1	1.02e-02	0	57	0	46137344	63	6168
2026-01-04 23:25:02.85	91.34	39.37	-50.3	-54.1	10.9	2.82e-03	0	57	0	48234496	63	5584
2026-01-04 23:25:03.85	91.79	39.39	-49.7	-52.9	12.3	8.28e-04	0	56	0	50331648	62	5143
2026-01-04 23:25:04.83	92.24	39.41	-49.4	-52.3	13.0	3.20e-05	0	56	0	52428800	61	5077
2026-01-04 23:25:05.83	92.70	39.42	-49.1	-51.9	13.4	1.44e-05	0	57	0	53477376	61	4828
2026-01-04 23:25:06.81	93.14	39.44	-49.7	-53.0	12.3	6.17e-05	0	57	0	55574528	61	5491
2026-01-04 23:25:07.81	93.60	39.45	-50.4	-54.7	10.5	8.83e-04	0	57	0	57671680	62	6304
2026-01-04 23:25:08.80	94.05	39.46	-50.9	-55.6	9.4	1.41e-02	0	57	0	59768832	63	6597
2026-01-04 23:25:09.79	94.51	39.47	-50.6	-55.0	10.2	1.15e-02	0	56	0	60817408	63	6147
2026-01-04 23:25:10.78	94.96	39.48	-50.0	-53.7	11.4	1.91e-03	0	56	0	62914560	63	5319
2026-01-04 23:25:11.77	95.41	39.48	-49.6	-52.8	12.4	2.39e-04	0	57	0	65011712	62	5046
2026-01-04 23:25:12.77	95.87	39.49	-49.4	-52.4	12.8	3.66e-05	0	57	0	67108864	61	5153
2026-01-04 23:25:13.76	96.32	39.49	-49.3	-52.2	13.2	3.28e-05	0	57	0	69206016	61	4993
2026-01-04 23:25:14.75	96.78	39.49	-48.9	-51.4	13.8	2.67e-05	0	57	0	70254592	60	4834
2026-01-04 23:25:15.74	97.23	39.48	-48.5	-50.7	14.6	0.00e+00	0	57	0	72351744	59	4742
2026-01-04 23:25:16.73	97.68	39.48	-48.8	-51.2	14.1	7.00e-07	0	57	0	74448896	59	5021
2026-01-04 23:25:17.73	98.14	39.47	-49.2	-52.0	13.3	1.37e-05	0	56	0	76546048	60	5209
2026-01-04 23:25:18.71	98.59	39.46	-49.0	-51.7	13.6	5.30e-06	0	57	0	77594624	60	4995
2026-01-04 23:25:19.69	99.04	39.45	-48.6	-50.9	14.4	0.00e+00	0	57	0	79691776	60	4572
2026-01-04 23:25:20.68	99.49	39.44	-48.1	-50.1	15.2	0.00e+00	0	56	0	81788928	59	4414
2026-01-04 23:25:21.67	99.94	39.42	-47.8	-49.7	15.5	0.00e+00	0	57	0	83886080	58	4451
2026-01-04 23:25:22.66	100.39	39.41	-48.6	-51.0	14.4	0.00e+00	0	57	0	84934656	59	4879
2026-01-04 23:25:23.64	100.84	39.39	-49.3	-52.1	13.2	1.52e-05	0	56	0	87031808	60	5240
2026-01-04 23:25:24.63	101.29	39.37	-49.4	-52.4	12.8	7.09e-05	0	57	0	89128960	60	5446
2026-01-04 23:25:25.63	101.75	39.35	-48.7	-51.3	14.0	1.83e-05	0	56	0	91226112	60	4787
2026-01-04 23:25:26.61	102.19	39.32	-48.4	-50.6	14.7	7.00e-07	0	57	0	93323264	59	4689
2026-01-04 23:25:27.60	102.64	39.29	-48.4	-50.7	14.6	0.00e+00	0	57	0	94371840	59	4721
2026-01-04 23:25:28.59	103.09	39.27	-48.6	-50.9	14.3	0.00e+00	0	57	0	96468992	59	4869
2026-01-04 23:25:29.58	103.53	39.24	-48.7	-51.1	14.2	0.00e+00	0	57	0	98566144	59	4959
2026-01-04 23:25:30.56	103.98	39.20	-48.6	-51.0	14.3	2.20e-06	0	57	0	100663296	59	4896
2026-01-04 23:25:31.55	104.42	39.17	-49.0	-51.6	13.7	2.20e-06	0	56	0	101711872	59	5256
2026-01-04 23:25:32.55	104.87	39.13	-48.9	-51.4	13.9	9.10e-06	0	56	0	103809024	59	5134
2026-01-04 23:25:33.54	105.31	39.10	-48.9	-51.4	13.8	7.60e-06	0	57	0	105906176	59	5144
2026-01-04 23:25:34.54	105.76	39.06	-48.7	-51.0	14.2	1.50e-06	0	56	0	108003328	59	4910
2026-01-04 23:25:35.53	106.20	39.02	-48.2	-50.3	15.0	0.00e+00	0	57	0	110100480	59	4518
2026-01-04 23:25:36.53	106.65	38.97	-47.8	-49.7	15.6	0.00e+00	0	56	0	111149056	58	4471
2026-01-04 23:25:37.51	107.08	38.93	-47.3	-49.1	16.2	0.00e+00	0	56	0	113246208	57	4411
2026-01-04 23:25:38.51	107.52	38.88	-47.3	-49.0	16.3	0.00e+00	0	57	0	115343360	57	4387
2026-01-04 23:25:39.50	107.96	38.83	-47.5	-49.3	16.0	0.00e+00	0	57	0	117440512	57	4519
2026-01-04 23:25:40.48	108.39	38.78	-47.6	-49.4	15.8	0.00e+00	0	57	0	118489088	57	4586
2026-01-04 23:25:41.47	108.83	38.73	-47.7	-49.5	15.7	0.00e+00	0	56	0	120586240	57	4646
2026-01-04 23:25:42.45	109.25	38.68	-47.9	-50.0	15.3	0.00e+00	0	56	0	122683392	57	4879
2026-01-04 23:25:43.45	109.69	38.62	-47.6	-49.5	15.7	0.00e+00	0	57	0	124780544	57	4636
2026-01-04 23:25:44.44	110.12	38.56	-47.3	-49.0	16.3	0.00e+00	0	56	0	125829120	57	4359
2026-01-04 23:25:45.43	110.55	38.50	-47.1	-48.7	16.5	0.00e+00	0	57	0	127926272	57	4231
2026-01-04 23:25:46.42	110.98	38.44	-47.7	-49.6	15.7	0.00e+00	0	57	0	130023424	57	4663
2026-01-04 23:25:47.41	111.40	38.38	-47.3	-49.1	16.1	0.00e+00	0	57	0	132120576	57	4409
2026-01-04 23:25:48.40	111.82	38.32	-47.3	-49.0	16.2	0.00e+00	0	57	0	133169152	57	4372
2026-01-04 23:25:49.39	112.25	38.25	-47.0	-48.6	16.7	0.00e+00	0	57	0	135266304	57	4162
2026-01-04 23:25:50.38	112.67	38.19	-46.7	-48.3	16.9	0.00e+00	0	56	0	137363456	56	4249
2026-01-04 23:25:51.37	113.08	38.12	-46.8	-48.3	16.9	0.00e+00	0	57	0	139460608	56	4263
2026-01-04 23:25:52.37	113.51	38.05	-47.2	-48.9	16.4	0.00e+00	0	57	0	141557760	56	4567
2026-01-04 23:25:53.37	113.92	37.97	-47.9	-49.9	15.4	0.00e+00	0	57	0	142606336	57	4849
2026-01-04 23:25:54.36	114.34	37.90	-48.4	-50.7	14.6	1.50e-06	0	57	0	144703488	58	5000
2026-01-04 23:25:55.36	114.75	37.83	-47.9	-49.9	15.4	0.00e+00	0	57	0	146800640	58	4570
2026-01-04 23:25:56.34	115.16	37.75	-47.5	-49.4	15.8	0.00e+00	0	56	0	148897792	58	4306
2026-01-04 23:25:57.33	115.57	37.67	-47.3	-49.0	16.3	0.00e+00	0	56	0	149946368	57	4369
2026-01-04 23:25:58.31	115.97	37.60	-47.1	-48.8	16.5	0.00e+00	0	56	0	152043520	57	4255
2026-01-04 23:25:59.29	116.37	37.52	-47.1	-48.9	16.4	0.00e+00	0	57	0	154140672	57	4296
2026-01-04 23:26:00.29	116.77	37.43	-46.4	-47.9	17.3	0.00e+00	0	56	0	156237824	56	4065
2026-01-04 23:26:01.27	117.17	37.35	-45.6	-46.8	18.2	0.00e+00	0	56	0	157286400	54	4032
2026-01-04 23:26:02.26	117.57	37.27	-45.7	-47.0	18.1	0.00e+00	0	57	0	159383552	53	4369
2026-01-04 23:26:03.25	117.96	37.18	-46.2	-47.6	17.5	0.00e+00	0	57	0	161480704	54	4398
2026-01-04 23:26:04.24	118.36	37.10	-47.4	-49.3	16.1	0.00e+00	0	57	0	163577856	56	4766
2026-01-04 23:26:05.23	118.75	37.01	-47.6	-49.6	15.7	0.00e+00	0	57	0	165675008	57	4655
2026-01-04 23:26:06.22	119.14	36.92	-47.4	-49.2	16.1	0.00e+00	0	57	0	166723584	57	4470
2026-01-04 23:26:07.21	119.52	36.83	-47.2	-48.9	16.3	0.00e+00	0	56	0	168820736	57	4330
2026-01-04 23:26:08.20	119.91	36.74	-47.2	-48.8	16.4	0.00e+00	0	57	0	170917888	57	4284
2026-01-04 23:26:09.18	120.29	36.65	-47.2	-48.9	16.4	0.00e+00	0	56	0	173015040	57	4296
2026-01-04 23:26:10.17	120.67	36.55	-46.4	-47.9	17.3	0.00e+00	0	57	0	174063616	56	4062
2026-01-04 23:26:11.16	121.05	36.46	-45.4	-46.6	18.4	0.00e+00	0	56	0	176160768	54	3920
2026-01-04 23:26:12.15	121.43	36.36	-44.9	-46.0	19.0	0.00e+00	0	56	0	178257920	53	3900
2026-01-04 23:26:13.14	121.80	36.26	-45.3	-46.4	18.6	0.00e+00	0	57	0	180355072	53	4096
2026-01-04 23:26:14.13	122.17	36.17	-45.6	-46.9	18.2	0.00e+00	0	56	0	181403648	53	4296
2026-01-04 23:26:15.13	122.55	36.07	-46.5	-48.0	17.1	0.00e+00	0	57	0	183500800	55	4344
2026-01-04 23:26:16.11	122.91	35.97	-47.0	-48.6	16.5	0.00e+00	0	56	0	185597952	55	4697
2026-01-04 23:26:17.09	123.27	35.87	-47.4	-49.2	16.0	0.00e+00	0	56	0	187695104	56	4725
2026-01-04 23:26:18.08	123.64	35.76	-47.2	-48.9	16.3	0.00e+00	0	56	0	189792256	57	4333
2026-01-04 23:26:19.06	123.99	35.66	-46.9	-48.6	16.7	0.00e+00	0	56	0	190840832	57	4157
2026-01-04 23:26:20.05	124.35	35.56	-47.3	-49.0	16.2	0.00e+00	0	56	0	192937984	57	4384
2026-01-04 23:26:21.03	124.71	35.45	-48.0	-50.1	15.3	0.00e+00	0	57	0	195035136	57	4945
2026-01-04 23:26:22.02	125.06	35.35	-48.2	-50.3	15.0	0.00e+00	0	56	0	197132288	58	4805
2026-01-04 23:26:23.00	125.41	35.24	-47.5	-49.3	16.0	0.00e+00	0	56	0	198180864	58	4250
2026-01-04 23:26:24.00	125.76	35.14	-46.9	-48.5	16.7	0.00e+00	0	56	0	200278016	57	4110
2026-01-04 23:26:25.00	126.11	35.03	-47.0	-48.7	16.6	0.00e+00	0	56	0	202375168	56	4446
2026-01-04 23:26:25.99	126.46	34.92	-47.4	-49.1	16.1	0.00e+00	0	57	0	204472320	56	4686
2026-01-04 23:26:26.98	126.80	34.81	-48.4	-50.6	14.7	0.00e+00	0	56	0	205520896	58	4958
2026-01-04 23:26:27.97	127.14	34.70	-49.0	-51.8	13.5	6.10e-06	0	56	0	207618048	60	5048
2026-01-04 23:26:28.95	127.48	34.59	-48.9	-51.5	13.7	9.10e-06	0	57	0	209715200	60	4922
2026-01-04 23:26:29.94	127.82	34.48	-49.0	-51.6	13.6	3.80e-06	0	56	0	211812352	60	4945
2026-01-04 23:26:30.93	128.15	34.36	-49.3	-52.3	13.0	3.28e-05	0	56	0	212860928	60	5359
2026-01-04 23:26:31.92	128.48	34.25	-49.9	-53.2	12.0	9.99e-05	0	57	0	214958080	61	5634
2026-01-04 23:26:32.91	128.81	34.14	-50.5	-54.5	10.7	9.41e-04	0	56	0	217055232	62	6163
2026-01-04 23:26:33.91	129.14	34.02	-50.7	-55.3	9.9	4.95e-03	0	56	0	219152384	63	6362
2026-01-04 23:26:34.90	129.47	33.91	-50.4	-54.6	10.6	6.42e-03	0	56	0	221249536	63	5888
2026-01-04 23:26:35.88	129.79	33.79	-49.8	-53.2	12.1	1.52e-03	0	57	0	222298112	62	5307
2026-01-04 23:26:36.88	130.11	33.68	-49.0	-51.7	13.4	6.02e-05	0	57	0	224395264	61	4749
2026-01-04 23:26:37.87	130.43	33.56	-49.2	-52.0	13.3	1.22e-05	0	57	0	226492416	61	4892
2026-01-04 23:26:38.85	130.74	33.44	-49.2	-52.1	13.1	2.28e-05	0	56	0	228589568	61	4957
2026-01-04 23:26:39.85	131.06	33.32	-49.7	-53.0	12.2	5.41e-05	0	57	0	229638144	61	5491
2026-01-04 23:26:40.83	131.37	33.21	-50.1	-53.8	11.4	7.47e-04	0	57	0	231735296	62	5699
2026-01-04 23:26:41.82	131.68	33.09	-50.0	-53.6	11.6	1.31e-03	0	57	0	233832448	62	5586
2026-01-04 23:26:42.81	131.99	32.97	-50.1	-53.8	11.5	7.85e-04	0	57	0	235929600	62	5691
2026-01-04 23:26:43.81	132.29	32.85	-50.2	-54.0	11.1	9.48e-04	0	57	0	238026752	62	5853
2026-01-04 23:26:44.80	132.60	32.73	-51.0	-56.2	9.0	3.35e-03	0	56	0	239075328	63	7073
2026-01-04 23:26:45.78	132.89	32.61	-51.4	-58.3	6.9	1.08e-01	0	56	0	241172480	64	8515
2026-01-04 23:26:46.78	133.20	32.49	-51.8	-60.0	5.5	3.14e-01	0	57	0	243269632	65	9775
2026-01-04 23:26:47.76	133.49	32.37	-51.5	-58.2	6.9	3.54e-01	0	57	0	245366784	65	7956
2026-01-04 23:26:48.76	133.79	32.25	-50.7	-55.4	9.6	7.21e-02	0	57	0	246415360	64	6097
2026-01-04 23:26:49.76	134.08	32.12	-50.4	-54.3	10.9	3.75e-03	0	57	0	248512512	63	5704
2026-01-04 23:26:50.74	134.37	32.00	-50.6	-54.9	10.2	3.12e-03	0	56	0	250609664	63	6110
2026-01-04 23:26:51.72	134.65	31.88	-51.0	-56.0	9.1	1.67e-02	0	57	0	252706816	63	6890
2026-01-04 23:26:52.72	134.94	31.76	-51.1	-56.5	8.5	2.30e-02	0	57	0	253755392	64	6929
2026-01-04 23:26:53.70	135.22	31.64	-51.6	-58.3	6.7	1.52e-01	0	57	0	255852544	65	8004
2026-01-04 23:26:54.70	135.51	31.51	-51.3	-57.3	7.6	1.49e-01	0	56	0	257949696	65	7129
2026-01-04 23:26:55.69	135.79	31.39	-51.0	-56.3	8.6	5.01e-02	0	57	0	260046848	65	6418
2026-01-04 23:26:56.68	136.06	31.27	-51.1	-56.6	8.4	4.37e-02	0	56	0	262144000	65	6621
2026-01-04 23:26:57.67	136.34	31.14	-51.2	-56.9	8.1	6.07e-02	0	56	0	263192576	65	6857
2026-01-04 23:26:58.66	136.61	31.02	-51.4	-57.7	7.4	6.94e-02	0	56	0	265289728	65	7463
2026-01-04 23:26:59.65	136.88	30.90	-51.6	-58.8	6.4	2.16e-01	0	56	0	267386880	65	8497
2026-01-04 23:27:00.65	137.16	30.77	-51.5	-58.1	6.8	2.36e-01	0	57	0	269484032	65	7895
2026-01-04 23:27:01.64	137.42	30.65	-51.1	-56.8	8.1	1.00e-01	0	56	0	270532608	65	6764
2026-01-04 23:27:02.62	137.68	30.52	-50.2	-54.0	11.1	1.45e-02	0	57	0	272629760	63	5522
2026-01-04 23:27:03.61	137.95	30.40	-49.0	-51.7	13.5	3.40e-04	0	57	0	274726912	61	4734
2026-01-04 23:27:04.61	138.21	30.27	-48.4	-50.6	14.6	7.00e-07	0	57	0	276824064	59	4658
2026-01-04 23:27:05.60	138.47	30.15	-48.5	-50.8	14.4	0.00e+00	0	57	0	278921216	59	4812
2026-01-04 23:27:06.58	138.73	30.03	-49.0	-51.7	13.5	3.00e-06	0	56	0	279969792	60	5035
2026-01-04 23:27:07.58	138.98	29.90	-49.8	-53.2	11.8	6.48e-05	0	57	0	282066944	61	5645
2026-01-04 23:27:08.57	139.24	29.78	-50.5	-54.8	10.3	4.37e-03	0	56	0	284164096	63	6024
2026-01-04 23:27:09.56	139.49	29.65	-50.2	-53.9	11.3	2.79e-03	0	56	0	286261248	63	5415
2026-01-04 23:27:10.55	139.74	29.53	-49.2	-52.1	13.0	2.26e-04	0	56	0	287309824	61	4941
2026-01-04 23:27:11.54	139.99	29.40	-48.4	-50.6	14.6	7.00e-07	0	56	0	289406976	59	4683
2026-01-04 23:27:12.53	140.23	29.28	-47.9	-50.0	15.2	0.00e+00	0	57	0	291504128	59	4343
2026-01-04 23:27:13.52	140.48	29.15	-48.1	-50.2	15.1	0.00e+00	0	57	0	293601280	58	4708
2026-01-04 23:27:14.50	140.71	29.03	-48.3	-50.6	14.7	0.00e+00	0	56	0	294649856	58	4945
2026-01-04 23:27:15.49	140.96	28.90	-48.6	-51.0	14.2	0.00e+00	0	57	0	296747008	59	4921
2026-01-04 23:27:16.48	141.19	28.78	-48.7	-51.1	14.1	1.50e-06	0	57	0	298844160	59	4969
2026-01-04 23:27:17.47	141.43	28.65	-48.1	-50.4	14.8	0.00e+00	0	57	0	300941312	59	4550
2026-01-04 23:27:18.46	141.67	28.53	-47.7	-49.6	15.5	0.00e+00	0	57	0	303038464	58	4418
2026-01-04 23:27:19.45	141.90	28.40	-47.5	-49.3	15.9	0.00e+00	0	56	0	304087040	58	4254
2026-01-04 23:27:20.45	142.13	28.28	-47.5	-49.3	15.9	7.00e-07	0	56	0	306184192	58	4289
2026-01-04 23:27:21.44	142.36	28.15	-47.0	-48.7	16.4	0.00e+00	0	56	0	308281344	57	4232
2026-01-04 23:27:22.42	142.59	28.03	-47.2	-48.9	16.4	0.00e+00	0	57	0	310378496	57	4309
2026-01-04 23:27:23.42	142.82	27.90	-47.9	-49.9	15.3	0.00e+00	0	57	0	311427072	57	4837
2026-01-04 23:27:24.40	143.04	27.78	-48.1	-50.3	14.9	0.00e+00	0	57	0	313524224	58	4760
2026-01-04 23:27:25.39	143.26	27.66	-48.4	-50.7	14.5	0.00e+00	0	56	0	315621376	58	5010
2026-01-04 23:27:26.38	143.48	27.53	-48.0	-50.1	15.1	0.00e+00	0	57	0	317718528	58	4676
2026-01-04 23:27:27.37	143.70	27.41	-47.3	-49.0	16.1	0.00e+00	0	57	0	318767104	57	4368
2026-01-04 23:27:28.35	143.92	27.29	-46.6	-48.1	17.0	0.00e+00	0	56	0	320864256	56	4155
2026-01-04 23:27:29.34	144.13	27.16	-46.3	-47.8	17.2	0.00e+00	0	57	0	322961408	55	4247
2026-01-04 23:27:30.32	144.34	27.04	-46.5	-48.0	17.0	0.00e+00	0	56	0	325058560	55	4382
2026-01-04 23:27:31.31	144.56	26.92	-46.7	-48.2	16.8	0.00e+00	0	56	0	326107136	55	4479
2026-01-04 23:27:32.30	144.77	26.79	-47.8	-49.8	15.4	0.00e+00	0	56	0	328204288	57	4775
2026-01-04 23:27:33.29	144.98	26.67	-47.9	-49.9	15.2	0.00e+00	0	57	0	330301440	57	4850
2026-01-04 23:27:34.28	145.19	26.55	-48.6	-51.0	14.2	7.00e-07	0	57	0	332398592	58	5177
2026-01-04 23:27:35.26	145.39	26.43	-48.0	-50.1	15.1	0.00e+00	0	56	0	334495744	58	4698
2026-01-04 23:27:36.25	145.60	26.30	-47.0	-48.7	16.4	0.00e+00	0	56	0	335544320	57	4215
2026-01-04 23:27:37.24	145.80	26.18	-46.1	-47.5	17.5	0.00e+00	0	56	0	337641472	55	4129
2026-01-04 23:27:38.23	146.00	26.06	-45.6	-46.8	18.1	0.00e+00	0	57	0	339738624	54	4046
2026-01-04 23:27:39.21	146.20	25.94	-45.3	-46.5	18.4	0.00e+00	0	56	0	341835776	53	4110
2026-01-04 23:27:40.20	146.40	25.82	-45.5	-46.8	18.1	0.00e+00	0	57	0	342884352	53	4261
2026-01-04 23:27:41.19	146.60	25.69	-45.8	-47.1	17.8	0.00e+00	0	56	0	344981504	53	4434
2026-01-04 23:27:42.18	146.79	25.57	-46.3	-47.7	17.2	0.00e+00	0	57	0	347078656	54	4489
2026-01-04 23:27:43.17	146.99	25.45	-46.5	-48.0	17.0	0.00e+00	0	57	0	349175808	54	4651
2026-01-04 23:27:44.17	147.18	25.33	-46.6	-48.2	16.8	0.00e+00	0	57	0	350224384	55	4482
2026-01-04 23:27:45.15	147.37	25.21	-46.5	-48.0	17.0	0.00e+00	0	56	0	352321536	55	4387
2026-01-04 23:27:46.15	147.56	25.09	-45.9	-47.3	17.7	0.00e+00	0	56	0	354418688	54	4249
2026-01-04 23:27:47.13	147.75	24.97	-45.5	-46.7	18.2	0.00e+00	0	56	0	356515840	54	3988
2026-01-04 23:27:48.12	147.94	24.85	-45.1	-46.3	18.6	0.00e+00	0	56	0	358612992	53	4008
2026-01-04 23:27:49.11	148.12	24.73	-45.1	-46.3	18.6	0.00e+00	0	56	0	359661568	53	4037
2026-01-04 23:27:50.11	148.31	24.61	-45.0	-46.1	18.7	0.00e+00	0	56	0	361758720	53	3958
2026-01-04 23:27:51.09	148.49	24.49	-45.4	-46.6	18.3	0.00e+00	0	56	0	363855872	53	4183
2026-01-04 23:27:52.07	148.67	24.37	-45.6	-46.8	18.2	0.00e+00	0	56	0	365953024	53	4291
2026-01-04 23:27:53.06	148.85	24.25	-45.9	-47.3	17.7	0.00e+00	0	56	0	367001600	53	4512
2026-01-04 23:27:54.05	149.03	24.13	-46.0	-47.4	17.6	0.00e+00	0	56	0	369098752	54	4298
2026-01-04 23:27:55.04	149.21	24.02	-45.8	-47.2	17.8	0.00e+00	0	56	0	371195904	54	4209
2026-01-04 23:27:56.03	149.39	23.90	-46.0	-47.4	17.6	0.00e+00	0	56	0	373293056	54	4311
2026-01-04 23:27:57.03	149.56	23.78	-46.2	-47.7	17.3	0.00e+00	0	56	0	374341632	54	4470
2026-01-04 23:27:58.02	149.74	23.66	-46.2	-47.6	17.4	0.00e+00	0	56	0	376438784	54	4408
2026-01-04 23:27:59.02	149.91	23.54	-46.1	-47.5	17.5	0.00e+00	0	56	0	378535936	54	4351
2026-01-04 23:28:00.01	150.08	23.43	-46.1	-47.5	17.4	0.00e+00	0	56	0	380633088	54	4366
2026-01-04 23:28:01.00	150.26	23.31	-46.3	-47.8	17.2	0.00e+00	0	56	0	382730240	54	4528
2026-01-04 23:28:01.99	150.42	23.19	-46.3	-47.8	17.2	0.00e+00	0	56	0	383778816	54	4510
2026-01-04 23:28:02.98	150.59	23.08	-46.4	-47.9	17.0	0.00e+00	0	56	0	385875968	54	4589
2026-01-04 23:28:03.96	150.76	22.96	-46.6	-48.2	16.8	0.00e+00	0	56	0	387973120	55	4470
2026-01-04 23:28:04.95	150.92	22.85	-46.6	-48.1	16.9	0.00e+00	0	56	0	390070272	55	4407
2026-01-04 23:28:05.93	151.09	22.73	-46.2	-47.6	17.4	0.00e+00	0	56	0	391118848	55	4168
2026-01-04 23:28:06.92	151.25	22.62	-45.9	-47.3	17.7	0.00e+00	0	57	0	393216000	54	4245
2026-01-04 23:28:07.91	151.41	22.50	-45.9	-47.2	17.7	0.00e+00	0	57	0	395313152	54	4241
2026-01-04 23:28:08.90	151.57	22.39	-46.0	-47.4	17.6	0.00e+00	0	56	0	397410304	54	4304
2026-01-04 23:28:09.89	151.73	22.27	-46.3	-47.8	17.1	0.00e+00	0	56	0	399507456	54	4542
2026-01-04 23:28:10.88	151.89	22.16	-46.3	-47.8	17.1	0.00e+00	0	56	0	400556032	54	4525
2026-01-04 23:28:11.86	152.05	22.05	-46.6	-48.1	16.8	0.00e+00	0	56	0	402653184	54	4696
2026-01-04 23:28:12.85	152.20	21.93	-46.8	-48.4	16.6	0.00e+00	0	56	0	404750336	55	4548
2026-01-04 23:28:13.85	152.36	21.82	-46.5	-48.0	17.0	0.00e+00	0	56	0	406847488	55	4348
2026-01-04 23:28:14.83	152.51	21.71	-46.5	-48.0	16.9	0.00e+00	0	56	0	407896064	55	4390
2026-01-04 23:28:15.82	152.66	21.59	-46.5	-48.0	17.0	0.00e+00	0	56	0	409993216	55	4359
2026-01-04 23:28:16.81	152.82	21.48	-46.4	-47.9	17.1	0.00e+00	0	56	0	412090368	55	4311
2026-01-04 23:28:17.81	152.97	21.37	-46.5	-48.0	16.9	0.00e+00	0	56	0	414187520	55	4378
2026-01-04 23:28:18.79	153.12	21.26	-46.5	-48.1	16.9	0.00e+00	0	56	0	415236096	55	4408
2026-01-04 23:28:19.78	153.27	21.15	-47.2	-48.9	16.2	0.00e+00	0	56	0	417333248	56	4580
2026-01-04 23:28:20.77	153.41	21.04	-47.4	-49.2	15.9	0.00e+00	0	56	0	419430400	56	4720
2026-01-04 23:28:21.76	153.56	20.93	-47.2	-49.0	16.1	0.00e+00	0	56	0	421527552	56	4627
2026-01-04 23:28:22.75	153.71	20.81	-47.7	-49.7	15.4	0.00e+00	0	56	0	422576128	57	4709
2026-01-04 23:28:23.74	153.85	20.70	-48.1	-50.2	14.8	0.00e+00	0	56	0	424673280	57	5017
2026-01-04 23:28:24.71	153.99	20.60	-48.1	-50.3	14.8	0.00e+00	0	56	0	426770432	58	4778
2026-01-04 23:28:25.70	154.14	20.49	-48.3	-50.6	14.5	0.00e+00	0	56	0	428867584	58	4958
2026-01-04 23:28:26.68	154.28	20.38	-48.3	-50.6	14.4	7.00e-07	0	57	0	430964736	58	4963
2026-01-04 23:28:27.67	154.42	20.27	-48.3	-50.6	14.5	0.00e+00	0	56	0	432013312	58	4938
2026-01-04 23:28:28.65	154.56	20.16	-48.3	-50.5	14.6	0.00e+00	0	57	0	434110464	58	4905
2026-01-04 23:28:29.64	154.69	20.05	-47.8	-49.9	15.2	0.00e+00	0	56	0	436207616	58	4557
2026-01-04 23:28:30.63	154.83	19.95	-47.9	-49.9	15.2	0.00e+00	0	57	0	438304768	58	4569
2026-01-04 23:28:31.62	154.97	19.84	-47.9	-49.9	15.2	0.00e+00	0	57	0	439353344	58	4556
2026-01-04 23:28:32.61	155.11	19.73	-47.9	-49.9	15.2	0.00e+00	0	56	0	441450496	58	4566
2026-01-04 23:28:33.59	155.24	19.63	-48.1	-50.3	14.8	0.00e+00	0	56	0	443547648	58	4779
2026-01-04 23:28:34.58	155.37	19.52	-47.9	-49.9	15.2	0.00e+00	0	57	0	445644800	58	4577
2026-01-04 23:28:35.56	155.51	19.41	-47.8	-49.8	15.3	0.00e+00	0	57	0	446693376	58	4511
2026-01-04 23:28:36.55	155.64	19.31	-47.6	-49.6	15.5	0.00e+00	0	57	0	448790528	58	4406
2026-01-04 23:28:37.54	155.77	19.20	-47.6	-49.6	15.5	0.00e+00	0	57	0	450887680	58	4403
2026-01-04 23:28:38.53	155.90	19.10	-47.7	-49.7	15.3	0.00e+00	0	56	0	452984832	58	4477
2026-01-04 23:28:39.52	156.03	18.99	-47.6	-49.5	15.5	0.00e+00	0	56	0	454033408	58	4391
2026-01-04 23:28:40.51	156.16	18.89	-47.8	-49.8	15.3	0.00e+00	0	56	0	456130560	58	4504
2026-01-04 23:28:41.50	156.29	18.78	-47.7	-49.7	15.4	0.00e+00	0	56	0	458227712	58	4456
2026-01-04 23:28:42.49	156.42	18.68	-47.5	-49.4	15.7	0.00e+00	0	56	0	460324864	58	4314
2026-01-04 23:28:43.48	156.54	18.57	-47.2	-49.1	16.0	0.00e+00	0	56	0	462422016	57	4394
2026-01-04 23:28:44.47	156.67	18.47	-47.1	-48.9	16.2	0.00e+00	0	56	0	463470592	57	4300
2026-01-04 23:28:45.46	156.79	18.37	-47.2	-49.0	16.0	0.00e+00	0	56	0	465567744	57	4380
2026-01-04 23:28:46.44	156.92	18.26	-47.1	-48.8	16.2	0.00e+00	0	56	0	467664896	57	4249
2026-01-04 23:28:47.42	157.04	18.16	-47.2	-49.0	16.0	0.00e+00	0	56	0	469762048	57	4370
2026-01-04 23:28:48.41	157.16	18.06	-47.1	-48.8	16.2	0.00e+00	0	56	0	470810624	57	4274
2026-01-04 23:28:49.39	157.28	17.96	-47.4	-49.3	15.7	0.00e+00	0	56	0	472907776	57	4502
2026-01-04 23:28:50.37	157.40	17.86	-47.5	-49.4	15.7	0.00e+00	0	57	0	475004928	57	4561
2026-01-04 23:28:51.36	157.52	17.76	-47.7	-49.7	15.3	0.00e+00	0	57	0	477102080	57	4748
2026-01-04 23:28:52.36	157.64	17.65	-47.4	-49.4	15.7	0.00e+00	0	57	0	478150656	57	4546
2026-01-04 23:28:53.35	157.76	17.55	-47.7	-49.8	15.3	0.00e+00	0	56	0	480247808	57	4765
2026-01-04 23:28:54.35	157.88	17.45	-47.7	-49.7	15.2	0.00e+00	0	56	0	482344960	57	4753
2026-01-04 23:28:55.34	158.00	17.35	-47.6	-49.6	15.4	0.00e+00	0	56	0	484442112	57	4700
2026-01-04 23:28:56.33	158.11	17.25	-47.7	-49.7	15.3	0.00e+00	0	56	0	485490688	57	4752
2026-01-04 23:28:57.32	158.23	17.15	-47.7	-49.7	15.3	0.00e+00	0	56	0	487587840	57	4742
2026-01-04 23:28:58.30	158.34	17.05	-48.0	-50.1	14.9	0.00e+00	0	56	0	489684992	57	4954
2026-01-04 23:28:59.29	158.46	16.95	-48.1	-50.4	14.6	7.00e-07	0	56	0	491782144	58	4827
2026-01-04 23:29:00.27	158.57	16.86	-48.0	-50.2	14.8	0.00e+00	0	56	0	493879296	58	4742
2026-01-04 23:29:01.25	158.68	16.76	-48.4	-50.7	14.3	0.00e+00	0	56	0	494927872	58	5037
2026-01-04 23:29:02.24	158.79	16.66	-48.0	-50.1	14.9	7.00e-07	0	56	0	497025024	58	4685
2026-01-04 23:29:03.23	158.90	16.56	-47.7	-49.7	15.3	0.00e+00	0	56	0	499122176	58	4446
2026-01-04 23:29:04.23	159.01	16.46	-47.8	-49.7	15.3	0.00e+00	0	56	0	501219328	58	4493
2026-01-04 23:29:05.22	159.12	16.37	-47.8	-49.8	15.3	0.00e+00	0	56	0	502267904	58	4499
2026-01-04 23:29:06.21	159.23	16.27	-48.2	-50.5	14.5	0.00e+00	0	56	0	504365056	58	4889
2026-01-04 23:29:07.20	159.34	16.17	-48.3	-50.6	14.4	1.50e-06	0	56	0	506462208	58	4948
2026-01-04 23:29:08.19	159.45	16.08	-48.5	-50.9	14.1	7.00e-07	0	56	0	508559360	58	5103
2026-01-04 23:29:09.18	159.56	15.98	-48.5	-51.0	14.0	1.50e-06	0	57	0	509607936	58	5177
2026-01-04 23:29:10.17	159.66	15.88	-48.7	-51.3	13.6	3.00e-06	0	56	0	511705088	59	5083
2026-01-04 23:29:11.15	159.77	15.79	-48.7	-51.3	13.7	1.14e-05	0	56	0	513802240	59	5051
2026-01-04 23:29:12.15	159.88	15.69	-48.9	-51.8	13.2	1.06e-05	0	56	0	515899392	59	5374
2026-01-04 23:29:13.15	159.98	15.60	-48.8	-51.5	13.4	1.52e-05	0	57	0	517996544	59	5207
2026-01-04 23:29:14.14	160.09	15.50	-48.7	-51.4	13.6	6.80e-06	0	56	0	519045120	59	5114
2026-01-04 23:29:15.12	160.19	15.41	-48.9	-51.7	13.3	1.60e-05	0	57	0	521142272	59	5280
2026-01-04 23:29:16.11	160.29	15.31	-48.7	-51.3	13.7	8.30e-06	0	56	0	523239424	59	5044
2026-01-04 23:29:17.09	160.39	15.22	-48.8	-51.4	13.5	5.30e-06	0	56	0	525336576	59	5157
2026-01-04 23:29:18.08	160.49	15.13	-48.6	-51.2	13.8	5.30e-06	0	56	0	526385152	59	4993
2026-01-04 23:29:19.05	160.59	15.04	-48.4	-50.8	14.1	1.50e-06	0	56	0	528482304	59	4797
2026-01-04 23:29:20.04	160.69	14.94	-48.3	-50.6	14.4	1.50e-06	0	57	0	530579456	59	4671
2026-01-04 23:29:21.03	160.79	14.85	-48.0	-50.2	14.7	0.00e+00	0	57	0	532676608	59	4478
2026-01-04 23:29:22.02	160.89	14.76	-47.9	-50.0	15.0	0.00e+00	0	56	0	533725184	58	4616
2026-01-04 23:29:23.01	160.99	14.66	-48.0	-50.2	14.8	0.00e+00	0	56	0	535822336	58	4729
2026-01-04 23:29:23.99	161.09	14.57	-47.9	-50.1	14.9	0.00e+00	0	56	0	537919488	58	4658
2026-01-04 23:29:24.99	161.19	14.48	-48.1	-50.4	14.6	0.00e+00	0	57	0	540016640	58	4826
2026-01-04 23:29:25.98	161.28	14.39	-48.1	-50.4	14.6	7.00e-07	0	57	0	541065216	58	4818
2026-01-04 23:29:26.97	161.38	14.30	-48.2	-50.5	14.4	7.00e-07	0	56	0	543162368	58	4897
2026-01-04 23:29:27.95	161.47	14.21	-48.4	-50.8	14.1	7.00e-07	0	56	0	545259520	58	5065
2026-01-04 23:29:28.94	161.57	14.12	-48.4	-50.8	14.2	1.50e-06	0	56	0	547356672	58	5060
2026-01-04 23:29:29.92	161.66	14.03	-48.5	-51.0	13.9	2.20e-06	0	57	0	549453824	58	5206
2026-01-04 23:29:30.92	161.76	13.94	-48.6	-51.2	13.7	3.80e-06	0	56	0	550502400	59	5031
2026-01-04 23:29:31.91	161.85	13.85	-48.2	-50.6	14.4	1.50e-06	0	57	0	552599552	59	4657
2026-01-04 23:29:32.89	161.94	13.76	-48.1	-50.4	14.5	0.00e+00	0	56	0	554696704	59	4593
2026-01-04 23:29:33.89	162.04	13.67	-48.2	-50.5	14.4	3.00e-06	0	57	0	556793856	59	4608
2026-01-04 23:29:34.88	162.13	13.58	-48.1	-50.4	14.5	7.00e-07	0	56	0	557842432	59	4585
2026-01-04 23:29:35.87	162.22	13.49	-48.3	-50.6	14.3	7.00e-07	0	56	0	559939584	59	4668
2026-01-04 23:29:36.86	162.31	13.40	-48.0	-50.2	14.7	0.00e+00	0	56	0	562036736	59	4446
2026-01-04 23:29:37.85	162.40	13.31	-47.9	-50.0	14.8	7.00e-07	0	56	0	564133888	58	4645
2026-01-04 23:29:38.85	162.49	13.22	-47.9	-50.2	14.8	0.00e+00	0	57	0	566231040	58	4711
2026-01-04 23:29:39.84	162.58	13.14	-47.8	-49.9	15.0	0.00e+00	0	56	0	567279616	58	4559
2026-01-04 23:29:40.84	162.67	13.05	-47.8	-49.8	15.1	0.00e+00	0	56	0	569376768	58	4544
2026-01-04 23:29:41.83	162.76	12.96	-47.8	-49.9	15.0	0.00e+00	0	57	0	571473920	58	4553
2026-01-04 23:29:42.81	162.85	12.87	-47.5	-49.4	15.5	0.00e+00	0	56	0	573571072	58	4336
2026-01-04 23:29:43.81	162.93	12.79	-47.4	-49.3	15.6	0.00e+00	0	57	0	574619648	57	4524
2026-01-04 23:29:44.80	163.02	12.70	-47.3	-49.2	15.7	0.00e+00	0	56	0	576716800	57	4455
2026-01-04 23:29:45.79	163.11	12.61	-47.4	-49.3	15.5	7.00e-07	0	57	0	578813952	57	4534
2026-01-04 23:29:46.79	163.19	12.53	-47.4	-49.3	15.6	0.00e+00	0	56	0	580911104	57	4506
2026-01-04 23:29:47.77	163.28	12.44	-47.0	-48.9	15.9	0.00e+00	0	57	0	581959680	57	4318
2026-01-04 23:29:48.76	163.36	12.36	-47.2	-49.0	15.8	0.00e+00	0	56	0	584056832	57	4367
2026-01-04 23:29:49.75	163.45	12.27	-47.3	-49.3	15.5	0.00e+00	0	56	0	586153984	57	4509
2026-01-04 23:29:50.74	163.53	12.19	-47.3	-49.2	15.6	0.00e+00	0	57	0	588251136	57	4487
2026-01-04 23:29:51.73	163.61	12.10	-47.5	-49.5	15.4	0.00e+00	0	57	0	590348288	57	4624
2026-01-04 23:29:52.72	163.70	12.02	-47.5	-49.5	15.3	0.00e+00	0	56	0	591396864	57	4628
2026-01-04 23:29:53.71	163.78	11.93	-47.7	-49.8	15.1	0.00e+00	0	57	0	593494016	57	4764
2026-01-04 23:29:54.70	163.86	11.85	-47.7	-49.8	15.1	0.00e+00	0	56	0	595591168	57	4764
2026-01-04 23:29:55.69	163.94	11.76	-47.6	-49.7	15.1	0.00e+00	0	57	0	597688320	57	4737
2026-01-04 23:29:56.68	164.03	11.68	-47.8	-49.9	14.9	0.00e+00	0	57	0	598736896	57	4829
2026-01-04 23:29:57.67	164.11	11.60	-47.9	-50.1	14.6	0.00e+00	0	56	0	600834048	57	4972
2026-01-04 23:29:58.66	164.19	11.51	-48.0	-50.2	14.6	0.00e+00	0	57	0	602931200	57	5026
2026-01-04 23:29:59.65	164.27	11.43	-48.2	-50.5	14.3	1.50e-06	0	56	0	605028352	58	4924
2026-01-04 23:30:00.64	164.35	11.35	-48.3	-50.7	14.1	0.00e+00	0	57	0	607125504	58	4992
2026-01-04 23:30:01.63	164.43	11.27	-48.5	-51.0	13.7	6.80e-06	0	57	0	608174080	58	5200
2026-01-04 23:30:02.61	164.50	11.19	-48.6	-51.2	13.6	2.20e-06	0	57	0	610271232	58	5315
2026-01-04 23:30:03.61	164.58	11.10	-48.6	-51.3	13.5	9.90e-06	0	56	0	612368384	59	5056
2026-01-04 23:30:04.60	164.66	11.02	-48.7	-51.4	13.4	1.37e-05	0	57	0	614465536	59	5125
2026-01-04 23:30:05.57	164.74	10.94	-48.9	-51.8	12.9	5.64e-05	0	56	0	615514112	59	5385
2026-01-04 23:30:06.55	164.81	10.86	-48.8	-51.7	13.1	3.96e-05	0	57	0	617611264	59	5282
2026-01-04 23:30:07.55	164.89	10.78	-49.0	-52.0	12.8	4.42e-05	0	56	0	619708416	59	5470
2026-01-04 23:30:08.53	164.97	10.70	-49.0	-52.1	12.6	1.14e-04	0	57	0	621805568	60	5257
2026-01-04 23:30:09.53	165.04	10.62	-48.9	-52.0	12.8	5.87e-05	0	56	0	622854144	60	5168
2026-01-04 23:30:10.51	165.12	10.54	-48.9	-51.9	12.8	4.65e-05	0	57	0	624951296	60	5128
2026-01-04 23:30:11.50	165.19	10.46	-48.9	-51.9	12.8	7.01e-05	0	57	0	627048448	60	5147
2026-01-04 23:30:12.49	165.27	10.38	-48.9	-52.0	12.7	6.48e-05	0	56	0	629145600	60	5186
2026-01-04 23:30:13.48	165.34	10.30	-49.0	-52.0	12.7	6.63e-05	0	56	0	631242752	60	5198
2026-01-04 23:30:14.48	165.42	10.22	-48.9	-51.9	12.7	6.02e-05	0	57	0	632291328	60	5154
2026-01-04 23:30:15.47	165.49	10.14	-49.0	-52.1	12.6	8.01e-05	0	56	0	634388480	60	5251
2026-01-04 23:30:16.46	165.56	10.06	-49.0	-52.1	12.6	1.01e-04	0	56	0	636485632	60	5260
2026-01-04 23:30:17.46	165.64	9.98	-49.1	-52.2	12.4	8.77e-05	0	57	0	638582784	60	5322
2026-01-04 23:30:18.44	165.71	9.90	-49.2	-52.5	12.0	1.60e-04	0	56	0	639631360	60	5512
2026-01-04 23:30:19.43	165.78	9.82	-48.9	-52.0	12.7	1.12e-04	0	56	0	641728512	60	5178
2026-01-04 23:30:20.43	165.85	9.74	-48.9	-52.0	12.6	9.46e-05	0	56	0	643825664	60	5188
2026-01-04 23:30:21.42	165.92	9.67	-49.1	-52.3	12.3	1.33e-04	0	56	0	645922816	60	5343
2026-01-04 23:30:22.41	165.99	9.59	-48.8	-51.8	12.9	1.07e-04	0	56	0	646971392	60	5051
2026-01-04 23:30:23.40	166.07	9.51	-48.7	-51.6	13.0	3.35e-05	0	56	0	649068544	60	4977
2026-01-04 23:30:24.39	166.14	9.43	-48.9	-51.9	12.7	8.69e-05	0	56	0	651165696	60	5116
2026-01-04 23:30:25.38	166.21	9.36	-48.6	-51.5	13.1	5.26e-05	0	57	0	653262848	60	4904
2026-01-04 23:30:26.37	166.28	9.28	-48.6	-51.4	13.2	3.05e-05	0	56	0	654311424	60	4867
2026-01-04 23:30:27.35	166.34	9.20	-48.5	-51.1	13.5	1.14e-05	0	56	0	656408576	59	4973
2026-01-04 23:30:28.34	166.41	9.13	-48.3	-50.9	13.7	6.10e-06	0	57	0	658505728	59	4835
2026-01-04 23:30:29.33	166.48	9.05	-48.4	-51.0	13.6	3.80e-06	0	56	0	660602880	59	4919
2026-01-04 23:30:30.31	166.55	8.97	-48.5	-51.1	13.6	6.80e-06	0	56	0	662700032	59	4942
2026-01-04 23:30:31.29	166.62	8.90	-48.5	-51.1	13.5	9.10e-06	0	57	0	663748608	59	4965
2026-01-04 23:30:32.29	166.68	8.82	-48.7	-51.5	13.1	1.44e-05	0	57	0	665845760	59	5195
2026-01-04 23:30:33.28	166.75	8.75	-48.6	-51.3	13.3	1.60e-05	0	57	0	667942912	59	5059
2026-01-04 23:30:34.27	166.82	8.67	-48.6	-51.4	13.2	2.74e-05	0	57	0	670040064	59	5118
2026-01-04 23:30:35.26	166.89	8.60	-48.8	-51.7	12.8	4.19e-05	0	56	0	671088640	59	5338
2026-01-04 23:30:36.25	166.95	8.52	-48.7	-51.6	12.9	6.10e-05	0	56	0	673185792	59	5267
2026-01-04 23:30:37.24	167.02	8.45	-48.7	-51.7	12.9	4.57e-05	0	56	0	675282944	59	5300
2026-01-04 23:30:38.23	167.08	8.37	-48.8	-51.7	12.9	4.80e-05	0	56	0	677380096	59	5303
2026-01-04 23:30:39.22	167.15	8.30	-48.8	-51.7	12.8	6.48e-05	0	57	0	678428672	59	5335
2026-01-04 23:30:40.21	167.21	8.22	-48.9	-52.0	12.5	1.08e-04	0	56	0	680525824	59	5470
2026-01-04 23:30:41.20	167.28	8.15	-48.8	-51.8	12.7	1.20e-04	0	57	0	682622976	59	5389
2026-01-04 23:30:42.18	167.34	8.08	-48.8	-51.8	12.7	6.56e-05	0	56	0	684720128	59	5383
2026-01-04 23:30:43.17	167.41	8.00	-48.8	-51.9	12.6	8.01e-05	0	56	0	686817280	59	5407
2026-01-04 23:30:44.17	167.47	7.93	-48.8	-51.9	12.6	1.12e-04	0	56	0	687865856	59	5421
2026-01-04 23:30:45.16	167.53	7.86	-48.9	-52.0	12.4	9.15e-05	0	56	0	689963008	59	5489
2026-01-04 23:30:46.14	167.60	7.78	-49.1	-52.4	12.0	1.88e-04	0	57	0	692060160	59	5769
2026-01-04 23:30:47.13	167.66	7.71	-48.9	-52.2	12.2	2.82e-04	0	56	0	694157312	60	5302
2026-01-04 23:30:48.12	167.72	7.64	-48.7	-51.8	12.6	1.16e-04	0	56	0	695205888	60	5058
2026-01-04 23:30:49.10	167.78	7.57	-48.6	-51.5	12.8	7.55e-05	0	56	0	697303040	60	4925
2026-01-04 23:30:50.09	167.85	7.49	-48.7	-51.7	12.6	5.34e-05	0	56	0	699400192	60	5034
2026-01-04 23:30:51.08	167.91	7.42	-48.7	-51.8	12.6	1.14e-04	0	56	0	701497344	60	5049
2026-01-04 23:30:52.07	167.97	7.35	-48.7	-51.8	12.5	1.06e-04	0	57	0	702545920	60	5056
2026-01-04 23:30:53.06	168.03	7.28	-48.7	-51.9	12.3	1.79e-04	0	56	0	704643072	60	5155
2026-01-04 23:30:54.06	168.09	7.20	-48.6	-51.8	12.4	1.83e-04	0	56	0	706740224	60	5069
2026-01-04 23:30:55.04	168.15	7.13	-48.5	-51.4	12.8	8.85e-05	0	57	0	708837376	60	4858
2026-01-04 23:30:56.03	168.21	7.06	-48.4	-51.2	13.0	3.89e-05	0	56	0	710934528	59	5024
2026-01-04 23:30:57.01	168.27	6.99	-48.4	-51.3	13.0	3.43e-05	0	57	0	711983104	59	5062
2026-01-04 23:30:57.99	168.33	6.92	-48.3	-51.2	13.1	3.58e-05	0	57	0	714080256	59	4990
2026-01-04 23:30:58.99	168.39	6.85	-48.4	-51.3	12.9	3.28e-05	0	57	0	716177408	59	5080
2026-01-04 23:30:59.98	168.45	6.78	-48.6	-51.7	12.4	7.78e-05	0	57	0	718274560	59	5311
2026-01-04 23:31:00.97	168.51	6.71	-48.6	-51.7	12.4	1.85e-04	0	56	0	719323136	59	5323
2026-01-04 23:31:01.95	168.57	6.64	-48.7	-52.1	12.0	2.42e-04	0	57	0	721420288	59	5548
2026-01-04 23:31:02.94	168.62	6.57	-48.7	-52.1	11.9	4.87e-04	0	56	0	723517440	59	5541
2026-01-04 23:31:03.92	168.68	6.50	-48.7	-52.1	11.8	4.18e-04	0	56	0	725614592	59	5586
2026-01-04 23:31:04.90	168.74	6.43	-48.8	-52.4	11.4	7.47e-04	0	56	0	726663168	59	5773
2026-01-04 23:31:05.89	168.80	6.36	-48.7	-52.3	11.5	7.67e-04	0	56	0	728760320	59	5672
2026-01-04 23:31:06.88	168.85	6.29	-48.7	-52.3	11.4	7.67e-04	0	57	0	730857472	59	5688
2026-01-04 23:31:07.88	168.91	6.22	-48.7	-52.4	11.1	1.11e-03	0	57	0	732954624	59	5787
2026-01-04 23:31:08.87	168.97	6.15	-48.6	-52.4	11.3	1.39e-03	0	57	0	734003200	59	5732
2026-01-04 23:31:09.86	169.03	6.08	-48.8	-52.7	10.9	1.52e-03	0	57	0	736100352	59	5924
2026-01-04 23:31:10.85	169.08	6.01	-48.7	-52.7	10.7	2.30e-03	0	56	0	738197504	59	5936
2026-01-04 23:31:11.83	169.14	5.95	-48.7	-52.7	10.7	3.66e-03	0	57	0	740294656	59	5934
2026-01-04 23:31:12.82	169.19	5.88	-48.7	-52.6	10.7	3.51e-03	0	56	0	742391808	59	5907
2026-01-04 23:31:13.81	169.25	5.81	-48.7	-52.8	10.5	3.13e-03	0	56	0	743440384	59	6006
2026-01-04 23:31:14.80	169.30	5.74	-48.8	-53.1	10.2	4.18e-03	0	57	0	745537536	59	6234
2026-01-04 23:31:15.79	169.36	5.67	-49.0	-53.4	10.0	8.47e-03	0	56	0	747634688	59	6436
2026-01-04 23:31:16.77	169.41	5.61	-49.0	-53.3	10.0	8.96e-03	0	57	0	749731840	59	6385
2026-01-04 23:31:17.76	169.47	5.54	-49.1	-54.1	9.3	1.35e-02	0	57	0	750780416	60	6582
2026-01-04 23:31:18.76	169.52	5.47	-49.3	-54.4	9.0	2.48e-02	0	57	0	752877568	60	6829
2026-01-04 23:31:19.75	169.58	5.40	-49.4	-55.1	8.0	4.36e-02	0	57	0	754974720	60	7438
2026-01-04 23:31:20.75	169.63	5.33	-49.4	-55.2	7.9	7.86e-02	0	56	0	757071872	60	7463
2026-01-04 23:31:21.74	169.69	5.27	-49.3	-54.9	8.1	6.09e-02	0	56	0	759169024	60	7259
2026-01-04 23:31:22.73	169.74	5.20	-49.2	-55.2	7.6	9.26e-02	0	57	0	760217600	60	7542
2026-01-04 23:31:23.72	169.79	5.13	-49.2	-55.4	7.3	1.29e-01	0	57	0	762314752	60	7677
2026-01-04 23:31:24.71	169.85	5.07	-49.0	-54.7	8.0	7.06e-02	0	57	0	764411904	60	7112
2026-01-04 23:31:25.70	169.90	5.00	-49.6	-63.5	3.8	2.20e-01	0	57	104	765460480	61	18343
2026-01-04 23:31:26.69	169.95	4.93	-51.6	-65.5	3.8	1.49e+00	0	57	104	765460480	65	18320
2026-01-04 23:31:27.67	170.00	4.87	-52.0	-65.8	3.8	1.49e+00	0	57	104	765460480	65	18987
2026-01-04 23:31:28.66	170.06	4.80	-52.1	-66.0	3.8	1.49e+00	0	57	104	765460480	66	18306
2026-01-04 23:31:29.65	170.11	4.74	-52.3	-66.1	3.8	1.49e+00	0	56	104	765460480	66	18568
2026-01-04 23:31:30.63	170.16	4.67	-52.3	-66.1	3.8	1.49e+00	0	57	104	765460480	66	18725
2026-01-04 23:31:31.62	170.21	4.61	-52.4	-66.2	3.8	1.49e+00	0	57	104	765460480	66	18829
2026-01-04 23:31:32.61	170.26	4.54	-52.3	-66.2	3.8	1.49e+00	0	56	104	765460480	66	18894
2026-01-04 23:31:33.60	170.31	4.47	-52.4	-66.3	3.8	1.49e+00	0	56	104	765460480	66	19057
2026-01-04 23:31:34.60	170.36	4.41	-52.5	-66.3	3.8	1.49e+00	0	57	104	765460480	66	19050
2026-01-04 23:31:35.59	170.41	4.34	-52.5	-66.3	3.8	1.49e+00	0	57	104	765460480	66	19121
2026-01-04 23:31:36.57	170.46	4.28	-52.5	-66.4	3.8	1.49e+00	0	57	104	765460480	66	19215
2026-01-04 23:31:37.57	170.52	4.21	-52.5	-66.4	3.8	1.49e+00	0	57	104	765460480	66	19272
2026-01-04 23:31:38.56	170.57	4.15	-52.5	-66.4	3.8	1.49e+00	0	57	104	765460480	67	18189
2026-01-04 23:31:39.55	170.62	4.08	-52.5	-66.4	3.8	1.49e+00	0	56	104	765460480	67	18256
2026-01-04 23:31:40.53	170.66	4.02	-52.6	-66.4	3.8	1.49e+00	0	57	104	765460480	67	18251
2026-01-04 23:31:41.53	170.71	3.96	-52.6	-66.4	3.8	1.49e+00	0	57	104	765460480	67	18215
2026-01-04 23:31:42.52	170.76	3.89	-52.6	-66.4	3.8	1.49e+00	0	57	104	765460480	67	18275
2026-01-04 23:31:43.52	170.81	3.83	-52.7	-66.4	3.8	1.49e+00	0	57	104	765460480	67	18291
2026-01-04 23:31:44.51	170.86	3.76	-52.5	-66.4	3.8	1.49e+00	0	56	104	765460480	67	18298
2026-01-04 23:31:45.50	170.91	3.70	-52.7	-66.5	3.8	1.49e+00	0	57	104	765460480	67	18335
2026-01-04 23:31:46.49	170.96	3.64	-52.7	-66.5	3.8	1.49e+00	0	57	104	765460480	67	18324
2026-01-04 23:31:47.48	171.01	3.57	-52.6	-66.5	3.8	1.49e+00	0	57	104	765460480	67	18382
2026-01-04 23:31:48.47	171.06	3.51	-52.6	-66.5	3.8	1.49e+00	0	57	104	765460480	67	18314
2026-01-04 23:31:49.46	171.10	3.45	-52.5	-66.5	3.8	1.49e+00	0	57	104	765460480	67	18334
2026-01-04 23:31:50.45	171.15	3.38	-52.6	-66.5	3.8	1.49e+00	0	57	104	765460480	67	18312
2026-01-04 23:31:51.44	171.20	3.32	-52.6	-66.5	3.8	1.49e+00	0	57	104	765460480	67	18328
2026-01-04 23:31:52.44	171.25	3.26	-52.6	-66.5	3.8	1.49e+00	0	57	104	765460480	67	18334
2026-01-04 23:31:53.42	171.29	3.20	-52.6	-66.5	3.8	1.49e+00	0	57	104	765460480	67	18352
2026-01-04 23:31:54.41	171.34	3.13	-52.6	-66.4	3.8	1.49e+00	0	57	104	765460480	67	18284
2026-01-04 23:31:55.40	171.39	3.07	-52.6	-66.4	3.8	1.49e+00	0	57	104	765460480	67	18251
2026-01-04 23:31:56.39	171.43	3.01	-52.6	-66.4	3.8	1.49e+00	0	57	104	765460480	67	18266

#Closed at: 2026-01-04 23:31:56
#Recorded file [765 MB]: D:/Data/31026_260105_023125.dat