passes_logs/2026/01/04/R3.0SM8_Murmansk_STILSPACE/R3.0SM8_Murmansk_STILSPACE__20260104_215848_NOAA_20_JPSS-1_rec.log

#Pass ID: 20260104_215848_NOAA 20 (JPSS-1)
#Satellite: NOAA 20 (JPSS-1)
#Configuration: NOAA 20
#almurnet v.1.7.20240730
#Start time: 2026-01-04 21:58:49

#Version: 2.2.20231116
#Station: R3.0SM8_Murmansk_STILSPACE
#Location: 33.092731 lon 68.902999 lat
#TLE: 1 43013U 17073A   26004.47528369  .00000132  00000+0  83671-4 0  9999
#TLE: 2 43013  98.7626 305.5264 0001854  54.5883 305.5466 14.19533142421242

#Time	Az	El	Level	Level2	SNR	BER	BlckErr	Temp	State	Recorded	gain1	gain2
2026-01-04 21:58:49.16	20.13	3.05	-52.4	-66.3	3.8	1.49e+00	0	46	0	0	67	18060
2026-01-04 21:58:50.14	20.22	3.10	-52.3	-66.2	3.8	1.49e+00	0	46	104	0	66	18887
2026-01-04 21:58:51.13	20.30	3.15	-52.3	-66.2	3.8	1.49e+00	0	46	104	0	66	18903
2026-01-04 21:58:52.12	20.39	3.21	-52.2	-66.2	3.8	1.49e+00	0	46	104	0	66	18835
2026-01-04 21:58:53.11	20.47	3.26	-52.2	-66.1	3.8	1.49e+00	0	46	104	0	66	18713
2026-01-04 21:58:54.10	20.56	3.31	-52.1	-66.1	3.8	1.49e+00	0	46	104	0	66	18575
2026-01-04 21:58:55.09	20.64	3.36	-52.1	-66.0	3.8	1.49e+00	0	47	104	0	66	18408
2026-01-04 21:58:56.09	20.73	3.42	-51.9	-65.9	3.8	1.49e+00	0	46	104	0	66	18196
2026-01-04 21:58:57.08	20.82	3.47	-51.8	-65.8	3.8	1.49e+00	0	47	104	0	66	17893
2026-01-04 21:58:58.07	20.90	3.52	-51.5	-65.4	3.8	1.49e+00	0	47	104	0	66	17085
2026-01-04 21:58:59.06	20.99	3.57	-51.4	-65.1	3.8	1.49e+00	0	47	104	0	65	17566
2026-01-04 21:59:00.05	21.08	3.63	-51.3	-65.2	3.8	1.49e+00	0	47	104	0	65	17706
2026-01-04 21:59:01.04	21.17	3.68	-51.3	-65.2	3.8	1.49e+00	0	47	104	0	65	17760
2026-01-04 21:59:02.03	21.25	3.73	-51.3	-65.0	3.8	1.49e+00	0	47	104	0	65	17443
2026-01-04 21:59:03.02	21.34	3.78	-51.3	-65.2	3.8	1.49e+00	0	47	104	0	65	17809
2026-01-04 21:59:04.01	21.43	3.84	-51.4	-65.2	3.8	1.49e+00	0	47	104	0	65	17857
2026-01-04 21:59:05.00	21.52	3.89	-51.4	-65.2	3.8	1.49e+00	0	47	104	0	65	17799
2026-01-04 21:59:05.99	21.61	3.94	-51.4	-65.3	3.8	1.49e+00	0	47	104	0	65	17952
2026-01-04 21:59:06.98	21.70	4.00	-51.4	-65.2	3.8	1.49e+00	0	47	104	0	65	17874
2026-01-04 21:59:07.97	21.79	4.05	-51.4	-65.2	3.8	1.49e+00	0	47	104	0	65	17856
2026-01-04 21:59:08.97	21.88	4.10	-51.4	-65.3	3.8	1.49e+00	0	47	104	0	65	17960
2026-01-04 21:59:09.95	21.97	4.16	-51.4	-65.2	3.8	1.49e+00	0	47	104	0	65	17846
2026-01-04 21:59:10.95	22.06	4.21	-51.4	-65.1	3.8	1.49e+00	0	48	104	0	65	17540
2026-01-04 21:59:11.94	22.15	4.26	-51.3	-65.1	3.8	1.49e+00	0	48	104	0	65	17497
2026-01-04 21:59:12.94	22.24	4.32	-51.3	-65.2	3.8	1.49e+00	0	48	104	0	65	17703
2026-01-04 21:59:13.92	22.33	4.37	-51.4	-65.2	3.8	1.49e+00	0	48	104	0	65	17830
2026-01-04 21:59:14.91	22.43	4.42	-51.4	-65.3	3.8	1.49e+00	0	48	104	0	65	17905
2026-01-04 21:59:15.90	22.52	4.48	-51.3	-65.3	3.8	1.49e+00	0	48	104	0	65	17958
2026-01-04 21:59:16.89	22.61	4.53	-51.5	-65.2	3.8	1.49e+00	0	48	104	0	65	17705
2026-01-04 21:59:17.88	22.70	4.58	-51.3	-64.7	3.8	1.49e+00	0	48	104	0	65	16771
2026-01-04 21:59:18.87	22.80	4.64	-51.2	-63.8	3.8	1.49e+00	0	48	104	0	65	15096
2026-01-04 21:59:19.85	22.89	4.69	-51.3	-62.5	4.0	1.48e+00	0	48	104	0	65	13033
2026-01-04 21:59:20.85	22.98	4.75	-51.0	-61.2	4.4	1.39e+00	20	48	0	0	65	11205
2026-01-04 21:59:21.83	23.08	4.80	-51.0	-59.7	5.0	9.32e-01	0	48	0	1048576	65	9478
2026-01-04 21:59:22.82	23.17	4.85	-50.8	-58.7	5.6	5.04e-01	0	48	0	3145728	64	8884
2026-01-04 21:59:23.81	23.27	4.91	-50.6	-57.6	6.4	3.10e-01	0	48	0	5242880	64	7880
2026-01-04 21:59:24.80	23.36	4.96	-50.5	-57.0	7.1	1.78e-01	0	48	0	7340032	63	7804
2026-01-04 21:59:25.79	23.46	5.01	-50.4	-56.4	7.7	1.25e-01	0	49	0	8388608	63	7271
2026-01-04 21:59:26.78	23.55	5.07	-50.2	-56.1	8.0	7.09e-02	0	48	0	10485760	63	6979
2026-01-04 21:59:27.76	23.65	5.12	-50.4	-56.2	7.9	7.54e-02	0	49	0	12582912	63	7078
2026-01-04 21:59:28.75	23.75	5.18	-50.3	-55.8	8.3	6.55e-02	0	49	0	14680064	63	6753
2026-01-04 21:59:29.72	23.84	5.23	-50.2	-55.4	8.8	4.03e-02	0	49	0	15728640	63	6450
2026-01-04 21:59:30.71	23.94	5.28	-50.0	-54.9	9.3	2.06e-02	0	49	0	17825792	63	6116
2026-01-04 21:59:31.71	24.04	5.34	-49.8	-54.3	9.9	1.22e-02	0	49	0	19922944	62	6047
2026-01-04 21:59:32.70	24.13	5.39	-49.7	-54.1	10.1	8.13e-03	0	49	0	22020096	62	5866
2026-01-04 21:59:33.69	24.23	5.45	-49.6	-53.9	10.4	5.32e-03	0	49	0	23068672	62	5750
2026-01-04 21:59:34.68	24.33	5.50	-49.7	-54.1	10.2	5.53e-03	0	49	0	25165824	62	5879
2026-01-04 21:59:35.66	24.43	5.56	-49.8	-54.2	10.1	7.18e-03	0	49	0	27262976	62	5926
2026-01-04 21:59:36.65	24.53	5.61	-49.8	-54.4	9.9	6.34e-03	0	49	0	29360128	62	6062
2026-01-04 21:59:37.63	24.63	5.66	-49.8	-54.3	10.0	1.21e-02	0	49	0	30408704	62	6033
2026-01-04 21:59:38.62	24.73	5.72	-49.6	-53.6	10.7	4.37e-03	0	49	0	32505856	62	5589
2026-01-04 21:59:39.61	24.83	5.77	-49.4	-53.3	11.0	2.46e-03	0	49	0	34603008	61	5694
2026-01-04 21:59:40.60	24.93	5.83	-49.2	-52.9	11.3	1.45e-03	0	49	0	36700160	61	5464
2026-01-04 21:59:41.59	25.03	5.88	-49.2	-52.9	11.4	9.67e-04	0	49	0	38797312	61	5457
2026-01-04 21:59:42.58	25.13	5.94	-49.0	-52.5	11.8	5.42e-04	0	49	0	39845888	61	5184
2026-01-04 21:59:43.57	25.23	5.99	-48.9	-52.3	12.0	3.97e-04	0	49	0	41943040	60	5402
2026-01-04 21:59:44.55	25.33	6.05	-49.0	-52.5	11.8	4.18e-04	0	49	0	44040192	60	5494
2026-01-04 21:59:45.55	25.44	6.10	-49.0	-52.5	11.8	4.20e-04	0	50	0	46137344	60	5493
2026-01-04 21:59:46.53	25.54	6.16	-49.1	-52.7	11.7	5.89e-04	0	50	0	47185920	60	5626
2026-01-04 21:59:47.52	25.64	6.21	-49.1	-52.6	11.7	8.11e-04	0	49	0	49283072	60	5580
2026-01-04 21:59:48.51	25.75	6.27	-49.1	-52.5	11.8	4.52e-04	0	50	0	51380224	60	5526
2026-01-04 21:59:49.49	25.85	6.32	-49.1	-52.6	11.8	5.32e-04	0	49	0	53477376	60	5536
2026-01-04 21:59:50.49	25.96	6.38	-49.0	-52.5	11.8	3.87e-04	0	50	0	54525952	60	5513
2026-01-04 21:59:51.48	26.06	6.43	-49.1	-52.6	11.9	5.90e-04	0	50	0	56623104	60	5543
2026-01-04 21:59:52.46	26.16	6.49	-49.1	-52.6	11.8	4.16e-04	0	50	0	58720256	60	5534
2026-01-04 21:59:53.45	26.27	6.54	-49.0	-52.4	12.0	4.29e-04	0	50	0	60817408	60	5411
2026-01-04 21:59:54.44	26.38	6.60	-49.1	-52.5	12.0	3.61e-04	0	50	0	62914560	60	5465
2026-01-04 21:59:55.44	26.48	6.65	-49.1	-52.5	11.9	3.58e-04	0	50	0	63963136	60	5484
2026-01-04 21:59:56.43	26.59	6.71	-49.2	-52.7	11.7	4.14e-04	0	50	0	66060288	60	5598
2026-01-04 21:59:57.41	26.70	6.76	-49.2	-52.6	11.8	6.11e-04	0	50	0	68157440	60	5584
2026-01-04 21:59:58.40	26.80	6.82	-49.1	-52.7	11.8	4.00e-04	0	50	0	70254592	60	5611
2026-01-04 21:59:59.39	26.91	6.87	-49.2	-52.8	11.6	4.59e-04	0	50	0	71303168	60	5697
2026-01-04 22:00:00.38	27.02	6.93	-49.3	-53.0	11.5	7.24e-04	0	50	0	73400320	60	5792
2026-01-04 22:00:01.37	27.13	6.99	-49.3	-53.0	11.5	1.07e-03	0	50	0	75497472	60	5798
2026-01-04 22:00:02.36	27.24	7.04	-49.2	-52.7	11.8	5.97e-04	0	50	0	77594624	60	5634
2026-01-04 22:00:03.34	27.35	7.10	-49.1	-52.5	12.0	4.16e-04	0	50	0	78643200	60	5524
2026-01-04 22:00:04.33	27.46	7.15	-48.9	-52.2	12.3	2.08e-04	0	50	0	80740352	60	5315
2026-01-04 22:00:05.32	27.57	7.21	-48.8	-52.1	12.4	1.49e-04	0	51	0	82837504	60	5225
2026-01-04 22:00:06.32	27.68	7.26	-48.8	-52.1	12.5	1.25e-04	0	50	0	84934656	60	5236
2026-01-04 22:00:07.31	27.79	7.32	-48.9	-52.1	12.5	1.27e-04	0	51	0	87031808	60	5268
2026-01-04 22:00:08.30	27.90	7.38	-49.0	-52.3	12.2	2.01e-04	0	51	0	88080384	60	5368
2026-01-04 22:00:09.29	28.01	7.43	-48.8	-51.9	12.6	1.06e-04	0	50	0	90177536	60	5112
2026-01-04 22:00:10.28	28.12	7.49	-48.5	-51.5	13.1	4.11e-05	0	51	0	92274688	60	4890
2026-01-04 22:00:11.26	28.24	7.54	-48.4	-51.2	13.3	3.50e-05	0	51	0	94371840	59	5036
2026-01-04 22:00:12.25	28.35	7.60	-48.3	-51.1	13.4	1.67e-05	0	51	0	95420416	59	4948
2026-01-04 22:00:13.25	28.46	7.65	-48.4	-51.1	13.5	7.60e-06	0	51	0	97517568	59	4957
2026-01-04 22:00:14.23	28.58	7.71	-48.4	-51.1	13.4	1.37e-05	0	51	0	99614720	59	4947
2026-01-04 22:00:15.22	28.69	7.77	-48.4	-51.1	13.6	7.60e-06	0	51	0	101711872	59	4928
2026-01-04 22:00:16.21	28.80	7.82	-48.4	-51.1	13.6	9.90e-06	0	51	0	103809024	59	4959
2026-01-04 22:00:17.20	28.92	7.88	-48.3	-50.9	13.6	4.50e-06	0	51	0	104857600	59	4862
2026-01-04 22:00:18.19	29.04	7.93	-48.2	-50.9	13.8	3.80e-06	0	51	0	106954752	59	4831
2026-01-04 22:00:19.17	29.15	7.99	-48.3	-50.9	13.7	7.60e-06	0	51	0	109051904	59	4864
2026-01-04 22:00:20.16	29.27	8.05	-48.4	-51.1	13.6	7.60e-06	0	51	0	111149056	59	4929
2026-01-04 22:00:21.16	29.39	8.10	-48.4	-51.1	13.4	8.30e-06	0	51	0	112197632	59	4980
2026-01-04 22:00:22.15	29.50	8.16	-48.4	-51.2	13.4	1.67e-05	0	51	0	114294784	59	5002
2026-01-04 22:00:23.14	29.62	8.21	-48.5	-51.2	13.4	1.52e-05	0	51	0	116391936	59	5041
2026-01-04 22:00:24.13	29.74	8.27	-48.4	-51.2	13.4	1.52e-05	0	51	0	118489088	59	4985
2026-01-04 22:00:25.12	29.86	8.33	-48.4	-51.1	13.5	1.22e-05	0	51	0	119537664	59	4960
2026-01-04 22:00:26.10	29.98	8.38	-48.4	-51.2	13.4	6.80e-06	0	51	0	121634816	59	5031
2026-01-04 22:00:27.09	30.09	8.44	-48.5	-51.2	13.4	1.14e-05	0	51	0	123731968	59	5028
2026-01-04 22:00:28.07	30.21	8.50	-48.8	-51.7	12.9	3.05e-05	0	52	0	125829120	59	5295
2026-01-04 22:00:29.06	30.33	8.55	-48.6	-51.4	13.2	1.44e-05	0	51	0	126877696	59	5109
2026-01-04 22:00:30.04	30.45	8.61	-48.5	-51.3	13.4	1.44e-05	0	51	0	128974848	59	5045
2026-01-04 22:00:31.02	30.57	8.66	-48.6	-51.3	13.4	1.98e-05	0	52	0	131072000	59	5064
2026-01-04 22:00:32.01	30.70	8.72	-48.6	-51.4	13.3	1.67e-05	0	52	0	133169152	59	5112
2026-01-04 22:00:32.99	30.82	8.78	-48.6	-51.3	13.4	2.36e-05	0	52	0	134217728	59	5045
2026-01-04 22:00:33.97	30.94	8.83	-48.6	-51.4	13.3	1.22e-05	0	51	0	136314880	59	5121
2026-01-04 22:00:34.97	31.06	8.89	-48.7	-51.5	13.2	2.36e-05	0	52	0	138412032	59	5213
2026-01-04 22:00:35.96	31.19	8.94	-48.5	-51.3	13.4	1.44e-05	0	52	0	140509184	59	5067
2026-01-04 22:00:36.95	31.31	9.00	-48.4	-51.1	13.6	1.37e-05	0	52	0	142606336	59	4971
2026-01-04 22:00:37.94	31.43	9.06	-48.4	-51.0	13.7	7.60e-06	0	52	0	143654912	59	4922
2026-01-04 22:00:38.94	31.56	9.11	-48.4	-51.0	13.7	4.50e-06	0	52	0	145752064	59	4893
2026-01-04 22:00:39.92	31.68	9.17	-48.4	-51.0	13.7	6.10e-06	0	52	0	147849216	59	4903
2026-01-04 22:00:40.91	31.81	9.23	-48.3	-50.9	13.9	4.50e-06	0	52	0	149946368	59	4856
2026-01-04 22:00:41.91	31.94	9.28	-48.3	-50.9	13.8	4.50e-06	0	52	0	150994944	59	4848
2026-01-04 22:00:42.90	32.06	9.34	-48.4	-51.0	13.8	6.10e-06	0	52	0	153092096	59	4899
2026-01-04 22:00:43.89	32.19	9.40	-48.5	-51.2	13.5	6.10e-06	0	52	0	155189248	59	5009
2026-01-04 22:00:44.88	32.32	9.45	-48.4	-51.1	13.7	9.90e-06	0	52	0	157286400	59	4957
2026-01-04 22:00:45.86	32.45	9.51	-48.3	-50.9	13.8	3.80e-06	0	52	0	159383552	59	4849
2026-01-04 22:00:46.85	32.58	9.57	-48.5	-51.1	13.7	5.30e-06	0	52	0	160432128	59	4945
2026-01-04 22:00:47.84	32.70	9.62	-48.5	-51.3	13.5	1.14e-05	0	52	0	162529280	59	5042
2026-01-04 22:00:48.84	32.84	9.68	-48.5	-51.2	13.6	1.52e-05	0	52	0	164626432	59	4997
2026-01-04 22:00:49.83	32.97	9.74	-48.6	-51.2	13.5	8.30e-06	0	52	0	166723584	59	5038
2026-01-04 22:00:50.82	33.10	9.79	-48.8	-51.6	13.2	1.75e-05	0	52	0	167772160	59	5232
2026-01-04 22:00:51.81	33.23	9.85	-48.6	-51.4	13.4	2.28e-05	0	52	0	169869312	59	5108
2026-01-04 22:00:52.80	33.36	9.91	-48.5	-51.2	13.5	8.30e-06	0	52	0	171966464	59	4995
2026-01-04 22:00:53.80	33.49	9.96	-48.4	-51.0	13.8	6.80e-06	0	52	0	174063616	59	4882
2026-01-04 22:00:54.79	33.63	10.02	-48.3	-50.8	14.0	1.50e-06	0	52	0	175112192	59	4768
2026-01-04 22:00:55.78	33.76	10.08	-48.2	-50.8	14.0	3.80e-06	0	52	0	177209344	59	4763
2026-01-04 22:00:56.77	33.89	10.13	-48.2	-50.7	14.1	6.80e-06	0	52	0	179306496	59	4711
2026-01-04 22:00:57.76	34.03	10.19	-48.3	-50.7	14.1	3.80e-06	0	52	0	181403648	59	4752
2026-01-04 22:00:58.75	34.16	10.25	-48.2	-50.7	14.2	3.80e-06	0	52	0	183500800	59	4719
2026-01-04 22:00:59.73	34.29	10.30	-48.0	-50.4	14.4	0.00e+00	0	52	0	184549376	59	4590
2026-01-04 22:01:00.72	34.43	10.36	-48.0	-50.4	14.5	0.00e+00	0	52	0	186646528	59	4553
2026-01-04 22:01:01.71	34.57	10.42	-48.0	-50.3	14.4	0.00e+00	0	52	0	188743680	59	4542
2026-01-04 22:01:02.70	34.70	10.47	-48.1	-50.4	14.3	7.00e-07	0	52	0	190840832	59	4581
2026-01-04 22:01:03.68	34.84	10.53	-48.1	-50.5	14.3	1.50e-06	0	52	0	191889408	59	4635
2026-01-04 22:01:04.67	34.98	10.59	-48.2	-50.7	14.1	3.80e-06	0	52	0	193986560	59	4729
2026-01-04 22:01:05.66	35.11	10.64	-48.3	-50.8	14.1	4.50e-06	0	52	0	196083712	59	4798
2026-01-04 22:01:06.65	35.25	10.70	-48.3	-50.8	14.0	3.80e-06	0	52	0	198180864	59	4780
2026-01-04 22:01:07.64	35.39	10.75	-48.4	-51.0	13.8	1.50e-06	0	53	0	199229440	59	4923
2026-01-04 22:01:08.63	35.53	10.81	-48.4	-51.0	13.8	4.50e-06	0	53	0	201326592	59	4889
2026-01-04 22:01:09.62	35.67	10.87	-48.2	-50.6	14.2	3.00e-06	0	53	0	203423744	59	4701
2026-01-04 22:01:10.60	35.81	10.92	-48.1	-50.5	14.4	7.00e-07	0	53	0	205520896	59	4609
2026-01-04 22:01:11.59	35.95	10.98	-48.0	-50.4	14.5	0.00e+00	0	53	0	206569472	59	4547
2026-01-04 22:01:12.57	36.09	11.04	-48.0	-50.3	14.5	7.00e-07	0	53	0	208666624	59	4514
2026-01-04 22:01:13.56	36.24	11.09	-48.0	-50.3	14.5	7.00e-07	0	53	0	210763776	59	4538
2026-01-04 22:01:14.55	36.38	11.15	-47.9	-50.3	14.5	0.00e+00	0	53	0	212860928	59	4504
2026-01-04 22:01:15.54	36.52	11.21	-47.9	-50.1	14.8	0.00e+00	0	53	0	214958080	58	4684
2026-01-04 22:01:16.52	36.66	11.26	-47.8	-50.0	14.8	0.00e+00	0	53	0	216006656	58	4650
2026-01-04 22:01:17.51	36.81	11.32	-47.8	-50.0	14.9	0.00e+00	0	53	0	218103808	58	4631
2026-01-04 22:01:18.51	36.95	11.37	-47.8	-50.1	14.8	0.00e+00	0	53	0	220200960	58	4653
2026-01-04 22:01:19.50	37.10	11.43	-47.9	-50.2	14.7	0.00e+00	0	53	0	222298112	58	4736
2026-01-04 22:01:20.48	37.24	11.49	-47.9	-50.1	14.8	7.00e-07	0	53	0	223346688	58	4694
2026-01-04 22:01:21.47	37.39	11.54	-47.9	-50.1	14.8	0.00e+00	0	53	0	225443840	58	4653
2026-01-04 22:01:22.46	37.54	11.60	-47.7	-49.9	15.0	0.00e+00	0	53	0	227540992	58	4563
2026-01-04 22:01:23.45	37.69	11.65	-47.8	-50.0	14.9	0.00e+00	0	53	0	229638144	58	4607
2026-01-04 22:01:24.44	37.83	11.71	-47.8	-50.0	14.9	0.00e+00	0	53	0	230686720	58	4602
2026-01-04 22:01:25.42	37.98	11.77	-47.9	-50.0	14.8	0.00e+00	0	53	0	232783872	58	4651
2026-01-04 22:01:26.41	38.13	11.82	-47.9	-50.1	14.8	0.00e+00	0	53	0	234881024	58	4676
2026-01-04 22:01:27.40	38.28	11.88	-47.8	-50.0	14.9	0.00e+00	0	53	0	236978176	58	4599
2026-01-04 22:01:28.38	38.43	11.93	-47.6	-49.7	15.2	0.00e+00	0	53	0	239075328	58	4491
2026-01-04 22:01:29.36	38.58	11.99	-47.6	-49.8	15.1	0.00e+00	0	53	0	240123904	58	4503
2026-01-04 22:01:30.35	38.73	12.04	-47.6	-49.7	15.1	0.00e+00	0	53	0	242221056	58	4473
2026-01-04 22:01:31.34	38.88	12.10	-47.7	-49.8	15.1	0.00e+00	0	53	0	244318208	58	4516
2026-01-04 22:01:32.33	39.04	12.15	-47.8	-49.9	14.9	0.00e+00	0	53	0	246415360	58	4592
2026-01-04 22:01:33.32	39.19	12.21	-47.6	-49.6	15.3	7.00e-07	0	53	0	247463936	58	4404
2026-01-04 22:01:34.31	39.34	12.27	-47.5	-49.5	15.5	0.00e+00	0	53	0	249561088	58	4362
2026-01-04 22:01:35.31	39.50	12.32	-47.3	-49.2	15.7	0.00e+00	0	53	0	251658240	57	4485
2026-01-04 22:01:36.30	39.65	12.38	-47.3	-49.2	15.7	0.00e+00	0	53	0	253755392	57	4456
2026-01-04 22:01:37.29	39.81	12.43	-47.4	-49.3	15.6	0.00e+00	0	53	0	254803968	57	4502
2026-01-04 22:01:38.27	39.96	12.49	-47.5	-49.4	15.5	0.00e+00	0	53	0	256901120	57	4585
2026-01-04 22:01:39.27	40.12	12.54	-47.6	-49.5	15.3	0.00e+00	0	53	0	258998272	57	4650
2026-01-04 22:01:40.26	40.28	12.60	-47.5	-49.5	15.4	0.00e+00	0	53	0	261095424	57	4631
2026-01-04 22:01:41.24	40.43	12.65	-47.7	-49.8	15.2	0.00e+00	0	53	0	263192576	57	4778
2026-01-04 22:01:42.23	40.59	12.71	-47.7	-49.9	15.0	0.00e+00	0	53	0	264241152	57	4821
2026-01-04 22:01:43.21	40.75	12.76	-47.6	-49.6	15.3	0.00e+00	0	53	0	266338304	57	4690
2026-01-04 22:01:44.21	40.91	12.82	-47.5	-49.4	15.5	0.00e+00	0	53	0	268435456	57	4577
2026-01-04 22:01:45.19	41.07	12.87	-47.4	-49.3	15.6	0.00e+00	0	53	0	270532608	57	4539
2026-01-04 22:01:46.18	41.23	12.93	-47.3	-49.3	15.6	0.00e+00	0	54	0	271581184	57	4515
2026-01-04 22:01:47.16	41.39	12.98	-47.3	-49.2	15.7	0.00e+00	0	54	0	273678336	57	4473
2026-01-04 22:01:48.15	41.55	13.04	-47.4	-49.4	15.5	0.00e+00	0	53	0	275775488	57	4577
2026-01-04 22:01:49.13	41.71	13.09	-47.6	-49.7	15.2	0.00e+00	0	54	0	277872640	57	4731
2026-01-04 22:01:50.12	41.87	13.14	-47.4	-49.3	15.6	0.00e+00	0	53	0	278921216	57	4544
2026-01-04 22:01:51.11	42.04	13.20	-47.3	-49.1	15.8	0.00e+00	0	53	0	281018368	57	4422
2026-01-04 22:01:52.11	42.20	13.25	-47.2	-49.0	15.9	0.00e+00	0	53	0	283115520	57	4349
2026-01-04 22:01:53.10	42.37	13.31	-47.3	-49.2	15.7	0.00e+00	0	53	0	285212672	57	4448
2026-01-04 22:01:54.09	42.53	13.36	-47.4	-49.3	15.6	0.00e+00	0	53	0	286261248	57	4531
2026-01-04 22:01:55.08	42.70	13.42	-47.4	-49.3	15.6	0.00e+00	0	54	0	288358400	57	4507
2026-01-04 22:01:56.06	42.86	13.47	-47.4	-49.4	15.5	0.00e+00	0	54	0	290455552	57	4569
2026-01-04 22:01:57.05	43.03	13.52	-47.4	-49.2	15.7	0.00e+00	0	54	0	292552704	57	4493
2026-01-04 22:01:58.04	43.20	13.58	-47.3	-49.2	15.7	0.00e+00	0	54	0	294649856	57	4460
2026-01-04 22:01:59.02	43.36	13.63	-47.3	-49.2	15.7	0.00e+00	0	54	0	295698432	57	4470
2026-01-04 22:02:00.00	43.53	13.68	-47.5	-49.4	15.5	0.00e+00	0	54	0	297795584	57	4559
2026-01-04 22:02:01.00	43.70	13.74	-47.8	-49.8	15.1	0.00e+00	0	53	0	299892736	57	4812
2026-01-04 22:02:01.98	43.87	13.79	-47.5	-49.5	15.5	0.00e+00	0	54	0	301989888	57	4614
2026-01-04 22:02:02.98	44.04	13.84	-47.3	-49.2	15.7	0.00e+00	0	54	0	303038464	57	4489
2026-01-04 22:02:03.97	44.21	13.90	-47.2	-49.0	15.9	0.00e+00	0	54	0	305135616	57	4365
2026-01-04 22:02:04.96	44.39	13.95	-47.1	-49.0	15.9	0.00e+00	0	54	0	307232768	57	4371
2026-01-04 22:02:05.95	44.56	14.00	-47.2	-49.1	15.8	0.00e+00	0	54	0	309329920	57	4419
2026-01-04 22:02:06.94	44.73	14.05	-47.2	-49.1	15.9	0.00e+00	0	54	0	310378496	57	4404
2026-01-04 22:02:07.92	44.90	14.11	-47.3	-49.2	15.7	0.00e+00	0	54	0	312475648	57	4467
2026-01-04 22:02:08.91	45.08	14.16	-47.3	-49.2	15.8	0.00e+00	0	54	0	314572800	57	4455
2026-01-04 22:02:09.90	45.25	14.21	-47.3	-49.2	15.7	0.00e+00	0	54	0	316669952	57	4466
2026-01-04 22:02:10.89	45.43	14.26	-47.5	-49.4	15.5	0.00e+00	0	54	0	318767104	57	4590
2026-01-04 22:02:11.88	45.60	14.31	-47.4	-49.3	15.7	0.00e+00	0	54	0	319815680	57	4539
2026-01-04 22:02:12.86	45.78	14.37	-47.4	-49.2	15.7	0.00e+00	0	54	0	321912832	57	4490
2026-01-04 22:02:13.85	45.95	14.42	-47.4	-49.2	15.6	0.00e+00	0	54	0	324009984	57	4490
2026-01-04 22:02:14.84	46.13	14.47	-47.5	-49.5	15.6	0.00e+00	0	54	0	326107136	57	4634
2026-01-04 22:02:15.82	46.31	14.52	-47.5	-49.5	15.4	0.00e+00	0	54	0	327155712	57	4631
2026-01-04 22:02:16.81	46.49	14.57	-47.7	-49.7	15.3	0.00e+00	0	54	0	329252864	57	4759
2026-01-04 22:02:17.79	46.67	14.62	-47.7	-49.8	15.2	0.00e+00	0	54	0	331350016	57	4761
2026-01-04 22:02:18.79	46.85	14.67	-47.8	-50.0	15.0	0.00e+00	0	54	0	333447168	57	4917
2026-01-04 22:02:19.77	47.03	14.72	-47.9	-50.1	14.9	0.00e+00	0	54	0	334495744	57	4935
2026-01-04 22:02:20.77	47.21	14.78	-48.0	-50.2	14.8	0.00e+00	0	54	0	336592896	57	4999
2026-01-04 22:02:21.76	47.39	14.83	-47.9	-50.1	14.8	0.00e+00	0	54	0	338690048	57	4974
2026-01-04 22:02:22.74	47.57	14.88	-47.9	-50.1	14.9	0.00e+00	0	54	0	340787200	57	4944
2026-01-04 22:02:23.73	47.75	14.93	-47.9	-50.1	14.9	0.00e+00	0	54	0	342884352	57	4970
2026-01-04 22:02:24.71	47.94	14.98	-48.0	-50.2	14.8	0.00e+00	0	54	0	343932928	57	4999
2026-01-04 22:02:25.69	48.12	15.03	-48.0	-50.2	14.8	0.00e+00	0	54	0	346030080	57	5036
2026-01-04 22:02:26.68	48.30	15.07	-48.1	-50.2	14.7	0.00e+00	0	54	0	348127232	58	4748
2026-01-04 22:02:27.67	48.49	15.12	-48.2	-50.5	14.4	0.00e+00	0	54	0	350224384	58	4905
2026-01-04 22:02:28.66	48.67	15.17	-48.3	-50.7	14.4	1.50e-06	0	54	0	351272960	58	4985
2026-01-04 22:02:29.64	48.86	15.22	-48.3	-50.6	14.4	0.00e+00	0	54	0	353370112	58	4949
2026-01-04 22:02:30.62	49.05	15.27	-48.4	-50.8	14.3	7.00e-07	0	54	0	355467264	58	5053
2026-01-04 22:02:31.61	49.23	15.32	-48.4	-50.8	14.2	2.20e-06	0	54	0	357564416	58	5093
2026-01-04 22:02:32.59	49.42	15.37	-48.4	-50.9	14.1	2.20e-06	0	54	0	358612992	58	5115
2026-01-04 22:02:33.58	49.61	15.42	-48.5	-51.0	14.0	0.00e+00	0	54	0	360710144	58	5205
2026-01-04 22:02:34.57	49.80	15.46	-48.5	-51.0	14.0	7.00e-07	0	54	0	362807296	59	4918
2026-01-04 22:02:35.56	49.99	15.51	-48.4	-50.9	14.1	7.00e-07	0	54	0	364904448	59	4817
2026-01-04 22:02:36.54	50.18	15.56	-48.4	-50.8	14.2	1.50e-06	0	54	0	365953024	59	4785
2026-01-04 22:02:37.53	50.37	15.61	-48.4	-50.7	14.2	7.00e-07	0	54	0	368050176	59	4759
2026-01-04 22:02:38.51	50.56	15.65	-48.4	-50.8	14.3	7.00e-07	0	54	0	370147328	59	4790
2026-01-04 22:02:39.49	50.75	15.70	-48.5	-51.0	14.1	7.00e-07	0	54	0	372244480	59	4878
2026-01-04 22:02:40.48	50.94	15.75	-48.5	-51.0	13.9	3.00e-06	0	54	0	373293056	59	4904
2026-01-04 22:02:41.46	51.13	15.80	-48.6	-51.2	13.8	0.00e+00	0	54	0	375390208	59	4996
2026-01-04 22:02:42.44	51.33	15.84	-48.7	-51.3	13.7	6.10e-06	0	54	0	377487360	59	5096
2026-01-04 22:02:43.44	51.52	15.89	-48.8	-51.5	13.5	5.30e-06	0	54	0	379584512	59	5177
2026-01-04 22:02:44.44	51.72	15.93	-49.0	-51.8	13.2	2.74e-05	0	54	0	381681664	59	5377
2026-01-04 22:02:45.42	51.92	15.98	-49.0	-51.9	13.2	1.83e-05	0	54	0	382730240	59	5432
2026-01-04 22:02:46.41	52.11	16.03	-49.0	-51.9	13.1	3.50e-05	0	54	0	384827392	60	5105
2026-01-04 22:02:47.40	52.31	16.07	-48.9	-51.8	13.2	1.83e-05	0	55	0	386924544	60	5076
2026-01-04 22:02:48.38	52.50	16.12	-49.0	-51.9	13.1	2.44e-05	0	54	0	389021696	60	5101
2026-01-04 22:02:49.38	52.71	16.16	-49.0	-51.9	13.1	2.13e-05	0	54	0	390070272	60	5141
2026-01-04 22:02:50.37	52.90	16.21	-49.1	-52.1	12.9	4.42e-05	0	54	0	392167424	60	5234
2026-01-04 22:02:51.35	53.10	16.25	-49.2	-52.3	12.6	7.32e-05	0	54	0	394264576	60	5396
2026-01-04 22:02:52.34	53.30	16.29	-49.3	-52.4	12.6	1.17e-04	0	54	0	396361728	60	5418
2026-01-04 22:02:53.32	53.50	16.34	-49.2	-52.3	12.7	8.85e-05	0	55	0	397410304	60	5355
2026-01-04 22:02:54.31	53.70	16.38	-49.3	-52.3	12.6	7.47e-05	0	54	0	399507456	60	5401
2026-01-04 22:02:55.30	53.90	16.43	-49.2	-52.3	12.7	8.62e-05	0	54	0	401604608	60	5369
2026-01-04 22:02:56.30	54.11	16.47	-49.2	-52.2	12.7	6.63e-05	0	55	0	403701760	60	5309
2026-01-04 22:02:57.28	54.31	16.51	-49.1	-52.1	12.9	7.32e-05	0	55	0	404750336	60	5224
2026-01-04 22:02:58.26	54.51	16.55	-49.2	-52.2	12.8	5.34e-05	0	55	0	406847488	60	5292
2026-01-04 22:02:59.24	54.71	16.60	-49.2	-52.3	12.7	1.03e-04	0	55	0	408944640	60	5348
2026-01-04 22:03:00.23	54.92	16.64	-48.9	-51.7	13.2	3.73e-05	0	55	0	411041792	60	5033
2026-01-04 22:03:01.22	55.12	16.68	-48.6	-51.3	13.7	1.06e-05	0	55	0	413138944	60	4776
2026-01-04 22:03:02.21	55.33	16.72	-48.4	-50.9	14.1	3.00e-06	0	55	0	414187520	59	4832
2026-01-04 22:03:03.20	55.54	16.76	-48.2	-50.6	14.4	2.20e-06	0	55	0	416284672	59	4661
2026-01-04 22:03:04.19	55.74	16.80	-48.1	-50.4	14.7	0.00e+00	0	55	0	418381824	59	4578
2026-01-04 22:03:05.17	55.95	16.85	-48.1	-50.3	14.7	0.00e+00	0	54	0	420478976	59	4536
2026-01-04 22:03:06.16	56.16	16.89	-48.1	-50.3	14.7	7.00e-07	0	55	0	421527552	59	4525
2026-01-04 22:03:07.16	56.37	16.93	-48.0	-50.2	14.9	0.00e+00	0	55	0	423624704	59	4458
2026-01-04 22:03:08.14	56.57	16.97	-48.1	-50.4	14.7	0.00e+00	0	55	0	425721856	59	4549
2026-01-04 22:03:09.13	56.78	17.01	-48.3	-50.6	14.4	7.00e-07	0	55	0	427819008	59	4693
2026-01-04 22:03:10.13	57.00	17.05	-48.1	-50.3	14.8	0.00e+00	0	55	0	428867584	59	4516
2026-01-04 22:03:11.11	57.20	17.08	-47.8	-49.9	15.1	0.00e+00	0	55	0	430964736	58	4561
2026-01-04 22:03:12.10	57.42	17.12	-47.7	-49.7	15.4	0.00e+00	0	55	0	433061888	58	4454
2026-01-04 22:03:13.10	57.63	17.16	-47.5	-49.5	15.5	0.00e+00	0	55	0	435159040	58	4388
2026-01-04 22:03:14.08	57.84	17.20	-47.7	-49.7	15.5	0.00e+00	0	55	0	437256192	58	4460
2026-01-04 22:03:15.07	58.05	17.24	-47.4	-49.3	15.7	0.00e+00	0	55	0	438304768	58	4274
2026-01-04 22:03:16.06	58.27	17.27	-47.4	-49.3	15.7	0.00e+00	0	55	0	440401920	57	4536
2026-01-04 22:03:17.05	58.48	17.31	-47.5	-49.5	15.5	0.00e+00	0	55	0	442499072	57	4611
2026-01-04 22:03:18.03	58.69	17.35	-47.7	-49.7	15.3	0.00e+00	0	55	0	444596224	57	4737
2026-01-04 22:03:19.03	58.91	17.38	-47.6	-49.6	15.5	0.00e+00	0	55	0	445644800	57	4671
2026-01-04 22:03:20.01	59.12	17.42	-47.8	-49.9	15.2	0.00e+00	0	55	0	447741952	57	4829
2026-01-04 22:03:21.00	59.34	17.46	-47.7	-49.8	15.3	0.00e+00	0	55	0	449839104	57	4778
2026-01-04 22:03:21.99	59.55	17.49	-47.8	-49.9	15.1	0.00e+00	0	55	0	451936256	57	4821
2026-01-04 22:03:22.98	59.77	17.53	-47.8	-49.9	15.1	0.00e+00	0	55	0	452984832	57	4851
2026-01-04 22:03:23.96	59.99	17.56	-47.8	-49.9	15.1	0.00e+00	0	55	0	455081984	57	4857
2026-01-04 22:03:24.95	60.21	17.60	-47.8	-49.9	15.1	0.00e+00	0	55	0	457179136	57	4845
2026-01-04 22:03:25.94	60.42	17.63	-47.8	-49.9	15.2	7.00e-07	0	55	0	459276288	57	4820
2026-01-04 22:03:26.94	60.64	17.66	-47.7	-49.6	15.4	0.00e+00	0	55	0	461373440	57	4703
2026-01-04 22:03:27.93	60.86	17.70	-47.7	-49.7	15.3	0.00e+00	0	55	0	462422016	57	4740
2026-01-04 22:03:28.92	61.08	17.73	-47.6	-49.6	15.4	7.00e-07	0	55	0	464519168	57	4696
2026-01-04 22:03:29.91	61.30	17.76	-47.7	-49.8	15.2	0.00e+00	0	55	0	466616320	57	4760
2026-01-04 22:03:30.90	61.52	17.80	-47.8	-49.9	15.1	0.00e+00	0	55	0	468713472	57	4847
2026-01-04 22:03:31.88	61.74	17.83	-47.9	-50.0	15.0	0.00e+00	0	55	0	469762048	57	4913
2026-01-04 22:03:32.87	61.97	17.86	-47.9	-50.1	14.9	0.00e+00	0	55	0	471859200	57	4948
2026-01-04 22:03:33.86	62.19	17.89	-47.9	-50.1	15.0	0.00e+00	0	55	0	473956352	57	4938
2026-01-04 22:03:34.84	62.41	17.92	-48.0	-50.2	14.8	0.00e+00	0	55	0	476053504	57	5007
2026-01-04 22:03:35.84	62.63	17.95	-47.8	-49.9	15.1	0.00e+00	0	55	0	477102080	57	4852
2026-01-04 22:03:36.83	62.86	17.98	-47.7	-49.7	15.3	0.00e+00	0	55	0	479199232	57	4729
2026-01-04 22:03:37.81	63.08	18.01	-47.7	-49.6	15.4	0.00e+00	0	55	0	481296384	57	4703
2026-01-04 22:03:38.80	63.30	18.04	-47.6	-49.7	15.4	0.00e+00	0	55	0	483393536	57	4716
2026-01-04 22:03:39.79	63.53	18.07	-47.6	-49.6	15.4	0.00e+00	0	55	0	484442112	57	4664
2026-01-04 22:03:40.78	63.75	18.10	-47.8	-49.8	15.2	0.00e+00	0	55	0	486539264	57	4805
2026-01-04 22:03:41.76	63.98	18.13	-47.9	-50.0	15.0	0.00e+00	0	55	0	488636416	57	4878
2026-01-04 22:03:42.75	64.20	18.15	-48.0	-50.2	14.9	0.00e+00	0	55	0	490733568	57	4999
2026-01-04 22:03:43.74	64.43	18.18	-47.9	-50.1	14.9	0.00e+00	0	55	0	492830720	57	4964
2026-01-04 22:03:44.72	64.65	18.21	-48.0	-50.2	14.9	0.00e+00	0	55	0	493879296	57	5013
2026-01-04 22:03:45.71	64.88	18.23	-48.0	-50.2	14.8	0.00e+00	0	55	0	495976448	57	5021
2026-01-04 22:03:46.70	65.11	18.26	-48.0	-50.2	14.8	7.00e-07	0	55	0	498073600	57	5025
2026-01-04 22:03:47.68	65.33	18.29	-48.0	-50.4	14.7	0.00e+00	0	55	0	500170752	58	4832
2026-01-04 22:03:48.67	65.56	18.31	-48.0	-50.2	14.8	0.00e+00	0	55	0	501219328	58	4749
2026-01-04 22:03:49.65	65.79	18.34	-47.8	-49.9	15.1	0.00e+00	0	55	0	503316480	58	4575
2026-01-04 22:03:50.64	66.02	18.36	-47.6	-49.6	15.3	0.00e+00	0	55	0	505413632	58	4440
2026-01-04 22:03:51.61	66.24	18.38	-47.7	-49.8	15.3	0.00e+00	0	55	0	507510784	58	4496
2026-01-04 22:03:52.60	66.47	18.41	-47.6	-49.7	15.4	0.00e+00	0	55	0	508559360	58	4467
2026-01-04 22:03:53.59	66.70	18.43	-47.7	-49.8	15.3	0.00e+00	0	55	0	510656512	58	4495
2026-01-04 22:03:54.58	66.93	18.45	-47.8	-49.9	15.2	0.00e+00	0	55	0	512753664	58	4552
2026-01-04 22:03:55.57	67.16	18.48	-47.7	-49.8	15.3	0.00e+00	0	55	0	514850816	58	4530
2026-01-04 22:03:56.56	67.39	18.50	-47.8	-49.8	15.3	0.00e+00	0	55	0	516947968	58	4541
2026-01-04 22:03:57.55	67.63	18.52	-47.7	-49.8	15.2	0.00e+00	0	55	0	517996544	58	4529
2026-01-04 22:03:58.54	67.86	18.54	-47.9	-50.0	15.0	0.00e+00	0	55	0	520093696	58	4633
2026-01-04 22:03:59.53	68.09	18.56	-47.9	-50.0	15.0	0.00e+00	0	55	0	522190848	58	4633
2026-01-04 22:04:00.52	68.32	18.58	-48.0	-50.1	14.9	7.00e-07	0	55	0	524288000	58	4703
2026-01-04 22:04:01.51	68.55	18.60	-48.0	-50.2	14.8	7.00e-07	0	55	0	525336576	58	4708
2026-01-04 22:04:02.49	68.79	18.62	-47.9	-50.0	15.0	0.00e+00	0	55	0	527433728	58	4642
2026-01-04 22:04:03.48	69.02	18.64	-47.9	-50.0	15.1	0.00e+00	0	55	0	529530880	58	4609
2026-01-04 22:04:04.47	69.25	18.66	-47.9	-50.1	15.0	0.00e+00	0	55	0	531628032	58	4674
2026-01-04 22:04:05.46	69.49	18.68	-48.0	-50.1	14.9	0.00e+00	0	55	0	532676608	58	4678
2026-01-04 22:04:06.44	69.72	18.69	-47.9	-50.1	15.0	0.00e+00	0	55	0	534773760	58	4674
2026-01-04 22:04:07.43	69.95	18.71	-48.1	-50.2	14.8	0.00e+00	0	55	0	536870912	58	4751
2026-01-04 22:04:08.41	70.18	18.73	-48.1	-50.3	14.8	7.00e-07	0	55	0	538968064	58	4777
2026-01-04 22:04:09.40	70.42	18.74	-48.1	-50.4	14.7	0.00e+00	0	55	0	540016640	58	4817
2026-01-04 22:04:10.39	70.65	18.76	-48.1	-50.4	14.7	7.00e-07	0	55	0	542113792	58	4824
2026-01-04 22:04:11.37	70.89	18.78	-48.1	-50.4	14.7	0.00e+00	0	55	0	544210944	58	4816
2026-01-04 22:04:12.36	71.12	18.79	-48.2	-50.5	14.6	1.50e-06	0	55	0	546308096	58	4898
2026-01-04 22:04:13.35	71.36	18.80	-48.3	-50.7	14.4	0.00e+00	0	55	0	547356672	58	4994
2026-01-04 22:04:14.34	71.60	18.82	-48.4	-50.8	14.2	2.20e-06	0	55	0	549453824	58	5087
2026-01-04 22:04:15.33	71.83	18.83	-48.2	-50.5	14.5	0.00e+00	0	55	0	551550976	58	4905
2026-01-04 22:04:16.31	72.07	18.84	-48.1	-50.3	14.7	0.00e+00	0	55	0	553648128	58	4803
2026-01-04 22:04:17.30	72.30	18.86	-47.9	-50.0	15.1	0.00e+00	0	55	0	555745280	58	4632
2026-01-04 22:04:18.30	72.54	18.87	-47.9	-49.9	15.1	0.00e+00	0	55	0	556793856	58	4588
2026-01-04 22:04:19.29	72.78	18.88	-47.8	-50.0	15.1	7.00e-07	0	55	0	558891008	58	4601
2026-01-04 22:04:20.28	73.02	18.89	-47.7	-49.8	15.2	0.00e+00	0	55	0	560988160	58	4525
2026-01-04 22:04:21.28	73.26	18.90	-47.8	-49.8	15.2	0.00e+00	0	55	0	563085312	58	4525
2026-01-04 22:04:22.27	73.49	18.91	-47.8	-50.0	15.1	0.00e+00	0	55	0	564133888	58	4611
2026-01-04 22:04:23.26	73.73	18.92	-48.0	-50.2	14.9	0.00e+00	0	55	0	566231040	58	4729
2026-01-04 22:04:24.25	73.97	18.93	-48.1	-50.4	14.7	1.50e-06	0	55	0	568328192	58	4848
2026-01-04 22:04:25.23	74.20	18.94	-48.4	-50.7	14.4	0.00e+00	0	55	0	570425344	58	5005
2026-01-04 22:04:26.22	74.44	18.95	-48.3	-50.7	14.3	0.00e+00	0	55	0	572522496	58	5016
2026-01-04 22:04:27.20	74.68	18.96	-48.4	-50.8	14.2	1.50e-06	0	55	0	573571072	58	5086
2026-01-04 22:04:28.18	74.91	18.96	-48.4	-50.8	14.3	7.00e-07	0	55	0	575668224	58	5056
2026-01-04 22:04:29.17	75.15	18.97	-48.3	-50.6	14.5	0.00e+00	0	55	0	577765376	58	4955
2026-01-04 22:04:30.16	75.39	18.98	-48.3	-50.6	14.5	7.00e-07	0	55	0	579862528	58	4948
2026-01-04 22:04:31.15	75.63	18.98	-48.3	-50.6	14.5	0.00e+00	0	55	0	580911104	58	4972
2026-01-04 22:04:32.14	75.87	18.99	-48.4	-50.8	14.2	1.50e-06	0	55	0	583008256	58	5067
2026-01-04 22:04:33.13	76.11	18.99	-48.4	-50.8	14.3	0.00e+00	0	55	0	585105408	58	5052
2026-01-04 22:04:34.11	76.34	19.00	-48.4	-50.8	14.3	0.00e+00	0	55	0	587202560	58	5076
2026-01-04 22:04:35.10	76.58	19.00	-48.5	-51.0	14.1	0.00e+00	0	55	0	588251136	58	5178
2026-01-04 22:04:36.09	76.82	19.00	-48.6	-51.1	13.9	3.80e-06	0	55	0	590348288	59	4973
2026-01-04 22:04:37.08	77.06	19.01	-48.7	-51.3	13.8	3.80e-06	0	55	0	592445440	59	5061
2026-01-04 22:04:38.07	77.30	19.01	-48.7	-51.4	13.6	5.30e-06	0	55	0	594542592	59	5132
2026-01-04 22:04:39.05	77.54	19.01	-48.6	-51.1	13.9	3.00e-06	0	55	0	595591168	59	4951
2026-01-04 22:04:40.04	77.78	19.01	-48.3	-50.8	14.2	3.00e-06	0	55	0	597688320	59	4774
2026-01-04 22:04:41.03	78.02	19.02	-48.2	-50.5	14.5	0.00e+00	0	55	0	599785472	59	4641
2026-01-04 22:04:42.02	78.25	19.02	-48.1	-50.4	14.7	0.00e+00	0	55	0	601882624	59	4554
2026-01-04 22:04:43.00	78.49	19.02	-48.1	-50.3	14.8	0.00e+00	0	55	0	603979776	59	4529
2026-01-04 22:04:43.99	78.73	19.02	-48.1	-50.3	14.7	0.00e+00	0	55	0	605028352	59	4537
2026-01-04 22:04:44.98	78.97	19.01	-47.8	-49.9	15.1	7.00e-07	0	55	0	607125504	58	4582
2026-01-04 22:04:45.98	79.21	19.01	-47.9	-50.1	15.1	0.00e+00	0	55	0	609222656	58	4656
2026-01-04 22:04:46.96	79.45	19.01	-47.9	-50.1	15.0	0.00e+00	0	55	0	611319808	58	4689
2026-01-04 22:04:47.96	79.69	19.01	-48.1	-50.3	14.8	0.00e+00	0	55	0	612368384	58	4812
2026-01-04 22:04:48.94	79.93	19.01	-48.0	-50.1	15.0	0.00e+00	0	55	0	614465536	58	4679
2026-01-04 22:04:49.93	80.17	19.00	-48.1	-50.3	14.8	0.00e+00	0	55	0	616562688	58	4798
2026-01-04 22:04:50.92	80.41	19.00	-48.4	-50.8	14.3	0.00e+00	0	55	0	618659840	58	5050
2026-01-04 22:04:51.91	80.64	18.99	-48.5	-51.0	14.1	7.00e-07	0	55	0	620756992	58	5177
2026-01-04 22:04:52.90	80.88	18.99	-48.5	-51.0	14.0	0.00e+00	0	55	0	621805568	59	4874
2026-01-04 22:04:53.88	81.12	18.98	-48.5	-51.0	14.1	3.00e-06	0	55	0	623902720	59	4898
2026-01-04 22:04:54.88	81.36	18.98	-48.6	-51.1	13.9	0.00e+00	0	55	0	625999872	59	4972
2026-01-04 22:04:55.87	81.60	18.97	-48.7	-51.3	13.8	5.30e-06	0	55	0	628097024	59	5056
2026-01-04 22:04:56.86	81.84	18.97	-48.8	-51.5	13.5	5.30e-06	0	55	0	629145600	59	5162
2026-01-04 22:04:57.84	82.07	18.96	-48.6	-51.1	13.9	7.60e-06	0	55	0	631242752	59	4983
2026-01-04 22:04:58.83	82.31	18.95	-48.4	-50.9	14.2	3.80e-06	0	55	0	633339904	59	4843
2026-01-04 22:04:59.81	82.55	18.94	-48.3	-50.7	14.3	7.00e-07	0	55	0	635437056	59	4745
2026-01-04 22:05:00.80	82.79	18.93	-48.3	-50.6	14.5	0.00e+00	0	55	0	636485632	59	4690
2026-01-04 22:05:01.79	83.03	18.92	-48.1	-50.4	14.7	7.00e-07	0	55	0	638582784	59	4556
2026-01-04 22:05:02.77	83.26	18.92	-48.1	-50.3	14.7	7.00e-07	0	56	0	640679936	59	4498
2026-01-04 22:05:03.75	83.50	18.91	-47.9	-50.0	15.0	0.00e+00	0	55	0	642777088	59	4374
2026-01-04 22:05:04.75	83.74	18.89	-47.8	-49.9	15.2	0.00e+00	0	55	0	643825664	58	4554
2026-01-04 22:05:05.73	83.97	18.88	-47.8	-49.9	15.1	0.00e+00	0	55	0	645922816	58	4587
2026-01-04 22:05:06.73	84.21	18.87	-47.9	-50.1	14.9	0.00e+00	0	55	0	648019968	58	4691
2026-01-04 22:05:07.72	84.45	18.86	-47.9	-50.0	15.1	0.00e+00	0	55	0	650117120	58	4603
2026-01-04 22:05:08.71	84.68	18.85	-47.6	-49.5	15.5	0.00e+00	0	55	0	652214272	58	4383
2026-01-04 22:05:09.70	84.92	18.84	-47.4	-49.3	15.7	0.00e+00	0	55	0	653262848	58	4273
2026-01-04 22:05:10.69	85.16	18.82	-47.3	-49.2	15.8	0.00e+00	0	55	0	655360000	57	4493
2026-01-04 22:05:11.68	85.39	18.81	-47.5	-49.5	15.6	0.00e+00	0	55	0	657457152	57	4603
2026-01-04 22:05:12.67	85.63	18.79	-47.6	-49.7	15.4	0.00e+00	0	55	0	659554304	57	4713
2026-01-04 22:05:13.66	85.87	18.78	-47.8	-49.9	15.1	0.00e+00	0	55	0	660602880	57	4858
2026-01-04 22:05:14.66	86.10	18.76	-47.9	-50.0	15.0	0.00e+00	0	55	0	662700032	57	4924
2026-01-04 22:05:15.65	86.34	18.75	-47.9	-50.0	15.1	0.00e+00	0	55	0	664797184	57	4878
2026-01-04 22:05:16.64	86.58	18.73	-47.7	-49.9	15.2	0.00e+00	0	55	0	666894336	57	4830
2026-01-04 22:05:17.63	86.81	18.71	-47.9	-50.0	15.1	0.00e+00	0	56	0	667942912	57	4893
2026-01-04 22:05:18.61	87.04	18.70	-47.8	-50.0	15.1	0.00e+00	0	56	0	670040064	57	4885
2026-01-04 22:05:19.60	87.28	18.68	-47.9	-50.0	15.1	0.00e+00	0	55	0	672137216	57	4896
2026-01-04 22:05:20.58	87.51	18.66	-47.8	-50.0	15.1	0.00e+00	0	55	0	674234368	57	4880
2026-01-04 22:05:21.57	87.74	18.64	-47.8	-49.9	15.2	0.00e+00	0	55	0	676331520	57	4841
2026-01-04 22:05:22.56	87.98	18.63	-47.9	-50.0	15.1	0.00e+00	0	55	0	677380096	57	4921
2026-01-04 22:05:23.55	88.21	18.61	-48.0	-50.2	14.9	0.00e+00	0	55	0	679477248	57	4996
2026-01-04 22:05:24.54	88.44	18.59	-47.9	-50.0	15.0	0.00e+00	0	55	0	681574400	58	4623
2026-01-04 22:05:25.53	88.68	18.57	-47.8	-49.9	15.2	0.00e+00	0	55	0	683671552	58	4574
2026-01-04 22:05:26.52	88.91	18.55	-47.9	-50.0	15.1	0.00e+00	0	55	0	684720128	58	4601
2026-01-04 22:05:27.51	89.14	18.52	-47.6	-49.5	15.6	0.00e+00	0	55	0	686817280	58	4358
2026-01-04 22:05:28.48	89.37	18.50	-47.4	-49.4	15.7	0.00e+00	0	55	0	688914432	58	4306
2026-01-04 22:05:29.46	89.60	18.48	-47.6	-49.6	15.6	0.00e+00	0	55	0	691011584	58	4407
2026-01-04 22:05:30.44	89.83	18.46	-47.6	-49.7	15.4	0.00e+00	0	55	0	692060160	58	4449
2026-01-04 22:05:31.43	90.06	18.44	-47.8	-49.9	15.2	0.00e+00	0	55	0	694157312	58	4592
2026-01-04 22:05:32.42	90.29	18.41	-48.0	-50.2	14.8	0.00e+00	0	55	0	696254464	58	4736
2026-01-04 22:05:33.41	90.52	18.39	-48.0	-50.2	14.9	0.00e+00	0	56	0	698351616	58	4717
2026-01-04 22:05:34.41	90.75	18.37	-48.1	-50.4	14.7	0.00e+00	0	55	0	700448768	58	4837
2026-01-04 22:05:35.39	90.98	18.34	-47.9	-50.1	15.0	0.00e+00	0	55	0	701497344	58	4658
2026-01-04 22:05:36.38	91.21	18.32	-47.7	-49.8	15.3	0.00e+00	0	56	0	703594496	58	4500
2026-01-04 22:05:37.36	91.43	18.29	-47.5	-49.5	15.6	0.00e+00	0	56	0	705691648	58	4359
2026-01-04 22:05:38.35	91.66	18.27	-47.4	-49.3	15.7	0.00e+00	0	56	0	707788800	58	4280
2026-01-04 22:05:39.35	91.89	18.24	-47.4	-49.2	15.8	0.00e+00	0	55	0	708837376	57	4489
2026-01-04 22:05:40.34	92.12	18.21	-47.3	-49.1	15.9	0.00e+00	0	55	0	710934528	57	4419
2026-01-04 22:05:41.33	92.35	18.19	-47.1	-48.9	16.1	0.00e+00	0	55	0	713031680	57	4339
2026-01-04 22:05:42.32	92.57	18.16	-47.0	-48.7	16.3	0.00e+00	0	55	0	715128832	57	4224
2026-01-04 22:05:43.31	92.80	18.13	-46.8	-48.5	16.5	0.00e+00	0	55	0	716177408	56	4369
2026-01-04 22:05:44.29	93.02	18.10	-46.6	-48.2	16.8	0.00e+00	0	55	0	718274560	56	4222
2026-01-04 22:05:45.28	93.25	18.07	-46.6	-48.2	16.8	0.00e+00	0	55	0	720371712	56	4230
2026-01-04 22:05:46.27	93.47	18.05	-46.6	-48.2	16.8	0.00e+00	0	55	0	722468864	56	4236
2026-01-04 22:05:47.26	93.70	18.02	-46.7	-48.3	16.7	0.00e+00	0	55	0	723517440	56	4279
2026-01-04 22:05:48.25	93.92	17.99	-46.8	-48.5	16.6	0.00e+00	0	55	0	725614592	56	4345
2026-01-04 22:05:49.24	94.15	17.96	-46.8	-48.4	16.6	0.00e+00	0	55	0	727711744	56	4339
2026-01-04 22:05:50.24	94.37	17.92	-47.0	-48.6	16.4	0.00e+00	0	56	0	729808896	56	4440
2026-01-04 22:05:51.23	94.60	17.89	-47.1	-48.9	16.2	0.00e+00	0	56	0	731906048	56	4566
2026-01-04 22:05:52.22	94.82	17.86	-47.1	-48.9	16.2	0.00e+00	0	55	0	732954624	56	4553
2026-01-04 22:05:53.21	95.04	17.83	-47.2	-49.0	16.0	0.00e+00	0	56	0	735051776	56	4619
2026-01-04 22:05:54.20	95.26	17.80	-47.0	-48.7	16.4	0.00e+00	0	55	0	737148928	56	4464
2026-01-04 22:05:55.19	95.49	17.77	-46.8	-48.5	16.5	0.00e+00	0	56	0	739246080	56	4362
2026-01-04 22:05:56.18	95.71	17.73	-46.7	-48.3	16.7	0.00e+00	0	55	0	740294656	56	4274
2026-01-04 22:05:57.16	95.92	17.70	-46.7	-48.3	16.7	0.00e+00	0	56	0	742391808	56	4264
2026-01-04 22:05:58.15	96.14	17.67	-46.6	-48.2	16.9	0.00e+00	0	55	0	744488960	56	4197
2026-01-04 22:05:59.14	96.36	17.63	-46.6	-48.1	16.9	0.00e+00	0	56	0	746586112	56	4172
2026-01-04 22:06:00.13	96.58	17.60	-46.6	-48.2	16.9	0.00e+00	0	55	0	747634688	56	4195
2026-01-04 22:06:01.11	96.80	17.57	-46.7	-48.4	16.7	0.00e+00	0	55	0	749731840	56	4294
2026-01-04 22:06:02.10	97.02	17.53	-46.9	-48.7	16.4	0.00e+00	0	56	0	751828992	56	4448
2026-01-04 22:06:03.07	97.23	17.50	-46.6	-48.2	16.8	0.00e+00	0	56	0	753926144	56	4228
2026-01-04 22:06:04.06	97.45	17.46	-46.4	-48.0	17.1	0.00e+00	0	56	0	756023296	56	4110
2026-01-04 22:06:05.05	97.66	17.42	-46.3	-47.8	17.2	0.00e+00	0	56	0	757071872	55	4252
2026-01-04 22:06:06.04	97.88	17.39	-46.3	-47.7	17.2	0.00e+00	0	56	0	759169024	55	4238
2026-01-04 22:06:07.03	98.10	17.35	-46.4	-47.9	17.0	0.00e+00	0	56	0	761266176	55	4329
2026-01-04 22:06:08.02	98.31	17.31	-46.4	-48.0	16.9	0.00e+00	0	56	0	763363328	55	4362
2026-01-04 22:06:09.01	98.53	17.28	-46.6	-48.2	16.8	0.00e+00	0	55	0	764411904	55	4462
2026-01-04 22:06:09.99	98.74	17.24	-46.7	-48.3	16.5	0.00e+00	0	55	0	766509056	55	4545
2026-01-04 22:06:10.98	98.95	17.20	-46.6	-48.2	16.7	0.00e+00	0	56	0	768606208	55	4462
2026-01-04 22:06:11.97	99.16	17.16	-46.6	-48.1	16.8	0.00e+00	0	56	0	770703360	55	4436
2026-01-04 22:06:12.97	99.38	17.13	-46.6	-48.3	16.7	0.00e+00	0	55	0	771751936	55	4507
2026-01-04 22:06:13.96	99.59	17.09	-46.9	-48.6	16.3	0.00e+00	0	55	0	773849088	55	4683
2026-01-04 22:06:14.95	99.80	17.05	-46.7	-48.4	16.5	0.00e+00	0	56	0	775946240	55	4577
2026-01-04 22:06:15.94	100.01	17.01	-46.9	-48.6	16.4	0.00e+00	0	55	0	778043392	55	4657
2026-01-04 22:06:16.93	100.22	16.97	-47.0	-48.8	16.2	0.00e+00	0	55	0	780140544	55	4770
2026-01-04 22:06:17.92	100.43	16.93	-46.8	-48.5	16.4	0.00e+00	0	56	0	781189120	55	4624
2026-01-04 22:06:18.91	100.64	16.89	-46.7	-48.3	16.6	0.00e+00	0	56	0	783286272	55	4534
2026-01-04 22:06:19.89	100.85	16.85	-46.6	-48.3	16.6	0.00e+00	0	56	0	785383424	55	4508
2026-01-04 22:06:20.88	101.06	16.81	-46.9	-48.6	16.3	0.00e+00	0	55	0	787480576	55	4700
2026-01-04 22:06:21.88	101.27	16.76	-47.1	-48.9	16.1	0.00e+00	0	56	0	788529152	55	4817
2026-01-04 22:06:22.87	101.47	16.72	-47.4	-49.3	15.7	0.00e+00	0	56	0	790626304	56	4782
2026-01-04 22:06:23.86	101.68	16.68	-47.4	-49.4	15.6	0.00e+00	0	56	0	792723456	56	4839
2026-01-04 22:06:24.84	101.88	16.64	-47.6	-49.5	15.6	0.00e+00	0	55	0	794820608	56	4897
2026-01-04 22:06:25.84	102.09	16.60	-47.7	-49.7	15.3	7.00e-07	0	56	0	795869184	57	4722
2026-01-04 22:06:26.84	102.30	16.55	-47.6	-49.6	15.4	0.00e+00	0	56	0	797966336	57	4684
2026-01-04 22:06:27.82	102.50	16.51	-47.8	-49.8	15.2	0.00e+00	0	56	0	800063488	57	4808
2026-01-04 22:06:28.81	102.70	16.47	-47.7	-49.7	15.3	0.00e+00	0	56	0	802160640	57	4749
2026-01-04 22:06:29.79	102.91	16.43	-47.8	-49.9	15.1	0.00e+00	0	56	0	803209216	57	4857
2026-01-04 22:06:30.77	103.11	16.38	-47.7	-49.8	15.2	0.00e+00	0	56	0	805306368	57	4807
2026-01-04 22:06:31.76	103.31	16.34	-47.6	-49.7	15.3	0.00e+00	0	56	0	807403520	57	4738
2026-01-04 22:06:32.75	103.51	16.29	-47.7	-49.8	15.2	0.00e+00	0	56	0	809500672	57	4782
2026-01-04 22:06:33.74	103.71	16.25	-47.8	-49.9	15.1	0.00e+00	0	56	0	811597824	57	4852
2026-01-04 22:06:34.72	103.91	16.20	-47.9	-50.0	15.1	0.00e+00	0	56	0	812646400	57	4887
2026-01-04 22:06:35.71	104.11	16.16	-47.7	-49.8	15.2	0.00e+00	0	55	0	814743552	57	4780
2026-01-04 22:06:36.70	104.31	16.11	-47.6	-49.6	15.4	0.00e+00	0	56	0	816840704	57	4684
2026-01-04 22:06:37.69	104.51	16.07	-47.6	-49.7	15.4	0.00e+00	0	56	0	818937856	57	4718
2026-01-04 22:06:38.68	104.70	16.02	-47.6	-49.6	15.4	0.00e+00	0	56	0	819986432	57	4698
2026-01-04 22:06:39.67	104.90	15.98	-47.7	-49.8	15.2	0.00e+00	0	56	0	822083584	57	4763
2026-01-04 22:06:40.66	105.10	15.93	-47.9	-50.0	15.0	0.00e+00	0	56	0	824180736	57	4906
2026-01-04 22:06:41.64	105.29	15.89	-47.9	-50.0	15.0	0.00e+00	0	56	0	826277888	57	4926
2026-01-04 22:06:42.62	105.49	15.84	-48.1	-50.4	14.7	0.00e+00	0	56	0	827326464	58	4843
2026-01-04 22:06:43.62	105.68	15.79	-48.1	-50.4	14.6	0.00e+00	0	56	0	829423616	58	4841
2026-01-04 22:06:44.61	105.88	15.75	-48.2	-50.4	14.5	0.00e+00	0	56	0	831520768	58	4867
2026-01-04 22:06:45.60	106.07	15.70	-48.2	-50.5	14.5	7.00e-07	0	56	0	833617920	58	4887
2026-01-04 22:06:46.59	106.26	15.65	-48.0	-50.1	14.9	0.00e+00	0	55	0	835715072	58	4704
2026-01-04 22:06:47.58	106.46	15.60	-47.9	-50.0	15.0	0.00e+00	0	56	0	836763648	58	4607
2026-01-04 22:06:48.57	106.65	15.55	-47.8	-49.9	15.1	0.00e+00	0	56	0	838860800	58	4590
2026-01-04 22:06:49.57	106.84	15.51	-47.8	-49.9	15.1	0.00e+00	0	56	0	840957952	58	4579
2026-01-04 22:06:50.56	107.03	15.46	-47.9	-50.1	15.0	0.00e+00	0	56	0	843055104	58	4653
2026-01-04 22:06:51.55	107.22	15.41	-48.1	-50.3	14.7	0.00e+00	0	56	0	844103680	58	4809
2026-01-04 22:06:52.54	107.41	15.36	-48.1	-50.4	14.6	0.00e+00	0	56	0	846200832	58	4829
2026-01-04 22:06:53.53	107.60	15.31	-48.0	-50.1	14.9	0.00e+00	0	56	0	848297984	58	4699
2026-01-04 22:06:54.51	107.79	15.26	-47.9	-50.0	15.0	0.00e+00	0	56	0	850395136	58	4643
2026-01-04 22:06:55.50	107.98	15.21	-47.8	-50.0	15.0	0.00e+00	0	56	0	851443712	58	4620
2026-01-04 22:06:56.49	108.16	15.16	-48.0	-50.2	14.8	0.00e+00	0	56	0	853540864	58	4721
2026-01-04 22:06:57.48	108.35	15.11	-48.1	-50.3	14.7	0.00e+00	0	56	0	855638016	58	4797
2026-01-04 22:06:58.46	108.53	15.07	-48.0	-50.2	14.8	7.00e-07	0	56	0	857735168	58	4726
2026-01-04 22:06:59.45	108.72	15.02	-48.1	-50.3	14.7	0.00e+00	0	56	0	858783744	58	4803
2026-01-04 22:07:00.44	108.90	14.97	-48.0	-50.2	14.7	7.00e-07	0	56	0	860880896	58	4758
2026-01-04 22:07:01.43	109.09	14.92	-47.8	-49.8	15.2	0.00e+00	0	56	0	862978048	58	4545
2026-01-04 22:07:02.42	109.27	14.86	-47.6	-49.6	15.4	0.00e+00	0	56	0	865075200	58	4403
2026-01-04 22:07:03.41	109.46	14.81	-47.4	-49.4	15.6	0.00e+00	0	56	0	867172352	58	4293
2026-01-04 22:07:04.39	109.64	14.76	-47.4	-49.3	15.6	0.00e+00	0	56	0	868220928	57	4533
2026-01-04 22:07:05.38	109.82	14.71	-47.5	-49.4	15.6	0.00e+00	0	56	0	870318080	57	4572
2026-01-04 22:07:06.36	110.00	14.66	-47.4	-49.3	15.7	0.00e+00	0	56	0	872415232	57	4508
2026-01-04 22:07:07.35	110.18	14.61	-47.5	-49.4	15.6	0.00e+00	0	56	0	874512384	57	4563
2026-01-04 22:07:08.34	110.36	14.56	-47.3	-49.3	15.7	0.00e+00	0	56	0	875560960	57	4502
2026-01-04 22:07:09.33	110.54	14.51	-47.3	-49.3	15.7	0.00e+00	0	56	0	877658112	57	4516
2026-01-04 22:07:10.32	110.72	14.46	-47.4	-49.3	15.6	0.00e+00	0	56	0	879755264	57	4535
2026-01-04 22:07:11.31	110.90	14.40	-47.5	-49.5	15.4	0.00e+00	0	56	0	881852416	57	4634
2026-01-04 22:07:12.28	111.07	14.35	-47.6	-49.6	15.4	0.00e+00	0	56	0	882900992	57	4666
2026-01-04 22:07:13.27	111.25	14.30	-47.6	-49.6	15.4	0.00e+00	0	56	0	884998144	57	4673
2026-01-04 22:07:14.26	111.42	14.25	-47.8	-49.9	15.1	0.00e+00	0	56	0	887095296	57	4852
2026-01-04 22:07:15.25	111.60	14.20	-48.0	-50.3	14.7	0.00e+00	0	56	0	889192448	57	5049
2026-01-04 22:07:16.23	111.77	14.14	-48.2	-50.5	14.5	0.00e+00	0	56	0	891289600	58	4889
2026-01-04 22:07:17.22	111.95	14.09	-48.3	-50.8	14.2	7.00e-07	0	56	0	892338176	58	5054
2026-01-04 22:07:18.21	112.12	14.04	-48.3	-50.7	14.3	1.50e-06	0	56	0	894435328	58	5001
2026-01-04 22:07:19.21	112.30	13.98	-48.2	-50.7	14.3	3.80e-06	0	56	0	896532480	58	4996
2026-01-04 22:07:20.20	112.47	13.93	-48.3	-50.6	14.3	7.00e-07	0	56	0	898629632	58	4979
2026-01-04 22:07:21.19	112.64	13.88	-48.2	-50.4	14.5	0.00e+00	0	56	0	899678208	58	4856
2026-01-04 22:07:22.17	112.81	13.83	-47.7	-49.8	15.1	7.00e-07	0	56	0	901775360	58	4540
2026-01-04 22:07:23.17	112.98	13.77	-47.4	-49.3	15.6	0.00e+00	0	56	0	903872512	58	4268
2026-01-04 22:07:24.16	113.15	13.72	-47.2	-49.0	15.9	0.00e+00	0	56	0	905969664	57	4388
2026-01-04 22:07:25.14	113.32	13.66	-47.2	-49.1	15.9	0.00e+00	0	56	0	907018240	57	4400
2026-01-04 22:07:26.13	113.49	13.61	-47.2	-49.1	15.8	0.00e+00	0	56	0	909115392	57	4432
2026-01-04 22:07:27.12	113.66	13.56	-47.4	-49.4	15.6	0.00e+00	0	56	0	911212544	57	4553
2026-01-04 22:07:28.11	113.83	13.50	-47.4	-49.3	15.6	0.00e+00	0	56	0	913309696	57	4539
2026-01-04 22:07:29.10	114.00	13.45	-47.5	-49.5	15.5	0.00e+00	0	56	0	915406848	57	4613
2026-01-04 22:07:30.08	114.16	13.40	-47.4	-49.5	15.5	0.00e+00	0	56	0	916455424	57	4599
2026-01-04 22:07:31.08	114.33	13.34	-47.5	-49.5	15.5	0.00e+00	0	56	0	918552576	57	4626
2026-01-04 22:07:32.06	114.49	13.29	-47.6	-49.6	15.4	0.00e+00	0	56	0	920649728	57	4677
2026-01-04 22:07:33.05	114.66	13.23	-47.7	-49.7	15.2	0.00e+00	0	56	0	922746880	57	4752
2026-01-04 22:07:34.03	114.82	13.18	-47.7	-49.7	15.2	0.00e+00	0	56	0	923795456	57	4748
2026-01-04 22:07:35.02	114.99	13.12	-47.7	-49.7	15.2	0.00e+00	0	56	0	925892608	57	4744
2026-01-04 22:07:36.01	115.15	13.07	-47.8	-50.0	15.0	0.00e+00	0	56	0	927989760	57	4877
2026-01-04 22:07:37.00	115.31	13.01	-47.9	-50.0	14.9	0.00e+00	0	56	0	930086912	57	4918
2026-01-04 22:07:37.99	115.47	12.96	-48.0	-50.2	14.7	0.00e+00	0	56	0	931135488	57	5017
2026-01-04 22:07:38.98	115.64	12.90	-48.1	-50.3	14.6	7.00e-07	0	56	0	933232640	57	5071
2026-01-04 22:07:39.97	115.80	12.85	-48.3	-50.8	14.2	0.00e+00	0	56	0	935329792	58	5043
2026-01-04 22:07:40.95	115.96	12.79	-48.0	-50.2	14.7	7.00e-07	0	56	0	937426944	58	4743
2026-01-04 22:07:41.94	116.12	12.74	-47.7	-49.8	15.1	0.00e+00	0	56	0	938475520	58	4520
2026-01-04 22:07:42.93	116.27	12.68	-47.4	-49.3	15.6	0.00e+00	0	56	0	940572672	57	4540
2026-01-04 22:07:43.92	116.43	12.63	-47.1	-49.0	16.0	0.00e+00	0	56	0	942669824	57	4355
2026-01-04 22:07:44.90	116.59	12.57	-47.1	-49.0	15.9	0.00e+00	0	56	0	944766976	57	4348
2026-01-04 22:07:45.88	116.75	12.52	-47.1	-49.0	16.0	0.00e+00	0	56	0	946864128	57	4361
2026-01-04 22:07:46.86	116.90	12.46	-47.1	-49.0	15.9	0.00e+00	0	56	0	947912704	57	4360
2026-01-04 22:07:47.85	117.06	12.41	-47.3	-49.2	15.7	0.00e+00	0	56	0	950009856	57	4460
2026-01-04 22:07:48.84	117.21	12.35	-47.4	-49.4	15.4	0.00e+00	0	56	0	952107008	57	4574
2026-01-04 22:07:49.83	117.37	12.30	-47.6	-49.6	15.3	0.00e+00	0	56	0	954204160	57	4698
2026-01-04 22:07:50.83	117.53	12.24	-47.6	-49.7	15.2	0.00e+00	0	56	0	955252736	57	4721
2026-01-04 22:07:51.81	117.68	12.18	-47.6	-49.6	15.3	0.00e+00	0	56	0	957349888	57	4704
2026-01-04 22:07:52.80	117.83	12.13	-47.7	-49.7	15.3	0.00e+00	0	56	0	959447040	57	4722
2026-01-04 22:07:53.80	117.99	12.07	-47.5	-49.5	15.4	0.00e+00	0	56	0	961544192	57	4609
2026-01-04 22:07:54.79	118.14	12.02	-47.3	-49.3	15.7	0.00e+00	0	56	0	962592768	57	4501
2026-01-04 22:07:55.78	118.29	11.96	-47.3	-49.3	15.6	0.00e+00	0	56	0	964689920	57	4499
2026-01-04 22:07:56.76	118.44	11.90	-47.2	-49.0	15.9	0.00e+00	0	56	0	966787072	57	4385
2026-01-04 22:07:57.75	118.59	11.85	-47.2	-49.1	15.8	0.00e+00	0	56	0	968884224	57	4413
2026-01-04 22:07:58.74	118.74	11.79	-47.3	-49.3	15.6	0.00e+00	0	56	0	970981376	57	4508
2026-01-04 22:07:59.73	118.89	11.73	-47.5	-49.5	15.3	0.00e+00	0	56	0	972029952	57	4650
2026-01-04 22:08:00.71	119.04	11.68	-47.7	-49.8	15.1	0.00e+00	0	56	0	974127104	57	4779
2026-01-04 22:08:01.70	119.19	11.62	-47.8	-49.9	15.0	0.00e+00	0	56	0	976224256	57	4855
2026-01-04 22:08:02.69	119.34	11.57	-47.9	-50.1	14.8	0.00e+00	0	56	0	978321408	57	4952
2026-01-04 22:08:03.69	119.48	11.51	-48.0	-50.2	14.6	0.00e+00	0	56	0	979369984	57	5039
2026-01-04 22:08:04.69	119.63	11.45	-47.9	-50.2	14.7	0.00e+00	0	56	0	981467136	57	4985
2026-01-04 22:08:05.68	119.78	11.39	-47.9	-50.1	14.8	7.00e-07	0	56	0	983564288	57	4948
2026-01-04 22:08:06.66	119.92	11.34	-48.0	-50.2	14.7	0.00e+00	0	56	0	985661440	57	4997
2026-01-04 22:08:07.65	120.07	11.28	-47.8	-50.0	14.9	0.00e+00	0	56	0	986710016	57	4903
2026-01-04 22:08:08.63	120.21	11.23	-47.6	-49.6	15.3	0.00e+00	0	56	0	988807168	57	4677
2026-01-04 22:08:09.62	120.36	11.17	-47.4	-49.4	15.4	0.00e+00	0	56	0	990904320	57	4597
2026-01-04 22:08:10.61	120.50	11.11	-47.5	-49.5	15.4	0.00e+00	0	56	0	993001472	57	4631
2026-01-04 22:08:11.60	120.64	11.06	-47.6	-49.6	15.3	0.00e+00	0	56	0	995098624	57	4668
2026-01-04 22:08:12.59	120.79	11.00	-47.7	-49.8	15.0	0.00e+00	0	56	0	996147200	57	4801
2026-01-04 22:08:13.59	120.93	10.94	-47.8	-50.0	14.8	0.00e+00	0	56	0	998244352	57	4915
2026-01-04 22:08:14.58	121.07	10.89	-47.9	-50.1	14.7	0.00e+00	0	56	0	1000341504	57	4962
2026-01-04 22:08:15.57	121.21	10.83	-48.0	-50.3	14.6	0.00e+00	0	56	0	1002438656	57	5050
2026-01-04 22:08:16.55	121.35	10.77	-48.0	-50.3	14.5	0.00e+00	0	56	0	1003487232	58	4799
2026-01-04 22:08:17.54	121.49	10.71	-47.8	-50.0	14.9	0.00e+00	0	56	0	1005584384	58	4606
2026-01-04 22:08:18.53	121.63	10.66	-47.7	-49.8	15.0	0.00e+00	0	56	0	1007681536	58	4542
2026-01-04 22:08:19.51	121.77	10.60	-47.6	-49.7	15.2	0.00e+00	0	56	0	1009778688	58	4456
2026-01-04 22:08:20.50	121.91	10.54	-47.6	-49.6	15.2	0.00e+00	0	56	0	1010827264	58	4410
2026-01-04 22:08:21.48	122.04	10.49	-47.6	-49.7	15.2	0.00e+00	0	56	0	1012924416	58	4442
2026-01-04 22:08:22.48	122.18	10.43	-47.7	-49.7	15.1	0.00e+00	0	56	0	1015021568	58	4492
2026-01-04 22:08:23.47	122.32	10.37	-47.8	-49.9	15.0	0.00e+00	0	56	0	1017118720	58	4562
2026-01-04 22:08:24.46	122.46	10.32	-47.9	-50.1	14.8	0.00e+00	0	56	0	1019215872	58	4662
2026-01-04 22:08:25.45	122.59	10.26	-47.9	-50.2	14.7	0.00e+00	0	56	0	1020264448	58	4720
2026-01-04 22:08:26.43	122.73	10.20	-48.1	-50.4	14.4	2.20e-06	0	56	0	1022361600	58	4843
2026-01-04 22:08:27.42	122.86	10.15	-48.2	-50.6	14.2	7.00e-07	0	56	0	1024458752	58	4939
2026-01-04 22:08:28.39	122.99	10.09	-48.3	-50.8	14.1	7.00e-07	0	56	0	1026555904	58	5049
2026-01-04 22:08:29.37	123.13	10.03	-48.3	-50.8	14.0	2.20e-06	0	56	0	1027604480	58	5082
2026-01-04 22:08:30.35	123.26	9.98	-48.2	-50.6	14.2	7.00e-07	0	56	0	1029701632	58	4948
2026-01-04 22:08:31.35	123.39	9.92	-48.2	-50.6	14.2	0.00e+00	0	56	0	1031798784	58	4962
2026-01-04 22:08:32.34	123.52	9.86	-48.2	-50.6	14.2	0.00e+00	0	56	0	1033895936	58	4940
2026-01-04 22:08:33.32	123.65	9.81	-48.0	-50.4	14.4	2.20e-06	0	56	0	1034944512	58	4832
2026-01-04 22:08:34.31	123.79	9.75	-48.0	-50.3	14.5	7.00e-07	0	56	0	1037041664	58	4784
2026-01-04 22:08:35.31	123.92	9.69	-48.0	-50.4	14.4	0.00e+00	0	56	0	1039138816	58	4816
2026-01-04 22:08:36.29	124.05	9.64	-48.0	-50.4	14.4	1.50e-06	0	56	0	1041235968	58	4826
2026-01-04 22:08:37.27	124.18	9.58	-48.1	-50.4	14.4	1.50e-06	0	56	0	1042284544	58	4849
2026-01-04 22:08:38.26	124.31	9.52	-48.2	-50.7	14.1	0.00e+00	0	56	0	1044381696	58	5009
2026-01-04 22:08:39.25	124.43	9.47	-48.3	-50.7	14.1	2.20e-06	0	56	0	1046478848	58	5025
2026-01-04 22:08:40.23	124.56	9.41	-48.3	-50.8	13.9	7.00e-07	0	56	0	1048576000	58	5088
2026-01-04 22:08:41.22	124.69	9.35	-48.4	-50.9	13.9	4.50e-06	0	56	0	1050673152	58	5116
2026-01-04 22:08:42.21	124.82	9.29	-48.3	-50.9	13.9	3.80e-06	0	56	0	1051721728	58	5103
2026-01-04 22:08:43.20	124.94	9.24	-48.2	-50.8	14.0	5.30e-06	0	56	0	1053818880	58	5059
2026-01-04 22:08:44.19	125.07	9.18	-48.3	-50.8	13.9	7.00e-07	0	56	0	1055916032	58	5093
2026-01-04 22:08:45.19	125.20	9.12	-48.2	-50.7	14.0	3.00e-06	0	56	0	1058013184	58	5040
2026-01-04 22:08:46.17	125.32	9.07	-48.2	-50.9	13.9	2.20e-06	0	56	0	1059061760	58	5107
2026-01-04 22:08:47.17	125.45	9.01	-48.3	-50.9	13.9	6.10e-06	0	56	0	1061158912	58	5135
2026-01-04 22:08:48.15	125.57	8.95	-48.2	-50.7	14.0	0.00e+00	0	56	0	1063256064	58	4999
2026-01-04 22:08:49.14	125.70	8.90	-48.3	-50.8	13.9	7.00e-07	0	56	0	1065353216	58	5071
2026-01-04 22:08:50.12	125.82	8.84	-48.3	-50.8	13.9	4.50e-06	0	56	0	1066401792	58	5096
2026-01-04 22:08:51.11	125.94	8.78	-48.4	-51.0	13.7	3.80e-06	0	56	0	1068498944	58	5212
2026-01-04 22:08:52.09	126.06	8.73	-48.5	-51.2	13.5	5.30e-06	0	56	0	1070596096	58	5298
2026-01-04 22:08:53.08	126.19	8.67	-48.6	-51.4	13.4	1.44e-05	0	56	0	1072693248	59	5113
2026-01-04 22:08:54.07	126.31	8.61	-48.7	-51.5	13.2	1.98e-05	0	56	0	1074790400	59	5211
2026-01-04 22:08:55.06	126.43	8.56	-48.8	-51.7	13.0	3.28e-05	0	56	0	1075838976	59	5306
2026-01-04 22:08:56.04	126.55	8.50	-48.7	-51.6	13.1	2.74e-05	0	56	0	1077936128	59	5262
2026-01-04 22:08:57.03	126.67	8.44	-48.8	-51.8	12.9	4.11e-05	0	56	0	1080033280	59	5378
2026-01-04 22:08:58.02	126.79	8.39	-48.8	-51.7	13.0	4.80e-05	0	56	0	1082130432	59	5312
2026-01-04 22:08:59.01	126.91	8.33	-48.8	-51.7	12.9	4.50e-05	0	56	0	1083179008	59	5326
2026-01-04 22:09:00.00	127.03	8.27	-48.9	-51.9	12.8	6.40e-05	0	56	0	1085276160	59	5441
2026-01-04 22:09:00.99	127.15	8.22	-48.6	-51.4	13.3	3.12e-05	0	56	0	1087373312	59	5123
2026-01-04 22:09:01.98	127.27	8.16	-48.6	-51.3	13.4	1.75e-05	0	56	0	1089470464	59	5064
2026-01-04 22:09:02.97	127.38	8.10	-48.5	-51.2	13.4	1.44e-05	0	56	0	1090519040	59	5037
2026-01-04 22:09:03.96	127.50	8.05	-48.4	-51.1	13.6	7.60e-06	0	56	0	1092616192	59	4934
2026-01-04 22:09:04.95	127.62	7.99	-48.5	-51.2	13.4	1.29e-05	0	56	0	1094713344	59	5023
2026-01-04 22:09:05.93	127.73	7.93	-48.4	-51.1	13.6	1.14e-05	0	56	0	1096810496	59	4940
2026-01-04 22:09:06.92	127.85	7.88	-48.5	-51.1	13.5	5.30e-06	0	56	0	1097859072	59	4971
2026-01-04 22:09:07.91	127.97	7.82	-48.6	-51.3	13.4	1.14e-05	0	56	0	1099956224	59	5064
2026-01-04 22:09:08.90	128.08	7.76	-48.5	-51.2	13.4	1.52e-05	0	56	0	1102053376	59	5037
2026-01-04 22:09:09.88	128.20	7.71	-48.6	-51.5	13.1	1.67e-05	0	56	0	1104150528	59	5189
2026-01-04 22:09:10.87	128.31	7.65	-48.6	-51.5	13.1	3.20e-05	0	56	0	1106247680	59	5208
2026-01-04 22:09:11.86	128.42	7.60	-48.7	-51.6	13.0	3.73e-05	0	56	0	1107296256	59	5249
2026-01-04 22:09:12.84	128.54	7.54	-48.7	-51.7	13.0	3.73e-05	0	56	0	1109393408	59	5287
2026-01-04 22:09:13.83	128.65	7.48	-48.7	-51.5	13.0	3.89e-05	0	56	0	1111490560	59	5215
2026-01-04 22:09:14.83	128.76	7.43	-48.6	-51.5	13.1	2.13e-05	0	57	0	1113587712	59	5199
2026-01-04 22:09:15.82	128.88	7.37	-48.6	-51.5	13.1	3.05e-05	0	56	0	1114636288	59	5170
2026-01-04 22:09:16.81	128.99	7.31	-48.7	-51.5	13.0	3.43e-05	0	56	0	1116733440	59	5207
2026-01-04 22:09:17.80	129.10	7.26	-48.8	-51.7	12.9	4.19e-05	0	56	0	1118830592	59	5308
2026-01-04 22:09:18.79	129.21	7.20	-48.7	-51.7	12.9	4.42e-05	0	56	0	1120927744	59	5300
2026-01-04 22:09:19.78	129.32	7.15	-48.7	-51.7	12.9	3.43e-05	0	56	0	1121976320	59	5298
2026-01-04 22:09:20.76	129.43	7.09	-48.8	-52.0	12.6	5.56e-05	0	56	0	1124073472	59	5475
2026-01-04 22:09:21.75	129.54	7.03	-48.9	-52.1	12.5	8.46e-05	0	56	0	1126170624	59	5553
2026-01-04 22:09:22.74	129.65	6.98	-49.0	-52.2	12.4	1.31e-04	0	56	0	1128267776	59	5603
2026-01-04 22:09:23.74	129.76	6.92	-49.0	-52.3	12.3	2.10e-04	0	56	0	1130364928	59	5657
2026-01-04 22:09:24.73	129.87	6.87	-49.0	-52.4	12.1	2.46e-04	0	56	0	1131413504	60	5433
2026-01-04 22:09:25.72	129.98	6.81	-49.2	-52.6	11.9	3.56e-04	0	56	0	1133510656	60	5585
2026-01-04 22:09:26.71	130.08	6.75	-49.2	-52.6	11.9	4.79e-04	0	56	0	1135607808	60	5570
2026-01-04 22:09:27.69	130.19	6.70	-49.1	-52.4	12.1	3.37e-04	0	56	0	1137704960	60	5445
2026-01-04 22:09:28.68	130.30	6.64	-49.0	-52.3	12.1	2.47e-04	0	56	0	1138753536	60	5398
2026-01-04 22:09:29.66	130.40	6.59	-49.0	-52.4	12.1	2.79e-04	0	56	0	1140850688	60	5409
2026-01-04 22:09:30.65	130.51	6.53	-48.9	-52.2	12.3	2.21e-04	0	56	0	1142947840	60	5298
2026-01-04 22:09:31.64	130.62	6.48	-49.0	-52.3	12.1	2.19e-04	0	56	0	1145044992	60	5391
2026-01-04 22:09:32.63	130.72	6.42	-49.0	-52.3	12.2	2.35e-04	0	56	0	1146093568	60	5355
2026-01-04 22:09:33.62	130.83	6.36	-48.8	-51.9	12.5	1.39e-04	0	56	0	1148190720	60	5144
2026-01-04 22:09:34.61	130.93	6.31	-48.9	-52.1	12.3	1.45e-04	0	56	0	1150287872	60	5249
2026-01-04 22:09:35.61	131.04	6.25	-48.9	-52.1	12.4	1.34e-04	0	56	0	1152385024	60	5228
2026-01-04 22:09:36.60	131.14	6.20	-48.9	-52.1	12.3	1.64e-04	0	56	0	1154482176	60	5277
2026-01-04 22:09:37.59	131.24	6.14	-49.0	-52.3	12.1	2.54e-04	0	56	0	1155530752	60	5376
2026-01-04 22:09:38.58	131.35	6.09	-49.0	-52.4	12.0	3.50e-04	0	56	0	1157627904	60	5443
2026-01-04 22:09:39.57	131.45	6.03	-49.0	-52.6	11.8	3.40e-04	0	56	0	1159725056	60	5555
2026-01-04 22:09:40.56	131.55	5.98	-49.1	-52.7	11.7	5.35e-04	0	56	0	1161822208	60	5620
2026-01-04 22:09:41.54	131.65	5.92	-49.1	-52.7	11.7	6.78e-04	0	56	0	1162870784	60	5618
2026-01-04 22:09:42.53	131.76	5.87	-49.2	-52.8	11.6	6.81e-04	0	56	0	1164967936	60	5708
2026-01-04 22:09:43.52	131.86	5.81	-49.2	-52.8	11.5	7.99e-04	0	56	0	1167065088	60	5700
2026-01-04 22:09:44.50	131.96	5.76	-49.4	-53.2	11.1	1.30e-03	0	56	0	1169162240	60	5991
2026-01-04 22:09:45.49	132.06	5.70	-49.4	-53.4	10.9	2.31e-03	0	56	0	1170210816	60	6071
2026-01-04 22:09:46.48	132.16	5.65	-49.3	-53.3	11.1	1.75e-03	0	56	0	1172307968	60	6012
2026-01-04 22:09:47.47	132.26	5.59	-49.4	-53.3	11.0	1.66e-03	0	56	0	1174405120	60	6041
2026-01-04 22:09:48.46	132.36	5.54	-49.4	-53.2	11.1	1.67e-03	0	56	0	1176502272	60	5977
2026-01-04 22:09:49.44	132.46	5.48	-49.3	-53.4	10.9	1.69e-03	0	57	0	1177550848	60	6062
2026-01-04 22:09:50.43	132.56	5.43	-49.4	-53.4	10.9	1.98e-03	0	56	0	1179648000	60	6078
2026-01-04 22:09:51.42	132.65	5.37	-49.4	-53.4	10.9	2.08e-03	0	56	0	1181745152	60	6096
2026-01-04 22:09:52.41	132.75	5.32	-49.3	-53.3	11.0	1.97e-03	0	56	0	1183842304	60	6000
2026-01-04 22:09:53.40	132.85	5.26	-49.3	-53.2	11.1	1.93e-03	0	56	0	1185939456	60	5940
2026-01-04 22:09:54.38	132.95	5.21	-49.5	-53.4	10.8	2.11e-03	0	56	0	1186988032	60	6118
2026-01-04 22:09:55.37	133.04	5.15	-49.4	-53.5	10.7	2.98e-03	0	56	0	1189085184	60	6198
2026-01-04 22:09:56.36	133.14	5.10	-49.5	-53.5	10.7	2.66e-03	0	56	0	1191182336	60	6166
2026-01-04 22:09:57.35	133.24	5.04	-49.5	-53.5	10.7	3.07e-03	0	56	0	1193279488	60	6199
2026-01-04 22:09:58.34	133.33	4.99	-51.6	-64.8	3.8	8.93e-02	0	56	104	1194328064	64	17939
2026-01-04 22:09:59.32	133.43	4.94	-51.8	-65.6	3.8	1.49e+00	0	56	104	1194328064	65	18652
2026-01-04 22:10:00.31	133.52	4.88	-52.0	-65.8	3.8	1.49e+00	0	57	104	1194328064	65	19126
2026-01-04 22:10:01.29	133.62	4.83	-52.1	-65.9	3.8	1.49e+00	0	56	104	1194328064	66	18254
2026-01-04 22:10:02.28	133.71	4.77	-52.2	-66.0	3.8	1.49e+00	0	56	104	1194328064	66	18460
2026-01-04 22:10:03.26	133.81	4.72	-52.2	-66.1	3.8	1.49e+00	0	57	104	1194328064	66	18600
2026-01-04 22:10:04.24	133.90	4.67	-52.2	-66.1	3.8	1.49e+00	0	57	104	1194328064	66	18722
2026-01-04 22:10:05.23	133.99	4.61	-52.4	-66.2	3.8	1.49e+00	0	57	104	1194328064	66	18746
2026-01-04 22:10:06.22	134.09	4.56	-52.4	-66.2	3.8	1.49e+00	0	56	104	1194328064	66	18858
2026-01-04 22:10:07.22	134.18	4.50	-52.3	-66.2	3.8	1.49e+00	0	56	104	1194328064	66	18911
2026-01-04 22:10:08.20	134.27	4.45	-52.2	-66.0	3.8	1.49e+00	0	56	104	1194328064	66	18446
2026-01-04 22:10:09.19	134.36	4.40	-52.4	-66.3	3.8	1.49e+00	0	56	104	1194328064	66	18994
2026-01-04 22:10:10.18	134.46	4.34	-52.4	-66.3	3.8	1.49e+00	0	56	104	1194328064	66	19032
2026-01-04 22:10:11.17	134.55	4.29	-52.5	-66.3	3.8	1.49e+00	0	56	104	1194328064	66	19003
2026-01-04 22:10:12.17	134.64	4.23	-52.5	-66.3	3.8	1.49e+00	0	56	104	1194328064	66	19118
2026-01-04 22:10:13.15	134.73	4.18	-52.4	-66.3	3.8	1.49e+00	0	56	104	1194328064	66	19148
