passes_logs/2026/01/04/R3.0SM8_Murmansk_STILSPACE/R3.0SM8_Murmansk_STILSPACE__20260104_210829_NOAA_21_JPSS-2_rec.log

#Pass ID: 20260104_210829_NOAA 21 (JPSS-2)
#Satellite: NOAA 21 (JPSS-2)
#Configuration: NOAA-21
#almurnet v.1.7.20240730
#Start time: 2026-01-04 21:08:30

#Version: 2.2.20231116
#Station: R3.0SM8_Murmansk_STILSPACE
#Location: 33.092731 lon 68.902999 lat
#TLE: 1 54234U 22150A   26004.22845673  .00000174  00000+0  10347-3 0  9996
#TLE: 2 54234  98.7489 305.2591 0001115 345.0884  15.0259 14.19531906163281

#Time	Az	El	Level	Level2	SNR	BER	BlckErr	Temp	State	Recorded	gain1	gain2
2026-01-04 21:08:30.08	21.01	3.05	-52.5	-64.1	3.8	1.49e+00	0	46	0	0	67	14006
2026-01-04 21:08:31.07	21.12	3.09	-52.7	-64.3	3.8	1.49e+00	0	46	104	0	68	13457
2026-01-04 21:08:32.06	21.23	3.13	-52.7	-64.2	3.8	1.49e+00	0	46	104	0	68	13386
2026-01-04 21:08:33.05	21.34	3.17	-52.7	-64.2	3.8	1.49e+00	0	46	104	0	68	13363
2026-01-04 21:08:34.03	21.44	3.21	-52.5	-64.2	3.8	1.49e+00	0	47	104	0	68	13352
2026-01-04 21:08:35.02	21.55	3.26	-52.6	-64.2	3.8	1.49e+00	0	47	104	0	68	13341
2026-01-04 21:08:36.01	21.66	3.30	-52.5	-64.2	3.8	1.49e+00	0	47	104	0	68	13262
2026-01-04 21:08:37.00	21.77	3.34	-52.6	-64.2	3.8	1.49e+00	0	46	104	0	68	13320
2026-01-04 21:08:37.99	21.88	3.38	-52.6	-64.1	3.8	1.49e+00	0	47	104	0	68	13228
2026-01-04 21:08:38.99	21.99	3.42	-52.4	-63.9	3.8	1.49e+00	0	47	104	0	67	13647
2026-01-04 21:08:39.98	22.10	3.46	-52.3	-64.0	3.8	1.49e+00	0	47	104	0	67	13741
2026-01-04 21:08:40.98	22.21	3.51	-52.4	-64.0	3.8	1.49e+00	0	47	104	0	67	13731
2026-01-04 21:08:41.96	22.32	3.55	-52.3	-64.0	3.8	1.49e+00	0	47	104	0	67	13728
2026-01-04 21:08:42.95	22.43	3.59	-52.4	-63.9	3.8	1.49e+00	0	47	104	0	67	13690
2026-01-04 21:08:43.95	22.54	3.63	-52.3	-63.9	3.8	1.49e+00	0	47	104	0	67	13623
2026-01-04 21:08:44.94	22.66	3.67	-52.3	-63.8	3.8	1.49e+00	0	47	104	0	67	13525
2026-01-04 21:08:45.93	22.77	3.71	-52.2	-63.8	3.8	1.49e+00	0	47	104	0	67	13445
2026-01-04 21:08:46.91	22.88	3.76	-52.1	-63.7	3.8	1.49e+00	0	47	104	0	67	13262
2026-01-04 21:08:47.90	22.99	3.80	-52.0	-63.5	3.8	1.49e+00	0	47	104	0	66	13864
2026-01-04 21:08:48.89	23.10	3.84	-51.8	-63.3	3.8	1.49e+00	0	48	104	0	66	13447
2026-01-04 21:08:49.88	23.22	3.88	-51.5	-63.1	3.8	1.49e+00	0	48	104	0	66	13131
2026-01-04 21:08:50.87	23.33	3.92	-51.5	-63.0	3.8	1.49e+00	0	48	104	0	66	13086
2026-01-04 21:08:51.86	23.44	3.96	-51.5	-62.9	3.8	1.49e+00	0	48	104	0	66	12864
2026-01-04 21:08:52.85	23.56	4.00	-51.4	-62.8	3.8	1.49e+00	0	48	104	0	66	12716
2026-01-04 21:08:53.85	23.67	4.05	-51.5	-62.8	3.8	1.49e+00	0	48	104	0	66	12680
2026-01-04 21:08:54.84	23.79	4.09	-51.5	-62.7	3.8	1.49e+00	0	48	104	0	66	12558
2026-01-04 21:08:55.83	23.90	4.13	-51.5	-62.6	3.8	1.49e+00	0	48	104	0	66	12510
2026-01-04 21:08:56.82	24.02	4.17	-51.5	-62.8	3.8	1.49e+00	0	48	104	0	66	12711
2026-01-04 21:08:57.80	24.13	4.21	-51.5	-62.9	3.8	1.49e+00	0	48	104	0	66	12823
2026-01-04 21:08:58.80	24.25	4.25	-51.6	-63.0	3.8	1.49e+00	0	48	104	0	66	12963
2026-01-04 21:08:59.79	24.36	4.29	-51.5	-63.1	3.8	1.49e+00	0	48	104	0	66	13166
2026-01-04 21:09:00.78	24.48	4.34	-51.5	-63.1	3.8	1.49e+00	0	48	104	0	66	13206
2026-01-04 21:09:01.77	24.60	4.38	-51.5	-63.0	3.8	1.49e+00	0	49	104	0	66	13103
2026-01-04 21:09:02.76	24.71	4.42	-51.5	-62.9	3.8	1.49e+00	0	48	104	0	66	12918
2026-01-04 21:09:03.76	24.83	4.46	-51.5	-62.8	3.8	1.49e+00	0	48	104	0	66	12774
2026-01-04 21:09:04.75	24.95	4.50	-51.5	-62.8	3.8	1.49e+00	0	48	104	0	66	12677
2026-01-04 21:09:05.74	25.07	4.54	-51.5	-62.7	3.8	1.49e+00	0	48	104	0	66	12658
2026-01-04 21:09:06.73	25.19	4.58	-51.5	-62.8	3.8	1.49e+00	0	49	104	0	66	12718
2026-01-04 21:09:07.72	25.31	4.62	-51.5	-62.9	3.8	1.49e+00	0	49	104	0	66	12836
2026-01-04 21:09:08.71	25.42	4.66	-51.5	-62.8	3.8	1.49e+00	0	49	104	0	66	12711
2026-01-04 21:09:09.70	25.54	4.71	-51.5	-62.2	3.8	1.49e+00	0	49	104	0	66	11925
2026-01-04 21:09:10.69	25.66	4.75	-51.4	-60.7	4.0	1.48e+00	0	49	104	0	65	10613
2026-01-04 21:09:11.68	25.78	4.79	-51.0	-59.6	3.9	1.47e+00	0	49	104	0	65	9310
2026-01-04 21:09:12.67	25.90	4.83	-50.7	-57.2	5.2	7.57e-01	0	49	0	0	64	7513
2026-01-04 21:09:13.66	26.02	4.87	-50.3	-55.6	6.4	3.12e-01	0	49	0	3145728	63	6581
2026-01-04 21:09:14.64	26.14	4.91	-49.8	-54.1	7.8	1.05e-01	0	49	0	6291456	62	5912
2026-01-04 21:09:15.63	26.26	4.95	-49.4	-53.0	8.9	4.23e-02	0	49	0	9437184	61	5477
2026-01-04 21:09:16.61	26.38	4.99	-48.8	-51.9	10.1	1.13e-02	0	49	0	12582912	60	5109
2026-01-04 21:09:17.61	26.51	5.03	-48.5	-51.4	10.6	3.22e-03	0	49	0	15728640	60	4820
2026-01-04 21:09:18.60	26.63	5.07	-48.7	-51.7	10.3	4.72e-03	0	49	0	18874368	60	5009
2026-01-04 21:09:19.59	26.75	5.11	-48.7	-51.6	10.3	5.70e-03	0	49	0	22020096	60	4966
2026-01-04 21:09:20.58	26.88	5.15	-48.6	-51.5	10.5	4.20e-03	0	50	0	25165824	60	4880
2026-01-04 21:09:21.58	27.00	5.19	-48.5	-51.1	11.0	2.56e-03	0	50	0	28311552	59	4934
2026-01-04 21:09:22.57	27.12	5.23	-48.3	-50.8	11.2	1.42e-03	0	50	0	31457280	59	4814
2026-01-04 21:09:23.55	27.25	5.27	-48.4	-50.9	11.2	1.33e-03	0	50	0	34603008	59	4824
2026-01-04 21:09:24.54	27.37	5.31	-48.4	-50.9	11.1	1.58e-03	0	50	0	37748736	59	4852
2026-01-04 21:09:25.53	27.49	5.35	-48.4	-51.0	11.1	1.37e-03	0	50	0	40894464	59	4898
2026-01-04 21:09:26.52	27.62	5.39	-48.6	-51.4	10.7	3.74e-03	0	50	0	44040192	59	5105
2026-01-04 21:09:27.50	27.74	5.43	-48.2	-50.8	11.3	1.50e-03	0	50	0	47185920	59	4774
2026-01-04 21:09:28.48	27.87	5.47	-47.9	-50.4	11.7	8.63e-04	0	50	0	49283072	59	4565
2026-01-04 21:09:29.47	27.99	5.51	-47.8	-50.0	12.1	3.61e-04	0	50	0	52428800	58	4620
2026-01-04 21:09:30.47	28.12	5.55	-47.5	-49.6	12.5	1.46e-04	0	50	0	55574528	58	4408
2026-01-04 21:09:31.45	28.24	5.59	-47.4	-49.4	12.7	5.87e-05	0	50	0	58720256	57	4549
2026-01-04 21:09:32.44	28.37	5.63	-47.3	-49.2	12.8	4.88e-05	0	50	0	61865984	57	4479
2026-01-04 21:09:33.43	28.50	5.67	-47.1	-48.9	13.1	3.58e-05	0	50	0	65011712	57	4316
2026-01-04 21:09:34.42	28.63	5.71	-46.9	-48.7	13.3	1.98e-05	0	50	0	68157440	56	4462
2026-01-04 21:09:35.41	28.75	5.75	-46.9	-48.8	13.3	1.75e-05	0	50	0	71303168	56	4500
2026-01-04 21:09:36.40	28.88	5.79	-46.9	-48.7	13.4	1.83e-05	0	50	0	74448896	56	4448
2026-01-04 21:09:37.39	29.01	5.83	-46.8	-48.6	13.5	1.22e-05	0	50	0	77594624	56	4415
2026-01-04 21:09:38.38	29.14	5.87	-47.0	-48.8	13.3	1.60e-05	0	50	0	80740352	56	4499
2026-01-04 21:09:39.37	29.27	5.91	-46.8	-48.5	13.5	6.80e-06	0	50	0	83886080	56	4384
2026-01-04 21:09:40.36	29.40	5.95	-46.8	-48.5	13.6	3.80e-06	0	50	0	87031808	56	4367
2026-01-04 21:09:41.35	29.53	5.99	-46.8	-48.5	13.6	7.00e-07	0	51	0	90177536	56	4380
2026-01-04 21:09:42.33	29.66	6.03	-46.8	-48.5	13.7	3.00e-06	0	51	0	93323264	56	4349
2026-01-04 21:09:43.32	29.79	6.07	-46.9	-48.6	13.5	1.37e-05	0	51	0	96468992	56	4411
2026-01-04 21:09:44.31	29.92	6.11	-46.7	-48.4	13.7	6.80e-06	0	51	0	99614720	56	4328
2026-01-04 21:09:45.30	30.05	6.14	-46.8	-48.5	13.7	3.80e-06	0	50	0	102760448	56	4358
2026-01-04 21:09:46.29	30.18	6.18	-46.8	-48.6	13.6	6.80e-06	0	51	0	105906176	56	4395
2026-01-04 21:09:47.28	30.31	6.22	-46.8	-48.5	13.6	5.30e-06	0	51	0	108003328	56	4375
2026-01-04 21:09:48.27	30.44	6.26	-46.8	-48.6	13.6	6.80e-06	0	51	0	111149056	56	4397
2026-01-04 21:09:49.26	30.58	6.30	-47.0	-48.8	13.4	1.14e-05	0	51	0	114294784	56	4511
2026-01-04 21:09:50.24	30.71	6.34	-46.9	-48.7	13.5	1.29e-05	0	50	0	117440512	56	4471
2026-01-04 21:09:51.23	30.84	6.38	-46.9	-48.7	13.5	1.75e-05	0	51	0	120586240	56	4480
2026-01-04 21:09:52.22	30.97	6.42	-47.1	-48.9	13.3	1.44e-05	0	51	0	123731968	56	4594
2026-01-04 21:09:53.21	31.11	6.45	-46.8	-48.6	13.6	1.14e-05	0	51	0	126877696	56	4398
2026-01-04 21:09:54.21	31.24	6.49	-46.7	-48.4	13.8	5.30e-06	0	51	0	130023424	56	4321
2026-01-04 21:09:55.19	31.38	6.53	-46.6	-48.2	14.0	3.80e-06	0	51	0	133169152	56	4240
2026-01-04 21:09:56.19	31.51	6.57	-46.7	-48.4	13.8	3.00e-06	0	51	0	136314880	56	4304
2026-01-04 21:09:57.17	31.65	6.61	-46.7	-48.3	13.9	2.20e-06	0	51	0	139460608	56	4271
2026-01-04 21:09:58.16	31.78	6.65	-46.9	-48.6	13.6	5.30e-06	0	51	0	142606336	56	4431
2026-01-04 21:09:59.14	31.92	6.68	-46.6	-48.3	13.9	1.50e-06	0	51	0	145752064	56	4248
2026-01-04 21:10:00.13	32.05	6.72	-46.8	-48.5	13.7	4.50e-06	0	51	0	148897792	56	4382
2026-01-04 21:10:01.12	32.19	6.76	-47.2	-49.0	13.2	1.52e-05	0	51	0	152043520	56	4622
2026-01-04 21:10:02.11	32.32	6.80	-46.9	-48.6	13.6	1.06e-05	0	51	0	155189248	56	4425
2026-01-04 21:10:03.09	32.46	6.83	-46.7	-48.4	13.8	3.80e-06	0	51	0	158334976	56	4311
2026-01-04 21:10:04.08	32.60	6.87	-46.6	-48.2	13.9	7.00e-07	0	51	0	161480704	56	4239
2026-01-04 21:10:05.07	32.74	6.91	-46.7	-48.3	13.9	4.50e-06	0	51	0	164626432	56	4286
2026-01-04 21:10:06.06	32.87	6.95	-46.6	-48.2	14.0	1.50e-06	0	51	0	167772160	56	4214
2026-01-04 21:10:07.05	33.01	6.99	-46.6	-48.2	14.1	3.00e-06	0	51	0	169869312	56	4205
2026-01-04 21:10:08.04	33.15	7.02	-46.7	-48.3	14.0	1.50e-06	0	51	0	173015040	56	4274
2026-01-04 21:10:09.04	33.29	7.06	-46.5	-48.1	14.2	2.20e-06	0	51	0	176160768	56	4165
2026-01-04 21:10:10.02	33.43	7.10	-46.6	-48.1	14.2	1.50e-06	0	51	0	179306496	56	4188
2026-01-04 21:10:11.01	33.57	7.13	-46.7	-48.4	13.9	3.00e-06	0	51	0	182452224	56	4292
2026-01-04 21:10:12.00	33.71	7.17	-46.5	-48.1	14.3	1.50e-06	0	51	0	185597952	56	4160
2026-01-04 21:10:12.99	33.85	7.21	-46.4	-48.0	14.3	2.20e-06	0	51	0	188743680	56	4115
2026-01-04 21:10:13.97	33.99	7.24	-46.4	-47.9	14.3	2.20e-06	0	52	0	191889408	55	4313
2026-01-04 21:10:14.96	34.13	7.28	-46.4	-48.0	14.2	0.00e+00	0	52	0	195035136	55	4354
2026-01-04 21:10:15.95	34.27	7.32	-46.6	-48.3	13.9	2.20e-06	0	52	0	198180864	55	4510
2026-01-04 21:10:16.93	34.41	7.35	-46.5	-48.1	14.1	6.80e-06	0	52	0	201326592	55	4397
2026-01-04 21:10:17.92	34.56	7.39	-46.4	-47.9	14.3	1.50e-06	0	52	0	204472320	55	4306
2026-01-04 21:10:18.91	34.70	7.43	-46.4	-47.9	14.3	7.00e-07	0	52	0	207618048	55	4325
2026-01-04 21:10:19.90	34.84	7.46	-46.4	-47.9	14.3	0.00e+00	0	52	0	210763776	55	4307
2026-01-04 21:10:20.89	34.98	7.50	-46.5	-48.1	14.1	0.00e+00	0	52	0	213909504	55	4414
2026-01-04 21:10:21.88	35.13	7.54	-46.3	-47.8	14.4	0.00e+00	0	52	0	217055232	55	4291
2026-01-04 21:10:22.87	35.27	7.57	-46.3	-47.8	14.4	7.00e-07	0	52	0	220200960	55	4256
2026-01-04 21:10:23.87	35.42	7.61	-46.3	-47.8	14.4	0.00e+00	0	52	0	223346688	55	4272
2026-01-04 21:10:24.86	35.56	7.64	-46.4	-47.9	14.3	7.00e-07	0	52	0	226492416	55	4337
2026-01-04 21:10:25.84	35.71	7.68	-46.3	-47.7	14.5	1.50e-06	0	52	0	229638144	55	4242
2026-01-04 21:10:26.84	35.85	7.71	-46.4	-47.9	14.3	0.00e+00	0	52	0	231735296	55	4298
2026-01-04 21:10:27.82	36.00	7.75	-46.3	-47.8	14.5	7.00e-07	0	52	0	234881024	55	4248
2026-01-04 21:10:28.81	36.14	7.78	-46.2	-47.6	14.6	7.00e-07	0	52	0	238026752	55	4185
2026-01-04 21:10:29.79	36.29	7.82	-46.2	-47.6	14.6	7.00e-07	0	52	0	241172480	55	4185
2026-01-04 21:10:30.79	36.44	7.85	-46.2	-47.7	14.6	0.00e+00	0	52	0	244318208	55	4199
2026-01-04 21:10:31.77	36.58	7.89	-46.2	-47.6	14.6	0.00e+00	0	52	0	247463936	55	4179
2026-01-04 21:10:32.77	36.73	7.92	-46.1	-47.5	14.7	0.00e+00	0	52	0	250609664	55	4132
2026-01-04 21:10:33.75	36.88	7.96	-46.2	-47.6	14.6	7.00e-07	0	52	0	253755392	55	4175
2026-01-04 21:10:34.74	37.03	7.99	-46.3	-47.8	14.5	0.00e+00	0	52	0	256901120	55	4250
2026-01-04 21:10:35.73	37.17	8.03	-46.3	-47.8	14.5	7.00e-07	0	52	0	260046848	55	4249
2026-01-04 21:10:36.72	37.32	8.06	-46.4	-47.9	14.4	0.00e+00	0	52	0	263192576	55	4308
2026-01-04 21:10:37.72	37.47	8.10	-46.4	-47.9	14.3	7.00e-07	0	53	0	266338304	55	4311
2026-01-04 21:10:38.71	37.62	8.13	-46.4	-47.9	14.4	2.20e-06	0	53	0	269484032	55	4310
2026-01-04 21:10:39.70	37.77	8.17	-46.4	-47.9	14.3	1.50e-06	0	52	0	272629760	55	4334
2026-01-04 21:10:40.69	37.92	8.20	-46.4	-47.9	14.3	2.20e-06	0	52	0	275775488	55	4322
2026-01-04 21:10:41.68	38.07	8.23	-46.5	-48.1	14.2	3.00e-06	0	52	0	278921216	55	4412
2026-01-04 21:10:42.66	38.22	8.27	-46.5	-48.1	14.2	1.50e-06	0	53	0	282066944	55	4399
2026-01-04 21:10:43.65	38.37	8.30	-46.3	-47.8	14.5	0.00e+00	0	53	0	285212672	55	4263
2026-01-04 21:10:44.64	38.53	8.33	-46.4	-47.9	14.5	0.00e+00	0	53	0	288358400	55	4295
2026-01-04 21:10:45.63	38.68	8.37	-46.4	-47.9	14.4	0.00e+00	0	53	0	290455552	55	4295
2026-01-04 21:10:46.61	38.83	8.40	-46.4	-47.9	14.4	0.00e+00	0	53	0	293601280	55	4322
2026-01-04 21:10:47.60	38.98	8.43	-46.4	-48.0	14.3	1.50e-06	0	53	0	296747008	55	4348
2026-01-04 21:10:48.60	39.14	8.47	-46.3	-47.7	14.6	7.00e-07	0	53	0	299892736	55	4241
2026-01-04 21:10:49.58	39.29	8.50	-46.2	-47.6	14.7	7.00e-07	0	53	0	303038464	55	4170
2026-01-04 21:10:50.57	39.44	8.53	-46.1	-47.6	14.7	0.00e+00	0	53	0	306184192	55	4151
2026-01-04 21:10:51.56	39.59	8.56	-46.2	-47.7	14.6	0.00e+00	0	53	0	309329920	55	4220
2026-01-04 21:10:52.55	39.75	8.60	-46.3	-47.8	14.5	7.00e-07	0	53	0	312475648	55	4274
2026-01-04 21:10:53.54	39.90	8.63	-46.4	-47.9	14.4	0.00e+00	0	53	0	315621376	55	4321
2026-01-04 21:10:54.53	40.06	8.66	-46.3	-47.9	14.4	7.00e-07	0	53	0	318767104	55	4315
2026-01-04 21:10:55.51	40.21	8.69	-46.5	-48.0	14.3	7.00e-07	0	53	0	321912832	55	4382
2026-01-04 21:10:56.50	40.37	8.72	-46.7	-48.3	14.0	3.00e-06	0	53	0	325058560	55	4528
2026-01-04 21:10:57.49	40.52	8.76	-46.6	-48.3	14.0	3.80e-06	0	53	0	328204288	55	4502
2026-01-04 21:10:58.47	40.68	8.79	-46.6	-48.2	14.2	7.00e-07	0	53	0	331350016	55	4458
2026-01-04 21:10:59.46	40.83	8.82	-46.8	-48.4	13.9	2.20e-06	0	53	0	334495744	55	4569
2026-01-04 21:11:00.45	40.99	8.85	-46.9	-48.5	13.8	7.60e-06	0	53	0	337641472	55	4634
2026-01-04 21:11:01.44	41.15	8.88	-46.6	-48.2	14.2	3.00e-06	0	53	0	340787200	55	4460
2026-01-04 21:11:02.42	41.30	8.91	-46.4	-47.9	14.4	0.00e+00	0	53	0	342884352	55	4315
2026-01-04 21:11:03.41	41.46	8.94	-46.4	-47.9	14.4	0.00e+00	0	53	0	346030080	55	4317
2026-01-04 21:11:04.41	41.62	8.97	-46.5	-48.1	14.2	0.00e+00	0	53	0	349175808	55	4429
2026-01-04 21:11:05.40	41.78	9.01	-46.9	-48.6	13.8	5.30e-06	0	53	0	352321536	55	4655
2026-01-04 21:11:06.39	41.94	9.04	-46.9	-48.6	13.7	7.60e-06	0	53	0	355467264	55	4690
2026-01-04 21:11:07.38	42.10	9.07	-46.8	-48.5	13.9	6.10e-06	0	53	0	358612992	55	4620
2026-01-04 21:11:08.37	42.26	9.10	-46.7	-48.3	14.0	3.00e-06	0	53	0	361758720	55	4537
2026-01-04 21:11:09.35	42.41	9.13	-46.7	-48.3	14.0	3.80e-06	0	53	0	364904448	55	4519
2026-01-04 21:11:10.33	42.57	9.16	-46.6	-48.2	14.2	2.20e-06	0	53	0	368050176	55	4471
2026-01-04 21:11:11.32	42.73	9.18	-46.8	-48.4	13.9	1.50e-06	0	53	0	371195904	55	4565
2026-01-04 21:11:12.30	42.89	9.21	-46.9	-48.5	13.8	3.80e-06	0	53	0	374341632	55	4632
2026-01-04 21:11:13.29	43.05	9.24	-46.7	-48.3	14.1	3.00e-06	0	53	0	377487360	55	4515
2026-01-04 21:11:14.28	43.21	9.27	-46.9	-48.5	13.8	3.00e-06	0	53	0	380633088	55	4649
2026-01-04 21:11:15.28	43.38	9.30	-47.2	-48.9	13.6	6.10e-06	0	53	0	383778816	56	4564
2026-01-04 21:11:16.27	43.54	9.33	-46.8	-48.4	14.1	7.00e-07	0	53	0	386924544	56	4304
2026-01-04 21:11:17.26	43.70	9.36	-46.4	-47.9	14.6	7.00e-07	0	53	0	390070272	56	4085
2026-01-04 21:11:18.25	43.86	9.39	-46.1	-47.5	14.9	0.00e+00	0	54	0	393216000	55	4119
2026-01-04 21:11:19.24	44.03	9.42	-46.0	-47.3	15.1	0.00e+00	0	53	0	396361728	55	4036
2026-01-04 21:11:20.23	44.19	9.44	-45.9	-47.2	15.1	0.00e+00	0	53	0	398458880	54	4229
2026-01-04 21:11:21.23	44.35	9.47	-46.1	-47.4	14.9	0.00e+00	0	53	0	401604608	54	4339
2026-01-04 21:11:22.22	44.52	9.50	-46.2	-47.6	14.8	7.00e-07	0	53	0	404750336	54	4409
2026-01-04 21:11:23.20	44.68	9.53	-46.1	-47.4	14.9	0.00e+00	0	53	0	407896064	54	4330
2026-01-04 21:11:24.19	44.85	9.56	-46.2	-47.7	14.7	0.00e+00	0	53	0	411041792	54	4444
2026-01-04 21:11:25.18	45.01	9.58	-46.4	-47.8	14.5	3.00e-06	0	53	0	414187520	54	4545
2026-01-04 21:11:26.17	45.17	9.61	-46.2	-47.7	14.7	3.00e-06	0	54	0	417333248	54	4453
2026-01-04 21:11:27.16	45.34	9.64	-46.5	-47.9	14.4	0.00e+00	0	54	0	420478976	54	4595
2026-01-04 21:11:28.14	45.50	9.66	-46.4	-47.9	14.4	7.00e-07	0	54	0	423624704	54	4592
2026-01-04 21:11:29.13	45.67	9.69	-46.5	-48.0	14.4	0.00e+00	0	54	0	426770432	54	4618
2026-01-04 21:11:30.13	45.84	9.72	-46.6	-48.1	14.2	2.20e-06	0	54	0	429916160	55	4428
2026-01-04 21:11:31.10	46.00	9.74	-46.5	-48.0	14.4	3.00e-06	0	54	0	433061888	55	4353
2026-01-04 21:11:32.09	46.17	9.77	-46.6	-48.1	14.3	1.50e-06	0	54	0	436207616	55	4419
2026-01-04 21:11:33.08	46.33	9.79	-46.7	-48.3	14.1	5.30e-06	0	54	0	439353344	55	4501
2026-01-04 21:11:34.07	46.50	9.82	-46.5	-48.0	14.4	7.00e-07	0	54	0	442499072	55	4344
2026-01-04 21:11:35.06	46.67	9.85	-46.7	-48.3	14.1	3.00e-06	0	53	0	445644800	55	4520
2026-01-04 21:11:36.05	46.84	9.87	-46.5	-48.0	14.4	2.20e-06	0	54	0	448790528	55	4369
2026-01-04 21:11:37.04	47.01	9.90	-46.3	-47.7	14.6	2.20e-06	0	54	0	451936256	55	4237
2026-01-04 21:11:38.02	47.17	9.92	-46.2	-47.6	14.8	0.00e+00	0	54	0	455081984	55	4157
2026-01-04 21:11:39.01	47.34	9.95	-46.1	-47.4	14.9	0.00e+00	0	54	0	458227712	55	4097
2026-01-04 21:11:40.00	47.51	9.97	-46.2	-47.6	14.8	0.00e+00	0	54	0	461373440	55	4175
2026-01-04 21:11:40.99	47.68	9.99	-46.1	-47.5	14.9	7.00e-07	0	54	0	463470592	55	4109
2026-01-04 21:11:41.98	47.85	10.02	-45.9	-47.3	15.1	0.00e+00	0	54	0	466616320	55	4020
2026-01-04 21:11:42.97	48.02	10.04	-46.0	-47.3	15.1	0.00e+00	0	54	0	469762048	55	4026
2026-01-04 21:11:43.96	48.19	10.07	-45.9	-47.3	15.1	0.00e+00	0	54	0	472907776	54	4273
2026-01-04 21:11:44.96	48.36	10.09	-46.0	-47.4	15.0	0.00e+00	0	54	0	476053504	54	4293
2026-01-04 21:11:45.95	48.53	10.11	-46.0	-47.4	15.0	0.00e+00	0	54	0	479199232	54	4337
2026-01-04 21:11:46.94	48.70	10.14	-46.2	-47.7	14.8	7.00e-07	0	54	0	482344960	54	4453
2026-01-04 21:11:47.93	48.87	10.16	-46.1	-47.6	14.9	0.00e+00	0	54	0	485490688	54	4405
2026-01-04 21:11:48.91	49.04	10.18	-46.0	-47.4	15.0	0.00e+00	0	54	0	488636416	54	4325
2026-01-04 21:11:49.90	49.21	10.21	-46.0	-47.3	15.1	0.00e+00	0	54	0	491782144	54	4270
2026-01-04 21:11:50.89	49.39	10.23	-46.0	-47.3	15.1	7.00e-07	0	54	0	494927872	54	4290
2026-01-04 21:11:51.88	49.56	10.25	-45.8	-47.1	15.3	0.00e+00	0	54	0	498073600	54	4172
2026-01-04 21:11:52.87	49.73	10.27	-45.8	-47.1	15.3	0.00e+00	0	54	0	501219328	54	4185
2026-01-04 21:11:53.86	49.90	10.29	-45.8	-47.1	15.3	0.00e+00	0	54	0	504365056	54	4193
2026-01-04 21:11:54.85	50.08	10.32	-45.8	-47.1	15.3	0.00e+00	0	54	0	507510784	54	4153
2026-01-04 21:11:55.84	50.25	10.34	-45.7	-47.0	15.5	0.00e+00	0	54	0	510656512	54	4110
2026-01-04 21:11:56.83	50.42	10.36	-45.7	-46.9	15.5	0.00e+00	0	54	0	513802240	54	4093
2026-01-04 21:11:57.82	50.60	10.38	-45.9	-47.2	15.3	0.00e+00	0	54	0	516947968	54	4213
2026-01-04 21:11:58.81	50.77	10.40	-45.9	-47.3	15.1	0.00e+00	0	54	0	520093696	54	4257
2026-01-04 21:11:59.80	50.94	10.42	-45.9	-47.2	15.1	0.00e+00	0	54	0	523239424	54	4226
2026-01-04 21:12:00.79	51.12	10.44	-46.2	-47.6	14.9	0.00e+00	0	54	0	525336576	54	4410
2026-01-04 21:12:01.78	51.29	10.46	-46.1	-47.4	15.0	0.00e+00	0	54	0	528482304	54	4338
2026-01-04 21:12:02.77	51.47	10.48	-46.1	-47.5	14.9	0.00e+00	0	54	0	531628032	54	4380
2026-01-04 21:12:03.76	51.64	10.50	-46.4	-47.8	14.7	7.00e-07	0	54	0	534773760	54	4537
2026-01-04 21:12:04.75	51.82	10.52	-46.3	-47.8	14.7	0.00e+00	0	54	0	537919488	54	4505
2026-01-04 21:12:05.74	51.99	10.54	-46.1	-47.5	15.0	0.00e+00	0	54	0	541065216	54	4371
2026-01-04 21:12:06.72	52.17	10.56	-46.1	-47.5	15.0	0.00e+00	0	54	0	544210944	54	4359
2026-01-04 21:12:07.71	52.34	10.58	-46.1	-47.5	15.1	0.00e+00	0	54	0	547356672	54	4346
2026-01-04 21:12:08.69	52.52	10.59	-46.0	-47.4	15.1	0.00e+00	0	54	0	550502400	54	4296
2026-01-04 21:12:09.69	52.70	10.61	-46.1	-47.5	15.0	0.00e+00	0	54	0	553648128	54	4360
2026-01-04 21:12:10.68	52.87	10.63	-46.2	-47.6	14.9	0.00e+00	0	55	0	556793856	54	4439
2026-01-04 21:12:11.68	53.05	10.65	-46.4	-47.9	14.5	0.00e+00	0	54	0	559939584	54	4582
2026-01-04 21:12:12.66	53.23	10.67	-46.5	-48.0	14.5	7.00e-07	0	54	0	563085312	55	4360
2026-01-04 21:12:13.65	53.40	10.68	-46.6	-48.1	14.4	0.00e+00	0	55	0	566231040	55	4404
2026-01-04 21:12:14.65	53.58	10.70	-46.8	-48.4	14.1	3.00e-06	0	55	0	569376768	55	4547
2026-01-04 21:12:15.63	53.76	10.72	-46.7	-48.3	14.2	2.20e-06	0	54	0	572522496	55	4509
2026-01-04 21:12:16.62	53.94	10.74	-46.5	-47.9	14.5	1.50e-06	0	54	0	575668224	55	4338
2026-01-04 21:12:17.61	54.11	10.75	-46.2	-47.6	14.8	7.00e-07	0	55	0	578813952	55	4146
2026-01-04 21:12:18.61	54.29	10.77	-46.3	-47.7	14.8	0.00e+00	0	54	0	581959680	55	4204
2026-01-04 21:12:19.59	54.47	10.78	-46.4	-47.8	14.6	0.00e+00	0	54	0	585105408	55	4286
2026-01-04 21:12:20.59	54.65	10.80	-46.4	-47.8	14.7	0.00e+00	0	54	0	587202560	55	4285
2026-01-04 21:12:21.58	54.83	10.82	-46.1	-47.5	14.9	0.00e+00	0	55	0	590348288	55	4109
2026-01-04 21:12:22.57	55.01	10.83	-45.9	-47.2	15.2	7.00e-07	0	54	0	593494016	55	4004
2026-01-04 21:12:23.57	55.19	10.85	-46.0	-47.3	15.1	0.00e+00	0	54	0	596639744	54	4283
2026-01-04 21:12:24.56	55.37	10.86	-46.0	-47.3	15.0	0.00e+00	0	55	0	599785472	54	4281
2026-01-04 21:12:25.55	55.55	10.88	-45.9	-47.2	15.2	0.00e+00	0	54	0	602931200	54	4230
2026-01-04 21:12:26.54	55.73	10.89	-46.1	-47.4	15.0	0.00e+00	0	55	0	606076928	54	4321
2026-01-04 21:12:27.53	55.91	10.90	-46.2	-47.6	14.9	7.00e-07	0	55	0	609222656	54	4393
2026-01-04 21:12:28.52	56.09	10.92	-46.4	-47.8	14.7	0.00e+00	0	55	0	612368384	54	4528
2026-01-04 21:12:29.50	56.27	10.93	-46.4	-47.8	14.6	7.00e-07	0	55	0	615514112	55	4289
2026-01-04 21:12:30.48	56.45	10.94	-46.1	-47.5	15.0	0.00e+00	0	55	0	618659840	55	4103
2026-01-04 21:12:31.46	56.62	10.96	-45.9	-47.2	15.2	0.00e+00	0	55	0	621805568	55	3978
2026-01-04 21:12:32.45	56.81	10.97	-45.8	-47.0	15.4	0.00e+00	0	55	0	624951296	54	4141
2026-01-04 21:12:33.45	56.99	10.98	-45.6	-46.9	15.5	0.00e+00	0	55	0	628097024	54	4076
2026-01-04 21:12:34.43	57.17	11.00	-45.7	-47.0	15.5	0.00e+00	0	55	0	631242752	54	4106
2026-01-04 21:12:35.42	57.35	11.01	-45.8	-47.0	15.4	0.00e+00	0	55	0	634388480	54	4125
2026-01-04 21:12:36.41	57.53	11.02	-45.9	-47.1	15.4	0.00e+00	0	55	0	637534208	54	4188
2026-01-04 21:12:37.40	57.71	11.03	-45.8	-47.1	15.3	0.00e+00	0	55	0	640679936	54	4184
2026-01-04 21:12:38.40	57.89	11.04	-45.8	-47.1	15.4	0.00e+00	0	55	0	643825664	54	4171
2026-01-04 21:12:39.39	58.08	11.05	-45.8	-47.1	15.4	0.00e+00	0	55	0	646971392	54	4178
2026-01-04 21:12:40.38	58.26	11.07	-45.8	-47.1	15.4	0.00e+00	0	55	0	649068544	54	4185
2026-01-04 21:12:41.37	58.44	11.08	-45.8	-47.1	15.4	0.00e+00	0	55	0	652214272	54	4152
2026-01-04 21:12:42.35	58.62	11.09	-45.7	-47.0	15.5	0.00e+00	0	55	0	655360000	54	4116
2026-01-04 21:12:43.34	58.80	11.10	-45.8	-47.1	15.4	0.00e+00	0	55	0	658505728	54	4183
2026-01-04 21:12:44.33	58.99	11.11	-45.9	-47.2	15.2	0.00e+00	0	55	0	661651456	54	4222
2026-01-04 21:12:45.31	59.17	11.12	-46.0	-47.4	14.8	0.00e+00	0	55	0	664797184	54	4310
2026-01-04 21:12:46.31	59.35	11.13	-45.8	-47.2	15.0	1.50e-06	0	55	0	667942912	54	4221
2026-01-04 21:12:47.29	59.53	11.13	-46.0	-47.3	14.9	0.00e+00	0	55	0	671088640	54	4286
2026-01-04 21:12:48.28	59.71	11.14	-45.7	-47.0	15.3	0.00e+00	0	55	0	674234368	54	4129
2026-01-04 21:12:49.27	59.90	11.15	-45.9	-47.2	15.2	7.00e-07	0	55	0	677380096	54	4205
2026-01-04 21:12:50.26	60.08	11.16	-45.9	-47.2	15.2	0.00e+00	0	55	0	680525824	54	4216
2026-01-04 21:12:51.25	60.26	11.17	-45.8	-47.1	15.4	0.00e+00	0	55	0	683671552	54	4177
2026-01-04 21:12:52.24	60.45	11.18	-45.8	-47.1	15.3	0.00e+00	0	55	0	686817280	54	4189
2026-01-04 21:12:53.22	60.63	11.18	-45.8	-47.0	15.3	0.00e+00	0	55	0	689963008	54	4141
2026-01-04 21:12:54.21	60.81	11.19	-45.8	-47.1	15.3	0.00e+00	0	55	0	693108736	54	4179
2026-01-04 21:12:55.21	61.00	11.20	-46.0	-47.4	15.0	0.00e+00	0	55	0	696254464	54	4292
2026-01-04 21:12:56.20	61.18	11.21	-46.1	-47.4	15.0	0.00e+00	0	55	0	699400192	54	4336
2026-01-04 21:12:57.19	61.36	11.21	-45.9	-47.2	15.1	7.00e-07	0	55	0	702545920	54	4229
2026-01-04 21:12:58.18	61.55	11.22	-45.8	-47.1	15.2	7.00e-07	0	55	0	704643072	54	4180
2026-01-04 21:12:59.17	61.73	11.22	-45.6	-46.9	15.3	7.00e-07	0	55	0	707788800	54	4095
2026-01-04 21:13:00.16	61.92	11.23	-45.8	-47.1	15.3	0.00e+00	0	55	0	710934528	54	4162
2026-01-04 21:13:01.14	62.10	11.24	-46.1	-47.4	15.0	0.00e+00	0	55	0	714080256	54	4328
2026-01-04 21:13:02.13	62.28	11.24	-45.8	-47.1	15.3	0.00e+00	0	55	0	717225984	54	4182
2026-01-04 21:13:03.11	62.46	11.25	-46.1	-47.5	15.0	0.00e+00	0	55	0	720371712	54	4372
2026-01-04 21:13:04.10	62.65	11.25	-46.3	-47.7	14.7	1.50e-06	0	55	0	723517440	54	4490
2026-01-04 21:13:05.09	62.83	11.26	-46.1	-47.5	14.9	0.00e+00	0	55	0	726663168	54	4376
2026-01-04 21:13:06.09	63.02	11.26	-46.0	-47.4	15.1	0.00e+00	0	55	0	729808896	54	4292
2026-01-04 21:13:07.08	63.20	11.26	-45.8	-47.1	15.3	0.00e+00	0	55	0	732954624	54	4171
2026-01-04 21:13:08.07	63.39	11.27	-45.8	-47.1	15.2	0.00e+00	0	55	0	736100352	54	4157
2026-01-04 21:13:09.05	63.57	11.27	-45.8	-47.1	15.2	0.00e+00	0	55	0	739246080	54	4192
2026-01-04 21:13:10.04	63.75	11.27	-46.1	-47.5	14.8	1.50e-06	0	55	0	742391808	54	4384
2026-01-04 21:13:11.03	63.94	11.28	-46.0	-47.3	14.9	7.00e-07	0	55	0	745537536	54	4283
2026-01-04 21:13:12.02	64.12	11.28	-45.7	-47.0	15.1	4.50e-06	0	55	0	748683264	54	4124
2026-01-04 21:13:13.01	64.31	11.28	-45.5	-46.8	15.2	6.10e-06	0	55	0	751828992	54	4026
2026-01-04 21:13:14.00	64.49	11.28	-45.3	-46.6	15.4	9.10e-06	0	55	0	754974720	53	4164
2026-01-04 21:13:15.00	64.68	11.29	-45.4	-46.7	15.2	8.30e-06	0	55	0	758120448	53	4215
2026-01-04 21:13:15.99	64.86	11.29	-45.5	-46.7	15.7	0.00e+00	0	55	0	761266176	53	4213
2026-01-04 21:13:16.98	65.05	11.29	-45.5	-46.7	15.7	0.00e+00	0	55	0	763363328	53	4236
2026-01-04 21:13:17.97	65.23	11.29	-45.5	-46.8	15.7	0.00e+00	0	55	0	766509056	53	4272
2026-01-04 21:13:18.96	65.42	11.29	-45.6	-46.8	15.7	0.00e+00	0	55	0	769654784	53	4271
2026-01-04 21:13:19.95	65.60	11.29	-45.5	-46.8	15.7	0.00e+00	0	55	0	772800512	53	4255
2026-01-04 21:13:20.94	65.79	11.29	-45.5	-46.8	15.7	0.00e+00	0	55	0	775946240	53	4255
2026-01-04 21:13:21.94	65.97	11.29	-45.7	-46.9	15.5	0.00e+00	0	55	0	779091968	53	4332
2026-01-04 21:13:22.92	66.16	11.29	-45.5	-46.7	15.7	0.00e+00	0	55	0	782237696	53	4240
2026-01-04 21:13:23.91	66.34	11.29	-45.5	-46.7	15.7	0.00e+00	0	55	0	785383424	53	4219
2026-01-04 21:13:24.90	66.53	11.29	-45.7	-47.0	15.5	0.00e+00	0	55	0	788529152	53	4343
2026-01-04 21:13:25.89	66.71	11.29	-45.5	-46.8	15.7	0.00e+00	0	55	0	791674880	53	4245
2026-01-04 21:13:26.87	66.89	11.29	-45.4	-46.7	15.8	0.00e+00	0	55	0	794820608	53	4200
2026-01-04 21:13:27.86	67.08	11.29	-45.4	-46.5	15.9	0.00e+00	0	55	0	797966336	53	4143
2026-01-04 21:13:28.84	67.26	11.29	-45.4	-46.6	15.8	0.00e+00	0	55	0	801112064	53	4170
2026-01-04 21:13:29.82	67.45	11.28	-45.3	-46.5	16.0	0.00e+00	0	55	0	804257792	53	4128
2026-01-04 21:13:30.80	67.63	11.28	-45.3	-46.5	16.0	0.00e+00	0	55	0	807403520	53	4116
2026-01-04 21:13:31.79	67.81	11.28	-45.4	-46.6	15.9	0.00e+00	0	55	0	810549248	53	4154
2026-01-04 21:13:32.78	68.00	11.28	-45.5	-46.8	15.7	0.00e+00	0	55	0	813694976	53	4257
2026-01-04 21:13:33.77	68.18	11.27	-45.5	-46.7	15.7	0.00e+00	0	56	0	816840704	53	4238
2026-01-04 21:13:34.76	68.37	11.27	-45.5	-46.7	15.8	0.00e+00	0	55	0	818937856	53	4211
2026-01-04 21:13:35.75	68.55	11.27	-45.6	-46.8	15.7	0.00e+00	0	55	0	822083584	53	4255
2026-01-04 21:13:36.74	68.74	11.26	-45.7	-47.0	15.4	0.00e+00	0	55	0	825229312	53	4370
2026-01-04 21:13:37.72	68.92	11.26	-45.8	-47.0	15.4	0.00e+00	0	55	0	828375040	53	4370
2026-01-04 21:13:38.71	69.10	11.25	-45.8	-47.0	15.4	0.00e+00	0	55	0	831520768	53	4390
2026-01-04 21:13:39.70	69.29	11.25	-45.7	-47.0	15.4	0.00e+00	0	56	0	834666496	53	4364
2026-01-04 21:13:40.68	69.47	11.24	-45.6	-46.8	15.6	0.00e+00	0	55	0	837812224	53	4283
2026-01-04 21:13:41.68	69.66	11.24	-45.6	-46.8	15.7	0.00e+00	0	55	0	840957952	53	4250
2026-01-04 21:13:42.67	69.84	11.23	-45.6	-46.9	15.6	0.00e+00	0	55	0	844103680	53	4297
2026-01-04 21:13:43.67	70.03	11.23	-45.6	-46.8	15.6	0.00e+00	0	55	0	847249408	53	4283
2026-01-04 21:13:44.66	70.21	11.22	-45.6	-46.8	15.7	0.00e+00	0	56	0	850395136	53	4265
2026-01-04 21:13:45.65	70.39	11.21	-45.6	-46.9	15.6	0.00e+00	0	55	0	853540864	53	4325
2026-01-04 21:13:46.64	70.58	11.21	-45.7	-46.9	15.5	0.00e+00	0	56	0	856686592	53	4338
2026-01-04 21:13:47.63	70.76	11.20	-45.5	-46.7	15.8	0.00e+00	0	56	0	859832320	53	4222
2026-01-04 21:13:48.62	70.94	11.19	-45.5	-46.6	15.8	0.00e+00	0	56	0	862978048	53	4183
2026-01-04 21:13:49.61	71.13	11.19	-45.6	-46.8	15.7	0.00e+00	0	55	0	866123776	53	4288
2026-01-04 21:13:50.59	71.31	11.18	-45.7	-47.0	15.5	0.00e+00	0	56	0	869269504	53	4375
2026-01-04 21:13:51.58	71.49	11.17	-45.7	-47.0	15.5	0.00e+00	0	55	0	872415232	53	4357
2026-01-04 21:13:52.58	71.68	11.16	-45.8	-47.0	15.4	0.00e+00	0	56	0	875560960	53	4382
2026-01-04 21:13:53.57	71.86	11.16	-45.8	-47.1	15.3	0.00e+00	0	56	0	878706688	53	4440
2026-01-04 21:13:54.56	72.04	11.15	-45.9	-47.2	15.3	0.00e+00	0	55	0	880803840	53	4470
2026-01-04 21:13:55.55	72.23	11.14	-45.9	-47.2	15.3	0.00e+00	0	56	0	883949568	53	4456
2026-01-04 21:13:56.55	72.41	11.13	-46.0	-47.4	15.1	0.00e+00	0	55	0	887095296	53	4561
2026-01-04 21:13:57.54	72.60	11.12	-46.0	-47.3	15.2	0.00e+00	0	56	0	890241024	54	4282
2026-01-04 21:13:58.53	72.78	11.11	-45.9	-47.1	15.4	0.00e+00	0	55	0	893386752	54	4193
2026-01-04 21:13:59.52	72.96	11.10	-45.7	-47.0	15.5	0.00e+00	0	55	0	896532480	54	4123
2026-01-04 21:14:00.51	73.14	11.09	-45.9	-47.1	15.4	0.00e+00	0	56	0	899678208	54	4190
2026-01-04 21:14:01.50	73.33	11.08	-45.9	-47.1	15.4	0.00e+00	0	56	0	902823936	54	4183
2026-01-04 21:14:02.49	73.51	11.07	-45.8	-47.1	15.4	0.00e+00	0	56	0	905969664	54	4188
2026-01-04 21:14:03.47	73.69	11.06	-45.7	-47.0	15.5	0.00e+00	0	56	0	909115392	54	4113
2026-01-04 21:14:04.47	73.87	11.05	-45.8	-47.1	15.4	0.00e+00	0	56	0	912261120	54	4167
2026-01-04 21:14:05.46	74.05	11.04	-45.9	-47.2	15.3	0.00e+00	0	56	0	915406848	54	4222
2026-01-04 21:14:06.45	74.24	11.02	-45.9	-47.2	15.3	0.00e+00	0	56	0	918552576	54	4206
2026-01-04 21:14:07.44	74.42	11.01	-46.0	-47.3	15.2	0.00e+00	0	56	0	921698304	54	4253
2026-01-04 21:14:08.42	74.60	11.00	-46.1	-47.4	15.1	0.00e+00	0	56	0	924844032	54	4319
2026-01-04 21:14:09.41	74.78	10.99	-46.0	-47.3	15.2	0.00e+00	0	56	0	927989760	54	4280
2026-01-04 21:14:10.40	74.96	10.97	-46.0	-47.3	15.2	0.00e+00	0	56	0	931135488	54	4279
2026-01-04 21:14:11.39	75.14	10.96	-45.9	-47.2	15.2	0.00e+00	0	56	0	934281216	54	4240
2026-01-04 21:14:12.37	75.32	10.95	-46.1	-47.4	15.0	0.00e+00	0	56	0	937426944	54	4323
2026-01-04 21:14:13.36	75.50	10.94	-46.2	-47.6	14.9	0.00e+00	0	56	0	940572672	54	4411
2026-01-04 21:14:14.35	75.68	10.92	-46.2	-47.6	14.8	0.00e+00	0	56	0	943718400	54	4404
2026-01-04 21:14:15.33	75.86	10.91	-46.3	-47.8	14.6	2.20e-06	0	56	0	945815552	54	4519
2026-01-04 21:14:16.33	76.04	10.89	-46.2	-47.6	14.8	1.50e-06	0	56	0	948961280	54	4422
2026-01-04 21:14:17.32	76.22	10.88	-46.3	-47.7	14.6	3.00e-06	0	56	0	952107008	54	4470
2026-01-04 21:14:18.31	76.40	10.86	-46.5	-48.0	14.4	1.14e-05	0	56	0	955252736	54	4618
2026-01-04 21:14:19.29	76.58	10.85	-46.3	-47.7	14.7	3.00e-06	0	56	0	958398464	54	4471
2026-01-04 21:14:20.28	76.76	10.84	-46.1	-47.4	15.0	0.00e+00	0	56	0	961544192	54	4339
2026-01-04 21:14:21.27	76.94	10.82	-45.9	-47.2	15.2	0.00e+00	0	56	0	964689920	54	4231
2026-01-04 21:14:22.26	77.12	10.80	-46.0	-47.3	15.1	7.00e-07	0	56	0	967835648	54	4280
2026-01-04 21:14:23.25	77.30	10.79	-46.1	-47.5	15.0	7.00e-07	0	56	0	970981376	54	4349
2026-01-04 21:14:24.24	77.47	10.77	-45.9	-47.3	15.2	0.00e+00	0	56	0	974127104	54	4244
2026-01-04 21:14:25.22	77.65	10.76	-46.1	-47.6	14.8	0.00e+00	0	56	0	977272832	54	4408
2026-01-04 21:14:26.21	77.83	10.74	-45.9	-47.2	15.2	2.20e-06	0	56	0	980418560	54	4197
2026-01-04 21:14:27.19	78.01	10.72	-45.7	-47.0	15.5	0.00e+00	0	56	0	983564288	54	4102
2026-01-04 21:14:28.18	78.18	10.71	-45.6	-46.8	15.7	0.00e+00	0	56	0	986710016	54	4042
2026-01-04 21:14:29.16	78.36	10.69	-45.5	-46.8	15.7	0.00e+00	0	56	0	989855744	54	4022
2026-01-04 21:14:30.14	78.54	10.67	-45.6	-46.8	15.7	0.00e+00	0	56	0	993001472	54	4028
2026-01-04 21:14:31.13	78.71	10.65	-45.6	-46.8	15.6	0.00e+00	0	56	0	995098624	54	4037
2026-01-04 21:14:32.11	78.89	10.64	-45.6	-46.8	15.6	0.00e+00	0	56	0	998244352	54	4038
2026-01-04 21:14:33.10	79.07	10.62	-45.6	-46.9	15.6	0.00e+00	0	56	0	1001390080	54	4059
2026-01-04 21:14:34.09	79.24	10.60	-45.9	-47.1	15.4	0.00e+00	0	56	0	1004535808	54	4190
2026-01-04 21:14:35.08	79.42	10.58	-45.6	-46.9	15.5	0.00e+00	0	56	0	1007681536	54	4077
2026-01-04 21:14:36.07	79.60	10.56	-45.7	-47.0	15.4	0.00e+00	0	56	0	1010827264	54	4132
2026-01-04 21:14:37.06	79.77	10.54	-45.9	-47.2	15.3	0.00e+00	0	56	0	1013972992	54	4212
2026-01-04 21:14:38.05	79.95	10.53	-45.7	-47.0	15.5	0.00e+00	0	56	0	1017118720	54	4131
2026-01-04 21:14:39.04	80.12	10.51	-45.7	-47.0	15.5	0.00e+00	0	56	0	1020264448	54	4110
2026-01-04 21:14:40.03	80.30	10.49	-45.7	-47.0	15.5	0.00e+00	0	56	0	1023410176	54	4134
2026-01-04 21:14:41.02	80.47	10.47	-45.8	-47.0	15.4	0.00e+00	0	56	0	1026555904	54	4144
2026-01-04 21:14:42.00	80.65	10.45	-45.9	-47.2	15.2	0.00e+00	0	56	0	1029701632	54	4238
2026-01-04 21:14:42.99	80.82	10.43	-45.8	-47.1	15.4	0.00e+00	0	56	0	1032847360	54	4171
2026-01-04 21:14:43.97	81.00	10.41	-46.0	-47.3	15.2	0.00e+00	0	56	0	1035993088	54	4253
2026-01-04 21:14:44.97	81.17	10.38	-45.9	-47.2	15.3	0.00e+00	0	56	0	1039138816	54	4194
2026-01-04 21:14:45.95	81.34	10.36	-45.7	-47.0	15.5	0.00e+00	0	56	0	1042284544	54	4112
2026-01-04 21:14:46.94	81.52	10.34	-45.8	-47.2	15.3	0.00e+00	0	56	0	1045430272	54	4194
2026-01-04 21:14:47.93	81.69	10.32	-46.0	-47.4	15.1	0.00e+00	0	56	0	1047527424	54	4303
2026-01-04 21:14:48.91	81.86	10.30	-46.0	-47.3	15.2	0.00e+00	0	56	0	1050673152	54	4263
2026-01-04 21:14:49.90	82.04	10.28	-45.8	-47.1	15.4	0.00e+00	0	56	0	1053818880	54	4161
2026-01-04 21:14:50.89	82.21	10.26	-45.8	-47.1	15.3	0.00e+00	0	56	0	1056964608	54	4178
2026-01-04 21:14:51.86	82.38	10.23	-45.8	-47.1	15.4	0.00e+00	0	56	0	1060110336	54	4171
2026-01-04 21:14:52.86	82.55	10.21	-45.8	-47.1	15.4	0.00e+00	0	56	0	1063256064	54	4164
2026-01-04 21:14:53.85	82.72	10.19	-46.0	-47.3	15.2	0.00e+00	0	56	0	1066401792	54	4259
2026-01-04 21:14:54.84	82.90	10.17	-45.9	-47.1	15.3	0.00e+00	0	56	0	1069547520	54	4193
2026-01-04 21:14:55.83	83.07	10.14	-45.9	-47.3	15.2	7.00e-07	0	56	0	1072693248	54	4245
2026-01-04 21:14:56.82	83.24	10.12	-46.2	-47.6	14.9	7.00e-07	0	56	0	1075838976	54	4401
2026-01-04 21:14:57.80	83.41	10.10	-46.1	-47.5	15.0	0.00e+00	0	56	0	1078984704	54	4363
2026-01-04 21:14:58.79	83.58	10.07	-45.9	-47.3	15.2	0.00e+00	0	56	0	1082130432	54	4258
2026-01-04 21:14:59.77	83.75	10.05	-45.8	-47.1	15.4	0.00e+00	0	56	0	1085276160	54	4146
2026-01-04 21:15:00.76	83.92	10.03	-45.6	-46.9	15.6	0.00e+00	0	56	0	1088421888	54	4052
2026-01-04 21:15:01.75	84.09	10.00	-45.7	-46.9	15.5	0.00e+00	0	56	0	1091567616	54	4095
2026-01-04 21:15:02.74	84.26	9.98	-45.7	-47.0	15.4	0.00e+00	0	56	0	1094713344	54	4115
2026-01-04 21:15:03.72	84.43	9.95	-45.8	-47.0	15.4	0.00e+00	0	56	0	1097859072	54	4130
2026-01-04 21:15:04.71	84.60	9.93	-45.8	-47.1	15.4	0.00e+00	0	56	0	1101004800	54	4148
2026-01-04 21:15:05.71	84.77	9.90	-45.7	-46.9	15.5	0.00e+00	0	56	0	1104150528	54	4072
2026-01-04 21:15:06.70	84.93	9.88	-45.7	-47.0	15.5	0.00e+00	0	56	0	1107296256	54	4113
2026-01-04 21:15:07.68	85.10	9.85	-45.9	-47.2	15.2	0.00e+00	0	56	0	1109393408	54	4214
2026-01-04 21:15:08.68	85.27	9.83	-45.8	-47.2	15.3	0.00e+00	0	56	0	1112539136	54	4197
2026-01-04 21:15:09.68	85.44	9.80	-45.7	-47.0	15.5	0.00e+00	0	56	0	1115684864	54	4101
2026-01-04 21:15:10.67	85.61	9.77	-45.6	-46.9	15.6	0.00e+00	0	56	0	1118830592	54	4054
2026-01-04 21:15:11.66	85.78	9.75	-45.6	-46.9	15.5	0.00e+00	0	56	0	1121976320	54	4069
2026-01-04 21:15:12.64	85.94	9.72	-45.6	-47.0	15.5	0.00e+00	0	56	0	1125122048	54	4099
2026-01-04 21:15:13.63	86.11	9.70	-45.7	-47.0	15.4	0.00e+00	0	56	0	1128267776	54	4145
2026-01-04 21:15:14.62	86.27	9.67	-45.8	-47.1	15.3	0.00e+00	0	56	0	1131413504	54	4190
2026-01-04 21:15:15.61	86.44	9.64	-45.9	-47.2	15.2	0.00e+00	0	56	0	1134559232	54	4238
2026-01-04 21:15:16.60	86.61	9.62	-46.1	-47.5	15.0	0.00e+00	0	56	0	1137704960	54	4358
2026-01-04 21:15:17.59	86.77	9.59	-46.0	-47.3	15.1	0.00e+00	0	56	0	1140850688	54	4276
2026-01-04 21:15:18.58	86.94	9.56	-45.9	-47.3	15.2	0.00e+00	0	56	0	1143996416	54	4244
2026-01-04 21:15:19.57	87.10	9.53	-46.0	-47.4	15.1	0.00e+00	0	56	0	1147142144	54	4303
2026-01-04 21:15:20.56	87.27	9.51	-46.1	-47.4	15.0	0.00e+00	0	56	0	1150287872	54	4340
2026-01-04 21:15:21.55	87.43	9.48	-46.1	-47.5	14.9	0.00e+00	0	56	0	1153433600	54	4378
2026-01-04 21:15:22.54	87.59	9.45	-46.2	-47.5	14.9	0.00e+00	0	56	0	1156579328	54	4371
2026-01-04 21:15:23.53	87.76	9.42	-46.1	-47.5	14.9	0.00e+00	0	56	0	1159725056	54	4364
2026-01-04 21:15:24.52	87.92	9.39	-46.3	-47.7	14.7	0.00e+00	0	56	0	1162870784	54	4452
2026-01-04 21:15:25.51	88.08	9.36	-46.2	-47.6	14.8	7.00e-07	0	56	0	1166016512	54	4435
2026-01-04 21:15:26.51	88.25	9.33	-46.1	-47.5	15.0	0.00e+00	0	56	0	1169162240	54	4347
2026-01-04 21:15:27.50	88.41	9.31	-46.1	-47.5	14.9	0.00e+00	0	56	0	1172307968	54	4391
2026-01-04 21:15:28.48	88.57	9.28	-46.3	-47.7	14.7	7.00e-07	0	56	0	1174405120	54	4474
2026-01-04 21:15:29.47	88.73	9.25	-46.3	-47.7	14.7	0.00e+00	0	56	0	1177550848	54	4475
2026-01-04 21:15:30.45	88.89	9.22	-46.2	-47.6	14.8	0.00e+00	0	56	0	1180696576	54	4441
2026-01-04 21:15:31.44	89.06	9.19	-46.2	-47.6	14.8	0.00e+00	0	56	0	1183842304	54	4415
2026-01-04 21:15:32.43	89.22	9.16	-46.0	-47.3	15.1	0.00e+00	0	56	0	1186988032	54	4268
2026-01-04 21:15:33.42	89.38	9.13	-45.8	-47.1	15.3	0.00e+00	0	56	0	1190133760	54	4155
2026-01-04 21:15:34.41	89.54	9.10	-45.7	-47.0	15.4	0.00e+00	0	56	0	1193279488	54	4144
2026-01-04 21:15:35.40	89.70	9.07	-45.8	-47.2	15.2	0.00e+00	0	56	0	1196425216	54	4215
2026-01-04 21:15:36.39	89.86	9.04	-45.9	-47.2	15.2	0.00e+00	0	56	0	1199570944	54	4238
2026-01-04 21:15:37.38	90.02	9.01	-46.0	-47.4	15.1	0.00e+00	0	56	0	1202716672	54	4296
2026-01-04 21:15:38.36	90.17	8.98	-46.2	-47.6	14.7	7.00e-07	0	56	0	1205862400	54	4437
2026-01-04 21:15:39.35	90.33	8.95	-46.1	-47.6	14.8	7.00e-07	0	56	0	1209008128	54	4403
2026-01-04 21:15:40.34	90.49	8.92	-46.3	-47.8	14.6	0.00e+00	0	56	0	1212153856	54	4511
2026-01-04 21:15:41.33	90.65	8.88	-46.2	-47.7	14.7	7.00e-07	0	56	0	1215299584	54	4455
2026-01-04 21:15:42.32	90.81	8.85	-46.5	-48.0	14.4	0.00e+00	0	56	0	1218445312	54	4636
2026-01-04 21:15:43.31	90.96	8.82	-46.7	-48.2	14.2	2.20e-06	0	56	0	1221591040	55	4483
2026-01-04 21:15:44.30	91.12	8.79	-46.6	-48.2	14.2	1.50e-06	0	56	0	1224736768	55	4461
2026-01-04 21:15:45.30	91.28	8.76	-46.6	-48.2	14.2	7.00e-07	0	56	0	1227882496	55	4469
2026-01-04 21:15:46.29	91.44	8.73	-46.8	-48.4	14.0	7.00e-07	0	56	0	1231028224	55	4567
2026-01-04 21:15:47.28	91.59	8.69	-46.9	-48.5	13.8	7.00e-07	0	56	0	1234173952	55	4648
2026-01-04 21:15:48.27	91.75	8.66	-46.7	-48.3	14.1	2.20e-06	0	56	0	1236271104	55	4514
2026-01-04 21:15:49.26	91.90	8.63	-46.6	-48.2	14.2	2.20e-06	0	56	0	1239416832	55	4452
2026-01-04 21:15:50.25	92.06	8.60	-46.7	-48.3	14.1	2.20e-06	0	56	0	1242562560	55	4525
2026-01-04 21:15:51.24	92.21	8.56	-46.9	-48.5	13.9	5.30e-06	0	56	0	1245708288	55	4614
2026-01-04 21:15:52.23	92.37	8.53	-46.8	-48.4	14.0	0.00e+00	0	56	0	1248854016	55	4598
2026-01-04 21:15:53.21	92.52	8.50	-47.1	-48.8	13.6	8.30e-06	0	56	0	1251999744	55	4773
2026-01-04 21:15:54.20	92.67	8.47	-46.9	-48.5	13.8	4.50e-06	0	56	0	1255145472	55	4634
2026-01-04 21:15:55.19	92.83	8.43	-47.2	-48.9	13.5	1.06e-05	0	56	0	1258291200	56	4596
2026-01-04 21:15:56.18	92.98	8.40	-47.0	-48.6	13.8	3.80e-06	0	56	0	1261436928	56	4439
2026-01-04 21:15:57.17	93.13	8.37	-47.2	-48.9	13.6	4.50e-06	0	56	0	1264582656	56	4595
2026-01-04 21:15:58.17	93.29	8.33	-47.0	-48.8	13.7	2.20e-06	0	56	0	1267728384	56	4495
2026-01-04 21:15:59.16	93.44	8.30	-47.0	-48.7	13.8	6.10e-06	0	56	0	1270874112	56	4453
2026-01-04 21:16:00.15	93.59	8.27	-47.0	-48.7	13.8	1.06e-05	0	56	0	1274019840	56	4482
2026-01-04 21:16:01.14	93.74	8.23	-47.1	-48.8	13.7	3.00e-06	0	56	0	1277165568	56	4519
2026-01-04 21:16:02.12	93.89	8.20	-47.2	-49.0	13.5	8.30e-06	0	56	0	1280311296	56	4606
2026-01-04 21:16:03.12	94.04	8.16	-47.1	-48.9	13.6	7.60e-06	0	56	0	1283457024	56	4557
2026-01-04 21:16:04.11	94.19	8.13	-46.7	-48.3	14.1	2.20e-06	0	56	0	1286602752	56	4291
2026-01-04 21:16:05.10	94.34	8.09	-46.5	-48.0	14.5	0.00e+00	0	56	0	1289748480	56	4126
2026-01-04 21:16:06.09	94.49	8.06	-46.2	-47.7	14.7	0.00e+00	0	56	0	1292894208	55	4198
2026-01-04 21:16:07.08	94.64	8.03	-46.1	-47.5	14.8	0.00e+00	0	56	0	1296039936	55	4117
2026-01-04 21:16:08.07	94.79	7.99	-46.1	-47.5	14.9	0.00e+00	0	56	0	1299185664	55	4102
2026-01-04 21:16:09.07	94.94	7.96	-46.1	-47.6	14.8	0.00e+00	0	56	0	1301282816	55	4150
2026-01-04 21:16:10.06	95.09	7.92	-46.1	-47.5	14.8	0.00e+00	0	56	0	1304428544	55	4134
2026-01-04 21:16:11.04	95.24	7.89	-46.2	-47.7	14.6	0.00e+00	0	56	0	1307574272	55	4234
2026-01-04 21:16:12.03	95.38	7.85	-46.3	-47.7	14.6	0.00e+00	0	56	0	1310720000	55	4238
2026-01-04 21:16:13.02	95.53	7.82	-46.4	-47.9	14.5	0.00e+00	0	56	0	1313865728	55	4300
2026-01-04 21:16:14.01	95.68	7.78	-46.5	-48.1	14.2	1.50e-06	0	56	0	1317011456	55	4393
2026-01-04 21:16:15.00	95.83	7.74	-46.4	-47.9	14.5	7.00e-07	0	56	0	1320157184	55	4295
2026-01-04 21:16:15.99	95.97	7.71	-46.4	-47.9	14.4	7.00e-07	0	56	0	1323302912	55	4298
2026-01-04 21:16:16.99	96.12	7.67	-46.5	-48.1	14.3	1.50e-06	0	56	0	1326448640	55	4408
2026-01-04 21:16:17.97	96.26	7.64	-46.7	-48.3	14.0	7.00e-07	0	56	0	1329594368	55	4544
2026-01-04 21:16:18.97	96.41	7.60	-46.6	-48.2	14.1	7.00e-07	0	56	0	1332740096	55	4488
2026-01-04 21:16:19.96	96.55	7.56	-46.5	-48.1	14.2	0.00e+00	0	56	0	1335885824	55	4403
2026-01-04 21:16:20.94	96.70	7.53	-46.5	-48.1	14.1	7.00e-07	0	56	0	1339031552	55	4429
2026-01-04 21:16:21.93	96.84	7.49	-46.6	-48.1	14.1	0.00e+00	0	56	0	1342177280	55	4439
2026-01-04 21:16:22.93	96.99	7.46	-46.7	-48.3	14.0	7.00e-07	0	56	0	1345323008	55	4515
2026-01-04 21:16:23.92	97.13	7.42	-46.4	-48.0	14.3	7.00e-07	0	56	0	1348468736	55	4361
2026-01-04 21:16:24.90	97.27	7.38	-46.4	-47.9	14.4	1.50e-06	0	56	0	1351614464	55	4311
2026-01-04 21:16:25.90	97.42	7.35	-46.4	-47.9	14.4	0.00e+00	0	56	0	1354760192	55	4318
2026-01-04 21:16:26.88	97.56	7.31	-46.5	-48.1	14.2	2.20e-06	0	56	0	1357905920	55	4402
2026-01-04 21:16:27.86	97.70	7.27	-46.5	-48.1	14.2	7.00e-07	0	56	0	1360003072	55	4392
2026-01-04 21:16:28.85	97.84	7.24	-46.5	-48.1	14.2	1.50e-06	0	56	0	1363148800	55	4407
2026-01-04 21:16:29.83	97.98	7.20	-46.6	-48.2	14.0	7.00e-07	0	56	0	1366294528	55	4485
2026-01-04 21:16:30.83	98.12	7.16	-46.6	-48.1	14.1	1.50e-06	0	56	0	1369440256	55	4439
2026-01-04 21:16:31.82	98.26	7.12	-46.4	-48.0	14.3	7.00e-07	0	56	0	1372585984	55	4370
2026-01-04 21:16:32.81	98.40	7.09	-46.5	-48.1	14.2	1.50e-06	0	56	0	1375731712	55	4393
2026-01-04 21:16:33.80	98.54	7.05	-46.7	-48.4	13.9	3.80e-06	0	56	0	1378877440	55	4552
2026-01-04 21:16:34.79	98.68	7.01	-46.6	-48.2	14.1	4.50e-06	0	56	0	1382023168	55	4474
2026-01-04 21:16:35.78	98.82	6.97	-46.5	-48.1	14.2	0.00e+00	0	56	0	1385168896	55	4412
2026-01-04 21:16:36.77	98.96	6.94	-46.4	-48.0	14.2	1.50e-06	0	56	0	1388314624	55	4387
2026-01-04 21:16:37.76	99.10	6.90	-46.5	-48.1	14.2	2.20e-06	0	56	0	1391460352	55	4398
2026-01-04 21:16:38.75	99.24	6.86	-46.6	-48.2	14.0	0.00e+00	0	56	0	1394606080	55	4483
2026-01-04 21:16:39.74	99.38	6.82	-46.6	-48.2	14.0	7.00e-07	0	56	0	1397751808	55	4453
2026-01-04 21:16:40.73	99.52	6.79	-46.4	-48.0	14.3	0.00e+00	0	56	0	1400897536	55	4352
2026-01-04 21:16:41.71	99.65	6.75	-46.4	-48.1	14.2	1.50e-06	0	56	0	1404043264	55	4392
2026-01-04 21:16:42.70	99.79	6.71	-46.6	-48.2	14.0	2.20e-06	0	56	0	1407188992	55	4474
2026-01-04 21:16:43.68	99.92	6.67	-46.5	-48.2	14.1	1.50e-06	0	56	0	1410334720	55	4444
2026-01-04 21:16:44.67	100.06	6.63	-46.6	-48.2	14.1	1.50e-06	0	56	0	1413480448	55	4443
2026-01-04 21:16:45.66	100.20	6.60	-46.8	-48.5	13.8	3.80e-06	0	56	0	1415577600	55	4605
2026-01-04 21:16:46.65	100.33	6.56	-46.7	-48.4	13.8	6.10e-06	0	56	0	1418723328	55	4569
2026-01-04 21:16:47.64	100.47	6.52	-46.6	-48.2	14.0	4.50e-06	0	56	0	1421869056	55	4491
2026-01-04 21:16:48.64	100.60	6.48	-46.6	-48.3	14.0	3.00e-06	0	56	0	1425014784	55	4494
2026-01-04 21:16:49.62	100.74	6.44	-46.7	-48.3	13.9	2.20e-06	0	56	0	1428160512	55	4524
2026-01-04 21:16:50.62	100.87	6.40	-46.7	-48.4	13.8	3.80e-06	0	56	0	1431306240	55	4554
2026-01-04 21:16:51.60	101.00	6.36	-46.6	-48.3	13.9	3.00e-06	0	56	0	1434451968	55	4508
2026-01-04 21:16:52.59	101.14	6.32	-46.6	-48.3	13.9	1.50e-06	0	56	0	1437597696	55	4507
2026-01-04 21:16:53.57	101.27	6.29	-46.7	-48.4	13.8	5.30e-06	0	56	0	1440743424	55	4574
2026-01-04 21:16:54.56	101.40	6.25	-46.7	-48.5	13.7	6.80e-06	0	56	0	1443889152	55	4608
2026-01-04 21:16:55.55	101.54	6.21	-46.8	-48.5	13.7	6.80e-06	0	56	0	1447034880	55	4621
2026-01-04 21:16:56.53	101.67	6.17	-46.8	-48.6	13.6	9.10e-06	0	56	0	1450180608	55	4656
2026-01-04 21:16:57.52	101.80	6.13	-46.9	-48.8	13.4	1.52e-05	0	56	0	1453326336	55	4761
2026-01-04 21:16:58.51	101.93	6.09	-47.0	-48.8	13.4	9.90e-06	0	56	0	1456472064	55	4784
2026-01-04 21:16:59.50	102.06	6.05	-47.1	-49.0	13.3	1.67e-05	0	56	0	1459617792	56	4624
2026-01-04 21:17:00.49	102.19	6.01	-47.1	-49.0	13.3	1.60e-05	0	56	0	1462763520	56	4600
2026-01-04 21:17:01.48	102.32	5.97	-47.1	-49.0	13.3	2.21e-05	0	56	0	1465909248	56	4616
2026-01-04 21:17:02.46	102.45	5.93	-47.1	-48.9	13.4	1.37e-05	0	56	0	1468006400	56	4557
2026-01-04 21:17:03.46	102.58	5.89	-47.1	-48.9	13.3	2.67e-05	0	56	0	1471152128	56	4581
2026-01-04 21:17:04.44	102.71	5.85	-47.1	-48.9	13.4	1.22e-05	0	56	0	1474297856	56	4570
2026-01-04 21:17:05.43	102.84	5.81	-47.0	-48.8	13.5	1.37e-05	0	56	0	1477443584	56	4518
2026-01-04 21:17:06.42	102.97	5.77	-47.0	-48.7	13.5	6.80e-06	0	56	0	1480589312	56	4491
2026-01-04 21:17:07.41	103.10	5.73	-47.0	-48.8	13.5	9.10e-06	0	56	0	1483735040	56	4517
2026-01-04 21:17:08.40	103.22	5.69	-47.1	-49.0	13.3	1.67e-05	0	56	0	1486880768	56	4614
2026-01-04 21:17:09.38	103.35	5.65	-47.2	-49.0	13.2	2.51e-05	0	56	0	1490026496	56	4645
2026-01-04 21:17:10.38	103.48	5.61	-47.1	-48.9	13.3	1.37e-05	0	56	0	1493172224	56	4567
2026-01-04 21:17:11.36	103.61	5.57	-47.1	-48.9	13.3	1.67e-05	0	56	0	1496317952	56	4560
2026-01-04 21:17:12.35	103.73	5.53	-47.2	-49.1	13.1	2.59e-05	0	56	0	1499463680	56	4683
2026-01-04 21:17:13.34	103.86	5.49	-47.1	-49.0	13.2	2.21e-05	0	56	0	1502609408	56	4632
2026-01-04 21:17:14.32	103.98	5.45	-47.3	-49.1	13.0	2.67e-05	0	56	0	1505755136	56	4693
2026-01-04 21:17:15.32	104.11	5.41	-47.4	-49.4	12.8	5.11e-05	0	56	0	1508900864	56	4816
2026-01-04 21:17:16.31	104.24	5.37	-47.2	-49.1	13.1	3.35e-05	0	56	0	1512046592	56	4673
2026-01-04 21:17:17.29	104.36	5.33	-47.1	-49.0	13.2	2.51e-05	0	56	0	1515192320	56	4635
2026-01-04 21:17:18.29	104.49	5.29	-47.2	-49.0	13.2	2.97e-05	0	56	0	1518338048	56	4623
2026-01-04 21:17:19.28	104.61	5.25	-47.1	-49.0	13.2	2.44e-05	0	56	0	1521483776	56	4610
2026-01-04 21:17:20.27	104.74	5.21	-47.1	-49.0	13.2	2.28e-05	0	56	0	1524629504	56	4624
2026-01-04 21:17:21.27	104.86	5.17	-47.2	-49.1	13.1	3.28e-05	0	56	0	1527775232	56	4663
2026-01-04 21:17:22.26	104.98	5.13	-47.4	-49.3	12.9	3.89e-05	0	56	0	1529872384	56	4772
2026-01-04 21:17:23.25	105.11	5.09	-47.1	-49.0	13.1	3.28e-05	0	56	0	1533018112	56	4620
2026-01-04 21:17:24.24	105.23	5.05	-46.9	-48.6	13.5	1.75e-05	0	56	0	1536163840	56	4424
2026-01-04 21:17:25.23	105.35	5.01	-51.3	-59.8	4.3	3.18e-04	4	56	0	1539309568	64	10139
2026-01-04 21:17:26.22	105.47	4.96	-51.9	-63.4	3.8	1.49e+00	0	56	104	1539309568	65	14480
2026-01-04 21:17:27.21	105.60	4.92	-52.1	-63.6	3.8	1.49e+00	0	56	104	1539309568	66	14009
2026-01-04 21:17:28.19	105.72	4.88	-52.2	-63.7	3.8	1.49e+00	0	56	104	1539309568	66	14156
2026-01-04 21:17:29.18	105.84	4.84	-52.3	-63.8	3.8	1.49e+00	0	56	104	1539309568	66	14332
2026-01-04 21:17:30.16	105.96	4.80	-52.3	-63.9	3.8	1.49e+00	0	56	104	1539309568	66	14435
2026-01-04 21:17:31.15	106.08	4.76	-52.4	-64.0	3.8	1.49e+00	0	56	104	1539309568	66	14613
2026-01-04 21:17:32.13	106.20	4.72	-52.4	-64.0	3.8	1.49e+00	0	56	104	1539309568	66	14645
2026-01-04 21:17:33.12	106.32	4.68	-52.5	-64.0	3.8	1.49e+00	0	57	104	1539309568	66	14674
2026-01-04 21:17:34.11	106.44	4.64	-52.1	-63.7	3.8	1.49e+00	0	56	104	1539309568	66	14184
2026-01-04 21:17:35.11	106.56	4.60	-52.5	-64.0	3.8	1.49e+00	0	56	104	1539309568	67	13874
2026-01-04 21:17:36.09	106.67	4.55	-52.6	-64.1	3.8	1.49e+00	0	56	104	1539309568	67	13910
2026-01-04 21:17:37.08	106.79	4.51	-52.7	-64.1	3.8	1.49e+00	0	56	104	1539309568	67	14013
2026-01-04 21:17:38.07	106.91	4.47	-52.6	-64.1	3.8	1.49e+00	0	57	104	1539309568	67	14025
2026-01-04 21:17:39.06	107.03	4.43	-52.5	-64.1	3.8	1.49e+00	0	56	104	1539309568	67	14030
2026-01-04 21:17:40.05	107.15	4.39	-52.7	-64.1	3.8	1.49e+00	0	56	104	1539309568	67	14046
2026-01-04 21:17:41.04	107.26	4.35	-52.7	-64.2	3.8	1.49e+00	0	56	104	1539309568	67	14137
2026-01-04 21:17:42.04	107.38	4.31	-52.7	-64.2	3.8	1.49e+00	0	56	104	1539309568	67	14137
2026-01-04 21:17:43.03	107.50	4.26	-52.8	-64.2	3.8	1.49e+00	0	56	104	1539309568	67	14195
2026-01-04 21:17:44.02	107.62	4.22	-52.7	-64.2	3.8	1.49e+00	0	57	104	1539309568	67	14150
2026-01-04 21:17:45.01	107.73	4.18	-52.8	-64.2	3.8	1.49e+00	0	57	104	1539309568	67	14203
2026-01-04 21:17:46.00	107.85	4.14	-52.8	-64.2	3.8	1.49e+00	0	56	104	1539309568	67	14190
2026-01-04 21:17:46.99	107.96	4.10	-52.8	-64.3	3.8	1.49e+00	0	56	104	1539309568	67	14210
2026-01-04 21:17:47.98	108.08	4.06	-52.8	-64.3	3.8	1.49e+00	0	56	104	1539309568	67	14233
2026-01-04 21:17:48.97	108.19	4.01	-52.7	-64.3	3.8	1.49e+00	0	56	104	1539309568	67	14252
2026-01-04 21:17:49.96	108.31	3.97	-52.7	-64.3	3.8	1.49e+00	0	57	104	1539309568	67	14289
2026-01-04 21:17:50.95	108.42	3.93	-52.8	-64.2	3.8	1.49e+00	0	57	104	1539309568	67	14184
2026-01-04 21:17:51.94	108.54	3.89	-52.8	-64.3	3.8	1.49e+00	0	56	104	1539309568	67	14222
2026-01-04 21:17:52.93	108.65	3.85	-52.8	-64.3	3.8	1.49e+00	0	57	104	1539309568	67	14233
2026-01-04 21:17:53.92	108.76	3.81	-52.8	-64.2	3.8	1.49e+00	0	57	104	1539309568	67	14174
2026-01-04 21:17:54.91	108.88	3.76	-52.8	-64.3	3.8	1.49e+00	0	57	104	1539309568	67	14210
2026-01-04 21:17:55.89	108.99	3.72	-52.7	-64.2	3.8	1.49e+00	0	57	104	1539309568	67	14178
2026-01-04 21:17:56.88	109.10	3.68	-52.7	-64.2	3.8	1.49e+00	0	57	104	1539309568	67	14191
2026-01-04 21:17:57.86	109.21	3.64	-52.7	-64.2	3.8	1.49e+00	0	56	104	1539309568	67	14194
2026-01-04 21:17:58.86	109.32	3.60	-52.7	-64.3	3.8	1.49e+00	0	56	104	1539309568	67	14238
2026-01-04 21:17:59.85	109.43	3.55	-52.7	-64.3	3.8	1.49e+00	0	57	104	1539309568	67	14236
2026-01-04 21:18:00.84	109.55	3.51	-52.7	-64.3	3.8	1.49e+00	0	57	104	1539309568	67	14263
2026-01-04 21:18:01.83	109.66	3.47	-52.7	-64.3	3.8	1.49e+00	0	57	104	1539309568	67	14224
2026-01-04 21:18:02.81	109.77	3.43	-52.8	-64.3	3.8	1.49e+00	0	57	104	1539309568	67	14242
2026-01-04 21:18:03.80	109.88	3.39	-52.8	-64.2	3.8	1.49e+00	0	57	104	1539309568	67	14197
2026-01-04 21:18:04.80	109.99	3.34	-52.7	-64.2	3.8	1.49e+00	0	56	104	1539309568	67	14199
2026-01-04 21:18:05.79	110.10	3.30	-52.8	-64.3	3.8	1.49e+00	0	57	104	1539309568	67	14216
2026-01-04 21:18:06.78	110.21	3.26	-52.8	-64.3	3.8	1.49e+00	0	57	104	1539309568	67	14218
2026-01-04 21:18:07.78	110.32	3.22	-52.7	-64.2	3.8	1.49e+00	0	57	104	1539309568	67	14160
2026-01-04 21:18:08.77	110.43	3.18	-52.8	-64.3	3.8	1.49e+00	0	57	104	1539309568	67	14212
2026-01-04 21:18:09.75	110.53	3.13	-52.6	-64.2	3.8	1.49e+00	0	57	104	1539309568	67	14205
2026-01-04 21:18:10.75	110.64	3.09	-52.6	-64.3	3.8	1.49e+00	0	57	104	1539309568	67	14216
2026-01-04 21:18:11.74	110.75	3.05	-52.6	-64.3	3.8	1.49e+00	0	57	104	1539309568	67	14222
2026-01-04 21:18:12.73	110.86	3.01	-52.6	-64.2	3.8	1.49e+00	0	56	104	1539309568	67	14181
2026-01-04 21:18:13.72	110.96	2.96	-52.7	-64.3	3.8	1.49e+00	0	57	104	1539309568	67	14219

#Closed at: 2026-01-04 21:18:14
#Recorded file [1539 MB]: D:/Data/31026_260105_001725.dat