passes_logs/2026/01/04/R3.0SM8_Murmansk_STILSPACE/R3.0SM8_Murmansk_STILSPACE__20260104_090516_NOAA_21_JPSS-2_rec.log

#Pass ID: 20260104_090516_NOAA 21 (JPSS-2)
#Satellite: NOAA 21 (JPSS-2)
#Configuration: NOAA-21
#almurnet v.1.7.20240730
#Start time: 2026-01-04 09:09:48

#Version: 2.2.20231116
#Station: R3.0SM8_Murmansk_STILSPACE
#Location: 33.092731 lon 68.902999 lat
#TLE: 1 54234U 22150A   26003.45311712  .00000198  00000+0  11468-3 0  9993
#TLE: 2 54234  98.7487 304.4932 0001159 347.5017  12.6130 14.19531745163172

#Time	Az	El	Level	Level2	SNR	BER	BlckErr	Temp	State	Recorded	gain1	gain2
2026-01-04 09:09:48.82	132.63	34.12	-52.6	-63.5	3.8	8.45e-01	0	56	0	0	67	13016
2026-01-04 09:09:49.81	132.53	34.33	-52.8	-64.4	3.8	1.49e+00	0	57	104	0	68	13594
2026-01-04 09:09:50.79	132.44	34.54	-52.9	-64.4	3.8	1.49e+00	0	57	104	0	68	13587
2026-01-04 09:09:51.78	132.34	34.76	-52.7	-64.3	3.8	1.49e+00	0	57	104	0	68	13552
2026-01-04 09:09:52.77	132.25	34.97	-52.9	-64.4	3.8	1.49e+00	0	57	104	0	68	13635
2026-01-04 09:09:53.76	132.15	35.19	-52.9	-64.4	3.8	1.49e+00	0	57	104	0	68	13629
2026-01-04 09:09:54.75	132.05	35.41	-52.8	-64.4	3.8	1.49e+00	0	57	104	0	68	13588
2026-01-04 09:09:55.74	131.95	35.63	-52.7	-64.4	3.8	1.49e+00	0	57	104	0	68	13604
2026-01-04 09:09:56.73	131.85	35.85	-52.9	-64.3	3.8	1.49e+00	0	57	104	0	68	13559
2026-01-04 09:09:57.72	131.74	36.07	-52.9	-64.4	3.8	1.49e+00	0	57	104	0	68	13597
2026-01-04 09:09:58.71	131.64	36.30	-52.9	-64.3	3.8	1.49e+00	0	57	104	0	68	13527
2026-01-04 09:09:59.69	131.53	36.52	-52.6	-64.3	3.8	1.49e+00	0	57	104	0	68	13559
2026-01-04 09:10:00.68	131.42	36.75	-52.8	-64.3	3.8	1.49e+00	0	57	104	0	68	13560
2026-01-04 09:10:01.68	131.31	36.98	-52.8	-64.3	3.8	1.49e+00	0	57	104	0	68	13478
2026-01-04 09:10:02.67	131.20	37.21	-52.8	-64.3	3.8	1.49e+00	0	57	104	0	68	13532
2026-01-04 09:10:03.67	131.09	37.44	-52.8	-64.3	3.8	1.49e+00	0	57	104	0	68	13485
2026-01-04 09:10:04.66	130.97	37.68	-52.9	-64.3	3.8	1.49e+00	0	57	104	0	68	13478
2026-01-04 09:10:05.64	130.86	37.91	-52.9	-64.3	3.8	1.49e+00	0	57	104	0	68	13476
2026-01-04 09:10:06.64	130.74	38.15	-52.8	-64.3	3.8	1.49e+00	0	57	104	0	68	13472
2026-01-04 09:10:07.62	130.62	38.38	-52.9	-64.3	3.8	1.49e+00	0	57	104	0	68	13489
2026-01-04 09:10:08.61	130.50	38.62	-52.7	-64.3	3.8	1.49e+00	0	57	104	0	68	13507
2026-01-04 09:10:09.60	130.37	38.86	-52.8	-64.3	3.8	1.49e+00	0	57	104	0	68	13460
2026-01-04 09:10:10.60	130.25	39.11	-52.8	-64.3	3.8	1.49e+00	0	57	104	0	68	13490
2026-01-04 09:10:11.59	130.12	39.35	-52.7	-64.3	3.8	1.49e+00	0	57	104	0	68	13457
2026-01-04 09:10:12.59	129.99	39.60	-52.7	-64.3	3.8	1.49e+00	0	57	104	0	68	13501
2026-01-04 09:10:13.58	129.86	39.85	-52.9	-64.3	3.8	1.49e+00	0	57	104	0	68	13486
2026-01-04 09:10:14.56	129.73	40.09	-52.9	-64.3	3.8	1.49e+00	0	57	104	0	68	13458
2026-01-04 09:10:15.55	129.59	40.34	-52.7	-64.3	3.8	1.49e+00	0	57	104	0	68	13452
2026-01-04 09:10:16.54	129.45	40.59	-52.9	-64.3	3.8	1.49e+00	0	57	104	0	68	13433
2026-01-04 09:10:17.53	129.31	40.85	-52.8	-64.2	3.8	1.49e+00	0	57	104	0	68	13292
2026-01-04 09:10:18.52	129.17	41.10	-52.8	-64.2	3.8	1.49e+00	0	57	104	0	68	13307
2026-01-04 09:10:19.52	129.02	41.36	-52.8	-64.2	3.8	1.49e+00	0	57	104	0	68	13342
2026-01-04 09:10:20.51	128.88	41.62	-52.8	-64.3	3.8	1.49e+00	0	57	104	0	68	13436
2026-01-04 09:10:21.50	128.73	41.88	-52.8	-64.2	3.8	1.49e+00	0	57	104	0	68	13385
2026-01-04 09:10:22.48	128.58	42.14	-52.9	-64.2	3.8	1.49e+00	0	57	104	0	68	13327
2026-01-04 09:10:23.47	128.42	42.40	-52.8	-64.2	3.8	1.49e+00	0	57	104	0	68	13281
2026-01-04 09:10:24.45	128.27	42.66	-52.8	-64.2	3.8	1.49e+00	0	57	104	0	68	13333
2026-01-04 09:10:25.44	128.11	42.93	-52.7	-64.2	3.8	1.49e+00	0	57	104	0	68	13361
2026-01-04 09:10:26.42	127.95	43.19	-52.8	-64.2	3.8	1.49e+00	0	57	104	0	68	13385
2026-01-04 09:10:27.41	127.78	43.46	-52.7	-64.2	3.8	1.49e+00	0	57	104	0	68	13288
2026-01-04 09:10:28.41	127.61	43.73	-52.6	-64.2	3.8	1.49e+00	0	57	104	0	68	13261
2026-01-04 09:10:29.39	127.44	44.00	-52.8	-64.2	3.8	1.49e+00	0	57	104	0	68	13322
2026-01-04 09:10:30.38	127.27	44.28	-52.8	-64.2	3.8	1.49e+00	0	57	104	0	68	13363
2026-01-04 09:10:31.36	127.10	44.55	-52.9	-64.2	3.8	1.49e+00	0	57	104	0	68	13388
2026-01-04 09:10:32.35	126.92	44.83	-52.9	-64.2	3.8	1.49e+00	0	57	104	0	68	13332
2026-01-04 09:10:33.34	126.73	45.11	-52.8	-64.3	3.8	1.49e+00	0	57	104	0	68	13432
2026-01-04 09:10:34.33	126.55	45.39	-52.8	-64.2	3.8	1.49e+00	0	57	104	0	68	13345
2026-01-04 09:10:35.32	126.36	45.67	-52.8	-64.2	3.8	1.49e+00	0	57	104	0	68	13288
2026-01-04 09:10:36.31	126.16	45.95	-52.6	-63.9	3.8	1.49e+00	0	57	104	0	68	12850
2026-01-04 09:10:37.30	125.96	46.24	-52.8	-63.5	3.8	1.49e+00	0	57	104	0	68	12277
2026-01-04 09:10:38.29	125.76	46.52	-52.7	-63.2	3.8	1.49e+00	0	57	104	0	68	11942
2026-01-04 09:10:39.28	125.56	46.81	-52.7	-63.1	3.8	1.49e+00	0	57	104	0	68	11789
2026-01-04 09:10:40.28	125.35	47.11	-52.6	-61.7	4.0	1.49e+00	0	57	104	0	68	9987
2026-01-04 09:10:41.27	125.14	47.40	-52.0	-59.4	4.6	1.40e+00	2	57	104	0	67	8155
2026-01-04 09:10:42.26	124.92	47.69	-51.8	-57.7	5.6	5.01e-01	0	57	0	0	66	7071
2026-01-04 09:10:43.25	124.70	47.98	-51.3	-56.3	6.7	2.51e-01	0	57	0	3145728	65	6364
2026-01-04 09:10:44.23	124.48	48.28	-51.2	-56.2	6.8	1.72e-01	0	57	0	6291456	65	6311
2026-01-04 09:10:45.23	124.25	48.58	-51.5	-56.7	6.3	2.78e-01	0	57	0	9437184	65	6712
2026-01-04 09:10:46.23	124.01	48.88	-51.3	-56.0	6.9	1.87e-01	0	57	0	12582912	65	6175
2026-01-04 09:10:47.21	123.77	49.18	-50.9	-55.3	7.6	1.26e-01	0	57	0	15728640	64	6040
2026-01-04 09:10:48.21	123.53	49.48	-50.6	-54.6	8.3	6.64e-02	0	57	0	17825792	64	5571
2026-01-04 09:10:49.20	123.28	49.79	-50.5	-54.2	8.8	3.73e-02	0	57	0	20971520	63	5620
2026-01-04 09:10:50.19	123.03	50.09	-50.2	-53.7	9.3	1.99e-02	0	57	0	24117248	63	5307
2026-01-04 09:10:51.19	122.76	50.40	-50.2	-53.5	9.5	1.37e-02	0	57	0	27262976	63	5171
2026-01-04 09:10:52.18	122.50	50.71	-50.2	-53.5	9.6	1.28e-02	0	57	0	30408704	63	5165
2026-01-04 09:10:53.16	122.23	51.02	-50.3	-53.8	9.3	1.62e-02	0	57	0	33554432	63	5350
2026-01-04 09:10:54.14	121.96	51.33	-50.8	-54.8	8.1	6.21e-02	0	57	0	36700160	63	6050
2026-01-04 09:10:55.13	121.68	51.64	-50.2	-53.3	9.7	1.75e-02	0	57	0	39845888	63	5068
2026-01-04 09:10:56.11	121.40	51.95	-49.4	-52.0	11.0	3.68e-03	0	57	0	42991616	62	4639
2026-01-04 09:10:57.11	121.10	52.27	-48.9	-51.1	12.0	6.14e-04	0	57	0	46137344	60	4674
2026-01-04 09:10:58.09	120.80	52.58	-48.4	-50.3	12.8	1.07e-04	0	57	0	49283072	59	4524
2026-01-04 09:10:59.08	120.50	52.90	-47.9	-49.6	13.5	9.90e-06	0	57	0	52428800	58	4436
2026-01-04 09:11:00.08	120.18	53.22	-47.4	-49.1	14.1	5.30e-06	0	57	0	55574528	58	4170
2026-01-04 09:11:01.06	119.86	53.53	-47.0	-48.5	14.6	0.00e+00	0	57	0	58720256	57	4111
2026-01-04 09:11:02.05	119.54	53.85	-46.7	-48.0	15.1	0.00e+00	0	57	0	61865984	56	4126
2026-01-04 09:11:03.04	119.20	54.18	-46.2	-47.5	15.5	0.00e+00	0	57	0	65011712	55	4118
2026-01-04 09:11:04.03	118.86	54.50	-46.1	-47.4	15.7	0.00e+00	0	57	0	68157440	55	4053
2026-01-04 09:11:05.01	118.51	54.82	-46.2	-47.4	15.7	0.00e+00	0	57	0	71303168	55	4069
2026-01-04 09:11:06.00	118.16	55.14	-46.2	-47.5	15.6	0.00e+00	0	57	0	74448896	55	4100
2026-01-04 09:11:06.99	117.79	55.47	-46.0	-47.1	15.9	0.00e+00	0	57	0	77594624	55	3957
2026-01-04 09:11:07.97	117.42	55.79	-46.2	-47.5	15.5	0.00e+00	0	57	0	80740352	55	4124
2026-01-04 09:11:08.96	117.03	56.12	-45.6	-46.7	16.3	0.00e+00	0	57	0	82837504	54	4004
2026-01-04 09:11:09.96	116.64	56.45	-44.9	-45.9	17.1	0.00e+00	0	57	0	85983232	53	3829
2026-01-04 09:11:10.95	116.23	56.77	-44.7	-45.6	17.4	0.00e+00	0	57	0	89128960	52	3931
2026-01-04 09:11:11.94	115.82	57.10	-44.8	-45.7	17.3	0.00e+00	0	57	0	92274688	52	3990
2026-01-04 09:11:12.93	115.40	57.43	-44.8	-45.8	17.3	0.00e+00	0	57	0	95420416	52	4014
2026-01-04 09:11:13.92	114.97	57.76	-44.8	-45.8	17.2	0.00e+00	0	57	0	98566144	52	4015
2026-01-04 09:11:14.92	114.52	58.09	-44.9	-45.9	17.1	0.00e+00	0	57	0	101711872	52	4069
2026-01-04 09:11:15.90	114.07	58.42	-44.6	-45.5	17.5	0.00e+00	0	57	0	104857600	52	3889
2026-01-04 09:11:16.89	113.60	58.75	-44.4	-45.3	17.7	0.00e+00	0	57	0	108003328	51	4039
2026-01-04 09:11:17.87	113.13	59.07	-44.6	-45.5	17.5	0.00e+00	0	57	0	111149056	51	4136
2026-01-04 09:11:18.86	112.64	59.40	-44.7	-45.7	17.4	0.00e+00	0	57	0	114294784	51	4198
2026-01-04 09:11:19.85	112.13	59.73	-44.2	-45.1	17.9	0.00e+00	0	57	0	117440512	51	3957
2026-01-04 09:11:20.83	111.62	60.06	-43.9	-44.8	18.2	0.00e+00	0	57	0	120586240	51	3790
2026-01-04 09:11:21.83	111.09	60.39	-44.0	-44.9	18.1	0.00e+00	0	57	0	123731968	51	3834
2026-01-04 09:11:22.82	110.55	60.72	-44.1	-45.0	18.1	0.00e+00	0	57	0	126877696	51	3892
2026-01-04 09:11:23.81	109.99	61.05	-44.2	-45.1	18.0	0.00e+00	0	57	0	130023424	51	3921
2026-01-04 09:11:24.80	109.42	61.37	-44.0	-44.9	18.2	0.00e+00	0	57	0	133169152	51	3834
2026-01-04 09:11:25.79	108.83	61.70	-44.0	-44.8	18.3	0.00e+00	0	57	0	136314880	51	3800
2026-01-04 09:11:26.78	108.23	62.02	-44.1	-45.0	18.1	0.00e+00	0	57	0	139460608	51	3878
2026-01-04 09:11:27.76	107.61	62.34	-44.0	-44.9	18.2	0.00e+00	0	57	0	141557760	51	3844
2026-01-04 09:11:28.75	106.98	62.66	-43.8	-44.6	18.4	0.00e+00	0	57	0	144703488	50	3930
2026-01-04 09:11:29.74	106.32	62.98	-43.8	-44.6	18.5	0.00e+00	0	57	0	147849216	50	3920
2026-01-04 09:11:30.72	105.66	63.30	-43.4	-44.2	18.8	0.00e+00	0	57	0	150994944	50	3744
2026-01-04 09:11:31.72	104.96	63.62	-43.0	-43.7	19.2	0.00e+00	0	57	0	154140672	49	3767
2026-01-04 09:11:32.71	104.25	63.93	-43.5	-44.3	18.7	0.00e+00	0	57	0	157286400	49	4007
2026-01-04 09:11:33.70	103.53	64.24	-43.7	-44.4	18.6	0.00e+00	0	57	0	160432128	49	4097
2026-01-04 09:11:34.70	102.77	64.55	-43.9	-44.7	18.4	0.00e+00	0	57	0	163577856	49	4197
2026-01-04 09:11:35.70	101.99	64.86	-44.1	-44.9	18.1	0.00e+00	0	57	0	166723584	50	4095
2026-01-04 09:11:36.69	101.20	65.17	-44.2	-45.1	18.1	0.00e+00	0	57	0	169869312	50	4155
2026-01-04 09:11:37.68	100.39	65.47	-44.2	-45.0	18.1	0.00e+00	0	57	0	173015040	50	4117
2026-01-04 09:11:38.68	99.55	65.77	-44.3	-45.1	17.9	0.00e+00	0	57	0	176160768	50	4191
2026-01-04 09:11:39.67	98.69	66.06	-44.5	-45.4	17.6	0.00e+00	0	57	0	179306496	50	4340
2026-01-04 09:11:40.66	97.81	66.35	-44.7	-45.6	17.5	0.00e+00	0	57	0	182452224	51	4186
2026-01-04 09:11:41.66	96.90	66.64	-44.8	-45.7	17.4	0.00e+00	0	57	0	185597952	51	4217
2026-01-04 09:11:42.65	95.97	66.92	-44.6	-45.5	17.6	0.00e+00	0	57	0	188743680	51	4099
2026-01-04 09:11:43.65	95.01	67.19	-43.8	-44.6	18.5	0.00e+00	0	57	0	191889408	50	3938
2026-01-04 09:11:44.64	94.03	67.46	-43.4	-44.2	18.8	0.00e+00	0	57	0	195035136	50	3739
2026-01-04 09:11:45.63	93.03	67.73	-43.6	-44.4	18.7	0.00e+00	0	57	0	198180864	49	4069
2026-01-04 09:11:46.62	92.00	67.99	-43.8	-44.6	18.5	0.00e+00	0	57	0	201326592	49	4147
2026-01-04 09:11:47.61	90.94	68.24	-43.6	-44.4	18.6	0.00e+00	0	57	0	204472320	49	4066
2026-01-04 09:11:48.59	89.87	68.49	-43.6	-44.4	18.7	0.00e+00	0	57	0	207618048	49	4053
2026-01-04 09:11:49.58	88.75	68.73	-43.5	-44.2	18.8	0.00e+00	0	57	0	209715200	49	3983
2026-01-04 09:11:50.56	87.63	68.96	-43.4	-44.1	18.9	0.00e+00	0	57	0	212860928	49	3940
2026-01-04 09:11:51.55	86.46	69.18	-43.7	-44.5	18.5	0.00e+00	0	57	0	216006656	49	4116
2026-01-04 09:11:52.54	85.27	69.40	-43.5	-44.2	18.8	0.00e+00	0	57	0	219152384	49	3977
2026-01-04 09:11:53.53	84.05	69.61	-43.1	-43.8	19.2	0.00e+00	0	57	0	222298112	49	3796
2026-01-04 09:11:54.52	82.81	69.81	-43.3	-44.1	19.0	0.00e+00	0	57	0	225443840	49	3917
2026-01-04 09:11:55.52	81.53	70.01	-43.2	-43.9	19.1	0.00e+00	0	57	0	228589568	49	3853
2026-01-04 09:11:56.50	80.24	70.19	-43.1	-43.8	19.2	0.00e+00	0	57	0	231735296	49	3810
2026-01-04 09:11:57.49	78.92	70.36	-43.3	-44.0	19.0	0.00e+00	0	57	0	234881024	49	3913
2026-01-04 09:11:58.48	77.57	70.53	-43.9	-44.6	18.4	0.00e+00	0	57	0	238026752	49	4192
2026-01-04 09:11:59.47	76.20	70.68	-44.4	-45.4	17.8	0.00e+00	0	57	0	241172480	50	4299
2026-01-04 09:12:00.46	74.80	70.83	-44.7	-45.7	17.4	0.00e+00	0	57	0	244318208	51	4194
2026-01-04 09:12:01.45	73.39	70.96	-44.7	-45.7	17.5	0.00e+00	0	57	0	247463936	51	4200
2026-01-04 09:12:02.43	71.97	71.08	-44.8	-45.8	17.3	0.00e+00	0	57	0	250609664	51	4250
2026-01-04 09:12:03.42	70.51	71.19	-44.7	-45.6	17.5	0.00e+00	0	57	0	253755392	51	4191
2026-01-04 09:12:04.41	69.04	71.29	-44.2	-45.0	18.1	0.00e+00	0	57	0	256901120	51	3888
2026-01-04 09:12:05.40	67.55	71.38	-44.5	-45.3	17.8	0.00e+00	0	57	0	260046848	51	4049
2026-01-04 09:12:06.40	66.03	71.46	-44.8	-45.7	17.4	0.00e+00	0	57	0	263192576	51	4240
2026-01-04 09:12:07.40	64.50	71.52	-44.2	-45.1	18.0	0.00e+00	0	57	0	266338304	51	3919
2026-01-04 09:12:08.38	63.00	71.57	-44.0	-44.8	18.2	0.00e+00	0	57	0	269484032	51	3806
2026-01-04 09:12:09.37	61.46	71.61	-44.4	-45.3	17.8	0.00e+00	0	57	0	271581184	51	4019
2026-01-04 09:12:10.36	59.92	71.64	-44.9	-45.8	17.3	0.00e+00	0	57	0	274726912	51	4268
2026-01-04 09:12:11.35	58.38	71.65	-45.0	-46.0	17.1	0.00e+00	0	57	0	277872640	52	4122
2026-01-04 09:12:12.34	56.84	71.66	-45.1	-46.1	16.9	0.00e+00	0	57	0	281018368	52	4165
2026-01-04 09:12:13.33	55.30	71.64	-45.2	-46.3	16.7	0.00e+00	0	57	0	284164096	52	4251
2026-01-04 09:12:14.32	53.76	71.62	-44.9	-45.9	17.1	0.00e+00	0	57	0	287309824	52	4078
2026-01-04 09:12:15.31	52.22	71.58	-44.6	-45.5	17.5	0.00e+00	0	57	0	290455552	52	3904
2026-01-04 09:12:16.30	50.70	71.54	-44.7	-45.6	17.3	0.00e+00	0	57	0	293601280	52	3957
2026-01-04 09:12:17.29	49.18	71.48	-45.0	-45.9	17.0	0.00e+00	0	57	0	296747008	52	4085
2026-01-04 09:12:18.28	47.67	71.40	-45.3	-46.3	16.6	0.00e+00	0	57	0	299892736	52	4262
2026-01-04 09:12:19.28	46.17	71.32	-45.7	-46.8	16.2	0.00e+00	0	57	0	303038464	53	4288
2026-01-04 09:12:20.27	44.69	71.22	-45.2	-46.3	16.8	0.00e+00	0	57	0	306184192	53	4008
2026-01-04 09:12:21.27	43.22	71.11	-45.1	-46.1	17.0	0.00e+00	0	57	0	309329920	53	3917
2026-01-04 09:12:22.28	41.75	70.99	-45.0	-46.0	17.1	0.00e+00	0	57	0	312475648	53	3879
2026-01-04 09:12:23.27	40.33	70.86	-44.6	-45.5	17.5	0.00e+00	0	57	0	315621376	52	3905
2026-01-04 09:12:24.26	38.93	70.71	-44.5	-45.4	17.7	0.00e+00	0	57	0	318767104	51	4066
2026-01-04 09:12:25.25	37.56	70.56	-44.1	-45.0	18.1	0.00e+00	0	57	0	321912832	51	3871
2026-01-04 09:12:26.25	36.19	70.40	-43.2	-43.9	19.1	0.00e+00	0	57	0	325058560	49	3828
2026-01-04 09:12:27.24	34.86	70.23	-42.6	-43.2	19.6	0.00e+00	0	57	0	328204288	48	3766
2026-01-04 09:12:28.22	33.57	70.05	-43.1	-43.7	19.2	0.00e+00	0	57	0	331350016	48	3997
2026-01-04 09:12:29.21	32.30	69.85	-43.4	-44.1	18.9	0.00e+00	0	57	0	334495744	48	4188
2026-01-04 09:12:30.20	31.05	69.65	-43.1	-43.8	19.1	0.00e+00	0	57	0	336592896	48	4025
2026-01-04 09:12:31.20	29.81	69.44	-43.1	-43.8	19.2	0.00e+00	0	57	0	339738624	48	4011
2026-01-04 09:12:32.18	28.63	69.23	-43.2	-43.9	19.1	0.00e+00	0	57	0	342884352	48	4063
2026-01-04 09:12:33.18	27.45	69.00	-43.3	-44.0	19.0	0.00e+00	0	57	0	346030080	48	4113
2026-01-04 09:12:34.17	26.31	68.77	-43.3	-44.1	19.0	0.00e+00	0	57	0	349175808	48	4147
2026-01-04 09:12:35.16	25.19	68.53	-43.9	-44.7	18.3	0.00e+00	0	57	0	352321536	49	4210
2026-01-04 09:12:36.14	24.11	68.29	-44.3	-45.1	17.9	0.00e+00	0	57	0	355467264	50	4184
2026-01-04 09:12:37.14	23.04	68.04	-43.8	-44.6	18.3	0.00e+00	0	57	0	358612992	50	3925
2026-01-04 09:12:38.13	22.01	67.78	-43.2	-43.9	19.0	0.00e+00	0	57	0	361758720	49	3849
2026-01-04 09:12:39.12	21.00	67.52	-43.6	-44.4	18.6	0.00e+00	0	57	0	364904448	49	4068
2026-01-04 09:12:40.10	20.03	67.25	-44.7	-45.7	17.4	0.00e+00	0	57	0	368050176	51	4218
2026-01-04 09:12:41.09	19.07	66.98	-45.1	-46.1	16.9	0.00e+00	0	57	0	371195904	52	4175
2026-01-04 09:12:42.08	18.14	66.70	-45.2	-46.3	16.8	0.00e+00	0	57	0	374341632	52	4244
2026-01-04 09:12:43.07	17.23	66.41	-44.5	-45.4	17.6	0.00e+00	0	57	0	377487360	52	3836
2026-01-04 09:12:44.05	16.35	66.13	-43.9	-44.7	18.3	0.00e+00	0	57	0	380633088	51	3775
2026-01-04 09:12:45.04	15.49	65.84	-43.9	-44.7	18.4	0.00e+00	0	57	0	383778816	50	3970
2026-01-04 09:12:46.03	14.65	65.54	-44.6	-45.5	17.5	0.00e+00	0	57	0	386924544	51	4122
2026-01-04 09:12:47.02	13.84	65.24	-45.1	-46.1	16.9	0.00e+00	0	57	0	390070272	51	4415
2026-01-04 09:12:48.00	13.05	64.95	-46.0	-47.2	15.9	0.00e+00	0	57	0	393216000	53	4454
2026-01-04 09:12:49.00	12.27	64.64	-45.3	-46.4	16.6	0.00e+00	0	57	0	396361728	53	4058
2026-01-04 09:12:49.99	11.52	64.33	-44.3	-45.1	17.9	0.00e+00	0	57	0	398458880	51	3958
2026-01-04 09:12:50.97	10.79	64.02	-43.4	-44.1	18.8	0.00e+00	0	57	0	401604608	50	3717
2026-01-04 09:12:51.97	10.07	63.71	-42.9	-43.6	19.2	0.00e+00	0	57	0	404750336	49	3715
2026-01-04 09:12:52.96	9.38	63.39	-43.4	-44.1	18.8	0.00e+00	0	57	0	407896064	49	3958
2026-01-04 09:12:53.95	8.71	63.07	-44.5	-45.3	17.7	0.00e+00	0	57	0	411041792	50	4285
2026-01-04 09:12:54.94	8.05	62.76	-44.9	-45.9	17.1	0.00e+00	0	57	0	414187520	51	4294
2026-01-04 09:12:55.93	7.41	62.44	-44.2	-45.1	17.9	0.00e+00	0	57	0	417333248	51	3924
2026-01-04 09:12:56.92	6.79	62.11	-43.4	-44.1	18.8	0.00e+00	0	57	0	420478976	50	3729
2026-01-04 09:12:57.91	6.18	61.79	-43.1	-43.8	19.1	0.00e+00	0	57	0	423624704	49	3789
2026-01-04 09:12:58.90	5.59	61.47	-43.9	-44.7	18.3	0.00e+00	0	57	0	426770432	49	4194
2026-01-04 09:12:59.89	5.01	61.14	-44.4	-45.3	17.6	0.00e+00	0	57	0	429916160	50	4273
2026-01-04 09:13:00.88	4.45	60.81	-44.8	-45.8	17.2	0.00e+00	0	57	0	433061888	51	4261
2026-01-04 09:13:01.87	3.91	60.49	-45.0	-46.0	17.1	0.00e+00	0	57	0	436207616	51	4357
2026-01-04 09:13:02.86	3.37	60.16	-44.5	-45.4	17.6	0.00e+00	0	57	0	439353344	51	4073
2026-01-04 09:13:03.85	2.85	59.83	-44.0	-44.8	18.2	0.00e+00	0	57	0	442499072	51	3784
2026-01-04 09:13:04.84	2.35	59.50	-43.7	-44.4	18.6	0.00e+00	0	57	0	445644800	50	3849
2026-01-04 09:13:05.84	1.85	59.17	-43.4	-44.2	18.8	0.00e+00	0	57	0	448790528	50	3740
2026-01-04 09:13:06.83	1.37	58.84	-44.0	-44.8	18.3	0.00e+00	0	57	0	451936256	50	4018
2026-01-04 09:13:07.82	0.90	58.51	-44.8	-45.7	17.2	0.00e+00	0	57	0	455081984	51	4209
2026-01-04 09:13:08.81	0.45	58.19	-45.8	-46.9	16.0	0.00e+00	0	57	0	458227712	53	4324
2026-01-04 09:13:09.80	0.00	57.86	-45.6	-46.7	16.2	0.00e+00	0	57	0	460324864	53	4215
2026-01-04 09:13:10.78	359.57	57.53	-44.5	-45.4	17.3	0.00e+00	0	57	0	463470592	52	3831
2026-01-04 09:13:11.77	359.14	57.20	-43.9	-44.7	18.1	0.00e+00	0	57	0	466616320	51	3773
2026-01-04 09:13:12.76	358.73	56.88	-43.5	-44.3	18.7	0.00e+00	0	57	0	469762048	50	3784
2026-01-04 09:13:13.75	358.33	56.55	-43.8	-44.6	18.4	0.00e+00	0	57	0	472907776	50	3943
2026-01-04 09:13:14.74	357.93	56.22	-44.2	-45.1	18.0	0.00e+00	0	57	0	476053504	50	4146
2026-01-04 09:13:15.73	357.55	55.90	-44.4	-45.2	17.8	0.00e+00	0	57	0	479199232	50	4209
2026-01-04 09:13:16.72	357.17	55.57	-44.4	-45.3	17.7	0.00e+00	0	57	0	482344960	50	4261
2026-01-04 09:13:17.71	356.80	55.25	-45.1	-46.1	16.9	0.00e+00	0	57	0	485490688	52	4163
2026-01-04 09:13:18.70	356.44	54.92	-45.8	-47.0	15.9	0.00e+00	0	57	0	488636416	53	4379
2026-01-04 09:13:19.69	356.09	54.60	-46.2	-47.5	15.4	0.00e+00	0	57	0	491782144	54	4351
2026-01-04 09:13:20.68	355.75	54.28	-45.6	-46.7	16.3	0.00e+00	0	57	0	494927872	54	3966
2026-01-04 09:13:21.67	355.41	53.96	-44.9	-45.9	17.0	0.00e+00	0	57	0	498073600	53	3868
2026-01-04 09:13:22.66	355.08	53.64	-45.0	-46.0	17.0	0.00e+00	0	57	0	501219328	52	4106
2026-01-04 09:13:23.66	354.76	53.32	-45.3	-46.4	16.6	0.00e+00	0	57	0	504365056	52	4319
2026-01-04 09:13:24.65	354.44	53.00	-45.6	-46.8	16.2	0.00e+00	0	57	0	507510784	53	4264
2026-01-04 09:13:25.64	354.14	52.68	-45.8	-47.0	16.0	0.00e+00	0	57	0	510656512	53	4355
2026-01-04 09:13:26.63	353.84	52.37	-45.5	-46.6	16.4	0.00e+00	0	57	0	513802240	53	4149
2026-01-04 09:13:27.62	353.54	52.05	-45.3	-46.3	16.7	0.00e+00	0	57	0	516947968	53	4025
2026-01-04 09:13:28.61	353.25	51.74	-45.6	-46.6	16.4	0.00e+00	0	57	0	520093696	53	4186
2026-01-04 09:13:29.59	352.97	51.43	-45.5	-46.6	16.4	0.00e+00	0	57	0	523239424	53	4154
2026-01-04 09:13:30.58	352.70	51.12	-45.3	-46.3	16.7	0.00e+00	0	57	0	525336576	53	4034
2026-01-04 09:13:31.57	352.43	50.81	-45.1	-46.0	16.9	0.00e+00	0	57	0	528482304	53	3910
2026-01-04 09:13:32.56	352.16	50.51	-45.2	-46.3	16.7	0.00e+00	0	57	0	531628032	53	4014
2026-01-04 09:13:33.55	351.90	50.20	-45.8	-46.9	16.1	0.00e+00	0	57	0	534773760	53	4316
2026-01-04 09:13:34.55	351.65	49.89	-46.3	-47.6	15.4	0.00e+00	0	57	0	537919488	54	4417
2026-01-04 09:13:35.54	351.40	49.59	-46.8	-48.2	14.7	0.00e+00	0	57	0	541065216	55	4483
2026-01-04 09:13:36.53	351.15	49.29	-47.4	-49.1	14.0	3.00e-06	0	57	0	544210944	56	4657
2026-01-04 09:13:37.52	350.91	48.99	-47.7	-49.5	13.6	1.14e-05	0	57	0	547356672	57	4630
2026-01-04 09:13:38.51	350.68	48.69	-47.5	-49.2	13.8	4.50e-06	0	57	0	550502400	57	4485
2026-01-04 09:13:39.50	350.45	48.39	-47.5	-49.1	14.0	1.50e-06	0	57	0	553648128	57	4426
2026-01-04 09:13:40.51	350.22	48.09	-47.6	-49.3	13.8	3.00e-06	0	57	0	556793856	57	4524
2026-01-04 09:13:41.49	350.00	47.80	-47.6	-49.3	13.8	3.00e-06	0	57	0	559939584	57	4511
2026-01-04 09:13:42.48	349.78	47.50	-47.5	-49.1	14.0	2.20e-06	0	57	0	563085312	57	4423
2026-01-04 09:13:43.47	349.57	47.21	-47.1	-48.6	14.5	7.00e-07	0	57	0	566231040	57	4172
2026-01-04 09:13:44.47	349.36	46.92	-46.4	-47.7	15.4	0.00e+00	0	57	0	569376768	56	3995
2026-01-04 09:13:45.46	349.16	46.63	-45.9	-47.1	15.9	0.00e+00	0	57	0	572522496	54	4163
2026-01-04 09:13:46.44	348.96	46.35	-46.0	-47.2	15.7	0.00e+00	0	57	0	575668224	54	4240
2026-01-04 09:13:47.44	348.76	46.06	-46.2	-47.5	15.5	0.00e+00	0	57	0	578813952	54	4351
2026-01-04 09:13:48.43	348.56	45.78	-46.3	-47.5	15.4	0.00e+00	0	57	0	581959680	54	4387
2026-01-04 09:13:49.41	348.37	45.50	-46.9	-48.3	14.7	0.00e+00	0	57	0	585105408	55	4534
2026-01-04 09:13:50.40	348.19	45.22	-47.5	-49.2	13.9	3.00e-06	0	57	0	587202560	56	4716
2026-01-04 09:13:51.38	348.01	44.94	-47.7	-49.4	13.7	5.30e-06	0	57	0	590348288	57	4585
2026-01-04 09:13:52.37	347.83	44.67	-48.0	-49.9	13.1	3.12e-05	0	57	0	593494016	57	4818
2026-01-04 09:13:53.36	347.65	44.39	-47.7	-49.5	13.3	1.67e-05	0	57	0	596639744	57	4623
2026-01-04 09:13:54.35	347.47	44.12	-47.7	-49.4	13.5	1.44e-05	0	57	0	599785472	57	4588
2026-01-04 09:13:55.34	347.30	43.85	-47.8	-49.5	13.4	1.22e-05	0	57	0	602931200	57	4632
2026-01-04 09:13:56.32	347.14	43.58	-47.8	-49.7	13.3	1.52e-05	0	57	0	606076928	57	4708
2026-01-04 09:13:57.31	346.97	43.31	-47.9	-49.7	13.3	2.36e-05	0	57	0	609222656	57	4737
2026-01-04 09:13:58.30	346.81	43.04	-47.4	-48.9	14.1	1.50e-06	0	57	0	612368384	57	4333
2026-01-04 09:13:59.29	346.65	42.78	-46.9	-48.4	14.7	7.00e-07	0	57	0	615514112	57	4060
2026-01-04 09:14:00.28	346.49	42.51	-46.6	-48.0	15.1	0.00e+00	0	57	0	618659840	56	4123
2026-01-04 09:14:01.28	346.34	42.25	-46.4	-47.7	15.4	0.00e+00	0	57	0	621805568	56	3983
2026-01-04 09:14:02.28	346.18	41.99	-45.9	-47.1	15.8	0.00e+00	0	57	0	624951296	55	3952
2026-01-04 09:14:03.27	346.03	41.73	-45.7	-46.8	16.2	0.00e+00	0	57	0	628097024	54	4033
2026-01-04 09:14:04.27	345.88	41.47	-45.9	-47.1	15.9	0.00e+00	0	57	0	631242752	54	4157
2026-01-04 09:14:05.26	345.74	41.21	-46.1	-47.2	15.7	0.00e+00	0	57	0	634388480	54	4239
2026-01-04 09:14:06.26	345.60	40.95	-46.4	-47.8	15.2	0.00e+00	0	57	0	637534208	54	4495
2026-01-04 09:14:07.25	345.46	40.70	-46.6	-48.0	14.9	0.00e+00	0	57	0	640679936	55	4363
2026-01-04 09:14:08.24	345.32	40.45	-47.0	-48.5	14.5	0.00e+00	0	57	0	643825664	55	4599
2026-01-04 09:14:09.24	345.18	40.20	-47.3	-48.9	14.2	1.50e-06	0	57	0	646971392	56	4564
2026-01-04 09:14:10.23	345.05	39.95	-47.4	-49.1	13.9	3.80e-06	0	57	0	650117120	56	4677
2026-01-04 09:14:11.22	344.92	39.70	-47.3	-48.9	14.0	7.00e-07	0	57	0	652214272	56	4594
2026-01-04 09:14:12.21	344.79	39.46	-47.0	-48.5	14.4	7.00e-07	0	57	0	655360000	56	4344
2026-01-04 09:14:13.20	344.66	39.22	-46.8	-48.2	14.7	7.00e-07	0	57	0	658505728	56	4232
2026-01-04 09:14:14.19	344.53	38.97	-46.7	-48.0	14.9	0.00e+00	0	57	0	661651456	56	4141
2026-01-04 09:14:15.18	344.41	38.73	-46.7	-48.0	15.0	0.00e+00	0	57	0	664797184	56	4128
2026-01-04 09:14:16.17	344.29	38.50	-46.6	-47.9	15.1	0.00e+00	0	57	0	667942912	56	4080
2026-01-04 09:14:17.17	344.17	38.26	-46.6	-47.9	15.1	0.00e+00	0	57	0	671088640	56	4090
2026-01-04 09:14:18.16	344.05	38.02	-46.6	-48.0	15.1	0.00e+00	0	57	0	674234368	56	4125
2026-01-04 09:14:19.16	343.93	37.78	-46.6	-48.0	15.1	0.00e+00	0	57	0	677380096	56	4107
2026-01-04 09:14:20.14	343.82	37.55	-46.7	-48.0	15.0	0.00e+00	0	57	0	680525824	56	4123
2026-01-04 09:14:21.12	343.71	37.32	-46.7	-48.1	15.0	0.00e+00	0	57	0	683671552	56	4148
2026-01-04 09:14:22.11	343.59	37.10	-46.2	-47.5	15.5	0.00e+00	0	57	0	686817280	55	4113
2026-01-04 09:14:23.10	343.48	36.87	-45.9	-47.1	15.8	0.00e+00	0	57	0	689963008	55	3945
2026-01-04 09:14:24.10	343.38	36.64	-45.9	-47.1	15.8	0.00e+00	0	57	0	693108736	55	3942
2026-01-04 09:14:25.09	343.27	36.41	-46.1	-47.3	15.6	0.00e+00	0	57	0	696254464	55	4046
2026-01-04 09:14:26.08	343.16	36.19	-46.2	-47.5	15.4	0.00e+00	0	57	0	699400192	55	4138
2026-01-04 09:14:27.08	343.06	35.96	-46.1	-47.3	15.6	0.00e+00	0	57	0	702545920	55	4028
2026-01-04 09:14:28.07	342.96	35.74	-46.5	-47.8	15.1	0.00e+00	0	57	0	705691648	55	4290
2026-01-04 09:14:29.06	342.86	35.52	-46.3	-47.6	15.4	0.00e+00	0	57	0	708837376	55	4151
2026-01-04 09:14:30.05	342.76	35.31	-46.1	-47.3	15.6	0.00e+00	0	57	0	711983104	55	4024
2026-01-04 09:14:31.05	342.66	35.09	-45.9	-47.1	15.8	0.00e+00	0	57	0	715128832	54	4169
2026-01-04 09:14:32.04	342.56	34.87	-45.8	-47.0	16.0	0.00e+00	0	57	0	718274560	54	4101
2026-01-04 09:14:33.04	342.47	34.66	-45.6	-46.8	16.1	0.00e+00	0	57	0	721420288	54	4024
2026-01-04 09:14:34.03	342.37	34.44	-45.7	-46.9	16.0	0.00e+00	0	57	0	724566016	54	4071
2026-01-04 09:14:35.02	342.28	34.23	-45.8	-47.0	15.9	0.00e+00	0	57	0	727711744	54	4129
2026-01-04 09:14:36.02	342.19	34.02	-45.8	-47.0	15.9	0.00e+00	0	57	0	729808896	54	4109
2026-01-04 09:14:37.00	342.10	33.81	-46.1	-47.3	15.6	0.00e+00	0	57	0	732954624	54	4280
2026-01-04 09:14:37.99	342.01	33.61	-45.6	-46.8	16.1	0.00e+00	0	57	0	736100352	54	4017
2026-01-04 09:14:38.98	341.92	33.40	-45.4	-46.5	16.4	0.00e+00	0	57	0	739246080	53	4112
2026-01-04 09:14:39.96	341.83	33.20	-45.2	-46.3	16.5	0.00e+00	0	57	0	742391808	53	4024
2026-01-04 09:14:40.95	341.75	32.99	-45.2	-46.3	16.6	0.00e+00	0	57	0	745537536	53	4022
2026-01-04 09:14:41.94	341.66	32.79	-45.2	-46.3	16.6	0.00e+00	0	57	0	748683264	53	4021
2026-01-04 09:14:42.94	341.58	32.59	-45.4	-46.5	16.3	0.00e+00	0	57	0	751828992	53	4141
2026-01-04 09:14:43.93	341.50	32.39	-45.3	-46.4	16.5	0.00e+00	0	57	0	754974720	53	4078
2026-01-04 09:14:44.91	341.42	32.19	-45.5	-46.6	16.3	0.00e+00	0	57	0	758120448	53	4160
2026-01-04 09:14:45.90	341.34	32.00	-45.4	-46.5	16.4	0.00e+00	0	57	0	761266176	53	4121
2026-01-04 09:14:46.89	341.26	31.80	-45.5	-46.6	16.2	0.00e+00	0	57	0	764411904	53	4193
2026-01-04 09:14:47.88	341.18	31.61	-45.7	-46.9	16.0	0.00e+00	0	57	0	767557632	53	4295
2026-01-04 09:14:48.87	341.10	31.41	-45.5	-46.6	16.2	0.00e+00	0	57	0	770703360	53	4172
2026-01-04 09:14:49.86	341.02	31.22	-45.4	-46.6	16.3	0.00e+00	0	57	0	773849088	53	4150
2026-01-04 09:14:50.84	340.95	31.03	-45.1	-46.2	16.6	0.00e+00	0	57	0	776994816	53	3980
2026-01-04 09:14:51.83	340.88	30.84	-44.9	-45.9	16.9	0.00e+00	0	57	0	780140544	52	4064
2026-01-04 09:14:52.81	340.80	30.65	-44.7	-45.7	17.1	0.00e+00	0	57	0	782237696	52	3982
2026-01-04 09:14:53.81	340.73	30.47	-44.6	-45.6	17.2	0.00e+00	0	57	0	785383424	52	3926
2026-01-04 09:14:54.80	340.66	30.28	-44.7	-45.7	17.1	0.00e+00	0	57	0	788529152	52	3967
2026-01-04 09:14:55.79	340.59	30.09	-44.5	-45.4	17.3	0.00e+00	0	57	0	791674880	52	3852
2026-01-04 09:14:56.79	340.52	29.91	-44.3	-45.2	17.6	0.00e+00	0	57	0	794820608	51	3996
2026-01-04 09:14:57.78	340.45	29.73	-44.3	-45.1	17.7	0.00e+00	0	57	0	797966336	51	3956
2026-01-04 09:14:58.77	340.38	29.54	-44.3	-45.2	17.7	0.00e+00	0	57	0	801112064	51	3967
2026-01-04 09:14:59.76	340.31	29.36	-44.3	-45.2	17.7	0.00e+00	0	57	0	804257792	51	3968
2026-01-04 09:15:00.74	340.24	29.19	-44.3	-45.2	17.6	0.00e+00	0	57	0	807403520	51	3993
2026-01-04 09:15:01.74	340.18	29.00	-44.5	-45.4	17.5	0.00e+00	0	57	0	810549248	51	4083
2026-01-04 09:15:02.72	340.11	28.83	-44.8	-45.8	17.1	0.00e+00	0	57	0	813694976	51	4274
2026-01-04 09:15:03.71	340.05	28.65	-44.8	-45.7	17.2	0.00e+00	0	57	0	816840704	51	4213
2026-01-04 09:15:04.70	339.98	28.48	-44.6	-45.5	17.4	0.00e+00	0	57	0	819986432	51	4114
2026-01-04 09:15:05.69	339.92	28.30	-44.3	-45.2	17.6	0.00e+00	0	57	0	823132160	51	3984
2026-01-04 09:15:06.67	339.86	28.13	-44.4	-45.2	17.6	0.00e+00	0	57	0	826277888	51	4004
2026-01-04 09:15:07.66	339.80	27.96	-44.5	-45.4	17.5	0.00e+00	0	57	0	829423616	51	4067
2026-01-04 09:15:08.65	339.74	27.79	-44.4	-45.3	17.5	0.00e+00	0	57	0	832569344	51	4027
2026-01-04 09:15:09.64	339.68	27.62	-44.3	-45.2	17.6	0.00e+00	0	57	0	835715072	51	3979
2026-01-04 09:15:10.63	339.62	27.45	-44.2	-45.1	17.7	0.00e+00	0	57	0	838860800	51	3930
2026-01-04 09:15:11.61	339.56	27.28	-44.2	-45.1	17.7	0.00e+00	0	57	0	842006528	51	3922
2026-01-04 09:15:12.60	339.50	27.12	-44.2	-45.1	17.7	0.00e+00	0	57	0	844103680	51	3917
2026-01-04 09:15:13.59	339.44	26.95	-44.3	-45.2	17.6	0.00e+00	0	57	0	847249408	51	3965
2026-01-04 09:15:14.58	339.39	26.79	-44.3	-45.1	17.6	0.00e+00	0	57	0	850395136	51	3950
2026-01-04 09:15:15.57	339.33	26.62	-44.2	-45.1	17.7	0.00e+00	0	57	0	853540864	51	3954
2026-01-04 09:15:16.57	339.27	26.46	-44.2	-45.1	17.7	0.00e+00	0	57	0	856686592	51	3939
2026-01-04 09:15:17.55	339.22	26.30	-44.1	-45.0	17.8	0.00e+00	0	57	0	859832320	51	3876
2026-01-04 09:15:18.55	339.16	26.13	-44.1	-44.9	17.8	0.00e+00	0	57	0	862978048	51	3868
2026-01-04 09:15:19.53	339.11	25.97	-44.1	-44.9	17.8	0.00e+00	0	57	0	866123776	51	3862
2026-01-04 09:15:20.53	339.06	25.81	-44.2	-45.0	17.7	0.00e+00	0	57	0	869269504	51	3911
2026-01-04 09:15:21.52	339.00	25.66	-44.4	-45.4	17.5	0.00e+00	0	57	0	872415232	51	4053
2026-01-04 09:15:22.50	338.95	25.50	-44.5	-45.4	17.4	0.00e+00	0	57	0	875560960	51	4091
2026-01-04 09:15:23.49	338.90	25.34	-44.5	-45.5	17.3	0.00e+00	0	57	0	878706688	51	4113
2026-01-04 09:15:24.48	338.85	25.19	-44.9	-45.9	17.0	0.00e+00	0	57	0	881852416	51	4293
2026-01-04 09:15:25.47	338.80	25.03	-44.9	-45.9	16.9	0.00e+00	0	57	0	884998144	51	4305
2026-01-04 09:15:26.46	338.75	24.88	-44.7	-45.7	17.2	0.00e+00	0	57	0	888143872	51	4196
2026-01-04 09:15:27.44	338.70	24.73	-44.6	-45.6	17.2	0.00e+00	0	57	0	891289600	51	4162
2026-01-04 09:15:28.43	338.65	24.57	-44.7	-45.6	17.2	0.00e+00	0	57	0	894435328	51	4184
2026-01-04 09:15:29.42	338.60	24.42	-44.7	-45.7	17.1	0.00e+00	0	57	0	897581056	51	4212
2026-01-04 09:15:30.40	338.55	24.27	-44.8	-45.8	17.0	0.00e+00	0	57	0	900726784	51	4256
2026-01-04 09:15:31.39	338.51	24.12	-44.9	-46.0	16.8	0.00e+00	0	57	0	902823936	51	4349
2026-01-04 09:15:32.38	338.46	23.97	-45.0	-46.1	16.8	0.00e+00	0	57	0	905969664	51	4394
2026-01-04 09:15:33.37	338.41	23.83	-44.8	-45.7	17.0	0.00e+00	0	57	0	909115392	51	4237
2026-01-04 09:15:34.36	338.37	23.68	-44.8	-45.7	17.0	0.00e+00	0	57	0	912261120	51	4242
2026-01-04 09:15:35.35	338.32	23.53	-44.7	-45.7	17.1	0.00e+00	0	57	0	915406848	51	4232
2026-01-04 09:15:36.34	338.28	23.39	-44.8	-45.8	17.0	0.00e+00	0	57	0	918552576	51	4266
2026-01-04 09:15:37.34	338.23	23.24	-44.8	-45.8	16.9	0.00e+00	0	57	0	921698304	51	4291
2026-01-04 09:15:38.33	338.19	23.10	-44.8	-45.8	17.0	0.00e+00	0	57	0	924844032	51	4258
2026-01-04 09:15:39.32	338.14	22.95	-44.6	-45.6	17.2	0.00e+00	0	57	0	927989760	51	4161
2026-01-04 09:15:40.31	338.10	22.81	-44.5	-45.5	17.3	0.00e+00	0	57	0	931135488	51	4105
2026-01-04 09:15:41.30	338.06	22.67	-44.4	-45.4	17.3	0.00e+00	0	57	0	934281216	51	4069
2026-01-04 09:15:42.30	338.01	22.53	-44.3	-45.2	17.5	0.00e+00	0	57	0	937426944	51	4001
2026-01-04 09:15:43.29	337.97	22.39	-44.4	-45.3	17.4	0.00e+00	0	57	0	940572672	51	4033
2026-01-04 09:15:44.29	337.93	22.25	-44.5	-45.5	17.2	0.00e+00	0	57	0	943718400	51	4110
2026-01-04 09:15:45.27	337.89	22.11	-44.6	-45.5	17.1	0.00e+00	0	57	0	946864128	51	4141
2026-01-04 09:15:46.26	337.85	21.97	-44.7	-45.7	17.0	0.00e+00	0	57	0	950009856	51	4202
2026-01-04 09:15:47.26	337.81	21.83	-44.9	-46.0	16.6	0.00e+00	0	57	0	953155584	51	4370
2026-01-04 09:15:48.24	337.77	21.70	-45.0	-46.1	16.4	0.00e+00	0	57	0	956301312	51	4440
2026-01-04 09:15:49.23	337.73	21.56	-45.2	-46.4	16.0	0.00e+00	0	57	0	959447040	52	4306
2026-01-04 09:15:50.23	337.69	21.42	-45.4	-46.7	15.7	0.00e+00	0	57	0	962592768	52	4448
2026-01-04 09:15:51.21	337.65	21.29	-45.6	-46.8	15.4	0.00e+00	0	57	0	965738496	52	4538
2026-01-04 09:15:52.21	337.61	21.16	-46.0	-47.4	14.8	0.00e+00	0	57	0	968884224	53	4583
2026-01-04 09:15:53.19	337.57	21.02	-46.1	-47.5	14.6	0.00e+00	0	57	0	970981376	53	4646
2026-01-04 09:15:54.19	337.53	20.89	-46.2	-47.7	14.4	7.00e-07	0	57	0	974127104	54	4488
2026-01-04 09:15:55.18	337.50	20.76	-46.1	-47.5	14.5	0.00e+00	0	57	0	977272832	54	4383
2026-01-04 09:15:56.16	337.46	20.63	-45.8	-47.3	14.8	0.00e+00	0	57	0	980418560	54	4249
2026-01-04 09:15:57.15	337.42	20.50	-45.7	-47.1	15.0	0.00e+00	0	57	0	983564288	54	4147
2026-01-04 09:15:58.14	337.39	20.37	-45.7	-47.0	15.1	0.00e+00	0	57	0	986710016	54	4122
2026-01-04 09:15:59.14	337.35	20.24	-45.7	-47.1	15.0	0.00e+00	0	57	0	989855744	54	4168
2026-01-04 09:16:00.13	337.31	20.11	-45.8	-47.2	14.9	0.00e+00	0	57	0	993001472	54	4217
2026-01-04 09:16:01.12	337.28	19.98	-46.0	-47.5	14.7	0.00e+00	0	57	0	996147200	54	4345
2026-01-04 09:16:02.11	337.24	19.86	-45.7	-47.1	15.0	0.00e+00	0	57	0	999292928	54	4189
2026-01-04 09:16:03.10	337.21	19.73	-45.4	-46.6	15.5	0.00e+00	0	57	0	1002438656	54	3953
2026-01-04 09:16:04.09	337.17	19.60	-45.0	-46.2	15.9	0.00e+00	0	57	0	1005584384	53	3983
2026-01-04 09:16:05.07	337.14	19.48	-44.8	-45.9	16.2	0.00e+00	0	57	0	1008730112	52	4096
2026-01-04 09:16:06.06	337.11	19.35	-44.6	-45.7	16.4	0.00e+00	0	57	0	1011875840	52	3980
2026-01-04 09:16:07.05	337.07	19.23	-44.6	-45.7	16.4	0.00e+00	0	57	0	1015021568	52	3990
2026-01-04 09:16:08.04	337.04	19.11	-44.3	-45.3	17.0	0.00e+00	0	57	0	1018167296	51	4032
2026-01-04 09:16:09.03	337.01	18.98	-44.2	-45.2	17.1	0.00e+00	0	57	0	1021313024	51	3967
2026-01-04 09:16:10.01	336.97	18.86	-44.1	-45.0	17.3	0.00e+00	0	57	0	1024458752	51	3906
2026-01-04 09:16:11.01	336.94	18.74	-44.3	-45.3	17.0	0.00e+00	0	57	0	1027604480	51	4021
2026-01-04 09:16:12.00	336.91	18.62	-44.3	-45.2	17.2	0.00e+00	0	57	0	1029701632	51	3994
2026-01-04 09:16:12.98	336.88	18.50	-45.0	-46.1	16.3	0.00e+00	0	57	0	1032847360	51	4424
2026-01-04 09:16:13.97	336.85	18.38	-44.9	-46.0	16.6	0.00e+00	0	57	0	1035993088	51	4343
2026-01-04 09:16:14.95	336.81	18.26	-45.0	-46.1	16.4	0.00e+00	0	57	0	1039138816	52	4164
2026-01-04 09:16:15.93	336.78	18.14	-45.1	-46.2	16.2	0.00e+00	0	57	0	1042284544	52	4235
2026-01-04 09:16:16.92	336.75	18.03	-45.0	-46.0	16.4	0.00e+00	0	57	0	1045430272	52	4145
2026-01-04 09:16:17.91	336.72	17.91	-44.8	-45.8	16.7	0.00e+00	0	57	0	1048576000	52	4033
2026-01-04 09:16:18.89	336.69	17.79	-44.7	-45.7	16.8	0.00e+00	0	57	0	1051721728	52	3966
2026-01-04 09:16:19.89	336.66	17.68	-44.7	-45.7	16.9	0.00e+00	0	57	0	1054867456	52	3965
2026-01-04 09:16:20.88	336.63	17.56	-44.8	-45.9	16.7	0.00e+00	0	57	0	1058013184	52	4056
2026-01-04 09:16:21.87	336.60	17.44	-44.9	-46.0	16.6	0.00e+00	0	57	0	1061158912	52	4107
2026-01-04 09:16:22.85	336.57	17.33	-44.7	-45.8	16.8	0.00e+00	0	57	0	1064304640	52	4005
2026-01-04 09:16:23.85	336.55	17.21	-44.6	-45.6	16.9	0.00e+00	0	57	0	1067450368	52	3931
2026-01-04 09:16:24.83	336.52	17.10	-44.5	-45.5	17.0	0.00e+00	0	57	0	1070596096	52	3904
2026-01-04 09:16:25.82	336.49	16.99	-44.6	-45.6	16.9	0.00e+00	0	57	0	1073741824	52	3937
2026-01-04 09:16:26.81	336.46	16.88	-44.8	-45.9	16.6	0.00e+00	0	57	0	1076887552	52	4076
2026-01-04 09:16:27.79	336.43	16.76	-44.9	-45.9	16.6	0.00e+00	0	57	0	1080033280	52	4070
2026-01-04 09:16:28.77	336.41	16.65	-44.8	-45.9	16.7	0.00e+00	0	57	0	1083179008	52	4057
2026-01-04 09:16:29.76	336.38	16.54	-44.8	-45.9	16.7	0.00e+00	0	57	0	1086324736	52	4056
2026-01-04 09:16:30.74	336.35	16.43	-45.1	-46.2	16.3	0.00e+00	0	57	0	1088421888	52	4226
2026-01-04 09:16:31.74	336.32	16.32	-45.1	-46.2	16.4	0.00e+00	0	57	0	1091567616	52	4213
2026-01-04 09:16:32.73	336.30	16.21	-44.9	-46.0	16.5	0.00e+00	0	57	0	1094713344	52	4127
2026-01-04 09:16:33.72	336.27	16.10	-45.1	-46.2	16.3	0.00e+00	0	57	0	1097859072	52	4198
2026-01-04 09:16:34.71	336.24	15.99	-45.1	-46.2	16.3	0.00e+00	0	57	0	1101004800	52	4205
2026-01-04 09:16:35.71	336.22	15.88	-45.2	-46.3	16.2	0.00e+00	0	57	0	1104150528	52	4282
2026-01-04 09:16:36.70	336.19	15.78	-45.2	-46.3	16.2	0.00e+00	0	57	0	1107296256	52	4273
2026-01-04 09:16:37.69	336.17	15.67	-45.1	-46.2	16.3	0.00e+00	0	57	0	1110441984	52	4202
2026-01-04 09:16:38.68	336.14	15.56	-45.1	-46.2	16.3	0.00e+00	0	57	0	1113587712	52	4210
2026-01-04 09:16:39.67	336.12	15.45	-45.3	-46.5	16.0	0.00e+00	0	57	0	1116733440	52	4362
2026-01-04 09:16:40.66	336.09	15.35	-45.2	-46.4	16.1	0.00e+00	0	57	0	1119879168	52	4296
2026-01-04 09:16:41.66	336.07	15.24	-45.2	-46.3	16.2	0.00e+00	0	57	0	1123024896	52	4277
2026-01-04 09:16:42.65	336.04	15.14	-45.2	-46.3	16.2	0.00e+00	0	57	0	1126170624	52	4286
2026-01-04 09:16:43.63	336.02	15.03	-45.2	-46.4	16.1	0.00e+00	0	57	0	1129316352	52	4317
2026-01-04 09:16:44.63	335.99	14.93	-45.3	-46.4	16.1	0.00e+00	0	57	0	1132462080	52	4318
2026-01-04 09:16:45.62	335.97	14.82	-45.3	-46.4	16.1	0.00e+00	0	57	0	1135607808	52	4324
2026-01-04 09:16:46.61	335.94	14.72	-45.4	-46.5	15.9	0.00e+00	0	57	0	1138753536	52	4387
2026-01-04 09:16:47.60	335.92	14.62	-45.6	-46.8	15.7	0.00e+00	0	57	0	1141899264	52	4524
2026-01-04 09:16:48.59	335.90	14.51	-45.7	-46.9	15.6	0.00e+00	0	57	0	1145044992	53	4316
2026-01-04 09:16:49.58	335.87	14.41	-45.6	-46.9	15.6	0.00e+00	0	57	0	1148190720	53	4311
2026-01-04 09:16:50.57	335.85	14.31	-45.6	-46.9	15.6	0.00e+00	0	57	0	1151336448	53	4292
2026-01-04 09:16:51.56	335.83	14.21	-45.5	-46.8	15.7	0.00e+00	0	57	0	1154482176	53	4259
2026-01-04 09:16:52.55	335.80	14.11	-45.5	-46.7	15.7	0.00e+00	0	57	0	1156579328	53	4232
2026-01-04 09:16:53.54	335.78	14.01	-45.6	-46.9	15.5	0.00e+00	0	57	0	1159725056	53	4329
2026-01-04 09:16:54.53	335.76	13.91	-45.7	-47.0	15.5	0.00e+00	0	57	0	1162870784	53	4356
2026-01-04 09:16:55.51	335.74	13.81	-45.5	-46.7	15.7	0.00e+00	0	57	0	1166016512	53	4240
2026-01-04 09:16:56.51	335.72	13.71	-45.4	-46.6	15.8	0.00e+00	0	57	0	1169162240	53	4176
2026-01-04 09:16:57.49	335.69	13.61	-45.4	-46.6	15.8	0.00e+00	0	57	0	1172307968	53	4164
2026-01-04 09:16:58.49	335.67	13.51	-45.4	-46.6	15.9	0.00e+00	0	57	0	1175453696	53	4150
2026-01-04 09:16:59.48	335.65	13.41	-45.5	-46.7	15.8	0.00e+00	0	57	0	1178599424	53	4195
2026-01-04 09:17:00.47	335.63	13.32	-45.4	-46.6	15.8	0.00e+00	0	57	0	1181745152	53	4172
2026-01-04 09:17:01.46	335.61	13.22	-45.4	-46.6	15.8	0.00e+00	0	57	0	1184890880	53	4175
2026-01-04 09:17:02.44	335.59	13.12	-45.4	-46.6	15.8	0.00e+00	0	57	0	1188036608	53	4173
2026-01-04 09:17:03.44	335.57	13.03	-45.4	-46.6	15.8	0.00e+00	0	57	0	1191182336	53	4171
2026-01-04 09:17:04.43	335.55	12.93	-45.3	-46.6	15.9	0.00e+00	0	57	0	1194328064	53	4152
2026-01-04 09:17:05.42	335.53	12.83	-45.3	-46.6	15.8	0.00e+00	0	57	0	1197473792	53	4148
2026-01-04 09:17:06.42	335.50	12.74	-45.4	-46.6	15.9	0.00e+00	0	57	0	1200619520	53	4152
2026-01-04 09:17:07.41	335.48	12.64	-45.4	-46.6	15.8	0.00e+00	0	57	0	1203765248	53	4165
2026-01-04 09:17:08.41	335.46	12.55	-45.5	-46.8	15.6	0.00e+00	0	57	0	1206910976	53	4244
2026-01-04 09:17:09.40	335.44	12.45	-45.6	-46.8	15.6	0.00e+00	0	57	0	1210056704	53	4277
2026-01-04 09:17:10.38	335.43	12.36	-45.5	-46.8	15.6	0.00e+00	0	57	0	1213202432	53	4248
2026-01-04 09:17:11.36	335.41	12.27	-45.5	-46.8	15.6	0.00e+00	0	57	0	1216348160	53	4261
2026-01-04 09:17:12.35	335.39	12.17	-45.6	-46.9	15.5	0.00e+00	0	57	0	1218445312	53	4322
2026-01-04 09:17:13.35	335.37	12.08	-45.8	-47.1	15.3	0.00e+00	0	57	0	1221591040	53	4405
2026-01-04 09:17:14.33	335.35	11.99	-45.7	-47.0	15.4	0.00e+00	0	57	0	1224736768	53	4342
2026-01-04 09:17:15.32	335.33	11.90	-45.7	-47.0	15.4	0.00e+00	0	57	0	1227882496	53	4361
2026-01-04 09:17:16.30	335.31	11.81	-45.5	-46.8	15.6	0.00e+00	0	57	0	1231028224	53	4263
2026-01-04 09:17:17.29	335.29	11.71	-45.4	-46.6	15.8	0.00e+00	0	57	0	1234173952	53	4167
2026-01-04 09:17:18.27	335.27	11.62	-45.3	-46.5	15.8	0.00e+00	0	57	0	1237319680	53	4110
2026-01-04 09:17:19.27	335.25	11.53	-45.4	-46.6	15.7	0.00e+00	0	57	0	1240465408	53	4165
2026-01-04 09:17:20.26	335.24	11.44	-45.4	-46.6	15.8	0.00e+00	0	57	0	1243611136	53	4157
2026-01-04 09:17:21.26	335.22	11.35	-45.3	-46.5	15.8	0.00e+00	0	57	0	1246756864	53	4123
2026-01-04 09:17:22.24	335.20	11.26	-45.4	-46.5	15.7	0.00e+00	0	57	0	1249902592	53	4145
2026-01-04 09:17:23.23	335.18	11.17	-45.4	-46.7	15.7	0.00e+00	0	57	0	1253048320	53	4196
2026-01-04 09:17:24.21	335.16	11.08	-45.6	-46.9	15.4	0.00e+00	0	57	0	1256194048	53	4307
2026-01-04 09:17:25.21	335.15	10.99	-45.5	-46.7	15.6	0.00e+00	0	57	0	1259339776	53	4220
2026-01-04 09:17:26.20	335.13	10.90	-45.4	-46.6	15.7	0.00e+00	0	57	0	1262485504	53	4167
2026-01-04 09:17:27.19	335.11	10.82	-45.4	-46.7	15.6	0.00e+00	0	57	0	1265631232	53	4198
2026-01-04 09:17:28.18	335.10	10.73	-45.6	-46.8	15.5	0.00e+00	0	57	0	1268776960	53	4274
2026-01-04 09:17:29.17	335.08	10.64	-45.4	-46.7	15.6	0.00e+00	0	57	0	1271922688	53	4197
2026-01-04 09:17:30.15	335.06	10.55	-45.6	-46.9	15.4	0.00e+00	0	57	0	1274019840	53	4323
2026-01-04 09:17:31.14	335.04	10.47	-45.5	-46.7	15.5	0.00e+00	0	57	0	1277165568	53	4234
2026-01-04 09:17:32.14	335.03	10.38	-45.5	-46.7	15.6	0.00e+00	0	57	0	1280311296	53	4212
2026-01-04 09:17:33.13	335.01	10.29	-45.5	-46.8	15.5	0.00e+00	0	57	0	1283457024	53	4258
2026-01-04 09:17:34.13	334.99	10.21	-45.5	-46.7	15.5	0.00e+00	0	57	0	1286602752	53	4228
2026-01-04 09:17:35.12	334.98	10.12	-45.6	-46.9	15.4	7.00e-07	0	57	0	1289748480	53	4292
2026-01-04 09:17:36.12	334.96	10.03	-45.8	-47.1	15.1	0.00e+00	0	57	0	1292894208	53	4411
2026-01-04 09:17:37.12	334.95	9.95	-45.7	-47.0	15.3	0.00e+00	0	57	0	1296039936	53	4355
2026-01-04 09:17:38.11	334.93	9.86	-45.5	-46.8	15.5	0.00e+00	0	57	0	1299185664	53	4253
2026-01-04 09:17:39.10	334.91	9.78	-45.5	-46.7	15.5	0.00e+00	0	57	0	1302331392	53	4220
2026-01-04 09:17:40.09	334.90	9.69	-45.5	-46.7	15.5	0.00e+00	0	57	0	1305477120	53	4240
2026-01-04 09:17:41.09	334.88	9.61	-45.5	-46.8	15.5	0.00e+00	0	57	0	1308622848	53	4249
2026-01-04 09:17:42.08	334.87	9.53	-45.6	-46.8	15.4	0.00e+00	0	57	0	1311768576	53	4285
2026-01-04 09:17:43.07	334.85	9.44	-45.8	-47.1	15.1	0.00e+00	0	57	0	1314914304	53	4400
2026-01-04 09:17:44.06	334.84	9.36	-45.6	-46.9	15.3	0.00e+00	0	57	0	1318060032	53	4300
2026-01-04 09:17:45.05	334.82	9.28	-45.5	-46.8	15.4	0.00e+00	0	57	0	1321205760	53	4278
2026-01-04 09:17:46.04	334.81	9.19	-45.6	-46.9	15.3	0.00e+00	0	57	0	1324351488	53	4329
2026-01-04 09:17:47.04	334.79	9.11	-45.6	-46.9	15.3	0.00e+00	0	57	0	1327497216	53	4329
2026-01-04 09:17:48.03	334.78	9.03	-45.6	-47.0	15.2	0.00e+00	0	57	0	1330642944	53	4351
2026-01-04 09:17:49.02	334.76	8.95	-45.9	-47.2	14.9	0.00e+00	0	57	0	1333788672	53	4491
2026-01-04 09:17:50.01	334.75	8.86	-45.8	-47.1	15.1	0.00e+00	0	57	0	1336934400	53	4423
2026-01-04 09:17:51.00	334.73	8.78	-45.7	-47.1	15.1	0.00e+00	0	57	0	1340080128	53	4402
2026-01-04 09:17:51.98	334.72	8.70	-45.8	-47.1	15.1	0.00e+00	0	58	0	1343225856	53	4415
2026-01-04 09:17:52.97	334.70	8.62	-46.0	-47.4	14.8	0.00e+00	0	57	0	1345323008	53	4564
2026-01-04 09:17:53.96	334.69	8.54	-46.1	-47.6	14.6	0.00e+00	0	57	0	1348468736	54	4413
2026-01-04 09:17:54.95	334.67	8.46	-46.1	-47.5	14.6	0.00e+00	0	57	0	1351614464	54	4382
2026-01-04 09:17:55.94	334.66	8.38	-46.2	-47.6	14.6	0.00e+00	0	57	0	1354760192	54	4435
2026-01-04 09:17:56.93	334.65	8.30	-46.3	-47.8	14.4	1.50e-06	0	57	0	1357905920	54	4501
2026-01-04 09:17:57.92	334.63	8.22	-46.2	-47.7	14.5	1.50e-06	0	57	0	1361051648	54	4456
2026-01-04 09:17:58.92	334.62	8.14	-46.4	-47.9	14.3	0.00e+00	0	57	0	1364197376	54	4576
2026-01-04 09:17:59.91	334.61	8.06	-46.3	-47.9	14.3	1.50e-06	0	57	0	1367343104	54	4552
2026-01-04 09:18:00.89	334.59	7.98	-46.4	-48.0	14.2	7.00e-07	0	57	0	1370488832	54	4608
2026-01-04 09:18:01.88	334.58	7.91	-46.4	-48.0	14.2	1.50e-06	0	57	0	1373634560	54	4608
2026-01-04 09:18:02.88	334.57	7.83	-46.3	-47.8	14.4	1.50e-06	0	57	0	1376780288	54	4501
2026-01-04 09:18:03.86	334.55	7.75	-46.2	-47.7	14.4	0.00e+00	0	57	0	1379926016	54	4479
2026-01-04 09:18:04.85	334.54	7.67	-46.3	-47.8	14.3	7.00e-07	0	57	0	1383071744	54	4520
2026-01-04 09:18:05.83	334.53	7.59	-46.4	-47.9	14.2	2.20e-06	0	57	0	1386217472	54	4598
2026-01-04 09:18:06.82	334.51	7.52	-46.6	-48.2	13.9	6.10e-06	0	57	0	1389363200	55	4481
2026-01-04 09:18:07.81	334.50	7.44	-46.5	-48.2	14.0	3.00e-06	0	57	0	1392508928	55	4442
2026-01-04 09:18:08.80	334.49	7.36	-46.6	-48.3	13.8	4.50e-06	0	57	0	1395654656	55	4520
2026-01-04 09:18:09.79	334.47	7.29	-46.8	-48.5	13.6	6.10e-06	0	57	0	1398800384	55	4641
2026-01-04 09:18:10.79	334.46	7.21	-46.7	-48.4	13.7	8.30e-06	0	57	0	1401946112	55	4556
2026-01-04 09:18:11.79	334.45	7.13	-46.8	-48.6	13.5	5.30e-06	0	57	0	1405091840	55	4684
2026-01-04 09:18:12.77	334.44	7.06	-46.8	-48.5	13.6	1.37e-05	0	57	0	1407188992	55	4642
2026-01-04 09:18:13.77	334.42	6.98	-46.8	-48.5	13.6	9.10e-06	0	57	0	1410334720	55	4620
2026-01-04 09:18:14.75	334.41	6.90	-47.0	-48.8	13.2	1.60e-05	0	57	0	1413480448	55	4787
2026-01-04 09:18:15.74	334.40	6.83	-47.1	-49.0	13.2	2.89e-05	0	57	0	1416626176	56	4601
2026-01-04 09:18:16.73	334.39	6.75	-47.1	-48.9	13.2	1.67e-05	0	57	0	1419771904	56	4598
2026-01-04 09:18:17.72	334.38	6.68	-47.1	-49.0	13.2	3.50e-05	0	57	0	1422917632	56	4607
2026-01-04 09:18:18.71	334.36	6.60	-47.3	-49.2	12.9	2.97e-05	0	57	0	1426063360	56	4732
2026-01-04 09:18:19.70	334.35	6.53	-47.2	-49.1	13.0	4.27e-05	0	57	0	1429209088	56	4688
2026-01-04 09:18:20.69	334.34	6.46	-47.1	-49.0	13.1	1.52e-05	0	57	0	1432354816	56	4629
2026-01-04 09:18:21.67	334.33	6.38	-47.1	-49.0	13.1	2.51e-05	0	57	0	1435500544	56	4614
2026-01-04 09:18:22.67	334.32	6.31	-47.4	-49.4	12.7	6.02e-05	0	57	0	1438646272	56	4864
2026-01-04 09:18:23.66	334.31	6.23	-47.3	-49.2	12.9	5.34e-05	0	57	0	1441792000	56	4742
2026-01-04 09:18:24.65	334.29	6.16	-47.2	-49.1	13.0	4.73e-05	0	57	0	1444937728	56	4693
2026-01-04 09:18:25.63	334.28	6.09	-47.2	-49.1	12.9	5.41e-05	0	57	0	1448083456	56	4696
2026-01-04 09:18:26.62	334.27	6.02	-47.1	-49.0	13.0	4.88e-05	0	58	0	1451229184	56	4649
2026-01-04 09:18:27.61	334.26	5.94	-47.1	-49.0	13.0	3.89e-05	0	57	0	1454374912	56	4634
2026-01-04 09:18:28.60	334.25	5.87	-47.1	-48.9	13.1	3.12e-05	0	57	0	1457520640	56	4588
2026-01-04 09:18:29.58	334.24	5.80	-47.1	-49.1	13.0	3.50e-05	0	57	0	1460666368	56	4655
2026-01-04 09:18:30.57	334.23	5.73	-47.1	-49.1	13.0	3.58e-05	0	57	0	1463812096	56	4658
2026-01-04 09:18:31.56	334.22	5.65	-47.2	-49.2	12.9	4.65e-05	0	57	0	1466957824	56	4713
2026-01-04 09:18:32.55	334.21	5.58	-47.2	-49.2	12.9	5.26e-05	0	57	0	1469054976	56	4727
2026-01-04 09:18:33.55	334.19	5.51	-47.2	-49.1	12.9	3.58e-05	0	57	0	1472200704	56	4701
2026-01-04 09:18:34.53	334.18	5.44	-47.3	-49.3	12.7	8.62e-05	0	57	0	1475346432	56	4802
2026-01-04 09:18:35.52	334.17	5.37	-47.2	-49.1	12.9	5.18e-05	0	57	0	1478492160	56	4675
2026-01-04 09:18:36.51	334.16	5.30	-47.1	-49.0	13.0	3.96e-05	0	57	0	1481637888	56	4637
2026-01-04 09:18:37.50	334.15	5.23	-47.1	-49.0	13.0	3.73e-05	0	57	0	1484783616	56	4611
2026-01-04 09:18:38.49	334.14	5.15	-47.2	-49.1	12.8	4.73e-05	0	57	0	1487929344	56	4700
2026-01-04 09:18:39.47	334.13	5.08	-47.3	-49.4	12.6	1.23e-04	0	57	0	1491075072	56	4843
2026-01-04 09:18:40.45	334.12	5.01	-51.5	-62.5	3.8	1.44e+00	0	57	104	1493172224	65	13095
2026-01-04 09:18:41.44	334.11	4.94	-51.9	-63.0	3.8	1.49e+00	0	58	104	1493172224	65	13736
2026-01-04 09:18:42.44	334.10	4.87	-52.0	-63.6	3.8	1.49e+00	0	57	104	1493172224	65	14719
2026-01-04 09:18:43.43	334.09	4.80	-52.2	-63.6	3.8	1.49e+00	0	57	104	1493172224	66	13994
2026-01-04 09:18:44.42	334.08	4.73	-52.2	-63.8	3.8	1.49e+00	0	58	104	1493172224	66	14257
2026-01-04 09:18:45.40	334.07	4.67	-52.1	-63.6	3.8	1.49e+00	0	57	104	1493172224	66	14017
2026-01-04 09:18:46.38	334.06	4.60	-52.1	-63.7	3.8	1.49e+00	0	57	104	1493172224	66	14102
2026-01-04 09:18:47.37	334.05	4.53	-52.4	-63.9	3.8	1.49e+00	0	57	104	1493172224	66	14495
2026-01-04 09:18:48.36	334.04	4.46	-52.5	-64.0	3.8	1.49e+00	0	57	104	1493172224	66	14567
2026-01-04 09:18:49.35	334.03	4.39	-52.5	-64.1	3.8	1.49e+00	0	57	104	1493172224	66	14719
2026-01-04 09:18:50.34	334.02	4.32	-52.6	-64.1	3.8	1.49e+00	0	57	104	1493172224	67	13911
2026-01-04 09:18:51.34	334.01	4.25	-52.6	-64.1	3.8	1.49e+00	0	57	104	1493172224	67	13910
2026-01-04 09:18:52.33	334.00	4.18	-52.7	-64.1	3.8	1.49e+00	0	58	104	1493172224	67	13971
2026-01-04 09:18:53.31	333.99	4.12	-52.7	-64.1	3.8	1.49e+00	0	57	104	1493172224	67	14042
2026-01-04 09:18:54.30	333.99	4.05	-52.6	-64.1	3.8	1.49e+00	0	57	104	1493172224	67	14040
2026-01-04 09:18:55.29	333.98	3.98	-52.7	-64.2	3.8	1.49e+00	0	57	104	1493172224	67	14090
2026-01-04 09:18:56.28	333.97	3.91	-52.7	-64.2	3.8	1.49e+00	0	58	104	1493172224	67	14135
2026-01-04 09:18:57.27	333.96	3.85	-52.6	-64.2	3.8	1.49e+00	0	57	104	1493172224	67	14146
2026-01-04 09:18:58.26	333.95	3.78	-52.6	-64.2	3.8	1.49e+00	0	58	104	1493172224	67	14137
2026-01-04 09:18:59.24	333.94	3.71	-52.7	-64.2	3.8	1.49e+00	0	58	104	1493172224	67	14190
2026-01-04 09:19:00.23	333.93	3.65	-52.7	-64.2	3.8	1.49e+00	0	58	104	1493172224	67	14168
2026-01-04 09:19:01.23	333.92	3.58	-52.8	-64.2	3.8	1.49e+00	0	58	104	1493172224	67	14202
2026-01-04 09:19:02.23	333.91	3.51	-52.8	-64.3	3.8	1.49e+00	0	58	104	1493172224	67	14233
2026-01-04 09:19:03.22	333.90	3.45	-52.6	-64.3	3.8	1.49e+00	0	57	104	1493172224	67	14232
2026-01-04 09:19:04.21	333.90	3.38	-52.7	-64.3	3.8	1.49e+00	0	57	104	1493172224	67	14219
2026-01-04 09:19:05.19	333.89	3.31	-52.8	-64.3	3.8	1.49e+00	0	58	104	1493172224	67	14253
2026-01-04 09:19:06.18	333.88	3.25	-52.8	-64.2	3.8	1.49e+00	0	58	104	1493172224	67	14193
2026-01-04 09:19:07.18	333.87	3.18	-52.8	-64.2	3.8	1.49e+00	0	57	104	1493172224	67	14177
2026-01-04 09:19:08.17	333.86	3.12	-52.8	-64.2	3.8	1.49e+00	0	58	104	1493172224	67	14208
2026-01-04 09:19:09.16	333.85	3.05	-52.8	-64.3	3.8	1.49e+00	0	57	104	1493172224	67	14230
2026-01-04 09:19:10.14	333.84	2.99	-52.8	-64.3	3.8	1.49e+00	0	57	104	1493172224	67	14223
2026-01-04 09:19:11.13	333.84	2.92	-52.8	-64.3	3.8	1.49e+00	0	57	104	1493172224	67	14239
2026-01-04 09:19:12.11	333.83	2.86	-52.8	-64.2	3.8	1.49e+00	0	58	104	1493172224	67	14195

#Closed at: 2026-01-04 09:19:12
#Recorded file [1493 MB]: D:/Data/31026_260104_121840.dat