passes_logs/2026/01/02/R2.0S_Moscow/R2.0S_Moscow__20260102_061635_FENGYUN_3G_rec.log

#Pass ID: 20260102_061635_FENGYUN 3G
#Satellite: FENGYUN 3G
#Configuration: FENGYUN 3G
#almurnet v.1.7.20251203
#Start time: 2026-01-02 06:16:35

#Version: 2.2.20231116
#Station: R2.0S_Moscow
#Location: 37.707566 lon 55.798166 lat
#TLE: 1 56232U 23055A   26001.34523675  .00043393  00000+0  69485-3 0  9993
#TLE: 2 56232  49.9927 126.3392 0004120 323.4974  36.5712 15.52620654154072

#Time	Az	El	Level	Level2	SNR	BER	BlckErr	Temp	State	Recorded	gain1	gain2
2026-01-02 06:16:35.65	263.48	2.01	-44.0	-62.1	3.8	8.47e-01	0	47	0	0	59	29284
2026-01-02 06:16:36.67	263.40	2.08	-44.0	-62.1	3.8	8.43e-01	0	47	104	0	59	29345
2026-01-02 06:16:37.68	263.31	2.14	-44.0	-62.1	3.8	8.46e-01	0	47	104	0	59	29311
2026-01-02 06:16:38.69	263.23	2.20	-44.0	-62.2	3.8	8.46e-01	0	47	104	0	59	29386
2026-01-02 06:16:39.70	263.14	2.27	-44.0	-62.1	3.8	8.46e-01	0	47	104	0	59	29295
2026-01-02 06:16:40.72	263.06	2.33	-44.0	-62.2	3.8	8.45e-01	0	47	104	0	59	29369
2026-01-02 06:16:41.73	262.97	2.39	-44.0	-62.1	3.8	8.46e-01	0	48	104	0	59	29327
2026-01-02 06:16:42.74	262.89	2.46	-44.0	-62.1	3.8	8.46e-01	0	48	104	0	59	29249
2026-01-02 06:16:43.75	262.80	2.52	-44.0	-62.1	3.8	8.46e-01	0	48	104	0	59	29263
2026-01-02 06:16:44.76	262.71	2.59	-44.0	-62.2	3.8	8.46e-01	0	48	104	0	59	29366
2026-01-02 06:16:45.77	262.63	2.65	-44.0	-62.1	3.8	8.46e-01	0	48	104	0	59	29260
2026-01-02 06:16:46.78	262.54	2.72	-44.0	-62.1	3.8	8.45e-01	0	48	104	0	59	29294
2026-01-02 06:16:47.79	262.45	2.78	-44.0	-62.1	3.8	8.47e-01	0	48	104	0	59	29273
2026-01-02 06:16:48.80	262.36	2.85	-44.0	-62.1	3.8	8.47e-01	0	48	104	0	59	29293
2026-01-02 06:16:49.81	262.27	2.91	-44.0	-62.1	3.8	8.46e-01	0	48	104	0	59	29265
2026-01-02 06:16:50.83	262.18	2.98	-44.0	-62.1	3.8	8.47e-01	0	48	104	0	59	29193
2026-01-02 06:16:51.84	262.09	3.04	-44.0	-62.1	3.8	8.45e-01	0	48	104	0	59	29188
2026-01-02 06:16:52.85	261.99	3.11	-44.0	-62.1	3.8	8.45e-01	0	48	104	0	59	29061
2026-01-02 06:16:53.86	261.90	3.18	-44.0	-62.1	3.8	8.47e-01	0	48	104	0	59	29134
2026-01-02 06:16:54.87	261.81	3.24	-44.0	-62.0	3.8	8.46e-01	0	49	104	0	59	28989
2026-01-02 06:16:55.88	261.72	3.31	-44.0	-62.0	3.8	8.46e-01	0	48	104	0	59	28924
2026-01-02 06:16:56.89	261.62	3.37	-44.0	-62.0	3.8	8.46e-01	0	48	104	0	59	28912
2026-01-02 06:16:57.90	261.53	3.44	-44.0	-62.0	3.8	8.47e-01	0	49	104	0	59	28694
2026-01-02 06:16:58.91	261.43	3.51	-44.0	-62.0	3.8	8.47e-01	0	49	104	0	59	28713
2026-01-02 06:16:59.92	261.33	3.58	-44.0	-62.0	3.8	8.47e-01	0	49	104	0	59	28709
2026-01-02 06:17:00.93	261.24	3.64	-44.0	-62.0	3.8	8.46e-01	0	49	104	0	59	28711
2026-01-02 06:17:01.95	261.14	3.71	-44.0	-62.0	3.8	8.47e-01	0	49	104	0	59	28779
2026-01-02 06:17:02.96	261.04	3.78	-44.0	-62.0	3.8	8.47e-01	0	49	104	0	59	28751
2026-01-02 06:17:03.97	260.94	3.85	-44.0	-62.0	3.8	8.46e-01	0	49	104	0	59	28802
2026-01-02 06:17:04.98	260.84	3.91	-44.0	-62.0	3.8	8.46e-01	0	49	104	0	59	28850
2026-01-02 06:17:05.99	260.74	3.98	-44.0	-62.0	3.8	8.46e-01	0	49	104	0	59	28909
2026-01-02 06:17:07.00	260.64	4.05	-44.0	-62.0	3.8	8.46e-01	0	49	104	0	59	28913
2026-01-02 06:17:08.01	260.54	4.12	-44.0	-62.0	3.8	8.47e-01	0	49	104	0	59	28870
2026-01-02 06:17:09.02	260.44	4.19	-44.0	-62.0	3.8	8.47e-01	0	49	104	0	59	28924
2026-01-02 06:17:10.03	260.34	4.26	-44.0	-62.0	3.8	8.45e-01	0	49	104	0	59	28945
2026-01-02 06:17:11.04	260.23	4.33	-44.0	-62.0	3.8	8.46e-01	0	50	104	0	59	28943
2026-01-02 06:17:12.06	260.13	4.40	-44.0	-61.9	3.8	8.46e-01	0	49	104	0	59	28479
2026-01-02 06:17:13.07	260.02	4.47	-44.0	-61.8	3.8	8.47e-01	0	50	104	0	59	28101
2026-01-02 06:17:14.08	259.92	4.54	-44.0	-61.6	3.8	8.47e-01	0	50	104	0	59	27673
2026-01-02 06:17:15.09	259.81	4.61	-44.0	-61.6	3.8	8.46e-01	0	49	104	0	59	27553
2026-01-02 06:17:16.10	259.70	4.68	-44.0	-61.5	3.8	8.46e-01	0	50	104	0	59	27263
2026-01-02 06:17:17.11	259.60	4.75	-44.0	-61.5	3.8	8.46e-01	0	50	104	0	59	27133
2026-01-02 06:17:18.12	259.49	4.82	-44.0	-61.5	3.8	8.47e-01	0	50	104	0	59	27236
2026-01-02 06:17:19.13	259.38	4.89	-44.0	-61.6	3.8	8.47e-01	0	50	104	0	59	27676
2026-01-02 06:17:20.14	259.27	4.96	-44.0	-61.7	3.8	8.46e-01	0	50	104	0	59	28018
2026-01-02 06:17:21.15	259.16	5.03	-44.0	-61.8	3.8	8.45e-01	0	50	104	0	59	28035
2026-01-02 06:17:22.16	259.04	5.10	-44.0	-61.8	3.8	8.45e-01	0	50	104	0	59	28079
2026-01-02 06:17:23.18	258.93	5.18	-44.0	-61.8	3.8	8.45e-01	0	50	104	0	59	28117
2026-01-02 06:17:24.19	258.82	5.25	-44.0	-61.7	3.8	8.47e-01	0	50	104	0	59	28014
2026-01-02 06:17:25.20	258.70	5.32	-44.0	-61.6	3.8	8.47e-01	0	50	104	0	59	27662
2026-01-02 06:17:26.21	258.59	5.39	-44.0	-61.6	3.8	8.46e-01	0	50	104	0	59	27551
2026-01-02 06:17:27.22	258.47	5.47	-44.0	-61.4	3.8	8.45e-01	0	50	104	0	59	26767
2026-01-02 06:17:28.23	258.36	5.54	-43.9	-61.2	3.8	8.46e-01	0	50	104	0	59	26194
2026-01-02 06:17:29.24	258.24	5.61	-43.9	-61.0	3.8	8.46e-01	0	50	104	0	59	25623
2026-01-02 06:17:30.25	258.12	5.68	-43.9	-60.7	3.8	8.46e-01	0	50	104	0	59	24932
2026-01-02 06:17:31.26	258.00	5.76	-43.9	-60.6	3.8	8.45e-01	0	51	104	0	59	24437
2026-01-02 06:17:32.27	257.88	5.83	-43.9	-60.5	3.9	8.45e-01	0	50	104	0	59	24366
2026-01-02 06:17:33.29	257.76	5.91	-43.9	-60.6	3.8	8.46e-01	0	50	104	0	59	24502
2026-01-02 06:17:34.30	257.64	5.98	-43.9	-60.9	3.8	8.45e-01	0	51	104	0	59	25332
2026-01-02 06:17:35.31	257.52	6.05	-44.0	-61.2	3.8	8.45e-01	0	51	104	0	59	26408
2026-01-02 06:17:36.32	257.39	6.13	-44.0	-61.6	3.8	8.45e-01	0	51	104	0	59	27433
2026-01-02 06:17:37.33	257.27	6.20	-44.0	-61.9	3.8	8.45e-01	0	51	104	0	59	28590
2026-01-02 06:17:38.34	257.14	6.28	-44.0	-62.0	3.8	8.45e-01	0	51	104	0	59	28990
2026-01-02 06:17:39.35	257.02	6.35	-44.0	-62.0	3.8	8.46e-01	0	51	104	0	59	28695
2026-01-02 06:17:40.36	256.89	6.43	-43.9	-61.5	3.8	8.46e-01	0	51	104	0	59	27350
2026-01-02 06:17:41.37	256.76	6.51	-43.9	-61.0	3.8	8.47e-01	0	51	104	0	59	25711
2026-01-02 06:17:42.38	256.63	6.58	-43.9	-60.3	3.9	8.47e-01	0	51	104	0	59	23750
2026-01-02 06:17:43.39	256.50	6.66	-43.9	-59.5	3.8	8.46e-01	0	51	104	0	59	21519
2026-01-02 06:17:44.40	256.37	6.73	-43.9	-58.5	4.2	8.41e-01	0	51	0	0	59	19311
2026-01-02 06:17:45.42	256.24	6.81	-43.8	-57.9	4.4	8.41e-01	0	51	0	0	59	17959
2026-01-02 06:17:46.43	256.11	6.89	-43.8	-57.8	4.4	8.33e-01	0	51	0	0	59	17737
2026-01-02 06:17:47.44	255.97	6.97	-43.9	-58.3	4.2	8.27e-01	0	51	0	0	59	18860
2026-01-02 06:17:48.45	255.84	7.04	-43.9	-59.2	4.0	8.27e-01	0	51	0	0	59	20962
2026-01-02 06:17:49.46	255.70	7.12	-43.9	-61.1	3.8	8.38e-01	0	51	104	0	59	26079
2026-01-02 06:17:50.47	255.56	7.20	-44.0	-61.5	3.8	8.46e-01	0	52	104	0	59	27321
2026-01-02 06:17:51.48	255.43	7.28	-43.8	-57.4	4.5	8.43e-01	0	51	0	0	59	16962
2026-01-02 06:17:52.49	255.29	7.36	-43.4	-52.8	7.9	8.43e-01	0	51	0	524288	58	10591
2026-01-02 06:17:53.50	255.15	7.43	-42.5	-48.9	11.9	3.16e-01	0	52	0	1572864	57	7147
2026-01-02 06:17:54.51	255.01	7.51	-41.3	-45.7	15.1	1.55e-03	0	52	0	2621440	54	5874
2026-01-02 06:17:55.53	254.86	7.59	-40.1	-43.4	17.5	1.55e-03	0	52	0	3670016	52	5084
2026-01-02 06:17:56.54	254.72	7.67	-39.3	-42.2	18.8	0.00e+00	0	52	0	5242880	50	4943
2026-01-02 06:17:57.55	254.58	7.75	-38.6	-41.2	19.8	0.00e+00	0	52	0	6291456	49	4689
2026-01-02 06:17:58.56	254.43	7.83	-38.2	-40.6	20.5	0.00e+00	0	52	0	7340032	48	4612
2026-01-02 06:17:59.57	254.28	7.91	-38.1	-40.5	20.5	0.00e+00	0	52	0	8388608	48	4576
2026-01-02 06:18:00.58	254.14	7.99	-38.3	-40.8	20.3	0.00e+00	0	52	0	9437184	48	4720
2026-01-02 06:18:01.59	253.99	8.07	-38.6	-41.1	20.1	0.00e+00	0	52	0	10485760	48	4913
2026-01-02 06:18:02.60	253.84	8.15	-37.4	-39.6	21.3	0.00e+00	0	52	0	12058624	46	4627
2026-01-02 06:18:03.61	253.69	8.23	-40.0	-43.2	19.2	0.00e+00	0	52	0	13107200	50	5574
2026-01-02 06:18:04.62	253.53	8.31	-39.1	-41.8	18.5	2.37e-02	0	52	0	14155776	50	4744
2026-01-02 06:18:05.63	253.38	8.40	-37.7	-39.9	21.4	2.37e-02	0	52	0	15204352	46	4798
2026-01-02 06:18:06.64	253.23	8.48	-38.1	-40.4	20.4	0.00e+00	0	52	0	16252928	48	4541
2026-01-02 06:18:07.65	253.07	8.56	-37.0	-39.1	22.0	0.00e+00	0	52	0	17301504	45	4604
2026-01-02 06:18:08.65	252.91	8.64	-37.1	-39.2	21.8	0.00e+00	0	52	0	18350080	45	4699
2026-01-02 06:18:09.66	252.76	8.72	-37.2	-39.3	21.7	0.00e+00	0	52	0	19922944	45	4718
2026-01-02 06:18:10.67	252.60	8.81	-37.1	-39.2	21.9	0.00e+00	0	52	0	20971520	45	4661
2026-01-02 06:18:11.68	252.44	8.89	-37.1	-39.2	21.8	0.00e+00	0	52	0	22020096	45	4685
2026-01-02 06:18:12.69	252.27	8.97	-37.3	-39.4	21.7	0.00e+00	0	52	0	23068672	45	4780
2026-01-02 06:18:13.70	252.11	9.06	-37.1	-39.1	21.9	0.00e+00	0	52	0	24117248	45	4631
2026-01-02 06:18:14.71	251.95	9.14	-36.9	-38.9	22.1	0.00e+00	0	52	0	25690112	45	4536
2026-01-02 06:18:15.72	251.78	9.22	-36.9	-38.9	22.2	0.00e+00	0	52	0	26738688	45	4504
2026-01-02 06:18:16.73	251.61	9.31	-36.6	-38.5	22.6	0.00e+00	0	52	0	27787264	45	4310
2026-01-02 06:18:17.74	251.45	9.39	-36.5	-38.4	22.7	0.00e+00	0	52	0	28835840	44	4495
2026-01-02 06:18:18.75	251.28	9.48	-36.5	-38.5	22.6	0.00e+00	0	52	0	29884416	44	4557
2026-01-02 06:18:19.76	251.10	9.56	-36.6	-38.5	22.6	0.00e+00	0	52	0	30932992	44	4582
2026-01-02 06:18:20.77	250.93	9.65	-36.6	-38.5	22.5	0.00e+00	0	52	0	32505856	44	4598
2026-01-02 06:18:21.78	250.76	9.73	-36.5	-38.4	22.7	0.00e+00	0	52	0	33554432	44	4533
2026-01-02 06:18:22.79	250.58	9.82	-36.5	-38.4	22.7	0.00e+00	0	52	0	34603008	44	4517
2026-01-02 06:18:23.80	250.41	9.90	-36.8	-38.7	22.4	0.00e+00	0	53	0	35651584	44	4685
2026-01-02 06:18:24.80	250.23	9.99	-36.8	-38.8	22.4	0.00e+00	0	53	0	36700160	44	4706
2026-01-02 06:18:25.81	250.05	10.08	-36.8	-38.7	22.3	0.00e+00	0	52	0	37748736	44	4703
2026-01-02 06:18:26.82	249.87	10.16	-36.8	-38.8	22.4	0.00e+00	0	53	0	39321600	44	4710
2026-01-02 06:18:27.83	249.69	10.25	-36.6	-38.5	22.6	0.00e+00	0	52	0	40370176	44	4596
2026-01-02 06:18:28.84	249.50	10.34	-36.8	-38.8	22.4	0.00e+00	0	53	0	41418752	44	4720
2026-01-02 06:18:29.85	249.32	10.42	-36.8	-38.7	22.4	0.00e+00	0	53	0	42467328	44	4690
2026-01-02 06:18:30.86	249.13	10.51	-36.8	-38.7	22.4	0.00e+00	0	53	0	43515904	44	4705
2026-01-02 06:18:31.87	248.94	10.60	-36.8	-38.7	22.4	0.00e+00	0	53	0	44564480	44	4695
2026-01-02 06:18:32.88	248.75	10.69	-36.8	-38.7	22.5	0.00e+00	0	53	0	46137344	44	4687
2026-01-02 06:18:33.89	248.56	10.77	-36.9	-39.0	22.2	0.00e+00	0	53	0	47185920	44	4819
2026-01-02 06:18:34.90	248.37	10.86	-37.1	-39.1	22.0	0.00e+00	0	53	0	48234496	44	4896
2026-01-02 06:18:35.91	248.17	10.95	-36.9	-38.9	22.3	0.00e+00	0	53	0	49283072	44	4766
2026-01-02 06:18:36.92	247.98	11.04	-36.7	-38.7	22.5	0.00e+00	0	53	0	50331648	44	4658
2026-01-02 06:18:37.93	247.78	11.13	-36.5	-38.4	22.8	0.00e+00	0	53	0	51380224	44	4519
2026-01-02 06:18:38.94	247.58	11.22	-36.4	-38.3	22.9	0.00e+00	0	53	0	52953088	44	4454
2026-01-02 06:18:39.95	247.38	11.31	-36.4	-38.3	22.9	0.00e+00	0	53	0	54001664	44	4451
2026-01-02 06:18:40.95	247.18	11.40	-36.5	-38.4	22.8	0.00e+00	0	53	0	55050240	44	4524
2026-01-02 06:18:41.97	246.97	11.49	-36.5	-38.4	22.9	0.00e+00	0	53	0	56098816	44	4504
2026-01-02 06:18:42.97	246.77	11.58	-36.5	-38.4	22.8	0.00e+00	0	53	0	57147392	44	4512
2026-01-02 06:18:43.98	246.56	11.67	-36.4	-38.2	23.0	0.00e+00	0	53	0	58195968	44	4429
2026-01-02 06:18:44.99	246.35	11.76	-36.5	-38.4	22.8	0.00e+00	0	53	0	59244544	44	4512
2026-01-02 06:18:46.00	246.14	11.85	-36.1	-37.9	23.3	0.00e+00	0	53	0	60817408	44	4284
2026-01-02 06:18:47.01	245.93	11.94	-35.8	-37.5	23.5	0.00e+00	0	53	0	61865984	43	4340
2026-01-02 06:18:48.02	245.72	12.03	-35.7	-37.4	23.6	0.00e+00	0	53	0	62914560	43	4286
2026-01-02 06:18:49.03	245.50	12.12	-35.7	-37.5	23.5	0.00e+00	0	53	0	63963136	43	4302
2026-01-02 06:18:50.04	245.28	12.21	-36.0	-37.7	23.2	0.00e+00	0	53	0	65011712	43	4436
2026-01-02 06:18:51.05	245.06	12.31	-36.0	-37.8	23.2	0.00e+00	0	53	0	66060288	43	4470
2026-01-02 06:18:52.06	244.84	12.40	-36.0	-37.8	23.2	0.00e+00	0	53	0	67633152	43	4467
2026-01-02 06:18:53.07	244.62	12.49	-36.1	-37.9	23.2	0.00e+00	0	53	0	68681728	43	4519
2026-01-02 06:18:54.08	244.39	12.58	-36.0	-37.8	23.3	0.00e+00	0	53	0	69730304	43	4467
2026-01-02 06:18:55.09	244.16	12.67	-35.7	-37.4	23.6	0.00e+00	0	53	0	70778880	43	4285
2026-01-02 06:18:56.10	243.94	12.77	-35.6	-37.3	23.7	0.00e+00	0	53	0	71827456	43	4214
2026-01-02 06:18:57.11	243.70	12.86	-35.3	-37.0	24.1	0.00e+00	0	53	0	73400320	42	4322
2026-01-02 06:18:58.12	243.47	12.95	-35.2	-36.9	24.2	0.00e+00	0	53	0	74448896	42	4245
2026-01-02 06:18:59.13	243.24	13.04	-35.3	-36.9	24.1	0.00e+00	0	53	0	75497472	42	4280
2026-01-02 06:19:00.14	243.00	13.14	-35.4	-37.1	24.0	0.00e+00	0	53	0	76546048	42	4361
2026-01-02 06:19:01.15	242.76	13.23	-35.5	-37.2	23.9	0.00e+00	0	53	0	77594624	42	4398
2026-01-02 06:19:02.16	242.52	13.32	-35.6	-37.3	23.8	0.00e+00	0	53	0	78643200	42	4488
2026-01-02 06:19:03.17	242.28	13.42	-35.7	-37.4	23.7	0.00e+00	0	53	0	80216064	42	4543
2026-01-02 06:19:04.18	242.03	13.51	-35.5	-37.2	23.9	0.00e+00	0	53	0	81264640	42	4440
2026-01-02 06:19:05.19	241.79	13.60	-35.4	-37.1	24.0	0.00e+00	0	53	0	82313216	42	4365
2026-01-02 06:19:06.20	241.54	13.70	-35.3	-36.9	24.2	0.00e+00	0	53	0	83361792	42	4276
2026-01-02 06:19:07.21	241.29	13.79	-35.3	-37.0	24.1	0.00e+00	0	53	0	84410368	42	4316
2026-01-02 06:19:08.21	241.04	13.88	-35.4	-37.1	24.1	0.00e+00	0	53	0	85458944	42	4350
2026-01-02 06:19:09.22	240.78	13.98	-35.3	-37.0	24.2	0.00e+00	0	54	0	87031808	42	4293
2026-01-02 06:19:10.23	240.53	14.07	-35.3	-37.0	24.1	0.00e+00	0	53	0	88080384	42	4329
2026-01-02 06:19:11.24	240.27	14.17	-35.4	-37.1	24.0	0.00e+00	0	54	0	89128960	42	4379
2026-01-02 06:19:12.25	240.01	14.26	-35.5	-37.2	23.9	0.00e+00	0	54	0	90177536	42	4414
2026-01-02 06:19:13.26	239.74	14.35	-35.5	-37.2	23.9	0.00e+00	0	53	0	91226112	42	4419
2026-01-02 06:19:14.27	239.48	14.45	-35.3	-37.0	24.1	0.00e+00	0	53	0	92274688	42	4313
2026-01-02 06:19:15.28	239.21	14.54	-35.2	-36.9	24.2	0.00e+00	0	54	0	93847552	42	4262
2026-01-02 06:19:16.29	238.94	14.64	-35.0	-36.7	24.5	0.00e+00	0	54	0	94896128	42	4156
2026-01-02 06:19:17.30	238.67	14.73	-34.9	-36.5	24.6	0.00e+00	0	54	0	95944704	41	4300
2026-01-02 06:19:18.32	238.39	14.83	-34.7	-36.3	24.8	0.00e+00	0	54	0	96993280	41	4205
2026-01-02 06:19:19.32	238.12	14.92	-35.0	-36.6	24.4	0.00e+00	0	54	0	98041856	41	4388
2026-01-02 06:19:20.33	237.84	15.01	-35.0	-36.6	24.4	0.00e+00	0	54	0	99090432	41	4390
2026-01-02 06:19:21.34	237.56	15.11	-35.0	-36.6	24.5	0.00e+00	0	54	0	100139008	41	4375
2026-01-02 06:19:22.35	237.28	15.20	-34.7	-36.3	24.7	0.00e+00	0	54	0	101711872	41	4236
2026-01-02 06:19:23.36	236.99	15.30	-34.6	-36.1	25.0	0.00e+00	0	54	0	102760448	41	4136
2026-01-02 06:19:24.37	236.70	15.39	-34.3	-35.8	25.2	0.00e+00	0	54	0	103809024	40	4222
2026-01-02 06:19:25.38	236.41	15.48	-34.2	-35.7	25.4	0.00e+00	0	54	0	104857600	40	4184
2026-01-02 06:19:26.39	236.12	15.58	-34.6	-36.2	25.0	0.00e+00	0	54	0	105906176	40	4412
2026-01-02 06:19:27.40	235.83	15.67	-34.5	-36.1	25.0	0.00e+00	0	54	0	106954752	40	4371
2026-01-02 06:19:28.41	235.53	15.77	-34.9	-36.5	24.6	0.00e+00	0	54	0	108527616	40	4568
2026-01-02 06:19:29.42	235.23	15.86	-34.9	-36.5	24.6	0.00e+00	0	54	0	109576192	40	4563
2026-01-02 06:19:30.43	234.93	15.95	-34.8	-36.4	24.7	0.00e+00	0	54	0	110624768	40	4540
2026-01-02 06:19:31.44	234.63	16.05	-34.6	-36.2	25.0	0.00e+00	0	54	0	111673344	40	4399
2026-01-02 06:19:32.45	234.32	16.14	-34.6	-36.1	25.0	0.00e+00	0	54	0	112721920	40	4383
2026-01-02 06:19:33.45	234.01	16.23	-34.4	-35.9	25.2	0.00e+00	0	54	0	113770496	40	4265
2026-01-02 06:19:34.46	233.70	16.32	-34.3	-35.9	25.3	0.00e+00	0	54	0	115343360	40	4251
2026-01-02 06:19:35.47	233.39	16.42	-34.4	-35.9	25.2	0.00e+00	0	54	0	116391936	40	4286
2026-01-02 06:19:36.48	233.07	16.51	-34.2	-35.7	25.4	0.00e+00	0	54	0	117440512	40	4171
2026-01-02 06:19:37.49	232.76	16.60	-34.1	-35.6	25.6	0.00e+00	0	54	0	118489088	40	4131
2026-01-02 06:19:38.50	232.43	16.69	-34.1	-35.6	25.5	0.00e+00	0	54	0	119537664	40	4117
2026-01-02 06:19:39.51	232.11	16.78	-34.0	-35.5	25.6	0.00e+00	0	54	0	121110528	39	4332
2026-01-02 06:19:40.52	231.79	16.87	-34.2	-35.7	25.5	0.00e+00	0	54	0	122159104	39	4430
2026-01-02 06:19:41.53	231.46	16.96	-34.1	-35.6	25.6	0.00e+00	0	54	0	123207680	39	4382
2026-01-02 06:19:42.54	231.13	17.05	-34.0	-35.5	25.7	0.00e+00	0	54	0	124256256	39	4300
2026-01-02 06:19:43.55	230.79	17.14	-34.0	-35.5	25.7	0.00e+00	0	54	0	125304832	39	4322
2026-01-02 06:19:44.56	230.46	17.23	-33.8	-35.3	25.9	0.00e+00	0	54	0	126353408	39	4215
2026-01-02 06:19:45.57	230.12	17.32	-34.0	-35.5	25.8	0.00e+00	0	54	0	127926272	39	4298
2026-01-02 06:19:46.59	229.78	17.41	-34.0	-35.5	25.7	0.00e+00	0	54	0	128974848	39	4323
2026-01-02 06:19:47.60	229.43	17.50	-34.2	-35.7	25.6	0.00e+00	0	54	0	130023424	39	4418
2026-01-02 06:19:48.61	229.09	17.59	-34.3	-35.8	25.4	0.00e+00	0	54	0	131072000	39	4479
2026-01-02 06:19:49.61	228.74	17.68	-34.4	-35.9	25.3	0.00e+00	0	54	0	132120576	39	4532
2026-01-02 06:19:50.62	228.39	17.76	-34.4	-36.0	25.3	0.00e+00	0	54	0	133169152	39	4555
2026-01-02 06:19:51.63	228.04	17.85	-34.2	-35.8	25.5	0.00e+00	0	54	0	134742016	39	4444
2026-01-02 06:19:52.64	227.68	17.94	-34.1	-35.6	25.6	0.00e+00	0	54	0	135790592	39	4385
2026-01-02 06:19:53.65	227.33	18.02	-33.8	-35.3	25.9	0.00e+00	0	54	0	136839168	39	4207
2026-01-02 06:19:54.66	226.97	18.11	-33.8	-35.3	25.9	0.00e+00	0	54	0	137887744	39	4214
2026-01-02 06:19:55.67	226.60	18.19	-33.6	-35.0	26.2	0.00e+00	0	54	0	138936320	39	4086
2026-01-02 06:19:56.68	226.24	18.28	-33.8	-35.2	26.0	0.00e+00	0	54	0	139984896	39	4184
2026-01-02 06:19:57.69	225.87	18.36	-33.8	-35.2	26.0	0.00e+00	0	54	0	141033472	39	4189
2026-01-02 06:19:58.70	225.50	18.44	-33.9	-35.4	25.9	0.00e+00	0	54	0	142606336	39	4270
2026-01-02 06:19:59.71	225.13	18.52	-33.5	-34.9	26.2	0.00e+00	0	54	0	143654912	38	4245
2026-01-02 06:20:00.72	224.75	18.61	-33.5	-35.0	26.1	0.00e+00	0	54	0	144703488	38	4293
2026-01-02 06:20:01.73	224.37	18.69	-33.3	-34.7	26.4	0.00e+00	0	54	0	145752064	38	4165
2026-01-02 06:20:02.74	223.99	18.77	-33.4	-34.8	26.5	0.00e+00	0	54	0	146800640	38	4198
2026-01-02 06:20:03.75	223.61	18.84	-33.2	-34.6	26.6	0.00e+00	0	54	0	147849216	38	4127
2026-01-02 06:20:04.76	223.22	18.92	-33.3	-34.7	26.5	0.00e+00	0	54	0	149422080	38	4191
2026-01-02 06:20:05.77	222.84	19.00	-33.2	-34.6	26.6	0.00e+00	0	54	0	150470656	38	4136
2026-01-02 06:20:06.78	222.45	19.08	-33.6	-35.0	26.2	0.00e+00	0	54	0	151519232	38	4328
2026-01-02 06:20:07.78	222.06	19.15	-33.6	-35.0	26.3	0.00e+00	0	55	0	152567808	38	4311
2026-01-02 06:20:08.79	221.66	19.23	-33.8	-35.2	26.1	0.00e+00	0	54	0	153616384	38	4432
2026-01-02 06:20:09.80	221.27	19.30	-33.4	-34.9	26.4	0.00e+00	0	54	0	154664960	38	4249
2026-01-02 06:20:10.81	220.87	19.37	-33.3	-34.7	26.6	0.00e+00	0	54	0	156237824	38	4178
2026-01-02 06:20:11.82	220.47	19.45	-33.4	-34.8	26.5	0.00e+00	0	54	0	157286400	38	4213
2026-01-02 06:20:12.83	220.06	19.52	-33.6	-35.0	26.3	0.00e+00	0	54	0	158334976	38	4330
2026-01-02 06:20:13.84	219.65	19.59	-33.4	-34.9	26.4	0.00e+00	0	54	0	159383552	38	4254
2026-01-02 06:20:14.85	219.25	19.66	-33.4	-34.8	26.4	0.00e+00	0	54	0	160432128	38	4229
2026-01-02 06:20:15.86	218.84	19.73	-33.5	-34.9	26.4	0.00e+00	0	54	0	162004992	38	4256
2026-01-02 06:20:16.87	218.42	19.79	-33.6	-35.1	26.2	0.00e+00	0	54	0	163053568	38	4351
2026-01-02 06:20:17.88	218.01	19.86	-33.5	-34.9	26.3	0.00e+00	0	54	0	164102144	38	4276
2026-01-02 06:20:18.89	217.59	19.92	-33.3	-34.7	26.6	0.00e+00	0	54	0	165150720	38	4149
2026-01-02 06:20:19.90	217.17	19.99	-33.1	-34.5	26.7	0.00e+00	0	54	0	166199296	38	4071
2026-01-02 06:20:20.91	216.75	20.05	-33.2	-34.7	26.6	0.00e+00	0	54	0	167247872	38	4148
2026-01-02 06:20:21.92	216.33	20.11	-33.1	-34.5	26.7	0.00e+00	0	54	0	168820736	38	4095
2026-01-02 06:20:22.93	215.90	20.17	-33.0	-34.4	26.9	0.00e+00	0	54	0	169869312	38	4018
2026-01-02 06:20:23.93	215.48	20.23	-33.1	-34.5	26.8	0.00e+00	0	54	0	170917888	38	4056
2026-01-02 06:20:24.94	215.05	20.29	-33.2	-34.6	26.7	0.00e+00	0	54	0	171966464	38	4104
2026-01-02 06:20:25.95	214.62	20.34	-33.2	-34.6	26.6	0.00e+00	0	54	0	173015040	38	4120
2026-01-02 06:20:26.96	214.18	20.40	-32.9	-34.2	26.9	0.00e+00	0	55	0	174063616	37	4189
2026-01-02 06:20:27.97	213.75	20.45	-33.0	-34.4	26.8	0.00e+00	0	55	0	175636480	37	4271
2026-01-02 06:20:28.98	213.31	20.51	-33.3	-34.7	26.6	0.00e+00	0	54	0	176685056	37	4415
2026-01-02 06:20:29.99	212.87	20.56	-33.3	-34.8	26.4	0.00e+00	0	55	0	177733632	37	4449
2026-01-02 06:20:31.00	212.43	20.61	-33.4	-34.8	26.1	0.00e+00	0	54	0	178782208	37	4488
2026-01-02 06:20:32.01	211.99	20.66	-33.6	-35.0	26.2	0.00e+00	0	54	0	179830784	37	4564
2026-01-02 06:20:33.02	211.54	20.70	-33.6	-35.0	26.2	0.00e+00	0	54	0	180879360	37	4587
2026-01-02 06:20:34.03	211.10	20.75	-33.4	-34.8	26.5	0.00e+00	0	55	0	181927936	37	4465
2026-01-02 06:20:35.03	210.66	20.79	-33.4	-34.8	26.5	0.00e+00	0	54	0	183500800	37	4459
2026-01-02 06:20:36.04	210.21	20.84	-33.1	-34.5	26.6	0.00e+00	0	54	0	184549376	37	4334
2026-01-02 06:20:37.05	209.76	20.88	-32.9	-34.2	27.0	0.00e+00	0	55	0	185597952	37	4189
2026-01-02 06:20:38.06	209.31	20.92	-32.9	-34.3	26.9	0.00e+00	0	55	0	186646528	37	4226
2026-01-02 06:20:39.07	208.85	20.95	-33.2	-34.6	26.6	0.00e+00	0	55	0	187695104	37	4383
2026-01-02 06:20:40.08	208.40	20.99	-33.4	-34.8	26.5	0.00e+00	0	55	0	188743680	37	4484
2026-01-02 06:20:41.09	207.94	21.03	-33.4	-34.8	26.5	0.00e+00	0	55	0	190316544	37	4457
2026-01-02 06:20:42.10	207.49	21.06	-33.2	-34.6	26.6	0.00e+00	0	55	0	191365120	37	4367
2026-01-02 06:20:43.11	207.03	21.09	-33.2	-34.6	26.7	0.00e+00	0	54	0	192413696	37	4344
2026-01-02 06:20:44.12	206.57	21.12	-33.0	-34.4	26.8	0.00e+00	0	55	0	193462272	37	4265
2026-01-02 06:20:45.13	206.11	21.15	-33.2	-34.6	26.7	0.00e+00	0	55	0	194510848	37	4352
2026-01-02 06:20:46.14	205.65	21.18	-33.1	-34.5	26.8	0.00e+00	0	55	0	195559424	37	4297
2026-01-02 06:20:47.15	205.19	21.20	-33.1	-34.4	26.8	0.00e+00	0	55	0	197132288	37	4291
2026-01-02 06:20:48.16	204.72	21.23	-32.9	-34.3	26.9	0.00e+00	0	55	0	198180864	37	4227
2026-01-02 06:20:49.17	204.26	21.25	-33.0	-34.4	26.8	0.00e+00	0	55	0	199229440	37	4281
2026-01-02 06:20:50.18	203.80	21.27	-33.0	-34.4	26.8	0.00e+00	0	55	0	200278016	37	4255
2026-01-02 06:20:51.19	203.33	21.29	-32.6	-34.0	27.2	0.00e+00	0	55	0	201326592	37	4056
2026-01-02 06:20:52.20	202.86	21.31	-32.8	-34.1	27.1	0.00e+00	0	55	0	202375168	37	4142
2026-01-02 06:20:53.21	202.40	21.32	-33.0	-34.4	26.9	0.00e+00	0	55	0	203948032	37	4243
2026-01-02 06:20:54.22	201.93	21.33	-32.8	-34.1	27.1	0.00e+00	0	55	0	204996608	37	4135
2026-01-02 06:20:55.23	201.46	21.35	-32.7	-34.1	27.2	0.00e+00	0	55	0	206045184	37	4113
2026-01-02 06:20:56.25	200.99	21.36	-32.7	-34.1	27.1	0.00e+00	0	55	0	207093760	37	4118
2026-01-02 06:20:57.25	200.53	21.36	-32.6	-34.0	27.2	0.00e+00	0	55	0	208142336	37	4063
2026-01-02 06:20:58.26	200.06	21.37	-32.6	-34.0	27.2	0.00e+00	0	55	0	209715200	37	4066
2026-01-02 06:20:59.27	199.59	21.38	-32.7	-34.1	27.1	0.00e+00	0	55	0	210763776	37	4107
2026-01-02 06:21:00.28	199.12	21.38	-32.9	-34.3	27.0	0.00e+00	0	55	0	211812352	37	4200
2026-01-02 06:21:01.29	198.65	21.38	-32.8	-34.1	27.0	0.00e+00	0	55	0	212860928	37	4145
2026-01-02 06:21:02.30	198.19	21.38	-32.9	-34.2	27.0	0.00e+00	0	55	0	213909504	37	4183
2026-01-02 06:21:03.31	197.72	21.38	-32.8	-34.2	27.0	0.00e+00	0	55	0	214958080	37	4148
2026-01-02 06:21:04.32	197.25	21.38	-32.8	-34.2	27.1	0.00e+00	0	55	0	216530944	37	4151
2026-01-02 06:21:05.33	196.78	21.37	-33.0	-34.4	26.9	0.00e+00	0	55	0	217579520	37	4260
2026-01-02 06:21:06.34	196.31	21.36	-33.1	-34.5	26.8	0.00e+00	0	55	0	218628096	37	4317
2026-01-02 06:21:07.35	195.84	21.35	-33.2	-34.6	26.7	0.00e+00	0	55	0	219676672	37	4356
2026-01-02 06:21:08.36	195.37	21.34	-32.9	-34.3	26.9	0.00e+00	0	55	0	220725248	37	4212
2026-01-02 06:21:09.37	194.91	21.33	-33.1	-34.4	26.8	0.00e+00	0	55	0	221773824	37	4291
2026-01-02 06:21:10.38	194.44	21.32	-33.0	-34.4	26.8	0.00e+00	0	55	0	222822400	37	4271
2026-01-02 06:21:11.39	193.97	21.30	-32.9	-34.3	26.9	0.00e+00	0	55	0	224395264	37	4203
2026-01-02 06:21:12.40	193.51	21.28	-32.8	-34.2	27.0	0.00e+00	0	55	0	225443840	37	4164
2026-01-02 06:21:13.41	193.04	21.26	-32.8	-34.1	27.0	0.00e+00	0	55	0	226492416	37	4141
2026-01-02 06:21:14.42	192.58	21.24	-32.6	-33.9	27.2	0.00e+00	0	55	0	227540992	37	4048
2026-01-02 06:21:15.43	192.12	21.22	-32.6	-33.9	27.3	0.00e+00	0	55	0	228589568	37	4031
2026-01-02 06:21:16.44	191.65	21.20	-32.8	-34.1	27.1	0.00e+00	0	55	0	229638144	37	4142
2026-01-02 06:21:17.45	191.19	21.17	-32.8	-34.2	27.0	0.00e+00	0	55	0	231211008	37	4167
2026-01-02 06:21:18.46	190.73	21.14	-32.9	-34.2	27.0	0.00e+00	0	55	0	232259584	37	4191
2026-01-02 06:21:19.47	190.27	21.11	-32.8	-34.2	27.0	0.00e+00	0	55	0	233308160	37	4161
2026-01-02 06:21:20.48	189.81	21.08	-32.7	-34.1	27.1	0.00e+00	0	55	0	234356736	37	4125
2026-01-02 06:21:21.49	189.35	21.05	-32.8	-34.2	27.0	0.00e+00	0	55	0	235405312	37	4176
2026-01-02 06:21:22.50	188.90	21.02	-32.9	-34.3	26.9	0.00e+00	0	55	0	236453888	37	4228
2026-01-02 06:21:23.51	188.44	20.98	-33.0	-34.4	26.8	0.00e+00	0	55	0	238026752	37	4250
2026-01-02 06:21:24.52	187.99	20.94	-33.0	-34.4	26.7	0.00e+00	0	55	0	239075328	37	4277
2026-01-02 06:21:25.53	187.54	20.90	-33.1	-34.5	26.7	0.00e+00	0	55	0	240123904	37	4320
2026-01-02 06:21:26.54	187.08	20.86	-33.2	-34.6	26.6	0.00e+00	0	55	0	241172480	37	4357
2026-01-02 06:21:27.55	186.63	20.82	-33.2	-34.6	26.7	0.00e+00	0	55	0	242221056	37	4342
2026-01-02 06:21:28.56	186.19	20.78	-33.0	-34.4	26.8	0.00e+00	0	55	0	243793920	37	4261
2026-01-02 06:21:29.57	185.74	20.73	-32.9	-34.3	26.9	0.00e+00	0	55	0	244842496	37	4222
2026-01-02 06:21:30.58	185.29	20.69	-33.1	-34.5	26.7	0.00e+00	0	55	0	245891072	37	4297
2026-01-02 06:21:31.59	184.85	20.64	-33.2	-34.7	26.6	0.00e+00	0	55	0	246939648	37	4397
2026-01-02 06:21:32.60	184.41	20.59	-33.2	-34.7	26.6	0.00e+00	0	55	0	247988224	37	4393
2026-01-02 06:21:33.61	183.97	20.54	-33.3	-34.7	26.6	0.00e+00	0	55	0	249036800	37	4407
2026-01-02 06:21:34.62	183.53	20.49	-33.2	-34.6	26.6	0.00e+00	0	55	0	250609664	37	4378
2026-01-02 06:21:35.63	183.09	20.44	-33.2	-34.6	26.6	0.00e+00	0	55	0	251658240	37	4367
2026-01-02 06:21:36.64	182.66	20.38	-33.2	-34.6	26.5	0.00e+00	0	55	0	252706816	37	4384
2026-01-02 06:21:37.65	182.22	20.33	-33.0	-34.4	26.8	0.00e+00	0	55	0	253755392	37	4243
2026-01-02 06:21:38.66	181.79	20.27	-33.0	-34.4	26.7	0.00e+00	0	55	0	254803968	37	4280
2026-01-02 06:21:39.67	181.36	20.21	-33.0	-34.4	26.8	0.00e+00	0	55	0	255852544	37	4247
2026-01-02 06:21:40.68	180.94	20.15	-33.1	-34.5	26.7	0.00e+00	0	55	0	257425408	37	4294
2026-01-02 06:21:41.69	180.51	20.09	-33.0	-34.4	26.7	0.00e+00	0	55	0	258473984	37	4273
2026-01-02 06:21:42.70	180.09	20.03	-33.4	-34.8	26.4	0.00e+00	0	55	0	259522560	37	4462
2026-01-02 06:21:43.71	179.67	19.97	-33.5	-34.9	26.3	0.00e+00	0	55	0	260571136	37	4531
2026-01-02 06:21:44.72	179.25	19.90	-33.3	-34.7	26.5	0.00e+00	0	55	0	261619712	37	4412
2026-01-02 06:21:45.73	178.83	19.84	-33.1	-34.6	26.6	0.00e+00	0	55	0	262668288	37	4341
2026-01-02 06:21:46.74	178.42	19.77	-32.9	-34.3	26.8	0.00e+00	0	55	0	263716864	37	4208
2026-01-02 06:21:47.75	178.00	19.70	-33.2	-34.6	26.6	0.00e+00	0	55	0	265289728	37	4358
2026-01-02 06:21:48.76	177.59	19.63	-33.6	-35.0	26.2	0.00e+00	0	55	0	266338304	37	4573
2026-01-02 06:21:49.77	177.19	19.56	-33.6	-35.1	26.1	0.00e+00	0	55	0	267386880	37	4612
2026-01-02 06:21:50.78	176.78	19.49	-33.9	-35.4	25.9	0.00e+00	0	55	0	268435456	38	4498
2026-01-02 06:21:51.79	176.38	19.42	-33.8	-35.2	26.0	0.00e+00	0	55	0	269484032	38	4431
2026-01-02 06:21:52.80	175.97	19.35	-33.8	-35.2	26.0	0.00e+00	0	55	0	270532608	38	4425
2026-01-02 06:21:53.81	175.58	19.28	-33.5	-35.0	26.2	0.00e+00	0	55	0	272105472	38	4300
2026-01-02 06:21:54.81	175.18	19.20	-33.4	-34.8	26.4	0.00e+00	0	55	0	273154048	38	4204
2026-01-02 06:21:55.82	174.79	19.13	-33.6	-35.0	26.2	0.00e+00	0	55	0	274202624	38	4337
2026-01-02 06:21:56.83	174.40	19.05	-33.6	-35.1	26.2	0.00e+00	0	55	0	275251200	38	4354
2026-01-02 06:21:57.84	174.01	18.97	-33.7	-35.1	26.1	0.00e+00	0	55	0	276299776	38	4373
2026-01-02 06:21:58.85	173.62	18.90	-33.8	-35.2	26.3	0.00e+00	0	55	0	277348352	38	4437
2026-01-02 06:21:59.86	173.24	18.82	-33.8	-35.2	26.1	0.00e+00	0	55	0	278921216	38	4414
2026-01-02 06:22:00.87	172.85	18.74	-34.0	-35.5	25.8	0.00e+00	0	55	0	279969792	38	4585
2026-01-02 06:22:01.88	172.47	18.66	-34.2	-35.7	25.6	0.00e+00	0	55	0	281018368	39	4413
2026-01-02 06:22:02.89	172.10	18.58	-34.1	-35.6	25.7	0.00e+00	0	55	0	282066944	39	4362
2026-01-02 06:22:03.90	171.72	18.50	-33.7	-35.1	26.1	0.00e+00	0	55	0	283115520	39	4117
2026-01-02 06:22:04.91	171.35	18.41	-33.4	-34.8	26.4	0.00e+00	0	55	0	284688384	38	4219
2026-01-02 06:22:05.92	170.98	18.33	-33.3	-34.8	26.5	0.00e+00	0	55	0	285736960	38	4203
2026-01-02 06:22:06.93	170.61	18.25	-33.4	-34.8	26.4	0.00e+00	0	55	0	286785536	38	4230
2026-01-02 06:22:07.94	170.25	18.16	-33.5	-34.9	26.3	0.00e+00	0	55	0	287834112	37	4535
2026-01-02 06:22:08.95	169.88	18.08	-33.9	-35.4	25.9	0.00e+00	0	55	0	288882688	38	4511
2026-01-02 06:22:09.96	169.52	17.99	-34.2	-35.7	25.6	0.00e+00	0	56	0	289931264	38	4700
2026-01-02 06:22:10.97	169.16	17.91	-34.4	-35.9	25.4	0.00e+00	0	55	0	291504128	39	4528
2026-01-02 06:22:11.98	168.81	17.82	-34.6	-36.2	25.2	0.00e+00	0	55	0	292552704	39	4670
2026-01-02 06:22:12.99	168.46	17.73	-34.7	-36.2	25.1	0.00e+00	0	55	0	293601280	40	4433
2026-01-02 06:22:14.00	168.11	17.65	-34.7	-36.3	25.0	0.00e+00	0	55	0	294649856	40	4486
2026-01-02 06:22:15.01	167.76	17.56	-34.6	-36.1	25.2	0.00e+00	0	55	0	295698432	40	4386
2026-01-02 06:22:16.02	167.41	17.47	-34.4	-35.9	25.4	0.00e+00	0	55	0	296747008	40	4270
2026-01-02 06:22:17.03	167.07	17.38	-34.1	-35.6	25.7	0.00e+00	0	55	0	298319872	40	4123
2026-01-02 06:22:18.04	166.73	17.29	-34.1	-35.6	25.7	0.00e+00	0	55	0	299368448	40	4104
2026-01-02 06:22:19.05	166.39	17.20	-34.1	-35.6	25.8	0.00e+00	0	55	0	300417024	40	4111
2026-01-02 06:22:20.06	166.06	17.11	-34.3	-35.8	25.6	0.00e+00	0	55	0	301465600	40	4218
2026-01-02 06:22:21.07	165.73	17.02	-34.5	-36.1	25.3	0.00e+00	0	55	0	302514176	40	4344
2026-01-02 06:22:22.08	165.40	16.93	-34.3	-35.8	25.5	0.00e+00	0	55	0	303562752	40	4224
2026-01-02 06:22:23.09	165.07	16.84	-34.3	-35.9	25.5	0.00e+00	0	55	0	304611328	40	4253
2026-01-02 06:22:24.09	164.75	16.75	-34.2	-35.8	25.5	0.00e+00	0	55	0	306184192	40	4197
2026-01-02 06:22:25.10	164.42	16.66	-34.2	-35.7	25.6	0.00e+00	0	56	0	307232768	40	4178
2026-01-02 06:22:26.11	164.10	16.57	-34.4	-35.9	25.4	0.00e+00	0	55	0	308281344	40	4272
2026-01-02 06:22:27.12	163.78	16.47	-34.4	-35.9	25.4	0.00e+00	0	55	0	309329920	40	4287
2026-01-02 06:22:28.13	163.47	16.38	-34.5	-36.0	25.3	0.00e+00	0	55	0	310378496	40	4338
2026-01-02 06:22:29.14	163.16	16.29	-34.6	-36.2	25.2	0.00e+00	0	55	0	311427072	40	4411
2026-01-02 06:22:30.15	162.84	16.20	-34.8	-36.4	24.8	0.00e+00	0	56	0	312999936	40	4530
2026-01-02 06:22:31.16	162.54	16.10	-34.7	-36.3	25.0	0.00e+00	0	55	0	314048512	40	4468
2026-01-02 06:22:32.17	162.23	16.01	-34.8	-36.4	25.0	0.00e+00	0	55	0	315097088	40	4506
2026-01-02 06:22:33.18	161.93	15.92	-34.7	-36.3	25.0	0.00e+00	0	55	0	316145664	40	4461
2026-01-02 06:22:34.19	161.63	15.82	-34.8	-36.4	24.9	0.00e+00	0	56	0	317194240	40	4508
2026-01-02 06:22:35.20	161.33	15.73	-35.0	-36.6	24.8	0.00e+00	0	55	0	318242816	40	4616
2026-01-02 06:22:36.20	161.03	15.64	-35.3	-37.0	24.4	0.00e+00	0	56	0	319815680	41	4568
2026-01-02 06:22:37.22	160.74	15.54	-35.3	-36.9	24.4	0.00e+00	0	55	0	320864256	41	4527
2026-01-02 06:22:38.23	160.44	15.45	-35.1	-36.7	24.6	0.00e+00	0	55	0	321912832	41	4430
2026-01-02 06:22:39.24	160.15	15.35	-34.9	-36.5	24.8	0.00e+00	0	56	0	322961408	41	4332
2026-01-02 06:22:40.24	159.87	15.26	-34.9	-36.6	24.7	0.00e+00	0	56	0	324009984	41	4348
2026-01-02 06:22:41.26	159.58	15.17	-34.8	-36.4	24.9	0.00e+00	0	55	0	325058560	41	4250
2026-01-02 06:22:42.27	159.30	15.07	-34.8	-36.3	24.9	0.00e+00	0	56	0	326631424	41	4239
2026-01-02 06:22:43.28	159.02	14.98	-34.8	-36.4	24.9	0.00e+00	0	55	0	327680000	41	4250
2026-01-02 06:22:44.29	158.74	14.88	-34.9	-36.5	24.7	0.00e+00	0	55	0	328728576	41	4337
2026-01-02 06:22:45.30	158.47	14.79	-35.1	-36.8	24.5	0.00e+00	0	55	0	329777152	41	4450
2026-01-02 06:22:46.31	158.19	14.69	-35.3	-37.0	24.3	0.00e+00	0	55	0	330825728	41	4573
2026-01-02 06:22:47.32	157.92	14.60	-35.1	-36.7	24.5	0.00e+00	0	55	0	332398592	41	4440
2026-01-02 06:22:48.33	157.65	14.51	-34.9	-36.6	24.7	0.00e+00	0	56	0	333447168	41	4341
2026-01-02 06:22:49.34	157.38	14.41	-34.8	-36.4	24.8	0.00e+00	0	56	0	334495744	41	4273
2026-01-02 06:22:50.35	157.12	14.32	-34.8	-36.5	24.7	0.00e+00	0	56	0	335544320	41	4294
2026-01-02 06:22:51.36	156.86	14.22	-35.0	-36.6	24.6	0.00e+00	0	55	0	336592896	41	4388
2026-01-02 06:22:52.36	156.60	14.13	-35.1	-36.7	24.5	0.00e+00	0	55	0	337641472	41	4418
2026-01-02 06:22:53.37	156.34	14.04	-35.2	-36.8	24.4	0.00e+00	0	56	0	338690048	41	4473
2026-01-02 06:22:54.38	156.08	13.94	-35.3	-37.0	24.2	0.00e+00	0	56	0	340262912	41	4547
2026-01-02 06:22:55.39	155.83	13.85	-35.4	-37.1	24.1	0.00e+00	0	55	0	341311488	41	4607
2026-01-02 06:22:56.40	155.58	13.75	-35.5	-37.2	23.9	0.00e+00	0	56	0	342360064	41	4700
2026-01-02 06:22:57.41	155.33	13.66	-35.8	-37.5	23.6	0.00e+00	0	55	0	343408640	42	4588
2026-01-02 06:22:58.42	155.08	13.57	-35.7	-37.5	23.7	0.00e+00	0	56	0	344457216	42	4548
2026-01-02 06:22:59.43	154.83	13.47	-35.8	-37.5	23.6	0.00e+00	0	56	0	345505792	42	4581
2026-01-02 06:23:00.44	154.59	13.38	-35.8	-37.6	23.5	0.00e+00	0	55	0	347078656	42	4615
2026-01-02 06:23:01.45	154.34	13.29	-35.7	-37.4	23.7	0.00e+00	0	56	0	348127232	42	4534
2026-01-02 06:23:02.46	154.10	13.19	-35.7	-37.5	23.6	0.00e+00	0	56	0	349175808	42	4573
2026-01-02 06:23:03.47	153.87	13.10	-35.6	-37.4	23.7	0.00e+00	0	56	0	350224384	42	4499
2026-01-02 06:23:04.48	153.63	13.01	-35.6	-37.3	23.7	0.00e+00	0	55	0	351272960	42	4473
2026-01-02 06:23:05.49	153.40	12.91	-35.7	-37.5	23.6	0.00e+00	0	55	0	352321536	42	4553
2026-01-02 06:23:06.50	153.16	12.82	-35.9	-37.7	23.4	0.00e+00	0	55	0	353894400	42	4665
2026-01-02 06:23:07.51	152.93	12.73	-36.0	-37.8	23.3	0.00e+00	0	55	0	354942976	42	4728
2026-01-02 06:23:08.52	152.70	12.63	-36.1	-37.9	23.2	0.00e+00	0	56	0	355991552	42	4785
2026-01-02 06:23:09.53	152.48	12.54	-35.8	-37.5	23.5	0.00e+00	0	56	0	357040128	42	4594
2026-01-02 06:23:10.54	152.25	12.45	-35.8	-37.6	23.4	0.00e+00	0	55	0	358088704	42	4636
2026-01-02 06:23:11.55	152.03	12.36	-35.9	-37.7	23.3	0.00e+00	0	55	0	359137280	42	4682
2026-01-02 06:23:12.56	151.81	12.27	-35.9	-37.7	23.3	0.00e+00	0	56	0	360710144	42	4691
2026-01-02 06:23:13.57	151.59	12.17	-35.9	-37.7	23.4	0.00e+00	0	56	0	361758720	42	4657
2026-01-02 06:23:14.58	151.37	12.08	-35.8	-37.6	23.4	0.00e+00	0	55	0	362807296	42	4641
2026-01-02 06:23:15.59	151.15	11.99	-35.9	-37.7	23.3	0.00e+00	0	56	0	363855872	42	4679
2026-01-02 06:23:16.60	150.94	11.90	-36.0	-37.9	23.1	0.00e+00	0	56	0	364904448	42	4763
2026-01-02 06:23:17.61	150.73	11.81	-36.0	-37.8	23.1	0.00e+00	0	56	0	365953024	42	4752
2026-01-02 06:23:18.61	150.52	11.72	-36.1	-38.0	23.0	0.00e+00	0	56	0	367525888	42	4829
2026-01-02 06:23:19.62	150.31	11.63	-36.0	-37.9	23.1	0.00e+00	0	56	0	368574464	42	4765
2026-01-02 06:23:20.63	150.10	11.54	-36.0	-37.8	23.1	0.00e+00	0	56	0	369623040	42	4757
2026-01-02 06:23:21.64	149.90	11.45	-36.1	-38.0	23.0	0.00e+00	0	56	0	370671616	42	4820
2026-01-02 06:23:22.65	149.69	11.36	-36.2	-38.0	22.9	0.00e+00	0	56	0	371720192	42	4860
2026-01-02 06:23:23.66	149.49	11.27	-36.3	-38.3	22.7	0.00e+00	0	56	0	373293056	43	4720
2026-01-02 06:23:24.67	149.29	11.18	-36.3	-38.2	22.7	0.00e+00	0	55	0	374341632	43	4687
2026-01-02 06:23:25.68	149.09	11.09	-36.3	-38.2	22.7	0.00e+00	0	56	0	375390208	43	4665
2026-01-02 06:23:26.69	148.89	11.00	-36.1	-38.0	22.9	0.00e+00	0	56	0	376438784	43	4571
2026-01-02 06:23:27.70	148.70	10.91	-36.2	-38.1	22.8	0.00e+00	0	56	0	377487360	43	4637
2026-01-02 06:23:28.71	148.50	10.82	-36.3	-38.2	22.7	0.00e+00	0	56	0	378535936	43	4671
2026-01-02 06:23:29.72	148.31	10.73	-36.4	-38.3	22.5	0.00e+00	0	55	0	379584512	43	4744
2026-01-02 06:23:30.73	148.12	10.65	-36.6	-38.6	22.3	0.00e+00	0	56	0	381157376	43	4883
2026-01-02 06:23:31.74	147.93	10.56	-37.0	-39.0	22.0	0.00e+00	0	56	0	382205952	44	4844
2026-01-02 06:23:32.74	147.74	10.47	-37.2	-39.4	21.6	0.00e+00	0	56	0	383254528	45	4760
2026-01-02 06:23:33.75	147.56	10.38	-37.3	-39.4	21.6	0.00e+00	0	56	0	384303104	45	4800
2026-01-02 06:23:34.76	147.37	10.30	-37.3	-39.4	21.6	0.00e+00	0	55	0	385351680	45	4761
2026-01-02 06:23:35.77	147.19	10.21	-37.2	-39.3	21.7	0.00e+00	0	56	0	386400256	45	4757
2026-01-02 06:23:36.78	147.00	10.12	-37.3	-39.4	21.6	0.00e+00	0	56	0	387973120	45	4779
2026-01-02 06:23:37.79	146.82	10.04	-37.2	-39.3	21.6	0.00e+00	0	56	0	389021696	45	4735
2026-01-02 06:23:38.80	146.64	9.95	-37.0	-39.0	21.9	0.00e+00	0	56	0	390070272	45	4598
2026-01-02 06:23:39.81	146.47	9.86	-36.9	-39.0	21.9	0.00e+00	0	56	0	391118848	45	4569
2026-01-02 06:23:40.82	146.29	9.78	-37.0	-39.0	21.9	0.00e+00	0	56	0	392167424	45	4580
2026-01-02 06:23:41.83	146.11	9.69	-36.9	-39.0	21.9	0.00e+00	0	56	0	393216000	45	4546
2026-01-02 06:23:42.84	145.94	9.61	-36.8	-38.8	22.1	0.00e+00	0	56	0	394788864	45	4473
2026-01-02 06:23:43.85	145.77	9.52	-36.9	-38.9	21.9	0.00e+00	0	56	0	395837440	45	4539
2026-01-02 06:23:44.86	145.60	9.44	-37.0	-39.1	21.7	0.00e+00	0	56	0	396886016	45	4615
2026-01-02 06:23:45.87	145.43	9.35	-37.2	-39.3	21.5	0.00e+00	0	55	0	397934592	45	4751
2026-01-02 06:23:46.88	145.26	9.27	-37.3	-39.5	21.3	0.00e+00	0	56	0	398983168	45	4836
2026-01-02 06:23:47.89	145.09	9.18	-37.4	-39.7	21.1	0.00e+00	0	56	0	400031744	45	4940
2026-01-02 06:23:48.90	144.93	9.10	-37.5	-39.8	21.0	0.00e+00	0	56	0	401604608	45	5022
2026-01-02 06:23:49.90	144.76	9.02	-37.5	-39.8	21.0	0.00e+00	0	56	0	402653184	45	5019
2026-01-02 06:23:50.91	144.60	8.93	-37.5	-39.8	21.0	0.00e+00	0	56	0	403701760	45	5016
2026-01-02 06:23:51.92	144.44	8.85	-37.6	-39.9	20.9	0.00e+00	0	56	0	404750336	45	5043
2026-01-02 06:23:52.93	144.28	8.77	-37.6	-40.0	20.8	0.00e+00	0	56	0	405798912	45	5103
2026-01-02 06:23:53.94	144.12	8.68	-37.4	-39.6	21.2	0.00e+00	0	56	0	406847488	45	4888
2026-01-02 06:23:54.95	143.96	8.60	-37.4	-39.6	21.2	0.00e+00	0	56	0	408420352	45	4911
2026-01-02 06:23:55.96	143.80	8.52	-37.5	-39.8	21.0	0.00e+00	0	56	0	409468928	45	5007
2026-01-02 06:23:56.97	143.65	8.44	-37.6	-39.9	20.9	0.00e+00	0	56	0	410517504	45	5071
2026-01-02 06:23:57.98	143.49	8.36	-37.8	-40.1	20.7	0.00e+00	0	56	0	411566080	46	4900
2026-01-02 06:23:58.99	143.34	8.27	-37.8	-40.2	20.7	0.00e+00	0	56	0	412614656	46	4938
2026-01-02 06:24:00.00	143.19	8.19	-37.8	-40.1	20.6	0.00e+00	0	56	0	413663232	46	4924
2026-01-02 06:24:01.01	143.04	8.11	-37.9	-40.3	20.5	0.00e+00	0	56	0	415236096	46	4998
2026-01-02 06:24:02.02	142.89	8.03	-37.7	-40.0	20.8	0.00e+00	0	56	0	416284672	46	4830
2026-01-02 06:24:03.03	142.74	7.95	-44.0	-61.8	3.7	7.57e-02	0	56	104	416808960	58	29834
2026-01-02 06:24:04.04	142.59	7.87	-44.2	-61.8	3.8	7.57e-02	0	56	104	416808960	59	28292
2026-01-02 06:24:05.05	142.44	7.79	-44.7	-62.6	3.8	8.45e-01	0	56	104	416808960	60	29075
2026-01-02 06:24:06.06	142.30	7.71	-44.9	-62.8	3.8	8.45e-01	0	56	104	416808960	60	29727
2026-01-02 06:24:07.08	142.15	7.63	-45.0	-63.2	3.8	8.45e-01	0	56	104	416808960	60	31108
2026-01-02 06:24:08.09	142.01	7.55	-45.1	-63.2	3.8	8.47e-01	0	56	104	416808960	60	31438
2026-01-02 06:24:09.10	141.87	7.47	-45.1	-63.3	3.8	8.46e-01	0	56	104	416808960	60	31691
2026-01-02 06:24:10.11	141.73	7.39	-45.2	-63.3	3.8	8.46e-01	0	56	104	416808960	60	31747
2026-01-02 06:24:11.12	141.59	7.31	-45.1	-63.3	3.8	8.46e-01	0	56	104	416808960	60	31746
2026-01-02 06:24:12.13	141.45	7.24	-45.1	-63.3	3.8	8.46e-01	0	56	104	416808960	60	31792
2026-01-02 06:24:13.14	141.31	7.16	-45.0	-63.3	3.8	8.45e-01	0	56	104	416808960	60	31714
2026-01-02 06:24:14.15	141.17	7.08	-45.0	-63.2	3.8	8.45e-01	0	56	104	416808960	60	31418
2026-01-02 06:24:15.16	141.04	7.00	-44.9	-63.2	3.8	8.46e-01	0	56	104	416808960	60	31367
2026-01-02 06:24:16.17	140.90	6.93	-44.9	-63.2	3.8	8.46e-01	0	56	104	416808960	60	31370
2026-01-02 06:24:17.18	140.77	6.85	-44.9	-63.2	3.8	8.46e-01	0	56	104	416808960	60	31281
2026-01-02 06:24:18.19	140.63	6.77	-44.9	-63.2	3.8	8.46e-01	0	56	104	416808960	60	31137
2026-01-02 06:24:19.20	140.50	6.69	-44.8	-63.2	3.8	8.46e-01	0	56	104	416808960	60	31186
2026-01-02 06:24:20.21	140.37	6.62	-44.9	-63.1	3.8	8.46e-01	0	56	104	416808960	60	31040
2026-01-02 06:24:21.22	140.24	6.54	-44.9	-63.1	3.8	8.45e-01	0	56	104	416808960	60	30973
2026-01-02 06:24:22.24	140.11	6.47	-44.8	-63.1	3.8	8.45e-01	0	56	104	416808960	60	31070
2026-01-02 06:24:23.25	139.98	6.39	-44.9	-63.1	3.8	8.46e-01	0	56	104	416808960	60	30996
2026-01-02 06:24:24.26	139.86	6.31	-44.8	-63.1	3.8	8.46e-01	0	56	104	416808960	60	30980
2026-01-02 06:24:25.27	139.73	6.24	-44.9	-63.1	3.8	8.45e-01	0	56	104	416808960	60	31071
2026-01-02 06:24:26.28	139.60	6.16	-44.9	-63.1	3.8	8.46e-01	0	56	104	416808960	60	31035
2026-01-02 06:24:27.29	139.48	6.09	-44.8	-63.1	3.8	8.46e-01	0	56	104	416808960	60	31004
2026-01-02 06:24:28.30	139.36	6.01	-44.8	-63.1	3.8	8.46e-01	0	56	104	416808960	60	30978
2026-01-02 06:24:29.31	139.23	5.94	-44.8	-63.1	3.8	8.47e-01	0	56	104	416808960	60	30955
2026-01-02 06:24:30.32	139.11	5.87	-44.8	-63.1	3.8	8.47e-01	0	56	104	416808960	60	30947
2026-01-02 06:24:31.34	138.99	5.79	-44.8	-63.1	3.8	8.48e-01	0	56	104	416808960	60	30987
2026-01-02 06:24:32.35	138.87	5.72	-44.8	-63.1	3.8	8.47e-01	0	56	104	416808960	60	30930
2026-01-02 06:24:33.36	138.75	5.64	-44.8	-63.1	3.8	8.47e-01	0	56	104	416808960	60	31034
2026-01-02 06:24:34.37	138.63	5.57	-44.8	-63.1	3.8	8.47e-01	0	56	104	416808960	60	30963
2026-01-02 06:24:35.38	138.52	5.50	-44.8	-63.1	3.8	8.45e-01	0	56	104	416808960	60	31009
2026-01-02 06:24:36.39	138.40	5.42	-44.8	-63.1	3.8	8.46e-01	0	56	104	416808960	60	30913
2026-01-02 06:24:37.40	138.28	5.35	-44.8	-63.1	3.8	8.46e-01	0	56	104	416808960	60	31011
2026-01-02 06:24:38.41	138.17	5.28	-44.8	-63.1	3.8	8.45e-01	0	56	104	416808960	60	30945
2026-01-02 06:24:39.42	138.05	5.21	-44.8	-63.1	3.8	8.46e-01	0	56	104	416808960	60	30942
2026-01-02 06:24:40.43	137.94	5.14	-44.8	-63.1	3.8	8.46e-01	0	56	104	416808960	60	30896
2026-01-02 06:24:41.44	137.83	5.06	-44.8	-63.1	3.8	8.45e-01	0	56	104	416808960	60	30882
2026-01-02 06:24:42.46	137.72	4.99	-44.8	-63.1	3.8	8.47e-01	0	56	104	416808960	60	30892
2026-01-02 06:24:43.47	137.60	4.92	-44.8	-63.1	3.8	8.47e-01	0	56	104	416808960	60	30866
2026-01-02 06:24:44.48	137.49	4.85	-44.8	-63.1	3.8	8.45e-01	0	56	104	416808960	60	30980
2026-01-02 06:24:45.49	137.38	4.78	-44.8	-63.1	3.8	8.46e-01	0	56	104	416808960	60	30871
2026-01-02 06:24:46.50	137.28	4.71	-44.8	-63.1	3.8	8.46e-01	0	56	104	416808960	60	30897
2026-01-02 06:24:47.51	137.17	4.64	-44.8	-63.1	3.8	8.46e-01	0	56	104	416808960	60	30915
2026-01-02 06:24:48.52	137.06	4.57	-44.8	-63.1	3.8	8.47e-01	0	56	104	416808960	60	30823
2026-01-02 06:24:49.53	136.95	4.50	-44.8	-63.1	3.8	8.46e-01	0	56	104	416808960	60	30876
2026-01-02 06:24:50.54	136.85	4.43	-44.8	-63.1	3.8	8.46e-01	0	56	104	416808960	60	30851
2026-01-02 06:24:51.55	136.74	4.36	-44.8	-63.1	3.8	8.45e-01	0	56	104	416808960	60	30876
2026-01-02 06:24:52.56	136.64	4.29	-44.8	-63.1	3.8	8.46e-01	0	56	104	416808960	60	30755
2026-01-02 06:24:53.58	136.53	4.22	-44.8	-63.1	3.8	8.46e-01	0	56	104	416808960	60	30845
2026-01-02 06:24:54.59	136.43	4.15	-44.8	-63.1	3.8	8.45e-01	0	56	104	416808960	60	30889
2026-01-02 06:24:55.60	136.33	4.08	-44.8	-63.1	3.8	8.46e-01	0	56	104	416808960	60	30819
2026-01-02 06:24:56.61	136.23	4.01	-44.8	-63.1	3.8	8.46e-01	0	56	104	416808960	60	30789
2026-01-02 06:24:57.62	136.13	3.94	-44.8	-63.1	3.8	8.47e-01	0	56	104	416808960	60	30900
2026-01-02 06:24:58.63	136.03	3.87	-44.8	-63.1	3.8	8.46e-01	0	56	104	416808960	60	30854
2026-01-02 06:24:59.64	135.93	3.81	-44.8	-63.1	3.8	8.46e-01	0	56	104	416808960	60	30732
2026-01-02 06:25:00.65	135.83	3.74	-44.8	-63.1	3.8	8.46e-01	0	56	104	416808960	60	30846
2026-01-02 06:25:01.66	135.73	3.67	-44.8	-63.1	3.8	8.46e-01	0	56	104	416808960	60	30873
2026-01-02 06:25:02.68	135.63	3.60	-44.8	-63.1	3.8	8.45e-01	0	56	104	416808960	60	30829
2026-01-02 06:25:03.69	135.53	3.54	-44.8	-63.1	3.8	8.45e-01	0	56	104	416808960	60	30900
2026-01-02 06:25:04.70	135.44	3.47	-44.8	-63.1	3.8	8.47e-01	0	56	104	416808960	60	30828
2026-01-02 06:25:05.71	135.34	3.40	-44.8	-63.1	3.8	8.46e-01	0	56	104	416808960	60	30844
2026-01-02 06:25:06.72	135.25	3.33	-44.8	-63.1	3.8	8.46e-01	0	56	104	416808960	60	30754
2026-01-02 06:25:07.73	135.15	3.27	-44.8	-63.1	3.8	8.46e-01	0	56	104	416808960	60	30783
2026-01-02 06:25:08.74	135.06	3.20	-44.8	-63.1	3.8	8.45e-01	0	56	104	416808960	60	30872
2026-01-02 06:25:09.75	134.97	3.14	-44.8	-63.1	3.8	8.45e-01	0	56	104	416808960	60	30749
2026-01-02 06:25:10.76	134.87	3.07	-44.8	-63.1	3.8	8.46e-01	0	56	104	416808960	60	30805
2026-01-02 06:25:11.77	134.78	3.00	-44.8	-63.1	3.8	8.46e-01	0	56	104	416808960	60	30792
2026-01-02 06:25:12.79	134.69	2.94	-44.8	-63.1	3.8	8.46e-01	0	56	104	416808960	60	30760
2026-01-02 06:25:13.80	134.60	2.87	-44.8	-63.1	3.8	8.46e-01	0	56	104	416808960	60	30802
2026-01-02 06:25:14.81	134.51	2.81	-44.8	-63.1	3.8	8.46e-01	0	56	104	416808960	60	30800
2026-01-02 06:25:15.82	134.42	2.74	-44.8	-63.1	3.8	8.47e-01	0	56	104	416808960	60	30743
2026-01-02 06:25:16.83	134.33	2.68	-44.8	-63.1	3.8	8.47e-01	0	56	104	416808960	60	30819
2026-01-02 06:25:17.84	134.24	2.61	-44.8	-63.1	3.8	8.46e-01	0	56	104	416808960	60	30765
2026-01-02 06:25:18.85	134.15	2.55	-44.8	-63.1	3.8	8.45e-01	0	56	104	416808960	60	30743
2026-01-02 06:25:19.86	134.07	2.48	-44.8	-63.1	3.8	8.45e-01	0	56	104	416808960	60	30787
2026-01-02 06:25:20.87	133.98	2.42	-44.8	-63.1	3.8	8.44e-01	0	56	104	416808960	60	30905
2026-01-02 06:25:21.88	133.89	2.35	-44.8	-63.1	3.8	8.46e-01	0	56	104	416808960	60	30792
2026-01-02 06:25:22.90	133.81	2.29	-44.7	-63.1	3.8	8.46e-01	0	56	104	416808960	60	30766
2026-01-02 06:25:23.91	133.72	2.23	-44.8	-63.1	3.8	8.45e-01	0	56	104	416808960	60	30844
2026-01-02 06:25:24.92	133.64	2.16	-44.8	-63.0	3.8	8.46e-01	0	56	104	416808960	60	30700
2026-01-02 06:25:25.93	133.55	2.10	-44.8	-63.1	3.8	8.46e-01	0	56	104	416808960	60	30880
2026-01-02 06:25:26.94	133.47	2.04	-44.8	-63.1	3.8	8.46e-01	0	56	104	416808960	60	30860
2026-01-02 06:25:27.95	133.39	1.97	-44.8	-63.1	3.8	8.46e-01	0	56	104	416808960	60	30779

#Closed at: 2026-01-02 06:25:28
#Recorded file [416 MB]: D:/lorett/data/31039_260102_091635.dat