passes_logs/2026/01/02/R2.0S_Moscow/R2.0S_Moscow__20260102_093901_NOAA_21_JPSS-2_rec.log

#Pass ID: 20260102_093901_NOAA 21 (JPSS-2)
#Satellite: NOAA 21 (JPSS-2)
#Configuration: NOAA-21
#almurnet v.1.7.20251203
#Start time: 2026-01-02 09:39:01

#Version: 2.2.20231116
#Station: R2.0S_Moscow
#Location: 37.707566 lon 55.798166 lat
#TLE: 1 54234U 22150A   26001.26806856  .00000185  00000+0  10843-3 0  9990
#TLE: 2 54234  98.7484 302.3349 0001277 353.3887   6.7272 14.19530660162860

#Time	Az	El	Level	Level2	SNR	BER	BlckErr	Temp	State	Recorded	gain1	gain2
2026-01-02 09:39:01.97	152.82	2.06	-43.9	-56.0	3.8	1.49e+00	0	47	0	0	59	14433
2026-01-02 09:39:02.97	152.81	2.13	-43.8	-56.0	3.8	1.49e+00	0	48	104	0	59	14477
2026-01-02 09:39:03.98	152.80	2.19	-43.9	-56.0	3.8	1.49e+00	0	48	104	0	59	14483
2026-01-02 09:39:04.99	152.79	2.26	-43.9	-56.0	3.8	1.49e+00	0	48	104	0	59	14456
2026-01-02 09:39:06.01	152.78	2.32	-43.8	-56.0	3.8	1.49e+00	0	48	104	0	59	14479
2026-01-02 09:39:07.02	152.77	2.39	-43.8	-56.0	3.8	1.49e+00	0	48	104	0	59	14418
2026-01-02 09:39:08.03	152.76	2.46	-43.8	-56.0	3.8	1.49e+00	0	48	104	0	59	14454
2026-01-02 09:39:09.04	152.75	2.52	-43.8	-56.0	3.8	1.49e+00	0	48	104	0	59	14458
2026-01-02 09:39:10.05	152.74	2.59	-43.8	-56.0	3.8	1.49e+00	0	48	104	0	59	14442
2026-01-02 09:39:11.06	152.73	2.65	-43.8	-56.0	3.8	1.49e+00	0	48	104	0	59	14405
2026-01-02 09:39:12.07	152.72	2.72	-43.9	-56.0	3.8	1.49e+00	0	48	104	0	59	14452
2026-01-02 09:39:13.08	152.71	2.79	-43.8	-56.0	3.8	1.49e+00	0	49	104	0	59	14415
2026-01-02 09:39:14.10	152.70	2.86	-43.8	-56.0	3.8	1.49e+00	0	48	104	0	59	14387
2026-01-02 09:39:15.11	152.69	2.92	-43.8	-56.0	3.8	1.49e+00	0	49	104	0	59	14411
2026-01-02 09:39:16.12	152.68	2.99	-43.8	-56.0	3.8	1.49e+00	0	49	104	0	59	14440
2026-01-02 09:39:17.13	152.67	3.06	-43.8	-56.0	3.8	1.49e+00	0	49	104	0	59	14406
2026-01-02 09:39:18.14	152.66	3.12	-43.8	-56.0	3.8	1.49e+00	0	49	104	0	59	14438
2026-01-02 09:39:19.15	152.64	3.19	-43.8	-55.9	3.8	1.49e+00	0	49	104	0	59	14369
2026-01-02 09:39:20.16	152.63	3.26	-43.8	-56.0	3.8	1.49e+00	0	49	104	0	59	14379
2026-01-02 09:39:21.17	152.62	3.33	-43.8	-56.0	3.8	1.49e+00	0	49	104	0	59	14389
2026-01-02 09:39:22.18	152.61	3.40	-43.8	-56.0	3.8	1.49e+00	0	49	104	0	59	14400
2026-01-02 09:39:23.19	152.60	3.46	-43.8	-56.0	3.8	1.49e+00	0	49	104	0	59	14378
2026-01-02 09:39:24.21	152.59	3.53	-43.8	-56.0	3.8	1.49e+00	0	49	104	0	59	14406
2026-01-02 09:39:25.22	152.58	3.60	-43.8	-56.0	3.8	1.49e+00	0	49	104	0	59	14407
2026-01-02 09:39:26.23	152.57	3.67	-43.8	-56.0	3.8	1.49e+00	0	49	104	0	59	14414
2026-01-02 09:39:27.24	152.56	3.74	-43.8	-56.0	3.8	1.49e+00	0	50	104	0	59	14388
2026-01-02 09:39:28.25	152.55	3.81	-43.8	-55.9	3.8	1.49e+00	0	50	104	0	59	14369
2026-01-02 09:39:29.26	152.54	3.88	-43.8	-56.0	3.8	1.49e+00	0	50	104	0	59	14430
2026-01-02 09:39:30.27	152.52	3.95	-43.8	-55.9	3.8	1.49e+00	0	50	104	0	59	14373
2026-01-02 09:39:31.28	152.51	4.02	-43.8	-55.9	3.8	1.49e+00	0	50	104	0	59	14362
2026-01-02 09:39:32.29	152.50	4.09	-43.8	-56.0	3.8	1.49e+00	0	50	104	0	59	14387
2026-01-02 09:39:33.30	152.49	4.16	-43.8	-55.9	3.8	1.49e+00	0	50	104	0	59	14369
2026-01-02 09:39:34.31	152.48	4.23	-43.8	-56.0	3.8	1.49e+00	0	50	104	0	59	14385
2026-01-02 09:39:35.32	152.47	4.30	-43.8	-56.0	3.8	1.49e+00	0	50	104	0	59	14397
2026-01-02 09:39:36.33	152.46	4.37	-43.8	-56.0	3.8	1.49e+00	0	50	104	0	59	14401
2026-01-02 09:39:37.35	152.44	4.44	-43.8	-56.0	3.8	1.49e+00	0	50	104	0	59	14402
2026-01-02 09:39:38.36	152.43	4.51	-43.8	-56.0	3.8	1.49e+00	0	50	104	0	59	14399
2026-01-02 09:39:39.37	152.42	4.58	-43.8	-56.0	3.8	1.49e+00	0	50	104	0	59	14386
2026-01-02 09:39:40.38	152.41	4.65	-43.8	-56.0	3.8	1.49e+00	0	50	104	0	59	14426
2026-01-02 09:39:41.39	152.40	4.72	-43.8	-56.0	3.8	1.49e+00	0	50	104	0	59	14382
2026-01-02 09:39:42.40	152.38	4.79	-43.8	-56.0	3.8	1.49e+00	0	50	104	0	59	14453
2026-01-02 09:39:43.41	152.37	4.87	-43.8	-55.9	3.8	1.49e+00	0	50	104	0	59	14373
2026-01-02 09:39:44.42	152.36	4.94	-43.8	-56.0	3.8	1.49e+00	0	51	104	0	59	14394
2026-01-02 09:39:45.43	152.35	5.01	-43.8	-56.0	3.8	1.49e+00	0	50	104	0	59	14411
2026-01-02 09:39:46.45	152.34	5.08	-43.8	-56.0	3.8	1.49e+00	0	51	104	0	59	14406
2026-01-02 09:39:47.46	152.32	5.16	-43.8	-56.0	3.8	1.49e+00	0	50	104	0	59	14383
2026-01-02 09:39:48.47	152.31	5.23	-43.8	-55.9	3.8	1.49e+00	0	51	104	0	59	14318
2026-01-02 09:39:49.48	152.30	5.30	-43.8	-55.9	3.8	1.49e+00	0	51	104	0	59	14341
2026-01-02 09:39:50.49	152.29	5.38	-43.8	-55.9	3.8	1.49e+00	0	51	104	0	59	14297
2026-01-02 09:39:51.50	152.27	5.45	-43.8	-55.9	3.8	1.49e+00	0	51	104	0	59	14231
2026-01-02 09:39:52.51	152.26	5.52	-43.8	-55.8	3.8	1.49e+00	0	51	104	0	59	14161
2026-01-02 09:39:53.52	152.25	5.60	-43.8	-55.8	3.8	1.49e+00	0	51	104	0	59	14150
2026-01-02 09:39:54.53	152.23	5.67	-43.8	-55.8	3.8	1.49e+00	0	51	104	0	59	14065
2026-01-02 09:39:55.54	152.22	5.75	-43.8	-55.7	3.8	1.49e+00	0	51	104	0	59	14011
2026-01-02 09:39:56.56	152.21	5.82	-43.8	-55.7	3.8	1.49e+00	0	51	104	0	59	13952
2026-01-02 09:39:57.57	152.19	5.90	-43.8	-55.7	3.8	1.49e+00	0	51	104	0	59	13955
2026-01-02 09:39:58.58	152.18	5.97	-43.8	-55.6	3.8	1.49e+00	0	51	104	0	59	13856
2026-01-02 09:39:59.59	152.17	6.05	-43.8	-55.6	3.8	1.49e+00	0	51	104	0	59	13753
2026-01-02 09:40:00.60	152.15	6.12	-43.8	-55.4	3.8	1.49e+00	0	51	104	0	59	13488
2026-01-02 09:40:01.61	152.14	6.20	-43.7	-55.4	3.8	1.49e+00	0	51	104	0	59	13469
2026-01-02 09:40:02.62	152.13	6.27	-43.7	-55.3	3.8	1.49e+00	0	51	104	0	59	13409
2026-01-02 09:40:03.63	152.11	6.35	-43.8	-55.4	3.8	1.49e+00	0	51	104	0	59	13436
2026-01-02 09:40:04.64	152.10	6.42	-43.7	-55.3	3.8	1.49e+00	0	52	104	0	59	13328
2026-01-02 09:40:05.65	152.09	6.50	-43.7	-55.1	3.8	1.49e+00	0	52	104	0	59	13047
2026-01-02 09:40:06.67	152.07	6.58	-43.7	-54.9	3.8	1.49e+00	0	52	104	0	59	12792
2026-01-02 09:40:07.68	152.06	6.65	-43.6	-54.6	3.8	1.49e+00	0	51	104	0	59	12343
2026-01-02 09:40:08.69	152.04	6.73	-43.6	-54.1	3.8	1.49e+00	0	52	104	0	59	11649
2026-01-02 09:40:09.70	152.03	6.81	-43.5	-53.0	4.0	1.48e+00	0	52	104	0	59	10204
2026-01-02 09:40:10.71	152.02	6.89	-43.3	-51.9	4.0	1.46e+00	0	52	104	0	58	9510
2026-01-02 09:40:11.72	152.00	6.96	-43.1	-50.8	4.8	1.20e+00	0	52	104	0	58	8406
2026-01-02 09:40:12.73	151.99	7.04	-42.8	-49.3	5.6	5.39e-01	0	52	0	2097152	57	7535
2026-01-02 09:40:13.74	151.97	7.12	-42.5	-48.3	6.4	2.86e-01	0	52	0	5242880	57	6673
2026-01-02 09:40:14.75	151.96	7.20	-42.1	-47.0	7.6	1.14e-01	0	52	0	8388608	56	6094
2026-01-02 09:40:15.77	151.94	7.28	-41.4	-45.5	8.9	3.32e-02	0	52	0	11534336	54	5750
2026-01-02 09:40:16.78	151.93	7.36	-41.0	-44.8	9.7	1.32e-02	0	52	0	15728640	54	5319
2026-01-02 09:40:17.79	151.91	7.44	-40.4	-43.6	10.9	4.15e-03	0	52	0	18874368	52	5203
2026-01-02 09:40:18.80	151.90	7.52	-40.0	-42.9	11.7	7.36e-04	0	52	0	20971520	52	4773
2026-01-02 09:40:19.81	151.88	7.60	-39.6	-42.3	12.4	1.99e-04	0	52	0	24117248	51	4725
2026-01-02 09:40:20.82	151.87	7.68	-39.2	-41.6	13.1	6.02e-05	0	52	0	27262976	50	4627
2026-01-02 09:40:21.83	151.85	7.76	-38.7	-40.9	13.8	1.14e-05	0	52	0	31457280	49	4533
2026-01-02 09:40:22.84	151.84	7.84	-38.3	-40.4	14.3	7.00e-07	0	52	0	34603008	48	4514
2026-01-02 09:40:23.85	151.82	7.92	-38.0	-40.0	14.7	7.00e-07	0	52	0	37748736	48	4318
2026-01-02 09:40:24.86	151.81	8.00	-37.8	-39.7	14.9	7.00e-07	0	52	0	40894464	47	4417
2026-01-02 09:40:25.87	151.79	8.08	-43.6	-52.8	3.9	1.86e-02	1	52	104	42991616	57	11161
2026-01-02 09:40:26.88	151.77	8.16	-41.2	-45.1	9.6	1.69e-02	0	52	0	44040192	53	5823
2026-01-02 09:40:27.89	151.76	8.24	-38.3	-40.4	14.4	0.00e+00	0	52	0	47185920	47	4801
2026-01-02 09:40:28.90	151.74	8.33	-42.0	-46.6	8.1	8.96e-03	0	52	0	50331648	54	6560
2026-01-02 09:40:29.91	151.73	8.41	-40.2	-43.3	11.6	4.11e-05	0	52	0	53477376	50	5601
2026-01-02 09:40:30.92	151.71	8.49	-37.8	-39.7	15.0	7.85e-05	0	52	0	56623104	47	4434
2026-01-02 09:40:31.93	151.69	8.57	-37.5	-39.3	15.4	0.00e+00	0	53	0	59768832	46	4470
2026-01-02 09:40:32.94	151.68	8.66	-37.3	-39.1	15.6	0.00e+00	0	52	0	62914560	46	4365
2026-01-02 09:40:33.95	151.66	8.74	-37.3	-39.1	15.7	0.00e+00	0	52	0	66060288	46	4358
2026-01-02 09:40:34.96	151.64	8.82	-37.2	-39.0	15.8	0.00e+00	0	53	0	69206016	46	4312
2026-01-02 09:40:35.97	151.63	8.91	-37.2	-38.9	15.8	0.00e+00	0	53	0	72351744	46	4283
2026-01-02 09:40:36.98	151.61	8.99	-37.2	-39.0	15.8	0.00e+00	0	53	0	75497472	46	4296
2026-01-02 09:40:37.99	151.59	9.08	-37.3	-39.1	15.8	0.00e+00	0	52	0	78643200	46	4341
2026-01-02 09:40:39.00	151.58	9.16	-37.1	-38.9	15.9	0.00e+00	0	52	0	81788928	46	4251
2026-01-02 09:40:40.01	151.56	9.25	-37.1	-38.8	16.0	0.00e+00	0	53	0	84934656	46	4232
2026-01-02 09:40:41.01	151.54	9.33	-37.0	-38.7	16.1	0.00e+00	0	53	0	88080384	46	4188
2026-01-02 09:40:42.02	151.52	9.42	-37.0	-38.7	16.1	0.00e+00	0	53	0	91226112	46	4174
2026-01-02 09:40:43.03	151.51	9.50	-37.0	-38.7	16.1	0.00e+00	0	53	0	94371840	46	4178
2026-01-02 09:40:44.04	151.49	9.59	-37.1	-38.8	16.1	0.00e+00	0	53	0	97517568	46	4219
2026-01-02 09:40:45.05	151.47	9.68	-37.0	-38.7	16.2	0.00e+00	0	53	0	100663296	46	4167
2026-01-02 09:40:46.06	151.45	9.76	-37.0	-38.7	16.2	0.00e+00	0	53	0	103809024	46	4186
2026-01-02 09:40:47.07	151.43	9.85	-36.9	-38.6	16.3	0.00e+00	0	53	0	106954752	45	4374
2026-01-02 09:40:48.08	151.42	9.94	-37.0	-38.7	16.2	0.00e+00	0	53	0	110100480	45	4405
2026-01-02 09:40:49.09	151.40	10.02	-36.9	-38.6	16.3	0.00e+00	0	53	0	113246208	45	4354
2026-01-02 09:40:50.11	151.38	10.11	-36.9	-38.5	16.4	0.00e+00	0	53	0	116391936	45	4319
2026-01-02 09:40:51.12	151.36	10.20	-36.9	-38.5	16.4	0.00e+00	0	53	0	119537664	45	4313
2026-01-02 09:40:52.13	151.34	10.29	-36.9	-38.5	16.4	0.00e+00	0	53	0	122683392	45	4311
2026-01-02 09:40:53.14	151.32	10.38	-36.9	-38.5	16.5	0.00e+00	0	53	0	125829120	45	4306
2026-01-02 09:40:54.15	151.30	10.47	-36.9	-38.5	16.4	0.00e+00	0	53	0	128974848	45	4309
2026-01-02 09:40:55.16	151.29	10.56	-36.8	-38.4	16.5	0.00e+00	0	53	0	132120576	45	4285
2026-01-02 09:40:56.17	151.27	10.65	-36.8	-38.4	16.6	0.00e+00	0	53	0	135266304	45	4263
2026-01-02 09:40:57.18	151.25	10.74	-36.7	-38.3	16.6	0.00e+00	0	53	0	138412032	45	4236
2026-01-02 09:40:58.19	151.23	10.83	-36.7	-38.3	16.6	0.00e+00	0	53	0	141557760	45	4230
2026-01-02 09:40:59.20	151.21	10.92	-36.7	-38.3	16.7	0.00e+00	0	53	0	144703488	45	4208
2026-01-02 09:41:00.21	151.19	11.01	-36.7	-38.3	16.6	0.00e+00	0	53	0	147849216	45	4222
2026-01-02 09:41:01.22	151.17	11.10	-36.7	-38.3	16.7	0.00e+00	0	53	0	150994944	45	4221
2026-01-02 09:41:02.23	151.15	11.20	-36.7	-38.3	16.7	0.00e+00	0	53	0	154140672	45	4208
2026-01-02 09:41:03.24	151.13	11.29	-36.7	-38.3	16.7	0.00e+00	0	53	0	157286400	45	4197
2026-01-02 09:41:04.25	151.11	11.38	-36.6	-38.1	16.9	0.00e+00	0	53	0	160432128	45	4136
2026-01-02 09:41:05.25	151.09	11.47	-36.5	-38.0	17.0	0.00e+00	0	54	0	163577856	45	4090
2026-01-02 09:41:06.26	151.07	11.57	-36.6	-38.1	16.9	0.00e+00	0	53	0	166723584	45	4124
2026-01-02 09:41:07.28	151.05	11.66	-36.5	-38.1	16.9	0.00e+00	0	54	0	169869312	45	4107
2026-01-02 09:41:08.29	151.02	11.76	-36.5	-38.1	16.9	0.00e+00	0	53	0	173015040	45	4116
2026-01-02 09:41:09.30	151.00	11.85	-36.5	-38.0	17.0	0.00e+00	0	54	0	176160768	44	4335
2026-01-02 09:41:10.31	150.98	11.94	-36.5	-38.0	17.0	0.00e+00	0	54	0	179306496	44	4329
2026-01-02 09:41:11.31	150.96	12.04	-36.5	-38.0	17.0	0.00e+00	0	54	0	182452224	44	4328
2026-01-02 09:41:12.32	150.94	12.13	-36.5	-38.0	17.1	0.00e+00	0	54	0	185597952	44	4304
2026-01-02 09:41:13.33	150.92	12.23	-36.4	-37.9	17.1	0.00e+00	0	54	0	188743680	44	4280
2026-01-02 09:41:14.34	150.90	12.33	-36.4	-37.9	17.1	0.00e+00	0	53	0	191889408	44	4279
2026-01-02 09:41:15.36	150.87	12.42	-36.4	-37.9	17.1	0.00e+00	0	54	0	195035136	44	4289
2026-01-02 09:41:16.37	150.85	12.52	-36.4	-37.9	17.2	0.00e+00	0	54	0	198180864	44	4273
2026-01-02 09:41:17.38	150.83	12.62	-36.3	-37.8	17.2	0.00e+00	0	54	0	201326592	44	4234
2026-01-02 09:41:18.39	150.81	12.72	-36.3	-37.8	17.3	0.00e+00	0	54	0	204472320	44	4215
2026-01-02 09:41:19.40	150.78	12.82	-36.3	-37.8	17.3	0.00e+00	0	54	0	207618048	44	4228
2026-01-02 09:41:20.41	150.76	12.91	-36.2	-37.7	17.4	0.00e+00	0	54	0	210763776	44	4174
2026-01-02 09:41:21.41	150.74	13.01	-36.2	-37.7	17.4	0.00e+00	0	54	0	213909504	44	4150
2026-01-02 09:41:22.42	150.72	13.11	-36.2	-37.7	17.4	0.00e+00	0	54	0	218103808	44	4150
2026-01-02 09:41:23.43	150.69	13.21	-36.2	-37.6	17.4	0.00e+00	0	54	0	221249536	44	4143
2026-01-02 09:41:24.45	150.67	13.31	-36.2	-37.6	17.5	0.00e+00	0	54	0	223346688	44	4136
2026-01-02 09:41:25.46	150.64	13.41	-36.2	-37.6	17.5	0.00e+00	0	54	0	226492416	44	4127
2026-01-02 09:41:26.47	150.62	13.51	-36.1	-37.6	17.6	0.00e+00	0	54	0	229638144	44	4104
2026-01-02 09:41:27.47	150.60	13.61	-36.1	-37.6	17.5	0.00e+00	0	54	0	233832448	44	4122
2026-01-02 09:41:28.48	150.57	13.72	-36.2	-37.6	17.5	0.00e+00	0	54	0	236978176	44	4128
2026-01-02 09:41:29.50	150.55	13.82	-36.1	-37.6	17.6	0.00e+00	0	54	0	240123904	44	4110
2026-01-02 09:41:30.51	150.52	13.92	-36.1	-37.6	17.6	0.00e+00	0	54	0	243269632	44	4113
2026-01-02 09:41:31.52	150.50	14.03	-36.1	-37.6	17.6	0.00e+00	0	54	0	245366784	44	4099
2026-01-02 09:41:32.53	150.47	14.13	-36.1	-37.5	17.7	0.00e+00	0	54	0	249561088	44	4081
2026-01-02 09:41:33.54	150.45	14.23	-36.1	-37.5	17.6	0.00e+00	0	54	0	252706816	44	4081
2026-01-02 09:41:34.55	150.42	14.34	-36.1	-37.5	17.7	0.00e+00	0	54	0	255852544	44	4076
2026-01-02 09:41:35.56	150.40	14.44	-36.1	-37.5	17.7	0.00e+00	0	54	0	258998272	44	4071
2026-01-02 09:41:36.57	150.37	14.55	-36.1	-37.5	17.7	0.00e+00	0	54	0	262144000	44	4070
2026-01-02 09:41:37.58	150.34	14.65	-36.1	-37.5	17.7	0.00e+00	0	54	0	265289728	44	4071
2026-01-02 09:41:38.59	150.32	14.76	-36.1	-37.5	17.7	0.00e+00	0	54	0	268435456	44	4067
2026-01-02 09:41:39.60	150.29	14.87	-36.1	-37.5	17.7	0.00e+00	0	54	0	271581184	44	4075
2026-01-02 09:41:40.61	150.27	14.97	-36.1	-37.5	17.7	0.00e+00	0	54	0	274726912	44	4080
2026-01-02 09:41:41.62	150.24	15.08	-36.1	-37.5	17.7	0.00e+00	0	54	0	277872640	44	4076
2026-01-02 09:41:42.63	150.21	15.19	-36.1	-37.5	17.7	0.00e+00	0	54	0	281018368	44	4095
2026-01-02 09:41:43.63	150.18	15.30	-36.1	-37.5	17.7	0.00e+00	0	54	0	284164096	44	4080
2026-01-02 09:41:44.64	150.16	15.41	-36.1	-37.5	17.7	0.00e+00	0	54	0	287309824	44	4091
2026-01-02 09:41:45.66	150.13	15.52	-36.1	-37.5	17.7	0.00e+00	0	54	0	290455552	44	4096
2026-01-02 09:41:46.67	150.10	15.63	-36.1	-37.5	17.7	0.00e+00	0	54	0	293601280	44	4079
2026-01-02 09:41:47.67	150.07	15.74	-36.2	-37.6	17.6	0.00e+00	0	54	0	296747008	44	4119
2026-01-02 09:41:48.68	150.04	15.85	-36.2	-37.6	17.6	0.00e+00	0	54	0	299892736	44	4125
2026-01-02 09:41:49.69	150.02	15.96	-36.1	-37.6	17.7	0.00e+00	0	54	0	303038464	44	4108
2026-01-02 09:41:50.70	149.99	16.07	-36.1	-37.6	17.7	0.00e+00	0	54	0	306184192	44	4109
2026-01-02 09:41:51.71	149.96	16.18	-36.2	-37.6	17.6	0.00e+00	0	54	0	309329920	44	4128
2026-01-02 09:41:52.72	149.93	16.30	-36.2	-37.6	17.7	0.00e+00	0	54	0	312475648	44	4122
2026-01-02 09:41:53.73	149.90	16.41	-36.2	-37.6	17.6	0.00e+00	0	54	0	315621376	44	4136
2026-01-02 09:41:54.75	149.87	16.53	-36.2	-37.6	17.7	0.00e+00	0	54	0	318767104	44	4125
2026-01-02 09:41:55.76	149.84	16.64	-36.2	-37.6	17.7	0.00e+00	0	54	0	321912832	44	4128
2026-01-02 09:41:56.77	149.81	16.76	-36.2	-37.6	17.7	0.00e+00	0	55	0	325058560	44	4137
2026-01-02 09:41:57.78	149.78	16.87	-36.2	-37.7	17.6	0.00e+00	0	55	0	328204288	44	4162
2026-01-02 09:41:58.78	149.75	16.99	-36.2	-37.7	17.6	0.00e+00	0	55	0	331350016	44	4152
2026-01-02 09:41:59.79	149.72	17.10	-36.2	-37.6	17.7	0.00e+00	0	54	0	334495744	44	4137
2026-01-02 09:42:00.80	149.69	17.22	-36.2	-37.7	17.6	0.00e+00	0	54	0	337641472	44	4163
2026-01-02 09:42:01.81	149.65	17.34	-36.3	-37.7	17.6	0.00e+00	0	54	0	340787200	44	4173
2026-01-02 09:42:02.82	149.62	17.46	-36.2	-37.7	17.6	0.00e+00	0	54	0	343932928	44	4161
2026-01-02 09:42:03.83	149.59	17.58	-36.3	-37.7	17.6	0.00e+00	0	54	0	347078656	44	4170
2026-01-02 09:42:04.84	149.56	17.70	-36.2	-37.7	17.7	0.00e+00	0	55	0	350224384	44	4150
2026-01-02 09:42:05.85	149.52	17.82	-36.2	-37.7	17.7	0.00e+00	0	55	0	353370112	44	4156
2026-01-02 09:42:06.86	149.49	17.94	-36.3	-37.7	17.7	0.00e+00	0	55	0	356515840	44	4168
2026-01-02 09:42:07.87	149.46	18.06	-36.3	-37.7	17.7	0.00e+00	0	54	0	359661568	44	4163
2026-01-02 09:42:08.88	149.42	18.18	-36.2	-37.6	17.8	0.00e+00	0	55	0	362807296	44	4120
2026-01-02 09:42:09.89	149.39	18.30	-36.3	-37.7	17.7	0.00e+00	0	55	0	365953024	44	4172
2026-01-02 09:42:10.90	149.36	18.43	-36.3	-37.7	17.7	0.00e+00	0	54	0	369098752	44	4163
2026-01-02 09:42:11.91	149.32	18.55	-36.3	-37.7	17.7	0.00e+00	0	55	0	372244480	44	4163
2026-01-02 09:42:12.92	149.29	18.67	-36.2	-37.7	17.7	0.00e+00	0	55	0	375390208	44	4146
2026-01-02 09:42:13.93	149.25	18.80	-36.2	-37.6	17.8	0.00e+00	0	55	0	378535936	44	4118
2026-01-02 09:42:14.94	149.22	18.93	-36.2	-37.6	17.8	0.00e+00	0	55	0	381681664	44	4129
2026-01-02 09:42:15.95	149.18	19.05	-36.2	-37.6	17.8	0.00e+00	0	55	0	384827392	44	4117
2026-01-02 09:42:16.96	149.14	19.18	-36.1	-37.5	17.9	0.00e+00	0	55	0	387973120	44	4067
2026-01-02 09:42:17.97	149.11	19.31	-36.1	-37.5	17.9	0.00e+00	0	55	0	391118848	44	4061
2026-01-02 09:42:18.98	149.07	19.43	-36.0	-37.4	18.0	0.00e+00	0	55	0	394264576	44	4026
2026-01-02 09:42:19.99	149.03	19.56	-36.0	-37.4	18.0	0.00e+00	0	55	0	397410304	44	4011
2026-01-02 09:42:21.00	149.00	19.69	-35.8	-37.1	18.1	0.00e+00	0	55	0	400556032	43	4130
2026-01-02 09:42:22.01	148.96	19.82	-35.7	-37.1	18.1	0.00e+00	0	55	0	403701760	43	4112
2026-01-02 09:42:23.02	148.92	19.95	-35.7	-37.1	18.2	0.00e+00	0	55	0	406847488	43	4106
2026-01-02 09:42:24.03	148.88	20.09	-35.7	-37.0	18.2	0.00e+00	0	55	0	409993216	43	4087
2026-01-02 09:42:25.03	148.84	20.22	-35.6	-36.9	18.3	0.00e+00	0	55	0	413138944	43	4044
2026-01-02 09:42:26.04	148.81	20.35	-35.5	-36.8	18.4	0.00e+00	0	55	0	416284672	43	4001
2026-01-02 09:42:27.05	148.77	20.48	-35.4	-36.7	18.5	0.00e+00	0	55	0	419430400	42	4177
2026-01-02 09:42:28.06	148.73	20.62	-35.4	-36.7	18.5	0.00e+00	0	55	0	422576128	42	4180
2026-01-02 09:42:29.07	148.69	20.75	-35.4	-36.6	18.5	0.00e+00	0	55	0	425721856	42	4143
2026-01-02 09:42:30.09	148.65	20.89	-35.3	-36.6	18.6	0.00e+00	0	55	0	428867584	42	4117
2026-01-02 09:42:31.10	148.60	21.03	-35.3	-36.6	18.7	0.00e+00	0	55	0	432013312	42	4101
2026-01-02 09:42:32.11	148.56	21.16	-35.3	-36.6	18.6	0.00e+00	0	55	0	435159040	42	4106
2026-01-02 09:42:33.12	148.52	21.30	-35.2	-36.5	18.7	0.00e+00	0	55	0	438304768	42	4067
2026-01-02 09:42:34.13	148.48	21.44	-35.2	-36.5	18.8	0.00e+00	0	55	0	441450496	42	4057
2026-01-02 09:42:35.14	148.44	21.58	-35.1	-36.4	18.8	0.00e+00	0	55	0	444596224	42	4020
2026-01-02 09:42:36.14	148.39	21.72	-35.0	-36.3	18.9	0.00e+00	0	55	0	447741952	42	3973
2026-01-02 09:42:37.15	148.35	21.86	-34.9	-36.2	19.0	0.00e+00	0	55	0	450887680	41	4150
2026-01-02 09:42:38.16	148.31	22.00	-34.9	-36.1	19.1	0.00e+00	0	55	0	454033408	41	4132
2026-01-02 09:42:39.17	148.26	22.14	-34.8	-36.0	19.2	0.00e+00	0	55	0	457179136	41	4075
2026-01-02 09:42:40.18	148.22	22.28	-34.8	-36.0	19.2	0.00e+00	0	55	0	460324864	41	4068
2026-01-02 09:42:41.19	148.17	22.43	-34.8	-36.0	19.2	0.00e+00	0	55	0	463470592	41	4061
2026-01-02 09:42:42.20	148.13	22.57	-34.7	-36.0	19.2	0.00e+00	0	55	0	466616320	41	4054
2026-01-02 09:42:43.21	148.08	22.72	-34.7	-36.0	19.2	0.00e+00	0	55	0	469762048	41	4058
2026-01-02 09:42:44.22	148.03	22.87	-34.7	-35.9	19.3	0.00e+00	0	55	0	472907776	41	4015
2026-01-02 09:42:45.23	147.99	23.01	-34.6	-35.8	19.4	0.00e+00	0	55	0	476053504	41	3977
2026-01-02 09:42:46.24	147.94	23.16	-34.6	-35.8	19.4	0.00e+00	0	55	0	479199232	41	3981
2026-01-02 09:42:47.25	147.89	23.31	-34.6	-35.7	19.5	0.00e+00	0	55	0	482344960	41	3958
2026-01-02 09:42:48.26	147.84	23.46	-34.6	-35.8	19.4	0.00e+00	0	55	0	485490688	41	3995
2026-01-02 09:42:49.27	147.80	23.61	-34.6	-35.8	19.4	0.00e+00	0	55	0	488636416	41	3983
2026-01-02 09:42:50.28	147.75	23.76	-34.6	-35.8	19.4	0.00e+00	0	55	0	491782144	41	3994
2026-01-02 09:42:51.29	147.70	23.91	-34.6	-35.8	19.5	0.00e+00	0	55	0	494927872	41	3967
2026-01-02 09:42:52.30	147.65	24.07	-34.6	-35.8	19.4	0.00e+00	0	55	0	498073600	41	3994
2026-01-02 09:42:53.31	147.59	24.22	-34.5	-35.7	19.5	0.00e+00	0	55	0	501219328	41	3949
2026-01-02 09:42:54.32	147.54	24.38	-34.5	-35.7	19.5	0.00e+00	0	55	0	504365056	41	3947
2026-01-02 09:42:55.33	147.49	24.53	-34.5	-35.7	19.5	0.00e+00	0	55	0	507510784	41	3947
2026-01-02 09:42:56.34	147.44	24.69	-34.6	-35.8	19.5	0.00e+00	0	55	0	510656512	41	3984
2026-01-02 09:42:57.35	147.39	24.85	-34.7	-35.9	19.3	0.00e+00	0	55	0	513802240	41	4033
2026-01-02 09:42:58.36	147.33	25.00	-34.7	-36.0	19.3	0.00e+00	0	55	0	516947968	41	4056
2026-01-02 09:42:59.37	147.28	25.16	-34.8	-36.0	19.2	0.00e+00	0	55	0	520093696	41	4094
2026-01-02 09:43:00.38	147.22	25.32	-34.9	-36.2	19.1	0.00e+00	0	55	0	523239424	41	4160
2026-01-02 09:43:01.39	147.17	25.48	-34.9	-36.1	19.2	0.00e+00	0	55	0	526385152	41	4128
2026-01-02 09:43:02.40	147.11	25.65	-35.0	-36.2	19.0	0.00e+00	0	55	0	529530880	41	4188
2026-01-02 09:43:03.41	147.06	25.81	-35.0	-36.3	19.1	0.00e+00	0	55	0	532676608	41	4208
2026-01-02 09:43:04.42	147.00	25.97	-35.1	-36.4	19.0	0.00e+00	0	55	0	535822336	41	4245
2026-01-02 09:43:05.43	146.94	26.14	-35.2	-36.4	18.9	0.00e+00	0	55	0	538968064	41	4290
2026-01-02 09:43:06.44	146.88	26.31	-35.3	-36.5	18.8	0.00e+00	0	55	0	542113792	41	4332
2026-01-02 09:43:07.45	146.82	26.47	-35.3	-36.6	18.7	0.00e+00	0	55	0	545259520	41	4364
2026-01-02 09:43:08.46	146.76	26.64	-35.4	-36.7	18.6	0.00e+00	0	55	0	548405248	41	4419
2026-01-02 09:43:09.47	146.70	26.81	-35.5	-36.8	18.6	0.00e+00	0	55	0	551550976	41	4451
2026-01-02 09:43:10.48	146.64	26.98	-35.5	-36.8	18.6	0.00e+00	0	55	0	555745280	41	4443
2026-01-02 09:43:11.49	146.58	27.15	-35.5	-36.8	18.5	0.00e+00	0	55	0	558891008	41	4472
2026-01-02 09:43:12.50	146.52	27.32	-35.6	-36.9	18.5	0.00e+00	0	55	0	560988160	41	4523
2026-01-02 09:43:13.51	146.45	27.50	-35.6	-37.0	18.4	0.00e+00	0	55	0	564133888	41	4556
2026-01-02 09:43:14.52	146.39	27.67	-35.8	-37.1	18.3	0.00e+00	0	55	0	567279616	42	4365
2026-01-02 09:43:15.53	146.33	27.85	-35.8	-37.2	18.2	0.00e+00	0	55	0	571473920	42	4412
2026-01-02 09:43:16.54	146.26	28.02	-36.0	-37.3	18.1	0.00e+00	0	55	0	574619648	42	4475
2026-01-02 09:43:17.55	146.19	28.20	-36.0	-37.4	18.1	0.00e+00	0	55	0	577765376	42	4495
2026-01-02 09:43:18.56	146.13	28.38	-36.0	-37.4	18.0	0.00e+00	0	55	0	580911104	42	4510
2026-01-02 09:43:19.57	146.06	28.56	-36.0	-37.4	18.0	0.00e+00	0	55	0	584056832	42	4526
2026-01-02 09:43:20.58	145.99	28.74	-36.0	-37.4	18.0	0.00e+00	0	55	0	587202560	42	4532
2026-01-02 09:43:21.59	145.92	28.92	-36.1	-37.5	17.9	0.00e+00	0	55	0	590348288	42	4562
2026-01-02 09:43:22.60	145.85	29.11	-36.0	-37.4	18.0	0.00e+00	0	55	0	593494016	42	4532
2026-01-02 09:43:23.61	145.78	29.29	-36.1	-37.5	18.0	0.00e+00	0	55	0	596639744	42	4550
2026-01-02 09:43:24.62	145.71	29.48	-36.0	-37.4	18.0	0.00e+00	0	55	0	599785472	42	4518
2026-01-02 09:43:25.63	145.64	29.66	-35.9	-37.3	18.1	0.00e+00	0	55	0	602931200	42	4476
2026-01-02 09:43:26.64	145.56	29.85	-35.8	-37.2	18.2	0.00e+00	0	56	0	606076928	42	4420
2026-01-02 09:43:27.65	145.49	30.04	-35.8	-37.1	18.3	0.00e+00	0	55	0	609222656	42	4381
2026-01-02 09:43:28.66	145.41	30.23	-35.7	-37.1	18.4	0.00e+00	0	55	0	612368384	42	4355
2026-01-02 09:43:29.66	145.34	30.42	-35.7	-37.0	18.4	0.00e+00	0	56	0	615514112	42	4333
2026-01-02 09:43:30.68	145.26	30.61	-35.8	-37.1	18.3	0.00e+00	0	56	0	618659840	42	4363
2026-01-02 09:43:31.69	145.18	30.81	-35.8	-37.1	18.3	0.00e+00	0	55	0	621805568	42	4375
2026-01-02 09:43:32.70	145.10	31.00	-35.8	-37.1	18.3	0.00e+00	0	55	0	624951296	42	4388
2026-01-02 09:43:33.71	145.02	31.20	-35.7	-37.1	18.3	0.00e+00	0	56	0	628097024	42	4364
2026-01-02 09:43:34.72	144.94	31.40	-35.7	-37.1	18.4	0.00e+00	0	56	0	631242752	42	4355
2026-01-02 09:43:35.73	144.86	31.60	-35.8	-37.1	18.3	0.00e+00	0	56	0	634388480	42	4373
2026-01-02 09:43:36.74	144.78	31.80	-35.8	-37.1	18.3	0.00e+00	0	56	0	637534208	42	4375
2026-01-02 09:43:37.75	144.69	32.00	-35.9	-37.2	18.2	0.00e+00	0	56	0	640679936	42	4433
2026-01-02 09:43:38.76	144.61	32.20	-35.9	-37.3	18.2	0.00e+00	0	56	0	643825664	42	4476
2026-01-02 09:43:39.77	144.52	32.40	-36.1	-37.5	18.0	0.00e+00	0	56	0	646971392	42	4550
2026-01-02 09:43:40.78	144.43	32.61	-36.1	-37.5	18.0	0.00e+00	0	55	0	650117120	42	4575
2026-01-02 09:43:41.79	144.34	32.82	-36.1	-37.5	17.9	0.00e+00	0	56	0	653262848	42	4589
2026-01-02 09:43:42.80	144.25	33.02	-36.2	-37.6	17.9	0.00e+00	0	56	0	656408576	42	4630
2026-01-02 09:43:43.80	144.16	33.23	-36.2	-37.6	17.9	0.00e+00	0	56	0	659554304	43	4374
2026-01-02 09:43:44.81	144.07	33.44	-36.3	-37.7	17.8	0.00e+00	0	56	0	662700032	43	4426
2026-01-02 09:43:45.82	143.98	33.65	-36.3	-37.7	17.8	0.00e+00	0	56	0	665845760	43	4427
2026-01-02 09:43:46.83	143.88	33.87	-36.5	-37.9	17.6	0.00e+00	0	56	0	668991488	43	4522
2026-01-02 09:43:47.84	143.79	34.08	-36.4	-37.9	17.6	0.00e+00	0	56	0	672137216	43	4504
2026-01-02 09:43:48.85	143.69	34.30	-36.5	-38.0	17.5	0.00e+00	0	56	0	675282944	43	4556
2026-01-02 09:43:49.86	143.59	34.52	-36.5	-38.0	17.6	0.00e+00	0	55	0	678428672	43	4557
2026-01-02 09:43:50.87	143.49	34.74	-36.6	-38.1	17.5	0.00e+00	0	56	0	681574400	43	4627
2026-01-02 09:43:51.88	143.39	34.96	-37.0	-38.4	17.4	0.00e+00	0	56	0	684720128	44	4545
2026-01-02 09:43:52.89	143.29	35.18	-37.1	-38.7	17.1	0.00e+00	0	55	0	687865856	44	4658
2026-01-02 09:43:53.91	143.18	35.41	-37.3	-38.8	16.9	0.00e+00	0	56	0	691011584	45	4487
2026-01-02 09:43:54.92	143.08	35.63	-37.5	-39.1	16.7	0.00e+00	0	56	0	694157312	45	4622
2026-01-02 09:43:55.93	142.97	35.86	-37.6	-39.3	16.5	0.00e+00	0	56	0	697303040	45	4718
2026-01-02 09:43:56.94	142.86	36.08	-37.8	-39.5	16.3	0.00e+00	0	56	0	700448768	46	4564
2026-01-02 09:43:57.95	142.75	36.31	-37.9	-39.6	16.2	0.00e+00	0	56	0	703594496	46	4615
2026-01-02 09:43:58.96	142.64	36.55	-37.9	-39.7	16.1	0.00e+00	0	56	0	706740224	46	4656
2026-01-02 09:43:59.97	142.52	36.78	-38.0	-39.7	16.0	0.00e+00	0	56	0	709885952	46	4676
2026-01-02 09:44:00.98	142.41	37.01	-37.9	-39.6	16.1	0.00e+00	0	56	0	713031680	46	4635
2026-01-02 09:44:01.99	142.29	37.25	-37.9	-39.7	16.1	0.00e+00	0	56	0	716177408	46	4666
2026-01-02 09:44:03.00	142.17	37.48	-38.0	-39.7	16.0	0.00e+00	0	56	0	719323136	46	4693
2026-01-02 09:44:04.01	142.05	37.72	-38.0	-39.7	16.1	0.00e+00	0	56	0	722468864	46	4663
2026-01-02 09:44:05.02	141.93	37.96	-37.9	-39.6	16.1	0.00e+00	0	56	0	725614592	46	4644
2026-01-02 09:44:06.03	141.80	38.21	-37.9	-39.6	16.1	0.00e+00	0	56	0	728760320	46	4649
2026-01-02 09:44:07.04	141.68	38.45	-38.0	-39.7	16.0	0.00e+00	0	56	0	731906048	46	4701
2026-01-02 09:44:08.05	141.55	38.69	-37.8	-39.5	16.2	0.00e+00	0	56	0	735051776	46	4588
2026-01-02 09:44:09.06	141.42	38.94	-37.8	-39.4	16.3	0.00e+00	0	56	0	738197504	46	4545
2026-01-02 09:44:10.07	141.29	39.19	-37.8	-39.5	16.3	0.00e+00	0	56	0	741343232	46	4548
2026-01-02 09:44:11.08	141.15	39.44	-38.0	-39.8	16.0	0.00e+00	0	56	0	744488960	46	4706
2026-01-02 09:44:12.09	141.02	39.69	-38.0	-39.7	16.0	0.00e+00	0	56	0	747634688	46	4680
2026-01-02 09:44:13.10	140.88	39.94	-38.1	-39.8	15.9	0.00e+00	0	56	0	750780416	46	4751
2026-01-02 09:44:14.11	140.74	40.20	-38.0	-39.8	15.9	0.00e+00	0	56	0	753926144	46	4715
2026-01-02 09:44:15.12	140.59	40.45	-38.0	-39.7	16.0	0.00e+00	0	56	0	757071872	46	4705
2026-01-02 09:44:16.13	140.45	40.71	-37.9	-39.6	16.1	0.00e+00	0	56	0	760217600	46	4648
2026-01-02 09:44:17.14	140.30	40.97	-37.6	-39.2	16.5	0.00e+00	0	56	0	763363328	46	4419
2026-01-02 09:44:18.15	140.15	41.23	-37.4	-39.0	16.8	0.00e+00	0	56	0	766509056	46	4304
2026-01-02 09:44:19.16	140.00	41.49	-37.6	-39.2	16.6	0.00e+00	0	56	0	769654784	46	4401
2026-01-02 09:44:20.17	139.84	41.76	-37.5	-39.1	16.7	0.00e+00	0	56	0	772800512	46	4353
2026-01-02 09:44:21.18	139.68	42.03	-37.5	-39.1	16.6	0.00e+00	0	56	0	775946240	46	4389
2026-01-02 09:44:22.20	139.52	42.30	-37.5	-39.1	16.6	0.00e+00	0	56	0	779091968	46	4374
2026-01-02 09:44:23.21	139.36	42.57	-37.5	-39.1	16.7	0.00e+00	0	56	0	782237696	46	4386
2026-01-02 09:44:24.22	139.19	42.84	-37.5	-39.1	16.6	0.00e+00	0	56	0	785383424	46	4359
2026-01-02 09:44:25.23	139.02	43.11	-37.5	-39.0	16.6	0.00e+00	0	56	0	788529152	46	4340
2026-01-02 09:44:26.24	138.85	43.38	-37.7	-39.3	16.3	0.00e+00	0	56	0	791674880	46	4469
2026-01-02 09:44:27.25	138.68	43.66	-38.0	-39.7	16.0	0.00e+00	0	56	0	794820608	46	4704
2026-01-02 09:44:28.26	138.50	43.94	-38.1	-39.8	15.9	0.00e+00	0	56	0	797966336	46	4742
2026-01-02 09:44:29.27	138.32	44.22	-38.3	-40.2	15.6	7.00e-07	0	56	0	801112064	47	4659
2026-01-02 09:44:30.28	138.13	44.50	-38.6	-40.4	15.3	0.00e+00	0	56	0	804257792	47	4796
2026-01-02 09:44:31.29	137.94	44.78	-38.6	-40.5	15.3	0.00e+00	0	56	0	807403520	47	4832
2026-01-02 09:44:32.30	137.75	45.07	-38.8	-40.7	15.2	0.00e+00	0	56	0	810549248	48	4675
2026-01-02 09:44:33.31	137.56	45.35	-38.9	-40.8	15.1	0.00e+00	0	56	0	813694976	48	4707
2026-01-02 09:44:34.32	137.36	45.64	-38.5	-40.3	15.5	0.00e+00	0	56	0	816840704	48	4478
2026-01-02 09:44:35.33	137.16	45.93	-38.3	-40.0	15.8	0.00e+00	0	56	0	819986432	48	4335
2026-01-02 09:44:36.34	136.95	46.22	-38.0	-39.6	16.1	0.00e+00	0	56	0	823132160	48	4143
2026-01-02 09:44:37.35	136.74	46.52	-38.0	-39.6	16.1	0.00e+00	0	56	0	826277888	48	4125
2026-01-02 09:44:38.36	136.53	46.81	-37.9	-39.5	16.2	0.00e+00	0	56	0	829423616	47	4330
2026-01-02 09:44:39.37	136.31	47.11	-37.7	-39.3	16.4	0.00e+00	0	56	0	832569344	47	4237
2026-01-02 09:44:40.38	136.09	47.41	-38.0	-39.7	16.1	0.00e+00	0	56	0	835715072	47	4404
2026-01-02 09:44:41.39	135.86	47.70	-38.1	-39.8	15.9	0.00e+00	0	56	0	838860800	47	4475
2026-01-02 09:44:42.40	135.63	48.01	-38.0	-39.7	16.0	0.00e+00	0	56	0	842006528	47	4429
2026-01-02 09:44:43.41	135.39	48.31	-37.9	-39.6	16.1	0.00e+00	0	56	0	845152256	47	4369
2026-01-02 09:44:44.42	135.15	48.61	-37.7	-39.4	16.3	0.00e+00	0	56	0	848297984	47	4255
2026-01-02 09:44:45.43	134.91	48.92	-37.6	-39.3	16.5	0.00e+00	0	56	0	852492288	47	4198
2026-01-02 09:44:46.44	134.66	49.23	-37.9	-39.5	16.2	0.00e+00	0	56	0	854589440	47	4329
2026-01-02 09:44:47.45	134.40	49.53	-37.9	-39.6	16.1	0.00e+00	0	56	0	857735168	47	4379
2026-01-02 09:44:48.46	134.14	49.85	-37.9	-39.6	16.2	0.00e+00	0	56	0	860880896	47	4347
2026-01-02 09:44:49.47	133.87	50.16	-37.5	-39.1	16.6	0.00e+00	0	56	0	864026624	47	4133
2026-01-02 09:44:50.48	133.60	50.47	-37.2	-38.7	17.1	0.00e+00	0	56	0	868220928	46	4158
2026-01-02 09:44:51.49	133.32	50.78	-37.2	-38.8	17.0	0.00e+00	0	56	0	871366656	46	4198
2026-01-02 09:44:52.50	133.04	51.10	-37.2	-38.7	17.1	0.00e+00	0	56	0	874512384	46	4168
2026-01-02 09:44:53.52	132.75	51.42	-37.2	-38.8	16.9	0.00e+00	0	56	0	877658112	46	4194
2026-01-02 09:44:54.52	132.45	51.74	-37.4	-39.0	16.7	0.00e+00	0	56	0	880803840	46	4296
2026-01-02 09:44:55.53	132.15	52.06	-37.3	-38.8	16.8	0.00e+00	0	56	0	883949568	46	4230
2026-01-02 09:44:56.54	131.84	52.38	-37.0	-38.5	17.2	0.00e+00	0	56	0	887095296	46	4086
2026-01-02 09:44:57.55	131.53	52.70	-36.7	-38.2	17.5	0.00e+00	0	56	0	890241024	45	4160
2026-01-02 09:44:58.57	131.20	53.03	-36.5	-37.9	17.7	0.00e+00	0	56	0	893386752	45	4049
2026-01-02 09:44:59.57	130.87	53.35	-36.3	-37.7	17.9	0.00e+00	0	56	0	896532480	44	4172
2026-01-02 09:45:00.58	130.54	53.68	-36.4	-37.8	17.8	0.00e+00	0	56	0	899678208	44	4215
2026-01-02 09:45:01.59	130.19	54.00	-36.8	-38.2	17.5	0.00e+00	0	56	0	902823936	44	4426
2026-01-02 09:45:02.60	129.84	54.33	-37.0	-38.5	17.2	0.00e+00	0	56	0	905969664	44	4578
2026-01-02 09:45:03.61	129.48	54.66	-37.0	-38.6	17.1	0.00e+00	0	56	0	909115392	44	4610
2026-01-02 09:45:04.62	129.10	54.99	-36.9	-38.3	17.3	0.00e+00	0	56	0	912261120	44	4488
2026-01-02 09:45:05.63	128.73	55.32	-36.5	-37.9	17.8	0.00e+00	0	56	0	915406848	44	4246
2026-01-02 09:45:06.64	128.34	55.65	-36.3	-37.7	17.9	0.00e+00	0	56	0	918552576	44	4188
2026-01-02 09:45:07.65	127.94	55.98	-36.3	-37.7	18.0	0.00e+00	0	56	0	921698304	44	4149
2026-01-02 09:45:08.66	127.53	56.32	-36.5	-37.9	17.8	0.00e+00	0	56	0	924844032	44	4266
2026-01-02 09:45:09.67	127.12	56.65	-36.6	-38.1	17.5	0.00e+00	0	56	0	927989760	44	4356
2026-01-02 09:45:10.68	126.69	56.98	-36.5	-37.9	17.7	0.00e+00	0	56	0	931135488	44	4276
2026-01-02 09:45:11.68	126.25	57.31	-36.4	-37.8	17.9	0.00e+00	0	56	0	934281216	44	4202
2026-01-02 09:45:12.69	125.81	57.65	-36.1	-37.5	18.1	0.00e+00	0	56	0	937426944	44	4081
2026-01-02 09:45:13.70	125.35	57.98	-35.7	-37.0	18.4	0.00e+00	0	56	0	940572672	43	4082
2026-01-02 09:45:14.71	124.87	58.32	-35.7	-37.0	18.4	0.00e+00	0	56	0	943718400	43	4090
2026-01-02 09:45:15.73	124.39	58.66	-36.1	-37.5	18.0	0.00e+00	0	56	0	946864128	43	4307
2026-01-02 09:45:16.73	123.89	58.99	-36.0	-37.4	18.1	0.00e+00	0	56	0	950009856	43	4250
2026-01-02 09:45:17.74	123.39	59.32	-35.9	-37.2	18.3	0.00e+00	0	56	0	953155584	43	4176
2026-01-02 09:45:18.75	122.86	59.66	-35.8	-37.2	18.2	0.00e+00	0	56	0	956301312	43	4168
2026-01-02 09:45:19.76	122.33	59.99	-35.6	-36.9	18.5	0.00e+00	0	56	0	959447040	43	4010
2026-01-02 09:45:20.77	121.78	60.32	-35.5	-36.8	18.7	0.00e+00	0	56	0	962592768	42	4218
2026-01-02 09:45:21.78	121.21	60.66	-35.4	-36.7	18.7	0.00e+00	0	56	0	965738496	42	4163
2026-01-02 09:45:22.79	120.63	60.99	-35.3	-36.6	18.8	0.00e+00	0	56	0	968884224	42	4130
2026-01-02 09:45:23.80	120.04	61.32	-34.9	-36.2	19.2	0.00e+00	0	56	0	972029952	41	4150
2026-01-02 09:45:24.81	119.43	61.65	-34.8	-36.0	19.3	0.00e+00	0	56	0	975175680	41	4089
2026-01-02 09:45:25.82	118.80	61.98	-34.9	-36.1	19.2	0.00e+00	0	56	0	978321408	41	4144
2026-01-02 09:45:26.83	118.15	62.30	-35.0	-36.2	19.2	0.00e+00	0	56	0	981467136	41	4173
2026-01-02 09:45:27.84	117.49	62.63	-34.8	-36.0	19.4	0.00e+00	0	56	0	984612864	41	4057
2026-01-02 09:45:28.85	116.81	62.95	-34.3	-35.4	19.8	0.00e+00	0	56	0	987758592	40	4042
2026-01-02 09:45:29.86	116.11	63.27	-34.3	-35.5	19.7	0.00e+00	0	56	0	990904320	40	4055
2026-01-02 09:45:30.87	115.39	63.59	-34.5	-35.7	19.6	0.00e+00	0	56	0	994050048	40	4168
2026-01-02 09:45:31.88	114.65	63.91	-34.5	-35.7	19.6	0.00e+00	0	56	0	997195776	40	4189
2026-01-02 09:45:32.89	113.89	64.22	-34.6	-35.8	19.5	0.00e+00	0	56	0	1000341504	40	4214
2026-01-02 09:45:33.90	113.11	64.53	-34.5	-35.7	19.6	0.00e+00	0	56	0	1003487232	40	4169
2026-01-02 09:45:34.91	112.31	64.84	-34.6	-35.8	19.5	0.00e+00	0	56	0	1006632960	40	4213
2026-01-02 09:45:35.92	111.49	65.15	-34.5	-35.6	19.7	0.00e+00	0	56	0	1009778688	40	4144
2026-01-02 09:45:36.93	110.64	65.45	-34.5	-35.6	19.7	0.00e+00	0	56	0	1012924416	40	4139
2026-01-02 09:45:37.94	109.78	65.74	-34.5	-35.7	19.6	0.00e+00	0	56	0	1016070144	40	4185
2026-01-02 09:45:38.95	108.88	66.04	-34.7	-35.8	19.4	0.00e+00	0	56	0	1019215872	40	4240
2026-01-02 09:45:39.96	107.97	66.33	-34.7	-35.9	19.4	0.00e+00	0	56	0	1022361600	40	4284
2026-01-02 09:45:40.97	107.02	66.61	-34.6	-35.8	19.5	0.00e+00	0	56	0	1025507328	40	4231
2026-01-02 09:45:41.98	106.06	66.89	-34.3	-35.4	19.8	0.00e+00	0	56	0	1028653056	40	4040
2026-01-02 09:45:42.99	105.06	67.16	-34.4	-35.5	19.7	0.00e+00	0	56	0	1031798784	40	4095
2026-01-02 09:45:44.00	104.04	67.43	-34.2	-35.4	19.7	0.00e+00	0	56	0	1034944512	40	4021
2026-01-02 09:45:45.01	103.00	67.69	-34.3	-35.5	19.7	0.00e+00	0	56	0	1038090240	40	4066
2026-01-02 09:45:46.02	101.93	67.95	-34.5	-35.7	19.5	0.00e+00	0	56	0	1041235968	40	4185
2026-01-02 09:45:47.03	100.83	68.20	-34.4	-35.5	19.7	0.00e+00	0	56	0	1044381696	40	4083
2026-01-02 09:45:48.04	99.70	68.44	-34.2	-35.3	19.9	0.00e+00	0	56	0	1047527424	40	3999
2026-01-02 09:45:49.05	98.55	68.67	-34.2	-35.3	20.0	0.00e+00	0	56	0	1050673152	40	3986
2026-01-02 09:45:50.06	97.37	68.90	-34.0	-35.1	20.2	0.00e+00	0	56	0	1053818880	39	4115
2026-01-02 09:45:51.07	96.16	69.12	-33.9	-35.0	20.3	0.00e+00	0	56	0	1056964608	39	4070
2026-01-02 09:45:52.08	94.92	69.33	-34.2	-35.3	20.0	0.00e+00	0	56	0	1060110336	39	4232
2026-01-02 09:45:53.09	93.66	69.53	-34.4	-35.5	19.7	0.00e+00	0	56	0	1063256064	39	4337
2026-01-02 09:45:54.10	92.37	69.73	-34.4	-35.6	19.7	0.00e+00	0	56	0	1066401792	39	4371
2026-01-02 09:45:55.11	91.06	69.91	-34.1	-35.2	20.1	0.00e+00	0	56	0	1069547520	39	4184
2026-01-02 09:45:56.12	89.71	70.09	-34.2	-35.3	19.9	0.00e+00	0	56	0	1072693248	39	4216
2026-01-02 09:45:57.13	88.35	70.25	-34.6	-35.8	19.5	0.00e+00	0	56	0	1075838976	39	4479
2026-01-02 09:45:58.14	86.96	70.40	-34.6	-35.8	19.5	0.00e+00	0	56	0	1078984704	40	4209
2026-01-02 09:45:59.15	85.55	70.55	-34.6	-35.8	19.4	0.00e+00	0	56	0	1082130432	40	4241
2026-01-02 09:46:00.16	84.12	70.68	-34.6	-35.7	19.5	0.00e+00	0	56	0	1085276160	40	4193
2026-01-02 09:46:01.17	82.66	70.80	-34.3	-35.5	19.7	0.00e+00	0	56	0	1088421888	40	4078
2026-01-02 09:46:02.19	81.18	70.91	-34.0	-35.1	20.1	0.00e+00	0	56	0	1091567616	40	3907
2026-01-02 09:46:03.19	79.71	71.00	-34.5	-35.7	19.6	0.00e+00	0	56	0	1094713344	40	4158
2026-01-02 09:46:04.20	78.20	71.09	-35.1	-36.4	18.9	0.00e+00	0	56	0	1097859072	40	4530
2026-01-02 09:46:05.21	76.69	71.16	-34.9	-36.1	19.0	0.00e+00	0	56	0	1101004800	41	4143
2026-01-02 09:46:06.22	75.16	71.22	-34.4	-35.6	19.4	0.00e+00	0	56	0	1104150528	40	4121
2026-01-02 09:46:07.23	73.62	71.27	-34.6	-35.8	19.4	0.00e+00	0	56	0	1107296256	40	4237
2026-01-02 09:46:08.24	72.08	71.30	-35.0	-36.2	19.0	0.00e+00	0	56	0	1110441984	40	4432
2026-01-02 09:46:09.25	70.53	71.32	-35.5	-36.8	18.6	0.00e+00	0	56	0	1113587712	41	4445
2026-01-02 09:46:10.26	68.98	71.33	-35.1	-36.4	18.8	0.00e+00	0	56	0	1116733440	41	4273
2026-01-02 09:46:11.27	67.43	71.32	-35.1	-36.4	18.9	0.00e+00	0	56	0	1119879168	41	4259
2026-01-02 09:46:12.28	65.88	71.31	-34.7	-35.9	19.3	0.00e+00	0	56	0	1123024896	41	4031
2026-01-02 09:46:13.29	64.33	71.28	-34.4	-35.5	19.7	0.00e+00	0	56	0	1126170624	40	4089
2026-01-02 09:46:14.30	62.79	71.23	-34.5	-35.6	19.6	0.00e+00	0	56	0	1129316352	40	4137
2026-01-02 09:46:15.31	61.26	71.18	-35.0	-36.3	19.0	0.00e+00	0	56	0	1132462080	40	4448
2026-01-02 09:46:16.32	59.75	71.11	-35.0	-36.3	18.9	0.00e+00	0	56	0	1135607808	40	4453
2026-01-02 09:46:17.33	58.24	71.03	-34.5	-35.8	19.5	0.00e+00	0	56	0	1138753536	40	4195
2026-01-02 09:46:18.34	56.75	70.93	-34.4	-35.6	19.6	0.00e+00	0	56	0	1141899264	40	4110
2026-01-02 09:46:19.35	55.27	70.83	-34.6	-35.8	19.4	0.00e+00	0	56	0	1145044992	40	4225
2026-01-02 09:46:20.36	53.82	70.71	-34.8	-36.0	19.3	0.00e+00	0	56	0	1148190720	40	4318
2026-01-02 09:46:21.37	52.38	70.58	-35.0	-36.2	19.1	0.00e+00	0	56	0	1151336448	40	4414
2026-01-02 09:46:22.38	50.96	70.44	-35.2	-36.5	18.9	0.00e+00	0	56	0	1154482176	40	4553
2026-01-02 09:46:23.39	49.57	70.29	-34.6	-35.8	19.5	0.00e+00	0	56	0	1157627904	40	4199
2026-01-02 09:46:24.40	48.20	70.13	-34.0	-35.2	20.1	0.00e+00	0	56	0	1160773632	40	3922
2026-01-02 09:46:25.41	46.85	69.96	-33.8	-34.9	20.4	0.00e+00	0	56	0	1163919360	39	4038
2026-01-02 09:46:26.42	45.53	69.78	-34.4	-35.6	19.8	0.00e+00	0	56	0	1167065088	39	4357
2026-01-02 09:46:27.43	44.23	69.59	-34.7	-35.9	19.3	0.00e+00	0	56	0	1171259392	40	4264
2026-01-02 09:46:28.44	42.97	69.39	-34.6	-35.8	19.3	0.00e+00	0	56	0	1173356544	40	4229
2026-01-02 09:46:29.45	41.72	69.18	-34.3	-35.5	19.7	0.00e+00	0	56	0	1176502272	40	4068
2026-01-02 09:46:30.46	40.51	68.97	-34.4	-35.5	19.8	0.00e+00	0	57	0	1179648000	40	4087
2026-01-02 09:46:31.47	39.32	68.74	-34.4	-35.5	19.7	0.00e+00	0	56	0	1182793728	40	4085
2026-01-02 09:46:32.48	38.16	68.51	-34.6	-35.8	19.5	0.00e+00	0	56	0	1186988032	40	4236
2026-01-02 09:46:33.49	37.03	68.27	-35.3	-36.6	18.8	0.00e+00	0	56	0	1190133760	41	4387
2026-01-02 09:46:34.50	35.92	68.02	-35.3	-36.6	18.7	0.00e+00	0	56	0	1193279488	41	4373
2026-01-02 09:46:35.51	34.84	67.77	-34.4	-35.6	19.5	0.00e+00	0	56	0	1195376640	40	4120
2026-01-02 09:46:36.52	33.79	67.51	-34.1	-35.2	19.9	0.00e+00	0	56	0	1198522368	40	3952
2026-01-02 09:46:37.53	32.77	67.24	-34.5	-35.7	19.5	0.00e+00	0	56	0	1202716672	40	4183
2026-01-02 09:46:38.54	31.77	66.97	-35.5	-36.8	18.6	0.00e+00	0	56	0	1205862400	41	4472
2026-01-02 09:46:39.55	30.79	66.70	-36.1	-37.6	17.9	0.00e+00	0	56	0	1209008128	42	4620
2026-01-02 09:46:40.56	29.85	66.41	-35.3	-36.6	18.8	0.00e+00	0	56	0	1212153856	42	4121
2026-01-02 09:46:41.57	28.92	66.13	-34.3	-35.5	19.8	0.00e+00	0	56	0	1215299584	40	4055
2026-01-02 09:46:42.58	28.03	65.84	-34.0	-35.2	20.1	0.00e+00	0	56	0	1218445312	40	3918
2026-01-02 09:46:43.59	27.15	65.54	-34.4	-35.6	19.7	0.00e+00	0	56	0	1221591040	40	4113
2026-01-02 09:46:44.60	26.30	65.24	-35.1	-36.4	18.9	0.00e+00	0	56	0	1224736768	40	4503
2026-01-02 09:46:45.60	25.48	64.94	-35.8	-37.1	18.2	0.00e+00	0	56	0	1227882496	42	4383
2026-01-02 09:46:46.61	24.67	64.63	-35.8	-37.2	18.2	0.00e+00	0	56	0	1231028224	42	4412
2026-01-02 09:46:47.62	23.89	64.33	-35.1	-36.4	18.9	0.00e+00	0	56	0	1234173952	42	4029
2026-01-02 09:46:48.63	23.12	64.01	-34.6	-35.8	19.5	0.00e+00	0	57	0	1237319680	41	3994
2026-01-02 09:46:49.64	22.38	63.70	-34.4	-35.6	19.7	0.00e+00	0	56	0	1240465408	40	4110
2026-01-02 09:46:50.65	21.66	63.38	-34.9	-36.1	19.2	0.00e+00	0	56	0	1243611136	40	4383
2026-01-02 09:46:51.66	20.95	63.06	-35.9	-37.3	18.2	0.00e+00	0	56	0	1246756864	42	4455
2026-01-02 09:46:52.67	20.27	62.74	-36.2	-37.6	17.9	0.00e+00	0	56	0	1249902592	42	4608
2026-01-02 09:46:53.68	19.60	62.42	-35.8	-37.1	18.2	0.00e+00	0	56	0	1253048320	42	4363
2026-01-02 09:46:54.69	18.95	62.09	-35.2	-36.4	19.0	0.00e+00	0	56	0	1256194048	42	4022
2026-01-02 09:46:55.70	18.32	61.76	-34.9	-36.1	19.2	0.00e+00	0	57	0	1259339776	41	4122
2026-01-02 09:46:56.71	17.71	61.44	-35.3	-36.5	18.8	0.00e+00	0	57	0	1262485504	41	4321
2026-01-02 09:46:57.72	17.11	61.11	-35.9	-37.2	18.2	0.00e+00	0	57	0	1265631232	42	4436
2026-01-02 09:46:58.73	16.52	60.78	-36.4	-37.8	17.6	0.00e+00	0	57	0	1268776960	43	4479
2026-01-02 09:46:59.74	15.95	60.44	-36.6	-38.0	17.5	0.00e+00	0	56	0	1271922688	43	4570
2026-01-02 09:47:00.75	15.40	60.11	-35.9	-37.2	18.3	0.00e+00	0	56	0	1275068416	43	4170
2026-01-02 09:47:01.76	14.86	59.78	-35.6	-36.9	18.6	0.00e+00	0	57	0	1278214144	43	4016
2026-01-02 09:47:02.77	14.34	59.45	-35.2	-36.4	19.1	0.00e+00	0	56	0	1281359872	42	4016
2026-01-02 09:47:03.78	13.82	59.11	-34.7	-35.9	19.5	0.00e+00	0	57	0	1284505600	41	4013
2026-01-02 09:47:04.79	13.33	58.78	-35.2	-36.4	19.0	0.00e+00	0	57	0	1287651328	41	4281
2026-01-02 09:47:05.80	12.84	58.45	-36.1	-37.4	18.0	0.00e+00	0	57	0	1290797056	42	4543
2026-01-02 09:47:06.81	12.36	58.11	-36.6	-38.1	17.5	0.00e+00	0	57	0	1293942784	43	4601
2026-01-02 09:47:07.82	11.90	57.78	-36.1	-37.4	17.9	0.00e+00	0	57	0	1297088512	43	4276
2026-01-02 09:47:08.83	11.45	57.45	-35.5	-36.7	18.3	0.00e+00	0	56	0	1300234240	43	3952
2026-01-02 09:47:09.84	11.01	57.11	-35.4	-36.7	18.7	0.00e+00	0	57	0	1303379968	42	4168
2026-01-02 09:47:10.85	10.58	56.78	-35.2	-36.4	19.0	0.00e+00	0	57	0	1306525696	42	4041
2026-01-02 09:47:11.86	10.16	56.45	-35.8	-37.1	18.4	0.00e+00	0	56	0	1309671424	42	4364
2026-01-02 09:47:12.87	9.75	56.12	-36.1	-37.4	18.0	0.00e+00	0	56	0	1312817152	42	4532
2026-01-02 09:47:13.88	9.35	55.79	-36.1	-37.4	18.1	0.00e+00	0	57	0	1315962880	43	4271
2026-01-02 09:47:14.89	8.96	55.46	-36.4	-37.8	17.7	0.00e+00	0	57	0	1319108608	43	4457
2026-01-02 09:47:15.90	8.58	55.13	-37.7	-39.2	16.9	0.00e+00	0	56	0	1322254336	45	4679
2026-01-02 09:47:16.91	8.21	54.80	-37.6	-39.2	16.4	0.00e+00	0	57	0	1325400064	45	4705
2026-01-02 09:47:17.93	7.84	54.47	-37.4	-39.0	16.6	0.00e+00	0	56	0	1328545792	45	4565
2026-01-02 09:47:18.94	7.49	54.14	-36.9	-38.4	17.3	0.00e+00	0	56	0	1331691520	45	4262
2026-01-02 09:47:19.95	7.14	53.81	-36.7	-38.1	17.5	0.00e+00	0	56	0	1334837248	45	4145
2026-01-02 09:47:20.96	6.80	53.49	-36.9	-38.4	17.3	0.00e+00	0	57	0	1337982976	45	4284
2026-01-02 09:47:21.97	6.47	53.16	-37.4	-39.0	16.7	0.00e+00	0	57	0	1341128704	45	4587
2026-01-02 09:47:22.98	6.14	52.84	-38.1	-39.8	15.9	0.00e+00	0	56	0	1344274432	46	4736
2026-01-02 09:47:23.99	5.83	52.52	-37.9	-39.5	16.2	0.00e+00	0	57	0	1347420160	46	4598
2026-01-02 09:47:25.00	5.52	52.20	-37.4	-39.0	16.8	0.00e+00	0	57	0	1350565888	46	4292
2026-01-02 09:47:26.01	5.21	51.88	-37.2	-38.7	17.1	0.00e+00	0	57	0	1353711616	46	4151
2026-01-02 09:47:27.02	4.91	51.56	-37.2	-38.7	17.0	0.00e+00	0	57	0	1356857344	46	4152
2026-01-02 09:47:28.03	4.62	51.24	-37.0	-38.4	17.3	0.00e+00	0	57	0	1360003072	45	4288
2026-01-02 09:47:29.04	4.34	50.93	-36.6	-38.0	17.6	0.00e+00	0	56	0	1363148800	45	4093
2026-01-02 09:47:30.05	4.06	50.62	-36.6	-38.0	17.7	0.00e+00	0	57	0	1366294528	44	4314
2026-01-02 09:47:31.06	3.79	50.30	-37.1	-38.6	17.1	0.00e+00	0	57	0	1369440256	44	4628
2026-01-02 09:47:32.07	3.52	49.99	-37.8	-39.5	16.2	0.00e+00	0	57	0	1372585984	46	4556
2026-01-02 09:47:33.08	3.26	49.68	-38.4	-40.2	15.4	0.00e+00	0	57	0	1375731712	47	4702
2026-01-02 09:47:34.09	3.00	49.37	-39.0	-41.0	14.9	0.00e+00	0	57	0	1378877440	48	4822
2026-01-02 09:47:35.10	2.75	49.07	-39.2	-41.2	14.5	2.20e-06	0	57	0	1382023168	49	4690
2026-01-02 09:47:36.11	2.51	48.76	-39.0	-40.9	14.8	0.00e+00	0	57	0	1385168896	49	4534
2026-01-02 09:47:37.12	2.26	48.46	-38.7	-40.5	15.3	0.00e+00	0	57	0	1388314624	49	4313
2026-01-02 09:47:38.13	2.03	48.16	-38.3	-40.0	15.8	0.00e+00	0	57	0	1391460352	48	4319
2026-01-02 09:47:39.14	1.80	47.86	-38.2	-39.9	15.8	0.00e+00	0	57	0	1394606080	48	4283
2026-01-02 09:47:40.15	1.57	47.56	-38.1	-39.7	16.1	0.00e+00	0	57	0	1397751808	48	4189
2026-01-02 09:47:41.16	1.34	47.26	-37.6	-39.2	16.5	0.00e+00	0	57	0	1400897536	47	4176
2026-01-02 09:47:42.17	1.13	46.97	-37.1	-38.6	17.1	0.00e+00	0	57	0	1404043264	46	4101
2026-01-02 09:47:43.18	0.91	46.67	-37.0	-38.4	17.2	0.00e+00	0	57	0	1407188992	45	4270
2026-01-02 09:47:44.19	0.70	46.38	-37.1	-38.6	17.1	0.00e+00	0	57	0	1410334720	45	4346
2026-01-02 09:47:45.20	0.49	46.09	-37.3	-38.9	16.7	0.00e+00	0	57	0	1413480448	45	4516
2026-01-02 09:47:46.21	0.29	45.80	-37.8	-39.4	16.2	0.00e+00	0	57	0	1416626176	46	4539
2026-01-02 09:47:47.23	0.09	45.51	-38.4	-40.2	15.5	0.00e+00	0	57	0	1419771904	47	4661
2026-01-02 09:47:48.24	359.89	45.22	-38.8	-40.7	15.1	0.00e+00	0	57	0	1422917632	48	4694
2026-01-02 09:47:49.25	359.70	44.94	-38.8	-40.7	15.0	7.00e-07	0	57	0	1426063360	48	4692
2026-01-02 09:47:50.26	359.51	44.66	-38.6	-40.4	15.1	0.00e+00	0	57	0	1429209088	48	4524
2026-01-02 09:47:51.27	359.33	44.38	-38.3	-40.0	15.4	0.00e+00	0	57	0	1432354816	48	4317
2026-01-02 09:47:52.28	359.15	44.10	-38.2	-39.9	15.6	0.00e+00	0	56	0	1435500544	48	4283
2026-01-02 09:47:53.29	358.97	43.82	-38.3	-40.0	15.6	0.00e+00	0	56	0	1438646272	48	4334
2026-01-02 09:47:54.30	358.79	43.54	-38.7	-40.5	15.2	0.00e+00	0	57	0	1441792000	48	4575
2026-01-02 09:47:55.31	358.62	43.27	-38.6	-40.5	15.3	0.00e+00	0	57	0	1444937728	48	4548
2026-01-02 09:47:56.32	358.45	43.00	-38.3	-40.0	15.7	0.00e+00	0	57	0	1448083456	48	4328
2026-01-02 09:47:57.33	358.29	42.73	-38.3	-40.1	15.7	0.00e+00	0	57	0	1451229184	48	4344
2026-01-02 09:47:58.34	358.12	42.46	-38.4	-40.1	15.7	0.00e+00	0	57	0	1454374912	48	4379
2026-01-02 09:47:59.35	357.96	42.19	-38.1	-39.8	16.0	0.00e+00	0	57	0	1457520640	48	4219
2026-01-02 09:48:00.36	357.80	41.93	-37.7	-39.3	16.4	0.00e+00	0	57	0	1460666368	47	4202
2026-01-02 09:48:01.37	357.65	41.66	-37.5	-39.1	16.6	0.00e+00	0	57	0	1463812096	47	4135
2026-01-02 09:48:02.38	357.49	41.40	-37.7	-39.4	16.3	0.00e+00	0	57	0	1466957824	47	4252
2026-01-02 09:48:03.39	357.34	41.14	-38.0	-39.7	16.0	0.00e+00	0	57	0	1470103552	47	4441
2026-01-02 09:48:04.40	357.19	40.88	-38.3	-40.2	15.5	0.00e+00	0	57	0	1473249280	47	4659
2026-01-02 09:48:05.41	357.05	40.62	-38.5	-40.3	15.4	0.00e+00	0	57	0	1476395008	47	4757
2026-01-02 09:48:06.42	356.91	40.37	-38.5	-40.4	15.3	0.00e+00	0	56	0	1479540736	47	4782
2026-01-02 09:48:07.43	356.76	40.11	-38.4	-40.3	15.3	0.00e+00	0	57	0	1483735040	47	4727
2026-01-02 09:48:08.44	356.63	39.86	-38.2	-40.0	15.5	0.00e+00	0	57	0	1486880768	47	4588
2026-01-02 09:48:09.44	356.49	39.61	-38.0	-39.7	15.8	0.00e+00	0	57	0	1488977920	47	4428
2026-01-02 09:48:10.45	356.36	39.36	-37.8	-39.5	16.1	0.00e+00	0	57	0	1492123648	47	4302
2026-01-02 09:48:11.46	356.22	39.12	-37.7	-39.4	16.2	0.00e+00	0	57	0	1495269376	47	4261
2026-01-02 09:48:12.47	356.09	38.87	-37.7	-39.3	16.3	0.00e+00	0	57	0	1498415104	47	4223
2026-01-02 09:48:13.48	355.97	38.63	-37.7	-39.3	16.3	0.00e+00	0	57	0	1502609408	47	4238
2026-01-02 09:48:14.49	355.84	38.38	-37.8	-39.4	16.2	0.00e+00	0	57	0	1505755136	47	4268
2026-01-02 09:48:15.50	355.71	38.14	-37.7	-39.4	16.3	0.00e+00	0	57	0	1508900864	47	4255
2026-01-02 09:48:16.51	355.59	37.90	-37.6	-39.3	16.4	0.00e+00	0	57	0	1510998016	47	4194
2026-01-02 09:48:17.52	355.47	37.66	-37.3	-38.9	16.8	0.00e+00	0	57	0	1514143744	46	4244
2026-01-02 09:48:18.53	355.35	37.43	-37.0	-38.5	17.2	0.00e+00	0	57	0	1518338048	46	4061
2026-01-02 09:48:19.54	355.24	37.19	-36.8	-38.2	17.4	0.00e+00	0	57	0	1521483776	45	4171
2026-01-02 09:48:20.55	355.12	36.96	-36.6	-38.0	17.6	0.00e+00	0	57	0	1524629504	45	4091
2026-01-02 09:48:21.56	355.01	36.73	-36.5	-37.9	17.7	0.00e+00	0	57	0	1527775232	45	4034
2026-01-02 09:48:22.57	354.89	36.50	-36.4	-37.8	17.8	0.00e+00	0	57	0	1530920960	44	4218
2026-01-02 09:48:23.59	354.78	36.26	-36.5	-37.9	17.7	0.00e+00	0	57	0	1534066688	44	4269
2026-01-02 09:48:24.60	354.67	36.04	-36.8	-38.2	17.4	0.00e+00	0	57	0	1537212416	44	4429
2026-01-02 09:48:25.60	354.57	35.81	-37.1	-38.6	17.1	0.00e+00	0	57	0	1540358144	44	4618
2026-01-02 09:48:26.61	354.46	35.59	-37.3	-38.9	16.8	0.00e+00	0	57	0	1543503872	45	4494
2026-01-02 09:48:27.62	354.36	35.37	-37.4	-39.0	16.6	0.00e+00	0	57	0	1546649600	45	4577
2026-01-02 09:48:28.63	354.25	35.14	-37.4	-39.0	16.6	0.00e+00	0	57	0	1549795328	45	4571
2026-01-02 09:48:29.64	354.15	34.92	-37.4	-39.0	16.7	0.00e+00	0	57	0	1552941056	45	4557
2026-01-02 09:48:30.65	354.05	34.70	-37.3	-38.9	16.8	0.00e+00	0	57	0	1556086784	45	4503
2026-01-02 09:48:31.66	353.95	34.49	-37.2	-38.8	16.8	0.00e+00	0	57	0	1559232512	45	4467
2026-01-02 09:48:32.67	353.86	34.27	-37.1	-38.7	16.9	0.00e+00	0	57	0	1562378240	45	4393
2026-01-02 09:48:33.68	353.76	34.06	-36.9	-38.4	17.2	0.00e+00	0	57	0	1565523968	45	4257
2026-01-02 09:48:34.69	353.67	33.84	-36.8	-38.2	17.4	0.00e+00	0	57	0	1568669696	45	4183
2026-01-02 09:48:35.70	353.57	33.63	-36.7	-38.2	17.4	0.00e+00	0	57	0	1571815424	45	4168
2026-01-02 09:48:36.71	353.48	33.42	-36.7	-38.1	17.5	0.00e+00	0	57	0	1574961152	45	4127
2026-01-02 09:48:37.72	353.39	33.21	-36.8	-38.2	17.3	0.00e+00	0	57	0	1578106880	45	4179
2026-01-02 09:48:38.73	353.30	33.00	-36.8	-38.3	17.2	0.00e+00	0	57	0	1581252608	45	4225
2026-01-02 09:48:39.74	353.21	32.80	-36.8	-38.3	17.3	0.00e+00	0	57	0	1584398336	45	4213
2026-01-02 09:48:40.75	353.12	32.59	-36.8	-38.3	17.3	0.00e+00	0	57	0	1587544064	45	4233
2026-01-02 09:48:41.76	353.04	32.39	-36.8	-38.3	17.3	0.00e+00	0	57	0	1590689792	45	4241
2026-01-02 09:48:42.77	352.95	32.19	-36.8	-38.4	17.2	0.00e+00	0	57	0	1593835520	45	4245
2026-01-02 09:48:43.78	352.87	31.99	-36.8	-38.3	17.2	0.00e+00	0	57	0	1596981248	45	4226
2026-01-02 09:48:44.79	352.79	31.79	-36.9	-38.4	17.1	0.00e+00	0	57	0	1600126976	45	4272
2026-01-02 09:48:45.80	352.70	31.59	-36.9	-38.4	17.2	0.00e+00	0	57	0	1603272704	45	4266
2026-01-02 09:48:46.81	352.62	31.39	-36.8	-38.3	17.2	0.00e+00	0	57	0	1606418432	45	4210
2026-01-02 09:48:47.82	352.54	31.19	-36.6	-38.0	17.5	0.00e+00	0	57	0	1609564160	45	4092
2026-01-02 09:48:48.83	352.46	31.00	-36.4	-37.8	17.7	0.00e+00	0	57	0	1612709888	44	4208
2026-01-02 09:48:49.84	352.39	30.81	-36.3	-37.7	17.8	0.00e+00	0	57	0	1615855616	44	4152
2026-01-02 09:48:50.85	352.31	30.61	-36.1	-37.5	18.0	0.00e+00	0	57	0	1619001344	44	4056
2026-01-02 09:48:51.86	352.23	30.42	-35.7	-37.0	18.3	0.00e+00	0	57	0	1622147072	43	4078
2026-01-02 09:48:52.87	352.16	30.23	-35.5	-36.8	18.5	0.00e+00	0	57	0	1625292800	43	3962
2026-01-02 09:48:53.88	352.08	30.04	-35.3	-36.6	18.7	0.00e+00	0	56	0	1628438528	42	4101
2026-01-02 09:48:54.89	352.01	29.86	-35.2	-36.4	18.9	0.00e+00	0	57	0	1631584256	42	4031
2026-01-02 09:48:55.90	351.94	29.67	-35.2	-36.4	18.9	0.00e+00	0	57	0	1634729984	42	4027
2026-01-02 09:48:56.91	351.87	29.49	-35.0	-36.2	19.0	0.00e+00	0	56	0	1637875712	42	3948
2026-01-02 09:48:57.93	351.80	29.30	-35.0	-36.2	19.0	0.00e+00	0	57	0	1641021440	42	3955
2026-01-02 09:48:58.94	351.73	29.12	-35.0	-36.3	19.0	0.00e+00	0	57	0	1644167168	42	3963
2026-01-02 09:48:59.95	351.66	28.94	-35.1	-36.4	18.9	0.00e+00	0	57	0	1647312896	42	4022
2026-01-02 09:49:00.96	351.59	28.75	-35.1	-36.4	18.9	0.00e+00	0	57	0	1650458624	42	4021
2026-01-02 09:49:01.96	351.52	28.58	-35.3	-36.5	18.7	0.00e+00	0	57	0	1653604352	42	4090
2026-01-02 09:49:02.98	351.46	28.40	-35.4	-36.6	18.6	0.00e+00	0	57	0	1656750080	42	4131
2026-01-02 09:49:03.98	351.39	28.22	-35.5	-36.8	18.5	0.00e+00	0	57	0	1659895808	42	4196
2026-01-02 09:49:04.99	351.32	28.05	-35.5	-36.8	18.5	0.00e+00	0	57	0	1663041536	42	4222
2026-01-02 09:49:06.00	351.26	27.87	-35.6	-36.9	18.4	0.00e+00	0	57	0	1666187264	42	4247
2026-01-02 09:49:07.01	351.20	27.70	-35.6	-37.0	18.3	0.00e+00	0	57	0	1669332992	42	4298
2026-01-02 09:49:08.02	351.13	27.52	-35.6	-36.9	18.3	0.00e+00	0	57	0	1672478720	42	4288
2026-01-02 09:49:09.03	351.07	27.35	-35.7	-37.0	18.3	0.00e+00	0	57	0	1675624448	42	4310
2026-01-02 09:49:10.04	351.01	27.18	-35.6	-37.0	18.3	0.00e+00	0	57	0	1678770176	42	4300
2026-01-02 09:49:11.05	350.95	27.01	-35.6	-36.9	18.3	0.00e+00	0	57	0	1681915904	42	4269
2026-01-02 09:49:12.06	350.89	26.84	-35.5	-36.8	18.4	0.00e+00	0	57	0	1685061632	42	4226
2026-01-02 09:49:13.07	350.83	26.67	-35.5	-36.9	18.3	0.00e+00	0	57	0	1688207360	42	4245
2026-01-02 09:49:14.08	350.77	26.51	-35.5	-36.8	18.4	0.00e+00	0	57	0	1691353088	42	4226
2026-01-02 09:49:15.09	350.71	26.34	-35.5	-36.8	18.4	0.00e+00	0	57	0	1694498816	42	4209
2026-01-02 09:49:16.10	350.66	26.18	-35.5	-36.8	18.4	0.00e+00	0	57	0	1697644544	42	4223
2026-01-02 09:49:17.11	350.60	26.01	-35.5	-36.9	18.3	0.00e+00	0	57	0	1700790272	42	4259
2026-01-02 09:49:18.13	350.54	25.85	-35.5	-36.9	18.3	0.00e+00	0	57	0	1703936000	42	4255
2026-01-02 09:49:19.13	350.49	25.69	-35.6	-36.9	18.3	0.00e+00	0	57	0	1707081728	42	4263
2026-01-02 09:49:20.15	350.43	25.52	-35.6	-37.0	18.2	0.00e+00	0	57	0	1710227456	42	4312
2026-01-02 09:49:21.16	350.38	25.36	-35.7	-37.0	18.1	0.00e+00	0	57	0	1713373184	42	4331
2026-01-02 09:49:22.17	350.33	25.21	-35.8	-37.2	18.0	0.00e+00	0	57	0	1716518912	42	4399
2026-01-02 09:49:23.18	350.27	25.05	-35.8	-37.2	18.0	0.00e+00	0	57	0	1719664640	42	4416
2026-01-02 09:49:24.19	350.22	24.89	-35.8	-37.2	18.0	0.00e+00	0	57	0	1722810368	42	4426
2026-01-02 09:49:25.20	350.17	24.73	-35.9	-37.3	17.8	0.00e+00	0	57	0	1725956096	42	4480
2026-01-02 09:49:26.21	350.12	24.58	-36.0	-37.4	17.7	0.00e+00	0	57	0	1729101824	42	4506
2026-01-02 09:49:27.21	350.07	24.42	-36.0	-37.4	17.7	0.00e+00	0	57	0	1732247552	42	4523
2026-01-02 09:49:28.22	350.02	24.27	-36.0	-37.5	17.6	0.00e+00	0	57	0	1735393280	42	4547
2026-01-02 09:49:29.23	349.97	24.12	-36.0	-37.5	17.6	0.00e+00	0	57	0	1738539008	42	4565
2026-01-02 09:49:30.24	349.92	23.97	-36.0	-37.5	17.6	0.00e+00	0	57	0	1741684736	42	4565
2026-01-02 09:49:31.25	349.87	23.82	-36.1	-37.6	17.5	0.00e+00	0	57	0	1744830464	42	4613
2026-01-02 09:49:32.26	349.82	23.66	-36.0	-37.5	17.6	0.00e+00	0	57	0	1747976192	42	4562
2026-01-02 09:49:33.27	349.77	23.52	-36.0	-37.4	17.7	0.00e+00	0	57	0	1751121920	42	4525
2026-01-02 09:49:34.28	349.72	23.37	-36.0	-37.4	17.7	0.00e+00	0	57	0	1754267648	42	4523
2026-01-02 09:49:35.29	349.68	23.22	-35.9	-37.3	17.7	0.00e+00	0	57	0	1757413376	42	4475
2026-01-02 09:49:36.30	349.63	23.07	-35.8	-37.3	17.7	0.00e+00	0	57	0	1760559104	42	4455
2026-01-02 09:49:37.31	349.58	22.93	-35.8	-37.2	17.8	0.00e+00	0	57	0	1763704832	42	4429
2026-01-02 09:49:38.32	349.54	22.78	-35.8	-37.2	17.7	0.00e+00	0	57	0	1766850560	42	4420
2026-01-02 09:49:39.33	349.49	22.64	-35.7	-37.1	17.8	0.00e+00	0	57	0	1769996288	42	4373
2026-01-02 09:49:40.34	349.45	22.49	-35.5	-36.9	18.0	0.00e+00	0	57	0	1773142016	42	4256
2026-01-02 09:49:41.35	349.41	22.35	-35.3	-36.6	18.2	0.00e+00	0	57	0	1776287744	42	4131
2026-01-02 09:49:42.36	349.36	22.21	-35.0	-36.4	18.4	0.00e+00	0	57	0	1779433472	42	4008
2026-01-02 09:49:43.37	349.32	22.07	-34.9	-36.2	18.5	0.00e+00	0	57	0	1782579200	41	4159
2026-01-02 09:49:44.38	349.28	21.93	-35.0	-36.3	18.3	0.00e+00	0	57	0	1785724928	41	4217
2026-01-02 09:49:45.38	349.23	21.79	-35.2	-36.7	17.8	0.00e+00	0	57	0	1788870656	41	4395
2026-01-02 09:49:46.39	349.19	21.65	-35.7	-37.2	17.0	0.00e+00	0	57	0	1792016384	41	4687
2026-01-02 09:49:47.40	349.15	21.51	-36.3	-38.1	15.8	0.00e+00	0	57	0	1795162112	43	4626
2026-01-02 09:49:48.41	349.11	21.37	-37.2	-39.3	14.5	0.00e+00	0	57	0	1798307840	44	5023
2026-01-02 09:49:49.42	349.07	21.24	-37.9	-40.6	12.8	2.36e-05	0	57	0	1801453568	46	5180
2026-01-02 09:49:50.43	349.03	21.10	-38.6	-42.0	10.9	1.22e-03	0	57	0	1804599296	47	5757
2026-01-02 09:49:51.44	348.99	20.96	-39.1	-43.4	9.0	1.66e-02	0	57	0	1807745024	48	6399
2026-01-02 09:49:52.45	348.95	20.83	-39.4	-44.9	7.2	9.96e-02	0	57	0	1810890752	49	7152
2026-01-02 09:49:53.46	348.91	20.69	-39.6	-46.3	5.8	2.68e-01	0	57	0	1814036480	49	8421
2026-01-02 09:49:54.47	348.87	20.56	-39.6	-47.8	4.8	6.69e-01	0	57	0	1817182208	49	9954
2026-01-02 09:49:55.48	348.83	20.43	-39.7	-49.7	3.9	1.46e+00	0	57	104	1817182208	49	12469
2026-01-02 09:49:56.49	348.79	20.30	-39.7	-50.3	4.0	1.48e+00	0	57	104	1817182208	49	13282
2026-01-02 09:49:57.50	348.76	20.17	-39.7	-51.3	3.8	1.49e+00	0	57	104	1817182208	49	15029
2026-01-02 09:49:58.51	348.72	20.03	-39.7	-51.3	3.8	1.49e+00	0	57	104	1817182208	50	14116
2026-01-02 09:49:59.51	348.68	19.91	-39.9	-52.4	3.8	1.49e+00	0	57	104	1817182208	50	16026
2026-01-02 09:50:00.52	348.64	19.78	-40.2	-52.6	3.8	1.49e+00	0	57	104	1817182208	51	15510
2026-01-02 09:50:01.53	348.61	19.65	-39.8	-52.3	3.8	1.49e+00	0	57	104	1817182208	51	14905
2026-01-02 09:50:02.54	348.57	19.52	-39.7	-52.4	3.8	1.49e+00	0	57	104	1817182208	51	15065
2026-01-02 09:50:03.55	348.54	19.39	-39.9	-52.1	3.8	1.49e+00	0	57	104	1817182208	51	14541
2026-01-02 09:50:04.56	348.50	19.27	-39.9	-52.2	3.8	1.49e+00	0	57	104	1817182208	51	14787
2026-01-02 09:50:05.57	348.47	19.14	-40.1	-52.3	3.8	1.49e+00	0	57	104	1817182208	51	14913
2026-01-02 09:50:06.58	348.43	19.01	-40.0	-52.4	3.8	1.49e+00	0	57	104	1817182208	51	15221
2026-01-02 09:50:07.59	348.40	18.89	-40.3	-52.8	3.8	1.49e+00	0	57	104	1817182208	51	15770
2026-01-02 09:50:08.60	348.36	18.77	-40.4	-52.9	3.8	1.49e+00	0	57	104	1817182208	52	15068
2026-01-02 09:50:09.61	348.33	18.64	-40.2	-52.7	3.8	1.49e+00	0	57	104	1817182208	52	14779
2026-01-02 09:50:10.62	348.30	18.52	-40.3	-52.8	3.8	1.49e+00	0	57	104	1817182208	52	14887
2026-01-02 09:50:11.63	348.26	18.40	-40.4	-52.9	3.8	1.49e+00	0	57	104	1817182208	52	15078
2026-01-02 09:50:12.64	348.23	18.27	-40.5	-53.0	3.8	1.49e+00	0	57	104	1817182208	52	15290
2026-01-02 09:50:13.65	348.20	18.15	-41.0	-53.4	3.8	1.49e+00	0	57	104	1817182208	52	16027
2026-01-02 09:50:14.66	348.16	18.03	-41.1	-53.5	3.8	1.49e+00	0	57	104	1817182208	52	16250
2026-01-02 09:50:15.67	348.13	17.91	-41.1	-53.6	3.8	1.49e+00	0	57	104	1817182208	53	15441
2026-01-02 09:50:16.68	348.10	17.79	-41.9	-54.3	3.8	1.49e+00	0	57	104	1817182208	54	15846
2026-01-02 09:50:17.69	348.07	17.67	-41.1	-53.5	3.8	1.49e+00	0	57	104	1817182208	54	14513
2026-01-02 09:50:18.70	348.04	17.56	-40.3	-52.7	3.8	1.49e+00	0	57	104	1817182208	52	14867
2026-01-02 09:50:19.71	348.01	17.44	-40.4	-53.0	3.8	1.49e+00	0	57	104	1817182208	52	15231
2026-01-02 09:50:20.72	347.98	17.32	-40.6	-53.1	3.8	1.49e+00	0	57	104	1817182208	52	15495
2026-01-02 09:50:21.73	347.95	17.20	-40.7	-53.2	3.8	1.49e+00	0	57	104	1817182208	52	15697
2026-01-02 09:50:22.74	347.92	17.09	-41.0	-53.4	3.8	1.49e+00	0	57	104	1817182208	52	16121
2026-01-02 09:50:23.75	347.89	16.97	-41.5	-53.9	3.8	1.49e+00	0	57	104	1817182208	54	15083
2026-01-02 09:50:24.76	347.86	16.86	-41.8	-54.3	3.8	1.49e+00	0	57	104	1817182208	54	15786
2026-01-02 09:50:25.77	347.83	16.74	-41.6	-53.9	3.8	1.49e+00	0	57	104	1817182208	54	15148
2026-01-02 09:50:26.78	347.80	16.63	-41.7	-54.1	3.8	1.49e+00	0	57	104	1817182208	54	15492
2026-01-02 09:50:27.79	347.77	16.52	-41.9	-54.2	3.8	1.49e+00	0	57	104	1817182208	54	15742
2026-01-02 09:50:28.80	347.74	16.40	-41.9	-54.3	3.8	1.49e+00	0	57	104	1817182208	54	15782
2026-01-02 09:50:29.81	347.71	16.29	-41.6	-54.0	3.8	1.49e+00	0	57	104	1817182208	54	15238
2026-01-02 09:50:30.82	347.68	16.18	-41.0	-53.6	3.8	1.49e+00	0	57	104	1817182208	54	14641
2026-01-02 09:50:31.83	347.66	16.07	-41.5	-53.9	3.8	1.49e+00	0	57	104	1817182208	54	15078
2026-01-02 09:50:32.84	347.63	15.96	-41.3	-53.9	3.8	1.49e+00	0	57	104	1817182208	54	15066
2026-01-02 09:50:33.85	347.60	15.85	-41.6	-54.0	3.8	1.49e+00	0	57	104	1817182208	54	15231
2026-01-02 09:50:34.86	347.57	15.74	-41.2	-53.8	3.8	1.49e+00	0	57	104	1817182208	54	14931
2026-01-02 09:50:35.87	347.55	15.63	-41.5	-53.8	3.8	1.49e+00	0	57	104	1817182208	54	15026
