passes_logs/2026/01/02/R2.0S_Moscow/R2.0S_Moscow__20260102_125028_FENGYUN_3D_rec.log

#Pass ID: 20260102_125028_FENGYUN 3D
#Satellite: FENGYUN 3D
#Configuration: FENGYUN 3D
#almurnet v.1.7.20251203
#Start time: 2026-01-02 12:50:29

#Version: 2.2.20231116
#Station: R2.0S_Moscow
#Location: 37.707566 lon 55.798166 lat
#TLE: 1 43010U 17072A   26001.96529979  .00000409  00000+0  21503-3 0  9996
#TLE: 2 43010  98.9910 333.5811 0001886 133.0441 227.0893 14.19692048421405

#Time	Az	El	Level	Level2	SNR	BER	BlckErr	Temp	State	Recorded	gain1	gain2
2026-01-02 12:50:29.65	187.16	2.09	-44.0	-55.4	3.8	8.45e-01	0	47	0	0	59	13501
2026-01-02 12:50:30.65	187.21	2.15	-44.0	-55.4	3.8	8.47e-01	0	47	104	0	59	13454
2026-01-02 12:50:31.66	187.25	2.21	-44.0	-55.4	3.8	8.46e-01	0	48	104	0	59	13480
2026-01-02 12:50:32.67	187.30	2.27	-44.0	-55.4	3.8	8.46e-01	0	48	104	0	59	13538
2026-01-02 12:50:33.68	187.34	2.34	-44.0	-55.4	3.8	8.45e-01	0	48	104	0	59	13462
2026-01-02 12:50:34.69	187.39	2.40	-44.0	-55.4	3.8	8.46e-01	0	48	104	0	59	13470
2026-01-02 12:50:35.70	187.43	2.46	-44.0	-55.4	3.8	8.46e-01	0	48	104	0	59	13540
2026-01-02 12:50:36.71	187.48	2.52	-44.0	-55.4	3.8	8.47e-01	0	48	104	0	59	13461
2026-01-02 12:50:37.73	187.52	2.59	-44.0	-55.4	3.8	8.47e-01	0	48	104	0	59	13432
2026-01-02 12:50:38.74	187.57	2.65	-44.0	-55.4	3.8	8.46e-01	0	48	104	0	59	13495
2026-01-02 12:50:39.75	187.61	2.71	-44.0	-55.4	3.8	8.46e-01	0	48	104	0	59	13465
2026-01-02 12:50:40.76	187.66	2.78	-44.0	-55.4	3.8	8.46e-01	0	48	104	0	59	13480
2026-01-02 12:50:41.77	187.71	2.84	-44.0	-55.4	3.8	8.46e-01	0	48	104	0	59	13466
2026-01-02 12:50:42.78	187.75	2.90	-44.0	-55.4	3.8	8.45e-01	0	48	104	0	59	13532
2026-01-02 12:50:43.79	187.80	2.97	-44.0	-55.4	3.8	8.47e-01	0	49	104	0	59	13472
2026-01-02 12:50:44.80	187.84	3.03	-44.0	-55.4	3.8	8.47e-01	0	48	104	0	59	13492
2026-01-02 12:50:45.81	187.89	3.10	-44.0	-55.4	3.8	8.45e-01	0	49	104	0	59	13497
2026-01-02 12:50:46.82	187.94	3.16	-44.0	-55.4	3.8	8.47e-01	0	49	104	0	59	13442
2026-01-02 12:50:47.83	187.99	3.22	-44.0	-55.4	3.8	8.47e-01	0	49	104	0	59	13487
2026-01-02 12:50:48.84	188.03	3.29	-44.0	-55.4	3.8	8.45e-01	0	49	104	0	59	13455
2026-01-02 12:50:49.86	188.08	3.35	-44.0	-55.4	3.8	8.45e-01	0	49	104	0	59	13468
2026-01-02 12:50:50.87	188.13	3.42	-44.0	-55.4	3.8	8.47e-01	0	49	104	0	59	13499
2026-01-02 12:50:51.88	188.18	3.48	-44.0	-55.4	3.8	8.45e-01	0	49	104	0	59	13431
2026-01-02 12:50:52.89	188.23	3.55	-44.0	-55.4	3.8	8.45e-01	0	49	104	0	59	13509
2026-01-02 12:50:53.90	188.27	3.61	-44.0	-55.4	3.8	8.45e-01	0	49	104	0	59	13431
2026-01-02 12:50:54.91	188.32	3.68	-44.0	-55.4	3.8	8.44e-01	0	49	104	0	59	13465
2026-01-02 12:50:55.92	188.37	3.74	-44.0	-55.4	3.8	8.45e-01	0	49	104	0	59	13478
2026-01-02 12:50:56.93	188.42	3.81	-44.0	-55.4	3.8	8.45e-01	0	49	104	0	59	13470
2026-01-02 12:50:57.94	188.47	3.87	-44.0	-55.3	3.8	8.46e-01	0	50	104	0	59	13392
2026-01-02 12:50:58.95	188.52	3.94	-44.0	-55.4	3.8	8.46e-01	0	49	104	0	59	13434
2026-01-02 12:50:59.97	188.57	4.00	-44.0	-55.4	3.8	8.45e-01	0	50	104	0	59	13420
2026-01-02 12:51:00.98	188.62	4.07	-44.0	-55.4	3.8	8.47e-01	0	50	104	0	59	13426
2026-01-02 12:51:01.99	188.67	4.14	-44.0	-55.4	3.8	8.46e-01	0	50	104	0	59	13462
2026-01-02 12:51:03.00	188.72	4.20	-44.0	-55.4	3.8	8.45e-01	0	50	104	0	59	13456
2026-01-02 12:51:04.01	188.77	4.27	-44.0	-55.4	3.8	8.47e-01	0	50	104	0	59	13482
2026-01-02 12:51:05.02	188.82	4.34	-44.0	-55.4	3.8	8.46e-01	0	50	104	0	59	13417
2026-01-02 12:51:06.03	188.87	4.40	-44.0	-55.4	3.8	8.46e-01	0	50	104	0	59	13427
2026-01-02 12:51:07.04	188.92	4.47	-44.0	-55.4	3.8	8.45e-01	0	50	104	0	59	13425
2026-01-02 12:51:08.05	188.98	4.54	-44.0	-55.3	3.8	8.45e-01	0	50	104	0	59	13373
2026-01-02 12:51:09.07	189.03	4.60	-44.0	-55.3	3.8	8.47e-01	0	50	104	0	59	13337
2026-01-02 12:51:10.08	189.08	4.67	-44.0	-55.3	3.8	8.46e-01	0	50	104	0	59	13286
2026-01-02 12:51:11.09	189.13	4.74	-44.0	-55.3	3.8	8.47e-01	0	50	104	0	59	13281
2026-01-02 12:51:12.10	189.18	4.81	-43.9	-55.2	3.8	8.45e-01	0	50	104	0	59	13256
2026-01-02 12:51:13.11	189.24	4.87	-44.0	-55.3	3.8	8.46e-01	0	50	104	0	59	13313
2026-01-02 12:51:14.12	189.29	4.94	-44.0	-55.3	3.8	8.46e-01	0	50	104	0	59	13302
2026-01-02 12:51:15.13	189.34	5.01	-43.9	-55.3	3.8	8.46e-01	0	50	104	0	59	13403
2026-01-02 12:51:16.14	189.40	5.08	-44.0	-55.3	3.8	8.45e-01	0	50	104	0	59	13358
2026-01-02 12:51:17.15	189.45	5.15	-44.0	-55.3	3.8	8.46e-01	0	50	104	0	59	13408
2026-01-02 12:51:18.16	189.50	5.21	-44.0	-55.3	3.8	8.46e-01	0	51	104	0	59	13389
2026-01-02 12:51:19.18	189.56	5.28	-43.9	-55.3	3.8	8.45e-01	0	51	104	0	59	13405
2026-01-02 12:51:20.19	189.61	5.35	-44.0	-55.3	3.8	8.46e-01	0	51	104	0	59	13315
2026-01-02 12:51:21.20	189.67	5.42	-43.9	-55.3	3.8	8.46e-01	0	51	104	0	59	13269
2026-01-02 12:51:22.21	189.72	5.49	-43.9	-55.2	3.8	8.47e-01	0	51	104	0	59	13170
2026-01-02 12:51:23.22	189.78	5.56	-43.9	-55.2	3.8	8.45e-01	0	51	104	0	59	13151
2026-01-02 12:51:24.23	189.83	5.63	-43.9	-55.1	3.8	8.46e-01	0	51	104	0	59	12970
2026-01-02 12:51:25.24	189.89	5.70	-43.9	-55.0	3.8	8.45e-01	0	51	104	0	59	12864
2026-01-02 12:51:26.25	189.94	5.77	-43.9	-55.0	3.8	8.46e-01	0	51	104	0	59	12825
2026-01-02 12:51:27.27	190.00	5.84	-43.9	-54.9	3.8	8.47e-01	0	51	104	0	59	12757
2026-01-02 12:51:28.28	190.06	5.91	-43.9	-54.8	3.8	8.45e-01	0	51	104	0	59	12581
2026-01-02 12:51:29.29	190.11	5.98	-43.9	-54.8	3.8	8.46e-01	0	51	104	0	59	12550
2026-01-02 12:51:30.30	190.17	6.05	-43.9	-54.7	3.8	8.47e-01	0	51	104	0	59	12512
2026-01-02 12:51:31.31	190.23	6.12	-43.9	-54.6	3.8	8.45e-01	0	51	104	0	59	12358
2026-01-02 12:51:32.32	190.28	6.19	-43.9	-54.6	3.8	8.46e-01	0	51	104	0	59	12357
2026-01-02 12:51:33.33	190.34	6.26	-43.9	-54.7	3.8	8.45e-01	0	51	104	0	59	12469
2026-01-02 12:51:34.34	190.40	6.33	-43.9	-54.7	3.8	8.46e-01	0	51	104	0	59	12401
2026-01-02 12:51:35.35	190.46	6.41	-43.9	-54.8	3.8	8.47e-01	0	51	104	0	59	12638
2026-01-02 12:51:36.36	190.51	6.48	-43.9	-55.1	3.8	8.46e-01	0	51	104	0	59	12960
2026-01-02 12:51:37.38	190.57	6.55	-43.9	-55.1	3.8	8.46e-01	0	51	104	0	59	13069
2026-01-02 12:51:38.39	190.63	6.62	-43.9	-55.0	3.8	8.46e-01	0	52	104	0	59	12934
2026-01-02 12:51:39.40	190.69	6.69	-43.9	-54.6	3.8	8.46e-01	0	52	104	0	59	12270
2026-01-02 12:51:40.41	190.75	6.77	-43.7	-53.4	3.8	8.46e-01	0	52	104	0	59	10747
2026-01-02 12:51:41.42	190.81	6.84	-43.5	-51.7	4.2	8.41e-01	0	52	104	0	58	9297
2026-01-02 12:51:42.43	190.87	6.91	-43.1	-49.7	5.0	8.04e-01	0	52	0	0	58	7450
2026-01-02 12:51:43.44	190.93	6.98	-42.5	-47.9	6.2	3.53e-01	0	52	0	2097152	57	6392
2026-01-02 12:51:44.46	190.99	7.06	-41.7	-46.1	7.8	1.41e-01	0	52	0	8388608	55	5793
2026-01-02 12:51:45.47	191.05	7.13	-40.9	-44.5	9.4	2.57e-02	0	52	0	13631488	53	5411
2026-01-02 12:51:46.48	191.11	7.20	-40.1	-43.1	10.8	5.73e-03	0	52	0	18874368	52	4885
2026-01-02 12:51:47.49	191.18	7.28	-39.4	-42.0	12.1	1.06e-03	0	52	0	25165824	50	4830
2026-01-02 12:51:48.50	191.24	7.35	-38.6	-40.9	13.2	8.23e-05	0	52	0	30408704	49	4509
2026-01-02 12:51:49.51	191.30	7.42	-37.8	-39.9	14.1	3.40e-06	0	52	0	36700160	47	4516
2026-01-02 12:51:50.52	191.36	7.50	-37.3	-39.2	14.8	1.10e-06	0	52	0	41943040	46	4440
2026-01-02 12:51:51.53	191.43	7.57	-36.7	-38.5	15.4	0.00e+00	0	52	0	48234496	45	4334
2026-01-02 12:51:52.54	191.49	7.65	-36.3	-38.0	15.9	0.00e+00	0	52	0	53477376	44	4325
2026-01-02 12:51:53.56	191.55	7.72	-35.8	-37.4	16.4	0.00e+00	0	52	0	59768832	43	4263
2026-01-02 12:51:54.57	191.62	7.80	-35.6	-37.2	16.5	0.00e+00	0	52	0	65011712	43	4167
2026-01-02 12:51:55.58	191.68	7.87	-35.5	-37.1	16.7	0.00e+00	0	52	0	70254592	42	4346
2026-01-02 12:51:56.59	191.74	7.95	-35.4	-37.0	16.7	0.00e+00	0	52	0	76546048	42	4340
2026-01-02 12:51:57.60	191.81	8.02	-35.6	-37.2	16.6	0.00e+00	0	52	0	81788928	42	4413
2026-01-02 12:51:58.61	191.87	8.10	-41.8	-46.2	8.4	1.71e-05	0	52	0	88080384	53	6577
2026-01-02 12:51:59.62	191.94	8.17	-40.2	-43.1	10.7	8.46e-01	0	52	104	88080384	52	4901
2026-01-02 12:52:00.63	192.00	8.25	-36.4	-38.2	15.8	0.00e+00	0	53	0	92274688	43	4676
2026-01-02 12:52:01.64	192.07	8.33	-40.3	-43.4	10.5	9.83e-03	0	53	0	97517568	52	5084
2026-01-02 12:52:02.65	192.14	8.40	-35.3	-36.9	17.0	4.50e-06	0	52	0	103809024	42	4253
2026-01-02 12:52:03.66	192.20	8.48	-35.3	-36.9	17.0	2.20e-06	0	52	0	109051904	42	4250
2026-01-02 12:52:04.67	192.27	8.56	-35.0	-36.5	17.3	0.00e+00	0	53	0	115343360	42	4091
2026-01-02 12:52:05.68	192.34	8.63	-35.1	-36.6	17.2	0.00e+00	0	53	0	120586240	42	4126
2026-01-02 12:52:06.69	192.40	8.71	-35.1	-36.6	17.2	0.00e+00	0	53	0	125829120	42	4125
2026-01-02 12:52:07.70	192.47	8.79	-35.1	-36.7	17.2	0.00e+00	0	53	0	132120576	42	4147
2026-01-02 12:52:08.71	192.54	8.87	-34.9	-36.3	17.5	0.00e+00	0	53	0	137363456	41	4241
2026-01-02 12:52:09.72	192.61	8.94	-34.8	-36.3	17.5	0.00e+00	0	53	0	143654912	41	4216
2026-01-02 12:52:10.73	192.68	9.02	-34.8	-36.2	17.6	0.00e+00	0	53	0	148897792	41	4191
2026-01-02 12:52:11.74	192.75	9.10	-34.8	-36.2	17.6	0.00e+00	0	53	0	155189248	41	4177
2026-01-02 12:52:12.75	192.82	9.18	-34.7	-36.2	17.6	0.00e+00	0	53	0	160432128	41	4173
2026-01-02 12:52:13.76	192.89	9.26	-34.7	-36.2	17.6	0.00e+00	0	53	0	166723584	41	4171
2026-01-02 12:52:14.77	192.96	9.34	-34.7	-36.2	17.7	0.00e+00	0	53	0	171966464	41	4147
2026-01-02 12:52:15.78	193.03	9.41	-34.6	-36.1	17.7	0.00e+00	0	53	0	177209344	41	4129
2026-01-02 12:52:16.79	193.10	9.49	-34.6	-36.1	17.8	0.00e+00	0	53	0	183500800	41	4109
2026-01-02 12:52:17.80	193.17	9.57	-34.6	-36.1	17.8	0.00e+00	0	53	0	188743680	41	4109
2026-01-02 12:52:18.81	193.24	9.65	-34.6	-36.0	17.8	0.00e+00	0	53	0	195035136	41	4094
2026-01-02 12:52:19.82	193.31	9.73	-34.6	-36.0	17.8	0.00e+00	0	53	0	200278016	41	4091
2026-01-02 12:52:20.83	193.39	9.81	-34.6	-36.0	17.8	0.00e+00	0	53	0	205520896	41	4080
2026-01-02 12:52:21.84	193.46	9.89	-34.6	-36.0	17.8	0.00e+00	0	53	0	211812352	41	4094
2026-01-02 12:52:22.85	193.53	9.97	-34.6	-36.0	17.9	0.00e+00	0	53	0	217055232	41	4084
2026-01-02 12:52:23.86	193.61	10.05	-34.6	-36.1	17.8	0.00e+00	0	53	0	223346688	41	4099
2026-01-02 12:52:24.87	193.68	10.14	-34.6	-36.1	17.8	0.00e+00	0	53	0	228589568	41	4109
2026-01-02 12:52:25.89	193.75	10.22	-34.6	-36.1	17.8	0.00e+00	0	53	0	233832448	41	4111
2026-01-02 12:52:26.89	193.83	10.30	-34.7	-36.2	17.7	0.00e+00	0	53	0	240123904	41	4148
2026-01-02 12:52:27.91	193.90	10.38	-34.7	-36.2	17.7	0.00e+00	0	53	0	245366784	41	4169
2026-01-02 12:52:28.92	193.98	10.46	-34.8	-36.2	17.7	0.00e+00	0	53	0	251658240	41	4187
2026-01-02 12:52:29.93	194.06	10.55	-34.8	-36.2	17.7	0.00e+00	0	53	0	256901120	41	4190
2026-01-02 12:52:30.93	194.13	10.63	-34.8	-36.3	17.6	0.00e+00	0	53	0	263192576	41	4200
2026-01-02 12:52:31.94	194.21	10.71	-34.7	-36.2	17.7	0.00e+00	0	53	0	268435456	41	4168
2026-01-02 12:52:32.95	194.29	10.79	-34.7	-36.2	17.7	0.00e+00	0	54	0	274726912	41	4159
2026-01-02 12:52:33.96	194.36	10.88	-34.7	-36.2	17.7	0.00e+00	0	53	0	279969792	41	4161
2026-01-02 12:52:34.97	194.44	10.96	-34.7	-36.1	17.8	0.00e+00	0	54	0	285212672	41	4133
2026-01-02 12:52:35.98	194.52	11.04	-34.6	-36.1	17.8	0.00e+00	0	54	0	291504128	41	4121
2026-01-02 12:52:36.99	194.60	11.13	-34.6	-36.1	17.9	0.00e+00	0	53	0	296747008	41	4101
2026-01-02 12:52:38.00	194.68	11.21	-34.6	-36.1	17.9	0.00e+00	0	54	0	303038464	41	4115
2026-01-02 12:52:39.01	194.76	11.30	-34.6	-36.1	17.9	0.00e+00	0	54	0	308281344	41	4115
2026-01-02 12:52:40.02	194.84	11.38	-34.6	-36.1	17.9	0.00e+00	0	54	0	313524224	41	4103
2026-01-02 12:52:41.03	194.92	11.46	-34.6	-36.1	17.9	0.00e+00	0	54	0	319815680	41	4113
2026-01-02 12:52:42.04	195.00	11.55	-34.6	-36.1	17.9	0.00e+00	0	54	0	325058560	41	4101
2026-01-02 12:52:43.05	195.08	11.64	-34.6	-36.0	17.9	0.00e+00	0	54	0	331350016	41	4089
2026-01-02 12:52:44.06	195.17	11.72	-34.6	-36.0	17.9	0.00e+00	0	54	0	336592896	41	4096
2026-01-02 12:52:45.07	195.25	11.81	-34.6	-36.0	18.0	0.00e+00	0	54	0	341835776	41	4075
2026-01-02 12:52:46.08	195.33	11.89	-34.5	-35.9	18.0	0.00e+00	0	54	0	348127232	41	4038
2026-01-02 12:52:47.09	195.41	11.98	-34.5	-35.9	18.0	0.00e+00	0	54	0	353370112	40	4289
2026-01-02 12:52:48.10	195.50	12.07	-34.5	-35.9	18.1	0.00e+00	0	54	0	359661568	40	4279
2026-01-02 12:52:49.11	195.58	12.15	-34.5	-35.9	18.1	0.00e+00	0	54	0	364904448	40	4276
2026-01-02 12:52:50.12	195.67	12.24	-34.4	-35.8	18.2	0.00e+00	0	54	0	371195904	40	4227
2026-01-02 12:52:51.13	195.75	12.33	-34.4	-35.8	18.1	0.00e+00	0	54	0	376438784	40	4240
2026-01-02 12:52:52.14	195.84	12.41	-34.3	-35.8	18.2	0.00e+00	0	54	0	381681664	40	4194
2026-01-02 12:52:53.15	195.93	12.50	-34.3	-35.7	18.3	0.00e+00	0	54	0	387973120	40	4175
2026-01-02 12:52:54.16	196.01	12.59	-34.3	-35.7	18.3	0.00e+00	0	54	0	393216000	40	4189
2026-01-02 12:52:55.17	196.10	12.68	-34.3	-35.7	18.3	0.00e+00	0	54	0	399507456	40	4150
2026-01-02 12:52:56.19	196.19	12.77	-34.2	-35.6	18.4	0.00e+00	0	54	0	404750336	40	4132
2026-01-02 12:52:57.20	196.28	12.86	-34.2	-35.6	18.5	0.00e+00	0	54	0	411041792	40	4108
2026-01-02 12:52:58.21	196.37	12.95	-34.2	-35.6	18.4	0.00e+00	0	54	0	416284672	40	4113
2026-01-02 12:52:59.22	196.46	13.04	-34.2	-35.6	18.4	0.00e+00	0	54	0	421527552	40	4100
2026-01-02 12:53:00.23	196.55	13.13	-34.2	-35.5	18.5	0.00e+00	0	54	0	427819008	40	4096
2026-01-02 12:53:01.24	196.64	13.22	-34.1	-35.5	18.5	0.00e+00	0	54	0	433061888	40	4085
2026-01-02 12:53:02.25	196.73	13.31	-34.1	-35.5	18.5	0.00e+00	0	54	0	439353344	40	4074
2026-01-02 12:53:03.26	196.82	13.40	-34.1	-35.5	18.5	0.00e+00	0	54	0	444596224	40	4094
2026-01-02 12:53:04.27	196.91	13.49	-34.1	-35.5	18.5	0.00e+00	0	54	0	449839104	40	4084
2026-01-02 12:53:05.28	197.00	13.58	-34.1	-35.5	18.5	0.00e+00	0	54	0	456130560	40	4081
2026-01-02 12:53:06.29	197.10	13.67	-34.0	-35.4	18.6	0.00e+00	0	54	0	461373440	40	4042
2026-01-02 12:53:07.30	197.19	13.76	-34.0	-35.4	18.7	0.00e+00	0	54	0	467664896	40	4021
2026-01-02 12:53:08.31	197.29	13.85	-34.0	-35.4	18.7	0.00e+00	0	54	0	472907776	39	4264
2026-01-02 12:53:09.32	197.38	13.95	-33.9	-35.3	18.8	0.00e+00	0	54	0	479199232	39	4204
2026-01-02 12:53:10.34	197.48	14.04	-34.0	-35.3	18.8	0.00e+00	0	54	0	484442112	39	4225
2026-01-02 12:53:11.35	197.57	14.13	-34.0	-35.3	18.7	0.00e+00	0	54	0	489684992	39	4226
2026-01-02 12:53:12.36	197.67	14.22	-33.9	-35.3	18.8	0.00e+00	0	54	0	495976448	39	4209
2026-01-02 12:53:13.37	197.77	14.32	-33.9	-35.3	18.8	0.00e+00	0	54	0	501219328	39	4196
2026-01-02 12:53:14.38	197.86	14.41	-33.9	-35.3	18.8	0.00e+00	0	54	0	507510784	39	4209
2026-01-02 12:53:15.39	197.96	14.51	-33.9	-35.3	18.8	0.00e+00	0	54	0	512753664	39	4203
2026-01-02 12:53:16.40	198.06	14.60	-33.9	-35.2	18.9	0.00e+00	0	54	0	519045120	39	4177
2026-01-02 12:53:17.41	198.16	14.69	-33.8	-35.2	18.8	0.00e+00	0	54	0	524288000	39	4174
2026-01-02 12:53:18.42	198.26	14.79	-33.8	-35.2	18.9	0.00e+00	0	54	0	529530880	39	4161
2026-01-02 12:53:19.42	198.36	14.88	-33.8	-35.1	18.9	0.00e+00	0	55	0	535822336	39	4142
2026-01-02 12:53:20.43	198.46	14.98	-33.8	-35.1	19.0	0.00e+00	0	55	0	541065216	39	4130
2026-01-02 12:53:21.44	198.57	15.07	-33.7	-35.1	19.0	0.00e+00	0	55	0	546308096	39	4099
2026-01-02 12:53:22.45	198.67	15.17	-33.6	-35.0	19.1	0.00e+00	0	55	0	552599552	39	4070
2026-01-02 12:53:23.46	198.77	15.27	-33.5	-34.9	19.2	0.00e+00	0	55	0	557842432	39	4018
2026-01-02 12:53:24.47	198.88	15.36	-33.5	-34.8	19.3	0.00e+00	0	55	0	564133888	39	3992
2026-01-02 12:53:25.48	198.98	15.46	-33.5	-34.8	19.3	0.00e+00	0	54	0	569376768	38	4203
2026-01-02 12:53:26.49	199.09	15.56	-33.4	-34.6	19.4	0.00e+00	0	55	0	575668224	38	4144
2026-01-02 12:53:27.50	199.19	15.65	-33.3	-34.6	19.5	0.00e+00	0	55	0	580911104	38	4137
2026-01-02 12:53:28.51	199.30	15.75	-33.3	-34.6	19.5	0.00e+00	0	55	0	587202560	38	4139
2026-01-02 12:53:29.52	199.41	15.85	-33.3	-34.6	19.5	0.00e+00	0	54	0	592445440	38	4133
2026-01-02 12:53:30.53	199.51	15.95	-33.4	-34.7	19.4	0.00e+00	0	55	0	597688320	38	4171
2026-01-02 12:53:31.54	199.62	16.05	-33.4	-34.7	19.4	0.00e+00	0	55	0	603979776	38	4167
2026-01-02 12:53:32.55	199.73	16.15	-33.4	-34.7	19.3	0.00e+00	0	55	0	609222656	38	4186
2026-01-02 12:53:33.56	199.84	16.24	-33.4	-34.7	19.3	0.00e+00	0	55	0	615514112	38	4191
2026-01-02 12:53:34.57	199.95	16.34	-33.4	-34.7	19.4	0.00e+00	0	55	0	620756992	38	4186
2026-01-02 12:53:35.58	200.06	16.44	-33.4	-34.7	19.4	0.00e+00	0	55	0	625999872	38	4156
2026-01-02 12:53:36.59	200.18	16.54	-33.3	-34.6	19.5	0.00e+00	0	55	0	632291328	38	4130
2026-01-02 12:53:37.60	200.29	16.64	-33.3	-34.6	19.5	0.00e+00	0	55	0	637534208	38	4105
2026-01-02 12:53:38.60	200.40	16.74	-33.2	-34.5	19.5	0.00e+00	0	55	0	643825664	38	4086
2026-01-02 12:53:39.62	200.52	16.85	-33.2	-34.5	19.6	0.00e+00	0	55	0	649068544	38	4067
2026-01-02 12:53:40.63	200.63	16.95	-33.2	-34.5	19.6	0.00e+00	0	55	0	654311424	38	4074
2026-01-02 12:53:41.64	200.75	17.05	-33.2	-34.5	19.6	0.00e+00	0	55	0	660602880	38	4069
2026-01-02 12:53:42.65	200.87	17.15	-33.1	-34.4	19.7	0.00e+00	0	55	0	665845760	38	4028
2026-01-02 12:53:43.66	200.98	17.25	-33.1	-34.4	19.7	0.00e+00	0	55	0	672137216	38	4017
2026-01-02 12:53:44.67	201.10	17.36	-33.1	-34.3	19.7	0.00e+00	0	55	0	677380096	38	3996
2026-01-02 12:53:45.68	201.22	17.46	-33.0	-34.3	19.8	0.00e+00	0	55	0	683671552	38	3969
2026-01-02 12:53:46.69	201.34	17.56	-33.0	-34.2	19.8	0.00e+00	0	55	0	688914432	38	3942
2026-01-02 12:53:47.70	201.46	17.67	-32.9	-34.1	19.9	0.00e+00	0	55	0	695205888	37	4131
2026-01-02 12:53:48.71	201.58	17.77	-32.8	-34.1	20.0	0.00e+00	0	55	0	700448768	37	4105
2026-01-02 12:53:49.72	201.70	17.87	-32.7	-34.0	20.0	0.00e+00	0	55	0	705691648	37	4061
2026-01-02 12:53:50.73	201.83	17.98	-32.7	-34.0	20.1	0.00e+00	0	55	0	711983104	37	4054
2026-01-02 12:53:51.74	201.95	18.08	-32.7	-33.9	20.1	0.00e+00	0	55	0	717225984	37	4049
2026-01-02 12:53:52.75	202.08	18.19	-32.6	-33.9	20.2	0.00e+00	0	55	0	723517440	37	4013
2026-01-02 12:53:53.76	202.20	18.30	-32.6	-33.8	20.2	0.00e+00	0	55	0	728760320	37	3998
2026-01-02 12:53:54.77	202.33	18.40	-32.6	-33.8	20.2	0.00e+00	0	55	0	734003200	37	3995
2026-01-02 12:53:55.78	202.45	18.51	-32.5	-33.8	20.3	0.00e+00	0	55	0	740294656	37	3962
2026-01-02 12:53:56.79	202.58	18.61	-32.6	-33.8	20.3	0.00e+00	0	55	0	745537536	37	3968
2026-01-02 12:53:57.80	202.71	18.72	-32.6	-33.8	20.3	0.00e+00	0	55	0	751828992	37	3968
2026-01-02 12:53:58.81	202.84	18.83	-32.6	-33.9	20.2	0.00e+00	0	55	0	757071872	37	4013
2026-01-02 12:53:59.81	202.97	18.93	-32.7	-34.0	20.1	0.00e+00	0	55	0	762314752	37	4052
2026-01-02 12:54:00.83	203.10	19.04	-32.8	-34.0	20.0	0.00e+00	0	55	0	768606208	37	4091
2026-01-02 12:54:01.84	203.24	19.15	-32.8	-34.1	20.0	0.00e+00	0	55	0	773849088	37	4135
2026-01-02 12:54:02.85	203.37	19.26	-32.9	-34.2	19.9	0.00e+00	0	55	0	780140544	37	4155
2026-01-02 12:54:03.86	203.50	19.37	-32.9	-34.2	19.9	0.00e+00	0	55	0	785383424	37	4147
2026-01-02 12:54:04.87	203.64	19.48	-32.8	-34.1	20.0	0.00e+00	0	55	0	791674880	37	4123
2026-01-02 12:54:05.88	203.78	19.59	-32.7	-34.0	20.1	0.00e+00	0	55	0	796917760	37	4074
2026-01-02 12:54:06.89	203.91	19.70	-32.7	-33.9	20.1	0.00e+00	0	55	0	802160640	37	4046
2026-01-02 12:54:07.90	204.05	19.81	-32.6	-33.9	20.2	0.00e+00	0	55	0	808452096	37	4010
2026-01-02 12:54:08.91	204.19	19.92	-32.6	-33.8	20.2	0.00e+00	0	55	0	813694976	37	3983
2026-01-02 12:54:09.92	204.33	20.03	-32.5	-33.7	20.3	0.00e+00	0	55	0	819986432	36	4169
2026-01-02 12:54:10.93	204.47	20.14	-32.4	-33.6	20.4	0.00e+00	0	55	0	825229312	36	4139
2026-01-02 12:54:11.94	204.61	20.25	-32.3	-33.6	20.4	0.00e+00	0	55	0	830472192	36	4106
2026-01-02 12:54:12.95	204.76	20.36	-32.3	-33.5	20.5	0.00e+00	0	55	0	836763648	36	4072
2026-01-02 12:54:13.96	204.90	20.47	-32.2	-33.4	20.6	0.00e+00	0	55	0	842006528	36	4031
2026-01-02 12:54:14.97	205.05	20.59	-32.2	-33.4	20.6	0.00e+00	0	55	0	848297984	36	4020
2026-01-02 12:54:15.98	205.19	20.70	-32.1	-33.3	20.7	0.00e+00	0	55	0	853540864	36	3996
2026-01-02 12:54:16.99	205.34	20.81	-32.1	-33.3	20.7	0.00e+00	0	55	0	858783744	36	3996
2026-01-02 12:54:18.00	205.49	20.93	-32.1	-33.3	20.6	0.00e+00	0	55	0	865075200	36	4001
2026-01-02 12:54:19.01	205.64	21.04	-32.2	-33.4	20.6	0.00e+00	0	55	0	870318080	36	4028
2026-01-02 12:54:20.02	205.79	21.15	-32.3	-33.5	20.5	0.00e+00	0	55	0	876609536	36	4079
2026-01-02 12:54:21.04	205.94	21.27	-32.4	-33.6	20.4	0.00e+00	0	55	0	881852416	36	4127
2026-01-02 12:54:22.04	206.09	21.38	-32.5	-33.7	20.3	0.00e+00	0	55	0	888143872	36	4175
2026-01-02 12:54:23.05	206.25	21.50	-32.6	-33.8	20.2	0.00e+00	0	56	0	893386752	36	4218
2026-01-02 12:54:24.06	206.40	21.61	-32.6	-33.8	20.2	0.00e+00	0	55	0	899678208	36	4227
2026-01-02 12:54:25.08	206.56	21.73	-32.5	-33.8	20.3	0.00e+00	0	55	0	904921088	36	4205
2026-01-02 12:54:26.08	206.71	21.84	-32.5	-33.7	20.3	0.00e+00	0	55	0	910163968	36	4172
2026-01-02 12:54:27.09	206.87	21.96	-32.4	-33.7	20.4	0.00e+00	0	55	0	916455424	36	4155
2026-01-02 12:54:28.10	207.03	22.08	-32.4	-33.6	20.5	0.00e+00	0	55	0	921698304	36	4121
2026-01-02 12:54:29.11	207.19	22.19	-32.3	-33.5	20.6	0.00e+00	0	56	0	927989760	36	4068
2026-01-02 12:54:30.12	207.35	22.31	-32.2	-33.4	20.6	0.00e+00	0	55	0	933232640	36	4021
2026-01-02 12:54:31.13	207.52	22.43	-32.1	-33.3	20.7	0.00e+00	0	55	0	938475520	36	3991
2026-01-02 12:54:32.14	207.68	22.55	-32.1	-33.3	20.7	0.00e+00	0	56	0	944766976	36	3986
2026-01-02 12:54:33.15	207.85	22.66	-32.1	-33.3	20.8	0.00e+00	0	55	0	950009856	36	3960
2026-01-02 12:54:34.16	208.01	22.78	-32.0	-33.2	20.8	0.00e+00	0	56	0	956301312	36	3948
2026-01-02 12:54:35.18	208.18	22.90	-32.0	-33.2	20.8	0.00e+00	0	55	0	961544192	36	3947
2026-01-02 12:54:36.19	208.35	23.02	-32.0	-33.2	20.9	0.00e+00	0	55	0	966787072	36	3923
2026-01-02 12:54:37.20	208.52	23.14	-31.3	-32.5	20.8	0.00e+00	0	55	0	973078528	34	4071
2026-01-02 12:54:38.20	208.69	23.26	-31.2	-32.4	20.9	0.00e+00	0	56	0	978321408	34	4015
2026-01-02 12:54:39.21	208.86	23.38	-31.2	-32.4	20.9	0.00e+00	0	56	0	984612864	34	4019
2026-01-02 12:54:40.22	209.04	23.50	-31.1	-32.3	20.9	0.00e+00	0	56	0	989855744	34	3989
2026-01-02 12:54:41.23	209.21	23.62	-31.2	-32.4	20.9	0.00e+00	0	55	0	996147200	34	4014
2026-01-02 12:54:42.24	209.39	23.74	-31.2	-32.4	20.8	0.00e+00	0	56	0	1001390080	34	4035
2026-01-02 12:54:43.25	209.57	23.86	-31.2	-32.4	20.9	0.00e+00	0	55	0	1007681536	34	4006
2026-01-02 12:54:44.26	209.75	23.98	-31.1	-32.3	20.9	0.00e+00	0	56	0	1012924416	34	4002
2026-01-02 12:54:45.27	209.93	24.10	-31.1	-32.3	20.9	0.00e+00	0	56	0	1018167296	34	3989
2026-01-02 12:54:46.28	210.11	24.22	-31.2	-32.4	20.8	0.00e+00	0	56	0	1024458752	34	4021
2026-01-02 12:54:47.29	210.30	24.35	-31.3	-32.5	20.7	0.00e+00	0	56	0	1029701632	34	4092
2026-01-02 12:54:48.30	210.48	24.47	-31.4	-32.6	20.6	0.00e+00	0	56	0	1035993088	34	4139
2026-01-02 12:54:49.32	210.67	24.59	-31.4	-32.7	20.6	0.00e+00	0	55	0	1041235968	34	4150
2026-01-02 12:54:50.32	210.85	24.71	-31.3	-32.6	20.7	0.00e+00	0	56	0	1046478848	34	4101
2026-01-02 12:54:51.34	211.05	24.84	-31.1	-32.3	20.9	0.00e+00	0	56	0	1052770304	34	3999
2026-01-02 12:54:52.35	211.24	24.96	-31.0	-32.2	21.0	0.00e+00	0	55	0	1058013184	34	3931
2026-01-02 12:54:53.36	211.43	25.09	-31.0	-32.2	21.0	0.00e+00	0	56	0	1064304640	34	3941
2026-01-02 12:54:54.36	211.62	25.21	-31.0	-32.2	21.0	0.00e+00	0	55	0	1069547520	34	3936
2026-01-02 12:54:55.37	211.82	25.33	-31.0	-32.2	21.0	0.00e+00	0	56	0	1074790400	34	3926
2026-01-02 12:54:56.38	212.01	25.46	-30.9	-32.1	21.1	0.00e+00	0	56	0	1081081856	33	4133
2026-01-02 12:54:57.39	212.21	25.58	-30.9	-32.1	21.1	0.00e+00	0	56	0	1086324736	33	4113
2026-01-02 12:54:58.40	212.41	25.71	-30.9	-32.1	21.1	0.00e+00	0	56	0	1092616192	33	4130
2026-01-02 12:54:59.41	212.61	25.83	-30.9	-32.1	21.1	0.00e+00	0	56	0	1097859072	33	4114
2026-01-02 12:55:00.42	212.81	25.96	-30.9	-32.1	21.1	0.00e+00	0	56	0	1104150528	33	4135
2026-01-02 12:55:01.43	213.02	26.08	-31.0	-32.2	21.0	0.00e+00	0	56	0	1109393408	33	4154
2026-01-02 12:55:02.44	213.23	26.21	-31.0	-32.2	21.0	0.00e+00	0	56	0	1114636288	33	4187
2026-01-02 12:55:03.45	213.43	26.33	-31.0	-32.2	20.9	0.00e+00	0	56	0	1120927744	33	4190
2026-01-02 12:55:04.46	213.64	26.46	-31.0	-32.2	21.0	0.00e+00	0	56	0	1126170624	33	4158
2026-01-02 12:55:05.47	213.85	26.59	-30.9	-32.1	21.0	0.00e+00	0	56	0	1132462080	33	4133
2026-01-02 12:55:06.48	214.07	26.71	-30.9	-32.1	21.1	0.00e+00	0	56	0	1137704960	33	4103
2026-01-02 12:55:07.49	214.28	26.84	-30.8	-32.0	21.2	0.00e+00	0	56	0	1142947840	33	4073
2026-01-02 12:55:08.50	214.50	26.97	-30.7	-31.9	21.3	0.00e+00	0	56	0	1149239296	33	4028
2026-01-02 12:55:09.51	214.71	27.09	-30.6	-31.8	21.3	0.00e+00	0	56	0	1154482176	33	3977
2026-01-02 12:55:10.52	214.93	27.22	-30.6	-31.8	21.3	0.00e+00	0	56	0	1160773632	33	3983
2026-01-02 12:55:11.53	215.15	27.35	-30.7	-31.8	21.3	0.00e+00	0	56	0	1166016512	33	4000
2026-01-02 12:55:12.54	215.38	27.48	-30.7	-31.8	21.3	0.00e+00	0	56	0	1171259392	33	4000
2026-01-02 12:55:13.55	215.60	27.60	-30.7	-31.9	21.3	0.00e+00	0	56	0	1177550848	33	4010
2026-01-02 12:55:14.56	215.83	27.73	-30.7	-31.9	21.3	0.00e+00	0	56	0	1182793728	33	4015
2026-01-02 12:55:15.58	216.06	27.86	-30.7	-31.9	21.2	0.00e+00	0	56	0	1189085184	33	4032
2026-01-02 12:55:16.59	216.29	27.99	-30.8	-32.0	21.2	0.00e+00	0	56	0	1194328064	33	4053
2026-01-02 12:55:17.59	216.52	28.11	-30.7	-31.9	21.2	0.00e+00	0	56	0	1200619520	33	4036
2026-01-02 12:55:18.60	216.75	28.24	-30.6	-31.7	21.4	0.00e+00	0	56	0	1205862400	33	3945
2026-01-02 12:55:19.61	216.98	28.37	-30.5	-31.7	21.4	0.00e+00	0	56	0	1212153856	33	3918
2026-01-02 12:55:20.62	217.22	28.50	-30.5	-31.7	21.4	0.00e+00	0	56	0	1217396736	33	3919
2026-01-02 12:55:21.63	217.46	28.63	-30.5	-31.7	21.4	0.00e+00	0	56	0	1222639616	33	3928
2026-01-02 12:55:22.64	217.70	28.76	-30.5	-31.7	21.4	0.00e+00	0	56	0	1228931072	33	3932
2026-01-02 12:55:23.65	217.94	28.88	-30.5	-31.7	21.4	0.00e+00	0	56	0	1234173952	33	3926
2026-01-02 12:55:24.66	218.19	29.01	-30.4	-31.6	21.5	0.00e+00	0	56	0	1240465408	32	4113
2026-01-02 12:55:25.67	218.43	29.14	-30.4	-31.6	21.5	0.00e+00	0	56	0	1245708288	32	4108
2026-01-02 12:55:26.68	218.68	29.27	-30.4	-31.5	21.6	0.00e+00	0	56	0	1250951168	32	4098
2026-01-02 12:55:27.69	218.93	29.40	-30.5	-31.6	21.5	0.00e+00	0	56	0	1257242624	32	4130
2026-01-02 12:55:28.70	219.19	29.53	-30.5	-31.7	21.5	0.00e+00	0	56	0	1262485504	32	4157
2026-01-02 12:55:29.71	219.44	29.66	-30.5	-31.7	21.5	0.00e+00	0	56	0	1268776960	32	4175
2026-01-02 12:55:30.72	219.70	29.78	-30.5	-31.7	21.5	0.00e+00	0	56	0	1274019840	32	4169
2026-01-02 12:55:31.73	219.95	29.91	-30.5	-31.6	21.6	0.00e+00	0	56	0	1279262720	32	4124
2026-01-02 12:55:32.75	220.22	30.04	-30.4	-31.5	21.6	0.00e+00	0	56	0	1285554176	32	4094
2026-01-02 12:55:33.76	220.48	30.17	-30.4	-31.5	21.6	0.00e+00	0	56	0	1290797056	32	4088
2026-01-02 12:55:34.77	220.74	30.30	-30.4	-31.5	21.6	0.00e+00	0	56	0	1297088512	32	4093
2026-01-02 12:55:35.78	221.01	30.43	-30.4	-31.6	21.5	0.00e+00	0	56	0	1302331392	32	4126
2026-01-02 12:55:36.79	221.28	30.55	-30.5	-31.6	21.5	0.00e+00	0	56	0	1308622848	32	4134
2026-01-02 12:55:37.80	221.55	30.68	-30.5	-31.6	21.5	0.00e+00	0	56	0	1313865728	32	4133
2026-01-02 12:55:38.81	221.82	30.81	-30.5	-31.6	21.5	0.00e+00	0	56	0	1320157184	32	4121
2026-01-02 12:55:39.82	222.10	30.94	-30.4	-31.6	21.6	0.00e+00	0	56	0	1325400064	32	4119
2026-01-02 12:55:40.83	222.37	31.07	-30.4	-31.6	21.5	0.00e+00	0	56	0	1330642944	32	4123
2026-01-02 12:55:41.84	222.65	31.19	-30.4	-31.6	21.6	0.00e+00	0	56	0	1336934400	32	4119
2026-01-02 12:55:42.85	222.94	31.32	-30.4	-31.6	21.6	0.00e+00	0	56	0	1342177280	32	4115
2026-01-02 12:55:43.86	223.22	31.45	-30.4	-31.5	21.6	0.00e+00	0	56	0	1348468736	32	4087
2026-01-02 12:55:44.87	223.50	31.57	-30.3	-31.5	21.7	0.00e+00	0	56	0	1353711616	32	4062
2026-01-02 12:55:45.88	223.79	31.70	-30.3	-31.4	21.7	0.00e+00	0	56	0	1358954496	32	4048
2026-01-02 12:55:46.89	224.08	31.83	-30.3	-31.4	21.7	0.00e+00	0	56	0	1365245952	32	4038
2026-01-02 12:55:47.90	224.38	31.95	-30.4	-31.5	21.6	0.00e+00	0	56	0	1370488832	32	4083
2026-01-02 12:55:48.91	224.67	32.08	-30.4	-31.6	21.5	0.00e+00	0	56	0	1376780288	32	4121
2026-01-02 12:55:49.93	224.97	32.20	-30.5	-31.7	21.5	0.00e+00	0	56	0	1382023168	32	4155
2026-01-02 12:55:50.93	225.27	32.33	-30.5	-31.7	21.5	0.00e+00	0	56	0	1387266048	32	4154
2026-01-02 12:55:51.95	225.57	32.45	-30.5	-31.6	21.5	0.00e+00	0	56	0	1393557504	32	4132
2026-01-02 12:55:52.96	225.87	32.58	-30.3	-31.5	21.6	0.00e+00	0	56	0	1398800384	32	4069
2026-01-02 12:55:53.97	226.18	32.70	-30.3	-31.4	21.6	0.00e+00	0	56	0	1405091840	32	4030
2026-01-02 12:55:54.97	226.49	32.83	-30.1	-31.3	21.7	0.00e+00	0	56	0	1410334720	32	3978
2026-01-02 12:55:55.99	226.80	32.95	-30.1	-31.3	21.7	0.00e+00	0	56	0	1416626176	32	3977
2026-01-02 12:55:57.00	227.11	33.07	-30.2	-31.4	21.7	0.00e+00	0	56	0	1421869056	32	4015
2026-01-02 12:55:58.01	227.43	33.20	-30.3	-31.5	21.5	0.00e+00	0	56	0	1428160512	32	4062
2026-01-02 12:55:59.02	227.74	33.32	-30.4	-31.6	21.4	0.00e+00	0	56	0	1433403392	32	4113
2026-01-02 12:56:00.03	228.06	33.44	-30.5	-31.7	21.3	0.00e+00	0	56	0	1438646272	32	4150
2026-01-02 12:56:01.04	228.39	33.56	-30.5	-31.8	21.3	0.00e+00	0	56	0	1444937728	32	4194
2026-01-02 12:56:02.04	228.71	33.68	-30.6	-31.8	21.2	0.00e+00	0	56	0	1450180608	32	4224
2026-01-02 12:56:03.05	229.04	33.80	-30.5	-31.7	21.3	0.00e+00	0	56	0	1456472064	32	4185
2026-01-02 12:56:04.06	229.36	33.92	-30.4	-31.6	21.4	0.00e+00	0	56	0	1461714944	32	4123
2026-01-02 12:56:05.07	229.70	34.04	-30.4	-31.6	21.5	0.00e+00	0	56	0	1466957824	32	4099
2026-01-02 12:56:06.09	230.03	34.16	-30.3	-31.5	21.5	0.00e+00	0	56	0	1473249280	32	4075
2026-01-02 12:56:07.10	230.37	34.27	-30.3	-31.5	21.6	0.00e+00	0	56	0	1478492160	32	4054
2026-01-02 12:56:08.10	230.71	34.39	-30.3	-31.5	21.6	0.00e+00	0	56	0	1484783616	32	4058
2026-01-02 12:56:09.12	231.05	34.51	-30.4	-31.6	21.5	0.00e+00	0	56	0	1490026496	32	4103
2026-01-02 12:56:10.12	231.39	34.62	-30.4	-31.6	21.5	0.00e+00	0	56	0	1495269376	32	4111
2026-01-02 12:56:11.13	231.74	34.74	-30.4	-31.6	21.5	0.00e+00	0	56	0	1501560832	32	4115
2026-01-02 12:56:12.14	232.08	34.85	-30.3	-31.5	21.6	0.00e+00	0	56	0	1506803712	32	4064
2026-01-02 12:56:13.16	232.44	34.96	-30.1	-31.3	21.8	0.00e+00	0	56	0	1513095168	32	3972
2026-01-02 12:56:14.17	232.79	35.08	-30.1	-31.2	21.9	0.00e+00	0	56	0	1518338048	32	3945
2026-01-02 12:56:15.18	233.15	35.19	-30.2	-31.3	21.8	0.00e+00	0	56	0	1524629504	32	3983
2026-01-02 12:56:16.19	233.51	35.30	-30.1	-31.2	21.9	0.00e+00	0	56	0	1529872384	32	3953
2026-01-02 12:56:17.19	233.86	35.41	-30.1	-31.2	21.9	0.00e+00	0	56	0	1535115264	32	3945
2026-01-02 12:56:18.20	234.23	35.52	-30.2	-31.4	21.8	0.00e+00	0	56	0	1541406720	32	4017
2026-01-02 12:56:19.21	234.59	35.63	-30.3	-31.5	21.7	0.00e+00	0	56	0	1546649600	32	4069
2026-01-02 12:56:20.22	234.96	35.73	-30.3	-31.4	21.7	0.00e+00	0	56	0	1552941056	32	4040
2026-01-02 12:56:21.23	235.33	35.84	-30.2	-31.3	21.7	0.00e+00	0	56	0	1558183936	32	3998
2026-01-02 12:56:22.24	235.70	35.94	-30.1	-31.3	21.8	0.00e+00	0	56	0	1563426816	32	3972
2026-01-02 12:56:23.25	236.08	36.05	-30.2	-31.3	21.7	0.00e+00	0	56	0	1569718272	32	3993
2026-01-02 12:56:24.26	236.45	36.15	-30.2	-31.3	21.7	0.00e+00	0	56	0	1574961152	32	4000
2026-01-02 12:56:25.27	236.83	36.25	-30.1	-31.3	21.7	0.00e+00	0	56	0	1581252608	32	3979
2026-01-02 12:56:26.28	237.21	36.36	-30.2	-31.4	21.7	0.00e+00	0	56	0	1586495488	32	4005
2026-01-02 12:56:27.29	237.60	36.46	-30.1	-31.3	21.7	0.00e+00	0	56	0	1591738368	32	3973
2026-01-02 12:56:28.30	237.98	36.56	-30.0	-31.2	21.9	0.00e+00	0	56	0	1598029824	32	3930
2026-01-02 12:56:29.31	238.37	36.65	-30.0	-31.2	21.9	0.00e+00	0	56	0	1603272704	32	3914
2026-01-02 12:56:30.32	238.76	36.75	-30.0	-31.2	21.9	0.00e+00	0	56	0	1609564160	32	3925
2026-01-02 12:56:31.33	239.16	36.85	-30.2	-31.3	21.8	0.00e+00	0	56	0	1614807040	32	3977
2026-01-02 12:56:32.34	239.55	36.94	-30.2	-31.3	21.8	0.00e+00	0	56	0	1621098496	32	3998
2026-01-02 12:56:33.35	239.95	37.03	-30.1	-31.2	21.9	0.00e+00	0	56	0	1626341376	32	3940
2026-01-02 12:56:34.36	240.35	37.12	-30.1	-31.2	22.0	0.00e+00	0	56	0	1632632832	32	3920
2026-01-02 12:56:35.37	240.75	37.22	-30.1	-31.2	21.9	0.00e+00	0	56	0	1637875712	32	3933
2026-01-02 12:56:36.38	241.16	37.30	-30.0	-31.1	22.0	0.00e+00	0	56	0	1643118592	32	3896
2026-01-02 12:56:37.39	241.56	37.39	-29.8	-30.9	22.1	0.00e+00	0	56	0	1649410048	31	4019
2026-01-02 12:56:38.40	241.97	37.48	-29.8	-30.9	22.0	0.00e+00	0	56	0	1654652928	31	4010
2026-01-02 12:56:39.41	242.38	37.56	-29.8	-30.9	22.0	0.00e+00	0	56	0	1660944384	31	4036
2026-01-02 12:56:40.42	242.79	37.65	-29.9	-31.0	21.9	0.00e+00	0	56	0	1666187264	31	4069
2026-01-02 12:56:41.43	243.21	37.73	-29.8	-30.9	22.0	0.00e+00	0	56	0	1671430144	31	4044
2026-01-02 12:56:42.44	243.63	37.81	-29.8	-30.9	22.0	0.00e+00	0	56	0	1677721600	31	4027
2026-01-02 12:56:43.44	244.04	37.89	-29.8	-30.9	22.0	0.00e+00	0	56	0	1682964480	31	4016
2026-01-02 12:56:44.45	244.46	37.97	-29.8	-30.9	22.0	0.00e+00	0	56	0	1689255936	31	4048
2026-01-02 12:56:45.46	244.89	38.04	-29.9	-31.0	21.9	0.00e+00	0	56	0	1694498816	31	4098
2026-01-02 12:56:46.47	245.31	38.12	-30.1	-31.3	21.7	0.00e+00	0	56	0	1699741696	31	4195
2026-01-02 12:56:47.48	245.74	38.19	-30.0	-31.2	21.7	0.00e+00	0	57	0	1706033152	31	4171
2026-01-02 12:56:48.49	246.17	38.26	-29.8	-31.0	21.9	0.00e+00	0	56	0	1711276032	31	4053
2026-01-02 12:56:49.50	246.60	38.33	-29.7	-30.8	22.1	0.00e+00	0	56	0	1717567488	31	3970
2026-01-02 12:56:50.52	247.03	38.40	-29.6	-30.7	22.1	0.00e+00	0	56	0	1722810368	31	3943
2026-01-02 12:56:51.53	247.47	38.47	-29.8	-30.9	21.9	0.00e+00	0	57	0	1729101824	31	4030
2026-01-02 12:56:52.54	247.90	38.53	-29.8	-31.0	21.9	0.00e+00	0	56	0	1734344704	31	4064
2026-01-02 12:56:53.55	248.34	38.60	-29.8	-30.9	22.0	0.00e+00	0	56	0	1739587584	31	4017
2026-01-02 12:56:54.56	248.78	38.66	-29.8	-30.9	22.0	0.00e+00	0	57	0	1745879040	31	4033
2026-01-02 12:56:55.57	249.22	38.72	-29.9	-31.0	21.9	0.00e+00	0	56	0	1751121920	31	4083
2026-01-02 12:56:56.58	249.66	38.77	-30.0	-31.2	21.8	0.00e+00	0	57	0	1757413376	31	4150
2026-01-02 12:56:57.59	250.11	38.83	-30.1	-31.2	21.7	0.00e+00	0	57	0	1762656256	31	4188
2026-01-02 12:56:58.60	250.55	38.88	-30.0	-31.1	21.8	0.00e+00	0	56	0	1767899136	31	4126
2026-01-02 12:56:59.60	250.99	38.94	-29.8	-30.9	22.0	0.00e+00	0	57	0	1774190592	31	4018
2026-01-02 12:57:00.61	251.44	38.99	-29.7	-30.8	22.1	0.00e+00	0	56	0	1779433472	31	3970
2026-01-02 12:57:01.62	251.89	39.04	-29.7	-30.8	22.1	0.00e+00	0	56	0	1785724928	31	4000
2026-01-02 12:57:02.63	252.34	39.08	-29.9	-31.0	21.9	0.00e+00	0	56	0	1790967808	31	4082
2026-01-02 12:57:03.65	252.80	39.13	-30.0	-31.1	21.8	0.00e+00	0	56	0	1796210688	31	4133
2026-01-02 12:57:04.66	253.25	39.17	-29.9	-31.0	21.9	0.00e+00	0	56	0	1802502144	31	4082
2026-01-02 12:57:05.67	253.70	39.21	-29.7	-30.9	22.0	0.00e+00	0	56	0	1807745024	31	4011
2026-01-02 12:57:06.68	254.16	39.25	-29.8	-30.9	22.0	0.00e+00	0	57	0	1814036480	31	4018
2026-01-02 12:57:07.69	254.62	39.29	-29.8	-30.9	21.9	0.00e+00	0	56	0	1819279360	31	4048
2026-01-02 12:57:08.70	255.07	39.32	-29.8	-30.9	22.0	0.00e+00	0	56	0	1825570816	31	4033
2026-01-02 12:57:09.71	255.53	39.36	-29.7	-30.8	22.0	0.00e+00	0	57	0	1830813696	31	3991
2026-01-02 12:57:10.72	255.99	39.39	-29.6	-30.8	22.1	0.00e+00	0	56	0	1837105152	31	3961
2026-01-02 12:57:11.73	256.45	39.42	-29.6	-30.7	22.1	0.00e+00	0	56	0	1842348032	31	3951
2026-01-02 12:57:12.74	256.91	39.44	-29.8	-30.9	22.0	0.00e+00	0	56	0	1847590912	31	4023
2026-01-02 12:57:13.75	257.37	39.47	-30.0	-31.2	21.8	0.00e+00	0	57	0	1853882368	31	4154
2026-01-02 12:57:14.76	257.84	39.49	-30.1	-31.3	21.6	0.00e+00	0	56	0	1859125248	31	4216
2026-01-02 12:57:15.77	258.30	39.51	-30.1	-31.2	21.7	0.00e+00	0	56	0	1865416704	31	4183
2026-01-02 12:57:16.78	258.76	39.53	-29.9	-31.0	21.8	0.00e+00	0	56	0	1870659584	31	4093
2026-01-02 12:57:17.79	259.23	39.55	-29.8	-31.0	21.9	0.00e+00	0	57	0	1875902464	31	4059
2026-01-02 12:57:18.80	259.69	39.56	-29.8	-31.0	21.9	0.00e+00	0	56	0	1882193920	31	4067
2026-01-02 12:57:19.81	260.16	39.58	-29.8	-31.0	21.9	0.00e+00	0	56	0	1887436800	31	4059
2026-01-02 12:57:20.82	260.62	39.59	-29.9	-31.0	21.9	0.00e+00	0	56	0	1893728256	31	4091
2026-01-02 12:57:21.83	261.09	39.60	-29.9	-31.1	21.8	0.00e+00	0	57	0	1898971136	31	4105
2026-01-02 12:57:22.84	261.55	39.60	-29.9	-31.1	21.8	0.00e+00	0	57	0	1904214016	31	4124
2026-01-02 12:57:23.85	262.02	39.61	-29.9	-31.1	21.8	0.00e+00	0	57	0	1910505472	31	4103
2026-01-02 12:57:24.86	262.48	39.61	-29.9	-31.0	21.8	0.00e+00	0	57	0	1915748352	31	4086
2026-01-02 12:57:25.87	262.95	39.61	-29.9	-31.0	21.8	0.00e+00	0	57	0	1922039808	31	4068
2026-01-02 12:57:26.88	263.41	39.61	-29.9	-31.1	21.8	0.00e+00	0	57	0	1927282688	31	4104
2026-01-02 12:57:27.89	263.88	39.60	-30.0	-31.2	21.8	0.00e+00	0	57	0	1933574144	31	4158
2026-01-02 12:57:28.90	264.34	39.60	-30.0	-31.2	21.8	0.00e+00	0	57	0	1938817024	31	4155
2026-01-02 12:57:29.91	264.81	39.59	-29.9	-31.1	21.9	0.00e+00	0	57	0	1945108480	31	4100
2026-01-02 12:57:30.92	265.27	39.58	-29.8	-30.9	22.0	0.00e+00	0	57	0	1950351360	31	4044
2026-01-02 12:57:31.93	265.74	39.57	-29.8	-30.9	22.0	0.00e+00	0	57	0	1955594240	31	4028
2026-01-02 12:57:32.94	266.20	39.55	-29.7	-30.9	22.0	0.00e+00	0	56	0	1961885696	31	4007
2026-01-02 12:57:33.95	266.67	39.54	-29.8	-30.9	21.9	0.00e+00	0	56	0	1967128576	31	4049
2026-01-02 12:57:34.96	267.13	39.52	-29.9	-31.0	21.9	0.00e+00	0	56	0	1973420032	31	4074
2026-01-02 12:57:35.97	267.59	39.50	-30.0	-31.0	22.7	0.00e+00	0	57	0	1978662912	31	4094
2026-01-02 12:57:36.98	268.06	39.48	-30.1	-31.1	22.6	0.00e+00	0	56	0	1983905792	31	4109
2026-01-02 12:57:37.99	268.52	39.45	-30.2	-31.2	22.6	0.00e+00	0	57	0	1990197248	31	4147
2026-01-02 12:57:39.00	268.98	39.43	-30.2	-31.2	22.6	0.00e+00	0	56	0	1995440128	31	4162
2026-01-02 12:57:40.01	269.44	39.40	-30.2	-31.2	22.6	0.00e+00	0	57	0	2001731584	31	4168
2026-01-02 12:57:41.02	269.90	39.37	-30.1	-31.1	22.6	0.00e+00	0	56	0	2006974464	31	4127
2026-01-02 12:57:42.03	270.36	39.33	-29.9	-30.9	22.8	0.00e+00	0	57	0	2012217344	31	4017
2026-01-02 12:57:43.04	270.81	39.30	-29.8	-30.7	22.9	0.00e+00	0	56	0	2018508800	31	3958
2026-01-02 12:57:44.05	271.27	39.26	-29.9	-30.9	22.9	0.00e+00	0	57	0	2023751680	31	4011
2026-01-02 12:57:45.06	271.72	39.22	-30.1	-31.0	22.7	0.00e+00	0	57	0	2030043136	31	4097
2026-01-02 12:57:46.07	272.18	39.18	-30.1	-31.1	22.6	0.00e+00	0	57	0	2035286016	31	4134
2026-01-02 12:57:47.08	272.63	39.14	-30.2	-31.2	22.6	0.00e+00	0	57	0	2041577472	31	4163
2026-01-02 12:57:48.09	273.08	39.10	-30.2	-31.2	22.6	0.00e+00	0	57	0	2046820352	31	4161
2026-01-02 12:57:49.10	273.53	39.05	-30.2	-31.2	22.5	0.00e+00	0	57	0	2053111808	31	4183
2026-01-02 12:57:50.10	273.98	39.00	-30.2	-31.2	22.6	0.00e+00	0	57	0	2058354688	31	4158
2026-01-02 12:57:51.12	274.43	38.95	-30.2	-31.2	22.6	0.00e+00	0	57	0	2063597568	31	4154
2026-01-02 12:57:52.13	274.88	38.90	-30.1	-31.1	22.6	0.00e+00	0	56	0	2069889024	31	4138
2026-01-02 12:57:53.14	275.32	38.85	-30.1	-31.1	22.7	0.00e+00	0	57	0	2075131904	31	4101
2026-01-02 12:57:54.15	275.77	38.79	-30.0	-30.9	22.8	0.00e+00	0	57	0	2081423360	31	4050
2026-01-02 12:57:55.16	276.21	38.74	-29.9	-30.8	22.9	0.00e+00	0	56	0	2086666240	31	3996
2026-01-02 12:57:56.17	276.65	38.68	-29.9	-30.9	22.8	0.00e+00	0	57	0	2091909120	31	4029
2026-01-02 12:57:57.18	277.09	38.62	-30.1	-31.0	22.7	0.00e+00	0	57	0	2098200576	31	4098
2026-01-02 12:57:58.19	277.52	38.55	-30.0	-31.0	22.7	0.00e+00	0	57	0	2103443456	31	4088
2026-01-02 12:57:59.20	277.96	38.49	-30.0	-31.0	22.8	0.00e+00	0	57	0	2109734912	31	4067
2026-01-02 12:58:00.21	278.39	38.42	-29.9	-30.9	22.8	0.00e+00	0	57	0	2114977792	31	4015
2026-01-02 12:58:01.22	278.83	38.36	-29.9	-30.9	22.9	0.00e+00	0	57	0	2120220672	31	4010
2026-01-02 12:58:02.22	279.25	38.29	-29.9	-30.9	22.9	0.00e+00	0	57	0	2126512128	31	4010
2026-01-02 12:58:03.23	279.68	38.22	-29.9	-30.9	22.8	0.00e+00	0	57	0	2131755008	31	4030
2026-01-02 12:58:04.24	280.11	38.15	-30.1	-31.1	22.7	0.00e+00	0	57	0	2138046464	31	4107
2026-01-02 12:58:05.25	280.53	38.07	-30.2	-31.2	22.5	0.00e+00	0	57	0	2143289344	31	4192
2026-01-02 12:58:06.26	280.95	38.00	-30.2	-31.2	22.6	0.00e+00	0	57	0	2149580800	31	4152
2026-01-02 12:58:07.27	281.37	37.92	-30.0	-31.0	22.8	0.00e+00	0	57	0	2154823680	31	4061
2026-01-02 12:58:08.28	281.79	37.84	-29.9	-30.8	22.9	0.00e+00	0	57	0	2160066560	31	3989
2026-01-02 12:58:09.29	282.21	37.76	-29.9	-30.9	22.8	0.00e+00	0	57	0	2166358016	31	4030
2026-01-02 12:58:10.30	282.63	37.68	-30.0	-31.0	22.7	0.00e+00	0	57	0	2171600896	31	4081
2026-01-02 12:58:11.31	283.04	37.60	-30.1	-31.1	22.6	0.00e+00	0	57	0	2177892352	31	4130
2026-01-02 12:58:12.32	283.45	37.51	-30.1	-31.1	22.6	0.00e+00	0	57	0	2183135232	31	4124
2026-01-02 12:58:13.34	283.86	37.43	-30.1	-31.0	22.7	0.00e+00	0	57	0	2188378112	31	4091
2026-01-02 12:58:14.35	284.27	37.34	-29.9	-30.9	22.8	0.00e+00	0	56	0	2194669568	31	4037
2026-01-02 12:58:15.36	284.67	37.25	-29.8	-30.7	23.0	0.00e+00	0	57	0	2199912448	31	3935
2026-01-02 12:58:16.37	285.07	37.16	-29.8	-30.7	23.0	0.00e+00	0	57	0	2206203904	31	3948
2026-01-02 12:58:17.37	285.47	37.07	-29.9	-30.9	22.9	0.00e+00	0	57	0	2211446784	31	4015
2026-01-02 12:58:18.38	285.87	36.98	-30.0	-31.0	22.8	0.00e+00	0	57	0	2216689664	31	4074
2026-01-02 12:58:19.39	286.26	36.88	-30.1	-31.1	22.7	0.00e+00	0	57	0	2222981120	31	4111
2026-01-02 12:58:20.40	286.65	36.79	-30.1	-31.1	22.7	0.00e+00	0	57	0	2228224000	31	4112
2026-01-02 12:58:21.41	287.05	36.69	-30.2	-31.2	22.6	0.00e+00	0	57	0	2234515456	31	4154
2026-01-02 12:58:22.42	287.43	36.60	-30.2	-31.2	22.5	0.00e+00	0	57	0	2239758336	31	4190
2026-01-02 12:58:23.43	287.82	36.50	-30.3	-31.3	22.5	0.00e+00	0	57	0	2246049792	31	4224
2026-01-02 12:58:24.44	288.20	36.40	-30.3	-31.3	22.4	0.00e+00	0	57	0	2251292672	31	4236
2026-01-02 12:58:25.45	288.59	36.30	-30.3	-31.3	22.4	0.00e+00	0	57	0	2257584128	31	4234
2026-01-02 12:58:26.46	288.96	36.20	-30.3	-31.3	22.5	0.00e+00	0	57	0	2262827008	31	4207
2026-01-02 12:58:27.47	289.34	36.09	-30.2	-31.2	22.6	0.00e+00	0	57	0	2268069888	31	4180
2026-01-02 12:58:28.48	289.72	35.99	-30.2	-31.2	22.6	0.00e+00	0	56	0	2274361344	31	4172
2026-01-02 12:58:29.49	290.09	35.89	-30.2	-31.2	22.6	0.00e+00	0	57	0	2279604224	31	4154
2026-01-02 12:58:30.50	290.46	35.78	-30.1	-31.1	22.6	0.00e+00	0	57	0	2285895680	31	4120
2026-01-02 12:58:31.51	290.83	35.67	-30.0	-31.0	22.7	0.00e+00	0	56	0	2291138560	31	4071
2026-01-02 12:58:32.52	291.19	35.57	-30.1	-31.1	22.7	0.00e+00	0	57	0	2296381440	31	4106
2026-01-02 12:58:33.53	291.55	35.46	-30.2	-31.2	22.6	0.00e+00	0	57	0	2302672896	31	4168
2026-01-02 12:58:34.54	291.91	35.35	-30.4	-31.4	22.4	0.00e+00	0	57	0	2307915776	31	4250
2026-01-02 12:58:35.55	292.27	35.24	-30.4	-31.5	22.3	0.00e+00	0	57	0	2314207232	31	4294
2026-01-02 12:58:36.56	292.63	35.13	-30.3	-31.3	22.4	0.00e+00	0	57	0	2319450112	31	4218
2026-01-02 12:58:37.57	292.98	35.02	-30.1	-31.1	22.6	0.00e+00	0	57	0	2324692992	31	4139
2026-01-02 12:58:38.58	293.33	34.90	-30.0	-31.0	22.7	0.00e+00	0	57	0	2330984448	31	4078
2026-01-02 12:58:39.59	293.68	34.79	-30.0	-31.0	22.8	0.00e+00	0	57	0	2336227328	31	4056
2026-01-02 12:58:40.60	294.02	34.68	-30.1	-31.1	22.7	0.00e+00	0	57	0	2342518784	31	4100
2026-01-02 12:58:41.61	294.37	34.56	-30.2	-31.2	22.6	0.00e+00	0	57	0	2347761664	31	4174
2026-01-02 12:58:42.62	294.71	34.45	-30.3	-31.3	22.4	0.00e+00	0	57	0	2354053120	31	4236
2026-01-02 12:58:43.63	295.05	34.33	-30.4	-31.4	22.4	0.00e+00	0	57	0	2359296000	31	4259
2026-01-02 12:58:44.64	295.38	34.21	-30.3	-31.3	22.4	0.00e+00	0	57	0	2364538880	31	4242
2026-01-02 12:58:45.65	295.72	34.10	-30.3	-31.3	22.5	0.00e+00	0	57	0	2370830336	31	4215
2026-01-02 12:58:46.66	296.05	33.98	-30.3	-31.2	22.5	0.00e+00	0	57	0	2376073216	31	4192
2026-01-02 12:58:47.67	296.38	33.86	-30.2	-31.2	22.5	0.00e+00	0	57	0	2382364672	31	4178
2026-01-02 12:58:48.68	296.71	33.74	-30.3	-31.2	22.5	0.00e+00	0	57	0	2387607552	31	4193
2026-01-02 12:58:49.69	297.03	33.62	-30.3	-31.3	22.5	0.00e+00	0	57	0	2392850432	31	4217
2026-01-02 12:58:50.71	297.35	33.50	-30.4	-31.4	22.4	0.00e+00	0	57	0	2399141888	31	4256
2026-01-02 12:58:51.72	297.67	33.38	-30.4	-31.4	22.4	0.00e+00	0	57	0	2404384768	31	4270
2026-01-02 12:58:52.72	297.99	33.26	-30.3	-31.3	22.4	0.00e+00	0	57	0	2410676224	31	4237
2026-01-02 12:58:53.73	298.30	33.14	-30.3	-31.3	22.4	0.00e+00	0	57	0	2415919104	31	4224
2026-01-02 12:58:54.75	298.62	33.02	-30.3	-31.3	22.4	0.00e+00	0	57	0	2422210560	31	4226
2026-01-02 12:58:55.76	298.93	32.89	-30.4	-31.4	22.4	0.00e+00	0	57	0	2427453440	31	4258
2026-01-02 12:58:56.77	299.24	32.77	-30.5	-31.5	22.2	0.00e+00	0	56	0	2432696320	31	4333
2026-01-02 12:58:57.78	299.54	32.65	-30.6	-31.6	22.2	0.00e+00	0	57	0	2438987776	31	4382
2026-01-02 12:58:58.79	299.85	32.52	-30.6	-31.6	22.2	0.00e+00	0	57	0	2444230656	31	4384
2026-01-02 12:58:59.80	300.15	32.40	-30.6	-31.6	22.2	0.00e+00	0	57	0	2450522112	31	4374
2026-01-02 12:59:00.81	300.45	32.28	-30.5	-31.6	22.2	0.00e+00	0	57	0	2455764992	31	4344
2026-01-02 12:59:01.82	300.75	32.15	-30.5	-31.5	22.2	0.00e+00	0	57	0	2462056448	31	4331
2026-01-02 12:59:02.83	301.04	32.03	-30.4	-31.5	22.3	0.00e+00	0	57	0	2467299328	31	4295
2026-01-02 12:59:03.83	301.33	31.90	-30.4	-31.4	22.4	0.00e+00	0	57	0	2472542208	31	4259
2026-01-02 12:59:04.84	301.62	31.78	-30.3	-31.3	22.4	0.00e+00	0	57	0	2478833664	31	4237
2026-01-02 12:59:05.85	301.91	31.65	-30.3	-31.3	22.4	0.00e+00	0	57	0	2484076544	31	4236
2026-01-02 12:59:06.86	302.19	31.53	-30.4	-31.5	22.3	0.00e+00	0	57	0	2490368000	31	4294
2026-01-02 12:59:07.87	302.48	31.40	-30.6	-31.6	22.2	0.00e+00	0	57	0	2495610880	31	4362
2026-01-02 12:59:08.88	302.76	31.27	-30.7	-31.7	22.1	0.00e+00	0	57	0	2500853760	31	4406
2026-01-02 12:59:09.89	303.04	31.15	-30.7	-31.7	22.0	0.00e+00	0	57	0	2507145216	31	4438
2026-01-02 12:59:10.90	303.31	31.02	-30.9	-31.9	22.0	0.00e+00	0	57	0	2512388096	32	4275
2026-01-02 12:59:11.91	303.59	30.89	-30.9	-32.0	22.0	0.00e+00	0	57	0	2518679552	32	4307
2026-01-02 12:59:12.92	303.86	30.77	-31.0	-32.0	21.9	0.00e+00	0	57	0	2523922432	32	4322
2026-01-02 12:59:13.93	304.13	30.64	-31.0	-32.0	21.9	0.00e+00	0	57	0	2529165312	32	4332
2026-01-02 12:59:14.94	304.40	30.51	-31.0	-32.0	21.9	0.00e+00	0	57	0	2535456768	32	4335
2026-01-02 12:59:15.95	304.67	30.38	-30.9	-31.9	22.0	0.00e+00	0	57	0	2540699648	32	4290
2026-01-02 12:59:16.96	304.93	30.26	-30.9	-31.9	22.1	0.00e+00	0	57	0	2546991104	32	4255
2026-01-02 12:59:17.97	305.19	30.13	-30.8	-31.8	22.1	0.00e+00	0	57	0	2552233984	32	4221
2026-01-02 12:59:18.98	305.45	30.00	-30.8	-31.8	22.2	0.00e+00	0	57	0	2558525440	32	4203
2026-01-02 12:59:19.99	305.71	29.87	-30.8	-31.8	22.1	0.00e+00	0	57	0	2563768320	32	4242
2026-01-02 12:59:21.00	305.97	29.75	-30.9	-31.9	22.0	0.00e+00	0	57	0	2570059776	32	4278
2026-01-02 12:59:22.00	306.22	29.62	-31.0	-32.0	21.9	0.00e+00	0	57	0	2575302656	32	4322
2026-01-02 12:59:23.01	306.47	29.49	-31.0	-32.0	21.9	0.00e+00	0	57	0	2580545536	32	4339
2026-01-02 12:59:24.02	306.72	29.37	-31.0	-32.0	21.9	0.00e+00	0	57	0	2586836992	32	4339
2026-01-02 12:59:25.03	306.97	29.24	-31.0	-32.0	21.9	0.00e+00	0	57	0	2592079872	32	4338
2026-01-02 12:59:26.04	307.22	29.11	-30.9	-32.0	21.9	0.00e+00	0	57	0	2597322752	32	4295
2026-01-02 12:59:27.05	307.46	28.98	-30.9	-31.9	22.0	0.00e+00	0	57	0	2603614208	32	4282
2026-01-02 12:59:28.06	307.71	28.85	-31.0	-32.0	21.9	0.00e+00	0	57	0	2608857088	32	4312
2026-01-02 12:59:29.07	307.95	28.73	-31.1	-32.2	21.8	0.00e+00	0	57	0	2615148544	32	4393
2026-01-02 12:59:30.08	308.19	28.60	-31.3	-32.3	21.6	0.00e+00	0	57	0	2620391424	33	4242
2026-01-02 12:59:31.09	308.42	28.47	-31.5	-32.5	21.4	0.00e+00	0	57	0	2625634304	33	4335
2026-01-02 12:59:32.10	308.66	28.34	-31.5	-32.6	21.4	0.00e+00	0	57	0	2631925760	33	4354
2026-01-02 12:59:33.11	308.89	28.22	-31.4	-32.5	21.5	0.00e+00	0	57	0	2637168640	33	4293
2026-01-02 12:59:34.12	309.12	28.09	-31.2	-32.3	21.6	0.00e+00	0	57	0	2643460096	33	4200
2026-01-02 12:59:35.13	309.35	27.96	-31.0	-32.0	21.9	0.00e+00	0	57	0	2648702976	33	4082
2026-01-02 12:59:36.14	309.58	27.84	-30.8	-31.9	22.0	0.00e+00	0	57	0	2654994432	33	4005
2026-01-02 12:59:37.15	309.81	27.71	-30.8	-31.8	22.1	0.00e+00	0	57	0	2660237312	33	3980
2026-01-02 12:59:38.16	310.03	27.58	-30.8	-31.8	22.1	0.00e+00	0	57	0	2666528768	33	3991
2026-01-02 12:59:39.17	310.26	27.46	-30.9	-32.0	21.9	0.00e+00	0	57	0	2671771648	33	4052
2026-01-02 12:59:40.18	310.48	27.33	-31.0	-32.0	21.9	0.00e+00	0	57	0	2677014528	33	4086
2026-01-02 12:59:41.18	310.69	27.20	-31.1	-32.1	21.8	0.00e+00	0	57	0	2683305984	33	4127
2026-01-02 12:59:42.19	310.91	27.08	-31.1	-32.1	21.8	0.00e+00	0	57	0	2688548864	33	4128
2026-01-02 12:59:43.20	311.13	26.95	-31.1	-32.1	21.8	0.00e+00	0	57	0	2694840320	33	4134
2026-01-02 12:59:44.21	311.34	26.83	-31.0	-32.1	21.8	0.00e+00	0	57	0	2700083200	33	4112
2026-01-02 12:59:45.22	311.56	26.70	-31.0	-32.1	21.8	0.00e+00	0	57	0	2705326080	33	4118
2026-01-02 12:59:46.23	311.77	26.57	-31.0	-32.0	21.8	0.00e+00	0	57	0	2711617536	33	4096
2026-01-02 12:59:47.24	311.98	26.45	-30.9	-32.0	21.9	0.00e+00	0	57	0	2716860416	33	4057
2026-01-02 12:59:48.25	312.18	26.32	-30.9	-31.9	21.9	0.00e+00	0	57	0	2723151872	33	4046
2026-01-02 12:59:49.26	312.39	26.20	-30.9	-31.9	21.9	0.00e+00	0	57	0	2728394752	33	4029
2026-01-02 12:59:50.27	312.59	26.07	-30.9	-31.9	21.9	0.00e+00	0	57	0	2733637632	33	4041
2026-01-02 12:59:51.28	312.80	25.95	-30.9	-32.0	21.9	0.00e+00	0	57	0	2739929088	33	4053
2026-01-02 12:59:52.29	313.00	25.83	-31.0	-32.0	21.8	0.00e+00	0	57	0	2745171968	33	4095
2026-01-02 12:59:53.30	313.20	25.70	-31.1	-32.2	21.7	0.00e+00	0	57	0	2751463424	33	4155
2026-01-02 12:59:54.31	313.40	25.58	-31.2	-32.3	21.6	0.00e+00	0	57	0	2756706304	33	4200
2026-01-02 12:59:55.32	313.59	25.45	-31.3	-32.3	21.6	0.00e+00	0	57	0	2762997760	33	4227
2026-01-02 12:59:56.33	313.79	25.33	-31.3	-32.3	21.5	0.00e+00	0	57	0	2768240640	33	4230
2026-01-02 12:59:57.34	313.98	25.21	-31.3	-32.3	21.6	0.00e+00	0	57	0	2773483520	33	4224
2026-01-02 12:59:58.35	314.18	25.08	-31.2	-32.3	21.6	0.00e+00	0	57	0	2779774976	33	4216
2026-01-02 12:59:59.36	314.37	24.96	-31.2	-32.3	21.6	0.00e+00	0	57	0	2785017856	33	4201
2026-01-02 13:00:00.37	314.56	24.84	-31.2	-32.3	21.6	0.00e+00	0	57	0	2791309312	33	4195
2026-01-02 13:00:01.38	314.75	24.72	-31.2	-32.3	21.6	0.00e+00	0	57	0	2796552192	33	4209
2026-01-02 13:00:02.39	314.93	24.60	-31.3	-32.3	21.5	0.00e+00	0	57	0	2801795072	33	4230
2026-01-02 13:00:03.40	315.12	24.47	-31.3	-32.4	21.5	0.00e+00	0	57	0	2808086528	33	4258
2026-01-02 13:00:04.41	315.30	24.35	-31.4	-32.5	21.4	0.00e+00	0	57	0	2813329408	33	4298
2026-01-02 13:00:05.42	315.48	24.23	-31.5	-32.5	21.3	0.00e+00	0	57	0	2819620864	33	4332
2026-01-02 13:00:06.43	315.67	24.11	-31.5	-32.5	21.3	0.00e+00	0	57	0	2824863744	33	4340
2026-01-02 13:00:07.44	315.85	23.99	-31.5	-32.5	21.3	0.00e+00	0	57	0	2830106624	33	4340
2026-01-02 13:00:08.45	316.02	23.87	-31.5	-32.5	21.3	0.00e+00	0	57	0	2836398080	33	4336
2026-01-02 13:00:09.46	316.20	23.75	-31.5	-32.5	21.3	0.00e+00	0	57	0	2841640960	33	4328
2026-01-02 13:00:10.47	316.38	23.63	-31.4	-32.5	21.4	0.00e+00	0	57	0	2847932416	33	4301
2026-01-02 13:00:11.48	316.55	23.51	-31.4	-32.4	21.4	0.00e+00	0	57	0	2853175296	33	4286
2026-01-02 13:00:12.49	316.72	23.39	-31.4	-32.4	21.4	0.00e+00	0	57	0	2859466752	33	4283
2026-01-02 13:00:13.50	316.90	23.27	-31.4	-32.4	21.4	0.00e+00	0	57	0	2864709632	33	4285
2026-01-02 13:00:14.51	317.07	23.15	-31.4	-32.4	21.4	0.00e+00	0	57	0	2871001088	33	4283
2026-01-02 13:00:15.52	317.24	23.04	-31.5	-32.5	21.3	0.00e+00	0	57	0	2876243968	33	4330
2026-01-02 13:00:16.53	317.41	22.92	-31.5	-32.6	21.3	0.00e+00	0	57	0	2881486848	33	4352
2026-01-02 13:00:17.54	317.57	22.80	-31.5	-32.6	21.2	0.00e+00	0	57	0	2887778304	33	4368
2026-01-02 13:00:18.55	317.74	22.68	-31.6	-32.7	21.2	0.00e+00	0	57	0	2893021184	33	4404
2026-01-02 13:00:19.56	317.90	22.57	-31.6	-32.7	21.1	0.00e+00	0	57	0	2899312640	33	4417
2026-01-02 13:00:20.57	318.07	22.45	-31.7	-32.7	21.1	0.00e+00	0	57	0	2904555520	33	4430
2026-01-02 13:00:21.58	318.23	22.33	-31.7	-32.7	21.1	0.00e+00	0	57	0	2909798400	33	4440
2026-01-02 13:00:22.59	318.39	22.22	-31.7	-32.7	21.1	0.00e+00	0	57	0	2916089856	33	4440
2026-01-02 13:00:23.60	318.55	22.10	-31.7	-32.7	21.1	0.00e+00	0	57	0	2921332736	33	4439
2026-01-02 13:00:24.61	318.71	21.98	-31.7	-32.7	21.1	0.00e+00	0	57	0	2927624192	33	4424
2026-01-02 13:00:25.62	318.86	21.87	-31.7	-32.7	21.1	0.00e+00	0	57	0	2932867072	33	4441
2026-01-02 13:00:26.63	319.02	21.75	-31.7	-32.8	21.0	0.00e+00	0	57	0	2938109952	34	4213
2026-01-02 13:00:27.64	319.18	21.64	-31.8	-32.8	21.0	0.00e+00	0	57	0	2944401408	34	4227
2026-01-02 13:00:28.64	319.33	21.53	-31.8	-32.9	21.0	0.00e+00	0	57	0	2949644288	34	4245
2026-01-02 13:00:29.65	319.48	21.41	-31.8	-32.9	21.0	0.00e+00	0	57	0	2955935744	34	4264
2026-01-02 13:00:30.66	319.63	21.30	-31.9	-33.0	20.8	0.00e+00	0	57	0	2961178624	34	4316
2026-01-02 13:00:31.67	319.79	21.19	-32.0	-33.1	20.8	0.00e+00	0	57	0	2967470080	34	4362
2026-01-02 13:00:32.68	319.94	21.07	-32.1	-33.2	20.6	0.00e+00	0	57	0	2972712960	34	4433
2026-01-02 13:00:33.69	320.08	20.96	-32.2	-33.3	20.5	0.00e+00	0	57	0	2977955840	34	4487
2026-01-02 13:00:34.70	320.23	20.85	-32.3	-33.4	20.4	0.00e+00	0	57	0	2984247296	35	4284
2026-01-02 13:00:35.71	320.38	20.74	-32.4	-33.5	20.4	0.00e+00	0	57	0	2989490176	35	4310
2026-01-02 13:00:36.72	320.52	20.62	-32.4	-33.5	20.3	0.00e+00	0	57	0	2995781632	35	4335
2026-01-02 13:00:37.73	320.67	20.51	-32.4	-33.5	20.3	0.00e+00	0	57	0	3001024512	35	4331
2026-01-02 13:00:38.74	320.81	20.40	-32.4	-33.5	20.3	0.00e+00	0	57	0	3006267392	35	4326
2026-01-02 13:00:39.75	320.95	20.29	-32.4	-33.5	20.3	0.00e+00	0	57	0	3012558848	35	4316
2026-01-02 13:00:40.77	321.10	20.18	-32.4	-33.5	20.4	0.00e+00	0	57	0	3017801728	35	4306
2026-01-02 13:00:41.78	321.24	20.07	-32.3	-33.5	20.4	0.00e+00	0	57	0	3024093184	35	4301
2026-01-02 13:00:42.79	321.38	19.96	-32.3	-33.5	20.4	0.00e+00	0	57	0	3029336064	35	4295
2026-01-02 13:00:43.79	321.52	19.85	-32.4	-33.5	20.3	0.00e+00	0	57	0	3034578944	35	4310
2026-01-02 13:00:44.80	321.65	19.74	-32.4	-33.5	20.3	0.00e+00	0	57	0	3040870400	35	4336
2026-01-02 13:00:45.81	321.79	19.63	-32.5	-33.6	20.2	0.00e+00	0	57	0	3046113280	35	4381
2026-01-02 13:00:46.82	321.93	19.52	-32.6	-33.7	20.1	0.00e+00	0	57	0	3052404736	35	4436
2026-01-02 13:00:47.83	322.06	19.42	-32.7	-33.9	20.0	0.00e+00	0	57	0	3057647616	35	4501
2026-01-02 13:00:48.84	322.19	19.31	-33.4	-34.5	20.0	0.00e+00	0	57	0	3063939072	37	4322
2026-01-02 13:00:49.85	322.33	19.20	-33.4	-34.6	19.9	0.00e+00	0	57	0	3069181952	37	4376
2026-01-02 13:00:50.86	322.46	19.09	-33.5	-34.6	19.9	0.00e+00	0	57	0	3075473408	37	4387
2026-01-02 13:00:51.87	322.59	18.99	-33.5	-34.6	19.9	0.00e+00	0	57	0	3080716288	37	4388
2026-01-02 13:00:52.88	322.72	18.88	-33.4	-34.6	20.0	0.00e+00	0	57	0	3085959168	37	4357
2026-01-02 13:00:53.89	322.85	18.77	-33.4	-34.6	20.0	0.00e+00	0	57	0	3092250624	37	4343
2026-01-02 13:00:54.90	322.98	18.67	-33.3	-34.5	20.0	0.00e+00	0	57	0	3097493504	37	4309
2026-01-02 13:00:55.91	323.11	18.56	-33.3	-34.4	20.1	0.00e+00	0	57	0	3103784960	37	4276
2026-01-02 13:00:56.92	323.24	18.46	-33.2	-34.4	20.1	0.00e+00	0	57	0	3109027840	37	4248
2026-01-02 13:00:57.93	323.36	18.35	-33.2	-34.4	20.1	0.00e+00	0	57	0	3114270720	37	4249
2026-01-02 13:00:58.94	323.49	18.25	-33.2	-34.4	20.1	0.00e+00	0	57	0	3120562176	37	4246
2026-01-02 13:00:59.95	323.61	18.14	-33.2	-34.4	20.1	0.00e+00	0	57	0	3125805056	37	4253
2026-01-02 13:01:00.96	323.73	18.04	-33.3	-34.4	20.1	0.00e+00	0	57	0	3132096512	37	4273
2026-01-02 13:01:01.97	323.86	17.94	-33.3	-34.4	20.1	0.00e+00	0	57	0	3137339392	37	4280
2026-01-02 13:01:02.98	323.98	17.83	-33.4	-34.5	20.0	0.00e+00	0	57	0	3142582272	37	4313
2026-01-02 13:01:03.99	324.10	17.73	-33.4	-34.5	20.0	0.00e+00	0	57	0	3148873728	37	4332
2026-01-02 13:01:05.00	324.22	17.63	-33.4	-34.6	19.9	0.00e+00	0	57	0	3154116608	37	4353
2026-01-02 13:01:06.01	324.34	17.52	-33.5	-34.6	19.9	0.00e+00	0	57	0	3160408064	37	4371
2026-01-02 13:01:07.02	324.46	17.42	-33.5	-34.6	19.9	0.00e+00	0	57	0	3165650944	37	4370
2026-01-02 13:01:08.03	324.58	17.32	-33.5	-34.7	19.8	0.00e+00	0	57	0	3171942400	37	4396
2026-01-02 13:01:09.04	324.70	17.22	-33.5	-34.6	19.9	0.00e+00	0	57	0	3177185280	37	4386
2026-01-02 13:01:10.05	324.81	17.12	-33.5	-34.6	19.9	0.00e+00	0	57	0	3183476736	37	4383
2026-01-02 13:01:11.06	324.93	17.02	-33.5	-34.6	19.9	0.00e+00	0	57	0	3188719616	37	4379
2026-01-02 13:01:12.07	325.04	16.92	-33.5	-34.7	19.8	0.00e+00	0	57	0	3193962496	37	4395
2026-01-02 13:01:13.08	325.16	16.82	-33.5	-34.7	19.8	0.00e+00	0	57	0	3200253952	37	4399
2026-01-02 13:01:14.09	325.27	16.72	-33.5	-34.7	19.8	0.00e+00	0	57	0	3205496832	37	4405
2026-01-02 13:01:15.10	325.38	16.62	-33.5	-34.7	19.8	0.00e+00	0	57	0	3211788288	37	4405
2026-01-02 13:01:16.11	325.50	16.52	-33.5	-34.7	19.8	0.00e+00	0	57	0	3217031168	37	4422
2026-01-02 13:01:17.12	325.61	16.42	-33.6	-34.7	19.7	0.00e+00	0	57	0	3222274048	37	4430
2026-01-02 13:01:18.13	325.72	16.32	-33.6	-34.8	19.7	0.00e+00	0	57	0	3228565504	37	4448
2026-01-02 13:01:19.14	325.83	16.22	-33.6	-34.8	19.7	0.00e+00	0	57	0	3233808384	37	4466
2026-01-02 13:01:20.15	325.94	16.12	-33.7	-34.9	19.6	0.00e+00	0	57	0	3240099840	37	4502
2026-01-02 13:01:21.16	326.05	16.02	-33.7	-34.9	19.5	0.00e+00	0	57	0	3245342720	38	4283
2026-01-02 13:01:22.17	326.15	15.93	-33.8	-35.0	19.5	0.00e+00	0	57	0	3250585600	38	4318
2026-01-02 13:01:23.18	326.26	15.83	-33.8	-35.0	19.5	0.00e+00	0	57	0	3256877056	38	4320
2026-01-02 13:01:24.19	326.37	15.73	-33.8	-35.0	19.4	0.00e+00	0	57	0	3262119936	38	4333
2026-01-02 13:01:25.20	326.47	15.64	-33.8	-35.0	19.4	0.00e+00	0	57	0	3268411392	38	4335
2026-01-02 13:01:26.21	326.58	15.54	-33.8	-35.1	19.4	0.00e+00	0	57	0	3273654272	38	4341
2026-01-02 13:01:27.22	326.68	15.44	-33.9	-35.1	19.4	0.00e+00	0	57	0	3279945728	38	4354
2026-01-02 13:01:28.23	326.79	15.35	-33.9	-35.1	19.4	0.00e+00	0	57	0	3285188608	38	4354
2026-01-02 13:01:29.24	326.89	15.25	-33.9	-35.1	19.4	0.00e+00	0	57	0	3290431488	38	4367
2026-01-02 13:01:30.25	326.99	15.16	-33.9	-35.1	19.3	0.00e+00	0	57	0	3296722944	38	4366
2026-01-02 13:01:31.26	327.10	15.06	-33.9	-35.1	19.3	0.00e+00	0	57	0	3301965824	38	4348
2026-01-02 13:01:32.27	327.20	14.97	-33.9	-35.1	19.3	0.00e+00	0	57	0	3308257280	38	4376
2026-01-02 13:01:33.28	327.30	14.87	-33.9	-35.2	19.3	0.00e+00	0	57	0	3313500160	38	4393
2026-01-02 13:01:34.29	327.40	14.78	-34.0	-35.2	19.2	0.00e+00	0	57	0	3318743040	38	4402
2026-01-02 13:01:35.30	327.50	14.69	-34.0	-35.2	19.2	0.00e+00	0	57	0	3325034496	38	4415
2026-01-02 13:01:36.32	327.60	14.59	-34.0	-35.2	19.2	0.00e+00	0	57	0	3330277376	38	4422
2026-01-02 13:01:37.33	327.70	14.50	-34.0	-35.3	19.2	0.00e+00	0	57	0	3336568832	38	4444
2026-01-02 13:01:38.34	327.80	14.41	-34.1	-35.3	19.1	0.00e+00	0	57	0	3341811712	38	4480
2026-01-02 13:01:39.35	327.89	14.31	-34.2	-35.4	19.0	0.00e+00	0	57	0	3348103168	38	4515
2026-01-02 13:01:40.36	327.99	14.22	-34.2	-35.5	18.9	0.00e+00	0	57	0	3353346048	38	4552
2026-01-02 13:01:41.37	328.09	14.13	-34.3	-35.5	18.9	0.00e+00	0	57	0	3358588928	39	4331
2026-01-02 13:01:42.38	328.18	14.04	-34.3	-35.6	18.8	0.00e+00	0	57	0	3364880384	39	4351
2026-01-02 13:01:43.39	328.28	13.95	-34.4	-35.7	18.7	0.00e+00	0	57	0	3370123264	39	4395
2026-01-02 13:01:44.40	328.37	13.85	-34.5	-35.7	18.6	0.00e+00	0	57	0	3376414720	39	4439
2026-01-02 13:01:45.41	328.47	13.76	-34.5	-35.8	18.6	0.00e+00	0	57	0	3381657600	39	4463
2026-01-02 13:01:46.42	328.56	13.67	-34.5	-35.8	18.6	0.00e+00	0	57	0	3386900480	39	4478
2026-01-02 13:01:47.43	328.65	13.58	-34.6	-35.9	18.5	0.00e+00	0	57	0	3393191936	39	4514
2026-01-02 13:01:48.44	328.74	13.49	-34.6	-35.9	18.5	0.00e+00	0	57	0	3398434816	39	4519
2026-01-02 13:01:49.45	328.84	13.40	-34.6	-35.9	18.5	0.00e+00	0	57	0	3404726272	39	4527
2026-01-02 13:01:50.46	328.93	13.31	-34.6	-35.9	18.4	0.00e+00	0	57	0	3409969152	39	4545
2026-01-02 13:01:51.47	329.02	13.22	-34.6	-36.0	18.4	0.00e+00	0	57	0	3416260608	39	4549
2026-01-02 13:01:52.48	329.11	13.13	-34.7	-36.0	18.4	0.00e+00	0	57	0	3421503488	39	4552
2026-01-02 13:01:53.49	329.20	13.05	-34.6	-35.9	18.4	0.00e+00	0	57	0	3426746368	39	4541
2026-01-02 13:01:54.50	329.29	12.96	-34.6	-35.9	18.4	0.00e+00	0	57	0	3433037824	39	4525
2026-01-02 13:01:55.51	329.38	12.87	-34.6	-35.9	18.4	0.00e+00	0	57	0	3438280704	39	4518
2026-01-02 13:01:56.53	329.47	12.78	-34.6	-35.9	18.4	0.00e+00	0	57	0	3444572160	39	4515
2026-01-02 13:01:57.54	329.55	12.69	-34.6	-35.9	18.4	0.00e+00	0	57	0	3449815040	39	4535
2026-01-02 13:01:58.55	329.64	12.60	-34.6	-35.9	18.4	0.00e+00	0	57	0	3456106496	39	4524
2026-01-02 13:01:59.56	329.73	12.52	-34.6	-35.9	18.4	0.00e+00	0	57	0	3461349376	39	4526
2026-01-02 13:02:00.57	329.81	12.43	-34.7	-36.0	18.3	0.00e+00	0	57	0	3466592256	39	4552
2026-01-02 13:02:01.57	329.90	12.34	-34.7	-36.0	18.3	0.00e+00	0	57	0	3472883712	39	4564
