passes_logs/2026/01/02/R2.0S_Moscow/R2.0S_Moscow__20260102_221902_SUOMI_NPP_rec.log

#Pass ID: 20260102_221902_SUOMI NPP
#Satellite: SUOMI NPP
#Configuration: NPP
#almurnet v.1.7.20251203
#Start time: 2026-01-02 22:19:03

#Version: 2.2.20231116
#Station: R2.0S_Moscow
#Location: 37.707566 lon 55.798166 lat
#TLE: 1 37849U 11061A   26001.07732418  .00000182  00000+0  10735-3 0  9990
#TLE: 2 37849  98.7795 303.2470 0002580  87.2016 272.9455 14.19520779734739

#Time	Az	El	Level	Level2	SNR	BER	BlckErr	Temp	State	Recorded	gain1	gain2
2026-01-02 22:19:03.76	24.78	2.09	-42.4	-57.3	3.8	1.49e+00	0	48	0	0	56	20012
2026-01-02 22:19:04.76	24.85	2.15	-42.2	-57.1	3.8	1.49e+00	0	48	104	0	55	20742
2026-01-02 22:19:05.77	24.92	2.21	-42.2	-57.1	3.8	1.49e+00	0	48	104	0	55	20721
2026-01-02 22:19:06.78	24.99	2.26	-42.2	-57.1	3.8	1.49e+00	0	48	104	0	55	20739
2026-01-02 22:19:07.79	25.06	2.32	-42.2	-57.2	3.8	1.49e+00	0	48	104	0	55	20784
2026-01-02 22:19:08.80	25.13	2.37	-42.2	-57.1	3.8	1.49e+00	0	48	104	0	55	20698
2026-01-02 22:19:09.82	25.20	2.43	-42.2	-57.1	3.8	1.49e+00	0	48	104	0	55	20739
2026-01-02 22:19:10.83	25.27	2.49	-42.2	-57.1	3.8	1.49e+00	0	48	104	0	55	20625
2026-01-02 22:19:11.84	25.34	2.54	-42.2	-57.2	3.8	1.49e+00	0	48	104	0	55	20793
2026-01-02 22:19:12.85	25.41	2.60	-42.2	-57.1	3.8	1.49e+00	0	48	104	0	55	20662
2026-01-02 22:19:13.86	25.48	2.66	-42.2	-57.1	3.8	1.49e+00	0	48	104	0	55	20689
2026-01-02 22:19:14.87	25.55	2.71	-42.2	-57.1	3.8	1.49e+00	0	49	104	0	55	20745
2026-01-02 22:19:15.88	25.63	2.77	-42.2	-57.1	3.8	1.49e+00	0	49	104	0	55	20699
2026-01-02 22:19:16.89	25.70	2.83	-42.2	-57.1	3.8	1.49e+00	0	49	104	0	55	20699
2026-01-02 22:19:17.90	25.77	2.89	-42.2	-57.1	3.8	1.49e+00	0	49	104	0	55	20738
2026-01-02 22:19:18.91	25.84	2.94	-42.2	-57.1	3.8	1.49e+00	0	49	104	0	55	20716
2026-01-02 22:19:19.93	25.92	3.00	-42.2	-57.1	3.8	1.49e+00	0	49	104	0	55	20700
2026-01-02 22:19:20.94	25.99	3.06	-42.2	-57.1	3.8	1.49e+00	0	49	104	0	55	20674
2026-01-02 22:19:21.95	26.06	3.12	-42.2	-57.1	3.8	1.49e+00	0	49	104	0	55	20632
2026-01-02 22:19:22.96	26.14	3.17	-42.2	-57.1	3.8	1.49e+00	0	49	104	0	55	20637
2026-01-02 22:19:23.97	26.21	3.23	-42.2	-57.1	3.8	1.49e+00	0	49	104	0	55	20724
2026-01-02 22:19:24.98	26.28	3.29	-42.2	-57.1	3.8	1.49e+00	0	49	104	0	55	20700
2026-01-02 22:19:25.99	26.36	3.35	-42.2	-57.1	3.8	1.49e+00	0	49	104	0	55	20674
2026-01-02 22:19:27.00	26.43	3.40	-42.2	-57.1	3.8	1.49e+00	0	49	104	0	55	20670
2026-01-02 22:19:28.01	26.51	3.46	-42.2	-57.1	3.8	1.49e+00	0	49	104	0	55	20726
2026-01-02 22:19:29.03	26.58	3.52	-42.2	-57.1	3.8	1.49e+00	0	49	104	0	55	20680
2026-01-02 22:19:30.04	26.66	3.58	-42.2	-57.1	3.8	1.49e+00	0	49	104	0	55	20654
2026-01-02 22:19:31.05	26.74	3.64	-42.2	-57.1	3.8	1.49e+00	0	49	104	0	55	20769
2026-01-02 22:19:32.06	26.81	3.69	-42.2	-57.1	3.8	1.49e+00	0	49	104	0	55	20682
2026-01-02 22:19:33.07	26.89	3.75	-42.2	-57.1	3.8	1.49e+00	0	50	104	0	55	20608
2026-01-02 22:19:34.08	26.96	3.81	-42.2	-57.1	3.8	1.49e+00	0	50	104	0	55	20664
2026-01-02 22:19:35.09	27.04	3.87	-42.2	-57.1	3.8	1.49e+00	0	50	104	0	55	20681
2026-01-02 22:19:36.10	27.12	3.93	-42.2	-57.1	3.8	1.49e+00	0	50	104	0	55	20692
2026-01-02 22:19:37.11	27.20	3.99	-42.2	-57.1	3.8	1.49e+00	0	50	104	0	55	20765
2026-01-02 22:19:38.13	27.27	4.05	-42.2	-57.1	3.8	1.49e+00	0	50	104	0	55	20708
2026-01-02 22:19:39.14	27.35	4.11	-42.2	-57.1	3.8	1.49e+00	0	50	104	0	55	20643
2026-01-02 22:19:40.15	27.43	4.16	-42.2	-57.1	3.8	1.49e+00	0	50	104	0	55	20671
2026-01-02 22:19:41.16	27.51	4.22	-42.2	-57.1	3.8	1.49e+00	0	50	104	0	55	20664
2026-01-02 22:19:42.17	27.59	4.28	-42.2	-57.1	3.8	1.49e+00	0	50	104	0	55	20709
2026-01-02 22:19:43.18	27.67	4.34	-42.2	-57.1	3.8	1.49e+00	0	50	104	0	55	20715
2026-01-02 22:19:44.19	27.75	4.40	-42.2	-57.1	3.8	1.49e+00	0	50	104	0	55	20639
2026-01-02 22:19:45.20	27.83	4.46	-42.2	-57.1	3.8	1.49e+00	0	50	104	0	55	20626
2026-01-02 22:19:46.21	27.91	4.52	-42.2	-57.1	3.8	1.49e+00	0	50	104	0	55	20700
2026-01-02 22:19:47.22	27.99	4.58	-42.2	-57.1	3.8	1.49e+00	0	50	104	0	55	20679
2026-01-02 22:19:48.24	28.07	4.64	-42.2	-57.1	3.8	1.49e+00	0	50	104	0	55	20617
2026-01-02 22:19:49.25	28.15	4.70	-42.2	-57.1	3.8	1.49e+00	0	51	104	0	55	20630
2026-01-02 22:19:50.26	28.23	4.76	-42.2	-57.1	3.8	1.49e+00	0	50	104	0	55	20701
2026-01-02 22:19:51.27	28.31	4.82	-42.2	-57.1	3.8	1.49e+00	0	51	104	0	55	20666
2026-01-02 22:19:52.28	28.40	4.88	-42.2	-57.1	3.8	1.49e+00	0	51	104	0	55	20680
2026-01-02 22:19:53.29	28.48	4.94	-42.2	-57.1	3.8	1.49e+00	0	51	104	0	55	20661
2026-01-02 22:19:54.30	28.56	5.00	-42.2	-57.1	3.8	1.49e+00	0	51	104	0	55	20706
2026-01-02 22:19:55.31	28.64	5.06	-42.2	-57.1	3.8	1.49e+00	0	51	104	0	55	20642
2026-01-02 22:19:56.33	28.73	5.12	-42.2	-57.1	3.8	1.49e+00	0	51	104	0	55	20685
2026-01-02 22:19:57.34	28.81	5.18	-42.2	-57.1	3.8	1.49e+00	0	51	104	0	55	20648
2026-01-02 22:19:58.35	28.90	5.24	-42.2	-57.1	3.8	1.49e+00	0	51	104	0	55	20624
2026-01-02 22:19:59.36	28.98	5.30	-42.2	-57.1	3.8	1.49e+00	0	51	104	0	55	20617
2026-01-02 22:20:00.37	29.07	5.36	-42.2	-57.1	3.8	1.49e+00	0	51	104	0	55	20651
2026-01-02 22:20:01.38	29.15	5.43	-42.2	-57.1	3.8	1.49e+00	0	51	104	0	55	20646
2026-01-02 22:20:02.39	29.24	5.49	-42.2	-57.1	3.8	1.49e+00	0	51	104	0	55	20585
2026-01-02 22:20:03.40	29.32	5.55	-42.2	-57.1	3.8	1.49e+00	0	51	104	0	55	20679
2026-01-02 22:20:04.41	29.41	5.61	-42.2	-57.1	3.8	1.49e+00	0	51	104	0	55	20590
2026-01-02 22:20:05.42	29.49	5.67	-42.2	-57.1	3.8	1.49e+00	0	51	104	0	55	20681
2026-01-02 22:20:06.43	29.58	5.73	-42.2	-57.1	3.8	1.49e+00	0	51	104	0	55	20617
2026-01-02 22:20:07.44	29.67	5.79	-42.2	-57.1	3.8	1.49e+00	0	51	104	0	55	20678
2026-01-02 22:20:08.45	29.76	5.85	-42.2	-57.1	3.8	1.49e+00	0	51	104	0	55	20609
2026-01-02 22:20:09.46	29.84	5.92	-42.2	-57.1	3.8	1.49e+00	0	52	104	0	55	20653
2026-01-02 22:20:10.47	29.93	5.98	-42.2	-57.1	3.8	1.49e+00	0	52	104	0	55	20630
2026-01-02 22:20:11.48	30.02	6.04	-42.2	-57.1	3.8	1.49e+00	0	52	104	0	55	20615
2026-01-02 22:20:12.50	30.11	6.10	-42.2	-57.1	3.8	1.49e+00	0	52	104	0	55	20668
2026-01-02 22:20:13.51	30.20	6.16	-42.2	-57.1	3.8	1.49e+00	0	52	104	0	55	20701
2026-01-02 22:20:14.52	30.29	6.23	-42.2	-57.1	3.8	1.49e+00	0	52	104	0	55	20634
2026-01-02 22:20:15.53	30.38	6.29	-42.2	-57.1	3.8	1.49e+00	0	52	104	0	55	20692
2026-01-02 22:20:16.54	30.47	6.35	-42.2	-57.1	3.8	1.49e+00	0	52	104	0	55	20691
2026-01-02 22:20:17.55	30.56	6.41	-42.2	-57.1	3.8	1.49e+00	0	52	104	0	55	20600
2026-01-02 22:20:18.56	30.65	6.47	-42.2	-57.1	3.8	1.49e+00	0	52	104	0	55	20679
2026-01-02 22:20:19.57	30.74	6.54	-42.2	-57.1	3.8	1.49e+00	0	52	104	0	55	20604
2026-01-02 22:20:20.58	30.83	6.60	-42.2	-57.1	3.8	1.49e+00	0	52	104	0	55	20694
2026-01-02 22:20:21.60	30.93	6.66	-42.2	-57.1	3.8	1.49e+00	0	52	104	0	55	20556
2026-01-02 22:20:22.61	31.02	6.73	-42.2	-57.1	3.8	1.49e+00	0	52	104	0	55	20571
2026-01-02 22:20:23.62	31.11	6.79	-42.2	-57.1	3.8	1.49e+00	0	52	104	0	55	20604
2026-01-02 22:20:24.63	31.20	6.85	-42.2	-57.0	3.8	1.49e+00	0	52	104	0	55	20445
2026-01-02 22:20:25.64	31.30	6.92	-42.2	-57.0	3.8	1.49e+00	0	52	104	0	55	20498
2026-01-02 22:20:26.65	31.39	6.98	-42.2	-57.1	3.8	1.49e+00	0	52	104	0	55	20551
2026-01-02 22:20:27.66	31.49	7.04	-42.2	-57.0	3.8	1.49e+00	0	52	104	0	55	20444
2026-01-02 22:20:28.67	31.58	7.11	-42.2	-57.0	3.8	1.49e+00	0	52	104	0	55	20403
2026-01-02 22:20:29.69	31.68	7.17	-42.2	-57.1	3.8	1.49e+00	0	52	104	0	55	20611
2026-01-02 22:20:30.70	31.77	7.23	-42.1	-56.2	3.8	1.49e+00	0	53	104	0	55	18657
2026-01-02 22:20:31.71	31.87	7.30	-42.1	-55.1	3.8	1.49e+00	0	53	104	0	55	16332
2026-01-02 22:20:32.72	31.97	7.36	-42.0	-53.8	4.1	1.45e+00	0	52	0	0	55	14092
2026-01-02 22:20:33.73	32.06	7.42	-41.9	-52.9	4.4	1.38e+00	0	53	0	0	55	12774
2026-01-02 22:20:34.74	32.16	7.49	-41.7	-51.3	5.1	9.16e-01	0	53	0	1048576	55	10629
2026-01-02 22:20:35.76	32.26	7.55	-41.5	-49.7	6.2	4.15e-01	0	53	0	3145728	55	8825
2026-01-02 22:20:36.77	32.36	7.62	-41.1	-47.9	7.9	1.43e-01	0	53	0	5242880	54	7568
2026-01-02 22:20:37.78	32.46	7.68	-40.5	-46.1	9.6	3.53e-02	0	53	0	7340032	53	6540
2026-01-02 22:20:38.79	32.55	7.75	-40.0	-44.6	11.2	2.33e-03	0	53	0	9437184	52	5844
2026-01-02 22:20:39.80	32.65	7.81	-39.7	-44.0	12.0	5.77e-04	0	53	0	10485760	51	5729
2026-01-02 22:20:40.81	32.75	7.87	-39.6	-43.7	12.2	3.07e-04	0	53	0	12582912	51	5553
2026-01-02 22:20:41.82	32.85	7.94	-39.7	-44.0	11.9	2.44e-04	0	53	0	14680064	51	5782
2026-01-02 22:20:42.83	32.95	8.00	-39.9	-44.5	11.4	6.30e-04	0	53	0	16777216	51	6064
2026-01-02 22:20:43.84	33.05	8.07	-41.8	-46.9	10.3	3.29e-04	0	53	0	18874368	54	6770
2026-01-02 22:20:44.85	33.16	8.13	-40.7	-50.3	5.3	8.00e-02	0	53	0	20971520	52	11245
2026-01-02 22:20:45.86	33.26	8.20	-40.1	-43.5	13.5	2.91e-01	0	53	0	20971520	51	5431
2026-01-02 22:20:46.87	33.36	8.26	-41.5	-46.3	10.7	2.43e-04	0	53	0	23068672	53	6688
2026-01-02 22:20:47.87	33.46	8.33	-41.4	-47.0	9.6	1.18e-03	0	53	0	25165824	53	7231
2026-01-02 22:20:48.88	33.57	8.39	-40.0	-43.4	13.5	1.23e-03	0	53	0	26214400	51	5388
2026-01-02 22:20:49.89	33.67	8.46	-40.0	-43.3	13.7	5.30e-06	0	53	0	28311552	51	5301
2026-01-02 22:20:50.91	33.77	8.52	-39.9	-43.1	13.8	3.80e-06	0	53	0	30408704	51	5203
2026-01-02 22:20:51.91	33.88	8.59	-40.0	-43.3	13.7	4.50e-06	0	53	0	32505856	51	5305
2026-01-02 22:20:52.92	33.98	8.66	-40.0	-43.4	13.6	8.30e-06	0	53	0	34603008	51	5365
2026-01-02 22:20:53.93	34.09	8.72	-40.1	-43.4	13.7	4.50e-06	0	53	0	35651584	51	5372
2026-01-02 22:20:54.94	34.19	8.79	-39.9	-43.1	13.9	1.50e-06	0	53	0	37748736	51	5217
2026-01-02 22:20:55.95	34.30	8.85	-39.8	-42.9	14.2	1.50e-06	0	53	0	39845888	51	5080
2026-01-02 22:20:56.96	34.41	8.92	-39.7	-42.8	14.3	7.00e-07	0	53	0	41943040	51	5016
2026-01-02 22:20:57.97	34.51	8.98	-39.7	-42.8	14.3	1.50e-06	0	53	0	44040192	51	5005
2026-01-02 22:20:58.98	34.62	9.05	-39.9	-43.1	14.0	1.50e-06	0	53	0	45088768	51	5203
2026-01-02 22:20:59.99	34.73	9.12	-39.8	-43.0	14.2	4.50e-06	0	53	0	47185920	51	5101
2026-01-02 22:21:01.00	34.84	9.18	-39.9	-43.1	14.0	4.50e-06	0	53	0	49283072	51	5173
2026-01-02 22:21:02.01	34.95	9.25	-39.9	-43.1	14.1	1.50e-06	0	54	0	51380224	51	5169
2026-01-02 22:21:03.02	35.06	9.32	-39.9	-42.9	14.2	0.00e+00	0	53	0	53477376	51	5098
2026-01-02 22:21:04.03	35.17	9.38	-39.9	-43.1	14.0	2.20e-06	0	53	0	54525952	51	5188
2026-01-02 22:21:05.04	35.28	9.45	-39.9	-43.0	14.1	3.80e-06	0	54	0	56623104	51	5137
2026-01-02 22:21:06.05	35.39	9.52	-40.0	-43.1	14.0	3.00e-06	0	53	0	58720256	51	5218
2026-01-02 22:21:07.05	35.50	9.58	-39.9	-43.0	14.1	7.00e-07	0	54	0	60817408	51	5124
2026-01-02 22:21:08.06	35.61	9.65	-39.9	-43.0	14.1	1.50e-06	0	54	0	62914560	51	5138
2026-01-02 22:21:09.07	35.72	9.72	-39.7	-42.7	14.5	0.00e+00	0	54	0	65011712	51	4965
2026-01-02 22:21:10.08	35.84	9.78	-39.8	-42.8	14.3	0.00e+00	0	54	0	66060288	51	5022
2026-01-02 22:21:11.09	35.95	9.85	-39.7	-42.7	14.5	0.00e+00	0	54	0	68157440	51	4936
2026-01-02 22:21:12.10	36.06	9.92	-39.7	-42.6	14.6	0.00e+00	0	54	0	70254592	51	4894
2026-01-02 22:21:13.11	36.18	9.99	-39.6	-42.5	14.7	0.00e+00	0	54	0	72351744	51	4846
2026-01-02 22:21:14.12	36.29	10.05	-39.5	-42.4	14.9	0.00e+00	0	54	0	74448896	51	4762
2026-01-02 22:21:15.13	36.41	10.12	-39.6	-42.4	14.8	7.00e-07	0	54	0	75497472	50	5080
2026-01-02 22:21:16.14	36.53	10.19	-39.5	-42.2	15.0	0.00e+00	0	54	0	77594624	50	4962
2026-01-02 22:21:17.15	36.64	10.26	-39.4	-42.1	15.2	0.00e+00	0	54	0	79691776	50	4889
2026-01-02 22:21:18.16	36.76	10.32	-39.4	-42.1	15.2	0.00e+00	0	54	0	81788928	50	4904
2026-01-02 22:21:19.17	36.88	10.39	-39.3	-41.9	15.4	0.00e+00	0	54	0	83886080	50	4786
2026-01-02 22:21:20.18	36.99	10.46	-39.3	-41.9	15.4	0.00e+00	0	54	0	84934656	50	4777
2026-01-02 22:21:21.19	37.11	10.53	-39.2	-41.8	15.5	0.00e+00	0	54	0	87031808	50	4739
2026-01-02 22:21:22.20	37.23	10.60	-39.4	-42.0	15.3	0.00e+00	0	54	0	89128960	50	4848
2026-01-02 22:21:23.21	37.35	10.67	-39.2	-41.8	15.5	0.00e+00	0	54	0	91226112	50	4748
2026-01-02 22:21:24.22	37.47	10.73	-39.2	-41.8	15.5	0.00e+00	0	54	0	93323264	50	4723
2026-01-02 22:21:25.23	37.59	10.80	-39.3	-41.9	15.4	0.00e+00	0	54	0	94371840	50	4762
2026-01-02 22:21:26.24	37.71	10.87	-39.2	-41.7	15.6	0.00e+00	0	54	0	96468992	50	4683
2026-01-02 22:21:27.25	37.84	10.94	-39.1	-41.6	15.7	7.00e-07	0	54	0	98566144	50	4627
2026-01-02 22:21:28.26	37.96	11.01	-39.1	-41.6	15.7	0.00e+00	0	54	0	100663296	50	4648
2026-01-02 22:21:29.27	38.08	11.08	-39.2	-41.7	15.6	0.00e+00	0	54	0	102760448	50	4679
2026-01-02 22:21:30.28	38.21	11.15	-39.1	-41.6	15.7	0.00e+00	0	54	0	103809024	50	4617
2026-01-02 22:21:31.29	38.33	11.21	-39.0	-41.5	15.8	0.00e+00	0	54	0	105906176	50	4578
2026-01-02 22:21:32.30	38.45	11.28	-39.2	-41.7	15.7	0.00e+00	0	54	0	108003328	50	4665
2026-01-02 22:21:33.31	38.58	11.35	-39.1	-41.7	15.8	0.00e+00	0	54	0	110100480	50	4659
2026-01-02 22:21:34.32	38.71	11.42	-39.2	-41.7	15.6	0.00e+00	0	54	0	112197632	50	4704
2026-01-02 22:21:35.33	38.83	11.49	-39.2	-41.7	15.7	0.00e+00	0	54	0	113246208	50	4687
2026-01-02 22:21:36.34	38.96	11.56	-39.0	-41.4	16.0	0.00e+00	0	54	0	115343360	50	4542
2026-01-02 22:21:37.35	39.09	11.63	-39.1	-41.6	15.8	0.00e+00	0	54	0	117440512	50	4616
2026-01-02 22:21:38.35	39.21	11.70	-39.2	-41.7	15.7	0.00e+00	0	54	0	119537664	50	4694
2026-01-02 22:21:39.37	39.34	11.77	-39.1	-41.6	15.8	0.00e+00	0	54	0	121634816	50	4620
2026-01-02 22:21:40.38	39.47	11.84	-39.2	-41.7	15.6	0.00e+00	0	54	0	122683392	50	4702
2026-01-02 22:21:41.39	39.60	11.91	-39.2	-41.8	15.6	0.00e+00	0	54	0	124780544	50	4708
2026-01-02 22:21:42.40	39.73	11.98	-39.4	-42.0	15.4	0.00e+00	0	54	0	126877696	50	4851
2026-01-02 22:21:43.41	39.86	12.05	-39.4	-41.9	15.5	0.00e+00	0	54	0	128974848	50	4808
2026-01-02 22:21:44.42	40.00	12.12	-39.4	-42.1	15.4	0.00e+00	0	55	0	131072000	50	4871
2026-01-02 22:21:45.43	40.13	12.19	-39.3	-41.9	15.6	0.00e+00	0	54	0	133169152	50	4777
2026-01-02 22:21:46.44	40.26	12.26	-39.4	-41.9	15.5	0.00e+00	0	55	0	134217728	50	4800
2026-01-02 22:21:47.44	40.39	12.33	-39.4	-42.0	15.5	0.00e+00	0	55	0	136314880	50	4832
2026-01-02 22:21:48.45	40.53	12.40	-39.3	-41.8	15.6	0.00e+00	0	55	0	138412032	50	4746
2026-01-02 22:21:49.46	40.66	12.47	-39.3	-41.9	15.5	0.00e+00	0	54	0	140509184	50	4792
2026-01-02 22:21:50.47	40.80	12.54	-39.3	-41.8	15.6	0.00e+00	0	55	0	142606336	50	4746
2026-01-02 22:21:51.48	40.93	12.61	-39.1	-41.6	15.9	0.00e+00	0	55	0	143654912	50	4613
2026-01-02 22:21:52.49	41.07	12.68	-39.0	-41.4	16.1	0.00e+00	0	54	0	145752064	50	4538
2026-01-02 22:21:53.50	41.21	12.75	-39.1	-41.6	16.0	0.00e+00	0	54	0	147849216	50	4600
2026-01-02 22:21:54.51	41.35	12.82	-39.1	-41.5	16.0	0.00e+00	0	55	0	149946368	50	4575
2026-01-02 22:21:55.52	41.48	12.89	-38.9	-41.2	16.3	0.00e+00	0	55	0	152043520	49	4680
2026-01-02 22:21:56.53	41.62	12.96	-38.9	-41.2	16.3	0.00e+00	0	55	0	153092096	49	4676
2026-01-02 22:21:57.54	41.76	13.03	-38.7	-41.0	16.4	0.00e+00	0	55	0	155189248	49	4589
2026-01-02 22:21:58.55	41.90	13.10	-38.7	-40.9	16.5	0.00e+00	0	55	0	157286400	49	4526
2026-01-02 22:21:59.56	42.04	13.17	-38.7	-40.9	16.5	0.00e+00	0	55	0	159383552	49	4539
2026-01-02 22:22:00.57	42.19	13.24	-38.7	-41.0	16.5	0.00e+00	0	55	0	161480704	49	4555
2026-01-02 22:22:01.58	42.33	13.32	-38.6	-40.9	16.6	0.00e+00	0	55	0	162529280	49	4504
2026-01-02 22:22:02.59	42.47	13.39	-38.7	-41.0	16.4	0.00e+00	0	55	0	164626432	49	4561
2026-01-02 22:22:03.60	42.62	13.46	-38.7	-41.0	16.6	0.00e+00	0	55	0	166723584	49	4561
2026-01-02 22:22:04.60	42.76	13.53	-38.8	-41.1	16.4	0.00e+00	0	55	0	168820736	49	4625
2026-01-02 22:22:05.61	42.90	13.60	-38.9	-41.2	16.4	0.00e+00	0	55	0	170917888	49	4674
2026-01-02 22:22:06.62	43.05	13.67	-38.8	-41.1	16.4	0.00e+00	0	55	0	171966464	49	4650
2026-01-02 22:22:07.63	43.20	13.74	-38.8	-41.2	16.3	0.00e+00	0	55	0	174063616	49	4652
2026-01-02 22:22:08.64	43.34	13.81	-38.8	-41.1	16.5	0.00e+00	0	55	0	176160768	49	4623
2026-01-02 22:22:09.65	43.49	13.88	-38.8	-41.1	16.4	0.00e+00	0	55	0	178257920	49	4623
2026-01-02 22:22:10.66	43.64	13.95	-38.8	-41.1	16.4	0.00e+00	0	55	0	180355072	49	4604
2026-01-02 22:22:11.67	43.79	14.03	-38.8	-41.1	16.4	0.00e+00	0	55	0	181403648	49	4623
2026-01-02 22:22:12.68	43.94	14.10	-38.8	-41.2	16.4	0.00e+00	0	55	0	183500800	49	4657
2026-01-02 22:22:13.69	44.09	14.17	-38.7	-41.0	16.5	0.00e+00	0	55	0	185597952	49	4588
2026-01-02 22:22:14.70	44.24	14.24	-38.9	-41.2	16.4	0.00e+00	0	55	0	187695104	49	4685
2026-01-02 22:22:15.71	44.39	14.31	-38.8	-41.1	16.4	0.00e+00	0	55	0	189792256	49	4628
2026-01-02 22:22:16.72	44.55	14.38	-39.1	-41.5	16.0	0.00e+00	0	55	0	190840832	49	4833
2026-01-02 22:22:17.73	44.70	14.45	-38.9	-41.2	16.2	0.00e+00	0	55	0	192937984	49	4700
2026-01-02 22:22:18.73	44.85	14.53	-39.0	-41.4	16.2	0.00e+00	0	55	0	195035136	49	4807
2026-01-02 22:22:19.74	45.01	14.60	-39.1	-41.6	16.0	0.00e+00	0	55	0	197132288	49	4882
2026-01-02 22:22:20.75	45.16	14.67	-39.0	-41.5	16.1	0.00e+00	0	55	0	199229440	49	4816
2026-01-02 22:22:21.76	45.32	14.74	-39.0	-41.4	16.2	0.00e+00	0	55	0	201326592	49	4773
2026-01-02 22:22:22.77	45.48	14.81	-39.0	-41.3	16.2	0.00e+00	0	55	0	202375168	49	4758
2026-01-02 22:22:23.78	45.63	14.88	-38.9	-41.2	16.3	0.00e+00	0	55	0	204472320	49	4684
2026-01-02 22:22:24.79	45.79	14.96	-38.8	-41.1	16.4	0.00e+00	0	55	0	206569472	49	4613
2026-01-02 22:22:25.80	45.95	15.03	-38.7	-41.0	16.5	0.00e+00	0	55	0	208666624	49	4588
2026-01-02 22:22:26.81	46.11	15.10	-38.7	-41.0	16.6	0.00e+00	0	55	0	210763776	49	4548
2026-01-02 22:22:27.82	46.27	15.17	-38.7	-41.0	16.6	0.00e+00	0	55	0	211812352	49	4553
2026-01-02 22:22:28.83	46.44	15.24	-38.7	-41.0	16.6	0.00e+00	0	55	0	213909504	49	4578
2026-01-02 22:22:29.84	46.60	15.31	-38.6	-40.8	16.7	0.00e+00	0	55	0	216006656	49	4479
2026-01-02 22:22:30.85	46.76	15.39	-38.6	-40.9	16.7	0.00e+00	0	55	0	218103808	49	4527
2026-01-02 22:22:31.86	46.92	15.46	-38.5	-40.7	16.8	0.00e+00	0	55	0	219152384	49	4440
2026-01-02 22:22:32.87	47.09	15.53	-38.6	-40.8	16.7	0.00e+00	0	55	0	221249536	49	4478
2026-01-02 22:22:33.88	47.25	15.60	-38.5	-40.7	16.9	0.00e+00	0	55	0	223346688	48	4653
2026-01-02 22:22:34.89	47.42	15.67	-38.5	-40.7	16.9	0.00e+00	0	55	0	225443840	48	4693
2026-01-02 22:22:35.90	47.59	15.74	-38.4	-40.6	17.0	0.00e+00	0	55	0	227540992	48	4601
2026-01-02 22:22:36.91	47.76	15.81	-38.4	-40.5	17.1	0.00e+00	0	55	0	229638144	48	4587
2026-01-02 22:22:37.92	47.92	15.89	-38.4	-40.6	16.9	0.00e+00	0	55	0	230686720	48	4635
2026-01-02 22:22:38.93	48.09	15.96	-38.3	-40.5	17.1	0.00e+00	0	55	0	232783872	48	4554
2026-01-02 22:22:39.94	48.26	16.03	-38.3	-40.5	17.1	0.00e+00	0	55	0	234881024	48	4556
2026-01-02 22:22:40.95	48.43	16.10	-38.2	-40.3	17.2	0.00e+00	0	55	0	236978176	48	4479
2026-01-02 22:22:41.96	48.61	16.17	-38.2	-40.3	17.2	0.00e+00	0	56	0	239075328	48	4477
2026-01-02 22:22:42.97	48.78	16.24	-38.2	-40.3	17.2	0.00e+00	0	55	0	240123904	48	4469
2026-01-02 22:22:43.98	48.95	16.32	-38.3	-40.4	17.1	0.00e+00	0	55	0	242221056	48	4543
2026-01-02 22:22:44.99	49.13	16.39	-38.3	-40.5	17.0	0.00e+00	0	55	0	244318208	48	4569
2026-01-02 22:22:46.00	49.30	16.46	-38.4	-40.6	16.9	0.00e+00	0	55	0	246415360	48	4607
2026-01-02 22:22:47.01	49.48	16.53	-38.5	-40.7	16.8	0.00e+00	0	56	0	248512512	48	4689
2026-01-02 22:22:48.02	49.65	16.60	-38.5	-40.8	16.7	0.00e+00	0	55	0	249561088	48	4735
2026-01-02 22:22:49.03	49.83	16.67	-38.6	-40.9	16.7	0.00e+00	0	55	0	251658240	48	4781
2026-01-02 22:22:50.04	50.01	16.74	-38.6	-40.9	16.7	0.00e+00	0	55	0	253755392	48	4768
2026-01-02 22:22:51.05	50.19	16.81	-38.5	-40.8	16.8	0.00e+00	0	55	0	255852544	48	4722
2026-01-02 22:22:52.06	50.37	16.89	-38.5	-40.7	16.8	0.00e+00	0	56	0	257949696	48	4694
2026-01-02 22:22:53.07	50.55	16.96	-38.4	-40.6	16.9	0.00e+00	0	55	0	258998272	48	4618
2026-01-02 22:22:54.08	50.73	17.03	-38.4	-40.7	16.9	0.00e+00	0	56	0	261095424	48	4652
2026-01-02 22:22:55.09	50.91	17.10	-38.4	-40.6	16.9	0.00e+00	0	55	0	263192576	48	4640
2026-01-02 22:22:56.09	51.09	17.17	-38.4	-40.6	16.9	0.00e+00	0	55	0	265289728	48	4629
2026-01-02 22:22:57.10	51.28	17.24	-38.3	-40.6	17.0	0.00e+00	0	55	0	267386880	48	4606
2026-01-02 22:22:58.11	51.46	17.31	-38.5	-40.8	16.8	0.00e+00	0	55	0	269484032	48	4743
2026-01-02 22:22:59.12	51.65	17.38	-38.6	-40.9	16.7	0.00e+00	0	56	0	270532608	48	4775
2026-01-02 22:23:00.13	51.83	17.45	-38.7	-41.1	16.5	0.00e+00	0	55	0	272629760	48	4890
2026-01-02 22:23:01.15	52.02	17.52	-38.7	-41.1	16.5	0.00e+00	0	56	0	274726912	48	4904
2026-01-02 22:23:02.16	52.21	17.59	-38.7	-41.1	16.4	0.00e+00	0	56	0	276824064	48	4902
2026-01-02 22:23:03.16	52.40	17.66	-38.6	-41.0	16.6	0.00e+00	0	55	0	278921216	48	4831
2026-01-02 22:23:04.17	52.59	17.73	-38.6	-40.9	16.6	0.00e+00	0	56	0	279969792	48	4806
2026-01-02 22:23:05.18	52.78	17.80	-38.5	-40.8	16.7	0.00e+00	0	56	0	282066944	48	4746
2026-01-02 22:23:06.19	52.97	17.87	-38.6	-41.0	16.6	0.00e+00	0	55	0	284164096	48	4847
2026-01-02 22:23:07.20	53.16	17.94	-38.5	-40.9	16.7	0.00e+00	0	56	0	286261248	48	4779
2026-01-02 22:23:08.21	53.36	18.01	-38.6	-40.9	16.6	0.00e+00	0	56	0	287309824	48	4798
2026-01-02 22:23:09.22	53.55	18.08	-38.7	-41.1	16.5	0.00e+00	0	56	0	289406976	48	4874
2026-01-02 22:23:10.23	53.75	18.15	-38.7	-41.1	16.4	0.00e+00	0	55	0	291504128	48	4915
2026-01-02 22:23:11.24	53.94	18.22	-38.6	-41.0	16.6	0.00e+00	0	56	0	293601280	48	4819
2026-01-02 22:23:12.25	54.14	18.29	-38.5	-40.9	16.7	0.00e+00	0	56	0	295698432	48	4778
2026-01-02 22:23:13.26	54.34	18.36	-38.4	-40.8	16.8	0.00e+00	0	56	0	297795584	48	4711
2026-01-02 22:23:14.27	54.54	18.43	-38.3	-40.6	16.9	0.00e+00	0	56	0	298844160	48	4630
2026-01-02 22:23:15.28	54.74	18.50	-38.3	-40.6	16.9	0.00e+00	0	56	0	300941312	48	4621
2026-01-02 22:23:16.29	54.94	18.57	-38.4	-40.8	16.8	0.00e+00	0	56	0	303038464	48	4707
2026-01-02 22:23:17.29	55.14	18.63	-38.6	-41.0	16.5	0.00e+00	0	56	0	305135616	48	4851
2026-01-02 22:23:18.30	55.34	18.70	-38.7	-41.2	16.4	0.00e+00	0	56	0	307232768	48	4949
2026-01-02 22:23:19.31	55.54	18.77	-38.8	-41.3	16.2	0.00e+00	0	56	0	308281344	48	5037
2026-01-02 22:23:20.32	55.75	18.84	-39.0	-41.6	16.0	0.00e+00	0	56	0	310378496	48	5185
2026-01-02 22:23:21.33	55.95	18.91	-39.0	-41.6	16.0	0.00e+00	0	56	0	312475648	48	5169
2026-01-02 22:23:22.34	56.16	18.97	-38.9	-41.4	16.2	0.00e+00	0	56	0	314572800	48	5077
2026-01-02 22:23:23.35	56.36	19.04	-38.7	-41.2	16.3	0.00e+00	0	55	0	316669952	48	4953
2026-01-02 22:23:24.36	56.57	19.11	-38.7	-41.2	16.4	0.00e+00	0	56	0	317718528	48	4943
2026-01-02 22:23:25.37	56.78	19.18	-38.8	-41.3	16.3	0.00e+00	0	56	0	319815680	48	5023
2026-01-02 22:23:26.38	56.99	19.24	-38.9	-41.4	16.2	0.00e+00	0	56	0	321912832	48	5055
2026-01-02 22:23:27.39	57.20	19.31	-39.0	-41.5	15.8	0.00e+00	0	56	0	324009984	48	5151
2026-01-02 22:23:28.40	57.41	19.38	-39.0	-41.7	15.9	0.00e+00	0	56	0	326107136	48	5231
2026-01-02 22:23:29.41	57.62	19.44	-39.3	-42.0	15.6	0.00e+00	0	56	0	327155712	49	5144
2026-01-02 22:23:30.41	57.83	19.51	-39.2	-41.8	15.7	0.00e+00	0	56	0	329252864	49	5040
2026-01-02 22:23:31.42	58.05	19.57	-39.2	-41.8	15.8	0.00e+00	0	56	0	331350016	49	5029
2026-01-02 22:23:32.43	58.26	19.64	-39.0	-41.6	16.0	0.00e+00	0	56	0	333447168	49	4879
2026-01-02 22:23:33.44	58.48	19.71	-38.8	-41.2	16.4	0.00e+00	0	56	0	335544320	49	4692
2026-01-02 22:23:34.45	58.69	19.77	-38.9	-41.4	16.1	0.00e+00	0	56	0	336592896	49	4793
2026-01-02 22:23:35.46	58.91	19.84	-39.1	-41.6	15.9	0.00e+00	0	56	0	338690048	49	4910
2026-01-02 22:23:36.47	59.13	19.90	-39.3	-42.0	15.6	0.00e+00	0	56	0	340787200	49	5138
2026-01-02 22:23:37.48	59.35	19.97	-39.7	-42.6	15.1	0.00e+00	0	56	0	342884352	49	5466
2026-01-02 22:23:38.49	59.57	20.03	-39.8	-42.8	14.9	0.00e+00	0	56	0	344981504	50	5291
2026-01-02 22:23:39.50	59.79	20.09	-39.8	-42.7	14.9	0.00e+00	0	56	0	346030080	50	5239
2026-01-02 22:23:40.51	60.01	20.16	-39.6	-42.5	15.2	0.00e+00	0	56	0	348127232	50	5103
2026-01-02 22:23:41.52	60.24	20.22	-39.4	-42.1	15.6	0.00e+00	0	56	0	350224384	50	4872
2026-01-02 22:23:42.53	60.46	20.29	-39.4	-42.0	15.6	0.00e+00	0	56	0	352321536	50	4848
2026-01-02 22:23:43.54	60.69	20.35	-39.1	-41.6	16.1	0.00e+00	0	56	0	354418688	50	4619
2026-01-02 22:23:44.55	60.91	20.41	-39.2	-41.7	16.0	0.00e+00	0	56	0	355467264	50	4675
2026-01-02 22:23:45.56	61.14	20.47	-39.2	-41.8	15.9	0.00e+00	0	56	0	357564416	50	4714
2026-01-02 22:23:46.56	61.36	20.54	-39.3	-41.8	15.8	0.00e+00	0	56	0	359661568	50	4749
2026-01-02 22:23:47.58	61.59	20.60	-39.3	-41.8	15.9	0.00e+00	0	56	0	361758720	50	4710
2026-01-02 22:23:48.58	61.82	20.66	-39.2	-41.6	16.0	0.00e+00	0	56	0	363855872	50	4648
2026-01-02 22:23:49.59	62.05	20.72	-39.1	-41.5	16.2	0.00e+00	0	56	0	365953024	50	4581
2026-01-02 22:23:50.60	62.28	20.78	-39.1	-41.5	16.1	0.00e+00	0	56	0	367001600	49	4864
2026-01-02 22:23:51.61	62.51	20.84	-39.1	-41.5	16.2	0.00e+00	0	56	0	369098752	49	4824
2026-01-02 22:23:52.62	62.75	20.90	-39.2	-41.7	16.1	0.00e+00	0	56	0	371195904	49	4945
2026-01-02 22:23:53.63	62.98	20.96	-39.5	-42.1	15.5	0.00e+00	0	56	0	373293056	49	5210
2026-01-02 22:23:54.64	63.22	21.02	-39.6	-42.3	15.5	0.00e+00	0	56	0	375390208	49	5295
2026-01-02 22:23:55.65	63.45	21.08	-39.4	-41.9	15.8	0.00e+00	0	56	0	376438784	49	5061
2026-01-02 22:23:56.66	63.69	21.14	-39.4	-41.9	15.8	0.00e+00	0	56	0	378535936	49	5059
2026-01-02 22:23:57.67	63.93	21.20	-39.0	-41.4	16.3	0.00e+00	0	56	0	380633088	49	4771
2026-01-02 22:23:58.68	64.16	21.26	-38.7	-41.0	16.7	0.00e+00	0	56	0	382730240	49	4549
2026-01-02 22:23:59.69	64.40	21.32	-38.5	-40.6	17.0	0.00e+00	0	56	0	384827392	48	4623
2026-01-02 22:24:00.70	64.64	21.37	-38.3	-40.3	17.3	0.00e+00	0	56	0	385875968	48	4492
2026-01-02 22:24:01.70	64.88	21.43	-38.5	-40.6	17.1	0.00e+00	0	56	0	387973120	48	4635
2026-01-02 22:24:02.71	65.12	21.49	-38.5	-40.6	17.1	0.00e+00	0	56	0	390070272	48	4621
2026-01-02 22:24:03.72	65.37	21.54	-38.4	-40.6	17.1	0.00e+00	0	56	0	392167424	48	4607
2026-01-02 22:24:04.73	65.61	21.60	-38.6	-40.8	16.9	0.00e+00	0	56	0	394264576	48	4733
2026-01-02 22:24:05.74	65.85	21.66	-38.9	-41.2	16.5	0.00e+00	0	56	0	395313152	48	4966
2026-01-02 22:24:06.75	66.10	21.71	-39.2	-41.6	16.1	0.00e+00	0	56	0	397410304	48	5184
2026-01-02 22:24:07.76	66.35	21.77	-39.7	-42.4	15.3	0.00e+00	0	56	0	399507456	49	5352
2026-01-02 22:24:08.77	66.59	21.82	-39.8	-42.5	15.2	0.00e+00	0	56	0	401604608	50	5124
2026-01-02 22:24:09.78	66.84	21.88	-39.7	-42.3	15.3	0.00e+00	0	56	0	403701760	50	5036
2026-01-02 22:24:10.79	67.09	21.93	-39.5	-42.1	15.6	0.00e+00	0	56	0	404750336	50	4883
2026-01-02 22:24:11.80	67.34	21.98	-39.2	-41.6	16.0	0.00e+00	0	56	0	406847488	50	4651
2026-01-02 22:24:12.81	67.59	22.04	-38.8	-41.1	16.5	0.00e+00	0	56	0	408944640	49	4626
2026-01-02 22:24:13.82	67.84	22.09	-38.5	-40.7	16.9	0.00e+00	0	56	0	411041792	48	4677
2026-01-02 22:24:14.83	68.09	22.14	-38.7	-41.0	16.6	0.00e+00	0	56	0	413138944	48	4856
2026-01-02 22:24:15.83	68.34	22.19	-38.9	-41.3	16.4	0.00e+00	0	56	0	414187520	48	5008
2026-01-02 22:24:16.84	68.60	22.24	-39.0	-41.5	16.2	0.00e+00	0	56	0	416284672	48	5114
2026-01-02 22:24:17.85	68.85	22.29	-39.2	-41.7	16.0	0.00e+00	0	56	0	418381824	49	4938
2026-01-02 22:24:18.86	69.11	22.34	-39.2	-41.8	15.9	0.00e+00	0	56	0	420478976	49	4995
2026-01-02 22:24:19.87	69.36	22.39	-39.0	-41.4	16.2	0.00e+00	0	56	0	422576128	49	4796
2026-01-02 22:24:20.88	69.62	22.44	-39.0	-41.5	16.1	0.00e+00	0	56	0	423624704	49	4817
2026-01-02 22:24:21.89	69.88	22.49	-39.1	-41.5	16.0	0.00e+00	0	56	0	425721856	49	4868
2026-01-02 22:24:22.90	70.14	22.54	-39.1	-41.5	16.0	0.00e+00	0	56	0	427819008	49	4845
2026-01-02 22:24:23.91	70.40	22.59	-39.3	-42.0	15.6	0.00e+00	0	56	0	429916160	49	5103
2026-01-02 22:24:24.92	70.66	22.63	-39.2	-41.8	15.7	0.00e+00	0	56	0	432013312	49	4993
2026-01-02 22:24:25.93	70.92	22.68	-39.0	-41.5	16.0	0.00e+00	0	56	0	434110464	49	4829
2026-01-02 22:24:26.94	71.18	22.73	-38.8	-41.2	16.2	0.00e+00	0	56	0	435159040	49	4678
2026-01-02 22:24:27.95	71.44	22.77	-38.8	-41.2	16.3	0.00e+00	0	56	0	437256192	49	4660
2026-01-02 22:24:28.96	71.71	22.82	-38.8	-41.2	16.2	0.00e+00	0	56	0	439353344	49	4703
2026-01-02 22:24:29.97	71.97	22.86	-39.2	-41.8	15.6	0.00e+00	0	56	0	441450496	49	5017
2026-01-02 22:24:30.98	72.23	22.90	-39.8	-42.7	14.8	0.00e+00	0	56	0	443547648	50	5245
2026-01-02 22:24:31.99	72.50	22.95	-40.0	-43.1	14.4	0.00e+00	0	56	0	444596224	50	5480
2026-01-02 22:24:32.99	72.76	22.99	-40.2	-43.4	14.1	1.50e-06	0	56	0	446693376	51	5356
2026-01-02 22:24:34.00	73.03	23.03	-40.0	-43.0	14.5	0.00e+00	0	56	0	448790528	51	5122
2026-01-02 22:24:35.01	73.30	23.07	-39.9	-42.7	14.8	7.00e-07	0	56	0	450887680	51	4963
2026-01-02 22:24:36.02	73.57	23.12	-39.7	-42.4	15.1	0.00e+00	0	56	0	452984832	51	4808
2026-01-02 22:24:37.03	73.84	23.16	-39.6	-42.2	15.3	0.00e+00	0	56	0	454033408	51	4673
2026-01-02 22:24:38.04	74.11	23.20	-39.5	-42.2	15.4	0.00e+00	0	56	0	456130560	51	4654
2026-01-02 22:24:39.05	74.38	23.24	-39.7	-42.4	15.2	0.00e+00	0	56	0	458227712	51	4763
2026-01-02 22:24:40.06	74.65	23.27	-39.7	-42.4	15.1	0.00e+00	0	56	0	460324864	51	4803
2026-01-02 22:24:41.07	74.92	23.31	-40.0	-42.8	14.8	0.00e+00	0	56	0	462422016	51	5016
2026-01-02 22:24:42.08	75.19	23.35	-40.0	-42.8	14.8	7.00e-07	0	56	0	463470592	51	5037
2026-01-02 22:24:43.08	75.46	23.39	-40.0	-42.9	14.8	0.00e+00	0	56	0	465567744	51	5051
2026-01-02 22:24:44.09	75.73	23.42	-40.1	-43.0	14.6	7.00e-07	0	56	0	467664896	51	5119
2026-01-02 22:24:45.10	76.01	23.46	-40.3	-43.3	14.5	0.00e+00	0	56	0	469762048	51	5284
2026-01-02 22:24:46.12	76.29	23.50	-40.2	-43.1	14.6	7.00e-07	0	56	0	471859200	51	5214
2026-01-02 22:24:47.13	76.56	23.53	-40.3	-43.4	14.2	7.00e-07	0	56	0	472907776	51	5363
2026-01-02 22:24:48.14	76.84	23.56	-40.4	-43.5	14.1	1.50e-06	0	56	0	475004928	51	5427
2026-01-02 22:24:49.15	77.12	23.60	-40.6	-43.8	13.8	5.30e-06	0	56	0	477102080	51	5630
2026-01-02 22:24:50.16	77.39	23.63	-40.5	-43.7	13.9	3.00e-06	0	56	0	479199232	51	5566
2026-01-02 22:24:51.17	77.67	23.66	-40.6	-43.8	13.9	1.50e-06	0	56	0	481296384	51	5629
2026-01-02 22:24:52.17	77.95	23.69	-40.4	-43.4	14.3	7.00e-07	0	56	0	482344960	51	5385
2026-01-02 22:24:53.18	78.23	23.72	-40.0	-42.8	14.8	7.00e-07	0	56	0	484442112	51	5039
2026-01-02 22:24:54.19	78.50	23.75	-39.8	-42.5	15.1	0.00e+00	0	56	0	486539264	51	4868
2026-01-02 22:24:55.20	78.78	23.78	-39.5	-42.0	15.6	0.00e+00	0	56	0	488636416	50	4855
2026-01-02 22:24:56.21	79.07	23.81	-39.4	-41.9	15.7	0.00e+00	0	56	0	490733568	50	4797
2026-01-02 22:24:57.22	79.35	23.84	-39.2	-41.7	15.9	0.00e+00	0	56	0	491782144	50	4665
2026-01-02 22:24:58.23	79.63	23.87	-39.0	-41.3	16.2	0.00e+00	0	56	0	493879296	50	4449
2026-01-02 22:24:59.24	79.91	23.89	-38.7	-40.9	16.6	0.00e+00	0	56	0	495976448	49	4536
2026-01-02 22:25:00.25	80.19	23.92	-38.6	-40.8	16.8	0.00e+00	0	56	0	498073600	49	4446
2026-01-02 22:25:01.26	80.48	23.95	-38.7	-40.9	16.7	0.00e+00	0	57	0	500170752	49	4532
2026-01-02 22:25:02.27	80.76	23.97	-39.1	-41.6	16.1	0.00e+00	0	56	0	502267904	49	4887
2026-01-02 22:25:03.28	81.04	23.99	-39.4	-42.0	15.6	0.00e+00	0	56	0	503316480	49	5115
2026-01-02 22:25:04.29	81.33	24.02	-39.8	-42.6	15.1	0.00e+00	0	57	0	505413632	50	5197
2026-01-02 22:25:05.30	81.61	24.04	-40.0	-42.8	14.7	7.00e-07	0	56	0	507510784	50	5339
2026-01-02 22:25:06.31	81.90	24.06	-39.7	-42.5	15.2	7.00e-07	0	56	0	509607936	50	5111
2026-01-02 22:25:07.32	82.18	24.08	-39.3	-41.9	15.7	0.00e+00	0	56	0	511705088	50	4760
2026-01-02 22:25:08.33	82.47	24.10	-39.2	-41.6	16.0	0.00e+00	0	56	0	512753664	50	4640
2026-01-02 22:25:09.34	82.75	24.12	-39.3	-41.6	16.1	0.00e+00	0	56	0	514850816	50	4640
2026-01-02 22:25:10.35	83.04	24.14	-39.5	-41.9	15.8	0.00e+00	0	56	0	516947968	50	4812
2026-01-02 22:25:11.36	83.33	24.16	-39.7	-42.2	15.5	0.00e+00	0	56	0	519045120	50	4953
2026-01-02 22:25:12.37	83.62	24.18	-39.8	-42.2	15.5	0.00e+00	0	56	0	521142272	50	4971
2026-01-02 22:25:13.38	83.90	24.19	-39.5	-41.9	15.8	0.00e+00	0	56	0	522190848	50	4771
2026-01-02 22:25:14.39	84.19	24.21	-39.3	-41.6	16.0	0.00e+00	0	56	0	524288000	50	4635
2026-01-02 22:25:15.40	84.48	24.22	-39.4	-41.8	16.0	0.00e+00	0	56	0	526385152	50	4706
2026-01-02 22:25:16.41	84.77	24.24	-39.6	-42.0	15.7	0.00e+00	0	57	0	528482304	50	4832
2026-01-02 22:25:17.42	85.06	24.25	-39.7	-42.2	15.6	0.00e+00	0	56	0	530579456	50	4936
2026-01-02 22:25:18.43	85.34	24.27	-39.8	-42.4	15.4	0.00e+00	0	56	0	531628032	50	5053
2026-01-02 22:25:19.44	85.63	24.28	-39.4	-41.7	15.9	0.00e+00	0	56	0	533725184	50	4689
2026-01-02 22:25:20.45	85.92	24.29	-39.1	-41.4	16.3	0.00e+00	0	56	0	535822336	50	4500
2026-01-02 22:25:21.46	86.21	24.30	-38.7	-40.7	16.9	0.00e+00	0	56	0	537919488	49	4427
2026-01-02 22:25:22.47	86.50	24.31	-38.4	-40.4	17.3	0.00e+00	0	56	0	540016640	48	4521
2026-01-02 22:25:23.48	86.79	24.32	-38.6	-40.7	17.0	0.00e+00	0	56	0	541065216	48	4652
2026-01-02 22:25:24.49	87.08	24.33	-38.8	-40.9	16.8	0.00e+00	0	56	0	543162368	48	4799
2026-01-02 22:25:25.50	87.37	24.34	-39.0	-41.1	16.6	0.00e+00	0	56	0	545259520	48	4911
2026-01-02 22:25:26.51	87.66	24.34	-39.2	-41.4	16.4	0.00e+00	0	57	0	547356672	48	5066
2026-01-02 22:25:27.52	87.95	24.35	-39.1	-41.3	16.4	0.00e+00	0	56	0	549453824	48	5025
2026-01-02 22:25:28.53	88.25	24.36	-39.0	-41.1	16.7	0.00e+00	0	57	0	550502400	48	4890
2026-01-02 22:25:29.54	88.54	24.36	-39.0	-41.1	16.7	0.00e+00	0	57	0	552599552	48	4883
2026-01-02 22:25:30.55	88.83	24.36	-38.8	-40.9	16.8	0.00e+00	0	56	0	554696704	48	4789
2026-01-02 22:25:31.56	89.12	24.37	-38.7	-40.7	17.0	0.00e+00	0	57	0	556793856	48	4701
2026-01-02 22:25:32.57	89.41	24.37	-38.6	-40.6	17.2	0.00e+00	0	56	0	558891008	48	4602
2026-01-02 22:25:33.58	89.70	24.37	-38.7	-40.7	17.1	0.00e+00	0	56	0	559939584	48	4663
2026-01-02 22:25:34.59	89.99	24.37	-38.6	-40.6	17.2	0.00e+00	0	56	0	562036736	48	4616
2026-01-02 22:25:35.60	90.28	24.37	-38.7	-40.7	17.1	0.00e+00	0	56	0	564133888	48	4673
2026-01-02 22:25:36.61	90.57	24.37	-38.9	-41.0	16.8	0.00e+00	0	57	0	566231040	48	4832
2026-01-02 22:25:37.62	90.86	24.37	-39.0	-41.1	16.7	0.00e+00	0	57	0	568328192	48	4896
2026-01-02 22:25:38.63	91.16	24.37	-39.1	-41.3	16.5	0.00e+00	0	56	0	570425344	48	5019
2026-01-02 22:25:39.64	91.45	24.37	-39.1	-41.3	16.5	0.00e+00	0	56	0	571473920	48	4987
2026-01-02 22:25:40.64	91.74	24.36	-39.0	-41.1	16.7	0.00e+00	0	56	0	573571072	48	4904
2026-01-02 22:25:41.65	92.03	24.36	-38.8	-40.8	17.0	0.00e+00	0	56	0	575668224	48	4737
2026-01-02 22:25:42.66	92.32	24.35	-38.6	-40.6	17.2	0.00e+00	0	56	0	577765376	48	4631
2026-01-02 22:25:43.67	92.61	24.35	-38.6	-40.6	17.2	0.00e+00	0	56	0	579862528	48	4613
2026-01-02 22:25:44.68	92.90	24.34	-38.6	-40.6	17.2	0.00e+00	0	56	0	580911104	48	4643
2026-01-02 22:25:45.69	93.19	24.33	-38.7	-40.8	17.0	0.00e+00	0	56	0	583008256	48	4711
2026-01-02 22:25:46.70	93.48	24.33	-38.7	-40.8	17.0	0.00e+00	0	56	0	585105408	48	4711
2026-01-02 22:25:47.71	93.77	24.32	-38.8	-40.8	17.0	0.00e+00	0	56	0	587202560	48	4751
2026-01-02 22:25:48.72	94.06	24.31	-38.7	-40.8	17.0	0.00e+00	0	57	0	589299712	48	4716
2026-01-02 22:25:49.74	94.35	24.30	-38.8	-40.8	17.0	0.00e+00	0	56	0	590348288	48	4751
2026-01-02 22:25:50.75	94.64	24.29	-39.0	-41.1	16.7	0.00e+00	0	57	0	592445440	48	4895
2026-01-02 22:25:51.75	94.93	24.27	-38.9	-41.1	16.7	0.00e+00	0	57	0	594542592	48	4877
2026-01-02 22:25:52.76	95.22	24.26	-39.0	-41.2	16.6	0.00e+00	0	57	0	596639744	48	4927
2026-01-02 22:25:53.77	95.51	24.25	-38.8	-40.8	16.9	0.00e+00	0	57	0	598736896	48	4757
2026-01-02 22:25:54.78	95.80	24.23	-38.7	-40.7	17.1	0.00e+00	0	57	0	599785472	48	4659
2026-01-02 22:25:55.79	96.08	24.22	-38.6	-40.6	17.2	0.00e+00	0	57	0	601882624	48	4648
2026-01-02 22:25:56.80	96.37	24.20	-38.6	-40.5	17.2	0.00e+00	0	57	0	603979776	48	4595
2026-01-02 22:25:57.81	96.66	24.19	-38.3	-40.2	17.6	0.00e+00	0	56	0	606076928	48	4420
2026-01-02 22:25:58.82	96.95	24.17	-38.2	-40.1	17.7	0.00e+00	0	57	0	608174080	48	4343
2026-01-02 22:25:59.83	97.24	24.15	-38.0	-39.8	17.9	0.00e+00	0	57	0	609222656	48	4231
2026-01-02 22:26:00.84	97.52	24.13	-38.1	-39.9	17.8	0.00e+00	0	56	0	611319808	48	4288
2026-01-02 22:26:01.85	97.81	24.11	-38.3	-40.2	17.6	0.00e+00	0	56	0	613416960	48	4409
2026-01-02 22:26:02.86	98.10	24.09	-38.4	-40.3	17.5	0.00e+00	0	56	0	615514112	48	4465
2026-01-02 22:26:03.87	98.38	24.07	-38.3	-40.3	17.5	0.00e+00	0	57	0	617611264	48	4443
2026-01-02 22:26:04.88	98.67	24.05	-38.0	-39.9	17.8	0.00e+00	0	56	0	618659840	48	4259
2026-01-02 22:26:05.89	98.95	24.03	-38.0	-39.9	17.8	0.00e+00	0	57	0	620756992	47	4510
2026-01-02 22:26:06.90	99.24	24.01	-37.7	-39.5	18.1	0.00e+00	0	56	0	622854144	47	4329
2026-01-02 22:26:07.91	99.52	23.98	-37.8	-39.5	18.2	0.00e+00	0	57	0	624951296	47	4334
2026-01-02 22:26:08.92	99.81	23.96	-37.9	-39.8	17.9	0.00e+00	0	56	0	627048448	47	4464
2026-01-02 22:26:09.93	100.09	23.93	-38.0	-39.8	17.9	0.00e+00	0	57	0	628097024	47	4481
2026-01-02 22:26:10.94	100.37	23.91	-37.9	-39.8	17.8	0.00e+00	0	57	0	630194176	47	4448
2026-01-02 22:26:11.95	100.66	23.88	-37.9	-39.7	18.0	0.00e+00	0	56	0	632291328	47	4408
2026-01-02 22:26:12.96	100.94	23.85	-37.7	-39.4	18.2	0.00e+00	0	57	0	634388480	47	4272
2026-01-02 22:26:13.97	101.22	23.83	-37.6	-39.3	18.4	0.00e+00	0	57	0	636485632	47	4218
2026-01-02 22:26:14.98	101.50	23.80	-37.6	-39.4	18.3	0.00e+00	0	57	0	637534208	47	4272
2026-01-02 22:26:15.99	101.78	23.77	-37.6	-39.4	18.3	0.00e+00	0	57	0	639631360	46	4498
2026-01-02 22:26:17.00	102.06	23.74	-37.8	-39.5	18.2	0.00e+00	0	57	0	641728512	46	4597
2026-01-02 22:26:18.00	102.34	23.71	-38.0	-39.8	17.9	0.00e+00	0	57	0	643825664	46	4732
2026-01-02 22:26:19.01	102.62	23.68	-38.2	-40.1	17.6	0.00e+00	0	57	0	645922816	46	4894
2026-01-02 22:26:20.02	102.90	23.65	-38.3	-40.2	17.5	0.00e+00	0	56	0	648019968	47	4692
2026-01-02 22:26:21.03	103.18	23.61	-38.4	-40.4	17.3	0.00e+00	0	57	0	649068544	47	4771
2026-01-02 22:26:22.04	103.46	23.58	-38.3	-40.2	17.5	0.00e+00	0	56	0	651165696	47	4690
2026-01-02 22:26:23.06	103.74	23.55	-37.9	-39.8	17.9	0.00e+00	0	56	0	653262848	47	4448
2026-01-02 22:26:24.06	104.01	23.51	-37.8	-39.6	18.1	0.00e+00	0	56	0	655360000	47	4353
2026-01-02 22:26:25.08	104.29	23.48	-37.6	-39.4	18.3	0.00e+00	0	57	0	657457152	47	4247
2026-01-02 22:26:26.09	104.56	23.44	-37.4	-39.1	18.5	0.00e+00	0	57	0	658505728	46	4386
2026-01-02 22:26:27.10	104.84	23.41	-37.4	-39.1	18.6	0.00e+00	0	57	0	660602880	46	4369
2026-01-02 22:26:28.11	105.11	23.37	-37.4	-39.1	18.5	0.00e+00	0	56	0	662700032	46	4390
2026-01-02 22:26:29.12	105.39	23.33	-37.4	-39.2	18.5	0.00e+00	0	57	0	664797184	46	4408
2026-01-02 22:26:30.13	105.66	23.29	-37.3	-39.0	18.7	0.00e+00	0	56	0	666894336	46	4310
2026-01-02 22:26:31.14	105.93	23.25	-36.9	-38.6	19.0	0.00e+00	0	57	0	667942912	45	4343
2026-01-02 22:26:32.15	106.20	23.21	-36.8	-38.4	19.2	0.00e+00	0	57	0	670040064	45	4259
2026-01-02 22:26:33.16	106.47	23.18	-36.5	-38.1	19.5	0.00e+00	0	56	0	672137216	45	4113
2026-01-02 22:26:34.17	106.74	23.13	-36.6	-38.1	19.5	0.00e+00	0	57	0	674234368	45	4127
2026-01-02 22:26:35.17	107.01	23.09	-36.7	-38.3	19.3	0.00e+00	0	57	0	676331520	45	4220
2026-01-02 22:26:36.19	107.28	23.05	-37.1	-38.7	18.9	0.00e+00	0	57	0	677380096	45	4438
2026-01-02 22:26:37.19	107.55	23.01	-37.4	-39.2	18.4	0.00e+00	0	56	0	679477248	45	4669
2026-01-02 22:26:38.20	107.81	22.97	-37.5	-39.2	18.4	0.00e+00	0	56	0	681574400	45	4704
2026-01-02 22:26:39.21	108.08	22.92	-37.3	-39.1	18.6	0.00e+00	0	56	0	683671552	45	4604
2026-01-02 22:26:40.22	108.35	22.88	-36.9	-38.5	19.1	0.00e+00	0	56	0	685768704	45	4321
2026-01-02 22:26:41.23	108.61	22.84	-36.5	-38.1	19.5	0.00e+00	0	57	0	686817280	45	4109
2026-01-02 22:26:42.24	108.88	22.79	-36.4	-37.9	19.7	0.00e+00	0	57	0	688914432	44	4247
2026-01-02 22:26:43.25	109.14	22.75	-36.6	-38.1	19.5	0.00e+00	0	57	0	691011584	44	4358
2026-01-02 22:26:44.26	109.40	22.70	-36.6	-38.2	19.4	0.00e+00	0	57	0	693108736	44	4400
2026-01-02 22:26:45.26	109.66	22.65	-37.0	-38.6	19.0	0.00e+00	0	57	0	695205888	44	4624
2026-01-02 22:26:46.27	109.92	22.61	-37.2	-38.9	18.8	0.00e+00	0	57	0	696254464	45	4504
2026-01-02 22:26:47.28	110.18	22.56	-37.4	-39.2	18.5	0.00e+00	0	56	0	698351616	45	4660
2026-01-02 22:26:48.29	110.44	22.51	-37.4	-39.1	18.5	0.00e+00	0	57	0	700448768	45	4645
2026-01-02 22:26:49.30	110.70	22.46	-37.5	-39.2	18.5	0.00e+00	0	57	0	702545920	45	4686
2026-01-02 22:26:50.31	110.96	22.41	-37.2	-38.9	18.8	0.00e+00	0	57	0	704643072	45	4494
2026-01-02 22:26:51.32	111.22	22.36	-37.1	-38.7	18.9	0.00e+00	0	56	0	705691648	45	4431
2026-01-02 22:26:52.33	111.48	22.31	-37.2	-38.9	18.8	0.00e+00	0	57	0	707788800	45	4502
2026-01-02 22:26:53.34	111.73	22.26	-37.4	-39.1	18.6	0.00e+00	0	57	0	709885952	45	4631
2026-01-02 22:26:54.35	111.99	22.21	-37.5	-39.3	18.4	0.00e+00	0	57	0	711983104	45	4710
2026-01-02 22:26:55.36	112.24	22.16	-37.5	-39.3	18.4	0.00e+00	0	57	0	714080256	46	4444
2026-01-02 22:26:56.36	112.49	22.11	-37.4	-39.1	18.6	0.00e+00	0	57	0	716177408	46	4373
2026-01-02 22:26:57.37	112.74	22.06	-37.3	-38.9	18.7	0.00e+00	0	57	0	717225984	46	4291
2026-01-02 22:26:58.38	113.00	22.00	-37.2	-38.9	18.8	0.00e+00	0	57	0	719323136	46	4254
2026-01-02 22:26:59.39	113.25	21.95	-37.1	-38.8	18.8	0.00e+00	0	57	0	721420288	46	4219
2026-01-02 22:27:00.40	113.50	21.90	-37.3	-39.0	18.7	0.00e+00	0	57	0	723517440	46	4294
2026-01-02 22:27:01.41	113.75	21.84	-37.4	-39.1	18.6	0.00e+00	0	57	0	724566016	46	4347
2026-01-02 22:27:02.42	113.99	21.79	-37.5	-39.2	18.5	0.00e+00	0	57	0	726663168	46	4412
2026-01-02 22:27:03.43	114.24	21.73	-37.6	-39.3	18.4	0.00e+00	0	57	0	728760320	46	4471
2026-01-02 22:27:04.44	114.49	21.68	-37.7	-39.5	18.2	0.00e+00	0	57	0	730857472	46	4562
2026-01-02 22:27:05.44	114.73	21.62	-38.0	-39.9	17.8	0.00e+00	0	57	0	732954624	46	4791
2026-01-02 22:27:06.45	114.98	21.56	-38.2	-40.2	17.5	0.00e+00	0	57	0	734003200	47	4669
2026-01-02 22:27:07.46	115.22	21.51	-38.4	-40.3	17.4	7.00e-07	0	57	0	736100352	47	4758
2026-01-02 22:27:08.47	115.46	21.45	-38.5	-40.6	17.1	0.00e+00	0	57	0	738197504	47	4891
2026-01-02 22:27:09.48	115.71	21.39	-38.4	-40.4	17.4	0.00e+00	0	57	0	740294656	47	4761
2026-01-02 22:27:10.49	115.95	21.34	-38.2	-40.2	17.5	0.00e+00	0	57	0	742391808	47	4683
2026-01-02 22:27:11.50	116.19	21.28	-38.0	-39.8	17.9	0.00e+00	0	57	0	744488960	47	4479
2026-01-02 22:27:12.51	116.43	21.22	-37.9	-39.8	17.9	0.00e+00	0	57	0	745537536	47	4447
2026-01-02 22:27:13.52	116.67	21.16	-37.8	-39.6	18.1	0.00e+00	0	57	0	747634688	47	4385
2026-01-02 22:27:14.53	116.90	21.10	-37.7	-39.4	18.3	0.00e+00	0	57	0	749731840	47	4287
2026-01-02 22:27:15.54	117.14	21.04	-37.7	-39.5	18.1	0.00e+00	0	57	0	751828992	47	4321
2026-01-02 22:27:16.55	117.38	20.98	-38.0	-39.9	17.8	0.00e+00	0	56	0	753926144	47	4507
2026-01-02 22:27:17.56	117.61	20.92	-38.3	-40.2	17.5	0.00e+00	0	57	0	754974720	47	4702
2026-01-02 22:27:18.58	117.85	20.86	-38.5	-40.7	17.0	0.00e+00	0	57	0	757071872	47	4944
2026-01-02 22:27:19.59	118.08	20.80	-39.0	-41.1	16.6	0.00e+00	0	57	0	759169024	48	4917
2026-01-02 22:27:20.60	118.32	20.74	-39.2	-41.4	16.4	0.00e+00	0	57	0	761266176	48	5048
2026-01-02 22:27:21.60	118.55	20.68	-39.2	-41.4	16.5	0.00e+00	0	57	0	763363328	49	4775
2026-01-02 22:27:22.61	118.78	20.61	-39.0	-41.2	16.6	0.00e+00	0	57	0	764411904	49	4671
2026-01-02 22:27:23.62	119.01	20.55	-38.5	-40.5	17.3	0.00e+00	0	57	0	766509056	49	4311
2026-01-02 22:27:24.63	119.23	20.49	-38.2	-40.1	17.7	0.00e+00	0	57	0	768606208	48	4359
2026-01-02 22:27:25.64	119.46	20.43	-37.8	-39.7	18.0	0.00e+00	0	57	0	770703360	47	4399
2026-01-02 22:27:26.65	119.69	20.36	-37.5	-39.3	18.3	0.00e+00	0	57	0	772800512	47	4203
2026-01-02 22:27:27.66	119.92	20.30	-37.5	-39.3	18.4	0.00e+00	0	57	0	773849088	46	4463
2026-01-02 22:27:28.67	120.14	20.24	-37.8	-39.5	18.1	0.00e+00	0	57	0	775946240	46	4596
2026-01-02 22:27:29.68	120.37	20.17	-38.0	-39.9	17.8	0.00e+00	0	57	0	778043392	46	4768
2026-01-02 22:27:30.69	120.59	20.11	-38.4	-40.4	17.3	0.00e+00	0	57	0	780140544	47	4769
2026-01-02 22:27:31.70	120.81	20.04	-38.6	-40.6	17.0	0.00e+00	0	57	0	782237696	47	4916
2026-01-02 22:27:32.71	121.03	19.98	-38.8	-40.9	16.9	0.00e+00	0	57	0	784334848	48	4772
2026-01-02 22:27:33.72	121.25	19.91	-38.8	-40.9	16.9	0.00e+00	0	57	0	785383424	48	4786
2026-01-02 22:27:34.73	121.47	19.85	-38.8	-40.9	16.8	0.00e+00	0	57	0	787480576	48	4812
2026-01-02 22:27:35.74	121.69	19.78	-38.7	-40.8	17.0	0.00e+00	0	57	0	789577728	48	4729
2026-01-02 22:27:36.75	121.91	19.72	-38.7	-40.7	17.1	0.00e+00	0	57	0	791674880	48	4673
2026-01-02 22:27:37.76	122.13	19.65	-39.0	-41.1	16.6	0.00e+00	0	57	0	793772032	48	4905
2026-01-02 22:27:38.77	122.34	19.58	-38.9	-41.0	16.8	0.00e+00	0	57	0	794820608	48	4823
2026-01-02 22:27:39.78	122.56	19.52	-39.0	-41.2	16.6	0.00e+00	0	57	0	796917760	48	4931
2026-01-02 22:27:40.79	122.77	19.45	-39.1	-41.3	16.5	0.00e+00	0	57	0	799014912	48	5008
2026-01-02 22:27:41.80	122.99	19.38	-38.9	-41.1	16.7	0.00e+00	0	57	0	801112064	48	4879
2026-01-02 22:27:42.81	123.20	19.32	-38.9	-41.1	16.6	0.00e+00	0	57	0	803209216	48	4880
2026-01-02 22:27:43.82	123.41	19.25	-38.8	-40.8	16.9	0.00e+00	0	57	0	804257792	48	4754
2026-01-02 22:27:44.83	123.62	19.18	-38.9	-41.0	16.8	0.00e+00	0	57	0	806354944	48	4847
2026-01-02 22:27:45.84	123.83	19.11	-39.1	-41.3	16.5	0.00e+00	0	57	0	808452096	48	4991
2026-01-02 22:27:46.85	124.04	19.05	-39.2	-41.4	16.3	0.00e+00	0	57	0	810549248	48	5083
2026-01-02 22:27:47.86	124.25	18.98	-39.3	-41.6	16.2	0.00e+00	0	57	0	812646400	49	4907
2026-01-02 22:27:48.87	124.45	18.91	-39.1	-41.3	16.4	0.00e+00	0	57	0	813694976	49	4726
2026-01-02 22:27:49.88	124.66	18.84	-38.9	-41.0	16.6	0.00e+00	0	57	0	815792128	49	4598
2026-01-02 22:27:50.90	124.87	18.77	-38.2	-40.0	17.6	0.00e+00	0	57	0	817889280	48	4335
2026-01-02 22:27:51.91	125.07	18.70	-37.9	-39.7	17.9	0.00e+00	0	57	0	819986432	47	4421
2026-01-02 22:27:52.92	125.28	18.63	-37.9	-39.8	17.8	0.00e+00	0	57	0	822083584	47	4449
2026-01-02 22:27:53.93	125.48	18.57	-37.9	-39.7	17.9	0.00e+00	0	57	0	823132160	47	4418
2026-01-02 22:27:54.94	125.68	18.50	-38.2	-40.1	17.4	0.00e+00	0	57	0	825229312	47	4640
2026-01-02 22:27:55.95	125.88	18.43	-38.6	-40.6	17.0	0.00e+00	0	57	0	827326464	47	4911
2026-01-02 22:27:56.96	126.08	18.36	-39.0	-41.2	16.5	0.00e+00	0	57	0	829423616	48	4947
2026-01-02 22:27:57.97	126.28	18.29	-39.3	-41.6	16.1	0.00e+00	0	57	0	831520768	49	4878
2026-01-02 22:27:58.98	126.48	18.22	-39.0	-41.2	16.5	0.00e+00	0	57	0	832569344	49	4699
2026-01-02 22:27:59.99	126.68	18.15	-38.9	-41.0	16.7	0.00e+00	0	57	0	834666496	49	4559
2026-01-02 22:28:00.99	126.87	18.08	-38.7	-40.7	17.0	0.00e+00	0	57	0	836763648	49	4424
2026-01-02 22:28:02.00	127.07	18.01	-38.5	-40.5	17.2	0.00e+00	0	57	0	838860800	48	4553
2026-01-02 22:28:03.01	127.26	17.94	-38.7	-40.8	16.9	0.00e+00	0	57	0	840957952	48	4718
2026-01-02 22:28:04.02	127.45	17.87	-39.0	-41.2	16.5	0.00e+00	0	57	0	842006528	48	4951
2026-01-02 22:28:05.03	127.65	17.80	-39.3	-41.7	16.0	0.00e+00	0	57	0	844103680	49	4929
2026-01-02 22:28:06.04	127.84	17.73	-39.6	-42.0	15.7	0.00e+00	0	57	0	846200832	49	5126
2026-01-02 22:28:07.05	128.03	17.66	-39.6	-42.0	15.7	0.00e+00	0	57	0	848297984	49	5138
2026-01-02 22:28:08.06	128.22	17.59	-39.4	-41.8	15.8	0.00e+00	0	57	0	850395136	49	5005
2026-01-02 22:28:09.07	128.41	17.51	-39.0	-41.2	16.5	0.00e+00	0	57	0	852492288	49	4679
2026-01-02 22:28:10.08	128.60	17.44	-38.7	-40.8	16.9	0.00e+00	0	57	0	853540864	49	4454
2026-01-02 22:28:11.09	128.78	17.37	-38.5	-40.5	17.2	2.21e-05	0	57	0	855638016	48	4547
2026-01-02 22:28:12.09	128.97	17.30	-38.3	-40.3	17.3	0.00e+00	0	57	0	857735168	48	4457
2026-01-02 22:28:13.10	129.16	17.23	-38.4	-40.4	17.1	0.00e+00	0	57	0	859832320	48	4495
2026-01-02 22:28:14.11	129.34	17.16	-38.4	-40.4	17.1	7.00e-07	0	57	0	861929472	47	4799
2026-01-02 22:28:15.12	129.53	17.09	-38.8	-40.9	16.7	5.30e-06	0	57	0	862978048	48	4786
2026-01-02 22:28:16.13	129.71	17.02	-38.7	-40.8	16.8	7.00e-07	0	57	0	865075200	48	4751
2026-01-02 22:28:17.14	129.89	16.94	-38.5	-40.7	16.9	6.78e-04	0	57	0	867172352	47	4933
2026-01-02 22:28:18.16	130.07	16.87	-38.4	-40.5	17.0	0.00e+00	0	57	0	869269504	47	4849
2026-01-02 22:28:19.16	130.25	16.80	-38.1	-40.3	16.9	4.11e-05	0	57	0	871366656	47	4725
2026-01-02 22:28:20.17	130.43	16.73	-38.2	-40.2	17.3	3.00e-06	0	57	0	872415232	46	4929
2026-01-02 22:28:21.18	130.61	16.66	-38.1	-40.0	17.2	1.69e-04	0	57	0	874512384	46	4853
2026-01-02 22:28:22.19	130.79	16.59	-38.1	-40.0	17.4	5.11e-05	0	57	0	876609536	46	4844
2026-01-02 22:28:23.20	130.97	16.51	-38.5	-40.5	16.9	2.04e-03	0	57	0	878706688	47	4865
2026-01-02 22:28:24.21	131.15	16.44	-38.8	-40.9	16.7	1.74e-04	0	57	0	880803840	48	4807
2026-01-02 22:28:25.22	131.32	16.37	-39.0	-41.4	16.1	2.13e-04	0	57	0	881852416	48	5100
2026-01-02 22:28:26.23	131.50	16.30	-39.2	-41.6	15.9	1.49e-04	0	57	0	883949568	49	4904
2026-01-02 22:28:27.23	131.67	16.23	-39.1	-41.6	15.9	1.20e-03	0	57	0	886046720	49	4890
2026-01-02 22:28:28.24	131.84	16.15	-38.9	-41.4	16.0	1.80e-04	0	57	0	888143872	48	5048
2026-01-02 22:28:29.25	132.01	16.08	-38.6	-41.1	16.3	9.15e-03	0	57	0	890241024	48	4917
2026-01-02 22:28:30.26	132.19	16.01	-38.6	-40.8	16.6	2.17e-04	0	57	0	891289600	47	4995
2026-01-02 22:28:31.27	132.36	15.94	-32.9	-40.4	13.2	1.85e-03	0	57	0	893386752	40	7162
2026-01-02 22:28:32.28	132.53	15.87	-38.4	-40.6	16.6	8.70e-03	0	57	0	895483904	47	4903
2026-01-02 22:28:33.29	132.70	15.79	-38.4	-40.6	16.7	2.46e-03	0	57	0	897581056	47	4902
2026-01-02 22:28:34.30	132.87	15.72	-38.4	-40.6	16.5	1.18e-03	0	57	0	899678208	47	4912
2026-01-02 22:28:35.31	133.03	15.65	-38.2	-40.8	15.3	1.21e-02	0	57	0	900726784	46	5307
2026-01-02 22:28:36.32	133.20	15.58	-38.5	-40.8	16.6	1.89e-03	0	57	0	902823936	47	4999
2026-01-02 22:28:37.33	133.37	15.50	-34.8	-40.9	15.8	1.65e-02	0	57	0	904921088	47	5060
2026-01-02 22:28:38.34	133.53	15.43	-38.2	-40.5	16.8	5.86e-03	0	57	0	907018240	47	4838
2026-01-02 22:28:39.35	133.70	15.36	-37.9	-40.2	17.0	9.99e-04	0	57	0	909115392	47	4678
2026-01-02 22:28:40.36	133.86	15.29	-37.6	-40.1	16.6	9.69e-04	0	57	0	910163968	46	4872
2026-01-02 22:28:41.37	134.02	15.22	-38.2	-40.2	17.1	1.84e-02	0	57	0	912261120	46	4960
2026-01-02 22:28:42.38	134.19	15.14	-37.9	-40.5	16.4	1.47e-03	0	57	0	914358272	47	4860
2026-01-02 22:28:43.39	134.35	15.07	-38.7	-40.9	16.4	3.63e-03	0	57	0	916455424	47	5088
2026-01-02 22:28:44.40	134.51	15.00	-39.1	-41.5	15.8	2.46e-03	0	57	0	918552576	48	5111
2026-01-02 22:28:45.41	134.67	14.93	-39.4	-42.0	15.0	8.60e-03	0	57	0	919601152	49	5142
2026-01-02 22:28:46.41	134.83	14.85	-39.9	-42.7	14.5	2.94e-03	0	57	0	921698304	50	5259
2026-01-02 22:28:47.43	134.99	14.78	-39.7	-42.9	14.4	3.81e-02	0	57	0	923795456	50	5356
2026-01-02 22:28:48.44	135.14	14.71	-39.5	-42.7	14.5	4.19e-03	0	57	0	925892608	50	5243
2026-01-02 22:28:49.45	135.30	14.64	-39.4	-42.7	14.4	3.27e-02	0	57	0	927989760	50	5237
2026-01-02 22:28:50.46	135.46	14.56	-39.1	-42.2	15.0	4.53e-03	0	57	0	929038336	49	5223
2026-01-02 22:28:51.47	135.61	14.49	-39.4	-42.0	15.1	3.16e-02	0	57	0	931135488	49	5115
2026-01-02 22:28:52.47	135.77	14.42	-39.3	-41.7	15.4	2.42e-03	0	57	0	933232640	49	4973
2026-01-02 22:28:53.48	135.92	14.35	-39.0	-41.4	15.0	3.29e-02	0	57	0	935329792	48	5047
2026-01-02 22:28:54.49	136.08	14.28	-38.9	-41.2	16.0	5.90e-03	0	57	0	937426944	48	4963
2026-01-02 22:28:55.50	136.23	14.20	-38.5	-40.8	15.8	2.84e-03	0	57	0	938475520	47	5001
2026-01-02 22:28:56.51	136.38	14.13	-38.2	-40.5	16.4	2.23e-03	0	57	0	940572672	47	4850
2026-01-02 22:28:57.52	136.53	14.06	-32.6	-40.1	14.5	3.26e-02	0	57	0	942669824	38	7773
2026-01-02 22:28:58.53	136.68	13.99	-38.2	-40.5	16.5	1.31e-03	0	57	0	944766976	47	4824
2026-01-02 22:28:59.54	136.83	13.92	-38.0	-40.4	16.6	9.56e-04	0	57	0	946864128	47	4780
2026-01-02 22:29:00.55	136.98	13.84	-38.0	-40.2	17.0	1.33e-02	0	57	0	948961280	46	4930
2026-01-02 22:29:01.56	137.13	13.77	-38.0	-40.0	16.7	5.24e-03	0	57	0	950009856	46	4857
2026-01-02 22:29:02.57	137.28	13.70	-37.9	-39.8	17.0	4.19e-03	0	57	0	952107008	46	4745
2026-01-02 22:29:03.58	137.42	13.63	-38.0	-40.0	17.2	2.03e-03	0	57	0	954204160	46	4839
2026-01-02 22:29:04.59	137.57	13.56	-37.9	-40.1	17.1	1.24e-03	0	57	0	956301312	46	4907
2026-01-02 22:29:05.60	137.72	13.48	-38.3	-40.4	16.1	6.00e-03	0	57	0	958398464	47	4790
2026-01-02 22:29:06.62	137.86	13.41	-35.4	-40.5	14.6	1.09e-02	0	57	0	959447040	46	5104
2026-01-02 22:29:07.63	138.01	13.34	-38.6	-41.0	13.6	1.31e-02	0	57	0	961544192	44	6066
2026-01-02 22:29:08.63	138.15	13.27	-39.0	-41.4	16.0	9.89e-04	0	57	0	963641344	48	5046
2026-01-02 22:29:09.64	138.29	13.20	-39.2	-41.7	15.7	1.62e-03	0	57	0	965738496	49	4972
2026-01-02 22:29:10.65	138.43	13.13	-39.4	-41.9	15.5	1.11e-04	0	57	0	967835648	49	5094
2026-01-02 22:29:11.66	138.58	13.06	-39.5	-42.1	15.4	6.17e-05	0	57	0	968884224	49	5165
2026-01-02 22:29:12.67	138.72	12.98	-39.5	-42.1	15.2	5.87e-05	0	57	0	970981376	49	5171
2026-01-02 22:29:13.68	138.86	12.91	-39.4	-42.0	15.4	8.30e-06	0	57	0	973078528	49	5139
2026-01-02 22:29:14.69	139.00	12.84	-39.4	-41.9	15.4	8.30e-06	0	57	0	975175680	49	5081
2026-01-02 22:29:15.70	139.14	12.77	-39.4	-41.9	15.5	5.26e-05	0	57	0	977272832	49	5066
2026-01-02 22:29:16.71	139.27	12.70	-39.4	-41.8	15.5	7.62e-05	0	57	0	978321408	49	5041
2026-01-02 22:29:17.72	139.41	12.63	-39.3	-41.8	15.6	6.10e-06	0	57	0	980418560	49	4990
2026-01-02 22:29:18.73	139.55	12.56	-39.2	-41.5	15.9	0.00e+00	0	57	0	982515712	49	4860
2026-01-02 22:29:19.74	139.69	12.49	-39.1	-41.4	16.0	7.00e-07	0	57	0	984612864	49	4809
2026-01-02 22:29:20.75	139.82	12.41	-38.9	-41.2	16.2	0.00e+00	0	57	0	986710016	49	4659
2026-01-02 22:29:21.76	139.96	12.34	-39.1	-41.4	16.0	0.00e+00	0	57	0	987758592	49	4804
2026-01-02 22:29:22.77	140.09	12.27	-39.1	-41.5	15.9	0.00e+00	0	57	0	989855744	49	4824
2026-01-02 22:29:23.78	140.23	12.20	-39.2	-41.6	15.8	0.00e+00	0	57	0	991952896	49	4884
2026-01-02 22:29:24.79	140.36	12.13	-39.2	-41.6	15.8	0.00e+00	0	57	0	994050048	49	4879
2026-01-02 22:29:25.80	140.49	12.06	-39.0	-41.3	16.0	0.00e+00	0	57	0	996147200	49	4747
2026-01-02 22:29:26.80	140.62	11.99	-39.0	-41.3	16.1	7.00e-07	0	57	0	997195776	49	4742
2026-01-02 22:29:27.81	140.75	11.92	-39.0	-41.4	16.0	0.00e+00	0	57	0	999292928	49	4770
2026-01-02 22:29:28.82	140.88	11.85	-38.9	-41.2	16.2	0.00e+00	0	57	0	1001390080	49	4687
2026-01-02 22:29:29.83	141.01	11.78	-39.0	-41.2	16.1	0.00e+00	0	57	0	1003487232	49	4699
2026-01-02 22:29:30.84	141.14	11.71	-38.9	-41.2	16.2	0.00e+00	0	57	0	1005584384	49	4662
2026-01-02 22:29:31.85	141.27	11.64	-39.0	-41.3	16.0	0.00e+00	0	57	0	1006632960	49	4749
2026-01-02 22:29:32.86	141.40	11.57	-39.1	-41.4	16.0	0.00e+00	0	57	0	1008730112	49	4780
2026-01-02 22:29:33.87	141.53	11.50	-39.0	-41.3	16.1	0.00e+00	0	57	0	1010827264	49	4709
2026-01-02 22:29:34.88	141.66	11.43	-39.2	-41.6	15.8	0.00e+00	0	57	0	1012924416	49	4880
2026-01-02 22:29:35.88	141.78	11.36	-39.3	-41.7	15.5	0.00e+00	0	57	0	1015021568	49	4971
2026-01-02 22:29:36.89	141.91	11.29	-39.5	-42.0	15.3	0.00e+00	0	57	0	1017118720	49	5133
2026-01-02 22:29:37.90	142.03	11.22	-39.8	-42.5	14.9	0.00e+00	0	57	0	1018167296	50	5115
2026-01-02 22:29:38.91	142.16	11.15	-39.8	-42.5	14.9	0.00e+00	0	57	0	1020264448	50	5104
2026-01-02 22:29:39.92	142.28	11.08	-40.0	-42.9	14.5	0.00e+00	0	57	0	1022361600	50	5342
2026-01-02 22:29:40.93	142.41	11.01	-40.2	-43.0	14.3	0.00e+00	0	57	0	1024458752	50	5448
2026-01-02 22:29:41.94	142.53	10.94	-40.2	-43.2	14.1	7.00e-07	0	57	0	1026555904	51	5226
2026-01-02 22:29:42.95	142.65	10.87	-40.5	-43.7	13.6	2.20e-06	0	57	0	1027604480	51	5548
2026-01-02 22:29:43.96	142.78	10.80	-40.5	-43.7	13.5	8.30e-06	0	57	0	1029701632	51	5561
2026-01-02 22:29:44.97	142.90	10.73	-40.4	-43.5	13.8	1.50e-06	0	57	0	1031798784	51	5429
2026-01-02 22:29:45.98	143.02	10.66	-40.3	-43.4	13.8	3.80e-06	0	57	0	1033895936	51	5391
2026-01-02 22:29:46.99	143.14	10.59	-40.1	-43.1	14.2	4.50e-06	0	57	0	1035993088	51	5170
2026-01-02 22:29:48.00	143.26	10.53	-40.2	-43.2	14.0	1.50e-06	0	57	0	1037041664	51	5245
2026-01-02 22:29:49.01	143.38	10.46	-40.0	-42.8	14.4	3.00e-06	0	57	0	1039138816	51	5022
2026-01-02 22:29:50.01	143.50	10.39	-39.9	-42.7	14.6	0.00e+00	0	57	0	1041235968	51	4944
2026-01-02 22:29:51.02	143.61	10.32	-39.9	-42.7	14.5	1.50e-06	0	57	0	1043333120	51	4940
2026-01-02 22:29:52.03	143.73	10.25	-39.6	-42.3	14.9	0.00e+00	0	57	0	1045430272	51	4737
2026-01-02 22:29:53.04	143.85	10.18	-39.7	-42.4	14.8	0.00e+00	0	57	0	1046478848	51	4766
2026-01-02 22:29:54.05	143.97	10.11	-39.7	-42.4	14.8	0.00e+00	0	57	0	1048576000	51	4781
2026-01-02 22:29:55.06	144.08	10.05	-39.5	-42.2	15.0	7.00e-07	0	57	0	1050673152	51	4674
2026-01-02 22:29:56.07	144.20	9.98	-39.6	-42.3	14.9	0.00e+00	0	57	0	1052770304	50	4995
2026-01-02 22:29:57.08	144.31	9.91	-39.6	-42.3	15.0	7.00e-07	0	57	0	1054867456	50	4984
2026-01-02 22:29:58.09	144.43	9.84	-39.4	-42.0	15.2	0.00e+00	0	57	0	1055916032	50	4828
2026-01-02 22:29:59.10	144.54	9.77	-39.4	-42.0	15.2	7.00e-07	0	57	0	1058013184	50	4853
2026-01-02 22:30:00.11	144.65	9.71	-39.3	-41.8	15.3	0.00e+00	0	57	0	1060110336	50	4757
2026-01-02 22:30:01.13	144.77	9.64	-39.3	-41.9	15.3	0.00e+00	0	57	0	1062207488	50	4783
2026-01-02 22:30:02.14	144.88	9.57	-39.3	-41.9	15.2	0.00e+00	0	57	0	1064304640	50	4777
2026-01-02 22:30:03.15	144.99	9.50	-39.2	-41.7	15.4	0.00e+00	0	57	0	1065353216	50	4681
2026-01-02 22:30:04.16	145.10	9.43	-39.3	-41.8	15.3	0.00e+00	0	57	0	1067450368	50	4721
2026-01-02 22:30:05.17	145.22	9.37	-39.2	-41.8	15.3	7.00e-07	0	57	0	1069547520	50	4722
2026-01-02 22:30:06.17	145.33	9.30	-39.2	-41.8	15.3	0.00e+00	0	57	0	1071644672	50	4707
2026-01-02 22:30:07.18	145.44	9.23	-39.4	-41.9	15.1	0.00e+00	0	57	0	1073741824	50	4805
2026-01-02 22:30:08.19	145.54	9.17	-39.4	-42.0	15.1	0.00e+00	0	57	0	1074790400	50	4824
2026-01-02 22:30:09.20	145.65	9.10	-39.6	-42.4	14.7	0.00e+00	0	57	0	1076887552	50	5070
2026-01-02 22:30:10.21	145.76	9.03	-39.8	-42.7	14.3	1.50e-06	0	57	0	1078984704	50	5233
2026-01-02 22:30:11.22	145.87	8.96	-39.9	-42.8	14.3	1.50e-06	0	57	0	1081081856	50	5297
2026-01-02 22:30:12.23	145.98	8.90	-40.2	-43.3	13.7	4.50e-06	0	57	0	1083179008	50	5621
2026-01-02 22:30:13.24	146.09	8.83	-40.0	-43.1	13.9	5.30e-06	0	57	0	1085276160	50	5478
2026-01-02 22:30:14.25	146.19	8.76	-40.0	-43.1	13.9	1.50e-06	0	57	0	1086324736	50	5477
2026-01-02 22:30:15.26	146.30	8.70	-40.2	-43.3	13.6	5.30e-06	0	57	0	1088421888	50	5656
2026-01-02 22:30:16.28	146.41	8.63	-40.0	-43.0	14.0	3.80e-06	0	57	0	1090519040	51	5130
2026-01-02 22:30:17.29	146.51	8.56	-40.1	-43.2	13.7	4.50e-06	0	57	0	1092616192	51	5272
2026-01-02 22:30:18.29	146.61	8.50	-40.1	-43.2	13.7	5.30e-06	0	57	0	1094713344	51	5278
2026-01-02 22:30:19.30	146.72	8.43	-40.0	-43.0	13.9	3.80e-06	0	57	0	1095761920	51	5137
2026-01-02 22:30:20.31	146.82	8.37	-40.1	-43.2	13.7	5.30e-06	0	57	0	1097859072	51	5273
2026-01-02 22:30:21.32	146.93	8.30	-39.8	-42.7	14.2	3.80e-06	0	57	0	1099956224	51	4955
2026-01-02 22:30:22.33	147.03	8.23	-39.6	-42.3	14.6	0.00e+00	0	57	0	1102053376	51	4758
2026-01-02 22:30:23.34	147.13	8.17	-39.6	-42.5	14.5	7.00e-07	0	57	0	1104150528	51	4821
2026-01-02 22:30:24.35	147.23	8.10	-39.4	-42.1	14.8	7.00e-07	0	57	0	1105199104	50	4912
2026-01-02 22:30:25.36	147.34	8.04	-39.8	-42.7	14.4	0.00e+00	0	57	0	1107296256	50	5221
2026-01-02 22:30:26.37	147.44	7.97	-44.3	-58.6	3.8	1.49e+00	0	57	104	1108344832	59	19418
2026-01-02 22:30:27.38	147.54	7.91	-44.6	-59.0	3.8	1.49e+00	0	57	104	1108344832	59	20431
2026-01-02 22:30:28.39	147.64	7.84	-44.8	-59.4	3.8	1.49e+00	0	57	104	1108344832	60	20161
2026-01-02 22:30:29.40	147.74	7.78	-44.9	-59.6	3.8	1.49e+00	0	57	104	1108344832	60	20626
2026-01-02 22:30:30.41	147.84	7.71	-45.1	-59.6	3.8	1.49e+00	0	57	104	1108344832	60	20756
2026-01-02 22:30:31.42	147.94	7.64	-45.1	-59.8	3.8	1.49e+00	0	57	104	1108344832	60	21107
2026-01-02 22:30:32.43	148.04	7.58	-45.2	-59.8	3.8	1.49e+00	0	57	104	1108344832	60	21180
2026-01-02 22:30:33.44	148.13	7.52	-45.2	-59.8	3.8	1.49e+00	0	57	104	1108344832	60	21197
2026-01-02 22:30:34.45	148.23	7.45	-45.2	-59.7	3.8	1.49e+00	0	57	104	1108344832	60	20987
2026-01-02 22:30:35.46	148.33	7.39	-45.1	-59.7	3.8	1.49e+00	0	57	104	1108344832	60	20892
2026-01-02 22:30:36.47	148.43	7.32	-45.0	-59.6	3.8	1.49e+00	0	57	104	1108344832	60	20685
2026-01-02 22:30:37.48	148.52	7.26	-45.0	-59.5	3.8	1.49e+00	0	57	104	1108344832	60	20480
2026-01-02 22:30:38.49	148.62	7.19	-44.9	-59.5	3.8	1.49e+00	0	57	104	1108344832	60	20357
2026-01-02 22:30:39.50	148.71	7.13	-44.9	-59.4	3.8	1.49e+00	0	57	104	1108344832	60	20279
2026-01-02 22:30:40.52	148.81	7.06	-44.9	-59.4	3.8	1.49e+00	0	57	104	1108344832	60	20160
2026-01-02 22:30:41.53	148.91	7.00	-44.9	-59.4	3.8	1.49e+00	0	57	104	1108344832	60	20223
2026-01-02 22:30:42.54	149.00	6.93	-44.9	-59.4	3.8	1.49e+00	0	57	104	1108344832	60	20147
2026-01-02 22:30:43.55	149.09	6.87	-44.9	-59.4	3.8	1.49e+00	0	57	104	1108344832	60	20203
2026-01-02 22:30:44.56	149.19	6.81	-44.9	-59.4	3.8	1.49e+00	0	57	104	1108344832	60	20157
2026-01-02 22:30:45.57	149.28	6.74	-44.9	-59.4	3.8	1.49e+00	0	57	104	1108344832	60	20139
2026-01-02 22:30:46.58	149.37	6.68	-44.9	-59.4	3.8	1.49e+00	0	57	104	1108344832	60	20202
