passes_logs/2026/01/02/R2.0S_Moscow/R2.0S_Moscow__20260102_112023_NOAA_21_JPSS-2_rec.log

#Pass ID: 20260102_112023_NOAA 21 (JPSS-2)
#Satellite: NOAA 21 (JPSS-2)
#Configuration: NOAA-21
#almurnet v.1.7.20251203
#Start time: 2026-01-02 11:24:16

#Version: 2.2.20231116
#Station: R2.0S_Moscow
#Location: 37.707566 lon 55.798166 lat
#TLE: 1 54234U 22150A   26001.26806856  .00000185  00000+0  10843-3 0  9990
#TLE: 2 54234  98.7484 302.3349 0001277 353.3887   6.7272 14.19530660162860

#Time	Az	El	Level	Level2	SNR	BER	BlckErr	Temp	State	Recorded	gain1	gain2
2026-01-02 11:24:16.40	229.77	17.54	-44.6	-56.2	3.8	8.46e-01	0	57	0	0	60	13939
2026-01-02 11:24:17.41	229.96	17.62	-44.8	-57.1	3.8	1.49e+00	0	57	104	0	61	14700
2026-01-02 11:24:18.42	230.14	17.69	-44.8	-57.1	3.8	1.49e+00	0	57	104	0	61	14657
2026-01-02 11:24:19.44	230.33	17.76	-44.8	-57.1	3.8	1.49e+00	0	57	104	0	61	14700
2026-01-02 11:24:20.45	230.52	17.84	-44.8	-57.1	3.8	1.49e+00	0	57	104	0	61	14668
2026-01-02 11:24:21.46	230.71	17.91	-44.8	-57.1	3.8	1.49e+00	0	57	104	0	61	14652
2026-01-02 11:24:22.47	230.90	17.98	-44.8	-57.1	3.8	1.49e+00	0	57	104	0	61	14602
2026-01-02 11:24:23.48	231.09	18.06	-44.7	-57.0	3.8	1.49e+00	0	57	104	0	61	14529
2026-01-02 11:24:24.49	231.28	18.13	-44.7	-57.0	3.8	1.49e+00	0	57	104	0	61	14473
2026-01-02 11:24:25.50	231.48	18.20	-44.6	-56.9	3.8	1.49e+00	0	57	104	0	61	14334
2026-01-02 11:24:26.51	231.67	18.28	-44.6	-56.9	3.8	1.49e+00	0	57	104	0	61	14345
2026-01-02 11:24:27.52	231.86	18.35	-44.6	-56.9	3.8	1.49e+00	0	57	104	0	61	14256
2026-01-02 11:24:28.53	232.06	18.42	-44.6	-56.8	3.8	1.49e+00	0	57	104	0	61	14182
2026-01-02 11:24:29.54	232.26	18.49	-44.5	-56.8	3.8	1.49e+00	0	57	104	0	61	14152
2026-01-02 11:24:30.55	232.45	18.57	-44.5	-56.8	3.8	1.49e+00	0	57	104	0	61	14102
2026-01-02 11:24:31.57	232.65	18.64	-44.5	-56.8	3.8	1.49e+00	0	57	104	0	61	14109
2026-01-02 11:24:32.58	232.85	18.71	-44.5	-56.8	3.8	1.49e+00	0	57	104	0	61	14098
2026-01-02 11:24:33.59	233.05	18.78	-44.5	-56.8	3.8	1.49e+00	0	57	104	0	61	14098
2026-01-02 11:24:34.60	233.26	18.85	-44.5	-56.8	3.8	1.49e+00	0	57	104	0	61	14120
2026-01-02 11:24:35.61	233.46	18.93	-44.5	-56.8	3.8	1.49e+00	0	57	104	0	61	14087
2026-01-02 11:24:36.62	233.66	19.00	-44.5	-56.8	3.8	1.49e+00	0	57	104	0	61	14104
2026-01-02 11:24:37.63	233.86	19.07	-44.5	-56.8	3.8	1.49e+00	0	57	104	0	61	14158
2026-01-02 11:24:38.64	234.07	19.14	-44.5	-56.8	3.8	1.49e+00	0	57	104	0	61	14072
2026-01-02 11:24:39.65	234.28	19.21	-44.5	-56.8	3.8	1.49e+00	0	57	104	0	61	14109
2026-01-02 11:24:40.66	234.48	19.28	-44.5	-56.8	3.8	1.49e+00	0	58	104	0	61	14115
2026-01-02 11:24:41.68	234.69	19.35	-44.5	-56.8	3.8	1.49e+00	0	57	104	0	60	15025
2026-01-02 11:24:42.69	234.90	19.42	-44.5	-56.9	3.8	1.49e+00	0	57	104	0	60	15055
2026-01-02 11:24:43.70	235.11	19.49	-44.5	-56.9	3.8	1.49e+00	0	57	104	0	60	15089
2026-01-02 11:24:44.71	235.32	19.56	-44.5	-56.8	3.8	1.49e+00	0	57	104	0	60	15022
2026-01-02 11:24:45.72	235.53	19.63	-44.5	-56.8	3.8	1.49e+00	0	57	104	0	60	14884
2026-01-02 11:24:46.73	235.74	19.70	-44.5	-56.7	3.8	1.49e+00	0	58	104	0	60	14727
2026-01-02 11:24:47.74	235.96	19.77	-44.5	-56.6	3.8	1.49e+00	0	57	104	0	60	14688
2026-01-02 11:24:48.75	236.17	19.84	-44.5	-56.6	3.8	1.49e+00	0	57	104	0	60	14678
2026-01-02 11:24:49.76	236.39	19.91	-44.5	-56.6	3.8	1.49e+00	0	57	104	0	60	14600
2026-01-02 11:24:50.77	236.60	19.98	-44.5	-56.5	3.8	1.49e+00	0	57	104	0	60	14491
2026-01-02 11:24:51.79	236.82	20.05	-44.5	-56.5	3.8	1.49e+00	0	57	104	0	60	14452
2026-01-02 11:24:52.80	237.04	20.12	-44.5	-56.6	3.8	1.49e+00	0	57	104	0	60	14599
2026-01-02 11:24:53.81	237.26	20.19	-44.5	-56.8	3.8	1.49e+00	0	58	104	0	60	14889
2026-01-02 11:24:54.82	237.48	20.26	-44.5	-56.9	3.8	1.49e+00	0	57	104	0	60	15054
2026-01-02 11:24:55.83	237.70	20.32	-44.5	-56.6	3.8	1.49e+00	0	57	104	0	60	14708
2026-01-02 11:24:56.84	237.92	20.39	-44.5	-56.3	3.8	1.49e+00	0	57	104	0	60	14178
2026-01-02 11:24:57.85	238.15	20.46	-44.4	-56.1	3.8	1.49e+00	0	57	104	0	60	13841
2026-01-02 11:24:58.86	238.37	20.53	-44.4	-56.1	3.8	1.49e+00	0	58	104	0	60	13871
2026-01-02 11:24:59.87	238.59	20.59	-44.4	-56.2	3.8	1.49e+00	0	57	104	0	60	14034
2026-01-02 11:25:00.89	238.82	20.66	-44.5	-56.4	3.8	1.49e+00	0	57	104	0	60	14325
2026-01-02 11:25:01.90	239.05	20.73	-44.5	-56.6	3.8	1.49e+00	0	57	104	0	60	14643
2026-01-02 11:25:02.91	239.28	20.79	-44.4	-55.7	3.8	1.49e+00	0	58	104	0	60	13257
2026-01-02 11:25:03.92	239.50	20.86	-44.0	-51.7	4.7	1.20e+00	0	57	104	0	59	8829
2026-01-02 11:25:04.93	239.73	20.92	-42.7	-47.4	8.0	1.99e-01	0	57	0	2097152	57	5995
2026-01-02 11:25:05.94	239.96	20.99	-40.7	-43.6	11.7	2.97e-03	0	58	0	5242880	53	4901
2026-01-02 11:25:06.95	240.20	21.05	-38.9	-40.9	14.6	2.20e-06	0	57	0	8388608	49	4514
2026-01-02 11:25:07.96	240.43	21.12	-37.4	-39.0	16.4	0.00e+00	0	58	0	11534336	46	4320
2026-01-02 11:25:08.97	240.66	21.18	-36.3	-37.8	17.5	0.00e+00	0	57	0	14680064	44	4209
2026-01-02 11:25:09.99	240.90	21.25	-35.8	-37.2	18.0	0.00e+00	0	57	0	17825792	43	4151
2026-01-02 11:25:11.00	241.13	21.31	-44.6	-56.5	3.8	9.12e-01	0	58	104	19922944	59	15269
2026-01-02 11:25:12.00	241.37	21.37	-39.4	-41.5	13.8	1.21e+00	0	58	104	19922944	50	4574
2026-01-02 11:25:13.01	241.60	21.44	-39.6	-41.8	13.8	0.00e+00	0	58	0	22020096	49	5033
2026-01-02 11:25:14.02	241.84	21.50	-43.4	-49.4	6.2	4.91e-02	0	57	0	25165824	57	7549
2026-01-02 11:25:15.03	242.08	21.56	-38.2	-40.0	15.5	0.00e+00	0	57	0	28311552	46	4849
2026-01-02 11:25:16.04	242.32	21.63	-36.8	-38.3	17.1	0.00e+00	0	57	0	31457280	45	4202
2026-01-02 11:25:17.05	242.56	21.69	-36.1	-37.5	17.8	0.00e+00	0	57	0	34603008	44	4084
2026-01-02 11:25:18.06	242.80	21.75	-35.8	-37.2	18.0	0.00e+00	0	57	0	38797312	43	4155
2026-01-02 11:25:19.07	243.05	21.81	-35.7	-37.0	18.1	0.00e+00	0	57	0	40894464	43	4079
2026-01-02 11:25:20.08	243.29	21.87	-35.4	-36.7	18.4	0.00e+00	0	57	0	44040192	42	4176
2026-01-02 11:25:21.09	243.53	21.93	-35.2	-36.5	18.6	0.00e+00	0	57	0	47185920	42	4089
2026-01-02 11:25:22.10	243.78	21.99	-35.2	-36.4	18.6	0.00e+00	0	57	0	50331648	42	4042
2026-01-02 11:25:23.11	244.03	22.05	-35.1	-36.4	18.6	0.00e+00	0	57	0	54525952	42	4041
2026-01-02 11:25:24.12	244.27	22.11	-35.1	-36.4	18.7	0.00e+00	0	57	0	57671680	42	4017
2026-01-02 11:25:25.13	244.52	22.17	-35.2	-36.4	18.7	0.00e+00	0	58	0	60817408	42	4037
2026-01-02 11:25:26.14	244.77	22.22	-35.2	-36.5	18.6	0.00e+00	0	57	0	62914560	42	4064
2026-01-02 11:25:27.15	245.02	22.28	-35.3	-36.6	18.5	0.00e+00	0	57	0	67108864	42	4139
2026-01-02 11:25:28.16	245.27	22.34	-35.4	-36.7	18.4	0.00e+00	0	58	0	70254592	42	4170
2026-01-02 11:25:29.17	245.52	22.40	-35.4	-36.7	18.4	0.00e+00	0	57	0	73400320	42	4167
2026-01-02 11:25:30.18	245.78	22.45	-35.4	-36.7	18.5	0.00e+00	0	57	0	76546048	42	4150
2026-01-02 11:25:31.19	246.03	22.51	-35.3	-36.6	18.6	0.00e+00	0	57	0	79691776	42	4117
2026-01-02 11:25:32.20	246.28	22.56	-35.3	-36.6	18.5	0.00e+00	0	57	0	82837504	42	4128
2026-01-02 11:25:33.22	246.54	22.62	-35.2	-36.5	18.6	0.00e+00	0	57	0	85983232	42	4088
2026-01-02 11:25:34.23	246.80	22.68	-35.3	-36.6	18.6	0.00e+00	0	57	0	89128960	42	4101
2026-01-02 11:25:35.24	247.05	22.73	-35.3	-36.6	18.5	0.00e+00	0	57	0	92274688	42	4129
2026-01-02 11:25:36.25	247.31	22.78	-35.4	-36.7	18.4	0.00e+00	0	57	0	95420416	42	4161
2026-01-02 11:25:37.26	247.57	22.84	-35.4	-36.7	18.4	0.00e+00	0	57	0	98566144	42	4188
2026-01-02 11:25:38.27	247.83	22.89	-35.4	-36.7	18.4	0.00e+00	0	57	0	101711872	42	4175
2026-01-02 11:25:39.28	248.09	22.94	-35.4	-36.7	18.5	0.00e+00	0	57	0	104857600	42	4160
2026-01-02 11:25:40.29	248.35	22.99	-35.3	-36.6	18.5	0.00e+00	0	57	0	108003328	42	4135
2026-01-02 11:25:41.30	248.62	23.04	-35.3	-36.6	18.6	0.00e+00	0	57	0	111149056	42	4099
2026-01-02 11:25:42.31	248.88	23.10	-35.3	-36.5	18.6	0.00e+00	0	57	0	114294784	42	4091
2026-01-02 11:25:43.32	249.14	23.15	-35.2	-36.5	18.6	0.00e+00	0	57	0	117440512	42	4082
2026-01-02 11:25:44.33	249.41	23.19	-35.3	-36.6	18.6	0.00e+00	0	58	0	120586240	42	4113
2026-01-02 11:25:45.34	249.67	23.24	-35.3	-36.6	18.5	0.00e+00	0	57	0	123731968	42	4126
2026-01-02 11:25:46.35	249.94	23.29	-35.4	-36.7	18.5	0.00e+00	0	57	0	126877696	42	4169
2026-01-02 11:25:47.36	250.21	23.34	-35.4	-36.7	18.4	0.00e+00	0	57	0	130023424	42	4174
2026-01-02 11:25:48.37	250.47	23.39	-35.4	-36.7	18.5	0.00e+00	0	57	0	133169152	42	4163
2026-01-02 11:25:49.38	250.74	23.44	-35.3	-36.7	18.5	0.00e+00	0	57	0	136314880	42	4148
2026-01-02 11:25:50.39	251.01	23.48	-35.4	-36.7	18.5	0.00e+00	0	57	0	139460608	42	4148
2026-01-02 11:25:51.40	251.28	23.53	-35.4	-36.7	18.5	0.00e+00	0	57	0	142606336	42	4147
2026-01-02 11:25:52.41	251.55	23.57	-35.3	-36.6	18.6	0.00e+00	0	57	0	145752064	42	4102
2026-01-02 11:25:53.42	251.83	23.62	-35.3	-36.6	18.6	0.00e+00	0	57	0	148897792	42	4111
2026-01-02 11:25:54.43	252.10	23.66	-35.3	-36.6	18.6	0.00e+00	0	57	0	152043520	42	4128
2026-01-02 11:25:55.44	252.37	23.71	-35.4	-36.7	18.4	0.00e+00	0	57	0	155189248	42	4187
2026-01-02 11:25:56.45	252.65	23.75	-35.6	-36.9	18.3	0.00e+00	0	57	0	158334976	42	4263
2026-01-02 11:25:57.46	252.92	23.79	-35.7	-37.0	18.2	0.00e+00	0	57	0	161480704	42	4326
2026-01-02 11:25:58.48	253.20	23.83	-35.7	-37.0	18.2	0.00e+00	0	57	0	164626432	42	4327
2026-01-02 11:25:59.49	253.47	23.87	-35.7	-37.0	18.2	0.00e+00	0	57	0	167772160	42	4317
2026-01-02 11:26:00.50	253.75	23.91	-35.6	-36.9	18.2	0.00e+00	0	57	0	170917888	42	4289
2026-01-02 11:26:01.50	254.03	23.95	-35.5	-36.8	18.3	0.00e+00	0	57	0	174063616	42	4237
2026-01-02 11:26:02.51	254.30	23.99	-35.5	-36.8	18.3	0.00e+00	0	57	0	177209344	42	4226
2026-01-02 11:26:03.52	254.58	24.03	-35.4	-36.7	18.5	0.00e+00	0	57	0	180355072	42	4156
2026-01-02 11:26:04.54	254.87	24.07	-35.4	-36.7	18.4	0.00e+00	0	57	0	183500800	42	4179
2026-01-02 11:26:05.55	255.15	24.11	-35.5	-36.8	18.3	0.00e+00	0	57	0	186646528	42	4220
2026-01-02 11:26:06.56	255.43	24.14	-35.5	-36.8	18.4	0.00e+00	0	57	0	189792256	42	4214
2026-01-02 11:26:07.57	255.71	24.18	-35.4	-36.7	18.5	0.00e+00	0	57	0	192937984	42	4174
2026-01-02 11:26:08.58	255.99	24.21	-35.3	-36.6	18.6	0.00e+00	0	57	0	196083712	42	4128
2026-01-02 11:26:09.59	256.27	24.25	-35.3	-36.6	18.5	0.00e+00	0	57	0	199229440	42	4121
2026-01-02 11:26:10.60	256.56	24.28	-35.3	-36.5	18.6	0.00e+00	0	57	0	202375168	42	4095
2026-01-02 11:26:11.60	256.84	24.32	-35.3	-36.6	18.4	0.00e+00	0	57	0	205520896	42	4127
2026-01-02 11:26:12.61	257.12	24.35	-35.3	-36.6	18.5	0.00e+00	0	57	0	208666624	42	4128
2026-01-02 11:26:13.62	257.41	24.38	-35.3	-36.6	18.5	0.00e+00	0	57	0	211812352	42	4128
2026-01-02 11:26:14.63	257.69	24.41	-35.3	-36.5	18.6	0.00e+00	0	57	0	214958080	42	4090
2026-01-02 11:26:15.64	257.98	24.44	-35.2	-36.4	18.7	0.00e+00	0	57	0	218103808	42	4048
2026-01-02 11:26:16.65	258.27	24.47	-35.2	-36.5	18.6	0.00e+00	0	57	0	221249536	42	4086
2026-01-02 11:26:17.66	258.55	24.50	-35.2	-36.5	18.7	0.00e+00	0	57	0	224395264	42	4074
2026-01-02 11:26:18.67	258.84	24.53	-35.2	-36.5	18.7	0.00e+00	0	57	0	227540992	42	4066
2026-01-02 11:26:19.68	259.13	24.56	-35.2	-36.5	18.7	0.00e+00	0	57	0	230686720	42	4060
2026-01-02 11:26:20.69	259.42	24.58	-35.3	-36.6	18.6	0.00e+00	0	57	0	233832448	42	4107
2026-01-02 11:26:21.70	259.71	24.61	-35.2	-36.5	18.6	0.00e+00	0	57	0	236978176	42	4068
2026-01-02 11:26:22.71	260.00	24.64	-35.1	-36.4	18.7	0.00e+00	0	57	0	240123904	42	4037
2026-01-02 11:26:23.72	260.29	24.66	-35.1	-36.3	18.8	0.00e+00	0	57	0	243269632	42	4000
2026-01-02 11:26:24.73	260.58	24.68	-35.0	-36.3	18.9	0.00e+00	0	57	0	246415360	42	3969
2026-01-02 11:26:25.74	260.87	24.71	-35.1	-36.4	18.7	0.00e+00	0	57	0	249561088	42	4025
2026-01-02 11:26:26.75	261.16	24.73	-35.1	-36.4	18.7	0.00e+00	0	57	0	252706816	42	4026
2026-01-02 11:26:27.76	261.45	24.75	-35.1	-36.4	18.8	0.00e+00	0	57	0	255852544	42	4020
2026-01-02 11:26:28.77	261.74	24.77	-35.0	-36.2	18.9	0.00e+00	0	57	0	258998272	42	3953
2026-01-02 11:26:29.78	262.04	24.79	-34.9	-36.2	18.9	0.00e+00	0	57	0	262144000	41	4161
2026-01-02 11:26:30.79	262.33	24.81	-34.8	-36.1	19.0	0.00e+00	0	57	0	265289728	41	4114
2026-01-02 11:26:31.80	262.62	24.83	-34.9	-36.1	19.0	0.00e+00	0	57	0	268435456	41	4119
2026-01-02 11:26:32.81	262.92	24.85	-34.9	-36.1	19.0	0.00e+00	0	57	0	271581184	41	4134
2026-01-02 11:26:33.83	263.21	24.87	-34.9	-36.1	19.0	0.00e+00	0	57	0	274726912	41	4134
2026-01-02 11:26:34.84	263.51	24.88	-34.9	-36.2	18.9	0.00e+00	0	57	0	277872640	41	4166
2026-01-02 11:26:35.84	263.80	24.90	-34.9	-36.2	19.0	0.00e+00	0	57	0	281018368	41	4158
2026-01-02 11:26:36.85	264.09	24.91	-34.9	-36.2	18.9	0.00e+00	0	57	0	284164096	41	4159
2026-01-02 11:26:37.86	264.39	24.93	-34.9	-36.1	19.0	0.00e+00	0	57	0	287309824	41	4120
2026-01-02 11:26:38.87	264.68	24.94	-34.8	-36.0	19.0	0.00e+00	0	57	0	290455552	41	4096
2026-01-02 11:26:39.88	264.98	24.95	-34.8	-36.0	19.0	0.00e+00	0	57	0	293601280	41	4096
2026-01-02 11:26:40.89	265.27	24.96	-34.8	-36.0	19.0	0.00e+00	0	57	0	296747008	41	4085
2026-01-02 11:26:41.91	265.57	24.98	-34.8	-36.0	19.0	0.00e+00	0	57	0	299892736	41	4065
2026-01-02 11:26:42.91	265.86	24.99	-34.8	-36.0	19.1	0.00e+00	0	57	0	303038464	41	4061
2026-01-02 11:26:43.92	266.16	24.99	-34.7	-36.0	19.1	0.00e+00	0	57	0	306184192	41	4057
2026-01-02 11:26:44.94	266.46	25.00	-34.7	-35.9	19.1	0.00e+00	0	57	0	309329920	41	4034
2026-01-02 11:26:45.95	266.76	25.01	-34.8	-36.0	19.1	0.00e+00	0	57	0	312475648	41	4066
2026-01-02 11:26:46.96	267.05	25.02	-34.9	-36.1	19.0	0.00e+00	0	57	0	315621376	41	4124
2026-01-02 11:26:47.97	267.35	25.02	-35.0	-36.3	18.8	0.00e+00	0	57	0	318767104	41	4208
2026-01-02 11:26:48.98	267.65	25.03	-35.1	-36.4	18.7	0.00e+00	0	57	0	321912832	41	4262
2026-01-02 11:26:49.99	267.94	25.03	-35.1	-36.4	18.7	0.00e+00	0	57	0	325058560	41	4252
2026-01-02 11:26:51.00	268.24	25.04	-35.1	-36.3	18.8	0.00e+00	0	57	0	328204288	41	4228
2026-01-02 11:26:52.01	268.54	25.04	-35.0	-36.3	18.8	0.00e+00	0	57	0	332398592	41	4218
2026-01-02 11:26:53.02	268.83	25.04	-35.1	-36.4	18.7	0.00e+00	0	57	0	334495744	41	4277
2026-01-02 11:26:54.03	269.13	25.04	-35.1	-36.4	18.7	0.00e+00	0	57	0	337641472	41	4264
2026-01-02 11:26:55.04	269.43	25.04	-35.1	-36.4	18.7	0.00e+00	0	57	0	340787200	41	4270
2026-01-02 11:26:56.05	269.73	25.04	-35.1	-36.3	18.8	0.00e+00	0	57	0	343932928	41	4231
2026-01-02 11:26:57.06	270.02	25.04	-34.9	-36.1	19.0	0.00e+00	0	57	0	348127232	41	4130
2026-01-02 11:26:58.07	270.32	25.04	-34.8	-36.0	19.1	0.00e+00	0	57	0	351272960	41	4081
2026-01-02 11:26:59.08	270.62	25.04	-34.8	-36.0	19.1	0.00e+00	0	57	0	354418688	41	4056
2026-01-02 11:27:00.09	270.91	25.04	-34.7	-35.9	19.1	0.00e+00	0	57	0	356515840	41	4041
2026-01-02 11:27:01.10	271.21	25.03	-34.7	-35.9	19.1	0.00e+00	0	57	0	359661568	41	4040
2026-01-02 11:27:02.11	271.51	25.03	-34.8	-36.1	19.0	0.00e+00	0	57	0	363855872	41	4106
2026-01-02 11:27:03.12	271.80	25.02	-34.8	-36.1	19.0	0.00e+00	0	57	0	367001600	41	4112
2026-01-02 11:27:04.13	272.10	25.01	-34.9	-36.1	19.0	0.00e+00	0	57	0	370147328	41	4123
2026-01-02 11:27:05.14	272.40	25.01	-34.8	-36.1	19.0	0.00e+00	0	57	0	373293056	41	4104
2026-01-02 11:27:06.15	272.69	25.00	-34.9	-36.1	19.0	0.00e+00	0	57	0	376438784	41	4116
2026-01-02 11:27:07.16	272.99	24.99	-34.9	-36.2	18.9	0.00e+00	0	57	0	379584512	41	4151
2026-01-02 11:27:08.17	273.28	24.98	-35.0	-36.2	18.9	0.00e+00	0	57	0	382730240	41	4176
2026-01-02 11:27:09.18	273.58	24.97	-34.9	-36.2	18.9	0.00e+00	0	57	0	385875968	41	4160
2026-01-02 11:27:10.19	273.88	24.96	-34.9	-36.2	19.0	0.00e+00	0	57	0	389021696	41	4147
2026-01-02 11:27:11.20	274.17	24.95	-34.9	-36.1	19.0	0.00e+00	0	57	0	392167424	41	4127
2026-01-02 11:27:12.21	274.47	24.93	-34.9	-36.2	18.9	0.00e+00	0	57	0	395313152	41	4146
2026-01-02 11:27:13.22	274.76	24.92	-34.9	-36.1	19.0	0.00e+00	0	57	0	398458880	41	4135
2026-01-02 11:27:14.24	275.06	24.91	-34.9	-36.1	18.9	0.00e+00	0	57	0	401604608	41	4139
2026-01-02 11:27:15.25	275.35	24.89	-34.9	-36.2	18.9	0.00e+00	0	57	0	404750336	41	4172
2026-01-02 11:27:16.26	275.65	24.87	-34.9	-36.2	19.0	0.00e+00	0	57	0	407896064	41	4150
2026-01-02 11:27:17.26	275.94	24.86	-34.9	-36.2	19.0	0.00e+00	0	57	0	411041792	41	4147
2026-01-02 11:27:18.28	276.23	24.84	-34.8	-36.1	19.0	0.00e+00	0	57	0	414187520	41	4109
2026-01-02 11:27:19.29	276.53	24.82	-34.8	-36.1	19.0	0.00e+00	0	57	0	417333248	41	4107
2026-01-02 11:27:20.29	276.82	24.80	-34.9	-36.1	19.0	0.00e+00	0	57	0	420478976	41	4134
2026-01-02 11:27:21.30	277.11	24.78	-34.9	-36.1	19.0	0.00e+00	0	57	0	423624704	41	4120
2026-01-02 11:27:22.31	277.40	24.76	-34.9	-36.1	19.0	0.00e+00	0	57	0	426770432	41	4141
2026-01-02 11:27:23.32	277.69	24.74	-34.9	-36.1	19.0	0.00e+00	0	57	0	429916160	41	4127
2026-01-02 11:27:24.33	277.98	24.72	-34.9	-36.1	19.1	0.00e+00	0	57	0	433061888	41	4118
2026-01-02 11:27:25.34	278.27	24.70	-34.8	-36.1	19.0	0.00e+00	0	57	0	436207616	41	4109
2026-01-02 11:27:26.35	278.56	24.67	-34.9	-36.1	19.0	0.00e+00	0	57	0	439353344	41	4122
2026-01-02 11:27:27.37	278.85	24.65	-34.9	-36.2	18.9	0.00e+00	0	57	0	442499072	41	4151
2026-01-02 11:27:28.37	279.14	24.62	-34.9	-36.2	18.9	0.00e+00	0	57	0	445644800	41	4161
2026-01-02 11:27:29.39	279.43	24.60	-34.9	-36.1	19.0	0.00e+00	0	57	0	448790528	41	4126
2026-01-02 11:27:30.40	279.72	24.57	-34.8	-36.0	19.1	0.00e+00	0	57	0	451936256	41	4064
2026-01-02 11:27:31.41	280.01	24.54	-34.7	-35.9	19.2	0.00e+00	0	57	0	455081984	41	4010
2026-01-02 11:27:32.42	280.30	24.52	-34.6	-35.8	19.3	0.00e+00	0	57	0	458227712	41	3997
2026-01-02 11:27:33.43	280.58	24.49	-34.6	-35.8	19.2	0.00e+00	0	57	0	461373440	41	3994
2026-01-02 11:27:34.44	280.87	24.46	-34.6	-35.8	19.2	0.00e+00	0	57	0	464519168	41	3984
2026-01-02 11:27:35.44	281.15	24.43	-34.6	-35.8	19.3	0.00e+00	0	57	0	467664896	41	3982
2026-01-02 11:27:36.45	281.44	24.40	-34.6	-35.8	19.3	0.00e+00	0	57	0	470810624	41	3985
2026-01-02 11:27:37.46	281.72	24.37	-34.7	-35.9	19.2	0.00e+00	0	57	0	473956352	41	4008
2026-01-02 11:27:38.47	282.01	24.33	-34.7	-35.9	19.1	0.00e+00	0	57	0	477102080	41	4045
2026-01-02 11:27:39.48	282.29	24.30	-34.8	-36.0	19.1	0.00e+00	0	57	0	480247808	41	4063
2026-01-02 11:27:40.49	282.57	24.27	-34.8	-36.0	19.0	0.00e+00	0	57	0	483393536	41	4097
2026-01-02 11:27:41.50	282.86	24.23	-34.9	-36.1	19.0	0.00e+00	0	57	0	486539264	41	4124
2026-01-02 11:27:42.51	283.14	24.20	-34.9	-36.2	18.9	0.00e+00	0	57	0	489684992	41	4148
2026-01-02 11:27:43.53	283.42	24.16	-34.9	-36.2	19.0	0.00e+00	0	57	0	492830720	41	4152
2026-01-02 11:27:44.53	283.70	24.13	-34.9	-36.1	19.0	0.00e+00	0	57	0	495976448	41	4138
2026-01-02 11:27:45.55	283.98	24.09	-34.8	-36.0	19.1	0.00e+00	0	57	0	499122176	41	4093
2026-01-02 11:27:46.56	284.26	24.05	-34.9	-36.1	19.0	0.00e+00	0	57	0	502267904	41	4121
2026-01-02 11:27:47.57	284.54	24.01	-34.9	-36.2	18.9	0.00e+00	0	57	0	505413632	41	4163
2026-01-02 11:27:48.58	284.82	23.98	-35.0	-36.2	18.9	0.00e+00	0	57	0	508559360	41	4189
2026-01-02 11:27:49.59	285.09	23.94	-35.0	-36.3	18.8	0.00e+00	0	57	0	511705088	41	4212
2026-01-02 11:27:50.60	285.37	23.90	-35.1	-36.3	18.8	0.00e+00	0	57	0	514850816	41	4240
2026-01-02 11:27:51.61	285.65	23.86	-35.1	-36.4	18.8	0.00e+00	0	57	0	517996544	41	4246
2026-01-02 11:27:52.62	285.92	23.81	-35.0	-36.3	18.8	0.00e+00	0	57	0	521142272	41	4219
2026-01-02 11:27:53.63	286.19	23.77	-34.9	-36.2	18.9	0.00e+00	0	57	0	524288000	41	4163
2026-01-02 11:27:54.64	286.47	23.73	-34.9	-36.2	18.9	0.00e+00	0	57	0	527433728	41	4156
2026-01-02 11:27:55.65	286.74	23.69	-35.0	-36.2	18.9	0.00e+00	0	57	0	530579456	41	4176
2026-01-02 11:27:56.66	287.01	23.64	-34.9	-36.2	18.9	0.00e+00	0	57	0	533725184	41	4161
2026-01-02 11:27:57.67	287.28	23.60	-35.0	-36.2	18.9	0.00e+00	0	57	0	536870912	41	4172
2026-01-02 11:27:58.68	287.56	23.55	-34.9	-36.1	19.0	0.00e+00	0	57	0	540016640	41	4132
2026-01-02 11:27:59.69	287.82	23.51	-34.9	-36.2	19.0	0.00e+00	0	57	0	543162368	41	4149
2026-01-02 11:28:00.70	288.09	23.46	-34.9	-36.2	18.9	0.00e+00	0	57	0	546308096	41	4164
2026-01-02 11:28:01.71	288.36	23.42	-35.1	-36.3	18.8	0.00e+00	0	57	0	549453824	41	4229
2026-01-02 11:28:02.72	288.63	23.37	-35.1	-36.3	18.8	0.00e+00	0	57	0	552599552	41	4237
2026-01-02 11:28:03.73	288.90	23.32	-35.1	-36.4	18.8	0.00e+00	0	57	0	555745280	41	4258
2026-01-02 11:28:04.74	289.16	23.27	-35.1	-36.4	18.8	0.00e+00	0	57	0	558891008	41	4271
2026-01-02 11:28:05.76	289.43	23.23	-35.0	-36.3	18.8	0.00e+00	0	57	0	562036736	41	4227
2026-01-02 11:28:06.76	289.69	23.18	-35.0	-36.3	18.8	0.00e+00	0	57	0	565182464	41	4219
2026-01-02 11:28:07.77	289.95	23.13	-35.0	-36.3	18.9	0.00e+00	0	57	0	568328192	41	4205
2026-01-02 11:28:08.79	290.22	23.08	-35.0	-36.3	18.8	0.00e+00	0	57	0	571473920	41	4197
2026-01-02 11:28:09.80	290.48	23.03	-35.0	-36.3	18.8	0.00e+00	0	57	0	574619648	41	4221
2026-01-02 11:28:10.81	290.74	22.97	-35.1	-36.4	18.8	0.00e+00	0	57	0	577765376	41	4254
2026-01-02 11:28:11.82	291.00	22.92	-35.1	-36.4	18.8	0.00e+00	0	57	0	580911104	41	4250
2026-01-02 11:28:12.82	291.26	22.87	-35.2	-36.4	18.7	0.00e+00	0	57	0	584056832	41	4288
2026-01-02 11:28:13.83	291.52	22.82	-35.1	-36.4	18.7	0.00e+00	0	57	0	587202560	41	4268
2026-01-02 11:28:14.84	291.77	22.77	-35.2	-36.5	18.6	0.00e+00	0	57	0	590348288	41	4325
2026-01-02 11:28:15.85	292.03	22.71	-35.3	-36.5	18.6	0.00e+00	0	57	0	593494016	41	4338
2026-01-02 11:28:16.86	292.29	22.66	-35.3	-36.6	18.6	0.00e+00	0	57	0	596639744	41	4349
2026-01-02 11:28:17.87	292.54	22.60	-35.2	-36.5	18.6	0.00e+00	0	57	0	599785472	41	4310
2026-01-02 11:28:18.88	292.80	22.55	-35.2	-36.5	18.6	0.00e+00	0	57	0	602931200	41	4328
2026-01-02 11:28:19.89	293.05	22.49	-35.3	-36.6	18.6	0.00e+00	0	57	0	606076928	41	4343
2026-01-02 11:28:20.90	293.30	22.44	-35.3	-36.6	18.6	0.00e+00	0	57	0	609222656	41	4343
2026-01-02 11:28:21.91	293.55	22.38	-35.3	-36.6	18.6	0.00e+00	0	57	0	612368384	41	4345
2026-01-02 11:28:22.92	293.80	22.32	-35.3	-36.6	18.5	0.00e+00	0	57	0	615514112	41	4368
2026-01-02 11:28:23.94	294.05	22.27	-35.4	-36.7	18.4	0.00e+00	0	57	0	618659840	41	4433
2026-01-02 11:28:24.94	294.30	22.21	-35.4	-36.7	18.4	0.00e+00	0	57	0	621805568	41	4435
2026-01-02 11:28:25.96	294.55	22.15	-35.4	-36.7	18.4	0.00e+00	0	57	0	624951296	41	4407
2026-01-02 11:28:26.97	294.80	22.09	-35.3	-36.6	18.5	0.00e+00	0	57	0	628097024	41	4347
2026-01-02 11:28:27.98	295.04	22.03	-35.3	-36.6	18.5	0.00e+00	0	57	0	631242752	41	4350
2026-01-02 11:28:28.98	295.28	21.98	-35.2	-36.5	18.6	0.00e+00	0	57	0	634388480	41	4337
2026-01-02 11:28:29.99	295.53	21.92	-35.3	-36.5	18.5	0.00e+00	0	57	0	637534208	41	4337
2026-01-02 11:28:31.00	295.77	21.86	-35.3	-36.6	18.5	0.00e+00	0	57	0	641728512	41	4359
2026-01-02 11:28:32.01	296.01	21.80	-35.3	-36.6	18.5	0.00e+00	0	57	0	644874240	41	4380
2026-01-02 11:28:33.02	296.26	21.74	-35.3	-36.6	18.5	0.00e+00	0	57	0	648019968	41	4386
2026-01-02 11:28:34.03	296.50	21.67	-35.3	-36.7	18.4	0.00e+00	0	57	0	650117120	41	4397
2026-01-02 11:28:35.04	296.73	21.61	-35.4	-36.7	18.4	0.00e+00	0	57	0	653262848	41	4417
2026-01-02 11:28:36.05	296.97	21.55	-35.4	-36.7	18.4	0.00e+00	0	57	0	656408576	41	4400
2026-01-02 11:28:37.06	297.21	21.49	-35.3	-36.6	18.4	0.00e+00	0	57	0	660602880	41	4387
2026-01-02 11:28:38.07	297.45	21.43	-35.3	-36.6	18.4	0.00e+00	0	57	0	663748608	41	4387
2026-01-02 11:28:39.08	297.68	21.36	-35.3	-36.6	18.4	0.00e+00	0	57	0	666894336	41	4388
2026-01-02 11:28:40.09	297.92	21.30	-35.3	-36.6	18.5	0.00e+00	0	57	0	670040064	41	4359
2026-01-02 11:28:41.10	298.15	21.24	-35.2	-36.6	18.5	0.00e+00	0	57	0	673185792	41	4347
2026-01-02 11:28:42.11	298.38	21.17	-35.2	-36.5	18.5	0.00e+00	0	57	0	676331520	41	4327
2026-01-02 11:28:43.12	298.62	21.11	-35.1	-36.4	18.6	0.00e+00	0	57	0	679477248	41	4283
2026-01-02 11:28:44.13	298.85	21.05	-35.2	-36.5	18.6	0.00e+00	0	57	0	682622976	41	4298
2026-01-02 11:28:45.14	299.08	20.98	-35.2	-36.5	18.6	0.00e+00	0	57	0	685768704	41	4331
2026-01-02 11:28:46.15	299.30	20.92	-35.3	-36.6	18.5	0.00e+00	0	57	0	688914432	41	4349
2026-01-02 11:28:47.16	299.53	20.85	-35.4	-36.7	18.4	0.00e+00	0	57	0	692060160	41	4406
2026-01-02 11:28:48.17	299.76	20.79	-35.4	-36.7	18.3	0.00e+00	0	57	0	695205888	41	4438
2026-01-02 11:28:49.18	299.99	20.72	-35.4	-36.7	18.4	0.00e+00	0	57	0	698351616	41	4432
2026-01-02 11:28:50.19	300.21	20.65	-35.4	-36.7	18.4	0.00e+00	0	57	0	701497344	41	4413
2026-01-02 11:28:51.20	300.44	20.59	-35.2	-36.5	18.5	0.00e+00	0	57	0	704643072	41	4328
2026-01-02 11:28:52.21	300.66	20.52	-35.2	-36.5	18.5	0.00e+00	0	57	0	707788800	41	4326
2026-01-02 11:28:53.22	300.88	20.45	-35.2	-36.5	18.6	0.00e+00	0	57	0	710934528	41	4311
2026-01-02 11:28:54.23	301.10	20.39	-35.2	-36.5	18.5	0.00e+00	0	57	0	714080256	41	4323
2026-01-02 11:28:55.24	301.32	20.32	-35.2	-36.5	18.5	0.00e+00	0	57	0	717225984	41	4336
2026-01-02 11:28:56.25	301.54	20.25	-35.3	-36.6	18.4	0.00e+00	0	57	0	720371712	41	4382
2026-01-02 11:28:57.26	301.76	20.19	-35.3	-36.6	18.4	0.00e+00	0	57	0	723517440	41	4379
2026-01-02 11:28:58.27	301.98	20.12	-35.4	-36.7	18.4	0.00e+00	0	57	0	726663168	41	4404
2026-01-02 11:28:59.28	302.19	20.05	-35.4	-36.7	18.3	0.00e+00	0	57	0	729808896	41	4425
2026-01-02 11:29:00.29	302.41	19.98	-35.5	-36.8	18.3	0.00e+00	0	57	0	732954624	41	4459
2026-01-02 11:29:01.30	302.63	19.91	-35.5	-36.9	18.2	0.00e+00	0	57	0	736100352	41	4515
2026-01-02 11:29:02.31	302.84	19.84	-35.7	-37.1	18.0	0.00e+00	0	57	0	739246080	41	4599
2026-01-02 11:29:03.33	303.05	19.77	-35.6	-37.0	18.0	0.00e+00	0	57	0	742391808	41	4573
2026-01-02 11:29:04.33	303.26	19.71	-35.6	-37.0	18.1	0.00e+00	0	57	0	745537536	41	4568
2026-01-02 11:29:05.34	303.47	19.64	-35.5	-36.8	18.2	0.00e+00	0	57	0	748683264	41	4491
2026-01-02 11:29:06.35	303.68	19.57	-35.4	-36.8	18.2	0.00e+00	0	57	0	751828992	41	4450
2026-01-02 11:29:07.37	303.90	19.50	-35.5	-36.8	18.2	0.00e+00	0	57	0	754974720	41	4460
2026-01-02 11:29:08.37	304.10	19.43	-35.5	-36.8	18.2	0.00e+00	0	57	0	758120448	41	4457
2026-01-02 11:29:09.39	304.31	19.36	-35.4	-36.7	18.2	0.00e+00	0	57	0	761266176	41	4429
2026-01-02 11:29:10.40	304.52	19.29	-35.4	-36.7	18.3	0.00e+00	0	57	0	764411904	41	4425
2026-01-02 11:29:11.41	304.72	19.22	-35.4	-36.7	18.3	0.00e+00	0	57	0	767557632	41	4415
2026-01-02 11:29:12.41	304.93	19.15	-35.3	-36.7	18.4	0.00e+00	0	57	0	770703360	41	4398
2026-01-02 11:29:13.43	305.13	19.08	-35.3	-36.7	18.3	0.00e+00	0	57	0	773849088	41	4403
2026-01-02 11:29:14.44	305.33	19.00	-35.4	-36.7	18.3	0.00e+00	0	57	0	776994816	41	4427
2026-01-02 11:29:15.45	305.54	18.93	-35.5	-36.8	18.2	0.00e+00	0	57	0	780140544	41	4462
2026-01-02 11:29:16.45	305.73	18.86	-35.5	-36.8	18.2	0.00e+00	0	57	0	783286272	41	4493
2026-01-02 11:29:17.46	305.93	18.79	-35.6	-36.9	18.1	0.00e+00	0	57	0	786432000	41	4532
2026-01-02 11:29:18.47	306.13	18.72	-35.5	-36.9	18.2	0.00e+00	0	57	0	789577728	41	4494
2026-01-02 11:29:19.48	306.33	18.65	-35.4	-36.8	18.2	0.00e+00	0	57	0	792723456	41	4452
2026-01-02 11:29:20.49	306.53	18.58	-35.4	-36.7	18.3	0.00e+00	0	57	0	795869184	41	4419
2026-01-02 11:29:21.50	306.72	18.51	-35.4	-36.7	18.3	0.00e+00	0	57	0	799014912	41	4408
2026-01-02 11:29:22.51	306.92	18.43	-35.4	-36.7	18.3	0.00e+00	0	57	0	802160640	41	4408
2026-01-02 11:29:23.53	307.12	18.36	-35.4	-36.7	18.2	0.00e+00	0	57	0	805306368	41	4439
2026-01-02 11:29:24.53	307.31	18.29	-35.4	-36.8	18.2	0.00e+00	0	57	0	808452096	41	4464
2026-01-02 11:29:25.55	307.50	18.22	-35.5	-36.8	18.2	0.00e+00	0	57	0	811597824	41	4462
2026-01-02 11:29:26.56	307.69	18.15	-35.4	-36.8	18.3	0.00e+00	0	57	0	814743552	41	4444
2026-01-02 11:29:27.57	307.88	18.07	-35.4	-36.7	18.3	0.00e+00	0	57	0	817889280	41	4421
2026-01-02 11:29:28.58	308.07	18.00	-35.4	-36.7	18.3	0.00e+00	0	57	0	821035008	41	4410
2026-01-02 11:29:29.59	308.26	17.93	-35.3	-36.6	18.4	0.00e+00	0	57	0	824180736	41	4381
2026-01-02 11:29:30.60	308.45	17.86	-35.4	-36.7	18.3	0.00e+00	0	57	0	827326464	41	4434
2026-01-02 11:29:31.61	308.64	17.78	-35.5	-36.8	18.2	0.00e+00	0	57	0	830472192	41	4463
2026-01-02 11:29:32.62	308.83	17.71	-35.5	-36.9	18.2	0.00e+00	0	57	0	833617920	41	4505
2026-01-02 11:29:33.63	309.01	17.64	-35.7	-37.1	18.0	0.00e+00	0	57	0	836763648	41	4600
2026-01-02 11:29:34.64	309.20	17.57	-35.6	-36.9	18.1	0.00e+00	0	57	0	839909376	41	4538
2026-01-02 11:29:35.65	309.38	17.49	-35.5	-36.9	18.1	0.00e+00	0	57	0	843055104	41	4522
2026-01-02 11:29:36.66	309.56	17.42	-35.6	-36.9	18.1	0.00e+00	0	57	0	846200832	41	4523
2026-01-02 11:29:37.67	309.74	17.35	-35.5	-36.8	18.1	0.00e+00	0	57	0	849346560	41	4492
2026-01-02 11:29:38.68	309.93	17.27	-35.6	-36.9	18.1	0.00e+00	0	57	0	852492288	41	4524
2026-01-02 11:29:39.69	310.11	17.20	-35.6	-37.0	18.0	0.00e+00	0	57	0	855638016	41	4554
2026-01-02 11:29:40.70	310.29	17.13	-35.6	-36.9	18.1	0.00e+00	0	57	0	858783744	41	4521
2026-01-02 11:29:41.71	310.46	17.05	-35.6	-37.0	18.0	0.00e+00	0	57	0	861929472	41	4570
2026-01-02 11:29:42.72	310.64	16.98	-35.7	-37.0	18.0	0.00e+00	0	57	0	865075200	41	4596
2026-01-02 11:29:43.73	310.82	16.91	-35.6	-37.0	18.0	0.00e+00	0	57	0	868220928	41	4551
2026-01-02 11:29:44.74	311.00	16.83	-35.6	-37.0	18.0	0.00e+00	0	57	0	871366656	41	4561
2026-01-02 11:29:45.75	311.17	16.76	-35.7	-37.0	18.0	0.00e+00	0	57	0	874512384	41	4586
2026-01-02 11:29:46.76	311.34	16.69	-35.7	-37.1	17.9	0.00e+00	0	57	0	877658112	42	4372
2026-01-02 11:29:47.77	311.52	16.61	-35.7	-37.0	18.0	0.00e+00	0	57	0	880803840	42	4333
2026-01-02 11:29:48.78	311.69	16.54	-35.6	-37.0	18.0	0.00e+00	0	57	0	883949568	42	4318
2026-01-02 11:29:49.79	311.86	16.47	-35.7	-37.0	18.0	0.00e+00	0	57	0	887095296	42	4326
2026-01-02 11:29:50.80	312.03	16.39	-35.7	-37.0	18.0	0.00e+00	0	57	0	890241024	42	4333
2026-01-02 11:29:51.82	312.21	16.32	-35.7	-37.1	17.9	0.00e+00	0	57	0	893386752	42	4371
2026-01-02 11:29:52.83	312.38	16.25	-35.8	-37.1	17.9	0.00e+00	0	57	0	896532480	42	4379
2026-01-02 11:29:53.84	312.54	16.17	-35.8	-37.2	17.9	0.00e+00	0	57	0	899678208	42	4395
2026-01-02 11:29:54.85	312.71	16.10	-35.7	-37.1	17.9	0.00e+00	0	57	0	902823936	42	4359
2026-01-02 11:29:55.86	312.88	16.03	-35.7	-37.1	17.9	0.00e+00	0	57	0	905969664	42	4365
2026-01-02 11:29:56.87	313.05	15.95	-35.8	-37.2	17.8	0.00e+00	0	57	0	909115392	42	4404
2026-01-02 11:29:57.88	313.21	15.88	-35.8	-37.2	17.8	0.00e+00	0	57	0	912261120	42	4428
2026-01-02 11:29:58.89	313.38	15.81	-35.8	-37.1	17.8	0.00e+00	0	57	0	915406848	42	4389
2026-01-02 11:29:59.90	313.54	15.73	-35.8	-37.2	17.8	0.00e+00	0	57	0	918552576	42	4401
2026-01-02 11:30:00.91	313.70	15.66	-35.9	-37.3	17.7	0.00e+00	0	57	0	921698304	42	4456
2026-01-02 11:30:01.92	313.87	15.58	-36.0	-37.4	17.5	0.00e+00	0	57	0	924844032	42	4530
2026-01-02 11:30:02.93	314.03	15.51	-36.2	-37.6	17.4	0.00e+00	0	57	0	927989760	42	4636
2026-01-02 11:30:03.94	314.19	15.44	-36.1	-37.5	17.4	0.00e+00	0	57	0	931135488	42	4587
2026-01-02 11:30:04.96	314.35	15.36	-36.1	-37.6	17.4	0.00e+00	0	57	0	935329792	42	4618
2026-01-02 11:30:05.97	314.51	15.29	-36.2	-37.7	17.3	0.00e+00	0	57	0	938475520	42	4659
2026-01-02 11:30:06.98	314.67	15.22	-36.2	-37.7	17.3	0.00e+00	0	57	0	940572672	42	4665
2026-01-02 11:30:07.98	314.82	15.14	-36.2	-37.6	17.4	0.00e+00	0	58	0	943718400	42	4638
2026-01-02 11:30:08.99	314.98	15.07	-36.7	-37.8	17.3	0.00e+00	0	57	0	946864128	43	4491
2026-01-02 11:30:10.01	315.14	15.00	-36.3	-37.8	17.2	0.00e+00	0	57	0	951058432	43	4479
2026-01-02 11:30:11.01	315.29	14.92	-36.4	-37.9	17.0	0.00e+00	0	57	0	954204160	43	4542
2026-01-02 11:30:12.02	315.45	14.85	-36.4	-37.9	17.1	0.00e+00	0	57	0	957349888	43	4509
2026-01-02 11:30:13.03	315.60	14.78	-36.4	-37.9	17.1	0.00e+00	0	57	0	960495616	43	4502
2026-01-02 11:30:14.04	315.76	14.70	-36.4	-38.0	17.0	0.00e+00	0	57	0	963641344	43	4552
2026-01-02 11:30:15.05	315.91	14.63	-36.5	-38.0	17.0	0.00e+00	0	57	0	966787072	43	4578
2026-01-02 11:30:16.06	316.06	14.56	-36.5	-38.0	16.9	0.00e+00	0	57	0	969932800	43	4591
2026-01-02 11:30:17.07	316.21	14.48	-36.5	-38.0	17.0	0.00e+00	0	57	0	973078528	43	4563
2026-01-02 11:30:18.08	316.36	14.41	-36.5	-38.0	16.9	0.00e+00	0	57	0	976224256	43	4577
2026-01-02 11:30:19.09	316.51	14.34	-36.6	-38.1	16.8	0.00e+00	0	57	0	979369984	43	4651
2026-01-02 11:30:20.10	316.66	14.27	-36.6	-38.2	16.8	0.00e+00	0	57	0	982515712	43	4654
2026-01-02 11:30:21.11	316.81	14.19	-36.5	-38.1	16.8	0.00e+00	0	57	0	985661440	43	4619
2026-01-02 11:30:22.12	316.96	14.12	-36.6	-38.1	16.8	0.00e+00	0	57	0	988807168	43	4636
2026-01-02 11:30:23.13	317.10	14.05	-36.6	-38.1	16.8	0.00e+00	0	57	0	991952896	43	4645
2026-01-02 11:30:24.14	317.25	13.97	-36.5	-38.0	16.9	0.00e+00	0	57	0	995098624	43	4593
2026-01-02 11:30:25.15	317.39	13.90	-36.4	-38.0	17.0	0.00e+00	0	57	0	998244352	43	4559
2026-01-02 11:30:26.16	317.54	13.83	-36.4	-38.0	17.0	0.00e+00	0	57	0	1001390080	43	4556
2026-01-02 11:30:27.17	317.68	13.76	-36.4	-37.9	17.0	0.00e+00	0	57	0	1004535808	43	4516
2026-01-02 11:30:28.18	317.83	13.68	-36.4	-37.9	17.0	0.00e+00	0	57	0	1007681536	43	4512
2026-01-02 11:30:29.19	317.97	13.61	-36.4	-37.9	17.1	0.00e+00	0	57	0	1010827264	43	4505
2026-01-02 11:30:30.20	318.11	13.54	-36.4	-38.0	17.0	0.00e+00	0	57	0	1013972992	43	4548
2026-01-02 11:30:31.21	318.25	13.47	-36.5	-38.1	16.8	0.00e+00	0	57	0	1017118720	43	4619
2026-01-02 11:30:32.22	318.39	13.39	-36.6	-38.2	16.7	0.00e+00	0	57	0	1020264448	43	4677
2026-01-02 11:30:33.23	318.53	13.32	-36.9	-38.5	16.6	0.00e+00	0	57	0	1023410176	44	4581
2026-01-02 11:30:34.24	318.67	13.25	-36.9	-38.5	16.6	0.00e+00	0	57	0	1026555904	44	4588
2026-01-02 11:30:35.25	318.81	13.18	-36.9	-38.5	16.6	0.00e+00	0	57	0	1029701632	44	4588
2026-01-02 11:30:36.26	318.95	13.11	-36.9	-38.5	16.6	0.00e+00	0	57	0	1032847360	44	4562
2026-01-02 11:30:37.27	319.09	13.03	-36.9	-38.5	16.6	0.00e+00	0	57	0	1035993088	44	4566
2026-01-02 11:30:38.28	319.22	12.96	-37.0	-38.6	16.5	0.00e+00	0	57	0	1039138816	44	4614
2026-01-02 11:30:39.29	319.36	12.89	-37.1	-38.7	16.4	0.00e+00	0	57	0	1042284544	44	4678
2026-01-02 11:30:40.30	319.50	12.82	-37.1	-38.7	16.4	0.00e+00	0	57	0	1045430272	44	4685
2026-01-02 11:30:41.31	319.63	12.75	-37.1	-38.7	16.4	0.00e+00	0	57	0	1048576000	44	4697
2026-01-02 11:30:42.32	319.77	12.67	-37.1	-38.8	16.3	0.00e+00	0	57	0	1051721728	44	4722
2026-01-02 11:30:43.34	319.90	12.60	-37.0	-38.7	16.4	0.00e+00	0	57	0	1054867456	44	4663
2026-01-02 11:30:44.35	320.03	12.53	-37.0	-38.6	16.4	0.00e+00	0	57	0	1058013184	44	4647
2026-01-02 11:30:45.36	320.17	12.46	-37.0	-38.6	16.5	0.00e+00	0	57	0	1061158912	44	4630
2026-01-02 11:30:46.36	320.30	12.39	-36.9	-38.5	16.5	0.00e+00	0	57	0	1064304640	44	4593
2026-01-02 11:30:47.37	320.43	12.32	-36.9	-38.5	16.5	0.00e+00	0	57	0	1067450368	44	4598
2026-01-02 11:30:48.38	320.56	12.25	-36.8	-38.4	16.7	0.00e+00	0	57	0	1070596096	44	4517
2026-01-02 11:30:49.39	320.69	12.17	-36.8	-38.4	16.6	0.00e+00	0	57	0	1073741824	44	4513
2026-01-02 11:30:50.40	320.82	12.10	-36.8	-38.4	16.7	0.00e+00	0	57	0	1076887552	44	4495
2026-01-02 11:30:51.41	320.95	12.03	-36.8	-38.3	16.7	0.00e+00	0	57	0	1080033280	44	4480
2026-01-02 11:30:52.42	321.07	11.96	-36.8	-38.4	16.6	0.00e+00	0	57	0	1083179008	44	4518
2026-01-02 11:30:53.43	321.20	11.89	-37.0	-38.6	16.4	0.00e+00	0	57	0	1086324736	44	4619
2026-01-02 11:30:54.44	321.33	11.82	-37.0	-38.7	16.3	0.00e+00	0	57	0	1089470464	44	4677
2026-01-02 11:30:55.45	321.46	11.75	-37.1	-38.8	16.3	0.00e+00	0	57	0	1092616192	44	4730
2026-01-02 11:30:56.46	321.58	11.68	-37.3	-39.0	16.1	0.00e+00	0	57	0	1095761920	45	4568
2026-01-02 11:30:57.47	321.71	11.61	-37.3	-39.0	16.0	0.00e+00	0	57	0	1098907648	45	4589
2026-01-02 11:30:58.48	321.83	11.54	-37.3	-39.1	16.0	0.00e+00	0	57	0	1102053376	45	4617
2026-01-02 11:30:59.49	321.95	11.47	-37.3	-39.0	16.1	0.00e+00	0	57	0	1105199104	45	4569
2026-01-02 11:31:00.51	322.08	11.40	-37.2	-38.8	16.2	0.00e+00	0	57	0	1108344832	45	4493
2026-01-02 11:31:01.52	322.20	11.33	-37.2	-38.9	16.2	0.00e+00	0	57	0	1111490560	45	4497
2026-01-02 11:31:02.52	322.32	11.26	-37.1	-38.8	16.2	0.00e+00	0	57	0	1114636288	45	4471
2026-01-02 11:31:03.53	322.45	11.19	-37.1	-38.8	16.3	0.00e+00	0	57	0	1117782016	45	4462
2026-01-02 11:31:04.55	322.57	11.12	-37.1	-38.8	16.2	0.00e+00	0	57	0	1120927744	45	4477
2026-01-02 11:31:05.55	322.69	11.05	-37.1	-38.7	16.3	0.00e+00	0	57	0	1124073472	45	4440
2026-01-02 11:31:06.57	322.81	10.98	-37.1	-38.8	16.2	0.00e+00	0	57	0	1127219200	45	4452
2026-01-02 11:31:07.58	322.93	10.91	-37.2	-38.8	16.2	0.00e+00	0	57	0	1130364928	45	4491
2026-01-02 11:31:08.59	323.05	10.84	-37.1	-38.7	16.3	0.00e+00	0	57	0	1133510656	45	4429
2026-01-02 11:31:09.60	323.17	10.77	-37.1	-38.7	16.3	0.00e+00	0	57	0	1136656384	45	4423
2026-01-02 11:31:10.61	323.28	10.70	-37.1	-38.8	16.2	0.00e+00	0	57	0	1139802112	45	4454
2026-01-02 11:31:11.62	323.40	10.63	-37.1	-38.8	16.2	0.00e+00	0	57	0	1142947840	45	4444
2026-01-02 11:31:12.63	323.52	10.56	-37.1	-38.8	16.2	0.00e+00	0	57	0	1146093568	45	4456
2026-01-02 11:31:13.64	323.63	10.49	-37.0	-38.7	16.3	0.00e+00	0	57	0	1149239296	45	4414
2026-01-02 11:31:14.65	323.75	10.42	-37.1	-38.7	16.2	0.00e+00	0	57	0	1152385024	45	4441
2026-01-02 11:31:15.66	323.87	10.35	-37.2	-38.9	16.1	0.00e+00	0	57	0	1155530752	45	4500
2026-01-02 11:31:16.67	323.98	10.29	-37.1	-38.7	16.2	0.00e+00	0	57	0	1158676480	45	4436
2026-01-02 11:31:17.67	324.09	10.22	-37.2	-38.9	16.1	0.00e+00	0	57	0	1161822208	45	4500
2026-01-02 11:31:18.68	324.21	10.15	-37.2	-38.9	16.0	0.00e+00	0	57	0	1164967936	45	4543
2026-01-02 11:31:19.70	324.32	10.08	-37.3	-39.0	15.9	0.00e+00	0	57	0	1168113664	45	4595
2026-01-02 11:31:20.71	324.43	10.01	-37.4	-39.1	15.8	0.00e+00	0	57	0	1171259392	45	4643
2026-01-02 11:31:21.72	324.55	9.94	-37.3	-39.0	15.9	0.00e+00	0	57	0	1174405120	45	4583
2026-01-02 11:31:22.73	324.66	9.88	-37.2	-38.9	16.0	0.00e+00	0	57	0	1177550848	45	4528
2026-01-02 11:31:23.74	324.77	9.81	-37.2	-38.9	16.1	0.00e+00	0	57	0	1180696576	45	4506
2026-01-02 11:31:24.75	324.88	9.74	-37.2	-38.8	16.1	0.00e+00	0	57	0	1183842304	45	4489
2026-01-02 11:31:25.76	324.99	9.67	-37.2	-38.8	16.1	0.00e+00	0	57	0	1186988032	45	4491
2026-01-02 11:31:26.77	325.10	9.60	-37.2	-38.8	16.1	0.00e+00	0	57	0	1190133760	45	4486
2026-01-02 11:31:27.78	325.21	9.54	-37.2	-38.9	16.0	0.00e+00	0	57	0	1193279488	45	4530
2026-01-02 11:31:28.79	325.32	9.47	-37.3	-39.0	15.9	0.00e+00	0	57	0	1196425216	45	4569
2026-01-02 11:31:29.80	325.43	9.40	-37.3	-39.1	15.9	0.00e+00	0	57	0	1199570944	45	4606
2026-01-02 11:31:30.81	325.53	9.33	-37.4	-39.1	15.8	0.00e+00	0	57	0	1202716672	45	4646
2026-01-02 11:31:31.82	325.64	9.27	-37.5	-39.3	15.6	0.00e+00	0	57	0	1205862400	45	4721
2026-01-02 11:31:32.83	325.75	9.20	-37.4	-39.2	15.7	0.00e+00	0	57	0	1209008128	45	4686
2026-01-02 11:31:33.84	325.85	9.13	-37.3	-39.1	15.8	0.00e+00	0	57	0	1212153856	45	4599
2026-01-02 11:31:34.85	325.96	9.06	-37.3	-39.0	15.9	0.00e+00	0	57	0	1215299584	45	4586
2026-01-02 11:31:35.86	326.07	9.00	-37.3	-39.0	15.9	0.00e+00	0	57	0	1218445312	45	4580
2026-01-02 11:31:36.87	326.17	8.93	-37.3	-39.0	15.9	0.00e+00	0	57	0	1221591040	45	4568
2026-01-02 11:31:37.88	326.28	8.86	-37.2	-39.0	15.9	0.00e+00	0	57	0	1224736768	45	4555
2026-01-02 11:31:38.89	326.38	8.80	-37.2	-39.0	15.9	0.00e+00	0	57	0	1227882496	45	4559
2026-01-02 11:31:39.90	326.48	8.73	-37.2	-39.0	15.9	0.00e+00	0	57	0	1231028224	45	4559
2026-01-02 11:31:40.90	326.59	8.67	-37.3	-39.1	15.8	0.00e+00	0	57	0	1234173952	45	4604
2026-01-02 11:31:41.92	326.69	8.60	-37.3	-39.0	15.9	0.00e+00	0	57	0	1237319680	45	4563
2026-01-02 11:31:42.93	326.79	8.53	-37.2	-38.9	15.9	0.00e+00	0	57	0	1240465408	45	4531
2026-01-02 11:31:43.94	326.89	8.47	-37.3	-39.0	15.8	0.00e+00	0	57	0	1243611136	45	4582
2026-01-02 11:31:44.95	326.99	8.40	-37.3	-39.0	15.8	0.00e+00	0	57	0	1246756864	45	4584
2026-01-02 11:31:45.96	327.10	8.33	-37.3	-39.0	15.8	0.00e+00	0	57	0	1250951168	45	4573
2026-01-02 11:31:46.97	327.20	8.27	-37.3	-39.0	15.8	0.00e+00	0	57	0	1254096896	45	4595
2026-01-02 11:31:47.98	327.30	8.20	-37.3	-39.1	15.7	0.00e+00	0	57	0	1256194048	45	4607
2026-01-02 11:31:48.99	327.40	8.14	-37.4	-39.2	15.6	0.00e+00	0	57	0	1259339776	45	4668
2026-01-02 11:31:50.00	327.50	8.07	-37.4	-39.2	15.6	0.00e+00	0	57	0	1262485504	45	4702
2026-01-02 11:31:51.00	327.59	8.01	-37.4	-39.2	15.6	0.00e+00	0	57	0	1266679808	45	4667
2026-01-02 11:31:52.02	327.69	7.94	-44.2	-56.3	3.8	8.97e-01	0	57	104	1268776960	58	15876
2026-01-02 11:31:53.03	327.79	7.88	-44.4	-56.4	3.8	1.49e+00	0	57	104	1268776960	59	15201
2026-01-02 11:31:54.04	327.89	7.81	-44.6	-56.7	3.8	1.49e+00	0	57	104	1268776960	59	15669
2026-01-02 11:31:55.05	327.99	7.75	-44.7	-56.8	3.8	1.49e+00	0	57	104	1268776960	59	15942
2026-01-02 11:31:56.06	328.08	7.68	-44.8	-57.1	3.8	1.49e+00	0	57	104	1268776960	60	15467
2026-01-02 11:31:57.07	328.18	7.62	-44.8	-57.1	3.8	1.49e+00	0	57	104	1268776960	60	15562
2026-01-02 11:31:58.08	328.27	7.55	-44.9	-57.2	3.8	1.49e+00	0	57	104	1268776960	60	15699
2026-01-02 11:31:59.09	328.37	7.49	-44.9	-57.2	3.8	1.49e+00	0	57	104	1268776960	60	15700
2026-01-02 11:32:00.10	328.46	7.42	-44.6	-57.1	3.8	1.49e+00	0	57	104	1268776960	60	15511
2026-01-02 11:32:01.11	328.56	7.36	-44.8	-57.1	3.8	1.49e+00	0	57	104	1268776960	60	15561
2026-01-02 11:32:02.12	328.65	7.29	-44.8	-57.1	3.8	1.49e+00	0	57	104	1268776960	60	15523
2026-01-02 11:32:03.13	328.75	7.23	-44.8	-57.1	3.8	1.49e+00	0	57	104	1268776960	60	15493
2026-01-02 11:32:04.15	328.84	7.16	-44.7	-57.1	3.8	1.49e+00	0	57	104	1268776960	60	15433
2026-01-02 11:32:05.16	328.94	7.10	-44.8	-57.1	3.8	1.49e+00	0	57	104	1268776960	60	15487
2026-01-02 11:32:06.17	329.03	7.04	-44.7	-57.1	3.8	1.49e+00	0	57	104	1268776960	60	15413
2026-01-02 11:32:07.18	329.12	6.97	-44.7	-57.1	3.8	1.49e+00	0	58	104	1268776960	60	15402
2026-01-02 11:32:08.19	329.21	6.91	-44.7	-57.0	3.8	1.49e+00	0	57	104	1268776960	60	15388
2026-01-02 11:32:09.20	329.30	6.84	-44.7	-57.0	3.8	1.49e+00	0	57	104	1268776960	60	15375
2026-01-02 11:32:10.20	329.39	6.78	-44.7	-57.1	3.8	1.49e+00	0	57	104	1268776960	60	15416
2026-01-02 11:32:11.21	329.49	6.72	-44.7	-57.0	3.8	1.49e+00	0	57	104	1268776960	60	15357
2026-01-02 11:32:12.22	329.58	6.65	-44.7	-57.1	3.8	1.49e+00	0	57	104	1268776960	60	15420
2026-01-02 11:32:13.23	329.67	6.59	-44.7	-57.0	3.8	1.49e+00	0	57	104	1268776960	60	15357
2026-01-02 11:32:14.24	329.76	6.53	-44.7	-57.0	3.8	1.49e+00	0	57	104	1268776960	60	15363
2026-01-02 11:32:15.26	329.85	6.46	-44.7	-57.0	3.8	1.49e+00	0	57	104	1268776960	60	15333
2026-01-02 11:32:16.27	329.94	6.40	-44.7	-57.0	3.8	1.49e+00	0	57	104	1268776960	60	15289
2026-01-02 11:32:17.28	330.02	6.34	-44.7	-57.0	3.8	1.49e+00	0	57	104	1268776960	60	15323
2026-01-02 11:32:18.29	330.11	6.28	-44.6	-57.0	3.8	1.49e+00	0	57	104	1268776960	60	15329
2026-01-02 11:32:19.30	330.20	6.21	-44.7	-57.0	3.8	1.49e+00	0	57	104	1268776960	60	15359
2026-01-02 11:32:20.31	330.29	6.15	-44.7	-57.0	3.8	1.49e+00	0	58	104	1268776960	60	15320
2026-01-02 11:32:21.32	330.37	6.09	-44.7	-57.0	3.8	1.49e+00	0	57	104	1268776960	60	15303
2026-01-02 11:32:22.33	330.46	6.03	-44.7	-57.0	3.8	1.49e+00	0	58	104	1268776960	60	15290
2026-01-02 11:32:23.34	330.55	5.96	-44.7	-57.0	3.8	1.49e+00	0	58	104	1268776960	60	15373
2026-01-02 11:32:24.35	330.63	5.90	-44.7	-57.0	3.8	1.49e+00	0	58	104	1268776960	60	15313
2026-01-02 11:32:25.37	330.72	5.84	-44.7	-57.0	3.8	1.49e+00	0	58	104	1268776960	60	15298
2026-01-02 11:32:26.38	330.81	5.78	-44.7	-57.0	3.8	1.49e+00	0	57	104	1268776960	60	15259
2026-01-02 11:32:27.39	330.89	5.72	-44.7	-57.0	3.8	1.49e+00	0	58	104	1268776960	60	15274
2026-01-02 11:32:28.40	330.98	5.65	-44.7	-57.0	3.8	1.49e+00	0	58	104	1268776960	60	15291
2026-01-02 11:32:29.41	331.06	5.59	-44.7	-57.0	3.8	1.49e+00	0	58	104	1268776960	60	15281
2026-01-02 11:32:30.42	331.14	5.53	-44.7	-57.0	3.8	1.49e+00	0	57	104	1268776960	60	15303
2026-01-02 11:32:31.43	331.23	5.47	-44.7	-57.0	3.8	1.49e+00	0	57	104	1268776960	60	15273
2026-01-02 11:32:32.44	331.31	5.41	-44.7	-57.0	3.8	1.49e+00	0	58	104	1268776960	60	15297
2026-01-02 11:32:33.45	331.40	5.35	-44.7	-57.0	3.8	1.49e+00	0	58	104	1268776960	60	15316
2026-01-02 11:32:34.46	331.48	5.29	-44.7	-57.0	3.8	1.49e+00	0	58	104	1268776960	60	15313
2026-01-02 11:32:35.48	331.56	5.22	-44.7	-57.0	3.8	1.49e+00	0	58	104	1268776960	60	15328
2026-01-02 11:32:36.49	331.64	5.16	-44.7	-57.0	3.8	1.49e+00	0	57	104	1268776960	60	15272
2026-01-02 11:32:37.50	331.73	5.10	-44.7	-57.0	3.8	1.49e+00	0	58	104	1268776960	60	15314
2026-01-02 11:32:38.51	331.81	5.04	-44.7	-57.0	3.8	1.49e+00	0	58	104	1268776960	60	15293
2026-01-02 11:32:39.52	331.89	4.98	-44.7	-57.0	3.8	1.49e+00	0	58	104	1268776960	60	15297
2026-01-02 11:32:40.53	331.97	4.92	-44.7	-57.0	3.8	1.49e+00	0	58	104	1268776960	60	15296
2026-01-02 11:32:41.54	332.05	4.86	-44.7	-57.0	3.8	1.49e+00	0	58	104	1268776960	60	15315
2026-01-02 11:32:42.55	332.13	4.80	-44.7	-57.0	3.8	1.49e+00	0	58	104	1268776960	60	15278
2026-01-02 11:32:43.56	332.21	4.74	-44.7	-57.0	3.8	1.49e+00	0	58	104	1268776960	60	15274
2026-01-02 11:32:44.58	332.29	4.68	-44.7	-57.0	3.8	1.49e+00	0	58	104	1268776960	60	15296
2026-01-02 11:32:45.59	332.37	4.62	-44.6	-57.0	3.8	1.49e+00	0	58	104	1268776960	60	15243
2026-01-02 11:32:46.60	332.45	4.56	-44.6	-57.0	3.8	1.49e+00	0	57	104	1268776960	60	15264
2026-01-02 11:32:47.61	332.53	4.50	-44.7	-57.0	3.8	1.49e+00	0	58	104	1268776960	60	15323
2026-01-02 11:32:48.62	332.61	4.44	-44.7	-57.0	3.8	1.49e+00	0	58	104	1268776960	60	15290
2026-01-02 11:32:49.63	332.68	4.38	-44.7	-57.0	3.8	1.49e+00	0	58	104	1268776960	60	15296
2026-01-02 11:32:50.64	332.76	4.32	-44.7	-57.0	3.8	1.49e+00	0	58	104	1268776960	60	15337
2026-01-02 11:32:51.65	332.84	4.26	-44.7	-57.0	3.8	1.49e+00	0	58	104	1268776960	60	15268
2026-01-02 11:32:52.67	332.92	4.20	-44.7	-57.0	3.8	1.49e+00	0	57	104	1268776960	60	15298
2026-01-02 11:32:53.68	332.99	4.14	-44.7	-57.0	3.8	1.49e+00	0	57	104	1268776960	60	15278
2026-01-02 11:32:54.69	333.07	4.08	-44.7	-57.0	3.8	1.49e+00	0	58	104	1268776960	60	15278
2026-01-02 11:32:55.70	333.15	4.02	-44.7	-57.0	3.8	1.49e+00	0	57	104	1268776960	60	15267
2026-01-02 11:32:56.71	333.22	3.96	-44.7	-57.0	3.8	1.49e+00	0	58	104	1268776960	60	15303
2026-01-02 11:32:57.72	333.30	3.90	-44.7	-57.0	3.8	1.49e+00	0	58	104	1268776960	60	15291
2026-01-02 11:32:58.73	333.37	3.84	-44.7	-57.0	3.8	1.49e+00	0	58	104	1268776960	60	15254
2026-01-02 11:32:59.74	333.45	3.78	-44.6	-57.0	3.8	1.49e+00	0	58	104	1268776960	60	15296
2026-01-02 11:33:00.75	333.52	3.73	-44.6	-57.0	3.8	1.49e+00	0	58	104	1268776960	60	15305
2026-01-02 11:33:01.76	333.60	3.67	-44.7	-57.0	3.8	1.49e+00	0	58	104	1268776960	60	15320
2026-01-02 11:33:02.77	333.67	3.61	-44.7	-57.0	3.8	1.49e+00	0	58	104	1268776960	60	15279
2026-01-02 11:33:03.79	333.75	3.55	-44.7	-57.0	3.8	1.49e+00	0	58	104	1268776960	60	15270
2026-01-02 11:33:04.80	333.82	3.49	-44.6	-57.0	3.8	1.49e+00	0	58	104	1268776960	60	15260
2026-01-02 11:33:05.81	333.89	3.43	-44.7	-57.0	3.8	1.49e+00	0	58	104	1268776960	60	15287
2026-01-02 11:33:06.82	333.97	3.37	-44.7	-57.0	3.8	1.49e+00	0	58	104	1268776960	60	15303
2026-01-02 11:33:07.83	334.04	3.32	-44.7	-57.0	3.8	1.49e+00	0	58	104	1268776960	60	15270
2026-01-02 11:33:08.84	334.11	3.26	-44.7	-57.0	3.8	1.49e+00	0	58	104	1268776960	60	15314
2026-01-02 11:33:09.85	334.19	3.20	-44.7	-57.0	3.8	1.49e+00	0	58	104	1268776960	60	15264
2026-01-02 11:33:10.86	334.26	3.14	-44.6	-57.0	3.8	1.49e+00	0	58	104	1268776960	60	15242
2026-01-02 11:33:11.87	334.33	3.08	-44.6	-57.0	3.8	1.49e+00	0	58	104	1268776960	60	15295
2026-01-02 11:33:12.89	334.40	3.03	-44.7	-57.0	3.8	1.49e+00	0	58	104	1268776960	60	15250
2026-01-02 11:33:13.90	334.47	2.97	-44.6	-57.0	3.8	1.49e+00	0	58	104	1268776960	60	15238
2026-01-02 11:33:14.91	334.55	2.91	-44.6	-57.0	3.8	1.49e+00	0	58	104	1268776960	60	15253
2026-01-02 11:33:15.92	334.62	2.85	-44.5	-57.0	3.8	1.49e+00	0	58	104	1268776960	60	15226
2026-01-02 11:33:16.93	334.69	2.80	-44.6	-57.0	3.8	1.49e+00	0	58	104	1268776960	60	15296
2026-01-02 11:33:17.94	334.76	2.74	-44.6	-57.0	3.8	1.49e+00	0	58	104	1268776960	60	15304
2026-01-02 11:33:18.95	334.83	2.68	-44.5	-57.0	3.8	1.49e+00	0	58	104	1268776960	60	15291
2026-01-02 11:33:19.96	334.90	2.62	-44.7	-57.0	3.8	1.49e+00	0	58	104	1268776960	60	15290
2026-01-02 11:33:20.97	334.97	2.57	-44.7	-57.0	3.8	1.49e+00	0	58	104	1268776960	60	15291
2026-01-02 11:33:21.98	335.04	2.51	-44.7	-57.0	3.8	1.49e+00	0	58	104	1268776960	60	15267
2026-01-02 11:33:23.00	335.11	2.45	-44.6	-57.0	3.8	1.49e+00	0	58	104	1268776960	60	15268
2026-01-02 11:33:24.01	335.17	2.40	-44.7	-57.0	3.8	1.49e+00	0	58	104	1268776960	60	15232
2026-01-02 11:33:25.02	335.24	2.34	-44.6	-57.0	3.8	1.49e+00	0	57	104	1268776960	60	15253
2026-01-02 11:33:26.03	335.31	2.28	-44.7	-57.0	3.8	1.49e+00	0	57	104	1268776960	60	15260
2026-01-02 11:33:27.04	335.38	2.23	-44.7	-57.0	3.8	1.49e+00	0	58	104	1268776960	60	15274
2026-01-02 11:33:28.05	335.45	2.17	-44.7	-57.0	3.8	1.49e+00	0	58	104	1268776960	60	15279
2026-01-02 11:33:29.06	335.52	2.11	-44.6	-57.0	3.8	1.49e+00	0	58	104	1268776960	60	15260
2026-01-02 11:33:30.07	335.58	2.06	-44.7	-57.0	3.8	1.49e+00	0	58	104	1268776960	60	15243
2026-01-02 11:33:31.08	335.65	2.00	-44.6	-57.0	3.8	1.49e+00	0	57	104	1268776960	60	15262
2026-01-02 11:33:32.09	335.72	1.94	-44.7	-57.0	3.8	1.49e+00	0	58	104	1268776960	60	15257

#Closed at: 2026-01-02 11:33:32
#Recorded file [1268 MB]: D:/lorett/data/31039_260102_142416.dat