passes_logs/2026/01/02/R2.0S_Moscow/R2.0S_Moscow__20260102_102926_NOAA_20_JPSS-1_rec.log

#Pass ID: 20260102_102926_NOAA 20 (JPSS-1)
#Satellite: NOAA 20 (JPSS-1)
#Configuration: NOAA 20
#almurnet v.1.7.20251203
#Start time: 2026-01-02 10:29:27

#Version: 2.2.20231116
#Station: R2.0S_Moscow
#Location: 37.707566 lon 55.798166 lat
#TLE: 1 43013U 17073A   26001.30344297  .00000183  00000+0  10758-3 0  9995
#TLE: 2 43013  98.7621 302.3885 0001938  59.1624 300.9742 14.19532032420790

#Time	Az	El	Level	Level2	SNR	BER	BlckErr	Temp	State	Recorded	gain1	gain2
2026-01-02 10:29:27.36	177.44	2.04	-44.0	-58.3	3.8	1.49e+00	0	48	0	0	59	18854
2026-01-02 10:29:28.36	177.47	2.10	-44.0	-58.3	3.8	1.49e+00	0	49	104	0	59	18857
2026-01-02 10:29:29.37	177.50	2.16	-44.0	-58.3	3.8	1.49e+00	0	49	104	0	59	18943
2026-01-02 10:29:30.38	177.52	2.23	-44.0	-58.3	3.8	1.49e+00	0	49	104	0	59	18874
2026-01-02 10:29:31.39	177.55	2.29	-44.0	-58.3	3.8	1.49e+00	0	49	104	0	59	18888
2026-01-02 10:29:32.40	177.58	2.36	-44.0	-58.3	3.8	1.49e+00	0	49	104	0	59	18869
2026-01-02 10:29:33.41	177.61	2.42	-44.0	-58.3	3.8	1.49e+00	0	49	104	0	59	18852
2026-01-02 10:29:34.43	177.64	2.49	-44.0	-58.3	3.8	1.49e+00	0	49	104	0	59	18872
2026-01-02 10:29:35.44	177.67	2.55	-44.0	-58.3	3.8	1.49e+00	0	49	104	0	59	18884
2026-01-02 10:29:36.45	177.70	2.61	-44.0	-58.3	3.8	1.49e+00	0	49	104	0	59	18849
2026-01-02 10:29:37.46	177.73	2.68	-44.0	-58.3	3.8	1.49e+00	0	49	104	0	59	18866
2026-01-02 10:29:38.47	177.76	2.75	-44.0	-58.3	3.8	1.49e+00	0	50	104	0	59	18839
2026-01-02 10:29:39.48	177.79	2.81	-44.0	-58.3	3.8	1.49e+00	0	50	104	0	59	18779
2026-01-02 10:29:40.49	177.82	2.88	-44.0	-58.3	3.8	1.49e+00	0	50	104	0	59	18812
2026-01-02 10:29:41.50	177.85	2.94	-44.0	-58.3	3.8	1.49e+00	0	50	104	0	59	18838
2026-01-02 10:29:42.51	177.88	3.01	-44.0	-58.3	3.8	1.49e+00	0	50	104	0	59	18864
2026-01-02 10:29:43.53	177.91	3.07	-44.0	-58.3	3.8	1.49e+00	0	50	104	0	59	18876
2026-01-02 10:29:44.54	177.94	3.14	-44.0	-58.3	3.8	1.49e+00	0	50	104	0	59	18804
2026-01-02 10:29:45.55	177.97	3.21	-44.0	-58.3	3.8	1.49e+00	0	50	104	0	59	18814
2026-01-02 10:29:46.56	178.00	3.27	-44.0	-58.3	3.8	1.49e+00	0	50	104	0	59	18811
2026-01-02 10:29:47.57	178.03	3.34	-44.0	-58.3	3.8	1.49e+00	0	50	104	0	59	18842
2026-01-02 10:29:48.58	178.07	3.41	-44.0	-58.3	3.8	1.49e+00	0	50	104	0	59	18825
2026-01-02 10:29:49.59	178.10	3.47	-44.0	-58.3	3.8	1.49e+00	0	50	104	0	59	18834
2026-01-02 10:29:50.60	178.13	3.54	-44.0	-58.3	3.8	1.49e+00	0	50	104	0	59	18854
2026-01-02 10:29:51.61	178.16	3.61	-44.0	-58.3	3.8	1.49e+00	0	50	104	0	59	18774
2026-01-02 10:29:52.62	178.19	3.67	-43.9	-58.3	3.8	1.49e+00	0	50	104	0	59	18808
2026-01-02 10:29:53.63	178.22	3.74	-44.0	-58.3	3.8	1.49e+00	0	51	104	0	59	18810
2026-01-02 10:29:54.65	178.25	3.81	-43.9	-58.3	3.8	1.49e+00	0	50	104	0	59	18809
2026-01-02 10:29:55.66	178.29	3.88	-44.0	-58.3	3.8	1.49e+00	0	51	104	0	59	18815
2026-01-02 10:29:56.67	178.32	3.95	-44.0	-58.3	3.8	1.49e+00	0	51	104	0	59	18792
2026-01-02 10:29:57.68	178.35	4.01	-44.0	-58.3	3.8	1.49e+00	0	51	104	0	59	18832
2026-01-02 10:29:58.69	178.38	4.08	-44.0	-58.3	3.8	1.49e+00	0	51	104	0	59	18827
2026-01-02 10:29:59.70	178.42	4.15	-44.0	-58.3	3.8	1.49e+00	0	51	104	0	59	18851
2026-01-02 10:30:00.71	178.45	4.22	-44.0	-58.3	3.8	1.49e+00	0	51	104	0	59	18856
2026-01-02 10:30:01.72	178.48	4.29	-44.0	-58.3	3.8	1.49e+00	0	51	104	0	59	18828
2026-01-02 10:30:02.74	178.51	4.36	-44.0	-58.3	3.8	1.49e+00	0	51	104	0	59	18811
2026-01-02 10:30:03.75	178.55	4.43	-44.0	-58.3	3.8	1.49e+00	0	51	104	0	59	18847
2026-01-02 10:30:04.76	178.58	4.50	-44.0	-58.3	3.8	1.49e+00	0	51	104	0	59	18863
2026-01-02 10:30:05.77	178.61	4.57	-44.0	-58.3	3.8	1.49e+00	0	51	104	0	59	18814
2026-01-02 10:30:06.78	178.65	4.64	-44.0	-58.3	3.8	1.49e+00	0	51	104	0	59	18826
2026-01-02 10:30:07.79	178.68	4.71	-44.0	-58.3	3.8	1.49e+00	0	51	104	0	59	18828
2026-01-02 10:30:08.80	178.72	4.78	-44.0	-58.3	3.8	1.49e+00	0	51	104	0	59	18768
2026-01-02 10:30:09.81	178.75	4.85	-44.0	-58.3	3.8	1.49e+00	0	51	104	0	59	18755
2026-01-02 10:30:10.82	178.78	4.92	-44.0	-58.3	3.8	1.49e+00	0	52	104	0	59	18773
2026-01-02 10:30:11.83	178.82	4.99	-44.0	-58.3	3.8	1.49e+00	0	51	104	0	59	18839
2026-01-02 10:30:12.85	178.85	5.06	-44.0	-58.3	3.8	1.49e+00	0	52	104	0	59	18739
2026-01-02 10:30:13.86	178.89	5.13	-43.9	-58.2	3.8	1.49e+00	0	51	104	0	59	18660
2026-01-02 10:30:14.87	178.92	5.20	-43.9	-58.2	3.8	1.49e+00	0	52	104	0	59	18545
2026-01-02 10:30:15.88	178.96	5.27	-43.9	-58.1	3.8	1.49e+00	0	52	104	0	59	18426
2026-01-02 10:30:16.89	178.99	5.34	-43.9	-58.1	3.8	1.49e+00	0	52	104	0	59	18311
2026-01-02 10:30:17.90	179.03	5.42	-43.9	-58.0	3.8	1.49e+00	0	52	104	0	59	18185
2026-01-02 10:30:18.91	179.06	5.49	-43.9	-58.0	3.8	1.49e+00	0	52	104	0	59	18154
2026-01-02 10:30:19.92	179.10	5.56	-43.9	-58.0	3.8	1.49e+00	0	52	104	0	59	18189
2026-01-02 10:30:20.93	179.13	5.63	-43.9	-58.0	3.8	1.49e+00	0	52	104	0	59	18191
2026-01-02 10:30:21.94	179.17	5.71	-43.9	-58.0	3.8	1.49e+00	0	52	104	0	59	18112
2026-01-02 10:30:22.95	179.21	5.78	-43.9	-57.9	3.8	1.49e+00	0	52	104	0	59	18017
2026-01-02 10:30:23.97	179.24	5.85	-43.9	-57.9	3.8	1.49e+00	0	52	104	0	59	18022
2026-01-02 10:30:24.98	179.28	5.92	-43.9	-58.0	3.8	1.49e+00	0	52	104	0	59	18099
2026-01-02 10:30:25.99	179.32	6.00	-43.9	-58.0	3.8	1.49e+00	0	52	104	0	59	18221
2026-01-02 10:30:27.00	179.35	6.07	-43.9	-58.0	3.8	1.49e+00	0	52	104	0	59	18288
2026-01-02 10:30:28.01	179.39	6.14	-43.9	-58.0	3.8	1.49e+00	0	52	104	0	59	18289
2026-01-02 10:30:29.02	179.43	6.22	-43.9	-58.1	3.8	1.49e+00	0	52	104	0	59	18434
2026-01-02 10:30:30.03	179.46	6.29	-44.0	-58.2	3.8	1.49e+00	0	52	104	0	59	18544
2026-01-02 10:30:31.04	179.50	6.37	-43.9	-58.1	3.8	1.49e+00	0	52	104	0	59	18477
2026-01-02 10:30:32.05	179.54	6.44	-43.9	-57.8	3.8	1.49e+00	0	52	104	0	59	17869
2026-01-02 10:30:33.07	179.58	6.52	-43.9	-57.3	3.8	1.49e+00	0	52	104	0	59	16798
2026-01-02 10:30:34.08	179.61	6.59	-43.8	-56.5	3.8	1.49e+00	0	53	104	0	59	15366
2026-01-02 10:30:35.09	179.65	6.67	-43.8	-55.3	4.0	1.49e+00	0	53	104	0	59	13407
2026-01-02 10:30:36.10	179.69	6.74	-43.6	-54.0	4.4	1.40e+00	36	52	0	0	59	11543
2026-01-02 10:30:37.11	179.73	6.82	-43.5	-52.6	5.0	8.26e-01	0	53	0	1048576	59	9830
2026-01-02 10:30:38.12	179.77	6.89	-43.3	-51.3	5.9	5.05e-01	0	53	0	3145728	58	8888
2026-01-02 10:30:39.13	179.81	6.97	-43.0	-50.0	7.0	2.59e-01	0	53	0	5242880	58	7679
2026-01-02 10:30:40.14	179.85	7.05	-42.7	-48.9	8.1	8.62e-02	0	53	0	7340032	57	7147
2026-01-02 10:30:41.15	179.89	7.12	-42.3	-47.7	9.3	3.11e-02	0	53	0	9437184	56	6640
2026-01-02 10:30:42.16	179.93	7.20	-42.0	-46.8	10.3	1.18e-02	0	53	0	10485760	56	5951
2026-01-02 10:30:43.17	179.96	7.28	-41.5	-45.7	11.2	2.23e-03	0	53	0	12582912	54	5909
2026-01-02 10:30:44.18	180.00	7.35	-41.1	-45.0	12.0	5.48e-04	0	53	0	14680064	54	5432
2026-01-02 10:30:45.19	180.04	7.43	-40.8	-44.3	12.7	1.85e-04	0	53	0	16777216	53	5324
2026-01-02 10:30:46.20	180.08	7.51	-40.5	-43.8	13.2	3.66e-05	0	53	0	18874368	53	5008
2026-01-02 10:30:47.21	180.13	7.59	-40.2	-43.3	13.7	1.29e-05	0	53	0	19922944	52	5006
2026-01-02 10:30:48.22	180.17	7.66	-40.0	-43.0	14.1	3.80e-06	0	53	0	22020096	52	4829
2026-01-02 10:30:49.23	180.21	7.74	-39.9	-42.8	14.4	7.00e-07	0	53	0	24117248	51	4994
2026-01-02 10:30:50.24	180.25	7.82	-39.9	-42.8	14.3	1.50e-06	0	53	0	26214400	51	4996
2026-01-02 10:30:51.25	180.29	7.90	-39.8	-42.6	14.5	0.00e+00	0	53	0	28311552	51	4921
2026-01-02 10:30:52.27	180.33	7.98	-39.9	-42.7	14.4	2.20e-06	0	53	0	30408704	51	4959
2026-01-02 10:30:53.28	180.37	8.06	-39.8	-42.5	14.5	1.50e-06	0	53	0	31457280	51	4860
2026-01-02 10:30:54.29	180.41	8.14	-42.0	-46.9	10.0	7.44e-03	0	53	0	33554432	55	6350
2026-01-02 10:30:55.29	180.46	8.22	-40.5	-43.8	13.1	1.22e-03	0	53	0	35651584	53	5030
2026-01-02 10:30:56.30	180.50	8.30	-42.9	-49.7	7.0	1.79e-01	0	53	0	37748736	56	8351
2026-01-02 10:30:57.31	180.54	8.38	-41.5	-45.7	10.9	9.82e-02	0	53	0	39845888	55	5553
2026-01-02 10:30:58.32	180.58	8.46	-40.4	-43.6	13.4	3.00e-06	0	53	0	40894464	52	5210
2026-01-02 10:30:59.33	180.63	8.54	-39.7	-42.5	14.7	0.00e+00	0	53	0	42991616	51	4821
2026-01-02 10:31:00.35	180.67	8.62	-39.5	-42.2	15.0	0.00e+00	0	53	0	45088768	51	4655
2026-01-02 10:31:01.36	180.71	8.70	-39.5	-42.1	15.2	0.00e+00	0	53	0	47185920	50	4888
2026-01-02 10:31:02.37	180.76	8.78	-39.5	-42.1	15.1	0.00e+00	0	54	0	49283072	50	4903
2026-01-02 10:31:03.38	180.80	8.86	-39.4	-42.0	15.2	0.00e+00	0	53	0	50331648	50	4826
2026-01-02 10:31:04.38	180.84	8.94	-39.5	-42.0	15.2	0.00e+00	0	54	0	52428800	50	4861
2026-01-02 10:31:05.39	180.89	9.02	-39.4	-41.9	15.3	0.00e+00	0	53	0	54525952	50	4812
2026-01-02 10:31:06.40	180.93	9.11	-39.4	-42.0	15.3	0.00e+00	0	53	0	56623104	50	4842
2026-01-02 10:31:07.41	180.98	9.19	-39.4	-42.0	15.2	0.00e+00	0	54	0	58720256	50	4835
2026-01-02 10:31:08.42	181.02	9.27	-39.4	-41.9	15.3	0.00e+00	0	53	0	59768832	50	4777
2026-01-02 10:31:09.43	181.07	9.36	-39.4	-41.9	15.3	0.00e+00	0	53	0	61865984	50	4791
2026-01-02 10:31:10.44	181.11	9.44	-39.4	-41.9	15.3	0.00e+00	0	54	0	63963136	50	4798
2026-01-02 10:31:11.45	181.16	9.52	-39.4	-41.9	15.3	0.00e+00	0	53	0	66060288	50	4805
2026-01-02 10:31:12.46	181.21	9.61	-39.4	-41.9	15.4	0.00e+00	0	53	0	68157440	50	4799
2026-01-02 10:31:13.46	181.25	9.69	-39.4	-41.9	15.5	0.00e+00	0	54	0	69206016	50	4761
2026-01-02 10:31:14.47	181.30	9.77	-39.4	-41.9	15.4	0.00e+00	0	54	0	71303168	50	4767
2026-01-02 10:31:15.48	181.35	9.86	-39.4	-41.8	15.5	0.00e+00	0	54	0	73400320	50	4742
2026-01-02 10:31:16.49	181.39	9.94	-39.3	-41.8	15.5	0.00e+00	0	54	0	75497472	50	4733
2026-01-02 10:31:17.50	181.44	10.03	-39.3	-41.7	15.6	0.00e+00	0	54	0	77594624	50	4696
2026-01-02 10:31:18.51	181.49	10.12	-39.3	-41.7	15.7	0.00e+00	0	54	0	78643200	50	4668
2026-01-02 10:31:19.52	181.53	10.20	-39.2	-41.6	15.7	0.00e+00	0	54	0	80740352	50	4640
2026-01-02 10:31:20.53	181.58	10.29	-39.2	-41.5	15.8	0.00e+00	0	54	0	82837504	50	4597
2026-01-02 10:31:21.54	181.63	10.37	-39.2	-41.5	15.8	0.00e+00	0	54	0	84934656	50	4588
2026-01-02 10:31:22.55	181.68	10.46	-39.2	-41.5	15.8	0.00e+00	0	54	0	87031808	50	4593
2026-01-02 10:31:23.56	181.73	10.55	-39.1	-41.4	15.9	0.00e+00	0	54	0	88080384	50	4532
2026-01-02 10:31:24.57	181.78	10.63	-39.1	-41.4	16.0	0.00e+00	0	54	0	90177536	50	4518
2026-01-02 10:31:25.58	181.83	10.72	-39.0	-41.4	16.0	0.00e+00	0	54	0	92274688	50	4494
2026-01-02 10:31:26.59	181.88	10.81	-39.1	-41.4	16.0	0.00e+00	0	54	0	94371840	50	4516
2026-01-02 10:31:27.60	181.93	10.90	-39.1	-41.4	16.0	0.00e+00	0	54	0	96468992	50	4522
2026-01-02 10:31:28.61	181.98	10.99	-39.1	-41.4	16.0	0.00e+00	0	54	0	97517568	50	4505
2026-01-02 10:31:29.62	182.03	11.08	-39.1	-41.4	16.0	0.00e+00	0	54	0	99614720	50	4526
2026-01-02 10:31:30.63	182.08	11.16	-39.1	-41.4	16.0	0.00e+00	0	54	0	101711872	50	4512
2026-01-02 10:31:31.64	182.13	11.25	-39.1	-41.3	16.1	0.00e+00	0	54	0	103809024	50	4488
2026-01-02 10:31:32.65	182.18	11.34	-39.1	-41.4	16.0	0.00e+00	0	54	0	105906176	50	4516
2026-01-02 10:31:33.66	182.23	11.43	-39.1	-41.4	16.0	0.00e+00	0	54	0	106954752	50	4502
2026-01-02 10:31:34.67	182.28	11.52	-39.1	-41.4	16.1	0.00e+00	0	54	0	109051904	50	4516
2026-01-02 10:31:35.68	182.34	11.61	-39.1	-41.4	16.0	0.00e+00	0	54	0	111149056	50	4530
2026-01-02 10:31:36.69	182.39	11.71	-39.1	-41.4	16.0	0.00e+00	0	54	0	113246208	50	4522
2026-01-02 10:31:37.70	182.44	11.80	-39.1	-41.4	16.0	0.00e+00	0	54	0	115343360	50	4541
2026-01-02 10:31:38.71	182.50	11.89	-39.1	-41.4	16.1	0.00e+00	0	54	0	116391936	50	4518
2026-01-02 10:31:39.72	182.55	11.98	-39.1	-41.4	16.1	0.00e+00	0	54	0	118489088	50	4509
2026-01-02 10:31:40.73	182.60	12.07	-39.2	-41.5	16.0	0.00e+00	0	54	0	120586240	50	4574
2026-01-02 10:31:41.74	182.66	12.17	-39.2	-41.5	16.0	0.00e+00	0	54	0	122683392	50	4557
2026-01-02 10:31:42.75	182.71	12.26	-39.1	-41.4	16.1	0.00e+00	0	54	0	124780544	50	4535
2026-01-02 10:31:43.76	182.77	12.35	-39.1	-41.4	16.1	0.00e+00	0	54	0	126877696	50	4502
2026-01-02 10:31:44.77	182.82	12.45	-39.1	-41.4	16.1	0.00e+00	0	54	0	127926272	50	4543
2026-01-02 10:31:45.78	182.88	12.54	-39.1	-41.4	16.2	0.00e+00	0	55	0	130023424	50	4496
2026-01-02 10:31:46.79	182.93	12.63	-39.1	-41.4	16.1	0.00e+00	0	54	0	132120576	50	4543
2026-01-02 10:31:47.80	182.99	12.73	-39.1	-41.4	16.1	0.00e+00	0	54	0	134217728	50	4498
2026-01-02 10:31:48.81	183.05	12.82	-39.1	-41.4	16.1	0.00e+00	0	54	0	136314880	50	4518
2026-01-02 10:31:49.82	183.10	12.92	-39.1	-41.4	16.1	0.00e+00	0	54	0	137363456	50	4510
2026-01-02 10:31:50.83	183.16	13.01	-39.1	-41.3	16.2	0.00e+00	0	55	0	139460608	50	4480
2026-01-02 10:31:51.84	183.22	13.11	-39.1	-41.3	16.2	0.00e+00	0	55	0	141557760	50	4476
2026-01-02 10:31:52.85	183.28	13.21	-39.1	-41.4	16.2	0.00e+00	0	55	0	143654912	50	4499
2026-01-02 10:31:53.85	183.33	13.30	-39.1	-41.3	16.2	0.00e+00	0	54	0	145752064	50	4487
2026-01-02 10:31:54.86	183.39	13.40	-39.1	-41.3	16.2	0.00e+00	0	55	0	146800640	50	4476
2026-01-02 10:31:55.87	183.45	13.50	-39.1	-41.3	16.2	0.00e+00	0	54	0	148897792	50	4482
2026-01-02 10:31:56.89	183.51	13.60	-39.0	-41.3	16.3	0.00e+00	0	55	0	150994944	50	4462
2026-01-02 10:31:57.90	183.57	13.69	-39.1	-41.4	16.2	0.00e+00	0	55	0	153092096	50	4503
2026-01-02 10:31:58.90	183.63	13.79	-39.0	-41.3	16.3	0.00e+00	0	54	0	155189248	50	4467
2026-01-02 10:31:59.92	183.69	13.89	-39.1	-41.3	16.2	0.00e+00	0	54	0	156237824	50	4480
2026-01-02 10:32:00.92	183.75	13.99	-39.1	-41.3	16.2	0.00e+00	0	55	0	158334976	50	4484
2026-01-02 10:32:01.93	183.81	14.09	-39.1	-41.3	16.2	0.00e+00	0	55	0	160432128	50	4493
2026-01-02 10:32:02.94	183.87	14.19	-39.0	-41.3	16.3	0.00e+00	0	54	0	162529280	50	4452
2026-01-02 10:32:03.95	183.94	14.29	-39.1	-41.3	16.3	0.00e+00	0	55	0	164626432	50	4464
2026-01-02 10:32:04.96	184.00	14.39	-39.0	-41.3	16.3	0.00e+00	0	55	0	166723584	50	4444
2026-01-02 10:32:05.97	184.06	14.49	-39.0	-41.2	16.4	0.00e+00	0	55	0	167772160	50	4427
2026-01-02 10:32:06.98	184.12	14.59	-39.0	-41.2	16.4	0.00e+00	0	55	0	169869312	50	4434
2026-01-02 10:32:07.99	184.19	14.70	-39.0	-41.2	16.4	0.00e+00	0	55	0	171966464	50	4420
2026-01-02 10:32:09.00	184.25	14.80	-39.0	-41.2	16.4	0.00e+00	0	55	0	174063616	49	4682
2026-01-02 10:32:10.01	184.32	14.90	-39.0	-41.2	16.4	0.00e+00	0	55	0	176160768	49	4700
2026-01-02 10:32:11.02	184.38	15.00	-38.9	-41.2	16.5	0.00e+00	0	55	0	177209344	49	4653
2026-01-02 10:32:12.03	184.45	15.11	-38.9	-41.1	16.5	0.00e+00	0	55	0	179306496	49	4642
2026-01-02 10:32:13.04	184.51	15.21	-39.0	-41.2	16.4	0.00e+00	0	55	0	181403648	49	4667
2026-01-02 10:32:14.05	184.58	15.32	-39.0	-41.2	16.4	0.00e+00	0	55	0	183500800	49	4679
2026-01-02 10:32:15.06	184.65	15.42	-39.1	-41.3	16.3	0.00e+00	0	55	0	185597952	49	4721
2026-01-02 10:32:16.07	184.71	15.53	-39.0	-41.1	16.5	0.00e+00	0	55	0	186646528	49	4651
2026-01-02 10:32:17.08	184.78	15.63	-39.0	-41.2	16.4	0.00e+00	0	55	0	188743680	49	4678
2026-01-02 10:32:18.09	184.85	15.74	-39.0	-41.2	16.4	0.00e+00	0	55	0	190840832	49	4681
2026-01-02 10:32:19.10	184.92	15.85	-39.0	-41.2	16.4	0.00e+00	0	55	0	192937984	49	4656
2026-01-02 10:32:20.11	184.99	15.95	-38.9	-41.1	16.6	0.00e+00	0	55	0	195035136	49	4612
2026-01-02 10:32:21.12	185.06	16.06	-38.8	-41.0	16.7	0.00e+00	0	55	0	196083712	49	4566
2026-01-02 10:32:22.13	185.13	16.17	-38.8	-41.0	16.7	0.00e+00	0	55	0	198180864	49	4555
2026-01-02 10:32:23.14	185.20	16.28	-38.8	-40.9	16.7	0.00e+00	0	55	0	200278016	49	4538
2026-01-02 10:32:24.15	185.27	16.38	-38.8	-40.9	16.7	0.00e+00	0	55	0	202375168	49	4516
2026-01-02 10:32:25.16	185.34	16.49	-38.7	-40.9	16.8	0.00e+00	0	55	0	204472320	49	4495
2026-01-02 10:32:26.17	185.41	16.60	-38.7	-40.8	16.8	0.00e+00	0	55	0	205520896	49	4484
2026-01-02 10:32:27.17	185.48	16.71	-38.8	-40.9	16.7	0.00e+00	0	55	0	207618048	49	4532
2026-01-02 10:32:28.18	185.55	16.82	-38.7	-40.8	16.8	0.00e+00	0	55	0	209715200	49	4485
2026-01-02 10:32:29.19	185.63	16.93	-38.7	-40.8	16.8	0.00e+00	0	55	0	211812352	49	4479
2026-01-02 10:32:30.20	185.70	17.05	-38.7	-40.8	16.8	0.00e+00	0	55	0	213909504	49	4484
2026-01-02 10:32:31.21	185.78	17.16	-38.7	-40.8	16.9	0.00e+00	0	55	0	214958080	49	4461
2026-01-02 10:32:32.22	185.85	17.27	-38.7	-40.9	16.8	0.00e+00	0	55	0	217055232	49	4494
2026-01-02 10:32:33.23	185.93	17.38	-38.7	-40.8	16.9	0.00e+00	0	55	0	219152384	49	4470
2026-01-02 10:32:34.24	186.00	17.50	-38.7	-40.8	16.8	0.00e+00	0	55	0	221249536	49	4474
2026-01-02 10:32:35.25	186.08	17.61	-38.8	-40.9	16.8	0.00e+00	0	55	0	223346688	49	4501
2026-01-02 10:32:36.26	186.16	17.72	-38.8	-40.9	16.8	0.00e+00	0	55	0	224395264	49	4498
2026-01-02 10:32:37.26	186.23	17.84	-38.8	-40.9	16.8	0.00e+00	0	55	0	226492416	49	4505
2026-01-02 10:32:38.28	186.31	17.96	-38.7	-40.8	16.9	0.00e+00	0	55	0	228589568	49	4479
2026-01-02 10:32:39.29	186.39	18.07	-38.7	-40.8	16.9	0.00e+00	0	55	0	230686720	49	4459
2026-01-02 10:32:40.30	186.47	18.19	-38.7	-40.8	16.9	0.00e+00	0	55	0	232783872	49	4444
2026-01-02 10:32:41.31	186.55	18.30	-38.6	-40.7	17.0	0.00e+00	0	56	0	233832448	49	4411
2026-01-02 10:32:42.32	186.63	18.42	-38.6	-40.6	17.0	0.00e+00	0	55	0	235929600	49	4390
2026-01-02 10:32:43.33	186.71	18.54	-38.6	-40.7	17.0	0.00e+00	0	55	0	238026752	49	4395
2026-01-02 10:32:44.34	186.79	18.66	-38.5	-40.6	17.1	0.00e+00	0	55	0	240123904	49	4343
2026-01-02 10:32:45.34	186.88	18.78	-38.5	-40.5	17.2	0.00e+00	0	55	0	242221056	49	4314
2026-01-02 10:32:46.35	186.96	18.90	-38.5	-40.5	17.2	0.00e+00	0	55	0	243269632	48	4561
2026-01-02 10:32:47.36	187.04	19.02	-38.4	-40.4	17.3	0.00e+00	0	55	0	245366784	48	4524
2026-01-02 10:32:48.37	187.13	19.14	-38.4	-40.3	17.3	0.00e+00	0	55	0	247463936	48	4491
2026-01-02 10:32:49.38	187.21	19.26	-38.4	-40.3	17.4	0.00e+00	0	55	0	249561088	48	4469
2026-01-02 10:32:50.39	187.30	19.38	-38.3	-40.3	17.5	0.00e+00	0	55	0	251658240	48	4447
2026-01-02 10:32:51.40	187.38	19.50	-38.3	-40.2	17.5	0.00e+00	0	55	0	252706816	48	4423
2026-01-02 10:32:52.41	187.47	19.62	-38.3	-40.2	17.5	0.00e+00	0	55	0	254803968	48	4398
2026-01-02 10:32:53.42	187.56	19.75	-38.1	-40.0	17.7	0.00e+00	0	55	0	256901120	48	4335
2026-01-02 10:32:54.43	187.65	19.87	-38.1	-40.0	17.7	0.00e+00	0	56	0	258998272	48	4308
2026-01-02 10:32:55.44	187.74	19.99	-38.0	-39.9	17.8	0.00e+00	0	55	0	261095424	48	4265
2026-01-02 10:32:56.45	187.83	20.12	-38.0	-39.8	17.9	0.00e+00	0	56	0	263192576	48	4232
2026-01-02 10:32:57.46	187.92	20.24	-37.9	-39.8	17.9	0.00e+00	0	55	0	264241152	47	4448
2026-01-02 10:32:58.46	188.01	20.37	-37.9	-39.7	17.9	0.00e+00	0	55	0	266338304	47	4407
2026-01-02 10:32:59.48	188.10	20.50	-37.7	-39.5	18.1	0.00e+00	0	55	0	268435456	47	4338
2026-01-02 10:33:00.48	188.19	20.62	-37.7	-39.5	18.1	0.00e+00	0	56	0	270532608	47	4319
2026-01-02 10:33:01.49	188.28	20.75	-37.8	-39.6	18.0	0.00e+00	0	56	0	272629760	47	4356
2026-01-02 10:33:02.50	188.38	20.88	-37.7	-39.5	18.0	0.00e+00	0	55	0	273678336	47	4324
2026-01-02 10:33:03.51	188.47	21.01	-37.7	-39.5	18.1	0.00e+00	0	56	0	275775488	47	4329
2026-01-02 10:33:04.52	188.57	21.14	-37.7	-39.5	18.1	0.00e+00	0	56	0	277872640	47	4334
2026-01-02 10:33:05.53	188.66	21.27	-37.8	-39.6	18.1	0.00e+00	0	55	0	279969792	47	4359
2026-01-02 10:33:06.54	188.76	21.40	-37.8	-39.6	18.1	0.00e+00	0	56	0	282066944	47	4350
2026-01-02 10:33:07.55	188.86	21.53	-37.8	-39.6	18.1	0.00e+00	0	55	0	283115520	47	4355
2026-01-02 10:33:08.56	188.96	21.66	-37.7	-39.5	18.1	0.00e+00	0	56	0	285212672	47	4333
2026-01-02 10:33:09.57	189.06	21.79	-37.8	-39.6	18.1	0.00e+00	0	56	0	287309824	47	4352
2026-01-02 10:33:10.58	189.16	21.93	-37.8	-39.6	18.1	0.00e+00	0	56	0	289406976	47	4378
2026-01-02 10:33:11.59	189.26	22.06	-37.8	-39.6	18.1	0.00e+00	0	56	0	291504128	47	4349
2026-01-02 10:33:12.60	189.36	22.19	-37.8	-39.6	18.1	0.00e+00	0	56	0	292552704	47	4374
2026-01-02 10:33:13.61	189.46	22.33	-37.7	-39.5	18.1	0.00e+00	0	56	0	294649856	47	4328
2026-01-02 10:33:14.62	189.57	22.46	-37.6	-39.4	18.2	0.00e+00	0	56	0	296747008	47	4279
2026-01-02 10:33:15.63	189.67	22.60	-37.6	-39.4	18.3	0.00e+00	0	55	0	298844160	47	4253
2026-01-02 10:33:16.64	189.78	22.74	-37.5	-39.3	18.4	0.00e+00	0	56	0	300941312	47	4209
2026-01-02 10:33:17.65	189.88	22.87	-37.5	-39.3	18.4	0.00e+00	0	56	0	301989888	47	4202
2026-01-02 10:33:18.66	189.99	23.01	-37.4	-39.2	18.5	0.00e+00	0	56	0	304087040	46	4402
2026-01-02 10:33:19.67	190.10	23.15	-37.4	-39.1	18.6	0.00e+00	0	55	0	306184192	46	4361
2026-01-02 10:33:20.67	190.21	23.29	-37.3	-39.0	18.7	0.00e+00	0	56	0	308281344	46	4308
2026-01-02 10:33:21.68	190.32	23.43	-37.3	-39.0	18.7	0.00e+00	0	56	0	310378496	46	4310
2026-01-02 10:33:22.69	190.43	23.57	-37.2	-38.9	18.7	0.00e+00	0	56	0	311427072	46	4271
2026-01-02 10:33:23.70	190.54	23.71	-37.2	-38.8	18.8	0.00e+00	0	56	0	313524224	46	4230
2026-01-02 10:33:24.71	190.65	23.85	-37.2	-38.8	18.8	0.00e+00	0	56	0	315621376	46	4227
2026-01-02 10:33:25.72	190.77	24.00	-37.2	-38.8	18.9	0.00e+00	0	56	0	317718528	46	4230
2026-01-02 10:33:26.73	190.88	24.14	-37.2	-38.8	18.9	0.00e+00	0	56	0	319815680	46	4223
2026-01-02 10:33:27.74	191.00	24.28	-37.1	-38.7	19.0	0.00e+00	0	56	0	320864256	46	4176
2026-01-02 10:33:28.75	191.11	24.43	-37.1	-38.8	18.9	0.00e+00	0	56	0	322961408	46	4194
2026-01-02 10:33:29.76	191.23	24.57	-37.1	-38.8	18.9	0.00e+00	0	56	0	325058560	46	4200
2026-01-02 10:33:30.77	191.35	24.72	-37.1	-38.7	19.0	0.00e+00	0	56	0	327155712	46	4174
2026-01-02 10:33:31.78	191.47	24.87	-37.2	-38.8	18.9	0.00e+00	0	56	0	329252864	46	4241
2026-01-02 10:33:32.79	191.59	25.01	-37.3	-38.9	18.8	0.00e+00	0	56	0	331350016	46	4279
2026-01-02 10:33:33.80	191.72	25.16	-37.3	-38.9	18.8	0.00e+00	0	56	0	332398592	46	4279
2026-01-02 10:33:34.81	191.84	25.31	-37.3	-39.0	18.7	0.00e+00	0	56	0	334495744	46	4323
2026-01-02 10:33:35.82	191.96	25.46	-37.4	-39.0	18.7	0.00e+00	0	56	0	336592896	46	4340
2026-01-02 10:33:36.83	192.09	25.61	-37.4	-39.1	18.6	0.00e+00	0	56	0	338690048	46	4367
2026-01-02 10:33:37.83	192.22	25.76	-37.5	-39.2	18.6	0.00e+00	0	56	0	340787200	46	4394
2026-01-02 10:33:38.84	192.34	25.91	-37.5	-39.2	18.6	0.00e+00	0	56	0	341835776	46	4427
2026-01-02 10:33:39.85	192.47	26.06	-37.6	-39.3	18.5	0.00e+00	0	56	0	343932928	46	4462
2026-01-02 10:33:40.86	192.60	26.22	-37.7	-39.4	18.3	0.00e+00	0	56	0	346030080	46	4528
2026-01-02 10:33:41.87	192.74	26.37	-37.7	-39.4	18.3	0.00e+00	0	56	0	348127232	46	4540
2026-01-02 10:33:42.88	192.87	26.52	-37.7	-39.5	18.3	0.00e+00	0	56	0	350224384	46	4573
2026-01-02 10:33:43.89	193.00	26.68	-37.8	-39.6	18.2	0.00e+00	0	56	0	351272960	46	4638
2026-01-02 10:33:44.90	193.14	26.84	-37.8	-39.6	18.1	0.00e+00	0	56	0	353370112	46	4640
2026-01-02 10:33:45.91	193.28	26.99	-37.9	-39.7	18.0	0.00e+00	0	56	0	355467264	46	4698
2026-01-02 10:33:46.92	193.41	27.15	-38.0	-39.8	18.0	0.00e+00	0	56	0	357564416	46	4729
2026-01-02 10:33:47.92	193.55	27.31	-38.1	-40.0	17.8	0.00e+00	0	56	0	359661568	46	4838
2026-01-02 10:33:48.93	193.69	27.46	-38.3	-40.2	17.6	0.00e+00	0	56	0	360710144	47	4663
2026-01-02 10:33:49.94	193.83	27.62	-38.4	-40.4	17.4	0.00e+00	0	56	0	362807296	47	4779
2026-01-02 10:33:50.95	193.98	27.78	-38.6	-40.7	17.1	0.00e+00	0	56	0	364904448	47	4927
2026-01-02 10:33:51.96	194.12	27.95	-38.9	-41.0	16.9	0.00e+00	0	56	0	367001600	48	4830
2026-01-02 10:33:52.97	194.27	28.11	-39.1	-41.2	16.7	0.00e+00	0	56	0	369098752	48	4954
2026-01-02 10:33:53.98	194.42	28.27	-39.2	-41.3	16.6	0.00e+00	0	56	0	370147328	48	5030
2026-01-02 10:33:54.99	194.57	28.43	-39.1	-41.3	16.6	0.00e+00	0	56	0	372244480	49	4723
2026-01-02 10:33:56.00	194.72	28.60	-39.3	-41.5	16.4	0.00e+00	0	56	0	374341632	49	4824
2026-01-02 10:33:57.00	194.87	28.76	-39.4	-41.6	16.3	0.00e+00	0	56	0	376438784	49	4906
2026-01-02 10:33:58.01	195.02	28.93	-39.4	-41.6	16.2	0.00e+00	0	56	0	378535936	49	4917
2026-01-02 10:33:59.02	195.18	29.09	-39.5	-41.8	16.1	0.00e+00	0	56	0	379584512	49	4996
2026-01-02 10:34:00.03	195.34	29.26	-39.6	-41.9	16.0	0.00e+00	0	56	0	381681664	49	5087
2026-01-02 10:34:01.04	195.49	29.43	-39.6	-42.0	15.9	0.00e+00	0	56	0	383778816	49	5106
2026-01-02 10:34:02.05	195.65	29.60	-39.7	-42.1	15.7	0.00e+00	0	56	0	385875968	50	4913
2026-01-02 10:34:03.06	195.82	29.77	-39.9	-42.3	15.6	0.00e+00	0	56	0	387973120	50	5010
2026-01-02 10:34:04.07	195.98	29.94	-40.0	-42.5	15.5	0.00e+00	0	56	0	389021696	50	5112
2026-01-02 10:34:05.08	196.14	30.11	-40.1	-42.7	15.2	0.00e+00	0	56	0	391118848	50	5245
2026-01-02 10:34:06.09	196.31	30.28	-40.1	-42.7	15.3	0.00e+00	0	56	0	393216000	50	5239
2026-01-02 10:34:07.10	196.48	30.45	-40.2	-42.8	15.1	0.00e+00	0	56	0	395313152	51	5020
2026-01-02 10:34:08.11	196.65	30.63	-40.3	-43.0	14.9	0.00e+00	0	56	0	397410304	51	5103
2026-01-02 10:34:09.12	196.82	30.80	-40.5	-43.2	14.7	0.00e+00	0	56	0	399507456	51	5245
2026-01-02 10:34:10.13	197.00	30.98	-40.5	-43.3	14.6	0.00e+00	0	56	0	400556032	51	5315
2026-01-02 10:34:11.14	197.17	31.15	-40.7	-43.5	14.3	7.00e-07	0	56	0	402653184	51	5460
2026-01-02 10:34:12.15	197.35	31.33	-40.6	-43.5	14.3	7.00e-07	0	56	0	404750336	52	5140
2026-01-02 10:34:13.16	197.53	31.50	-40.7	-43.6	14.2	1.50e-06	0	56	0	406847488	52	5181
2026-01-02 10:34:14.17	197.71	31.68	-40.6	-43.5	14.3	0.00e+00	0	56	0	408944640	52	5103
2026-01-02 10:34:15.17	197.89	31.86	-40.4	-43.2	14.6	0.00e+00	0	56	0	409993216	52	4949
2026-01-02 10:34:16.19	198.08	32.04	-40.3	-42.9	14.9	0.00e+00	0	56	0	412090368	52	4812
2026-01-02 10:34:17.20	198.27	32.22	-40.3	-43.0	14.8	0.00e+00	0	56	0	414187520	52	4847
2026-01-02 10:34:18.21	198.46	32.40	-40.3	-43.0	14.8	7.00e-07	0	56	0	416284672	52	4850
2026-01-02 10:34:19.21	198.65	32.58	-40.3	-43.0	14.9	0.00e+00	0	56	0	418381824	52	4826
2026-01-02 10:34:20.22	198.84	32.76	-40.3	-43.0	14.9	7.00e-07	0	56	0	419430400	52	4821
2026-01-02 10:34:21.23	199.04	32.95	-40.3	-43.0	14.8	0.00e+00	0	56	0	421527552	52	4863
2026-01-02 10:34:22.24	199.24	33.13	-40.3	-43.0	14.9	0.00e+00	0	56	0	423624704	52	4832
2026-01-02 10:34:23.25	199.44	33.32	-40.3	-42.9	14.9	0.00e+00	0	56	0	425721856	52	4808
2026-01-02 10:34:24.26	199.64	33.50	-40.2	-42.9	15.0	0.00e+00	0	56	0	427819008	52	4775
2026-01-02 10:34:25.27	199.85	33.69	-40.2	-42.9	15.0	0.00e+00	0	56	0	428867584	52	4764
2026-01-02 10:34:26.29	200.06	33.88	-40.2	-42.8	15.0	0.00e+00	0	56	0	430964736	52	4753
2026-01-02 10:34:27.29	200.26	34.06	-40.1	-42.7	15.2	0.00e+00	0	56	0	433061888	52	4668
2026-01-02 10:34:28.30	200.47	34.25	-40.0	-42.4	15.5	0.00e+00	0	56	0	435159040	51	4793
2026-01-02 10:34:29.31	200.69	34.44	-39.8	-42.2	15.8	0.00e+00	0	56	0	437256192	51	4699
2026-01-02 10:34:30.33	200.91	34.63	-39.8	-42.2	15.8	0.00e+00	0	56	0	438304768	51	4667
2026-01-02 10:34:31.33	201.13	34.82	-39.9	-42.3	15.6	0.00e+00	0	56	0	440401920	51	4753
2026-01-02 10:34:32.35	201.35	35.02	-39.9	-42.3	15.7	0.00e+00	0	56	0	442499072	51	4716
2026-01-02 10:34:33.35	201.57	35.21	-39.8	-42.1	15.8	0.00e+00	0	56	0	444596224	51	4641
2026-01-02 10:34:34.36	201.80	35.40	-39.8	-42.1	15.8	0.00e+00	0	56	0	446693376	51	4650
2026-01-02 10:34:35.37	202.03	35.59	-39.7	-42.0	16.0	0.00e+00	0	56	0	447741952	51	4588
2026-01-02 10:34:36.38	202.26	35.79	-39.6	-41.9	16.0	0.00e+00	0	56	0	449839104	51	4524
2026-01-02 10:34:37.39	202.50	35.98	-39.5	-41.7	16.3	0.00e+00	0	56	0	451936256	50	4672
2026-01-02 10:34:38.40	202.73	36.18	-39.4	-41.7	16.3	0.00e+00	0	56	0	454033408	50	4666
2026-01-02 10:34:39.41	202.98	36.37	-39.3	-41.4	16.6	0.00e+00	0	56	0	456130560	50	4516
2026-01-02 10:34:40.42	203.22	36.57	-39.1	-41.2	16.7	0.00e+00	0	56	0	457179136	50	4422
2026-01-02 10:34:41.43	203.47	36.77	-39.0	-41.0	17.0	0.00e+00	0	56	0	459276288	49	4570
2026-01-02 10:34:42.44	203.72	36.96	-38.9	-40.9	17.1	0.00e+00	0	56	0	461373440	49	4528
2026-01-02 10:34:43.45	203.97	37.16	-38.9	-40.9	17.1	0.00e+00	0	56	0	463470592	49	4525
2026-01-02 10:34:44.46	204.22	37.36	-38.8	-40.8	17.2	0.00e+00	0	56	0	465567744	49	4487
2026-01-02 10:34:45.47	204.48	37.56	-38.7	-40.7	17.3	0.00e+00	0	56	0	467664896	49	4428
2026-01-02 10:34:46.48	204.74	37.76	-38.7	-40.6	17.3	0.00e+00	0	56	0	468713472	49	4383
2026-01-02 10:34:47.49	205.01	37.96	-38.7	-40.7	17.3	0.00e+00	0	56	0	470810624	49	4418
2026-01-02 10:34:48.50	205.28	38.16	-38.6	-40.6	17.4	0.00e+00	0	56	0	472907776	49	4367
2026-01-02 10:34:49.51	205.55	38.36	-38.6	-40.6	17.4	0.00e+00	0	56	0	475004928	49	4350
2026-01-02 10:34:50.52	205.82	38.57	-38.6	-40.5	17.5	0.00e+00	0	56	0	477102080	49	4337
2026-01-02 10:34:51.53	206.10	38.77	-38.6	-40.6	17.4	0.00e+00	0	56	0	478150656	49	4356
2026-01-02 10:34:52.54	206.38	38.97	-38.6	-40.6	17.4	0.00e+00	0	56	0	480247808	49	4355
2026-01-02 10:34:53.55	206.67	39.18	-38.6	-40.5	17.5	0.00e+00	0	56	0	482344960	49	4327
2026-01-02 10:34:54.56	206.96	39.38	-38.4	-40.3	17.7	0.00e+00	0	56	0	484442112	48	4468
2026-01-02 10:34:55.57	207.25	39.58	-38.3	-40.2	17.8	0.00e+00	0	56	0	486539264	48	4414
2026-01-02 10:34:56.58	207.54	39.79	-38.3	-40.2	17.8	0.00e+00	0	56	0	487587840	48	4392
2026-01-02 10:34:57.59	207.84	39.99	-38.4	-40.3	17.8	0.00e+00	0	56	0	489684992	48	4447
2026-01-02 10:34:58.60	208.15	40.20	-38.4	-40.3	17.7	0.00e+00	0	56	0	491782144	48	4451
2026-01-02 10:34:59.61	208.45	40.41	-38.3	-40.2	17.7	0.00e+00	0	56	0	493879296	48	4427
2026-01-02 10:35:00.62	208.77	40.61	-38.4	-40.3	17.7	0.00e+00	0	56	0	495976448	48	4471
2026-01-02 10:35:01.63	209.08	40.82	-38.5	-40.4	17.6	0.00e+00	0	56	0	497025024	48	4500
2026-01-02 10:35:02.64	209.40	41.02	-38.6	-40.5	17.5	0.00e+00	0	56	0	499122176	48	4568
2026-01-02 10:35:03.64	209.72	41.23	-38.6	-40.5	17.5	0.00e+00	0	56	0	501219328	48	4586
2026-01-02 10:35:04.65	210.05	41.44	-38.7	-40.6	17.4	0.00e+00	0	56	0	503316480	48	4630
2026-01-02 10:35:05.66	210.38	41.64	-38.8	-40.8	17.2	0.00e+00	0	56	0	505413632	48	4727
2026-01-02 10:35:06.67	210.71	41.85	-39.0	-41.0	16.9	0.00e+00	0	56	0	506462208	48	4862
2026-01-02 10:35:07.68	211.05	42.06	-39.0	-41.1	16.9	0.00e+00	0	56	0	508559360	48	4913
2026-01-02 10:35:08.69	211.40	42.26	-39.2	-41.4	16.6	0.00e+00	0	56	0	510656512	48	5046
2026-01-02 10:35:09.70	211.74	42.47	-39.3	-41.5	16.5	0.00e+00	0	56	0	512753664	49	4818
2026-01-02 10:35:10.71	212.10	42.68	-39.3	-41.5	16.5	0.00e+00	0	57	0	514850816	49	4841
2026-01-02 10:35:11.72	212.45	42.89	-39.1	-41.3	16.7	0.00e+00	0	57	0	515899392	49	4709
2026-01-02 10:35:12.73	212.82	43.09	-39.0	-41.1	16.9	0.00e+00	0	56	0	517996544	49	4633
2026-01-02 10:35:13.74	213.18	43.30	-39.0	-41.0	16.9	0.00e+00	0	57	0	520093696	49	4592
2026-01-02 10:35:14.75	213.55	43.51	-39.1	-41.3	16.7	0.00e+00	0	56	0	522190848	49	4707
2026-01-02 10:35:15.76	213.93	43.71	-39.4	-41.7	16.3	0.00e+00	0	57	0	524288000	49	4941
2026-01-02 10:35:16.77	214.31	43.92	-39.9	-42.3	15.7	0.00e+00	0	56	0	525336576	50	5001
2026-01-02 10:35:17.78	214.70	44.13	-40.1	-42.7	15.3	0.00e+00	0	56	0	527433728	50	5233
2026-01-02 10:35:18.79	215.09	44.33	-40.2	-42.7	15.3	0.00e+00	0	56	0	529530880	51	4956
2026-01-02 10:35:19.80	215.48	44.54	-39.9	-42.3	15.7	0.00e+00	0	56	0	531628032	51	4715
2026-01-02 10:35:20.81	215.88	44.74	-39.7	-42.0	15.9	0.00e+00	0	57	0	533725184	51	4588
2026-01-02 10:35:21.82	216.29	44.95	-39.6	-41.9	16.1	0.00e+00	0	57	0	535822336	51	4540
2026-01-02 10:35:22.83	216.70	45.15	-39.7	-42.0	16.0	0.00e+00	0	57	0	536870912	51	4569
2026-01-02 10:35:23.84	217.12	45.35	-39.8	-42.1	15.9	0.00e+00	0	57	0	538968064	51	4623
2026-01-02 10:35:24.85	217.54	45.56	-40.2	-42.8	15.3	0.00e+00	0	57	0	541065216	51	4993
2026-01-02 10:35:25.86	217.96	45.76	-40.6	-43.4	14.6	0.00e+00	0	57	0	543162368	51	5387
2026-01-02 10:35:26.87	218.40	45.96	-40.8	-43.8	14.1	0.00e+00	0	56	0	545259520	52	5311
2026-01-02 10:35:27.88	218.83	46.16	-40.9	-43.9	14.0	2.20e-06	0	56	0	546308096	52	5361
2026-01-02 10:35:28.89	219.28	46.36	-40.9	-43.8	14.1	2.20e-06	0	56	0	548405248	52	5339
2026-01-02 10:35:29.90	219.73	46.56	-40.7	-43.6	14.3	0.00e+00	0	56	0	550502400	52	5177
2026-01-02 10:35:30.91	220.18	46.76	-40.6	-43.5	14.4	7.00e-07	0	56	0	552599552	52	5138
2026-01-02 10:35:31.91	220.64	46.95	-40.7	-43.6	14.2	3.00e-06	0	56	0	554696704	52	5215
2026-01-02 10:35:32.92	221.10	47.15	-40.9	-43.9	14.0	1.50e-06	0	56	0	555745280	52	5361
2026-01-02 10:35:33.93	221.57	47.34	-40.8	-43.7	14.2	7.00e-07	0	56	0	557842432	52	5238
2026-01-02 10:35:34.94	222.05	47.53	-40.7	-43.5	14.4	1.50e-06	0	56	0	559939584	52	5138
2026-01-02 10:35:35.95	222.53	47.73	-40.4	-43.0	14.9	0.00e+00	0	56	0	562036736	52	4862
2026-01-02 10:35:36.96	223.02	47.92	-40.3	-43.0	14.9	0.00e+00	0	57	0	564133888	52	4834
2026-01-02 10:35:37.97	223.52	48.11	-40.2	-42.8	15.1	0.00e+00	0	56	0	565182464	52	4747
2026-01-02 10:35:38.98	224.02	48.29	-40.2	-42.8	15.1	0.00e+00	0	56	0	567279616	52	4757
2026-01-02 10:35:39.99	224.53	48.48	-40.4	-43.1	14.9	0.00e+00	0	56	0	569376768	52	4891
2026-01-02 10:35:41.00	225.04	48.66	-40.5	-43.3	14.6	1.50e-06	0	56	0	571473920	52	4985
2026-01-02 10:35:42.01	225.56	48.85	-40.5	-43.2	14.6	7.00e-07	0	56	0	573571072	52	4983
2026-01-02 10:35:43.02	226.09	49.03	-40.2	-42.8	15.1	0.00e+00	0	57	0	574619648	52	4721
2026-01-02 10:35:44.04	226.62	49.21	-40.1	-42.5	15.4	0.00e+00	0	56	0	576716800	51	4864
2026-01-02 10:35:45.04	227.16	49.39	-39.9	-42.3	15.7	0.00e+00	0	56	0	578813952	51	4727
2026-01-02 10:35:46.05	227.70	49.56	-39.7	-42.0	16.0	0.00e+00	0	57	0	580911104	51	4554
2026-01-02 10:35:47.06	228.25	49.73	-39.6	-41.9	16.0	0.00e+00	0	57	0	583008256	51	4540
2026-01-02 10:35:48.07	228.81	49.91	-39.8	-42.2	15.9	0.00e+00	0	56	0	584056832	51	4657
2026-01-02 10:35:49.08	229.37	50.08	-40.1	-42.7	15.3	0.00e+00	0	56	0	586153984	51	4956
2026-01-02 10:35:50.09	229.94	50.24	-40.1	-42.7	15.3	0.00e+00	0	57	0	588251136	51	4938
2026-01-02 10:35:51.10	230.51	50.41	-39.8	-42.1	15.8	0.00e+00	0	56	0	590348288	51	4629
2026-01-02 10:35:52.11	231.09	50.57	-39.4	-41.5	16.5	0.00e+00	0	56	0	592445440	50	4598
2026-01-02 10:35:53.12	231.68	50.73	-39.1	-41.2	16.8	0.00e+00	0	56	0	593494016	50	4428
2026-01-02 10:35:54.13	232.27	50.89	-38.6	-40.5	17.4	0.00e+00	0	57	0	595591168	49	4321
2026-01-02 10:35:55.15	232.88	51.04	-38.7	-40.6	17.3	0.00e+00	0	57	0	597688320	49	4388
2026-01-02 10:35:56.15	233.48	51.19	-38.8	-40.8	17.2	0.00e+00	0	57	0	599785472	49	4465
2026-01-02 10:35:57.16	234.09	51.34	-38.7	-40.7	17.3	0.00e+00	0	57	0	601882624	49	4426
2026-01-02 10:35:58.17	234.71	51.48	-38.3	-40.1	17.9	0.00e+00	0	57	0	603979776	48	4378
2026-01-02 10:35:59.18	235.33	51.63	-37.8	-39.5	18.4	0.00e+00	0	57	0	605028352	47	4315
2026-01-02 10:36:00.19	235.96	51.77	-37.8	-39.5	18.3	0.00e+00	0	57	0	607125504	47	4337
2026-01-02 10:36:01.20	236.60	51.90	-38.1	-40.0	18.0	0.00e+00	0	57	0	609222656	47	4558
2026-01-02 10:36:02.20	237.23	52.04	-38.6	-40.5	17.4	0.00e+00	0	57	0	611319808	47	4859
2026-01-02 10:36:03.21	237.88	52.16	-38.8	-40.8	17.2	0.00e+00	0	56	0	613416960	48	4728
2026-01-02 10:36:04.22	238.53	52.29	-38.4	-40.2	17.8	0.00e+00	0	57	0	614465536	48	4433
2026-01-02 10:36:05.23	239.19	52.41	-37.8	-39.6	18.3	0.00e+00	0	57	0	616562688	47	4357
2026-01-02 10:36:06.24	239.85	52.53	-37.6	-39.4	18.5	0.00e+00	0	57	0	618659840	47	4245
2026-01-02 10:36:07.25	240.52	52.65	-37.7	-39.4	18.5	0.00e+00	0	57	0	620756992	47	4281
2026-01-02 10:36:08.26	241.19	52.76	-37.9	-39.7	18.2	0.00e+00	0	56	0	622854144	47	4425
2026-01-02 10:36:09.27	241.87	52.87	-38.3	-40.1	17.8	0.00e+00	0	56	0	623902720	47	4643
2026-01-02 10:36:10.28	242.56	52.97	-38.1	-39.9	17.9	0.00e+00	0	57	0	625999872	47	4536
2026-01-02 10:36:11.28	243.24	53.07	-37.9	-39.7	18.2	0.00e+00	0	57	0	628097024	47	4411
2026-01-02 10:36:12.29	243.93	53.17	-37.7	-39.4	18.5	0.00e+00	0	57	0	630194176	47	4257
2026-01-02 10:36:13.30	244.63	53.26	-37.6	-39.3	18.6	0.00e+00	0	56	0	632291328	47	4235
2026-01-02 10:36:14.31	245.33	53.35	-37.8	-39.6	18.3	0.00e+00	0	57	0	633339904	47	4364
2026-01-02 10:36:15.32	246.03	53.44	-38.2	-40.1	17.8	0.00e+00	0	57	0	635437056	47	4639
2026-01-02 10:36:16.33	246.74	53.52	-38.3	-40.2	17.7	0.00e+00	0	57	0	637534208	47	4665
2026-01-02 10:36:17.34	247.46	53.59	-38.3	-40.2	17.7	0.00e+00	0	57	0	639631360	47	4702
2026-01-02 10:36:18.35	248.17	53.66	-38.3	-40.2	17.7	0.00e+00	0	57	0	641728512	47	4678
2026-01-02 10:36:19.36	248.89	53.73	-38.3	-40.2	17.7	0.00e+00	0	57	0	642777088	47	4678
2026-01-02 10:36:20.37	249.62	53.79	-38.2	-40.1	17.8	0.00e+00	0	57	0	644874240	47	4626
2026-01-02 10:36:21.38	250.34	53.85	-38.4	-40.3	17.6	0.00e+00	0	57	0	646971392	47	4743
2026-01-02 10:36:22.39	251.07	53.90	-38.6	-40.6	17.2	0.00e+00	0	57	0	649068544	47	4920
2026-01-02 10:36:23.40	251.80	53.95	-38.7	-40.7	17.2	0.00e+00	0	57	0	651165696	48	4693
2026-01-02 10:36:24.41	252.54	54.00	-38.5	-40.4	17.6	0.00e+00	0	57	0	652214272	48	4532
2026-01-02 10:36:25.42	253.27	54.04	-38.2	-40.0	17.9	0.00e+00	0	57	0	654311424	48	4328
2026-01-02 10:36:26.42	254.01	54.07	-38.1	-39.8	18.2	0.00e+00	0	57	0	656408576	48	4240
2026-01-02 10:36:27.43	254.74	54.10	-38.3	-40.1	18.0	0.00e+00	0	57	0	658505728	48	4372
2026-01-02 10:36:28.44	255.49	54.13	-38.2	-40.1	17.9	0.00e+00	0	56	0	660602880	48	4366
2026-01-02 10:36:29.45	256.23	54.15	-38.1	-39.9	18.1	0.00e+00	0	57	0	661651456	48	4264
2026-01-02 10:36:30.46	256.97	54.16	-37.6	-39.4	18.5	0.00e+00	0	57	0	663748608	47	4249
2026-01-02 10:36:31.47	257.71	54.17	-37.4	-39.1	18.8	0.00e+00	0	57	0	665845760	46	4372
2026-01-02 10:36:32.48	258.46	54.18	-37.6	-39.3	18.6	0.00e+00	0	57	0	667942912	46	4465
2026-01-02 10:36:33.49	259.20	54.18	-38.0	-39.8	18.1	0.00e+00	0	57	0	670040064	46	4728
2026-01-02 10:36:34.50	259.95	54.18	-38.1	-39.9	18.0	0.00e+00	0	57	0	672137216	46	4805
2026-01-02 10:36:35.51	260.69	54.17	-38.0	-39.8	18.1	0.00e+00	0	57	0	673185792	46	4742
2026-01-02 10:36:36.52	261.44	54.16	-37.9	-39.7	18.3	0.00e+00	0	57	0	675282944	46	4659
2026-01-02 10:36:37.53	262.18	54.14	-38.1	-39.9	18.0	0.00e+00	0	57	0	677380096	46	4814
2026-01-02 10:36:38.54	262.92	54.12	-38.3	-40.2	17.7	0.00e+00	0	57	0	679477248	47	4678
2026-01-02 10:36:39.55	263.66	54.09	-38.6	-40.5	17.4	0.00e+00	0	57	0	681574400	47	4864
2026-01-02 10:36:40.56	264.40	54.06	-38.2	-40.1	17.8	0.00e+00	0	57	0	682622976	47	4634
2026-01-02 10:36:41.57	265.14	54.03	-37.9	-39.7	18.2	0.00e+00	0	57	0	684720128	47	4403
2026-01-02 10:36:42.58	265.87	53.98	-37.5	-39.2	18.7	0.00e+00	0	57	0	686817280	47	4157
2026-01-02 10:36:43.58	266.60	53.94	-37.4	-39.1	18.8	0.00e+00	0	56	0	688914432	46	4376
2026-01-02 10:36:44.60	267.33	53.89	-37.4	-39.1	18.8	0.00e+00	0	57	0	689963008	46	4380
2026-01-02 10:36:45.60	268.06	53.83	-37.2	-38.9	19.0	0.00e+00	0	57	0	692060160	46	4252
2026-01-02 10:36:46.61	268.78	53.78	-37.0	-38.6	19.3	0.00e+00	0	57	0	694157312	46	4116
2026-01-02 10:36:47.62	269.50	53.71	-36.9	-38.4	19.4	0.00e+00	0	57	0	696254464	45	4290
2026-01-02 10:36:48.63	270.22	53.64	-37.0	-38.6	19.3	0.00e+00	0	57	0	698351616	45	4362
2026-01-02 10:36:49.64	270.94	53.57	-37.0	-38.6	19.3	0.00e+00	0	57	0	700448768	45	4371
2026-01-02 10:36:50.65	271.65	53.49	-36.8	-38.4	19.5	0.00e+00	0	57	0	701497344	45	4266
2026-01-02 10:36:51.66	272.36	53.41	-36.6	-38.2	19.7	0.00e+00	0	57	0	703594496	45	4146
2026-01-02 10:36:52.67	273.06	53.33	-36.7	-38.3	19.6	0.00e+00	0	57	0	705691648	45	4199
2026-01-02 10:36:53.68	273.76	53.24	-36.9	-38.4	19.4	0.00e+00	0	57	0	707788800	45	4286
2026-01-02 10:36:54.69	274.45	53.15	-37.4	-39.1	18.9	0.00e+00	0	57	0	709885952	45	4607
2026-01-02 10:36:55.70	275.14	53.05	-37.9	-39.6	18.3	0.00e+00	0	57	0	710934528	46	4648
2026-01-02 10:36:56.71	275.83	52.95	-37.9	-39.7	18.2	0.00e+00	0	57	0	713031680	46	4662
2026-01-02 10:36:57.72	276.51	52.84	-37.7	-39.4	18.5	0.00e+00	0	57	0	715128832	46	4515
2026-01-02 10:36:58.73	277.19	52.73	-38.0	-39.8	18.2	0.00e+00	0	57	0	717225984	46	4724
2026-01-02 10:36:59.74	277.86	52.62	-38.2	-40.0	17.9	0.00e+00	0	57	0	719323136	46	4863
2026-01-02 10:37:00.75	278.52	52.50	-38.0	-39.8	18.1	0.00e+00	0	57	0	720371712	47	4442
2026-01-02 10:37:01.76	279.19	52.38	-37.8	-39.5	18.4	0.00e+00	0	57	0	722468864	47	4323
2026-01-02 10:37:02.77	279.84	52.26	-37.9	-39.7	18.2	0.00e+00	0	57	0	724566016	47	4436
2026-01-02 10:37:03.78	280.49	52.13	-38.3	-40.1	17.8	0.00e+00	0	57	0	726663168	47	4648
2026-01-02 10:37:04.79	281.13	52.00	-38.9	-40.9	17.2	0.00e+00	0	57	0	728760320	48	4763
2026-01-02 10:37:05.80	281.77	51.87	-39.0	-41.1	16.9	0.00e+00	0	57	0	729808896	48	4913
2026-01-02 10:37:06.81	282.40	51.73	-38.8	-40.8	17.2	0.00e+00	0	56	0	731906048	48	4712
2026-01-02 10:37:07.81	283.03	51.59	-38.5	-40.4	17.6	0.00e+00	0	57	0	734003200	48	4503
2026-01-02 10:37:08.82	283.65	51.45	-38.4	-40.2	17.8	0.00e+00	0	57	0	736100352	48	4436
2026-01-02 10:37:09.83	284.26	51.30	-39.0	-41.1	16.9	0.00e+00	0	57	0	738197504	48	4895
2026-01-02 10:37:10.84	284.87	51.16	-39.5	-41.8	16.2	0.00e+00	0	57	0	739246080	49	5019
2026-01-02 10:37:11.85	285.47	51.00	-39.4	-41.6	16.4	0.00e+00	0	57	0	741343232	49	4902
2026-01-02 10:37:12.86	286.07	50.85	-39.2	-41.4	16.6	0.00e+00	0	57	0	743440384	49	4770
2026-01-02 10:37:13.87	286.66	50.69	-39.1	-41.2	16.9	0.00e+00	0	57	0	745537536	49	4669
2026-01-02 10:37:14.88	287.25	50.53	-39.4	-41.6	16.4	0.00e+00	0	57	0	747634688	49	4913
2026-01-02 10:37:15.89	287.82	50.37	-39.9	-42.2	15.8	0.00e+00	0	57	0	748683264	50	4983
2026-01-02 10:37:16.90	288.40	50.21	-40.2	-42.7	15.3	0.00e+00	0	57	0	750780416	50	5253
2026-01-02 10:37:17.90	288.96	50.04	-40.5	-43.2	14.8	0.00e+00	0	57	0	752877568	51	5241
2026-01-02 10:37:18.91	289.52	49.87	-40.9	-43.9	14.0	1.50e-06	0	57	0	754974720	52	5401
2026-01-02 10:37:19.92	290.07	49.70	-41.5	-45.0	12.9	2.05e-05	0	57	0	757071872	53	5736
2026-01-02 10:37:20.93	290.62	49.53	-41.7	-45.5	12.4	1.01e-04	0	57	0	758120448	54	5723
2026-01-02 10:37:21.94	291.16	49.35	-41.7	-45.4	12.5	1.02e-04	0	57	0	760217600	54	5670
2026-01-02 10:37:22.95	291.69	49.17	-41.8	-45.5	12.3	1.66e-04	0	57	0	762314752	54	5779
2026-01-02 10:37:23.96	292.22	49.00	-41.5	-45.0	12.9	1.16e-04	0	57	0	764411904	54	5438
2026-01-02 10:37:24.97	292.75	48.81	-41.2	-44.5	13.4	3.96e-05	0	57	0	766509056	54	5137
2026-01-02 10:37:25.98	293.26	48.63	-41.2	-44.5	13.5	1.37e-05	0	57	0	768606208	54	5111
2026-01-02 10:37:26.99	293.77	48.45	-41.9	-45.7	12.2	8.62e-05	0	57	0	769654784	54	5900
2026-01-02 10:37:27.99	294.27	48.26	-42.0	-46.0	11.9	3.46e-04	0	57	0	771751936	54	6093
2026-01-02 10:37:29.00	294.77	48.08	-41.8	-45.5	12.3	2.43e-04	0	57	0	773849088	54	5779
2026-01-02 10:37:30.01	295.26	47.89	-41.6	-45.2	12.7	8.92e-05	0	57	0	775946240	54	5553
2026-01-02 10:37:31.02	295.75	47.70	-41.4	-44.8	13.2	2.21e-05	0	57	0	778043392	54	5286
2026-01-02 10:37:32.03	296.23	47.51	-41.6	-45.0	12.9	3.50e-05	0	57	0	779091968	54	5463
2026-01-02 10:37:33.04	296.71	47.31	-41.9	-45.7	12.2	1.46e-04	0	57	0	781189120	54	5915
2026-01-02 10:37:34.05	297.18	47.12	-42.3	-46.6	11.2	5.49e-04	0	57	0	783286272	55	6140
2026-01-02 10:37:35.06	297.64	46.92	-42.2	-46.5	11.3	1.18e-03	0	57	0	785383424	55	6065
2026-01-02 10:37:36.07	298.10	46.73	-41.8	-45.5	12.4	3.47e-04	0	57	0	787480576	55	5421
2026-01-02 10:37:37.08	298.55	46.53	-41.5	-44.9	12.9	6.17e-05	0	57	0	788529152	55	5093
2026-01-02 10:37:38.09	299.00	46.33	-41.4	-44.7	13.2	1.60e-05	0	57	0	790626304	54	5264
2026-01-02 10:37:39.10	299.44	46.13	-41.5	-44.9	13.0	4.11e-05	0	57	0	792723456	54	5400
2026-01-02 10:37:40.11	299.87	45.93	-41.1	-44.2	13.7	1.52e-05	0	57	0	794820608	54	4950
2026-01-02 10:37:41.12	300.30	45.73	-40.4	-43.2	14.7	7.00e-07	0	57	0	796917760	52	4948
2026-01-02 10:37:42.13	300.73	45.53	-40.0	-42.5	15.6	0.00e+00	0	57	0	797966336	51	4822
2026-01-02 10:37:43.14	301.15	45.33	-39.7	-42.0	16.1	0.00e+00	0	57	0	800063488	51	4558
2026-01-02 10:37:44.15	301.56	45.13	-39.6	-41.9	16.2	0.00e+00	0	57	0	802160640	51	4516
2026-01-02 10:37:45.16	301.97	44.92	-40.0	-42.4	15.7	0.00e+00	0	57	0	804257792	51	4781
2026-01-02 10:37:46.17	302.37	44.72	-40.4	-43.1	15.0	0.00e+00	0	57	0	806354944	51	5161
2026-01-02 10:37:47.18	302.77	44.52	-40.6	-43.4	14.5	7.00e-07	0	57	0	807403520	52	5078
2026-01-02 10:37:48.19	303.16	44.31	-40.3	-42.9	15.0	0.00e+00	0	57	0	809500672	52	4790
2026-01-02 10:37:49.20	303.55	44.11	-40.0	-42.5	15.6	0.00e+00	0	57	0	811597824	51	4830
2026-01-02 10:37:50.21	303.94	43.90	-39.8	-42.1	15.9	0.00e+00	0	57	0	813694976	51	4625
2026-01-02 10:37:51.22	304.31	43.70	-39.8	-42.2	15.8	0.00e+00	0	57	0	815792128	51	4681
2026-01-02 10:37:52.23	304.69	43.49	-40.1	-42.6	15.5	0.00e+00	0	57	0	816840704	51	4902
2026-01-02 10:37:53.24	305.06	43.29	-40.5	-43.3	14.7	0.00e+00	0	57	0	818937856	51	5302
2026-01-02 10:37:54.25	305.42	43.08	-40.5	-43.3	14.7	0.00e+00	0	57	0	821035008	51	5294
2026-01-02 10:37:55.26	305.78	42.87	-40.7	-43.6	14.4	0.00e+00	0	57	0	823132160	52	5164
2026-01-02 10:37:56.27	306.14	42.67	-40.6	-43.4	14.6	7.00e-07	0	57	0	825229312	52	5057
2026-01-02 10:37:57.27	306.48	42.46	-40.1	-42.7	15.3	0.00e+00	0	57	0	826277888	52	4666
2026-01-02 10:37:58.28	306.83	42.26	-39.8	-42.1	15.9	0.00e+00	0	57	0	828375040	51	4617
2026-01-02 10:37:59.29	307.17	42.05	-39.9	-42.3	15.7	0.00e+00	0	57	0	830472192	51	4746
2026-01-02 10:38:00.30	307.51	41.85	-40.5	-43.2	14.8	0.00e+00	0	57	0	832569344	51	5230
2026-01-02 10:38:01.31	307.84	41.64	-41.3	-44.6	13.3	3.80e-06	0	57	0	834666496	53	5522
2026-01-02 10:38:02.32	308.17	41.43	-42.3	-46.7	11.2	4.34e-04	0	57	0	836763648	55	6223
2026-01-02 10:38:03.33	308.50	41.23	-42.6	-47.4	10.4	3.61e-03	0	57	0	837812224	55	6739
2026-01-02 10:38:04.34	308.82	41.02	-42.4	-46.8	11.0	3.73e-03	0	57	0	839909376	55	6300
2026-01-02 10:38:05.35	309.14	40.82	-41.9	-45.7	12.1	7.59e-04	0	57	0	842006528	55	5548
2026-01-02 10:38:06.36	309.45	40.61	-41.7	-45.4	12.5	2.54e-04	0	57	0	844103680	55	5360
2026-01-02 10:38:07.37	309.76	40.41	-41.5	-45.0	12.8	6.48e-05	0	57	0	846200832	55	5133
2026-01-02 10:38:08.38	310.07	40.20	-42.0	-46.1	11.8	4.63e-04	0	57	0	847249408	55	5797
2026-01-02 10:38:09.39	310.37	40.00	-43.0	-48.2	9.7	5.63e-03	0	57	0	849346560	56	6963
2026-01-02 10:38:10.40	310.67	39.80	-43.2	-48.8	9.0	3.11e-02	0	57	0	851443712	57	7055
2026-01-02 10:38:11.40	310.96	39.59	-42.3	-46.6	11.3	5.26e-03	0	57	0	853540864	56	5814
2026-01-02 10:38:12.41	311.25	39.39	-40.7	-43.7	14.0	1.11e-04	0	57	0	855638016	53	4962
2026-01-02 10:38:13.42	311.54	39.19	-39.8	-42.2	15.6	2.44e-05	0	57	0	856686592	51	4700
2026-01-02 10:38:14.43	311.82	38.99	-39.6	-41.9	15.8	1.05e-04	0	57	0	858783744	51	4528
2026-01-02 10:38:15.44	312.10	38.78	-40.4	-43.2	14.5	7.42e-04	0	57	0	860880896	51	5251
2026-01-02 10:38:16.45	312.38	38.58	-41.8	-45.8	11.9	1.86e-03	0	57	0	862978048	54	5991
2026-01-02 10:38:17.46	312.65	38.38	-43.1	-48.8	9.0	2.18e-02	0	57	0	865075200	56	7535
2026-01-02 10:38:18.47	312.92	38.18	-42.9	-48.3	9.4	3.94e-02	0	57	0	866123776	57	6684
2026-01-02 10:38:19.48	313.19	37.98	-41.6	-45.2	12.5	7.78e-03	0	57	0	868220928	55	5270
2026-01-02 10:38:20.49	313.45	37.78	-40.6	-43.6	14.2	5.27e-04	0	57	0	870318080	53	4892
2026-01-02 10:38:21.50	313.71	37.58	-40.3	-43.1	14.8	2.20e-06	0	57	0	872415232	52	4882
2026-01-02 10:38:22.51	313.97	37.38	-40.2	-42.7	15.2	0.00e+00	0	57	0	874512384	52	4694
2026-01-02 10:38:23.52	314.22	37.19	-40.8	-43.7	14.2	0.00e+00	0	57	0	875560960	52	5245
2026-01-02 10:38:24.53	314.48	36.99	-41.8	-45.5	12.3	5.03e-05	0	57	0	877658112	54	5766
2026-01-02 10:38:25.54	314.72	36.79	-42.6	-47.4	10.3	1.42e-03	0	57	0	879755264	55	6777
2026-01-02 10:38:26.55	314.97	36.60	-43.0	-48.1	9.8	1.01e-02	0	57	0	881852416	56	6929
2026-01-02 10:38:27.56	315.21	36.40	-41.8	-45.6	12.2	1.28e-03	0	57	0	883949568	55	5475
2026-01-02 10:38:28.57	315.45	36.21	-40.2	-42.8	15.0	3.00e-06	0	57	0	884998144	52	4745
2026-01-02 10:38:29.57	315.69	36.01	-39.0	-41.1	16.8	0.00e+00	0	57	0	887095296	50	4358
2026-01-02 10:38:30.58	315.92	35.82	-38.3	-40.2	17.8	0.00e+00	0	57	0	889192448	48	4406
2026-01-02 10:38:31.59	316.15	35.63	-38.4	-40.2	17.8	0.00e+00	0	57	0	891289600	48	4415
2026-01-02 10:38:32.60	316.38	35.44	-38.9	-40.9	17.1	0.00e+00	0	57	0	893386752	48	4808
2026-01-02 10:38:33.61	316.61	35.24	-39.9	-42.3	15.7	0.00e+00	0	57	0	894435328	50	5009
2026-01-02 10:38:34.62	316.83	35.05	-40.7	-43.5	14.3	7.00e-07	0	57	0	896532480	52	5150
2026-01-02 10:38:35.63	317.05	34.86	-41.3	-44.6	13.2	6.80e-06	0	57	0	898629632	53	5502
2026-01-02 10:38:36.64	317.27	34.67	-41.0	-44.2	13.7	1.29e-05	0	57	0	900726784	53	5250
2026-01-02 10:38:37.65	317.49	34.49	-40.5	-43.3	14.6	1.50e-06	0	57	0	902823936	53	4737
2026-01-02 10:38:38.66	317.70	34.30	-40.2	-42.8	15.1	7.00e-07	0	57	0	904921088	52	4733
2026-01-02 10:38:39.67	317.91	34.11	-40.0	-42.5	15.4	7.00e-07	0	57	0	905969664	52	4564
2026-01-02 10:38:40.68	318.12	33.92	-40.1	-42.7	15.3	0.00e+00	0	57	0	908066816	51	4935
2026-01-02 10:38:41.68	318.33	33.74	-40.4	-43.0	15.0	0.00e+00	0	57	0	910163968	51	5130
2026-01-02 10:38:42.69	318.53	33.55	-40.6	-43.5	14.4	0.00e+00	0	57	0	912261120	52	5108
2026-01-02 10:38:43.70	318.73	33.37	-40.9	-44.0	13.9	1.50e-06	0	57	0	914358272	52	5446
2026-01-02 10:38:44.71	318.93	33.19	-41.3	-44.6	13.2	1.22e-05	0	57	0	915406848	53	5481
2026-01-02 10:38:45.72	319.13	33.00	-41.5	-44.9	12.9	2.74e-05	0	57	0	917504000	53	5714
2026-01-02 10:38:46.73	319.33	32.82	-41.6	-45.2	12.6	7.09e-05	0	57	0	919601152	53	5897
2026-01-02 10:38:47.74	319.52	32.64	-41.6	-45.1	12.7	1.17e-04	0	57	0	921698304	53	5852
2026-01-02 10:38:48.75	319.71	32.46	-41.0	-44.2	13.7	1.90e-05	0	57	0	923795456	53	5221
2026-01-02 10:38:49.76	319.90	32.28	-40.7	-43.6	14.3	2.20e-06	0	57	0	924844032	53	4915
2026-01-02 10:38:50.77	320.09	32.10	-40.4	-43.2	14.7	7.00e-07	0	57	0	926941184	52	4942
2026-01-02 10:38:51.78	320.27	31.92	-40.2	-42.8	15.1	0.00e+00	0	57	0	929038336	52	4719
2026-01-02 10:38:52.79	320.46	31.74	-40.0	-42.5	15.4	0.00e+00	0	57	0	931135488	52	4560
2026-01-02 10:38:53.80	320.64	31.57	-40.1	-42.6	15.3	0.00e+00	0	57	0	933232640	51	4917
2026-01-02 10:38:54.81	320.82	31.39	-40.2	-42.8	15.1	0.00e+00	0	57	0	934281216	51	5030
2026-01-02 10:38:55.82	320.99	31.22	-40.5	-43.3	14.8	0.00e+00	0	57	0	936378368	51	5283
2026-01-02 10:38:56.82	321.17	31.04	-40.9	-44.0	13.8	2.20e-06	0	57	0	938475520	52	5448
2026-01-02 10:38:57.83	321.34	30.87	-41.3	-44.6	13.3	1.22e-05	0	57	0	940572672	53	5509
2026-01-02 10:38:58.84	321.51	30.70	-41.5	-45.1	12.7	4.19e-05	0	57	0	942669824	53	5796
2026-01-02 10:38:59.85	321.68	30.52	-41.7	-45.5	12.3	2.01e-04	0	57	0	943718400	54	5775
2026-01-02 10:39:00.86	321.85	30.35	-41.6	-45.3	12.5	1.43e-04	0	57	0	945815552	54	5609
2026-01-02 10:39:01.87	322.02	30.18	-41.4	-44.9	12.9	7.01e-05	0	57	0	947912704	54	5384
2026-01-02 10:39:02.88	322.18	30.01	-41.0	-44.2	13.6	3.66e-05	0	57	0	950009856	54	4968
2026-01-02 10:39:03.89	322.35	29.84	-40.8	-43.7	14.1	1.50e-06	0	57	0	952107008	53	4962
2026-01-02 10:39:04.90	322.51	29.67	-40.6	-43.5	14.4	7.00e-07	0	57	0	953155584	53	4816
2026-01-02 10:39:05.91	322.67	29.51	-40.4	-43.2	14.6	0.00e+00	0	57	0	955252736	52	4959
2026-01-02 10:39:06.92	322.83	29.34	-40.4	-43.2	14.6	0.00e+00	0	57	0	957349888	52	4946
2026-01-02 10:39:07.93	322.98	29.17	-40.5	-43.3	14.5	7.00e-07	0	57	0	959447040	52	5025
2026-01-02 10:39:08.94	323.14	29.01	-40.7	-43.7	14.1	0.00e+00	0	57	0	961544192	52	5244
2026-01-02 10:39:09.94	323.29	28.85	-40.7	-43.7	14.1	2.20e-06	0	57	0	962592768	52	5260
2026-01-02 10:39:10.95	323.44	28.68	-40.9	-44.1	13.8	3.00e-06	0	57	0	964689920	52	5472
2026-01-02 10:39:11.97	323.60	28.52	-41.0	-44.2	13.6	6.10e-06	0	57	0	966787072	52	5573
2026-01-02 10:39:12.98	323.75	28.35	-40.8	-43.9	14.0	4.50e-06	0	57	0	968884224	52	5355
2026-01-02 10:39:13.98	323.89	28.19	-40.8	-43.8	14.1	2.20e-06	0	57	0	970981376	52	5297
2026-01-02 10:39:14.99	324.04	28.03	-40.5	-43.3	14.5	0.00e+00	0	57	0	972029952	52	5032
2026-01-02 10:39:16.00	324.18	27.87	-40.3	-42.9	14.9	0.00e+00	0	57	0	974127104	52	4814
2026-01-02 10:39:17.01	324.33	27.71	-40.0	-42.5	15.4	0.00e+00	0	57	0	976224256	51	4865
2026-01-02 10:39:18.02	324.47	27.56	-39.9	-42.3	15.6	0.00e+00	0	57	0	978321408	51	4754
2026-01-02 10:39:19.03	324.61	27.40	-39.7	-42.1	15.8	0.00e+00	0	57	0	980418560	51	4611
2026-01-02 10:39:20.04	324.75	27.24	-39.5	-41.8	16.1	0.00e+00	0	57	0	981467136	51	4481
2026-01-02 10:39:21.05	324.89	27.08	-39.4	-41.7	16.3	0.00e+00	0	57	0	983564288	50	4669
2026-01-02 10:39:22.06	325.02	26.93	-39.4	-41.7	16.3	0.00e+00	0	57	0	985661440	50	4662
2026-01-02 10:39:23.07	325.16	26.77	-39.5	-41.7	16.2	0.00e+00	0	57	0	987758592	50	4697
2026-01-02 10:39:24.08	325.29	26.62	-39.5	-41.8	16.1	0.00e+00	0	57	0	989855744	50	4743
2026-01-02 10:39:25.09	325.43	26.47	-39.6	-41.9	16.1	0.00e+00	0	57	0	990904320	50	4766
2026-01-02 10:39:26.10	325.56	26.31	-39.8	-42.2	15.7	0.00e+00	0	57	0	993001472	50	4952
2026-01-02 10:39:27.11	325.69	26.16	-40.0	-42.5	15.5	0.00e+00	0	57	0	995098624	50	5112
2026-01-02 10:39:28.12	325.82	26.01	-40.1	-42.7	15.3	0.00e+00	0	57	0	997195776	50	5224
2026-01-02 10:39:29.13	325.95	25.86	-40.3	-42.9	15.0	0.00e+00	0	57	0	999292928	51	5082
2026-01-02 10:39:30.14	326.07	25.71	-40.2	-42.8	15.1	0.00e+00	0	57	0	1001390080	51	5037
2026-01-02 10:39:31.15	326.20	25.56	-40.3	-43.0	14.9	0.00e+00	0	57	0	1002438656	51	5128
2026-01-02 10:39:32.16	326.32	25.41	-40.1	-42.8	15.1	0.00e+00	0	57	0	1004535808	51	4985
2026-01-02 10:39:33.17	326.45	25.26	-39.9	-42.4	15.5	0.00e+00	0	57	0	1006632960	51	4812
2026-01-02 10:39:34.18	326.57	25.12	-39.7	-42.1	15.8	0.00e+00	0	57	0	1008730112	51	4631
2026-01-02 10:39:35.19	326.69	24.97	-39.5	-41.8	16.1	0.00e+00	0	57	0	1010827264	50	4722
2026-01-02 10:39:36.20	326.81	24.82	-39.3	-41.5	16.4	0.00e+00	0	57	0	1011875840	50	4556
2026-01-02 10:39:37.21	326.93	24.68	-39.2	-41.3	16.6	0.00e+00	0	57	0	1013972992	50	4490
2026-01-02 10:39:38.22	327.05	24.53	-39.1	-41.2	16.7	0.00e+00	0	57	0	1016070144	50	4421
2026-01-02 10:39:39.22	327.17	24.39	-39.1	-41.2	16.7	0.00e+00	0	57	0	1018167296	50	4409
2026-01-02 10:39:40.23	327.28	24.25	-39.0	-41.1	16.8	0.00e+00	0	57	0	1020264448	50	4364
2026-01-02 10:39:41.24	327.40	24.11	-39.1	-41.2	16.7	0.00e+00	0	57	0	1021313024	50	4403
2026-01-02 10:39:42.25	327.51	23.97	-39.2	-41.4	16.5	0.00e+00	0	57	0	1023410176	50	4503
2026-01-02 10:39:43.26	327.62	23.82	-39.3	-41.5	16.4	0.00e+00	0	57	0	1025507328	50	4570
2026-01-02 10:39:44.27	327.74	23.68	-39.4	-41.6	16.3	0.00e+00	0	57	0	1027604480	50	4619
2026-01-02 10:39:45.28	327.85	23.54	-39.5	-41.8	16.1	0.00e+00	0	57	0	1029701632	50	4715
2026-01-02 10:39:46.29	327.96	23.40	-39.6	-41.9	16.0	0.00e+00	0	57	0	1030750208	50	4778
2026-01-02 10:39:47.30	328.07	23.27	-39.6	-41.9	16.0	0.00e+00	0	57	0	1032847360	50	4804
2026-01-02 10:39:48.31	328.18	23.13	-39.6	-42.0	15.9	0.00e+00	0	57	0	1034944512	50	4841
2026-01-02 10:39:49.32	328.28	22.99	-39.6	-42.0	15.8	0.00e+00	0	57	0	1037041664	50	4844
2026-01-02 10:39:50.33	328.39	22.85	-39.6	-42.0	15.8	0.00e+00	0	57	0	1039138816	50	4853
2026-01-02 10:39:51.34	328.49	22.72	-39.6	-42.0	15.9	0.00e+00	0	57	0	1040187392	50	4821
2026-01-02 10:39:52.35	328.60	22.58	-39.6	-41.9	15.9	0.00e+00	0	57	0	1042284544	50	4781
2026-01-02 10:39:53.36	328.70	22.45	-39.6	-42.0	15.9	0.00e+00	0	57	0	1044381696	50	4820
2026-01-02 10:39:54.37	328.81	22.32	-39.5	-41.8	16.1	0.00e+00	0	57	0	1046478848	50	4711
2026-01-02 10:39:55.38	328.91	22.18	-39.3	-41.5	16.3	0.00e+00	0	57	0	1048576000	50	4594
2026-01-02 10:39:56.39	329.01	22.05	-39.3	-41.6	16.3	0.00e+00	0	57	0	1049624576	50	4613
2026-01-02 10:39:57.39	329.11	21.92	-39.3	-41.5	16.3	0.00e+00	0	57	0	1051721728	50	4574
2026-01-02 10:39:58.40	329.21	21.79	-39.2	-41.4	16.4	0.00e+00	0	57	0	1053818880	50	4516
2026-01-02 10:39:59.41	329.31	21.66	-39.2	-41.4	16.5	0.00e+00	0	57	0	1055916032	50	4518
2026-01-02 10:40:00.42	329.41	21.52	-39.2	-41.4	16.5	0.00e+00	0	57	0	1058013184	50	4495
2026-01-02 10:40:01.43	329.50	21.40	-39.3	-41.5	16.3	0.00e+00	0	57	0	1059061760	50	4559
2026-01-02 10:40:02.44	329.60	21.27	-39.3	-41.6	16.3	0.00e+00	0	57	0	1061158912	50	4599
2026-01-02 10:40:03.45	329.70	21.14	-39.4	-41.7	16.1	0.00e+00	0	57	0	1063256064	50	4675
2026-01-02 10:40:04.46	329.79	21.01	-39.6	-42.0	15.8	0.00e+00	0	57	0	1065353216	50	4837
2026-01-02 10:40:05.47	329.89	20.88	-39.7	-42.2	15.6	0.00e+00	0	57	0	1067450368	50	4957
2026-01-02 10:40:06.48	329.98	20.75	-39.9	-42.4	15.4	0.00e+00	0	57	0	1069547520	50	5064
2026-01-02 10:40:07.49	330.07	20.63	-40.0	-42.6	15.2	0.00e+00	0	57	0	1070596096	50	5217
2026-01-02 10:40:08.50	330.16	20.50	-40.1	-42.8	14.9	0.00e+00	0	57	0	1072693248	50	5311
2026-01-02 10:40:09.51	330.26	20.38	-40.2	-43.0	14.8	0.00e+00	0	57	0	1074790400	51	5107
2026-01-02 10:40:10.52	330.35	20.25	-40.2	-43.0	14.8	0.00e+00	0	57	0	1076887552	51	5114
2026-01-02 10:40:11.52	330.44	20.13	-40.2	-42.9	14.9	7.00e-07	0	57	0	1078984704	51	5066
2026-01-02 10:40:12.53	330.53	20.01	-40.2	-42.9	14.9	0.00e+00	0	57	0	1080033280	51	5077
2026-01-02 10:40:13.54	330.61	19.88	-40.1	-42.8	15.0	0.00e+00	0	57	0	1082130432	51	4997
2026-01-02 10:40:14.56	330.70	19.76	-40.1	-42.8	14.9	0.00e+00	0	57	0	1084227584	51	5040
2026-01-02 10:40:15.56	330.79	19.64	-39.9	-42.5	15.2	0.00e+00	0	57	0	1086324736	51	4836
2026-01-02 10:40:16.57	330.88	19.52	-39.7	-42.2	15.6	0.00e+00	0	57	0	1088421888	51	4664
2026-01-02 10:40:17.58	330.96	19.40	-39.6	-42.0	15.7	0.00e+00	0	57	0	1089470464	51	4581
2026-01-02 10:40:18.59	331.05	19.28	-39.4	-41.7	16.1	0.00e+00	0	57	0	1091567616	50	4665
2026-01-02 10:40:19.60	331.13	19.16	-39.3	-41.5	16.2	0.00e+00	0	57	0	1093664768	50	4590
2026-01-02 10:40:20.61	331.22	19.04	-39.2	-41.4	16.3	0.00e+00	0	57	0	1095761920	50	4506
2026-01-02 10:40:21.62	331.30	18.92	-39.1	-41.3	16.4	0.00e+00	0	57	0	1097859072	50	4485
2026-01-02 10:40:22.63	331.38	18.80	-39.0	-41.1	16.6	0.00e+00	0	57	0	1098907648	50	4390
2026-01-02 10:40:23.63	331.46	18.68	-38.9	-41.0	16.7	0.00e+00	0	57	0	1101004800	49	4593
2026-01-02 10:40:24.64	331.55	18.57	-38.8	-40.9	16.8	0.00e+00	0	57	0	1103101952	49	4534
2026-01-02 10:40:25.66	331.63	18.45	-38.8	-40.9	16.8	0.00e+00	0	57	0	1105199104	49	4507
2026-01-02 10:40:26.67	331.71	18.33	-38.8	-40.8	16.8	0.00e+00	0	57	0	1107296256	49	4491
2026-01-02 10:40:27.68	331.79	18.22	-38.8	-40.9	16.8	0.00e+00	0	57	0	1108344832	49	4514
2026-01-02 10:40:28.68	331.87	18.10	-38.8	-40.9	16.8	0.00e+00	0	57	0	1110441984	49	4530
2026-01-02 10:40:29.69	331.95	17.99	-38.9	-41.1	16.6	0.00e+00	0	57	0	1112539136	49	4599
2026-01-02 10:40:30.70	332.02	17.87	-38.9	-41.1	16.6	0.00e+00	0	57	0	1114636288	49	4611
2026-01-02 10:40:31.71	332.10	17.76	-39.0	-41.2	16.5	0.00e+00	0	57	0	1116733440	49	4665
2026-01-02 10:40:32.72	332.18	17.65	-39.0	-41.3	16.4	0.00e+00	0	57	0	1117782016	49	4720
2026-01-02 10:40:33.73	332.25	17.53	-39.1	-41.3	16.3	0.00e+00	0	57	0	1119879168	49	4747
2026-01-02 10:40:34.74	332.33	17.42	-39.1	-41.4	16.3	0.00e+00	0	57	0	1121976320	49	4770
2026-01-02 10:40:35.75	332.41	17.31	-39.1	-41.5	16.1	0.00e+00	0	57	0	1124073472	49	4826
2026-01-02 10:40:36.76	332.48	17.20	-39.1	-41.5	16.1	0.00e+00	0	57	0	1126170624	49	4866
2026-01-02 10:40:37.77	332.56	17.09	-39.0	-41.6	16.0	0.00e+00	0	57	0	1127219200	49	4914
2026-01-02 10:40:38.78	332.63	16.98	-38.9	-41.6	16.0	0.00e+00	0	57	0	1129316352	49	4901
2026-01-02 10:40:39.79	332.70	16.87	-39.0	-41.6	15.9	0.00e+00	0	57	0	1131413504	49	4924
2026-01-02 10:40:40.80	332.78	16.76	-39.1	-41.6	16.0	0.00e+00	0	57	0	1133510656	49	4903
2026-01-02 10:40:41.80	332.85	16.65	-39.2	-41.6	15.9	0.00e+00	0	57	0	1135607808	49	4919
2026-01-02 10:40:42.81	332.92	16.54	-39.2	-41.5	16.0	0.00e+00	0	57	0	1136656384	49	4869
2026-01-02 10:40:43.82	332.99	16.43	-39.1	-41.4	16.2	0.00e+00	0	57	0	1138753536	49	4794
2026-01-02 10:40:44.83	333.06	16.33	-39.1	-41.4	16.2	0.00e+00	0	57	0	1140850688	49	4784
2026-01-02 10:40:45.84	333.13	16.22	-39.1	-41.3	16.2	0.00e+00	0	57	0	1142947840	49	4740
2026-01-02 10:40:46.85	333.20	16.11	-39.0	-41.2	16.4	0.00e+00	0	57	0	1145044992	49	4654
2026-01-02 10:40:47.86	333.27	16.00	-38.9	-41.1	16.4	0.00e+00	0	57	0	1147142144	49	4632
2026-01-02 10:40:48.87	333.34	15.90	-38.9	-41.1	16.4	0.00e+00	0	57	0	1148190720	49	4630
2026-01-02 10:40:49.88	333.41	15.79	-38.9	-41.1	16.4	0.00e+00	0	57	0	1150287872	49	4619
2026-01-02 10:40:50.89	333.48	15.69	-38.9	-41.0	16.5	0.00e+00	0	57	0	1152385024	49	4598
2026-01-02 10:40:51.90	333.55	15.58	-38.9	-41.0	16.5	0.00e+00	0	57	0	1154482176	49	4591
2026-01-02 10:40:52.91	333.61	15.48	-38.9	-41.1	16.4	0.00e+00	0	57	0	1156579328	49	4619
2026-01-02 10:40:53.92	333.68	15.38	-38.9	-41.1	16.4	0.00e+00	0	57	0	1157627904	49	4637
2026-01-02 10:40:54.93	333.75	15.27	-38.9	-41.2	16.3	0.00e+00	0	57	0	1159725056	49	4652
2026-01-02 10:40:55.94	333.81	15.17	-39.0	-41.2	16.3	0.00e+00	0	57	0	1161822208	49	4704
2026-01-02 10:40:56.95	333.88	15.07	-39.1	-41.3	16.1	0.00e+00	0	57	0	1163919360	49	4757
2026-01-02 10:40:57.96	333.94	14.96	-39.1	-41.4	16.0	0.00e+00	0	57	0	1166016512	49	4813
2026-01-02 10:40:58.97	334.01	14.86	-39.2	-41.5	16.0	0.00e+00	0	57	0	1167065088	49	4851
2026-01-02 10:40:59.98	334.07	14.76	-39.2	-41.6	15.9	0.00e+00	0	57	0	1169162240	49	4890
2026-01-02 10:41:00.99	334.14	14.66	-39.3	-41.7	15.8	0.00e+00	0	57	0	1171259392	49	4944
2026-01-02 10:41:02.00	334.20	14.56	-39.4	-41.9	15.6	0.00e+00	0	57	0	1173356544	49	5056
2026-01-02 10:41:03.01	334.26	14.46	-39.5	-42.0	15.5	0.00e+00	0	57	0	1175453696	49	5103
