passes_logs/2026/01/02/R2.0S_Moscow/R2.0S_Moscow__20260102_003817_AQUA_rec.log

#Pass ID: 20260102_003817_AQUA
#Satellite: AQUA
#Configuration: AQUA
#almurnet v.1.7.20251203
#Start time: 2026-01-02 00:38:18

#Version: 2.2.20231116
#Station: R2.0S_Moscow
#Location: 37.707566 lon 55.798166 lat
#TLE: 1 27424U 02022A   25365.92641127  .00002078  00000+0  42628-3 0  9999
#TLE: 2 27424  98.4058 327.1196 0001962  94.7781 340.6230 14.61783896258835

#Time	Az	El	Level	Level2	SNR	BER	BlckErr	Temp	State	Recorded	gain1	gain2
2026-01-02 00:38:18.71	20.41	2.05	-41.1	-61.3	3.8	7.44e-01	0	49	0	0	54	35681
2026-01-02 00:38:19.71	20.45	2.11	-41.1	-61.3	3.8	7.44e-01	0	49	104	0	52	40001
2026-01-02 00:38:20.72	20.49	2.18	-41.1	-61.3	3.8	7.47e-01	0	49	104	0	52	39999
2026-01-02 00:38:21.73	20.53	2.24	-41.0	-61.3	3.8	7.46e-01	0	49	104	0	52	39986
2026-01-02 00:38:22.75	20.58	2.31	-41.1	-61.3	3.8	7.46e-01	0	49	104	0	52	39921
2026-01-02 00:38:23.76	20.62	2.37	-41.1	-61.3	3.8	7.46e-01	0	49	104	0	52	40009
2026-01-02 00:38:24.77	20.66	2.44	-41.1	-61.3	3.8	7.45e-01	0	49	104	0	52	39996
2026-01-02 00:38:25.78	20.70	2.50	-41.1	-61.3	3.8	7.44e-01	0	49	104	0	52	39907
2026-01-02 00:38:26.79	20.75	2.57	-41.1	-61.3	3.8	7.48e-01	0	49	104	0	52	39878
2026-01-02 00:38:27.80	20.79	2.64	-41.1	-61.3	3.8	7.45e-01	0	49	104	0	52	39997
2026-01-02 00:38:28.81	20.83	2.70	-41.1	-61.3	3.8	7.42e-01	0	49	104	0	52	39973
2026-01-02 00:38:29.82	20.88	2.77	-41.1	-61.3	3.8	7.46e-01	0	49	104	0	52	39960
2026-01-02 00:38:30.83	20.92	2.83	-41.1	-61.3	3.8	7.45e-01	0	50	104	0	52	39918
2026-01-02 00:38:31.85	20.96	2.90	-41.1	-61.3	3.8	7.44e-01	0	49	104	0	52	39977
2026-01-02 00:38:32.86	21.01	2.97	-41.1	-61.3	3.8	7.46e-01	0	50	104	0	52	40003
2026-01-02 00:38:33.87	21.05	3.03	-41.1	-61.3	3.8	7.45e-01	0	50	104	0	52	39943
2026-01-02 00:38:34.88	21.10	3.10	-41.1	-61.3	3.8	7.48e-01	0	50	104	0	52	39956
2026-01-02 00:38:35.89	21.14	3.17	-41.1	-61.3	3.8	7.43e-01	0	50	104	0	52	39783
2026-01-02 00:38:36.90	21.19	3.23	-41.1	-61.3	3.8	7.49e-01	0	50	104	0	52	39897
2026-01-02 00:38:37.91	21.23	3.30	-41.1	-61.3	3.8	7.43e-01	0	50	104	0	52	39867
2026-01-02 00:38:38.92	21.28	3.37	-41.0	-61.3	3.8	7.46e-01	0	50	104	0	52	39758
2026-01-02 00:38:39.93	21.32	3.44	-41.1	-61.3	3.8	7.47e-01	0	50	104	0	52	39819
2026-01-02 00:38:40.94	21.37	3.50	-41.0	-61.3	3.8	7.44e-01	0	50	104	0	52	39855
2026-01-02 00:38:41.96	21.41	3.57	-41.1	-61.3	3.8	7.44e-01	0	50	104	0	52	39818
2026-01-02 00:38:42.97	21.46	3.64	-41.0	-61.3	3.8	7.45e-01	0	50	104	0	52	39777
2026-01-02 00:38:43.98	21.51	3.71	-41.0	-61.3	3.8	7.44e-01	0	50	104	0	52	39815
2026-01-02 00:38:44.99	21.55	3.78	-41.1	-61.3	3.8	7.46e-01	0	50	104	0	52	39827
2026-01-02 00:38:46.00	21.60	3.85	-41.1	-61.3	3.8	7.50e-01	0	50	104	0	52	39803
2026-01-02 00:38:47.01	21.65	3.92	-41.1	-61.3	3.8	7.45e-01	0	50	104	0	52	39823
2026-01-02 00:38:48.02	21.69	3.99	-41.1	-61.3	3.8	7.43e-01	0	51	104	0	52	39733
2026-01-02 00:38:49.03	21.74	4.05	-41.1	-61.3	3.8	7.49e-01	0	51	104	0	52	39775
2026-01-02 00:38:50.04	21.79	4.12	-41.0	-61.3	3.8	7.45e-01	0	51	104	0	52	39771
2026-01-02 00:38:51.05	21.84	4.19	-41.1	-61.3	3.8	7.45e-01	0	51	104	0	52	39764
2026-01-02 00:38:52.06	21.88	4.26	-41.0	-61.3	3.8	7.45e-01	0	51	104	0	52	39831
2026-01-02 00:38:53.08	21.93	4.33	-41.0	-61.3	3.8	7.44e-01	0	51	104	0	52	39789
2026-01-02 00:38:54.09	21.98	4.40	-41.1	-61.3	3.8	7.46e-01	0	51	104	0	52	39719
2026-01-02 00:38:55.10	22.03	4.48	-41.0	-61.3	3.8	7.46e-01	0	51	104	0	52	39839
2026-01-02 00:38:56.11	22.08	4.55	-41.0	-61.3	3.8	7.46e-01	0	51	104	0	52	39715
2026-01-02 00:38:57.12	22.13	4.62	-41.0	-61.3	3.8	7.51e-01	0	51	104	0	52	39792
2026-01-02 00:38:58.13	22.18	4.69	-41.0	-61.3	3.8	7.46e-01	0	51	104	0	52	39702
2026-01-02 00:38:59.14	22.23	4.76	-41.0	-61.3	3.8	7.46e-01	0	51	104	0	52	39706
2026-01-02 00:39:00.15	22.28	4.83	-41.0	-61.3	3.8	7.47e-01	0	51	104	0	52	39673
2026-01-02 00:39:01.16	22.33	4.90	-41.0	-61.3	3.8	7.42e-01	0	51	104	0	52	39783
2026-01-02 00:39:02.17	22.38	4.97	-41.0	-61.3	3.8	7.46e-01	0	51	104	0	52	39718
2026-01-02 00:39:03.18	22.43	5.05	-41.0	-61.3	3.8	7.46e-01	0	51	104	0	52	39706
2026-01-02 00:39:04.19	22.48	5.12	-41.0	-61.3	3.8	7.44e-01	0	52	104	0	52	39758
2026-01-02 00:39:05.21	22.53	5.19	-41.0	-61.3	3.8	7.46e-01	0	51	104	0	52	39699
2026-01-02 00:39:06.22	22.58	5.26	-41.0	-61.3	3.8	7.47e-01	0	51	104	0	52	39775
2026-01-02 00:39:07.23	22.63	5.34	-41.1	-61.3	3.8	7.44e-01	0	52	104	0	52	39763
2026-01-02 00:39:08.24	22.69	5.41	-41.0	-61.3	3.8	7.46e-01	0	52	104	0	52	39753
2026-01-02 00:39:09.25	22.74	5.48	-41.0	-61.3	3.8	7.49e-01	0	52	104	0	52	39746
2026-01-02 00:39:10.26	22.79	5.56	-41.1	-61.3	3.8	7.47e-01	0	52	104	0	52	39791
2026-01-02 00:39:11.27	22.84	5.63	-41.1	-61.3	3.8	7.46e-01	0	52	104	0	52	39728
2026-01-02 00:39:12.28	22.90	5.70	-41.1	-61.3	3.8	7.44e-01	0	52	104	0	52	39706
2026-01-02 00:39:13.29	22.95	5.78	-41.1	-61.3	3.8	7.45e-01	0	52	104	0	52	39738
2026-01-02 00:39:14.30	23.00	5.85	-41.1	-61.3	3.8	7.45e-01	0	52	104	0	52	39641
2026-01-02 00:39:15.32	23.06	5.93	-41.0	-61.3	3.8	7.47e-01	0	52	104	0	52	39670
2026-01-02 00:39:16.33	23.11	6.00	-41.0	-61.2	3.8	7.44e-01	0	52	104	0	52	39531
2026-01-02 00:39:17.34	23.17	6.08	-41.1	-61.2	3.8	7.45e-01	0	52	104	0	52	39495
2026-01-02 00:39:18.35	23.22	6.15	-41.0	-61.3	3.8	7.45e-01	0	52	104	0	52	39595
2026-01-02 00:39:19.36	23.28	6.23	-41.1	-61.3	3.8	7.44e-01	0	52	104	0	52	39685
2026-01-02 00:39:20.37	23.33	6.30	-41.0	-61.2	3.8	7.47e-01	0	52	104	0	52	39462
2026-01-02 00:39:21.38	23.39	6.38	-41.0	-61.2	3.8	7.44e-01	0	52	104	0	52	39180
2026-01-02 00:39:22.39	23.44	6.46	-41.0	-61.1	3.8	7.45e-01	0	52	104	0	52	38719
2026-01-02 00:39:23.40	23.50	6.53	-41.1	-61.0	3.8	7.48e-01	0	52	104	0	52	38648
2026-01-02 00:39:24.41	23.55	6.61	-41.0	-61.1	3.8	7.45e-01	0	52	104	0	52	38852
2026-01-02 00:39:25.43	23.61	6.69	-41.0	-61.1	3.8	7.44e-01	0	53	104	0	52	38883
2026-01-02 00:39:26.44	23.67	6.76	-41.1	-61.1	3.8	7.46e-01	0	52	104	0	52	38952
2026-01-02 00:39:27.45	23.73	6.84	-41.0	-61.1	3.8	7.43e-01	0	53	104	0	52	38886
2026-01-02 00:39:28.46	23.78	6.92	-41.1	-61.0	3.8	7.45e-01	0	53	104	0	52	38510
2026-01-02 00:39:29.47	23.84	7.00	-41.0	-60.7	3.8	7.44e-01	0	53	104	0	52	37121
2026-01-02 00:39:30.48	23.90	7.07	-41.0	-60.2	3.8	7.41e-01	0	53	104	0	52	35274
2026-01-02 00:39:31.49	23.96	7.15	-41.0	-59.6	3.8	7.43e-01	0	53	104	0	52	32815
2026-01-02 00:39:32.50	24.02	7.23	-41.0	-58.2	4.1	7.39e-01	0	53	104	0	52	27975
2026-01-02 00:39:33.52	24.08	7.31	-40.9	-57.2	3.9	7.37e-01	0	53	104	0	52	24877
2026-01-02 00:39:34.53	24.14	7.39	-40.9	-55.3	5.2	7.04e-01	0	53	104	0	52	19956
2026-01-02 00:39:35.54	24.20	7.47	-40.8	-53.9	6.1	6.79e-01	44	53	0	1048576	52	16994
2026-01-02 00:39:36.55	24.26	7.55	-40.7	-52.3	7.7	6.50e-01	92	53	0	2621440	52	14047
2026-01-02 00:39:37.56	24.32	7.63	-40.5	-50.6	9.3	6.27e-01	0	53	0	4718592	52	11599
2026-01-02 00:39:38.57	24.38	7.71	-40.3	-48.8	11.2	6.09e-01	0	53	0	6815744	52	9490
2026-01-02 00:39:39.58	24.44	7.79	-40.0	-47.1	13.2	6.05e-01	0	53	0	8388608	51	8177
2026-01-02 00:39:40.59	24.50	7.87	-39.5	-45.4	14.9	6.03e-01	0	53	0	10485760	51	6730
2026-01-02 00:39:41.60	24.56	7.95	-39.0	-44.0	16.3	6.04e-01	0	53	0	12058624	50	6080
2026-01-02 00:39:42.61	24.62	8.03	-38.5	-42.9	17.4	6.01e-01	0	53	0	14155776	49	5702
2026-01-02 00:39:43.62	24.69	8.11	-38.5	-42.1	19.1	6.05e-01	0	53	0	16252928	48	5476
2026-01-02 00:39:44.63	24.75	8.19	-39.6	-42.8	19.2	6.02e-01	0	53	0	17825792	49	5655
2026-01-02 00:39:45.64	24.81	8.27	-38.9	-43.7	17.6	6.02e-01	0	53	0	19922944	48	6580
2026-01-02 00:39:46.65	24.88	8.36	-40.6	-49.6	10.6	6.16e-01	0	53	0	21495808	51	10913
2026-01-02 00:39:47.66	24.94	8.44	-38.8	-41.5	20.2	6.04e-01	0	53	0	23592960	49	4860
2026-01-02 00:39:48.67	25.00	8.52	-39.4	-42.1	20.2	6.03e-01	0	53	0	25690112	50	4922
2026-01-02 00:39:49.67	25.07	8.60	-39.3	-41.9	20.4	6.02e-01	0	53	0	27262976	50	4813
2026-01-02 00:39:50.68	25.13	8.69	-39.0	-41.4	20.9	6.03e-01	0	53	0	29360128	50	4544
2026-01-02 00:39:51.69	25.20	8.77	-38.7	-41.1	21.3	6.04e-01	0	53	0	30932992	49	4617
2026-01-02 00:39:52.70	25.27	8.85	-39.0	-41.4	21.0	6.02e-01	0	53	0	33030144	49	4805
2026-01-02 00:39:53.71	25.33	8.94	-39.0	-41.4	21.0	6.04e-01	0	53	0	35127296	49	4814
2026-01-02 00:39:54.72	25.40	9.02	-38.9	-41.2	21.2	6.04e-01	0	54	0	36700160	49	4683
2026-01-02 00:39:55.73	25.46	9.11	-38.9	-41.2	21.3	6.01e-01	0	54	0	38797312	49	4683
2026-01-02 00:39:56.74	25.53	9.19	-38.9	-41.3	21.3	6.05e-01	0	54	0	40894464	49	4727
2026-01-02 00:39:57.75	25.60	9.28	-38.9	-41.3	21.3	6.02e-01	0	53	0	42467328	49	4719
2026-01-02 00:39:58.76	25.67	9.36	-38.9	-41.2	21.4	6.05e-01	0	54	0	44564480	49	4677
2026-01-02 00:39:59.77	25.74	9.45	-39.0	-41.3	21.3	6.03e-01	0	54	0	46137344	49	4745
2026-01-02 00:40:00.78	25.81	9.54	-38.9	-41.1	21.6	6.01e-01	0	54	0	48234496	49	4643
2026-01-02 00:40:01.79	25.88	9.62	-38.9	-41.2	21.5	6.02e-01	0	54	0	50331648	49	4682
2026-01-02 00:40:02.79	25.94	9.71	-38.9	-41.1	21.6	6.04e-01	0	54	0	51904512	49	4638
2026-01-02 00:40:03.80	26.01	9.80	-38.8	-41.0	21.6	6.02e-01	0	54	0	54001664	49	4598
2026-01-02 00:40:04.81	26.09	9.88	-38.9	-41.2	21.6	6.05e-01	0	54	0	56098816	49	4670
2026-01-02 00:40:05.82	26.16	9.97	-38.9	-41.1	21.3	6.02e-01	0	54	0	57671680	49	4624
2026-01-02 00:40:06.84	26.23	10.06	-38.9	-41.1	21.6	6.04e-01	0	54	0	59768832	49	4635
2026-01-02 00:40:07.84	26.30	10.15	-39.0	-41.2	21.5	6.02e-01	0	54	0	61341696	49	4695
2026-01-02 00:40:08.85	26.37	10.24	-39.0	-41.3	21.5	6.02e-01	0	54	0	63438848	49	4708
2026-01-02 00:40:09.87	26.45	10.33	-39.0	-41.2	21.6	6.03e-01	0	54	0	65536000	49	4697
2026-01-02 00:40:10.88	26.52	10.41	-39.0	-41.3	21.5	6.00e-01	0	54	0	67108864	49	4712
2026-01-02 00:40:11.88	26.59	10.50	-38.9	-41.2	21.6	6.01e-01	0	54	0	69206016	49	4666
2026-01-02 00:40:12.89	26.67	10.59	-38.9	-41.1	21.7	6.04e-01	0	54	0	70778880	49	4640
2026-01-02 00:40:13.90	26.74	10.68	-39.0	-41.3	21.5	6.03e-01	0	54	0	72876032	49	4708
2026-01-02 00:40:14.91	26.82	10.77	-38.8	-41.0	21.8	6.02e-01	0	54	0	74973184	49	4569
2026-01-02 00:40:15.92	26.89	10.87	-38.7	-40.8	22.0	6.03e-01	0	54	0	76546048	49	4480
2026-01-02 00:40:16.93	26.97	10.96	-38.7	-40.8	21.9	6.03e-01	0	54	0	78643200	49	4482
2026-01-02 00:40:17.94	27.05	11.05	-38.7	-40.8	22.1	6.04e-01	0	54	0	80216064	49	4464
2026-01-02 00:40:18.95	27.12	11.14	-38.7	-40.8	22.0	6.04e-01	0	54	0	82313216	49	4476
2026-01-02 00:40:19.96	27.20	11.23	-38.7	-40.8	22.1	6.04e-01	0	54	0	84410368	49	4475
2026-01-02 00:40:20.97	27.28	11.33	-38.7	-40.8	22.1	6.01e-01	0	54	0	85983232	49	4471
2026-01-02 00:40:21.98	27.36	11.42	-38.6	-40.7	22.1	6.04e-01	0	54	0	88080384	49	4395
2026-01-02 00:40:22.99	27.44	11.51	-38.6	-40.7	22.2	6.02e-01	0	54	0	89653248	49	4416
2026-01-02 00:40:24.00	27.52	11.61	-38.6	-40.7	22.2	6.04e-01	0	54	0	91750400	49	4403
2026-01-02 00:40:25.01	27.60	11.70	-38.6	-40.7	22.3	6.03e-01	0	54	0	93847552	49	4407
2026-01-02 00:40:26.02	27.68	11.79	-38.5	-40.6	22.3	6.02e-01	0	54	0	95420416	49	4375
2026-01-02 00:40:27.03	27.76	11.89	-38.6	-40.6	22.3	6.02e-01	0	54	0	97517568	49	4380
2026-01-02 00:40:28.04	27.84	11.98	-38.5	-40.6	22.3	6.03e-01	0	54	0	99090432	49	4368
2026-01-02 00:40:29.05	27.92	12.08	-38.5	-40.6	22.4	6.00e-01	0	54	0	101187584	49	4346
2026-01-02 00:40:30.06	28.00	12.18	-38.5	-40.5	22.4	6.02e-01	0	54	0	103284736	48	4572
2026-01-02 00:40:31.07	28.09	12.27	-38.5	-40.5	22.4	6.02e-01	0	54	0	104857600	48	4578
2026-01-02 00:40:32.08	28.17	12.37	-38.5	-40.5	22.4	6.03e-01	0	54	0	106954752	48	4575
2026-01-02 00:40:33.09	28.26	12.47	-38.4	-40.5	22.5	6.03e-01	0	54	0	109051904	48	4553
2026-01-02 00:40:34.10	28.34	12.56	-38.4	-40.4	22.6	6.03e-01	0	54	0	110624768	48	4504
2026-01-02 00:40:35.11	28.43	12.66	-38.3	-40.3	22.7	6.03e-01	0	54	0	112721920	48	4460
2026-01-02 00:40:36.12	28.51	12.76	-38.3	-40.3	22.6	6.04e-01	0	54	0	114294784	48	4466
2026-01-02 00:40:37.13	28.60	12.86	-38.3	-40.3	22.7	6.03e-01	0	55	0	116391936	48	4447
2026-01-02 00:40:38.14	28.69	12.96	-38.2	-40.2	22.7	6.02e-01	0	55	0	118489088	48	4429
2026-01-02 00:40:39.15	28.78	13.06	-38.2	-40.2	22.6	6.02e-01	0	55	0	120061952	48	4409
2026-01-02 00:40:40.16	28.86	13.16	-38.2	-40.2	22.7	6.03e-01	0	55	0	122159104	48	4415
2026-01-02 00:40:41.16	28.95	13.26	-38.2	-40.1	22.8	6.02e-01	0	55	0	124256256	48	4385
2026-01-02 00:40:42.17	29.04	13.36	-38.2	-40.1	22.8	6.03e-01	0	55	0	125829120	48	4384
2026-01-02 00:40:43.18	29.13	13.46	-38.2	-40.2	22.8	6.05e-01	0	55	0	127926272	48	4396
2026-01-02 00:40:44.20	29.23	13.56	-38.2	-40.2	22.7	6.04e-01	0	55	0	129499136	48	4399
2026-01-02 00:40:45.20	29.32	13.66	-38.2	-40.1	22.8	6.02e-01	0	55	0	131596288	48	4382
2026-01-02 00:40:46.21	29.41	13.76	-38.2	-40.2	22.8	6.03e-01	0	55	0	133693440	48	4402
2026-01-02 00:40:47.22	29.50	13.87	-38.1	-40.1	22.9	6.04e-01	0	55	0	135266304	48	4362
2026-01-02 00:40:48.23	29.60	13.97	-38.2	-40.1	22.9	6.03e-01	0	55	0	137363456	48	4364
2026-01-02 00:40:49.24	29.69	14.07	-38.2	-40.1	22.9	6.03e-01	0	55	0	138936320	48	4372
2026-01-02 00:40:50.25	29.78	14.18	-38.1	-40.1	23.0	6.02e-01	0	55	0	141033472	48	4348
2026-01-02 00:40:51.26	29.88	14.28	-38.2	-40.1	22.9	6.02e-01	0	55	0	143130624	48	4372
2026-01-02 00:40:52.27	29.98	14.38	-38.2	-40.1	22.9	6.03e-01	0	55	0	144703488	48	4364
2026-01-02 00:40:53.28	30.07	14.49	-38.2	-40.1	22.9	6.04e-01	0	54	0	146800640	48	4377
2026-01-02 00:40:54.29	30.17	14.60	-38.2	-40.1	23.0	6.05e-01	0	55	0	148373504	48	4382
2026-01-02 00:40:55.30	30.27	14.70	-38.2	-40.1	23.0	6.04e-01	0	55	0	150470656	48	4370
2026-01-02 00:40:56.31	30.37	14.81	-38.1	-40.1	23.0	6.02e-01	0	55	0	152567808	48	4345
2026-01-02 00:40:57.32	30.47	14.92	-38.1	-40.0	23.1	6.03e-01	0	55	0	154140672	48	4313
2026-01-02 00:40:58.33	30.57	15.02	-38.1	-40.0	23.1	6.02e-01	0	55	0	156237824	48	4308
2026-01-02 00:40:59.33	30.67	15.13	-38.0	-39.9	23.2	6.03e-01	0	55	0	157810688	48	4280
2026-01-02 00:41:00.35	30.77	15.24	-38.1	-40.0	23.2	6.02e-01	0	55	0	159907840	48	4296
2026-01-02 00:41:01.35	30.88	15.35	-38.1	-39.9	23.2	6.04e-01	0	55	0	162004992	48	4279
2026-01-02 00:41:02.36	30.98	15.46	-38.1	-40.0	23.1	6.01e-01	0	55	0	163577856	48	4304
2026-01-02 00:41:03.37	31.09	15.57	-38.0	-39.9	23.2	6.01e-01	0	55	0	165675008	48	4259
2026-01-02 00:41:04.38	31.19	15.68	-37.7	-39.5	23.2	6.02e-01	0	55	0	167247872	47	4339
2026-01-02 00:41:05.40	31.30	15.79	-37.6	-39.5	23.3	6.02e-01	0	55	0	169345024	47	4299
2026-01-02 00:41:06.41	31.40	15.90	-37.5	-39.4	23.4	6.03e-01	0	55	0	171442176	47	4256
2026-01-02 00:41:07.42	31.51	16.01	-37.5	-39.3	23.5	6.02e-01	0	55	0	173015040	47	4230
2026-01-02 00:41:08.43	31.62	16.12	-37.5	-39.3	23.5	6.03e-01	0	55	0	175112192	46	4460
2026-01-02 00:41:09.44	31.73	16.24	-37.5	-39.3	23.4	6.03e-01	0	55	0	177209344	46	4466
2026-01-02 00:41:10.45	31.84	16.35	-37.5	-39.3	23.5	6.01e-01	0	55	0	178782208	46	4480
2026-01-02 00:41:11.46	31.95	16.46	-37.5	-39.4	23.4	6.01e-01	0	55	0	180879360	46	4516
2026-01-02 00:41:12.47	32.06	16.58	-37.6	-39.4	23.4	6.04e-01	0	55	0	182452224	46	4527
2026-01-02 00:41:13.48	32.18	16.69	-37.6	-39.4	23.3	6.04e-01	0	55	0	184549376	46	4537
2026-01-02 00:41:14.49	32.29	16.81	-37.6	-39.5	23.3	6.04e-01	0	55	0	186646528	46	4554
2026-01-02 00:41:15.50	32.41	16.92	-37.6	-39.4	23.4	6.00e-01	0	55	0	188219392	46	4523
2026-01-02 00:41:16.51	32.52	17.04	-37.5	-39.3	23.4	6.04e-01	0	55	0	190316544	46	4490
2026-01-02 00:41:17.52	32.64	17.15	-37.5	-39.4	23.4	6.01e-01	0	55	0	192413696	46	4502
2026-01-02 00:41:18.53	32.76	17.27	-37.5	-39.4	23.4	6.03e-01	0	55	0	193986560	46	4508
2026-01-02 00:41:19.54	32.87	17.39	-37.6	-39.4	23.4	6.02e-01	0	55	0	196083712	46	4528
2026-01-02 00:41:20.55	32.99	17.51	-37.6	-39.5	23.3	6.03e-01	0	55	0	197656576	46	4570
2026-01-02 00:41:21.55	33.11	17.62	-37.6	-39.5	23.3	6.03e-01	0	55	0	199753728	46	4563
2026-01-02 00:41:22.56	33.23	17.74	-37.6	-39.5	23.4	6.04e-01	0	55	0	201850880	46	4574
2026-01-02 00:41:23.57	33.36	17.86	-37.6	-39.5	23.3	6.03e-01	0	55	0	203423744	46	4547
2026-01-02 00:41:24.58	33.48	17.98	-37.6	-39.4	23.4	6.02e-01	0	55	0	205520896	46	4522
2026-01-02 00:41:25.59	33.60	18.10	-37.5	-39.4	23.5	6.03e-01	0	55	0	207093760	46	4495
2026-01-02 00:41:26.60	33.73	18.23	-37.5	-39.4	23.5	6.04e-01	0	55	0	209190912	46	4513
2026-01-02 00:41:27.61	33.85	18.35	-37.5	-39.4	23.5	6.02e-01	0	55	0	210763776	46	4496
2026-01-02 00:41:28.62	33.98	18.47	-37.6	-39.4	23.4	6.01e-01	0	55	0	212860928	46	4515
2026-01-02 00:41:29.63	34.11	18.59	-37.6	-39.4	23.4	6.03e-01	0	55	0	214958080	46	4535
2026-01-02 00:41:30.64	34.24	18.72	-37.7	-39.5	23.3	6.02e-01	0	55	0	216530944	46	4577
2026-01-02 00:41:31.65	34.37	18.84	-37.6	-39.4	23.5	6.03e-01	0	55	0	218628096	46	4543
2026-01-02 00:41:32.66	34.50	18.97	-37.6	-39.5	23.4	6.03e-01	0	55	0	220725248	46	4547
2026-01-02 00:41:33.67	34.63	19.09	-37.5	-39.4	23.5	6.01e-01	0	55	0	222298112	46	4494
2026-01-02 00:41:34.68	34.77	19.22	-37.5	-39.3	23.6	6.04e-01	0	55	0	224395264	46	4483
2026-01-02 00:41:35.69	34.90	19.34	-37.5	-39.3	23.6	6.03e-01	0	55	0	225968128	46	4472
2026-01-02 00:41:36.70	35.04	19.47	-37.5	-39.3	23.7	6.01e-01	0	55	0	228065280	46	4448
2026-01-02 00:41:37.71	35.18	19.60	-37.6	-39.4	23.5	6.04e-01	0	55	0	230162432	46	4516
2026-01-02 00:41:38.72	35.32	19.72	-37.6	-39.5	23.5	6.04e-01	0	55	0	231735296	46	4551
2026-01-02 00:41:39.73	35.45	19.85	-37.7	-39.5	23.4	6.04e-01	0	56	0	233832448	46	4592
2026-01-02 00:41:40.74	35.60	19.98	-37.7	-39.6	23.3	5.99e-01	0	56	0	235405312	46	4622
2026-01-02 00:41:41.75	35.74	20.11	-37.8	-39.7	23.3	6.04e-01	0	55	0	237502464	46	4660
2026-01-02 00:41:42.76	35.88	20.24	-37.8	-39.6	23.3	6.02e-01	0	55	0	239599616	46	4648
2026-01-02 00:41:43.76	36.02	20.37	-37.8	-39.6	23.3	6.03e-01	0	55	0	241172480	46	4638
2026-01-02 00:41:44.78	36.17	20.50	-37.8	-39.7	23.3	6.01e-01	0	55	0	243269632	46	4674
2026-01-02 00:41:45.78	36.32	20.64	-37.9	-39.7	23.2	6.02e-01	0	56	0	245366784	46	4701
2026-01-02 00:41:46.79	36.47	20.77	-37.9	-39.9	23.1	6.03e-01	0	55	0	246939648	46	4760
2026-01-02 00:41:47.80	36.62	20.90	-37.9	-39.8	23.2	6.03e-01	0	55	0	249036800	46	4714
2026-01-02 00:41:48.81	36.77	21.03	-37.8	-39.6	23.3	6.02e-01	0	55	0	250609664	46	4651
2026-01-02 00:41:49.82	36.92	21.17	-37.6	-39.4	23.5	6.04e-01	0	55	0	252706816	46	4535
2026-01-02 00:41:50.83	37.07	21.30	-37.6	-39.4	23.6	6.03e-01	0	56	0	254803968	46	4502
2026-01-02 00:41:51.84	37.23	21.44	-37.6	-39.4	23.6	6.04e-01	0	56	0	256376832	46	4533
2026-01-02 00:41:52.85	37.38	21.58	-37.7	-39.6	23.4	6.04e-01	0	55	0	258473984	46	4607
2026-01-02 00:41:53.86	37.54	21.71	-37.8	-39.6	23.4	6.05e-01	0	55	0	260046848	46	4623
2026-01-02 00:41:54.87	37.70	21.85	-37.8	-39.7	23.3	6.02e-01	0	55	0	262144000	46	4676
2026-01-02 00:41:55.88	37.86	21.99	-37.8	-39.7	23.3	6.04e-01	0	56	0	264241152	46	4673
2026-01-02 00:41:56.89	38.02	22.13	-37.8	-39.6	23.4	6.04e-01	0	56	0	265814016	46	4637
2026-01-02 00:41:57.90	38.19	22.27	-37.7	-39.6	23.4	6.04e-01	0	55	0	267911168	46	4621
2026-01-02 00:41:58.91	38.35	22.41	-37.8	-39.6	23.4	6.03e-01	0	56	0	269484032	46	4618
2026-01-02 00:41:59.92	38.52	22.55	-37.8	-39.6	23.4	6.04e-01	0	56	0	271581184	46	4651
2026-01-02 00:42:00.93	38.69	22.69	-37.8	-39.6	23.4	6.01e-01	0	56	0	273678336	46	4613
2026-01-02 00:42:01.94	38.86	22.83	-37.7	-39.6	23.4	6.03e-01	0	56	0	275251200	46	4610
2026-01-02 00:42:02.95	39.03	22.97	-37.8	-39.6	23.4	6.01e-01	0	56	0	277348352	46	4623
2026-01-02 00:42:03.96	39.20	23.11	-37.8	-39.6	23.4	6.04e-01	0	56	0	278921216	46	4647
2026-01-02 00:42:04.97	39.38	23.26	-37.8	-39.6	23.4	6.02e-01	0	56	0	281018368	46	4631
2026-01-02 00:42:05.98	39.56	23.40	-37.7	-39.5	23.5	6.02e-01	0	56	0	283115520	46	4581
2026-01-02 00:42:06.99	39.73	23.55	-37.6	-39.4	23.6	6.01e-01	0	56	0	284688384	46	4541
2026-01-02 00:42:08.00	39.91	23.69	-37.7	-39.6	23.5	6.03e-01	0	56	0	286785536	46	4600
2026-01-02 00:42:09.01	40.09	23.84	-37.8	-39.6	23.4	6.01e-01	0	56	0	288882688	46	4649
2026-01-02 00:42:10.02	40.28	23.98	-37.8	-39.6	23.4	6.03e-01	0	56	0	290455552	46	4633
2026-01-02 00:42:11.03	40.46	24.13	-37.7	-39.5	23.5	6.05e-01	0	56	0	292552704	46	4569
2026-01-02 00:42:12.04	40.65	24.28	-37.7	-39.5	23.6	6.02e-01	0	56	0	294125568	46	4552
2026-01-02 00:42:13.05	40.84	24.43	-37.7	-39.5	23.5	6.03e-01	0	56	0	296222720	46	4579
2026-01-02 00:42:14.06	41.03	24.58	-37.7	-39.5	22.8	6.01e-01	0	56	0	298319872	46	4583
2026-01-02 00:42:15.07	41.22	24.73	-37.7	-39.6	23.5	6.05e-01	0	56	0	299892736	46	4612
2026-01-02 00:42:16.08	41.42	24.88	-37.8	-39.7	23.4	6.03e-01	0	56	0	301989888	46	4653
2026-01-02 00:42:17.09	41.61	25.03	-37.9	-39.7	23.3	6.02e-01	0	56	0	303562752	46	4694
2026-01-02 00:42:18.10	41.81	25.18	-37.8	-39.6	23.5	6.03e-01	0	56	0	305659904	46	4631
2026-01-02 00:42:19.11	42.01	25.33	-37.7	-39.5	23.6	6.02e-01	0	56	0	307757056	46	4567
2026-01-02 00:42:20.12	42.21	25.48	-37.7	-39.5	23.6	6.04e-01	0	56	0	309329920	46	4548
2026-01-02 00:42:21.13	42.42	25.64	-37.8	-39.6	23.5	6.04e-01	0	56	0	311427072	46	4625
2026-01-02 00:42:22.14	42.62	25.79	-37.8	-39.7	23.4	6.05e-01	0	56	0	313524224	46	4658
2026-01-02 00:42:23.15	42.83	25.95	-37.8	-39.6	23.5	6.02e-01	0	56	0	315097088	46	4612
2026-01-02 00:42:24.15	43.04	26.10	-37.7	-39.5	23.6	6.03e-01	0	56	0	317194240	46	4585
2026-01-02 00:42:25.16	43.25	26.25	-37.8	-39.6	23.5	6.02e-01	0	56	0	318767104	46	4618
2026-01-02 00:42:26.17	43.46	26.41	-37.9	-39.7	23.4	6.04e-01	0	56	0	320864256	46	4670
2026-01-02 00:42:27.18	43.68	26.57	-37.8	-39.7	23.4	6.03e-01	0	56	0	322961408	46	4673
2026-01-02 00:42:28.19	43.90	26.72	-37.8	-39.6	23.6	6.03e-01	0	56	0	324534272	46	4606
2026-01-02 00:42:29.20	44.12	26.88	-37.7	-39.5	23.6	6.01e-01	0	56	0	326631424	46	4576
2026-01-02 00:42:30.21	44.34	27.04	-37.8	-39.6	23.6	6.01e-01	0	56	0	328728576	46	4606
2026-01-02 00:42:31.22	44.57	27.20	-37.7	-39.5	23.6	6.04e-01	0	56	0	330301440	46	4588
2026-01-02 00:42:32.23	44.80	27.36	-37.7	-39.5	23.7	6.03e-01	0	56	0	332398592	46	4558
2026-01-02 00:42:33.24	45.03	27.52	-37.7	-39.5	23.6	6.03e-01	0	56	0	333971456	46	4594
2026-01-02 00:42:34.25	45.26	27.68	-37.8	-39.6	23.5	6.04e-01	0	56	0	336068608	46	4626
2026-01-02 00:42:35.26	45.49	27.84	-37.7	-39.5	23.6	6.03e-01	0	56	0	337641472	46	4591
2026-01-02 00:42:36.27	45.73	28.00	-37.7	-39.5	23.7	6.03e-01	0	56	0	339738624	46	4559
2026-01-02 00:42:37.27	45.97	28.16	-37.7	-39.5	23.6	6.05e-01	0	56	0	341835776	46	4586
2026-01-02 00:42:38.29	46.21	28.33	-37.7	-39.5	23.6	6.03e-01	0	56	0	343408640	46	4580
2026-01-02 00:42:39.30	46.46	28.49	-37.7	-39.5	23.6	6.03e-01	0	56	0	345505792	46	4581
2026-01-02 00:42:40.31	46.70	28.66	-37.6	-39.4	23.8	6.02e-01	0	56	0	347078656	46	4515
2026-01-02 00:42:41.32	46.95	28.82	-37.5	-39.3	23.8	6.01e-01	0	56	0	349175808	46	4457
2026-01-02 00:42:42.33	47.21	28.99	-37.6	-39.4	23.7	6.02e-01	0	56	0	351272960	46	4534
2026-01-02 00:42:43.34	47.46	29.15	-37.7	-39.5	23.6	6.03e-01	0	56	0	352845824	46	4595
2026-01-02 00:42:44.35	47.72	29.32	-37.7	-39.4	23.7	6.02e-01	0	56	0	354942976	46	4540
2026-01-02 00:42:45.36	47.98	29.48	-37.7	-39.5	23.6	6.05e-01	0	56	0	357040128	46	4559
2026-01-02 00:42:46.36	48.24	29.65	-37.6	-39.4	23.7	6.02e-01	0	56	0	358612992	46	4527
2026-01-02 00:42:47.37	48.51	29.81	-37.7	-39.5	23.7	6.02e-01	0	56	0	360710144	46	4551
2026-01-02 00:42:48.38	48.78	29.98	-37.6	-39.4	23.7	6.01e-01	0	56	0	362283008	46	4533
2026-01-02 00:42:49.39	49.05	30.15	-37.7	-39.5	23.6	6.03e-01	0	56	0	364380160	46	4597
2026-01-02 00:42:50.40	49.32	30.32	-37.6	-39.4	23.7	6.02e-01	0	56	0	366477312	46	4533
2026-01-02 00:42:51.41	49.60	30.49	-37.5	-39.3	23.8	6.01e-01	0	56	0	368050176	46	4469
2026-01-02 00:42:52.42	49.88	30.65	-37.7	-39.5	23.7	6.03e-01	0	56	0	370147328	46	4557
2026-01-02 00:42:53.43	50.16	30.82	-37.8	-39.6	23.5	6.04e-01	0	56	0	371720192	46	4639
2026-01-02 00:42:54.44	50.45	30.99	-37.7	-39.5	23.6	6.02e-01	0	56	0	373817344	46	4585
2026-01-02 00:42:55.45	50.74	31.16	-37.7	-39.5	23.7	6.04e-01	0	56	0	375914496	46	4580
2026-01-02 00:42:56.46	51.03	31.33	-37.7	-39.5	23.6	6.04e-01	0	56	0	377487360	46	4588
2026-01-02 00:42:57.47	51.33	31.50	-37.6	-39.4	23.7	6.03e-01	0	56	0	379584512	46	4523
2026-01-02 00:42:58.48	51.63	31.67	-37.8	-39.6	23.6	6.03e-01	0	56	0	381681664	46	4601
2026-01-02 00:42:59.49	51.93	31.85	-37.9	-39.7	23.5	6.01e-01	0	56	0	383254528	46	4690
2026-01-02 00:43:00.50	52.24	32.02	-37.8	-39.6	23.6	6.01e-01	0	56	0	385351680	46	4625
2026-01-02 00:43:01.51	52.55	32.19	-37.6	-39.4	23.8	6.00e-01	0	56	0	386924544	46	4522
2026-01-02 00:43:02.52	52.86	32.36	-37.9	-39.7	23.5	6.01e-01	0	56	0	389021696	46	4694
2026-01-02 00:43:03.53	53.17	32.53	-38.0	-39.9	23.4	6.02e-01	0	56	0	391118848	46	4760
2026-01-02 00:43:04.54	53.49	32.70	-37.7	-39.5	23.7	6.04e-01	0	56	0	392691712	46	4550
2026-01-02 00:43:05.55	53.81	32.87	-37.8	-39.6	23.6	6.03e-01	0	56	0	394788864	46	4607
2026-01-02 00:43:06.56	54.14	33.05	-38.0	-39.8	23.4	6.04e-01	0	56	0	396886016	46	4728
2026-01-02 00:43:07.57	54.47	33.22	-38.0	-39.8	23.4	6.03e-01	0	56	0	398458880	46	4737
2026-01-02 00:43:08.58	54.80	33.39	-37.9	-39.7	23.5	6.02e-01	0	56	0	400556032	46	4676
2026-01-02 00:43:09.59	55.14	33.56	-37.9	-39.8	23.5	6.03e-01	0	56	0	402128896	46	4713
2026-01-02 00:43:10.60	55.48	33.73	-38.0	-39.9	23.4	5.99e-01	0	56	0	404226048	46	4762
2026-01-02 00:43:11.61	55.82	33.91	-38.1	-39.9	23.3	6.02e-01	0	56	0	406323200	46	4801
2026-01-02 00:43:12.63	56.17	34.08	-38.0	-39.9	23.4	6.04e-01	0	56	0	407896064	46	4769
2026-01-02 00:43:13.64	56.53	34.25	-38.0	-39.9	23.4	6.01e-01	0	56	0	409993216	46	4768
2026-01-02 00:43:14.65	56.88	34.42	-38.2	-40.0	23.2	6.02e-01	0	56	0	411566080	46	4864
2026-01-02 00:43:15.66	57.24	34.59	-38.3	-40.2	23.0	6.03e-01	0	56	0	413663232	47	4662
2026-01-02 00:43:16.66	57.60	34.76	-38.2	-40.0	23.2	6.05e-01	0	56	0	415760384	47	4593
2026-01-02 00:43:17.67	57.97	34.94	-38.2	-40.1	23.2	6.03e-01	0	56	0	417333248	47	4609
2026-01-02 00:43:18.68	58.34	35.11	-38.2	-40.1	23.1	6.02e-01	0	56	0	419430400	47	4637
2026-01-02 00:43:19.69	58.71	35.28	-38.1	-40.0	23.3	6.03e-01	0	56	0	421003264	47	4555
2026-01-02 00:43:20.70	59.09	35.45	-38.3	-40.2	23.1	6.04e-01	0	56	0	423100416	47	4681
2026-01-02 00:43:21.71	59.47	35.62	-38.2	-40.1	23.1	6.02e-01	0	56	0	425197568	47	4637
2026-01-02 00:43:22.72	59.86	35.78	-38.3	-40.1	23.1	6.03e-01	0	56	0	426770432	47	4646
2026-01-02 00:43:23.73	60.25	35.95	-38.3	-40.3	23.0	6.04e-01	0	56	0	428867584	47	4713
2026-01-02 00:43:24.74	60.64	36.12	-38.0	-39.9	23.4	6.04e-01	0	56	0	430440448	47	4503
2026-01-02 00:43:25.75	61.04	36.29	-38.1	-40.0	23.3	6.01e-01	0	56	0	432537600	47	4555
2026-01-02 00:43:26.76	61.45	36.46	-38.2	-40.0	23.3	6.03e-01	0	56	0	434634752	47	4597
2026-01-02 00:43:27.77	61.85	36.62	-38.2	-40.0	23.2	6.04e-01	0	56	0	436207616	47	4596
2026-01-02 00:43:28.78	62.26	36.79	-38.3	-40.2	23.1	6.03e-01	0	56	0	438304768	47	4662
2026-01-02 00:43:29.79	62.68	36.95	-38.1	-40.0	23.3	6.03e-01	0	56	0	439877632	47	4556
2026-01-02 00:43:30.80	63.10	37.12	-38.3	-40.2	23.0	6.03e-01	0	56	0	441974784	47	4700
2026-01-02 00:43:31.81	63.52	37.28	-38.1	-40.0	23.3	6.03e-01	0	56	0	444071936	47	4566
2026-01-02 00:43:32.82	63.95	37.44	-38.2	-40.1	23.2	6.03e-01	0	56	0	445644800	47	4638
2026-01-02 00:43:33.83	64.39	37.61	-38.3	-40.2	23.0	6.03e-01	0	56	0	447741952	47	4704
2026-01-02 00:43:34.84	64.82	37.77	-38.2	-40.0	23.3	6.03e-01	0	56	0	449839104	47	4589
2026-01-02 00:43:35.85	65.27	37.93	-38.1	-40.0	23.3	6.03e-01	0	56	0	451411968	47	4553
2026-01-02 00:43:36.86	65.71	38.08	-38.4	-40.3	23.0	6.01e-01	0	56	0	453509120	47	4741
2026-01-02 00:43:37.87	66.16	38.24	-38.1	-40.0	23.3	6.01e-01	0	56	0	455081984	47	4573
2026-01-02 00:43:38.88	66.62	38.40	-38.0	-39.9	23.4	6.01e-01	0	56	0	457179136	47	4510
2026-01-02 00:43:39.89	67.08	38.55	-38.2	-40.1	23.2	6.01e-01	0	56	0	459276288	47	4639
2026-01-02 00:43:40.90	67.54	38.71	-38.1	-39.9	23.4	6.04e-01	0	56	0	460849152	47	4525
2026-01-02 00:43:41.91	68.01	38.86	-38.0	-39.9	23.5	6.03e-01	0	56	0	462946304	47	4498
2026-01-02 00:43:42.92	68.48	39.01	-38.1	-39.9	23.4	6.02e-01	0	56	0	465043456	47	4527
2026-01-02 00:43:43.93	68.96	39.16	-38.1	-40.0	23.4	6.04e-01	0	56	0	466616320	47	4557
2026-01-02 00:43:44.94	69.44	39.31	-38.0	-39.8	23.5	6.03e-01	0	56	0	468713472	47	4481
2026-01-02 00:43:45.95	69.93	39.46	-37.9	-39.7	23.6	6.04e-01	0	56	0	470286336	47	4402
2026-01-02 00:43:46.96	70.42	39.60	-38.0	-39.8	23.5	6.03e-01	0	56	0	472383488	47	4465
2026-01-02 00:43:47.97	70.91	39.74	-38.1	-39.9	23.4	6.02e-01	0	56	0	474480640	47	4534
2026-01-02 00:43:48.98	71.41	39.89	-37.9	-39.7	23.5	6.03e-01	0	56	0	476053504	47	4424
2026-01-02 00:43:49.99	71.92	40.03	-37.7	-39.5	23.8	6.04e-01	0	56	0	478150656	47	4312
2026-01-02 00:43:50.99	72.42	40.16	-37.9	-39.8	23.6	6.04e-01	0	56	0	479723520	47	4442
2026-01-02 00:43:52.00	72.93	40.30	-37.8	-39.6	23.7	6.04e-01	0	56	0	481820672	47	4369
2026-01-02 00:43:53.01	73.45	40.43	-37.8	-39.6	23.7	6.01e-01	0	56	0	483917824	47	4368
2026-01-02 00:43:54.02	73.97	40.56	-37.7	-39.4	23.9	6.02e-01	0	56	0	485490688	47	4276
2026-01-02 00:43:55.03	74.49	40.69	-37.8	-39.6	23.7	6.03e-01	0	56	0	487587840	47	4362
2026-01-02 00:43:56.04	75.02	40.82	-37.6	-39.4	23.9	6.02e-01	0	56	0	489160704	47	4247
2026-01-02 00:43:57.05	75.56	40.95	-37.9	-39.7	23.6	6.05e-01	0	56	0	491257856	47	4420
2026-01-02 00:43:58.06	76.10	41.07	-37.6	-39.3	23.9	6.02e-01	0	56	0	493355008	47	4232
2026-01-02 00:43:59.07	76.64	41.19	-37.6	-39.3	24.0	6.02e-01	0	56	0	494927872	47	4213
2026-01-02 00:44:00.08	77.19	41.31	-37.7	-39.4	23.9	6.05e-01	0	56	0	497025024	47	4289
2026-01-02 00:44:01.09	77.74	41.43	-37.7	-39.4	23.9	6.03e-01	0	57	0	498597888	47	4273
2026-01-02 00:44:02.10	78.29	41.54	-37.6	-39.4	23.9	6.03e-01	0	57	0	500695040	47	4260
2026-01-02 00:44:03.11	78.85	41.65	-37.5	-39.2	24.1	6.03e-01	0	56	0	502792192	47	4170
2026-01-02 00:44:04.12	79.41	41.76	-37.7	-39.5	23.9	6.02e-01	0	57	0	504365056	46	4564
2026-01-02 00:44:05.13	79.98	41.87	-37.5	-39.2	24.1	6.03e-01	0	57	0	506462208	46	4405
2026-01-02 00:44:06.14	80.55	41.97	-37.7	-39.4	23.9	6.04e-01	0	56	0	508035072	46	4544
2026-01-02 00:44:07.15	81.12	42.07	-37.6	-39.4	23.9	6.02e-01	0	56	0	510132224	46	4511
2026-01-02 00:44:08.16	81.70	42.17	-37.6	-39.4	24.0	6.04e-01	0	56	0	512229376	46	4521
2026-01-02 00:44:09.17	82.28	42.26	-37.5	-39.2	24.1	6.02e-01	0	56	0	513802240	46	4441
2026-01-02 00:44:10.18	82.86	42.36	-37.4	-39.1	24.2	6.01e-01	0	56	0	515899392	46	4375
2026-01-02 00:44:11.18	83.44	42.44	-37.6	-39.4	24.0	6.02e-01	0	57	0	517996544	46	4494
2026-01-02 00:44:12.19	84.03	42.53	-37.5	-39.2	24.1	6.04e-01	0	56	0	519569408	46	4420
2026-01-02 00:44:13.20	84.63	42.61	-37.6	-39.4	23.9	6.03e-01	0	56	0	521666560	46	4501
2026-01-02 00:44:14.21	85.22	42.69	-37.5	-39.3	24.1	6.03e-01	0	56	0	523239424	46	4450
2026-01-02 00:44:15.22	85.82	42.77	-37.6	-39.3	24.0	6.03e-01	0	56	0	525336576	46	4475
2026-01-02 00:44:16.23	86.43	42.84	-37.6	-39.3	24.0	6.03e-01	0	56	0	527433728	46	4488
2026-01-02 00:44:17.24	87.03	42.91	-37.7	-39.5	23.8	6.03e-01	0	56	0	529006592	46	4562
2026-01-02 00:44:18.25	87.64	42.98	-37.5	-39.2	24.1	6.02e-01	0	57	0	531103744	46	4422
2026-01-02 00:44:19.26	88.25	43.04	-37.7	-39.5	23.9	6.04e-01	0	57	0	532676608	46	4556
2026-01-02 00:44:20.27	88.86	43.10	-37.6	-39.3	24.1	6.02e-01	0	56	0	534773760	46	4464
2026-01-02 00:44:21.28	89.48	43.16	-37.7	-39.4	23.9	6.04e-01	0	56	0	536870912	46	4519
2026-01-02 00:44:22.29	90.09	43.21	-37.7	-39.5	23.7	6.02e-01	0	56	0	538443776	46	4580
2026-01-02 00:44:23.29	90.71	43.26	-37.6	-39.3	24.1	6.02e-01	0	57	0	540540928	46	4464
2026-01-02 00:44:24.31	91.33	43.30	-37.6	-39.3	24.0	6.04e-01	0	56	0	542113792	46	4464
2026-01-02 00:44:25.32	91.96	43.34	-37.5	-39.2	24.2	6.01e-01	0	56	0	544210944	46	4418
2026-01-02 00:44:26.33	92.58	43.38	-37.5	-39.2	24.1	6.03e-01	0	57	0	546308096	46	4433
2026-01-02 00:44:27.34	93.21	43.42	-37.6	-39.4	23.9	6.04e-01	0	56	0	547880960	46	4522
2026-01-02 00:44:28.35	93.83	43.45	-37.5	-39.2	24.1	6.02e-01	0	56	0	549978112	46	4439
2026-01-02 00:44:29.36	94.46	43.48	-37.4	-39.1	24.3	6.04e-01	0	57	0	551550976	46	4376
2026-01-02 00:44:30.37	95.09	43.50	-37.7	-39.4	24.0	6.03e-01	0	56	0	553648128	46	4537
2026-01-02 00:44:31.38	95.72	43.52	-37.4	-39.1	24.2	6.03e-01	0	57	0	555745280	46	4384
2026-01-02 00:44:32.39	96.35	43.53	-37.6	-39.4	24.0	6.02e-01	0	57	0	557318144	46	4499
2026-01-02 00:44:33.40	96.98	43.55	-37.5	-39.2	24.1	6.02e-01	0	56	0	559415296	46	4404
2026-01-02 00:44:34.41	97.62	43.56	-37.7	-39.4	23.9	6.02e-01	0	56	0	561512448	46	4541
2026-01-02 00:44:35.42	98.25	43.56	-37.7	-39.5	23.9	6.04e-01	0	56	0	563085312	46	4566
2026-01-02 00:44:36.43	98.88	43.56	-37.6	-39.4	24.0	6.04e-01	0	57	0	565182464	46	4495
2026-01-02 00:44:37.43	99.51	43.56	-37.7	-39.4	23.9	6.04e-01	0	56	0	566755328	46	4531
2026-01-02 00:44:38.44	100.14	43.55	-37.7	-39.4	24.0	6.03e-01	0	57	0	568852480	46	4523
2026-01-02 00:44:39.45	100.77	43.54	-37.7	-39.5	23.9	6.05e-01	0	57	0	570949632	46	4569
2026-01-02 00:44:40.46	101.40	43.53	-37.7	-39.5	24.0	6.02e-01	0	57	0	572522496	46	4551
2026-01-02 00:44:41.47	102.03	43.51	-37.6	-39.3	24.1	6.02e-01	0	57	0	574619648	46	4482
2026-01-02 00:44:42.48	102.66	43.49	-37.7	-39.5	23.9	6.03e-01	0	56	0	576192512	46	4548
2026-01-02 00:44:43.49	103.29	43.46	-37.7	-39.4	24.0	6.06e-01	0	57	0	578289664	46	4527
2026-01-02 00:44:44.50	103.92	43.44	-37.6	-39.3	24.1	6.03e-01	0	57	0	580386816	46	4484
2026-01-02 00:44:45.51	104.55	43.40	-37.8	-39.5	23.8	6.03e-01	0	57	0	581959680	46	4585
2026-01-02 00:44:46.52	105.17	43.37	-37.7	-39.4	24.0	6.01e-01	0	56	0	584056832	46	4529
2026-01-02 00:44:47.53	105.80	43.33	-37.8	-39.5	23.8	6.01e-01	0	57	0	586153984	46	4597
2026-01-02 00:44:48.54	106.42	43.28	-37.8	-39.6	23.8	6.03e-01	0	56	0	587726848	46	4604
2026-01-02 00:44:49.55	107.04	43.24	-37.7	-39.5	23.9	6.03e-01	0	56	0	589824000	46	4575
2026-01-02 00:44:50.56	107.66	43.19	-37.8	-39.6	23.8	6.04e-01	0	56	0	591396864	46	4628
2026-01-02 00:44:51.57	108.27	43.13	-37.9	-39.6	23.8	6.03e-01	0	57	0	593494016	46	4642
2026-01-02 00:44:52.58	108.89	43.07	-37.8	-39.6	23.8	6.02e-01	0	57	0	595591168	46	4617
2026-01-02 00:44:53.59	109.50	43.01	-37.9	-39.7	23.7	6.04e-01	0	56	0	597164032	46	4696
2026-01-02 00:44:54.60	110.11	42.95	-37.8	-39.6	23.8	6.02e-01	0	56	0	599261184	46	4627
2026-01-02 00:44:55.61	110.72	42.88	-37.9	-39.7	23.8	6.03e-01	0	56	0	600834048	46	4661
2026-01-02 00:44:56.62	111.32	42.81	-38.0	-39.8	23.6	6.04e-01	0	56	0	602931200	46	4745
2026-01-02 00:44:57.63	111.93	42.73	-37.9	-39.6	23.8	6.03e-01	0	56	0	605028352	46	4646
2026-01-02 00:44:58.64	112.52	42.66	-38.0	-39.8	23.6	6.03e-01	0	56	0	606601216	46	4750
2026-01-02 00:44:59.65	113.12	42.58	-38.0	-39.9	23.6	6.03e-01	0	57	0	608698368	46	4761
2026-01-02 00:45:00.66	113.71	42.49	-37.9	-39.7	23.7	6.02e-01	0	56	0	610271232	46	4676
2026-01-02 00:45:01.67	114.30	42.40	-37.9	-39.7	23.7	6.03e-01	0	57	0	612368384	46	4702
2026-01-02 00:45:02.68	114.89	42.31	-38.0	-39.8	23.6	6.04e-01	0	57	0	614465536	46	4726
2026-01-02 00:45:03.69	115.47	42.22	-37.9	-39.7	23.6	6.01e-01	0	57	0	616038400	46	4695
2026-01-02 00:45:04.70	116.05	42.12	-37.9	-39.7	23.7	6.05e-01	0	57	0	618135552	46	4661
2026-01-02 00:45:05.71	116.63	42.03	-38.0	-39.8	23.6	6.04e-01	0	56	0	620232704	46	4734
2026-01-02 00:45:06.72	117.20	41.92	-37.8	-39.6	23.8	6.02e-01	0	57	0	621805568	46	4630
2026-01-02 00:45:07.73	117.77	41.82	-38.1	-40.0	23.5	6.02e-01	0	57	0	623902720	46	4816
2026-01-02 00:45:08.74	118.34	41.71	-38.1	-39.9	23.5	6.02e-01	0	57	0	625475584	46	4783
2026-01-02 00:45:09.75	118.90	41.60	-38.0	-39.8	23.7	6.02e-01	0	57	0	627572736	46	4711
2026-01-02 00:45:10.76	119.46	41.49	-38.1	-39.9	23.5	6.02e-01	0	57	0	629669888	46	4776
2026-01-02 00:45:11.77	120.01	41.37	-38.2	-40.1	23.4	6.04e-01	0	57	0	631242752	46	4871
2026-01-02 00:45:12.78	120.56	41.26	-38.1	-39.9	23.5	6.03e-01	0	56	0	633339904	46	4792
2026-01-02 00:45:13.79	121.11	41.13	-38.2	-40.0	23.4	6.05e-01	0	56	0	634912768	47	4595
2026-01-02 00:45:14.79	121.64	41.01	-38.1	-39.9	23.5	6.04e-01	0	57	0	637009920	47	4523
2026-01-02 00:45:15.81	122.19	40.89	-38.3	-40.2	23.2	6.04e-01	0	56	0	639107072	47	4654
2026-01-02 00:45:16.82	122.72	40.76	-38.1	-39.9	23.5	6.03e-01	0	57	0	640679936	47	4544
2026-01-02 00:45:17.83	123.25	40.63	-38.1	-39.9	23.5	6.04e-01	0	57	0	642777088	47	4523
2026-01-02 00:45:18.83	123.77	40.50	-38.2	-40.0	23.4	6.04e-01	0	57	0	644349952	47	4592
2026-01-02 00:45:19.84	124.29	40.37	-38.2	-40.0	23.4	6.02e-01	0	57	0	646447104	47	4569
2026-01-02 00:45:20.85	124.81	40.23	-38.3	-40.2	23.1	6.04e-01	0	57	0	648544256	47	4675
2026-01-02 00:45:21.86	125.32	40.09	-38.2	-40.0	23.4	6.04e-01	0	57	0	650117120	47	4581
2026-01-02 00:45:22.87	125.83	39.95	-38.0	-39.8	23.6	6.02e-01	0	57	0	652214272	47	4480
2026-01-02 00:45:23.88	126.33	39.81	-38.2	-40.0	23.3	6.02e-01	0	57	0	654311424	47	4593
2026-01-02 00:45:24.89	126.83	39.67	-38.2	-40.0	23.4	6.03e-01	0	57	0	655884288	47	4589
2026-01-02 00:45:25.90	127.32	39.53	-38.2	-40.0	23.3	6.02e-01	0	57	0	657981440	47	4579
2026-01-02 00:45:26.91	127.81	39.38	-38.3	-40.2	23.2	6.03e-01	0	57	0	659554304	47	4692
2026-01-02 00:45:27.92	128.30	39.23	-38.2	-40.0	23.4	6.04e-01	0	57	0	661651456	47	4584
2026-01-02 00:45:28.93	128.78	39.08	-38.0	-39.8	23.6	6.02e-01	0	57	0	663748608	47	4491
2026-01-02 00:45:29.94	129.26	38.93	-38.3	-40.2	23.2	6.03e-01	0	57	0	665321472	47	4662
2026-01-02 00:45:30.95	129.73	38.78	-38.4	-40.4	23.0	6.02e-01	0	57	0	667418624	47	4760
2026-01-02 00:45:31.96	130.20	38.62	-38.2	-40.0	23.4	6.04e-01	0	57	0	668991488	47	4573
2026-01-02 00:45:32.96	130.65	38.47	-38.1	-40.0	23.4	6.02e-01	0	57	0	671088640	47	4546
2026-01-02 00:45:33.97	131.11	38.31	-38.4	-40.3	23.1	6.01e-01	0	57	0	673185792	47	4733
2026-01-02 00:45:34.98	131.57	38.16	-38.2	-40.1	23.3	6.03e-01	0	57	0	674758656	47	4630
2026-01-02 00:45:35.99	132.02	38.00	-38.1	-39.9	23.4	6.02e-01	0	57	0	676855808	47	4534
2026-01-02 00:45:37.00	132.46	37.84	-38.2	-40.0	23.4	6.04e-01	0	57	0	678428672	47	4579
2026-01-02 00:45:38.01	132.90	37.68	-38.1	-39.9	23.5	6.03e-01	0	57	0	680525824	47	4515
2026-01-02 00:45:39.02	133.34	37.51	-37.9	-39.7	23.6	6.04e-01	0	57	0	682622976	47	4400
2026-01-02 00:45:40.03	133.77	37.35	-38.0	-39.8	23.5	6.02e-01	0	57	0	684195840	47	4485
2026-01-02 00:45:41.04	134.20	37.19	-38.0	-39.9	23.5	6.04e-01	0	57	0	686292992	47	4496
2026-01-02 00:45:42.05	134.63	37.02	-37.9	-39.7	23.6	6.02e-01	0	57	0	687865856	47	4440
2026-01-02 00:45:43.06	135.05	36.86	-37.8	-39.6	23.7	6.03e-01	0	57	0	689963008	47	4356
2026-01-02 00:45:44.07	135.46	36.69	-37.8	-39.6	23.8	6.03e-01	0	57	0	692060160	47	4346
2026-01-02 00:45:45.08	135.87	36.52	-37.7	-39.4	23.9	6.04e-01	0	57	0	693633024	47	4276
2026-01-02 00:45:46.09	136.28	36.36	-37.6	-39.4	23.9	6.04e-01	0	57	0	695730176	47	4257
2026-01-02 00:45:47.10	136.68	36.19	-37.6	-39.4	23.9	6.04e-01	0	57	0	697827328	47	4250
2026-01-02 00:45:48.11	137.08	36.02	-37.7	-39.5	23.8	6.01e-01	0	57	0	699400192	47	4320
2026-01-02 00:45:49.11	137.47	35.85	-37.8	-39.6	23.7	6.01e-01	0	57	0	701497344	47	4345
2026-01-02 00:45:50.12	137.86	35.68	-37.6	-39.3	24.0	6.02e-01	0	57	0	703070208	47	4235
2026-01-02 00:45:51.13	138.24	35.51	-37.4	-39.1	24.1	6.02e-01	0	57	0	705167360	46	4381
2026-01-02 00:45:52.14	138.63	35.34	-37.5	-39.2	24.1	6.02e-01	0	57	0	707264512	46	4413
2026-01-02 00:45:53.16	139.01	35.17	-37.4	-39.1	24.1	6.02e-01	0	57	0	708837376	46	4388
2026-01-02 00:45:54.17	139.38	35.00	-37.2	-38.9	24.3	6.02e-01	0	57	0	710934528	46	4281
2026-01-02 00:45:55.18	139.75	34.83	-37.2	-38.9	24.4	6.02e-01	0	57	0	712507392	46	4251
2026-01-02 00:45:56.19	140.12	34.65	-37.3	-39.0	24.3	6.01e-01	0	57	0	714604544	46	4306
2026-01-02 00:45:57.20	140.48	34.48	-37.4	-39.1	24.1	6.03e-01	0	57	0	716701696	46	4367
2026-01-02 00:45:58.21	140.84	34.31	-37.3	-38.9	24.3	6.02e-01	0	57	0	718274560	46	4286
2026-01-02 00:45:59.22	141.19	34.14	-37.1	-38.7	24.5	6.01e-01	0	57	0	720371712	46	4187
2026-01-02 00:46:00.23	141.54	33.96	-37.0	-38.7	24.6	6.03e-01	0	57	0	722468864	46	4162
2026-01-02 00:46:01.24	141.89	33.79	-37.1	-38.7	24.5	6.04e-01	0	57	0	724041728	46	4183
2026-01-02 00:46:02.25	142.23	33.62	-37.0	-38.6	24.6	6.02e-01	0	57	0	726138880	46	4138
2026-01-02 00:46:03.26	142.57	33.44	-37.0	-38.6	24.6	6.06e-01	0	57	0	727711744	46	4144
2026-01-02 00:46:04.27	142.91	33.27	-37.1	-38.7	24.5	6.04e-01	0	57	0	729808896	46	4186
2026-01-02 00:46:05.28	143.24	33.10	-37.0	-38.7	24.6	6.03e-01	0	57	0	731906048	46	4162
2026-01-02 00:46:06.29	143.57	32.92	-37.0	-38.7	24.6	6.03e-01	0	57	0	733478912	46	4149
2026-01-02 00:46:07.30	143.90	32.75	-36.8	-38.5	24.7	6.05e-01	0	57	0	735576064	45	4306
2026-01-02 00:46:08.31	144.22	32.58	-36.7	-38.2	24.9	6.03e-01	0	57	0	737148928	45	4192
2026-01-02 00:46:09.32	144.54	32.41	-36.6	-38.2	25.0	6.02e-01	0	57	0	739246080	45	4150
2026-01-02 00:46:10.33	144.85	32.23	-36.7	-38.3	24.8	6.01e-01	0	57	0	741343232	45	4241
2026-01-02 00:46:11.34	145.16	32.06	-36.9	-38.5	24.7	6.02e-01	0	56	0	742916096	45	4322
2026-01-02 00:46:12.35	145.47	31.89	-36.9	-38.5	24.7	6.02e-01	0	57	0	745013248	45	4310
2026-01-02 00:46:13.36	145.78	31.72	-36.9	-38.5	24.6	6.02e-01	0	57	0	746586112	45	4323
2026-01-02 00:46:14.37	146.08	31.54	-36.9	-38.5	24.7	6.03e-01	0	57	0	748683264	45	4326
2026-01-02 00:46:15.38	146.38	31.37	-36.8	-38.4	24.8	6.03e-01	0	57	0	750780416	45	4268
2026-01-02 00:46:16.39	146.67	31.20	-36.8	-38.4	24.8	6.03e-01	0	57	0	752353280	45	4259
2026-01-02 00:46:17.40	146.96	31.03	-36.8	-38.4	24.8	6.02e-01	0	57	0	754450432	45	4267
2026-01-02 00:46:18.41	147.25	30.86	-36.7	-38.3	24.8	6.03e-01	0	57	0	756023296	45	4234
2026-01-02 00:46:19.42	147.54	30.69	-36.7	-38.2	24.9	6.03e-01	0	57	0	758120448	45	4191
2026-01-02 00:46:20.43	147.82	30.52	-36.8	-38.4	24.8	6.02e-01	0	57	0	760217600	45	4248
2026-01-02 00:46:21.44	148.10	30.35	-37.0	-38.6	24.5	6.04e-01	0	57	0	761790464	45	4378
2026-01-02 00:46:22.45	148.38	30.18	-37.1	-38.8	24.4	6.04e-01	0	57	0	763887616	45	4447
2026-01-02 00:46:23.46	148.65	30.01	-37.1	-38.7	24.5	6.03e-01	0	57	0	765984768	45	4425
2026-01-02 00:46:24.47	148.92	29.84	-37.0	-38.7	24.5	6.01e-01	0	57	0	767557632	45	4409
2026-01-02 00:46:25.48	149.19	29.67	-37.0	-38.6	24.6	6.03e-01	0	57	0	769654784	45	4366
2026-01-02 00:46:26.49	149.46	29.51	-36.8	-38.5	24.7	6.04e-01	0	57	0	771227648	45	4298
2026-01-02 00:46:27.50	149.72	29.34	-36.9	-38.5	24.7	6.03e-01	0	57	0	773324800	45	4312
2026-01-02 00:46:28.51	149.98	29.17	-36.9	-38.6	24.6	6.03e-01	0	57	0	775421952	45	4354
2026-01-02 00:46:29.52	150.24	29.00	-37.1	-38.7	24.5	6.03e-01	0	57	0	776994816	45	4432
2026-01-02 00:46:30.53	150.49	28.84	-37.1	-38.8	24.3	6.02e-01	0	57	0	779091968	45	4487
2026-01-02 00:46:31.54	150.74	28.67	-37.2	-38.9	24.3	6.01e-01	0	57	0	780664832	45	4497
2026-01-02 00:46:32.55	150.99	28.51	-37.2	-38.9	24.3	6.03e-01	0	57	0	782761984	45	4495
2026-01-02 00:46:33.56	151.24	28.34	-37.1	-38.8	24.4	6.04e-01	0	57	0	784859136	45	4449
2026-01-02 00:46:34.57	151.48	28.18	-37.0	-38.7	24.5	6.04e-01	0	57	0	786432000	45	4407
2026-01-02 00:46:35.58	151.72	28.02	-37.1	-38.7	24.4	6.03e-01	0	57	0	788529152	45	4425
2026-01-02 00:46:36.59	151.96	27.85	-37.1	-38.8	24.4	6.01e-01	0	57	0	790626304	45	4442
2026-01-02 00:46:37.59	152.20	27.69	-37.1	-38.8	24.3	6.03e-01	0	57	0	792199168	45	4476
2026-01-02 00:46:38.60	152.43	27.53	-37.2	-38.9	24.3	6.04e-01	0	57	0	794296320	45	4513
2026-01-02 00:46:39.61	152.66	27.37	-37.4	-39.1	24.1	6.05e-01	0	57	0	795869184	45	4633
2026-01-02 00:46:40.62	152.89	27.21	-37.4	-39.2	23.9	6.01e-01	0	57	0	797966336	45	4681
2026-01-02 00:46:41.63	153.12	27.05	-37.5	-39.2	23.9	6.01e-01	0	57	0	800063488	45	4682
2026-01-02 00:46:42.64	153.35	26.89	-37.4	-39.2	24.0	6.01e-01	0	57	0	801636352	45	4663
2026-01-02 00:46:43.65	153.57	26.73	-37.5	-39.3	23.9	6.03e-01	0	57	0	803733504	45	4731
2026-01-02 00:46:44.66	153.79	26.57	-37.6	-39.3	23.8	6.02e-01	0	57	0	805306368	45	4743
2026-01-02 00:46:45.67	154.01	26.41	-37.6	-39.3	23.8	6.03e-01	0	57	0	807403520	45	4756
2026-01-02 00:46:46.68	154.22	26.25	-37.5	-39.2	23.9	6.02e-01	0	57	0	809500672	45	4679
2026-01-02 00:46:47.69	154.44	26.10	-37.4	-39.1	23.9	6.01e-01	0	57	0	811073536	45	4643
2026-01-02 00:46:48.70	154.65	25.94	-37.4	-39.1	24.0	6.02e-01	0	57	0	813170688	45	4611
2026-01-02 00:46:49.71	154.86	25.78	-37.3	-39.1	24.1	6.03e-01	0	57	0	814743552	45	4599
2026-01-02 00:46:50.72	155.06	25.63	-37.3	-39.0	24.1	6.05e-01	0	57	0	816840704	45	4588
2026-01-02 00:46:51.73	155.27	25.47	-37.3	-39.1	24.0	6.02e-01	0	57	0	818937856	45	4607
2026-01-02 00:46:52.74	155.47	25.32	-37.4	-39.1	24.0	6.01e-01	0	57	0	820510720	45	4617
2026-01-02 00:46:53.75	155.67	25.17	-37.4	-39.1	24.0	6.04e-01	0	57	0	822607872	45	4633
2026-01-02 00:46:54.76	155.87	25.01	-37.4	-39.2	24.0	6.04e-01	0	57	0	824180736	45	4655
2026-01-02 00:46:55.77	156.07	24.86	-37.5	-39.2	23.9	6.04e-01	0	57	0	826277888	45	4690
2026-01-02 00:46:56.78	156.27	24.71	-37.5	-39.2	23.8	6.02e-01	0	57	0	828375040	45	4697
2026-01-02 00:46:57.78	156.46	24.56	-37.5	-39.2	23.9	6.06e-01	0	57	0	829947904	45	4693
2026-01-02 00:46:58.79	156.65	24.41	-37.5	-39.3	23.8	6.03e-01	0	57	0	832045056	45	4733
2026-01-02 00:46:59.81	156.84	24.26	-37.6	-39.4	23.7	6.02e-01	0	57	0	833617920	45	4794
2026-01-02 00:47:00.82	157.03	24.11	-37.7	-39.5	23.6	6.02e-01	0	57	0	835715072	45	4815
2026-01-02 00:47:01.83	157.21	23.96	-37.7	-39.5	23.6	6.03e-01	0	57	0	837812224	45	4832
2026-01-02 00:47:02.83	157.40	23.82	-37.7	-39.5	23.6	6.03e-01	0	57	0	839385088	45	4840
2026-01-02 00:47:03.84	157.58	23.67	-37.7	-39.4	23.6	6.04e-01	0	57	0	841482240	45	4814
2026-01-02 00:47:04.85	157.76	23.52	-37.7	-39.5	23.6	6.03e-01	0	57	0	843579392	45	4842
2026-01-02 00:47:05.86	157.94	23.38	-37.7	-39.5	23.6	6.04e-01	0	57	0	845152256	45	4824
2026-01-02 00:47:06.87	158.12	23.23	-37.7	-39.5	23.6	6.02e-01	0	57	0	847249408	45	4838
2026-01-02 00:47:07.88	158.29	23.09	-37.7	-39.5	23.6	6.00e-01	0	57	0	848822272	45	4834
2026-01-02 00:47:08.89	158.47	22.94	-37.7	-39.5	23.6	6.03e-01	0	57	0	850919424	45	4837
2026-01-02 00:47:09.90	158.64	22.80	-37.7	-39.5	23.6	6.04e-01	0	57	0	853016576	45	4837
2026-01-02 00:47:10.91	158.81	22.66	-37.6	-39.4	23.6	6.02e-01	0	57	0	854589440	45	4795
2026-01-02 00:47:11.92	158.98	22.51	-37.6	-39.4	23.7	6.04e-01	0	57	0	856686592	45	4776
2026-01-02 00:47:12.92	159.15	22.37	-37.5	-39.3	23.7	6.02e-01	0	57	0	858783744	45	4733
2026-01-02 00:47:13.93	159.31	22.23	-37.5	-39.3	23.8	6.04e-01	0	57	0	860356608	45	4714
2026-01-02 00:47:14.94	159.48	22.09	-37.5	-39.3	23.7	6.04e-01	0	57	0	862453760	45	4723
2026-01-02 00:47:15.96	159.64	21.95	-37.5	-39.3	23.7	6.01e-01	0	57	0	864026624	45	4734
2026-01-02 00:47:16.96	159.80	21.81	-37.5	-39.3	23.7	6.02e-01	0	57	0	866123776	45	4747
2026-01-02 00:47:17.97	159.96	21.67	-37.6	-39.4	23.6	6.03e-01	0	57	0	868220928	45	4776
2026-01-02 00:47:18.99	160.12	21.53	-37.6	-39.4	23.6	6.03e-01	0	57	0	869793792	45	4790
2026-01-02 00:47:20.00	160.28	21.40	-37.6	-39.4	23.6	6.04e-01	0	57	0	871890944	45	4813
2026-01-02 00:47:21.01	160.44	21.26	-37.6	-39.5	23.6	6.03e-01	0	57	0	873463808	45	4825
2026-01-02 00:47:22.02	160.59	21.12	-37.7	-39.5	23.5	6.04e-01	0	57	0	875560960	45	4845
2026-01-02 00:47:23.02	160.74	20.99	-37.7	-39.5	23.5	6.03e-01	0	57	0	877658112	45	4848
2026-01-02 00:47:24.04	160.89	20.85	-37.6	-39.5	23.5	6.01e-01	0	57	0	879230976	45	4822
2026-01-02 00:47:25.04	161.04	20.72	-37.6	-39.4	23.6	6.02e-01	0	57	0	881328128	45	4778
2026-01-02 00:47:26.05	161.19	20.59	-37.5	-39.3	23.7	6.01e-01	0	57	0	882900992	45	4741
2026-01-02 00:47:27.06	161.34	20.45	-37.5	-39.2	23.8	6.04e-01	0	57	0	884998144	45	4696
2026-01-02 00:47:28.07	161.49	20.32	-37.4	-39.2	23.8	6.03e-01	0	57	0	887095296	45	4665
2026-01-02 00:47:29.08	161.63	20.19	-37.4	-39.2	23.8	6.03e-01	0	57	0	888668160	45	4653
2026-01-02 00:47:30.09	161.78	20.06	-37.4	-39.1	23.9	6.03e-01	0	57	0	890765312	45	4639
2026-01-02 00:47:31.11	161.92	19.93	-37.3	-39.1	23.9	6.02e-01	0	57	0	892338176	45	4601
2026-01-02 00:47:32.11	162.06	19.80	-37.3	-39.0	24.0	6.03e-01	0	57	0	894435328	45	4575
2026-01-02 00:47:33.12	162.20	19.67	-37.3	-39.0	23.9	6.04e-01	0	57	0	896532480	45	4576
2026-01-02 00:47:34.13	162.34	19.54	-37.3	-39.0	24.0	6.03e-01	0	57	0	898105344	45	4566
2026-01-02 00:47:35.14	162.48	19.41	-37.2	-39.0	24.0	6.03e-01	0	57	0	900202496	45	4550
2026-01-02 00:47:36.15	162.61	19.28	-37.3	-39.0	23.9	6.02e-01	0	57	0	901775360	45	4564
2026-01-02 00:47:37.16	162.75	19.15	-37.3	-39.0	23.9	6.02e-01	0	57	0	903872512	45	4563
2026-01-02 00:47:38.17	162.88	19.03	-37.3	-39.0	23.9	6.02e-01	0	57	0	905969664	45	4582
2026-01-02 00:47:39.18	163.02	18.90	-37.2	-39.0	23.9	6.02e-01	0	57	0	907542528	45	4563
2026-01-02 00:47:40.19	163.15	18.78	-37.3	-39.0	23.9	6.03e-01	0	57	0	909639680	45	4576
2026-01-02 00:47:41.20	163.28	18.65	-37.3	-39.0	23.9	6.02e-01	0	57	0	911736832	45	4569
2026-01-02 00:47:42.21	163.41	18.53	-37.3	-39.1	23.8	6.03e-01	0	57	0	913309696	45	4600
2026-01-02 00:47:43.22	163.54	18.40	-37.3	-39.0	23.9	6.03e-01	0	57	0	915406848	45	4570
2026-01-02 00:47:44.23	163.67	18.28	-37.2	-39.0	23.9	6.03e-01	0	57	0	916979712	45	4558
2026-01-02 00:47:45.24	163.79	18.16	-37.2	-39.0	24.0	6.03e-01	0	57	0	919076864	45	4550
2026-01-02 00:47:46.25	163.92	18.03	-37.2	-38.9	24.0	6.02e-01	0	57	0	921174016	45	4534
2026-01-02 00:47:47.26	164.04	17.91	-37.2	-38.9	24.0	6.03e-01	0	57	0	922746880	45	4511
2026-01-02 00:47:48.27	164.17	17.79	-37.1	-38.9	24.0	6.01e-01	0	57	0	924844032	45	4502
2026-01-02 00:47:49.27	164.29	17.67	-37.1	-38.8	24.0	6.03e-01	0	57	0	926941184	45	4474
2026-01-02 00:47:50.28	164.41	17.55	-37.1	-38.8	24.1	6.02e-01	0	57	0	928514048	45	4479
2026-01-02 00:47:51.29	164.53	17.43	-37.1	-38.9	24.0	6.02e-01	0	57	0	930611200	45	4505
2026-01-02 00:47:52.30	164.65	17.31	-37.1	-38.9	24.0	6.02e-01	0	57	0	932184064	45	4507
2026-01-02 00:47:53.31	164.77	17.19	-37.2	-38.9	24.0	6.04e-01	0	57	0	934281216	45	4516
2026-01-02 00:47:54.32	164.88	17.08	-37.2	-38.9	24.0	6.04e-01	0	57	0	936378368	45	4538
2026-01-02 00:47:55.33	165.00	16.96	-37.2	-38.9	23.9	6.04e-01	0	57	0	937951232	45	4538
2026-01-02 00:47:56.34	165.12	16.84	-37.2	-38.9	23.9	6.01e-01	0	57	0	940048384	45	4536
2026-01-02 00:47:57.35	165.23	16.72	-37.2	-38.9	23.9	6.01e-01	0	57	0	941621248	45	4535
2026-01-02 00:47:58.36	165.35	16.61	-37.2	-38.9	23.9	6.02e-01	0	57	0	943718400	45	4537
2026-01-02 00:47:59.37	165.46	16.49	-37.2	-38.9	24.0	6.03e-01	0	57	0	945815552	45	4519
2026-01-02 00:48:00.38	165.57	16.38	-37.1	-38.9	24.0	6.03e-01	0	57	0	947388416	45	4505
2026-01-02 00:48:01.39	165.68	16.26	-37.1	-38.9	24.0	6.01e-01	0	57	0	949485568	45	4497
2026-01-02 00:48:02.40	165.79	16.15	-37.2	-38.9	23.9	6.02e-01	0	57	0	951058432	45	4516
2026-01-02 00:48:03.41	165.90	16.04	-37.1	-38.9	23.9	6.02e-01	0	57	0	953155584	45	4509
2026-01-02 00:48:04.42	166.01	15.92	-37.1	-38.9	23.9	6.02e-01	0	57	0	955252736	45	4503
2026-01-02 00:48:05.43	166.12	15.81	-37.2	-38.9	23.9	6.05e-01	0	57	0	956825600	45	4523
2026-01-02 00:48:06.44	166.23	15.70	-37.1	-38.9	23.9	6.04e-01	0	57	0	958922752	45	4508
2026-01-02 00:48:07.45	166.33	15.59	-37.1	-38.9	23.9	6.04e-01	0	57	0	960495616	45	4509
2026-01-02 00:48:08.46	166.44	15.48	-37.2	-38.9	23.9	6.03e-01	0	57	0	962592768	45	4541
2026-01-02 00:48:09.47	166.54	15.37	-37.2	-38.9	23.8	6.03e-01	0	57	0	964689920	45	4544
2026-01-02 00:48:10.48	166.65	15.26	-37.2	-38.9	23.9	6.03e-01	0	57	0	966262784	45	4523
2026-01-02 00:48:11.48	166.75	15.15	-37.2	-38.9	23.8	6.02e-01	0	57	0	968359936	45	4541
2026-01-02 00:48:12.49	166.85	15.04	-37.2	-39.0	23.9	6.02e-01	0	57	0	969932800	45	4552
2026-01-02 00:48:13.50	166.95	14.93	-37.2	-39.0	23.8	6.04e-01	0	57	0	972029952	45	4579
2026-01-02 00:48:14.52	167.05	14.82	-37.2	-39.0	23.8	6.02e-01	0	57	0	974127104	45	4572
2026-01-02 00:48:15.52	167.15	14.71	-37.3	-39.0	23.8	6.02e-01	0	57	0	975699968	45	4588
2026-01-02 00:48:16.53	167.25	14.61	-37.3	-39.1	23.7	6.03e-01	0	57	0	977797120	45	4618
2026-01-02 00:48:17.54	167.35	14.50	-37.3	-39.1	23.7	6.02e-01	0	57	0	979894272	45	4629
2026-01-02 00:48:18.55	167.45	14.39	-37.3	-39.1	23.7	6.03e-01	0	57	0	981467136	45	4644
2026-01-02 00:48:19.56	167.54	14.29	-37.3	-39.2	23.6	6.03e-01	0	57	0	983564288	45	4657
2026-01-02 00:48:20.57	167.64	14.18	-37.4	-39.2	23.6	6.04e-01	0	57	0	985137152	45	4672
2026-01-02 00:48:21.58	167.74	14.08	-37.4	-39.3	23.5	6.05e-01	0	57	0	987234304	45	4718
2026-01-02 00:48:22.59	167.83	13.97	-37.4	-39.2	23.6	6.02e-01	0	57	0	989331456	45	4681
2026-01-02 00:48:23.60	167.93	13.87	-37.4	-39.2	23.5	6.05e-01	0	57	0	990904320	45	4683
2026-01-02 00:48:24.61	168.02	13.76	-37.4	-39.2	23.5	6.04e-01	0	57	0	993001472	45	4688
2026-01-02 00:48:25.62	168.11	13.66	-37.4	-39.2	23.5	6.04e-01	0	57	0	995098624	45	4693
2026-01-02 00:48:26.63	168.20	13.56	-37.4	-39.2	23.6	6.04e-01	0	57	0	996671488	45	4670
2026-01-02 00:48:27.64	168.30	13.45	-37.4	-39.2	23.5	6.04e-01	0	57	0	998768640	45	4687
2026-01-02 00:48:28.65	168.39	13.35	-37.4	-39.2	23.5	6.03e-01	0	57	0	1000341504	45	4677
2026-01-02 00:48:29.66	168.48	13.25	-37.4	-39.2	23.5	6.04e-01	0	57	0	1002438656	45	4670
2026-01-02 00:48:30.67	168.57	13.15	-37.4	-39.2	23.5	6.02e-01	0	57	0	1004535808	45	4674
2026-01-02 00:48:31.68	168.66	13.05	-37.3	-39.2	23.5	6.05e-01	0	57	0	1006108672	45	4659
2026-01-02 00:48:32.69	168.74	12.95	-37.4	-39.2	23.5	6.03e-01	0	57	0	1008205824	45	4672
2026-01-02 00:48:33.70	168.83	12.85	-37.4	-39.2	23.5	6.03e-01	0	57	0	1009778688	45	4670
2026-01-02 00:48:34.71	168.92	12.75	-37.4	-39.2	23.5	6.05e-01	0	57	0	1011875840	45	4683
2026-01-02 00:48:35.72	169.01	12.65	-37.4	-39.2	23.5	6.04e-01	0	57	0	1013972992	45	4696
2026-01-02 00:48:36.73	169.09	12.55	-37.4	-39.3	23.4	6.04e-01	0	57	0	1015545856	45	4715
2026-01-02 00:48:37.73	169.18	12.45	-37.4	-39.3	23.4	6.04e-01	0	57	0	1017643008	45	4731
2026-01-02 00:48:38.74	169.26	12.35	-37.4	-39.3	23.4	6.01e-01	0	57	0	1019215872	45	4727
2026-01-02 00:48:39.75	169.35	12.25	-37.4	-39.3	23.3	6.03e-01	0	57	0	1021313024	45	4740
2026-01-02 00:48:40.76	169.43	12.16	-37.5	-39.4	23.3	6.02e-01	0	57	0	1023410176	45	4760
2026-01-02 00:48:41.77	169.51	12.06	-37.5	-39.4	23.3	6.03e-01	0	57	0	1024983040	45	4767
2026-01-02 00:48:42.78	169.60	11.96	-37.6	-39.4	23.2	6.03e-01	0	57	0	1027080192	45	4811
2026-01-02 00:48:43.79	169.68	11.87	-37.5	-39.4	23.2	6.03e-01	0	57	0	1028653056	45	4806
2026-01-02 00:48:44.80	169.76	11.77	-37.6	-39.5	23.2	6.04e-01	0	57	0	1030750208	45	4823
2026-01-02 00:48:45.81	169.84	11.68	-37.6	-39.5	23.1	6.02e-01	0	57	0	1032847360	45	4831
2026-01-02 00:48:46.82	169.92	11.58	-37.6	-39.5	23.1	6.04e-01	0	57	0	1034420224	45	4857
2026-01-02 00:48:47.83	170.00	11.49	-37.6	-39.5	23.1	6.04e-01	0	57	0	1036517376	45	4858
2026-01-02 00:48:48.84	170.08	11.39	-37.7	-39.6	23.0	6.02e-01	0	57	0	1038090240	45	4887
2026-01-02 00:48:49.85	170.16	11.30	-37.7	-39.6	22.9	6.05e-01	0	57	0	1040187392	45	4898
2026-01-02 00:48:50.86	170.24	11.20	-37.7	-39.6	22.9	6.03e-01	0	57	0	1042284544	45	4911
2026-01-02 00:48:51.87	170.31	11.11	-37.7	-39.6	22.9	6.01e-01	0	57	0	1043857408	45	4898
2026-01-02 00:48:52.88	170.39	11.02	-37.7	-39.6	22.9	6.03e-01	0	57	0	1045954560	46	4648
2026-01-02 00:48:53.88	170.47	10.93	-37.7	-39.6	22.8	6.03e-01	0	57	0	1048051712	46	4646
2026-01-02 00:48:54.90	170.54	10.83	-37.7	-39.6	22.9	6.05e-01	0	57	0	1049624576	46	4640
2026-01-02 00:48:55.91	170.62	10.74	-37.8	-39.7	22.8	6.04e-01	0	57	0	1051721728	46	4687
2026-01-02 00:48:56.92	170.69	10.65	-37.7	-39.7	22.9	6.02e-01	0	57	0	1053294592	46	4658
2026-01-02 00:48:57.93	170.77	10.56	-37.8	-39.7	22.8	6.03e-01	0	57	0	1055391744	46	4676
2026-01-02 00:48:58.94	170.84	10.47	-37.8	-39.7	22.7	6.01e-01	0	57	0	1057488896	46	4699
2026-01-02 00:48:59.95	170.92	10.38	-37.8	-39.7	22.7	6.00e-01	0	57	0	1059061760	46	4703
2026-01-02 00:49:00.96	170.99	10.29	-37.8	-39.7	22.7	6.01e-01	0	57	0	1061158912	46	4700
2026-01-02 00:49:01.96	171.06	10.20	-37.8	-39.8	22.7	6.05e-01	0	57	0	1062731776	46	4739
2026-01-02 00:49:02.97	171.14	10.11	-37.8	-39.8	22.7	6.02e-01	0	57	0	1064828928	46	4735
2026-01-02 00:49:03.98	171.21	10.02	-37.9	-39.8	22.6	6.02e-01	0	57	0	1066926080	46	4757
2026-01-02 00:49:04.99	171.28	9.93	-37.9	-39.9	22.6	6.03e-01	0	57	0	1068498944	46	4761
2026-01-02 00:49:06.00	171.35	9.84	-37.9	-39.9	22.6	6.04e-01	0	57	0	1070596096	46	4776
2026-01-02 00:49:07.01	171.42	9.75	-37.9	-39.9	22.5	6.00e-01	0	57	0	1072168960	46	4791
2026-01-02 00:49:08.02	171.49	9.66	-37.9	-39.9	22.6	6.01e-01	0	57	0	1074266112	46	4763
2026-01-02 00:49:09.03	171.56	9.58	-37.9	-39.9	22.5	6.02e-01	0	57	0	1076363264	46	4812
2026-01-02 00:49:10.04	171.63	9.49	-37.9	-39.9	22.5	6.01e-01	0	57	0	1077936128	46	4802
2026-01-02 00:49:11.05	171.70	9.40	-37.9	-39.9	22.5	6.03e-01	0	57	0	1080033280	46	4800
2026-01-02 00:49:12.06	171.77	9.32	-37.9	-40.0	22.4	6.03e-01	0	57	0	1081606144	46	4822
2026-01-02 00:49:13.07	171.84	9.23	-37.9	-39.9	22.5	6.01e-01	0	57	0	1083703296	46	4807
2026-01-02 00:49:14.07	171.90	9.14	-37.9	-40.0	22.4	6.03e-01	0	57	0	1085800448	46	4833
2026-01-02 00:49:15.08	171.97	9.06	-38.0	-40.1	22.3	6.02e-01	0	57	0	1087373312	46	4873
2026-01-02 00:49:16.09	172.04	8.97	-38.0	-40.0	22.4	6.04e-01	0	57	0	1089470464	46	4858
2026-01-02 00:49:17.10	172.10	8.89	-38.1	-40.2	22.2	6.05e-01	0	57	0	1091567616	46	4945
2026-01-02 00:49:18.11	172.17	8.80	-38.0	-40.1	22.3	6.02e-01	0	57	0	1093140480	46	4873
2026-01-02 00:49:19.13	172.24	8.72	-38.0	-40.1	22.2	6.03e-01	0	57	0	1095237632	46	4909
2026-01-02 00:49:20.14	172.30	8.63	-38.1	-40.1	22.2	6.04e-01	0	57	0	1096810496	46	4920
2026-01-02 00:49:21.15	172.37	8.55	-38.1	-40.2	22.1	6.04e-01	0	57	0	1098907648	46	4982
2026-01-02 00:49:22.16	172.43	8.46	-38.1	-40.2	22.1	6.03e-01	0	57	0	1101004800	46	4944
2026-01-02 00:49:23.17	172.49	8.38	-38.1	-40.2	22.1	6.05e-01	0	57	0	1102577664	46	4965
2026-01-02 00:49:24.18	172.56	8.30	-38.2	-40.4	21.9	6.02e-01	0	57	0	1104674816	46	5060
2026-01-02 00:49:25.19	172.62	8.21	-38.2	-40.4	21.9	6.04e-01	0	57	0	1106247680	47	4774
2026-01-02 00:49:26.19	172.68	8.13	-38.3	-40.4	21.8	6.02e-01	0	57	0	1108344832	47	4811
2026-01-02 00:49:27.20	172.75	8.05	-38.3	-40.5	21.6	6.04e-01	0	57	0	1110441984	47	4862
2026-01-02 00:49:28.22	172.81	7.97	-45.1	-62.8	3.9	7.45e-01	0	57	104	1111490560	60	29722
2026-01-02 00:49:29.23	172.87	7.89	-45.4	-64.1	3.8	7.45e-01	0	57	104	1111490560	61	32621
2026-01-02 00:49:30.24	172.93	7.80	-45.5	-64.3	3.8	7.40e-01	0	57	104	1111490560	61	33445
2026-01-02 00:49:31.25	172.99	7.72	-45.6	-64.4	3.8	7.44e-01	0	57	104	1111490560	61	33970
2026-01-02 00:49:32.26	173.05	7.64	-45.8	-64.5	3.8	7.43e-01	0	57	104	1111490560	62	32443
2026-01-02 00:49:33.27	173.11	7.56	-45.8	-64.6	3.8	7.49e-01	0	57	104	1111490560	62	32666
2026-01-02 00:49:34.28	173.17	7.48	-45.8	-64.6	3.8	7.43e-01	0	57	104	1111490560	62	32888
2026-01-02 00:49:35.29	173.23	7.40	-45.9	-64.7	3.8	7.43e-01	0	57	104	1111490560	62	32997
2026-01-02 00:49:36.30	173.29	7.32	-45.9	-64.7	3.8	7.47e-01	0	57	104	1111490560	62	33069
2026-01-02 00:49:37.31	173.35	7.24	-45.9	-64.7	3.8	7.44e-01	0	57	104	1111490560	62	33066
2026-01-02 00:49:38.32	173.41	7.16	-45.9	-64.6	3.8	7.46e-01	0	57	104	1111490560	62	32919
2026-01-02 00:49:39.33	173.47	7.08	-45.9	-64.6	3.8	7.46e-01	0	57	104	1111490560	62	32911
2026-01-02 00:49:40.34	173.53	7.00	-45.8	-64.6	3.8	7.45e-01	0	57	104	1111490560	62	32668
2026-01-02 00:49:41.35	173.59	6.92	-45.8	-64.6	3.8	7.45e-01	0	57	104	1111490560	62	32704
2026-01-02 00:49:42.36	173.64	6.84	-45.8	-64.6	3.8	7.45e-01	0	57	104	1111490560	62	32689
2026-01-02 00:49:43.38	173.70	6.77	-45.8	-64.6	3.8	7.44e-01	0	57	104	1111490560	62	32774
2026-01-02 00:49:44.39	173.76	6.69	-45.8	-64.6	3.8	7.47e-01	0	57	104	1111490560	62	32591
2026-01-02 00:49:45.40	173.81	6.61	-45.8	-64.5	3.8	7.44e-01	0	57	104	1111490560	62	32525
2026-01-02 00:49:46.41	173.87	6.53	-45.8	-64.5	3.8	7.45e-01	0	57	104	1111490560	62	32547
2026-01-02 00:49:47.42	173.93	6.45	-45.8	-64.5	3.8	7.45e-01	0	57	104	1111490560	62	32483
2026-01-02 00:49:48.43	173.98	6.38	-45.7	-64.5	3.8	7.44e-01	0	57	104	1111490560	62	32502
2026-01-02 00:49:49.44	174.04	6.30	-45.7	-64.5	3.8	7.45e-01	0	57	104	1111490560	62	32334
2026-01-02 00:49:50.45	174.09	6.22	-45.7	-64.5	3.8	7.46e-01	0	57	104	1111490560	62	32307
2026-01-02 00:49:51.46	174.15	6.15	-45.7	-64.5	3.8	7.46e-01	0	57	104	1111490560	62	32283
2026-01-02 00:49:52.47	174.20	6.07	-45.7	-64.5	3.8	7.46e-01	0	57	104	1111490560	62	32189
2026-01-02 00:49:53.49	174.26	6.00	-45.7	-64.5	3.8	7.45e-01	0	57	104	1111490560	62	32230
2026-01-02 00:49:54.50	174.31	5.92	-45.7	-64.5	3.8	7.43e-01	0	57	104	1111490560	62	32210
2026-01-02 00:49:55.51	174.36	5.84	-45.7	-64.4	3.8	7.44e-01	0	57	104	1111490560	62	32178
2026-01-02 00:49:56.52	174.42	5.77	-45.7	-64.5	3.8	7.46e-01	0	57	104	1111490560	62	32220
2026-01-02 00:49:57.53	174.47	5.69	-45.6	-64.4	3.8	7.48e-01	0	57	104	1111490560	62	32120
2026-01-02 00:49:58.54	174.52	5.62	-45.7	-64.5	3.8	7.44e-01	0	57	104	1111490560	62	32230
