passes_logs/2026/01/02/R2.0S_Moscow/R2.0S_Moscow__20260102_044013_FENGYUN_3G_rec.log

#Pass ID: 20260102_044013_FENGYUN 3G
#Satellite: FENGYUN 3G
#Configuration: FENGYUN 3G
#almurnet v.1.7.20251203
#Start time: 2026-01-02 04:40:15

#Version: 2.2.20231116
#Station: R2.0S_Moscow
#Location: 37.707566 lon 55.798166 lat
#TLE: 1 56232U 23055A   26001.34523675  .00043393  00000+0  69485-3 0  9993
#TLE: 2 56232  49.9927 126.3392 0004120 323.4974  36.5712 15.52620654154072

#Time	Az	El	Level	Level2	SNR	BER	BlckErr	Temp	State	Recorded	gain1	gain2
2026-01-02 04:40:15.29	250.55	2.12	-44.0	-62.1	3.8	8.46e-01	0	47	0	0	59	29158
2026-01-02 04:40:16.30	250.49	2.19	-44.0	-62.1	3.8	8.44e-01	0	47	104	0	59	29153
2026-01-02 04:40:17.32	250.43	2.26	-44.0	-62.1	3.8	8.47e-01	0	48	104	0	59	29282
2026-01-02 04:40:18.32	250.37	2.32	-44.0	-62.2	3.8	8.46e-01	0	48	104	0	59	29368
2026-01-02 04:40:19.34	250.31	2.39	-44.0	-62.1	3.8	8.46e-01	0	48	104	0	59	29315
2026-01-02 04:40:20.35	250.24	2.46	-44.0	-62.1	3.8	8.46e-01	0	48	104	0	59	29313
2026-01-02 04:40:21.36	250.18	2.53	-44.0	-62.1	3.8	8.47e-01	0	48	104	0	59	29332
2026-01-02 04:40:22.37	250.12	2.59	-44.0	-62.1	3.8	8.47e-01	0	48	104	0	59	29253
2026-01-02 04:40:23.38	250.05	2.66	-44.0	-62.1	3.8	8.47e-01	0	48	104	0	59	29285
2026-01-02 04:40:24.39	249.99	2.73	-44.0	-62.1	3.8	8.47e-01	0	48	104	0	59	29340
2026-01-02 04:40:25.40	249.92	2.80	-44.0	-62.2	3.8	8.47e-01	0	48	104	0	59	29361
2026-01-02 04:40:26.41	249.86	2.87	-44.0	-62.1	3.8	8.46e-01	0	48	104	0	59	29175
2026-01-02 04:40:27.42	249.79	2.94	-44.0	-62.1	3.8	8.46e-01	0	48	104	0	59	29084
2026-01-02 04:40:28.43	249.73	3.01	-44.0	-62.1	3.8	8.46e-01	0	48	104	0	59	29030
2026-01-02 04:40:29.45	249.66	3.08	-44.0	-62.0	3.8	8.46e-01	0	48	104	0	59	28915
2026-01-02 04:40:30.46	249.59	3.15	-44.0	-62.0	3.8	8.46e-01	0	49	104	0	59	28717
2026-01-02 04:40:31.47	249.52	3.22	-44.0	-62.0	3.8	8.46e-01	0	49	104	0	59	28689
2026-01-02 04:40:32.48	249.46	3.29	-44.0	-61.9	3.8	8.46e-01	0	49	104	0	59	28433
2026-01-02 04:40:33.49	249.39	3.36	-44.0	-61.8	3.8	8.46e-01	0	49	104	0	59	28242
2026-01-02 04:40:34.50	249.32	3.43	-44.0	-61.7	3.8	8.46e-01	0	49	104	0	59	28018
2026-01-02 04:40:35.51	249.25	3.50	-44.0	-61.8	3.8	8.46e-01	0	49	104	0	59	28152
2026-01-02 04:40:36.52	249.18	3.57	-44.0	-61.8	3.8	8.46e-01	0	49	104	0	59	28032
2026-01-02 04:40:37.54	249.11	3.64	-44.0	-61.8	3.8	8.47e-01	0	49	104	0	59	28309
2026-01-02 04:40:38.55	249.04	3.71	-44.0	-61.8	3.8	8.47e-01	0	49	104	0	59	28232
2026-01-02 04:40:39.56	248.96	3.78	-44.0	-61.8	3.8	8.46e-01	0	49	104	0	59	28263
2026-01-02 04:40:40.57	248.89	3.86	-44.0	-61.9	3.8	8.46e-01	0	49	104	0	59	28482
2026-01-02 04:40:41.58	248.82	3.93	-44.0	-62.0	3.8	8.46e-01	0	49	104	0	59	28823
2026-01-02 04:40:42.59	248.75	4.00	-44.0	-62.0	3.8	8.46e-01	0	49	104	0	59	28885
2026-01-02 04:40:43.60	248.67	4.07	-44.0	-62.1	3.8	8.47e-01	0	49	104	0	59	29127
2026-01-02 04:40:44.61	248.60	4.15	-44.0	-62.1	3.8	8.45e-01	0	49	104	0	59	29146
2026-01-02 04:40:45.62	248.52	4.22	-44.0	-62.1	3.8	8.45e-01	0	49	104	0	59	29277
2026-01-02 04:40:46.63	248.45	4.29	-44.0	-62.1	3.8	8.48e-01	0	49	104	0	59	29266
2026-01-02 04:40:47.64	248.37	4.37	-44.0	-62.1	3.8	8.47e-01	0	49	104	0	59	29308
2026-01-02 04:40:48.65	248.29	4.44	-44.0	-62.1	3.8	8.47e-01	0	50	104	0	59	29205
2026-01-02 04:40:49.67	248.22	4.52	-44.0	-62.1	3.8	8.45e-01	0	50	104	0	59	29261
2026-01-02 04:40:50.68	248.14	4.59	-44.0	-62.1	3.8	8.46e-01	0	50	104	0	59	29092
2026-01-02 04:40:51.69	248.06	4.67	-44.0	-62.0	3.8	8.46e-01	0	50	104	0	59	28992
2026-01-02 04:40:52.70	247.98	4.74	-44.0	-61.9	3.8	8.45e-01	0	50	104	0	59	28625
2026-01-02 04:40:53.71	247.90	4.82	-44.0	-61.8	3.8	8.46e-01	0	50	104	0	59	28261
2026-01-02 04:40:54.72	247.82	4.89	-44.0	-61.7	3.8	8.45e-01	0	50	104	0	59	27964
2026-01-02 04:40:55.73	247.74	4.97	-44.0	-61.5	3.8	8.45e-01	0	50	104	0	59	27254
2026-01-02 04:40:56.74	247.66	5.05	-44.0	-61.4	3.8	8.44e-01	0	50	104	0	59	26857
2026-01-02 04:40:57.75	247.58	5.12	-44.0	-61.2	3.8	8.47e-01	0	50	104	0	59	26197
2026-01-02 04:40:58.76	247.50	5.20	-44.0	-61.1	3.8	8.47e-01	0	50	104	0	59	26156
2026-01-02 04:40:59.78	247.41	5.28	-44.0	-61.2	3.8	8.47e-01	0	50	104	0	59	26437
2026-01-02 04:41:00.79	247.33	5.36	-44.0	-61.4	3.8	8.46e-01	0	50	104	0	59	26951
2026-01-02 04:41:01.80	247.24	5.43	-44.0	-61.7	3.8	8.46e-01	0	51	104	0	59	27805
2026-01-02 04:41:02.81	247.16	5.51	-44.0	-61.9	3.8	8.45e-01	0	50	104	0	59	28547
2026-01-02 04:41:03.82	247.07	5.59	-44.0	-62.0	3.8	8.46e-01	0	50	104	0	59	28868
2026-01-02 04:41:04.83	246.99	5.67	-44.0	-62.1	3.8	8.46e-01	0	51	104	0	59	29082
2026-01-02 04:41:05.84	246.90	5.75	-44.0	-62.0	3.8	8.46e-01	0	50	104	0	59	28742
2026-01-02 04:41:06.85	246.81	5.83	-44.0	-61.8	3.8	8.46e-01	0	50	104	0	59	28317
2026-01-02 04:41:07.86	246.72	5.91	-44.0	-61.4	3.8	8.47e-01	0	51	104	0	59	27066
2026-01-02 04:41:08.87	246.63	5.99	-44.0	-61.2	3.8	8.47e-01	0	51	104	0	59	26263
2026-01-02 04:41:09.89	246.54	6.07	-43.9	-60.6	3.8	8.45e-01	0	51	104	0	59	24467
2026-01-02 04:41:10.90	246.45	6.15	-43.9	-60.0	3.8	8.46e-01	0	51	104	0	59	23020
2026-01-02 04:41:11.91	246.36	6.23	-43.9	-59.3	4.0	8.46e-01	0	51	104	0	59	21092
2026-01-02 04:41:12.92	246.27	6.31	-43.9	-58.6	4.2	8.44e-01	0	51	0	0	59	19517
2026-01-02 04:41:13.93	246.18	6.39	-43.9	-58.0	4.3	8.38e-01	0	51	0	0	59	18242
2026-01-02 04:41:14.94	246.08	6.48	-43.8	-57.4	4.6	8.38e-01	0	51	0	0	59	17037
2026-01-02 04:41:15.95	245.99	6.56	-43.8	-57.3	4.6	8.25e-01	0	51	0	0	59	16871
2026-01-02 04:41:16.96	245.89	6.64	-43.9	-58.3	4.3	8.14e-01	0	51	0	0	59	18891
2026-01-02 04:41:17.98	245.80	6.73	-43.9	-59.6	3.9	8.37e-01	0	51	104	0	59	21896
2026-01-02 04:41:18.99	245.70	6.81	-44.0	-60.7	3.8	8.37e-01	0	51	104	0	59	24694
2026-01-02 04:41:20.00	245.60	6.89	-43.9	-60.0	3.8	8.46e-01	0	51	104	0	59	22918
2026-01-02 04:41:21.01	245.50	6.98	-43.8	-57.2	4.7	8.41e-01	0	51	0	0	59	16519
2026-01-02 04:41:22.02	245.41	7.06	-43.5	-54.1	6.7	8.41e-01	0	51	0	0	59	11581
2026-01-02 04:41:23.03	245.31	7.15	-43.1	-51.0	9.7	4.76e-01	0	52	0	1572864	58	8654
2026-01-02 04:41:24.04	245.20	7.23	-42.3	-48.2	12.7	1.74e-02	0	51	0	2621440	56	6984
2026-01-02 04:41:25.05	245.10	7.32	-41.4	-45.9	15.0	1.74e-02	0	51	0	3670016	54	6054
2026-01-02 04:41:26.06	245.00	7.40	-40.8	-44.8	16.1	2.40e-05	0	52	0	4718592	53	5643
2026-01-02 04:41:27.07	244.90	7.49	-40.2	-43.7	17.2	0.00e+00	0	52	0	5767168	52	5238
2026-01-02 04:41:28.08	244.79	7.58	-39.5	-42.5	18.5	0.00e+00	0	52	0	6815744	51	4840
2026-01-02 04:41:29.10	244.69	7.66	-38.9	-41.5	19.5	0.00e+00	0	52	0	8388608	49	4844
2026-01-02 04:41:30.11	244.58	7.75	-38.5	-40.9	20.0	0.00e+00	0	52	0	9437184	48	4801
2026-01-02 04:41:31.12	244.48	7.84	-38.2	-40.6	20.4	0.00e+00	0	52	0	10485760	48	4628
2026-01-02 04:41:32.13	244.37	7.93	-37.9	-40.2	20.8	0.00e+00	0	52	0	11534336	47	4696
2026-01-02 04:41:33.14	244.26	8.02	-38.0	-40.3	20.7	0.00e+00	0	52	0	12582912	47	4757
2026-01-02 04:41:34.15	244.15	8.11	-37.7	-39.9	21.1	0.00e+00	0	52	0	14155776	46	4804
2026-01-02 04:41:35.16	244.04	8.19	-38.5	-41.0	19.8	0.00e+00	0	52	0	15204352	48	4822
2026-01-02 04:41:36.17	243.93	8.28	-41.6	-46.5	13.6	0.00e+00	0	52	0	16252928	54	6426
2026-01-02 04:41:37.18	243.82	8.37	-38.1	-40.5	20.5	0.00e+00	0	52	0	17301504	47	4832
2026-01-02 04:41:38.18	243.70	8.46	-43.0	-51.0	9.0	0.00e+00	0	52	0	18350080	57	9083
2026-01-02 04:41:39.19	243.59	8.56	-38.1	-40.5	21.0	3.03e-03	0	52	0	19398656	47	4831
2026-01-02 04:41:40.21	243.47	8.65	-38.0	-40.3	20.7	0.00e+00	0	52	0	20447232	47	4735
2026-01-02 04:41:41.22	243.36	8.74	-37.9	-40.2	20.8	0.00e+00	0	52	0	22020096	47	4690
2026-01-02 04:41:42.22	243.24	8.83	-38.1	-40.4	20.6	0.00e+00	0	52	0	23068672	47	4793
2026-01-02 04:41:43.23	243.12	8.92	-38.1	-40.5	20.5	0.00e+00	0	52	0	24117248	47	4834
2026-01-02 04:41:44.24	243.00	9.02	-37.9	-40.3	20.8	0.00e+00	0	52	0	25165824	47	4715
2026-01-02 04:41:45.25	242.88	9.11	-37.5	-39.6	21.4	0.00e+00	0	52	0	26214400	46	4638
2026-01-02 04:41:46.26	242.76	9.20	-37.5	-39.6	21.5	0.00e+00	0	52	0	27262976	46	4620
2026-01-02 04:41:47.27	242.64	9.30	-37.4	-39.5	21.5	0.00e+00	0	52	0	28835840	46	4591
2026-01-02 04:41:48.28	242.52	9.39	-37.3	-39.4	21.7	0.00e+00	0	52	0	29884416	46	4528
2026-01-02 04:41:49.29	242.39	9.49	-37.2	-39.3	21.8	0.00e+00	0	52	0	30932992	46	4451
2026-01-02 04:41:50.30	242.27	9.58	-36.9	-38.9	22.2	0.00e+00	0	53	0	31981568	45	4506
2026-01-02 04:41:51.31	242.14	9.68	-36.9	-38.9	22.2	0.00e+00	0	52	0	33030144	45	4519
2026-01-02 04:41:52.32	242.01	9.78	-37.4	-39.5	21.7	0.00e+00	0	52	0	34078720	45	4827
2026-01-02 04:41:53.33	241.88	9.87	-37.2	-39.3	21.8	0.00e+00	0	52	0	35651584	45	4742
2026-01-02 04:41:54.34	241.75	9.97	-37.1	-39.1	22.0	0.00e+00	0	52	0	36700160	45	4631
2026-01-02 04:41:55.35	241.62	10.07	-37.3	-39.4	21.8	0.00e+00	0	52	0	37748736	45	4777
2026-01-02 04:41:56.36	241.49	10.17	-37.1	-39.1	22.0	0.00e+00	0	52	0	38797312	45	4635
2026-01-02 04:41:57.37	241.35	10.27	-36.6	-38.5	22.6	0.00e+00	0	53	0	39845888	45	4313
2026-01-02 04:41:58.38	241.22	10.37	-36.5	-38.4	22.7	0.00e+00	0	52	0	40894464	45	4290
2026-01-02 04:41:59.39	241.08	10.47	-36.5	-38.3	22.8	0.00e+00	0	53	0	42467328	44	4493
2026-01-02 04:42:00.40	240.94	10.57	-36.0	-37.8	23.3	0.00e+00	0	53	0	43515904	44	4235
2026-01-02 04:42:01.40	240.80	10.67	-35.9	-37.7	23.3	0.00e+00	0	52	0	44564480	43	4428
2026-01-02 04:42:02.41	240.66	10.77	-36.0	-37.8	23.2	0.00e+00	0	53	0	45613056	43	4470
2026-01-02 04:42:03.42	240.52	10.87	-35.6	-37.4	23.6	0.00e+00	0	53	0	46661632	43	4251
2026-01-02 04:42:04.43	240.38	10.97	-35.8	-37.6	23.4	0.00e+00	0	53	0	47710208	43	4374
2026-01-02 04:42:05.44	240.24	11.07	-36.0	-37.8	23.2	0.00e+00	0	53	0	49283072	43	4478
2026-01-02 04:42:06.45	240.09	11.18	-35.9	-37.6	23.3	0.00e+00	0	53	0	50331648	43	4387
2026-01-02 04:42:07.46	239.94	11.28	-36.1	-38.0	23.1	0.00e+00	0	53	0	51380224	43	4569
2026-01-02 04:42:08.47	239.79	11.39	-36.1	-38.0	23.0	0.00e+00	0	53	0	52428800	43	4559
2026-01-02 04:42:09.48	239.64	11.49	-36.0	-37.8	23.2	0.00e+00	0	53	0	53477376	43	4478
2026-01-02 04:42:10.49	239.49	11.60	-36.2	-38.0	23.1	0.00e+00	0	53	0	54525952	43	4585
2026-01-02 04:42:11.50	239.34	11.70	-36.0	-37.9	23.2	0.00e+00	0	53	0	56098816	43	4494
2026-01-02 04:42:12.51	239.19	11.81	-35.9	-37.7	23.4	0.00e+00	0	53	0	57147392	43	4420
2026-01-02 04:42:13.52	239.03	11.92	-36.2	-38.1	23.0	0.00e+00	0	53	0	58195968	43	4612
2026-01-02 04:42:14.52	238.87	12.02	-36.1	-37.9	23.1	0.00e+00	0	53	0	59244544	43	4521
2026-01-02 04:42:15.53	238.72	12.13	-36.0	-37.8	23.3	0.00e+00	0	53	0	60293120	43	4459
2026-01-02 04:42:16.54	238.55	12.24	-36.0	-37.8	23.2	0.00e+00	0	53	0	61341696	43	4493
2026-01-02 04:42:17.56	238.39	12.35	-35.8	-37.5	23.6	0.00e+00	0	53	0	62914560	43	4321
2026-01-02 04:42:18.56	238.23	12.46	-35.6	-37.3	23.8	0.00e+00	0	53	0	63963136	43	4207
2026-01-02 04:42:19.57	238.06	12.57	-35.4	-37.1	23.8	0.00e+00	0	53	0	65011712	42	4381
2026-01-02 04:42:20.58	237.90	12.68	-35.2	-36.8	24.2	0.00e+00	0	53	0	66060288	42	4221
2026-01-02 04:42:21.59	237.73	12.79	-35.2	-36.8	24.2	0.00e+00	0	53	0	67108864	42	4225
2026-01-02 04:42:22.60	237.56	12.90	-35.1	-36.7	24.3	0.00e+00	0	53	0	68157440	42	4178
2026-01-02 04:42:23.61	237.39	13.01	-35.3	-37.0	24.1	0.00e+00	0	53	0	69730304	42	4296
2026-01-02 04:42:24.62	237.21	13.13	-35.6	-37.4	23.8	0.00e+00	0	53	0	70778880	42	4494
2026-01-02 04:42:25.63	237.04	13.24	-35.6	-37.3	23.8	0.00e+00	0	53	0	71827456	42	4451
2026-01-02 04:42:26.64	236.86	13.35	-35.6	-37.3	23.8	0.00e+00	0	53	0	72876032	42	4460
2026-01-02 04:42:27.65	236.68	13.47	-35.6	-37.4	23.7	0.00e+00	0	53	0	73924608	42	4497
2026-01-02 04:42:28.66	236.50	13.58	-35.4	-37.1	24.0	0.00e+00	0	53	0	74973184	42	4354
2026-01-02 04:42:29.67	236.32	13.70	-35.3	-37.0	24.1	0.00e+00	0	53	0	76546048	42	4300
2026-01-02 04:42:30.68	236.13	13.81	-35.1	-36.8	24.3	0.00e+00	0	53	0	77594624	42	4208
2026-01-02 04:42:31.69	235.95	13.93	-35.0	-36.7	24.4	0.00e+00	0	53	0	78643200	42	4152
2026-01-02 04:42:32.70	235.76	14.05	-34.8	-36.4	24.5	0.00e+00	0	54	0	79691776	41	4264
2026-01-02 04:42:33.71	235.57	14.17	-34.9	-36.5	24.6	0.00e+00	0	53	0	80740352	41	4306
2026-01-02 04:42:34.72	235.38	14.28	-35.1	-36.8	24.3	0.00e+00	0	53	0	81788928	41	4472
2026-01-02 04:42:35.73	235.18	14.40	-35.0	-36.7	24.4	0.00e+00	0	53	0	83361792	41	4407
2026-01-02 04:42:36.74	234.99	14.52	-35.3	-37.0	24.1	0.00e+00	0	54	0	84410368	41	4570
2026-01-02 04:42:37.75	234.79	14.64	-35.4	-37.1	24.0	0.00e+00	0	53	0	85458944	41	4641
2026-01-02 04:42:38.76	234.59	14.76	-35.2	-36.9	24.2	0.00e+00	0	53	0	86507520	41	4530
2026-01-02 04:42:39.77	234.39	14.88	-35.0	-36.7	24.4	0.00e+00	0	53	0	87556096	41	4403
2026-01-02 04:42:40.78	234.18	15.01	-35.0	-36.6	24.5	0.00e+00	0	54	0	88604672	41	4383
2026-01-02 04:42:41.79	233.98	15.13	-34.8	-36.4	24.7	0.00e+00	0	54	0	90177536	41	4252
2026-01-02 04:42:42.80	233.77	15.25	-34.6	-36.1	25.0	0.00e+00	0	54	0	91226112	41	4145
2026-01-02 04:42:43.80	233.56	15.37	-34.8	-36.4	24.8	0.00e+00	0	53	0	92274688	41	4252
2026-01-02 04:42:44.81	233.35	15.50	-34.7	-36.3	24.8	0.00e+00	0	54	0	93323264	41	4226
2026-01-02 04:42:45.82	233.13	15.62	-35.0	-36.6	24.5	0.00e+00	0	54	0	94371840	41	4388
2026-01-02 04:42:46.83	232.91	15.75	-35.0	-36.7	24.4	0.00e+00	0	54	0	95420416	41	4421
2026-01-02 04:42:47.84	232.69	15.87	-34.9	-36.5	24.6	0.00e+00	0	54	0	96993280	41	4319
2026-01-02 04:42:48.85	232.47	16.00	-34.9	-36.5	24.6	0.00e+00	0	54	0	98041856	41	4339
2026-01-02 04:42:49.86	232.25	16.13	-34.5	-36.1	25.0	0.00e+00	0	54	0	99090432	41	4133
2026-01-02 04:42:50.87	232.02	16.26	-34.3	-35.9	25.2	0.00e+00	0	54	0	100139008	40	4247
2026-01-02 04:42:51.88	231.79	16.38	-34.0	-35.5	25.5	0.00e+00	0	54	0	101187584	39	4325
2026-01-02 04:42:52.89	231.56	16.51	-33.9	-35.3	25.8	0.00e+00	0	54	0	102236160	39	4233
2026-01-02 04:42:53.90	231.32	16.64	-34.0	-35.5	25.7	0.00e+00	0	54	0	103809024	39	4321
2026-01-02 04:42:54.91	231.08	16.77	-34.1	-35.6	25.6	0.00e+00	0	54	0	104857600	39	4346
2026-01-02 04:42:55.92	230.84	16.90	-34.1	-35.6	25.6	0.00e+00	0	54	0	105906176	39	4371
2026-01-02 04:42:56.93	230.60	17.03	-34.1	-35.6	25.6	0.00e+00	0	54	0	106954752	39	4346
2026-01-02 04:42:57.94	230.36	17.16	-33.7	-35.1	26.0	0.00e+00	0	54	0	108003328	39	4140
2026-01-02 04:42:58.95	230.11	17.30	-33.6	-35.0	26.1	0.00e+00	0	54	0	109051904	39	4093
2026-01-02 04:42:59.96	229.86	17.43	-33.6	-35.1	26.1	0.00e+00	0	54	0	110624768	39	4106
2026-01-02 04:43:00.97	229.61	17.56	-33.7	-35.2	26.0	0.00e+00	0	54	0	111673344	39	4151
2026-01-02 04:43:01.98	229.35	17.70	-33.8	-35.3	25.9	0.00e+00	0	54	0	112721920	39	4216
2026-01-02 04:43:02.99	229.09	17.83	-33.9	-35.4	25.8	0.00e+00	0	54	0	113770496	39	4249
2026-01-02 04:43:04.00	228.83	17.97	-33.7	-35.2	26.0	0.00e+00	0	54	0	114819072	39	4154
2026-01-02 04:43:05.01	228.57	18.10	-33.7	-35.1	26.1	0.00e+00	0	54	0	115867648	39	4127
2026-01-02 04:43:06.02	228.30	18.24	-33.7	-35.2	26.0	0.00e+00	0	54	0	117440512	39	4163
2026-01-02 04:43:07.03	228.03	18.37	-33.7	-35.1	26.0	0.00e+00	0	54	0	118489088	39	4117
2026-01-02 04:43:08.04	227.75	18.51	-33.7	-35.2	25.9	0.00e+00	0	54	0	119537664	39	4162
2026-01-02 04:43:09.04	227.48	18.65	-33.6	-35.0	26.1	0.00e+00	0	54	0	120586240	39	4080
2026-01-02 04:43:10.05	227.20	18.78	-33.6	-35.1	26.1	0.00e+00	0	54	0	121634816	39	4112
2026-01-02 04:43:11.06	226.92	18.92	-33.6	-35.1	26.1	0.00e+00	0	54	0	122683392	39	4099
2026-01-02 04:43:12.07	226.63	19.06	-33.7	-35.1	26.1	0.00e+00	0	54	0	124256256	39	4130
2026-01-02 04:43:13.09	226.34	19.20	-33.6	-35.0	26.2	0.00e+00	0	54	0	125304832	39	4089
2026-01-02 04:43:14.10	226.05	19.34	-33.6	-35.0	26.2	0.00e+00	0	54	0	126353408	39	4076
2026-01-02 04:43:15.11	225.75	19.48	-33.5	-34.9	26.2	0.00e+00	0	54	0	127401984	39	4050
2026-01-02 04:43:16.12	225.45	19.62	-33.6	-35.0	26.2	0.00e+00	0	54	0	128450560	39	4091
2026-01-02 04:43:17.12	225.15	19.76	-33.6	-35.0	26.2	0.00e+00	0	54	0	129499136	39	4085
2026-01-02 04:43:18.14	224.85	19.90	-33.5	-34.9	26.3	0.00e+00	0	54	0	131072000	39	4044
2026-01-02 04:43:19.15	224.54	20.04	-33.6	-35.0	26.2	0.00e+00	0	54	0	132120576	39	4091
2026-01-02 04:43:20.16	224.22	20.18	-33.6	-35.1	26.2	0.00e+00	0	54	0	133169152	39	4099
2026-01-02 04:43:21.17	223.91	20.33	-33.6	-35.0	26.2	0.00e+00	0	54	0	134217728	39	4087
2026-01-02 04:43:22.18	223.59	20.47	-33.6	-35.0	26.3	0.00e+00	0	54	0	135266304	39	4085
2026-01-02 04:43:23.19	223.27	20.61	-33.4	-34.8	26.5	0.00e+00	0	54	0	136314880	38	4209
2026-01-02 04:43:24.19	222.94	20.75	-33.2	-34.6	26.6	0.00e+00	0	54	0	137887744	38	4138
2026-01-02 04:43:25.20	222.61	20.90	-33.2	-34.6	26.7	0.00e+00	0	54	0	138936320	38	4115
2026-01-02 04:43:26.21	222.28	21.04	-33.3	-34.8	26.5	0.00e+00	0	54	0	139984896	38	4199
2026-01-02 04:43:27.22	221.94	21.18	-33.5	-34.9	26.4	0.00e+00	0	54	0	141033472	38	4264
2026-01-02 04:43:28.23	221.60	21.33	-33.4	-34.8	26.5	0.00e+00	0	54	0	142082048	38	4227
2026-01-02 04:43:29.24	221.25	21.47	-33.2	-34.6	26.6	0.00e+00	0	54	0	143130624	38	4142
2026-01-02 04:43:30.25	220.90	21.62	-33.2	-34.6	26.7	0.00e+00	0	54	0	144703488	38	4124
2026-01-02 04:43:31.26	220.55	21.76	-33.3	-34.7	26.6	0.00e+00	0	54	0	145752064	38	4164
2026-01-02 04:43:32.27	220.19	21.90	-33.5	-35.0	26.3	0.00e+00	0	54	0	146800640	38	4302
2026-01-02 04:43:33.28	219.83	22.05	-33.5	-34.9	26.4	0.00e+00	0	54	0	147849216	38	4275
2026-01-02 04:43:34.29	219.47	22.19	-33.2	-34.6	26.7	0.00e+00	0	54	0	148897792	38	4132
2026-01-02 04:43:35.30	219.10	22.34	-32.9	-34.3	27.0	0.00e+00	0	54	0	149946368	37	4206
2026-01-02 04:43:36.31	218.73	22.48	-32.7	-34.1	27.1	0.00e+00	0	54	0	151519232	37	4107
2026-01-02 04:43:37.32	218.35	22.63	-32.7	-34.1	27.2	0.00e+00	0	54	0	152567808	37	4101
2026-01-02 04:43:38.33	217.97	22.77	-32.6	-33.9	27.2	0.00e+00	0	54	0	153616384	37	4051
2026-01-02 04:43:39.34	217.58	22.92	-32.7	-34.1	27.1	0.00e+00	0	54	0	154664960	37	4118
2026-01-02 04:43:40.35	217.19	23.06	-32.7	-34.1	27.2	0.00e+00	0	54	0	155713536	37	4112
2026-01-02 04:43:41.36	216.80	23.20	-32.7	-34.1	27.1	0.00e+00	0	55	0	156762112	37	4114
2026-01-02 04:43:42.37	216.40	23.35	-32.8	-34.2	27.1	0.00e+00	0	54	0	158334976	37	4166
2026-01-02 04:43:43.38	216.00	23.49	-32.8	-34.2	27.0	0.00e+00	0	54	0	159383552	37	4185
2026-01-02 04:43:44.39	215.59	23.63	-32.7	-34.1	27.1	0.00e+00	0	54	0	160432128	37	4126
2026-01-02 04:43:45.40	215.18	23.78	-32.4	-33.8	27.4	0.00e+00	0	55	0	161480704	36	4201
2026-01-02 04:43:46.41	214.76	23.92	-32.4	-33.7	27.5	0.00e+00	0	55	0	162529280	36	4161
2026-01-02 04:43:47.42	214.34	24.06	-32.5	-33.8	27.5	0.00e+00	0	55	0	163577856	36	4213
2026-01-02 04:43:48.43	213.92	24.20	-32.7	-34.1	27.1	0.00e+00	0	55	0	165150720	36	4352
2026-01-02 04:43:49.44	213.49	24.34	-32.6	-33.9	27.3	0.00e+00	0	55	0	166199296	36	4269
2026-01-02 04:43:50.44	213.06	24.48	-32.4	-33.8	27.5	0.00e+00	0	55	0	167247872	36	4196
2026-01-02 04:43:51.45	212.62	24.62	-32.3	-33.6	27.6	0.00e+00	0	55	0	168296448	36	4119
2026-01-02 04:43:52.46	212.18	24.76	-32.2	-33.5	27.6	0.00e+00	0	54	0	169345024	36	4098
2026-01-02 04:43:53.47	211.73	24.90	-32.3	-33.6	27.6	0.00e+00	0	55	0	170393600	36	4138
2026-01-02 04:43:54.48	211.28	25.04	-32.0	-33.3	27.9	0.00e+00	0	55	0	171966464	36	3993
2026-01-02 04:43:55.49	210.82	25.18	-32.1	-33.5	27.8	0.00e+00	0	55	0	173015040	36	4054
2026-01-02 04:43:56.50	210.36	25.31	-32.2	-33.6	27.7	0.00e+00	0	55	0	174063616	36	4109
2026-01-02 04:43:57.51	209.90	25.45	-32.5	-33.9	27.4	0.00e+00	0	55	0	175112192	36	4261
2026-01-02 04:43:58.52	209.43	25.58	-32.6	-34.0	27.3	0.00e+00	0	55	0	176160768	36	4308
2026-01-02 04:43:59.53	208.95	25.72	-32.4	-33.8	27.4	0.00e+00	0	55	0	177209344	36	4196
2026-01-02 04:44:00.54	208.47	25.85	-32.5	-33.8	27.4	0.00e+00	0	55	0	178782208	36	4219
2026-01-02 04:44:01.55	207.99	25.98	-32.4	-33.8	27.5	0.00e+00	0	55	0	179830784	36	4197
2026-01-02 04:44:02.56	207.50	26.11	-32.4	-33.7	27.5	0.00e+00	0	55	0	180879360	36	4189
2026-01-02 04:44:03.57	207.01	26.24	-32.5	-33.9	27.0	0.00e+00	0	55	0	181927936	36	4272
2026-01-02 04:44:04.58	206.51	26.37	-32.6	-34.0	27.3	0.00e+00	0	55	0	182976512	36	4302
2026-01-02 04:44:05.59	206.01	26.49	-32.3	-33.6	27.6	0.00e+00	0	55	0	184025088	36	4126
2026-01-02 04:44:06.60	205.50	26.62	-32.2	-33.6	27.6	0.00e+00	0	55	0	185597952	36	4111
2026-01-02 04:44:07.61	204.99	26.74	-32.4	-33.7	27.5	0.00e+00	0	55	0	186646528	36	4171
2026-01-02 04:44:08.62	204.48	26.86	-32.1	-33.4	27.7	0.00e+00	0	55	0	187695104	36	4028
2026-01-02 04:44:09.63	203.95	26.98	-31.3	-32.6	27.9	0.00e+00	0	55	0	188743680	34	4144
2026-01-02 04:44:10.64	203.43	27.10	-31.6	-32.9	27.7	0.00e+00	0	55	0	189792256	34	4279
2026-01-02 04:44:11.65	202.90	27.22	-32.0	-33.4	27.3	0.00e+00	0	55	0	190840832	34	4514
2026-01-02 04:44:12.66	202.37	27.33	-32.0	-33.4	27.2	0.00e+00	0	55	0	192413696	34	4502
2026-01-02 04:44:13.67	201.83	27.45	-31.9	-33.3	27.3	0.00e+00	0	55	0	193462272	34	4473
2026-01-02 04:44:14.68	201.29	27.56	-32.0	-33.4	27.2	0.00e+00	0	55	0	194510848	34	4519
2026-01-02 04:44:15.69	200.74	27.67	-31.6	-32.9	27.6	0.00e+00	0	55	0	195559424	34	4287
2026-01-02 04:44:16.70	200.19	27.77	-31.6	-33.0	27.6	0.00e+00	0	55	0	196608000	34	4302
2026-01-02 04:44:17.71	199.64	27.88	-31.6	-33.0	27.6	0.00e+00	0	55	0	197656576	34	4309
2026-01-02 04:44:18.72	199.08	27.98	-31.6	-32.9	27.7	0.00e+00	0	55	0	199229440	34	4279
2026-01-02 04:44:19.73	198.52	28.08	-31.7	-33.0	27.6	0.00e+00	0	55	0	200278016	34	4322
2026-01-02 04:44:20.73	197.95	28.18	-31.8	-33.1	27.5	0.00e+00	0	55	0	201326592	34	4372
2026-01-02 04:44:21.74	197.38	28.27	-31.5	-32.8	27.7	0.00e+00	0	55	0	202375168	34	4214
2026-01-02 04:44:22.75	196.81	28.37	-31.3	-32.6	28.0	0.00e+00	0	55	0	203423744	34	4103
2026-01-02 04:44:23.76	196.23	28.46	-31.4	-32.7	27.9	0.00e+00	0	55	0	204472320	34	4182
2026-01-02 04:44:24.77	195.65	28.55	-31.3	-32.6	27.9	0.00e+00	0	55	0	206045184	34	4126
2026-01-02 04:44:25.78	195.06	28.63	-31.1	-32.4	28.1	0.00e+00	0	55	0	207093760	34	4012
2026-01-02 04:44:26.79	194.48	28.72	-31.6	-33.0	27.6	0.00e+00	0	55	0	208142336	34	4307
2026-01-02 04:44:27.80	193.88	28.80	-31.3	-32.6	27.6	0.00e+00	0	55	0	209190912	34	4131
2026-01-02 04:44:28.81	193.29	28.87	-31.1	-32.4	28.0	0.00e+00	0	55	0	210239488	34	4042
2026-01-02 04:44:29.82	192.69	28.95	-31.8	-33.2	27.5	0.00e+00	0	55	0	211288064	34	4393
2026-01-02 04:44:30.83	192.09	29.02	-31.8	-33.2	27.4	0.00e+00	0	55	0	212860928	34	4408
2026-01-02 04:44:31.84	191.48	29.09	-31.7	-33.0	27.6	0.00e+00	0	55	0	213909504	34	4338
2026-01-02 04:44:32.85	190.88	29.15	-31.9	-33.3	27.4	0.00e+00	0	55	0	214958080	34	4450
2026-01-02 04:44:33.85	190.27	29.22	-31.7	-33.1	27.5	0.00e+00	0	55	0	216006656	34	4350
2026-01-02 04:44:34.86	189.66	29.28	-31.4	-32.8	27.8	0.00e+00	0	55	0	217055232	34	4195
2026-01-02 04:44:35.87	189.04	29.33	-31.4	-32.7	27.9	0.00e+00	0	55	0	218103808	34	4164
2026-01-02 04:44:36.88	188.43	29.39	-31.4	-32.8	27.8	0.00e+00	0	55	0	219676672	34	4196
2026-01-02 04:44:37.89	187.81	29.44	-31.8	-33.1	27.5	0.00e+00	0	55	0	220725248	34	4378
2026-01-02 04:44:38.90	187.18	29.48	-31.7	-33.1	27.5	0.00e+00	0	55	0	221773824	34	4357
2026-01-02 04:44:39.91	186.56	29.53	-31.3	-32.6	28.0	0.00e+00	0	55	0	222822400	34	4118
2026-01-02 04:44:40.92	185.93	29.57	-31.2	-32.5	28.0	0.00e+00	0	55	0	223870976	34	4067
2026-01-02 04:44:41.93	185.31	29.60	-31.1	-32.4	28.1	0.00e+00	0	55	0	224919552	34	4045
2026-01-02 04:44:42.94	184.68	29.64	-31.5	-32.8	27.7	0.00e+00	0	55	0	226492416	34	4233
2026-01-02 04:44:43.95	184.05	29.67	-31.6	-33.0	27.6	0.00e+00	0	55	0	227540992	34	4303
2026-01-02 04:44:44.96	183.42	29.69	-31.3	-32.6	27.9	0.00e+00	0	55	0	228589568	34	4142
2026-01-02 04:44:45.97	182.78	29.72	-31.5	-32.8	27.7	0.00e+00	0	55	0	229638144	34	4236
2026-01-02 04:44:46.98	182.15	29.73	-31.2	-32.5	28.0	0.00e+00	0	55	0	230686720	34	4074
2026-01-02 04:44:47.99	181.52	29.75	-31.0	-32.3	28.2	0.00e+00	0	55	0	231735296	33	4214
2026-01-02 04:44:49.00	180.88	29.76	-31.3	-32.6	27.9	0.00e+00	0	55	0	233308160	33	4344
2026-01-02 04:44:50.01	180.25	29.77	-31.3	-32.6	27.9	0.00e+00	0	55	0	234356736	33	4361
2026-01-02 04:44:51.02	179.61	29.78	-31.5	-32.8	27.8	0.00e+00	0	55	0	235405312	33	4454
2026-01-02 04:44:52.02	178.98	29.78	-31.4	-32.8	27.8	0.00e+00	0	55	0	236453888	33	4445
2026-01-02 04:44:53.03	178.35	29.78	-31.2	-32.5	28.1	0.00e+00	0	55	0	237502464	33	4298
2026-01-02 04:44:54.04	177.71	29.77	-31.5	-32.8	27.8	0.00e+00	0	55	0	238551040	33	4481
2026-01-02 04:44:55.06	177.07	29.76	-31.7	-33.1	27.5	0.00e+00	0	55	0	240123904	34	4368
2026-01-02 04:44:56.06	176.44	29.75	-31.7	-33.0	27.6	0.00e+00	0	55	0	241172480	34	4318
2026-01-02 04:44:57.07	175.81	29.73	-31.9	-33.2	27.4	0.00e+00	0	55	0	242221056	34	4430
2026-01-02 04:44:58.08	175.17	29.71	-31.7	-33.0	27.9	0.00e+00	0	55	0	243269632	34	4325
2026-01-02 04:44:59.09	174.54	29.69	-31.3	-32.7	27.9	0.00e+00	0	55	0	244318208	34	4146
2026-01-02 04:45:00.10	173.91	29.66	-31.5	-32.9	27.8	0.00e+00	0	55	0	245366784	34	4253
2026-01-02 04:45:01.11	173.28	29.63	-31.6	-32.9	27.7	0.00e+00	0	55	0	246939648	34	4283
2026-01-02 04:45:02.12	172.65	29.60	-31.7	-33.0	27.6	0.00e+00	0	55	0	247988224	33	4588
2026-01-02 04:45:03.13	172.03	29.56	-31.6	-33.0	27.6	0.00e+00	0	55	0	249036800	33	4553
2026-01-02 04:45:04.14	171.40	29.52	-31.3	-32.7	27.8	0.00e+00	0	55	0	250085376	33	4416
2026-01-02 04:45:05.15	170.78	29.48	-31.5	-32.9	27.7	0.00e+00	0	55	0	251133952	33	4512
2026-01-02 04:45:06.16	170.16	29.43	-31.8	-33.2	27.5	0.00e+00	0	55	0	252182528	34	4393
2026-01-02 04:45:07.17	169.54	29.38	-31.7	-33.1	27.5	0.00e+00	0	55	0	253755392	34	4365
2026-01-02 04:45:08.18	168.92	29.33	-31.6	-32.9	27.7	0.00e+00	0	55	0	254803968	34	4284
2026-01-02 04:45:09.19	168.31	29.27	-31.4	-32.8	27.8	0.00e+00	0	55	0	255852544	34	4203
2026-01-02 04:45:10.20	167.69	29.21	-31.3	-32.7	27.9	0.00e+00	0	55	0	256901120	34	4167
2026-01-02 04:45:11.21	167.08	29.14	-31.5	-32.9	27.8	0.00e+00	0	55	0	257949696	34	4266
2026-01-02 04:45:12.22	166.48	29.08	-31.5	-32.9	27.8	0.00e+00	0	55	0	258998272	34	4260
2026-01-02 04:45:13.23	165.87	29.01	-31.5	-32.8	27.8	0.00e+00	0	55	0	260571136	34	4224
2026-01-02 04:45:14.24	165.27	28.94	-31.3	-32.7	28.0	0.00e+00	0	55	0	261619712	34	4154
2026-01-02 04:45:15.25	164.67	28.86	-31.3	-32.6	28.1	0.00e+00	0	55	0	262668288	34	4130
2026-01-02 04:45:16.25	164.09	28.79	-31.2	-32.6	28.1	0.00e+00	0	55	0	263716864	34	4112
2026-01-02 04:45:17.26	163.49	28.70	-31.6	-32.9	27.8	0.00e+00	0	55	0	264765440	34	4280
2026-01-02 04:45:18.27	162.91	28.62	-31.6	-32.9	27.8	0.00e+00	0	56	0	265814016	34	4285
2026-01-02 04:45:19.28	162.32	28.54	-31.5	-32.9	27.8	0.00e+00	0	55	0	267386880	34	4244
2026-01-02 04:45:20.29	161.74	28.45	-31.3	-32.6	28.1	0.00e+00	0	55	0	268435456	34	4127
2026-01-02 04:45:21.30	161.16	28.36	-31.4	-32.7	27.9	0.00e+00	0	55	0	269484032	34	4174
2026-01-02 04:45:22.31	160.59	28.26	-31.5	-32.9	27.8	0.00e+00	0	55	0	270532608	34	4263
2026-01-02 04:45:23.32	160.02	28.17	-31.7	-33.1	27.6	0.00e+00	0	55	0	271581184	34	4380
2026-01-02 04:45:24.33	159.46	28.07	-32.2	-33.6	27.2	0.00e+00	0	55	0	272629760	34	4638
2026-01-02 04:45:25.34	158.89	27.97	-32.0	-33.4	27.3	0.00e+00	0	55	0	274202624	35	4290
2026-01-02 04:45:26.35	158.34	27.86	-31.7	-33.1	27.7	0.00e+00	0	55	0	275251200	35	4099
2026-01-02 04:45:27.36	157.78	27.76	-31.4	-32.7	28.0	0.00e+00	0	56	0	276299776	34	4166
2026-01-02 04:45:28.37	157.23	27.65	-31.3	-32.7	28.0	0.00e+00	0	55	0	277348352	34	4159
2026-01-02 04:45:29.38	156.69	27.54	-31.6	-32.9	27.8	0.00e+00	0	56	0	278396928	34	4283
2026-01-02 04:45:30.39	156.15	27.43	-32.0	-33.3	27.4	0.00e+00	0	55	0	279445504	34	4491
2026-01-02 04:45:31.40	155.61	27.32	-31.8	-33.2	27.5	0.00e+00	0	56	0	281018368	34	4424
2026-01-02 04:45:32.41	155.08	27.20	-31.6	-33.0	27.7	0.00e+00	0	56	0	282066944	34	4305
2026-01-02 04:45:33.42	154.55	27.08	-32.0	-33.4	27.4	0.00e+00	0	56	0	283115520	34	4507
2026-01-02 04:45:34.42	154.03	26.97	-32.1	-33.5	27.2	0.00e+00	0	56	0	284164096	34	4579
2026-01-02 04:45:35.43	153.51	26.85	-32.0	-33.3	27.4	0.00e+00	0	56	0	285212672	34	4489
2026-01-02 04:45:36.44	153.00	26.73	-31.8	-33.2	27.6	0.00e+00	0	56	0	286261248	34	4427
2026-01-02 04:45:37.45	152.49	26.60	-31.7	-33.1	27.6	0.00e+00	0	55	0	287834112	34	4349
2026-01-02 04:45:38.46	151.98	26.48	-31.5	-32.8	27.8	0.00e+00	0	55	0	288882688	34	4219
2026-01-02 04:45:39.47	151.48	26.35	-31.4	-32.8	27.9	0.00e+00	0	56	0	289931264	34	4197
2026-01-02 04:45:40.48	150.99	26.22	-31.4	-32.7	27.9	0.00e+00	0	55	0	290979840	34	4183
2026-01-02 04:45:41.49	150.49	26.09	-31.5	-32.8	27.8	0.00e+00	0	56	0	292028416	34	4221
2026-01-02 04:45:42.50	150.01	25.96	-31.8	-33.2	27.5	0.00e+00	0	56	0	293076992	34	4409
2026-01-02 04:45:43.51	149.52	25.83	-32.1	-33.5	27.3	0.00e+00	0	56	0	294649856	34	4553
2026-01-02 04:45:44.52	149.05	25.70	-32.5	-34.0	26.8	0.00e+00	0	55	0	295698432	35	4553
2026-01-02 04:45:45.53	148.57	25.57	-32.5	-34.0	26.7	0.00e+00	0	56	0	296747008	35	4556
2026-01-02 04:45:46.54	148.10	25.43	-31.9	-33.3	27.3	0.00e+00	0	56	0	297795584	35	4218
2026-01-02 04:45:47.55	147.64	25.30	-31.5	-32.8	27.8	0.00e+00	0	56	0	298844160	35	3989
2026-01-02 04:45:48.56	147.18	25.16	-31.4	-32.8	27.8	0.00e+00	0	55	0	299892736	34	4208
2026-01-02 04:45:49.57	146.73	25.02	-31.7	-33.1	27.6	0.00e+00	0	56	0	301465600	34	4356
2026-01-02 04:45:50.58	146.28	24.89	-31.7	-33.0	27.6	0.00e+00	0	56	0	302514176	34	4338
2026-01-02 04:45:51.59	145.83	24.75	-31.7	-33.0	27.6	0.00e+00	0	55	0	303562752	34	4334
2026-01-02 04:45:52.60	145.39	24.61	-31.7	-33.1	27.6	0.00e+00	0	56	0	304611328	34	4362
2026-01-02 04:45:53.61	144.95	24.47	-31.9	-33.3	27.4	0.00e+00	0	56	0	305659904	34	4459
2026-01-02 04:45:54.62	144.52	24.33	-31.9	-33.3	27.3	0.00e+00	0	56	0	306708480	34	4487
2026-01-02 04:45:55.63	144.09	24.19	-31.9	-33.3	27.4	0.00e+00	0	56	0	308281344	34	4454
2026-01-02 04:45:56.64	143.67	24.05	-31.9	-33.3	27.3	0.00e+00	0	55	0	309329920	34	4478
2026-01-02 04:45:57.64	143.25	23.91	-32.0	-33.4	27.2	0.00e+00	0	55	0	310378496	34	4539
2026-01-02 04:45:58.66	142.83	23.76	-31.9	-33.3	27.3	0.00e+00	0	56	0	311427072	34	4482
2026-01-02 04:45:59.67	142.42	23.62	-31.8	-33.1	27.4	0.00e+00	0	56	0	312475648	34	4388
2026-01-02 04:46:00.68	142.02	23.48	-31.6	-33.0	27.5	0.00e+00	0	56	0	313524224	34	4298
2026-01-02 04:46:01.69	141.62	23.33	-31.7	-33.1	27.3	0.00e+00	0	56	0	314572800	34	4368
2026-01-02 04:46:02.70	141.22	23.19	-32.0	-33.5	27.0	0.00e+00	0	56	0	316145664	34	4550
2026-01-02 04:46:03.70	140.83	23.05	-32.4	-33.8	26.8	0.00e+00	0	56	0	317194240	35	4478
2026-01-02 04:46:04.72	140.44	22.90	-32.5	-33.9	26.6	0.00e+00	0	56	0	318242816	35	4535
2026-01-02 04:46:05.73	140.05	22.76	-32.3	-33.7	26.8	0.00e+00	0	55	0	319291392	35	4440
2026-01-02 04:46:06.74	139.67	22.61	-32.0	-33.4	27.2	0.00e+00	0	56	0	320339968	35	4250
2026-01-02 04:46:07.74	139.30	22.47	-32.0	-33.4	27.2	0.00e+00	0	56	0	321912832	35	4249
2026-01-02 04:46:08.75	138.93	22.33	-32.3	-33.7	26.9	0.00e+00	0	56	0	322961408	35	4422
2026-01-02 04:46:09.76	138.56	22.18	-32.5	-34.0	26.6	0.00e+00	0	56	0	324009984	35	4559
2026-01-02 04:46:10.77	138.20	22.04	-32.3	-33.7	26.8	0.00e+00	0	56	0	325058560	35	4434
2026-01-02 04:46:11.78	137.84	21.89	-32.2	-33.6	26.9	0.00e+00	0	56	0	326107136	35	4378
2026-01-02 04:46:12.79	137.48	21.75	-32.2	-33.6	26.9	0.00e+00	0	56	0	327155712	35	4383
2026-01-02 04:46:13.80	137.13	21.61	-32.5	-33.9	26.7	0.00e+00	0	56	0	328728576	35	4527
2026-01-02 04:46:14.81	136.78	21.46	-33.4	-34.8	26.4	0.00e+00	0	56	0	329777152	37	4477
2026-01-02 04:46:15.82	136.43	21.32	-33.6	-35.1	26.1	0.00e+00	0	56	0	330825728	37	4631
2026-01-02 04:46:16.83	136.09	21.17	-33.9	-35.4	25.9	0.00e+00	0	56	0	331874304	38	4511
2026-01-02 04:46:17.84	135.76	21.03	-33.8	-35.3	26.0	0.00e+00	0	56	0	332922880	38	4448
2026-01-02 04:46:18.85	135.42	20.89	-33.4	-34.8	26.4	0.00e+00	0	55	0	333971456	38	4222
2026-01-02 04:46:19.86	135.09	20.74	-32.9	-34.3	26.8	0.00e+00	0	56	0	335544320	37	4229
2026-01-02 04:46:20.86	134.77	20.60	-32.8	-34.2	26.8	0.00e+00	0	56	0	336592896	37	4178
2026-01-02 04:46:21.87	134.45	20.46	-33.1	-34.5	26.6	0.00e+00	0	56	0	337641472	37	4310
2026-01-02 04:46:22.88	134.13	20.32	-33.4	-34.9	26.3	0.00e+00	0	56	0	338690048	37	4498
2026-01-02 04:46:23.89	133.82	20.18	-33.4	-34.9	26.3	0.00e+00	0	56	0	339738624	37	4503
2026-01-02 04:46:24.90	133.50	20.04	-33.6	-35.1	26.1	0.00e+00	0	56	0	340787200	37	4620
2026-01-02 04:46:25.91	133.20	19.89	-33.6	-35.1	26.1	0.00e+00	0	56	0	342360064	37	4629
2026-01-02 04:46:26.92	132.89	19.75	-33.7	-35.2	26.0	0.00e+00	0	56	0	343408640	37	4672
2026-01-02 04:46:27.93	132.59	19.61	-33.5	-34.9	26.2	0.00e+00	0	56	0	344457216	37	4534
2026-01-02 04:46:28.94	132.29	19.47	-33.5	-34.9	26.1	0.00e+00	0	56	0	345505792	37	4533
2026-01-02 04:46:29.95	132.00	19.33	-33.5	-35.0	26.2	0.00e+00	0	56	0	346554368	37	4559
2026-01-02 04:46:30.96	131.71	19.19	-33.7	-35.2	25.9	0.00e+00	0	56	0	347602944	37	4661
2026-01-02 04:46:31.97	131.42	19.06	-32.9	-35.3	25.4	0.00e+00	0	56	0	349175808	38	4465
2026-01-02 04:46:32.98	131.13	18.92	-33.8	-35.3	25.4	0.00e+00	0	56	0	350224384	38	4464
2026-01-02 04:46:33.99	130.85	18.78	-33.9	-35.3	24.4	0.00e+00	0	56	0	351272960	36	4985
2026-01-02 04:46:35.00	130.57	18.64	-33.9	-35.4	25.5	0.00e+00	0	56	0	352321536	38	4502
2026-01-02 04:46:36.01	130.30	18.51	-33.7	-35.3	25.8	0.00e+00	0	56	0	353370112	38	4453
2026-01-02 04:46:37.02	130.02	18.37	-33.8	-35.2	25.4	0.00e+00	0	56	0	354418688	38	4434
2026-01-02 04:46:38.03	129.75	18.23	-33.6	-35.0	25.9	0.00e+00	0	56	0	355467264	38	4334
2026-01-02 04:46:39.04	129.49	18.10	-33.6	-35.0	24.1	0.00e+00	0	56	0	357040128	37	4591
2026-01-02 04:46:40.05	129.22	17.96	-33.7	-35.2	25.8	0.00e+00	0	56	0	358088704	37	4652
2026-01-02 04:46:41.06	128.96	17.83	-33.8	-35.5	25.4	0.00e+00	0	56	0	359137280	38	4556
2026-01-02 04:46:42.07	128.71	17.69	-33.8	-35.2	25.8	0.00e+00	0	56	0	360185856	38	4440
2026-01-02 04:46:43.08	128.45	17.56	-33.9	-35.4	25.7	0.00e+00	0	56	0	361234432	38	4498
2026-01-02 04:46:44.09	128.20	17.43	-33.8	-35.3	25.7	0.00e+00	0	56	0	362283008	38	4473
2026-01-02 04:46:45.10	127.95	17.30	-33.8	-35.3	25.7	0.00e+00	0	56	0	363855872	38	4493
2026-01-02 04:46:46.11	127.70	17.16	-33.8	-35.3	25.7	0.00e+00	0	56	0	364904448	38	4482
2026-01-02 04:46:47.12	127.46	17.03	-34.0	-35.5	25.6	0.00e+00	0	56	0	365953024	38	4565
2026-01-02 04:46:48.13	127.21	16.90	-34.2	-35.8	25.3	0.00e+00	0	56	0	367001600	39	4458
2026-01-02 04:46:49.14	126.98	16.77	-34.3	-35.9	25.1	0.00e+00	0	56	0	368050176	39	4525
2026-01-02 04:46:50.15	126.74	16.64	-34.6	-36.2	24.9	0.00e+00	0	56	0	369623040	39	4654
2026-01-02 04:46:51.16	126.51	16.51	-34.6	-36.3	24.7	0.00e+00	0	56	0	370671616	40	4443
2026-01-02 04:46:52.17	126.27	16.38	-34.6	-36.2	24.8	0.00e+00	0	56	0	371720192	40	4400
2026-01-02 04:46:53.18	126.04	16.26	-34.0	-36.1	24.9	0.00e+00	0	56	0	372768768	39	4611
2026-01-02 04:46:54.19	125.82	16.13	-34.2	-35.7	25.2	0.00e+00	0	56	0	373817344	39	4420
2026-01-02 04:46:55.20	125.59	16.00	-34.0	-35.5	25.4	0.00e+00	0	56	0	374865920	38	4578
2026-01-02 04:46:56.21	125.37	15.88	-33.9	-35.4	25.5	0.00e+00	0	56	0	376438784	38	4519
2026-01-02 04:46:57.22	125.15	15.75	-34.0	-35.5	25.4	0.00e+00	0	56	0	377487360	38	4559
2026-01-02 04:46:58.22	124.94	15.63	-34.1	-35.7	25.2	0.00e+00	0	56	0	378535936	38	4667
2026-01-02 04:46:59.23	124.72	15.50	-34.5	-36.1	24.9	0.00e+00	0	56	0	379584512	39	4633
2026-01-02 04:47:00.24	124.51	15.38	-34.7	-36.4	24.5	0.00e+00	0	56	0	380633088	40	4528
2026-01-02 04:47:01.25	124.30	15.26	-34.9	-36.8	24.2	0.00e+00	0	56	0	381681664	40	4711
2026-01-02 04:47:02.26	124.09	15.13	-35.2	-37.1	23.8	0.00e+00	0	56	0	383254528	41	4630
2026-01-02 04:47:03.27	123.89	15.01	-35.2	-37.1	23.8	0.00e+00	0	56	0	384303104	41	4608
2026-01-02 04:47:04.28	123.68	14.89	-35.0	-36.9	23.9	0.00e+00	0	56	0	385351680	41	4533
2026-01-02 04:47:05.29	123.48	14.77	-34.8	-36.8	23.9	0.00e+00	0	56	0	386400256	40	4716
2026-01-02 04:47:06.30	123.28	14.65	-34.5	-36.5	24.3	0.00e+00	0	56	0	387448832	39	4836
2026-01-02 04:47:07.31	123.08	14.53	-34.2	-36.3	24.4	0.00e+00	0	56	0	388497408	39	4743
2026-01-02 04:47:08.32	122.89	14.41	-34.2	-36.3	24.3	0.00e+00	0	56	0	390070272	39	4732
2026-01-02 04:47:09.33	122.69	14.29	-34.1	-36.4	23.8	0.00e+00	0	56	0	391118848	39	4779
2026-01-02 04:47:10.34	122.50	14.17	-34.2	-36.7	23.9	0.00e+00	0	56	0	392167424	39	4929
2026-01-02 04:47:11.35	122.31	14.05	-34.0	-36.8	23.7	0.00e+00	0	56	0	393216000	39	5011
2026-01-02 04:47:12.36	122.13	13.94	-34.8	-36.9	23.5	1.10e-06	0	56	0	394264576	40	4811
2026-01-02 04:47:13.37	121.94	13.82	-34.4	-37.0	23.6	0.00e+00	0	56	0	395313152	40	4815
2026-01-02 04:47:14.38	121.76	13.70	-34.9	-37.0	23.6	0.00e+00	0	56	0	396361728	40	4833
2026-01-02 04:47:15.39	121.57	13.59	-35.1	-37.2	23.2	0.00e+00	0	56	0	397934592	41	4678
2026-01-02 04:47:16.40	121.39	13.47	-35.3	-37.3	23.2	0.00e+00	0	56	0	398983168	41	4732
2026-01-02 04:47:17.41	121.21	13.36	-35.3	-37.3	23.3	0.00e+00	0	56	0	400031744	41	4708
2026-01-02 04:47:18.42	121.04	13.25	-35.2	-37.2	23.2	0.00e+00	0	56	0	401080320	41	4658
2026-01-02 04:47:19.43	120.86	13.13	-35.2	-37.2	23.4	0.00e+00	0	56	0	402128896	41	4663
2026-01-02 04:47:20.44	120.69	13.02	-35.3	-37.3	23.2	0.00e+00	0	56	0	403177472	41	4745
2026-01-02 04:47:21.45	120.52	12.91	-34.5	-37.4	19.4	4.11e-05	0	56	0	404750336	40	5077
2026-01-02 04:47:22.46	120.35	12.80	-35.4	-37.6	22.5	4.28e-04	0	56	0	405798912	41	4910
2026-01-02 04:47:23.47	120.18	12.69	-34.8	-37.7	22.4	4.28e-04	0	56	0	406847488	41	4973
2026-01-02 04:47:24.48	120.01	12.58	-34.7	-37.4	22.5	1.64e-04	0	56	0	407896064	40	5067
2026-01-02 04:47:25.49	119.85	12.47	-31.5	-37.7	18.5	1.10e-06	0	56	0	408944640	37	6207
2026-01-02 04:47:26.50	119.69	12.36	-35.6	-37.8	21.4	8.31e-04	0	56	0	410517504	41	5033
2026-01-02 04:47:27.51	119.53	12.25	-35.2	-37.9	22.0	8.31e-04	0	56	0	411566080	40	5365
2026-01-02 04:47:28.52	119.37	12.14	-34.3	-37.7	21.4	1.10e-06	0	56	0	412614656	41	4954
2026-01-02 04:47:29.53	119.21	12.03	-35.5	-38.3	21.6	1.10e-06	0	56	0	413663232	41	5284
2026-01-02 04:47:30.53	119.05	11.93	-35.0	-38.0	21.5	1.10e-06	0	56	0	414711808	41	5133
2026-01-02 04:47:31.55	118.89	11.82	-34.1	-38.5	20.6	5.70e-06	0	56	0	415760384	41	5420
2026-01-02 04:47:32.55	118.74	11.71	-33.0	-37.9	21.0	3.89e-05	0	56	0	417333248	40	5371
2026-01-02 04:47:33.56	118.59	11.61	-34.8	-37.9	20.0	3.89e-05	0	56	0	418381824	40	5387
2026-01-02 04:47:34.57	118.44	11.50	-32.0	-37.9	19.7	1.05e-04	0	56	0	419430400	38	5994
2026-01-02 04:47:35.58	118.29	11.40	-33.0	-37.9	16.9	1.14e-04	0	56	0	420478976	34	7568
2026-01-02 04:47:36.59	118.14	11.29	-32.6	-37.3	18.3	1.14e-04	0	56	0	421527552	35	6703
2026-01-02 04:47:37.60	117.99	11.19	-30.5	-36.3	17.5	4.91e-04	0	56	0	422576128	32	7091
2026-01-02 04:47:38.61	117.85	11.09	-30.1	-36.2	17.1	1.63e-03	0	56	0	424148992	30	7888
2026-01-02 04:47:39.62	117.71	10.98	-29.5	-38.2	15.5	2.65e-03	0	56	0	425197568	31	9296
2026-01-02 04:47:40.63	117.56	10.88	-22.6	-39.4	12.1	2.65e-03	0	56	0	426246144	27	13538
2026-01-02 04:47:41.63	117.42	10.78	-28.7	-40.8	10.0	6.29e-02	0	56	0	427294720	26	16793
2026-01-02 04:47:42.64	117.28	10.68	-27.4	-40.7	9.1	8.26e-02	0	56	0	428343296	25	17650
2026-01-02 04:47:43.65	117.14	10.58	-22.6	-39.4	8.5	8.26e-02	0	56	0	429391872	19	21274
2026-01-02 04:47:44.66	117.01	10.48	-19.8	-39.5	7.7	1.99e-01	0	56	0	430440448	14	28815
2026-01-02 04:47:45.67	116.87	10.38	-25.9	-41.3	7.5	3.00e-01	0	56	0	430964736	22	22486
2026-01-02 04:47:46.69	116.73	10.28	-25.6	-41.0	7.5	3.00e-01	0	56	0	432013312	19	25720
2026-01-02 04:47:47.70	116.60	10.18	-22.9	-39.6	7.6	4.45e-01	0	56	0	432537600	17	24529
2026-01-02 04:47:48.70	116.47	10.08	-23.8	-38.0	7.5	3.46e-01	0	56	0	433586176	10	30388
2026-01-02 04:47:49.72	116.34	9.99	-23.8	-37.7	9.5	3.46e-01	0	56	0	434634752	19	17666
2026-01-02 04:47:50.73	116.21	9.89	-20.7	-37.4	9.1	2.00e-01	0	56	0	435683328	16	20257
2026-01-02 04:47:51.74	116.08	9.79	-23.2	-38.2	8.5	1.61e-01	0	56	0	436731904	18	19640
2026-01-02 04:47:52.74	115.95	9.70	-17.0	-37.7	7.2	2.49e-01	0	56	0	437780480	7	35067
2026-01-02 04:47:53.75	115.82	9.60	-17.6	-36.9	8.5	2.49e-01	0	56	0	438829056	12	24124
2026-01-02 04:47:54.76	115.70	9.50	-22.5	-37.3	7.8	2.93e-01	0	56	0	439877632	12	25152
2026-01-02 04:47:55.78	115.57	9.41	-22.5	-37.6	7.6	2.63e-01	0	56	0	440926208	15	21928
2026-01-02 04:47:56.78	115.45	9.31	-17.1	-37.6	7.1	2.63e-01	0	56	0	441450496	8	32659
2026-01-02 04:47:57.79	115.33	9.22	-22.5	-38.2	8.1	3.35e-01	0	56	0	442499072	15	23419
2026-01-02 04:47:58.80	115.21	9.13	-21.1	-37.0	8.4	3.06e-01	0	56	0	443547648	13	22930
2026-01-02 04:47:59.81	115.09	9.03	-21.3	-37.6	8.1	3.06e-01	0	56	0	444071936	13	24453
2026-01-02 04:48:00.82	114.97	8.94	-14.6	-36.8	6.1	3.38e-01	0	56	0	445120512	2	42315
2026-01-02 04:48:01.83	114.85	8.85	-21.0	-37.6	6.6	4.00e-01	0	56	0	445644800	9	30736
2026-01-02 04:48:02.84	114.73	8.76	-21.1	-37.5	7.3	4.00e-01	0	56	0	446693376	13	24196
2026-01-02 04:48:03.85	114.62	8.66	-20.3	-38.2	7.1	4.00e-01	0	56	0	447741952	11	29486
2026-01-02 04:48:04.86	114.50	8.57	-14.7	-37.3	6.0	4.09e-01	0	56	0	448266240	0	50097
2026-01-02 04:48:05.87	114.39	8.48	-20.4	-37.6	7.4	4.36e-01	0	56	0	448790528	13	24589
2026-01-02 04:48:06.88	114.28	8.39	-18.6	-37.6	7.5	4.36e-01	0	56	0	449839104	11	27553
2026-01-02 04:48:07.89	114.16	8.30	-21.1	-39.8	6.5	3.84e-01	0	56	0	450363392	11	35584
2026-01-02 04:48:08.90	114.05	8.21	-20.8	-42.5	5.7	5.39e-01	0	56	0	450887680	8	57595
2026-01-02 04:48:09.91	113.94	8.12	-19.4	-39.5	6.2	5.39e-01	0	56	0	451411968	10	36352
2026-01-02 04:48:10.92	113.83	8.03	-21.6	-41.4	5.6	5.98e-01	0	56	0	451936256	12	40110
2026-01-02 04:48:11.93	113.73	7.95	-39.1	-61.7	3.9	6.10e-01	0	56	104	451936256	47	55730
2026-01-02 04:48:12.94	113.62	7.86	-44.4	-62.5	3.8	6.10e-01	0	56	104	451936256	59	30452
2026-01-02 04:48:13.95	113.51	7.77	-44.7	-62.7	3.8	8.40e-01	0	56	104	451936256	59	31441
2026-01-02 04:48:14.96	113.41	7.68	-44.8	-62.9	3.8	8.45e-01	0	56	104	451936256	60	30184
2026-01-02 04:48:15.97	113.30	7.60	-44.9	-63.0	3.8	8.45e-01	0	56	104	451936256	60	30650
2026-01-02 04:48:16.98	113.20	7.51	-45.0	-63.2	3.8	8.45e-01	0	56	104	451936256	60	31140
2026-01-02 04:48:17.99	113.09	7.42	-45.1	-63.2	3.8	8.45e-01	0	56	104	451936256	60	31439
2026-01-02 04:48:19.00	112.99	7.34	-45.2	-63.3	3.8	8.45e-01	0	56	104	451936256	60	31784
2026-01-02 04:48:20.01	112.89	7.25	-45.2	-63.4	3.8	8.45e-01	0	56	104	451936256	61	30308
2026-01-02 04:48:21.02	112.79	7.17	-45.2	-63.4	3.8	8.45e-01	0	56	104	451936256	61	30294
2026-01-02 04:48:22.03	112.69	7.08	-45.2	-63.4	3.8	8.46e-01	0	56	104	451936256	61	30193
2026-01-02 04:48:23.04	112.59	7.00	-45.1	-63.3	3.8	8.46e-01	0	56	104	451936256	61	29966
2026-01-02 04:48:24.05	112.49	6.91	-45.0	-63.3	3.8	8.47e-01	0	56	104	451936256	61	29808
2026-01-02 04:48:25.06	112.40	6.83	-44.9	-63.2	3.8	8.47e-01	0	56	104	451936256	61	29681
2026-01-02 04:48:26.08	112.30	6.75	-44.9	-63.2	3.8	8.47e-01	0	56	104	451936256	61	29544
2026-01-02 04:48:27.09	112.20	6.66	-44.9	-63.2	3.8	8.47e-01	0	56	104	451936256	61	29520
2026-01-02 04:48:28.10	112.11	6.58	-44.8	-63.1	3.8	8.46e-01	0	56	104	451936256	61	29312
2026-01-02 04:48:29.11	112.02	6.50	-44.8	-63.1	3.8	8.45e-01	0	56	104	451936256	61	29193
2026-01-02 04:48:30.12	111.92	6.42	-44.8	-63.1	3.8	8.45e-01	0	56	104	451936256	61	29181
2026-01-02 04:48:31.13	111.83	6.33	-44.8	-63.1	3.8	8.46e-01	0	56	104	451936256	61	29274
2026-01-02 04:48:32.14	111.74	6.25	-44.8	-63.1	3.8	8.46e-01	0	56	104	451936256	61	29168
2026-01-02 04:48:33.15	111.65	6.17	-44.8	-63.1	3.8	8.46e-01	0	56	104	451936256	61	29265
2026-01-02 04:48:34.16	111.56	6.09	-44.8	-63.1	3.8	8.47e-01	0	56	104	451936256	61	29186
2026-01-02 04:48:35.17	111.47	6.01	-44.8	-63.1	3.8	8.46e-01	0	56	104	451936256	61	29260
2026-01-02 04:48:36.19	111.38	5.93	-44.8	-63.1	3.8	8.46e-01	0	56	104	451936256	61	29188
2026-01-02 04:48:37.20	111.29	5.85	-44.8	-63.1	3.8	8.46e-01	0	56	104	451936256	61	29224
2026-01-02 04:48:38.21	111.20	5.77	-44.8	-63.1	3.8	8.46e-01	0	56	104	451936256	61	29231
2026-01-02 04:48:39.22	111.11	5.69	-44.8	-63.1	3.8	8.46e-01	0	56	104	451936256	61	29189
2026-01-02 04:48:40.23	111.03	5.61	-44.8	-63.1	3.8	8.46e-01	0	56	104	451936256	61	29205
2026-01-02 04:48:41.24	110.94	5.54	-44.8	-63.1	3.8	8.46e-01	0	56	104	451936256	61	29168
2026-01-02 04:48:42.25	110.86	5.46	-44.8	-63.1	3.8	8.46e-01	0	56	104	451936256	61	29139
2026-01-02 04:48:43.26	110.77	5.38	-44.8	-63.1	3.8	8.46e-01	0	56	104	451936256	61	29267
2026-01-02 04:48:44.27	110.69	5.30	-44.8	-63.1	3.8	8.46e-01	0	56	104	451936256	61	29197
2026-01-02 04:48:45.28	110.61	5.23	-44.8	-63.1	3.8	8.46e-01	0	56	104	451936256	61	29158
2026-01-02 04:48:46.30	110.52	5.15	-44.8	-63.1	3.8	8.46e-01	0	56	104	451936256	61	29201
2026-01-02 04:48:47.31	110.44	5.07	-44.8	-63.1	3.8	8.46e-01	0	56	104	451936256	61	29100
2026-01-02 04:48:48.32	110.36	4.99	-44.8	-63.1	3.8	8.46e-01	0	56	104	451936256	60	30828
2026-01-02 04:48:49.33	110.28	4.92	-44.8	-63.1	3.8	8.46e-01	0	56	104	451936256	60	30801
2026-01-02 04:48:50.34	110.20	4.84	-44.8	-63.1	3.8	8.46e-01	0	56	104	451936256	60	30812
2026-01-02 04:48:51.35	110.12	4.77	-44.8	-63.1	3.8	8.45e-01	0	56	104	451936256	60	30858
2026-01-02 04:48:52.36	110.04	4.69	-44.8	-63.1	3.8	8.46e-01	0	56	104	451936256	60	30846
2026-01-02 04:48:53.37	109.96	4.62	-44.8	-63.1	3.8	8.46e-01	0	56	104	451936256	60	30862
2026-01-02 04:48:54.38	109.89	4.54	-44.8	-63.1	3.8	8.46e-01	0	56	104	451936256	60	30883
2026-01-02 04:48:55.40	109.81	4.47	-44.8	-63.1	3.8	8.47e-01	0	57	104	451936256	60	30814
2026-01-02 04:48:56.41	109.73	4.39	-44.8	-63.1	3.8	8.47e-01	0	56	104	451936256	60	30846
2026-01-02 04:48:57.42	109.66	4.32	-44.8	-63.1	3.8	8.46e-01	0	56	104	451936256	60	30777
2026-01-02 04:48:58.43	109.58	4.25	-44.8	-63.1	3.8	8.46e-01	0	56	104	451936256	60	30854
2026-01-02 04:48:59.44	109.51	4.17	-44.8	-63.1	3.8	8.46e-01	0	56	104	451936256	60	30830
2026-01-02 04:49:00.45	109.43	4.10	-44.8	-63.1	3.8	8.47e-01	0	56	104	451936256	60	30828
2026-01-02 04:49:01.46	109.36	4.03	-44.8	-63.1	3.8	8.47e-01	0	56	104	451936256	60	30810
2026-01-02 04:49:02.47	109.29	3.95	-44.8	-63.1	3.8	8.47e-01	0	56	104	451936256	60	30820
2026-01-02 04:49:03.48	109.21	3.88	-44.8	-63.1	3.8	8.46e-01	0	56	104	451936256	60	30824
2026-01-02 04:49:04.49	109.14	3.81	-44.8	-63.1	3.8	8.46e-01	0	56	104	451936256	60	30834
2026-01-02 04:49:05.50	109.07	3.74	-44.8	-63.1	3.8	8.46e-01	0	56	104	451936256	60	30813
2026-01-02 04:49:06.52	109.00	3.67	-44.8	-63.1	3.8	8.46e-01	0	56	104	451936256	60	30850
2026-01-02 04:49:07.53	108.93	3.59	-44.8	-63.1	3.8	8.45e-01	0	56	104	451936256	60	30794
2026-01-02 04:49:08.54	108.86	3.52	-44.8	-63.1	3.8	8.45e-01	0	56	104	451936256	60	30815
2026-01-02 04:49:09.55	108.79	3.45	-44.8	-63.1	3.8	8.45e-01	0	56	104	451936256	60	30815
2026-01-02 04:49:10.56	108.72	3.38	-44.8	-63.1	3.8	8.47e-01	0	56	104	451936256	60	30816
2026-01-02 04:49:11.57	108.65	3.31	-44.8	-63.1	3.8	8.46e-01	0	56	104	451936256	60	30800
2026-01-02 04:49:12.58	108.58	3.24	-44.8	-63.1	3.8	8.46e-01	0	56	104	451936256	60	30862
2026-01-02 04:49:13.59	108.51	3.17	-44.8	-63.1	3.8	8.45e-01	0	57	104	451936256	60	30838
2026-01-02 04:49:14.60	108.45	3.10	-44.8	-63.1	3.8	8.45e-01	0	56	104	451936256	60	30911
2026-01-02 04:49:15.62	108.38	3.03	-44.8	-63.1	3.8	8.45e-01	0	56	104	451936256	60	30871
2026-01-02 04:49:16.63	108.31	2.96	-44.8	-63.1	3.8	8.45e-01	0	56	104	451936256	60	30857
2026-01-02 04:49:17.64	108.25	2.89	-44.8	-63.1	3.8	8.47e-01	0	56	104	451936256	60	30796
2026-01-02 04:49:18.65	108.18	2.83	-44.8	-63.1	3.8	8.45e-01	0	56	104	451936256	60	30875
2026-01-02 04:49:19.66	108.12	2.76	-44.8	-63.1	3.8	8.45e-01	0	56	104	451936256	60	30839
2026-01-02 04:49:20.67	108.05	2.69	-44.8	-63.1	3.8	8.47e-01	0	56	104	451936256	60	30754
2026-01-02 04:49:21.68	107.99	2.62	-44.8	-63.1	3.8	8.45e-01	0	56	104	451936256	60	30818
2026-01-02 04:49:22.69	107.93	2.55	-44.8	-63.1	3.8	8.45e-01	0	56	104	451936256	60	30814
2026-01-02 04:49:23.70	107.86	2.49	-44.8	-63.1	3.8	8.46e-01	0	57	104	451936256	60	30796
2026-01-02 04:49:24.71	107.80	2.42	-44.8	-63.1	3.8	8.46e-01	0	57	104	451936256	60	30745
2026-01-02 04:49:25.72	107.74	2.35	-44.8	-63.1	3.8	8.46e-01	0	56	104	451936256	60	30781
2026-01-02 04:49:26.73	107.68	2.28	-44.8	-63.0	3.8	8.46e-01	0	56	104	451936256	60	30692
2026-01-02 04:49:27.74	107.61	2.22	-44.8	-63.1	3.8	8.46e-01	0	57	104	451936256	60	30861
2026-01-02 04:49:28.76	107.55	2.15	-44.8	-63.1	3.8	8.46e-01	0	56	104	451936256	60	30849
2026-01-02 04:49:29.77	107.49	2.08	-44.8	-63.1	3.8	8.46e-01	0	56	104	451936256	60	30783
2026-01-02 04:49:30.78	107.43	2.02	-44.8	-63.1	3.8	8.46e-01	0	56	104	451936256	60	30792
2026-01-02 04:49:31.79	107.37	1.95	-44.8	-63.1	3.8	8.46e-01	0	56	104	451936256	60	30874

#Closed at: 2026-01-02 04:49:32
#Recorded file [451 MB]: D:/lorett/data/31039_260102_074015.dat