passes_logs/2026/01/02/R2.0S_Moscow/R2.0S_Moscow__20260102_232934_NOAA_21_JPSS-2_rec.log

#Pass ID: 20260102_232934_NOAA 21 (JPSS-2)
#Satellite: NOAA 21 (JPSS-2)
#Configuration: NOAA-21
#almurnet v.1.7.20251203
#Start time: 2026-01-02 23:29:36

#Version: 2.2.20231116
#Station: R2.0S_Moscow
#Location: 37.707566 lon 55.798166 lat
#TLE: 1 54234U 22150A   26002.25486487  .00000200  00000+0  11573-3 0  9993
#TLE: 2 54234  98.7485 303.3096 0001220 350.9074   9.2080 14.19531212163006

#Time	Az	El	Level	Level2	SNR	BER	BlckErr	Temp	State	Recorded	gain1	gain2
2026-01-02 23:29:36.90	16.95	2.14	-40.9	-54.0	3.8	1.49e+00	0	48	0	0	53	16207
2026-01-02 23:29:37.90	16.96	2.20	-40.9	-54.0	3.8	1.49e+00	0	48	104	0	53	16153
2026-01-02 23:29:38.91	16.98	2.27	-40.8	-54.0	3.8	1.49e+00	0	48	104	0	53	16206
2026-01-02 23:29:39.93	16.99	2.33	-40.8	-54.0	3.8	1.49e+00	0	48	104	0	53	16187
2026-01-02 23:29:40.94	17.00	2.40	-40.9	-54.0	3.8	1.49e+00	0	48	104	0	53	16157
2026-01-02 23:29:41.95	17.01	2.46	-40.8	-54.0	3.8	1.49e+00	0	48	104	0	53	16169
2026-01-02 23:29:42.96	17.02	2.53	-40.9	-54.0	3.8	1.49e+00	0	49	104	0	53	16152
2026-01-02 23:29:43.97	17.04	2.59	-40.9	-54.0	3.8	1.49e+00	0	49	104	0	53	16178
2026-01-02 23:29:44.98	17.05	2.66	-40.9	-54.0	3.8	1.49e+00	0	48	104	0	53	16205
2026-01-02 23:29:45.99	17.06	2.72	-40.9	-54.0	3.8	1.49e+00	0	49	104	0	53	16172
2026-01-02 23:29:47.00	17.07	2.79	-40.8	-54.0	3.8	1.49e+00	0	49	104	0	53	16185
2026-01-02 23:29:48.01	17.08	2.86	-40.8	-54.0	3.8	1.49e+00	0	49	104	0	53	16185
2026-01-02 23:29:49.03	17.10	2.92	-40.8	-54.0	3.8	1.49e+00	0	49	104	0	53	16202
2026-01-02 23:29:50.04	17.11	2.99	-40.9	-54.0	3.8	1.49e+00	0	49	104	0	53	16155
2026-01-02 23:29:51.05	17.12	3.06	-40.8	-54.0	3.8	1.49e+00	0	49	104	0	53	16190
2026-01-02 23:29:52.06	17.13	3.12	-40.9	-54.0	3.8	1.49e+00	0	49	104	0	53	16194
2026-01-02 23:29:53.07	17.14	3.19	-40.8	-54.0	3.8	1.49e+00	0	49	104	0	53	16164
2026-01-02 23:29:54.08	17.16	3.26	-40.8	-54.0	3.8	1.49e+00	0	49	104	0	53	16199
2026-01-02 23:29:55.09	17.17	3.32	-40.8	-54.0	3.8	1.49e+00	0	50	104	0	53	16207
2026-01-02 23:29:56.10	17.18	3.39	-40.8	-54.0	3.8	1.49e+00	0	49	104	0	53	16153
2026-01-02 23:29:57.12	17.19	3.46	-40.8	-54.0	3.8	1.49e+00	0	50	104	0	53	16204
2026-01-02 23:29:58.13	17.21	3.53	-40.9	-54.0	3.8	1.49e+00	0	49	104	0	53	16162
2026-01-02 23:29:59.14	17.22	3.59	-40.8	-54.0	3.8	1.49e+00	0	50	104	0	53	16160
2026-01-02 23:30:00.15	17.23	3.66	-40.9	-54.0	3.8	1.49e+00	0	50	104	0	53	16160
2026-01-02 23:30:01.16	17.24	3.73	-40.8	-53.9	3.8	1.49e+00	0	50	104	0	53	16116
2026-01-02 23:30:02.17	17.26	3.80	-40.9	-54.0	3.8	1.49e+00	0	50	104	0	53	16208
2026-01-02 23:30:03.18	17.27	3.87	-40.8	-54.0	3.8	1.49e+00	0	50	104	0	53	16184
2026-01-02 23:30:04.19	17.28	3.94	-40.9	-54.0	3.8	1.49e+00	0	50	104	0	53	16153
2026-01-02 23:30:05.20	17.29	4.00	-40.9	-54.0	3.8	1.49e+00	0	50	104	0	53	16143
2026-01-02 23:30:06.21	17.31	4.07	-40.9	-54.0	3.8	1.49e+00	0	50	104	0	53	16234
2026-01-02 23:30:07.23	17.32	4.14	-40.9	-54.0	3.8	1.49e+00	0	50	104	0	53	16188
2026-01-02 23:30:08.24	17.33	4.21	-40.9	-54.0	3.8	1.49e+00	0	50	104	0	53	16191
2026-01-02 23:30:09.25	17.34	4.28	-40.9	-54.0	3.8	1.49e+00	0	50	104	0	53	16183
2026-01-02 23:30:10.26	17.36	4.35	-40.8	-54.0	3.8	1.49e+00	0	50	104	0	53	16154
2026-01-02 23:30:11.27	17.37	4.42	-40.9	-54.0	3.8	1.49e+00	0	50	104	0	53	16183
2026-01-02 23:30:12.28	17.38	4.49	-40.8	-54.0	3.8	1.49e+00	0	50	104	0	53	16169
2026-01-02 23:30:13.29	17.40	4.56	-40.9	-54.0	3.8	1.49e+00	0	50	104	0	53	16163
2026-01-02 23:30:14.30	17.41	4.63	-40.9	-53.9	3.8	1.49e+00	0	51	104	0	53	16118
2026-01-02 23:30:15.31	17.42	4.70	-40.9	-54.0	3.8	1.49e+00	0	50	104	0	53	16196
2026-01-02 23:30:16.32	17.44	4.77	-40.9	-54.0	3.8	1.49e+00	0	51	104	0	53	16160
2026-01-02 23:30:17.34	17.45	4.85	-40.9	-54.0	3.8	1.49e+00	0	51	104	0	53	16165
2026-01-02 23:30:18.35	17.46	4.92	-40.8	-54.0	3.8	1.49e+00	0	51	104	0	53	16192
2026-01-02 23:30:19.36	17.48	4.99	-40.9	-54.0	3.8	1.49e+00	0	51	104	0	53	16179
2026-01-02 23:30:20.37	17.49	5.06	-40.8	-54.0	3.8	1.49e+00	0	51	104	0	53	16178
2026-01-02 23:30:21.38	17.50	5.13	-40.9	-54.0	3.8	1.49e+00	0	51	104	0	53	16177
2026-01-02 23:30:22.39	17.52	5.20	-40.9	-54.0	3.8	1.49e+00	0	51	104	0	53	16154
2026-01-02 23:30:23.40	17.53	5.28	-40.8	-54.0	3.8	1.49e+00	0	51	104	0	53	16142
2026-01-02 23:30:24.41	17.54	5.35	-40.9	-54.0	3.8	1.49e+00	0	51	104	0	53	16141
2026-01-02 23:30:25.42	17.56	5.42	-40.9	-53.9	3.8	1.49e+00	0	51	104	0	53	16093
2026-01-02 23:30:26.43	17.57	5.49	-40.9	-53.9	3.8	1.49e+00	0	51	104	0	53	15996
2026-01-02 23:30:27.44	17.58	5.57	-40.8	-53.9	3.8	1.49e+00	0	51	104	0	53	15978
2026-01-02 23:30:28.45	17.60	5.64	-40.9	-53.8	3.8	1.49e+00	0	51	104	0	53	15877
2026-01-02 23:30:29.47	17.61	5.71	-40.9	-53.8	3.8	1.49e+00	0	51	104	0	53	15880
2026-01-02 23:30:30.48	17.62	5.79	-40.9	-53.8	3.8	1.49e+00	0	51	104	0	53	15891
2026-01-02 23:30:31.49	17.64	5.86	-40.9	-53.9	3.8	1.49e+00	0	51	104	0	53	15967
2026-01-02 23:30:32.50	17.65	5.94	-40.9	-53.9	3.8	1.49e+00	0	51	104	0	53	16029
2026-01-02 23:30:33.51	17.67	6.01	-40.8	-53.9	3.8	1.49e+00	0	51	104	0	53	16054
2026-01-02 23:30:34.52	17.68	6.08	-40.9	-53.9	3.8	1.49e+00	0	51	104	0	53	16030
2026-01-02 23:30:35.53	17.69	6.16	-40.8	-53.9	3.8	1.49e+00	0	52	104	0	53	15952
2026-01-02 23:30:36.54	17.71	6.23	-40.8	-53.9	3.8	1.49e+00	0	52	104	0	53	15948
2026-01-02 23:30:37.55	17.72	6.31	-40.9	-53.9	3.8	1.49e+00	0	52	104	0	53	15955
2026-01-02 23:30:38.56	17.74	6.38	-40.9	-53.9	3.8	1.49e+00	0	52	104	0	53	16106
2026-01-02 23:30:39.58	17.75	6.46	-40.8	-53.9	3.8	1.49e+00	0	52	104	0	53	16058
2026-01-02 23:30:40.58	17.76	6.54	-40.9	-54.0	3.8	1.49e+00	0	52	104	0	53	16221
2026-01-02 23:30:41.60	17.78	6.61	-40.8	-53.9	3.8	1.49e+00	0	52	104	0	53	16069
2026-01-02 23:30:42.61	17.79	6.69	-40.8	-53.9	3.8	1.49e+00	0	52	104	0	53	15961
2026-01-02 23:30:43.62	17.81	6.76	-40.9	-53.7	3.8	1.49e+00	0	52	104	0	53	15715
2026-01-02 23:30:44.63	17.82	6.84	-40.8	-53.5	3.8	1.49e+00	0	52	104	0	53	15378
2026-01-02 23:30:45.64	17.84	6.92	-40.8	-53.3	3.8	1.49e+00	0	52	104	0	53	14985
2026-01-02 23:30:46.65	17.85	6.99	-40.8	-53.0	3.8	1.49e+00	0	52	104	0	53	14432
2026-01-02 23:30:47.66	17.87	7.07	-40.8	-52.7	3.8	1.49e+00	0	52	104	0	53	13895
2026-01-02 23:30:48.67	17.88	7.15	-40.7	-52.3	3.8	1.49e+00	0	52	104	0	53	13337
2026-01-02 23:30:49.69	17.89	7.23	-40.6	-52.0	3.8	1.48e+00	0	52	104	0	53	12863
2026-01-02 23:30:50.70	17.91	7.31	-40.6	-51.2	4.0	1.48e+00	0	52	104	0	53	11758
2026-01-02 23:30:51.71	17.92	7.38	-40.6	-50.6	4.1	1.47e+00	0	52	104	0	53	10954
2026-01-02 23:30:52.72	17.94	7.46	-40.4	-49.6	4.4	1.46e+00	0	52	104	0	52	10410
2026-01-02 23:30:53.73	17.95	7.54	-40.2	-49.1	4.1	8.28e-01	0	52	104	0	52	9795
2026-01-02 23:30:54.74	17.97	7.62	-40.0	-47.2	5.7	4.78e-01	0	52	0	1048576	52	7854
2026-01-02 23:30:55.75	17.98	7.70	-39.8	-46.0	6.8	2.27e-01	0	52	0	4194304	51	7239
2026-01-02 23:30:56.76	18.00	7.78	-39.4	-44.8	7.9	9.38e-02	0	52	0	7340032	50	6712
2026-01-02 23:30:57.77	18.01	7.86	-39.0	-43.8	8.9	3.04e-02	0	53	0	10485760	50	5924
2026-01-02 23:30:58.78	18.03	7.94	-38.6	-42.7	10.1	8.46e-03	0	52	0	13631488	49	5531
2026-01-02 23:30:59.79	18.04	8.02	-38.2	-41.9	10.9	3.00e-03	0	53	0	16777216	48	5362
2026-01-02 23:31:00.81	18.06	8.10	-37.9	-41.1	12.2	2.89e-04	0	53	0	19922944	47	5161
2026-01-02 23:31:01.82	18.08	8.18	-38.3	-40.7	13.9	1.50e-06	0	53	0	23068672	47	4931
2026-01-02 23:31:02.83	18.09	8.26	-40.2	-47.6	5.6	4.96e-03	0	53	0	26214400	50	9263
2026-01-02 23:31:03.84	18.11	8.34	-38.8	-43.0	9.8	3.40e-02	0	53	0	28311552	49	5735
2026-01-02 23:31:04.85	18.12	8.43	-37.7	-39.7	15.0	0.00e+00	0	53	0	30408704	45	4970
2026-01-02 23:31:05.86	18.14	8.51	-37.7	-39.9	14.6	0.00e+00	0	53	0	34603008	47	4517
2026-01-02 23:31:06.86	18.15	8.59	-38.2	-40.5	14.1	7.00e-07	0	53	0	37748736	47	4847
2026-01-02 23:31:07.87	18.17	8.67	-38.0	-40.1	14.6	0.00e+00	0	53	0	40894464	47	4625
2026-01-02 23:31:08.88	18.18	8.75	-37.5	-39.3	15.5	0.00e+00	0	53	0	44040192	46	4485
2026-01-02 23:31:09.90	18.20	8.84	-37.3	-39.0	15.8	0.00e+00	0	53	0	47185920	46	4336
2026-01-02 23:31:10.90	18.22	8.92	-37.4	-39.2	15.7	0.00e+00	0	53	0	50331648	46	4426
2026-01-02 23:31:11.92	18.23	9.00	-37.7	-39.6	15.3	0.00e+00	0	53	0	53477376	46	4641
2026-01-02 23:31:12.93	18.25	9.09	-37.5	-39.4	15.6	0.00e+00	0	53	0	56623104	46	4504
2026-01-02 23:31:13.94	18.26	9.17	-37.4	-39.1	15.8	0.00e+00	0	53	0	59768832	46	4391
2026-01-02 23:31:14.95	18.28	9.26	-37.4	-39.2	15.7	0.00e+00	0	53	0	62914560	46	4426
2026-01-02 23:31:15.96	18.30	9.34	-37.4	-39.2	15.7	0.00e+00	0	53	0	66060288	46	4421
2026-01-02 23:31:16.97	18.31	9.42	-37.4	-39.1	15.9	0.00e+00	0	53	0	69206016	46	4390
2026-01-02 23:31:17.98	18.33	9.51	-37.3	-39.1	15.9	0.00e+00	0	53	0	72351744	46	4354
2026-01-02 23:31:18.99	18.35	9.59	-37.3	-39.1	15.9	0.00e+00	0	53	0	75497472	46	4359
2026-01-02 23:31:20.00	18.36	9.68	-37.4	-39.2	15.8	0.00e+00	0	54	0	78643200	46	4399
2026-01-02 23:31:21.01	18.38	9.77	-37.2	-38.9	16.1	0.00e+00	0	54	0	81788928	46	4285
2026-01-02 23:31:22.02	18.40	9.85	-37.3	-39.0	16.0	0.00e+00	0	54	0	84934656	46	4335
2026-01-02 23:31:23.03	18.41	9.94	-37.2	-38.9	16.2	0.00e+00	0	54	0	88080384	46	4247
2026-01-02 23:31:24.04	18.43	10.03	-37.2	-38.8	16.2	0.00e+00	0	53	0	91226112	46	4239
2026-01-02 23:31:25.04	18.45	10.11	-37.2	-38.8	16.2	0.00e+00	0	54	0	94371840	46	4242
2026-01-02 23:31:26.05	18.46	10.20	-37.3	-39.0	16.1	0.00e+00	0	54	0	97517568	46	4296
2026-01-02 23:31:27.06	18.48	10.29	-37.2	-38.9	16.2	0.00e+00	0	54	0	100663296	46	4268
2026-01-02 23:31:28.07	18.50	10.38	-37.3	-39.0	16.1	0.00e+00	0	54	0	103809024	46	4314
2026-01-02 23:31:29.08	18.52	10.46	-37.2	-38.9	16.3	0.00e+00	0	54	0	106954752	46	4245
2026-01-02 23:31:30.09	18.53	10.55	-37.3	-39.0	16.1	0.00e+00	0	54	0	110100480	46	4340
2026-01-02 23:31:31.10	18.55	10.64	-37.4	-39.1	16.0	0.00e+00	0	54	0	113246208	46	4361
2026-01-02 23:31:32.11	18.57	10.73	-37.4	-39.1	16.1	0.00e+00	0	54	0	116391936	46	4352
2026-01-02 23:31:33.12	18.59	10.82	-37.2	-38.9	16.2	0.00e+00	0	54	0	119537664	46	4281
2026-01-02 23:31:34.13	18.60	10.91	-37.2	-38.9	16.2	0.00e+00	0	54	0	122683392	46	4283
2026-01-02 23:31:35.15	18.62	11.00	-37.2	-38.9	16.2	0.00e+00	0	54	0	125829120	46	4274
2026-01-02 23:31:36.16	18.64	11.09	-37.2	-38.9	16.2	0.00e+00	0	54	0	128974848	46	4260
2026-01-02 23:31:37.17	18.66	11.18	-37.0	-38.7	16.4	0.00e+00	0	54	0	132120576	46	4160
2026-01-02 23:31:38.18	18.67	11.28	-37.1	-38.8	16.3	0.00e+00	0	54	0	135266304	46	4210
2026-01-02 23:31:39.19	18.69	11.37	-37.1	-38.7	16.4	0.00e+00	0	54	0	138412032	46	4180
2026-01-02 23:31:40.20	18.71	11.46	-37.0	-38.7	16.5	0.00e+00	0	54	0	141557760	46	4154
2026-01-02 23:31:41.21	18.73	11.55	-37.0	-38.6	16.5	0.00e+00	0	54	0	144703488	45	4378
2026-01-02 23:31:42.21	18.75	11.64	-37.0	-38.6	16.5	0.00e+00	0	54	0	147849216	45	4366
2026-01-02 23:31:43.23	18.77	11.74	-36.9	-38.5	16.7	0.00e+00	0	54	0	150994944	45	4297
2026-01-02 23:31:44.24	18.78	11.83	-36.9	-38.5	16.7	0.00e+00	0	54	0	154140672	45	4298
2026-01-02 23:31:45.25	18.80	11.93	-36.8	-38.4	16.8	0.00e+00	0	54	0	157286400	45	4277
2026-01-02 23:31:46.26	18.82	12.02	-36.8	-38.4	16.9	0.00e+00	0	54	0	160432128	45	4253
2026-01-02 23:31:47.27	18.84	12.11	-36.7	-38.3	16.9	0.00e+00	0	54	0	163577856	45	4217
2026-01-02 23:31:48.28	18.86	12.21	-36.8	-38.4	16.9	0.00e+00	0	54	0	166723584	45	4256
2026-01-02 23:31:49.29	18.88	12.30	-36.7	-38.3	17.0	0.00e+00	0	54	0	169869312	45	4202
2026-01-02 23:31:50.30	18.90	12.40	-36.8	-38.3	16.9	0.00e+00	0	54	0	173015040	45	4231
2026-01-02 23:31:51.31	18.92	12.50	-36.7	-38.2	17.0	0.00e+00	0	54	0	176160768	45	4178
2026-01-02 23:31:52.32	18.94	12.59	-36.7	-38.2	17.0	0.00e+00	0	54	0	179306496	45	4182
2026-01-02 23:31:53.33	18.95	12.69	-36.7	-38.2	17.1	0.00e+00	0	54	0	182452224	45	4180
2026-01-02 23:31:54.34	18.97	12.79	-36.7	-38.2	17.1	0.00e+00	0	54	0	185597952	45	4184
2026-01-02 23:31:55.35	18.99	12.88	-36.7	-38.2	17.1	0.00e+00	0	54	0	188743680	45	4155
2026-01-02 23:31:56.36	19.01	12.98	-36.7	-38.3	17.0	0.00e+00	0	54	0	191889408	45	4197
2026-01-02 23:31:57.37	19.03	13.08	-36.7	-38.2	17.1	0.00e+00	0	54	0	195035136	45	4187
2026-01-02 23:31:58.38	19.05	13.18	-36.7	-38.2	17.1	0.00e+00	0	54	0	198180864	45	4186
2026-01-02 23:31:59.39	19.07	13.28	-36.6	-38.2	17.1	0.00e+00	0	55	0	201326592	45	4146
2026-01-02 23:32:00.40	19.09	13.38	-36.7	-38.2	17.1	0.00e+00	0	54	0	204472320	45	4159
2026-01-02 23:32:01.41	19.11	13.48	-36.7	-38.2	17.1	0.00e+00	0	54	0	207618048	45	4156
2026-01-02 23:32:02.42	19.13	13.58	-36.6	-38.1	17.2	0.00e+00	0	55	0	210763776	45	4099
2026-01-02 23:32:03.43	19.15	13.68	-36.5	-38.0	17.3	0.00e+00	0	54	0	213909504	45	4085
2026-01-02 23:32:04.44	19.17	13.78	-36.6	-38.1	17.2	0.00e+00	0	54	0	217055232	45	4116
2026-01-02 23:32:05.45	19.20	13.88	-36.6	-38.1	17.2	0.00e+00	0	55	0	220200960	45	4115
2026-01-02 23:32:06.46	19.22	13.98	-36.5	-38.0	17.2	0.00e+00	0	54	0	223346688	45	4090
2026-01-02 23:32:07.47	19.24	14.09	-36.5	-38.0	17.2	0.00e+00	0	54	0	226492416	45	4090
2026-01-02 23:32:08.48	19.26	14.19	-36.5	-38.0	17.3	0.00e+00	0	55	0	229638144	45	4064
2026-01-02 23:32:09.49	19.28	14.29	-36.5	-38.0	17.2	0.00e+00	0	54	0	232783872	45	4091
2026-01-02 23:32:10.50	19.30	14.40	-36.5	-38.0	17.3	0.00e+00	0	55	0	235929600	45	4061
2026-01-02 23:32:11.51	19.32	14.50	-36.4	-37.9	17.4	0.00e+00	0	55	0	239075328	44	4267
2026-01-02 23:32:12.52	19.34	14.61	-36.5	-38.0	17.3	0.00e+00	0	55	0	242221056	44	4311
2026-01-02 23:32:13.53	19.36	14.71	-36.4	-37.9	17.4	0.00e+00	0	55	0	245366784	44	4279
2026-01-02 23:32:14.54	19.39	14.82	-36.5	-37.9	17.4	0.00e+00	0	54	0	248512512	44	4285
2026-01-02 23:32:15.55	19.41	14.92	-36.5	-37.9	17.4	0.00e+00	0	55	0	251658240	44	4287
2026-01-02 23:32:16.56	19.43	15.03	-36.5	-37.9	17.4	0.00e+00	0	55	0	254803968	44	4285
2026-01-02 23:32:17.57	19.45	15.14	-36.5	-38.0	17.4	0.00e+00	0	55	0	257949696	44	4309
2026-01-02 23:32:18.58	19.47	15.24	-36.5	-38.0	17.4	0.00e+00	0	55	0	261095424	44	4293
2026-01-02 23:32:19.59	19.50	15.35	-36.4	-37.8	17.6	0.00e+00	0	55	0	264241152	44	4231
2026-01-02 23:32:20.60	19.52	15.46	-36.4	-37.9	17.6	0.00e+00	0	55	0	267386880	44	4250
2026-01-02 23:32:21.62	19.54	15.57	-36.4	-37.8	17.6	0.00e+00	0	55	0	270532608	44	4220
2026-01-02 23:32:22.63	19.56	15.68	-36.4	-37.9	17.6	0.00e+00	0	55	0	273678336	44	4250
2026-01-02 23:32:23.64	19.59	15.79	-36.4	-37.8	17.6	0.00e+00	0	55	0	276824064	44	4233
2026-01-02 23:32:24.65	19.61	15.90	-36.4	-37.8	17.6	0.00e+00	0	55	0	279969792	44	4222
2026-01-02 23:32:25.66	19.63	16.01	-36.3	-37.8	17.7	0.00e+00	0	55	0	283115520	44	4198
2026-01-02 23:32:26.67	19.66	16.12	-36.3	-37.7	17.7	0.00e+00	0	55	0	286261248	44	4192
2026-01-02 23:32:27.68	19.68	16.24	-36.3	-37.7	17.8	0.00e+00	0	55	0	289406976	44	4165
2026-01-02 23:32:28.69	19.70	16.35	-36.4	-37.8	17.7	0.00e+00	0	55	0	292552704	44	4228
2026-01-02 23:32:29.70	19.73	16.46	-36.3	-37.7	17.8	0.00e+00	0	55	0	295698432	44	4150
2026-01-02 23:32:30.71	19.75	16.57	-36.3	-37.7	17.8	0.00e+00	0	55	0	299892736	44	4170
2026-01-02 23:32:31.72	19.78	16.69	-36.3	-37.7	17.8	0.00e+00	0	55	0	301989888	44	4155
2026-01-02 23:32:32.73	19.80	16.80	-36.3	-37.7	17.8	0.00e+00	0	55	0	305135616	44	4166
2026-01-02 23:32:33.74	19.82	16.92	-36.2	-37.6	17.8	0.00e+00	0	55	0	308281344	44	4142
2026-01-02 23:32:34.75	19.85	17.03	-36.2	-37.6	17.8	0.00e+00	0	55	0	311427072	44	4129
2026-01-02 23:32:35.76	19.87	17.15	-36.2	-37.7	17.8	0.00e+00	0	55	0	315621376	44	4146
2026-01-02 23:32:36.77	19.90	17.27	-36.2	-37.6	17.8	0.00e+00	0	55	0	318767104	44	4143
2026-01-02 23:32:37.78	19.92	17.38	-36.3	-37.7	17.8	0.00e+00	0	55	0	321912832	44	4152
2026-01-02 23:32:38.79	19.95	17.50	-36.2	-37.6	17.8	0.00e+00	0	55	0	324009984	44	4143
2026-01-02 23:32:39.80	19.97	17.62	-36.3	-37.7	17.7	0.00e+00	0	55	0	327155712	44	4175
2026-01-02 23:32:40.81	20.00	17.74	-36.3	-37.7	17.7	0.00e+00	0	55	0	331350016	44	4171
2026-01-02 23:32:41.82	20.02	17.86	-36.2	-37.6	17.9	0.00e+00	0	55	0	334495744	44	4128
2026-01-02 23:32:42.82	20.05	17.98	-36.3	-37.7	17.8	0.00e+00	0	55	0	337641472	44	4148
2026-01-02 23:32:43.84	20.08	18.10	-36.3	-37.7	17.8	0.00e+00	0	55	0	340787200	44	4176
2026-01-02 23:32:44.85	20.10	18.22	-36.4	-37.8	17.7	0.00e+00	0	55	0	343932928	44	4214
2026-01-02 23:32:45.86	20.13	18.34	-36.4	-37.8	17.7	0.00e+00	0	55	0	347078656	44	4205
2026-01-02 23:32:46.87	20.15	18.47	-36.3	-37.7	17.8	0.00e+00	0	55	0	350224384	44	4176
2026-01-02 23:32:47.88	20.18	18.59	-36.4	-37.8	17.8	0.00e+00	0	55	0	353370112	44	4203
2026-01-02 23:32:48.89	20.21	18.71	-36.4	-37.8	17.8	0.00e+00	0	55	0	356515840	44	4206
2026-01-02 23:32:49.90	20.23	18.84	-36.4	-37.8	17.8	0.00e+00	0	55	0	359661568	44	4217
2026-01-02 23:32:50.90	20.26	18.96	-36.4	-37.8	17.8	0.00e+00	0	55	0	362807296	44	4226
2026-01-02 23:32:51.92	20.29	19.09	-36.4	-37.8	17.8	0.00e+00	0	55	0	365953024	44	4203
2026-01-02 23:32:52.93	20.32	19.21	-36.4	-37.8	17.7	0.00e+00	0	55	0	369098752	44	4237
2026-01-02 23:32:53.94	20.34	19.34	-36.3	-37.7	17.8	0.00e+00	0	55	0	372244480	44	4189
2026-01-02 23:32:54.95	20.37	19.47	-36.3	-37.7	17.8	0.00e+00	0	55	0	375390208	44	4175
2026-01-02 23:32:55.96	20.40	19.60	-36.4	-37.7	17.8	0.00e+00	0	55	0	378535936	44	4192
2026-01-02 23:32:56.97	20.43	19.73	-36.3	-37.7	17.9	0.00e+00	0	55	0	381681664	44	4157
2026-01-02 23:32:57.98	20.46	19.85	-36.2	-37.6	18.0	0.00e+00	0	55	0	384827392	44	4111
2026-01-02 23:32:58.99	20.49	19.98	-36.2	-37.6	18.0	0.00e+00	0	55	0	387973120	44	4131
2026-01-02 23:33:00.00	20.52	20.12	-36.1	-37.5	18.1	0.00e+00	0	55	0	391118848	44	4079
2026-01-02 23:33:01.01	20.54	20.25	-36.1	-37.5	18.1	0.00e+00	0	55	0	394264576	44	4074
2026-01-02 23:33:02.02	20.57	20.38	-36.2	-37.5	18.1	0.00e+00	0	55	0	397410304	44	4083
2026-01-02 23:33:03.03	20.60	20.51	-36.1	-37.4	18.2	0.00e+00	0	55	0	400556032	44	4034
2026-01-02 23:33:04.04	20.63	20.65	-36.1	-37.4	18.2	0.00e+00	0	55	0	403701760	44	4034
2026-01-02 23:33:05.05	20.66	20.78	-35.8	-37.1	18.3	0.00e+00	0	55	0	406847488	43	4112
2026-01-02 23:33:06.06	20.69	20.92	-35.7	-37.0	18.4	0.00e+00	0	55	0	409993216	43	4056
2026-01-02 23:33:07.07	20.72	21.05	-35.6	-36.9	18.5	0.00e+00	0	56	0	413138944	43	4042
2026-01-02 23:33:08.08	20.76	21.19	-35.6	-36.9	18.5	0.00e+00	0	56	0	416284672	43	4005
2026-01-02 23:33:09.09	20.79	21.33	-35.5	-36.8	18.6	0.00e+00	0	56	0	419430400	43	3977
2026-01-02 23:33:10.10	20.82	21.46	-35.4	-36.7	18.7	0.00e+00	0	56	0	422576128	42	4170
2026-01-02 23:33:11.11	20.85	21.60	-35.3	-36.6	18.8	0.00e+00	0	55	0	425721856	42	4120
2026-01-02 23:33:12.12	20.88	21.74	-35.3	-36.6	18.8	0.00e+00	0	56	0	428867584	42	4103
2026-01-02 23:33:13.13	20.91	21.88	-35.2	-36.5	18.9	0.00e+00	0	56	0	432013312	42	4060
2026-01-02 23:33:14.14	20.95	22.02	-35.1	-36.4	19.0	0.00e+00	0	56	0	435159040	42	4022
2026-01-02 23:33:15.15	20.98	22.17	-35.2	-36.4	19.0	0.00e+00	0	56	0	438304768	42	4035
2026-01-02 23:33:16.16	21.01	22.31	-35.1	-36.3	19.0	0.00e+00	0	56	0	441450496	42	4004
2026-01-02 23:33:17.16	21.04	22.45	-35.1	-36.4	19.0	0.00e+00	0	56	0	444596224	42	4020
2026-01-02 23:33:18.18	21.08	22.60	-35.1	-36.4	19.0	0.00e+00	0	56	0	447741952	42	4011
2026-01-02 23:33:19.19	21.11	22.74	-35.1	-36.4	19.0	0.00e+00	0	56	0	450887680	42	4020
2026-01-02 23:33:20.20	21.14	22.89	-35.2	-36.4	19.0	0.00e+00	0	56	0	454033408	42	4037
2026-01-02 23:33:21.21	21.18	23.03	-35.1	-36.4	19.1	0.00e+00	0	56	0	457179136	42	4014
2026-01-02 23:33:22.22	21.21	23.18	-35.2	-36.4	19.1	0.00e+00	0	56	0	460324864	42	4032
2026-01-02 23:33:23.23	21.25	23.33	-35.1	-36.4	19.1	0.00e+00	0	55	0	463470592	42	4006
2026-01-02 23:33:24.24	21.28	23.48	-35.1	-36.3	19.1	0.00e+00	0	56	0	466616320	42	4004
2026-01-02 23:33:25.25	21.32	23.63	-35.2	-36.4	19.0	0.00e+00	0	56	0	469762048	42	4028
2026-01-02 23:33:26.26	21.35	23.78	-35.1	-36.3	19.1	0.00e+00	0	56	0	472907776	42	3992
2026-01-02 23:33:27.27	21.39	23.93	-35.1	-36.4	19.1	0.00e+00	0	56	0	476053504	42	4021
2026-01-02 23:33:28.28	21.43	24.09	-35.1	-36.4	19.1	0.00e+00	0	56	0	479199232	42	4023
2026-01-02 23:33:29.29	21.46	24.24	-35.1	-36.4	19.1	0.00e+00	0	56	0	482344960	42	4024
2026-01-02 23:33:30.30	21.50	24.39	-35.1	-36.4	19.1	0.00e+00	0	56	0	485490688	42	4008
2026-01-02 23:33:31.31	21.54	24.55	-35.1	-36.3	19.2	0.00e+00	0	56	0	488636416	42	3980
2026-01-02 23:33:32.32	21.57	24.71	-35.1	-36.4	19.1	0.00e+00	0	56	0	491782144	42	4008
2026-01-02 23:33:33.33	21.61	24.86	-35.1	-36.4	19.1	0.00e+00	0	56	0	494927872	42	4021
2026-01-02 23:33:34.34	21.65	25.02	-35.1	-36.3	19.1	0.00e+00	0	56	0	498073600	42	3998
2026-01-02 23:33:35.35	21.69	25.18	-35.1	-36.3	19.1	0.00e+00	0	56	0	501219328	42	4004
2026-01-02 23:33:36.36	21.73	25.34	-35.2	-36.4	19.1	0.00e+00	0	56	0	504365056	42	4045
2026-01-02 23:33:37.37	21.77	25.50	-35.3	-36.5	19.0	0.00e+00	0	56	0	507510784	42	4080
2026-01-02 23:33:38.38	21.81	25.66	-35.3	-36.5	19.0	0.00e+00	0	56	0	510656512	42	4087
2026-01-02 23:33:39.38	21.85	25.83	-35.4	-36.6	18.9	0.00e+00	0	56	0	513802240	42	4133
2026-01-02 23:33:40.39	21.89	25.99	-35.5	-36.8	18.7	0.00e+00	0	56	0	516947968	42	4222
2026-01-02 23:33:41.40	21.93	26.16	-35.7	-37.0	18.6	0.00e+00	0	56	0	520093696	42	4305
2026-01-02 23:33:42.41	21.97	26.32	-35.7	-37.0	18.5	0.00e+00	0	56	0	523239424	42	4339
2026-01-02 23:33:43.42	22.01	26.49	-35.9	-37.2	18.3	0.00e+00	0	56	0	526385152	42	4417
2026-01-02 23:33:44.43	22.05	26.66	-36.0	-37.4	18.2	0.00e+00	0	56	0	529530880	42	4521
2026-01-02 23:33:45.44	22.09	26.83	-36.1	-37.5	18.1	0.00e+00	0	56	0	532676608	42	4568
2026-01-02 23:33:46.45	22.14	27.00	-36.3	-37.6	17.9	0.00e+00	0	56	0	535822336	43	4384
2026-01-02 23:33:47.46	22.18	27.17	-36.4	-37.7	17.8	0.00e+00	0	56	0	538968064	43	4439
2026-01-02 23:33:48.47	22.22	27.34	-36.5	-37.9	17.7	0.00e+00	0	56	0	542113792	43	4513
2026-01-02 23:33:49.48	22.27	27.51	-36.6	-38.0	17.6	0.00e+00	0	56	0	545259520	43	4569
2026-01-02 23:33:50.49	22.31	27.69	-36.6	-38.0	17.6	0.00e+00	0	56	0	548405248	43	4578
2026-01-02 23:33:51.50	22.36	27.86	-36.6	-38.0	17.5	0.00e+00	0	56	0	551550976	43	4588
2026-01-02 23:33:52.51	22.40	28.04	-36.6	-38.0	17.6	0.00e+00	0	56	0	554696704	43	4572
2026-01-02 23:33:53.52	22.45	28.22	-36.5	-38.0	17.6	0.00e+00	0	56	0	557842432	43	4550
2026-01-02 23:33:54.53	22.49	28.40	-36.4	-37.8	17.7	0.00e+00	0	56	0	560988160	43	4489
2026-01-02 23:33:55.54	22.54	28.58	-36.3	-37.7	17.9	0.00e+00	0	56	0	564133888	43	4422
2026-01-02 23:33:56.55	22.59	28.76	-36.2	-37.6	18.0	0.00e+00	0	56	0	567279616	43	4358
2026-01-02 23:33:57.56	22.64	28.94	-36.1	-37.5	18.1	0.00e+00	0	56	0	570425344	43	4317
2026-01-02 23:33:58.57	22.68	29.13	-36.1	-37.4	18.1	0.00e+00	0	56	0	573571072	43	4282
2026-01-02 23:33:59.58	22.73	29.31	-36.0	-37.4	18.2	0.00e+00	0	56	0	576716800	43	4243
2026-01-02 23:34:00.59	22.78	29.50	-35.9	-37.2	18.3	0.00e+00	0	56	0	579862528	43	4192
2026-01-02 23:34:01.60	22.83	29.68	-35.8	-37.1	18.4	0.00e+00	0	56	0	583008256	43	4131
2026-01-02 23:34:02.61	22.88	29.87	-35.9	-37.2	18.4	0.00e+00	0	56	0	586153984	43	4164
2026-01-02 23:34:03.62	22.93	30.06	-35.9	-37.2	18.4	0.00e+00	0	56	0	589299712	43	4163
2026-01-02 23:34:04.64	22.98	30.26	-35.8	-37.1	18.4	0.00e+00	0	56	0	592445440	43	4137
2026-01-02 23:34:05.65	23.04	30.45	-35.9	-37.2	18.3	0.00e+00	0	56	0	595591168	43	4183
2026-01-02 23:34:06.66	23.09	30.64	-35.9	-37.2	18.4	0.00e+00	0	56	0	598736896	43	4182
2026-01-02 23:34:07.67	23.14	30.84	-35.9	-37.2	18.3	0.00e+00	0	56	0	601882624	43	4180
2026-01-02 23:34:08.68	23.20	31.03	-35.9	-37.2	18.4	0.00e+00	0	56	0	605028352	43	4160
2026-01-02 23:34:09.69	23.25	31.23	-35.9	-37.2	18.4	0.00e+00	0	56	0	608174080	43	4159
2026-01-02 23:34:10.70	23.31	31.43	-35.9	-37.3	18.3	0.00e+00	0	56	0	611319808	43	4197
2026-01-02 23:34:11.71	23.36	31.63	-35.9	-37.3	18.3	0.00e+00	0	56	0	615514112	43	4205
2026-01-02 23:34:12.72	23.42	31.83	-35.9	-37.2	18.3	0.00e+00	0	56	0	617611264	43	4187
2026-01-02 23:34:13.73	23.47	32.03	-36.0	-37.3	18.3	0.00e+00	0	56	0	620756992	43	4230
2026-01-02 23:34:14.74	23.53	32.24	-36.0	-37.3	18.2	0.00e+00	0	56	0	623902720	43	4236
2026-01-02 23:34:15.75	23.59	32.44	-35.9	-37.2	18.3	0.00e+00	0	56	0	627048448	43	4188
2026-01-02 23:34:16.76	23.65	32.65	-35.9	-37.3	18.3	0.00e+00	0	56	0	631242752	43	4194
2026-01-02 23:34:17.77	23.71	32.86	-36.0	-37.3	18.3	0.00e+00	0	56	0	634388480	43	4226
2026-01-02 23:34:18.78	23.77	33.07	-36.1	-37.4	18.2	0.00e+00	0	56	0	637534208	43	4271
2026-01-02 23:34:19.79	23.83	33.28	-36.2	-37.5	18.1	0.00e+00	0	56	0	640679936	43	4327
2026-01-02 23:34:20.80	23.89	33.49	-36.2	-37.6	18.0	0.00e+00	0	56	0	643825664	43	4346
2026-01-02 23:34:21.81	23.95	33.71	-36.4	-37.8	17.8	0.00e+00	0	56	0	646971392	43	4468
2026-01-02 23:34:22.82	24.02	33.92	-36.5	-37.9	17.8	0.00e+00	0	56	0	650117120	43	4505
2026-01-02 23:34:23.84	24.08	34.14	-36.5	-37.9	17.8	0.00e+00	0	56	0	653262848	43	4513
2026-01-02 23:34:24.85	24.15	34.36	-36.6	-38.0	17.7	0.00e+00	0	56	0	656408576	43	4556
2026-01-02 23:34:25.86	24.21	34.58	-37.0	-38.4	17.4	0.00e+00	0	56	0	659554304	44	4538
2026-01-02 23:34:26.87	24.28	34.80	-37.1	-38.6	17.3	0.00e+00	0	56	0	662700032	44	4602
2026-01-02 23:34:27.88	24.35	35.03	-37.4	-38.9	16.9	0.00e+00	0	56	0	665845760	45	4526
2026-01-02 23:34:28.89	24.42	35.25	-37.4	-38.9	16.9	0.00e+00	0	56	0	668991488	45	4542
2026-01-02 23:34:29.90	24.49	35.48	-37.6	-39.1	16.7	0.00e+00	0	56	0	672137216	45	4651
2026-01-02 23:34:30.91	24.56	35.71	-37.7	-39.3	16.6	0.00e+00	0	56	0	675282944	45	4746
2026-01-02 23:34:31.92	24.63	35.94	-37.9	-39.5	16.4	0.00e+00	0	56	0	678428672	46	4590
2026-01-02 23:34:32.93	24.70	36.17	-38.1	-39.8	16.2	0.00e+00	0	56	0	681574400	46	4714
2026-01-02 23:34:33.94	24.77	36.40	-38.4	-40.1	15.8	0.00e+00	0	56	0	684720128	47	4648
2026-01-02 23:34:34.95	24.85	36.63	-38.5	-40.4	15.5	0.00e+00	0	56	0	687865856	47	4771
2026-01-02 23:34:35.96	24.92	36.87	-38.9	-40.8	15.2	0.00e+00	0	56	0	691011584	48	4753
2026-01-02 23:34:36.97	25.00	37.11	-39.0	-41.0	15.1	0.00e+00	0	56	0	694157312	48	4825
2026-01-02 23:34:37.98	25.07	37.35	-39.1	-41.1	15.0	0.00e+00	0	56	0	697303040	48	4878
2026-01-02 23:34:38.99	25.15	37.59	-39.1	-41.1	14.9	0.00e+00	0	56	0	700448768	48	4904
2026-01-02 23:34:40.00	25.23	37.83	-39.1	-41.1	15.0	7.00e-07	0	56	0	703594496	48	4874
2026-01-02 23:34:41.01	25.31	38.08	-38.8	-40.6	15.4	0.00e+00	0	56	0	706740224	48	4646
2026-01-02 23:34:42.02	25.39	38.32	-38.6	-40.5	15.6	0.00e+00	0	56	0	709885952	48	4560
2026-01-02 23:34:43.03	25.48	38.57	-38.5	-40.2	15.7	0.00e+00	0	56	0	713031680	48	4437
2026-01-02 23:34:44.04	25.56	38.82	-38.5	-40.3	15.7	0.00e+00	0	56	0	716177408	48	4485
2026-01-02 23:34:45.05	25.65	39.07	-38.5	-40.2	15.8	0.00e+00	0	56	0	719323136	48	4431
2026-01-02 23:34:46.06	25.73	39.33	-38.4	-40.2	15.9	0.00e+00	0	56	0	722468864	48	4399
2026-01-02 23:34:47.07	25.82	39.58	-38.4	-40.2	15.9	0.00e+00	0	56	0	725614592	48	4412
2026-01-02 23:34:48.08	25.91	39.84	-38.5	-40.2	15.8	0.00e+00	0	56	0	728760320	48	4435
2026-01-02 23:34:49.09	26.00	40.10	-38.5	-40.2	15.8	0.00e+00	0	56	0	731906048	48	4436
2026-01-02 23:34:50.10	26.09	40.36	-38.4	-40.1	16.0	0.00e+00	0	56	0	735051776	48	4356
2026-01-02 23:34:51.11	26.19	40.62	-38.2	-39.9	16.2	0.00e+00	0	56	0	738197504	48	4245
2026-01-02 23:34:52.12	26.28	40.89	-38.4	-40.1	16.0	0.00e+00	0	56	0	741343232	48	4364
2026-01-02 23:34:53.13	26.38	41.15	-38.3	-39.9	16.1	0.00e+00	0	56	0	744488960	48	4289
2026-01-02 23:34:54.14	26.48	41.42	-38.2	-39.9	16.1	0.00e+00	0	57	0	747634688	48	4248
2026-01-02 23:34:55.15	26.58	41.69	-38.5	-40.2	15.8	0.00e+00	0	56	0	750780416	48	4432
2026-01-02 23:34:56.16	26.68	41.96	-38.8	-40.6	15.5	0.00e+00	0	56	0	753926144	48	4625
2026-01-02 23:34:57.17	26.78	42.24	-39.0	-40.9	15.2	0.00e+00	0	57	0	757071872	48	4780
2026-01-02 23:34:58.18	26.89	42.51	-39.0	-40.8	15.2	0.00e+00	0	56	0	760217600	48	4757
2026-01-02 23:34:59.19	26.99	42.79	-38.9	-40.8	15.3	0.00e+00	0	56	0	763363328	48	4732
2026-01-02 23:35:00.21	27.10	43.07	-38.9	-40.8	15.2	0.00e+00	0	57	0	766509056	48	4734
2026-01-02 23:35:01.22	27.21	43.36	-38.6	-40.4	15.7	0.00e+00	0	56	0	769654784	48	4502
2026-01-02 23:35:02.23	27.32	43.64	-38.3	-40.0	16.1	0.00e+00	0	56	0	772800512	48	4296
2026-01-02 23:35:03.24	27.44	43.93	-38.3	-40.0	16.1	0.00e+00	0	57	0	775946240	48	4305
2026-01-02 23:35:04.25	27.55	44.21	-38.3	-40.0	16.0	0.00e+00	0	56	0	779091968	48	4336
2026-01-02 23:35:05.26	27.67	44.50	-38.4	-40.1	15.9	0.00e+00	0	57	0	782237696	48	4366
2026-01-02 23:35:06.27	27.79	44.80	-38.4	-40.1	15.9	0.00e+00	0	57	0	785383424	48	4369
2026-01-02 23:35:07.27	27.91	45.09	-38.3	-39.9	16.0	0.00e+00	0	56	0	788529152	48	4285
2026-01-02 23:35:08.29	28.04	45.39	-38.3	-40.0	16.0	0.00e+00	0	57	0	791674880	48	4304
2026-01-02 23:35:09.30	28.16	45.69	-38.4	-40.0	16.0	0.00e+00	0	57	0	794820608	48	4336
2026-01-02 23:35:10.31	28.29	45.99	-38.3	-40.0	16.1	0.00e+00	0	56	0	797966336	48	4309
2026-01-02 23:35:11.32	28.42	46.29	-38.4	-40.1	16.0	0.00e+00	0	57	0	801112064	48	4371
2026-01-02 23:35:12.33	28.56	46.59	-38.4	-40.1	16.0	0.00e+00	0	57	0	804257792	48	4347
2026-01-02 23:35:13.34	28.69	46.90	-38.3	-40.0	16.0	0.00e+00	0	56	0	807403520	48	4322
2026-01-02 23:35:14.35	28.83	47.21	-38.2	-39.9	16.2	0.00e+00	0	56	0	810549248	48	4258
2026-01-02 23:35:15.36	28.98	47.52	-37.9	-39.5	16.4	0.00e+00	0	57	0	813694976	47	4318
2026-01-02 23:35:16.37	29.12	47.83	-37.7	-39.2	16.7	0.00e+00	0	57	0	816840704	47	4189
2026-01-02 23:35:17.38	29.27	48.15	-37.5	-39.1	16.8	0.00e+00	0	56	0	819986432	47	4125
2026-01-02 23:35:18.39	29.42	48.46	-37.3	-38.8	17.0	0.00e+00	0	57	0	823132160	46	4239
2026-01-02 23:35:19.40	29.57	48.78	-37.1	-38.6	17.3	0.00e+00	0	57	0	826277888	46	4117
2026-01-02 23:35:20.41	29.73	49.11	-37.0	-38.5	17.4	0.00e+00	0	57	0	829423616	46	4065
2026-01-02 23:35:21.42	29.89	49.43	-37.2	-38.7	17.2	0.00e+00	0	57	0	832569344	46	4167
2026-01-02 23:35:22.43	30.05	49.75	-37.2	-38.7	17.2	0.00e+00	0	57	0	835715072	46	4186
2026-01-02 23:35:23.44	30.22	50.08	-37.4	-39.0	16.9	0.00e+00	0	57	0	838860800	46	4304
2026-01-02 23:35:24.44	30.39	50.41	-37.6	-39.1	16.8	0.00e+00	0	57	0	842006528	46	4383
2026-01-02 23:35:25.46	30.56	50.74	-37.8	-39.4	16.5	0.00e+00	0	57	0	845152256	46	4518
2026-01-02 23:35:26.46	30.74	51.08	-37.9	-39.5	16.4	0.00e+00	0	57	0	848297984	46	4573
2026-01-02 23:35:27.48	30.92	51.42	-37.8	-39.4	16.5	0.00e+00	0	57	0	851443712	46	4532
2026-01-02 23:35:28.49	31.11	51.75	-37.9	-39.5	16.4	0.00e+00	0	57	0	854589440	46	4591
2026-01-02 23:35:29.50	31.30	52.09	-38.1	-39.8	16.2	0.00e+00	0	57	0	857735168	46	4716
2026-01-02 23:35:30.51	31.49	52.44	-38.1	-39.7	16.2	0.00e+00	0	56	0	860880896	46	4705
2026-01-02 23:35:31.52	31.69	52.78	-37.9	-39.6	16.4	0.00e+00	0	57	0	864026624	46	4613
2026-01-02 23:35:32.53	31.89	53.13	-37.8	-39.4	16.6	0.00e+00	0	57	0	867172352	46	4531
2026-01-02 23:35:33.54	32.10	53.48	-37.5	-39.0	16.9	0.00e+00	0	57	0	870318080	46	4339
2026-01-02 23:35:34.55	32.32	53.83	-37.2	-38.7	17.3	0.00e+00	0	57	0	873463808	46	4165
2026-01-02 23:35:35.56	32.53	54.18	-37.1	-38.7	17.3	0.00e+00	0	57	0	876609536	46	4152
2026-01-02 23:35:36.57	32.76	54.54	-36.9	-38.3	17.5	0.00e+00	0	57	0	879755264	45	4223
2026-01-02 23:35:37.58	32.99	54.89	-36.7	-38.1	17.7	0.00e+00	0	57	0	882900992	45	4139
2026-01-02 23:35:38.59	33.22	55.25	-36.7	-38.1	17.8	0.00e+00	0	57	0	886046720	45	4110
2026-01-02 23:35:39.60	33.46	55.61	-36.7	-38.1	17.8	0.00e+00	0	57	0	889192448	45	4138
2026-01-02 23:35:40.61	33.71	55.98	-36.7	-38.1	17.7	0.00e+00	0	57	0	892338176	45	4126
2026-01-02 23:35:41.62	33.96	56.34	-36.5	-37.9	18.0	0.00e+00	0	57	0	895483904	45	4028
2026-01-02 23:35:42.63	34.22	56.71	-36.4	-37.7	18.1	0.00e+00	0	57	0	898629632	44	4193
2026-01-02 23:35:43.64	34.49	57.08	-36.3	-37.7	18.1	0.00e+00	0	57	0	901775360	44	4147
2026-01-02 23:35:44.65	34.77	57.45	-36.2	-37.5	18.2	0.00e+00	0	57	0	905969664	44	4090
2026-01-02 23:35:45.66	35.05	57.82	-36.1	-37.4	18.4	0.00e+00	0	57	0	909115392	44	4049
2026-01-02 23:35:46.68	35.34	58.20	-36.0	-37.4	18.4	0.00e+00	0	57	0	911212544	44	4009
2026-01-02 23:35:47.69	35.64	58.57	-35.7	-36.9	18.6	0.00e+00	0	57	0	914358272	43	4049
2026-01-02 23:35:48.70	35.95	58.95	-35.5	-36.8	18.8	0.00e+00	0	57	0	917504000	42	4201
2026-01-02 23:35:49.71	36.26	59.33	-35.5	-36.7	18.8	0.00e+00	0	57	0	921698304	42	4180
2026-01-02 23:35:50.72	36.59	59.71	-35.4	-36.6	18.9	0.00e+00	0	57	0	924844032	42	4138
2026-01-02 23:35:51.73	36.92	60.09	-35.3	-36.5	18.9	0.00e+00	0	57	0	927989760	42	4079
2026-01-02 23:35:52.74	37.27	60.48	-35.4	-36.6	18.9	0.00e+00	0	57	0	931135488	42	4124
2026-01-02 23:35:53.75	37.62	60.86	-35.7	-37.0	18.7	0.00e+00	0	57	0	934281216	42	4325
2026-01-02 23:35:54.76	37.99	61.25	-35.6	-36.9	18.8	0.00e+00	0	57	0	937426944	42	4266
2026-01-02 23:35:55.77	38.36	61.64	-35.7	-37.0	18.7	0.00e+00	0	57	0	940572672	42	4297
2026-01-02 23:35:56.78	38.75	62.02	-35.5	-36.8	18.9	0.00e+00	0	56	0	943718400	42	4200
2026-01-02 23:35:57.79	39.15	62.41	-35.2	-36.5	19.1	0.00e+00	0	57	0	946864128	42	4065
2026-01-02 23:35:58.80	39.57	62.81	-35.0	-36.2	19.3	0.00e+00	0	57	0	950009856	42	3931
2026-01-02 23:35:59.81	40.00	63.20	-34.9	-36.1	19.4	0.00e+00	0	57	0	953155584	41	4113
2026-01-02 23:36:00.82	40.44	63.59	-34.9	-36.1	19.4	0.00e+00	0	57	0	956301312	41	4123
2026-01-02 23:36:01.83	40.89	63.98	-34.9	-36.1	19.4	0.00e+00	0	57	0	959447040	41	4124
2026-01-02 23:36:02.84	41.37	64.38	-34.8	-35.9	19.5	0.00e+00	0	57	0	962592768	41	4050
2026-01-02 23:36:03.85	41.86	64.77	-34.5	-35.7	19.8	0.00e+00	0	57	0	965738496	41	3927
2026-01-02 23:36:04.86	42.36	65.17	-34.6	-35.7	19.8	0.00e+00	0	57	0	968884224	41	3952
2026-01-02 23:36:05.87	42.89	65.56	-34.7	-35.9	19.7	0.00e+00	0	57	0	972029952	41	4012
2026-01-02 23:36:06.88	43.43	65.96	-34.8	-35.9	19.6	0.00e+00	0	57	0	975175680	41	4050
2026-01-02 23:36:07.89	44.00	66.35	-34.5	-35.6	19.9	0.00e+00	0	57	0	978321408	40	4126
2026-01-02 23:36:08.89	44.58	66.74	-34.3	-35.4	20.0	0.00e+00	0	57	0	981467136	40	4046
2026-01-02 23:36:09.90	45.18	67.14	-34.3	-35.4	20.0	0.00e+00	0	57	0	984612864	40	4048
2026-01-02 23:36:10.91	45.81	67.53	-34.4	-35.6	19.9	0.00e+00	0	57	0	987758592	40	4113
2026-01-02 23:36:11.92	46.47	67.93	-34.6	-35.7	19.8	0.00e+00	0	57	0	990904320	40	4188
2026-01-02 23:36:12.93	47.15	68.32	-34.6	-35.7	19.8	0.00e+00	0	57	0	994050048	40	4185
2026-01-02 23:36:13.94	47.85	68.71	-34.5	-35.6	19.8	0.00e+00	0	57	0	997195776	40	4133
2026-01-02 23:36:14.96	48.60	69.10	-34.4	-35.5	19.8	0.00e+00	0	57	0	1000341504	40	4091
2026-01-02 23:36:15.97	49.36	69.49	-34.5	-35.6	19.7	0.00e+00	0	57	0	1003487232	40	4131
2026-01-02 23:36:16.98	50.16	69.88	-34.5	-35.6	19.8	0.00e+00	0	57	0	1006632960	40	4144
2026-01-02 23:36:17.99	50.99	70.26	-34.6	-35.7	19.7	0.00e+00	0	57	0	1009778688	40	4181
2026-01-02 23:36:19.00	51.85	70.65	-34.4	-35.5	19.8	0.00e+00	0	57	0	1012924416	40	4096
2026-01-02 23:36:20.01	52.76	71.02	-34.3	-35.4	20.0	0.00e+00	0	57	0	1016070144	40	4038
2026-01-02 23:36:21.01	53.69	71.40	-34.1	-35.2	20.2	0.00e+00	0	57	0	1019215872	40	3914
2026-01-02 23:36:22.03	54.68	71.77	-34.2	-35.3	20.1	0.00e+00	0	57	0	1022361600	39	4239
2026-01-02 23:36:23.04	55.70	72.14	-34.4	-35.5	19.9	0.00e+00	0	57	0	1025507328	39	4332
2026-01-02 23:36:24.04	56.76	72.50	-34.4	-35.5	20.0	0.00e+00	0	57	0	1028653056	39	4336
2026-01-02 23:36:25.05	57.88	72.86	-34.5	-35.7	19.8	0.00e+00	0	57	0	1031798784	39	4405
2026-01-02 23:36:26.07	59.06	73.22	-34.4	-35.5	19.9	0.00e+00	0	57	0	1034944512	39	4334
2026-01-02 23:36:27.08	60.28	73.57	-34.4	-35.6	19.9	0.00e+00	0	57	0	1038090240	39	4362
2026-01-02 23:36:28.09	61.55	73.91	-34.7	-35.8	19.6	0.00e+00	0	57	0	1041235968	39	4486
2026-01-02 23:36:29.10	62.89	74.24	-34.7	-35.9	19.5	0.00e+00	0	57	0	1044381696	40	4273
2026-01-02 23:36:30.11	64.28	74.57	-34.5	-35.7	19.7	0.00e+00	0	57	0	1047527424	40	4169
2026-01-02 23:36:31.12	65.73	74.89	-34.4	-35.5	19.8	0.00e+00	0	57	0	1050673152	40	4079
2026-01-02 23:36:32.13	67.25	75.20	-34.5	-35.6	19.7	0.00e+00	0	57	0	1053818880	40	4130
2026-01-02 23:36:33.14	68.83	75.50	-34.7	-35.9	19.5	0.00e+00	0	57	0	1056964608	40	4252
2026-01-02 23:36:34.15	70.48	75.79	-34.6	-35.8	19.6	0.00e+00	0	57	0	1060110336	40	4194
2026-01-02 23:36:35.16	72.20	76.07	-34.2	-35.3	20.0	0.00e+00	0	57	0	1063256064	40	3990
2026-01-02 23:36:36.17	73.99	76.33	-34.4	-35.5	19.7	0.00e+00	0	57	0	1066401792	40	4082
2026-01-02 23:36:37.18	75.86	76.59	-34.8	-36.0	19.3	0.00e+00	0	57	0	1069547520	40	4321
2026-01-02 23:36:38.19	77.79	76.83	-34.9	-36.2	19.1	0.00e+00	0	57	0	1072693248	40	4397
2026-01-02 23:36:39.20	79.80	77.05	-35.2	-36.4	18.7	0.00e+00	0	57	0	1075838976	41	4285
2026-01-02 23:36:40.21	81.88	77.26	-35.4	-36.7	18.5	0.00e+00	0	57	0	1078984704	41	4429
2026-01-02 23:36:41.22	84.02	77.45	-35.2	-36.5	18.8	0.00e+00	0	57	0	1082130432	41	4312
2026-01-02 23:36:42.23	86.24	77.63	-34.9	-36.1	19.2	0.00e+00	0	57	0	1085276160	41	4121
2026-01-02 23:36:43.24	88.51	77.79	-34.8	-36.1	19.3	0.00e+00	0	57	0	1088421888	41	4101
2026-01-02 23:36:44.25	90.84	77.93	-34.7	-35.9	19.4	0.00e+00	0	57	0	1091567616	41	4029
2026-01-02 23:36:45.26	93.22	78.04	-34.5	-35.7	19.5	0.00e+00	0	57	0	1094713344	41	3936
2026-01-02 23:36:46.27	95.65	78.14	-34.3	-35.4	19.9	0.00e+00	0	57	0	1097859072	40	4042
2026-01-02 23:36:47.28	98.11	78.22	-34.4	-35.5	19.8	0.00e+00	0	57	0	1101004800	40	4078
2026-01-02 23:36:48.29	100.60	78.28	-34.6	-35.8	19.5	0.00e+00	0	57	0	1104150528	40	4227
2026-01-02 23:36:49.30	103.12	78.31	-34.6	-35.8	19.5	0.00e+00	0	57	0	1107296256	40	4216
2026-01-02 23:36:50.31	105.64	78.32	-34.5	-35.7	19.6	0.00e+00	0	57	0	1110441984	40	4173
2026-01-02 23:36:51.33	108.19	78.31	-34.3	-35.5	19.8	0.00e+00	0	57	0	1113587712	40	4066
2026-01-02 23:36:52.34	110.70	78.28	-34.0	-35.1	20.1	0.00e+00	0	57	0	1116733440	40	3908
2026-01-02 23:36:53.34	113.17	78.23	-34.0	-35.1	20.3	0.00e+00	0	57	0	1119879168	39	4116
2026-01-02 23:36:54.36	115.66	78.15	-33.9	-35.0	20.1	0.00e+00	0	57	0	1123024896	39	4077
2026-01-02 23:36:55.37	118.09	78.05	-34.1	-35.2	20.0	0.00e+00	0	57	0	1126170624	39	4193
2026-01-02 23:36:56.38	120.48	77.94	-34.2	-35.3	19.9	0.00e+00	0	57	0	1129316352	39	4214
2026-01-02 23:36:57.38	122.79	77.80	-34.3	-35.4	19.7	0.00e+00	0	57	0	1132462080	39	4288
2026-01-02 23:36:58.39	125.07	77.64	-34.6	-35.7	19.5	0.00e+00	0	57	0	1135607808	39	4438
2026-01-02 23:36:59.40	127.29	77.47	-34.7	-35.9	19.3	0.00e+00	0	57	0	1138753536	40	4288
2026-01-02 23:37:00.41	129.44	77.28	-34.4	-35.6	19.7	0.00e+00	0	57	0	1141899264	40	4116
2026-01-02 23:37:01.42	131.53	77.07	-34.6	-35.7	19.6	0.00e+00	0	57	0	1145044992	40	4190
2026-01-02 23:37:02.43	133.54	76.85	-34.6	-35.7	19.6	0.00e+00	0	57	0	1148190720	40	4192
2026-01-02 23:37:03.44	135.48	76.61	-34.2	-35.3	19.9	0.00e+00	0	57	0	1151336448	40	3988
2026-01-02 23:37:04.45	137.35	76.35	-34.0	-35.1	20.1	0.00e+00	0	57	0	1154482176	39	4120
2026-01-02 23:37:05.46	139.15	76.09	-34.3	-35.4	19.8	0.00e+00	0	57	0	1157627904	39	4277
2026-01-02 23:37:06.47	140.88	75.81	-34.3	-35.5	19.9	0.00e+00	0	57	0	1160773632	39	4298
2026-01-02 23:37:07.48	142.54	75.52	-34.5	-35.6	19.7	0.00e+00	0	57	0	1163919360	39	4391
2026-01-02 23:37:08.49	144.13	75.22	-34.9	-36.1	19.2	0.00e+00	0	57	0	1167065088	40	4364
2026-01-02 23:37:09.50	145.65	74.91	-34.8	-36.0	19.3	0.00e+00	0	57	0	1170210816	40	4335
2026-01-02 23:37:10.51	147.11	74.59	-34.7	-35.8	19.5	0.00e+00	0	57	0	1173356544	40	4232
2026-01-02 23:37:11.53	148.52	74.26	-35.2	-36.4	18.9	0.00e+00	0	57	0	1176502272	41	4276
2026-01-02 23:37:12.53	149.85	73.93	-35.3	-36.6	18.7	0.00e+00	0	57	0	1179648000	41	4351
2026-01-02 23:37:13.54	151.13	73.59	-35.0	-36.2	19.1	0.00e+00	0	57	0	1182793728	41	4179
2026-01-02 23:37:14.55	152.35	73.24	-34.4	-35.5	19.8	0.00e+00	0	57	0	1185939456	40	4079
2026-01-02 23:37:15.56	153.52	72.89	-34.2	-35.3	20.0	0.00e+00	0	57	0	1189085184	40	3990
2026-01-02 23:37:16.57	154.65	72.53	-34.0	-35.1	20.1	0.00e+00	0	57	0	1192230912	39	4117
2026-01-02 23:37:17.58	155.72	72.16	-34.2	-35.3	19.5	0.00e+00	0	57	0	1195376640	39	4230
2026-01-02 23:37:18.59	156.75	71.80	-34.7	-35.9	19.4	0.00e+00	0	57	0	1199570944	40	4269
2026-01-02 23:37:19.60	157.74	71.42	-34.6	-35.8	19.5	0.00e+00	0	57	0	1202716672	40	4207
2026-01-02 23:37:20.61	158.68	71.05	-34.3	-35.4	19.8	0.00e+00	0	57	0	1204813824	40	4048
2026-01-02 23:37:21.62	159.59	70.67	-34.2	-35.3	20.0	0.00e+00	0	57	0	1207959552	40	3972
2026-01-02 23:37:22.63	160.46	70.28	-33.9	-35.0	20.2	0.00e+00	0	57	0	1211105280	39	4084
2026-01-02 23:37:23.64	161.29	69.90	-33.8	-34.9	20.5	0.00e+00	0	57	0	1215299584	39	4021
2026-01-02 23:37:24.65	162.09	69.51	-34.4	-35.5	19.9	0.00e+00	0	57	0	1218445312	39	4307
2026-01-02 23:37:25.66	162.86	69.12	-34.9	-36.1	19.3	0.00e+00	0	57	0	1221591040	40	4379
2026-01-02 23:37:26.67	163.60	68.73	-35.0	-36.3	19.2	0.00e+00	0	57	0	1224736768	40	4449
2026-01-02 23:37:27.68	164.31	68.34	-34.7	-35.9	19.4	0.00e+00	0	57	0	1226833920	40	4267
2026-01-02 23:37:28.69	164.99	67.95	-34.4	-35.5	19.8	0.00e+00	0	57	0	1231028224	40	4080
2026-01-02 23:37:29.70	165.65	67.55	-33.9	-35.0	20.4	0.00e+00	0	57	0	1234173952	39	4085
2026-01-02 23:37:30.71	166.28	67.16	-33.7	-34.8	20.6	0.00e+00	0	57	0	1237319680	39	3979
2026-01-02 23:37:31.72	166.89	66.76	-34.2	-35.3	20.2	0.00e+00	0	57	0	1240465408	39	4209
2026-01-02 23:37:32.73	167.47	66.36	-34.8	-36.0	19.3	0.00e+00	0	57	0	1243611136	40	4323
2026-01-02 23:37:33.74	168.04	65.97	-35.1	-36.3	19.2	0.00e+00	0	57	0	1246756864	40	4464
2026-01-02 23:37:34.75	168.58	65.57	-34.7	-35.9	19.5	0.00e+00	0	57	0	1249902592	40	4262
2026-01-02 23:37:35.76	169.11	65.18	-34.4	-35.6	19.7	0.00e+00	0	57	0	1253048320	40	4103
2026-01-02 23:37:36.78	169.62	64.78	-34.0	-35.1	20.2	0.00e+00	0	57	0	1256194048	40	3892
2026-01-02 23:37:37.79	170.12	64.38	-33.9	-35.0	20.4	0.00e+00	0	57	0	1259339776	39	4064
2026-01-02 23:37:38.80	170.59	63.98	-34.7	-35.9	19.5	0.00e+00	0	57	0	1262485504	40	4281
2026-01-02 23:37:39.81	171.05	63.59	-35.9	-37.3	18.2	0.00e+00	0	57	0	1265631232	42	4447
2026-01-02 23:37:40.82	171.49	63.20	-36.2	-37.6	17.6	0.00e+00	0	57	0	1268776960	43	4357
2026-01-02 23:37:41.83	171.92	62.80	-35.6	-36.9	18.3	0.00e+00	0	57	0	1271922688	43	4044
2026-01-02 23:37:42.84	172.34	62.41	-34.8	-36.0	19.3	0.00e+00	0	57	0	1275068416	41	4088
2026-01-02 23:37:43.85	172.74	62.02	-34.6	-35.8	19.6	0.00e+00	0	57	0	1278214144	41	3961
2026-01-02 23:37:44.86	173.13	61.63	-34.4	-35.5	19.8	0.00e+00	0	57	0	1281359872	40	4085
2026-01-02 23:37:45.87	173.51	61.24	-34.7	-35.8	19.6	0.00e+00	0	57	0	1284505600	40	4239
2026-01-02 23:37:46.88	173.87	60.85	-35.6	-36.8	18.6	0.00e+00	0	57	0	1287651328	41	4485
2026-01-02 23:37:47.89	174.23	60.47	-36.5	-37.9	17.5	0.00e+00	0	57	0	1290797056	43	4544
2026-01-02 23:37:48.89	174.57	60.09	-37.2	-38.7	17.0	0.00e+00	0	57	0	1293942784	45	4423
2026-01-02 23:37:49.90	174.91	59.70	-36.5	-37.9	17.6	0.00e+00	0	57	0	1297088512	45	4008
2026-01-02 23:37:50.92	175.23	59.32	-35.2	-36.4	18.6	0.00e+00	0	57	0	1300234240	42	4014
2026-01-02 23:37:51.93	175.55	58.94	-34.7	-35.8	19.3	0.00e+00	0	57	0	1303379968	41	3995
2026-01-02 23:37:52.94	175.86	58.56	-34.4	-35.6	19.7	0.00e+00	0	57	0	1306525696	40	4102
2026-01-02 23:37:53.95	176.16	58.18	-35.2	-36.4	19.0	0.00e+00	0	57	0	1309671424	40	4519
2026-01-02 23:37:54.96	176.45	57.81	-36.1	-37.5	18.1	0.00e+00	0	57	0	1312817152	42	4566
2026-01-02 23:37:55.97	176.73	57.43	-37.1	-38.6	17.2	0.00e+00	0	57	0	1315962880	44	4642
2026-01-02 23:37:56.98	177.00	57.06	-38.1	-39.8	16.0	0.00e+00	0	57	0	1319108608	46	4752
2026-01-02 23:37:57.99	177.27	56.69	-39.0	-40.9	15.0	0.00e+00	0	57	0	1322254336	48	4810
2026-01-02 23:37:58.99	177.53	56.32	-39.0	-41.1	14.5	0.00e+00	0	57	0	1325400064	48	4879
2026-01-02 23:38:00.00	177.78	55.96	-38.1	-39.9	15.5	0.00e+00	0	57	0	1328545792	48	4257
2026-01-02 23:38:01.01	178.03	55.59	-36.7	-38.1	17.3	0.00e+00	0	57	0	1331691520	45	4140
2026-01-02 23:38:02.03	178.28	55.23	-35.5	-36.7	18.5	0.00e+00	0	57	0	1334837248	43	3955
2026-01-02 23:38:03.04	178.51	54.87	-35.4	-36.6	18.6	0.00e+00	0	57	0	1337982976	42	4129
2026-01-02 23:38:04.04	178.74	54.51	-35.5	-36.8	18.4	0.00e+00	0	57	0	1341128704	42	4214
2026-01-02 23:38:05.05	178.96	54.16	-36.0	-37.3	18.0	0.00e+00	0	57	0	1344274432	42	4464
2026-01-02 23:38:06.06	179.18	53.80	-36.6	-38.0	17.4	0.00e+00	0	57	0	1347420160	43	4560
2026-01-02 23:38:07.07	179.40	53.45	-37.3	-38.8	17.0	0.00e+00	0	57	0	1350565888	45	4481
2026-01-02 23:38:08.08	179.60	53.10	-37.9	-39.6	16.3	0.00e+00	0	57	0	1353711616	46	4607
2026-01-02 23:38:09.09	179.81	52.75	-38.0	-39.7	16.1	0.00e+00	0	57	0	1356857344	46	4685
2026-01-02 23:38:10.10	180.01	52.40	-38.1	-39.8	16.0	0.00e+00	0	57	0	1360003072	46	4721
2026-01-02 23:38:11.11	180.20	52.06	-37.7	-39.3	16.3	0.00e+00	0	57	0	1363148800	46	4488
2026-01-02 23:38:12.12	180.39	51.72	-37.3	-38.8	16.9	0.00e+00	0	57	0	1366294528	46	4214
2026-01-02 23:38:13.13	180.58	51.38	-37.0	-38.5	17.2	0.00e+00	0	57	0	1369440256	46	4076
2026-01-02 23:38:14.14	180.76	51.04	-36.9	-38.3	17.5	0.00e+00	0	57	0	1372585984	45	4209
2026-01-02 23:38:15.15	180.94	50.71	-37.0	-38.4	17.3	0.00e+00	0	57	0	1375731712	45	4281
2026-01-02 23:38:16.16	181.11	50.37	-37.5	-39.0	16.8	0.00e+00	0	57	0	1378877440	45	4563
2026-01-02 23:38:17.17	181.28	50.04	-38.0	-39.7	16.1	0.00e+00	0	57	0	1382023168	46	4688
2026-01-02 23:38:18.18	181.45	49.71	-38.1	-39.7	16.1	0.00e+00	0	57	0	1385168896	46	4697
2026-01-02 23:38:19.19	181.61	49.38	-38.1	-39.7	15.9	0.00e+00	0	57	0	1388314624	46	4703
2026-01-02 23:38:20.20	181.77	49.06	-38.0	-39.7	15.9	0.00e+00	0	57	0	1391460352	46	4699
2026-01-02 23:38:21.21	181.93	48.74	-38.0	-39.7	16.0	0.00e+00	0	57	0	1394606080	46	4670
2026-01-02 23:38:22.21	182.08	48.42	-38.3	-40.0	15.8	0.00e+00	0	57	0	1397751808	47	4598
2026-01-02 23:38:23.22	182.23	48.10	-38.3	-40.0	15.8	0.00e+00	0	57	0	1400897536	47	4585
2026-01-02 23:38:24.23	182.38	47.78	-38.0	-39.6	16.1	0.00e+00	0	57	0	1404043264	47	4375
2026-01-02 23:38:25.24	182.52	47.47	-37.7	-39.3	16.3	0.00e+00	0	57	0	1407188992	47	4212
2026-01-02 23:38:26.26	182.67	47.15	-37.7	-39.3	16.4	0.00e+00	0	57	0	1410334720	47	4205
2026-01-02 23:38:27.27	182.81	46.84	-37.3	-38.8	16.8	0.00e+00	0	57	0	1413480448	46	4239
2026-01-02 23:38:28.28	182.94	46.54	-37.4	-39.0	16.7	0.00e+00	0	57	0	1416626176	46	4303
2026-01-02 23:38:29.28	183.08	46.23	-38.1	-39.8	15.9	0.00e+00	0	57	0	1419771904	46	4742
2026-01-02 23:38:30.30	183.21	45.93	-38.7	-40.6	15.2	0.00e+00	0	57	0	1422917632	47	4879
2026-01-02 23:38:31.31	183.34	45.62	-39.3	-41.4	14.6	1.50e-06	0	57	0	1426063360	49	4765
2026-01-02 23:38:32.32	183.46	45.32	-39.8	-42.0	13.8	3.00e-06	0	57	0	1429209088	50	4865
2026-01-02 23:38:33.33	183.59	45.03	-39.9	-42.3	13.7	9.90e-06	0	57	0	1432354816	50	4989
2026-01-02 23:38:34.33	183.71	44.73	-39.6	-41.8	14.1	2.20e-06	0	57	0	1435500544	50	4748
2026-01-02 23:38:35.34	183.83	44.44	-39.3	-41.4	14.5	7.00e-07	0	57	0	1438646272	50	4504
2026-01-02 23:38:36.35	183.95	44.15	-38.7	-40.5	15.3	0.00e+00	0	57	0	1441792000	49	4318
2026-01-02 23:38:37.36	184.06	43.86	-38.2	-39.9	15.9	0.00e+00	0	57	0	1444937728	48	4271
2026-01-02 23:38:38.37	184.18	43.57	-38.4	-40.1	15.7	0.00e+00	0	57	0	1448083456	48	4390
2026-01-02 23:38:39.38	184.29	43.29	-38.8	-40.7	15.2	0.00e+00	0	57	0	1451229184	48	4657
2026-01-02 23:38:40.39	184.40	43.00	-39.0	-41.0	14.9	0.00e+00	0	57	0	1454374912	48	4822
2026-01-02 23:38:41.40	184.51	42.72	-38.8	-40.6	15.3	0.00e+00	0	57	0	1457520640	48	4645
2026-01-02 23:38:42.41	184.61	42.44	-38.3	-40.1	15.7	0.00e+00	0	57	0	1460666368	48	4344
2026-01-02 23:38:43.42	184.72	42.17	-38.0	-39.6	16.0	0.00e+00	0	57	0	1463812096	48	4140
2026-01-02 23:38:44.43	184.82	41.89	-37.7	-39.3	16.3	0.00e+00	0	57	0	1466957824	47	4233
2026-01-02 23:38:45.44	184.92	41.62	-37.6	-39.2	16.5	0.00e+00	0	57	0	1470103552	47	4152
2026-01-02 23:38:46.45	185.02	41.35	-37.5	-39.0	16.7	0.00e+00	0	57	0	1473249280	46	4326
2026-01-02 23:38:47.46	185.12	41.08	-37.8	-39.4	16.3	0.00e+00	0	57	0	1476395008	46	4529
2026-01-02 23:38:48.47	185.21	40.81	-38.2	-39.9	15.9	0.00e+00	0	57	0	1479540736	46	4780
2026-01-02 23:38:49.48	185.31	40.54	-38.4	-40.2	15.5	0.00e+00	0	57	0	1482686464	47	4695
2026-01-02 23:38:50.49	185.40	40.28	-38.4	-40.2	15.6	0.00e+00	0	57	0	1485832192	47	4675
2026-01-02 23:38:51.50	185.49	40.02	-38.4	-40.2	15.6	0.00e+00	0	57	0	1488977920	47	4681
2026-01-02 23:38:52.51	185.58	39.76	-38.4	-40.2	15.5	0.00e+00	0	57	0	1492123648	47	4680
2026-01-02 23:38:53.52	185.67	39.50	-38.3	-40.1	15.6	0.00e+00	0	57	0	1495269376	47	4624
2026-01-02 23:38:54.53	185.76	39.24	-38.2	-39.9	15.8	0.00e+00	0	57	0	1498415104	47	4516
2026-01-02 23:38:55.54	185.85	38.99	-37.8	-39.4	16.3	0.00e+00	0	57	0	1501560832	47	4287
2026-01-02 23:38:56.55	185.93	38.74	-37.7	-39.3	16.5	0.00e+00	0	57	0	1504706560	47	4194
2026-01-02 23:38:57.56	186.02	38.48	-37.4	-38.9	16.8	0.00e+00	0	57	0	1507852288	46	4280
2026-01-02 23:38:58.57	186.10	38.23	-37.4	-38.9	16.8	0.00e+00	0	57	0	1510998016	46	4277
2026-01-02 23:38:59.58	186.18	37.99	-37.7	-39.3	16.5	0.00e+00	0	57	0	1514143744	46	4448
2026-01-02 23:39:00.60	186.26	37.74	-37.9	-39.5	16.2	0.00e+00	0	57	0	1518338048	46	4594
2026-01-02 23:39:01.61	186.34	37.50	-37.9	-39.6	16.2	0.00e+00	0	57	0	1520435200	46	4618
2026-01-02 23:39:02.62	186.42	37.25	-37.8	-39.4	16.3	0.00e+00	0	57	0	1523580928	46	4521
2026-01-02 23:39:03.63	186.50	37.01	-37.5	-39.1	16.6	0.00e+00	0	57	0	1526726656	46	4366
2026-01-02 23:39:04.64	186.57	36.77	-37.3	-38.8	16.8	0.00e+00	0	57	0	1529872384	46	4224
2026-01-02 23:39:05.65	186.65	36.54	-37.2	-38.7	16.8	0.00e+00	0	57	0	1534066688	46	4165
2026-01-02 23:39:06.66	186.72	36.30	-37.2	-38.7	16.7	0.00e+00	0	57	0	1537212416	46	4185
2026-01-02 23:39:07.67	186.79	36.07	-37.1	-38.7	16.8	0.00e+00	0	57	0	1540358144	46	4147
2026-01-02 23:39:08.68	186.87	35.83	-37.2	-38.8	16.7	0.00e+00	0	57	0	1542455296	46	4206
2026-01-02 23:39:09.69	186.94	35.60	-37.1	-38.7	16.9	0.00e+00	0	57	0	1546649600	46	4153
2026-01-02 23:39:10.70	187.01	35.37	-37.0	-38.5	17.0	0.00e+00	0	57	0	1549795328	46	4090
2026-01-02 23:39:11.71	187.07	35.15	-37.1	-38.6	17.0	0.00e+00	0	57	0	1552941056	46	4135
2026-01-02 23:39:12.72	187.14	34.92	-37.3	-38.8	16.8	0.00e+00	0	57	0	1556086784	46	4238
2026-01-02 23:39:13.73	187.21	34.70	-37.4	-38.9	16.7	0.00e+00	0	57	0	1559232512	46	4271
2026-01-02 23:39:14.74	187.28	34.47	-37.4	-38.9	16.7	0.00e+00	0	57	0	1562378240	46	4291
2026-01-02 23:39:15.75	187.34	34.25	-37.4	-39.0	16.6	0.00e+00	0	57	0	1565523968	46	4314
2026-01-02 23:39:16.76	187.41	34.03	-37.3	-38.8	16.8	0.00e+00	0	57	0	1568669696	46	4221
2026-01-02 23:39:17.77	187.47	33.82	-37.1	-38.5	17.1	0.00e+00	0	57	0	1571815424	46	4094
2026-01-02 23:39:18.79	187.53	33.60	-36.8	-38.2	17.4	0.00e+00	0	57	0	1574961152	45	4173
2026-01-02 23:39:19.80	187.60	33.38	-36.5	-37.9	17.7	0.00e+00	0	57	0	1578106880	45	4027
2026-01-02 23:39:20.81	187.66	33.17	-36.3	-37.6	18.0	0.00e+00	0	57	0	1581252608	44	4137
2026-01-02 23:39:21.82	187.72	32.96	-36.1	-37.4	18.2	0.00e+00	0	57	0	1584398336	44	4012
2026-01-02 23:39:22.83	187.78	32.74	-35.8	-37.1	18.4	0.00e+00	0	57	0	1587544064	43	4110
2026-01-02 23:39:23.84	187.84	32.54	-35.7	-37.0	18.4	0.00e+00	0	57	0	1590689792	43	4078
2026-01-02 23:39:24.85	187.90	32.33	-35.6	-36.9	18.5	0.00e+00	0	57	0	1593835520	43	4031
2026-01-02 23:39:25.86	187.95	32.12	-35.7	-37.0	18.4	0.00e+00	0	57	0	1596981248	43	4074
2026-01-02 23:39:26.87	188.01	31.92	-35.8	-37.0	18.4	0.00e+00	0	57	0	1600126976	43	4093
2026-01-02 23:39:27.88	188.07	31.71	-35.9	-37.2	18.3	0.00e+00	0	57	0	1603272704	43	4157
2026-01-02 23:39:28.89	188.12	31.51	-36.0	-37.3	18.1	0.00e+00	0	57	0	1606418432	43	4219
2026-01-02 23:39:29.90	188.18	31.31	-36.1	-37.4	18.0	0.00e+00	0	57	0	1609564160	43	4273
2026-01-02 23:39:30.91	188.23	31.11	-36.1	-37.4	18.0	0.00e+00	0	57	0	1612709888	43	4271
2026-01-02 23:39:31.92	188.29	30.91	-35.9	-37.2	18.2	0.00e+00	0	57	0	1615855616	43	4171
2026-01-02 23:39:32.93	188.34	30.71	-35.8	-37.1	18.3	0.00e+00	0	57	0	1619001344	43	4137
2026-01-02 23:39:33.94	188.39	30.52	-35.8	-37.1	18.3	0.00e+00	0	57	0	1622147072	43	4127
2026-01-02 23:39:34.95	188.44	30.32	-35.9	-37.2	18.2	0.00e+00	0	57	0	1625292800	43	4165
2026-01-02 23:39:35.96	188.50	30.13	-35.9	-37.3	18.2	0.00e+00	0	57	0	1628438528	43	4197
2026-01-02 23:39:36.97	188.55	29.94	-36.2	-37.5	17.9	0.00e+00	0	57	0	1631584256	43	4338
2026-01-02 23:39:37.98	188.60	29.75	-36.2	-37.7	17.8	0.00e+00	0	57	0	1634729984	43	4394
2026-01-02 23:39:38.99	188.65	29.56	-36.3	-37.8	17.7	0.00e+00	0	57	0	1637875712	43	4453
2026-01-02 23:39:40.00	188.70	29.37	-36.4	-37.8	17.7	0.00e+00	0	57	0	1641021440	43	4468
2026-01-02 23:39:41.01	188.75	29.18	-36.5	-38.0	17.5	0.00e+00	0	57	0	1644167168	43	4554
2026-01-02 23:39:42.01	188.79	29.00	-36.6	-38.1	17.4	0.00e+00	0	57	0	1647312896	43	4606
2026-01-02 23:39:43.02	188.84	28.82	-36.7	-38.2	17.2	0.00e+00	0	57	0	1650458624	43	4675
2026-01-02 23:39:44.03	188.89	28.63	-37.0	-38.6	17.1	0.00e+00	0	57	0	1653604352	44	4614
2026-01-02 23:39:45.04	188.94	28.45	-37.1	-38.7	17.0	0.00e+00	0	57	0	1656750080	44	4661
2026-01-02 23:39:46.06	188.98	28.27	-37.1	-38.7	16.9	0.00e+00	0	57	0	1659895808	44	4655
2026-01-02 23:39:47.07	189.03	28.09	-37.0	-38.6	17.0	0.00e+00	0	57	0	1663041536	44	4628
2026-01-02 23:39:48.08	189.07	27.91	-37.1	-38.7	16.9	0.00e+00	0	57	0	1666187264	44	4681
2026-01-02 23:39:49.09	189.12	27.73	-37.0	-38.5	17.0	0.00e+00	0	57	0	1669332992	44	4578
2026-01-02 23:39:50.10	189.16	27.55	-37.0	-38.5	17.0	0.00e+00	0	57	0	1672478720	44	4579
2026-01-02 23:39:51.11	189.21	27.38	-36.9	-38.4	17.1	0.00e+00	0	57	0	1675624448	44	4533
2026-01-02 23:39:52.12	189.25	27.21	-36.8	-38.3	17.2	0.00e+00	0	57	0	1678770176	44	4485
2026-01-02 23:39:53.13	189.29	27.03	-36.7	-38.1	17.4	0.00e+00	0	57	0	1681915904	44	4379
2026-01-02 23:39:54.14	189.34	26.86	-36.6	-38.0	17.5	0.00e+00	0	57	0	1685061632	44	4325
2026-01-02 23:39:55.15	189.38	26.69	-36.4	-37.8	17.6	0.00e+00	0	58	0	1688207360	44	4224
2026-01-02 23:39:56.16	189.42	26.52	-36.2	-37.6	17.9	0.00e+00	0	58	0	1691353088	44	4128
2026-01-02 23:39:57.16	189.46	26.35	-36.1	-37.5	18.0	0.00e+00	0	57	0	1694498816	44	4068
2026-01-02 23:39:58.17	189.50	26.18	-35.8	-37.1	18.1	0.00e+00	0	57	0	1697644544	43	4130
2026-01-02 23:39:59.18	189.54	26.02	-35.6	-36.9	18.3	0.00e+00	0	57	0	1700790272	43	4037
2026-01-02 23:40:00.19	189.58	25.85	-35.5	-36.8	18.4	0.00e+00	0	57	0	1703936000	43	4000
2026-01-02 23:40:01.20	189.62	25.69	-35.4	-36.7	18.5	0.00e+00	0	58	0	1707081728	42	4163
2026-01-02 23:40:02.21	189.66	25.52	-35.3	-36.6	18.7	0.00e+00	0	57	0	1710227456	42	4114
2026-01-02 23:40:03.22	189.70	25.36	-35.3	-36.5	18.7	0.00e+00	0	57	0	1713373184	42	4093
2026-01-02 23:40:04.23	189.74	25.20	-35.2	-36.4	18.8	0.00e+00	0	57	0	1716518912	42	4048
2026-01-02 23:40:05.24	189.78	25.04	-35.1	-36.4	18.8	0.00e+00	0	57	0	1719664640	42	4021
2026-01-02 23:40:06.25	189.82	24.88	-35.2	-36.4	18.8	0.00e+00	0	57	0	1722810368	42	4025
2026-01-02 23:40:07.26	189.85	24.72	-35.2	-36.4	18.8	0.00e+00	0	57	0	1725956096	42	4026
2026-01-02 23:40:08.27	189.89	24.56	-35.2	-36.5	18.7	0.00e+00	0	57	0	1729101824	42	4058
2026-01-02 23:40:09.28	189.93	24.40	-35.4	-36.6	18.6	0.00e+00	0	57	0	1732247552	42	4142
2026-01-02 23:40:10.29	189.96	24.25	-35.5	-36.7	18.5	0.00e+00	0	58	0	1735393280	42	4189
2026-01-02 23:40:11.30	190.00	24.09	-35.5	-36.8	18.4	0.00e+00	0	57	0	1738539008	42	4220
2026-01-02 23:40:12.31	190.04	23.94	-35.6	-36.9	18.4	0.00e+00	0	57	0	1741684736	42	4269
2026-01-02 23:40:13.32	190.07	23.78	-35.7	-37.0	18.3	0.00e+00	0	57	0	1744830464	42	4314
2026-01-02 23:40:14.33	190.11	23.63	-35.6	-36.9	18.4	0.00e+00	0	57	0	1747976192	42	4284
2026-01-02 23:40:15.34	190.14	23.48	-35.6	-36.9	18.4	0.00e+00	0	57	0	1751121920	42	4281
2026-01-02 23:40:16.35	190.18	23.33	-35.6	-36.9	18.4	0.00e+00	0	57	0	1754267648	42	4257
2026-01-02 23:40:17.36	190.21	23.18	-35.6	-36.8	18.4	0.00e+00	0	57	0	1757413376	42	4237
2026-01-02 23:40:18.37	190.24	23.03	-35.5	-36.8	18.5	0.00e+00	0	57	0	1760559104	42	4207
2026-01-02 23:40:19.38	190.28	22.88	-35.4	-36.6	18.6	0.00e+00	0	57	0	1763704832	42	4139
2026-01-02 23:40:20.39	190.31	22.74	-35.3	-36.5	18.8	0.00e+00	0	57	0	1766850560	42	4096
2026-01-02 23:40:21.40	190.35	22.59	-35.3	-36.5	18.8	0.00e+00	0	57	0	1769996288	42	4075
2026-01-02 23:40:22.41	190.38	22.44	-35.2	-36.5	18.9	0.00e+00	0	57	0	1773142016	42	4054
2026-01-02 23:40:23.42	190.41	22.30	-35.2	-36.4	18.9	0.00e+00	0	57	0	1776287744	42	4051
2026-01-02 23:40:24.43	190.44	22.15	-35.2	-36.4	18.8	0.00e+00	0	57	0	1779433472	42	4047
2026-01-02 23:40:25.44	190.48	22.01	-35.2	-36.5	18.8	0.00e+00	0	57	0	1782579200	42	4054
2026-01-02 23:40:26.45	190.51	21.87	-35.2	-36.5	18.8	0.00e+00	0	57	0	1785724928	42	4069
2026-01-02 23:40:27.46	190.54	21.73	-35.3	-36.5	18.8	0.00e+00	0	57	0	1788870656	42	4096
2026-01-02 23:40:28.47	190.57	21.59	-35.4	-36.6	18.7	0.00e+00	0	57	0	1792016384	42	4130
2026-01-02 23:40:29.48	190.60	21.45	-35.4	-36.7	18.7	0.00e+00	0	57	0	1795162112	42	4147
2026-01-02 23:40:30.49	190.63	21.31	-35.5	-36.8	18.5	0.00e+00	0	57	0	1798307840	42	4213
2026-01-02 23:40:31.50	190.66	21.17	-35.6	-36.9	18.5	0.00e+00	0	57	0	1801453568	42	4249
2026-01-02 23:40:32.51	190.69	21.03	-35.6	-36.9	18.4	0.00e+00	0	57	0	1804599296	42	4283
2026-01-02 23:40:33.52	190.72	20.89	-35.6	-37.0	18.4	0.00e+00	0	57	0	1807745024	42	4300
2026-01-02 23:40:34.53	190.75	20.76	-35.7	-37.0	18.3	0.00e+00	0	57	0	1810890752	42	4318
2026-01-02 23:40:35.54	190.78	20.62	-35.8	-37.1	18.2	0.00e+00	0	57	0	1814036480	42	4381
2026-01-02 23:40:36.55	190.81	20.49	-35.8	-37.2	18.2	0.00e+00	0	57	0	1817182208	42	4400
2026-01-02 23:40:37.56	190.84	20.35	-35.9	-37.3	18.1	0.00e+00	0	57	0	1820327936	42	4455
2026-01-02 23:40:38.57	190.87	20.22	-35.9	-37.3	18.0	0.00e+00	0	57	0	1823473664	42	4457
2026-01-02 23:40:39.58	190.90	20.09	-36.0	-37.3	18.0	0.00e+00	0	57	0	1826619392	42	4491
2026-01-02 23:40:40.59	190.93	19.95	-36.0	-37.4	17.9	0.00e+00	0	58	0	1830813696	42	4509
2026-01-02 23:40:41.60	190.96	19.82	-36.0	-37.3	18.0	0.00e+00	0	57	0	1833959424	42	4485
2026-01-02 23:40:42.61	190.98	19.69	-36.0	-37.3	18.0	0.00e+00	0	57	0	1836056576	42	4481
2026-01-02 23:40:43.62	191.01	19.56	-36.0	-37.4	17.9	0.00e+00	0	57	0	1839202304	42	4500
2026-01-02 23:40:44.63	191.04	19.43	-36.0	-37.3	18.0	0.00e+00	0	57	0	1842348032	42	4481
2026-01-02 23:40:45.64	191.07	19.30	-36.0	-37.4	18.0	0.00e+00	0	57	0	1846542336	42	4497
2026-01-02 23:40:46.65	191.09	19.18	-35.9	-37.3	18.0	0.00e+00	0	58	0	1849688064	42	4473
2026-01-02 23:40:47.66	191.12	19.05	-35.9	-37.3	18.0	0.00e+00	0	57	0	1852833792	42	4455
2026-01-02 23:40:48.67	191.15	18.92	-35.9	-37.2	18.0	0.00e+00	0	57	0	1855979520	42	4439
2026-01-02 23:40:49.68	191.18	18.80	-35.9	-37.2	18.1	0.00e+00	0	57	0	1858076672	42	4424
2026-01-02 23:40:50.69	191.20	18.67	-35.8	-37.2	18.1	0.00e+00	0	57	0	1862270976	42	4407
2026-01-02 23:40:51.71	191.23	18.54	-35.9	-37.2	18.1	0.00e+00	0	57	0	1865416704	42	4424
2026-01-02 23:40:52.72	191.25	18.42	-35.8	-37.1	18.1	0.00e+00	0	57	0	1868562432	42	4389
2026-01-02 23:40:53.73	191.28	18.30	-35.8	-37.2	18.1	0.00e+00	0	57	0	1871708160	42	4406
2026-01-02 23:40:54.74	191.31	18.17	-35.8	-37.2	18.1	0.00e+00	0	58	0	1874853888	42	4409
2026-01-02 23:40:55.75	191.33	18.05	-35.9	-37.2	18.0	0.00e+00	0	57	0	1877999616	42	4416
2026-01-02 23:40:56.76	191.36	17.93	-35.8	-37.2	18.1	0.00e+00	0	57	0	1881145344	42	4412
2026-01-02 23:40:57.77	191.38	17.81	-35.9	-37.3	18.0	0.00e+00	0	57	0	1884291072	42	4471
2026-01-02 23:40:58.78	191.41	17.69	-35.9	-37.3	18.0	0.00e+00	0	58	0	1887436800	42	4453
2026-01-02 23:40:59.78	191.43	17.57	-36.0	-37.3	18.0	0.00e+00	0	57	0	1890582528	42	4486
2026-01-02 23:41:00.79	191.46	17.45	-36.0	-37.4	17.9	0.00e+00	0	57	0	1893728256	42	4500
2026-01-02 23:41:01.80	191.48	17.33	-36.0	-37.4	17.9	0.00e+00	0	57	0	1896873984	42	4517
2026-01-02 23:41:02.81	191.50	17.21	-36.0	-37.4	17.9	0.00e+00	0	57	0	1900019712	42	4511
2026-01-02 23:41:03.82	191.53	17.09	-36.0	-37.4	17.9	0.00e+00	0	58	0	1903165440	42	4523
2026-01-02 23:41:04.83	191.55	16.98	-36.0	-37.4	17.8	0.00e+00	0	57	0	1906311168	42	4530
2026-01-02 23:41:05.85	191.58	16.86	-36.1	-37.5	17.7	0.00e+00	0	57	0	1909456896	42	4592
2026-01-02 23:41:06.86	191.60	16.74	-36.2	-37.6	17.7	0.00e+00	0	57	0	1912602624	42	4613
2026-01-02 23:41:07.87	191.62	16.63	-36.2	-37.6	17.7	0.00e+00	0	57	0	1915748352	42	4615
2026-01-02 23:41:08.88	191.65	16.51	-36.2	-37.7	17.6	0.00e+00	0	57	0	1918894080	43	4395
2026-01-02 23:41:09.89	191.67	16.40	-36.2	-37.6	17.6	0.00e+00	0	57	0	1922039808	43	4391
2026-01-02 23:41:10.90	191.69	16.29	-36.3	-37.7	17.6	0.00e+00	0	57	0	1925185536	43	4413
2026-01-02 23:41:11.91	191.72	16.17	-36.3	-37.7	17.5	0.00e+00	0	57	0	1928331264	43	4434
2026-01-02 23:41:12.92	191.74	16.06	-36.3	-37.7	17.5	0.00e+00	0	57	0	1931476992	43	4438
2026-01-02 23:41:13.93	191.76	15.95	-36.4	-37.8	17.4	0.00e+00	0	57	0	1934622720	43	4466
2026-01-02 23:41:14.94	191.78	15.83	-36.3	-37.8	17.4	0.00e+00	0	58	0	1937768448	43	4466
