passes_logs/2026/01/02/R2.0S_Moscow/R2.0S_Moscow__20260102_021552_AQUA_rec.log

#Pass ID: 20260102_021552_AQUA
#Satellite: AQUA
#Configuration: AQUA
#almurnet v.1.7.20251203
#Start time: 2026-01-02 02:15:53

#Version: 2.2.20231116
#Station: R2.0S_Moscow
#Location: 37.707566 lon 55.798166 lat
#TLE: 1 27424U 02022A   25365.92641127  .00002078  00000+0  42628-3 0  9999
#TLE: 2 27424  98.4058 327.1196 0001962  94.7781 340.6230 14.61783896258835

#Time	Az	El	Level	Level2	SNR	BER	BlckErr	Temp	State	Recorded	gain1	gain2
2026-01-02 02:15:53.84	10.18	2.07	-40.2	-59.1	3.8	7.46e-01	0	48	0	0	52	31036
2026-01-02 02:15:54.85	10.13	2.13	-40.2	-59.2	3.8	7.44e-01	0	49	104	0	51	33038
2026-01-02 02:15:55.86	10.09	2.20	-40.2	-59.2	3.8	7.46e-01	0	49	104	0	51	33061
2026-01-02 02:15:56.87	10.04	2.26	-40.2	-59.2	3.8	7.47e-01	0	49	104	0	51	33027
2026-01-02 02:15:57.88	10.00	2.32	-40.2	-59.2	3.8	7.43e-01	0	49	104	0	51	33012
2026-01-02 02:15:58.89	9.95	2.39	-40.2	-59.2	3.8	7.47e-01	0	49	104	0	51	33004
2026-01-02 02:15:59.90	9.90	2.45	-40.2	-59.2	3.8	7.44e-01	0	49	104	0	51	32980
2026-01-02 02:16:00.91	9.85	2.52	-40.2	-59.2	3.8	7.43e-01	0	49	104	0	51	33030
2026-01-02 02:16:01.92	9.81	2.58	-40.2	-59.2	3.8	7.42e-01	0	49	104	0	51	32999
2026-01-02 02:16:02.93	9.76	2.65	-40.2	-59.2	3.8	7.44e-01	0	49	104	0	51	33015
2026-01-02 02:16:03.94	9.71	2.71	-40.2	-59.2	3.8	7.46e-01	0	49	104	0	51	32972
2026-01-02 02:16:04.96	9.66	2.78	-40.2	-59.2	3.8	7.48e-01	0	49	104	0	51	32972
2026-01-02 02:16:05.97	9.61	2.85	-40.2	-59.2	3.8	7.44e-01	0	49	104	0	51	32970
2026-01-02 02:16:06.98	9.56	2.91	-40.2	-59.2	3.8	7.43e-01	0	50	104	0	51	32991
2026-01-02 02:16:07.99	9.51	2.98	-40.2	-59.1	3.8	7.45e-01	0	50	104	0	51	32924
2026-01-02 02:16:09.00	9.46	3.04	-40.2	-59.2	3.8	7.44e-01	0	50	104	0	51	33002
2026-01-02 02:16:10.01	9.41	3.11	-40.2	-59.2	3.8	7.48e-01	0	50	104	0	51	32964
2026-01-02 02:16:11.02	9.36	3.18	-40.2	-59.2	3.8	7.46e-01	0	50	104	0	51	32969
2026-01-02 02:16:12.03	9.31	3.24	-40.2	-59.2	3.8	7.45e-01	0	50	104	0	51	32994
2026-01-02 02:16:13.05	9.26	3.31	-40.2	-59.1	3.8	7.45e-01	0	50	104	0	51	32908
2026-01-02 02:16:14.06	9.21	3.38	-40.2	-59.2	3.8	7.42e-01	0	50	104	0	51	32969
2026-01-02 02:16:15.07	9.16	3.44	-40.2	-59.2	3.8	7.44e-01	0	50	104	0	51	32948
2026-01-02 02:16:16.08	9.11	3.51	-40.2	-59.2	3.8	7.48e-01	0	50	104	0	51	32976
2026-01-02 02:16:17.09	9.06	3.58	-40.2	-59.2	3.8	7.44e-01	0	50	104	0	51	32947
2026-01-02 02:16:18.10	9.01	3.64	-40.2	-59.2	3.8	7.47e-01	0	50	104	0	51	32944
2026-01-02 02:16:19.11	8.95	3.71	-40.2	-59.1	3.8	7.47e-01	0	50	104	0	51	32883
2026-01-02 02:16:20.12	8.90	3.78	-40.2	-59.2	3.8	7.48e-01	0	50	104	0	51	33019
2026-01-02 02:16:21.13	8.85	3.85	-40.2	-59.2	3.8	7.45e-01	0	50	104	0	51	33004
2026-01-02 02:16:22.14	8.80	3.92	-40.2	-59.2	3.8	7.48e-01	0	50	104	0	51	32982
2026-01-02 02:16:23.16	8.74	3.98	-40.2	-59.2	3.8	7.46e-01	0	51	104	0	51	32970
2026-01-02 02:16:24.17	8.69	4.05	-40.2	-59.2	3.8	7.45e-01	0	51	104	0	51	32962
2026-01-02 02:16:25.18	8.63	4.12	-40.2	-59.1	3.8	7.46e-01	0	51	104	0	51	32902
2026-01-02 02:16:26.19	8.58	4.19	-40.2	-59.2	3.8	7.46e-01	0	51	104	0	51	33015
2026-01-02 02:16:27.20	8.52	4.26	-40.2	-59.2	3.8	7.45e-01	0	51	104	0	51	32933
2026-01-02 02:16:28.21	8.47	4.33	-40.2	-59.1	3.8	7.48e-01	0	51	104	0	51	32924
2026-01-02 02:16:29.22	8.41	4.40	-40.2	-59.2	3.8	7.47e-01	0	51	104	0	51	32935
2026-01-02 02:16:30.23	8.36	4.47	-40.2	-59.2	3.8	7.47e-01	0	51	104	0	51	32970
2026-01-02 02:16:31.24	8.30	4.54	-40.2	-59.1	3.8	7.45e-01	0	51	104	0	51	32928
2026-01-02 02:16:32.25	8.25	4.61	-40.2	-59.1	3.8	7.43e-01	0	51	104	0	51	32908
2026-01-02 02:16:33.27	8.19	4.68	-40.2	-59.2	3.8	7.45e-01	0	51	104	0	51	32989
2026-01-02 02:16:34.28	8.13	4.75	-40.2	-59.2	3.8	7.47e-01	0	51	104	0	51	32973
2026-01-02 02:16:35.29	8.08	4.82	-40.2	-59.1	3.8	7.43e-01	0	51	104	0	51	32928
2026-01-02 02:16:36.30	8.02	4.89	-40.2	-59.2	3.8	7.48e-01	0	51	104	0	51	32955
2026-01-02 02:16:37.31	7.96	4.96	-40.2	-59.2	3.8	7.45e-01	0	51	104	0	51	33028
2026-01-02 02:16:38.32	7.90	5.03	-40.2	-59.2	3.8	7.44e-01	0	51	104	0	51	32993
2026-01-02 02:16:39.33	7.84	5.10	-40.2	-59.2	3.8	7.44e-01	0	51	104	0	51	32953
2026-01-02 02:16:40.34	7.79	5.17	-40.2	-59.2	3.8	7.45e-01	0	51	104	0	51	33003
2026-01-02 02:16:41.36	7.73	5.24	-40.2	-59.2	3.8	7.43e-01	0	51	104	0	51	32956
2026-01-02 02:16:42.37	7.67	5.32	-40.2	-59.2	3.8	7.44e-01	0	51	104	0	51	32954
2026-01-02 02:16:43.38	7.61	5.39	-40.2	-59.2	3.8	7.46e-01	0	51	104	0	51	32966
2026-01-02 02:16:44.39	7.55	5.46	-40.2	-59.2	3.8	7.48e-01	0	52	104	0	51	32952
2026-01-02 02:16:45.40	7.49	5.53	-40.2	-59.1	3.8	7.48e-01	0	52	104	0	51	32867
2026-01-02 02:16:46.41	7.42	5.60	-40.2	-59.1	3.8	7.45e-01	0	52	104	0	51	32924
2026-01-02 02:16:47.42	7.36	5.68	-40.2	-59.2	3.8	7.44e-01	0	52	104	0	51	32948
2026-01-02 02:16:48.43	7.30	5.75	-40.2	-59.1	3.8	7.45e-01	0	52	104	0	51	32867
2026-01-02 02:16:49.44	7.24	5.82	-40.2	-59.2	3.8	7.48e-01	0	52	104	0	51	32942
2026-01-02 02:16:50.45	7.18	5.90	-40.2	-59.2	3.8	7.45e-01	0	52	104	0	51	32937
2026-01-02 02:16:51.46	7.12	5.97	-40.2	-59.2	3.8	7.47e-01	0	52	104	0	51	32977
2026-01-02 02:16:52.47	7.05	6.04	-40.2	-59.1	3.8	7.46e-01	0	52	104	0	51	32920
2026-01-02 02:16:53.48	6.99	6.12	-40.2	-59.1	3.8	7.45e-01	0	52	104	0	51	32921
2026-01-02 02:16:54.50	6.92	6.19	-40.2	-59.2	3.8	7.42e-01	0	52	104	0	51	32958
2026-01-02 02:16:55.51	6.86	6.27	-40.2	-59.2	3.8	7.46e-01	0	52	104	0	51	32959
2026-01-02 02:16:56.52	6.80	6.34	-40.2	-59.2	3.8	7.46e-01	0	52	104	0	51	32945
2026-01-02 02:16:57.53	6.73	6.41	-40.2	-59.1	3.8	7.45e-01	0	52	104	0	51	32923
2026-01-02 02:16:58.54	6.67	6.49	-40.2	-59.1	3.8	7.49e-01	0	52	104	0	51	32856
2026-01-02 02:16:59.55	6.60	6.56	-40.2	-59.2	3.8	7.46e-01	0	52	104	0	51	32931
2026-01-02 02:17:00.56	6.53	6.64	-40.2	-59.1	3.8	7.45e-01	0	52	104	0	51	32889
2026-01-02 02:17:01.57	6.47	6.71	-40.2	-59.1	3.8	7.45e-01	0	53	104	0	51	32921
2026-01-02 02:17:02.58	6.40	6.79	-40.2	-59.2	3.8	7.43e-01	0	52	104	0	51	32933
2026-01-02 02:17:03.60	6.33	6.87	-40.2	-59.1	3.8	7.45e-01	0	52	104	0	51	32862
2026-01-02 02:17:04.61	6.27	6.94	-40.2	-59.1	3.8	7.46e-01	0	52	104	0	51	32779
2026-01-02 02:17:05.62	6.20	7.02	-40.2	-59.2	3.8	7.44e-01	0	52	104	0	51	32940
2026-01-02 02:17:06.63	6.13	7.10	-40.2	-59.1	3.8	7.41e-01	0	53	104	0	51	32893
2026-01-02 02:17:07.64	6.06	7.17	-40.2	-59.2	3.8	7.45e-01	0	53	104	0	51	32952
2026-01-02 02:17:08.65	5.99	7.25	-40.2	-59.2	3.8	7.44e-01	0	53	104	0	51	32944
2026-01-02 02:17:09.66	5.92	7.33	-40.2	-59.1	3.8	7.48e-01	0	53	104	0	51	32907
2026-01-02 02:17:10.67	5.85	7.40	-40.2	-59.1	3.8	7.44e-01	0	53	104	0	51	32903
2026-01-02 02:17:11.68	5.78	7.48	-40.2	-59.1	3.8	7.42e-01	0	53	104	0	51	32886
2026-01-02 02:17:12.69	5.71	7.56	-40.2	-59.1	3.8	7.45e-01	0	53	104	0	51	32915
2026-01-02 02:17:13.71	5.64	7.64	-40.2	-59.2	3.8	7.45e-01	0	53	104	0	51	32944
2026-01-02 02:17:14.71	5.57	7.72	-40.2	-59.1	3.8	7.47e-01	0	53	104	0	51	32885
2026-01-02 02:17:15.73	5.49	7.79	-40.2	-59.1	3.8	7.44e-01	0	53	104	0	51	32919
2026-01-02 02:17:16.74	5.42	7.87	-40.2	-59.2	3.8	7.46e-01	0	53	104	0	51	32973
2026-01-02 02:17:17.75	5.35	7.95	-40.2	-59.2	3.8	7.47e-01	0	53	104	0	51	32929
2026-01-02 02:17:18.76	5.27	8.03	-40.2	-59.2	3.8	7.47e-01	0	53	104	0	51	32975
2026-01-02 02:17:19.77	5.20	8.11	-40.3	-59.3	3.8	7.45e-01	0	53	104	0	51	33351
2026-01-02 02:17:20.78	5.12	8.19	-40.3	-59.3	3.8	7.48e-01	0	53	104	0	51	33385
2026-01-02 02:17:21.79	5.05	8.27	-40.3	-59.2	3.8	7.44e-01	0	53	104	0	51	33223
2026-01-02 02:17:22.80	4.97	8.35	-40.3	-59.2	3.8	7.45e-01	0	53	104	0	51	33168
2026-01-02 02:17:23.81	4.90	8.43	-40.4	-59.3	3.8	7.45e-01	0	53	104	0	51	33528
2026-01-02 02:17:24.82	4.82	8.51	-40.3	-59.2	3.8	7.44e-01	0	53	104	0	51	33182
2026-01-02 02:17:25.83	4.74	8.59	-40.4	-59.3	3.8	7.47e-01	0	53	104	0	51	33523
2026-01-02 02:17:26.83	4.67	8.67	-40.4	-59.4	3.8	7.46e-01	0	53	104	0	51	33824
2026-01-02 02:17:27.84	4.59	8.75	-40.3	-59.3	3.8	7.44e-01	0	53	104	0	51	33406
2026-01-02 02:17:28.85	4.51	8.83	-40.5	-59.4	3.8	7.48e-01	0	53	104	0	51	33891
2026-01-02 02:17:29.86	4.43	8.92	-40.3	-59.3	3.8	7.43e-01	0	53	104	0	51	33390
2026-01-02 02:17:30.87	4.35	9.00	-40.3	-59.3	3.8	7.49e-01	0	54	104	0	51	33403
2026-01-02 02:17:31.88	4.27	9.08	-40.4	-59.3	3.8	7.44e-01	0	53	104	0	51	33682
2026-01-02 02:17:32.89	4.19	9.16	-40.4	-59.3	3.8	7.42e-01	0	54	104	0	51	33663
2026-01-02 02:17:33.91	4.11	9.25	-40.3	-59.3	3.8	7.49e-01	0	54	104	0	51	33576
2026-01-02 02:17:34.91	4.03	9.33	-40.5	-59.4	3.8	7.46e-01	0	54	104	0	51	33834
2026-01-02 02:17:35.93	3.95	9.41	-40.3	-59.3	3.8	7.45e-01	0	54	104	0	51	33531
2026-01-02 02:17:36.94	3.86	9.50	-40.5	-59.4	3.8	7.40e-01	0	54	104	0	51	33955
2026-01-02 02:17:37.94	3.78	9.58	-40.4	-59.3	3.8	7.48e-01	0	54	104	0	51	33529
2026-01-02 02:17:38.95	3.70	9.66	-40.5	-59.4	3.8	7.47e-01	0	54	104	0	51	34010
2026-01-02 02:17:39.97	3.61	9.75	-40.3	-59.2	3.8	7.44e-01	0	54	104	0	51	33095
2026-01-02 02:17:40.98	3.53	9.83	-40.5	-59.5	3.8	7.43e-01	0	54	104	0	51	34154
2026-01-02 02:17:41.99	3.44	9.92	-40.3	-59.2	3.8	7.45e-01	0	54	104	0	51	33098
2026-01-02 02:17:42.99	3.36	10.00	-40.5	-59.4	3.8	7.45e-01	0	54	104	0	51	33749
2026-01-02 02:17:44.00	3.27	10.09	-40.4	-59.4	3.8	7.45e-01	0	54	104	0	51	33734
2026-01-02 02:17:45.01	3.18	10.17	-40.5	-59.4	3.8	7.45e-01	0	54	104	0	51	33707
2026-01-02 02:17:46.02	3.10	10.26	-40.4	-59.4	3.8	7.45e-01	0	54	104	0	51	33753
2026-01-02 02:17:47.03	3.01	10.35	-40.5	-59.5	3.8	7.45e-01	0	54	104	0	51	34185
2026-01-02 02:17:48.04	2.92	10.43	-40.4	-59.3	3.8	7.45e-01	0	54	104	0	51	33353
2026-01-02 02:17:49.05	2.83	10.52	-40.5	-59.5	3.8	7.42e-01	0	54	104	0	51	34132
2026-01-02 02:17:50.07	2.74	10.61	-40.4	-59.3	3.8	7.45e-01	0	54	104	0	51	33438
2026-01-02 02:17:51.08	2.65	10.69	-40.4	-59.4	3.8	7.46e-01	0	54	104	0	51	33740
2026-01-02 02:17:52.09	2.56	10.78	-40.4	-59.3	3.8	7.47e-01	0	54	104	0	51	33635
2026-01-02 02:17:53.10	2.47	10.87	-40.4	-59.4	3.8	7.44e-01	0	54	104	0	51	33808
2026-01-02 02:17:54.11	2.37	10.96	-40.4	-59.3	3.8	7.47e-01	0	54	104	0	51	33567
2026-01-02 02:17:55.12	2.28	11.05	-40.4	-59.6	3.8	7.46e-01	0	54	104	0	51	34596
2026-01-02 02:17:56.13	2.19	11.14	-40.4	-59.3	3.8	7.44e-01	0	54	104	0	51	33417
2026-01-02 02:17:57.14	2.09	11.22	-40.4	-59.6	3.8	7.47e-01	0	54	104	0	51	34680
2026-01-02 02:17:58.15	2.00	11.31	-40.3	-59.3	3.8	7.44e-01	0	54	104	0	51	33334
2026-01-02 02:17:59.16	1.90	11.40	-40.3	-59.5	3.8	7.44e-01	0	54	104	0	51	34227
2026-01-02 02:18:00.17	1.81	11.49	-40.4	-59.3	3.8	7.45e-01	0	54	104	0	51	33495
2026-01-02 02:18:01.18	1.71	11.58	-40.1	-59.5	3.8	7.45e-01	0	54	104	0	51	34473
2026-01-02 02:18:02.19	1.61	11.67	-40.4	-59.3	3.8	7.47e-01	0	54	104	0	51	33548
2026-01-02 02:18:03.20	1.51	11.76	-40.6	-59.6	3.8	7.46e-01	0	54	104	0	52	32563
2026-01-02 02:18:04.21	1.41	11.86	-40.2	-59.3	3.8	7.45e-01	0	54	104	0	52	31495
2026-01-02 02:18:05.22	1.31	11.95	-40.5	-59.6	3.8	7.46e-01	0	54	104	0	52	32746
2026-01-02 02:18:06.23	1.21	12.04	-40.2	-59.3	3.8	7.45e-01	0	54	104	0	52	31690
2026-01-02 02:18:07.24	1.11	12.13	-39.9	-59.6	3.8	7.46e-01	0	54	104	0	51	34534
2026-01-02 02:18:08.25	1.01	12.22	-40.3	-59.5	3.8	7.46e-01	0	54	104	0	51	34122
2026-01-02 02:18:09.26	0.91	12.31	-40.0	-59.6	3.8	7.44e-01	0	55	104	0	51	34568
2026-01-02 02:18:10.27	0.80	12.41	-40.2	-59.5	3.8	7.44e-01	0	55	104	0	51	34224
2026-01-02 02:18:11.28	0.70	12.50	-40.5	-59.1	3.8	7.42e-01	0	55	104	0	52	31018
2026-01-02 02:18:12.29	0.60	12.59	-40.1	-59.5	3.8	7.43e-01	0	54	104	0	51	34095
2026-01-02 02:18:13.30	0.49	12.69	-40.4	-58.2	3.8	7.45e-01	0	55	104	0	52	27718
2026-01-02 02:18:14.31	0.38	12.78	-40.0	-59.4	3.8	7.47e-01	0	55	104	0	51	33821
2026-01-02 02:18:15.32	0.28	12.88	-41.4	-48.7	11.5	6.11e-01	0	55	104	0	54	8359
2026-01-02 02:18:16.33	0.17	12.97	-40.4	-55.7	4.3	7.27e-01	0	55	104	524288	52	20913
2026-01-02 02:18:17.34	0.06	13.07	-41.2	-47.2	13.3	6.02e-01	0	55	0	2097152	52	7840
2026-01-02 02:18:18.35	359.95	13.16	-40.9	-46.1	14.9	6.02e-01	0	55	0	3670016	52	6886
2026-01-02 02:18:19.37	359.84	13.26	-40.7	-44.9	16.4	6.03e-01	0	55	0	5767168	52	6052
2026-01-02 02:18:20.37	359.73	13.35	-40.6	-44.3	17.4	6.02e-01	0	55	0	7340032	52	5641
2026-01-02 02:18:21.38	359.62	13.45	-40.4	-43.8	18.2	6.02e-01	0	55	0	9437184	52	5333
2026-01-02 02:18:22.39	359.51	13.55	-39.8	-42.8	19.4	6.01e-01	0	55	0	11534336	51	4991
2026-01-02 02:18:23.40	359.39	13.64	-39.1	-41.7	20.4	6.00e-01	0	55	0	13107200	50	4697
2026-01-02 02:18:24.41	359.28	13.74	-38.5	-40.8	21.4	6.01e-01	0	55	0	15204352	49	4484
2026-01-02 02:18:25.42	359.16	13.84	-38.1	-40.2	22.1	6.00e-01	0	55	0	16777216	48	4437
2026-01-02 02:18:26.43	359.05	13.94	-37.5	-39.6	22.4	6.00e-01	0	55	0	18874368	46	4610
2026-01-02 02:18:27.44	358.93	14.03	-37.5	-39.5	22.5	6.04e-01	0	55	0	20971520	46	4582
2026-01-02 02:18:28.45	358.82	14.13	-37.5	-39.5	22.5	6.02e-01	0	55	0	22544384	46	4598
2026-01-02 02:18:29.46	358.70	14.23	-37.7	-39.8	22.4	6.00e-01	0	55	0	24641536	46	4726
2026-01-02 02:18:30.47	358.58	14.33	-37.7	-39.8	22.4	6.00e-01	0	55	0	26738688	46	4721
2026-01-02 02:18:31.48	358.46	14.43	-37.5	-39.5	22.7	6.04e-01	0	55	0	28311552	46	4556
2026-01-02 02:18:32.49	358.34	14.53	-37.4	-39.4	22.8	6.00e-01	0	55	0	30408704	46	4534
2026-01-02 02:18:33.50	358.21	14.63	-37.3	-39.2	23.0	6.02e-01	0	55	0	31981568	46	4437
2026-01-02 02:18:34.50	358.09	14.73	-37.3	-39.3	23.0	6.04e-01	0	55	0	34078720	46	4449
2026-01-02 02:18:35.51	357.97	14.83	-37.3	-39.3	23.0	6.01e-01	0	55	0	36175872	46	4449
2026-01-02 02:18:36.52	357.85	14.93	-37.4	-39.4	22.9	6.00e-01	0	55	0	37748736	46	4498
2026-01-02 02:18:37.53	357.72	15.03	-37.7	-39.7	22.7	6.03e-01	0	55	0	39845888	46	4662
2026-01-02 02:18:38.54	357.59	15.13	-37.7	-39.7	22.5	6.02e-01	0	55	0	41418752	46	4703
2026-01-02 02:18:39.55	357.47	15.24	-37.5	-39.5	22.8	6.00e-01	0	55	0	43515904	46	4549
2026-01-02 02:18:40.56	357.34	15.34	-37.3	-39.2	22.9	6.01e-01	0	55	0	45613056	46	4433
2026-01-02 02:18:41.57	357.21	15.44	-37.3	-39.2	22.9	6.00e-01	0	55	0	47185920	46	4427
2026-01-02 02:18:42.58	357.08	15.54	-37.2	-39.2	22.7	6.04e-01	0	55	0	49283072	46	4423
2026-01-02 02:18:43.59	356.95	15.65	-37.0	-38.9	22.9	6.01e-01	0	55	0	50855936	45	4520
2026-01-02 02:18:44.60	356.81	15.75	-36.8	-38.8	22.9	6.03e-01	0	55	0	52953088	45	4456
2026-01-02 02:18:45.61	356.68	15.86	-36.9	-39.0	22.5	6.03e-01	0	55	0	55050240	45	4554
2026-01-02 02:18:46.62	356.55	15.96	-37.4	-39.6	21.7	6.01e-01	0	55	0	56623104	45	4901
2026-01-02 02:18:47.62	356.41	16.06	-37.9	-40.6	20.4	6.03e-01	0	55	0	58720256	46	5162
2026-01-02 02:18:48.63	356.28	16.17	-38.5	-41.6	19.0	6.02e-01	0	55	0	60293120	47	5500
2026-01-02 02:18:49.64	356.14	16.28	-39.4	-43.1	17.6	6.01e-01	0	55	0	62390272	49	5831
2026-01-02 02:18:50.65	356.00	16.38	-40.0	-44.8	15.5	6.01e-01	0	55	0	64487424	50	6663
2026-01-02 02:18:51.66	355.86	16.49	-40.3	-46.4	13.6	6.05e-01	0	55	0	66060288	51	7567
2026-01-02 02:18:52.67	355.72	16.59	-40.6	-48.1	11.4	6.09e-01	0	55	0	68157440	51	9235
2026-01-02 02:18:53.68	355.58	16.70	-40.7	-50.1	9.1	6.32e-01	0	55	0	70254592	52	10944
2026-01-02 02:18:54.69	355.44	16.81	-40.8	-52.0	7.0	6.62e-01	92	55	0	71827456	52	13587
2026-01-02 02:18:55.70	355.29	16.92	-40.8	-54.0	5.3	7.02e-01	0	55	0	73400320	52	17265
2026-01-02 02:18:56.71	355.15	17.02	-40.8	-55.7	4.5	7.22e-01	0	55	104	73400320	52	20891
2026-01-02 02:18:57.72	355.00	17.13	-40.7	-57.5	4.0	7.51e-01	0	55	104	73400320	52	25771
2026-01-02 02:18:58.73	354.85	17.24	-40.7	-58.3	3.9	7.46e-01	0	56	104	73400320	52	28230
2026-01-02 02:18:59.74	354.70	17.35	-40.7	-59.2	3.8	7.46e-01	0	55	104	73400320	52	31374
2026-01-02 02:19:00.75	354.55	17.46	-40.9	-59.0	3.8	7.44e-01	0	55	104	73400320	52	30449
2026-01-02 02:19:01.76	354.40	17.57	-40.5	-59.6	3.8	7.47e-01	0	56	104	73400320	52	32821
2026-01-02 02:19:02.77	354.25	17.68	-40.6	-59.8	3.8	7.45e-01	0	55	104	73400320	52	33348
2026-01-02 02:19:03.78	354.10	17.79	-41.0	-59.2	3.8	7.45e-01	0	56	104	73400320	52	31136
2026-01-02 02:19:04.79	353.94	17.90	-41.1	-59.2	3.8	7.45e-01	0	56	104	73400320	52	31306
2026-01-02 02:19:05.80	353.79	18.01	-40.9	-59.5	3.8	7.45e-01	0	56	104	73400320	52	32359
2026-01-02 02:19:06.81	353.63	18.12	-40.9	-59.6	3.8	7.46e-01	0	56	104	73400320	52	32808
2026-01-02 02:19:07.82	353.47	18.23	-40.8	-59.8	3.8	7.48e-01	0	56	104	73400320	52	33342
2026-01-02 02:19:08.83	353.31	18.35	-40.5	-59.9	3.8	7.42e-01	0	55	104	73400320	52	33696
2026-01-02 02:19:09.84	353.15	18.46	-40.3	-59.9	3.8	7.48e-01	0	56	104	73400320	51	36091
2026-01-02 02:19:10.85	352.99	18.57	-41.0	-59.9	3.8	7.44e-01	0	55	104	73400320	52	33862
2026-01-02 02:19:11.86	352.83	18.68	-40.3	-60.4	3.8	7.47e-01	0	56	104	73400320	51	38029
2026-01-02 02:19:12.87	352.66	18.80	-40.0	-60.0	3.8	7.44e-01	0	56	104	73400320	51	36274
2026-01-02 02:19:13.88	352.50	18.91	-40.4	-59.9	3.8	7.43e-01	0	56	104	73400320	51	35784
2026-01-02 02:19:14.89	352.33	19.03	-40.5	-59.8	3.8	7.41e-01	0	56	104	73400320	51	35663
2026-01-02 02:19:15.90	352.16	19.14	-40.7	-59.9	3.8	7.47e-01	0	56	104	73400320	52	33778
2026-01-02 02:19:16.91	351.99	19.26	-40.5	-59.9	3.8	7.44e-01	0	56	104	73400320	52	33802
2026-01-02 02:19:17.92	351.82	19.37	-40.3	-59.8	3.8	7.47e-01	0	56	104	73400320	52	33627
2026-01-02 02:19:18.93	351.64	19.49	-40.6	-59.6	3.8	7.49e-01	0	56	104	73400320	52	32562
2026-01-02 02:19:19.94	351.47	19.60	-40.7	-59.9	3.8	7.42e-01	0	56	104	73400320	52	33883
2026-01-02 02:19:20.95	351.29	19.72	-40.5	-59.2	3.8	7.43e-01	0	56	104	73400320	52	31430
2026-01-02 02:19:21.96	351.12	19.83	-40.6	-59.8	3.8	7.46e-01	0	56	104	73400320	52	33596
2026-01-02 02:19:22.97	350.94	19.95	-41.3	-55.9	4.0	7.34e-01	0	56	104	73400320	53	20093
2026-01-02 02:19:23.98	350.76	20.07	-40.5	-59.1	3.8	7.45e-01	0	56	104	73400320	53	29334
2026-01-02 02:19:24.99	350.58	20.18	-41.3	-52.1	7.3	6.54e-01	90	56	0	73400320	53	13085
2026-01-02 02:19:26.00	350.39	20.30	-41.9	-50.9	9.4	6.26e-01	0	56	0	75497472	54	10777
2026-01-02 02:19:27.01	350.21	20.42	-42.3	-50.8	10.0	6.19e-01	0	56	0	77070336	55	9963
2026-01-02 02:19:28.02	350.02	20.54	-42.4	-50.4	10.7	6.14e-01	0	56	0	79167488	55	9522
2026-01-02 02:19:29.02	349.84	20.66	-42.4	-49.7	11.6	6.12e-01	0	56	0	80740352	55	8851
2026-01-02 02:19:30.03	349.65	20.77	-42.3	-48.4	13.1	6.05e-01	0	56	0	82837504	55	7612
2026-01-02 02:19:31.04	349.46	20.89	-42.0	-47.4	14.4	6.01e-01	0	56	0	84410368	55	6762
2026-01-02 02:19:32.05	349.26	21.01	-41.9	-46.8	15.2	5.99e-01	0	56	0	86507520	55	6281
2026-01-02 02:19:33.06	349.07	21.13	-41.7	-46.1	16.1	5.99e-01	0	56	0	88604672	55	5822
2026-01-02 02:19:34.07	348.88	21.25	-41.5	-45.6	16.7	5.97e-01	0	56	0	90177536	55	5465
2026-01-02 02:19:35.08	348.68	21.37	-41.4	-45.2	17.2	6.01e-01	0	56	0	92274688	54	5546
2026-01-02 02:19:36.09	348.48	21.49	-41.2	-44.8	17.7	6.00e-01	0	56	0	94371840	54	5286
2026-01-02 02:19:37.10	348.28	21.61	-40.4	-43.4	19.1	6.00e-01	0	56	0	95944704	52	5051
2026-01-02 02:19:38.11	348.08	21.74	-39.5	-42.0	20.6	6.02e-01	0	56	0	98041856	51	4574
2026-01-02 02:19:39.12	347.87	21.86	-38.8	-41.1	21.6	6.02e-01	0	56	0	99614720	49	4609
2026-01-02 02:19:40.13	347.67	21.98	-38.5	-40.6	22.0	6.00e-01	0	56	0	101711872	48	4608
2026-01-02 02:19:41.13	347.46	22.10	-38.1	-40.1	22.4	6.02e-01	0	56	0	103809024	48	4377
2026-01-02 02:19:42.14	347.25	22.22	-37.5	-39.5	22.8	6.02e-01	0	56	0	105381888	47	4294
2026-01-02 02:19:43.15	347.04	22.34	-37.4	-39.3	23.1	6.02e-01	0	56	0	107479040	46	4474
2026-01-02 02:19:44.16	346.83	22.47	-37.4	-39.3	23.2	6.00e-01	0	56	0	109051904	46	4460
2026-01-02 02:19:45.17	346.61	22.59	-37.5	-39.4	23.2	5.99e-01	0	56	0	111149056	46	4505
2026-01-02 02:19:46.18	346.40	22.71	-37.6	-39.4	23.2	6.01e-01	0	56	0	113246208	46	4539
2026-01-02 02:19:47.19	346.18	22.84	-37.6	-39.5	23.2	6.00e-01	0	56	0	114819072	46	4572
2026-01-02 02:19:48.20	345.96	22.96	-37.7	-39.5	23.2	6.01e-01	0	56	0	116916224	46	4593
2026-01-02 02:19:49.21	345.74	23.08	-37.4	-39.3	23.5	6.02e-01	0	56	0	119013376	46	4453
2026-01-02 02:19:50.22	345.51	23.21	-37.3	-39.1	23.6	6.00e-01	0	56	0	120586240	46	4374
2026-01-02 02:19:51.23	345.29	23.33	-37.5	-39.3	23.5	6.00e-01	0	56	0	122683392	46	4453
2026-01-02 02:19:52.24	345.06	23.46	-37.5	-39.3	23.5	6.00e-01	0	56	0	124256256	46	4487
2026-01-02 02:19:53.25	344.83	23.58	-37.5	-39.3	23.5	6.02e-01	0	56	0	126353408	46	4448
2026-01-02 02:19:54.26	344.60	23.70	-37.4	-39.2	23.7	6.02e-01	0	56	0	128450560	46	4396
2026-01-02 02:19:55.27	344.37	23.83	-37.4	-39.2	23.6	6.02e-01	0	56	0	130023424	46	4435
2026-01-02 02:19:56.28	344.13	23.95	-37.5	-39.3	23.6	6.03e-01	0	56	0	132120576	46	4450
2026-01-02 02:19:57.29	343.90	24.08	-37.4	-39.2	23.7	6.02e-01	0	56	0	133693440	46	4436
2026-01-02 02:19:58.30	343.66	24.20	-37.4	-39.2	23.7	6.01e-01	0	56	0	135790592	46	4404
2026-01-02 02:19:59.30	343.42	24.33	-37.3	-39.1	23.8	6.00e-01	0	56	0	137887744	46	4351
2026-01-02 02:20:00.31	343.17	24.45	-37.2	-38.9	24.0	6.00e-01	0	56	0	139460608	46	4278
2026-01-02 02:20:01.32	342.93	24.58	-37.2	-39.0	24.0	6.01e-01	0	56	0	141557760	46	4305
2026-01-02 02:20:02.33	342.68	24.70	-37.3	-39.0	23.9	6.01e-01	0	56	0	143130624	46	4315
2026-01-02 02:20:03.34	342.43	24.83	-37.3	-39.1	23.9	6.01e-01	0	56	0	145227776	46	4363
2026-01-02 02:20:04.35	342.18	24.96	-37.4	-39.2	23.7	6.01e-01	0	56	0	147324928	46	4433
2026-01-02 02:20:05.36	341.93	25.08	-37.5	-39.2	23.7	6.04e-01	0	56	0	148897792	46	4433
2026-01-02 02:20:06.37	341.67	25.21	-37.4	-39.2	23.8	5.98e-01	0	56	0	150994944	46	4426
2026-01-02 02:20:07.38	341.41	25.33	-37.5	-39.2	23.8	5.98e-01	0	56	0	152567808	46	4428
2026-01-02 02:20:08.39	341.15	25.46	-37.4	-39.2	23.8	6.00e-01	0	56	0	154664960	46	4414
2026-01-02 02:20:09.40	340.89	25.59	-37.4	-39.1	23.9	6.00e-01	0	56	0	156762112	46	4391
2026-01-02 02:20:10.41	340.62	25.71	-37.3	-39.0	24.1	5.98e-01	0	56	0	158334976	46	4314
2026-01-02 02:20:11.42	340.36	25.84	-37.3	-39.0	24.0	5.99e-01	0	56	0	160432128	46	4328
2026-01-02 02:20:12.43	340.09	25.96	-37.3	-39.0	24.0	6.01e-01	0	56	0	162529280	46	4332
2026-01-02 02:20:13.43	339.82	26.09	-37.3	-39.0	24.1	6.03e-01	0	56	0	164102144	46	4303
2026-01-02 02:20:14.44	339.55	26.21	-37.2	-38.9	24.2	6.00e-01	0	56	0	166199296	46	4264
2026-01-02 02:20:15.46	339.27	26.34	-37.1	-38.8	24.2	6.03e-01	0	56	0	167772160	46	4236
2026-01-02 02:20:16.47	338.99	26.47	-37.1	-38.8	24.3	6.02e-01	0	56	0	169869312	46	4201
2026-01-02 02:20:17.47	338.71	26.59	-37.1	-38.8	24.3	6.03e-01	0	56	0	171966464	46	4237
2026-01-02 02:20:18.48	338.43	26.72	-37.2	-38.9	24.2	6.00e-01	0	56	0	173539328	46	4263
2026-01-02 02:20:19.49	338.14	26.84	-37.2	-38.9	24.2	5.99e-01	0	56	0	175636480	46	4275
2026-01-02 02:20:20.50	337.86	26.97	-37.3	-39.0	24.1	6.01e-01	0	56	0	177209344	46	4323
2026-01-02 02:20:21.51	337.57	27.09	-37.3	-39.0	24.1	6.01e-01	0	56	0	179306496	46	4335
2026-01-02 02:20:22.52	337.27	27.22	-37.3	-39.0	24.1	6.00e-01	0	56	0	181403648	46	4298
2026-01-02 02:20:23.53	336.98	27.34	-37.2	-38.9	24.2	6.00e-01	0	56	0	182976512	46	4247
2026-01-02 02:20:24.54	336.68	27.47	-37.0	-38.7	24.4	6.01e-01	0	56	0	185073664	46	4162
2026-01-02 02:20:25.55	336.38	27.59	-36.9	-38.6	24.5	6.01e-01	0	56	0	187170816	45	4370
2026-01-02 02:20:26.56	336.08	27.71	-37.0	-38.7	24.4	6.00e-01	0	56	0	188743680	45	4406
2026-01-02 02:20:27.57	335.77	27.84	-37.1	-38.7	24.3	5.99e-01	0	56	0	190840832	45	4434
2026-01-02 02:20:28.58	335.47	27.96	-37.0	-38.7	24.4	6.00e-01	0	56	0	192413696	45	4423
2026-01-02 02:20:29.59	335.16	28.08	-37.0	-38.7	24.4	6.03e-01	0	56	0	194510848	45	4432
2026-01-02 02:20:30.59	334.85	28.21	-37.0	-38.7	24.4	6.00e-01	0	56	0	196083712	45	4410
2026-01-02 02:20:31.60	334.53	28.33	-37.0	-38.7	24.4	6.03e-01	0	56	0	198180864	45	4395
2026-01-02 02:20:32.61	334.22	28.45	-37.0	-38.7	24.5	6.02e-01	0	56	0	200278016	45	4402
2026-01-02 02:20:33.62	333.90	28.57	-37.0	-38.7	24.4	6.02e-01	0	56	0	201850880	45	4400
2026-01-02 02:20:34.63	333.57	28.69	-37.0	-38.7	24.4	6.03e-01	0	56	0	203948032	45	4425
2026-01-02 02:20:35.64	333.25	28.82	-37.0	-38.6	24.5	6.02e-01	0	56	0	205520896	45	4370
2026-01-02 02:20:36.65	332.92	28.94	-36.9	-38.5	24.6	6.00e-01	0	56	0	207618048	45	4317
2026-01-02 02:20:37.66	332.59	29.06	-36.8	-38.4	24.7	6.00e-01	0	56	0	209715200	45	4258
2026-01-02 02:20:38.67	332.26	29.18	-36.8	-38.4	24.8	6.00e-01	0	56	0	211288064	45	4257
2026-01-02 02:20:39.68	331.92	29.29	-36.9	-38.5	24.6	6.04e-01	0	56	0	213385216	45	4339
2026-01-02 02:20:40.68	331.59	29.41	-36.9	-38.5	24.6	5.99e-01	0	56	0	215482368	45	4309
2026-01-02 02:20:41.69	331.25	29.53	-36.9	-38.5	24.6	6.02e-01	0	56	0	217055232	45	4336
2026-01-02 02:20:42.70	330.91	29.65	-36.9	-38.6	24.5	6.02e-01	0	56	0	219152384	45	4359
2026-01-02 02:20:43.71	330.56	29.76	-36.9	-38.6	24.6	6.00e-01	0	57	0	220725248	45	4341
2026-01-02 02:20:44.72	330.21	29.88	-36.8	-38.5	24.7	6.01e-01	0	56	0	222822400	45	4301
2026-01-02 02:20:45.73	329.86	30.00	-36.8	-38.4	24.7	6.02e-01	0	56	0	224919552	45	4284
2026-01-02 02:20:46.74	329.51	30.11	-36.7	-38.4	24.8	5.99e-01	0	56	0	226492416	45	4251
2026-01-02 02:20:47.75	329.15	30.22	-36.7	-38.3	24.9	6.02e-01	0	56	0	228589568	45	4206
2026-01-02 02:20:48.76	328.80	30.34	-36.7	-38.3	24.9	6.02e-01	0	56	0	230686720	45	4199
2026-01-02 02:20:49.77	328.43	30.45	-36.8	-38.4	24.8	6.01e-01	0	56	0	232259584	45	4260
2026-01-02 02:20:50.78	328.07	30.56	-36.9	-38.5	24.6	6.03e-01	0	56	0	234356736	45	4320
2026-01-02 02:20:51.79	327.70	30.67	-36.9	-38.6	24.5	6.01e-01	0	56	0	235929600	45	4361
2026-01-02 02:20:52.80	327.33	30.78	-36.8	-38.4	24.7	6.02e-01	0	56	0	238026752	45	4274
2026-01-02 02:20:53.81	326.96	30.89	-36.7	-38.3	24.8	6.03e-01	0	56	0	240123904	45	4214
2026-01-02 02:20:54.82	326.59	31.00	-36.8	-38.5	24.7	6.02e-01	0	56	0	241696768	45	4298
2026-01-02 02:20:55.83	326.21	31.11	-36.7	-38.4	24.8	6.03e-01	0	56	0	243793920	45	4246
2026-01-02 02:20:56.84	325.83	31.21	-36.8	-38.5	24.7	6.00e-01	0	56	0	245366784	45	4310
2026-01-02 02:20:57.85	325.45	31.32	-36.7	-38.3	24.8	6.02e-01	0	56	0	247463936	45	4231
2026-01-02 02:20:58.85	325.07	31.42	-36.9	-38.6	24.5	6.01e-01	0	56	0	249561088	45	4349
2026-01-02 02:20:59.86	324.68	31.53	-36.8	-38.5	24.7	6.02e-01	0	56	0	251133952	45	4299
2026-01-02 02:21:00.87	324.29	31.63	-36.9	-38.5	24.6	6.02e-01	0	56	0	253231104	45	4309
2026-01-02 02:21:01.88	323.90	31.73	-36.9	-38.5	24.7	6.00e-01	0	56	0	254803968	45	4324
2026-01-02 02:21:02.89	323.50	31.83	-36.7	-38.4	24.8	6.02e-01	0	56	0	256901120	45	4244
2026-01-02 02:21:03.90	323.11	31.93	-36.8	-38.4	24.7	6.01e-01	0	56	0	258998272	45	4288
2026-01-02 02:21:04.91	322.71	32.03	-36.8	-38.4	24.7	5.99e-01	0	56	0	260571136	45	4277
2026-01-02 02:21:05.92	322.30	32.12	-36.8	-38.5	24.7	5.99e-01	0	56	0	262668288	45	4292
2026-01-02 02:21:06.93	321.90	32.22	-36.8	-38.5	24.7	6.00e-01	0	56	0	264241152	45	4299
2026-01-02 02:21:07.94	321.49	32.31	-36.9	-38.5	24.6	6.03e-01	0	56	0	266338304	45	4340
2026-01-02 02:21:08.95	321.08	32.41	-36.9	-38.6	24.6	6.00e-01	0	56	0	268435456	45	4343
2026-01-02 02:21:09.96	320.67	32.50	-36.9	-38.5	24.6	6.01e-01	0	56	0	270008320	45	4337
2026-01-02 02:21:10.97	320.26	32.59	-36.9	-38.6	24.6	6.04e-01	0	56	0	272105472	45	4344
2026-01-02 02:21:11.98	319.84	32.68	-36.9	-38.6	24.6	6.00e-01	0	56	0	273678336	45	4362
2026-01-02 02:21:12.99	319.42	32.77	-37.2	-38.8	24.4	6.01e-01	0	57	0	275775488	45	4492
2026-01-02 02:21:14.00	319.00	32.85	-36.9	-38.6	24.6	6.00e-01	0	56	0	277872640	45	4341
2026-01-02 02:21:15.01	318.57	32.94	-36.9	-38.5	24.6	6.02e-01	0	56	0	279445504	45	4314
2026-01-02 02:21:16.01	318.15	33.02	-37.3	-39.0	24.2	6.01e-01	0	56	0	281542656	45	4567
2026-01-02 02:21:17.02	317.72	33.10	-37.0	-38.7	24.5	6.01e-01	0	57	0	283639808	45	4423
2026-01-02 02:21:18.03	317.29	33.18	-37.0	-38.7	24.5	6.01e-01	0	56	0	285212672	45	4404
2026-01-02 02:21:19.04	316.86	33.26	-37.0	-38.6	24.5	6.00e-01	0	56	0	287309824	45	4380
2026-01-02 02:21:20.05	316.42	33.34	-37.2	-38.9	24.3	6.01e-01	0	56	0	288882688	45	4517
2026-01-02 02:21:21.06	315.99	33.41	-37.1	-38.8	24.5	6.02e-01	0	56	0	290979840	45	4455
2026-01-02 02:21:22.07	315.55	33.48	-37.1	-38.8	24.4	6.02e-01	0	56	0	293076992	45	4445
2026-01-02 02:21:23.08	315.10	33.56	-37.5	-39.3	23.9	6.01e-01	0	57	0	294649856	45	4740
2026-01-02 02:21:24.09	314.66	33.63	-37.4	-39.1	24.1	6.00e-01	0	56	0	296747008	45	4620
2026-01-02 02:21:25.10	314.22	33.69	-36.8	-38.4	24.8	6.01e-01	0	56	0	298844160	45	4263
2026-01-02 02:21:26.11	313.77	33.76	-37.1	-38.8	24.2	6.01e-01	0	56	0	300417024	45	4468
2026-01-02 02:21:27.12	313.32	33.83	-37.8	-39.6	23.6	6.01e-01	0	56	0	302514176	46	4638
2026-01-02 02:21:28.13	312.87	33.89	-37.2	-38.9	24.3	6.02e-01	0	56	0	304087040	45	4533
2026-01-02 02:21:29.14	312.42	33.95	-36.7	-38.3	24.8	6.03e-01	0	56	0	306184192	45	4224
2026-01-02 02:21:30.15	311.96	34.01	-37.0	-38.7	24.3	6.01e-01	0	56	0	308281344	46	4158
2026-01-02 02:21:31.16	311.50	34.07	-37.7	-39.5	23.6	6.01e-01	0	56	0	309854208	46	4570
2026-01-02 02:21:32.17	311.05	34.12	-37.4	-39.2	24.1	6.04e-01	0	56	0	311951360	45	4675
2026-01-02 02:21:33.18	310.59	34.18	-37.0	-38.6	24.6	6.02e-01	0	56	0	313524224	45	4365
2026-01-02 02:21:34.18	310.13	34.23	-36.9	-38.5	24.5	6.00e-01	0	56	0	315621376	45	4317
2026-01-02 02:21:35.19	309.67	34.28	-37.5	-39.3	23.8	6.02e-01	0	56	0	317194240	46	4444
2026-01-02 02:21:36.20	309.20	34.32	-37.6	-39.3	23.9	6.01e-01	0	57	0	319291392	45	4750
2026-01-02 02:21:37.21	308.74	34.37	-37.4	-39.1	24.1	6.00e-01	0	56	0	321388544	45	4643
2026-01-02 02:21:38.22	308.27	34.41	-37.4	-39.1	24.1	6.01e-01	0	57	0	322961408	45	4611
2026-01-02 02:21:39.23	307.80	34.45	-37.5	-39.2	24.0	6.00e-01	0	57	0	325058560	45	4681
2026-01-02 02:21:40.24	307.34	34.49	-37.2	-38.9	24.3	6.01e-01	0	57	0	327155712	45	4499
2026-01-02 02:21:41.26	306.86	34.53	-37.1	-38.8	24.3	5.99e-01	0	56	0	328728576	46	4216
2026-01-02 02:21:42.26	306.39	34.57	-37.6	-39.4	23.6	6.03e-01	0	56	0	330825728	46	4526
2026-01-02 02:21:43.27	305.92	34.60	-37.7	-39.5	23.8	6.00e-01	0	56	0	332398592	45	4818
2026-01-02 02:21:44.28	305.45	34.63	-37.3	-39.0	24.3	6.01e-01	0	56	0	334495744	45	4563
2026-01-02 02:21:45.29	304.97	34.66	-37.4	-39.2	24.0	6.01e-01	0	56	0	336592896	45	4672
2026-01-02 02:21:46.30	304.50	34.69	-37.3	-39.0	24.3	6.02e-01	0	57	0	338165760	45	4546
2026-01-02 02:21:47.32	304.02	34.71	-37.1	-38.7	24.4	6.01e-01	0	57	0	340262912	45	4439
2026-01-02 02:21:48.33	303.54	34.73	-37.4	-39.1	23.9	6.00e-01	0	57	0	341835776	46	4354
2026-01-02 02:21:49.33	303.07	34.75	-38.1	-40.0	23.3	5.99e-01	0	57	0	343932928	46	4830
2026-01-02 02:21:50.34	302.59	34.77	-37.4	-39.1	24.1	6.01e-01	0	56	0	346030080	45	4617
2026-01-02 02:21:51.35	302.11	34.79	-36.9	-38.5	24.6	6.02e-01	0	56	0	347602944	45	4325
2026-01-02 02:21:52.36	301.63	34.80	-37.4	-39.1	23.9	6.01e-01	0	56	0	349700096	46	4357
2026-01-02 02:21:53.37	301.15	34.81	-38.0	-39.8	23.4	6.02e-01	0	57	0	351797248	46	4749
2026-01-02 02:21:54.39	300.67	34.82	-37.4	-39.1	24.1	6.01e-01	0	56	0	353370112	46	4389
2026-01-02 02:21:55.40	300.19	34.83	-37.2	-38.8	24.3	6.02e-01	0	56	0	355467264	46	4229
2026-01-02 02:21:56.40	299.71	34.83	-37.5	-39.3	23.8	6.02e-01	0	57	0	357040128	46	4462
2026-01-02 02:21:57.41	299.23	34.83	-38.1	-40.0	23.3	6.00e-01	0	57	0	359137280	46	4837
2026-01-02 02:21:58.42	298.75	34.83	-37.6	-39.3	23.9	6.00e-01	0	57	0	361234432	45	4752
2026-01-02 02:21:59.43	298.27	34.83	-37.0	-38.6	24.5	6.02e-01	0	56	0	362807296	45	4350
2026-01-02 02:22:00.44	297.79	34.83	-37.7	-39.6	23.3	6.01e-01	0	57	0	364904448	47	4342
2026-01-02 02:22:01.45	297.31	34.82	-38.5	-40.6	22.7	6.01e-01	0	56	0	367001600	47	4892
2026-01-02 02:22:02.46	296.83	34.81	-37.3	-38.9	24.3	6.00e-01	0	57	0	368574464	45	4535
2026-01-02 02:22:03.47	296.35	34.80	-37.5	-39.3	23.7	5.99e-01	0	56	0	370671616	47	4202
2026-01-02 02:22:04.48	295.87	34.79	-38.5	-40.5	22.9	6.01e-01	0	56	0	372244480	47	4827
2026-01-02 02:22:05.49	295.40	34.77	-37.2	-38.9	24.3	6.00e-01	0	57	0	374341632	46	4251
2026-01-02 02:22:06.50	294.92	34.76	-37.3	-39.0	24.0	6.00e-01	0	57	0	376438784	46	4321
2026-01-02 02:22:07.51	294.44	34.74	-38.0	-39.9	23.3	6.03e-01	0	57	0	378011648	46	4787
2026-01-02 02:22:08.52	293.96	34.71	-37.7	-39.5	23.7	6.01e-01	0	57	0	380108800	46	4584
2026-01-02 02:22:09.53	293.49	34.69	-37.2	-38.9	24.3	6.00e-01	0	56	0	381681664	46	4257
2026-01-02 02:22:10.54	293.01	34.66	-38.4	-40.4	22.8	5.99e-01	0	57	0	383778816	47	4770
2026-01-02 02:22:11.55	292.54	34.63	-38.1	-40.0	23.2	6.00e-01	0	57	0	385875968	46	4857
2026-01-02 02:22:12.56	292.06	34.60	-37.6	-39.3	23.9	6.04e-01	0	56	0	387448832	47	4228
2026-01-02 02:22:13.57	291.59	34.57	-38.4	-40.4	22.8	5.99e-01	0	56	0	389545984	47	4782
2026-01-02 02:22:14.58	291.12	34.54	-38.2	-40.0	23.2	5.99e-01	0	57	0	391118848	47	4597
2026-01-02 02:22:15.58	290.65	34.50	-38.3	-40.2	22.8	6.01e-01	0	56	0	393216000	47	4699
2026-01-02 02:22:16.59	290.18	34.46	-38.7	-40.8	22.5	6.01e-01	0	56	0	395313152	47	5016
2026-01-02 02:22:17.60	289.71	34.42	-38.3	-40.1	23.4	6.00e-01	0	57	0	396886016	48	4378
2026-01-02 02:22:18.61	289.25	34.37	-39.6	-41.9	21.8	6.00e-01	0	57	0	398983168	49	5058
2026-01-02 02:22:19.62	288.78	34.33	-38.2	-40.0	23.5	5.99e-01	0	56	0	400556032	48	4299
2026-01-02 02:22:20.63	288.31	34.28	-39.1	-41.2	22.5	6.02e-01	0	57	0	402653184	48	4935
2026-01-02 02:22:21.64	287.85	34.23	-38.2	-40.0	23.5	6.01e-01	0	56	0	404750336	48	4308
2026-01-02 02:22:22.65	287.39	34.18	-37.8	-39.6	23.5	5.99e-01	0	57	0	406323200	47	4375
2026-01-02 02:22:23.66	286.93	34.13	-38.2	-40.2	23.0	6.01e-01	0	56	0	408420352	47	4657
2026-01-02 02:22:24.66	286.47	34.07	-37.7	-39.5	23.8	6.00e-01	0	57	0	409993216	47	4295
2026-01-02 02:22:25.68	286.01	34.02	-38.4	-40.4	22.9	5.99e-01	0	57	0	412090368	47	4767
2026-01-02 02:22:26.68	285.56	33.96	-37.8	-39.6	23.6	6.00e-01	0	57	0	414187520	47	4355
2026-01-02 02:22:27.70	285.10	33.90	-37.9	-39.7	23.5	6.00e-01	0	56	0	415760384	47	4430
2026-01-02 02:22:28.70	284.66	33.83	-38.2	-40.1	23.1	6.00e-01	0	56	0	417857536	47	4645
2026-01-02 02:22:29.72	284.20	33.77	-37.9	-39.8	23.4	6.02e-01	0	57	0	419954688	47	4449
2026-01-02 02:22:30.73	283.75	33.70	-38.1	-40.0	23.2	5.99e-01	0	57	0	421527552	47	4577
2026-01-02 02:22:31.74	283.31	33.63	-37.9	-39.7	23.5	6.03e-01	0	57	0	423624704	47	4404
2026-01-02 02:22:32.74	282.87	33.56	-37.8	-39.7	23.5	6.02e-01	0	56	0	425197568	46	4657
2026-01-02 02:22:33.76	282.42	33.49	-38.0	-39.9	23.3	5.99e-01	0	57	0	427294720	46	4779
2026-01-02 02:22:34.77	281.98	33.42	-37.5	-39.2	24.0	6.00e-01	0	57	0	429391872	46	4401
2026-01-02 02:22:35.78	281.54	33.34	-37.7	-39.4	23.8	6.02e-01	0	56	0	430964736	46	4540
2026-01-02 02:22:36.78	281.11	33.27	-37.6	-39.4	23.7	6.02e-01	0	57	0	433061888	46	4515
2026-01-02 02:22:37.80	280.67	33.19	-37.4	-39.1	24.1	5.99e-01	0	57	0	435159040	46	4368
2026-01-02 02:22:38.81	280.24	33.11	-38.2	-40.1	23.1	5.99e-01	0	57	0	436731904	47	4634
2026-01-02 02:22:39.81	279.81	33.03	-37.4	-39.1	23.9	5.98e-01	0	56	0	438829056	46	4383
2026-01-02 02:22:40.82	279.38	32.94	-37.9	-39.7	23.5	6.00e-01	0	57	0	440401920	46	4686
2026-01-02 02:22:41.83	278.96	32.86	-38.0	-39.9	23.3	6.01e-01	0	57	0	442499072	46	4789
2026-01-02 02:22:42.84	278.53	32.77	-37.8	-39.6	23.5	5.99e-01	0	56	0	444071936	46	4650
2026-01-02 02:22:43.85	278.11	32.69	-38.2	-40.1	23.1	5.99e-01	0	57	0	446169088	47	4650
2026-01-02 02:22:44.86	277.70	32.60	-38.0	-39.8	23.3	6.01e-01	0	57	0	448266240	47	4477
2026-01-02 02:22:45.87	277.28	32.51	-37.4	-39.1	24.0	6.01e-01	0	56	0	449839104	46	4389
2026-01-02 02:22:46.88	276.87	32.41	-38.1	-40.0	23.3	6.02e-01	0	57	0	451936256	46	4826
2026-01-02 02:22:47.89	276.45	32.32	-37.8	-39.6	23.5	6.01e-01	0	56	0	453509120	46	4628
2026-01-02 02:22:48.90	276.05	32.23	-37.4	-39.2	24.0	6.00e-01	0	57	0	455606272	46	4395
2026-01-02 02:22:49.91	275.64	32.13	-37.8	-39.6	23.6	6.01e-01	0	57	0	457703424	46	4610
2026-01-02 02:22:50.92	275.23	32.03	-38.0	-39.8	23.4	6.01e-01	0	57	0	459276288	46	4758
2026-01-02 02:22:51.93	274.83	31.94	-37.7	-39.5	23.7	5.99e-01	0	57	0	461373440	46	4558
2026-01-02 02:22:52.94	274.43	31.84	-37.8	-39.6	23.6	6.01e-01	0	57	0	463470592	46	4614
2026-01-02 02:22:53.95	274.04	31.74	-38.4	-40.4	22.8	5.99e-01	0	56	0	465043456	47	4805
2026-01-02 02:22:54.96	273.64	31.63	-38.0	-39.9	23.2	6.03e-01	0	56	0	467140608	47	4502
2026-01-02 02:22:55.97	273.25	31.53	-37.8	-39.6	23.6	5.99e-01	0	57	0	468713472	47	4342
2026-01-02 02:22:56.98	272.86	31.43	-38.1	-40.0	23.2	6.00e-01	0	57	0	470810624	47	4594
2026-01-02 02:22:57.99	272.48	31.32	-38.4	-40.4	22.8	6.02e-01	0	57	0	472907776	47	4809
2026-01-02 02:22:59.00	272.09	31.22	-37.8	-39.5	23.6	6.01e-01	0	57	0	474480640	47	4340
2026-01-02 02:23:00.01	271.71	31.11	-38.0	-39.8	23.3	5.99e-01	0	57	0	476577792	47	4476
2026-01-02 02:23:01.02	271.33	31.00	-38.5	-40.5	22.7	6.02e-01	0	57	0	478150656	47	4867
2026-01-02 02:23:02.03	270.96	30.89	-38.6	-40.6	22.5	6.00e-01	0	57	0	480247808	47	4887
2026-01-02 02:23:03.04	270.59	30.78	-37.8	-39.6	23.4	6.02e-01	0	57	0	482344960	47	4344
2026-01-02 02:23:04.05	270.21	30.67	-37.4	-39.1	24.1	6.03e-01	0	57	0	483917824	46	4345
2026-01-02 02:23:05.06	269.85	30.56	-37.9	-39.7	23.4	6.02e-01	0	57	0	486014976	46	4695
2026-01-02 02:23:06.07	269.48	30.45	-38.5	-40.5	22.8	6.00e-01	0	57	0	488112128	47	4826
2026-01-02 02:23:07.08	269.12	30.34	-38.1	-40.0	23.1	6.03e-01	0	57	0	489684992	47	4557
2026-01-02 02:23:08.09	268.76	30.22	-37.6	-39.4	23.8	5.99e-01	0	57	0	491782144	47	4261
2026-01-02 02:23:09.10	268.40	30.11	-37.6	-39.4	23.8	6.03e-01	0	57	0	493355008	47	4255
2026-01-02 02:23:10.11	268.05	29.99	-37.8	-39.6	23.5	5.99e-01	0	57	0	495452160	47	4377
2026-01-02 02:23:11.12	267.69	29.88	-38.0	-40.0	23.2	5.99e-01	0	57	0	497549312	47	4546
2026-01-02 02:23:12.13	267.34	29.76	-37.9	-39.8	23.3	6.00e-01	0	57	0	499122176	47	4463
2026-01-02 02:23:13.13	267.00	29.65	-37.7	-39.4	23.7	6.00e-01	0	57	0	501219328	47	4286
2026-01-02 02:23:14.14	266.66	29.53	-37.6	-39.3	23.8	6.01e-01	0	57	0	502792192	47	4240
2026-01-02 02:23:15.15	266.31	29.41	-37.5	-39.2	23.9	6.01e-01	0	57	0	504889344	47	4180
2026-01-02 02:23:16.16	265.97	29.29	-37.6	-39.3	23.8	6.02e-01	0	57	0	506986496	46	4490
2026-01-02 02:23:17.17	265.64	29.17	-37.8	-39.7	23.5	6.01e-01	0	57	0	508559360	46	4666
2026-01-02 02:23:18.18	265.30	29.05	-37.8	-39.6	23.5	6.00e-01	0	57	0	510656512	46	4623
2026-01-02 02:23:19.20	264.97	28.93	-37.6	-39.4	23.7	6.00e-01	0	57	0	512753664	46	4507
2026-01-02 02:23:20.20	264.64	28.81	-37.6	-39.4	23.7	6.02e-01	0	57	0	514326528	46	4530
2026-01-02 02:23:21.21	264.32	28.69	-37.7	-39.6	23.6	6.01e-01	0	57	0	516423680	46	4601
2026-01-02 02:23:22.22	263.99	28.57	-37.8	-39.6	23.6	6.01e-01	0	56	0	517996544	46	4614
2026-01-02 02:23:23.23	263.67	28.44	-37.8	-39.6	23.6	6.02e-01	0	57	0	520093696	46	4618
2026-01-02 02:23:24.24	263.35	28.32	-37.9	-39.7	23.4	6.00e-01	0	57	0	521666560	46	4688
2026-01-02 02:23:25.25	263.04	28.20	-37.8	-39.6	23.5	6.01e-01	0	57	0	523763712	46	4607
2026-01-02 02:23:26.26	262.72	28.08	-37.8	-39.6	23.6	6.00e-01	0	57	0	525860864	46	4610
2026-01-02 02:23:27.27	262.41	27.95	-37.9	-39.7	23.5	6.03e-01	0	57	0	527433728	46	4669
2026-01-02 02:23:28.28	262.10	27.83	-37.9	-39.8	23.4	6.03e-01	0	57	0	529530880	46	4727
2026-01-02 02:23:29.29	261.80	27.70	-37.9	-39.7	23.4	6.01e-01	0	57	0	531628032	46	4684
2026-01-02 02:23:30.30	261.49	27.58	-37.8	-39.7	23.5	6.00e-01	0	57	0	533200896	46	4654
2026-01-02 02:23:31.31	261.19	27.45	-37.9	-39.8	23.4	6.03e-01	0	57	0	535298048	46	4719
2026-01-02 02:23:32.32	260.89	27.33	-38.0	-39.9	23.2	6.01e-01	0	57	0	536870912	46	4803
2026-01-02 02:23:33.33	260.60	27.20	-38.0	-39.9	23.2	6.01e-01	0	57	0	538968064	46	4792
2026-01-02 02:23:34.34	260.30	27.08	-38.0	-39.8	23.3	6.02e-01	0	57	0	541065216	46	4742
2026-01-02 02:23:35.35	260.01	26.95	-37.9	-39.7	23.4	6.00e-01	0	57	0	542638080	46	4688
2026-01-02 02:23:36.36	259.72	26.83	-37.7	-39.5	23.6	6.02e-01	0	57	0	544735232	46	4582
2026-01-02 02:23:37.37	259.44	26.70	-37.7	-39.4	23.6	5.99e-01	0	57	0	546308096	46	4541
2026-01-02 02:23:38.37	259.15	26.58	-37.9	-39.7	23.4	6.01e-01	0	57	0	548405248	46	4680
2026-01-02 02:23:39.38	258.87	26.45	-38.2	-40.1	23.1	6.02e-01	0	56	0	550502400	46	4897
2026-01-02 02:23:40.39	258.59	26.32	-38.1	-40.0	23.1	6.01e-01	0	57	0	552075264	46	4836
2026-01-02 02:23:41.40	258.32	26.20	-37.9	-39.8	23.3	6.00e-01	0	57	0	554172416	46	4719
2026-01-02 02:23:42.41	258.04	26.07	-37.8	-39.7	23.4	6.01e-01	0	57	0	556269568	46	4655
2026-01-02 02:23:43.42	257.77	25.94	-37.7	-39.5	23.6	6.01e-01	0	57	0	557842432	46	4591
2026-01-02 02:23:44.43	257.50	25.82	-37.9	-39.8	23.3	6.03e-01	0	57	0	559939584	46	4737
2026-01-02 02:23:45.44	257.23	25.69	-38.1	-40.0	23.1	6.01e-01	0	57	0	561512448	46	4864
2026-01-02 02:23:46.45	256.96	25.56	-38.0	-39.9	23.2	6.01e-01	0	57	0	563609600	46	4801
2026-01-02 02:23:47.46	256.70	25.44	-37.9	-39.8	23.3	5.99e-01	0	57	0	565706752	46	4708
2026-01-02 02:23:48.47	256.44	25.31	-37.9	-39.8	23.3	6.02e-01	0	57	0	567279616	46	4725
2026-01-02 02:23:49.48	256.18	25.18	-38.0	-39.8	23.3	6.01e-01	0	57	0	569376768	46	4754
2026-01-02 02:23:50.49	255.92	25.06	-38.0	-39.9	23.2	6.02e-01	0	57	0	570949632	46	4771
2026-01-02 02:23:51.50	255.66	24.93	-38.0	-39.8	23.2	6.04e-01	0	57	0	573046784	46	4759
2026-01-02 02:23:52.51	255.41	24.80	-38.0	-39.9	23.2	6.03e-01	0	57	0	575143936	46	4782
2026-01-02 02:23:53.52	255.16	24.68	-37.9	-39.7	23.4	6.01e-01	0	57	0	576716800	46	4690
2026-01-02 02:23:54.53	254.91	24.55	-37.9	-39.7	23.4	6.03e-01	0	57	0	578813952	46	4672
2026-01-02 02:23:55.54	254.66	24.43	-37.9	-39.8	23.2	5.99e-01	0	57	0	580386816	46	4729
2026-01-02 02:23:56.54	254.42	24.30	-38.0	-39.9	23.2	6.03e-01	0	57	0	582483968	46	4798
2026-01-02 02:23:57.55	254.18	24.18	-38.1	-40.0	23.1	6.01e-01	0	57	0	584581120	46	4830
2026-01-02 02:23:58.56	253.94	24.05	-38.0	-39.9	23.2	6.01e-01	0	57	0	586153984	46	4788
2026-01-02 02:23:59.57	253.70	23.92	-38.0	-39.9	23.2	6.02e-01	0	57	0	588251136	46	4802
2026-01-02 02:24:00.58	253.46	23.80	-37.9	-39.8	23.3	6.02e-01	0	57	0	589824000	46	4725
2026-01-02 02:24:01.59	253.23	23.67	-37.9	-39.8	23.3	6.00e-01	0	57	0	591921152	46	4734
2026-01-02 02:24:02.60	253.00	23.55	-37.9	-39.8	23.3	6.03e-01	0	57	0	594018304	46	4731
2026-01-02 02:24:03.61	252.77	23.42	-38.0	-39.9	23.2	6.01e-01	0	57	0	595591168	46	4792
2026-01-02 02:24:04.62	252.54	23.30	-38.2	-40.1	23.0	6.00e-01	0	57	0	597688320	46	4918
2026-01-02 02:24:05.63	252.31	23.17	-38.2	-40.2	22.9	5.99e-01	0	57	0	599785472	47	4659
2026-01-02 02:24:06.64	252.09	23.05	-38.1	-40.0	23.0	6.02e-01	0	57	0	601358336	47	4578
2026-01-02 02:24:07.65	251.86	22.92	-37.9	-39.8	23.2	6.03e-01	0	57	0	603455488	47	4466
2026-01-02 02:24:08.66	251.64	22.80	-37.8	-39.7	23.4	6.01e-01	0	57	0	605028352	47	4403
2026-01-02 02:24:09.67	251.42	22.68	-37.8	-39.7	23.4	6.01e-01	0	57	0	607125504	47	4409
2026-01-02 02:24:10.68	251.20	22.55	-38.0	-39.9	23.2	6.01e-01	0	57	0	609222656	47	4498
2026-01-02 02:24:11.69	250.99	22.43	-38.1	-40.0	23.1	5.99e-01	0	57	0	610795520	47	4561
2026-01-02 02:24:12.70	250.77	22.31	-38.0	-40.0	23.1	6.02e-01	0	57	0	612892672	47	4548
2026-01-02 02:24:13.71	250.56	22.18	-38.1	-40.0	23.1	6.02e-01	0	57	0	614465536	47	4551
2026-01-02 02:24:14.72	250.35	22.06	-38.0	-39.9	23.1	6.02e-01	0	57	0	616562688	47	4539
2026-01-02 02:24:15.73	250.14	21.94	-38.1	-40.0	23.1	6.00e-01	0	57	0	618659840	47	4554
2026-01-02 02:24:16.74	249.94	21.82	-38.0	-39.9	23.1	6.01e-01	0	57	0	620232704	47	4521
2026-01-02 02:24:17.74	249.73	21.69	-38.0	-39.8	23.2	6.01e-01	0	57	0	622329856	47	4486
2026-01-02 02:24:18.75	249.53	21.57	-37.9	-39.8	23.2	5.98e-01	0	57	0	624427008	47	4467
2026-01-02 02:24:19.76	249.33	21.45	-37.9	-39.8	23.2	6.01e-01	0	57	0	625999872	47	4483
2026-01-02 02:24:20.78	249.13	21.33	-37.9	-39.8	23.2	5.99e-01	0	57	0	628097024	47	4481
2026-01-02 02:24:21.78	248.93	21.21	-38.0	-39.9	23.1	5.99e-01	0	57	0	629669888	47	4523
2026-01-02 02:24:22.79	248.73	21.09	-38.0	-39.9	23.1	6.03e-01	0	57	0	631767040	47	4526
2026-01-02 02:24:23.80	248.54	20.97	-38.0	-39.9	23.1	6.01e-01	0	57	0	633864192	47	4520
2026-01-02 02:24:24.81	248.34	20.85	-38.0	-39.9	23.1	5.99e-01	0	57	0	635437056	47	4510
2026-01-02 02:24:25.82	248.15	20.73	-37.9	-39.8	23.2	6.02e-01	0	57	0	637534208	47	4446
2026-01-02 02:24:26.83	247.96	20.61	-37.9	-39.8	23.2	5.98e-01	0	57	0	639107072	47	4454
2026-01-02 02:24:27.84	247.77	20.49	-37.9	-39.8	23.3	6.00e-01	0	57	0	641204224	47	4445
2026-01-02 02:24:28.85	247.58	20.37	-37.9	-39.8	23.2	6.00e-01	0	57	0	643301376	47	4464
2026-01-02 02:24:29.86	247.40	20.25	-37.9	-39.8	23.2	5.99e-01	0	57	0	644874240	47	4482
2026-01-02 02:24:30.87	247.21	20.13	-38.0	-39.9	23.1	6.00e-01	0	57	0	646971392	47	4501
2026-01-02 02:24:31.88	247.03	20.02	-38.0	-39.9	23.1	6.01e-01	0	57	0	648544256	47	4515
2026-01-02 02:24:32.89	246.85	19.90	-38.0	-39.9	23.1	6.01e-01	0	57	0	650641408	47	4523
2026-01-02 02:24:33.90	246.67	19.78	-38.1	-40.0	23.0	6.01e-01	0	57	0	652738560	47	4566
2026-01-02 02:24:34.91	246.49	19.66	-38.0	-39.9	23.0	6.01e-01	0	57	0	654311424	47	4545
2026-01-02 02:24:35.92	246.31	19.55	-38.0	-39.9	23.1	5.98e-01	0	57	0	656408576	47	4501
2026-01-02 02:24:36.93	246.14	19.43	-37.9	-39.7	23.2	6.02e-01	0	57	0	657981440	47	4431
2026-01-02 02:24:37.94	245.97	19.32	-37.8	-39.6	23.3	6.02e-01	0	57	0	660078592	47	4377
2026-01-02 02:24:38.95	245.79	19.20	-37.8	-39.7	23.3	6.03e-01	0	57	0	662175744	47	4403
2026-01-02 02:24:39.96	245.62	19.08	-37.9	-39.7	23.2	6.00e-01	0	57	0	663748608	47	4429
2026-01-02 02:24:40.97	245.45	18.97	-38.0	-39.9	23.1	6.01e-01	0	57	0	665845760	47	4520
2026-01-02 02:24:41.98	245.28	18.85	-38.1	-40.0	22.9	6.00e-01	0	57	0	667942912	47	4576
2026-01-02 02:24:42.99	245.12	18.74	-38.1	-40.0	23.0	5.98e-01	0	57	0	669515776	47	4570
2026-01-02 02:24:44.00	244.95	18.63	-38.0	-39.9	23.1	6.02e-01	0	57	0	671612928	47	4507
2026-01-02 02:24:45.01	244.79	18.51	-37.8	-39.7	23.2	6.01e-01	0	57	0	673185792	47	4412
2026-01-02 02:24:46.01	244.62	18.40	-37.7	-39.6	23.3	6.01e-01	0	57	0	675282944	47	4361
2026-01-02 02:24:47.02	244.46	18.29	-37.8	-39.7	23.2	6.01e-01	0	57	0	677380096	47	4417
2026-01-02 02:24:48.03	244.30	18.17	-37.9	-39.8	23.1	6.00e-01	0	57	0	678952960	47	4482
2026-01-02 02:24:49.04	244.14	18.06	-37.9	-39.7	23.2	6.02e-01	0	57	0	681050112	47	4430
2026-01-02 02:24:50.05	243.98	17.95	-37.7	-39.6	23.3	6.02e-01	0	57	0	682622976	47	4358
2026-01-02 02:24:51.06	243.83	17.84	-37.7	-39.5	23.4	6.02e-01	0	57	0	684720128	47	4322
2026-01-02 02:24:52.07	243.67	17.73	-37.7	-39.5	23.3	6.02e-01	0	57	0	686817280	47	4340
2026-01-02 02:24:53.08	243.52	17.62	-37.8	-39.7	23.3	6.00e-01	0	57	0	688390144	47	4408
2026-01-02 02:24:54.09	243.36	17.51	-37.9	-39.8	23.1	6.00e-01	0	57	0	690487296	47	4479
2026-01-02 02:24:55.10	243.21	17.40	-38.0	-39.9	23.0	6.00e-01	0	57	0	692584448	47	4507
2026-01-02 02:24:56.11	243.06	17.29	-37.9	-39.9	23.0	6.02e-01	0	57	0	694157312	47	4504
2026-01-02 02:24:57.12	242.91	17.18	-37.9	-39.8	23.1	5.98e-01	0	57	0	696254464	47	4467
2026-01-02 02:24:58.13	242.76	17.07	-37.8	-39.7	23.2	6.01e-01	0	57	0	697827328	47	4404
2026-01-02 02:24:59.14	242.61	16.96	-37.7	-39.5	23.3	6.01e-01	0	57	0	699924480	47	4314
2026-01-02 02:25:00.15	242.47	16.85	-37.7	-39.5	23.3	6.00e-01	0	57	0	702021632	47	4335
2026-01-02 02:25:01.16	242.32	16.74	-37.8	-39.7	23.2	6.02e-01	0	57	0	703594496	47	4407
2026-01-02 02:25:02.18	242.18	16.63	-37.9	-39.8	23.1	6.00e-01	0	57	0	705691648	47	4468
2026-01-02 02:25:03.18	242.04	16.53	-38.0	-39.9	23.0	6.04e-01	0	57	0	707264512	47	4525
2026-01-02 02:25:04.19	241.89	16.42	-37.9	-39.9	23.0	6.03e-01	0	57	0	709361664	47	4501
2026-01-02 02:25:05.20	241.75	16.31	-37.9	-39.8	23.1	5.97e-01	0	57	0	711458816	47	4455
2026-01-02 02:25:06.21	241.61	16.21	-37.8	-39.7	23.1	6.02e-01	0	57	0	713031680	47	4435
2026-01-02 02:25:07.22	241.48	16.10	-37.8	-39.7	23.2	6.01e-01	0	57	0	715128832	47	4419
2026-01-02 02:25:08.23	241.34	15.99	-37.8	-39.7	23.2	6.02e-01	0	57	0	716701696	47	4393
2026-01-02 02:25:09.24	241.20	15.89	-37.9	-39.8	23.1	6.00e-01	0	57	0	718798848	47	4442
2026-01-02 02:25:10.25	241.07	15.78	-37.9	-39.8	23.0	6.01e-01	0	57	0	720896000	47	4481
2026-01-02 02:25:11.26	240.93	15.68	-37.9	-39.9	23.0	6.02e-01	0	57	0	722468864	47	4504
2026-01-02 02:25:12.27	240.80	15.58	-37.9	-39.9	23.0	6.00e-01	0	57	0	724566016	47	4500
2026-01-02 02:25:13.28	240.67	15.47	-37.9	-39.8	23.0	5.99e-01	0	57	0	726138880	47	4488
2026-01-02 02:25:14.29	240.53	15.37	-37.9	-39.9	23.0	6.02e-01	0	57	0	728236032	47	4500
2026-01-02 02:25:15.30	240.40	15.26	-37.9	-39.9	23.0	6.02e-01	0	57	0	730333184	47	4504
2026-01-02 02:25:16.31	240.28	15.16	-37.9	-39.8	23.1	6.03e-01	0	57	0	731906048	47	4443
2026-01-02 02:25:17.32	240.15	15.06	-37.8	-39.7	23.1	6.01e-01	0	57	0	734003200	47	4438
2026-01-02 02:25:18.33	240.02	14.96	-37.9	-39.8	23.0	6.00e-01	0	57	0	735576064	47	4484
2026-01-02 02:25:19.34	239.89	14.85	-37.9	-39.9	23.0	6.00e-01	0	57	0	737673216	47	4506
2026-01-02 02:25:20.34	239.77	14.75	-38.0	-39.9	22.9	6.01e-01	0	57	0	739770368	47	4519
2026-01-02 02:25:21.35	239.64	14.65	-38.0	-39.9	22.9	5.99e-01	0	57	0	741343232	47	4544
2026-01-02 02:25:22.36	239.52	14.55	-38.1	-40.0	22.8	6.03e-01	0	57	0	743440384	47	4598
2026-01-02 02:25:23.37	239.40	14.45	-38.1	-40.1	22.7	5.98e-01	0	57	0	745537536	47	4611
2026-01-02 02:25:24.38	239.27	14.35	-38.1	-40.1	22.6	6.01e-01	0	57	0	747110400	47	4645
2026-01-02 02:25:25.39	239.15	14.25	-38.1	-40.1	22.7	6.01e-01	0	57	0	749207552	47	4625
2026-01-02 02:25:26.40	239.03	14.15	-38.1	-40.1	22.7	6.03e-01	0	57	0	750780416	47	4632
2026-01-02 02:25:27.41	238.91	14.05	-38.1	-40.1	22.7	6.00e-01	0	57	0	752877568	47	4637
2026-01-02 02:25:28.42	238.80	13.95	-38.1	-40.0	22.7	5.99e-01	0	57	0	754974720	47	4597
2026-01-02 02:25:29.43	238.68	13.85	-38.0	-39.9	22.9	6.00e-01	0	57	0	756547584	47	4530
2026-01-02 02:25:30.44	238.56	13.76	-38.0	-39.9	22.9	6.01e-01	0	57	0	758644736	47	4512
2026-01-02 02:25:31.45	238.45	13.66	-37.9	-39.8	23.0	5.99e-01	0	57	0	760741888	47	4459
2026-01-02 02:25:32.46	238.33	13.56	-37.9	-39.8	23.0	6.00e-01	0	57	0	762314752	47	4489
2026-01-02 02:25:33.47	238.22	13.46	-37.9	-39.8	23.0	6.00e-01	0	57	0	764411904	47	4479
2026-01-02 02:25:34.48	238.10	13.37	-38.0	-40.0	22.8	6.02e-01	0	57	0	765984768	47	4577
2026-01-02 02:25:35.49	237.99	13.27	-38.1	-40.1	22.7	6.00e-01	0	57	0	768081920	47	4638
2026-01-02 02:25:36.50	237.88	13.17	-38.3	-40.3	22.5	6.02e-01	0	57	0	770179072	47	4733
2026-01-02 02:25:37.51	237.77	13.08	-38.4	-40.4	22.3	6.01e-01	0	57	0	771751936	47	4813
2026-01-02 02:25:38.52	237.66	12.98	-38.4	-40.4	22.3	6.02e-01	0	57	0	773849088	47	4798
2026-01-02 02:25:39.53	237.55	12.89	-38.3	-40.4	22.4	6.02e-01	0	57	0	775421952	47	4769
2026-01-02 02:25:40.54	237.44	12.79	-38.3	-40.3	22.4	6.01e-01	0	57	0	777519104	47	4738
2026-01-02 02:25:41.55	237.33	12.70	-38.2	-40.2	22.5	6.00e-01	0	57	0	779616256	47	4669
2026-01-02 02:25:42.56	237.22	12.60	-38.2	-40.2	22.6	6.00e-01	0	57	0	781189120	47	4654
2026-01-02 02:25:43.57	237.12	12.51	-38.1	-40.1	22.7	5.99e-01	0	57	0	783286272	47	4616
2026-01-02 02:25:44.58	237.01	12.41	-38.1	-40.1	22.7	6.02e-01	0	57	0	784859136	47	4615
2026-01-02 02:25:45.58	236.91	12.32	-38.1	-40.1	22.6	6.03e-01	0	57	0	786956288	47	4649
2026-01-02 02:25:46.59	236.80	12.23	-38.1	-40.1	22.6	5.99e-01	0	57	0	789053440	47	4620
2026-01-02 02:25:47.60	236.70	12.13	-38.2	-40.2	22.5	6.00e-01	0	57	0	790626304	47	4697
2026-01-02 02:25:48.61	236.60	12.04	-38.2	-40.2	22.5	6.00e-01	0	57	0	792723456	47	4696
2026-01-02 02:25:49.62	236.49	11.95	-38.3	-40.3	22.4	5.99e-01	0	57	0	794296320	47	4727
2026-01-02 02:25:50.63	236.39	11.86	-38.2	-40.2	22.5	5.99e-01	0	57	0	796393472	47	4696
2026-01-02 02:25:51.64	236.29	11.77	-38.2	-40.3	22.4	6.01e-01	0	57	0	798490624	47	4710
2026-01-02 02:25:52.65	236.19	11.67	-38.2	-40.2	22.5	6.01e-01	0	57	0	800063488	47	4691
2026-01-02 02:25:53.66	236.09	11.58	-38.2	-40.3	22.4	6.01e-01	0	57	0	802160640	47	4706
2026-01-02 02:25:54.67	235.99	11.49	-38.3	-40.4	22.3	6.00e-01	0	57	0	803733504	47	4789
2026-01-02 02:25:55.68	235.90	11.40	-38.4	-40.4	22.3	6.02e-01	0	57	0	805830656	47	4796
2026-01-02 02:25:56.69	235.80	11.31	-38.4	-40.5	22.2	6.02e-01	0	57	0	807927808	47	4815
2026-01-02 02:25:57.70	235.70	11.22	-38.4	-40.5	22.2	6.01e-01	0	57	0	809500672	47	4829
2026-01-02 02:25:58.71	235.61	11.13	-38.4	-40.5	22.2	5.99e-01	0	57	0	811597824	47	4848
2026-01-02 02:25:59.72	235.51	11.04	-38.6	-40.7	22.0	6.00e-01	0	57	0	813694976	47	4970
2026-01-02 02:26:00.73	235.42	10.95	-38.5	-40.6	22.0	6.01e-01	0	57	0	815267840	47	4926
2026-01-02 02:26:01.74	235.32	10.87	-38.5	-40.6	22.0	6.03e-01	0	57	0	817364992	47	4907
2026-01-02 02:26:02.74	235.23	10.78	-38.5	-40.7	22.0	6.02e-01	0	57	0	818937856	47	4928
2026-01-02 02:26:03.75	235.14	10.69	-38.5	-40.6	22.1	6.00e-01	0	57	0	821035008	47	4896
2026-01-02 02:26:04.76	235.04	10.60	-38.4	-40.6	22.1	6.02e-01	0	57	0	823132160	47	4875
2026-01-02 02:26:05.77	234.95	10.51	-38.5	-40.6	22.0	5.98e-01	0	57	0	824705024	47	4896
2026-01-02 02:26:06.78	234.86	10.43	-38.4	-40.5	22.1	6.00e-01	0	57	0	826802176	47	4862
2026-01-02 02:26:07.79	234.77	10.34	-38.6	-40.8	21.9	6.02e-01	0	57	0	828375040	47	5002
2026-01-02 02:26:08.80	234.68	10.25	-38.5	-40.7	22.0	5.99e-01	0	57	0	830472192	47	4934
2026-01-02 02:26:09.81	234.59	10.17	-38.6	-40.7	21.9	6.00e-01	0	57	0	832569344	47	4973
2026-01-02 02:26:10.82	234.50	10.08	-38.5	-40.7	21.9	6.01e-01	0	57	0	834142208	47	4962
2026-01-02 02:26:11.83	234.41	9.99	-38.6	-40.8	21.9	6.01e-01	0	57	0	836239360	47	4988
2026-01-02 02:26:12.84	234.33	9.91	-38.6	-40.7	21.9	5.98e-01	0	57	0	837812224	47	4973
2026-01-02 02:26:13.84	234.24	9.82	-38.6	-40.8	21.3	6.02e-01	0	57	0	839909376	47	5016
2026-01-02 02:26:14.85	234.15	9.74	-38.5	-40.6	21.9	6.00e-01	0	57	0	842006528	47	4924
2026-01-02 02:26:15.86	234.07	9.65	-38.5	-40.7	21.9	6.00e-01	0	57	0	843579392	47	4941
2026-01-02 02:26:16.87	233.98	9.57	-38.6	-40.8	21.8	5.98e-01	0	57	0	845676544	47	4984
2026-01-02 02:26:17.88	233.90	9.48	-38.5	-40.7	21.8	6.00e-01	0	57	0	847249408	47	4963
2026-01-02 02:26:18.89	233.81	9.40	-38.5	-40.7	21.9	6.02e-01	0	57	0	849346560	47	4958
2026-01-02 02:26:19.90	233.73	9.32	-38.6	-40.8	21.7	5.99e-01	0	57	0	851443712	47	5031
2026-01-02 02:26:20.91	233.65	9.23	-38.6	-40.9	21.7	6.04e-01	0	57	0	853016576	47	5048
2026-01-02 02:26:21.92	233.57	9.15	-38.7	-40.9	21.7	6.00e-01	0	57	0	855113728	47	5056
2026-01-02 02:26:22.93	233.48	9.07	-39.1	-41.4	21.5	6.01e-01	0	57	0	857210880	48	5068
2026-01-02 02:26:23.94	233.40	8.98	-39.1	-41.3	21.6	6.00e-01	0	57	0	858783744	48	5015
2026-01-02 02:26:24.95	233.32	8.90	-39.1	-41.4	21.6	6.00e-01	0	57	0	860880896	48	5045
2026-01-02 02:26:25.96	233.24	8.82	-39.2	-41.5	21.4	6.00e-01	0	57	0	862453760	48	5113
2026-01-02 02:26:26.97	233.16	8.74	-39.2	-41.5	21.4	6.02e-01	0	57	0	864550912	48	5122
2026-01-02 02:26:27.98	233.08	8.65	-39.1	-41.4	21.5	5.99e-01	0	57	0	866648064	48	5065
2026-01-02 02:26:28.99	233.00	8.57	-39.3	-41.6	21.2	6.02e-01	0	57	0	868220928	49	4907
2026-01-02 02:26:30.00	232.92	8.49	-39.2	-41.5	21.4	6.01e-01	0	57	0	870318080	49	4821
2026-01-02 02:26:31.01	232.84	8.41	-39.2	-41.5	21.3	6.02e-01	0	57	0	871890944	49	4852
2026-01-02 02:26:32.02	232.77	8.33	-39.1	-41.4	21.4	6.04e-01	0	57	0	873988096	49	4795
2026-01-02 02:26:33.03	232.69	8.25	-39.2	-41.6	21.3	6.00e-01	0	57	0	876085248	49	4875
2026-01-02 02:26:34.04	232.61	8.17	-39.2	-41.5	21.4	6.01e-01	0	57	0	877658112	49	4824
2026-01-02 02:26:35.05	232.54	8.09	-39.2	-41.5	21.4	6.04e-01	0	57	0	879755264	49	4836
2026-01-02 02:26:36.06	232.46	8.01	-39.2	-41.5	21.3	5.99e-01	0	57	0	881852416	49	4833
2026-01-02 02:26:37.07	232.39	7.93	-45.1	-63.0	3.9	7.48e-01	0	57	104	882900992	60	30598
2026-01-02 02:26:38.08	232.31	7.85	-45.4	-64.1	3.8	7.42e-01	0	57	104	882900992	61	32793
2026-01-02 02:26:39.09	232.24	7.77	-45.5	-64.3	3.8	7.46e-01	0	57	104	882900992	61	33351
2026-01-02 02:26:40.10	232.16	7.69	-45.7	-64.4	3.8	7.46e-01	0	57	104	882900992	61	33951
2026-01-02 02:26:41.11	232.09	7.61	-45.8	-64.5	3.8	7.42e-01	0	57	104	882900992	62	32405
2026-01-02 02:26:42.12	232.02	7.53	-45.8	-64.6	3.8	7.46e-01	0	57	104	882900992	62	32667
2026-01-02 02:26:43.13	231.94	7.46	-45.9	-64.6	3.8	7.44e-01	0	57	104	882900992	62	32833
2026-01-02 02:26:44.15	231.87	7.38	-45.9	-64.6	3.8	7.42e-01	0	57	104	882900992	62	32746
2026-01-02 02:26:45.16	231.80	7.30	-45.9	-64.7	3.8	7.48e-01	0	57	104	882900992	62	33009
2026-01-02 02:26:46.17	231.73	7.22	-45.9	-64.6	3.8	7.43e-01	0	57	104	882900992	62	32906
2026-01-02 02:26:47.18	231.66	7.14	-45.8	-64.6	3.8	7.44e-01	0	57	104	882900992	62	32825
2026-01-02 02:26:48.19	231.59	7.07	-45.8	-64.6	3.8	7.46e-01	0	57	104	882900992	62	32701
2026-01-02 02:26:49.20	231.52	6.99	-45.8	-64.6	3.8	7.44e-01	0	57	104	882900992	62	32627
2026-01-02 02:26:50.21	231.45	6.91	-45.8	-64.5	3.8	7.43e-01	0	57	104	882900992	62	32509
2026-01-02 02:26:51.22	231.38	6.84	-45.8	-64.6	3.8	7.44e-01	0	57	104	882900992	62	32561
2026-01-02 02:26:52.23	231.31	6.76	-45.8	-64.5	3.8	7.45e-01	0	57	104	882900992	62	32539
2026-01-02 02:26:53.24	231.24	6.68	-45.7	-64.5	3.8	7.45e-01	0	57	104	882900992	62	32518
2026-01-02 02:26:54.25	231.17	6.61	-45.7	-64.5	3.8	7.47e-01	0	57	104	882900992	62	32392
2026-01-02 02:26:55.26	231.11	6.53	-45.7	-64.5	3.8	7.47e-01	0	57	104	882900992	62	32403
2026-01-02 02:26:56.27	231.04	6.46	-45.7	-64.5	3.8	7.47e-01	0	57	104	882900992	62	32344
2026-01-02 02:26:57.29	230.97	6.38	-45.7	-64.5	3.8	7.49e-01	0	57	104	882900992	62	32312
2026-01-02 02:26:58.30	230.91	6.31	-45.7	-64.5	3.8	7.45e-01	0	57	104	882900992	62	32300
2026-01-02 02:26:59.31	230.84	6.23	-45.6	-64.5	3.8	7.47e-01	0	57	104	882900992	62	32255
2026-01-02 02:27:00.32	230.77	6.16	-45.6	-64.5	3.8	7.44e-01	0	57	104	882900992	62	32229
2026-01-02 02:27:01.33	230.71	6.08	-45.6	-64.5	3.8	7.44e-01	0	57	104	882900992	62	32259
2026-01-02 02:27:02.34	230.64	6.01	-45.6	-64.5	3.8	7.46e-01	0	57	104	882900992	62	32273
2026-01-02 02:27:03.35	230.58	5.93	-45.6	-64.5	3.8	7.45e-01	0	57	104	882900992	62	32349
2026-01-02 02:27:04.36	230.52	5.86	-45.7	-64.5	3.8	7.41e-01	0	57	104	882900992	62	32303
2026-01-02 02:27:05.37	230.45	5.79	-45.7	-64.5	3.8	7.47e-01	0	57	104	882900992	62	32324
2026-01-02 02:27:06.38	230.39	5.71	-45.7	-64.5	3.8	7.46e-01	0	57	104	882900992	62	32278
2026-01-02 02:27:07.40	230.32	5.64	-45.7	-64.5	3.8	7.42e-01	0	57	104	882900992	62	32321
2026-01-02 02:27:08.41	230.26	5.57	-45.7	-64.5	3.8	7.46e-01	0	57	104	882900992	62	32314
2026-01-02 02:27:09.42	230.20	5.49	-45.7	-64.5	3.8	7.45e-01	0	57	104	882900992	62	32294
2026-01-02 02:27:10.43	230.14	5.42	-45.7	-64.5	3.8	7.46e-01	0	57	104	882900992	62	32310
2026-01-02 02:27:11.44	230.08	5.35	-45.7	-64.5	3.8	7.47e-01	0	57	104	882900992	62	32272
2026-01-02 02:27:12.45	230.01	5.28	-45.7	-64.5	3.8	7.47e-01	0	57	104	882900992	62	32262
2026-01-02 02:27:13.46	229.95	5.21	-45.7	-64.5	3.8	7.45e-01	0	57	104	882900992	62	32337
2026-01-02 02:27:14.47	229.89	5.13	-45.7	-64.5	3.8	7.46e-01	0	57	104	882900992	62	32252
2026-01-02 02:27:15.48	229.83	5.06	-45.7	-64.5	3.8	7.43e-01	0	57	104	882900992	62	32199
2026-01-02 02:27:16.49	229.77	4.99	-45.7	-64.5	3.8	7.45e-01	0	57	104	882900992	62	32215
2026-01-02 02:27:17.50	229.71	4.92	-45.7	-64.5	3.8	7.44e-01	0	58	104	882900992	62	32196
2026-01-02 02:27:18.52	229.65	4.85	-45.7	-64.5	3.8	7.46e-01	0	57	104	882900992	62	32228
2026-01-02 02:27:19.53	229.59	4.78	-45.7	-64.5	3.8	7.45e-01	0	57	104	882900992	62	32206
2026-01-02 02:27:20.54	229.54	4.71	-45.7	-64.5	3.8	7.45e-01	0	58	104	882900992	62	32195
2026-01-02 02:27:21.55	229.48	4.63	-45.7	-64.5	3.8	7.46e-01	0	57	104	882900992	62	32207
2026-01-02 02:27:22.56	229.42	4.56	-45.7	-64.5	3.8	7.45e-01	0	57	104	882900992	62	32256
2026-01-02 02:27:23.57	229.36	4.49	-45.7	-64.5	3.8	7.47e-01	0	57	104	882900992	62	32255
2026-01-02 02:27:24.58	229.30	4.42	-45.7	-64.5	3.8	7.43e-01	0	58	104	882900992	62	32264
2026-01-02 02:27:25.59	229.25	4.35	-45.7	-64.5	3.8	7.48e-01	0	57	104	882900992	62	32245
2026-01-02 02:27:26.60	229.19	4.28	-45.7	-64.5	3.8	7.47e-01	0	57	104	882900992	62	32212
2026-01-02 02:27:27.62	229.13	4.21	-45.7	-64.5	3.8	7.43e-01	0	58	104	882900992	62	32233
2026-01-02 02:27:28.63	229.08	4.15	-45.7	-64.5	3.8	7.45e-01	0	57	104	882900992	62	32200
2026-01-02 02:27:29.64	229.02	4.08	-45.7	-64.5	3.8	7.42e-01	0	57	104	882900992	62	32235
2026-01-02 02:27:30.65	228.97	4.01	-45.7	-64.5	3.8	7.45e-01	0	58	104	882900992	62	32265
2026-01-02 02:27:31.66	228.91	3.94	-45.7	-64.5	3.8	7.43e-01	0	58	104	882900992	62	32259
2026-01-02 02:27:32.67	228.86	3.87	-45.7	-64.5	3.8	7.47e-01	0	57	104	882900992	62	32286
2026-01-02 02:27:33.68	228.80	3.80	-45.7	-64.5	3.8	7.47e-01	0	57	104	882900992	62	32225
2026-01-02 02:27:34.69	228.75	3.73	-45.7	-64.5	3.8	7.44e-01	0	58	104	882900992	62	32245
2026-01-02 02:27:35.70	228.69	3.67	-45.7	-64.5	3.8	7.47e-01	0	57	104	882900992	62	32221
2026-01-02 02:27:36.71	228.64	3.60	-45.7	-64.5	3.8	7.47e-01	0	57	104	882900992	62	32204
2026-01-02 02:27:37.73	228.59	3.53	-45.7	-64.5	3.8	7.45e-01	0	57	104	882900992	62	32272
