passes_logs/2026/01/02/R2.0S_Moscow/R2.0S_Moscow__20260102_223941_NOAA_20_JPSS-1_rec.log

#Pass ID: 20260102_223941_NOAA 20 (JPSS-1)
#Satellite: NOAA 20 (JPSS-1)
#Configuration: NOAA 20
#almurnet v.1.7.20251203
#Start time: 2026-01-02 22:39:43

#Version: 2.2.20231116
#Station: R2.0S_Moscow
#Location: 37.707566 lon 55.798166 lat
#TLE: 1 43013U 17073A   26002.21975278  .00000202  00000+0  11669-3 0  9999
#TLE: 2 43013  98.7622 303.2950 0001915  57.9213 302.2149 14.19532512420923

#Time	Az	El	Level	Level2	SNR	BER	BlckErr	Temp	State	Recorded	gain1	gain2
2026-01-02 22:39:43.57	21.68	2.13	-42.2	-57.4	3.8	1.49e+00	0	48	0	0	56	20240
2026-01-02 22:39:44.57	21.73	2.19	-42.0	-57.3	3.8	1.49e+00	0	48	104	0	54	22327
2026-01-02 22:39:45.59	21.78	2.25	-42.0	-57.3	3.8	1.49e+00	0	48	104	0	54	22290
2026-01-02 22:39:46.60	21.83	2.31	-42.0	-57.3	3.8	1.49e+00	0	49	104	0	54	22300
2026-01-02 22:39:47.61	21.89	2.37	-41.9	-57.3	3.8	1.49e+00	0	49	104	0	54	22292
2026-01-02 22:39:48.62	21.94	2.44	-42.0	-57.2	3.8	1.49e+00	0	49	104	0	54	22212
2026-01-02 22:39:49.63	21.99	2.50	-41.9	-57.2	3.8	1.49e+00	0	48	104	0	54	22177
2026-01-02 22:39:50.64	22.04	2.56	-42.0	-57.3	3.8	1.49e+00	0	49	104	0	54	22268
2026-01-02 22:39:51.65	22.09	2.62	-42.0	-57.2	3.8	1.49e+00	0	49	104	0	54	22212
2026-01-02 22:39:52.66	22.14	2.68	-42.0	-57.2	3.8	1.49e+00	0	49	104	0	54	22242
2026-01-02 22:39:53.67	22.19	2.74	-42.0	-57.2	3.8	1.49e+00	0	49	104	0	54	22228
2026-01-02 22:39:54.68	22.24	2.80	-42.0	-57.2	3.8	1.49e+00	0	49	104	0	54	22230
2026-01-02 22:39:55.69	22.30	2.86	-42.0	-57.2	3.8	1.49e+00	0	49	104	0	54	22199
2026-01-02 22:39:56.70	22.35	2.93	-42.0	-57.2	3.8	1.49e+00	0	49	104	0	54	22222
2026-01-02 22:39:57.71	22.40	2.99	-42.0	-57.2	3.8	1.49e+00	0	49	104	0	54	22248
2026-01-02 22:39:58.72	22.45	3.05	-42.0	-57.3	3.8	1.49e+00	0	49	104	0	54	22277
2026-01-02 22:39:59.74	22.51	3.11	-42.0	-57.2	3.8	1.49e+00	0	49	104	0	54	22164
2026-01-02 22:40:00.75	22.56	3.18	-42.0	-57.3	3.8	1.49e+00	0	50	104	0	54	22283
2026-01-02 22:40:01.76	22.61	3.24	-42.0	-57.3	3.8	1.49e+00	0	50	104	0	54	22277
2026-01-02 22:40:02.77	22.67	3.30	-41.9	-57.2	3.8	1.49e+00	0	50	104	0	54	22240
2026-01-02 22:40:03.78	22.72	3.36	-42.0	-57.2	3.8	1.49e+00	0	50	104	0	54	22235
2026-01-02 22:40:04.79	22.77	3.43	-42.0	-57.2	3.8	1.49e+00	0	50	104	0	54	22243
2026-01-02 22:40:05.80	22.83	3.49	-42.0	-57.2	3.8	1.49e+00	0	50	104	0	54	22207
2026-01-02 22:40:06.81	22.88	3.55	-42.0	-57.2	3.8	1.49e+00	0	50	104	0	54	22208
2026-01-02 22:40:07.83	22.94	3.62	-42.0	-57.2	3.8	1.49e+00	0	50	104	0	54	22222
2026-01-02 22:40:08.84	22.99	3.68	-41.9	-57.2	3.8	1.49e+00	0	50	104	0	54	22201
2026-01-02 22:40:09.85	23.05	3.74	-42.0	-57.2	3.8	1.49e+00	0	50	104	0	54	22251
2026-01-02 22:40:10.86	23.10	3.81	-42.0	-57.2	3.8	1.49e+00	0	50	104	0	54	22225
2026-01-02 22:40:11.87	23.16	3.87	-41.9	-57.3	3.8	1.49e+00	0	50	104	0	54	22270
2026-01-02 22:40:12.88	23.21	3.93	-42.0	-57.3	3.8	1.49e+00	0	50	104	0	54	22284
2026-01-02 22:40:13.89	23.27	4.00	-42.0	-57.2	3.8	1.49e+00	0	50	104	0	54	22226
2026-01-02 22:40:14.90	23.33	4.06	-42.0	-57.2	3.8	1.49e+00	0	50	104	0	54	22194
2026-01-02 22:40:15.91	23.38	4.13	-42.0	-57.2	3.8	1.49e+00	0	50	104	0	54	22226
2026-01-02 22:40:16.93	23.44	4.19	-41.9	-57.2	3.8	1.49e+00	0	50	104	0	54	22178
2026-01-02 22:40:17.94	23.50	4.25	-42.0	-57.2	3.8	1.49e+00	0	51	104	0	54	22196
2026-01-02 22:40:18.95	23.55	4.32	-42.0	-57.2	3.8	1.49e+00	0	51	104	0	54	22152
2026-01-02 22:40:19.96	23.61	4.38	-41.9	-57.2	3.8	1.49e+00	0	51	104	0	54	22242
2026-01-02 22:40:20.97	23.67	4.45	-42.0	-57.2	3.8	1.49e+00	0	51	104	0	54	22203
2026-01-02 22:40:21.98	23.73	4.51	-41.9	-57.2	3.8	1.49e+00	0	51	104	0	54	22255
2026-01-02 22:40:22.99	23.78	4.58	-42.0	-57.2	3.8	1.49e+00	0	51	104	0	54	22255
2026-01-02 22:40:24.00	23.84	4.64	-42.0	-57.2	3.8	1.49e+00	0	51	104	0	54	22233
2026-01-02 22:40:25.01	23.90	4.71	-42.0	-57.2	3.8	1.49e+00	0	51	104	0	54	22185
2026-01-02 22:40:26.02	23.96	4.78	-42.0	-57.2	3.8	1.49e+00	0	51	104	0	54	22249
2026-01-02 22:40:27.04	24.02	4.84	-41.9	-57.2	3.8	1.49e+00	0	51	104	0	54	22225
2026-01-02 22:40:28.05	24.08	4.91	-42.0	-57.2	3.8	1.49e+00	0	51	104	0	54	22188
2026-01-02 22:40:29.06	24.14	4.97	-42.0	-57.2	3.8	1.49e+00	0	51	104	0	54	22177
2026-01-02 22:40:30.07	24.20	5.04	-42.0	-57.3	3.8	1.49e+00	0	51	104	0	54	22289
2026-01-02 22:40:31.08	24.26	5.11	-42.0	-57.2	3.8	1.49e+00	0	51	104	0	54	22179
2026-01-02 22:40:32.09	24.32	5.17	-42.0	-57.2	3.8	1.49e+00	0	51	104	0	54	22212
2026-01-02 22:40:33.10	24.38	5.24	-41.9	-57.2	3.8	1.49e+00	0	51	104	0	54	22200
2026-01-02 22:40:34.11	24.44	5.31	-41.9	-57.2	3.8	1.49e+00	0	51	104	0	54	22176
2026-01-02 22:40:35.12	24.50	5.37	-42.0	-57.2	3.8	1.49e+00	0	52	104	0	54	22234
2026-01-02 22:40:36.13	24.56	5.44	-41.9	-57.2	3.8	1.49e+00	0	52	104	0	54	22148
2026-01-02 22:40:37.15	24.62	5.51	-42.0	-57.2	3.8	1.49e+00	0	52	104	0	54	22180
2026-01-02 22:40:38.16	24.68	5.57	-42.0	-57.2	3.8	1.49e+00	0	52	104	0	54	22151
2026-01-02 22:40:39.17	24.75	5.64	-41.9	-57.2	3.8	1.49e+00	0	52	104	0	54	22225
2026-01-02 22:40:40.18	24.81	5.71	-42.0	-57.2	3.8	1.49e+00	0	52	104	0	54	22164
2026-01-02 22:40:41.19	24.87	5.78	-41.9	-57.2	3.8	1.49e+00	0	52	104	0	54	22222
2026-01-02 22:40:42.20	24.93	5.84	-42.0	-57.2	3.8	1.49e+00	0	52	104	0	54	22179
2026-01-02 22:40:43.21	25.00	5.91	-42.0	-57.2	3.8	1.49e+00	0	52	104	0	54	22188
2026-01-02 22:40:44.22	25.06	5.98	-42.0	-57.3	3.8	1.49e+00	0	52	104	0	54	22264
2026-01-02 22:40:45.23	25.12	6.05	-41.9	-57.2	3.8	1.49e+00	0	52	104	0	54	22195
2026-01-02 22:40:46.24	25.19	6.12	-41.9	-57.2	3.8	1.49e+00	0	52	104	0	54	22207
2026-01-02 22:40:47.25	25.25	6.19	-41.9	-57.2	3.8	1.49e+00	0	52	104	0	54	22193
2026-01-02 22:40:48.27	25.32	6.26	-41.9	-57.2	3.8	1.49e+00	0	52	104	0	54	22163
2026-01-02 22:40:49.28	25.38	6.32	-41.9	-57.2	3.8	1.49e+00	0	52	104	0	54	22226
2026-01-02 22:40:50.29	25.45	6.39	-42.0	-57.2	3.8	1.49e+00	0	52	104	0	54	22161
2026-01-02 22:40:51.30	25.51	6.46	-42.0	-57.2	3.8	1.49e+00	0	52	104	0	54	22148
2026-01-02 22:40:52.31	25.58	6.53	-42.0	-57.2	3.8	1.49e+00	0	52	104	0	54	22128
2026-01-02 22:40:53.32	25.64	6.60	-42.0	-57.2	3.8	1.49e+00	0	52	104	0	54	22094
2026-01-02 22:40:54.33	25.71	6.67	-42.0	-57.2	3.8	1.49e+00	0	52	104	0	54	22054
2026-01-02 22:40:55.35	25.78	6.74	-41.9	-57.2	3.8	1.49e+00	0	52	104	0	54	22127
2026-01-02 22:40:56.36	25.84	6.81	-41.9	-57.2	3.8	1.49e+00	0	52	104	0	54	22074
2026-01-02 22:40:57.37	25.91	6.88	-41.9	-57.2	3.8	1.49e+00	0	53	104	0	54	22096
2026-01-02 22:40:58.38	25.98	6.95	-42.0	-57.2	3.8	1.49e+00	0	53	104	0	54	22011
2026-01-02 22:40:59.39	26.04	7.02	-41.9	-57.1	3.8	1.49e+00	0	53	104	0	54	21760
2026-01-02 22:41:00.40	26.11	7.09	-42.0	-56.8	3.8	1.49e+00	0	53	104	0	54	21204
2026-01-02 22:41:01.41	26.18	7.16	-41.9	-56.5	3.8	1.49e+00	0	53	104	0	54	20354
2026-01-02 22:41:02.43	26.25	7.24	-41.9	-55.9	3.8	1.49e+00	0	53	104	0	54	19056
2026-01-02 22:41:03.44	26.32	7.31	-41.9	-55.3	3.8	1.49e+00	0	53	104	0	54	17847
2026-01-02 22:41:04.45	26.39	7.38	-41.8	-54.5	3.9	1.49e+00	0	53	104	0	54	16228
2026-01-02 22:41:05.46	26.46	7.45	-41.7	-53.0	4.4	1.34e+00	67	53	0	0	54	13684
2026-01-02 22:41:06.47	26.53	7.52	-41.5	-51.2	5.2	7.48e-01	0	53	0	1048576	54	11124
2026-01-02 22:41:07.48	26.60	7.59	-41.2	-49.1	6.8	3.58e-01	0	53	0	3145728	54	8747
2026-01-02 22:41:08.49	26.67	7.67	-40.7	-47.2	8.6	5.39e-02	0	53	0	5242880	53	7446
2026-01-02 22:41:09.50	26.74	7.74	-40.3	-45.7	10.2	1.12e-02	0	53	0	7340032	52	6612
2026-01-02 22:41:10.51	26.81	7.81	-40.0	-44.7	11.3	2.40e-03	0	53	0	9437184	51	6272
2026-01-02 22:41:11.52	26.88	7.88	-39.7	-44.0	12.1	5.63e-04	0	53	0	11534336	51	5750
2026-01-02 22:41:12.53	26.95	7.96	-39.4	-43.5	12.7	1.21e-04	0	53	0	12582912	50	5725
2026-01-02 22:41:13.54	27.02	8.03	-39.3	-43.3	12.9	4.88e-05	0	53	0	14680064	50	5607
2026-01-02 22:41:14.55	27.10	8.10	-40.1	-44.1	12.6	9.84e-05	0	53	0	16777216	50	6172
2026-01-02 22:41:15.56	27.17	8.17	-41.3	-49.8	6.7	1.06e-02	0	53	0	18874368	53	10029
2026-01-02 22:41:16.57	27.24	8.25	-40.8	-46.0	9.7	1.49e+00	0	53	104	18874368	53	6457
2026-01-02 22:41:17.58	27.32	8.32	-41.1	-45.0	12.0	3.20e-04	0	53	0	19922944	52	6117
2026-01-02 22:41:18.59	27.39	8.40	-40.3	-43.8	13.3	4.12e-04	0	53	0	22020096	52	5327
2026-01-02 22:41:19.60	27.46	8.47	-40.8	-45.1	11.4	7.71e-02	0	53	0	24117248	53	5801
2026-01-02 22:41:20.61	27.54	8.54	-40.3	-43.6	13.4	1.37e-05	0	53	0	25165824	52	5215
2026-01-02 22:41:21.62	27.61	8.62	-40.2	-43.4	13.6	1.06e-05	0	53	0	27262976	52	5097
2026-01-02 22:41:22.63	27.69	8.69	-40.1	-43.3	13.8	3.00e-06	0	53	0	29360128	52	5026
2026-01-02 22:41:23.64	27.76	8.77	-40.1	-43.3	13.8	2.20e-06	0	54	0	31457280	52	4991
2026-01-02 22:41:24.65	27.84	8.84	-40.1	-43.2	14.0	7.00e-07	0	53	0	33554432	52	4934
2026-01-02 22:41:25.66	27.92	8.92	-40.0	-43.0	14.2	3.00e-06	0	54	0	34603008	52	4826
2026-01-02 22:41:26.67	27.99	8.99	-40.1	-43.0	14.2	3.00e-06	0	53	0	36700160	51	5159
2026-01-02 22:41:27.68	28.07	9.07	-40.0	-42.9	14.3	1.50e-06	0	54	0	38797312	51	5083
2026-01-02 22:41:28.69	28.15	9.14	-40.0	-43.0	14.3	0.00e+00	0	54	0	40894464	51	5129
2026-01-02 22:41:29.70	28.23	9.22	-39.9	-42.8	14.5	0.00e+00	0	54	0	42991616	51	5004
2026-01-02 22:41:30.71	28.30	9.30	-39.9	-42.8	14.5	0.00e+00	0	54	0	44040192	51	5008
2026-01-02 22:41:31.72	28.38	9.37	-39.8	-42.6	14.7	7.00e-07	0	54	0	46137344	51	4882
2026-01-02 22:41:32.73	28.46	9.45	-39.8	-42.5	14.8	1.50e-06	0	54	0	48234496	51	4862
2026-01-02 22:41:33.74	28.54	9.52	-39.8	-42.5	14.8	0.00e+00	0	54	0	50331648	51	4850
2026-01-02 22:41:34.75	28.62	9.60	-39.7	-42.5	14.8	7.00e-07	0	54	0	52428800	51	4840
2026-01-02 22:41:35.76	28.70	9.68	-39.7	-42.4	14.9	7.00e-07	0	54	0	53477376	51	4806
2026-01-02 22:41:36.77	28.78	9.76	-39.7	-42.4	14.9	0.00e+00	0	54	0	55574528	51	4797
2026-01-02 22:41:37.78	28.86	9.83	-39.7	-42.4	14.9	7.00e-07	0	54	0	57671680	51	4785
2026-01-02 22:41:38.79	28.94	9.91	-39.6	-42.2	15.1	0.00e+00	0	54	0	59768832	51	4701
2026-01-02 22:41:39.80	29.03	9.99	-39.6	-42.2	15.1	0.00e+00	0	54	0	61865984	51	4686
2026-01-02 22:41:40.81	29.11	10.07	-39.5	-42.0	15.3	7.00e-07	0	54	0	62914560	51	4596
2026-01-02 22:41:41.82	29.19	10.14	-39.4	-42.0	15.4	0.00e+00	0	54	0	65011712	50	4853
2026-01-02 22:41:42.83	29.27	10.22	-39.5	-42.1	15.3	0.00e+00	0	54	0	67108864	50	4872
2026-01-02 22:41:43.84	29.36	10.30	-39.4	-41.9	15.5	0.00e+00	0	54	0	69206016	50	4803
2026-01-02 22:41:44.85	29.44	10.38	-39.4	-41.9	15.6	0.00e+00	0	54	0	71303168	50	4764
2026-01-02 22:41:45.86	29.53	10.46	-39.3	-41.8	15.6	0.00e+00	0	54	0	73400320	50	4744
2026-01-02 22:41:46.87	29.61	10.54	-39.3	-41.7	15.7	0.00e+00	0	54	0	74448896	50	4695
2026-01-02 22:41:47.88	29.70	10.62	-39.3	-41.8	15.7	0.00e+00	0	54	0	76546048	50	4718
2026-01-02 22:41:48.89	29.78	10.70	-39.3	-41.7	15.7	0.00e+00	0	54	0	78643200	50	4696
2026-01-02 22:41:49.90	29.87	10.78	-39.4	-41.8	15.7	0.00e+00	0	54	0	80740352	50	4744
2026-01-02 22:41:50.91	29.95	10.86	-39.4	-41.8	15.7	0.00e+00	0	54	0	82837504	50	4740
2026-01-02 22:41:51.92	30.04	10.94	-39.4	-41.8	15.7	0.00e+00	0	54	0	83886080	50	4742
2026-01-02 22:41:52.93	30.13	11.02	-39.4	-41.8	15.7	0.00e+00	0	54	0	85983232	50	4736
2026-01-02 22:41:53.94	30.22	11.10	-39.3	-41.7	15.8	0.00e+00	0	54	0	88080384	50	4691
2026-01-02 22:41:54.95	30.31	11.18	-39.4	-41.8	15.7	0.00e+00	0	54	0	90177536	50	4713
2026-01-02 22:41:55.96	30.39	11.26	-39.3	-41.7	15.9	0.00e+00	0	54	0	92274688	50	4666
2026-01-02 22:41:56.97	30.48	11.34	-39.2	-41.6	16.0	0.00e+00	0	54	0	93323264	50	4625
2026-01-02 22:41:57.98	30.57	11.42	-39.2	-41.5	16.0	0.00e+00	0	54	0	95420416	50	4598
2026-01-02 22:41:58.99	30.66	11.50	-39.2	-41.5	16.0	0.00e+00	0	54	0	97517568	50	4566
2026-01-02 22:42:00.00	30.75	11.58	-39.1	-41.5	16.1	0.00e+00	0	54	0	99614720	50	4558
2026-01-02 22:42:01.01	30.85	11.67	-39.1	-41.3	16.2	0.00e+00	0	55	0	101711872	50	4487
2026-01-02 22:42:02.01	30.94	11.75	-39.1	-41.5	16.1	0.00e+00	0	54	0	102760448	50	4553
2026-01-02 22:42:03.02	31.03	11.83	-39.2	-41.5	16.1	0.00e+00	0	54	0	104857600	50	4573
2026-01-02 22:42:04.03	31.12	11.91	-39.2	-41.5	16.1	0.00e+00	0	54	0	106954752	50	4584
2026-01-02 22:42:05.04	31.21	12.00	-39.2	-41.6	16.1	0.00e+00	0	54	0	109051904	50	4603
2026-01-02 22:42:06.05	31.31	12.08	-39.1	-41.4	16.2	0.00e+00	0	55	0	111149056	50	4533
2026-01-02 22:42:07.06	31.40	12.16	-39.1	-41.5	16.2	0.00e+00	0	55	0	112197632	50	4547
2026-01-02 22:42:08.07	31.50	12.25	-39.2	-41.5	16.1	0.00e+00	0	55	0	114294784	50	4581
2026-01-02 22:42:09.08	31.59	12.33	-39.1	-41.5	16.2	0.00e+00	0	55	0	116391936	50	4546
2026-01-02 22:42:10.09	31.69	12.41	-39.1	-41.4	16.2	0.00e+00	0	55	0	118489088	50	4530
2026-01-02 22:42:11.10	31.78	12.50	-39.1	-41.4	16.3	0.00e+00	0	55	0	120586240	50	4501
2026-01-02 22:42:12.11	31.88	12.58	-39.1	-41.4	16.2	0.00e+00	0	55	0	121634816	50	4504
2026-01-02 22:42:13.12	31.98	12.67	-39.1	-41.3	16.3	0.00e+00	0	55	0	123731968	50	4484
2026-01-02 22:42:14.13	32.08	12.75	-39.1	-41.4	16.3	0.00e+00	0	55	0	125829120	50	4494
2026-01-02 22:42:15.14	32.17	12.84	-39.0	-41.3	16.4	0.00e+00	0	55	0	127926272	50	4443
2026-01-02 22:42:16.15	32.27	12.92	-39.0	-41.3	16.4	0.00e+00	0	55	0	130023424	50	4454
2026-01-02 22:42:17.16	32.37	13.01	-39.1	-41.4	16.3	0.00e+00	0	55	0	131072000	50	4505
2026-01-02 22:42:18.16	32.47	13.09	-39.0	-41.3	16.4	0.00e+00	0	55	0	133169152	50	4453
2026-01-02 22:42:19.18	32.57	13.18	-39.0	-41.3	16.4	0.00e+00	0	55	0	135266304	50	4443
2026-01-02 22:42:20.18	32.67	13.27	-39.0	-41.2	16.4	0.00e+00	0	55	0	137363456	50	4426
2026-01-02 22:42:21.19	32.77	13.35	-39.0	-41.2	16.4	0.00e+00	0	55	0	139460608	50	4440
2026-01-02 22:42:22.20	32.88	13.44	-38.9	-41.1	16.5	0.00e+00	0	55	0	141557760	49	4650
2026-01-02 22:42:23.21	32.98	13.53	-38.9	-41.1	16.5	0.00e+00	0	55	0	142606336	49	4643
2026-01-02 22:42:24.22	33.08	13.61	-38.9	-41.0	16.6	0.00e+00	0	55	0	144703488	49	4597
2026-01-02 22:42:25.23	33.19	13.70	-38.8	-41.0	16.7	0.00e+00	0	55	0	146800640	49	4555
2026-01-02 22:42:26.24	33.29	13.79	-38.8	-40.9	16.7	0.00e+00	0	55	0	148897792	49	4531
2026-01-02 22:42:27.25	33.40	13.88	-38.7	-40.8	16.8	0.00e+00	0	55	0	150994944	49	4480
2026-01-02 22:42:28.26	33.50	13.96	-38.7	-40.8	16.9	0.00e+00	0	55	0	152043520	49	4451
2026-01-02 22:42:29.27	33.61	14.05	-38.6	-40.7	17.0	0.00e+00	0	55	0	154140672	49	4430
2026-01-02 22:42:30.28	33.72	14.14	-38.7	-40.8	16.9	0.00e+00	0	55	0	156237824	49	4467
2026-01-02 22:42:31.29	33.82	14.23	-38.7	-40.8	16.8	0.00e+00	0	55	0	158334976	49	4484
2026-01-02 22:42:32.30	33.93	14.32	-38.7	-40.8	16.9	0.00e+00	0	55	0	160432128	49	4482
2026-01-02 22:42:33.31	34.04	14.41	-38.8	-40.9	16.8	0.00e+00	0	55	0	161480704	49	4535
2026-01-02 22:42:34.32	34.15	14.50	-38.8	-41.0	16.7	0.00e+00	0	55	0	163577856	49	4560
2026-01-02 22:42:35.33	34.26	14.59	-38.9	-41.0	16.6	0.00e+00	0	55	0	165675008	49	4590
2026-01-02 22:42:36.34	34.37	14.68	-38.9	-41.1	16.6	0.00e+00	0	55	0	167772160	49	4631
2026-01-02 22:42:37.35	34.48	14.77	-39.0	-41.2	16.5	0.00e+00	0	55	0	169869312	49	4701
2026-01-02 22:42:38.36	34.59	14.86	-39.1	-41.3	16.4	0.00e+00	0	55	0	170917888	49	4733
2026-01-02 22:42:39.36	34.71	14.95	-39.1	-41.3	16.4	0.00e+00	0	55	0	173015040	49	4759
2026-01-02 22:42:40.37	34.82	15.04	-39.1	-41.3	16.4	0.00e+00	0	55	0	175112192	49	4756
2026-01-02 22:42:41.38	34.93	15.13	-39.1	-41.3	16.4	0.00e+00	0	55	0	177209344	49	4752
2026-01-02 22:42:42.39	35.05	15.22	-39.2	-41.5	16.3	0.00e+00	0	55	0	179306496	49	4817
2026-01-02 22:42:43.40	35.16	15.31	-39.2	-41.5	16.2	0.00e+00	0	55	0	180355072	49	4857
2026-01-02 22:42:44.41	35.28	15.41	-39.3	-41.6	16.2	0.00e+00	0	55	0	182452224	49	4883
2026-01-02 22:42:45.42	35.40	15.50	-39.3	-41.6	16.2	0.00e+00	0	55	0	184549376	49	4903
2026-01-02 22:42:46.43	35.51	15.59	-39.3	-41.6	16.2	0.00e+00	0	55	0	186646528	49	4893
2026-01-02 22:42:47.44	35.63	15.68	-39.4	-41.8	16.0	0.00e+00	0	55	0	188743680	49	5009
2026-01-02 22:42:48.45	35.75	15.78	-39.5	-41.8	16.0	0.00e+00	0	55	0	189792256	49	5036
2026-01-02 22:42:49.46	35.87	15.87	-39.5	-41.9	15.9	0.00e+00	0	55	0	191889408	49	5095
2026-01-02 22:42:50.47	35.99	15.96	-39.6	-42.0	15.8	0.00e+00	0	55	0	193986560	49	5134
2026-01-02 22:42:51.48	36.11	16.06	-39.6	-42.1	15.7	0.00e+00	0	55	0	196083712	49	5181
2026-01-02 22:42:52.49	36.23	16.15	-39.7	-42.1	15.7	0.00e+00	0	55	0	198180864	50	4923
2026-01-02 22:42:53.50	36.35	16.24	-39.7	-42.2	15.6	0.00e+00	0	55	0	199229440	50	4958
2026-01-02 22:42:54.51	36.48	16.34	-39.8	-42.3	15.6	0.00e+00	0	55	0	201326592	50	4989
2026-01-02 22:42:55.52	36.60	16.43	-39.7	-42.1	15.8	0.00e+00	0	55	0	203423744	50	4899
2026-01-02 22:42:56.53	36.73	16.53	-39.7	-42.2	15.7	0.00e+00	0	55	0	205520896	50	4938
2026-01-02 22:42:57.54	36.85	16.62	-39.6	-42.1	15.8	0.00e+00	0	55	0	207618048	50	4876
2026-01-02 22:42:58.55	36.98	16.72	-39.6	-41.9	15.9	0.00e+00	0	55	0	209715200	50	4806
2026-01-02 22:42:59.56	37.11	16.81	-39.5	-41.9	16.0	0.00e+00	0	55	0	210763776	50	4780
2026-01-02 22:43:00.57	37.23	16.91	-39.5	-41.9	16.0	0.00e+00	0	55	0	212860928	50	4775
2026-01-02 22:43:01.58	37.36	17.01	-39.5	-41.9	16.0	0.00e+00	0	55	0	214958080	50	4771
2026-01-02 22:43:02.59	37.49	17.10	-39.6	-41.9	16.0	0.00e+00	0	55	0	217055232	50	4799
2026-01-02 22:43:03.60	37.62	17.20	-39.6	-42.0	15.9	0.00e+00	0	56	0	219152384	50	4821
2026-01-02 22:43:04.61	37.75	17.30	-39.7	-42.1	15.8	0.00e+00	0	56	0	220200960	50	4880
2026-01-02 22:43:05.62	37.88	17.39	-39.7	-42.2	15.7	0.00e+00	0	56	0	222298112	50	4928
2026-01-02 22:43:06.63	38.02	17.49	-39.7	-42.2	15.7	0.00e+00	0	56	0	224395264	50	4943
2026-01-02 22:43:07.64	38.15	17.59	-39.8	-42.2	15.7	0.00e+00	0	55	0	226492416	50	4969
2026-01-02 22:43:08.65	38.28	17.69	-39.8	-42.3	15.7	0.00e+00	0	55	0	228589568	50	4986
2026-01-02 22:43:09.66	38.42	17.78	-39.8	-42.2	15.7	0.00e+00	0	56	0	229638144	50	4979
2026-01-02 22:43:10.66	38.55	17.88	-39.8	-42.3	15.6	0.00e+00	0	55	0	231735296	50	5020
2026-01-02 22:43:11.67	38.69	17.98	-39.8	-42.3	15.6	0.00e+00	0	55	0	233832448	50	4997
2026-01-02 22:43:12.68	38.83	18.08	-39.8	-42.3	15.7	0.00e+00	0	55	0	235929600	50	4989
2026-01-02 22:43:13.69	38.97	18.18	-39.8	-42.3	15.6	0.00e+00	0	55	0	238026752	50	5024
2026-01-02 22:43:14.70	39.11	18.28	-39.8	-42.3	15.6	0.00e+00	0	56	0	239075328	50	4994
2026-01-02 22:43:15.71	39.25	18.38	-39.8	-42.3	15.7	0.00e+00	0	56	0	241172480	50	5001
2026-01-02 22:43:16.72	39.39	18.48	-39.8	-42.3	15.7	0.00e+00	0	56	0	243269632	50	4984
2026-01-02 22:43:17.73	39.53	18.58	-39.8	-42.2	15.7	0.00e+00	0	56	0	245366784	50	4982
2026-01-02 22:43:18.74	39.67	18.68	-39.8	-42.3	15.7	0.00e+00	0	56	0	247463936	50	4999
2026-01-02 22:43:19.75	39.82	18.78	-39.8	-42.2	15.6	0.00e+00	0	56	0	248512512	50	4982
2026-01-02 22:43:20.76	39.96	18.88	-39.8	-42.3	15.7	0.00e+00	0	56	0	250609664	50	4984
2026-01-02 22:43:21.77	40.11	18.98	-39.8	-42.2	15.7	0.00e+00	0	56	0	252706816	50	4972
2026-01-02 22:43:22.78	40.26	19.08	-39.7	-42.1	15.8	0.00e+00	0	56	0	254803968	50	4921
2026-01-02 22:43:23.79	40.40	19.18	-39.7	-42.1	15.8	0.00e+00	0	56	0	256901120	50	4916
2026-01-02 22:43:24.80	40.55	19.28	-39.6	-41.9	16.0	0.00e+00	0	56	0	257949696	50	4812
2026-01-02 22:43:25.81	40.70	19.38	-39.6	-41.9	16.1	0.00e+00	0	56	0	260046848	50	4786
2026-01-02 22:43:26.82	40.85	19.49	-39.5	-41.8	16.1	0.00e+00	0	56	0	262144000	50	4742
2026-01-02 22:43:27.83	41.00	19.59	-39.5	-41.8	16.2	0.00e+00	0	56	0	264241152	50	4719
2026-01-02 22:43:28.83	41.15	19.69	-39.4	-41.7	16.3	0.00e+00	0	56	0	266338304	50	4684
2026-01-02 22:43:29.84	41.31	19.79	-39.5	-41.7	16.2	0.00e+00	0	56	0	267386880	50	4701
2026-01-02 22:43:30.85	41.46	19.90	-39.4	-41.7	16.3	0.00e+00	0	56	0	269484032	50	4691
2026-01-02 22:43:31.86	41.62	20.00	-39.4	-41.6	16.3	0.00e+00	0	56	0	271581184	50	4644
2026-01-02 22:43:32.87	41.77	20.10	-39.5	-41.7	16.2	0.00e+00	0	56	0	273678336	50	4704
2026-01-02 22:43:33.88	41.93	20.21	-39.5	-41.7	16.2	0.00e+00	0	56	0	275775488	50	4696
2026-01-02 22:43:34.89	42.09	20.31	-39.4	-41.6	16.3	0.00e+00	0	56	0	277872640	50	4635
2026-01-02 22:43:35.90	42.25	20.42	-39.3	-41.6	16.4	0.00e+00	0	56	0	278921216	50	4617
2026-01-02 22:43:36.91	42.41	20.52	-39.3	-41.5	16.5	0.00e+00	0	56	0	281018368	50	4576
2026-01-02 22:43:37.92	42.57	20.62	-39.2	-41.4	16.6	0.00e+00	0	56	0	283115520	50	4495
2026-01-02 22:43:38.93	42.74	20.73	-39.1	-41.3	16.7	0.00e+00	0	56	0	285212672	50	4450
2026-01-02 22:43:39.94	42.90	20.83	-39.1	-41.3	16.7	0.00e+00	0	56	0	287309824	50	4443
2026-01-02 22:43:40.95	43.07	20.94	-39.1	-41.3	16.8	0.00e+00	0	56	0	288358400	50	4453
2026-01-02 22:43:41.96	43.23	21.05	-39.2	-41.3	16.7	0.00e+00	0	56	0	290455552	50	4473
2026-01-02 22:43:42.97	43.40	21.15	-39.1	-41.3	16.7	0.00e+00	0	56	0	292552704	50	4455
2026-01-02 22:43:43.98	43.57	21.26	-39.1	-41.3	16.7	0.00e+00	0	56	0	294649856	50	4467
2026-01-02 22:43:44.99	43.74	21.36	-39.1	-41.3	16.8	0.00e+00	0	56	0	296747008	50	4442
2026-01-02 22:43:46.00	43.91	21.47	-39.1	-41.2	16.8	0.00e+00	0	56	0	297795584	50	4406
2026-01-02 22:43:47.01	44.08	21.58	-38.9	-41.0	17.0	0.00e+00	0	56	0	299892736	49	4566
2026-01-02 22:43:48.02	44.25	21.68	-38.8	-40.9	17.1	0.00e+00	0	56	0	301989888	49	4497
2026-01-02 22:43:49.03	44.43	21.79	-38.7	-40.8	17.2	0.00e+00	0	56	0	304087040	49	4443
2026-01-02 22:43:50.04	44.60	21.90	-38.6	-40.6	17.4	0.00e+00	0	56	0	306184192	49	4355
2026-01-02 22:43:51.05	44.78	22.00	-38.6	-40.5	17.5	0.00e+00	0	56	0	307232768	49	4319
2026-01-02 22:43:52.06	44.96	22.11	-38.5	-40.4	17.6	0.00e+00	0	56	0	309329920	49	4273
2026-01-02 22:43:53.07	45.14	22.22	-38.5	-40.5	17.6	0.00e+00	0	56	0	311427072	48	4551
2026-01-02 22:43:54.08	45.32	22.33	-38.5	-40.4	17.6	0.00e+00	0	56	0	313524224	48	4535
2026-01-02 22:43:55.09	45.50	22.43	-38.5	-40.5	17.6	0.00e+00	0	56	0	315621376	48	4555
2026-01-02 22:43:56.10	45.68	22.54	-38.5	-40.5	17.6	0.00e+00	0	56	0	316669952	48	4572
2026-01-02 22:43:57.11	45.86	22.65	-38.5	-40.5	17.6	0.00e+00	0	56	0	318767104	48	4567
2026-01-02 22:43:58.12	46.05	22.76	-38.5	-40.4	17.6	0.00e+00	0	56	0	320864256	48	4544
2026-01-02 22:43:59.13	46.24	22.87	-38.5	-40.4	17.7	0.00e+00	0	56	0	322961408	48	4517
2026-01-02 22:44:00.14	46.42	22.98	-38.4	-40.3	17.8	0.00e+00	0	56	0	325058560	48	4464
2026-01-02 22:44:01.15	46.61	23.09	-38.3	-40.2	17.9	0.00e+00	0	56	0	326107136	48	4405
2026-01-02 22:44:02.16	46.80	23.19	-38.2	-40.0	18.1	0.00e+00	0	56	0	328204288	48	4311
2026-01-02 22:44:03.17	46.99	23.30	-38.1	-39.9	18.1	0.00e+00	0	56	0	330301440	48	4277
2026-01-02 22:44:04.17	47.18	23.41	-38.1	-39.9	18.2	0.00e+00	0	56	0	332398592	48	4258
2026-01-02 22:44:05.18	47.38	23.52	-38.0	-39.8	18.2	0.00e+00	0	56	0	334495744	48	4220
2026-01-02 22:44:06.20	47.58	23.63	-37.9	-39.8	18.2	0.00e+00	0	56	0	335544320	47	4444
2026-01-02 22:44:07.21	47.77	23.74	-37.9	-39.6	18.3	0.00e+00	0	56	0	337641472	47	4390
2026-01-02 22:44:08.22	47.97	23.85	-37.9	-39.7	18.2	0.00e+00	0	56	0	339738624	47	4416
2026-01-02 22:44:09.22	48.17	23.96	-37.8	-39.5	18.4	0.00e+00	0	56	0	341835776	47	4335
2026-01-02 22:44:10.23	48.37	24.07	-37.8	-39.5	18.4	0.00e+00	0	56	0	343932928	47	4335
2026-01-02 22:44:11.24	48.57	24.18	-37.7	-39.5	18.4	0.00e+00	0	56	0	346030080	47	4318
2026-01-02 22:44:12.25	48.78	24.29	-37.7	-39.5	18.4	0.00e+00	0	56	0	347078656	47	4293
2026-01-02 22:44:13.26	48.98	24.40	-37.6	-39.4	18.5	0.00e+00	0	56	0	349175808	47	4270
2026-01-02 22:44:14.27	49.19	24.51	-37.7	-39.5	18.4	0.00e+00	0	56	0	351272960	47	4294
2026-01-02 22:44:15.28	49.40	24.62	-37.7	-39.5	18.4	0.00e+00	0	56	0	353370112	47	4314
2026-01-02 22:44:16.29	49.60	24.73	-37.8	-39.6	18.3	0.00e+00	0	56	0	355467264	47	4360
2026-01-02 22:44:17.30	49.82	24.85	-38.0	-39.8	18.1	0.00e+00	0	56	0	356515840	47	4475
2026-01-02 22:44:18.31	50.03	24.96	-38.1	-39.9	18.0	0.00e+00	0	56	0	358612992	47	4540
2026-01-02 22:44:19.32	50.24	25.07	-38.2	-40.1	17.8	0.00e+00	0	56	0	360710144	47	4625
2026-01-02 22:44:20.33	50.46	25.18	-38.3	-40.2	17.7	0.00e+00	0	56	0	362807296	47	4683
2026-01-02 22:44:21.34	50.67	25.29	-38.3	-40.2	17.7	0.00e+00	0	56	0	364904448	47	4705
2026-01-02 22:44:22.35	50.89	25.40	-38.3	-40.2	17.8	0.00e+00	0	56	0	365953024	47	4684
2026-01-02 22:44:23.36	51.11	25.51	-38.2	-40.1	17.8	0.00e+00	0	56	0	368050176	47	4619
2026-01-02 22:44:24.37	51.33	25.62	-38.2	-40.0	17.9	0.00e+00	0	56	0	370147328	47	4587
2026-01-02 22:44:25.38	51.56	25.73	-38.1	-40.0	17.9	0.00e+00	0	56	0	372244480	47	4583
2026-01-02 22:44:26.39	51.78	25.84	-38.3	-40.2	17.8	0.00e+00	0	56	0	374341632	47	4657
2026-01-02 22:44:27.40	52.01	25.96	-38.4	-40.3	17.7	0.00e+00	0	56	0	375390208	47	4743
2026-01-02 22:44:28.41	52.23	26.07	-38.6	-40.6	17.5	0.00e+00	0	56	0	377487360	47	4882
2026-01-02 22:44:29.42	52.46	26.18	-38.7	-40.7	17.3	0.00e+00	0	56	0	379584512	47	4957
2026-01-02 22:44:30.43	52.69	26.29	-38.8	-40.9	17.2	0.00e+00	0	56	0	381681664	48	4768
2026-01-02 22:44:31.44	52.92	26.40	-38.9	-41.0	17.1	0.00e+00	0	56	0	383778816	48	4845
2026-01-02 22:44:32.45	53.16	26.51	-39.0	-41.1	17.0	0.00e+00	0	56	0	384827392	48	4874
2026-01-02 22:44:33.46	53.39	26.62	-39.1	-41.1	17.0	0.00e+00	0	56	0	386924544	48	4926
2026-01-02 22:44:34.46	53.63	26.73	-39.2	-41.3	16.8	0.00e+00	0	56	0	389021696	48	5033
2026-01-02 22:44:35.47	53.87	26.84	-39.3	-41.5	16.6	0.00e+00	0	56	0	391118848	49	4817
2026-01-02 22:44:36.48	54.11	26.95	-39.5	-41.7	16.4	0.00e+00	0	56	0	393216000	49	4972
2026-01-02 22:44:37.49	54.35	27.07	-39.6	-41.9	16.2	0.00e+00	0	56	0	394264576	49	5054
2026-01-02 22:44:38.50	54.59	27.18	-39.6	-41.9	16.2	0.00e+00	0	56	0	396361728	49	5100
2026-01-02 22:44:39.51	54.84	27.29	-39.8	-42.1	16.1	0.00e+00	0	56	0	398458880	50	4908
2026-01-02 22:44:40.52	55.08	27.40	-39.8	-42.2	16.0	0.00e+00	0	57	0	400556032	50	4944
2026-01-02 22:44:41.53	55.33	27.51	-39.9	-42.3	15.9	0.00e+00	0	57	0	402653184	50	4984
2026-01-02 22:44:42.54	55.58	27.62	-39.9	-42.4	15.8	0.00e+00	0	57	0	403701760	50	5042
2026-01-02 22:44:43.55	55.84	27.73	-40.0	-42.4	15.7	0.00e+00	0	56	0	405798912	50	5083
2026-01-02 22:44:44.56	56.09	27.84	-40.1	-42.6	15.5	0.00e+00	0	56	0	407896064	50	5192
2026-01-02 22:44:45.57	56.34	27.95	-40.3	-42.8	15.3	0.00e+00	0	56	0	409993216	51	5035
2026-01-02 22:44:46.58	56.60	28.06	-40.4	-43.0	15.1	0.00e+00	0	56	0	412090368	51	5156
2026-01-02 22:44:47.59	56.86	28.17	-40.4	-43.0	15.0	0.00e+00	0	56	0	414187520	51	5149
2026-01-02 22:44:48.60	57.12	28.28	-40.4	-43.0	15.1	0.00e+00	0	56	0	415236096	51	5109
2026-01-02 22:44:49.61	57.38	28.39	-40.3	-42.9	15.2	0.00e+00	0	56	0	417333248	51	5091
2026-01-02 22:44:50.62	57.65	28.49	-40.3	-42.8	15.3	0.00e+00	0	56	0	419430400	51	5041
2026-01-02 22:44:51.63	57.91	28.60	-40.3	-42.8	15.3	0.00e+00	0	56	0	421527552	51	5025
2026-01-02 22:44:52.63	58.18	28.71	-40.3	-42.9	15.2	0.00e+00	0	57	0	423624704	51	5066
2026-01-02 22:44:53.64	58.45	28.82	-40.6	-43.3	14.9	0.00e+00	0	57	0	424673280	51	5292
2026-01-02 22:44:54.65	58.72	28.93	-40.8	-43.8	14.3	0.00e+00	0	57	0	426770432	52	5295
2026-01-02 22:44:55.66	58.99	29.04	-41.1	-44.3	13.8	7.00e-07	0	56	0	428867584	52	5596
2026-01-02 22:44:56.67	59.27	29.14	-41.4	-44.7	13.4	1.22e-05	0	57	0	430964736	53	5563
2026-01-02 22:44:57.68	59.54	29.25	-41.7	-45.3	12.8	2.82e-05	0	57	0	433061888	53	5937
2026-01-02 22:44:58.69	59.82	29.36	-41.8	-45.5	12.5	7.32e-05	0	57	0	434110464	54	5750
2026-01-02 22:44:59.70	60.10	29.46	-42.0	-45.8	12.2	2.10e-04	0	56	0	436207616	54	5953
2026-01-02 22:45:00.71	60.38	29.57	-42.0	-45.8	12.2	2.46e-04	0	57	0	438304768	54	5991
2026-01-02 22:45:01.72	60.67	29.68	-42.0	-45.9	12.1	2.53e-04	0	57	0	440401920	54	6021
2026-01-02 22:45:02.73	60.95	29.78	-42.0	-45.9	12.1	2.78e-04	0	56	0	442499072	54	6001
2026-01-02 22:45:03.74	61.24	29.89	-42.0	-45.9	12.1	2.61e-04	0	56	0	443547648	54	6035
2026-01-02 22:45:04.75	61.53	29.99	-41.9	-45.7	12.3	1.98e-04	0	56	0	445644800	54	5876
2026-01-02 22:45:05.76	61.82	30.09	-41.9	-45.7	12.2	2.09e-04	0	56	0	447741952	54	5918
2026-01-02 22:45:06.77	62.12	30.20	-42.0	-45.9	12.1	2.11e-04	0	57	0	449839104	54	6025
2026-01-02 22:45:07.78	62.41	30.30	-42.2	-46.2	11.7	4.00e-04	0	56	0	451936256	54	6253
2026-01-02 22:45:08.79	62.71	30.41	-42.3	-46.4	11.6	6.86e-04	0	56	0	452984832	55	6017
2026-01-02 22:45:09.80	63.01	30.51	-42.3	-46.5	11.4	9.35e-04	0	56	0	455081984	55	6106
2026-01-02 22:45:10.80	63.31	30.61	-42.4	-46.7	11.3	1.00e-03	0	56	0	457179136	55	6211
2026-01-02 22:45:11.81	63.61	30.71	-42.4	-46.7	11.2	1.42e-03	0	56	0	459276288	55	6272
2026-01-02 22:45:12.82	63.91	30.81	-42.3	-46.5	11.5	1.00e-03	0	57	0	461373440	55	6101
2026-01-02 22:45:13.83	64.22	30.91	-42.2	-46.2	11.7	6.99e-04	0	57	0	462422016	55	5923
2026-01-02 22:45:14.84	64.53	31.01	-41.9	-45.7	12.3	3.81e-04	0	57	0	464519168	55	5563
2026-01-02 22:45:15.85	64.84	31.11	-41.7	-45.3	12.7	7.85e-05	0	57	0	466616320	55	5330
2026-01-02 22:45:16.87	65.15	31.21	-41.5	-45.0	13.1	4.42e-05	0	57	0	468713472	55	5108
2026-01-02 22:45:17.87	65.46	31.31	-41.4	-44.6	13.4	2.51e-05	0	57	0	470810624	54	5217
2026-01-02 22:45:18.88	65.78	31.41	-41.4	-44.8	13.3	1.37e-05	0	57	0	471859200	54	5284
2026-01-02 22:45:19.89	66.10	31.50	-41.5	-44.8	13.3	2.28e-05	0	57	0	473956352	54	5298
2026-01-02 22:45:20.90	66.42	31.60	-41.4	-44.8	13.2	1.67e-05	0	57	0	476053504	54	5306
2026-01-02 22:45:21.91	66.74	31.70	-41.5	-44.9	13.2	2.51e-05	0	57	0	478150656	54	5355
2026-01-02 22:45:22.92	67.06	31.79	-41.3	-44.5	13.5	1.06e-05	0	57	0	480247808	54	5128
2026-01-02 22:45:23.93	67.39	31.89	-41.2	-44.3	13.8	4.50e-06	0	57	0	482344960	54	4989
2026-01-02 22:45:24.95	67.72	31.98	-40.8	-43.6	14.4	1.50e-06	0	57	0	483393536	53	4923
2026-01-02 22:45:25.96	68.04	32.07	-40.4	-43.1	15.0	0.00e+00	0	57	0	485490688	52	4871
2026-01-02 22:45:26.97	68.38	32.17	-40.2	-42.8	15.3	0.00e+00	0	57	0	487587840	52	4712
2026-01-02 22:45:27.98	68.71	32.26	-40.2	-42.7	15.3	0.00e+00	0	57	0	489684992	52	4705
2026-01-02 22:45:28.98	69.04	32.35	-40.2	-42.8	15.3	0.00e+00	0	57	0	491782144	52	4717
2026-01-02 22:45:29.99	69.38	32.44	-40.4	-43.0	15.1	0.00e+00	0	57	0	492830720	52	4826
2026-01-02 22:45:31.00	69.71	32.53	-40.4	-43.0	15.0	0.00e+00	0	57	0	494927872	52	4852
2026-01-02 22:45:32.02	70.06	32.62	-40.4	-43.0	15.1	0.00e+00	0	57	0	497025024	52	4863
2026-01-02 22:45:33.02	70.40	32.70	-40.4	-43.0	15.1	0.00e+00	0	57	0	499122176	52	4825
2026-01-02 22:45:34.03	70.74	32.79	-40.3	-42.8	15.3	0.00e+00	0	56	0	501219328	52	4743
2026-01-02 22:45:35.04	71.08	32.88	-40.0	-42.5	15.6	0.00e+00	0	57	0	502267904	52	4556
2026-01-02 22:45:36.05	71.43	32.96	-40.0	-42.4	15.8	0.00e+00	0	57	0	504365056	51	4760
2026-01-02 22:45:37.06	71.78	33.04	-39.8	-42.1	16.0	0.00e+00	0	57	0	506462208	51	4631
2026-01-02 22:45:38.07	72.13	33.13	-39.9	-42.3	15.9	0.00e+00	0	57	0	508559360	51	4737
2026-01-02 22:45:39.08	72.48	33.21	-39.9	-42.3	15.9	0.00e+00	0	57	0	510656512	51	4738
2026-01-02 22:45:40.09	72.84	33.29	-40.0	-42.4	15.7	0.00e+00	0	57	0	511705088	51	4806
2026-01-02 22:45:41.10	73.20	33.37	-40.0	-42.4	15.7	0.00e+00	0	57	0	513802240	51	4808
2026-01-02 22:45:42.11	73.55	33.45	-40.0	-42.5	15.7	0.00e+00	0	57	0	515899392	51	4820
2026-01-02 22:45:43.12	73.91	33.53	-40.0	-42.3	15.8	0.00e+00	0	57	0	517996544	51	4750
2026-01-02 22:45:44.13	74.27	33.61	-40.1	-42.6	15.7	0.00e+00	0	57	0	520093696	51	4878
2026-01-02 22:45:45.14	74.64	33.68	-40.4	-43.0	15.2	0.00e+00	0	57	0	521142272	51	5138
2026-01-02 22:45:46.15	75.00	33.76	-40.7	-43.5	14.7	0.00e+00	0	57	0	523239424	51	5415
2026-01-02 22:45:47.16	75.37	33.83	-40.9	-43.8	14.3	7.00e-07	0	57	0	525336576	52	5296
2026-01-02 22:45:48.17	75.74	33.90	-41.0	-43.9	14.2	0.00e+00	0	57	0	527433728	52	5397
2026-01-02 22:45:49.18	76.11	33.97	-41.1	-44.1	14.0	1.50e-06	0	57	0	529530880	52	5497
2026-01-02 22:45:50.19	76.48	34.05	-41.2	-44.3	13.8	3.80e-06	0	57	0	530579456	52	5599
2026-01-02 22:45:51.20	76.85	34.11	-41.4	-44.7	13.3	9.90e-06	0	57	0	532676608	53	5539
2026-01-02 22:45:52.21	77.22	34.18	-41.6	-45.0	13.0	2.82e-05	0	57	0	534773760	53	5785
2026-01-02 22:45:53.22	77.60	34.25	-41.8	-45.4	12.7	3.73e-05	0	57	0	536870912	54	5676
2026-01-02 22:45:54.23	77.98	34.32	-41.8	-45.4	12.6	8.62e-05	0	57	0	538968064	54	5701
2026-01-02 22:45:55.24	78.36	34.38	-41.7	-45.3	12.8	6.02e-05	0	57	0	540016640	54	5602
2026-01-02 22:45:56.25	78.74	34.44	-41.6	-45.1	12.9	4.57e-05	0	57	0	542113792	54	5485
2026-01-02 22:45:57.26	79.12	34.51	-41.5	-44.8	13.2	3.89e-05	0	57	0	544210944	54	5328
2026-01-02 22:45:58.27	79.50	34.57	-41.3	-44.5	13.6	1.44e-05	0	57	0	546308096	54	5126
2026-01-02 22:45:59.28	79.89	34.63	-41.0	-43.9	14.1	1.50e-06	0	57	0	548405248	53	5087
2026-01-02 22:46:00.29	80.27	34.68	-40.9	-43.8	14.2	1.50e-06	0	57	0	550502400	53	5020
2026-01-02 22:46:01.30	80.66	34.74	-40.9	-43.8	14.3	7.00e-07	0	57	0	551550976	53	5019
2026-01-02 22:46:02.31	81.05	34.80	-40.8	-43.6	14.4	0.00e+00	0	57	0	553648128	53	4922
2026-01-02 22:46:03.32	81.44	34.85	-40.7	-43.5	14.5	7.00e-07	0	57	0	555745280	53	4870
2026-01-02 22:46:04.33	81.83	34.90	-40.5	-43.3	14.8	0.00e+00	0	57	0	557842432	53	4720
2026-01-02 22:46:05.34	82.22	34.95	-40.3	-42.9	15.2	7.00e-07	0	57	0	559939584	52	4769
2026-01-02 22:46:06.35	82.62	35.00	-40.2	-42.7	15.4	0.00e+00	0	57	0	560988160	52	4671
2026-01-02 22:46:07.36	83.01	35.05	-40.0	-42.4	15.8	0.00e+00	0	57	0	563085312	51	4773
2026-01-02 22:46:08.37	83.41	35.10	-39.9	-42.2	16.0	0.00e+00	0	57	0	565182464	51	4676
2026-01-02 22:46:09.38	83.80	35.15	-39.8	-42.2	16.0	0.00e+00	0	57	0	567279616	51	4667
2026-01-02 22:46:10.39	84.20	35.19	-40.1	-42.6	15.6	0.00e+00	0	57	0	569376768	51	4871
2026-01-02 22:46:11.40	84.60	35.23	-40.4	-43.0	15.2	0.00e+00	0	57	0	570425344	51	5137
2026-01-02 22:46:12.41	85.00	35.27	-40.6	-43.3	14.8	7.00e-07	0	57	0	572522496	51	5339
2026-01-02 22:46:13.42	85.40	35.31	-40.6	-43.4	14.7	0.00e+00	0	57	0	574619648	52	5076
2026-01-02 22:46:14.42	85.80	35.35	-40.6	-43.4	14.8	0.00e+00	0	57	0	576716800	52	5056
2026-01-02 22:46:15.43	86.20	35.39	-40.5	-43.2	14.9	0.00e+00	0	57	0	578813952	52	4965
2026-01-02 22:46:16.44	86.61	35.42	-40.7	-43.6	14.5	0.00e+00	0	57	0	579862528	52	5174
2026-01-02 22:46:17.45	87.01	35.46	-40.9	-43.9	14.2	0.00e+00	0	57	0	581959680	52	5374
2026-01-02 22:46:18.46	87.42	35.49	-41.2	-44.3	13.8	6.10e-06	0	57	0	584056832	52	5612
2026-01-02 22:46:19.47	87.83	35.52	-41.2	-44.4	13.7	6.10e-06	0	57	0	586153984	53	5361
2026-01-02 22:46:20.48	88.23	35.55	-41.1	-44.1	14.0	4.50e-06	0	57	0	588251136	53	5200
2026-01-02 22:46:21.49	88.64	35.58	-41.1	-44.1	14.0	3.80e-06	0	57	0	589299712	53	5193
2026-01-02 22:46:22.50	89.05	35.60	-41.0	-44.0	14.1	3.80e-06	0	57	0	591396864	53	5120
2026-01-02 22:46:23.51	89.46	35.63	-41.0	-43.9	14.2	1.50e-06	0	57	0	593494016	53	5082
2026-01-02 22:46:24.52	89.87	35.65	-41.1	-44.2	13.8	1.50e-06	0	57	0	595591168	53	5262
2026-01-02 22:46:25.53	90.28	35.67	-41.4	-44.6	13.5	3.80e-06	0	57	0	597688320	53	5506
2026-01-02 22:46:26.54	90.69	35.69	-41.4	-44.7	13.4	1.98e-05	0	57	0	598736896	53	5569
2026-01-02 22:46:27.55	91.10	35.71	-41.3	-44.5	13.6	1.67e-05	0	57	0	600834048	53	5448
2026-01-02 22:46:28.55	91.51	35.73	-41.0	-44.0	14.0	3.00e-06	0	57	0	602931200	53	5153
2026-01-02 22:46:29.56	91.92	35.74	-40.9	-43.8	14.3	1.50e-06	0	57	0	605028352	53	5038
2026-01-02 22:46:30.57	92.34	35.75	-40.7	-43.6	14.5	1.50e-06	0	57	0	607125504	53	4876
2026-01-02 22:46:31.58	92.75	35.77	-40.5	-43.2	14.9	7.00e-07	0	57	0	608174080	53	4698
2026-01-02 22:46:32.59	93.16	35.78	-40.5	-43.1	14.9	0.00e+00	0	57	0	610271232	53	4637
2026-01-02 22:46:33.61	93.58	35.78	-40.4	-43.0	15.1	0.00e+00	0	57	0	612368384	52	4825
2026-01-02 22:46:34.62	93.99	35.79	-40.4	-43.0	15.1	0.00e+00	0	57	0	614465536	52	4840
2026-01-02 22:46:35.63	94.41	35.80	-40.5	-43.1	15.0	0.00e+00	0	57	0	616562688	52	4899
2026-01-02 22:46:36.64	94.82	35.80	-40.6	-43.4	14.7	0.00e+00	0	57	0	618659840	52	5073
2026-01-02 22:46:37.65	95.24	35.80	-40.7	-43.4	14.6	0.00e+00	0	57	0	619708416	52	5098
2026-01-02 22:46:38.66	95.65	35.80	-40.6	-43.3	14.8	0.00e+00	0	57	0	621805568	52	5018
2026-01-02 22:46:39.67	96.07	35.80	-40.4	-43.0	15.1	0.00e+00	0	57	0	623902720	52	4845
2026-01-02 22:46:40.67	96.48	35.80	-40.2	-42.7	15.5	0.00e+00	0	57	0	625999872	52	4674
2026-01-02 22:46:41.68	96.89	35.79	-40.0	-42.5	15.7	0.00e+00	0	57	0	628097024	52	4555
2026-01-02 22:46:42.69	97.30	35.78	-40.2	-42.7	15.4	0.00e+00	0	57	0	629145600	52	4694
2026-01-02 22:46:43.70	97.72	35.78	-40.6	-43.4	14.8	0.00e+00	0	57	0	631242752	52	5042
2026-01-02 22:46:44.71	98.13	35.77	-40.9	-43.9	14.3	0.00e+00	0	57	0	633339904	52	5348
2026-01-02 22:46:45.72	98.54	35.75	-41.0	-44.0	14.2	7.00e-07	0	57	0	635437056	52	5404
2026-01-02 22:46:46.73	98.96	35.74	-40.6	-43.4	14.7	7.00e-07	0	57	0	637534208	52	5076
2026-01-02 22:46:47.74	99.37	35.73	-40.3	-42.8	15.3	7.00e-07	0	57	0	638582784	52	4734
2026-01-02 22:46:48.75	99.78	35.71	-39.7	-42.0	16.2	0.00e+00	0	57	0	640679936	51	4576
2026-01-02 22:46:49.76	100.19	35.69	-39.7	-41.9	16.2	0.00e+00	0	57	0	642777088	51	4530
2026-01-02 22:46:50.77	100.61	35.67	-40.0	-42.4	15.8	0.00e+00	0	57	0	644874240	51	4776
2026-01-02 22:46:51.78	101.02	35.65	-40.5	-43.1	15.1	0.00e+00	0	57	0	646971392	51	5212
2026-01-02 22:46:52.79	101.43	35.63	-40.8	-43.6	14.5	0.00e+00	0	57	0	648019968	52	5189
2026-01-02 22:46:53.80	101.84	35.60	-41.2	-44.3	13.8	1.50e-06	0	57	0	650117120	53	5325
2026-01-02 22:46:54.81	102.25	35.58	-41.4	-44.6	13.5	3.80e-06	0	57	0	652214272	53	5484
2026-01-02 22:46:55.81	102.65	35.55	-41.5	-44.8	13.3	9.10e-06	0	57	0	654311424	53	5634
2026-01-02 22:46:56.82	103.06	35.52	-41.8	-45.4	12.6	4.65e-05	0	57	0	656408576	54	5695
2026-01-02 22:46:57.83	103.46	35.49	-42.1	-46.1	12.0	2.06e-04	0	57	0	657457152	54	6156
2026-01-02 22:46:58.84	103.87	35.46	-42.3	-46.3	11.7	5.00e-04	0	57	0	659554304	55	5965
2026-01-02 22:46:59.85	104.28	35.43	-41.9	-45.6	12.5	2.42e-04	0	57	0	661651456	55	5480
2026-01-02 22:47:00.86	104.68	35.39	-41.5	-44.8	13.3	4.57e-05	0	57	0	663748608	54	5281
2026-01-02 22:47:01.87	105.09	35.35	-41.1	-44.1	14.0	2.20e-06	0	57	0	665845760	54	4910
2026-01-02 22:47:02.88	105.49	35.31	-41.1	-44.1	14.0	1.50e-06	0	57	0	666894336	54	4920
2026-01-02 22:47:03.89	105.89	35.27	-41.1	-44.1	14.0	7.00e-07	0	57	0	668991488	54	4925
2026-01-02 22:47:04.90	106.29	35.23	-41.1	-44.2	13.9	3.00e-06	0	57	0	671088640	54	4968
2026-01-02 22:47:05.91	106.69	35.19	-40.9	-43.8	14.3	2.20e-06	0	57	0	673185792	53	5028
2026-01-02 22:47:06.92	107.09	35.15	-40.7	-43.5	14.7	7.00e-07	0	57	0	675282944	53	4826
2026-01-02 22:47:07.93	107.49	35.10	-40.7	-43.5	14.6	7.00e-07	0	57	0	676331520	53	4862
2026-01-02 22:47:08.94	107.88	35.05	-41.0	-43.9	14.2	7.00e-07	0	57	0	678428672	53	5077
2026-01-02 22:47:09.95	108.28	35.00	-41.1	-44.1	14.0	2.20e-06	0	57	0	680525824	53	5213
2026-01-02 22:47:10.95	108.67	34.95	-41.0	-43.9	14.2	2.20e-06	0	57	0	682622976	53	5089
2026-01-02 22:47:11.96	109.06	34.90	-40.8	-43.6	14.5	7.00e-07	0	57	0	684720128	53	4906
2026-01-02 22:47:12.97	109.46	34.85	-40.4	-43.1	15.1	0.00e+00	0	57	0	686817280	52	4874
2026-01-02 22:47:13.99	109.85	34.80	-40.2	-42.8	15.4	0.00e+00	0	57	0	687865856	52	4706
2026-01-02 22:47:15.00	110.24	34.74	-40.2	-42.8	15.4	0.00e+00	0	57	0	689963008	52	4717
2026-01-02 22:47:16.00	110.62	34.68	-40.5	-43.2	14.9	0.00e+00	0	57	0	692060160	52	4974
2026-01-02 22:47:17.01	111.01	34.63	-40.7	-43.4	14.8	0.00e+00	0	57	0	694157312	52	5091
2026-01-02 22:47:18.02	111.40	34.57	-40.7	-43.5	14.6	7.00e-07	0	57	0	695205888	52	5156
2026-01-02 22:47:19.03	111.78	34.50	-40.4	-43.0	15.2	0.00e+00	0	57	0	697303040	52	4832
2026-01-02 22:47:20.04	112.16	34.44	-40.2	-42.7	15.4	0.00e+00	0	57	0	699400192	52	4693
2026-01-02 22:47:21.05	112.54	34.38	-40.1	-42.6	15.5	0.00e+00	0	57	0	701497344	52	4648
2026-01-02 22:47:22.06	112.92	34.31	-40.1	-42.6	15.6	0.00e+00	0	57	0	703594496	52	4613
2026-01-02 22:47:23.07	113.30	34.25	-40.0	-42.4	15.8	0.00e+00	0	57	0	704643072	51	4790
2026-01-02 22:47:24.08	113.68	34.18	-39.7	-42.0	16.3	0.00e+00	0	57	0	706740224	51	4547
2026-01-02 22:47:25.09	114.05	34.11	-39.7	-42.0	16.3	0.00e+00	0	57	0	708837376	51	4558
2026-01-02 22:47:26.10	114.43	34.04	-39.9	-42.2	16.0	0.00e+00	0	57	0	710934528	51	4686
2026-01-02 22:47:27.11	114.80	33.97	-40.3	-42.8	15.5	0.00e+00	0	57	0	713031680	51	4995
2026-01-02 22:47:28.12	115.17	33.90	-40.6	-43.2	15.0	0.00e+00	0	57	0	715128832	51	5264
2026-01-02 22:47:29.13	115.54	33.83	-40.6	-43.3	14.9	0.00e+00	0	57	0	716177408	51	5322
2026-01-02 22:47:30.14	115.91	33.75	-40.4	-43.0	15.2	0.00e+00	0	57	0	718274560	51	5158
2026-01-02 22:47:31.15	116.27	33.68	-40.3	-42.8	15.4	0.00e+00	0	57	0	720371712	51	5008
2026-01-02 22:47:32.16	116.64	33.60	-40.1	-42.6	15.6	0.00e+00	0	57	0	722468864	51	4903
2026-01-02 22:47:33.17	117.00	33.52	-40.3	-42.8	15.4	0.00e+00	0	57	0	724566016	51	5013
2026-01-02 22:47:34.18	117.36	33.45	-40.4	-43.0	15.3	0.00e+00	0	57	0	725614592	51	5102
2026-01-02 22:47:35.19	117.72	33.37	-40.3	-42.9	15.4	0.00e+00	0	57	0	727711744	51	5065
2026-01-02 22:47:36.20	118.08	33.29	-40.2	-42.7	15.5	0.00e+00	0	57	0	729808896	51	4958
2026-01-02 22:47:37.22	118.43	33.20	-39.9	-42.2	16.0	0.00e+00	0	57	0	731906048	51	4679
2026-01-02 22:47:38.23	118.79	33.12	-39.8	-42.2	16.1	0.00e+00	0	57	0	734003200	51	4669
2026-01-02 22:47:39.24	119.14	33.04	-40.2	-42.6	15.6	0.00e+00	0	57	0	735051776	51	4910
2026-01-02 22:47:40.24	119.49	32.95	-40.6	-43.3	14.9	0.00e+00	0	57	0	737148928	51	5332
2026-01-02 22:47:41.26	119.84	32.87	-40.8	-43.6	14.6	0.00e+00	0	57	0	739246080	52	5210
2026-01-02 22:47:42.27	120.18	32.78	-40.7	-43.5	14.6	7.00e-07	0	57	0	741343232	52	5135
2026-01-02 22:47:43.28	120.53	32.70	-40.5	-43.1	15.0	7.00e-07	0	57	0	743440384	52	4917
2026-01-02 22:47:44.29	120.87	32.61	-40.5	-43.2	14.9	0.00e+00	0	57	0	744488960	52	4975
2026-01-02 22:47:45.30	121.21	32.52	-40.9	-43.8	14.3	0.00e+00	0	57	0	746586112	52	5335
2026-01-02 22:47:46.30	121.55	32.43	-41.5	-44.9	13.3	9.90e-06	0	57	0	748683264	53	5657
2026-01-02 22:47:47.31	121.89	32.34	-41.9	-45.6	12.5	6.02e-05	0	57	0	750780416	54	5791
2026-01-02 22:47:48.32	122.22	32.25	-41.7	-45.3	12.8	1.02e-04	0	57	0	752877568	54	5625
2026-01-02 22:47:49.33	122.55	32.16	-41.1	-44.2	13.9	7.60e-06	0	57	0	754974720	54	4949
2026-01-02 22:47:50.34	122.89	32.06	-40.5	-43.1	14.9	7.00e-07	0	57	0	756023296	53	4650
2026-01-02 22:47:51.35	123.22	31.97	-40.3	-42.9	15.2	0.00e+00	0	57	0	758120448	52	4808
2026-01-02 22:47:52.36	123.54	31.88	-40.7	-43.5	14.7	0.00e+00	0	57	0	760217600	52	5101
2026-01-02 22:47:53.37	123.87	31.78	-41.1	-44.3	13.9	7.00e-07	0	57	0	762314752	52	5596
2026-01-02 22:47:54.38	124.20	31.68	-41.2	-44.3	13.9	7.60e-06	0	57	0	764411904	53	5293
2026-01-02 22:47:55.39	124.52	31.59	-40.7	-43.6	14.5	1.50e-06	0	57	0	765460480	53	4873
2026-01-02 22:47:56.40	124.84	31.49	-40.1	-42.6	15.5	0.00e+00	0	57	0	767557632	52	4626
2026-01-02 22:47:57.41	125.16	31.39	-39.9	-42.2	16.0	0.00e+00	0	57	0	769654784	51	4689
2026-01-02 22:47:58.42	125.47	31.30	-40.1	-42.5	15.7	0.00e+00	0	57	0	771751936	51	4846
2026-01-02 22:47:59.43	125.79	31.20	-40.7	-43.4	14.8	0.00e+00	0	57	0	773849088	51	5388
2026-01-02 22:48:00.44	126.10	31.10	-41.1	-44.2	13.9	1.50e-06	0	57	0	774897664	52	5556
2026-01-02 22:48:01.45	126.41	31.00	-41.2	-44.3	13.8	6.80e-06	0	57	0	776994816	52	5644
2026-01-02 22:48:02.46	126.72	30.90	-40.9	-43.9	14.3	5.30e-06	0	57	0	779091968	52	5350
2026-01-02 22:48:03.47	127.03	30.80	-40.7	-43.5	14.6	0.00e+00	0	57	0	781189120	52	5129
2026-01-02 22:48:04.48	127.33	30.69	-40.7	-43.5	14.6	0.00e+00	0	57	0	783286272	52	5143
2026-01-02 22:48:05.49	127.64	30.59	-41.1	-44.3	13.8	7.00e-07	0	57	0	784334848	52	5593
2026-01-02 22:48:06.50	127.94	30.49	-41.9	-45.6	12.6	2.59e-05	0	57	0	786432000	54	5789
2026-01-02 22:48:07.51	128.24	30.39	-41.8	-45.4	12.7	1.17e-04	0	57	0	788529152	54	5661
2026-01-02 22:48:08.51	128.53	30.28	-41.1	-44.1	14.0	1.67e-05	0	57	0	790626304	54	4906
2026-01-02 22:48:09.52	128.83	30.18	-40.2	-42.8	15.3	0.00e+00	0	57	0	792723456	52	4713
2026-01-02 22:48:10.53	129.12	30.07	-40.0	-42.5	15.8	0.00e+00	0	57	0	793772032	51	4816
2026-01-02 22:48:11.54	129.42	29.97	-40.3	-42.8	15.5	0.00e+00	0	57	0	795869184	51	5009
2026-01-02 22:48:12.55	129.71	29.86	-40.7	-43.5	14.6	0.00e+00	0	57	0	797966336	52	5147
2026-01-02 22:48:13.56	130.00	29.76	-41.2	-44.4	13.7	7.00e-07	0	57	0	800063488	53	5381
2026-01-02 22:48:14.57	130.28	29.65	-40.9	-43.8	14.3	3.80e-06	0	57	0	802160640	53	5011
2026-01-02 22:48:15.58	130.57	29.55	-40.2	-42.7	15.4	7.00e-07	0	57	0	803209216	52	4701
2026-01-02 22:48:16.59	130.85	29.44	-39.7	-42.0	16.2	0.00e+00	0	57	0	805306368	51	4583
2026-01-02 22:48:17.60	131.13	29.33	-39.8	-42.1	16.1	0.00e+00	0	57	0	807403520	51	4624
2026-01-02 22:48:18.61	131.41	29.22	-40.4	-43.0	15.1	0.00e+00	0	57	0	809500672	51	5150
2026-01-02 22:48:19.62	131.69	29.12	-41.2	-44.3	13.8	7.00e-07	0	57	0	811597824	52	5648
2026-01-02 22:48:20.63	131.96	29.01	-41.9	-45.5	12.6	6.79e-05	0	57	0	812646400	54	5773
2026-01-02 22:48:21.64	132.24	28.90	-41.6	-45.1	12.9	9.30e-05	0	57	0	814743552	54	5497
2026-01-02 22:48:22.65	132.51	28.79	-41.0	-44.0	14.1	8.30e-06	0	57	0	816840704	54	4856
2026-01-02 22:48:23.66	132.78	28.68	-40.5	-43.2	14.8	0.00e+00	0	57	0	818937856	53	4699
2026-01-02 22:48:24.67	133.05	28.57	-40.3	-42.8	15.3	0.00e+00	0	57	0	821035008	52	4734
2026-01-02 22:48:25.67	133.31	28.46	-40.5	-43.2	14.9	0.00e+00	0	57	0	823132160	52	4970
2026-01-02 22:48:26.68	133.58	28.35	-41.1	-44.1	14.0	3.00e-06	0	57	0	824180736	52	5522
2026-01-02 22:48:27.69	133.84	28.24	-41.3	-44.6	13.4	1.67e-05	0	57	0	826277888	53	5511
2026-01-02 22:48:28.71	134.11	28.13	-40.7	-43.6	14.5	4.50e-06	0	57	0	828375040	53	4900
2026-01-02 22:48:29.71	134.36	28.02	-39.8	-42.1	16.0	0.00e+00	0	57	0	830472192	51	4641
2026-01-02 22:48:30.73	134.62	27.91	-39.0	-41.0	17.1	0.00e+00	0	57	0	832569344	50	4340
2026-01-02 22:48:31.74	134.88	27.80	-38.9	-40.9	17.3	0.00e+00	0	57	0	833617920	49	4502
2026-01-02 22:48:32.75	135.13	27.69	-39.3	-41.5	16.8	0.00e+00	0	57	0	835715072	49	4821
2026-01-02 22:48:33.75	135.38	27.58	-40.1	-42.5	15.7	0.00e+00	0	57	0	837812224	50	5132
2026-01-02 22:48:34.76	135.64	27.47	-40.7	-43.5	14.8	0.00e+00	0	57	0	839909376	51	5419
2026-01-02 22:48:35.78	135.89	27.36	-40.4	-43.1	15.0	0.00e+00	0	57	0	842006528	52	4905
2026-01-02 22:48:36.79	136.14	27.25	-39.9	-42.3	15.9	0.00e+00	0	57	0	843055104	51	4718
2026-01-02 22:48:37.79	136.38	27.14	-39.3	-41.3	16.8	0.00e+00	0	57	0	845152256	50	4493
2026-01-02 22:48:38.80	136.62	27.02	-39.1	-41.2	17.1	0.00e+00	0	57	0	847249408	50	4403
2026-01-02 22:48:39.81	136.87	26.91	-39.2	-41.3	16.9	0.00e+00	0	57	0	849346560	50	4482
2026-01-02 22:48:40.82	137.11	26.80	-39.5	-41.7	16.5	0.00e+00	0	57	0	851443712	50	4668
2026-01-02 22:48:41.83	137.35	26.69	-40.0	-42.4	15.8	0.00e+00	0	57	0	852492288	50	5051
2026-01-02 22:48:42.84	137.58	26.58	-40.1	-42.6	15.7	0.00e+00	0	57	0	854589440	50	5166
2026-01-02 22:48:43.85	137.82	26.47	-39.8	-42.2	16.0	0.00e+00	0	57	0	856686592	50	4927
2026-01-02 22:48:44.86	138.05	26.35	-39.0	-41.1	17.1	0.00e+00	0	57	0	858783744	50	4356
2026-01-02 22:48:45.87	138.29	26.24	-38.4	-40.2	17.9	0.00e+00	0	57	0	860880896	48	4424
2026-01-02 22:48:46.88	138.52	26.13	-38.1	-39.9	18.3	0.00e+00	0	57	0	861929472	48	4276
2026-01-02 22:48:47.89	138.75	26.02	-38.3	-40.1	18.1	0.00e+00	0	57	0	864026624	48	4353
2026-01-02 22:48:48.90	138.98	25.91	-38.5	-40.4	17.8	0.00e+00	0	57	0	866123776	48	4533
2026-01-02 22:48:49.91	139.20	25.79	-38.8	-40.8	17.4	0.00e+00	0	57	0	868220928	48	4715
2026-01-02 22:48:50.92	139.43	25.68	-39.0	-41.0	17.2	0.00e+00	0	57	0	870318080	48	4831
2026-01-02 22:48:51.93	139.65	25.57	-38.9	-40.9	17.3	0.00e+00	0	57	0	871366656	48	4767
2026-01-02 22:48:52.94	139.87	25.46	-38.6	-40.5	17.6	0.00e+00	0	57	0	873463808	48	4577
2026-01-02 22:48:53.95	140.09	25.35	-38.4	-40.3	17.9	0.00e+00	0	57	0	875560960	48	4467
2026-01-02 22:48:54.96	140.31	25.23	-38.1	-39.8	18.3	0.00e+00	0	57	0	877658112	48	4240
2026-01-02 22:48:55.97	140.53	25.12	-37.8	-39.5	18.6	0.00e+00	0	57	0	879755264	47	4316
2026-01-02 22:48:56.98	140.74	25.01	-37.9	-39.7	18.4	0.00e+00	0	57	0	880803840	47	4406
2026-01-02 22:48:57.99	140.96	24.90	-38.2	-40.0	18.0	0.00e+00	0	57	0	882900992	47	4583
2026-01-02 22:48:59.00	141.17	24.79	-38.5	-40.4	17.7	0.00e+00	0	57	0	884998144	47	4777
2026-01-02 22:49:00.01	141.38	24.68	-38.4	-40.4	17.7	0.00e+00	0	57	0	887095296	47	4769
2026-01-02 22:49:01.02	141.59	24.56	-38.1	-39.9	18.1	0.00e+00	0	57	0	889192448	47	4540
2026-01-02 22:49:02.03	141.80	24.45	-37.9	-39.6	18.4	0.00e+00	0	57	0	891289600	47	4384
2026-01-02 22:49:03.04	142.01	24.34	-37.6	-39.2	18.8	0.00e+00	0	57	0	892338176	47	4189
2026-01-02 22:49:04.05	142.21	24.23	-37.4	-39.0	19.0	0.00e+00	0	57	0	894435328	46	4324
2026-01-02 22:49:05.06	142.42	24.12	-37.3	-38.9	19.1	0.00e+00	0	57	0	896532480	46	4276
2026-01-02 22:49:06.07	142.62	24.01	-37.4	-39.1	19.0	0.00e+00	0	57	0	898629632	46	4345
2026-01-02 22:49:07.08	142.82	23.90	-37.6	-39.3	18.7	0.00e+00	0	57	0	900726784	46	4486
2026-01-02 22:49:08.09	143.02	23.79	-37.9	-39.7	18.4	0.00e+00	0	57	0	901775360	46	4659
2026-01-02 22:49:09.10	143.22	23.68	-38.1	-39.9	18.2	0.00e+00	0	57	0	903872512	46	4788
2026-01-02 22:49:10.11	143.42	23.57	-38.0	-39.8	18.2	0.00e+00	0	57	0	905969664	46	4750
2026-01-02 22:49:11.12	143.61	23.45	-37.8	-39.6	18.5	0.00e+00	0	57	0	908066816	46	4611
2026-01-02 22:49:12.13	143.81	23.34	-37.5	-39.2	18.8	0.00e+00	0	57	0	910163968	46	4428
2026-01-02 22:49:13.14	144.00	23.23	-37.3	-38.9	19.2	0.00e+00	0	57	0	911212544	46	4258
2026-01-02 22:49:14.15	144.19	23.12	-37.2	-38.8	19.2	0.00e+00	0	57	0	913309696	46	4215
2026-01-02 22:49:15.16	144.38	23.01	-37.3	-38.9	19.1	0.00e+00	0	57	0	915406848	46	4267
2026-01-02 22:49:16.17	144.57	22.90	-37.5	-39.2	18.9	0.00e+00	0	57	0	917504000	46	4395
2026-01-02 22:49:17.18	144.76	22.79	-37.9	-39.6	18.4	0.00e+00	0	57	0	919601152	46	4632
2026-01-02 22:49:18.19	144.95	22.69	-38.1	-40.0	18.1	0.00e+00	0	57	0	920649728	46	4825
2026-01-02 22:49:19.20	145.13	22.58	-38.4	-40.3	17.8	0.00e+00	0	57	0	922746880	47	4731
2026-01-02 22:49:20.21	145.32	22.47	-38.3	-40.2	17.8	0.00e+00	0	57	0	924844032	47	4703
2026-01-02 22:49:21.22	145.50	22.36	-38.1	-40.0	18.1	0.00e+00	0	57	0	926941184	47	4567
2026-01-02 22:49:22.23	145.68	22.25	-38.0	-39.8	18.3	0.00e+00	0	57	0	929038336	47	4454
2026-01-02 22:49:23.24	145.86	22.14	-37.7	-39.4	18.6	0.00e+00	0	57	0	930086912	47	4280
2026-01-02 22:49:24.25	146.04	22.03	-37.6	-39.3	18.7	0.00e+00	0	57	0	932184064	47	4216
2026-01-02 22:49:25.26	146.22	21.92	-37.6	-39.3	18.7	0.00e+00	0	57	0	934281216	47	4212
2026-01-02 22:49:26.26	146.39	21.82	-37.8	-39.5	18.5	0.00e+00	0	57	0	936378368	47	4314
2026-01-02 22:49:27.27	146.57	21.71	-38.0	-39.8	18.3	0.00e+00	0	57	0	938475520	47	4448
2026-01-02 22:49:28.28	146.74	21.60	-38.2	-40.0	18.0	0.00e+00	0	57	0	939524096	47	4586
2026-01-02 22:49:29.29	146.92	21.49	-38.3	-40.2	17.9	0.00e+00	0	57	0	941621248	47	4659
2026-01-02 22:49:30.30	147.09	21.39	-38.2	-40.1	18.0	0.00e+00	0	58	0	943718400	47	4614
2026-01-02 22:49:31.31	147.26	21.28	-38.2	-40.0	18.0	0.00e+00	0	57	0	945815552	47	4572
2026-01-02 22:49:32.32	147.43	21.17	-38.1	-40.0	18.0	0.00e+00	0	57	0	947912704	47	4562
2026-01-02 22:49:33.33	147.60	21.07	-38.0	-39.8	18.2	0.00e+00	0	57	0	948961280	47	4487
2026-01-02 22:49:34.34	147.77	20.96	-38.1	-39.9	18.1	0.00e+00	0	57	0	951058432	47	4537
2026-01-02 22:49:35.35	147.93	20.85	-38.1	-39.9	18.1	0.00e+00	0	57	0	953155584	47	4536
2026-01-02 22:49:36.36	148.10	20.75	-38.2	-40.0	18.0	0.00e+00	0	57	0	955252736	47	4595
2026-01-02 22:49:37.37	148.26	20.64	-38.4	-40.3	17.7	0.00e+00	0	58	0	957349888	47	4749
2026-01-02 22:49:38.38	148.43	20.54	-38.5	-40.5	17.5	0.00e+00	0	57	0	959447040	47	4827
2026-01-02 22:49:39.39	148.59	20.43	-38.8	-40.8	17.3	0.00e+00	0	57	0	960495616	48	4758
2026-01-02 22:49:40.40	148.75	20.33	-38.7	-40.7	17.4	0.00e+00	0	57	0	962592768	48	4674
2026-01-02 22:49:41.41	148.91	20.22	-38.5	-40.5	17.7	0.00e+00	0	57	0	964689920	48	4552
2026-01-02 22:49:42.42	149.07	20.12	-38.5	-40.3	17.8	0.00e+00	0	57	0	966787072	48	4491
2026-01-02 22:49:43.42	149.22	20.01	-38.3	-40.1	18.0	0.00e+00	0	57	0	968884224	48	4369
2026-01-02 22:49:44.43	149.38	19.91	-38.2	-40.0	18.1	0.00e+00	0	57	0	969932800	48	4327
2026-01-02 22:49:45.44	149.54	19.80	-38.3	-40.1	18.0	0.00e+00	0	58	0	972029952	48	4383
2026-01-02 22:49:46.45	149.69	19.70	-38.3	-40.2	17.9	0.00e+00	0	57	0	974127104	48	4410
2026-01-02 22:49:47.46	149.84	19.60	-38.6	-40.5	17.6	0.00e+00	0	57	0	976224256	48	4570
2026-01-02 22:49:48.47	150.00	19.49	-38.8	-40.9	17.2	0.00e+00	0	57	0	977272832	48	4775
2026-01-02 22:49:49.48	150.15	19.39	-39.1	-41.2	16.9	0.00e+00	0	57	0	979369984	48	4951
2026-01-02 22:49:50.49	150.30	19.29	-39.4	-41.6	16.5	0.00e+00	0	57	0	981467136	49	4905
2026-01-02 22:49:51.50	150.45	19.18	-39.4	-41.6	16.4	0.00e+00	0	57	0	983564288	49	4921
2026-01-02 22:49:52.51	150.60	19.08	-39.3	-41.5	16.6	0.00e+00	0	57	0	985661440	49	4815
2026-01-02 22:49:53.52	150.74	18.98	-39.2	-41.4	16.7	0.00e+00	0	57	0	987758592	49	4775
2026-01-02 22:49:54.53	150.89	18.88	-39.1	-41.3	16.8	0.00e+00	0	57	0	988807168	49	4707
2026-01-02 22:49:55.54	151.04	18.78	-39.1	-41.2	16.8	0.00e+00	0	57	0	990904320	49	4705
2026-01-02 22:49:56.55	151.18	18.67	-39.0	-41.1	17.0	0.00e+00	0	57	0	993001472	49	4641
2026-01-02 22:49:57.56	151.33	18.57	-39.1	-41.3	16.8	0.00e+00	0	58	0	995098624	49	4724
2026-01-02 22:49:58.57	151.47	18.47	-39.3	-41.6	16.5	0.00e+00	0	57	0	997195776	49	4881
2026-01-02 22:49:59.58	151.61	18.37	-39.6	-41.9	16.1	0.00e+00	0	58	0	998244352	49	5088
2026-01-02 22:50:00.59	151.75	18.27	-39.8	-42.2	15.9	0.00e+00	0	57	0	1000341504	50	4955
2026-01-02 22:50:01.60	151.89	18.17	-40.0	-42.5	15.5	0.00e+00	0	57	0	1002438656	50	5148
2026-01-02 22:50:02.60	152.03	18.07	-40.1	-42.7	15.4	0.00e+00	0	57	0	1004535808	50	5255
2026-01-02 22:50:03.61	152.17	17.97	-40.1	-42.7	15.4	0.00e+00	0	57	0	1006632960	50	5244
2026-01-02 22:50:04.62	152.31	17.87	-40.0	-42.5	15.6	0.00e+00	0	57	0	1007681536	50	5120
2026-01-02 22:50:05.63	152.44	17.77	-39.7	-42.1	16.0	0.00e+00	0	58	0	1009778688	50	4896
2026-01-02 22:50:06.64	152.58	17.67	-39.5	-41.8	16.3	0.00e+00	0	57	0	1011875840	50	4728
2026-01-02 22:50:07.65	152.71	17.58	-39.4	-41.6	16.4	0.00e+00	0	58	0	1013972992	50	4632
2026-01-02 22:50:08.66	152.85	17.48	-39.2	-41.4	16.7	0.00e+00	0	58	0	1016070144	50	4522
2026-01-02 22:50:09.67	152.98	17.38	-39.2	-41.4	16.7	0.00e+00	0	57	0	1017118720	50	4509
2026-01-02 22:50:10.68	153.11	17.28	-39.3	-41.5	16.6	0.00e+00	0	57	0	1019215872	50	4559
2026-01-02 22:50:11.69	153.25	17.18	-39.4	-41.6	16.4	0.00e+00	0	57	0	1021313024	50	4612
2026-01-02 22:50:12.70	153.38	17.09	-39.4	-41.7	16.4	0.00e+00	0	57	0	1023410176	50	4664
2026-01-02 22:50:13.71	153.51	16.99	-39.4	-41.7	16.3	0.00e+00	0	57	0	1025507328	50	4691
2026-01-02 22:50:14.72	153.64	16.89	-39.6	-41.9	16.1	0.00e+00	0	57	0	1026555904	50	4805
2026-01-02 22:50:15.73	153.76	16.79	-39.7	-42.1	15.9	0.00e+00	0	57	0	1028653056	50	4924
2026-01-02 22:50:16.74	153.89	16.70	-39.8	-42.2	15.8	0.00e+00	0	57	0	1030750208	50	4957
2026-01-02 22:50:17.75	154.02	16.60	-39.8	-42.3	15.7	0.00e+00	0	57	0	1032847360	50	5005
2026-01-02 22:50:18.76	154.14	16.51	-39.8	-42.3	15.7	0.00e+00	0	57	0	1034944512	50	4988
2026-01-02 22:50:19.77	154.27	16.41	-39.8	-42.2	15.8	0.00e+00	0	57	0	1035993088	50	4959
2026-01-02 22:50:20.78	154.39	16.31	-39.6	-42.0	16.1	0.00e+00	0	57	0	1038090240	50	4823
2026-01-02 22:50:21.79	154.52	16.22	-39.5	-41.8	16.2	0.00e+00	0	57	0	1040187392	50	4740
2026-01-02 22:50:22.80	154.64	16.12	-39.4	-41.7	16.3	0.00e+00	0	57	0	1042284544	50	4692
2026-01-02 22:50:23.81	154.76	16.03	-39.4	-41.7	16.3	0.00e+00	0	57	0	1044381696	50	4653
2026-01-02 22:50:24.82	154.88	15.93	-39.3	-41.5	16.5	0.00e+00	0	57	0	1045430272	50	4591
2026-01-02 22:50:25.83	155.01	15.84	-39.3	-41.6	16.4	0.00e+00	0	57	0	1047527424	50	4612
2026-01-02 22:50:26.84	155.13	15.75	-39.4	-41.6	16.3	0.00e+00	0	57	0	1049624576	50	4644
2026-01-02 22:50:27.85	155.24	15.65	-39.3	-41.6	16.4	0.00e+00	0	57	0	1051721728	50	4611
2026-01-02 22:50:28.86	155.36	15.56	-39.5	-41.8	16.2	0.00e+00	0	57	0	1053818880	50	4729
2026-01-02 22:50:29.87	155.48	15.47	-39.4	-41.7	16.2	0.00e+00	0	57	0	1055916032	50	4685
2026-01-02 22:50:30.88	155.60	15.37	-39.5	-41.8	16.1	0.00e+00	0	57	0	1056964608	50	4750
2026-01-02 22:50:31.89	155.71	15.28	-39.6	-41.9	16.0	0.00e+00	0	57	0	1059061760	50	4801
2026-01-02 22:50:32.90	155.83	15.19	-39.6	-42.0	16.0	0.00e+00	0	57	0	1061158912	50	4830
2026-01-02 22:50:33.91	155.95	15.09	-39.6	-42.0	15.9	0.00e+00	0	57	0	1063256064	50	4850
2026-01-02 22:50:34.92	156.06	15.00	-39.7	-42.1	15.9	0.00e+00	0	57	0	1065353216	50	4904
2026-01-02 22:50:35.93	156.17	14.91	-39.7	-42.1	15.9	0.00e+00	0	57	0	1066401792	50	4892
2026-01-02 22:50:36.94	156.29	14.82	-39.7	-42.1	15.8	0.00e+00	0	57	0	1068498944	50	4897
2026-01-02 22:50:37.95	156.40	14.73	-39.5	-41.9	16.1	0.00e+00	0	57	0	1070596096	50	4763
2026-01-02 22:50:38.96	156.51	14.64	-39.5	-41.9	16.1	0.00e+00	0	57	0	1072693248	50	4769
2026-01-02 22:50:39.97	156.62	14.55	-39.5	-41.8	16.2	0.00e+00	0	57	0	1074790400	50	4734
2026-01-02 22:50:40.98	156.73	14.46	-39.4	-41.7	16.2	0.00e+00	0	57	0	1075838976	50	4679
2026-01-02 22:50:41.99	156.84	14.36	-39.4	-41.7	16.3	0.00e+00	0	57	0	1077936128	50	4659
2026-01-02 22:50:43.00	156.95	14.27	-39.4	-41.6	16.3	0.00e+00	0	57	0	1080033280	50	4639
2026-01-02 22:50:44.01	157.06	14.18	-39.4	-41.7	16.2	0.00e+00	0	57	0	1082130432	50	4671
2026-01-02 22:50:45.02	157.17	14.09	-39.4	-41.7	16.2	0.00e+00	0	57	0	1084227584	50	4681
2026-01-02 22:50:46.03	157.27	14.01	-39.4	-41.7	16.2	0.00e+00	0	58	0	1085276160	50	4697
2026-01-02 22:50:47.04	157.38	13.92	-39.5	-41.9	16.0	0.00e+00	0	57	0	1087373312	50	4772
2026-01-02 22:50:48.05	157.49	13.83	-39.7	-42.1	15.8	0.00e+00	0	57	0	1089470464	50	4898
2026-01-02 22:50:49.06	157.59	13.74	-39.8	-42.3	15.7	0.00e+00	0	58	0	1091567616	50	4986
2026-01-02 22:50:50.07	157.70	13.65	-39.9	-42.4	15.5	0.00e+00	0	58	0	1093664768	50	5075
2026-01-02 22:50:51.07	157.80	13.56	-39.9	-42.4	15.5	0.00e+00	0	57	0	1095761920	50	5062
2026-01-02 22:50:52.08	157.90	13.47	-39.9	-42.4	15.5	0.00e+00	0	57	0	1096810496	50	5064
2026-01-02 22:50:53.09	158.01	13.39	-40.0	-42.6	15.2	0.00e+00	0	57	0	1098907648	50	5191
2026-01-02 22:50:54.10	158.11	13.30	-40.0	-42.6	15.3	0.00e+00	0	58	0	1101004800	50	5181
2026-01-02 22:50:55.11	158.21	13.21	-40.1	-42.7	15.1	0.00e+00	0	57	0	1103101952	50	5256
2026-01-02 22:50:56.12	158.31	13.13	-40.1	-42.8	15.1	0.00e+00	0	57	0	1104150528	50	5286
2026-01-02 22:50:57.13	158.41	13.04	-40.0	-42.7	15.1	0.00e+00	0	57	0	1106247680	50	5237
2026-01-02 22:50:58.14	158.51	12.95	-40.0	-42.6	15.2	0.00e+00	0	58	0	1108344832	50	5214
2026-01-02 22:50:59.15	158.61	12.87	-40.0	-42.6	15.2	0.00e+00	0	57	0	1110441984	50	5177
2026-01-02 22:51:00.16	158.71	12.78	-40.1	-42.7	15.1	0.00e+00	0	57	0	1112539136	50	5244
2026-01-02 22:51:01.17	158.81	12.69	-40.0	-42.6	15.2	0.00e+00	0	57	0	1113587712	50	5171
2026-01-02 22:51:02.18	158.91	12.61	-39.9	-42.5	15.3	0.00e+00	0	57	0	1115684864	50	5113
2026-01-02 22:51:03.19	159.00	12.52	-39.8	-42.3	15.5	0.00e+00	0	57	0	1117782016	50	5014
2026-01-02 22:51:04.21	159.10	12.44	-39.7	-42.2	15.6	0.00e+00	0	57	0	1119879168	50	4935
2026-01-02 22:51:05.22	159.20	12.35	-39.7	-42.2	15.7	0.00e+00	0	57	0	1121976320	50	4927
2026-01-02 22:51:06.22	159.29	12.27	-39.7	-42.2	15.6	0.00e+00	0	57	0	1124073472	50	4956
2026-01-02 22:51:07.23	159.39	12.18	-39.7	-42.2	15.6	0.00e+00	0	57	0	1125122048	50	4932
2026-01-02 22:51:08.24	159.48	12.10	-39.7	-42.2	15.6	0.00e+00	0	57	0	1127219200	50	4929
2026-01-02 22:51:09.25	159.58	12.01	-39.7	-42.1	15.6	0.00e+00	0	57	0	1129316352	50	4913
2026-01-02 22:51:10.26	159.67	11.93	-39.7	-42.2	15.5	0.00e+00	0	57	0	1131413504	50	4975
2026-01-02 22:51:11.27	159.76	11.85	-39.8	-42.3	15.5	0.00e+00	0	58	0	1133510656	50	5015
2026-01-02 22:51:12.28	159.86	11.76	-39.8	-42.4	15.4	0.00e+00	0	58	0	1134559232	50	5058
2026-01-02 22:51:13.29	159.95	11.68	-39.8	-42.3	15.5	0.00e+00	0	57	0	1136656384	50	4999
2026-01-02 22:51:14.30	160.04	11.60	-39.8	-42.3	15.4	0.00e+00	0	57	0	1138753536	50	5035
2026-01-02 22:51:15.31	160.13	11.51	-39.8	-42.3	15.4	0.00e+00	0	58	0	1140850688	50	5001
2026-01-02 22:51:16.32	160.22	11.43	-39.9	-42.4	15.3	0.00e+00	0	57	0	1142947840	50	5098
2026-01-02 22:51:17.33	160.31	11.35	-39.9	-42.5	15.2	0.00e+00	0	57	0	1143996416	50	5154
2026-01-02 22:51:18.34	160.40	11.27	-40.0	-42.6	15.1	0.00e+00	0	58	0	1146093568	50	5203
2026-01-02 22:51:19.35	160.49	11.18	-40.0	-42.6	15.1	0.00e+00	0	57	0	1148190720	50	5207
2026-01-02 22:51:20.36	160.58	11.10	-40.0	-42.6	15.0	0.00e+00	0	57	0	1150287872	50	5212
2026-01-02 22:51:21.37	160.67	11.02	-39.9	-42.6	15.1	0.00e+00	0	57	0	1152385024	50	5178
2026-01-02 22:51:22.38	160.75	10.94	-40.0	-42.7	15.0	0.00e+00	0	57	0	1153433600	50	5255
2026-01-02 22:51:23.39	160.84	10.86	-40.1	-42.8	14.9	7.00e-07	0	57	0	1155530752	50	5299
2026-01-02 22:51:24.39	160.93	10.78	-40.2	-43.0	14.7	0.00e+00	0	57	0	1157627904	50	5428
