passes_logs/2026/01/02/R2.0S_Moscow/R2.0S_Moscow__20260102_011916_FENGYUN_3D_rec.log

#Pass ID: 20260102_011916_FENGYUN 3D
#Satellite: FENGYUN 3D
#Configuration: FENGYUN 3D
#almurnet v.1.7.20251203
#Start time: 2026-01-02 01:19:16

#Version: 2.2.20231116
#Station: R2.0S_Moscow
#Location: 37.707566 lon 55.798166 lat
#TLE: 1 43010U 17072A   26001.33100487  .00000602  00000+0  30664-3 0  9999
#TLE: 2 43010  98.9910 332.9374 0001848 133.1047 227.0283 14.19692078421319

#Time	Az	El	Level	Level2	SNR	BER	BlckErr	Temp	State	Recorded	gain1	gain2
2026-01-02 01:19:16.53	18.52	2.02	-40.1	-52.5	3.8	8.46e-01	0	47	0	0	52	14540
2026-01-02 01:19:17.53	18.54	2.08	-40.1	-52.6	3.8	8.45e-01	0	48	104	0	50	16415
2026-01-02 01:19:18.55	18.56	2.15	-40.2	-52.7	3.8	8.46e-01	0	48	104	0	50	16556
2026-01-02 01:19:19.56	18.58	2.21	-40.1	-52.6	3.8	8.45e-01	0	48	104	0	50	16469
2026-01-02 01:19:20.57	18.61	2.27	-40.1	-52.6	3.8	8.46e-01	0	48	104	0	50	16489
2026-01-02 01:19:21.58	18.63	2.34	-40.1	-52.6	3.8	8.46e-01	0	48	104	0	50	16473
2026-01-02 01:19:22.59	18.65	2.40	-40.1	-52.6	3.8	8.46e-01	0	48	104	0	50	16472
2026-01-02 01:19:23.60	18.68	2.47	-40.2	-52.6	3.8	8.46e-01	0	48	104	0	50	16463
2026-01-02 01:19:24.61	18.70	2.53	-40.2	-52.6	3.8	8.45e-01	0	48	104	0	50	16488
2026-01-02 01:19:25.62	18.72	2.60	-40.2	-52.6	3.8	8.46e-01	0	48	104	0	50	16438
2026-01-02 01:19:26.64	18.74	2.66	-40.2	-52.6	3.8	8.47e-01	0	48	104	0	50	16443
2026-01-02 01:19:27.65	18.77	2.73	-40.2	-52.6	3.8	8.47e-01	0	49	104	0	50	16436
2026-01-02 01:19:28.66	18.79	2.79	-40.1	-52.6	3.8	8.45e-01	0	48	104	0	50	16443
2026-01-02 01:19:29.67	18.81	2.86	-40.2	-52.6	3.8	8.46e-01	0	49	104	0	50	16472
2026-01-02 01:19:30.68	18.84	2.92	-40.2	-52.6	3.8	8.46e-01	0	49	104	0	50	16500
2026-01-02 01:19:31.69	18.86	2.99	-40.2	-52.6	3.8	8.46e-01	0	49	104	0	50	16498
2026-01-02 01:19:32.70	18.88	3.06	-40.2	-52.7	3.8	8.46e-01	0	49	104	0	50	16541
2026-01-02 01:19:33.71	18.91	3.12	-40.2	-52.6	3.8	8.47e-01	0	49	104	0	50	16480
2026-01-02 01:19:34.72	18.93	3.19	-40.2	-52.6	3.8	8.46e-01	0	49	104	0	50	16481
2026-01-02 01:19:35.73	18.95	3.25	-40.1	-52.6	3.8	8.46e-01	0	49	104	0	50	16445
2026-01-02 01:19:36.74	18.98	3.32	-40.2	-52.6	3.8	8.46e-01	0	49	104	0	50	16478
2026-01-02 01:19:37.76	19.00	3.39	-40.1	-52.6	3.8	8.46e-01	0	49	104	0	50	16477
2026-01-02 01:19:38.77	19.03	3.45	-40.1	-52.6	3.8	8.45e-01	0	49	104	0	50	16428
2026-01-02 01:19:39.78	19.05	3.52	-40.2	-52.6	3.8	8.46e-01	0	49	104	0	50	16405
2026-01-02 01:19:40.79	19.08	3.59	-40.1	-52.6	3.8	8.46e-01	0	49	104	0	50	16408
2026-01-02 01:19:41.80	19.10	3.66	-40.1	-52.6	3.8	8.47e-01	0	49	104	0	50	16498
2026-01-02 01:19:42.81	19.12	3.72	-40.2	-52.6	3.8	8.46e-01	0	50	104	0	50	16502
2026-01-02 01:19:43.82	19.15	3.79	-40.2	-52.6	3.8	8.45e-01	0	50	104	0	50	16435
2026-01-02 01:19:44.83	19.17	3.86	-40.1	-52.6	3.8	8.46e-01	0	49	104	0	50	16422
2026-01-02 01:19:45.84	19.20	3.93	-40.1	-52.6	3.8	8.46e-01	0	50	104	0	50	16443
2026-01-02 01:19:46.86	19.22	4.00	-40.1	-52.6	3.8	8.47e-01	0	50	104	0	50	16462
2026-01-02 01:19:47.87	19.25	4.06	-40.1	-52.6	3.8	8.46e-01	0	50	104	0	50	16497
2026-01-02 01:19:48.88	19.27	4.13	-40.1	-52.7	3.8	8.46e-01	0	50	104	0	50	16536
2026-01-02 01:19:49.89	19.30	4.20	-40.1	-52.6	3.8	8.46e-01	0	50	104	0	50	16468
2026-01-02 01:19:50.90	19.32	4.27	-40.1	-52.6	3.8	8.46e-01	0	50	104	0	50	16501
2026-01-02 01:19:51.91	19.35	4.34	-40.1	-52.6	3.8	8.46e-01	0	50	104	0	50	16490
2026-01-02 01:19:52.92	19.37	4.41	-40.1	-52.6	3.8	8.45e-01	0	50	104	0	50	16450
2026-01-02 01:19:53.93	19.40	4.48	-40.1	-52.6	3.8	8.46e-01	0	50	104	0	50	16487
2026-01-02 01:19:54.94	19.42	4.55	-40.1	-52.6	3.8	8.45e-01	0	50	104	0	50	16481
2026-01-02 01:19:55.96	19.45	4.62	-40.2	-52.6	3.8	8.47e-01	0	50	104	0	50	16454
2026-01-02 01:19:56.97	19.47	4.69	-40.1	-52.6	3.8	8.47e-01	0	50	104	0	50	16442
2026-01-02 01:19:57.98	19.50	4.76	-40.1	-52.6	3.8	8.45e-01	0	50	104	0	50	16471
2026-01-02 01:19:58.99	19.53	4.83	-40.1	-52.7	3.8	8.45e-01	0	50	104	0	50	16510
2026-01-02 01:20:00.00	19.55	4.90	-40.1	-52.6	3.8	8.46e-01	0	51	104	0	50	16442
2026-01-02 01:20:01.01	19.58	4.97	-40.1	-52.6	3.8	8.45e-01	0	51	104	0	50	16483
2026-01-02 01:20:02.02	19.60	5.04	-40.1	-52.6	3.8	8.47e-01	0	51	104	0	50	16419
2026-01-02 01:20:03.03	19.63	5.11	-40.1	-52.6	3.8	8.45e-01	0	51	104	0	50	16416
2026-01-02 01:20:04.04	19.66	5.18	-40.1	-52.6	3.8	8.46e-01	0	51	104	0	50	16474
2026-01-02 01:20:05.05	19.68	5.25	-40.1	-52.6	3.8	8.45e-01	0	51	104	0	50	16455
2026-01-02 01:20:06.06	19.71	5.32	-40.1	-52.6	3.8	8.46e-01	0	51	104	0	50	16458
2026-01-02 01:20:07.08	19.74	5.40	-40.1	-52.6	3.8	8.46e-01	0	51	104	0	50	16473
2026-01-02 01:20:08.09	19.76	5.47	-40.1	-52.6	3.8	8.47e-01	0	51	104	0	50	16464
2026-01-02 01:20:09.10	19.79	5.54	-40.1	-52.6	3.8	8.47e-01	0	51	104	0	50	16374
2026-01-02 01:20:10.11	19.82	5.61	-40.1	-52.6	3.8	8.46e-01	0	51	104	0	50	16385
2026-01-02 01:20:11.12	19.85	5.69	-40.1	-52.6	3.8	8.46e-01	0	51	104	0	50	16329
2026-01-02 01:20:12.13	19.87	5.76	-40.2	-52.6	3.8	8.47e-01	0	51	104	0	50	16358
2026-01-02 01:20:13.14	19.90	5.83	-40.1	-52.5	3.8	8.46e-01	0	51	104	0	50	16254
2026-01-02 01:20:14.15	19.93	5.90	-40.1	-52.5	3.8	8.46e-01	0	51	104	0	50	16254
2026-01-02 01:20:15.16	19.96	5.98	-40.1	-52.5	3.8	8.46e-01	0	51	104	0	50	16219
2026-01-02 01:20:16.18	19.98	6.05	-40.1	-52.5	3.8	8.46e-01	0	52	104	0	50	16131
2026-01-02 01:20:17.19	20.01	6.13	-40.2	-52.5	3.8	8.46e-01	0	51	104	0	50	16218
2026-01-02 01:20:18.20	20.04	6.20	-40.2	-52.5	3.8	8.46e-01	0	51	104	0	50	16140
2026-01-02 01:20:19.21	20.07	6.27	-40.1	-52.4	3.8	8.46e-01	0	52	104	0	50	16117
2026-01-02 01:20:20.22	20.10	6.35	-40.1	-52.5	3.8	8.46e-01	0	52	104	0	50	16146
2026-01-02 01:20:21.23	20.12	6.42	-40.1	-52.5	3.8	8.46e-01	0	52	104	0	50	16131
2026-01-02 01:20:22.24	20.15	6.50	-40.1	-52.4	3.8	8.46e-01	0	52	104	0	50	16097
2026-01-02 01:20:23.25	20.18	6.57	-40.1	-52.4	3.8	8.47e-01	0	52	104	0	50	16025
2026-01-02 01:20:24.27	20.21	6.65	-40.1	-52.4	3.8	8.47e-01	0	52	104	0	50	16019
2026-01-02 01:20:25.28	20.24	6.72	-40.1	-52.4	3.8	8.45e-01	0	52	104	0	50	15960
2026-01-02 01:20:26.29	20.27	6.80	-40.1	-52.3	3.8	8.46e-01	0	52	104	0	50	15827
2026-01-02 01:20:27.30	20.30	6.87	-40.1	-52.3	3.8	8.46e-01	0	52	104	0	50	15827
2026-01-02 01:20:28.31	20.33	6.95	-40.1	-52.2	3.8	8.47e-01	0	52	104	0	50	15635
2026-01-02 01:20:29.32	20.36	7.03	-40.1	-52.1	3.8	8.46e-01	0	52	104	0	50	15565
2026-01-02 01:20:30.33	20.39	7.10	-40.1	-52.0	3.8	8.46e-01	0	52	104	0	50	15271
2026-01-02 01:20:31.34	20.42	7.18	-40.1	-51.8	3.8	8.46e-01	0	52	104	0	50	14975
2026-01-02 01:20:32.35	20.44	7.26	-40.0	-51.7	3.8	8.46e-01	0	52	104	0	50	14709
2026-01-02 01:20:33.36	20.47	7.33	-40.0	-51.3	3.8	8.46e-01	0	52	104	0	50	14163
2026-01-02 01:20:34.37	20.50	7.41	-40.0	-51.0	3.8	8.46e-01	0	52	104	0	50	13655
2026-01-02 01:20:35.38	20.53	7.49	-39.9	-50.5	3.8	8.46e-01	0	52	104	0	50	12830
2026-01-02 01:20:36.40	20.57	7.57	-39.8	-49.6	4.1	8.44e-01	0	52	104	0	50	11675
2026-01-02 01:20:37.41	20.60	7.65	-39.7	-48.7	4.3	8.36e-01	0	52	0	0	50	10450
2026-01-02 01:20:38.42	20.63	7.72	-39.5	-47.6	4.7	8.21e-01	0	52	0	0	50	9278
2026-01-02 01:20:39.43	20.66	7.80	-39.3	-46.5	5.4	7.48e-01	0	52	0	0	50	8093
2026-01-02 01:20:40.44	20.69	7.88	-38.9	-45.1	6.3	3.90e-01	0	52	0	4194304	49	7364
2026-01-02 01:20:41.45	20.72	7.96	-38.5	-43.9	7.4	1.59e-01	0	53	0	9437184	49	6390
2026-01-02 01:20:42.46	20.75	8.04	-38.0	-42.1	9.4	6.78e-02	0	53	0	14680064	48	5465
2026-01-02 01:20:43.47	20.78	8.12	-37.8	-41.6	10.1	1.95e-03	0	53	0	20971520	46	5852
2026-01-02 01:20:44.48	20.81	8.20	-37.6	-41.2	10.1	5.88e-01	0	53	0	25165824	47	5278
2026-01-02 01:20:45.49	20.84	8.28	-36.7	-38.8	14.7	6.80e-06	0	53	0	30408704	44	4737
2026-01-02 01:20:46.50	20.88	8.36	-35.1	-36.9	15.9	5.37e-05	0	53	0	36700160	42	4291
2026-01-02 01:20:47.51	20.91	8.44	-37.1	-40.7	10.7	1.52e-01	0	53	0	41943040	46	5231
2026-01-02 01:20:48.52	20.94	8.52	-35.0	-36.7	16.4	0.00e+00	0	53	0	47185920	41	4406
2026-01-02 01:20:49.53	20.97	8.60	-35.2	-36.9	16.4	0.00e+00	0	53	0	53477376	41	4525
2026-01-02 01:20:50.54	21.01	8.68	-35.6	-37.4	16.0	0.00e+00	0	53	0	58720256	41	4767
2026-01-02 01:20:51.55	21.04	8.77	-35.9	-37.6	15.9	0.00e+00	0	53	0	65011712	42	4630
2026-01-02 01:20:52.56	21.07	8.85	-35.9	-37.6	16.0	0.00e+00	0	53	0	70254592	42	4630
2026-01-02 01:20:53.57	21.10	8.93	-35.5	-37.1	16.7	0.00e+00	0	53	0	75497472	42	4369
2026-01-02 01:20:54.58	21.14	9.01	-35.4	-36.9	16.9	0.00e+00	0	53	0	81788928	42	4280
2026-01-02 01:20:55.59	21.17	9.09	-35.5	-37.1	16.8	0.00e+00	0	53	0	87031808	42	4353
2026-01-02 01:20:56.60	21.20	9.18	-35.6	-37.2	16.7	0.00e+00	0	53	0	93323264	42	4397
2026-01-02 01:20:57.61	21.24	9.26	-35.4	-36.9	17.0	0.00e+00	0	53	0	98566144	42	4285
2026-01-02 01:20:58.62	21.27	9.34	-35.1	-36.5	17.3	0.00e+00	0	53	0	103809024	42	4090
2026-01-02 01:20:59.62	21.30	9.43	-35.1	-36.5	17.4	0.00e+00	0	53	0	110100480	42	4076
2026-01-02 01:21:00.63	21.34	9.51	-35.1	-36.6	17.3	0.00e+00	0	53	0	115343360	42	4116
2026-01-02 01:21:01.64	21.37	9.59	-35.0	-36.5	17.5	0.00e+00	0	53	0	121634816	42	4062
2026-01-02 01:21:02.65	21.41	9.68	-35.3	-36.7	17.2	0.00e+00	0	53	0	126877696	42	4188
2026-01-02 01:21:03.66	21.44	9.76	-35.4	-36.9	17.1	0.00e+00	0	53	0	132120576	42	4248
2026-01-02 01:21:04.67	21.47	9.85	-35.4	-36.9	17.1	0.00e+00	0	53	0	138412032	42	4254
2026-01-02 01:21:05.68	21.51	9.93	-35.5	-37.0	17.0	0.00e+00	0	53	0	143654912	42	4306
2026-01-02 01:21:06.69	21.54	10.02	-35.2	-36.7	17.3	0.00e+00	0	53	0	149946368	42	4162
2026-01-02 01:21:07.70	21.58	10.11	-35.3	-36.8	17.2	0.00e+00	0	53	0	155189248	42	4204
2026-01-02 01:21:08.71	21.62	10.19	-35.3	-36.8	17.2	0.00e+00	0	54	0	161480704	42	4207
2026-01-02 01:21:09.72	21.65	10.28	-35.4	-36.9	17.2	0.00e+00	0	53	0	166723584	42	4252
2026-01-02 01:21:10.73	21.69	10.37	-35.3	-36.8	17.2	0.00e+00	0	54	0	171966464	42	4223
2026-01-02 01:21:11.74	21.72	10.45	-35.2	-36.7	17.3	0.00e+00	0	53	0	178257920	42	4159
2026-01-02 01:21:12.75	21.76	10.54	-35.2	-36.6	17.4	0.00e+00	0	53	0	183500800	42	4136
2026-01-02 01:21:13.76	21.80	10.63	-35.0	-36.4	17.6	0.00e+00	0	54	0	189792256	42	4044
2026-01-02 01:21:14.77	21.83	10.72	-35.1	-36.5	17.6	0.00e+00	0	54	0	195035136	42	4064
2026-01-02 01:21:15.78	21.87	10.80	-35.0	-36.4	17.6	0.00e+00	0	54	0	200278016	42	4046
2026-01-02 01:21:16.79	21.91	10.89	-35.1	-36.5	17.5	0.00e+00	0	54	0	206569472	42	4070
2026-01-02 01:21:17.79	21.94	10.98	-35.2	-36.6	17.4	0.00e+00	0	53	0	211812352	42	4122
2026-01-02 01:21:18.80	21.98	11.07	-35.2	-36.6	17.5	0.00e+00	0	54	0	218103808	42	4103
2026-01-02 01:21:19.81	22.02	11.16	-35.1	-36.5	17.5	0.00e+00	0	54	0	223346688	42	4095
2026-01-02 01:21:20.82	22.05	11.25	-35.2	-36.6	17.5	0.00e+00	0	54	0	228589568	42	4119
2026-01-02 01:21:21.83	22.09	11.34	-35.2	-36.6	17.5	0.00e+00	0	54	0	234881024	42	4106
2026-01-02 01:21:22.84	22.13	11.43	-35.1	-36.5	17.6	0.00e+00	0	54	0	240123904	42	4089
2026-01-02 01:21:23.85	22.17	11.52	-35.2	-36.6	17.5	0.00e+00	0	54	0	246415360	42	4101
2026-01-02 01:21:24.86	22.21	11.61	-35.0	-36.4	17.7	0.00e+00	0	54	0	251658240	42	4031
2026-01-02 01:21:25.87	22.25	11.71	-34.9	-36.3	17.8	0.00e+00	0	54	0	257949696	41	4214
2026-01-02 01:21:26.88	22.29	11.80	-34.8	-36.1	18.0	0.00e+00	0	54	0	263192576	41	4129
2026-01-02 01:21:27.89	22.32	11.89	-34.7	-36.1	18.0	0.00e+00	0	54	0	269484032	41	4114
2026-01-02 01:21:28.90	22.36	11.98	-34.7	-36.0	18.1	0.00e+00	0	54	0	274726912	41	4092
2026-01-02 01:21:29.91	22.40	12.08	-34.6	-35.9	18.3	0.00e+00	0	54	0	279969792	41	4026
2026-01-02 01:21:30.92	22.44	12.17	-34.6	-35.9	18.3	0.00e+00	0	54	0	286261248	41	4012
2026-01-02 01:21:31.93	22.48	12.26	-34.5	-35.8	18.4	0.00e+00	0	54	0	291504128	40	4204
2026-01-02 01:21:32.94	22.52	12.36	-34.5	-35.8	18.4	0.00e+00	0	54	0	297795584	40	4205
2026-01-02 01:21:33.95	22.56	12.45	-34.4	-35.7	18.5	0.00e+00	0	54	0	303038464	40	4166
2026-01-02 01:21:34.96	22.61	12.55	-34.3	-35.6	18.6	0.00e+00	0	54	0	308281344	40	4125
2026-01-02 01:21:35.97	22.65	12.64	-34.3	-35.5	18.7	0.00e+00	0	54	0	314572800	40	4083
2026-01-02 01:21:36.98	22.69	12.74	-34.3	-35.5	18.6	0.00e+00	0	54	0	319815680	40	4098
2026-01-02 01:21:37.99	22.73	12.83	-34.2	-35.4	18.8	0.00e+00	0	54	0	326107136	40	4045
2026-01-02 01:21:39.00	22.77	12.93	-34.1	-35.3	18.8	0.00e+00	0	54	0	331350016	40	4002
2026-01-02 01:21:40.01	22.81	13.02	-34.2	-35.4	18.8	0.00e+00	0	54	0	336592896	40	4035
2026-01-02 01:21:41.02	22.86	13.12	-34.1	-35.4	18.9	0.00e+00	0	54	0	342884352	40	4008
2026-01-02 01:21:42.03	22.90	13.22	-34.0	-35.3	19.0	0.00e+00	0	54	0	348127232	40	3974
2026-01-02 01:21:43.04	22.94	13.32	-34.1	-35.3	18.9	0.00e+00	0	54	0	354418688	40	3996
2026-01-02 01:21:44.05	22.98	13.41	-34.1	-35.3	18.9	0.00e+00	0	54	0	359661568	40	3992
2026-01-02 01:21:45.06	23.03	13.51	-34.1	-35.3	19.0	0.00e+00	0	54	0	365953024	40	3986
2026-01-02 01:21:46.07	23.07	13.61	-34.1	-35.4	18.9	0.00e+00	0	54	0	371195904	40	4005
2026-01-02 01:21:47.08	23.11	13.71	-34.1	-35.3	18.9	0.00e+00	0	54	0	376438784	40	4002
2026-01-02 01:21:48.09	23.16	13.81	-34.0	-35.2	19.0	0.00e+00	0	54	0	382730240	40	3957
2026-01-02 01:21:49.10	23.20	13.91	-34.1	-35.3	19.0	0.00e+00	0	54	0	387973120	40	3995
2026-01-02 01:21:50.11	23.25	14.01	-34.0	-35.3	19.0	0.00e+00	0	54	0	394264576	40	3962
2026-01-02 01:21:51.12	23.29	14.11	-34.0	-35.3	19.0	0.00e+00	0	54	0	399507456	40	3965
2026-01-02 01:21:52.13	23.34	14.21	-34.0	-35.3	19.1	0.00e+00	0	54	0	404750336	40	3960
2026-01-02 01:21:53.14	23.38	14.32	-34.0	-35.3	19.1	0.00e+00	0	55	0	411041792	39	4201
2026-01-02 01:21:54.15	23.43	14.42	-34.1	-35.3	19.1	0.00e+00	0	54	0	416284672	39	4207
2026-01-02 01:21:55.16	23.47	14.52	-34.0	-35.2	19.1	0.00e+00	0	55	0	422576128	39	4183
2026-01-02 01:21:56.17	23.52	14.62	-34.0	-35.2	19.2	0.00e+00	0	54	0	427819008	39	4168
2026-01-02 01:21:57.18	23.57	14.73	-34.0	-35.2	19.2	0.00e+00	0	54	0	434110464	39	4161
2026-01-02 01:21:58.19	23.61	14.83	-33.9	-35.1	19.3	0.00e+00	0	55	0	439353344	39	4126
2026-01-02 01:21:59.20	23.66	14.93	-33.9	-35.1	19.3	0.00e+00	0	55	0	444596224	39	4108
2026-01-02 01:22:00.21	23.71	15.04	-33.9	-35.1	19.4	0.00e+00	0	55	0	450887680	39	4107
2026-01-02 01:22:01.22	23.76	15.14	-33.9	-35.1	19.3	0.00e+00	0	55	0	456130560	39	4105
2026-01-02 01:22:02.23	23.80	15.25	-33.8	-35.0	19.4	0.00e+00	0	54	0	462422016	39	4089
2026-01-02 01:22:03.24	23.85	15.36	-33.8	-35.0	19.4	0.00e+00	0	55	0	467664896	39	4071
2026-01-02 01:22:04.25	23.90	15.46	-33.8	-35.0	19.4	0.00e+00	0	55	0	473956352	39	4054
2026-01-02 01:22:05.26	23.95	15.57	-33.7	-34.9	19.5	0.00e+00	0	55	0	479199232	39	4019
2026-01-02 01:22:06.27	24.00	15.68	-33.7	-34.9	19.5	0.00e+00	0	55	0	484442112	39	4022
2026-01-02 01:22:07.29	24.05	15.79	-33.7	-34.9	19.6	0.00e+00	0	55	0	490733568	39	4009
2026-01-02 01:22:08.30	24.10	15.89	-33.6	-34.8	19.6	0.00e+00	0	55	0	495976448	39	3975
2026-01-02 01:22:09.30	24.15	16.00	-33.5	-34.7	19.7	0.00e+00	0	55	0	502267904	39	3945
2026-01-02 01:22:10.31	24.20	16.11	-33.5	-34.7	19.8	0.00e+00	0	55	0	507510784	38	4152
2026-01-02 01:22:11.32	24.25	16.22	-33.4	-34.6	19.9	0.00e+00	0	55	0	512753664	38	4129
2026-01-02 01:22:12.34	24.30	16.33	-33.4	-34.5	19.9	0.00e+00	0	55	0	519045120	38	4095
2026-01-02 01:22:13.35	24.35	16.44	-33.4	-34.5	19.9	0.00e+00	0	55	0	524288000	38	4079
2026-01-02 01:22:14.36	24.41	16.55	-33.3	-34.5	20.0	0.00e+00	0	55	0	530579456	38	4071
2026-01-02 01:22:15.37	24.46	16.66	-33.3	-34.4	20.0	0.00e+00	0	55	0	535822336	38	4048
2026-01-02 01:22:16.38	24.51	16.78	-33.3	-34.4	20.1	0.00e+00	0	55	0	541065216	38	4042
2026-01-02 01:22:17.39	24.56	16.89	-33.3	-34.4	20.1	0.00e+00	0	55	0	547356672	38	4026
2026-01-02 01:22:18.40	24.62	17.00	-33.3	-34.4	20.1	0.00e+00	0	55	0	552599552	38	4049
2026-01-02 01:22:19.41	24.67	17.12	-33.3	-34.4	20.1	0.00e+00	0	55	0	558891008	38	4046
2026-01-02 01:22:20.42	24.73	17.23	-33.3	-34.4	20.1	0.00e+00	0	55	0	564133888	38	4037
2026-01-02 01:22:21.43	24.78	17.34	-33.2	-34.4	20.1	0.00e+00	0	55	0	570425344	38	4025
2026-01-02 01:22:22.44	24.84	17.46	-33.2	-34.3	20.2	0.00e+00	0	55	0	575668224	38	4000
2026-01-02 01:22:23.45	24.89	17.58	-33.2	-34.4	20.1	0.00e+00	0	55	0	581959680	38	4021
2026-01-02 01:22:24.46	24.95	17.69	-33.1	-34.3	20.3	0.00e+00	0	55	0	587202560	38	3963
2026-01-02 01:22:25.47	25.00	17.81	-33.1	-34.2	20.3	0.00e+00	0	55	0	592445440	38	3958
2026-01-02 01:22:26.48	25.06	17.93	-33.0	-34.1	20.4	0.00e+00	0	55	0	598736896	38	3910
2026-01-02 01:22:27.49	25.12	18.04	-33.0	-34.1	20.4	0.00e+00	0	55	0	603979776	38	3895
2026-01-02 01:22:28.50	25.17	18.16	-32.9	-34.0	20.5	0.00e+00	0	55	0	610271232	37	4064
2026-01-02 01:22:29.51	25.23	18.28	-32.8	-33.9	20.6	0.00e+00	0	55	0	615514112	37	4039
2026-01-02 01:22:30.52	25.29	18.40	-32.8	-33.9	20.6	0.00e+00	0	55	0	620756992	37	4014
2026-01-02 01:22:31.53	25.35	18.52	-32.8	-33.9	20.7	0.00e+00	0	55	0	627048448	37	4011
2026-01-02 01:22:32.54	25.41	18.64	-32.7	-33.8	20.7	0.00e+00	0	55	0	632291328	37	3995
2026-01-02 01:22:33.55	25.47	18.76	-32.7	-33.8	20.8	0.00e+00	0	55	0	638582784	37	3977
2026-01-02 01:22:34.56	25.53	18.88	-32.7	-33.8	20.8	0.00e+00	0	55	0	643825664	37	3970
2026-01-02 01:22:35.57	25.59	19.01	-32.7	-33.8	20.7	0.00e+00	0	55	0	649068544	37	3996
2026-01-02 01:22:36.58	25.65	19.13	-32.7	-33.8	20.7	0.00e+00	0	55	0	655360000	37	3985
2026-01-02 01:22:37.59	25.71	19.25	-32.7	-33.8	20.7	0.00e+00	0	55	0	660602880	37	3993
2026-01-02 01:22:38.60	25.77	19.38	-32.8	-33.9	20.7	0.00e+00	0	55	0	666894336	37	4021
2026-01-02 01:22:39.61	25.83	19.50	-32.8	-33.9	20.6	0.00e+00	0	55	0	672137216	37	4026
2026-01-02 01:22:40.62	25.90	19.63	-32.8	-33.9	20.6	0.00e+00	0	55	0	678428672	37	4034
2026-01-02 01:22:41.63	25.96	19.75	-32.8	-34.0	20.6	0.00e+00	0	55	0	683671552	37	4052
2026-01-02 01:22:42.64	26.02	19.88	-32.8	-33.9	20.6	0.00e+00	0	55	0	689963008	37	4044
2026-01-02 01:22:43.64	26.09	20.01	-32.9	-34.0	20.6	0.00e+00	0	55	0	695205888	37	4074
2026-01-02 01:22:44.65	26.15	20.13	-32.9	-34.0	20.6	0.00e+00	0	55	0	700448768	37	4062
2026-01-02 01:22:45.66	26.22	20.26	-32.8	-33.9	20.7	0.00e+00	0	55	0	706740224	37	4042
2026-01-02 01:22:46.67	26.28	20.39	-32.8	-33.9	20.7	0.00e+00	0	55	0	711983104	37	4030
2026-01-02 01:22:47.68	26.35	20.52	-32.7	-33.8	20.8	0.00e+00	0	55	0	717225984	37	3985
2026-01-02 01:22:48.69	26.42	20.65	-32.7	-33.8	20.8	0.00e+00	0	55	0	723517440	37	3969
2026-01-02 01:22:49.70	26.48	20.78	-32.7	-33.8	20.9	0.00e+00	0	55	0	728760320	37	3968
2026-01-02 01:22:50.71	26.55	20.91	-32.7	-33.8	20.9	0.00e+00	0	55	0	735051776	37	3972
2026-01-02 01:22:51.72	26.62	21.04	-32.7	-33.8	20.9	0.00e+00	0	55	0	740294656	37	3983
2026-01-02 01:22:52.73	26.69	21.18	-32.7	-33.8	20.9	0.00e+00	0	55	0	745537536	37	3983
2026-01-02 01:22:53.74	26.76	21.31	-32.8	-33.9	20.8	0.00e+00	0	55	0	751828992	37	4021
2026-01-02 01:22:54.75	26.83	21.45	-32.7	-33.8	20.8	0.00e+00	0	55	0	757071872	37	4003
2026-01-02 01:22:55.76	26.90	21.58	-32.7	-33.9	20.8	0.00e+00	0	56	0	763363328	37	4009
2026-01-02 01:22:56.77	26.97	21.72	-32.7	-33.8	20.9	0.00e+00	0	56	0	768606208	37	3988
2026-01-02 01:22:57.78	27.04	21.85	-32.6	-33.7	20.9	0.00e+00	0	56	0	774897664	37	3956
2026-01-02 01:22:58.79	27.12	21.99	-32.6	-33.6	21.0	0.00e+00	0	56	0	780140544	37	3913
2026-01-02 01:22:59.80	27.19	22.13	-32.4	-33.5	21.2	0.00e+00	0	55	0	786432000	36	4064
2026-01-02 01:23:00.81	27.26	22.27	-32.3	-33.4	21.3	0.00e+00	0	56	0	791674880	36	4017
2026-01-02 01:23:01.82	27.34	22.40	-32.2	-33.3	21.4	0.00e+00	0	56	0	796917760	36	3963
2026-01-02 01:23:02.83	27.41	22.54	-32.1	-33.1	21.5	0.00e+00	0	56	0	803209216	36	3911
2026-01-02 01:23:03.84	27.49	22.69	-32.0	-33.1	21.6	0.00e+00	0	55	0	808452096	36	3873
2026-01-02 01:23:04.85	27.56	22.83	-31.3	-32.4	21.6	0.00e+00	0	56	0	814743552	34	4018
2026-01-02 01:23:05.86	27.64	22.97	-31.3	-32.4	21.6	0.00e+00	0	56	0	819986432	34	4016
2026-01-02 01:23:06.87	27.72	23.11	-31.3	-32.3	21.7	0.00e+00	0	56	0	825229312	34	3982
2026-01-02 01:23:07.88	27.80	23.25	-31.2	-32.2	21.7	0.00e+00	0	56	0	831520768	34	3944
2026-01-02 01:23:08.89	27.87	23.40	-31.2	-32.2	21.7	0.00e+00	0	56	0	836763648	34	3958
2026-01-02 01:23:09.90	27.95	23.54	-31.2	-32.2	21.7	0.00e+00	0	56	0	843055104	34	3952
2026-01-02 01:23:10.91	28.03	23.69	-31.2	-32.2	21.7	0.00e+00	0	56	0	848297984	34	3956
2026-01-02 01:23:11.92	28.12	23.84	-31.3	-32.3	21.7	0.00e+00	0	56	0	853540864	34	3984
2026-01-02 01:23:12.93	28.20	23.98	-31.3	-32.3	21.6	0.00e+00	0	56	0	859832320	34	4002
2026-01-02 01:23:13.94	28.28	24.13	-31.3	-32.4	21.6	0.00e+00	0	56	0	865075200	34	4017
2026-01-02 01:23:14.95	28.36	24.28	-31.3	-32.4	21.6	0.00e+00	0	56	0	871366656	34	4019
2026-01-02 01:23:15.96	28.45	24.43	-31.3	-32.4	21.6	0.00e+00	0	56	0	876609536	34	4005
2026-01-02 01:23:16.97	28.53	24.58	-31.2	-32.3	21.7	0.00e+00	0	56	0	882900992	34	3972
2026-01-02 01:23:17.98	28.62	24.73	-31.2	-32.3	21.7	0.00e+00	0	56	0	888143872	34	3960
2026-01-02 01:23:18.99	28.70	24.89	-31.2	-32.2	21.8	0.00e+00	0	56	0	894435328	34	3935
2026-01-02 01:23:20.00	28.79	25.04	-31.1	-32.1	21.8	0.00e+00	0	56	0	899678208	34	3913
2026-01-02 01:23:21.01	28.88	25.19	-31.1	-32.1	21.8	0.00e+00	0	56	0	904921088	34	3903
2026-01-02 01:23:22.02	28.97	25.35	-31.0	-32.0	21.9	0.00e+00	0	56	0	911212544	34	3868
2026-01-02 01:23:23.03	29.06	25.50	-30.9	-32.0	22.0	0.00e+00	0	56	0	916455424	33	4060
2026-01-02 01:23:24.04	29.15	25.66	-31.0	-32.0	21.9	0.00e+00	0	56	0	922746880	33	4082
2026-01-02 01:23:25.05	29.24	25.82	-31.0	-32.0	21.9	0.00e+00	0	56	0	927989760	33	4090
2026-01-02 01:23:26.06	29.33	25.97	-31.1	-32.1	21.8	0.00e+00	0	56	0	933232640	33	4141
2026-01-02 01:23:27.07	29.42	26.13	-31.2	-32.3	21.7	0.00e+00	0	56	0	939524096	33	4201
2026-01-02 01:23:28.08	29.52	26.29	-31.3	-32.4	21.6	0.00e+00	0	56	0	944766976	33	4244
2026-01-02 01:23:29.09	29.61	26.45	-31.3	-32.4	21.6	0.00e+00	0	56	0	951058432	33	4269
2026-01-02 01:23:30.10	29.71	26.62	-31.3	-32.4	21.6	0.00e+00	0	56	0	956301312	33	4265
2026-01-02 01:23:31.11	29.80	26.78	-31.3	-32.4	21.6	0.00e+00	0	56	0	961544192	33	4266
2026-01-02 01:23:32.12	29.90	26.94	-31.3	-32.3	21.7	0.00e+00	0	56	0	967835648	33	4239
2026-01-02 01:23:33.13	30.00	27.11	-31.3	-32.3	21.7	0.00e+00	0	56	0	973078528	33	4219
2026-01-02 01:23:34.14	30.10	27.27	-31.2	-32.2	21.8	0.00e+00	0	56	0	979369984	33	4178
2026-01-02 01:23:35.15	30.20	27.44	-31.1	-32.2	21.8	0.00e+00	0	56	0	984612864	33	4151
2026-01-02 01:23:36.16	30.30	27.60	-31.1	-32.1	21.9	0.00e+00	0	56	0	990904320	33	4129
2026-01-02 01:23:37.17	30.41	27.77	-31.1	-32.1	21.9	0.00e+00	0	56	0	996147200	33	4115
2026-01-02 01:23:38.18	30.51	27.94	-31.0	-32.1	21.9	0.00e+00	0	56	0	1002438656	33	4111
2026-01-02 01:23:39.19	30.61	28.11	-31.1	-32.1	21.9	0.00e+00	0	56	0	1007681536	33	4128
2026-01-02 01:23:40.21	30.72	28.28	-31.0	-32.1	21.9	0.00e+00	0	56	0	1012924416	33	4115
2026-01-02 01:23:41.22	30.83	28.46	-31.0	-32.0	21.9	0.00e+00	0	56	0	1019215872	33	4087
2026-01-02 01:23:42.23	30.94	28.63	-30.8	-31.9	22.1	0.00e+00	0	56	0	1024458752	33	4017
2026-01-02 01:23:43.24	31.04	28.80	-30.8	-31.8	22.2	0.00e+00	0	56	0	1030750208	33	3995
2026-01-02 01:23:44.25	31.15	28.98	-30.8	-31.8	22.2	0.00e+00	0	56	0	1035993088	33	3988
2026-01-02 01:23:45.26	31.27	29.15	-30.8	-31.8	22.2	0.00e+00	0	56	0	1041235968	33	4002
2026-01-02 01:23:46.27	31.38	29.33	-30.8	-31.8	22.1	0.00e+00	0	56	0	1047527424	33	3992
2026-01-02 01:23:47.28	31.49	29.51	-30.8	-31.8	22.2	0.00e+00	0	56	0	1052770304	33	3982
2026-01-02 01:23:48.29	31.61	29.69	-30.8	-31.8	22.2	0.00e+00	0	56	0	1059061760	33	3969
2026-01-02 01:23:49.30	31.72	29.87	-30.7	-31.7	22.3	0.00e+00	0	56	0	1064304640	33	3948
2026-01-02 01:23:50.31	31.84	30.05	-30.7	-31.7	22.3	0.00e+00	0	56	0	1069547520	33	3946
2026-01-02 01:23:51.32	31.96	30.23	-30.8	-31.8	22.2	0.00e+00	0	56	0	1075838976	33	3970
2026-01-02 01:23:52.33	32.08	30.41	-30.8	-31.8	22.2	0.00e+00	0	56	0	1081081856	33	3994
2026-01-02 01:23:53.34	32.20	30.60	-30.8	-31.8	22.2	0.00e+00	0	56	0	1087373312	33	3993
2026-01-02 01:23:54.35	32.33	30.78	-30.8	-31.8	22.2	0.00e+00	0	56	0	1092616192	33	3983
2026-01-02 01:23:55.36	32.45	30.97	-30.8	-31.8	22.2	0.00e+00	0	56	0	1098907648	33	3993
2026-01-02 01:23:56.37	32.58	31.15	-30.9	-31.9	22.1	0.00e+00	0	56	0	1104150528	33	4025
2026-01-02 01:23:57.38	32.70	31.34	-30.9	-31.9	22.1	0.00e+00	0	56	0	1109393408	33	4049
2026-01-02 01:23:58.39	32.83	31.53	-31.0	-32.0	22.0	0.00e+00	0	56	0	1115684864	33	4095
2026-01-02 01:23:59.40	32.96	31.72	-31.0	-32.1	22.0	0.00e+00	0	56	0	1120927744	33	4110
2026-01-02 01:24:00.41	33.09	31.91	-31.0	-32.1	22.0	0.00e+00	0	56	0	1127219200	33	4107
2026-01-02 01:24:01.41	33.22	32.10	-30.9	-31.9	22.1	0.00e+00	0	56	0	1132462080	33	4045
2026-01-02 01:24:02.42	33.36	32.30	-30.8	-31.8	22.2	0.00e+00	0	56	0	1137704960	33	3983
2026-01-02 01:24:03.43	33.49	32.49	-30.7	-31.7	22.3	0.00e+00	0	56	0	1143996416	33	3952
2026-01-02 01:24:04.44	33.63	32.69	-30.7	-31.7	22.3	0.00e+00	0	56	0	1149239296	33	3945
2026-01-02 01:24:05.45	33.77	32.89	-30.8	-31.8	22.2	0.00e+00	0	56	0	1155530752	33	3987
2026-01-02 01:24:06.46	33.91	33.08	-30.9	-31.9	22.1	0.00e+00	0	56	0	1160773632	33	4050
2026-01-02 01:24:07.47	34.05	33.28	-31.0	-32.1	22.0	0.00e+00	0	56	0	1166016512	33	4103
2026-01-02 01:24:08.48	34.20	33.48	-30.9	-32.0	22.1	0.00e+00	0	56	0	1172307968	33	4060
2026-01-02 01:24:09.49	34.34	33.68	-30.8	-31.9	22.1	0.00e+00	0	56	0	1177550848	33	4015
2026-01-02 01:24:10.50	34.49	33.89	-30.8	-31.8	22.2	0.00e+00	0	56	0	1183842304	33	3985
2026-01-02 01:24:11.51	34.64	34.09	-30.6	-31.7	22.4	0.00e+00	0	56	0	1189085184	33	3915
2026-01-02 01:24:12.52	34.79	34.30	-30.6	-31.6	22.4	0.00e+00	0	56	0	1195376640	33	3874
2026-01-02 01:24:13.53	34.95	34.50	-30.6	-31.6	22.4	0.00e+00	0	56	0	1200619520	33	3905
2026-01-02 01:24:14.54	35.10	34.71	-30.7	-31.7	22.3	0.00e+00	0	56	0	1206910976	33	3934
2026-01-02 01:24:15.55	35.26	34.92	-30.6	-31.6	22.4	0.00e+00	0	56	0	1212153856	33	3905
2026-01-02 01:24:16.56	35.42	35.13	-30.6	-31.6	22.4	0.00e+00	0	56	0	1217396736	33	3886
2026-01-02 01:24:17.57	35.58	35.34	-30.5	-31.6	22.5	0.00e+00	0	56	0	1223688192	33	3869
2026-01-02 01:24:18.57	35.74	35.55	-30.5	-31.5	22.6	0.00e+00	0	56	0	1228931072	33	3843
2026-01-02 01:24:19.59	35.91	35.76	-30.5	-31.5	22.5	0.00e+00	0	56	0	1235222528	32	4076
2026-01-02 01:24:20.59	36.07	35.97	-30.5	-31.5	22.5	0.00e+00	0	56	0	1240465408	32	4075
2026-01-02 01:24:21.60	36.24	36.19	-30.5	-31.5	22.5	0.00e+00	0	56	0	1245708288	32	4058
2026-01-02 01:24:22.61	36.42	36.41	-30.4	-31.4	22.6	0.00e+00	0	56	0	1251999744	32	4007
2026-01-02 01:24:23.62	36.59	36.62	-30.3	-31.3	22.7	0.00e+00	0	56	0	1257242624	32	3973
2026-01-02 01:24:24.63	36.77	36.84	-30.3	-31.3	22.7	0.00e+00	0	56	0	1262485504	32	3962
2026-01-02 01:24:25.64	36.94	37.06	-30.3	-31.3	22.7	0.00e+00	0	56	0	1268776960	32	3984
2026-01-02 01:24:26.65	37.13	37.29	-30.1	-31.2	21.9	0.00e+00	0	56	0	1274019840	32	3943
2026-01-02 01:24:27.66	37.31	37.51	-30.1	-31.2	21.9	0.00e+00	0	56	0	1280311296	32	3933
2026-01-02 01:24:28.67	37.49	37.73	-30.1	-31.2	21.9	0.00e+00	0	56	0	1285554176	32	3948
2026-01-02 01:24:29.68	37.68	37.96	-30.2	-31.3	21.8	0.00e+00	0	56	0	1291845632	32	3984
2026-01-02 01:24:30.69	37.87	38.18	-30.2	-31.4	21.7	0.00e+00	0	56	0	1297088512	32	4022
2026-01-02 01:24:31.70	38.07	38.41	-30.4	-31.5	21.7	0.00e+00	0	56	0	1303379968	32	4090
2026-01-02 01:24:32.71	38.26	38.64	-30.4	-31.6	21.6	0.00e+00	0	56	0	1308622848	32	4130
2026-01-02 01:24:33.73	38.47	38.87	-30.5	-31.7	21.5	0.00e+00	0	56	0	1313865728	32	4159
2026-01-02 01:24:34.74	38.67	39.10	-30.6	-31.8	21.5	0.00e+00	0	56	0	1320157184	32	4197
2026-01-02 01:24:35.75	38.87	39.33	-30.7	-31.9	21.4	0.00e+00	0	56	0	1325400064	32	4245
2026-01-02 01:24:36.76	39.08	39.57	-30.6	-31.8	21.5	0.00e+00	0	56	0	1331691520	32	4230
2026-01-02 01:24:37.77	39.29	39.80	-30.5	-31.7	21.6	0.00e+00	0	56	0	1336934400	32	4152
2026-01-02 01:24:38.78	39.50	40.04	-30.4	-31.5	21.8	0.00e+00	0	56	0	1342177280	32	4089
2026-01-02 01:24:39.79	39.72	40.27	-30.4	-31.5	21.8	0.00e+00	0	56	0	1348468736	32	4076
2026-01-02 01:24:40.80	39.94	40.51	-30.5	-31.6	21.7	0.00e+00	0	57	0	1353711616	32	4122
2026-01-02 01:24:41.81	40.16	40.75	-30.6	-31.8	21.6	0.00e+00	0	56	0	1360003072	32	4198
2026-01-02 01:24:42.82	40.39	40.99	-30.7	-31.9	21.5	0.00e+00	0	56	0	1365245952	32	4246
2026-01-02 01:24:43.82	40.62	41.23	-30.7	-31.9	21.4	0.00e+00	0	57	0	1370488832	32	4259
2026-01-02 01:24:44.83	40.85	41.47	-30.6	-31.8	21.5	0.00e+00	0	56	0	1376780288	32	4217
2026-01-02 01:24:45.84	41.09	41.71	-30.6	-31.8	21.5	0.00e+00	0	56	0	1382023168	32	4222
2026-01-02 01:24:46.85	41.33	41.96	-30.7	-31.8	21.5	0.00e+00	0	56	0	1388314624	32	4237
2026-01-02 01:24:47.86	41.57	42.20	-30.7	-31.9	21.4	0.00e+00	0	56	0	1393557504	32	4268
2026-01-02 01:24:48.87	41.82	42.45	-30.8	-31.9	21.3	0.00e+00	0	56	0	1399848960	32	4290
2026-01-02 01:24:49.88	42.07	42.70	-30.8	-32.0	21.3	0.00e+00	0	56	0	1405091840	32	4305
2026-01-02 01:24:50.89	42.32	42.95	-30.8	-31.9	21.3	0.00e+00	0	56	0	1411383296	32	4286
2026-01-02 01:24:51.90	42.58	43.20	-30.8	-32.0	21.3	0.00e+00	0	57	0	1416626176	32	4304
2026-01-02 01:24:52.91	42.84	43.45	-30.7	-31.8	21.4	0.00e+00	0	56	0	1421869056	32	4239
2026-01-02 01:24:53.92	43.11	43.70	-30.7	-31.8	21.5	0.00e+00	0	57	0	1428160512	32	4233
2026-01-02 01:24:54.93	43.38	43.95	-30.8	-32.0	21.3	0.00e+00	0	57	0	1433403392	32	4320
2026-01-02 01:24:55.94	43.66	44.21	-31.1	-32.3	21.1	0.00e+00	0	56	0	1439694848	32	4460
2026-01-02 01:24:56.95	43.94	44.46	-31.1	-32.3	21.1	0.00e+00	0	56	0	1444937728	32	4456
2026-01-02 01:24:57.96	44.22	44.72	-31.0	-32.2	21.2	0.00e+00	0	56	0	1450180608	32	4402
2026-01-02 01:24:58.97	44.51	44.97	-30.9	-32.1	21.3	0.00e+00	0	56	0	1456472064	32	4353
2026-01-02 01:24:59.98	44.80	45.23	-30.9	-32.1	21.3	0.00e+00	0	56	0	1461714944	32	4345
2026-01-02 01:25:00.99	45.10	45.49	-30.9	-32.0	21.3	0.00e+00	0	56	0	1468006400	32	4337
2026-01-02 01:25:02.00	45.40	45.75	-30.9	-32.1	21.3	0.00e+00	0	57	0	1473249280	32	4360
2026-01-02 01:25:03.01	45.71	46.01	-31.0	-32.1	21.2	0.00e+00	0	57	0	1478492160	32	4386
2026-01-02 01:25:04.02	46.03	46.27	-30.9	-32.1	21.3	0.00e+00	0	57	0	1484783616	32	4364
2026-01-02 01:25:05.03	46.34	46.53	-30.7	-31.9	21.5	0.00e+00	0	57	0	1490026496	32	4269
2026-01-02 01:25:06.04	46.67	46.79	-30.8	-31.9	21.5	0.00e+00	0	56	0	1496317952	32	4279
2026-01-02 01:25:07.05	47.00	47.05	-30.8	-32.0	21.5	0.00e+00	0	57	0	1501560832	32	4305
2026-01-02 01:25:08.06	47.33	47.32	-30.8	-32.0	21.5	0.00e+00	0	57	0	1507852288	32	4309
2026-01-02 01:25:09.07	47.67	47.58	-30.9	-32.0	21.5	0.00e+00	0	56	0	1513095168	32	4319
2026-01-02 01:25:10.08	48.02	47.85	-30.9	-32.1	21.5	0.00e+00	0	57	0	1518338048	32	4357
2026-01-02 01:25:11.09	48.37	48.11	-31.0	-32.2	21.4	0.00e+00	0	56	0	1524629504	32	4397
2026-01-02 01:25:12.10	48.73	48.38	-30.9	-32.1	21.5	0.00e+00	0	57	0	1529872384	32	4360
2026-01-02 01:25:13.11	49.09	48.64	-30.8	-31.9	21.7	0.00e+00	0	56	0	1536163840	32	4254
2026-01-02 01:25:14.12	49.46	48.91	-30.8	-32.0	21.6	0.00e+00	0	56	0	1541406720	32	4297
2026-01-02 01:25:15.13	49.84	49.18	-31.1	-32.2	21.3	0.00e+00	0	57	0	1546649600	32	4430
2026-01-02 01:25:16.14	50.22	49.44	-31.3	-32.5	21.1	0.00e+00	0	57	0	1552941056	33	4298
2026-01-02 01:25:17.15	50.61	49.71	-31.4	-32.6	20.9	0.00e+00	0	57	0	1558183936	33	4389
2026-01-02 01:25:18.16	51.01	49.98	-31.4	-32.6	20.9	0.00e+00	0	57	0	1564475392	33	4380
2026-01-02 01:25:19.17	51.41	50.25	-31.5	-32.7	20.9	0.00e+00	0	56	0	1569718272	33	4410
2026-01-02 01:25:20.18	51.82	50.52	-31.5	-32.7	20.8	0.00e+00	0	57	0	1576009728	33	4440
2026-01-02 01:25:21.20	52.24	50.79	-31.3	-32.5	21.1	0.00e+00	0	57	0	1581252608	33	4330
2026-01-02 01:25:22.20	52.66	51.05	-31.1	-32.2	21.4	0.00e+00	0	57	0	1586495488	33	4169
2026-01-02 01:25:23.21	53.10	51.32	-31.2	-32.3	21.3	0.00e+00	0	57	0	1592786944	33	4237
2026-01-02 01:25:24.22	53.54	51.59	-31.5	-32.7	21.0	0.00e+00	0	57	0	1598029824	33	4412
2026-01-02 01:25:25.23	53.99	51.85	-31.8	-33.0	20.8	0.00e+00	0	57	0	1604321280	34	4316
2026-01-02 01:25:26.24	54.44	52.12	-31.7	-32.9	20.8	0.00e+00	0	56	0	1609564160	34	4276
2026-01-02 01:25:27.25	54.91	52.39	-31.6	-32.8	20.9	0.00e+00	0	57	0	1615855616	34	4230
2026-01-02 01:25:28.26	55.38	52.65	-31.7	-33.0	20.7	0.00e+00	0	57	0	1621098496	34	4299
2026-01-02 01:25:29.27	55.86	52.92	-31.7	-32.9	20.7	0.00e+00	0	57	0	1626341376	34	4263
2026-01-02 01:25:30.28	56.35	53.18	-31.5	-32.7	20.9	0.00e+00	0	56	0	1632632832	34	4150
2026-01-02 01:25:31.29	56.85	53.45	-31.4	-32.6	21.0	0.00e+00	0	56	0	1637875712	34	4117
2026-01-02 01:25:32.30	57.36	53.71	-31.6	-32.7	20.9	0.00e+00	0	56	0	1644167168	34	4182
2026-01-02 01:25:33.31	57.88	53.97	-31.8	-33.0	20.6	0.00e+00	0	56	0	1649410048	34	4330
2026-01-02 01:25:34.32	58.41	54.24	-31.9	-33.2	20.5	0.00e+00	0	57	0	1654652928	34	4403
2026-01-02 01:25:35.33	58.95	54.50	-31.7	-32.9	20.7	0.00e+00	0	57	0	1660944384	34	4268
2026-01-02 01:25:36.34	59.49	54.75	-31.5	-32.6	21.0	0.00e+00	0	57	0	1666187264	34	4131
2026-01-02 01:25:37.35	60.05	55.01	-31.5	-32.7	20.9	0.00e+00	0	57	0	1672478720	34	4177
2026-01-02 01:25:38.36	60.62	55.27	-31.6	-32.8	20.8	0.00e+00	0	57	0	1677721600	34	4235
2026-01-02 01:25:39.37	61.19	55.52	-31.9	-33.2	20.5	0.00e+00	0	57	0	1682964480	34	4395
2026-01-02 01:25:40.38	61.78	55.78	-32.1	-33.4	20.3	0.00e+00	0	56	0	1689255936	34	4505
2026-01-02 01:25:41.39	62.38	56.03	-31.8	-33.0	20.6	0.00e+00	0	56	0	1694498816	34	4317
2026-01-02 01:25:42.40	62.99	56.28	-31.5	-32.7	21.0	0.00e+00	0	57	0	1700790272	34	4158
2026-01-02 01:25:43.41	63.61	56.53	-31.4	-32.5	21.1	0.00e+00	0	57	0	1706033152	34	4086
2026-01-02 01:25:44.42	64.24	56.77	-31.6	-32.8	20.9	0.00e+00	0	56	0	1712324608	34	4208
2026-01-02 01:25:45.43	64.88	57.01	-31.6	-32.8	20.8	0.00e+00	0	56	0	1717567488	34	4230
2026-01-02 01:25:46.44	65.54	57.25	-31.6	-32.8	20.8	0.00e+00	0	56	0	1723858944	34	4228
2026-01-02 01:25:47.45	66.20	57.49	-31.5	-32.7	21.0	0.00e+00	0	57	0	1729101824	34	4175
2026-01-02 01:25:48.45	66.87	57.73	-31.3	-32.5	21.2	0.00e+00	0	56	0	1734344704	34	4062
2026-01-02 01:25:49.46	67.56	57.96	-31.1	-32.2	21.5	0.00e+00	0	56	0	1740636160	34	3942
2026-01-02 01:25:50.47	68.26	58.19	-31.1	-32.3	21.3	0.00e+00	0	57	0	1745879040	34	3964
2026-01-02 01:25:51.48	68.97	58.41	-31.5	-32.7	20.9	0.00e+00	0	57	0	1752170496	34	4171
2026-01-02 01:25:52.49	69.70	58.64	-31.3	-32.6	21.0	0.00e+00	0	57	0	1757413376	34	4099
2026-01-02 01:25:53.50	70.44	58.86	-31.2	-32.3	21.2	0.00e+00	0	57	0	1762656256	34	3992
2026-01-02 01:25:54.52	71.19	59.08	-30.8	-31.9	21.7	0.00e+00	0	57	0	1768947712	33	4010
2026-01-02 01:25:55.53	71.95	59.29	-30.6	-31.8	21.8	0.00e+00	0	57	0	1774190592	33	3961
2026-01-02 01:25:56.54	72.73	59.50	-31.0	-32.2	21.4	0.00e+00	0	57	0	1780482048	33	4146
2026-01-02 01:25:57.55	73.51	59.70	-30.8	-32.0	21.5	0.00e+00	0	57	0	1785724928	33	4064
2026-01-02 01:25:58.56	74.31	59.90	-30.8	-31.9	21.6	0.00e+00	0	57	0	1790967808	33	4028
2026-01-02 01:25:59.57	75.12	60.10	-30.8	-31.9	21.5	0.00e+00	0	57	0	1797259264	33	4034
2026-01-02 01:26:00.58	75.95	60.29	-30.8	-32.0	21.4	0.00e+00	0	57	0	1802502144	33	4064
2026-01-02 01:26:01.59	76.78	60.48	-30.9	-32.1	21.3	0.00e+00	0	57	0	1808793600	33	4132
2026-01-02 01:26:02.60	77.63	60.66	-30.8	-32.0	21.5	0.00e+00	0	57	0	1814036480	33	4055
2026-01-02 01:26:03.60	78.48	60.83	-30.7	-31.9	21.5	0.00e+00	0	57	0	1820327936	33	4030
2026-01-02 01:26:04.61	79.35	61.00	-30.7	-31.8	21.5	0.00e+00	0	57	0	1825570816	33	3995
2026-01-02 01:26:05.62	80.23	61.17	-30.3	-31.4	21.9	0.00e+00	0	57	0	1830813696	32	4034
2026-01-02 01:26:06.63	81.13	61.33	-30.4	-31.5	21.8	0.00e+00	0	57	0	1837105152	32	4067
2026-01-02 01:26:07.64	82.03	61.49	-30.7	-31.9	21.5	0.00e+00	0	57	0	1842348032	32	4253
2026-01-02 01:26:08.65	82.95	61.64	-30.8	-32.1	21.4	0.00e+00	0	57	0	1848639488	32	4341
2026-01-02 01:26:09.66	83.88	61.78	-30.6	-31.7	21.7	0.00e+00	0	57	0	1853882368	32	4177
2026-01-02 01:26:10.67	84.82	61.92	-30.5	-31.7	21.7	0.00e+00	0	57	0	1859125248	32	4147
2026-01-02 01:26:11.68	85.77	62.05	-30.7	-31.9	21.5	0.00e+00	0	57	0	1865416704	32	4257
2026-01-02 01:26:12.69	86.73	62.17	-30.6	-31.8	21.6	0.00e+00	0	57	0	1870659584	32	4213
2026-01-02 01:26:13.70	87.69	62.29	-30.4	-31.5	21.9	0.00e+00	0	57	0	1876951040	32	4070
2026-01-02 01:26:14.71	88.67	62.40	-30.4	-31.5	21.8	0.00e+00	0	56	0	1882193920	32	4073
2026-01-02 01:26:15.72	89.66	62.50	-30.4	-31.6	21.7	0.00e+00	0	57	0	1887436800	32	4128
2026-01-02 01:26:16.73	90.65	62.60	-30.3	-31.4	21.8	0.00e+00	0	57	0	1893728256	32	4041
2026-01-02 01:26:17.75	91.66	62.69	-30.2	-31.3	21.9	0.00e+00	0	57	0	1898971136	32	3995
2026-01-02 01:26:18.76	92.67	62.77	-30.4	-31.5	21.7	0.00e+00	0	57	0	1905262592	32	4095
2026-01-02 01:26:19.77	93.69	62.85	-30.4	-31.6	21.7	0.00e+00	0	57	0	1910505472	32	4114
2026-01-02 01:26:20.78	94.71	62.91	-30.4	-31.5	21.8	0.00e+00	0	57	0	1916796928	32	4090
2026-01-02 01:26:21.79	95.74	62.97	-30.3	-31.4	21.9	0.00e+00	0	57	0	1922039808	32	4027
2026-01-02 01:26:22.80	96.77	63.03	-30.4	-31.5	21.8	0.00e+00	0	57	0	1928331264	32	4072
2026-01-02 01:26:23.81	97.81	63.07	-30.2	-31.3	21.9	0.00e+00	0	57	0	1933574144	32	3999
2026-01-02 01:26:24.82	98.85	63.11	-30.0	-31.1	22.1	0.00e+00	0	57	0	1938817024	32	3902
2026-01-02 01:26:25.83	99.89	63.14	-30.2	-31.3	21.9	0.00e+00	0	57	0	1945108480	32	3989
2026-01-02 01:26:26.84	100.94	63.16	-30.2	-31.3	21.9	0.00e+00	0	57	0	1950351360	32	3988
2026-01-02 01:26:27.85	101.99	63.17	-30.1	-31.2	22.0	0.00e+00	0	57	0	1956642816	32	3944
2026-01-02 01:26:28.86	103.03	63.18	-30.2	-31.4	21.9	0.00e+00	0	57	0	1961885696	32	4019
2026-01-02 01:26:29.87	104.08	63.18	-30.4	-31.5	21.8	0.00e+00	0	57	0	1967128576	32	4080
2026-01-02 01:26:30.88	105.13	63.17	-30.5	-31.6	21.7	0.00e+00	0	57	0	1973420032	32	4140
2026-01-02 01:26:31.89	106.18	63.15	-30.4	-31.5	21.8	0.00e+00	0	57	0	1978662912	32	4072
2026-01-02 01:26:32.90	107.22	63.12	-30.4	-31.5	21.8	0.00e+00	0	57	0	1984954368	32	4069
2026-01-02 01:26:33.91	108.26	63.09	-30.5	-31.7	21.6	0.00e+00	0	57	0	1990197248	32	4167
2026-01-02 01:26:34.93	109.31	63.05	-30.4	-31.5	21.8	0.00e+00	0	57	0	1995440128	32	4086
2026-01-02 01:26:35.94	110.35	63.00	-30.3	-31.4	21.9	0.00e+00	0	57	0	2001731584	32	4025
2026-01-02 01:26:36.94	111.37	62.94	-30.5	-31.7	21.6	0.00e+00	0	57	0	2006974464	32	4149
2026-01-02 01:26:37.95	112.39	62.88	-30.6	-31.8	21.6	0.00e+00	0	57	0	2013265920	32	4195
2026-01-02 01:26:38.96	113.41	62.81	-30.5	-31.7	21.6	0.00e+00	0	57	0	2018508800	32	4161
2026-01-02 01:26:39.97	114.43	62.73	-30.3	-31.4	21.9	0.00e+00	0	57	0	2024800256	32	4027
2026-01-02 01:26:40.99	115.44	62.64	-30.2	-31.3	22.0	0.00e+00	0	57	0	2030043136	32	3998
2026-01-02 01:26:42.00	116.44	62.55	-30.5	-31.6	21.7	0.00e+00	0	57	0	2036334592	32	4144
2026-01-02 01:26:43.01	117.43	62.45	-30.4	-31.6	21.7	0.00e+00	0	57	0	2041577472	32	4121
2026-01-02 01:26:44.02	118.42	62.34	-30.2	-31.3	22.0	0.00e+00	0	57	0	2046820352	32	3984
2026-01-02 01:26:45.03	119.39	62.23	-30.3	-31.4	21.9	0.00e+00	0	57	0	2053111808	32	4050
2026-01-02 01:26:46.04	120.35	62.11	-30.7	-31.8	21.6	0.00e+00	0	57	0	2058354688	32	4227
2026-01-02 01:26:47.05	121.31	61.98	-30.7	-31.9	21.5	0.00e+00	0	57	0	2064646144	32	4252
2026-01-02 01:26:48.06	122.25	61.84	-30.6	-31.8	21.6	0.00e+00	0	57	0	2069889024	32	4206
2026-01-02 01:26:49.07	123.19	61.70	-30.6	-31.7	21.7	0.00e+00	0	57	0	2075131904	32	4158
2026-01-02 01:26:50.08	124.11	61.56	-30.6	-31.7	21.7	0.00e+00	0	57	0	2081423360	32	4185
2026-01-02 01:26:51.09	125.02	61.41	-30.5	-31.6	21.8	0.00e+00	0	57	0	2086666240	32	4122
2026-01-02 01:26:52.10	125.93	61.25	-30.3	-31.5	21.9	0.00e+00	0	57	0	2092957696	32	4055
2026-01-02 01:26:53.11	126.82	61.08	-30.3	-31.4	21.9	0.00e+00	0	57	0	2098200576	32	4032
2026-01-02 01:26:54.12	127.69	60.91	-30.3	-31.4	21.9	0.00e+00	0	57	0	2103443456	32	4038
2026-01-02 01:26:55.14	128.57	60.74	-30.3	-31.4	21.9	0.00e+00	0	57	0	2109734912	32	4047
2026-01-02 01:26:56.15	129.42	60.56	-30.5	-31.6	21.8	0.00e+00	0	57	0	2114977792	32	4145
2026-01-02 01:26:57.16	130.27	60.37	-30.7	-31.9	21.6	0.00e+00	0	57	0	2121269248	32	4268
2026-01-02 01:26:58.17	131.10	60.18	-30.8	-31.9	21.6	0.00e+00	0	57	0	2126512128	32	4281
2026-01-02 01:26:59.18	131.91	59.99	-30.8	-31.9	21.6	0.00e+00	0	57	0	2132803584	32	4281
2026-01-02 01:27:00.19	132.72	59.79	-31.1	-32.3	21.3	0.00e+00	0	57	0	2138046464	32	4466
2026-01-02 01:27:01.20	133.51	59.59	-31.2	-32.4	21.2	0.00e+00	0	57	0	2144337920	33	4249
2026-01-02 01:27:02.21	134.29	59.38	-31.0	-32.1	21.4	0.00e+00	0	57	0	2149580800	33	4124
2026-01-02 01:27:03.22	135.06	59.17	-30.8	-31.9	21.5	0.00e+00	0	57	0	2154823680	33	4035
2026-01-02 01:27:04.23	135.82	58.95	-31.1	-32.3	21.2	0.00e+00	0	57	0	2161115136	33	4205
2026-01-02 01:27:05.24	136.56	58.74	-31.2	-32.4	21.1	0.00e+00	0	57	0	2166358016	33	4279
2026-01-02 01:27:06.25	137.29	58.51	-31.1	-32.3	21.2	0.00e+00	0	57	0	2172649472	33	4216
2026-01-02 01:27:07.26	138.01	58.29	-31.0	-32.2	21.3	0.00e+00	0	57	0	2177892352	33	4152
2026-01-02 01:27:08.27	138.72	58.06	-31.0	-32.1	21.4	0.00e+00	0	57	0	2183135232	33	4120
2026-01-02 01:27:09.28	139.42	57.83	-31.1	-32.2	21.3	0.00e+00	0	57	0	2189426688	33	4171
2026-01-02 01:27:10.29	140.10	57.59	-31.4	-32.6	21.0	0.00e+00	0	57	0	2194669568	33	4383
2026-01-02 01:27:11.30	140.77	57.35	-31.5	-32.6	21.0	0.00e+00	0	57	0	2200961024	33	4383
2026-01-02 01:27:12.31	141.43	57.11	-31.3	-32.4	21.2	0.00e+00	0	57	0	2206203904	33	4271
2026-01-02 01:27:13.32	142.08	56.87	-31.4	-32.6	21.0	0.00e+00	0	57	0	2211446784	33	4362
2026-01-02 01:27:14.33	142.72	56.63	-31.7	-32.9	20.6	0.00e+00	0	57	0	2217738240	33	4540
2026-01-02 01:27:15.34	143.34	56.38	-32.0	-33.3	20.3	0.00e+00	0	57	0	2222981120	34	4470
2026-01-02 01:27:16.35	143.96	56.13	-31.9	-33.1	20.5	0.00e+00	0	57	0	2229272576	34	4388
2026-01-02 01:27:17.36	144.56	55.88	-32.0	-33.2	20.4	0.00e+00	0	57	0	2234515456	34	4423
2026-01-02 01:27:18.37	145.16	55.62	-32.2	-33.5	20.1	0.00e+00	0	57	0	2240806912	34	4563
2026-01-02 01:27:19.38	145.74	55.37	-32.1	-33.3	20.2	0.00e+00	0	57	0	2246049792	34	4482
2026-01-02 01:27:20.39	146.31	55.11	-31.7	-33.0	20.5	0.00e+00	0	57	0	2252341248	34	4295
2026-01-02 01:27:21.40	146.88	54.85	-31.5	-32.7	20.8	0.00e+00	0	57	0	2257584128	34	4152
2026-01-02 01:27:22.41	147.43	54.59	-31.6	-32.8	20.7	0.00e+00	0	57	0	2262827008	34	4195
2026-01-02 01:27:23.42	147.97	54.33	-31.9	-33.1	20.4	0.00e+00	0	57	0	2269118464	34	4380
2026-01-02 01:27:24.43	148.50	54.07	-31.9	-33.2	20.3	0.00e+00	0	57	0	2274361344	34	4403
2026-01-02 01:27:25.44	149.03	53.81	-31.7	-32.9	20.5	0.00e+00	0	57	0	2280652800	34	4268
2026-01-02 01:27:26.44	149.54	53.55	-31.7	-32.9	20.6	0.00e+00	0	57	0	2285895680	34	4262
2026-01-02 01:27:27.45	150.04	53.28	-31.8	-33.0	20.5	0.00e+00	0	57	0	2291138560	34	4307
2026-01-02 01:27:28.46	150.54	53.02	-31.8	-33.1	20.4	0.00e+00	0	57	0	2297430016	34	4349
2026-01-02 01:27:29.47	151.02	52.75	-31.7	-33.0	20.5	0.00e+00	0	57	0	2302672896	34	4308
2026-01-02 01:27:30.48	151.50	52.48	-31.6	-32.8	20.6	0.00e+00	0	57	0	2308964352	34	4230
2026-01-02 01:27:31.49	151.97	52.22	-31.4	-32.6	20.8	0.00e+00	0	57	0	2314207232	34	4141
2026-01-02 01:27:32.50	152.43	51.95	-31.2	-32.4	21.1	0.00e+00	0	57	0	2319450112	34	4005
2026-01-02 01:27:33.51	152.89	51.68	-31.1	-32.3	21.2	0.00e+00	0	57	0	2325741568	34	3983
2026-01-02 01:27:34.52	153.33	51.41	-31.2	-32.3	21.1	0.00e+00	0	57	0	2330984448	34	4004
2026-01-02 01:27:35.53	153.77	51.14	-31.2	-32.4	21.1	0.00e+00	0	57	0	2337275904	34	4010
2026-01-02 01:27:36.54	154.20	50.87	-31.1	-32.2	21.3	0.00e+00	0	57	0	2342518784	34	3949
2026-01-02 01:27:37.55	154.62	50.60	-31.1	-32.2	21.3	0.00e+00	0	57	0	2348810240	34	3944
2026-01-02 01:27:38.56	155.03	50.33	-31.2	-32.4	21.2	0.00e+00	0	57	0	2354053120	34	4005
2026-01-02 01:27:39.57	155.44	50.07	-31.3	-32.5	21.0	0.00e+00	0	57	0	2359296000	34	4073
2026-01-02 01:27:40.59	155.85	49.79	-31.2	-32.4	21.1	0.00e+00	0	57	0	2365587456	34	4043
2026-01-02 01:27:41.59	156.24	49.53	-31.1	-32.2	21.3	0.00e+00	0	57	0	2370830336	34	3945
2026-01-02 01:27:42.60	156.62	49.26	-30.9	-32.0	21.4	0.00e+00	0	57	0	2377121792	33	4084
2026-01-02 01:27:43.61	157.00	48.99	-30.8	-31.9	21.5	0.00e+00	0	57	0	2382364672	33	4046
2026-01-02 01:27:44.62	157.38	48.72	-30.9	-32.0	21.4	0.00e+00	0	57	0	2387607552	33	4077
2026-01-02 01:27:45.63	157.74	48.46	-30.9	-32.1	21.4	0.00e+00	0	57	0	2393899008	33	4115
2026-01-02 01:27:46.64	158.10	48.19	-31.1	-32.2	21.2	0.00e+00	0	57	0	2399141888	33	4190
2026-01-02 01:27:47.65	158.46	47.92	-31.1	-32.3	21.1	0.00e+00	0	57	0	2405433344	33	4216
2026-01-02 01:27:48.66	158.81	47.66	-31.1	-32.4	21.1	0.00e+00	0	57	0	2410676224	33	4245
2026-01-02 01:27:49.67	159.15	47.39	-31.1	-32.3	21.1	0.00e+00	0	57	0	2415919104	33	4217
2026-01-02 01:27:50.68	159.49	47.13	-30.9	-32.1	21.2	0.00e+00	0	57	0	2422210560	33	4131
2026-01-02 01:27:51.69	159.82	46.86	-30.8	-31.9	21.4	0.00e+00	0	57	0	2427453440	33	4042
2026-01-02 01:27:52.70	160.15	46.60	-30.7	-31.8	21.4	0.00e+00	0	57	0	2433744896	33	4002
2026-01-02 01:27:53.71	160.47	46.33	-30.8	-31.9	21.4	0.00e+00	0	57	0	2438987776	33	4048
2026-01-02 01:27:54.72	160.78	46.07	-30.9	-32.1	21.3	0.00e+00	0	57	0	2445279232	33	4100
2026-01-02 01:27:55.73	161.09	45.81	-30.9	-32.2	21.1	0.00e+00	0	57	0	2450522112	33	4154
2026-01-02 01:27:56.74	161.40	45.55	-30.9	-32.1	21.2	0.00e+00	0	57	0	2456813568	33	4117
2026-01-02 01:27:57.75	161.70	45.29	-30.6	-31.8	21.5	0.00e+00	0	57	0	2462056448	33	3973
2026-01-02 01:27:58.76	162.00	45.03	-30.4	-31.5	21.7	0.00e+00	0	57	0	2467299328	32	4093
2026-01-02 01:27:59.77	162.29	44.77	-30.2	-31.3	21.9	0.00e+00	0	57	0	2473590784	32	3977
2026-01-02 01:28:00.78	162.57	44.51	-30.3	-31.4	21.8	0.00e+00	0	57	0	2478833664	32	4034
2026-01-02 01:28:01.79	162.86	44.26	-30.5	-31.7	21.6	0.00e+00	0	57	0	2485125120	32	4160
2026-01-02 01:28:02.80	163.13	44.00	-30.8	-32.0	21.3	0.00e+00	0	57	0	2490368000	32	4294
2026-01-02 01:28:03.81	163.41	43.75	-30.9	-32.1	21.2	0.00e+00	0	57	0	2495610880	32	4361
2026-01-02 01:28:04.82	163.68	43.49	-30.9	-32.1	21.2	0.00e+00	0	57	0	2501902336	32	4368
2026-01-02 01:28:05.83	163.94	43.24	-30.8	-32.0	21.3	0.00e+00	0	57	0	2507145216	32	4300
2026-01-02 01:28:06.83	164.20	42.99	-30.7	-31.8	21.4	0.00e+00	0	57	0	2513436672	32	4237
2026-01-02 01:28:07.84	164.46	42.74	-30.6	-31.8	21.5	0.00e+00	0	57	0	2518679552	32	4202
2026-01-02 01:28:08.85	164.71	42.49	-30.6	-31.8	21.4	0.00e+00	0	57	0	2523922432	32	4211
2026-01-02 01:28:09.86	164.96	42.24	-30.7	-31.8	21.4	0.00e+00	0	57	0	2530213888	32	4226
2026-01-02 01:28:10.87	165.20	42.00	-30.7	-31.9	21.3	0.00e+00	0	57	0	2535456768	32	4265
2026-01-02 01:28:11.88	165.45	41.75	-30.6	-31.8	21.3	0.00e+00	0	57	0	2541748224	32	4236
2026-01-02 01:28:12.90	165.69	41.50	-30.6	-31.8	21.3	0.00e+00	0	57	0	2546991104	32	4216
2026-01-02 01:28:13.91	165.92	41.26	-30.5	-31.7	21.4	0.00e+00	0	57	0	2553282560	32	4158
2026-01-02 01:28:14.92	166.15	41.02	-30.3	-31.5	21.5	0.00e+00	0	57	0	2558525440	32	4059
2026-01-02 01:28:15.93	166.38	40.78	-30.3	-31.4	21.5	0.00e+00	0	57	0	2563768320	32	4039
2026-01-02 01:28:16.94	166.60	40.53	-30.3	-31.5	21.5	0.00e+00	0	57	0	2570059776	32	4068
2026-01-02 01:28:17.95	166.83	40.30	-30.4	-31.6	21.4	0.00e+00	0	57	0	2575302656	32	4120
2026-01-02 01:28:18.96	167.04	40.06	-30.5	-31.7	21.4	0.00e+00	0	57	0	2581594112	32	4152
2026-01-02 01:28:19.97	167.26	39.82	-30.5	-31.7	21.4	0.00e+00	0	57	0	2586836992	32	4157
2026-01-02 01:28:20.98	167.47	39.58	-30.5	-31.7	21.3	0.00e+00	0	57	0	2592079872	32	4167
2026-01-02 01:28:21.99	167.68	39.35	-30.5	-31.7	21.3	0.00e+00	0	57	0	2598371328	32	4175
2026-01-02 01:28:23.00	167.89	39.12	-30.6	-31.8	21.3	0.00e+00	0	57	0	2603614208	32	4196
2026-01-02 01:28:24.01	168.09	38.88	-30.6	-31.8	21.3	0.00e+00	0	57	0	2609905664	32	4216
2026-01-02 01:28:25.02	168.29	38.65	-30.6	-31.8	21.4	0.00e+00	0	57	0	2615148544	32	4200
2026-01-02 01:28:26.03	168.49	38.42	-30.5	-31.7	21.5	0.00e+00	0	57	0	2620391424	32	4150
2026-01-02 01:28:27.04	168.68	38.19	-30.4	-31.5	21.5	0.00e+00	0	57	0	2626682880	32	4090
2026-01-02 01:28:28.05	168.87	37.96	-30.2	-31.4	21.7	0.00e+00	0	57	0	2631925760	32	4011
2026-01-02 01:28:29.06	169.06	37.74	-30.1	-31.2	21.8	0.00e+00	0	57	0	2638217216	32	3953
2026-01-02 01:28:30.06	169.25	37.51	-30.1	-31.2	21.8	0.00e+00	0	57	0	2643460096	32	3928
2026-01-02 01:28:31.07	169.43	37.29	-30.0	-31.1	21.9	0.00e+00	0	57	0	2648702976	32	3903
2026-01-02 01:28:32.08	169.61	37.07	-29.8	-31.0	21.9	0.00e+00	0	57	0	2654994432	31	4058
2026-01-02 01:28:33.09	169.79	36.85	-29.9	-31.0	21.9	0.00e+00	0	57	0	2660237312	31	4054
2026-01-02 01:28:34.11	169.97	36.62	-29.9	-31.0	21.8	0.00e+00	0	57	0	2666528768	31	4090
2026-01-02 01:28:35.11	170.15	36.41	-30.0	-31.1	21.7	0.00e+00	0	57	0	2671771648	31	4126
2026-01-02 01:28:36.13	170.32	36.19	-30.1	-31.2	21.6	0.00e+00	0	57	0	2678063104	31	4177
2026-01-02 01:28:37.13	170.49	35.97	-30.1	-31.3	21.5	0.00e+00	0	57	0	2683305984	31	4222
2026-01-02 01:28:38.14	170.66	35.75	-30.2	-31.3	21.5	0.00e+00	0	57	0	2689597440	31	4230
2026-01-02 01:28:39.15	170.82	35.54	-30.2	-31.4	21.5	0.00e+00	0	57	0	2694840320	31	4271
2026-01-02 01:28:40.16	170.99	35.33	-30.2	-31.4	21.5	0.00e+00	0	57	0	2700083200	31	4251
2026-01-02 01:28:41.17	171.15	35.11	-30.2	-31.4	21.5	0.00e+00	0	57	0	2706374656	31	4250
2026-01-02 01:28:42.18	171.31	34.90	-30.2	-31.4	21.5	0.00e+00	0	57	0	2711617536	31	4265
2026-01-02 01:28:43.19	171.47	34.69	-30.2	-31.4	21.5	0.00e+00	0	57	0	2717908992	31	4271
2026-01-02 01:28:44.20	171.62	34.48	-30.3	-31.4	21.4	0.00e+00	0	57	0	2723151872	31	4291
2026-01-02 01:28:45.21	171.78	34.28	-30.3	-31.5	21.4	0.00e+00	0	57	0	2728394752	31	4321
2026-01-02 01:28:46.22	171.93	34.07	-30.4	-31.6	21.3	0.00e+00	0	57	0	2734686208	31	4345
2026-01-02 01:28:47.22	172.08	33.87	-30.4	-31.7	21.2	0.00e+00	0	57	0	2739929088	31	4392
2026-01-02 01:28:48.23	172.23	33.66	-30.5	-31.7	21.2	0.00e+00	0	57	0	2745171968	31	4410
2026-01-02 01:28:49.24	172.37	33.46	-30.5	-31.7	21.2	0.00e+00	0	57	0	2751463424	31	4416
2026-01-02 01:28:50.25	172.52	33.26	-30.5	-31.7	21.2	0.00e+00	0	57	0	2756706304	31	4409
2026-01-02 01:28:51.26	172.66	33.06	-30.5	-31.7	21.2	0.00e+00	0	57	0	2762997760	31	4408
2026-01-02 01:28:52.27	172.80	32.86	-30.4	-31.7	21.2	0.00e+00	0	57	0	2768240640	31	4398
2026-01-02 01:28:53.28	172.94	32.66	-30.4	-31.6	21.2	0.00e+00	0	57	0	2774532096	31	4382
2026-01-02 01:28:54.29	173.08	32.46	-30.5	-31.6	21.2	0.00e+00	0	57	0	2779774976	31	4390
2026-01-02 01:28:55.30	173.22	32.27	-30.5	-31.7	21.1	0.00e+00	0	57	0	2786066432	31	4410
2026-01-02 01:28:56.31	173.35	32.07	-30.5	-31.7	21.1	0.00e+00	0	57	0	2791309312	31	4433
2026-01-02 01:28:57.32	173.49	31.88	-30.6	-31.8	21.1	0.00e+00	0	57	0	2796552192	31	4465
2026-01-02 01:28:58.33	173.62	31.68	-30.7	-31.9	21.0	0.00e+00	0	57	0	2802843648	31	4517
2026-01-02 01:28:59.34	173.75	31.49	-30.9	-32.2	20.9	0.00e+00	0	57	0	2808086528	32	4394
2026-01-02 01:29:00.35	173.88	31.30	-31.0	-32.2	20.8	0.00e+00	0	57	0	2814377984	32	4429
2026-01-02 01:29:01.36	174.00	31.11	-31.0	-32.3	20.8	0.00e+00	0	57	0	2819620864	32	4450
2026-01-02 01:29:02.37	174.13	30.92	-31.1	-32.3	20.7	0.00e+00	0	57	0	2824863744	32	4482
2026-01-02 01:29:03.38	174.25	30.74	-31.1	-32.3	20.7	0.00e+00	0	57	0	2831155200	32	4482
2026-01-02 01:29:04.39	174.38	30.55	-31.0	-32.3	20.8	0.00e+00	0	57	0	2836398080	32	4465
2026-01-02 01:29:05.40	174.50	30.36	-31.0	-32.3	20.8	0.00e+00	0	57	0	2842689536	32	4453
2026-01-02 01:29:06.41	174.62	30.18	-31.0	-32.2	20.8	0.00e+00	0	57	0	2847932416	32	4421
2026-01-02 01:29:07.42	174.74	30.00	-30.9	-32.2	20.9	0.00e+00	0	57	0	2853175296	32	4393
2026-01-02 01:29:08.43	174.86	29.81	-30.9	-32.1	20.9	0.00e+00	0	57	0	2859466752	32	4384
2026-01-02 01:29:09.44	174.97	29.63	-30.9	-32.1	20.9	0.00e+00	0	57	0	2864709632	32	4371
2026-01-02 01:29:10.45	175.09	29.45	-30.9	-32.1	20.9	0.00e+00	0	57	0	2871001088	32	4360
2026-01-02 01:29:11.46	175.20	29.27	-30.9	-32.1	20.9	0.00e+00	0	57	0	2876243968	32	4386
2026-01-02 01:29:12.47	175.32	29.10	-30.9	-32.1	20.9	0.00e+00	0	57	0	2882535424	32	4387
2026-01-02 01:29:13.48	175.43	28.92	-31.0	-32.2	20.9	0.00e+00	0	57	0	2887778304	32	4415
2026-01-02 01:29:14.49	175.54	28.74	-31.0	-32.2	20.8	0.00e+00	0	57	0	2894069760	32	4437
2026-01-02 01:29:15.50	175.65	28.57	-31.0	-32.2	20.8	0.00e+00	0	57	0	2899312640	32	4441
2026-01-02 01:29:16.51	175.76	28.39	-31.0	-32.2	20.8	0.00e+00	0	57	0	2904555520	32	4435
2026-01-02 01:29:17.52	175.86	28.22	-31.0	-32.2	20.8	0.00e+00	0	57	0	2910846976	32	4435
2026-01-02 01:29:18.53	175.97	28.05	-30.9	-32.2	20.8	0.00e+00	0	57	0	2916089856	32	4403
2026-01-02 01:29:19.54	176.07	27.88	-30.9	-32.2	20.9	0.00e+00	0	57	0	2922381312	32	4394
2026-01-02 01:29:20.55	176.18	27.71	-30.8	-32.1	20.9	0.00e+00	0	57	0	2927624192	32	4362
2026-01-02 01:29:21.56	176.28	27.54	-30.8	-32.1	20.9	0.00e+00	0	57	0	2932867072	32	4356
2026-01-02 01:29:22.57	176.38	27.37	-30.8	-32.0	21.0	0.00e+00	0	57	0	2939158528	32	4305
2026-01-02 01:29:23.58	176.48	27.20	-30.7	-32.0	21.0	0.00e+00	0	57	0	2944401408	32	4295
2026-01-02 01:29:24.59	176.58	27.04	-30.7	-31.9	21.1	0.00e+00	0	57	0	2950692864	32	4281
2026-01-02 01:29:25.60	176.68	26.87	-30.7	-31.9	21.1	0.00e+00	0	57	0	2955935744	32	4276
2026-01-02 01:29:26.61	176.78	26.70	-30.7	-31.9	21.0	0.00e+00	0	57	0	2961178624	32	4291
2026-01-02 01:29:27.62	176.87	26.54	-30.8	-32.0	21.0	0.00e+00	0	57	0	2967470080	32	4311
2026-01-02 01:29:28.63	176.97	26.38	-30.8	-32.0	21.0	0.00e+00	0	57	0	2972712960	32	4318
2026-01-02 01:29:29.64	177.06	26.22	-30.8	-32.1	20.9	0.00e+00	0	57	0	2979004416	32	4343
2026-01-02 01:29:30.65	177.16	26.06	-30.9	-32.1	20.9	0.00e+00	0	57	0	2984247296	32	4373
2026-01-02 01:29:31.66	177.25	25.90	-30.9	-32.1	20.8	0.00e+00	0	57	0	2990538752	32	4391
2026-01-02 01:29:32.67	177.34	25.74	-30.9	-32.2	20.8	0.00e+00	0	57	0	2995781632	32	4395
2026-01-02 01:29:33.68	177.44	25.58	-31.0	-32.2	20.7	0.00e+00	0	57	0	3001024512	32	4429
2026-01-02 01:29:34.69	177.53	25.42	-31.0	-32.3	20.7	0.00e+00	0	57	0	3007315968	32	4452
2026-01-02 01:29:35.70	177.61	25.26	-31.0	-32.2	20.7	0.00e+00	0	57	0	3012558848	32	4436
2026-01-02 01:29:36.71	177.70	25.11	-31.0	-32.3	20.7	0.00e+00	0	57	0	3018850304	32	4448
2026-01-02 01:29:37.72	177.79	24.95	-31.1	-32.3	20.7	0.00e+00	0	57	0	3024093184	32	4469
2026-01-02 01:29:38.73	177.88	24.80	-31.1	-32.3	20.7	0.00e+00	0	57	0	3029336064	32	4473
2026-01-02 01:29:39.74	177.96	24.65	-31.1	-32.3	20.7	0.00e+00	0	57	0	3035627520	32	4462
2026-01-02 01:29:40.75	178.05	24.49	-31.1	-32.3	20.6	0.00e+00	0	57	0	3040870400	32	4467
2026-01-02 01:29:41.76	178.13	24.34	-31.1	-32.3	20.7	0.00e+00	0	57	0	3047161856	32	4457
2026-01-02 01:29:42.77	178.22	24.19	-31.1	-32.3	20.6	0.00e+00	0	57	0	3052404736	32	4483
2026-01-02 01:29:43.78	178.30	24.04	-31.1	-32.3	20.6	0.00e+00	0	57	0	3058696192	32	4491
2026-01-02 01:29:44.79	178.38	23.89	-31.2	-32.4	20.6	0.00e+00	0	57	0	3063939072	32	4511
2026-01-02 01:29:45.80	178.46	23.74	-31.2	-32.4	20.5	0.00e+00	0	57	0	3069181952	32	4529
2026-01-02 01:29:46.81	178.55	23.60	-31.2	-32.4	20.5	0.00e+00	0	57	0	3075473408	32	4545
2026-01-02 01:29:47.82	178.63	23.45	-31.2	-32.4	20.5	0.00e+00	0	57	0	3080716288	32	4534
2026-01-02 01:29:48.83	178.71	23.30	-31.2	-32.5	20.5	0.00e+00	0	57	0	3087007744	32	4557
2026-01-02 01:29:49.84	178.78	23.16	-31.3	-32.5	20.5	0.00e+00	0	57	0	3092250624	33	4332
2026-01-02 01:29:50.85	178.86	23.01	-31.3	-32.6	20.4	0.00e+00	0	57	0	3098542080	33	4354
2026-01-02 01:29:51.86	178.94	22.87	-31.3	-32.6	20.4	0.00e+00	0	57	0	3103784960	33	4373
2026-01-02 01:29:52.86	179.02	22.73	-31.4	-32.7	20.4	0.00e+00	0	57	0	3109027840	33	4393
2026-01-02 01:29:53.88	179.09	22.58	-31.4	-32.7	20.3	0.00e+00	0	57	0	3115319296	33	4413
2026-01-02 01:29:54.89	179.17	22.44	-31.4	-32.7	20.3	0.00e+00	0	57	0	3120562176	33	4431
2026-01-02 01:29:55.90	179.24	22.30	-31.5	-32.8	20.3	0.00e+00	0	57	0	3126853632	33	4444
2026-01-02 01:29:56.91	179.32	22.16	-31.5	-32.8	20.2	0.00e+00	0	57	0	3132096512	33	4461
2026-01-02 01:29:57.92	179.39	22.02	-31.5	-32.8	20.2	0.00e+00	0	57	0	3137339392	33	4488
2026-01-02 01:29:58.93	179.46	21.88	-31.6	-32.9	20.1	0.00e+00	0	57	0	3143630848	33	4500
2026-01-02 01:29:59.94	179.53	21.75	-31.6	-32.9	20.2	0.00e+00	0	57	0	3148873728	33	4504
2026-01-02 01:30:00.95	179.61	21.61	-31.6	-32.9	20.1	0.00e+00	0	57	0	3155165184	33	4529
2026-01-02 01:30:01.96	179.68	21.47	-31.6	-32.9	20.1	0.00e+00	0	57	0	3160408064	33	4543
2026-01-02 01:30:02.97	179.75	21.34	-31.7	-33.0	20.1	0.00e+00	0	57	0	3165650944	33	4569
2026-01-02 01:30:03.98	179.82	21.20	-31.7	-33.0	20.0	0.00e+00	0	57	0	3171942400	34	4326
2026-01-02 01:30:04.99	179.89	21.07	-31.8	-33.1	19.9	0.00e+00	0	57	0	3177185280	34	4373
2026-01-02 01:30:06.00	179.95	20.93	-31.8	-33.1	19.9	0.00e+00	0	57	0	3183476736	34	4385
2026-01-02 01:30:07.01	180.02	20.80	-31.9	-33.2	19.9	0.00e+00	0	57	0	3188719616	34	4403
2026-01-02 01:30:08.01	180.09	20.67	-31.9	-33.2	19.9	0.00e+00	0	57	0	3195011072	34	4398
2026-01-02 01:30:09.02	180.16	20.54	-31.9	-33.3	19.8	0.00e+00	0	57	0	3200253952	34	4444
2026-01-02 01:30:10.03	180.22	20.41	-32.0	-33.3	19.8	0.00e+00	0	57	0	3205496832	34	4466
2026-01-02 01:30:11.04	180.29	20.28	-32.0	-33.3	19.7	0.00e+00	0	57	0	3211788288	34	4471
2026-01-02 01:30:12.05	180.35	20.15	-32.0	-33.4	19.7	0.00e+00	0	57	0	3217031168	34	4495
2026-01-02 01:30:13.06	180.42	20.02	-32.0	-33.4	19.7	0.00e+00	0	57	0	3223322624	34	4498
2026-01-02 01:30:14.07	180.48	19.89	-32.1	-33.4	19.7	0.00e+00	0	57	0	3228565504	34	4518
2026-01-02 01:30:15.08	180.55	19.76	-32.1	-33.4	19.7	0.00e+00	0	57	0	3233808384	34	4509
2026-01-02 01:30:16.09	180.61	19.63	-32.1	-33.4	19.6	0.00e+00	0	57	0	3240099840	34	4529
2026-01-02 01:30:17.10	180.67	19.51	-32.1	-33.4	19.6	0.00e+00	0	57	0	3245342720	34	4538
2026-01-02 01:30:18.11	180.74	19.38	-32.2	-33.5	19.6	0.00e+00	0	57	0	3251634176	34	4548
2026-01-02 01:30:19.12	180.80	19.25	-32.2	-33.5	19.6	0.00e+00	0	57	0	3256877056	34	4571
2026-01-02 01:30:20.13	180.86	19.13	-32.2	-33.5	19.6	0.00e+00	0	57	0	3262119936	35	4332
2026-01-02 01:30:21.14	180.92	19.01	-32.2	-33.5	19.6	0.00e+00	0	57	0	3268411392	35	4317
2026-01-02 01:30:22.15	180.98	18.88	-32.2	-33.5	19.6	0.00e+00	0	57	0	3273654272	35	4332
2026-01-02 01:30:23.16	181.04	18.76	-32.2	-33.6	19.5	0.00e+00	0	57	0	3279945728	35	4344
2026-01-02 01:30:24.17	181.10	18.64	-32.3	-33.6	19.5	0.00e+00	0	57	0	3285188608	35	4368
2026-01-02 01:30:25.18	181.16	18.51	-32.3	-33.6	19.5	0.00e+00	0	57	0	3291480064	35	4376
2026-01-02 01:30:26.18	181.22	18.39	-32.4	-33.7	19.4	0.00e+00	0	57	0	3296722944	35	4401
2026-01-02 01:30:27.19	181.27	18.27	-32.4	-33.7	19.4	0.00e+00	0	57	0	3303014400	35	4421
2026-01-02 01:30:28.20	181.33	18.15	-32.4	-33.7	19.4	0.00e+00	0	57	0	3308257280	35	4426
2026-01-02 01:30:29.21	181.39	18.03	-32.4	-33.7	19.4	0.00e+00	0	57	0	3313500160	35	4427
2026-01-02 01:30:30.22	181.45	17.91	-32.4	-33.7	19.4	0.00e+00	0	57	0	3319791616	35	4419
2026-01-02 01:30:31.23	181.50	17.80	-32.4	-33.7	19.4	0.00e+00	0	57	0	3325034496	35	4441
2026-01-02 01:30:32.25	181.56	17.68	-32.5	-33.8	19.3	0.00e+00	0	57	0	3331325952	35	4469
2026-01-02 01:30:33.25	181.61	17.56	-32.5	-33.9	19.3	0.00e+00	0	57	0	3336568832	35	4497
2026-01-02 01:30:34.27	181.67	17.44	-32.5	-33.8	19.3	0.00e+00	0	57	0	3341811712	35	4488
2026-01-02 01:30:35.28	181.72	17.33	-32.6	-33.9	19.2	0.00e+00	0	57	0	3348103168	35	4512
2026-01-02 01:30:36.29	181.78	17.21	-32.6	-33.9	19.2	0.00e+00	0	57	0	3353346048	35	4527
2026-01-02 01:30:37.30	181.83	17.09	-32.6	-33.9	19.2	0.00e+00	0	57	0	3359637504	35	4544
2026-01-02 01:30:38.31	181.89	16.98	-32.7	-34.0	19.1	0.00e+00	0	57	0	3364880384	35	4585
2026-01-02 01:30:39.32	181.94	16.87	-32.7	-34.0	19.1	0.00e+00	0	57	0	3370123264	35	4591
2026-01-02 01:30:40.33	181.99	16.75	-32.7	-34.1	19.1	0.00e+00	0	57	0	3376414720	35	4599
2026-01-02 01:30:41.34	182.05	16.64	-32.7	-34.1	19.1	0.00e+00	0	57	0	3381657600	35	4608
2026-01-02 01:30:42.35	182.10	16.53	-33.4	-34.7	19.2	0.00e+00	0	57	0	3387949056	37	4420
2026-01-02 01:30:43.36	182.15	16.41	-33.4	-34.8	19.1	0.00e+00	0	57	0	3393191936	37	4459
2026-01-02 01:30:44.37	182.20	16.30	-33.4	-34.8	19.1	0.00e+00	0	57	0	3399483392	37	4462
2026-01-02 01:30:45.38	182.25	16.19	-33.5	-34.9	19.0	0.00e+00	0	57	0	3404726272	37	4519
2026-01-02 01:30:46.39	182.30	16.08	-33.5	-34.9	19.0	0.00e+00	0	57	0	3411017728	37	4521
2026-01-02 01:30:47.40	182.35	15.97	-33.6	-34.9	19.0	0.00e+00	0	57	0	3416260608	37	4531
2026-01-02 01:30:48.41	182.40	15.86	-33.6	-34.9	19.0	0.00e+00	0	57	0	3421503488	37	4545
2026-01-02 01:30:49.42	182.45	15.75	-33.7	-35.0	18.9	0.00e+00	0	57	0	3427794944	37	4598
2026-01-02 01:30:50.43	182.50	15.64	-33.7	-35.1	18.8	0.00e+00	0	57	0	3433037824	37	4611
2026-01-02 01:30:51.44	182.55	15.53	-33.8	-35.2	18.8	0.00e+00	0	57	0	3439329280	38	4395
2026-01-02 01:30:52.45	182.60	15.42	-33.8	-35.2	18.8	0.00e+00	0	57	0	3444572160	38	4406
2026-01-02 01:30:53.46	182.65	15.32	-33.8	-35.3	18.7	0.00e+00	0	57	0	3449815040	38	4442
