passes_logs/2026/01/02/R2.0S_Moscow/R2.0S_Moscow__20260102_100830_SUOMI_NPP_rec.log

#Pass ID: 20260102_100830_SUOMI NPP
#Satellite: SUOMI NPP
#Configuration: NPP
#almurnet v.1.7.20251203
#Start time: 2026-01-02 10:08:30

#Version: 2.2.20231116
#Station: R2.0S_Moscow
#Location: 37.707566 lon 55.798166 lat
#TLE: 1 37849U 11061A   26001.07732418  .00000182  00000+0  10735-3 0  9990
#TLE: 2 37849  98.7795 303.2470 0002580  87.2016 272.9455 14.19520779734739

#Time	Az	El	Level	Level2	SNR	BER	BlckErr	Temp	State	Recorded	gain1	gain2
2026-01-02 10:08:30.10	165.03	2.01	-44.0	-58.4	3.8	1.49e+00	0	47	0	0	59	18954
2026-01-02 10:08:31.12	165.04	2.07	-44.0	-58.3	3.8	1.49e+00	0	48	104	0	59	18931
2026-01-02 10:08:32.13	165.05	2.14	-44.0	-58.3	3.8	1.49e+00	0	47	104	0	59	18946
2026-01-02 10:08:33.14	165.06	2.20	-44.0	-58.3	3.8	1.49e+00	0	47	104	0	59	18946
2026-01-02 10:08:34.15	165.07	2.27	-43.9	-58.3	3.8	1.49e+00	0	48	104	0	59	18948
2026-01-02 10:08:35.16	165.08	2.33	-44.0	-58.4	3.8	1.49e+00	0	48	104	0	59	18989
2026-01-02 10:08:36.17	165.09	2.40	-44.0	-58.4	3.8	1.49e+00	0	48	104	0	59	18963
2026-01-02 10:08:37.18	165.10	2.46	-44.0	-58.4	3.8	1.49e+00	0	48	104	0	59	18988
2026-01-02 10:08:38.19	165.11	2.53	-44.0	-58.4	3.8	1.49e+00	0	48	104	0	59	19003
2026-01-02 10:08:39.21	165.12	2.60	-44.0	-58.4	3.8	1.49e+00	0	48	104	0	59	19013
2026-01-02 10:08:40.22	165.13	2.66	-44.0	-58.4	3.8	1.49e+00	0	48	104	0	59	19026
2026-01-02 10:08:41.23	165.13	2.73	-44.0	-58.4	3.8	1.49e+00	0	48	104	0	59	18974
2026-01-02 10:08:42.24	165.14	2.80	-44.0	-58.4	3.8	1.49e+00	0	48	104	0	59	18975
2026-01-02 10:08:43.25	165.15	2.86	-44.0	-58.4	3.8	1.49e+00	0	48	104	0	59	18982
2026-01-02 10:08:44.26	165.16	2.93	-44.0	-58.4	3.8	1.49e+00	0	48	104	0	59	18982
2026-01-02 10:08:45.27	165.17	3.00	-44.0	-58.4	3.8	1.49e+00	0	48	104	0	59	18996
2026-01-02 10:08:46.28	165.18	3.06	-44.0	-58.4	3.8	1.49e+00	0	48	104	0	59	19002
2026-01-02 10:08:47.29	165.19	3.13	-44.0	-58.4	3.8	1.49e+00	0	48	104	0	59	19010
2026-01-02 10:08:48.31	165.20	3.20	-44.0	-58.4	3.8	1.49e+00	0	48	104	0	59	19009
2026-01-02 10:08:49.32	165.21	3.27	-44.0	-58.4	3.8	1.49e+00	0	49	104	0	59	18988
2026-01-02 10:08:50.33	165.22	3.34	-44.0	-58.4	3.8	1.49e+00	0	49	104	0	59	18981
2026-01-02 10:08:51.34	165.23	3.40	-44.0	-58.3	3.8	1.49e+00	0	49	104	0	59	18945
2026-01-02 10:08:52.35	165.24	3.47	-44.0	-58.4	3.8	1.49e+00	0	49	104	0	59	18989
2026-01-02 10:08:53.36	165.25	3.54	-44.0	-58.4	3.8	1.49e+00	0	49	104	0	59	18957
2026-01-02 10:08:54.37	165.26	3.61	-44.0	-58.4	3.8	1.49e+00	0	49	104	0	59	18977
2026-01-02 10:08:55.38	165.27	3.68	-44.0	-58.4	3.8	1.49e+00	0	49	104	0	59	18990
2026-01-02 10:08:56.40	165.28	3.75	-44.0	-58.4	3.8	1.49e+00	0	49	104	0	59	19007
2026-01-02 10:08:57.41	165.30	3.82	-44.0	-58.4	3.8	1.49e+00	0	49	104	0	59	19003
2026-01-02 10:08:58.42	165.31	3.89	-44.0	-58.4	3.8	1.49e+00	0	49	104	0	59	19014
2026-01-02 10:08:59.43	165.32	3.96	-44.0	-58.3	3.8	1.49e+00	0	49	104	0	59	18940
2026-01-02 10:09:00.44	165.33	4.03	-44.0	-58.4	3.8	1.49e+00	0	49	104	0	59	19010
2026-01-02 10:09:01.45	165.34	4.10	-44.0	-58.3	3.8	1.49e+00	0	49	104	0	59	18936
2026-01-02 10:09:02.46	165.35	4.17	-44.0	-58.4	3.8	1.49e+00	0	49	104	0	59	18982
2026-01-02 10:09:03.47	165.36	4.24	-44.0	-58.4	3.8	1.49e+00	0	49	104	0	59	18973
2026-01-02 10:09:04.48	165.37	4.31	-44.0	-58.4	3.8	1.49e+00	0	49	104	0	59	18975
2026-01-02 10:09:05.50	165.38	4.38	-44.0	-58.4	3.8	1.49e+00	0	50	104	0	59	19032
2026-01-02 10:09:06.51	165.39	4.45	-44.0	-58.4	3.8	1.49e+00	0	50	104	0	59	19001
2026-01-02 10:09:07.52	165.40	4.52	-44.0	-58.4	3.8	1.49e+00	0	50	104	0	59	18978
2026-01-02 10:09:08.53	165.41	4.59	-44.0	-58.4	3.8	1.49e+00	0	50	104	0	59	18981
2026-01-02 10:09:09.54	165.42	4.66	-44.0	-58.4	3.8	1.49e+00	0	50	104	0	59	19034
2026-01-02 10:09:10.55	165.43	4.73	-44.0	-58.4	3.8	1.49e+00	0	50	104	0	59	18981
2026-01-02 10:09:11.56	165.44	4.81	-44.0	-58.4	3.8	1.49e+00	0	50	104	0	59	19037
2026-01-02 10:09:12.57	165.45	4.88	-44.0	-58.4	3.8	1.49e+00	0	50	104	0	59	18989
2026-01-02 10:09:13.58	165.46	4.95	-44.0	-58.4	3.8	1.49e+00	0	50	104	0	59	18993
2026-01-02 10:09:14.59	165.48	5.02	-44.0	-58.4	3.8	1.49e+00	0	50	104	0	59	18971
2026-01-02 10:09:15.60	165.49	5.09	-44.0	-58.4	3.8	1.49e+00	0	50	104	0	59	18996
2026-01-02 10:09:16.62	165.50	5.17	-44.0	-58.4	3.8	1.49e+00	0	50	104	0	59	18963
2026-01-02 10:09:17.63	165.51	5.24	-44.0	-58.4	3.8	1.49e+00	0	50	104	0	59	18997
2026-01-02 10:09:18.64	165.52	5.31	-44.0	-58.3	3.8	1.49e+00	0	50	104	0	59	18916
2026-01-02 10:09:19.65	165.53	5.39	-44.0	-58.3	3.8	1.49e+00	0	50	104	0	59	18876
2026-01-02 10:09:20.66	165.54	5.46	-44.0	-58.3	3.8	1.49e+00	0	50	104	0	59	18874
2026-01-02 10:09:21.67	165.55	5.53	-44.0	-58.3	3.8	1.49e+00	0	50	104	0	59	18786
2026-01-02 10:09:22.68	165.56	5.61	-44.0	-58.3	3.8	1.49e+00	0	51	104	0	59	18778
2026-01-02 10:09:23.69	165.58	5.68	-44.0	-58.3	3.8	1.49e+00	0	50	104	0	59	18775
2026-01-02 10:09:24.70	165.59	5.76	-44.0	-58.3	3.8	1.49e+00	0	51	104	0	59	18775
2026-01-02 10:09:25.71	165.60	5.83	-44.0	-58.2	3.8	1.49e+00	0	51	104	0	59	18718
2026-01-02 10:09:26.72	165.61	5.91	-44.0	-58.3	3.8	1.49e+00	0	51	104	0	59	18767
2026-01-02 10:09:27.74	165.62	5.98	-44.0	-58.2	3.8	1.49e+00	0	51	104	0	59	18702
2026-01-02 10:09:28.75	165.63	6.06	-44.0	-58.2	3.8	1.49e+00	0	51	104	0	59	18712
2026-01-02 10:09:29.76	165.64	6.13	-44.0	-58.2	3.8	1.49e+00	0	51	104	0	59	18586
2026-01-02 10:09:30.77	165.66	6.21	-44.0	-58.1	3.8	1.49e+00	0	51	104	0	59	18507
2026-01-02 10:09:31.78	165.67	6.28	-44.0	-58.1	3.8	1.49e+00	0	51	104	0	59	18435
2026-01-02 10:09:32.79	165.68	6.36	-44.0	-58.1	3.8	1.49e+00	0	51	104	0	59	18362
2026-01-02 10:09:33.80	165.69	6.44	-44.0	-58.0	3.8	1.49e+00	0	51	104	0	59	18241
2026-01-02 10:09:34.81	165.70	6.51	-44.0	-57.7	3.8	1.49e+00	0	51	104	0	59	17546
2026-01-02 10:09:35.82	165.71	6.59	-43.9	-57.4	3.8	1.49e+00	0	51	104	0	59	16969
2026-01-02 10:09:36.83	165.73	6.67	-43.9	-56.9	3.8	1.49e+00	0	51	104	0	59	15982
2026-01-02 10:09:37.85	165.74	6.74	-43.9	-56.1	3.9	1.49e+00	0	51	104	0	59	14579
2026-01-02 10:09:38.86	165.75	6.82	-43.8	-55.2	4.1	1.45e+00	0	51	0	0	59	13244
2026-01-02 10:09:39.87	165.76	6.90	-43.6	-54.2	4.4	1.34e+00	0	51	0	0	58	12421
2026-01-02 10:09:40.88	165.78	6.98	-43.6	-53.2	4.8	9.80e-01	0	51	0	2097152	58	11135
2026-01-02 10:09:41.89	165.79	7.06	-43.5	-52.2	5.3	7.10e-01	0	52	0	3145728	58	9923
2026-01-02 10:09:42.90	165.80	7.13	-43.3	-51.1	6.1	3.69e-01	0	51	0	5242880	58	8716
2026-01-02 10:09:43.91	165.81	7.21	-43.1	-50.4	6.8	2.15e-01	0	52	0	7340032	58	7994
2026-01-02 10:09:44.92	165.82	7.29	-42.9	-49.4	7.7	1.38e-01	0	51	0	9437184	57	7568
2026-01-02 10:09:45.93	165.84	7.37	-42.6	-48.5	8.5	5.65e-02	0	52	0	11534336	57	6835
2026-01-02 10:09:46.94	165.85	7.45	-42.5	-48.0	9.0	3.02e-02	0	51	0	12582912	57	6487
2026-01-02 10:09:47.95	165.86	7.53	-42.2	-47.2	9.9	1.41e-02	0	52	0	14680064	56	6229
2026-01-02 10:09:48.97	165.87	7.61	-41.8	-46.5	10.4	5.18e-03	0	52	0	16777216	55	6115
2026-01-02 10:09:49.98	165.89	7.69	-41.6	-46.0	11.0	3.11e-03	0	52	0	18874368	55	5726
2026-01-02 10:09:50.99	165.90	7.77	-41.5	-45.7	11.3	1.39e-03	0	52	0	20971520	54	5868
2026-01-02 10:09:52.00	165.91	7.85	-41.3	-45.4	11.6	6.74e-04	0	52	0	22020096	54	5705
2026-01-02 10:09:53.01	165.92	7.93	-41.2	-45.0	12.0	4.45e-04	0	52	0	24117248	54	5456
2026-01-02 10:09:54.02	165.94	8.01	-41.1	-44.9	12.1	3.20e-04	0	52	0	26214400	54	5363
2026-01-02 10:09:55.03	165.95	8.10	-43.0	-49.5	7.7	5.25e-02	0	52	0	28311552	56	8117
2026-01-02 10:09:56.04	165.96	8.18	-43.5	-52.0	5.6	2.84e-01	0	52	0	30408704	57	10217
2026-01-02 10:09:57.05	165.98	8.26	-43.1	-50.6	6.5	2.30e-03	0	52	0	32505856	56	9188
2026-01-02 10:09:58.06	165.99	8.34	-43.4	-51.9	5.5	3.11e-01	0	52	0	33554432	57	10089
2026-01-02 10:09:59.07	166.00	8.42	-41.5	-45.7	11.3	3.66e-04	0	52	0	35651584	54	5878
2026-01-02 10:10:00.08	166.02	8.51	-41.1	-44.8	12.2	3.40e-04	0	52	0	37748736	54	5340
2026-01-02 10:10:01.09	166.03	8.59	-41.0	-44.7	12.4	1.21e-04	0	52	0	39845888	53	5544
2026-01-02 10:10:02.10	166.04	8.67	-40.9	-44.6	12.5	1.67e-04	0	52	0	41943040	53	5505
2026-01-02 10:10:03.11	166.06	8.76	-40.9	-44.5	12.5	1.75e-04	0	52	0	42991616	53	5453
2026-01-02 10:10:04.12	166.07	8.84	-40.9	-44.6	12.5	1.36e-04	0	52	0	45088768	53	5475
2026-01-02 10:10:05.12	166.08	8.92	-40.9	-44.6	12.5	1.26e-04	0	52	0	47185920	53	5501
2026-01-02 10:10:06.13	166.10	9.01	-40.9	-44.5	12.5	1.26e-04	0	53	0	49283072	53	5457
2026-01-02 10:10:07.14	166.11	9.09	-40.9	-44.6	12.5	1.09e-04	0	52	0	51380224	53	5475
2026-01-02 10:10:08.16	166.12	9.18	-40.9	-44.5	12.6	1.07e-04	0	53	0	52428800	53	5444
2026-01-02 10:10:09.16	166.14	9.26	-40.8	-44.4	12.7	6.63e-05	0	53	0	54525952	53	5346
2026-01-02 10:10:10.18	166.15	9.35	-40.9	-44.4	12.7	6.17e-05	0	53	0	56623104	53	5380
2026-01-02 10:10:11.19	166.16	9.44	-40.8	-44.3	12.8	7.55e-05	0	53	0	58720256	53	5296
2026-01-02 10:10:12.19	166.18	9.52	-40.8	-44.3	12.8	4.50e-05	0	53	0	60817408	53	5332
2026-01-02 10:10:13.20	166.19	9.61	-40.8	-44.3	12.9	4.42e-05	0	53	0	61865984	53	5286
2026-01-02 10:10:14.21	166.21	9.70	-40.7	-44.2	13.0	4.27e-05	0	53	0	63963136	53	5223
2026-01-02 10:10:15.22	166.22	9.78	-40.7	-44.0	13.1	3.35e-05	0	53	0	66060288	53	5143
2026-01-02 10:10:16.23	166.23	9.87	-40.7	-44.1	13.1	3.35e-05	0	53	0	68157440	53	5162
2026-01-02 10:10:17.24	166.25	9.96	-40.6	-44.0	13.2	2.28e-05	0	53	0	70254592	53	5110
2026-01-02 10:10:18.25	166.26	10.05	-40.6	-43.8	13.4	2.21e-05	0	53	0	71303168	53	5016
2026-01-02 10:10:19.26	166.28	10.13	-40.6	-43.9	13.2	1.98e-05	0	53	0	73400320	53	5092
2026-01-02 10:10:20.27	166.29	10.22	-40.6	-43.8	13.4	1.52e-05	0	53	0	75497472	53	5026
2026-01-02 10:10:21.28	166.31	10.31	-40.5	-43.7	13.5	1.06e-05	0	53	0	77594624	53	4945
2026-01-02 10:10:22.29	166.32	10.40	-40.4	-43.6	13.6	6.80e-06	0	53	0	79691776	52	5194
2026-01-02 10:10:23.30	166.34	10.49	-40.4	-43.5	13.7	9.90e-06	0	53	0	80740352	52	5144
2026-01-02 10:10:24.31	166.35	10.58	-40.3	-43.4	13.9	4.50e-06	0	53	0	82837504	52	5052
2026-01-02 10:10:25.32	166.36	10.67	-40.4	-43.5	13.8	3.80e-06	0	53	0	84934656	52	5102
2026-01-02 10:10:26.32	166.38	10.76	-40.3	-43.3	14.0	2.20e-06	0	53	0	87031808	52	5018
2026-01-02 10:10:27.34	166.39	10.85	-40.2	-43.1	14.1	1.50e-06	0	53	0	89128960	52	4922
2026-01-02 10:10:28.35	166.41	10.94	-40.1	-43.0	14.2	3.80e-06	0	53	0	90177536	52	4851
2026-01-02 10:10:29.36	166.42	11.04	-40.1	-42.9	14.3	2.20e-06	0	53	0	92274688	52	4812
2026-01-02 10:10:30.36	166.44	11.13	-40.1	-43.0	14.3	7.00e-07	0	53	0	94371840	52	4833
2026-01-02 10:10:31.38	166.46	11.22	-40.1	-42.9	14.4	0.00e+00	0	53	0	96468992	52	4788
2026-01-02 10:10:32.39	166.47	11.31	-40.2	-43.1	14.4	7.00e-07	0	53	0	98566144	51	5163
2026-01-02 10:10:33.39	166.49	11.40	-40.1	-43.0	14.4	7.00e-07	0	53	0	100663296	51	5113
2026-01-02 10:10:34.40	166.50	11.50	-40.0	-42.8	14.6	7.00e-07	0	54	0	101711872	51	5025
2026-01-02 10:10:35.41	166.52	11.59	-40.0	-42.8	14.6	0.00e+00	0	53	0	103809024	51	5018
2026-01-02 10:10:36.42	166.53	11.69	-40.1	-42.8	14.6	2.20e-06	0	54	0	105906176	51	5032
2026-01-02 10:10:37.43	166.55	11.78	-40.0	-42.8	14.7	7.00e-07	0	53	0	108003328	51	4995
2026-01-02 10:10:38.44	166.56	11.88	-40.1	-43.0	14.5	7.00e-07	0	53	0	110100480	51	5115
2026-01-02 10:10:39.45	166.58	11.97	-40.0	-42.8	14.6	0.00e+00	0	53	0	111149056	51	5027
2026-01-02 10:10:40.46	166.60	12.07	-40.0	-42.8	14.6	0.00e+00	0	53	0	113246208	51	5023
2026-01-02 10:10:41.47	166.61	12.16	-40.1	-42.9	14.6	7.00e-07	0	53	0	115343360	51	5050
2026-01-02 10:10:42.48	166.63	12.26	-40.0	-42.7	14.7	1.50e-06	0	53	0	117440512	51	4977
2026-01-02 10:10:43.49	166.64	12.36	-40.0	-42.8	14.7	7.00e-07	0	53	0	119537664	51	4995
2026-01-02 10:10:44.50	166.66	12.45	-40.0	-42.7	14.7	0.00e+00	0	54	0	120586240	51	4978
2026-01-02 10:10:45.51	166.68	12.55	-39.9	-42.6	14.9	0.00e+00	0	54	0	122683392	51	4880
2026-01-02 10:10:46.51	166.69	12.65	-39.9	-42.6	14.8	0.00e+00	0	53	0	124780544	51	4920
2026-01-02 10:10:47.52	166.71	12.75	-39.8	-42.4	15.1	0.00e+00	0	54	0	126877696	51	4793
2026-01-02 10:10:48.53	166.73	12.84	-39.8	-42.4	15.1	0.00e+00	0	54	0	128974848	51	4767
2026-01-02 10:10:49.54	166.74	12.94	-39.7	-42.3	15.2	0.00e+00	0	54	0	130023424	51	4711
2026-01-02 10:10:50.55	166.76	13.04	-39.5	-42.0	15.5	0.00e+00	0	54	0	132120576	51	4551
2026-01-02 10:10:51.56	166.78	13.14	-39.5	-42.0	15.5	0.00e+00	0	54	0	134217728	51	4572
2026-01-02 10:10:52.57	166.80	13.24	-39.5	-41.9	15.6	0.00e+00	0	54	0	136314880	50	4788
2026-01-02 10:10:53.58	166.81	13.34	-39.4	-41.8	15.7	0.00e+00	0	54	0	138412032	50	4735
2026-01-02 10:10:54.59	166.83	13.44	-39.4	-41.8	15.7	0.00e+00	0	54	0	139460608	50	4716
2026-01-02 10:10:55.60	166.85	13.55	-39.3	-41.7	15.8	0.00e+00	0	54	0	141557760	50	4670
2026-01-02 10:10:56.61	166.86	13.65	-39.2	-41.5	16.0	0.00e+00	0	54	0	143654912	50	4567
2026-01-02 10:10:57.62	166.88	13.75	-39.2	-41.5	16.1	0.00e+00	0	54	0	145752064	50	4560
2026-01-02 10:10:58.63	166.90	13.85	-39.0	-41.3	16.3	0.00e+00	0	54	0	147849216	50	4461
2026-01-02 10:10:59.64	166.92	13.96	-39.1	-41.4	16.1	0.00e+00	0	54	0	148897792	50	4510
2026-01-02 10:11:00.63	166.94	14.06	-39.1	-41.3	16.2	0.00e+00	0	54	0	150994944	50	4489
2026-01-02 10:11:01.64	166.95	14.16	-39.1	-41.4	16.1	0.00e+00	0	54	0	153092096	50	4506
2026-01-02 10:11:02.65	166.97	14.27	-39.0	-41.2	16.3	0.00e+00	0	54	0	155189248	49	4684
2026-01-02 10:11:03.66	166.99	14.37	-38.8	-41.0	16.5	0.00e+00	0	54	0	157286400	49	4582
2026-01-02 10:11:04.66	167.01	14.48	-38.9	-41.1	16.5	0.00e+00	0	54	0	158334976	49	4609
2026-01-02 10:11:05.67	167.03	14.58	-38.9	-41.1	16.4	0.00e+00	0	54	0	160432128	49	4609
2026-01-02 10:11:06.68	167.04	14.69	-38.8	-41.0	16.6	0.00e+00	0	54	0	162529280	49	4559
2026-01-02 10:11:07.69	167.06	14.80	-38.8	-40.9	16.6	0.00e+00	0	54	0	164626432	49	4518
2026-01-02 10:11:08.70	167.08	14.90	-38.8	-41.0	16.6	0.00e+00	0	54	0	166723584	49	4547
2026-01-02 10:11:09.71	167.10	15.01	-38.8	-40.9	16.6	0.00e+00	0	54	0	168820736	49	4514
2026-01-02 10:11:10.72	167.12	15.12	-38.7	-40.8	16.7	0.00e+00	0	54	0	169869312	49	4470
2026-01-02 10:11:11.73	167.14	15.23	-38.7	-40.8	16.7	0.00e+00	0	54	0	171966464	49	4480
2026-01-02 10:11:12.74	167.16	15.34	-38.8	-40.9	16.7	0.00e+00	0	54	0	174063616	49	4510
2026-01-02 10:11:13.75	167.18	15.45	-38.7	-40.8	16.7	0.00e+00	0	54	0	176160768	49	4468
2026-01-02 10:11:14.76	167.20	15.56	-38.8	-40.9	16.7	0.00e+00	0	54	0	178257920	49	4512
2026-01-02 10:11:15.77	167.22	15.67	-38.6	-40.7	16.8	0.00e+00	0	54	0	179306496	49	4418
2026-01-02 10:11:16.78	167.24	15.78	-38.6	-40.7	16.9	0.00e+00	0	54	0	181403648	49	4406
2026-01-02 10:11:17.79	167.26	15.89	-38.7	-40.8	16.8	0.00e+00	0	54	0	183500800	49	4451
2026-01-02 10:11:18.80	167.28	16.00	-38.7	-40.8	16.8	0.00e+00	0	54	0	185597952	49	4472
2026-01-02 10:11:19.81	167.30	16.12	-38.6	-40.7	16.9	0.00e+00	0	54	0	187695104	49	4428
2026-01-02 10:11:20.82	167.32	16.23	-38.6	-40.7	16.9	0.00e+00	0	54	0	188743680	49	4424
2026-01-02 10:11:21.83	167.34	16.34	-38.7	-40.8	16.8	0.00e+00	0	54	0	190840832	49	4449
2026-01-02 10:11:22.83	167.36	16.46	-38.7	-40.8	16.8	0.00e+00	0	54	0	192937984	49	4460
2026-01-02 10:11:23.84	167.38	16.57	-38.5	-40.5	17.0	0.00e+00	0	54	0	195035136	49	4339
2026-01-02 10:11:24.85	167.40	16.69	-38.5	-40.5	17.1	0.00e+00	0	55	0	197132288	48	4583
2026-01-02 10:11:25.86	167.42	16.80	-38.5	-40.6	17.0	0.00e+00	0	54	0	198180864	48	4600
2026-01-02 10:11:26.87	167.44	16.92	-38.5	-40.5	17.1	0.00e+00	0	54	0	200278016	48	4546
2026-01-02 10:11:27.88	167.46	17.04	-38.5	-40.5	17.2	0.00e+00	0	54	0	202375168	48	4547
2026-01-02 10:11:28.89	167.48	17.16	-38.3	-40.3	17.3	0.00e+00	0	55	0	204472320	48	4474
2026-01-02 10:11:29.90	167.50	17.27	-38.3	-40.2	17.3	0.00e+00	0	55	0	206569472	48	4429
2026-01-02 10:11:30.91	167.53	17.39	-38.3	-40.3	17.3	0.00e+00	0	54	0	207618048	48	4460
2026-01-02 10:11:31.92	167.55	17.51	-38.2	-40.1	17.5	0.00e+00	0	55	0	209715200	48	4350
2026-01-02 10:11:32.93	167.57	17.63	-38.3	-40.2	17.3	0.00e+00	0	54	0	211812352	48	4431
2026-01-02 10:11:33.94	167.59	17.75	-38.2	-40.1	17.5	0.00e+00	0	55	0	213909504	48	4353
2026-01-02 10:11:34.95	167.61	17.87	-38.2	-40.1	17.4	0.00e+00	0	55	0	216006656	48	4391
2026-01-02 10:11:35.96	167.64	18.00	-38.3	-40.3	17.3	0.00e+00	0	55	0	217055232	48	4454
2026-01-02 10:11:36.96	167.66	18.12	-38.3	-40.2	17.4	0.00e+00	0	55	0	219152384	48	4428
2026-01-02 10:11:37.97	167.68	18.24	-38.2	-40.1	17.5	0.00e+00	0	55	0	221249536	48	4363
2026-01-02 10:11:38.98	167.70	18.36	-38.3	-40.3	17.3	0.00e+00	0	55	0	223346688	48	4465
2026-01-02 10:11:39.99	167.73	18.49	-38.4	-40.3	17.3	0.00e+00	0	55	0	225443840	48	4477
2026-01-02 10:11:41.00	167.75	18.61	-38.5	-40.5	17.1	0.00e+00	0	55	0	226492416	48	4575
2026-01-02 10:11:42.01	167.77	18.74	-38.4	-40.4	17.2	0.00e+00	0	55	0	228589568	48	4529
2026-01-02 10:11:43.02	167.80	18.86	-38.5	-40.5	17.2	0.00e+00	0	55	0	230686720	48	4550
2026-01-02 10:11:44.03	167.82	18.99	-38.5	-40.5	17.2	0.00e+00	0	55	0	232783872	48	4550
2026-01-02 10:11:45.04	167.84	19.12	-38.4	-40.3	17.3	0.00e+00	0	55	0	234881024	48	4472
2026-01-02 10:11:46.05	167.87	19.25	-38.4	-40.4	17.2	0.00e+00	0	55	0	235929600	48	4525
2026-01-02 10:11:47.06	167.89	19.37	-38.4	-40.4	17.3	0.00e+00	0	55	0	238026752	48	4505
2026-01-02 10:11:48.07	167.92	19.50	-38.5	-40.5	17.1	0.00e+00	0	55	0	240123904	48	4570
2026-01-02 10:11:49.08	167.94	19.63	-38.6	-40.6	17.1	0.00e+00	0	55	0	242221056	48	4610
2026-01-02 10:11:50.09	167.97	19.77	-38.4	-40.4	17.2	0.00e+00	0	55	0	244318208	48	4529
2026-01-02 10:11:51.10	167.99	19.90	-38.4	-40.4	17.2	0.00e+00	0	55	0	245366784	48	4513
2026-01-02 10:11:52.11	168.02	20.03	-38.5	-40.5	17.2	0.00e+00	0	55	0	247463936	48	4552
2026-01-02 10:11:53.12	168.04	20.16	-38.6	-40.6	17.1	0.00e+00	0	55	0	249561088	48	4615
2026-01-02 10:11:54.13	168.07	20.30	-38.7	-40.8	17.0	0.00e+00	0	55	0	251658240	48	4708
2026-01-02 10:11:55.14	168.09	20.43	-38.8	-40.9	16.8	0.00e+00	0	55	0	253755392	48	4795
2026-01-02 10:11:56.15	168.12	20.56	-38.8	-40.9	16.7	0.00e+00	0	55	0	254803968	48	4808
2026-01-02 10:11:57.16	168.15	20.70	-38.9	-41.1	16.5	0.00e+00	0	55	0	256901120	48	4889
2026-01-02 10:11:58.17	168.17	20.84	-39.0	-41.2	16.5	0.00e+00	0	55	0	258998272	48	4939
2026-01-02 10:11:59.18	168.20	20.97	-39.0	-41.2	16.4	0.00e+00	0	55	0	261095424	48	4976
2026-01-02 10:12:00.19	168.22	21.11	-39.1	-41.3	16.3	0.00e+00	0	55	0	263192576	48	5041
2026-01-02 10:12:01.20	168.25	21.25	-39.3	-41.6	16.1	0.00e+00	0	55	0	265289728	49	4875
2026-01-02 10:12:02.21	168.28	21.39	-39.2	-41.5	16.2	0.00e+00	0	55	0	266338304	49	4827
2026-01-02 10:12:03.22	168.31	21.53	-39.3	-41.6	16.1	0.00e+00	0	55	0	268435456	49	4907
2026-01-02 10:12:04.22	168.33	21.67	-39.5	-41.8	15.8	0.00e+00	0	55	0	270532608	49	5041
2026-01-02 10:12:05.23	168.36	21.81	-39.4	-41.8	15.9	0.00e+00	0	55	0	272629760	49	4987
2026-01-02 10:12:06.24	168.39	21.95	-39.4	-41.8	15.9	0.00e+00	0	55	0	274726912	49	5005
2026-01-02 10:12:07.25	168.42	22.10	-39.4	-41.8	15.9	0.00e+00	0	55	0	275775488	49	4992
2026-01-02 10:12:08.26	168.45	22.24	-39.6	-42.1	15.6	0.00e+00	0	55	0	277872640	49	5192
2026-01-02 10:12:09.27	168.48	22.39	-39.6	-42.0	15.7	0.00e+00	0	55	0	279969792	49	5113
2026-01-02 10:12:10.28	168.50	22.53	-39.6	-42.0	15.7	0.00e+00	0	55	0	282066944	49	5139
2026-01-02 10:12:11.29	168.53	22.68	-39.7	-42.1	15.6	0.00e+00	0	55	0	284164096	49	5210
2026-01-02 10:12:12.30	168.56	22.83	-39.6	-42.0	15.6	0.00e+00	0	55	0	285212672	49	5159
2026-01-02 10:12:13.31	168.59	22.98	-39.6	-42.0	15.7	0.00e+00	0	55	0	287309824	49	5149
2026-01-02 10:12:14.32	168.62	23.12	-39.8	-42.4	15.4	0.00e+00	0	55	0	289406976	50	5058
2026-01-02 10:12:15.33	168.65	23.27	-39.8	-42.3	15.5	0.00e+00	0	55	0	291504128	50	4984
2026-01-02 10:12:16.34	168.68	23.43	-39.7	-42.2	15.5	0.00e+00	0	55	0	293601280	50	4969
2026-01-02 10:12:17.35	168.71	23.58	-39.9	-42.4	15.4	0.00e+00	0	55	0	294649856	50	5063
2026-01-02 10:12:18.36	168.75	23.73	-39.7	-42.1	15.6	0.00e+00	0	55	0	296747008	50	4926
2026-01-02 10:12:19.37	168.78	23.88	-39.8	-42.3	15.4	0.00e+00	0	55	0	298844160	50	5040
2026-01-02 10:12:20.38	168.81	24.04	-39.8	-42.2	15.5	0.00e+00	0	55	0	300941312	50	4983
2026-01-02 10:12:21.39	168.84	24.19	-39.8	-42.3	15.5	0.00e+00	0	55	0	303038464	50	4993
2026-01-02 10:12:22.40	168.87	24.35	-39.6	-42.0	15.7	0.00e+00	0	55	0	304087040	50	4862
2026-01-02 10:12:23.41	168.90	24.51	-39.6	-42.1	15.7	0.00e+00	0	55	0	306184192	50	4883
2026-01-02 10:12:24.42	168.94	24.67	-39.5	-41.8	15.9	0.00e+00	0	55	0	308281344	50	4757
2026-01-02 10:12:25.43	168.97	24.83	-39.6	-42.0	15.7	0.00e+00	0	55	0	310378496	50	4824
2026-01-02 10:12:26.44	169.00	24.99	-39.4	-41.7	16.0	0.00e+00	0	55	0	312475648	50	4704
2026-01-02 10:12:27.45	169.04	25.15	-39.7	-42.2	15.6	0.00e+00	0	55	0	313524224	50	4939
2026-01-02 10:12:28.46	169.07	25.31	-39.7	-42.1	15.6	0.00e+00	0	55	0	315621376	50	4915
2026-01-02 10:12:29.47	169.11	25.47	-39.6	-41.9	15.8	0.00e+00	0	55	0	317718528	50	4814
2026-01-02 10:12:30.47	169.14	25.63	-39.6	-42.0	15.7	0.00e+00	0	55	0	319815680	50	4846
2026-01-02 10:12:31.48	169.17	25.80	-39.7	-42.1	15.5	0.00e+00	0	55	0	321912832	50	4908
2026-01-02 10:12:32.50	169.21	25.97	-39.6	-42.0	15.8	0.00e+00	0	55	0	322961408	50	4860
2026-01-02 10:12:33.50	169.25	26.13	-39.6	-41.9	15.8	0.00e+00	0	55	0	325058560	50	4809
2026-01-02 10:12:34.52	169.28	26.30	-39.7	-42.1	15.7	0.00e+00	0	55	0	327155712	50	4872
2026-01-02 10:12:35.52	169.32	26.47	-39.3	-41.6	16.2	0.00e+00	0	55	0	329252864	50	4618
2026-01-02 10:12:36.53	169.35	26.64	-39.3	-41.5	16.2	0.00e+00	0	55	0	331350016	50	4582
2026-01-02 10:12:37.54	169.39	26.81	-39.4	-41.6	16.1	0.00e+00	0	55	0	333447168	50	4634
2026-01-02 10:12:38.55	169.43	26.98	-39.2	-41.5	16.3	0.00e+00	0	56	0	334495744	50	4551
2026-01-02 10:12:39.56	169.47	27.16	-39.3	-41.6	16.2	0.00e+00	0	56	0	336592896	50	4608
2026-01-02 10:12:40.57	169.50	27.33	-39.3	-41.5	16.3	0.00e+00	0	55	0	338690048	50	4570
2026-01-02 10:12:41.58	169.54	27.51	-39.2	-41.4	16.4	0.00e+00	0	55	0	340787200	50	4522
2026-01-02 10:12:42.59	169.58	27.68	-39.6	-41.9	15.9	0.00e+00	0	56	0	342884352	50	4794
2026-01-02 10:12:43.60	169.62	27.86	-39.3	-41.6	16.2	0.00e+00	0	55	0	343932928	50	4617
2026-01-02 10:12:44.61	169.66	28.04	-39.4	-41.7	16.1	0.00e+00	0	55	0	346030080	50	4693
2026-01-02 10:12:45.62	169.70	28.22	-39.5	-41.8	16.0	0.00e+00	0	56	0	348127232	50	4748
2026-01-02 10:12:46.63	169.74	28.40	-39.3	-41.6	16.2	0.00e+00	0	55	0	350224384	50	4607
2026-01-02 10:12:47.64	169.78	28.59	-39.4	-41.6	16.1	0.00e+00	0	56	0	352321536	50	4629
2026-01-02 10:12:48.64	169.82	28.77	-39.3	-41.5	16.3	0.00e+00	0	56	0	353370112	50	4556
2026-01-02 10:12:49.65	169.87	28.95	-39.3	-41.5	16.3	0.00e+00	0	55	0	355467264	50	4553
2026-01-02 10:12:50.66	169.91	29.14	-39.3	-41.5	16.4	0.00e+00	0	55	0	357564416	50	4571
2026-01-02 10:12:51.67	169.95	29.33	-39.3	-41.5	16.3	0.00e+00	0	55	0	359661568	50	4571
2026-01-02 10:12:52.68	169.99	29.52	-39.5	-41.8	16.1	0.00e+00	0	56	0	361758720	50	4716
2026-01-02 10:12:53.69	170.04	29.71	-39.6	-42.0	15.8	0.00e+00	0	56	0	362807296	50	4833
2026-01-02 10:12:54.70	170.08	29.90	-39.8	-42.3	15.5	0.00e+00	0	55	0	364904448	50	4995
2026-01-02 10:12:55.71	170.13	30.09	-39.8	-42.3	15.6	0.00e+00	0	56	0	367001600	50	4989
2026-01-02 10:12:56.72	170.17	30.28	-39.8	-42.3	15.6	0.00e+00	0	56	0	369098752	50	4998
2026-01-02 10:12:57.73	170.22	30.48	-40.0	-42.5	15.3	0.00e+00	0	55	0	371195904	50	5152
2026-01-02 10:12:58.74	170.26	30.67	-39.9	-42.3	15.5	0.00e+00	0	55	0	372244480	50	5030
2026-01-02 10:12:59.75	170.31	30.87	-40.2	-42.8	15.0	0.00e+00	0	55	0	374341632	51	4999
2026-01-02 10:13:00.76	170.36	31.07	-40.2	-42.8	15.0	0.00e+00	0	56	0	376438784	51	5025
2026-01-02 10:13:01.77	170.40	31.27	-40.2	-42.8	15.1	0.00e+00	0	56	0	378535936	51	4987
2026-01-02 10:13:02.77	170.45	31.47	-40.1	-42.7	15.1	0.00e+00	0	56	0	380633088	51	4956
2026-01-02 10:13:03.78	170.50	31.67	-40.1	-42.7	15.1	7.00e-07	0	56	0	381681664	51	4953
2026-01-02 10:13:04.79	170.55	31.88	-40.4	-43.1	14.7	0.00e+00	0	56	0	383778816	51	5214
2026-01-02 10:13:05.80	170.60	32.08	-40.6	-43.4	14.5	7.00e-07	0	56	0	385875968	51	5354
2026-01-02 10:13:06.81	170.65	32.29	-40.5	-43.2	14.5	0.00e+00	0	56	0	387973120	52	4973
2026-01-02 10:13:07.82	170.70	32.50	-40.9	-44.0	13.7	2.20e-06	0	56	0	390070272	52	5430
2026-01-02 10:13:08.83	170.75	32.71	-40.9	-43.9	14.0	3.00e-06	0	56	0	391118848	52	5393
2026-01-02 10:13:09.84	170.81	32.92	-40.9	-43.9	13.9	7.00e-07	0	56	0	393216000	52	5358
2026-01-02 10:13:10.85	170.86	33.14	-41.0	-44.1	13.7	3.00e-06	0	56	0	395313152	52	5487
2026-01-02 10:13:11.86	170.91	33.35	-40.9	-44.0	13.8	6.80e-06	0	56	0	397410304	52	5416
2026-01-02 10:13:12.87	170.97	33.57	-40.7	-43.6	14.2	1.50e-06	0	56	0	399507456	52	5176
2026-01-02 10:13:13.88	171.02	33.78	-40.7	-43.7	14.1	7.00e-07	0	56	0	401604608	52	5228
2026-01-02 10:13:14.89	171.08	34.00	-40.8	-43.9	13.9	5.30e-06	0	56	0	402653184	52	5345
2026-01-02 10:13:15.90	171.14	34.22	-40.6	-43.6	14.2	2.20e-06	0	56	0	404750336	52	5167
2026-01-02 10:13:16.91	171.19	34.45	-40.7	-43.6	14.2	0.00e+00	0	56	0	406847488	52	5182
2026-01-02 10:13:17.92	171.25	34.67	-40.3	-43.0	14.8	0.00e+00	0	56	0	408944640	52	4828
2026-01-02 10:13:18.93	171.31	34.90	-39.9	-42.4	15.4	0.00e+00	0	56	0	411041792	51	4808
2026-01-02 10:13:19.94	171.37	35.12	-39.8	-42.3	15.6	0.00e+00	0	56	0	412090368	51	4720
2026-01-02 10:13:20.95	171.43	35.35	-39.4	-41.7	16.1	0.00e+00	0	56	0	414187520	50	4684
2026-01-02 10:13:21.96	171.49	35.58	-39.4	-41.7	16.1	0.00e+00	0	56	0	416284672	50	4654
2026-01-02 10:13:22.97	171.55	35.81	-39.5	-41.8	16.1	0.00e+00	0	56	0	418381824	50	4717
2026-01-02 10:13:23.98	171.62	36.05	-39.0	-41.2	16.7	0.00e+00	0	56	0	420478976	50	4416
2026-01-02 10:13:24.99	171.68	36.28	-39.1	-41.2	16.6	0.00e+00	0	56	0	421527552	49	4692
2026-01-02 10:13:26.00	171.74	36.52	-38.9	-41.0	16.9	0.00e+00	0	56	0	423624704	49	4550
2026-01-02 10:13:27.01	171.81	36.76	-38.7	-40.8	17.1	0.00e+00	0	56	0	425721856	49	4445
2026-01-02 10:13:28.02	171.88	37.00	-38.4	-40.4	17.4	0.00e+00	0	56	0	427819008	48	4511
2026-01-02 10:13:29.03	171.94	37.24	-38.4	-40.4	17.4	0.00e+00	0	56	0	429916160	48	4529
2026-01-02 10:13:30.04	172.01	37.48	-38.0	-39.8	18.0	0.00e+00	0	56	0	430964736	48	4221
2026-01-02 10:13:31.05	172.08	37.73	-37.7	-39.5	18.2	0.00e+00	0	56	0	433061888	47	4324
2026-01-02 10:13:32.05	172.15	37.97	-37.8	-39.5	18.2	0.00e+00	0	56	0	435159040	47	4337
2026-01-02 10:13:33.06	172.22	38.22	-37.6	-39.3	18.4	0.00e+00	0	56	0	437256192	47	4239
2026-01-02 10:13:34.07	172.29	38.47	-38.0	-39.8	17.9	0.00e+00	0	56	0	439353344	46	4745
2026-01-02 10:13:35.08	172.37	38.73	-38.0	-39.9	17.9	0.00e+00	0	56	0	440401920	46	4776
2026-01-02 10:13:36.09	172.44	38.98	-37.8	-39.6	18.1	0.00e+00	0	56	0	442499072	46	4637
2026-01-02 10:13:37.11	172.52	39.24	-38.1	-40.0	17.8	0.00e+00	0	56	0	444596224	46	4841
2026-01-02 10:13:38.12	172.60	39.50	-38.1	-40.0	17.8	0.00e+00	0	56	0	446693376	46	4849
2026-01-02 10:13:39.13	172.67	39.76	-38.1	-40.0	17.7	0.00e+00	0	56	0	448790528	47	4575
2026-01-02 10:13:40.14	172.75	40.02	-38.5	-40.5	17.3	0.00e+00	0	56	0	449839104	47	4818
2026-01-02 10:13:41.15	172.83	40.28	-38.5	-40.4	17.3	0.00e+00	0	56	0	451936256	47	4795
2026-01-02 10:13:42.16	172.91	40.55	-38.4	-40.3	17.5	0.00e+00	0	56	0	454033408	48	4459
2026-01-02 10:13:43.17	173.00	40.82	-38.7	-40.7	17.1	0.00e+00	0	56	0	456130560	48	4670
2026-01-02 10:13:44.18	173.08	41.09	-39.0	-41.1	16.8	0.00e+00	0	56	0	458227712	48	4883
2026-01-02 10:13:45.19	173.17	41.36	-39.0	-41.0	16.9	0.00e+00	0	56	0	459276288	48	4851
2026-01-02 10:13:46.20	173.25	41.63	-39.4	-41.6	16.3	0.00e+00	0	56	0	461373440	49	4893
2026-01-02 10:13:47.20	173.34	41.91	-39.3	-41.5	16.3	0.00e+00	0	56	0	463470592	49	4857
2026-01-02 10:13:48.21	173.43	42.18	-39.6	-41.9	16.0	0.00e+00	0	56	0	465567744	49	5054
2026-01-02 10:13:49.22	173.52	42.46	-39.6	-41.9	16.0	0.00e+00	0	56	0	467664896	50	4776
2026-01-02 10:13:50.23	173.62	42.74	-39.5	-41.7	16.1	0.00e+00	0	56	0	469762048	50	4705
2026-01-02 10:13:51.24	173.71	43.03	-39.6	-41.9	16.0	0.00e+00	0	56	0	470810624	50	4775
2026-01-02 10:13:52.25	173.81	43.31	-39.2	-41.4	16.5	0.00e+00	0	56	0	472907776	50	4510
2026-01-02 10:13:53.26	173.91	43.60	-39.1	-41.1	16.8	0.00e+00	0	56	0	475004928	50	4388
2026-01-02 10:13:54.27	174.00	43.89	-38.8	-40.8	17.0	0.00e+00	0	56	0	477102080	49	4493
2026-01-02 10:13:55.28	174.11	44.18	-39.1	-41.2	16.6	0.00e+00	0	56	0	479199232	49	4690
2026-01-02 10:13:56.29	174.21	44.48	-39.2	-41.3	16.6	0.00e+00	0	56	0	480247808	49	4724
2026-01-02 10:13:57.30	174.31	44.77	-39.5	-41.7	16.3	0.00e+00	0	56	0	482344960	49	4948
2026-01-02 10:13:58.31	174.42	45.07	-40.0	-42.5	15.4	0.00e+00	0	56	0	484442112	50	5149
2026-01-02 10:13:59.32	174.53	45.37	-40.3	-42.9	15.1	0.00e+00	0	56	0	486539264	51	5045
2026-01-02 10:14:00.33	174.64	45.68	-41.1	-44.2	13.7	6.10e-06	0	56	0	488636416	52	5587
2026-01-02 10:14:01.34	174.75	45.98	-41.2	-44.5	13.3	3.80e-06	0	56	0	489684992	53	5415
2026-01-02 10:14:02.35	174.87	46.29	-41.5	-45.1	12.8	8.85e-05	0	56	0	491782144	53	5800
2026-01-02 10:14:03.36	174.99	46.60	-41.6	-45.1	12.8	1.56e-04	0	56	0	493879296	54	5475
2026-01-02 10:14:04.37	175.11	46.91	-41.7	-45.3	12.4	1.22e-04	0	56	0	495976448	54	5641
2026-01-02 10:14:05.38	175.23	47.22	-41.7	-45.3	12.5	1.46e-04	0	56	0	498073600	54	5639
2026-01-02 10:14:06.39	175.35	47.54	-41.5	-44.9	12.9	8.08e-05	0	56	0	499122176	54	5362
2026-01-02 10:14:07.40	175.48	47.86	-41.5	-44.9	13.0	3.20e-05	0	56	0	501219328	54	5399
2026-01-02 10:14:08.41	175.61	48.18	-41.3	-44.7	13.2	4.27e-05	0	56	0	503316480	54	5227
2026-01-02 10:14:09.41	175.74	48.50	-41.3	-44.7	13.2	3.28e-05	0	56	0	505413632	54	5236
2026-01-02 10:14:10.42	175.87	48.82	-40.8	-43.9	13.9	1.52e-05	0	56	0	507510784	53	5076
2026-01-02 10:14:11.43	176.01	49.15	-40.4	-43.1	14.8	0.00e+00	0	56	0	508559360	52	4892
2026-01-02 10:14:12.44	176.15	49.48	-40.0	-42.5	15.3	0.00e+00	0	56	0	510656512	52	4575
2026-01-02 10:14:13.45	176.30	49.81	-39.5	-41.8	16.1	0.00e+00	0	56	0	512753664	50	4716
2026-01-02 10:14:14.46	176.44	50.14	-39.0	-41.1	16.9	0.00e+00	0	56	0	514850816	50	4353
2026-01-02 10:14:15.47	176.59	50.48	-38.7	-40.7	17.1	0.00e+00	0	56	0	516947968	49	4408
2026-01-02 10:14:16.48	176.75	50.82	-38.9	-40.9	17.0	0.00e+00	0	56	0	517996544	49	4517
2026-01-02 10:14:17.49	176.90	51.16	-38.8	-40.8	17.0	0.00e+00	0	56	0	520093696	49	4492
2026-01-02 10:14:18.50	177.06	51.50	-39.1	-41.3	16.6	0.00e+00	0	56	0	522190848	49	4722
2026-01-02 10:14:19.51	177.23	51.84	-38.5	-40.4	17.4	0.00e+00	0	56	0	524288000	48	4545
2026-01-02 10:14:20.52	177.39	52.19	-38.3	-40.1	17.8	0.00e+00	0	56	0	526385152	48	4382
2026-01-02 10:14:21.53	177.56	52.54	-37.6	-39.3	18.4	0.00e+00	0	56	0	527433728	46	4462
2026-01-02 10:14:22.54	177.74	52.89	-37.6	-39.3	18.4	0.00e+00	0	56	0	529530880	46	4466
2026-01-02 10:14:23.55	177.92	53.25	-37.3	-38.9	18.8	0.00e+00	0	56	0	531628032	46	4266
2026-01-02 10:14:24.56	178.10	53.60	-37.3	-38.9	18.8	0.00e+00	0	56	0	533725184	46	4272
2026-01-02 10:14:25.57	178.29	53.96	-37.5	-39.2	18.6	0.00e+00	0	56	0	535822336	46	4401
2026-01-02 10:14:26.58	178.48	54.32	-37.7	-39.4	18.4	0.00e+00	0	56	0	537919488	46	4543
2026-01-02 10:14:27.60	178.68	54.69	-37.3	-39.0	18.7	0.00e+00	0	56	0	538968064	46	4308
2026-01-02 10:14:28.60	178.89	55.05	-36.9	-38.5	19.2	0.00e+00	0	56	0	541065216	45	4315
2026-01-02 10:14:29.61	179.09	55.42	-36.5	-38.0	19.6	0.00e+00	0	56	0	543162368	45	4054
2026-01-02 10:14:30.62	179.31	55.79	-36.1	-37.5	20.1	0.00e+00	0	56	0	545259520	44	4072
2026-01-02 10:14:31.63	179.53	56.16	-36.3	-37.8	19.9	0.00e+00	0	56	0	547356672	44	4200
2026-01-02 10:14:32.64	179.75	56.53	-36.5	-38.1	19.6	0.00e+00	0	56	0	548405248	44	4343
2026-01-02 10:14:33.65	179.98	56.91	-36.8	-38.4	19.2	0.00e+00	0	56	0	550502400	44	4535
2026-01-02 10:14:34.66	180.22	57.28	-37.1	-38.7	19.0	0.00e+00	0	56	0	552599552	45	4421
2026-01-02 10:14:35.67	180.46	57.66	-36.8	-38.3	19.3	0.00e+00	0	56	0	554696704	45	4222
2026-01-02 10:14:36.68	180.71	58.04	-36.3	-37.8	19.9	0.00e+00	0	56	0	556793856	44	4206
2026-01-02 10:14:37.69	180.97	58.43	-36.6	-38.1	19.6	0.00e+00	0	56	0	557842432	44	4366
2026-01-02 10:14:38.70	181.24	58.81	-37.0	-38.6	19.1	0.00e+00	0	56	0	559939584	44	4627
2026-01-02 10:14:39.71	181.51	59.20	-37.3	-38.9	18.8	0.00e+00	0	56	0	562036736	45	4540
2026-01-02 10:14:40.72	181.79	59.59	-37.3	-39.0	18.6	0.00e+00	0	56	0	564133888	45	4555
2026-01-02 10:14:41.72	182.08	59.98	-37.3	-38.9	18.7	0.00e+00	0	56	0	566231040	45	4500
2026-01-02 10:14:42.73	182.38	60.37	-37.5	-39.2	18.6	0.00e+00	0	56	0	567279616	45	4664
2026-01-02 10:14:43.74	182.68	60.77	-37.6	-39.3	18.4	0.00e+00	0	56	0	569376768	45	4741
2026-01-02 10:14:44.75	183.00	61.16	-37.5	-39.2	18.4	0.00e+00	0	56	0	571473920	45	4685
2026-01-02 10:14:45.76	183.33	61.56	-36.9	-38.6	19.1	0.00e+00	0	56	0	573571072	45	4346
2026-01-02 10:14:46.77	183.67	61.96	-36.7	-38.2	19.3	0.00e+00	0	56	0	575668224	45	4182
2026-01-02 10:14:47.78	184.02	62.36	-36.7	-38.3	19.4	0.00e+00	0	56	0	576716800	45	4210
2026-01-02 10:14:48.79	184.38	62.76	-37.3	-39.1	18.6	0.00e+00	0	56	0	578813952	45	4602
2026-01-02 10:14:49.80	184.75	63.17	-37.3	-39.1	18.7	0.00e+00	0	56	0	580911104	45	4600
2026-01-02 10:14:50.81	185.14	63.57	-36.8	-38.4	19.2	0.00e+00	0	56	0	583008256	45	4268
2026-01-02 10:14:51.82	185.54	63.98	-37.0	-38.6	19.1	0.00e+00	0	56	0	585105408	45	4368
2026-01-02 10:14:52.84	185.95	64.39	-37.4	-39.2	18.6	0.00e+00	0	56	0	586153984	45	4663
2026-01-02 10:14:53.84	186.38	64.80	-37.4	-39.1	18.6	0.00e+00	0	56	0	588251136	45	4614
2026-01-02 10:14:54.85	186.82	65.21	-37.2	-38.9	18.9	0.00e+00	0	56	0	590348288	45	4508
2026-01-02 10:14:55.86	187.28	65.62	-36.9	-38.5	19.2	0.00e+00	0	56	0	592445440	45	4305
2026-01-02 10:14:56.87	187.76	66.03	-37.0	-38.6	19.0	0.00e+00	0	56	0	594542592	45	4360
2026-01-02 10:14:57.88	188.25	66.44	-37.2	-38.8	18.8	0.00e+00	0	56	0	595591168	45	4488
2026-01-02 10:14:58.89	188.77	66.85	-37.8	-39.6	18.1	0.00e+00	0	56	0	597688320	46	4620
2026-01-02 10:14:59.90	189.31	67.26	-38.3	-40.2	17.5	0.00e+00	0	56	0	599785472	47	4704
2026-01-02 10:15:00.91	189.86	67.67	-38.7	-40.7	17.2	0.00e+00	0	56	0	601882624	48	4670
2026-01-02 10:15:01.92	190.44	68.09	-37.6	-39.3	18.4	0.00e+00	0	57	0	603979776	47	4201
2026-01-02 10:15:02.93	191.05	68.50	-37.7	-39.4	18.1	0.00e+00	0	56	0	606076928	47	4264
2026-01-02 10:15:03.94	191.67	68.91	-39.1	-41.2	16.7	0.00e+00	0	56	0	607125504	48	4953
2026-01-02 10:15:04.95	192.33	69.32	-40.3	-43.1	14.8	0.00e+00	0	56	0	609222656	51	5160
2026-01-02 10:15:05.95	193.01	69.73	-40.4	-43.1	14.8	0.00e+00	0	56	0	611319808	51	5165
2026-01-02 10:15:06.97	193.73	70.14	-40.1	-42.5	15.3	0.00e+00	0	56	0	613416960	51	4856
2026-01-02 10:15:07.97	194.47	70.55	-40.6	-43.4	14.8	0.00e+00	0	56	0	615514112	51	5349
2026-01-02 10:15:08.98	195.25	70.95	-40.4	-43.1	14.6	7.00e-07	0	56	0	616562688	52	4914
2026-01-02 10:15:09.99	196.06	71.36	-40.1	-42.7	15.1	1.50e-06	0	56	0	618659840	52	4658
2026-01-02 10:15:11.00	196.92	71.76	-40.2	-42.8	15.1	0.00e+00	0	57	0	620756992	51	5004
2026-01-02 10:15:12.01	197.81	72.16	-40.7	-43.6	14.1	0.00e+00	0	56	0	622854144	52	5215
2026-01-02 10:15:13.02	198.75	72.56	-41.3	-44.8	12.9	3.43e-05	0	56	0	624951296	53	5640
2026-01-02 10:15:14.03	199.73	72.95	-42.0	-46.2	11.6	3.86e-04	0	56	0	625999872	54	6246
2026-01-02 10:15:15.04	200.76	73.34	-42.4	-47.1	10.4	2.40e-03	0	57	0	628097024	55	6505
2026-01-02 10:15:16.05	201.85	73.73	-41.5	-45.0	12.6	1.61e-03	0	56	0	630194176	55	5141
2026-01-02 10:15:17.06	202.99	74.11	-39.7	-42.1	15.7	0.00e+00	0	56	0	632291328	51	4611
2026-01-02 10:15:18.07	204.18	74.49	-39.2	-41.3	16.4	0.00e+00	0	56	0	634388480	50	4475
2026-01-02 10:15:19.08	205.44	74.86	-39.1	-41.3	16.5	0.00e+00	0	56	0	635437056	49	4720
2026-01-02 10:15:20.09	206.76	75.22	-39.2	-41.4	16.4	0.00e+00	0	56	0	637534208	50	4529
2026-01-02 10:15:21.10	208.15	75.58	-40.3	-43.0	14.8	0.00e+00	0	56	0	639631360	51	5140
2026-01-02 10:15:22.10	209.60	75.93	-41.2	-44.6	12.8	9.10e-06	0	56	0	641728512	53	5511
2026-01-02 10:15:23.12	211.15	76.27	-39.8	-42.3	15.5	6.10e-06	0	56	0	643825664	51	4714
2026-01-02 10:15:24.13	212.77	76.60	-38.6	-40.5	17.3	0.00e+00	0	57	0	644874240	49	4329
2026-01-02 10:15:25.14	214.47	76.93	-39.0	-41.1	16.6	0.00e+00	0	56	0	646971392	49	4645
2026-01-02 10:15:26.15	216.26	77.24	-38.6	-40.6	17.1	0.00e+00	0	56	0	649068544	49	4367
2026-01-02 10:15:27.16	218.14	77.54	-38.5	-40.5	17.3	0.00e+00	0	57	0	651165696	48	4546
2026-01-02 10:15:28.17	220.11	77.82	-39.8	-42.3	15.6	0.00e+00	0	56	0	653262848	50	4997
2026-01-02 10:15:29.17	222.16	78.09	-40.4	-43.2	14.7	0.00e+00	0	56	0	654311424	51	5222
2026-01-02 10:15:30.18	224.32	78.35	-40.0	-42.6	15.1	0.00e+00	0	56	0	656408576	51	4883
2026-01-02 10:15:31.19	226.58	78.59	-39.5	-41.8	16.0	0.00e+00	0	56	0	658505728	50	4739
2026-01-02 10:15:32.20	228.93	78.81	-38.9	-41.0	16.7	0.00e+00	0	56	0	660602880	49	4551
2026-01-02 10:15:33.21	231.37	79.01	-38.1	-39.9	17.7	0.00e+00	0	56	0	662700032	48	4277
2026-01-02 10:15:34.22	233.91	79.20	-38.4	-40.2	17.5	0.00e+00	0	56	0	663748608	48	4439
2026-01-02 10:15:35.23	236.53	79.36	-39.4	-41.7	16.1	0.00e+00	0	56	0	665845760	49	4944
2026-01-02 10:15:36.24	239.22	79.50	-40.2	-42.7	15.1	7.00e-07	0	56	0	667942912	51	4961
2026-01-02 10:15:37.25	241.98	79.62	-40.6	-43.4	14.5	0.00e+00	0	56	0	670040064	51	5358
2026-01-02 10:15:38.26	244.80	79.71	-40.9	-44.0	13.9	0.00e+00	0	56	0	672137216	52	5437
2026-01-02 10:15:39.27	247.67	79.78	-41.8	-45.6	12.2	1.01e-04	0	56	0	674234368	54	5835
2026-01-02 10:15:40.28	250.56	79.82	-41.9	-45.9	11.9	3.22e-04	0	56	0	675282944	54	6016
2026-01-02 10:15:41.29	253.48	79.84	-41.7	-45.5	12.3	3.62e-04	0	57	0	677380096	54	5730
2026-01-02 10:15:42.30	256.39	79.83	-41.5	-45.1	12.7	6.10e-05	0	57	0	679477248	54	5473
2026-01-02 10:15:43.31	259.30	79.79	-41.6	-45.3	12.4	1.95e-04	0	56	0	681574400	54	5626
2026-01-02 10:15:44.32	262.17	79.73	-40.8	-43.9	13.8	4.88e-05	0	56	0	683671552	53	5060
2026-01-02 10:15:45.33	265.01	79.65	-40.1	-42.7	15.2	0.00e+00	0	56	0	684720128	51	4946
2026-01-02 10:15:46.33	267.76	79.54	-40.8	-43.7	14.1	2.20e-06	0	57	0	686817280	52	5253
2026-01-02 10:15:47.34	270.48	79.41	-41.4	-44.9	12.8	2.05e-05	0	57	0	688914432	53	5668
2026-01-02 10:15:48.35	273.12	79.25	-41.1	-44.3	13.4	1.22e-05	0	56	0	691011584	53	5326
2026-01-02 10:15:49.36	275.68	79.07	-40.9	-44.1	13.6	1.06e-05	0	57	0	693108736	53	5177
2026-01-02 10:15:50.37	278.15	78.88	-41.2	-44.4	13.2	1.44e-05	0	56	0	694157312	53	5389
2026-01-02 10:15:51.38	280.53	78.66	-41.0	-44.2	13.5	8.30e-06	0	56	0	696254464	53	5267
2026-01-02 10:15:52.39	282.82	78.43	-40.6	-43.4	14.3	2.20e-06	0	56	0	698351616	52	5094
2026-01-02 10:15:53.40	285.01	78.18	-40.2	-42.9	15.0	0.00e+00	0	56	0	700448768	51	5056
2026-01-02 10:15:54.41	287.10	77.91	-40.2	-42.8	15.1	0.00e+00	0	56	0	702545920	51	4998
2026-01-02 10:15:55.42	289.10	77.63	-40.8	-43.9	14.0	0.00e+00	0	56	0	703594496	52	5345
2026-01-02 10:15:56.43	291.01	77.33	-42.1	-46.3	11.5	1.78e-04	0	56	0	705691648	54	6301
2026-01-02 10:15:57.44	292.82	77.02	-40.6	-43.5	14.2	1.43e-04	0	56	0	707788800	53	4831
2026-01-02 10:15:58.45	294.55	76.71	-40.3	-42.9	14.9	0.00e+00	0	56	0	709885952	51	5085
2026-01-02 10:15:59.46	296.19	76.38	-40.6	-43.4	14.6	7.00e-07	0	57	0	711983104	51	5387
2026-01-02 10:16:00.47	297.76	76.04	-39.6	-41.8	16.0	7.00e-07	0	56	0	713031680	51	4488
2026-01-02 10:16:01.48	299.24	75.69	-38.9	-41.0	16.8	0.00e+00	0	56	0	715128832	49	4559
2026-01-02 10:16:02.49	300.65	75.34	-38.7	-40.7	17.1	0.00e+00	0	57	0	717225984	49	4432
2026-01-02 10:16:03.50	301.99	74.97	-39.5	-41.9	16.0	0.00e+00	0	56	0	719323136	49	5054
2026-01-02 10:16:04.51	303.27	74.61	-41.2	-44.8	13.2	0.00e+00	0	57	0	721420288	53	5633
2026-01-02 10:16:05.52	304.48	74.23	-41.7	-45.5	12.2	8.52e-04	0	56	0	722468864	54	5758
2026-01-02 10:16:06.53	305.64	73.85	-40.1	-42.7	15.0	1.50e-06	0	56	0	724566016	52	4698
2026-01-02 10:16:07.54	306.74	73.47	-40.9	-44.1	14.1	7.00e-07	0	57	0	726663168	52	5479
2026-01-02 10:16:08.55	307.78	73.08	-40.2	-42.8	15.0	2.20e-06	0	56	0	728760320	52	4737
2026-01-02 10:16:09.56	308.78	72.69	-38.7	-40.6	17.2	0.00e+00	0	56	0	730857472	49	4385
2026-01-02 10:16:10.57	309.73	72.29	-38.9	-40.9	17.0	0.00e+00	0	56	0	731906048	49	4507
2026-01-02 10:16:11.58	310.64	71.89	-40.2	-42.9	15.0	0.00e+00	0	56	0	734003200	51	5044
2026-01-02 10:16:12.59	311.51	71.49	-40.9	-45.2	12.6	2.59e-05	0	57	0	736100352	53	5922
2026-01-02 10:16:13.60	312.33	71.09	-43.0	-48.2	9.8	2.68e-03	0	57	0	738197504	56	6982
2026-01-02 10:16:14.61	313.12	70.68	-42.4	-46.6	11.3	7.06e-03	0	56	0	740294656	56	5840
2026-01-02 10:16:15.62	313.88	70.28	-40.0	-42.4	15.4	8.30e-06	0	57	0	742391808	52	4539
2026-01-02 10:16:16.63	314.60	69.87	-39.8	-42.0	15.9	0.00e+00	0	57	0	743440384	50	4869
2026-01-02 10:16:17.64	315.30	69.46	-40.3	-42.9	14.9	0.00e+00	0	57	0	745537536	51	5078
2026-01-02 10:16:18.65	315.96	69.05	-40.3	-42.9	15.1	0.00e+00	0	57	0	747634688	51	5055
2026-01-02 10:16:19.66	316.60	68.64	-40.3	-42.9	15.0	0.00e+00	0	57	0	749731840	51	5087
2026-01-02 10:16:20.66	317.20	68.23	-40.5	-43.4	14.4	0.00e+00	0	56	0	751828992	52	5062
2026-01-02 10:16:21.67	317.79	67.82	-40.0	-42.5	15.4	0.00e+00	0	56	0	752877568	51	4868
2026-01-02 10:16:22.68	318.35	67.41	-39.6	-41.9	16.1	0.00e+00	0	57	0	754974720	50	4773
2026-01-02 10:16:23.69	318.89	67.00	-39.2	-41.4	16.5	0.00e+00	0	56	0	757071872	50	4505
2026-01-02 10:16:24.70	319.41	66.59	-37.4	-39.2	18.5	0.00e+00	0	56	0	759169024	46	4395
2026-01-02 10:16:25.71	319.92	66.18	-36.3	-37.7	20.0	0.00e+00	0	56	0	761266176	44	4188
2026-01-02 10:16:26.72	320.40	65.77	-37.0	-38.6	19.1	0.00e+00	0	56	0	762314752	44	4637
2026-01-02 10:16:27.73	320.86	65.36	-37.7	-39.5	18.3	0.00e+00	0	57	0	764411904	46	4594
2026-01-02 10:16:28.74	321.31	64.95	-37.0	-38.6	19.1	0.00e+00	0	56	0	766509056	46	4126
2026-01-02 10:16:29.75	321.75	64.54	-36.3	-37.7	19.9	0.00e+00	0	56	0	768606208	44	4181
2026-01-02 10:16:30.76	322.16	64.13	-35.9	-37.3	20.2	0.00e+00	0	57	0	770703360	43	4207
2026-01-02 10:16:31.77	322.57	63.73	-36.1	-37.5	20.1	0.00e+00	0	56	0	771751936	43	4325
2026-01-02 10:16:32.78	322.96	63.32	-37.3	-39.0	18.8	0.00e+00	0	57	0	773849088	45	4549
2026-01-02 10:16:33.79	323.33	62.92	-38.1	-40.0	17.9	0.00e+00	0	56	0	775946240	46	4848
2026-01-02 10:16:34.80	323.70	62.52	-37.5	-39.3	18.5	0.00e+00	0	56	0	778043392	47	4207
2026-01-02 10:16:35.81	324.05	62.12	-36.8	-38.4	19.3	0.00e+00	0	56	0	780140544	45	4269
2026-01-02 10:16:36.82	324.39	61.72	-36.7	-38.2	19.5	0.00e+00	0	57	0	781189120	45	4162
2026-01-02 10:16:37.82	324.72	61.33	-37.3	-38.9	18.9	0.00e+00	0	56	0	783286272	45	4525
2026-01-02 10:16:38.83	325.04	60.93	-38.2	-40.0	17.9	0.00e+00	0	56	0	785383424	46	4857
2026-01-02 10:16:39.84	325.35	60.54	-39.3	-41.4	16.6	0.00e+00	0	57	0	787480576	49	4803
2026-01-02 10:16:40.85	325.65	60.14	-38.6	-40.5	17.4	0.00e+00	0	56	0	789577728	49	4320
2026-01-02 10:16:41.86	325.95	59.75	-38.2	-40.0	18.0	0.00e+00	0	57	0	790626304	48	4312
2026-01-02 10:16:42.87	326.23	59.36	-38.6	-40.5	17.5	0.00e+00	0	57	0	792723456	48	4558
2026-01-02 10:16:43.88	326.50	58.98	-38.3	-40.1	17.8	0.00e+00	0	57	0	794820608	48	4381
2026-01-02 10:16:44.89	326.77	58.59	-38.7	-40.7	17.4	0.00e+00	0	56	0	796917760	48	4664
2026-01-02 10:16:45.90	327.03	58.21	-39.4	-41.5	16.5	0.00e+00	0	56	0	799014912	49	4861
2026-01-02 10:16:46.91	327.29	57.83	-40.1	-42.6	15.6	0.00e+00	0	56	0	800063488	51	4881
2026-01-02 10:16:47.92	327.53	57.45	-38.6	-40.5	17.4	0.00e+00	0	56	0	802160640	49	4336
2026-01-02 10:16:48.93	327.77	57.07	-37.6	-39.2	18.6	0.00e+00	0	57	0	804257792	47	4190
2026-01-02 10:16:49.94	328.00	56.70	-37.3	-38.9	18.9	0.00e+00	0	56	0	806354944	46	4280
2026-01-02 10:16:50.95	328.23	56.32	-36.7	-38.2	19.6	0.00e+00	0	56	0	808452096	45	4167
2026-01-02 10:16:51.96	328.45	55.95	-36.9	-38.5	19.3	0.00e+00	0	57	0	810549248	45	4319
2026-01-02 10:16:52.96	328.67	55.59	-38.4	-40.4	17.6	0.00e+00	0	56	0	811597824	47	4786
2026-01-02 10:16:53.97	328.88	55.22	-39.7	-42.1	15.9	0.00e+00	0	56	0	813694976	49	5216
2026-01-02 10:16:54.98	329.08	54.86	-39.7	-42.2	15.8	0.00e+00	0	57	0	815792128	50	4947
2026-01-02 10:16:55.99	329.28	54.49	-38.2	-40.0	17.9	0.00e+00	0	56	0	817889280	48	4325
2026-01-02 10:16:57.00	329.47	54.13	-37.8	-39.6	18.3	0.00e+00	0	57	0	818937856	47	4371
2026-01-02 10:16:58.01	329.66	53.78	-38.0	-39.8	18.0	0.00e+00	0	56	0	821035008	47	4491
2026-01-02 10:16:59.02	329.85	53.42	-38.3	-40.2	17.7	0.00e+00	0	56	0	823132160	47	4663
2026-01-02 10:17:00.03	330.03	53.07	-37.7	-39.4	18.4	0.00e+00	0	57	0	825229312	47	4282
2026-01-02 10:17:01.04	330.21	52.72	-37.7	-39.5	18.4	0.00e+00	0	57	0	827326464	46	4560
2026-01-02 10:17:02.05	330.38	52.37	-38.7	-40.7	17.2	0.00e+00	0	57	0	828375040	47	4954
2026-01-02 10:17:03.06	330.55	52.02	-40.2	-42.8	15.2	0.00e+00	0	56	0	830472192	50	5325
2026-01-02 10:17:04.07	330.71	51.68	-40.7	-43.6	14.4	1.50e-06	0	56	0	832569344	52	5188
2026-01-02 10:17:05.08	330.88	51.33	-40.2	-42.8	15.1	0.00e+00	0	56	0	834666496	52	4719
2026-01-02 10:17:06.09	331.03	50.99	-39.6	-41.8	16.2	0.00e+00	0	57	0	836763648	51	4480
2026-01-02 10:17:07.10	331.19	50.66	-39.3	-41.5	16.5	0.00e+00	0	56	0	838860800	50	4565
2026-01-02 10:17:08.11	331.34	50.32	-39.4	-41.6	16.6	0.00e+00	0	57	0	839909376	50	4616
2026-01-02 10:17:09.12	331.49	49.99	-39.6	-41.8	16.3	0.00e+00	0	56	0	842006528	50	4741
2026-01-02 10:17:10.13	331.63	49.66	-39.7	-42.0	16.0	0.00e+00	0	57	0	844103680	50	4837
2026-01-02 10:17:11.14	331.77	49.33	-40.1	-42.5	15.7	0.00e+00	0	57	0	846200832	50	5136
2026-01-02 10:17:12.15	331.91	49.00	-40.7	-43.4	14.4	7.00e-07	0	57	0	848297984	52	5093
2026-01-02 10:17:13.16	332.05	48.68	-40.9	-43.8	14.2	7.00e-07	0	57	0	849346560	52	5282
2026-01-02 10:17:14.17	332.18	48.35	-41.2	-44.4	13.7	8.30e-06	0	57	0	851443712	53	5353
2026-01-02 10:17:15.18	332.31	48.03	-40.8	-43.7	14.2	7.00e-07	0	56	0	853540864	53	4943
2026-01-02 10:17:16.19	332.44	47.72	-39.2	-41.3	16.6	0.00e+00	0	56	0	855638016	50	4475
2026-01-02 10:17:17.20	332.56	47.40	-38.8	-40.7	17.3	0.00e+00	0	57	0	857735168	49	4426
2026-01-02 10:17:18.21	332.69	47.09	-39.2	-41.3	16.6	0.00e+00	0	57	0	858783744	49	4744
2026-01-02 10:17:19.22	332.81	46.78	-40.8	-43.7	14.3	0.00e+00	0	56	0	860880896	52	5262
2026-01-02 10:17:20.23	332.93	46.47	-41.7	-45.4	12.6	8.16e-05	0	57	0	862978048	54	5660
2026-01-02 10:17:21.24	333.04	46.16	-42.3	-46.4	11.4	9.86e-04	0	57	0	865075200	55	6042
2026-01-02 10:17:22.25	333.16	45.86	-41.7	-45.3	12.7	2.47e-04	0	57	0	867172352	55	5288
2026-01-02 10:17:23.26	333.27	45.56	-41.0	-44.0	13.9	1.60e-05	0	57	0	868220928	54	4860
2026-01-02 10:17:24.27	333.38	45.25	-40.1	-42.6	15.3	0.00e+00	0	57	0	870318080	52	4633
2026-01-02 10:17:25.28	333.49	44.96	-39.7	-41.9	16.2	0.00e+00	0	56	0	872415232	51	4535
2026-01-02 10:17:26.29	333.59	44.66	-38.6	-40.5	17.4	0.00e+00	0	57	0	874512384	49	4324
2026-01-02 10:17:27.30	333.70	44.37	-38.2	-40.0	17.9	0.00e+00	0	57	0	876609536	48	4328
2026-01-02 10:17:28.31	333.80	44.08	-38.7	-40.6	17.4	0.00e+00	0	57	0	878706688	48	4600
2026-01-02 10:17:29.32	333.90	43.79	-38.7	-40.6	17.4	0.00e+00	0	57	0	879755264	48	4648
2026-01-02 10:17:30.33	334.00	43.50	-39.8	-42.2	15.9	0.00e+00	0	56	0	881852416	50	4938
2026-01-02 10:17:31.34	334.10	43.21	-41.3	-44.5	13.6	0.00e+00	0	57	0	883949568	53	5420
2026-01-02 10:17:32.34	334.19	42.93	-42.2	-46.4	11.6	8.39e-05	0	57	0	886046720	54	6354
2026-01-02 10:17:33.35	334.28	42.65	-41.6	-45.1	12.8	6.53e-04	0	57	0	887095296	55	5187
2026-01-02 10:17:34.36	334.38	42.37	-40.7	-43.5	14.3	3.00e-06	0	57	0	889192448	53	4870
2026-01-02 10:17:35.38	334.47	42.09	-39.0	-41.0	16.9	0.00e+00	0	57	0	891289600	50	4335
2026-01-02 10:17:36.38	334.56	41.82	-37.4	-39.0	18.8	0.00e+00	0	57	0	893386752	46	4333
2026-01-02 10:17:37.39	334.64	41.55	-36.8	-38.3	19.4	0.00e+00	0	57	0	895483904	45	4234
2026-01-02 10:17:38.40	334.73	41.27	-37.0	-38.5	19.3	0.00e+00	0	57	0	896532480	45	4334
2026-01-02 10:17:39.41	334.81	41.01	-37.2	-38.8	18.9	0.00e+00	0	57	0	898629632	45	4479
2026-01-02 10:17:40.42	334.90	40.74	-37.3	-38.9	18.9	0.00e+00	0	57	0	900726784	45	4530
2026-01-02 10:17:41.43	334.98	40.47	-38.1	-39.9	18.0	0.00e+00	0	57	0	902823936	46	4796
2026-01-02 10:17:42.44	335.06	40.21	-38.3	-40.2	17.7	0.00e+00	0	57	0	904921088	47	4666
2026-01-02 10:17:43.45	335.14	39.95	-38.9	-41.0	17.0	0.00e+00	0	56	0	907018240	48	4846
2026-01-02 10:17:44.46	335.22	39.69	-39.9	-42.3	15.7	0.00e+00	0	57	0	908066816	50	5040
2026-01-02 10:17:45.47	335.30	39.43	-40.2	-42.8	15.1	0.00e+00	0	56	0	910163968	51	5031
2026-01-02 10:17:46.48	335.37	39.17	-40.4	-43.0	15.0	0.00e+00	0	57	0	912261120	51	5148
2026-01-02 10:17:47.49	335.45	38.92	-40.3	-42.8	15.2	0.00e+00	0	57	0	914358272	51	5028
2026-01-02 10:17:48.50	335.52	38.67	-40.1	-42.6	15.3	7.00e-07	0	57	0	916455424	52	4635
2026-01-02 10:17:49.51	335.60	38.42	-39.4	-41.5	16.5	0.00e+00	0	56	0	917504000	50	4568
2026-01-02 10:17:50.52	335.67	38.17	-39.0	-40.9	17.0	0.00e+00	0	57	0	919601152	50	4291
2026-01-02 10:17:51.53	335.74	37.92	-38.5	-40.3	17.6	0.00e+00	0	57	0	921698304	49	4230
2026-01-02 10:17:52.54	335.81	37.68	-38.3	-40.1	17.9	0.00e+00	0	56	0	923795456	48	4359
2026-01-02 10:17:53.55	335.88	37.43	-38.0	-39.7	18.1	0.00e+00	0	57	0	925892608	48	4191
2026-01-02 10:17:54.56	335.95	37.19	-38.6	-40.6	17.3	0.00e+00	0	57	0	926941184	47	4880
2026-01-02 10:17:55.57	336.01	36.95	-39.5	-41.7	16.3	0.00e+00	0	57	0	929038336	49	4973
2026-01-02 10:17:56.58	336.08	36.71	-40.3	-42.9	15.1	0.00e+00	0	56	0	931135488	51	5079
2026-01-02 10:17:57.59	336.15	36.48	-41.4	-44.9	13.0	5.30e-06	0	57	0	933232640	53	5658
2026-01-02 10:17:58.60	336.21	36.24	-41.5	-45.1	12.8	8.01e-05	0	57	0	935329792	54	5478
2026-01-02 10:17:59.61	336.27	36.01	-41.9	-45.8	12.2	1.03e-04	0	57	0	936378368	54	5941
2026-01-02 10:18:00.62	336.34	35.78	-41.4	-44.9	13.0	1.93e-04	0	57	0	938475520	54	5399
2026-01-02 10:18:01.62	336.40	35.55	-40.8	-43.8	14.1	1.83e-05	0	57	0	940572672	53	5007
2026-01-02 10:18:02.63	336.46	35.32	-40.0	-42.6	15.4	0.00e+00	0	57	0	942669824	51	4879
2026-01-02 10:18:03.64	336.52	35.09	-39.6	-41.9	16.1	0.00e+00	0	57	0	944766976	51	4503
2026-01-02 10:18:04.65	336.58	34.87	-39.0	-41.1	16.8	0.00e+00	0	57	0	945815552	50	4373
2026-01-02 10:18:05.66	336.64	34.64	-38.6	-40.5	17.4	0.00e+00	0	57	0	947912704	49	4301
2026-01-02 10:18:06.67	336.69	34.42	-39.0	-41.1	16.8	0.00e+00	0	56	0	950009856	48	4912
2026-01-02 10:18:07.68	336.75	34.20	-39.3	-41.4	16.5	0.00e+00	0	57	0	952107008	49	4785
2026-01-02 10:18:08.69	336.81	33.98	-39.9	-42.3	15.8	0.00e+00	0	57	0	954204160	50	5009
2026-01-02 10:18:09.70	336.86	33.77	-40.6	-43.4	14.6	0.00e+00	0	57	0	955252736	51	5364
2026-01-02 10:18:10.71	336.92	33.55	-41.0	-44.0	13.9	2.20e-06	0	57	0	957349888	52	5439
2026-01-02 10:18:11.72	336.97	33.34	-41.3	-44.6	13.3	1.37e-05	0	57	0	959447040	53	5472
2026-01-02 10:18:12.73	337.03	33.12	-41.4	-44.8	12.9	4.34e-05	0	57	0	961544192	53	5606
2026-01-02 10:18:13.74	337.08	32.91	-41.6	-45.1	12.7	1.06e-04	0	57	0	963641344	54	5494
2026-01-02 10:18:14.74	337.13	32.70	-41.2	-44.5	13.4	1.67e-05	0	57	0	964689920	54	5119
2026-01-02 10:18:15.75	337.18	32.50	-41.6	-45.1	12.8	1.52e-05	0	57	0	966787072	54	5525
2026-01-02 10:18:16.76	337.24	32.29	-40.9	-44.0	13.8	3.50e-05	0	57	0	968884224	53	5142
2026-01-02 10:18:17.78	337.29	32.08	-40.8	-43.8	14.1	6.80e-06	0	57	0	970981376	53	4998
2026-01-02 10:18:18.79	337.34	31.88	-41.0	-44.1	13.8	3.00e-06	0	57	0	973078528	53	5201
2026-01-02 10:18:19.79	337.39	31.68	-40.6	-43.5	14.3	1.50e-06	0	57	0	975175680	53	4851
2026-01-02 10:18:20.80	337.44	31.47	-40.4	-43.2	14.7	7.00e-07	0	57	0	976224256	52	4970
2026-01-02 10:18:21.81	337.48	31.27	-40.6	-43.5	14.4	7.00e-07	0	57	0	978321408	52	5114
2026-01-02 10:18:22.82	337.53	31.08	-40.6	-43.5	14.4	0.00e+00	0	57	0	980418560	52	5127
2026-01-02 10:18:23.83	337.58	30.88	-40.7	-43.6	14.2	3.00e-06	0	57	0	982515712	52	5208
2026-01-02 10:18:24.85	337.63	30.68	-40.8	-43.8	14.0	7.00e-07	0	57	0	984612864	52	5329
2026-01-02 10:18:25.86	337.67	30.48	-40.5	-43.3	14.5	7.00e-07	0	57	0	985661440	52	5034
2026-01-02 10:18:26.86	337.72	30.29	-40.4	-43.2	14.7	1.50e-06	0	57	0	987758592	52	4939
2026-01-02 10:18:27.87	337.76	30.10	-40.3	-42.9	14.9	0.00e+00	0	57	0	989855744	52	4783
2026-01-02 10:18:28.88	337.81	29.91	-40.1	-42.6	15.4	0.00e+00	0	57	0	991952896	51	4888
2026-01-02 10:18:29.90	337.85	29.72	-39.6	-41.9	16.0	0.00e+00	0	57	0	994050048	50	4801
2026-01-02 10:18:30.90	337.90	29.53	-39.5	-41.7	16.2	0.00e+00	0	57	0	995098624	50	4675
2026-01-02 10:18:31.91	337.94	29.34	-39.0	-41.1	16.7	0.00e+00	0	57	0	997195776	50	4379
2026-01-02 10:18:32.92	337.98	29.16	-39.2	-41.4	16.6	0.00e+00	0	57	0	999292928	50	4507
2026-01-02 10:18:33.94	338.03	28.97	-39.4	-41.6	16.3	0.00e+00	0	57	0	1001390080	50	4651
2026-01-02 10:18:34.94	338.07	28.79	-39.5	-41.8	16.1	0.00e+00	0	57	0	1003487232	50	4738
2026-01-02 10:18:35.95	338.11	28.61	-39.8	-42.2	15.7	0.00e+00	0	57	0	1004535808	50	4970
2026-01-02 10:18:36.96	338.15	28.43	-40.2	-42.8	15.2	0.00e+00	0	57	0	1006632960	50	5298
2026-01-02 10:18:37.97	338.19	28.25	-40.2	-42.8	15.1	0.00e+00	0	57	0	1008730112	51	4997
2026-01-02 10:18:38.98	338.23	28.07	-40.4	-43.1	14.8	0.00e+00	0	57	0	1010827264	51	5199
2026-01-02 10:18:39.99	338.27	27.89	-40.3	-43.0	14.9	0.00e+00	0	57	0	1012924416	51	5132
2026-01-02 10:18:41.00	338.31	27.71	-40.0	-42.5	15.4	0.00e+00	0	57	0	1013972992	51	4863
2026-01-02 10:18:42.01	338.35	27.54	-40.0	-42.6	15.3	0.00e+00	0	57	0	1016070144	51	4879
2026-01-02 10:18:43.02	338.39	27.36	-39.9	-42.5	15.4	0.00e+00	0	57	0	1018167296	51	4821
2026-01-02 10:18:44.03	338.43	27.19	-39.6	-42.0	15.9	0.00e+00	0	57	0	1020264448	51	4590
2026-01-02 10:18:45.03	338.47	27.02	-39.5	-41.8	16.1	0.00e+00	0	57	0	1022361600	50	4722
2026-01-02 10:18:46.04	338.50	26.85	-39.2	-41.4	16.4	0.00e+00	0	57	0	1023410176	50	4544
2026-01-02 10:18:47.05	338.54	26.68	-39.0	-41.2	16.7	0.00e+00	0	57	0	1025507328	49	4652
2026-01-02 10:18:48.06	338.58	26.51	-38.5	-40.5	17.3	0.00e+00	0	57	0	1027604480	49	4304
2026-01-02 10:18:49.07	338.61	26.34	-38.3	-40.2	17.6	0.00e+00	0	57	0	1029701632	48	4394
2026-01-02 10:18:50.08	338.65	26.17	-37.9	-39.7	18.0	0.00e+00	0	57	0	1031798784	47	4420
2026-01-02 10:18:51.09	338.69	26.01	-37.7	-39.4	18.2	0.00e+00	0	57	0	1032847360	47	4280
2026-01-02 10:18:52.10	338.72	25.84	-37.4	-39.1	18.6	0.00e+00	0	57	0	1034944512	46	4344
2026-01-02 10:18:53.11	338.76	25.68	-37.2	-38.8	18.8	0.00e+00	0	57	0	1037041664	46	4219
2026-01-02 10:18:54.12	338.79	25.52	-37.2	-38.9	18.7	0.00e+00	0	57	0	1039138816	46	4266
2026-01-02 10:18:55.13	338.83	25.35	-37.1	-38.7	18.9	0.00e+00	0	57	0	1041235968	46	4177
2026-01-02 10:18:56.14	338.86	25.19	-37.0	-38.6	19.0	0.00e+00	0	57	0	1043333120	45	4357
2026-01-02 10:18:57.15	338.90	25.03	-37.1	-38.7	18.9	0.00e+00	0	57	0	1044381696	45	4417
2026-01-02 10:18:58.16	338.93	24.87	-36.7	-38.3	19.3	0.00e+00	0	57	0	1046478848	45	4205
2026-01-02 10:18:59.17	338.96	24.72	-36.8	-38.4	19.1	0.00e+00	0	57	0	1048576000	45	4276
2026-01-02 10:19:00.18	339.00	24.56	-36.8	-38.4	19.1	0.00e+00	0	57	0	1050673152	45	4275
2026-01-02 10:19:01.19	339.03	24.40	-37.0	-38.6	19.0	0.00e+00	0	57	0	1052770304	45	4361
2026-01-02 10:19:02.20	339.06	24.25	-37.0	-38.6	19.0	0.00e+00	0	57	0	1053818880	45	4355
2026-01-02 10:19:03.20	339.09	24.09	-37.0	-38.7	18.9	0.00e+00	0	57	0	1055916032	45	4407
2026-01-02 10:19:04.21	339.13	23.94	-37.0	-38.6	18.9	0.00e+00	0	57	0	1058013184	45	4367
2026-01-02 10:19:05.22	339.16	23.79	-37.2	-38.8	18.7	0.00e+00	0	57	0	1060110336	45	4488
2026-01-02 10:19:06.23	339.19	23.64	-37.3	-39.0	18.6	0.00e+00	0	57	0	1062207488	45	4581
2026-01-02 10:19:07.24	339.22	23.49	-37.4	-39.1	18.4	0.00e+00	0	57	0	1063256064	45	4620
2026-01-02 10:19:08.25	339.25	23.34	-37.4	-39.2	18.4	0.00e+00	0	57	0	1065353216	45	4665
2026-01-02 10:19:09.26	339.28	23.19	-37.6	-39.4	18.1	0.00e+00	0	57	0	1067450368	45	4796
2026-01-02 10:19:10.27	339.31	23.04	-37.9	-39.7	17.9	0.00e+00	0	57	0	1069547520	46	4683
2026-01-02 10:19:11.28	339.34	22.89	-38.0	-39.9	17.6	0.00e+00	0	57	0	1071644672	46	4781
2026-01-02 10:19:12.29	339.37	22.75	-38.0	-39.8	17.7	0.00e+00	0	57	0	1072693248	46	4756
2026-01-02 10:19:13.30	339.40	22.60	-38.2	-40.2	17.4	0.00e+00	0	57	0	1074790400	46	4949
2026-01-02 10:19:14.31	339.43	22.45	-38.3	-40.3	17.3	0.00e+00	0	57	0	1076887552	47	4738
2026-01-02 10:19:15.32	339.46	22.31	-38.3	-40.3	17.2	0.00e+00	0	57	0	1078984704	47	4745
2026-01-02 10:19:16.33	339.49	22.17	-38.4	-40.4	17.1	0.00e+00	0	57	0	1081081856	47	4781
2026-01-02 10:19:17.34	339.52	22.03	-38.4	-40.4	17.1	0.00e+00	0	57	0	1082130432	47	4794
2026-01-02 10:19:18.35	339.55	21.88	-38.5	-40.6	16.9	0.00e+00	0	57	0	1084227584	47	4882
2026-01-02 10:19:19.35	339.57	21.74	-38.4	-40.5	16.9	0.00e+00	0	57	0	1086324736	47	4818
2026-01-02 10:19:20.36	339.60	21.60	-38.1	-40.1	17.3	0.00e+00	0	57	0	1088421888	47	4618
2026-01-02 10:19:21.37	339.63	21.46	-38.1	-40.1	17.2	0.00e+00	0	57	0	1090519040	47	4639
2026-01-02 10:19:22.38	339.66	21.33	-37.8	-39.8	17.5	0.00e+00	0	57	0	1091567616	47	4446
2026-01-02 10:19:23.39	339.69	21.19	-37.6	-39.5	17.6	0.00e+00	0	57	0	1093664768	47	4313
2026-01-02 10:19:24.40	339.71	21.05	-37.7	-39.6	17.4	0.00e+00	0	57	0	1095761920	47	4373
2026-01-02 10:19:25.41	339.74	20.91	-38.0	-40.1	16.7	0.00e+00	0	57	0	1097859072	47	4641
2026-01-02 10:19:26.42	339.77	20.78	-38.2	-40.6	16.0	0.00e+00	0	57	0	1099956224	47	4918
2026-01-02 10:19:27.43	339.79	20.64	-38.7	-41.5	14.9	0.00e+00	0	57	0	1101004800	47	5431
2026-01-02 10:19:28.44	339.82	20.51	-39.2	-42.6	13.4	3.00e-06	0	57	0	1103101952	49	5480
2026-01-02 10:19:29.44	339.85	20.38	-39.6	-43.6	12.1	6.56e-05	0	57	0	1105199104	49	6149
2026-01-02 10:19:30.45	339.87	20.25	-39.9	-44.7	10.5	2.48e-03	0	57	0	1107296256	50	6604
2026-01-02 10:19:31.47	339.90	20.11	-40.1	-45.9	9.0	1.36e-02	0	57	0	1109393408	50	7558
2026-01-02 10:19:32.48	339.92	19.98	-40.1	-46.7	7.9	4.65e-02	0	57	0	1111490560	50	8292
2026-01-02 10:19:33.49	339.95	19.85	-40.1	-47.4	7.0	1.04e-01	0	57	0	1112539136	50	8997
2026-01-02 10:19:34.50	339.98	19.72	-40.2	-48.4	6.0	2.72e-01	0	57	0	1114636288	50	10115
2026-01-02 10:19:35.51	340.00	19.59	-40.2	-49.2	5.4	4.31e-01	0	57	0	1116733440	50	11086
2026-01-02 10:19:36.52	340.03	19.46	-40.2	-50.2	4.7	6.16e-01	0	57	0	1118830592	51	11692
2026-01-02 10:19:37.53	340.05	19.33	-40.3	-51.0	4.4	1.08e+00	0	57	0	1120927744	51	12822
2026-01-02 10:19:38.54	340.08	19.21	-40.3	-52.0	4.1	1.39e+00	0	57	0	1120927744	51	14530
2026-01-02 10:19:39.55	340.10	19.08	-40.3	-53.2	3.8	1.48e+00	0	57	104	1120927744	51	16584
2026-01-02 10:19:40.56	340.12	18.95	-40.3	-53.9	3.8	1.49e+00	0	57	104	1120927744	51	17964
2026-01-02 10:19:41.57	340.15	18.83	-40.3	-54.1	3.8	1.49e+00	0	57	104	1120927744	51	18453
2026-01-02 10:19:42.58	340.17	18.70	-40.3	-54.1	3.8	1.49e+00	0	57	104	1120927744	51	18322
2026-01-02 10:19:43.59	340.20	18.58	-40.2	-53.8	3.8	1.49e+00	0	57	104	1120927744	51	17719
2026-01-02 10:19:44.60	340.22	18.46	-40.2	-53.3	3.8	1.49e+00	0	57	104	1120927744	51	16883
2026-01-02 10:19:45.61	340.24	18.33	-40.3	-53.1	3.8	1.49e+00	0	57	104	1120927744	51	16418
2026-01-02 10:19:46.62	340.27	18.21	-40.3	-53.3	3.8	1.49e+00	0	57	104	1120927744	51	16715
2026-01-02 10:19:47.63	340.29	18.09	-40.2	-53.5	3.8	1.49e+00	0	57	104	1120927744	51	17237
2026-01-02 10:19:48.64	340.31	17.97	-40.2	-53.7	3.8	1.49e+00	0	57	104	1120927744	51	17490
2026-01-02 10:19:49.65	340.34	17.85	-40.3	-53.7	3.8	1.49e+00	0	57	104	1120927744	51	17649
2026-01-02 10:19:50.66	340.36	17.73	-40.2	-53.7	3.8	1.49e+00	0	57	104	1120927744	51	17520
2026-01-02 10:19:51.67	340.38	17.61	-40.2	-53.8	3.8	1.49e+00	0	57	104	1120927744	51	17743
2026-01-02 10:19:52.68	340.40	17.49	-40.2	-54.0	3.8	1.49e+00	0	57	104	1120927744	51	18111
2026-01-02 10:19:53.69	340.43	17.37	-40.2	-53.9	3.8	1.49e+00	0	57	104	1120927744	51	17981
2026-01-02 10:19:54.70	340.45	17.25	-40.2	-53.9	3.8	1.49e+00	0	57	104	1120927744	51	18045
2026-01-02 10:19:55.71	340.47	17.14	-40.1	-54.0	3.8	1.49e+00	0	57	104	1120927744	51	18122
2026-01-02 10:19:56.72	340.49	17.02	-40.1	-54.0	3.8	1.49e+00	0	57	104	1120927744	51	18189
2026-01-02 10:19:57.73	340.51	16.91	-40.0	-54.1	3.8	1.49e+00	0	57	104	1120927744	51	18409
2026-01-02 10:19:58.74	340.54	16.79	-40.0	-54.1	3.8	1.49e+00	0	57	104	1120927744	51	18365
2026-01-02 10:19:59.75	340.56	16.68	-40.1	-54.2	3.8	1.49e+00	0	57	104	1120927744	51	18729
2026-01-02 10:20:00.76	340.58	16.56	-39.9	-54.6	3.8	1.49e+00	0	57	104	1120927744	51	19450
2026-01-02 10:20:01.77	340.60	16.45	-40.0	-54.6	3.8	1.49e+00	0	57	104	1120927744	51	19559
2026-01-02 10:20:02.78	340.62	16.33	-39.9	-54.5	3.8	1.49e+00	0	57	104	1120927744	51	19244
2026-01-02 10:20:03.79	340.64	16.22	-39.9	-54.6	3.8	1.49e+00	0	57	104	1120927744	51	19518
2026-01-02 10:20:04.80	340.66	16.11	-39.9	-54.5	3.8	1.49e+00	0	57	104	1120927744	51	19275
