passes_logs/2026/01/02/R2.0S_Moscow/R2.0S_Moscow__20260102_025942_FENGYUN_3D_rec.log

#Pass ID: 20260102_025942_FENGYUN 3D
#Satellite: FENGYUN 3D
#Configuration: FENGYUN 3D
#almurnet v.1.7.20251203
#Start time: 2026-01-02 02:59:44

#Version: 2.2.20231116
#Station: R2.0S_Moscow
#Location: 37.707566 lon 55.798166 lat
#TLE: 1 43010U 17072A   26001.33100487  .00000602  00000+0  30664-3 0  9999
#TLE: 2 43010  98.9910 332.9374 0001848 133.1047 227.0283 14.19692078421319

#Time	Az	El	Level	Level2	SNR	BER	BlckErr	Temp	State	Recorded	gain1	gain2
2026-01-02 02:59:44.65	11.83	2.11	-39.3	-51.0	3.8	8.46e-01	0	48	0	0	50	13614
2026-01-02 02:59:45.65	11.78	2.17	-39.3	-51.0	3.8	8.46e-01	0	48	104	0	50	13587
2026-01-02 02:59:46.66	11.73	2.23	-39.3	-51.0	3.8	8.47e-01	0	48	104	0	50	13646
2026-01-02 02:59:47.67	11.68	2.29	-39.3	-51.0	3.8	8.47e-01	0	48	104	0	50	13585
2026-01-02 02:59:48.68	11.63	2.35	-39.3	-51.0	3.8	8.46e-01	0	48	104	0	50	13607
2026-01-02 02:59:49.69	11.58	2.41	-39.3	-51.0	3.8	8.47e-01	0	48	104	0	50	13594
2026-01-02 02:59:50.71	11.53	2.47	-39.3	-51.0	3.8	8.46e-01	0	48	104	0	50	13608
2026-01-02 02:59:51.72	11.47	2.54	-39.3	-51.0	3.8	8.46e-01	0	48	104	0	50	13612
2026-01-02 02:59:52.73	11.42	2.60	-39.3	-51.0	3.8	8.46e-01	0	48	104	0	50	13628
2026-01-02 02:59:53.74	11.37	2.66	-39.3	-51.0	3.8	8.46e-01	0	49	104	0	50	13621
2026-01-02 02:59:54.75	11.32	2.72	-39.3	-51.0	3.8	8.46e-01	0	49	104	0	50	13635
2026-01-02 02:59:55.76	11.27	2.78	-39.3	-51.0	3.8	8.45e-01	0	49	104	0	50	13575
2026-01-02 02:59:56.77	11.21	2.84	-39.3	-51.0	3.8	8.46e-01	0	49	104	0	50	13614
2026-01-02 02:59:57.78	11.16	2.90	-39.3	-51.0	3.8	8.46e-01	0	49	104	0	50	13578
2026-01-02 02:59:58.79	11.11	2.97	-39.3	-51.0	3.8	8.46e-01	0	49	104	0	50	13619
2026-01-02 02:59:59.80	11.06	3.03	-39.3	-51.0	3.8	8.45e-01	0	49	104	0	50	13581
2026-01-02 03:00:00.82	11.00	3.09	-39.3	-51.0	3.8	8.45e-01	0	49	104	0	50	13637
2026-01-02 03:00:01.83	10.95	3.15	-39.3	-51.0	3.8	8.46e-01	0	49	104	0	50	13636
2026-01-02 03:00:02.84	10.89	3.21	-39.3	-51.0	3.8	8.46e-01	0	49	104	0	50	13613
2026-01-02 03:00:03.85	10.84	3.28	-39.3	-51.0	3.8	8.46e-01	0	49	104	0	50	13626
2026-01-02 03:00:04.86	10.79	3.34	-39.3	-51.0	3.8	8.46e-01	0	49	104	0	50	13608
2026-01-02 03:00:05.87	10.73	3.40	-39.3	-51.0	3.8	8.47e-01	0	49	104	0	50	13598
2026-01-02 03:00:06.88	10.68	3.47	-39.3	-51.0	3.8	8.46e-01	0	50	104	0	50	13618
2026-01-02 03:00:07.89	10.62	3.53	-39.3	-51.0	3.8	8.46e-01	0	50	104	0	50	13619
2026-01-02 03:00:08.90	10.57	3.59	-39.3	-51.0	3.8	8.47e-01	0	50	104	0	50	13624
2026-01-02 03:00:09.92	10.51	3.65	-39.3	-51.0	3.8	8.46e-01	0	50	104	0	50	13601
2026-01-02 03:00:10.93	10.45	3.72	-39.3	-51.0	3.8	8.46e-01	0	50	104	0	50	13584
2026-01-02 03:00:11.94	10.40	3.78	-39.3	-51.0	3.8	8.47e-01	0	50	104	0	50	13593
2026-01-02 03:00:12.95	10.34	3.84	-39.3	-50.9	3.8	8.47e-01	0	50	104	0	50	13565
2026-01-02 03:00:13.96	10.28	3.91	-39.3	-51.0	3.8	8.46e-01	0	50	104	0	50	13581
2026-01-02 03:00:14.97	10.23	3.97	-39.3	-51.0	3.8	8.47e-01	0	50	104	0	50	13609
2026-01-02 03:00:15.98	10.17	4.04	-39.3	-51.0	3.8	8.47e-01	0	50	104	0	50	13583
2026-01-02 03:00:17.00	10.11	4.10	-39.3	-51.0	3.8	8.47e-01	0	50	104	0	50	13628
2026-01-02 03:00:18.01	10.05	4.16	-39.3	-51.0	3.8	8.46e-01	0	50	104	0	50	13621
2026-01-02 03:00:19.02	10.00	4.23	-39.3	-51.0	3.8	8.46e-01	0	50	104	0	50	13595
2026-01-02 03:00:20.03	9.94	4.29	-39.3	-51.0	3.8	8.46e-01	0	50	104	0	50	13628
2026-01-02 03:00:21.04	9.88	4.36	-39.3	-51.0	3.8	8.46e-01	0	50	104	0	50	13585
2026-01-02 03:00:22.05	9.82	4.42	-39.3	-51.0	3.8	8.46e-01	0	51	104	0	50	13618
2026-01-02 03:00:23.06	9.76	4.49	-39.3	-51.0	3.8	8.46e-01	0	51	104	0	50	13582
2026-01-02 03:00:24.07	9.70	4.55	-39.3	-50.9	3.8	8.46e-01	0	50	104	0	50	13559
2026-01-02 03:00:25.08	9.64	4.62	-39.3	-50.9	3.8	8.45e-01	0	51	104	0	50	13561
2026-01-02 03:00:26.09	9.58	4.68	-39.3	-51.0	3.8	8.45e-01	0	51	104	0	50	13610
2026-01-02 03:00:27.11	9.52	4.75	-39.3	-51.0	3.8	8.45e-01	0	51	104	0	50	13583
2026-01-02 03:00:28.12	9.46	4.81	-39.3	-50.9	3.8	8.45e-01	0	51	104	0	50	13567
2026-01-02 03:00:29.13	9.40	4.88	-39.3	-51.0	3.8	8.45e-01	0	51	104	0	50	13615
2026-01-02 03:00:30.14	9.34	4.94	-39.3	-51.0	3.8	8.46e-01	0	51	104	0	50	13587
2026-01-02 03:00:31.15	9.28	5.01	-39.3	-51.0	3.8	8.45e-01	0	51	104	0	50	13614
2026-01-02 03:00:32.16	9.21	5.07	-39.3	-51.0	3.8	8.46e-01	0	51	104	0	50	13589
2026-01-02 03:00:33.17	9.15	5.14	-39.3	-51.0	3.8	8.46e-01	0	51	104	0	50	13616
2026-01-02 03:00:34.18	9.09	5.21	-39.3	-51.0	3.8	8.47e-01	0	51	104	0	50	13608
2026-01-02 03:00:35.19	9.03	5.27	-39.3	-51.0	3.8	8.46e-01	0	51	104	0	50	13605
2026-01-02 03:00:36.20	8.97	5.34	-39.3	-51.0	3.8	8.45e-01	0	51	104	0	50	13622
2026-01-02 03:00:37.21	8.90	5.41	-39.3	-51.0	3.8	8.47e-01	0	51	104	0	50	13652
2026-01-02 03:00:38.22	8.84	5.47	-39.3	-51.0	3.8	8.45e-01	0	51	104	0	50	13596
2026-01-02 03:00:39.24	8.77	5.54	-39.3	-51.0	3.8	8.46e-01	0	51	104	0	50	13604
2026-01-02 03:00:40.25	8.71	5.61	-39.3	-51.0	3.8	8.46e-01	0	52	104	0	50	13614
2026-01-02 03:00:41.26	8.65	5.67	-39.3	-51.0	3.8	8.45e-01	0	52	104	0	50	13629
2026-01-02 03:00:42.27	8.58	5.74	-39.3	-51.0	3.8	8.46e-01	0	52	104	0	50	13575
2026-01-02 03:00:43.28	8.52	5.81	-39.3	-51.0	3.8	8.47e-01	0	52	104	0	50	13624
2026-01-02 03:00:44.29	8.45	5.87	-39.3	-51.0	3.8	8.46e-01	0	52	104	0	50	13624
2026-01-02 03:00:45.30	8.38	5.94	-39.3	-51.0	3.8	8.46e-01	0	52	104	0	50	13615
2026-01-02 03:00:46.31	8.32	6.01	-39.3	-50.9	3.8	8.47e-01	0	52	104	0	50	13568
2026-01-02 03:00:47.32	8.25	6.08	-39.3	-51.0	3.8	8.47e-01	0	52	104	0	50	13607
2026-01-02 03:00:48.33	8.18	6.15	-39.3	-51.0	3.8	8.46e-01	0	52	104	0	50	13616
2026-01-02 03:00:49.34	8.12	6.21	-39.3	-51.0	3.8	8.46e-01	0	52	104	0	50	13603
2026-01-02 03:00:50.36	8.05	6.28	-39.3	-51.0	3.8	8.46e-01	0	52	104	0	50	13607
2026-01-02 03:00:51.37	7.98	6.35	-39.3	-50.9	3.8	8.46e-01	0	52	104	0	50	13552
2026-01-02 03:00:52.38	7.91	6.42	-39.3	-51.0	3.8	8.46e-01	0	52	104	0	50	13588
2026-01-02 03:00:53.39	7.85	6.49	-39.3	-51.0	3.8	8.45e-01	0	52	104	0	50	13623
2026-01-02 03:00:54.40	7.78	6.56	-39.3	-50.9	3.8	8.47e-01	0	52	104	0	50	13564
2026-01-02 03:00:55.41	7.71	6.63	-39.3	-51.0	3.8	8.46e-01	0	52	104	0	50	13599
2026-01-02 03:00:56.42	7.64	6.70	-39.3	-51.0	3.8	8.46e-01	0	52	104	0	50	13580
2026-01-02 03:00:57.43	7.57	6.76	-39.3	-50.9	3.8	8.46e-01	0	52	104	0	50	13562
2026-01-02 03:00:58.44	7.50	6.83	-39.3	-50.9	3.8	8.47e-01	0	52	104	0	50	13567
2026-01-02 03:00:59.46	7.43	6.90	-39.3	-50.9	3.8	8.46e-01	0	52	104	0	50	13547
2026-01-02 03:01:00.47	7.36	6.97	-39.3	-51.0	3.8	8.46e-01	0	52	104	0	50	13595
2026-01-02 03:01:01.48	7.28	7.04	-39.3	-50.9	3.8	8.45e-01	0	53	104	0	50	13534
2026-01-02 03:01:02.49	7.21	7.11	-39.3	-50.9	3.8	8.46e-01	0	53	104	0	50	13540
2026-01-02 03:01:03.50	7.14	7.18	-39.3	-51.0	3.8	8.45e-01	0	53	104	0	50	13604
2026-01-02 03:01:04.51	7.07	7.25	-39.3	-51.0	3.8	8.45e-01	0	53	104	0	50	13592
2026-01-02 03:01:05.52	7.00	7.32	-39.3	-50.9	3.8	8.45e-01	0	53	104	0	50	13559
2026-01-02 03:01:06.53	6.92	7.39	-39.3	-50.9	3.8	8.46e-01	0	53	104	0	50	13560
2026-01-02 03:01:07.54	6.85	7.47	-39.3	-51.0	3.8	8.47e-01	0	53	104	0	50	13573
2026-01-02 03:01:08.55	6.78	7.54	-39.3	-50.9	3.8	8.47e-01	0	53	104	0	50	13558
2026-01-02 03:01:09.57	6.70	7.61	-39.3	-51.0	3.8	8.46e-01	0	53	104	0	50	13573
2026-01-02 03:01:10.58	6.63	7.68	-39.3	-50.9	3.8	8.47e-01	0	53	104	0	50	13547
2026-01-02 03:01:11.59	6.55	7.75	-39.3	-50.9	3.8	8.46e-01	0	53	104	0	50	13563
2026-01-02 03:01:12.60	6.48	7.82	-39.3	-51.0	3.8	8.47e-01	0	53	104	0	50	13573
2026-01-02 03:01:13.61	6.40	7.89	-39.3	-51.0	3.8	8.46e-01	0	53	104	0	50	13605
2026-01-02 03:01:14.62	6.32	7.97	-39.3	-51.0	3.8	8.46e-01	0	53	104	0	50	13572
2026-01-02 03:01:15.63	6.25	8.04	-39.3	-50.9	3.8	8.46e-01	0	53	104	0	50	13549
2026-01-02 03:01:16.64	6.17	8.11	-39.4	-51.1	3.8	8.46e-01	0	53	104	0	50	13763
2026-01-02 03:01:17.65	6.09	8.18	-39.4	-51.0	3.8	8.46e-01	0	53	104	0	50	13726
2026-01-02 03:01:18.66	6.01	8.25	-39.4	-51.0	3.8	8.47e-01	0	53	104	0	50	13698
2026-01-02 03:01:19.67	5.94	8.33	-39.4	-51.1	3.8	8.46e-01	0	53	104	0	50	13791
2026-01-02 03:01:20.68	5.86	8.40	-39.4	-51.1	3.8	8.46e-01	0	53	104	0	50	13735
2026-01-02 03:01:21.70	5.78	8.47	-39.4	-51.1	3.8	8.46e-01	0	53	104	0	50	13796
2026-01-02 03:01:22.71	5.70	8.55	-39.4	-51.1	3.8	8.46e-01	0	53	104	0	50	13810
2026-01-02 03:01:23.72	5.62	8.62	-39.4	-51.1	3.8	8.46e-01	0	53	104	0	50	13788
2026-01-02 03:01:24.73	5.54	8.69	-39.4	-51.0	3.8	8.47e-01	0	53	104	0	50	13717
2026-01-02 03:01:25.74	5.46	8.77	-39.4	-51.1	3.8	8.45e-01	0	53	104	0	50	13766
2026-01-02 03:01:26.75	5.38	8.84	-39.4	-51.1	3.8	8.46e-01	0	54	104	0	50	13740
2026-01-02 03:01:27.76	5.30	8.91	-39.4	-51.1	3.8	8.46e-01	0	54	104	0	50	13745
2026-01-02 03:01:28.77	5.21	8.99	-39.4	-51.1	3.8	8.46e-01	0	54	104	0	50	13773
2026-01-02 03:01:29.78	5.13	9.06	-39.4	-51.0	3.8	8.47e-01	0	54	104	0	50	13705
2026-01-02 03:01:30.79	5.05	9.14	-39.4	-51.1	3.8	8.47e-01	0	53	104	0	50	13794
2026-01-02 03:01:31.80	4.97	9.21	-39.5	-51.2	3.8	8.46e-01	0	54	104	0	50	13923
2026-01-02 03:01:32.81	4.88	9.29	-39.3	-51.0	3.8	8.45e-01	0	54	104	0	50	13699
2026-01-02 03:01:33.82	4.80	9.36	-39.5	-51.2	3.8	8.46e-01	0	54	104	0	50	13977
2026-01-02 03:01:34.83	4.71	9.43	-39.4	-51.0	3.8	8.46e-01	0	54	104	0	50	13704
2026-01-02 03:01:35.84	4.63	9.51	-39.5	-51.2	3.8	8.44e-01	0	54	104	0	50	13976
2026-01-02 03:01:36.85	4.54	9.59	-39.5	-51.2	3.8	8.45e-01	0	54	104	0	50	13942
2026-01-02 03:01:37.86	4.46	9.66	-39.6	-51.2	3.8	8.45e-01	0	54	104	0	50	14032
2026-01-02 03:01:38.87	4.37	9.74	-39.5	-51.2	3.8	8.44e-01	0	54	104	0	50	13887
2026-01-02 03:01:39.88	4.28	9.81	-39.6	-51.3	3.8	8.46e-01	0	54	104	0	50	14120
2026-01-02 03:01:40.89	4.20	9.89	-39.4	-51.1	3.8	8.46e-01	0	54	104	0	50	13788
2026-01-02 03:01:41.90	4.11	9.96	-39.6	-51.3	3.8	8.46e-01	0	54	104	0	50	14091
2026-01-02 03:01:42.91	4.02	10.04	-39.5	-51.1	3.8	8.46e-01	0	54	104	0	50	13808
2026-01-02 03:01:43.92	3.93	10.12	-39.6	-51.3	3.8	8.47e-01	0	54	104	0	50	14107
2026-01-02 03:01:44.93	3.84	10.19	-39.5	-51.1	3.8	8.46e-01	0	54	104	0	50	13806
2026-01-02 03:01:45.95	3.75	10.27	-39.6	-51.3	3.8	8.47e-01	0	54	104	0	50	14103
2026-01-02 03:01:46.96	3.66	10.35	-39.4	-51.1	3.8	8.45e-01	0	54	104	0	50	13868
2026-01-02 03:01:47.97	3.57	10.43	-39.6	-51.2	3.8	8.45e-01	0	54	104	0	50	14027
2026-01-02 03:01:48.98	3.48	10.50	-39.6	-51.2	3.8	8.47e-01	0	54	104	0	50	14024
2026-01-02 03:01:49.99	3.39	10.58	-39.6	-51.3	3.8	8.46e-01	0	54	104	0	50	14051
2026-01-02 03:01:51.00	3.29	10.66	-39.6	-51.2	3.8	8.46e-01	0	54	104	0	50	14041
2026-01-02 03:01:52.01	3.20	10.74	-39.7	-51.4	3.8	8.46e-01	0	54	104	0	50	14311
2026-01-02 03:01:53.02	3.11	10.81	-39.5	-51.1	3.8	8.47e-01	0	54	104	0	50	13871
2026-01-02 03:01:54.03	3.01	10.89	-39.7	-51.5	3.8	8.46e-01	0	54	104	0	50	14379
2026-01-02 03:01:55.04	2.92	10.97	-39.5	-51.1	3.8	8.46e-01	0	54	104	0	50	13861
2026-01-02 03:01:56.05	2.82	11.05	-39.6	-51.3	3.8	8.46e-01	0	55	104	0	50	14094
2026-01-02 03:01:57.06	2.73	11.13	-39.6	-51.2	3.8	8.46e-01	0	54	104	0	50	13953
2026-01-02 03:01:58.07	2.63	11.21	-39.6	-51.3	3.8	8.47e-01	0	54	104	0	50	14150
2026-01-02 03:01:59.08	2.54	11.28	-39.6	-51.2	3.8	8.46e-01	0	55	104	0	50	13986
2026-01-02 03:02:00.09	2.44	11.36	-39.6	-51.5	3.8	8.47e-01	0	54	104	0	50	14441
2026-01-02 03:02:01.10	2.34	11.44	-39.5	-51.1	3.8	8.46e-01	0	54	104	0	50	13811
2026-01-02 03:02:02.11	2.24	11.52	-39.7	-51.5	3.8	8.46e-01	0	54	104	0	50	14376
2026-01-02 03:02:03.12	2.14	11.60	-39.4	-51.1	3.8	8.46e-01	0	54	104	0	50	13819
2026-01-02 03:02:04.13	2.04	11.68	-39.6	-51.4	3.8	8.47e-01	0	54	104	0	50	14214
2026-01-02 03:02:05.14	1.94	11.76	-39.5	-51.2	3.8	8.46e-01	0	55	104	0	50	13964
2026-01-02 03:02:06.15	1.84	11.84	-39.5	-51.3	3.8	8.46e-01	0	55	104	0	50	14207
2026-01-02 03:02:07.16	1.74	11.92	-39.6	-51.2	3.8	8.45e-01	0	54	104	0	50	14017
2026-01-02 03:02:08.17	1.64	12.00	-39.9	-51.4	3.8	8.46e-01	0	55	104	0	50	14221
2026-01-02 03:02:09.18	1.54	12.08	-39.4	-51.2	3.8	8.47e-01	0	55	104	0	50	13906
2026-01-02 03:02:10.19	1.44	12.17	-40.0	-51.2	3.8	8.47e-01	0	55	104	0	50	13956
2026-01-02 03:02:11.21	1.33	12.25	-39.5	-51.2	3.8	8.46e-01	0	55	104	0	50	14017
2026-01-02 03:02:12.22	1.23	12.33	-39.5	-51.1	3.8	8.46e-01	0	54	104	0	50	13879
2026-01-02 03:02:13.22	1.13	12.41	-39.6	-51.3	3.8	8.48e-01	0	55	104	0	50	14106
2026-01-02 03:02:14.23	1.02	12.49	-39.6	-50.8	3.8	8.47e-01	0	55	104	0	50	13291
2026-01-02 03:02:15.24	0.91	12.57	-39.6	-51.3	3.8	8.46e-01	0	55	104	0	50	14103
2026-01-02 03:02:16.25	0.81	12.65	-40.1	-49.4	3.9	8.43e-01	0	55	104	0	51	10733
2026-01-02 03:02:17.26	0.70	12.74	-39.4	-51.2	3.8	8.47e-01	0	55	104	0	50	13928
2026-01-02 03:02:18.27	0.59	12.82	-39.6	-46.3	5.2	7.80e-01	0	55	0	0	50	7938
2026-01-02 03:02:19.28	0.49	12.90	-39.2	-45.0	6.1	4.12e-01	0	55	0	3145728	50	6840
2026-01-02 03:02:20.29	0.38	12.98	-38.9	-44.3	6.7	2.28e-01	0	55	0	8388608	49	6655
2026-01-02 03:02:21.30	0.27	13.07	-38.7	-43.7	7.2	1.74e-01	0	55	0	14680064	49	6261
2026-01-02 03:02:22.31	0.16	13.15	-38.6	-43.2	7.8	1.08e-01	0	55	0	19922944	49	5885
2026-01-02 03:02:23.32	0.05	13.23	-38.3	-42.1	9.2	3.86e-02	0	55	0	25165824	48	5498
2026-01-02 03:02:24.33	359.93	13.32	-37.6	-40.7	10.9	8.06e-03	0	55	0	31457280	47	4943
2026-01-02 03:02:25.34	359.82	13.40	-36.9	-39.4	12.7	2.70e-04	0	55	0	36700160	45	4778
2026-01-02 03:02:26.35	359.71	13.48	-36.4	-38.5	14.1	5.70e-06	0	55	0	42991616	44	4567
2026-01-02 03:02:27.36	359.60	13.57	-35.6	-37.4	15.3	0.00e+00	0	55	0	48234496	43	4290
2026-01-02 03:02:28.37	359.48	13.65	-35.5	-37.1	16.0	0.00e+00	0	55	0	54525952	42	4381
2026-01-02 03:02:29.38	359.37	13.74	-35.3	-36.8	16.6	0.00e+00	0	55	0	59768832	42	4235
2026-01-02 03:02:30.39	359.25	13.82	-34.7	-36.1	17.4	0.00e+00	0	55	0	65011712	41	4138
2026-01-02 03:02:31.40	359.14	13.91	-34.2	-35.5	18.0	0.00e+00	0	55	0	71303168	40	4090
2026-01-02 03:02:32.41	359.02	13.99	-34.0	-35.4	18.3	0.00e+00	0	55	0	76546048	40	4008
2026-01-02 03:02:33.42	358.90	14.08	-34.1	-35.4	18.3	0.00e+00	0	55	0	82837504	40	4040
2026-01-02 03:02:34.43	358.78	14.16	-34.2	-35.5	18.3	0.00e+00	0	55	0	88080384	40	4078
2026-01-02 03:02:35.44	358.67	14.25	-34.4	-35.7	18.1	0.00e+00	0	55	0	93323264	40	4174
2026-01-02 03:02:36.45	358.55	14.33	-34.5	-35.8	18.0	0.00e+00	0	55	0	99614720	40	4227
2026-01-02 03:02:37.46	358.43	14.42	-34.6	-35.9	18.0	0.00e+00	0	55	0	104857600	40	4272
2026-01-02 03:02:38.47	358.30	14.50	-34.5	-35.9	18.1	0.00e+00	0	55	0	111149056	40	4257
2026-01-02 03:02:39.48	358.18	14.59	-34.5	-35.8	18.2	0.00e+00	0	55	0	116391936	40	4221
2026-01-02 03:02:40.49	358.06	14.68	-34.5	-35.8	18.2	0.00e+00	0	55	0	121634816	40	4210
2026-01-02 03:02:41.50	357.94	14.76	-34.4	-35.7	18.3	0.00e+00	0	55	0	127926272	40	4162
2026-01-02 03:02:42.51	357.81	14.85	-34.5	-35.9	18.1	0.00e+00	0	55	0	133169152	40	4260
2026-01-02 03:02:43.52	357.69	14.93	-34.6	-36.0	18.0	0.00e+00	0	55	0	139460608	40	4300
2026-01-02 03:02:44.53	357.56	15.02	-34.5	-35.9	18.0	0.00e+00	0	55	0	144703488	40	4260
2026-01-02 03:02:45.54	357.44	15.11	-34.4	-35.8	18.1	0.00e+00	0	55	0	150994944	40	4208
2026-01-02 03:02:46.55	357.31	15.20	-34.1	-35.4	18.4	0.00e+00	0	55	0	156237824	40	4045
2026-01-02 03:02:47.56	357.18	15.28	-33.9	-35.2	18.7	0.00e+00	0	55	0	162529280	39	4159
2026-01-02 03:02:48.57	357.05	15.37	-33.6	-34.9	18.9	0.00e+00	0	55	0	167772160	39	4032
2026-01-02 03:02:49.58	356.93	15.46	-33.6	-34.9	18.9	0.00e+00	0	55	0	173015040	39	4026
2026-01-02 03:02:50.59	356.80	15.55	-33.7	-35.0	18.6	0.00e+00	0	55	0	179306496	39	4075
2026-01-02 03:02:51.61	356.66	15.64	-34.0	-35.4	18.2	0.00e+00	0	55	0	184549376	39	4245
2026-01-02 03:02:52.61	356.53	15.72	-34.5	-35.9	17.4	0.00e+00	0	55	0	190840832	39	4538
2026-01-02 03:02:53.63	356.40	15.81	-35.1	-36.7	16.3	0.00e+00	0	55	0	196083712	40	4699
2026-01-02 03:02:54.64	356.27	15.90	-35.9	-37.7	15.0	0.00e+00	0	55	0	201326592	42	4689
2026-01-02 03:02:55.65	356.13	15.99	-36.7	-39.0	13.4	4.50e-06	0	55	0	207618048	43	5113
2026-01-02 03:02:56.66	356.00	16.08	-37.7	-40.5	11.5	6.41e-04	0	55	0	212860928	45	5424
2026-01-02 03:02:57.67	355.86	16.17	-38.3	-41.9	9.7	7.61e-03	0	55	0	219152384	47	5693
2026-01-02 03:02:58.68	355.73	16.26	-38.9	-43.4	8.0	4.11e-02	0	55	0	224395264	48	6357
2026-01-02 03:02:59.69	355.59	16.35	-39.3	-44.7	6.5	2.18e-01	0	55	0	229638144	49	7012
2026-01-02 03:03:00.70	355.45	16.44	-39.6	-46.3	5.1	5.77e-01	0	55	0	233832448	49	8439
2026-01-02 03:03:01.71	355.31	16.53	-39.7	-47.7	4.4	8.15e-01	0	56	0	234881024	49	9838
2026-01-02 03:03:02.72	355.17	16.62	-39.8	-48.9	4.1	8.37e-01	0	56	0	234881024	50	10689
2026-01-02 03:03:03.73	355.03	16.71	-39.8	-49.9	3.8	8.46e-01	0	56	104	234881024	50	11958
2026-01-02 03:03:04.74	354.89	16.80	-39.8	-50.6	3.8	8.46e-01	0	56	104	234881024	50	12976
2026-01-02 03:03:05.75	354.75	16.89	-39.9	-51.0	3.8	8.46e-01	0	56	104	234881024	50	13715
2026-01-02 03:03:06.76	354.60	16.98	-39.9	-51.3	3.8	8.46e-01	0	56	104	234881024	50	14111
2026-01-02 03:03:07.77	354.46	17.07	-40.1	-51.4	3.8	8.46e-01	0	56	104	234881024	50	14252
2026-01-02 03:03:08.78	354.31	17.16	-40.0	-51.6	3.8	8.47e-01	0	56	104	234881024	50	14684
2026-01-02 03:03:09.79	354.17	17.25	-39.7	-51.7	3.8	8.45e-01	0	56	104	234881024	50	14765
2026-01-02 03:03:10.80	354.02	17.34	-39.9	-51.6	3.8	8.46e-01	0	56	104	234881024	50	14607
2026-01-02 03:03:11.81	353.87	17.43	-39.6	-51.9	3.8	8.46e-01	0	56	104	234881024	50	15053
2026-01-02 03:03:12.82	353.72	17.52	-39.9	-51.6	3.8	8.47e-01	0	56	104	234881024	50	14613
2026-01-02 03:03:13.83	353.57	17.61	-39.9	-51.7	3.8	8.46e-01	0	56	104	234881024	50	14836
2026-01-02 03:03:14.84	353.42	17.70	-39.6	-51.8	3.8	8.46e-01	0	56	104	234881024	50	14997
2026-01-02 03:03:15.85	353.27	17.80	-39.7	-51.8	3.8	8.45e-01	0	56	104	234881024	50	14893
2026-01-02 03:03:16.86	353.12	17.89	-39.7	-52.0	3.8	8.47e-01	0	56	104	234881024	50	15296
2026-01-02 03:03:17.87	352.97	17.98	-40.0	-52.1	3.8	8.46e-01	0	56	104	234881024	50	15446
2026-01-02 03:03:18.88	352.81	18.07	-39.7	-51.8	3.8	8.47e-01	0	56	104	234881024	50	14993
2026-01-02 03:03:19.89	352.66	18.16	-40.1	-51.9	3.8	8.45e-01	0	56	104	234881024	50	15147
2026-01-02 03:03:20.90	352.50	18.26	-39.6	-52.0	3.8	8.47e-01	0	56	104	234881024	50	15293
2026-01-02 03:03:21.91	352.34	18.35	-39.9	-51.7	3.8	8.47e-01	0	56	104	234881024	50	14845
2026-01-02 03:03:22.92	352.19	18.44	-40.3	-52.1	3.8	8.46e-01	0	56	104	234881024	51	14597
2026-01-02 03:03:23.93	352.03	18.54	-40.0	-51.7	3.8	8.46e-01	0	56	104	234881024	51	14000
2026-01-02 03:03:24.94	351.87	18.63	-40.3	-52.0	3.8	8.47e-01	0	56	104	234881024	51	14518
2026-01-02 03:03:25.95	351.70	18.72	-40.0	-51.7	3.8	8.47e-01	0	56	104	234881024	51	14007
2026-01-02 03:03:26.96	351.54	18.81	-40.0	-52.0	3.8	8.47e-01	0	56	104	234881024	51	14429
2026-01-02 03:03:27.97	351.38	18.91	-39.9	-51.7	3.8	8.47e-01	0	56	104	234881024	51	14005
2026-01-02 03:03:28.98	351.21	19.00	-40.0	-51.8	3.8	8.45e-01	0	56	104	234881024	51	14174
2026-01-02 03:03:29.99	351.05	19.09	-39.9	-51.8	3.8	8.45e-01	0	56	104	234881024	51	14098
2026-01-02 03:03:31.00	350.88	19.19	-40.5	-52.1	3.8	8.46e-01	0	56	104	234881024	51	14695
2026-01-02 03:03:32.01	350.72	19.28	-39.9	-51.6	3.8	8.46e-01	0	56	104	234881024	51	13871
2026-01-02 03:03:33.02	350.55	19.37	-40.3	-52.0	3.8	8.45e-01	0	56	104	234881024	51	14411
2026-01-02 03:03:34.03	350.38	19.47	-40.0	-51.6	3.8	8.47e-01	0	56	104	234881024	51	13867
2026-01-02 03:03:35.04	350.21	19.56	-39.9	-51.7	3.8	8.48e-01	0	56	104	234881024	51	14007
2026-01-02 03:03:36.05	350.04	19.66	-39.8	-51.6	3.8	8.46e-01	0	56	104	234881024	51	13844
2026-01-02 03:03:37.06	349.86	19.75	-39.9	-51.7	3.8	8.46e-01	0	56	104	234881024	51	13960
2026-01-02 03:03:38.07	349.69	19.84	-40.0	-50.6	3.8	8.46e-01	0	56	104	234881024	51	12301
2026-01-02 03:03:39.07	349.52	19.94	-40.0	-51.7	3.8	8.46e-01	0	56	104	234881024	51	13976
2026-01-02 03:03:40.08	349.34	20.03	-39.9	-49.9	3.8	8.46e-01	0	56	104	234881024	51	11370
2026-01-02 03:03:41.10	349.16	20.13	-40.1	-48.4	4.4	8.34e-01	0	56	0	234881024	51	9510
2026-01-02 03:03:42.11	348.98	20.22	-40.4	-47.6	4.9	7.98e-01	0	56	0	234881024	51	8709
2026-01-02 03:03:43.12	348.80	20.32	-40.7	-47.4	5.3	7.47e-01	0	56	0	234881024	52	8003
2026-01-02 03:03:44.13	348.62	20.41	-41.2	-47.8	5.3	7.37e-01	0	56	0	234881024	52	8408
2026-01-02 03:03:45.14	348.44	20.51	-41.4	-48.3	5.0	7.59e-01	0	56	0	234881024	53	8386
2026-01-02 03:03:46.15	348.26	20.60	-41.7	-48.0	5.4	7.55e-01	0	56	0	234881024	53	8152
2026-01-02 03:03:47.16	348.07	20.69	-41.7	-47.1	6.3	3.35e-01	0	56	0	239075328	53	7335
2026-01-02 03:03:48.17	347.89	20.79	-41.6	-46.5	7.1	1.96e-01	0	56	0	244318208	53	6838
2026-01-02 03:03:49.18	347.70	20.88	-41.6	-46.1	7.7	1.14e-01	0	56	0	250609664	53	6499
2026-01-02 03:03:50.19	347.52	20.98	-41.3	-45.4	8.4	6.75e-02	0	56	0	255852544	53	6041
2026-01-02 03:03:51.20	347.33	21.07	-41.2	-45.0	9.0	3.69e-02	0	56	0	261095424	53	5724
2026-01-02 03:03:52.21	347.14	21.17	-40.8	-44.2	9.8	1.55e-02	0	56	0	267386880	53	5240
2026-01-02 03:03:53.22	346.95	21.26	-40.6	-43.9	10.2	7.91e-03	0	56	0	272629760	53	5044
2026-01-02 03:03:54.23	346.75	21.36	-40.7	-44.0	10.1	6.76e-03	0	56	0	278921216	53	5118
2026-01-02 03:03:55.23	346.56	21.45	-40.9	-44.4	9.8	1.18e-02	0	56	0	284164096	53	5343
2026-01-02 03:03:56.24	346.37	21.55	-40.1	-43.0	11.3	2.99e-03	0	56	0	289406976	52	4818
2026-01-02 03:03:57.25	346.17	21.64	-39.1	-41.4	13.0	1.11e-04	0	56	0	295698432	50	4541
2026-01-02 03:03:58.26	345.98	21.74	-37.8	-39.7	14.6	2.20e-06	0	57	0	300941312	47	4425
2026-01-02 03:03:59.27	345.78	21.83	-36.5	-38.1	16.3	0.00e+00	0	56	0	307232768	45	4115
2026-01-02 03:04:00.28	345.58	21.93	-35.2	-36.6	17.7	0.00e+00	0	56	0	312475648	42	4100
2026-01-02 03:04:01.29	345.38	22.02	-34.2	-35.4	18.8	0.00e+00	0	56	0	318767104	40	4051
2026-01-02 03:04:02.30	345.17	22.12	-33.5	-34.6	19.6	0.00e+00	0	56	0	324009984	38	4144
2026-01-02 03:04:03.31	344.97	22.21	-32.9	-34.0	20.2	0.00e+00	0	57	0	330301440	37	4087
2026-01-02 03:04:04.33	344.77	22.31	-32.5	-33.6	20.6	0.00e+00	0	56	0	335544320	37	3899
2026-01-02 03:04:05.34	344.56	22.40	-32.3	-33.4	20.9	0.00e+00	0	56	0	340787200	36	4009
2026-01-02 03:04:06.35	344.35	22.50	-32.4	-33.5	20.8	0.00e+00	0	56	0	347078656	36	4074
2026-01-02 03:04:07.36	344.14	22.59	-32.6	-33.7	20.6	0.00e+00	0	56	0	352321536	36	4166
2026-01-02 03:04:08.37	343.93	22.69	-32.6	-33.8	20.6	0.00e+00	0	56	0	358612992	36	4195
2026-01-02 03:04:09.38	343.72	22.78	-32.6	-33.7	20.6	0.00e+00	0	56	0	363855872	36	4189
2026-01-02 03:04:10.39	343.51	22.87	-32.5	-33.6	20.8	0.00e+00	0	57	0	369098752	36	4132
2026-01-02 03:04:11.40	343.30	22.97	-32.4	-33.5	20.9	0.00e+00	0	56	0	375390208	36	4066
2026-01-02 03:04:12.41	343.08	23.06	-32.4	-33.5	21.0	0.00e+00	0	56	0	380633088	36	4053
2026-01-02 03:04:13.42	342.87	23.16	-32.3	-33.4	21.0	0.00e+00	0	56	0	386924544	36	4040
2026-01-02 03:04:14.43	342.65	23.25	-32.4	-33.5	20.9	0.00e+00	0	57	0	392167424	36	4069
2026-01-02 03:04:15.44	342.43	23.35	-32.4	-33.4	21.0	0.00e+00	0	56	0	397410304	36	4048
2026-01-02 03:04:16.45	342.21	23.44	-32.3	-33.4	21.1	0.00e+00	0	57	0	403701760	36	4019
2026-01-02 03:04:17.46	341.99	23.53	-32.3	-33.4	21.1	0.00e+00	0	56	0	408944640	36	4013
2026-01-02 03:04:18.46	341.77	23.63	-32.2	-33.2	21.2	0.00e+00	0	56	0	415236096	36	3953
2026-01-02 03:04:19.47	341.54	23.72	-32.0	-33.1	21.4	0.00e+00	0	56	0	420478976	36	3873
2026-01-02 03:04:20.48	341.32	23.81	-31.4	-32.5	21.3	0.00e+00	0	57	0	426770432	34	4052
2026-01-02 03:04:21.49	341.09	23.91	-31.3	-32.3	21.5	0.00e+00	0	56	0	432013312	34	3985
2026-01-02 03:04:22.50	340.86	24.00	-31.3	-32.3	21.5	0.00e+00	0	56	0	438304768	34	3982
2026-01-02 03:04:23.51	340.63	24.09	-31.3	-32.4	21.4	0.00e+00	0	56	0	443547648	34	4005
2026-01-02 03:04:24.52	340.40	24.18	-31.4	-32.4	21.4	0.00e+00	0	56	0	448790528	34	4042
2026-01-02 03:04:25.53	340.17	24.28	-31.4	-32.5	21.3	0.00e+00	0	57	0	455081984	34	4071
2026-01-02 03:04:26.54	339.94	24.37	-31.4	-32.5	21.3	0.00e+00	0	57	0	460324864	34	4070
2026-01-02 03:04:27.55	339.70	24.46	-31.4	-32.5	21.3	0.00e+00	0	56	0	466616320	34	4075
2026-01-02 03:04:28.56	339.46	24.55	-31.5	-32.6	21.3	0.00e+00	0	57	0	471859200	34	4120
2026-01-02 03:04:29.57	339.23	24.65	-31.5	-32.6	21.3	0.00e+00	0	57	0	477102080	34	4115
2026-01-02 03:04:30.58	338.99	24.74	-31.5	-32.5	21.3	0.00e+00	0	57	0	483393536	34	4080
2026-01-02 03:04:31.59	338.75	24.83	-31.4	-32.4	21.5	0.00e+00	0	56	0	488636416	34	4037
2026-01-02 03:04:32.60	338.50	24.92	-31.3	-32.3	21.6	0.00e+00	0	56	0	493879296	34	3994
2026-01-02 03:04:33.61	338.26	25.01	-31.2	-32.2	21.6	0.00e+00	0	56	0	500170752	34	3951
2026-01-02 03:04:34.62	338.01	25.10	-31.2	-32.2	21.6	0.00e+00	0	57	0	505413632	34	3950
2026-01-02 03:04:35.62	337.77	25.19	-31.2	-32.2	21.7	0.00e+00	0	57	0	511705088	34	3949
2026-01-02 03:04:36.63	337.52	25.28	-31.2	-32.2	21.7	0.00e+00	0	57	0	516947968	34	3953
2026-01-02 03:04:37.64	337.27	25.37	-31.2	-32.2	21.7	0.00e+00	0	57	0	523239424	34	3951
2026-01-02 03:04:38.65	337.02	25.46	-31.2	-32.2	21.7	0.00e+00	0	57	0	528482304	34	3935
2026-01-02 03:04:39.66	336.77	25.55	-31.1	-32.1	21.8	0.00e+00	0	57	0	534773760	34	3892
2026-01-02 03:04:40.67	336.52	25.64	-31.0	-32.1	21.8	0.00e+00	0	57	0	540016640	34	3876
2026-01-02 03:04:41.68	336.26	25.72	-31.0	-32.1	21.8	0.00e+00	0	56	0	545259520	34	3873
2026-01-02 03:04:42.69	336.00	25.81	-31.1	-32.1	21.8	0.00e+00	0	57	0	551550976	34	3896
2026-01-02 03:04:43.70	335.75	25.90	-31.1	-32.2	21.7	0.00e+00	0	57	0	556793856	34	3915
2026-01-02 03:04:44.71	335.49	25.99	-31.2	-32.2	21.7	0.00e+00	0	57	0	563085312	34	3942
2026-01-02 03:04:45.72	335.23	26.07	-31.2	-32.2	21.7	0.00e+00	0	56	0	568328192	34	3934
2026-01-02 03:04:46.73	334.96	26.16	-31.2	-32.2	21.7	0.00e+00	0	57	0	573571072	34	3955
2026-01-02 03:04:47.74	334.70	26.25	-31.2	-32.2	21.7	0.00e+00	0	57	0	579862528	34	3956
2026-01-02 03:04:48.75	334.43	26.33	-31.2	-32.2	21.7	0.00e+00	0	57	0	585105408	34	3950
2026-01-02 03:04:49.76	334.17	26.42	-31.1	-32.2	21.8	0.00e+00	0	57	0	591396864	34	3926
2026-01-02 03:04:50.77	333.90	26.50	-31.1	-32.1	21.8	0.00e+00	0	56	0	596639744	34	3897
2026-01-02 03:04:51.79	333.63	26.59	-31.0	-32.1	21.8	0.00e+00	0	57	0	601882624	34	3878
2026-01-02 03:04:52.80	333.36	26.67	-31.0	-32.0	21.9	0.00e+00	0	57	0	608174080	34	3866
2026-01-02 03:04:53.81	333.08	26.76	-30.9	-32.0	21.9	0.00e+00	0	57	0	613416960	33	4054
2026-01-02 03:04:54.82	332.81	26.84	-31.0	-32.0	21.9	0.00e+00	0	57	0	619708416	33	4068
2026-01-02 03:04:55.83	332.53	26.92	-31.0	-32.1	21.8	0.00e+00	0	57	0	624951296	33	4113
2026-01-02 03:04:56.84	332.26	27.01	-31.2	-32.3	21.7	0.00e+00	0	57	0	631242752	33	4196
2026-01-02 03:04:57.85	331.98	27.09	-31.3	-32.3	21.6	0.00e+00	0	57	0	636485632	33	4234
2026-01-02 03:04:58.86	331.70	27.17	-31.2	-32.2	21.7	0.00e+00	0	57	0	642777088	33	4189
2026-01-02 03:04:59.87	331.42	27.25	-31.0	-32.1	21.8	0.00e+00	0	57	0	648019968	33	4108
2026-01-02 03:05:00.88	331.13	27.33	-30.9	-31.9	22.0	0.00e+00	0	57	0	653262848	33	4018
2026-01-02 03:05:01.89	330.85	27.41	-30.8	-31.8	22.1	0.00e+00	0	57	0	659554304	33	3974
2026-01-02 03:05:02.90	330.56	27.49	-30.7	-31.7	22.1	0.00e+00	0	57	0	664797184	33	3958
2026-01-02 03:05:03.90	330.28	27.57	-30.7	-31.7	22.1	0.00e+00	0	57	0	671088640	33	3954
2026-01-02 03:05:04.92	329.99	27.65	-30.7	-31.7	22.2	0.00e+00	0	57	0	676331520	33	3926
2026-01-02 03:05:05.93	329.70	27.72	-30.6	-31.6	22.3	0.00e+00	0	57	0	681574400	33	3876
2026-01-02 03:05:06.94	329.41	27.80	-30.5	-31.5	22.4	0.00e+00	0	57	0	687865856	33	3854
2026-01-02 03:05:07.95	329.11	27.88	-30.5	-31.5	22.4	0.00e+00	0	57	0	693108736	33	3861
2026-01-02 03:05:08.96	328.82	27.95	-30.6	-31.6	22.3	0.00e+00	0	57	0	699400192	33	3899
2026-01-02 03:05:09.97	328.52	28.03	-30.7	-31.7	22.2	0.00e+00	0	57	0	704643072	33	3935
2026-01-02 03:05:10.98	328.23	28.10	-30.7	-31.7	22.2	0.00e+00	0	57	0	709885952	33	3942
2026-01-02 03:05:11.99	327.93	28.17	-30.7	-31.7	22.2	0.00e+00	0	57	0	716177408	33	3924
2026-01-02 03:05:13.00	327.63	28.25	-30.6	-31.7	22.2	0.00e+00	0	57	0	721420288	33	3917
2026-01-02 03:05:14.01	327.33	28.32	-30.7	-31.7	22.2	0.00e+00	0	57	0	727711744	33	3943
2026-01-02 03:05:15.02	327.03	28.39	-30.9	-31.9	22.0	0.00e+00	0	57	0	732954624	33	4021
2026-01-02 03:05:16.03	326.72	28.46	-30.9	-32.0	21.9	0.00e+00	0	57	0	739246080	33	4067
2026-01-02 03:05:17.04	326.42	28.53	-30.9	-32.0	21.9	0.00e+00	0	57	0	744488960	33	4055
2026-01-02 03:05:18.05	326.11	28.60	-30.8	-31.8	22.1	0.00e+00	0	57	0	749731840	33	3976
2026-01-02 03:05:19.06	325.80	28.67	-30.7	-31.7	22.2	0.00e+00	0	57	0	756023296	33	3922
2026-01-02 03:05:20.07	325.49	28.74	-30.6	-31.6	22.3	0.00e+00	0	57	0	761266176	33	3899
2026-01-02 03:05:21.08	325.18	28.80	-30.6	-31.6	22.3	0.00e+00	0	57	0	767557632	33	3898
2026-01-02 03:05:22.09	324.87	28.87	-30.6	-31.6	22.3	0.00e+00	0	57	0	772800512	33	3900
2026-01-02 03:05:23.10	324.56	28.94	-30.6	-31.6	22.3	0.00e+00	0	57	0	778043392	33	3885
2026-01-02 03:05:24.11	324.24	29.00	-30.6	-31.6	22.3	0.00e+00	0	57	0	784334848	33	3901
2026-01-02 03:05:25.12	323.93	29.07	-30.7	-31.7	22.2	0.00e+00	0	57	0	789577728	33	3922
2026-01-02 03:05:26.13	323.61	29.13	-30.7	-31.7	22.2	0.00e+00	0	57	0	795869184	33	3947
2026-01-02 03:05:27.14	323.29	29.19	-30.7	-31.8	22.2	0.00e+00	0	57	0	801112064	33	3968
2026-01-02 03:05:28.15	322.97	29.25	-30.7	-31.7	22.2	0.00e+00	0	57	0	807403520	33	3937
2026-01-02 03:05:29.16	322.65	29.31	-30.5	-31.5	22.4	0.00e+00	0	57	0	812646400	32	4061
2026-01-02 03:05:30.17	322.33	29.37	-30.3	-31.2	22.6	0.00e+00	0	57	0	817889280	32	3953
2026-01-02 03:05:31.18	322.01	29.43	-30.2	-31.2	22.7	0.00e+00	0	57	0	824180736	32	3926
2026-01-02 03:05:32.19	321.68	29.49	-30.3	-31.3	22.5	0.00e+00	0	57	0	829423616	32	3994
2026-01-02 03:05:33.20	321.36	29.55	-30.4	-31.4	22.5	0.00e+00	0	57	0	835715072	32	4024
2026-01-02 03:05:34.21	321.03	29.60	-30.5	-31.5	22.4	0.00e+00	0	57	0	840957952	32	4074
2026-01-02 03:05:35.22	320.70	29.66	-30.6	-31.6	22.3	0.00e+00	0	57	0	847249408	32	4111
2026-01-02 03:05:36.23	320.37	29.71	-30.6	-31.6	22.3	0.00e+00	0	57	0	852492288	32	4139
2026-01-02 03:05:37.24	320.04	29.76	-30.5	-31.5	22.3	0.00e+00	0	57	0	857735168	32	4098
2026-01-02 03:05:38.24	319.72	29.82	-30.4	-31.4	22.5	0.00e+00	0	57	0	864026624	32	4040
2026-01-02 03:05:39.26	319.38	29.87	-30.4	-31.4	22.5	0.00e+00	0	57	0	869269504	32	4016
2026-01-02 03:05:40.27	319.05	29.92	-30.4	-31.4	22.4	0.00e+00	0	57	0	875560960	32	4040
2026-01-02 03:05:41.28	318.71	29.97	-30.5	-31.5	22.3	0.00e+00	0	57	0	880803840	32	4089
2026-01-02 03:05:42.29	318.38	30.02	-30.5	-31.5	22.3	0.00e+00	0	57	0	886046720	32	4098
2026-01-02 03:05:43.30	318.04	30.06	-30.5	-31.5	22.4	0.00e+00	0	57	0	892338176	32	4073
2026-01-02 03:05:44.31	317.70	30.11	-30.5	-31.5	22.4	0.00e+00	0	57	0	897581056	32	4073
2026-01-02 03:05:45.32	317.37	30.15	-30.5	-31.5	22.4	0.00e+00	0	57	0	903872512	32	4077
2026-01-02 03:05:46.33	317.03	30.20	-30.4	-31.4	22.5	0.00e+00	0	57	0	909115392	32	4031
2026-01-02 03:05:47.34	316.69	30.24	-30.4	-31.4	22.5	0.00e+00	0	57	0	914358272	32	4021
2026-01-02 03:05:48.35	316.35	30.28	-30.5	-31.5	22.4	0.00e+00	0	57	0	920649728	32	4056
2026-01-02 03:05:49.37	316.00	30.32	-30.6	-31.6	22.3	0.00e+00	0	57	0	925892608	32	4109
2026-01-02 03:05:50.38	315.66	30.36	-30.6	-31.6	22.3	0.00e+00	0	57	0	932184064	32	4114
2026-01-02 03:05:51.39	315.31	30.40	-30.5	-31.5	22.4	0.00e+00	0	57	0	937426944	32	4067
2026-01-02 03:05:52.40	314.97	30.44	-30.4	-31.3	22.5	0.00e+00	0	57	0	943718400	32	4003
2026-01-02 03:05:53.40	314.63	30.48	-30.2	-31.2	22.6	0.00e+00	0	57	0	948961280	32	3933
2026-01-02 03:05:54.41	314.28	30.51	-30.1	-31.1	22.7	0.00e+00	0	57	0	955252736	32	3904
2026-01-02 03:05:55.42	313.93	30.55	-30.2	-31.2	22.7	0.00e+00	0	57	0	960495616	32	3924
2026-01-02 03:05:56.43	313.59	30.58	-30.3	-31.3	22.6	0.00e+00	0	57	0	965738496	32	3981
2026-01-02 03:05:57.44	313.24	30.61	-30.3	-31.3	22.6	0.00e+00	0	57	0	972029952	32	3980
2026-01-02 03:05:58.45	312.89	30.64	-30.2	-31.2	22.7	0.00e+00	0	57	0	977272832	32	3932
2026-01-02 03:05:59.47	312.54	30.67	-30.2	-31.2	22.6	0.00e+00	0	57	0	983564288	32	3944
2026-01-02 03:06:00.47	312.19	30.70	-30.3	-31.3	22.5	0.00e+00	0	57	0	988807168	32	3996
2026-01-02 03:06:01.48	311.84	30.73	-30.5	-31.5	22.4	0.00e+00	0	57	0	994050048	32	4087
2026-01-02 03:06:02.48	311.49	30.75	-30.6	-31.6	22.3	0.00e+00	0	57	0	1000341504	32	4107
2026-01-02 03:06:03.49	311.14	30.78	-30.4	-31.4	22.4	0.00e+00	0	57	0	1005584384	32	4038
2026-01-02 03:06:04.50	310.79	30.80	-30.3	-31.3	22.5	0.00e+00	0	57	0	1011875840	32	4000
2026-01-02 03:06:05.51	310.43	30.82	-30.3	-31.2	22.6	0.00e+00	0	57	0	1017118720	32	3957
2026-01-02 03:06:06.52	310.08	30.84	-30.3	-31.3	22.6	0.00e+00	0	57	0	1022361600	32	3961
2026-01-02 03:06:07.53	309.72	30.86	-30.3	-31.3	22.6	0.00e+00	0	57	0	1028653056	32	3963
2026-01-02 03:06:08.54	309.37	30.88	-30.3	-31.3	22.5	0.00e+00	0	57	0	1033895936	32	3992
2026-01-02 03:06:09.55	309.02	30.90	-30.3	-31.3	22.5	0.00e+00	0	57	0	1040187392	32	3989
2026-01-02 03:06:10.56	308.66	30.92	-30.3	-31.3	22.5	0.00e+00	0	57	0	1045430272	32	3987
2026-01-02 03:06:11.57	308.30	30.93	-30.2	-31.2	22.6	0.00e+00	0	57	0	1051721728	32	3932
2026-01-02 03:06:12.58	307.95	30.94	-30.1	-31.1	22.7	0.00e+00	0	57	0	1056964608	32	3895
2026-01-02 03:06:13.59	307.59	30.96	-30.0	-31.0	22.8	0.00e+00	0	57	0	1062207488	32	3857
2026-01-02 03:06:14.60	307.24	30.97	-30.0	-31.0	22.9	0.00e+00	0	57	0	1068498944	32	3838
2026-01-02 03:06:15.61	306.88	30.98	-30.0	-31.0	22.8	0.00e+00	0	57	0	1073741824	32	3856
2026-01-02 03:06:16.62	306.52	30.99	-30.2	-31.2	22.7	0.00e+00	0	57	0	1080033280	32	3917
2026-01-02 03:06:17.63	306.16	31.00	-30.2	-31.2	22.6	0.00e+00	0	57	0	1085276160	32	3957
2026-01-02 03:06:18.64	305.81	31.00	-30.3	-31.4	22.5	0.00e+00	0	57	0	1091567616	32	4005
2026-01-02 03:06:19.65	305.45	31.01	-30.4	-31.4	22.5	0.00e+00	0	57	0	1096810496	32	4012
2026-01-02 03:06:20.66	305.09	31.01	-30.2	-31.2	22.6	0.00e+00	0	57	0	1102053376	32	3947
2026-01-02 03:06:21.67	304.73	31.01	-30.1	-31.1	22.7	0.00e+00	0	57	0	1108344832	32	3886
2026-01-02 03:06:22.68	304.38	31.01	-30.1	-31.0	22.8	0.00e+00	0	57	0	1113587712	32	3857
2026-01-02 03:06:23.69	304.02	31.01	-30.2	-31.2	22.7	0.00e+00	0	57	0	1119879168	32	3916
2026-01-02 03:06:24.70	303.66	31.01	-30.2	-31.2	22.6	0.00e+00	0	57	0	1125122048	32	3939
2026-01-02 03:06:25.71	303.30	31.01	-30.1	-31.1	22.7	0.00e+00	0	57	0	1130364928	32	3905
2026-01-02 03:06:26.72	302.95	31.01	-30.2	-31.1	22.7	0.00e+00	0	57	0	1136656384	32	3909
2026-01-02 03:06:27.73	302.59	31.00	-30.2	-31.2	22.6	0.00e+00	0	57	0	1141899264	32	3946
2026-01-02 03:06:28.74	302.23	31.00	-30.3	-31.3	22.6	0.00e+00	0	57	0	1148190720	32	3968
2026-01-02 03:06:29.75	301.87	30.99	-30.2	-31.2	22.6	0.00e+00	0	57	0	1153433600	32	3958
2026-01-02 03:06:30.76	301.52	30.98	-30.1	-31.1	22.7	0.00e+00	0	57	0	1159725056	32	3897
2026-01-02 03:06:31.77	301.16	30.97	-30.1	-31.1	22.7	0.00e+00	0	57	0	1164967936	32	3885
2026-01-02 03:06:32.78	300.80	30.96	-30.1	-31.1	22.7	0.00e+00	0	57	0	1170210816	32	3889
2026-01-02 03:06:33.79	300.45	30.95	-30.1	-31.1	22.7	0.00e+00	0	57	0	1176502272	32	3905
2026-01-02 03:06:34.80	300.09	30.93	-30.1	-31.0	22.8	0.00e+00	0	57	0	1181745152	32	3860
2026-01-02 03:06:35.81	299.73	30.92	-30.0	-31.0	22.8	0.00e+00	0	57	0	1188036608	32	3853
2026-01-02 03:06:36.82	299.38	30.90	-30.1	-31.1	22.7	0.00e+00	0	57	0	1193279488	32	3892
2026-01-02 03:06:37.83	299.02	30.88	-30.2	-31.2	22.6	0.00e+00	0	57	0	1198522368	32	3922
2026-01-02 03:06:38.84	298.67	30.87	-30.2	-31.2	22.7	0.00e+00	0	57	0	1204813824	32	3921
2026-01-02 03:06:39.84	298.32	30.85	-30.2	-31.2	22.7	0.00e+00	0	57	0	1210056704	32	3914
2026-01-02 03:06:40.85	297.96	30.83	-30.2	-31.2	22.6	0.00e+00	0	57	0	1216348160	32	3933
2026-01-02 03:06:41.87	297.61	30.80	-30.3	-31.3	22.5	0.00e+00	0	57	0	1221591040	32	3977
2026-01-02 03:06:42.88	297.25	30.78	-30.4	-31.4	22.4	0.00e+00	0	57	0	1226833920	32	4034
2026-01-02 03:06:43.89	296.90	30.75	-30.3	-31.3	22.5	0.00e+00	0	57	0	1233125376	32	3983
2026-01-02 03:06:44.90	296.55	30.73	-30.1	-31.1	22.7	0.00e+00	0	57	0	1238368256	32	3882
2026-01-02 03:06:45.91	296.20	30.70	-30.0	-31.0	22.8	0.00e+00	0	57	0	1244659712	32	3845
2026-01-02 03:06:46.92	295.85	30.67	-30.1	-31.1	22.7	0.00e+00	0	57	0	1249902592	32	3883
2026-01-02 03:06:47.93	295.50	30.64	-30.2	-31.2	22.6	0.00e+00	0	57	0	1256194048	32	3936
2026-01-02 03:06:48.94	295.15	30.61	-30.2	-31.2	22.6	0.00e+00	0	57	0	1261436928	32	3943
2026-01-02 03:06:49.95	294.80	30.58	-30.2	-31.2	22.6	0.00e+00	0	57	0	1267728384	32	3954
2026-01-02 03:06:50.96	294.45	30.55	-30.2	-31.2	22.6	0.00e+00	0	57	0	1272971264	32	3952
2026-01-02 03:06:51.97	294.10	30.51	-30.2	-31.2	22.6	0.00e+00	0	57	0	1278214144	32	3950
2026-01-02 03:06:52.98	293.76	30.48	-30.2	-31.2	22.6	0.00e+00	0	57	0	1284505600	32	3947
2026-01-02 03:06:53.99	293.41	30.44	-30.3	-31.3	22.5	0.00e+00	0	57	0	1289748480	32	3991
2026-01-02 03:06:54.99	293.07	30.41	-30.4	-31.5	22.4	0.00e+00	0	57	0	1296039936	32	4052
2026-01-02 03:06:56.00	292.72	30.37	-30.5	-31.5	22.3	0.00e+00	0	57	0	1301282816	32	4083
2026-01-02 03:06:57.01	292.38	30.33	-30.5	-31.5	22.4	0.00e+00	0	57	0	1306525696	32	4057
2026-01-02 03:06:58.02	292.04	30.29	-30.4	-31.4	22.4	0.00e+00	0	57	0	1312817152	32	4026
2026-01-02 03:06:59.03	291.69	30.25	-30.4	-31.4	22.4	0.00e+00	0	57	0	1318060032	32	4019
2026-01-02 03:07:00.04	291.35	30.20	-30.4	-31.4	22.5	0.00e+00	0	57	0	1324351488	32	4011
2026-01-02 03:07:01.05	291.01	30.16	-30.3	-31.3	22.5	0.00e+00	0	57	0	1329594368	32	3974
2026-01-02 03:07:02.06	290.67	30.11	-30.1	-31.1	22.7	0.00e+00	0	57	0	1334837248	32	3903
2026-01-02 03:07:03.07	290.34	30.07	-30.0	-31.0	22.9	0.00e+00	0	57	0	1341128704	32	3826
2026-01-02 03:07:04.08	290.00	30.02	-29.7	-30.7	22.9	0.00e+00	0	57	0	1346371584	31	3941
2026-01-02 03:07:05.09	289.66	29.97	-29.8	-30.8	22.8	0.00e+00	0	57	0	1352663040	31	3971
2026-01-02 03:07:06.10	289.33	29.92	-29.9	-30.9	22.7	0.00e+00	0	57	0	1357905920	31	4036
2026-01-02 03:07:07.12	288.99	29.87	-30.0	-31.0	22.6	0.00e+00	0	57	0	1364197376	31	4092
2026-01-02 03:07:08.12	288.66	29.82	-30.1	-31.1	22.5	0.00e+00	0	57	0	1369440256	31	4136
2026-01-02 03:07:09.14	288.33	29.77	-30.2	-31.2	22.4	0.00e+00	0	57	0	1374683136	31	4172
2026-01-02 03:07:10.15	288.00	29.72	-30.3	-31.3	22.4	0.00e+00	0	57	0	1380974592	31	4227
2026-01-02 03:07:11.16	287.67	29.66	-30.4	-31.4	22.3	0.00e+00	0	57	0	1386217472	31	4259
2026-01-02 03:07:12.17	287.34	29.61	-30.4	-31.4	22.2	0.00e+00	0	57	0	1392508928	31	4277
2026-01-02 03:07:13.18	287.01	29.55	-30.5	-31.5	22.2	0.00e+00	0	57	0	1397751808	31	4326
2026-01-02 03:07:14.19	286.68	29.49	-30.5	-31.5	22.1	0.00e+00	0	57	0	1402994688	31	4328
2026-01-02 03:07:15.20	286.36	29.44	-30.4	-31.4	22.2	0.00e+00	0	57	0	1409286144	31	4281
2026-01-02 03:07:16.20	286.04	29.38	-30.3	-31.3	22.4	0.00e+00	0	57	0	1414529024	31	4210
2026-01-02 03:07:17.22	285.71	29.32	-30.3	-31.3	22.4	0.00e+00	0	57	0	1420820480	31	4194
2026-01-02 03:07:18.22	285.39	29.26	-30.3	-31.3	22.4	0.00e+00	0	57	0	1426063360	31	4203
2026-01-02 03:07:19.24	285.07	29.19	-30.2	-31.2	22.4	0.00e+00	0	57	0	1431306240	31	4169
2026-01-02 03:07:20.25	284.75	29.13	-30.1	-31.1	22.5	0.00e+00	0	57	0	1437597696	31	4117
2026-01-02 03:07:21.26	284.43	29.07	-30.0	-31.0	22.6	0.00e+00	0	57	0	1442840576	31	4096
2026-01-02 03:07:22.27	284.11	29.01	-30.0	-31.0	22.6	0.00e+00	0	57	0	1449132032	31	4070
2026-01-02 03:07:23.28	283.80	28.94	-30.1	-31.0	22.6	0.00e+00	0	57	0	1454374912	31	4095
2026-01-02 03:07:24.29	283.48	28.88	-30.1	-31.1	22.5	0.00e+00	0	57	0	1460666368	31	4130
2026-01-02 03:07:25.30	283.17	28.81	-30.3	-31.3	22.4	0.00e+00	0	57	0	1465909248	31	4201
2026-01-02 03:07:26.31	282.86	28.74	-30.4	-31.4	22.3	0.00e+00	0	57	0	1472200704	31	4256
2026-01-02 03:07:27.32	282.55	28.67	-30.3	-31.3	22.3	0.00e+00	0	57	0	1477443584	31	4219
2026-01-02 03:07:28.33	282.24	28.60	-30.2	-31.2	22.4	0.00e+00	0	57	0	1482686464	31	4169
2026-01-02 03:07:29.34	281.93	28.53	-30.2	-31.2	22.4	0.00e+00	0	57	0	1488977920	31	4151
2026-01-02 03:07:30.35	281.63	28.46	-30.3	-31.3	22.4	0.00e+00	0	57	0	1494220800	31	4206
2026-01-02 03:07:31.36	281.32	28.39	-30.4	-31.4	22.3	0.00e+00	0	57	0	1500512256	31	4257
2026-01-02 03:07:32.37	281.02	28.32	-30.4	-31.5	22.2	0.00e+00	0	57	0	1505755136	31	4292
2026-01-02 03:07:33.39	280.71	28.25	-30.4	-31.4	22.2	0.00e+00	0	57	0	1510998016	31	4264
2026-01-02 03:07:34.39	280.42	28.18	-30.3	-31.3	22.4	0.00e+00	0	57	0	1517289472	31	4204
2026-01-02 03:07:35.40	280.12	28.10	-30.2	-31.2	22.4	0.00e+00	0	57	0	1522532352	31	4178
2026-01-02 03:07:36.41	279.82	28.03	-30.2	-31.2	22.4	0.00e+00	0	57	0	1528823808	31	4173
2026-01-02 03:07:37.42	279.52	27.95	-30.1	-31.1	22.5	0.00e+00	0	57	0	1534066688	31	4137
2026-01-02 03:07:38.43	279.23	27.88	-30.1	-31.1	22.6	0.00e+00	0	57	0	1539309568	31	4102
2026-01-02 03:07:39.45	278.93	27.80	-30.1	-31.1	22.5	0.00e+00	0	57	0	1545601024	31	4130
2026-01-02 03:07:40.46	278.64	27.72	-30.2	-31.2	22.4	0.00e+00	0	57	0	1550843904	31	4154
2026-01-02 03:07:41.47	278.35	27.65	-30.2	-31.2	22.4	0.00e+00	0	57	0	1557135360	31	4187
2026-01-02 03:07:42.48	278.06	27.57	-30.2	-31.2	22.4	0.00e+00	0	57	0	1562378240	31	4171
2026-01-02 03:07:43.49	277.77	27.49	-30.2	-31.2	22.4	0.00e+00	0	57	0	1568669696	31	4187
2026-01-02 03:07:44.50	277.48	27.41	-30.2	-31.2	22.4	0.00e+00	0	57	0	1573912576	31	4176
2026-01-02 03:07:45.51	277.19	27.33	-30.1	-31.1	22.5	0.00e+00	0	57	0	1580204032	31	4109
2026-01-02 03:07:46.52	276.91	27.25	-30.0	-31.0	22.6	0.00e+00	0	57	0	1585446912	31	4084
2026-01-02 03:07:47.53	276.63	27.17	-30.1	-31.0	22.5	0.00e+00	0	57	0	1590689792	31	4094
2026-01-02 03:07:48.54	276.35	27.09	-30.1	-31.1	22.5	0.00e+00	0	57	0	1596981248	31	4126
2026-01-02 03:07:49.55	276.07	27.00	-30.2	-31.2	22.4	0.00e+00	0	57	0	1602224128	31	4171
2026-01-02 03:07:50.56	275.79	26.92	-30.3	-31.3	22.3	0.00e+00	0	57	0	1608515584	31	4226
2026-01-02 03:07:51.57	275.51	26.84	-30.4	-31.4	22.2	0.00e+00	0	57	0	1613758464	31	4287
2026-01-02 03:07:52.58	275.24	26.75	-30.4	-31.4	22.2	0.00e+00	0	57	0	1619001344	31	4283
2026-01-02 03:07:53.59	274.96	26.67	-30.4	-31.4	22.2	0.00e+00	0	57	0	1625292800	31	4273
2026-01-02 03:07:54.60	274.69	26.59	-30.4	-31.4	22.2	0.00e+00	0	57	0	1630535680	31	4248
2026-01-02 03:07:55.61	274.42	26.50	-30.4	-31.4	22.2	0.00e+00	0	57	0	1636827136	31	4272
2026-01-02 03:07:56.62	274.15	26.42	-30.4	-31.4	22.2	0.00e+00	0	57	0	1642070016	31	4289
2026-01-02 03:07:57.63	273.88	26.33	-30.5	-31.5	22.1	0.00e+00	0	57	0	1647312896	31	4302
2026-01-02 03:07:58.64	273.62	26.24	-30.5	-31.5	22.1	0.00e+00	0	57	0	1653604352	31	4310
2026-01-02 03:07:59.65	273.35	26.16	-30.5	-31.5	22.1	0.00e+00	0	57	0	1658847232	31	4323
2026-01-02 03:08:00.66	273.09	26.07	-30.4	-31.5	22.1	0.00e+00	0	57	0	1665138688	31	4299
2026-01-02 03:08:01.67	272.83	25.98	-30.4	-31.5	22.2	0.00e+00	0	57	0	1670381568	31	4294
2026-01-02 03:08:02.68	272.56	25.90	-30.4	-31.4	22.2	0.00e+00	0	57	0	1676673024	31	4254
2026-01-02 03:08:03.69	272.31	25.81	-30.2	-31.2	22.4	0.00e+00	0	57	0	1681915904	31	4174
2026-01-02 03:08:04.70	272.05	25.72	-30.2	-31.2	22.4	0.00e+00	0	57	0	1688207360	31	4171
2026-01-02 03:08:05.71	271.79	25.63	-30.3	-31.3	22.3	0.00e+00	0	57	0	1693450240	31	4228
2026-01-02 03:08:06.72	271.54	25.54	-30.5	-31.5	22.1	0.00e+00	0	57	0	1698693120	31	4316
2026-01-02 03:08:07.73	271.28	25.45	-30.6	-31.6	22.0	0.00e+00	0	57	0	1704984576	31	4381
2026-01-02 03:08:08.74	271.03	25.36	-30.6	-31.7	21.9	0.00e+00	0	57	0	1710227456	31	4409
2026-01-02 03:08:09.75	270.78	25.27	-30.6	-31.6	22.0	0.00e+00	0	57	0	1716518912	31	4367
2026-01-02 03:08:10.76	270.53	25.18	-30.4	-31.5	22.1	0.00e+00	0	57	0	1721761792	31	4295
2026-01-02 03:08:11.77	270.28	25.09	-30.3	-31.4	22.2	0.00e+00	0	57	0	1727004672	31	4243
2026-01-02 03:08:12.78	270.04	25.00	-30.4	-31.4	22.2	0.00e+00	0	57	0	1733296128	31	4258
2026-01-02 03:08:13.79	269.79	24.91	-30.4	-31.4	22.2	0.00e+00	0	57	0	1738539008	31	4268
2026-01-02 03:08:14.80	269.55	24.82	-30.4	-31.4	22.1	0.00e+00	0	57	0	1744830464	31	4287
2026-01-02 03:08:15.81	269.31	24.73	-30.5	-31.5	22.1	0.00e+00	0	57	0	1750073344	31	4304
2026-01-02 03:08:16.82	269.06	24.63	-30.6	-31.6	22.0	0.00e+00	0	57	0	1755316224	31	4352
2026-01-02 03:08:17.83	268.83	24.54	-30.6	-31.6	22.0	0.00e+00	0	57	0	1761607680	31	4388
2026-01-02 03:08:18.84	268.59	24.45	-30.6	-31.6	22.0	0.00e+00	0	57	0	1766850560	31	4384
2026-01-02 03:08:19.85	268.35	24.36	-30.6	-31.7	21.9	0.00e+00	0	57	0	1773142016	31	4397
2026-01-02 03:08:20.85	268.12	24.27	-30.6	-31.6	22.0	0.00e+00	0	57	0	1778384896	31	4362
2026-01-02 03:08:21.86	267.88	24.17	-30.5	-31.6	22.0	0.00e+00	0	57	0	1784676352	31	4344
2026-01-02 03:08:22.87	267.65	24.08	-30.5	-31.6	22.0	0.00e+00	0	57	0	1789919232	31	4349
2026-01-02 03:08:23.88	267.42	23.99	-30.5	-31.5	22.1	0.00e+00	0	57	0	1795162112	31	4340
2026-01-02 03:08:24.89	267.19	23.89	-30.6	-31.6	22.0	0.00e+00	0	57	0	1801453568	31	4369
2026-01-02 03:08:25.90	266.96	23.80	-30.7	-31.7	21.9	0.00e+00	0	57	0	1806696448	31	4423
2026-01-02 03:08:26.91	266.74	23.71	-30.9	-32.0	21.8	0.00e+00	0	57	0	1812987904	32	4309
2026-01-02 03:08:27.92	266.51	23.61	-31.0	-32.0	21.8	0.00e+00	0	57	0	1818230784	32	4316
2026-01-02 03:08:28.93	266.29	23.52	-31.0	-32.0	21.7	0.00e+00	0	57	0	1823473664	32	4329
2026-01-02 03:08:29.94	266.06	23.42	-31.0	-32.1	21.7	0.00e+00	0	57	0	1829765120	32	4354
2026-01-02 03:08:30.95	265.84	23.33	-31.1	-32.1	21.6	0.00e+00	0	57	0	1835008000	32	4378
2026-01-02 03:08:31.96	265.62	23.23	-31.1	-32.1	21.6	0.00e+00	0	57	0	1841299456	32	4383
2026-01-02 03:08:32.97	265.40	23.14	-31.0	-32.1	21.7	0.00e+00	0	57	0	1846542336	32	4353
2026-01-02 03:08:33.98	265.19	23.05	-31.1	-32.1	21.7	0.00e+00	0	57	0	1851785216	32	4360
2026-01-02 03:08:34.99	264.97	22.95	-31.1	-32.1	21.6	0.00e+00	0	57	0	1858076672	32	4386
2026-01-02 03:08:36.00	264.76	22.86	-31.2	-32.2	21.6	0.00e+00	0	57	0	1863319552	32	4434
2026-01-02 03:08:37.01	264.54	22.76	-31.3	-32.3	21.4	0.00e+00	0	57	0	1869611008	33	4239
2026-01-02 03:08:38.02	264.33	22.67	-31.4	-32.4	21.4	0.00e+00	0	57	0	1874853888	33	4273
2026-01-02 03:08:39.03	264.12	22.57	-31.4	-32.5	21.3	0.00e+00	0	57	0	1881145344	33	4305
2026-01-02 03:08:40.04	263.91	22.48	-31.3	-32.4	21.4	0.00e+00	0	57	0	1886388224	33	4255
2026-01-02 03:08:41.05	263.70	22.38	-31.3	-32.3	21.4	0.00e+00	0	57	0	1892679680	33	4225
2026-01-02 03:08:42.06	263.49	22.29	-31.3	-32.3	21.4	0.00e+00	0	57	0	1897922560	33	4221
2026-01-02 03:08:43.07	263.29	22.19	-31.3	-32.3	21.4	0.00e+00	0	57	0	1903165440	33	4237
2026-01-02 03:08:44.08	263.08	22.10	-31.4	-32.4	21.3	0.00e+00	0	57	0	1909456896	33	4281
2026-01-02 03:08:45.09	262.88	22.00	-31.4	-32.4	21.3	0.00e+00	0	57	0	1914699776	33	4289
2026-01-02 03:08:46.10	262.68	21.90	-31.3	-32.4	21.4	0.00e+00	0	57	0	1920991232	33	4266
2026-01-02 03:08:47.11	262.48	21.81	-31.3	-32.3	21.4	0.00e+00	0	57	0	1926234112	33	4242
2026-01-02 03:08:48.12	262.28	21.71	-31.4	-32.4	21.3	0.00e+00	0	57	0	1931476992	33	4271
2026-01-02 03:08:49.13	262.08	21.62	-31.4	-32.4	21.3	0.00e+00	0	57	0	1937768448	33	4279
2026-01-02 03:08:50.14	261.88	21.52	-31.5	-32.5	21.2	0.00e+00	0	57	0	1943011328	33	4321
2026-01-02 03:08:51.15	261.69	21.43	-31.5	-32.6	21.2	0.00e+00	0	57	0	1949302784	33	4349
2026-01-02 03:08:52.16	261.49	21.33	-31.6	-32.6	21.1	0.00e+00	0	57	0	1954545664	33	4385
2026-01-02 03:08:53.17	261.30	21.24	-31.5	-32.6	21.2	0.00e+00	0	57	0	1959788544	33	4360
2026-01-02 03:08:54.18	261.11	21.14	-31.4	-32.4	21.3	0.00e+00	0	57	0	1966080000	33	4288
2026-01-02 03:08:55.19	260.92	21.05	-31.3	-32.4	21.4	0.00e+00	0	57	0	1971322880	33	4252
2026-01-02 03:08:56.20	260.73	20.95	-31.3	-32.4	21.3	0.00e+00	0	57	0	1977614336	33	4264
2026-01-02 03:08:57.21	260.54	20.86	-31.4	-32.4	21.3	0.00e+00	0	57	0	1982857216	33	4275
2026-01-02 03:08:58.22	260.35	20.76	-31.4	-32.4	21.3	0.00e+00	0	57	0	1989148672	33	4287
2026-01-02 03:08:59.23	260.16	20.67	-31.4	-32.5	21.3	0.00e+00	0	57	0	1994391552	33	4304
2026-01-02 03:09:00.23	259.98	20.57	-31.4	-32.5	21.2	0.00e+00	0	57	0	1999634432	33	4322
2026-01-02 03:09:01.23	259.80	20.48	-31.5	-32.6	21.2	0.00e+00	0	58	0	2005925888	33	4345
2026-01-02 03:09:02.24	259.62	20.38	-31.5	-32.6	21.2	0.00e+00	0	57	0	2011168768	33	4352
2026-01-02 03:09:03.24	259.44	20.29	-31.5	-32.6	21.2	0.00e+00	0	57	0	2017460224	33	4355
2026-01-02 03:09:04.26	259.25	20.19	-31.5	-32.6	21.1	0.00e+00	0	57	0	2022703104	33	4366
2026-01-02 03:09:05.26	259.08	20.10	-31.6	-32.7	21.0	0.00e+00	0	57	0	2027945984	33	4409
2026-01-02 03:09:06.28	258.90	20.00	-31.6	-32.7	21.0	0.00e+00	0	57	0	2034237440	33	4421
2026-01-02 03:09:07.28	258.72	19.91	-31.7	-32.8	21.0	0.00e+00	0	57	0	2039480320	33	4450
2026-01-02 03:09:08.30	258.54	19.81	-31.6	-32.7	21.0	0.00e+00	0	57	0	2045771776	33	4421
2026-01-02 03:09:09.30	258.37	19.72	-31.6	-32.7	21.1	0.00e+00	0	57	0	2051014656	33	4408
2026-01-02 03:09:10.31	258.20	19.63	-31.7	-32.7	21.0	0.00e+00	0	57	0	2056257536	33	4439
2026-01-02 03:09:11.32	258.02	19.53	-31.8	-32.9	20.9	0.00e+00	0	57	0	2062548992	34	4248
2026-01-02 03:09:12.33	257.85	19.44	-31.7	-32.8	21.0	0.00e+00	0	57	0	2067791872	34	4212
2026-01-02 03:09:13.34	257.68	19.34	-31.8	-32.8	20.9	0.00e+00	0	57	0	2074083328	34	4235
2026-01-02 03:09:14.35	257.51	19.25	-31.8	-32.9	20.8	0.00e+00	0	57	0	2079326208	34	4290
2026-01-02 03:09:15.36	257.34	19.15	-31.8	-32.9	20.8	0.00e+00	0	57	0	2085617664	34	4272
2026-01-02 03:09:16.37	257.17	19.06	-31.9	-33.0	20.7	0.00e+00	0	57	0	2090860544	34	4305
2026-01-02 03:09:17.38	257.01	18.97	-31.8	-32.9	20.8	0.00e+00	0	57	0	2096103424	34	4275
2026-01-02 03:09:18.39	256.84	18.87	-31.8	-32.9	20.8	0.00e+00	0	57	0	2102394880	34	4272
2026-01-02 03:09:19.40	256.68	18.78	-31.7	-32.8	20.9	0.00e+00	0	57	0	2107637760	34	4235
2026-01-02 03:09:20.41	256.51	18.69	-31.8	-32.9	20.8	0.00e+00	0	57	0	2113929216	34	4271
2026-01-02 03:09:21.42	256.35	18.59	-31.9	-33.0	20.8	0.00e+00	0	57	0	2119172096	34	4295
2026-01-02 03:09:22.42	256.19	18.50	-31.9	-33.0	20.7	0.00e+00	0	58	0	2124414976	34	4335
2026-01-02 03:09:23.43	256.03	18.41	-32.0	-33.1	20.7	0.00e+00	0	57	0	2130706432	34	4350
2026-01-02 03:09:24.44	255.87	18.31	-32.0	-33.1	20.6	0.00e+00	0	57	0	2135949312	34	4381
2026-01-02 03:09:25.45	255.71	18.22	-32.1	-33.2	20.5	0.00e+00	0	58	0	2142240768	34	4416
2026-01-02 03:09:26.46	255.56	18.13	-32.2	-33.3	20.4	0.00e+00	0	57	0	2147483648	34	4470
2026-01-02 03:09:27.47	255.40	18.03	-32.2	-33.3	20.4	0.00e+00	0	57	0	2152726528	35	4230
2026-01-02 03:09:28.48	255.24	17.94	-32.3	-33.4	20.3	0.00e+00	0	57	0	2159017984	35	4255
2026-01-02 03:09:29.49	255.09	17.85	-32.3	-33.4	20.3	0.00e+00	0	57	0	2164260864	35	4281
2026-01-02 03:09:30.50	254.94	17.76	-32.3	-33.4	20.3	0.00e+00	0	57	0	2170552320	35	4284
2026-01-02 03:09:31.51	254.78	17.66	-32.4	-33.5	20.2	0.00e+00	0	57	0	2175795200	35	4313
2026-01-02 03:09:32.52	254.63	17.57	-32.3	-33.5	20.2	0.00e+00	0	57	0	2182086656	35	4299
2026-01-02 03:09:33.53	254.48	17.48	-32.3	-33.5	20.2	0.00e+00	0	57	0	2187329536	35	4292
2026-01-02 03:09:34.54	254.33	17.39	-32.4	-33.5	20.2	0.00e+00	0	57	0	2193620992	35	4308
2026-01-02 03:09:35.55	254.18	17.30	-32.4	-33.5	20.2	0.00e+00	0	57	0	2198863872	35	4334
2026-01-02 03:09:36.57	254.03	17.21	-32.4	-33.5	20.2	0.00e+00	0	57	0	2204106752	35	4312
2026-01-02 03:09:37.58	253.88	17.11	-32.4	-33.6	20.1	0.00e+00	0	57	0	2210398208	35	4352
2026-01-02 03:09:38.58	253.74	17.02	-32.5	-33.7	20.0	0.00e+00	0	57	0	2215641088	35	4403
2026-01-02 03:09:39.59	253.59	16.93	-32.5	-33.6	20.1	0.00e+00	0	57	0	2221932544	35	4369
2026-01-02 03:09:40.60	253.45	16.84	-32.5	-33.7	20.0	0.00e+00	0	57	0	2227175424	35	4400
2026-01-02 03:09:41.61	253.31	16.75	-32.6	-33.7	20.0	0.00e+00	0	57	0	2232418304	35	4416
2026-01-02 03:09:42.62	253.16	16.66	-32.7	-33.8	19.9	0.00e+00	0	58	0	2238709760	35	4480
2026-01-02 03:09:43.63	253.02	16.57	-33.3	-34.4	20.0	0.00e+00	0	57	0	2243952640	37	4275
2026-01-02 03:09:44.64	252.88	16.48	-33.4	-34.6	19.8	0.00e+00	0	57	0	2250244096	37	4360
2026-01-02 03:09:45.65	252.74	16.39	-33.3	-34.5	19.9	0.00e+00	0	57	0	2255486976	37	4311
2026-01-02 03:09:46.66	252.60	16.30	-33.3	-34.5	19.9	0.00e+00	0	57	0	2260729856	37	4311
2026-01-02 03:09:47.67	252.46	16.21	-33.4	-34.5	19.9	0.00e+00	0	57	0	2267021312	37	4335
2026-01-02 03:09:48.68	252.33	16.12	-33.4	-34.6	19.8	0.00e+00	0	57	0	2272264192	37	4362
2026-01-02 03:09:49.69	252.19	16.03	-33.5	-34.7	19.7	0.00e+00	0	57	0	2278555648	37	4430
2026-01-02 03:09:50.70	252.05	15.94	-33.6	-34.8	19.6	0.00e+00	0	57	0	2283798528	37	4463
2026-01-02 03:09:51.71	251.92	15.85	-33.7	-34.9	19.5	0.00e+00	0	57	0	2290089984	38	4285
2026-01-02 03:09:52.72	251.78	15.76	-33.8	-35.0	19.4	0.00e+00	0	57	0	2295332864	38	4301
2026-01-02 03:09:53.73	251.65	15.67	-33.5	-34.7	19.7	0.00e+00	0	57	0	2300575744	38	4156
2026-01-02 03:09:54.74	251.52	15.59	-33.3	-34.5	19.9	0.00e+00	0	57	0	2306867200	38	4052
2026-01-02 03:09:55.75	251.39	15.50	-33.3	-34.5	19.9	0.00e+00	0	57	0	2312110080	38	4061
2026-01-02 03:09:56.76	251.25	15.41	-33.4	-34.5	19.8	0.00e+00	0	57	0	2318401536	38	4090
2026-01-02 03:09:57.77	251.12	15.32	-33.5	-34.7	19.7	0.00e+00	0	57	0	2323644416	38	4154
2026-01-02 03:09:58.78	250.99	15.23	-33.4	-34.6	19.8	0.00e+00	0	57	0	2328887296	38	4125
2026-01-02 03:09:59.79	250.87	15.14	-33.5	-34.7	19.7	0.00e+00	0	58	0	2335178752	38	4148
2026-01-02 03:10:00.80	250.74	15.06	-33.6	-34.8	19.5	0.00e+00	0	57	0	2340421632	38	4235
2026-01-02 03:10:01.81	250.61	14.97	-33.7	-34.9	19.5	0.00e+00	0	57	0	2346713088	38	4260
2026-01-02 03:10:02.81	250.48	14.88	-33.7	-34.9	19.5	0.00e+00	0	57	0	2351955968	38	4272
2026-01-02 03:10:03.82	250.36	14.80	-33.7	-34.9	19.4	0.00e+00	0	58	0	2357198848	38	4288
2026-01-02 03:10:04.83	250.23	14.71	-33.7	-34.9	19.4	0.00e+00	0	57	0	2363490304	38	4275
2026-01-02 03:10:05.84	250.11	14.62	-33.7	-34.9	19.5	0.00e+00	0	57	0	2368733184	38	4243
2026-01-02 03:10:06.85	249.99	14.54	-33.6	-34.8	19.6	0.00e+00	0	57	0	2375024640	38	4214
2026-01-02 03:10:07.86	249.86	14.45	-33.7	-34.9	19.5	0.00e+00	0	57	0	2380267520	38	4265
2026-01-02 03:10:08.87	249.74	14.36	-33.8	-35.0	19.4	0.00e+00	0	57	0	2386558976	38	4292
2026-01-02 03:10:09.88	249.62	14.28	-33.8	-34.9	19.4	0.00e+00	0	58	0	2391801856	38	4289
2026-01-02 03:10:10.89	249.50	14.19	-33.8	-35.0	19.3	0.00e+00	0	57	0	2397044736	38	4327
2026-01-02 03:10:11.90	249.38	14.11	-34.0	-35.2	19.2	0.00e+00	0	57	0	2403336192	38	4409
2026-01-02 03:10:12.91	249.26	14.02	-34.0	-35.2	19.1	0.00e+00	0	58	0	2408579072	38	4437
2026-01-02 03:10:13.92	249.14	13.93	-34.1	-35.4	19.0	0.00e+00	0	57	0	2414870528	38	4510
2026-01-02 03:10:14.93	249.02	13.85	-34.3	-35.5	18.8	0.00e+00	0	57	0	2420113408	39	4334
2026-01-02 03:10:15.94	248.91	13.76	-34.1	-35.3	19.0	0.00e+00	0	57	0	2425356288	39	4229
2026-01-02 03:10:16.95	248.79	13.68	-34.0	-35.2	19.1	0.00e+00	0	57	0	2431647744	39	4190
2026-01-02 03:10:17.96	248.67	13.59	-34.1	-35.3	19.0	0.00e+00	0	58	0	2436890624	39	4235
2026-01-02 03:10:18.97	248.56	13.51	-34.0	-35.2	19.2	0.00e+00	0	57	0	2443182080	39	4164
2026-01-02 03:10:19.97	248.45	13.43	-34.0	-35.2	19.2	0.00e+00	0	57	0	2448424960	39	4158
2026-01-02 03:10:20.99	248.33	13.34	-34.0	-35.2	19.1	0.00e+00	0	57	0	2453667840	39	4176
2026-01-02 03:10:22.00	248.22	13.26	-34.1	-35.3	19.0	0.00e+00	0	57	0	2459959296	39	4227
2026-01-02 03:10:23.01	248.10	13.17	-34.2	-35.4	18.9	0.00e+00	0	57	0	2465202176	39	4288
2026-01-02 03:10:24.01	247.99	13.09	-34.2	-35.4	18.9	0.00e+00	0	57	0	2471493632	39	4266
2026-01-02 03:10:25.03	247.88	13.01	-34.1	-35.3	19.0	0.00e+00	0	57	0	2476736512	39	4216
2026-01-02 03:10:26.04	247.77	12.92	-34.1	-35.3	19.0	0.00e+00	0	57	0	2483027968	39	4233
2026-01-02 03:10:27.05	247.66	12.84	-34.1	-35.4	18.9	0.00e+00	0	57	0	2488270848	39	4258
2026-01-02 03:10:28.06	247.55	12.76	-34.2	-35.4	18.9	0.00e+00	0	58	0	2494562304	39	4271
2026-01-02 03:10:29.07	247.44	12.68	-34.2	-35.5	18.9	0.00e+00	0	58	0	2499805184	39	4296
2026-01-02 03:10:30.08	247.34	12.59	-34.2	-35.4	18.9	0.00e+00	0	58	0	2505048064	39	4282
2026-01-02 03:10:31.09	247.23	12.51	-34.2	-35.5	18.9	0.00e+00	0	57	0	2511339520	39	4297
2026-01-02 03:10:32.10	247.12	12.43	-34.2	-35.4	18.8	0.00e+00	0	57	0	2516582400	39	4286
2026-01-02 03:10:33.11	247.01	12.35	-34.3	-35.6	18.7	0.00e+00	0	57	0	2522873856	39	4354
2026-01-02 03:10:34.12	246.91	12.26	-34.4	-35.7	18.6	0.00e+00	0	57	0	2528116736	39	4396
2026-01-02 03:10:35.13	246.80	12.18	-34.3	-35.6	18.7	0.00e+00	0	57	0	2533359616	39	4366
2026-01-02 03:10:36.14	246.70	12.10	-34.3	-35.6	18.7	0.00e+00	0	57	0	2539651072	39	4341
2026-01-02 03:10:37.15	246.60	12.02	-34.3	-35.5	18.7	0.00e+00	0	57	0	2544893952	39	4337
2026-01-02 03:10:38.16	246.49	11.94	-34.4	-35.7	18.6	0.00e+00	0	57	0	2551185408	39	4402
2026-01-02 03:10:39.17	246.39	11.86	-34.5	-35.7	18.5	0.00e+00	0	57	0	2556428288	39	4440
2026-01-02 03:10:40.18	246.29	11.78	-34.5	-35.8	18.4	0.00e+00	0	57	0	2561671168	39	4486
2026-01-02 03:10:41.19	246.19	11.70	-34.5	-35.8	18.5	0.00e+00	0	57	0	2567962624	39	4478
2026-01-02 03:10:42.20	246.09	11.62	-34.5	-35.8	18.5	0.00e+00	0	58	0	2573205504	39	4459
2026-01-02 03:10:43.21	245.98	11.54	-34.6	-35.9	18.3	0.00e+00	0	57	0	2579496960	39	4530
2026-01-02 03:10:44.21	245.89	11.46	-34.6	-35.9	18.4	0.00e+00	0	57	0	2584739840	39	4528
2026-01-02 03:10:45.22	245.79	11.38	-34.6	-35.9	18.4	0.00e+00	0	58	0	2589982720	39	4527
2026-01-02 03:10:46.23	245.69	11.30	-34.5	-35.9	18.4	0.00e+00	0	57	0	2596274176	39	4495
2026-01-02 03:10:47.24	245.59	11.22	-34.6	-35.9	18.3	0.00e+00	0	57	0	2601517056	39	4540
2026-01-02 03:10:48.25	245.49	11.14	-34.7	-36.0	18.2	0.00e+00	0	57	0	2607808512	39	4580
2026-01-02 03:10:49.26	245.39	11.06	-34.7	-36.0	18.2	0.00e+00	0	58	0	2613051392	40	4324
2026-01-02 03:10:50.27	245.30	10.98	-34.6	-35.9	18.3	0.00e+00	0	58	0	2619342848	40	4249
2026-01-02 03:10:51.28	245.20	10.90	-34.6	-35.9	18.3	0.00e+00	0	57	0	2624585728	40	4249
2026-01-02 03:10:52.29	245.11	10.82	-34.5	-35.8	18.3	0.00e+00	0	57	0	2629828608	40	4234
2026-01-02 03:10:53.30	245.01	10.74	-34.7	-36.0	18.2	0.00e+00	0	57	0	2636120064	40	4313
2026-01-02 03:10:54.31	244.92	10.67	-34.7	-36.1	18.1	0.00e+00	0	57	0	2641362944	40	4356
2026-01-02 03:10:55.32	244.82	10.59	-34.9	-36.2	17.9	0.00e+00	0	58	0	2647654400	40	4423
2026-01-02 03:10:56.33	244.73	10.51	-35.0	-36.4	17.7	0.00e+00	0	57	0	2652897280	40	4505
2026-01-02 03:10:57.34	244.64	10.43	-35.0	-36.4	17.8	0.00e+00	0	57	0	2658140160	40	4516
2026-01-02 03:10:58.35	244.54	10.35	-35.1	-36.5	17.7	0.00e+00	0	57	0	2664431616	40	4546
2026-01-02 03:10:59.36	244.45	10.28	-35.2	-36.6	17.6	0.00e+00	0	57	0	2669674496	40	4608
2026-01-02 03:11:00.37	244.36	10.20	-35.2	-36.6	17.5	0.00e+00	0	58	0	2675965952	40	4640
2026-01-02 03:11:01.37	244.27	10.12	-35.0	-36.4	17.7	0.00e+00	0	58	0	2681208832	40	4528
2026-01-02 03:11:02.39	244.18	10.05	-35.0	-36.4	17.7	0.00e+00	0	57	0	2686451712	40	4535
2026-01-02 03:11:03.39	244.09	9.97	-34.8	-36.2	18.0	0.00e+00	0	58	0	2692743168	40	4397
2026-01-02 03:11:04.40	244.00	9.89	-34.8	-36.2	17.9	0.00e+00	0	58	0	2697986048	40	4417
2026-01-02 03:11:05.41	243.91	9.82	-34.8	-36.2	17.9	0.00e+00	0	58	0	2704277504	40	4410
2026-01-02 03:11:06.42	243.82	9.74	-34.9	-36.3	17.8	0.00e+00	0	58	0	2709520384	40	4468
2026-01-02 03:11:07.43	243.73	9.66	-35.0	-36.4	17.7	0.00e+00	0	58	0	2715811840	40	4499
2026-01-02 03:11:08.44	243.65	9.59	-34.9	-36.3	17.8	0.00e+00	0	58	0	2721054720	40	4462
2026-01-02 03:11:09.45	243.56	9.51	-35.0	-36.4	17.7	0.00e+00	0	58	0	2727346176	40	4514
2026-01-02 03:11:10.46	243.47	9.44	-34.9	-36.3	17.8	0.00e+00	0	57	0	2732589056	40	4467
2026-01-02 03:11:11.47	243.39	9.36	-34.9	-36.3	17.7	0.00e+00	0	57	0	2737831936	40	4468
2026-01-02 03:11:12.48	243.30	9.29	-35.0	-36.4	17.7	0.00e+00	0	57	0	2744123392	40	4509
2026-01-02 03:11:13.49	243.22	9.21	-34.9	-36.3	17.7	0.00e+00	0	58	0	2749366272	40	4469
2026-01-02 03:11:14.50	243.13	9.14	-35.0	-36.4	17.6	0.00e+00	0	58	0	2755657728	40	4535
2026-01-02 03:11:15.51	243.05	9.06	-35.0	-36.4	17.7	0.00e+00	0	57	0	2760900608	40	4511
2026-01-02 03:11:16.52	242.96	8.99	-35.0	-36.4	17.6	0.00e+00	0	57	0	2766143488	40	4534
2026-01-02 03:11:17.54	242.88	8.91	-35.1	-36.5	17.5	0.00e+00	0	57	0	2772434944	40	4572
2026-01-02 03:11:18.55	242.80	8.84	-35.1	-36.6	17.5	0.00e+00	0	58	0	2777677824	40	4604
2026-01-02 03:11:19.56	242.71	8.76	-35.2	-36.6	17.4	0.00e+00	0	57	0	2783969280	41	4352
2026-01-02 03:11:20.57	242.63	8.69	-35.2	-36.6	17.4	0.00e+00	0	58	0	2789212160	41	4357
2026-01-02 03:11:21.58	242.55	8.62	-35.2	-36.7	17.3	0.00e+00	0	58	0	2794455040	41	4394
2026-01-02 03:11:22.59	242.47	8.54	-35.1	-36.5	17.5	0.00e+00	0	57	0	2800746496	41	4316
2026-01-02 03:11:23.60	242.39	8.47	-35.1	-36.5	17.4	0.00e+00	0	57	0	2805989376	41	4339
2026-01-02 03:11:24.61	242.31	8.40	-35.2	-36.6	17.4	0.00e+00	0	58	0	2812280832	41	4360
2026-01-02 03:11:25.62	242.23	8.32	-35.3	-36.7	17.3	0.00e+00	0	58	0	2817523712	41	4416
