passes_logs/2026/01/02/R2.0S_Moscow/R2.0S_Moscow__20260102_084943_NOAA_20_JPSS-1_rec.log

#Pass ID: 20260102_084943_NOAA 20 (JPSS-1)
#Satellite: NOAA 20 (JPSS-1)
#Configuration: NOAA 20
#almurnet v.1.7.20251203
#Start time: 2026-01-02 08:49:43

#Version: 2.2.20231116
#Station: R2.0S_Moscow
#Location: 37.707566 lon 55.798166 lat
#TLE: 1 43013U 17073A   26001.30344297  .00000183  00000+0  10758-3 0  9995
#TLE: 2 43013  98.7621 302.3885 0001938  59.1624 300.9742 14.19532032420790

#Time	Az	El	Level	Level2	SNR	BER	BlckErr	Temp	State	Recorded	gain1	gain2
2026-01-02 08:49:43.66	128.83	2.01	-35.5	-50.4	4.0	1.50e+00	0	48	0	0	39	24020
2026-01-02 08:49:44.66	128.78	2.07	-39.7	-55.6	3.8	1.49e+00	0	48	104	0	53	19460
2026-01-02 08:49:45.67	128.74	2.13	-33.3	-51.9	3.9	1.50e+00	0	48	104	0	44	21369
2026-01-02 08:49:46.68	128.69	2.19	-34.5	-55.6	3.8	1.50e+00	0	48	104	0	47	27646
2026-01-02 08:49:47.69	128.65	2.25	-38.0	-55.5	4.3	1.50e+00	0	48	104	0	46	28837
2026-01-02 08:49:48.70	128.60	2.31	-37.2	-54.6	3.5	1.49e+00	0	48	104	0	46	26038
2026-01-02 08:49:49.72	128.55	2.38	-35.6	-53.3	4.0	1.50e+00	0	48	104	0	45	23713
2026-01-02 08:49:50.73	128.51	2.44	-40.0	-56.1	3.8	1.50e+00	0	49	104	0	50	24513
2026-01-02 08:49:51.74	128.46	2.50	-38.6	-56.1	3.5	1.50e+00	0	49	104	0	47	29307
2026-01-02 08:49:52.75	128.42	2.56	-38.4	-56.0	3.8	1.50e+00	0	49	104	0	47	28718
2026-01-02 08:49:53.76	128.37	2.63	-38.7	-54.9	3.8	1.49e+00	0	48	104	0	46	26930
2026-01-02 08:49:54.77	128.32	2.69	-40.9	-56.3	4.0	1.50e+00	0	49	104	0	51	23758
2026-01-02 08:49:55.78	128.27	2.75	-37.6	-55.9	3.9	1.50e+00	0	49	104	0	51	22549
2026-01-02 08:49:56.79	128.23	2.82	-38.7	-55.5	3.9	1.49e+00	0	49	104	0	52	20386
2026-01-02 08:49:57.80	128.18	2.88	-36.3	-54.2	3.9	1.49e+00	0	49	104	0	43	29523
2026-01-02 08:49:58.81	128.13	2.94	-40.9	-56.2	4.0	1.50e+00	0	49	104	0	48	28010
2026-01-02 08:49:59.83	128.08	3.01	-39.7	-55.0	4.0	1.50e+00	0	49	104	0	48	24363
2026-01-02 08:50:00.84	128.03	3.07	-38.5	-54.0	3.8	1.49e+00	0	49	104	0	45	25619
2026-01-02 08:50:01.85	127.99	3.13	-36.5	-55.2	4.4	1.50e+00	0	49	104	0	51	21002
2026-01-02 08:50:02.86	127.94	3.20	-40.1	-55.3	4.0	1.51e+00	0	49	104	0	49	23844
2026-01-02 08:50:03.87	127.89	3.26	-32.7	-50.8	4.2	1.50e+00	0	49	104	0	43	19894
2026-01-02 08:50:04.88	127.84	3.32	-38.4	-53.2	3.9	1.50e+00	0	49	104	0	47	20910
2026-01-02 08:50:05.89	127.79	3.39	-37.0	-51.9	4.1	1.50e+00	0	49	104	0	46	19085
2026-01-02 08:50:06.90	127.74	3.45	-39.9	-53.9	4.0	1.50e+00	0	49	104	0	50	18964
2026-01-02 08:50:07.91	127.69	3.52	-41.3	-54.9	4.2	1.50e+00	0	50	104	0	48	24007
2026-01-02 08:50:08.93	127.64	3.58	-37.7	-53.0	4.3	1.50e+00	0	50	104	0	45	22790
2026-01-02 08:50:09.94	127.59	3.65	-41.6	-56.1	3.9	1.50e+00	0	50	104	0	53	20540
2026-01-02 08:50:10.95	127.54	3.71	-41.4	-56.0	3.4	1.50e+00	0	50	104	0	53	20394
2026-01-02 08:50:11.96	127.49	3.78	-41.7	-56.0	3.8	1.49e+00	0	50	104	0	54	19232
2026-01-02 08:50:12.97	127.44	3.84	-39.1	-54.0	3.9	1.50e+00	0	50	104	0	52	17149
2026-01-02 08:50:13.98	127.39	3.91	-32.9	-51.0	4.2	1.50e+00	0	50	104	0	47	16242
2026-01-02 08:50:14.99	127.33	3.97	-40.6	-54.8	3.9	1.49e+00	0	50	104	0	52	18887
2026-01-02 08:50:16.00	127.28	4.04	-39.0	-54.1	3.9	1.50e+00	0	50	104	0	51	18314
2026-01-02 08:50:17.01	127.23	4.10	-39.8	-55.8	3.8	1.50e+00	0	50	104	0	49	25143
2026-01-02 08:50:18.02	127.18	4.17	-40.2	-54.6	3.6	1.50e+00	0	50	104	0	50	20740
2026-01-02 08:50:19.03	127.13	4.24	-41.7	-55.4	3.9	1.50e+00	0	50	104	0	51	21416
2026-01-02 08:50:20.05	127.07	4.30	-31.6	-47.3	4.2	1.50e+00	0	50	104	0	44	12540
2026-01-02 08:50:21.06	127.02	4.37	-40.4	-54.9	4.1	1.49e+00	0	50	104	0	51	20303
2026-01-02 08:50:22.07	126.97	4.43	-39.9	-55.8	4.1	1.50e+00	0	50	104	0	50	23757
2026-01-02 08:50:23.08	126.91	4.50	-39.4	-55.4	4.0	1.50e+00	0	50	104	0	53	18975
2026-01-02 08:50:24.09	126.86	4.57	-41.3	-56.5	3.9	1.50e+00	0	50	104	0	53	21625
2026-01-02 08:50:25.10	126.81	4.63	-41.3	-56.0	3.8	1.50e+00	0	51	104	0	53	20496
2026-01-02 08:50:26.11	126.75	4.70	-38.8	-54.6	4.0	1.49e+00	0	51	104	0	52	18375
2026-01-02 08:50:27.12	126.70	4.77	-39.5	-55.5	3.9	1.50e+00	0	51	104	0	53	19218
2026-01-02 08:50:28.13	126.64	4.84	-38.9	-53.6	4.3	1.49e+00	0	51	104	0	50	18364
2026-01-02 08:50:29.15	126.59	4.90	-37.4	-53.1	4.0	1.49e+00	0	51	104	0	46	21856
2026-01-02 08:50:30.16	126.53	4.97	-40.9	-55.9	4.2	1.50e+00	0	51	104	0	53	20138
2026-01-02 08:50:31.17	126.48	5.04	-39.2	-54.8	4.4	1.50e+00	0	51	104	0	52	18756
2026-01-02 08:50:32.18	126.42	5.11	-31.1	-47.9	3.9	1.50e+00	0	51	104	0	41	16069
2026-01-02 08:50:33.19	126.36	5.17	-32.1	-50.0	3.8	1.51e+00	0	51	104	0	37	25616
2026-01-02 08:50:34.20	126.31	5.24	-38.1	-54.2	4.0	1.50e+00	0	51	104	0	39	37058
2026-01-02 08:50:35.21	126.25	5.31	-40.7	-56.0	3.5	1.50e+00	0	51	104	0	53	20344
2026-01-02 08:50:36.22	126.19	5.38	-41.4	-55.7	4.0	1.49e+00	0	51	104	0	52	20852
2026-01-02 08:50:37.23	126.14	5.45	-38.7	-55.9	4.1	1.50e+00	0	51	104	0	53	20082
2026-01-02 08:50:38.24	126.08	5.52	-41.3	-56.2	3.9	1.49e+00	0	51	104	0	54	19743
2026-01-02 08:50:39.26	126.02	5.59	-37.2	-52.0	3.9	1.50e+00	0	51	104	0	46	19288
2026-01-02 08:50:40.27	125.96	5.65	-40.4	-54.3	4.1	1.50e+00	0	51	104	0	41	33658
2026-01-02 08:50:41.28	125.90	5.72	-33.7	-52.5	4.1	1.51e+00	0	51	104	0	46	20445
2026-01-02 08:50:42.29	125.85	5.79	-35.2	-55.4	4.4	1.50e+00	0	51	104	0	49	24095
2026-01-02 08:50:43.30	125.79	5.86	-36.2	-51.8	4.4	1.51e+00	0	51	104	0	45	20031
2026-01-02 08:50:44.31	125.73	5.93	-41.3	-56.3	4.1	1.51e+00	0	51	104	0	53	21153
2026-01-02 08:50:45.32	125.67	6.00	-33.3	-52.4	3.9	1.50e+00	0	51	104	0	51	15210
2026-01-02 08:50:46.33	125.61	6.07	-37.5	-52.0	3.7	1.50e+00	0	51	104	0	44	21623
2026-01-02 08:50:47.34	125.55	6.14	-34.1	-50.5	4.2	1.51e+00	0	51	104	0	38	25580
2026-01-02 08:50:48.36	125.49	6.21	-41.4	-56.1	4.0	1.50e+00	0	52	104	0	54	19548
2026-01-02 08:50:49.37	125.43	6.28	-36.5	-52.8	3.8	1.50e+00	0	52	104	0	39	31594
2026-01-02 08:50:50.38	125.37	6.35	-32.1	-48.6	4.3	1.50e+00	0	52	104	0	48	11635
2026-01-02 08:50:51.39	125.30	6.42	-39.9	-53.5	4.7	1.51e+00	0	52	104	0	43	27327
2026-01-02 08:50:52.40	125.24	6.49	-37.2	-54.1	4.2	1.50e+00	0	52	104	0	40	34762
2026-01-02 08:50:53.41	125.18	6.57	-35.9	-52.1	4.0	1.50e+00	0	52	104	0	43	23068
2026-01-02 08:50:54.42	125.12	6.64	-36.0	-54.6	4.2	1.51e+00	0	52	104	0	43	31045
2026-01-02 08:50:55.43	125.06	6.71	-37.3	-54.3	3.2	1.50e+00	0	52	104	0	41	33452
2026-01-02 08:50:56.44	124.99	6.78	-34.4	-51.5	4.2	1.51e+00	0	52	104	0	37	30674
2026-01-02 08:50:57.45	124.93	6.85	-37.8	-51.8	4.4	1.50e+00	0	52	104	0	48	16726
2026-01-02 08:50:58.46	124.87	6.92	-39.1	-51.8	4.0	1.50e+00	0	52	104	0	39	28109
2026-01-02 08:50:59.47	124.80	7.00	-38.0	-54.0	4.1	1.50e+00	0	52	104	0	49	20521
2026-01-02 08:51:00.48	124.74	7.07	-38.2	-54.6	3.6	1.50e+00	0	52	104	0	45	27529
2026-01-02 08:51:01.49	124.67	7.14	-40.2	-55.4	3.9	1.50e+00	0	52	104	0	53	19124
2026-01-02 08:51:02.51	124.61	7.21	-39.5	-54.4	4.1	1.49e+00	0	52	104	0	51	19156
2026-01-02 08:51:03.52	124.54	7.29	-39.4	-53.9	3.8	1.49e+00	0	52	104	0	50	19149
2026-01-02 08:51:04.53	124.48	7.36	-37.9	-52.1	3.9	1.50e+00	0	52	104	0	51	14550
2026-01-02 08:51:05.54	124.41	7.43	-40.9	-53.6	3.8	1.49e+00	0	52	104	0	52	16411
2026-01-02 08:51:06.55	124.35	7.50	-39.7	-52.2	3.8	1.49e+00	0	52	104	0	49	16522
2026-01-02 08:51:07.56	124.28	7.58	-37.7	-51.4	4.4	1.34e+00	40	53	0	0	51	13464
2026-01-02 08:51:08.57	124.21	7.65	-40.4	-50.3	4.7	9.25e-01	58	53	0	1048576	46	15816
2026-01-02 08:51:09.58	124.14	7.73	-34.5	-47.2	5.0	6.57e-01	4	52	0	3145728	38	17552
2026-01-02 08:51:10.59	124.08	7.80	-31.4	-45.5	4.0	6.85e-01	0	53	104	3145728	33	19315
2026-01-02 08:51:11.60	124.01	7.87	-37.8	-45.8	6.1	5.71e-01	26	53	0	3145728	42	11936
2026-01-02 08:51:12.61	123.94	7.95	-35.9	-44.2	5.8	6.38e-01	15	53	0	5242880	40	11069
2026-01-02 08:51:13.62	123.87	8.02	-33.9	-43.8	7.9	1.96e-01	6	53	0	7340032	45	7932
2026-01-02 08:51:14.63	123.80	8.10	-26.9	-42.1	3.8	6.46e-01	0	53	104	8388608	30	15447
2026-01-02 08:51:15.64	123.73	8.17	-35.6	-49.0	3.7	1.51e+00	0	53	104	8388608	32	30584
2026-01-02 08:51:16.65	123.66	8.25	-34.6	-42.1	10.3	1.43e+00	1	53	104	8388608	42	7730
2026-01-02 08:51:17.66	123.59	8.32	-40.1	-45.0	10.5	3.41e-02	0	53	0	9437184	50	6853
2026-01-02 08:51:18.67	123.52	8.40	-33.0	-42.1	6.6	5.16e-01	7	53	0	11534336	38	9787
2026-01-02 08:51:19.68	123.45	8.47	-32.2	-43.2	6.1	1.08e+00	7	53	0	11534336	38	11032
2026-01-02 08:51:20.69	123.38	8.55	-36.8	-43.8	8.3	3.65e-01	0	53	0	13631488	45	7923
2026-01-02 08:51:21.70	123.31	8.62	-34.9	-43.5	9.4	1.94e-01	3	53	0	14680064	48	6477
2026-01-02 08:51:22.71	123.24	8.70	-36.9	-44.4	8.2	2.73e-01	2	53	0	16777216	44	9026
2026-01-02 08:51:23.72	123.16	8.78	-35.4	-43.4	5.8	4.75e-01	6	53	0	18874368	38	11347
2026-01-02 08:51:24.73	123.09	8.85	-33.1	-41.7	8.2	4.08e-01	6	53	0	19922944	41	7833
2026-01-02 08:51:25.74	123.02	8.93	-38.3	-42.3	9.4	2.67e-01	0	53	0	22020096	45	6653
2026-01-02 08:51:26.74	122.95	9.01	-37.7	-41.9	9.8	4.73e-02	0	53	0	24117248	44	6765
2026-01-02 08:51:27.75	122.87	9.08	-37.2	-42.5	11.7	5.62e-02	0	53	0	26214400	47	6106
2026-01-02 08:51:28.76	122.80	9.16	-39.4	-43.5	10.1	6.24e-02	3	53	0	27262976	49	6073
2026-01-02 08:51:29.77	122.72	9.24	-38.0	-44.0	10.2	1.40e-01	0	53	0	29360128	48	6850
2026-01-02 08:51:30.78	122.65	9.32	-38.9	-44.6	11.0	4.89e-02	0	53	0	31457280	51	6132
2026-01-02 08:51:31.79	122.57	9.39	-38.8	-44.5	10.4	3.74e-02	0	54	0	33554432	50	6484
2026-01-02 08:51:32.80	122.49	9.47	-39.0	-44.3	10.1	4.55e-02	0	53	0	35651584	48	7104
2026-01-02 08:51:33.81	122.42	9.55	-36.5	-44.2	9.0	1.40e-01	2	54	0	36700160	44	8784
2026-01-02 08:51:34.82	122.34	9.63	-38.4	-44.2	9.5	2.35e-01	5	54	0	38797312	46	7888
2026-01-02 08:51:35.83	122.26	9.71	-39.5	-43.9	10.1	1.14e-01	1	53	0	40894464	48	6780
2026-01-02 08:51:36.84	122.19	9.78	-36.0	-43.7	9.7	9.33e-02	4	54	0	42991616	46	7378
2026-01-02 08:51:37.85	122.11	9.86	-34.3	-43.7	9.9	7.09e-02	5	54	0	45088768	46	7382
2026-01-02 08:51:38.86	122.03	9.94	-39.4	-44.4	10.4	1.22e-01	0	54	0	46137344	48	7144
2026-01-02 08:51:39.86	121.95	10.02	-37.4	-44.8	10.1	2.38e-01	0	54	0	48234496	48	7481
2026-01-02 08:51:40.87	121.87	10.10	-36.6	-44.8	9.9	2.74e-01	1	54	0	50331648	49	7081
2026-01-02 08:51:41.89	121.79	10.18	-34.9	-43.9	7.2	2.91e-01	25	54	0	52428800	42	9605
2026-01-02 08:51:42.90	121.71	10.26	-34.7	-42.5	8.6	2.60e-01	12	53	0	53477376	40	9153
2026-01-02 08:51:43.91	121.63	10.34	-36.0	-42.8	8.5	3.28e-01	18	54	0	55574528	39	9950
2026-01-02 08:51:44.91	121.55	10.42	-35.7	-41.5	8.9	1.73e-01	7	54	0	57671680	42	7283
2026-01-02 08:51:45.92	121.47	10.50	-32.2	-41.3	8.4	2.58e-01	20	54	0	59768832	37	9440
2026-01-02 08:51:46.94	121.38	10.58	-31.6	-42.2	10.5	1.67e-01	0	54	0	60817408	45	6592
2026-01-02 08:51:47.94	121.30	10.66	-35.0	-42.5	9.0	2.03e-01	3	54	0	62914560	39	9611
2026-01-02 08:51:48.96	121.22	10.75	-30.9	-41.1	7.5	1.24e-01	7	54	0	65011712	36	9793
2026-01-02 08:51:49.97	121.13	10.83	-32.0	-41.6	8.9	2.09e-01	2	54	0	67108864	39	8671
2026-01-02 08:51:50.97	121.05	10.91	-32.3	-41.6	9.1	1.66e-01	1	54	0	69206016	39	8747
2026-01-02 08:51:51.98	120.97	10.99	-34.9	-42.1	11.6	1.32e-01	0	54	0	70254592	44	6931
2026-01-02 08:51:53.00	120.88	11.07	-34.1	-42.2	9.4	1.62e-01	3	54	0	72351744	42	7869
2026-01-02 08:51:54.01	120.79	11.16	-29.7	-39.9	6.3	1.66e-01	43	54	0	74448896	32	10739
2026-01-02 08:51:55.01	120.71	11.24	-34.3	-41.9	7.7	3.61e-01	6	54	0	76546048	37	10110
2026-01-02 08:51:56.02	120.62	11.32	-31.4	-40.9	6.3	2.61e-01	20	54	0	77594624	32	12038
2026-01-02 08:51:57.03	120.53	11.40	-37.2	-41.9	11.3	3.49e-01	3	54	0	79691776	41	8060
2026-01-02 08:51:58.04	120.45	11.49	-37.4	-41.7	11.0	1.50e-01	0	54	0	81788928	42	7409
2026-01-02 08:51:59.05	120.36	11.57	-37.2	-41.4	11.7	1.20e-01	0	54	0	83886080	43	6726
2026-01-02 08:52:00.06	120.27	11.65	-37.0	-41.6	13.3	5.29e-02	0	54	0	85983232	46	5826
2026-01-02 08:52:01.07	120.18	11.74	-36.7	-42.1	12.9	2.85e-02	0	54	0	87031808	47	5815
2026-01-02 08:52:02.08	120.09	11.82	-33.3	-41.4	9.6	1.03e-01	0	54	0	89128960	42	7163
2026-01-02 08:52:03.09	120.00	11.91	-34.2	-41.7	11.4	6.12e-02	0	54	0	91226112	42	7379
2026-01-02 08:52:04.10	119.91	11.99	-37.0	-42.0	11.8	6.60e-02	0	54	0	93323264	45	6450
2026-01-02 08:52:05.11	119.82	12.07	-35.4	-42.0	12.2	8.04e-02	0	54	0	95420416	44	6843
2026-01-02 08:52:06.12	119.73	12.16	-38.6	-42.1	12.7	5.83e-02	0	54	0	97517568	45	6534
2026-01-02 08:52:07.13	119.63	12.24	-37.4	-42.2	12.5	2.27e-02	0	54	0	98566144	45	6576
2026-01-02 08:52:08.14	119.54	12.33	-37.5	-41.9	13.3	4.81e-02	0	54	0	100663296	46	6017
2026-01-02 08:52:09.15	119.45	12.42	-36.5	-41.9	11.5	2.94e-02	0	54	0	102760448	45	6417
2026-01-02 08:52:10.15	119.36	12.50	-32.6	-41.5	11.2	5.15e-02	0	54	0	104857600	39	8562
2026-01-02 08:52:11.16	119.26	12.59	-36.2	-41.8	12.4	3.79e-02	0	54	0	106954752	45	6302
2026-01-02 08:52:12.17	119.17	12.67	-33.5	-41.6	10.6	5.13e-02	0	54	0	108003328	42	7318
2026-01-02 08:52:13.19	119.07	12.76	-34.8	-41.4	12.3	3.81e-02	0	54	0	110100480	42	7176
2026-01-02 08:52:14.19	118.97	12.85	-33.7	-41.2	8.5	8.80e-02	0	54	0	112197632	32	12510
2026-01-02 08:52:15.20	118.88	12.93	-36.9	-41.6	13.4	3.17e-02	0	54	0	114294784	46	5842
2026-01-02 08:52:16.21	118.78	13.02	-36.0	-41.6	12.5	3.44e-02	0	54	0	115343360	45	6189
2026-01-02 08:52:17.22	118.68	13.11	-37.8	-41.5	12.9	7.30e-02	0	55	0	117440512	45	6113
2026-01-02 08:52:18.23	118.58	13.19	-36.3	-41.4	10.7	1.25e-02	0	54	0	119537664	42	7165
2026-01-02 08:52:19.24	118.48	13.28	-33.4	-41.3	9.0	2.72e-01	0	54	0	121634816	36	9961
2026-01-02 08:52:20.25	118.38	13.37	-35.9	-41.6	12.3	3.16e-02	0	54	0	123731968	43	6924
2026-01-02 08:52:21.26	118.28	13.46	-37.3	-42.0	12.5	4.51e-02	0	55	0	125829120	44	6806
2026-01-02 08:52:22.27	118.18	13.55	-35.8	-41.8	11.4	7.78e-02	0	54	0	126877696	44	6693
2026-01-02 08:52:23.28	118.08	13.64	-32.4	-41.1	11.6	2.54e-02	0	55	0	128974848	43	6543
2026-01-02 08:52:24.29	117.98	13.73	-34.9	-41.4	11.1	7.42e-02	0	55	0	131072000	43	6793
2026-01-02 08:52:25.30	117.87	13.81	-34.4	-41.4	9.4	5.26e-02	0	55	0	133169152	39	8477
2026-01-02 08:52:26.31	117.77	13.90	-35.2	-41.4	13.5	4.74e-02	0	54	0	135266304	46	5706
2026-01-02 08:52:27.32	117.67	13.99	-34.7	-41.1	10.7	1.00e-02	0	55	0	136314880	40	7807
2026-01-02 08:52:28.33	117.56	14.08	-38.6	-41.7	13.4	1.32e-02	0	55	0	138412032	47	5592
2026-01-02 08:52:29.34	117.46	14.17	-38.5	-41.8	14.3	9.68e-03	0	54	0	140509184	48	5338
2026-01-02 08:52:30.35	117.35	14.26	-38.8	-41.8	14.8	3.21e-03	0	55	0	142606336	48	5303
2026-01-02 08:52:31.36	117.24	14.36	-38.5	-41.8	14.5	6.12e-03	0	55	0	144703488	48	5311
2026-01-02 08:52:32.37	117.13	14.45	-39.0	-41.7	14.9	3.84e-03	0	55	0	145752064	48	5223
2026-01-02 08:52:33.38	117.03	14.54	-37.6	-41.6	15.1	6.29e-03	0	55	0	147849216	48	5211
2026-01-02 08:52:34.39	116.92	14.63	-38.6	-41.8	15.1	5.18e-03	0	55	0	149946368	48	5339
2026-01-02 08:52:35.40	116.81	14.72	-37.9	-41.8	13.1	2.68e-03	0	55	0	152043520	47	5616
2026-01-02 08:52:36.41	116.70	14.81	-38.6	-41.9	15.0	2.58e-03	0	55	0	154140672	49	5093
2026-01-02 08:52:37.42	116.59	14.90	-39.1	-41.9	14.8	3.32e-03	0	55	0	155189248	49	5097
2026-01-02 08:52:38.42	116.48	15.00	-39.1	-41.7	15.3	7.90e-04	0	55	0	157286400	48	5255
2026-01-02 08:52:39.43	116.36	15.09	-39.2	-41.7	15.5	6.99e-04	0	55	0	159383552	48	5263
2026-01-02 08:52:40.44	116.25	15.18	-38.9	-41.8	15.4	2.94e-04	0	55	0	161480704	49	5017
2026-01-02 08:52:41.45	116.14	15.27	-39.0	-42.0	15.0	6.56e-04	0	55	0	163577856	49	5126
2026-01-02 08:52:42.46	116.02	15.37	-39.4	-42.1	14.9	2.43e-03	0	55	0	164626432	49	5201
2026-01-02 08:52:43.47	115.91	15.46	-38.9	-42.2	15.0	1.47e-03	0	55	0	166723584	49	5233
2026-01-02 08:52:44.48	115.79	15.55	-39.1	-42.2	14.7	8.78e-04	0	55	0	168820736	49	5277
2026-01-02 08:52:45.49	115.67	15.65	-39.2	-42.0	15.2	3.13e-03	0	55	0	170917888	49	5150
2026-01-02 08:52:46.50	115.56	15.74	-38.6	-42.1	15.1	9.57e-04	0	55	0	173015040	49	5180
2026-01-02 08:52:47.51	115.44	15.84	-38.5	-42.1	14.9	3.19e-03	0	55	0	174063616	49	5200
2026-01-02 08:52:48.52	115.32	15.93	-39.5	-42.3	13.4	3.63e-03	0	55	0	176160768	49	5333
2026-01-02 08:52:49.53	115.20	16.03	-39.6	-42.5	13.7	4.80e-03	0	55	0	178257920	49	5441
2026-01-02 08:52:50.54	115.08	16.12	-39.6	-42.3	14.9	2.30e-03	0	55	0	180355072	49	5332
2026-01-02 08:52:51.55	114.96	16.22	-34.6	-41.9	13.7	2.11e-03	0	55	0	182452224	45	6373
2026-01-02 08:52:52.56	114.83	16.31	-39.0	-42.2	14.1	1.41e-02	0	55	0	183500800	48	5558
2026-01-02 08:52:53.57	114.71	16.41	-39.5	-42.3	15.0	1.51e-03	0	55	0	185597952	49	5281
2026-01-02 08:52:54.58	114.59	16.51	-39.4	-42.4	14.5	1.03e-03	0	55	0	187695104	49	5402
2026-01-02 08:52:55.58	114.46	16.60	-39.5	-42.3	15.1	4.86e-03	0	55	0	189792256	49	5285
2026-01-02 08:52:56.59	114.34	16.70	-39.4	-42.3	15.0	4.13e-04	0	55	0	191889408	49	5306
2026-01-02 08:52:57.60	114.21	16.80	-39.5	-42.2	15.3	3.72e-04	0	55	0	193986560	49	5233
2026-01-02 08:52:58.61	114.09	16.89	-39.3	-42.0	15.5	8.01e-05	0	55	0	195035136	49	5104
2026-01-02 08:52:59.62	113.96	16.99	-39.5	-42.1	15.5	9.53e-05	0	55	0	197132288	49	5191
2026-01-02 08:53:00.63	113.83	17.09	-39.7	-42.3	15.1	8.08e-05	0	55	0	199229440	50	5017
2026-01-02 08:53:01.64	113.70	17.19	-39.7	-42.4	15.2	6.80e-06	0	55	0	201326592	50	5074
2026-01-02 08:53:02.65	113.57	17.28	-39.7	-42.2	15.3	8.30e-06	0	55	0	203423744	49	5260
2026-01-02 08:53:03.66	113.44	17.38	-39.8	-42.3	15.3	0.00e+00	0	55	0	204472320	50	5031
2026-01-02 08:53:04.67	113.31	17.48	-39.9	-42.5	15.1	8.30e-06	0	55	0	206569472	50	5115
2026-01-02 08:53:05.68	113.17	17.58	-39.9	-42.5	15.1	7.00e-07	0	55	0	208666624	50	5114
2026-01-02 08:53:06.68	113.04	17.68	-39.8	-42.3	15.3	0.00e+00	0	55	0	210763776	50	5033
2026-01-02 08:53:07.69	112.90	17.78	-39.6	-42.1	15.5	0.00e+00	0	55	0	212860928	50	4915
2026-01-02 08:53:08.70	112.77	17.88	-39.6	-42.1	15.5	0.00e+00	0	55	0	213909504	50	4894
2026-01-02 08:53:09.71	112.63	17.98	-39.8	-42.3	15.4	0.00e+00	0	55	0	216006656	50	5001
2026-01-02 08:53:10.72	112.49	18.08	-39.8	-42.3	15.3	0.00e+00	0	55	0	218103808	50	5008
2026-01-02 08:53:11.73	112.36	18.18	-39.6	-42.1	15.5	0.00e+00	0	55	0	220200960	50	4923
2026-01-02 08:53:12.74	112.22	18.28	-39.7	-42.1	15.5	7.00e-07	0	55	0	222298112	50	4920
2026-01-02 08:53:13.75	112.08	18.38	-39.6	-42.0	15.6	0.00e+00	0	56	0	223346688	50	4857
2026-01-02 08:53:14.76	111.94	18.48	-39.5	-42.0	15.6	0.00e+00	0	55	0	225443840	50	4836
2026-01-02 08:53:15.77	111.79	18.58	-39.5	-41.9	15.7	0.00e+00	0	55	0	227540992	50	4783
2026-01-02 08:53:16.78	111.65	18.68	-39.5	-41.9	15.7	0.00e+00	0	55	0	229638144	50	4801
2026-01-02 08:53:17.79	111.51	18.78	-39.5	-41.9	15.7	0.00e+00	0	55	0	231735296	50	4804
2026-01-02 08:53:18.80	111.36	18.88	-39.5	-41.9	15.7	0.00e+00	0	55	0	232783872	50	4790
2026-01-02 08:53:19.81	111.21	18.99	-39.6	-42.0	15.6	0.00e+00	0	55	0	234881024	50	4863
2026-01-02 08:53:20.82	111.07	19.09	-39.6	-42.1	15.6	3.80e-06	0	55	0	236978176	50	4889
2026-01-02 08:53:21.83	110.92	19.19	-39.7	-42.2	15.5	0.00e+00	0	55	0	239075328	50	4933
2026-01-02 08:53:22.84	110.77	19.29	-39.5	-41.9	15.8	0.00e+00	0	56	0	241172480	50	4770
2026-01-02 08:53:23.85	110.62	19.40	-39.4	-41.7	15.9	0.00e+00	0	55	0	242221056	50	4687
2026-01-02 08:53:24.86	110.47	19.50	-39.4	-41.7	16.0	0.00e+00	0	56	0	244318208	50	4686
2026-01-02 08:53:25.86	110.32	19.60	-39.5	-41.9	15.9	0.00e+00	0	55	0	246415360	50	4761
2026-01-02 08:53:26.88	110.16	19.71	-39.4	-41.7	15.9	0.00e+00	0	56	0	248512512	50	4703
2026-01-02 08:53:27.88	110.01	19.81	-39.3	-41.6	16.1	0.00e+00	0	56	0	250609664	50	4642
2026-01-02 08:53:28.89	109.85	19.91	-39.3	-41.6	16.1	0.00e+00	0	55	0	251658240	50	4621
2026-01-02 08:53:29.90	109.70	20.02	-39.3	-41.6	16.1	0.00e+00	0	55	0	253755392	50	4617
2026-01-02 08:53:30.91	109.54	20.12	-39.2	-41.5	16.2	0.00e+00	0	55	0	255852544	50	4560
2026-01-02 08:53:31.92	109.38	20.23	-39.2	-41.5	16.2	0.00e+00	0	55	0	257949696	50	4570
2026-01-02 08:53:32.93	109.22	20.33	-39.3	-41.6	16.1	0.00e+00	0	56	0	260046848	50	4645
2026-01-02 08:53:33.94	109.06	20.44	-39.2	-41.5	16.2	0.00e+00	0	55	0	262144000	50	4556
2026-01-02 08:53:34.95	108.90	20.54	-39.1	-41.3	16.4	0.00e+00	0	56	0	263192576	50	4450
2026-01-02 08:53:35.96	108.74	20.65	-38.9	-41.1	16.6	0.00e+00	0	56	0	265289728	49	4630
2026-01-02 08:53:36.97	108.57	20.75	-38.9	-41.1	16.6	0.00e+00	0	56	0	267386880	49	4631
2026-01-02 08:53:37.98	108.41	20.86	-38.9	-41.1	16.6	0.00e+00	0	56	0	269484032	49	4621
2026-01-02 08:53:38.99	108.24	20.97	-39.0	-41.2	16.5	0.00e+00	0	56	0	271581184	49	4659
2026-01-02 08:53:40.00	108.07	21.07	-38.9	-41.0	16.7	0.00e+00	0	56	0	272629760	49	4580
2026-01-02 08:53:41.01	107.90	21.18	-38.9	-41.0	16.7	0.00e+00	0	56	0	274726912	49	4596
2026-01-02 08:53:42.02	107.73	21.29	-38.8	-40.9	16.8	0.00e+00	0	56	0	276824064	49	4545
2026-01-02 08:53:43.03	107.56	21.39	-38.8	-40.9	16.8	0.00e+00	0	55	0	278921216	49	4535
2026-01-02 08:53:44.04	107.39	21.50	-38.9	-41.1	16.6	0.00e+00	0	56	0	281018368	49	4618
2026-01-02 08:53:45.04	107.22	21.61	-39.1	-41.3	16.4	0.00e+00	0	56	0	282066944	49	4715
2026-01-02 08:53:46.05	107.04	21.71	-39.1	-41.4	16.4	0.00e+00	0	55	0	284164096	49	4772
2026-01-02 08:53:47.06	106.87	21.82	-39.2	-41.5	16.3	0.00e+00	0	56	0	286261248	49	4826
2026-01-02 08:53:48.07	106.69	21.93	-39.0	-41.2	16.5	0.00e+00	0	56	0	288358400	49	4696
2026-01-02 08:53:49.08	106.51	22.04	-39.1	-41.3	16.4	0.00e+00	0	56	0	290455552	49	4719
2026-01-02 08:53:50.09	106.33	22.14	-39.1	-41.3	16.4	0.00e+00	0	56	0	291504128	49	4733
2026-01-02 08:53:51.10	106.15	22.25	-39.1	-41.3	16.4	0.00e+00	0	56	0	293601280	49	4750
2026-01-02 08:53:52.11	105.97	22.36	-39.3	-41.5	16.2	0.00e+00	0	56	0	295698432	49	4861
2026-01-02 08:53:53.12	105.78	22.47	-39.3	-41.6	16.1	0.00e+00	0	56	0	297795584	49	4918
2026-01-02 08:53:54.13	105.60	22.58	-39.2	-41.5	16.2	0.00e+00	0	56	0	299892736	49	4847
2026-01-02 08:53:55.14	105.41	22.69	-39.4	-41.7	16.0	0.00e+00	0	56	0	300941312	49	4969
2026-01-02 08:53:56.15	105.22	22.80	-39.4	-41.8	15.9	0.00e+00	0	56	0	303038464	49	5011
2026-01-02 08:53:57.16	105.03	22.90	-39.5	-41.8	16.0	0.00e+00	0	56	0	305135616	49	5033
2026-01-02 08:53:58.17	104.84	23.01	-39.5	-41.9	15.9	0.00e+00	0	56	0	307232768	49	5057
2026-01-02 08:53:59.18	104.65	23.12	-39.6	-42.0	15.8	0.00e+00	0	56	0	309329920	49	5114
2026-01-02 08:54:00.19	104.46	23.23	-39.6	-42.0	15.7	0.00e+00	0	56	0	310378496	49	5136
2026-01-02 08:54:01.20	104.27	23.34	-39.7	-42.2	15.5	0.00e+00	0	56	0	312475648	50	4961
2026-01-02 08:54:02.21	104.07	23.45	-39.8	-42.3	15.5	0.00e+00	0	56	0	314572800	50	4990
2026-01-02 08:54:03.22	103.87	23.56	-39.7	-42.2	15.6	0.00e+00	0	56	0	316669952	50	4928
2026-01-02 08:54:04.23	103.67	23.67	-39.7	-42.2	15.6	0.00e+00	0	56	0	318767104	50	4937
2026-01-02 08:54:05.24	103.47	23.78	-39.7	-42.2	15.6	0.00e+00	0	56	0	319815680	50	4966
2026-01-02 08:54:06.24	103.27	23.89	-39.8	-42.3	15.6	0.00e+00	0	56	0	321912832	50	4987
2026-01-02 08:54:07.25	103.07	24.00	-39.7	-42.1	15.6	0.00e+00	0	56	0	324009984	50	4920
2026-01-02 08:54:08.26	102.87	24.11	-39.6	-42.0	15.8	0.00e+00	0	56	0	326107136	50	4834
2026-01-02 08:54:09.27	102.66	24.22	-39.6	-42.0	15.8	0.00e+00	0	56	0	328204288	50	4854
2026-01-02 08:54:10.28	102.46	24.33	-39.7	-42.1	15.7	0.00e+00	0	56	0	330301440	50	4920
2026-01-02 08:54:11.29	102.25	24.44	-39.6	-42.0	15.8	0.00e+00	0	56	0	331350016	50	4860
2026-01-02 08:54:12.30	102.04	24.55	-39.6	-42.0	15.8	0.00e+00	0	56	0	333447168	50	4863
2026-01-02 08:54:13.31	101.82	24.66	-39.6	-42.0	15.8	0.00e+00	0	56	0	335544320	50	4832
2026-01-02 08:54:14.32	101.61	24.77	-39.2	-42.0	15.6	6.22e-04	0	56	0	337641472	50	4860
2026-01-02 08:54:15.33	101.40	24.88	-39.2	-42.1	15.5	7.92e-03	0	56	0	339738624	50	4872
2026-01-02 08:54:16.34	101.18	24.99	-39.0	-42.0	15.6	7.93e-03	0	56	0	340787200	50	4823
2026-01-02 08:54:17.35	100.96	25.10	-39.0	-41.9	15.6	7.99e-03	0	56	0	342884352	49	5092
2026-01-02 08:54:18.37	100.74	25.21	-39.2	-41.9	15.6	7.92e-03	0	56	0	344981504	49	5100
2026-01-02 08:54:19.38	100.52	25.32	-39.0	-41.7	15.8	7.82e-03	0	56	0	347078656	49	4962
2026-01-02 08:54:20.39	100.30	25.43	-39.1	-41.7	15.8	8.08e-03	0	56	0	349175808	49	4942
2026-01-02 08:54:21.40	100.08	25.54	-39.1	-41.6	15.9	8.05e-03	0	56	0	350224384	49	4887
2026-01-02 08:54:22.40	99.85	25.65	-39.2	-41.6	15.9	7.80e-03	0	56	0	352321536	49	4874
2026-01-02 08:54:23.41	99.63	25.76	-39.3	-41.7	15.8	7.08e-03	0	56	0	354418688	49	4948
2026-01-02 08:54:24.42	99.40	25.87	-39.2	-41.5	16.2	1.07e-03	0	56	0	356515840	49	4846
2026-01-02 08:54:25.43	99.17	25.99	-39.2	-41.5	16.3	0.00e+00	0	56	0	358612992	49	4839
2026-01-02 08:54:26.44	98.93	26.10	-39.3	-41.5	16.3	0.00e+00	0	56	0	359661568	49	4854
2026-01-02 08:54:27.45	98.70	26.21	-39.4	-41.7	16.1	0.00e+00	0	56	0	361758720	49	4941
2026-01-02 08:54:28.46	98.47	26.32	-39.3	-41.5	16.4	0.00e+00	0	56	0	363855872	49	4835
2026-01-02 08:54:29.47	98.23	26.43	-39.2	-41.4	16.4	0.00e+00	0	56	0	365953024	49	4806
2026-01-02 08:54:30.48	97.99	26.54	-39.3	-41.6	16.3	0.00e+00	0	56	0	368050176	49	4903
2026-01-02 08:54:31.49	97.75	26.64	-39.4	-41.7	16.2	0.00e+00	0	56	0	369098752	49	4941
2026-01-02 08:54:32.50	97.51	26.75	-39.2	-41.3	16.5	0.00e+00	0	56	0	371195904	49	4756
2026-01-02 08:54:33.51	97.27	26.86	-39.2	-41.3	16.5	0.00e+00	0	56	0	373293056	49	4758
2026-01-02 08:54:34.52	97.02	26.97	-39.1	-41.2	16.6	0.00e+00	0	56	0	375390208	49	4686
2026-01-02 08:54:35.53	96.77	27.08	-39.0	-41.2	16.7	0.00e+00	0	56	0	377487360	49	4671
2026-01-02 08:54:36.54	96.53	27.19	-39.2	-41.4	16.5	0.00e+00	0	56	0	378535936	49	4795
2026-01-02 08:54:37.55	96.28	27.30	-39.3	-41.6	16.3	0.00e+00	0	56	0	380633088	49	4888
2026-01-02 08:54:38.56	96.02	27.41	-39.3	-41.6	16.3	0.00e+00	0	56	0	382730240	49	4875
2026-01-02 08:54:39.57	95.77	27.52	-39.3	-41.6	16.2	0.00e+00	0	56	0	384827392	49	4908
2026-01-02 08:54:40.58	95.52	27.63	-39.4	-41.6	16.2	0.00e+00	0	56	0	386924544	49	4915
2026-01-02 08:54:41.59	95.26	27.73	-39.5	-41.8	16.1	0.00e+00	0	56	0	387973120	49	4985
2026-01-02 08:54:42.60	95.00	27.84	-39.4	-41.7	16.1	0.00e+00	0	56	0	390070272	49	4981
2026-01-02 08:54:43.61	94.74	27.95	-39.4	-41.7	16.1	0.00e+00	0	56	0	392167424	49	4948
2026-01-02 08:54:44.62	94.48	28.06	-39.6	-42.0	15.8	0.00e+00	0	56	0	394264576	49	5130
2026-01-02 08:54:45.63	94.21	28.16	-39.6	-42.0	15.8	0.00e+00	0	56	0	396361728	49	5151
2026-01-02 08:54:46.63	93.95	28.27	-39.8	-42.3	15.6	0.00e+00	0	56	0	398458880	50	4995
2026-01-02 08:54:47.64	93.68	28.38	-39.9	-42.4	15.5	0.00e+00	0	56	0	399507456	50	5046
2026-01-02 08:54:48.65	93.41	28.48	-40.1	-42.6	15.3	0.00e+00	0	56	0	401604608	50	5214
2026-01-02 08:54:49.66	93.14	28.59	-40.3	-43.0	14.9	0.00e+00	0	56	0	403701760	51	5115
2026-01-02 08:54:50.67	92.87	28.69	-40.4	-43.2	14.7	0.00e+00	0	56	0	405798912	51	5230
2026-01-02 08:54:51.68	92.59	28.80	-40.6	-43.5	14.4	0.00e+00	0	56	0	407896064	51	5428
2026-01-02 08:54:52.69	92.32	28.91	-40.7	-43.7	14.1	0.00e+00	0	56	0	408944640	52	5246
2026-01-02 08:54:53.70	92.04	29.01	-41.0	-44.3	13.5	6.10e-06	0	56	0	411041792	52	5608
2026-01-02 08:54:54.71	91.76	29.11	-41.0	-44.2	13.6	7.60e-06	0	56	0	413138944	52	5558
2026-01-02 08:54:55.72	91.48	29.22	-41.1	-44.3	13.4	1.22e-05	0	56	0	415236096	52	5646
2026-01-02 08:54:56.73	91.19	29.32	-41.1	-44.4	13.4	2.05e-05	0	56	0	417333248	52	5669
2026-01-02 08:54:57.74	90.91	29.42	-41.3	-44.8	13.0	3.05e-05	0	56	0	418381824	53	5615
2026-01-02 08:54:58.75	90.62	29.53	-41.3	-44.8	12.9	5.41e-05	0	56	0	420478976	53	5637
2026-01-02 08:54:59.76	90.33	29.63	-41.3	-44.6	13.1	3.20e-05	0	56	0	422576128	53	5527
2026-01-02 08:55:00.77	90.04	29.73	-41.3	-44.8	13.0	3.50e-05	0	56	0	424673280	53	5600
2026-01-02 08:55:01.78	89.74	29.83	-41.3	-44.7	13.0	4.11e-05	0	56	0	426770432	53	5574
2026-01-02 08:55:02.79	89.45	29.93	-41.3	-44.8	13.0	4.19e-05	0	56	0	427819008	53	5602
2026-01-02 08:55:03.80	89.15	30.03	-41.4	-44.9	12.9	4.27e-05	0	56	0	429916160	53	5659
2026-01-02 08:55:04.81	88.85	30.13	-41.4	-44.9	12.8	4.27e-05	0	56	0	432013312	53	5718
2026-01-02 08:55:05.82	88.55	30.23	-41.5	-45.0	12.7	6.40e-05	0	56	0	434110464	53	5785
2026-01-02 08:55:06.83	88.25	30.33	-41.8	-45.6	12.1	1.04e-04	0	56	0	436207616	54	5849
2026-01-02 08:55:07.84	87.95	30.43	-42.0	-46.1	11.7	5.93e-04	0	56	0	437256192	54	6164
2026-01-02 08:55:08.85	87.64	30.53	-42.1	-46.4	11.3	8.39e-04	0	56	0	439353344	54	6352
2026-01-02 08:55:09.86	87.33	30.62	-42.1	-46.4	11.2	2.32e-03	0	56	0	441450496	55	6020
2026-01-02 08:55:10.87	87.02	30.72	-42.1	-46.3	11.4	1.38e-03	0	56	0	443547648	55	5976
2026-01-02 08:55:11.88	86.71	30.82	-42.0	-46.2	11.5	1.27e-03	0	56	0	445644800	55	5874
2026-01-02 08:55:12.89	86.40	30.91	-41.9	-45.8	11.9	5.88e-04	0	57	0	446693376	55	5640
2026-01-02 08:55:13.90	86.08	31.00	-41.7	-45.6	12.2	2.82e-04	0	56	0	448790528	55	5467
2026-01-02 08:55:14.91	85.76	31.10	-41.5	-45.1	12.6	2.68e-04	0	56	0	450887680	55	5199
2026-01-02 08:55:15.92	85.45	31.19	-41.4	-45.0	12.8	5.95e-05	0	56	0	452984832	54	5422
2026-01-02 08:55:16.93	85.12	31.28	-41.4	-45.0	12.8	7.17e-05	0	56	0	455081984	54	5413
2026-01-02 08:55:17.94	84.80	31.38	-41.5	-45.1	12.7	7.70e-05	0	56	0	456130560	54	5472
2026-01-02 08:55:18.95	84.48	31.47	-41.4	-44.8	12.9	1.15e-04	0	56	0	458227712	54	5336
2026-01-02 08:55:19.96	84.15	31.56	-41.5	-45.0	12.8	3.28e-05	0	57	0	460324864	54	5443
2026-01-02 08:55:20.97	83.82	31.65	-41.5	-45.0	12.8	6.71e-05	0	56	0	462422016	54	5410
2026-01-02 08:55:21.98	83.49	31.73	-41.5	-45.0	12.8	5.87e-05	0	56	0	464519168	54	5457
2026-01-02 08:55:22.99	83.16	31.82	-41.7	-45.4	12.4	7.32e-05	0	56	0	466616320	54	5660
2026-01-02 08:55:24.00	82.83	31.91	-41.4	-44.9	12.9	6.63e-05	0	56	0	467664896	54	5371
2026-01-02 08:55:25.01	82.49	31.99	-41.4	-44.9	12.9	4.95e-05	0	56	0	469762048	54	5377
2026-01-02 08:55:26.02	82.15	32.08	-41.4	-44.8	13.1	3.35e-05	0	57	0	471859200	54	5291
2026-01-02 08:55:27.03	81.82	32.16	-41.3	-44.6	13.2	4.88e-05	0	56	0	473956352	54	5197
2026-01-02 08:55:28.04	81.48	32.25	-41.0	-44.2	13.7	1.52e-05	0	56	0	476053504	54	4941
2026-01-02 08:55:29.04	81.14	32.33	-41.0	-44.1	13.7	6.80e-06	0	56	0	477102080	53	5201
2026-01-02 08:55:30.05	80.79	32.41	-40.9	-44.0	13.9	7.60e-06	0	56	0	479199232	53	5119
2026-01-02 08:55:31.06	80.45	32.49	-40.9	-43.9	13.9	1.50e-06	0	57	0	481296384	53	5085
2026-01-02 08:55:32.07	80.10	32.57	-40.8	-43.9	13.9	4.50e-06	0	57	0	483393536	53	5052
2026-01-02 08:55:33.08	79.75	32.65	-40.6	-43.6	14.2	4.50e-06	0	56	0	485490688	53	4889
2026-01-02 08:55:34.09	79.40	32.72	-40.5	-43.4	14.5	7.00e-07	0	56	0	486539264	53	4781
2026-01-02 08:55:35.10	79.05	32.80	-40.5	-43.2	14.6	7.00e-07	0	56	0	488636416	52	4976
2026-01-02 08:55:36.11	78.69	32.88	-40.4	-43.1	14.7	1.50e-06	0	56	0	490733568	52	4919
2026-01-02 08:55:37.12	78.34	32.95	-40.3	-43.0	14.8	0.00e+00	0	56	0	492830720	52	4849
2026-01-02 08:55:38.13	77.98	33.02	-40.3	-43.0	14.8	0.00e+00	0	56	0	494927872	52	4859
2026-01-02 08:55:39.14	77.62	33.10	-40.4	-43.1	14.7	0.00e+00	0	56	0	495976448	52	4898
2026-01-02 08:55:40.15	77.26	33.17	-40.3	-43.1	14.8	0.00e+00	0	56	0	498073600	52	4877
2026-01-02 08:55:41.16	76.90	33.24	-40.3	-43.0	14.8	0.00e+00	0	56	0	500170752	52	4869
2026-01-02 08:55:42.17	76.53	33.31	-40.2	-42.8	15.1	0.00e+00	0	56	0	502267904	52	4722
2026-01-02 08:55:43.18	76.17	33.37	-40.0	-42.6	15.3	7.00e-07	0	57	0	504365056	52	4605
2026-01-02 08:55:44.19	75.80	33.44	-40.0	-42.5	15.3	0.00e+00	0	57	0	505413632	52	4578
2026-01-02 08:55:45.20	75.43	33.51	-40.0	-42.5	15.5	0.00e+00	0	56	0	507510784	51	4846
2026-01-02 08:55:46.21	75.06	33.57	-39.9	-42.3	15.7	0.00e+00	0	56	0	509607936	51	4743
2026-01-02 08:55:47.21	74.70	33.63	-39.9	-42.3	15.7	0.00e+00	0	56	0	511705088	51	4712
2026-01-02 08:55:48.22	74.32	33.69	-40.1	-42.6	15.4	0.00e+00	0	57	0	513802240	51	4910
2026-01-02 08:55:49.23	73.95	33.75	-40.1	-42.7	15.3	0.00e+00	0	57	0	514850816	51	4942
2026-01-02 08:55:50.24	73.57	33.81	-40.0	-42.5	15.4	0.00e+00	0	56	0	516947968	51	4867
2026-01-02 08:55:51.25	73.20	33.87	-40.2	-42.8	15.2	0.00e+00	0	56	0	519045120	51	4993
2026-01-02 08:55:52.26	72.82	33.93	-40.1	-42.6	15.4	0.00e+00	0	56	0	521142272	51	4880
2026-01-02 08:55:53.27	72.44	33.98	-39.9	-42.4	15.7	0.00e+00	0	57	0	523239424	51	4765
2026-01-02 08:55:54.28	72.06	34.04	-39.7	-42.1	15.9	0.00e+00	0	57	0	524288000	51	4630
2026-01-02 08:55:55.29	71.68	34.09	-39.6	-41.8	16.2	0.00e+00	0	56	0	526385152	51	4483
2026-01-02 08:55:56.30	71.29	34.14	-39.5	-41.8	16.2	0.00e+00	0	56	0	528482304	50	4712
2026-01-02 08:55:57.31	70.91	34.19	-39.3	-41.5	16.5	0.00e+00	0	56	0	530579456	50	4567
2026-01-02 08:55:58.32	70.52	34.24	-39.3	-41.4	16.5	0.00e+00	0	57	0	532676608	50	4535
2026-01-02 08:55:59.33	70.14	34.28	-39.1	-41.2	16.8	0.00e+00	0	56	0	534773760	50	4408
2026-01-02 08:56:00.34	69.75	34.33	-39.1	-41.3	16.8	0.00e+00	0	56	0	535822336	50	4448
2026-01-02 08:56:01.35	69.36	34.37	-39.1	-41.3	16.8	0.00e+00	0	56	0	537919488	50	4447
2026-01-02 08:56:02.35	68.98	34.41	-39.2	-41.4	16.7	0.00e+00	0	56	0	540016640	50	4494
2026-01-02 08:56:03.36	68.59	34.46	-39.4	-41.6	16.4	0.00e+00	0	56	0	542113792	50	4617
2026-01-02 08:56:04.37	68.19	34.50	-39.3	-41.5	16.5	0.00e+00	0	56	0	544210944	50	4562
2026-01-02 08:56:05.38	67.80	34.53	-39.3	-41.4	16.6	0.00e+00	0	57	0	545259520	50	4522
2026-01-02 08:56:06.39	67.41	34.57	-39.1	-41.2	16.8	0.00e+00	0	57	0	547356672	50	4429
2026-01-02 08:56:07.40	67.01	34.61	-39.1	-41.1	16.9	0.00e+00	0	57	0	549453824	50	4390
2026-01-02 08:56:08.41	66.62	34.64	-39.3	-41.5	16.5	0.00e+00	0	57	0	551550976	50	4567
2026-01-02 08:56:09.42	66.22	34.67	-39.4	-41.7	16.4	0.00e+00	0	57	0	553648128	50	4652
2026-01-02 08:56:10.43	65.83	34.70	-39.5	-41.7	16.3	0.00e+00	0	57	0	554696704	50	4700
2026-01-02 08:56:11.44	65.43	34.73	-39.6	-41.9	16.2	0.00e+00	0	57	0	556793856	50	4760
2026-01-02 08:56:12.45	65.03	34.76	-39.6	-41.9	16.1	0.00e+00	0	56	0	558891008	50	4781
2026-01-02 08:56:13.45	64.64	34.78	-39.6	-41.8	16.2	0.00e+00	0	56	0	560988160	50	4756
2026-01-02 08:56:14.46	64.24	34.81	-39.5	-41.7	16.3	0.00e+00	0	57	0	563085312	50	4666
2026-01-02 08:56:15.47	63.84	34.83	-39.5	-41.7	16.3	0.00e+00	0	57	0	564133888	50	4664
2026-01-02 08:56:16.48	63.44	34.85	-39.6	-41.9	16.1	0.00e+00	0	56	0	566231040	50	4761
2026-01-02 08:56:17.50	63.03	34.87	-39.6	-41.9	16.1	0.00e+00	0	56	0	568328192	50	4763
2026-01-02 08:56:18.50	62.63	34.89	-39.4	-41.6	16.4	0.00e+00	0	57	0	570425344	50	4650
2026-01-02 08:56:19.51	62.23	34.91	-39.4	-41.5	16.5	0.00e+00	0	57	0	572522496	50	4589
2026-01-02 08:56:20.52	61.83	34.92	-39.5	-41.8	16.2	0.00e+00	0	57	0	573571072	50	4727
2026-01-02 08:56:21.53	61.43	34.94	-39.7	-42.0	16.0	0.00e+00	0	57	0	575668224	50	4859
2026-01-02 08:56:22.54	61.02	34.95	-39.7	-42.1	15.9	0.00e+00	0	57	0	577765376	50	4873
2026-01-02 08:56:23.55	60.62	34.96	-39.7	-42.0	16.1	0.00e+00	0	57	0	579862528	50	4818
2026-01-02 08:56:24.56	60.22	34.97	-39.5	-41.7	16.3	0.00e+00	0	57	0	581959680	50	4684
2026-01-02 08:56:25.57	59.81	34.97	-39.6	-41.8	16.2	0.00e+00	0	56	0	583008256	50	4747
2026-01-02 08:56:26.58	59.41	34.98	-39.6	-41.8	16.2	0.00e+00	0	57	0	585105408	50	4757
2026-01-02 08:56:27.59	59.01	34.98	-39.5	-41.7	16.3	0.00e+00	0	57	0	587202560	50	4661
2026-01-02 08:56:28.60	58.60	34.98	-39.3	-41.5	16.6	0.00e+00	0	56	0	589299712	50	4559
2026-01-02 08:56:29.61	58.20	34.99	-39.4	-41.6	16.4	0.00e+00	0	57	0	591396864	50	4642
2026-01-02 08:56:30.62	57.80	34.98	-39.7	-42.0	16.1	0.00e+00	0	57	0	592445440	50	4833
2026-01-02 08:56:31.63	57.39	34.98	-39.9	-42.4	15.7	0.00e+00	0	57	0	594542592	50	5045
2026-01-02 08:56:32.64	56.99	34.98	-40.0	-42.5	15.6	0.00e+00	0	57	0	596639744	50	5110
2026-01-02 08:56:33.65	56.58	34.97	-40.2	-42.7	15.3	0.00e+00	0	57	0	598736896	50	5265
2026-01-02 08:56:34.66	56.18	34.96	-40.3	-42.9	15.2	0.00e+00	0	56	0	600834048	51	5051
2026-01-02 08:56:35.67	55.78	34.95	-40.2	-42.8	15.3	0.00e+00	0	57	0	602931200	51	5006
2026-01-02 08:56:36.68	55.37	34.94	-40.1	-42.6	15.4	0.00e+00	0	57	0	603979776	51	4884
2026-01-02 08:56:37.69	54.97	34.93	-40.1	-42.6	15.5	0.00e+00	0	57	0	606076928	51	4871
2026-01-02 08:56:38.70	54.57	34.92	-40.2	-42.7	15.3	0.00e+00	0	57	0	608174080	51	4974
2026-01-02 08:56:39.71	54.17	34.90	-40.4	-43.1	14.9	0.00e+00	0	57	0	610271232	51	5204
2026-01-02 08:56:40.72	53.77	34.88	-40.5	-43.2	14.8	0.00e+00	0	57	0	612368384	51	5263
2026-01-02 08:56:41.73	53.37	34.87	-40.5	-43.3	14.8	0.00e+00	0	57	0	613416960	51	5293
2026-01-02 08:56:42.74	52.97	34.84	-40.6	-43.3	14.7	0.00e+00	0	57	0	615514112	51	5327
2026-01-02 08:56:43.75	52.57	34.82	-40.7	-43.6	14.4	1.50e-06	0	57	0	617611264	52	5178
2026-01-02 08:56:44.76	52.17	34.80	-40.8	-43.8	14.1	1.50e-06	0	57	0	619708416	52	5317
2026-01-02 08:56:45.77	51.77	34.77	-40.9	-44.0	14.0	3.00e-06	0	57	0	621805568	52	5412
2026-01-02 08:56:46.77	51.37	34.75	-40.8	-43.8	14.1	2.20e-06	0	57	0	622854144	52	5319
2026-01-02 08:56:47.78	50.98	34.72	-40.6	-43.5	14.4	1.50e-06	0	56	0	624951296	52	5109
2026-01-02 08:56:48.79	50.58	34.69	-40.5	-43.3	14.7	7.00e-07	0	57	0	627048448	52	5005
2026-01-02 08:56:49.80	50.18	34.66	-40.6	-43.4	14.7	0.00e+00	0	56	0	629145600	52	5042
2026-01-02 08:56:50.81	49.79	34.63	-40.6	-43.3	14.5	0.00e+00	0	56	0	631242752	52	5038
2026-01-02 08:56:51.82	49.39	34.59	-40.9	-43.8	14.2	0.00e+00	0	57	0	632291328	52	5329
2026-01-02 08:56:52.83	49.00	34.56	-41.0	-44.1	13.9	3.00e-06	0	57	0	634388480	52	5476
2026-01-02 08:56:53.84	48.61	34.52	-41.1	-44.3	13.6	5.30e-06	0	57	0	636485632	52	5647
2026-01-02 08:56:54.85	48.22	34.48	-41.1	-44.3	13.6	1.29e-05	0	57	0	638582784	53	5286
2026-01-02 08:56:55.86	47.82	34.44	-40.9	-43.9	14.0	5.30e-06	0	57	0	640679936	53	5091
2026-01-02 08:56:56.87	47.44	34.40	-40.7	-43.6	14.3	7.00e-07	0	57	0	641728512	53	4918
2026-01-02 08:56:57.88	47.05	34.35	-40.7	-43.6	14.4	7.00e-07	0	57	0	643825664	53	4896
2026-01-02 08:56:58.89	46.66	34.31	-40.6	-43.4	14.5	7.00e-07	0	57	0	645922816	53	4769
2026-01-02 08:56:59.90	46.27	34.26	-40.7	-43.6	14.4	1.50e-06	0	57	0	648019968	53	4884
2026-01-02 08:57:00.91	45.89	34.22	-40.6	-43.4	14.6	0.00e+00	0	57	0	650117120	53	4776
2026-01-02 08:57:01.92	45.50	34.17	-40.6	-43.4	14.6	0.00e+00	0	57	0	651165696	53	4772
2026-01-02 08:57:02.93	45.12	34.12	-40.6	-43.4	14.5	0.00e+00	0	57	0	653262848	53	4806
2026-01-02 08:57:03.94	44.74	34.07	-40.7	-43.6	14.4	7.00e-07	0	57	0	655360000	53	4875
2026-01-02 08:57:04.95	44.36	34.01	-40.6	-43.5	14.5	1.50e-06	0	57	0	657457152	53	4824
2026-01-02 08:57:05.96	43.98	33.96	-40.5	-43.3	14.6	7.00e-07	0	57	0	659554304	53	4735
2026-01-02 08:57:06.97	43.60	33.90	-40.4	-43.1	14.8	0.00e+00	0	57	0	660602880	52	4901
2026-01-02 08:57:07.97	43.23	33.85	-40.5	-43.2	14.8	0.00e+00	0	57	0	662700032	52	4953
2026-01-02 08:57:08.98	42.85	33.79	-40.3	-43.0	15.0	0.00e+00	0	57	0	664797184	52	4838
2026-01-02 08:57:09.99	42.48	33.73	-40.3	-42.9	15.0	0.00e+00	0	57	0	666894336	52	4796
2026-01-02 08:57:11.00	42.10	33.67	-40.3	-43.0	15.0	0.00e+00	0	57	0	668991488	52	4851
2026-01-02 08:57:12.02	41.73	33.61	-40.2	-42.8	15.1	7.00e-07	0	57	0	671088640	52	4738
2026-01-02 08:57:13.03	41.36	33.54	-40.1	-42.7	15.3	0.00e+00	0	57	0	672137216	52	4656
2026-01-02 08:57:14.04	40.99	33.48	-40.0	-42.5	15.5	0.00e+00	0	57	0	674234368	52	4592
2026-01-02 08:57:15.05	40.62	33.41	-40.1	-42.5	15.5	0.00e+00	0	57	0	676331520	51	4867
2026-01-02 08:57:16.06	40.26	33.35	-40.2	-42.8	15.2	0.00e+00	0	57	0	678428672	51	5013
2026-01-02 08:57:17.07	39.90	33.28	-40.4	-43.1	15.0	0.00e+00	0	57	0	680525824	51	5162
2026-01-02 08:57:18.08	39.53	33.21	-40.6	-43.4	14.6	0.00e+00	0	57	0	681574400	51	5381
2026-01-02 08:57:19.09	39.17	33.14	-40.6	-43.5	14.4	1.50e-06	0	57	0	683671552	52	5127
2026-01-02 08:57:20.09	38.82	33.07	-40.7	-43.5	14.4	2.20e-06	0	57	0	685768704	52	5133
2026-01-02 08:57:21.10	38.46	33.00	-40.8	-43.7	14.3	7.00e-07	0	57	0	687865856	52	5245
2026-01-02 08:57:22.11	38.10	32.92	-40.9	-43.9	14.0	3.80e-06	0	57	0	689963008	52	5387
2026-01-02 08:57:23.12	37.75	32.85	-41.1	-44.3	13.6	1.50e-06	0	57	0	691011584	52	5634
2026-01-02 08:57:24.13	37.40	32.77	-41.1	-44.3	13.7	3.80e-06	0	57	0	693108736	52	5595
2026-01-02 08:57:25.14	37.05	32.70	-41.0	-44.1	13.8	9.10e-06	0	57	0	695205888	52	5494
2026-01-02 08:57:26.16	36.69	32.62	-40.8	-43.8	14.2	1.50e-06	0	57	0	697303040	52	5294
2026-01-02 08:57:27.16	36.35	32.54	-40.8	-43.8	14.2	1.50e-06	0	57	0	699400192	52	5290
2026-01-02 08:57:28.17	36.00	32.46	-40.9	-43.9	14.1	2.20e-06	0	57	0	700448768	52	5347
2026-01-02 08:57:29.18	35.66	32.38	-41.1	-44.2	13.7	6.10e-06	0	57	0	702545920	52	5574
2026-01-02 08:57:30.19	35.32	32.30	-41.2	-44.4	13.6	9.10e-06	0	57	0	704643072	52	5698
2026-01-02 08:57:31.21	34.97	32.22	-41.3	-44.6	13.4	9.90e-06	0	57	0	706740224	53	5471
2026-01-02 08:57:32.22	34.63	32.13	-41.1	-44.2	13.7	9.90e-06	0	57	0	708837376	53	5264
2026-01-02 08:57:33.23	34.30	32.05	-41.0	-44.1	13.9	5.30e-06	0	57	0	709885952	53	5200
2026-01-02 08:57:34.24	33.96	31.96	-41.0	-44.0	13.9	2.20e-06	0	57	0	711983104	53	5148
2026-01-02 08:57:35.25	33.63	31.88	-41.0	-44.0	13.9	3.80e-06	0	57	0	714080256	53	5146
2026-01-02 08:57:36.25	33.30	31.79	-41.1	-44.3	13.7	3.00e-06	0	57	0	716177408	53	5289
2026-01-02 08:57:37.26	32.97	31.70	-41.1	-44.3	13.6	6.80e-06	0	57	0	718274560	53	5316
2026-01-02 08:57:38.27	32.64	31.61	-41.3	-44.6	13.4	8.30e-06	0	57	0	719323136	53	5469
2026-01-02 08:57:39.28	32.32	31.53	-41.3	-44.6	13.3	2.51e-05	0	57	0	721420288	53	5500
2026-01-02 08:57:40.29	31.99	31.44	-41.2	-44.3	13.6	1.14e-05	0	57	0	723517440	53	5337
2026-01-02 08:57:41.30	31.67	31.34	-41.0	-44.1	13.9	2.20e-06	0	57	0	725614592	53	5160
2026-01-02 08:57:42.31	31.35	31.25	-40.7	-43.6	14.4	0.00e+00	0	57	0	727711744	53	4882
2026-01-02 08:57:43.32	31.03	31.16	-40.7	-43.6	14.4	0.00e+00	0	57	0	728760320	53	4886
2026-01-02 08:57:44.33	30.71	31.07	-40.8	-43.8	14.2	7.00e-07	0	57	0	730857472	53	4998
2026-01-02 08:57:45.34	30.40	30.97	-40.8	-43.8	14.1	2.20e-06	0	57	0	732954624	53	5032
2026-01-02 08:57:46.35	30.08	30.88	-40.8	-43.8	14.1	1.50e-06	0	56	0	735051776	53	5032
2026-01-02 08:57:47.36	29.77	30.79	-40.9	-43.9	14.0	2.20e-06	0	57	0	737148928	53	5079
2026-01-02 08:57:48.37	29.46	30.69	-40.8	-43.7	14.2	2.20e-06	0	57	0	739246080	53	4963
2026-01-02 08:57:49.38	29.15	30.59	-40.9	-43.9	14.1	1.50e-06	0	57	0	740294656	53	5056
2026-01-02 08:57:50.39	28.85	30.50	-40.7	-43.7	14.3	0.00e+00	0	57	0	742391808	53	4931
2026-01-02 08:57:51.40	28.54	30.40	-40.8	-43.7	14.2	0.00e+00	0	57	0	744488960	53	4951
2026-01-02 08:57:52.41	28.24	30.30	-40.8	-43.8	14.2	1.50e-06	0	57	0	746586112	53	5007
2026-01-02 08:57:53.42	27.94	30.20	-40.8	-43.8	14.1	3.00e-06	0	57	0	748683264	53	5007
2026-01-02 08:57:54.43	27.64	30.10	-40.7	-43.7	14.3	0.00e+00	0	57	0	749731840	53	4928
2026-01-02 08:57:55.44	27.34	30.00	-40.8	-43.7	14.3	1.50e-06	0	57	0	751828992	53	4944
2026-01-02 08:57:56.45	27.05	29.90	-40.8	-43.7	14.2	1.50e-06	0	57	0	753926144	53	4959
2026-01-02 08:57:57.46	26.76	29.80	-40.8	-43.7	14.2	1.50e-06	0	57	0	756023296	53	4978
2026-01-02 08:57:58.47	26.46	29.70	-40.7	-43.6	14.3	7.00e-07	0	57	0	758120448	53	4897
2026-01-02 08:57:59.48	26.18	29.60	-40.7	-43.6	14.4	0.00e+00	0	57	0	759169024	53	4889
2026-01-02 08:58:00.49	25.89	29.50	-40.8	-43.8	14.1	2.20e-06	0	57	0	761266176	53	5015
2026-01-02 08:58:01.50	25.60	29.40	-40.8	-43.7	14.2	1.50e-06	0	57	0	763363328	53	4958
2026-01-02 08:58:02.51	25.32	29.29	-40.7	-43.6	14.3	3.80e-06	0	57	0	765460480	53	4878
2026-01-02 08:58:03.52	25.04	29.19	-40.7	-43.6	14.3	7.00e-07	0	57	0	767557632	53	4904
2026-01-02 08:58:04.52	24.76	29.09	-40.6	-43.4	14.5	0.00e+00	0	57	0	768606208	53	4794
2026-01-02 08:58:05.53	24.48	28.98	-40.5	-43.3	14.5	0.00e+00	0	57	0	770703360	53	4750
2026-01-02 08:58:06.54	24.20	28.88	-40.6	-43.4	14.5	0.00e+00	0	57	0	772800512	53	4778
2026-01-02 08:58:07.55	23.93	28.78	-40.4	-43.2	14.7	0.00e+00	0	57	0	774897664	52	4962
2026-01-02 08:58:08.56	23.66	28.67	-40.4	-43.1	14.8	0.00e+00	0	57	0	776994816	52	4912
2026-01-02 08:58:09.57	23.38	28.56	-40.1	-42.7	15.3	0.00e+00	0	57	0	778043392	52	4654
2026-01-02 08:58:10.58	23.12	28.46	-40.0	-42.6	15.4	0.00e+00	0	57	0	780140544	51	4872
2026-01-02 08:58:11.59	22.85	28.35	-40.0	-42.5	15.5	0.00e+00	0	57	0	782237696	51	4856
2026-01-02 08:58:12.60	22.58	28.25	-39.9	-42.4	15.6	0.00e+00	0	57	0	784334848	51	4783
2026-01-02 08:58:13.61	22.32	28.14	-39.8	-42.2	15.8	0.00e+00	0	57	0	786432000	51	4673
2026-01-02 08:58:14.62	22.06	28.03	-39.6	-42.0	16.0	0.00e+00	0	57	0	787480576	51	4550
2026-01-02 08:58:15.63	21.80	27.93	-39.4	-41.6	16.4	0.00e+00	0	57	0	789577728	50	4647
2026-01-02 08:58:16.64	21.54	27.82	-39.3	-41.4	16.5	0.00e+00	0	57	0	791674880	50	4541
2026-01-02 08:58:17.65	21.28	27.71	-39.2	-41.3	16.6	0.00e+00	0	57	0	793772032	50	4488
2026-01-02 08:58:18.66	21.02	27.60	-39.1	-41.2	16.8	0.00e+00	0	57	0	795869184	50	4397
2026-01-02 08:58:19.66	20.77	27.50	-38.9	-41.0	17.0	0.00e+00	0	57	0	796917760	49	4559
2026-01-02 08:58:20.67	20.52	27.39	-38.9	-40.9	17.0	0.00e+00	0	57	0	799014912	49	4532
2026-01-02 08:58:21.68	20.27	27.28	-38.7	-40.7	17.2	0.00e+00	0	57	0	801112064	49	4432
2026-01-02 08:58:22.69	20.02	27.17	-38.7	-40.7	17.3	0.00e+00	0	57	0	803209216	49	4399
2026-01-02 08:58:23.70	19.78	27.06	-38.6	-40.6	17.3	0.00e+00	0	57	0	805306368	49	4364
2026-01-02 08:58:24.71	19.53	26.95	-38.5	-40.5	17.5	0.00e+00	0	57	0	806354944	49	4311
2026-01-02 08:58:25.72	19.29	26.85	-38.4	-40.3	17.6	0.00e+00	0	57	0	808452096	48	4491
2026-01-02 08:58:26.73	19.05	26.74	-38.4	-40.3	17.7	0.00e+00	0	57	0	810549248	48	4464
2026-01-02 08:58:27.74	18.81	26.63	-38.5	-40.4	17.5	0.00e+00	0	57	0	812646400	48	4536
2026-01-02 08:58:28.75	18.57	26.52	-38.5	-40.4	17.5	0.00e+00	0	57	0	814743552	48	4533
2026-01-02 08:58:29.76	18.33	26.41	-38.6	-40.5	17.5	0.00e+00	0	57	0	816840704	48	4590
2026-01-02 08:58:30.78	18.10	26.30	-38.6	-40.5	17.4	0.00e+00	0	57	0	817889280	48	4596
2026-01-02 08:58:31.79	17.86	26.19	-38.5	-40.5	17.5	0.00e+00	0	57	0	819986432	48	4559
2026-01-02 08:58:32.80	17.63	26.08	-38.3	-40.3	17.7	0.00e+00	0	57	0	822083584	48	4444
2026-01-02 08:58:33.81	17.40	25.97	-38.2	-40.1	17.8	0.00e+00	0	57	0	824180736	48	4370
2026-01-02 08:58:34.81	17.17	25.86	-38.2	-40.0	17.9	0.00e+00	0	57	0	826277888	48	4338
2026-01-02 08:58:35.82	16.95	25.75	-38.2	-40.1	17.8	0.00e+00	0	57	0	827326464	48	4369
2026-01-02 08:58:36.83	16.72	25.64	-38.2	-40.0	17.9	0.00e+00	0	57	0	829423616	48	4337
2026-01-02 08:58:37.84	16.50	25.53	-38.1	-40.0	18.0	0.00e+00	0	57	0	831520768	48	4307
2026-01-02 08:58:38.85	16.28	25.42	-38.1	-39.9	18.1	0.00e+00	0	57	0	833617920	48	4262
2026-01-02 08:58:39.86	16.06	25.31	-38.1	-39.9	18.0	0.00e+00	0	57	0	835715072	48	4249
2026-01-02 08:58:40.87	15.84	25.20	-37.9	-39.7	18.2	0.00e+00	0	57	0	836763648	47	4396
2026-01-02 08:58:41.88	15.62	25.09	-38.0	-39.8	18.0	0.00e+00	0	57	0	838860800	47	4487
2026-01-02 08:58:42.89	15.40	24.98	-38.0	-39.8	18.0	0.00e+00	0	57	0	840957952	47	4467
2026-01-02 08:58:43.90	15.19	24.87	-38.0	-39.9	18.0	0.00e+00	0	57	0	843055104	47	4514
2026-01-02 08:58:44.91	14.98	24.76	-38.1	-39.9	17.9	0.00e+00	0	57	0	845152256	47	4530
2026-01-02 08:58:45.92	14.77	24.65	-38.1	-40.0	17.8	0.00e+00	0	57	0	846200832	47	4592
2026-01-02 08:58:46.93	14.56	24.54	-38.2	-40.1	17.8	0.00e+00	0	57	0	848297984	47	4629
2026-01-02 08:58:47.95	14.35	24.43	-38.3	-40.3	17.6	0.00e+00	0	57	0	850395136	47	4714
2026-01-02 08:58:48.96	14.14	24.32	-38.5	-40.5	17.4	0.00e+00	0	57	0	852492288	47	4826
2026-01-02 08:58:49.97	13.93	24.21	-38.5	-40.5	17.3	0.00e+00	0	57	0	854589440	47	4841
2026-01-02 08:58:50.97	13.73	24.10	-38.4	-40.4	17.4	0.00e+00	0	57	0	855638016	47	4799
2026-01-02 08:58:51.98	13.53	23.99	-38.5	-40.5	17.4	0.00e+00	0	57	0	857735168	47	4839
2026-01-02 08:58:52.99	13.33	23.89	-38.5	-40.5	17.3	0.00e+00	0	57	0	859832320	47	4864
2026-01-02 08:58:54.00	13.13	23.78	-38.6	-40.6	17.2	0.00e+00	0	57	0	861929472	47	4907
2026-01-02 08:58:55.02	12.93	23.67	-38.7	-40.7	17.1	0.00e+00	0	57	0	864026624	47	4966
2026-01-02 08:58:56.03	12.73	23.56	-38.7	-40.7	17.1	0.00e+00	0	57	0	865075200	47	4982
2026-01-02 08:58:57.04	12.54	23.45	-38.8	-40.9	17.0	0.00e+00	0	57	0	867172352	48	4781
2026-01-02 08:58:58.04	12.34	23.34	-38.8	-40.8	17.1	0.00e+00	0	57	0	869269504	48	4746
2026-01-02 08:58:59.05	12.15	23.23	-38.9	-40.9	16.9	0.00e+00	0	57	0	871366656	48	4812
2026-01-02 08:59:00.06	11.96	23.12	-38.9	-41.0	16.9	0.00e+00	0	57	0	873463808	48	4837
2026-01-02 08:59:01.07	11.77	23.01	-38.9	-41.1	16.9	0.00e+00	0	57	0	875560960	48	4872
2026-01-02 08:59:02.08	11.58	22.90	-38.9	-41.0	16.9	0.00e+00	0	57	0	876609536	48	4858
2026-01-02 08:59:03.09	11.39	22.80	-38.9	-41.0	16.9	0.00e+00	0	57	0	878706688	48	4833
2026-01-02 08:59:04.10	11.21	22.69	-38.9	-41.0	16.9	0.00e+00	0	57	0	880803840	48	4863
2026-01-02 08:59:05.11	11.02	22.58	-39.0	-41.1	16.9	0.00e+00	0	57	0	882900992	48	4886
2026-01-02 08:59:06.12	10.84	22.47	-38.9	-41.0	16.9	0.00e+00	0	57	0	884998144	48	4836
2026-01-02 08:59:07.13	10.66	22.36	-38.9	-41.0	16.9	0.00e+00	0	57	0	886046720	48	4858
2026-01-02 08:59:08.14	10.48	22.26	-38.9	-41.0	16.9	0.00e+00	0	57	0	888143872	48	4854
2026-01-02 08:59:09.15	10.30	22.15	-38.9	-41.0	16.9	0.00e+00	0	57	0	890241024	48	4852
2026-01-02 08:59:10.15	10.12	22.04	-39.1	-41.2	16.7	0.00e+00	0	57	0	892338176	48	4975
2026-01-02 08:59:11.16	9.94	21.93	-39.0	-41.1	16.8	0.00e+00	0	57	0	893386752	48	4913
2026-01-02 08:59:12.16	9.77	21.83	-39.0	-41.1	16.8	0.00e+00	0	57	0	895483904	48	4897
2026-01-02 08:59:13.17	9.59	21.72	-39.0	-41.1	16.7	0.00e+00	0	57	0	897581056	48	4914
2026-01-02 08:59:14.19	9.42	21.61	-39.1	-41.3	16.7	0.00e+00	0	57	0	899678208	48	4985
2026-01-02 08:59:15.19	9.25	21.51	-39.1	-41.3	16.5	0.00e+00	0	57	0	901775360	48	5038
2026-01-02 08:59:16.21	9.08	21.40	-39.2	-41.5	16.4	0.00e+00	0	57	0	903872512	49	4827
2026-01-02 08:59:17.21	8.91	21.30	-39.3	-41.5	16.4	0.00e+00	0	57	0	904921088	49	4841
2026-01-02 08:59:18.22	8.74	21.19	-39.3	-41.6	16.2	0.00e+00	0	57	0	907018240	49	4901
2026-01-02 08:59:19.23	8.57	21.08	-39.4	-41.8	16.1	0.00e+00	0	57	0	909115392	49	4986
2026-01-02 08:59:20.24	8.41	20.98	-39.5	-41.8	16.0	0.00e+00	0	57	0	911212544	49	5008
2026-01-02 08:59:21.25	8.24	20.87	-39.4	-41.7	16.1	0.00e+00	0	57	0	913309696	49	4983
2026-01-02 08:59:22.26	8.08	20.77	-39.4	-41.7	16.1	0.00e+00	0	57	0	914358272	49	4983
2026-01-02 08:59:23.27	7.91	20.66	-39.5	-41.8	16.0	0.00e+00	0	57	0	916455424	49	5028
2026-01-02 08:59:24.28	7.75	20.56	-39.5	-41.9	16.0	0.00e+00	0	57	0	918552576	49	5042
2026-01-02 08:59:25.29	7.59	20.45	-39.6	-42.0	15.8	0.00e+00	0	57	0	920649728	49	5148
2026-01-02 08:59:26.30	7.43	20.35	-39.8	-42.3	15.6	0.00e+00	0	57	0	922746880	50	4993
2026-01-02 08:59:27.31	7.27	20.24	-39.9	-42.4	15.4	0.00e+00	0	57	0	923795456	50	5075
2026-01-02 08:59:28.32	7.12	20.14	-39.8	-42.3	15.6	0.00e+00	0	57	0	925892608	50	4992
2026-01-02 08:59:29.33	6.96	20.04	-39.8	-42.3	15.6	0.00e+00	0	57	0	927989760	50	5006
2026-01-02 08:59:30.34	6.81	19.93	-39.7	-42.1	15.7	0.00e+00	0	57	0	930086912	50	4920
2026-01-02 08:59:31.35	6.65	19.83	-39.7	-42.1	15.7	0.00e+00	0	57	0	932184064	50	4889
2026-01-02 08:59:32.36	6.50	19.72	-39.6	-42.0	15.8	0.00e+00	0	57	0	933232640	50	4830
2026-01-02 08:59:33.37	6.35	19.62	-39.6	-42.0	15.8	0.00e+00	0	57	0	935329792	50	4850
2026-01-02 08:59:34.38	6.20	19.52	-39.5	-41.9	15.9	0.00e+00	0	57	0	937426944	50	4800
2026-01-02 08:59:35.38	6.05	19.42	-39.4	-41.7	16.1	0.00e+00	0	57	0	939524096	50	4684
2026-01-02 08:59:36.39	5.90	19.31	-39.5	-41.9	15.9	0.00e+00	0	57	0	941621248	50	4769
2026-01-02 08:59:37.40	5.75	19.21	-39.6	-42.0	15.8	0.00e+00	0	57	0	942669824	50	4827
2026-01-02 08:59:38.41	5.60	19.11	-39.7	-42.1	15.7	0.00e+00	0	57	0	944766976	50	4900
2026-01-02 08:59:39.42	5.46	19.01	-39.7	-42.2	15.6	0.00e+00	0	57	0	946864128	50	4944
2026-01-02 08:59:40.43	5.31	18.91	-39.7	-42.2	15.5	0.00e+00	0	57	0	948961280	50	4970
2026-01-02 08:59:41.44	5.17	18.81	-39.8	-42.3	15.4	0.00e+00	0	57	0	951058432	50	5038
2026-01-02 08:59:42.45	5.03	18.70	-39.8	-42.4	15.4	0.00e+00	0	57	0	952107008	50	5051
2026-01-02 08:59:43.46	4.89	18.60	-39.9	-42.5	15.2	0.00e+00	0	57	0	954204160	50	5130
2026-01-02 08:59:44.47	4.74	18.50	-40.0	-42.5	15.2	0.00e+00	0	57	0	956301312	50	5159
2026-01-02 08:59:45.48	4.61	18.40	-40.0	-42.6	15.1	0.00e+00	0	57	0	958398464	50	5194
2026-01-02 08:59:46.49	4.47	18.30	-39.9	-42.5	15.2	0.00e+00	0	57	0	960495616	50	5149
2026-01-02 08:59:47.50	4.33	18.20	-39.9	-42.5	15.2	7.00e-07	0	57	0	961544192	50	5141
2026-01-02 08:59:48.51	4.19	18.10	-39.9	-42.4	15.3	0.00e+00	0	57	0	963641344	50	5091
2026-01-02 08:59:49.52	4.05	18.00	-39.9	-42.5	15.2	0.00e+00	0	57	0	965738496	50	5129
2026-01-02 08:59:50.53	3.92	17.90	-39.9	-42.4	15.2	0.00e+00	0	57	0	967835648	50	5096
2026-01-02 08:59:51.54	3.79	17.81	-39.9	-42.5	15.1	0.00e+00	0	57	0	969932800	50	5133
2026-01-02 08:59:52.55	3.65	17.71	-39.9	-42.6	15.1	7.00e-07	0	57	0	972029952	50	5165
2026-01-02 08:59:53.56	3.52	17.61	-39.8	-42.4	15.3	0.00e+00	0	57	0	973078528	50	5047
2026-01-02 08:59:54.57	3.39	17.51	-39.8	-42.4	15.3	7.00e-07	0	57	0	975175680	50	5053
2026-01-02 08:59:55.58	3.26	17.41	-39.8	-42.4	15.2	0.00e+00	0	57	0	977272832	50	5083
2026-01-02 08:59:56.59	3.13	17.31	-39.8	-42.3	15.3	0.00e+00	0	57	0	979369984	50	5022
2026-01-02 08:59:57.60	3.00	17.22	-39.8	-42.3	15.3	7.00e-07	0	57	0	981467136	50	5014
2026-01-02 08:59:58.61	2.87	17.12	-39.8	-42.4	15.2	0.00e+00	0	57	0	982515712	50	5054
2026-01-02 08:59:59.62	2.74	17.02	-39.9	-42.5	15.1	0.00e+00	0	57	0	984612864	50	5123
2026-01-02 09:00:00.63	2.62	16.92	-39.8	-42.4	15.2	0.00e+00	0	57	0	986710016	50	5045
2026-01-02 09:00:01.64	2.49	16.83	-39.7	-42.3	15.2	0.00e+00	0	57	0	988807168	50	4998
2026-01-02 09:00:02.65	2.36	16.73	-39.7	-42.3	15.2	0.00e+00	0	57	0	990904320	50	5014
2026-01-02 09:00:03.66	2.24	16.64	-39.7	-42.3	15.2	0.00e+00	0	57	0	991952896	50	5018
2026-01-02 09:00:04.67	2.12	16.54	-39.7	-42.3	15.2	0.00e+00	0	57	0	994050048	50	5018
2026-01-02 09:00:05.68	1.99	16.44	-39.8	-42.5	15.0	0.00e+00	0	57	0	996147200	50	5121
2026-01-02 09:00:06.69	1.87	16.35	-39.9	-42.5	14.9	0.00e+00	0	57	0	998244352	50	5153
2026-01-02 09:00:07.70	1.75	16.25	-39.9	-42.6	14.9	0.00e+00	0	57	0	1000341504	50	5171
2026-01-02 09:00:08.71	1.63	16.16	-39.9	-42.6	14.9	0.00e+00	0	57	0	1001390080	50	5165
2026-01-02 09:00:09.72	1.51	16.06	-39.9	-42.6	14.8	0.00e+00	0	57	0	1003487232	50	5203
2026-01-02 09:00:10.73	1.39	15.97	-39.9	-42.6	14.8	0.00e+00	0	57	0	1005584384	50	5209
2026-01-02 09:00:11.74	1.28	15.88	-39.9	-42.6	14.8	0.00e+00	0	57	0	1007681536	50	5214
2026-01-02 09:00:12.75	1.16	15.78	-39.9	-42.5	14.9	0.00e+00	0	57	0	1009778688	50	5158
2026-01-02 09:00:13.76	1.04	15.69	-39.9	-42.6	14.8	0.00e+00	0	57	0	1010827264	50	5181
2026-01-02 09:00:14.77	0.93	15.59	-39.9	-42.7	14.7	0.00e+00	0	57	0	1012924416	50	5234
2026-01-02 09:00:15.78	0.81	15.50	-39.9	-42.6	14.7	1.50e-06	0	57	0	1015021568	50	5216
2026-01-02 09:00:16.79	0.70	15.41	-39.8	-42.5	14.8	0.00e+00	0	57	0	1017118720	50	5145
2026-01-02 09:00:17.80	0.59	15.31	-39.8	-42.5	14.9	7.00e-07	0	57	0	1019215872	50	5141
2026-01-02 09:00:18.81	0.47	15.22	-39.9	-42.6	14.8	0.00e+00	0	57	0	1020264448	50	5186
2026-01-02 09:00:19.82	0.36	15.13	-39.9	-42.7	14.6	0.00e+00	0	57	0	1022361600	50	5266
2026-01-02 09:00:20.83	0.25	15.04	-39.9	-42.6	14.7	7.00e-07	0	57	0	1024458752	50	5201
2026-01-02 09:00:21.84	0.14	14.95	-39.8	-42.6	14.7	0.00e+00	0	57	0	1026555904	50	5201
2026-01-02 09:00:22.85	0.03	14.85	-39.8	-42.6	14.7	7.00e-07	0	57	0	1028653056	50	5180
2026-01-02 09:00:23.85	359.92	14.76	-39.7	-42.4	14.8	0.00e+00	0	57	0	1029701632	50	5086
2026-01-02 09:00:24.86	359.81	14.67	-39.7	-42.4	14.8	0.00e+00	0	57	0	1031798784	50	5066
2026-01-02 09:00:25.87	359.71	14.58	-39.8	-42.6	14.6	7.00e-07	0	57	0	1033895936	50	5196
2026-01-02 09:00:26.88	359.60	14.49	-39.8	-42.6	14.5	7.00e-07	0	57	0	1035993088	50	5217
2026-01-02 09:00:27.89	359.49	14.40	-39.8	-42.7	14.5	7.00e-07	0	57	0	1038090240	50	5223
2026-01-02 09:00:28.90	359.39	14.31	-39.7	-42.5	14.6	7.00e-07	0	57	0	1040187392	50	5127
2026-01-02 09:00:29.91	359.28	14.22	-39.5	-42.3	14.7	0.00e+00	0	57	0	1041235968	50	5009
2026-01-02 09:00:30.92	359.18	14.13	-39.3	-42.1	14.8	0.00e+00	0	57	0	1043333120	50	4879
2026-01-02 09:00:31.93	359.07	14.04	-39.2	-42.0	14.7	0.00e+00	0	57	0	1045430272	50	4858
2026-01-02 09:00:32.94	358.97	13.95	-39.3	-42.4	14.2	0.00e+00	0	57	0	1047527424	50	5059
2026-01-02 09:00:33.95	358.87	13.86	-39.4	-42.6	13.8	2.20e-06	0	57	0	1049624576	50	5207
2026-01-02 09:00:34.96	358.77	13.77	-39.6	-43.1	13.2	9.90e-06	0	57	0	1050673152	50	5483
2026-01-02 09:00:35.97	358.67	13.69	-39.7	-43.3	12.9	3.81e-05	0	57	0	1052770304	50	5602
2026-01-02 09:00:36.98	358.57	13.60	-39.7	-43.4	12.6	9.15e-05	0	57	0	1054867456	50	5719
2026-01-02 09:00:37.99	358.47	13.51	-39.9	-44.0	11.8	2.85e-04	0	57	0	1056964608	50	6125
2026-01-02 09:00:39.00	358.37	13.42	-40.0	-44.5	11.1	9.08e-04	0	57	0	1059061760	50	6490
2026-01-02 09:00:40.01	358.27	13.33	-40.2	-44.9	10.7	2.17e-03	0	57	0	1060110336	50	6786
2026-01-02 09:00:41.01	358.17	13.25	-40.2	-45.2	10.2	5.58e-03	0	57	0	1062207488	51	6643
2026-01-02 09:00:42.02	358.07	13.16	-40.2	-45.4	9.9	8.26e-03	0	57	0	1064304640	51	6784
2026-01-02 09:00:43.03	357.98	13.07	-40.2	-45.5	9.8	1.03e-02	0	57	0	1066401792	51	6865
2026-01-02 09:00:44.04	357.88	12.99	-40.1	-45.5	9.7	1.05e-02	0	57	0	1068498944	51	6838
2026-01-02 09:00:45.05	357.78	12.90	-40.2	-45.6	9.6	1.12e-02	0	57	0	1069547520	51	6899
2026-01-02 09:00:46.06	357.69	12.81	-40.3	-46.0	9.0	1.74e-02	0	57	0	1071644672	51	7270
2026-01-02 09:00:47.07	357.59	12.73	-40.3	-46.7	8.3	4.16e-02	0	57	0	1073741824	51	7820
2026-01-02 09:00:48.08	357.50	12.64	-40.3	-46.9	8.0	6.36e-02	0	57	0	1075838976	51	8028
2026-01-02 09:00:49.09	357.41	12.56	-39.8	-46.4	8.1	7.03e-02	0	57	0	1077936128	51	7590
2026-01-02 09:00:50.10	357.31	12.47	-39.5	-46.2	8.0	6.41e-02	0	57	0	1078984704	51	7426
2026-01-02 09:00:51.11	357.22	12.39	-39.4	-46.1	8.0	7.25e-02	0	57	0	1081081856	50	7755
2026-01-02 09:00:52.12	357.13	12.30	-39.4	-46.3	7.8	5.79e-02	0	57	0	1083179008	50	7917
2026-01-02 09:00:53.13	357.04	12.22	-39.5	-47.2	7.0	1.01e-01	0	57	0	1085276160	50	8778
2026-01-02 09:00:54.14	356.95	12.13	-39.6	-48.3	5.8	2.97e-01	0	57	0	1087373312	50	10051
2026-01-02 09:00:55.14	356.86	12.05	-39.7	-49.4	5.1	5.43e-01	0	57	0	1088421888	50	11361
2026-01-02 09:00:56.15	356.77	11.96	-39.7	-50.3	4.5	8.04e-01	2	57	0	1090519040	50	12639
2026-01-02 09:00:57.16	356.68	11.88	-39.7	-51.2	4.2	1.35e+00	0	57	0	1091567616	50	13952
2026-01-02 09:00:58.17	356.59	11.80	-39.7	-52.0	3.9	1.44e+00	0	57	104	1091567616	50	15382
2026-01-02 09:00:59.18	356.50	11.71	-39.6	-52.7	3.8	1.48e+00	0	57	104	1091567616	50	16515
2026-01-02 09:01:00.19	356.42	11.63	-39.6	-53.1	3.8	1.49e+00	0	57	104	1091567616	50	17477
2026-01-02 09:01:01.20	356.33	11.55	-39.6	-53.5	3.8	1.49e+00	0	57	104	1091567616	50	18217
2026-01-02 09:01:02.21	356.24	11.46	-39.5	-53.8	3.8	1.49e+00	0	57	104	1091567616	50	18842
2026-01-02 09:01:03.22	356.16	11.38	-39.4	-54.0	3.8	1.49e+00	0	57	104	1091567616	50	19205
2026-01-02 09:01:04.23	356.07	11.30	-39.4	-54.0	3.8	1.49e+00	0	57	104	1091567616	50	19387
2026-01-02 09:01:05.24	355.99	11.22	-39.3	-54.1	3.8	1.49e+00	0	57	104	1091567616	50	19477
2026-01-02 09:01:06.25	355.90	11.13	-39.4	-54.1	3.8	1.49e+00	0	57	104	1091567616	50	19435
2026-01-02 09:01:07.26	355.82	11.05	-39.3	-54.1	3.8	1.49e+00	0	57	104	1091567616	50	19526
2026-01-02 09:01:08.27	355.73	10.97	-39.6	-54.3	3.8	1.49e+00	0	57	104	1091567616	50	19933
2026-01-02 09:01:09.28	355.65	10.89	-38.4	-54.1	3.8	1.49e+00	0	57	104	1091567616	48	21767
2026-01-02 09:01:10.29	355.57	10.81	-39.5	-54.3	3.8	1.49e+00	0	57	104	1091567616	49	21070
2026-01-02 09:01:11.30	355.49	10.73	-38.8	-54.1	3.8	1.49e+00	0	57	104	1091567616	49	20602
2026-01-02 09:01:12.30	355.41	10.65	-39.4	-54.1	3.8	1.49e+00	0	57	104	1091567616	49	20697
2026-01-02 09:01:13.31	355.33	10.57	-39.1	-54.1	3.8	1.49e+00	0	57	104	1091567616	49	20644
2026-01-02 09:01:14.32	355.25	10.49	-39.5	-54.1	3.8	1.49e+00	0	57	104	1091567616	49	20689
2026-01-02 09:01:15.33	355.16	10.41	-39.3	-54.1	3.8	1.49e+00	0	57	104	1091567616	49	20725
2026-01-02 09:01:16.34	355.09	10.33	-39.5	-54.2	3.8	1.49e+00	0	57	104	1091567616	49	20803
2026-01-02 09:01:17.35	355.01	10.25	-39.3	-54.1	3.8	1.49e+00	0	57	104	1091567616	49	20702
2026-01-02 09:01:18.36	354.93	10.17	-39.5	-54.2	3.8	1.49e+00	0	57	104	1091567616	49	20887
2026-01-02 09:01:19.37	354.85	10.09	-39.5	-54.2	3.8	1.49e+00	0	57	104	1091567616	49	20843
2026-01-02 09:01:20.38	354.77	10.01	-39.5	-54.1	3.8	1.49e+00	0	57	104	1091567616	49	20752
2026-01-02 09:01:21.39	354.69	9.93	-39.4	-54.1	3.8	1.49e+00	0	57	104	1091567616	49	20742
2026-01-02 09:01:22.40	354.62	9.85	-39.5	-54.2	3.8	1.49e+00	0	57	104	1091567616	49	20827
2026-01-02 09:01:23.41	354.54	9.77	-39.5	-54.1	3.8	1.49e+00	0	57	104	1091567616	49	20746
2026-01-02 09:01:24.42	354.46	9.70	-39.5	-54.2	3.8	1.49e+00	0	57	104	1091567616	49	20823
