passes_logs/2026/01/02/R2.0S_Moscow/R2.0S_Moscow__20260102_001757_SUOMI_NPP_rec.log

#Pass ID: 20260102_001757_SUOMI NPP
#Satellite: SUOMI NPP
#Configuration: NPP
#almurnet v.1.7.20251203
#Start time: 2026-01-02 00:17:59

#Version: 2.2.20231116
#Station: R2.0S_Moscow
#Location: 37.707566 lon 55.798166 lat
#TLE: 1 37849U 11061A   26001.07732418  .00000182  00000+0  10735-3 0  9990
#TLE: 2 37849  98.7795 303.2470 0002580  87.2016 272.9455 14.19520779734739

#Time	Az	El	Level	Level2	SNR	BER	BlckErr	Temp	State	Recorded	gain1	gain2
2026-01-02 00:17:59.53	13.88	2.11	-42.9	-57.4	3.8	1.49e+00	0	48	0	0	56	20154
2026-01-02 00:18:00.53	13.86	2.17	-42.9	-57.4	3.8	1.49e+00	0	48	104	0	57	18980
2026-01-02 00:18:01.54	13.84	2.24	-42.9	-57.4	3.8	1.49e+00	0	48	104	0	57	18976
2026-01-02 00:18:02.55	13.82	2.30	-42.9	-57.3	3.8	1.49e+00	0	48	104	0	57	18937
2026-01-02 00:18:03.56	13.80	2.36	-42.9	-57.4	3.8	1.49e+00	0	48	104	0	57	18967
2026-01-02 00:18:04.57	13.78	2.43	-42.9	-57.4	3.8	1.49e+00	0	49	104	0	57	19004
2026-01-02 00:18:05.59	13.75	2.49	-42.9	-57.4	3.8	1.49e+00	0	48	104	0	57	18978
2026-01-02 00:18:06.59	13.73	2.56	-42.9	-57.3	3.8	1.49e+00	0	49	104	0	57	18910
2026-01-02 00:18:07.61	13.71	2.62	-42.9	-57.4	3.8	1.49e+00	0	49	104	0	57	18971
2026-01-02 00:18:08.62	13.69	2.69	-42.9	-57.3	3.8	1.49e+00	0	49	104	0	57	18927
2026-01-02 00:18:09.63	13.67	2.76	-42.9	-57.3	3.8	1.49e+00	0	49	104	0	57	18888
2026-01-02 00:18:10.64	13.65	2.82	-42.9	-57.4	3.8	1.49e+00	0	49	104	0	57	18958
2026-01-02 00:18:11.65	13.62	2.89	-42.9	-57.4	3.8	1.49e+00	0	49	104	0	57	19039
2026-01-02 00:18:12.66	13.60	2.95	-42.9	-57.3	3.8	1.49e+00	0	49	104	0	57	18926
2026-01-02 00:18:13.67	13.58	3.02	-42.9	-57.3	3.8	1.49e+00	0	49	104	0	57	18887
2026-01-02 00:18:14.68	13.56	3.08	-42.9	-57.4	3.8	1.49e+00	0	49	104	0	57	18950
2026-01-02 00:18:15.69	13.54	3.15	-42.9	-57.3	3.8	1.49e+00	0	49	104	0	57	18847
2026-01-02 00:18:16.70	13.51	3.22	-42.9	-57.3	3.8	1.49e+00	0	49	104	0	57	18864
2026-01-02 00:18:17.71	13.49	3.28	-42.9	-57.3	3.8	1.49e+00	0	49	104	0	57	18818
2026-01-02 00:18:18.73	13.47	3.35	-42.9	-57.3	3.8	1.49e+00	0	49	104	0	57	18859
2026-01-02 00:18:19.74	13.45	3.42	-42.9	-57.3	3.8	1.49e+00	0	49	104	0	57	18834
2026-01-02 00:18:20.75	13.42	3.48	-42.9	-57.3	3.8	1.49e+00	0	49	104	0	57	18860
2026-01-02 00:18:21.76	13.40	3.55	-42.9	-57.3	3.8	1.49e+00	0	49	104	0	57	18808
2026-01-02 00:18:22.77	13.38	3.62	-42.9	-57.3	3.8	1.49e+00	0	50	104	0	57	18831
2026-01-02 00:18:23.78	13.35	3.69	-42.9	-57.3	3.8	1.49e+00	0	50	104	0	57	18863
2026-01-02 00:18:24.79	13.33	3.75	-42.9	-57.3	3.8	1.49e+00	0	50	104	0	57	18809
2026-01-02 00:18:25.80	13.31	3.82	-42.9	-57.3	3.8	1.49e+00	0	50	104	0	57	18864
2026-01-02 00:18:26.81	13.28	3.89	-42.9	-57.3	3.8	1.49e+00	0	50	104	0	57	18841
2026-01-02 00:18:27.82	13.26	3.96	-42.9	-57.3	3.8	1.49e+00	0	50	104	0	57	18929
2026-01-02 00:18:28.83	13.23	4.03	-42.9	-57.3	3.8	1.49e+00	0	50	104	0	57	18925
2026-01-02 00:18:29.85	13.21	4.09	-42.9	-57.3	3.8	1.49e+00	0	50	104	0	57	18874
2026-01-02 00:18:30.86	13.19	4.16	-42.9	-57.3	3.8	1.49e+00	0	50	104	0	57	18879
2026-01-02 00:18:31.87	13.16	4.23	-42.9	-57.4	3.8	1.49e+00	0	50	104	0	57	18988
2026-01-02 00:18:32.88	13.14	4.30	-42.9	-57.3	3.8	1.49e+00	0	50	104	0	57	18941
2026-01-02 00:18:33.89	13.11	4.37	-42.9	-57.3	3.8	1.49e+00	0	50	104	0	57	18894
2026-01-02 00:18:34.90	13.09	4.44	-42.9	-57.3	3.8	1.49e+00	0	50	104	0	57	18887
2026-01-02 00:18:35.91	13.06	4.51	-42.9	-57.3	3.8	1.49e+00	0	50	104	0	57	18904
2026-01-02 00:18:36.92	13.04	4.58	-42.9	-57.3	3.8	1.49e+00	0	51	104	0	57	18856
2026-01-02 00:18:37.93	13.01	4.65	-42.9	-57.3	3.8	1.49e+00	0	50	104	0	57	18789
2026-01-02 00:18:38.95	12.99	4.72	-42.9	-57.3	3.8	1.49e+00	0	51	104	0	57	18764
2026-01-02 00:18:39.96	12.96	4.79	-42.9	-57.3	3.8	1.49e+00	0	51	104	0	57	18787
2026-01-02 00:18:40.97	12.94	4.86	-42.9	-57.2	3.8	1.49e+00	0	51	104	0	57	18693
2026-01-02 00:18:41.98	12.91	4.93	-42.9	-57.2	3.8	1.49e+00	0	51	104	0	57	18630
2026-01-02 00:18:42.99	12.88	5.00	-42.9	-57.2	3.8	1.49e+00	0	51	104	0	57	18724
2026-01-02 00:18:44.00	12.86	5.07	-42.9	-57.2	3.8	1.49e+00	0	51	104	0	57	18705
2026-01-02 00:18:45.01	12.83	5.14	-42.9	-57.2	3.8	1.49e+00	0	51	104	0	57	18682
2026-01-02 00:18:46.02	12.80	5.21	-42.9	-57.2	3.8	1.49e+00	0	51	104	0	57	18679
2026-01-02 00:18:47.03	12.78	5.29	-42.9	-57.2	3.8	1.49e+00	0	51	104	0	57	18570
2026-01-02 00:18:48.04	12.75	5.36	-42.9	-57.1	3.8	1.49e+00	0	51	104	0	57	18318
2026-01-02 00:18:49.06	12.72	5.43	-42.9	-56.9	3.8	1.49e+00	0	51	104	0	57	18073
2026-01-02 00:18:50.07	12.70	5.50	-42.9	-56.8	3.8	1.49e+00	0	51	104	0	57	17824
2026-01-02 00:18:51.08	12.67	5.57	-42.8	-56.8	3.8	1.49e+00	0	51	104	0	57	17686
2026-01-02 00:18:52.09	12.64	5.65	-42.8	-56.6	3.8	1.49e+00	0	51	104	0	57	17450
2026-01-02 00:18:53.10	12.62	5.72	-42.8	-56.6	3.8	1.49e+00	0	51	104	0	57	17360
2026-01-02 00:18:54.11	12.59	5.79	-42.8	-56.5	3.8	1.49e+00	0	51	104	0	57	17207
2026-01-02 00:18:55.12	12.56	5.86	-42.8	-56.4	3.8	1.49e+00	0	51	104	0	57	16942
2026-01-02 00:18:56.13	12.53	5.94	-42.8	-56.4	3.8	1.49e+00	0	52	104	0	57	16944
2026-01-02 00:18:57.14	12.50	6.01	-42.8	-56.3	3.8	1.49e+00	0	51	104	0	57	16839
2026-01-02 00:18:58.15	12.48	6.08	-42.8	-56.1	3.8	1.49e+00	0	52	104	0	57	16428
2026-01-02 00:18:59.16	12.45	6.16	-42.8	-55.7	3.8	1.49e+00	0	52	104	0	57	15690
2026-01-02 00:19:00.18	12.42	6.23	-42.8	-55.4	3.8	1.49e+00	0	52	104	0	57	15163
2026-01-02 00:19:01.19	12.39	6.31	-42.7	-54.6	3.9	1.48e+00	0	52	104	0	57	13741
2026-01-02 00:19:02.20	12.36	6.38	-42.6	-53.3	4.3	1.36e+00	0	52	0	0	57	11871
2026-01-02 00:19:03.21	12.33	6.46	-42.4	-52.0	4.9	8.95e-01	0	52	0	1048576	56	10822
2026-01-02 00:19:04.22	12.30	6.53	-42.3	-50.8	5.6	5.96e-01	0	52	0	3145728	56	9427
2026-01-02 00:19:05.23	12.27	6.61	-42.0	-49.4	6.7	2.40e-01	0	52	0	5242880	56	8014
2026-01-02 00:19:06.24	12.24	6.68	-41.4	-47.6	8.2	9.63e-02	0	52	0	7340032	54	7345
2026-01-02 00:19:07.25	12.21	6.76	-41.2	-46.7	9.2	4.08e-02	0	52	0	9437184	54	6585
2026-01-02 00:19:08.26	12.18	6.83	-40.8	-45.6	10.2	1.20e-02	0	52	0	10485760	53	6188
2026-01-02 00:19:09.27	12.15	6.91	-40.4	-44.7	11.2	1.77e-03	0	52	0	12582912	52	5912
2026-01-02 00:19:10.28	12.12	6.98	-40.0	-43.7	12.3	4.19e-04	0	52	0	14680064	51	5591
2026-01-02 00:19:11.29	12.09	7.06	-39.6	-43.0	13.1	1.05e-04	0	52	0	16777216	51	5129
2026-01-02 00:19:12.30	12.06	7.14	-39.3	-42.5	13.6	1.06e-05	0	52	0	18874368	50	5121
2026-01-02 00:19:13.31	12.03	7.21	-38.9	-41.8	14.3	3.00e-06	0	52	0	19922944	49	5032
2026-01-02 00:19:14.32	12.00	7.29	-38.7	-41.5	14.5	7.00e-07	0	52	0	22020096	49	4867
2026-01-02 00:19:15.33	11.97	7.37	-38.6	-41.3	14.8	0.00e+00	0	52	0	24117248	49	4731
2026-01-02 00:19:16.34	11.94	7.45	-38.4	-41.1	15.0	0.00e+00	0	52	0	26214400	48	4890
2026-01-02 00:19:17.35	11.91	7.52	-38.4	-41.0	15.1	0.00e+00	0	52	0	28311552	48	4838
2026-01-02 00:19:18.36	11.87	7.60	-38.4	-41.1	15.0	0.00e+00	0	52	0	29360128	48	4912
2026-01-02 00:19:19.37	11.84	7.68	-38.6	-41.3	14.8	0.00e+00	0	53	0	31457280	48	5029
2026-01-02 00:19:20.38	11.81	7.76	-38.7	-41.6	14.5	7.00e-07	0	52	0	33554432	48	5182
2026-01-02 00:19:21.39	11.78	7.84	-39.0	-42.1	14.0	3.00e-06	0	52	0	35651584	48	5472
2026-01-02 00:19:22.40	11.74	7.91	-39.3	-42.5	13.7	4.50e-06	0	53	0	37748736	49	5440
2026-01-02 00:19:23.42	11.71	7.99	-39.7	-43.2	12.9	2.28e-05	0	53	0	38797312	49	5872
2026-01-02 00:19:24.43	11.68	8.07	-39.9	-43.9	12.0	9.07e-05	0	53	0	40894464	50	6046
2026-01-02 00:19:25.44	11.65	8.15	-39.1	-43.1	11.8	1.05e-02	0	53	0	42991616	50	5474
2026-01-02 00:19:26.45	11.61	8.23	-39.3	-42.7	13.3	7.55e-05	0	53	0	45088768	49	5574
2026-01-02 00:19:27.46	11.58	8.31	-42.3	-49.0	6.9	9.44e-01	0	53	104	46137344	56	7693
2026-01-02 00:19:28.47	11.54	8.39	-39.4	-42.7	13.4	2.37e-04	0	53	0	47185920	50	5266
2026-01-02 00:19:29.48	11.51	8.47	-39.8	-45.8	8.0	3.49e-01	0	53	0	49283072	50	7523
2026-01-02 00:19:30.49	11.48	8.55	-39.4	-43.2	12.3	3.52e-04	0	53	0	51380224	50	5579
2026-01-02 00:19:31.49	11.44	8.63	-39.5	-43.7	11.6	4.00e-04	0	53	0	53477376	50	5871
2026-01-02 00:19:32.50	11.41	8.72	-39.6	-43.8	11.4	6.35e-04	0	53	0	54525952	50	5991
2026-01-02 00:19:33.52	11.37	8.80	-39.6	-43.9	11.3	9.35e-04	0	53	0	56623104	50	6052
2026-01-02 00:19:34.52	11.34	8.88	-39.6	-44.3	10.8	2.01e-03	0	53	0	58720256	50	6279
2026-01-02 00:19:35.53	11.30	8.96	-39.6	-44.4	10.6	3.05e-03	0	53	0	60817408	50	6386
2026-01-02 00:19:36.54	11.27	9.04	-39.6	-44.2	10.8	2.43e-03	0	53	0	62914560	50	6269
2026-01-02 00:19:37.55	11.23	9.13	-39.6	-44.2	10.9	2.54e-03	0	53	0	63963136	50	6206
2026-01-02 00:19:38.56	11.19	9.21	-39.7	-44.3	10.9	2.63e-03	0	53	0	66060288	50	6335
2026-01-02 00:19:39.57	11.16	9.29	-39.8	-44.7	10.4	3.40e-03	0	53	0	68157440	50	6571
2026-01-02 00:19:40.58	11.12	9.37	-39.9	-44.8	10.2	4.55e-03	0	53	0	70254592	50	6698
2026-01-02 00:19:41.59	11.09	9.46	-39.9	-45.1	9.9	6.20e-03	0	53	0	72351744	50	6925
2026-01-02 00:19:42.60	11.05	9.54	-40.0	-45.1	9.9	9.86e-03	0	53	0	73400320	50	6907
2026-01-02 00:19:43.61	11.01	9.63	-40.0	-45.1	9.8	8.62e-03	0	53	0	75497472	50	6951
2026-01-02 00:19:44.62	10.97	9.71	-40.0	-45.3	9.6	1.07e-02	0	53	0	77594624	50	7119
2026-01-02 00:19:45.63	10.94	9.79	-40.0	-45.5	9.4	1.35e-02	0	53	0	79691776	50	7207
2026-01-02 00:19:46.64	10.90	9.88	-40.1	-45.7	9.2	1.89e-02	0	53	0	81788928	50	7455
2026-01-02 00:19:47.64	10.86	9.96	-40.2	-46.1	8.7	3.10e-02	0	53	0	82837504	50	7739
2026-01-02 00:19:48.65	10.82	10.05	-40.3	-46.2	8.6	3.41e-02	0	54	0	84934656	51	7442
2026-01-02 00:19:49.66	10.78	10.14	-40.3	-46.4	8.4	4.03e-02	0	53	0	87031808	51	7580
2026-01-02 00:19:50.67	10.74	10.22	-40.3	-46.4	8.4	4.92e-02	0	54	0	89128960	51	7607
2026-01-02 00:19:51.68	10.71	10.31	-40.2	-46.4	8.3	5.61e-02	0	54	0	91226112	51	7586
2026-01-02 00:19:52.69	10.67	10.39	-40.2	-46.2	8.6	4.46e-02	0	54	0	92274688	51	7393
2026-01-02 00:19:53.70	10.63	10.48	-40.2	-45.8	9.2	2.90e-02	0	54	0	94371840	51	7092
2026-01-02 00:19:54.71	10.59	10.57	-40.1	-45.5	9.5	1.56e-02	0	54	0	96468992	51	6841
2026-01-02 00:19:55.72	10.55	10.66	-40.1	-45.5	9.5	1.48e-02	0	54	0	98566144	51	6834
2026-01-02 00:19:56.73	10.51	10.74	-40.1	-45.3	9.7	1.45e-02	0	54	0	100663296	51	6716
2026-01-02 00:19:57.74	10.47	10.83	-40.0	-45.1	10.0	8.00e-03	0	54	0	101711872	51	6533
2026-01-02 00:19:58.75	10.42	10.92	-40.0	-45.0	10.2	7.06e-03	0	54	0	103809024	51	6447
2026-01-02 00:19:59.76	10.38	11.01	-39.9	-44.8	10.3	7.67e-03	0	54	0	105906176	51	6302
2026-01-02 00:20:00.77	10.34	11.10	-40.0	-44.6	10.8	3.08e-03	0	54	0	108003328	51	6150
2026-01-02 00:20:01.78	10.30	11.19	-40.0	-44.3	11.3	1.56e-03	0	54	0	110100480	51	5975
2026-01-02 00:20:02.79	10.26	11.28	-40.0	-44.1	11.6	8.22e-04	0	54	0	112197632	51	5853
2026-01-02 00:20:03.80	10.22	11.37	-39.9	-43.7	12.2	3.64e-04	0	54	0	113246208	51	5580
2026-01-02 00:20:04.81	10.17	11.46	-39.9	-43.4	12.9	7.40e-05	0	54	0	115343360	51	5377
2026-01-02 00:20:05.82	10.13	11.55	-39.6	-42.8	13.8	2.05e-05	0	54	0	117440512	51	4986
2026-01-02 00:20:06.83	10.09	11.64	-39.5	-42.3	14.4	7.00e-07	0	54	0	119537664	50	5039
2026-01-02 00:20:07.84	10.04	11.73	-39.3	-41.9	14.9	7.00e-07	0	54	0	121634816	50	4807
2026-01-02 00:20:08.85	10.00	11.82	-38.8	-41.3	15.6	0.00e+00	0	54	0	122683392	49	4707
2026-01-02 00:20:09.86	9.95	11.91	-38.3	-40.6	16.3	0.00e+00	0	54	0	124780544	48	4618
2026-01-02 00:20:10.87	9.91	12.01	-38.0	-40.2	16.7	0.00e+00	0	54	0	126877696	48	4395
2026-01-02 00:20:11.88	9.87	12.10	-37.8	-39.9	17.0	0.00e+00	0	54	0	128974848	47	4526
2026-01-02 00:20:12.89	9.82	12.19	-37.8	-39.9	17.1	0.00e+00	0	54	0	131072000	47	4497
2026-01-02 00:20:13.90	9.78	12.28	-37.9	-40.0	17.0	0.00e+00	0	54	0	132120576	47	4554
2026-01-02 00:20:14.91	9.73	12.38	-38.0	-40.1	16.9	0.00e+00	0	54	0	134217728	47	4645
2026-01-02 00:20:15.92	9.68	12.47	-38.2	-40.3	16.7	0.00e+00	0	54	0	136314880	47	4758
2026-01-02 00:20:16.92	9.64	12.56	-38.1	-40.3	16.8	0.00e+00	0	54	0	138412032	47	4713
2026-01-02 00:20:17.93	9.59	12.66	-38.2	-40.4	16.6	0.00e+00	0	54	0	140509184	47	4798
2026-01-02 00:20:18.94	9.54	12.75	-38.3	-40.5	16.5	0.00e+00	0	54	0	141557760	47	4863
2026-01-02 00:20:19.95	9.50	12.85	-38.4	-40.6	16.5	0.00e+00	0	54	0	143654912	47	4882
2026-01-02 00:20:20.96	9.45	12.94	-38.4	-40.5	16.6	0.00e+00	0	54	0	145752064	47	4866
2026-01-02 00:20:21.97	9.40	13.04	-38.3	-40.5	16.7	0.00e+00	0	54	0	147849216	47	4822
2026-01-02 00:20:22.98	9.35	13.14	-38.0	-40.1	17.1	0.00e+00	0	54	0	149946368	47	4602
2026-01-02 00:20:23.99	9.30	13.23	-38.1	-40.3	16.9	0.00e+00	0	55	0	150994944	47	4718
2026-01-02 00:20:25.00	9.26	13.33	-38.2	-40.3	16.9	0.00e+00	0	55	0	153092096	47	4719
2026-01-02 00:20:26.01	9.21	13.43	-38.1	-40.2	16.9	0.00e+00	0	54	0	155189248	47	4704
2026-01-02 00:20:27.02	9.16	13.53	-38.0	-40.1	17.0	0.00e+00	0	54	0	157286400	47	4641
2026-01-02 00:20:28.03	9.11	13.62	-38.1	-40.2	16.9	0.00e+00	0	55	0	159383552	47	4670
2026-01-02 00:20:29.04	9.06	13.72	-38.1	-40.2	16.9	0.00e+00	0	55	0	160432128	47	4691
2026-01-02 00:20:30.05	9.01	13.82	-38.0	-40.1	17.1	0.00e+00	0	54	0	162529280	47	4627
2026-01-02 00:20:31.06	8.95	13.92	-38.1	-40.2	17.1	0.00e+00	0	55	0	164626432	47	4652
2026-01-02 00:20:32.07	8.90	14.02	-38.2	-40.4	16.8	0.00e+00	0	54	0	166723584	47	4769
2026-01-02 00:20:33.08	8.85	14.12	-37.9	-39.9	17.2	0.00e+00	0	54	0	168820736	47	4524
2026-01-02 00:20:34.09	8.80	14.22	-37.9	-39.9	17.2	0.00e+00	0	55	0	169869312	47	4539
2026-01-02 00:20:35.10	8.75	14.32	-37.9	-39.9	17.3	0.00e+00	0	55	0	171966464	47	4509
2026-01-02 00:20:36.11	8.69	14.42	-37.8	-39.8	17.4	0.00e+00	0	55	0	174063616	47	4443
2026-01-02 00:20:37.12	8.64	14.52	-37.9	-39.9	17.3	0.00e+00	0	55	0	176160768	47	4519
2026-01-02 00:20:38.13	8.59	14.63	-37.8	-39.8	17.4	0.00e+00	0	55	0	178257920	47	4465
2026-01-02 00:20:39.14	8.53	14.73	-37.7	-39.6	17.6	0.00e+00	0	55	0	180355072	47	4388
2026-01-02 00:20:40.15	8.48	14.83	-37.8	-39.7	17.6	0.00e+00	0	55	0	181403648	47	4406
2026-01-02 00:20:41.16	8.42	14.94	-37.7	-39.6	17.6	0.00e+00	0	55	0	183500800	47	4360
2026-01-02 00:20:42.17	8.37	15.04	-37.7	-39.6	17.7	0.00e+00	0	55	0	185597952	47	4370
2026-01-02 00:20:43.18	8.31	15.14	-37.5	-39.3	17.9	0.00e+00	0	55	0	187695104	47	4242
2026-01-02 00:20:44.19	8.25	15.25	-37.6	-39.5	17.8	0.00e+00	0	55	0	189792256	47	4293
2026-01-02 00:20:45.20	8.20	15.35	-37.8	-39.7	17.6	0.00e+00	0	55	0	190840832	47	4413
2026-01-02 00:20:46.21	8.14	15.46	-37.6	-39.5	17.9	0.00e+00	0	55	0	192937984	47	4294
2026-01-02 00:20:47.22	8.08	15.56	-37.6	-39.4	17.9	0.00e+00	0	55	0	195035136	47	4276
2026-01-02 00:20:48.23	8.03	15.67	-37.7	-39.5	17.8	0.00e+00	0	55	0	197132288	47	4320
2026-01-02 00:20:49.24	7.97	15.78	-37.6	-39.4	17.9	0.00e+00	0	55	0	199229440	47	4268
2026-01-02 00:20:50.25	7.91	15.88	-37.6	-39.5	17.9	0.00e+00	0	55	0	200278016	47	4305
2026-01-02 00:20:51.26	7.85	15.99	-37.7	-39.6	17.8	0.00e+00	0	55	0	202375168	47	4355
2026-01-02 00:20:52.27	7.79	16.10	-37.6	-39.5	17.9	0.00e+00	0	55	0	204472320	47	4303
2026-01-02 00:20:53.28	7.73	16.21	-37.8	-39.6	17.7	0.00e+00	0	55	0	206569472	47	4385
2026-01-02 00:20:54.29	7.67	16.32	-37.8	-39.6	17.7	0.00e+00	0	55	0	208666624	47	4384
2026-01-02 00:20:55.30	7.61	16.43	-37.8	-39.7	17.7	0.00e+00	0	55	0	209715200	47	4412
2026-01-02 00:20:56.31	7.55	16.54	-37.8	-39.7	17.6	0.00e+00	0	55	0	211812352	47	4428
2026-01-02 00:20:57.32	7.48	16.65	-37.9	-39.8	17.6	0.00e+00	0	55	0	213909504	47	4489
2026-01-02 00:20:58.33	7.42	16.76	-37.9	-39.8	17.5	0.00e+00	0	55	0	216006656	47	4482
2026-01-02 00:20:59.34	7.36	16.87	-37.8	-39.6	17.8	0.00e+00	0	55	0	218103808	47	4374
2026-01-02 00:21:00.35	7.29	16.98	-37.7	-39.6	17.8	0.00e+00	0	55	0	219152384	47	4380
2026-01-02 00:21:01.36	7.23	17.09	-37.8	-39.6	17.7	0.00e+00	0	55	0	221249536	47	4390
2026-01-02 00:21:02.37	7.17	17.20	-37.9	-39.8	17.6	0.00e+00	0	55	0	223346688	47	4447
2026-01-02 00:21:03.38	7.10	17.32	-37.9	-39.8	17.7	0.00e+00	0	55	0	225443840	47	4442
2026-01-02 00:21:04.39	7.03	17.43	-37.8	-39.6	17.8	0.00e+00	0	55	0	227540992	47	4389
2026-01-02 00:21:05.40	6.97	17.54	-37.7	-39.6	17.8	0.00e+00	0	55	0	228589568	47	4355
2026-01-02 00:21:06.41	6.90	17.66	-38.0	-39.9	17.6	0.00e+00	0	55	0	230686720	47	4517
2026-01-02 00:21:07.42	6.83	17.77	-37.8	-39.7	17.8	0.00e+00	0	55	0	232783872	47	4408
2026-01-02 00:21:08.43	6.77	17.89	-37.8	-39.7	17.8	0.00e+00	0	55	0	234881024	47	4417
2026-01-02 00:21:09.44	6.70	18.01	-37.9	-39.9	17.6	0.00e+00	0	55	0	236978176	47	4495
2026-01-02 00:21:10.44	6.63	18.12	-37.9	-39.8	17.7	0.00e+00	0	55	0	238026752	47	4451
2026-01-02 00:21:11.45	6.56	18.24	-37.8	-39.7	17.8	0.00e+00	0	55	0	240123904	47	4416
2026-01-02 00:21:12.46	6.49	18.36	-37.8	-39.7	17.8	0.00e+00	0	55	0	242221056	47	4404
2026-01-02 00:21:13.47	6.42	18.47	-37.8	-39.7	17.8	0.00e+00	0	55	0	244318208	47	4392
2026-01-02 00:21:14.48	6.35	18.59	-37.8	-39.7	17.8	0.00e+00	0	55	0	246415360	47	4422
2026-01-02 00:21:15.49	6.28	18.71	-37.9	-39.8	17.7	0.00e+00	0	55	0	248512512	47	4459
2026-01-02 00:21:16.50	6.21	18.83	-37.9	-39.8	17.7	0.00e+00	0	56	0	249561088	47	4442
2026-01-02 00:21:17.51	6.13	18.95	-37.7	-39.5	18.0	0.00e+00	0	56	0	251658240	47	4321
2026-01-02 00:21:18.52	6.06	19.07	-37.8	-39.6	17.9	0.00e+00	0	55	0	253755392	47	4379
2026-01-02 00:21:19.53	5.98	19.19	-37.9	-39.8	17.7	0.00e+00	0	55	0	255852544	47	4457
2026-01-02 00:21:20.54	5.91	19.31	-37.8	-39.6	17.9	0.00e+00	0	56	0	257949696	47	4385
2026-01-02 00:21:21.55	5.83	19.44	-37.8	-39.7	17.8	0.00e+00	0	55	0	258998272	47	4418
2026-01-02 00:21:22.56	5.76	19.56	-37.9	-39.7	17.8	0.00e+00	0	55	0	261095424	47	4440
2026-01-02 00:21:23.57	5.68	19.68	-38.0	-39.8	17.7	0.00e+00	0	55	0	263192576	47	4492
2026-01-02 00:21:24.58	5.60	19.81	-37.8	-39.6	17.9	0.00e+00	0	56	0	265289728	47	4368
2026-01-02 00:21:25.59	5.53	19.93	-37.9	-39.7	17.8	0.00e+00	0	56	0	267386880	47	4430
2026-01-02 00:21:26.60	5.45	20.06	-38.0	-39.9	17.7	0.00e+00	0	55	0	268435456	47	4501
2026-01-02 00:21:27.61	5.37	20.18	-38.0	-39.9	17.7	0.00e+00	0	55	0	270532608	47	4505
2026-01-02 00:21:28.61	5.29	20.31	-37.8	-39.7	17.9	0.00e+00	0	55	0	272629760	47	4401
2026-01-02 00:21:29.62	5.21	20.43	-38.0	-39.9	17.7	0.00e+00	0	55	0	274726912	47	4521
2026-01-02 00:21:30.63	5.13	20.56	-38.0	-40.0	17.6	0.00e+00	0	55	0	276824064	47	4549
2026-01-02 00:21:31.64	5.05	20.69	-38.1	-40.1	17.5	0.00e+00	0	56	0	277872640	47	4614
2026-01-02 00:21:32.65	4.96	20.82	-38.3	-40.3	17.3	0.00e+00	0	56	0	279969792	47	4726
2026-01-02 00:21:33.66	4.88	20.95	-38.3	-40.3	17.3	0.00e+00	0	55	0	282066944	47	4742
2026-01-02 00:21:34.67	4.79	21.08	-38.5	-40.6	17.1	0.00e+00	0	56	0	284164096	47	4901
2026-01-02 00:21:35.68	4.71	21.21	-38.5	-40.6	17.0	0.00e+00	0	55	0	286261248	47	4904
2026-01-02 00:21:36.69	4.62	21.34	-38.5	-40.6	17.0	0.00e+00	0	55	0	287309824	47	4893
2026-01-02 00:21:37.70	4.54	21.47	-38.6	-40.7	17.0	0.00e+00	0	56	0	289406976	47	4933
2026-01-02 00:21:38.71	4.45	21.60	-38.5	-40.5	17.1	0.00e+00	0	56	0	291504128	47	4867
2026-01-02 00:21:39.72	4.36	21.74	-38.5	-40.5	17.1	0.00e+00	0	56	0	293601280	47	4854
2026-01-02 00:21:40.73	4.27	21.87	-38.5	-40.6	17.0	0.00e+00	0	56	0	295698432	47	4875
2026-01-02 00:21:41.74	4.18	22.00	-38.5	-40.5	17.1	0.00e+00	0	56	0	296747008	47	4858
2026-01-02 00:21:42.75	4.09	22.14	-38.3	-40.3	17.3	0.00e+00	0	56	0	298844160	47	4743
2026-01-02 00:21:43.76	4.00	22.27	-38.3	-40.3	17.3	0.00e+00	0	56	0	300941312	47	4718
2026-01-02 00:21:44.77	3.91	22.41	-38.3	-40.3	17.3	0.00e+00	0	56	0	303038464	47	4755
2026-01-02 00:21:45.78	3.82	22.55	-38.3	-40.3	17.3	0.00e+00	0	56	0	305135616	47	4713
2026-01-02 00:21:46.79	3.72	22.68	-38.1	-40.1	17.6	0.00e+00	0	56	0	306184192	47	4604
2026-01-02 00:21:47.80	3.63	22.82	-38.4	-40.4	17.3	0.00e+00	0	56	0	308281344	47	4795
2026-01-02 00:21:48.81	3.53	22.96	-38.3	-40.3	17.2	0.00e+00	0	56	0	310378496	47	4747
2026-01-02 00:21:49.82	3.44	23.10	-38.3	-40.3	17.3	0.00e+00	0	56	0	312475648	47	4742
2026-01-02 00:21:50.83	3.34	23.24	-38.5	-40.6	17.1	0.00e+00	0	56	0	314572800	47	4899
2026-01-02 00:21:51.84	3.24	23.38	-38.3	-40.3	17.4	0.00e+00	0	56	0	316669952	48	4460
2026-01-02 00:21:52.85	3.14	23.52	-38.6	-40.7	17.1	0.00e+00	0	56	0	317718528	48	4664
2026-01-02 00:21:53.86	3.04	23.66	-38.8	-40.9	16.8	0.00e+00	0	56	0	319815680	48	4792
2026-01-02 00:21:54.87	2.94	23.81	-38.9	-41.0	16.8	0.00e+00	0	56	0	321912832	48	4830
2026-01-02 00:21:55.88	2.84	23.95	-38.9	-41.0	16.7	0.00e+00	0	56	0	324009984	48	4852
2026-01-02 00:21:56.89	2.73	24.09	-39.1	-41.3	16.5	0.00e+00	0	56	0	326107136	48	5030
2026-01-02 00:21:57.90	2.63	24.24	-39.2	-41.5	16.3	0.00e+00	0	56	0	327155712	49	4833
2026-01-02 00:21:58.91	2.52	24.38	-39.3	-41.6	16.3	0.00e+00	0	56	0	329252864	49	4872
2026-01-02 00:21:59.92	2.42	24.53	-39.2	-41.5	16.3	0.00e+00	0	56	0	331350016	49	4828
2026-01-02 00:22:00.93	2.31	24.68	-39.4	-41.7	16.0	0.00e+00	0	56	0	333447168	49	4973
2026-01-02 00:22:01.94	2.20	24.83	-39.3	-41.6	16.1	0.00e+00	0	56	0	335544320	49	4910
2026-01-02 00:22:02.95	2.09	24.97	-39.5	-41.9	15.9	0.00e+00	0	56	0	336592896	49	5056
2026-01-02 00:22:03.96	1.98	25.12	-39.5	-41.9	15.9	0.00e+00	0	56	0	338690048	49	5067
2026-01-02 00:22:04.97	1.87	25.27	-39.3	-41.6	16.2	0.00e+00	0	56	0	340787200	49	4898
2026-01-02 00:22:05.97	1.76	25.42	-39.4	-41.8	16.1	0.00e+00	0	56	0	342884352	49	4992
2026-01-02 00:22:06.98	1.65	25.57	-39.2	-41.5	16.3	0.00e+00	0	56	0	344981504	49	4834
2026-01-02 00:22:07.99	1.53	25.73	-39.1	-41.3	16.5	0.00e+00	0	56	0	346030080	49	4730
2026-01-02 00:22:09.00	1.42	25.88	-39.2	-41.3	16.5	0.00e+00	0	56	0	348127232	49	4757
2026-01-02 00:22:10.01	1.30	26.03	-39.1	-41.3	16.4	0.00e+00	0	56	0	350224384	49	4723
2026-01-02 00:22:11.02	1.18	26.19	-39.2	-41.5	16.3	0.00e+00	0	56	0	352321536	49	4816
2026-01-02 00:22:12.03	1.06	26.34	-39.3	-41.6	16.2	0.00e+00	0	56	0	354418688	49	4889
2026-01-02 00:22:13.04	0.94	26.50	-39.3	-41.5	16.3	0.00e+00	0	56	0	355467264	49	4834
2026-01-02 00:22:14.05	0.82	26.65	-39.5	-41.8	16.1	0.00e+00	0	56	0	357564416	49	4994
2026-01-02 00:22:15.06	0.70	26.81	-39.8	-42.3	15.6	0.00e+00	0	56	0	359661568	50	5012
2026-01-02 00:22:16.07	0.57	26.97	-39.7	-42.2	15.7	0.00e+00	0	56	0	361758720	50	4932
2026-01-02 00:22:17.08	0.45	27.13	-39.7	-42.1	15.7	0.00e+00	0	56	0	363855872	50	4919
2026-01-02 00:22:18.09	0.32	27.29	-40.0	-42.6	15.3	0.00e+00	0	56	0	364904448	50	5171
2026-01-02 00:22:19.10	0.19	27.45	-40.0	-42.6	15.3	0.00e+00	0	56	0	367001600	50	5183
2026-01-02 00:22:20.11	0.06	27.61	-40.0	-42.5	15.4	0.00e+00	0	56	0	369098752	50	5128
2026-01-02 00:22:21.12	359.93	27.77	-39.6	-41.8	16.0	0.00e+00	0	56	0	371195904	50	4757
2026-01-02 00:22:22.13	359.80	27.93	-39.9	-42.4	15.5	0.00e+00	0	56	0	373293056	50	5085
2026-01-02 00:22:23.14	359.67	28.10	-39.9	-42.4	15.5	0.00e+00	0	56	0	374341632	50	5061
2026-01-02 00:22:24.15	359.53	28.26	-39.8	-42.3	15.6	0.00e+00	0	56	0	376438784	50	5002
2026-01-02 00:22:25.16	359.40	28.43	-40.0	-42.5	15.4	0.00e+00	0	56	0	378535936	50	5153
2026-01-02 00:22:26.16	359.26	28.59	-40.0	-42.5	15.3	0.00e+00	0	56	0	380633088	51	4833
2026-01-02 00:22:27.17	359.12	28.76	-40.2	-42.9	15.0	0.00e+00	0	56	0	382730240	51	5059
2026-01-02 00:22:28.18	358.98	28.92	-40.4	-43.1	14.8	0.00e+00	0	56	0	384827392	51	5189
2026-01-02 00:22:29.19	358.84	29.09	-40.2	-42.8	15.1	0.00e+00	0	56	0	385875968	51	5018
2026-01-02 00:22:30.20	358.69	29.26	-40.7	-43.6	14.2	7.00e-07	0	56	0	387973120	52	5192
2026-01-02 00:22:31.21	358.55	29.43	-40.9	-44.0	13.8	3.00e-06	0	56	0	390070272	52	5421
2026-01-02 00:22:32.22	358.40	29.60	-40.5	-43.4	14.5	0.00e+00	0	56	0	392167424	52	5048
2026-01-02 00:22:33.23	358.25	29.77	-40.4	-43.2	14.6	7.00e-07	0	56	0	393216000	52	4962
2026-01-02 00:22:34.24	358.10	29.95	-40.1	-42.7	15.0	0.00e+00	0	56	0	395313152	52	4684
2026-01-02 00:22:35.25	357.95	30.12	-40.1	-42.6	15.3	0.00e+00	0	56	0	397410304	51	4895
2026-01-02 00:22:36.26	357.80	30.29	-40.0	-42.5	15.4	0.00e+00	0	56	0	399507456	51	4849
2026-01-02 00:22:37.26	357.64	30.47	-39.6	-42.0	16.0	0.00e+00	0	56	0	401604608	51	4546
2026-01-02 00:22:38.27	357.48	30.64	-39.9	-42.3	15.6	0.00e+00	0	56	0	402653184	51	4751
2026-01-02 00:22:39.28	357.33	30.82	-39.8	-42.2	15.7	0.00e+00	0	56	0	404750336	51	4685
2026-01-02 00:22:40.29	357.17	31.00	-40.0	-42.5	15.5	0.00e+00	0	56	0	406847488	50	5140
2026-01-02 00:22:41.30	357.00	31.17	-40.1	-42.6	15.4	0.00e+00	0	56	0	408944640	50	5177
2026-01-02 00:22:42.31	356.84	31.35	-39.4	-41.7	16.2	0.00e+00	0	56	0	411041792	50	4655
2026-01-02 00:22:43.32	356.67	31.53	-39.8	-42.2	15.8	0.00e+00	0	56	0	413138944	50	4936
2026-01-02 00:22:44.33	356.50	31.71	-39.5	-41.8	16.2	0.00e+00	0	56	0	414187520	50	4707
2026-01-02 00:22:45.34	356.33	31.90	-39.3	-41.5	16.5	0.00e+00	0	56	0	416284672	50	4561
2026-01-02 00:22:46.35	356.16	32.08	-39.6	-41.9	16.1	0.00e+00	0	56	0	418381824	50	4771
2026-01-02 00:22:47.36	355.99	32.26	-39.8	-42.2	15.8	0.00e+00	0	56	0	420478976	50	4938
2026-01-02 00:22:48.37	355.81	32.45	-40.0	-42.5	15.4	0.00e+00	0	56	0	422576128	50	5157
2026-01-02 00:22:49.38	355.64	32.63	-40.3	-43.0	15.0	0.00e+00	0	56	0	423624704	51	5106
2026-01-02 00:22:50.39	355.46	32.82	-40.3	-42.9	15.0	0.00e+00	0	56	0	425721856	51	5052
2026-01-02 00:22:51.40	355.27	33.00	-40.8	-43.8	14.1	0.00e+00	0	56	0	427819008	52	5285
2026-01-02 00:22:52.41	355.09	33.19	-40.7	-43.6	14.2	7.00e-07	0	56	0	429916160	52	5216
2026-01-02 00:22:53.42	354.90	33.38	-40.8	-43.8	14.1	2.20e-06	0	56	0	432013312	52	5331
2026-01-02 00:22:54.43	354.71	33.57	-40.7	-43.7	14.2	5.30e-06	0	56	0	433061888	52	5222
2026-01-02 00:22:55.44	354.52	33.76	-40.7	-43.6	14.1	7.00e-07	0	56	0	435159040	52	5180
2026-01-02 00:22:56.45	354.33	33.95	-40.4	-43.2	14.7	0.00e+00	0	56	0	437256192	52	4935
2026-01-02 00:22:57.46	354.13	34.14	-40.4	-43.1	14.8	0.00e+00	0	56	0	439353344	52	4883
2026-01-02 00:22:58.47	353.94	34.33	-40.2	-42.8	15.1	7.00e-07	0	56	0	441450496	52	4741
2026-01-02 00:22:59.48	353.74	34.52	-40.5	-43.3	14.7	0.00e+00	0	56	0	442499072	52	4990
2026-01-02 00:23:00.49	353.53	34.72	-40.8	-43.7	14.1	0.00e+00	0	56	0	444596224	52	5261
2026-01-02 00:23:01.50	353.33	34.91	-41.1	-44.2	13.6	7.00e-07	0	56	0	446693376	52	5571
2026-01-02 00:23:02.51	353.12	35.11	-41.1	-44.2	13.6	1.50e-06	0	57	0	448790528	52	5590
2026-01-02 00:23:03.52	352.91	35.30	-41.1	-44.4	13.7	9.10e-06	0	56	0	450887680	52	5663
2026-01-02 00:23:04.53	352.70	35.50	-41.3	-44.6	13.3	5.30e-06	0	56	0	452984832	53	5481
2026-01-02 00:23:05.54	352.48	35.70	-41.3	-44.6	13.4	6.80e-06	0	56	0	454033408	53	5471
2026-01-02 00:23:06.55	352.26	35.90	-41.3	-44.6	13.3	5.26e-05	0	56	0	456130560	53	5499
2026-01-02 00:23:07.56	352.04	36.09	-41.8	-45.6	12.2	1.94e-04	0	56	0	458227712	54	5846
2026-01-02 00:23:08.57	351.82	36.29	-42.2	-46.4	11.3	3.89e-04	0	56	0	460324864	55	6049
2026-01-02 00:23:09.58	351.59	36.49	-42.4	-47.0	10.9	6.74e-04	0	56	0	462422016	55	6456
2026-01-02 00:23:10.59	351.36	36.70	-42.4	-47.0	10.9	2.17e-03	0	56	0	463470592	55	6454
2026-01-02 00:23:11.60	351.13	36.90	-42.2	-46.4	11.5	1.44e-03	0	56	0	465567744	55	5997
2026-01-02 00:23:12.61	350.90	37.10	-42.0	-46.0	11.9	4.92e-04	0	56	0	467664896	55	5739
2026-01-02 00:23:13.62	350.66	37.30	-41.3	-44.6	13.2	8.77e-05	0	56	0	469762048	54	5198
2026-01-02 00:23:14.63	350.42	37.51	-40.8	-43.7	14.3	9.90e-06	0	56	0	471859200	53	4948
2026-01-02 00:23:15.64	350.17	37.71	-40.4	-43.1	14.8	3.00e-06	0	57	0	472907776	52	4890
2026-01-02 00:23:16.65	349.93	37.92	-40.3	-42.9	15.1	0.00e+00	0	56	0	475004928	52	4780
2026-01-02 00:23:17.66	349.68	38.12	-40.4	-43.1	14.9	0.00e+00	0	57	0	477102080	52	4872
2026-01-02 00:23:18.67	349.42	38.33	-40.4	-43.0	14.9	0.00e+00	0	56	0	479199232	52	4854
2026-01-02 00:23:19.68	349.17	38.54	-40.4	-43.1	14.9	0.00e+00	0	56	0	481296384	52	4903
2026-01-02 00:23:20.69	348.91	38.75	-40.5	-43.2	14.8	0.00e+00	0	57	0	482344960	52	4934
2026-01-02 00:23:21.70	348.64	38.95	-40.4	-43.0	14.9	0.00e+00	0	56	0	484442112	52	4861
2026-01-02 00:23:22.71	348.37	39.16	-40.9	-43.9	14.1	7.00e-07	0	57	0	486539264	52	5356
2026-01-02 00:23:23.72	348.10	39.37	-40.9	-43.9	14.1	7.00e-07	0	57	0	488636416	52	5349
2026-01-02 00:23:24.73	347.83	39.58	-41.1	-44.2	13.7	3.00e-06	0	56	0	490733568	52	5565
2026-01-02 00:23:25.74	347.55	39.79	-41.6	-45.0	12.9	6.56e-05	0	57	0	491782144	54	5451
2026-01-02 00:23:26.75	347.27	40.01	-42.2	-46.3	11.7	1.11e-04	0	57	0	493879296	54	6294
2026-01-02 00:23:27.76	346.98	40.22	-42.3	-46.5	11.5	2.75e-04	0	57	0	495976448	55	6100
2026-01-02 00:23:28.77	346.70	40.43	-42.1	-46.0	11.9	2.43e-04	0	57	0	498073600	55	5786
2026-01-02 00:23:29.78	346.40	40.64	-42.4	-46.7	11.2	8.15e-04	0	57	0	500170752	55	6204
2026-01-02 00:23:30.79	346.11	40.85	-42.3	-46.6	11.3	1.19e-03	0	56	0	501219328	55	6157
2026-01-02 00:23:31.80	345.80	41.07	-43.2	-48.7	9.4	9.84e-03	0	57	0	503316480	57	6971
2026-01-02 00:23:32.81	345.50	41.28	-43.1	-48.2	9.6	2.50e-02	0	57	0	505413632	57	6577
2026-01-02 00:23:33.82	345.19	41.50	-42.9	-47.8	10.1	4.58e-03	0	57	0	507510784	57	6340
2026-01-02 00:23:34.83	344.88	41.71	-42.7	-47.3	10.7	3.36e-03	0	57	0	509607936	57	5983
2026-01-02 00:23:35.84	344.56	41.92	-42.1	-45.9	12.3	6.50e-04	0	57	0	510656512	56	5354
2026-01-02 00:23:36.85	344.24	42.14	-42.2	-46.1	12.0	2.74e-04	0	57	0	512753664	56	5474
2026-01-02 00:23:37.86	343.91	42.35	-42.2	-46.3	11.8	7.26e-04	0	57	0	514850816	56	5593
2026-01-02 00:23:38.87	343.58	42.57	-42.1	-46.0	12.2	3.19e-04	0	57	0	516947968	56	5413
2026-01-02 00:23:39.88	343.25	42.78	-41.3	-44.6	13.4	8.46e-05	0	57	0	519045120	54	5205
2026-01-02 00:23:40.88	342.91	43.00	-40.7	-43.5	14.4	3.80e-06	0	57	0	521142272	53	4853
2026-01-02 00:23:41.89	342.57	43.21	-40.4	-43.0	15.0	0.00e+00	0	57	0	522190848	52	4855
2026-01-02 00:23:42.90	342.22	43.43	-40.2	-42.8	15.2	0.00e+00	0	57	0	524288000	52	4709
2026-01-02 00:23:43.91	341.86	43.64	-40.2	-42.7	15.4	0.00e+00	0	57	0	526385152	52	4684
2026-01-02 00:23:44.92	341.51	43.86	-40.0	-42.5	15.7	0.00e+00	0	57	0	528482304	51	4824
2026-01-02 00:23:45.93	341.14	44.08	-40.3	-42.8	15.3	0.00e+00	0	56	0	530579456	51	5036
2026-01-02 00:23:46.94	340.77	44.29	-40.6	-43.2	14.9	0.00e+00	0	57	0	531628032	51	5271
2026-01-02 00:23:47.95	340.40	44.51	-40.8	-43.7	14.3	0.00e+00	0	56	0	533725184	52	5240
2026-01-02 00:23:48.96	340.02	44.72	-41.0	-44.0	14.0	3.00e-06	0	57	0	535822336	52	5437
2026-01-02 00:23:49.97	339.64	44.94	-41.2	-44.4	13.7	5.30e-06	0	56	0	537919488	52	5661
2026-01-02 00:23:50.98	339.25	45.15	-41.3	-44.4	13.6	9.10e-06	0	57	0	540016640	53	5365
2026-01-02 00:23:51.99	338.85	45.36	-41.0	-44.0	14.0	6.10e-06	0	57	0	541065216	53	5157
2026-01-02 00:23:53.00	338.46	45.58	-40.8	-43.6	14.4	1.50e-06	0	57	0	543162368	53	4892
2026-01-02 00:23:54.01	338.05	45.79	-40.7	-43.6	14.5	7.00e-07	0	56	0	545259520	53	4879
2026-01-02 00:23:55.02	337.64	46.00	-40.5	-43.1	14.9	7.00e-07	0	57	0	547356672	52	4908
2026-01-02 00:23:56.03	337.22	46.22	-40.2	-42.7	15.3	0.00e+00	0	57	0	549453824	52	4676
2026-01-02 00:23:57.03	336.80	46.43	-40.1	-42.5	15.6	0.00e+00	0	57	0	550502400	51	4869
2026-01-02 00:23:58.04	336.38	46.64	-39.9	-42.2	15.9	0.00e+00	0	57	0	552599552	51	4676
2026-01-02 00:23:59.05	335.94	46.85	-40.3	-42.8	15.3	0.00e+00	0	57	0	554696704	51	5009
2026-01-02 00:24:00.06	335.50	47.06	-40.7	-43.4	14.8	0.00e+00	0	57	0	556793856	51	5368
2026-01-02 00:24:01.07	335.06	47.27	-40.5	-43.2	14.9	0.00e+00	0	57	0	558891008	51	5251
2026-01-02 00:24:02.08	334.61	47.47	-39.8	-42.1	15.9	0.00e+00	0	57	0	559939584	51	4639
2026-01-02 00:24:03.09	334.15	47.68	-39.4	-41.5	16.6	0.00e+00	0	57	0	562036736	50	4561
2026-01-02 00:24:04.10	333.68	47.89	-39.6	-41.9	16.2	0.00e+00	0	57	0	564133888	50	4763
2026-01-02 00:24:05.11	333.21	48.09	-40.1	-42.5	15.5	0.00e+00	0	57	0	566231040	50	5145
2026-01-02 00:24:06.12	332.74	48.29	-40.5	-43.2	14.8	0.00e+00	0	57	0	568328192	51	5258
2026-01-02 00:24:07.13	332.26	48.50	-40.6	-43.3	14.8	0.00e+00	0	57	0	569376768	51	5337
2026-01-02 00:24:08.14	331.77	48.70	-40.5	-43.2	14.9	0.00e+00	0	57	0	571473920	51	5245
2026-01-02 00:24:09.15	331.27	48.90	-40.5	-43.2	14.9	0.00e+00	0	57	0	573571072	51	5236
2026-01-02 00:24:10.16	330.77	49.10	-40.0	-42.4	15.6	0.00e+00	0	57	0	575668224	51	4785
2026-01-02 00:24:11.17	330.26	49.29	-40.2	-42.7	15.4	0.00e+00	0	57	0	577765376	51	4951
2026-01-02 00:24:12.18	329.74	49.49	-40.5	-43.2	14.9	0.00e+00	0	57	0	578813952	51	5233
2026-01-02 00:24:13.19	329.22	49.68	-40.5	-43.2	14.9	0.00e+00	0	57	0	580911104	51	5278
2026-01-02 00:24:14.20	328.69	49.87	-39.9	-42.3	15.7	0.00e+00	0	57	0	583008256	51	4744
2026-01-02 00:24:15.20	328.16	50.06	-39.1	-41.1	16.9	0.00e+00	0	57	0	585105408	50	4371
2026-01-02 00:24:16.21	327.62	50.25	-38.4	-40.3	17.7	0.00e+00	0	57	0	587202560	48	4454
2026-01-02 00:24:17.22	327.07	50.44	-38.8	-40.8	17.2	0.00e+00	0	57	0	588251136	48	4735
2026-01-02 00:24:18.23	326.52	50.62	-38.8	-40.8	17.2	0.00e+00	0	57	0	590348288	48	4741
2026-01-02 00:24:19.24	325.96	50.80	-38.7	-40.6	17.4	0.00e+00	0	57	0	592445440	48	4640
2026-01-02 00:24:20.25	325.39	50.98	-38.3	-40.1	17.8	0.00e+00	0	57	0	594542592	48	4368
2026-01-02 00:24:21.26	324.81	51.16	-38.3	-40.1	17.9	0.00e+00	0	57	0	596639744	48	4349
2026-01-02 00:24:22.28	324.22	51.33	-38.4	-40.3	17.8	0.00e+00	0	57	0	597688320	48	4443
2026-01-02 00:24:23.29	323.63	51.51	-39.0	-41.0	17.0	0.00e+00	0	57	0	599785472	48	4867
2026-01-02 00:24:24.30	323.03	51.68	-39.5	-41.8	16.3	0.00e+00	0	57	0	601882624	49	4999
2026-01-02 00:24:25.31	322.43	51.84	-39.7	-42.0	16.1	0.00e+00	0	57	0	603979776	50	4839
2026-01-02 00:24:26.32	321.82	52.01	-40.3	-42.9	15.2	0.00e+00	0	57	0	606076928	51	5053
2026-01-02 00:24:27.33	321.20	52.17	-39.9	-42.4	15.7	0.00e+00	0	57	0	607125504	51	4772
2026-01-02 00:24:28.34	320.58	52.33	-39.6	-41.8	16.2	0.00e+00	0	57	0	609222656	51	4477
2026-01-02 00:24:29.35	319.95	52.48	-39.5	-41.8	16.3	0.00e+00	0	57	0	611319808	50	4741
2026-01-02 00:24:30.36	319.31	52.63	-39.7	-42.1	16.0	0.00e+00	0	57	0	613416960	50	4903
2026-01-02 00:24:31.37	318.67	52.78	-39.8	-42.2	15.8	0.00e+00	0	57	0	615514112	50	4973
2026-01-02 00:24:32.37	318.02	52.93	-39.4	-41.6	16.4	0.00e+00	0	57	0	617611264	50	4640
2026-01-02 00:24:33.38	317.37	53.07	-39.0	-41.1	16.9	0.00e+00	0	57	0	618659840	50	4367
2026-01-02 00:24:34.40	316.70	53.21	-38.9	-40.8	17.2	0.00e+00	0	57	0	620756992	49	4481
2026-01-02 00:24:35.41	316.03	53.34	-38.1	-39.8	18.2	0.00e+00	0	57	0	622854144	48	4217
2026-01-02 00:24:36.42	315.35	53.48	-37.7	-39.4	18.5	0.00e+00	0	57	0	624951296	47	4273
2026-01-02 00:24:37.43	314.67	53.60	-37.8	-39.5	18.4	0.00e+00	0	57	0	627048448	47	4320
2026-01-02 00:24:38.44	313.98	53.73	-38.4	-40.3	17.7	0.00e+00	0	57	0	628097024	47	4752
2026-01-02 00:24:39.44	313.30	53.85	-39.0	-41.1	16.9	0.00e+00	0	57	0	630194176	48	4902
2026-01-02 00:24:40.45	312.60	53.96	-38.8	-40.7	17.3	0.00e+00	0	57	0	632291328	48	4688
2026-01-02 00:24:41.46	311.89	54.07	-39.0	-41.1	16.9	0.00e+00	0	57	0	634388480	48	4895
2026-01-02 00:24:42.47	311.18	54.18	-39.4	-41.6	16.6	0.00e+00	0	57	0	636485632	49	4880
2026-01-02 00:24:43.48	310.47	54.28	-39.0	-41.1	16.9	0.00e+00	0	57	0	637534208	49	4613
2026-01-02 00:24:44.49	309.75	54.38	-38.6	-40.6	17.5	0.00e+00	0	57	0	639631360	49	4358
2026-01-02 00:24:45.50	309.02	54.48	-38.4	-40.3	17.7	0.00e+00	0	57	0	641728512	48	4464
2026-01-02 00:24:46.51	308.29	54.57	-38.9	-40.8	17.2	0.00e+00	0	57	0	643825664	48	4758
2026-01-02 00:24:47.52	307.56	54.65	-39.0	-41.1	17.0	0.00e+00	0	57	0	645922816	48	4877
2026-01-02 00:24:48.53	306.82	54.73	-39.3	-41.4	16.7	0.00e+00	0	57	0	646971392	49	4804
2026-01-02 00:24:49.54	306.07	54.81	-38.7	-40.7	17.4	0.00e+00	0	57	0	649068544	49	4393
2026-01-02 00:24:50.55	305.33	54.88	-38.0	-39.7	18.2	0.00e+00	0	57	0	651165696	48	4193
2026-01-02 00:24:51.56	304.58	54.95	-37.5	-39.2	18.6	0.00e+00	0	57	0	653262848	47	4147
2026-01-02 00:24:52.57	303.82	55.01	-37.1	-38.7	19.2	0.00e+00	0	57	0	655360000	46	4149
2026-01-02 00:24:53.58	303.06	55.07	-36.3	-37.7	20.0	0.00e+00	0	57	0	657457152	44	4168
2026-01-02 00:24:54.59	302.30	55.12	-36.1	-37.5	20.2	0.00e+00	0	57	0	658505728	44	4065
2026-01-02 00:24:55.60	301.54	55.17	-36.7	-38.2	19.5	0.00e+00	0	57	0	660602880	44	4436
2026-01-02 00:24:56.61	300.77	55.21	-37.2	-38.8	19.0	0.00e+00	0	57	0	662700032	44	4746
2026-01-02 00:24:57.62	300.01	55.25	-37.0	-38.7	19.1	0.00e+00	0	57	0	664797184	44	4664
2026-01-02 00:24:58.63	299.24	55.28	-37.2	-38.8	19.0	0.00e+00	0	57	0	666894336	45	4487
2026-01-02 00:24:59.64	298.47	55.31	-37.3	-39.0	18.9	0.00e+00	0	57	0	667942912	45	4557
2026-01-02 00:25:00.65	297.69	55.33	-36.8	-38.4	19.4	0.00e+00	0	57	0	670040064	45	4255
2026-01-02 00:25:01.66	296.92	55.34	-36.3	-37.8	20.0	0.00e+00	0	57	0	672137216	44	4208
2026-01-02 00:25:02.67	296.14	55.35	-36.2	-37.6	20.1	0.00e+00	0	57	0	674234368	44	4135
2026-01-02 00:25:03.68	295.37	55.36	-36.5	-38.0	19.8	0.00e+00	0	57	0	676331520	44	4329
2026-01-02 00:25:04.69	294.59	55.36	-37.3	-39.0	18.9	0.00e+00	0	57	0	677380096	45	4547
2026-01-02 00:25:05.70	293.82	55.36	-37.5	-39.3	18.6	0.00e+00	0	57	0	679477248	46	4465
2026-01-02 00:25:06.71	293.04	55.35	-37.0	-38.6	19.2	0.00e+00	0	57	0	681574400	45	4359
2026-01-02 00:25:07.72	292.27	55.33	-36.5	-38.0	19.7	0.00e+00	0	57	0	683671552	45	4082
2026-01-02 00:25:08.73	291.50	55.31	-36.3	-37.8	19.9	0.00e+00	0	57	0	685768704	44	4210
2026-01-02 00:25:09.74	290.72	55.29	-37.1	-38.7	19.1	0.00e+00	0	57	0	686817280	44	4674
2026-01-02 00:25:10.75	289.95	55.26	-37.3	-39.0	18.9	0.00e+00	0	57	0	688914432	45	4556
2026-01-02 00:25:11.76	289.18	55.22	-36.9	-38.5	19.3	0.00e+00	0	57	0	691011584	45	4328
2026-01-02 00:25:12.77	288.42	55.18	-37.0	-38.6	19.2	0.00e+00	0	57	0	693108736	45	4385
2026-01-02 00:25:13.78	287.65	55.14	-36.9	-38.5	19.4	0.00e+00	0	57	0	695205888	45	4302
2026-01-02 00:25:14.79	286.89	55.09	-37.1	-38.7	19.2	0.00e+00	0	57	0	696254464	45	4402
2026-01-02 00:25:15.80	286.13	55.03	-37.5	-39.2	18.6	0.00e+00	0	57	0	698351616	45	4700
2026-01-02 00:25:16.81	285.38	54.97	-37.7	-39.5	18.4	0.00e+00	0	57	0	700448768	45	4849
2026-01-02 00:25:17.82	284.62	54.91	-37.6	-39.3	18.5	0.00e+00	0	57	0	702545920	46	4487
2026-01-02 00:25:18.83	283.87	54.84	-37.2	-38.8	19.0	0.00e+00	0	57	0	704643072	46	4222
2026-01-02 00:25:19.84	283.13	54.76	-36.2	-37.7	20.0	0.00e+00	0	57	0	705691648	44	4166
2026-01-02 00:25:20.84	282.39	54.69	-35.7	-37.1	20.4	0.00e+00	0	57	0	707788800	43	4118
2026-01-02 00:25:21.85	281.66	54.60	-36.0	-37.4	20.1	0.00e+00	0	57	0	709885952	43	4282
2026-01-02 00:25:22.86	280.92	54.51	-36.0	-37.4	20.0	0.00e+00	0	57	0	711983104	43	4283
2026-01-02 00:25:23.87	280.20	54.42	-36.0	-37.5	20.1	0.00e+00	0	57	0	714080256	43	4317
2026-01-02 00:25:24.88	279.47	54.32	-35.8	-37.2	20.3	0.00e+00	0	57	0	715128832	43	4173
2026-01-02 00:25:25.89	278.75	54.22	-35.9	-37.3	20.2	0.00e+00	0	57	0	717225984	43	4234
2026-01-02 00:25:26.90	278.04	54.12	-35.5	-36.8	20.6	0.00e+00	0	57	0	719323136	42	4227
2026-01-02 00:25:27.91	277.33	54.01	-35.7	-37.1	20.4	0.00e+00	0	57	0	721420288	42	4362
2026-01-02 00:25:28.92	276.63	53.89	-35.7	-37.1	20.4	0.00e+00	0	57	0	723517440	42	4382
2026-01-02 00:25:29.93	275.93	53.77	-35.6	-36.9	20.6	0.00e+00	0	57	0	725614592	42	4274
2026-01-02 00:25:30.94	275.24	53.65	-35.5	-36.8	20.6	0.00e+00	0	57	0	726663168	42	4223
2026-01-02 00:25:31.95	274.56	53.52	-36.3	-37.8	19.7	0.00e+00	0	57	0	728760320	43	4456
2026-01-02 00:25:32.96	273.88	53.39	-37.1	-38.7	19.1	0.00e+00	0	57	0	730857472	44	4658
2026-01-02 00:25:33.97	273.21	53.26	-36.8	-38.4	19.4	0.00e+00	0	57	0	732954624	45	4243
2026-01-02 00:25:34.98	272.54	53.12	-36.5	-38.0	19.7	0.00e+00	0	57	0	734003200	45	4094
2026-01-02 00:25:35.99	271.88	52.98	-36.8	-38.3	19.5	0.00e+00	0	57	0	736100352	45	4213
2026-01-02 00:25:37.00	271.23	52.84	-37.4	-39.0	18.7	0.00e+00	0	57	0	738197504	45	4595
2026-01-02 00:25:38.01	270.58	52.69	-38.1	-40.0	17.9	0.00e+00	0	57	0	740294656	46	4823
2026-01-02 00:25:39.01	269.94	52.54	-38.0	-39.8	18.1	0.00e+00	0	57	0	742391808	46	4732
2026-01-02 00:25:40.02	269.31	52.38	-38.4	-40.3	17.6	0.00e+00	0	57	0	743440384	47	4711
2026-01-02 00:25:41.03	268.68	52.23	-38.9	-40.9	17.0	0.00e+00	0	57	0	745537536	48	4803
2026-01-02 00:25:42.04	268.06	52.07	-38.3	-40.2	17.8	0.00e+00	0	57	0	747634688	48	4392
2026-01-02 00:25:43.05	267.45	51.90	-38.2	-40.0	17.9	0.00e+00	0	57	0	749731840	48	4319
2026-01-02 00:25:44.06	266.84	51.74	-38.9	-40.9	17.2	0.00e+00	0	57	0	751828992	48	4795
2026-01-02 00:25:45.07	266.24	51.57	-39.6	-41.9	16.2	0.00e+00	0	57	0	753926144	49	5066
2026-01-02 00:25:46.08	265.65	51.40	-39.6	-41.8	16.3	0.00e+00	0	57	0	754974720	50	4741
2026-01-02 00:25:47.09	265.06	51.22	-39.7	-42.0	16.0	0.00e+00	0	57	0	757071872	50	4838
2026-01-02 00:25:48.10	264.48	51.05	-39.8	-42.2	15.9	0.00e+00	0	57	0	759169024	50	4933
2026-01-02 00:25:49.11	263.91	50.87	-39.2	-41.4	16.7	0.00e+00	0	57	0	761266176	50	4500
2026-01-02 00:25:50.12	263.34	50.69	-39.1	-41.2	16.8	0.00e+00	0	57	0	763363328	50	4412
2026-01-02 00:25:51.13	262.78	50.50	-39.0	-41.0	16.9	0.00e+00	0	57	0	764411904	49	4570
2026-01-02 00:25:52.13	262.23	50.32	-39.2	-41.3	16.8	0.00e+00	0	57	0	766509056	49	4712
2026-01-02 00:25:53.14	261.69	50.13	-39.4	-41.6	16.3	0.00e+00	0	57	0	768606208	49	4921
2026-01-02 00:25:54.15	261.15	49.94	-39.8	-42.1	15.9	0.00e+00	0	57	0	770703360	50	4908
2026-01-02 00:25:55.16	260.62	49.75	-39.4	-41.6	16.4	0.00e+00	0	57	0	772800512	50	4651
2026-01-02 00:25:56.17	260.09	49.56	-39.0	-41.1	16.9	0.00e+00	0	57	0	773849088	50	4360
2026-01-02 00:25:57.18	259.57	49.36	-38.9	-40.9	17.1	0.00e+00	0	57	0	775946240	49	4542
2026-01-02 00:25:58.20	259.05	49.16	-38.7	-40.7	17.4	0.00e+00	0	57	0	778043392	49	4416
2026-01-02 00:25:59.21	258.55	48.96	-38.9	-40.9	17.1	0.00e+00	0	57	0	780140544	49	4525
2026-01-02 00:26:00.22	258.05	48.76	-38.9	-40.9	17.1	0.00e+00	0	57	0	782237696	49	4520
2026-01-02 00:26:01.23	257.56	48.56	-39.2	-41.2	16.8	0.00e+00	0	57	0	783286272	49	4700
2026-01-02 00:26:02.24	257.07	48.36	-39.3	-41.4	16.5	0.00e+00	0	57	0	785383424	49	4789
2026-01-02 00:26:03.25	256.59	48.16	-40.2	-42.7	15.4	0.00e+00	0	57	0	787480576	50	5257
2026-01-02 00:26:04.25	256.12	47.95	-39.9	-42.3	15.7	0.00e+00	0	57	0	789577728	50	4990
2026-01-02 00:26:05.26	255.65	47.75	-39.7	-42.0	16.1	0.00e+00	0	57	0	791674880	50	4838
2026-01-02 00:26:06.27	255.19	47.54	-39.3	-41.4	16.6	0.00e+00	0	57	0	792723456	50	4501
2026-01-02 00:26:07.28	254.74	47.33	-39.4	-41.6	16.4	0.00e+00	0	57	0	794820608	50	4642
2026-01-02 00:26:08.29	254.29	47.12	-39.8	-42.2	15.9	0.00e+00	0	57	0	796917760	50	4957
2026-01-02 00:26:09.30	253.84	46.91	-40.7	-43.5	14.6	7.00e-07	0	57	0	799014912	51	5430
2026-01-02 00:26:10.31	253.41	46.70	-42.0	-46.0	12.1	1.83e-05	0	57	0	801112064	54	6076
2026-01-02 00:26:11.32	252.98	46.49	-42.6	-47.0	11.1	4.56e-03	0	57	0	802160640	56	6089
2026-01-02 00:26:12.33	252.55	46.28	-42.5	-46.6	11.4	1.16e-03	0	57	0	804257792	56	5842
2026-01-02 00:26:13.34	252.13	46.07	-42.4	-46.4	11.7	5.64e-04	0	57	0	806354944	56	5699
2026-01-02 00:26:14.35	251.72	45.85	-42.9	-47.8	10.2	4.83e-03	0	57	0	808452096	56	6723
2026-01-02 00:26:15.36	251.31	45.64	-42.8	-47.4	10.5	7.99e-03	0	57	0	810549248	56	6392
2026-01-02 00:26:16.37	250.91	45.43	-41.5	-44.9	13.0	5.77e-04	0	57	0	811597824	55	5079
2026-01-02 00:26:17.38	250.51	45.21	-41.2	-44.4	13.5	1.83e-05	0	57	0	813694976	54	5058
2026-01-02 00:26:18.39	250.12	45.00	-41.5	-44.9	13.3	1.37e-05	0	57	0	815792128	54	5348
2026-01-02 00:26:19.40	249.73	44.78	-40.8	-43.6	14.3	1.90e-05	0	57	0	817889280	53	4920
2026-01-02 00:26:20.41	249.35	44.56	-40.4	-43.0	14.9	0.00e+00	0	57	0	819986432	52	4863
2026-01-02 00:26:21.41	248.97	44.35	-39.8	-42.1	15.9	0.00e+00	0	57	0	822083584	51	4634
2026-01-02 00:26:22.42	248.60	44.13	-39.5	-41.7	16.4	0.00e+00	0	57	0	823132160	50	4670
2026-01-02 00:26:23.43	248.24	43.92	-38.8	-40.7	17.1	0.00e+00	0	57	0	825229312	49	4439
2026-01-02 00:26:24.44	247.88	43.70	-39.1	-41.1	16.8	0.00e+00	0	57	0	827326464	49	4643
2026-01-02 00:26:25.45	247.52	43.49	-39.4	-41.7	16.3	0.00e+00	0	57	0	829423616	49	4930
2026-01-02 00:26:26.46	247.17	43.27	-40.1	-42.6	15.4	0.00e+00	0	57	0	831520768	51	4908
2026-01-02 00:26:27.47	246.82	43.05	-40.6	-43.3	14.8	1.50e-06	0	57	0	832569344	51	5305
2026-01-02 00:26:28.48	246.48	42.84	-40.6	-43.4	14.4	7.00e-07	0	57	0	834666496	52	5083
2026-01-02 00:26:29.49	246.14	42.62	-40.3	-43.0	15.0	0.00e+00	0	57	0	836763648	52	4830
2026-01-02 00:26:30.50	245.81	42.40	-40.9	-43.9	14.0	1.50e-06	0	57	0	838860800	52	5402
2026-01-02 00:26:31.51	245.48	42.19	-41.4	-44.8	13.2	6.10e-06	0	57	0	840957952	53	5622
2026-01-02 00:26:32.52	245.15	41.97	-41.7	-45.3	12.6	3.81e-05	0	57	0	842006528	53	5955
2026-01-02 00:26:33.53	244.83	41.76	-41.4	-44.7	13.1	2.67e-05	0	57	0	844103680	53	5591
2026-01-02 00:26:34.54	244.52	41.54	-41.1	-44.3	13.7	1.52e-05	0	57	0	846200832	53	5282
2026-01-02 00:26:35.55	244.21	41.33	-41.6	-45.2	12.7	2.89e-05	0	57	0	848297984	53	5882
2026-01-02 00:26:36.56	243.90	41.11	-42.0	-45.9	12.0	1.65e-04	0	57	0	850395136	54	6043
2026-01-02 00:26:37.57	243.60	40.90	-42.1	-46.1	11.8	2.43e-04	0	57	0	851443712	54	6160
2026-01-02 00:26:38.58	243.30	40.68	-41.8	-45.4	12.5	2.08e-04	0	57	0	853540864	54	5706
2026-01-02 00:26:39.58	243.00	40.47	-41.6	-45.2	12.8	5.34e-05	0	57	0	855638016	54	5541
2026-01-02 00:26:40.59	242.71	40.26	-41.6	-45.2	12.8	2.51e-05	0	57	0	857735168	54	5533
2026-01-02 00:26:41.60	242.43	40.05	-41.8	-45.4	12.5	1.14e-04	0	57	0	859832320	54	5703
2026-01-02 00:26:42.61	242.14	39.84	-41.3	-44.5	13.4	4.73e-05	0	57	0	860880896	54	5117
2026-01-02 00:26:43.62	241.86	39.62	-41.4	-44.7	13.3	9.90e-06	0	57	0	862978048	54	5248
2026-01-02 00:26:44.63	241.58	39.41	-41.2	-44.5	13.5	9.10e-06	0	57	0	865075200	54	5116
2026-01-02 00:26:45.64	241.31	39.20	-41.6	-45.2	12.6	1.29e-05	0	57	0	867172352	54	5579
2026-01-02 00:26:46.65	241.04	38.99	-41.1	-44.2	13.7	1.50e-06	0	57	0	869269504	53	5237
2026-01-02 00:26:47.66	240.78	38.78	-40.7	-43.7	14.2	1.50e-06	0	57	0	870318080	53	4930
2026-01-02 00:26:48.67	240.51	38.57	-40.7	-43.6	14.3	0.00e+00	0	57	0	872415232	52	5188
2026-01-02 00:26:49.68	240.25	38.36	-40.6	-43.5	14.5	0.00e+00	0	57	0	874512384	52	5136
2026-01-02 00:26:50.69	240.00	38.16	-40.8	-43.8	14.1	7.00e-07	0	57	0	876609536	52	5294
2026-01-02 00:26:51.70	239.75	37.95	-40.9	-44.0	13.9	0.00e+00	0	57	0	878706688	52	5436
2026-01-02 00:26:52.70	239.50	37.75	-40.4	-43.1	14.8	0.00e+00	0	57	0	879755264	52	4899
2026-01-02 00:26:53.71	239.25	37.54	-40.1	-42.7	15.2	0.00e+00	0	57	0	881852416	52	4677
2026-01-02 00:26:54.72	239.01	37.33	-40.4	-43.1	14.8	0.00e+00	0	57	0	883949568	52	4876
2026-01-02 00:26:55.73	238.77	37.13	-40.7	-43.6	14.3	0.00e+00	0	57	0	886046720	52	5185
2026-01-02 00:26:56.74	238.53	36.93	-40.7	-43.7	14.2	2.20e-06	0	57	0	888143872	52	5225
2026-01-02 00:26:57.75	238.30	36.72	-40.8	-43.8	14.1	0.00e+00	0	57	0	890241024	52	5300
2026-01-02 00:26:58.76	238.07	36.52	-41.1	-44.3	13.6	7.00e-07	0	57	0	891289600	53	5301
2026-01-02 00:26:59.77	237.84	36.32	-41.5	-45.0	12.9	3.58e-05	0	57	0	893386752	53	5770
2026-01-02 00:27:00.78	237.61	36.12	-41.8	-45.5	12.5	9.38e-05	0	57	0	895483904	54	5754
2026-01-02 00:27:01.79	237.39	35.92	-41.6	-45.1	12.8	3.96e-05	0	57	0	897581056	54	5469
2026-01-02 00:27:02.80	237.17	35.72	-40.9	-43.9	14.0	1.06e-05	0	57	0	899678208	53	5089
2026-01-02 00:27:03.81	236.95	35.52	-40.5	-43.3	14.6	2.20e-06	0	57	0	900726784	52	4998
2026-01-02 00:27:04.82	236.74	35.32	-40.3	-42.9	14.9	7.00e-07	0	57	0	902823936	52	4786
2026-01-02 00:27:05.83	236.53	35.12	-40.1	-42.6	15.2	7.00e-07	0	57	0	904921088	52	4643
2026-01-02 00:27:06.84	236.32	34.93	-40.4	-43.2	14.7	0.00e+00	0	57	0	907018240	52	4932
2026-01-02 00:27:07.85	236.11	34.73	-40.6	-43.5	14.4	7.00e-07	0	57	0	909115392	52	5114
2026-01-02 00:27:08.86	235.91	34.54	-41.0	-44.0	13.5	7.00e-07	0	57	0	910163968	52	5464
2026-01-02 00:27:09.87	235.70	34.34	-41.4	-44.9	13.0	2.21e-05	0	57	0	912261120	53	5663
2026-01-02 00:27:10.87	235.51	34.15	-41.9	-45.7	12.0	1.54e-04	0	57	0	914358272	54	5910
2026-01-02 00:27:11.88	235.31	33.96	-41.6	-45.3	12.5	2.34e-04	0	57	0	916455424	54	5600
2026-01-02 00:27:12.89	235.12	33.77	-41.0	-44.1	13.7	6.17e-05	0	57	0	918552576	54	4911
2026-01-02 00:27:13.91	234.92	33.58	-40.6	-43.5	14.3	3.00e-06	0	57	0	919601152	53	4838
2026-01-02 00:27:14.91	234.73	33.39	-40.5	-43.3	14.5	0.00e+00	0	57	0	921698304	52	5029
2026-01-02 00:27:15.92	234.54	33.20	-40.2	-42.8	15.1	0.00e+00	0	57	0	923795456	52	4720
2026-01-02 00:27:16.93	234.36	33.01	-40.5	-43.2	14.6	0.00e+00	0	57	0	925892608	52	4977
2026-01-02 00:27:17.94	234.17	32.82	-40.6	-43.4	14.5	7.00e-07	0	57	0	927989760	52	5094
2026-01-02 00:27:18.95	233.99	32.64	-40.6	-43.4	14.4	0.00e+00	0	57	0	929038336	52	5084
2026-01-02 00:27:19.96	233.81	32.45	-40.4	-43.2	14.6	7.00e-07	0	57	0	931135488	52	4928
2026-01-02 00:27:20.97	233.64	32.27	-40.7	-43.6	14.2	0.00e+00	0	57	0	933232640	52	5206
2026-01-02 00:27:21.98	233.46	32.08	-40.9	-43.9	14.0	3.00e-06	0	57	0	935329792	52	5345
2026-01-02 00:27:22.99	233.29	31.90	-41.2	-44.4	13.4	3.00e-06	0	57	0	937426944	52	5690
2026-01-02 00:27:24.00	233.12	31.71	-41.3	-44.7	13.0	1.29e-05	0	57	0	938475520	53	5549
2026-01-02 00:27:25.01	232.95	31.53	-41.4	-44.9	12.9	3.20e-05	0	57	0	940572672	53	5678
2026-01-02 00:27:26.02	232.78	31.35	-41.3	-44.8	13.1	7.47e-05	0	57	0	942669824	53	5597
2026-01-02 00:27:27.03	232.61	31.17	-41.2	-44.7	13.2	1.67e-05	0	57	0	944766976	53	5530
2026-01-02 00:27:28.03	232.45	30.99	-41.7	-45.4	12.4	5.79e-05	0	57	0	946864128	53	6053
2026-01-02 00:27:29.04	232.29	30.82	-41.7	-45.5	12.4	7.55e-05	0	57	0	947912704	53	6100
2026-01-02 00:27:30.05	232.13	30.64	-41.9	-46.0	11.8	2.74e-04	0	57	0	950009856	54	6130
2026-01-02 00:27:31.06	231.97	30.46	-41.7	-45.6	12.0	4.29e-04	0	57	0	952107008	54	5823
2026-01-02 00:27:32.07	231.81	30.29	-41.8	-45.7	12.1	7.48e-04	0	57	0	954204160	54	5857
2026-01-02 00:27:33.08	231.66	30.11	-41.0	-44.2	13.6	7.32e-05	0	57	0	956301312	54	4932
2026-01-02 00:27:34.09	231.51	29.94	-40.4	-43.1	14.7	2.20e-06	0	57	0	958398464	52	4890
2026-01-02 00:27:35.10	231.35	29.76	-39.9	-42.3	15.6	0.00e+00	0	57	0	959447040	51	4755
2026-01-02 00:27:36.11	231.20	29.59	-39.4	-41.7	16.2	0.00e+00	0	57	0	961544192	50	4661
2026-01-02 00:27:37.12	231.05	29.42	-39.2	-41.3	16.6	0.00e+00	0	57	0	963641344	50	4475
2026-01-02 00:27:38.13	230.91	29.25	-39.3	-41.5	16.5	0.00e+00	0	57	0	965738496	50	4572
2026-01-02 00:27:39.14	230.76	29.08	-39.4	-41.7	16.3	0.00e+00	0	57	0	967835648	50	4659
2026-01-02 00:27:40.15	230.62	28.91	-39.6	-42.0	15.9	0.00e+00	0	57	0	968884224	50	4815
2026-01-02 00:27:41.16	230.48	28.74	-40.2	-42.8	15.1	0.00e+00	0	57	0	970981376	50	5292
2026-01-02 00:27:42.17	230.34	28.57	-40.3	-42.9	15.0	0.00e+00	0	57	0	973078528	51	5079
2026-01-02 00:27:43.18	230.20	28.41	-40.4	-43.2	14.7	7.00e-07	0	57	0	975175680	51	5242
2026-01-02 00:27:44.19	230.06	28.24	-40.5	-43.2	14.6	7.00e-07	0	57	0	977272832	51	5258
2026-01-02 00:27:45.20	229.92	28.07	-40.9	-44.0	13.9	7.00e-07	0	57	0	978321408	52	5415
2026-01-02 00:27:46.21	229.79	27.91	-40.9	-44.0	13.8	1.29e-05	0	57	0	980418560	52	5416
2026-01-02 00:27:47.22	229.66	27.75	-41.1	-44.4	13.3	7.60e-06	0	57	0	982515712	53	5370
2026-01-02 00:27:48.23	229.52	27.58	-41.1	-44.3	13.5	1.67e-05	0	58	0	984612864	53	5323
2026-01-02 00:27:49.24	229.39	27.42	-40.9	-43.9	13.9	3.00e-06	0	57	0	986710016	53	5064
2026-01-02 00:27:50.24	229.26	27.26	-40.3	-43.0	14.8	7.00e-07	0	57	0	987758592	52	4823
2026-01-02 00:27:51.25	229.14	27.10	-39.9	-42.4	15.4	0.00e+00	0	57	0	989855744	51	4778
2026-01-02 00:27:52.26	229.01	26.94	-39.9	-42.3	15.5	0.00e+00	0	57	0	991952896	51	4756
2026-01-02 00:27:53.27	228.88	26.78	-39.6	-41.9	16.0	0.00e+00	0	57	0	994050048	51	4499
2026-01-02 00:27:54.28	228.76	26.62	-39.7	-42.1	15.8	0.00e+00	0	57	0	996147200	51	4607
2026-01-02 00:27:55.29	228.64	26.47	-39.7	-42.0	15.8	0.00e+00	0	57	0	997195776	51	4585
2026-01-02 00:27:56.30	228.51	26.31	-39.5	-41.8	16.0	0.00e+00	0	57	0	999292928	51	4464
2026-01-02 00:27:57.31	228.39	26.15	-39.5	-41.8	16.1	0.00e+00	0	57	0	1001390080	50	4714
2026-01-02 00:27:58.32	228.28	26.00	-39.2	-41.4	16.5	0.00e+00	0	57	0	1003487232	50	4515
2026-01-02 00:27:59.33	228.16	25.85	-39.1	-41.2	16.6	0.00e+00	0	57	0	1005584384	49	4688
2026-01-02 00:28:00.34	228.04	25.69	-39.0	-41.1	16.7	0.00e+00	0	57	0	1006632960	49	4637
2026-01-02 00:28:01.35	227.92	25.54	-39.1	-41.2	16.5	0.00e+00	0	57	0	1008730112	49	4698
2026-01-02 00:28:02.36	227.81	25.39	-39.2	-41.4	16.4	0.00e+00	0	57	0	1010827264	49	4788
2026-01-02 00:28:03.37	227.70	25.24	-39.6	-42.0	15.8	0.00e+00	0	57	0	1012924416	49	5127
2026-01-02 00:28:04.38	227.58	25.08	-39.8	-42.3	15.5	0.00e+00	0	57	0	1015021568	50	5014
2026-01-02 00:28:05.39	227.47	24.93	-39.9	-42.4	15.5	0.00e+00	0	57	0	1016070144	50	5053
2026-01-02 00:28:06.40	227.36	24.79	-39.8	-42.3	15.6	0.00e+00	0	58	0	1018167296	50	4996
2026-01-02 00:28:07.41	227.25	24.64	-39.6	-42.0	15.9	7.00e-07	0	57	0	1020264448	50	4823
2026-01-02 00:28:08.41	227.15	24.49	-39.4	-41.6	16.2	0.00e+00	0	57	0	1022361600	50	4621
2026-01-02 00:28:09.43	227.04	24.34	-39.4	-41.6	16.3	0.00e+00	0	57	0	1024458752	50	4614
2026-01-02 00:28:10.44	226.93	24.20	-39.0	-41.0	16.7	0.00e+00	0	57	0	1025507328	50	4340
2026-01-02 00:28:11.45	226.83	24.05	-39.0	-41.1	16.7	0.00e+00	0	57	0	1027604480	49	4616
2026-01-02 00:28:12.46	226.72	23.91	-38.9	-41.0	16.8	0.00e+00	0	57	0	1029701632	49	4560
2026-01-02 00:28:13.47	226.62	23.76	-38.9	-40.9	16.9	0.00e+00	0	57	0	1031798784	49	4523
2026-01-02 00:28:14.47	226.52	23.62	-38.8	-40.8	17.0	0.00e+00	0	58	0	1033895936	49	4477
2026-01-02 00:28:15.48	226.42	23.48	-38.8	-40.8	16.9	0.00e+00	0	57	0	1035993088	49	4453
2026-01-02 00:28:16.49	226.32	23.33	-38.7	-40.7	17.0	0.00e+00	0	57	0	1037041664	49	4440
2026-01-02 00:28:17.50	226.22	23.19	-38.6	-40.6	17.2	0.00e+00	0	57	0	1039138816	49	4344
2026-01-02 00:28:18.51	226.12	23.05	-38.7	-40.7	17.1	0.00e+00	0	57	0	1041235968	49	4421
2026-01-02 00:28:19.53	226.02	22.91	-38.6	-40.6	17.1	0.00e+00	0	57	0	1043333120	49	4375
2026-01-02 00:28:20.53	225.92	22.77	-38.7	-40.8	17.0	0.00e+00	0	57	0	1045430272	49	4447
2026-01-02 00:28:21.54	225.83	22.63	-38.9	-41.0	16.7	0.00e+00	0	57	0	1046478848	49	4583
2026-01-02 00:28:22.55	225.73	22.50	-39.2	-41.4	16.2	0.00e+00	0	57	0	1048576000	49	4788
2026-01-02 00:28:23.56	225.64	22.36	-39.6	-41.9	15.8	0.00e+00	0	57	0	1050673152	50	4797
2026-01-02 00:28:24.57	225.55	22.22	-39.7	-42.1	15.7	0.00e+00	0	57	0	1052770304	50	4921
2026-01-02 00:28:25.58	225.45	22.09	-40.1	-42.7	15.1	0.00e+00	0	57	0	1054867456	50	5269
2026-01-02 00:28:26.59	225.36	21.95	-40.2	-42.9	14.9	0.00e+00	0	58	0	1055916032	51	5054
2026-01-02 00:28:27.60	225.27	21.81	-40.2	-42.8	15.0	0.00e+00	0	57	0	1058013184	51	5021
2026-01-02 00:28:28.61	225.18	21.68	-39.9	-42.4	15.4	0.00e+00	0	57	0	1060110336	51	4769
2026-01-02 00:28:29.62	225.09	21.55	-39.8	-42.2	15.6	0.00e+00	0	57	0	1062207488	51	4669
2026-01-02 00:28:30.63	225.00	21.41	-39.6	-41.9	15.9	0.00e+00	0	57	0	1064304640	51	4523
2026-01-02 00:28:31.64	224.92	21.28	-39.5	-41.8	15.9	0.00e+00	0	57	0	1065353216	50	4744
2026-01-02 00:28:32.64	224.83	21.15	-39.3	-41.6	16.2	0.00e+00	0	57	0	1067450368	50	4617
2026-01-02 00:28:33.65	224.74	21.02	-39.3	-41.6	16.2	0.00e+00	0	57	0	1069547520	50	4600
2026-01-02 00:28:34.66	224.66	20.89	-39.5	-41.8	16.0	0.00e+00	0	57	0	1071644672	50	4719
2026-01-02 00:28:35.67	224.57	20.76	-39.5	-41.7	16.0	0.00e+00	0	57	0	1073741824	50	4703
2026-01-02 00:28:36.68	224.49	20.63	-39.6	-41.9	15.8	0.00e+00	0	57	0	1074790400	50	4792
2026-01-02 00:28:37.69	224.41	20.50	-39.8	-42.3	15.5	0.00e+00	0	57	0	1076887552	50	5000
2026-01-02 00:28:38.70	224.32	20.37	-39.8	-42.2	15.5	0.00e+00	0	57	0	1078984704	50	4959
2026-01-02 00:28:39.71	224.24	20.25	-39.8	-42.3	15.4	0.00e+00	0	57	0	1081081856	50	5018
2026-01-02 00:28:40.72	224.16	20.12	-40.0	-42.6	15.2	0.00e+00	0	57	0	1083179008	50	5163
2026-01-02 00:28:41.73	224.08	19.99	-39.9	-42.5	15.3	0.00e+00	0	57	0	1084227584	50	5105
2026-01-02 00:28:42.74	224.00	19.87	-39.8	-42.2	15.6	0.00e+00	0	57	0	1086324736	50	4956
2026-01-02 00:28:43.75	223.92	19.74	-39.7	-42.2	15.6	0.00e+00	0	57	0	1088421888	50	4937
2026-01-02 00:28:44.76	223.84	19.62	-39.7	-42.1	15.7	0.00e+00	0	57	0	1090519040	50	4877
2026-01-02 00:28:45.77	223.77	19.49	-39.3	-41.5	16.2	0.00e+00	0	57	0	1092616192	50	4581
2026-01-02 00:28:46.78	223.69	19.37	-39.2	-41.4	16.3	0.00e+00	0	57	0	1093664768	50	4533
2026-01-02 00:28:47.79	223.61	19.25	-39.1	-41.2	16.5	0.00e+00	0	57	0	1095761920	50	4424
2026-01-02 00:28:48.80	223.54	19.12	-38.9	-41.0	16.7	0.00e+00	0	57	0	1097859072	49	4579
2026-01-02 00:28:49.80	223.46	19.00	-39.0	-41.1	16.6	0.00e+00	0	57	0	1099956224	49	4630
2026-01-02 00:28:50.81	223.39	18.88	-38.8	-40.8	16.9	0.00e+00	0	57	0	1102053376	49	4470
2026-01-02 00:28:51.82	223.31	18.76	-38.7	-40.7	17.0	0.00e+00	0	57	0	1103101952	49	4427
2026-01-02 00:28:52.83	223.24	18.64	-38.7	-40.7	17.1	0.00e+00	0	57	0	1105199104	49	4419
2026-01-02 00:28:53.84	223.17	18.52	-38.6	-40.6	17.0	0.00e+00	0	57	0	1107296256	49	4374
2026-01-02 00:28:54.85	223.09	18.40	-38.5	-40.5	17.1	0.00e+00	0	57	0	1109393408	48	4586
2026-01-02 00:28:55.86	223.02	18.28	-38.5	-40.5	17.2	0.00e+00	0	57	0	1111490560	48	4576
2026-01-02 00:28:56.87	222.95	18.17	-38.6	-40.6	17.0	0.00e+00	0	57	0	1112539136	48	4644
2026-01-02 00:28:57.88	222.88	18.05	-38.6	-40.6	17.1	0.00e+00	0	57	0	1114636288	48	4604
2026-01-02 00:28:58.89	222.81	17.93	-38.8	-40.8	16.8	0.00e+00	0	57	0	1116733440	48	4749
2026-01-02 00:28:59.90	222.74	17.81	-38.7	-40.8	16.9	0.00e+00	0	57	0	1118830592	48	4723
2026-01-02 00:29:00.91	222.67	17.70	-39.0	-41.2	16.5	0.00e+00	0	57	0	1120927744	48	4941
2026-01-02 00:29:01.92	222.61	17.58	-39.0	-41.2	16.5	0.00e+00	0	57	0	1121976320	48	4957
2026-01-02 00:29:02.93	222.54	17.47	-39.1	-41.3	16.3	0.00e+00	0	57	0	1124073472	48	5025
2026-01-02 00:29:03.94	222.47	17.35	-39.3	-41.6	16.1	0.00e+00	0	57	0	1126170624	49	4886
2026-01-02 00:29:04.95	222.40	17.24	-39.6	-42.0	15.7	0.00e+00	0	57	0	1128267776	49	5145
2026-01-02 00:29:05.96	222.34	17.13	-39.7	-42.2	15.4	0.00e+00	0	57	0	1130364928	50	4974
2026-01-02 00:29:06.97	222.27	17.01	-39.9	-42.4	15.2	0.00e+00	0	57	0	1132462080	50	5094
2026-01-02 00:29:07.97	222.21	16.90	-40.2	-42.9	14.8	0.00e+00	0	57	0	1133510656	50	5350
2026-01-02 00:29:08.98	222.14	16.79	-40.2	-42.9	14.8	0.00e+00	0	58	0	1135607808	51	5045
2026-01-02 00:29:09.99	222.08	16.68	-40.5	-43.5	14.1	7.00e-07	0	57	0	1137704960	51	5417
2026-01-02 00:29:11.00	222.02	16.57	-40.7	-43.9	13.7	7.00e-07	0	57	0	1139802112	52	5346
2026-01-02 00:29:12.01	221.95	16.45	-40.6	-43.6	13.9	7.00e-07	0	57	0	1141899264	52	5190
2026-01-02 00:29:13.02	221.89	16.34	-40.8	-43.9	13.6	6.80e-06	0	57	0	1142947840	52	5397
2026-01-02 00:29:14.03	221.83	16.23	-40.8	-43.9	13.7	7.60e-06	0	57	0	1145044992	52	5371
2026-01-02 00:29:15.04	221.77	16.13	-40.6	-43.6	13.9	3.00e-06	0	57	0	1147142144	52	5216
2026-01-02 00:29:16.05	221.70	16.02	-40.6	-43.7	13.9	2.20e-06	0	57	0	1149239296	52	5234
2026-01-02 00:29:17.06	221.64	15.91	-40.7	-43.7	13.7	5.30e-06	0	58	0	1151336448	52	5268
2026-01-02 00:29:18.07	221.58	15.80	-40.4	-43.3	14.2	3.00e-06	0	57	0	1152385024	52	5011
2026-01-02 00:29:19.08	221.52	15.69	-40.4	-43.3	14.2	7.00e-07	0	57	0	1154482176	52	5019
2026-01-02 00:29:20.09	221.46	15.59	-40.4	-43.3	14.2	1.50e-06	0	58	0	1156579328	52	5025
2026-01-02 00:29:21.10	221.41	15.48	-40.1	-42.8	14.7	0.00e+00	0	57	0	1158676480	52	4733
2026-01-02 00:29:22.10	221.35	15.37	-40.1	-42.9	14.7	0.00e+00	0	57	0	1160773632	52	4764
2026-01-02 00:29:23.11	221.29	15.27	-40.2	-43.0	14.5	2.20e-06	0	58	0	1161822208	52	4855
2026-01-02 00:29:24.13	221.23	15.16	-40.0	-42.6	15.0	0.00e+00	0	57	0	1163919360	51	4917
2026-01-02 00:29:25.13	221.17	15.06	-40.1	-42.9	14.7	0.00e+00	0	58	0	1166016512	51	5062
2026-01-02 00:29:26.14	221.12	14.95	-40.0	-42.7	14.9	0.00e+00	0	57	0	1168113664	51	4934
2026-01-02 00:29:27.15	221.06	14.85	-39.9	-42.5	15.1	0.00e+00	0	57	0	1170210816	51	4843
2026-01-02 00:29:28.16	221.01	14.74	-40.0	-42.6	15.0	0.00e+00	0	57	0	1171259392	51	4899
2026-01-02 00:29:29.17	220.95	14.64	-40.0	-42.7	14.8	0.00e+00	0	57	0	1173356544	51	4979
2026-01-02 00:29:30.18	220.89	14.54	-39.9	-42.5	15.0	0.00e+00	0	57	0	1175453696	51	4837
2026-01-02 00:29:31.19	220.84	14.44	-40.0	-42.7	14.9	0.00e+00	0	57	0	1177550848	51	4941
2026-01-02 00:29:32.20	220.79	14.33	-40.1	-42.8	14.7	0.00e+00	0	57	0	1179648000	51	5015
2026-01-02 00:29:33.21	220.73	14.23	-40.2	-42.9	14.6	0.00e+00	0	57	0	1180696576	51	5100
2026-01-02 00:29:34.22	220.68	14.13	-40.3	-43.1	14.5	7.00e-07	0	57	0	1182793728	51	5189
2026-01-02 00:29:35.23	220.62	14.03	-40.3	-43.2	14.4	0.00e+00	0	57	0	1184890880	51	5238
2026-01-02 00:29:36.24	220.57	13.93	-40.2	-43.0	14.6	0.00e+00	0	57	0	1186988032	51	5102
2026-01-02 00:29:37.25	220.52	13.83	-40.4	-43.3	14.3	0.00e+00	0	57	0	1189085184	51	5283
2026-01-02 00:29:38.26	220.47	13.73	-40.1	-42.9	14.6	0.00e+00	0	57	0	1190133760	51	5058
2026-01-02 00:29:39.27	220.41	13.63	-40.3	-43.2	14.3	7.00e-07	0	57	0	1192230912	51	5271
