passes_logs/2026/01/02/R2.0S_Moscow/R2.0S_Moscow__20260102_080045_NOAA_21_JPSS-2_rec.log

#Pass ID: 20260102_080045_NOAA 21 (JPSS-2)
#Satellite: NOAA 21 (JPSS-2)
#Configuration: NOAA-21
#almurnet v.1.7.20251203
#Start time: 2026-01-02 08:00:47

#Version: 2.2.20231116
#Station: R2.0S_Moscow
#Location: 37.707566 lon 55.798166 lat
#TLE: 1 54234U 22150A   26001.26806856  .00000185  00000+0  10843-3 0  9990
#TLE: 2 54234  98.7484 302.3349 0001277 353.3887   6.7272 14.19530660162860

#Time	Az	El	Level	Level2	SNR	BER	BlckErr	Temp	State	Recorded	gain1	gain2
2026-01-02 08:00:47.81	104.31	2.12	-39.4	-51.8	3.8	1.49e+00	0	47	0	0	49	15825
2026-01-02 08:00:48.81	104.24	2.18	-39.3	-51.7	3.8	1.49e+00	0	47	104	0	49	15726
2026-01-02 08:00:49.82	104.16	2.23	-38.6	-51.3	3.8	1.49e+00	0	47	104	0	49	15034
2026-01-02 08:00:50.83	104.08	2.29	-38.9	-51.5	3.8	1.49e+00	0	48	104	0	49	15385
2026-01-02 08:00:51.84	104.01	2.34	-39.3	-51.8	3.8	1.49e+00	0	48	104	0	49	15770
2026-01-02 08:00:52.85	103.93	2.40	-39.3	-51.8	3.8	1.49e+00	0	48	104	0	49	15817
2026-01-02 08:00:53.86	103.85	2.45	-39.3	-51.8	3.8	1.49e+00	0	48	104	0	49	15787
2026-01-02 08:00:54.88	103.77	2.51	-39.3	-51.8	3.8	1.49e+00	0	48	104	0	49	15799
2026-01-02 08:00:55.89	103.69	2.56	-39.3	-51.8	3.8	1.49e+00	0	48	104	0	49	15788
2026-01-02 08:00:56.90	103.61	2.62	-39.3	-51.7	3.8	1.49e+00	0	48	104	0	49	15753
2026-01-02 08:00:57.91	103.53	2.67	-39.3	-51.8	3.8	1.49e+00	0	48	104	0	49	15819
2026-01-02 08:00:58.92	103.45	2.73	-39.3	-51.8	3.8	1.49e+00	0	48	104	0	49	15769
2026-01-02 08:00:59.93	103.37	2.78	-39.3	-51.7	3.8	1.49e+00	0	48	104	0	49	15687
2026-01-02 08:01:00.94	103.29	2.84	-39.3	-51.8	3.8	1.49e+00	0	48	104	0	49	15838
2026-01-02 08:01:01.95	103.21	2.89	-39.2	-51.6	3.8	1.49e+00	0	48	104	0	49	15447
2026-01-02 08:01:02.97	103.13	2.95	-39.2	-51.7	3.8	1.49e+00	0	48	104	0	49	15655
2026-01-02 08:01:03.98	103.05	3.00	-39.3	-51.6	3.8	1.49e+00	0	49	104	0	49	15575
2026-01-02 08:01:04.99	102.97	3.06	-39.3	-51.7	3.8	1.49e+00	0	49	104	0	49	15732
2026-01-02 08:01:06.00	102.88	3.11	-39.3	-51.8	3.8	1.49e+00	0	49	104	0	49	15779
2026-01-02 08:01:07.01	102.80	3.17	-39.3	-51.7	3.8	1.49e+00	0	49	104	0	49	15644
2026-01-02 08:01:08.02	102.72	3.22	-39.0	-51.4	3.9	1.49e+00	0	49	104	0	49	15146
2026-01-02 08:01:09.03	102.64	3.28	-39.3	-51.7	3.8	1.49e+00	0	49	104	0	49	15755
2026-01-02 08:01:10.04	102.55	3.34	-39.1	-51.7	3.8	1.49e+00	0	49	104	0	49	15594
2026-01-02 08:01:11.05	102.47	3.39	-39.3	-51.8	3.8	1.49e+00	0	49	104	0	49	15765
2026-01-02 08:01:12.06	102.39	3.45	-39.3	-51.8	3.8	1.49e+00	0	49	104	0	49	15767
2026-01-02 08:01:13.08	102.30	3.50	-39.4	-51.8	3.8	1.49e+00	0	49	104	0	49	15808
2026-01-02 08:01:14.09	102.22	3.56	-39.3	-51.8	3.8	1.49e+00	0	49	104	0	49	15818
2026-01-02 08:01:15.10	102.13	3.61	-39.3	-51.8	3.8	1.49e+00	0	49	104	0	49	15771
2026-01-02 08:01:16.11	102.05	3.67	-39.3	-51.8	3.8	1.49e+00	0	49	104	0	49	15788
2026-01-02 08:01:17.12	101.96	3.73	-39.3	-51.8	3.8	1.49e+00	0	49	104	0	49	15809
2026-01-02 08:01:18.13	101.87	3.78	-39.3	-51.8	3.8	1.49e+00	0	49	104	0	49	15833
2026-01-02 08:01:19.14	101.79	3.84	-39.3	-51.8	3.8	1.49e+00	0	50	104	0	49	15782
2026-01-02 08:01:20.15	101.70	3.90	-39.3	-51.7	3.8	1.49e+00	0	50	104	0	49	15587
2026-01-02 08:01:21.16	101.61	3.95	-39.3	-51.8	3.8	1.49e+00	0	50	104	0	49	15790
2026-01-02 08:01:22.17	101.53	4.01	-39.3	-51.8	3.8	1.49e+00	0	50	104	0	49	15811
2026-01-02 08:01:23.18	101.44	4.06	-39.3	-51.8	3.8	1.49e+00	0	50	104	0	49	15778
2026-01-02 08:01:24.20	101.35	4.12	-39.3	-51.7	3.8	1.49e+00	0	50	104	0	49	15714
2026-01-02 08:01:25.21	101.26	4.18	-39.3	-51.7	3.8	1.49e+00	0	50	104	0	49	15733
2026-01-02 08:01:26.22	101.17	4.23	-39.3	-51.7	3.8	1.49e+00	0	50	104	0	49	15732
2026-01-02 08:01:27.23	101.08	4.29	-39.3	-51.8	3.8	1.49e+00	0	50	104	0	49	15771
2026-01-02 08:01:28.24	100.99	4.35	-39.3	-51.7	3.8	1.49e+00	0	50	104	0	49	15756
2026-01-02 08:01:29.25	100.90	4.40	-39.3	-51.7	3.8	1.49e+00	0	50	104	0	49	15747
2026-01-02 08:01:30.26	100.81	4.46	-39.3	-51.7	3.8	1.49e+00	0	50	104	0	49	15707
2026-01-02 08:01:31.27	100.72	4.52	-39.2	-51.7	3.8	1.49e+00	0	50	104	0	49	15646
2026-01-02 08:01:32.28	100.63	4.57	-39.3	-51.7	3.8	1.49e+00	0	50	104	0	49	15739
2026-01-02 08:01:33.30	100.54	4.63	-39.3	-51.8	3.8	1.49e+00	0	50	104	0	49	15776
2026-01-02 08:01:34.31	100.45	4.69	-39.3	-51.7	3.8	1.49e+00	0	50	104	0	49	15710
2026-01-02 08:01:35.32	100.36	4.75	-39.3	-51.7	3.8	1.49e+00	0	50	104	0	49	15725
2026-01-02 08:01:36.33	100.27	4.80	-39.2	-51.7	3.8	1.49e+00	0	50	104	0	49	15584
2026-01-02 08:01:37.34	100.17	4.86	-39.3	-51.7	3.8	1.49e+00	0	51	104	0	49	15715
2026-01-02 08:01:38.35	100.08	4.92	-39.3	-51.7	3.8	1.49e+00	0	51	104	0	49	15754
2026-01-02 08:01:39.36	99.99	4.97	-39.0	-51.5	3.8	1.49e+00	0	51	104	0	49	15282
2026-01-02 08:01:40.37	99.89	5.03	-39.3	-51.8	3.8	1.49e+00	0	51	104	0	49	15801
2026-01-02 08:01:41.38	99.80	5.09	-39.3	-51.8	3.8	1.49e+00	0	51	104	0	49	15800
2026-01-02 08:01:42.40	99.70	5.15	-39.3	-51.7	3.8	1.49e+00	0	51	104	0	49	15749
2026-01-02 08:01:43.41	99.61	5.20	-39.1	-51.6	3.8	1.49e+00	0	51	104	0	49	15445
2026-01-02 08:01:44.42	99.51	5.26	-39.3	-51.7	3.8	1.49e+00	0	51	104	0	49	15738
2026-01-02 08:01:45.43	99.42	5.32	-39.3	-51.7	3.8	1.49e+00	0	51	104	0	49	15735
2026-01-02 08:01:46.44	99.32	5.38	-39.1	-51.5	3.8	1.49e+00	0	51	104	0	49	15332
2026-01-02 08:01:47.45	99.22	5.43	-39.3	-51.8	3.8	1.49e+00	0	51	104	0	49	15787
2026-01-02 08:01:48.46	99.13	5.49	-39.3	-51.8	3.8	1.49e+00	0	51	104	0	49	15806
2026-01-02 08:01:49.47	99.03	5.55	-39.3	-51.7	3.8	1.49e+00	0	51	104	0	49	15584
2026-01-02 08:01:50.48	98.93	5.61	-39.1	-51.5	3.8	1.49e+00	0	51	104	0	49	15300
2026-01-02 08:01:51.50	98.83	5.67	-39.3	-51.7	3.8	1.49e+00	0	51	104	0	49	15733
2026-01-02 08:01:52.51	98.73	5.72	-39.3	-51.8	3.8	1.49e+00	0	51	104	0	49	15771
2026-01-02 08:01:53.52	98.64	5.78	-39.3	-51.8	3.8	1.49e+00	0	51	104	0	49	15779
2026-01-02 08:01:54.53	98.54	5.84	-39.3	-51.8	3.8	1.49e+00	0	51	104	0	49	15804
2026-01-02 08:01:55.54	98.44	5.90	-39.3	-51.7	3.8	1.49e+00	0	51	104	0	49	15726
2026-01-02 08:01:56.55	98.34	5.96	-39.3	-51.7	3.8	1.49e+00	0	51	104	0	49	15729
2026-01-02 08:01:57.56	98.24	6.01	-39.3	-51.7	3.8	1.49e+00	0	52	104	0	49	15678
2026-01-02 08:01:58.57	98.14	6.07	-39.3	-51.7	3.8	1.49e+00	0	51	104	0	49	15675
2026-01-02 08:01:59.58	98.03	6.13	-39.2	-51.6	3.8	1.49e+00	0	51	104	0	49	15508
2026-01-02 08:02:00.60	97.93	6.19	-39.2	-51.7	3.8	1.49e+00	0	52	104	0	49	15687
2026-01-02 08:02:01.61	97.83	6.25	-39.3	-51.6	3.8	1.49e+00	0	52	104	0	49	15558
2026-01-02 08:02:02.62	97.73	6.31	-39.3	-51.7	3.8	1.49e+00	0	52	104	0	49	15732
2026-01-02 08:02:03.63	97.62	6.36	-39.3	-51.8	3.8	1.49e+00	0	52	104	0	49	15768
2026-01-02 08:02:04.64	97.52	6.42	-39.3	-51.7	3.8	1.49e+00	0	52	104	0	49	15708
2026-01-02 08:02:05.65	97.42	6.48	-39.3	-51.8	3.8	1.49e+00	0	52	104	0	49	15771
2026-01-02 08:02:06.66	97.31	6.54	-39.3	-51.7	3.8	1.49e+00	0	52	104	0	49	15693
2026-01-02 08:02:07.68	97.21	6.60	-39.3	-51.7	3.8	1.49e+00	0	52	104	0	49	15745
2026-01-02 08:02:08.69	97.10	6.66	-39.3	-51.7	3.8	1.49e+00	0	52	104	0	49	15743
2026-01-02 08:02:09.70	97.00	6.72	-39.3	-51.7	3.8	1.49e+00	0	52	104	0	49	15738
2026-01-02 08:02:10.71	96.89	6.77	-39.3	-51.8	3.8	1.49e+00	0	52	104	0	49	15789
2026-01-02 08:02:11.72	96.78	6.83	-39.0	-51.7	3.8	1.49e+00	0	52	104	0	49	15594
2026-01-02 08:02:12.73	96.68	6.89	-39.1	-51.7	3.8	1.49e+00	0	52	104	0	49	15683
2026-01-02 08:02:13.75	96.57	6.95	-39.3	-51.8	3.8	1.49e+00	0	52	104	0	49	15769
2026-01-02 08:02:14.76	96.46	7.01	-39.3	-51.7	3.8	1.49e+00	0	52	104	0	49	15721
2026-01-02 08:02:15.77	96.35	7.07	-39.2	-51.7	3.8	1.49e+00	0	52	104	0	49	15594
2026-01-02 08:02:16.78	96.24	7.13	-39.3	-51.8	3.8	1.49e+00	0	52	104	0	49	15763
2026-01-02 08:02:17.79	96.13	7.19	-39.3	-51.8	3.8	1.49e+00	0	52	104	0	49	15774
2026-01-02 08:02:18.80	96.03	7.25	-39.3	-51.7	3.8	1.49e+00	0	53	104	0	49	15613
2026-01-02 08:02:19.81	95.92	7.30	-39.3	-51.7	3.8	1.49e+00	0	52	104	0	49	15691
2026-01-02 08:02:20.82	95.80	7.36	-39.3	-51.7	3.8	1.49e+00	0	53	104	0	49	15642
2026-01-02 08:02:21.83	95.69	7.42	-39.3	-51.7	3.8	1.49e+00	0	53	104	0	49	15636
2026-01-02 08:02:22.84	95.58	7.48	-39.3	-51.7	3.8	1.49e+00	0	52	104	0	49	15744
2026-01-02 08:02:23.86	95.47	7.54	-39.2	-51.5	3.8	1.49e+00	0	53	104	0	49	15373
2026-01-02 08:02:24.87	95.36	7.60	-39.3	-51.7	3.8	1.49e+00	0	53	104	0	49	15738
2026-01-02 08:02:25.88	95.24	7.66	-39.3	-51.6	3.8	1.49e+00	0	53	104	0	49	15534
2026-01-02 08:02:26.89	95.13	7.72	-39.2	-51.4	3.8	1.49e+00	0	53	104	0	49	15121
2026-01-02 08:02:27.90	95.02	7.78	-39.3	-51.7	3.8	1.49e+00	0	53	104	0	49	15706
2026-01-02 08:02:28.91	94.90	7.84	-39.3	-51.7	3.8	1.49e+00	0	53	104	0	49	15682
2026-01-02 08:02:29.92	94.79	7.90	-39.3	-51.7	3.8	1.49e+00	0	53	104	0	49	15638
2026-01-02 08:02:30.93	94.67	7.96	-39.3	-51.8	3.8	1.49e+00	0	53	104	0	49	15784
2026-01-02 08:02:31.94	94.56	8.02	-39.3	-51.8	3.8	1.49e+00	0	53	104	0	49	15776
2026-01-02 08:02:32.96	94.44	8.08	-39.4	-51.8	3.8	1.49e+00	0	53	104	0	49	15933
2026-01-02 08:02:33.97	94.32	8.14	-39.8	-52.1	3.8	1.49e+00	0	53	104	0	50	15570
2026-01-02 08:02:34.98	94.21	8.20	-39.5	-51.8	3.8	1.49e+00	0	53	104	0	50	15001
2026-01-02 08:02:35.99	94.09	8.25	-39.6	-52.0	3.8	1.49e+00	0	53	104	0	50	15238
2026-01-02 08:02:37.00	93.97	8.31	-39.4	-51.8	3.8	1.49e+00	0	53	104	0	50	14900
2026-01-02 08:02:38.01	93.85	8.37	-39.6	-52.0	3.8	1.49e+00	0	53	104	0	50	15230
2026-01-02 08:02:39.02	93.73	8.43	-39.2	-51.7	3.8	1.49e+00	0	53	104	0	49	15690
2026-01-02 08:02:40.03	93.61	8.49	-39.8	-52.2	3.8	1.49e+00	0	53	104	0	50	15738
2026-01-02 08:02:41.04	93.49	8.55	-39.5	-51.9	3.8	1.49e+00	0	53	104	0	50	15126
2026-01-02 08:02:42.05	93.37	8.61	-39.8	-52.2	3.8	1.49e+00	0	53	104	0	50	15760
2026-01-02 08:02:43.06	93.25	8.67	-39.5	-51.9	3.8	1.49e+00	0	53	104	0	50	15137
2026-01-02 08:02:44.07	93.13	8.73	-39.6	-52.0	3.8	1.49e+00	0	53	104	0	50	15291
2026-01-02 08:02:45.08	93.01	8.79	-39.5	-51.9	3.8	1.49e+00	0	53	104	0	50	15052
2026-01-02 08:02:46.09	92.89	8.85	-39.6	-51.9	3.8	1.49e+00	0	53	104	0	50	15104
2026-01-02 08:02:47.10	92.76	8.91	-39.5	-51.9	3.8	1.49e+00	0	53	104	0	50	15144
2026-01-02 08:02:48.11	92.64	8.97	-40.1	-52.5	3.8	1.49e+00	0	53	104	0	51	15258
2026-01-02 08:02:49.12	92.52	9.03	-39.6	-51.9	3.8	1.49e+00	0	53	104	0	51	14245
2026-01-02 08:02:50.13	92.39	9.09	-39.6	-51.9	3.8	1.49e+00	0	53	104	0	51	14326
2026-01-02 08:02:51.14	92.27	9.15	-39.6	-51.9	3.8	1.49e+00	0	53	104	0	51	14322
2026-01-02 08:02:52.15	92.14	9.21	-39.6	-51.9	3.8	1.49e+00	0	54	104	0	50	15179
2026-01-02 08:02:53.16	92.01	9.27	-39.6	-51.9	3.8	1.49e+00	0	53	104	0	50	15147
2026-01-02 08:02:54.17	91.89	9.33	-39.6	-52.0	3.8	1.49e+00	0	54	104	0	50	15230
2026-01-02 08:02:55.18	91.76	9.39	-40.7	-52.8	3.8	1.49e+00	0	53	104	0	52	14933
2026-01-02 08:02:56.19	91.63	9.45	-39.8	-52.0	3.8	1.49e+00	0	54	104	0	51	14489
2026-01-02 08:02:57.20	91.50	9.51	-39.6	-51.8	3.8	1.49e+00	0	54	104	0	51	14092
2026-01-02 08:02:58.21	91.38	9.57	-39.6	-50.8	3.8	1.49e+00	0	54	104	0	51	12565
2026-01-02 08:02:59.22	91.25	9.63	-39.4	-49.0	4.1	1.48e+00	0	54	104	0	50	10897
2026-01-02 08:03:00.23	91.12	9.69	-39.5	-49.2	3.9	1.47e+00	0	54	104	0	50	11134
2026-01-02 08:03:01.24	90.99	9.75	-39.5	-48.1	4.4	1.45e+00	0	54	104	0	50	9795
2026-01-02 08:03:02.25	90.86	9.81	-39.4	-47.0	4.1	1.35e+00	0	54	104	1048576	50	8605
2026-01-02 08:03:03.26	90.72	9.87	-39.9	-47.4	5.0	6.23e-01	0	54	0	3145728	50	8978
2026-01-02 08:03:04.27	90.59	9.93	-40.5	-48.7	4.0	1.47e+00	0	54	104	4194304	52	9327
2026-01-02 08:03:05.28	90.46	9.99	-39.8	-50.4	3.9	1.49e+00	0	54	104	4194304	51	11990
2026-01-02 08:03:06.29	90.33	10.05	-40.0	-49.1	4.2	1.03e+00	0	54	104	4194304	51	10302
2026-01-02 08:03:07.30	90.19	10.11	-40.2	-50.8	3.9	1.48e+00	0	54	104	4194304	51	12522
2026-01-02 08:03:08.31	90.06	10.17	-40.4	-51.9	3.8	1.49e+00	0	54	104	4194304	51	14241
2026-01-02 08:03:09.32	89.92	10.23	-40.5	-52.5	3.8	1.49e+00	0	54	104	4194304	51	15256
2026-01-02 08:03:10.33	89.79	10.29	-40.5	-52.8	3.8	1.49e+00	0	54	104	4194304	51	15816
2026-01-02 08:03:11.34	89.65	10.35	-40.6	-52.2	3.8	1.49e+00	0	54	104	4194304	51	14723
2026-01-02 08:03:12.35	89.51	10.41	-40.8	-52.7	3.8	1.49e+00	0	54	104	4194304	52	14855
2026-01-02 08:03:13.35	89.38	10.47	-40.1	-52.6	3.8	1.49e+00	0	54	104	4194304	51	15521
2026-01-02 08:03:14.36	89.24	10.53	-40.1	-52.6	3.8	1.49e+00	0	54	104	4194304	51	15485
2026-01-02 08:03:15.37	89.10	10.59	-40.1	-52.6	3.8	1.49e+00	0	54	104	4194304	51	15539
2026-01-02 08:03:16.38	88.96	10.65	-40.2	-52.6	3.8	1.49e+00	0	54	104	4194304	51	15580
2026-01-02 08:03:17.40	88.82	10.71	-40.2	-52.7	3.8	1.49e+00	0	54	104	4194304	51	15608
2026-01-02 08:03:18.41	88.68	10.77	-40.4	-52.8	3.8	1.49e+00	0	54	104	4194304	51	15881
2026-01-02 08:03:19.42	88.54	10.83	-40.2	-52.8	3.8	1.49e+00	0	54	104	4194304	51	15787
2026-01-02 08:03:20.43	88.40	10.89	-40.1	-52.7	3.8	1.49e+00	0	54	104	4194304	51	15628
2026-01-02 08:03:21.43	88.26	10.95	-40.2	-52.8	3.8	1.49e+00	0	54	104	4194304	51	15856
2026-01-02 08:03:22.44	88.12	11.01	-40.1	-52.6	3.8	1.49e+00	0	54	104	4194304	51	15523
2026-01-02 08:03:23.45	87.98	11.07	-40.2	-52.8	3.8	1.49e+00	0	54	104	4194304	51	15837
2026-01-02 08:03:24.46	87.83	11.13	-40.1	-52.6	3.8	1.49e+00	0	54	104	4194304	51	15579
2026-01-02 08:03:25.47	87.69	11.18	-40.1	-52.6	3.8	1.49e+00	0	54	104	4194304	51	15480
2026-01-02 08:03:26.48	87.54	11.24	-40.1	-52.6	3.8	1.49e+00	0	54	104	4194304	51	15477
2026-01-02 08:03:27.49	87.40	11.30	-40.1	-52.6	3.8	1.49e+00	0	54	104	4194304	51	15568
2026-01-02 08:03:28.50	87.25	11.36	-40.1	-52.6	3.8	1.49e+00	0	55	104	4194304	51	15435
2026-01-02 08:03:29.51	87.11	11.42	-40.1	-52.6	3.8	1.49e+00	0	55	104	4194304	51	15471
2026-01-02 08:03:30.52	86.96	11.48	-40.1	-52.6	3.8	1.49e+00	0	54	104	4194304	51	15443
2026-01-02 08:03:31.54	86.81	11.54	-40.1	-52.6	3.8	1.49e+00	0	54	104	4194304	51	15450
2026-01-02 08:03:32.55	86.66	11.60	-40.2	-52.6	3.8	1.49e+00	0	54	104	4194304	51	15455
2026-01-02 08:03:33.56	86.51	11.66	-40.2	-52.6	3.8	1.49e+00	0	55	104	4194304	51	15414
2026-01-02 08:03:34.57	86.36	11.72	-40.2	-52.6	3.8	1.49e+00	0	54	104	4194304	51	15411
2026-01-02 08:03:35.58	86.21	11.78	-40.1	-52.5	3.8	1.49e+00	0	55	104	4194304	51	15247
2026-01-02 08:03:36.59	86.06	11.84	-40.1	-52.5	3.8	1.49e+00	0	55	104	4194304	51	15328
2026-01-02 08:03:37.60	85.91	11.90	-40.1	-52.5	3.8	1.49e+00	0	55	104	4194304	51	15313
2026-01-02 08:03:38.60	85.76	11.96	-40.1	-52.5	3.8	1.49e+00	0	55	104	4194304	51	15240
2026-01-02 08:03:39.61	85.61	12.01	-40.3	-52.5	3.8	1.49e+00	0	55	104	4194304	51	15397
2026-01-02 08:03:40.62	85.46	12.07	-40.0	-52.4	3.8	1.49e+00	0	55	104	4194304	51	15161
2026-01-02 08:03:41.63	85.30	12.13	-40.0	-52.4	3.8	1.49e+00	0	55	104	4194304	51	15172
2026-01-02 08:03:42.64	85.15	12.19	-39.9	-52.3	3.8	1.49e+00	0	55	104	4194304	51	15047
2026-01-02 08:03:43.65	84.99	12.25	-39.9	-52.2	3.8	1.49e+00	0	55	104	4194304	51	14873
2026-01-02 08:03:44.66	84.84	12.31	-39.9	-52.3	3.8	1.49e+00	0	55	104	4194304	51	15038
2026-01-02 08:03:45.67	84.68	12.37	-39.9	-52.3	3.8	1.49e+00	0	55	104	4194304	51	14898
2026-01-02 08:03:46.68	84.52	12.43	-39.9	-52.3	3.8	1.49e+00	0	55	104	4194304	51	14999
2026-01-02 08:03:47.68	84.37	12.48	-40.1	-52.4	3.8	1.49e+00	0	55	104	4194304	51	15066
2026-01-02 08:03:48.69	84.21	12.54	-39.9	-52.3	3.8	1.49e+00	0	55	104	4194304	51	14885
2026-01-02 08:03:49.71	84.05	12.60	-40.1	-52.3	3.8	1.49e+00	0	55	104	4194304	51	15044
2026-01-02 08:03:50.72	83.89	12.66	-39.9	-52.3	3.8	1.49e+00	0	55	104	4194304	51	14922
2026-01-02 08:03:51.73	83.73	12.72	-40.1	-52.3	3.8	1.49e+00	0	55	104	4194304	51	15036
2026-01-02 08:03:52.74	83.57	12.78	-40.0	-52.3	3.8	1.49e+00	0	55	104	4194304	51	14989
2026-01-02 08:03:53.75	83.41	12.83	-40.2	-52.4	3.8	1.49e+00	0	55	104	4194304	51	15145
2026-01-02 08:03:54.76	83.24	12.89	-40.0	-52.3	3.8	1.49e+00	0	55	104	4194304	51	15011
2026-01-02 08:03:55.77	83.08	12.95	-40.5	-52.4	3.8	1.49e+00	0	55	104	4194304	51	15200
2026-01-02 08:03:56.78	82.92	13.01	-40.0	-52.3	3.8	1.49e+00	0	55	104	4194304	51	14980
2026-01-02 08:03:57.79	82.76	13.06	-40.4	-52.1	3.8	1.49e+00	0	55	104	4194304	51	14555
2026-01-02 08:03:58.80	82.59	13.12	-40.0	-52.3	3.8	1.49e+00	0	55	104	4194304	51	14919
2026-01-02 08:03:59.81	82.43	13.18	-40.2	-52.4	3.8	1.49e+00	0	55	104	4194304	51	15211
2026-01-02 08:04:00.82	82.26	13.24	-40.1	-52.2	3.8	1.49e+00	0	55	104	4194304	51	14776
2026-01-02 08:04:01.83	82.09	13.29	-40.2	-51.6	3.8	1.49e+00	0	55	104	4194304	51	13786
2026-01-02 08:04:02.84	81.93	13.35	-40.1	-52.2	3.8	1.49e+00	0	55	104	4194304	51	14795
2026-01-02 08:04:03.85	81.76	13.41	-40.7	-51.9	3.8	1.49e+00	0	55	104	4194304	52	13472
2026-01-02 08:04:04.86	81.59	13.47	-40.0	-52.4	3.8	1.49e+00	0	55	104	4194304	51	15090
2026-01-02 08:04:05.87	81.42	13.52	-40.2	-51.9	3.8	1.49e+00	0	55	104	4194304	51	14312
2026-01-02 08:04:06.88	81.25	13.58	-40.2	-51.4	3.8	1.49e+00	0	55	104	4194304	51	13506
2026-01-02 08:04:07.89	81.08	13.64	-40.1	-51.1	3.8	1.49e+00	0	55	104	4194304	51	13108
2026-01-02 08:04:08.90	80.91	13.69	-40.7	-50.5	4.0	1.49e+00	0	55	104	4194304	51	12193
2026-01-02 08:04:09.91	80.74	13.75	-40.0	-52.1	3.8	1.49e+00	0	55	104	4194304	51	14592
2026-01-02 08:04:10.92	80.56	13.80	-40.8	-49.9	4.2	1.46e+00	0	55	104	4194304	52	10698
2026-01-02 08:04:11.93	80.39	13.86	-41.1	-50.3	4.1	1.43e+00	0	55	104	4194304	52	11286
2026-01-02 08:04:12.94	80.22	13.92	-40.5	-48.5	4.7	5.24e-01	0	55	0	5242880	52	9134
2026-01-02 08:04:13.95	80.04	13.97	-40.6	-48.5	4.7	1.41e+00	0	55	104	5242880	52	9132
2026-01-02 08:04:14.96	79.87	14.03	-40.2	-46.6	6.0	4.63e-01	0	55	0	6291456	52	7302
2026-01-02 08:04:15.97	79.69	14.08	-40.3	-46.5	6.0	2.78e-01	0	55	0	9437184	52	7231
2026-01-02 08:04:16.98	79.52	14.14	-40.2	-46.3	6.1	3.29e-01	0	55	0	12582912	52	7118
2026-01-02 08:04:17.99	79.34	14.19	-40.1	-45.7	6.7	2.06e-01	0	55	0	15728640	52	6615
2026-01-02 08:04:19.00	79.16	14.25	-39.9	-45.0	7.5	1.16e-01	0	55	0	18874368	51	6464
2026-01-02 08:04:20.01	78.98	14.30	-39.9	-44.9	8.0	7.44e-02	0	55	0	22020096	51	6354
2026-01-02 08:04:21.02	78.80	14.36	-39.6	-44.1	8.5	4.50e-02	0	55	0	25165824	51	5834
2026-01-02 08:04:22.03	78.62	14.41	-39.1	-42.9	9.8	1.69e-02	0	55	0	28311552	50	5356
2026-01-02 08:04:23.04	78.44	14.47	-38.5	-41.8	10.8	3.92e-03	0	55	0	31457280	49	5027
2026-01-02 08:04:24.05	78.26	14.52	-37.7	-40.7	12.0	5.43e-04	0	55	0	34603008	47	4941
2026-01-02 08:04:25.06	78.08	14.58	-37.5	-40.3	12.3	1.72e-04	0	55	0	38797312	47	4743
2026-01-02 08:04:26.07	77.90	14.63	-37.6	-40.5	12.0	3.27e-04	0	55	0	40894464	47	4850
2026-01-02 08:04:27.08	77.72	14.68	-37.5	-40.3	12.2	2.59e-04	0	55	0	44040192	47	4747
2026-01-02 08:04:28.09	77.53	14.74	-37.3	-40.1	12.4	1.48e-04	0	55	0	47185920	46	4872
2026-01-02 08:04:29.10	77.35	14.79	-37.5	-40.3	12.1	2.52e-04	0	55	0	50331648	46	5023
2026-01-02 08:04:30.11	77.16	14.84	-37.6	-40.5	11.9	3.23e-04	0	55	0	54525952	46	5133
2026-01-02 08:04:31.12	76.98	14.90	-37.7	-40.8	11.6	5.78e-04	0	55	0	57671680	46	5281
2026-01-02 08:04:32.13	76.79	14.95	-37.8	-40.9	11.4	8.86e-04	0	56	0	60817408	46	5399
2026-01-02 08:04:33.14	76.60	15.00	-37.8	-41.0	11.4	9.52e-04	0	55	0	63963136	46	5409
2026-01-02 08:04:34.15	76.42	15.06	-37.9	-41.0	11.4	1.04e-03	0	55	0	66060288	46	5436
2026-01-02 08:04:35.16	76.23	15.11	-37.8	-41.0	11.4	1.06e-03	0	55	0	70254592	46	5424
2026-01-02 08:04:36.17	76.04	15.16	-37.9	-41.1	11.3	1.10e-03	0	55	0	73400320	46	5473
2026-01-02 08:04:37.18	75.85	15.21	-38.0	-41.2	11.1	1.42e-03	0	55	0	76546048	46	5581
2026-01-02 08:04:38.19	75.66	15.26	-38.0	-41.2	11.1	1.59e-03	0	55	0	79691776	46	5580
2026-01-02 08:04:39.20	75.47	15.31	-38.0	-41.3	11.0	1.89e-03	0	55	0	82837504	46	5651
2026-01-02 08:04:40.21	75.28	15.37	-38.0	-41.2	11.1	1.79e-03	0	55	0	85983232	46	5584
2026-01-02 08:04:41.22	75.08	15.42	-38.0	-41.2	11.0	1.78e-03	0	55	0	89128960	46	5589
2026-01-02 08:04:42.23	74.89	15.47	-38.0	-41.3	10.9	1.79e-03	0	55	0	92274688	46	5648
2026-01-02 08:04:43.24	74.70	15.52	-38.1	-41.5	10.8	2.64e-03	0	55	0	95420416	46	5746
2026-01-02 08:04:44.25	74.50	15.57	-38.2	-41.7	10.5	3.99e-03	0	55	0	98566144	46	5890
2026-01-02 08:04:45.26	74.31	15.62	-38.3	-41.9	10.2	5.08e-03	0	56	0	101711872	47	5712
2026-01-02 08:04:46.27	74.11	15.67	-38.4	-42.1	9.9	7.57e-03	0	55	0	104857600	47	5847
2026-01-02 08:04:47.28	73.91	15.72	-38.4	-42.3	9.8	1.07e-02	0	56	0	108003328	47	5951
2026-01-02 08:04:48.29	73.72	15.77	-38.4	-42.2	9.9	9.39e-03	0	56	0	111149056	47	5870
2026-01-02 08:04:49.29	73.52	15.82	-38.3	-42.1	9.9	8.74e-03	0	56	0	114294784	47	5847
2026-01-02 08:04:50.30	73.32	15.87	-38.4	-42.2	9.8	9.22e-03	0	56	0	117440512	47	5884
2026-01-02 08:04:51.31	73.12	15.91	-38.4	-42.4	9.6	1.19e-02	0	55	0	120586240	47	6007
2026-01-02 08:04:52.32	72.93	15.96	-38.4	-42.2	9.8	1.09e-02	0	56	0	123731968	47	5923
2026-01-02 08:04:53.33	72.73	16.01	-38.3	-42.2	9.7	1.03e-02	0	56	0	126877696	47	5917
2026-01-02 08:04:54.35	72.52	16.06	-38.2	-41.9	10.1	7.29e-03	0	56	0	130023424	47	5706
2026-01-02 08:04:55.36	72.32	16.11	-38.1	-41.8	10.3	5.70e-03	0	56	0	133169152	47	5606
2026-01-02 08:04:56.37	72.12	16.15	-38.2	-41.8	10.2	5.89e-03	0	56	0	136314880	47	5640
2026-01-02 08:04:57.37	71.92	16.20	-38.2	-41.9	10.2	6.53e-03	0	56	0	139460608	47	5688
2026-01-02 08:04:58.39	71.71	16.25	-38.1	-41.6	10.5	4.69e-03	0	56	0	142606336	47	5467
2026-01-02 08:04:59.40	71.51	16.29	-37.9	-41.3	10.8	2.62e-03	0	56	0	145752064	47	5315
2026-01-02 08:05:00.41	71.30	16.34	-37.8	-41.1	11.1	1.59e-03	0	56	0	148897792	47	5188
2026-01-02 08:05:01.42	71.10	16.39	-37.9	-41.1	11.1	1.59e-03	0	56	0	152043520	47	5204
2026-01-02 08:05:02.43	70.89	16.43	-37.7	-40.6	11.9	7.70e-04	0	56	0	155189248	47	4903
2026-01-02 08:05:03.44	70.69	16.48	-37.5	-40.4	12.3	2.11e-04	0	56	0	158334976	47	4763
2026-01-02 08:05:04.45	70.48	16.52	-37.5	-40.1	12.7	9.91e-05	0	56	0	161480704	46	4903
2026-01-02 08:05:05.45	70.27	16.57	-37.4	-40.0	13.0	5.26e-05	0	56	0	164626432	46	4856
2026-01-02 08:05:06.46	70.06	16.61	-37.4	-39.8	13.4	1.52e-05	0	56	0	167772160	46	4722
2026-01-02 08:05:07.47	69.86	16.66	-37.4	-39.7	13.6	8.30e-06	0	56	0	170917888	46	4689
2026-01-02 08:05:08.48	69.65	16.70	-37.2	-39.4	14.1	1.50e-06	0	56	0	174063616	46	4505
2026-01-02 08:05:09.49	69.44	16.74	-37.0	-39.1	14.5	1.50e-06	0	56	0	177209344	46	4343
2026-01-02 08:05:10.50	69.22	16.79	-36.8	-38.7	15.0	0.00e+00	0	56	0	180355072	45	4417
2026-01-02 08:05:11.52	69.01	16.83	-36.5	-38.4	15.5	0.00e+00	0	56	0	183500800	45	4244
2026-01-02 08:05:12.53	68.80	16.87	-36.5	-38.3	15.7	0.00e+00	0	56	0	186646528	45	4201
2026-01-02 08:05:13.54	68.59	16.92	-36.4	-38.2	15.9	0.00e+00	0	56	0	189792256	44	4407
2026-01-02 08:05:14.55	68.37	16.96	-36.3	-38.0	16.2	0.00e+00	0	56	0	192937984	44	4304
2026-01-02 08:05:15.56	68.16	17.00	-36.2	-37.9	16.5	0.00e+00	0	56	0	196083712	44	4247
2026-01-02 08:05:16.57	67.94	17.04	-36.3	-37.9	16.6	0.00e+00	0	56	0	199229440	44	4256
2026-01-02 08:05:17.57	67.73	17.08	-36.2	-37.7	16.8	0.00e+00	0	56	0	202375168	44	4193
2026-01-02 08:05:18.59	67.51	17.12	-36.1	-37.7	17.0	0.00e+00	0	56	0	205520896	44	4148
2026-01-02 08:05:19.60	67.30	17.16	-36.1	-37.6	17.1	0.00e+00	0	56	0	208666624	44	4105
2026-01-02 08:05:20.61	67.08	17.20	-36.0	-37.5	17.2	0.00e+00	0	56	0	211812352	44	4087
2026-01-02 08:05:21.62	66.86	17.24	-36.0	-37.5	17.3	0.00e+00	0	56	0	214958080	44	4068
2026-01-02 08:05:22.63	66.64	17.28	-35.8	-37.3	17.4	0.00e+00	0	56	0	218103808	43	4200
2026-01-02 08:05:23.64	66.43	17.32	-35.7	-37.2	17.5	0.00e+00	0	56	0	221249536	43	4147
2026-01-02 08:05:24.65	66.21	17.36	-35.7	-37.2	17.6	0.00e+00	0	56	0	224395264	43	4155
2026-01-02 08:05:25.66	65.99	17.40	-35.7	-37.1	17.7	0.00e+00	0	56	0	227540992	43	4112
2026-01-02 08:05:26.67	65.77	17.43	-35.5	-36.9	17.8	0.00e+00	0	56	0	230686720	43	4044
2026-01-02 08:05:27.68	65.55	17.47	-35.4	-36.8	18.0	0.00e+00	0	56	0	233832448	42	4212
2026-01-02 08:05:28.69	65.33	17.51	-35.3	-36.7	18.1	0.00e+00	0	56	0	236978176	42	4161
2026-01-02 08:05:29.70	65.10	17.54	-35.4	-36.8	18.0	0.00e+00	0	56	0	240123904	42	4207
2026-01-02 08:05:30.71	64.88	17.58	-35.4	-36.7	18.1	0.00e+00	0	56	0	243269632	42	4190
2026-01-02 08:05:31.72	64.66	17.62	-35.4	-36.8	18.1	0.00e+00	0	56	0	246415360	42	4194
2026-01-02 08:05:32.73	64.43	17.65	-35.5	-36.8	18.0	0.00e+00	0	56	0	249561088	42	4228
2026-01-02 08:05:33.74	64.21	17.69	-35.4	-36.7	18.1	0.00e+00	0	56	0	252706816	42	4185
2026-01-02 08:05:34.75	63.99	17.72	-35.4	-36.8	18.1	0.00e+00	0	56	0	255852544	42	4206
2026-01-02 08:05:35.76	63.76	17.76	-35.5	-36.8	18.0	0.00e+00	0	56	0	258998272	42	4237
2026-01-02 08:05:36.77	63.54	17.79	-35.5	-36.8	18.0	0.00e+00	0	56	0	262144000	42	4241
2026-01-02 08:05:37.78	63.31	17.82	-35.5	-36.9	18.0	0.00e+00	0	56	0	265289728	42	4243
2026-01-02 08:05:38.79	63.08	17.86	-35.5	-36.8	18.0	0.00e+00	0	56	0	268435456	42	4235
2026-01-02 08:05:39.80	62.86	17.89	-35.5	-36.8	18.1	0.00e+00	0	56	0	271581184	42	4225
2026-01-02 08:05:40.81	62.63	17.92	-35.5	-36.8	18.1	0.00e+00	0	56	0	274726912	42	4238
2026-01-02 08:05:41.82	62.40	17.95	-35.5	-36.9	18.0	0.00e+00	0	56	0	277872640	42	4262
2026-01-02 08:05:42.83	62.17	17.98	-35.6	-37.0	17.9	0.00e+00	0	56	0	281018368	42	4303
2026-01-02 08:05:43.84	61.94	18.01	-35.6	-37.0	18.0	0.00e+00	0	56	0	284164096	42	4296
2026-01-02 08:05:44.85	61.71	18.04	-35.6	-37.0	17.9	0.00e+00	0	56	0	287309824	42	4329
2026-01-02 08:05:45.86	61.48	18.07	-35.7	-37.2	17.8	0.00e+00	0	56	0	290455552	42	4392
2026-01-02 08:05:46.87	61.25	18.10	-35.9	-37.3	17.7	0.00e+00	0	56	0	293601280	42	4468
2026-01-02 08:05:47.88	61.02	18.13	-35.8	-37.3	17.7	0.00e+00	0	56	0	296747008	42	4453
2026-01-02 08:05:48.89	60.79	18.16	-35.9	-37.3	17.7	0.00e+00	0	56	0	299892736	42	4458
2026-01-02 08:05:49.90	60.56	18.19	-35.8	-37.2	17.8	0.00e+00	0	56	0	303038464	42	4417
2026-01-02 08:05:50.91	60.33	18.22	-35.8	-37.2	17.8	0.00e+00	0	56	0	306184192	42	4419
2026-01-02 08:05:51.92	60.10	18.24	-35.8	-37.2	17.8	0.00e+00	0	56	0	309329920	42	4427
2026-01-02 08:05:52.93	59.86	18.27	-35.7	-37.1	17.9	0.00e+00	0	56	0	312475648	42	4384
2026-01-02 08:05:53.94	59.63	18.30	-35.7	-37.1	17.9	0.00e+00	0	56	0	315621376	42	4351
2026-01-02 08:05:54.95	59.40	18.32	-35.6	-37.0	18.0	0.00e+00	0	56	0	318767104	42	4324
2026-01-02 08:05:55.96	59.16	18.35	-35.7	-37.1	17.9	0.00e+00	0	56	0	321912832	42	4365
2026-01-02 08:05:56.98	58.93	18.37	-35.8	-37.1	17.8	0.00e+00	0	56	0	325058560	42	4389
2026-01-02 08:05:57.99	58.69	18.40	-35.8	-37.2	17.9	0.00e+00	0	56	0	328204288	42	4402
2026-01-02 08:05:59.00	58.46	18.42	-35.8	-37.1	17.8	0.00e+00	0	56	0	331350016	42	4386
2026-01-02 08:06:00.01	58.22	18.45	-35.8	-37.1	17.9	0.00e+00	0	56	0	334495744	42	4388
2026-01-02 08:06:01.02	57.98	18.47	-35.8	-37.2	17.9	0.00e+00	0	56	0	337641472	42	4394
2026-01-02 08:06:02.03	57.75	18.49	-35.7	-37.1	17.9	0.00e+00	0	56	0	340787200	42	4359
2026-01-02 08:06:03.03	57.51	18.51	-35.8	-37.2	17.9	0.00e+00	0	56	0	343932928	42	4393
2026-01-02 08:06:04.04	57.28	18.54	-35.9	-37.3	17.7	0.00e+00	0	56	0	347078656	42	4467
2026-01-02 08:06:05.04	57.04	18.56	-35.9	-37.4	17.7	0.00e+00	0	56	0	350224384	42	4499
2026-01-02 08:06:06.05	56.80	18.58	-36.0	-37.5	17.6	0.00e+00	0	56	0	354418688	42	4561
2026-01-02 08:06:07.07	56.56	18.60	-36.0	-37.4	17.6	0.00e+00	0	56	0	356515840	42	4529
2026-01-02 08:06:08.07	56.33	18.62	-35.9	-37.3	17.7	0.00e+00	0	56	0	359661568	42	4473
2026-01-02 08:06:09.09	56.09	18.64	-35.8	-37.1	17.9	0.00e+00	0	56	0	362807296	42	4389
2026-01-02 08:06:10.10	55.85	18.65	-35.8	-37.2	17.9	0.00e+00	0	56	0	367001600	42	4408
2026-01-02 08:06:11.11	55.61	18.67	-35.8	-37.1	17.9	0.00e+00	0	56	0	370147328	42	4387
2026-01-02 08:06:12.12	55.37	18.69	-35.8	-37.1	17.9	0.00e+00	0	56	0	373293056	42	4389
2026-01-02 08:06:13.13	55.13	18.71	-35.8	-37.1	17.9	0.00e+00	0	56	0	376438784	42	4381
2026-01-02 08:06:14.14	54.89	18.72	-35.7	-37.0	18.0	0.00e+00	0	56	0	379584512	42	4335
2026-01-02 08:06:15.15	54.65	18.74	-35.8	-37.1	17.9	0.00e+00	0	56	0	382730240	42	4384
2026-01-02 08:06:16.16	54.41	18.76	-35.7	-37.1	17.9	0.00e+00	0	56	0	385875968	42	4379
2026-01-02 08:06:17.17	54.17	18.77	-35.7	-37.1	17.9	0.00e+00	0	56	0	389021696	42	4386
2026-01-02 08:06:18.18	53.93	18.79	-35.8	-37.2	17.9	0.00e+00	0	56	0	392167424	42	4393
2026-01-02 08:06:19.19	53.69	18.80	-35.7	-37.1	18.0	0.00e+00	0	56	0	395313152	42	4356
2026-01-02 08:06:20.20	53.45	18.81	-35.7	-37.1	17.9	0.00e+00	0	56	0	398458880	42	4380
2026-01-02 08:06:21.21	53.21	18.83	-35.7	-37.1	17.9	0.00e+00	0	56	0	401604608	42	4371
2026-01-02 08:06:22.22	52.96	18.84	-35.8	-37.2	17.9	0.00e+00	0	56	0	404750336	42	4399
2026-01-02 08:06:23.23	52.72	18.85	-35.8	-37.2	17.9	0.00e+00	0	56	0	407896064	42	4393
2026-01-02 08:06:24.24	52.48	18.86	-35.8	-37.1	17.9	0.00e+00	0	56	0	411041792	42	4384
2026-01-02 08:06:25.25	52.24	18.87	-35.8	-37.1	17.9	0.00e+00	0	56	0	414187520	42	4382
2026-01-02 08:06:26.26	51.99	18.88	-35.7	-37.1	18.0	0.00e+00	0	56	0	417333248	42	4372
2026-01-02 08:06:27.27	51.75	18.89	-35.7	-37.1	18.0	0.00e+00	0	56	0	420478976	42	4362
2026-01-02 08:06:28.28	51.51	18.90	-35.8	-37.2	17.9	0.00e+00	0	56	0	423624704	42	4414
2026-01-02 08:06:29.29	51.27	18.91	-35.8	-37.2	17.9	0.00e+00	0	56	0	426770432	42	4426
2026-01-02 08:06:30.30	51.02	18.92	-35.9	-37.4	17.8	0.00e+00	0	56	0	429916160	42	4495
2026-01-02 08:06:31.31	50.78	18.93	-35.9	-37.3	17.8	0.00e+00	0	56	0	433061888	42	4458
2026-01-02 08:06:32.32	50.54	18.93	-35.9	-37.3	17.8	0.00e+00	0	56	0	436207616	42	4445
2026-01-02 08:06:33.33	50.29	18.94	-35.7	-37.1	18.0	0.00e+00	0	56	0	439353344	42	4364
2026-01-02 08:06:34.34	50.05	18.95	-35.7	-37.1	18.0	0.00e+00	0	56	0	442499072	42	4356
2026-01-02 08:06:35.35	49.81	18.95	-35.7	-37.0	18.0	0.00e+00	0	56	0	445644800	42	4338
2026-01-02 08:06:36.36	49.56	18.96	-35.6	-36.9	18.2	0.00e+00	0	56	0	448790528	42	4267
2026-01-02 08:06:37.37	49.32	18.96	-35.5	-36.8	18.2	0.00e+00	0	56	0	451936256	42	4242
2026-01-02 08:06:38.38	49.08	18.97	-35.5	-36.8	18.3	0.00e+00	0	56	0	455081984	42	4213
2026-01-02 08:06:39.39	48.83	18.97	-35.4	-36.7	18.4	0.00e+00	0	56	0	458227712	42	4189
2026-01-02 08:06:40.40	48.59	18.97	-35.5	-36.8	18.3	0.00e+00	0	56	0	461373440	42	4228
2026-01-02 08:06:41.41	48.34	18.98	-35.5	-36.9	18.2	0.00e+00	0	56	0	464519168	42	4265
2026-01-02 08:06:42.42	48.10	18.98	-35.6	-36.9	18.2	0.00e+00	0	56	0	467664896	42	4273
2026-01-02 08:06:43.43	47.86	18.98	-35.6	-37.0	18.1	0.00e+00	0	56	0	470810624	42	4311
2026-01-02 08:06:44.44	47.61	18.98	-35.7	-37.1	18.0	0.00e+00	0	56	0	473956352	42	4359
2026-01-02 08:06:45.45	47.37	18.98	-35.8	-37.1	18.0	0.00e+00	0	56	0	477102080	42	4387
2026-01-02 08:06:46.46	47.12	18.98	-35.8	-37.2	17.9	0.00e+00	0	56	0	480247808	42	4434
2026-01-02 08:06:47.47	46.88	18.98	-35.8	-37.2	17.9	0.00e+00	0	56	0	483393536	42	4429
2026-01-02 08:06:48.48	46.64	18.98	-35.8	-37.1	18.0	0.00e+00	0	56	0	486539264	42	4385
2026-01-02 08:06:49.49	46.39	18.97	-35.8	-37.1	18.0	0.00e+00	0	56	0	489684992	42	4378
2026-01-02 08:06:50.50	46.15	18.97	-35.8	-37.2	17.9	0.00e+00	0	56	0	492830720	42	4398
2026-01-02 08:06:51.51	45.91	18.97	-35.8	-37.2	17.8	0.00e+00	0	56	0	495976448	42	4430
2026-01-02 08:06:52.52	45.66	18.97	-35.8	-37.2	18.0	0.00e+00	0	57	0	499122176	42	4395
2026-01-02 08:06:53.53	45.42	18.96	-35.7	-37.1	18.0	0.00e+00	0	56	0	502267904	42	4359
2026-01-02 08:06:54.54	45.17	18.96	-35.8	-37.2	17.9	0.00e+00	0	56	0	505413632	42	4403
2026-01-02 08:06:55.54	44.93	18.95	-35.8	-37.2	17.9	0.00e+00	0	56	0	508559360	42	4432
2026-01-02 08:06:56.55	44.69	18.95	-35.8	-37.2	17.9	0.00e+00	0	56	0	511705088	42	4429
2026-01-02 08:06:57.56	44.45	18.94	-35.8	-37.2	18.0	0.00e+00	0	56	0	514850816	42	4398
2026-01-02 08:06:58.58	44.20	18.93	-35.7	-37.1	18.0	0.00e+00	0	56	0	517996544	42	4349
2026-01-02 08:06:59.59	43.96	18.93	-35.6	-37.0	18.1	0.00e+00	0	56	0	521142272	42	4322
2026-01-02 08:07:00.60	43.71	18.92	-35.6	-36.9	18.1	0.00e+00	0	56	0	524288000	42	4279
2026-01-02 08:07:01.61	43.47	18.91	-35.6	-36.9	18.1	0.00e+00	0	56	0	527433728	42	4269
2026-01-02 08:07:02.62	43.23	18.90	-35.5	-36.9	18.2	0.00e+00	0	56	0	530579456	42	4248
2026-01-02 08:07:03.63	42.99	18.89	-35.6	-36.9	18.2	0.00e+00	0	56	0	533725184	42	4264
2026-01-02 08:07:04.64	42.74	18.88	-35.6	-36.9	18.2	0.00e+00	0	56	0	536870912	42	4270
2026-01-02 08:07:05.65	42.50	18.87	-35.5	-36.9	18.3	0.00e+00	0	56	0	540016640	42	4244
2026-01-02 08:07:06.66	42.26	18.86	-35.5	-36.9	18.2	0.00e+00	0	56	0	543162368	42	4255
2026-01-02 08:07:07.66	42.02	18.85	-35.6	-37.0	18.2	0.00e+00	0	56	0	546308096	42	4296
2026-01-02 08:07:08.67	41.78	18.84	-35.6	-37.0	18.1	0.00e+00	0	56	0	549453824	42	4308
2026-01-02 08:07:09.68	41.54	18.82	-35.7	-37.1	18.0	0.00e+00	0	56	0	552599552	42	4358
2026-01-02 08:07:10.69	41.30	18.81	-35.8	-37.2	17.9	0.00e+00	0	56	0	555745280	42	4436
2026-01-02 08:07:11.70	41.06	18.80	-35.8	-37.2	17.9	0.00e+00	0	56	0	558891008	42	4437
2026-01-02 08:07:12.71	40.81	18.78	-35.8	-37.2	18.0	0.00e+00	0	56	0	562036736	42	4397
2026-01-02 08:07:13.72	40.57	18.77	-35.7	-37.1	18.0	0.00e+00	0	56	0	565182464	42	4362
2026-01-02 08:07:14.73	40.33	18.75	-35.8	-37.1	17.9	0.00e+00	0	56	0	568328192	42	4381
2026-01-02 08:07:15.74	40.09	18.74	-35.7	-37.1	18.0	0.00e+00	0	57	0	571473920	42	4350
2026-01-02 08:07:16.75	39.85	18.72	-35.7	-37.0	18.1	0.00e+00	0	56	0	574619648	42	4336
2026-01-02 08:07:17.76	39.61	18.70	-35.6	-37.0	18.1	0.00e+00	0	56	0	577765376	42	4306
2026-01-02 08:07:18.77	39.38	18.69	-35.5	-36.9	18.2	0.00e+00	0	56	0	580911104	42	4253
2026-01-02 08:07:19.78	39.14	18.67	-35.5	-36.9	18.2	0.00e+00	0	56	0	584056832	42	4249
2026-01-02 08:07:20.79	38.90	18.65	-35.6	-36.9	18.2	0.00e+00	0	56	0	587202560	42	4270
2026-01-02 08:07:21.80	38.66	18.63	-35.6	-37.0	18.1	0.00e+00	0	56	0	590348288	42	4313
2026-01-02 08:07:22.81	38.42	18.61	-35.6	-37.0	18.1	0.00e+00	0	56	0	593494016	42	4308
2026-01-02 08:07:23.82	38.18	18.59	-35.6	-36.9	18.2	0.00e+00	0	56	0	596639744	42	4282
2026-01-02 08:07:24.83	37.95	18.57	-35.5	-36.8	18.3	0.00e+00	0	57	0	599785472	42	4222
2026-01-02 08:07:25.84	37.71	18.55	-35.4	-36.8	18.3	0.00e+00	0	56	0	602931200	42	4206
2026-01-02 08:07:26.85	37.47	18.53	-35.3	-36.7	18.4	0.00e+00	0	56	0	606076928	42	4149
2026-01-02 08:07:27.86	37.24	18.51	-35.4	-36.7	18.3	0.00e+00	0	56	0	609222656	42	4171
2026-01-02 08:07:28.87	37.00	18.49	-35.4	-36.8	18.3	0.00e+00	0	56	0	612368384	42	4204
2026-01-02 08:07:29.88	36.76	18.47	-35.4	-36.8	18.3	0.00e+00	0	56	0	615514112	42	4200
2026-01-02 08:07:30.89	36.53	18.44	-35.5	-36.9	18.2	0.00e+00	0	56	0	618659840	42	4244
2026-01-02 08:07:31.90	36.29	18.42	-35.6	-36.9	18.1	0.00e+00	0	56	0	621805568	42	4276
2026-01-02 08:07:32.91	36.06	18.39	-35.5	-36.9	18.2	0.00e+00	0	57	0	624951296	42	4253
2026-01-02 08:07:33.92	35.82	18.37	-35.6	-36.9	18.1	0.00e+00	0	57	0	628097024	42	4284
2026-01-02 08:07:34.93	35.59	18.34	-35.6	-36.9	18.1	0.00e+00	0	56	0	631242752	42	4280
2026-01-02 08:07:35.94	35.36	18.32	-35.5	-36.9	18.2	0.00e+00	0	56	0	634388480	42	4258
2026-01-02 08:07:36.95	35.12	18.29	-35.5	-36.8	18.2	0.00e+00	0	56	0	637534208	42	4238
2026-01-02 08:07:37.96	34.89	18.27	-35.5	-36.9	18.2	0.00e+00	0	56	0	640679936	42	4258
2026-01-02 08:07:38.97	34.66	18.24	-35.5	-36.9	18.2	0.00e+00	0	56	0	643825664	42	4261
2026-01-02 08:07:39.98	34.43	18.21	-35.5	-36.9	18.2	0.00e+00	0	56	0	646971392	42	4249
2026-01-02 08:07:41.00	34.19	18.18	-35.6	-37.0	18.1	0.00e+00	0	56	0	650117120	42	4317
2026-01-02 08:07:42.01	33.96	18.16	-35.7	-37.1	18.0	0.00e+00	0	56	0	653262848	42	4353
2026-01-02 08:07:43.01	33.74	18.13	-35.7	-37.1	18.0	0.00e+00	0	56	0	656408576	42	4345
2026-01-02 08:07:44.02	33.50	18.10	-35.7	-37.1	17.9	0.00e+00	0	57	0	659554304	42	4375
2026-01-02 08:07:45.03	33.28	18.07	-35.8	-37.2	17.9	0.00e+00	0	56	0	662700032	42	4425
2026-01-02 08:07:46.04	33.05	18.04	-35.8	-37.1	18.0	0.00e+00	0	56	0	665845760	42	4389
2026-01-02 08:07:47.05	32.82	18.01	-35.7	-37.1	18.0	0.00e+00	0	56	0	670040064	42	4371
2026-01-02 08:07:48.07	32.59	17.98	-35.7	-37.1	18.0	0.00e+00	0	56	0	672137216	42	4353
2026-01-02 08:07:49.07	32.36	17.95	-35.8	-37.1	18.0	0.00e+00	0	56	0	675282944	42	4388
2026-01-02 08:07:50.09	32.13	17.92	-35.8	-37.2	17.9	0.00e+00	0	57	0	678428672	42	4430
2026-01-02 08:07:51.10	31.91	17.88	-35.8	-37.2	17.9	0.00e+00	0	56	0	682622976	42	4429
2026-01-02 08:07:52.11	31.68	17.85	-35.9	-37.3	17.8	0.00e+00	0	56	0	685768704	42	4465
2026-01-02 08:07:53.12	31.45	17.82	-35.9	-37.3	17.8	0.00e+00	0	56	0	688914432	42	4453
2026-01-02 08:07:54.13	31.23	17.78	-35.8	-37.2	17.9	0.00e+00	0	56	0	692060160	42	4406
2026-01-02 08:07:55.14	31.00	17.75	-35.7	-37.0	18.0	0.00e+00	0	57	0	695205888	42	4334
2026-01-02 08:07:56.15	30.78	17.72	-35.6	-37.0	18.1	0.00e+00	0	57	0	698351616	42	4298
2026-01-02 08:07:57.16	30.56	17.68	-35.6	-37.0	18.1	0.00e+00	0	57	0	701497344	42	4296
2026-01-02 08:07:58.17	30.33	17.65	-35.6	-36.9	18.2	0.00e+00	0	56	0	704643072	42	4266
2026-01-02 08:07:59.18	30.11	17.61	-35.6	-36.9	18.1	0.00e+00	0	56	0	707788800	42	4283
2026-01-02 08:08:00.19	29.89	17.58	-35.6	-37.0	18.1	0.00e+00	0	57	0	710934528	42	4305
2026-01-02 08:08:01.20	29.67	17.54	-35.6	-37.0	18.1	0.00e+00	0	56	0	714080256	42	4311
2026-01-02 08:08:02.21	29.45	17.50	-35.7	-37.0	18.0	0.00e+00	0	56	0	717225984	42	4336
2026-01-02 08:08:03.22	29.22	17.47	-35.7	-37.1	18.0	0.00e+00	0	57	0	720371712	42	4362
2026-01-02 08:08:04.23	29.00	17.43	-35.7	-37.1	17.9	0.00e+00	0	56	0	723517440	42	4374
2026-01-02 08:08:05.25	28.78	17.39	-35.8	-37.1	17.9	0.00e+00	0	56	0	726663168	42	4389
2026-01-02 08:08:06.25	28.57	17.35	-35.8	-37.2	17.9	0.00e+00	0	56	0	729808896	42	4407
2026-01-02 08:08:07.27	28.35	17.31	-35.8	-37.2	17.9	0.00e+00	0	57	0	732954624	42	4403
2026-01-02 08:08:08.28	28.13	17.28	-35.7	-37.1	17.9	0.00e+00	0	56	0	736100352	42	4363
2026-01-02 08:08:09.29	27.91	17.24	-35.7	-37.0	18.1	0.00e+00	0	56	0	739246080	42	4323
2026-01-02 08:08:10.30	27.69	17.20	-35.6	-36.9	18.1	0.00e+00	0	56	0	742391808	42	4279
2026-01-02 08:08:11.31	27.48	17.16	-35.5	-36.9	18.2	0.00e+00	0	57	0	745537536	42	4252
2026-01-02 08:08:12.32	27.26	17.12	-35.6	-36.9	18.1	0.00e+00	0	56	0	748683264	42	4280
2026-01-02 08:08:13.33	27.05	17.08	-35.6	-37.0	18.1	0.00e+00	0	56	0	751828992	42	4300
2026-01-02 08:08:14.34	26.83	17.03	-35.6	-36.9	18.1	0.00e+00	0	56	0	754974720	42	4272
2026-01-02 08:08:15.35	26.62	16.99	-35.5	-36.8	18.2	0.00e+00	0	56	0	758120448	42	4227
2026-01-02 08:08:16.36	26.41	16.95	-35.5	-36.8	18.2	0.00e+00	0	56	0	761266176	42	4225
2026-01-02 08:08:17.37	26.20	16.91	-35.5	-36.8	18.2	0.00e+00	0	57	0	764411904	42	4227
2026-01-02 08:08:18.38	25.98	16.87	-35.5	-36.8	18.2	0.00e+00	0	56	0	767557632	42	4226
2026-01-02 08:08:19.39	25.77	16.83	-35.6	-36.9	18.1	0.00e+00	0	56	0	770703360	42	4273
2026-01-02 08:08:20.40	25.56	16.78	-35.6	-37.0	18.1	0.00e+00	0	56	0	773849088	42	4294
2026-01-02 08:08:21.41	25.35	16.74	-35.6	-37.0	18.1	0.00e+00	0	56	0	776994816	42	4301
2026-01-02 08:08:22.42	25.14	16.70	-35.7	-37.1	18.0	0.00e+00	0	56	0	780140544	42	4345
2026-01-02 08:08:23.43	24.93	16.65	-35.8	-37.2	17.9	0.00e+00	0	56	0	783286272	42	4405
2026-01-02 08:08:24.44	24.73	16.61	-35.8	-37.2	17.8	0.00e+00	0	56	0	786432000	42	4435
2026-01-02 08:08:25.45	24.52	16.56	-35.9	-37.3	17.7	0.00e+00	0	56	0	789577728	42	4492
2026-01-02 08:08:26.46	24.31	16.52	-35.8	-37.2	17.8	0.00e+00	0	57	0	792723456	42	4433
2026-01-02 08:08:27.47	24.10	16.47	-35.9	-37.3	17.8	0.00e+00	0	56	0	795869184	42	4447
2026-01-02 08:08:28.48	23.90	16.43	-35.8	-37.1	17.8	0.00e+00	0	56	0	799014912	42	4390
2026-01-02 08:08:29.49	23.69	16.38	-35.8	-37.1	17.9	0.00e+00	0	56	0	802160640	42	4390
2026-01-02 08:08:30.50	23.49	16.34	-35.7	-37.1	17.9	0.00e+00	0	56	0	805306368	42	4344
2026-01-02 08:08:31.51	23.29	16.29	-35.7	-37.1	17.9	0.00e+00	0	56	0	808452096	42	4364
2026-01-02 08:08:32.52	23.08	16.24	-35.7	-37.1	17.9	0.00e+00	0	57	0	811597824	42	4364
2026-01-02 08:08:33.53	22.88	16.20	-35.8	-37.2	17.8	0.00e+00	0	56	0	814743552	42	4433
2026-01-02 08:08:34.54	22.68	16.15	-35.9	-37.4	17.7	0.00e+00	0	57	0	817889280	42	4497
2026-01-02 08:08:35.55	22.48	16.10	-36.1	-37.5	17.5	0.00e+00	0	56	0	821035008	42	4597
2026-01-02 08:08:36.56	22.28	16.06	-36.3	-37.7	17.3	0.00e+00	0	56	0	824180736	43	4437
2026-01-02 08:08:37.57	22.08	16.01	-36.3	-37.8	17.2	0.00e+00	0	56	0	827326464	43	4456
2026-01-02 08:08:38.58	21.88	15.96	-36.3	-37.8	17.2	0.00e+00	0	57	0	830472192	43	4492
2026-01-02 08:08:39.60	21.68	15.91	-36.3	-37.8	17.2	0.00e+00	0	56	0	833617920	43	4458
2026-01-02 08:08:40.61	21.48	15.86	-36.2	-37.6	17.4	0.00e+00	0	57	0	836763648	43	4387
2026-01-02 08:08:41.62	21.28	15.81	-36.1	-37.6	17.4	0.00e+00	0	57	0	839909376	43	4361
2026-01-02 08:08:42.63	21.09	15.76	-36.1	-37.5	17.5	0.00e+00	0	57	0	843055104	43	4323
2026-01-02 08:08:43.64	20.89	15.72	-36.0	-37.5	17.5	0.00e+00	0	57	0	846200832	43	4309
2026-01-02 08:08:44.65	20.70	15.67	-36.0	-37.5	17.5	0.00e+00	0	57	0	849346560	43	4294
2026-01-02 08:08:45.66	20.50	15.62	-36.0	-37.5	17.5	0.00e+00	0	56	0	852492288	43	4304
2026-01-02 08:08:46.67	20.31	15.57	-36.0	-37.5	17.5	0.00e+00	0	57	0	855638016	43	4298
2026-01-02 08:08:47.68	20.11	15.52	-36.0	-37.5	17.5	0.00e+00	0	56	0	858783744	43	4292
2026-01-02 08:08:48.69	19.92	15.46	-36.0	-37.4	17.5	0.00e+00	0	56	0	861929472	43	4282
2026-01-02 08:08:49.70	19.73	15.41	-36.0	-37.4	17.6	0.00e+00	0	56	0	865075200	43	4270
2026-01-02 08:08:50.71	19.54	15.36	-36.1	-37.5	17.4	0.00e+00	0	57	0	868220928	43	4323
2026-01-02 08:08:51.72	19.35	15.31	-36.0	-37.5	17.5	0.00e+00	0	56	0	871366656	43	4325
2026-01-02 08:08:52.73	19.16	15.26	-36.0	-37.5	17.4	0.00e+00	0	57	0	874512384	43	4311
2026-01-02 08:08:53.74	18.97	15.21	-36.1	-37.6	17.4	0.00e+00	0	56	0	877658112	43	4352
2026-01-02 08:08:54.75	18.78	15.16	-36.1	-37.6	17.3	0.00e+00	0	56	0	880803840	43	4373
2026-01-02 08:08:55.76	18.59	15.11	-36.2	-37.7	17.3	0.00e+00	0	57	0	883949568	43	4404
2026-01-02 08:08:56.77	18.40	15.05	-36.1	-37.6	17.3	0.00e+00	0	57	0	887095296	43	4383
2026-01-02 08:08:57.79	18.22	15.00	-36.2	-37.7	17.2	0.00e+00	0	57	0	890241024	43	4441
2026-01-02 08:08:58.80	18.03	14.95	-36.3	-37.8	17.2	0.00e+00	0	57	0	893386752	43	4464
2026-01-02 08:08:59.80	17.85	14.90	-36.3	-37.8	17.2	0.00e+00	0	56	0	896532480	43	4459
2026-01-02 08:09:00.81	17.66	14.84	-36.3	-37.8	17.2	0.00e+00	0	57	0	899678208	43	4469
2026-01-02 08:09:01.82	17.48	14.79	-36.4	-37.9	17.1	0.00e+00	0	56	0	902823936	43	4520
2026-01-02 08:09:02.83	17.29	14.74	-36.3	-37.9	17.1	0.00e+00	0	57	0	905969664	43	4504
2026-01-02 08:09:03.84	17.11	14.68	-36.4	-37.9	17.1	0.00e+00	0	56	0	909115392	43	4537
2026-01-02 08:09:04.86	16.93	14.63	-36.5	-38.0	17.0	0.00e+00	0	56	0	912261120	43	4578
2026-01-02 08:09:05.87	16.75	14.58	-36.5	-38.0	17.0	0.00e+00	0	57	0	915406848	43	4598
2026-01-02 08:09:06.88	16.57	14.52	-36.5	-38.1	16.9	0.00e+00	0	57	0	918552576	43	4607
2026-01-02 08:09:07.88	16.39	14.47	-36.6	-38.1	16.9	0.00e+00	0	56	0	921698304	43	4633
2026-01-02 08:09:08.89	16.21	14.41	-36.5	-38.1	17.0	0.00e+00	0	57	0	924844032	43	4616
2026-01-02 08:09:09.90	16.03	14.36	-36.5	-38.0	17.0	0.00e+00	0	57	0	927989760	43	4590
2026-01-02 08:09:10.91	15.85	14.30	-36.5	-38.0	17.0	0.00e+00	0	56	0	931135488	43	4581
2026-01-02 08:09:11.92	15.67	14.25	-36.5	-38.0	17.0	0.00e+00	0	57	0	934281216	43	4584
2026-01-02 08:09:12.94	15.50	14.19	-36.5	-38.1	16.9	0.00e+00	0	57	0	937426944	43	4621
2026-01-02 08:09:13.95	15.32	14.14	-36.5	-38.0	17.0	0.00e+00	0	56	0	940572672	43	4591
2026-01-02 08:09:14.96	15.15	14.08	-36.5	-38.0	17.0	0.00e+00	0	57	0	943718400	43	4574
2026-01-02 08:09:15.96	14.97	14.03	-36.4	-38.0	17.0	0.00e+00	0	56	0	946864128	43	4549
2026-01-02 08:09:16.97	14.80	13.97	-36.5	-38.0	17.0	0.00e+00	0	57	0	950009856	43	4567
2026-01-02 08:09:17.98	14.63	13.92	-36.4	-38.0	17.0	0.00e+00	0	56	0	953155584	43	4562
2026-01-02 08:09:19.00	14.45	13.86	-36.5	-38.0	16.9	0.00e+00	0	56	0	956301312	43	4588
2026-01-02 08:09:20.01	14.28	13.81	-36.4	-38.0	17.0	0.00e+00	0	57	0	960495616	43	4548
2026-01-02 08:09:21.02	14.11	13.75	-36.4	-37.9	17.0	0.00e+00	0	56	0	963641344	43	4537
2026-01-02 08:09:22.03	13.94	13.69	-36.4	-37.9	17.1	0.00e+00	0	57	0	965738496	43	4508
2026-01-02 08:09:23.04	13.77	13.64	-36.3	-37.8	17.1	0.00e+00	0	57	0	968884224	43	4492
2026-01-02 08:09:24.05	13.60	13.58	-36.3	-37.9	17.1	0.00e+00	0	57	0	973078528	43	4499
2026-01-02 08:09:25.06	13.43	13.52	-36.3	-37.8	17.0	0.00e+00	0	57	0	976224256	43	4490
2026-01-02 08:09:26.07	13.26	13.47	-36.3	-37.8	17.1	0.00e+00	0	56	0	979369984	43	4477
2026-01-02 08:09:27.07	13.10	13.41	-36.3	-37.8	17.0	0.00e+00	0	57	0	982515712	43	4486
2026-01-02 08:09:28.08	12.93	13.36	-36.3	-37.8	17.1	0.00e+00	0	56	0	985661440	43	4444
2026-01-02 08:09:29.09	12.76	13.30	-36.2	-37.7	17.2	0.00e+00	0	57	0	987758592	43	4424
2026-01-02 08:09:30.10	12.60	13.24	-36.3	-37.8	17.1	0.00e+00	0	57	0	991952896	43	4470
2026-01-02 08:09:31.11	12.43	13.18	-36.3	-37.8	17.1	0.00e+00	0	57	0	995098624	43	4453
2026-01-02 08:09:32.12	12.27	13.13	-36.4	-37.9	17.0	0.00e+00	0	57	0	998244352	43	4516
2026-01-02 08:09:33.13	12.11	13.07	-36.4	-37.9	16.9	0.00e+00	0	57	0	1001390080	43	4545
2026-01-02 08:09:34.14	11.94	13.01	-36.4	-38.0	16.8	0.00e+00	0	57	0	1004535808	43	4568
2026-01-02 08:09:35.15	11.78	12.95	-36.4	-38.0	16.9	0.00e+00	0	56	0	1007681536	43	4553
2026-01-02 08:09:36.17	11.62	12.90	-36.5	-38.0	16.8	0.00e+00	0	56	0	1010827264	43	4591
2026-01-02 08:09:37.18	11.46	12.84	-36.5	-38.1	16.7	0.00e+00	0	57	0	1013972992	43	4624
2026-01-02 08:09:38.19	11.30	12.78	-36.5	-38.1	16.7	0.00e+00	0	56	0	1017118720	43	4610
2026-01-02 08:09:39.20	11.14	12.72	-36.4	-37.9	16.8	0.00e+00	0	56	0	1020264448	43	4536
2026-01-02 08:09:40.21	10.98	12.67	-36.4	-37.9	16.8	0.00e+00	0	57	0	1023410176	43	4531
2026-01-02 08:09:41.22	10.82	12.61	-36.3	-37.9	16.8	0.00e+00	0	57	0	1026555904	43	4510
2026-01-02 08:09:42.23	10.66	12.55	-36.3	-37.9	16.8	0.00e+00	0	57	0	1029701632	43	4513
2026-01-02 08:09:43.24	10.50	12.49	-36.3	-37.9	16.8	0.00e+00	0	57	0	1032847360	43	4498
2026-01-02 08:09:44.25	10.35	12.43	-36.2	-37.8	16.8	0.00e+00	0	57	0	1035993088	43	4473
2026-01-02 08:09:45.26	10.19	12.37	-36.2	-37.8	16.7	0.00e+00	0	57	0	1039138816	43	4475
2026-01-02 08:09:46.26	10.04	12.32	-36.2	-37.8	16.7	0.00e+00	0	57	0	1042284544	43	4474
2026-01-02 08:09:47.27	9.88	12.26	-36.1	-37.7	16.7	0.00e+00	0	56	0	1045430272	43	4439
2026-01-02 08:09:48.28	9.73	12.20	-36.1	-37.7	16.6	0.00e+00	0	57	0	1048576000	43	4422
2026-01-02 08:09:49.30	9.58	12.14	-36.0	-37.6	16.7	0.00e+00	0	57	0	1051721728	43	4366
2026-01-02 08:09:50.31	9.42	12.08	-36.1	-37.7	16.4	0.00e+00	0	56	0	1054867456	43	4429
2026-01-02 08:09:51.32	9.27	12.02	-36.2	-38.0	16.0	0.00e+00	0	56	0	1058013184	43	4554
2026-01-02 08:09:52.33	9.12	11.96	-36.5	-38.3	15.6	0.00e+00	0	56	0	1061158912	43	4725
2026-01-02 08:09:53.34	8.97	11.91	-36.7	-38.6	15.1	0.00e+00	0	56	0	1064304640	43	4926
2026-01-02 08:09:54.34	8.82	11.85	-37.0	-39.1	14.7	0.00e+00	0	57	0	1067450368	44	4881
2026-01-02 08:09:55.35	8.67	11.79	-37.3	-39.5	14.0	1.50e-06	0	57	0	1070596096	45	4858
2026-01-02 08:09:56.36	8.52	11.73	-37.6	-40.1	13.3	9.10e-06	0	56	0	1073741824	45	5189
2026-01-02 08:09:57.37	8.37	11.67	-38.0	-40.7	12.5	1.05e-04	0	57	0	1076887552	46	5275
2026-01-02 08:09:58.38	8.23	11.61	-38.3	-41.3	11.7	3.80e-04	0	57	0	1080033280	47	5309
2026-01-02 08:09:59.39	8.08	11.55	-38.4	-41.7	10.9	1.31e-03	0	57	0	1083179008	47	5585
2026-01-02 08:10:00.39	7.93	11.49	-38.7	-42.3	10.2	4.58e-03	0	57	0	1086324736	47	5985
2026-01-02 08:10:01.40	7.79	11.43	-39.0	-43.2	9.1	1.57e-02	0	56	0	1089470464	48	6268
2026-01-02 08:10:02.40	7.64	11.38	-39.4	-44.4	7.8	6.38e-02	0	57	0	1092616192	49	6742
2026-01-02 08:10:03.41	7.50	11.32	-39.7	-45.7	6.3	2.27e-01	0	57	0	1095761920	49	7870
2026-01-02 08:10:04.43	7.35	11.26	-39.9	-47.1	5.2	5.35e-01	0	57	0	1098907648	50	8695
2026-01-02 08:10:05.43	7.21	11.20	-40.0	-48.5	4.4	1.47e+00	5	57	104	1099956224	50	10274
2026-01-02 08:10:06.44	7.07	11.14	-40.0	-49.9	3.9	1.46e+00	0	57	104	1099956224	50	12026
2026-01-02 08:10:07.46	6.93	11.08	-40.0	-50.8	3.8	1.49e+00	0	57	104	1099956224	50	13398
2026-01-02 08:10:08.47	6.78	11.02	-40.2	-50.5	3.9	1.49e+00	0	57	104	1099956224	50	12939
2026-01-02 08:10:09.48	6.64	10.96	-39.9	-51.8	3.8	1.49e+00	0	57	104	1099956224	51	14072
2026-01-02 08:10:10.49	6.50	10.90	-39.8	-52.1	3.8	1.49e+00	0	57	104	1099956224	51	14613
2026-01-02 08:10:11.50	6.36	10.84	-40.2	-51.4	3.8	1.49e+00	0	57	104	1099956224	51	13565
2026-01-02 08:10:12.51	6.22	10.78	-40.8	-51.0	3.9	1.48e+00	0	57	104	1099956224	52	12196
2026-01-02 08:10:13.52	6.08	10.72	-40.4	-51.6	3.8	1.49e+00	0	57	104	1099956224	52	13041
2026-01-02 08:10:14.53	5.95	10.66	-40.3	-52.0	3.8	1.49e+00	0	57	104	1099956224	52	13689
2026-01-02 08:10:15.54	5.81	10.60	-40.1	-52.1	3.8	1.49e+00	0	57	104	1099956224	52	13830
2026-01-02 08:10:16.55	5.67	10.54	-39.9	-52.1	3.8	1.49e+00	0	57	104	1099956224	51	14578
2026-01-02 08:10:17.56	5.53	10.48	-39.6	-52.1	3.8	1.49e+00	0	57	104	1099956224	51	14542
2026-01-02 08:10:18.56	5.40	10.42	-39.5	-51.9	3.8	1.49e+00	0	57	104	1099956224	50	15086
2026-01-02 08:10:19.57	5.26	10.36	-39.6	-52.0	3.8	1.49e+00	0	57	104	1099956224	50	15357
2026-01-02 08:10:20.58	5.13	10.31	-39.5	-52.0	3.8	1.49e+00	0	57	104	1099956224	50	15278
2026-01-02 08:10:21.59	5.00	10.25	-39.5	-52.0	3.8	1.49e+00	0	57	104	1099956224	50	15250
2026-01-02 08:10:22.60	4.86	10.19	-39.7	-52.1	3.8	1.49e+00	0	57	104	1099956224	50	15494
2026-01-02 08:10:23.61	4.73	10.13	-39.5	-51.9	3.8	1.49e+00	0	57	104	1099956224	50	15184
2026-01-02 08:10:24.62	4.60	10.07	-39.6	-52.0	3.8	1.49e+00	0	57	104	1099956224	50	15326
2026-01-02 08:10:25.63	4.46	10.01	-39.5	-51.9	3.8	1.49e+00	0	57	104	1099956224	50	15188
2026-01-02 08:10:26.64	4.33	9.95	-39.6	-52.0	3.8	1.49e+00	0	57	104	1099956224	50	15298
2026-01-02 08:10:27.66	4.20	9.89	-39.5	-52.0	3.8	1.49e+00	0	57	104	1099956224	50	15244
2026-01-02 08:10:28.67	4.07	9.83	-39.6	-52.0	3.8	1.49e+00	0	57	104	1099956224	50	15303
2026-01-02 08:10:29.68	3.94	9.77	-39.6	-52.0	3.8	1.49e+00	0	57	104	1099956224	50	15300
2026-01-02 08:10:30.69	3.81	9.71	-39.7	-52.0	3.8	1.49e+00	0	57	104	1099956224	50	15393
2026-01-02 08:10:31.70	3.68	9.65	-39.6	-52.0	3.8	1.49e+00	0	57	104	1099956224	50	15263
2026-01-02 08:10:32.71	3.55	9.59	-39.6	-52.0	3.8	1.49e+00	0	57	104	1099956224	50	15354
2026-01-02 08:10:33.72	3.43	9.53	-39.5	-51.9	3.8	1.49e+00	0	57	104	1099956224	50	15191
2026-01-02 08:10:34.73	3.30	9.47	-39.5	-51.9	3.8	1.49e+00	0	57	104	1099956224	50	15064
2026-01-02 08:10:35.74	3.17	9.41	-39.6	-51.9	3.8	1.49e+00	0	57	104	1099956224	50	15209
2026-01-02 08:10:36.75	3.05	9.35	-39.5	-51.9	3.8	1.49e+00	0	57	104	1099956224	50	15158
2026-01-02 08:10:37.76	2.92	9.29	-39.5	-51.9	3.8	1.49e+00	0	57	104	1099956224	50	15095
2026-01-02 08:10:38.77	2.80	9.23	-39.6	-52.0	3.8	1.49e+00	0	57	104	1099956224	50	15240
2026-01-02 08:10:39.78	2.67	9.17	-39.5	-51.9	3.8	1.49e+00	0	57	104	1099956224	50	15123
2026-01-02 08:10:40.79	2.55	9.11	-39.6	-52.0	3.8	1.49e+00	0	57	104	1099956224	50	15313
2026-01-02 08:10:41.80	2.42	9.05	-39.5	-52.0	3.8	1.49e+00	0	57	104	1099956224	50	15274
2026-01-02 08:10:42.81	2.30	8.99	-39.4	-52.0	3.8	1.49e+00	0	57	104	1099956224	50	15311
2026-01-02 08:10:43.82	2.18	8.93	-39.5	-51.9	3.8	1.49e+00	0	57	104	1099956224	50	15185
2026-01-02 08:10:44.82	2.06	8.87	-39.3	-52.0	3.8	1.49e+00	0	57	104	1099956224	50	15286
2026-01-02 08:10:45.83	1.94	8.81	-39.6	-52.0	3.8	1.49e+00	0	57	104	1099956224	50	15229
2026-01-02 08:10:46.84	1.82	8.75	-39.5	-52.0	3.8	1.49e+00	0	57	104	1099956224	50	15265
2026-01-02 08:10:47.85	1.70	8.70	-39.4	-52.1	3.8	1.49e+00	0	57	104	1099956224	50	15428
2026-01-02 08:10:48.86	1.58	8.64	-39.5	-52.0	3.8	1.49e+00	0	57	104	1099956224	50	15280
2026-01-02 08:10:49.87	1.46	8.58	-39.4	-52.0	3.8	1.49e+00	0	57	104	1099956224	50	15361
2026-01-02 08:10:50.88	1.34	8.52	-39.3	-51.9	3.8	1.49e+00	0	57	104	1099956224	50	15141
2026-01-02 08:10:51.89	1.22	8.46	-39.4	-52.0	3.8	1.49e+00	0	57	104	1099956224	50	15302
2026-01-02 08:10:52.90	1.10	8.40	-39.3	-51.9	3.8	1.49e+00	0	57	104	1099956224	50	15129
2026-01-02 08:10:53.91	0.98	8.34	-39.3	-52.0	3.8	1.49e+00	0	57	104	1099956224	50	15270
2026-01-02 08:10:54.92	0.87	8.28	-39.3	-52.0	3.8	1.49e+00	0	57	104	1099956224	50	15229
2026-01-02 08:10:55.93	0.75	8.22	-39.5	-52.0	3.8	1.49e+00	0	57	104	1099956224	50	15236
2026-01-02 08:10:56.94	0.64	8.16	-39.3	-52.1	3.8	1.49e+00	0	57	104	1099956224	50	15406
2026-01-02 08:10:57.96	0.52	8.10	-39.5	-52.0	3.8	1.49e+00	0	57	104	1099956224	50	15352
2026-01-02 08:10:58.97	0.40	8.04	-39.1	-52.0	3.8	1.49e+00	0	57	104	1099956224	50	15284
2026-01-02 08:10:59.98	0.29	7.98	-39.5	-52.0	3.8	1.49e+00	0	57	104	1099956224	50	15273
2026-01-02 08:11:00.99	0.18	7.92	-43.9	-56.1	3.9	1.49e+00	0	57	104	1099956224	58	15546
2026-01-02 08:11:02.00	0.06	7.86	-44.7	-56.9	3.8	1.49e+00	0	57	104	1099956224	59	15961
2026-01-02 08:11:03.01	359.95	7.80	-44.8	-57.2	3.8	1.49e+00	0	57	104	1099956224	60	15626
2026-01-02 08:11:04.02	359.84	7.75	-44.9	-57.2	3.8	1.49e+00	0	57	104	1099956224	60	15750
2026-01-02 08:11:05.03	359.72	7.69	-45.0	-57.3	3.8	1.49e+00	0	57	104	1099956224	60	15927
2026-01-02 08:11:06.05	359.61	7.63	-45.1	-57.5	3.8	1.49e+00	0	57	104	1099956224	60	16164
2026-01-02 08:11:07.06	359.50	7.57	-45.1	-57.4	3.8	1.49e+00	0	57	104	1099956224	60	16070
2026-01-02 08:11:08.07	359.39	7.51	-45.0	-57.4	3.8	1.49e+00	0	57	104	1099956224	60	16079
2026-01-02 08:11:09.08	359.28	7.45	-45.0	-57.4	3.8	1.49e+00	0	57	104	1099956224	60	16039
2026-01-02 08:11:10.09	359.17	7.39	-45.0	-57.4	3.8	1.49e+00	0	57	104	1099956224	60	16011
2026-01-02 08:11:11.10	359.06	7.33	-44.9	-57.3	3.8	1.49e+00	0	57	104	1099956224	60	15797
2026-01-02 08:11:12.11	358.95	7.27	-44.9	-57.2	3.8	1.49e+00	0	57	104	1099956224	60	15751
2026-01-02 08:11:13.12	358.84	7.21	-44.8	-57.2	3.8	1.49e+00	0	57	104	1099956224	60	15729
2026-01-02 08:11:14.13	358.74	7.16	-44.8	-57.2	3.8	1.49e+00	0	57	104	1099956224	60	15656
2026-01-02 08:11:15.14	358.63	7.10	-44.8	-57.1	3.8	1.49e+00	0	57	104	1099956224	60	15579
2026-01-02 08:11:16.15	358.52	7.04	-44.8	-57.1	3.8	1.49e+00	0	57	104	1099956224	60	15515
2026-01-02 08:11:17.17	358.41	6.98	-44.8	-57.1	3.8	1.49e+00	0	57	104	1099956224	60	15510
2026-01-02 08:11:18.18	358.31	6.92	-44.8	-57.1	3.8	1.49e+00	0	57	104	1099956224	60	15513
2026-01-02 08:11:19.19	358.20	6.86	-44.8	-57.1	3.8	1.49e+00	0	57	104	1099956224	60	15503
2026-01-02 08:11:20.20	358.10	6.80	-44.8	-57.1	3.8	1.49e+00	0	57	104	1099956224	60	15485
2026-01-02 08:11:21.21	357.99	6.75	-44.8	-57.1	3.8	1.49e+00	0	57	104	1099956224	60	15526
2026-01-02 08:11:22.22	357.89	6.69	-44.8	-57.1	3.8	1.49e+00	0	57	104	1099956224	60	15513
2026-01-02 08:11:23.23	357.78	6.63	-44.8	-57.1	3.8	1.49e+00	0	57	104	1099956224	60	15529
2026-01-02 08:11:24.24	357.68	6.57	-44.8	-57.1	3.8	1.49e+00	0	57	104	1099956224	60	15536
2026-01-02 08:11:25.25	357.58	6.51	-44.7	-57.1	3.8	1.49e+00	0	57	104	1099956224	60	15436
2026-01-02 08:11:26.26	357.47	6.45	-44.8	-57.1	3.8	1.49e+00	0	57	104	1099956224	60	15463
2026-01-02 08:11:27.28	357.37	6.39	-44.8	-57.1	3.8	1.49e+00	0	57	104	1099956224	60	15519
2026-01-02 08:11:28.29	357.27	6.34	-44.8	-57.1	3.8	1.49e+00	0	57	104	1099956224	60	15542
2026-01-02 08:11:29.30	357.17	6.28	-44.8	-57.1	3.8	1.49e+00	0	57	104	1099956224	60	15501
2026-01-02 08:11:30.31	357.07	6.22	-44.8	-57.1	3.8	1.49e+00	0	57	104	1099956224	60	15450
2026-01-02 08:11:31.32	356.97	6.16	-44.8	-57.1	3.8	1.49e+00	0	57	104	1099956224	60	15496
2026-01-02 08:11:32.33	356.87	6.10	-44.8	-57.1	3.8	1.49e+00	0	57	104	1099956224	60	15452
2026-01-02 08:11:33.34	356.77	6.05	-44.8	-57.1	3.8	1.49e+00	0	57	104	1099956224	60	15482
2026-01-02 08:11:34.35	356.67	5.99	-44.8	-57.1	3.8	1.49e+00	0	57	104	1099956224	60	15497
2026-01-02 08:11:35.36	356.57	5.93	-44.8	-57.1	3.8	1.49e+00	0	57	104	1099956224	60	15483
2026-01-02 08:11:36.38	356.47	5.87	-44.7	-57.1	3.8	1.49e+00	0	57	104	1099956224	60	15450
2026-01-02 08:11:37.39	356.37	5.81	-44.8	-57.1	3.8	1.49e+00	0	57	104	1099956224	60	15504
2026-01-02 08:11:38.39	356.27	5.76	-44.8	-57.1	3.8	1.49e+00	0	57	104	1099956224	60	15511
2026-01-02 08:11:39.41	356.18	5.70	-44.8	-57.1	3.8	1.49e+00	0	57	104	1099956224	60	15509
2026-01-02 08:11:40.42	356.08	5.64	-44.8	-57.1	3.8	1.49e+00	0	57	104	1099956224	60	15447
2026-01-02 08:11:41.43	355.98	5.58	-44.7	-57.1	3.8	1.49e+00	0	57	104	1099956224	60	15499
2026-01-02 08:11:42.44	355.89	5.53	-44.8	-57.1	3.8	1.49e+00	0	57	104	1099956224	60	15448
2026-01-02 08:11:43.45	355.79	5.47	-44.7	-57.0	3.8	1.49e+00	0	57	104	1099956224	60	15391
2026-01-02 08:11:44.46	355.70	5.41	-44.7	-57.1	3.8	1.49e+00	0	57	104	1099956224	60	15455
2026-01-02 08:11:45.47	355.60	5.35	-44.8	-57.1	3.8	1.49e+00	0	57	104	1099956224	60	15493
2026-01-02 08:11:46.48	355.51	5.30	-44.8	-57.1	3.8	1.49e+00	0	57	104	1099956224	60	15438
2026-01-02 08:11:47.50	355.41	5.24	-44.7	-57.1	3.8	1.49e+00	0	57	104	1099956224	60	15481
2026-01-02 08:11:48.51	355.32	5.18	-44.8	-57.1	3.8	1.49e+00	0	57	104	1099956224	60	15482
2026-01-02 08:11:49.52	355.22	5.12	-44.7	-57.1	3.8	1.49e+00	0	57	104	1099956224	60	15451
2026-01-02 08:11:50.53	355.13	5.07	-44.7	-57.1	3.8	1.49e+00	0	57	104	1099956224	60	15449
2026-01-02 08:11:51.54	355.04	5.01	-44.7	-57.1	3.8	1.49e+00	0	57	104	1099956224	60	15484
2026-01-02 08:11:52.55	354.95	4.95	-44.7	-57.1	3.8	1.49e+00	0	57	104	1099956224	60	15416
2026-01-02 08:11:53.56	354.85	4.90	-44.7	-57.1	3.8	1.49e+00	0	57	104	1099956224	60	15430
2026-01-02 08:11:54.57	354.76	4.84	-44.7	-57.1	3.8	1.49e+00	0	57	104	1099956224	60	15464
2026-01-02 08:11:55.58	354.67	4.78	-44.7	-57.1	3.8	1.49e+00	0	57	104	1099956224	60	15449
2026-01-02 08:11:56.59	354.58	4.73	-44.7	-57.0	3.8	1.49e+00	0	57	104	1099956224	60	15377
2026-01-02 08:11:57.61	354.49	4.67	-44.7	-57.1	3.8	1.49e+00	0	57	104	1099956224	60	15411
2026-01-02 08:11:58.62	354.40	4.61	-44.7	-57.1	3.8	1.49e+00	0	57	104	1099956224	60	15418
2026-01-02 08:11:59.63	354.31	4.56	-44.7	-57.1	3.8	1.49e+00	0	57	104	1099956224	60	15445
2026-01-02 08:12:00.63	354.22	4.50	-44.7	-57.1	3.8	1.49e+00	0	57	104	1099956224	60	15404
2026-01-02 08:12:01.65	354.13	4.44	-44.7	-57.1	3.8	1.49e+00	0	57	104	1099956224	60	15435
2026-01-02 08:12:02.66	354.04	4.39	-44.7	-57.1	3.8	1.49e+00	0	57	104	1099956224	60	15403
2026-01-02 08:12:03.67	353.95	4.33	-44.7	-57.1	3.8	1.49e+00	0	57	104	1099956224	60	15425
2026-01-02 08:12:04.68	353.87	4.27	-44.7	-57.0	3.8	1.49e+00	0	57	104	1099956224	60	15368
2026-01-02 08:12:05.69	353.78	4.22	-44.7	-57.1	3.8	1.49e+00	0	57	104	1099956224	60	15408
2026-01-02 08:12:06.70	353.69	4.16	-44.7	-57.1	3.8	1.49e+00	0	57	104	1099956224	60	15409
2026-01-02 08:12:07.71	353.60	4.10	-44.7	-57.0	3.8	1.49e+00	0	57	104	1099956224	60	15358
2026-01-02 08:12:08.72	353.52	4.05	-44.7	-57.1	3.8	1.49e+00	0	57	104	1099956224	60	15402
2026-01-02 08:12:09.73	353.43	3.99	-44.7	-57.1	3.8	1.49e+00	0	57	104	1099956224	60	15465
2026-01-02 08:12:10.74	353.35	3.94	-44.7	-57.1	3.8	1.49e+00	0	57	104	1099956224	60	15413
2026-01-02 08:12:11.76	353.26	3.88	-44.7	-57.1	3.8	1.49e+00	0	57	104	1099956224	60	15424
2026-01-02 08:12:12.77	353.18	3.82	-44.7	-57.1	3.8	1.49e+00	0	57	104	1099956224	60	15421
2026-01-02 08:12:13.78	353.09	3.77	-44.7	-57.1	3.8	1.49e+00	0	57	104	1099956224	60	15415
2026-01-02 08:12:14.79	353.01	3.71	-44.7	-57.1	3.8	1.49e+00	0	57	104	1099956224	60	15427
2026-01-02 08:12:15.80	352.92	3.66	-44.7	-57.1	3.8	1.49e+00	0	57	104	1099956224	60	15413
2026-01-02 08:12:16.81	352.84	3.60	-44.7	-57.1	3.8	1.49e+00	0	57	104	1099956224	60	15424
2026-01-02 08:12:17.82	352.75	3.54	-44.7	-57.1	3.8	1.49e+00	0	57	104	1099956224	60	15436
2026-01-02 08:12:18.83	352.67	3.49	-44.7	-57.0	3.8	1.49e+00	0	57	104	1099956224	60	15390
2026-01-02 08:12:19.85	352.59	3.43	-44.7	-57.0	3.8	1.49e+00	0	58	104	1099956224	60	15401
2026-01-02 08:12:20.86	352.51	3.38	-44.7	-57.1	3.8	1.49e+00	0	57	104	1099956224	60	15464
2026-01-02 08:12:21.87	352.42	3.32	-44.7	-57.1	3.8	1.49e+00	0	57	104	1099956224	60	15431
2026-01-02 08:12:22.88	352.34	3.27	-44.7	-57.0	3.8	1.49e+00	0	57	104	1099956224	60	15391
2026-01-02 08:12:23.89	352.26	3.21	-44.7	-57.0	3.8	1.49e+00	0	57	104	1099956224	60	15389
2026-01-02 08:12:24.90	352.18	3.16	-44.7	-57.1	3.8	1.49e+00	0	57	104	1099956224	60	15403
2026-01-02 08:12:25.91	352.10	3.10	-44.7	-57.0	3.8	1.49e+00	0	57	104	1099956224	60	15389
2026-01-02 08:12:26.92	352.02	3.05	-44.7	-57.0	3.8	1.49e+00	0	57	104	1099956224	60	15397
2026-01-02 08:12:27.93	351.94	2.99	-44.7	-57.0	3.8	1.49e+00	0	57	104	1099956224	60	15392
2026-01-02 08:12:28.94	351.86	2.94	-44.7	-57.0	3.8	1.49e+00	0	57	104	1099956224	60	15366
2026-01-02 08:12:29.95	351.78	2.88	-44.7	-57.0	3.8	1.49e+00	0	57	104	1099956224	60	15390
2026-01-02 08:12:30.97	351.70	2.82	-44.7	-57.0	3.8	1.49e+00	0	57	104	1099956224	60	15357
2026-01-02 08:12:31.98	351.62	2.77	-44.7	-57.1	3.8	1.49e+00	0	57	104	1099956224	60	15419
2026-01-02 08:12:32.99	351.54	2.72	-44.7	-57.1	3.8	1.49e+00	0	57	104	1099956224	60	15442
