passes_logs/2026/01/02/R2.0S_Moscow/R2.0S_Moscow__20260102_015837_SUOMI_NPP_rec.log

#Pass ID: 20260102_015837_SUOMI NPP
#Satellite: SUOMI NPP
#Configuration: NPP
#almurnet v.1.7.20251203
#Start time: 2026-01-02 01:58:38

#Version: 2.2.20231116
#Station: R2.0S_Moscow
#Location: 37.707566 lon 55.798166 lat
#TLE: 1 37849U 11061A   26001.07732418  .00000182  00000+0  10735-3 0  9990
#TLE: 2 37849  98.7795 303.2470 0002580  87.2016 272.9455 14.19520779734739

#Time	Az	El	Level	Level2	SNR	BER	BlckErr	Temp	State	Recorded	gain1	gain2
2026-01-02 01:58:38.72	8.62	2.09	-38.3	-54.0	3.8	1.49e+00	0	47	0	0	48	21572
2026-01-02 01:58:39.72	8.54	2.14	-38.1	-53.9	3.8	1.49e+00	0	47	104	0	46	24079
2026-01-02 01:58:40.74	8.45	2.19	-38.1	-53.9	3.8	1.49e+00	0	48	104	0	46	24059
2026-01-02 01:58:41.75	8.36	2.24	-38.1	-53.9	3.8	1.49e+00	0	48	104	0	46	24039
2026-01-02 01:58:42.76	8.28	2.29	-38.1	-53.9	3.8	1.49e+00	0	48	104	0	46	24074
2026-01-02 01:58:43.77	8.19	2.34	-38.1	-53.9	3.8	1.49e+00	0	48	104	0	46	24058
2026-01-02 01:58:44.78	8.11	2.39	-38.2	-53.9	3.8	1.49e+00	0	48	104	0	46	24121
2026-01-02 01:58:45.79	8.02	2.44	-38.2	-53.9	3.8	1.49e+00	0	48	104	0	46	24049
2026-01-02 01:58:46.80	7.93	2.49	-38.2	-53.9	3.8	1.49e+00	0	48	104	0	46	24106
2026-01-02 01:58:47.81	7.85	2.55	-38.1	-53.9	3.8	1.49e+00	0	48	104	0	46	24002
2026-01-02 01:58:48.82	7.76	2.60	-38.2	-53.9	3.8	1.49e+00	0	48	104	0	46	24057
2026-01-02 01:58:49.83	7.67	2.65	-38.2	-53.9	3.8	1.49e+00	0	48	104	0	46	24039
2026-01-02 01:58:50.85	7.58	2.70	-38.2	-53.9	3.8	1.49e+00	0	48	104	0	46	24085
2026-01-02 01:58:51.86	7.49	2.75	-38.2	-53.9	3.8	1.49e+00	0	48	104	0	46	24056
2026-01-02 01:58:52.87	7.40	2.80	-38.2	-53.9	3.8	1.49e+00	0	48	104	0	46	24038
2026-01-02 01:58:53.88	7.31	2.85	-38.1	-53.9	3.8	1.49e+00	0	49	104	0	46	24018
2026-01-02 01:58:54.89	7.22	2.91	-38.2	-53.9	3.8	1.49e+00	0	49	104	0	46	24003
2026-01-02 01:58:55.90	7.13	2.96	-38.2	-53.9	3.8	1.49e+00	0	49	104	0	47	22680
2026-01-02 01:58:56.91	7.04	3.01	-38.3	-53.9	3.8	1.49e+00	0	49	104	0	47	22683
2026-01-02 01:58:57.92	6.95	3.06	-38.4	-53.9	3.8	1.49e+00	0	49	104	0	47	22709
2026-01-02 01:58:58.93	6.86	3.11	-38.2	-53.9	3.8	1.49e+00	0	49	104	0	47	22671
2026-01-02 01:58:59.94	6.77	3.16	-38.3	-53.9	3.8	1.49e+00	0	49	104	0	47	22649
2026-01-02 01:59:00.96	6.68	3.22	-38.3	-53.9	3.8	1.49e+00	0	49	104	0	47	22651
2026-01-02 01:59:01.97	6.59	3.27	-38.2	-53.9	3.8	1.49e+00	0	49	104	0	47	22709
2026-01-02 01:59:02.98	6.49	3.32	-38.2	-53.9	3.8	1.49e+00	0	49	104	0	47	22626
2026-01-02 01:59:03.99	6.40	3.37	-38.3	-53.9	3.8	1.49e+00	0	49	104	0	47	22668
2026-01-02 01:59:05.00	6.31	3.42	-38.2	-53.9	3.8	1.49e+00	0	49	104	0	47	22668
2026-01-02 01:59:06.01	6.21	3.48	-38.3	-53.9	3.8	1.49e+00	0	49	104	0	47	22656
2026-01-02 01:59:07.02	6.12	3.53	-38.2	-53.9	3.8	1.49e+00	0	49	104	0	47	22694
2026-01-02 01:59:08.03	6.03	3.58	-38.3	-53.9	3.8	1.49e+00	0	50	104	0	47	22628
2026-01-02 01:59:09.04	5.93	3.63	-38.2	-53.9	3.8	1.49e+00	0	50	104	0	47	22670
2026-01-02 01:59:10.05	5.84	3.68	-38.2	-53.9	3.8	1.49e+00	0	50	104	0	47	22640
2026-01-02 01:59:11.06	5.74	3.73	-38.2	-53.9	3.8	1.49e+00	0	50	104	0	47	22697
2026-01-02 01:59:12.07	5.65	3.79	-38.2	-53.9	3.8	1.49e+00	0	50	104	0	47	22652
2026-01-02 01:59:13.08	5.55	3.84	-38.2	-53.9	3.8	1.49e+00	0	50	104	0	47	22629
2026-01-02 01:59:14.09	5.45	3.89	-38.2	-53.9	3.8	1.49e+00	0	50	104	0	47	22678
2026-01-02 01:59:15.11	5.36	3.94	-38.2	-53.9	3.8	1.49e+00	0	50	104	0	47	22677
2026-01-02 01:59:16.12	5.26	4.00	-38.2	-53.9	3.8	1.49e+00	0	50	104	0	47	22734
2026-01-02 01:59:17.13	5.16	4.05	-38.3	-53.9	3.8	1.49e+00	0	50	104	0	47	22637
2026-01-02 01:59:18.14	5.07	4.10	-38.3	-53.9	3.8	1.49e+00	0	50	104	0	47	22718
2026-01-02 01:59:19.15	4.97	4.15	-38.2	-53.9	3.8	1.49e+00	0	50	104	0	47	22685
2026-01-02 01:59:20.16	4.87	4.20	-38.2	-53.9	3.8	1.49e+00	0	50	104	0	47	22623
2026-01-02 01:59:21.17	4.77	4.26	-38.3	-53.9	3.8	1.49e+00	0	50	104	0	47	22636
2026-01-02 01:59:22.18	4.67	4.31	-38.2	-53.9	3.8	1.49e+00	0	50	104	0	47	22671
2026-01-02 01:59:23.19	4.57	4.36	-38.2	-53.9	3.8	1.49e+00	0	50	104	0	47	22603
2026-01-02 01:59:24.20	4.47	4.41	-38.3	-53.9	3.8	1.49e+00	0	50	104	0	47	22714
2026-01-02 01:59:25.22	4.37	4.46	-38.2	-53.9	3.8	1.49e+00	0	51	104	0	47	22652
2026-01-02 01:59:26.23	4.27	4.52	-38.2	-53.9	3.8	1.49e+00	0	50	104	0	47	22630
2026-01-02 01:59:27.24	4.17	4.57	-38.2	-53.9	3.8	1.49e+00	0	50	104	0	47	22717
2026-01-02 01:59:28.25	4.07	4.62	-38.2	-53.9	3.8	1.49e+00	0	51	104	0	47	22666
2026-01-02 01:59:29.26	3.97	4.67	-38.2	-53.9	3.8	1.49e+00	0	51	104	0	47	22692
2026-01-02 01:59:30.27	3.86	4.73	-38.2	-53.9	3.8	1.49e+00	0	51	104	0	47	22680
2026-01-02 01:59:31.28	3.76	4.78	-38.2	-53.9	3.8	1.49e+00	0	51	104	0	47	22640
2026-01-02 01:59:32.29	3.66	4.83	-38.2	-53.9	3.8	1.49e+00	0	51	104	0	47	22714
2026-01-02 01:59:33.30	3.56	4.88	-38.3	-53.9	3.8	1.49e+00	0	51	104	0	47	22623
2026-01-02 01:59:34.31	3.45	4.94	-38.2	-53.9	3.8	1.49e+00	0	51	104	0	47	22685
2026-01-02 01:59:35.32	3.35	4.99	-38.2	-53.9	3.8	1.49e+00	0	51	104	0	47	22628
2026-01-02 01:59:36.33	3.24	5.04	-38.3	-53.9	3.8	1.49e+00	0	51	104	0	47	22649
2026-01-02 01:59:37.34	3.14	5.09	-38.2	-53.9	3.8	1.49e+00	0	51	104	0	47	22588
2026-01-02 01:59:38.35	3.03	5.15	-38.2	-53.9	3.8	1.49e+00	0	51	104	0	47	22676
2026-01-02 01:59:39.37	2.93	5.20	-38.2	-53.9	3.8	1.49e+00	0	51	104	0	47	22680
2026-01-02 01:59:40.38	2.82	5.25	-38.2	-53.9	3.8	1.49e+00	0	51	104	0	47	22669
2026-01-02 01:59:41.39	2.72	5.30	-38.1	-53.9	3.8	1.49e+00	0	51	104	0	47	22701
2026-01-02 01:59:42.40	2.61	5.36	-38.1	-53.9	3.8	1.49e+00	0	51	104	0	47	22614
2026-01-02 01:59:43.41	2.50	5.41	-38.2	-53.9	3.8	1.49e+00	0	51	104	0	47	22641
2026-01-02 01:59:44.42	2.39	5.46	-38.2	-53.9	3.8	1.49e+00	0	51	104	0	47	22723
2026-01-02 01:59:45.43	2.29	5.51	-38.1	-53.9	3.8	1.49e+00	0	51	104	0	47	22628
2026-01-02 01:59:46.45	2.18	5.57	-38.1	-53.9	3.8	1.49e+00	0	52	104	0	47	22688
2026-01-02 01:59:47.45	2.07	5.62	-38.1	-53.9	3.8	1.49e+00	0	52	104	0	47	22755
2026-01-02 01:59:48.47	1.96	5.67	-38.2	-53.9	3.8	1.49e+00	0	52	104	0	47	22647
2026-01-02 01:59:49.48	1.85	5.72	-38.2	-53.9	3.8	1.49e+00	0	52	104	0	47	22687
2026-01-02 01:59:50.49	1.74	5.78	-38.2	-53.9	3.8	1.49e+00	0	51	104	0	47	22716
2026-01-02 01:59:51.50	1.63	5.83	-38.3	-53.9	3.8	1.49e+00	0	52	104	0	47	22661
2026-01-02 01:59:52.51	1.52	5.88	-38.2	-53.9	3.8	1.49e+00	0	52	104	0	47	22704
2026-01-02 01:59:53.52	1.41	5.93	-38.1	-53.9	3.8	1.49e+00	0	52	104	0	47	22673
2026-01-02 01:59:54.53	1.30	5.99	-38.2	-53.9	3.8	1.49e+00	0	52	104	0	47	22637
2026-01-02 01:59:55.54	1.18	6.04	-38.2	-53.9	3.8	1.49e+00	0	52	104	0	47	22660
2026-01-02 01:59:56.55	1.07	6.09	-38.1	-53.9	3.8	1.49e+00	0	52	104	0	47	22748
2026-01-02 01:59:57.56	0.96	6.14	-38.2	-53.9	3.8	1.49e+00	0	52	104	0	47	22664
2026-01-02 01:59:58.58	0.84	6.20	-38.2	-53.9	3.8	1.49e+00	0	52	104	0	47	22609
2026-01-02 01:59:59.59	0.73	6.25	-38.2	-53.9	3.8	1.49e+00	0	52	104	0	47	22652
2026-01-02 02:00:00.60	0.62	6.30	-38.3	-53.9	3.8	1.49e+00	0	52	104	0	47	22689
2026-01-02 02:00:01.61	0.50	6.36	-38.3	-53.9	3.8	1.49e+00	0	52	104	0	47	22701
2026-01-02 02:00:02.62	0.39	6.41	-38.4	-53.9	3.8	1.49e+00	0	52	104	0	47	22680
2026-01-02 02:00:03.63	0.27	6.46	-38.3	-53.9	3.8	1.49e+00	0	52	104	0	47	22651
2026-01-02 02:00:04.64	0.16	6.51	-38.2	-53.9	3.8	1.49e+00	0	52	104	0	47	22634
2026-01-02 02:00:05.65	0.04	6.57	-38.2	-53.9	3.8	1.49e+00	0	52	104	0	47	22647
2026-01-02 02:00:06.67	359.92	6.62	-38.2	-53.9	3.8	1.49e+00	0	52	104	0	47	22612
2026-01-02 02:00:07.67	359.81	6.67	-38.2	-53.9	3.8	1.49e+00	0	52	104	0	47	22678
2026-01-02 02:00:08.69	359.69	6.72	-38.2	-53.9	3.8	1.49e+00	0	52	104	0	47	22655
2026-01-02 02:00:09.70	359.57	6.78	-38.2	-53.9	3.8	1.49e+00	0	52	104	0	47	22655
2026-01-02 02:00:10.71	359.45	6.83	-38.2	-53.9	3.8	1.49e+00	0	52	104	0	47	22684
2026-01-02 02:00:11.72	359.33	6.88	-38.2	-53.9	3.8	1.49e+00	0	53	104	0	47	22629
2026-01-02 02:00:12.73	359.21	6.93	-38.2	-53.9	3.8	1.49e+00	0	53	104	0	47	22645
2026-01-02 02:00:13.74	359.09	6.99	-38.2	-53.9	3.8	1.49e+00	0	52	104	0	47	22613
2026-01-02 02:00:14.75	358.97	7.04	-38.2	-53.9	3.8	1.49e+00	0	53	104	0	47	22676
2026-01-02 02:00:15.76	358.85	7.09	-38.2	-53.9	3.8	1.49e+00	0	53	104	0	47	22687
2026-01-02 02:00:16.77	358.73	7.14	-38.2	-53.9	3.8	1.49e+00	0	52	104	0	47	22693
2026-01-02 02:00:17.79	358.61	7.20	-38.2	-53.9	3.8	1.49e+00	0	52	104	0	47	22688
2026-01-02 02:00:18.80	358.49	7.25	-38.2	-53.9	3.8	1.49e+00	0	53	104	0	47	22669
2026-01-02 02:00:19.81	358.36	7.30	-38.2	-53.9	3.8	1.49e+00	0	53	104	0	47	22609
2026-01-02 02:00:20.82	358.24	7.35	-38.2	-53.9	3.8	1.49e+00	0	53	104	0	47	22643
2026-01-02 02:00:21.83	358.12	7.41	-38.2	-53.9	3.8	1.49e+00	0	53	104	0	47	22656
2026-01-02 02:00:22.84	357.99	7.46	-38.2	-53.9	3.8	1.49e+00	0	53	104	0	47	22590
2026-01-02 02:00:23.85	357.87	7.51	-38.2	-53.9	3.8	1.49e+00	0	53	104	0	47	22629
2026-01-02 02:00:24.86	357.74	7.56	-38.2	-53.9	3.8	1.49e+00	0	53	104	0	47	22637
2026-01-02 02:00:25.88	357.62	7.62	-38.2	-53.9	3.8	1.49e+00	0	53	104	0	47	22597
2026-01-02 02:00:26.89	357.49	7.67	-38.2	-53.9	3.8	1.49e+00	0	53	104	0	47	22670
2026-01-02 02:00:27.89	357.37	7.72	-38.2	-53.9	3.8	1.49e+00	0	53	104	0	47	22646
2026-01-02 02:00:28.91	357.24	7.77	-38.2	-53.9	3.8	1.49e+00	0	53	104	0	47	22682
2026-01-02 02:00:29.92	357.11	7.83	-38.2	-53.9	3.8	1.49e+00	0	53	104	0	47	22691
2026-01-02 02:00:30.93	356.98	7.88	-38.2	-53.9	3.8	1.49e+00	0	53	104	0	47	22664
2026-01-02 02:00:31.94	356.86	7.93	-38.2	-53.9	3.8	1.49e+00	0	53	104	0	47	22692
2026-01-02 02:00:32.95	356.73	7.98	-38.3	-53.9	3.8	1.49e+00	0	53	104	0	47	22680
2026-01-02 02:00:33.96	356.60	8.03	-38.2	-53.9	3.8	1.49e+00	0	53	104	0	47	22739
2026-01-02 02:00:34.97	356.47	8.09	-38.7	-54.1	3.8	1.49e+00	0	53	104	0	47	23127
2026-01-02 02:00:35.98	356.34	8.14	-39.0	-54.1	3.8	1.49e+00	0	53	104	0	48	21771
2026-01-02 02:00:36.99	356.21	8.19	-39.1	-54.2	3.8	1.49e+00	0	53	104	0	48	22070
2026-01-02 02:00:38.00	356.08	8.24	-39.7	-54.4	3.8	1.49e+00	0	53	104	0	49	21390
2026-01-02 02:00:39.01	355.95	8.29	-38.4	-54.0	3.8	1.49e+00	0	53	104	0	48	21649
2026-01-02 02:00:40.02	355.81	8.35	-39.8	-54.4	3.8	1.49e+00	0	53	104	0	50	20271
2026-01-02 02:00:41.03	355.68	8.40	-38.7	-54.1	3.8	1.49e+00	0	53	104	0	49	20718
2026-01-02 02:00:42.04	355.55	8.45	-39.3	-54.1	3.8	1.49e+00	0	53	104	0	49	20686
2026-01-02 02:00:43.05	355.42	8.50	-39.5	-54.2	3.8	1.49e+00	0	53	104	0	49	20997
2026-01-02 02:00:44.06	355.28	8.55	-39.4	-54.2	3.8	1.49e+00	0	53	104	0	49	20848
2026-01-02 02:00:45.08	355.15	8.61	-39.6	-54.3	3.8	1.49e+00	0	53	104	0	50	19864
2026-01-02 02:00:46.09	355.01	8.66	-39.8	-54.4	3.8	1.49e+00	0	53	104	0	50	20152
2026-01-02 02:00:47.10	354.88	8.71	-39.6	-54.4	3.8	1.49e+00	0	53	104	0	50	20162
2026-01-02 02:00:48.11	354.74	8.76	-39.8	-54.4	3.8	1.49e+00	0	54	104	0	50	20123
2026-01-02 02:00:49.12	354.60	8.81	-39.7	-54.4	3.8	1.49e+00	0	53	104	0	50	20221
2026-01-02 02:00:50.13	354.47	8.86	-39.6	-54.2	3.8	1.49e+00	0	54	104	0	50	19657
2026-01-02 02:00:51.14	354.33	8.91	-39.8	-54.4	3.8	1.49e+00	0	54	104	0	50	20081
2026-01-02 02:00:52.14	354.19	8.97	-39.5	-54.2	3.8	1.49e+00	0	54	104	0	50	19718
2026-01-02 02:00:53.15	354.06	9.02	-39.8	-54.4	3.8	1.49e+00	0	54	104	0	50	20155
2026-01-02 02:00:54.16	353.92	9.07	-39.9	-54.5	3.8	1.49e+00	0	54	104	0	50	20482
2026-01-02 02:00:55.18	353.78	9.12	-39.7	-54.3	3.8	1.49e+00	0	54	104	0	50	20069
2026-01-02 02:00:56.18	353.64	9.17	-40.0	-54.6	3.8	1.49e+00	0	54	104	0	50	20752
2026-01-02 02:00:57.19	353.50	9.22	-39.7	-54.3	3.8	1.49e+00	0	54	104	0	50	20031
2026-01-02 02:00:58.20	353.36	9.27	-39.6	-54.3	3.8	1.49e+00	0	54	104	0	50	19984
2026-01-02 02:00:59.21	353.22	9.32	-40.1	-54.6	3.8	1.49e+00	0	54	104	0	50	20759
2026-01-02 02:01:00.22	353.07	9.37	-39.8	-54.4	3.8	1.49e+00	0	54	104	0	50	20286
2026-01-02 02:01:01.23	352.93	9.42	-40.2	-54.8	3.8	1.49e+00	0	54	104	0	50	21121
2026-01-02 02:01:02.24	352.79	9.48	-40.3	-54.9	3.8	1.49e+00	0	54	104	0	51	20188
2026-01-02 02:01:03.25	352.65	9.53	-40.0	-54.6	3.8	1.49e+00	0	54	104	0	51	19428
2026-01-02 02:01:04.25	352.50	9.58	-40.2	-54.8	3.8	1.49e+00	0	54	104	0	51	20040
2026-01-02 02:01:05.27	352.36	9.63	-40.1	-54.6	3.8	1.49e+00	0	54	104	0	51	19539
2026-01-02 02:01:06.28	352.21	9.68	-40.1	-54.7	3.8	1.49e+00	0	54	104	0	51	19661
2026-01-02 02:01:07.29	352.07	9.73	-40.2	-54.7	3.8	1.49e+00	0	54	104	0	51	19836
2026-01-02 02:01:08.30	351.92	9.78	-40.0	-54.6	3.8	1.49e+00	0	54	104	0	51	19429
2026-01-02 02:01:09.31	351.78	9.83	-40.1	-54.7	3.8	1.49e+00	0	54	104	0	51	19811
2026-01-02 02:01:10.32	351.63	9.88	-40.2	-54.8	3.8	1.49e+00	0	54	104	0	51	20049
2026-01-02 02:01:11.33	351.48	9.93	-40.2	-54.8	3.8	1.49e+00	0	54	104	0	51	19952
2026-01-02 02:01:12.34	351.33	9.98	-40.3	-54.9	3.8	1.49e+00	0	54	104	0	51	20263
2026-01-02 02:01:13.35	351.19	10.03	-40.1	-54.7	3.8	1.49e+00	0	54	104	0	51	19711
2026-01-02 02:01:14.36	351.04	10.08	-39.9	-54.6	3.8	1.49e+00	0	54	104	0	51	19436
2026-01-02 02:01:15.37	350.89	10.13	-40.5	-55.1	3.8	1.49e+00	0	54	104	0	51	20706
2026-01-02 02:01:16.38	350.74	10.18	-40.0	-54.7	3.8	1.49e+00	0	54	104	0	51	19634
2026-01-02 02:01:17.39	350.59	10.23	-40.6	-55.2	3.8	1.49e+00	0	54	104	0	51	20802
2026-01-02 02:01:18.40	350.44	10.28	-40.1	-54.8	3.8	1.49e+00	0	54	104	0	51	19866
2026-01-02 02:01:19.41	350.28	10.33	-40.3	-54.9	3.8	1.49e+00	0	54	104	0	51	20263
2026-01-02 02:01:20.41	350.13	10.37	-40.0	-54.6	3.8	1.49e+00	0	54	104	0	51	19609
2026-01-02 02:01:21.42	349.98	10.42	-40.1	-54.8	3.8	1.49e+00	0	54	104	0	51	19848
2026-01-02 02:01:22.43	349.83	10.47	-40.0	-54.7	3.8	1.49e+00	0	54	104	0	51	19638
2026-01-02 02:01:23.44	349.67	10.52	-40.1	-54.7	3.8	1.49e+00	0	54	104	0	51	19746
2026-01-02 02:01:24.45	349.52	10.57	-40.1	-54.7	3.8	1.49e+00	0	54	104	0	51	19735
2026-01-02 02:01:25.46	349.36	10.62	-40.5	-55.1	3.8	1.49e+00	0	54	104	0	51	20727
2026-01-02 02:01:26.47	349.21	10.67	-40.4	-55.0	3.8	1.49e+00	0	54	104	0	51	20420
2026-01-02 02:01:27.48	349.05	10.72	-40.0	-54.6	3.8	1.49e+00	0	54	104	0	51	19591
2026-01-02 02:01:28.49	348.90	10.76	-40.0	-54.6	3.8	1.49e+00	0	55	104	0	51	19608
2026-01-02 02:01:29.50	348.74	10.81	-40.0	-54.7	3.8	1.49e+00	0	54	104	0	51	19675
2026-01-02 02:01:30.51	348.58	10.86	-40.1	-54.8	3.8	1.49e+00	0	54	104	0	51	19859
2026-01-02 02:01:31.52	348.43	10.91	-40.2	-54.8	3.8	1.49e+00	0	55	104	0	51	20040
2026-01-02 02:01:32.53	348.27	10.96	-40.7	-55.3	3.8	1.49e+00	0	55	104	0	52	19929
2026-01-02 02:01:33.54	348.11	11.01	-40.7	-55.3	3.8	1.49e+00	0	55	104	0	52	20013
2026-01-02 02:01:34.55	347.95	11.05	-40.7	-55.3	3.8	1.49e+00	0	55	104	0	52	19914
2026-01-02 02:01:35.56	347.79	11.10	-40.7	-55.3	3.8	1.49e+00	0	54	104	0	52	19981
2026-01-02 02:01:36.57	347.63	11.15	-40.7	-55.3	3.8	1.49e+00	0	55	104	0	52	19884
2026-01-02 02:01:37.58	347.47	11.20	-40.7	-55.3	3.8	1.49e+00	0	55	104	0	52	20013
2026-01-02 02:01:38.59	347.31	11.24	-40.7	-55.3	3.8	1.49e+00	0	55	104	0	52	19982
2026-01-02 02:01:39.59	347.15	11.29	-40.7	-55.3	3.8	1.49e+00	0	55	104	0	52	20033
2026-01-02 02:01:40.60	346.98	11.34	-40.7	-55.3	3.8	1.49e+00	0	55	104	0	52	19937
2026-01-02 02:01:41.61	346.82	11.38	-40.7	-55.3	3.8	1.49e+00	0	55	104	0	52	19939
2026-01-02 02:01:42.62	346.66	11.43	-40.7	-55.3	3.8	1.49e+00	0	54	104	0	52	20063
2026-01-02 02:01:43.63	346.49	11.48	-40.7	-55.4	3.8	1.49e+00	0	55	104	0	52	20145
2026-01-02 02:01:44.64	346.33	11.52	-40.5	-55.2	3.8	1.49e+00	0	55	104	0	52	19814
2026-01-02 02:01:45.65	346.16	11.57	-40.2	-54.9	3.8	1.49e+00	0	54	104	0	52	19066
2026-01-02 02:01:46.66	346.00	11.61	-40.6	-55.3	3.8	1.49e+00	0	55	104	0	52	20038
2026-01-02 02:01:47.68	345.83	11.66	-40.1	-54.9	3.8	1.49e+00	0	55	104	0	52	19046
2026-01-02 02:01:48.69	345.66	11.71	-40.5	-55.2	3.8	1.49e+00	0	55	104	0	52	19694
2026-01-02 02:01:49.70	345.49	11.75	-40.2	-55.1	3.8	1.49e+00	0	55	104	0	52	19417
2026-01-02 02:01:50.71	345.33	11.80	-40.1	-54.8	3.8	1.49e+00	0	55	104	0	52	18832
2026-01-02 02:01:51.72	345.16	11.84	-40.1	-54.8	3.8	1.49e+00	0	55	104	0	51	20000
2026-01-02 02:01:52.73	344.99	11.89	-40.3	-54.9	3.8	1.49e+00	0	55	104	0	51	20270
2026-01-02 02:01:53.74	344.82	11.93	-40.6	-55.3	3.8	1.49e+00	0	55	104	0	51	21022
2026-01-02 02:01:54.75	344.65	11.98	-40.3	-54.9	3.8	1.49e+00	0	55	104	0	51	20203
2026-01-02 02:01:55.76	344.48	12.02	-40.5	-55.1	3.8	1.49e+00	0	55	104	0	51	20764
2026-01-02 02:01:56.77	344.31	12.07	-40.4	-55.1	3.8	1.49e+00	0	55	104	0	51	20544
2026-01-02 02:01:57.78	344.13	12.11	-40.5	-55.0	3.8	1.49e+00	0	55	104	0	51	20457
2026-01-02 02:01:58.79	343.96	12.16	-40.4	-55.0	3.8	1.49e+00	0	55	104	0	51	20517
2026-01-02 02:01:59.80	343.79	12.20	-40.4	-55.0	3.8	1.49e+00	0	55	104	0	51	20394
2026-01-02 02:02:00.81	343.62	12.24	-40.2	-54.9	3.8	1.49e+00	0	55	104	0	51	20186
2026-01-02 02:02:01.82	343.44	12.29	-40.3	-55.0	3.8	1.49e+00	0	55	104	0	51	20384
2026-01-02 02:02:02.83	343.27	12.33	-40.4	-55.0	3.8	1.49e+00	0	55	104	0	51	20447
2026-01-02 02:02:03.84	343.09	12.37	-40.3	-55.0	3.8	1.49e+00	0	55	104	0	51	20312
2026-01-02 02:02:04.85	342.92	12.42	-40.3	-54.9	3.8	1.49e+00	0	55	104	0	51	20257
2026-01-02 02:02:05.86	342.74	12.46	-40.4	-55.0	3.8	1.49e+00	0	55	104	0	51	20487
2026-01-02 02:02:06.87	342.57	12.50	-40.4	-55.0	3.8	1.49e+00	0	55	104	0	51	20444
2026-01-02 02:02:07.88	342.39	12.55	-40.5	-55.1	3.8	1.49e+00	0	55	104	0	51	20642
2026-01-02 02:02:08.89	342.21	12.59	-40.2	-54.8	3.8	1.49e+00	0	55	104	0	51	19970
2026-01-02 02:02:09.90	342.03	12.63	-39.9	-54.6	3.8	1.49e+00	0	55	104	0	51	19420
2026-01-02 02:02:10.91	341.85	12.67	-40.3	-54.9	3.8	1.49e+00	0	55	104	0	51	20192
2026-01-02 02:02:11.93	341.67	12.71	-39.8	-54.5	3.8	1.49e+00	0	55	104	0	51	19229
2026-01-02 02:02:12.94	341.49	12.76	-40.2	-54.8	3.8	1.49e+00	0	55	104	0	51	19989
2026-01-02 02:02:13.95	341.31	12.80	-39.8	-54.6	3.8	1.49e+00	0	55	104	0	51	19533
2026-01-02 02:02:14.96	341.13	12.84	-39.9	-54.5	3.8	1.49e+00	0	55	104	0	51	19375
2026-01-02 02:02:15.97	340.95	12.88	-39.7	-54.6	3.8	1.49e+00	0	55	104	0	51	19487
2026-01-02 02:02:16.98	340.77	12.92	-39.9	-54.6	3.8	1.49e+00	0	55	104	0	51	19414
2026-01-02 02:02:17.99	340.59	12.96	-39.9	-54.1	3.8	1.49e+00	0	55	104	0	51	18454
2026-01-02 02:02:19.00	340.41	13.00	-39.8	-54.5	3.8	1.49e+00	0	55	104	0	51	19174
2026-01-02 02:02:20.01	340.22	13.04	-40.4	-53.3	3.8	1.49e+00	0	55	104	0	51	16783
2026-01-02 02:02:21.02	340.04	13.08	-39.7	-54.3	3.8	1.49e+00	0	55	104	0	51	18895
2026-01-02 02:02:22.03	339.86	13.12	-40.9	-54.1	3.8	1.49e+00	0	55	104	0	52	17472
2026-01-02 02:02:23.04	339.67	13.16	-41.9	-54.9	3.8	1.28e+00	0	55	104	0	54	16899
2026-01-02 02:02:24.05	339.49	13.20	-40.9	-49.0	6.1	8.81e-01	0	56	0	0	53	9112
2026-01-02 02:02:25.06	339.30	13.24	-41.5	-48.2	7.7	1.54e-01	0	55	0	2097152	53	8291
2026-01-02 02:02:26.07	339.11	13.28	-41.7	-47.7	8.4	6.88e-02	0	55	0	3145728	53	7892
2026-01-02 02:02:27.08	338.93	13.31	-41.5	-46.7	9.9	1.96e-02	0	55	0	5242880	54	6625
2026-01-02 02:02:28.09	338.74	13.35	-40.9	-45.2	11.5	2.64e-03	0	56	0	7340032	53	5879
2026-01-02 02:02:29.10	338.55	13.39	-40.4	-44.2	12.7	3.45e-04	0	56	0	9437184	52	5533
2026-01-02 02:02:30.11	338.36	13.43	-40.0	-43.4	13.5	1.90e-05	0	55	0	11534336	52	5054
2026-01-02 02:02:31.12	338.18	13.46	-39.9	-43.2	13.9	5.30e-06	0	55	0	12582912	51	5230
2026-01-02 02:02:32.13	337.99	13.50	-39.9	-43.0	14.0	3.00e-06	0	55	0	14680064	51	5153
2026-01-02 02:02:33.14	337.80	13.54	-39.9	-43.0	14.1	7.00e-07	0	55	0	16777216	51	5148
2026-01-02 02:02:34.15	337.61	13.58	-40.0	-43.2	14.1	7.00e-07	0	56	0	18874368	51	5271
2026-01-02 02:02:35.16	337.42	13.61	-39.9	-43.1	14.1	7.00e-07	0	55	0	20971520	51	5176
2026-01-02 02:02:36.17	337.23	13.65	-39.6	-42.6	14.6	0.00e+00	0	56	0	22020096	51	4898
2026-01-02 02:02:37.18	337.03	13.68	-39.4	-42.2	15.0	7.00e-07	0	55	0	24117248	50	4983
2026-01-02 02:02:38.19	336.84	13.72	-39.4	-42.1	15.0	0.00e+00	0	56	0	26214400	50	4921
2026-01-02 02:02:39.19	336.65	13.75	-39.3	-42.0	15.2	0.00e+00	0	56	0	28311552	50	4859
2026-01-02 02:02:40.20	336.46	13.79	-39.2	-41.9	15.4	0.00e+00	0	56	0	30408704	50	4792
2026-01-02 02:02:41.21	336.27	13.82	-39.3	-41.9	15.3	0.00e+00	0	55	0	31457280	50	4802
2026-01-02 02:02:42.22	336.07	13.86	-39.0	-41.6	15.6	0.00e+00	0	55	0	33554432	50	4621
2026-01-02 02:02:43.23	335.88	13.89	-39.0	-41.6	15.7	0.00e+00	0	56	0	35651584	50	4602
2026-01-02 02:02:44.24	335.68	13.93	-39.0	-41.5	15.6	0.00e+00	0	55	0	37748736	50	4584
2026-01-02 02:02:45.25	335.49	13.96	-38.9	-41.5	15.8	0.00e+00	0	55	0	39845888	49	4825
2026-01-02 02:02:46.26	335.29	13.99	-38.8	-41.2	16.1	0.00e+00	0	56	0	40894464	49	4696
2026-01-02 02:02:47.27	335.10	14.03	-38.8	-41.2	16.0	0.00e+00	0	56	0	42991616	49	4681
2026-01-02 02:02:48.28	334.90	14.06	-38.9	-41.4	15.9	0.00e+00	0	55	0	45088768	49	4802
2026-01-02 02:02:49.29	334.70	14.09	-38.8	-41.3	16.0	0.00e+00	0	56	0	47185920	49	4748
2026-01-02 02:02:50.30	334.51	14.12	-38.9	-41.5	15.7	0.00e+00	0	55	0	49283072	49	4838
2026-01-02 02:02:51.31	334.31	14.16	-39.0	-41.5	15.8	0.00e+00	0	56	0	50331648	49	4862
2026-01-02 02:02:52.32	334.11	14.19	-39.0	-41.6	15.6	0.00e+00	0	56	0	52428800	49	4900
2026-01-02 02:02:53.32	333.91	14.22	-39.0	-41.6	15.7	0.00e+00	0	56	0	54525952	49	4914
2026-01-02 02:02:54.33	333.71	14.25	-38.9	-41.4	15.8	0.00e+00	0	56	0	56623104	49	4793
2026-01-02 02:02:55.34	333.51	14.28	-38.9	-41.5	15.8	0.00e+00	0	56	0	58720256	49	4827
2026-01-02 02:02:56.35	333.31	14.31	-38.9	-41.4	15.8	0.00e+00	0	56	0	60817408	49	4811
2026-01-02 02:02:57.36	333.11	14.34	-38.9	-41.5	15.8	0.00e+00	0	56	0	61865984	49	4831
2026-01-02 02:02:58.37	332.91	14.37	-39.0	-41.6	15.7	0.00e+00	0	56	0	63963136	49	4875
2026-01-02 02:02:59.38	332.71	14.40	-39.1	-41.7	15.7	0.00e+00	0	56	0	66060288	49	4933
2026-01-02 02:03:00.39	332.51	14.43	-39.0	-41.5	15.8	0.00e+00	0	56	0	68157440	49	4860
2026-01-02 02:03:01.40	332.31	14.46	-38.8	-41.3	16.0	0.00e+00	0	56	0	70254592	49	4708
2026-01-02 02:03:02.41	332.11	14.49	-38.6	-41.0	16.3	0.00e+00	0	56	0	71303168	49	4552
2026-01-02 02:03:03.42	331.90	14.52	-38.4	-40.6	16.6	0.00e+00	0	56	0	73400320	48	4650
2026-01-02 02:03:04.43	331.70	14.54	-38.2	-40.4	16.9	0.00e+00	0	56	0	75497472	48	4503
2026-01-02 02:03:05.44	331.50	14.57	-37.7	-39.8	17.4	0.00e+00	0	56	0	77594624	47	4453
2026-01-02 02:03:06.45	331.29	14.60	-37.8	-39.9	17.3	0.00e+00	0	56	0	79691776	47	4496
2026-01-02 02:03:07.46	331.09	14.62	-37.7	-39.8	17.5	0.00e+00	0	56	0	80740352	47	4460
2026-01-02 02:03:08.47	330.88	14.65	-37.8	-39.9	17.4	0.00e+00	0	56	0	82837504	47	4516
2026-01-02 02:03:09.48	330.68	14.68	-38.0	-40.2	17.0	0.00e+00	0	56	0	84934656	47	4655
2026-01-02 02:03:10.49	330.47	14.70	-38.4	-40.6	16.7	0.00e+00	0	56	0	87031808	47	4923
2026-01-02 02:03:11.50	330.27	14.73	-38.6	-40.9	16.4	0.00e+00	0	56	0	89128960	47	5066
2026-01-02 02:03:12.51	330.06	14.75	-38.8	-41.2	16.2	0.00e+00	0	56	0	90177536	48	4946
2026-01-02 02:03:13.52	329.86	14.78	-38.8	-41.1	16.3	0.00e+00	0	56	0	92274688	48	4906
2026-01-02 02:03:14.53	329.65	14.80	-38.6	-40.9	16.4	0.00e+00	0	56	0	94371840	48	4807
2026-01-02 02:03:15.54	329.44	14.83	-38.6	-40.9	16.5	0.00e+00	0	56	0	96468992	48	4761
2026-01-02 02:03:16.55	329.23	14.85	-38.4	-40.5	16.8	0.00e+00	0	56	0	98566144	48	4592
2026-01-02 02:03:17.56	329.03	14.87	-38.3	-40.4	17.0	0.00e+00	0	56	0	99614720	48	4528
2026-01-02 02:03:18.57	328.82	14.90	-38.4	-40.6	16.7	0.00e+00	0	56	0	101711872	48	4641
2026-01-02 02:03:19.58	328.61	14.92	-38.7	-41.0	16.3	0.00e+00	0	56	0	103809024	48	4868
2026-01-02 02:03:20.59	328.40	14.94	-39.1	-41.6	15.8	0.00e+00	0	56	0	105906176	48	5161
2026-01-02 02:03:21.60	328.19	14.96	-39.2	-41.8	15.6	7.00e-07	0	56	0	108003328	49	5035
2026-01-02 02:03:22.61	327.98	14.99	-39.4	-42.2	15.2	0.00e+00	0	56	0	109051904	49	5230
2026-01-02 02:03:23.62	327.77	15.01	-39.4	-42.1	15.4	0.00e+00	0	56	0	111149056	49	5178
2026-01-02 02:03:24.63	327.56	15.03	-39.4	-42.1	15.3	0.00e+00	0	56	0	113246208	49	5181
2026-01-02 02:03:25.64	327.35	15.05	-39.2	-41.8	15.7	0.00e+00	0	56	0	115343360	49	4988
2026-01-02 02:03:26.65	327.14	15.07	-39.2	-41.9	15.5	0.00e+00	0	56	0	117440512	49	5055
2026-01-02 02:03:27.66	326.93	15.09	-39.2	-41.8	15.6	0.00e+00	0	56	0	118489088	49	4992
2026-01-02 02:03:28.67	326.72	15.11	-39.0	-41.6	15.8	0.00e+00	0	56	0	120586240	49	4880
2026-01-02 02:03:29.68	326.51	15.13	-39.0	-41.4	15.9	0.00e+00	0	56	0	122683392	49	4799
2026-01-02 02:03:30.68	326.30	15.15	-38.9	-41.3	16.1	0.00e+00	0	56	0	124780544	49	4732
2026-01-02 02:03:31.69	326.09	15.16	-38.9	-41.3	16.0	0.00e+00	0	56	0	126877696	49	4757
2026-01-02 02:03:32.71	325.87	15.18	-38.9	-41.3	16.0	0.00e+00	0	56	0	128974848	49	4753
2026-01-02 02:03:33.71	325.66	15.20	-39.0	-41.4	16.0	0.00e+00	0	56	0	130023424	49	4809
2026-01-02 02:03:34.72	325.45	15.22	-38.9	-41.3	16.1	0.00e+00	0	56	0	132120576	49	4718
2026-01-02 02:03:35.73	325.23	15.23	-38.9	-41.4	16.0	0.00e+00	0	56	0	134217728	49	4782
2026-01-02 02:03:36.74	325.02	15.25	-38.9	-41.3	16.1	0.00e+00	0	56	0	136314880	49	4735
2026-01-02 02:03:37.75	324.81	15.27	-38.6	-40.9	16.5	0.00e+00	0	56	0	138412032	49	4514
2026-01-02 02:03:38.76	324.59	15.28	-38.5	-40.7	16.6	0.00e+00	0	56	0	139460608	49	4431
2026-01-02 02:03:39.77	324.38	15.30	-38.3	-40.5	16.9	0.00e+00	0	56	0	141557760	48	4550
2026-01-02 02:03:40.78	324.17	15.31	-38.2	-40.3	17.0	0.00e+00	0	56	0	143654912	48	4451
2026-01-02 02:03:41.79	323.95	15.33	-38.2	-40.4	17.0	0.00e+00	0	56	0	145752064	48	4509
2026-01-02 02:03:42.80	323.74	15.34	-38.2	-40.4	17.0	0.00e+00	0	56	0	147849216	48	4503
2026-01-02 02:03:43.81	323.52	15.35	-38.2	-40.4	17.0	0.00e+00	0	56	0	148897792	48	4512
2026-01-02 02:03:44.82	323.31	15.37	-38.5	-40.8	16.6	0.00e+00	0	56	0	150994944	48	4709
2026-01-02 02:03:45.83	323.09	15.38	-38.7	-41.1	16.3	0.00e+00	0	56	0	153092096	48	4874
2026-01-02 02:03:46.84	322.88	15.39	-38.8	-41.2	16.2	0.00e+00	0	56	0	155189248	48	4931
2026-01-02 02:03:47.84	322.66	15.40	-39.0	-41.5	15.9	0.00e+00	0	56	0	157286400	48	5119
2026-01-02 02:03:48.85	322.45	15.42	-38.8	-41.3	16.0	0.00e+00	0	56	0	158334976	48	5018
2026-01-02 02:03:49.86	322.23	15.43	-38.9	-41.4	16.0	0.00e+00	0	56	0	160432128	48	5070
2026-01-02 02:03:50.87	322.01	15.44	-38.8	-41.3	16.1	0.00e+00	0	56	0	162529280	48	5005
2026-01-02 02:03:51.88	321.80	15.45	-38.9	-41.4	15.9	0.00e+00	0	56	0	164626432	48	5087
2026-01-02 02:03:52.89	321.58	15.46	-38.8	-41.3	16.1	0.00e+00	0	56	0	166723584	48	4988
2026-01-02 02:03:53.90	321.36	15.47	-38.6	-41.1	16.3	0.00e+00	0	56	0	167772160	48	4871
2026-01-02 02:03:54.91	321.15	15.48	-38.8	-41.3	16.1	0.00e+00	0	56	0	169869312	48	4990
2026-01-02 02:03:55.92	320.93	15.49	-38.9	-41.4	16.0	0.00e+00	0	56	0	171966464	48	5083
2026-01-02 02:03:56.93	320.71	15.49	-39.0	-41.6	15.8	0.00e+00	0	56	0	174063616	48	5177
2026-01-02 02:03:57.94	320.50	15.50	-39.3	-42.0	15.4	0.00e+00	0	56	0	176160768	49	5131
2026-01-02 02:03:58.95	320.28	15.51	-39.4	-42.2	15.2	0.00e+00	0	56	0	177209344	49	5255
2026-01-02 02:03:59.96	320.06	15.52	-39.4	-42.3	15.1	0.00e+00	0	56	0	179306496	49	5298
2026-01-02 02:04:00.97	319.84	15.52	-39.5	-42.4	14.9	0.00e+00	0	56	0	181403648	49	5367
2026-01-02 02:04:01.98	319.63	15.53	-39.4	-42.2	15.2	0.00e+00	0	56	0	183500800	49	5236
2026-01-02 02:04:02.99	319.41	15.53	-39.3	-42.0	15.4	0.00e+00	0	56	0	185597952	49	5142
2026-01-02 02:04:04.00	319.19	15.54	-39.1	-41.8	15.6	0.00e+00	0	56	0	186646528	49	5002
2026-01-02 02:04:05.01	318.97	15.55	-38.9	-41.5	15.8	0.00e+00	0	56	0	188743680	49	4838
2026-01-02 02:04:06.02	318.76	15.55	-38.8	-41.3	16.1	0.00e+00	0	56	0	190840832	49	4709
2026-01-02 02:04:07.03	318.54	15.55	-38.8	-41.2	16.1	0.00e+00	0	56	0	192937984	49	4705
2026-01-02 02:04:08.04	318.32	15.56	-38.8	-41.3	16.0	0.00e+00	0	56	0	195035136	49	4755
2026-01-02 02:04:09.05	318.10	15.56	-38.8	-41.4	16.0	0.00e+00	0	56	0	197132288	49	4764
2026-01-02 02:04:10.06	317.88	15.56	-38.9	-41.5	15.9	0.00e+00	0	56	0	198180864	49	4822
2026-01-02 02:04:11.07	317.67	15.57	-38.9	-41.5	15.8	0.00e+00	0	56	0	200278016	49	4847
2026-01-02 02:04:12.08	317.45	15.57	-38.9	-41.4	16.0	0.00e+00	0	56	0	202375168	49	4780
2026-01-02 02:04:13.09	317.23	15.57	-38.9	-41.4	16.0	0.00e+00	0	56	0	204472320	49	4782
2026-01-02 02:04:14.10	317.01	15.57	-38.8	-41.2	16.2	0.00e+00	0	56	0	206569472	49	4666
2026-01-02 02:04:15.11	316.79	15.57	-38.7	-41.1	16.3	0.00e+00	0	56	0	207618048	49	4604
2026-01-02 02:04:16.12	316.57	15.57	-38.6	-41.0	16.4	0.00e+00	0	56	0	209715200	49	4554
2026-01-02 02:04:17.13	316.36	15.57	-38.7	-41.0	16.3	0.00e+00	0	56	0	211812352	49	4593
2026-01-02 02:04:18.14	316.14	15.57	-38.7	-41.2	16.2	0.00e+00	0	56	0	213909504	49	4653
2026-01-02 02:04:19.15	315.92	15.57	-38.7	-41.1	16.2	0.00e+00	0	56	0	216006656	49	4651
2026-01-02 02:04:20.16	315.70	15.57	-38.9	-41.3	16.0	0.00e+00	0	56	0	217055232	49	4745
2026-01-02 02:04:21.17	315.48	15.57	-38.8	-41.3	16.1	0.00e+00	0	56	0	219152384	49	4721
2026-01-02 02:04:22.17	315.27	15.57	-38.8	-41.3	16.1	0.00e+00	0	56	0	221249536	49	4711
2026-01-02 02:04:23.18	315.05	15.56	-38.8	-41.2	16.1	0.00e+00	0	56	0	223346688	49	4701
2026-01-02 02:04:24.19	314.83	15.56	-38.7	-41.1	16.2	0.00e+00	0	56	0	225443840	49	4647
2026-01-02 02:04:25.20	314.61	15.56	-38.8	-41.3	16.1	0.00e+00	0	56	0	226492416	49	4718
2026-01-02 02:04:26.21	314.39	15.55	-38.7	-41.1	16.1	0.00e+00	0	56	0	228589568	49	4648
2026-01-02 02:04:27.22	314.18	15.55	-38.6	-41.0	16.3	0.00e+00	0	56	0	230686720	49	4582
2026-01-02 02:04:28.23	313.96	15.55	-38.6	-40.9	16.4	0.00e+00	0	56	0	232783872	49	4530
2026-01-02 02:04:29.24	313.74	15.54	-38.6	-41.0	16.4	0.00e+00	0	56	0	234881024	49	4568
2026-01-02 02:04:30.25	313.52	15.54	-38.6	-41.0	16.3	0.00e+00	0	56	0	235929600	49	4578
2026-01-02 02:04:31.26	313.30	15.53	-38.7	-41.2	16.2	0.00e+00	0	56	0	238026752	49	4662
2026-01-02 02:04:32.27	313.09	15.52	-39.0	-41.6	15.8	0.00e+00	0	56	0	240123904	49	4878
2026-01-02 02:04:33.28	312.87	15.52	-39.0	-41.5	15.8	0.00e+00	0	56	0	242221056	49	4850
2026-01-02 02:04:34.29	312.65	15.51	-38.9	-41.5	15.8	0.00e+00	0	56	0	244318208	49	4857
2026-01-02 02:04:35.30	312.43	15.50	-39.0	-41.6	15.7	0.00e+00	0	56	0	245366784	49	4923
2026-01-02 02:04:36.31	312.22	15.49	-39.0	-41.7	15.7	0.00e+00	0	56	0	247463936	49	4927
2026-01-02 02:04:37.32	312.00	15.49	-39.0	-41.7	15.7	0.00e+00	0	56	0	249561088	49	4931
2026-01-02 02:04:38.33	311.78	15.48	-39.0	-41.7	15.6	0.00e+00	0	56	0	251658240	49	4937
2026-01-02 02:04:39.34	311.57	15.47	-39.2	-42.0	15.4	0.00e+00	0	56	0	253755392	49	5115
2026-01-02 02:04:40.35	311.35	15.46	-39.3	-42.0	15.3	0.00e+00	0	56	0	254803968	49	5157
2026-01-02 02:04:41.36	311.13	15.45	-39.4	-42.3	15.1	0.00e+00	0	56	0	256901120	49	5307
2026-01-02 02:04:42.37	310.92	15.44	-39.4	-42.3	15.1	0.00e+00	0	56	0	258998272	49	5283
2026-01-02 02:04:43.38	310.70	15.43	-39.5	-42.4	14.9	0.00e+00	0	56	0	261095424	49	5397
2026-01-02 02:04:44.39	310.48	15.42	-39.5	-42.4	14.9	0.00e+00	0	56	0	263192576	49	5367
2026-01-02 02:04:45.40	310.27	15.41	-39.4	-42.3	15.1	0.00e+00	0	56	0	265289728	49	5336
2026-01-02 02:04:46.41	310.05	15.39	-39.3	-42.1	15.2	0.00e+00	0	56	0	266338304	49	5188
2026-01-02 02:04:47.42	309.84	15.38	-39.2	-42.0	15.4	0.00e+00	0	56	0	268435456	49	5119
2026-01-02 02:04:48.43	309.62	15.37	-39.1	-41.8	15.5	0.00e+00	0	56	0	270532608	49	5013
2026-01-02 02:04:49.44	309.40	15.36	-39.2	-41.9	15.4	0.00e+00	0	56	0	272629760	49	5081
2026-01-02 02:04:50.45	309.19	15.34	-39.1	-41.7	15.6	0.00e+00	0	56	0	274726912	49	4951
2026-01-02 02:04:51.46	308.97	15.33	-39.1	-41.7	15.7	0.00e+00	0	56	0	275775488	49	4951
2026-01-02 02:04:52.47	308.76	15.31	-39.2	-41.9	15.5	0.00e+00	0	56	0	277872640	49	5077
2026-01-02 02:04:53.48	308.55	15.30	-39.3	-41.9	15.4	0.00e+00	0	57	0	279969792	49	5089
2026-01-02 02:04:54.49	308.33	15.28	-39.4	-42.2	15.2	0.00e+00	0	56	0	282066944	49	5246
2026-01-02 02:04:55.50	308.12	15.27	-39.5	-42.3	15.1	0.00e+00	0	56	0	284164096	49	5330
2026-01-02 02:04:56.51	307.90	15.25	-39.4	-42.2	15.2	0.00e+00	0	56	0	285212672	49	5239
2026-01-02 02:04:57.52	307.69	15.24	-39.4	-42.1	15.3	0.00e+00	0	56	0	287309824	49	5186
2026-01-02 02:04:58.53	307.48	15.22	-39.2	-41.9	15.4	0.00e+00	0	56	0	289406976	49	5069
2026-01-02 02:04:59.54	307.26	15.20	-38.8	-41.3	16.1	0.00e+00	0	57	0	291504128	49	4716
2026-01-02 02:05:00.55	307.05	15.18	-38.6	-40.9	16.4	0.00e+00	0	56	0	293601280	49	4525
2026-01-02 02:05:01.56	306.84	15.17	-38.4	-40.7	16.7	0.00e+00	0	56	0	294649856	48	4655
2026-01-02 02:05:02.56	306.63	15.15	-38.2	-40.3	17.0	0.00e+00	0	56	0	296747008	48	4462
2026-01-02 02:05:03.57	306.41	15.13	-38.4	-40.5	17.0	0.00e+00	0	56	0	298844160	48	4567
2026-01-02 02:05:04.58	306.20	15.11	-38.3	-40.3	17.1	0.00e+00	0	56	0	300941312	48	4476
2026-01-02 02:05:05.59	305.99	15.09	-38.4	-40.5	17.0	0.00e+00	0	56	0	303038464	48	4566
2026-01-02 02:05:06.60	305.78	15.07	-38.6	-40.7	16.7	0.00e+00	0	57	0	304087040	48	4701
2026-01-02 02:05:07.61	305.57	15.05	-38.6	-40.8	16.7	0.00e+00	0	56	0	306184192	48	4717
2026-01-02 02:05:08.62	305.36	15.03	-38.7	-40.9	16.6	0.00e+00	0	56	0	308281344	48	4783
2026-01-02 02:05:09.63	305.15	15.01	-38.7	-40.9	16.6	0.00e+00	0	56	0	310378496	48	4764
2026-01-02 02:05:10.64	304.94	14.99	-38.9	-41.1	16.3	0.00e+00	0	56	0	312475648	48	4919
2026-01-02 02:05:11.65	304.73	14.97	-38.9	-41.2	16.3	0.00e+00	0	56	0	313524224	48	4946
2026-01-02 02:05:12.66	304.52	14.95	-39.0	-41.3	16.2	0.00e+00	0	57	0	315621376	48	4987
2026-01-02 02:05:13.67	304.31	14.92	-39.0	-41.3	16.2	0.00e+00	0	56	0	317718528	48	4992
2026-01-02 02:05:14.68	304.10	14.90	-39.2	-41.6	15.9	0.00e+00	0	56	0	319815680	48	5173
2026-01-02 02:05:15.69	303.89	14.88	-39.2	-41.5	16.0	0.00e+00	0	56	0	321912832	49	4847
2026-01-02 02:05:16.70	303.68	14.85	-39.2	-41.6	15.9	0.00e+00	0	56	0	322961408	49	4903
2026-01-02 02:05:17.71	303.47	14.83	-39.3	-41.8	15.6	0.00e+00	0	56	0	325058560	49	5013
2026-01-02 02:05:18.72	303.27	14.81	-39.3	-41.8	15.7	0.00e+00	0	57	0	327155712	49	4997
2026-01-02 02:05:19.72	303.06	14.78	-39.5	-42.0	15.4	0.00e+00	0	56	0	329252864	49	5121
2026-01-02 02:05:20.74	302.85	14.76	-39.3	-41.8	15.7	0.00e+00	0	56	0	331350016	49	5016
2026-01-02 02:05:21.75	302.65	14.73	-39.3	-41.7	15.7	0.00e+00	0	56	0	333447168	49	4978
2026-01-02 02:05:22.76	302.44	14.71	-39.1	-41.5	15.9	0.00e+00	0	56	0	334495744	49	4858
2026-01-02 02:05:23.77	302.23	14.68	-39.1	-41.4	16.1	0.00e+00	0	56	0	336592896	49	4770
2026-01-02 02:05:24.78	302.03	14.65	-38.9	-41.1	16.3	0.00e+00	0	56	0	338690048	49	4649
2026-01-02 02:05:25.79	301.82	14.63	-38.7	-40.9	16.5	0.00e+00	0	56	0	340787200	49	4502
2026-01-02 02:05:26.80	301.62	14.60	-38.5	-40.6	16.8	0.00e+00	0	56	0	342884352	49	4368
2026-01-02 02:05:27.80	301.42	14.57	-38.3	-40.3	17.0	0.00e+00	0	57	0	343932928	48	4485
2026-01-02 02:05:28.81	301.21	14.55	-38.4	-40.4	17.0	0.00e+00	0	57	0	346030080	48	4526
2026-01-02 02:05:29.82	301.01	14.52	-38.3	-40.3	17.0	0.00e+00	0	56	0	348127232	48	4461
2026-01-02 02:05:30.83	300.80	14.49	-38.4	-40.4	16.9	0.00e+00	0	57	0	350224384	48	4519
2026-01-02 02:05:31.84	300.60	14.46	-38.2	-40.2	17.2	0.00e+00	0	57	0	352321536	48	4412
2026-01-02 02:05:32.85	300.40	14.43	-38.3	-40.2	17.1	0.00e+00	0	57	0	353370112	48	4441
2026-01-02 02:05:33.86	300.20	14.40	-38.2	-40.1	17.2	0.00e+00	0	56	0	355467264	48	4382
2026-01-02 02:05:34.87	300.00	14.37	-38.3	-40.3	17.1	0.00e+00	0	57	0	357564416	48	4462
2026-01-02 02:05:35.88	299.79	14.35	-38.3	-40.4	16.9	0.00e+00	0	57	0	359661568	48	4505
2026-01-02 02:05:36.89	299.59	14.31	-38.5	-40.5	16.8	0.00e+00	0	57	0	361758720	48	4592
2026-01-02 02:05:37.90	299.39	14.28	-38.7	-40.8	16.5	0.00e+00	0	56	0	362807296	48	4748
2026-01-02 02:05:38.91	299.19	14.25	-38.7	-40.8	16.5	0.00e+00	0	57	0	364904448	48	4738
2026-01-02 02:05:39.92	298.99	14.22	-38.9	-41.2	16.2	0.00e+00	0	57	0	367001600	48	4927
2026-01-02 02:05:40.92	298.80	14.19	-38.9	-41.1	16.3	0.00e+00	0	57	0	369098752	48	4904
2026-01-02 02:05:41.93	298.60	14.16	-38.8	-41.0	16.3	0.00e+00	0	56	0	371195904	48	4870
2026-01-02 02:05:42.95	298.40	14.13	-38.9	-41.2	16.2	0.00e+00	0	56	0	372244480	48	4955
2026-01-02 02:05:43.95	298.20	14.10	-39.0	-41.3	16.0	0.00e+00	0	56	0	374341632	48	5010
2026-01-02 02:05:44.96	298.00	14.06	-39.0	-41.2	16.1	0.00e+00	0	57	0	376438784	48	4977
2026-01-02 02:05:45.97	297.81	14.03	-38.9	-41.2	16.1	0.00e+00	0	57	0	378535936	48	4966
2026-01-02 02:05:46.98	297.61	14.00	-39.1	-41.5	15.9	0.00e+00	0	57	0	380633088	48	5107
2026-01-02 02:05:47.99	297.41	13.96	-39.1	-41.5	15.8	0.00e+00	0	57	0	381681664	48	5141
2026-01-02 02:05:49.00	297.22	13.93	-39.1	-41.4	15.9	0.00e+00	0	56	0	383778816	48	5076
2026-01-02 02:05:50.01	297.02	13.90	-39.2	-41.6	15.7	0.00e+00	0	56	0	385875968	48	5204
2026-01-02 02:05:51.02	296.83	13.86	-39.1	-41.5	15.8	0.00e+00	0	57	0	387973120	49	4842
2026-01-02 02:05:52.03	296.63	13.83	-39.0	-41.3	16.0	0.00e+00	0	57	0	390070272	49	4729
2026-01-02 02:05:53.04	296.44	13.79	-39.0	-41.4	15.9	0.00e+00	0	57	0	391118848	49	4783
2026-01-02 02:05:54.05	296.25	13.76	-38.9	-41.2	16.1	0.00e+00	0	56	0	393216000	49	4678
2026-01-02 02:05:55.05	296.05	13.72	-38.8	-41.1	16.2	0.00e+00	0	57	0	395313152	49	4621
2026-01-02 02:05:56.07	295.86	13.69	-38.7	-41.0	16.3	0.00e+00	0	57	0	397410304	49	4554
2026-01-02 02:05:57.08	295.67	13.65	-38.7	-40.9	16.3	0.00e+00	0	57	0	399507456	49	4531
2026-01-02 02:05:58.08	295.48	13.62	-38.7	-41.0	16.3	0.00e+00	0	57	0	401604608	49	4550
2026-01-02 02:05:59.09	295.29	13.58	-38.7	-41.0	16.2	0.00e+00	0	57	0	402653184	49	4574
2026-01-02 02:06:00.11	295.09	13.54	-38.8	-41.1	16.1	0.00e+00	0	57	0	404750336	49	4612
2026-01-02 02:06:01.12	294.90	13.50	-38.6	-40.9	16.3	0.00e+00	0	57	0	406847488	49	4503
2026-01-02 02:06:02.13	294.71	13.47	-38.6	-40.8	16.2	0.00e+00	0	56	0	408944640	49	4488
2026-01-02 02:06:03.13	294.53	13.43	-38.7	-41.0	16.1	0.00e+00	0	57	0	411041792	49	4553
2026-01-02 02:06:04.14	294.34	13.39	-38.5	-40.7	16.3	0.00e+00	0	57	0	412090368	48	4677
2026-01-02 02:06:05.14	294.15	13.36	-38.5	-40.7	16.2	0.00e+00	0	57	0	414187520	48	4704
2026-01-02 02:06:06.15	293.96	13.32	-38.2	-40.4	16.5	0.00e+00	0	57	0	416284672	48	4507
2026-01-02 02:06:07.16	293.78	13.28	-38.1	-40.2	16.7	0.00e+00	0	56	0	418381824	48	4426
2026-01-02 02:06:08.17	293.59	13.24	-38.0	-40.1	16.7	0.00e+00	0	56	0	420478976	48	4389
2026-01-02 02:06:09.18	293.40	13.20	-38.1	-40.2	16.6	0.00e+00	0	57	0	421527552	48	4421
2026-01-02 02:06:10.19	293.22	13.16	-38.2	-40.4	16.4	0.00e+00	0	57	0	423624704	48	4521
2026-01-02 02:06:11.20	293.03	13.12	-38.4	-40.7	16.0	0.00e+00	0	57	0	425721856	48	4702
2026-01-02 02:06:12.21	292.85	13.08	-38.6	-41.0	15.6	0.00e+00	0	57	0	427819008	48	4864
2026-01-02 02:06:13.22	292.66	13.04	-38.8	-41.4	15.4	0.00e+00	0	56	0	429916160	48	5050
2026-01-02 02:06:14.23	292.48	13.00	-39.0	-41.6	15.1	0.00e+00	0	57	0	430964736	48	5204
2026-01-02 02:06:15.24	292.30	12.96	-39.1	-41.8	14.9	0.00e+00	0	57	0	433061888	48	5328
2026-01-02 02:06:16.25	292.11	12.92	-39.2	-42.0	14.6	0.00e+00	0	57	0	435159040	49	5140
2026-01-02 02:06:17.26	291.93	12.88	-39.3	-42.2	14.3	7.00e-07	0	57	0	437256192	49	5259
2026-01-02 02:06:18.27	291.75	12.84	-39.6	-42.8	13.7	7.00e-07	0	57	0	439353344	49	5643
2026-01-02 02:06:19.28	291.57	12.80	-39.6	-42.9	13.7	4.50e-06	0	56	0	440401920	49	5659
2026-01-02 02:06:20.29	291.39	12.76	-39.6	-42.9	13.6	6.10e-06	0	57	0	442499072	49	5674
2026-01-02 02:06:21.30	291.21	12.72	-39.5	-42.7	13.7	5.30e-06	0	57	0	444596224	49	5552
2026-01-02 02:06:22.31	291.03	12.67	-39.6	-42.8	13.6	9.10e-06	0	56	0	446693376	49	5647
2026-01-02 02:06:23.32	290.85	12.63	-39.5	-42.7	13.7	4.50e-06	0	57	0	448790528	49	5589
2026-01-02 02:06:24.33	290.67	12.59	-39.3	-42.3	14.0	3.80e-06	0	57	0	449839104	49	5326
2026-01-02 02:06:25.34	290.49	12.55	-39.4	-42.4	14.0	3.80e-06	0	56	0	451936256	49	5378
2026-01-02 02:06:26.35	290.31	12.51	-39.2	-42.1	14.3	7.00e-07	0	57	0	454033408	49	5192
2026-01-02 02:06:27.36	290.14	12.46	-39.2	-42.2	14.2	2.20e-06	0	57	0	456130560	49	5225
2026-01-02 02:06:28.37	289.96	12.42	-39.3	-42.3	14.0	7.00e-07	0	56	0	458227712	49	5337
2026-01-02 02:06:29.38	289.78	12.38	-39.5	-42.7	13.6	3.00e-06	0	57	0	459276288	49	5580
2026-01-02 02:06:30.39	289.61	12.33	-39.4	-42.6	13.6	3.80e-06	0	57	0	461373440	49	5528
2026-01-02 02:06:31.40	289.43	12.29	-39.5	-42.9	13.3	1.98e-05	0	56	0	463470592	49	5690
2026-01-02 02:06:32.41	289.26	12.25	-39.7	-43.2	13.0	4.04e-05	0	57	0	465567744	50	5545
2026-01-02 02:06:33.42	289.08	12.20	-39.8	-43.4	12.6	7.17e-05	0	56	0	467664896	50	5689
2026-01-02 02:06:34.42	288.91	12.16	-39.9	-43.7	12.2	1.27e-04	0	57	0	468713472	50	5880
2026-01-02 02:06:35.43	288.74	12.11	-39.8	-43.8	11.9	2.41e-04	0	57	0	470810624	50	5960
2026-01-02 02:06:36.44	288.57	12.07	-39.9	-44.0	11.6	4.78e-04	0	57	0	472907776	50	6084
2026-01-02 02:06:37.45	288.39	12.03	-40.0	-44.4	11.2	1.03e-03	0	57	0	475004928	50	6379
2026-01-02 02:06:38.46	288.22	11.98	-40.1	-44.8	10.7	2.55e-03	0	57	0	477102080	50	6649
2026-01-02 02:06:39.47	288.05	11.94	-40.3	-45.5	9.7	8.46e-03	0	57	0	479199232	51	6863
2026-01-02 02:06:40.48	287.88	11.89	-40.4	-46.0	9.1	1.59e-02	0	57	0	480247808	51	7275
2026-01-02 02:06:41.49	287.71	11.85	-40.5	-46.5	8.5	3.22e-02	0	56	0	482344960	51	7681
2026-01-02 02:06:42.50	287.54	11.80	-40.5	-46.7	8.1	5.27e-02	0	57	0	484442112	51	7898
2026-01-02 02:06:43.51	287.37	11.75	-40.5	-47.1	7.8	7.61e-02	0	57	0	486539264	51	8202
2026-01-02 02:06:44.52	287.20	11.71	-40.5	-47.2	7.6	8.22e-02	0	57	0	488636416	51	8318
2026-01-02 02:06:45.53	287.04	11.66	-40.4	-47.2	7.5	8.83e-02	0	57	0	489684992	51	8349
2026-01-02 02:06:46.54	286.87	11.62	-40.3	-47.1	7.5	1.01e-01	0	57	0	491782144	51	8214
2026-01-02 02:06:47.55	286.70	11.57	-40.3	-47.6	7.0	1.23e-01	0	57	0	493879296	51	8673
2026-01-02 02:06:48.56	286.54	11.52	-40.4	-47.7	6.9	1.70e-01	0	57	0	495976448	51	8793
2026-01-02 02:06:49.57	286.37	11.48	-40.4	-48.2	6.4	2.15e-01	0	57	0	498073600	51	9356
2026-01-02 02:06:50.58	286.21	11.43	-40.5	-48.5	6.1	2.61e-01	0	57	0	499122176	51	9686
2026-01-02 02:06:51.59	286.04	11.38	-40.6	-49.2	5.6	3.30e-01	0	56	0	501219328	51	10444
2026-01-02 02:06:52.59	285.88	11.34	-40.7	-49.5	5.4	4.92e-01	0	57	0	503316480	51	10869
2026-01-02 02:06:53.60	285.72	11.29	-40.7	-49.9	5.2	5.79e-01	0	57	0	505413632	52	10707
2026-01-02 02:06:54.61	285.55	11.24	-40.8	-50.3	5.0	7.08e-01	0	57	0	507510784	52	11177
2026-01-02 02:06:55.62	285.39	11.20	-40.8	-49.8	5.3	7.01e-01	0	57	0	508559360	52	10562
2026-01-02 02:06:56.63	285.23	11.15	-40.9	-49.8	5.4	5.45e-01	0	57	0	510656512	52	10620
2026-01-02 02:06:57.64	285.07	11.10	-41.0	-49.5	5.7	5.09e-01	0	57	0	512753664	52	10215
2026-01-02 02:06:58.65	284.91	11.05	-41.1	-48.9	6.3	3.38e-01	0	57	0	514850816	52	9546
2026-01-02 02:06:59.66	284.75	11.01	-41.0	-48.5	6.6	2.20e-01	0	57	0	516947968	52	9106
2026-01-02 02:07:00.67	284.59	10.96	-40.8	-48.0	6.9	1.91e-01	0	57	0	517996544	52	8593
2026-01-02 02:07:01.68	284.43	10.91	-40.8	-47.5	7.6	1.68e-01	0	57	0	520093696	52	8098
2026-01-02 02:07:02.69	284.27	10.86	-40.9	-47.1	8.2	6.09e-02	0	57	0	522190848	52	7747
2026-01-02 02:07:03.70	284.11	10.81	-41.1	-47.4	8.1	4.88e-02	0	57	0	524288000	52	7999
2026-01-02 02:07:04.71	283.95	10.77	-41.1	-47.0	8.5	4.33e-02	0	57	0	526385152	52	7717
2026-01-02 02:07:05.72	283.79	10.72	-41.1	-46.9	8.8	3.25e-02	0	57	0	527433728	52	7580
2026-01-02 02:07:06.73	283.64	10.67	-41.2	-46.9	8.9	3.42e-02	0	57	0	529530880	53	7150
2026-01-02 02:07:07.74	283.48	10.62	-41.3	-47.2	8.7	3.19e-02	0	57	0	531628032	53	7382
2026-01-02 02:07:08.75	283.33	10.57	-41.5	-47.6	8.4	3.59e-02	0	57	0	533725184	53	7768
2026-01-02 02:07:09.75	283.17	10.52	-41.6	-47.7	8.4	3.99e-02	0	57	0	535822336	53	7827
2026-01-02 02:07:10.76	283.02	10.47	-41.7	-47.9	8.3	4.90e-02	0	57	0	536870912	54	7584
2026-01-02 02:07:11.77	282.86	10.42	-41.6	-47.3	9.0	4.21e-02	0	57	0	538968064	54	7071
2026-01-02 02:07:12.78	282.71	10.38	-41.5	-47.0	9.3	2.14e-02	0	57	0	541065216	54	6824
2026-01-02 02:07:13.79	282.56	10.33	-41.4	-46.7	9.7	1.32e-02	0	57	0	543162368	54	6581
2026-01-02 02:07:14.80	282.40	10.28	-41.4	-46.6	9.7	9.19e-03	0	57	0	545259520	54	6518
2026-01-02 02:07:15.81	282.25	10.23	-41.3	-46.4	9.9	9.72e-03	0	57	0	546308096	54	6401
2026-01-02 02:07:16.82	282.10	10.18	-41.2	-46.2	10.1	5.13e-03	0	57	0	548405248	54	6265
2026-01-02 02:07:17.83	281.95	10.13	-41.1	-46.0	10.3	6.30e-03	0	57	0	550502400	54	6070
2026-01-02 02:07:18.84	281.80	10.08	-41.0	-45.7	10.6	4.14e-03	0	57	0	552599552	54	5904
2026-01-02 02:07:19.85	281.65	10.03	-41.1	-45.9	10.4	4.49e-03	0	57	0	554696704	54	6009
2026-01-02 02:07:20.86	281.50	9.98	-41.0	-45.8	10.5	3.90e-03	0	57	0	555745280	54	5929
2026-01-02 02:07:21.87	281.35	9.93	-40.9	-45.6	10.5	3.92e-03	0	57	0	557842432	53	6200
2026-01-02 02:07:22.87	281.21	9.88	-40.9	-45.6	10.6	3.29e-03	0	57	0	559939584	53	6147
2026-01-02 02:07:23.89	281.06	9.83	-40.8	-45.4	10.7	3.37e-03	0	57	0	562036736	53	5995
2026-01-02 02:07:24.90	280.91	9.78	-40.5	-44.9	11.1	2.55e-03	0	57	0	564133888	53	5669
2026-01-02 02:07:25.91	280.76	9.73	-40.6	-45.3	10.7	2.77e-03	0	57	0	565182464	53	5930
2026-01-02 02:07:26.92	280.62	9.68	-40.6	-45.4	10.4	3.96e-03	0	57	0	567279616	53	6031
2026-01-02 02:07:27.93	280.47	9.63	-40.6	-45.5	10.2	4.95e-03	0	57	0	569376768	53	6117
2026-01-02 02:07:28.94	280.32	9.57	-40.6	-45.8	9.9	8.02e-03	0	57	0	571473920	53	6290
2026-01-02 02:07:29.95	280.18	9.52	-40.7	-46.0	9.5	1.28e-02	0	57	0	573571072	53	6481
2026-01-02 02:07:30.96	280.04	9.47	-40.8	-46.5	8.9	1.88e-02	0	57	0	575668224	53	6811
2026-01-02 02:07:31.97	279.89	9.42	-40.8	-46.8	8.5	3.39e-02	0	57	0	576716800	53	7049
2026-01-02 02:07:32.98	279.75	9.37	-40.7	-46.9	8.3	4.28e-02	0	57	0	578813952	53	7128
2026-01-02 02:07:33.99	279.61	9.32	-40.7	-47.0	8.1	5.35e-02	0	57	0	580911104	53	7217
2026-01-02 02:07:34.99	279.47	9.27	-40.7	-47.0	8.0	5.74e-02	0	57	0	583008256	53	7287
2026-01-02 02:07:36.00	279.32	9.22	-40.8	-47.5	7.6	8.18e-02	0	57	0	585105408	53	7648
2026-01-02 02:07:37.01	279.18	9.17	-40.7	-47.6	7.5	9.89e-02	0	57	0	586153984	53	7727
2026-01-02 02:07:38.02	279.04	9.12	-40.7	-48.0	6.9	1.49e-01	0	57	0	588251136	53	8123
2026-01-02 02:07:39.03	278.90	9.07	-40.7	-48.2	6.7	1.79e-01	0	57	0	590348288	53	8299
2026-01-02 02:07:40.04	278.76	9.01	-40.7	-48.3	6.5	2.03e-01	0	57	0	592445440	53	8446
2026-01-02 02:07:41.05	278.62	8.96	-40.7	-48.7	6.2	2.44e-01	0	57	0	594542592	53	8783
2026-01-02 02:07:42.06	278.48	8.91	-40.8	-49.1	5.8	3.57e-01	0	57	0	595591168	53	9260
2026-01-02 02:07:43.07	278.35	8.86	-40.7	-49.5	5.4	4.45e-01	0	57	0	597688320	53	9708
2026-01-02 02:07:44.08	278.21	8.81	-40.6	-49.7	5.3	5.40e-01	0	57	0	599785472	53	9918
2026-01-02 02:07:45.09	278.07	8.76	-40.6	-50.3	4.9	7.37e-01	0	57	0	601882624	53	10574
2026-01-02 02:07:46.10	277.93	8.70	-40.4	-50.7	4.6	8.63e-01	0	57	0	603979776	52	11748
2026-01-02 02:07:47.11	277.80	8.65	-40.3	-51.1	4.4	9.80e-01	0	57	0	605028352	52	12306
2026-01-02 02:07:48.12	277.66	8.60	-40.3	-51.5	4.3	1.33e+00	0	57	0	607125504	52	12951
2026-01-02 02:07:49.13	277.53	8.55	-40.2	-51.8	4.2	1.39e+00	0	57	0	607125504	52	13349
2026-01-02 02:07:50.14	277.39	8.50	-40.1	-52.3	3.9	1.43e+00	0	57	104	607125504	52	14067
2026-01-02 02:07:51.15	277.26	8.45	-40.1	-52.6	3.8	1.47e+00	0	57	104	607125504	52	14616
2026-01-02 02:07:52.16	277.12	8.39	-40.0	-52.8	3.9	1.49e+00	0	57	104	607125504	52	14926
2026-01-02 02:07:53.17	276.99	8.34	-40.0	-52.9	3.8	1.49e+00	0	57	104	607125504	52	15124
2026-01-02 02:07:54.18	276.86	8.29	-40.1	-53.1	3.8	1.48e+00	0	57	104	607125504	52	15517
2026-01-02 02:07:55.19	276.73	8.24	-40.0	-53.2	3.8	1.49e+00	0	57	104	607125504	52	15743
2026-01-02 02:07:56.20	276.59	8.19	-40.1	-53.5	3.8	1.49e+00	0	57	104	607125504	51	17088
2026-01-02 02:07:57.21	276.46	8.13	-40.0	-53.6	3.8	1.49e+00	0	57	104	607125504	51	17479
2026-01-02 02:07:58.22	276.33	8.08	-40.0	-53.7	3.8	1.49e+00	0	57	104	607125504	51	17632
2026-01-02 02:07:59.23	276.20	8.03	-40.0	-53.9	3.8	1.49e+00	0	57	104	607125504	51	17897
2026-01-02 02:08:00.23	276.07	7.98	-44.1	-58.5	3.8	1.49e+00	0	57	104	607125504	58	20335
2026-01-02 02:08:01.25	275.94	7.93	-44.5	-58.9	3.8	1.49e+00	0	57	104	607125504	59	20132
2026-01-02 02:08:02.26	275.81	7.87	-44.7	-59.0	3.8	1.49e+00	0	57	104	607125504	59	20532
2026-01-02 02:08:03.27	275.68	7.82	-44.7	-59.3	3.8	1.49e+00	0	57	104	607125504	60	20009
2026-01-02 02:08:04.28	275.56	7.77	-44.8	-59.4	3.8	1.49e+00	0	57	104	607125504	60	20083
2026-01-02 02:08:05.29	275.43	7.72	-44.8	-59.4	3.8	1.49e+00	0	57	104	607125504	60	20177
2026-01-02 02:08:06.30	275.30	7.66	-44.9	-59.4	3.8	1.49e+00	0	57	104	607125504	60	20292
2026-01-02 02:08:07.31	275.17	7.61	-44.9	-59.5	3.8	1.49e+00	0	57	104	607125504	60	20304
2026-01-02 02:08:08.32	275.05	7.56	-44.9	-59.4	3.8	1.49e+00	0	57	104	607125504	60	20283
2026-01-02 02:08:09.34	274.92	7.51	-44.9	-59.4	3.8	1.49e+00	0	57	104	607125504	60	20228
2026-01-02 02:08:10.35	274.80	7.45	-44.8	-59.4	3.8	1.49e+00	0	57	104	607125504	60	20218
2026-01-02 02:08:11.36	274.67	7.40	-44.8	-59.4	3.8	1.49e+00	0	57	104	607125504	60	20116
2026-01-02 02:08:12.37	274.55	7.35	-44.8	-59.4	3.8	1.49e+00	0	57	104	607125504	60	20105
2026-01-02 02:08:13.38	274.42	7.30	-44.8	-59.3	3.8	1.49e+00	0	57	104	607125504	60	19992
2026-01-02 02:08:14.39	274.30	7.24	-44.8	-59.3	3.8	1.49e+00	0	57	104	607125504	60	20036
2026-01-02 02:08:15.40	274.18	7.19	-44.8	-59.3	3.8	1.49e+00	0	57	104	607125504	60	20071
2026-01-02 02:08:16.41	274.05	7.14	-44.8	-59.3	3.8	1.49e+00	0	57	104	607125504	60	20002
2026-01-02 02:08:17.42	273.93	7.09	-44.8	-59.4	3.8	1.49e+00	0	57	104	607125504	60	20076
2026-01-02 02:08:18.43	273.81	7.03	-44.8	-59.3	3.8	1.49e+00	0	57	104	607125504	60	20023
2026-01-02 02:08:19.44	273.69	6.98	-44.8	-59.3	3.8	1.49e+00	0	57	104	607125504	60	19993
2026-01-02 02:08:20.45	273.57	6.93	-44.8	-59.3	3.8	1.49e+00	0	57	104	607125504	60	20026
2026-01-02 02:08:21.46	273.45	6.88	-44.8	-59.3	3.8	1.49e+00	0	57	104	607125504	60	19980
2026-01-02 02:08:22.47	273.33	6.82	-44.8	-59.3	3.8	1.49e+00	0	57	104	607125504	60	19990
2026-01-02 02:08:23.49	273.21	6.77	-44.8	-59.3	3.8	1.49e+00	0	57	104	607125504	60	19990
2026-01-02 02:08:24.50	273.09	6.72	-44.8	-59.3	3.8	1.49e+00	0	57	104	607125504	60	19943
2026-01-02 02:08:25.51	272.97	6.66	-44.8	-59.3	3.8	1.49e+00	0	57	104	607125504	60	19982
2026-01-02 02:08:26.52	272.85	6.61	-44.8	-59.3	3.8	1.49e+00	0	57	104	607125504	60	20001
2026-01-02 02:08:27.53	272.73	6.56	-44.8	-59.3	3.8	1.49e+00	0	57	104	607125504	60	19976
2026-01-02 02:08:28.54	272.62	6.51	-44.8	-59.3	3.8	1.49e+00	0	57	104	607125504	60	19931
2026-01-02 02:08:29.55	272.50	6.45	-44.8	-59.3	3.8	1.49e+00	0	57	104	607125504	60	19941
2026-01-02 02:08:30.56	272.38	6.40	-44.8	-59.3	3.8	1.49e+00	0	57	104	607125504	60	19938
2026-01-02 02:08:31.57	272.27	6.35	-44.8	-59.3	3.8	1.49e+00	0	57	104	607125504	60	19958
2026-01-02 02:08:32.58	272.15	6.30	-44.8	-59.3	3.8	1.49e+00	0	57	104	607125504	60	19909
2026-01-02 02:08:33.60	272.04	6.24	-44.8	-59.3	3.8	1.49e+00	0	57	104	607125504	60	19926
2026-01-02 02:08:34.61	271.92	6.19	-44.8	-59.3	3.8	1.49e+00	0	57	104	607125504	60	19884
2026-01-02 02:08:35.62	271.81	6.14	-44.7	-59.3	3.8	1.49e+00	0	57	104	607125504	60	19886
2026-01-02 02:08:36.63	271.69	6.08	-44.8	-59.3	3.8	1.49e+00	0	57	104	607125504	60	19953
2026-01-02 02:08:37.64	271.58	6.03	-44.8	-59.3	3.8	1.49e+00	0	57	104	607125504	60	19940
2026-01-02 02:08:38.65	271.47	5.98	-44.8	-59.3	3.8	1.49e+00	0	57	104	607125504	60	19870
2026-01-02 02:08:39.66	271.35	5.93	-44.8	-59.3	3.8	1.49e+00	0	57	104	607125504	60	19916
2026-01-02 02:08:40.67	271.24	5.87	-44.7	-59.3	3.8	1.49e+00	0	57	104	607125504	60	19934
2026-01-02 02:08:41.68	271.13	5.82	-44.7	-59.3	3.8	1.49e+00	0	57	104	607125504	60	19906
2026-01-02 02:08:42.69	271.02	5.77	-44.7	-59.3	3.8	1.49e+00	0	57	104	607125504	60	19925
2026-01-02 02:08:43.71	270.91	5.71	-44.7	-59.3	3.8	1.49e+00	0	57	104	607125504	60	19856
2026-01-02 02:08:44.72	270.80	5.66	-44.7	-59.3	3.8	1.49e+00	0	57	104	607125504	60	19931
2026-01-02 02:08:45.73	270.69	5.61	-44.7	-59.3	3.8	1.49e+00	0	57	104	607125504	60	19927
2026-01-02 02:08:46.74	270.58	5.56	-44.7	-59.3	3.8	1.49e+00	0	57	104	607125504	60	19875
2026-01-02 02:08:47.75	270.47	5.50	-44.7	-59.3	3.8	1.49e+00	0	57	104	607125504	60	19844
2026-01-02 02:08:48.76	270.36	5.45	-44.7	-59.3	3.8	1.49e+00	0	57	104	607125504	60	19902
2026-01-02 02:08:49.78	270.25	5.40	-44.7	-59.3	3.8	1.49e+00	0	57	104	607125504	60	19855
2026-01-02 02:08:50.79	270.14	5.35	-44.7	-59.3	3.8	1.49e+00	0	57	104	607125504	60	19877
2026-01-02 02:08:51.80	270.03	5.29	-44.7	-59.3	3.8	1.49e+00	0	57	104	607125504	60	19882
2026-01-02 02:08:52.81	269.92	5.24	-44.7	-59.3	3.8	1.49e+00	0	57	104	607125504	60	19855
2026-01-02 02:08:53.82	269.82	5.19	-44.7	-59.3	3.8	1.49e+00	0	57	104	607125504	60	19848
2026-01-02 02:08:54.83	269.71	5.14	-44.7	-59.3	3.8	1.49e+00	0	57	104	607125504	60	19847
2026-01-02 02:08:55.84	269.61	5.08	-44.7	-59.3	3.8	1.49e+00	0	57	104	607125504	60	19850
2026-01-02 02:08:56.85	269.50	5.03	-44.7	-59.3	3.8	1.49e+00	0	57	104	607125504	60	19861
2026-01-02 02:08:57.86	269.39	4.98	-44.7	-59.2	3.8	1.49e+00	0	57	104	607125504	60	19821
2026-01-02 02:08:58.87	269.29	4.93	-44.7	-59.2	3.8	1.49e+00	0	57	104	607125504	60	19795
2026-01-02 02:08:59.89	269.18	4.87	-44.7	-59.3	3.8	1.49e+00	0	57	104	607125504	60	19863
2026-01-02 02:09:00.87	269.08	4.82	-44.7	-59.2	3.8	1.49e+00	0	57	104	607125504	60	19817
2026-01-02 02:09:01.88	268.98	4.77	-44.7	-59.3	3.8	1.49e+00	0	57	104	607125504	60	19870
2026-01-02 02:09:02.89	268.88	4.72	-44.7	-59.3	3.8	1.49e+00	0	57	104	607125504	60	19881
2026-01-02 02:09:03.90	268.77	4.66	-44.7	-59.2	3.8	1.49e+00	0	57	104	607125504	60	19802
2026-01-02 02:09:04.91	268.67	4.61	-44.7	-59.2	3.8	1.49e+00	0	57	104	607125504	60	19816
2026-01-02 02:09:05.93	268.57	4.56	-44.7	-59.2	3.8	1.49e+00	0	57	104	607125504	60	19810
2026-01-02 02:09:06.94	268.46	4.51	-44.7	-59.3	3.8	1.49e+00	0	57	104	607125504	60	19846
2026-01-02 02:09:07.95	268.36	4.45	-44.7	-59.3	3.8	1.49e+00	0	57	104	607125504	60	19887
2026-01-02 02:09:08.96	268.26	4.40	-44.7	-59.3	3.8	1.49e+00	0	57	104	607125504	60	19894
2026-01-02 02:09:09.97	268.16	4.35	-44.7	-59.3	3.8	1.49e+00	0	57	104	607125504	60	19853
2026-01-02 02:09:10.98	268.06	4.30	-44.7	-59.3	3.8	1.49e+00	0	57	104	607125504	60	19872
2026-01-02 02:09:11.99	267.96	4.24	-44.7	-59.2	3.8	1.49e+00	0	57	104	607125504	60	19830
2026-01-02 02:09:13.00	267.86	4.19	-44.7	-59.3	3.8	1.49e+00	0	57	104	607125504	60	19850
2026-01-02 02:09:14.01	267.76	4.14	-44.7	-59.2	3.8	1.49e+00	0	57	104	607125504	60	19814
2026-01-02 02:09:15.02	267.66	4.09	-44.7	-59.3	3.8	1.49e+00	0	57	104	607125504	60	19846
2026-01-02 02:09:16.04	267.56	4.04	-44.7	-59.2	3.8	1.49e+00	0	57	104	607125504	60	19820
2026-01-02 02:09:17.05	267.46	3.98	-44.7	-59.2	3.8	1.49e+00	0	57	104	607125504	60	19828
2026-01-02 02:09:18.06	267.37	3.93	-44.7	-59.3	3.8	1.49e+00	0	57	104	607125504	60	19843
2026-01-02 02:09:19.07	267.27	3.88	-44.7	-59.3	3.8	1.49e+00	0	57	104	607125504	60	19873
2026-01-02 02:09:20.08	267.17	3.83	-44.7	-59.3	3.8	1.49e+00	0	57	104	607125504	60	19858
2026-01-02 02:09:21.09	267.07	3.77	-44.7	-59.2	3.8	1.49e+00	0	57	104	607125504	60	19836
2026-01-02 02:09:22.10	266.98	3.72	-44.7	-59.2	3.8	1.49e+00	0	57	104	607125504	60	19833
2026-01-02 02:09:23.11	266.88	3.67	-44.7	-59.2	3.8	1.49e+00	0	57	104	607125504	60	19807
2026-01-02 02:09:24.12	266.79	3.62	-44.7	-59.2	3.8	1.49e+00	0	57	104	607125504	60	19810
2026-01-02 02:09:25.13	266.69	3.57	-44.7	-59.2	3.8	1.49e+00	0	57	104	607125504	60	19831
2026-01-02 02:09:26.15	266.59	3.51	-44.7	-59.3	3.8	1.49e+00	0	57	104	607125504	60	19873
2026-01-02 02:09:27.16	266.50	3.46	-44.7	-59.3	3.8	1.49e+00	0	57	104	607125504	60	19852
2026-01-02 02:09:28.17	266.40	3.41	-44.7	-59.3	3.8	1.49e+00	0	57	104	607125504	60	19872
2026-01-02 02:09:29.18	266.31	3.36	-44.7	-59.2	3.8	1.49e+00	0	57	104	607125504	60	19824
2026-01-02 02:09:30.19	266.22	3.31	-44.7	-59.3	3.8	1.49e+00	0	57	104	607125504	60	19858
2026-01-02 02:09:31.20	266.12	3.25	-44.7	-59.2	3.8	1.49e+00	0	57	104	607125504	60	19811
2026-01-02 02:09:32.21	266.03	3.20	-44.7	-59.2	3.8	1.49e+00	0	57	104	607125504	60	19801
2026-01-02 02:09:33.22	265.94	3.15	-44.7	-59.2	3.8	1.49e+00	0	57	104	607125504	60	19808
2026-01-02 02:09:34.23	265.85	3.10	-44.7	-59.3	3.8	1.49e+00	0	57	104	607125504	60	19844
2026-01-02 02:09:35.24	265.75	3.05	-44.7	-59.3	3.8	1.49e+00	0	57	104	607125504	60	19842
2026-01-02 02:09:36.26	265.66	3.00	-44.7	-59.3	3.8	1.49e+00	0	57	104	607125504	60	19887
2026-01-02 02:09:37.27	265.57	2.94	-44.7	-59.3	3.8	1.49e+00	0	57	104	607125504	60	19849
2026-01-02 02:09:38.28	265.48	2.89	-44.7	-59.2	3.8	1.49e+00	0	57	104	607125504	60	19814
2026-01-02 02:09:39.29	265.39	2.84	-44.7	-59.2	3.8	1.49e+00	0	57	104	607125504	60	19825
2026-01-02 02:09:40.30	265.30	2.79	-44.7	-59.3	3.8	1.49e+00	0	57	104	607125504	60	19897
2026-01-02 02:09:41.31	265.21	2.74	-44.7	-59.3	3.8	1.49e+00	0	57	104	607125504	60	19851
2026-01-02 02:09:42.32	265.12	2.69	-44.7	-59.3	3.8	1.49e+00	0	57	104	607125504	60	19865
2026-01-02 02:09:43.33	265.03	2.63	-44.7	-59.3	3.8	1.49e+00	0	57	104	607125504	60	19886
2026-01-02 02:09:44.34	264.94	2.58	-44.7	-59.3	3.8	1.49e+00	0	57	104	607125504	60	19842
2026-01-02 02:09:45.36	264.85	2.53	-44.7	-59.3	3.8	1.49e+00	0	57	104	607125504	60	19850
2026-01-02 02:09:46.37	264.76	2.48	-44.7	-59.2	3.8	1.49e+00	0	57	104	607125504	60	19807
2026-01-02 02:09:47.38	264.67	2.43	-44.7	-59.2	3.8	1.49e+00	0	57	104	607125504	60	19813
2026-01-02 02:09:48.39	264.58	2.38	-44.7	-59.3	3.8	1.49e+00	0	57	104	607125504	60	19844
2026-01-02 02:09:49.40	264.50	2.33	-44.7	-59.2	3.8	1.49e+00	0	57	104	607125504	60	19816
2026-01-02 02:09:50.41	264.41	2.28	-44.7	-59.3	3.8	1.49e+00	0	57	104	607125504	60	19876
2026-01-02 02:09:51.42	264.32	2.22	-44.7	-59.2	3.8	1.49e+00	0	57	104	607125504	60	19770
2026-01-02 02:09:52.43	264.24	2.17	-44.7	-59.2	3.8	1.49e+00	0	57	104	607125504	60	19819
2026-01-02 02:09:53.44	264.15	2.12	-44.4	-59.2	3.8	1.49e+00	0	57	104	607125504	60	19831
2026-01-02 02:09:54.45	264.06	2.07	-44.7	-59.3	3.8	1.49e+00	0	57	104	607125504	60	19869
2026-01-02 02:09:55.47	263.98	2.02	-44.7	-59.2	3.8	1.49e+00	0	57	104	607125504	60	19836
2026-01-02 02:09:56.48	263.89	1.97	-44.7	-59.2	3.8	1.49e+00	0	57	104	607125504	60	19766
2026-01-02 02:09:57.49	263.81	1.92	-44.7	-59.2	3.8	1.49e+00	0	57	104	607125504	60	19820

#Closed at: 2026-01-02 02:09:58
#Recorded file [607 MB]: D:/lorett/data/31039_260102_045838.dat