passes_logs/2026/01/02/R2.0S_Moscow/R2.0S_Moscow__20260102_044656_FENGYUN_3E_rec.log

#Pass ID: 20260102_044656_FENGYUN 3E
#Satellite: FENGYUN 3E
#Configuration: FENGYUN 3E
#almurnet v.1.7.20251203
#Start time: 2026-01-02 04:49:38

#Version: 2.2.20231116
#Station: R2.0S_Moscow
#Location: 37.707566 lon 55.798166 lat
#TLE: 1 49008U 21062A   26001.26445318  .00000475  00000+0  24453-3 0  9990
#TLE: 2 49008  98.7480   6.5551 0001357 167.8415 192.2795 14.19884467232890

#Time	Az	El	Level	Level2	SNR	BER	BlckErr	Temp	State	Recorded	gain1	gain2
2026-01-02 04:49:38.97	4.62	14.36	-44.8	-63.1	3.8	8.46e-01	0	56	0	0	60	30758
2026-01-02 04:49:39.97	4.54	14.46	-45.5	-56.7	3.8	8.45e-01	0	56	104	0	61	13131
2026-01-02 04:49:40.98	4.46	14.56	-45.5	-56.7	3.8	8.45e-01	0	56	104	0	61	13248
2026-01-02 04:49:41.99	4.38	14.66	-45.5	-56.7	3.8	8.46e-01	0	56	104	0	61	13116
2026-01-02 04:49:43.00	4.30	14.75	-45.4	-56.6	3.8	8.45e-01	0	56	104	0	61	13016
2026-01-02 04:49:44.01	4.22	14.85	-45.4	-56.6	3.8	8.46e-01	0	56	104	0	61	13018
2026-01-02 04:49:45.02	4.13	14.95	-45.3	-56.5	3.8	8.46e-01	0	56	104	0	61	12899
2026-01-02 04:49:46.03	4.05	15.05	-45.3	-56.5	3.8	8.47e-01	0	56	104	0	61	12826
2026-01-02 04:49:47.04	3.97	15.15	-45.2	-56.4	3.8	8.45e-01	0	56	104	0	61	12717
2026-01-02 04:49:48.06	3.88	15.25	-45.0	-56.2	3.8	8.45e-01	0	57	104	0	61	12436
2026-01-02 04:49:49.07	3.80	15.35	-44.8	-55.9	3.8	8.46e-01	0	56	104	0	60	12699
2026-01-02 04:49:50.08	3.71	15.45	-44.8	-55.9	3.8	8.45e-01	0	56	104	0	60	12806
2026-01-02 04:49:51.09	3.62	15.55	-44.8	-55.9	3.8	8.46e-01	0	56	104	0	60	12723
2026-01-02 04:49:52.10	3.53	15.65	-44.8	-56.0	3.8	8.45e-01	0	57	104	0	60	12832
2026-01-02 04:49:53.11	3.45	15.75	-44.8	-56.0	3.8	8.46e-01	0	57	104	0	60	12849
2026-01-02 04:49:54.12	3.36	15.85	-44.8	-56.0	3.8	8.46e-01	0	57	104	0	60	12867
2026-01-02 04:49:55.13	3.27	15.95	-44.8	-56.0	3.8	8.47e-01	0	57	104	0	60	12865
2026-01-02 04:49:56.14	3.18	16.06	-44.8	-56.0	3.8	8.46e-01	0	57	104	0	60	12846
2026-01-02 04:49:57.15	3.09	16.16	-44.8	-55.9	3.8	8.47e-01	0	57	104	0	60	12756
2026-01-02 04:49:58.16	3.00	16.26	-44.8	-55.9	3.8	8.46e-01	0	57	104	0	60	12669
2026-01-02 04:49:59.18	2.90	16.37	-44.8	-55.7	3.8	8.46e-01	0	57	104	0	60	12501
2026-01-02 04:50:00.19	2.81	16.47	-44.7	-55.6	3.8	8.46e-01	0	57	104	0	60	12288
2026-01-02 04:50:01.20	2.72	16.57	-44.7	-55.3	3.8	8.46e-01	0	57	104	0	60	11938
2026-01-02 04:50:02.21	2.63	16.68	-44.7	-55.2	3.8	8.45e-01	0	57	104	0	60	11802
2026-01-02 04:50:03.22	2.53	16.78	-44.7	-55.1	3.8	8.45e-01	0	57	104	0	60	11642
2026-01-02 04:50:04.23	2.44	16.89	-44.7	-55.1	3.8	8.45e-01	0	57	104	0	60	11639
2026-01-02 04:50:05.24	2.34	16.99	-44.7	-55.2	3.8	8.47e-01	0	57	104	0	60	11708
2026-01-02 04:50:06.25	2.24	17.10	-44.7	-55.2	3.8	8.47e-01	0	57	104	0	60	11811
2026-01-02 04:50:07.26	2.15	17.20	-44.7	-55.5	3.8	8.46e-01	0	57	104	0	60	12193
2026-01-02 04:50:08.27	2.05	17.31	-44.7	-55.6	3.8	8.46e-01	0	57	104	0	60	12304
2026-01-02 04:50:09.29	1.95	17.42	-44.7	-55.7	3.8	8.46e-01	0	57	104	0	60	12504
2026-01-02 04:50:10.30	1.85	17.53	-44.7	-55.8	3.8	8.46e-01	0	57	104	0	60	12611
2026-01-02 04:50:11.31	1.75	17.63	-44.7	-55.7	3.8	8.47e-01	0	57	104	0	60	12493
2026-01-02 04:50:12.32	1.65	17.74	-44.7	-55.6	3.8	8.46e-01	0	57	104	0	60	12262
2026-01-02 04:50:13.33	1.55	17.85	-44.6	-55.0	3.8	8.46e-01	0	57	104	0	60	11463
2026-01-02 04:50:14.34	1.44	17.96	-44.6	-54.3	3.8	8.45e-01	0	57	104	0	60	10589
2026-01-02 04:50:15.35	1.34	18.07	-44.5	-52.9	4.0	8.44e-01	0	57	0	0	59	9596
2026-01-02 04:50:16.36	1.24	18.18	-44.3	-52.2	4.2	8.38e-01	0	57	0	0	59	8847
2026-01-02 04:50:17.38	1.13	18.29	-44.2	-51.4	4.4	8.28e-01	0	57	0	0	59	8052
2026-01-02 04:50:18.38	1.03	18.40	-44.1	-51.3	4.5	8.24e-01	0	57	0	0	59	7927
2026-01-02 04:50:19.40	0.92	18.51	-44.2	-51.4	4.4	8.26e-01	0	57	0	0	59	8011
2026-01-02 04:50:20.41	0.81	18.62	-44.1	-51.2	4.5	8.25e-01	0	57	0	0	59	7895
2026-01-02 04:50:21.42	0.70	18.73	-43.8	-50.0	5.1	7.92e-01	0	57	0	0	58	7266
2026-01-02 04:50:22.43	0.59	18.85	-42.6	-46.7	7.8	1.58e-01	0	57	0	5242880	56	5547
2026-01-02 04:50:23.44	0.48	18.96	-40.9	-43.6	10.8	4.43e-03	0	57	0	12582912	52	4876
2026-01-02 04:50:24.45	0.37	19.07	-39.0	-40.9	13.6	2.40e-05	0	57	0	19922944	49	4279
2026-01-02 04:50:25.46	0.26	19.18	-37.1	-38.6	15.8	0.00e+00	0	57	0	27262976	45	4122
2026-01-02 04:50:26.47	0.15	19.30	-35.4	-36.6	17.7	0.00e+00	0	57	0	34603008	41	4112
2026-01-02 04:50:27.48	0.04	19.41	-34.3	-35.4	18.9	0.00e+00	0	57	0	41943040	39	4036
2026-01-02 04:50:28.50	359.92	19.53	-33.4	-34.4	19.9	0.00e+00	0	57	0	49283072	37	4046
2026-01-02 04:50:29.51	359.81	19.64	-32.9	-33.9	20.4	0.00e+00	0	57	0	56623104	36	4012
2026-01-02 04:50:30.52	359.69	19.76	-32.6	-33.6	20.7	0.00e+00	0	57	0	63963136	36	3881
2026-01-02 04:50:31.53	359.57	19.87	-32.0	-33.0	20.5	0.00e+00	0	57	0	71303168	34	4070
2026-01-02 04:50:32.54	359.46	19.99	-32.3	-33.3	20.2	0.00e+00	0	57	0	78643200	34	4221
2026-01-02 04:50:33.55	359.34	20.11	-32.1	-33.1	20.5	0.00e+00	0	57	0	85983232	35	3871
2026-01-02 04:50:34.56	359.22	20.22	-32.0	-33.0	20.6	0.00e+00	0	57	0	93323264	34	4062
2026-01-02 04:50:35.57	359.10	20.34	-34.3	-35.4	19.1	0.00e+00	0	57	0	100663296	38	4287
2026-01-02 04:50:36.58	358.98	20.46	-33.9	-35.0	19.4	1.11e-03	0	57	0	108003328	38	4073
2026-01-02 04:50:37.59	358.86	20.58	-32.4	-33.4	20.3	0.00e+00	0	57	0	115343360	34	4255
2026-01-02 04:50:38.60	358.73	20.70	-34.5	-35.7	18.6	2.20e-06	0	57	0	121634816	40	3923
2026-01-02 04:50:39.61	358.61	20.81	-31.4	-32.3	21.2	0.00e+00	0	57	0	128974848	33	3996
2026-01-02 04:50:40.62	358.48	20.93	-31.2	-32.2	21.4	0.00e+00	0	57	0	137363456	33	3915
2026-01-02 04:50:41.63	358.36	21.05	-31.1	-32.0	21.5	0.00e+00	0	57	0	143654912	33	3863
2026-01-02 04:50:42.64	358.23	21.17	-31.0	-32.0	21.6	0.00e+00	0	57	0	150994944	32	4056
2026-01-02 04:50:43.65	358.10	21.30	-31.0	-31.9	21.7	0.00e+00	0	57	0	158334976	32	4013
2026-01-02 04:50:44.66	357.97	21.42	-31.0	-31.9	21.6	0.00e+00	0	57	0	165675008	32	4041
2026-01-02 04:50:45.67	357.84	21.54	-31.0	-31.9	21.6	0.00e+00	0	57	0	173015040	32	4036
2026-01-02 04:50:46.68	357.71	21.66	-31.0	-31.9	21.6	0.00e+00	0	57	0	180355072	32	4037
2026-01-02 04:50:47.69	357.58	21.78	-31.0	-31.9	21.7	0.00e+00	0	57	0	187695104	32	4024
2026-01-02 04:50:48.70	357.44	21.90	-31.1	-32.0	21.5	0.00e+00	0	57	0	195035136	32	4084
2026-01-02 04:50:49.71	357.31	22.03	-31.1	-32.0	21.5	0.00e+00	0	57	0	202375168	32	4094
2026-01-02 04:50:50.72	357.17	22.15	-31.2	-32.1	21.5	0.00e+00	0	57	0	209715200	32	4111
2026-01-02 04:50:51.73	357.04	22.28	-31.3	-32.2	21.3	0.00e+00	0	57	0	217055232	32	4167
2026-01-02 04:50:52.74	356.90	22.40	-31.0	-31.9	21.6	0.00e+00	0	57	0	224395264	32	4047
2026-01-02 04:50:53.75	356.76	22.53	-31.4	-32.3	21.3	0.00e+00	0	57	0	231735296	33	3985
2026-01-02 04:50:54.76	356.62	22.65	-31.4	-32.4	21.2	0.00e+00	0	57	0	239075328	33	4025
2026-01-02 04:50:55.77	356.48	22.78	-31.5	-32.4	21.1	0.00e+00	0	57	0	246415360	33	4038
2026-01-02 04:50:56.78	356.33	22.90	-31.5	-32.5	21.1	0.00e+00	0	57	0	253755392	33	4058
2026-01-02 04:50:57.79	356.19	23.03	-31.4	-32.4	21.2	0.00e+00	0	57	0	261095424	33	4024
2026-01-02 04:50:58.80	356.05	23.16	-31.4	-32.3	21.3	0.00e+00	0	57	0	268435456	33	3991
2026-01-02 04:50:59.81	355.90	23.28	-31.4	-32.3	21.3	0.00e+00	0	57	0	274726912	33	3979
2026-01-02 04:51:00.82	355.75	23.41	-31.3	-32.3	21.3	0.00e+00	0	57	0	283115520	33	3968
2026-01-02 04:51:01.83	355.60	23.54	-31.4	-32.3	21.3	0.00e+00	0	57	0	290455552	33	3982
2026-01-02 04:51:02.84	355.45	23.67	-31.3	-32.2	21.3	0.00e+00	0	57	0	296747008	33	3949
2026-01-02 04:51:03.85	355.30	23.80	-31.4	-32.3	21.3	0.00e+00	0	57	0	304087040	32	4207
2026-01-02 04:51:04.86	355.15	23.93	-31.3	-32.3	21.3	0.00e+00	0	57	0	311427072	32	4209
2026-01-02 04:51:05.88	354.99	24.06	-31.4	-32.4	21.3	0.00e+00	0	57	0	318767104	32	4245
2026-01-02 04:51:06.89	354.84	24.19	-31.4	-32.3	21.3	0.00e+00	0	57	0	326107136	32	4239
2026-01-02 04:51:07.90	354.68	24.32	-31.4	-32.4	21.2	0.00e+00	0	57	0	333447168	32	4253
2026-01-02 04:51:08.91	354.52	24.45	-31.4	-32.3	21.3	0.00e+00	0	57	0	340787200	32	4210
2026-01-02 04:51:09.91	354.37	24.58	-31.5	-32.4	21.2	0.00e+00	0	57	0	348127232	32	4288
2026-01-02 04:51:10.93	354.20	24.72	-31.5	-32.5	21.2	0.00e+00	0	57	0	355467264	32	4297
2026-01-02 04:51:11.94	354.04	24.85	-31.6	-32.6	21.1	0.00e+00	0	57	0	362807296	32	4342
2026-01-02 04:51:12.95	353.88	24.98	-31.7	-32.7	21.0	0.00e+00	0	57	0	370147328	33	4146
2026-01-02 04:51:13.96	353.71	25.12	-31.8	-32.7	20.9	0.00e+00	0	57	0	377487360	33	4192
2026-01-02 04:51:14.97	353.55	25.25	-31.7	-32.7	21.0	0.00e+00	0	57	0	384827392	33	4152
2026-01-02 04:51:15.98	353.38	25.38	-31.9	-32.8	20.8	0.00e+00	0	57	0	392167424	33	4241
2026-01-02 04:51:16.98	353.21	25.52	-31.9	-32.9	20.8	0.00e+00	0	57	0	399507456	33	4247
2026-01-02 04:51:17.99	353.04	25.65	-31.8	-32.8	20.9	0.00e+00	0	57	0	406847488	33	4199
2026-01-02 04:51:19.00	352.87	25.79	-31.9	-32.9	20.7	0.00e+00	0	57	0	414187520	34	4014
2026-01-02 04:51:20.01	352.70	25.92	-31.9	-32.9	20.8	0.00e+00	0	57	0	420478976	34	4022
2026-01-02 04:51:21.02	352.52	26.06	-31.9	-32.9	20.8	0.00e+00	0	57	0	428867584	34	4032
2026-01-02 04:51:22.04	352.34	26.20	-31.9	-32.9	20.8	0.00e+00	0	57	0	436207616	34	4036
2026-01-02 04:51:23.05	352.17	26.34	-31.9	-32.9	20.8	0.00e+00	0	57	0	442499072	34	4027
2026-01-02 04:51:24.06	351.99	26.47	-32.5	-33.5	20.2	0.00e+00	0	57	0	449839104	34	4304
2026-01-02 04:51:25.06	351.81	26.61	-32.0	-33.0	20.7	0.00e+00	0	57	0	457179136	34	4078
2026-01-02 04:51:26.08	351.62	26.75	-31.9	-32.9	20.8	0.00e+00	0	57	0	464519168	34	4020
2026-01-02 04:51:27.09	351.44	26.89	-31.8	-32.7	20.9	0.00e+00	0	57	0	471859200	34	3956
2026-01-02 04:51:28.10	351.25	27.03	-31.7	-32.7	21.0	0.00e+00	0	57	0	479199232	34	3917
2026-01-02 04:51:29.11	351.06	27.17	-31.7	-32.6	21.1	0.00e+00	0	57	0	486539264	34	3897
2026-01-02 04:51:30.12	350.87	27.31	-31.5	-32.5	21.2	0.00e+00	0	57	0	493879296	33	4065
2026-01-02 04:51:31.13	350.68	27.45	-31.4	-32.4	21.3	0.00e+00	0	57	0	501219328	33	4005
2026-01-02 04:51:32.14	350.49	27.59	-31.4	-32.4	21.3	0.00e+00	0	57	0	508559360	33	4015
2026-01-02 04:51:33.15	350.29	27.73	-31.4	-32.4	21.3	0.00e+00	0	57	0	515899392	33	4010
2026-01-02 04:51:34.16	350.10	27.87	-31.5	-32.4	21.2	0.00e+00	0	58	0	523239424	33	4036
2026-01-02 04:51:35.17	349.90	28.01	-31.3	-32.3	21.4	0.00e+00	0	57	0	530579456	33	3963
2026-01-02 04:51:36.18	349.70	28.15	-31.2	-32.1	21.5	0.00e+00	0	57	0	537919488	33	3902
2026-01-02 04:51:37.19	349.50	28.29	-31.2	-32.1	21.5	0.00e+00	0	58	0	545259520	33	3889
2026-01-02 04:51:38.20	349.29	28.44	-31.1	-32.0	21.6	0.00e+00	0	57	0	552599552	33	3856
2026-01-02 04:51:39.21	349.09	28.58	-31.0	-31.9	21.7	0.00e+00	0	57	0	559939584	33	3817
2026-01-02 04:51:40.22	348.88	28.72	-31.0	-31.9	21.7	0.00e+00	0	57	0	567279616	32	4036
2026-01-02 04:51:41.23	348.67	28.87	-31.0	-31.9	21.8	0.00e+00	0	57	0	574619648	32	4013
2026-01-02 04:51:42.24	348.46	29.01	-30.9	-31.8	21.9	0.00e+00	0	57	0	581959680	32	3978
2026-01-02 04:51:43.25	348.25	29.15	-30.8	-31.7	21.9	0.00e+00	0	58	0	589299712	32	3928
2026-01-02 04:51:44.26	348.03	29.30	-30.8	-31.7	21.9	0.00e+00	0	57	0	595591168	32	3949
2026-01-02 04:51:45.27	347.81	29.44	-30.8	-31.7	21.9	0.00e+00	0	57	0	602931200	32	3952
2026-01-02 04:51:46.28	347.60	29.59	-30.9	-31.8	21.9	0.00e+00	0	57	0	611319808	32	3967
2026-01-02 04:51:47.29	347.37	29.73	-30.8	-31.8	21.9	0.00e+00	0	57	0	617611264	32	3961
2026-01-02 04:51:48.30	347.15	29.88	-30.8	-31.7	21.9	0.00e+00	0	58	0	624951296	32	3940
2026-01-02 04:51:49.31	346.93	30.03	-30.8	-31.7	22.0	0.00e+00	0	57	0	632291328	32	3923
2026-01-02 04:51:50.32	346.70	30.17	-30.5	-31.4	22.1	0.00e+00	0	57	0	639631360	31	4016
2026-01-02 04:51:51.33	346.47	30.32	-30.5	-31.4	22.1	0.00e+00	0	57	0	646971392	31	4041
2026-01-02 04:51:52.34	346.24	30.46	-30.5	-31.4	22.1	0.00e+00	0	57	0	654311424	31	4046
2026-01-02 04:51:53.35	346.00	30.61	-30.5	-31.4	22.1	0.00e+00	0	57	0	661651456	31	4025
2026-01-02 04:51:54.36	345.77	30.76	-30.5	-31.4	22.1	0.00e+00	0	57	0	668991488	31	4040
2026-01-02 04:51:55.37	345.53	30.90	-30.6	-31.5	21.9	0.00e+00	0	57	0	676331520	31	4084
2026-01-02 04:51:56.38	345.29	31.05	-30.6	-31.5	22.0	0.00e+00	0	57	0	683671552	31	4073
2026-01-02 04:51:57.40	345.05	31.20	-30.6	-31.4	22.1	0.00e+00	0	57	0	691011584	31	4051
2026-01-02 04:51:58.40	344.80	31.35	-30.7	-31.5	22.0	0.00e+00	0	57	0	698351616	31	4096
2026-01-02 04:51:59.42	344.55	31.50	-30.7	-31.6	21.9	0.00e+00	0	57	0	705691648	31	4140
2026-01-02 04:52:00.43	344.30	31.64	-30.8	-31.7	21.8	0.00e+00	0	58	0	713031680	31	4177
2026-01-02 04:52:01.44	344.05	31.79	-31.0	-31.9	21.8	0.00e+00	0	57	0	720371712	32	4021
2026-01-02 04:52:02.44	343.80	31.94	-31.1	-32.0	21.8	0.00e+00	0	57	0	727711744	32	4071
2026-01-02 04:52:03.45	343.55	32.09	-31.1	-32.0	21.7	0.00e+00	0	57	0	735051776	32	4088
2026-01-02 04:52:04.46	343.29	32.23	-31.1	-32.0	21.7	0.00e+00	0	57	0	741343232	32	4073
2026-01-02 04:52:05.47	343.03	32.38	-30.8	-31.7	22.0	0.00e+00	0	57	0	749731840	32	3936
2026-01-02 04:52:06.48	342.76	32.53	-30.8	-31.7	22.0	0.00e+00	0	57	0	757071872	32	3954
2026-01-02 04:52:07.49	342.50	32.68	-30.8	-31.7	22.0	0.00e+00	0	57	0	763363328	32	3950
2026-01-02 04:52:08.50	342.23	32.83	-30.9	-31.8	22.0	0.00e+00	0	57	0	770703360	32	3960
2026-01-02 04:52:09.51	341.96	32.98	-30.8	-31.7	22.0	0.00e+00	0	57	0	778043392	32	3953
2026-01-02 04:52:10.52	341.68	33.13	-30.8	-31.7	22.0	0.00e+00	0	57	0	785383424	32	3931
2026-01-02 04:52:11.53	341.41	33.27	-30.7	-31.6	22.1	0.00e+00	0	57	0	792723456	32	3891
2026-01-02 04:52:12.54	341.13	33.42	-30.7	-31.5	22.2	0.00e+00	0	57	0	800063488	32	3863
2026-01-02 04:52:13.55	340.85	33.57	-30.6	-31.4	22.3	0.00e+00	0	57	0	807403520	32	3821
2026-01-02 04:52:14.56	340.56	33.72	-30.5	-31.4	22.3	0.00e+00	0	57	0	814743552	32	3799
2026-01-02 04:52:15.57	340.28	33.87	-30.3	-31.1	22.4	0.00e+00	0	57	0	822083584	31	3903
2026-01-02 04:52:16.58	339.99	34.01	-30.4	-31.3	22.3	0.00e+00	0	57	0	829423616	31	3961
2026-01-02 04:52:17.59	339.70	34.16	-30.2	-31.1	22.5	0.00e+00	0	57	0	836763648	31	3881
2026-01-02 04:52:18.60	339.40	34.31	-30.2	-31.1	22.5	0.00e+00	0	58	0	844103680	31	3874
2026-01-02 04:52:19.61	339.11	34.46	-30.1	-31.0	22.5	0.00e+00	0	57	0	851443712	31	3855
2026-01-02 04:52:20.62	338.81	34.61	-30.1	-30.9	22.6	0.00e+00	0	57	0	858783744	31	3811
2026-01-02 04:52:21.63	338.50	34.75	-30.2	-31.1	22.4	0.00e+00	0	58	0	866123776	30	4133
2026-01-02 04:52:22.65	338.20	34.90	-30.0	-30.9	22.6	0.00e+00	0	57	0	873463808	30	4032
2026-01-02 04:52:23.66	337.89	35.05	-30.0	-30.9	22.7	0.00e+00	0	57	0	880803840	30	4030
2026-01-02 04:52:24.67	337.58	35.19	-30.1	-31.0	22.6	0.00e+00	0	57	0	888143872	30	4066
2026-01-02 04:52:25.68	337.26	35.34	-30.1	-31.0	22.6	0.00e+00	0	58	0	895483904	30	4072
2026-01-02 04:52:26.69	336.95	35.49	-30.2	-31.1	22.5	0.00e+00	0	58	0	902823936	30	4111
2026-01-02 04:52:27.70	336.63	35.63	-30.5	-31.4	22.2	0.00e+00	0	57	0	910163968	30	4251
2026-01-02 04:52:28.71	336.30	35.78	-30.6	-31.5	22.1	0.00e+00	0	58	0	916455424	30	4314
2026-01-02 04:52:29.72	335.98	35.92	-30.7	-31.6	22.0	0.00e+00	0	57	0	924844032	30	4374
2026-01-02 04:52:30.73	335.65	36.07	-30.8	-31.7	22.0	0.00e+00	0	58	0	932184064	31	4160
2026-01-02 04:52:31.74	335.32	36.21	-30.8	-31.7	21.9	0.00e+00	0	57	0	938475520	31	4152
2026-01-02 04:52:32.75	334.99	36.35	-30.7	-31.6	22.0	0.00e+00	0	57	0	945815552	31	4141
2026-01-02 04:52:33.76	334.65	36.50	-30.7	-31.6	22.0	0.00e+00	0	57	0	953155584	31	4115
2026-01-02 04:52:34.77	334.31	36.64	-30.8	-31.7	21.9	0.00e+00	0	57	0	960495616	31	4181
2026-01-02 04:52:35.78	333.96	36.78	-30.8	-31.7	21.9	0.00e+00	0	58	0	967835648	31	4177
2026-01-02 04:52:36.79	333.62	36.92	-30.8	-31.7	21.9	0.00e+00	0	57	0	975175680	31	4152
2026-01-02 04:52:37.80	333.27	37.06	-30.8	-31.8	21.9	0.00e+00	0	58	0	982515712	31	4195
2026-01-02 04:52:38.81	332.92	37.20	-30.9	-31.8	21.8	0.00e+00	0	57	0	989855744	31	4224
2026-01-02 04:52:39.82	332.56	37.34	-31.0	-31.9	21.7	0.00e+00	0	58	0	997195776	31	4260
2026-01-02 04:52:40.83	332.20	37.48	-30.9	-31.8	21.8	0.00e+00	0	58	0	1004535808	31	4227
2026-01-02 04:52:41.84	331.84	37.62	-30.9	-31.8	21.8	0.00e+00	0	58	0	1011875840	31	4219
2026-01-02 04:52:42.85	331.48	37.76	-30.8	-31.7	21.9	0.00e+00	0	57	0	1019215872	31	4151
2026-01-02 04:52:43.86	331.11	37.89	-30.8	-31.7	21.9	0.00e+00	0	57	0	1026555904	31	4173
2026-01-02 04:52:44.87	330.74	38.03	-30.7	-31.6	22.1	0.00e+00	0	57	0	1033895936	31	4112
2026-01-02 04:52:45.88	330.36	38.16	-30.7	-31.6	22.0	0.00e+00	0	57	0	1041235968	31	4115
2026-01-02 04:52:46.89	329.99	38.30	-30.7	-31.6	22.0	0.00e+00	0	57	0	1048576000	31	4131
2026-01-02 04:52:47.90	329.61	38.43	-30.9	-31.8	21.9	0.00e+00	0	58	0	1055916032	31	4204
2026-01-02 04:52:48.91	329.22	38.56	-30.6	-31.5	22.1	0.00e+00	0	58	0	1062207488	31	4073
2026-01-02 04:52:49.92	328.84	38.70	-30.5	-31.4	22.2	0.00e+00	0	58	0	1070596096	31	4043
2026-01-02 04:52:50.94	328.44	38.83	-30.4	-31.3	22.3	0.00e+00	0	58	0	1077936128	31	3996
2026-01-02 04:52:51.94	328.06	38.96	-30.4	-31.2	22.4	0.00e+00	0	57	0	1084227584	31	3952
2026-01-02 04:52:52.95	327.66	39.08	-30.3	-31.2	22.4	0.00e+00	0	58	0	1091567616	31	3925
2026-01-02 04:52:53.97	327.26	39.21	-30.6	-31.5	22.2	0.00e+00	0	58	0	1098907648	31	4067
2026-01-02 04:52:54.98	326.85	39.34	-30.8	-31.7	21.9	0.00e+00	0	58	0	1106247680	31	4190
2026-01-02 04:52:55.98	326.45	39.46	-31.1	-32.0	21.7	0.00e+00	0	57	0	1113587712	31	4325
2026-01-02 04:52:56.99	326.04	39.59	-31.2	-32.1	21.5	0.00e+00	0	58	0	1120927744	31	4386
2026-01-02 04:52:58.00	325.63	39.71	-31.4	-32.3	21.5	0.00e+00	0	58	0	1128267776	32	4234
2026-01-02 04:52:59.01	325.22	39.83	-31.3	-32.2	21.6	0.00e+00	0	57	0	1135607808	32	4186
2026-01-02 04:53:00.02	324.80	39.95	-31.1	-32.0	21.8	0.00e+00	0	57	0	1142947840	32	4074
2026-01-02 04:53:01.03	324.38	40.07	-30.9	-31.8	22.0	0.00e+00	0	58	0	1150287872	32	3961
2026-01-02 04:53:02.04	323.95	40.18	-30.6	-31.5	22.3	0.00e+00	0	58	0	1157627904	32	3831
2026-01-02 04:53:03.05	323.53	40.30	-30.3	-31.2	22.4	0.00e+00	0	58	0	1164967936	31	3938
2026-01-02 04:53:04.06	323.10	40.41	-30.4	-31.3	22.3	0.00e+00	0	58	0	1172307968	31	3995
2026-01-02 04:53:05.08	322.66	40.53	-30.6	-31.5	22.1	0.00e+00	0	58	0	1179648000	31	4067
2026-01-02 04:53:06.09	322.22	40.64	-30.6	-31.5	22.2	0.00e+00	0	57	0	1186988032	31	4057
2026-01-02 04:53:07.09	321.79	40.75	-30.5	-31.4	22.2	0.00e+00	0	57	0	1194328064	31	4041
2026-01-02 04:53:08.11	321.34	40.86	-30.7	-31.6	22.0	0.00e+00	0	58	0	1201668096	31	4138
2026-01-02 04:53:09.12	320.90	40.96	-30.7	-31.5	22.1	0.00e+00	0	58	0	1209008128	31	4095
2026-01-02 04:53:10.13	320.45	41.07	-30.6	-31.5	22.1	0.00e+00	0	58	0	1216348160	31	4076
2026-01-02 04:53:11.14	320.00	41.17	-30.7	-31.6	22.0	0.00e+00	0	58	0	1223688192	31	4130
2026-01-02 04:53:12.15	319.54	41.27	-30.9	-31.8	21.9	0.00e+00	0	57	0	1231028224	31	4206
2026-01-02 04:53:13.16	319.09	41.37	-31.1	-32.0	21.7	0.00e+00	0	57	0	1237319680	31	4312
2026-01-02 04:53:14.17	318.63	41.47	-31.4	-32.3	21.6	0.00e+00	0	58	0	1245708288	32	4209
2026-01-02 04:53:15.18	318.16	41.57	-31.5	-32.4	21.4	0.00e+00	0	57	0	1253048320	32	4271
2026-01-02 04:53:16.19	317.70	41.66	-31.4	-32.3	21.6	0.00e+00	0	58	0	1259339776	32	4210
2026-01-02 04:53:17.20	317.23	41.75	-31.2	-32.1	21.7	0.00e+00	0	57	0	1266679808	32	4139
2026-01-02 04:53:18.21	316.76	41.84	-31.0	-31.9	21.8	0.00e+00	0	58	0	1274019840	32	4027
2026-01-02 04:53:19.22	316.29	41.93	-30.9	-31.8	22.0	0.00e+00	0	58	0	1281359872	32	3974
2026-01-02 04:53:20.23	315.81	42.02	-30.8	-31.7	22.1	0.00e+00	0	58	0	1288699904	32	3940
2026-01-02 04:53:21.24	315.33	42.10	-30.8	-31.7	22.1	0.00e+00	0	58	0	1296039936	32	3947
2026-01-02 04:53:22.25	314.85	42.18	-30.9	-31.8	22.0	0.00e+00	0	58	0	1303379968	32	3966
2026-01-02 04:53:23.26	314.37	42.26	-30.9	-31.8	21.9	0.00e+00	0	58	0	1310720000	32	4004
2026-01-02 04:53:24.27	313.88	42.34	-30.9	-31.8	22.0	0.00e+00	0	58	0	1318060032	32	3983
2026-01-02 04:53:25.28	313.39	42.42	-31.1	-32.0	21.8	0.00e+00	0	58	0	1325400064	32	4088
2026-01-02 04:53:26.29	312.90	42.49	-31.1	-32.0	21.8	0.00e+00	0	58	0	1332740096	32	4073
2026-01-02 04:53:27.30	312.41	42.56	-31.1	-32.1	21.8	0.00e+00	0	58	0	1340080128	32	4103
2026-01-02 04:53:28.31	311.91	42.63	-31.1	-32.0	21.8	0.00e+00	0	58	0	1347420160	32	4086
2026-01-02 04:53:29.32	311.42	42.70	-31.1	-32.0	21.8	0.00e+00	0	58	0	1354760192	32	4068
2026-01-02 04:53:30.33	310.92	42.76	-31.0	-31.9	21.9	0.00e+00	0	58	0	1362100224	32	4039
2026-01-02 04:53:31.33	310.42	42.82	-30.9	-31.8	22.0	0.00e+00	0	57	0	1369440256	32	3974
2026-01-02 04:53:32.34	309.92	42.88	-30.9	-31.8	22.0	0.00e+00	0	57	0	1376780288	32	3964
2026-01-02 04:53:33.36	309.41	42.94	-30.9	-31.8	22.0	0.00e+00	0	58	0	1383071744	32	3982
2026-01-02 04:53:34.36	308.91	42.99	-30.8	-31.7	22.1	0.00e+00	0	58	0	1390411776	32	3956
2026-01-02 04:53:35.37	308.40	43.05	-30.9	-31.8	22.0	0.00e+00	0	58	0	1398800384	32	3985
2026-01-02 04:53:36.38	307.89	43.10	-31.0	-31.9	21.9	0.00e+00	0	58	0	1405091840	32	4027
2026-01-02 04:53:37.39	307.38	43.14	-31.0	-31.9	21.9	0.00e+00	0	58	0	1412431872	32	4024
2026-01-02 04:53:38.40	306.86	43.19	-30.9	-31.9	21.9	0.00e+00	0	58	0	1419771904	32	4007
2026-01-02 04:53:39.41	306.35	43.23	-30.8	-31.7	22.0	0.00e+00	0	58	0	1427111936	32	3950
2026-01-02 04:53:40.42	305.83	43.27	-30.7	-31.6	22.1	0.00e+00	0	58	0	1434451968	32	3907
2026-01-02 04:53:41.43	305.32	43.31	-30.7	-31.6	22.2	0.00e+00	0	58	0	1441792000	32	3886
2026-01-02 04:53:42.44	304.80	43.34	-30.7	-31.6	22.1	0.00e+00	0	58	0	1449132032	32	3901
2026-01-02 04:53:43.45	304.28	43.38	-30.9	-31.8	22.0	0.00e+00	0	58	0	1456472064	32	3971
2026-01-02 04:53:44.46	303.76	43.40	-31.1	-32.0	21.8	0.00e+00	0	58	0	1463812096	32	4087
2026-01-02 04:53:45.47	303.24	43.43	-31.2	-32.1	21.7	0.00e+00	0	57	0	1471152128	32	4105
2026-01-02 04:53:46.48	302.71	43.46	-31.3	-32.2	21.6	0.00e+00	0	58	0	1478492160	32	4158
2026-01-02 04:53:47.49	302.19	43.48	-31.2	-32.1	21.7	0.00e+00	0	58	0	1485832192	32	4119
2026-01-02 04:53:48.50	301.67	43.50	-31.1	-32.0	21.8	0.00e+00	0	58	0	1493172224	32	4066
2026-01-02 04:53:49.52	301.14	43.51	-30.7	-31.6	22.1	0.00e+00	0	58	0	1500512256	32	3907
2026-01-02 04:53:50.53	300.61	43.53	-30.6	-31.4	22.3	0.00e+00	0	58	0	1507852288	32	3817
2026-01-02 04:53:51.54	300.09	43.54	-30.6	-31.4	22.3	0.00e+00	0	58	0	1515192320	32	3821
2026-01-02 04:53:52.55	299.56	43.54	-30.8	-31.7	22.1	0.00e+00	0	58	0	1522532352	32	3941
2026-01-02 04:53:53.56	299.04	43.55	-30.9	-31.8	21.9	0.00e+00	0	57	0	1529872384	32	3994
2026-01-02 04:53:54.57	298.51	43.55	-30.9	-31.9	21.9	0.00e+00	0	58	0	1536163840	32	4007
2026-01-02 04:53:55.58	297.99	43.55	-30.9	-31.7	22.0	0.00e+00	0	57	0	1544552448	32	3958
2026-01-02 04:53:56.59	297.46	43.55	-30.8	-31.7	22.0	0.00e+00	0	58	0	1551892480	32	3937
2026-01-02 04:53:57.60	296.93	43.54	-30.7	-31.6	22.0	0.00e+00	0	58	0	1558183936	32	3877
2026-01-02 04:53:58.61	296.41	43.54	-30.9	-31.8	22.0	0.00e+00	0	58	0	1565523968	32	3969
2026-01-02 04:53:59.62	295.88	43.52	-31.0	-31.9	21.8	0.00e+00	0	57	0	1572864000	32	4047
2026-01-02 04:54:00.63	295.36	43.51	-31.1	-32.1	21.7	0.00e+00	0	58	0	1580204032	32	4102
2026-01-02 04:54:01.64	294.83	43.49	-31.1	-32.0	21.8	0.00e+00	0	58	0	1587544064	32	4056
2026-01-02 04:54:02.65	294.31	43.48	-31.2	-32.1	21.7	0.00e+00	0	57	0	1594884096	32	4113
2026-01-02 04:54:03.66	293.79	43.45	-31.2	-32.1	21.7	0.00e+00	0	57	0	1602224128	32	4125
2026-01-02 04:54:04.67	293.26	43.43	-31.1	-32.0	21.8	0.00e+00	0	58	0	1609564160	32	4077
2026-01-02 04:54:05.68	292.74	43.40	-31.0	-31.8	21.9	0.00e+00	0	58	0	1616904192	32	4003
2026-01-02 04:54:06.69	292.22	43.37	-31.0	-31.9	21.9	0.00e+00	0	58	0	1624244224	32	4005
2026-01-02 04:54:07.70	291.70	43.34	-30.9	-31.7	21.9	0.00e+00	0	58	0	1631584256	32	3958
2026-01-02 04:54:08.71	291.18	43.31	-30.6	-31.5	22.2	0.00e+00	0	57	0	1638924288	32	3832
2026-01-02 04:54:09.72	290.67	43.27	-30.4	-31.3	22.3	0.00e+00	0	57	0	1646264320	31	3961
2026-01-02 04:54:10.73	290.15	43.23	-30.5	-31.3	22.2	0.00e+00	0	58	0	1653604352	31	4004
2026-01-02 04:54:11.74	289.63	43.19	-30.5	-31.4	22.2	0.00e+00	0	57	0	1660944384	31	4037
2026-01-02 04:54:12.75	289.12	43.14	-30.5	-31.4	22.1	0.00e+00	0	57	0	1668284416	31	4041
2026-01-02 04:54:13.76	288.61	43.09	-30.5	-31.4	22.2	0.00e+00	0	58	0	1675624448	31	4010
2026-01-02 04:54:14.77	288.10	43.04	-30.5	-31.4	22.2	0.00e+00	0	58	0	1682964480	31	4005
2026-01-02 04:54:15.78	287.59	42.99	-30.3	-31.2	22.3	0.00e+00	0	58	0	1690304512	31	3947
2026-01-02 04:54:16.79	287.08	42.94	-30.4	-31.3	22.3	0.00e+00	0	58	0	1697644544	31	3969
2026-01-02 04:54:17.80	286.58	42.88	-30.4	-31.3	22.3	0.00e+00	0	58	0	1703936000	31	3969
2026-01-02 04:54:18.81	286.07	42.82	-30.3	-31.2	22.3	0.00e+00	0	58	0	1711276032	31	3936
2026-01-02 04:54:19.82	285.57	42.76	-30.3	-31.2	22.3	0.00e+00	0	57	0	1718616064	31	3925
2026-01-02 04:54:20.83	285.07	42.69	-30.3	-31.2	22.4	0.00e+00	0	58	0	1725956096	31	3929
2026-01-02 04:54:21.84	284.57	42.63	-30.2	-31.1	22.4	0.00e+00	0	57	0	1733296128	31	3891
2026-01-02 04:54:22.85	284.08	42.56	-30.2	-31.1	22.4	0.00e+00	0	58	0	1740636160	31	3900
2026-01-02 04:54:23.86	283.59	42.48	-30.1	-30.9	22.6	0.00e+00	0	58	0	1747976192	31	3824
2026-01-02 04:54:24.87	283.09	42.41	-30.0	-30.9	22.6	0.00e+00	0	57	0	1755316224	31	3807
2026-01-02 04:54:25.88	282.61	42.33	-30.1	-30.9	22.6	0.00e+00	0	57	0	1762656256	30	4047
2026-01-02 04:54:26.89	282.12	42.26	-30.2	-31.1	22.4	0.00e+00	0	58	0	1769996288	30	4112
2026-01-02 04:54:27.90	281.63	42.18	-30.3	-31.2	22.4	0.00e+00	0	58	0	1777336320	30	4162
2026-01-02 04:54:28.91	281.15	42.09	-30.4	-31.3	22.3	0.00e+00	0	58	0	1784676352	30	4198
2026-01-02 04:54:29.92	280.67	42.01	-30.3	-31.2	22.4	0.00e+00	0	58	0	1792016384	30	4159
2026-01-02 04:54:30.93	280.20	41.92	-30.3	-31.1	22.4	0.00e+00	0	57	0	1799356416	30	4142
2026-01-02 04:54:31.94	279.72	41.83	-30.3	-31.1	22.4	0.00e+00	0	58	0	1806696448	30	4138
2026-01-02 04:54:32.95	279.25	41.74	-30.3	-31.2	22.4	0.00e+00	0	57	0	1814036480	30	4160
2026-01-02 04:54:33.96	278.78	41.65	-30.3	-31.2	22.4	0.00e+00	0	58	0	1821376512	30	4146
2026-01-02 04:54:34.97	278.32	41.56	-30.2	-31.1	22.4	0.00e+00	0	58	0	1828716544	30	4135
2026-01-02 04:54:35.98	277.85	41.46	-30.2	-31.1	22.5	0.00e+00	0	58	0	1836056576	30	4103
2026-01-02 04:54:36.99	277.39	41.36	-30.1	-31.0	22.5	0.00e+00	0	58	0	1843396608	30	4071
2026-01-02 04:54:38.00	276.93	41.26	-30.2	-31.1	22.5	0.00e+00	0	58	0	1850736640	30	4104
2026-01-02 04:54:39.01	276.48	41.16	-30.3	-31.2	22.4	0.00e+00	0	58	0	1857028096	30	4157
2026-01-02 04:54:40.02	276.03	41.06	-30.4	-31.3	22.3	0.00e+00	0	58	0	1865416704	30	4204
2026-01-02 04:54:41.03	275.58	40.95	-30.3	-31.1	22.4	0.00e+00	0	58	0	1872756736	30	4144
2026-01-02 04:54:42.04	275.13	40.84	-30.2	-31.1	22.5	0.00e+00	0	58	0	1879048192	30	4116
2026-01-02 04:54:43.05	274.69	40.74	-30.1	-31.0	22.6	0.00e+00	0	58	0	1886388224	30	4055
2026-01-02 04:54:44.06	274.25	40.63	-30.1	-31.0	22.5	0.00e+00	0	58	0	1893728256	30	4071
2026-01-02 04:54:45.07	273.81	40.51	-30.2	-31.1	22.5	0.00e+00	0	58	0	1901068288	30	4100
2026-01-02 04:54:46.08	273.38	40.40	-30.3	-31.2	22.3	0.00e+00	0	58	0	1908408320	30	4169
2026-01-02 04:54:47.09	272.94	40.29	-30.3	-31.2	22.3	0.00e+00	0	58	0	1915748352	30	4175
2026-01-02 04:54:48.10	272.52	40.17	-30.4	-31.3	22.3	0.00e+00	0	58	0	1923088384	30	4206
2026-01-02 04:54:49.11	272.09	40.05	-30.3	-31.2	22.3	0.00e+00	0	57	0	1930428416	30	4177
2026-01-02 04:54:50.12	271.67	39.93	-30.3	-31.2	22.3	0.00e+00	0	58	0	1937768448	30	4158
2026-01-02 04:54:51.13	271.25	39.81	-30.3	-31.2	22.1	0.00e+00	0	58	0	1945108480	30	4156
2026-01-02 04:54:52.14	270.83	39.69	-30.4	-31.3	22.2	0.00e+00	0	57	0	1952448512	30	4227
2026-01-02 04:54:53.15	270.42	39.57	-30.6	-31.4	22.1	0.00e+00	0	58	0	1959788544	30	4284
2026-01-02 04:54:54.16	270.01	39.44	-30.7	-31.6	22.0	0.00e+00	0	58	0	1967128576	30	4359
2026-01-02 04:54:55.17	269.61	39.32	-30.7	-31.6	21.9	0.00e+00	0	58	0	1974468608	31	4143
2026-01-02 04:54:56.19	269.20	39.19	-30.7	-31.6	21.9	0.00e+00	0	58	0	1981808640	31	4118
2026-01-02 04:54:57.20	268.80	39.06	-30.5	-31.4	22.2	0.00e+00	0	58	0	1989148672	31	4019
2026-01-02 04:54:58.21	268.40	38.94	-30.4	-31.3	22.2	0.00e+00	0	57	0	1996488704	31	3972
2026-01-02 04:54:59.22	268.01	38.81	-30.4	-31.2	22.3	0.00e+00	0	58	0	2003828736	31	3954
2026-01-02 04:55:00.23	267.62	38.67	-30.5	-31.4	22.2	0.00e+00	0	58	0	2011168768	31	4006
2026-01-02 04:55:01.24	267.23	38.54	-30.6	-31.5	22.1	0.00e+00	0	58	0	2018508800	31	4060
2026-01-02 04:55:02.25	266.85	38.41	-30.5	-31.4	22.2	0.00e+00	0	58	0	2025848832	31	4007
2026-01-02 04:55:03.26	266.46	38.28	-30.3	-31.2	22.2	0.00e+00	0	57	0	2032140288	31	3943
2026-01-02 04:55:04.27	266.09	38.14	-30.3	-31.2	22.3	0.00e+00	0	58	0	2040528896	31	3918
2026-01-02 04:55:05.28	265.71	38.01	-30.2	-31.1	22.4	0.00e+00	0	58	0	2046820352	31	3904
2026-01-02 04:55:06.29	265.34	37.87	-30.1	-31.0	22.5	0.00e+00	0	58	0	2054160384	31	3853
2026-01-02 04:55:07.30	264.97	37.73	-30.1	-31.0	22.5	0.00e+00	0	58	0	2061500416	31	3844
2026-01-02 04:55:08.31	264.61	37.59	-30.1	-31.0	22.5	0.00e+00	0	58	0	2068840448	31	3839
2026-01-02 04:55:09.32	264.24	37.46	-30.3	-31.2	22.3	0.00e+00	0	58	0	2076180480	31	3945
2026-01-02 04:55:10.33	263.88	37.32	-30.5	-31.4	22.1	0.00e+00	0	58	0	2083520512	31	4032
2026-01-02 04:55:11.34	263.53	37.18	-30.6	-31.5	22.1	0.00e+00	0	58	0	2090860544	31	4072
2026-01-02 04:55:12.35	263.17	37.03	-30.5	-31.4	22.1	0.00e+00	0	58	0	2098200576	31	4023
2026-01-02 04:55:13.35	262.83	36.89	-30.4	-31.3	22.3	0.00e+00	0	58	0	2105540608	31	3964
2026-01-02 04:55:14.36	262.48	36.75	-30.3	-31.2	22.3	0.00e+00	0	58	0	2112880640	31	3943
2026-01-02 04:55:15.37	262.14	36.61	-30.2	-31.1	22.4	0.00e+00	0	58	0	2120220672	31	3888
2026-01-02 04:55:16.38	261.79	36.47	-30.2	-31.1	22.4	0.00e+00	0	57	0	2127560704	31	3877
2026-01-02 04:55:17.39	261.46	36.32	-30.1	-31.0	22.5	0.00e+00	0	58	0	2134900736	31	3846
2026-01-02 04:55:18.40	261.12	36.18	-30.1	-31.0	22.5	0.00e+00	0	58	0	2142240768	31	3843
2026-01-02 04:55:19.41	260.79	36.03	-30.1	-30.9	22.6	0.00e+00	0	58	0	2149580800	31	3805
2026-01-02 04:55:20.42	260.46	35.89	-29.9	-30.8	22.7	0.00e+00	0	58	0	2156920832	30	3990
2026-01-02 04:55:21.43	260.13	35.74	-29.8	-30.7	22.8	0.00e+00	0	58	0	2164260864	30	3937
2026-01-02 04:55:22.44	259.81	35.60	-29.8	-30.7	22.7	0.00e+00	0	58	0	2171600896	30	3933
2026-01-02 04:55:23.45	259.49	35.45	-29.9	-30.8	22.7	0.00e+00	0	58	0	2177892352	30	3985
2026-01-02 04:55:24.46	259.17	35.31	-30.1	-30.9	21.8	0.00e+00	0	58	0	2185232384	30	4033
2026-01-02 04:55:25.47	258.86	35.16	-30.2	-31.1	22.4	0.00e+00	0	58	0	2193620992	30	4135
2026-01-02 04:55:26.48	258.54	35.01	-30.3	-31.2	22.3	0.00e+00	0	58	0	2199912448	30	4164
2026-01-02 04:55:27.49	258.24	34.86	-30.3	-31.2	22.3	0.00e+00	0	58	0	2207252480	30	4166
2026-01-02 04:55:28.50	257.93	34.72	-30.2	-31.1	22.4	0.00e+00	0	58	0	2214592512	30	4116
2026-01-02 04:55:29.51	257.63	34.57	-30.1	-31.0	22.5	0.00e+00	0	58	0	2221932544	30	4058
2026-01-02 04:55:30.52	257.33	34.42	-30.0	-30.8	22.6	0.00e+00	0	58	0	2229272576	30	3984
2026-01-02 04:55:31.53	257.03	34.27	-29.9	-30.8	22.7	0.00e+00	0	58	0	2236612608	30	3974
2026-01-02 04:55:32.54	256.73	34.12	-29.9	-30.7	22.7	0.00e+00	0	57	0	2243952640	30	3938
2026-01-02 04:55:33.55	256.44	33.97	-29.9	-30.8	22.6	0.00e+00	0	58	0	2251292672	30	3985
2026-01-02 04:55:34.56	256.15	33.83	-30.2	-31.1	22.4	0.00e+00	0	58	0	2258632704	30	4100
2026-01-02 04:55:35.57	255.86	33.68	-30.3	-31.2	22.3	0.00e+00	0	58	0	2265972736	30	4151
2026-01-02 04:55:36.58	255.58	33.53	-30.3	-31.2	22.3	0.00e+00	0	57	0	2273312768	30	4171
2026-01-02 04:55:37.59	255.29	33.38	-30.4	-31.3	22.2	0.00e+00	0	57	0	2280652800	30	4216
2026-01-02 04:55:38.60	255.02	33.23	-30.5	-31.4	22.1	0.00e+00	0	57	0	2287992832	30	4273
2026-01-02 04:55:39.61	254.74	33.08	-30.5	-31.4	22.1	0.00e+00	0	57	0	2295332864	30	4251
2026-01-02 04:55:40.62	254.46	32.93	-30.3	-31.2	22.3	0.00e+00	0	58	0	2302672896	30	4158
2026-01-02 04:55:41.63	254.19	32.78	-30.2	-31.0	22.4	0.00e+00	0	58	0	2310012928	30	4098
2026-01-02 04:55:42.64	253.92	32.63	-30.2	-31.1	22.4	0.00e+00	0	58	0	2317352960	30	4103
2026-01-02 04:55:43.65	253.66	32.48	-30.0	-30.9	22.5	0.00e+00	0	58	0	2324692992	30	4027
2026-01-02 04:55:44.66	253.39	32.33	-30.0	-30.9	22.6	0.00e+00	0	58	0	2330984448	30	4015
2026-01-02 04:55:45.67	253.13	32.19	-30.0	-30.9	22.6	0.00e+00	0	58	0	2339373056	30	4015
2026-01-02 04:55:46.68	252.87	32.04	-30.1	-31.0	22.5	0.00e+00	0	58	0	2346713088	30	4072
2026-01-02 04:55:47.69	252.61	31.89	-30.2	-31.1	22.4	0.00e+00	0	58	0	2353004544	30	4123
2026-01-02 04:55:48.70	252.36	31.74	-30.2	-31.1	22.4	0.00e+00	0	58	0	2360344576	30	4099
2026-01-02 04:55:49.71	252.11	31.59	-30.1	-30.9	22.5	0.00e+00	0	58	0	2367684608	30	4042
2026-01-02 04:55:50.72	251.85	31.44	-29.9	-30.8	22.7	0.00e+00	0	58	0	2375024640	30	3962
2026-01-02 04:55:51.73	251.61	31.29	-29.8	-30.6	22.8	0.00e+00	0	58	0	2382364672	30	3897
2026-01-02 04:55:52.75	251.36	31.14	-29.7	-30.5	22.9	0.00e+00	0	58	0	2389704704	30	3854
2026-01-02 04:55:53.76	251.12	31.00	-29.7	-30.5	22.8	0.00e+00	0	58	0	2397044736	30	3856
2026-01-02 04:55:54.77	250.87	30.85	-29.8	-30.6	22.8	0.00e+00	0	58	0	2404384768	30	3895
2026-01-02 04:55:55.78	250.64	30.70	-29.9	-30.8	22.6	0.00e+00	0	58	0	2411724800	30	3975
2026-01-02 04:55:56.79	250.40	30.55	-30.1	-31.0	22.4	0.00e+00	0	58	0	2419064832	30	4060
2026-01-02 04:55:57.80	250.16	30.40	-30.2	-31.0	22.4	0.00e+00	0	58	0	2426404864	30	4092
2026-01-02 04:55:58.81	249.93	30.26	-30.3	-31.1	22.3	0.00e+00	0	58	0	2433744896	30	4141
2026-01-02 04:55:59.82	249.70	30.11	-30.3	-31.1	22.3	0.00e+00	0	58	0	2441084928	30	4141
2026-01-02 04:56:00.83	249.47	29.96	-30.3	-31.2	22.2	0.00e+00	0	58	0	2448424960	30	4177
2026-01-02 04:56:01.84	249.25	29.82	-30.5	-31.4	22.0	0.00e+00	0	58	0	2455764992	30	4281
2026-01-02 04:56:02.85	249.02	29.67	-30.7	-31.6	21.9	0.00e+00	0	58	0	2463105024	30	4374
2026-01-02 04:56:03.86	248.80	29.53	-30.8	-31.7	21.7	0.00e+00	0	57	0	2470445056	31	4193
2026-01-02 04:56:04.87	248.58	29.38	-30.9	-31.8	21.7	0.00e+00	0	58	0	2477785088	31	4218
2026-01-02 04:56:05.88	248.36	29.23	-30.8	-31.8	21.6	0.00e+00	0	58	0	2485125120	31	4204
2026-01-02 04:56:06.89	248.15	29.09	-30.8	-31.7	21.8	0.00e+00	0	58	0	2492465152	31	4177
2026-01-02 04:56:07.90	247.93	28.94	-30.7	-31.6	21.9	0.00e+00	0	58	0	2498756608	31	4110
2026-01-02 04:56:08.91	247.72	28.80	-30.5	-31.4	22.0	0.00e+00	0	58	0	2506096640	31	4030
2026-01-02 04:56:09.92	247.51	28.66	-30.4	-31.3	22.1	0.00e+00	0	58	0	2514485248	31	3988
2026-01-02 04:56:10.94	247.30	28.51	-30.4	-31.3	22.2	0.00e+00	0	58	0	2520776704	31	3963
2026-01-02 04:56:11.95	247.09	28.37	-30.5	-31.4	22.1	0.00e+00	0	58	0	2528116736	31	4009
2026-01-02 04:56:12.96	246.89	28.22	-30.4	-31.2	22.2	0.00e+00	0	58	0	2535456768	31	3958
2026-01-02 04:56:13.97	246.69	28.08	-30.4	-31.3	22.1	0.00e+00	0	58	0	2542796800	31	3980
2026-01-02 04:56:14.98	246.49	27.94	-30.4	-31.3	22.1	0.00e+00	0	58	0	2550136832	31	3986
2026-01-02 04:56:15.98	246.29	27.80	-30.4	-31.3	22.1	0.00e+00	0	58	0	2557476864	31	3988
2026-01-02 04:56:17.00	246.09	27.65	-30.5	-31.4	21.9	0.00e+00	0	58	0	2564816896	31	4037
2026-01-02 04:56:18.01	245.89	27.51	-30.6	-31.5	21.9	0.00e+00	0	58	0	2572156928	31	4080
2026-01-02 04:56:19.02	245.70	27.37	-30.6	-31.4	22.0	0.00e+00	0	58	0	2579496960	31	4051
2026-01-02 04:56:20.03	245.51	27.23	-30.5	-31.4	22.1	0.00e+00	0	58	0	2586836992	31	4012
2026-01-02 04:56:21.04	245.32	27.09	-30.4	-31.3	22.1	0.00e+00	0	57	0	2594177024	31	3999
2026-01-02 04:56:22.05	245.13	26.95	-30.4	-31.3	22.1	0.00e+00	0	58	0	2601517056	31	3964
2026-01-02 04:56:23.06	244.94	26.81	-30.5	-31.4	22.0	0.00e+00	0	58	0	2608857088	31	4022
2026-01-02 04:56:24.07	244.76	26.67	-30.3	-31.2	22.2	0.00e+00	0	58	0	2616197120	31	3933
2026-01-02 04:56:25.08	244.57	26.53	-30.3	-31.2	22.2	0.00e+00	0	58	0	2623537152	31	3921
2026-01-02 04:56:26.09	244.39	26.39	-30.4	-31.2	22.2	0.00e+00	0	57	0	2630877184	31	3949
2026-01-02 04:56:27.10	244.21	26.25	-30.5	-31.4	22.0	0.00e+00	0	58	0	2638217216	31	4009
2026-01-02 04:56:28.11	244.03	26.12	-30.6	-31.5	21.9	0.00e+00	0	57	0	2645557248	31	4087
2026-01-02 04:56:29.12	243.85	25.98	-30.6	-31.5	21.9	0.00e+00	0	58	0	2652897280	31	4074
2026-01-02 04:56:30.13	243.68	25.84	-30.5	-31.4	21.8	0.00e+00	0	57	0	2660237312	31	4045
2026-01-02 04:56:31.15	243.50	25.70	-30.6	-31.5	22.0	0.00e+00	0	58	0	2667577344	31	4058
2026-01-02 04:56:32.15	243.33	25.57	-30.6	-31.5	21.9	0.00e+00	0	58	0	2673868800	31	4076
2026-01-02 04:56:33.16	243.16	25.43	-30.6	-31.5	21.9	0.00e+00	0	58	0	2681208832	31	4076
2026-01-02 04:56:34.17	242.99	25.30	-30.6	-31.5	21.9	0.00e+00	0	58	0	2688548864	31	4079
2026-01-02 04:56:35.18	242.82	25.16	-30.6	-31.5	21.8	0.00e+00	0	58	0	2695888896	31	4091
2026-01-02 04:56:36.19	242.65	25.03	-30.7	-31.6	21.9	0.00e+00	0	58	0	2703228928	31	4107
2026-01-02 04:56:37.20	242.49	24.90	-30.5	-31.4	22.0	0.00e+00	0	57	0	2710568960	31	4035
2026-01-02 04:56:38.21	242.32	24.76	-30.5	-31.4	21.9	0.00e+00	0	58	0	2717908992	31	4043
2026-01-02 04:56:39.22	242.16	24.63	-30.6	-31.5	21.9	0.00e+00	0	58	0	2725249024	31	4092
2026-01-02 04:56:40.23	242.00	24.50	-30.6	-31.5	21.9	0.00e+00	0	58	0	2732589056	31	4053
2026-01-02 04:56:41.24	241.84	24.36	-30.4	-31.3	22.1	0.00e+00	0	58	0	2739929088	31	3970
2026-01-02 04:56:42.25	241.68	24.23	-30.4	-31.3	22.1	0.00e+00	0	58	0	2747269120	31	3965
2026-01-02 04:56:43.26	241.52	24.10	-30.5	-31.4	22.0	0.00e+00	0	58	0	2754609152	31	4008
2026-01-02 04:56:44.27	241.37	23.97	-30.6	-31.5	21.9	0.00e+00	0	58	0	2761949184	31	4068
2026-01-02 04:56:45.28	241.21	23.84	-30.7	-31.6	21.8	0.00e+00	0	58	0	2769289216	31	4128
2026-01-02 04:56:46.29	241.06	23.71	-30.8	-31.7	21.6	0.00e+00	0	58	0	2776629248	31	4192
2026-01-02 04:56:47.30	240.91	23.58	-31.0	-31.9	21.5	0.00e+00	0	58	0	2783969280	31	4256
2026-01-02 04:56:48.31	240.76	23.45	-30.8	-31.7	21.6	0.00e+00	0	58	0	2791309312	31	4186
2026-01-02 04:56:49.32	240.61	23.32	-30.8	-31.7	21.7	0.00e+00	0	58	0	2797600768	31	4185
2026-01-02 04:56:50.33	240.46	23.19	-30.7	-31.6	21.7	0.00e+00	0	58	0	2805989376	31	4138
2026-01-02 04:56:51.34	240.31	23.06	-30.6	-31.6	21.8	0.00e+00	0	58	0	2813329408	31	4100
2026-01-02 04:56:52.35	240.16	22.93	-30.6	-31.5	21.9	0.00e+00	0	58	0	2819620864	31	4070
2026-01-02 04:56:53.36	240.02	22.81	-30.5	-31.4	21.9	0.00e+00	0	58	0	2826960896	31	4036
2026-01-02 04:56:54.37	239.88	22.68	-30.5	-31.4	22.0	0.00e+00	0	58	0	2834300928	31	4020
2026-01-02 04:56:55.38	239.73	22.55	-30.6	-31.5	21.9	0.00e+00	0	58	0	2841640960	31	4060
2026-01-02 04:56:56.39	239.59	22.43	-30.7	-31.6	21.8	0.00e+00	0	58	0	2848980992	31	4122
2026-01-02 04:56:57.40	239.45	22.30	-30.9	-31.9	21.5	0.00e+00	0	58	0	2856321024	31	4244
2026-01-02 04:56:58.41	239.31	22.18	-31.0	-31.9	21.4	0.00e+00	0	58	0	2863661056	31	4276
2026-01-02 04:56:59.42	239.18	22.05	-31.1	-32.0	21.4	0.00e+00	0	58	0	2871001088	31	4308
2026-01-02 04:57:00.43	239.04	21.93	-31.1	-32.0	21.4	0.00e+00	0	58	0	2878341120	31	4328
2026-01-02 04:57:01.44	238.90	21.81	-31.1	-32.1	21.3	0.00e+00	0	58	0	2885681152	31	4354
2026-01-02 04:57:02.45	238.77	21.68	-31.1	-32.1	21.3	0.00e+00	0	58	0	2893021184	31	4344
2026-01-02 04:57:03.46	238.64	21.56	-31.4	-32.3	21.2	0.00e+00	0	57	0	2900361216	32	4235
2026-01-02 04:57:04.47	238.50	21.44	-31.3	-32.2	21.3	0.00e+00	0	58	0	2907701248	32	4185
2026-01-02 04:57:05.48	238.37	21.31	-31.3	-32.3	21.3	0.00e+00	0	58	0	2915041280	32	4194
2026-01-02 04:57:06.49	238.24	21.19	-31.3	-32.2	21.4	0.00e+00	0	58	0	2922381312	32	4163
2026-01-02 04:57:07.50	238.11	21.07	-31.3	-32.2	21.4	0.00e+00	0	57	0	2929721344	32	4167
2026-01-02 04:57:08.51	237.99	20.95	-31.4	-32.3	21.2	0.00e+00	0	58	0	2937061376	32	4222
2026-01-02 04:57:09.51	237.86	20.83	-31.5	-32.4	21.1	0.00e+00	0	58	0	2944401408	32	4272
2026-01-02 04:57:10.52	237.73	20.71	-31.6	-32.6	21.0	0.00e+00	0	58	0	2951741440	32	4341
2026-01-02 04:57:11.53	237.61	20.59	-31.7	-32.7	20.9	0.00e+00	0	58	0	2959081472	32	4401
2026-01-02 04:57:12.55	237.48	20.47	-31.8	-32.8	20.8	0.00e+00	0	58	0	2966421504	33	4203
2026-01-02 04:57:13.56	237.36	20.35	-31.7	-32.7	20.9	0.00e+00	0	57	0	2972712960	33	4152
2026-01-02 04:57:14.57	237.24	20.23	-31.8	-32.7	20.8	0.00e+00	0	58	0	2980052992	33	4177
2026-01-02 04:57:15.58	237.12	20.12	-31.8	-32.7	20.8	0.00e+00	0	58	0	2988441600	33	4176
2026-01-02 04:57:16.59	237.00	20.00	-31.7	-32.7	20.8	0.00e+00	0	58	0	2994733056	33	4159
2026-01-02 04:57:17.60	236.88	19.88	-31.5	-32.4	21.1	0.00e+00	0	58	0	3002073088	33	4050
2026-01-02 04:57:18.61	236.76	19.77	-31.5	-32.4	21.1	0.00e+00	0	58	0	3009413120	33	4021
2026-01-02 04:57:19.62	236.64	19.65	-31.4	-32.4	21.2	0.00e+00	0	58	0	3016753152	33	4012
2026-01-02 04:57:20.62	236.53	19.53	-31.5	-32.4	21.1	0.00e+00	0	58	0	3024093184	33	4043
2026-01-02 04:57:21.63	236.41	19.42	-31.6	-32.5	21.0	0.00e+00	0	57	0	3031433216	33	4071
2026-01-02 04:57:22.65	236.29	19.30	-31.6	-32.6	21.0	0.00e+00	0	57	0	3038773248	33	4115
2026-01-02 04:57:23.66	236.18	19.19	-31.8	-32.7	20.8	0.00e+00	0	58	0	3046113280	33	4186
2026-01-02 04:57:24.67	236.07	19.07	-31.9	-32.9	20.6	0.00e+00	0	57	0	3053453312	33	4271
2026-01-02 04:57:25.68	235.96	18.96	-32.0	-33.0	20.5	0.00e+00	0	58	0	3060793344	33	4332
2026-01-02 04:57:26.69	235.84	18.85	-32.0	-33.0	20.5	0.00e+00	0	58	0	3068133376	33	4328
2026-01-02 04:57:27.70	235.73	18.73	-32.1	-33.1	20.5	0.00e+00	0	58	0	3075473408	33	4341
2026-01-02 04:57:28.71	235.62	18.62	-32.1	-33.1	20.4	0.00e+00	0	58	0	3082813440	33	4359
2026-01-02 04:57:29.72	235.51	18.51	-32.1	-33.0	20.5	0.00e+00	0	58	0	3090153472	33	4339
2026-01-02 04:57:30.73	235.41	18.40	-32.1	-33.0	20.5	0.00e+00	0	58	0	3097493504	33	4338
2026-01-02 04:57:31.74	235.30	18.29	-32.0	-33.0	20.5	0.00e+00	0	58	0	3104833536	33	4306
2026-01-02 04:57:32.75	235.19	18.18	-32.0	-33.0	20.5	0.00e+00	0	58	0	3112173568	33	4326
2026-01-02 04:57:33.76	235.09	18.07	-32.0	-33.0	20.5	0.00e+00	0	58	0	3118465024	33	4324
2026-01-02 04:57:34.77	234.98	17.96	-32.0	-33.0	20.6	0.00e+00	0	57	0	3126853632	33	4296
2026-01-02 04:57:35.78	234.88	17.85	-32.0	-33.0	20.5	0.00e+00	0	58	0	3134193664	33	4315
2026-01-02 04:57:36.79	234.78	17.74	-32.1	-33.1	20.5	0.00e+00	0	58	0	3140485120	33	4351
2026-01-02 04:57:37.80	234.67	17.63	-32.1	-33.1	20.4	0.00e+00	0	58	0	3147825152	33	4358
2026-01-02 04:57:38.81	234.57	17.52	-32.2	-33.2	20.3	0.00e+00	0	58	0	3155165184	34	4182
2026-01-02 04:57:39.82	234.47	17.41	-32.2	-33.2	20.3	0.00e+00	0	58	0	3162505216	34	4166
2026-01-02 04:57:40.83	234.37	17.30	-32.2	-33.2	20.3	0.00e+00	0	58	0	3169845248	34	4186
2026-01-02 04:57:41.84	234.27	17.20	-32.3	-33.3	20.2	0.00e+00	0	58	0	3177185280	34	4217
2026-01-02 04:57:42.85	234.17	17.09	-32.4	-33.4	20.2	0.00e+00	0	57	0	3184525312	34	4247
2026-01-02 04:57:43.86	234.07	16.98	-32.3	-33.3	20.2	0.00e+00	0	57	0	3191865344	34	4239
2026-01-02 04:57:44.88	233.97	16.87	-32.4	-33.5	20.1	0.00e+00	0	57	0	3199205376	34	4294
2026-01-02 04:57:45.89	233.88	16.77	-32.5	-33.6	20.0	0.00e+00	0	57	0	3206545408	34	4350
2026-01-02 04:57:46.90	233.78	16.66	-32.5	-33.5	20.0	0.00e+00	0	58	0	3213885440	34	4335
2026-01-02 04:57:47.91	233.69	16.56	-32.4	-33.4	20.1	0.00e+00	0	58	0	3221225472	34	4285
2026-01-02 04:57:48.92	233.59	16.45	-32.5	-33.5	20.0	0.00e+00	0	58	0	3228565504	34	4331
2026-01-02 04:57:49.93	233.50	16.35	-32.7	-33.7	19.8	0.00e+00	0	58	0	3235905536	34	4415
2026-01-02 04:57:50.94	233.40	16.24	-32.7	-33.7	19.8	0.00e+00	0	58	0	3243245568	34	4408
2026-01-02 04:57:51.95	233.31	16.14	-32.7	-33.8	19.7	0.00e+00	0	58	0	3250585600	35	4194
2026-01-02 04:57:52.96	233.22	16.04	-32.6	-33.6	19.9	0.00e+00	0	58	0	3257925632	35	4138
2026-01-02 04:57:53.97	233.13	15.93	-32.6	-33.6	19.8	0.00e+00	0	58	0	3265265664	35	4136
2026-01-02 04:57:54.97	233.04	15.83	-32.6	-33.7	19.8	0.00e+00	0	58	0	3272605696	35	4149
2026-01-02 04:57:55.98	232.95	15.73	-32.7	-33.7	19.8	0.00e+00	0	58	0	3279945728	35	4179
2026-01-02 04:57:56.99	232.86	15.63	-32.8	-33.8	19.6	0.00e+00	0	57	0	3287285760	35	4224
2026-01-02 04:57:58.00	232.77	15.53	-32.9	-33.9	19.5	0.00e+00	0	58	0	3293577216	35	4282
2026-01-02 04:57:59.01	232.68	15.43	-33.0	-34.1	19.3	0.00e+00	0	58	0	3300917248	35	4341
2026-01-02 04:58:00.02	232.59	15.33	-33.1	-34.2	19.3	0.00e+00	0	58	0	3308257280	35	4406
2026-01-02 04:58:01.03	232.51	15.22	-33.2	-34.2	19.2	0.00e+00	0	58	0	3315597312	35	4440
2026-01-02 04:58:02.04	232.42	15.12	-33.9	-35.0	19.2	0.00e+00	0	58	0	3322937344	37	4325
2026-01-02 04:58:03.05	232.33	15.02	-34.0	-35.0	19.3	0.00e+00	0	58	0	3330277376	37	4340
2026-01-02 04:58:04.06	232.25	14.93	-34.0	-35.1	19.2	0.00e+00	0	58	0	3337617408	37	4365
2026-01-02 04:58:05.08	232.16	14.83	-34.1	-35.2	19.1	0.00e+00	0	58	0	3344957440	37	4427
2026-01-02 04:58:06.08	232.08	14.73	-34.2	-35.3	19.0	0.00e+00	0	58	0	3352297472	38	4225
2026-01-02 04:58:07.09	232.00	14.63	-34.2	-35.3	19.0	0.00e+00	0	57	0	3359637504	38	4208
2026-01-02 04:58:08.10	231.91	14.53	-34.2	-35.3	19.0	0.00e+00	0	58	0	3366977536	38	4196
2026-01-02 04:58:09.11	231.83	14.43	-34.2	-35.3	19.0	0.00e+00	0	58	0	3374317568	38	4223
2026-01-02 04:58:10.12	231.75	14.34	-34.0	-35.1	19.2	0.00e+00	0	58	0	3381657600	38	4130
2026-01-02 04:58:11.13	231.67	14.24	-33.8	-34.9	19.3	0.00e+00	0	58	0	3388997632	38	4027
2026-01-02 04:58:12.14	231.59	14.14	-33.8	-34.9	19.4	0.00e+00	0	58	0	3396337664	38	4012
2026-01-02 04:58:13.16	231.51	14.04	-33.9	-34.9	19.3	0.00e+00	0	58	0	3403677696	38	4041
2026-01-02 04:58:14.17	231.43	13.95	-33.9	-34.9	19.2	0.00e+00	0	58	0	3411017728	38	4050
2026-01-02 04:58:15.18	231.35	13.85	-33.8	-34.9	19.4	0.00e+00	0	58	0	3418357760	38	4019
2026-01-02 04:58:16.19	231.27	13.76	-33.8	-34.9	19.3	0.00e+00	0	58	0	3425697792	38	4029
2026-01-02 04:58:17.20	231.19	13.66	-33.9	-35.0	19.2	0.00e+00	0	57	0	3433037824	38	4068
2026-01-02 04:58:18.21	231.11	13.57	-34.0	-35.1	19.2	0.00e+00	0	58	0	3439329280	38	4111
2026-01-02 04:58:19.22	231.04	13.47	-34.0	-35.1	19.1	0.00e+00	0	58	0	3446669312	38	4131
2026-01-02 04:58:20.23	230.96	13.38	-33.9	-35.0	19.2	0.00e+00	0	58	0	3455057920	38	4073
2026-01-02 04:58:21.24	230.88	13.28	-34.1	-35.1	19.1	0.00e+00	0	58	0	3461349376	38	4142
2026-01-02 04:58:22.25	230.81	13.19	-34.0	-35.1	19.1	0.00e+00	0	58	0	3468689408	38	4120
2026-01-02 04:58:23.26	230.73	13.10	-34.1	-35.2	19.0	0.00e+00	0	57	0	3476029440	38	4177
2026-01-02 04:58:24.27	230.66	13.00	-34.2	-35.3	18.9	0.00e+00	0	58	0	3483369472	38	4232
2026-01-02 04:58:25.28	230.58	12.91	-34.2	-35.3	18.9	0.00e+00	0	58	0	3490709504	38	4238
2026-01-02 04:58:26.28	230.51	12.82	-34.3	-35.4	18.8	0.00e+00	0	58	0	3498049536	38	4290
2026-01-02 04:58:27.29	230.44	12.73	-34.4	-35.5	18.7	0.00e+00	0	58	0	3505389568	38	4307
2026-01-02 04:58:28.30	230.36	12.64	-34.2	-35.3	18.9	0.00e+00	0	58	0	3512729600	38	4203
2026-01-02 04:58:29.31	230.29	12.54	-34.1	-35.2	19.0	0.00e+00	0	57	0	3520069632	38	4157
2026-01-02 04:58:30.32	230.22	12.45	-34.1	-35.2	18.9	0.00e+00	0	58	0	3527409664	38	4172
2026-01-02 04:58:31.33	230.15	12.36	-34.2	-35.3	18.8	0.00e+00	0	58	0	3534749696	38	4237
2026-01-02 04:58:32.34	230.08	12.27	-34.3	-35.4	18.7	0.00e+00	0	58	0	3542089728	38	4279
2026-01-02 04:58:33.35	230.01	12.18	-34.3	-35.4	18.8	0.00e+00	0	58	0	3549429760	38	4252
2026-01-02 04:58:34.36	229.94	12.09	-34.2	-35.3	18.9	0.00e+00	0	57	0	3556769792	38	4225
2026-01-02 04:58:35.37	229.87	12.00	-34.2	-35.3	18.9	0.00e+00	0	58	0	3564109824	38	4221
2026-01-02 04:58:36.38	229.80	11.91	-34.2	-35.3	18.9	0.00e+00	0	58	0	3571449856	38	4218
2026-01-02 04:58:37.39	229.73	11.82	-34.3	-35.4	18.8	0.00e+00	0	58	0	3578789888	38	4258
2026-01-02 04:58:38.40	229.66	11.73	-34.4	-35.5	18.7	0.00e+00	0	58	0	3586129920	38	4310
2026-01-02 04:58:39.41	229.59	11.65	-34.5	-35.6	18.6	0.00e+00	0	58	0	3592421376	38	4366
2026-01-02 04:58:40.42	229.53	11.56	-34.6	-35.7	18.4	0.00e+00	0	57	0	3600809984	38	4428
2026-01-02 04:58:41.43	229.46	11.47	-34.6	-35.7	18.4	0.00e+00	0	58	0	3607101440	38	4436
2026-01-02 04:58:42.44	229.39	11.38	-34.4	-35.6	18.6	0.00e+00	0	58	0	3614441472	38	4342
2026-01-02 04:58:43.45	229.33	11.29	-34.4	-35.5	18.6	0.00e+00	0	58	0	3621781504	38	4340
2026-01-02 04:58:44.46	229.26	11.21	-34.4	-35.6	18.6	0.00e+00	0	58	0	3629121536	38	4358
2026-01-02 04:58:45.47	229.20	11.12	-34.5	-35.6	18.5	0.00e+00	0	58	0	3636461568	38	4380
2026-01-02 04:58:46.49	229.13	11.03	-34.5	-35.7	18.4	0.00e+00	0	58	0	3643801600	38	4416
2026-01-02 04:58:47.50	229.07	10.95	-34.5	-35.7	18.4	0.00e+00	0	58	0	3651141632	38	4404
2026-01-02 04:58:48.51	229.00	10.86	-34.6	-35.8	18.3	0.00e+00	0	58	0	3658481664	38	4446
2026-01-02 04:58:49.52	228.94	10.77	-34.7	-35.8	18.3	0.00e+00	0	58	0	3665821696	38	4484
2026-01-02 04:58:50.53	228.87	10.69	-34.6	-35.8	18.3	0.00e+00	0	58	0	3673161728	38	4473
2026-01-02 04:58:51.54	228.81	10.60	-34.8	-35.9	18.1	0.00e+00	0	58	0	3680501760	39	4287
2026-01-02 04:58:52.55	228.75	10.52	-34.8	-36.0	18.0	0.00e+00	0	58	0	3687841792	39	4336
2026-01-02 04:58:53.56	228.69	10.43	-34.9	-36.1	18.0	0.00e+00	0	58	0	3695181824	39	4343
2026-01-02 04:58:54.57	228.62	10.35	-34.9	-36.1	17.9	0.00e+00	0	58	0	3702521856	39	4391
2026-01-02 04:58:55.58	228.56	10.27	-34.9	-36.1	18.0	0.00e+00	0	58	0	3709861888	39	4366
2026-01-02 04:58:56.59	228.50	10.18	-35.0	-36.2	17.9	0.00e+00	0	58	0	3717201920	39	4400
2026-01-02 04:58:57.60	228.44	10.10	-34.9	-36.1	18.0	0.00e+00	0	58	0	3724541952	39	4370
2026-01-02 04:58:58.60	228.38	10.01	-34.9	-36.1	17.9	0.00e+00	0	58	0	3731881984	39	4390
2026-01-02 04:58:59.61	228.32	9.93	-34.9	-36.1	17.9	0.00e+00	0	58	0	3738173440	39	4387
2026-01-02 04:59:00.62	228.26	9.85	-35.0	-36.2	17.8	0.00e+00	0	58	0	3746562048	39	4425
2026-01-02 04:59:01.63	228.20	9.77	-35.0	-36.2	17.8	0.00e+00	0	58	0	3753902080	39	4421
2026-01-02 04:59:02.64	228.14	9.68	-35.0	-36.3	17.8	0.00e+00	0	58	0	3760193536	39	4445
2026-01-02 04:59:03.66	228.08	9.60	-35.0	-36.3	17.7	0.00e+00	0	58	0	3767533568	39	4446
2026-01-02 04:59:04.66	228.03	9.52	-35.1	-36.4	17.6	0.00e+00	0	58	0	3774873600	39	4502
2026-01-02 04:59:05.67	227.97	9.44	-35.2	-36.4	17.6	0.00e+00	0	58	0	3782213632	39	4514
2026-01-02 04:59:06.69	227.91	9.35	-35.2	-36.4	17.5	0.00e+00	0	58	0	3789553664	40	4289
2026-01-02 04:59:07.70	227.85	9.27	-35.0	-36.2	17.7	0.00e+00	0	58	0	3796893696	40	4186
2026-01-02 04:59:08.71	227.80	9.19	-34.9	-36.2	17.8	0.00e+00	0	58	0	3804233728	40	4148
2026-01-02 04:59:09.72	227.74	9.11	-34.9	-36.2	17.7	0.00e+00	0	58	0	3811573760	40	4150
2026-01-02 04:59:10.73	227.68	9.03	-35.0	-36.2	17.7	0.00e+00	0	58	0	3818913792	40	4161
2026-01-02 04:59:11.74	227.63	8.95	-35.1	-36.3	17.6	0.00e+00	0	58	0	3826253824	40	4220
2026-01-02 04:59:12.75	227.57	8.87	-35.1	-36.3	17.6	0.00e+00	0	58	0	3833593856	40	4219
2026-01-02 04:59:13.76	227.52	8.79	-35.1	-36.3	17.5	0.00e+00	0	58	0	3840933888	40	4231
2026-01-02 04:59:14.77	227.46	8.71	-35.2	-36.4	17.4	0.00e+00	0	57	0	3848273920	40	4281
2026-01-02 04:59:15.78	227.41	8.63	-35.2	-36.5	17.4	0.00e+00	0	58	0	3855613952	40	4301
2026-01-02 04:59:16.79	227.35	8.55	-35.1	-36.4	17.5	0.00e+00	0	58	0	3862953984	40	4261
2026-01-02 04:59:17.80	227.30	8.47	-35.3	-36.5	17.3	0.00e+00	0	58	0	3870294016	40	4330
2026-01-02 04:59:18.81	227.24	8.39	-35.2	-36.4	17.4	0.00e+00	0	58	0	3877634048	40	4279
2026-01-02 04:59:19.82	227.19	8.32	-35.0	-36.3	17.5	0.00e+00	0	58	0	3884974080	40	4209
2026-01-02 04:59:20.83	227.14	8.24	-35.1	-36.3	17.5	0.00e+00	0	58	0	3892314112	40	4237
2026-01-02 04:59:21.84	227.08	8.16	-35.0	-36.3	17.5	0.00e+00	0	58	0	3899654144	40	4213
2026-01-02 04:59:22.85	227.03	8.08	-35.0	-36.2	17.6	0.00e+00	0	58	0	3906994176	40	4169
2026-01-02 04:59:23.86	226.98	8.00	-44.5	-55.4	3.8	5.17e-02	0	58	104	3912237056	58	13426
2026-01-02 04:59:24.87	226.93	7.93	-44.9	-55.8	3.8	8.46e-01	0	58	104	3912237056	59	13335
2026-01-02 04:59:25.88	226.88	7.85	-45.0	-56.0	3.8	8.47e-01	0	58	104	3912237056	59	13591
2026-01-02 04:59:26.89	226.82	7.77	-45.1	-56.0	3.8	8.46e-01	0	58	104	3912237056	59	13678
2026-01-02 04:59:27.91	226.77	7.69	-45.2	-56.1	3.8	8.47e-01	0	58	104	3912237056	59	13803
2026-01-02 04:59:28.92	226.72	7.62	-35.3	-54.2	3.9	8.46e-01	0	58	104	3912237056	41	31419
2026-01-02 04:59:29.93	226.67	7.54	-45.2	-56.4	3.8	8.48e-01	0	58	104	3912237056	60	13492
2026-01-02 04:59:30.94	226.62	7.46	-45.2	-56.4	3.8	8.46e-01	0	58	104	3912237056	60	13551
2026-01-02 04:59:31.95	226.57	7.39	-45.3	-56.5	3.8	8.46e-01	0	58	104	3912237056	60	13584
2026-01-02 04:59:32.96	226.52	7.31	-45.2	-56.4	3.8	8.47e-01	0	58	104	3912237056	60	13541
2026-01-02 04:59:33.97	226.47	7.24	-45.2	-56.4	3.8	8.47e-01	0	58	104	3912237056	60	13476
2026-01-02 04:59:34.98	226.42	7.16	-45.2	-56.4	3.8	8.45e-01	0	58	104	3912237056	60	13443
2026-01-02 04:59:35.99	226.37	7.09	-45.1	-56.3	3.8	8.47e-01	0	58	104	3912237056	60	13412
2026-01-02 04:59:37.00	226.32	7.01	-45.1	-56.3	3.8	8.46e-01	0	58	104	3912237056	60	13341
2026-01-02 04:59:38.01	226.28	6.94	-45.1	-56.3	3.8	8.47e-01	0	58	104	3912237056	60	13347
2026-01-02 04:59:39.02	226.23	6.86	-45.1	-56.3	3.8	8.46e-01	0	58	104	3912237056	60	13308
2026-01-02 04:59:40.03	226.18	6.79	-45.1	-56.3	3.8	8.47e-01	0	58	104	3912237056	60	13297
2026-01-02 04:59:41.05	226.13	6.71	-45.1	-56.2	3.8	8.45e-01	0	58	104	3912237056	60	13217
2026-01-02 04:59:42.06	226.08	6.64	-45.1	-56.3	3.8	8.47e-01	0	58	104	3912237056	60	13295
2026-01-02 04:59:43.07	226.04	6.57	-45.1	-56.3	3.8	8.46e-01	0	58	104	3912237056	60	13305
2026-01-02 04:59:44.08	225.99	6.49	-45.1	-56.2	3.8	8.46e-01	0	58	104	3912237056	60	13214
2026-01-02 04:59:45.09	225.94	6.42	-45.1	-56.3	3.8	8.47e-01	0	58	104	3912237056	60	13272
2026-01-02 04:59:46.10	225.90	6.35	-45.1	-56.2	3.8	8.46e-01	0	58	104	3912237056	60	13212
2026-01-02 04:59:47.11	225.85	6.27	-45.1	-56.3	3.8	8.46e-01	0	58	104	3912237056	60	13327
2026-01-02 04:59:48.12	225.80	6.20	-45.1	-56.3	3.8	8.46e-01	0	58	104	3912237056	60	13265
2026-01-02 04:59:49.13	225.76	6.13	-45.1	-56.2	3.8	8.45e-01	0	58	104	3912237056	60	13204
2026-01-02 04:59:50.14	225.71	6.05	-45.1	-56.2	3.8	8.46e-01	0	58	104	3912237056	60	13208
2026-01-02 04:59:51.15	225.67	5.98	-45.1	-56.2	3.8	8.46e-01	0	58	104	3912237056	60	13201
2026-01-02 04:59:52.16	225.62	5.91	-45.1	-56.3	3.8	8.47e-01	0	58	104	3912237056	60	13267
2026-01-02 04:59:53.17	225.58	5.84	-45.1	-56.3	3.8	8.46e-01	0	58	104	3912237056	60	13276
2026-01-02 04:59:54.18	225.53	5.77	-45.1	-56.2	3.8	8.45e-01	0	58	104	3912237056	60	13222
2026-01-02 04:59:55.19	225.49	5.69	-45.1	-56.2	3.8	8.46e-01	0	58	104	3912237056	60	13175
2026-01-02 04:59:56.21	225.45	5.62	-45.1	-56.2	3.8	8.46e-01	0	58	104	3912237056	60	13222
2026-01-02 04:59:57.22	225.40	5.55	-45.1	-56.2	3.8	8.46e-01	0	58	104	3912237056	60	13178
2026-01-02 04:59:58.23	225.36	5.48	-45.1	-56.2	3.8	8.47e-01	0	58	104	3912237056	60	13251
2026-01-02 04:59:59.24	225.31	5.41	-45.1	-56.2	3.8	8.46e-01	0	58	104	3912237056	60	13221
2026-01-02 05:00:00.25	225.27	5.34	-45.1	-56.2	3.8	8.46e-01	0	58	104	3912237056	60	13222
2026-01-02 05:00:01.26	225.23	5.27	-45.1	-56.2	3.8	8.46e-01	0	58	104	3912237056	60	13246
2026-01-02 05:00:02.27	225.19	5.20	-45.1	-56.2	3.8	8.47e-01	0	58	104	3912237056	60	13235
2026-01-02 05:00:03.28	225.14	5.13	-45.1	-56.2	3.8	8.46e-01	0	58	104	3912237056	60	13148
2026-01-02 05:00:04.29	225.10	5.06	-45.1	-56.3	3.8	8.45e-01	0	58	104	3912237056	60	13272
2026-01-02 05:00:05.30	225.06	4.99	-45.1	-56.2	3.8	8.46e-01	0	58	104	3912237056	60	13205
2026-01-02 05:00:06.32	225.02	4.92	-45.1	-56.2	3.8	8.46e-01	0	58	104	3912237056	60	13221
2026-01-02 05:00:07.33	224.98	4.85	-45.1	-56.2	3.8	8.46e-01	0	58	104	3912237056	60	13171
2026-01-02 05:00:08.34	224.93	4.78	-45.1	-56.2	3.8	8.46e-01	0	58	104	3912237056	60	13194
2026-01-02 05:00:09.35	224.89	4.71	-45.1	-56.2	3.8	8.46e-01	0	58	104	3912237056	60	13251
2026-01-02 05:00:10.36	224.85	4.64	-45.1	-56.2	3.8	8.46e-01	0	58	104	3912237056	60	13173
2026-01-02 05:00:11.37	224.81	4.57	-45.1	-56.2	3.8	8.45e-01	0	58	104	3912237056	60	13161
2026-01-02 05:00:12.38	224.77	4.50	-45.1	-56.2	3.8	8.47e-01	0	58	104	3912237056	60	13150
2026-01-02 05:00:13.39	224.73	4.43	-45.1	-56.2	3.8	8.46e-01	0	58	104	3912237056	60	13216
2026-01-02 05:00:14.40	224.69	4.37	-45.1	-56.2	3.8	8.46e-01	0	58	104	3912237056	60	13233
2026-01-02 05:00:15.41	224.65	4.30	-45.1	-56.2	3.8	8.47e-01	0	58	104	3912237056	60	13208
2026-01-02 05:00:16.43	224.61	4.23	-45.1	-56.2	3.8	8.45e-01	0	58	104	3912237056	60	13183
2026-01-02 05:00:17.44	224.57	4.16	-45.1	-56.2	3.8	8.45e-01	0	58	104	3912237056	60	13239
2026-01-02 05:00:18.45	224.53	4.09	-45.1	-56.2	3.8	8.45e-01	0	58	104	3912237056	60	13235
2026-01-02 05:00:19.46	224.49	4.03	-45.1	-56.2	3.8	8.47e-01	0	58	104	3912237056	60	13260
2026-01-02 05:00:20.47	224.45	3.96	-45.0	-56.2	3.8	8.46e-01	0	58	104	3912237056	60	13171
2026-01-02 05:00:21.48	224.41	3.89	-45.1	-56.2	3.8	8.47e-01	0	58	104	3912237056	60	13255
2026-01-02 05:00:22.49	224.37	3.82	-45.0	-56.2	3.8	8.44e-01	0	58	104	3912237056	60	13212
2026-01-02 05:00:23.50	224.34	3.76	-45.1	-56.2	3.8	8.46e-01	0	58	104	3912237056	60	13229
2026-01-02 05:00:24.51	224.30	3.69	-45.1	-56.2	3.8	8.46e-01	0	58	104	3912237056	60	13132
2026-01-02 05:00:25.52	224.26	3.62	-45.1	-56.2	3.8	8.46e-01	0	58	104	3912237056	60	13244
2026-01-02 05:00:26.53	224.22	3.56	-45.1	-56.2	3.8	8.47e-01	0	58	104	3912237056	60	13221
2026-01-02 05:00:27.54	224.18	3.49	-45.1	-56.2	3.8	8.47e-01	0	58	104	3912237056	60	13157
2026-01-02 05:00:28.55	224.15	3.42	-45.1	-56.2	3.8	8.47e-01	0	58	104	3912237056	60	13147
2026-01-02 05:00:29.57	224.11	3.36	-45.1	-56.2	3.8	8.45e-01	0	58	104	3912237056	60	13164
2026-01-02 05:00:30.58	224.07	3.29	-45.1	-56.2	3.8	8.46e-01	0	58	104	3912237056	60	13175
2026-01-02 05:00:31.59	224.03	3.23	-45.1	-56.2	3.8	8.46e-01	0	58	104	3912237056	60	13173
2026-01-02 05:00:32.60	224.00	3.16	-45.1	-56.2	3.8	8.46e-01	0	58	104	3912237056	60	13237
2026-01-02 05:00:33.61	223.96	3.10	-45.1	-56.2	3.8	8.47e-01	0	58	104	3912237056	60	13215
2026-01-02 05:00:34.62	223.92	3.03	-45.1	-56.2	3.8	8.45e-01	0	58	104	3912237056	60	13184
2026-01-02 05:00:35.63	223.89	2.96	-45.1	-56.2	3.8	8.45e-01	0	58	104	3912237056	60	13226
2026-01-02 05:00:36.64	223.85	2.90	-45.1	-56.2	3.8	8.45e-01	0	58	104	3912237056	60	13201
2026-01-02 05:00:37.65	223.82	2.83	-45.1	-56.2	3.8	8.46e-01	0	58	104	3912237056	60	13218
2026-01-02 05:00:38.67	223.78	2.77	-45.1	-56.2	3.8	8.46e-01	0	58	104	3912237056	60	13223
2026-01-02 05:00:39.68	223.74	2.70	-45.1	-56.2	3.8	8.47e-01	0	58	104	3912237056	60	13213
2026-01-02 05:00:40.69	223.71	2.64	-45.1	-56.2	3.8	8.46e-01	0	58	104	3912237056	60	13239
2026-01-02 05:00:41.70	223.67	2.58	-45.1	-56.2	3.8	8.46e-01	0	58	104	3912237056	60	13199
2026-01-02 05:00:42.71	223.64	2.51	-45.1	-56.2	3.8	8.46e-01	0	58	104	3912237056	60	13143
2026-01-02 05:00:43.72	223.60	2.45	-45.1	-56.2	3.8	8.45e-01	0	58	104	3912237056	60	13194
2026-01-02 05:00:44.73	223.57	2.38	-45.1	-56.2	3.8	8.46e-01	0	58	104	3912237056	60	13227
2026-01-02 05:00:45.74	223.53	2.32	-45.1	-56.2	3.8	8.46e-01	0	58	104	3912237056	60	13260
2026-01-02 05:00:46.75	223.50	2.26	-45.1	-56.2	3.8	8.46e-01	0	58	104	3912237056	60	13205
2026-01-02 05:00:47.76	223.46	2.19	-45.1	-56.2	3.8	8.46e-01	0	58	104	3912237056	60	13220
2026-01-02 05:00:48.78	223.43	2.13	-45.0	-56.2	3.8	8.46e-01	0	58	104	3912237056	60	13165
2026-01-02 05:00:49.79	223.40	2.07	-45.1	-56.2	3.8	8.47e-01	0	58	104	3912237056	60	13171
2026-01-02 05:00:50.80	223.36	2.00	-45.0	-56.2	3.8	8.46e-01	0	58	104	3912237056	60	13187
2026-01-02 05:00:51.81	223.33	1.94	-45.0	-56.2	3.8	8.46e-01	0	58	104	3912237056	60	13205
2026-01-02 05:00:52.82	223.29	1.88	-45.0	-56.2	3.8	8.45e-01	0	58	104	3912237056	60	13203

#Closed at: 2026-01-02 05:00:52
#Recorded file [3912 MB]: D:/lorett/data/31039_260102_074938.dat