passes_logs/2026/01/02/R2.0S_Moscow/R2.0S_Moscow__20260102_235908_SUOMI_NPP_rec.log

#Pass ID: 20260102_235908_SUOMI NPP
#Satellite: SUOMI NPP
#Configuration: NPP
#almurnet v.1.7.20251203
#Start time: 2026-01-02 23:59:09

#Version: 2.2.20231116
#Station: R2.0S_Moscow
#Location: 37.707566 lon 55.798166 lat
#TLE: 1 37849U 11061A   26001.07732418  .00000182  00000+0  10735-3 0  9990
#TLE: 2 37849  98.7795 303.2470 0002580  87.2016 272.9455 14.19520779734739

#Time	Az	El	Level	Level2	SNR	BER	BlckErr	Temp	State	Recorded	gain1	gain2
2026-01-02 23:59:09.38	15.15	2.03	-43.2	-58.0	3.8	1.49e+00	0	48	0	0	58	19268
2026-01-02 23:59:10.40	15.14	2.10	-43.2	-58.0	3.8	1.49e+00	0	48	104	0	58	19260
2026-01-02 23:59:11.41	15.14	2.16	-43.2	-58.0	3.8	1.49e+00	0	48	104	0	58	19323
2026-01-02 23:59:12.42	15.13	2.23	-43.2	-58.0	3.8	1.49e+00	0	48	104	0	58	19202
2026-01-02 23:59:13.43	15.12	2.29	-43.2	-58.0	3.8	1.49e+00	0	48	104	0	58	19251
2026-01-02 23:59:14.44	15.12	2.36	-43.2	-58.0	3.8	1.49e+00	0	48	104	0	58	19288
2026-01-02 23:59:15.45	15.11	2.42	-43.2	-58.0	3.8	1.49e+00	0	48	104	0	58	19301
2026-01-02 23:59:16.46	15.10	2.49	-43.2	-58.0	3.8	1.49e+00	0	49	104	0	58	19269
2026-01-02 23:59:17.47	15.09	2.56	-43.2	-58.0	3.8	1.49e+00	0	49	104	0	58	19280
2026-01-02 23:59:18.49	15.09	2.62	-43.2	-58.0	3.8	1.49e+00	0	49	104	0	58	19221
2026-01-02 23:59:19.50	15.08	2.69	-43.2	-58.0	3.8	1.49e+00	0	49	104	0	58	19306
2026-01-02 23:59:20.51	15.07	2.75	-43.2	-58.0	3.8	1.49e+00	0	49	104	0	58	19289
2026-01-02 23:59:21.52	15.06	2.82	-43.2	-58.0	3.8	1.49e+00	0	49	104	0	58	19223
2026-01-02 23:59:22.53	15.06	2.89	-43.2	-58.0	3.8	1.49e+00	0	49	104	0	58	19271
2026-01-02 23:59:23.54	15.05	2.95	-43.2	-58.0	3.8	1.49e+00	0	49	104	0	58	19281
2026-01-02 23:59:24.55	15.04	3.02	-43.2	-58.0	3.8	1.49e+00	0	49	104	0	58	19212
2026-01-02 23:59:25.56	15.03	3.09	-43.2	-58.0	3.8	1.49e+00	0	49	104	0	58	19222
2026-01-02 23:59:26.57	15.03	3.15	-43.2	-58.0	3.8	1.49e+00	0	49	104	0	58	19207
2026-01-02 23:59:27.58	15.02	3.22	-43.2	-58.0	3.8	1.49e+00	0	49	104	0	58	19248
2026-01-02 23:59:28.59	15.01	3.29	-43.2	-58.0	3.8	1.49e+00	0	49	104	0	58	19204
2026-01-02 23:59:29.60	15.00	3.35	-43.2	-58.0	3.8	1.49e+00	0	49	104	0	58	19231
2026-01-02 23:59:30.61	15.00	3.42	-43.2	-58.0	3.8	1.49e+00	0	49	104	0	58	19190
2026-01-02 23:59:31.63	14.99	3.49	-43.1	-58.0	3.8	1.49e+00	0	50	104	0	58	19178
2026-01-02 23:59:32.64	14.98	3.56	-43.2	-58.0	3.8	1.49e+00	0	50	104	0	58	19176
2026-01-02 23:59:33.65	14.97	3.63	-43.1	-58.0	3.8	1.49e+00	0	50	104	0	58	19231
2026-01-02 23:59:34.66	14.96	3.69	-43.2	-58.0	3.8	1.49e+00	0	50	104	0	58	19283
2026-01-02 23:59:35.67	14.95	3.76	-43.1	-58.0	3.8	1.49e+00	0	50	104	0	58	19170
2026-01-02 23:59:36.68	14.95	3.83	-43.2	-58.0	3.8	1.49e+00	0	50	104	0	58	19226
2026-01-02 23:59:37.69	14.94	3.90	-43.1	-58.0	3.8	1.49e+00	0	50	104	0	58	19216
2026-01-02 23:59:38.70	14.93	3.97	-43.2	-58.0	3.8	1.49e+00	0	50	104	0	58	19228
2026-01-02 23:59:39.71	14.92	4.04	-43.1	-58.0	3.8	1.49e+00	0	50	104	0	58	19226
2026-01-02 23:59:40.72	14.91	4.11	-43.2	-58.0	3.8	1.49e+00	0	50	104	0	58	19207
2026-01-02 23:59:41.74	14.90	4.18	-43.2	-58.0	3.8	1.49e+00	0	50	104	0	58	19204
2026-01-02 23:59:42.75	14.90	4.25	-43.1	-58.0	3.8	1.49e+00	0	50	104	0	58	19200
2026-01-02 23:59:43.76	14.89	4.32	-43.1	-58.0	3.8	1.49e+00	0	50	104	0	58	19179
2026-01-02 23:59:44.77	14.88	4.39	-43.2	-58.0	3.8	1.49e+00	0	50	104	0	58	19193
2026-01-02 23:59:45.78	14.87	4.46	-43.2	-58.0	3.8	1.49e+00	0	50	104	0	58	19220
2026-01-02 23:59:46.79	14.86	4.53	-43.2	-58.0	3.8	1.49e+00	0	51	104	0	58	19241
2026-01-02 23:59:47.80	14.85	4.60	-43.2	-58.0	3.8	1.49e+00	0	51	104	0	58	19227
2026-01-02 23:59:48.81	14.84	4.67	-43.1	-57.9	3.8	1.49e+00	0	51	104	0	58	19163
2026-01-02 23:59:49.83	14.83	4.74	-43.1	-58.0	3.8	1.49e+00	0	51	104	0	58	19249
2026-01-02 23:59:50.84	14.82	4.81	-43.2	-58.0	3.8	1.49e+00	0	51	104	0	58	19183
2026-01-02 23:59:51.85	14.82	4.88	-43.2	-58.0	3.8	1.49e+00	0	51	104	0	58	19224
2026-01-02 23:59:52.86	14.81	4.95	-43.2	-57.9	3.8	1.49e+00	0	51	104	0	58	19166
2026-01-02 23:59:53.87	14.80	5.03	-43.2	-58.0	3.8	1.49e+00	0	51	104	0	58	19201
2026-01-02 23:59:54.88	14.79	5.10	-43.1	-57.9	3.8	1.49e+00	0	51	104	0	58	19124
2026-01-02 23:59:55.89	14.78	5.17	-43.1	-57.9	3.8	1.49e+00	0	51	104	0	58	19158
2026-01-02 23:59:56.90	14.77	5.24	-43.2	-57.9	3.8	1.49e+00	0	51	104	0	58	19106
2026-01-02 23:59:57.91	14.76	5.32	-43.1	-57.8	3.8	1.49e+00	0	51	104	0	58	18942
2026-01-02 23:59:58.92	14.75	5.39	-43.1	-57.9	3.8	1.49e+00	0	51	104	0	58	19006
2026-01-02 23:59:59.93	14.74	5.46	-43.2	-57.9	3.8	1.49e+00	0	51	104	0	58	19086
2026-01-03 00:00:00.95	14.73	5.53	-43.1	-57.8	3.8	1.49e+00	0	51	104	0	58	18911
2026-01-03 00:00:01.96	14.72	5.61	-43.1	-57.7	3.8	1.49e+00	0	51	104	0	58	18707
2026-01-03 00:00:02.97	14.71	5.68	-43.1	-57.8	3.8	1.49e+00	0	51	104	0	58	18777
2026-01-03 00:00:03.98	14.70	5.75	-43.1	-57.8	3.8	1.49e+00	0	51	104	0	58	18869
2026-01-03 00:00:04.99	14.69	5.83	-43.1	-57.8	3.8	1.49e+00	0	51	104	0	58	18734
2026-01-03 00:00:06.00	14.68	5.90	-43.1	-57.6	3.8	1.49e+00	0	52	104	0	58	18364
2026-01-03 00:00:07.01	14.67	5.98	-43.1	-57.5	3.8	1.49e+00	0	52	104	0	58	18259
2026-01-03 00:00:08.02	14.66	6.05	-43.1	-57.7	3.8	1.49e+00	0	52	104	0	58	18612
2026-01-03 00:00:09.03	14.65	6.13	-43.1	-57.8	3.8	1.49e+00	0	52	104	0	58	18900
2026-01-03 00:00:10.05	14.64	6.20	-43.1	-57.8	3.8	1.49e+00	0	52	104	0	58	18899
2026-01-03 00:00:11.06	14.63	6.28	-43.1	-57.5	3.8	1.49e+00	0	52	104	0	58	18221
2026-01-03 00:00:12.07	14.62	6.35	-43.1	-56.9	3.8	1.49e+00	0	52	104	0	58	17051
2026-01-03 00:00:13.08	14.61	6.43	-43.1	-56.2	3.8	1.49e+00	0	52	104	0	58	15647
2026-01-03 00:00:14.09	14.59	6.50	-43.0	-55.3	4.0	1.48e+00	0	52	104	0	58	14100
2026-01-03 00:00:15.10	14.58	6.58	-42.9	-54.5	4.1	1.44e+00	0	52	0	0	57	13723
2026-01-03 00:00:16.11	14.57	6.66	-42.9	-53.8	4.4	1.34e+00	0	52	0	0	57	12597
2026-01-03 00:00:17.12	14.56	6.73	-42.8	-53.0	4.7	1.05e+00	0	52	0	2097152	57	11500
2026-01-03 00:00:18.13	14.55	6.81	-42.7	-52.3	5.1	7.84e-01	0	52	0	4194304	57	10568
2026-01-03 00:00:19.14	14.54	6.89	-42.5	-51.1	5.9	4.71e-01	0	52	0	5242880	57	9187
2026-01-03 00:00:20.15	14.53	6.96	-42.3	-49.9	6.8	2.65e-01	0	52	0	7340032	56	8474
2026-01-03 00:00:21.16	14.52	7.04	-41.5	-48.1	8.2	1.17e-01	0	52	0	9437184	55	7303
2026-01-03 00:00:22.18	14.51	7.12	-41.3	-46.7	9.8	1.90e-02	0	52	0	11534336	54	6620
2026-01-03 00:00:23.19	14.49	7.20	-40.8	-45.3	11.2	3.45e-03	0	52	0	13631488	53	5968
2026-01-03 00:00:24.19	14.48	7.27	-40.3	-44.2	12.4	5.35e-04	0	52	0	14680064	52	5573
2026-01-03 00:00:25.20	14.47	7.35	-40.0	-43.6	13.0	7.55e-05	0	52	0	16777216	52	5218
2026-01-03 00:00:26.22	14.46	7.43	-40.2	-44.0	12.6	5.49e-05	0	52	0	18874368	52	5423
2026-01-03 00:00:27.23	14.45	7.51	-40.5	-44.6	12.0	1.25e-04	0	52	0	20971520	52	5814
2026-01-03 00:00:28.24	14.44	7.59	-40.8	-45.3	11.2	8.64e-04	0	52	0	23068672	52	6327
2026-01-03 00:00:29.25	14.42	7.67	-40.7	-45.1	11.4	1.49e-03	0	53	0	24117248	52	6174
2026-01-03 00:00:30.26	14.41	7.75	-40.4	-44.6	12.0	6.75e-04	0	53	0	26214400	52	5804
2026-01-03 00:00:31.27	14.40	7.83	-40.5	-44.6	12.0	2.69e-04	0	53	0	28311552	52	5847
2026-01-03 00:00:32.28	14.39	7.91	-40.8	-45.3	11.3	7.27e-04	0	53	0	30408704	52	6292
2026-01-03 00:00:33.29	14.37	7.99	-41.2	-46.3	10.2	3.09e-03	0	53	0	32505856	52	7095
2026-01-03 00:00:34.30	14.36	8.07	-41.1	-45.8	10.8	5.51e-03	0	53	0	34603008	52	6696
2026-01-03 00:00:35.31	14.35	8.15	-41.2	-45.2	11.9	3.17e-04	0	53	0	35651584	53	5867
2026-01-03 00:00:36.32	14.34	8.23	-40.8	-44.4	12.6	7.03e-04	0	53	0	37748736	53	5389
2026-01-03 00:00:37.33	14.32	8.31	-41.8	-55.5	3.8	6.96e-01	0	53	104	38797312	54	18152
2026-01-03 00:00:38.34	14.31	8.39	-41.1	-45.1	11.8	9.50e-03	0	53	0	38797312	54	5487
2026-01-03 00:00:39.35	14.30	8.48	-41.9	-47.0	9.8	1.12e-02	0	53	0	40894464	55	6454
2026-01-03 00:00:40.36	14.28	8.56	-40.9	-44.7	12.4	6.38e-04	0	53	0	42991616	53	5538
2026-01-03 00:00:41.37	14.27	8.64	-40.8	-44.5	12.6	1.25e-04	0	53	0	45088768	53	5454
2026-01-03 00:00:42.38	14.26	8.72	-40.8	-44.5	12.6	1.17e-04	0	53	0	47185920	53	5419
2026-01-03 00:00:43.39	14.24	8.81	-40.8	-44.4	12.7	1.40e-04	0	53	0	48234496	53	5393
2026-01-03 00:00:44.40	14.23	8.89	-40.7	-44.3	12.8	4.27e-05	0	53	0	50331648	53	5302
2026-01-03 00:00:45.41	14.22	8.97	-40.7	-44.3	12.8	5.11e-05	0	53	0	52428800	53	5317
2026-01-03 00:00:46.42	14.20	9.06	-40.7	-44.3	12.9	5.95e-05	0	53	0	54525952	53	5306
2026-01-03 00:00:47.43	14.19	9.14	-40.8	-44.3	12.8	4.73e-05	0	53	0	56623104	53	5328
2026-01-03 00:00:48.44	14.18	9.23	-40.6	-44.1	13.1	3.81e-05	0	53	0	58720256	53	5179
2026-01-03 00:00:49.45	14.16	9.31	-40.7	-44.1	13.1	3.35e-05	0	53	0	59768832	53	5177
2026-01-03 00:00:50.46	14.15	9.40	-40.6	-43.9	13.3	1.52e-05	0	53	0	61865984	53	5054
2026-01-03 00:00:51.46	14.13	9.48	-40.6	-43.9	13.3	1.67e-05	0	53	0	63963136	53	5046
2026-01-03 00:00:52.47	14.12	9.57	-40.6	-44.0	13.2	1.29e-05	0	53	0	66060288	52	5430
2026-01-03 00:00:53.48	14.11	9.65	-40.4	-43.6	13.6	1.29e-05	0	53	0	67108864	52	5210
2026-01-03 00:00:54.49	14.09	9.74	-40.4	-43.6	13.6	1.60e-05	0	53	0	69206016	52	5200
2026-01-03 00:00:55.50	14.08	9.82	-40.5	-43.7	13.5	9.90e-06	0	53	0	71303168	52	5235
2026-01-03 00:00:56.51	14.06	9.91	-40.4	-43.7	13.6	6.80e-06	0	53	0	73400320	52	5227
2026-01-03 00:00:57.52	14.05	10.00	-40.4	-43.6	13.6	8.30e-06	0	53	0	75497472	52	5192
2026-01-03 00:00:58.53	14.03	10.08	-40.5	-43.7	13.6	6.10e-06	0	54	0	77594624	52	5242
2026-01-03 00:00:59.54	14.02	10.17	-40.4	-43.7	13.6	5.30e-06	0	54	0	78643200	52	5220
2026-01-03 00:01:00.55	14.00	10.26	-40.4	-43.6	13.6	5.30e-06	0	54	0	80740352	52	5193
2026-01-03 00:01:01.56	13.99	10.35	-40.3	-43.4	13.8	4.50e-06	0	54	0	82837504	52	5090
2026-01-03 00:01:02.57	13.97	10.44	-40.3	-43.5	13.8	4.50e-06	0	54	0	84934656	52	5123
2026-01-03 00:01:03.58	13.96	10.53	-40.3	-43.4	14.0	2.20e-06	0	54	0	87031808	52	5048
2026-01-03 00:01:04.59	13.94	10.61	-40.3	-43.4	13.9	1.50e-06	0	54	0	88080384	52	5067
2026-01-03 00:01:05.60	13.92	10.70	-40.3	-43.5	13.8	7.00e-07	0	54	0	90177536	52	5104
2026-01-03 00:01:06.61	13.91	10.79	-40.2	-43.2	14.1	2.20e-06	0	54	0	92274688	52	4942
2026-01-03 00:01:07.62	13.89	10.88	-40.2	-43.2	14.0	6.10e-06	0	54	0	94371840	52	4976
2026-01-03 00:01:08.62	13.88	10.97	-40.2	-43.3	14.1	3.00e-06	0	54	0	96468992	52	5003
2026-01-03 00:01:09.63	13.86	11.06	-40.2	-43.1	14.2	1.50e-06	0	54	0	97517568	52	4924
2026-01-03 00:01:10.64	13.84	11.16	-40.2	-43.1	14.2	1.50e-06	0	54	0	99614720	52	4910
2026-01-03 00:01:11.65	13.83	11.25	-40.3	-43.3	14.1	7.00e-07	0	54	0	101711872	52	4994
2026-01-03 00:01:12.66	13.81	11.34	-40.2	-43.1	14.3	3.00e-06	0	54	0	103809024	52	4926
2026-01-03 00:01:13.67	13.79	11.43	-40.2	-43.1	14.3	1.50e-06	0	54	0	105906176	52	4913
2026-01-03 00:01:14.68	13.78	11.52	-40.1	-43.1	14.3	1.50e-06	0	54	0	106954752	52	4901
2026-01-03 00:01:15.69	13.76	11.62	-40.2	-43.2	14.2	1.50e-06	0	54	0	109051904	52	4939
2026-01-03 00:01:16.70	13.74	11.71	-40.1	-43.0	14.4	7.00e-07	0	54	0	111149056	52	4857
2026-01-03 00:01:17.71	13.72	11.80	-40.2	-43.1	14.3	2.20e-06	0	54	0	113246208	51	5208
2026-01-03 00:01:18.72	13.71	11.90	-40.1	-43.0	14.5	7.00e-07	0	54	0	115343360	51	5135
2026-01-03 00:01:19.73	13.69	11.99	-40.1	-43.0	14.5	0.00e+00	0	54	0	116391936	51	5130
2026-01-03 00:01:20.74	13.67	12.09	-40.0	-42.9	14.5	1.50e-06	0	54	0	118489088	51	5074
2026-01-03 00:01:21.75	13.65	12.18	-40.0	-42.8	14.6	7.00e-07	0	54	0	120586240	51	5036
2026-01-03 00:01:22.76	13.64	12.28	-39.8	-42.5	14.9	0.00e+00	0	54	0	122683392	51	4857
2026-01-03 00:01:23.77	13.62	12.37	-39.9	-42.6	14.8	0.00e+00	0	54	0	124780544	51	4907
2026-01-03 00:01:24.78	13.60	12.47	-39.9	-42.7	14.8	0.00e+00	0	54	0	125829120	51	4932
2026-01-03 00:01:25.79	13.58	12.56	-39.8	-42.5	15.0	7.00e-07	0	54	0	127926272	51	4834
2026-01-03 00:01:26.80	13.56	12.66	-39.8	-42.4	15.0	0.00e+00	0	54	0	130023424	51	4806
2026-01-03 00:01:27.81	13.54	12.76	-39.8	-42.5	14.9	0.00e+00	0	54	0	132120576	51	4866
2026-01-03 00:01:28.82	13.52	12.86	-39.8	-42.5	15.0	0.00e+00	0	54	0	134217728	51	4835
2026-01-03 00:01:29.83	13.51	12.95	-39.8	-42.5	15.1	0.00e+00	0	54	0	135266304	51	4822
2026-01-03 00:01:30.84	13.49	13.05	-39.8	-42.5	15.1	7.00e-07	0	55	0	137363456	51	4840
2026-01-03 00:01:31.85	13.47	13.15	-39.8	-42.5	15.2	0.00e+00	0	55	0	139460608	51	4819
2026-01-03 00:01:32.86	13.45	13.25	-39.8	-42.4	15.2	0.00e+00	0	54	0	141557760	51	4811
2026-01-03 00:01:33.87	13.43	13.35	-39.8	-42.4	15.2	0.00e+00	0	54	0	143654912	51	4810
2026-01-03 00:01:34.88	13.41	13.45	-39.7	-42.3	15.3	0.00e+00	0	54	0	144703488	51	4737
2026-01-03 00:01:35.88	13.39	13.55	-39.6	-42.2	15.5	0.00e+00	0	54	0	146800640	51	4652
2026-01-03 00:01:36.90	13.37	13.65	-39.7	-42.3	15.3	0.00e+00	0	55	0	148897792	51	4731
2026-01-03 00:01:37.90	13.35	13.75	-39.8	-42.4	15.2	0.00e+00	0	55	0	150994944	51	4788
2026-01-03 00:01:38.91	13.33	13.85	-39.8	-42.4	15.3	0.00e+00	0	55	0	153092096	51	4777
2026-01-03 00:01:39.93	13.31	13.96	-39.8	-42.4	15.2	0.00e+00	0	55	0	155189248	51	4809
2026-01-03 00:01:40.94	13.28	14.06	-39.8	-42.4	15.3	0.00e+00	0	55	0	156237824	51	4801
2026-01-03 00:01:41.95	13.26	14.16	-39.7	-42.2	15.5	0.00e+00	0	55	0	158334976	51	4658
2026-01-03 00:01:42.96	13.24	14.27	-39.7	-42.1	15.6	0.00e+00	0	55	0	160432128	51	4643
2026-01-03 00:01:43.97	13.22	14.37	-39.6	-42.1	15.6	0.00e+00	0	55	0	162529280	51	4600
2026-01-03 00:01:44.98	13.20	14.47	-39.5	-41.9	15.8	0.00e+00	0	55	0	164626432	51	4539
2026-01-03 00:01:45.98	13.18	14.58	-39.5	-42.0	15.8	0.00e+00	0	55	0	165675008	50	4820
2026-01-03 00:01:46.99	13.16	14.68	-39.6	-42.0	15.7	0.00e+00	0	55	0	167772160	50	4866
2026-01-03 00:01:48.01	13.13	14.79	-39.5	-42.0	15.8	0.00e+00	0	55	0	169869312	50	4821
2026-01-03 00:01:49.01	13.11	14.89	-39.4	-41.8	15.9	0.00e+00	0	55	0	171966464	50	4712
2026-01-03 00:01:50.02	13.09	15.00	-39.3	-41.7	16.0	0.00e+00	0	55	0	174063616	50	4671
2026-01-03 00:01:51.03	13.07	15.11	-39.3	-41.6	16.1	0.00e+00	0	55	0	175112192	50	4643
2026-01-03 00:01:52.04	13.04	15.22	-39.1	-41.4	16.3	0.00e+00	0	55	0	177209344	50	4529
2026-01-03 00:01:53.05	13.02	15.32	-39.2	-41.5	16.2	0.00e+00	0	55	0	179306496	50	4561
2026-01-03 00:01:54.06	13.00	15.43	-39.2	-41.5	16.3	0.00e+00	0	55	0	181403648	50	4549
2026-01-03 00:01:55.07	12.97	15.54	-39.2	-41.5	16.3	0.00e+00	0	55	0	183500800	50	4547
2026-01-03 00:01:56.08	12.95	15.65	-39.1	-41.4	16.3	0.00e+00	0	55	0	184549376	50	4501
2026-01-03 00:01:57.09	12.93	15.76	-39.0	-41.1	16.6	0.00e+00	0	55	0	186646528	50	4382
2026-01-03 00:01:58.10	12.90	15.87	-39.0	-41.2	16.5	0.00e+00	0	55	0	188743680	49	4690
2026-01-03 00:01:59.11	12.88	15.98	-39.0	-41.2	16.6	0.00e+00	0	55	0	190840832	49	4667
2026-01-03 00:02:00.12	12.85	16.09	-38.9	-41.1	16.7	0.00e+00	0	55	0	192937984	49	4615
2026-01-03 00:02:01.13	12.83	16.21	-39.0	-41.1	16.6	0.00e+00	0	55	0	193986560	49	4643
2026-01-03 00:02:02.14	12.80	16.32	-38.9	-41.1	16.7	0.00e+00	0	55	0	196083712	49	4611
2026-01-03 00:02:03.15	12.78	16.43	-38.9	-41.1	16.7	0.00e+00	0	55	0	198180864	49	4616
2026-01-03 00:02:04.15	12.75	16.54	-38.9	-41.0	16.8	0.00e+00	0	55	0	200278016	49	4549
2026-01-03 00:02:05.17	12.73	16.66	-38.7	-40.7	17.0	0.00e+00	0	55	0	202375168	49	4438
2026-01-03 00:02:06.18	12.70	16.77	-38.7	-40.7	17.1	0.00e+00	0	55	0	203423744	49	4439
2026-01-03 00:02:07.18	12.68	16.89	-38.8	-40.9	16.9	0.00e+00	0	55	0	205520896	49	4508
2026-01-03 00:02:08.19	12.65	17.00	-38.8	-40.8	17.0	0.00e+00	0	55	0	207618048	49	4478
2026-01-03 00:02:09.20	12.62	17.12	-38.8	-40.9	17.0	0.00e+00	0	55	0	209715200	49	4498
2026-01-03 00:02:10.21	12.60	17.23	-38.8	-40.9	17.0	0.00e+00	0	55	0	211812352	49	4502
2026-01-03 00:02:11.22	12.57	17.35	-38.8	-40.9	16.9	0.00e+00	0	55	0	212860928	49	4518
2026-01-03 00:02:12.23	12.54	17.47	-38.8	-40.9	16.9	0.00e+00	0	55	0	214958080	49	4498
2026-01-03 00:02:13.24	12.51	17.59	-38.8	-40.8	17.0	0.00e+00	0	55	0	217055232	49	4477
2026-01-03 00:02:14.25	12.49	17.71	-38.8	-40.9	16.9	0.00e+00	0	55	0	219152384	49	4527
2026-01-03 00:02:15.26	12.46	17.83	-38.8	-40.8	17.0	0.00e+00	0	55	0	221249536	49	4484
2026-01-03 00:02:16.27	12.43	17.95	-38.8	-40.9	17.0	0.00e+00	0	55	0	223346688	49	4514
2026-01-03 00:02:17.28	12.40	18.07	-38.8	-40.9	17.0	0.00e+00	0	55	0	224395264	49	4525
2026-01-03 00:02:18.28	12.37	18.19	-38.9	-41.0	16.9	0.00e+00	0	55	0	226492416	49	4549
2026-01-03 00:02:19.29	12.34	18.31	-38.8	-40.8	17.1	0.00e+00	0	55	0	228589568	49	4472
2026-01-03 00:02:20.30	12.32	18.43	-38.9	-41.0	16.9	0.00e+00	0	55	0	230686720	49	4563
2026-01-03 00:02:21.31	12.29	18.55	-38.8	-40.8	17.1	0.00e+00	0	55	0	232783872	49	4469
2026-01-03 00:02:22.32	12.26	18.68	-38.8	-40.8	17.1	0.00e+00	0	55	0	233832448	49	4464
2026-01-03 00:02:23.33	12.23	18.80	-38.8	-40.8	17.2	0.00e+00	0	55	0	235929600	49	4457
2026-01-03 00:02:24.34	12.20	18.93	-38.7	-40.8	17.2	0.00e+00	0	55	0	238026752	49	4452
2026-01-03 00:02:25.35	12.17	19.05	-38.7	-40.7	17.2	0.00e+00	0	55	0	240123904	49	4435
2026-01-03 00:02:26.36	12.13	19.18	-38.8	-40.8	17.1	0.00e+00	0	55	0	242221056	49	4472
2026-01-03 00:02:27.37	12.10	19.31	-38.8	-40.9	17.0	0.00e+00	0	55	0	243269632	49	4511
2026-01-03 00:02:28.38	12.07	19.43	-38.8	-40.9	17.0	0.00e+00	0	55	0	245366784	49	4506
2026-01-03 00:02:29.39	12.04	19.56	-38.8	-40.8	17.1	0.00e+00	0	55	0	247463936	49	4469
2026-01-03 00:02:30.40	12.01	19.69	-38.9	-41.0	17.0	0.00e+00	0	55	0	249561088	49	4547
2026-01-03 00:02:31.41	11.98	19.82	-39.0	-41.1	16.9	0.00e+00	0	55	0	251658240	49	4623
2026-01-03 00:02:32.42	11.94	19.95	-39.0	-41.2	16.8	0.00e+00	0	55	0	252706816	49	4671
2026-01-03 00:02:33.43	11.91	20.08	-39.0	-41.1	16.8	0.00e+00	0	56	0	254803968	49	4650
2026-01-03 00:02:34.44	11.88	20.21	-39.0	-41.1	16.8	0.00e+00	0	55	0	256901120	49	4634
2026-01-03 00:02:35.44	11.84	20.34	-39.1	-41.3	16.7	0.00e+00	0	56	0	258998272	49	4717
2026-01-03 00:02:36.45	11.81	20.47	-39.2	-41.3	16.6	0.00e+00	0	56	0	261095424	49	4757
2026-01-03 00:02:37.46	11.77	20.61	-39.0	-41.1	16.8	0.00e+00	0	56	0	262144000	49	4630
2026-01-03 00:02:38.47	11.74	20.74	-39.1	-41.3	16.7	0.00e+00	0	56	0	264241152	49	4734
2026-01-03 00:02:39.48	11.70	20.88	-39.2	-41.4	16.5	0.00e+00	0	56	0	266338304	49	4806
2026-01-03 00:02:40.49	11.67	21.01	-39.1	-41.2	16.8	0.00e+00	0	56	0	268435456	49	4683
2026-01-03 00:02:41.50	11.63	21.15	-39.1	-41.2	16.8	0.00e+00	0	56	0	270532608	49	4681
2026-01-03 00:02:42.51	11.60	21.29	-39.0	-41.1	16.9	0.00e+00	0	56	0	271581184	49	4632
2026-01-03 00:02:43.52	11.56	21.42	-39.1	-41.2	16.8	0.00e+00	0	56	0	273678336	49	4671
2026-01-03 00:02:44.53	11.52	21.56	-39.0	-41.0	16.9	0.00e+00	0	56	0	275775488	49	4590
2026-01-03 00:02:45.54	11.49	21.70	-39.1	-41.2	16.8	0.00e+00	0	56	0	277872640	49	4679
2026-01-03 00:02:46.56	11.45	21.84	-39.1	-41.2	16.8	0.00e+00	0	56	0	279969792	49	4687
2026-01-03 00:02:47.56	11.41	21.98	-38.9	-41.0	17.0	0.00e+00	0	56	0	281018368	49	4567
2026-01-03 00:02:48.57	11.37	22.12	-38.9	-40.9	17.0	0.00e+00	0	56	0	283115520	49	4538
2026-01-03 00:02:49.58	11.34	22.27	-38.9	-40.9	17.0	0.00e+00	0	56	0	285212672	49	4541
2026-01-03 00:02:50.60	11.30	22.41	-38.6	-40.6	17.4	0.00e+00	0	56	0	287309824	49	4354
2026-01-03 00:02:51.60	11.26	22.55	-38.6	-40.6	17.4	0.00e+00	0	56	0	289406976	49	4351
2026-01-03 00:02:52.61	11.22	22.70	-38.6	-40.6	17.4	0.00e+00	0	56	0	291504128	49	4361
2026-01-03 00:02:53.62	11.18	22.84	-38.6	-40.6	17.4	0.00e+00	0	56	0	292552704	48	4609
2026-01-03 00:02:54.63	11.14	22.99	-38.5	-40.4	17.6	0.00e+00	0	56	0	294649856	48	4501
2026-01-03 00:02:55.64	11.09	23.14	-38.4	-40.3	17.7	0.00e+00	0	56	0	296747008	48	4443
2026-01-03 00:02:56.65	11.05	23.28	-38.1	-39.9	18.0	0.00e+00	0	56	0	298844160	48	4286
2026-01-03 00:02:57.66	11.01	23.43	-38.0	-39.8	18.2	0.00e+00	0	56	0	300941312	48	4207
2026-01-03 00:02:58.67	10.97	23.58	-37.7	-39.4	18.4	0.00e+00	0	56	0	301989888	47	4265
2026-01-03 00:02:59.68	10.93	23.73	-37.7	-39.4	18.4	0.00e+00	0	56	0	304087040	47	4288
2026-01-03 00:03:00.69	10.88	23.88	-37.8	-39.5	18.3	0.00e+00	0	56	0	306184192	47	4327
2026-01-03 00:03:01.70	10.84	24.04	-37.9	-39.6	18.2	0.00e+00	0	56	0	308281344	47	4383
2026-01-03 00:03:02.71	10.80	24.19	-37.9	-39.6	18.2	0.00e+00	0	56	0	310378496	47	4373
2026-01-03 00:03:03.72	10.75	24.34	-37.8	-39.5	18.3	0.00e+00	0	56	0	311427072	47	4312
2026-01-03 00:03:04.73	10.71	24.50	-37.8	-39.5	18.3	0.00e+00	0	56	0	313524224	47	4337
2026-01-03 00:03:05.74	10.66	24.65	-38.0	-39.8	18.1	0.00e+00	0	56	0	315621376	47	4463
2026-01-03 00:03:06.75	10.61	24.81	-37.9	-39.7	18.2	0.00e+00	0	56	0	317718528	47	4413
2026-01-03 00:03:07.76	10.57	24.97	-38.1	-39.9	18.0	0.00e+00	0	56	0	319815680	47	4542
2026-01-03 00:03:08.77	10.52	25.13	-38.4	-40.3	17.7	0.00e+00	0	56	0	320864256	47	4721
2026-01-03 00:03:09.78	10.47	25.29	-38.3	-40.2	17.7	0.00e+00	0	56	0	322961408	47	4670
2026-01-03 00:03:10.79	10.42	25.45	-38.2	-40.1	17.8	0.00e+00	0	56	0	325058560	47	4619
2026-01-03 00:03:11.80	10.38	25.61	-38.2	-40.0	17.9	0.00e+00	0	56	0	327155712	47	4582
2026-01-03 00:03:12.81	10.33	25.77	-38.3	-40.2	17.7	0.00e+00	0	56	0	329252864	47	4698
2026-01-03 00:03:13.82	10.28	25.93	-38.3	-40.2	17.8	0.00e+00	0	56	0	330301440	47	4662
2026-01-03 00:03:14.83	10.23	26.10	-38.1	-40.0	18.0	0.00e+00	0	56	0	332398592	47	4560
2026-01-03 00:03:15.84	10.17	26.26	-38.2	-40.1	17.8	0.00e+00	0	56	0	334495744	47	4625
2026-01-03 00:03:16.85	10.12	26.43	-38.2	-40.1	17.9	0.00e+00	0	56	0	336592896	47	4600
2026-01-03 00:03:17.86	10.07	26.60	-38.0	-39.7	18.2	0.00e+00	0	56	0	338690048	47	4432
2026-01-03 00:03:18.87	10.02	26.77	-38.1	-39.9	18.0	0.00e+00	0	56	0	339738624	47	4536
2026-01-03 00:03:19.88	9.97	26.94	-38.0	-39.8	18.1	0.00e+00	0	56	0	341835776	47	4480
2026-01-03 00:03:20.89	9.91	27.11	-38.4	-40.4	17.6	0.00e+00	0	56	0	343932928	47	4774
2026-01-03 00:03:21.90	9.86	27.28	-38.7	-40.6	17.3	0.00e+00	0	56	0	346030080	47	4922
2026-01-03 00:03:22.91	9.80	27.45	-38.8	-40.8	17.3	0.00e+00	0	56	0	348127232	48	4713
2026-01-03 00:03:23.91	9.75	27.62	-38.9	-40.9	17.2	0.00e+00	0	56	0	349175808	48	4795
2026-01-03 00:03:24.92	9.69	27.80	-39.1	-41.2	16.9	0.00e+00	0	56	0	351272960	49	4674
2026-01-03 00:03:25.93	9.63	27.97	-39.0	-41.0	17.0	0.00e+00	0	56	0	353370112	49	4591
2026-01-03 00:03:26.94	9.58	28.15	-38.9	-40.9	17.1	0.00e+00	0	56	0	355467264	49	4542
2026-01-03 00:03:27.95	9.52	28.33	-38.6	-40.4	17.6	0.00e+00	0	56	0	357564416	49	4290
2026-01-03 00:03:28.96	9.46	28.51	-38.9	-40.9	17.2	0.00e+00	0	56	0	359661568	49	4517
2026-01-03 00:03:29.97	9.40	28.69	-38.9	-40.9	17.1	0.00e+00	0	56	0	360710144	49	4533
2026-01-03 00:03:30.99	9.34	28.87	-38.9	-40.8	17.3	0.00e+00	0	56	0	362807296	49	4492
2026-01-03 00:03:31.99	9.28	29.05	-39.0	-41.0	17.1	0.00e+00	0	56	0	364904448	49	4569
2026-01-03 00:03:33.00	9.21	29.23	-39.1	-41.2	16.9	0.00e+00	0	56	0	367001600	49	4688
2026-01-03 00:03:34.01	9.15	29.42	-39.5	-41.7	16.4	0.00e+00	0	56	0	369098752	49	4947
2026-01-03 00:03:35.02	9.09	29.60	-39.6	-41.9	16.2	0.00e+00	0	56	0	370147328	49	5076
2026-01-03 00:03:36.03	9.02	29.79	-39.4	-41.6	16.6	0.00e+00	0	56	0	372244480	50	4612
2026-01-03 00:03:37.04	8.96	29.98	-40.1	-42.5	15.7	0.00e+00	0	56	0	374341632	50	5143
2026-01-03 00:03:38.05	8.89	30.17	-40.2	-42.7	15.4	0.00e+00	0	56	0	376438784	51	4942
2026-01-03 00:03:39.06	8.83	30.36	-40.3	-42.9	15.2	0.00e+00	0	56	0	378535936	51	5065
2026-01-03 00:03:40.07	8.76	30.55	-40.4	-43.0	15.2	0.00e+00	0	56	0	379584512	51	5105
2026-01-03 00:03:41.08	8.69	30.74	-40.0	-42.5	15.7	0.00e+00	0	56	0	381681664	51	4819
2026-01-03 00:03:42.09	8.62	30.94	-40.0	-42.4	15.7	0.00e+00	0	56	0	383778816	51	4787
2026-01-03 00:03:43.10	8.55	31.13	-40.1	-42.5	15.7	0.00e+00	0	56	0	385875968	51	4836
2026-01-03 00:03:44.11	8.48	31.33	-40.0	-42.4	15.8	0.00e+00	0	56	0	387973120	51	4769
2026-01-03 00:03:45.12	8.41	31.53	-40.2	-42.7	15.5	0.00e+00	0	56	0	389021696	51	4949
2026-01-03 00:03:46.13	8.33	31.73	-40.4	-43.0	15.1	0.00e+00	0	56	0	391118848	51	5133
2026-01-03 00:03:47.14	8.26	31.93	-40.5	-43.2	14.9	0.00e+00	0	56	0	393216000	51	5254
2026-01-03 00:03:48.14	8.19	32.13	-40.6	-43.2	14.9	0.00e+00	0	56	0	395313152	52	4977
2026-01-03 00:03:49.16	8.11	32.34	-40.6	-43.4	14.7	1.50e-06	0	56	0	397410304	52	5063
2026-01-03 00:03:50.16	8.03	32.54	-40.8	-43.7	14.4	0.00e+00	0	56	0	398458880	52	5233
2026-01-03 00:03:51.18	7.95	32.75	-40.7	-43.5	14.5	7.00e-07	0	56	0	400556032	52	5122
2026-01-03 00:03:52.18	7.88	32.95	-40.6	-43.3	14.8	0.00e+00	0	56	0	402653184	52	5019
2026-01-03 00:03:53.20	7.80	33.16	-40.7	-43.6	14.6	2.20e-06	0	56	0	404750336	52	5169
2026-01-03 00:03:54.20	7.72	33.37	-40.7	-43.6	14.5	7.00e-07	0	56	0	406847488	52	5169
2026-01-03 00:03:55.22	7.63	33.59	-40.8	-43.6	14.5	7.00e-07	0	56	0	407896064	52	5201
2026-01-03 00:03:56.23	7.55	33.80	-41.0	-44.0	14.2	3.00e-06	0	56	0	409993216	52	5445
2026-01-03 00:03:57.23	7.47	34.01	-41.2	-44.4	13.7	8.30e-06	0	56	0	412090368	53	5349
2026-01-03 00:03:58.24	7.38	34.23	-41.4	-44.8	13.5	9.10e-06	0	56	0	414187520	53	5593
2026-01-03 00:03:59.25	7.29	34.44	-41.4	-44.6	13.5	1.98e-05	0	56	0	416284672	53	5506
2026-01-03 00:04:00.26	7.20	34.66	-41.3	-44.5	13.6	4.50e-06	0	56	0	417333248	53	5463
2026-01-03 00:04:01.27	7.12	34.88	-41.2	-44.3	13.8	9.90e-06	0	56	0	419430400	53	5293
2026-01-03 00:04:02.28	7.02	35.11	-40.9	-43.8	14.3	7.00e-07	0	56	0	421527552	53	5007
2026-01-03 00:04:03.29	6.93	35.33	-40.7	-43.5	14.6	7.00e-07	0	56	0	423624704	52	5154
2026-01-03 00:04:04.30	6.84	35.55	-40.4	-43.1	15.0	0.00e+00	0	56	0	425721856	52	4926
2026-01-03 00:04:05.31	6.75	35.78	-40.0	-42.5	15.7	0.00e+00	0	56	0	427819008	52	4564
2026-01-03 00:04:06.32	6.65	36.01	-40.4	-43.1	15.1	0.00e+00	0	56	0	428867584	52	4871
2026-01-03 00:04:07.34	6.55	36.24	-40.5	-43.2	14.9	7.00e-07	0	56	0	430964736	52	4961
2026-01-03 00:04:08.34	6.45	36.47	-40.9	-44.0	14.2	0.00e+00	0	56	0	433061888	52	5405
2026-01-03 00:04:09.36	6.35	36.70	-41.0	-44.0	14.2	3.00e-06	0	56	0	435159040	52	5439
2026-01-03 00:04:10.36	6.25	36.94	-40.9	-43.9	14.1	6.80e-06	0	56	0	437256192	52	5384
2026-01-03 00:04:11.37	6.15	37.17	-40.8	-43.7	14.4	0.00e+00	0	56	0	438304768	52	5229
2026-01-03 00:04:12.38	6.04	37.41	-40.6	-43.4	14.7	0.00e+00	0	56	0	440401920	52	5073
2026-01-03 00:04:13.39	5.94	37.65	-40.1	-42.5	15.7	0.00e+00	0	56	0	442499072	51	4856
2026-01-03 00:04:14.40	5.83	37.89	-39.8	-42.2	16.0	0.00e+00	0	56	0	444596224	51	4652
2026-01-03 00:04:15.41	5.72	38.13	-39.6	-41.7	16.4	0.00e+00	0	56	0	446693376	51	4441
2026-01-03 00:04:16.42	5.61	38.37	-39.8	-42.1	16.1	0.00e+00	0	56	0	447741952	51	4633
2026-01-03 00:04:17.43	5.49	38.62	-39.8	-42.1	16.1	0.00e+00	0	56	0	449839104	51	4639
2026-01-03 00:04:18.44	5.38	38.87	-40.1	-42.6	15.7	0.00e+00	0	56	0	451936256	51	4871
2026-01-03 00:04:19.45	5.26	39.11	-40.4	-42.9	15.3	7.00e-07	0	56	0	454033408	51	5086
2026-01-03 00:04:20.46	5.14	39.36	-40.6	-43.4	14.7	0.00e+00	0	56	0	456130560	52	5070
2026-01-03 00:04:21.47	5.02	39.62	-40.8	-43.7	14.4	0.00e+00	0	56	0	457179136	52	5266
2026-01-03 00:04:22.48	4.90	39.87	-41.0	-44.0	14.1	2.20e-06	0	56	0	459276288	52	5428
2026-01-03 00:04:23.49	4.78	40.13	-40.8	-43.6	14.7	0.00e+00	0	57	0	461373440	52	5217
2026-01-03 00:04:24.50	4.65	40.38	-40.8	-43.6	14.6	1.50e-06	0	57	0	463470592	52	5165
2026-01-03 00:04:25.52	4.52	40.64	-40.4	-43.0	15.0	0.00e+00	0	56	0	465567744	52	4854
2026-01-03 00:04:26.53	4.39	40.90	-40.5	-43.2	15.0	0.00e+00	0	56	0	466616320	52	4962
2026-01-03 00:04:27.54	4.26	41.17	-40.4	-43.0	15.1	0.00e+00	0	56	0	468713472	52	4868
2026-01-03 00:04:28.54	4.12	41.43	-40.4	-43.0	15.1	0.00e+00	0	56	0	470810624	52	4816
2026-01-03 00:04:29.55	3.99	41.69	-40.3	-42.9	15.2	7.00e-07	0	56	0	472907776	52	4766
2026-01-03 00:04:30.56	3.85	41.96	-40.7	-43.5	14.7	0.00e+00	0	57	0	475004928	52	5105
2026-01-03 00:04:31.58	3.70	42.23	-40.6	-43.3	14.7	0.00e+00	0	56	0	476053504	52	5001
2026-01-03 00:04:32.59	3.56	42.50	-40.7	-43.4	14.8	7.00e-07	0	57	0	478150656	52	5075
2026-01-03 00:04:33.60	3.41	42.78	-40.9	-43.8	14.3	1.50e-06	0	56	0	480247808	52	5330
2026-01-03 00:04:34.61	3.26	43.05	-41.2	-44.2	13.9	3.00e-06	0	56	0	482344960	53	5251
2026-01-03 00:04:35.61	3.11	43.32	-41.2	-44.2	14.0	7.00e-07	0	57	0	484442112	53	5273
2026-01-03 00:04:36.62	2.95	43.60	-41.4	-44.7	13.4	1.14e-05	0	56	0	485490688	53	5573
2026-01-03 00:04:37.63	2.80	43.88	-41.5	-44.9	13.2	1.98e-05	0	56	0	487587840	53	5691
2026-01-03 00:04:38.64	2.64	44.16	-41.7	-45.1	12.9	2.05e-05	0	56	0	489684992	53	5852
2026-01-03 00:04:39.65	2.47	44.45	-41.7	-45.2	12.9	6.17e-05	0	56	0	491782144	54	5551
2026-01-03 00:04:40.66	2.31	44.73	-41.3	-44.5	13.6	1.75e-05	0	57	0	493879296	54	5154
2026-01-03 00:04:41.67	2.14	45.02	-40.7	-43.5	14.7	7.00e-07	0	57	0	495976448	53	4832
2026-01-03 00:04:42.68	1.96	45.31	-40.0	-42.3	15.9	0.00e+00	0	57	0	497025024	51	4737
2026-01-03 00:04:43.69	1.79	45.60	-39.7	-41.9	16.2	0.00e+00	0	57	0	499122176	51	4515
2026-01-03 00:04:44.70	1.61	45.89	-39.8	-42.0	16.1	0.00e+00	0	57	0	501219328	51	4586
2026-01-03 00:04:45.71	1.42	46.19	-40.1	-42.5	15.7	0.00e+00	0	56	0	503316480	50	5158
2026-01-03 00:04:46.72	1.24	46.48	-40.6	-43.3	15.0	0.00e+00	0	57	0	505413632	51	5339
2026-01-03 00:04:47.73	1.05	46.78	-41.0	-43.9	14.2	2.20e-06	0	56	0	506462208	52	5398
2026-01-03 00:04:48.74	0.85	47.08	-40.9	-43.8	14.3	7.00e-07	0	57	0	508559360	53	5032
2026-01-03 00:04:49.75	0.66	47.38	-40.6	-43.3	14.8	7.00e-07	0	57	0	510656512	53	4717
2026-01-03 00:04:50.76	0.45	47.68	-40.2	-42.6	15.6	0.00e+00	0	56	0	512753664	52	4627
2026-01-03 00:04:51.77	0.25	47.99	-40.1	-42.5	15.6	0.00e+00	0	57	0	514850816	52	4593
2026-01-03 00:04:52.78	0.04	48.30	-40.0	-42.3	16.0	0.00e+00	0	57	0	515899392	51	4732
2026-01-03 00:04:53.78	359.83	48.60	-40.2	-42.6	15.6	0.00e+00	0	56	0	517996544	51	4908
2026-01-03 00:04:54.79	359.61	48.91	-40.0	-42.4	15.8	0.00e+00	0	57	0	520093696	51	4781
2026-01-03 00:04:55.80	359.38	49.22	-39.7	-42.0	16.3	0.00e+00	0	57	0	522190848	51	4558
2026-01-03 00:04:56.81	359.16	49.54	-39.2	-41.2	17.1	0.00e+00	0	57	0	524288000	50	4410
2026-01-03 00:04:57.82	358.92	49.85	-39.1	-41.1	17.1	0.00e+00	0	57	0	525336576	49	4628
2026-01-03 00:04:58.83	358.69	50.17	-39.3	-41.4	16.8	0.00e+00	0	56	0	527433728	49	4790
2026-01-03 00:04:59.84	358.44	50.49	-39.3	-41.4	16.9	0.00e+00	0	56	0	529530880	49	4771
2026-01-03 00:05:00.85	358.20	50.81	-39.4	-41.6	16.6	0.00e+00	0	57	0	531628032	49	4922
2026-01-03 00:05:01.86	357.94	51.13	-39.2	-41.3	16.9	0.00e+00	0	57	0	533725184	49	4718
2026-01-03 00:05:02.87	357.68	51.46	-39.1	-41.1	17.1	0.00e+00	0	56	0	534773760	49	4621
2026-01-03 00:05:03.87	357.42	51.78	-38.8	-40.8	17.4	0.00e+00	0	57	0	536870912	49	4455
2026-01-03 00:05:04.89	357.15	52.11	-39.3	-41.4	16.8	0.00e+00	0	56	0	538968064	49	4797
2026-01-03 00:05:05.90	356.87	52.44	-39.7	-42.0	16.1	0.00e+00	0	57	0	541065216	50	4866
2026-01-03 00:05:06.91	356.59	52.77	-39.8	-42.1	16.1	0.00e+00	0	57	0	543162368	50	4921
2026-01-03 00:05:07.92	356.30	53.10	-39.5	-41.7	16.5	0.00e+00	0	57	0	544210944	50	4695
2026-01-03 00:05:08.93	356.00	53.43	-39.4	-41.5	16.9	0.00e+00	0	57	0	546308096	50	4594
2026-01-03 00:05:09.94	355.70	53.76	-39.1	-41.1	17.1	0.00e+00	0	57	0	548405248	50	4368
2026-01-03 00:05:10.95	355.39	54.10	-39.2	-41.3	16.9	0.00e+00	0	57	0	550502400	50	4459
2026-01-03 00:05:11.96	355.07	54.44	-39.5	-41.7	16.6	0.00e+00	0	57	0	552599552	50	4661
2026-01-03 00:05:12.97	354.74	54.77	-39.7	-42.0	16.3	0.00e+00	0	57	0	553648128	50	4816
2026-01-03 00:05:13.98	354.41	55.11	-39.6	-41.8	16.4	0.00e+00	0	57	0	555745280	50	4748
2026-01-03 00:05:14.99	354.07	55.45	-39.4	-41.6	16.6	0.00e+00	0	57	0	557842432	50	4632
2026-01-03 00:05:16.00	353.72	55.80	-38.7	-40.6	17.5	0.00e+00	0	57	0	559939584	49	4388
2026-01-03 00:05:17.01	353.36	56.14	-37.9	-39.6	18.5	0.00e+00	0	57	0	562036736	47	4363
2026-01-03 00:05:18.02	352.99	56.48	-37.4	-39.0	19.0	0.00e+00	0	57	0	564133888	46	4302
2026-01-03 00:05:19.03	352.61	56.83	-37.8	-39.5	18.7	0.00e+00	0	57	0	565182464	46	4561
2026-01-03 00:05:20.03	352.23	57.17	-38.2	-40.0	18.1	0.00e+00	0	57	0	567279616	47	4564
2026-01-03 00:05:21.04	351.83	57.52	-38.8	-40.7	17.5	0.00e+00	0	57	0	569376768	48	4680
2026-01-03 00:05:22.05	351.42	57.86	-38.9	-40.9	17.3	0.00e+00	0	57	0	571473920	48	4762
2026-01-03 00:05:23.06	351.01	58.21	-39.1	-41.1	17.1	0.00e+00	0	57	0	573571072	48	4893
2026-01-03 00:05:24.07	350.58	58.56	-39.6	-41.7	16.6	0.00e+00	0	57	0	574619648	49	4976
2026-01-03 00:05:25.08	350.14	58.91	-40.0	-42.4	15.9	0.00e+00	0	57	0	576716800	50	5065
2026-01-03 00:05:26.09	349.68	59.26	-40.0	-42.4	15.8	0.00e+00	0	57	0	578813952	51	4807
2026-01-03 00:05:27.10	349.22	59.61	-40.3	-42.8	15.5	0.00e+00	0	57	0	580911104	51	5002
2026-01-03 00:05:28.11	348.74	59.96	-40.5	-43.2	14.9	0.00e+00	0	57	0	583008256	51	5267
2026-01-03 00:05:29.12	348.25	60.31	-40.5	-43.3	14.9	0.00e+00	0	57	0	584056832	51	5308
2026-01-03 00:05:30.13	347.74	60.66	-40.0	-42.4	15.7	0.00e+00	0	57	0	586153984	51	4788
2026-01-03 00:05:31.14	347.22	61.01	-39.5	-41.6	16.5	0.00e+00	0	57	0	588251136	50	4647
2026-01-03 00:05:32.15	346.69	61.36	-39.2	-41.2	17.0	0.00e+00	0	57	0	590348288	50	4421
2026-01-03 00:05:33.16	346.14	61.71	-39.5	-41.6	16.5	0.00e+00	0	57	0	592445440	50	4634
2026-01-03 00:05:34.17	345.58	62.05	-38.8	-40.7	17.4	0.00e+00	0	57	0	593494016	49	4401
2026-01-03 00:05:35.18	344.99	62.40	-38.2	-39.9	18.3	0.00e+00	0	57	0	595591168	48	4264
2026-01-03 00:05:36.19	344.40	62.75	-38.2	-40.0	18.0	0.00e+00	0	57	0	597688320	47	4561
2026-01-03 00:05:37.20	343.78	63.10	-39.1	-41.2	17.0	0.00e+00	0	57	0	599785472	48	4949
2026-01-03 00:05:38.21	343.14	63.44	-39.3	-41.5	16.9	0.00e+00	0	57	0	601882624	49	4840
2026-01-03 00:05:39.22	342.49	63.78	-39.0	-41.1	17.1	0.00e+00	0	57	0	602931200	49	4615
2026-01-03 00:05:40.23	341.82	64.13	-38.4	-40.2	18.0	0.00e+00	0	57	0	605028352	48	4408
2026-01-03 00:05:41.24	341.12	64.47	-38.1	-39.9	18.0	0.00e+00	0	57	0	607125504	47	4519
2026-01-03 00:05:42.25	340.41	64.81	-38.2	-40.0	18.0	0.00e+00	0	57	0	609222656	47	4568
2026-01-03 00:05:43.26	339.67	65.14	-38.5	-40.5	17.6	0.00e+00	0	57	0	611319808	47	4823
2026-01-03 00:05:44.28	338.91	65.48	-38.9	-41.0	17.1	0.00e+00	0	57	0	612368384	48	4830
2026-01-03 00:05:45.28	338.13	65.81	-39.2	-41.3	16.8	0.00e+00	0	57	0	614465536	48	4991
2026-01-03 00:05:46.30	337.32	66.14	-38.5	-40.3	17.8	0.00e+00	0	57	0	616562688	48	4455
2026-01-03 00:05:47.31	336.49	66.46	-38.6	-40.4	17.7	0.00e+00	0	57	0	618659840	48	4530
2026-01-03 00:05:48.32	335.63	66.79	-38.8	-40.7	17.3	7.00e-07	0	57	0	620756992	48	4699
2026-01-03 00:05:49.33	334.75	67.10	-39.4	-41.6	16.5	0.00e+00	0	57	0	621805568	49	4898
2026-01-03 00:05:50.34	333.84	67.42	-40.0	-42.3	15.8	0.00e+00	0	57	0	623902720	50	5036
2026-01-03 00:05:51.34	332.91	67.73	-40.0	-42.3	15.8	0.00e+00	0	57	0	625999872	50	5019
2026-01-03 00:05:52.35	331.94	68.03	-40.6	-43.2	14.9	0.00e+00	0	57	0	628097024	51	5275
2026-01-03 00:05:53.37	330.93	68.34	-41.5	-44.8	13.3	1.22e-05	0	57	0	630194176	53	5646
2026-01-03 00:05:54.38	329.91	68.63	-41.9	-45.6	12.3	9.68e-05	0	57	0	632291328	54	5820
2026-01-03 00:05:55.39	328.85	68.92	-41.3	-44.5	13.5	4.04e-05	0	57	0	633339904	54	5128
2026-01-03 00:05:56.39	327.77	69.20	-41.6	-44.9	13.0	2.97e-05	0	57	0	635437056	54	5387
2026-01-03 00:05:57.41	326.64	69.48	-42.7	-47.1	10.8	7.84e-04	0	57	0	637534208	56	6161
2026-01-03 00:05:58.41	325.49	69.75	-42.9	-47.7	10.3	1.05e-02	0	57	0	639631360	57	6224
2026-01-03 00:05:59.42	324.31	70.01	-42.3	-46.2	11.9	9.22e-04	0	57	0	641728512	56	5543
2026-01-03 00:06:00.43	323.09	70.27	-41.0	-43.9	14.0	1.14e-05	0	57	0	642777088	54	4805
2026-01-03 00:06:01.44	321.83	70.52	-40.4	-43.0	15.0	7.00e-07	0	57	0	644874240	52	4831
2026-01-03 00:06:02.45	320.54	70.76	-39.8	-42.1	16.0	0.00e+00	0	57	0	646971392	51	4620
2026-01-03 00:06:03.46	319.22	70.99	-39.8	-42.1	16.0	0.00e+00	0	57	0	649068544	51	4616
2026-01-03 00:06:04.47	317.86	71.21	-39.6	-41.8	16.2	0.00e+00	0	57	0	651165696	51	4475
2026-01-03 00:06:05.48	316.47	71.42	-39.9	-42.2	15.9	0.00e+00	0	57	0	652214272	50	4965
2026-01-03 00:06:06.49	315.05	71.62	-40.2	-42.6	15.5	0.00e+00	0	57	0	654311424	51	4911
2026-01-03 00:06:07.50	313.59	71.81	-39.8	-42.1	16.0	4.50e-06	0	57	0	656408576	51	4605
2026-01-03 00:06:08.50	312.12	71.99	-39.2	-41.2	16.7	0.00e+00	0	57	0	658505728	50	4432
2026-01-03 00:06:09.51	310.60	72.16	-39.0	-41.0	17.0	0.00e+00	0	57	0	660602880	49	4588
2026-01-03 00:06:10.52	309.05	72.31	-39.2	-41.3	16.7	0.00e+00	0	57	0	661651456	49	4742
2026-01-03 00:06:11.52	307.49	72.46	-40.4	-43.0	15.1	0.00e+00	0	57	0	663748608	51	5139
2026-01-03 00:06:12.54	305.87	72.59	-41.3	-44.4	13.5	5.30e-06	0	57	0	665845760	53	5402
2026-01-03 00:06:13.55	304.24	72.71	-41.1	-44.1	13.8	8.30e-06	0	57	0	667942912	53	5216
2026-01-03 00:06:14.56	302.59	72.81	-41.5	-44.8	13.0	3.80e-06	0	57	0	670040064	53	5635
2026-01-03 00:06:15.57	300.92	72.90	-41.5	-44.9	12.3	1.69e-04	0	57	0	671088640	54	5347
2026-01-03 00:06:16.58	299.23	72.98	-41.4	-44.8	13.2	4.57e-05	0	57	0	673185792	54	5303
2026-01-03 00:06:17.59	297.53	73.04	-41.5	-44.9	13.0	5.30e-06	0	57	0	675282944	54	5400
2026-01-03 00:06:18.60	295.82	73.09	-42.0	-45.8	12.0	3.81e-04	0	57	0	677380096	54	5966
2026-01-03 00:06:19.60	294.11	73.13	-41.4	-44.7	13.2	1.47e-04	0	57	0	679477248	54	5246
2026-01-03 00:06:20.62	292.37	73.15	-40.8	-43.8	14.2	1.29e-05	0	57	0	680525824	53	4987
2026-01-03 00:06:21.63	290.64	73.15	-41.0	-44.1	13.8	0.00e+00	0	57	0	682622976	52	5527
2026-01-03 00:06:22.63	288.92	73.14	-40.8	-43.7	14.1	5.30e-06	0	57	0	684720128	53	4975
2026-01-03 00:06:23.64	287.19	73.12	-40.3	-42.9	15.0	0.00e+00	0	57	0	686817280	52	4779
2026-01-03 00:06:24.65	285.47	73.08	-39.8	-42.2	15.7	0.00e+00	0	57	0	688914432	51	4684
2026-01-03 00:06:25.66	283.76	73.02	-39.5	-41.7	16.4	0.00e+00	0	57	0	689963008	49	4928
2026-01-03 00:06:26.67	282.07	72.96	-39.1	-41.2	16.7	0.00e+00	0	57	0	692060160	49	4687
2026-01-03 00:06:27.68	280.38	72.88	-39.1	-41.1	16.8	0.00e+00	0	57	0	694157312	49	4646
2026-01-03 00:06:28.69	278.72	72.78	-38.8	-40.8	17.2	0.00e+00	0	57	0	696254464	49	4446
2026-01-03 00:06:29.70	277.08	72.67	-39.1	-41.2	16.9	0.00e+00	0	57	0	698351616	49	4685
2026-01-03 00:06:30.71	275.46	72.55	-39.9	-42.3	15.7	0.00e+00	0	57	0	700448768	50	5035
2026-01-03 00:06:31.72	273.86	72.41	-39.9	-42.3	15.7	0.00e+00	0	57	0	701497344	51	4754
2026-01-03 00:06:32.73	272.29	72.26	-40.5	-43.2	14.7	0.00e+00	0	57	0	703594496	52	4980
2026-01-03 00:06:33.74	270.75	72.10	-40.0	-42.4	15.6	0.00e+00	0	57	0	705691648	51	4809
2026-01-03 00:06:34.75	269.24	71.93	-39.8	-42.1	15.9	0.00e+00	0	57	0	707788800	50	4900
2026-01-03 00:06:35.76	267.76	71.75	-40.7	-43.4	14.7	0.00e+00	0	57	0	709885952	51	5357
2026-01-03 00:06:36.77	266.32	71.55	-41.3	-44.6	13.4	7.00e-07	0	57	0	710934528	53	5487
2026-01-03 00:06:37.78	264.90	71.35	-41.7	-45.3	12.6	1.20e-04	0	57	0	713031680	54	5599
2026-01-03 00:06:38.79	263.52	71.13	-41.2	-44.4	13.5	2.59e-05	0	57	0	715128832	54	5048
2026-01-03 00:06:39.79	262.19	70.91	-41.3	-44.5	13.4	2.20e-06	0	57	0	717225984	53	5453
2026-01-03 00:06:40.80	260.88	70.68	-41.7	-45.2	12.7	1.44e-05	0	57	0	719323136	54	5569
2026-01-03 00:06:41.81	259.60	70.43	-42.3	-46.4	11.4	6.68e-04	0	57	0	720371712	55	6054
2026-01-03 00:06:42.82	258.35	70.18	-41.5	-44.8	13.1	1.02e-04	0	57	0	722468864	54	5328
2026-01-03 00:06:43.83	257.14	69.92	-42.1	-46.0	12.0	2.89e-05	0	57	0	724566016	54	6076
2026-01-03 00:06:44.84	255.96	69.66	-41.8	-45.4	12.5	2.46e-04	0	57	0	726663168	55	5402
2026-01-03 00:06:45.85	254.82	69.38	-40.9	-43.8	14.2	3.66e-05	0	57	0	728760320	53	4985
2026-01-03 00:06:46.86	253.71	69.10	-41.2	-44.2	13.6	2.20e-06	0	57	0	729808896	53	5259
2026-01-03 00:06:47.87	252.63	68.82	-41.3	-44.4	13.4	1.75e-05	0	57	0	731906048	53	5367
2026-01-03 00:06:48.88	251.58	68.52	-41.2	-44.3	13.7	3.80e-06	0	57	0	734003200	53	5287
2026-01-03 00:06:49.89	250.56	68.23	-41.0	-43.9	14.0	6.80e-06	0	57	0	736100352	53	5095
2026-01-03 00:06:50.90	249.57	67.92	-40.3	-42.8	15.0	7.00e-07	0	57	0	738197504	52	4740
2026-01-03 00:06:51.91	248.62	67.62	-39.8	-42.0	16.0	0.00e+00	0	57	0	739246080	51	4569
2026-01-03 00:06:52.92	247.69	67.30	-40.4	-42.9	15.2	0.00e+00	0	57	0	741343232	51	5051
2026-01-03 00:06:53.93	246.78	66.99	-40.7	-43.5	14.5	0.00e+00	0	57	0	743440384	52	5120
2026-01-03 00:06:54.94	245.91	66.67	-40.3	-42.9	15.1	1.50e-06	0	57	0	745537536	52	4792
2026-01-03 00:06:55.95	245.06	66.34	-39.0	-41.0	17.0	0.00e+00	0	57	0	747634688	50	4334
2026-01-03 00:06:56.96	244.24	66.02	-39.2	-41.3	16.7	0.00e+00	0	57	0	748683264	49	4718
2026-01-03 00:06:57.97	243.44	65.69	-39.5	-41.8	16.3	0.00e+00	0	57	0	750780416	49	5000
2026-01-03 00:06:58.98	242.66	65.35	-39.2	-41.3	16.7	0.00e+00	0	57	0	752877568	50	4473
2026-01-03 00:06:59.99	241.91	65.02	-38.8	-40.8	17.2	0.00e+00	0	57	0	754974720	49	4453
2026-01-03 00:07:00.99	241.19	64.68	-37.5	-39.1	18.7	0.00e+00	0	57	0	757071872	47	4137
2026-01-03 00:07:02.00	240.48	64.34	-37.5	-39.2	18.7	0.00e+00	0	57	0	758120448	46	4414
2026-01-03 00:07:03.01	239.79	64.00	-38.2	-40.1	17.9	0.00e+00	0	57	0	760217600	47	4605
2026-01-03 00:07:04.02	239.12	63.66	-38.1	-39.9	18.0	0.00e+00	0	57	0	762314752	47	4504
2026-01-03 00:07:05.03	238.48	63.31	-37.5	-39.1	18.8	0.00e+00	0	57	0	764411904	46	4379
2026-01-03 00:07:06.04	237.85	62.97	-37.3	-38.9	18.9	0.00e+00	0	57	0	766509056	46	4283
2026-01-03 00:07:07.05	237.24	62.62	-37.8	-39.5	18.5	0.00e+00	0	57	0	768606208	46	4557
2026-01-03 00:07:08.06	236.64	62.27	-38.0	-39.8	18.1	0.00e+00	0	57	0	769654784	46	4736
2026-01-03 00:07:09.07	236.07	61.92	-37.9	-39.7	18.2	0.00e+00	0	57	0	771751936	46	4698
2026-01-03 00:07:10.08	235.50	61.57	-38.3	-40.3	17.7	0.00e+00	0	57	0	773849088	47	4721
2026-01-03 00:07:11.09	234.96	61.22	-39.2	-41.4	16.7	0.00e+00	0	57	0	775946240	49	4769
2026-01-03 00:07:12.10	234.43	60.87	-39.6	-41.9	16.3	0.00e+00	0	57	0	778043392	49	5091
2026-01-03 00:07:13.11	233.91	60.52	-39.6	-41.9	16.2	0.00e+00	0	57	0	779091968	50	4765
2026-01-03 00:07:14.12	233.41	60.17	-39.5	-41.7	16.6	0.00e+00	0	57	0	781189120	50	4654
2026-01-03 00:07:15.13	232.93	59.82	-39.3	-41.3	16.8	0.00e+00	0	57	0	783286272	50	4493
2026-01-03 00:07:16.13	232.46	59.47	-39.9	-42.2	15.9	0.00e+00	0	57	0	785383424	50	4979
2026-01-03 00:07:17.14	231.99	59.12	-40.0	-42.4	15.7	0.00e+00	0	57	0	787480576	51	4808
2026-01-03 00:07:18.15	231.54	58.77	-39.8	-42.1	16.1	0.00e+00	0	57	0	788529152	51	4611
2026-01-03 00:07:19.16	231.11	58.42	-39.1	-41.2	16.8	0.00e+00	0	57	0	790626304	50	4421
2026-01-03 00:07:20.17	230.68	58.07	-39.3	-41.4	16.7	0.00e+00	0	57	0	792723456	50	4527
2026-01-03 00:07:21.18	230.26	57.72	-39.4	-41.6	16.6	0.00e+00	0	57	0	794820608	50	4608
2026-01-03 00:07:22.19	229.86	57.37	-39.9	-42.3	15.8	0.00e+00	0	57	0	796917760	50	5000
2026-01-03 00:07:23.20	229.47	57.03	-39.8	-42.0	15.9	0.00e+00	0	57	0	797966336	50	4863
2026-01-03 00:07:24.21	229.08	56.68	-39.6	-41.9	16.3	0.00e+00	0	57	0	800063488	50	4769
2026-01-03 00:07:25.22	228.71	56.34	-38.6	-40.5	17.6	0.00e+00	0	57	0	802160640	49	4316
2026-01-03 00:07:26.23	228.34	55.99	-37.1	-38.6	19.3	0.00e+00	0	57	0	804257792	46	4114
2026-01-03 00:07:27.24	227.98	55.65	-36.8	-38.3	19.6	0.00e+00	0	57	0	806354944	45	4201
2026-01-03 00:07:28.25	227.64	55.31	-37.4	-39.1	18.8	0.00e+00	0	57	0	807403520	45	4616
2026-01-03 00:07:29.26	227.30	54.96	-37.7	-39.4	18.5	0.00e+00	0	57	0	809500672	46	4519
2026-01-03 00:07:30.27	226.96	54.62	-37.8	-39.5	18.4	0.00e+00	0	57	0	811597824	46	4585
2026-01-03 00:07:31.28	226.64	54.29	-39.1	-41.1	16.9	0.00e+00	0	57	0	813694976	48	4925
2026-01-03 00:07:32.29	226.32	53.95	-39.8	-42.1	15.9	0.00e+00	0	57	0	815792128	50	4926
2026-01-03 00:07:33.29	226.02	53.62	-39.7	-42.0	16.1	0.00e+00	0	57	0	816840704	50	4840
2026-01-03 00:07:34.31	225.71	53.28	-39.7	-42.0	16.1	0.00e+00	0	57	0	818937856	50	4856
2026-01-03 00:07:35.32	225.42	52.94	-40.5	-43.2	15.0	0.00e+00	0	57	0	821035008	51	5220
2026-01-03 00:07:36.33	225.13	52.61	-40.6	-43.5	14.6	0.00e+00	0	57	0	823132160	52	5120
2026-01-03 00:07:37.33	224.85	52.28	-40.1	-42.5	15.5	0.00e+00	0	57	0	825229312	51	4868
2026-01-03 00:07:38.34	224.58	51.96	-40.1	-42.6	15.6	0.00e+00	0	57	0	826277888	51	4896
2026-01-03 00:07:39.35	224.31	51.63	-40.2	-42.7	15.5	0.00e+00	0	57	0	828375040	51	4961
2026-01-03 00:07:40.36	224.04	51.30	-40.3	-42.9	15.2	0.00e+00	0	57	0	830472192	51	5073
2026-01-03 00:07:41.37	223.79	50.98	-39.9	-42.2	16.0	0.00e+00	0	57	0	832569344	51	4678
2026-01-03 00:07:42.38	223.54	50.66	-39.9	-42.2	15.8	0.00e+00	0	57	0	834666496	51	4701
2026-01-03 00:07:43.39	223.29	50.33	-40.1	-42.6	15.6	0.00e+00	0	57	0	836763648	51	4884
2026-01-03 00:07:44.40	223.05	50.02	-39.4	-41.5	16.6	0.00e+00	0	57	0	837812224	50	4575
2026-01-03 00:07:45.41	222.81	49.70	-38.6	-40.5	17.5	0.00e+00	0	57	0	839909376	49	4325
2026-01-03 00:07:46.42	222.58	49.38	-38.6	-40.5	17.4	0.00e+00	0	57	0	842006528	48	4586
2026-01-03 00:07:47.43	222.35	49.07	-38.6	-40.5	17.6	0.00e+00	0	57	0	844103680	48	4579
2026-01-03 00:07:48.44	222.13	48.76	-38.9	-40.8	17.2	0.00e+00	0	57	0	846200832	48	4736
2026-01-03 00:07:49.45	221.91	48.44	-38.1	-39.8	18.2	0.00e+00	0	57	0	847249408	48	4237
2026-01-03 00:07:50.46	221.70	48.14	-38.5	-40.3	17.7	0.00e+00	0	57	0	849346560	47	4728
2026-01-03 00:07:51.47	221.49	47.83	-39.3	-41.3	16.9	0.00e+00	0	57	0	851443712	49	4751
2026-01-03 00:07:52.48	221.29	47.52	-39.9	-42.3	15.9	0.00e+00	0	57	0	853540864	50	4985
2026-01-03 00:07:53.49	221.08	47.22	-39.8	-42.0	16.1	0.00e+00	0	57	0	855638016	50	4855
2026-01-03 00:07:54.49	220.89	46.92	-39.8	-42.0	16.1	0.00e+00	0	57	0	856686592	50	4858
2026-01-03 00:07:55.50	220.70	46.62	-40.3	-42.8	15.4	0.00e+00	0	57	0	858783744	51	5024
2026-01-03 00:07:56.51	220.51	46.32	-41.3	-44.5	13.6	3.00e-06	0	57	0	860880896	53	5415
2026-01-03 00:07:57.52	220.32	46.03	-41.2	-44.3	13.7	2.28e-05	0	57	0	862978048	53	5287
2026-01-03 00:07:58.53	220.14	45.73	-40.6	-43.3	14.8	9.90e-06	0	57	0	865075200	53	4728
2026-01-03 00:07:59.54	219.96	45.44	-39.9	-42.2	16.2	0.00e+00	0	57	0	866123776	51	4686
2026-01-03 00:08:00.55	219.78	45.15	-40.1	-42.6	15.6	0.00e+00	0	57	0	868220928	51	4878
2026-01-03 00:08:01.56	219.61	44.86	-40.9	-43.8	14.2	0.00e+00	0	57	0	870318080	52	5293
2026-01-03 00:08:02.57	219.44	44.57	-40.9	-43.9	14.1	7.00e-07	0	57	0	872415232	53	5047
2026-01-03 00:08:03.58	219.28	44.28	-40.2	-42.8	15.3	0.00e+00	0	57	0	874512384	52	4719
2026-01-03 00:08:04.59	219.11	44.00	-40.1	-42.6	15.6	7.00e-07	0	57	0	875560960	51	4871
2026-01-03 00:08:05.60	218.95	43.72	-41.0	-44.1	14.1	0.00e+00	0	57	0	877658112	52	5471
2026-01-03 00:08:06.61	218.80	43.44	-42.0	-45.9	12.2	9.99e-05	0	57	0	879755264	54	6019
2026-01-03 00:08:07.62	218.64	43.16	-41.9	-45.6	12.2	4.43e-04	0	57	0	881852416	55	5500
2026-01-03 00:08:08.63	218.49	42.88	-42.1	-46.0	12.0	1.23e-04	0	57	0	883949568	55	5788
2026-01-03 00:08:09.64	218.34	42.61	-42.0	-45.8	12.2	3.23e-04	0	57	0	884998144	55	5626
2026-01-03 00:08:10.65	218.19	42.34	-41.6	-45.1	12.9	4.11e-05	0	57	0	887095296	54	5498
2026-01-03 00:08:11.66	218.05	42.06	-41.6	-45.1	12.8	1.37e-04	0	57	0	889192448	54	5526
2026-01-03 00:08:12.67	217.91	41.79	-41.0	-44.1	14.0	7.60e-06	0	57	0	891289600	54	4890
2026-01-03 00:08:13.68	217.77	41.53	-40.8	-43.7	14.3	9.10e-06	0	57	0	893386752	53	4960
2026-01-03 00:08:14.69	217.63	41.26	-40.0	-42.4	15.7	0.00e+00	0	57	0	894435328	51	4763
2026-01-03 00:08:15.69	217.50	41.00	-39.6	-41.8	16.3	0.00e+00	0	57	0	896532480	50	4725
2026-01-03 00:08:16.70	217.36	40.74	-39.7	-41.9	16.2	0.00e+00	0	57	0	898629632	50	4784
2026-01-03 00:08:17.71	217.23	40.48	-40.2	-42.6	15.5	0.00e+00	0	57	0	900726784	50	5172
2026-01-03 00:08:18.73	217.10	40.21	-40.4	-42.9	15.2	0.00e+00	0	57	0	902823936	51	5087
2026-01-03 00:08:19.73	216.98	39.96	-41.3	-44.5	13.6	1.50e-06	0	57	0	904921088	53	5424
2026-01-03 00:08:20.74	216.85	39.70	-41.7	-45.1	12.9	1.67e-05	0	57	0	905969664	53	5836
2026-01-03 00:08:21.75	216.73	39.45	-41.5	-44.9	13.2	7.60e-06	0	57	0	908066816	53	5658
2026-01-03 00:08:22.76	216.61	39.20	-41.3	-44.5	13.6	1.50e-06	0	57	0	910163968	53	5422
2026-01-03 00:08:23.77	216.49	38.95	-41.9	-45.7	12.4	2.20e-06	0	57	0	912261120	54	5867
2026-01-03 00:08:24.78	216.38	38.70	-41.6	-45.0	13.0	5.34e-05	0	57	0	914358272	54	5435
2026-01-03 00:08:25.79	216.26	38.45	-42.0	-46.0	12.0	2.04e-04	0	57	0	915406848	54	6065
2026-01-03 00:08:26.80	216.15	38.20	-42.5	-46.8	11.1	1.14e-03	0	57	0	917504000	55	6337
2026-01-03 00:08:27.81	216.04	37.96	-42.1	-46.0	12.0	8.39e-04	0	57	0	919601152	55	5750
2026-01-03 00:08:28.82	215.93	37.72	-41.0	-43.9	14.1	6.10e-06	0	57	0	921698304	54	4805
2026-01-03 00:08:29.83	215.82	37.48	-40.0	-42.4	15.7	0.00e+00	0	57	0	923795456	51	4810
2026-01-03 00:08:30.84	215.71	37.24	-39.7	-41.9	16.2	0.00e+00	0	57	0	924844032	51	4525
2026-01-03 00:08:31.85	215.61	37.00	-39.1	-41.1	17.0	0.00e+00	0	57	0	926941184	50	4364
2026-01-03 00:08:32.86	215.51	36.76	-39.0	-41.0	17.1	0.00e+00	0	57	0	929038336	49	4551
2026-01-03 00:08:33.86	215.40	36.53	-38.8	-40.7	17.3	0.00e+00	0	57	0	931135488	49	4422
2026-01-03 00:08:34.87	215.30	36.30	-38.9	-40.8	17.2	0.00e+00	0	57	0	933232640	48	4753
2026-01-03 00:08:35.88	215.21	36.07	-38.8	-40.8	17.3	0.00e+00	0	57	0	934281216	48	4711
2026-01-03 00:08:36.89	215.11	35.84	-39.8	-41.6	17.0	0.00e+00	0	57	0	936378368	49	4873
2026-01-03 00:08:37.90	215.01	35.61	-39.3	-41.4	16.7	0.00e+00	0	57	0	938475520	49	4782
2026-01-03 00:08:38.92	214.92	35.38	-39.9	-42.3	15.9	0.00e+00	0	57	0	940572672	50	4994
2026-01-03 00:08:39.93	214.82	35.16	-40.7	-43.4	14.8	0.00e+00	0	57	0	942669824	51	5373
2026-01-03 00:08:40.94	214.73	34.93	-41.5	-44.8	13.2	1.50e-06	0	57	0	943718400	53	5618
2026-01-03 00:08:41.94	214.64	34.71	-42.3	-46.4	11.6	3.77e-04	0	57	0	945815552	55	6030
2026-01-03 00:08:42.95	214.55	34.49	-42.0	-45.9	12.1	5.96e-04	0	57	0	947912704	55	5682
2026-01-03 00:08:43.96	214.46	34.27	-42.1	-46.0	12.1	4.10e-04	0	57	0	950009856	55	5730
2026-01-03 00:08:44.97	214.38	34.06	-41.4	-44.7	13.4	4.80e-05	0	57	0	952107008	54	5235
2026-01-03 00:08:45.98	214.29	33.84	-41.3	-44.5	13.5	8.30e-06	0	57	0	953155584	54	5150
2026-01-03 00:08:46.99	214.21	33.62	-41.5	-44.9	13.1	1.22e-05	0	57	0	955252736	54	5346
2026-01-03 00:08:48.01	214.12	33.41	-41.6	-45.0	13.0	4.57e-05	0	57	0	957349888	54	5426
2026-01-03 00:08:49.01	214.04	33.20	-41.5	-44.8	13.2	2.97e-05	0	57	0	959447040	54	5320
2026-01-03 00:08:50.02	213.96	32.99	-41.4	-44.7	13.3	1.06e-05	0	57	0	961544192	54	5255
2026-01-03 00:08:51.03	213.88	32.78	-41.1	-44.1	13.9	1.60e-05	0	57	0	962592768	53	5199
2026-01-03 00:08:52.04	213.80	32.57	-40.9	-43.8	14.3	5.30e-06	0	57	0	964689920	53	4996
2026-01-03 00:08:53.05	213.72	32.37	-40.6	-43.3	14.8	0.00e+00	0	57	0	966787072	53	4706
2026-01-03 00:08:54.06	213.65	32.16	-40.4	-43.0	15.1	7.00e-07	0	57	0	968884224	52	4818
2026-01-03 00:08:55.07	213.57	31.96	-40.2	-42.8	15.3	0.00e+00	0	57	0	970981376	52	4707
2026-01-03 00:08:56.08	213.49	31.75	-40.5	-43.1	14.9	0.00e+00	0	57	0	973078528	52	4908
2026-01-03 00:08:57.09	213.42	31.55	-40.7	-43.5	14.6	0.00e+00	0	57	0	974127104	52	5123
2026-01-03 00:08:58.10	213.35	31.35	-41.1	-44.2	13.9	0.00e+00	0	57	0	976224256	52	5565
2026-01-03 00:08:59.11	213.27	31.15	-41.5	-44.8	13.2	1.50e-06	0	57	0	978321408	53	5634
2026-01-03 00:09:00.12	213.20	30.96	-41.4	-44.6	13.4	1.29e-05	0	57	0	980418560	53	5526
2026-01-03 00:09:01.13	213.13	30.76	-41.8	-45.4	12.6	7.40e-05	0	57	0	982515712	54	5661
2026-01-03 00:09:02.14	213.06	30.57	-42.0	-45.8	12.2	2.89e-04	0	57	0	983564288	54	5989
2026-01-03 00:09:03.15	212.99	30.37	-42.1	-46.1	11.9	6.53e-04	0	57	0	985661440	55	5824
2026-01-03 00:09:04.16	212.93	30.18	-42.4	-46.7	11.4	1.06e-03	0	57	0	987758592	55	6224
2026-01-03 00:09:05.17	212.86	29.99	-42.6	-47.1	10.8	1.71e-03	0	57	0	989855744	55	6524
2026-01-03 00:09:06.18	212.79	29.80	-42.6	-47.0	11.1	2.56e-03	0	57	0	991952896	56	6069
2026-01-03 00:09:07.19	212.73	29.61	-42.8	-47.4	10.7	5.72e-03	0	57	0	993001472	56	6378
2026-01-03 00:09:08.20	212.66	29.42	-42.7	-47.1	11.0	2.52e-03	0	57	0	995098624	56	6192
2026-01-03 00:09:09.21	212.60	29.24	-42.4	-46.5	11.6	1.35e-03	0	57	0	997195776	56	5747
2026-01-03 00:09:10.22	212.54	29.05	-42.5	-46.7	11.4	9.00e-04	0	57	0	999292928	56	5891
2026-01-03 00:09:11.22	212.47	28.87	-42.2	-46.0	12.1	4.06e-04	0	57	0	1001390080	56	5444
2026-01-03 00:09:12.23	212.41	28.69	-41.7	-45.3	12.7	8.16e-05	0	57	0	1002438656	55	5337
2026-01-03 00:09:13.24	212.35	28.51	-41.8	-45.5	12.6	1.52e-04	0	57	0	1004535808	55	5410
2026-01-03 00:09:14.25	212.29	28.33	-41.4	-44.7	13.1	6.02e-05	0	57	0	1006632960	54	5271
2026-01-03 00:09:15.26	212.23	28.15	-41.6	-45.1	12.9	2.21e-05	0	57	0	1008730112	54	5468
2026-01-03 00:09:16.27	212.17	27.97	-41.3	-44.5	13.5	6.10e-06	0	57	0	1010827264	54	5140
2026-01-03 00:09:17.28	212.12	27.79	-41.0	-44.1	13.9	3.00e-06	0	57	0	1011875840	54	4871
2026-01-03 00:09:18.29	212.06	27.62	-40.8	-43.7	14.2	1.50e-06	0	57	0	1013972992	53	4963
2026-01-03 00:09:19.30	212.00	27.44	-40.4	-43.1	14.8	7.00e-07	0	57	0	1016070144	52	4905
2026-01-03 00:09:20.31	211.95	27.27	-40.1	-42.6	15.4	0.00e+00	0	57	0	1018167296	52	4619
2026-01-03 00:09:21.32	211.89	27.10	-39.8	-42.1	15.9	0.00e+00	0	57	0	1020264448	51	4610
2026-01-03 00:09:22.33	211.83	26.92	-39.4	-41.6	16.4	0.00e+00	0	57	0	1021313024	50	4636
2026-01-03 00:09:23.34	211.78	26.75	-38.9	-40.9	17.1	0.00e+00	0	57	0	1023410176	49	4530
2026-01-03 00:09:24.34	211.73	26.59	-38.9	-40.9	17.2	0.00e+00	0	57	0	1025507328	49	4499
2026-01-03 00:09:25.35	211.67	26.42	-38.9	-40.8	17.2	0.00e+00	0	57	0	1027604480	49	4481
2026-01-03 00:09:26.36	211.62	26.25	-38.6	-40.5	17.5	0.00e+00	0	57	0	1029701632	49	4332
2026-01-03 00:09:27.37	211.57	26.08	-38.7	-40.6	17.4	0.00e+00	0	57	0	1030750208	49	4364
2026-01-03 00:09:28.38	211.52	25.92	-38.9	-40.9	17.2	0.00e+00	0	57	0	1032847360	49	4500
2026-01-03 00:09:29.39	211.47	25.75	-39.0	-41.1	16.9	0.00e+00	0	57	0	1034944512	49	4633
2026-01-03 00:09:30.40	211.42	25.59	-39.3	-41.5	16.5	0.00e+00	0	57	0	1037041664	49	4853
2026-01-03 00:09:31.41	211.37	25.43	-39.7	-42.0	16.1	0.00e+00	0	57	0	1039138816	49	5130
2026-01-03 00:09:32.42	211.32	25.27	-39.8	-42.2	15.8	0.00e+00	0	57	0	1040187392	50	4973
2026-01-03 00:09:33.43	211.27	25.11	-40.5	-43.2	14.9	0.00e+00	0	57	0	1042284544	51	5234
2026-01-03 00:09:34.44	211.22	24.95	-40.7	-43.5	14.4	0.00e+00	0	57	0	1044381696	52	5136
2026-01-03 00:09:35.45	211.17	24.79	-41.0	-44.1	14.0	0.00e+00	0	57	0	1046478848	52	5484
2026-01-03 00:09:36.46	211.13	24.63	-41.3	-44.7	13.2	3.80e-06	0	57	0	1048576000	53	5543
2026-01-03 00:09:37.47	211.08	24.47	-41.2	-44.5	13.4	9.10e-06	0	57	0	1049624576	53	5437
2026-01-03 00:09:38.48	211.03	24.32	-41.3	-44.5	13.4	1.37e-05	0	57	0	1051721728	53	5453
2026-01-03 00:09:39.49	210.99	24.16	-41.4	-44.7	13.2	1.37e-05	0	57	0	1053818880	53	5592
2026-01-03 00:09:40.50	210.94	24.01	-41.3	-44.7	13.2	1.98e-05	0	57	0	1055916032	53	5577
2026-01-03 00:09:41.51	210.90	23.85	-40.9	-44.0	14.0	3.80e-06	0	57	0	1058013184	53	5109
2026-01-03 00:09:42.52	210.86	23.70	-41.0	-44.2	13.7	3.80e-06	0	57	0	1059061760	53	5244
2026-01-03 00:09:43.53	210.81	23.55	-40.6	-43.4	14.7	7.00e-07	0	57	0	1061158912	53	4789
2026-01-03 00:09:44.54	210.77	23.40	-40.3	-43.0	15.0	7.00e-07	0	57	0	1063256064	52	4845
2026-01-03 00:09:45.55	210.73	23.25	-40.3	-43.0	14.9	0.00e+00	0	57	0	1065353216	52	4855
2026-01-03 00:09:46.56	210.68	23.10	-40.2	-42.8	15.1	0.00e+00	0	57	0	1067450368	52	4746
2026-01-03 00:09:47.57	210.64	22.95	-40.1	-42.6	15.3	0.00e+00	0	57	0	1069547520	52	4624
2026-01-03 00:09:48.58	210.60	22.80	-40.0	-42.5	15.4	0.00e+00	0	57	0	1070596096	52	4580
2026-01-03 00:09:49.59	210.56	22.66	-39.9	-42.4	15.6	0.00e+00	0	57	0	1072693248	51	4792
2026-01-03 00:09:50.60	210.52	22.51	-40.2	-42.8	15.2	0.00e+00	0	57	0	1074790400	51	5001
2026-01-03 00:09:51.61	210.48	22.37	-40.1	-42.6	15.4	0.00e+00	0	57	0	1076887552	51	4905
2026-01-03 00:09:52.62	210.44	22.22	-40.0	-42.5	15.5	0.00e+00	0	57	0	1078984704	51	4857
2026-01-03 00:09:53.63	210.40	22.08	-39.9	-42.3	15.7	0.00e+00	0	57	0	1080033280	51	4731
2026-01-03 00:09:54.64	210.36	21.94	-40.0	-42.5	15.5	0.00e+00	0	57	0	1082130432	51	4860
2026-01-03 00:09:55.65	210.32	21.80	-39.6	-42.0	16.1	0.00e+00	0	57	0	1084227584	51	4546
2026-01-03 00:09:56.65	210.28	21.66	-39.5	-41.7	16.3	0.00e+00	0	57	0	1086324736	50	4679
2026-01-03 00:09:57.66	210.24	21.52	-39.8	-42.1	15.9	0.00e+00	0	57	0	1088421888	50	4906
2026-01-03 00:09:58.67	210.21	21.38	-39.5	-41.7	16.2	0.00e+00	0	57	0	1089470464	50	4696
2026-01-03 00:09:59.68	210.17	21.24	-39.4	-41.6	16.4	0.00e+00	0	57	0	1091567616	50	4600
2026-01-03 00:10:00.69	210.13	21.10	-39.3	-41.5	16.5	0.00e+00	0	57	0	1093664768	50	4586
2026-01-03 00:10:01.70	210.09	20.96	-39.3	-41.4	16.5	0.00e+00	0	57	0	1095761920	50	4529
2026-01-03 00:10:02.71	210.06	20.83	-39.3	-41.4	16.6	0.00e+00	0	57	0	1097859072	50	4542
2026-01-03 00:10:03.72	210.02	20.69	-39.3	-41.5	16.5	0.00e+00	0	57	0	1098907648	50	4574
2026-01-03 00:10:04.73	209.99	20.56	-39.4	-41.7	16.3	0.00e+00	0	57	0	1101004800	50	4661
2026-01-03 00:10:05.74	209.95	20.42	-39.4	-41.6	16.4	0.00e+00	0	57	0	1103101952	50	4636
2026-01-03 00:10:06.75	209.92	20.29	-39.4	-41.6	16.3	0.00e+00	0	57	0	1105199104	50	4628
2026-01-03 00:10:07.76	209.88	20.16	-39.5	-41.7	16.2	0.00e+00	0	57	0	1107296256	50	4698
2026-01-03 00:10:08.77	209.85	20.02	-39.4	-41.7	16.2	0.00e+00	0	57	0	1108344832	50	4674
2026-01-03 00:10:09.78	209.81	19.89	-39.4	-41.7	16.3	0.00e+00	0	57	0	1110441984	50	4660
2026-01-03 00:10:10.79	209.78	19.76	-39.4	-41.7	16.3	0.00e+00	0	57	0	1112539136	50	4673
2026-01-03 00:10:11.80	209.75	19.63	-39.6	-41.9	16.1	0.00e+00	0	57	0	1114636288	50	4785
2026-01-03 00:10:12.81	209.71	19.50	-39.4	-41.7	16.2	0.00e+00	0	57	0	1116733440	50	4679
2026-01-03 00:10:13.82	209.68	19.37	-39.4	-41.6	16.4	0.00e+00	0	57	0	1117782016	50	4622
2026-01-03 00:10:14.83	209.65	19.24	-39.5	-41.8	16.2	0.00e+00	0	57	0	1119879168	50	4724
2026-01-03 00:10:15.83	209.62	19.12	-39.4	-41.6	16.4	0.00e+00	0	57	0	1121976320	50	4618
2026-01-03 00:10:16.84	209.58	18.99	-39.4	-41.6	16.3	0.00e+00	0	57	0	1124073472	50	4636
2026-01-03 00:10:17.86	209.55	18.86	-39.4	-41.6	16.3	0.00e+00	0	57	0	1126170624	50	4637
2026-01-03 00:10:18.87	209.52	18.74	-39.3	-41.5	16.4	0.00e+00	0	57	0	1127219200	50	4560
2026-01-03 00:10:19.87	209.49	18.61	-39.5	-41.8	16.1	0.00e+00	0	57	0	1129316352	50	4752
2026-01-03 00:10:20.88	209.46	18.49	-39.7	-42.1	15.9	0.00e+00	0	57	0	1131413504	50	4910
2026-01-03 00:10:21.89	209.43	18.37	-39.8	-42.2	15.7	0.00e+00	0	57	0	1133510656	50	4977
2026-01-03 00:10:22.90	209.40	18.24	-39.9	-42.4	15.5	0.00e+00	0	57	0	1135607808	50	5065
2026-01-03 00:10:23.91	209.37	18.12	-40.0	-42.6	15.3	0.00e+00	0	57	0	1137704960	50	5192
2026-01-03 00:10:24.92	209.34	18.00	-40.2	-42.8	15.1	0.00e+00	0	57	0	1138753536	51	5040
2026-01-03 00:10:25.93	209.31	17.88	-40.5	-43.3	14.5	1.50e-06	0	57	0	1140850688	51	5339
2026-01-03 00:10:26.94	209.28	17.76	-40.6	-43.6	14.3	7.00e-07	0	57	0	1142947840	52	5183
2026-01-03 00:10:27.95	209.25	17.64	-40.7	-43.6	14.1	6.80e-06	0	57	0	1145044992	52	5214
2026-01-03 00:10:28.96	209.22	17.52	-41.0	-44.1	13.7	3.80e-06	0	57	0	1147142144	52	5524
2026-01-03 00:10:29.97	209.19	17.40	-41.0	-44.1	13.7	7.60e-06	0	57	0	1148190720	52	5504
2026-01-03 00:10:30.98	209.17	17.28	-40.8	-43.8	14.0	4.50e-06	0	57	0	1150287872	52	5329
2026-01-03 00:10:31.99	209.14	17.16	-41.0	-44.2	13.7	3.80e-06	0	57	0	1152385024	52	5541
2026-01-03 00:10:33.00	209.11	17.04	-40.8	-43.9	13.9	6.10e-06	0	57	0	1154482176	52	5344
2026-01-03 00:10:34.01	209.08	16.93	-40.7	-43.7	14.1	3.80e-06	0	57	0	1156579328	52	5267
2026-01-03 00:10:35.02	209.06	16.81	-40.7	-43.7	14.1	1.50e-06	0	57	0	1157627904	52	5244
2026-01-03 00:10:36.03	209.03	16.70	-40.5	-43.3	14.4	0.00e+00	0	57	0	1159725056	52	5026
2026-01-03 00:10:37.04	209.00	16.58	-40.1	-42.8	15.0	7.00e-07	0	57	0	1161822208	52	4741
2026-01-03 00:10:38.05	208.98	16.47	-40.0	-42.6	15.2	0.00e+00	0	57	0	1163919360	52	4622
2026-01-03 00:10:39.06	208.95	16.35	-40.0	-42.6	15.2	0.00e+00	0	57	0	1166016512	52	4617
2026-01-03 00:10:40.07	208.92	16.24	-40.0	-42.6	15.3	0.00e+00	0	57	0	1167065088	51	4903
2026-01-03 00:10:41.07	208.90	16.13	-39.9	-42.5	15.4	0.00e+00	0	57	0	1169162240	51	4825
2026-01-03 00:10:42.08	208.87	16.01	-40.1	-42.6	15.3	0.00e+00	0	57	0	1171259392	51	4916
2026-01-03 00:10:43.09	208.85	15.90	-40.0	-42.5	15.3	0.00e+00	0	57	0	1173356544	51	4853
2026-01-03 00:10:44.10	208.82	15.79	-40.0	-42.5	15.3	0.00e+00	0	57	0	1175453696	51	4854
2026-01-03 00:10:45.11	208.80	15.68	-40.1	-42.8	15.1	0.00e+00	0	57	0	1176502272	51	4984
2026-01-03 00:10:46.12	208.77	15.57	-40.2	-42.8	15.0	7.00e-07	0	57	0	1178599424	51	5039
2026-01-03 00:10:47.13	208.75	15.46	-40.3	-43.0	14.8	0.00e+00	0	57	0	1180696576	51	5150
2026-01-03 00:10:48.14	208.72	15.35	-40.4	-43.2	14.7	0.00e+00	0	57	0	1182793728	51	5222
2026-01-03 00:10:49.15	208.70	15.24	-40.7	-43.6	14.2	0.00e+00	0	57	0	1184890880	51	5522
