passes_logs/2026/01/02/R2.0S_Moscow/R2.0S_Moscow__20260102_082931_SUOMI_NPP_rec.log

#Pass ID: 20260102_082931_SUOMI NPP
#Satellite: SUOMI NPP
#Configuration: NPP
#almurnet v.1.7.20251203
#Start time: 2026-01-02 08:29:33

#Version: 2.2.20231116
#Station: R2.0S_Moscow
#Location: 37.707566 lon 55.798166 lat
#TLE: 1 37849U 11061A   26001.07732418  .00000182  00000+0  10735-3 0  9990
#TLE: 2 37849  98.7795 303.2470 0002580  87.2016 272.9455 14.19520779734739

#Time	Az	El	Level	Level2	SNR	BER	BlckErr	Temp	State	Recorded	gain1	gain2
2026-01-02 08:29:33.94	116.61	2.13	-42.7	-57.5	3.9	1.49e+00	0	47	0	0	56	20461
2026-01-02 08:29:34.94	116.55	2.19	-43.2	-57.8	3.9	1.49e+00	0	47	104	0	57	19980
2026-01-02 08:29:35.96	116.48	2.25	-43.8	-58.2	3.8	1.49e+00	0	47	104	0	57	20812
2026-01-02 08:29:36.97	116.42	2.31	-43.2	-57.6	3.9	1.49e+00	0	48	104	0	56	20718
2026-01-02 08:29:37.98	116.36	2.37	-42.3	-56.8	4.0	1.49e+00	0	48	104	0	55	19976
2026-01-02 08:29:38.99	116.30	2.43	-42.7	-57.4	3.9	1.49e+00	0	48	104	0	55	21297
2026-01-02 08:29:40.00	116.23	2.49	-43.3	-57.7	3.9	1.49e+00	0	48	104	0	57	19712
2026-01-02 08:29:41.01	116.17	2.55	-43.2	-57.2	4.4	1.49e+00	0	48	104	0	51	26164
2026-01-02 08:29:42.02	116.11	2.60	-43.1	-58.2	3.9	1.49e+00	0	48	104	0	56	22027
2026-01-02 08:29:43.03	116.04	2.66	-41.8	-56.9	4.0	1.49e+00	0	48	104	0	53	22591
2026-01-02 08:29:44.04	115.98	2.72	-43.2	-57.8	3.8	1.49e+00	0	48	104	0	57	19896
2026-01-02 08:29:45.06	115.91	2.78	-43.3	-58.0	3.8	1.49e+00	0	48	104	0	57	20365
2026-01-02 08:29:46.06	115.85	2.84	-40.7	-56.5	3.8	1.49e+00	0	48	104	0	54	20306
2026-01-02 08:29:47.08	115.78	2.90	-43.2	-57.7	3.8	1.49e+00	0	48	104	0	56	20994
2026-01-02 08:29:48.09	115.72	2.96	-42.2	-57.5	3.8	1.49e+00	0	49	104	0	56	20528
2026-01-02 08:29:49.10	115.65	3.02	-42.8	-57.2	3.9	1.49e+00	0	49	104	0	56	19629
2026-01-02 08:29:50.11	115.59	3.08	-43.3	-57.7	3.9	1.49e+00	0	49	104	0	57	19770
2026-01-02 08:29:51.12	115.52	3.14	-43.2	-57.8	3.8	1.49e+00	0	49	104	0	56	21072
2026-01-02 08:29:52.13	115.46	3.20	-43.1	-57.7	3.8	1.49e+00	0	49	104	0	57	19753
2026-01-02 08:29:53.14	115.39	3.26	-42.6	-57.4	3.8	1.49e+00	0	49	104	0	56	20275
2026-01-02 08:29:54.15	115.32	3.32	-43.2	-57.9	3.7	1.49e+00	0	49	104	0	57	20141
2026-01-02 08:29:55.17	115.25	3.38	-43.3	-57.8	3.8	1.49e+00	0	49	104	0	57	19881
2026-01-02 08:29:56.18	115.19	3.44	-43.2	-57.7	3.8	1.49e+00	0	49	104	0	56	20786
2026-01-02 08:29:57.19	115.12	3.50	-42.5	-57.5	3.8	1.49e+00	0	49	104	0	56	20324
2026-01-02 08:29:58.20	115.05	3.57	-42.1	-56.6	3.9	1.49e+00	0	49	104	0	54	20681
2026-01-02 08:29:59.21	114.98	3.63	-43.3	-58.0	3.8	1.49e+00	0	49	104	0	57	20405
2026-01-02 08:30:00.22	114.91	3.69	-43.0	-57.6	3.8	1.49e+00	0	49	104	0	57	19605
2026-01-02 08:30:01.23	114.85	3.75	-43.0	-57.8	3.9	1.49e+00	0	49	104	0	57	19849
2026-01-02 08:30:02.24	114.78	3.81	-43.1	-57.4	3.8	1.49e+00	0	49	104	0	56	20294
2026-01-02 08:30:03.25	114.71	3.87	-42.8	-57.6	3.8	1.49e+00	0	49	104	0	57	19598
2026-01-02 08:30:04.26	114.64	3.93	-43.2	-57.7	3.8	1.49e+00	0	50	104	0	56	20790
2026-01-02 08:30:05.28	114.57	3.99	-41.5	-56.9	3.8	1.49e+00	0	49	104	0	55	20098
2026-01-02 08:30:06.29	114.50	4.06	-43.1	-57.8	3.8	1.49e+00	0	50	104	0	56	21049
2026-01-02 08:30:07.30	114.43	4.12	-43.3	-57.7	3.8	1.49e+00	0	50	104	0	57	19617
2026-01-02 08:30:08.31	114.36	4.18	-39.6	-56.5	3.7	1.49e+00	0	50	104	0	55	19183
2026-01-02 08:30:09.32	114.28	4.24	-43.3	-57.7	3.8	1.49e+00	0	50	104	0	56	20912
2026-01-02 08:30:10.33	114.21	4.30	-43.1	-57.6	3.9	1.49e+00	0	50	104	0	56	20748
2026-01-02 08:30:11.34	114.14	4.36	-43.3	-57.7	3.9	1.49e+00	0	50	104	0	57	19736
2026-01-02 08:30:12.35	114.07	4.43	-43.1	-57.6	3.8	1.49e+00	0	50	104	0	56	20643
2026-01-02 08:30:13.36	114.00	4.49	-40.4	-56.6	3.9	1.49e+00	0	50	104	0	52	23131
2026-01-02 08:30:14.37	113.92	4.55	-43.1	-57.8	3.8	1.49e+00	0	50	104	0	56	21099
2026-01-02 08:30:15.38	113.85	4.61	-42.9	-57.5	3.8	1.49e+00	0	50	104	0	56	20413
2026-01-02 08:30:16.40	113.78	4.68	-43.2	-57.7	3.8	1.49e+00	0	50	104	0	56	20828
2026-01-02 08:30:17.41	113.70	4.74	-43.3	-57.7	3.9	1.49e+00	0	50	104	0	56	20957
2026-01-02 08:30:18.42	113.63	4.80	-43.2	-57.7	3.9	1.49e+00	0	50	104	0	57	19711
2026-01-02 08:30:19.43	113.55	4.86	-43.5	-57.8	3.8	1.49e+00	0	50	104	0	56	21149
2026-01-02 08:30:20.44	113.48	4.93	-42.0	-56.9	3.8	1.49e+00	0	50	104	0	55	20197
2026-01-02 08:30:21.45	113.40	4.99	-43.2	-57.8	3.8	1.49e+00	0	50	104	0	57	19886
2026-01-02 08:30:22.46	113.33	5.05	-43.0	-57.6	3.9	1.49e+00	0	51	104	0	56	20639
2026-01-02 08:30:23.47	113.25	5.12	-42.9	-57.8	3.8	1.49e+00	0	50	104	0	57	19944
2026-01-02 08:30:24.48	113.18	5.18	-41.3	-56.9	3.8	1.49e+00	0	51	104	0	55	20154
2026-01-02 08:30:25.50	113.10	5.24	-43.3	-57.6	3.8	1.49e+00	0	51	104	0	56	20634
2026-01-02 08:30:26.51	113.02	5.31	-43.2	-57.6	3.8	1.49e+00	0	51	104	0	57	19610
2026-01-02 08:30:27.52	112.94	5.37	-42.6	-56.8	3.8	1.49e+00	0	51	104	0	55	19875
2026-01-02 08:30:28.53	112.87	5.44	-41.5	-56.4	4.0	1.49e+00	0	51	104	0	53	21393
2026-01-02 08:30:29.54	112.79	5.50	-42.8	-57.1	3.8	1.50e+00	0	51	104	0	55	20627
2026-01-02 08:30:30.55	112.71	5.56	-40.5	-56.1	3.9	1.49e+00	0	51	104	0	54	19405
2026-01-02 08:30:31.56	112.63	5.63	-43.1	-57.8	3.8	1.49e+00	0	51	104	0	57	20039
2026-01-02 08:30:32.57	112.55	5.69	-43.1	-57.5	3.8	1.49e+00	0	51	104	0	57	19358
2026-01-02 08:30:33.58	112.47	5.76	-42.9	-57.1	3.7	1.49e+00	0	51	104	0	55	20589
2026-01-02 08:30:34.59	112.39	5.82	-38.0	-54.6	4.1	1.49e+00	0	51	104	0	51	19470
2026-01-02 08:30:35.61	112.31	5.89	-42.8	-57.5	3.8	1.49e+00	0	51	104	0	56	20457
2026-01-02 08:30:36.62	112.23	5.95	-42.5	-57.2	3.8	1.49e+00	0	51	104	0	56	19759
2026-01-02 08:30:37.63	112.15	6.02	-43.2	-57.6	4.0	1.49e+00	0	51	104	0	56	20569
2026-01-02 08:30:38.64	112.07	6.08	-43.2	-57.6	3.9	1.49e+00	0	51	104	0	56	20763
2026-01-02 08:30:39.65	111.99	6.14	-42.5	-57.4	3.7	1.49e+00	0	51	104	0	56	20118
2026-01-02 08:30:40.66	111.91	6.21	-42.2	-57.5	3.7	1.49e+00	0	52	104	0	53	24183
2026-01-02 08:30:41.67	111.83	6.28	-43.3	-57.9	3.9	1.49e+00	0	51	104	0	57	20234
2026-01-02 08:30:42.68	111.74	6.34	-36.8	-54.4	3.8	1.49e+00	0	52	104	0	54	16052
2026-01-02 08:30:43.69	111.66	6.41	-40.8	-56.6	3.8	1.49e+00	0	52	104	0	55	19471
2026-01-02 08:30:44.70	111.58	6.47	-43.1	-57.5	3.8	1.49e+00	0	52	104	0	56	20372
2026-01-02 08:30:45.71	111.49	6.54	-43.2	-57.5	3.9	1.49e+00	0	52	104	0	57	19340
2026-01-02 08:30:46.73	111.41	6.60	-39.0	-55.1	3.8	1.49e+00	0	52	104	0	49	23273
2026-01-02 08:30:47.74	111.32	6.67	-42.9	-57.0	3.8	1.49e+00	0	52	104	0	55	20353
2026-01-02 08:30:48.75	111.24	6.73	-42.3	-57.2	3.8	1.49e+00	0	52	104	0	56	19795
2026-01-02 08:30:49.76	111.15	6.80	-41.0	-56.2	3.9	1.49e+00	0	52	104	0	54	19662
2026-01-02 08:30:50.77	111.07	6.87	-42.4	-57.3	4.0	1.49e+00	0	52	104	0	56	20054
2026-01-02 08:30:51.78	110.98	6.93	-42.5	-56.7	3.9	1.49e+00	0	52	104	0	53	22034
2026-01-02 08:30:52.79	110.89	7.00	-41.5	-56.3	4.0	1.49e+00	0	52	104	0	53	21124
2026-01-02 08:30:53.80	110.81	7.07	-41.2	-56.2	3.9	1.49e+00	0	52	104	0	54	19627
2026-01-02 08:30:54.81	110.72	7.13	-41.4	-56.1	3.9	1.49e+00	0	52	104	0	51	23077
2026-01-02 08:30:55.82	110.63	7.20	-42.8	-56.5	3.9	1.49e+00	0	52	104	0	56	18169
2026-01-02 08:30:56.84	110.54	7.27	-39.0	-53.8	3.9	1.49e+00	0	52	104	0	48	21201
2026-01-02 08:30:57.85	110.45	7.33	-41.1	-53.0	3.9	1.47e+00	0	52	104	0	46	21516
2026-01-02 08:30:58.86	110.36	7.40	-41.7	-51.4	4.9	1.04e+00	0	52	0	0	52	12758
2026-01-02 08:30:59.87	110.28	7.47	-42.3	-49.8	6.3	4.99e-01	0	53	0	2097152	55	8888
2026-01-02 08:31:00.88	110.19	7.54	-41.9	-48.3	7.5	2.08e-01	0	52	0	4194304	54	7931
2026-01-02 08:31:01.89	110.10	7.60	-41.7	-47.4	8.8	6.93e-02	0	52	0	5242880	53	7573
2026-01-02 08:31:02.90	110.00	7.67	-40.9	-46.3	9.8	2.93e-02	0	52	0	7340032	53	6709
2026-01-02 08:31:03.91	109.91	7.74	-41.1	-46.3	9.7	3.65e-02	0	52	0	9437184	52	7060
2026-01-02 08:31:04.92	109.82	7.81	-40.7	-45.6	10.5	7.76e-03	0	52	0	11534336	52	6546
2026-01-02 08:31:05.93	109.73	7.87	-40.4	-45.1	10.8	8.77e-03	0	52	0	13631488	51	6562
2026-01-02 08:31:06.94	109.64	7.94	-39.3	-44.1	11.8	1.65e-02	0	53	0	14680064	50	6147
2026-01-02 08:31:07.96	109.54	8.01	-40.0	-43.6	12.7	1.34e-02	0	53	0	16777216	50	5816
2026-01-02 08:31:08.96	109.45	8.08	-42.4	-57.8	3.8	1.34e+00	0	52	104	17825792	57	19993
2026-01-02 08:31:09.97	109.36	8.15	-42.4	-50.9	5.6	1.47e+00	0	53	104	17825792	55	10156
2026-01-02 08:31:10.98	109.26	8.21	-41.5	-48.1	7.7	2.06e-02	0	53	0	18874368	53	8224
2026-01-02 08:31:11.99	109.17	8.28	-41.7	-47.4	8.9	1.43e-02	0	53	0	20971520	53	7584
2026-01-02 08:31:13.00	109.07	8.35	-40.4	-47.0	8.7	1.75e-03	0	53	0	23068672	52	7719
2026-01-02 08:31:14.01	108.98	8.42	-40.3	-44.0	12.3	1.16e-02	0	53	0	25165824	51	5725
2026-01-02 08:31:15.02	108.88	8.49	-40.2	-43.8	12.6	1.76e-03	0	53	0	27262976	50	5963
2026-01-02 08:31:16.03	108.78	8.56	-40.0	-43.7	12.4	1.01e-03	0	53	0	28311552	50	5919
2026-01-02 08:31:17.04	108.69	8.63	-40.1	-43.6	13.0	1.94e-03	0	53	0	30408704	50	5796
2026-01-02 08:31:18.05	108.59	8.70	-39.6	-43.5	13.1	1.05e-03	0	53	0	32505856	50	5727
2026-01-02 08:31:19.07	108.49	8.77	-40.0	-43.4	13.1	2.58e-03	0	53	0	34603008	50	5673
2026-01-02 08:31:20.08	108.39	8.83	-40.0	-43.4	13.2	2.65e-04	0	53	0	36700160	50	5681
2026-01-02 08:31:21.09	108.29	8.90	-40.0	-43.4	13.1	4.93e-04	0	53	0	37748736	50	5670
2026-01-02 08:31:22.10	108.19	8.97	-40.1	-43.7	12.7	4.10e-04	0	53	0	39845888	51	5576
2026-01-02 08:31:23.11	108.09	9.04	-40.4	-44.3	12.3	8.58e-04	0	53	0	41943040	51	5941
2026-01-02 08:31:24.12	107.99	9.11	-40.4	-44.0	12.5	4.78e-04	0	53	0	44040192	51	5760
2026-01-02 08:31:25.13	107.89	9.18	-39.9	-44.1	12.3	3.30e-04	0	53	0	46137344	51	5830
2026-01-02 08:31:26.14	107.79	9.25	-40.3	-43.8	12.8	3.84e-04	0	53	0	47185920	51	5610
2026-01-02 08:31:27.14	107.69	9.32	-40.3	-43.9	12.6	3.78e-04	0	53	0	49283072	51	5711
2026-01-02 08:31:28.15	107.59	9.39	-39.9	-44.1	12.3	2.12e-04	0	53	0	51380224	51	5828
2026-01-02 08:31:29.16	107.48	9.46	-40.4	-43.9	12.6	6.14e-04	0	53	0	53477376	51	5716
2026-01-02 08:31:30.18	107.38	9.53	-40.3	-43.8	12.8	1.40e-04	0	53	0	55574528	51	5603
2026-01-02 08:31:31.19	107.28	9.60	-40.1	-43.7	12.6	1.72e-04	0	53	0	56623104	51	5559
2026-01-02 08:31:32.20	107.17	9.68	-39.9	-43.3	13.3	9.07e-05	0	53	0	58720256	50	5628
2026-01-02 08:31:33.21	107.07	9.75	-39.8	-43.1	12.9	9.90e-06	0	53	0	60817408	50	5496
2026-01-02 08:31:34.22	106.96	9.82	-39.8	-42.7	14.0	1.75e-05	0	53	0	62914560	50	5269
2026-01-02 08:31:35.22	106.86	9.89	-39.7	-42.5	14.3	6.80e-06	0	53	0	65011712	50	5158
2026-01-02 08:31:36.23	106.75	9.96	-40.2	-43.4	13.5	3.27e-04	0	54	0	66060288	50	5684
2026-01-02 08:31:37.24	106.64	10.03	-40.8	-43.9	11.2	1.95e-04	0	53	0	68157440	51	5683
2026-01-02 08:31:38.25	106.53	10.10	-40.6	-44.1	12.7	8.83e-04	0	53	0	70254592	51	5836
2026-01-02 08:31:39.26	106.43	10.17	-40.2	-43.5	13.1	1.83e-03	0	53	0	72351744	51	5413
2026-01-02 08:31:40.27	106.32	10.24	-40.2	-43.3	13.3	3.86e-03	0	53	0	74448896	51	5333
2026-01-02 08:31:41.28	106.21	10.32	-40.0	-43.2	13.4	7.40e-03	0	53	0	75497472	51	5227
2026-01-02 08:31:42.29	106.10	10.39	-39.8	-42.7	13.5	4.22e-03	0	54	0	77594624	50	5259
2026-01-02 08:31:43.30	105.99	10.46	-40.0	-43.1	13.2	6.90e-03	0	54	0	79691776	50	5467
2026-01-02 08:31:44.31	105.88	10.53	-40.0	-43.4	12.7	4.94e-03	0	53	0	81788928	51	5348
2026-01-02 08:31:45.32	105.77	10.60	-40.4	-43.7	12.6	1.06e-01	0	54	0	83886080	51	5564
2026-01-02 08:31:46.33	105.65	10.68	-39.9	-44.1	10.9	2.72e-02	0	53	0	84934656	51	5836
2026-01-02 08:31:47.34	105.54	10.75	-39.5	-43.8	10.6	2.81e-02	0	54	0	87031808	48	6686
2026-01-02 08:31:48.35	105.43	10.82	-40.1	-43.7	12.1	1.76e-02	0	54	0	89128960	51	5551
2026-01-02 08:31:49.36	105.31	10.89	-39.9	-43.2	11.8	2.15e-02	0	54	0	91226112	50	5572
2026-01-02 08:31:50.37	105.20	10.97	-39.9	-43.2	12.0	2.24e-02	0	54	0	93323264	50	5539
2026-01-02 08:31:51.38	105.09	11.04	-38.9	-43.0	12.0	4.28e-02	0	53	0	95420416	49	5724
2026-01-02 08:31:52.39	104.97	11.11	-39.4	-43.5	11.1	1.02e-01	0	54	0	96468992	50	5745
2026-01-02 08:31:53.40	104.85	11.18	-39.0	-43.6	9.5	1.03e-01	0	54	0	98566144	46	7294
2026-01-02 08:31:54.41	104.74	11.26	-38.1	-43.5	6.4	2.20e-01	0	54	0	100663296	41	9639
2026-01-02 08:31:55.42	104.62	11.33	-39.0	-43.5	9.1	1.09e-01	0	54	0	102760448	49	6077
2026-01-02 08:31:56.43	104.50	11.40	-39.5	-43.1	10.1	3.01e-01	0	54	0	104857600	48	6184
2026-01-02 08:31:57.45	104.38	11.48	-38.4	-42.3	9.9	4.13e-01	0	54	0	105906176	46	6332
2026-01-02 08:31:58.45	104.27	11.55	-27.5	-40.5	5.9	2.55e-01	0	54	0	108003328	28	14429
2026-01-02 08:31:59.46	104.15	11.62	-37.1	-41.7	5.8	4.86e-01	0	54	0	110100480	24	20977
2026-01-02 08:32:00.47	104.03	11.70	-36.3	-42.1	7.4	7.68e-01	0	54	0	111149056	29	16324
2026-01-02 08:32:01.48	103.90	11.77	-39.1	-42.9	9.0	3.61e-01	0	54	0	113246208	46	6741
2026-01-02 08:32:02.49	103.78	11.84	-39.5	-43.2	9.2	1.41e-01	0	54	0	114294784	48	6220
2026-01-02 08:32:03.50	103.66	11.92	-35.8	-42.0	10.2	1.48e-01	0	54	0	116391936	44	6875
2026-01-02 08:32:04.51	103.54	11.99	-35.7	-41.7	9.0	2.97e-01	0	54	0	118489088	44	6619
2026-01-02 08:32:05.52	103.41	12.07	-34.9	-41.0	8.6	2.25e-01	0	54	0	120586240	44	6129
2026-01-02 08:32:06.53	103.29	12.14	-37.7	-41.5	10.7	1.74e-01	0	54	0	122683392	46	5768
2026-01-02 08:32:07.54	103.17	12.22	-36.3	-41.4	10.2	1.08e-01	0	54	0	123731968	43	6731
2026-01-02 08:32:08.55	103.04	12.29	-37.1	-41.6	9.8	1.54e-01	0	54	0	125829120	46	5797
2026-01-02 08:32:09.57	102.91	12.37	-30.7	-40.7	5.9	1.68e-01	0	54	0	127926272	31	12479
2026-01-02 08:32:10.58	102.79	12.44	-23.2	-39.2	5.1	7.77e-01	0	54	0	128974848	23	16507
2026-01-02 08:32:11.59	102.66	12.51	-37.7	-42.4	9.4	4.89e-01	0	54	0	130023424	45	6733
2026-01-02 08:32:12.60	102.53	12.59	-24.2	-38.7	5.7	5.78e-01	0	54	0	132120576	29	11124
2026-01-02 08:32:13.61	102.40	12.66	-26.1	-39.5	5.9	7.18e-01	0	54	0	134217728	27	13612
2026-01-02 08:32:14.61	102.28	12.74	-29.0	-39.6	6.6	7.32e-01	0	54	0	135266304	35	8706
2026-01-02 08:32:15.62	102.15	12.81	-32.0	-40.0	6.8	6.91e-01	0	54	0	137363456	32	10873
2026-01-02 08:32:16.63	102.02	12.89	-34.5	-40.3	8.4	1.61e-01	0	54	0	139460608	41	6679
2026-01-02 08:32:17.64	101.88	12.96	-28.7	-39.5	5.8	1.04e-01	0	54	0	141557760	37	7670
2026-01-02 08:32:18.65	101.75	13.04	-36.7	-41.5	10.0	2.95e-01	0	54	0	142606336	45	6125
2026-01-02 08:32:19.66	101.62	13.11	-37.7	-42.3	8.3	2.23e-01	0	54	0	144703488	38	9977
2026-01-02 08:32:20.67	101.49	13.19	-38.0	-41.5	10.2	2.23e-01	0	54	0	146800640	46	5766
2026-01-02 08:32:21.68	101.35	13.26	-35.0	-41.0	8.3	1.33e-01	0	54	0	148897792	41	7208
2026-01-02 08:32:22.69	101.22	13.34	-34.4	-42.4	7.3	1.38e-01	0	54	0	150994944	39	9517
2026-01-02 08:32:23.70	101.08	13.42	-39.6	-45.0	8.5	2.15e-01	0	54	0	152043520	48	7693
2026-01-02 08:32:24.71	100.95	13.49	-40.6	-47.6	6.9	1.79e-01	0	55	0	154140672	51	8677
2026-01-02 08:32:25.72	100.81	13.57	-40.6	-48.8	4.6	3.67e-01	0	55	0	156237824	43	15915
2026-01-02 08:32:26.73	100.67	13.64	-40.1	-50.3	4.9	9.41e-01	0	55	0	156237824	51	11868
2026-01-02 08:32:27.74	100.53	13.72	-40.0	-47.7	6.3	5.99e-01	0	55	0	158334976	51	8824
2026-01-02 08:32:28.75	100.39	13.80	-32.3	-44.4	5.7	3.59e-01	0	55	0	160432128	40	11402
2026-01-02 08:32:29.76	100.25	13.87	-31.2	-44.8	8.5	1.35e-01	0	55	0	161480704	49	7063
2026-01-02 08:32:30.77	100.11	13.95	-39.6	-44.8	9.6	2.14e-01	0	54	0	163577856	50	6688
2026-01-02 08:32:31.77	99.97	14.02	-39.8	-43.8	11.6	3.76e-02	0	55	0	165675008	50	5972
2026-01-02 08:32:32.79	99.83	14.10	-40.1	-44.0	11.9	3.64e-02	0	55	0	167772160	51	5777
2026-01-02 08:32:33.80	99.69	14.18	-40.2	-43.8	12.2	3.01e-02	0	55	0	169869312	51	5647
2026-01-02 08:32:34.81	99.55	14.25	-38.8	-42.0	12.4	3.27e-03	0	55	0	170917888	48	5461
2026-01-02 08:32:35.82	99.40	14.33	-37.1	-41.0	12.7	1.75e-04	0	55	0	173015040	46	5447
2026-01-02 08:32:36.83	99.26	14.41	-39.0	-41.3	15.1	1.68e-03	0	55	0	175112192	48	5032
2026-01-02 08:32:37.84	99.11	14.48	-38.1	-41.8	12.8	1.98e-03	0	55	0	177209344	47	5595
2026-01-02 08:32:38.85	98.96	14.56	-39.8	-42.6	14.7	6.51e-04	0	55	0	179306496	50	5160
2026-01-02 08:32:39.85	98.82	14.64	-40.0	-42.8	14.3	3.81e-05	0	55	0	180355072	50	5316
2026-01-02 08:32:40.86	98.67	14.71	-40.2	-43.1	14.1	1.67e-05	0	55	0	182452224	51	5214
2026-01-02 08:32:41.87	98.52	14.79	-39.9	-42.9	14.1	4.50e-06	0	55	0	184549376	51	5082
2026-01-02 08:32:42.88	98.37	14.87	-39.3	-42.3	14.8	8.01e-05	0	55	0	186646528	49	5283
2026-01-02 08:32:43.89	98.22	14.94	-39.6	-42.2	14.9	6.10e-05	0	55	0	188743680	49	5256
2026-01-02 08:32:44.90	98.07	15.02	-39.8	-42.5	14.8	0.00e+00	0	55	0	190840832	50	5113
2026-01-02 08:32:45.91	97.92	15.10	-40.0	-42.9	14.3	7.00e-07	0	55	0	191889408	50	5348
2026-01-02 08:32:46.92	97.77	15.17	-40.1	-43.1	14.2	7.00e-07	0	55	0	193986560	50	5480
2026-01-02 08:32:47.93	97.61	15.25	-40.2	-43.1	14.2	2.20e-06	0	55	0	196083712	51	5190
2026-01-02 08:32:48.94	97.46	15.33	-40.1	-42.9	14.3	7.00e-07	0	55	0	198180864	51	5080
2026-01-02 08:32:49.95	97.30	15.40	-39.8	-42.5	14.8	7.00e-07	0	55	0	200278016	51	4850
2026-01-02 08:32:50.96	97.15	15.48	-39.8	-42.5	14.8	0.00e+00	0	55	0	201326592	51	4846
2026-01-02 08:32:51.97	96.99	15.56	-39.8	-42.5	14.8	0.00e+00	0	55	0	203423744	51	4836
2026-01-02 08:32:52.98	96.83	15.64	-40.0	-42.7	14.5	0.00e+00	0	55	0	205520896	51	4981
2026-01-02 08:32:53.99	96.68	15.71	-39.9	-42.6	14.7	2.20e-06	0	55	0	207618048	51	4905
2026-01-02 08:32:55.00	96.52	15.79	-39.9	-42.6	14.7	7.00e-07	0	55	0	209715200	51	4884
2026-01-02 08:32:56.01	96.36	15.87	-39.9	-42.6	14.7	0.00e+00	0	55	0	210763776	51	4892
2026-01-02 08:32:57.02	96.20	15.95	-39.8	-42.5	14.8	0.00e+00	0	55	0	212860928	51	4852
2026-01-02 08:32:58.03	96.03	16.02	-39.8	-42.4	14.9	0.00e+00	0	55	0	214958080	51	4811
2026-01-02 08:32:59.04	95.87	16.10	-40.1	-42.9	14.4	0.00e+00	0	55	0	217055232	51	5057
2026-01-02 08:33:00.05	95.71	16.18	-40.2	-43.1	14.2	2.20e-06	0	55	0	219152384	51	5217
2026-01-02 08:33:01.06	95.54	16.25	-40.3	-43.3	14.1	1.50e-06	0	55	0	220200960	51	5291
2026-01-02 08:33:02.06	95.38	16.33	-40.1	-43.0	14.3	7.00e-07	0	55	0	222298112	51	5153
2026-01-02 08:33:03.08	95.21	16.41	-40.1	-42.9	14.4	0.00e+00	0	55	0	224395264	51	5086
2026-01-02 08:33:04.09	95.05	16.49	-39.9	-42.6	14.7	7.00e-07	0	55	0	226492416	51	4899
2026-01-02 08:33:05.09	94.88	16.56	-39.9	-42.7	14.7	0.00e+00	0	55	0	228589568	51	4930
2026-01-02 08:33:06.10	94.71	16.64	-39.9	-42.6	14.8	7.00e-07	0	55	0	229638144	51	4888
2026-01-02 08:33:07.11	94.54	16.72	-39.8	-42.4	14.9	0.00e+00	0	55	0	231735296	51	4785
2026-01-02 08:33:08.12	94.37	16.80	-39.5	-42.0	15.3	0.00e+00	0	55	0	233832448	51	4590
2026-01-02 08:33:09.13	94.20	16.87	-39.4	-41.8	15.6	0.00e+00	0	55	0	235929600	50	4716
2026-01-02 08:33:10.14	94.03	16.95	-39.7	-42.2	15.1	0.00e+00	0	55	0	238026752	50	4973
2026-01-02 08:33:11.15	93.86	17.03	-39.9	-42.7	14.7	0.00e+00	0	55	0	239075328	50	5221
2026-01-02 08:33:12.16	93.68	17.10	-39.8	-42.4	15.0	0.00e+00	0	55	0	241172480	50	5049
2026-01-02 08:33:13.17	93.51	17.18	-39.6	-42.1	15.3	0.00e+00	0	55	0	243269632	50	4883
2026-01-02 08:33:14.18	93.33	17.26	-39.6	-42.1	15.3	0.00e+00	0	55	0	245366784	50	4900
2026-01-02 08:33:15.19	93.16	17.34	-39.6	-42.1	15.3	0.00e+00	0	55	0	247463936	50	4879
2026-01-02 08:33:16.21	92.98	17.41	-39.6	-42.2	15.2	0.00e+00	0	55	0	248512512	50	4949
2026-01-02 08:33:17.21	92.80	17.49	-39.9	-42.6	14.8	0.00e+00	0	55	0	250609664	50	5164
2026-01-02 08:33:18.23	92.62	17.57	-39.7	-42.4	15.0	0.00e+00	0	55	0	252706816	50	5044
2026-01-02 08:33:19.24	92.44	17.64	-39.8	-42.5	14.9	0.00e+00	0	55	0	254803968	50	5111
2026-01-02 08:33:20.25	92.26	17.72	-39.7	-42.3	15.0	0.00e+00	0	55	0	256901120	50	5023
2026-01-02 08:33:21.25	92.08	17.80	-39.5	-42.0	15.3	0.00e+00	0	55	0	258998272	50	4853
2026-01-02 08:33:22.26	91.89	17.87	-39.4	-41.8	15.4	0.00e+00	0	55	0	260046848	50	4755
2026-01-02 08:33:23.27	91.71	17.95	-39.7	-42.3	15.0	0.00e+00	0	55	0	262144000	50	5012
2026-01-02 08:33:24.28	91.53	18.03	-39.8	-42.4	14.8	0.00e+00	0	55	0	264241152	50	5094
2026-01-02 08:33:25.29	91.34	18.10	-39.9	-42.7	14.5	0.00e+00	0	55	0	266338304	50	5263
2026-01-02 08:33:26.30	91.15	18.18	-40.1	-43.0	14.2	0.00e+00	0	55	0	268435456	50	5420
2026-01-02 08:33:27.31	90.97	18.26	-40.0	-42.9	14.3	0.00e+00	0	56	0	269484032	50	5391
2026-01-02 08:33:28.32	90.78	18.33	-39.9	-42.8	14.3	0.00e+00	0	55	0	271581184	50	5304
2026-01-02 08:33:29.33	90.59	18.41	-39.8	-42.6	14.5	0.00e+00	0	55	0	273678336	50	5192
2026-01-02 08:33:30.34	90.40	18.49	-39.7	-42.5	14.5	0.00e+00	0	55	0	275775488	50	5133
2026-01-02 08:33:31.35	90.20	18.56	-39.6	-42.5	14.5	0.00e+00	0	55	0	277872640	50	5104
2026-01-02 08:33:32.36	90.01	18.64	-39.5	-42.3	14.6	0.00e+00	0	55	0	278921216	50	5026
2026-01-02 08:33:33.37	89.82	18.71	-39.6	-42.5	14.3	2.20e-06	0	55	0	281018368	50	5154
2026-01-02 08:33:34.38	89.62	18.79	-39.5	-42.4	14.3	0.00e+00	0	55	0	283115520	50	5091
2026-01-02 08:33:35.39	89.43	18.87	-39.4	-42.3	14.3	0.00e+00	0	55	0	285212672	50	4987
2026-01-02 08:33:36.40	89.23	18.94	-39.3	-42.2	14.3	1.50e-06	0	56	0	287309824	50	4971
2026-01-02 08:33:37.41	89.03	19.02	-39.3	-42.3	14.2	0.00e+00	0	55	0	288358400	50	4985
2026-01-02 08:33:38.41	88.84	19.09	-39.4	-42.5	13.8	1.50e-06	0	55	0	290455552	50	5132
2026-01-02 08:33:39.42	88.64	19.17	-39.4	-42.4	13.9	2.20e-06	0	55	0	292552704	50	5094
2026-01-02 08:33:40.43	88.44	19.24	-39.5	-42.7	13.6	6.10e-06	0	56	0	294649856	50	5257
2026-01-02 08:33:41.44	88.24	19.32	-39.4	-42.6	13.6	9.10e-06	0	56	0	296747008	50	5189
2026-01-02 08:33:42.45	88.03	19.39	-39.5	-42.7	13.5	8.30e-06	0	56	0	297795584	50	5265
2026-01-02 08:33:43.46	87.83	19.47	-39.3	-42.5	13.6	5.30e-06	0	55	0	299892736	50	5134
2026-01-02 08:33:44.47	87.63	19.54	-39.1	-42.2	13.9	4.50e-06	0	55	0	301989888	50	4940
2026-01-02 08:33:45.48	87.42	19.61	-39.0	-42.1	14.0	3.80e-06	0	56	0	304087040	49	5170
2026-01-02 08:33:46.49	87.22	19.69	-38.9	-42.0	14.0	2.20e-06	0	56	0	306184192	49	5104
2026-01-02 08:33:47.50	87.01	19.76	-38.8	-41.8	14.1	3.80e-06	0	55	0	307232768	49	5031
2026-01-02 08:33:48.51	86.80	19.84	-38.8	-41.7	14.2	3.00e-06	0	56	0	309329920	49	4960
2026-01-02 08:33:49.52	86.59	19.91	-38.5	-41.3	14.5	0.00e+00	0	56	0	311427072	48	5039
2026-01-02 08:33:50.53	86.38	19.98	-38.5	-41.3	14.6	0.00e+00	0	56	0	313524224	48	5012
2026-01-02 08:33:51.54	86.17	20.06	-38.5	-41.3	14.6	0.00e+00	0	56	0	315621376	48	5033
2026-01-02 08:33:52.55	85.96	20.13	-38.7	-41.6	14.4	7.00e-07	0	55	0	316669952	48	5174
2026-01-02 08:33:53.56	85.74	20.20	-38.6	-41.3	14.7	7.00e-07	0	56	0	318767104	48	5039
2026-01-02 08:33:54.57	85.53	20.27	-38.7	-41.4	14.7	0.00e+00	0	55	0	320864256	48	5073
2026-01-02 08:33:55.58	85.31	20.35	-38.6	-41.3	14.9	0.00e+00	0	56	0	322961408	48	5023
2026-01-02 08:33:56.59	85.10	20.42	-38.8	-41.5	14.8	0.00e+00	0	56	0	325058560	48	5116
2026-01-02 08:33:57.60	84.88	20.49	-38.8	-41.4	15.0	0.00e+00	0	55	0	327155712	48	5099
2026-01-02 08:33:58.61	84.66	20.56	-38.6	-41.2	15.3	0.00e+00	0	55	0	328204288	48	4928
2026-01-02 08:33:59.62	84.44	20.63	-38.5	-41.0	15.6	0.00e+00	0	55	0	330301440	48	4826
2026-01-02 08:34:00.63	84.22	20.71	-38.6	-41.0	15.7	0.00e+00	0	56	0	332398592	48	4844
2026-01-02 08:34:01.64	84.00	20.78	-38.6	-41.0	15.8	0.00e+00	0	56	0	334495744	48	4816
2026-01-02 08:34:02.64	83.78	20.85	-38.6	-40.9	15.8	0.00e+00	0	56	0	336592896	48	4809
2026-01-02 08:34:03.65	83.55	20.92	-38.6	-41.0	15.9	0.00e+00	0	56	0	337641472	48	4826
2026-01-02 08:34:04.66	83.33	20.99	-38.5	-40.7	16.3	0.00e+00	0	56	0	339738624	48	4680
2026-01-02 08:34:05.67	83.10	21.06	-38.3	-40.4	16.7	0.00e+00	0	56	0	341835776	48	4528
2026-01-02 08:34:06.68	82.88	21.13	-38.4	-40.6	16.6	0.00e+00	0	56	0	343932928	48	4601
2026-01-02 08:34:07.69	82.65	21.20	-38.3	-40.5	16.7	0.00e+00	0	56	0	344981504	48	4546
2026-01-02 08:34:08.70	82.42	21.27	-38.3	-40.4	16.7	0.00e+00	0	56	0	347078656	48	4540
2026-01-02 08:34:09.71	82.19	21.33	-38.2	-40.2	17.0	0.00e+00	0	56	0	349175808	48	4439
2026-01-02 08:34:10.72	81.96	21.40	-38.1	-40.1	17.0	0.00e+00	0	56	0	351272960	48	4386
2026-01-02 08:34:11.73	81.73	21.47	-38.2	-40.2	17.0	0.00e+00	0	56	0	353370112	48	4437
2026-01-02 08:34:12.74	81.49	21.54	-38.2	-40.2	17.0	0.00e+00	0	56	0	355467264	48	4430
2026-01-02 08:34:13.75	81.26	21.61	-38.0	-40.0	17.2	0.00e+00	0	56	0	356515840	48	4321
2026-01-02 08:34:14.76	81.02	21.67	-37.6	-39.8	17.2	0.00e+00	0	56	0	358612992	47	4462
2026-01-02 08:34:15.77	80.79	21.74	-37.7	-39.9	17.1	0.00e+00	0	56	0	360710144	47	4519
2026-01-02 08:34:16.78	80.55	21.81	-37.7	-39.8	17.2	0.00e+00	0	56	0	362807296	47	4455
2026-01-02 08:34:17.78	80.32	21.87	-37.7	-39.8	17.3	0.00e+00	0	56	0	364904448	47	4452
2026-01-02 08:34:18.79	80.08	21.94	-37.6	-39.7	17.3	0.00e+00	0	55	0	365953024	47	4414
2026-01-02 08:34:19.80	79.84	22.00	-37.6	-39.7	17.3	0.00e+00	0	55	0	368050176	47	4418
2026-01-02 08:34:20.81	79.60	22.07	-37.7	-39.8	17.2	0.00e+00	0	56	0	370147328	47	4448
2026-01-02 08:34:21.82	79.35	22.13	-37.7	-39.8	17.3	0.00e+00	0	56	0	372244480	47	4467
2026-01-02 08:34:22.83	79.11	22.20	-37.8	-40.0	17.1	0.00e+00	0	56	0	374341632	47	4555
2026-01-02 08:34:23.84	78.87	22.26	-37.6	-39.7	17.3	0.00e+00	0	56	0	375390208	47	4427
2026-01-02 08:34:24.85	78.62	22.32	-37.6	-39.7	17.4	0.00e+00	0	56	0	377487360	47	4405
2026-01-02 08:34:25.86	78.37	22.39	-37.6	-39.7	17.4	0.00e+00	0	56	0	379584512	47	4397
2026-01-02 08:34:26.87	78.13	22.45	-37.7	-39.7	17.3	0.00e+00	0	56	0	381681664	47	4434
2026-01-02 08:34:27.88	77.88	22.51	-37.6	-39.7	17.4	0.00e+00	0	56	0	383778816	47	4416
2026-01-02 08:34:28.89	77.63	22.57	-37.8	-39.9	17.3	0.00e+00	0	56	0	384827392	47	4533
2026-01-02 08:34:29.90	77.38	22.64	-37.6	-39.6	17.5	0.00e+00	0	56	0	386924544	47	4371
2026-01-02 08:34:30.91	77.13	22.70	-37.5	-39.5	17.6	0.00e+00	0	56	0	389021696	46	4565
2026-01-02 08:34:31.92	76.88	22.76	-37.6	-39.7	17.4	0.00e+00	0	56	0	391118848	46	4657
2026-01-02 08:34:32.93	76.62	22.82	-37.6	-39.7	17.4	0.00e+00	0	56	0	393216000	46	4679
2026-01-02 08:34:33.94	76.37	22.88	-37.6	-39.6	17.5	0.00e+00	0	56	0	394264576	46	4639
2026-01-02 08:34:34.95	76.11	22.94	-37.6	-39.6	17.5	0.00e+00	0	56	0	396361728	46	4632
2026-01-02 08:34:35.96	75.86	22.99	-37.7	-39.8	17.4	0.00e+00	0	56	0	398458880	46	4736
2026-01-02 08:34:36.97	75.60	23.05	-37.8	-39.9	17.3	0.00e+00	0	56	0	400556032	46	4790
2026-01-02 08:34:37.98	75.34	23.11	-37.8	-39.9	17.3	0.00e+00	0	56	0	402653184	46	4777
2026-01-02 08:34:38.98	75.09	23.17	-37.8	-39.9	17.3	0.00e+00	0	56	0	403701760	46	4766
2026-01-02 08:34:40.00	74.83	23.22	-37.8	-39.9	17.2	0.00e+00	0	56	0	405798912	46	4812
2026-01-02 08:34:41.01	74.56	23.28	-37.7	-39.7	17.5	0.00e+00	0	56	0	407896064	46	4677
2026-01-02 08:34:42.02	74.30	23.34	-37.8	-39.8	17.4	0.00e+00	0	56	0	409993216	46	4745
2026-01-02 08:34:43.02	74.04	23.39	-38.0	-40.1	17.1	0.00e+00	0	56	0	412090368	46	4885
2026-01-02 08:34:44.03	73.78	23.44	-38.0	-40.2	17.1	0.00e+00	0	56	0	413138944	46	4927
2026-01-02 08:34:45.04	73.51	23.50	-37.9	-40.0	17.2	0.00e+00	0	56	0	415236096	46	4821
2026-01-02 08:34:46.05	73.25	23.55	-37.8	-39.9	17.4	0.00e+00	0	56	0	417333248	46	4772
2026-01-02 08:34:47.06	72.98	23.60	-37.9	-40.0	17.2	0.00e+00	0	56	0	419430400	46	4862
2026-01-02 08:34:48.07	72.72	23.66	-37.8	-39.9	17.3	0.00e+00	0	56	0	421527552	46	4783
2026-01-02 08:34:49.09	72.44	23.71	-37.7	-39.7	17.5	0.00e+00	0	56	0	423624704	46	4702
2026-01-02 08:34:50.09	72.18	23.76	-37.6	-39.6	17.5	0.00e+00	0	56	0	424673280	46	4650
2026-01-02 08:34:51.10	71.91	23.81	-37.7	-39.8	17.5	0.00e+00	0	56	0	426770432	46	4715
2026-01-02 08:34:52.11	71.64	23.86	-37.6	-39.6	17.6	0.00e+00	0	56	0	428867584	46	4650
2026-01-02 08:34:53.13	71.36	23.91	-37.6	-39.6	17.6	0.00e+00	0	56	0	430964736	46	4632
2026-01-02 08:34:54.13	71.09	23.96	-37.4	-39.3	18.0	0.00e+00	0	56	0	433061888	46	4455
2026-01-02 08:34:55.14	70.82	24.01	-37.2	-39.0	18.2	0.00e+00	0	56	0	434110464	46	4315
2026-01-02 08:34:56.15	70.55	24.05	-37.1	-38.9	18.3	0.00e+00	0	56	0	436207616	46	4291
2026-01-02 08:34:57.16	70.27	24.10	-37.2	-39.1	18.2	0.00e+00	0	56	0	438304768	46	4363
2026-01-02 08:34:58.17	70.00	24.15	-37.5	-39.4	18.0	0.00e+00	0	56	0	440401920	46	4522
2026-01-02 08:34:59.18	69.72	24.19	-37.5	-39.4	17.9	0.00e+00	0	56	0	442499072	46	4518
2026-01-02 08:35:00.19	69.44	24.24	-37.7	-39.7	17.6	0.00e+00	0	56	0	443547648	46	4684
2026-01-02 08:35:01.20	69.16	24.28	-37.9	-39.9	17.4	0.00e+00	0	56	0	445644800	46	4783
2026-01-02 08:35:02.21	68.89	24.33	-38.1	-40.1	17.2	0.00e+00	0	56	0	447741952	46	4912
2026-01-02 08:35:03.22	68.61	24.37	-38.2	-40.3	17.1	0.00e+00	0	56	0	449839104	47	4718
2026-01-02 08:35:04.23	68.33	24.41	-38.6	-40.9	16.5	0.00e+00	0	56	0	451936256	47	5058
2026-01-02 08:35:05.23	68.05	24.45	-39.2	-41.8	15.7	0.00e+00	0	56	0	452984832	49	4999
2026-01-02 08:35:06.24	67.76	24.49	-39.5	-42.2	15.2	0.00e+00	0	56	0	455081984	49	5251
2026-01-02 08:35:07.25	67.48	24.53	-39.7	-42.5	15.0	0.00e+00	0	56	0	457179136	50	5150
2026-01-02 08:35:08.26	67.20	24.57	-39.5	-42.2	15.3	0.00e+00	0	56	0	459276288	50	4966
2026-01-02 08:35:09.27	66.91	24.61	-39.5	-42.1	15.4	0.00e+00	0	56	0	461373440	50	4887
2026-01-02 08:35:10.28	66.63	24.65	-39.3	-41.8	15.7	0.00e+00	0	56	0	462422016	50	4728
2026-01-02 08:35:11.29	66.34	24.69	-39.2	-41.7	15.7	0.00e+00	0	56	0	464519168	50	4698
2026-01-02 08:35:12.30	66.06	24.73	-39.1	-41.6	15.9	0.00e+00	0	56	0	466616320	50	4637
2026-01-02 08:35:13.31	65.77	24.76	-39.0	-41.4	16.1	0.00e+00	0	56	0	468713472	49	4795
2026-01-02 08:35:14.32	65.48	24.80	-39.0	-41.5	16.0	0.00e+00	0	56	0	470810624	49	4832
2026-01-02 08:35:15.33	65.20	24.83	-39.1	-41.6	15.9	0.00e+00	0	56	0	471859200	49	4914
2026-01-02 08:35:16.34	64.91	24.87	-39.2	-41.7	15.7	0.00e+00	0	56	0	473956352	49	4980
2026-01-02 08:35:17.34	64.62	24.90	-39.2	-41.8	15.8	0.00e+00	0	56	0	476053504	49	4992
2026-01-02 08:35:18.35	64.33	24.93	-39.2	-41.7	15.8	0.00e+00	0	56	0	478150656	49	4968
2026-01-02 08:35:19.36	64.04	24.96	-39.0	-41.5	16.0	0.00e+00	0	56	0	480247808	49	4862
2026-01-02 08:35:20.38	63.75	24.99	-39.1	-41.6	15.8	0.00e+00	0	56	0	481296384	49	4896
2026-01-02 08:35:21.38	63.46	25.02	-39.0	-41.5	15.9	0.00e+00	0	56	0	483393536	49	4862
2026-01-02 08:35:22.39	63.17	25.05	-38.9	-41.3	16.2	0.00e+00	0	56	0	485490688	49	4725
2026-01-02 08:35:23.40	62.87	25.08	-38.9	-41.4	16.0	0.00e+00	0	56	0	487587840	49	4796
2026-01-02 08:35:24.42	62.58	25.11	-39.3	-42.0	15.5	0.00e+00	0	56	0	489684992	49	5105
2026-01-02 08:35:25.43	62.28	25.14	-39.5	-42.3	15.2	0.00e+00	0	56	0	491782144	49	5314
2026-01-02 08:35:26.44	61.99	25.16	-39.6	-42.4	15.2	0.00e+00	0	56	0	492830720	49	5348
2026-01-02 08:35:27.45	61.69	25.19	-39.4	-42.2	15.4	0.00e+00	0	56	0	494927872	49	5222
2026-01-02 08:35:28.46	61.40	25.21	-39.3	-41.9	15.6	0.00e+00	0	56	0	497025024	49	5079
2026-01-02 08:35:29.46	61.11	25.23	-39.3	-42.0	15.5	0.00e+00	0	56	0	499122176	49	5115
2026-01-02 08:35:30.47	60.81	25.26	-39.5	-42.2	15.3	0.00e+00	0	56	0	501219328	49	5267
2026-01-02 08:35:31.48	60.51	25.28	-39.3	-42.1	15.5	0.00e+00	0	56	0	502267904	49	5161
2026-01-02 08:35:32.49	60.22	25.30	-39.2	-41.8	15.8	0.00e+00	0	56	0	504365056	49	4992
2026-01-02 08:35:33.50	59.92	25.32	-39.1	-41.6	15.9	0.00e+00	0	56	0	506462208	49	4912
2026-01-02 08:35:34.51	59.62	25.34	-39.0	-41.5	16.0	0.00e+00	0	56	0	508559360	49	4826
2026-01-02 08:35:35.52	59.32	25.36	-39.3	-42.0	15.6	0.00e+00	0	56	0	510656512	49	5117
2026-01-02 08:35:36.53	59.03	25.38	-39.5	-42.2	15.3	0.00e+00	0	56	0	511705088	49	5256
2026-01-02 08:35:37.54	58.73	25.39	-39.6	-42.4	15.1	0.00e+00	0	56	0	513802240	49	5350
2026-01-02 08:35:38.55	58.43	25.41	-39.5	-42.2	15.3	0.00e+00	0	56	0	515899392	49	5273
2026-01-02 08:35:39.56	58.13	25.43	-39.6	-42.3	15.2	0.00e+00	0	56	0	517996544	49	5340
2026-01-02 08:35:40.57	57.83	25.44	-39.6	-42.5	15.1	0.00e+00	0	56	0	520093696	49	5417
2026-01-02 08:35:41.58	57.53	25.45	-39.4	-42.1	15.4	0.00e+00	0	56	0	521142272	49	5183
2026-01-02 08:35:42.59	57.23	25.47	-39.3	-41.9	15.6	0.00e+00	0	56	0	523239424	49	5053
2026-01-02 08:35:43.60	56.93	25.48	-39.1	-41.6	15.9	7.00e-07	0	56	0	525336576	49	4884
2026-01-02 08:35:44.61	56.63	25.49	-38.9	-41.3	16.2	0.00e+00	0	56	0	527433728	49	4722
2026-01-02 08:35:45.62	56.33	25.50	-38.7	-41.0	16.4	0.00e+00	0	56	0	529530880	49	4593
2026-01-02 08:35:46.63	56.03	25.51	-38.6	-40.9	16.6	0.00e+00	0	56	0	530579456	49	4523
2026-01-02 08:35:47.64	55.73	25.52	-38.6	-40.9	16.6	0.00e+00	0	56	0	532676608	49	4516
2026-01-02 08:35:48.65	55.43	25.53	-38.7	-41.0	16.5	0.00e+00	0	56	0	534773760	49	4598
2026-01-02 08:35:49.66	55.12	25.53	-39.1	-41.6	16.0	0.00e+00	0	56	0	536870912	49	4880
2026-01-02 08:35:50.67	54.82	25.54	-39.4	-42.1	15.5	0.00e+00	0	56	0	538968064	49	5181
2026-01-02 08:35:51.68	54.52	25.54	-39.5	-42.2	15.3	0.00e+00	0	56	0	540016640	49	5270
2026-01-02 08:35:52.69	54.22	25.55	-39.6	-42.5	15.0	0.00e+00	0	56	0	542113792	49	5417
2026-01-02 08:35:53.70	53.92	25.55	-39.7	-42.5	15.0	0.00e+00	0	56	0	544210944	50	5150
2026-01-02 08:35:54.71	53.62	25.55	-39.4	-42.2	15.4	0.00e+00	0	56	0	546308096	50	4942
2026-01-02 08:35:55.72	53.31	25.56	-39.5	-42.3	15.2	0.00e+00	0	56	0	548405248	50	5017
2026-01-02 08:35:56.73	53.01	25.56	-39.5	-42.3	15.3	0.00e+00	0	56	0	549453824	50	4990
2026-01-02 08:35:57.74	52.71	25.56	-39.2	-41.8	15.8	0.00e+00	0	56	0	551550976	50	4709
2026-01-02 08:35:58.75	52.41	25.56	-39.1	-41.6	16.0	0.00e+00	0	56	0	553648128	50	4627
2026-01-02 08:35:59.75	52.11	25.55	-38.7	-41.0	16.5	0.00e+00	0	56	0	555745280	49	4590
2026-01-02 08:36:00.76	51.81	25.55	-38.2	-40.3	17.1	0.00e+00	0	56	0	557842432	48	4490
2026-01-02 08:36:01.77	51.51	25.55	-37.8	-39.9	17.5	0.00e+00	0	56	0	559939584	47	4516
2026-01-02 08:36:02.77	51.21	25.54	-37.8	-39.8	17.6	0.00e+00	0	56	0	560988160	47	4466
2026-01-02 08:36:03.78	50.91	25.54	-38.0	-40.1	17.4	0.00e+00	0	56	0	563085312	47	4605
2026-01-02 08:36:04.79	50.61	25.53	-38.0	-40.1	17.3	0.00e+00	0	56	0	565182464	47	4641
2026-01-02 08:36:05.80	50.30	25.53	-37.9	-40.0	17.4	0.00e+00	0	56	0	567279616	47	4593
2026-01-02 08:36:06.81	50.00	25.52	-38.0	-40.1	17.3	0.00e+00	0	56	0	569376768	47	4638
2026-01-02 08:36:07.82	49.70	25.51	-37.8	-39.8	17.6	0.00e+00	0	56	0	570425344	47	4487
2026-01-02 08:36:08.83	49.40	25.50	-37.9	-40.1	17.4	0.00e+00	0	56	0	572522496	47	4610
2026-01-02 08:36:09.84	49.10	25.49	-37.8	-39.9	17.6	0.00e+00	0	56	0	574619648	47	4500
2026-01-02 08:36:10.85	48.80	25.48	-37.6	-39.5	17.9	0.00e+00	0	56	0	576716800	47	4316
2026-01-02 08:36:11.86	48.50	25.46	-37.1	-38.9	18.5	0.00e+00	0	56	0	578813952	46	4279
2026-01-02 08:36:12.87	48.20	25.45	-37.1	-38.9	18.5	0.00e+00	0	56	0	579862528	46	4286
2026-01-02 08:36:13.88	47.90	25.44	-37.0	-38.8	18.7	0.00e+00	0	56	0	581959680	46	4207
2026-01-02 08:36:14.88	47.61	25.42	-37.1	-38.9	18.6	0.00e+00	0	56	0	584056832	46	4261
2026-01-02 08:36:15.89	47.31	25.41	-37.2	-39.0	18.5	0.00e+00	0	56	0	586153984	46	4330
2026-01-02 08:36:16.90	47.01	25.39	-37.3	-39.2	18.3	0.00e+00	0	57	0	588251136	46	4395
2026-01-02 08:36:17.91	46.71	25.37	-37.1	-38.8	18.7	0.00e+00	0	57	0	589299712	46	4226
2026-01-02 08:36:18.92	46.41	25.36	-37.0	-38.7	18.8	0.00e+00	0	56	0	591396864	45	4406
2026-01-02 08:36:19.93	46.11	25.34	-37.1	-38.9	18.6	0.00e+00	0	57	0	593494016	45	4513
2026-01-02 08:36:20.94	45.82	25.32	-37.5	-39.4	18.1	0.00e+00	0	56	0	595591168	45	4799
2026-01-02 08:36:21.95	45.52	25.30	-37.8	-39.7	17.8	0.00e+00	0	56	0	597688320	46	4677
2026-01-02 08:36:22.96	45.22	25.28	-37.9	-39.8	17.8	0.00e+00	0	56	0	598736896	46	4739
2026-01-02 08:36:23.97	44.93	25.25	-37.7	-39.6	17.9	0.00e+00	0	56	0	600834048	46	4630
2026-01-02 08:36:24.98	44.63	25.23	-37.6	-39.4	18.1	0.00e+00	0	56	0	602931200	46	4535
2026-01-02 08:36:25.99	44.34	25.21	-37.8	-39.8	17.8	0.00e+00	0	56	0	605028352	46	4723
2026-01-02 08:36:27.00	44.04	25.18	-38.0	-39.9	17.7	0.00e+00	0	56	0	607125504	46	4806
2026-01-02 08:36:28.01	43.75	25.16	-38.1	-40.1	17.5	0.00e+00	0	56	0	608174080	46	4876
2026-01-02 08:36:29.02	43.45	25.13	-37.8	-39.6	17.9	0.00e+00	0	56	0	610271232	46	4648
2026-01-02 08:36:30.03	43.16	25.10	-37.9	-39.8	17.8	0.00e+00	0	56	0	612368384	46	4737
2026-01-02 08:36:31.04	42.87	25.08	-38.2	-40.2	17.5	0.00e+00	0	56	0	614465536	46	4933
2026-01-02 08:36:32.05	42.58	25.05	-38.2	-40.2	17.4	0.00e+00	0	56	0	616562688	47	4699
2026-01-02 08:36:33.06	42.28	25.02	-38.3	-40.4	17.3	0.00e+00	0	56	0	617611264	47	4765
2026-01-02 08:36:34.07	41.99	24.99	-38.3	-40.4	17.3	0.00e+00	0	57	0	619708416	47	4779
2026-01-02 08:36:35.08	41.70	24.96	-38.6	-40.7	16.9	0.00e+00	0	56	0	621805568	47	4973
2026-01-02 08:36:36.09	41.41	24.92	-38.8	-41.0	16.7	0.00e+00	0	56	0	623902720	48	4859
2026-01-02 08:36:37.09	41.13	24.89	-39.2	-41.5	16.3	0.00e+00	0	56	0	625999872	48	5129
2026-01-02 08:36:38.10	40.84	24.86	-39.3	-41.6	16.0	0.00e+00	0	56	0	628097024	49	4925
2026-01-02 08:36:39.11	40.55	24.83	-39.1	-41.4	16.4	0.00e+00	0	56	0	629145600	49	4770
2026-01-02 08:36:40.12	40.26	24.79	-38.7	-40.8	16.8	0.00e+00	0	57	0	631242752	49	4493
2026-01-02 08:36:41.13	39.98	24.76	-38.6	-40.7	16.9	0.00e+00	0	56	0	633339904	49	4431
2026-01-02 08:36:42.14	39.69	24.72	-38.7	-40.8	16.9	0.00e+00	0	57	0	635437056	49	4490
2026-01-02 08:36:43.15	39.40	24.68	-38.8	-41.0	16.8	0.00e+00	0	56	0	637534208	49	4547
2026-01-02 08:36:44.16	39.12	24.65	-39.0	-41.3	16.5	0.00e+00	0	56	0	638582784	49	4708
2026-01-02 08:36:45.17	38.84	24.61	-39.0	-41.3	16.4	0.00e+00	0	57	0	640679936	49	4724
2026-01-02 08:36:46.18	38.55	24.57	-39.1	-41.5	16.2	0.00e+00	0	56	0	642777088	49	4824
2026-01-02 08:36:47.19	38.27	24.53	-39.3	-41.8	15.9	0.00e+00	0	57	0	644874240	49	4995
2026-01-02 08:36:48.20	37.99	24.49	-39.3	-41.7	16.0	0.00e+00	0	56	0	646971392	49	4955
2026-01-02 08:36:49.21	37.71	24.45	-39.4	-42.0	15.7	0.00e+00	0	56	0	648019968	49	5119
2026-01-02 08:36:50.22	37.43	24.40	-39.1	-41.4	16.2	0.00e+00	0	56	0	650117120	49	4813
2026-01-02 08:36:51.23	37.15	24.36	-39.3	-41.8	15.9	0.00e+00	0	56	0	652214272	49	4998
2026-01-02 08:36:52.24	36.87	24.32	-39.4	-42.0	15.7	0.00e+00	0	56	0	654311424	49	5144
2026-01-02 08:36:53.25	36.59	24.28	-39.6	-42.2	15.5	0.00e+00	0	56	0	656408576	49	5279
2026-01-02 08:36:54.25	36.31	24.23	-39.5	-42.2	15.5	0.00e+00	0	57	0	657457152	49	5252
2026-01-02 08:36:55.26	36.04	24.19	-39.5	-42.1	15.5	0.00e+00	0	56	0	659554304	49	5218
2026-01-02 08:36:56.27	35.76	24.14	-39.3	-41.8	15.9	0.00e+00	0	56	0	661651456	49	4991
2026-01-02 08:36:57.29	35.48	24.09	-39.0	-41.4	16.2	0.00e+00	0	57	0	663748608	49	4797
2026-01-02 08:36:58.29	35.21	24.05	-39.0	-41.4	16.3	0.00e+00	0	57	0	665845760	49	4793
2026-01-02 08:36:59.30	34.94	24.00	-39.2	-41.6	16.0	0.00e+00	0	57	0	666894336	49	4910
2026-01-02 08:37:00.31	34.67	23.95	-39.3	-41.8	15.8	0.00e+00	0	56	0	668991488	49	5036
2026-01-02 08:37:01.32	34.40	23.90	-39.3	-41.8	15.9	0.00e+00	0	57	0	671088640	49	5006
2026-01-02 08:37:02.33	34.13	23.85	-39.4	-42.0	15.6	0.00e+00	0	57	0	673185792	49	5151
2026-01-02 08:37:03.34	33.86	23.80	-39.5	-42.2	15.4	0.00e+00	0	56	0	675282944	49	5239
2026-01-02 08:37:04.35	33.59	23.75	-39.5	-42.2	15.5	0.00e+00	0	56	0	676331520	49	5253
2026-01-02 08:37:05.36	33.32	23.70	-39.2	-41.8	15.9	0.00e+00	0	57	0	678428672	49	4984
2026-01-02 08:37:06.37	33.05	23.65	-39.2	-41.6	16.0	0.00e+00	0	57	0	680525824	49	4915
2026-01-02 08:37:07.38	32.79	23.60	-38.9	-41.3	16.3	0.00e+00	0	56	0	682622976	49	4719
2026-01-02 08:37:08.39	32.52	23.54	-39.0	-41.4	16.2	0.00e+00	0	57	0	684720128	49	4790
2026-01-02 08:37:09.40	32.26	23.49	-39.0	-41.4	16.2	0.00e+00	0	57	0	685768704	49	4775
2026-01-02 08:37:10.41	31.99	23.44	-39.1	-41.5	16.1	0.00e+00	0	56	0	687865856	49	4851
2026-01-02 08:37:11.42	31.73	23.38	-39.2	-41.8	15.9	0.00e+00	0	56	0	689963008	49	4997
2026-01-02 08:37:12.43	31.47	23.33	-39.5	-42.1	15.5	0.00e+00	0	56	0	692060160	49	5210
2026-01-02 08:37:13.44	31.21	23.27	-39.7	-42.6	15.1	0.00e+00	0	56	0	694157312	49	5483
2026-01-02 08:37:14.45	30.95	23.22	-39.8	-42.6	15.1	0.00e+00	0	57	0	696254464	50	5192
2026-01-02 08:37:15.46	30.69	23.16	-39.9	-42.8	14.9	0.00e+00	0	57	0	697303040	50	5315
2026-01-02 08:37:16.47	30.43	23.10	-39.7	-42.5	15.2	0.00e+00	0	56	0	699400192	50	5148
2026-01-02 08:37:17.48	30.17	23.05	-39.4	-42.1	15.5	0.00e+00	0	56	0	701497344	50	4899
2026-01-02 08:37:18.49	29.92	22.99	-39.2	-41.7	16.0	0.00e+00	0	57	0	703594496	50	4669
2026-01-02 08:37:19.50	29.66	22.93	-39.0	-41.4	16.2	0.00e+00	0	57	0	705691648	49	4785
2026-01-02 08:37:20.51	29.41	22.87	-39.1	-41.6	16.0	0.00e+00	0	57	0	706740224	49	4884
2026-01-02 08:37:21.52	29.16	22.81	-39.3	-42.0	15.6	0.00e+00	0	56	0	708837376	49	5125
2026-01-02 08:37:22.53	28.90	22.75	-39.6	-42.4	15.2	4.50e-06	0	56	0	710934528	49	5365
2026-01-02 08:37:23.54	28.65	22.69	-39.8	-42.7	14.8	7.60e-06	0	57	0	713031680	50	5268
2026-01-02 08:37:24.55	28.40	22.63	-40.0	-43.0	14.6	3.00e-06	0	57	0	715128832	50	5441
2026-01-02 08:37:25.56	28.15	22.57	-39.8	-42.8	14.8	0.00e+00	0	57	0	716177408	50	5335
2026-01-02 08:37:26.57	27.91	22.51	-39.6	-42.4	15.2	0.00e+00	0	56	0	718274560	50	5079
2026-01-02 08:37:27.58	27.66	22.44	-39.2	-41.9	15.6	1.50e-06	0	57	0	720371712	50	4764
2026-01-02 08:37:28.59	27.41	22.38	-38.7	-41.0	16.4	1.50e-06	0	56	0	722468864	49	4593
2026-01-02 08:37:29.60	27.17	22.32	-38.6	-40.9	16.6	2.20e-06	0	57	0	724566016	49	4506
2026-01-02 08:37:30.61	26.92	22.26	-38.4	-40.6	16.8	0.00e+00	0	57	0	725614592	48	4646
2026-01-02 08:37:31.62	26.68	22.19	-38.2	-40.3	17.2	7.00e-07	0	57	0	727711744	48	4480
2026-01-02 08:37:32.63	26.44	22.13	-38.3	-40.4	17.1	0.00e+00	0	57	0	729808896	48	4535
2026-01-02 08:37:33.64	26.20	22.06	-38.6	-40.9	16.6	0.00e+00	0	56	0	731906048	48	4778
2026-01-02 08:37:34.65	25.96	22.00	-38.7	-41.2	16.3	2.20e-06	0	56	0	734003200	48	4949
2026-01-02 08:37:35.66	25.72	21.93	-38.9	-41.5	16.0	4.95e-05	0	57	0	735051776	48	5120
2026-01-02 08:37:36.67	25.48	21.87	-39.1	-41.7	15.7	1.01e-04	0	56	0	737148928	48	5273
2026-01-02 08:37:37.68	25.24	21.80	-39.0	-41.6	15.9	2.05e-05	0	56	0	739246080	48	5172
2026-01-02 08:37:38.69	25.01	21.73	-39.0	-41.6	15.9	7.00e-07	0	57	0	741343232	48	5183
2026-01-02 08:37:39.70	24.77	21.67	-38.6	-40.9	16.6	0.00e+00	0	57	0	743440384	48	4797
2026-01-02 08:37:40.71	24.54	21.60	-38.3	-40.6	17.0	0.00e+00	0	57	0	744488960	48	4603
2026-01-02 08:37:41.72	24.31	21.53	-38.1	-40.2	17.4	0.00e+00	0	57	0	746586112	48	4422
2026-01-02 08:37:42.73	24.07	21.47	-37.9	-40.0	17.5	0.00e+00	0	56	0	748683264	47	4565
2026-01-02 08:37:43.73	23.84	21.40	-37.7	-39.8	17.7	0.00e+00	0	57	0	750780416	47	4445
2026-01-02 08:37:44.75	23.61	21.33	-37.8	-39.9	17.6	0.00e+00	0	56	0	752877568	47	4513
2026-01-02 08:37:45.76	23.38	21.26	-38.0	-40.2	17.3	0.00e+00	0	56	0	753926144	47	4660
2026-01-02 08:37:46.76	23.16	21.19	-38.1	-40.2	17.2	0.00e+00	0	56	0	756023296	47	4691
2026-01-02 08:37:47.77	22.93	21.12	-38.2	-40.5	17.0	0.00e+00	0	56	0	758120448	47	4834
2026-01-02 08:37:48.79	22.70	21.05	-38.1	-40.4	17.0	0.00e+00	0	56	0	760217600	47	4764
2026-01-02 08:37:49.80	22.48	20.98	-38.3	-40.6	16.8	0.00e+00	0	57	0	762314752	47	4915
2026-01-02 08:37:50.80	22.26	20.91	-38.4	-40.7	16.8	0.00e+00	0	56	0	764411904	47	4956
2026-01-02 08:37:51.81	22.04	20.84	-38.4	-40.7	16.8	0.00e+00	0	57	0	765460480	47	4931
2026-01-02 08:37:52.82	21.81	20.77	-38.5	-40.9	16.6	0.00e+00	0	56	0	767557632	47	5049
2026-01-02 08:37:53.83	21.59	20.70	-38.4	-40.7	16.7	0.00e+00	0	57	0	769654784	47	4949
2026-01-02 08:37:54.84	21.37	20.63	-38.2	-40.5	17.0	0.00e+00	0	57	0	771751936	47	4836
2026-01-02 08:37:55.85	21.16	20.56	-38.1	-40.4	17.0	0.00e+00	0	57	0	773849088	47	4775
2026-01-02 08:37:56.86	20.94	20.49	-37.8	-40.0	17.4	0.00e+00	0	57	0	774897664	47	4577
2026-01-02 08:37:57.87	20.72	20.42	-37.9	-40.1	17.2	0.00e+00	0	56	0	776994816	47	4636
2026-01-02 08:37:58.88	20.51	20.35	-38.0	-40.3	17.1	0.00e+00	0	56	0	779091968	47	4728
2026-01-02 08:37:59.89	20.29	20.27	-38.2	-40.5	16.9	0.00e+00	0	56	0	781189120	47	4848
2026-01-02 08:38:00.90	20.08	20.20	-38.2	-40.5	16.9	0.00e+00	0	57	0	783286272	47	4825
2026-01-02 08:38:01.91	19.87	20.13	-38.2	-40.5	16.9	0.00e+00	0	56	0	784334848	47	4830
2026-01-02 08:38:02.92	19.66	20.06	-38.2	-40.5	16.9	0.00e+00	0	57	0	786432000	47	4837
2026-01-02 08:38:03.93	19.45	19.98	-38.2	-40.5	16.9	0.00e+00	0	57	0	788529152	47	4843
2026-01-02 08:38:04.94	19.24	19.91	-38.4	-40.8	16.6	0.00e+00	0	57	0	790626304	47	5017
2026-01-02 08:38:05.95	19.03	19.84	-38.5	-41.0	16.5	0.00e+00	0	57	0	792723456	47	5103
2026-01-02 08:38:06.96	18.82	19.76	-38.6	-41.1	16.3	0.00e+00	0	57	0	793772032	47	5204
2026-01-02 08:38:07.97	18.61	19.69	-38.5	-40.9	16.5	0.00e+00	0	57	0	795869184	47	5072
2026-01-02 08:38:08.98	18.41	19.62	-38.5	-40.8	16.5	0.00e+00	0	57	0	797966336	47	5041
2026-01-02 08:38:09.99	18.20	19.54	-38.3	-40.6	16.8	0.00e+00	0	57	0	800063488	47	4880
2026-01-02 08:38:11.00	18.00	19.47	-38.0	-40.1	17.3	0.00e+00	0	56	0	802160640	47	4646
2026-01-02 08:38:12.01	17.80	19.39	-38.1	-40.3	17.1	0.00e+00	0	57	0	803209216	47	4713
2026-01-02 08:38:13.02	17.60	19.32	-38.0	-40.2	17.2	0.00e+00	0	57	0	805306368	47	4665
2026-01-02 08:38:14.03	17.40	19.24	-38.4	-40.8	16.7	0.00e+00	0	57	0	807403520	47	4999
2026-01-02 08:38:15.04	17.20	19.17	-38.5	-40.9	16.5	0.00e+00	0	57	0	809500672	47	5076
2026-01-02 08:38:16.05	17.00	19.09	-38.6	-40.9	16.6	0.00e+00	0	57	0	811597824	48	4807
2026-01-02 08:38:17.06	16.80	19.02	-38.2	-40.4	17.1	0.00e+00	0	56	0	812646400	48	4519
2026-01-02 08:38:18.07	16.61	18.94	-38.1	-40.1	17.4	0.00e+00	0	57	0	814743552	48	4382
2026-01-02 08:38:19.08	16.41	18.87	-37.8	-39.8	17.6	0.00e+00	0	57	0	816840704	47	4460
2026-01-02 08:38:20.09	16.22	18.79	-37.7	-39.7	17.7	0.00e+00	0	56	0	818937856	47	4401
2026-01-02 08:38:21.10	16.02	18.72	-37.6	-39.6	17.8	0.00e+00	0	56	0	821035008	47	4371
2026-01-02 08:38:22.11	15.83	18.64	-37.8	-39.8	17.7	0.00e+00	0	57	0	822083584	47	4446
2026-01-02 08:38:23.12	15.64	18.57	-37.8	-39.9	17.6	0.00e+00	0	56	0	824180736	47	4496
2026-01-02 08:38:24.13	15.45	18.49	-37.9	-39.9	17.6	0.00e+00	0	57	0	826277888	47	4506
2026-01-02 08:38:25.14	15.26	18.41	-37.9	-39.9	17.6	0.00e+00	0	56	0	828375040	47	4511
2026-01-02 08:38:26.15	15.07	18.34	-37.9	-39.9	17.6	0.00e+00	0	57	0	830472192	47	4539
2026-01-02 08:38:27.16	14.89	18.26	-38.0	-40.1	17.4	0.00e+00	0	56	0	832569344	47	4621
2026-01-02 08:38:28.17	14.70	18.19	-38.1	-40.2	17.2	0.00e+00	0	57	0	833617920	47	4670
2026-01-02 08:38:29.18	14.51	18.11	-38.3	-40.5	16.9	0.00e+00	0	56	0	835715072	47	4866
2026-01-02 08:38:30.19	14.33	18.03	-38.2	-40.4	17.1	0.00e+00	0	57	0	837812224	47	4774
2026-01-02 08:38:31.20	14.14	17.96	-37.9	-40.0	17.5	0.00e+00	0	56	0	839909376	47	4562
2026-01-02 08:38:32.21	13.96	17.88	-37.8	-39.8	17.6	0.00e+00	0	56	0	842006528	47	4478
2026-01-02 08:38:33.22	13.78	17.80	-37.7	-39.6	17.8	0.00e+00	0	57	0	843055104	47	4374
2026-01-02 08:38:34.23	13.60	17.73	-37.5	-39.4	18.0	0.00e+00	0	57	0	845152256	47	4245
2026-01-02 08:38:35.24	13.42	17.65	-37.6	-39.6	17.8	0.00e+00	0	57	0	847249408	47	4362
2026-01-02 08:38:36.25	13.24	17.57	-37.6	-39.6	17.9	0.00e+00	0	57	0	849346560	47	4356
2026-01-02 08:38:37.26	13.06	17.50	-37.7	-39.6	17.8	0.00e+00	0	57	0	851443712	47	4378
2026-01-02 08:38:38.27	12.89	17.42	-37.9	-39.9	17.6	0.00e+00	0	57	0	852492288	47	4522
2026-01-02 08:38:39.28	12.71	17.34	-38.0	-40.0	17.4	0.00e+00	0	57	0	854589440	47	4590
2026-01-02 08:38:40.29	12.53	17.27	-38.1	-40.2	17.3	0.00e+00	0	56	0	856686592	47	4680
2026-01-02 08:38:41.30	12.36	17.19	-38.2	-40.3	17.2	0.00e+00	0	57	0	858783744	47	4722
2026-01-02 08:38:42.31	12.19	17.11	-38.2	-40.3	17.1	0.00e+00	0	57	0	860880896	47	4722
2026-01-02 08:38:43.32	12.01	17.04	-38.2	-40.4	17.0	0.00e+00	0	56	0	861929472	47	4786
2026-01-02 08:38:44.32	11.84	16.96	-38.3	-40.5	17.0	0.00e+00	0	57	0	864026624	47	4830
2026-01-02 08:38:45.33	11.67	16.88	-38.1	-40.2	17.2	0.00e+00	0	57	0	866123776	47	4661
2026-01-02 08:38:46.34	11.50	16.81	-37.9	-40.0	17.4	0.00e+00	0	57	0	868220928	47	4556
2026-01-02 08:38:47.35	11.33	16.73	-37.9	-39.9	17.5	0.00e+00	0	57	0	870318080	47	4528
2026-01-02 08:38:48.36	11.16	16.65	-37.6	-39.5	17.9	0.00e+00	0	57	0	871366656	47	4327
2026-01-02 08:38:49.37	11.00	16.58	-37.6	-39.5	17.9	0.00e+00	0	56	0	873463808	47	4328
2026-01-02 08:38:50.38	10.83	16.50	-37.5	-39.4	17.9	0.00e+00	0	57	0	875560960	47	4271
2026-01-02 08:38:51.39	10.67	16.42	-37.8	-39.7	17.7	0.00e+00	0	56	0	877658112	46	4702
2026-01-02 08:38:52.40	10.50	16.34	-38.0	-40.1	17.3	0.00e+00	0	56	0	879755264	46	4890
2026-01-02 08:38:53.41	10.34	16.27	-38.3	-40.5	17.0	0.00e+00	0	57	0	880803840	47	4821
2026-01-02 08:38:54.42	10.17	16.19	-38.6	-40.9	16.5	0.00e+00	0	56	0	882900992	47	5044
2026-01-02 08:38:55.43	10.01	16.11	-38.7	-41.0	16.4	0.00e+00	0	57	0	884998144	47	5145
2026-01-02 08:38:56.44	9.85	16.04	-38.8	-41.1	16.4	0.00e+00	0	57	0	887095296	48	4884
2026-01-02 08:38:57.45	9.69	15.96	-38.6	-40.9	16.6	0.00e+00	0	57	0	889192448	48	4787
2026-01-02 08:38:58.46	9.53	15.88	-38.6	-40.8	16.6	0.00e+00	0	57	0	890241024	48	4745
2026-01-02 08:38:59.47	9.37	15.81	-38.3	-40.4	17.0	0.00e+00	0	57	0	892338176	48	4544
2026-01-02 08:39:00.48	9.21	15.73	-38.1	-40.1	17.2	0.00e+00	0	57	0	894435328	48	4388
2026-01-02 08:39:01.49	9.06	15.65	-37.9	-40.0	17.3	0.00e+00	0	56	0	896532480	47	4576
2026-01-02 08:39:02.50	8.90	15.57	-38.0	-40.1	17.1	0.00e+00	0	57	0	898629632	47	4647
2026-01-02 08:39:03.51	8.74	15.50	-38.1	-40.2	17.0	0.00e+00	0	57	0	900726784	47	4686
2026-01-02 08:39:04.52	8.59	15.42	-38.0	-40.1	17.1	0.00e+00	0	57	0	901775360	47	4640
2026-01-02 08:39:05.53	8.44	15.34	-38.2	-40.3	16.9	0.00e+00	0	57	0	903872512	47	4756
2026-01-02 08:39:06.54	8.28	15.27	-38.0	-40.2	17.1	0.00e+00	0	56	0	905969664	47	4657
2026-01-02 08:39:07.55	8.13	15.19	-38.3	-40.5	16.8	0.00e+00	0	57	0	908066816	47	4837
2026-01-02 08:39:08.56	7.98	15.11	-38.4	-40.7	16.6	0.00e+00	0	57	0	910163968	47	4932
2026-01-02 08:39:09.57	7.83	15.04	-38.5	-40.8	16.4	0.00e+00	0	57	0	911212544	47	5025
2026-01-02 08:39:10.58	7.68	14.96	-38.9	-41.3	16.0	0.00e+00	0	57	0	913309696	48	5010
2026-01-02 08:39:11.59	7.53	14.88	-39.3	-41.9	15.4	0.00e+00	0	57	0	915406848	49	5059
2026-01-02 08:39:12.60	7.38	14.81	-39.2	-41.8	15.5	0.00e+00	0	57	0	917504000	49	4998
2026-01-02 08:39:13.61	7.23	14.73	-39.2	-41.9	15.4	0.00e+00	0	57	0	919601152	49	5048
2026-01-02 08:39:14.62	7.09	14.65	-39.3	-41.9	15.3	7.00e-07	0	57	0	920649728	49	5093
2026-01-02 08:39:15.63	6.94	14.58	-39.2	-41.8	15.5	0.00e+00	0	57	0	922746880	49	4999
2026-01-02 08:39:16.64	6.80	14.50	-39.2	-41.7	15.6	0.00e+00	0	57	0	924844032	49	4937
2026-01-02 08:39:17.65	6.65	14.43	-38.8	-41.1	16.2	0.00e+00	0	57	0	926941184	49	4620
2026-01-02 08:39:18.66	6.51	14.35	-38.4	-40.6	16.6	0.00e+00	0	57	0	929038336	48	4618
2026-01-02 08:39:19.67	6.37	14.27	-38.0	-40.1	17.1	0.00e+00	0	57	0	930086912	48	4361
2026-01-02 08:39:20.68	6.22	14.20	-38.0	-40.2	16.9	0.00e+00	0	57	0	932184064	47	4661
2026-01-02 08:39:21.69	6.08	14.12	-38.2	-40.4	16.7	0.00e+00	0	56	0	934281216	47	4785
2026-01-02 08:39:22.70	5.94	14.05	-38.1	-40.3	16.7	0.00e+00	0	57	0	936378368	47	4734
2026-01-02 08:39:23.71	5.80	13.97	-38.2	-40.4	16.6	0.00e+00	0	57	0	938475520	47	4792
2026-01-02 08:39:24.72	5.66	13.89	-38.2	-40.5	16.5	0.00e+00	0	57	0	939524096	47	4836
2026-01-02 08:39:25.73	5.52	13.82	-38.4	-40.8	16.3	0.00e+00	0	57	0	941621248	47	4992
2026-01-02 08:39:26.74	5.39	13.74	-38.4	-40.8	16.2	0.00e+00	0	57	0	943718400	47	4992
2026-01-02 08:39:27.75	5.25	13.67	-38.4	-40.8	16.2	0.00e+00	0	57	0	945815552	47	4997
2026-01-02 08:39:28.76	5.11	13.59	-38.2	-40.4	16.5	0.00e+00	0	57	0	947912704	47	4798
2026-01-02 08:39:29.77	4.98	13.52	-37.9	-40.2	16.7	0.00e+00	0	57	0	948961280	47	4656
2026-01-02 08:39:30.78	4.84	13.44	-38.0	-40.2	16.5	0.00e+00	0	57	0	951058432	47	4697
2026-01-02 08:39:31.79	4.71	13.36	-38.1	-40.5	16.1	0.00e+00	0	57	0	953155584	47	4860
2026-01-02 08:39:32.80	4.57	13.29	-38.5	-41.2	15.3	0.00e+00	0	57	0	955252736	47	5253
2026-01-02 08:39:33.81	4.44	13.21	-39.1	-42.1	14.2	0.00e+00	0	57	0	957349888	48	5514
2026-01-02 08:39:34.82	4.31	13.14	-39.6	-43.3	12.8	4.50e-06	0	57	0	958398464	49	5944
2026-01-02 08:39:35.83	4.18	13.06	-39.8	-43.9	11.7	2.66e-04	0	57	0	960495616	50	6050
2026-01-02 08:39:36.83	4.05	12.99	-40.2	-45.5	9.7	3.10e-03	0	57	0	962592768	50	7258
2026-01-02 08:39:37.84	3.92	12.91	-40.4	-46.9	8.0	2.43e-02	0	57	0	964689920	51	8033
2026-01-02 08:39:38.85	3.79	12.84	-40.5	-48.6	6.1	1.89e-01	0	57	0	966787072	51	9827
2026-01-02 08:39:39.86	3.66	12.77	-40.6	-50.5	4.8	5.57e-01	0	57	0	968884224	51	12127
2026-01-02 08:39:40.87	3.53	12.69	-40.5	-52.1	4.1	1.16e+00	0	57	0	969932800	51	14697
2026-01-02 08:39:41.88	3.40	12.62	-40.4	-53.1	3.8	1.49e+00	0	57	104	969932800	51	16446
2026-01-02 08:39:42.89	3.28	12.54	-40.2	-53.4	3.8	1.49e+00	0	57	104	969932800	51	16958
2026-01-02 08:39:43.90	3.15	12.47	-40.0	-53.4	3.8	1.49e+00	0	57	104	969932800	51	17013
2026-01-02 08:39:44.91	3.03	12.39	-40.0	-53.4	3.8	1.49e+00	0	57	104	969932800	51	16921
2026-01-02 08:39:45.92	2.90	12.32	-39.9	-53.6	3.8	1.49e+00	0	57	104	969932800	51	17407
2026-01-02 08:39:46.93	2.78	12.24	-39.9	-54.0	3.8	1.49e+00	0	57	104	969932800	51	18139
2026-01-02 08:39:47.94	2.65	12.17	-39.9	-54.3	3.8	1.49e+00	0	57	104	969932800	51	18768
2026-01-02 08:39:48.95	2.53	12.10	-40.2	-54.4	3.8	1.49e+00	0	57	104	969932800	51	19084
2026-01-02 08:39:49.96	2.41	12.02	-39.7	-54.3	3.8	1.49e+00	0	57	104	969932800	51	18777
2026-01-02 08:39:50.97	2.29	11.95	-39.6	-54.3	3.8	1.49e+00	0	57	104	969932800	51	18754
2026-01-02 08:39:51.98	2.17	11.88	-39.7	-54.5	3.8	1.49e+00	0	57	104	969932800	51	19303
2026-01-02 08:39:52.99	2.05	11.80	-39.5	-54.2	3.8	1.49e+00	0	57	104	969932800	51	18617
2026-01-02 08:39:54.00	1.93	11.73	-39.7	-54.4	3.8	1.49e+00	0	57	104	969932800	51	19126
2026-01-02 08:39:55.01	1.81	11.66	-39.8	-54.5	3.8	1.49e+00	0	57	104	969932800	51	19194
2026-01-02 08:39:56.02	1.69	11.58	-39.6	-54.2	3.8	1.49e+00	0	57	104	969932800	51	18585
2026-01-02 08:39:57.03	1.57	11.51	-39.7	-54.5	3.8	1.49e+00	0	57	104	969932800	51	19180
2026-01-02 08:39:58.04	1.45	11.44	-39.6	-54.2	3.8	1.49e+00	0	57	104	969932800	51	18591
2026-01-02 08:39:59.05	1.34	11.36	-39.6	-54.2	3.8	1.49e+00	0	57	104	969932800	51	18726
2026-01-02 08:40:00.06	1.22	11.29	-39.6	-54.3	3.8	1.49e+00	0	57	104	969932800	51	18886
2026-01-02 08:40:01.07	1.11	11.22	-39.6	-54.2	3.8	1.49e+00	0	57	104	969932800	51	18721
2026-01-02 08:40:02.08	0.99	11.14	-39.6	-54.3	3.8	1.49e+00	0	57	104	969932800	51	18742
2026-01-02 08:40:03.09	0.88	11.07	-39.5	-54.4	3.8	1.49e+00	0	57	104	969932800	51	19030
2026-01-02 08:40:04.10	0.76	11.00	-39.6	-54.2	3.8	1.49e+00	0	57	104	969932800	51	18669
2026-01-02 08:40:05.11	0.65	10.93	-39.6	-54.4	3.8	1.49e+00	0	57	104	969932800	51	19063
2026-01-02 08:40:06.12	0.54	10.86	-39.5	-54.2	3.8	1.49e+00	0	57	104	969932800	51	18633
2026-01-02 08:40:07.13	0.43	10.78	-39.3	-54.2	3.8	1.49e+00	0	57	104	969932800	50	19715
2026-01-02 08:40:08.14	0.31	10.71	-39.6	-54.2	3.8	1.49e+00	0	57	104	969932800	50	19814
2026-01-02 08:40:09.15	0.20	10.64	-39.2	-54.1	3.8	1.49e+00	0	57	104	969932800	50	19598
2026-01-02 08:40:10.16	0.09	10.57	-39.6	-54.3	3.8	1.49e+00	0	57	104	969932800	50	19855
2026-01-02 08:40:11.17	359.98	10.50	-39.4	-54.3	3.8	1.49e+00	0	56	104	969932800	50	19866
2026-01-02 08:40:12.18	359.87	10.42	-39.4	-54.3	3.8	1.49e+00	0	57	104	969932800	50	19873
2026-01-02 08:40:13.19	359.76	10.35	-39.3	-54.2	3.8	1.49e+00	0	57	104	969932800	50	19743
2026-01-02 08:40:14.20	359.66	10.28	-39.4	-54.3	3.8	1.49e+00	0	57	104	969932800	50	19945
2026-01-02 08:40:15.21	359.55	10.21	-39.2	-54.1	3.8	1.49e+00	0	57	104	969932800	50	19598
2026-01-02 08:40:16.22	359.44	10.14	-39.4	-54.2	3.8	1.49e+00	0	57	104	969932800	50	19709
2026-01-02 08:40:17.23	359.34	10.07	-39.1	-54.1	3.8	1.49e+00	0	57	104	969932800	50	19584
2026-01-02 08:40:18.24	359.23	10.00	-39.3	-54.1	3.8	1.49e+00	0	57	104	969932800	50	19551
2026-01-02 08:40:19.25	359.12	9.93	-39.3	-54.1	3.8	1.49e+00	0	57	104	969932800	50	19569
2026-01-02 08:40:20.26	359.02	9.85	-39.3	-54.2	3.8	1.49e+00	0	57	104	969932800	50	19799
2026-01-02 08:40:21.27	358.92	9.78	-39.3	-54.2	3.8	1.49e+00	0	57	104	969932800	50	19630
2026-01-02 08:40:22.28	358.81	9.71	-39.1	-54.3	3.8	1.49e+00	0	57	104	969932800	50	19865
2026-01-02 08:40:23.29	358.71	9.64	-38.5	-54.1	3.8	1.49e+00	0	57	104	969932800	48	21942
2026-01-02 08:40:24.30	358.61	9.57	-39.2	-54.1	3.8	1.49e+00	0	57	104	969932800	49	20711
2026-01-02 08:40:25.31	358.50	9.50	-38.3	-54.1	3.8	1.49e+00	0	57	104	969932800	48	21829
2026-01-02 08:40:26.32	358.40	9.43	-39.2	-54.1	3.8	1.49e+00	0	57	104	969932800	48	21875
2026-01-02 08:40:27.33	358.30	9.36	-38.7	-54.1	3.8	1.49e+00	0	57	104	969932800	48	21967
2026-01-02 08:40:28.34	358.20	9.29	-38.4	-54.1	3.8	1.49e+00	0	57	104	969932800	48	21891
2026-01-02 08:40:29.35	358.10	9.22	-38.4	-54.1	3.8	1.49e+00	0	57	104	969932800	48	21934
2026-01-02 08:40:30.36	358.00	9.15	-37.8	-54.0	3.8	1.49e+00	0	57	104	969932800	47	22860
2026-01-02 08:40:31.37	357.90	9.08	-38.2	-54.0	3.8	1.49e+00	0	57	104	969932800	47	22920
2026-01-02 08:40:32.38	357.80	9.01	-38.2	-54.0	3.8	1.49e+00	0	57	104	969932800	47	22948
2026-01-02 08:40:33.39	357.70	8.95	-38.2	-54.0	3.8	1.49e+00	0	57	104	969932800	47	22864
2026-01-02 08:40:34.40	357.60	8.88	-38.1	-54.0	3.8	1.49e+00	0	57	104	969932800	47	22974
2026-01-02 08:40:35.41	357.51	8.81	-38.2	-54.0	3.8	1.49e+00	0	57	104	969932800	47	22910
2026-01-02 08:40:36.42	357.41	8.74	-37.9	-54.0	3.8	1.49e+00	0	57	104	969932800	46	24229
2026-01-02 08:40:37.43	357.31	8.67	-38.5	-54.0	3.8	1.49e+00	0	57	104	969932800	47	22991
2026-01-02 08:40:38.44	357.22	8.60	-37.8	-53.9	3.8	1.49e+00	0	57	104	969932800	47	22669
2026-01-02 08:40:39.45	357.12	8.53	-38.4	-53.9	3.8	1.49e+00	0	57	104	969932800	47	22718
2026-01-02 08:40:40.46	357.03	8.46	-38.4	-53.9	3.8	1.49e+00	0	57	104	969932800	47	22755
2026-01-02 08:40:41.47	356.93	8.39	-38.5	-53.9	3.8	1.49e+00	0	57	104	969932800	47	22679
2026-01-02 08:40:42.48	356.84	8.33	-38.6	-54.0	3.8	1.49e+00	0	57	104	969932800	47	22877
2026-01-02 08:40:43.49	356.75	8.26	-38.6	-54.0	3.8	1.49e+00	0	57	104	969932800	48	21691
2026-01-02 08:40:44.50	356.65	8.19	-38.6	-54.0	3.8	1.49e+00	0	57	104	969932800	48	21693
2026-01-02 08:40:45.51	356.56	8.12	-38.6	-54.0	3.8	1.49e+00	0	57	104	969932800	49	20523
2026-01-02 08:40:46.52	356.47	8.05	-38.9	-54.1	3.8	1.49e+00	0	57	104	969932800	48	21818
2026-01-02 08:40:47.53	356.38	7.99	-39.0	-54.2	3.8	1.49e+00	0	57	104	969932800	49	20826
2026-01-02 08:40:48.54	356.28	7.92	-40.1	-54.8	3.8	1.49e+00	0	57	104	969932800	50	21110
2026-01-02 08:40:49.55	356.19	7.85	-44.5	-58.8	3.8	1.49e+00	0	57	104	969932800	59	19893
2026-01-02 08:40:50.57	356.10	7.78	-44.6	-59.2	3.8	1.49e+00	0	57	104	969932800	60	19773
2026-01-02 08:40:51.58	356.01	7.72	-44.8	-59.4	3.8	1.49e+00	0	57	104	969932800	60	20188
2026-01-02 08:40:52.58	355.92	7.65	-44.9	-59.5	3.8	1.49e+00	0	57	104	969932800	60	20486
2026-01-02 08:40:53.60	355.83	7.58	-45.0	-59.6	3.8	1.49e+00	0	57	104	969932800	60	20658
2026-01-02 08:40:54.61	355.74	7.51	-45.0	-59.6	3.8	1.49e+00	0	57	104	969932800	60	20653
2026-01-02 08:40:55.62	355.66	7.45	-45.1	-59.6	3.8	1.49e+00	0	57	104	969932800	60	20728
2026-01-02 08:40:56.63	355.57	7.38	-45.0	-59.6	3.8	1.49e+00	0	57	104	969932800	60	20700
2026-01-02 08:40:57.64	355.48	7.31	-45.0	-59.6	3.8	1.49e+00	0	57	104	969932800	60	20638
2026-01-02 08:40:58.65	355.39	7.25	-44.4	-59.6	3.8	1.49e+00	0	57	104	969932800	60	20587
2026-01-02 08:40:59.66	355.31	7.18	-44.9	-59.5	3.8	1.49e+00	0	57	104	969932800	60	20378
2026-01-02 08:41:00.68	355.22	7.11	-44.9	-59.5	3.8	1.49e+00	0	57	104	969932800	60	20321
2026-01-02 08:41:01.69	355.13	7.05	-44.9	-59.4	3.8	1.49e+00	0	57	104	969932800	60	20253
2026-01-02 08:41:02.70	355.05	6.98	-44.8	-59.4	3.8	1.49e+00	0	57	104	969932800	60	20139
2026-01-02 08:41:03.71	354.96	6.91	-44.8	-59.4	3.8	1.49e+00	0	57	104	969932800	60	20107
2026-01-02 08:41:04.72	354.88	6.85	-44.8	-59.3	3.8	1.49e+00	0	57	104	969932800	60	20035
2026-01-02 08:41:05.73	354.79	6.78	-44.8	-59.3	3.8	1.49e+00	0	57	104	969932800	60	20023
2026-01-02 08:41:06.74	354.71	6.72	-44.8	-59.3	3.8	1.49e+00	0	57	104	969932800	60	19983
2026-01-02 08:41:07.75	354.63	6.65	-44.8	-59.4	3.8	1.49e+00	0	57	104	969932800	60	20077
2026-01-02 08:41:08.76	354.54	6.59	-44.8	-59.3	3.8	1.49e+00	0	57	104	969932800	60	19968
2026-01-02 08:41:09.77	354.46	6.52	-44.8	-59.3	3.8	1.49e+00	0	57	104	969932800	60	20026
2026-01-02 08:41:10.78	354.38	6.46	-44.8	-59.3	3.8	1.49e+00	0	57	104	969932800	60	19999
2026-01-02 08:41:11.79	354.30	6.39	-44.8	-59.3	3.8	1.49e+00	0	57	104	969932800	60	20031
2026-01-02 08:41:12.80	354.22	6.33	-44.8	-59.3	3.8	1.49e+00	0	57	104	969932800	60	19985
2026-01-02 08:41:13.82	354.13	6.26	-44.8	-59.3	3.8	1.49e+00	0	57	104	969932800	60	19901
2026-01-02 08:41:14.83	354.05	6.20	-44.8	-59.3	3.8	1.49e+00	0	57	104	969932800	60	19947
2026-01-02 08:41:15.84	353.97	6.13	-44.8	-59.3	3.8	1.49e+00	0	57	104	969932800	60	19935
2026-01-02 08:41:16.85	353.89	6.07	-44.8	-59.3	3.8	1.49e+00	0	57	104	969932800	60	19936
