passes_logs/2026/01/02/R2.0S_Moscow/R2.0S_Moscow__20260102_114927_AQUA_rec.log

#Pass ID: 20260102_114927_AQUA
#Satellite: AQUA
#Configuration: AQUA
#almurnet v.1.7.20251203
#Start time: 2026-01-02 11:49:28

#Version: 2.2.20231116
#Station: R2.0S_Moscow
#Location: 37.707566 lon 55.798166 lat
#TLE: 1 27424U 02022A   25365.92641127  .00002078  00000+0  42628-3 0  9999
#TLE: 2 27424  98.4058 327.1196 0001962  94.7781 340.6230 14.61783896258835

#Time	Az	El	Level	Level2	SNR	BER	BlckErr	Temp	State	Recorded	gain1	gain2
2026-01-02 11:49:28.83	167.02	2.11	-44.7	-63.5	3.8	7.43e-01	0	47	0	0	61	30491
2026-01-02 11:49:29.83	167.04	2.17	-44.7	-63.5	3.8	7.46e-01	0	48	104	0	60	32268
2026-01-02 11:49:30.85	167.05	2.24	-44.7	-63.5	3.8	7.46e-01	0	48	104	0	60	32212
2026-01-02 11:49:31.86	167.06	2.31	-44.7	-63.5	3.8	7.47e-01	0	48	104	0	60	32240
2026-01-02 11:49:32.87	167.07	2.38	-44.7	-63.5	3.8	7.46e-01	0	48	104	0	60	32308
2026-01-02 11:49:33.88	167.09	2.44	-44.7	-63.5	3.8	7.46e-01	0	48	104	0	60	32264
2026-01-02 11:49:34.89	167.10	2.51	-44.7	-63.5	3.8	7.45e-01	0	48	104	0	60	32246
2026-01-02 11:49:35.90	167.11	2.58	-44.7	-63.5	3.8	7.47e-01	0	48	104	0	60	32268
2026-01-02 11:49:36.91	167.13	2.65	-44.7	-63.5	3.8	7.41e-01	0	48	104	0	60	32319
2026-01-02 11:49:37.92	167.14	2.72	-44.7	-63.5	3.8	7.45e-01	0	48	104	0	60	32230
2026-01-02 11:49:38.93	167.15	2.79	-44.7	-63.5	3.8	7.47e-01	0	48	104	0	60	32398
2026-01-02 11:49:39.94	167.16	2.86	-44.7	-63.5	3.8	7.41e-01	0	48	104	0	60	32295
2026-01-02 11:49:40.96	167.18	2.93	-44.7	-63.5	3.8	7.45e-01	0	48	104	0	60	32263
2026-01-02 11:49:41.97	167.19	3.00	-44.7	-63.5	3.8	7.45e-01	0	48	104	0	60	32317
2026-01-02 11:49:42.98	167.20	3.07	-44.7	-63.5	3.8	7.45e-01	0	48	104	0	60	32306
2026-01-02 11:49:43.99	167.22	3.14	-44.7	-63.5	3.8	7.44e-01	0	48	104	0	60	32234
2026-01-02 11:49:45.00	167.23	3.21	-44.7	-63.5	3.8	7.47e-01	0	49	104	0	60	32326
2026-01-02 11:49:46.01	167.24	3.28	-44.7	-63.5	3.8	7.44e-01	0	48	104	0	60	32303
2026-01-02 11:49:47.03	167.26	3.35	-44.7	-63.5	3.8	7.46e-01	0	49	104	0	60	32245
2026-01-02 11:49:48.04	167.27	3.42	-44.7	-63.5	3.8	7.43e-01	0	49	104	0	60	32278
2026-01-02 11:49:49.05	167.28	3.49	-44.7	-63.5	3.8	7.43e-01	0	49	104	0	60	32228
2026-01-02 11:49:50.06	167.30	3.56	-44.7	-63.5	3.8	7.47e-01	0	49	104	0	60	32300
2026-01-02 11:49:51.07	167.31	3.64	-44.7	-63.5	3.8	7.44e-01	0	49	104	0	60	32195
2026-01-02 11:49:52.08	167.33	3.71	-44.7	-63.5	3.8	7.44e-01	0	49	104	0	60	32300
2026-01-02 11:49:53.09	167.34	3.78	-44.7	-63.5	3.8	7.43e-01	0	49	104	0	60	32252
2026-01-02 11:49:54.10	167.35	3.85	-44.7	-63.5	3.8	7.44e-01	0	49	104	0	60	32205
2026-01-02 11:49:55.11	167.37	3.92	-44.7	-63.5	3.8	7.43e-01	0	49	104	0	60	32244
2026-01-02 11:49:56.12	167.38	4.00	-44.7	-63.5	3.8	7.43e-01	0	49	104	0	60	32239
2026-01-02 11:49:57.14	167.39	4.07	-44.7	-63.5	3.8	7.43e-01	0	50	104	0	60	32257
2026-01-02 11:49:58.15	167.41	4.14	-44.7	-63.5	3.8	7.47e-01	0	50	104	0	60	32285
2026-01-02 11:49:59.16	167.42	4.22	-44.7	-63.5	3.8	7.44e-01	0	49	104	0	60	32313
2026-01-02 11:50:00.17	167.44	4.29	-44.7	-63.5	3.8	7.43e-01	0	50	104	0	60	32290
2026-01-02 11:50:01.18	167.45	4.36	-44.7	-63.5	3.8	7.47e-01	0	50	104	0	60	32279
2026-01-02 11:50:02.19	167.47	4.44	-44.7	-63.5	3.8	7.46e-01	0	49	104	0	60	32340
2026-01-02 11:50:03.20	167.48	4.51	-44.7	-63.5	3.8	7.40e-01	0	50	104	0	60	32269
2026-01-02 11:50:04.22	167.49	4.59	-44.7	-63.5	3.8	7.43e-01	0	50	104	0	60	32298
2026-01-02 11:50:05.23	167.51	4.66	-44.7	-63.5	3.8	7.45e-01	0	50	104	0	60	32262
2026-01-02 11:50:06.24	167.52	4.74	-44.7	-63.5	3.8	7.46e-01	0	50	104	0	60	32360
2026-01-02 11:50:07.25	167.54	4.81	-44.7	-63.5	3.8	7.43e-01	0	50	104	0	60	32307
2026-01-02 11:50:08.26	167.55	4.89	-44.7	-63.5	3.8	7.43e-01	0	50	104	0	60	32222
2026-01-02 11:50:09.27	167.57	4.96	-44.7	-63.5	3.8	7.42e-01	0	50	104	0	60	32199
2026-01-02 11:50:10.28	167.58	5.04	-44.7	-63.4	3.8	7.44e-01	0	50	104	0	60	32086
2026-01-02 11:50:11.29	167.60	5.12	-44.7	-63.4	3.8	7.47e-01	0	50	104	0	60	32036
2026-01-02 11:50:12.30	167.61	5.19	-44.7	-63.4	3.8	7.46e-01	0	50	104	0	60	31974
2026-01-02 11:50:13.31	167.63	5.27	-44.7	-63.3	3.8	7.48e-01	0	50	104	0	60	31740
2026-01-02 11:50:14.33	167.64	5.35	-44.7	-63.1	3.8	7.42e-01	0	50	104	0	60	30823
2026-01-02 11:50:15.34	167.66	5.42	-44.7	-62.7	3.8	7.42e-01	0	50	104	0	60	29515
2026-01-02 11:50:16.35	167.67	5.50	-44.7	-62.2	3.8	7.44e-01	0	50	104	0	60	27957
2026-01-02 11:50:17.36	167.69	5.58	-44.7	-61.9	3.8	7.44e-01	0	50	104	0	60	26820
2026-01-02 11:50:18.37	167.70	5.66	-44.7	-61.5	3.9	7.42e-01	0	51	104	0	60	25657
2026-01-02 11:50:19.38	167.72	5.73	-44.7	-60.9	4.0	7.42e-01	0	51	104	0	60	24035
2026-01-02 11:50:20.39	167.73	5.81	-44.7	-61.3	3.8	7.43e-01	0	51	104	0	60	25033
2026-01-02 11:50:21.40	167.75	5.89	-44.7	-61.0	4.0	7.40e-01	0	51	104	0	60	24146
2026-01-02 11:50:22.41	167.77	5.97	-44.7	-61.3	3.8	7.42e-01	0	51	104	0	60	25134
2026-01-02 11:50:23.43	167.78	6.05	-44.7	-61.0	3.9	7.42e-01	0	51	104	0	60	24341
2026-01-02 11:50:24.44	167.80	6.13	-44.7	-61.0	3.9	7.44e-01	0	51	104	0	60	24270
2026-01-02 11:50:25.45	167.81	6.21	-44.7	-61.0	4.0	7.40e-01	0	51	104	0	60	24297
2026-01-02 11:50:26.46	167.83	6.29	-44.7	-61.8	3.8	7.46e-01	0	51	104	0	60	26540
2026-01-02 11:50:27.47	167.85	6.37	-44.7	-61.6	3.8	7.43e-01	0	51	104	0	60	25903
2026-01-02 11:50:28.48	167.86	6.45	-44.6	-60.5	3.9	7.41e-01	0	51	104	0	60	22947
2026-01-02 11:50:29.49	167.88	6.53	-44.6	-60.6	3.9	7.44e-01	0	51	104	0	60	23257
2026-01-02 11:50:30.50	167.89	6.61	-44.6	-58.5	4.4	7.19e-01	0	51	104	0	60	18253
2026-01-02 11:50:31.51	167.91	6.69	-44.4	-56.3	6.0	6.81e-01	43	51	0	0	60	14102
2026-01-02 11:50:32.53	167.93	6.77	-44.3	-55.1	7.1	6.64e-01	92	51	0	2097152	60	12269
2026-01-02 11:50:33.53	167.94	6.86	-44.1	-53.0	9.1	6.32e-01	0	51	0	4194304	60	9717
2026-01-02 11:50:34.55	167.96	6.94	-44.0	-51.8	10.9	6.20e-01	0	51	0	5767168	59	8876
2026-01-02 11:50:35.55	167.98	7.02	-43.7	-50.5	12.2	6.10e-01	0	52	0	7864320	59	7687
2026-01-02 11:50:36.57	167.99	7.10	-43.3	-48.9	13.8	6.08e-01	0	51	0	9437184	58	6793
2026-01-02 11:50:37.58	168.01	7.19	-42.8	-47.8	14.9	6.06e-01	0	51	0	11534336	57	6314
2026-01-02 11:50:38.59	168.03	7.27	-42.3	-46.6	16.2	6.06e-01	0	51	0	13631488	56	5828
2026-01-02 11:50:39.60	168.04	7.35	-41.7	-45.6	17.1	6.07e-01	0	51	0	15204352	55	5474
2026-01-02 11:50:40.61	168.06	7.44	-41.3	-44.7	18.0	6.06e-01	0	51	0	17301504	54	5264
2026-01-02 11:50:41.62	168.08	7.52	-40.8	-43.9	18.8	6.07e-01	0	52	0	18874368	53	5099
2026-01-02 11:50:42.63	168.10	7.61	-40.4	-43.3	19.4	6.08e-01	0	52	0	20971520	52	5013
2026-01-02 11:50:43.64	168.11	7.69	-40.0	-42.7	20.0	6.08e-01	0	52	0	23068672	52	4680
2026-01-02 11:50:44.65	168.13	7.78	-39.8	-42.4	20.4	6.07e-01	0	52	0	24641536	51	4808
2026-01-02 11:50:45.66	168.15	7.86	-39.7	-42.2	20.6	6.07e-01	0	52	0	26738688	51	4669
2026-01-02 11:50:46.67	168.17	7.95	-39.5	-41.9	20.9	6.06e-01	0	52	0	28835840	50	4778
2026-01-02 11:50:47.68	168.18	8.04	-39.5	-41.9	20.9	6.05e-01	0	52	0	30408704	50	4786
2026-01-02 11:50:48.69	168.20	8.12	-39.5	-41.9	20.9	6.05e-01	0	52	0	32505856	50	4772
2026-01-02 11:50:49.70	168.22	8.21	-41.6	-45.3	18.0	6.06e-01	0	52	0	34078720	53	5950
2026-01-02 11:50:50.71	168.24	8.30	-40.9	-44.1	19.4	6.05e-01	0	52	0	36175872	52	5501
2026-01-02 11:50:51.72	168.26	8.38	-43.2	-48.7	14.3	6.07e-01	0	52	0	38273024	57	7029
2026-01-02 11:50:52.73	168.28	8.47	-39.4	-41.8	21.2	6.07e-01	0	52	0	39845888	50	4728
2026-01-02 11:50:53.74	168.29	8.56	-39.7	-42.1	20.7	6.06e-01	0	52	0	41943040	51	4651
2026-01-02 11:50:54.75	168.31	8.65	-39.3	-41.7	21.2	6.07e-01	0	52	0	43515904	50	4675
2026-01-02 11:50:55.76	168.33	8.74	-39.4	-41.7	21.1	6.05e-01	0	52	0	45613056	50	4698
2026-01-02 11:50:56.77	168.35	8.83	-39.4	-41.7	21.2	6.06e-01	0	52	0	47710208	50	4670
2026-01-02 11:50:57.78	168.37	8.92	-39.4	-41.7	21.2	6.08e-01	0	52	0	49283072	50	4685
2026-01-02 11:50:58.79	168.39	9.01	-39.1	-41.3	21.6	6.06e-01	0	52	0	51380224	50	4487
2026-01-02 11:50:59.80	168.41	9.10	-39.0	-41.2	21.6	6.07e-01	0	52	0	53477376	50	4436
2026-01-02 11:51:00.81	168.43	9.19	-39.1	-41.3	21.6	6.09e-01	0	52	0	55050240	50	4471
2026-01-02 11:51:01.81	168.45	9.28	-39.1	-41.3	21.7	6.05e-01	0	52	0	57147392	49	4724
2026-01-02 11:51:02.82	168.46	9.37	-38.9	-41.1	21.8	6.06e-01	0	52	0	58720256	49	4647
2026-01-02 11:51:03.83	168.48	9.46	-39.0	-41.2	21.8	6.06e-01	0	52	0	60817408	49	4656
2026-01-02 11:51:04.84	168.50	9.55	-38.9	-41.1	21.9	6.04e-01	0	52	0	62914560	49	4617
2026-01-02 11:51:05.85	168.52	9.65	-38.9	-41.0	21.9	6.07e-01	0	52	0	64487424	49	4596
2026-01-02 11:51:06.86	168.54	9.74	-38.8	-40.9	22.1	6.05e-01	0	53	0	66584576	49	4504
2026-01-02 11:51:07.87	168.56	9.83	-38.8	-41.0	22.0	6.05e-01	0	52	0	68157440	49	4554
2026-01-02 11:51:08.88	168.58	9.93	-38.7	-40.8	22.1	6.07e-01	0	52	0	70254592	49	4482
2026-01-02 11:51:09.89	168.60	10.02	-38.6	-40.7	22.3	6.06e-01	0	52	0	72351744	49	4419
2026-01-02 11:51:10.90	168.62	10.12	-38.6	-40.7	22.3	6.04e-01	0	53	0	73924608	49	4414
2026-01-02 11:51:11.91	168.64	10.21	-38.6	-40.7	22.3	6.06e-01	0	53	0	76021760	49	4406
2026-01-02 11:51:12.92	168.66	10.31	-38.6	-40.6	22.4	6.05e-01	0	53	0	77594624	49	4383
2026-01-02 11:51:13.93	168.69	10.40	-38.5	-40.5	22.5	6.07e-01	0	53	0	79691776	48	4578
2026-01-02 11:51:14.94	168.71	10.50	-38.4	-40.4	22.6	6.05e-01	0	53	0	81788928	48	4531
2026-01-02 11:51:15.95	168.73	10.60	-38.4	-40.4	22.6	6.06e-01	0	53	0	83361792	48	4519
2026-01-02 11:51:16.96	168.75	10.69	-38.4	-40.4	22.6	6.06e-01	0	53	0	85458944	48	4544
2026-01-02 11:51:17.97	168.77	10.79	-38.4	-40.4	22.2	6.07e-01	0	53	0	87031808	48	4514
2026-01-02 11:51:18.97	168.79	10.89	-38.3	-40.3	22.7	6.07e-01	0	53	0	89128960	48	4484
2026-01-02 11:51:19.98	168.81	10.99	-38.4	-40.4	22.7	6.06e-01	0	53	0	91226112	48	4500
2026-01-02 11:51:20.99	168.83	11.08	-38.4	-40.4	22.7	6.08e-01	0	53	0	92798976	48	4498
2026-01-02 11:51:22.00	168.86	11.18	-38.4	-40.4	22.7	6.05e-01	0	53	0	94896128	48	4505
2026-01-02 11:51:23.01	168.88	11.28	-38.3	-40.3	22.8	6.05e-01	0	53	0	96993280	48	4472
2026-01-02 11:51:24.02	168.90	11.38	-38.4	-40.3	22.7	6.06e-01	0	53	0	98566144	48	4487
2026-01-02 11:51:25.03	168.92	11.48	-38.3	-40.3	22.8	6.06e-01	0	53	0	100663296	48	4467
2026-01-02 11:51:26.04	168.94	11.58	-38.4	-40.4	22.7	6.06e-01	0	53	0	102236160	48	4497
2026-01-02 11:51:27.05	168.97	11.69	-38.4	-40.4	22.7	6.06e-01	0	53	0	104333312	48	4502
2026-01-02 11:51:28.06	168.99	11.79	-38.4	-40.3	22.8	6.06e-01	0	53	0	106430464	48	4489
2026-01-02 11:51:29.07	169.01	11.89	-38.4	-40.3	22.8	6.05e-01	0	53	0	108003328	48	4487
2026-01-02 11:51:30.08	169.04	11.99	-38.4	-40.4	22.7	6.05e-01	0	53	0	110100480	48	4532
2026-01-02 11:51:31.09	169.06	12.10	-38.4	-40.4	22.7	6.06e-01	0	53	0	111673344	48	4517
2026-01-02 11:51:32.10	169.08	12.20	-38.4	-40.4	22.7	6.01e-01	0	53	0	113770496	48	4513
2026-01-02 11:51:33.11	169.10	12.31	-38.4	-40.3	22.8	6.04e-01	0	53	0	115867648	48	4478
2026-01-02 11:51:34.12	169.13	12.41	-38.4	-40.4	22.8	6.07e-01	0	53	0	117440512	48	4501
2026-01-02 11:51:35.13	169.15	12.52	-38.4	-40.4	22.8	6.07e-01	0	53	0	119537664	48	4516
2026-01-02 11:51:36.14	169.18	12.62	-38.5	-40.5	22.7	6.04e-01	0	53	0	121634816	48	4556
2026-01-02 11:51:37.15	169.20	12.73	-38.4	-40.4	22.8	6.05e-01	0	53	0	123207680	48	4530
2026-01-02 11:51:38.16	169.22	12.84	-38.4	-40.4	22.8	6.06e-01	0	54	0	125304832	48	4522
2026-01-02 11:51:39.17	169.25	12.94	-38.4	-40.4	22.8	6.07e-01	0	53	0	126877696	48	4506
2026-01-02 11:51:40.18	169.27	13.05	-38.4	-40.4	22.9	6.07e-01	0	53	0	128974848	48	4496
2026-01-02 11:51:41.19	169.30	13.16	-38.4	-40.3	22.9	6.07e-01	0	53	0	131072000	48	4488
2026-01-02 11:51:42.20	169.32	13.27	-38.3	-40.2	23.0	6.07e-01	0	53	0	132644864	48	4435
2026-01-02 11:51:43.21	169.35	13.38	-38.3	-40.2	23.0	6.09e-01	0	54	0	134742016	48	4434
2026-01-02 11:51:44.22	169.37	13.49	-38.2	-40.2	23.0	6.06e-01	0	53	0	136314880	48	4394
2026-01-02 11:51:45.23	169.40	13.60	-38.2	-40.1	23.1	6.05e-01	0	53	0	138412032	48	4367
2026-01-02 11:51:46.24	169.42	13.71	-38.1	-40.0	23.2	6.06e-01	0	53	0	140509184	48	4331
2026-01-02 11:51:47.25	169.45	13.82	-38.1	-40.0	23.3	6.06e-01	0	54	0	142082048	48	4306
2026-01-02 11:51:48.26	169.48	13.93	-38.0	-39.9	23.3	6.07e-01	0	53	0	144179200	48	4272
2026-01-02 11:51:49.27	169.50	14.05	-38.0	-39.8	23.4	6.05e-01	0	54	0	145752064	48	4242
2026-01-02 11:51:50.28	169.53	14.16	-37.6	-39.5	23.3	6.06e-01	0	54	0	147849216	47	4296
2026-01-02 11:51:51.29	169.55	14.28	-37.6	-39.4	23.4	6.04e-01	0	54	0	149946368	47	4270
2026-01-02 11:51:52.30	169.58	14.39	-37.6	-39.4	23.4	6.05e-01	0	53	0	151519232	47	4271
2026-01-02 11:51:53.31	169.61	14.51	-37.6	-39.4	23.4	6.03e-01	0	54	0	153616384	47	4272
2026-01-02 11:51:54.32	169.63	14.62	-37.5	-39.4	23.5	6.06e-01	0	54	0	155189248	47	4257
2026-01-02 11:51:55.32	169.66	14.74	-37.6	-39.4	23.5	6.06e-01	0	54	0	157286400	47	4259
2026-01-02 11:51:56.33	169.69	14.85	-37.6	-39.4	23.5	6.06e-01	0	54	0	159383552	47	4270
2026-01-02 11:51:57.34	169.72	14.97	-37.6	-39.4	23.4	6.07e-01	0	54	0	160956416	47	4287
2026-01-02 11:51:58.35	169.74	15.09	-37.6	-39.5	23.5	6.05e-01	0	54	0	163053568	47	4297
2026-01-02 11:51:59.36	169.77	15.21	-37.6	-39.5	23.5	6.07e-01	0	54	0	165150720	47	4293
2026-01-02 11:52:00.37	169.80	15.33	-37.7	-39.5	23.4	6.06e-01	0	54	0	166723584	47	4317
2026-01-02 11:52:01.38	169.83	15.45	-37.7	-39.5	23.3	6.07e-01	0	54	0	168820736	47	4330
2026-01-02 11:52:02.39	169.86	15.57	-37.7	-39.5	23.4	6.07e-01	0	54	0	170393600	47	4329
2026-01-02 11:52:03.40	169.89	15.69	-37.7	-39.5	23.4	6.06e-01	0	54	0	172490752	47	4324
2026-01-02 11:52:04.41	169.92	15.82	-37.6	-39.5	23.4	6.04e-01	0	54	0	174587904	47	4315
2026-01-02 11:52:05.42	169.95	15.94	-37.7	-39.5	23.4	6.07e-01	0	54	0	176160768	47	4319
2026-01-02 11:52:06.43	169.98	16.06	-37.6	-39.5	23.4	6.07e-01	0	54	0	178257920	47	4315
2026-01-02 11:52:07.44	170.01	16.19	-37.6	-39.4	23.5	6.07e-01	0	54	0	179830784	47	4286
2026-01-02 11:52:08.45	170.04	16.31	-37.6	-39.4	23.5	6.07e-01	0	54	0	181927936	47	4257
2026-01-02 11:52:09.46	170.07	16.44	-37.5	-39.3	23.6	6.04e-01	0	54	0	184025088	47	4205
2026-01-02 11:52:10.47	170.10	16.56	-37.5	-39.3	23.7	6.04e-01	0	54	0	185597952	46	4462
2026-01-02 11:52:11.48	170.13	16.69	-37.4	-39.2	23.7	6.07e-01	0	54	0	187695104	46	4438
2026-01-02 11:52:12.49	170.16	16.82	-37.4	-39.2	23.7	6.05e-01	0	54	0	189792256	46	4428
2026-01-02 11:52:13.50	170.19	16.95	-37.4	-39.2	23.7	6.07e-01	0	54	0	191365120	46	4408
2026-01-02 11:52:14.51	170.22	17.08	-37.4	-39.2	23.8	6.05e-01	0	54	0	193462272	46	4403
2026-01-02 11:52:15.52	170.25	17.21	-37.4	-39.2	23.8	6.05e-01	0	54	0	195035136	46	4404
2026-01-02 11:52:16.53	170.29	17.34	-37.4	-39.2	23.8	6.07e-01	0	54	0	197132288	46	4413
2026-01-02 11:52:17.54	170.32	17.47	-37.5	-39.2	23.7	6.06e-01	0	54	0	199229440	46	4439
2026-01-02 11:52:18.55	170.35	17.60	-37.5	-39.3	23.7	6.04e-01	0	54	0	200802304	46	4454
2026-01-02 11:52:19.56	170.38	17.74	-37.5	-39.3	23.7	6.06e-01	0	54	0	202899456	46	4458
2026-01-02 11:52:20.57	170.42	17.87	-37.5	-39.3	23.6	6.08e-01	0	54	0	204472320	46	4489
2026-01-02 11:52:21.58	170.45	18.01	-37.5	-39.3	23.6	6.05e-01	0	54	0	206569472	46	4477
2026-01-02 11:52:22.59	170.48	18.14	-37.5	-39.4	23.6	6.05e-01	0	54	0	208666624	46	4496
2026-01-02 11:52:23.60	170.52	18.28	-37.5	-39.3	23.6	6.06e-01	0	54	0	210239488	46	4488
2026-01-02 11:52:24.61	170.55	18.42	-37.5	-39.4	23.6	6.05e-01	0	54	0	212336640	46	4495
2026-01-02 11:52:25.61	170.59	18.55	-37.5	-39.4	23.6	6.05e-01	0	54	0	213909504	46	4495
2026-01-02 11:52:26.62	170.62	18.69	-37.6	-39.4	23.6	6.04e-01	0	54	0	216006656	46	4525
2026-01-02 11:52:27.63	170.66	18.83	-37.6	-39.4	23.6	6.06e-01	0	54	0	218103808	46	4535
2026-01-02 11:52:28.64	170.69	18.97	-37.6	-39.4	23.6	6.09e-01	0	54	0	219676672	46	4542
2026-01-02 11:52:29.65	170.73	19.11	-37.6	-39.4	23.6	6.06e-01	0	54	0	221773824	46	4544
2026-01-02 11:52:30.66	170.77	19.26	-37.7	-39.5	23.5	6.06e-01	0	54	0	223346688	46	4567
2026-01-02 11:52:31.67	170.80	19.40	-37.6	-39.5	23.5	6.05e-01	0	54	0	225443840	46	4552
2026-01-02 11:52:32.68	170.84	19.54	-37.6	-39.4	23.6	6.03e-01	0	54	0	227540992	46	4528
2026-01-02 11:52:33.69	170.88	19.69	-37.6	-39.4	23.6	6.06e-01	0	54	0	229113856	46	4501
2026-01-02 11:52:34.70	170.91	19.84	-37.6	-39.4	23.6	6.08e-01	0	54	0	231211008	46	4509
2026-01-02 11:52:35.72	170.95	19.98	-37.5	-39.4	23.7	6.06e-01	0	55	0	233308160	46	4498
2026-01-02 11:52:36.72	170.99	20.13	-37.5	-39.3	23.7	6.08e-01	0	54	0	234881024	46	4490
2026-01-02 11:52:37.73	171.03	20.28	-37.5	-39.3	23.7	6.08e-01	0	55	0	236978176	46	4483
2026-01-02 11:52:38.74	171.07	20.43	-37.6	-39.4	23.7	6.07e-01	0	54	0	238551040	46	4515
2026-01-02 11:52:39.75	171.11	20.58	-37.6	-39.4	23.7	6.06e-01	0	55	0	240648192	46	4494
2026-01-02 11:52:40.76	171.15	20.73	-37.7	-39.5	23.6	6.06e-01	0	54	0	242745344	46	4571
2026-01-02 11:52:41.77	171.19	20.89	-37.7	-39.6	23.5	6.08e-01	0	54	0	244318208	46	4601
2026-01-02 11:52:42.78	171.23	21.04	-37.8	-39.6	23.4	6.10e-01	0	55	0	246415360	46	4648
2026-01-02 11:52:43.79	171.27	21.20	-37.9	-39.7	23.3	6.06e-01	0	55	0	247988224	46	4701
2026-01-02 11:52:44.80	171.31	21.35	-37.9	-39.8	23.3	6.04e-01	0	54	0	250085376	46	4742
2026-01-02 11:52:45.81	171.35	21.51	-38.0	-39.9	23.2	6.07e-01	0	55	0	252182528	46	4782
2026-01-02 11:52:46.82	171.40	21.67	-38.0	-39.9	23.2	6.06e-01	0	55	0	253755392	46	4763
2026-01-02 11:52:47.84	171.44	21.83	-38.0	-39.9	23.2	6.07e-01	0	55	0	255852544	46	4763
2026-01-02 11:52:48.84	171.48	21.99	-37.9	-39.8	23.3	6.05e-01	0	55	0	257949696	46	4718
2026-01-02 11:52:49.85	171.52	22.15	-37.8	-39.7	23.4	6.07e-01	0	55	0	259522560	46	4684
2026-01-02 11:52:50.86	171.57	22.31	-37.8	-39.6	23.4	6.07e-01	0	55	0	261619712	46	4645
2026-01-02 11:52:51.87	171.61	22.47	-37.8	-39.6	23.4	6.02e-01	0	55	0	263192576	46	4646
2026-01-02 11:52:52.88	171.66	22.64	-37.8	-39.6	23.5	6.07e-01	0	55	0	265289728	46	4646
2026-01-02 11:52:53.89	171.70	22.80	-37.8	-39.6	23.5	6.09e-01	0	55	0	267386880	46	4641
2026-01-02 11:52:54.90	171.75	22.97	-37.8	-39.7	23.5	6.05e-01	0	55	0	268959744	46	4653
2026-01-02 11:52:55.91	171.80	23.14	-37.9	-39.7	23.4	6.06e-01	0	55	0	271056896	46	4699
2026-01-02 11:52:56.92	171.84	23.31	-37.9	-39.8	23.3	6.06e-01	0	55	0	272629760	46	4726
2026-01-02 11:52:57.93	171.89	23.48	-37.9	-39.8	23.3	6.06e-01	0	55	0	274726912	46	4735
2026-01-02 11:52:58.94	171.94	23.65	-37.9	-39.8	23.3	6.06e-01	0	55	0	276824064	46	4740
2026-01-02 11:52:59.95	171.99	23.83	-38.0	-39.9	23.3	6.07e-01	0	55	0	278396928	46	4773
2026-01-02 11:53:00.96	172.03	24.00	-37.9	-39.8	23.3	6.06e-01	0	55	0	280494080	46	4732
2026-01-02 11:53:01.97	172.08	24.18	-37.9	-39.8	23.3	6.07e-01	0	55	0	282066944	46	4728
2026-01-02 11:53:02.98	172.13	24.35	-37.9	-39.8	23.4	6.07e-01	0	55	0	284164096	46	4731
2026-01-02 11:53:03.99	172.18	24.53	-38.0	-39.9	23.3	6.07e-01	0	55	0	286261248	46	4777
2026-01-02 11:53:05.00	172.23	24.71	-38.0	-39.9	23.2	6.08e-01	0	55	0	287834112	46	4805
2026-01-02 11:53:06.01	172.29	24.89	-38.1	-40.0	23.1	6.07e-01	0	55	0	289931264	46	4839
2026-01-02 11:53:07.02	172.34	25.07	-38.1	-40.0	23.1	6.06e-01	0	55	0	291504128	46	4846
2026-01-02 11:53:08.03	172.39	25.26	-38.1	-40.0	23.2	6.06e-01	0	55	0	293601280	46	4825
2026-01-02 11:53:09.04	172.44	25.44	-38.0	-39.9	23.2	6.06e-01	0	55	0	295698432	46	4795
2026-01-02 11:53:10.04	172.50	25.63	-37.9	-39.8	23.3	6.07e-01	0	55	0	297271296	46	4727
2026-01-02 11:53:11.05	172.55	25.81	-37.8	-39.7	23.5	6.07e-01	0	55	0	299368448	46	4671
2026-01-02 11:53:12.06	172.61	26.00	-37.9	-39.8	23.4	6.05e-01	0	55	0	301465600	46	4723
2026-01-02 11:53:13.07	172.66	26.19	-37.9	-39.8	23.4	6.06e-01	0	55	0	303038464	46	4720
2026-01-02 11:53:14.09	172.72	26.39	-37.9	-39.8	23.3	6.06e-01	0	55	0	305135616	46	4731
2026-01-02 11:53:15.09	172.78	26.58	-37.9	-39.7	23.5	6.07e-01	0	55	0	306708480	46	4682
2026-01-02 11:53:16.10	172.84	26.77	-37.8	-39.6	23.6	6.05e-01	0	55	0	308805632	46	4610
2026-01-02 11:53:17.11	172.89	26.97	-37.6	-39.4	23.8	6.05e-01	0	55	0	310902784	46	4498
2026-01-02 11:53:18.12	172.95	27.17	-37.5	-39.2	24.0	6.05e-01	0	55	0	312475648	46	4416
2026-01-02 11:53:19.13	173.01	27.37	-37.4	-39.1	24.0	6.05e-01	0	55	0	314572800	46	4388
2026-01-02 11:53:20.14	173.07	27.57	-37.4	-39.1	24.0	6.05e-01	0	55	0	316145664	46	4391
2026-01-02 11:53:21.15	173.14	27.77	-37.5	-39.3	23.9	6.08e-01	0	55	0	318242816	46	4447
2026-01-02 11:53:22.16	173.20	27.97	-37.5	-39.3	23.9	6.07e-01	0	55	0	320339968	46	4450
2026-01-02 11:53:23.17	173.26	28.18	-37.5	-39.3	23.9	6.05e-01	0	55	0	321912832	46	4447
2026-01-02 11:53:24.18	173.32	28.39	-37.5	-39.2	23.9	6.06e-01	0	55	0	324009984	46	4439
2026-01-02 11:53:25.19	173.39	28.59	-37.4	-39.1	24.1	6.07e-01	0	55	0	326107136	46	4369
2026-01-02 11:53:26.20	173.46	28.81	-37.3	-39.0	24.2	6.05e-01	0	55	0	327680000	46	4333
2026-01-02 11:53:27.21	173.52	29.02	-37.4	-39.1	24.1	6.06e-01	0	55	0	329777152	46	4369
2026-01-02 11:53:28.22	173.59	29.23	-37.4	-39.2	24.0	6.06e-01	0	55	0	331350016	46	4406
2026-01-02 11:53:29.23	173.66	29.45	-37.4	-39.2	24.0	6.07e-01	0	55	0	333447168	46	4396
2026-01-02 11:53:30.24	173.73	29.66	-37.3	-39.1	24.1	6.06e-01	0	55	0	335544320	46	4359
2026-01-02 11:53:31.25	173.80	29.88	-37.3	-39.0	24.2	6.05e-01	0	55	0	337117184	46	4320
2026-01-02 11:53:32.26	173.87	30.10	-37.3	-39.0	24.2	6.06e-01	0	55	0	339214336	46	4306
2026-01-02 11:53:33.27	173.94	30.33	-37.3	-39.0	24.2	6.07e-01	0	55	0	340787200	46	4316
2026-01-02 11:53:34.28	174.01	30.55	-37.3	-39.1	24.1	6.03e-01	0	55	0	342884352	46	4350
2026-01-02 11:53:35.29	174.09	30.78	-37.4	-39.1	24.1	6.08e-01	0	55	0	344981504	46	4384
2026-01-02 11:53:36.30	174.16	31.01	-37.4	-39.1	24.1	6.04e-01	0	55	0	346554368	46	4373
2026-01-02 11:53:37.31	174.24	31.24	-37.3	-39.0	24.2	6.05e-01	0	55	0	348651520	46	4327
2026-01-02 11:53:38.32	174.31	31.47	-37.3	-39.0	24.2	6.07e-01	0	55	0	350224384	46	4301
2026-01-02 11:53:39.33	174.39	31.70	-37.4	-39.1	24.1	6.05e-01	0	55	0	352321536	46	4370
2026-01-02 11:53:40.34	174.47	31.94	-37.6	-39.4	23.9	6.05e-01	0	55	0	354418688	46	4501
2026-01-02 11:53:41.35	174.55	32.18	-37.8	-39.6	23.6	6.05e-01	0	55	0	355991552	46	4628
2026-01-02 11:53:42.36	174.63	32.42	-37.8	-39.6	23.6	6.06e-01	0	55	0	358088704	46	4627
2026-01-02 11:53:43.37	174.71	32.66	-37.7	-39.5	23.8	6.07e-01	0	55	0	359661568	46	4555
2026-01-02 11:53:44.38	174.80	32.90	-37.7	-39.5	23.8	6.06e-01	0	55	0	361758720	46	4560
2026-01-02 11:53:45.39	174.88	33.15	-37.8	-39.6	23.6	6.06e-01	0	55	0	363855872	46	4640
2026-01-02 11:53:46.40	174.97	33.40	-38.0	-39.9	23.4	6.05e-01	0	55	0	365428736	46	4780
2026-01-02 11:53:47.41	175.06	33.65	-38.1	-40.0	23.2	6.06e-01	0	55	0	367525888	46	4870
2026-01-02 11:53:48.42	175.15	33.90	-38.2	-40.1	23.2	6.06e-01	0	55	0	369623040	46	4873
2026-01-02 11:53:49.43	175.24	34.15	-38.2	-40.1	23.1	6.06e-01	0	55	0	371195904	47	4641
2026-01-02 11:53:50.44	175.33	34.41	-38.2	-40.1	23.2	6.06e-01	0	55	0	373293056	47	4627
2026-01-02 11:53:51.45	175.42	34.67	-38.2	-40.1	23.2	6.05e-01	0	55	0	374865920	47	4641
2026-01-02 11:53:52.46	175.52	34.93	-38.4	-40.3	23.0	6.05e-01	0	55	0	376963072	47	4738
2026-01-02 11:53:53.47	175.61	35.19	-38.5	-40.4	22.9	6.03e-01	0	55	0	379060224	47	4808
2026-01-02 11:53:54.48	175.71	35.46	-38.6	-40.6	22.7	6.05e-01	0	55	0	380633088	47	4926
2026-01-02 11:53:55.49	175.81	35.72	-39.2	-41.3	22.4	6.07e-01	0	55	0	382730240	49	4731
2026-01-02 11:53:56.50	175.91	35.99	-39.4	-41.5	22.2	6.04e-01	0	55	0	384303104	49	4829
2026-01-02 11:53:57.51	176.02	36.27	-39.2	-41.2	22.5	6.07e-01	0	55	0	386400256	49	4702
2026-01-02 11:53:58.52	176.12	36.54	-39.2	-41.2	22.5	6.06e-01	0	56	0	388497408	49	4673
2026-01-02 11:53:59.53	176.23	36.82	-39.3	-41.4	22.4	6.05e-01	0	55	0	390070272	49	4776
2026-01-02 11:54:00.54	176.34	37.10	-39.7	-41.9	21.9	6.05e-01	0	55	0	392167424	49	5071
2026-01-02 11:54:01.55	176.45	37.38	-39.9	-42.1	21.7	6.06e-01	0	55	0	394264576	50	4898
2026-01-02 11:54:02.56	176.56	37.66	-39.9	-42.2	21.6	6.06e-01	0	55	0	395837440	50	4950
2026-01-02 11:54:03.57	176.67	37.95	-39.9	-42.1	21.6	6.05e-01	0	55	0	397934592	50	4908
2026-01-02 11:54:04.57	176.79	38.24	-39.7	-41.9	21.9	6.06e-01	0	55	0	399507456	50	4788
2026-01-02 11:54:05.58	176.90	38.53	-39.7	-41.9	21.9	6.07e-01	0	55	0	401604608	50	4796
2026-01-02 11:54:06.59	177.02	38.82	-40.0	-42.2	21.6	6.04e-01	0	55	0	403701760	50	4963
2026-01-02 11:54:07.60	177.15	39.12	-40.1	-42.4	21.4	6.05e-01	0	56	0	405274624	50	5073
2026-01-02 11:54:08.61	177.27	39.42	-40.0	-42.3	21.5	6.06e-01	0	56	0	407371776	50	5013
2026-01-02 11:54:09.62	177.40	39.72	-39.7	-41.9	21.8	6.06e-01	0	56	0	408944640	50	4802
2026-01-02 11:54:10.63	177.53	40.03	-39.7	-41.9	21.9	6.07e-01	0	55	0	411041792	50	4781
2026-01-02 11:54:11.64	177.66	40.33	-39.6	-41.8	22.0	6.05e-01	0	56	0	413138944	50	4706
2026-01-02 11:54:12.65	177.79	40.64	-39.5	-41.6	22.1	6.07e-01	0	56	0	414711808	50	4645
2026-01-02 11:54:13.66	177.93	40.96	-39.3	-41.3	22.4	6.06e-01	0	56	0	416808960	50	4489
2026-01-02 11:54:14.67	178.07	41.27	-39.2	-41.2	22.5	6.05e-01	0	55	0	418381824	50	4438
2026-01-02 11:54:15.68	178.21	41.59	-39.0	-41.0	22.7	6.05e-01	0	55	0	420478976	50	4311
2026-01-02 11:54:16.69	178.35	41.91	-38.8	-40.7	23.0	6.07e-01	0	56	0	422576128	49	4426
2026-01-02 11:54:17.70	178.50	42.23	-38.9	-40.8	22.9	6.06e-01	0	55	0	424148992	49	4478
2026-01-02 11:54:18.71	178.65	42.56	-38.8	-40.7	23.0	6.08e-01	0	55	0	426246144	49	4423
2026-01-02 11:54:19.72	178.81	42.89	-38.3	-40.1	23.5	6.06e-01	0	56	0	427819008	48	4390
2026-01-02 11:54:20.73	178.96	43.22	-38.2	-40.0	23.8	6.06e-01	0	56	0	429916160	48	4296
2026-01-02 11:54:21.74	179.12	43.56	-38.1	-39.9	23.8	6.07e-01	0	56	0	432013312	48	4267
2026-01-02 11:54:22.75	179.29	43.89	-38.0	-39.8	23.9	6.05e-01	0	56	0	433586176	48	4203
2026-01-02 11:54:23.76	179.45	44.23	-37.6	-39.3	24.0	6.06e-01	0	55	0	435683328	47	4229
2026-01-02 11:54:24.77	179.62	44.58	-37.5	-39.2	24.1	6.04e-01	0	56	0	437780480	46	4415
2026-01-02 11:54:25.78	179.80	44.92	-37.5	-39.2	24.1	6.05e-01	0	56	0	439353344	46	4411
2026-01-02 11:54:26.79	179.98	45.27	-37.8	-39.6	23.8	6.04e-01	0	55	0	441450496	46	4605
2026-01-02 11:54:27.80	180.16	45.63	-37.8	-39.6	23.8	6.06e-01	0	56	0	443023360	46	4599
2026-01-02 11:54:28.80	180.34	45.98	-37.2	-38.9	24.3	6.05e-01	0	55	0	445120512	46	4284
2026-01-02 11:54:29.81	180.53	46.34	-37.5	-39.3	24.0	6.07e-01	0	56	0	447217664	46	4458
2026-01-02 11:54:30.82	180.73	46.70	-37.7	-39.5	23.8	6.07e-01	0	55	0	448790528	46	4562
2026-01-02 11:54:31.83	180.93	47.06	-37.5	-39.3	24.0	6.06e-01	0	55	0	450887680	46	4467
2026-01-02 11:54:32.84	181.13	47.43	-37.6	-39.3	24.0	6.05e-01	0	55	0	452460544	46	4489
2026-01-02 11:54:33.85	181.34	47.80	-37.7	-39.4	23.9	6.07e-01	0	55	0	454557696	46	4536
2026-01-02 11:54:34.86	181.55	48.17	-37.7	-39.5	23.8	6.07e-01	0	56	0	456654848	46	4586
2026-01-02 11:54:35.87	181.77	48.55	-37.6	-39.3	24.0	6.07e-01	0	56	0	458227712	46	4480
2026-01-02 11:54:36.88	182.00	48.92	-37.4	-39.1	24.2	6.06e-01	0	56	0	460324864	46	4358
2026-01-02 11:54:37.89	182.23	49.31	-37.7	-39.5	23.8	6.03e-01	0	55	0	462422016	46	4561
2026-01-02 11:54:38.90	182.46	49.69	-37.8	-39.5	23.8	6.06e-01	0	56	0	463994880	46	4595
2026-01-02 11:54:39.91	182.70	50.08	-37.4	-39.1	24.2	6.06e-01	0	56	0	466092032	46	4388
2026-01-02 11:54:40.92	182.95	50.47	-37.1	-38.7	24.6	6.05e-01	0	56	0	467664896	46	4178
2026-01-02 11:54:41.93	183.21	50.86	-37.1	-38.8	24.5	6.06e-01	0	55	0	469762048	46	4213
2026-01-02 11:54:42.94	183.47	51.26	-37.2	-38.9	24.5	6.08e-01	0	56	0	471859200	46	4246
2026-01-02 11:54:43.95	183.74	51.66	-37.1	-38.8	24.5	6.05e-01	0	56	0	473432064	46	4199
2026-01-02 11:54:44.96	184.01	52.06	-36.9	-38.5	24.8	6.05e-01	0	56	0	475529216	45	4305
2026-01-02 11:54:45.96	184.29	52.46	-36.7	-38.3	24.9	6.05e-01	0	56	0	477102080	45	4229
2026-01-02 11:54:46.97	184.58	52.87	-36.7	-38.3	24.9	6.07e-01	0	56	0	479199232	45	4228
2026-01-02 11:54:47.98	184.88	53.28	-36.8	-38.4	24.9	6.08e-01	0	55	0	480772096	45	4283
2026-01-02 11:54:48.99	185.19	53.69	-37.0	-38.6	24.7	6.05e-01	0	55	0	482869248	45	4373
2026-01-02 11:54:50.00	185.51	54.11	-36.8	-38.4	24.9	6.05e-01	0	56	0	484966400	45	4281
2026-01-02 11:54:51.01	185.83	54.52	-37.1	-38.8	24.5	6.06e-01	0	56	0	486539264	45	4473
2026-01-02 11:54:52.02	186.17	54.94	-37.2	-38.8	24.5	6.08e-01	0	56	0	488636416	45	4485
2026-01-02 11:54:53.03	186.51	55.37	-37.3	-39.0	24.3	6.04e-01	0	56	0	490733568	45	4582
2026-01-02 11:54:54.04	186.87	55.79	-37.7	-39.5	23.9	6.06e-01	0	56	0	492306432	45	4825
2026-01-02 11:54:55.05	187.23	56.22	-37.7	-39.5	23.9	6.07e-01	0	56	0	494403584	46	4550
2026-01-02 11:54:56.06	187.61	56.65	-38.1	-39.9	23.5	6.05e-01	0	56	0	495976448	46	4802
2026-01-02 11:54:57.07	188.00	57.09	-38.0	-39.8	23.5	6.05e-01	0	56	0	498073600	46	4741
2026-01-02 11:54:58.08	188.41	57.52	-38.3	-40.2	23.2	6.08e-01	0	56	0	500170752	47	4678
2026-01-02 11:54:59.09	188.82	57.96	-38.4	-40.3	23.0	6.07e-01	0	56	0	501743616	47	4741
2026-01-02 11:55:00.09	189.25	58.39	-38.5	-40.5	22.9	6.05e-01	0	56	0	503840768	47	4826
2026-01-02 11:55:01.10	189.69	58.83	-38.6	-40.5	22.9	6.06e-01	0	56	0	505937920	47	4864
2026-01-02 11:55:02.11	190.15	59.27	-39.2	-41.2	22.6	6.07e-01	0	56	0	507510784	48	4936
2026-01-02 11:55:03.12	190.63	59.72	-39.3	-41.3	22.5	6.07e-01	0	56	0	509607936	49	4727
2026-01-02 11:55:04.13	191.12	60.16	-39.4	-41.4	22.4	6.05e-01	0	56	0	511180800	49	4804
2026-01-02 11:55:05.14	191.63	60.61	-39.5	-41.6	22.2	6.07e-01	0	56	0	513277952	49	4926
2026-01-02 11:55:06.15	192.15	61.06	-39.8	-41.9	21.9	6.05e-01	0	56	0	515375104	50	4803
2026-01-02 11:55:07.16	192.70	61.51	-40.0	-42.3	21.6	6.06e-01	0	56	0	516947968	50	4989
2026-01-02 11:55:08.17	193.26	61.96	-40.1	-42.4	21.5	6.06e-01	0	56	0	519045120	50	5042
2026-01-02 11:55:09.18	193.85	62.41	-40.3	-42.7	21.1	6.05e-01	0	56	0	520617984	51	4958
2026-01-02 11:55:10.19	194.46	62.86	-40.5	-43.0	20.8	6.06e-01	0	56	0	522715136	51	5130
2026-01-02 11:55:11.20	195.09	63.31	-40.6	-43.1	20.8	6.06e-01	0	56	0	524812288	51	5188
2026-01-02 11:55:12.21	195.75	63.76	-40.9	-43.6	20.2	6.04e-01	0	56	0	526385152	52	5201
2026-01-02 11:55:13.22	196.43	64.21	-40.9	-43.6	20.2	6.06e-01	0	56	0	528482304	52	5177
2026-01-02 11:55:14.23	197.15	64.67	-41.2	-44.0	19.7	6.06e-01	0	56	0	530055168	53	5159
2026-01-02 11:55:15.24	197.88	65.12	-41.5	-44.4	19.4	6.05e-01	0	56	0	532152320	53	5366
2026-01-02 11:55:16.25	198.65	65.56	-41.3	-44.1	19.6	6.07e-01	0	56	0	534249472	53	5194
2026-01-02 11:55:17.26	199.45	66.01	-41.5	-44.4	19.4	6.06e-01	0	56	0	535822336	53	5392
2026-01-02 11:55:18.27	200.29	66.46	-41.7	-44.8	18.9	6.06e-01	0	56	0	537919488	53	5635
2026-01-02 11:55:19.28	201.16	66.90	-41.9	-45.1	18.7	6.08e-01	0	56	0	539492352	54	5487
2026-01-02 11:55:20.29	202.07	67.34	-41.7	-44.8	18.9	6.08e-01	0	56	0	541589504	54	5327
2026-01-02 11:55:21.30	203.01	67.78	-42.4	-46.0	17.8	6.09e-01	0	56	0	543686656	55	5733
2026-01-02 11:55:22.31	204.00	68.21	-42.5	-46.3	17.5	6.07e-01	0	56	0	545259520	55	5931
2026-01-02 11:55:23.32	205.03	68.64	-42.0	-45.3	18.5	6.06e-01	0	56	0	547356672	55	5291
2026-01-02 11:55:24.33	206.11	69.07	-42.4	-46.0	17.8	6.07e-01	0	56	0	548929536	55	5753
2026-01-02 11:55:25.34	207.23	69.49	-42.4	-45.9	17.8	6.07e-01	0	56	0	551026688	55	5700
2026-01-02 11:55:26.35	208.40	69.90	-42.0	-45.3	18.3	6.08e-01	0	56	0	553123840	55	5315
2026-01-02 11:55:27.36	209.63	70.31	-41.8	-45.0	18.7	6.04e-01	0	56	0	554696704	55	5148
2026-01-02 11:55:28.37	210.91	70.71	-42.0	-45.3	18.4	6.07e-01	0	56	0	556793856	55	5312
2026-01-02 11:55:29.38	212.25	71.11	-41.1	-43.9	19.8	6.07e-01	0	56	0	558891008	54	4801
2026-01-02 11:55:30.39	213.65	71.49	-41.1	-43.9	19.8	6.08e-01	0	56	0	560463872	54	4769
2026-01-02 11:55:31.40	215.11	71.87	-41.0	-43.7	20.0	6.03e-01	0	56	0	562561024	53	4958
2026-01-02 11:55:32.41	216.64	72.23	-40.7	-43.4	20.3	6.06e-01	0	56	0	564133888	53	4762
2026-01-02 11:55:33.41	218.21	72.58	-40.5	-43.0	20.7	6.07e-01	0	56	0	566231040	52	4843
2026-01-02 11:55:34.42	219.87	72.93	-40.6	-43.2	20.5	6.06e-01	0	56	0	568328192	52	4930
2026-01-02 11:55:35.44	221.62	73.26	-40.2	-42.6	21.0	6.06e-01	0	56	0	569901056	52	4600
2026-01-02 11:55:36.44	223.40	73.57	-40.4	-42.8	20.9	6.07e-01	0	56	0	571998208	52	4738
2026-01-02 11:55:37.45	225.27	73.87	-40.6	-43.1	20.6	6.08e-01	0	56	0	574095360	52	4874
2026-01-02 11:55:38.46	227.22	74.15	-40.3	-42.8	20.8	6.09e-01	0	56	0	575668224	52	4759
2026-01-02 11:55:39.47	229.23	74.42	-40.6	-43.1	20.6	6.07e-01	0	56	0	577765376	52	4898
2026-01-02 11:55:40.48	231.32	74.67	-40.6	-43.1	20.6	6.07e-01	0	56	0	579338240	52	4893
2026-01-02 11:55:41.49	233.47	74.90	-40.0	-42.4	21.2	6.06e-01	0	56	0	581435392	52	4511
2026-01-02 11:55:42.50	235.69	75.10	-40.5	-43.1	20.7	6.08e-01	0	56	0	583532544	51	5176
2026-01-02 11:55:43.51	237.98	75.29	-40.2	-42.6	21.0	6.05e-01	0	56	0	585105408	51	4924
2026-01-02 11:55:44.52	240.31	75.45	-39.6	-41.8	21.9	6.07e-01	0	56	0	587202560	51	4488
2026-01-02 11:55:45.53	242.70	75.59	-40.3	-42.7	21.0	6.08e-01	0	56	0	588775424	51	4969
2026-01-02 11:55:46.54	245.14	75.70	-39.6	-41.8	21.9	6.06e-01	0	56	0	590872576	51	4453
2026-01-02 11:55:47.55	247.60	75.79	-39.6	-41.7	21.9	6.05e-01	0	56	0	592969728	50	4683
2026-01-02 11:55:48.56	250.10	75.86	-40.2	-42.6	21.2	6.09e-01	0	56	0	594542592	50	5190
2026-01-02 11:55:49.57	252.62	75.90	-39.7	-41.9	21.8	6.06e-01	0	56	0	596639744	51	4526
2026-01-02 11:55:50.58	255.14	75.91	-39.9	-42.2	21.6	6.07e-01	0	56	0	598212608	51	4666
2026-01-02 11:55:51.58	257.64	75.89	-40.2	-42.6	21.1	6.06e-01	0	56	0	600309760	51	4926
2026-01-02 11:55:52.59	260.15	75.85	-39.8	-42.1	21.6	6.06e-01	0	56	0	602406912	50	4884
2026-01-02 11:55:53.60	262.64	75.79	-40.2	-42.6	21.1	6.07e-01	0	56	0	603979776	50	5167
2026-01-02 11:55:54.61	265.11	75.69	-39.9	-42.2	21.5	6.06e-01	0	56	0	606076928	50	4942
2026-01-02 11:55:55.62	267.54	75.58	-38.5	-42.6	20.8	6.09e-01	0	56	0	607649792	50	5190
2026-01-02 11:55:56.63	269.92	75.43	-39.6	-41.8	21.9	6.08e-01	0	56	0	609746944	50	4739
2026-01-02 11:55:57.64	272.25	75.27	-40.0	-42.3	21.5	6.06e-01	0	56	0	611844096	50	4997
2026-01-02 11:55:58.65	274.52	75.08	-39.8	-42.0	21.8	6.05e-01	0	56	0	613416960	50	4832
2026-01-02 11:55:59.66	276.74	74.87	-40.0	-42.3	21.5	6.07e-01	0	56	0	615514112	50	5002
2026-01-02 11:56:00.67	278.88	74.64	-39.7	-42.0	21.7	6.05e-01	0	56	0	617086976	50	4848
2026-01-02 11:56:01.68	280.96	74.39	-40.0	-42.3	21.4	6.08e-01	0	56	0	619184128	50	5025
2026-01-02 11:56:02.69	282.97	74.13	-40.2	-42.5	21.2	6.07e-01	0	56	0	621281280	50	5133
2026-01-02 11:56:03.70	284.90	73.84	-40.0	-42.6	21.0	6.05e-01	0	56	0	622854144	50	5180
2026-01-02 11:56:04.71	286.77	73.54	-40.5	-42.9	20.9	6.07e-01	0	56	0	624951296	51	5083
2026-01-02 11:56:05.72	288.56	73.22	-40.5	-43.0	20.8	6.06e-01	0	56	0	627048448	51	5115
2026-01-02 11:56:06.73	290.28	72.89	-39.9	-42.8	20.9	6.07e-01	0	56	0	628621312	51	5012
2026-01-02 11:56:07.74	291.93	72.55	-40.5	-42.9	20.9	6.05e-01	0	56	0	630718464	51	5082
2026-01-02 11:56:08.75	293.51	72.20	-40.3	-43.1	20.7	6.07e-01	0	56	0	632291328	51	5205
2026-01-02 11:56:09.76	295.03	71.83	-40.2	-42.6	20.9	6.07e-01	0	56	0	634388480	51	4880
2026-01-02 11:56:10.77	296.48	71.45	-40.3	-42.7	21.2	6.09e-01	0	56	0	636485632	51	4938
2026-01-02 11:56:11.78	297.87	71.07	-40.7	-43.2	20.6	6.06e-01	0	56	0	638058496	51	5262
2026-01-02 11:56:12.79	299.20	70.67	-40.3	-42.8	21.0	6.06e-01	0	56	0	640155648	51	5018
2026-01-02 11:56:13.80	300.48	70.27	-40.7	-43.3	20.5	6.05e-01	0	56	0	642252800	52	4995
2026-01-02 11:56:14.81	301.70	69.86	-40.6	-43.1	20.6	6.06e-01	0	56	0	643825664	52	4908
2026-01-02 11:56:15.82	302.86	69.45	-40.7	-43.4	20.3	6.06e-01	0	56	0	645922816	52	5079
2026-01-02 11:56:16.83	303.98	69.03	-41.0	-43.7	20.0	6.05e-01	0	56	0	647495680	52	5243
2026-01-02 11:56:17.84	305.05	68.60	-40.7	-43.3	20.4	6.06e-01	0	56	0	649592832	52	5020
2026-01-02 11:56:18.85	306.08	68.18	-41.1	-43.9	19.9	6.06e-01	0	56	0	651689984	52	5384
2026-01-02 11:56:19.85	307.05	67.75	-40.8	-43.4	20.3	6.03e-01	0	56	0	653262848	52	5077
2026-01-02 11:56:20.86	307.99	67.31	-41.1	-43.8	20.0	6.06e-01	0	56	0	655360000	52	5305
2026-01-02 11:56:21.87	308.89	66.87	-40.7	-43.2	20.5	6.08e-01	0	56	0	656932864	52	4971
2026-01-02 11:56:22.88	309.76	66.43	-40.6	-43.1	20.6	6.06e-01	0	56	0	659030016	52	4889
2026-01-02 11:56:23.89	310.59	65.98	-40.6	-43.1	20.6	6.06e-01	0	56	0	661127168	52	4918
2026-01-02 11:56:24.90	311.38	65.54	-40.2	-42.5	21.2	6.07e-01	0	56	0	662700032	52	4561
2026-01-02 11:56:25.91	312.15	65.09	-40.0	-42.3	21.6	6.09e-01	0	56	0	664797184	51	4709
2026-01-02 11:56:26.92	312.89	64.64	-40.0	-42.3	21.5	6.08e-01	0	56	0	666370048	51	4718
2026-01-02 11:56:27.93	313.59	64.19	-39.8	-42.0	21.8	6.06e-01	0	56	0	668467200	51	4572
2026-01-02 11:56:28.94	314.27	63.74	-39.6	-41.7	22.1	6.07e-01	0	56	0	670564352	51	4424
2026-01-02 11:56:29.95	314.93	63.29	-39.3	-41.3	22.5	6.06e-01	0	56	0	672137216	50	4459
2026-01-02 11:56:30.96	315.56	62.84	-39.6	-41.7	22.1	6.09e-01	0	56	0	674234368	50	4697
2026-01-02 11:56:31.97	316.16	62.39	-39.4	-41.4	22.4	6.07e-01	0	56	0	675807232	50	4533
2026-01-02 11:56:32.98	316.75	61.94	-39.5	-41.5	22.3	6.08e-01	0	56	0	677904384	50	4592
2026-01-02 11:56:33.98	317.31	61.50	-39.3	-41.3	22.5	6.07e-01	0	56	0	680001536	50	4461
2026-01-02 11:56:34.99	317.85	61.05	-39.2	-41.2	22.6	6.06e-01	0	56	0	681574400	50	4434
2026-01-02 11:56:36.00	318.38	60.60	-39.1	-41.1	22.7	6.07e-01	0	56	0	683671552	50	4379
2026-01-02 11:56:37.01	318.88	60.16	-39.2	-41.2	22.6	6.07e-01	0	56	0	685244416	50	4435
2026-01-02 11:56:38.02	319.37	59.71	-39.1	-41.1	22.8	6.07e-01	0	56	0	687341568	50	4345
2026-01-02 11:56:39.04	319.85	59.27	-39.2	-41.2	22.7	6.07e-01	0	56	0	689438720	50	4418
2026-01-02 11:56:40.05	320.31	58.82	-39.0	-41.0	22.8	6.09e-01	0	56	0	691011584	50	4319
2026-01-02 11:56:41.06	320.75	58.39	-38.7	-40.6	23.2	6.07e-01	0	56	0	693108736	49	4361
2026-01-02 11:56:42.06	321.17	57.95	-38.8	-40.8	23.0	6.05e-01	0	56	0	695205888	49	4448
2026-01-02 11:56:43.07	321.59	57.52	-39.1	-41.1	22.8	6.08e-01	0	56	0	696778752	49	4603
2026-01-02 11:56:44.08	321.99	57.08	-38.8	-40.7	23.1	6.04e-01	0	56	0	698875904	49	4431
2026-01-02 11:56:45.10	322.38	56.65	-38.6	-40.5	23.3	6.05e-01	0	56	0	700448768	49	4318
2026-01-02 11:56:46.10	322.76	56.22	-38.2	-40.0	23.7	6.06e-01	0	56	0	702545920	48	4308
2026-01-02 11:56:47.11	323.12	55.80	-37.5	-39.2	24.1	6.05e-01	0	56	0	704643072	47	4184
2026-01-02 11:56:48.12	323.48	55.37	-37.4	-39.1	24.3	6.07e-01	0	56	0	706215936	46	4356
2026-01-02 11:56:49.13	323.82	54.95	-37.3	-39.0	24.4	6.08e-01	0	56	0	708313088	46	4296
2026-01-02 11:56:50.14	324.15	54.53	-37.5	-39.2	24.2	6.05e-01	0	56	0	710410240	46	4426
2026-01-02 11:56:51.15	324.48	54.12	-37.2	-38.9	24.5	6.05e-01	0	56	0	711983104	46	4274
2026-01-02 11:56:52.16	324.79	53.70	-37.4	-39.1	24.3	6.05e-01	0	56	0	714080256	46	4343
2026-01-02 11:56:53.17	325.10	53.29	-37.3	-38.9	24.4	6.07e-01	0	56	0	715653120	46	4286
2026-01-02 11:56:54.18	325.40	52.88	-37.3	-38.9	24.4	6.05e-01	0	56	0	717750272	46	4278
2026-01-02 11:56:55.19	325.69	52.48	-37.4	-39.0	24.3	6.07e-01	0	56	0	719847424	46	4330
2026-01-02 11:56:56.19	325.97	52.08	-37.7	-39.5	23.9	6.06e-01	0	56	0	721420288	46	4565
2026-01-02 11:56:57.20	326.24	51.68	-37.8	-39.6	23.8	6.04e-01	0	56	0	723517440	46	4617
2026-01-02 11:56:58.21	326.51	51.28	-37.7	-39.4	23.9	6.05e-01	0	56	0	725090304	46	4541
2026-01-02 11:56:59.22	326.77	50.89	-37.9	-39.7	23.8	6.05e-01	0	56	0	727187456	46	4665
2026-01-02 11:57:00.23	327.03	50.49	-38.1	-39.9	23.5	6.07e-01	0	56	0	728760320	46	4807
2026-01-02 11:57:01.24	327.27	50.11	-38.1	-39.9	23.5	6.06e-01	0	56	0	730857472	46	4786
2026-01-02 11:57:02.25	327.51	49.72	-38.1	-40.0	23.4	6.03e-01	0	56	0	732954624	46	4821
2026-01-02 11:57:03.26	327.75	49.34	-38.2	-40.0	23.4	6.05e-01	0	56	0	734527488	46	4867
2026-01-02 11:57:04.27	327.98	48.96	-38.3	-40.2	23.2	6.07e-01	0	56	0	736624640	47	4673
2026-01-02 11:57:05.28	328.20	48.58	-38.1	-40.0	23.4	6.04e-01	0	56	0	738721792	47	4567
2026-01-02 11:57:06.29	328.42	48.21	-38.0	-39.8	23.6	6.05e-01	0	56	0	740294656	47	4476
2026-01-02 11:57:07.30	328.64	47.84	-38.1	-39.9	23.5	6.08e-01	0	56	0	742391808	47	4538
2026-01-02 11:57:08.31	328.84	47.47	-38.1	-39.9	23.4	6.05e-01	0	56	0	743964672	47	4524
2026-01-02 11:57:09.32	329.05	47.10	-37.9	-39.7	23.7	6.05e-01	0	56	0	746061824	47	4414
2026-01-02 11:57:10.33	329.25	46.74	-37.9	-39.7	23.7	6.06e-01	0	56	0	748158976	47	4411
2026-01-02 11:57:11.34	329.44	46.38	-37.9	-39.6	23.8	6.06e-01	0	56	0	749731840	47	4378
2026-01-02 11:57:12.35	329.63	46.02	-38.1	-39.9	23.5	6.08e-01	0	56	0	751828992	47	4531
2026-01-02 11:57:13.36	329.82	45.67	-38.3	-40.2	23.2	6.05e-01	0	56	0	753401856	47	4694
2026-01-02 11:57:14.37	330.00	45.32	-38.2	-40.1	23.3	6.06e-01	0	56	0	755499008	47	4617
2026-01-02 11:57:15.38	330.18	44.97	-38.0	-39.8	23.5	6.05e-01	0	56	0	757596160	47	4455
2026-01-02 11:57:16.39	330.35	44.63	-37.8	-39.6	23.7	6.06e-01	0	56	0	759169024	47	4368
2026-01-02 11:57:17.40	330.52	44.29	-37.8	-39.5	23.8	6.06e-01	0	56	0	761266176	47	4321
2026-01-02 11:57:18.41	330.69	43.95	-37.7	-39.5	23.9	6.04e-01	0	56	0	763363328	47	4311
2026-01-02 11:57:19.42	330.85	43.61	-37.9	-39.8	23.6	6.05e-01	0	56	0	764936192	47	4446
2026-01-02 11:57:20.43	331.01	43.28	-38.2	-40.1	23.3	6.07e-01	0	56	0	767033344	47	4606
2026-01-02 11:57:21.44	331.17	42.95	-38.2	-40.0	23.3	6.05e-01	0	56	0	768606208	47	4585
2026-01-02 11:57:22.45	331.32	42.62	-38.2	-40.1	23.3	6.05e-01	0	56	0	770703360	47	4612
2026-01-02 11:57:23.46	331.47	42.29	-38.6	-40.6	22.8	6.08e-01	0	56	0	772800512	47	4892
2026-01-02 11:57:24.47	331.62	41.97	-39.2	-41.3	22.5	6.08e-01	0	57	0	774373376	49	4723
2026-01-02 11:57:25.47	331.76	41.66	-39.3	-41.3	22.5	6.06e-01	0	56	0	776470528	49	4733
2026-01-02 11:57:26.48	331.90	41.34	-39.2	-41.2	22.6	6.04e-01	0	56	0	778043392	49	4679
2026-01-02 11:57:27.49	332.04	41.03	-39.3	-41.3	22.5	6.06e-01	0	56	0	780140544	49	4732
2026-01-02 11:57:28.50	332.18	40.71	-39.2	-41.2	22.6	6.05e-01	0	56	0	782237696	49	4702
2026-01-02 11:57:29.51	332.31	40.41	-39.1	-41.1	22.6	6.07e-01	0	56	0	783810560	49	4631
2026-01-02 11:57:30.52	332.45	40.10	-39.1	-41.1	22.7	6.07e-01	0	56	0	785907712	49	4603
2026-01-02 11:57:31.54	332.58	39.79	-39.1	-41.1	22.7	6.04e-01	0	56	0	788004864	49	4639
2026-01-02 11:57:32.54	332.70	39.50	-39.3	-41.3	22.4	6.05e-01	0	56	0	789577728	49	4757
2026-01-02 11:57:33.55	332.83	39.20	-39.3	-41.3	22.4	6.06e-01	0	56	0	791674880	49	4758
2026-01-02 11:57:34.56	332.95	38.90	-39.3	-41.3	22.5	6.05e-01	0	56	0	793247744	49	4735
2026-01-02 11:57:35.58	333.07	38.61	-39.3	-41.3	22.5	6.07e-01	0	56	0	795344896	49	4743
2026-01-02 11:57:36.58	333.19	38.32	-39.2	-41.3	22.5	6.07e-01	0	56	0	797442048	49	4718
2026-01-02 11:57:37.59	333.30	38.03	-39.2	-41.2	22.6	6.06e-01	0	56	0	799014912	49	4666
2026-01-02 11:57:38.60	333.42	37.75	-38.9	-40.9	22.9	6.08e-01	0	56	0	801112064	49	4496
2026-01-02 11:57:39.61	333.53	37.46	-38.9	-40.8	22.9	6.06e-01	0	56	0	802684928	49	4485
2026-01-02 11:57:40.62	333.64	37.18	-38.8	-40.7	23.0	6.06e-01	0	56	0	804782080	49	4428
2026-01-02 11:57:41.63	333.75	36.90	-38.8	-40.8	23.0	6.08e-01	0	56	0	806879232	49	4448
2026-01-02 11:57:42.64	333.85	36.63	-38.8	-40.7	23.0	6.05e-01	0	56	0	808452096	49	4415
2026-01-02 11:57:43.66	333.96	36.35	-38.7	-40.6	23.1	6.08e-01	0	57	0	810549248	49	4361
2026-01-02 11:57:44.66	334.06	36.08	-38.5	-40.4	23.3	6.06e-01	0	56	0	812122112	49	4271
2026-01-02 11:57:45.67	334.16	35.82	-38.4	-40.2	23.5	6.05e-01	0	56	0	814219264	48	4403
2026-01-02 11:57:46.68	334.26	35.55	-38.2	-40.0	23.7	6.05e-01	0	56	0	816316416	48	4313
2026-01-02 11:57:47.69	334.36	35.28	-38.0	-39.8	23.9	6.04e-01	0	56	0	817889280	48	4208
2026-01-02 11:57:48.70	334.46	35.02	-37.6	-39.4	23.9	6.06e-01	0	56	0	819986432	47	4253
2026-01-02 11:57:49.71	334.55	34.76	-37.6	-39.3	24.0	6.05e-01	0	56	0	821559296	47	4218
2026-01-02 11:57:50.72	334.64	34.51	-37.5	-39.2	24.1	6.05e-01	0	56	0	823656448	47	4186
2026-01-02 11:57:51.73	334.74	34.25	-37.4	-39.1	24.1	6.03e-01	0	56	0	825753600	46	4383
2026-01-02 11:57:52.74	334.83	34.00	-37.3	-39.0	24.3	6.05e-01	0	56	0	827326464	46	4304
2026-01-02 11:57:53.75	334.92	33.75	-37.1	-38.8	24.5	6.07e-01	0	56	0	829423616	46	4210
2026-01-02 11:57:54.76	335.01	33.50	-37.1	-38.8	24.5	6.05e-01	0	56	0	831520768	46	4200
2026-01-02 11:57:55.77	335.09	33.25	-37.1	-38.8	24.5	6.06e-01	0	56	0	833093632	46	4203
2026-01-02 11:57:56.78	335.18	33.01	-37.2	-38.9	24.4	6.07e-01	0	56	0	835190784	46	4248
2026-01-02 11:57:57.79	335.26	32.76	-37.3	-39.0	24.3	6.07e-01	0	56	0	836763648	46	4304
2026-01-02 11:57:58.80	335.34	32.52	-37.2	-38.9	22.5	6.06e-01	0	56	0	838860800	46	4278
2026-01-02 11:57:59.81	335.43	32.28	-37.1	-38.8	24.4	6.05e-01	0	56	0	840957952	46	4220
2026-01-02 11:58:00.82	335.51	32.05	-37.0	-38.7	24.5	6.05e-01	0	56	0	842530816	46	4159
2026-01-02 11:58:01.82	335.59	31.81	-36.9	-38.6	24.6	6.06e-01	0	56	0	844627968	45	4349
2026-01-02 11:58:02.83	335.66	31.58	-36.9	-38.5	24.7	6.08e-01	0	56	0	846200832	45	4333
2026-01-02 11:58:03.84	335.74	31.35	-36.9	-38.6	24.6	6.05e-01	0	56	0	848297984	45	4362
2026-01-02 11:58:04.85	335.82	31.12	-37.0	-38.6	24.6	6.06e-01	0	56	0	850395136	45	4367
2026-01-02 11:58:05.86	335.89	30.89	-36.9	-38.6	24.6	6.06e-01	0	56	0	851968000	45	4361
2026-01-02 11:58:06.87	335.97	30.67	-37.0	-38.6	24.5	6.08e-01	0	56	0	854065152	45	4387
2026-01-02 11:58:07.88	336.04	30.44	-37.0	-38.7	24.5	6.06e-01	0	56	0	855638016	45	4409
2026-01-02 11:58:08.89	336.11	30.22	-37.0	-38.7	24.5	6.06e-01	0	56	0	857735168	45	4414
2026-01-02 11:58:09.90	336.18	30.00	-37.1	-38.7	24.4	6.08e-01	0	56	0	859832320	45	4434
2026-01-02 11:58:10.91	336.25	29.78	-37.1	-38.8	24.4	6.05e-01	0	56	0	861405184	45	4455
2026-01-02 11:58:11.92	336.32	29.57	-37.1	-38.8	24.4	6.04e-01	0	56	0	863502336	45	4466
2026-01-02 11:58:12.93	336.39	29.35	-37.1	-38.8	24.4	6.04e-01	0	56	0	865075200	45	4473
2026-01-02 11:58:13.94	336.46	29.14	-37.2	-38.9	24.2	6.07e-01	0	56	0	867172352	45	4541
2026-01-02 11:58:14.95	336.53	28.93	-37.3	-39.1	24.1	6.07e-01	0	56	0	869269504	45	4612
2026-01-02 11:58:15.96	336.59	28.72	-37.4	-39.2	24.0	6.07e-01	0	57	0	870842368	45	4666
2026-01-02 11:58:16.97	336.66	28.51	-37.5	-39.2	23.9	6.08e-01	0	56	0	872939520	45	4698
2026-01-02 11:58:17.98	336.72	28.31	-37.6	-39.3	23.8	6.07e-01	0	56	0	875036672	45	4759
2026-01-02 11:58:18.99	336.78	28.10	-37.6	-39.4	23.7	6.07e-01	0	56	0	876609536	45	4814
2026-01-02 11:58:20.00	336.85	27.90	-37.7	-39.5	23.7	6.07e-01	0	56	0	878706688	45	4831
2026-01-02 11:58:21.01	336.91	27.70	-37.6	-39.4	23.7	6.06e-01	0	57	0	880279552	45	4796
2026-01-02 11:58:22.02	336.97	27.50	-37.6	-39.4	23.8	6.08e-01	0	56	0	882376704	45	4769
2026-01-02 11:58:23.03	337.03	27.30	-37.6	-39.4	23.8	6.07e-01	0	56	0	884473856	45	4794
2026-01-02 11:58:24.04	337.09	27.10	-37.6	-39.4	23.7	6.07e-01	0	56	0	886046720	45	4798
2026-01-02 11:58:25.05	337.15	26.90	-37.6	-39.4	23.7	6.04e-01	0	56	0	888143872	45	4790
2026-01-02 11:58:26.06	337.21	26.71	-37.7	-39.4	23.7	6.06e-01	0	56	0	889716736	45	4809
2026-01-02 11:58:27.07	337.27	26.52	-37.8	-39.6	23.6	6.07e-01	0	56	0	891813888	46	4608
2026-01-02 11:58:28.08	337.32	26.33	-37.9	-39.7	23.4	6.06e-01	0	56	0	893911040	46	4680
2026-01-02 11:58:29.09	337.38	26.14	-38.0	-39.8	23.3	6.02e-01	0	56	0	895483904	46	4751
2026-01-02 11:58:30.10	337.43	25.95	-38.0	-39.9	23.3	6.07e-01	0	56	0	897581056	46	4764
2026-01-02 11:58:31.11	337.49	25.76	-38.1	-40.0	23.2	6.06e-01	0	56	0	899678208	46	4825
2026-01-02 11:58:32.12	337.54	25.58	-38.1	-40.0	23.2	6.06e-01	0	56	0	901251072	46	4830
2026-01-02 11:58:33.13	337.60	25.39	-38.1	-40.0	23.1	6.04e-01	0	56	0	903348224	46	4839
2026-01-02 11:58:34.14	337.65	25.21	-38.0	-39.9	23.2	6.08e-01	0	57	0	904921088	46	4802
2026-01-02 11:58:35.15	337.70	25.03	-38.0	-39.9	23.3	6.00e-01	0	56	0	907018240	46	4771
2026-01-02 11:58:36.16	337.76	24.85	-38.0	-39.8	23.3	6.02e-01	0	56	0	909115392	46	4759
2026-01-02 11:58:37.17	337.81	24.67	-38.0	-39.8	23.3	6.02e-01	0	56	0	910688256	46	4747
2026-01-02 11:58:38.18	337.86	24.49	-37.9	-39.7	23.4	6.01e-01	0	56	0	912785408	46	4703
2026-01-02 11:58:39.19	337.91	24.32	-37.9	-39.7	23.4	6.03e-01	0	57	0	914882560	46	4667
2026-01-02 11:58:40.20	337.96	24.14	-37.8	-39.7	23.4	6.03e-01	0	56	0	916455424	46	4668
2026-01-02 11:58:41.21	338.01	23.97	-37.9	-39.7	23.4	6.00e-01	0	56	0	918552576	46	4671
2026-01-02 11:58:42.22	338.06	23.79	-37.9	-39.7	23.4	6.02e-01	0	56	0	920125440	46	4690
2026-01-02 11:58:43.22	338.10	23.63	-37.9	-39.8	23.3	6.03e-01	0	56	0	922222592	46	4722
2026-01-02 11:58:44.23	338.15	23.46	-37.9	-39.8	23.3	6.03e-01	0	56	0	923795456	46	4709
2026-01-02 11:58:45.25	338.20	23.28	-37.9	-39.8	23.3	6.00e-01	0	56	0	925892608	46	4720
2026-01-02 11:58:46.26	338.25	23.12	-37.9	-39.8	23.3	6.03e-01	0	56	0	927989760	46	4717
2026-01-02 11:58:47.27	338.29	22.95	-37.9	-39.8	23.2	6.03e-01	0	56	0	929562624	46	4736
2026-01-02 11:58:48.28	338.34	22.79	-38.0	-39.9	23.1	6.04e-01	0	56	0	931659776	46	4771
2026-01-02 11:58:49.29	338.38	22.62	-38.0	-39.9	23.1	6.03e-01	0	56	0	933756928	46	4783
2026-01-02 11:58:50.30	338.43	22.46	-38.0	-39.9	23.1	6.03e-01	0	56	0	935329792	46	4794
2026-01-02 11:58:51.31	338.47	22.30	-38.0	-39.9	23.1	6.03e-01	0	56	0	937426944	46	4809
2026-01-02 11:58:52.32	338.52	22.14	-37.9	-39.8	23.1	6.01e-01	0	56	0	938999808	46	4755
2026-01-02 11:58:53.33	338.56	21.98	-37.9	-39.8	23.2	6.01e-01	0	56	0	941096960	46	4714
2026-01-02 11:58:54.34	338.60	21.82	-37.9	-39.8	23.2	6.04e-01	0	56	0	943194112	46	4708
2026-01-02 11:58:55.35	338.65	21.66	-37.9	-39.8	23.1	6.01e-01	0	57	0	944766976	46	4731
2026-01-02 11:58:56.36	338.69	21.50	-37.9	-39.8	23.1	6.03e-01	0	56	0	946864128	46	4712
2026-01-02 11:58:57.37	338.73	21.35	-37.8	-39.7	23.1	6.01e-01	0	56	0	948436992	46	4687
2026-01-02 11:58:58.38	338.77	21.19	-37.7	-39.6	23.2	6.01e-01	0	56	0	950534144	46	4624
2026-01-02 11:58:59.38	338.81	21.04	-37.6	-39.4	23.3	6.05e-01	0	56	0	952631296	46	4523
2026-01-02 11:59:00.39	338.85	20.89	-37.5	-39.3	23.3	6.02e-01	0	56	0	954204160	46	4485
2026-01-02 11:59:01.40	338.89	20.74	-37.5	-39.4	23.2	6.03e-01	0	56	0	956301312	46	4526
2026-01-02 11:59:02.41	338.93	20.59	-37.7	-39.6	22.9	6.01e-01	0	57	0	957874176	46	4622
2026-01-02 11:59:03.42	338.97	20.44	-37.9	-39.9	22.4	6.03e-01	0	57	0	959971328	46	4796
2026-01-02 11:59:04.43	339.01	20.29	-38.1	-40.3	21.8	6.01e-01	0	56	0	962068480	46	5028
2026-01-02 11:59:05.44	339.05	20.14	-38.5	-40.9	20.9	5.99e-01	0	56	0	963641344	47	5069
2026-01-02 11:59:06.45	339.09	19.99	-39.2	-41.8	20.1	6.01e-01	0	56	0	965738496	48	5332
2026-01-02 11:59:07.46	339.13	19.85	-39.5	-42.6	19.2	6.03e-01	0	56	0	967835648	49	5465
2026-01-02 11:59:08.47	339.17	19.70	-39.9	-43.3	18.1	6.01e-01	0	56	0	969408512	50	5637
2026-01-02 11:59:09.48	339.20	19.56	-40.3	-44.2	17.1	6.01e-01	0	56	0	971505664	51	5887
2026-01-02 11:59:10.49	339.24	19.42	-40.6	-45.0	16.1	6.02e-01	0	56	0	973078528	51	6439
2026-01-02 11:59:11.50	339.28	19.27	-40.7	-45.6	15.2	6.01e-01	0	56	0	975175680	52	6506
2026-01-02 11:59:12.51	339.32	19.13	-40.8	-46.0	14.8	6.00e-01	0	57	0	977272832	52	6821
2026-01-02 11:59:13.52	339.35	18.99	-40.8	-46.2	14.3	6.03e-01	0	56	0	978845696	52	7019
2026-01-02 11:59:14.53	339.39	18.85	-40.7	-46.3	14.1	6.05e-01	0	56	0	980942848	52	7095
2026-01-02 11:59:15.54	339.42	18.72	-40.7	-46.5	13.8	6.02e-01	0	57	0	982515712	52	7257
2026-01-02 11:59:16.55	339.46	18.58	-40.7	-46.9	13.3	6.04e-01	0	57	0	984612864	52	7564
2026-01-02 11:59:17.56	339.49	18.44	-40.7	-47.2	12.8	6.03e-01	0	57	0	986710016	52	7897
2026-01-02 11:59:18.57	339.53	18.30	-40.7	-48.0	11.9	6.05e-01	0	57	0	988282880	52	8626
2026-01-02 11:59:19.58	339.56	18.17	-40.7	-48.5	11.3	6.11e-01	0	57	0	990380032	52	9074
2026-01-02 11:59:20.59	339.60	18.03	-40.6	-48.9	10.8	6.17e-01	0	57	0	992477184	52	9511
2026-01-02 11:59:21.60	339.63	17.90	-40.6	-49.0	10.6	6.15e-01	0	56	0	994050048	52	9665
2026-01-02 11:59:22.61	339.67	17.77	-40.6	-49.6	9.9	6.19e-01	0	57	0	996147200	52	10295
2026-01-02 11:59:23.62	339.70	17.64	-40.5	-50.0	9.4	6.22e-01	0	56	0	997720064	52	10883
2026-01-02 11:59:24.64	339.73	17.50	-40.5	-50.4	8.9	6.32e-01	0	57	0	999817216	52	11384
2026-01-02 11:59:25.65	339.76	17.37	-40.5	-50.7	8.6	6.35e-01	5	57	0	1001914368	52	11802
2026-01-02 11:59:26.66	339.80	17.24	-40.5	-51.2	7.9	6.46e-01	84	57	0	1003487232	52	12496
2026-01-02 11:59:27.66	339.83	17.11	-40.5	-51.8	7.4	6.53e-01	92	57	0	1005584384	52	13276
2026-01-02 11:59:28.67	339.86	16.99	-40.5	-52.1	6.9	6.62e-01	92	57	0	1007157248	52	13816
2026-01-02 11:59:29.68	339.89	16.86	-40.5	-52.4	6.6	6.69e-01	90	57	0	1009254400	52	14269
2026-01-02 11:59:30.69	339.92	16.73	-40.6	-53.2	6.0	6.86e-01	55	57	0	1011351552	52	15592
2026-01-02 11:59:31.70	339.96	16.61	-40.6	-53.5	5.7	6.92e-01	87	57	0	1012400128	52	16132
2026-01-02 11:59:32.71	339.99	16.48	-40.6	-53.8	5.4	6.98e-01	88	57	0	1012924416	52	16791
2026-01-02 11:59:33.72	340.02	16.36	-40.6	-54.7	4.9	7.11e-01	0	56	0	1013448704	52	18526
2026-01-02 11:59:34.73	340.05	16.23	-40.6	-54.9	4.8	7.14e-01	0	57	0	1013448704	52	19094
2026-01-02 11:59:35.74	340.08	16.11	-40.7	-55.7	4.4	7.25e-01	0	57	104	1013448704	52	20840
2026-01-02 11:59:36.75	340.11	15.99	-40.7	-56.1	4.0	7.34e-01	0	57	104	1013448704	52	21760
2026-01-02 11:59:37.76	340.14	15.86	-40.7	-56.3	4.3	7.32e-01	0	57	104	1013448704	52	22463
2026-01-02 11:59:38.76	340.17	15.74	-41.4	-55.7	4.5	7.17e-01	0	57	104	1013448704	53	19663
2026-01-02 11:59:39.77	340.20	15.62	-40.7	-59.1	3.8	7.47e-01	0	57	104	1013448704	53	29330
2026-01-02 11:59:40.78	340.23	15.50	-41.0	-59.9	3.8	7.45e-01	0	57	104	1013448704	53	31890
2026-01-02 11:59:41.79	340.26	15.38	-41.5	-54.6	5.3	7.02e-01	0	57	0	1013448704	53	17437
2026-01-02 11:59:42.80	340.29	15.26	-41.6	-55.4	4.9	7.14e-01	0	57	0	1013448704	53	18954
2026-01-02 11:59:43.81	340.31	15.15	-41.4	-55.7	4.7	7.20e-01	0	57	104	1013448704	53	19618
2026-01-02 11:59:44.82	340.34	15.03	-41.4	-56.5	4.0	7.39e-01	0	57	104	1013448704	53	21717
2026-01-02 11:59:45.83	340.37	14.91	-41.3	-56.4	4.3	7.30e-01	0	57	104	1013448704	53	21490
2026-01-02 11:59:46.84	340.40	14.80	-41.1	-57.1	4.1	7.37e-01	0	57	104	1013448704	53	23129
2026-01-02 11:59:47.85	340.43	14.68	-41.2	-57.7	4.0	7.41e-01	0	57	104	1013448704	53	24951
2026-01-02 11:59:48.86	340.45	14.57	-40.7	-59.6	3.8	7.44e-01	0	57	104	1013448704	53	30831
2026-01-02 11:59:49.87	340.48	14.45	-40.5	-59.7	3.8	7.46e-01	0	57	104	1013448704	52	33302
2026-01-02 11:59:50.88	340.51	14.34	-41.1	-57.2	3.9	7.35e-01	0	57	104	1013448704	52	24720
2026-01-02 11:59:51.89	340.54	14.22	-41.2	-58.0	3.9	7.44e-01	0	57	104	1013448704	53	25576
2026-01-02 11:59:52.90	340.56	14.11	-41.2	-57.4	4.0	7.36e-01	0	57	104	1013448704	53	24024
2026-01-02 11:59:53.91	340.59	14.00	-41.1	-57.8	4.0	7.45e-01	0	57	104	1013448704	53	25210
2026-01-02 11:59:54.92	340.62	13.89	-41.1	-58.0	3.9	7.40e-01	0	57	104	1013448704	53	25721
2026-01-02 11:59:55.93	340.64	13.78	-40.6	-59.0	3.8	7.45e-01	0	57	104	1013448704	53	28886
2026-01-02 11:59:56.94	340.67	13.67	-40.3	-59.8	3.8	7.44e-01	0	57	104	1013448704	52	33326
2026-01-02 11:59:57.95	340.69	13.56	-40.9	-59.8	3.8	7.46e-01	0	57	104	1013448704	52	33589
2026-01-02 11:59:58.96	340.72	13.45	-41.1	-58.3	3.9	7.42e-01	0	57	104	1013448704	52	28253
2026-01-02 11:59:59.97	340.75	13.34	-41.1	-59.0	3.8	7.44e-01	0	57	104	1013448704	52	30545
2026-01-02 12:00:00.98	340.77	13.23	-41.0	-58.9	3.8	7.42e-01	0	57	104	1013448704	52	30130
2026-01-02 12:00:01.99	340.80	13.12	-40.9	-58.9	3.8	7.44e-01	0	57	104	1013448704	52	30111
2026-01-02 12:00:03.00	340.82	13.02	-40.7	-58.7	3.8	7.41e-01	0	57	104	1013448704	52	29563
2026-01-02 12:00:04.01	340.85	12.91	-40.6	-59.4	3.8	7.42e-01	0	57	104	1013448704	52	31887
2026-01-02 12:00:05.02	340.87	12.80	-40.4	-59.7	3.8	7.44e-01	0	57	104	1013448704	52	33152
2026-01-02 12:00:06.02	340.90	12.70	-40.5	-59.7	3.8	7.46e-01	0	57	104	1013448704	52	32991
2026-01-02 12:00:07.03	340.92	12.59	-40.1	-59.6	3.8	7.43e-01	0	57	104	1013448704	52	32865
2026-01-02 12:00:08.04	340.94	12.49	-40.3	-59.6	3.8	7.47e-01	0	57	104	1013448704	52	32704
2026-01-02 12:00:09.05	340.97	12.38	-40.1	-59.6	3.8	7.47e-01	0	57	104	1013448704	52	32629
2026-01-02 12:00:10.06	340.99	12.28	-40.8	-59.7	3.8	7.47e-01	0	57	104	1013448704	52	33186
2026-01-02 12:00:11.07	341.02	12.18	-40.9	-59.8	3.8	7.46e-01	0	57	104	1013448704	52	33630
2026-01-02 12:00:12.08	341.04	12.07	-40.8	-59.7	3.8	7.46e-01	0	57	104	1013448704	52	33066
2026-01-02 12:00:13.09	341.06	11.97	-40.9	-59.9	3.8	7.44e-01	0	57	104	1013448704	52	33719
2026-01-02 12:00:14.10	341.09	11.87	-40.2	-59.5	3.8	7.46e-01	0	57	104	1013448704	52	32205
2026-01-02 12:00:15.11	341.11	11.77	-40.6	-59.6	3.8	7.44e-01	0	57	104	1013448704	52	32591
2026-01-02 12:00:16.12	341.13	11.67	-40.3	-59.4	3.8	7.47e-01	0	57	104	1013448704	52	32110
2026-01-02 12:00:17.13	341.16	11.57	-40.8	-59.7	3.8	7.44e-01	0	57	104	1013448704	52	32992
2026-01-02 12:00:18.14	341.18	11.47	-40.4	-59.4	3.8	7.43e-01	0	57	104	1013448704	52	32042
2026-01-02 12:00:19.15	341.20	11.37	-40.8	-59.8	3.8	7.42e-01	0	57	104	1013448704	52	33556
2026-01-02 12:00:20.17	341.23	11.27	-40.4	-59.4	3.8	7.46e-01	0	57	104	1013448704	52	32015
2026-01-02 12:00:21.17	341.25	11.17	-40.8	-59.8	3.8	7.47e-01	0	57	104	1013448704	52	33510
2026-01-02 12:00:22.18	341.27	11.07	-40.3	-59.4	3.8	7.45e-01	0	57	104	1013448704	52	32073
2026-01-02 12:00:23.19	341.29	10.98	-40.5	-59.6	3.8	7.45e-01	0	57	104	1013448704	52	32880
2026-01-02 12:00:24.20	341.31	10.88	-40.4	-59.4	3.8	7.44e-01	0	57	104	1013448704	52	32106
2026-01-02 12:00:25.21	341.34	10.78	-40.4	-59.6	3.8	7.45e-01	0	57	104	1013448704	52	32684
2026-01-02 12:00:26.22	341.36	10.69	-40.4	-59.4	3.8	7.44e-01	0	57	104	1013448704	52	31915
2026-01-02 12:00:27.24	341.38	10.59	-40.6	-59.6	3.8	7.45e-01	0	57	104	1013448704	52	32620
2026-01-02 12:00:28.24	341.40	10.49	-40.4	-59.4	3.8	7.43e-01	0	57	104	1013448704	52	31944
2026-01-02 12:00:29.25	341.42	10.40	-40.6	-59.6	3.8	7.48e-01	0	57	104	1013448704	52	32562
2026-01-02 12:00:30.27	341.44	10.30	-40.4	-59.5	3.8	7.45e-01	0	57	104	1013448704	52	32421
2026-01-02 12:00:31.28	341.47	10.21	-40.2	-59.4	3.8	7.45e-01	0	57	104	1013448704	52	32075
2026-01-02 12:00:32.29	341.49	10.11	-40.5	-59.6	3.8	7.47e-01	0	57	104	1013448704	52	32571
2026-01-02 12:00:33.30	341.51	10.02	-40.2	-59.4	3.8	7.47e-01	0	57	104	1013448704	52	31895
2026-01-02 12:00:34.31	341.53	9.93	-40.4	-59.4	3.8	7.45e-01	0	57	104	1013448704	52	31839
2026-01-02 12:00:35.32	341.55	9.84	-40.6	-59.7	3.8	7.45e-01	0	57	104	1013448704	52	32945
2026-01-02 12:00:36.33	341.57	9.74	-40.4	-59.4	3.8	7.46e-01	0	57	104	1013448704	52	32008
2026-01-02 12:00:37.34	341.59	9.65	-40.8	-59.9	3.8	7.44e-01	0	57	104	1013448704	52	33882
2026-01-02 12:00:38.35	341.61	9.56	-40.7	-59.7	3.8	7.44e-01	0	57	104	1013448704	52	32996
2026-01-02 12:00:39.36	341.63	9.47	-40.3	-59.4	3.8	7.45e-01	0	57	104	1013448704	52	32123
2026-01-02 12:00:40.37	341.65	9.38	-40.7	-59.7	3.8	7.46e-01	0	57	104	1013448704	52	33108
2026-01-02 12:00:41.38	341.67	9.29	-40.3	-59.4	3.8	7.45e-01	0	57	104	1013448704	52	31991
2026-01-02 12:00:42.39	341.69	9.20	-40.5	-59.5	3.8	7.47e-01	0	57	104	1013448704	52	32500
2026-01-02 12:00:43.40	341.71	9.11	-40.9	-59.9	3.8	7.43e-01	0	57	104	1013448704	52	34050
2026-01-02 12:00:44.41	341.73	9.02	-40.6	-59.6	3.8	7.46e-01	0	57	104	1013448704	52	32775
2026-01-02 12:00:45.41	341.75	8.93	-40.7	-59.6	3.8	7.44e-01	0	57	104	1013448704	52	32807
2026-01-02 12:00:46.42	341.77	8.84	-40.7	-59.7	3.8	7.44e-01	0	57	104	1013448704	52	32997
2026-01-02 12:00:47.43	341.79	8.75	-40.8	-59.7	3.8	7.43e-01	0	57	104	1013448704	52	33063
2026-01-02 12:00:48.45	341.81	8.66	-40.8	-59.7	3.8	7.48e-01	0	57	104	1013448704	52	33079
2026-01-02 12:00:49.46	341.83	8.58	-41.0	-59.9	3.8	7.44e-01	0	57	104	1013448704	52	33772
2026-01-02 12:00:50.47	341.85	8.49	-40.8	-59.8	3.8	7.46e-01	0	57	104	1013448704	52	33355
2026-01-02 12:00:51.48	341.87	8.40	-40.8	-59.7	3.8	7.41e-01	0	57	104	1013448704	52	33061
2026-01-02 12:00:52.49	341.89	8.31	-40.8	-59.8	3.8	7.45e-01	0	57	104	1013448704	52	33317
2026-01-02 12:00:53.50	341.91	8.23	-40.7	-59.7	3.8	7.44e-01	0	57	104	1013448704	52	33040
2026-01-02 12:00:54.51	341.92	8.14	-40.8	-59.7	3.8	7.48e-01	0	57	104	1013448704	52	33199
2026-01-02 12:00:55.52	341.94	8.06	-40.9	-59.8	3.8	7.45e-01	0	57	104	1013448704	52	33494
2026-01-02 12:00:56.53	341.96	7.97	-40.8	-59.7	3.8	7.46e-01	0	57	104	1013448704	52	33136
2026-01-02 12:00:57.54	341.98	7.89	-44.4	-63.3	3.8	7.48e-01	0	57	104	1013448704	59	33511
2026-01-02 12:00:58.55	342.00	7.80	-45.2	-63.9	3.8	7.44e-01	0	57	104	1013448704	60	33948
2026-01-02 12:00:59.56	342.02	7.72	-45.5	-64.3	3.8	7.43e-01	0	57	104	1013448704	61	33318
2026-01-02 12:01:00.58	342.04	7.63	-45.7	-64.4	3.8	7.44e-01	0	57	104	1013448704	61	33853
2026-01-02 12:01:01.59	342.05	7.55	-45.8	-64.5	3.8	7.46e-01	0	57	104	1013448704	62	32342
