passes_logs/2026/01/02/R2.0S_Moscow/R2.0S_Moscow__20260102_143721_FENGYUN_3E_rec.log

#Pass ID: 20260102_143721_FENGYUN 3E
#Satellite: FENGYUN 3E
#Configuration: FENGYUN 3E
#almurnet v.1.7.20251203
#Start time: 2026-01-02 14:37:22

#Version: 2.2.20231116
#Station: R2.0S_Moscow
#Location: 37.707566 lon 55.798166 lat
#TLE: 1 49008U 21062A   26001.96913326  .00000001  00000+0  21174-4 0  9999
#TLE: 2 49008  98.7479   7.2511 0001416 166.5636 193.5578 14.19883387232993

#Time	Az	El	Level	Level2	SNR	BER	BlckErr	Temp	State	Recorded	gain1	gain2
2026-01-02 14:37:22.20	173.03	2.07	-43.6	-54.5	3.8	8.47e-01	0	47	0	0	58	12118
2026-01-02 14:37:23.20	173.05	2.14	-43.6	-54.5	3.8	8.47e-01	0	47	104	0	58	12148
2026-01-02 14:37:24.21	173.07	2.20	-43.5	-54.5	3.8	8.47e-01	0	47	104	0	58	12130
2026-01-02 14:37:25.23	173.09	2.27	-43.5	-54.5	3.8	8.46e-01	0	48	104	0	58	12180
2026-01-02 14:37:26.24	173.12	2.33	-43.5	-54.5	3.8	8.46e-01	0	48	104	0	58	12178
2026-01-02 14:37:27.25	173.14	2.40	-43.6	-54.5	3.8	8.47e-01	0	48	104	0	58	12164
2026-01-02 14:37:28.26	173.16	2.46	-43.5	-54.5	3.8	8.45e-01	0	48	104	0	58	12146
2026-01-02 14:37:29.27	173.18	2.53	-43.5	-54.5	3.8	8.46e-01	0	48	104	0	58	12148
2026-01-02 14:37:30.28	173.20	2.59	-43.5	-54.5	3.8	8.46e-01	0	48	104	0	58	12172
2026-01-02 14:37:31.29	173.23	2.66	-43.5	-54.5	3.8	8.45e-01	0	48	104	0	58	12125
2026-01-02 14:37:32.30	173.25	2.72	-43.5	-54.5	3.8	8.45e-01	0	48	104	0	58	12196
2026-01-02 14:37:33.31	173.27	2.79	-43.5	-54.5	3.8	8.46e-01	0	48	104	0	58	12105
2026-01-02 14:37:34.33	173.30	2.86	-43.5	-54.5	3.8	8.47e-01	0	48	104	0	58	12095
2026-01-02 14:37:35.34	173.32	2.92	-43.5	-54.5	3.8	8.46e-01	0	48	104	0	58	12122
2026-01-02 14:37:36.35	173.34	2.99	-43.5	-54.5	3.8	8.46e-01	0	48	104	0	58	12137
2026-01-02 14:37:37.36	173.36	3.05	-43.5	-54.4	3.8	8.46e-01	0	49	104	0	58	12047
2026-01-02 14:37:38.37	173.39	3.12	-43.5	-54.5	3.8	8.45e-01	0	48	104	0	58	12169
2026-01-02 14:37:39.38	173.41	3.19	-43.5	-54.5	3.8	8.46e-01	0	49	104	0	58	12099
2026-01-02 14:37:40.39	173.43	3.26	-43.5	-54.5	3.8	8.47e-01	0	49	104	0	58	12149
2026-01-02 14:37:41.40	173.46	3.32	-43.5	-54.4	3.8	8.46e-01	0	49	104	0	58	12089
2026-01-02 14:37:42.41	173.48	3.39	-43.5	-54.5	3.8	8.45e-01	0	49	104	0	58	12109
2026-01-02 14:37:43.42	173.50	3.46	-43.5	-54.5	3.8	8.45e-01	0	49	104	0	58	12120
2026-01-02 14:37:44.43	173.53	3.52	-43.5	-54.5	3.8	8.47e-01	0	49	104	0	58	12109
2026-01-02 14:37:45.44	173.55	3.59	-43.5	-54.5	3.8	8.46e-01	0	49	104	0	58	12169
2026-01-02 14:37:46.45	173.58	3.66	-43.5	-54.5	3.8	8.46e-01	0	49	104	0	58	12102
2026-01-02 14:37:47.46	173.60	3.73	-43.5	-54.5	3.8	8.46e-01	0	49	104	0	58	12132
2026-01-02 14:37:48.47	173.62	3.80	-43.5	-54.5	3.8	8.46e-01	0	49	104	0	58	12105
2026-01-02 14:37:49.49	173.65	3.87	-43.5	-54.4	3.8	8.46e-01	0	49	104	0	58	12094
2026-01-02 14:37:50.50	173.67	3.94	-43.5	-54.5	3.8	8.45e-01	0	50	104	0	58	12118
2026-01-02 14:37:51.51	173.70	4.00	-43.5	-54.5	3.8	8.45e-01	0	50	104	0	58	12096
2026-01-02 14:37:52.52	173.72	4.07	-43.5	-54.4	3.8	8.46e-01	0	50	104	0	58	12056
2026-01-02 14:37:53.53	173.75	4.14	-43.5	-54.4	3.8	8.45e-01	0	50	104	0	58	11998
2026-01-02 14:37:54.54	173.77	4.21	-43.5	-54.4	3.8	8.45e-01	0	50	104	0	58	11984
2026-01-02 14:37:55.55	173.80	4.28	-43.5	-54.4	3.8	8.46e-01	0	50	104	0	58	11995
2026-01-02 14:37:56.56	173.82	4.35	-43.5	-54.4	3.8	8.47e-01	0	50	104	0	58	11989
2026-01-02 14:37:57.57	173.85	4.42	-43.5	-54.4	3.8	8.46e-01	0	50	104	0	58	12019
2026-01-02 14:37:58.58	173.87	4.49	-43.5	-54.4	3.8	8.47e-01	0	50	104	0	58	12087
2026-01-02 14:37:59.59	173.90	4.56	-43.5	-54.5	3.8	8.45e-01	0	50	104	0	58	12121
2026-01-02 14:38:00.60	173.92	4.63	-43.5	-54.5	3.8	8.46e-01	0	50	104	0	58	12111
2026-01-02 14:38:01.61	173.95	4.70	-43.5	-54.4	3.8	8.47e-01	0	50	104	0	58	12059
2026-01-02 14:38:02.63	173.97	4.77	-43.5	-54.4	3.8	8.46e-01	0	50	104	0	58	11963
2026-01-02 14:38:03.64	174.00	4.84	-43.5	-54.4	3.8	8.45e-01	0	50	104	0	58	11969
2026-01-02 14:38:04.65	174.02	4.92	-43.5	-54.3	3.8	8.45e-01	0	50	104	0	58	11931
2026-01-02 14:38:05.66	174.05	4.99	-43.5	-54.4	3.8	8.46e-01	0	51	104	0	58	11985
2026-01-02 14:38:06.67	174.08	5.06	-43.5	-54.4	3.8	8.46e-01	0	50	104	0	58	12034
2026-01-02 14:38:07.68	174.10	5.13	-43.5	-54.4	3.8	8.45e-01	0	51	104	0	58	12087
2026-01-02 14:38:08.69	174.13	5.20	-43.5	-54.4	3.8	8.47e-01	0	50	104	0	58	12076
2026-01-02 14:38:09.70	174.15	5.27	-43.5	-54.4	3.8	8.47e-01	0	51	104	0	58	12064
2026-01-02 14:38:10.71	174.18	5.35	-43.5	-54.4	3.8	8.46e-01	0	51	104	0	58	11999
2026-01-02 14:38:11.72	174.21	5.42	-43.5	-54.4	3.8	8.44e-01	0	51	104	0	58	11958
2026-01-02 14:38:12.73	174.23	5.49	-43.5	-54.2	3.8	8.45e-01	0	51	104	0	58	11710
2026-01-02 14:38:13.75	174.26	5.57	-43.5	-54.0	3.8	8.47e-01	0	51	104	0	58	11511
2026-01-02 14:38:14.76	174.29	5.64	-43.4	-53.9	3.8	8.47e-01	0	51	104	0	57	11960
2026-01-02 14:38:15.77	174.32	5.71	-43.4	-53.7	3.8	8.46e-01	0	51	104	0	57	11794
2026-01-02 14:38:16.78	174.34	5.79	-43.4	-53.7	3.8	8.45e-01	0	51	104	0	57	11721
2026-01-02 14:38:17.79	174.37	5.86	-43.4	-53.5	3.8	8.45e-01	0	51	104	0	57	11527
2026-01-02 14:38:18.80	174.40	5.93	-43.4	-53.6	3.8	8.45e-01	0	51	104	0	57	11587
2026-01-02 14:38:19.81	174.42	6.01	-43.4	-53.8	3.8	8.45e-01	0	51	104	0	57	11865
2026-01-02 14:38:20.82	174.45	6.08	-43.4	-54.0	3.8	8.46e-01	0	51	104	0	57	12101
2026-01-02 14:38:21.83	174.48	6.16	-43.5	-54.2	3.8	8.46e-01	0	51	104	0	57	12479
2026-01-02 14:38:22.84	174.51	6.23	-43.5	-54.4	3.8	8.46e-01	0	51	104	0	57	12722
2026-01-02 14:38:23.86	174.54	6.31	-43.5	-54.4	3.8	8.46e-01	0	51	104	0	57	12698
2026-01-02 14:38:24.87	174.56	6.38	-43.5	-54.0	3.8	8.47e-01	0	51	104	0	57	12210
2026-01-02 14:38:25.88	174.59	6.46	-43.4	-53.3	3.8	8.45e-01	0	52	104	0	57	11263
2026-01-02 14:38:26.89	174.62	6.53	-43.2	-52.1	4.0	8.45e-01	0	52	104	0	57	9735
2026-01-02 14:38:27.90	174.65	6.61	-42.9	-50.6	4.3	8.37e-01	0	52	0	0	56	8701
2026-01-02 14:38:28.91	174.68	6.68	-42.6	-49.1	4.9	8.10e-01	0	52	0	0	56	7367
2026-01-02 14:38:29.92	174.71	6.76	-41.9	-47.4	5.9	6.48e-01	0	52	0	0	54	6786
2026-01-02 14:38:30.93	174.74	6.84	-41.3	-46.0	7.0	1.98e-01	0	52	0	7340032	53	6092
2026-01-02 14:38:31.94	174.77	6.91	-40.7	-44.6	8.4	6.31e-02	0	52	0	14680064	52	5489
2026-01-02 14:38:32.95	174.80	6.99	-40.1	-43.6	9.5	2.42e-02	0	52	0	22020096	51	5161
2026-01-02 14:38:33.97	174.83	7.07	-39.5	-42.6	10.6	5.08e-03	0	52	0	29360128	50	4890
2026-01-02 14:38:34.98	174.85	7.15	-38.9	-41.8	11.4	1.35e-03	0	52	0	36700160	48	5009
2026-01-02 14:38:35.99	174.88	7.22	-38.0	-40.6	12.4	2.30e-04	0	52	0	44040192	47	4618
2026-01-02 14:38:37.00	174.91	7.30	-37.6	-40.1	13.0	8.12e-05	0	52	0	51380224	46	4601
2026-01-02 14:38:38.01	174.94	7.38	-37.1	-39.3	13.6	1.14e-05	0	52	0	58720256	45	4490
2026-01-02 14:38:39.02	174.97	7.46	-36.7	-38.9	14.1	4.50e-06	0	52	0	66060288	44	4520
2026-01-02 14:38:40.03	175.01	7.54	-36.0	-38.1	14.7	1.10e-06	0	52	0	73400320	43	4389
2026-01-02 14:38:41.04	175.04	7.62	-35.8	-37.8	15.0	0.00e+00	0	52	0	80740352	42	4474
2026-01-02 14:38:42.05	175.07	7.69	-35.5	-37.5	15.3	0.00e+00	0	52	0	88080384	42	4304
2026-01-02 14:38:43.06	175.10	7.77	-35.3	-37.3	15.5	0.00e+00	0	52	0	95420416	41	4476
2026-01-02 14:38:44.07	175.13	7.85	-35.3	-37.3	15.5	0.00e+00	0	52	0	102760448	41	4447
2026-01-02 14:38:45.08	175.16	7.93	-35.2	-37.1	15.7	0.00e+00	0	52	0	110100480	41	4377
2026-01-02 14:38:46.10	175.19	8.01	-35.2	-37.1	15.7	0.00e+00	0	52	0	116391936	41	4346
2026-01-02 14:38:47.11	175.22	8.09	-40.0	-42.9	10.9	4.13e-03	0	52	0	124780544	50	5087
2026-01-02 14:38:48.12	175.25	8.18	-39.7	-43.1	9.7	8.37e-03	0	52	0	132120576	49	5477
2026-01-02 14:38:49.13	175.29	8.26	-36.5	-38.6	14.9	0.00e+00	0	53	0	138412032	42	4903
2026-01-02 14:38:50.14	175.32	8.34	-39.0	-41.4	12.5	4.35e-04	0	53	0	145752064	49	4530
2026-01-02 14:38:51.15	175.35	8.42	-40.4	-44.2	8.6	3.85e-03	0	53	0	153092096	50	5889
2026-01-02 14:38:52.16	175.38	8.50	-34.9	-36.6	16.7	0.00e+00	0	53	0	160432128	40	4389
2026-01-02 14:38:53.17	175.41	8.58	-34.8	-36.6	16.8	0.00e+00	0	53	0	167772160	40	4373
2026-01-02 14:38:54.18	175.45	8.66	-34.6	-36.4	17.0	0.00e+00	0	53	0	175112192	40	4247
2026-01-02 14:38:55.19	175.48	8.75	-34.5	-36.2	17.2	0.00e+00	0	53	0	182452224	39	4429
2026-01-02 14:38:56.20	175.51	8.83	-34.5	-36.2	17.2	0.00e+00	0	53	0	189792256	39	4438
2026-01-02 14:38:57.21	175.54	8.91	-34.6	-36.3	17.2	0.00e+00	0	53	0	197132288	39	4468
2026-01-02 14:38:58.22	175.58	8.99	-34.5	-36.2	17.3	0.00e+00	0	53	0	204472320	39	4438
2026-01-02 14:38:59.23	175.61	9.08	-34.5	-36.3	17.2	0.00e+00	0	53	0	211812352	39	4455
2026-01-02 14:39:00.24	175.64	9.16	-34.6	-36.3	17.2	0.00e+00	0	53	0	219152384	39	4467
2026-01-02 14:39:01.25	175.68	9.25	-34.4	-36.0	17.5	0.00e+00	0	53	0	226492416	39	4340
2026-01-02 14:39:02.27	175.71	9.33	-34.5	-36.2	17.3	0.00e+00	0	53	0	233832448	39	4427
2026-01-02 14:39:03.28	175.75	9.41	-34.5	-36.2	17.4	0.00e+00	0	53	0	241172480	39	4408
2026-01-02 14:39:04.29	175.78	9.50	-34.4	-36.1	17.5	0.00e+00	0	53	0	248512512	39	4368
2026-01-02 14:39:05.29	175.82	9.58	-34.4	-36.1	17.4	0.00e+00	0	53	0	255852544	39	4386
2026-01-02 14:39:06.31	175.85	9.67	-34.4	-36.1	17.5	0.00e+00	0	53	0	263192576	39	4341
2026-01-02 14:39:07.32	175.89	9.76	-34.3	-36.0	17.6	0.00e+00	0	53	0	270532608	39	4313
2026-01-02 14:39:08.33	175.92	9.84	-34.4	-36.1	17.5	0.00e+00	0	53	0	277872640	39	4370
2026-01-02 14:39:09.34	175.96	9.93	-34.4	-36.1	17.5	0.00e+00	0	53	0	285212672	39	4382
2026-01-02 14:39:10.35	175.99	10.01	-34.2	-35.9	17.7	0.00e+00	0	53	0	291504128	39	4271
2026-01-02 14:39:11.36	176.03	10.10	-34.2	-35.9	17.7	0.00e+00	0	53	0	299892736	39	4270
2026-01-02 14:39:12.37	176.06	10.19	-34.1	-35.8	17.8	0.00e+00	0	53	0	307232768	39	4215
2026-01-02 14:39:13.38	176.10	10.28	-34.2	-35.9	17.8	0.00e+00	0	53	0	313524224	39	4244
2026-01-02 14:39:14.39	176.13	10.36	-34.2	-35.9	17.7	0.00e+00	0	53	0	320864256	39	4261
2026-01-02 14:39:15.40	176.17	10.45	-34.3	-36.0	17.7	0.00e+00	0	53	0	328204288	39	4301
2026-01-02 14:39:16.41	176.21	10.54	-34.1	-35.8	17.8	0.00e+00	0	53	0	335544320	39	4212
2026-01-02 14:39:17.41	176.24	10.63	-34.1	-35.7	17.9	0.00e+00	0	53	0	342884352	39	4172
2026-01-02 14:39:18.42	176.28	10.72	-34.2	-35.8	17.8	0.00e+00	0	54	0	350224384	39	4238
2026-01-02 14:39:19.43	176.32	10.81	-33.9	-35.5	18.1	0.00e+00	0	53	0	357564416	38	4335
2026-01-02 14:39:20.44	176.36	10.90	-34.1	-35.7	17.9	0.00e+00	0	53	0	364904448	38	4441
2026-01-02 14:39:21.45	176.39	10.99	-34.1	-35.7	17.9	0.00e+00	0	53	0	372244480	38	4430
2026-01-02 14:39:22.46	176.43	11.08	-34.0	-35.7	18.0	0.00e+00	0	54	0	379584512	38	4400
2026-01-02 14:39:23.47	176.47	11.17	-34.0	-35.6	18.0	0.00e+00	0	53	0	386924544	38	4384
2026-01-02 14:39:24.48	176.51	11.26	-34.0	-35.6	18.1	0.00e+00	0	53	0	394264576	38	4358
2026-01-02 14:39:25.49	176.55	11.35	-34.0	-35.6	18.1	0.00e+00	0	54	0	401604608	38	4365
2026-01-02 14:39:26.50	176.58	11.44	-34.0	-35.6	18.1	0.00e+00	0	54	0	408944640	38	4375
2026-01-02 14:39:27.51	176.62	11.53	-34.0	-35.7	18.0	0.00e+00	0	54	0	416284672	38	4392
2026-01-02 14:39:28.52	176.66	11.62	-34.0	-35.7	18.0	0.00e+00	0	54	0	423624704	38	4410
2026-01-02 14:39:29.53	176.70	11.72	-34.1	-35.7	18.0	0.00e+00	0	54	0	430964736	38	4438
2026-01-02 14:39:30.54	176.74	11.81	-34.0	-35.6	18.1	0.00e+00	0	54	0	437256192	38	4362
2026-01-02 14:39:31.55	176.78	11.90	-33.8	-35.4	18.3	0.00e+00	0	54	0	444596224	38	4261
2026-01-02 14:39:32.56	176.82	12.00	-33.5	-35.1	18.6	0.00e+00	0	54	0	452984832	38	4107
2026-01-02 14:39:33.57	176.86	12.09	-33.6	-35.2	18.4	0.00e+00	0	54	0	459276288	37	4435
2026-01-02 14:39:34.58	176.90	12.18	-33.6	-35.2	18.5	0.00e+00	0	54	0	466616320	37	4413
2026-01-02 14:39:35.59	176.94	12.28	-33.5	-35.1	18.6	0.00e+00	0	54	0	473956352	37	4375
2026-01-02 14:39:36.60	176.98	12.37	-33.5	-35.1	18.6	0.00e+00	0	54	0	481296384	37	4379
2026-01-02 14:39:37.61	177.03	12.47	-33.5	-35.1	18.6	0.00e+00	0	54	0	488636416	37	4378
2026-01-02 14:39:38.62	177.07	12.56	-33.5	-35.0	18.6	0.00e+00	0	54	0	495976448	37	4337
2026-01-02 14:39:39.63	177.11	12.66	-33.5	-35.1	18.5	0.00e+00	0	54	0	503316480	37	4361
2026-01-02 14:39:40.64	177.15	12.76	-33.5	-35.1	18.6	0.00e+00	0	54	0	510656512	37	4367
2026-01-02 14:39:41.65	177.19	12.85	-33.4	-35.0	18.7	0.00e+00	0	54	0	517996544	37	4325
2026-01-02 14:39:42.66	177.24	12.95	-33.3	-34.9	18.8	0.00e+00	0	54	0	525336576	37	4262
2026-01-02 14:39:43.67	177.28	13.05	-33.3	-34.9	18.8	0.00e+00	0	54	0	532676608	37	4270
2026-01-02 14:39:44.68	177.32	13.15	-33.4	-34.9	18.7	0.00e+00	0	54	0	540016640	37	4282
2026-01-02 14:39:45.69	177.36	13.25	-33.3	-34.8	18.8	0.00e+00	0	54	0	547356672	37	4236
2026-01-02 14:39:46.70	177.41	13.34	-33.3	-34.8	18.8	0.00e+00	0	54	0	554696704	37	4229
2026-01-02 14:39:47.71	177.45	13.44	-33.2	-34.8	18.9	0.00e+00	0	54	0	562036736	37	4194
2026-01-02 14:39:48.72	177.50	13.54	-33.2	-34.8	18.9	0.00e+00	0	54	0	569376768	37	4217
2026-01-02 14:39:49.73	177.54	13.64	-33.1	-34.7	18.9	0.00e+00	0	54	0	576716800	37	4180
2026-01-02 14:39:50.75	177.59	13.74	-33.1	-34.7	19.0	0.00e+00	0	54	0	584056832	37	4150
2026-01-02 14:39:51.75	177.63	13.84	-33.1	-34.7	18.9	0.00e+00	0	54	0	590348288	37	4182
2026-01-02 14:39:52.76	177.68	13.94	-33.0	-34.6	19.0	0.00e+00	0	54	0	598736896	37	4108
2026-01-02 14:39:53.77	177.72	14.05	-33.0	-34.6	19.0	0.00e+00	0	54	0	606076928	36	4355
2026-01-02 14:39:54.78	177.77	14.15	-33.0	-34.6	19.0	0.00e+00	0	54	0	612368384	36	4350
2026-01-02 14:39:55.79	177.81	14.25	-33.0	-34.6	19.0	0.00e+00	0	54	0	619708416	36	4351
2026-01-02 14:39:56.80	177.86	14.35	-32.9	-34.5	19.1	0.00e+00	0	55	0	627048448	36	4329
2026-01-02 14:39:57.81	177.91	14.46	-33.0	-34.6	19.0	0.00e+00	0	55	0	634388480	36	4390
2026-01-02 14:39:58.82	177.95	14.56	-33.1	-34.7	18.9	0.00e+00	0	54	0	641728512	36	4404
2026-01-02 14:39:59.83	178.00	14.66	-33.0	-34.6	19.0	0.00e+00	0	55	0	649068544	36	4372
2026-01-02 14:40:00.84	178.05	14.77	-32.9	-34.5	19.0	0.00e+00	0	55	0	656408576	36	4332
2026-01-02 14:40:01.85	178.10	14.87	-32.9	-34.5	19.0	0.00e+00	0	54	0	663748608	36	4337
2026-01-02 14:40:02.86	178.15	14.98	-32.9	-34.5	19.1	0.00e+00	0	55	0	671088640	36	4301
2026-01-02 14:40:03.87	178.19	15.08	-32.8	-34.5	19.1	0.00e+00	0	55	0	678428672	36	4292
2026-01-02 14:40:04.88	178.24	15.19	-32.9	-34.6	19.0	0.00e+00	0	55	0	685768704	36	4357
2026-01-02 14:40:05.89	178.29	15.30	-32.9	-34.6	19.0	0.00e+00	0	55	0	693108736	36	4342
2026-01-02 14:40:06.90	178.34	15.40	-32.9	-34.6	18.9	0.00e+00	0	55	0	700448768	36	4369
2026-01-02 14:40:07.91	178.39	15.51	-32.9	-34.6	19.0	0.00e+00	0	55	0	707788800	36	4354
2026-01-02 14:40:08.92	178.44	15.62	-33.0	-34.7	18.8	0.00e+00	0	55	0	715128832	36	4427
2026-01-02 14:40:09.93	178.49	15.73	-32.9	-34.6	19.0	0.00e+00	0	55	0	722468864	36	4348
2026-01-02 14:40:10.94	178.54	15.84	-32.8	-34.5	19.0	0.00e+00	0	55	0	729808896	36	4317
2026-01-02 14:40:11.95	178.59	15.95	-32.8	-34.6	18.9	0.00e+00	0	55	0	736100352	36	4344
2026-01-02 14:40:12.96	178.65	16.06	-32.8	-34.5	18.9	0.00e+00	0	55	0	744488960	36	4340
2026-01-02 14:40:13.97	178.70	16.17	-32.7	-34.4	19.0	0.00e+00	0	55	0	751828992	36	4290
2026-01-02 14:40:14.98	178.75	16.28	-32.8	-34.5	19.0	0.00e+00	0	55	0	758120448	36	4311
2026-01-02 14:40:15.99	178.80	16.39	-32.8	-34.5	18.9	0.00e+00	0	55	0	765460480	36	4308
2026-01-02 14:40:17.00	178.86	16.50	-32.7	-34.4	19.0	0.00e+00	0	55	0	772800512	36	4287
2026-01-02 14:40:18.01	178.91	16.61	-32.6	-34.3	19.1	0.00e+00	0	55	0	780140544	36	4239
2026-01-02 14:40:19.02	178.96	16.73	-32.6	-34.4	19.1	0.00e+00	0	55	0	787480576	36	4254
2026-01-02 14:40:20.03	179.02	16.84	-32.7	-34.4	19.0	0.00e+00	0	55	0	794820608	36	4256
2026-01-02 14:40:21.04	179.07	16.95	-32.6	-34.3	19.1	0.00e+00	0	55	0	802160640	36	4205
2026-01-02 14:40:22.04	179.13	17.07	-32.6	-34.3	19.1	0.00e+00	0	55	0	809500672	36	4196
2026-01-02 14:40:23.05	179.18	17.18	-32.5	-34.2	19.2	0.00e+00	0	55	0	816840704	36	4173
2026-01-02 14:40:24.06	179.24	17.30	-31.8	-33.5	18.9	0.00e+00	0	55	0	824180736	34	4333
2026-01-02 14:40:25.07	179.30	17.41	-31.7	-33.5	19.0	0.00e+00	0	55	0	831520768	34	4317
2026-01-02 14:40:26.08	179.35	17.53	-31.7	-33.5	19.0	0.00e+00	0	55	0	838860800	34	4292
2026-01-02 14:40:27.09	179.41	17.65	-31.6	-33.4	19.1	0.00e+00	0	55	0	846200832	34	4248
2026-01-02 14:40:28.10	179.47	17.76	-31.6	-33.3	19.1	0.00e+00	0	55	0	853540864	34	4240
2026-01-02 14:40:29.11	179.52	17.88	-31.5	-33.2	19.2	0.00e+00	0	55	0	860880896	34	4193
2026-01-02 14:40:30.12	179.58	18.00	-31.5	-33.3	19.2	0.00e+00	0	55	0	868220928	33	4443
2026-01-02 14:40:31.14	179.64	18.12	-31.4	-33.1	19.3	0.00e+00	0	55	0	875560960	33	4352
2026-01-02 14:40:32.14	179.70	18.24	-31.4	-33.1	19.3	0.00e+00	0	55	0	882900992	33	4360
2026-01-02 14:40:33.16	179.76	18.36	-31.3	-33.0	19.4	0.00e+00	0	55	0	890241024	33	4300
2026-01-02 14:40:34.17	179.82	18.48	-31.2	-32.9	19.5	0.00e+00	0	55	0	897581056	33	4265
2026-01-02 14:40:35.18	179.88	18.60	-31.2	-32.8	19.6	0.00e+00	0	55	0	904921088	33	4236
2026-01-02 14:40:36.19	179.94	18.72	-31.2	-32.8	19.5	0.00e+00	0	55	0	911212544	33	4227
2026-01-02 14:40:37.20	180.00	18.85	-31.1	-32.7	19.6	0.00e+00	0	55	0	918552576	33	4178
2026-01-02 14:40:38.20	180.07	18.97	-31.1	-32.8	19.6	0.00e+00	0	55	0	925892608	33	4205
2026-01-02 14:40:39.21	180.13	19.09	-31.0	-32.6	19.7	0.00e+00	0	55	0	933232640	32	4371
2026-01-02 14:40:40.22	180.19	19.22	-30.9	-32.6	19.8	0.00e+00	0	55	0	940572672	32	4344
2026-01-02 14:40:41.23	180.25	19.34	-31.0	-32.6	19.7	0.00e+00	0	55	0	947912704	32	4360
2026-01-02 14:40:42.24	180.32	19.47	-30.9	-32.5	19.8	0.00e+00	0	55	0	955252736	32	4300
2026-01-02 14:40:43.25	180.38	19.59	-30.9	-32.5	19.8	0.00e+00	0	55	0	962592768	32	4337
2026-01-02 14:40:44.26	180.45	19.72	-30.9	-32.6	19.8	0.00e+00	0	55	0	969932800	32	4344
2026-01-02 14:40:45.27	180.51	19.85	-30.9	-32.5	19.8	0.00e+00	0	55	0	977272832	32	4330
2026-01-02 14:40:46.28	180.58	19.97	-30.8	-32.4	19.9	0.00e+00	0	55	0	984612864	32	4286
2026-01-02 14:40:47.29	180.65	20.10	-31.0	-32.7	19.7	0.00e+00	0	55	0	991952896	32	4392
2026-01-02 14:40:48.30	180.71	20.23	-31.0	-32.7	19.6	0.00e+00	0	55	0	999292928	32	4407
2026-01-02 14:40:49.31	180.78	20.36	-31.1	-32.8	19.6	0.00e+00	0	55	0	1006632960	32	4453
2026-01-02 14:40:50.32	180.85	20.49	-31.1	-32.8	19.5	0.00e+00	0	55	0	1013972992	32	4453
2026-01-02 14:40:51.33	180.92	20.62	-31.1	-32.8	19.5	0.00e+00	0	55	0	1021313024	32	4457
2026-01-02 14:40:52.35	180.99	20.76	-31.1	-32.9	19.5	0.00e+00	0	55	0	1028653056	32	4496
2026-01-02 14:40:53.36	181.06	20.89	-31.1	-32.8	19.5	0.00e+00	0	55	0	1035993088	32	4489
2026-01-02 14:40:54.37	181.13	21.02	-31.1	-32.8	19.5	0.00e+00	0	56	0	1043333120	32	4490
2026-01-02 14:40:55.38	181.20	21.16	-31.1	-32.8	19.5	0.00e+00	0	55	0	1050673152	32	4486
2026-01-02 14:40:56.39	181.27	21.29	-31.2	-32.9	19.4	0.00e+00	0	55	0	1056964608	32	4509
2026-01-02 14:40:57.40	181.34	21.43	-31.2	-32.9	19.4	0.00e+00	0	55	0	1064304640	32	4528
2026-01-02 14:40:58.41	181.41	21.56	-31.2	-33.0	19.4	0.00e+00	0	55	0	1072693248	32	4554
2026-01-02 14:40:59.42	181.49	21.70	-31.2	-33.0	19.4	0.00e+00	0	55	0	1078984704	32	4549
2026-01-02 14:41:00.43	181.56	21.83	-31.1	-32.9	19.5	0.00e+00	0	55	0	1086324736	32	4502
2026-01-02 14:41:01.44	181.64	21.97	-31.4	-33.1	19.3	0.00e+00	0	55	0	1093664768	32	4644
2026-01-02 14:41:02.45	181.71	22.11	-31.1	-32.8	19.6	0.00e+00	0	55	0	1101004800	32	4480
2026-01-02 14:41:03.46	181.79	22.25	-31.0	-32.7	19.7	0.00e+00	0	55	0	1108344832	32	4412
2026-01-02 14:41:04.47	181.86	22.39	-31.0	-32.6	19.8	0.00e+00	0	55	0	1115684864	32	4381
2026-01-02 14:41:05.48	181.94	22.53	-30.8	-32.4	20.0	0.00e+00	0	56	0	1123024896	32	4278
2026-01-02 14:41:06.50	182.02	22.67	-30.9	-32.5	20.0	0.00e+00	0	56	0	1130364928	32	4293
2026-01-02 14:41:07.50	182.10	22.81	-30.8	-32.3	20.1	0.00e+00	0	55	0	1137704960	32	4241
2026-01-02 14:41:08.51	182.18	22.96	-30.7	-32.3	20.2	0.00e+00	0	56	0	1145044992	32	4208
2026-01-02 14:41:09.52	182.26	23.10	-30.6	-32.1	20.3	0.00e+00	0	56	0	1152385024	32	4130
2026-01-02 14:41:10.53	182.34	23.25	-30.6	-32.1	20.3	0.00e+00	0	56	0	1159725056	32	4143
2026-01-02 14:41:11.55	182.42	23.39	-30.6	-32.1	20.3	0.00e+00	0	56	0	1167065088	32	4126
2026-01-02 14:41:12.56	182.50	23.54	-30.4	-31.9	20.4	0.00e+00	0	56	0	1174405120	31	4273
2026-01-02 14:41:13.57	182.58	23.68	-30.4	-31.8	20.4	0.00e+00	0	55	0	1181745152	31	4238
2026-01-02 14:41:14.57	182.67	23.83	-30.3	-31.8	20.5	0.00e+00	0	56	0	1189085184	31	4226
2026-01-02 14:41:15.58	182.75	23.98	-30.4	-31.8	20.5	0.00e+00	0	56	0	1196425216	31	4232
2026-01-02 14:41:16.59	182.84	24.13	-30.3	-31.8	20.5	0.00e+00	0	56	0	1203765248	31	4227
2026-01-02 14:41:17.61	182.92	24.28	-30.4	-31.9	20.4	0.00e+00	0	56	0	1211105280	31	4256
2026-01-02 14:41:18.62	183.01	24.43	-30.4	-31.9	20.3	0.00e+00	0	56	0	1218445312	31	4278
2026-01-02 14:41:19.63	183.10	24.58	-30.4	-31.9	20.3	0.00e+00	0	56	0	1225785344	31	4291
2026-01-02 14:41:20.64	183.18	24.73	-30.5	-32.0	20.2	0.00e+00	0	56	0	1232076800	31	4331
2026-01-02 14:41:21.65	183.27	24.89	-30.5	-32.1	20.2	0.00e+00	0	56	0	1239416832	31	4375
2026-01-02 14:41:22.65	183.36	25.04	-30.6	-32.1	20.1	0.00e+00	0	56	0	1247805440	31	4390
2026-01-02 14:41:23.66	183.45	25.19	-30.6	-32.2	20.1	0.00e+00	0	56	0	1254096896	31	4433
2026-01-02 14:41:24.67	183.54	25.35	-30.6	-32.2	20.1	0.00e+00	0	56	0	1261436928	31	4402
2026-01-02 14:41:25.68	183.64	25.51	-30.6	-32.2	20.1	0.00e+00	0	56	0	1268776960	31	4409
2026-01-02 14:41:26.70	183.73	25.66	-30.5	-32.2	20.1	0.00e+00	0	56	0	1276116992	31	4393
2026-01-02 14:41:27.71	183.83	25.82	-30.4	-32.0	20.2	0.00e+00	0	56	0	1283457024	31	4316
2026-01-02 14:41:28.72	183.92	25.98	-30.4	-32.0	20.2	0.00e+00	0	56	0	1290797056	31	4315
2026-01-02 14:41:29.73	184.02	26.14	-30.4	-32.0	20.2	0.00e+00	0	56	0	1298137088	31	4309
2026-01-02 14:41:30.74	184.11	26.30	-30.3	-31.9	20.3	0.00e+00	0	56	0	1305477120	31	4288
2026-01-02 14:41:31.75	184.21	26.46	-30.2	-31.8	20.4	0.00e+00	0	56	0	1312817152	31	4225
2026-01-02 14:41:32.76	184.31	26.63	-30.2	-31.8	20.4	0.00e+00	0	56	0	1320157184	31	4204
2026-01-02 14:41:33.77	184.41	26.79	-30.1	-31.6	20.5	0.00e+00	0	56	0	1327497216	31	4134
2026-01-02 14:41:34.78	184.51	26.95	-30.1	-31.7	20.4	0.00e+00	0	56	0	1334837248	31	4170
2026-01-02 14:41:35.79	184.61	27.12	-30.0	-31.6	20.5	0.00e+00	0	56	0	1342177280	31	4138
2026-01-02 14:41:36.80	184.72	27.28	-29.9	-31.5	20.6	0.00e+00	0	56	0	1349517312	30	4316
2026-01-02 14:41:37.80	184.82	27.45	-29.9	-31.4	20.6	0.00e+00	0	56	0	1356857344	30	4281
2026-01-02 14:41:38.81	184.92	27.62	-30.0	-31.6	20.6	0.00e+00	0	56	0	1364197376	30	4341
2026-01-02 14:41:39.82	185.03	27.79	-29.8	-31.4	20.7	0.00e+00	0	56	0	1371537408	30	4252
2026-01-02 14:41:40.83	185.14	27.96	-29.8	-31.3	20.8	0.00e+00	0	56	0	1377828864	30	4233
2026-01-02 14:41:41.84	185.25	28.13	-29.8	-31.3	20.8	0.00e+00	0	56	0	1385168896	30	4233
2026-01-02 14:41:42.85	185.36	28.30	-29.8	-31.3	20.8	0.00e+00	0	56	0	1392508928	30	4225
2026-01-02 14:41:43.86	185.47	28.47	-29.8	-31.4	20.8	0.00e+00	0	56	0	1399848960	30	4249
2026-01-02 14:41:44.87	185.58	28.65	-29.9	-31.4	20.8	0.00e+00	0	56	0	1407188992	30	4272
2026-01-02 14:41:45.88	185.69	28.82	-29.9	-31.4	20.8	0.00e+00	0	56	0	1414529024	30	4288
2026-01-02 14:41:46.89	185.80	29.00	-29.9	-31.5	20.7	0.00e+00	0	56	0	1421869056	30	4317
2026-01-02 14:41:47.90	185.92	29.17	-29.9	-31.5	20.8	0.00e+00	0	56	0	1429209088	30	4298
2026-01-02 14:41:48.91	186.04	29.35	-29.8	-31.3	20.9	0.00e+00	0	56	0	1436549120	30	4239
2026-01-02 14:41:49.92	186.15	29.53	-29.9	-31.4	20.9	0.00e+00	0	56	0	1443889152	30	4272
2026-01-02 14:41:50.93	186.27	29.71	-29.9	-31.4	20.9	0.00e+00	0	56	0	1451229184	30	4260
2026-01-02 14:41:51.94	186.39	29.89	-29.9	-31.4	20.9	0.00e+00	0	56	0	1458569216	30	4274
2026-01-02 14:41:52.95	186.52	30.07	-30.0	-31.5	20.8	0.00e+00	0	56	0	1465909248	30	4314
2026-01-02 14:41:53.96	186.64	30.25	-30.2	-31.7	20.6	0.00e+00	0	56	0	1473249280	30	4434
2026-01-02 14:41:54.97	186.76	30.44	-29.9	-31.4	20.9	0.00e+00	0	56	0	1480589312	30	4285
2026-01-02 14:41:55.97	186.89	30.62	-29.9	-31.4	21.0	0.00e+00	0	56	0	1487929344	30	4272
2026-01-02 14:41:56.98	187.01	30.81	-30.0	-31.5	20.9	0.00e+00	0	56	0	1495269376	30	4307
2026-01-02 14:41:57.99	187.14	30.99	-30.0	-31.5	20.9	0.00e+00	0	56	0	1502609408	30	4311
2026-01-02 14:41:59.00	187.27	31.18	-30.1	-31.6	20.9	0.00e+00	0	56	0	1508900864	30	4365
2026-01-02 14:42:00.01	187.40	31.37	-30.1	-31.5	20.9	0.00e+00	0	56	0	1517289472	30	4339
2026-01-02 14:42:01.02	187.54	31.56	-30.1	-31.5	20.8	0.00e+00	0	56	0	1524629504	30	4338
2026-01-02 14:42:02.03	187.67	31.75	-30.0	-31.5	20.8	0.00e+00	0	56	0	1530920960	30	4332
2026-01-02 14:42:03.04	187.81	31.94	-30.0	-31.4	20.9	0.00e+00	0	56	0	1538260992	30	4283
2026-01-02 14:42:04.05	187.95	32.13	-30.1	-31.6	20.7	0.00e+00	0	56	0	1545601024	30	4359
2026-01-02 14:42:05.06	188.09	32.33	-29.8	-31.3	21.1	0.00e+00	0	56	0	1552941056	30	4201
2026-01-02 14:42:06.06	188.22	32.52	-29.7	-31.2	21.0	0.00e+00	0	56	0	1560281088	30	4169
2026-01-02 14:42:07.07	188.37	32.72	-29.7	-31.2	21.0	0.00e+00	0	56	0	1567621120	30	4169
2026-01-02 14:42:08.08	188.51	32.92	-29.7	-31.1	21.1	0.00e+00	0	56	0	1574961152	30	4142
2026-01-02 14:42:09.09	188.66	33.11	-29.8	-31.3	20.9	0.00e+00	0	56	0	1582301184	30	4195
2026-01-02 14:42:10.10	188.81	33.31	-29.9	-31.4	20.8	0.00e+00	0	56	0	1589641216	29	4531
2026-01-02 14:42:11.11	188.95	33.52	-29.8	-31.3	20.9	0.00e+00	0	56	0	1596981248	29	4469
2026-01-02 14:42:12.12	189.11	33.72	-29.8	-31.4	20.8	0.00e+00	0	56	0	1604321280	29	4506
2026-01-02 14:42:13.13	189.26	33.92	-29.9	-31.4	20.8	0.00e+00	0	56	0	1611661312	29	4533
2026-01-02 14:42:14.14	189.41	34.12	-29.9	-31.5	20.8	0.00e+00	0	56	0	1619001344	29	4546
2026-01-02 14:42:15.16	189.57	34.33	-29.6	-31.2	21.1	0.00e+00	0	56	0	1626341376	29	4394
2026-01-02 14:42:16.17	189.73	34.54	-30.0	-31.6	20.7	0.00e+00	0	56	0	1633681408	29	4643
2026-01-02 14:42:17.18	189.89	34.75	-30.1	-31.7	20.6	0.00e+00	0	56	0	1641021440	29	4702
2026-01-02 14:42:18.19	190.06	34.95	-30.2	-31.8	20.6	0.00e+00	0	56	0	1648361472	29	4736
2026-01-02 14:42:19.20	190.22	35.16	-30.2	-31.8	20.6	0.00e+00	0	56	0	1655701504	29	4732
2026-01-02 14:42:20.20	190.39	35.37	-30.2	-31.8	20.6	0.00e+00	0	56	0	1663041536	30	4463
2026-01-02 14:42:21.21	190.56	35.59	-30.2	-31.9	20.6	0.00e+00	0	56	0	1670381568	30	4510
2026-01-02 14:42:22.22	190.73	35.80	-30.2	-31.9	20.6	0.00e+00	0	56	0	1677721600	30	4509
2026-01-02 14:42:23.23	190.90	36.01	-30.3	-31.9	20.5	0.00e+00	0	56	0	1684013056	30	4541
2026-01-02 14:42:24.24	191.08	36.23	-30.4	-32.0	20.5	0.00e+00	0	56	0	1691353088	30	4587
2026-01-02 14:42:25.25	191.25	36.45	-30.2	-31.8	20.6	0.00e+00	0	56	0	1699741696	30	4472
2026-01-02 14:42:26.26	191.43	36.66	-30.3	-31.9	20.5	0.00e+00	0	56	0	1706033152	30	4512
2026-01-02 14:42:27.28	191.62	36.88	-30.3	-31.9	20.5	0.00e+00	0	56	0	1713373184	30	4535
2026-01-02 14:42:28.29	191.80	37.10	-30.3	-31.9	20.5	0.00e+00	0	56	0	1720713216	30	4506
2026-01-02 14:42:29.30	191.99	37.33	-30.1	-31.7	20.6	0.00e+00	0	56	0	1728053248	30	4434
2026-01-02 14:42:30.31	192.18	37.55	-30.1	-31.8	20.5	0.00e+00	0	56	0	1735393280	30	4448
2026-01-02 14:42:31.32	192.37	37.77	-30.1	-31.8	20.5	0.00e+00	0	56	0	1742733312	30	4448
2026-01-02 14:42:32.33	192.57	38.00	-30.1	-31.6	20.6	0.00e+00	0	56	0	1750073344	30	4389
2026-01-02 14:42:33.34	192.77	38.22	-30.1	-31.7	20.5	0.00e+00	0	56	0	1757413376	30	4428
2026-01-02 14:42:34.35	192.97	38.45	-30.1	-31.7	20.6	0.00e+00	0	56	0	1764753408	30	4392
2026-01-02 14:42:35.36	193.17	38.68	-30.2	-31.8	20.5	0.00e+00	0	56	0	1772093440	30	4476
2026-01-02 14:42:36.37	193.38	38.91	-29.8	-31.3	21.0	0.00e+00	0	56	0	1779433472	30	4233
2026-01-02 14:42:37.38	193.59	39.14	-30.4	-32.0	20.4	0.00e+00	0	56	0	1786773504	31	4299
2026-01-02 14:42:38.39	193.80	39.37	-30.4	-32.0	20.4	0.00e+00	0	56	0	1794113536	31	4303
2026-01-02 14:42:39.40	194.02	39.60	-30.3	-31.9	20.6	0.00e+00	0	56	0	1801453568	31	4252
2026-01-02 14:42:40.41	194.23	39.84	-30.4	-32.0	20.5	0.00e+00	0	56	0	1808793600	31	4300
2026-01-02 14:42:41.42	194.45	40.07	-30.5	-32.1	20.3	0.00e+00	0	56	0	1816133632	31	4354
2026-01-02 14:42:42.43	194.68	40.31	-30.3	-31.7	20.8	0.00e+00	0	56	0	1823473664	31	4182
2026-01-02 14:42:43.44	194.91	40.54	-30.5	-32.0	20.6	0.00e+00	0	56	0	1829765120	31	4296
2026-01-02 14:42:44.45	195.14	40.78	-30.5	-32.0	20.5	0.00e+00	0	56	0	1837105152	31	4324
2026-01-02 14:42:45.46	195.37	41.02	-30.4	-31.9	20.6	0.00e+00	0	57	0	1845493760	31	4277
2026-01-02 14:42:46.47	195.61	41.26	-30.2	-31.7	20.8	0.00e+00	0	56	0	1851785216	31	4156
2026-01-02 14:42:47.48	195.85	41.50	-30.3	-31.8	20.7	0.00e+00	0	57	0	1859125248	31	4209
2026-01-02 14:42:48.49	196.10	41.74	-30.4	-31.9	20.7	0.00e+00	0	56	0	1866465280	31	4254
2026-01-02 14:42:49.50	196.34	41.99	-30.3	-31.9	20.7	0.00e+00	0	56	0	1873805312	31	4250
2026-01-02 14:42:50.51	196.60	42.23	-30.4	-32.0	20.5	0.00e+00	0	56	0	1881145344	31	4320
2026-01-02 14:42:51.52	196.85	42.48	-30.4	-32.0	20.5	0.00e+00	0	56	0	1888485376	31	4301
2026-01-02 14:42:52.53	197.11	42.72	-30.4	-31.9	20.6	0.00e+00	0	57	0	1895825408	31	4274
2026-01-02 14:42:53.54	197.38	42.97	-30.4	-31.9	20.6	0.00e+00	0	56	0	1903165440	31	4278
2026-01-02 14:42:54.55	197.65	43.22	-30.5	-32.0	20.5	0.00e+00	0	56	0	1910505472	31	4331
2026-01-02 14:42:55.56	197.92	43.47	-30.5	-32.1	20.5	0.00e+00	0	56	0	1917845504	31	4352
2026-01-02 14:42:56.58	198.20	43.72	-30.6	-32.1	20.5	0.00e+00	0	57	0	1925185536	31	4369
2026-01-02 14:42:57.59	198.48	43.97	-30.6	-32.1	20.5	0.00e+00	0	56	0	1932525568	31	4350
2026-01-02 14:42:58.60	198.76	44.23	-30.8	-32.3	20.3	0.00e+00	0	56	0	1939865600	31	4485
2026-01-02 14:42:59.61	199.05	44.48	-30.7	-32.2	20.4	0.00e+00	0	57	0	1947205632	31	4426
2026-01-02 14:43:00.62	199.35	44.73	-30.6	-32.0	20.6	0.00e+00	0	56	0	1954545664	31	4330
2026-01-02 14:43:01.63	199.64	44.99	-30.4	-31.9	20.8	0.00e+00	0	57	0	1961885696	31	4244
2026-01-02 14:43:02.64	199.95	45.24	-31.0	-32.6	20.2	0.00e+00	0	56	0	1969225728	31	4632
2026-01-02 14:43:03.65	200.26	45.50	-30.5	-32.0	20.8	4.50e-06	0	56	0	1976565760	31	4302
2026-01-02 14:43:04.66	200.57	45.75	-31.4	-32.4	21.5	0.00e+00	0	56	0	1983905792	32	4250
2026-01-02 14:43:05.67	200.89	46.01	-31.7	-32.6	21.3	0.00e+00	0	57	0	1991245824	32	4390
2026-01-02 14:43:06.68	201.21	46.27	-31.9	-32.9	21.0	0.00e+00	0	57	0	1998585856	33	4250
2026-01-02 14:43:07.69	201.54	46.53	-31.6	-32.5	21.4	0.00e+00	0	56	0	2004877312	33	4063
2026-01-02 14:43:08.70	201.87	46.79	-32.1	-33.1	20.8	0.00e+00	0	56	0	2012217344	33	4365
2026-01-02 14:43:09.71	202.21	47.05	-31.9	-32.9	21.0	0.00e+00	0	57	0	2020605952	33	4249
2026-01-02 14:43:10.72	202.56	47.31	-31.8	-32.8	21.1	0.00e+00	0	57	0	2026897408	33	4220
2026-01-02 14:43:11.73	202.91	47.57	-31.7	-32.6	21.3	0.00e+00	0	56	0	2034237440	33	4132
2026-01-02 14:43:12.74	203.27	47.83	-31.5	-32.4	21.4	0.00e+00	0	57	0	2041577472	33	4047
2026-01-02 14:43:13.75	203.63	48.09	-31.7	-32.6	21.3	0.00e+00	0	56	0	2048917504	33	4115
2026-01-02 14:43:14.76	204.00	48.36	-31.8	-32.7	21.1	0.00e+00	0	57	0	2056257536	33	4193
2026-01-02 14:43:15.77	204.37	48.62	-31.8	-32.8	21.1	0.00e+00	0	56	0	2063597568	33	4207
2026-01-02 14:43:16.78	204.76	48.88	-31.8	-32.7	21.2	0.00e+00	0	57	0	2070937600	33	4167
2026-01-02 14:43:17.79	205.14	49.14	-31.7	-32.7	21.2	0.00e+00	0	56	0	2078277632	33	4149
2026-01-02 14:43:18.80	205.54	49.41	-31.9	-32.9	21.0	0.00e+00	0	57	0	2085617664	34	4021
2026-01-02 14:43:19.81	205.94	49.67	-32.1	-33.1	20.8	0.00e+00	0	57	0	2092957696	34	4103
2026-01-02 14:43:20.82	206.35	49.93	-32.2	-33.1	20.8	0.00e+00	0	57	0	2100297728	34	4131
2026-01-02 14:43:21.82	206.76	50.19	-32.3	-33.2	20.7	0.00e+00	0	56	0	2107637760	34	4182
2026-01-02 14:43:22.83	207.18	50.46	-32.3	-33.3	20.7	0.00e+00	0	57	0	2114977792	34	4202
2026-01-02 14:43:23.84	207.61	50.72	-33.2	-34.2	19.3	0.00e+00	0	57	0	2122317824	37	3915
2026-01-02 14:43:24.85	208.05	50.98	-32.7	-33.7	20.2	0.00e+00	0	56	0	2128609280	35	4193
2026-01-02 14:43:25.86	208.50	51.24	-32.5	-33.5	20.4	0.00e+00	0	57	0	2136997888	35	4079
2026-01-02 14:43:26.87	208.95	51.51	-32.3	-33.2	20.6	0.00e+00	0	57	0	2144337920	35	3940
2026-01-02 14:43:27.88	209.41	51.77	-32.3	-33.3	20.6	0.00e+00	0	57	0	2150629376	35	3972
2026-01-02 14:43:28.89	209.88	52.03	-32.1	-33.1	20.8	0.00e+00	0	56	0	2157969408	34	4116
2026-01-02 14:43:29.90	210.36	52.29	-32.4	-33.4	20.4	0.00e+00	0	57	0	2165309440	34	4267
2026-01-02 14:43:30.91	210.84	52.55	-32.2	-33.2	20.8	0.00e+00	0	57	0	2172649472	34	4164
2026-01-02 14:43:31.92	211.34	52.81	-32.2	-33.2	20.7	0.00e+00	0	57	0	2179989504	34	4163
2026-01-02 14:43:32.93	211.84	53.07	-32.1	-33.0	20.8	0.00e+00	0	57	0	2187329536	34	4086
2026-01-02 14:43:33.94	212.35	53.32	-32.0	-33.0	20.9	0.00e+00	0	56	0	2194669568	34	4058
2026-01-02 14:43:34.95	212.87	53.58	-32.4	-33.4	20.5	0.00e+00	0	57	0	2202009600	34	4265
2026-01-02 14:43:35.96	213.40	53.84	-32.5	-33.5	20.4	0.00e+00	0	57	0	2209349632	34	4317
2026-01-02 14:43:36.97	213.94	54.09	-32.6	-33.6	20.3	0.00e+00	0	56	0	2216689664	34	4386
2026-01-02 14:43:37.98	214.49	54.34	-32.7	-33.7	20.2	0.00e+00	0	57	0	2224029696	35	4153
2026-01-02 14:43:38.98	215.04	54.59	-32.7	-33.7	20.2	0.00e+00	0	57	0	2231369728	35	4191
2026-01-02 14:43:39.99	215.61	54.84	-32.3	-33.3	20.6	0.00e+00	0	57	0	2238709760	35	3966
2026-01-02 14:43:41.00	216.19	55.09	-32.3	-33.3	20.7	0.00e+00	0	57	0	2246049792	35	3976
2026-01-02 14:43:42.01	216.78	55.34	-32.3	-33.3	20.7	0.00e+00	0	56	0	2253389824	35	3973
2026-01-02 14:43:43.02	217.38	55.58	-32.3	-33.3	20.5	0.00e+00	0	57	0	2260729856	35	3979
2026-01-02 14:43:44.03	217.98	55.82	-32.1	-33.1	20.8	0.00e+00	0	57	0	2268069888	35	3871
2026-01-02 14:43:45.04	218.60	56.06	-32.0	-33.0	20.8	0.00e+00	0	57	0	2275409920	34	4073
2026-01-02 14:43:46.05	219.23	56.30	-32.3	-33.3	20.6	0.00e+00	0	57	0	2281701376	34	4217
2026-01-02 14:43:47.06	219.87	56.54	-32.4	-33.4	20.6	0.00e+00	0	57	0	2290089984	34	4247
2026-01-02 14:43:48.07	220.53	56.77	-32.3	-33.3	20.7	0.00e+00	0	57	0	2297430016	34	4212
2026-01-02 14:43:49.08	221.19	57.00	-32.3	-33.3	20.6	0.00e+00	0	57	0	2303721472	34	4218
2026-01-02 14:43:50.09	221.86	57.23	-32.3	-33.2	20.6	0.00e+00	0	57	0	2311061504	34	4185
2026-01-02 14:43:51.10	222.55	57.46	-32.1	-33.1	20.5	0.00e+00	0	57	0	2318401536	34	4118
2026-01-02 14:43:52.11	223.24	57.68	-32.0	-32.9	20.9	0.00e+00	0	57	0	2325741568	34	4047
2026-01-02 14:43:53.12	223.95	57.90	-32.1	-33.1	20.8	0.00e+00	0	56	0	2333081600	34	4115
2026-01-02 14:43:54.13	224.67	58.11	-31.9	-32.9	21.0	0.00e+00	0	57	0	2340421632	34	4007
2026-01-02 14:43:55.15	225.41	58.33	-31.9	-32.9	20.9	0.00e+00	0	57	0	2347761664	34	4020
2026-01-02 14:43:56.16	226.15	58.54	-32.0	-32.9	20.9	0.00e+00	0	57	0	2355101696	34	4025
2026-01-02 14:43:57.17	226.90	58.74	-32.3	-33.3	20.6	0.00e+00	0	57	0	2362441728	34	4227
2026-01-02 14:43:58.18	227.67	58.94	-32.4	-33.4	20.6	0.00e+00	0	57	0	2369781760	34	4254
2026-01-02 14:43:59.19	228.45	59.14	-32.2	-33.2	20.7	0.00e+00	0	57	0	2377121792	34	4154
2026-01-02 14:44:00.20	229.23	59.33	-31.7	-32.7	21.1	0.00e+00	0	57	0	2384461824	34	3915
2026-01-02 14:44:01.21	230.03	59.52	-31.8	-32.8	20.9	0.00e+00	0	57	0	2391801856	34	3965
2026-01-02 14:44:02.22	230.85	59.71	-32.1	-33.1	20.7	0.00e+00	0	57	0	2399141888	34	4110
2026-01-02 14:44:03.23	231.67	59.88	-32.0	-33.0	20.9	0.00e+00	0	57	0	2406481920	34	4069
2026-01-02 14:44:04.24	232.50	60.06	-32.1	-33.0	20.9	0.00e+00	0	56	0	2413821952	34	4084
2026-01-02 14:44:05.25	233.35	60.23	-32.3	-33.3	20.6	0.00e+00	0	57	0	2421161984	34	4218
2026-01-02 14:44:06.26	234.20	60.39	-32.3	-33.2	20.6	0.00e+00	0	56	0	2428502016	34	4193
2026-01-02 14:44:07.27	235.07	60.55	-32.3	-33.3	20.6	0.00e+00	0	57	0	2435842048	34	4237
2026-01-02 14:44:08.28	235.95	60.71	-32.2	-33.2	20.7	0.00e+00	0	56	0	2443182080	34	4161
2026-01-02 14:44:09.29	236.84	60.85	-31.9	-32.9	21.0	0.00e+00	0	57	0	2449473536	34	4024
2026-01-02 14:44:10.30	237.73	61.00	-31.9	-32.8	21.0	1.14e-05	0	57	0	2456813568	34	3988
2026-01-02 14:44:11.31	238.64	61.13	-32.2	-33.3	20.5	0.00e+00	0	56	0	2465202176	34	4194
2026-01-02 14:44:12.32	239.56	61.26	-32.0	-33.0	20.9	3.40e-06	0	57	0	2471493632	34	4058
2026-01-02 14:44:13.33	240.49	61.39	-31.9	-32.8	21.0	0.00e+00	0	57	0	2478833664	34	3983
2026-01-02 14:44:14.34	241.42	61.50	-31.7	-32.7	21.1	0.00e+00	0	57	0	2486173696	34	3917
2026-01-02 14:44:15.35	242.37	61.61	-31.7	-32.7	21.1	0.00e+00	0	57	0	2493513728	34	3923
2026-01-02 14:44:16.36	243.32	61.72	-31.7	-32.7	21.0	0.00e+00	0	57	0	2500853760	34	3928
2026-01-02 14:44:17.37	244.28	61.82	-31.7	-32.6	21.2	0.00e+00	0	57	0	2508193792	34	3902
2026-01-02 14:44:18.38	245.25	61.91	-31.8	-32.7	21.1	0.00e+00	0	57	0	2515533824	34	3942
2026-01-02 14:44:19.39	246.23	61.99	-31.8	-32.8	21.1	0.00e+00	0	57	0	2522873856	34	3980
2026-01-02 14:44:20.40	247.21	62.07	-31.6	-32.5	21.3	0.00e+00	0	57	0	2530213888	34	3863
2026-01-02 14:44:21.41	248.20	62.14	-31.3	-32.2	21.6	0.00e+00	0	57	0	2537553920	33	3917
2026-01-02 14:44:22.42	249.19	62.21	-31.5	-32.5	21.3	0.00e+00	0	57	0	2544893952	33	4056
2026-01-02 14:44:23.43	250.19	62.26	-31.5	-32.5	21.4	0.00e+00	0	57	0	2552233984	33	4053
2026-01-02 14:44:24.44	251.19	62.31	-31.6	-32.6	21.2	0.00e+00	0	57	0	2559574016	33	4112
2026-01-02 14:44:25.45	252.19	62.35	-31.5	-32.4	21.3	0.00e+00	0	57	0	2566914048	33	4048
2026-01-02 14:44:26.45	253.19	62.38	-31.4	-32.3	21.4	0.00e+00	0	57	0	2574254080	33	3988
2026-01-02 14:44:27.46	254.20	62.41	-31.5	-32.4	21.4	0.00e+00	0	57	0	2581594112	33	4049
2026-01-02 14:44:28.47	255.22	62.43	-31.7	-32.7	21.1	0.00e+00	0	57	0	2588934144	33	4155
2026-01-02 14:44:29.49	256.24	62.44	-31.7	-32.6	21.1	0.00e+00	0	57	0	2596274176	33	4144
2026-01-02 14:44:30.50	257.26	62.45	-31.6	-32.5	21.2	0.00e+00	0	57	0	2602565632	33	4082
2026-01-02 14:44:31.51	258.27	62.44	-31.6	-32.5	21.3	0.00e+00	0	56	0	2610954240	33	4082
2026-01-02 14:44:32.52	259.28	62.43	-31.7	-32.6	21.2	0.00e+00	0	57	0	2618294272	33	4121
2026-01-02 14:44:33.53	260.30	62.41	-31.5	-32.5	21.2	0.00e+00	0	57	0	2624585728	33	4054
2026-01-02 14:44:34.54	261.31	62.39	-31.8	-32.7	21.1	0.00e+00	0	57	0	2631925760	33	4168
2026-01-02 14:44:35.55	262.32	62.35	-31.7	-32.6	21.2	0.00e+00	0	57	0	2639265792	33	4122
2026-01-02 14:44:36.56	263.32	62.31	-31.6	-32.5	21.2	0.00e+00	0	57	0	2646605824	33	4087
2026-01-02 14:44:37.57	264.32	62.26	-31.3	-32.2	21.4	0.00e+00	0	57	0	2653945856	33	3955
2026-01-02 14:44:38.58	265.32	62.21	-31.3	-32.2	21.5	0.00e+00	0	57	0	2661285888	33	3935
2026-01-02 14:44:39.59	266.32	62.15	-31.5	-32.5	21.3	0.00e+00	0	57	0	2668625920	33	4053
2026-01-02 14:44:40.60	267.30	62.08	-31.9	-32.8	21.0	0.00e+00	0	57	0	2675965952	33	4226
2026-01-02 14:44:41.60	268.27	62.00	-31.9	-32.9	20.9	0.00e+00	0	57	0	2683305984	33	4243
2026-01-02 14:44:42.61	269.25	61.92	-31.7	-32.7	21.0	0.00e+00	0	57	0	2690646016	33	4159
2026-01-02 14:44:43.62	270.22	61.83	-31.6	-32.5	21.3	0.00e+00	0	57	0	2697986048	33	4069
2026-01-02 14:44:44.63	271.18	61.73	-31.7	-32.6	21.2	0.00e+00	0	57	0	2705326080	33	4139
2026-01-02 14:44:45.64	272.13	61.62	-32.0	-32.9	20.9	0.00e+00	0	57	0	2712666112	33	4278
2026-01-02 14:44:46.65	273.08	61.51	-32.4	-33.4	20.4	0.00e+00	0	57	0	2720006144	34	4245
2026-01-02 14:44:47.66	274.01	61.40	-32.3	-33.3	20.5	0.00e+00	0	57	0	2727346176	34	4206
2026-01-02 14:44:48.67	274.94	61.27	-32.4	-33.3	20.5	0.00e+00	0	57	0	2734686208	34	4239
2026-01-02 14:44:49.68	275.86	61.14	-32.2	-33.2	20.6	0.00e+00	0	57	0	2742026240	34	4178
2026-01-02 14:44:50.69	276.76	61.01	-32.0	-32.9	20.8	0.00e+00	0	57	0	2748317696	34	4035
2026-01-02 14:44:51.70	277.66	60.87	-32.1	-33.0	20.6	0.00e+00	0	57	0	2755657728	34	4084
2026-01-02 14:44:52.71	278.55	60.72	-32.3	-33.3	20.1	0.00e+00	0	57	0	2764046336	34	4216
2026-01-02 14:44:53.72	279.43	60.57	-32.2	-33.2	20.0	0.00e+00	0	57	0	2770337792	34	4181
2026-01-02 14:44:54.73	280.30	60.41	-31.8	-32.8	20.4	0.00e+00	0	57	0	2777677824	34	3962
2026-01-02 14:44:55.74	281.15	60.25	-31.9	-32.8	20.4	0.00e+00	0	57	0	2785017856	34	3995
2026-01-02 14:44:56.75	282.00	60.08	-32.2	-33.2	19.9	0.00e+00	0	57	0	2792357888	34	4156
2026-01-02 14:44:57.76	282.83	59.90	-32.3	-33.3	19.7	0.00e+00	0	57	0	2799697920	34	4227
2026-01-02 14:44:58.77	283.65	59.72	-32.4	-33.4	19.8	0.00e+00	0	57	0	2807037952	34	4266
2026-01-02 14:44:59.78	284.46	59.54	-32.4	-33.4	20.2	0.00e+00	0	57	0	2814377984	34	4285
2026-01-02 14:45:00.78	285.26	59.36	-32.5	-33.5	20.3	0.00e+00	0	57	0	2821718016	34	4323
2026-01-02 14:45:01.79	286.04	59.16	-32.7	-33.7	20.1	0.00e+00	0	57	0	2829058048	35	4160
2026-01-02 14:45:02.80	286.82	58.97	-32.5	-33.5	20.2	0.00e+00	0	57	0	2836398080	35	4090
2026-01-02 14:45:03.81	287.59	58.77	-32.1	-33.0	20.7	0.00e+00	0	57	0	2843738112	35	3861
2026-01-02 14:45:04.82	288.34	58.56	-32.0	-33.0	20.8	0.00e+00	0	57	0	2851078144	34	4054
2026-01-02 14:45:05.83	289.08	58.36	-32.1	-33.1	20.6	0.00e+00	0	57	0	2858418176	34	4121
2026-01-02 14:45:06.84	289.81	58.14	-32.3	-33.3	20.5	0.00e+00	0	57	0	2865758208	34	4211
2026-01-02 14:45:07.85	290.53	57.93	-32.4	-33.4	20.3	0.00e+00	0	57	0	2873098240	34	4263
2026-01-02 14:45:08.87	291.25	57.71	-32.4	-33.4	20.4	0.00e+00	0	57	0	2880438272	34	4255
2026-01-02 14:45:09.88	291.94	57.49	-32.2	-33.2	20.6	0.00e+00	0	57	0	2887778304	34	4167
2026-01-02 14:45:10.89	292.63	57.26	-32.1	-33.0	20.5	0.00e+00	0	57	0	2895118336	34	4090
2026-01-02 14:45:11.90	293.30	57.04	-32.2	-33.1	20.6	0.00e+00	0	57	0	2901409792	34	4134
2026-01-02 14:45:12.91	293.96	56.81	-32.3	-33.3	20.3	0.00e+00	0	57	0	2909798400	34	4225
2026-01-02 14:45:13.92	294.62	56.57	-32.5	-33.5	19.5	0.00e+00	0	57	0	2917138432	34	4330
2026-01-02 14:45:14.93	295.26	56.34	-32.5	-33.5	19.8	0.00e+00	0	57	0	2923429888	34	4322
2026-01-02 14:45:15.94	295.89	56.10	-32.4	-33.4	19.5	0.00e+00	0	57	0	2930769920	34	4255
2026-01-02 14:45:16.95	296.51	55.86	-31.9	-32.8	20.8	0.00e+00	0	57	0	2938109952	34	3979
2026-01-02 14:45:17.96	297.12	55.62	-31.8	-32.8	21.0	0.00e+00	0	57	0	2945449984	34	3966
2026-01-02 14:45:18.97	297.71	55.38	-32.1	-33.1	20.8	0.00e+00	0	57	0	2952790016	34	4103
2026-01-02 14:45:19.98	298.30	55.13	-32.5	-33.5	20.4	0.00e+00	0	57	0	2960130048	34	4292
2026-01-02 14:45:20.99	298.88	54.88	-32.7	-33.7	20.2	0.00e+00	0	57	0	2967470080	35	4174
2026-01-02 14:45:22.00	299.45	54.63	-32.8	-33.8	20.1	0.00e+00	0	57	0	2974810112	35	4219
2026-01-02 14:45:23.01	300.01	54.38	-32.7	-33.7	20.1	0.00e+00	0	57	0	2982150144	35	4193
2026-01-02 14:45:24.02	300.56	54.13	-32.5	-33.5	20.3	0.00e+00	0	57	0	2989490176	35	4088
2026-01-02 14:45:25.03	301.09	53.88	-32.4	-33.3	20.6	0.00e+00	0	57	0	2996830208	35	3997
2026-01-02 14:45:26.04	301.62	53.63	-32.3	-33.3	20.4	0.00e+00	0	57	0	3004170240	35	3978
2026-01-02 14:45:27.04	302.14	53.37	-32.5	-33.5	20.4	0.00e+00	0	57	0	3011510272	35	4080
2026-01-02 14:45:28.05	302.65	53.12	-32.5	-33.5	20.4	0.00e+00	0	57	0	3018850304	35	4066
2026-01-02 14:45:29.06	303.16	52.86	-32.4	-33.4	20.5	0.00e+00	0	57	0	3026190336	35	4013
2026-01-02 14:45:30.07	303.65	52.60	-32.2	-33.2	20.5	0.00e+00	0	57	0	3033530368	35	3945
2026-01-02 14:45:31.08	304.14	52.34	-32.3	-33.3	20.5	0.00e+00	0	57	0	3040870400	35	3991
2026-01-02 14:45:32.09	304.61	52.08	-32.3	-33.2	20.6	0.00e+00	0	57	0	3047161856	35	3956
2026-01-02 14:45:33.10	305.08	51.82	-32.4	-33.4	20.4	0.00e+00	0	57	0	3055550464	35	4012
2026-01-02 14:45:34.12	305.55	51.56	-32.3	-33.3	20.6	0.00e+00	0	57	0	3062890496	35	3991
2026-01-02 14:45:35.13	306.00	51.30	-32.3	-33.3	20.6	0.00e+00	0	57	0	3069181952	35	3961
2026-01-02 14:45:36.14	306.45	51.04	-32.1	-33.1	20.8	0.00e+00	0	57	0	3076521984	35	3877
2026-01-02 14:45:37.15	306.88	50.77	-32.2	-33.2	20.3	0.00e+00	0	57	0	3083862016	34	4146
2026-01-02 14:45:38.16	307.31	50.51	-32.0	-33.0	20.9	0.00e+00	0	57	0	3091202048	34	4075
2026-01-02 14:45:39.17	307.74	50.25	-32.1	-33.1	20.8	0.00e+00	0	57	0	3098542080	34	4106
2026-01-02 14:45:40.18	308.15	49.99	-32.1	-33.1	20.7	0.00e+00	0	57	0	3105882112	34	4108
2026-01-02 14:45:41.19	308.56	49.73	-32.3	-33.3	20.6	0.00e+00	0	57	0	3113222144	34	4216
2026-01-02 14:45:42.20	308.96	49.46	-32.4	-33.4	20.5	0.00e+00	0	57	0	3120562176	34	4273
2026-01-02 14:45:43.21	309.36	49.20	-32.4	-33.4	20.5	0.00e+00	0	57	0	3127902208	34	4275
2026-01-02 14:45:44.22	309.74	48.94	-32.4	-33.4	20.6	0.00e+00	0	57	0	3135242240	34	4259
2026-01-02 14:45:45.23	310.13	48.68	-32.3	-33.2	20.5	0.00e+00	0	57	0	3142582272	34	4190
2026-01-02 14:45:46.23	310.50	48.42	-32.1	-33.1	20.7	0.00e+00	0	57	0	3149922304	34	4109
2026-01-02 14:45:47.24	310.87	48.16	-31.9	-32.8	20.9	0.00e+00	0	57	0	3157262336	34	3998
2026-01-02 14:45:48.26	311.23	47.90	-31.8	-32.7	20.9	0.00e+00	0	57	0	3164602368	34	3942
2026-01-02 14:45:49.27	311.59	47.64	-31.7	-32.6	21.2	0.00e+00	0	57	0	3171942400	34	3903
2026-01-02 14:45:50.28	311.94	47.38	-31.6	-32.5	21.4	0.00e+00	0	57	0	3179282432	34	3854
2026-01-02 14:45:51.28	312.28	47.12	-31.6	-32.5	21.4	0.00e+00	0	57	0	3186622464	34	3837
2026-01-02 14:45:52.30	312.63	46.86	-31.5	-32.4	21.2	0.00e+00	0	57	0	3193962496	34	3822
2026-01-02 14:45:53.31	312.96	46.60	-31.5	-32.4	21.4	0.00e+00	0	57	0	3201302528	33	4029
2026-01-02 14:45:54.32	313.29	46.34	-31.4	-32.4	21.4	0.00e+00	0	57	0	3208642560	33	4010
2026-01-02 14:45:55.33	313.61	46.09	-31.4	-32.3	21.5	0.00e+00	0	57	0	3215982592	33	3985
2026-01-02 14:45:56.34	313.93	45.83	-31.3	-32.1	21.6	0.00e+00	0	57	0	3222274048	33	3912
2026-01-02 14:45:57.35	314.25	45.57	-31.1	-32.0	21.8	0.00e+00	0	57	0	3229614080	33	3834
2026-01-02 14:45:58.36	314.56	45.32	-31.0	-31.9	21.9	0.00e+00	0	57	0	3238002688	32	4012
2026-01-02 14:45:59.37	314.86	45.06	-30.7	-31.6	22.1	0.00e+00	0	57	0	3244294144	32	3896
2026-01-02 14:46:00.38	315.16	44.81	-30.7	-31.6	22.2	0.00e+00	0	57	0	3251634176	32	3887
2026-01-02 14:46:01.39	315.45	44.56	-30.8	-31.7	22.0	0.00e+00	0	57	0	3258974208	32	3914
2026-01-02 14:46:02.39	315.74	44.31	-31.0	-31.9	21.9	0.00e+00	0	57	0	3266314240	32	4022
2026-01-02 14:46:03.40	316.02	44.06	-31.2	-32.1	21.7	0.00e+00	0	57	0	3273654272	32	4116
2026-01-02 14:46:04.41	316.30	43.81	-31.4	-32.3	21.5	0.00e+00	0	57	0	3280994304	32	4213
2026-01-02 14:46:05.42	316.58	43.56	-31.5	-32.4	21.5	0.00e+00	0	57	0	3288334336	32	4274
2026-01-02 14:46:06.43	316.85	43.31	-31.4	-32.4	20.7	0.00e+00	0	57	0	3295674368	32	4249
2026-01-02 14:46:07.44	317.12	43.06	-31.4	-32.3	21.5	0.00e+00	0	57	0	3303014400	32	4222
2026-01-02 14:46:08.45	317.39	42.82	-31.1	-32.0	21.7	0.00e+00	0	57	0	3310354432	32	4078
2026-01-02 14:46:09.45	317.64	42.57	-31.0	-31.8	21.9	0.00e+00	0	57	0	3317694464	32	4001
2026-01-02 14:46:10.46	317.90	42.33	-30.9	-31.8	22.0	0.00e+00	0	57	0	3325034496	32	3970
2026-01-02 14:46:11.47	318.15	42.09	-30.9	-31.8	22.1	0.00e+00	0	57	0	3332374528	32	3963
2026-01-02 14:46:12.48	318.40	41.84	-31.0	-31.9	22.0	0.00e+00	0	57	0	3339714560	32	4022
2026-01-02 14:46:13.49	318.65	41.60	-31.1	-31.9	21.7	0.00e+00	0	57	0	3346006016	32	4047
2026-01-02 14:46:14.50	318.89	41.36	-31.1	-32.0	21.8	0.00e+00	0	57	0	3353346048	32	4072
2026-01-02 14:46:15.51	319.13	41.12	-31.1	-32.0	21.8	0.00e+00	0	57	0	3361734656	32	4078
2026-01-02 14:46:16.52	319.36	40.88	-31.0	-31.9	21.8	0.00e+00	0	57	0	3368026112	32	4021
2026-01-02 14:46:17.53	319.59	40.65	-30.8	-31.7	21.9	0.00e+00	0	57	0	3375366144	32	3935
2026-01-02 14:46:18.54	319.82	40.41	-30.7	-31.6	22.2	0.00e+00	0	57	0	3382706176	32	3879
2026-01-02 14:46:19.55	320.05	40.18	-30.7	-31.5	22.2	0.00e+00	0	57	0	3390046208	32	3865
2026-01-02 14:46:20.56	320.27	39.94	-30.8	-31.6	22.1	0.00e+00	0	57	0	3397386240	32	3906
2026-01-02 14:46:21.57	320.49	39.71	-30.8	-31.7	22.0	0.00e+00	0	57	0	3404726272	32	3940
2026-01-02 14:46:22.58	320.70	39.48	-31.0	-31.8	21.9	0.00e+00	0	57	0	3412066304	32	4002
2026-01-02 14:46:23.59	320.91	39.25	-31.1	-32.0	21.8	0.00e+00	0	57	0	3419406336	32	4077
2026-01-02 14:46:24.60	321.12	39.02	-31.1	-32.0	21.6	0.00e+00	0	57	0	3426746368	32	4092
2026-01-02 14:46:25.61	321.33	38.79	-31.2	-32.1	21.7	0.00e+00	0	57	0	3434086400	32	4125
2026-01-02 14:46:26.62	321.53	38.56	-31.1	-32.0	21.7	0.00e+00	0	57	0	3441426432	32	4087
2026-01-02 14:46:27.63	321.73	38.33	-31.1	-32.0	21.5	0.00e+00	0	57	0	3448766464	32	4095
2026-01-02 14:46:28.64	321.93	38.11	-31.1	-32.0	21.9	0.00e+00	0	57	0	3456106496	32	4060
2026-01-02 14:46:29.64	322.13	37.89	-31.0	-31.9	21.8	0.00e+00	0	57	0	3463446528	32	4051
2026-01-02 14:46:30.65	322.32	37.67	-31.0	-31.9	21.9	0.00e+00	0	57	0	3470786560	32	4030
2026-01-02 14:46:31.66	322.51	37.44	-31.0	-31.9	21.9	0.00e+00	0	57	0	3478126592	32	4027
2026-01-02 14:46:32.67	322.70	37.22	-31.0	-31.9	21.9	0.00e+00	0	57	0	3485466624	32	4023
2026-01-02 14:46:33.68	322.88	37.00	-30.9	-31.8	22.0	0.00e+00	0	57	0	3492806656	32	3977
2026-01-02 14:46:34.69	323.07	36.79	-30.8	-31.7	22.0	0.00e+00	0	57	0	3499098112	32	3944
2026-01-02 14:46:35.70	323.25	36.57	-30.8	-31.7	22.1	0.00e+00	0	57	0	3506438144	32	3936
2026-01-02 14:46:36.71	323.43	36.35	-30.7	-31.6	22.2	0.00e+00	0	57	0	3514826752	32	3900
2026-01-02 14:46:37.72	323.60	36.14	-30.6	-31.5	22.2	0.00e+00	0	57	0	3521118208	32	3836
2026-01-02 14:46:38.73	323.78	35.92	-30.5	-31.4	22.2	0.00e+00	0	57	0	3528458240	32	3793
2026-01-02 14:46:39.74	323.95	35.71	-30.6	-31.4	22.3	0.00e+00	0	57	0	3535798272	32	3821
2026-01-02 14:46:40.75	324.12	35.50	-30.6	-31.5	22.2	0.00e+00	0	57	0	3543138304	32	3837
2026-01-02 14:46:41.76	324.29	35.29	-30.7	-31.5	22.2	0.00e+00	0	57	0	3550478336	32	3862
2026-01-02 14:46:42.77	324.45	35.08	-30.8	-31.7	22.1	0.00e+00	0	57	0	3557818368	32	3923
2026-01-02 14:46:43.78	324.62	34.87	-30.8	-31.7	22.0	0.00e+00	0	57	0	3565158400	32	3945
2026-01-02 14:46:44.79	324.78	34.67	-31.0	-31.9	21.9	0.00e+00	0	57	0	3572498432	32	4028
2026-01-02 14:46:45.80	324.94	34.46	-31.0	-31.9	21.9	0.00e+00	0	57	0	3579838464	32	4050
2026-01-02 14:46:46.81	325.09	34.26	-31.0	-31.9	21.9	0.00e+00	0	57	0	3587178496	32	4042
2026-01-02 14:46:47.82	325.25	34.05	-31.0	-31.9	21.8	0.00e+00	0	57	0	3594518528	32	4034
2026-01-02 14:46:48.83	325.40	33.85	-30.9	-31.8	21.9	0.00e+00	0	57	0	3601858560	32	3970
2026-01-02 14:46:49.84	325.55	33.65	-30.8	-31.7	22.0	0.00e+00	0	57	0	3609198592	32	3939
2026-01-02 14:46:50.85	325.70	33.45	-30.7	-31.6	22.2	0.00e+00	0	57	0	3616538624	32	3875
2026-01-02 14:46:51.86	325.85	33.25	-30.6	-31.5	22.3	0.00e+00	0	57	0	3623878656	32	3842
2026-01-02 14:46:52.87	326.00	33.05	-30.5	-31.4	22.4	0.00e+00	0	57	0	3631218688	32	3795
2026-01-02 14:46:53.88	326.14	32.86	-30.3	-31.2	22.1	0.00e+00	0	57	0	3638558720	31	3921
2026-01-02 14:46:54.89	326.29	32.66	-30.2	-31.1	22.4	0.00e+00	0	57	0	3644850176	31	3904
2026-01-02 14:46:55.90	326.43	32.47	-30.2	-31.1	22.5	0.00e+00	0	57	0	3652190208	31	3885
2026-01-02 14:46:56.91	326.57	32.27	-30.2	-31.1	22.5	0.00e+00	0	57	0	3660578816	31	3890
2026-01-02 14:46:57.92	326.71	32.08	-30.3	-31.1	22.4	0.00e+00	0	57	0	3666870272	31	3913
2026-01-02 14:46:58.93	326.84	31.89	-30.3	-31.2	22.4	0.00e+00	0	57	0	3674210304	31	3936
2026-01-02 14:46:59.94	326.98	31.70	-30.4	-31.2	22.2	0.00e+00	0	57	0	3681550336	31	3957
2026-01-02 14:47:00.95	327.11	31.51	-30.4	-31.3	22.2	0.00e+00	0	57	0	3688890368	31	3973
2026-01-02 14:47:01.96	327.24	31.32	-30.4	-31.3	22.2	0.00e+00	0	57	0	3696230400	31	3990
2026-01-02 14:47:02.97	327.37	31.13	-30.5	-31.3	22.2	0.00e+00	0	57	0	3703570432	31	4002
2026-01-02 14:47:03.99	327.50	30.95	-30.5	-31.4	22.2	0.00e+00	0	57	0	3710910464	31	4016
2026-01-02 14:47:05.00	327.63	30.76	-30.5	-31.4	22.2	0.00e+00	0	57	0	3718250496	31	4009
2026-01-02 14:47:06.01	327.76	30.58	-30.5	-31.4	22.1	0.00e+00	0	57	0	3725590528	31	4030
2026-01-02 14:47:07.02	327.88	30.39	-30.6	-31.4	22.1	0.00e+00	0	57	0	3732930560	31	4041
2026-01-02 14:47:08.03	328.01	30.21	-30.6	-31.5	22.1	0.00e+00	0	57	0	3740270592	31	4078
2026-01-02 14:47:09.03	328.13	30.03	-30.6	-31.5	21.9	0.00e+00	0	57	0	3747610624	31	4095
2026-01-02 14:47:10.04	328.25	29.85	-30.7	-31.5	22.0	0.00e+00	0	57	0	3754950656	31	4098
2026-01-02 14:47:11.05	328.37	29.67	-30.7	-31.5	22.0	0.00e+00	0	57	0	3762290688	31	4097
2026-01-02 14:47:12.06	328.49	29.50	-30.7	-31.6	22.0	0.00e+00	0	57	0	3769630720	31	4116
2026-01-02 14:47:13.07	328.60	29.32	-30.7	-31.6	22.0	0.00e+00	0	57	0	3776970752	31	4108
2026-01-02 14:47:14.08	328.72	29.14	-30.7	-31.6	22.0	0.00e+00	0	57	0	3784310784	31	4132
2026-01-02 14:47:15.09	328.83	28.97	-30.7	-31.6	22.0	0.00e+00	0	57	0	3791650816	31	4112
2026-01-02 14:47:16.10	328.95	28.80	-30.7	-31.6	22.0	0.00e+00	0	57	0	3797942272	31	4133
2026-01-02 14:47:17.11	329.06	28.62	-30.8	-31.7	21.9	0.00e+00	0	57	0	3806330880	31	4152
2026-01-02 14:47:18.12	329.17	28.45	-30.8	-31.7	21.9	0.00e+00	0	57	0	3813670912	31	4146
2026-01-02 14:47:19.13	329.28	28.28	-30.8	-31.7	21.8	0.00e+00	0	57	0	3819962368	31	4157
2026-01-02 14:47:20.14	329.39	28.11	-30.8	-31.7	21.8	0.00e+00	0	57	0	3827302400	31	4179
2026-01-02 14:47:21.15	329.50	27.94	-30.8	-31.8	21.8	0.00e+00	0	57	0	3834642432	31	4198
2026-01-02 14:47:22.16	329.60	27.77	-30.8	-31.8	21.8	0.00e+00	0	57	0	3841982464	31	4195
2026-01-02 14:47:23.17	329.71	27.60	-30.8	-31.7	21.8	0.00e+00	0	57	0	3849322496	31	4170
2026-01-02 14:47:24.18	329.81	27.44	-30.8	-31.7	21.9	0.00e+00	0	57	0	3856662528	31	4166
2026-01-02 14:47:25.19	329.92	27.27	-30.8	-31.7	21.6	0.00e+00	0	57	0	3864002560	31	4172
2026-01-02 14:47:26.19	330.02	27.11	-30.8	-31.7	21.9	0.00e+00	0	57	0	3871342592	31	4150
2026-01-02 14:47:27.20	330.12	26.95	-30.7	-31.6	21.9	0.00e+00	0	57	0	3878682624	31	4122
2026-01-02 14:47:28.21	330.22	26.78	-30.7	-31.6	21.9	0.00e+00	0	57	0	3886022656	31	4123
2026-01-02 14:47:29.22	330.32	26.62	-30.6	-31.5	22.0	0.00e+00	0	57	0	3893362688	31	4095
2026-01-02 14:47:30.23	330.42	26.46	-30.6	-31.5	22.0	0.00e+00	0	57	0	3900702720	31	4077
2026-01-02 14:47:31.24	330.52	26.30	-30.6	-31.5	22.0	0.00e+00	0	57	0	3908042752	31	4089
2026-01-02 14:47:32.25	330.61	26.14	-30.6	-31.5	22.0	0.00e+00	0	57	0	3915382784	31	4085
2026-01-02 14:47:33.26	330.71	25.98	-30.6	-31.5	22.0	0.00e+00	0	57	0	3922722816	31	4083
2026-01-02 14:47:34.27	330.80	25.82	-30.6	-31.5	22.0	0.00e+00	0	57	0	3930062848	31	4087
2026-01-02 14:47:35.28	330.90	25.67	-30.6	-31.5	22.0	0.00e+00	0	57	0	3937402880	31	4083
2026-01-02 14:47:36.29	330.99	25.51	-30.6	-31.5	22.0	0.00e+00	0	57	0	3943694336	31	4088
2026-01-02 14:47:37.30	331.08	25.36	-30.6	-31.5	22.0	0.00e+00	0	57	0	3951034368	31	4082
2026-01-02 14:47:38.31	331.17	25.20	-30.6	-31.5	21.9	0.00e+00	0	57	0	3959422976	31	4075
2026-01-02 14:47:39.32	331.26	25.05	-30.6	-31.5	22.0	0.00e+00	0	57	0	3965714432	31	4072
2026-01-02 14:47:40.33	331.35	24.90	-30.6	-31.5	21.9	0.00e+00	0	57	0	3973054464	31	4083
2026-01-02 14:47:41.34	331.44	24.75	-30.6	-31.5	22.0	0.00e+00	0	57	0	3980394496	31	4090
2026-01-02 14:47:42.35	331.53	24.59	-30.7	-31.6	21.9	0.00e+00	0	57	0	3987734528	31	4102
2026-01-02 14:47:43.36	331.62	24.44	-30.7	-31.6	21.9	0.00e+00	0	57	0	3995074560	31	4126
2026-01-02 14:47:44.37	331.71	24.29	-30.8	-31.7	21.8	0.00e+00	0	57	0	4002414592	31	4151
2026-01-02 14:47:45.38	331.79	24.15	-30.8	-31.7	21.8	0.00e+00	0	57	0	4009754624	31	4181
2026-01-02 14:47:46.39	331.88	24.00	-30.9	-31.8	21.7	0.00e+00	0	57	0	4017094656	31	4199
2026-01-02 14:47:47.40	331.96	23.85	-30.9	-31.8	21.7	0.00e+00	0	57	0	4024434688	31	4240
2026-01-02 14:47:48.41	332.04	23.71	-31.0	-32.0	21.5	0.00e+00	0	57	0	4031774720	31	4305
2026-01-02 14:47:49.42	332.13	23.56	-31.1	-32.0	21.4	0.00e+00	0	57	0	4039114752	31	4316
2026-01-02 14:47:50.43	332.21	23.42	-31.2	-32.1	21.4	0.00e+00	0	57	0	4046454784	31	4367
2026-01-02 14:47:51.44	332.29	23.27	-31.4	-32.3	21.3	0.00e+00	0	57	0	4053794816	32	4239
2026-01-02 14:47:52.45	332.37	23.13	-31.4	-32.3	21.4	0.00e+00	0	57	0	4061134848	32	4222
2026-01-02 14:47:53.47	332.45	22.98	-31.5	-32.4	21.2	0.00e+00	0	57	0	4068474880	32	4281
2026-01-02 14:47:54.47	332.53	22.84	-31.5	-32.4	21.3	0.00e+00	0	57	0	4075814912	32	4279
2026-01-02 14:47:55.48	332.61	22.70	-31.5	-32.4	21.2	0.00e+00	0	57	0	4083154944	32	4279
2026-01-02 14:47:56.49	332.68	22.56	-31.5	-32.5	21.2	0.00e+00	0	57	0	4090494976	32	4296
2026-01-02 14:47:57.50	332.76	22.42	-31.5	-32.5	21.2	0.00e+00	0	57	0	4097835008	32	4309
2026-01-02 14:47:58.52	332.84	22.28	-31.5	-32.5	21.2	0.00e+00	0	57	0	4105175040	32	4305
2026-01-02 14:47:59.52	332.91	22.15	-31.5	-32.5	21.2	0.00e+00	0	57	0	4112515072	32	4302
2026-01-02 14:48:00.53	332.99	22.01	-31.6	-32.5	21.1	0.00e+00	0	57	0	4118806528	32	4315
2026-01-02 14:48:01.54	333.06	21.87	-31.5	-32.5	21.2	0.00e+00	0	57	0	4126146560	32	4300
2026-01-02 14:48:02.56	333.14	21.74	-31.5	-32.5	21.2	0.00e+00	0	57	0	4134535168	32	4304
2026-01-02 14:48:03.57	333.21	21.60	-31.5	-32.5	21.2	0.00e+00	0	57	0	4140826624	32	4299
2026-01-02 14:48:04.58	333.29	21.47	-31.5	-32.5	21.1	0.00e+00	0	57	0	4148166656	32	4298
2026-01-02 14:48:05.58	333.36	21.33	-31.6	-32.5	21.1	0.00e+00	0	57	0	4155506688	32	4329
2026-01-02 14:48:06.59	333.43	21.20	-31.6	-32.5	21.1	0.00e+00	0	57	0	4162846720	32	4324
2026-01-02 14:48:07.60	333.50	21.07	-31.6	-32.5	21.1	0.00e+00	0	57	0	4170186752	32	4316
2026-01-02 14:48:08.61	333.57	20.93	-31.6	-32.6	21.0	0.00e+00	0	57	0	4177526784	32	4349
2026-01-02 14:48:09.62	333.64	20.80	-31.6	-32.6	21.0	0.00e+00	0	57	0	4184866816	32	4341
2026-01-02 14:48:10.63	333.71	20.67	-31.6	-32.5	21.1	0.00e+00	0	57	0	4192206848	32	4317
2026-01-02 14:48:11.64	333.78	20.54	-31.6	-32.5	21.1	0.00e+00	0	57	0	4199546880	32	4339
2026-01-02 14:48:12.65	333.85	20.41	-31.6	-32.6	21.0	0.00e+00	0	57	0	4206886912	32	4348
2026-01-02 14:48:13.66	333.91	20.28	-31.6	-32.6	21.1	0.00e+00	0	57	0	4214226944	32	4357
2026-01-02 14:48:14.67	333.98	20.16	-31.6	-32.6	20.9	0.00e+00	0	57	0	4221566976	32	4343
2026-01-02 14:48:15.68	334.05	20.03	-31.7	-32.6	21.0	0.00e+00	0	57	0	4228907008	32	4376
2026-01-02 14:48:16.69	334.11	19.90	-31.7	-32.7	20.9	0.00e+00	0	57	0	4236247040	32	4407
2026-01-02 14:48:17.70	334.18	19.78	-31.7	-32.7	20.8	0.00e+00	0	57	0	4242538496	33	4173
2026-01-02 14:48:18.71	334.24	19.65	-31.7	-32.7	20.9	0.00e+00	0	57	0	4250927104	33	4172
2026-01-02 14:48:19.72	334.31	19.53	-31.8	-32.7	20.8	0.00e+00	0	57	0	4258267136	33	4183
2026-01-02 14:48:20.73	334.37	19.40	-31.8	-32.8	20.8	0.00e+00	0	57	0	4264558592	33	4225
2026-01-02 14:48:21.74	334.44	19.28	-31.9	-32.9	20.7	0.00e+00	0	57	0	4271898624	33	4262
2026-01-02 14:48:22.75	334.50	19.15	-31.9	-32.9	20.6	0.00e+00	0	57	0	4279238656	33	4269
2026-01-02 14:48:23.76	334.56	19.03	-32.0	-32.9	20.6	0.00e+00	0	57	0	4286578688	33	4284
2026-01-02 14:48:24.77	334.63	18.91	-32.0	-33.0	20.5	0.00e+00	0	57	0	4293918720	33	4329
2026-01-02 14:48:25.78	334.69	18.79	-32.1	-33.1	20.5	0.00e+00	0	57	0	4301258752	33	4341
2026-01-02 14:48:26.79	334.75	18.67	-32.1	-33.1	20.4	0.00e+00	0	57	0	4308598784	33	4382
2026-01-02 14:48:27.81	334.81	18.54	-32.2	-33.2	20.4	0.00e+00	0	57	0	4315938816	33	4411
2026-01-02 14:48:28.81	334.87	18.43	-32.3	-33.3	20.3	0.00e+00	0	57	0	4323278848	34	4195
2026-01-02 14:48:29.82	334.93	18.31	-32.3	-33.3	20.3	0.00e+00	0	57	0	4330618880	34	4229
2026-01-02 14:48:30.83	334.99	18.19	-32.3	-33.3	20.2	0.00e+00	0	57	0	4337958912	34	4212
2026-01-02 14:48:31.84	335.05	18.07	-32.4	-33.4	20.2	0.00e+00	0	57	0	4345298944	34	4255
2026-01-02 14:48:32.85	335.11	17.95	-32.4	-33.4	20.1	0.00e+00	0	57	0	4352638976	34	4281
2026-01-02 14:48:33.86	335.17	17.83	-32.4	-33.4	20.1	0.00e+00	0	57	0	4359979008	34	4271
2026-01-02 14:48:34.87	335.22	17.72	-32.5	-33.5	20.1	0.00e+00	0	57	0	4367319040	34	4308
2026-01-02 14:48:35.88	335.28	17.60	-32.4	-33.4	20.1	0.00e+00	0	57	0	4374659072	34	4284
2026-01-02 14:48:36.89	335.34	17.49	-32.5	-33.5	20.1	0.00e+00	0	57	0	4381999104	34	4317
2026-01-02 14:48:37.90	335.39	17.37	-32.5	-33.5	20.0	0.00e+00	0	57	0	4389339136	34	4323
2026-01-02 14:48:38.91	335.45	17.26	-32.5	-33.5	20.0	0.00e+00	0	57	0	4396679168	34	4326
2026-01-02 14:48:39.92	335.51	17.14	-32.5	-33.5	20.0	0.00e+00	0	57	0	4404019200	34	4320
2026-01-02 14:48:40.94	335.56	17.03	-32.5	-33.5	20.0	0.00e+00	0	57	0	4411359232	34	4318
2026-01-02 14:48:41.95	335.62	16.92	-32.5	-33.5	20.0	0.00e+00	0	57	0	4417650688	34	4329
2026-01-02 14:48:42.95	335.67	16.80	-32.5	-33.5	19.9	0.00e+00	0	57	0	4424990720	34	4299
2026-01-02 14:48:43.96	335.73	16.69	-32.5	-33.5	19.9	0.00e+00	0	57	0	4433379328	34	4323
2026-01-02 14:48:44.97	335.78	16.58	-32.5	-33.5	20.0	0.00e+00	0	57	0	4439670784	34	4312
2026-01-02 14:48:45.98	335.83	16.47	-32.5	-33.5	19.8	0.00e+00	0	57	0	4447010816	34	4326
2026-01-02 14:48:46.99	335.89	16.36	-32.5	-33.5	19.9	0.00e+00	0	57	0	4454350848	34	4310
2026-01-02 14:48:48.00	335.94	16.25	-32.5	-33.5	20.0	0.00e+00	0	57	0	4461690880	34	4308
2026-01-02 14:48:49.01	335.99	16.14	-32.5	-33.5	20.0	0.00e+00	0	57	0	4469030912	34	4297
2026-01-02 14:48:50.02	336.04	16.03	-32.5	-33.6	19.9	0.00e+00	0	57	0	4476370944	34	4343
2026-01-02 14:48:51.03	336.10	15.92	-32.5	-33.5	20.0	0.00e+00	0	57	0	4483710976	34	4330
2026-01-02 14:48:52.04	336.15	15.81	-32.5	-33.6	19.9	0.00e+00	0	57	0	4491051008	34	4343
2026-01-02 14:48:53.05	336.20	15.71	-32.6	-33.6	19.9	0.00e+00	0	57	0	4498391040	34	4357
