passes_logs/2026/01/02/R2.0S_Moscow/R2.0S_Moscow__20260102_111009_FENGYUN_3D_rec.log

#Pass ID: 20260102_111009_FENGYUN 3D
#Satellite: FENGYUN 3D
#Configuration: FENGYUN 3D
#almurnet v.1.7.20251203
#Start time: 2026-01-02 11:10:08

#Version: 2.2.20231116
#Station: R2.0S_Moscow
#Location: 37.707566 lon 55.798166 lat
#TLE: 1 43010U 17072A   26001.33100487  .00000602  00000+0  30664-3 0  9999
#TLE: 2 43010  98.9910 332.9374 0001848 133.1047 227.0283 14.19692078421319

#Time	Az	El	Level	Level2	SNR	BER	BlckErr	Temp	State	Recorded	gain1	gain2
2026-01-02 11:10:08.93	138.07	1.96	-32.1	-44.8	4.6	8.42e-01	0	47	0	0	27	25177
2026-01-02 11:10:09.93	138.04	2.03	-20.5	-35.1	4.6	8.17e-01	0	48	104	0	16	15431
2026-01-02 11:10:10.94	138.01	2.09	-21.3	-41.1	3.9	8.16e-01	0	48	0	0	13	36843
2026-01-02 11:10:11.95	137.98	2.15	-13.1	-37.9	3.7	8.20e-01	0	48	104	0	0	53513
2026-01-02 11:10:12.96	137.94	2.22	-30.8	-45.6	4.0	8.24e-01	0	48	104	0	30	23137
2026-01-02 11:10:13.97	137.91	2.28	-32.6	-45.0	4.2	8.23e-01	0	48	104	0	31	20390
2026-01-02 11:10:14.98	137.88	2.34	-17.4	-30.1	3.7	8.26e-01	0	48	104	0	9	13050
2026-01-02 11:10:15.99	137.85	2.41	-20.1	-31.8	6.3	8.36e-01	0	48	104	0	23	7051
2026-01-02 11:10:17.00	137.82	2.47	-21.0	-32.4	3.6	8.16e-01	0	48	104	0	18	10172
2026-01-02 11:10:18.01	137.79	2.54	-32.6	-46.9	4.5	8.25e-01	0	48	104	0	34	21306
2026-01-02 11:10:19.02	137.75	2.60	-18.3	-39.3	4.2	8.25e-01	0	48	104	0	10	35597
2026-01-02 11:10:20.03	137.72	2.67	-19.8	-32.5	3.8	8.13e-01	0	48	104	0	26	6434
2026-01-02 11:10:21.05	137.69	2.73	-24.9	-40.5	3.8	8.10e-01	0	48	104	0	20	23037
2026-01-02 11:10:22.06	137.65	2.80	-30.9	-45.1	4.3	8.04e-01	0	49	104	0	27	25942
2026-01-02 11:10:23.07	137.62	2.86	-17.0	-35.9	3.5	8.21e-01	0	49	0	0	3	35837
2026-01-02 11:10:24.08	137.59	2.93	-31.6	-46.2	4.3	8.12e-01	0	49	104	0	29	26343
2026-01-02 11:10:25.09	137.56	2.99	-26.5	-44.2	4.1	8.27e-01	0	49	104	0	27	23324
2026-01-02 11:10:26.10	137.52	3.06	-31.2	-45.2	4.6	8.17e-01	0	49	104	0	30	22235
2026-01-02 11:10:27.11	137.49	3.12	-31.1	-46.5	4.1	8.23e-01	0	49	104	0	28	28852
2026-01-02 11:10:28.12	137.45	3.19	-18.0	-34.4	3.7	8.11e-01	0	49	104	0	16	14304
2026-01-02 11:10:29.13	137.42	3.26	-30.3	-39.8	3.9	8.04e-01	0	49	104	0	18	23832
2026-01-02 11:10:30.15	137.39	3.32	-11.5	-33.0	3.6	8.11e-01	0	49	104	0	0	30405
2026-01-02 11:10:31.16	137.35	3.39	-31.5	-39.6	3.5	8.35e-01	0	49	104	0	4	51687
2026-01-02 11:10:32.17	137.32	3.46	-31.5	-45.7	4.2	8.23e-01	0	49	104	0	33	19669
2026-01-02 11:10:33.18	137.28	3.52	-31.6	-45.6	4.1	8.15e-01	0	49	104	0	34	18415
2026-01-02 11:10:34.19	137.25	3.59	-11.3	-35.7	3.6	8.14e-01	0	49	104	0	0	41667
2026-01-02 11:10:35.20	137.21	3.66	-28.8	-43.0	3.8	8.26e-01	0	49	104	0	13	45532
2026-01-02 11:10:36.21	137.18	3.72	-31.0	-42.2	3.3	8.07e-01	0	50	104	0	16	35159
2026-01-02 11:10:37.22	137.14	3.79	-29.2	-41.7	3.5	8.08e-01	0	50	104	0	23	22105
2026-01-02 11:10:38.23	137.11	3.86	-16.5	-37.6	4.0	8.15e-01	0	50	104	0	20	16442
2026-01-02 11:10:39.24	137.07	3.92	-31.9	-42.6	3.8	8.16e-01	0	50	104	0	25	21870
2026-01-02 11:10:40.25	137.04	3.99	-24.3	-39.6	4.5	8.08e-01	0	50	104	0	30	11627
2026-01-02 11:10:41.27	137.00	4.06	-32.2	-44.9	4.0	8.07e-01	0	50	104	0	28	23877
2026-01-02 11:10:42.28	136.96	4.13	-20.7	-39.6	3.8	8.08e-01	0	50	104	0	16	26037
2026-01-02 11:10:43.29	136.93	4.20	-32.0	-42.6	3.8	8.14e-01	0	50	104	0	29	17432
2026-01-02 11:10:44.30	136.89	4.27	-20.5	-32.1	3.4	8.13e-01	0	50	104	0	18	9814
2026-01-02 11:10:45.31	136.85	4.33	-11.6	-39.0	4.1	8.19e-01	0	50	104	0	2	54247
2026-01-02 11:10:46.32	136.82	4.40	-25.5	-38.7	3.8	8.22e-01	0	50	104	0	16	23579
2026-01-02 11:10:47.33	136.78	4.47	-32.7	-45.4	4.3	8.09e-01	0	50	104	0	28	25478
2026-01-02 11:10:48.34	136.74	4.54	-16.5	-32.6	3.7	8.08e-01	0	50	104	0	19	9739
2026-01-02 11:10:49.35	136.71	4.61	-16.3	-36.0	3.5	8.16e-01	0	50	104	0	3	36287
2026-01-02 11:10:50.37	136.67	4.68	-23.4	-37.8	3.8	8.06e-01	0	50	104	0	18	18903
2026-01-02 11:10:51.38	136.63	4.75	-16.9	-28.9	3.5	8.15e-01	0	51	104	0	9	11368
2026-01-02 11:10:52.39	136.59	4.82	-12.0	-35.1	3.7	8.13e-01	0	50	104	0	2	34755
2026-01-02 11:10:53.40	136.55	4.89	-28.0	-41.4	3.9	8.22e-01	0	51	104	0	29	15118
2026-01-02 11:10:54.41	136.52	4.96	-25.3	-43.1	4.1	8.16e-01	0	51	104	0	30	17480
2026-01-02 11:10:55.42	136.48	5.03	-29.9	-39.0	3.5	8.13e-01	0	51	104	0	11	32480
2026-01-02 11:10:56.43	136.44	5.10	-28.7	-43.5	4.2	8.14e-01	0	51	104	0	25	24142
2026-01-02 11:10:57.44	136.40	5.17	-21.5	-35.4	3.7	8.15e-01	0	51	104	0	10	22733
2026-01-02 11:10:58.45	136.36	5.24	-26.4	-38.7	4.0	8.13e-01	0	51	104	0	21	17511
2026-01-02 11:10:59.46	136.32	5.31	-21.8	-36.9	3.8	8.13e-01	0	51	104	0	15	20285
2026-01-02 11:11:00.46	136.28	5.38	-8.9	-30.2	4.1	8.20e-01	0	51	104	0	0	22016
2026-01-02 11:11:01.47	136.24	5.45	-31.0	-42.8	4.5	8.09e-01	0	51	104	0	27	20065
2026-01-02 11:11:02.48	136.20	5.52	-21.0	-32.9	3.9	8.18e-01	0	51	104	0	23	8036
2026-01-02 11:11:03.49	136.16	5.60	-30.6	-42.0	3.8	8.15e-01	0	51	104	0	25	20387
2026-01-02 11:11:04.50	136.12	5.67	-10.8	-36.5	4.2	8.12e-01	0	51	104	0	0	45975
2026-01-02 11:11:05.51	136.08	5.74	-22.8	-42.3	4.6	8.08e-01	0	51	104	0	29	16848
2026-01-02 11:11:06.53	136.04	5.81	-19.2	-28.7	3.6	8.01e-01	0	51	104	0	19	6204
2026-01-02 11:11:07.54	136.00	5.88	-26.1	-38.3	3.7	8.20e-01	0	51	104	0	11	29700
2026-01-02 11:11:08.55	135.96	5.96	-14.5	-29.0	3.6	8.16e-01	0	52	104	0	0	19230
2026-01-02 11:11:09.56	135.92	6.03	-32.1	-37.4	3.5	8.08e-01	0	51	104	0	5	37850
2026-01-02 11:11:10.57	135.87	6.10	-32.7	-46.9	4.3	8.26e-01	0	51	104	0	32	23965
2026-01-02 11:11:11.58	135.83	6.18	-29.0	-45.7	4.3	8.23e-01	0	52	104	0	29	24834
2026-01-02 11:11:12.59	135.79	6.25	-19.2	-30.5	3.7	8.27e-01	0	51	104	0	9	13635
2026-01-02 11:11:13.60	135.75	6.32	-21.3	-32.4	3.5	8.25e-01	0	52	104	0	12	14367
2026-01-02 11:11:14.61	135.71	6.40	-21.1	-31.1	3.6	8.37e-01	0	52	104	0	14	10962
2026-01-02 11:11:15.63	135.66	6.47	-11.8	-34.5	3.6	8.21e-01	0	52	0	0	1	34417
2026-01-02 11:11:16.64	135.62	6.54	-21.0	-34.2	8.8	8.26e-01	0	52	104	0	15	14865
2026-01-02 11:11:17.65	135.58	6.62	-32.0	-45.9	4.3	8.02e-01	0	52	104	0	30	23930
2026-01-02 11:11:18.66	135.53	6.69	-22.2	-37.2	4.0	8.15e-01	0	52	104	0	21	14820
2026-01-02 11:11:19.67	135.49	6.77	-30.2	-41.4	3.7	8.11e-01	0	52	104	0	21	23941
2026-01-02 11:11:20.68	135.44	6.84	-31.9	-46.7	4.6	8.15e-01	0	52	104	0	31	24942
2026-01-02 11:11:21.69	135.40	6.92	-32.3	-45.1	4.2	8.14e-01	0	52	104	0	26	27580
2026-01-02 11:11:22.70	135.36	6.99	-25.2	-35.6	3.6	8.32e-01	0	52	0	0	15	17346
2026-01-02 11:11:23.71	135.31	7.07	-19.8	-32.0	-0.8	8.08e-01	0	52	104	0	12	13610
2026-01-02 11:11:24.73	135.27	7.14	-17.0	-30.8	3.7	8.23e-01	0	52	0	0	12	11931
2026-01-02 11:11:25.74	135.22	7.22	-33.7	-45.7	3.9	8.19e-01	0	52	104	0	18	46939
2026-01-02 11:11:26.75	135.17	7.30	-33.5	-46.5	4.7	8.26e-01	0	52	104	0	28	28735
2026-01-02 11:11:27.76	135.13	7.37	-20.9	-32.4	3.5	8.18e-01	0	52	104	0	13	13466
2026-01-02 11:11:28.77	135.08	7.45	-30.5	-44.0	4.2	8.22e-01	0	52	104	0	26	24142
2026-01-02 11:11:29.78	135.04	7.53	-24.3	-42.2	4.3	8.25e-01	0	52	104	0	31	14750
2026-01-02 11:11:30.79	134.99	7.60	-16.2	-39.5	3.8	8.24e-01	0	52	104	0	5	48513
2026-01-02 11:11:31.80	134.94	7.68	-32.0	-45.0	4.1	8.21e-01	0	53	104	0	20	38481
2026-01-02 11:11:32.81	134.90	7.76	-19.5	-31.4	3.6	8.23e-01	0	52	104	0	11	13471
2026-01-02 11:11:33.83	134.85	7.84	-29.2	-46.0	4.4	8.23e-01	0	53	104	0	29	25725
2026-01-02 11:11:34.84	134.80	7.91	-17.1	-36.2	3.7	8.10e-01	0	53	104	0	4	34919
2026-01-02 11:11:35.85	134.75	7.99	-19.2	-31.8	3.6	8.19e-01	0	53	104	0	18	9484
2026-01-02 11:11:36.86	134.71	8.07	-35.2	-46.4	4.4	8.12e-01	0	53	104	0	31	24013
2026-01-02 11:11:37.86	134.66	8.15	-23.2	-38.5	4.4	8.10e-01	0	53	104	0	16	22954
2026-01-02 11:11:38.87	134.61	8.23	-25.2	-41.1	4.1	8.12e-01	0	53	0	0	20	24586
2026-01-02 11:11:39.88	134.56	8.30	-20.4	-36.7	3.5	8.20e-01	0	53	0	0	11	24770
2026-01-02 11:11:40.89	134.51	8.38	-10.9	-34.0	3.8	8.26e-01	0	53	104	0	8	21711
2026-01-02 11:11:41.90	134.46	8.46	-18.8	-30.2	3.5	7.98e-01	0	53	104	0	12	11149
2026-01-02 11:11:42.92	134.41	8.54	-20.6	-37.5	3.8	7.93e-01	0	53	104	0	17	19241
2026-01-02 11:11:43.93	134.36	8.62	-25.4	-38.9	3.7	7.93e-01	0	53	104	0	12	30283
2026-01-02 11:11:44.94	134.31	8.70	-12.0	-31.5	3.9	7.92e-01	0	53	104	0	7	17260
2026-01-02 11:11:45.95	134.26	8.78	-14.1	-33.7	3.7	8.26e-01	0	53	104	0	1	31119
2026-01-02 11:11:46.96	134.21	8.86	-27.7	-46.5	4.4	8.16e-01	0	53	104	0	29	27258
2026-01-02 11:11:47.96	134.16	8.94	-19.0	-31.9	4.2	8.02e-01	0	53	104	0	14	12049
2026-01-02 11:11:48.97	134.11	9.02	-16.5	-36.3	3.7	8.11e-01	0	53	104	0	4	35595
2026-01-02 11:11:49.98	134.06	9.11	-12.0	-27.7	3.2	8.10e-01	0	53	104	0	1	15651
2026-01-02 11:11:50.99	134.00	9.19	-23.4	-37.5	3.6	8.01e-01	0	53	104	0	17	19368
2026-01-02 11:11:52.00	133.95	9.27	-18.7	-34.4	3.5	7.93e-01	0	53	104	0	8	22582
2026-01-02 11:11:53.01	133.90	9.35	-20.2	-36.3	3.7	7.93e-01	0	53	104	0	18	15775
2026-01-02 11:11:54.02	133.85	9.43	-28.8	-41.6	4.1	7.88e-01	0	53	104	0	21	24638
2026-01-02 11:11:55.03	133.79	9.52	-24.3	-35.3	4.4	8.05e-01	0	53	104	0	21	11830
2026-01-02 11:11:56.04	133.74	9.60	-21.0	-32.6	4.7	8.35e-01	0	53	104	0	26	6498
2026-01-02 11:11:57.05	133.68	9.68	-16.7	-24.6	4.2	8.13e-01	0	53	104	0	2	10331
2026-01-02 11:11:58.06	133.63	9.76	-23.1	-34.3	3.3	8.12e-01	0	53	104	0	8	22319
2026-01-02 11:11:59.07	133.58	9.85	-20.1	-34.0	3.8	8.01e-01	0	54	104	0	12	17224
2026-01-02 11:12:00.08	133.52	9.93	-13.6	-31.2	3.8	7.88e-01	0	54	104	0	12	12513
2026-01-02 11:12:01.09	133.47	10.02	-12.6	-25.9	3.5	8.14e-01	0	53	104	0	0	13560
2026-01-02 11:12:02.11	133.41	10.10	-13.8	-34.0	3.5	7.99e-01	0	53	104	0	9	20370
2026-01-02 11:12:03.12	133.35	10.19	-31.1	-45.4	4.0	8.00e-01	0	54	104	0	26	28492
2026-01-02 11:12:04.12	133.30	10.27	-21.8	-36.0	4.4	7.81e-01	0	53	104	0	17	16169
2026-01-02 11:12:05.14	133.24	10.36	-28.4	-38.4	3.7	7.87e-01	0	53	104	0	12	28591
2026-01-02 11:12:06.15	133.18	10.44	-20.2	-35.7	3.6	8.05e-01	0	53	104	0	13	19703
2026-01-02 11:12:07.16	133.13	10.53	-25.4	-37.8	3.9	7.94e-01	0	54	104	0	14	23613
2026-01-02 11:12:08.17	133.07	10.61	-19.8	-30.3	3.7	8.34e-01	0	54	104	0	8	14065
2026-01-02 11:12:09.18	133.01	10.70	-23.8	-34.9	3.8	8.12e-01	0	54	104	0	15	16098
2026-01-02 11:12:10.19	132.95	10.78	-15.7	-32.4	4.1	8.24e-01	0	53	104	0	5	21403
2026-01-02 11:12:11.20	132.89	10.87	-23.7	-38.3	4.8	8.18e-01	0	54	104	0	20	17797
2026-01-02 11:12:12.21	132.83	10.96	-14.9	-25.4	3.8	8.22e-01	0	54	104	0	5	9499
2026-01-02 11:12:13.22	132.78	11.04	-20.8	-32.4	4.6	8.23e-01	0	54	104	0	14	12695
2026-01-02 11:12:14.23	132.72	11.13	-24.4	-33.2	5.0	8.26e-01	0	54	104	0	12	15694
2026-01-02 11:12:15.24	132.66	11.22	-14.1	-28.4	4.0	8.35e-01	0	54	104	0	1	16937
2026-01-02 11:12:16.25	132.59	11.31	-21.0	-34.6	5.1	8.19e-01	0	54	104	0	18	13032
2026-01-02 11:12:17.26	132.53	11.40	-20.1	-30.0	4.8	8.16e-01	0	54	104	0	13	10180
2026-01-02 11:12:18.27	132.47	11.49	-22.2	-32.6	4.9	8.15e-01	0	54	104	0	14	13009
2026-01-02 11:12:19.28	132.41	11.57	-21.6	-31.9	4.6	8.35e-01	0	54	104	0	11	14234
2026-01-02 11:12:20.29	132.35	11.66	-25.0	-34.3	4.9	8.13e-01	0	54	104	0	15	14913
2026-01-02 11:12:21.30	132.29	11.75	-22.0	-33.4	5.4	8.11e-01	0	54	104	0	19	10733
2026-01-02 11:12:22.31	132.22	11.84	-23.9	-34.1	4.9	8.09e-01	0	54	104	0	20	11023
2026-01-02 11:12:23.32	132.16	11.93	-20.7	-32.7	4.5	8.27e-01	0	54	104	0	11	15678
2026-01-02 11:12:24.33	132.10	12.02	-23.4	-32.5	5.1	8.17e-01	0	54	104	0	17	10798
2026-01-02 11:12:25.34	132.03	12.11	-20.2	-30.7	4.0	8.18e-01	0	54	104	0	11	12380
2026-01-02 11:12:26.35	131.97	12.20	-24.6	-32.9	4.5	8.41e-01	0	54	104	0	10	16969
2026-01-02 11:12:27.36	131.90	12.30	-20.3	-31.1	4.6	8.24e-01	0	54	104	0	15	10316
2026-01-02 11:12:28.37	131.84	12.39	-26.2	-33.7	4.4	8.33e-01	0	54	104	0	14	14839
2026-01-02 11:12:29.38	131.77	12.48	-26.3	-33.9	5.1	8.18e-01	0	54	104	0	19	11327
2026-01-02 11:12:30.39	131.71	12.57	-21.5	-32.9	5.0	8.22e-01	0	54	104	0	19	10132
2026-01-02 11:12:31.40	131.64	12.66	-22.8	-32.4	4.5	8.22e-01	0	54	104	0	18	10078
2026-01-02 11:12:32.41	131.57	12.76	-26.5	-34.6	5.3	8.06e-01	0	54	104	0	22	10357
2026-01-02 11:12:33.42	131.50	12.85	-24.6	-33.8	4.9	8.13e-01	0	54	104	0	19	11222
2026-01-02 11:12:34.43	131.44	12.94	-25.7	-34.2	5.2	8.09e-01	0	54	104	0	22	9867
2026-01-02 11:12:35.44	131.37	13.04	-26.2	-33.9	5.5	8.05e-01	0	54	104	0	25	8051
2026-01-02 11:12:36.45	131.30	13.13	-23.9	-33.6	4.8	8.16e-01	0	54	104	0	20	10353
2026-01-02 11:12:37.46	131.23	13.23	-25.6	-33.6	5.1	8.16e-01	0	54	104	0	18	11553
2026-01-02 11:12:38.47	131.16	13.32	-26.3	-34.4	5.3	8.21e-01	0	54	104	0	20	11413
2026-01-02 11:12:39.48	131.09	13.42	-24.0	-33.6	4.8	8.20e-01	0	55	104	0	17	12350
2026-01-02 11:12:40.49	131.02	13.51	-17.8	-30.1	4.0	8.03e-01	0	54	104	0	17	8258
2026-01-02 11:12:41.50	130.95	13.61	-21.3	-32.9	4.6	8.35e-01	0	54	104	0	13	14341
2026-01-02 11:12:42.51	130.88	13.70	-19.2	-28.3	4.2	8.18e-01	0	54	104	0	21	5288
2026-01-02 11:12:43.52	130.80	13.80	-27.3	-35.2	5.5	8.18e-01	0	54	104	0	27	8314
2026-01-02 11:12:44.53	130.73	13.90	-27.3	-35.1	5.6	7.87e-01	0	54	104	0	29	7331
2026-01-02 11:12:45.54	130.66	13.99	-30.9	-35.6	9.0	4.12e-01	0	55	0	0	28	8192
2026-01-02 11:12:46.55	130.58	14.09	-20.1	-30.1	4.5	8.09e-01	0	55	104	0	22	6191
2026-01-02 11:12:47.57	130.51	14.19	-27.7	-35.0	5.4	8.17e-01	0	55	104	0	26	8578
2026-01-02 11:12:48.57	130.44	14.29	-30.8	-35.3	5.5	5.82e-01	0	54	104	0	29	7503
2026-01-02 11:12:49.58	130.36	14.39	-25.3	-34.3	5.4	6.29e-01	0	54	104	0	28	7096
2026-01-02 11:12:50.59	130.29	14.48	-30.5	-35.5	5.5	8.35e-01	0	55	104	0	21	12124
2026-01-02 11:12:51.60	130.21	14.58	-28.7	-35.0	5.4	8.01e-01	0	55	104	0	33	5748
2026-01-02 11:12:52.61	130.13	14.68	-30.2	-35.2	5.6	3.76e-01	0	55	104	1048576	30	6974
2026-01-02 11:12:53.62	130.06	14.78	-28.2	-34.9	6.5	2.10e-01	0	54	0	3145728	33	5658
2026-01-02 11:12:54.63	129.98	14.88	-32.8	-35.3	8.0	2.65e-01	0	55	0	7340032	29	7464
2026-01-02 11:12:55.64	129.90	14.98	-20.6	-29.7	4.1	7.88e-02	0	55	0	11534336	28	4184
2026-01-02 11:12:56.65	129.82	15.08	-33.4	-35.7	5.7	5.38e-01	0	55	104	11534336	36	5228
2026-01-02 11:12:57.66	129.74	15.19	-32.9	-35.9	14.6	3.35e-01	0	55	104	11534336	38	4764
2026-01-02 11:12:58.67	129.66	15.29	-21.9	-32.0	5.3	3.49e-01	0	55	0	14680064	20	8575
2026-01-02 11:12:59.68	129.58	15.39	-32.8	-34.8	14.7	2.84e-01	0	55	0	17825792	27	7940
2026-01-02 11:13:00.68	129.50	15.49	-31.8	-34.8	12.4	9.55e-02	0	55	0	23068672	32	5966
2026-01-02 11:13:01.69	129.42	15.59	-33.9	-35.5	15.2	3.24e-02	0	55	0	28311552	37	4832
2026-01-02 11:13:02.70	129.34	15.70	-33.8	-35.4	16.4	1.01e-01	0	55	0	32505856	38	4527
2026-01-02 11:13:03.71	129.25	15.80	-33.3	-34.9	7.1	2.76e-01	0	55	0	36700160	21	11345
2026-01-02 11:13:04.72	129.17	15.90	-29.0	-35.2	11.1	1.02e-01	0	55	0	41943040	36	4932
2026-01-02 11:13:05.73	129.09	16.01	-33.9	-35.3	17.5	7.94e-02	0	55	0	47185920	38	4478
2026-01-02 11:13:06.74	129.00	16.11	-33.4	-35.4	17.5	2.19e-02	0	55	0	53477376	38	4505
2026-01-02 11:13:07.75	128.92	16.22	-34.0	-35.5	18.0	1.69e-02	0	55	0	58720256	38	4569
2026-01-02 11:13:08.76	128.83	16.32	-33.6	-35.5	17.6	1.03e-02	0	55	0	63963136	38	4574
2026-01-02 11:13:09.77	128.74	16.43	-33.4	-35.3	18.2	1.18e-01	0	55	0	69206016	38	4470
2026-01-02 11:13:10.78	128.66	16.54	-33.9	-35.3	17.9	1.47e-03	0	55	0	75497472	38	4489
2026-01-02 11:13:11.79	128.57	16.64	-33.9	-35.4	18.5	6.98e-05	0	55	0	80740352	38	4503
2026-01-02 11:13:12.80	128.48	16.75	-33.5	-35.1	16.9	5.29e-04	0	55	0	87031808	38	4385
2026-01-02 11:13:13.81	128.39	16.86	-33.7	-35.1	18.9	1.62e-04	0	55	0	92274688	38	4342
2026-01-02 11:13:14.82	128.30	16.96	-33.7	-35.1	18.8	4.16e-04	0	55	0	97517568	38	4376
2026-01-02 11:13:15.83	128.21	17.07	-33.7	-35.1	18.8	9.95e-05	0	55	0	103809024	38	4358
2026-01-02 11:13:16.83	128.12	17.18	-33.5	-34.9	18.8	6.04e-04	0	55	0	109051904	38	4273
2026-01-02 11:13:17.84	128.03	17.29	-33.3	-34.6	19.3	1.31e-02	0	55	0	115343360	37	4371
2026-01-02 11:13:18.85	127.94	17.40	-33.3	-34.6	19.4	2.80e-04	0	55	0	120586240	37	4349
2026-01-02 11:13:19.87	127.84	17.51	-33.3	-34.6	19.3	2.10e-03	0	55	0	125829120	37	4379
2026-01-02 11:13:20.88	127.75	17.62	-33.2	-34.6	18.8	2.41e-03	0	55	0	132120576	37	4373
2026-01-02 11:13:21.89	127.66	17.73	-33.2	-34.6	18.7	5.95e-05	0	55	0	137363456	37	4383
2026-01-02 11:13:22.90	127.56	17.84	-33.2	-34.5	19.3	1.48e-05	0	55	0	143654912	37	4337
2026-01-02 11:13:23.91	127.46	17.95	-33.1	-34.5	19.5	5.95e-05	0	55	0	148897792	37	4299
2026-01-02 11:13:24.92	127.37	18.07	-33.2	-34.5	19.4	2.20e-06	0	55	0	154140672	37	4318
2026-01-02 11:13:25.93	127.27	18.18	-33.2	-34.5	19.3	2.20e-06	0	55	0	160432128	37	4315
2026-01-02 11:13:26.94	127.17	18.29	-33.2	-34.5	19.3	0.00e+00	0	55	0	165675008	37	4318
2026-01-02 11:13:27.95	127.07	18.40	-33.1	-34.4	19.5	0.00e+00	0	55	0	171966464	37	4291
2026-01-02 11:13:28.96	126.97	18.52	-33.1	-34.4	19.5	0.00e+00	0	55	0	177209344	37	4274
2026-01-02 11:13:29.97	126.87	18.63	-32.9	-34.3	19.6	0.00e+00	0	55	0	183500800	37	4213
2026-01-02 11:13:30.98	126.77	18.75	-32.3	-33.7	19.5	1.60e-05	0	56	0	188743680	35	4396
2026-01-02 11:13:31.99	126.67	18.86	-32.2	-33.6	19.6	0.00e+00	0	55	0	195035136	35	4345
2026-01-02 11:13:33.00	126.57	18.98	-32.2	-33.5	19.6	0.00e+00	0	55	0	200278016	35	4337
2026-01-02 11:13:34.01	126.46	19.09	-32.2	-33.5	19.7	0.00e+00	0	55	0	205520896	35	4312
2026-01-02 11:13:35.02	126.36	19.21	-32.2	-33.5	19.7	0.00e+00	0	55	0	211812352	35	4301
2026-01-02 11:13:36.03	126.25	19.33	-32.1	-33.4	19.8	0.00e+00	0	55	0	217055232	35	4256
2026-01-02 11:13:37.04	126.15	19.44	-32.0	-33.3	19.9	0.00e+00	0	55	0	223346688	35	4214
2026-01-02 11:13:38.05	126.04	19.56	-32.0	-33.3	19.8	0.00e+00	0	55	0	228589568	35	4234
2026-01-02 11:13:39.06	125.93	19.68	-32.0	-33.3	19.9	0.00e+00	0	55	0	233832448	35	4213
2026-01-02 11:13:40.07	125.83	19.80	-32.0	-33.3	19.9	0.00e+00	0	55	0	240123904	35	4224
2026-01-02 11:13:41.08	125.72	19.92	-32.0	-33.3	19.9	0.00e+00	0	55	0	245366784	35	4196
2026-01-02 11:13:42.09	125.61	20.04	-31.9	-33.2	20.0	1.10e-06	0	55	0	251658240	35	4189
2026-01-02 11:13:43.10	125.49	20.16	-31.9	-33.2	20.0	0.00e+00	0	56	0	256901120	35	4167
2026-01-02 11:13:44.11	125.38	20.28	-31.9	-33.2	19.7	2.20e-06	0	55	0	262144000	35	4186
2026-01-02 11:13:45.12	125.27	20.40	-32.0	-33.3	19.8	8.00e-06	0	55	0	268435456	35	4217
2026-01-02 11:13:46.13	125.16	20.52	-32.0	-33.3	19.8	0.00e+00	0	56	0	273678336	35	4232
2026-01-02 11:13:47.14	125.04	20.64	-32.0	-33.3	19.9	1.10e-06	0	55	0	279969792	35	4231
2026-01-02 11:13:48.14	124.93	20.76	-32.0	-33.3	19.9	1.10e-06	0	55	0	285212672	35	4206
2026-01-02 11:13:49.15	124.81	20.88	-32.0	-33.3	20.0	0.00e+00	0	56	0	291504128	35	4200
2026-01-02 11:13:50.16	124.69	21.01	-32.0	-33.3	20.0	1.10e-06	0	55	0	296747008	35	4202
2026-01-02 11:13:51.18	124.57	21.13	-31.9	-33.2	20.0	0.00e+00	0	55	0	301989888	35	4174
2026-01-02 11:13:52.19	124.45	21.26	-31.9	-33.2	20.0	0.00e+00	0	56	0	308281344	35	4157
2026-01-02 11:13:53.20	124.33	21.38	-31.8	-33.1	20.1	0.00e+00	0	56	0	313524224	35	4127
2026-01-02 11:13:54.21	124.21	21.51	-31.8	-33.0	20.1	0.00e+00	0	56	0	319815680	35	4090
2026-01-02 11:13:55.22	124.09	21.63	-31.7	-33.0	20.2	0.00e+00	0	55	0	325058560	35	4077
2026-01-02 11:13:56.22	123.97	21.76	-31.8	-33.0	20.1	0.00e+00	0	55	0	330301440	35	4088
2026-01-02 11:13:57.24	123.84	21.88	-31.8	-33.0	20.2	0.00e+00	0	56	0	336592896	35	4095
2026-01-02 11:13:58.24	123.72	22.01	-31.8	-33.1	20.2	0.00e+00	0	56	0	341835776	35	4115
2026-01-02 11:13:59.25	123.59	22.14	-31.8	-33.1	20.1	0.00e+00	0	56	0	348127232	35	4117
2026-01-02 11:14:00.26	123.46	22.27	-31.8	-33.1	20.1	0.00e+00	0	55	0	353370112	35	4118
2026-01-02 11:14:01.28	123.33	22.40	-31.9	-33.2	20.1	0.00e+00	0	56	0	358612992	35	4148
2026-01-02 11:14:02.29	123.20	22.52	-31.9	-33.2	20.0	0.00e+00	0	56	0	364904448	35	4171
2026-01-02 11:14:03.30	123.07	22.65	-31.9	-33.2	20.0	0.00e+00	0	55	0	370147328	35	4166
2026-01-02 11:14:04.31	122.94	22.78	-31.9	-33.2	20.1	0.00e+00	0	56	0	376438784	35	4154
2026-01-02 11:14:05.32	122.81	22.91	-31.8	-33.1	20.2	0.00e+00	0	56	0	381681664	35	4106
2026-01-02 11:14:06.33	122.67	23.05	-31.8	-33.0	20.2	0.00e+00	0	55	0	387973120	35	4088
2026-01-02 11:14:07.33	122.54	23.18	-31.6	-32.9	20.3	0.00e+00	0	56	0	393216000	35	4035
2026-01-02 11:14:08.34	122.40	23.31	-31.6	-32.8	20.4	0.00e+00	0	56	0	399507456	35	3998
2026-01-02 11:14:09.35	122.26	23.44	-31.5	-32.8	20.4	0.00e+00	0	56	0	404750336	34	4194
2026-01-02 11:14:10.36	122.12	23.57	-31.4	-32.7	20.5	0.00e+00	0	56	0	409993216	34	4150
2026-01-02 11:14:11.37	121.98	23.71	-31.4	-32.6	20.6	0.00e+00	0	56	0	416284672	34	4122
2026-01-02 11:14:12.38	121.84	23.84	-31.4	-32.6	20.5	0.00e+00	0	56	0	421527552	34	4141
2026-01-02 11:14:13.39	121.70	23.98	-31.4	-32.6	20.5	0.00e+00	0	56	0	427819008	34	4142
2026-01-02 11:14:14.41	121.55	24.11	-31.4	-32.6	20.5	0.00e+00	0	56	0	433061888	34	4122
2026-01-02 11:14:15.41	121.41	24.25	-31.3	-32.6	20.6	0.00e+00	0	56	0	438304768	34	4101
2026-01-02 11:14:16.42	121.26	24.38	-31.4	-32.6	20.6	0.00e+00	0	56	0	444596224	34	4125
2026-01-02 11:14:17.43	121.12	24.52	-31.4	-32.6	20.5	0.00e+00	0	56	0	449839104	34	4139
2026-01-02 11:14:18.44	120.97	24.66	-31.4	-32.7	20.4	0.00e+00	0	56	0	456130560	34	4155
2026-01-02 11:14:19.45	120.82	24.79	-31.4	-32.7	20.5	0.00e+00	0	56	0	461373440	34	4156
2026-01-02 11:14:20.46	120.67	24.93	-31.3	-32.6	20.5	0.00e+00	0	56	0	466616320	34	4114
2026-01-02 11:14:21.47	120.51	25.07	-31.3	-32.5	20.6	0.00e+00	0	56	0	472907776	34	4074
2026-01-02 11:14:22.48	120.36	25.21	-31.2	-32.5	20.6	0.00e+00	0	56	0	478150656	34	4058
2026-01-02 11:14:23.49	120.20	25.35	-31.2	-32.4	20.7	0.00e+00	0	56	0	484442112	34	4046
2026-01-02 11:14:24.50	120.05	25.49	-31.2	-32.4	20.7	0.00e+00	0	56	0	489684992	34	4037
2026-01-02 11:14:25.51	119.89	25.63	-31.2	-32.4	20.7	0.00e+00	0	56	0	495976448	34	4027
2026-01-02 11:14:26.52	119.73	25.77	-31.2	-32.4	20.7	0.00e+00	0	56	0	501219328	34	4030
2026-01-02 11:14:27.53	119.56	25.91	-31.1	-32.3	20.7	0.00e+00	0	56	0	507510784	34	3996
2026-01-02 11:14:28.54	119.40	26.05	-31.1	-32.3	20.7	0.00e+00	0	56	0	512753664	34	3991
2026-01-02 11:14:29.55	119.24	26.19	-31.1	-32.3	20.7	0.00e+00	0	56	0	517996544	34	3997
2026-01-02 11:14:30.56	119.07	26.34	-31.1	-32.3	20.8	0.00e+00	0	56	0	524288000	34	3973
2026-01-02 11:14:31.57	118.90	26.48	-31.1	-32.3	20.8	0.00e+00	0	56	0	529530880	34	3990
2026-01-02 11:14:32.58	118.74	26.62	-31.1	-32.4	20.7	0.00e+00	0	56	0	535822336	34	4027
2026-01-02 11:14:33.59	118.56	26.77	-31.2	-32.4	20.6	0.00e+00	0	56	0	541065216	34	4040
2026-01-02 11:14:34.60	118.39	26.91	-31.1	-32.4	20.6	0.00e+00	0	56	0	546308096	34	4030
2026-01-02 11:14:35.61	118.22	27.06	-31.0	-32.3	20.8	0.00e+00	0	56	0	552599552	34	3961
2026-01-02 11:14:36.62	118.04	27.21	-30.9	-32.1	20.9	0.00e+00	0	56	0	557842432	33	4138
2026-01-02 11:14:37.63	117.87	27.35	-30.9	-32.1	20.9	0.00e+00	0	56	0	564133888	33	4141
2026-01-02 11:14:38.64	117.69	27.50	-30.9	-32.1	20.9	0.00e+00	0	56	0	569376768	33	4125
2026-01-02 11:14:39.65	117.51	27.65	-30.8	-32.1	20.9	0.00e+00	0	56	0	574619648	33	4106
2026-01-02 11:14:40.65	117.33	27.79	-30.8	-32.0	21.0	0.00e+00	0	56	0	580911104	33	4093
2026-01-02 11:14:41.66	117.14	27.94	-30.8	-32.0	21.0	0.00e+00	0	56	0	586153984	33	4071
2026-01-02 11:14:42.67	116.96	28.09	-30.8	-32.0	21.0	0.00e+00	0	56	0	592445440	33	4076
2026-01-02 11:14:43.68	116.77	28.24	-30.7	-32.0	21.1	0.00e+00	0	56	0	597688320	33	4052
2026-01-02 11:14:44.69	116.58	28.39	-30.7	-31.9	21.1	0.00e+00	0	56	0	603979776	33	4030
2026-01-02 11:14:45.70	116.39	28.54	-30.7	-31.9	21.2	0.00e+00	0	56	0	609222656	33	4013
2026-01-02 11:14:46.71	116.20	28.69	-30.6	-31.8	21.2	0.00e+00	0	56	0	614465536	33	3992
2026-01-02 11:14:47.72	116.00	28.84	-30.7	-31.9	21.1	0.00e+00	0	56	0	620756992	33	4043
2026-01-02 11:14:48.73	115.81	28.99	-30.8	-32.0	21.1	0.00e+00	0	56	0	625999872	33	4055
2026-01-02 11:14:49.74	115.61	29.14	-30.9	-32.1	21.0	0.00e+00	0	56	0	632291328	33	4102
2026-01-02 11:14:50.75	115.41	29.29	-30.9	-32.1	21.0	0.00e+00	0	56	0	637534208	33	4144
2026-01-02 11:14:51.76	115.21	29.45	-31.0	-32.2	20.9	0.00e+00	0	56	0	642777088	33	4157
2026-01-02 11:14:52.77	115.00	29.60	-31.0	-32.2	20.9	0.00e+00	0	56	0	649068544	33	4182
2026-01-02 11:14:53.78	114.80	29.75	-31.0	-32.2	20.9	0.00e+00	0	56	0	654311424	33	4170
2026-01-02 11:14:54.79	114.59	29.91	-30.9	-32.1	21.0	0.00e+00	0	56	0	660602880	33	4130
2026-01-02 11:14:55.80	114.38	30.06	-30.8	-32.0	21.2	0.00e+00	0	56	0	665845760	33	4064
2026-01-02 11:14:56.81	114.17	30.22	-30.7	-31.8	21.2	0.00e+00	0	56	0	671088640	33	4003
2026-01-02 11:14:57.82	113.95	30.37	-30.6	-31.8	21.3	0.00e+00	0	56	0	677380096	33	3981
2026-01-02 11:14:58.83	113.74	30.53	-30.7	-31.9	21.3	0.00e+00	0	56	0	682622976	33	4007
2026-01-02 11:14:59.84	113.52	30.68	-30.7	-31.9	21.2	0.00e+00	0	56	0	688914432	33	4040
2026-01-02 11:15:00.85	113.30	30.84	-30.8	-32.0	21.1	0.00e+00	0	56	0	694157312	33	4096
2026-01-02 11:15:01.86	113.08	31.00	-30.9	-32.1	21.0	0.00e+00	0	56	0	700448768	33	4135
2026-01-02 11:15:02.87	112.85	31.15	-31.0	-32.2	20.9	0.00e+00	0	56	0	705691648	33	4183
2026-01-02 11:15:03.88	112.63	31.31	-31.0	-32.3	20.8	0.00e+00	0	56	0	710934528	33	4218
2026-01-02 11:15:04.89	112.40	31.47	-31.0	-32.3	20.9	0.00e+00	0	56	0	717225984	33	4204
2026-01-02 11:15:05.90	112.17	31.63	-30.9	-32.2	20.9	0.00e+00	0	56	0	722468864	33	4150
2026-01-02 11:15:06.91	111.93	31.78	-30.8	-32.0	21.1	0.00e+00	0	56	0	728760320	33	4077
2026-01-02 11:15:07.92	111.70	31.94	-30.6	-31.8	21.2	0.00e+00	0	56	0	734003200	33	4002
2026-01-02 11:15:08.93	111.46	32.10	-30.6	-31.8	21.3	0.00e+00	0	56	0	740294656	33	3968
2026-01-02 11:15:09.94	111.22	32.26	-30.5	-31.7	21.3	0.00e+00	0	56	0	745537536	33	3929
2026-01-02 11:15:10.95	110.97	32.42	-30.5	-31.7	21.3	0.00e+00	0	56	0	750780416	33	3935
2026-01-02 11:15:11.96	110.73	32.58	-30.5	-31.7	21.3	0.00e+00	0	56	0	757071872	33	3957
2026-01-02 11:15:12.97	110.48	32.74	-30.5	-31.7	21.3	0.00e+00	0	56	0	762314752	33	3952
2026-01-02 11:15:13.98	110.23	32.90	-30.5	-31.7	21.3	0.00e+00	0	56	0	768606208	33	3937
2026-01-02 11:15:14.99	109.98	33.06	-30.5	-31.6	21.4	0.00e+00	0	56	0	773849088	32	4144
2026-01-02 11:15:16.01	109.72	33.22	-30.5	-31.7	21.4	0.00e+00	0	56	0	779091968	32	4171
2026-01-02 11:15:17.02	109.46	33.38	-30.6	-31.8	21.3	0.00e+00	0	56	0	785383424	32	4217
2026-01-02 11:15:18.03	109.20	33.54	-30.6	-31.8	21.3	0.00e+00	0	56	0	790626304	32	4218
2026-01-02 11:15:19.04	108.94	33.70	-30.6	-31.8	21.3	0.00e+00	0	56	0	796917760	32	4216
2026-01-02 11:15:20.05	108.67	33.87	-30.6	-31.8	21.3	0.00e+00	0	56	0	802160640	32	4203
2026-01-02 11:15:21.06	108.40	34.03	-30.6	-31.8	21.2	0.00e+00	0	56	0	807403520	32	4226
2026-01-02 11:15:22.07	108.13	34.19	-30.6	-31.9	21.2	0.00e+00	0	56	0	813694976	32	4246
2026-01-02 11:15:23.08	107.86	34.35	-30.6	-31.8	21.2	0.00e+00	0	56	0	818937856	32	4227
2026-01-02 11:15:24.09	107.58	34.51	-30.6	-31.8	21.2	0.00e+00	0	56	0	825229312	32	4211
2026-01-02 11:15:25.10	107.30	34.67	-30.5	-31.7	21.3	0.00e+00	0	56	0	830472192	32	4168
2026-01-02 11:15:26.11	107.02	34.83	-30.5	-31.7	21.3	0.00e+00	0	56	0	836763648	32	4174
2026-01-02 11:15:27.12	106.74	35.00	-30.6	-31.8	21.3	0.00e+00	0	56	0	842006528	32	4202
2026-01-02 11:15:28.13	106.45	35.16	-30.6	-31.8	21.3	0.00e+00	0	56	0	848297984	32	4207
2026-01-02 11:15:29.14	106.16	35.32	-30.6	-31.7	21.3	0.00e+00	0	56	0	853540864	32	4193
2026-01-02 11:15:30.15	105.86	35.48	-30.6	-31.8	21.3	0.00e+00	0	56	0	858783744	32	4198
2026-01-02 11:15:31.16	105.57	35.64	-30.5	-31.7	21.4	0.00e+00	0	56	0	865075200	32	4174
2026-01-02 11:15:32.18	105.26	35.81	-30.6	-31.8	21.3	0.00e+00	0	56	0	870318080	32	4203
2026-01-02 11:15:33.19	104.96	35.97	-30.6	-31.8	21.3	0.00e+00	0	56	0	876609536	32	4199
2026-01-02 11:15:34.19	104.66	36.13	-30.5	-31.7	21.4	0.00e+00	0	56	0	881852416	32	4170
2026-01-02 11:15:35.20	104.35	36.29	-30.5	-31.6	21.4	0.00e+00	0	56	0	887095296	32	4134
2026-01-02 11:15:36.21	104.04	36.45	-30.5	-31.7	21.4	0.00e+00	0	57	0	893386752	32	4167
2026-01-02 11:15:37.22	103.72	36.61	-30.6	-31.8	21.3	0.00e+00	0	56	0	898629632	32	4215
2026-01-02 11:15:38.23	103.41	36.77	-30.7	-31.9	21.2	0.00e+00	0	57	0	904921088	32	4258
2026-01-02 11:15:39.24	103.09	36.93	-30.6	-31.9	21.2	0.00e+00	0	56	0	910163968	32	4246
2026-01-02 11:15:40.25	102.76	37.09	-30.6	-31.8	21.3	0.00e+00	0	56	0	915406848	32	4198
2026-01-02 11:15:41.26	102.43	37.25	-30.5	-31.7	21.4	0.00e+00	0	57	0	921698304	32	4179
2026-01-02 11:15:42.27	102.10	37.41	-30.6	-31.8	21.3	0.00e+00	0	56	0	926941184	32	4228
2026-01-02 11:15:43.28	101.77	37.57	-30.7	-32.0	21.2	0.00e+00	0	56	0	933232640	32	4298
2026-01-02 11:15:44.29	101.43	37.73	-30.9	-32.1	21.0	0.00e+00	0	56	0	938475520	32	4365
2026-01-02 11:15:45.30	101.09	37.89	-31.0	-32.3	20.8	0.00e+00	0	56	0	944766976	32	4461
2026-01-02 11:15:46.31	100.75	38.05	-31.1	-32.3	20.8	0.00e+00	0	56	0	950009856	32	4475
2026-01-02 11:15:47.32	100.40	38.21	-31.0	-32.2	21.0	0.00e+00	0	56	0	955252736	32	4422
2026-01-02 11:15:48.33	100.05	38.36	-30.9	-32.1	21.1	0.00e+00	0	56	0	961544192	32	4359
2026-01-02 11:15:49.34	99.70	38.52	-30.9	-32.1	21.1	0.00e+00	0	56	0	966787072	32	4356
2026-01-02 11:15:50.35	99.34	38.68	-30.8	-32.1	21.1	0.00e+00	0	56	0	973078528	32	4352
2026-01-02 11:15:51.36	98.98	38.83	-30.8	-32.0	21.2	0.00e+00	0	56	0	978321408	32	4298
2026-01-02 11:15:52.37	98.61	38.99	-30.6	-31.8	21.4	0.00e+00	0	56	0	983564288	32	4227
2026-01-02 11:15:53.38	98.24	39.14	-30.7	-31.8	21.3	0.00e+00	0	57	0	989855744	32	4240
2026-01-02 11:15:54.39	97.87	39.29	-30.7	-31.9	21.3	0.00e+00	0	57	0	995098624	32	4253
2026-01-02 11:15:55.40	97.50	39.45	-30.7	-32.0	21.2	0.00e+00	0	56	0	1001390080	32	4295
2026-01-02 11:15:56.42	97.12	39.60	-30.9	-32.1	21.1	0.00e+00	0	56	0	1006632960	32	4375
2026-01-02 11:15:57.42	96.74	39.75	-31.0	-32.2	21.0	0.00e+00	0	56	0	1011875840	32	4411
2026-01-02 11:15:58.43	96.35	39.90	-30.8	-32.0	21.2	0.00e+00	0	56	0	1018167296	32	4338
2026-01-02 11:15:59.44	95.96	40.05	-30.6	-31.8	21.4	0.00e+00	0	57	0	1023410176	32	4203
2026-01-02 11:16:00.45	95.57	40.20	-30.5	-31.6	21.6	0.00e+00	0	56	0	1029701632	32	4126
2026-01-02 11:16:01.46	95.17	40.35	-30.4	-31.6	21.6	0.00e+00	0	56	0	1034944512	32	4123
2026-01-02 11:16:02.47	94.77	40.49	-30.4	-31.6	21.6	0.00e+00	0	57	0	1041235968	32	4109
2026-01-02 11:16:03.48	94.37	40.64	-30.4	-31.6	21.5	0.00e+00	0	56	0	1046478848	32	4120
2026-01-02 11:16:04.49	93.96	40.79	-30.4	-31.6	21.5	0.00e+00	0	56	0	1052770304	32	4118
2026-01-02 11:16:05.50	93.55	40.93	-30.4	-31.6	21.6	0.00e+00	0	56	0	1058013184	32	4117
2026-01-02 11:16:06.51	93.13	41.07	-30.4	-31.6	21.6	0.00e+00	0	56	0	1063256064	32	4121
2026-01-02 11:16:07.52	92.72	41.21	-30.6	-31.7	21.5	0.00e+00	0	56	0	1069547520	32	4183
2026-01-02 11:16:08.53	92.29	41.35	-30.6	-31.8	21.4	0.00e+00	0	56	0	1074790400	32	4223
2026-01-02 11:16:09.54	91.87	41.49	-30.6	-31.7	21.5	0.00e+00	0	56	0	1081081856	32	4190
2026-01-02 11:16:10.55	91.44	41.63	-30.5	-31.7	21.6	0.00e+00	0	57	0	1086324736	32	4149
2026-01-02 11:16:11.57	91.00	41.77	-30.4	-31.6	21.7	0.00e+00	0	56	0	1091567616	32	4112
2026-01-02 11:16:12.58	90.56	41.90	-30.6	-31.8	21.6	0.00e+00	0	57	0	1097859072	32	4218
2026-01-02 11:16:13.58	90.13	42.04	-30.7	-31.9	21.5	0.00e+00	0	57	0	1103101952	32	4256
2026-01-02 11:16:14.59	89.68	42.17	-30.6	-31.7	21.6	0.00e+00	0	56	0	1109393408	32	4193
2026-01-02 11:16:15.60	89.24	42.30	-30.6	-31.7	21.6	0.00e+00	0	56	0	1114636288	32	4168
2026-01-02 11:16:16.61	88.79	42.43	-30.5	-31.7	21.6	0.00e+00	0	56	0	1119879168	32	4167
2026-01-02 11:16:17.62	88.33	42.56	-30.4	-31.6	21.6	0.00e+00	0	57	0	1126170624	32	4126
2026-01-02 11:16:18.63	87.87	42.68	-30.3	-31.4	21.8	0.00e+00	0	56	0	1131413504	32	4046
2026-01-02 11:16:19.64	87.41	42.81	-30.2	-31.4	21.9	0.00e+00	0	57	0	1137704960	32	4005
2026-01-02 11:16:20.65	86.94	42.93	-30.3	-31.5	21.8	0.00e+00	0	56	0	1142947840	32	4065
2026-01-02 11:16:21.66	86.47	43.05	-30.3	-31.5	21.8	0.00e+00	0	56	0	1149239296	32	4054
2026-01-02 11:16:22.67	86.00	43.17	-30.2	-31.4	21.9	0.00e+00	0	57	0	1154482176	32	4013
2026-01-02 11:16:23.68	85.52	43.29	-30.4	-31.6	21.7	0.00e+00	0	57	0	1160773632	32	4108
2026-01-02 11:16:24.69	85.04	43.40	-30.5	-31.7	21.6	0.00e+00	0	57	0	1166016512	32	4168
2026-01-02 11:16:25.70	84.56	43.52	-30.7	-31.9	21.4	0.00e+00	0	56	0	1171259392	32	4272
2026-01-02 11:16:26.71	84.07	43.63	-30.6	-31.8	21.5	0.00e+00	0	57	0	1177550848	32	4222
2026-01-02 11:16:27.72	83.58	43.74	-30.5	-31.7	21.6	0.00e+00	0	57	0	1182793728	32	4170
2026-01-02 11:16:28.73	83.09	43.84	-30.4	-31.5	21.8	0.00e+00	0	57	0	1189085184	32	4079
2026-01-02 11:16:29.74	82.59	43.95	-30.3	-31.4	21.8	0.00e+00	0	57	0	1194328064	32	4049
2026-01-02 11:16:30.75	82.09	44.05	-30.4	-31.5	21.8	0.00e+00	0	57	0	1199570944	32	4088
2026-01-02 11:16:31.76	81.59	44.15	-30.5	-31.6	21.7	0.00e+00	0	57	0	1205862400	32	4140
2026-01-02 11:16:32.77	81.08	44.25	-30.5	-31.7	21.6	0.00e+00	0	57	0	1211105280	32	4158
2026-01-02 11:16:33.78	80.57	44.35	-30.5	-31.7	21.7	0.00e+00	0	57	0	1217396736	32	4146
2026-01-02 11:16:34.79	80.06	44.44	-30.6	-31.7	21.6	0.00e+00	0	57	0	1222639616	32	4178
2026-01-02 11:16:35.80	79.55	44.54	-30.8	-32.0	21.3	0.00e+00	0	57	0	1227882496	32	4302
2026-01-02 11:16:36.81	79.03	44.62	-30.9	-32.1	21.2	0.00e+00	0	57	0	1234173952	32	4380
2026-01-02 11:16:37.83	78.50	44.71	-30.8	-32.0	21.3	0.00e+00	0	57	0	1239416832	33	4084
2026-01-02 11:16:38.84	77.98	44.80	-30.7	-31.9	21.4	0.00e+00	0	57	0	1245708288	33	4034
2026-01-02 11:16:39.85	77.45	44.88	-30.7	-31.9	21.4	0.00e+00	0	57	0	1250951168	33	4013
2026-01-02 11:16:40.86	76.92	44.96	-30.8	-31.9	21.3	0.00e+00	0	57	0	1257242624	33	4041
2026-01-02 11:16:41.87	76.39	45.04	-30.7	-31.9	21.4	0.00e+00	0	57	0	1262485504	33	4036
2026-01-02 11:16:42.88	75.85	45.11	-30.6	-31.8	21.5	0.00e+00	0	57	0	1268776960	33	3972
2026-01-02 11:16:43.89	75.32	45.18	-30.7	-31.9	21.5	0.00e+00	0	57	0	1274019840	33	4010
2026-01-02 11:16:44.90	74.78	45.25	-30.9	-32.1	21.4	0.00e+00	0	57	0	1279262720	33	4104
2026-01-02 11:16:45.91	74.23	45.32	-30.8	-32.0	21.4	0.00e+00	0	57	0	1285554176	33	4064
2026-01-02 11:16:46.92	73.69	45.38	-30.6	-31.8	21.5	0.00e+00	0	57	0	1290797056	33	3974
2026-01-02 11:16:47.93	73.14	45.44	-30.6	-31.8	21.5	0.00e+00	0	57	0	1297088512	33	3961
2026-01-02 11:16:48.94	72.60	45.50	-30.7	-31.9	21.4	0.00e+00	0	57	0	1302331392	33	4021
2026-01-02 11:16:49.95	72.05	45.55	-30.7	-31.9	21.4	0.00e+00	0	57	0	1307574272	33	4034
2026-01-02 11:16:50.96	71.49	45.61	-30.7	-31.9	21.4	0.00e+00	0	57	0	1313865728	33	4029
2026-01-02 11:16:51.97	70.94	45.65	-30.7	-31.9	21.4	0.00e+00	0	57	0	1319108608	33	4011
2026-01-02 11:16:52.98	70.38	45.70	-30.7	-31.8	21.5	0.00e+00	0	57	0	1325400064	33	3991
2026-01-02 11:16:53.99	69.83	45.74	-30.7	-31.8	21.5	0.00e+00	0	56	0	1330642944	33	3985
2026-01-02 11:16:55.00	69.27	45.78	-30.7	-31.9	21.5	0.00e+00	0	57	0	1335885824	33	4028
2026-01-02 11:16:56.01	68.71	45.82	-30.7	-31.9	21.5	0.00e+00	0	57	0	1342177280	33	4011
2026-01-02 11:16:57.02	68.15	45.86	-30.7	-31.8	21.6	0.00e+00	0	57	0	1347420160	33	3986
2026-01-02 11:16:58.03	67.58	45.89	-30.8	-31.9	21.5	0.00e+00	0	57	0	1353711616	33	4039
2026-01-02 11:16:59.04	67.02	45.92	-30.8	-32.0	21.4	0.00e+00	0	57	0	1358954496	33	4081
2026-01-02 11:17:00.05	66.46	45.94	-30.7	-31.8	21.5	0.00e+00	0	57	0	1365245952	33	4002
2026-01-02 11:17:01.06	65.89	45.96	-30.6	-31.8	21.5	0.00e+00	0	57	0	1370488832	33	3973
2026-01-02 11:17:02.07	65.32	45.98	-30.7	-31.8	21.5	0.00e+00	0	57	0	1375731712	33	4001
2026-01-02 11:17:03.08	64.76	46.00	-30.8	-32.0	21.4	0.00e+00	0	57	0	1382023168	33	4055
2026-01-02 11:17:04.09	64.19	46.01	-30.8	-31.9	21.4	0.00e+00	0	57	0	1387266048	33	4042
2026-01-02 11:17:05.10	63.62	46.02	-30.6	-31.7	21.6	0.00e+00	0	57	0	1393557504	33	3940
2026-01-02 11:17:06.11	63.06	46.03	-30.5	-31.6	21.7	0.00e+00	0	57	0	1398800384	33	3906
2026-01-02 11:17:07.12	62.49	46.03	-30.6	-31.7	21.7	0.00e+00	0	57	0	1404043264	32	4181
2026-01-02 11:17:08.13	61.92	46.03	-30.9	-32.1	21.4	0.00e+00	0	57	0	1410334720	32	4351
2026-01-02 11:17:09.14	61.35	46.03	-30.8	-32.0	21.5	0.00e+00	0	57	0	1415577600	32	4292
2026-01-02 11:17:10.15	60.78	46.02	-30.6	-31.7	21.7	0.00e+00	0	57	0	1421869056	32	4186
2026-01-02 11:17:11.17	60.21	46.02	-30.6	-31.7	21.7	0.00e+00	0	57	0	1427111936	32	4174
2026-01-02 11:17:12.18	59.64	46.00	-30.7	-31.8	21.5	0.00e+00	0	57	0	1432354816	32	4239
2026-01-02 11:17:13.19	59.08	45.99	-30.7	-31.9	21.4	0.00e+00	0	57	0	1438646272	32	4252
2026-01-02 11:17:14.20	58.51	45.97	-30.6	-31.8	21.5	0.00e+00	0	57	0	1443889152	32	4218
2026-01-02 11:17:15.21	57.94	45.95	-30.9	-32.0	21.3	0.00e+00	0	57	0	1450180608	32	4329
2026-01-02 11:17:16.22	57.38	45.93	-31.1	-32.3	21.1	0.00e+00	0	57	0	1455423488	32	4449
2026-01-02 11:17:17.23	56.82	45.90	-30.9	-32.0	21.4	0.00e+00	0	57	0	1461714944	32	4333
2026-01-02 11:17:18.24	56.25	45.87	-30.7	-31.8	21.6	0.00e+00	0	57	0	1466957824	32	4221
2026-01-02 11:17:19.25	55.69	45.83	-30.7	-31.8	21.6	0.00e+00	0	57	0	1473249280	32	4215
2026-01-02 11:17:20.25	55.14	45.80	-30.7	-31.8	21.6	0.00e+00	0	57	0	1478492160	32	4236
2026-01-02 11:17:21.26	54.58	45.76	-30.5	-31.7	21.7	0.00e+00	0	57	0	1483735040	32	4150
2026-01-02 11:17:22.27	54.02	45.72	-30.7	-31.9	21.5	0.00e+00	0	57	0	1490026496	32	4257
2026-01-02 11:17:23.28	53.47	45.67	-30.7	-31.9	21.5	0.00e+00	0	57	0	1495269376	32	4268
2026-01-02 11:17:24.29	52.91	45.62	-30.6	-31.8	21.6	0.00e+00	0	57	0	1501560832	32	4197
2026-01-02 11:17:25.31	52.35	45.57	-30.5	-31.7	21.7	0.00e+00	0	57	0	1506803712	32	4159
2026-01-02 11:17:26.32	51.80	45.52	-30.8	-32.0	21.4	0.00e+00	0	57	0	1512046592	32	4300
2026-01-02 11:17:27.33	51.25	45.46	-30.8	-32.0	21.4	0.00e+00	0	57	0	1518338048	32	4299
2026-01-02 11:17:28.34	50.71	45.40	-30.6	-31.8	21.6	0.00e+00	0	57	0	1523580928	32	4203
2026-01-02 11:17:29.35	50.16	45.34	-30.7	-31.8	21.5	0.00e+00	0	57	0	1529872384	32	4222
2026-01-02 11:17:30.36	49.62	45.27	-30.6	-31.8	21.6	0.00e+00	0	57	0	1535115264	32	4210
2026-01-02 11:17:31.37	49.08	45.21	-30.6	-31.7	21.6	0.00e+00	0	57	0	1540358144	32	4176
2026-01-02 11:17:32.38	48.54	45.14	-30.5	-31.7	21.7	0.00e+00	0	57	0	1546649600	32	4159
2026-01-02 11:17:33.39	48.01	45.06	-30.5	-31.7	21.7	0.00e+00	0	57	0	1551892480	32	4151
2026-01-02 11:17:34.40	47.48	44.99	-30.4	-31.6	21.8	0.00e+00	0	57	0	1558183936	32	4102
2026-01-02 11:17:35.41	46.95	44.91	-30.4	-31.5	21.9	0.00e+00	0	57	0	1563426816	32	4063
2026-01-02 11:17:36.42	46.42	44.83	-30.5	-31.6	21.7	0.00e+00	0	57	0	1569718272	32	4126
2026-01-02 11:17:37.43	45.89	44.74	-30.7	-31.9	21.4	0.00e+00	0	57	0	1574961152	32	4272
2026-01-02 11:17:38.44	45.37	44.66	-30.6	-31.8	21.6	0.00e+00	0	57	0	1581252608	32	4206
2026-01-02 11:17:39.45	44.85	44.57	-30.5	-31.6	21.7	0.00e+00	0	57	0	1586495488	32	4134
2026-01-02 11:17:40.46	44.34	44.48	-30.6	-31.7	21.6	0.00e+00	0	57	0	1591738368	32	4184
2026-01-02 11:17:41.47	43.83	44.39	-30.6	-31.8	21.6	0.00e+00	0	57	0	1598029824	32	4200
2026-01-02 11:17:42.48	43.32	44.29	-30.4	-31.6	21.8	0.00e+00	0	57	0	1603272704	32	4103
2026-01-02 11:17:43.49	42.81	44.19	-30.3	-31.5	21.9	0.00e+00	0	57	0	1609564160	32	4056
2026-01-02 11:17:44.50	42.31	44.09	-30.2	-31.3	22.0	0.00e+00	0	57	0	1614807040	32	4000
2026-01-02 11:17:45.51	41.81	43.99	-30.2	-31.3	22.0	0.00e+00	0	57	0	1620049920	32	3986
2026-01-02 11:17:46.52	41.31	43.89	-30.3	-31.4	21.9	0.00e+00	0	57	0	1626341376	32	4019
2026-01-02 11:17:47.53	40.81	43.78	-30.3	-31.5	21.8	0.00e+00	0	57	0	1631584256	32	4062
2026-01-02 11:17:48.54	40.32	43.67	-30.3	-31.5	21.8	0.00e+00	0	57	0	1637875712	32	4063
2026-01-02 11:17:49.55	39.84	43.56	-30.4	-31.5	21.8	0.00e+00	0	57	0	1643118592	32	4070
2026-01-02 11:17:50.56	39.35	43.45	-30.4	-31.6	21.7	0.00e+00	0	57	0	1648361472	32	4115
2026-01-02 11:17:51.57	38.87	43.33	-30.5	-31.6	21.7	0.00e+00	0	57	0	1654652928	32	4137
2026-01-02 11:17:52.58	38.40	43.22	-30.5	-31.6	21.7	0.00e+00	0	57	0	1659895808	32	4145
2026-01-02 11:17:53.59	37.92	43.10	-30.5	-31.6	21.7	0.00e+00	0	57	0	1666187264	32	4131
2026-01-02 11:17:54.60	37.45	42.98	-30.5	-31.6	21.7	0.00e+00	0	57	0	1671430144	32	4141
2026-01-02 11:17:55.61	36.99	42.86	-30.5	-31.7	21.7	0.00e+00	0	57	0	1677721600	32	4165
2026-01-02 11:17:56.62	36.52	42.74	-30.5	-31.6	21.7	0.00e+00	0	57	0	1682964480	32	4137
2026-01-02 11:17:57.63	36.06	42.61	-30.4	-31.6	21.7	0.00e+00	0	57	0	1689255936	32	4105
2026-01-02 11:17:58.64	35.61	42.48	-30.4	-31.5	21.8	0.00e+00	0	57	0	1694498816	32	4084
2026-01-02 11:17:59.64	35.16	42.36	-30.3	-31.4	21.8	0.00e+00	0	57	0	1699741696	32	4050
2026-01-02 11:18:00.65	34.71	42.23	-30.2	-31.4	21.9	0.00e+00	0	57	0	1706033152	32	4010
2026-01-02 11:18:01.66	34.27	42.09	-30.2	-31.3	21.9	0.00e+00	0	57	0	1711276032	32	3986
2026-01-02 11:18:02.67	33.83	41.96	-30.3	-31.4	21.8	0.00e+00	0	57	0	1716518912	32	4042
2026-01-02 11:18:03.68	33.39	41.83	-30.4	-31.6	21.6	0.00e+00	0	57	0	1722810368	32	4132
2026-01-02 11:18:04.69	32.96	41.69	-30.5	-31.6	21.6	0.00e+00	0	57	0	1728053248	32	4141
2026-01-02 11:18:05.70	32.53	41.56	-30.5	-31.6	21.6	0.00e+00	0	57	0	1734344704	32	4144
2026-01-02 11:18:06.71	32.10	41.42	-30.5	-31.6	21.6	0.00e+00	0	57	0	1739587584	32	4141
2026-01-02 11:18:07.72	31.68	41.28	-30.6	-31.7	21.5	0.00e+00	0	57	0	1744830464	32	4183
2026-01-02 11:18:08.73	31.26	41.14	-30.6	-31.7	21.5	0.00e+00	0	57	0	1751121920	32	4179
2026-01-02 11:18:09.74	30.85	40.99	-30.5	-31.7	21.6	0.00e+00	0	57	0	1756364800	32	4148
2026-01-02 11:18:10.75	30.43	40.85	-30.4	-31.6	21.7	0.00e+00	0	57	0	1762656256	32	4100
2026-01-02 11:18:11.76	30.03	40.71	-30.4	-31.5	21.8	0.00e+00	0	57	0	1767899136	32	4093
2026-01-02 11:18:12.77	29.62	40.56	-30.5	-31.6	21.7	0.00e+00	0	57	0	1774190592	32	4138
2026-01-02 11:18:13.78	29.22	40.42	-30.4	-31.6	21.7	0.00e+00	0	57	0	1779433472	32	4113
2026-01-02 11:18:14.80	28.82	40.27	-30.4	-31.6	21.7	0.00e+00	0	57	0	1785724928	32	4101
2026-01-02 11:18:15.80	28.43	40.12	-30.4	-31.6	21.7	0.00e+00	0	57	0	1790967808	32	4120
2026-01-02 11:18:16.81	28.04	39.97	-30.5	-31.7	21.6	0.00e+00	0	57	0	1796210688	32	4146
2026-01-02 11:18:17.82	27.66	39.82	-30.7	-31.7	22.3	0.00e+00	0	57	0	1802502144	32	4168
2026-01-02 11:18:18.83	27.27	39.67	-30.7	-31.7	22.3	0.00e+00	0	57	0	1807745024	32	4189
2026-01-02 11:18:19.84	26.89	39.52	-30.8	-31.9	22.2	0.00e+00	0	57	0	1814036480	32	4257
2026-01-02 11:18:20.85	26.52	39.37	-30.9	-31.9	22.2	0.00e+00	0	57	0	1819279360	32	4258
2026-01-02 11:18:21.86	26.15	39.22	-30.7	-31.7	22.3	0.00e+00	0	57	0	1824522240	32	4183
2026-01-02 11:18:22.87	25.78	39.06	-30.7	-31.7	22.4	0.00e+00	0	57	0	1830813696	32	4152
2026-01-02 11:18:23.88	25.41	38.91	-30.6	-31.6	22.5	0.00e+00	0	57	0	1836056576	32	4125
2026-01-02 11:18:24.89	25.05	38.75	-30.6	-31.6	22.5	0.00e+00	0	57	0	1842348032	32	4121
2026-01-02 11:18:25.89	24.70	38.60	-30.6	-31.6	22.5	0.00e+00	0	57	0	1847590912	32	4116
2026-01-02 11:18:26.90	24.34	38.44	-30.6	-31.6	22.5	0.00e+00	0	57	0	1852833792	32	4126
2026-01-02 11:18:27.91	23.99	38.29	-30.6	-31.6	22.5	0.00e+00	0	57	0	1859125248	32	4117
2026-01-02 11:18:28.92	23.65	38.13	-30.6	-31.6	22.5	0.00e+00	0	57	0	1864368128	32	4106
2026-01-02 11:18:29.93	23.30	37.97	-30.5	-31.5	22.6	0.00e+00	0	57	0	1870659584	32	4055
2026-01-02 11:18:30.94	22.96	37.81	-30.4	-31.4	22.6	0.00e+00	0	57	0	1875902464	32	4042
2026-01-02 11:18:31.95	22.62	37.66	-30.4	-31.4	22.6	0.00e+00	0	57	0	1882193920	32	4037
2026-01-02 11:18:32.97	22.28	37.50	-30.5	-31.5	22.6	0.00e+00	0	57	0	1887436800	32	4055
2026-01-02 11:18:33.98	21.95	37.34	-30.5	-31.5	22.6	0.00e+00	0	57	0	1893728256	32	4063
2026-01-02 11:18:34.99	21.63	37.18	-30.4	-31.4	22.6	0.00e+00	0	57	0	1898971136	32	4042
2026-01-02 11:18:36.00	21.30	37.02	-30.4	-31.4	22.6	0.00e+00	0	57	0	1904214016	32	4015
2026-01-02 11:18:37.01	20.98	36.86	-30.4	-31.3	22.7	0.00e+00	0	57	0	1910505472	32	4000
2026-01-02 11:18:38.02	20.66	36.70	-30.4	-31.4	22.6	0.00e+00	0	57	0	1915748352	32	4017
2026-01-02 11:18:39.03	20.35	36.54	-30.5	-31.5	22.6	0.00e+00	0	57	0	1922039808	32	4067
2026-01-02 11:18:40.04	20.04	36.38	-30.5	-31.6	22.5	0.00e+00	0	57	0	1927282688	32	4104
2026-01-02 11:18:41.05	19.73	36.22	-30.4	-31.4	22.6	0.00e+00	0	57	0	1932525568	32	4047
2026-01-02 11:18:42.05	19.42	36.06	-30.3	-31.3	22.7	0.00e+00	0	57	0	1938817024	32	3984
2026-01-02 11:18:43.06	19.12	35.90	-30.3	-31.2	22.8	0.00e+00	0	57	0	1944059904	32	3952
2026-01-02 11:18:44.07	18.82	35.74	-30.2	-31.2	22.8	0.00e+00	0	57	0	1949302784	32	3939
2026-01-02 11:18:45.09	18.52	35.57	-30.2	-31.2	22.8	0.00e+00	0	57	0	1955594240	32	3940
2026-01-02 11:18:46.10	18.23	35.41	-30.3	-31.3	22.7	0.00e+00	0	57	0	1960837120	32	3973
2026-01-02 11:18:47.11	17.94	35.25	-30.5	-31.5	22.6	0.00e+00	0	57	0	1967128576	32	4056
2026-01-02 11:18:48.12	17.65	35.09	-30.6	-31.6	22.4	0.00e+00	0	57	0	1972371456	32	4115
2026-01-02 11:18:49.13	17.36	34.93	-30.6	-31.6	22.4	0.00e+00	0	57	0	1978662912	32	4123
2026-01-02 11:18:50.14	17.08	34.77	-30.5	-31.6	22.5	0.00e+00	0	57	0	1983905792	32	4106
2026-01-02 11:18:51.15	16.80	34.61	-30.5	-31.5	22.5	0.00e+00	0	57	0	1990197248	32	4059
2026-01-02 11:18:52.16	16.53	34.45	-30.5	-31.5	22.5	0.00e+00	0	57	0	1995440128	32	4080
2026-01-02 11:18:53.17	16.25	34.29	-30.6	-31.6	22.4	0.00e+00	0	57	0	2000683008	32	4110
2026-01-02 11:18:54.18	15.98	34.12	-30.6	-31.6	22.4	0.00e+00	0	57	0	2006974464	32	4130
2026-01-02 11:18:55.19	15.71	33.96	-30.6	-31.6	22.4	0.00e+00	0	57	0	2012217344	32	4108
2026-01-02 11:18:56.19	15.45	33.80	-30.5	-31.5	22.5	0.00e+00	0	57	0	2018508800	32	4079
2026-01-02 11:18:57.21	15.18	33.64	-30.5	-31.5	22.5	0.00e+00	0	57	0	2023751680	32	4091
2026-01-02 11:18:58.22	14.92	33.48	-30.6	-31.6	22.4	0.00e+00	0	57	0	2028994560	32	4114
2026-01-02 11:18:59.23	14.66	33.32	-30.6	-31.7	22.3	0.00e+00	0	57	0	2035286016	32	4156
2026-01-02 11:19:00.24	14.41	33.16	-30.7	-31.7	22.3	0.00e+00	0	57	0	2040528896	32	4155
2026-01-02 11:19:01.25	14.16	33.00	-30.6	-31.6	22.4	0.00e+00	0	57	0	2046820352	32	4118
2026-01-02 11:19:02.26	13.91	32.84	-30.6	-31.6	22.4	0.00e+00	0	57	0	2052063232	32	4116
2026-01-02 11:19:03.27	13.66	32.68	-30.5	-31.5	22.5	0.00e+00	0	57	0	2057306112	32	4087
2026-01-02 11:19:04.28	13.41	32.52	-30.6	-31.6	22.4	0.00e+00	0	57	0	2063597568	32	4101
2026-01-02 11:19:05.29	13.17	32.37	-30.6	-31.6	22.4	0.00e+00	0	57	0	2068840448	32	4127
2026-01-02 11:19:06.30	12.93	32.21	-30.7	-31.7	22.3	0.00e+00	0	57	0	2075131904	32	4160
2026-01-02 11:19:07.31	12.69	32.05	-30.8	-31.8	22.2	0.00e+00	0	57	0	2080374784	32	4214
2026-01-02 11:19:08.32	12.45	31.89	-30.7	-31.8	22.2	0.00e+00	0	57	0	2086666240	32	4206
2026-01-02 11:19:09.33	12.22	31.73	-30.7	-31.7	22.3	0.00e+00	0	57	0	2091909120	32	4183
2026-01-02 11:19:10.34	11.99	31.58	-30.6	-31.6	22.4	0.00e+00	0	57	0	2098200576	32	4104
2026-01-02 11:19:11.35	11.76	31.42	-30.5	-31.5	22.4	0.00e+00	0	57	0	2103443456	32	4086
2026-01-02 11:19:12.36	11.53	31.26	-30.5	-31.5	22.4	0.00e+00	0	57	0	2108686336	32	4083
2026-01-02 11:19:13.37	11.31	31.11	-30.6	-31.6	22.4	0.00e+00	0	57	0	2114977792	32	4117
2026-01-02 11:19:14.38	11.09	30.95	-30.7	-31.7	22.3	0.00e+00	0	57	0	2120220672	32	4170
2026-01-02 11:19:15.39	10.87	30.79	-30.7	-31.7	22.2	0.00e+00	0	57	0	2126512128	32	4185
2026-01-02 11:19:16.40	10.65	30.64	-30.6	-31.7	22.3	0.00e+00	0	57	0	2131755008	32	4155
2026-01-02 11:19:17.41	10.43	30.48	-30.7	-31.7	22.3	0.00e+00	0	57	0	2136997888	32	4154
2026-01-02 11:19:18.42	10.22	30.33	-30.8	-31.8	22.2	0.00e+00	0	57	0	2143289344	32	4198
2026-01-02 11:19:19.43	10.01	30.17	-30.9	-31.9	22.1	0.00e+00	0	57	0	2148532224	32	4257
2026-01-02 11:19:20.44	9.80	30.02	-31.0	-32.1	21.9	0.00e+00	0	57	0	2154823680	32	4344
2026-01-02 11:19:21.45	9.59	29.87	-31.2	-32.2	21.8	0.00e+00	0	57	0	2160066560	32	4435
2026-01-02 11:19:22.46	9.38	29.71	-31.3	-32.4	21.6	0.00e+00	0	57	0	2165309440	33	4248
2026-01-02 11:19:23.47	9.18	29.56	-31.3	-32.4	21.6	0.00e+00	0	57	0	2171600896	33	4260
2026-01-02 11:19:24.48	8.98	29.41	-31.3	-32.3	21.6	0.00e+00	0	57	0	2176843776	33	4233
2026-01-02 11:19:25.50	8.78	29.26	-31.3	-32.3	21.7	0.00e+00	0	57	0	2183135232	33	4235
2026-01-02 11:19:26.50	8.58	29.11	-31.3	-32.3	21.7	0.00e+00	0	57	0	2188378112	33	4224
2026-01-02 11:19:27.52	8.38	28.95	-31.2	-32.3	21.7	0.00e+00	0	57	0	2194669568	33	4219
2026-01-02 11:19:28.53	8.19	28.80	-31.3	-32.3	21.7	0.00e+00	0	57	0	2199912448	33	4229
2026-01-02 11:19:29.54	7.99	28.65	-31.2	-32.3	21.7	0.00e+00	0	57	0	2206203904	33	4213
2026-01-02 11:19:30.54	7.81	28.51	-31.2	-32.2	21.8	0.00e+00	0	57	0	2211446784	33	4171
2026-01-02 11:19:31.56	7.62	28.35	-31.1	-32.1	21.8	0.00e+00	0	57	0	2216689664	33	4139
2026-01-02 11:19:32.57	7.43	28.21	-31.0	-32.1	21.9	0.00e+00	0	57	0	2222981120	33	4102
2026-01-02 11:19:33.58	7.24	28.06	-31.0	-32.1	21.9	0.00e+00	0	57	0	2228224000	33	4101
2026-01-02 11:19:34.59	7.06	27.91	-31.1	-32.1	21.9	0.00e+00	0	57	0	2234515456	33	4114
2026-01-02 11:19:35.60	6.88	27.76	-31.1	-32.2	21.8	0.00e+00	0	57	0	2239758336	33	4154
2026-01-02 11:19:36.61	6.70	27.62	-31.2	-32.3	21.7	0.00e+00	0	57	0	2245001216	33	4206
2026-01-02 11:19:37.62	6.52	27.47	-31.3	-32.4	21.6	0.00e+00	0	57	0	2251292672	33	4253
2026-01-02 11:19:38.63	6.34	27.32	-31.4	-32.5	21.5	0.00e+00	0	57	0	2256535552	33	4294
2026-01-02 11:19:39.64	6.17	27.18	-31.4	-32.5	21.5	0.00e+00	0	57	0	2262827008	33	4316
2026-01-02 11:19:40.65	5.99	27.03	-31.4	-32.5	21.5	0.00e+00	0	57	0	2268069888	33	4318
2026-01-02 11:19:41.66	5.82	26.89	-31.4	-32.5	21.5	0.00e+00	0	57	0	2273312768	33	4316
2026-01-02 11:19:42.67	5.65	26.74	-31.4	-32.5	21.5	0.00e+00	0	57	0	2279604224	33	4303
2026-01-02 11:19:43.68	5.48	26.60	-31.4	-32.4	21.5	0.00e+00	0	57	0	2284847104	33	4286
2026-01-02 11:19:44.69	5.32	26.46	-31.3	-32.4	21.6	0.00e+00	0	57	0	2291138560	33	4258
2026-01-02 11:19:45.70	5.15	26.32	-31.3	-32.3	21.6	0.00e+00	0	57	0	2296381440	33	4227
2026-01-02 11:19:46.71	4.99	26.17	-31.3	-32.3	21.6	0.00e+00	0	57	0	2302672896	33	4211
2026-01-02 11:19:47.72	4.82	26.03	-31.2	-32.3	21.7	0.00e+00	0	57	0	2307915776	33	4201
2026-01-02 11:19:48.73	4.66	25.89	-31.2	-32.2	21.7	0.00e+00	0	57	0	2314207232	33	4190
2026-01-02 11:19:49.74	4.50	25.75	-31.2	-32.3	21.6	0.00e+00	0	57	0	2319450112	33	4207
2026-01-02 11:19:50.75	4.34	25.61	-31.3	-32.3	21.6	0.00e+00	0	57	0	2324692992	33	4226
2026-01-02 11:19:51.76	4.19	25.47	-31.3	-32.3	21.6	0.00e+00	0	57	0	2330984448	33	4232
2026-01-02 11:19:52.77	4.03	25.33	-31.2	-32.3	21.6	0.00e+00	0	57	0	2336227328	33	4210
2026-01-02 11:19:53.77	3.88	25.19	-31.2	-32.3	21.6	0.00e+00	0	57	0	2341470208	33	4209
2026-01-02 11:19:54.79	3.72	25.05	-31.2	-32.2	21.7	0.00e+00	0	57	0	2347761664	33	4180
2026-01-02 11:19:55.80	3.57	24.92	-31.1	-32.1	21.7	0.00e+00	0	57	0	2353004544	33	4143
2026-01-02 11:19:56.81	3.42	24.78	-31.1	-32.2	21.7	0.00e+00	0	57	0	2359296000	33	4156
2026-01-02 11:19:57.81	3.28	24.64	-31.2	-32.2	21.6	0.00e+00	0	57	0	2364538880	33	4174
2026-01-02 11:19:58.82	3.13	24.51	-31.3	-32.3	21.6	0.00e+00	0	57	0	2369781760	33	4210
2026-01-02 11:19:59.83	2.98	24.37	-31.3	-32.4	21.5	0.00e+00	0	57	0	2376073216	33	4253
2026-01-02 11:20:00.84	2.84	24.24	-31.4	-32.5	21.4	0.00e+00	0	57	0	2381316096	33	4297
2026-01-02 11:20:01.85	2.69	24.10	-31.4	-32.5	21.4	0.00e+00	0	57	0	2387607552	33	4311
2026-01-02 11:20:02.86	2.55	23.97	-31.4	-32.5	21.4	0.00e+00	0	57	0	2392850432	33	4319
2026-01-02 11:20:03.87	2.41	23.84	-31.4	-32.5	21.4	0.00e+00	0	57	0	2399141888	33	4304
2026-01-02 11:20:04.88	2.27	23.70	-31.4	-32.5	21.4	0.00e+00	0	57	0	2404384768	33	4312
2026-01-02 11:20:05.89	2.13	23.57	-31.4	-32.5	21.4	0.00e+00	0	57	0	2410676224	33	4304
2026-01-02 11:20:06.90	1.99	23.44	-31.4	-32.4	21.4	0.00e+00	0	57	0	2415919104	33	4286
2026-01-02 11:20:07.91	1.86	23.31	-31.4	-32.4	21.4	0.00e+00	0	57	0	2421161984	33	4286
2026-01-02 11:20:08.92	1.72	23.17	-31.4	-32.4	21.4	0.00e+00	0	57	0	2427453440	33	4284
2026-01-02 11:20:09.93	1.59	23.04	-31.4	-32.5	21.4	0.00e+00	0	57	0	2432696320	33	4294
2026-01-02 11:20:10.94	1.46	22.91	-31.4	-32.5	21.3	0.00e+00	0	57	0	2438987776	33	4312
2026-01-02 11:20:11.95	1.32	22.78	-31.5	-32.6	21.3	0.00e+00	0	57	0	2444230656	33	4349
2026-01-02 11:20:12.96	1.19	22.65	-31.5	-32.6	21.2	0.00e+00	0	57	0	2449473536	33	4376
2026-01-02 11:20:13.97	1.06	22.53	-31.6	-32.7	21.1	0.00e+00	0	57	0	2455764992	33	4427
2026-01-02 11:20:14.98	0.94	22.40	-31.7	-32.7	21.1	0.00e+00	0	57	0	2461007872	33	4432
2026-01-02 11:20:15.99	0.81	22.27	-31.7	-32.8	21.1	0.00e+00	0	57	0	2467299328	33	4456
2026-01-02 11:20:17.00	0.68	22.14	-31.7	-32.8	21.0	0.00e+00	0	57	0	2472542208	33	4466
2026-01-02 11:20:18.01	0.56	22.02	-31.8	-32.8	21.0	0.00e+00	0	57	0	2477785088	34	4236
2026-01-02 11:20:19.02	0.43	21.89	-31.8	-32.9	21.0	0.00e+00	0	57	0	2484076544	34	4248
2026-01-02 11:20:20.03	0.31	21.76	-31.8	-32.8	21.0	0.00e+00	0	57	0	2489319424	34	4241
2026-01-02 11:20:21.04	0.19	21.64	-31.8	-32.9	20.9	0.00e+00	0	57	0	2495610880	34	4257
2026-01-02 11:20:22.05	0.07	21.51	-31.8	-32.8	21.0	0.00e+00	0	57	0	2500853760	34	4239
2026-01-02 11:20:23.05	359.95	21.39	-31.7	-32.8	21.0	0.00e+00	0	57	0	2507145216	34	4209
2026-01-02 11:20:24.06	359.83	21.27	-31.7	-32.7	21.1	0.00e+00	0	57	0	2512388096	34	4184
2026-01-02 11:20:25.08	359.71	21.14	-31.6	-32.7	21.1	0.00e+00	0	57	0	2517630976	34	4160
2026-01-02 11:20:26.09	359.59	21.02	-31.6	-32.7	21.1	0.00e+00	0	57	0	2523922432	34	4157
2026-01-02 11:20:27.10	359.48	20.90	-31.6	-32.7	21.0	0.00e+00	0	57	0	2529165312	34	4182
2026-01-02 11:20:28.11	359.36	20.77	-31.6	-32.7	21.1	0.00e+00	0	57	0	2535456768	34	4176
2026-01-02 11:20:29.12	359.25	20.65	-31.7	-32.8	21.0	0.00e+00	0	57	0	2540699648	34	4199
2026-01-02 11:20:30.13	359.13	20.53	-31.8	-32.8	20.9	0.00e+00	0	57	0	2546991104	34	4242
2026-01-02 11:20:31.14	359.02	20.41	-31.8	-32.9	20.8	0.00e+00	0	57	0	2552233984	34	4267
2026-01-02 11:20:32.15	358.91	20.29	-31.9	-33.0	20.8	0.00e+00	0	57	0	2557476864	34	4300
2026-01-02 11:20:33.16	358.80	20.17	-31.9	-33.0	20.8	0.00e+00	0	57	0	2563768320	34	4311
2026-01-02 11:20:34.17	358.69	20.05	-31.9	-33.0	20.7	0.00e+00	0	57	0	2569011200	34	4334
2026-01-02 11:20:35.18	358.58	19.93	-32.0	-33.1	20.6	0.00e+00	0	57	0	2575302656	34	4368
2026-01-02 11:20:36.19	358.47	19.81	-32.1	-33.2	20.5	0.00e+00	0	57	0	2580545536	34	4430
2026-01-02 11:20:37.20	358.36	19.70	-32.2	-33.3	20.4	0.00e+00	0	57	0	2585788416	34	4453
2026-01-02 11:20:38.21	358.26	19.58	-32.2	-33.3	20.4	0.00e+00	0	57	0	2592079872	34	4479
2026-01-02 11:20:39.22	358.15	19.46	-32.2	-33.4	20.3	0.00e+00	0	57	0	2597322752	35	4248
2026-01-02 11:20:40.23	358.05	19.35	-32.3	-33.5	20.2	0.00e+00	0	57	0	2603614208	35	4302
2026-01-02 11:20:41.24	357.94	19.23	-32.5	-33.6	20.1	0.00e+00	0	57	0	2608857088	35	4376
2026-01-02 11:20:42.25	357.84	19.11	-32.6	-33.8	19.9	0.00e+00	0	57	0	2615148544	35	4466
2026-01-02 11:20:43.26	357.74	19.00	-32.7	-33.9	19.8	0.00e+00	0	57	0	2620391424	35	4524
2026-01-02 11:20:44.27	357.64	18.88	-32.7	-33.9	19.7	0.00e+00	0	57	0	2625634304	35	4534
2026-01-02 11:20:45.28	357.54	18.77	-32.7	-33.9	19.8	0.00e+00	0	57	0	2631925760	35	4497
2026-01-02 11:20:46.29	357.44	18.66	-32.5	-33.7	19.9	0.00e+00	0	57	0	2637168640	35	4422
2026-01-02 11:20:47.30	357.34	18.54	-32.4	-33.5	20.0	0.00e+00	0	57	0	2643460096	35	4340
2026-01-02 11:20:48.31	357.24	18.43	-32.2	-33.3	20.1	0.00e+00	0	57	0	2648702976	35	4238
2026-01-02 11:20:49.32	357.14	18.32	-32.0	-33.2	20.2	0.00e+00	0	57	0	2653945856	35	4152
2026-01-02 11:20:50.33	357.05	18.20	-31.9	-33.0	20.3	0.00e+00	0	57	0	2660237312	35	4089
2026-01-02 11:20:51.34	356.95	18.09	-31.9	-33.0	20.3	0.00e+00	0	57	0	2665480192	35	4065
2026-01-02 11:20:52.35	356.85	17.98	-31.9	-33.1	20.1	0.00e+00	0	57	0	2671771648	35	4114
2026-01-02 11:20:53.36	356.76	17.87	-32.1	-33.3	19.8	0.00e+00	0	57	0	2677014528	35	4211
2026-01-02 11:20:54.37	356.67	17.76	-32.4	-33.6	19.3	0.00e+00	0	57	0	2682257408	35	4387
2026-01-02 11:20:55.38	356.57	17.65	-33.4	-34.7	18.8	0.00e+00	0	57	0	2688548864	37	4417
2026-01-02 11:20:56.39	356.48	17.54	-33.9	-35.2	18.2	0.00e+00	0	57	0	2693791744	38	4435
2026-01-02 11:20:57.40	356.39	17.43	-34.4	-35.9	17.3	0.00e+00	0	57	0	2700083200	39	4507
2026-01-02 11:20:58.41	356.30	17.32	-34.9	-36.5	16.4	0.00e+00	0	57	0	2705326080	40	4592
2026-01-02 11:20:59.42	356.21	17.21	-35.5	-37.3	15.4	0.00e+00	0	57	0	2711617536	41	4741
2026-01-02 11:21:00.43	356.12	17.11	-36.1	-38.2	14.2	1.10e-06	0	57	0	2716860416	42	4940
2026-01-02 11:21:01.44	356.03	17.00	-36.7	-39.0	13.1	3.43e-05	0	57	0	2723151872	43	5144
2026-01-02 11:21:02.45	355.94	16.89	-37.4	-40.1	11.9	3.31e-04	0	57	0	2728394752	45	5186
2026-01-02 11:21:03.46	355.85	16.78	-37.9	-41.1	10.6	2.06e-03	0	57	0	2733637632	46	5480
2026-01-02 11:21:04.47	355.76	16.68	-38.3	-42.0	9.4	1.49e-02	0	57	0	2739929088	47	5784
2026-01-02 11:21:05.48	355.68	16.57	-38.7	-43.1	8.1	6.52e-02	0	57	0	2745171968	47	6561
2026-01-02 11:21:06.50	355.59	16.46	-39.2	-44.2	6.9	1.51e-01	0	57	0	2751463424	48	7013
2026-01-02 11:21:07.51	355.51	16.36	-39.4	-45.3	5.9	3.01e-01	0	57	0	2756706304	49	7496
2026-01-02 11:21:08.52	355.42	16.25	-39.6	-46.4	5.1	7.39e-01	0	57	0	2759852032	49	8530
2026-01-02 11:21:09.53	355.34	16.15	-39.8	-47.4	4.6	8.01e-01	0	57	0	2759852032	50	9049
2026-01-02 11:21:10.54	355.25	16.05	-39.9	-48.4	4.2	8.35e-01	0	57	0	2759852032	50	10102
2026-01-02 11:21:11.55	355.17	15.94	-40.0	-49.2	4.0	8.42e-01	0	57	104	2759852032	50	11134
2026-01-02 11:21:12.56	355.09	15.84	-40.0	-49.9	3.8	8.45e-01	0	57	104	2759852032	50	12053
2026-01-02 11:21:13.57	355.01	15.74	-40.1	-50.4	3.8	8.46e-01	0	57	104	2759852032	50	12775
2026-01-02 11:21:14.57	354.93	15.63	-40.1	-50.8	3.8	8.46e-01	0	57	104	2759852032	50	13373
2026-01-02 11:21:15.59	354.85	15.53	-40.1	-51.1	3.8	8.45e-01	0	57	104	2759852032	50	13745
2026-01-02 11:21:16.60	354.77	15.43	-40.0	-51.2	3.8	8.46e-01	0	57	104	2759852032	50	13928
2026-01-02 11:21:17.61	354.69	15.33	-40.0	-51.3	3.8	8.46e-01	0	57	104	2759852032	50	14148
2026-01-02 11:21:18.62	354.61	15.23	-40.1	-51.1	3.8	8.47e-01	0	57	104	2759852032	50	13810
2026-01-02 11:21:19.63	354.53	15.13	-39.9	-51.4	3.8	8.45e-01	0	57	104	2759852032	51	13530
2026-01-02 11:21:20.64	354.45	15.03	-39.9	-51.5	3.8	8.46e-01	0	57	104	2759852032	51	13651
2026-01-02 11:21:21.65	354.38	14.93	-40.0	-51.2	3.8	8.46e-01	0	57	104	2759852032	51	13208
2026-01-02 11:21:22.66	354.30	14.83	-40.0	-51.3	3.8	8.45e-01	0	57	104	2759852032	51	13267
2026-01-02 11:21:23.67	354.22	14.73	-39.9	-51.4	3.8	8.46e-01	0	57	104	2759852032	51	13459
2026-01-02 11:21:24.68	354.15	14.63	-39.9	-51.4	3.8	8.46e-01	0	57	104	2759852032	51	13564
2026-01-02 11:21:25.69	354.07	14.53	-39.9	-51.5	3.8	8.45e-01	0	57	104	2759852032	51	13663
2026-01-02 11:21:26.70	354.00	14.43	-39.9	-51.5	3.8	8.46e-01	0	57	104	2759852032	51	13602
2026-01-02 11:21:27.71	353.92	14.33	-40.0	-51.7	3.8	8.47e-01	0	57	104	2759852032	51	13968
2026-01-02 11:21:28.72	353.85	14.23	-40.0	-51.8	3.8	8.46e-01	0	57	104	2759852032	51	14130
2026-01-02 11:21:29.73	353.78	14.14	-40.0	-51.7	3.8	8.46e-01	0	57	104	2759852032	51	13921
2026-01-02 11:21:30.74	353.71	14.04	-40.0	-51.8	3.8	8.46e-01	0	57	104	2759852032	51	14139
2026-01-02 11:21:31.75	353.63	13.94	-40.0	-51.6	3.8	8.47e-01	0	57	104	2759852032	51	13812
2026-01-02 11:21:32.76	353.56	13.85	-39.9	-51.7	3.8	8.46e-01	0	57	104	2759852032	51	14030
2026-01-02 11:21:33.77	353.49	13.75	-40.0	-51.7	3.8	8.46e-01	0	57	104	2759852032	51	13991
2026-01-02 11:21:34.78	353.42	13.66	-39.9	-51.8	3.8	8.46e-01	0	57	104	2759852032	51	14138
2026-01-02 11:21:35.79	353.35	13.56	-40.0	-51.7	3.8	8.47e-01	0	57	104	2759852032	51	13915
2026-01-02 11:21:36.80	353.28	13.47	-40.2	-52.0	3.8	8.47e-01	0	57	104	2759852032	51	14530
2026-01-02 11:21:37.81	353.21	13.37	-39.8	-51.7	3.8	8.46e-01	0	57	104	2759852032	51	13995
2026-01-02 11:21:38.81	353.14	13.28	-40.4	-52.1	3.8	8.45e-01	0	57	104	2759852032	51	14610
2026-01-02 11:21:39.82	353.08	13.18	-39.6	-51.8	3.8	8.46e-01	0	58	104	2759852032	51	14081
2026-01-02 11:21:40.83	353.01	13.09	-39.7	-52.1	3.8	8.46e-01	0	57	104	2759852032	50	15456
2026-01-02 11:21:41.84	352.94	13.00	-40.0	-51.7	3.8	8.46e-01	0	57	104	2759852032	50	14796
2026-01-02 11:21:42.85	352.87	12.90	-39.9	-52.1	3.8	8.46e-01	0	57	104	2759852032	50	15528
2026-01-02 11:21:43.86	352.81	12.81	-40.0	-51.8	3.8	8.46e-01	0	57	104	2759852032	50	14909
2026-01-02 11:21:44.87	352.74	12.72	-40.4	-52.1	3.8	8.47e-01	0	57	104	2759852032	51	14644
2026-01-02 11:21:45.88	352.68	12.63	-39.1	-51.8	3.8	8.45e-01	0	57	104	2759852032	50	15007
2026-01-02 11:21:46.89	352.61	12.54	-40.3	-52.0	3.8	8.46e-01	0	57	104	2759852032	51	14497
2026-01-02 11:21:47.90	352.55	12.44	-39.2	-51.8	3.8	8.46e-01	0	57	104	2759852032	50	15039
2026-01-02 11:21:48.91	352.48	12.35	-40.2	-52.1	3.8	8.46e-01	0	57	104	2759852032	50	15454
2026-01-02 11:21:49.93	352.42	12.26	-39.8	-51.9	3.8	8.47e-01	0	57	104	2759852032	50	15172
2026-01-02 11:21:50.93	352.36	12.17	-40.2	-51.9	3.8	8.45e-01	0	57	104	2759852032	50	15205
