passes_logs/2026/01/02/R2.0S_Moscow/R2.0S_Moscow__20260102_214943_NOAA_21_JPSS-2_rec.log

#Pass ID: 20260102_214943_NOAA 21 (JPSS-2)
#Satellite: NOAA 21 (JPSS-2)
#Configuration: NOAA-21
#almurnet v.1.7.20251203
#Start time: 2026-01-02 21:49:43

#Version: 2.2.20231116
#Station: R2.0S_Moscow
#Location: 37.707566 lon 55.798166 lat
#TLE: 1 54234U 22150A   26002.25486487  .00000200  00000+0  11573-3 0  9993
#TLE: 2 54234  98.7485 303.3096 0001220 350.9074   9.2080 14.19531212163006

#Time	Az	El	Level	Level2	SNR	BER	BlckErr	Temp	State	Recorded	gain1	gain2
2026-01-02 21:49:43.30	28.34	1.99	-43.2	-55.7	3.8	1.49e+00	0	47	0	0	58	14776
2026-01-02 21:49:44.30	28.43	2.04	-43.2	-55.7	3.8	1.49e+00	0	47	104	0	57	15693
2026-01-02 21:49:45.31	28.52	2.09	-43.2	-55.7	3.8	1.49e+00	0	47	104	0	57	15617
2026-01-02 21:49:46.32	28.60	2.14	-43.2	-55.7	3.8	1.49e+00	0	47	104	0	57	15707
2026-01-02 21:49:47.33	28.69	2.19	-43.2	-55.7	3.8	1.49e+00	0	47	104	0	57	15674
2026-01-02 21:49:48.34	28.78	2.24	-43.2	-55.7	3.8	1.49e+00	0	48	104	0	57	15674
2026-01-02 21:49:49.35	28.87	2.29	-43.2	-55.7	3.8	1.49e+00	0	48	104	0	57	15710
2026-01-02 21:49:50.36	28.95	2.34	-43.2	-55.7	3.8	1.49e+00	0	48	104	0	57	15710
2026-01-02 21:49:51.37	29.04	2.39	-43.2	-55.7	3.8	1.49e+00	0	48	104	0	57	15689
2026-01-02 21:49:52.38	29.13	2.44	-43.2	-55.7	3.8	1.49e+00	0	48	104	0	57	15646
2026-01-02 21:49:53.39	29.22	2.49	-43.2	-55.7	3.8	1.49e+00	0	48	104	0	57	15651
2026-01-02 21:49:54.41	29.31	2.54	-43.2	-55.7	3.8	1.49e+00	0	48	104	0	57	15623
2026-01-02 21:49:55.42	29.40	2.59	-43.2	-55.7	3.8	1.49e+00	0	48	104	0	57	15727
2026-01-02 21:49:56.43	29.49	2.64	-43.2	-55.7	3.8	1.49e+00	0	48	104	0	57	15674
2026-01-02 21:49:57.44	29.58	2.69	-43.2	-55.7	3.8	1.49e+00	0	48	104	0	57	15619
2026-01-02 21:49:58.45	29.67	2.75	-43.2	-55.7	3.8	1.49e+00	0	48	104	0	57	15689
2026-01-02 21:49:59.46	29.76	2.80	-43.2	-55.7	3.8	1.49e+00	0	48	104	0	57	15625
2026-01-02 21:50:00.47	29.85	2.85	-43.2	-55.7	3.8	1.49e+00	0	48	104	0	57	15678
2026-01-02 21:50:01.48	29.95	2.90	-43.2	-55.7	3.8	1.49e+00	0	48	104	0	57	15614
2026-01-02 21:50:02.49	30.04	2.95	-43.2	-55.6	3.8	1.49e+00	0	48	104	0	57	15578
2026-01-02 21:50:03.50	30.13	3.00	-43.2	-55.7	3.8	1.49e+00	0	48	104	0	57	15617
2026-01-02 21:50:04.52	30.22	3.05	-43.2	-55.6	3.8	1.49e+00	0	49	104	0	57	15571
2026-01-02 21:50:05.53	30.32	3.10	-43.2	-55.7	3.8	1.49e+00	0	49	104	0	57	15597
2026-01-02 21:50:06.54	30.41	3.15	-43.2	-55.7	3.8	1.49e+00	0	49	104	0	57	15687
2026-01-02 21:50:07.55	30.50	3.20	-43.2	-55.7	3.8	1.49e+00	0	49	104	0	57	15601
2026-01-02 21:50:08.56	30.60	3.25	-43.2	-55.7	3.8	1.49e+00	0	49	104	0	57	15661
2026-01-02 21:50:09.57	30.69	3.30	-43.2	-55.7	3.8	1.49e+00	0	49	104	0	57	15658
2026-01-02 21:50:10.58	30.78	3.35	-43.1	-55.7	3.8	1.49e+00	0	49	104	0	57	15629
2026-01-02 21:50:11.59	30.88	3.41	-43.2	-55.7	3.8	1.49e+00	0	49	104	0	57	15688
2026-01-02 21:50:12.60	30.97	3.46	-43.2	-55.7	3.8	1.49e+00	0	49	104	0	57	15659
2026-01-02 21:50:13.61	31.07	3.51	-43.2	-55.7	3.8	1.49e+00	0	49	104	0	57	15640
2026-01-02 21:50:14.62	31.16	3.56	-43.1	-55.7	3.8	1.49e+00	0	49	104	0	57	15650
2026-01-02 21:50:15.63	31.26	3.61	-43.1	-55.7	3.8	1.49e+00	0	49	104	0	57	15660
2026-01-02 21:50:16.65	31.36	3.66	-43.2	-55.7	3.8	1.49e+00	0	49	104	0	57	15628
2026-01-02 21:50:17.66	31.45	3.71	-43.2	-55.7	3.8	1.49e+00	0	49	104	0	57	15698
2026-01-02 21:50:18.67	31.55	3.76	-43.2	-55.7	3.8	1.49e+00	0	49	104	0	57	15642
2026-01-02 21:50:19.68	31.65	3.82	-43.2	-55.7	3.8	1.49e+00	0	49	104	0	57	15631
2026-01-02 21:50:20.69	31.74	3.87	-43.2	-55.7	3.8	1.49e+00	0	50	104	0	57	15667
2026-01-02 21:50:21.70	31.84	3.92	-43.2	-55.7	3.8	1.49e+00	0	49	104	0	57	15619
2026-01-02 21:50:22.71	31.94	3.97	-43.2	-55.7	3.8	1.49e+00	0	50	104	0	57	15655
2026-01-02 21:50:23.72	32.04	4.02	-43.1	-55.7	3.8	1.49e+00	0	50	104	0	57	15681
2026-01-02 21:50:24.73	32.14	4.07	-43.2	-55.7	3.8	1.49e+00	0	50	104	0	57	15652
2026-01-02 21:50:25.74	32.24	4.12	-43.2	-55.7	3.8	1.49e+00	0	50	104	0	57	15666
2026-01-02 21:50:26.75	32.34	4.18	-43.2	-55.7	3.8	1.49e+00	0	50	104	0	57	15600
2026-01-02 21:50:27.77	32.44	4.23	-43.2	-55.7	3.8	1.49e+00	0	50	104	0	57	15640
2026-01-02 21:50:28.78	32.54	4.28	-43.2	-55.7	3.8	1.49e+00	0	50	104	0	57	15652
2026-01-02 21:50:29.79	32.64	4.33	-43.2	-55.7	3.8	1.49e+00	0	50	104	0	57	15621
2026-01-02 21:50:30.80	32.74	4.38	-43.2	-55.7	3.8	1.49e+00	0	50	104	0	57	15687
2026-01-02 21:50:31.81	32.84	4.43	-43.2	-55.7	3.8	1.49e+00	0	50	104	0	57	15660
2026-01-02 21:50:32.82	32.94	4.48	-43.2	-55.7	3.8	1.49e+00	0	50	104	0	57	15647
2026-01-02 21:50:33.83	33.04	4.54	-43.2	-55.7	3.8	1.49e+00	0	50	104	0	57	15717
2026-01-02 21:50:34.84	33.14	4.59	-43.2	-55.7	3.8	1.49e+00	0	50	104	0	57	15699
2026-01-02 21:50:35.85	33.25	4.64	-43.2	-55.7	3.8	1.49e+00	0	50	104	0	57	15656
2026-01-02 21:50:36.87	33.35	4.69	-43.2	-55.7	3.8	1.49e+00	0	51	104	0	57	15680
2026-01-02 21:50:37.88	33.45	4.74	-43.2	-55.7	3.8	1.49e+00	0	51	104	0	57	15669
2026-01-02 21:50:38.89	33.56	4.80	-43.1	-55.7	3.8	1.49e+00	0	51	104	0	57	15623
2026-01-02 21:50:39.90	33.66	4.85	-43.2	-55.7	3.8	1.49e+00	0	51	104	0	57	15661
2026-01-02 21:50:40.91	33.76	4.90	-43.2	-55.7	3.8	1.49e+00	0	51	104	0	57	15642
2026-01-02 21:50:41.92	33.87	4.95	-43.2	-55.7	3.8	1.49e+00	0	51	104	0	57	15729
2026-01-02 21:50:42.93	33.97	5.00	-43.2	-55.7	3.8	1.49e+00	0	51	104	0	57	15662
2026-01-02 21:50:43.94	34.08	5.06	-43.2	-55.7	3.8	1.49e+00	0	51	104	0	57	15706
2026-01-02 21:50:44.95	34.18	5.11	-43.1	-55.7	3.8	1.49e+00	0	51	104	0	57	15639
2026-01-02 21:50:45.96	34.29	5.16	-43.2	-55.7	3.8	1.49e+00	0	51	104	0	57	15636
2026-01-02 21:50:46.98	34.40	5.21	-43.2	-55.7	3.8	1.49e+00	0	51	104	0	57	15626
2026-01-02 21:50:47.99	34.50	5.26	-43.1	-55.7	3.8	1.49e+00	0	51	104	0	57	15652
2026-01-02 21:50:49.00	34.61	5.32	-43.2	-55.7	3.8	1.49e+00	0	51	104	0	57	15671
2026-01-02 21:50:50.01	34.72	5.37	-43.2	-55.7	3.8	1.49e+00	0	51	104	0	57	15630
2026-01-02 21:50:51.02	34.83	5.42	-43.2	-55.7	3.8	1.49e+00	0	51	104	0	57	15673
2026-01-02 21:50:52.03	34.94	5.47	-43.2	-55.7	3.8	1.49e+00	0	51	104	0	57	15658
2026-01-02 21:50:53.04	35.04	5.52	-43.2	-55.7	3.8	1.49e+00	0	51	104	0	57	15617
2026-01-02 21:50:54.05	35.15	5.58	-43.2	-55.7	3.8	1.49e+00	0	51	104	0	57	15619
2026-01-02 21:50:55.06	35.26	5.63	-43.2	-55.7	3.8	1.49e+00	0	51	104	0	57	15647
2026-01-02 21:50:56.07	35.37	5.68	-43.2	-55.7	3.8	1.49e+00	0	51	104	0	57	15679
2026-01-02 21:50:57.09	35.48	5.73	-43.2	-55.7	3.8	1.49e+00	0	51	104	0	57	15642
2026-01-02 21:50:58.10	35.59	5.79	-43.2	-55.7	3.8	1.49e+00	0	52	104	0	57	15650
2026-01-02 21:50:59.11	35.70	5.84	-43.2	-55.7	3.8	1.49e+00	0	52	104	0	57	15663
2026-01-02 21:51:00.12	35.82	5.89	-43.2	-55.7	3.8	1.49e+00	0	52	104	0	57	15679
2026-01-02 21:51:01.13	35.93	5.94	-43.1	-55.7	3.8	1.49e+00	0	51	104	0	57	15686
2026-01-02 21:51:02.14	36.04	5.99	-43.2	-55.7	3.8	1.49e+00	0	51	104	0	57	15656
2026-01-02 21:51:03.15	36.15	6.05	-43.2	-55.7	3.8	1.49e+00	0	52	104	0	57	15632
2026-01-02 21:51:04.16	36.26	6.10	-43.2	-55.7	3.8	1.49e+00	0	52	104	0	57	15679
2026-01-02 21:51:05.17	36.38	6.15	-43.2	-55.7	3.8	1.49e+00	0	52	104	0	57	15666
2026-01-02 21:51:06.18	36.49	6.20	-43.2	-55.7	3.8	1.49e+00	0	52	104	0	57	15648
2026-01-02 21:51:07.20	36.60	6.26	-43.2	-55.7	3.8	1.49e+00	0	52	104	0	57	15663
2026-01-02 21:51:08.21	36.72	6.31	-43.2	-55.7	3.8	1.49e+00	0	52	104	0	57	15643
2026-01-02 21:51:09.22	36.83	6.36	-43.2	-55.7	3.8	1.49e+00	0	52	104	0	57	15617
2026-01-02 21:51:10.23	36.95	6.41	-43.2	-55.7	3.8	1.49e+00	0	52	104	0	57	15660
2026-01-02 21:51:11.24	37.06	6.47	-43.2	-55.7	3.8	1.49e+00	0	52	104	0	57	15643
2026-01-02 21:51:12.25	37.18	6.52	-43.2	-55.7	3.8	1.49e+00	0	52	104	0	57	15608
2026-01-02 21:51:13.26	37.30	6.57	-43.2	-55.7	3.8	1.49e+00	0	52	104	0	57	15666
2026-01-02 21:51:14.27	37.41	6.62	-43.2	-55.7	3.8	1.49e+00	0	52	104	0	57	15614
2026-01-02 21:51:15.28	37.53	6.68	-43.2	-55.7	3.8	1.49e+00	0	52	104	0	57	15663
2026-01-02 21:51:16.30	37.65	6.73	-43.2	-55.7	3.8	1.49e+00	0	52	104	0	57	15631
2026-01-02 21:51:17.31	37.77	6.78	-43.1	-55.7	3.8	1.49e+00	0	52	104	0	57	15607
2026-01-02 21:51:18.32	37.88	6.83	-43.1	-55.7	3.8	1.49e+00	0	53	104	0	57	15652
2026-01-02 21:51:19.33	38.00	6.89	-43.1	-55.6	3.8	1.49e+00	0	52	104	0	57	15578
2026-01-02 21:51:20.34	38.12	6.94	-43.1	-55.6	3.8	1.49e+00	0	53	104	0	57	15564
2026-01-02 21:51:21.35	38.24	6.99	-43.1	-55.7	3.8	1.49e+00	0	53	104	0	57	15613
2026-01-02 21:51:22.36	38.36	7.04	-43.1	-55.7	3.8	1.49e+00	0	53	104	0	57	15614
2026-01-02 21:51:23.37	38.48	7.10	-43.1	-55.6	3.8	1.49e+00	0	52	104	0	57	15563
2026-01-02 21:51:24.38	38.60	7.15	-43.1	-55.7	3.8	1.49e+00	0	53	104	0	57	15605
2026-01-02 21:51:25.39	38.72	7.20	-43.2	-55.7	3.8	1.49e+00	0	53	104	0	57	15602
2026-01-02 21:51:26.40	38.85	7.25	-43.1	-55.7	3.8	1.49e+00	0	53	104	0	57	15665
2026-01-02 21:51:27.42	38.97	7.31	-43.1	-55.7	3.8	1.49e+00	0	53	104	0	57	15697
2026-01-02 21:51:28.43	39.09	7.36	-43.1	-55.6	3.8	1.49e+00	0	53	104	0	57	15442
2026-01-02 21:51:29.44	39.21	7.41	-43.1	-55.0	3.8	1.49e+00	0	53	104	0	57	14465
2026-01-02 21:51:30.45	39.34	7.46	-42.9	-53.3	3.8	1.48e+00	0	53	104	0	57	11826
2026-01-02 21:51:31.46	39.46	7.52	-42.4	-50.0	5.0	1.17e+00	0	53	104	0	56	8603
2026-01-02 21:51:32.47	39.59	7.57	-41.7	-47.5	6.8	2.32e-01	0	53	0	2097152	55	6802
2026-01-02 21:51:33.48	39.71	7.62	-40.9	-45.4	8.7	6.29e-02	0	53	0	5242880	53	6036
2026-01-02 21:51:34.49	39.83	7.68	-40.2	-43.9	10.4	8.59e-03	0	53	0	8388608	52	5358
2026-01-02 21:51:35.50	39.96	7.73	-39.6	-42.6	11.8	1.02e-03	0	53	0	11534336	51	4922
2026-01-02 21:51:36.51	40.09	7.78	-39.1	-41.8	12.6	1.30e-04	0	53	0	14680064	50	4740
2026-01-02 21:51:37.52	40.21	7.83	-38.7	-41.3	13.2	3.58e-05	0	53	0	17825792	49	4728
2026-01-02 21:51:38.53	40.34	7.89	-38.4	-40.9	13.6	1.98e-05	0	53	0	20971520	48	4771
2026-01-02 21:51:39.54	40.47	7.94	-38.5	-40.9	13.6	7.60e-06	0	53	0	24117248	48	4779
2026-01-02 21:51:40.55	40.59	7.99	-38.6	-41.1	13.3	1.75e-05	0	53	0	27262976	48	4910
2026-01-02 21:51:41.56	40.72	8.04	-38.5	-40.9	13.6	1.29e-05	0	53	0	30408704	48	4771
2026-01-02 21:51:42.57	40.85	8.09	-40.0	-43.4	11.1	4.27e-04	0	53	0	33554432	50	5714
2026-01-02 21:51:43.58	40.98	8.15	-38.8	-41.3	12.7	6.33e-01	0	53	0	34603008	49	4747
2026-01-02 21:51:44.59	41.11	8.20	-39.5	-42.5	12.2	1.50e-04	0	53	0	37748736	50	5110
2026-01-02 21:51:45.60	41.24	8.25	-38.5	-40.8	13.9	3.43e-05	0	53	0	40894464	48	4750
2026-01-02 21:51:46.61	41.37	8.30	-39.4	-42.1	12.4	9.63e-04	0	53	0	44040192	50	4926
2026-01-02 21:51:47.62	41.50	8.36	-38.4	-40.8	13.7	9.10e-06	0	53	0	47185920	48	4727
2026-01-02 21:51:48.63	41.63	8.41	-38.4	-40.8	13.7	3.00e-06	0	53	0	50331648	48	4713
2026-01-02 21:51:49.64	41.76	8.46	-38.4	-40.8	13.7	5.30e-06	0	53	0	53477376	48	4757
2026-01-02 21:51:50.65	41.90	8.51	-38.3	-40.7	13.8	4.50e-06	0	53	0	56623104	48	4684
2026-01-02 21:51:51.66	42.03	8.57	-38.3	-40.7	13.8	5.30e-06	0	54	0	59768832	48	4672
2026-01-02 21:51:52.67	42.16	8.62	-38.3	-40.7	13.8	5.30e-06	0	53	0	62914560	48	4684
2026-01-02 21:51:53.68	42.29	8.67	-38.2	-40.5	14.1	7.00e-07	0	54	0	66060288	48	4582
2026-01-02 21:51:54.69	42.43	8.72	-38.2	-40.4	14.2	7.00e-07	0	54	0	69206016	48	4532
2026-01-02 21:51:55.70	42.56	8.78	-38.1	-40.3	14.3	0.00e+00	0	53	0	72351744	48	4479
2026-01-02 21:51:56.71	42.70	8.83	-38.0	-40.1	14.6	0.00e+00	0	53	0	75497472	48	4362
2026-01-02 21:51:57.72	42.83	8.88	-38.0	-40.0	14.7	0.00e+00	0	54	0	78643200	47	4590
2026-01-02 21:51:58.73	42.97	8.93	-37.8	-39.8	14.9	0.00e+00	0	54	0	81788928	47	4469
2026-01-02 21:51:59.74	43.11	8.98	-37.7	-39.7	15.1	0.00e+00	0	54	0	84934656	47	4410
2026-01-02 21:52:00.75	43.24	9.04	-37.7	-39.6	15.3	0.00e+00	0	54	0	88080384	47	4388
2026-01-02 21:52:01.76	43.38	9.09	-37.5	-39.4	15.5	0.00e+00	0	54	0	91226112	47	4255
2026-01-02 21:52:02.77	43.52	9.14	-37.4	-39.2	15.7	0.00e+00	0	54	0	94371840	46	4437
2026-01-02 21:52:03.78	43.66	9.19	-37.3	-39.1	15.7	0.00e+00	0	54	0	97517568	46	4381
2026-01-02 21:52:04.79	43.79	9.24	-37.2	-39.0	15.9	0.00e+00	0	54	0	100663296	46	4326
2026-01-02 21:52:05.80	43.93	9.30	-37.2	-38.9	16.0	0.00e+00	0	54	0	103809024	46	4289
2026-01-02 21:52:06.81	44.07	9.35	-37.2	-38.9	16.0	0.00e+00	0	54	0	106954752	46	4277
2026-01-02 21:52:07.82	44.21	9.40	-37.2	-38.9	16.1	0.00e+00	0	54	0	110100480	46	4248
2026-01-02 21:52:08.83	44.35	9.45	-37.2	-38.9	16.1	0.00e+00	0	54	0	113246208	46	4272
2026-01-02 21:52:09.84	44.49	9.50	-37.2	-38.9	16.1	0.00e+00	0	54	0	116391936	46	4283
2026-01-02 21:52:10.85	44.64	9.55	-37.1	-38.8	16.2	0.00e+00	0	54	0	119537664	46	4223
2026-01-02 21:52:11.86	44.78	9.61	-37.1	-38.8	16.2	0.00e+00	0	54	0	122683392	46	4200
2026-01-02 21:52:12.86	44.92	9.66	-37.2	-38.9	16.1	0.00e+00	0	54	0	125829120	46	4279
2026-01-02 21:52:13.87	45.06	9.71	-37.2	-38.9	16.1	0.00e+00	0	54	0	128974848	46	4253
2026-01-02 21:52:14.89	45.21	9.76	-37.2	-38.9	16.1	0.00e+00	0	54	0	132120576	46	4253
2026-01-02 21:52:15.90	45.35	9.81	-37.2	-38.9	16.1	0.00e+00	0	54	0	135266304	46	4277
2026-01-02 21:52:16.91	45.50	9.86	-37.3	-39.0	16.1	0.00e+00	0	54	0	138412032	46	4308
2026-01-02 21:52:17.92	45.64	9.92	-37.2	-38.9	16.1	0.00e+00	0	54	0	141557760	46	4285
2026-01-02 21:52:18.93	45.79	9.97	-37.3	-39.0	16.1	0.00e+00	0	54	0	144703488	46	4318
2026-01-02 21:52:19.94	45.93	10.02	-37.2	-38.9	16.2	0.00e+00	0	54	0	147849216	46	4266
2026-01-02 21:52:20.95	46.08	10.07	-37.2	-38.8	16.2	0.00e+00	0	54	0	150994944	46	4237
2026-01-02 21:52:21.96	46.23	10.12	-37.1	-38.8	16.2	0.00e+00	0	54	0	154140672	46	4212
2026-01-02 21:52:22.97	46.37	10.17	-37.2	-38.8	16.2	0.00e+00	0	54	0	157286400	46	4236
2026-01-02 21:52:23.98	46.52	10.22	-37.1	-38.8	16.3	0.00e+00	0	54	0	160432128	46	4230
2026-01-02 21:52:24.99	46.67	10.27	-37.1	-38.8	16.3	0.00e+00	0	54	0	163577856	46	4220
2026-01-02 21:52:26.00	46.82	10.32	-37.1	-38.8	16.3	0.00e+00	0	54	0	166723584	46	4199
2026-01-02 21:52:27.01	46.97	10.38	-37.0	-38.6	16.4	0.00e+00	0	54	0	169869312	46	4137
2026-01-02 21:52:28.02	47.12	10.43	-37.0	-38.7	16.4	0.00e+00	0	54	0	173015040	46	4146
2026-01-02 21:52:29.03	47.27	10.48	-37.0	-38.6	16.5	0.00e+00	0	54	0	176160768	45	4366
2026-01-02 21:52:30.03	47.42	10.53	-37.0	-38.6	16.4	0.00e+00	0	54	0	179306496	45	4373
2026-01-02 21:52:31.04	47.57	10.58	-37.0	-38.6	16.5	0.00e+00	0	54	0	182452224	45	4371
2026-01-02 21:52:32.05	47.72	10.63	-37.0	-38.6	16.4	0.00e+00	0	54	0	185597952	45	4380
2026-01-02 21:52:33.06	47.87	10.68	-37.0	-38.6	16.5	0.00e+00	0	54	0	188743680	45	4363
2026-01-02 21:52:34.07	48.03	10.73	-36.9	-38.5	16.5	0.00e+00	0	54	0	191889408	45	4340
2026-01-02 21:52:35.08	48.18	10.78	-36.9	-38.5	16.5	0.00e+00	0	54	0	195035136	45	4317
2026-01-02 21:52:36.09	48.34	10.83	-36.9	-38.5	16.5	0.00e+00	0	54	0	198180864	45	4331
2026-01-02 21:52:37.10	48.49	10.88	-36.9	-38.5	16.5	0.00e+00	0	54	0	201326592	45	4335
2026-01-02 21:52:38.11	48.64	10.93	-36.9	-38.5	16.6	0.00e+00	0	54	0	204472320	45	4309
2026-01-02 21:52:39.12	48.80	10.98	-36.9	-38.5	16.6	0.00e+00	0	54	0	207618048	45	4306
2026-01-02 21:52:40.13	48.96	11.03	-36.9	-38.5	16.6	0.00e+00	0	54	0	210763776	45	4302
2026-01-02 21:52:41.14	49.11	11.08	-36.9	-38.5	16.6	0.00e+00	0	54	0	213909504	45	4316
2026-01-02 21:52:42.15	49.27	11.13	-36.9	-38.5	16.6	0.00e+00	0	55	0	217055232	45	4331
2026-01-02 21:52:43.16	49.43	11.18	-36.9	-38.5	16.6	0.00e+00	0	54	0	220200960	45	4330
2026-01-02 21:52:44.17	49.59	11.23	-36.9	-38.5	16.7	0.00e+00	0	55	0	223346688	45	4308
2026-01-02 21:52:45.18	49.75	11.28	-36.9	-38.5	16.6	0.00e+00	0	55	0	226492416	45	4323
2026-01-02 21:52:46.19	49.90	11.33	-37.0	-38.6	16.6	0.00e+00	0	55	0	229638144	45	4356
2026-01-02 21:52:47.19	50.06	11.38	-36.9	-38.5	16.6	0.00e+00	0	54	0	232783872	45	4338
2026-01-02 21:52:48.20	50.22	11.43	-36.9	-38.5	16.6	0.00e+00	0	55	0	235929600	45	4323
2026-01-02 21:52:49.21	50.38	11.47	-36.8	-38.3	16.8	0.00e+00	0	55	0	239075328	45	4242
2026-01-02 21:52:50.22	50.55	11.52	-36.8	-38.3	16.8	0.00e+00	0	54	0	242221056	45	4241
2026-01-02 21:52:51.23	50.71	11.57	-36.9	-38.4	16.7	0.00e+00	0	54	0	245366784	45	4288
2026-01-02 21:52:52.24	50.87	11.62	-36.9	-38.4	16.7	0.00e+00	0	55	0	248512512	45	4289
2026-01-02 21:52:53.25	51.03	11.67	-36.8	-38.4	16.8	0.00e+00	0	55	0	251658240	45	4254
2026-01-02 21:52:54.26	51.20	11.72	-36.9	-38.5	16.7	0.00e+00	0	55	0	254803968	45	4301
2026-01-02 21:52:55.27	51.36	11.77	-37.0	-38.6	16.6	0.00e+00	0	55	0	257949696	45	4352
2026-01-02 21:52:56.28	51.52	11.82	-37.1	-38.7	16.5	0.00e+00	0	55	0	261095424	45	4436
2026-01-02 21:52:57.29	51.69	11.86	-37.0	-38.6	16.5	0.00e+00	0	55	0	264241152	45	4387
2026-01-02 21:52:58.30	51.85	11.91	-37.1	-38.7	16.4	0.00e+00	0	55	0	268435456	45	4422
2026-01-02 21:52:59.31	52.02	11.96	-37.1	-38.8	16.4	0.00e+00	0	55	0	271581184	45	4452
2026-01-02 21:53:00.31	52.19	12.01	-37.2	-38.9	16.3	0.00e+00	0	55	0	274726912	45	4511
2026-01-02 21:53:01.32	52.35	12.05	-37.1	-38.8	16.4	0.00e+00	0	55	0	276824064	45	4456
2026-01-02 21:53:02.34	52.52	12.10	-37.1	-38.8	16.4	0.00e+00	0	55	0	279969792	45	4446
2026-01-02 21:53:03.35	52.69	12.15	-37.2	-38.8	16.4	0.00e+00	0	55	0	283115520	45	4485
2026-01-02 21:53:04.36	52.86	12.20	-37.1	-38.8	16.4	0.00e+00	0	55	0	287309824	45	4474
2026-01-02 21:53:05.37	53.03	12.24	-37.1	-38.8	16.4	0.00e+00	0	54	0	290455552	45	4449
2026-01-02 21:53:06.38	53.20	12.29	-37.0	-38.6	16.5	0.00e+00	0	55	0	293601280	45	4391
2026-01-02 21:53:07.39	53.37	12.34	-37.0	-38.6	16.6	0.00e+00	0	55	0	296747008	45	4375
2026-01-02 21:53:08.40	53.54	12.39	-37.0	-38.7	16.5	0.00e+00	0	55	0	299892736	45	4409
2026-01-02 21:53:09.41	53.71	12.43	-37.1	-38.7	16.5	0.00e+00	0	55	0	303038464	45	4435
2026-01-02 21:53:10.42	53.88	12.48	-37.0	-38.6	16.6	0.00e+00	0	55	0	306184192	45	4347
2026-01-02 21:53:11.42	54.05	12.52	-36.9	-38.5	16.7	0.00e+00	0	55	0	309329920	45	4313
2026-01-02 21:53:12.43	54.23	12.57	-36.9	-38.4	16.8	0.00e+00	0	55	0	312475648	45	4277
2026-01-02 21:53:13.44	54.40	12.62	-36.8	-38.4	16.8	0.00e+00	0	55	0	315621376	45	4252
2026-01-02 21:53:14.45	54.57	12.66	-36.8	-38.4	16.8	0.00e+00	0	55	0	318767104	45	4267
2026-01-02 21:53:15.46	54.75	12.71	-36.9	-38.4	16.7	0.00e+00	0	55	0	321912832	45	4286
2026-01-02 21:53:16.47	54.92	12.75	-36.9	-38.5	16.7	0.00e+00	0	55	0	325058560	45	4316
2026-01-02 21:53:17.48	55.10	12.80	-37.0	-38.6	16.6	0.00e+00	0	55	0	328204288	45	4368
2026-01-02 21:53:18.49	55.27	12.85	-37.0	-38.6	16.6	0.00e+00	0	55	0	331350016	45	4384
2026-01-02 21:53:19.50	55.45	12.89	-37.0	-38.6	16.6	0.00e+00	0	55	0	334495744	45	4382
2026-01-02 21:53:20.51	55.63	12.94	-37.0	-38.6	16.6	0.00e+00	0	55	0	337641472	45	4365
2026-01-02 21:53:21.52	55.81	12.98	-37.0	-38.6	16.7	0.00e+00	0	55	0	340787200	45	4346
2026-01-02 21:53:22.53	55.98	13.03	-37.0	-38.6	16.7	0.00e+00	0	55	0	343932928	45	4358
2026-01-02 21:53:23.54	56.16	13.07	-37.0	-38.6	16.7	0.00e+00	0	55	0	347078656	45	4347
2026-01-02 21:53:24.56	56.34	13.11	-36.9	-38.5	16.7	0.00e+00	0	55	0	350224384	45	4328
2026-01-02 21:53:25.57	56.52	13.16	-37.0	-38.6	16.7	0.00e+00	0	55	0	353370112	45	4345
2026-01-02 21:53:26.58	56.70	13.20	-37.0	-38.6	16.6	0.00e+00	0	55	0	356515840	45	4371
2026-01-02 21:53:27.59	56.89	13.25	-37.0	-38.6	16.6	0.00e+00	0	55	0	359661568	45	4372
2026-01-02 21:53:28.60	57.07	13.29	-36.9	-38.5	16.7	0.00e+00	0	55	0	362807296	45	4319
2026-01-02 21:53:29.61	57.25	13.33	-36.9	-38.5	16.7	0.00e+00	0	55	0	365953024	45	4329
2026-01-02 21:53:30.62	57.43	13.38	-36.9	-38.5	16.6	0.00e+00	0	55	0	369098752	45	4334
2026-01-02 21:53:31.63	57.61	13.42	-36.9	-38.5	16.7	0.00e+00	0	55	0	372244480	45	4334
2026-01-02 21:53:32.64	57.80	13.46	-37.0	-38.6	16.7	0.00e+00	0	55	0	375390208	45	4345
2026-01-02 21:53:33.65	57.98	13.51	-36.9	-38.4	16.8	0.00e+00	0	55	0	378535936	45	4284
2026-01-02 21:53:34.66	58.17	13.55	-36.9	-38.5	16.7	0.00e+00	0	55	0	381681664	45	4312
2026-01-02 21:53:35.66	58.35	13.59	-36.9	-38.5	16.7	0.00e+00	0	55	0	384827392	45	4321
2026-01-02 21:53:36.67	58.54	13.63	-36.9	-38.5	16.7	0.00e+00	0	55	0	387973120	45	4315
2026-01-02 21:53:37.69	58.72	13.67	-36.8	-38.4	16.9	0.00e+00	0	55	0	391118848	45	4254
2026-01-02 21:53:38.70	58.91	13.72	-36.7	-38.3	17.0	0.00e+00	0	55	0	394264576	45	4196
2026-01-02 21:53:39.71	59.10	13.76	-36.7	-38.3	16.9	0.00e+00	0	55	0	397410304	45	4207
2026-01-02 21:53:40.72	59.28	13.80	-36.8	-38.3	16.9	0.00e+00	0	55	0	400556032	45	4217
2026-01-02 21:53:41.73	59.47	13.84	-36.7	-38.3	16.9	0.00e+00	0	55	0	403701760	45	4195
2026-01-02 21:53:42.74	59.66	13.88	-36.7	-38.2	17.0	0.00e+00	0	55	0	406847488	45	4168
2026-01-02 21:53:43.75	59.85	13.92	-36.7	-38.2	17.0	0.00e+00	0	55	0	409993216	45	4171
2026-01-02 21:53:44.76	60.04	13.96	-36.6	-38.2	17.0	0.00e+00	0	55	0	413138944	45	4156
2026-01-02 21:53:45.77	60.23	14.00	-36.6	-38.1	17.0	0.00e+00	0	55	0	416284672	45	4129
2026-01-02 21:53:46.78	60.42	14.04	-36.6	-38.2	17.0	0.00e+00	0	55	0	419430400	45	4156
2026-01-02 21:53:47.78	60.61	14.08	-36.6	-38.2	17.0	0.00e+00	0	55	0	422576128	45	4150
2026-01-02 21:53:48.79	60.80	14.12	-36.6	-38.1	17.0	0.00e+00	0	55	0	425721856	45	4142
2026-01-02 21:53:49.80	60.99	14.16	-36.6	-38.2	17.0	0.00e+00	0	55	0	428867584	45	4153
2026-01-02 21:53:50.81	61.19	14.20	-36.6	-38.1	17.1	0.00e+00	0	55	0	432013312	45	4116
2026-01-02 21:53:51.82	61.38	14.24	-36.4	-37.9	17.3	0.00e+00	0	56	0	435159040	44	4277
2026-01-02 21:53:52.83	61.57	14.28	-36.4	-37.9	17.3	0.00e+00	0	55	0	438304768	44	4260
2026-01-02 21:53:53.84	61.77	14.32	-36.5	-38.0	17.2	0.00e+00	0	55	0	441450496	44	4313
2026-01-02 21:53:54.85	61.96	14.35	-36.4	-37.9	17.3	0.00e+00	0	55	0	444596224	44	4255
2026-01-02 21:53:55.86	62.16	14.39	-36.4	-37.9	17.3	0.00e+00	0	55	0	447741952	44	4259
2026-01-02 21:53:56.87	62.35	14.43	-36.5	-38.0	17.1	0.00e+00	0	55	0	450887680	44	4309
2026-01-02 21:53:57.88	62.55	14.47	-36.5	-38.1	17.0	0.00e+00	0	56	0	454033408	44	4355
2026-01-02 21:53:58.89	62.75	14.50	-36.5	-38.1	17.1	0.00e+00	0	55	0	457179136	44	4360
2026-01-02 21:53:59.90	62.94	14.54	-36.5	-38.0	17.1	0.00e+00	0	55	0	460324864	44	4322
2026-01-02 21:54:00.91	63.14	14.58	-36.5	-38.0	17.1	0.00e+00	0	56	0	463470592	44	4330
2026-01-02 21:54:01.92	63.34	14.61	-36.6	-38.1	17.0	0.00e+00	0	56	0	466616320	44	4376
2026-01-02 21:54:02.93	63.54	14.65	-36.6	-38.1	17.0	0.00e+00	0	55	0	469762048	44	4382
2026-01-02 21:54:03.94	63.74	14.69	-36.7	-38.3	16.8	0.00e+00	0	56	0	472907776	44	4446
2026-01-02 21:54:04.95	63.94	14.72	-36.9	-38.5	16.6	0.00e+00	0	56	0	476053504	44	4562
2026-01-02 21:54:05.96	64.14	14.76	-36.8	-38.4	16.7	0.00e+00	0	55	0	479199232	44	4499
2026-01-02 21:54:06.97	64.34	14.79	-36.6	-38.2	16.9	0.00e+00	0	56	0	482344960	44	4415
2026-01-02 21:54:07.98	64.54	14.83	-36.5	-38.0	17.0	0.00e+00	0	55	0	485490688	44	4336
2026-01-02 21:54:08.98	64.74	14.86	-36.4	-38.0	17.0	0.00e+00	0	56	0	488636416	44	4310
2026-01-02 21:54:09.99	64.94	14.89	-36.3	-37.8	17.2	0.00e+00	0	56	0	491782144	44	4215
2026-01-02 21:54:11.00	65.14	14.93	-36.3	-37.8	17.1	0.00e+00	0	55	0	494927872	44	4234
2026-01-02 21:54:12.01	65.34	14.96	-36.5	-38.1	16.8	0.00e+00	0	55	0	498073600	44	4352
2026-01-02 21:54:13.02	65.55	14.99	-36.6	-38.2	16.7	0.00e+00	0	55	0	501219328	44	4407
2026-01-02 21:54:14.03	65.75	15.03	-36.5	-38.1	16.7	0.00e+00	0	56	0	504365056	44	4355
2026-01-02 21:54:15.04	65.95	15.06	-36.3	-37.9	16.7	0.00e+00	0	55	0	507510784	44	4289
2026-01-02 21:54:16.05	66.16	15.09	-36.4	-38.0	16.6	0.00e+00	0	55	0	510656512	44	4330
2026-01-02 21:54:17.06	66.36	15.13	-36.5	-38.2	16.4	0.00e+00	0	56	0	513802240	44	4394
2026-01-02 21:54:18.07	66.57	15.16	-36.5	-38.2	16.2	0.00e+00	0	55	0	516947968	44	4429
2026-01-02 21:54:19.08	66.77	15.19	-36.5	-38.3	16.1	0.00e+00	0	55	0	520093696	44	4447
2026-01-02 21:54:20.09	66.98	15.22	-36.6	-38.4	15.8	0.00e+00	0	55	0	523239424	44	4532
2026-01-02 21:54:21.10	67.19	15.25	-36.7	-38.6	15.5	0.00e+00	0	55	0	526385152	44	4625
2026-01-02 21:54:22.11	67.39	15.28	-36.9	-38.8	15.2	0.00e+00	0	56	0	529530880	44	4737
2026-01-02 21:54:23.12	67.60	15.31	-37.0	-39.0	14.9	0.00e+00	0	56	0	532676608	44	4864
2026-01-02 21:54:24.14	67.81	15.34	-37.0	-39.0	14.8	0.00e+00	0	56	0	535822336	44	4870
2026-01-02 21:54:25.15	68.02	15.37	-37.0	-39.1	14.7	0.00e+00	0	56	0	538968064	44	4909
2026-01-02 21:54:26.16	68.23	15.40	-37.0	-39.1	14.6	0.00e+00	0	56	0	542113792	44	4879
2026-01-02 21:54:27.17	68.44	15.43	-37.1	-39.2	14.5	0.00e+00	0	56	0	545259520	44	4933
2026-01-02 21:54:28.18	68.65	15.46	-37.1	-39.3	14.3	7.00e-07	0	55	0	548405248	44	4999
2026-01-02 21:54:29.19	68.86	15.49	-37.2	-39.4	14.1	3.80e-06	0	56	0	551550976	44	5079
2026-01-02 21:54:30.20	69.07	15.52	-37.4	-39.7	13.7	4.50e-06	0	56	0	554696704	45	4975
2026-01-02 21:54:31.21	69.28	15.54	-37.5	-39.9	13.5	1.06e-05	0	56	0	557842432	45	5062
2026-01-02 21:54:32.21	69.49	15.57	-37.7	-40.2	13.1	2.74e-05	0	56	0	560988160	45	5244
2026-01-02 21:54:33.22	69.70	15.60	-37.8	-40.4	12.8	3.35e-05	0	56	0	564133888	46	5067
2026-01-02 21:54:34.24	69.91	15.62	-37.9	-40.6	12.6	9.91e-05	0	56	0	567279616	46	5190
2026-01-02 21:54:35.25	70.12	15.65	-37.9	-40.7	12.3	1.55e-04	0	56	0	570425344	46	5267
2026-01-02 21:54:36.26	70.33	15.68	-38.0	-41.0	11.9	2.83e-04	0	56	0	573571072	46	5410
2026-01-02 21:54:37.27	70.55	15.70	-38.0	-41.0	11.8	4.61e-04	0	56	0	576716800	46	5433
2026-01-02 21:54:38.28	70.76	15.73	-38.0	-41.1	11.5	6.77e-04	0	56	0	579862528	46	5522
2026-01-02 21:54:39.29	70.97	15.75	-38.1	-41.3	11.3	1.08e-03	0	56	0	583008256	46	5636
2026-01-02 21:54:40.30	71.19	15.78	-38.2	-41.6	10.8	2.05e-03	0	56	0	587202560	46	5793
2026-01-02 21:54:41.31	71.40	15.80	-38.3	-41.8	10.5	3.58e-03	0	56	0	590348288	47	5627
2026-01-02 21:54:42.32	71.62	15.83	-38.3	-41.9	10.4	4.41e-03	0	56	0	592445440	47	5677
2026-01-02 21:54:43.33	71.83	15.85	-38.3	-42.0	10.2	5.31e-03	0	56	0	595591168	47	5737
2026-01-02 21:54:44.34	72.05	15.87	-38.2	-41.9	10.3	5.29e-03	0	56	0	598736896	47	5684
2026-01-02 21:54:45.35	72.26	15.90	-38.3	-42.0	10.2	6.24e-03	0	56	0	602931200	47	5732
2026-01-02 21:54:46.36	72.48	15.92	-38.3	-42.1	10.1	6.77e-03	0	56	0	606076928	47	5810
2026-01-02 21:54:47.37	72.70	15.94	-38.4	-42.2	10.0	7.21e-03	0	56	0	609222656	47	5882
2026-01-02 21:54:48.38	72.91	15.96	-38.4	-42.2	10.0	7.65e-03	0	56	0	612368384	47	5897
2026-01-02 21:54:49.39	73.13	15.98	-38.5	-42.3	9.9	8.84e-03	0	56	0	615514112	47	5967
2026-01-02 21:54:50.40	73.35	16.00	-38.5	-42.3	9.9	8.88e-03	0	56	0	618659840	47	5981
2026-01-02 21:54:51.41	73.56	16.03	-38.4	-42.1	10.2	6.64e-03	0	56	0	621805568	47	5832
2026-01-02 21:54:52.42	73.78	16.05	-38.4	-42.1	10.2	5.66e-03	0	56	0	624951296	47	5804
2026-01-02 21:54:53.43	74.00	16.07	-38.3	-41.8	10.5	4.60e-03	0	56	0	628097024	47	5656
2026-01-02 21:54:54.44	74.22	16.09	-38.2	-41.6	10.7	3.24e-03	0	56	0	631242752	47	5509
2026-01-02 21:54:55.45	74.44	16.10	-38.1	-41.5	10.9	2.36e-03	0	56	0	634388480	47	5426
2026-01-02 21:54:56.46	74.66	16.12	-38.1	-41.4	11.0	1.90e-03	0	56	0	637534208	47	5368
2026-01-02 21:54:57.47	74.87	16.14	-38.1	-41.3	11.1	1.61e-03	0	56	0	640679936	47	5323
2026-01-02 21:54:58.48	75.09	16.16	-38.0	-41.2	11.3	1.23e-03	0	56	0	643825664	47	5249
2026-01-02 21:54:59.49	75.31	16.18	-38.0	-41.1	11.4	1.06e-03	0	56	0	646971392	47	5201
2026-01-02 21:55:00.50	75.53	16.19	-38.0	-41.1	11.4	9.76e-04	0	56	0	650117120	47	5188
2026-01-02 21:55:01.51	75.75	16.21	-37.9	-41.0	11.6	7.53e-04	0	56	0	653262848	47	5123
2026-01-02 21:55:02.52	75.97	16.23	-37.8	-40.8	11.8	5.56e-04	0	56	0	656408576	47	5023
2026-01-02 21:55:03.54	76.20	16.24	-37.8	-40.8	11.8	5.58e-04	0	56	0	659554304	47	5031
2026-01-02 21:55:04.55	76.42	16.26	-37.8	-40.7	12.0	3.82e-04	0	56	0	662700032	47	4934
2026-01-02 21:55:05.56	76.64	16.28	-37.7	-40.5	12.1	2.69e-04	0	56	0	665845760	47	4852
2026-01-02 21:55:06.57	76.86	16.29	-37.7	-40.5	12.2	2.03e-04	0	56	0	668991488	47	4840
2026-01-02 21:55:07.58	77.08	16.30	-37.7	-40.5	12.2	2.05e-04	0	56	0	672137216	47	4862
2026-01-02 21:55:08.59	77.30	16.32	-37.8	-40.7	12.2	2.59e-04	0	56	0	675282944	47	4930
2026-01-02 21:55:09.59	77.52	16.33	-37.9	-40.8	12.1	2.71e-04	0	56	0	678428672	47	5002
2026-01-02 21:55:10.60	77.75	16.35	-37.9	-40.7	12.2	2.24e-04	0	56	0	681574400	47	4948
2026-01-02 21:55:11.61	77.97	16.36	-37.9	-40.7	12.3	1.67e-04	0	56	0	684720128	47	4938
2026-01-02 21:55:12.62	78.19	16.37	-37.9	-40.6	12.4	1.62e-04	0	56	0	687865856	47	4909
2026-01-02 21:55:13.63	78.41	16.38	-37.9	-40.6	12.4	1.34e-04	0	56	0	691011584	47	4911
2026-01-02 21:55:14.64	78.64	16.40	-37.9	-40.6	12.4	1.29e-04	0	56	0	694157312	47	4923
2026-01-02 21:55:15.65	78.86	16.41	-37.9	-40.6	12.4	1.24e-04	0	56	0	697303040	47	4918
2026-01-02 21:55:16.66	79.08	16.42	-38.0	-40.7	12.3	1.58e-04	0	56	0	700448768	47	4973
2026-01-02 21:55:17.67	79.31	16.43	-38.0	-40.7	12.3	2.11e-04	0	56	0	703594496	47	4978
2026-01-02 21:55:18.68	79.53	16.44	-37.8	-40.5	12.5	1.36e-04	0	56	0	706740224	47	4863
2026-01-02 21:55:19.69	79.75	16.45	-37.8	-40.5	12.5	9.15e-05	0	56	0	709885952	47	4851
2026-01-02 21:55:20.70	79.98	16.46	-37.8	-40.5	12.6	1.01e-04	0	56	0	713031680	47	4822
2026-01-02 21:55:21.71	80.20	16.47	-37.8	-40.4	12.7	9.46e-05	0	56	0	716177408	47	4798
2026-01-02 21:55:22.72	80.43	16.47	-37.8	-40.4	12.8	7.17e-05	0	56	0	719323136	47	4789
2026-01-02 21:55:23.73	80.65	16.48	-37.7	-40.2	13.0	5.41e-05	0	56	0	722468864	47	4698
2026-01-02 21:55:24.74	80.88	16.49	-37.6	-40.1	13.2	2.74e-05	0	56	0	725614592	47	4621
2026-01-02 21:55:25.75	81.10	16.50	-37.6	-40.0	13.4	7.60e-06	0	56	0	728760320	47	4548
2026-01-02 21:55:26.76	81.33	16.50	-37.5	-39.9	13.6	6.10e-06	0	56	0	731906048	47	4495
2026-01-02 21:55:27.77	81.55	16.51	-37.4	-39.6	14.0	1.50e-06	0	56	0	735051776	46	4602
2026-01-02 21:55:28.78	81.77	16.52	-37.3	-39.5	14.2	3.80e-06	0	56	0	738197504	46	4570
2026-01-02 21:55:29.79	82.00	16.52	-37.3	-39.5	14.3	7.00e-07	0	56	0	741343232	46	4569
2026-01-02 21:55:30.80	82.22	16.53	-37.4	-39.5	14.4	0.00e+00	0	56	0	744488960	46	4553
2026-01-02 21:55:31.81	82.45	16.53	-37.4	-39.5	14.6	1.50e-06	0	56	0	747634688	46	4557
2026-01-02 21:55:32.82	82.68	16.54	-37.4	-39.5	14.6	7.00e-07	0	56	0	750780416	46	4547
2026-01-02 21:55:33.83	82.90	16.54	-37.4	-39.5	14.6	0.00e+00	0	56	0	753926144	46	4581
2026-01-02 21:55:34.83	83.12	16.54	-37.4	-39.5	14.6	0.00e+00	0	56	0	757071872	46	4575
2026-01-02 21:55:35.84	83.35	16.55	-37.4	-39.5	14.5	0.00e+00	0	56	0	760217600	46	4592
2026-01-02 21:55:36.85	83.57	16.55	-37.4	-39.6	14.4	0.00e+00	0	56	0	763363328	46	4602
2026-01-02 21:55:37.86	83.80	16.55	-37.4	-39.6	14.3	1.50e-06	0	56	0	766509056	46	4617
2026-01-02 21:55:38.87	84.03	16.55	-37.4	-39.6	14.2	1.50e-06	0	56	0	769654784	46	4648
2026-01-02 21:55:39.88	84.25	16.55	-37.5	-39.7	14.0	3.00e-06	0	57	0	772800512	46	4704
2026-01-02 21:55:40.89	84.48	16.56	-37.5	-39.8	13.8	3.80e-06	0	56	0	775946240	46	4739
2026-01-02 21:55:41.90	84.70	16.56	-37.5	-39.8	13.7	4.50e-06	0	56	0	779091968	46	4745
2026-01-02 21:55:42.91	84.93	16.56	-37.5	-39.9	13.6	4.50e-06	0	56	0	782237696	46	4779
2026-01-02 21:55:43.92	85.15	16.56	-37.6	-40.0	13.4	1.52e-05	0	56	0	785383424	46	4825
2026-01-02 21:55:44.93	85.38	16.55	-37.6	-40.1	13.2	2.36e-05	0	56	0	788529152	46	4878
2026-01-02 21:55:45.94	85.60	16.55	-37.6	-40.1	13.1	2.74e-05	0	56	0	791674880	46	4914
2026-01-02 21:55:46.96	85.83	16.55	-37.6	-40.1	13.1	3.05e-05	0	56	0	794820608	46	4891
2026-01-02 21:55:47.97	86.06	16.55	-37.6	-40.0	13.2	2.74e-05	0	56	0	797966336	46	4860
2026-01-02 21:55:48.98	86.28	16.55	-37.6	-40.0	13.2	2.89e-05	0	56	0	801112064	46	4852
2026-01-02 21:55:49.99	86.51	16.54	-37.6	-40.0	13.2	2.36e-05	0	57	0	804257792	46	4861
2026-01-02 21:55:50.99	86.73	16.54	-37.6	-40.0	13.4	1.22e-05	0	56	0	807403520	46	4816
2026-01-02 21:55:52.00	86.96	16.54	-37.4	-39.8	13.7	6.10e-06	0	56	0	810549248	46	4710
2026-01-02 21:55:53.01	87.18	16.53	-37.4	-39.6	14.0	7.00e-07	0	56	0	813694976	46	4612
2026-01-02 21:55:54.02	87.41	16.53	-37.3	-39.5	14.2	7.00e-07	0	56	0	816840704	46	4573
2026-01-02 21:55:55.03	87.63	16.52	-37.3	-39.4	14.5	0.00e+00	0	56	0	819986432	46	4498
2026-01-02 21:55:56.05	87.86	16.52	-37.2	-39.2	14.7	1.50e-06	0	56	0	823132160	46	4413
2026-01-02 21:55:57.06	88.09	16.51	-37.2	-39.1	14.9	0.00e+00	0	56	0	826277888	46	4375
2026-01-02 21:55:58.07	88.31	16.51	-37.1	-39.0	15.1	0.00e+00	0	56	0	829423616	46	4314
2026-01-02 21:55:59.08	88.54	16.50	-37.0	-38.8	15.5	0.00e+00	0	56	0	832569344	46	4218
2026-01-02 21:56:00.09	88.76	16.49	-36.8	-38.6	15.8	0.00e+00	0	56	0	835715072	45	4353
2026-01-02 21:56:01.10	88.98	16.49	-36.6	-38.3	16.2	0.00e+00	0	56	0	838860800	45	4223
2026-01-02 21:56:02.11	89.21	16.48	-36.6	-38.2	16.4	0.00e+00	0	56	0	842006528	45	4188
2026-01-02 21:56:03.11	89.43	16.47	-36.5	-38.1	16.6	0.00e+00	0	56	0	845152256	45	4117
2026-01-02 21:56:04.13	89.66	16.46	-36.6	-38.2	16.7	0.00e+00	0	56	0	848297984	45	4150
2026-01-02 21:56:05.14	89.88	16.45	-36.7	-38.3	16.6	0.00e+00	0	56	0	851443712	45	4203
2026-01-02 21:56:06.15	90.11	16.44	-36.7	-38.3	16.7	0.00e+00	0	56	0	854589440	45	4200
2026-01-02 21:56:07.16	90.33	16.43	-36.6	-38.2	16.8	0.00e+00	0	56	0	857735168	45	4173
2026-01-02 21:56:08.17	90.55	16.42	-36.6	-38.2	16.8	0.00e+00	0	56	0	860880896	45	4156
2026-01-02 21:56:09.18	90.78	16.41	-36.6	-38.1	16.9	0.00e+00	0	56	0	864026624	45	4132
2026-01-02 21:56:10.19	91.00	16.40	-36.5	-38.1	17.0	0.00e+00	0	56	0	867172352	44	4353
2026-01-02 21:56:11.20	91.22	16.39	-36.3	-37.8	17.3	0.00e+00	0	56	0	870318080	44	4199
2026-01-02 21:56:12.21	91.45	16.38	-36.3	-37.8	17.3	0.00e+00	0	56	0	873463808	44	4210
2026-01-02 21:56:13.22	91.67	16.36	-36.2	-37.7	17.4	0.00e+00	0	56	0	876609536	44	4163
2026-01-02 21:56:14.23	91.89	16.35	-36.3	-37.7	17.4	0.00e+00	0	56	0	879755264	44	4183
2026-01-02 21:56:15.24	92.12	16.34	-36.2	-37.7	17.4	0.00e+00	0	56	0	882900992	44	4177
2026-01-02 21:56:16.25	92.34	16.32	-36.2	-37.7	17.5	0.00e+00	0	56	0	886046720	44	4156
2026-01-02 21:56:17.26	92.56	16.31	-36.2	-37.7	17.4	0.00e+00	0	56	0	889192448	44	4155
2026-01-02 21:56:18.27	92.78	16.29	-36.2	-37.7	17.4	0.00e+00	0	56	0	892338176	44	4162
2026-01-02 21:56:19.28	93.01	16.28	-36.2	-37.6	17.5	0.00e+00	0	56	0	895483904	44	4140
2026-01-02 21:56:20.29	93.23	16.26	-36.2	-37.7	17.4	0.00e+00	0	56	0	898629632	44	4163
2026-01-02 21:56:21.29	93.45	16.25	-36.4	-37.8	17.3	0.00e+00	0	56	0	901775360	44	4239
2026-01-02 21:56:22.30	93.67	16.23	-36.4	-37.8	17.3	0.00e+00	0	56	0	905969664	44	4240
2026-01-02 21:56:23.31	93.89	16.22	-36.4	-37.8	17.3	0.00e+00	0	56	0	908066816	44	4231
2026-01-02 21:56:24.32	94.11	16.20	-36.4	-37.8	17.3	0.00e+00	0	56	0	911212544	44	4240
2026-01-02 21:56:25.33	94.33	16.18	-36.3	-37.8	17.4	0.00e+00	0	56	0	914358272	44	4195
2026-01-02 21:56:26.35	94.55	16.17	-36.3	-37.7	17.4	0.00e+00	0	56	0	917504000	44	4176
2026-01-02 21:56:27.36	94.77	16.15	-36.3	-37.8	17.4	0.00e+00	0	56	0	921698304	44	4194
2026-01-02 21:56:28.37	94.99	16.13	-36.2	-37.6	17.5	0.00e+00	0	57	0	924844032	44	4128
2026-01-02 21:56:29.38	95.21	16.11	-36.2	-37.6	17.5	0.00e+00	0	56	0	927989760	44	4144
2026-01-02 21:56:30.38	95.43	16.09	-36.3	-37.7	17.4	0.00e+00	0	56	0	931135488	44	4183
2026-01-02 21:56:31.39	95.65	16.07	-36.3	-37.7	17.4	0.00e+00	0	56	0	933232640	44	4188
2026-01-02 21:56:32.40	95.87	16.05	-36.3	-37.8	17.4	0.00e+00	0	56	0	937426944	44	4202
2026-01-02 21:56:33.41	96.08	16.03	-36.2	-37.7	17.4	0.00e+00	0	56	0	940572672	44	4164
2026-01-02 21:56:34.42	96.30	16.01	-36.2	-37.7	17.5	0.00e+00	0	56	0	943718400	44	4165
2026-01-02 21:56:35.43	96.52	15.99	-36.2	-37.7	17.5	0.00e+00	0	57	0	946864128	44	4163
2026-01-02 21:56:36.44	96.74	15.97	-36.2	-37.7	17.5	0.00e+00	0	56	0	950009856	44	4174
2026-01-02 21:56:37.45	96.96	15.95	-36.3	-37.7	17.5	0.00e+00	0	56	0	953155584	44	4176
2026-01-02 21:56:38.46	97.17	15.92	-36.3	-37.7	17.5	0.00e+00	0	56	0	956301312	44	4179
2026-01-02 21:56:39.46	97.39	15.90	-36.2	-37.6	17.6	0.00e+00	0	56	0	959447040	44	4134
2026-01-02 21:56:40.47	97.60	15.88	-36.1	-37.5	17.7	0.00e+00	0	56	0	962592768	44	4071
2026-01-02 21:56:41.48	97.82	15.86	-36.0	-37.5	17.7	0.00e+00	0	56	0	965738496	44	4060
2026-01-02 21:56:42.49	98.03	15.83	-36.0	-37.4	17.7	0.00e+00	0	57	0	968884224	44	4046
2026-01-02 21:56:43.50	98.25	15.81	-36.0	-37.4	17.7	0.00e+00	0	57	0	972029952	44	4036
2026-01-02 21:56:44.51	98.46	15.78	-36.0	-37.5	17.7	0.00e+00	0	57	0	975175680	44	4056
2026-01-02 21:56:45.52	98.68	15.76	-36.0	-37.4	17.7	0.00e+00	0	56	0	978321408	44	4050
2026-01-02 21:56:46.54	98.90	15.73	-36.1	-37.5	17.7	0.00e+00	0	56	0	981467136	44	4066
2026-01-02 21:56:47.54	99.11	15.71	-36.1	-37.5	17.7	0.00e+00	0	56	0	984612864	44	4068
2026-01-02 21:56:48.55	99.32	15.68	-36.1	-37.5	17.7	0.00e+00	0	56	0	987758592	44	4066
2026-01-02 21:56:49.56	99.53	15.66	-36.1	-37.5	17.7	0.00e+00	0	56	0	990904320	44	4066
2026-01-02 21:56:50.57	99.75	15.63	-36.0	-37.5	17.7	0.00e+00	0	56	0	994050048	44	4052
2026-01-02 21:56:51.58	99.96	15.60	-35.8	-37.2	17.8	0.00e+00	0	56	0	997195776	43	4164
2026-01-02 21:56:52.59	100.17	15.58	-35.8	-37.2	17.8	0.00e+00	0	56	0	1000341504	43	4163
2026-01-02 21:56:53.60	100.38	15.55	-35.7	-37.1	17.9	0.00e+00	0	56	0	1003487232	43	4106
2026-01-02 21:56:54.61	100.60	15.52	-35.7	-37.1	17.9	0.00e+00	0	56	0	1006632960	43	4127
2026-01-02 21:56:55.62	100.81	15.49	-35.8	-37.1	17.8	0.00e+00	0	56	0	1009778688	43	4142
2026-01-02 21:56:56.63	101.02	15.47	-35.8	-37.2	17.7	0.00e+00	0	56	0	1012924416	43	4188
2026-01-02 21:56:57.63	101.23	15.44	-35.9	-37.3	17.7	0.00e+00	0	56	0	1016070144	43	4213
2026-01-02 21:56:58.64	101.44	15.41	-36.0	-37.4	17.6	0.00e+00	0	56	0	1019215872	43	4254
2026-01-02 21:56:59.65	101.64	15.38	-36.0	-37.4	17.6	0.00e+00	0	56	0	1022361600	43	4281
2026-01-02 21:57:00.66	101.85	15.35	-35.9	-37.4	17.6	0.00e+00	0	56	0	1025507328	43	4253
2026-01-02 21:57:01.67	102.06	15.32	-35.9	-37.4	17.7	0.00e+00	0	56	0	1028653056	43	4245
2026-01-02 21:57:02.68	102.27	15.29	-36.0	-37.4	17.6	0.00e+00	0	56	0	1031798784	43	4267
2026-01-02 21:57:03.69	102.48	15.26	-35.9	-37.4	17.7	0.00e+00	0	56	0	1034944512	43	4245
2026-01-02 21:57:04.70	102.69	15.23	-35.8	-37.2	17.8	0.00e+00	0	56	0	1038090240	43	4190
2026-01-02 21:57:05.71	102.89	15.20	-35.8	-37.2	17.8	0.00e+00	0	56	0	1041235968	43	4189
2026-01-02 21:57:06.72	103.10	15.16	-35.8	-37.2	17.8	0.00e+00	0	56	0	1044381696	43	4171
2026-01-02 21:57:07.73	103.31	15.13	-35.8	-37.2	17.7	7.00e-07	0	56	0	1047527424	43	4185
2026-01-02 21:57:08.74	103.51	15.10	-35.9	-37.4	17.6	0.00e+00	0	56	0	1050673152	43	4245
2026-01-02 21:57:09.75	103.72	15.07	-35.9	-37.3	17.6	0.00e+00	0	56	0	1053818880	43	4242
2026-01-02 21:57:10.76	103.92	15.03	-35.9	-37.3	17.7	0.00e+00	0	57	0	1056964608	43	4231
2026-01-02 21:57:11.77	104.13	15.00	-35.9	-37.3	17.7	7.00e-07	0	56	0	1060110336	43	4226
2026-01-02 21:57:12.78	104.33	14.97	-35.9	-37.3	17.7	0.00e+00	0	56	0	1063256064	43	4210
2026-01-02 21:57:13.79	104.53	14.93	-35.9	-37.3	17.6	0.00e+00	0	57	0	1066401792	43	4224
2026-01-02 21:57:14.80	104.74	14.90	-36.0	-37.4	17.5	0.00e+00	0	57	0	1069547520	43	4287
2026-01-02 21:57:15.81	104.94	14.87	-35.9	-37.3	17.6	0.00e+00	0	56	0	1072693248	43	4242
2026-01-02 21:57:16.82	105.14	14.83	-35.9	-37.3	17.7	0.00e+00	0	56	0	1075838976	43	4198
2026-01-02 21:57:17.83	105.34	14.80	-35.8	-37.2	17.8	0.00e+00	0	56	0	1078984704	43	4148
2026-01-02 21:57:18.85	105.55	14.76	-35.8	-37.1	17.8	0.00e+00	0	57	0	1082130432	43	4145
2026-01-02 21:57:19.85	105.75	14.73	-35.8	-37.2	17.7	0.00e+00	0	56	0	1085276160	43	4148
2026-01-02 21:57:20.86	105.95	14.69	-35.8	-37.2	17.8	0.00e+00	0	56	0	1088421888	43	4166
2026-01-02 21:57:21.87	106.15	14.65	-35.9	-37.3	17.7	0.00e+00	0	56	0	1091567616	43	4209
2026-01-02 21:57:22.88	106.35	14.62	-35.9	-37.4	17.7	0.00e+00	0	56	0	1094713344	43	4250
2026-01-02 21:57:23.89	106.54	14.58	-36.0	-37.4	17.6	0.00e+00	0	56	0	1097859072	43	4267
2026-01-02 21:57:24.90	106.74	14.54	-36.0	-37.4	17.6	3.00e-06	0	56	0	1101004800	43	4286
2026-01-02 21:57:25.91	106.94	14.51	-36.1	-37.6	17.4	0.00e+00	0	56	0	1104150528	43	4349
2026-01-02 21:57:26.92	107.14	14.47	-36.2	-37.6	17.4	0.00e+00	0	56	0	1107296256	43	4382
2026-01-02 21:57:27.93	107.34	14.43	-36.2	-37.7	17.3	0.00e+00	0	56	0	1110441984	43	4401
2026-01-02 21:57:28.94	107.53	14.39	-36.2	-37.6	17.4	0.00e+00	0	56	0	1113587712	43	4378
2026-01-02 21:57:29.95	107.73	14.36	-36.2	-37.6	17.4	0.00e+00	0	56	0	1116733440	43	4372
2026-01-02 21:57:30.97	107.93	14.32	-36.1	-37.5	17.5	0.00e+00	0	56	0	1119879168	43	4323
2026-01-02 21:57:31.98	108.12	14.28	-36.0	-37.5	17.5	0.00e+00	0	56	0	1123024896	43	4308
2026-01-02 21:57:32.99	108.32	14.24	-36.0	-37.4	17.5	0.00e+00	0	56	0	1126170624	43	4275
2026-01-02 21:57:34.00	108.51	14.20	-36.0	-37.4	17.5	0.00e+00	0	56	0	1129316352	43	4290
2026-01-02 21:57:35.01	108.70	14.16	-36.0	-37.5	17.5	0.00e+00	0	56	0	1132462080	43	4294
2026-01-02 21:57:36.02	108.90	14.12	-36.1	-37.5	17.5	0.00e+00	0	56	0	1135607808	43	4326
2026-01-02 21:57:37.03	109.09	14.08	-36.2	-37.6	17.3	0.00e+00	0	57	0	1138753536	43	4382
2026-01-02 21:57:38.04	109.28	14.04	-36.3	-37.8	17.2	0.00e+00	0	57	0	1141899264	43	4447
2026-01-02 21:57:39.05	109.47	14.00	-36.4	-37.9	17.1	0.00e+00	0	57	0	1145044992	43	4510
2026-01-02 21:57:40.06	109.66	13.96	-36.5	-38.0	17.0	0.00e+00	0	56	0	1148190720	43	4583
2026-01-02 21:57:41.07	109.85	13.92	-36.5	-38.1	16.9	0.00e+00	0	56	0	1151336448	43	4601
2026-01-02 21:57:42.08	110.04	13.88	-36.5	-38.0	17.0	0.00e+00	0	56	0	1154482176	43	4569
2026-01-02 21:57:43.09	110.23	13.84	-36.5	-38.0	17.0	0.00e+00	0	56	0	1157627904	43	4580
2026-01-02 21:57:44.09	110.42	13.80	-36.5	-38.0	16.9	0.00e+00	0	56	0	1160773632	43	4595
2026-01-02 21:57:45.10	110.61	13.76	-36.4	-37.9	17.0	3.00e-06	0	56	0	1163919360	43	4540
2026-01-02 21:57:46.11	110.80	13.72	-36.4	-37.9	17.0	0.00e+00	0	56	0	1167065088	43	4522
2026-01-02 21:57:47.13	110.99	13.67	-36.3	-37.8	17.2	0.00e+00	0	57	0	1170210816	43	4457
2026-01-02 21:57:48.14	111.17	13.63	-36.3	-37.7	17.2	0.00e+00	0	56	0	1173356544	43	4441
2026-01-02 21:57:49.15	111.36	13.59	-36.3	-37.8	17.1	0.00e+00	0	57	0	1176502272	43	4455
2026-01-02 21:57:50.15	111.55	13.55	-36.3	-37.8	17.2	0.00e+00	0	57	0	1179648000	43	4445
2026-01-02 21:57:51.17	111.73	13.50	-36.3	-37.8	17.1	0.00e+00	0	56	0	1182793728	43	4456
2026-01-02 21:57:52.17	111.92	13.46	-36.2	-37.8	16.8	0.00e+00	0	56	0	1185939456	43	4481
2026-01-02 21:57:53.18	112.10	13.42	-36.4	-37.9	17.0	0.00e+00	0	57	0	1189085184	43	4533
2026-01-02 21:57:54.19	112.28	13.37	-36.4	-38.0	17.0	1.17e-04	0	57	0	1192230912	43	4559
2026-01-02 21:57:55.20	112.47	13.33	-36.4	-38.0	17.0	0.00e+00	0	56	0	1195376640	43	4548
2026-01-02 21:57:56.21	112.65	13.29	-36.5	-38.0	16.9	0.00e+00	0	57	0	1198522368	43	4585
2026-01-02 21:57:57.22	112.83	13.24	-36.6	-38.1	16.8	7.00e-07	0	56	0	1201668096	43	4651
2026-01-02 21:57:58.23	113.02	13.20	-36.6	-38.2	16.3	2.59e-05	0	57	0	1204813824	43	4691
2026-01-02 21:57:59.24	113.20	13.15	-36.6	-38.2	16.3	1.45e-02	0	57	0	1207959552	43	4683
2026-01-02 21:58:00.25	113.38	13.11	-36.1	-38.1	16.3	9.18e-04	0	57	0	1211105280	43	4639
2026-01-02 21:58:01.25	113.56	13.06	-36.9	-38.2	15.3	3.18e-03	0	57	0	1214251008	43	4702
2026-01-02 21:58:02.26	113.74	13.02	-36.3	-38.0	16.4	6.30e-03	0	57	0	1217396736	43	4588
2026-01-02 21:58:03.27	113.91	12.98	-36.2	-38.0	14.7	6.84e-03	0	56	0	1220542464	42	4854
2026-01-02 21:58:04.28	114.09	12.93	-35.6	-37.9	15.4	2.60e-02	0	57	0	1223688192	42	4767
2026-01-02 21:58:05.29	114.27	12.88	-35.6	-37.9	13.1	3.17e-02	0	56	0	1226833920	41	5058
2026-01-02 21:58:06.30	114.45	12.84	-34.9	-38.0	13.2	3.45e-02	0	56	0	1229979648	40	5405
2026-01-02 21:58:07.31	114.63	12.79	-35.5	-38.1	14.3	1.94e-02	0	57	0	1233125376	40	5466
2026-01-02 21:58:08.33	114.80	12.75	-35.6	-38.2	13.2	2.27e-02	0	56	0	1236271104	40	5545
2026-01-02 21:58:09.34	114.98	12.70	-34.6	-38.1	12.7	2.07e-01	0	57	0	1239416832	40	5485
2026-01-02 21:58:10.35	115.16	12.65	-34.3	-38.1	12.5	3.82e-02	0	56	0	1242562560	39	5837
2026-01-02 21:58:11.36	115.33	12.61	-31.2	-37.3	10.1	5.39e-02	2	57	0	1245708288	30	8950
2026-01-02 21:58:12.37	115.51	12.56	-33.6	-38.1	9.4	1.44e-01	0	57	0	1248854016	36	6892
2026-01-02 21:58:13.38	115.68	12.52	-34.7	-38.3	11.8	9.76e-02	0	57	0	1251999744	40	5608
2026-01-02 21:58:14.39	115.85	12.47	-33.5	-38.1	11.5	9.27e-02	0	56	0	1255145472	40	5490
2026-01-02 21:58:15.40	116.03	12.42	-34.2	-38.2	11.3	7.22e-02	0	56	0	1258291200	39	5919
2026-01-02 21:58:16.41	116.20	12.37	-35.4	-38.3	13.6	6.11e-02	0	57	0	1261436928	41	5315
2026-01-02 21:58:17.41	116.37	12.33	-35.1	-38.3	13.3	1.02e-01	0	56	0	1264582656	41	5297
2026-01-02 21:58:18.42	116.54	12.28	-35.5	-38.3	12.2	4.30e-02	0	57	0	1267728384	41	5336
2026-01-02 21:58:19.43	116.71	12.23	-35.8	-38.4	13.3	4.06e-01	0	56	0	1269825536	41	5360
2026-01-02 21:58:20.44	116.88	12.19	-35.5	-38.3	12.3	3.87e-02	0	57	0	1272971264	41	5294
2026-01-02 21:58:21.45	117.05	12.14	-35.7	-38.3	11.7	3.91e-02	0	56	0	1276116992	39	5972
2026-01-02 21:58:22.46	117.22	12.09	-35.8	-38.2	13.9	3.29e-02	0	56	0	1279262720	42	4946
2026-01-02 21:58:23.47	117.39	12.04	-35.5	-38.3	13.6	2.28e-01	2	57	0	1282408448	40	5648
2026-01-02 21:58:24.48	117.56	11.99	-35.8	-38.2	12.8	1.28e-01	0	57	0	1285554176	41	5261
2026-01-02 21:58:25.49	117.72	11.94	-35.9	-38.2	14.3	4.71e-02	0	57	0	1288699904	42	4962
2026-01-02 21:58:26.50	117.89	11.90	-34.6	-38.3	11.9	6.55e-02	0	57	0	1291845632	38	6319
2026-01-02 21:58:27.51	118.06	11.85	-36.1	-38.5	12.8	2.89e-02	0	57	0	1294991360	42	5133
2026-01-02 21:58:28.52	118.22	11.80	-35.8	-38.4	12.8	4.15e-02	0	56	0	1298137088	41	5353
2026-01-02 21:58:29.53	118.39	11.75	-35.4	-38.2	12.9	5.73e-02	0	56	0	1301282816	41	5279
2026-01-02 21:58:30.54	118.55	11.70	-36.0	-39.1	5.2	7.25e-02	0	57	104	1303379968	42	5495
2026-01-02 21:58:31.55	118.72	11.65	-35.2	-38.7	11.4	1.21e+00	6	57	104	1303379968	39	6210
2026-01-02 21:58:32.56	118.88	11.60	-28.8	-37.9	10.5	1.25e+00	9	57	104	1304428544	39	5695
2026-01-02 21:58:33.57	119.04	11.55	-22.4	-34.3	4.2	1.42e+00	0	57	104	1304428544	16	14051
2026-01-02 21:58:34.58	119.21	11.50	-25.6	-35.9	5.4	1.29e+00	0	57	104	1304428544	22	11984
2026-01-02 21:58:35.59	119.37	11.46	-27.1	-36.4	6.3	5.30e-01	4	57	0	1305477120	31	7591
2026-01-02 21:58:36.60	119.53	11.41	-31.3	-37.2	6.8	1.07e+00	20	57	104	1306525696	30	8829
2026-01-02 21:58:37.61	119.69	11.36	-32.2	-37.7	8.1	1.11e+00	6	57	0	1306525696	32	8297
2026-01-02 21:58:38.62	119.85	11.31	-24.9	-37.4	4.4	9.33e-01	0	57	104	1306525696	21	15088
2026-01-02 21:58:39.63	120.01	11.26	-27.7	-37.6	4.2	1.46e+00	0	57	104	1306525696	16	20695
2026-01-02 21:58:40.64	120.17	11.21	-31.5	-38.4	7.7	9.28e-01	11	57	0	1306525696	30	10135
2026-01-02 21:58:41.65	120.33	11.16	-33.3	-39.2	7.9	4.49e-01	2	57	0	1306525696	33	9350
2026-01-02 21:58:42.66	120.49	11.11	-26.0	-38.1	7.8	1.41e+00	13	57	104	1306525696	28	11021
2026-01-02 21:58:43.67	120.65	11.06	-25.5	-38.5	4.6	1.22e+00	0	57	104	1306525696	22	16201
2026-01-02 21:58:44.68	120.80	11.01	-23.0	-36.6	4.5	1.43e+00	0	57	104	1306525696	22	13007
2026-01-02 21:58:45.69	120.96	10.96	-34.2	-37.6	10.8	2.06e-01	9	57	0	1307574272	28	10312
2026-01-02 21:58:46.70	121.12	10.90	-31.4	-38.2	5.1	6.45e-01	0	56	104	1308622848	30	9844
2026-01-02 21:58:47.71	121.27	10.85	-31.4	-38.7	7.1	1.47e+00	7	57	104	1308622848	34	8338
2026-01-02 21:58:48.72	121.43	10.80	-22.0	-32.0	3.9	1.43e+00	0	57	104	1308622848	16	10780
2026-01-02 21:58:49.73	121.58	10.75	-34.2	-39.0	4.9	1.42e+00	0	57	104	1308622848	40	6066
2026-01-02 21:58:50.74	121.74	10.70	-31.5	-36.6	5.3	1.38e-01	3	57	0	1308622848	26	10378
2026-01-02 21:58:51.74	121.89	10.65	-27.2	-36.4	5.9	5.10e-01	2	57	0	1310720000	27	9555
2026-01-02 21:58:52.75	122.04	10.60	-28.9	-37.1	7.4	6.77e-01	2	57	0	1310720000	26	10910
2026-01-02 21:58:53.76	122.20	10.55	-25.0	-34.7	5.7	2.45e-01	4	57	0	1311768576	32	5904
2026-01-02 21:58:54.77	122.35	10.50	-30.9	-37.1	7.4	9.27e-01	5	57	104	1311768576	28	9814
2026-01-02 21:58:55.78	122.50	10.45	-32.6	-39.2	8.6	5.72e-02	0	57	0	1311768576	40	6223
2026-01-02 21:58:56.79	122.65	10.40	-33.7	-40.3	11.1	1.11e+00	5	57	104	1312817152	46	4990
2026-01-02 21:58:57.80	122.80	10.34	-37.9	-41.8	4.8	1.35e+00	0	57	104	1313865728	44	6713
2026-01-02 21:58:58.81	122.95	10.29	-36.3	-40.5	10.3	1.41e-01	0	57	0	1314914304	41	6860
2026-01-02 21:58:59.82	123.10	10.24	-36.5	-40.5	9.1	2.97e-02	0	57	0	1318060032	40	7218
2026-01-02 21:59:00.83	123.25	10.19	-35.5	-40.4	12.3	5.10e-02	0	57	0	1321205760	44	5720
2026-01-02 21:59:01.84	123.40	10.14	-34.6	-39.9	14.0	1.71e-02	0	57	0	1324351488	45	5048
2026-01-02 21:59:02.85	123.55	10.09	-35.4	-38.5	13.9	1.54e-02	0	57	0	1327497216	41	5419
2026-01-02 21:59:03.86	123.70	10.04	-36.0	-38.1	14.7	4.22e-03	0	57	0	1330642944	42	4885
2026-01-02 21:59:04.87	123.84	9.98	-36.5	-38.6	12.8	4.57e-03	0	57	0	1333788672	41	5475
2026-01-02 21:59:05.88	123.99	9.93	-36.6	-38.8	13.8	2.61e-02	0	57	0	1336934400	38	6702
2026-01-02 21:59:06.89	124.14	9.88	-35.6	-38.8	4.6	4.08e-01	0	57	104	1340080128	33	8922
2026-01-02 21:59:07.90	124.28	9.83	-36.5	-39.3	5.1	1.39e+00	0	57	104	1340080128	43	5324
2026-01-02 21:59:08.91	124.43	9.78	-21.4	-33.6	4.3	1.42e+00	0	57	104	1340080128	22	9184
2026-01-02 21:59:09.92	124.57	9.72	-35.5	-38.4	11.2	1.45e-01	10	57	0	1341128704	40	5678
2026-01-02 21:59:10.93	124.72	9.67	-31.4	-38.4	4.4	1.87e-01	0	57	104	1343225856	26	12796
2026-01-02 21:59:11.94	124.86	9.62	-31.4	-38.0	8.7	9.58e-01	42	57	0	1343225856	33	8121
2026-01-02 21:59:12.95	125.00	9.57	-31.9	-37.5	8.3	8.34e-01	6	57	0	1343225856	29	9668
2026-01-02 21:59:13.96	125.15	9.52	-28.2	-37.9	4.8	1.42e+00	0	57	104	1343225856	28	10696
2026-01-02 21:59:14.97	125.29	9.46	-27.6	-37.3	4.9	1.42e+00	0	57	104	1343225856	27	10655
2026-01-02 21:59:15.98	125.43	9.41	-28.9	-37.6	5.0	1.43e+00	0	57	104	1343225856	30	9230
2026-01-02 21:59:16.99	125.57	9.36	-21.6	-32.1	4.1	1.45e+00	0	57	104	1343225856	19	9269
2026-01-02 21:59:18.00	125.71	9.31	-21.1	-32.0	4.2	1.45e+00	0	57	104	1343225856	16	10843
2026-01-02 21:59:19.01	125.85	9.25	-32.6	-41.7	5.2	1.43e+00	0	57	104	1343225856	31	14007
2026-01-02 21:59:20.02	125.99	9.20	-21.9	-32.5	3.8	1.47e+00	0	57	104	1343225856	13	13713
2026-01-02 21:59:21.03	126.13	9.15	-20.1	-29.6	3.6	1.51e+00	0	57	104	1343225856	6	14543
2026-01-02 21:59:22.03	126.27	9.10	-18.8	-31.2	3.8	1.49e+00	0	57	104	1343225856	16	9834
2026-01-02 21:59:23.05	126.41	9.04	-17.5	-27.6	3.8	1.51e+00	0	57	104	1343225856	5	12324
2026-01-02 21:59:24.05	126.54	8.99	-18.8	-32.5	3.7	1.51e+00	0	57	104	1343225856	10	16183
2026-01-02 21:59:25.06	126.68	8.94	-19.4	-31.3	3.5	1.51e+00	0	57	104	1343225856	11	13265
2026-01-02 21:59:26.07	126.82	8.89	-16.3	-26.3	3.9	1.51e+00	0	57	104	1343225856	4	11170
2026-01-02 21:59:27.08	126.96	8.83	-15.3	-25.1	3.8	1.51e+00	0	57	104	1343225856	1	11613
2026-01-02 21:59:28.09	127.09	8.78	-15.3	-24.9	4.0	1.51e+00	0	57	104	1343225856	1	11348
2026-01-02 21:59:29.11	127.23	8.73	-18.9	-27.5	4.0	1.51e+00	0	57	104	1343225856	3	13694
2026-01-02 21:59:30.12	127.36	8.67	-24.7	-34.5	3.9	1.49e+00	0	57	104	1343225856	14	16264
2026-01-02 21:59:31.13	127.50	8.62	-21.4	-30.8	3.7	1.49e+00	0	57	104	1343225856	10	13372
2026-01-02 21:59:32.14	127.63	8.57	-19.5	-29.4	3.5	1.49e+00	0	57	104	1343225856	7	13531
2026-01-02 21:59:33.15	127.77	8.52	-23.0	-33.3	3.5	1.50e+00	0	57	104	1343225856	10	17731
2026-01-02 21:59:34.16	127.90	8.46	-19.7	-31.9	3.2	1.49e+00	0	57	104	1343225856	11	14225
2026-01-02 21:59:35.17	128.03	8.41	-21.9	-32.2	3.7	1.50e+00	0	57	104	1343225856	10	15631
2026-01-02 21:59:36.18	128.16	8.36	-19.6	-32.0	3.5	1.50e+00	0	57	104	1343225856	12	13621
2026-01-02 21:59:37.19	128.29	8.30	-14.8	-24.0	3.7	1.50e+00	0	57	104	1343225856	6	7643
2026-01-02 21:59:38.20	128.43	8.25	-19.9	-33.0	3.2	1.50e+00	0	57	104	1343225856	13	14416
2026-01-02 21:59:39.21	128.56	8.20	-21.1	-32.4	3.2	1.50e+00	0	57	104	1343225856	10	15978
2026-01-02 21:59:40.21	128.69	8.15	-13.6	-26.2	3.6	1.49e+00	0	57	104	1343225856	4	11069
2026-01-02 21:59:41.22	128.82	8.09	-21.6	-32.3	3.3	1.51e+00	0	57	104	1343225856	12	14097
2026-01-02 21:59:42.23	128.94	8.04	-20.6	-31.7	3.3	1.50e+00	0	57	104	1343225856	9	15655
2026-01-02 21:59:43.24	129.07	7.99	-28.3	-40.5	3.9	1.51e+00	0	57	104	1343225856	27	15335
2026-01-02 21:59:44.26	129.20	7.93	-42.6	-56.0	3.8	1.49e+00	0	57	104	1343225856	57	16204
2026-01-02 21:59:45.27	129.33	7.88	-44.6	-56.8	3.8	1.49e+00	0	57	104	1343225856	59	15903
2026-01-02 21:59:46.28	129.46	7.83	-44.8	-57.2	3.8	1.49e+00	0	57	104	1343225856	60	15722
2026-01-02 21:59:47.29	129.59	7.77	-45.0	-57.3	3.8	1.49e+00	0	57	104	1343225856	60	15943
2026-01-02 21:59:48.30	129.71	7.72	-45.1	-57.4	3.8	1.49e+00	0	57	104	1343225856	60	16023
2026-01-02 21:59:49.31	129.84	7.67	-45.1	-57.5	3.8	1.49e+00	0	57	104	1343225856	60	16264
2026-01-02 21:59:50.32	129.97	7.61	-45.2	-57.6	3.8	1.49e+00	0	57	104	1343225856	60	16380
2026-01-02 21:59:51.33	130.09	7.56	-45.2	-57.6	3.8	1.49e+00	0	57	104	1343225856	61	15477
2026-01-02 21:59:52.34	130.22	7.51	-45.2	-57.6	3.8	1.49e+00	0	57	104	1343225856	61	15448
2026-01-02 21:59:53.35	130.34	7.45	-45.2	-57.5	3.8	1.49e+00	0	57	104	1343225856	61	15320
2026-01-02 21:59:54.36	130.46	7.40	-45.1	-57.4	3.8	1.49e+00	0	57	104	1343225856	61	15116
2026-01-02 21:59:55.38	130.59	7.35	-45.0	-57.3	3.8	1.49e+00	0	57	104	1343225856	61	15002
2026-01-02 21:59:56.39	130.71	7.29	-45.0	-57.3	3.8	1.49e+00	0	57	104	1343225856	61	14916
2026-01-02 21:59:57.40	130.83	7.24	-45.0	-57.3	3.8	1.49e+00	0	57	104	1343225856	61	14901
2026-01-02 21:59:58.41	130.96	7.19	-44.9	-57.3	3.8	1.49e+00	0	57	104	1343225856	61	14904
2026-01-02 21:59:59.42	131.08	7.14	-44.9	-57.2	3.8	1.49e+00	0	57	104	1343225856	61	14802
2026-01-02 22:00:00.43	131.20	7.08	-44.9	-57.2	3.8	1.49e+00	0	57	104	1343225856	61	14796
2026-01-02 22:00:01.44	131.32	7.03	-44.9	-57.2	3.8	1.49e+00	0	57	104	1343225856	61	14804
2026-01-02 22:00:02.45	131.44	6.98	-44.9	-57.2	3.8	1.49e+00	0	57	104	1343225856	61	14795
2026-01-02 22:00:03.46	131.56	6.92	-44.9	-57.2	3.8	1.49e+00	0	57	104	1343225856	61	14764
2026-01-02 22:00:04.48	131.68	6.87	-44.9	-57.2	3.8	1.49e+00	0	57	104	1343225856	61	14772
2026-01-02 22:00:05.49	131.80	6.82	-44.9	-57.2	3.8	1.49e+00	0	57	104	1343225856	61	14750
2026-01-02 22:00:06.50	131.92	6.76	-44.9	-57.2	3.8	1.49e+00	0	57	104	1343225856	61	14765
2026-01-02 22:00:07.51	132.04	6.71	-44.9	-57.2	3.8	1.49e+00	0	57	104	1343225856	61	14770
2026-01-02 22:00:08.52	132.16	6.66	-44.9	-57.2	3.8	1.49e+00	0	57	104	1343225856	61	14799
2026-01-02 22:00:09.53	132.28	6.60	-44.9	-57.2	3.8	1.49e+00	0	57	104	1343225856	61	14801
2026-01-02 22:00:10.54	132.39	6.55	-44.9	-57.2	3.8	1.49e+00	0	57	104	1343225856	61	14771
2026-01-02 22:00:11.55	132.51	6.50	-44.9	-57.2	3.8	1.49e+00	0	57	104	1343225856	61	14754
2026-01-02 22:00:12.56	132.63	6.44	-44.9	-57.2	3.8	1.49e+00	0	57	104	1343225856	61	14779
2026-01-02 22:00:13.57	132.74	6.39	-44.9	-57.2	3.8	1.49e+00	0	57	104	1343225856	61	14725
2026-01-02 22:00:14.59	132.86	6.34	-44.9	-57.2	3.8	1.49e+00	0	57	104	1343225856	61	14776
2026-01-02 22:00:15.60	132.97	6.28	-44.9	-57.2	3.8	1.49e+00	0	57	104	1343225856	61	14739
2026-01-02 22:00:16.61	133.09	6.23	-44.9	-57.2	3.8	1.49e+00	0	57	104	1343225856	61	14759
2026-01-02 22:00:17.62	133.20	6.18	-44.9	-57.2	3.8	1.49e+00	0	57	104	1343225856	61	14741
2026-01-02 22:00:18.63	133.32	6.13	-44.9	-57.2	3.8	1.49e+00	0	57	104	1343225856	61	14760
2026-01-02 22:00:19.64	133.43	6.07	-44.9	-57.2	3.8	1.49e+00	0	57	104	1343225856	61	14806
2026-01-02 22:00:20.65	133.54	6.02	-44.9	-57.2	3.8	1.49e+00	0	57	104	1343225856	61	14782
2026-01-02 22:00:21.66	133.66	5.97	-44.9	-57.2	3.8	1.49e+00	0	57	104	1343225856	61	14758
2026-01-02 22:00:22.67	133.77	5.91	-44.9	-57.2	3.8	1.49e+00	0	57	104	1343225856	61	14710
2026-01-02 22:00:23.68	133.88	5.86	-44.9	-57.1	3.8	1.49e+00	0	57	104	1343225856	61	14704
2026-01-02 22:00:24.70	133.99	5.81	-44.9	-57.2	3.8	1.49e+00	0	57	104	1343225856	61	14729
2026-01-02 22:00:25.71	134.11	5.75	-44.9	-57.2	3.8	1.49e+00	0	57	104	1343225856	61	14731
2026-01-02 22:00:26.72	134.22	5.70	-44.9	-57.2	3.8	1.49e+00	0	57	104	1343225856	61	14735
2026-01-02 22:00:27.73	134.33	5.65	-44.9	-57.2	3.8	1.49e+00	0	57	104	1343225856	61	14734
2026-01-02 22:00:28.74	134.44	5.60	-44.9	-57.2	3.8	1.49e+00	0	57	104	1343225856	61	14771
2026-01-02 22:00:29.75	134.55	5.54	-44.8	-57.2	3.8	1.49e+00	0	57	104	1343225856	61	14729
2026-01-02 22:00:30.76	134.66	5.49	-44.9	-57.2	3.8	1.49e+00	0	57	104	1343225856	61	14736
2026-01-02 22:00:31.77	134.76	5.44	-44.9	-57.2	3.8	1.49e+00	0	57	104	1343225856	61	14763
2026-01-02 22:00:32.78	134.87	5.38	-44.9	-57.2	3.8	1.49e+00	0	57	104	1343225856	61	14736
2026-01-02 22:00:33.79	134.98	5.33	-44.9	-57.2	3.8	1.49e+00	0	57	104	1343225856	61	14745
2026-01-02 22:00:34.80	135.09	5.28	-44.9	-57.2	3.8	1.49e+00	0	57	104	1343225856	61	14799
2026-01-02 22:00:35.81	135.20	5.23	-44.9	-57.2	3.8	1.49e+00	0	57	104	1343225856	61	14738
2026-01-02 22:00:36.83	135.30	5.17	-44.9	-57.2	3.8	1.49e+00	0	57	104	1343225856	61	14771
2026-01-02 22:00:37.84	135.41	5.12	-44.9	-57.2	3.8	1.49e+00	0	57	104	1343225856	61	14747
2026-01-02 22:00:38.85	135.52	5.07	-44.9	-57.2	3.8	1.49e+00	0	57	104	1343225856	61	14756
2026-01-02 22:00:39.86	135.62	5.02	-44.8	-57.2	3.8	1.49e+00	0	57	104	1343225856	61	14752
2026-01-02 22:00:40.87	135.73	4.96	-44.9	-57.2	3.8	1.49e+00	0	57	104	1343225856	61	14718
2026-01-02 22:00:41.88	135.83	4.91	-44.9	-57.2	3.8	1.49e+00	0	57	104	1343225856	61	14727
2026-01-02 22:00:42.89	135.94	4.86	-44.9	-57.2	3.8	1.49e+00	0	57	104	1343225856	61	14744
2026-01-02 22:00:43.90	136.04	4.81	-44.9	-57.2	3.8	1.49e+00	0	57	104	1343225856	61	14725
2026-01-02 22:00:44.91	136.15	4.75	-44.9	-57.2	3.8	1.49e+00	0	57	104	1343225856	61	14766
2026-01-02 22:00:45.92	136.25	4.70	-44.9	-57.2	3.8	1.49e+00	0	57	104	1343225856	61	14724
2026-01-02 22:00:46.94	136.36	4.65	-44.9	-57.2	3.8	1.49e+00	0	57	104	1343225856	61	14731
2026-01-02 22:00:47.95	136.46	4.60	-44.9	-57.2	3.8	1.49e+00	0	57	104	1343225856	61	14729
2026-01-02 22:00:48.96	136.56	4.54	-44.9	-57.1	3.8	1.49e+00	0	57	104	1343225856	61	14689
2026-01-02 22:00:49.97	136.66	4.49	-44.9	-57.2	3.8	1.49e+00	0	57	104	1343225856	61	14771
2026-01-02 22:00:50.98	136.77	4.44	-44.9	-57.2	3.8	1.49e+00	0	57	104	1343225856	61	14753
2026-01-02 22:00:51.99	136.87	4.39	-44.9	-57.2	3.8	1.49e+00	0	57	104	1343225856	61	14720
2026-01-02 22:00:53.00	136.97	4.33	-44.9	-57.1	3.8	1.49e+00	0	57	104	1343225856	61	14703
2026-01-02 22:00:54.01	137.07	4.28	-44.9	-57.2	3.8	1.49e+00	0	57	104	1343225856	61	14722
2026-01-02 22:00:55.02	137.17	4.23	-44.9	-57.1	3.8	1.49e+00	0	57	104	1343225856	61	14700
2026-01-02 22:00:56.03	137.27	4.18	-44.9	-57.1	3.8	1.49e+00	0	57	104	1343225856	61	14698
2026-01-02 22:00:57.04	137.37	4.13	-44.9	-57.2	3.8	1.49e+00	0	57	104	1343225856	61	14725
2026-01-02 22:00:58.05	137.47	4.07	-44.8	-57.1	3.8	1.49e+00	0	57	104	1343225856	61	14705
2026-01-02 22:00:59.06	137.57	4.02	-44.9	-57.2	3.8	1.49e+00	0	57	104	1343225856	61	14732
2026-01-02 22:01:00.07	137.67	3.97	-44.9	-57.2	3.8	1.49e+00	0	57	104	1343225856	61	14768
2026-01-02 22:01:01.09	137.77	3.92	-44.9	-57.2	3.8	1.49e+00	0	57	104	1343225856	60	15595
2026-01-02 22:01:02.09	137.87	3.86	-44.9	-57.2	3.8	1.49e+00	0	57	104	1343225856	60	15587
2026-01-02 22:01:03.11	137.96	3.81	-44.9	-57.2	3.8	1.49e+00	0	57	104	1343225856	60	15592
2026-01-02 22:01:04.12	138.06	3.76	-44.9	-57.2	3.8	1.49e+00	0	57	104	1343225856	60	15616
2026-01-02 22:01:05.13	138.16	3.71	-44.9	-57.2	3.8	1.49e+00	0	57	104	1343225856	60	15632
2026-01-02 22:01:06.14	138.26	3.66	-44.9	-57.1	3.8	1.49e+00	0	57	104	1343225856	60	15560
2026-01-02 22:01:07.15	138.35	3.60	-44.9	-57.2	3.8	1.49e+00	0	57	104	1343225856	60	15613
2026-01-02 22:01:08.16	138.45	3.55	-44.9	-57.2	3.8	1.49e+00	0	57	104	1343225856	60	15596
2026-01-02 22:01:09.17	138.54	3.50	-44.9	-57.2	3.8	1.49e+00	0	57	104	1343225856	60	15628
2026-01-02 22:01:10.18	138.64	3.45	-44.9	-57.2	3.8	1.49e+00	0	57	104	1343225856	60	15663
2026-01-02 22:01:11.20	138.74	3.40	-44.9	-57.2	3.8	1.49e+00	0	57	104	1343225856	60	15608
2026-01-02 22:01:12.21	138.83	3.35	-44.9	-57.2	3.8	1.49e+00	0	57	104	1343225856	60	15645
2026-01-02 22:01:13.22	138.93	3.29	-44.9	-57.2	3.8	1.49e+00	0	57	104	1343225856	60	15595
2026-01-02 22:01:14.23	139.02	3.24	-44.8	-57.1	3.8	1.49e+00	0	57	104	1343225856	60	15549
2026-01-02 22:01:15.24	139.11	3.19	-44.9	-57.2	3.8	1.49e+00	0	57	104	1343225856	60	15622
2026-01-02 22:01:16.25	139.21	3.14	-44.9	-57.2	3.8	1.49e+00	0	57	104	1343225856	60	15605
2026-01-02 22:01:17.26	139.30	3.09	-44.9	-57.1	3.8	1.49e+00	0	57	104	1343225856	60	15561
2026-01-02 22:01:18.27	139.39	3.04	-44.9	-57.2	3.8	1.49e+00	0	58	104	1343225856	60	15604
2026-01-02 22:01:19.28	139.49	2.98	-44.9	-57.2	3.8	1.49e+00	0	57	104	1343225856	60	15620
2026-01-02 22:01:20.30	139.58	2.93	-44.9	-57.2	3.8	1.49e+00	0	57	104	1343225856	60	15609
2026-01-02 22:01:21.31	139.67	2.88	-44.9	-57.1	3.8	1.49e+00	0	57	104	1343225856	60	15567
2026-01-02 22:01:22.32	139.76	2.83	-44.9	-57.2	3.8	1.49e+00	0	57	104	1343225856	60	15614
2026-01-02 22:01:23.33	139.86	2.78	-44.8	-57.2	3.8	1.49e+00	0	57	104	1343225856	60	15604
