passes_logs/2026/01/02/R2.0S_Moscow/R2.0S_Moscow__20260102_012858_NOAA_21_JPSS-2_rec.log

#Pass ID: 20260102_012858_NOAA 21 (JPSS-2)
#Satellite: NOAA 21 (JPSS-2)
#Configuration: NOAA-21
#almurnet v.1.7.20251203
#Start time: 2026-01-02 01:33:47

#Version: 2.2.20231116
#Station: R2.0S_Moscow
#Location: 37.707566 lon 55.798166 lat
#TLE: 1 54234U 22150A   26001.26806856  .00000185  00000+0  10843-3 0  9990
#TLE: 2 54234  98.7484 302.3349 0001277 353.3887   6.7272 14.19530660162860

#Time	Az	El	Level	Level2	SNR	BER	BlckErr	Temp	State	Recorded	gain1	gain2
2026-01-02 01:33:47.04	330.88	18.94	-44.7	-56.3	3.8	8.46e-01	0	57	0	0	60	14099
2026-01-02 01:33:48.05	330.65	18.99	-45.0	-57.3	3.8	1.49e+00	0	57	104	0	61	14976
2026-01-02 01:33:49.06	330.42	19.03	-44.9	-57.3	3.8	1.49e+00	0	57	104	0	61	14950
2026-01-02 01:33:50.07	330.19	19.07	-44.9	-57.3	3.8	1.49e+00	0	57	104	0	61	14958
2026-01-02 01:33:51.08	329.96	19.11	-44.9	-57.2	3.8	1.49e+00	0	57	104	0	61	14802
2026-01-02 01:33:52.09	329.73	19.15	-44.8	-57.1	3.8	1.49e+00	0	57	104	0	61	14662
2026-01-02 01:33:53.10	329.50	19.19	-44.7	-57.0	3.8	1.49e+00	0	57	104	0	61	14487
2026-01-02 01:33:54.11	329.27	19.24	-44.6	-56.9	3.8	1.49e+00	0	57	104	0	61	14279
2026-01-02 01:33:55.13	329.03	19.28	-44.6	-56.9	3.8	1.49e+00	0	57	104	0	61	14224
2026-01-02 01:33:56.14	328.80	19.32	-44.5	-56.9	3.8	1.49e+00	0	57	104	0	61	14256
2026-01-02 01:33:57.15	328.56	19.36	-44.5	-56.9	3.8	1.49e+00	0	57	104	0	61	14239
2026-01-02 01:33:58.16	328.33	19.39	-44.5	-56.8	3.8	1.49e+00	0	58	104	0	61	14209
2026-01-02 01:33:59.17	328.09	19.43	-44.5	-56.9	3.8	1.49e+00	0	57	104	0	61	14229
2026-01-02 01:34:00.18	327.86	19.47	-44.5	-56.8	3.8	1.49e+00	0	58	104	0	61	14184
2026-01-02 01:34:01.19	327.62	19.51	-44.5	-56.8	3.8	1.49e+00	0	57	104	0	61	14197
2026-01-02 01:34:02.20	327.38	19.55	-44.5	-56.8	3.8	1.49e+00	0	57	104	0	61	14208
2026-01-02 01:34:03.21	327.14	19.58	-44.5	-56.8	3.8	1.49e+00	0	57	104	0	61	14177
2026-01-02 01:34:04.22	326.91	19.62	-44.5	-56.8	3.8	1.49e+00	0	57	104	0	61	14157
2026-01-02 01:34:05.23	326.67	19.65	-44.5	-56.8	3.8	1.49e+00	0	57	104	0	61	14178
2026-01-02 01:34:06.24	326.43	19.69	-44.5	-56.9	3.8	1.49e+00	0	57	104	0	61	14221
2026-01-02 01:34:07.25	326.19	19.72	-44.5	-56.8	3.8	1.49e+00	0	57	104	0	61	14173
2026-01-02 01:34:08.27	325.94	19.76	-44.5	-56.8	3.8	1.49e+00	0	57	104	0	61	14205
2026-01-02 01:34:09.28	325.70	19.79	-44.5	-56.8	3.8	1.49e+00	0	58	104	0	61	14155
2026-01-02 01:34:10.29	325.46	19.83	-44.5	-56.9	3.8	1.49e+00	0	57	104	0	61	14215
2026-01-02 01:34:11.30	325.22	19.86	-44.5	-56.8	3.8	1.49e+00	0	57	104	0	61	14154
2026-01-02 01:34:12.31	324.97	19.89	-44.5	-56.8	3.8	1.49e+00	0	58	104	0	61	14180
2026-01-02 01:34:13.32	324.73	19.92	-44.5	-56.8	3.8	1.49e+00	0	57	104	0	61	14114
2026-01-02 01:34:14.33	324.49	19.95	-44.5	-56.8	3.8	1.49e+00	0	57	104	0	61	14140
2026-01-02 01:34:15.34	324.24	19.98	-44.5	-56.8	3.8	1.49e+00	0	57	104	0	61	14184
2026-01-02 01:34:16.35	324.00	20.02	-44.5	-56.8	3.8	1.49e+00	0	58	104	0	61	14185
2026-01-02 01:34:17.37	323.75	20.05	-44.5	-56.7	3.8	1.49e+00	0	57	104	0	61	14043
2026-01-02 01:34:18.38	323.50	20.07	-44.5	-56.8	3.8	1.49e+00	0	57	104	0	61	14057
2026-01-02 01:34:19.39	323.26	20.10	-44.5	-56.7	3.8	1.49e+00	0	57	104	0	61	13992
2026-01-02 01:34:20.40	323.01	20.13	-44.5	-56.7	3.8	1.49e+00	0	58	104	0	61	13887
2026-01-02 01:34:21.41	322.76	20.16	-44.5	-56.5	3.8	1.49e+00	0	58	104	0	61	13649
2026-01-02 01:34:22.42	322.51	20.19	-44.4	-56.3	3.8	1.49e+00	0	57	104	0	60	14052
2026-01-02 01:34:23.43	322.27	20.21	-44.4	-56.2	3.8	1.49e+00	0	57	104	0	60	13965
2026-01-02 01:34:24.44	322.02	20.24	-44.5	-56.3	3.8	1.49e+00	0	57	104	0	60	14127
2026-01-02 01:34:25.45	321.77	20.26	-44.5	-56.7	3.8	1.49e+00	0	57	104	0	60	14723
2026-01-02 01:34:26.46	321.52	20.29	-44.5	-56.8	3.8	1.49e+00	0	57	104	0	60	15005
2026-01-02 01:34:27.47	321.27	20.31	-44.5	-56.7	3.8	1.49e+00	0	58	104	0	60	14827
2026-01-02 01:34:28.48	321.02	20.34	-44.5	-56.6	3.8	1.49e+00	0	57	104	0	60	14543
2026-01-02 01:34:29.50	320.77	20.36	-44.5	-56.5	3.8	1.49e+00	0	58	104	0	60	14505
2026-01-02 01:34:30.51	320.51	20.38	-44.5	-56.5	3.8	1.49e+00	0	57	104	0	60	14473
2026-01-02 01:34:31.52	320.26	20.41	-44.4	-56.3	3.8	1.49e+00	0	58	104	0	60	14055
2026-01-02 01:34:32.53	320.01	20.43	-44.4	-56.2	3.8	1.49e+00	0	58	104	0	60	13913
2026-01-02 01:34:33.54	319.76	20.45	-44.5	-56.4	3.8	1.49e+00	0	58	104	0	60	14349
2026-01-02 01:34:34.55	319.51	20.47	-44.3	-54.9	3.9	1.49e+00	0	58	104	0	60	11977
2026-01-02 01:34:35.56	319.25	20.49	-43.4	-49.2	6.3	8.24e-01	0	58	0	0	58	7040
2026-01-02 01:34:36.57	319.00	20.51	-41.2	-44.5	10.8	1.34e-02	0	57	0	3145728	54	5105
2026-01-02 01:34:37.59	318.74	20.53	-39.1	-41.2	14.3	7.60e-06	0	57	0	6291456	50	4401
2026-01-02 01:34:38.60	318.49	20.55	-37.2	-38.8	16.5	0.00e+00	0	57	0	9437184	46	4212
2026-01-02 01:34:39.61	318.24	20.56	-36.0	-37.4	17.9	0.00e+00	0	57	0	12582912	44	4019
2026-01-02 01:34:40.62	317.98	20.58	-35.4	-36.6	18.5	0.00e+00	0	58	0	15728640	42	4141
2026-01-02 01:34:41.63	317.73	20.60	-36.6	-38.1	17.2	0.00e+00	0	57	0	18874368	43	4624
2026-01-02 01:34:42.64	317.47	20.61	-38.4	-40.3	15.1	0.00e+00	0	57	0	22020096	47	4734
2026-01-02 01:34:43.65	317.22	20.63	-36.2	-37.6	17.7	0.00e+00	0	57	0	25165824	43	4369
2026-01-02 01:34:44.66	316.96	20.64	-38.5	-40.4	15.1	0.00e+00	0	57	0	28311552	48	4542
2026-01-02 01:34:45.67	316.70	20.66	-37.6	-39.4	16.2	0.00e+00	0	57	0	31457280	45	4763
2026-01-02 01:34:46.67	316.45	20.67	-37.3	-38.9	16.4	2.05e-05	0	57	0	34603008	46	4266
2026-01-02 01:34:47.69	316.19	20.68	-35.9	-37.3	17.9	0.00e+00	0	58	0	37748736	43	4200
2026-01-02 01:34:48.70	315.94	20.70	-35.8	-37.2	18.0	0.00e+00	0	58	0	40894464	43	4152
2026-01-02 01:34:49.71	315.68	20.71	-35.6	-36.9	18.2	0.00e+00	0	57	0	44040192	43	4022
2026-01-02 01:34:50.72	315.42	20.72	-35.6	-36.9	18.2	0.00e+00	0	57	0	47185920	43	4042
2026-01-02 01:34:51.73	315.16	20.73	-35.6	-37.0	18.1	0.00e+00	0	57	0	50331648	43	4074
2026-01-02 01:34:52.74	314.91	20.74	-35.7	-37.0	18.1	0.00e+00	0	57	0	53477376	43	4098
2026-01-02 01:34:53.75	314.65	20.75	-35.7	-37.1	18.1	0.00e+00	0	57	0	56623104	43	4102
2026-01-02 01:34:54.76	314.39	20.76	-35.5	-36.9	18.3	0.00e+00	0	57	0	59768832	43	4011
2026-01-02 01:34:55.77	314.13	20.77	-35.5	-36.9	18.3	0.00e+00	0	57	0	62914560	43	4011
2026-01-02 01:34:56.78	313.88	20.77	-35.6	-36.9	18.2	0.00e+00	0	57	0	66060288	43	4023
2026-01-02 01:34:57.79	313.62	20.78	-35.6	-36.9	18.2	0.00e+00	0	57	0	69206016	43	4049
2026-01-02 01:34:58.80	313.36	20.79	-35.6	-36.9	18.2	0.00e+00	0	57	0	72351744	43	4038
2026-01-02 01:34:59.81	313.10	20.79	-35.6	-36.9	18.2	0.00e+00	0	57	0	75497472	43	4038
2026-01-02 01:35:00.82	312.84	20.80	-35.5	-36.8	18.3	0.00e+00	0	57	0	78643200	43	3999
2026-01-02 01:35:01.83	312.59	20.80	-35.5	-36.8	18.3	0.00e+00	0	57	0	81788928	42	4210
2026-01-02 01:35:02.83	312.33	20.81	-35.5	-36.8	18.4	0.00e+00	0	57	0	84934656	42	4208
2026-01-02 01:35:03.84	312.07	20.81	-35.4	-36.8	18.4	0.00e+00	0	57	0	88080384	42	4208
2026-01-02 01:35:04.85	311.81	20.81	-35.4	-36.7	18.4	0.00e+00	0	57	0	91226112	42	4158
2026-01-02 01:35:05.86	311.55	20.81	-35.3	-36.6	18.5	0.00e+00	0	57	0	94371840	42	4133
2026-01-02 01:35:06.87	311.30	20.81	-35.3	-36.6	18.5	0.00e+00	0	57	0	97517568	42	4138
2026-01-02 01:35:07.88	311.04	20.82	-35.3	-36.6	18.5	0.00e+00	0	57	0	100663296	42	4139
2026-01-02 01:35:08.89	310.78	20.82	-35.4	-36.7	18.4	0.00e+00	0	57	0	103809024	42	4166
2026-01-02 01:35:09.90	310.52	20.81	-35.4	-36.7	18.4	0.00e+00	0	57	0	106954752	42	4164
2026-01-02 01:35:10.91	310.26	20.81	-35.4	-36.7	18.5	0.00e+00	0	57	0	110100480	42	4150
2026-01-02 01:35:11.92	310.00	20.81	-35.3	-36.5	18.6	0.00e+00	0	57	0	113246208	42	4091
2026-01-02 01:35:12.93	309.74	20.81	-35.2	-36.5	18.6	0.00e+00	0	57	0	116391936	42	4066
2026-01-02 01:35:13.94	309.48	20.81	-35.2	-36.4	18.6	0.00e+00	0	57	0	119537664	42	4051
2026-01-02 01:35:14.95	309.23	20.80	-35.2	-36.5	18.6	0.00e+00	0	57	0	122683392	42	4081
2026-01-02 01:35:15.97	308.96	20.80	-35.3	-36.6	18.5	0.00e+00	0	57	0	125829120	42	4138
2026-01-02 01:35:16.98	308.71	20.79	-35.4	-36.7	18.4	0.00e+00	0	57	0	128974848	42	4160
2026-01-02 01:35:17.99	308.45	20.79	-35.4	-36.7	18.4	0.00e+00	0	57	0	132120576	42	4173
2026-01-02 01:35:18.99	308.19	20.78	-35.5	-36.8	18.3	0.00e+00	0	57	0	135266304	42	4239
2026-01-02 01:35:20.00	307.93	20.78	-35.6	-37.0	18.1	0.00e+00	0	57	0	138412032	42	4311
2026-01-02 01:35:21.01	307.68	20.77	-35.7	-37.0	18.1	0.00e+00	0	57	0	141557760	42	4328
2026-01-02 01:35:22.02	307.42	20.76	-35.7	-37.1	18.1	0.00e+00	0	57	0	144703488	42	4347
2026-01-02 01:35:23.03	307.16	20.75	-35.6	-36.9	18.2	0.00e+00	0	57	0	147849216	42	4288
2026-01-02 01:35:24.04	306.90	20.74	-35.7	-37.0	18.1	0.00e+00	0	57	0	150994944	42	4331
2026-01-02 01:35:25.05	306.64	20.73	-35.7	-37.0	18.1	0.00e+00	0	57	0	154140672	42	4321
2026-01-02 01:35:26.06	306.39	20.72	-35.6	-37.0	18.2	0.00e+00	0	57	0	157286400	42	4301
2026-01-02 01:35:27.06	306.13	20.71	-35.5	-36.8	18.3	0.00e+00	0	57	0	160432128	42	4219
2026-01-02 01:35:28.08	305.87	20.70	-35.5	-36.8	18.3	0.00e+00	0	57	0	163577856	42	4215
2026-01-02 01:35:29.09	305.62	20.69	-35.5	-36.8	18.3	0.00e+00	0	57	0	166723584	42	4227
2026-01-02 01:35:30.10	305.36	20.68	-35.4	-36.7	18.4	0.00e+00	0	57	0	169869312	42	4168
2026-01-02 01:35:31.10	305.11	20.66	-35.4	-36.7	18.4	0.00e+00	0	57	0	173015040	42	4160
2026-01-02 01:35:32.11	304.85	20.65	-35.3	-36.6	18.5	0.00e+00	0	57	0	176160768	42	4131
2026-01-02 01:35:33.13	304.59	20.63	-35.4	-36.7	18.4	0.00e+00	0	57	0	179306496	42	4155
2026-01-02 01:35:34.14	304.34	20.62	-35.4	-36.7	18.4	0.00e+00	0	57	0	182452224	42	4193
2026-01-02 01:35:35.15	304.08	20.60	-35.4	-36.8	18.4	0.00e+00	0	57	0	186646528	42	4196
2026-01-02 01:35:36.16	303.83	20.59	-35.4	-36.7	18.4	0.00e+00	0	57	0	189792256	42	4188
2026-01-02 01:35:37.17	303.57	20.57	-35.4	-36.7	18.4	0.00e+00	0	57	0	192937984	42	4169
2026-01-02 01:35:38.18	303.32	20.55	-35.4	-36.7	18.4	0.00e+00	0	57	0	195035136	42	4174
2026-01-02 01:35:39.19	303.06	20.54	-35.4	-36.7	18.4	0.00e+00	0	57	0	198180864	42	4159
2026-01-02 01:35:40.20	302.81	20.52	-35.4	-36.7	18.3	0.00e+00	0	57	0	202375168	42	4191
2026-01-02 01:35:41.21	302.55	20.50	-35.5	-36.8	18.3	0.00e+00	0	57	0	205520896	42	4228
2026-01-02 01:35:42.22	302.30	20.48	-35.6	-36.9	18.2	0.00e+00	0	57	0	208666624	42	4271
2026-01-02 01:35:43.23	302.05	20.46	-35.6	-36.9	18.2	0.00e+00	0	57	0	211812352	42	4273
2026-01-02 01:35:44.24	301.79	20.44	-35.6	-36.9	18.2	0.00e+00	0	57	0	214958080	42	4272
2026-01-02 01:35:45.25	301.54	20.42	-35.5	-36.8	18.3	0.00e+00	0	57	0	218103808	42	4222
2026-01-02 01:35:46.26	301.29	20.39	-35.5	-36.8	18.3	0.00e+00	0	57	0	221249536	42	4223
2026-01-02 01:35:47.27	301.04	20.37	-35.5	-36.9	18.2	0.00e+00	0	57	0	224395264	42	4253
2026-01-02 01:35:48.28	300.79	20.35	-35.4	-36.8	18.4	0.00e+00	0	57	0	227540992	42	4201
2026-01-02 01:35:49.29	300.54	20.32	-35.4	-36.7	18.4	0.00e+00	0	57	0	230686720	42	4182
2026-01-02 01:35:50.30	300.29	20.30	-35.3	-36.6	18.5	0.00e+00	0	57	0	233832448	42	4120
2026-01-02 01:35:51.31	300.04	20.27	-35.3	-36.6	18.5	0.00e+00	0	57	0	236978176	42	4116
2026-01-02 01:35:52.32	299.79	20.25	-35.3	-36.6	18.5	0.00e+00	0	57	0	240123904	42	4129
2026-01-02 01:35:53.33	299.54	20.22	-35.3	-36.7	18.4	0.00e+00	0	57	0	243269632	42	4151
2026-01-02 01:35:54.34	299.29	20.20	-35.4	-36.8	18.3	0.00e+00	0	57	0	246415360	42	4203
2026-01-02 01:35:55.35	299.04	20.17	-35.5	-36.9	18.2	0.00e+00	0	58	0	249561088	42	4249
2026-01-02 01:35:56.36	298.79	20.14	-35.6	-36.9	18.2	0.00e+00	0	57	0	252706816	42	4278
2026-01-02 01:35:57.36	298.55	20.11	-35.6	-36.9	18.2	0.00e+00	0	57	0	255852544	42	4288
2026-01-02 01:35:58.38	298.30	20.09	-35.6	-37.0	18.1	0.00e+00	0	57	0	258998272	42	4308
2026-01-02 01:35:59.38	298.05	20.06	-35.7	-37.1	18.0	0.00e+00	0	57	0	262144000	42	4371
2026-01-02 01:36:00.39	297.81	20.03	-35.7	-37.1	18.0	0.00e+00	0	57	0	265289728	42	4391
2026-01-02 01:36:01.40	297.56	20.00	-35.9	-37.3	17.8	0.00e+00	0	57	0	268435456	42	4481
2026-01-02 01:36:02.40	297.32	19.97	-35.9	-37.3	17.8	0.00e+00	0	57	0	271581184	42	4476
2026-01-02 01:36:03.41	297.07	19.94	-35.8	-37.2	18.0	0.00e+00	0	57	0	274726912	42	4412
2026-01-02 01:36:04.42	296.83	19.90	-35.7	-37.1	18.0	0.00e+00	0	57	0	277872640	42	4375
2026-01-02 01:36:05.43	296.58	19.87	-35.6	-37.0	18.1	0.00e+00	0	57	0	281018368	42	4296
2026-01-02 01:36:06.43	296.34	19.84	-35.5	-36.8	18.3	0.00e+00	0	57	0	284164096	42	4220
2026-01-02 01:36:07.44	296.10	19.81	-35.5	-36.8	18.3	0.00e+00	0	57	0	287309824	42	4215
2026-01-02 01:36:08.45	295.86	19.77	-35.5	-36.9	18.2	0.00e+00	0	57	0	290455552	42	4246
2026-01-02 01:36:09.46	295.62	19.74	-35.7	-37.1	18.0	0.00e+00	0	57	0	293601280	42	4347
2026-01-02 01:36:10.47	295.38	19.70	-35.7	-37.1	18.1	0.00e+00	0	57	0	296747008	42	4341
2026-01-02 01:36:11.48	295.14	19.67	-35.8	-37.2	17.9	0.00e+00	0	57	0	299892736	42	4413
2026-01-02 01:36:12.49	294.90	19.63	-35.9	-37.3	17.8	0.00e+00	0	57	0	303038464	42	4493
2026-01-02 01:36:13.50	294.66	19.60	-35.9	-37.3	17.8	0.00e+00	0	57	0	306184192	42	4462
2026-01-02 01:36:14.51	294.42	19.56	-35.9	-37.3	17.8	0.00e+00	0	57	0	309329920	42	4490
2026-01-02 01:36:15.52	294.18	19.52	-36.0	-37.4	17.8	0.00e+00	0	57	0	312475648	42	4519
2026-01-02 01:36:16.53	293.94	19.49	-36.0	-37.4	17.7	0.00e+00	0	57	0	315621376	42	4528
2026-01-02 01:36:17.54	293.70	19.45	-36.0	-37.4	17.8	0.00e+00	0	57	0	318767104	42	4503
2026-01-02 01:36:18.55	293.47	19.41	-35.8	-37.2	17.9	0.00e+00	0	57	0	321912832	42	4421
2026-01-02 01:36:19.56	293.23	19.37	-35.8	-37.2	18.0	0.00e+00	0	57	0	325058560	42	4393
2026-01-02 01:36:20.57	293.00	19.33	-35.9	-37.3	17.8	0.00e+00	0	57	0	328204288	42	4469
2026-01-02 01:36:21.58	292.76	19.29	-36.0	-37.5	17.6	0.00e+00	0	57	0	331350016	42	4551
2026-01-02 01:36:22.59	292.53	19.25	-36.0	-37.4	17.7	0.00e+00	0	57	0	334495744	42	4537
2026-01-02 01:36:23.60	292.29	19.21	-36.0	-37.5	17.7	0.00e+00	0	57	0	337641472	42	4549
2026-01-02 01:36:24.60	292.06	19.17	-35.9	-37.3	17.8	0.00e+00	0	57	0	340787200	42	4464
2026-01-02 01:36:25.61	291.83	19.13	-35.9	-37.3	17.8	0.00e+00	0	57	0	343932928	42	4476
2026-01-02 01:36:26.62	291.60	19.09	-35.9	-37.3	17.8	0.00e+00	0	57	0	347078656	42	4470
2026-01-02 01:36:27.63	291.37	19.05	-35.8	-37.2	17.9	0.00e+00	0	57	0	350224384	42	4414
2026-01-02 01:36:28.64	291.14	19.00	-35.8	-37.2	17.9	0.00e+00	0	57	0	353370112	42	4420
2026-01-02 01:36:29.65	290.91	18.96	-35.8	-37.2	18.0	0.00e+00	0	57	0	356515840	42	4402
2026-01-02 01:36:30.66	290.68	18.92	-35.8	-37.2	17.9	0.00e+00	0	57	0	359661568	42	4419
2026-01-02 01:36:31.67	290.45	18.87	-35.9	-37.3	17.8	0.00e+00	0	57	0	362807296	42	4470
2026-01-02 01:36:32.68	290.22	18.83	-36.0	-37.4	17.7	0.00e+00	0	57	0	365953024	42	4510
2026-01-02 01:36:33.69	290.00	18.78	-36.1	-37.6	17.6	0.00e+00	0	57	0	369098752	42	4602
2026-01-02 01:36:34.70	289.77	18.74	-36.1	-37.5	17.6	0.00e+00	0	57	0	372244480	42	4575
2026-01-02 01:36:35.71	289.54	18.69	-36.1	-37.6	17.5	0.00e+00	0	57	0	375390208	42	4624
2026-01-02 01:36:36.72	289.32	18.65	-36.2	-37.7	17.4	0.00e+00	0	57	0	378535936	42	4674
2026-01-02 01:36:37.73	289.10	18.60	-36.0	-37.5	17.6	0.00e+00	0	57	0	381681664	43	4308
2026-01-02 01:36:38.74	288.87	18.55	-36.0	-37.4	17.7	0.00e+00	0	57	0	384827392	43	4276
2026-01-02 01:36:39.75	288.65	18.51	-36.0	-37.4	17.7	0.00e+00	0	57	0	387973120	43	4291
2026-01-02 01:36:40.76	288.43	18.46	-36.0	-37.4	17.7	0.00e+00	0	57	0	391118848	43	4258
2026-01-02 01:36:41.77	288.21	18.41	-36.1	-37.5	17.6	0.00e+00	0	57	0	394264576	43	4312
2026-01-02 01:36:42.78	287.98	18.37	-36.2	-37.6	17.5	0.00e+00	0	57	0	397410304	43	4372
2026-01-02 01:36:43.79	287.76	18.32	-36.1	-37.6	17.4	0.00e+00	0	57	0	400556032	43	4374
2026-01-02 01:36:44.80	287.54	18.27	-36.1	-37.5	17.6	0.00e+00	0	57	0	403701760	43	4320
2026-01-02 01:36:45.81	287.33	18.22	-36.0	-37.5	17.6	0.00e+00	0	57	0	406847488	43	4297
2026-01-02 01:36:46.82	287.11	18.17	-36.0	-37.4	17.6	0.00e+00	0	58	0	409993216	43	4281
2026-01-02 01:36:47.83	286.89	18.12	-36.0	-37.4	17.7	0.00e+00	0	57	0	413138944	43	4255
2026-01-02 01:36:48.84	286.67	18.07	-35.9	-37.3	17.7	0.00e+00	0	57	0	416284672	43	4216
2026-01-02 01:36:49.85	286.46	18.02	-35.6	-37.0	18.0	0.00e+00	0	57	0	419430400	43	4070
2026-01-02 01:36:50.86	286.24	17.97	-35.6	-36.9	18.1	0.00e+00	0	57	0	422576128	43	4030
2026-01-02 01:36:51.87	286.03	17.92	-35.6	-36.9	18.1	0.00e+00	0	57	0	425721856	43	4027
2026-01-02 01:36:52.88	285.81	17.87	-35.6	-36.9	18.1	0.00e+00	0	57	0	428867584	43	4034
2026-01-02 01:36:53.89	285.60	17.82	-35.5	-36.9	18.2	0.00e+00	0	57	0	432013312	43	4007
2026-01-02 01:36:54.90	285.39	17.76	-35.5	-36.9	18.1	0.00e+00	0	57	0	435159040	43	4015
2026-01-02 01:36:55.91	285.18	17.71	-35.6	-36.9	18.1	0.00e+00	0	57	0	438304768	43	4025
2026-01-02 01:36:56.92	284.97	17.66	-35.6	-36.9	18.1	0.00e+00	0	57	0	441450496	43	4045
2026-01-02 01:36:57.93	284.76	17.61	-35.6	-36.9	18.1	0.00e+00	0	57	0	444596224	43	4047
2026-01-02 01:36:58.94	284.55	17.55	-35.7	-37.1	17.9	0.00e+00	0	57	0	447741952	43	4129
2026-01-02 01:36:59.95	284.34	17.50	-35.9	-37.2	17.8	0.00e+00	0	57	0	450887680	43	4189
2026-01-02 01:37:00.96	284.13	17.45	-35.9	-37.3	17.7	0.00e+00	0	57	0	454033408	43	4216
2026-01-02 01:37:01.98	283.92	17.39	-35.9	-37.3	17.7	0.00e+00	0	57	0	457179136	43	4210
2026-01-02 01:37:02.99	283.71	17.34	-35.7	-37.1	17.9	0.00e+00	0	57	0	460324864	43	4127
2026-01-02 01:37:04.00	283.51	17.28	-35.7	-37.0	18.0	0.00e+00	0	57	0	463470592	43	4086
2026-01-02 01:37:05.01	283.30	17.23	-35.7	-37.0	17.9	0.00e+00	0	57	0	466616320	43	4091
2026-01-02 01:37:06.02	283.10	17.18	-35.5	-36.8	18.1	0.00e+00	0	57	0	469762048	43	4000
2026-01-02 01:37:07.03	282.90	17.12	-35.4	-36.8	18.2	0.00e+00	0	57	0	472907776	42	4201
2026-01-02 01:37:08.04	282.69	17.07	-35.5	-36.9	18.1	0.00e+00	0	57	0	476053504	42	4252
2026-01-02 01:37:09.05	282.49	17.01	-35.6	-37.0	18.0	0.00e+00	0	57	0	479199232	42	4316
2026-01-02 01:37:10.06	282.29	16.95	-35.8	-37.2	17.8	0.00e+00	0	57	0	482344960	42	4413
2026-01-02 01:37:11.06	282.09	16.90	-35.9	-37.3	17.7	0.00e+00	0	57	0	485490688	42	4474
2026-01-02 01:37:12.08	281.89	16.84	-36.0	-37.4	17.6	0.00e+00	0	57	0	488636416	42	4534
2026-01-02 01:37:13.09	281.69	16.79	-36.0	-37.4	17.6	0.00e+00	0	57	0	491782144	42	4540
2026-01-02 01:37:14.10	281.49	16.73	-35.9	-37.3	17.7	0.00e+00	0	57	0	494927872	42	4470
2026-01-02 01:37:15.10	281.30	16.67	-35.8	-37.2	17.8	0.00e+00	0	57	0	498073600	42	4408
2026-01-02 01:37:16.11	281.10	16.62	-35.7	-37.1	17.9	0.00e+00	0	57	0	501219328	42	4363
2026-01-02 01:37:17.12	280.91	16.56	-35.7	-37.1	17.8	0.00e+00	0	57	0	504365056	42	4384
2026-01-02 01:37:18.13	280.71	16.50	-35.7	-37.1	17.9	0.00e+00	0	57	0	508559360	42	4352
2026-01-02 01:37:19.14	280.52	16.44	-35.7	-37.1	17.9	0.00e+00	0	57	0	510656512	42	4357
2026-01-02 01:37:20.15	280.32	16.38	-35.8	-37.2	17.7	0.00e+00	0	57	0	513802240	42	4427
2026-01-02 01:37:21.16	280.13	16.33	-35.9	-37.3	17.6	0.00e+00	0	57	0	516947968	42	4487
2026-01-02 01:37:22.17	279.94	16.27	-36.1	-37.6	17.4	0.00e+00	0	57	0	520093696	42	4611
2026-01-02 01:37:23.18	279.75	16.21	-36.3	-37.8	17.2	0.00e+00	0	57	0	523239424	43	4450
2026-01-02 01:37:24.19	279.56	16.15	-36.3	-37.8	17.2	0.00e+00	0	57	0	527433728	43	4459
2026-01-02 01:37:25.20	279.37	16.09	-36.3	-37.8	17.1	0.00e+00	0	57	0	530579456	43	4481
2026-01-02 01:37:26.21	279.18	16.03	-36.3	-37.8	17.2	0.00e+00	0	57	0	532676608	43	4454
2026-01-02 01:37:27.22	278.99	15.97	-36.3	-37.9	17.1	0.00e+00	0	57	0	535822336	43	4494
2026-01-02 01:37:28.22	278.80	15.92	-36.3	-37.8	17.2	0.00e+00	0	58	0	538968064	43	4446
2026-01-02 01:37:29.23	278.61	15.86	-36.2	-37.7	17.2	0.00e+00	0	57	0	542113792	43	4423
2026-01-02 01:37:30.24	278.43	15.80	-36.2	-37.7	17.3	0.00e+00	0	57	0	546308096	43	4410
2026-01-02 01:37:31.25	278.24	15.74	-36.1	-37.6	17.4	0.00e+00	0	57	0	549453824	43	4347
2026-01-02 01:37:32.27	278.06	15.68	-36.1	-37.5	17.4	0.00e+00	0	57	0	552599552	43	4329
2026-01-02 01:37:33.28	277.87	15.62	-36.0	-37.4	17.5	0.00e+00	0	57	0	555745280	43	4281
2026-01-02 01:37:34.28	277.69	15.56	-35.9	-37.3	17.6	0.00e+00	0	57	0	558891008	43	4225
2026-01-02 01:37:35.30	277.51	15.49	-35.9	-37.4	17.6	0.00e+00	0	57	0	562036736	43	4250
2026-01-02 01:37:36.30	277.33	15.43	-36.0	-37.5	17.5	0.00e+00	0	57	0	565182464	43	4292
2026-01-02 01:37:37.31	277.15	15.37	-36.1	-37.6	17.3	0.00e+00	0	57	0	568328192	43	4367
2026-01-02 01:37:38.32	276.97	15.31	-36.3	-37.8	17.1	0.00e+00	0	57	0	571473920	43	4460
2026-01-02 01:37:39.34	276.78	15.25	-36.4	-38.0	17.0	0.00e+00	0	57	0	574619648	43	4547
2026-01-02 01:37:40.34	276.61	15.19	-36.5	-38.0	16.9	0.00e+00	0	57	0	577765376	43	4585
2026-01-02 01:37:41.36	276.43	15.13	-36.5	-38.0	16.9	0.00e+00	0	57	0	580911104	43	4582
2026-01-02 01:37:42.37	276.25	15.07	-36.5	-38.0	16.8	0.00e+00	0	57	0	584056832	43	4597
2026-01-02 01:37:43.38	276.07	15.01	-36.5	-38.0	16.9	0.00e+00	0	57	0	587202560	43	4563
2026-01-02 01:37:44.38	275.90	14.95	-36.5	-38.0	16.9	0.00e+00	0	57	0	590348288	43	4572
2026-01-02 01:37:45.39	275.72	14.88	-36.6	-38.2	16.7	0.00e+00	0	57	0	593494016	43	4682
2026-01-02 01:37:46.40	275.55	14.82	-36.9	-38.5	16.6	0.00e+00	0	57	0	596639744	44	4590
2026-01-02 01:37:47.41	275.38	14.76	-37.0	-38.6	16.5	0.00e+00	0	57	0	599785472	44	4617
2026-01-02 01:37:48.42	275.20	14.70	-37.1	-38.7	16.4	0.00e+00	0	57	0	602931200	44	4680
2026-01-02 01:37:49.43	275.03	14.64	-37.2	-38.8	16.3	0.00e+00	0	57	0	606076928	44	4751
2026-01-02 01:37:50.44	274.86	14.57	-37.2	-38.9	16.2	0.00e+00	0	57	0	609222656	45	4531
2026-01-02 01:37:51.45	274.69	14.51	-37.2	-38.8	16.2	0.00e+00	0	57	0	612368384	45	4492
2026-01-02 01:37:52.46	274.52	14.45	-36.9	-38.5	16.6	0.00e+00	0	57	0	615514112	45	4299
2026-01-02 01:37:53.47	274.35	14.39	-36.6	-38.1	16.9	0.00e+00	0	57	0	618659840	45	4143
2026-01-02 01:37:54.48	274.18	14.32	-36.4	-37.9	17.2	0.00e+00	0	57	0	621805568	44	4268
2026-01-02 01:37:55.49	274.01	14.26	-36.2	-37.6	17.4	0.00e+00	0	57	0	624951296	44	4132
2026-01-02 01:37:56.50	273.85	14.20	-35.7	-37.1	17.7	0.00e+00	0	57	0	628097024	43	4119
2026-01-02 01:37:57.51	273.68	14.14	-35.7	-37.1	17.8	0.00e+00	0	57	0	631242752	43	4100
2026-01-02 01:37:58.52	273.51	14.07	-35.7	-37.0	17.8	0.00e+00	0	57	0	634388480	43	4097
2026-01-02 01:37:59.53	273.35	14.01	-35.7	-37.1	17.6	0.00e+00	0	57	0	637534208	43	4139
2026-01-02 01:38:00.54	273.19	13.95	-35.8	-37.2	17.5	0.00e+00	0	57	0	640679936	43	4178
2026-01-02 01:38:01.55	273.02	13.88	-36.0	-37.4	17.3	0.00e+00	0	57	0	643825664	43	4273
2026-01-02 01:38:02.56	272.86	13.82	-36.0	-37.4	17.3	0.00e+00	0	57	0	646971392	43	4289
2026-01-02 01:38:03.57	272.70	13.76	-35.9	-37.4	17.4	0.00e+00	0	57	0	650117120	43	4251
2026-01-02 01:38:04.58	272.54	13.69	-36.0	-37.5	17.4	0.00e+00	0	57	0	653262848	43	4292
2026-01-02 01:38:05.59	272.37	13.63	-36.3	-37.8	17.0	0.00e+00	0	57	0	656408576	43	4454
2026-01-02 01:38:06.60	272.21	13.57	-36.5	-38.0	16.8	0.00e+00	0	57	0	659554304	43	4575
2026-01-02 01:38:07.61	272.05	13.50	-36.6	-38.2	16.7	0.00e+00	0	57	0	662700032	43	4679
2026-01-02 01:38:08.62	271.90	13.44	-36.6	-38.2	16.6	0.00e+00	0	57	0	665845760	43	4674
2026-01-02 01:38:09.63	271.74	13.38	-36.6	-38.1	16.7	0.00e+00	0	57	0	668991488	43	4630
2026-01-02 01:38:10.64	271.58	13.31	-36.6	-38.1	16.7	0.00e+00	0	57	0	672137216	43	4649
2026-01-02 01:38:11.65	271.42	13.25	-36.4	-38.0	16.9	0.00e+00	0	57	0	675282944	43	4561
2026-01-02 01:38:12.66	271.27	13.18	-36.4	-37.9	16.9	0.00e+00	0	57	0	678428672	43	4541
2026-01-02 01:38:13.67	271.11	13.12	-36.2	-37.8	17.1	0.00e+00	0	57	0	681574400	43	4445
2026-01-02 01:38:14.68	270.96	13.06	-36.0	-37.4	17.4	0.00e+00	0	57	0	684720128	43	4267
2026-01-02 01:38:15.69	270.80	12.99	-35.9	-37.3	17.4	0.00e+00	0	57	0	687865856	43	4232
2026-01-02 01:38:16.70	270.65	12.93	-35.9	-37.3	17.4	0.00e+00	0	57	0	691011584	43	4237
2026-01-02 01:38:17.71	270.50	12.87	-36.1	-37.6	17.2	0.00e+00	0	57	0	694157312	43	4360
2026-01-02 01:38:18.72	270.35	12.80	-36.3	-37.8	16.9	0.00e+00	0	57	0	697303040	43	4481
2026-01-02 01:38:19.73	270.20	12.74	-36.5	-38.1	16.7	0.00e+00	0	57	0	700448768	43	4605
2026-01-02 01:38:20.74	270.04	12.67	-36.7	-38.3	16.5	0.00e+00	0	57	0	703594496	43	4710
2026-01-02 01:38:21.75	269.89	12.61	-37.0	-38.6	16.3	0.00e+00	0	57	0	706740224	44	4641
2026-01-02 01:38:22.76	269.75	12.54	-37.0	-38.7	16.3	0.00e+00	0	57	0	709885952	44	4660
2026-01-02 01:38:23.77	269.60	12.48	-37.0	-38.7	16.3	0.00e+00	0	57	0	713031680	44	4664
2026-01-02 01:38:24.78	269.45	12.42	-37.0	-38.7	16.3	0.00e+00	0	57	0	716177408	44	4686
2026-01-02 01:38:25.79	269.30	12.35	-37.0	-38.7	16.2	0.00e+00	0	57	0	719323136	44	4695
2026-01-02 01:38:26.81	269.15	12.29	-37.0	-38.6	16.3	0.00e+00	0	57	0	722468864	44	4646
2026-01-02 01:38:27.82	269.01	12.22	-36.9	-38.5	16.5	0.00e+00	0	57	0	725614592	44	4565
2026-01-02 01:38:28.83	268.86	12.16	-36.8	-38.4	16.6	0.00e+00	0	57	0	728760320	44	4515
2026-01-02 01:38:29.84	268.72	12.09	-36.7	-38.3	16.6	0.00e+00	0	57	0	731906048	44	4468
2026-01-02 01:38:30.85	268.57	12.03	-36.7	-38.3	16.6	0.00e+00	0	57	0	735051776	44	4478
2026-01-02 01:38:31.85	268.43	11.97	-36.7	-38.3	16.6	0.00e+00	0	57	0	738197504	44	4459
2026-01-02 01:38:32.87	268.29	11.90	-36.7	-38.3	16.6	0.00e+00	0	57	0	741343232	44	4464
2026-01-02 01:38:33.88	268.14	11.84	-36.7	-38.3	16.5	0.00e+00	0	57	0	744488960	44	4491
2026-01-02 01:38:34.89	268.00	11.77	-36.8	-38.5	16.4	0.00e+00	0	57	0	747634688	44	4556
2026-01-02 01:38:35.89	267.86	11.71	-37.0	-38.6	16.2	0.00e+00	0	57	0	750780416	44	4645
2026-01-02 01:38:36.91	267.72	11.65	-37.1	-38.8	16.1	0.00e+00	0	57	0	753926144	44	4715
2026-01-02 01:38:37.92	267.58	11.58	-37.2	-38.9	16.0	0.00e+00	0	57	0	757071872	44	4763
2026-01-02 01:38:38.93	267.44	11.52	-37.2	-38.9	16.0	0.00e+00	0	57	0	760217600	44	4766
2026-01-02 01:38:39.94	267.30	11.45	-37.2	-38.9	16.0	0.00e+00	0	57	0	763363328	44	4780
2026-01-02 01:38:40.95	267.17	11.39	-37.3	-39.0	15.9	0.00e+00	0	57	0	766509056	45	4552
2026-01-02 01:38:41.96	267.03	11.32	-37.4	-39.1	15.8	0.00e+00	0	57	0	769654784	45	4635
2026-01-02 01:38:42.97	266.89	11.26	-37.2	-38.9	16.0	0.00e+00	0	57	0	772800512	45	4496
2026-01-02 01:38:43.98	266.76	11.20	-37.2	-38.9	16.0	0.00e+00	0	57	0	775946240	45	4526
2026-01-02 01:38:44.99	266.62	11.13	-37.3	-39.0	15.9	0.00e+00	0	57	0	779091968	45	4571
2026-01-02 01:38:46.00	266.49	11.07	-37.2	-38.9	16.0	0.00e+00	0	57	0	782237696	45	4508
2026-01-02 01:38:47.00	266.35	11.00	-37.2	-38.9	16.0	0.00e+00	0	57	0	785383424	45	4510
2026-01-02 01:38:48.01	266.22	10.94	-36.9	-38.6	16.3	0.00e+00	0	57	0	788529152	45	4354
2026-01-02 01:38:49.02	266.09	10.88	-36.9	-38.6	16.3	0.00e+00	0	57	0	791674880	45	4347
2026-01-02 01:38:50.03	265.95	10.81	-37.0	-38.6	16.2	0.00e+00	0	57	0	794820608	45	4377
2026-01-02 01:38:51.04	265.82	10.75	-37.0	-38.6	16.2	0.00e+00	0	57	0	797966336	45	4377
2026-01-02 01:38:52.05	265.69	10.68	-37.0	-38.7	16.1	0.00e+00	0	57	0	801112064	45	4425
2026-01-02 01:38:53.06	265.56	10.62	-37.1	-38.8	16.1	0.00e+00	0	57	0	804257792	45	4447
2026-01-02 01:38:54.07	265.43	10.55	-37.1	-38.7	16.1	0.00e+00	0	57	0	807403520	45	4431
2026-01-02 01:38:55.08	265.30	10.49	-37.1	-38.8	16.0	0.00e+00	0	57	0	810549248	45	4464
2026-01-02 01:38:56.09	265.17	10.43	-37.2	-38.9	15.9	0.00e+00	0	57	0	813694976	45	4521
2026-01-02 01:38:57.10	265.04	10.36	-37.1	-38.8	16.0	0.00e+00	0	57	0	816840704	45	4455
2026-01-02 01:38:58.11	264.92	10.30	-37.1	-38.8	16.0	0.00e+00	0	57	0	819986432	45	4464
2026-01-02 01:38:59.12	264.79	10.24	-37.1	-38.8	16.0	0.00e+00	0	57	0	823132160	45	4443
2026-01-02 01:39:00.13	264.66	10.17	-37.0	-38.7	16.1	0.00e+00	0	57	0	826277888	45	4425
2026-01-02 01:39:01.14	264.53	10.11	-37.1	-38.8	16.0	0.00e+00	0	57	0	829423616	45	4471
2026-01-02 01:39:02.15	264.41	10.04	-36.9	-38.6	16.2	0.00e+00	0	57	0	832569344	45	4355
2026-01-02 01:39:03.16	264.28	9.98	-37.0	-38.6	16.2	0.00e+00	0	57	0	835715072	45	4383
2026-01-02 01:39:04.17	264.16	9.92	-37.1	-38.8	16.0	0.00e+00	0	57	0	838860800	45	4464
2026-01-02 01:39:05.18	264.04	9.85	-37.1	-38.8	16.0	0.00e+00	0	57	0	842006528	45	4457
2026-01-02 01:39:06.19	263.91	9.79	-37.2	-39.0	15.8	0.00e+00	0	57	0	846200832	45	4579
2026-01-02 01:39:07.20	263.79	9.72	-37.4	-39.2	15.6	0.00e+00	0	57	0	848297984	45	4666
2026-01-02 01:39:08.21	263.67	9.66	-37.4	-39.2	15.6	0.00e+00	0	57	0	851443712	45	4666
2026-01-02 01:39:09.22	263.55	9.60	-37.6	-39.4	15.4	0.00e+00	0	57	0	854589440	45	4807
2026-01-02 01:39:10.23	263.42	9.53	-37.5	-39.4	15.4	0.00e+00	0	57	0	857735168	45	4780
2026-01-02 01:39:11.24	263.30	9.47	-37.5	-39.3	15.5	0.00e+00	0	57	0	861929472	45	4733
2026-01-02 01:39:12.25	263.18	9.41	-37.6	-39.4	15.4	0.00e+00	0	57	0	865075200	45	4800
2026-01-02 01:39:13.25	263.06	9.34	-37.6	-39.4	15.4	0.00e+00	0	57	0	868220928	45	4787
2026-01-02 01:39:14.27	262.94	9.28	-37.6	-39.5	15.3	0.00e+00	0	57	0	871366656	45	4831
2026-01-02 01:39:15.28	262.83	9.22	-37.5	-39.4	15.4	0.00e+00	0	57	0	873463808	45	4762
2026-01-02 01:39:16.28	262.71	9.15	-37.5	-39.3	15.4	0.00e+00	0	57	0	877658112	45	4750
2026-01-02 01:39:17.29	262.59	9.09	-37.4	-39.2	15.5	0.00e+00	0	57	0	880803840	45	4686
2026-01-02 01:39:18.30	262.47	9.03	-37.3	-39.1	15.7	0.00e+00	0	57	0	883949568	45	4609
2026-01-02 01:39:19.32	262.36	8.96	-37.4	-39.2	15.6	0.00e+00	0	57	0	887095296	45	4674
2026-01-02 01:39:20.32	262.24	8.90	-37.3	-39.1	15.6	0.00e+00	0	57	0	890241024	45	4646
2026-01-02 01:39:21.33	262.13	8.84	-37.4	-39.2	15.5	0.00e+00	0	57	0	893386752	45	4697
2026-01-02 01:39:22.34	262.01	8.78	-37.5	-39.3	15.5	0.00e+00	0	57	0	896532480	45	4726
2026-01-02 01:39:23.35	261.90	8.71	-37.6	-39.4	15.3	0.00e+00	0	57	0	899678208	45	4806
2026-01-02 01:39:24.36	261.78	8.65	-37.7	-39.5	15.2	0.00e+00	0	57	0	902823936	45	4870
2026-01-02 01:39:25.37	261.67	8.59	-37.7	-39.7	15.1	0.00e+00	0	57	0	905969664	46	4658
2026-01-02 01:39:26.38	261.56	8.52	-37.8	-39.7	15.0	0.00e+00	0	57	0	909115392	46	4689
2026-01-02 01:39:27.39	261.44	8.46	-37.7	-39.6	15.1	0.00e+00	0	57	0	912261120	46	4643
2026-01-02 01:39:28.40	261.33	8.40	-37.8	-39.8	15.0	0.00e+00	0	57	0	915406848	46	4721
2026-01-02 01:39:29.41	261.22	8.34	-37.8	-39.7	15.1	0.00e+00	0	57	0	918552576	46	4665
2026-01-02 01:39:30.42	261.11	8.27	-37.7	-39.6	15.1	0.00e+00	0	57	0	921698304	46	4629
2026-01-02 01:39:31.43	261.00	8.21	-37.6	-39.5	15.2	0.00e+00	0	57	0	924844032	46	4590
2026-01-02 01:39:32.44	260.89	8.15	-37.5	-39.3	15.4	0.00e+00	0	57	0	927989760	46	4479
2026-01-02 01:39:33.45	260.78	8.09	-37.5	-39.3	15.4	0.00e+00	0	57	0	931135488	46	4464
2026-01-02 01:39:34.46	260.67	8.02	-37.5	-39.3	15.5	0.00e+00	0	57	0	934281216	46	4477
2026-01-02 01:39:35.47	260.56	7.96	-44.3	-56.4	3.8	1.49e+00	0	57	104	935329792	59	15142
2026-01-02 01:39:36.48	260.45	7.90	-44.5	-56.7	3.8	1.49e+00	0	57	104	935329792	59	15620
2026-01-02 01:39:37.49	260.35	7.84	-44.7	-56.8	3.8	1.49e+00	0	57	104	935329792	59	15927
2026-01-02 01:39:38.50	260.24	7.77	-44.7	-57.1	3.8	1.49e+00	0	57	104	935329792	60	15411
2026-01-02 01:39:39.51	260.13	7.71	-44.8	-57.1	3.8	1.49e+00	0	57	104	935329792	60	15530
2026-01-02 01:39:40.52	260.03	7.65	-44.8	-57.2	3.8	1.49e+00	0	57	104	935329792	60	15588
2026-01-02 01:39:41.53	259.92	7.59	-44.9	-57.2	3.8	1.49e+00	0	58	104	935329792	60	15655
2026-01-02 01:39:42.54	259.81	7.53	-44.9	-57.2	3.8	1.49e+00	0	57	104	935329792	60	15711
2026-01-02 01:39:43.55	259.71	7.46	-44.8	-57.2	3.8	1.49e+00	0	57	104	935329792	60	15632
2026-01-02 01:39:44.56	259.60	7.40	-44.8	-57.1	3.8	1.49e+00	0	57	104	935329792	60	15565
2026-01-02 01:39:45.57	259.50	7.34	-44.8	-57.2	3.8	1.49e+00	0	57	104	935329792	60	15620
2026-01-02 01:39:46.58	259.40	7.28	-44.8	-57.1	3.8	1.49e+00	0	57	104	935329792	60	15579
2026-01-02 01:39:47.59	259.29	7.22	-44.8	-57.2	3.8	1.49e+00	0	57	104	935329792	60	15593
2026-01-02 01:39:48.60	259.19	7.16	-44.8	-57.1	3.8	1.49e+00	0	57	104	935329792	60	15557
2026-01-02 01:39:49.61	259.09	7.09	-44.9	-57.2	3.8	1.49e+00	0	58	104	935329792	60	15647
2026-01-02 01:39:50.62	258.99	7.03	-44.9	-57.2	3.8	1.49e+00	0	58	104	935329792	60	15676
2026-01-02 01:39:51.63	258.89	6.97	-44.9	-57.2	3.8	1.49e+00	0	57	104	935329792	60	15668
2026-01-02 01:39:52.64	258.79	6.91	-44.8	-57.2	3.8	1.49e+00	0	57	104	935329792	60	15600
2026-01-02 01:39:53.65	258.68	6.85	-44.8	-57.1	3.8	1.49e+00	0	57	104	935329792	60	15506
2026-01-02 01:39:54.66	258.58	6.79	-44.8	-57.1	3.8	1.49e+00	0	58	104	935329792	60	15494
2026-01-02 01:39:55.67	258.49	6.73	-44.8	-57.1	3.8	1.49e+00	0	57	104	935329792	60	15525
2026-01-02 01:39:56.69	258.39	6.67	-44.8	-57.1	3.8	1.49e+00	0	57	104	935329792	60	15512
2026-01-02 01:39:57.70	258.29	6.60	-44.8	-57.1	3.8	1.49e+00	0	57	104	935329792	60	15508
2026-01-02 01:39:58.71	258.19	6.54	-44.8	-57.1	3.8	1.49e+00	0	57	104	935329792	60	15498
2026-01-02 01:39:59.72	258.09	6.48	-44.8	-57.1	3.8	1.49e+00	0	58	104	935329792	60	15492
2026-01-02 01:40:00.73	257.99	6.42	-44.8	-57.1	3.8	1.49e+00	0	58	104	935329792	60	15499
2026-01-02 01:40:01.74	257.90	6.36	-44.8	-57.1	3.8	1.49e+00	0	57	104	935329792	60	15428
2026-01-02 01:40:02.75	257.80	6.30	-44.8	-57.1	3.8	1.49e+00	0	57	104	935329792	60	15448
2026-01-02 01:40:03.76	257.70	6.24	-44.8	-57.1	3.8	1.49e+00	0	57	104	935329792	60	15419
2026-01-02 01:40:04.77	257.61	6.18	-44.8	-57.1	3.8	1.49e+00	0	57	104	935329792	60	15477
2026-01-02 01:40:05.78	257.51	6.12	-44.8	-57.1	3.8	1.49e+00	0	58	104	935329792	60	15488
2026-01-02 01:40:06.80	257.42	6.06	-44.8	-57.1	3.8	1.49e+00	0	57	104	935329792	60	15458
2026-01-02 01:40:07.81	257.32	6.00	-44.7	-57.1	3.8	1.49e+00	0	57	104	935329792	60	15416
2026-01-02 01:40:08.82	257.23	5.94	-44.8	-57.1	3.8	1.49e+00	0	57	104	935329792	60	15433
2026-01-02 01:40:09.83	257.13	5.88	-44.7	-57.1	3.8	1.49e+00	0	58	104	935329792	60	15444
2026-01-02 01:40:10.84	257.04	5.82	-44.7	-57.1	3.8	1.49e+00	0	57	104	935329792	60	15418
2026-01-02 01:40:11.85	256.95	5.76	-44.8	-57.1	3.8	1.49e+00	0	57	104	935329792	60	15488
2026-01-02 01:40:12.86	256.85	5.70	-44.7	-57.1	3.8	1.49e+00	0	57	104	935329792	60	15427
2026-01-02 01:40:13.87	256.76	5.64	-44.7	-57.0	3.8	1.49e+00	0	57	104	935329792	60	15347
2026-01-02 01:40:14.88	256.67	5.58	-44.7	-57.0	3.8	1.49e+00	0	57	104	935329792	60	15343
2026-01-02 01:40:15.90	256.58	5.52	-44.7	-57.0	3.8	1.49e+00	0	58	104	935329792	60	15326
2026-01-02 01:40:16.91	256.49	5.46	-44.7	-57.0	3.8	1.49e+00	0	57	104	935329792	60	15281
2026-01-02 01:40:17.92	256.39	5.40	-44.7	-57.0	3.8	1.49e+00	0	57	104	935329792	60	15332
2026-01-02 01:40:18.93	256.30	5.34	-44.7	-57.0	3.8	1.49e+00	0	58	104	935329792	60	15293
2026-01-02 01:40:19.94	256.21	5.28	-44.7	-57.0	3.8	1.49e+00	0	57	104	935329792	60	15283
2026-01-02 01:40:20.95	256.12	5.22	-44.7	-57.0	3.8	1.49e+00	0	57	104	935329792	60	15331
2026-01-02 01:40:21.96	256.04	5.16	-44.7	-57.0	3.8	1.49e+00	0	57	104	935329792	60	15325
2026-01-02 01:40:22.97	255.95	5.10	-44.7	-57.0	3.8	1.49e+00	0	57	104	935329792	60	15300
2026-01-02 01:40:23.98	255.86	5.04	-44.7	-57.0	3.8	1.49e+00	0	58	104	935329792	60	15334
2026-01-02 01:40:24.99	255.77	4.98	-44.7	-57.0	3.8	1.49e+00	0	58	104	935329792	60	15265
2026-01-02 01:40:26.01	255.68	4.92	-44.7	-57.0	3.8	1.49e+00	0	58	104	935329792	60	15269
2026-01-02 01:40:27.02	255.59	4.86	-44.7	-57.0	3.8	1.49e+00	0	58	104	935329792	60	15315
2026-01-02 01:40:28.03	255.51	4.80	-44.7	-57.0	3.8	1.49e+00	0	58	104	935329792	60	15324
2026-01-02 01:40:29.04	255.42	4.74	-44.7	-57.0	3.8	1.49e+00	0	58	104	935329792	60	15293
2026-01-02 01:40:30.05	255.33	4.69	-44.7	-57.0	3.8	1.49e+00	0	57	104	935329792	60	15341
2026-01-02 01:40:31.06	255.25	4.63	-44.7	-57.0	3.8	1.49e+00	0	58	104	935329792	60	15278
2026-01-02 01:40:32.07	255.16	4.57	-44.7	-57.0	3.8	1.49e+00	0	58	104	935329792	60	15324
2026-01-02 01:40:33.08	255.08	4.51	-44.7	-57.0	3.8	1.49e+00	0	58	104	935329792	60	15318
2026-01-02 01:40:34.09	254.99	4.45	-44.7	-57.0	3.8	1.49e+00	0	58	104	935329792	60	15309
2026-01-02 01:40:35.10	254.91	4.39	-44.7	-57.0	3.8	1.49e+00	0	57	104	935329792	60	15307
2026-01-02 01:40:36.12	254.82	4.33	-44.7	-57.0	3.8	1.49e+00	0	57	104	935329792	60	15312
2026-01-02 01:40:37.13	254.74	4.27	-44.7	-57.0	3.8	1.49e+00	0	58	104	935329792	60	15280
2026-01-02 01:40:38.14	254.66	4.22	-44.7	-57.0	3.8	1.49e+00	0	58	104	935329792	60	15262
2026-01-02 01:40:39.15	254.57	4.16	-44.7	-57.0	3.8	1.49e+00	0	58	104	935329792	60	15286
2026-01-02 01:40:40.16	254.49	4.10	-44.7	-57.0	3.8	1.49e+00	0	58	104	935329792	60	15295
2026-01-02 01:40:41.17	254.41	4.04	-44.7	-57.0	3.8	1.49e+00	0	58	104	935329792	60	15296
2026-01-02 01:40:42.18	254.32	3.98	-44.7	-57.0	3.8	1.49e+00	0	57	104	935329792	60	15298
2026-01-02 01:40:43.19	254.24	3.93	-44.7	-57.0	3.8	1.49e+00	0	58	104	935329792	60	15295
2026-01-02 01:40:44.20	254.16	3.87	-44.7	-57.0	3.8	1.49e+00	0	57	104	935329792	60	15324
2026-01-02 01:40:45.21	254.08	3.81	-44.7	-57.0	3.8	1.49e+00	0	58	104	935329792	60	15281
2026-01-02 01:40:46.22	254.00	3.75	-44.7	-57.0	3.8	1.49e+00	0	58	104	935329792	60	15291
2026-01-02 01:40:47.23	253.92	3.70	-44.7	-57.0	3.8	1.49e+00	0	58	104	935329792	60	15320
2026-01-02 01:40:48.24	253.84	3.64	-44.7	-57.0	3.8	1.49e+00	0	57	104	935329792	60	15287
2026-01-02 01:40:49.25	253.76	3.58	-44.7	-57.0	3.8	1.49e+00	0	58	104	935329792	60	15277
2026-01-02 01:40:50.27	253.68	3.52	-44.7	-57.0	3.8	1.49e+00	0	58	104	935329792	60	15283
2026-01-02 01:40:51.28	253.60	3.46	-44.7	-57.0	3.8	1.49e+00	0	58	104	935329792	60	15333
2026-01-02 01:40:52.29	253.52	3.41	-44.7	-57.0	3.8	1.49e+00	0	58	104	935329792	60	15343
2026-01-02 01:40:53.30	253.44	3.35	-44.7	-57.0	3.8	1.49e+00	0	58	104	935329792	60	15293
2026-01-02 01:40:54.31	253.36	3.29	-44.6	-57.0	3.8	1.49e+00	0	58	104	935329792	60	15311
2026-01-02 01:40:55.32	253.29	3.24	-44.7	-57.0	3.8	1.49e+00	0	58	104	935329792	60	15302
2026-01-02 01:40:56.33	253.21	3.18	-44.7	-57.0	3.8	1.49e+00	0	58	104	935329792	60	15301
2026-01-02 01:40:57.34	253.13	3.12	-44.7	-57.0	3.8	1.49e+00	0	58	104	935329792	60	15322
2026-01-02 01:40:58.36	253.05	3.06	-44.7	-57.0	3.8	1.49e+00	0	58	104	935329792	60	15295
2026-01-02 01:40:59.37	252.98	3.01	-44.6	-57.0	3.8	1.49e+00	0	58	104	935329792	60	15265
2026-01-02 01:41:00.38	252.90	2.95	-44.7	-57.0	3.8	1.49e+00	0	58	104	935329792	60	15273
2026-01-02 01:41:01.39	252.82	2.89	-44.6	-57.0	3.8	1.49e+00	0	58	104	935329792	60	15270
2026-01-02 01:41:02.40	252.75	2.84	-44.6	-57.0	3.8	1.49e+00	0	58	104	935329792	60	15276
2026-01-02 01:41:03.41	252.67	2.78	-44.6	-57.0	3.8	1.49e+00	0	58	104	935329792	60	15296
2026-01-02 01:41:04.42	252.60	2.72	-44.6	-57.0	3.8	1.49e+00	0	57	104	935329792	60	15273
2026-01-02 01:41:05.43	252.52	2.67	-44.7	-57.0	3.8	1.49e+00	0	58	104	935329792	60	15271
2026-01-02 01:41:06.44	252.45	2.61	-44.6	-57.0	3.8	1.49e+00	0	58	104	935329792	60	15253
2026-01-02 01:41:07.45	252.37	2.56	-44.7	-57.0	3.8	1.49e+00	0	57	104	935329792	60	15243
2026-01-02 01:41:08.47	252.30	2.50	-44.6	-57.0	3.8	1.49e+00	0	58	104	935329792	60	15266
2026-01-02 01:41:09.48	252.22	2.44	-44.7	-57.0	3.8	1.49e+00	0	58	104	935329792	60	15287
2026-01-02 01:41:10.49	252.15	2.39	-44.7	-57.0	3.8	1.49e+00	0	58	104	935329792	60	15264
2026-01-02 01:41:11.50	252.08	2.33	-44.7	-57.0	3.8	1.49e+00	0	58	104	935329792	60	15268
2026-01-02 01:41:12.51	252.00	2.27	-44.6	-57.0	3.8	1.49e+00	0	57	104	935329792	60	15298
2026-01-02 01:41:13.52	251.93	2.22	-44.7	-57.0	3.8	1.49e+00	0	57	104	935329792	60	15226
2026-01-02 01:41:14.53	251.86	2.16	-44.6	-57.0	3.8	1.49e+00	0	57	104	935329792	60	15281
2026-01-02 01:41:15.54	251.79	2.11	-44.7	-57.0	3.8	1.49e+00	0	58	104	935329792	60	15300
2026-01-02 01:41:16.55	251.72	2.05	-44.6	-57.0	3.8	1.49e+00	0	58	104	935329792	60	15246
2026-01-02 01:41:17.57	251.64	1.99	-44.7	-57.0	3.8	1.49e+00	0	58	104	935329792	60	15261

#Closed at: 2026-01-02 01:41:18
#Recorded file [935 MB]: D:/lorett/data/31039_260102_043346.dat