passes_logs/2026/01/05/PlanumMoscow/PlanumMoscow__20260105_064400_METOP-C_rec.log

#Pass ID: 20260105_064400_METOP-C
#Satellite: METOP-C
#Configuration: METOP-C
#Start time: 2026-01-05 06:44:05.320255

#LorettStation: 1.0.0 05.05.2024
#Station: PlanumMoscow
#Location: 37.6253844 lon 55.6713361 lat
#TLE: 1 43689U 18087A   25293.88981035  .00000265  00000+0  14109-3 0  9997
#TLE: 2 43689  98.7006 352.4487 0002041 122.1097 238.0279 14.21482740360838

#Time	Az	El	Level	SNR
2026-01-05 06:47:43.799512	49.0	23.5	-66.1	0.0
2026-01-05 06:47:44.914763	49.2	23.6	-65.4	0.0
2026-01-05 06:47:46.029022	49.4	23.8	-65.9	0.0
2026-01-05 06:47:47.145283	49.7	23.9	-66.2	0.0
2026-01-05 06:47:48.260544	49.9	24.0	-66.2	0.0
2026-01-05 06:47:49.376795	50.1	24.1	-66.4	0.0
2026-01-05 06:47:50.493055	50.4	24.2	-66.6	0.0
2026-01-05 06:47:51.608811	50.6	24.3	-66.4	0.0
2026-01-05 06:47:52.724062	50.8	24.5	-66.9	0.0
2026-01-05 06:47:53.843314	51.1	24.6	-64.8	0.0
2026-01-05 06:47:54.958572	51.3	24.7	-65.3	0.0
2026-01-05 06:47:56.074328	51.6	24.8	-66.2	0.0
2026-01-05 06:47:57.188579	51.8	24.9	-65.1	0.0
2026-01-05 06:47:58.302334	52.1	25.0	-66.8	0.0
2026-01-05 06:47:59.418090	52.3	25.2	-65.2	0.0
2026-01-05 06:48:00.537351	52.6	25.3	-67.0	0.0
2026-01-05 06:48:01.652106	52.8	25.4	-66.4	0.0
2026-01-05 06:48:02.767357	53.1	25.5	-66.3	0.0
2026-01-05 06:48:03.883609	53.3	25.6	-64.8	0.0
2026-01-05 06:48:05.005873	53.6	25.8	-65.1	0.0
2026-01-05 06:48:06.121125	53.8	25.9	-66.2	0.0
2026-01-05 06:48:07.236376	54.1	26.0	-66.8	0.0
2026-01-05 06:48:08.351132	54.4	26.1	-65.2	0.0
2026-01-05 06:48:09.466383	54.6	26.2	-66.0	0.0
2026-01-05 06:48:10.581642	54.9	26.3	-66.2	0.0
2026-01-05 06:48:11.697398	55.2	26.5	-66.4	0.0
2026-01-05 06:48:12.813649	55.4	26.6	-66.7	0.0
2026-01-05 06:48:13.930405	55.7	26.7	-66.1	0.0
2026-01-05 06:48:15.046657	56.0	26.8	-66.0	0.0
2026-01-05 06:48:16.163917	56.3	26.9	-66.4	0.0
2026-01-05 06:48:17.278672	56.5	27.0	-65.4	0.0
2026-01-05 06:48:18.392427	56.8	27.2	-66.1	0.0
2026-01-05 06:48:19.506190	57.1	27.3	-65.7	0.0
2026-01-05 06:48:20.623441	57.4	27.4	-67.1	0.0
2026-01-05 06:48:21.738692	57.7	27.5	-66.8	0.0
2026-01-05 06:48:22.853944	58.0	27.6	-66.8	0.0
2026-01-05 06:48:23.970195	58.2	27.7	-66.0	0.0
2026-01-05 06:48:25.087447	58.5	27.8	-66.0	0.0
2026-01-05 06:48:26.203707	58.8	28.0	-65.8	0.0
2026-01-05 06:48:27.320959	59.1	28.1	-65.8	0.0
2026-01-05 06:48:28.437210	59.4	28.2	-67.1	0.0
2026-01-05 06:48:29.552966	59.7	28.3	-66.2	0.0
2026-01-05 06:48:30.670218	60.0	28.4	-66.0	0.0
2026-01-05 06:48:31.789478	60.3	28.5	-66.6	0.0
2026-01-05 06:48:32.910739	60.6	28.6	-66.5	0.0
2026-01-05 06:48:34.032496	61.0	28.7	-66.7	0.0
2026-01-05 06:48:35.153260	61.3	28.9	-64.4	0.0
2026-01-05 06:48:36.274521	61.6	29.0	-65.7	0.0
2026-01-05 06:48:37.396774	61.9	29.1	-66.5	0.0
2026-01-05 06:48:38.518531	62.2	29.2	-66.7	0.0
2026-01-05 06:48:39.640287	62.5	29.3	-66.4	0.0
2026-01-05 06:48:40.762045	62.9	29.4	-66.3	0.0
2026-01-05 06:48:41.883802	63.2	29.5	-67.4	0.0
2026-01-05 06:48:43.006055	63.5	29.6	-66.2	0.0
2026-01-05 06:48:44.127811	63.9	29.7	-65.4	0.0
2026-01-05 06:48:45.250064	64.2	29.8	-63.7	0.0
2026-01-05 06:48:46.372317	64.5	29.9	-64.6	0.0
2026-01-05 06:48:47.493074	64.9	30.0	-64.8	0.0
2026-01-05 06:48:48.607829	65.2	30.2	-65.6	0.0
2026-01-05 06:48:49.725585	65.5	30.3	-65.2	0.0
2026-01-05 06:48:50.840341	65.9	30.4	-64.8	0.0
2026-01-05 06:48:51.957592	66.2	30.5	-64.8	0.0
2026-01-05 06:48:53.073348	66.6	30.6	-65.5	0.0
2026-01-05 06:48:54.194600	66.9	30.7	-65.2	0.0
2026-01-05 06:48:55.309868	67.3	30.8	-64.6	0.0
2026-01-05 06:48:56.425128	67.6	30.9	-66.5	0.0
2026-01-05 06:48:57.540379	68.0	31.0	-64.7	0.0
2026-01-05 06:48:58.656135	68.3	31.1	-65.6	0.0
2026-01-05 06:48:59.773386	68.7	31.2	-65.4	0.0
2026-01-05 06:49:00.889638	69.0	31.2	-64.6	0.0
2026-01-05 06:49:02.006402	69.4	31.3	-64.6	0.0
2026-01-05 06:49:03.122157	69.8	31.4	-64.8	0.0
2026-01-05 06:49:04.238913	70.1	31.5	-65.6	0.0
2026-01-05 06:49:05.360669	70.5	31.6	-64.9	0.0
2026-01-05 06:49:06.477425	70.9	31.7	-65.2	0.0
2026-01-05 06:49:07.592179	71.3	31.8	-65.7	0.0
2026-01-05 06:49:08.707935	71.6	31.9	-65.2	0.0
2026-01-05 06:49:09.823186	72.0	32.0	-64.8	0.0
2026-01-05 06:49:10.938941	72.4	32.1	-63.1	0.0
2026-01-05 06:49:12.055193	72.8	32.1	-64.5	0.0
2026-01-05 06:49:13.170957	73.2	32.2	-63.7	0.0
2026-01-05 06:49:14.288209	73.5	32.3	-63.3	0.0
2026-01-05 06:49:15.402964	73.9	32.4	-62.6	0.0
2026-01-05 06:49:16.518729	74.3	32.5	-63.0	0.0
2026-01-05 06:49:17.633981	74.7	32.6	-64.0	0.0
2026-01-05 06:49:18.747744	75.1	32.6	-65.3	0.0
2026-01-05 06:49:19.863500	75.5	32.7	-63.0	0.0
2026-01-05 06:49:20.978751	75.9	32.8	-64.9	0.0
2026-01-05 06:49:22.096002	76.3	32.9	-64.7	0.0
2026-01-05 06:49:23.211262	76.7	32.9	-63.9	0.0
2026-01-05 06:49:24.326513	77.1	33.0	-63.9	0.0
2026-01-05 06:49:25.441765	77.5	33.1	-63.7	0.0
2026-01-05 06:49:26.558016	77.9	33.1	-64.9	0.0
2026-01-05 06:49:27.674771	78.3	33.2	-63.9	0.0
2026-01-05 06:49:28.790527	78.7	33.3	-65.6	0.0
2026-01-05 06:49:29.906787	79.1	33.3	-62.8	0.0
2026-01-05 06:49:31.022038	79.5	33.4	-64.3	0.0
2026-01-05 06:49:32.137794	80.0	33.5	-65.4	0.0
2026-01-05 06:49:33.252053	80.4	33.5	-63.7	0.0
2026-01-05 06:49:34.368313	80.8	33.6	-63.4	0.0
2026-01-05 06:49:35.483574	81.2	33.6	-63.1	0.0
2026-01-05 06:49:36.599825	81.6	33.7	-64.0	0.0
2026-01-05 06:49:37.715076	82.0	33.7	-63.4	0.0
2026-01-05 06:49:38.831328	82.5	33.8	-63.2	0.0
2026-01-05 06:49:39.950589	82.9	33.8	-64.1	0.0
2026-01-05 06:49:41.065840	83.3	33.9	-64.4	0.0
2026-01-05 06:49:42.181091	83.7	33.9	-64.3	0.0
2026-01-05 06:49:43.297847	84.2	34.0	-63.6	0.0
2026-01-05 06:49:44.413603	84.6	34.0	-63.1	0.0
2026-01-05 06:49:45.529863	85.0	34.1	-64.2	0.0
2026-01-05 06:49:46.645618	85.5	34.1	-62.6	0.0
2026-01-05 06:49:47.765374	85.9	34.1	-62.4	0.0
2026-01-05 06:49:48.887132	86.3	34.2	-64.4	0.0
2026-01-05 06:49:50.010394	86.8	34.2	-64.0	0.0
2026-01-05 06:49:51.132646	87.2	34.3	-65.2	0.0
2026-01-05 06:49:52.254403	87.6	34.3	-65.3	0.0
2026-01-05 06:49:53.376664	88.1	34.3	-65.5	0.0
2026-01-05 06:49:54.498421	88.5	34.3	-63.4	0.0
2026-01-05 06:49:55.620178	89.0	34.4	-65.6	0.0
2026-01-05 06:49:56.741439	89.4	34.4	-66.2	0.0
2026-01-05 06:49:57.863701	89.8	34.4	-66.2	0.0
2026-01-05 06:49:58.985954	90.3	34.4	-64.4	0.0
2026-01-05 06:50:00.107711	90.7	34.5	-66.1	0.0
2026-01-05 06:50:01.229964	91.2	34.5	-65.9	0.0
2026-01-05 06:50:02.352225	91.6	34.5	-67.7	0.0
2026-01-05 06:50:03.473486	92.1	34.5	-65.5	0.0
2026-01-05 06:50:04.595244	92.5	34.5	-64.7	0.0
2026-01-05 06:50:05.711496	92.9	34.5	-65.6	0.0
2026-01-05 06:50:06.828756	93.4	34.5	-67.6	0.0
2026-01-05 06:50:07.947008	93.8	34.5	-67.6	0.0
2026-01-05 06:50:09.064765	94.3	34.5	-66.9	0.0
2026-01-05 06:50:10.182016	94.7	34.5	-65.2	0.0
2026-01-05 06:50:11.298267	95.2	34.5	-68.2	0.0
2026-01-05 06:50:12.414032	95.6	34.5	-66.7	0.0
2026-01-05 06:50:13.531283	96.0	34.5	-65.7	0.0
2026-01-05 06:50:14.648048	96.5	34.5	-64.2	0.0
2026-01-05 06:50:15.763299	96.9	34.5	-66.4	0.0
2026-01-05 06:50:16.879550	97.4	34.5	-67.0	0.0
2026-01-05 06:50:17.994802	97.8	34.5	-68.1	0.0
2026-01-05 06:50:19.112062	98.3	34.5	-65.0	0.0
2026-01-05 06:50:20.227313	98.7	34.5	-66.9	0.0
2026-01-05 06:50:21.343068	99.1	34.5	-67.5	0.0
2026-01-05 06:50:22.461320	99.6	34.4	-65.4	0.0
2026-01-05 06:50:23.574571	100.0	34.4	-68.0	0.0
2026-01-05 06:50:24.689822	100.5	34.4	-67.2	0.0
2026-01-05 06:50:25.806578	100.9	34.4	-68.2	0.0
2026-01-05 06:50:26.922333	101.3	34.3	-67.6	0.0
2026-01-05 06:50:28.037089	101.8	34.3	-68.9	0.0
2026-01-05 06:50:29.154341	102.2	34.3	-67.9	0.0
2026-01-05 06:50:30.268592	102.6	34.3	-67.8	0.0
2026-01-05 06:50:31.382843	103.1	34.2	-68.6	0.0
2026-01-05 06:50:32.501103	103.5	34.2	-68.8	0.0
2026-01-05 06:50:33.614858	104.0	34.1	-67.9	0.0
2026-01-05 06:50:34.730614	104.4	34.1	-66.7	0.0
2026-01-05 06:50:35.846369	104.8	34.1	-68.9	0.0
2026-01-05 06:50:36.960620	105.2	34.0	-68.2	0.0
2026-01-05 06:50:38.075871	105.7	34.0	-69.3	0.0
2026-01-05 06:50:39.193132	106.1	33.9	-69.2	0.0
2026-01-05 06:50:40.308383	106.5	33.9	-68.0	0.0
2026-01-05 06:50:41.422642	107.0	33.8	-68.5	0.0
2026-01-05 06:50:42.539398	107.4	33.8	-68.0	0.0
2026-01-05 06:50:43.655657	107.8	33.7	-68.1	0.0
2026-01-05 06:50:44.768908	108.2	33.7	-69.1	0.0
2026-01-05 06:50:45.885184	108.6	33.6	-68.2	0.0
2026-01-05 06:50:46.999435	109.1	33.6	-69.2	0.0
2026-01-05 06:50:48.114695	109.5	33.5	-69.9	0.0
2026-01-05 06:50:49.230450	109.9	33.5	-68.8	0.0
2026-01-05 06:50:50.350710	110.3	33.4	-68.2	0.0
2026-01-05 06:50:51.465962	110.7	33.3	-68.0	0.0
2026-01-05 06:50:52.581221	111.1	33.3	-68.6	0.0
2026-01-05 06:50:53.695472	111.5	33.2	-68.9	0.0
2026-01-05 06:50:54.810723	112.0	33.1	-67.9	0.0
2026-01-05 06:50:55.927479	112.4	33.1	-68.2	0.0
2026-01-05 06:50:57.042235	112.8	33.0	-69.3	0.0
2026-01-05 06:50:58.157486	113.2	32.9	-69.5	0.0
2026-01-05 06:50:59.273737	113.6	32.8	-69.2	0.0
2026-01-05 06:51:00.389500	114.0	32.8	-68.6	0.0
2026-01-05 06:51:01.509257	114.4	32.7	-69.5	0.0
2026-01-05 06:51:02.624509	114.8	32.6	-69.5	0.0
2026-01-05 06:51:03.746265	115.2	32.5	-69.4	0.0
2026-01-05 06:51:04.868518	115.6	32.5	-68.2	0.0
2026-01-05 06:51:05.989771	115.9	32.4	-67.3	0.0
2026-01-05 06:51:07.109032	116.3	32.3	-68.8	0.0
2026-01-05 06:51:08.231285	116.7	32.2	-68.4	0.0
2026-01-05 06:51:09.353042	117.1	32.1	-68.8	0.0
2026-01-05 06:51:10.474799	117.5	32.0	-68.7	0.0
2026-01-05 06:51:11.596556	117.9	32.0	-69.3	0.0
2026-01-05 06:51:12.718809	118.3	31.9	-69.4	0.0
2026-01-05 06:51:13.840566	118.6	31.8	-69.3	0.0
2026-01-05 06:51:14.962323	119.0	31.7	-68.6	0.0
2026-01-05 06:51:16.084576	119.4	31.6	-69.0	0.0
2026-01-05 06:51:17.209838	119.8	31.5	-68.3	0.0
2026-01-05 06:51:18.329098	120.1	31.4	-68.1	0.0
2026-01-05 06:51:19.442359	120.5	31.3	-68.0	0.0
2026-01-05 06:51:20.558115	120.9	31.2	-68.3	0.0
2026-01-05 06:51:21.673366	121.2	31.1	-69.3	0.0
2026-01-05 06:51:22.790121	121.6	31.0	-69.8	0.0
2026-01-05 06:51:23.904381	121.9	30.9	-69.6	0.0
2026-01-05 06:51:25.021136	122.3	30.8	-69.1	0.0
2026-01-05 06:51:26.136893	122.6	30.7	-69.6	0.0
2026-01-05 06:51:27.251165	123.0	30.6	-69.1	0.0
2026-01-05 06:51:28.365416	123.3	30.5	-69.5	0.0
2026-01-05 06:51:29.482171	123.7	30.4	-69.5	0.0
2026-01-05 06:51:30.596431	124.0	30.3	-68.6	0.0
2026-01-05 06:51:31.713187	124.4	30.2	-69.4	0.0
2026-01-05 06:51:32.828438	124.7	30.1	-70.1	0.0
2026-01-05 06:51:33.944689	125.1	30.0	-68.9	0.0
2026-01-05 06:51:35.059941	125.4	29.9	-68.0	0.0
2026-01-05 06:51:36.174192	125.7	29.8	-69.2	0.0
2026-01-05 06:51:37.288947	126.1	29.7	-69.5	0.0
2026-01-05 06:51:38.403198	126.4	29.6	-68.3	0.0
2026-01-05 06:51:39.518458	126.7	29.5	-66.8	0.0
2026-01-05 06:51:40.633709	127.0	29.4	-67.3	0.0
2026-01-05 06:51:41.747960	127.4	29.3	-69.2	0.0
2026-01-05 06:51:42.863211	127.7	29.2	-66.5	0.0
2026-01-05 06:51:43.977462	128.0	29.1	-68.6	0.0
2026-01-05 06:51:45.092713	128.3	28.9	-69.6	0.0
2026-01-05 06:51:46.207964	128.6	28.8	-68.2	0.0
2026-01-05 06:51:47.323215	129.0	28.7	-69.3	0.0
2026-01-05 06:51:48.438467	129.3	28.6	-69.5	0.0
2026-01-05 06:51:49.553718	129.6	28.5	-69.3	0.0
2026-01-05 06:51:50.668969	129.9	28.4	-67.7	0.0
2026-01-05 06:51:51.785220	130.2	28.3	-70.0	0.0
2026-01-05 06:51:52.902480	130.5	28.2	-68.9	0.0
2026-01-05 06:51:54.017236	130.8	28.0	-69.6	0.0
2026-01-05 06:51:55.133495	131.1	27.9	-69.0	0.0
2026-01-05 06:51:56.250747	131.4	27.8	-69.8	0.0
2026-01-05 06:51:57.365502	131.7	27.7	-70.4	0.0
2026-01-05 06:51:58.480753	132.0	27.6	-68.6	0.0
2026-01-05 06:51:59.597005	132.3	27.5	-70.1	0.0
2026-01-05 06:52:00.713264	132.5	27.3	-69.6	0.0
2026-01-05 06:52:01.830524	132.8	27.2	-69.3	0.0
2026-01-05 06:52:02.945775	133.1	27.1	-68.2	0.0
2026-01-05 06:52:04.066036	133.4	27.0	-69.4	0.0
2026-01-05 06:52:05.180791	133.7	26.9	-68.6	0.0
2026-01-05 06:52:06.295547	133.9	26.8	-67.9	0.0
2026-01-05 06:52:07.412302	134.2	26.6	-69.3	0.0
2026-01-05 06:52:08.527057	134.5	26.5	-68.8	0.0
2026-01-05 06:52:09.642813	134.8	26.4	-69.0	0.0
2026-01-05 06:52:10.759074	135.0	26.3	-68.5	0.0
2026-01-05 06:52:11.873325	135.3	26.2	-69.0	0.0
2026-01-05 06:52:12.988080	135.6	26.1	-69.2	0.0
2026-01-05 06:52:14.103836	135.8	25.9	-69.4	0.0
2026-01-05 06:52:15.219591	136.1	25.8	-69.4	0.0
2026-01-05 06:52:16.338347	136.4	25.7	-69.4	0.0
2026-01-05 06:52:17.453599	136.6	25.6	-69.6	0.0
2026-01-05 06:52:18.573356	136.9	25.5	-68.6	0.0
2026-01-05 06:52:19.690607	137.1	25.3	-69.1	0.0
2026-01-05 06:52:20.806363	137.4	25.2	-69.2	0.0
2026-01-05 06:52:21.922614	137.6	25.1	-69.3	0.2
2026-01-05 06:52:23.039370	137.9	25.0	-69.0	0.0
2026-01-05 06:52:24.162127	138.1	24.9	-69.1	0.0
2026-01-05 06:52:25.282396	138.4	24.8	-69.5	0.0
2026-01-05 06:52:26.403649	138.6	24.6	-69.2	0.0
2026-01-05 06:52:27.524901	138.9	24.5	-68.3	0.0
2026-01-05 06:52:28.647154	139.1	24.4	-69.3	0.0
2026-01-05 06:52:29.768415	139.3	24.3	-69.1	0.0
2026-01-05 06:52:30.890668	139.6	24.2	-68.8	0.0
2026-01-05 06:52:32.005919	139.8	24.0	-69.5	0.2
2026-01-05 06:52:33.126181	140.0	23.9	-69.3	0.0
2026-01-05 06:52:34.248434	140.3	23.8	-69.0	0.0
2026-01-05 06:52:35.370686	140.5	23.7	-68.8	0.0
2026-01-05 06:52:36.492939	140.7	23.6	-68.4	0.0
2026-01-05 06:52:37.614696	141.0	23.4	-68.1	0.0
2026-01-05 06:52:38.735958	141.2	23.3	-67.9	0.0
2026-01-05 06:52:39.856723	141.4	23.2	-68.6	0.3
2026-01-05 06:52:40.972479	141.6	23.1	-68.6	0.2
2026-01-05 06:52:42.087738	141.9	23.0	-68.8	1.5
2026-01-05 06:52:43.206999	142.1	22.9	-67.7	0.0
2026-01-05 06:52:44.322251	142.3	22.7	-68.1	0.0
2026-01-05 06:52:45.437510	142.5	22.6	-67.9	0.3
2026-01-05 06:52:46.552275	142.7	22.5	-67.6	0.0
2026-01-05 06:52:47.667526	142.9	22.4	-67.5	0.4
2026-01-05 06:52:48.782777	143.1	22.3	-68.5	1.7
2026-01-05 06:52:49.899029	143.3	22.1	-68.0	1.0
2026-01-05 06:52:51.013289	143.6	22.0	-66.9	0.0
2026-01-05 06:52:52.131045	143.8	21.9	-68.1	3.2
2026-01-05 06:52:53.246296	144.0	21.8	-68.3	3.0
2026-01-05 06:52:54.361547	144.2	21.7	-67.9	3.2
2026-01-05 06:52:55.475302	144.4	21.6	-68.0	2.9
2026-01-05 06:52:56.593058	144.6	21.4	-67.5	2.2
2026-01-05 06:52:57.707814	144.8	21.3	-67.3	1.6
2026-01-05 06:52:58.823065	145.0	21.2	-67.3	1.2
2026-01-05 06:52:59.940821	145.2	21.1	-67.4	1.1
2026-01-05 06:53:01.056576	145.3	21.0	-67.6	3.7
2026-01-05 06:53:02.174332	145.5	20.9	-68.2	4.1
2026-01-05 06:53:03.290097	145.7	20.8	-67.0	1.4
2026-01-05 06:53:04.407853	145.9	20.6	-68.4	3.4
2026-01-05 06:53:05.522609	146.1	20.5	-67.5	2.4
2026-01-05 06:53:06.642861	146.3	20.4	-67.4	3.1
2026-01-05 06:53:07.757616	146.5	20.3	-67.1	2.9
2026-01-05 06:53:08.875884	146.7	20.2	-66.8	3.5
2026-01-05 06:53:09.992136	146.8	20.1	-68.1	4.5
2026-01-05 06:53:11.109396	147.0	20.0	-67.3	4.0
2026-01-05 06:53:12.225152	147.2	19.8	-67.6	3.4
2026-01-05 06:53:13.340403	147.4	19.7	-67.6	4.1
2026-01-05 06:53:14.458655	147.6	19.6	-67.2	3.3
2026-01-05 06:53:15.574411	147.7	19.5	-68.2	3.5
2026-01-05 06:53:16.691174	147.9	19.4	-67.5	4.1
2026-01-05 06:53:17.806425	148.1	19.3	-67.8	3.8
2026-01-05 06:53:18.920676	148.3	19.2	-66.5	3.2
2026-01-05 06:53:20.037928	148.4	19.1	-67.8	4.9
2026-01-05 06:53:21.153189	148.6	19.0	-68.0	4.4
2026-01-05 06:53:22.268440	148.8	18.8	-67.2	3.7
2026-01-05 06:53:23.381691	148.9	18.7	-67.5	4.5
2026-01-05 06:53:24.497942	149.1	18.6	-67.5	4.6
2026-01-05 06:53:25.615203	149.3	18.5	-67.8	5.6
2026-01-05 06:53:26.730454	149.4	18.4	-66.7	4.0
2026-01-05 06:53:27.847706	149.6	18.3	-67.9	3.4
2026-01-05 06:53:28.966966	149.8	18.2	-67.8	4.2
2026-01-05 06:53:30.082217	149.9	18.1	-67.6	4.2
2026-01-05 06:53:31.198469	150.1	18.0	-67.5	1.9
2026-01-05 06:53:32.313720	150.2	17.9	-67.0	2.0
2026-01-05 06:53:33.427979	150.4	17.8	-67.5	3.7
2026-01-05 06:53:34.544735	150.6	17.6	-66.7	1.0
2026-01-05 06:53:35.659986	150.7	17.5	-67.3	3.6
2026-01-05 06:53:36.775750	150.9	17.4	-67.3	3.6
2026-01-05 06:53:37.891001	151.0	17.3	-66.8	2.0
2026-01-05 06:53:39.007756	151.2	17.2	-66.4	3.9
2026-01-05 06:53:40.127523	151.3	17.1	-67.1	3.1
2026-01-05 06:53:41.244791	151.5	17.0	-67.4	4.3
2026-01-05 06:53:42.360547	151.6	16.9	-67.6	5.2
2026-01-05 06:53:43.475798	151.8	16.8	-67.5	5.1
2026-01-05 06:53:44.592050	151.9	16.7	-67.7	5.0
2026-01-05 06:53:45.707805	152.1	16.6	-67.2	4.3
2026-01-05 06:53:46.828570	152.2	16.5	-67.3	4.3
2026-01-05 06:53:47.949831	152.4	16.4	-67.1	4.9
2026-01-05 06:53:49.071588	152.5	16.3	-67.4	4.7
2026-01-05 06:53:50.193345	152.6	16.2	-67.3	4.7
2026-01-05 06:53:51.314607	152.8	16.1	-67.6	4.4
2026-01-05 06:53:52.435868	152.9	16.0	-67.1	5.6
2026-01-05 06:53:53.557129	153.1	15.9	-67.0	3.9
2026-01-05 06:53:54.677894	153.2	15.7	-66.9	3.0
2026-01-05 06:53:55.799651	153.3	15.6	-67.4	5.3
2026-01-05 06:53:56.922408	153.5	15.5	-67.4	5.2
2026-01-05 06:53:58.043670	153.6	15.4	-67.0	4.7
2026-01-05 06:53:59.165427	153.8	15.3	-66.4	2.7
2026-01-05 06:54:00.287680	153.9	15.2	-67.5	5.1
2026-01-05 06:54:01.406932	154.0	15.1	-67.0	3.8
2026-01-05 06:54:02.523696	154.2	15.0	-67.4	6.0
2026-01-05 06:54:03.638956	154.3	14.9	-67.3	6.1
2026-01-05 06:54:04.757216	154.4	14.8	-67.4	6.0
2026-01-05 06:54:05.873972	154.5	14.7	-67.4	5.8
2026-01-05 06:54:06.990231	154.7	14.6	-67.3	4.5
2026-01-05 06:54:08.106482	154.8	14.5	-67.0	3.7
2026-01-05 06:54:09.223238	154.9	14.4	-66.9	5.0
2026-01-05 06:54:10.339489	155.1	14.3	-66.8	5.0
2026-01-05 06:54:11.455748	155.2	14.2	-67.3	5.8
2026-01-05 06:54:12.571000	155.3	14.1	-66.9	5.9
2026-01-05 06:54:13.687251	155.4	14.0	-67.2	5.9
2026-01-05 06:54:14.803512	155.5	13.9	-67.2	5.6
2026-01-05 06:54:15.918763	155.7	13.8	-67.2	5.8
2026-01-05 06:54:17.037519	155.8	13.7	-66.9	6.5
2026-01-05 06:54:18.154275	155.9	13.7	-66.4	5.6
2026-01-05 06:54:19.269031	156.0	13.6	-66.2	5.5
2026-01-05 06:54:20.385787	156.2	13.5	-65.8	4.7
2026-01-05 06:54:21.501038	156.3	13.4	-66.8	5.7
2026-01-05 06:54:22.617290	156.4	13.3	-66.5	6.3
2026-01-05 06:54:23.734541	156.5	13.2	-66.6	5.8
2026-01-05 06:54:24.851297	156.6	13.1	-66.6	6.2
2026-01-05 06:54:25.966054	156.7	13.0	-66.4	6.0
2026-01-05 06:54:27.081809	156.9	12.9	-66.4	5.8
2026-01-05 06:54:28.200565	157.0	12.8	-65.7	4.6
2026-01-05 06:54:29.317330	157.1	12.7	-66.6	5.2
2026-01-05 06:54:30.433581	157.2	12.6	-66.8	4.7
2026-01-05 06:54:31.551833	157.3	12.5	-66.2	4.1
2026-01-05 06:54:32.666589	157.4	12.4	-66.7	5.6
2026-01-05 06:54:33.783840	157.5	12.3	-66.4	5.3
2026-01-05 06:54:34.901606	157.6	12.2	-66.5	5.3
2026-01-05 06:54:36.016361	157.7	12.1	-66.8	5.4
2026-01-05 06:54:37.133612	157.9	12.0	-66.9	5.8
2026-01-05 06:54:38.247863	158.0	12.0	-66.5	4.6
2026-01-05 06:54:39.364115	158.1	11.9	-66.7	5.1
2026-01-05 06:54:40.483375	158.2	11.8	-66.4	4.9
2026-01-05 06:54:41.599627	158.3	11.7	-66.8	5.4
2026-01-05 06:54:42.715383	158.4	11.6	-66.7	5.1
2026-01-05 06:54:43.830138	158.5	11.5	-66.4	3.9
2026-01-05 06:54:44.946398	158.6	11.4	-66.3	5.0
2026-01-05 06:54:46.064153	158.7	11.3	-66.7	5.6
2026-01-05 06:54:47.180414	158.8	11.2	-67.0	5.1
2026-01-05 06:54:48.295665	158.9	11.1	-66.3	5.1
2026-01-05 06:54:49.412421	159.0	11.0	-66.9	5.0
2026-01-05 06:54:50.528672	159.1	11.0	-66.7	5.1
2026-01-05 06:54:51.645924	159.2	10.9	-66.7	5.5
2026-01-05 06:54:52.762176	159.3	10.8	-66.8	4.5
2026-01-05 06:54:53.878427	159.4	10.7	-66.8	5.3
2026-01-05 06:54:54.994679	159.5	10.6	-66.9	4.8
2026-01-05 06:54:56.112938	159.6	10.5	-66.7	4.8
2026-01-05 06:54:57.228189	159.7	10.4	-66.7	4.6
2026-01-05 06:54:58.345946	159.8	10.3	-66.2	4.6
2026-01-05 06:54:59.462701	159.9	10.3	-66.4	4.0
2026-01-05 06:55:00.580953	160.0	10.2	-66.3	4.8
2026-01-05 06:55:01.701214	160.1	10.1	-66.8	4.4
2026-01-05 06:55:02.823467	160.2	10.0	-66.6	4.1
2026-01-05 06:55:03.944233	160.3	9.9	-66.6	3.8
2026-01-05 06:55:05.065991	160.4	9.8	-66.3	3.8
2026-01-05 06:55:06.187252	160.5	9.7	-66.1	3.5
2026-01-05 06:55:07.309009	160.6	9.6	-66.4	3.5
2026-01-05 06:55:08.431262	160.7	9.6	-66.0	3.7
2026-01-05 06:55:09.553515	160.7	9.5	-66.3	2.3
2026-01-05 06:55:10.675271	160.8	9.4	-66.7	3.9
2026-01-05 06:55:11.797028	160.9	9.3	-66.2	3.5
2026-01-05 06:55:12.919281	161.0	9.2	-66.5	4.3
2026-01-05 06:55:14.041533	161.1	9.1	-66.5	4.2
2026-01-05 06:55:15.164291	161.2	9.0	-66.4	3.8
2026-01-05 06:55:16.286048	161.3	9.0	-66.4	3.0
2026-01-05 06:55:17.401308	161.4	8.9	-66.4	3.8
2026-01-05 06:55:18.519568	161.5	8.8	-66.3	1.9
2026-01-05 06:55:19.634819	161.6	8.7	-66.1	3.6
2026-01-05 06:55:20.750071	161.6	8.6	-66.3	4.1
2026-01-05 06:55:21.865322	161.7	8.5	-66.2	2.3
2026-01-05 06:55:22.979573	161.8	8.5	-66.4	3.9
2026-01-05 06:55:24.095833	161.9	8.4	-65.9	3.8
2026-01-05 06:55:25.210084	162.0	8.3	-66.4	3.3
2026-01-05 06:55:26.325352	162.1	8.2	-66.6	3.9
2026-01-05 06:55:27.440603	162.2	8.1	-66.0	1.5
2026-01-05 06:55:28.556863	162.2	8.1	-65.8	2.8
2026-01-05 06:55:29.672619	162.3	8.0	-66.3	3.5
2026-01-05 06:55:30.788374	162.4	7.9	-65.9	3.0
2026-01-05 06:55:31.903625	162.5	7.8	-66.4	2.6
2026-01-05 06:55:33.018380	162.6	7.7	-66.6	3.8
2026-01-05 06:55:34.133632	162.6	7.7	-66.1	4.6
2026-01-05 06:55:35.247883	162.7	7.6	-66.6	3.2
2026-01-05 06:55:36.362638	162.8	7.5	-66.5	2.7
2026-01-05 06:55:37.477889	162.9	7.4	-66.1	3.4
2026-01-05 06:55:38.594645	163.0	7.3	-65.8	3.6
2026-01-05 06:55:39.711897	163.0	7.3	-65.8	2.4
2026-01-05 06:55:40.826652	163.1	7.2	-66.0	2.8
2026-01-05 06:55:41.941928	163.2	7.1	-66.1	3.4
2026-01-05 06:55:43.060180	163.3	7.0	-66.3	3.7
2026-01-05 06:55:44.175431	163.4	6.9	-66.3	2.2
2026-01-05 06:55:45.289682	163.4	6.9	-66.0	2.4
2026-01-05 06:55:46.404933	163.5	6.8	-65.2	0.8
2026-01-05 06:55:47.523185	163.6	6.7	-65.5	1.6
2026-01-05 06:55:48.645942	163.7	6.6	-65.1	0.0
2026-01-05 06:55:49.767195	163.7	6.5	-65.5	3.1
2026-01-05 06:55:50.887951	163.8	6.5	-65.4	1.9
2026-01-05 06:55:52.009204	163.9	6.4	-65.4	0.0
2026-01-05 06:55:53.125960	164.0	6.3	-65.6	2.4
2026-01-05 06:55:54.242211	164.0	6.2	-65.3	2.1
2026-01-05 06:55:55.356462	164.1	6.2	-65.4	2.4
2026-01-05 06:55:56.471713	164.2	6.1	-65.1	1.3
2026-01-05 06:55:57.588965	164.3	6.0	-65.5	4.2
2026-01-05 06:55:58.703720	164.3	5.9	-65.8	4.6
2026-01-05 06:55:59.818971	164.4	5.9	-68.5	0.0
2026-01-05 06:56:00.936231	164.5	5.8	-69.9	0.0
2026-01-05 06:56:02.053987	164.6	5.7	-69.3	0.0
2026-01-05 06:56:03.168743	164.6	5.6	-70.2	0.0
2026-01-05 06:56:04.285994	164.7	5.6	-70.5	0.0
2026-01-05 06:56:05.399245	164.8	5.5	-71.5	0.0
2026-01-05 06:56:06.512999	164.8	5.4	-71.3	0.0
2026-01-05 06:56:07.627250	164.9	5.3	-71.8	0.0
2026-01-05 06:56:08.741501	165.0	5.3	-72.4	0.0
2026-01-05 06:56:09.854752	165.0	5.2	-72.7	0.0
2026-01-05 06:56:10.971012	165.1	5.1	-72.5	0.0
2026-01-05 06:56:12.086263	165.2	5.0	-72.8	0.0
2026-01-05 06:56:13.200514	165.2	5.0	-72.5	0.0
#Closed at: 2026-01-05 06:44:00.321387