passes_logs/2026/01/05/PlanumMoscow/PlanumMoscow__20260105_073948_METEOR-M2_3_rec.log

#Pass ID: 20260105_073948_METEOR-M2 3
#Satellite: METEOR-M2 3
#Configuration: METEOR-M2 3
#Start time: 2026-01-05 07:39:53.146126

#LorettStation: 1.0.0 05.05.2024
#Station: PlanumMoscow
#Location: 37.6253844 lon 55.6713361 lat
#TLE: 1 57166U 23091A   25293.99389264  .00000062  00000+0  46113-4 0  9997
#TLE: 2 57166  98.6457 348.4330 0004759 135.3141 224.8422 14.24016546120475

#Time	Az	El	Level	SNR
2026-01-05 07:43:31.586089	10.7	29.4	-60.6	5.9
2026-01-05 07:43:32.705341	10.6	29.6	-60.0	3.6
2026-01-05 07:43:33.827098	10.5	29.8	-61.1	3.1
2026-01-05 07:43:34.948359	10.5	30.0	-61.9	7.0
2026-01-05 07:43:36.070124	10.4	30.2	-61.2	7.1
2026-01-05 07:43:37.192376	10.4	30.4	-60.1	5.6
2026-01-05 07:43:38.314133	10.3	30.7	-60.9	9.0
2026-01-05 07:43:39.435890	10.3	30.9	-60.6	6.9
2026-01-05 07:43:40.557647	10.2	31.1	-61.8	7.5
2026-01-05 07:43:41.675908	10.1	31.3	-62.0	9.8
2026-01-05 07:43:42.795169	10.1	31.5	-61.4	10.8
2026-01-05 07:43:43.914933	10.0	31.8	-60.6	4.1
2026-01-05 07:43:45.037186	9.9	32.0	-62.3	8.9
2026-01-05 07:43:46.159448	9.9	32.2	-62.5	10.9
2026-01-05 07:43:47.281205	9.8	32.5	-62.7	8.2
2026-01-05 07:43:48.403466	9.8	32.7	-58.8	3.1
2026-01-05 07:43:49.525719	9.7	32.9	-60.6	8.6
2026-01-05 07:43:50.647476	9.6	33.2	-62.1	8.3
2026-01-05 07:43:51.770737	9.5	33.4	-60.5	5.0
2026-01-05 07:43:52.889989	9.5	33.6	-62.3	9.0
2026-01-05 07:43:54.010241	9.4	33.9	-61.4	6.6
2026-01-05 07:43:55.130999	9.3	34.1	-62.5	7.2
2026-01-05 07:43:56.252251	9.3	34.4	-61.8	6.4
2026-01-05 07:43:57.373504	9.2	34.6	-61.4	6.5
2026-01-05 07:43:58.494260	9.1	34.9	-63.0	8.8
2026-01-05 07:43:59.615522	9.0	35.1	-62.8	8.0
2026-01-05 07:44:00.735792	8.9	35.4	-61.8	4.7
2026-01-05 07:44:01.858045	8.9	35.6	-63.1	7.8
2026-01-05 07:44:02.978307	8.8	35.9	-63.9	11.6
2026-01-05 07:44:04.100559	8.7	36.1	-60.8	6.1
2026-01-05 07:44:05.219316	8.6	36.4	-63.4	10.7
2026-01-05 07:44:06.338071	8.5	36.7	-62.8	7.6
2026-01-05 07:44:07.458324	8.4	36.9	-63.6	9.7
2026-01-05 07:44:08.580081	8.3	37.2	-61.9	7.3
2026-01-05 07:44:09.700845	8.3	37.5	-60.1	5.5
2026-01-05 07:44:10.820097	8.2	37.7	-60.7	10.3
2026-01-05 07:44:11.942854	8.1	38.0	-58.7	3.4
2026-01-05 07:44:13.063620	8.0	38.3	-58.8	2.9
2026-01-05 07:44:14.185377	7.9	38.6	-60.0	7.1
2026-01-05 07:44:15.305629	7.8	38.9	-61.1	5.4
2026-01-05 07:44:16.425881	7.7	39.1	-61.3	5.7
2026-01-05 07:44:17.546150	7.6	39.4	-62.2	11.2
2026-01-05 07:44:18.666403	7.5	39.7	-60.6	7.4
2026-01-05 07:44:19.788655	7.4	40.0	-61.0	6.8
2026-01-05 07:44:20.907916	7.3	40.3	-63.6	11.2
2026-01-05 07:44:22.029673	7.1	40.6	-62.5	10.7
2026-01-05 07:44:23.150925	7.0	40.9	-62.7	9.1
2026-01-05 07:44:24.271690	6.9	41.2	-62.2	8.2
2026-01-05 07:44:25.392447	6.8	41.5	-60.4	7.8
2026-01-05 07:44:26.513203	6.7	41.8	-61.7	8.3
2026-01-05 07:44:27.633960	6.6	42.1	-61.8	6.6
2026-01-05 07:44:28.754212	6.4	42.4	-62.8	8.8
2026-01-05 07:44:29.873473	6.3	42.7	-62.9	7.3
2026-01-05 07:44:30.991734	6.2	43.0	-63.2	9.8
2026-01-05 07:44:32.112004	6.0	43.3	-61.4	6.9
2026-01-05 07:44:33.233265	5.9	43.7	-64.5	11.4
2026-01-05 07:44:34.352517	5.8	44.0	-64.2	11.6
2026-01-05 07:44:35.473770	5.6	44.3	-61.7	8.2
2026-01-05 07:44:36.593022	5.5	44.6	-62.4	6.8
2026-01-05 07:44:37.714779	5.3	45.0	-61.7	10.6
2026-01-05 07:44:38.829534	5.2	45.3	-62.7	5.0
2026-01-05 07:44:39.947786	5.0	45.6	-61.7	7.9
2026-01-05 07:44:41.067047	4.9	45.9	-63.6	9.8
2026-01-05 07:44:42.184803	4.7	46.3	-63.2	10.2
2026-01-05 07:44:43.302559	4.6	46.6	-63.2	10.5
2026-01-05 07:44:44.423812	4.4	47.0	-62.9	8.6
2026-01-05 07:44:45.541073	4.2	47.3	-64.2	12.0
2026-01-05 07:44:46.664334	4.0	47.7	-63.8	10.6
2026-01-05 07:44:47.784091	3.9	48.0	-63.2	8.5
2026-01-05 07:44:48.900846	3.7	48.4	-63.1	9.9
2026-01-05 07:44:50.021099	3.5	48.7	-63.5	9.6
2026-01-05 07:44:51.141351	3.3	49.1	-64.7	11.5
2026-01-05 07:44:52.261612	3.1	49.4	-63.9	9.9
2026-01-05 07:44:53.382864	2.9	49.8	-63.8	10.2
2026-01-05 07:44:54.505621	2.7	50.2	-64.0	10.8
2026-01-05 07:44:55.621873	2.5	50.5	-63.7	8.6
2026-01-05 07:44:56.742125	2.3	50.9	-64.5	10.1
2026-01-05 07:44:57.861881	2.0	51.3	-65.0	10.9
2026-01-05 07:44:58.981646	1.8	51.7	-64.8	10.9
2026-01-05 07:45:00.102403	1.6	52.0	-64.5	10.8
2026-01-05 07:45:01.219655	1.3	52.4	-64.5	9.0
2026-01-05 07:45:02.335906	1.1	52.8	-65.1	10.4
2026-01-05 07:45:03.457671	0.8	53.2	-64.5	9.5
2026-01-05 07:45:04.576923	0.6	53.6	-65.4	10.3
2026-01-05 07:45:05.695183	0.3	54.0	-65.3	11.0
2026-01-05 07:45:06.814444	0.0	54.4	-66.0	11.8
2026-01-05 07:45:07.933696	359.8	54.8	-64.7	10.8
2026-01-05 07:45:09.051947	359.5	55.2	-64.9	9.8
2026-01-05 07:45:10.168199	359.2	55.6	-65.8	11.1
2026-01-05 07:45:11.286955	358.9	56.0	-65.7	11.2
2026-01-05 07:45:12.408720	358.5	56.4	-65.6	7.3
2026-01-05 07:45:13.524476	358.2	56.8	-66.4	10.4
2026-01-05 07:45:14.641737	357.9	57.2	-66.2	11.8
2026-01-05 07:45:15.760989	357.5	57.6	-65.6	11.1
2026-01-05 07:45:16.882250	357.2	58.0	-66.3	11.9
2026-01-05 07:45:18.004007	356.8	58.4	-66.5	11.7
2026-01-05 07:45:19.125764	356.4	58.8	-67.1	12.1
2026-01-05 07:45:20.247027	356.0	59.3	-66.2	10.2
2026-01-05 07:45:21.368288	355.6	59.7	-66.7	11.1
2026-01-05 07:45:22.489053	355.2	60.1	-66.9	11.8
2026-01-05 07:45:23.610810	354.8	60.5	-66.7	10.4
2026-01-05 07:45:24.731576	354.3	61.0	-66.1	9.9
2026-01-05 07:45:25.853343	353.8	61.4	-67.0	10.7
2026-01-05 07:45:26.977101	353.3	61.8	-67.1	11.2
2026-01-05 07:45:28.098858	352.8	62.2	-66.6	10.6
2026-01-05 07:45:29.223111	352.3	62.7	-66.5	10.3
2026-01-05 07:45:30.343875	351.8	63.1	-65.6	7.3
2026-01-05 07:45:31.466128	351.2	63.5	-65.4	7.8
2026-01-05 07:45:32.587885	350.7	64.0	-65.2	8.1
2026-01-05 07:45:33.709137	350.1	64.4	-66.2	10.1
2026-01-05 07:45:34.829390	349.4	64.8	-66.8	10.4
2026-01-05 07:45:35.947146	348.8	65.2	-65.8	7.3
2026-01-05 07:45:37.065398	348.1	65.7	-67.6	11.7
2026-01-05 07:45:38.186154	347.4	66.1	-67.4	11.6
2026-01-05 07:45:39.304406	346.7	66.5	-67.7	11.1
2026-01-05 07:45:40.423659	345.9	67.0	-67.5	11.0
2026-01-05 07:45:41.543415	345.1	67.4	-67.6	10.7
2026-01-05 07:45:42.662684	344.3	67.8	-68.0	11.0
2026-01-05 07:45:43.779936	343.5	68.2	-67.6	10.0
2026-01-05 07:45:44.900692	342.6	68.6	-68.1	10.2
2026-01-05 07:45:46.019449	341.6	69.0	-68.2	10.7
2026-01-05 07:45:47.137205	340.7	69.5	-68.2	10.7
2026-01-05 07:45:48.255961	339.7	69.9	-67.8	9.8
2026-01-05 07:45:49.372221	338.6	70.3	-68.3	10.6
2026-01-05 07:45:50.491473	337.5	70.7	-68.3	10.6
2026-01-05 07:45:51.610725	336.3	71.1	-68.5	10.7
2026-01-05 07:45:52.729986	335.1	71.4	-68.6	11.2
2026-01-05 07:45:53.847238	333.9	71.8	-68.4	11.0
2026-01-05 07:45:54.968507	332.6	72.2	-68.3	10.8
2026-01-05 07:45:56.087759	331.2	72.5	-68.2	10.2
2026-01-05 07:45:57.206516	329.8	72.9	-68.3	11.6
2026-01-05 07:45:58.324776	328.3	73.2	-67.2	11.3
2026-01-05 07:45:59.444027	326.7	73.6	-68.8	12.7
2026-01-05 07:46:00.566280	325.1	73.9	-68.2	12.3
2026-01-05 07:46:01.685541	323.4	74.2	-68.2	12.9
2026-01-05 07:46:02.805297	321.6	74.5	-68.3	13.7
2026-01-05 07:46:03.923054	319.8	74.8	-67.7	12.8
2026-01-05 07:46:05.043315	317.8	75.1	-67.8	14.6
2026-01-05 07:46:06.161567	315.9	75.3	-67.7	13.9
2026-01-05 07:46:07.279322	313.8	75.5	-67.4	12.9
2026-01-05 07:46:08.399079	311.7	75.8	-67.7	15.1
2026-01-05 07:46:09.517835	309.5	76.0	-67.4	15.0
2026-01-05 07:46:10.637087	307.3	76.1	-67.3	15.3
2026-01-05 07:46:11.757844	305.0	76.3	-67.3	15.9
2026-01-05 07:46:12.876095	302.6	76.4	-66.9	15.7
2026-01-05 07:46:13.994357	300.2	76.5	-67.6	16.0
2026-01-05 07:46:15.113609	297.8	76.6	-67.2	14.6
2026-01-05 07:46:16.230364	295.3	76.7	-67.5	15.6
2026-01-05 07:46:17.348625	292.9	76.7	-66.6	14.7
2026-01-05 07:46:18.467877	290.4	76.7	-67.6	15.3
2026-01-05 07:46:19.586129	287.9	76.7	-67.8	14.7
2026-01-05 07:46:20.707886	285.4	76.7	-67.8	14.8
2026-01-05 07:46:21.822145	282.9	76.7	-67.7	14.7
2026-01-05 07:46:22.941406	280.5	76.6	-67.7	14.9
2026-01-05 07:46:24.056675	278.1	76.5	-68.0	15.4
2026-01-05 07:46:25.175927	275.7	76.3	-67.7	14.8
2026-01-05 07:46:26.293683	273.4	76.2	-67.7	15.2
2026-01-05 07:46:27.414936	271.1	76.0	-67.7	15.1
2026-01-05 07:46:28.533692	268.9	75.8	-67.6	14.8
2026-01-05 07:46:29.653449	266.8	75.6	-67.6	15.3
2026-01-05 07:46:30.773214	264.7	75.4	-67.5	15.7
2026-01-05 07:46:31.893466	262.7	75.1	-67.6	15.6
2026-01-05 07:46:33.012223	260.7	74.9	-67.5	15.5
2026-01-05 07:46:34.132979	258.9	74.6	-67.4	15.9
2026-01-05 07:46:35.255231	257.1	74.3	-67.6	15.7
2026-01-05 07:46:36.376988	255.3	74.0	-67.4	14.8
2026-01-05 07:46:37.498249	253.7	73.7	-67.7	15.4
2026-01-05 07:46:38.620501	252.1	73.4	-67.6	14.6
2026-01-05 07:46:39.747755	250.6	73.0	-67.8	14.4
2026-01-05 07:46:40.869512	249.1	72.7	-67.9	14.5
2026-01-05 07:46:41.991764	247.7	72.3	-68.3	14.1
2026-01-05 07:46:43.112522	246.4	71.9	-68.4	14.1
2026-01-05 07:46:44.234774	245.1	71.6	-67.9	13.1
2026-01-05 07:46:45.356036	243.9	71.2	-68.6	13.8
2026-01-05 07:46:46.477297	242.7	70.8	-68.4	13.6
2026-01-05 07:46:47.601054	241.6	70.4	-68.3	13.6
2026-01-05 07:46:48.721306	240.5	70.0	-68.1	13.7
2026-01-05 07:46:49.843559	239.4	69.6	-68.3	14.2
2026-01-05 07:46:50.965316	238.5	69.2	-68.0	14.8
2026-01-05 07:46:52.087569	237.5	68.7	-67.9	15.0
2026-01-05 07:46:53.209325	236.6	68.3	-67.8	14.2
2026-01-05 07:46:54.329082	235.7	67.9	-67.7	14.1
2026-01-05 07:46:55.449334	234.9	67.5	-68.0	14.9
2026-01-05 07:46:56.567586	234.1	67.1	-67.6	14.0
2026-01-05 07:46:57.686342	233.3	66.6	-68.1	14.1
2026-01-05 07:46:58.804098	232.6	66.2	-68.1	14.1
2026-01-05 07:46:59.924855	231.9	65.8	-67.8	12.6
2026-01-05 07:47:01.044107	231.2	65.4	-68.3	12.7
2026-01-05 07:47:02.161863	230.6	64.9	-68.2	12.6
2026-01-05 07:47:03.280619	229.9	64.5	-68.2	12.8
2026-01-05 07:47:04.404377	229.3	64.1	-68.1	12.7
2026-01-05 07:47:05.523629	228.7	63.6	-66.9	10.5
2026-01-05 07:47:06.640889	228.2	63.2	-68.5	12.8
2026-01-05 07:47:07.762141	227.6	62.8	-68.4	12.2
2026-01-05 07:47:08.877401	227.1	62.3	-68.0	11.8
2026-01-05 07:47:09.997157	226.6	61.9	-68.3	12.0
2026-01-05 07:47:11.115418	226.1	61.5	-68.2	12.1
2026-01-05 07:47:12.234670	225.6	61.1	-68.3	12.8
2026-01-05 07:47:13.353444	225.2	60.6	-68.0	12.6
2026-01-05 07:47:14.470695	224.8	60.2	-67.8	12.9
2026-01-05 07:47:15.593453	224.3	59.8	-67.6	13.4
2026-01-05 07:47:16.708704	223.9	59.4	-67.9	13.0
2026-01-05 07:47:17.828964	223.5	58.9	-67.3	12.9
2026-01-05 07:47:18.949226	223.1	58.5	-67.8	14.2
2026-01-05 07:47:20.068983	222.8	58.1	-67.5	14.6
2026-01-05 07:47:21.185234	222.4	57.7	-66.2	12.5
2026-01-05 07:47:22.308000	222.0	57.3	-66.8	13.4
2026-01-05 07:47:23.426756	221.7	56.9	-66.9	13.4
2026-01-05 07:47:24.545017	221.4	56.5	-65.6	11.8
2026-01-05 07:47:25.665269	221.0	56.0	-66.8	12.7
2026-01-05 07:47:26.782521	220.7	55.6	-66.7	13.9
2026-01-05 07:47:27.902773	220.4	55.2	-67.0	13.5
2026-01-05 07:47:29.019530	220.1	54.8	-66.9	12.6
2026-01-05 07:47:30.139789	219.9	54.4	-66.4	12.0
2026-01-05 07:47:31.259546	219.6	54.0	-66.8	12.5
2026-01-05 07:47:32.377798	219.3	53.7	-65.7	12.4
2026-01-05 07:47:33.497554	219.0	53.3	-66.1	12.2
2026-01-05 07:47:34.616311	218.8	52.9	-65.6	11.1
2026-01-05 07:47:35.736563	218.5	52.5	-65.7	11.4
2026-01-05 07:47:36.855320	218.3	52.1	-65.7	11.2
2026-01-05 07:47:37.974076	218.1	51.7	-65.9	11.1
2026-01-05 07:47:39.091328	217.8	51.3	-65.4	11.9
2026-01-05 07:47:40.209084	217.6	51.0	-65.2	11.4
2026-01-05 07:47:41.329344	217.4	50.6	-64.6	8.6
2026-01-05 07:47:42.447596	217.2	50.2	-64.3	8.3
2026-01-05 07:47:43.563848	217.0	49.9	-64.8	8.7
2026-01-05 07:47:44.682100	216.8	49.5	-66.5	12.4
2026-01-05 07:47:45.800856	216.6	49.1	-65.2	11.4
2026-01-05 07:47:46.918620	216.4	48.8	-66.5	12.2
2026-01-05 07:47:48.035871	216.2	48.4	-65.1	9.3
2026-01-05 07:47:49.151628	216.0	48.1	-66.0	12.2
2026-01-05 07:47:50.269384	215.8	47.7	-65.9	12.8
2026-01-05 07:47:51.386139	215.6	47.4	-66.1	12.6
2026-01-05 07:47:52.505400	215.5	47.0	-66.0	11.9
2026-01-05 07:47:53.627653	215.3	46.7	-66.0	12.8
2026-01-05 07:47:54.747905	215.1	46.3	-66.6	13.3
2026-01-05 07:47:55.865661	215.0	46.0	-65.7	12.0
2026-01-05 07:47:56.987914	214.8	45.6	-64.8	11.0
2026-01-05 07:47:58.108679	214.6	45.3	-65.3	12.9
2026-01-05 07:47:59.230932	214.5	45.0	-66.0	12.6
2026-01-05 07:48:00.352193	214.3	44.6	-65.8	13.1
2026-01-05 07:48:01.473949	214.2	44.3	-65.8	12.5
2026-01-05 07:48:02.596202	214.1	44.0	-64.5	10.5
2026-01-05 07:48:03.717958	213.9	43.7	-65.7	12.8
2026-01-05 07:48:04.839220	213.8	43.3	-65.4	11.6
2026-01-05 07:48:05.960976	213.7	43.0	-65.5	12.6
2026-01-05 07:48:07.082733	213.5	42.7	-64.8	11.0
2026-01-05 07:48:08.204986	213.4	42.4	-64.8	12.9
2026-01-05 07:48:09.326742	213.3	42.1	-63.3	11.5
2026-01-05 07:48:10.448498	213.1	41.8	-65.5	12.5
2026-01-05 07:48:11.570255	213.0	41.5	-63.8	11.4
2026-01-05 07:48:12.690507	212.9	41.2	-64.7	14.3
2026-01-05 07:48:13.808265	212.8	40.9	-65.2	10.9
2026-01-05 07:48:14.925516	212.7	40.6	-65.3	13.1
2026-01-05 07:48:16.041272	212.6	40.3	-65.1	13.5
2026-01-05 07:48:17.156027	212.5	40.0	-65.1	13.5
2026-01-05 07:48:18.271288	212.3	39.7	-63.8	11.6
2026-01-05 07:48:19.388540	212.2	39.4	-64.5	10.8
2026-01-05 07:48:20.507792	212.1	39.1	-64.0	11.3
2026-01-05 07:48:21.626549	212.0	38.8	-65.6	13.5
2026-01-05 07:48:22.746305	211.9	38.5	-64.5	10.2
2026-01-05 07:48:23.864557	211.8	38.3	-64.3	12.2
2026-01-05 07:48:24.982313	211.7	38.0	-65.2	12.9
2026-01-05 07:48:26.102069	211.6	37.7	-65.2	13.6
2026-01-05 07:48:27.222321	211.5	37.4	-65.2	14.2
2026-01-05 07:48:28.340573	211.5	37.2	-65.5	14.3
2026-01-05 07:48:29.459330	211.4	36.9	-64.1	13.1
2026-01-05 07:48:30.580087	211.3	36.6	-65.5	15.0
2026-01-05 07:48:31.697347	211.2	36.4	-65.0	14.3
2026-01-05 07:48:32.815103	211.1	36.1	-65.7	15.1
2026-01-05 07:48:33.934860	211.0	35.8	-65.1	14.0
2026-01-05 07:48:35.055112	210.9	35.6	-65.4	14.3
2026-01-05 07:48:36.176364	210.9	35.3	-65.1	14.1
2026-01-05 07:48:37.295616	210.8	35.1	-65.3	13.9
2026-01-05 07:48:38.413877	210.7	34.8	-64.0	12.8
2026-01-05 07:48:39.532634	210.6	34.6	-63.4	12.1
2026-01-05 07:48:40.652390	210.5	34.3	-63.8	12.7
2026-01-05 07:48:41.777652	210.5	34.1	-64.7	14.0
2026-01-05 07:48:42.898914	210.4	33.8	-65.0	12.2
2026-01-05 07:48:44.016166	210.3	33.6	-64.9	14.1
2026-01-05 07:48:45.136923	210.2	33.3	-65.4	14.4
2026-01-05 07:48:46.254679	210.2	33.1	-65.4	13.5
2026-01-05 07:48:47.373931	210.1	32.9	-65.4	12.8
2026-01-05 07:48:48.491688	210.0	32.6	-65.6	14.3
2026-01-05 07:48:49.607948	210.0	32.4	-64.9	13.3
2026-01-05 07:48:50.728201	209.9	32.2	-65.3	14.3
2026-01-05 07:48:51.846452	209.8	31.9	-64.7	12.5
2026-01-05 07:48:52.966705	209.8	31.7	-65.7	15.1
2026-01-05 07:48:54.085965	209.7	31.5	-65.2	13.3
2026-01-05 07:48:55.204216	209.6	31.3	-65.4	13.9
2026-01-05 07:48:56.324469	209.6	31.0	-65.4	14.2
2026-01-05 07:48:57.444226	209.5	30.8	-65.6	14.3
2026-01-05 07:48:58.563487	209.5	30.6	-65.5	13.6
2026-01-05 07:48:59.682243	209.4	30.4	-65.6	13.9
2026-01-05 07:49:00.804000	209.3	30.2	-64.9	12.8
2026-01-05 07:49:01.923252	209.3	29.9	-65.6	14.7
2026-01-05 07:49:03.042008	209.2	29.7	-64.9	13.8
2026-01-05 07:49:04.160260	209.2	29.5	-65.1	13.6
2026-01-05 07:49:05.280025	209.1	29.3	-65.1	14.0
2026-01-05 07:49:06.397788	209.1	29.1	-65.2	14.1
2026-01-05 07:49:07.515536	209.0	28.9	-65.3	13.6
2026-01-05 07:49:08.636293	209.0	28.7	-65.2	13.5
2026-01-05 07:49:09.755058	208.9	28.5	-64.7	12.2
2026-01-05 07:49:10.875815	208.9	28.3	-65.4	13.0
2026-01-05 07:49:11.995075	208.8	28.1	-65.4	13.8
2026-01-05 07:49:13.114327	208.8	27.9	-64.8	13.7
2026-01-05 07:49:14.233580	208.7	27.7	-63.9	12.2
2026-01-05 07:49:15.354841	208.7	27.5	-64.9	12.5
2026-01-05 07:49:16.477111	208.6	27.3	-65.3	13.4
2026-01-05 07:49:17.595868	208.6	27.1	-65.6	14.0
2026-01-05 07:49:18.713129	208.5	26.9	-64.9	13.4
2026-01-05 07:49:19.831381	208.5	26.7	-66.0	13.8
2026-01-05 07:49:20.951633	208.4	26.5	-65.8	11.9
2026-01-05 07:49:22.068885	208.4	26.3	-65.4	13.6
2026-01-05 07:49:23.189137	208.3	26.1	-65.4	13.1
2026-01-05 07:49:24.307398	208.3	25.9	-65.0	13.2
2026-01-05 07:49:25.433156	208.2	25.8	-65.9	14.1
2026-01-05 07:49:26.549912	208.2	25.6	-65.2	14.4
2026-01-05 07:49:27.669164	208.2	25.4	-64.9	12.5
2026-01-05 07:49:28.787416	208.1	25.2	-65.4	13.3
2026-01-05 07:49:29.906676	208.1	25.0	-65.8	13.5
2026-01-05 07:49:31.026928	208.0	24.8	-65.8	12.3
2026-01-05 07:49:32.145180	208.0	24.7	-65.3	12.8
2026-01-05 07:49:33.265441	207.9	24.5	-65.5	13.5
2026-01-05 07:49:34.382692	207.9	24.3	-64.9	12.4
2026-01-05 07:49:35.501945	207.9	24.1	-65.9	13.9
2026-01-05 07:49:36.618196	207.8	24.0	-65.6	13.8
2026-01-05 07:49:37.735448	207.8	23.8	-65.1	13.0
2026-01-05 07:49:38.854203	207.8	23.6	-65.3	13.4
2026-01-05 07:49:39.970960	207.7	23.5	-65.2	11.8
2026-01-05 07:49:41.092213	207.7	23.3	-65.6	13.2
2026-01-05 07:49:42.211969	207.6	23.1	-65.0	13.6
2026-01-05 07:49:43.331238	207.6	23.0	-65.1	11.9
2026-01-05 07:49:44.448995	207.6	22.8	-65.5	12.9
2026-01-05 07:49:45.566246	207.5	22.6	-65.2	12.5
2026-01-05 07:49:46.686507	207.5	22.5	-64.9	11.4
2026-01-05 07:49:47.805768	207.5	22.3	-65.5	11.5
2026-01-05 07:49:48.928021	207.4	22.1	-64.7	12.7
2026-01-05 07:49:50.050273	207.4	22.0	-66.0	13.5
2026-01-05 07:49:51.171534	207.4	21.8	-66.1	13.4
2026-01-05 07:49:52.297292	207.3	21.7	-65.2	11.6
2026-01-05 07:49:53.419545	207.3	21.5	-66.2	13.9
2026-01-05 07:49:54.541301	207.3	21.3	-65.3	12.1
2026-01-05 07:49:55.663058	207.2	21.2	-65.5	12.4
2026-01-05 07:49:56.782832	207.2	21.0	-65.3	12.8
2026-01-05 07:49:57.900083	207.2	20.9	-66.2	14.3
2026-01-05 07:49:59.022842	207.1	20.7	-66.2	13.3
2026-01-05 07:50:00.146608	207.1	20.6	-65.7	13.2
2026-01-05 07:50:01.266878	207.1	20.4	-64.9	10.3
2026-01-05 07:50:02.388140	207.1	20.3	-66.1	13.5
2026-01-05 07:50:03.510392	207.0	20.1	-66.0	12.8
2026-01-05 07:50:04.632645	207.0	20.0	-65.8	12.2
2026-01-05 07:50:05.754898	207.0	19.8	-65.1	11.1
2026-01-05 07:50:06.876654	206.9	19.7	-64.9	12.5
2026-01-05 07:50:07.996907	206.9	19.5	-65.8	13.1
2026-01-05 07:50:09.115663	206.9	19.4	-65.2	12.5
2026-01-05 07:50:10.234420	206.9	19.2	-65.0	12.8
2026-01-05 07:50:11.353176	206.8	19.1	-66.3	12.1
2026-01-05 07:50:12.469427	206.8	19.0	-66.4	12.9
2026-01-05 07:50:13.589680	206.8	18.8	-66.1	12.5
2026-01-05 07:50:14.708932	206.7	18.7	-66.1	11.1
2026-01-05 07:50:15.828689	206.7	18.5	-66.0	13.2
2026-01-05 07:50:16.945454	206.7	18.4	-66.0	12.0
2026-01-05 07:50:18.063210	206.7	18.3	-65.4	12.6
2026-01-05 07:50:19.181976	206.6	18.1	-66.2	12.7
2026-01-05 07:50:20.303228	206.6	18.0	-65.6	11.9
2026-01-05 07:50:21.423480	206.6	17.8	-62.6	5.1
2026-01-05 07:50:22.543733	206.6	17.7	-61.6	2.2
2026-01-05 07:50:23.661992	206.5	17.6	-64.1	7.3
2026-01-05 07:50:24.781245	206.5	17.4	-65.6	11.4
2026-01-05 07:50:25.898504	206.5	17.3	-64.1	9.5
2026-01-05 07:50:27.017757	206.5	17.2	-65.8	12.0
2026-01-05 07:50:28.136008	206.4	17.0	-65.5	11.2
2026-01-05 07:50:29.252765	206.4	16.9	-64.8	10.8
2026-01-05 07:50:30.374017	206.4	16.8	-65.3	10.4
2026-01-05 07:50:31.491278	206.4	16.7	-64.9	7.9
2026-01-05 07:50:32.610539	206.4	16.5	-64.7	9.2
2026-01-05 07:50:33.731791	206.3	16.4	-65.9	11.4
2026-01-05 07:50:34.850043	206.3	16.3	-66.4	10.7
2026-01-05 07:50:35.970295	206.3	16.1	-65.9	11.5
2026-01-05 07:50:37.087547	206.3	16.0	-66.1	12.0
2026-01-05 07:50:38.201798	206.2	15.9	-66.3	9.5
2026-01-05 07:50:39.317049	206.2	15.8	-65.7	10.6
2026-01-05 07:50:40.433300	206.2	15.6	-66.0	10.4
2026-01-05 07:50:41.551057	206.2	15.5	-66.3	11.0
2026-01-05 07:50:42.668308	206.2	15.4	-65.9	10.0
2026-01-05 07:50:43.786064	206.1	15.3	-64.0	7.0
2026-01-05 07:50:44.903326	206.1	15.2	-64.5	10.9
2026-01-05 07:50:46.018093	206.1	15.0	-65.7	10.6
2026-01-05 07:50:47.132352	206.1	14.9	-65.4	10.2
2026-01-05 07:50:48.247603	206.1	14.8	-66.1	11.4
2026-01-05 07:50:49.362854	206.0	14.7	-65.8	11.1
2026-01-05 07:50:50.480114	206.0	14.6	-66.1	11.6
2026-01-05 07:50:51.596366	206.0	14.4	-65.7	10.9
2026-01-05 07:50:52.713617	206.0	14.3	-65.7	10.5
2026-01-05 07:50:53.832869	206.0	14.2	-63.4	6.9
2026-01-05 07:50:54.947635	206.0	14.1	-65.3	10.6
2026-01-05 07:50:56.065391	205.9	14.0	-65.0	9.9
2026-01-05 07:50:57.182147	205.9	13.9	-64.5	9.4
2026-01-05 07:50:58.303409	205.9	13.7	-63.0	6.4
2026-01-05 07:50:59.419660	205.9	13.6	-63.9	4.3
2026-01-05 07:51:00.539417	205.9	13.5	-63.5	6.5
2026-01-05 07:51:01.657669	205.8	13.4	-64.6	9.3
2026-01-05 07:51:02.776425	205.8	13.3	-62.3	5.3
2026-01-05 07:51:03.896190	205.8	13.2	-64.4	10.5
2026-01-05 07:51:05.012945	205.8	13.1	-65.3	2.9
2026-01-05 07:51:06.132702	205.8	13.0	-66.1	9.9
2026-01-05 07:51:07.249458	205.8	12.8	-65.4	8.0
2026-01-05 07:51:08.370213	205.7	12.7	-65.8	7.9
2026-01-05 07:51:09.491475	205.7	12.6	-64.8	6.5
2026-01-05 07:51:10.612737	205.7	12.5	-65.6	7.4
2026-01-05 07:51:11.733502	205.7	12.4	-65.9	7.0
2026-01-05 07:51:12.854764	205.7	12.3	-66.3	10.5
2026-01-05 07:51:13.975529	205.7	12.2	-65.1	8.9
2026-01-05 07:51:15.097287	205.6	12.1	-65.6	8.7
2026-01-05 07:51:16.222540	205.6	12.0	-65.5	9.5
2026-01-05 07:51:17.343305	205.6	11.9	-64.8	8.6
2026-01-05 07:51:18.464566	205.6	11.8	-64.7	8.1
2026-01-05 07:51:19.585331	205.6	11.7	-64.9	8.7
2026-01-05 07:51:20.706095	205.6	11.6	-64.2	7.6
2026-01-05 07:51:21.828348	205.5	11.4	-63.1	2.9
2026-01-05 07:51:22.950114	205.5	11.3	-61.4	6.1
2026-01-05 07:51:24.071375	205.5	11.2	-64.5	7.9
2026-01-05 07:51:25.192140	205.5	11.1	-62.0	3.6
2026-01-05 07:51:26.311420	205.5	11.0	-61.1	0.6
2026-01-05 07:51:27.430176	205.5	10.9	-62.0	3.5
2026-01-05 07:51:28.549429	205.5	10.8	-64.8	8.4
2026-01-05 07:51:29.666690	205.4	10.7	-64.0	9.7
2026-01-05 07:51:30.785949	205.4	10.6	-64.9	0.9
2026-01-05 07:51:31.902705	205.4	10.5	-65.1	8.6
2026-01-05 07:51:33.020461	205.4	10.4	-63.1	7.7
2026-01-05 07:51:34.137216	205.4	10.3	-64.6	8.3
2026-01-05 07:51:35.254468	205.4	10.2	-64.7	8.8
2026-01-05 07:51:36.372233	205.4	10.1	-63.0	7.5
2026-01-05 07:51:37.487990	205.4	10.0	-57.1	0.0
2026-01-05 07:51:38.604241	205.3	9.9	-65.1	8.1
2026-01-05 07:51:39.719492	205.3	9.8	-65.8	8.3
2026-01-05 07:51:40.839753	205.3	9.7	-65.8	8.0
2026-01-05 07:51:41.962519	205.3	9.6	-65.6	7.7
2026-01-05 07:51:43.079771	205.3	9.5	-62.6	5.8
2026-01-05 07:51:44.197527	205.3	9.5	-65.6	8.9
2026-01-05 07:51:45.314778	205.3	9.4	-64.9	5.9
2026-01-05 07:51:46.434039	205.2	9.3	-65.2	7.2
2026-01-05 07:51:47.553291	205.2	9.2	-64.8	7.4
2026-01-05 07:51:48.673048	205.2	9.1	-62.0	0.0
2026-01-05 07:51:49.792300	205.2	9.0	-65.0	6.9
2026-01-05 07:51:50.911560	205.2	8.9	-65.5	7.8
2026-01-05 07:51:52.028811	205.2	8.8	-65.4	6.9
2026-01-05 07:51:53.145567	205.2	8.7	-65.3	7.9
2026-01-05 07:51:54.261819	205.2	8.6	-64.7	8.5
2026-01-05 07:51:55.379070	205.1	8.5	-64.2	7.6
2026-01-05 07:51:56.498322	205.1	8.4	-64.3	6.5
2026-01-05 07:51:57.615079	205.1	8.3	-64.3	7.0
2026-01-05 07:51:58.732330	205.1	8.2	-64.9	7.8
2026-01-05 07:51:59.850590	205.1	8.1	-64.4	6.6
2026-01-05 07:52:00.969347	205.1	8.1	-64.7	5.9
2026-01-05 07:52:02.084599	205.1	8.0	-65.4	5.7
2026-01-05 07:52:03.202362	205.1	7.9	-60.8	0.0
2026-01-05 07:52:04.320118	205.1	7.8	-65.0	7.0
2026-01-05 07:52:05.436882	205.0	7.7	-64.9	3.7
2026-01-05 07:52:06.556134	205.0	7.6	-64.1	7.4
2026-01-05 07:52:07.672385	205.0	7.5	-64.7	5.9
2026-01-05 07:52:08.791637	205.0	7.4	-64.7	4.7
2026-01-05 07:52:09.908393	205.0	7.3	-66.0	4.1
2026-01-05 07:52:11.026149	205.0	7.2	-63.9	1.7
2026-01-05 07:52:12.142401	205.0	7.2	-65.0	3.4
2026-01-05 07:52:13.258661	205.0	7.1	-65.6	6.4
2026-01-05 07:52:14.374921	205.0	7.0	-65.1	5.6
2026-01-05 07:52:15.493182	205.0	6.9	-64.2	6.8
2026-01-05 07:52:16.612443	204.9	6.8	-64.4	3.5
2026-01-05 07:52:17.729695	204.9	6.7	-64.8	3.4
2026-01-05 07:52:18.845946	204.9	6.6	-63.8	3.8
2026-01-05 07:52:19.963702	204.9	6.6	-64.0	3.8
2026-01-05 07:52:21.079962	204.9	6.5	-64.4	5.7
2026-01-05 07:52:22.196213	204.9	6.4	-60.8	0.0
2026-01-05 07:52:23.313977	204.9	6.3	-64.1	1.4
2026-01-05 07:52:24.430733	204.9	6.2	-64.2	5.5
2026-01-05 07:52:25.552986	204.9	6.1	-63.9	3.6
2026-01-05 07:52:26.669742	204.9	6.0	-64.0	5.0
2026-01-05 07:52:27.791500	204.8	6.0	-63.8	4.9
2026-01-05 07:52:28.913257	204.8	5.9	-65.5	3.0
2026-01-05 07:52:30.036510	204.8	5.8	-67.3	0.0
2026-01-05 07:52:31.158265	204.8	5.7	-68.7	0.0
2026-01-05 07:52:32.278536	204.8	5.6	-69.2	0.0
2026-01-05 07:52:33.399797	204.8	5.5	-70.2	0.0
2026-01-05 07:52:34.520562	204.8	5.5	-71.2	0.0
2026-01-05 07:52:35.642327	204.8	5.4	-72.0	0.0
2026-01-05 07:52:36.763589	204.8	5.3	-72.5	0.0
2026-01-05 07:52:37.885353	204.8	5.2	-72.0	0.0
2026-01-05 07:52:39.007110	204.8	5.1	-71.8	0.0
2026-01-05 07:52:40.128867	204.7	5.1	-71.7	0.0
#Closed at: 2026-01-05 07:39:48.148265