passes_logs/2026/01/26/planumMaritime01/planumMaritime01__20260126_170330_METOP-B_rec.log

#Pass ID: 20260126_170330_METOP-B
#Satellite: METOP-B
#Configuration: METOP-B
#Start time: 2026-01-26 17:03:35.465396

#LorettStation: 1.0.0 05.05.2024
#Station: planumMaritime01
#Location: 37.49445 lon 55.92918 lat
#TLE: 1 38771U 12049A   26025.22488633  .00000217  00000+0  11914-3 0  9991
#TLE: 2 38771  98.6733  79.4332 0002986  55.8942 304.2519 14.21428262692957

#Time	Az	El	Level	SNR
2026-01-26 17:03:37.646941	144.2	10.2	-74.9	0.0
2026-01-26 17:03:38.773058	144.1	10.3	-75.0	0.0
2026-01-26 17:03:39.899348	144.1	10.4	-75.4	0.0
2026-01-26 17:03:41.025692	144.0	10.5	-75.8	0.0
2026-01-26 17:03:42.152111	144.0	10.6	-75.0	0.0
2026-01-26 17:03:43.278787	144.0	10.7	-75.0	0.0
2026-01-26 17:03:44.404942	143.9	10.8	-74.1	0.0
2026-01-26 17:03:45.531228	143.9	10.9	-73.9	0.0
2026-01-26 17:03:46.658645	143.8	11.0	-73.9	0.5
2026-01-26 17:03:47.785388	143.8	11.1	-73.1	1.1
2026-01-26 17:03:48.912025	143.8	11.2	-73.4	1.3
2026-01-26 17:03:50.038084	143.7	11.3	-73.7	1.8
2026-01-26 17:03:51.164072	143.7	11.4	-73.9	1.6
2026-01-26 17:03:52.289864	143.6	11.5	-74.1	0.0
2026-01-26 17:03:53.416310	143.6	11.6	-73.8	2.1
2026-01-26 17:03:54.544120	143.5	11.7	-73.7	0.7
2026-01-26 17:03:55.670954	143.5	11.8	-73.7	2.1
2026-01-26 17:03:56.799569	143.5	11.9	-73.8	1.8
2026-01-26 17:03:57.926051	143.4	12.0	-74.1	2.9
2026-01-26 17:03:59.051335	143.4	12.1	-73.9	2.9
2026-01-26 17:04:00.178318	143.3	12.2	-74.2	1.9
2026-01-26 17:04:01.305905	143.3	12.3	-73.6	1.7
2026-01-26 17:04:02.430825	143.2	12.4	-74.3	2.7
2026-01-26 17:04:03.557316	143.2	12.5	-74.0	1.4
2026-01-26 17:04:04.685636	143.1	12.7	-73.6	3.4
2026-01-26 17:04:05.810302	143.1	12.8	-74.1	3.4
2026-01-26 17:04:06.935583	143.0	12.9	-73.7	2.7
2026-01-26 17:04:08.063851	143.0	13.0	-74.0	2.6
2026-01-26 17:04:09.193002	143.0	13.1	-74.0	3.3
2026-01-26 17:04:10.320468	142.9	13.2	-74.0	2.7
2026-01-26 17:04:11.446606	142.9	13.3	-74.1	2.8
2026-01-26 17:04:12.573438	142.8	13.4	-74.1	3.5
2026-01-26 17:04:13.702476	142.8	13.5	-73.8	2.4
2026-01-26 17:04:14.827328	142.7	13.6	-74.0	1.8
2026-01-26 17:04:15.953483	142.7	13.8	-74.1	2.8
2026-01-26 17:04:17.080675	142.6	13.9	-74.0	2.6
2026-01-26 17:04:18.208401	142.6	14.0	-74.0	3.4
2026-01-26 17:04:19.335936	142.5	14.1	-73.9	2.4
2026-01-26 17:04:20.462763	142.5	14.2	-74.0	3.1
2026-01-26 17:04:21.588950	142.4	14.3	-73.9	3.2
2026-01-26 17:04:22.716120	142.4	14.4	-73.7	3.5
2026-01-26 17:04:23.842537	142.3	14.6	-74.0	4.0
2026-01-26 17:04:24.968753	142.2	14.7	-74.3	3.0
2026-01-26 17:04:26.095141	142.2	14.8	-74.3	3.0
2026-01-26 17:04:27.219717	142.1	14.9	-74.0	2.2
2026-01-26 17:04:28.349507	142.1	15.0	-74.2	3.0
2026-01-26 17:04:29.476576	142.0	15.1	-74.0	2.9
2026-01-26 17:04:30.605443	142.0	15.3	-74.1	3.2
2026-01-26 17:04:31.731473	141.9	15.4	-73.8	3.2
2026-01-26 17:04:32.856633	141.9	15.5	-74.3	3.7
2026-01-26 17:04:33.982072	141.8	15.6	-74.0	3.0
2026-01-26 17:04:35.108892	141.7	15.7	-74.3	4.2
2026-01-26 17:04:36.234104	141.7	15.9	-74.3	2.8
2026-01-26 17:04:37.360763	141.6	16.0	-74.3	4.1
2026-01-26 17:04:38.484430	141.6	16.1	-74.2	4.7
2026-01-26 17:04:39.611172	141.5	16.2	-73.7	2.7
2026-01-26 17:04:40.737304	141.4	16.4	-73.7	3.1
2026-01-26 17:04:41.862857	141.4	16.5	-73.5	3.6
2026-01-26 17:04:42.989254	141.3	16.6	-73.8	2.4
2026-01-26 17:04:44.116308	141.3	16.7	-73.9	1.4
2026-01-26 17:04:45.243570	141.2	16.9	-73.6	4.0
2026-01-26 17:04:46.371579	141.1	17.0	-74.2	4.6
2026-01-26 17:04:47.498260	141.1	17.1	-74.1	3.9
2026-01-26 17:04:48.625217	141.0	17.3	-73.8	3.9
2026-01-26 17:04:49.750019	140.9	17.4	-73.5	4.1
2026-01-26 17:04:50.875522	140.9	17.5	-73.8	4.5
2026-01-26 17:04:52.002214	140.8	17.6	-74.1	4.0
2026-01-26 17:04:53.128304	140.8	17.8	-73.7	3.4
2026-01-26 17:04:54.258997	140.7	17.9	-73.7	3.9
2026-01-26 17:04:55.385593	140.6	18.0	-74.0	4.4
2026-01-26 17:04:56.510348	140.5	18.2	-73.7	3.4
2026-01-26 17:04:57.637884	140.5	18.3	-73.6	3.0
2026-01-26 17:04:58.764592	140.4	18.4	-73.6	2.8
2026-01-26 17:04:59.891265	140.3	18.6	-73.7	4.1
2026-01-26 17:05:01.016400	140.3	18.7	-73.5	5.0
2026-01-26 17:05:02.143626	140.2	18.8	-73.6	3.1
2026-01-26 17:05:03.269196	140.1	19.0	-73.5	3.5
2026-01-26 17:05:04.395972	140.1	19.1	-73.8	3.2
2026-01-26 17:05:05.521487	140.0	19.3	-73.8	4.4
2026-01-26 17:05:06.647667	139.9	19.4	-72.7	2.5
2026-01-26 17:05:07.774752	139.8	19.5	-73.6	4.3
2026-01-26 17:05:08.900952	139.8	19.7	-73.7	4.0
2026-01-26 17:05:10.029494	139.7	19.8	-73.7	4.8
2026-01-26 17:05:11.155275	139.6	20.0	-73.1	4.3
2026-01-26 17:05:12.286467	139.5	20.1	-73.3	4.4
2026-01-26 17:05:13.411805	139.4	20.3	-72.9	4.6
2026-01-26 17:05:14.537620	139.4	20.4	-72.7	4.1
2026-01-26 17:05:15.664981	139.3	20.6	-73.2	4.2
2026-01-26 17:05:16.792549	139.2	20.7	-73.0	3.9
2026-01-26 17:05:17.917326	139.1	20.8	-73.2	5.4
2026-01-26 17:05:19.044405	139.0	21.0	-73.1	4.4
2026-01-26 17:05:20.170391	139.0	21.1	-73.7	4.7
2026-01-26 17:05:21.296226	138.9	21.3	-73.2	4.8
2026-01-26 17:05:22.421724	138.8	21.4	-73.2	3.5
2026-01-26 17:05:23.548832	138.7	21.6	-72.7	4.0
2026-01-26 17:05:24.675501	138.6	21.7	-73.5	4.5
2026-01-26 17:05:25.805369	138.5	21.9	-73.3	5.3
2026-01-26 17:05:26.931672	138.4	22.1	-73.1	6.0
2026-01-26 17:05:28.059598	138.4	22.2	-73.0	4.5
2026-01-26 17:05:29.185775	138.3	22.4	-73.3	5.1
2026-01-26 17:05:30.311836	138.2	22.5	-73.4	5.1
2026-01-26 17:05:31.436227	138.1	22.7	-72.9	4.5
2026-01-26 17:05:32.563108	138.0	22.8	-73.3	5.1
2026-01-26 17:05:33.689057	137.9	23.0	-73.4	5.0
2026-01-26 17:05:34.815112	137.8	23.2	-73.1	5.3
2026-01-26 17:05:35.939906	137.7	23.3	-73.4	5.1
2026-01-26 17:05:37.065612	137.6	23.5	-73.0	6.0
2026-01-26 17:05:38.191155	137.5	23.7	-73.3	7.1
2026-01-26 17:05:39.317382	137.4	23.8	-73.3	6.0
2026-01-26 17:05:40.440783	137.3	24.0	-73.2	5.2
2026-01-26 17:05:41.566641	137.2	24.1	-73.4	5.5
2026-01-26 17:05:42.694464	137.1	24.3	-73.1	6.5
2026-01-26 17:05:43.821602	137.0	24.5	-73.3	6.5
2026-01-26 17:05:44.946509	136.9	24.7	-72.9	6.6
2026-01-26 17:05:46.072656	136.8	24.8	-73.4	6.7
2026-01-26 17:05:47.195742	136.7	25.0	-73.1	6.2
2026-01-26 17:05:48.322988	136.6	25.2	-73.4	6.5
2026-01-26 17:05:49.449399	136.5	25.3	-73.1	6.7
2026-01-26 17:05:50.573968	136.3	25.5	-73.5	7.0
2026-01-26 17:05:51.698956	136.2	25.7	-73.3	6.9
2026-01-26 17:05:52.824137	136.1	25.9	-73.1	7.0
2026-01-26 17:05:53.946915	136.0	26.0	-73.1	6.3
2026-01-26 17:05:55.071194	135.9	26.2	-73.4	6.1
2026-01-26 17:05:56.197656	135.8	26.4	-73.2	6.3
2026-01-26 17:05:57.322388	135.7	26.6	-73.1	6.7
2026-01-26 17:05:58.446893	135.5	26.8	-73.1	6.2
2026-01-26 17:05:59.573118	135.4	26.9	-72.9	5.5
2026-01-26 17:06:00.697647	135.3	27.1	-73.4	7.3
2026-01-26 17:06:01.824869	135.2	27.3	-73.5	7.1
2026-01-26 17:06:02.949508	135.0	27.5	-73.1	6.7
2026-01-26 17:06:04.075016	134.9	27.7	-73.7	7.8
2026-01-26 17:06:05.199272	134.8	27.9	-73.3	7.4
2026-01-26 17:06:06.324494	134.7	28.1	-73.5	6.7
2026-01-26 17:06:07.447806	134.5	28.2	-73.0	6.8
2026-01-26 17:06:08.573033	134.4	28.4	-73.3	6.7
2026-01-26 17:06:09.697713	134.3	28.6	-73.0	6.7
2026-01-26 17:06:10.823348	134.1	28.8	-73.5	7.7
2026-01-26 17:06:11.949727	134.0	29.0	-73.4	6.6
2026-01-26 17:06:13.075604	133.8	29.2	-73.1	5.9
2026-01-26 17:06:14.200184	133.7	29.4	-72.4	7.2
2026-01-26 17:06:15.326743	133.6	29.6	-73.0	7.8
2026-01-26 17:06:16.452364	133.4	29.8	-73.3	8.1
2026-01-26 17:06:17.579209	133.3	30.0	-73.2	7.7
2026-01-26 17:06:18.705416	133.1	30.2	-73.1	6.1
2026-01-26 17:06:19.830213	133.0	30.4	-72.2	6.1
2026-01-26 17:06:20.955300	132.8	30.6	-72.2	5.0
2026-01-26 17:06:22.079707	132.6	30.8	-73.4	8.4
2026-01-26 17:06:23.206091	132.5	31.0	-73.2	7.2
2026-01-26 17:06:24.333098	132.3	31.2	-72.5	7.3
2026-01-26 17:06:25.458994	132.2	31.5	-73.4	8.5
2026-01-26 17:06:26.584488	132.0	31.7	-72.0	6.7
2026-01-26 17:06:27.710634	131.8	31.9	-72.7	7.5
2026-01-26 17:06:28.837945	131.7	32.1	-72.2	4.7
2026-01-26 17:06:29.964604	131.5	32.3	-72.8	7.5
2026-01-26 17:06:31.091597	131.3	32.5	-72.6	7.7
2026-01-26 17:06:32.215886	131.1	32.7	-71.6	4.1
2026-01-26 17:06:33.339574	131.0	33.0	-72.5	6.7
2026-01-26 17:06:34.465910	130.8	33.2	-72.5	6.3
2026-01-26 17:06:35.592338	130.6	33.4	-71.0	5.6
2026-01-26 17:06:36.718278	130.4	33.6	-73.1	7.5
2026-01-26 17:06:37.844348	130.2	33.8	-72.4	6.1
2026-01-26 17:06:38.969447	130.0	34.1	-71.2	6.6
2026-01-26 17:06:40.097073	129.9	34.3	-72.4	8.4
2026-01-26 17:06:41.222478	129.7	34.5	-71.4	5.2
2026-01-26 17:06:42.347558	129.5	34.7	-70.9	4.7
2026-01-26 17:06:43.473154	129.3	35.0	-70.0	3.7
2026-01-26 17:06:44.599196	129.1	35.2	-72.1	6.3
2026-01-26 17:06:45.725798	128.8	35.4	-72.1	7.3
2026-01-26 17:06:46.851255	128.6	35.7	-71.6	5.8
2026-01-26 17:06:47.976376	128.4	35.9	-71.4	7.1
2026-01-26 17:06:49.102575	128.2	36.1	-71.3	1.6
2026-01-26 17:06:50.229172	128.0	36.4	-71.9	7.4
2026-01-26 17:06:51.354823	127.8	36.6	-70.0	2.3
2026-01-26 17:06:52.479588	127.5	36.9	-70.0	3.3
2026-01-26 17:06:53.606222	127.3	37.1	-71.0	6.0
2026-01-26 17:06:54.732100	127.1	37.3	-71.5	6.5
2026-01-26 17:06:55.856905	126.8	37.6	-71.0	3.9
2026-01-26 17:06:56.983700	126.6	37.8	-71.5	6.7
2026-01-26 17:06:58.111288	126.3	38.1	-71.2	7.8
2026-01-26 17:06:59.235207	126.1	38.3	-69.2	1.1
2026-01-26 17:07:00.361371	125.8	38.6	-71.7	6.6
2026-01-26 17:07:01.487496	125.6	38.8	-71.2	6.1
2026-01-26 17:07:02.615054	125.3	39.1	-70.4	7.6
2026-01-26 17:07:03.744117	125.1	39.3	-71.8	7.1
2026-01-26 17:07:04.869501	124.8	39.6	-71.7	7.2
2026-01-26 17:07:05.996476	124.5	39.8	-70.9	7.3
2026-01-26 17:07:07.124127	124.3	40.1	-70.1	6.9
2026-01-26 17:07:08.251436	124.0	40.3	-69.4	2.6
2026-01-26 17:07:09.378421	123.7	40.6	-70.0	4.5
2026-01-26 17:07:10.503227	123.4	40.9	-70.4	5.2
2026-01-26 17:07:11.628267	123.1	41.1	-70.1	6.9
2026-01-26 17:07:12.755273	122.8	41.4	-69.3	4.4
2026-01-26 17:07:13.881802	122.5	41.6	-69.4	2.5
2026-01-26 17:07:15.008100	122.2	41.9	-70.6	5.9
2026-01-26 17:07:16.132693	121.9	42.2	-69.6	4.7
2026-01-26 17:07:17.258391	121.6	42.4	-70.2	5.5
2026-01-26 17:07:18.383296	121.2	42.7	-70.4	5.8
2026-01-26 17:07:19.508814	120.9	43.0	-69.9	5.8
2026-01-26 17:07:20.634549	120.6	43.2	-70.4	5.8
2026-01-26 17:07:21.761198	120.2	43.5	-69.3	4.7
2026-01-26 17:07:22.888938	119.9	43.8	-69.7	4.9
2026-01-26 17:07:24.014512	119.5	44.0	-70.2	6.3
2026-01-26 17:07:25.140324	119.2	44.3	-69.4	5.7
2026-01-26 17:07:26.266118	118.8	44.6	-70.0	5.0
2026-01-26 17:07:27.391665	118.4	44.8	-70.0	6.5
2026-01-26 17:07:28.518721	118.0	45.1	-70.3	4.4
2026-01-26 17:07:29.644822	117.7	45.4	-69.6	6.0
2026-01-26 17:07:30.770695	117.3	45.6	-70.0	6.4
2026-01-26 17:07:31.896864	116.9	45.9	-68.7	1.3
2026-01-26 17:07:33.024100	116.5	46.2	-69.0	1.1
2026-01-26 17:07:34.149139	116.0	46.5	-68.5	2.2
2026-01-26 17:07:35.275611	115.6	46.7	-69.2	2.0
2026-01-26 17:07:36.403121	115.2	47.0	-67.8	1.4
2026-01-26 17:07:37.528097	114.8	47.3	-67.0	1.4
2026-01-26 17:07:38.654821	114.3	47.6	-68.9	1.7
2026-01-26 17:07:39.781416	113.9	47.8	-67.5	2.6
2026-01-26 17:07:40.908132	113.4	48.1	-68.3	4.8
2026-01-26 17:07:42.036667	112.9	48.4	-68.3	2.6
2026-01-26 17:07:43.164249	112.5	48.6	-68.5	5.0
2026-01-26 17:07:44.290025	112.0	48.9	-69.0	2.5
2026-01-26 17:07:45.416594	111.5	49.2	-67.3	1.4
2026-01-26 17:07:46.543296	111.0	49.5	-70.9	4.2
2026-01-26 17:07:47.667440	110.5	49.7	-69.6	1.4
2026-01-26 17:07:48.797257	110.0	50.0	-69.3	1.6
2026-01-26 17:07:49.923656	109.4	50.3	-70.7	5.8
2026-01-26 17:07:51.049225	108.9	50.5	-69.0	2.7
2026-01-26 17:07:52.173989	108.3	50.8	-71.1	4.4
2026-01-26 17:07:53.298005	107.8	51.0	-68.5	1.8
2026-01-26 17:07:54.423346	107.2	51.3	-68.9	3.5
2026-01-26 17:07:55.546851	106.6	51.6	-69.8	5.0
2026-01-26 17:07:56.673631	106.1	51.8	-69.0	2.5
2026-01-26 17:07:57.799678	105.5	52.1	-70.1	2.6
2026-01-26 17:07:58.926513	104.9	52.3	-69.6	4.6
2026-01-26 17:08:00.051976	104.2	52.6	-70.5	5.2
2026-01-26 17:08:01.178013	103.6	52.8	-70.7	5.7
2026-01-26 17:08:02.305521	103.0	53.1	-69.9	3.5
2026-01-26 17:08:03.432117	102.3	53.3	-69.6	5.3
2026-01-26 17:08:04.560428	101.7	53.6	-68.9	4.2
2026-01-26 17:08:05.686338	101.0	53.8	-68.5	3.5
2026-01-26 17:08:06.811999	100.3	54.1	-70.1	1.9
2026-01-26 17:08:07.940292	99.6	54.3	-70.1	4.9
2026-01-26 17:08:09.065907	98.9	54.5	-68.9	0.4
2026-01-26 17:08:10.192717	98.2	54.7	-69.3	3.5
2026-01-26 17:08:11.318605	97.4	55.0	-69.7	6.4
2026-01-26 17:08:12.444097	96.7	55.2	-67.5	2.7
2026-01-26 17:08:13.570696	95.9	55.4	-69.6	5.0
2026-01-26 17:08:14.695422	95.2	55.6	-68.7	4.6
2026-01-26 17:08:15.822899	94.4	55.8	-70.3	6.6
2026-01-26 17:08:16.949036	93.6	56.0	-69.8	5.5
2026-01-26 17:08:18.076558	92.8	56.2	-68.4	3.3
2026-01-26 17:08:19.200931	92.0	56.4	-70.6	6.3
2026-01-26 17:08:20.331583	91.2	56.6	-70.3	3.2
2026-01-26 17:08:21.457709	90.4	56.8	-70.5	3.7
2026-01-26 17:08:22.583172	89.5	57.0	-69.2	5.3
2026-01-26 17:08:23.711569	88.7	57.1	-70.0	4.0
2026-01-26 17:08:24.837743	87.8	57.3	-70.4	4.3
2026-01-26 17:08:25.964276	86.9	57.5	-70.0	2.4
2026-01-26 17:08:27.092644	86.0	57.6	-69.4	2.3
2026-01-26 17:08:28.221376	85.1	57.8	-69.3	1.6
2026-01-26 17:08:29.348160	84.2	57.9	-69.3	3.0
2026-01-26 17:08:30.475038	83.3	58.0	-69.8	0.0
2026-01-26 17:08:31.600722	82.4	58.2	-69.6	1.2
2026-01-26 17:08:32.728201	81.5	58.3	-68.3	3.6
2026-01-26 17:08:33.854196	80.5	58.4	-69.6	0.0
2026-01-26 17:08:34.979744	79.6	58.5	-67.5	0.0
2026-01-26 17:08:36.104351	78.6	58.6	-70.1	3.5
2026-01-26 17:08:37.229996	77.6	58.7	-67.5	0.0
2026-01-26 17:08:38.354664	76.7	58.8	-68.6	0.2
2026-01-26 17:08:39.481248	75.7	58.9	-69.3	0.8
2026-01-26 17:08:40.607390	74.7	59.0	-68.0	0.0
2026-01-26 17:08:41.733860	73.7	59.0	-69.8	4.4
2026-01-26 17:08:42.860324	72.7	59.1	-69.1	0.0
2026-01-26 17:08:43.985033	71.7	59.1	-66.5	0.0
2026-01-26 17:08:45.111189	70.7	59.2	-66.5	0.0
2026-01-26 17:08:46.235361	69.8	59.2	-68.3	0.2
2026-01-26 17:08:47.361724	68.7	59.2	-67.6	0.0
2026-01-26 17:08:48.487295	67.7	59.2	-69.0	3.7
2026-01-26 17:08:49.615395	66.7	59.2	-68.5	0.0
2026-01-26 17:08:50.742527	65.7	59.2	-69.4	3.1
2026-01-26 17:08:51.870072	64.7	59.2	-69.4	2.9
2026-01-26 17:08:52.998645	63.7	59.2	-68.7	0.0
2026-01-26 17:08:54.127298	62.7	59.2	-68.9	0.4
2026-01-26 17:08:55.251811	61.7	59.2	-68.4	2.3
2026-01-26 17:08:56.379441	60.7	59.1	-69.0	0.8
2026-01-26 17:08:57.506587	59.7	59.1	-67.0	0.0
2026-01-26 17:08:58.634628	58.7	59.0	-67.0	0.0
2026-01-26 17:08:59.760392	57.7	58.9	-68.7	1.9
2026-01-26 17:09:00.887006	56.8	58.9	-67.8	0.9
2026-01-26 17:09:02.013069	55.8	58.8	-67.8	0.4
2026-01-26 17:09:03.139313	54.8	58.7	-68.5	0.0
2026-01-26 17:09:04.265577	53.9	58.6	-66.6	0.0
2026-01-26 17:09:05.391584	52.9	58.5	-69.1	0.0
2026-01-26 17:09:06.517874	52.0	58.4	-68.5	0.0
2026-01-26 17:09:07.643750	51.0	58.3	-69.8	3.5
2026-01-26 17:09:08.770334	50.1	58.2	-68.8	2.2
2026-01-26 17:09:09.899663	49.2	58.0	-69.0	4.2
2026-01-26 17:09:11.025439	48.2	57.9	-68.9	2.7
2026-01-26 17:09:12.151789	47.3	57.8	-69.5	3.8
2026-01-26 17:09:13.278218	46.4	57.6	-68.6	0.0
2026-01-26 17:09:14.403226	45.6	57.4	-68.4	1.6
2026-01-26 17:09:15.529881	44.7	57.3	-68.6	0.0
2026-01-26 17:09:16.657358	43.8	57.1	-68.5	0.0
2026-01-26 17:09:17.783858	43.0	56.9	-70.1	0.6
2026-01-26 17:09:18.910702	42.1	56.8	-70.7	3.0
2026-01-26 17:09:20.037875	41.3	56.6	-70.2	3.3
2026-01-26 17:09:21.160357	40.5	56.4	-70.9	5.6
2026-01-26 17:09:22.287207	39.7	56.2	-69.9	2.8
2026-01-26 17:09:23.414891	38.9	56.0	-69.2	0.0
2026-01-26 17:09:24.541450	38.1	55.8	-71.3	5.0
2026-01-26 17:09:25.667306	37.3	55.6	-70.5	3.3
2026-01-26 17:09:26.793541	36.6	55.4	-70.3	0.9
2026-01-26 17:09:27.919591	35.8	55.2	-70.2	2.4
2026-01-26 17:09:29.045854	35.1	54.9	-70.3	3.2
2026-01-26 17:09:30.173124	34.3	54.7	-71.0	3.3
2026-01-26 17:09:31.299110	33.6	54.5	-70.9	3.6
2026-01-26 17:09:32.425001	32.9	54.3	-70.1	2.4
2026-01-26 17:09:33.553735	32.2	54.0	-70.6	5.4
2026-01-26 17:09:34.680327	31.6	53.8	-70.0	1.3
2026-01-26 17:09:35.810391	30.9	53.6	-70.1	4.7
2026-01-26 17:09:36.936879	30.2	53.3	-69.9	3.6
2026-01-26 17:09:38.066116	29.6	53.1	-69.5	3.7
2026-01-26 17:09:39.194309	28.9	52.8	-70.0	5.7
2026-01-26 17:09:40.319881	28.3	52.6	-69.6	2.3
2026-01-26 17:09:41.445060	27.7	52.3	-69.9	4.7
2026-01-26 17:09:42.569223	27.1	52.1	-69.7	5.3
2026-01-26 17:09:43.698774	26.5	51.8	-69.9	4.2
2026-01-26 17:09:44.822749	25.9	51.6	-69.9	4.0
2026-01-26 17:09:45.949542	25.3	51.3	-69.9	6.0
2026-01-26 17:09:47.075938	24.8	51.0	-69.1	3.5
2026-01-26 17:09:48.199786	24.2	50.8	-69.4	3.5
2026-01-26 17:09:49.325100	23.7	50.5	-69.7	6.0
2026-01-26 17:09:50.451042	23.1	50.2	-68.8	1.6
2026-01-26 17:09:51.577948	22.6	50.0	-69.3	4.4
2026-01-26 17:09:52.705350	22.1	49.7	-69.3	4.8
2026-01-26 17:09:53.829633	21.6	49.4	-69.3	5.6
2026-01-26 17:09:54.956646	21.1	49.2	-68.5	2.6
2026-01-26 17:09:56.082038	20.6	48.9	-68.1	3.1
2026-01-26 17:09:57.206588	20.1	48.6	-68.5	1.4
2026-01-26 17:09:58.334114	19.6	48.4	-68.8	2.9
2026-01-26 17:09:59.460163	19.2	48.1	-68.8	4.4
2026-01-26 17:10:00.586424	18.7	47.8	-69.6	6.0
2026-01-26 17:10:01.712041	18.3	47.6	-70.4	5.2
2026-01-26 17:10:02.838617	17.8	47.3	-69.1	2.5
2026-01-26 17:10:03.962642	17.4	47.0	-69.2	3.8
2026-01-26 17:10:05.088046	17.0	46.7	-68.1	1.5
2026-01-26 17:10:06.215331	16.6	46.5	-68.9	2.4
2026-01-26 17:10:07.342263	16.1	46.2	-68.7	3.5
2026-01-26 17:10:08.467498	15.7	45.9	-69.7	2.9
2026-01-26 17:10:09.591527	15.3	45.7	-70.0	1.5
2026-01-26 17:10:10.718085	14.9	45.4	-69.9	3.1
2026-01-26 17:10:11.842227	14.6	45.1	-68.7	1.2
2026-01-26 17:10:12.967722	14.2	44.9	-68.6	1.6
2026-01-26 17:10:14.093403	13.8	44.6	-69.2	0.0
2026-01-26 17:10:15.220205	13.5	44.3	-69.6	0.0
2026-01-26 17:10:16.346547	13.1	44.0	-68.1	0.0
2026-01-26 17:10:17.473369	12.7	43.8	-68.9	0.8
2026-01-26 17:10:18.600171	12.4	43.5	-67.4	1.4
2026-01-26 17:10:19.726256	12.1	43.2	-67.8	0.0
2026-01-26 17:10:20.854313	11.7	43.0	-68.8	0.0
2026-01-26 17:10:21.981047	11.4	42.7	-70.1	1.7
2026-01-26 17:10:23.106866	11.1	42.5	-68.4	0.0
2026-01-26 17:10:24.231532	10.8	42.2	-65.8	0.0
2026-01-26 17:10:25.359719	10.4	41.9	-67.2	0.0
2026-01-26 17:10:26.487384	10.1	41.7	-66.0	0.0
2026-01-26 17:10:27.614376	9.8	41.4	-66.2	0.0
2026-01-26 17:10:28.741867	9.5	41.1	-64.7	0.0
2026-01-26 17:10:29.867342	9.2	40.9	-66.2	0.0
2026-01-26 17:10:30.994596	8.9	40.6	-63.6	0.0
2026-01-26 17:10:32.121824	8.7	40.4	-64.6	0.0
2026-01-26 17:10:33.248692	8.4	40.1	-65.0	0.0
2026-01-26 17:10:34.376895	8.1	39.9	-61.7	0.0
2026-01-26 17:10:35.504146	7.8	39.6	-64.9	0.0
2026-01-26 17:10:36.630749	7.6	39.4	-65.6	0.0
2026-01-26 17:10:37.758972	7.3	39.1	-64.3	0.0
2026-01-26 17:10:38.885604	7.0	38.9	-61.8	0.0
2026-01-26 17:10:40.013992	6.8	38.6	-65.0	0.0
2026-01-26 17:10:41.139521	6.5	38.4	-66.2	0.0
2026-01-26 17:10:42.268861	6.3	38.1	-65.1	0.0
2026-01-26 17:10:43.396390	6.0	37.9	-64.2	0.0
2026-01-26 17:10:44.523415	5.8	37.6	-64.2	0.0
2026-01-26 17:10:45.650229	5.6	37.4	-63.5	0.0
2026-01-26 17:10:46.776612	5.3	37.1	-63.6	0.0
2026-01-26 17:10:47.902452	5.1	36.9	-65.1	0.0
2026-01-26 17:10:49.029213	4.9	36.7	-59.6	0.0
2026-01-26 17:10:50.155904	4.7	36.4	-60.4	0.0
2026-01-26 17:10:51.282494	4.4	36.2	-64.5	0.0
2026-01-26 17:10:52.408581	4.2	36.0	-64.9	0.0
2026-01-26 17:10:53.534636	4.0	35.7	-63.4	0.0
2026-01-26 17:10:54.661386	3.8	35.5	-64.0	0.0
2026-01-26 17:10:55.789309	3.6	35.3	-63.3	0.0
2026-01-26 17:10:56.916729	3.4	35.0	-63.2	0.0
2026-01-26 17:10:58.042701	3.2	34.8	-60.7	0.0
2026-01-26 17:10:59.170335	3.0	34.6	-61.8	0.0
2026-01-26 17:11:00.296427	2.8	34.3	-64.0	0.0
2026-01-26 17:11:01.423539	2.6	34.1	-63.9	0.0
2026-01-26 17:11:02.550301	2.4	33.9	-60.0	0.0
2026-01-26 17:11:03.676470	2.2	33.7	-61.4	0.0
2026-01-26 17:11:04.800555	2.1	33.5	-62.3	0.0
2026-01-26 17:11:05.927129	1.9	33.2	-63.5	0.0
2026-01-26 17:11:07.051923	1.7	33.0	-62.5	0.0
2026-01-26 17:11:08.178346	1.5	32.8	-62.8	0.0
2026-01-26 17:11:09.304634	1.3	32.6	-63.2	0.0
2026-01-26 17:11:10.429576	1.2	32.4	-62.8	0.0
2026-01-26 17:11:11.556465	1.0	32.2	-64.2	0.0
2026-01-26 17:11:12.682340	0.8	31.9	-64.3	0.0
2026-01-26 17:11:13.808319	0.7	31.7	-64.9	0.0
2026-01-26 17:11:14.932514	0.5	31.5	-64.5	0.0
2026-01-26 17:11:16.059120	0.3	31.3	-65.0	0.0
2026-01-26 17:11:17.184884	0.2	31.1	-64.6	0.0
2026-01-26 17:11:18.310223	0.0	30.9	-65.0	0.0
2026-01-26 17:11:19.437836	359.9	30.7	-65.0	0.0
2026-01-26 17:11:20.563707	359.7	30.5	-63.2	0.0
2026-01-26 17:11:21.688455	359.6	30.3	-65.2	0.0
2026-01-26 17:11:22.817380	359.4	30.1	-63.9	0.0
2026-01-26 17:11:23.945465	359.3	29.9	-64.3	0.0
2026-01-26 17:11:25.069802	359.1	29.7	-64.9	0.0
2026-01-26 17:11:26.195658	359.0	29.5	-63.9	0.0
2026-01-26 17:11:27.320624	358.8	29.3	-65.3	0.0
2026-01-26 17:11:28.446974	358.7	29.1	-63.8	0.0
2026-01-26 17:11:29.572960	358.6	28.9	-63.2	0.0
2026-01-26 17:11:30.696021	358.4	28.7	-59.1	0.0
2026-01-26 17:11:31.820548	358.3	28.5	-66.7	0.0
2026-01-26 17:11:32.944838	358.2	28.3	-64.5	0.0
2026-01-26 17:11:34.069059	358.0	28.1	-64.3	0.0
2026-01-26 17:11:35.195959	357.9	28.0	-62.5	0.0
2026-01-26 17:11:36.321895	357.8	27.8	-64.3	0.0
2026-01-26 17:11:37.445153	357.6	27.6	-60.3	0.0
2026-01-26 17:11:38.569856	357.5	27.4	-64.9	0.0
2026-01-26 17:11:39.694161	357.4	27.2	-64.4	0.0
2026-01-26 17:11:40.822564	357.3	27.0	-64.9	0.0
2026-01-26 17:11:41.946989	357.2	26.9	-65.3	0.0
2026-01-26 17:11:43.069988	357.0	26.7	-65.4	0.0
2026-01-26 17:11:44.195286	356.9	26.5	-66.0	0.0
2026-01-26 17:11:45.319564	356.8	26.3	-64.7	0.0
2026-01-26 17:11:46.444286	356.7	26.1	-64.1	0.0
2026-01-26 17:11:47.574119	356.6	26.0	-65.0	0.0
2026-01-26 17:11:48.701908	356.5	25.8	-64.2	0.0
2026-01-26 17:11:49.828601	356.3	25.6	-64.6	0.0
2026-01-26 17:11:50.956048	356.2	25.4	-65.1	0.0
2026-01-26 17:11:52.082395	356.1	25.3	-65.9	0.0
2026-01-26 17:11:53.211350	356.0	25.1	-62.8	0.0
2026-01-26 17:11:54.336985	355.9	24.9	-65.0	0.0
2026-01-26 17:11:55.463475	355.8	24.8	-64.9	0.0
2026-01-26 17:11:56.589441	355.7	24.6	-60.9	0.0
2026-01-26 17:11:57.716478	355.6	24.4	-63.1	0.0
2026-01-26 17:11:58.840840	355.5	24.3	-63.8	0.0
2026-01-26 17:11:59.970515	355.4	24.1	-62.7	0.0
2026-01-26 17:12:01.098781	355.3	23.9	-65.0	0.0
2026-01-26 17:12:02.223962	355.2	23.8	-65.2	0.0
2026-01-26 17:12:03.350158	355.1	23.6	-65.0	0.0
2026-01-26 17:12:04.476853	355.0	23.4	-65.7	0.0
2026-01-26 17:12:05.603054	354.9	23.3	-64.6	0.0
2026-01-26 17:12:06.727676	354.8	23.1	-64.9	0.0
2026-01-26 17:12:07.853420	354.7	23.0	-66.3	0.0
2026-01-26 17:12:08.981128	354.6	22.8	-65.4	0.0
2026-01-26 17:12:10.108610	354.5	22.6	-64.6	0.0
2026-01-26 17:12:11.237712	354.5	22.5	-64.8	0.0
2026-01-26 17:12:12.365726	354.4	22.3	-64.4	0.0
2026-01-26 17:12:13.493017	354.3	22.2	-66.6	0.0
2026-01-26 17:12:14.619333	354.2	22.0	-65.0	0.0
2026-01-26 17:12:15.745833	354.1	21.9	-64.3	0.0
2026-01-26 17:12:16.871701	354.0	21.7	-65.5	0.0
2026-01-26 17:12:17.998600	353.9	21.6	-65.8	0.0
2026-01-26 17:12:19.129141	353.8	21.4	-65.3	0.0
2026-01-26 17:12:20.255646	353.8	21.3	-66.4	0.0
2026-01-26 17:12:21.379480	353.7	21.1	-66.3	0.0
2026-01-26 17:12:22.507499	353.6	21.0	-65.2	0.0
2026-01-26 17:12:23.634819	353.5	20.8	-64.8	0.0
2026-01-26 17:12:24.763379	353.4	20.7	-63.9	0.0
2026-01-26 17:12:25.889764	353.4	20.5	-65.1	0.0
2026-01-26 17:12:27.017046	353.3	20.4	-62.6	0.0
2026-01-26 17:12:28.144444	353.2	20.2	-63.5	0.0
2026-01-26 17:12:29.270859	353.1	20.1	-64.8	0.0
2026-01-26 17:12:30.397309	353.0	20.0	-63.4	0.0
2026-01-26 17:12:31.522636	353.0	19.8	-66.0	0.0
2026-01-26 17:12:32.649598	352.9	19.7	-66.1	0.0
2026-01-26 17:12:33.776496	352.8	19.5	-65.6	0.0
2026-01-26 17:12:34.903747	352.8	19.4	-65.9	0.0
2026-01-26 17:12:36.029694	352.7	19.2	-63.4	0.0
2026-01-26 17:12:37.155345	352.6	19.1	-63.6	0.0
2026-01-26 17:12:38.281520	352.5	19.0	-66.3	0.0
2026-01-26 17:12:39.409011	352.5	18.8	-63.6	0.0
2026-01-26 17:12:40.533884	352.4	18.7	-65.9	0.0
2026-01-26 17:12:41.661316	352.3	18.6	-64.7	0.0
2026-01-26 17:12:42.790120	352.3	18.4	-65.1	0.0
2026-01-26 17:12:43.918031	352.2	18.3	-65.2	0.0
2026-01-26 17:12:45.043717	352.1	18.2	-65.8	0.0
2026-01-26 17:12:46.170292	352.1	18.0	-65.4	0.0
2026-01-26 17:12:47.296700	352.0	17.9	-65.6	0.0
2026-01-26 17:12:48.422426	351.9	17.8	-63.7	0.0
2026-01-26 17:12:49.549426	351.9	17.6	-65.6	0.0
2026-01-26 17:12:50.675326	351.8	17.5	-65.8	0.0
2026-01-26 17:12:51.803554	351.7	17.4	-64.0	0.0
2026-01-26 17:12:52.928047	351.7	17.3	-65.5	0.0
2026-01-26 17:12:54.053807	351.6	17.1	-64.6	0.0
2026-01-26 17:12:55.179250	351.5	17.0	-65.3	0.0
2026-01-26 17:12:56.304734	351.5	16.9	-65.3	0.0
2026-01-26 17:12:57.429871	351.4	16.7	-66.3	0.0
2026-01-26 17:12:58.557210	351.4	16.6	-65.7	0.0
2026-01-26 17:12:59.683357	351.3	16.5	-65.9	0.0
2026-01-26 17:13:00.810152	351.2	16.4	-65.8	0.0
2026-01-26 17:13:01.936572	351.2	16.2	-66.8	0.0
2026-01-26 17:13:03.061365	351.1	16.1	-67.4	0.0
2026-01-26 17:13:04.189193	351.1	16.0	-65.7	0.0
2026-01-26 17:13:05.314824	351.0	15.9	-66.9	0.0
2026-01-26 17:13:06.440393	351.0	15.8	-66.9	0.0
2026-01-26 17:13:07.567586	350.9	15.6	-67.5	0.0
2026-01-26 17:13:08.696511	350.8	15.5	-68.2	0.0
2026-01-26 17:13:09.822322	350.8	15.4	-66.5	0.0
2026-01-26 17:13:10.948392	350.7	15.3	-67.8	0.0
2026-01-26 17:13:12.071742	350.7	15.2	-67.2	0.0
2026-01-26 17:13:13.197786	350.6	15.0	-68.0	0.0
2026-01-26 17:13:14.323409	350.6	14.9	-67.2	0.0
2026-01-26 17:13:15.450094	350.5	14.8	-67.9	0.0
2026-01-26 17:13:16.576606	350.5	14.7	-67.3	0.0
2026-01-26 17:13:17.701491	350.4	14.6	-67.2	0.0
2026-01-26 17:13:18.827394	350.4	14.5	-67.0	0.0
2026-01-26 17:13:19.953840	350.3	14.4	-66.8	0.0
2026-01-26 17:13:21.080961	350.3	14.2	-66.7	0.0
2026-01-26 17:13:22.209483	350.2	14.1	-66.0	0.0
2026-01-26 17:13:23.333677	350.2	14.0	-66.9	0.0
2026-01-26 17:13:24.459242	350.1	13.9	-65.8	0.0
2026-01-26 17:13:25.585669	350.1	13.8	-67.3	0.0
2026-01-26 17:13:26.710538	350.0	13.7	-66.4	0.0
2026-01-26 17:13:27.836321	350.0	13.6	-66.9	0.0
2026-01-26 17:13:28.962414	349.9	13.5	-65.3	0.0
2026-01-26 17:13:30.088404	349.9	13.3	-64.4	0.0
2026-01-26 17:13:31.214030	349.8	13.2	-66.0	0.0
2026-01-26 17:13:32.338950	349.8	13.1	-67.4	0.0
2026-01-26 17:13:33.467505	349.7	13.0	-66.4	0.0
2026-01-26 17:13:34.595143	349.7	12.9	-65.1	0.0
2026-01-26 17:13:35.721235	349.6	12.8	-66.4	0.0
2026-01-26 17:13:36.844643	349.6	12.7	-66.3	0.0
2026-01-26 17:13:37.972693	349.6	12.6	-66.5	0.0
2026-01-26 17:13:39.100369	349.5	12.5	-66.2	0.0
2026-01-26 17:13:40.226370	349.5	12.4	-66.8	0.0
2026-01-26 17:13:41.352696	349.4	12.3	-66.5	0.0
2026-01-26 17:13:42.478198	349.4	12.2	-65.6	0.0
2026-01-26 17:13:43.605058	349.3	12.1	-66.1	0.0
2026-01-26 17:13:44.731447	349.3	12.0	-65.4	0.0
2026-01-26 17:13:45.858015	349.3	11.9	-66.7	0.0
2026-01-26 17:13:46.984635	349.2	11.8	-65.5	0.0
2026-01-26 17:13:48.111444	349.2	11.6	-65.6	0.0
2026-01-26 17:13:49.237795	349.1	11.5	-66.2	0.0
2026-01-26 17:13:50.363679	349.1	11.4	-66.4	0.0
2026-01-26 17:13:51.488795	349.0	11.3	-66.9	0.0
2026-01-26 17:13:52.616607	349.0	11.2	-66.0	0.0
2026-01-26 17:13:53.742908	349.0	11.1	-66.0	0.0
2026-01-26 17:13:54.868075	348.9	11.0	-64.6	0.0
2026-01-26 17:13:55.995801	348.9	10.9	-67.5	0.0
2026-01-26 17:13:57.121154	348.8	10.8	-65.7	0.0
2026-01-26 17:13:58.244738	348.8	10.7	-64.8	0.0
2026-01-26 17:13:59.372613	348.8	10.6	-63.2	0.0
2026-01-26 17:14:00.499928	348.7	10.5	-66.2	0.0
2026-01-26 17:14:01.625289	348.7	10.4	-65.4	0.0
2026-01-26 17:14:02.749718	348.7	10.3	-68.0	0.0
2026-01-26 17:14:03.877125	348.6	10.3	-67.6	0.0
2026-01-26 17:14:05.005538	348.6	10.2	-71.4	0.0
2026-01-26 17:14:06.132655	348.5	10.1	-71.7	0.0
#Closed at: 2026-01-26 17:03:30.472460