passes_logs/2026/01/26/planumMaritime01/planumMaritime01__20260126_061339_METEOR-M2_3_rec.log

#Pass ID: 20260126_061339_METEOR-M2 3
#Satellite: METEOR-M2 3
#Configuration: METEOR-M2 3
#Start time: 2026-01-26 06:13:44.838132

#LorettStation: 1.0.0 05.05.2024
#Station: planumMaritime01
#Location: 37.49445 lon 55.92918 lat
#TLE: 1 57166U 23091A   26025.32489204  .00000020  00000+0  27725-4 0  9995
#TLE: 2 57166  98.6312  83.0892 0003344 212.0394 148.0582 14.24032443134183

#Time	Az	El	Level	SNR
2026-01-26 06:13:47.007914	33.8	10.2	-78.4	0.0
2026-01-26 06:13:48.136035	33.9	10.2	-77.1	0.0
2026-01-26 06:13:49.269554	34.0	10.3	-77.5	0.0
2026-01-26 06:13:50.402965	34.2	10.4	-76.6	0.0
2026-01-26 06:13:51.536818	34.3	10.5	-76.3	0.0
2026-01-26 06:13:52.672787	34.4	10.6	-74.2	0.0
2026-01-26 06:13:53.807378	34.5	10.6	-69.7	0.0
2026-01-26 06:13:54.940563	34.6	10.7	-70.0	0.0
2026-01-26 06:13:56.075568	34.8	10.8	-68.1	0.0
2026-01-26 06:13:57.209595	34.9	10.9	-63.2	0.0
2026-01-26 06:13:58.342163	35.0	11.0	-65.2	0.0
2026-01-26 06:13:59.478153	35.2	11.1	-64.0	0.0
2026-01-26 06:14:00.611414	35.3	11.1	-64.1	0.0
2026-01-26 06:14:01.744837	35.4	11.2	-65.0	0.0
2026-01-26 06:14:02.878175	35.5	11.3	-63.5	0.0
2026-01-26 06:14:04.011139	35.7	11.4	-64.1	0.0
2026-01-26 06:14:05.146612	35.8	11.5	-66.4	0.0
2026-01-26 06:14:06.281772	35.9	11.6	-64.5	0.0
2026-01-26 06:14:07.418547	36.1	11.6	-62.1	0.0
2026-01-26 06:14:08.557856	36.2	11.7	-61.2	0.0
2026-01-26 06:14:09.693043	36.3	11.8	-58.6	0.0
2026-01-26 06:14:10.827905	36.5	11.9	-58.0	0.0
2026-01-26 06:14:11.964490	36.6	12.0	-58.4	0.0
2026-01-26 06:14:13.101551	36.7	12.1	-60.3	0.0
2026-01-26 06:14:14.236154	36.9	12.1	-59.3	0.0
2026-01-26 06:14:15.371976	37.0	12.2	-62.9	0.0
2026-01-26 06:14:16.509546	37.1	12.3	-59.6	0.0
2026-01-26 06:14:17.649756	37.3	12.4	-59.6	0.0
2026-01-26 06:14:18.785974	37.4	12.5	-64.3	0.0
2026-01-26 06:14:19.923616	37.6	12.6	-59.7	0.0
2026-01-26 06:14:21.061354	37.7	12.7	-57.4	0.0
2026-01-26 06:14:22.195195	37.8	12.7	-58.1	0.0
2026-01-26 06:14:23.333543	38.0	12.8	-58.8	0.0
2026-01-26 06:14:24.471449	38.1	12.9	-63.8	0.0
2026-01-26 06:14:25.607770	38.3	13.0	-59.8	0.0
2026-01-26 06:14:26.746672	38.4	13.1	-58.6	0.0
2026-01-26 06:14:27.883703	38.6	13.2	-56.6	0.0
2026-01-26 06:14:29.019385	38.7	13.3	-57.5	0.0
2026-01-26 06:14:30.155488	38.9	13.3	-60.6	0.0
2026-01-26 06:14:31.293499	39.0	13.4	-59.4	0.0
2026-01-26 06:14:32.432407	39.2	13.5	-61.3	0.0
2026-01-26 06:14:33.568328	39.3	13.6	-60.0	0.0
2026-01-26 06:14:34.703415	39.5	13.7	-65.4	0.0
2026-01-26 06:14:35.837449	39.6	13.8	-60.2	0.0
2026-01-26 06:14:36.975264	39.8	13.9	-59.9	0.0
2026-01-26 06:14:38.110772	39.9	14.0	-62.6	0.0
2026-01-26 06:14:39.241790	40.1	14.0	-60.7	0.0
2026-01-26 06:14:40.374944	40.2	14.1	-60.5	0.0
2026-01-26 06:14:41.509836	40.4	14.2	-64.5	0.0
2026-01-26 06:14:42.644030	40.5	14.3	-63.0	0.0
2026-01-26 06:14:43.777132	40.7	14.4	-62.2	0.0
2026-01-26 06:14:44.909210	40.9	14.5	-62.3	0.0
2026-01-26 06:14:46.043929	41.0	14.6	-66.7	0.0
2026-01-26 06:14:47.178534	41.2	14.7	-68.7	0.0
2026-01-26 06:14:48.310848	41.3	14.8	-64.5	0.0
2026-01-26 06:14:49.443411	41.5	14.8	-65.4	0.0
2026-01-26 06:14:50.578212	41.7	14.9	-65.0	0.0
2026-01-26 06:14:51.709970	41.8	15.0	-66.1	0.0
2026-01-26 06:14:52.842793	42.0	15.1	-67.9	0.0
2026-01-26 06:14:53.975364	42.2	15.2	-65.0	0.0
2026-01-26 06:14:55.105548	42.3	15.3	-65.2	0.0
2026-01-26 06:14:56.238513	42.5	15.4	-66.1	0.0
2026-01-26 06:14:57.369776	42.7	15.5	-65.2	0.0
2026-01-26 06:14:58.503891	42.8	15.6	-67.8	0.0
2026-01-26 06:14:59.638466	43.0	15.7	-66.0	0.0
2026-01-26 06:15:00.774468	43.2	15.7	-64.4	0.0
2026-01-26 06:15:01.909703	43.3	15.8	-66.7	0.0
2026-01-26 06:15:03.045233	43.5	15.9	-65.2	0.0
2026-01-26 06:15:04.181378	43.7	16.0	-64.4	0.0
2026-01-26 06:15:05.315078	43.9	16.1	-65.6	0.0
2026-01-26 06:15:06.448179	44.1	16.2	-65.8	0.0
2026-01-26 06:15:07.581143	44.2	16.3	-68.2	0.0
2026-01-26 06:15:08.716147	44.4	16.4	-68.5	0.0
2026-01-26 06:15:09.850373	44.6	16.5	-67.0	0.0
2026-01-26 06:15:10.984567	44.8	16.6	-67.0	0.0
2026-01-26 06:15:12.123580	45.0	16.7	-66.2	0.0
2026-01-26 06:15:13.260612	45.1	16.7	-66.3	0.0
2026-01-26 06:15:14.397247	45.3	16.8	-66.6	0.0
2026-01-26 06:15:15.535302	45.5	16.9	-66.8	0.0
2026-01-26 06:15:16.674004	45.7	17.0	-70.3	0.0
2026-01-26 06:15:17.811454	45.9	17.1	-66.9	0.0
2026-01-26 06:15:18.942852	46.1	17.2	-68.0	0.0
2026-01-26 06:15:20.073982	46.3	17.3	-69.9	0.0
2026-01-26 06:15:21.201611	46.5	17.4	-67.5	0.0
2026-01-26 06:15:22.331641	46.7	17.5	-67.3	0.0
2026-01-26 06:15:23.461253	46.8	17.6	-67.8	0.0
2026-01-26 06:15:24.590692	47.0	17.7	-71.9	0.0
2026-01-26 06:15:25.720635	47.2	17.8	-70.5	0.0
2026-01-26 06:15:26.852900	47.4	17.8	-67.7	0.0
2026-01-26 06:15:27.983450	47.6	17.9	-69.6	0.0
2026-01-26 06:15:29.116800	47.8	18.0	-68.4	0.0
2026-01-26 06:15:30.252797	48.0	18.1	-69.8	0.0
2026-01-26 06:15:31.389741	48.2	18.2	-71.1	0.0
2026-01-26 06:15:32.526476	48.4	18.3	-69.6	0.0
2026-01-26 06:15:33.665020	48.6	18.4	-70.1	0.0
2026-01-26 06:15:34.803706	48.9	18.5	-69.1	0.0
2026-01-26 06:15:35.941690	49.1	18.6	-70.3	0.0
2026-01-26 06:15:37.075140	49.3	18.7	-71.2	0.0
2026-01-26 06:15:38.211003	49.5	18.8	-71.1	0.0
2026-01-26 06:15:39.346634	49.7	18.9	-70.3	0.0
2026-01-26 06:15:40.484834	49.9	18.9	-71.1	0.0
2026-01-26 06:15:41.618485	50.1	19.0	-70.1	0.0
2026-01-26 06:15:42.752958	50.3	19.1	-70.3	0.0
2026-01-26 06:15:43.886772	50.5	19.2	-70.0	0.0
2026-01-26 06:15:45.024301	50.8	19.3	-68.9	0.0
2026-01-26 06:15:46.161595	51.0	19.4	-70.7	0.0
2026-01-26 06:15:47.298249	51.2	19.5	-70.4	0.0
2026-01-26 06:15:48.434521	51.4	19.6	-69.9	0.0
2026-01-26 06:15:49.568821	51.7	19.7	-71.2	0.0
2026-01-26 06:15:50.705338	51.9	19.8	-70.3	0.0
2026-01-26 06:15:51.839138	52.1	19.9	-71.6	1.6
2026-01-26 06:15:52.976857	52.3	20.0	-70.1	0.0
2026-01-26 06:15:54.113608	52.6	20.0	-69.8	0.0
2026-01-26 06:15:55.250247	52.8	20.1	-69.3	0.0
2026-01-26 06:15:56.388053	53.0	20.2	-73.2	0.0
2026-01-26 06:15:57.524353	53.3	20.3	-66.4	0.0
2026-01-26 06:15:58.660951	53.5	20.4	-68.2	0.0
2026-01-26 06:15:59.797759	53.7	20.5	-69.2	0.0
2026-01-26 06:16:00.935266	54.0	20.6	-69.5	0.0
2026-01-26 06:16:02.069555	54.2	20.7	-70.0	0.0
2026-01-26 06:16:03.205534	54.4	20.8	-69.6	0.0
2026-01-26 06:16:04.342837	54.7	20.9	-69.0	0.0
2026-01-26 06:16:05.477934	54.9	21.0	-69.6	0.0
2026-01-26 06:16:06.612729	55.2	21.0	-69.2	0.0
2026-01-26 06:16:07.747936	55.4	21.1	-69.6	0.0
2026-01-26 06:16:08.882924	55.6	21.2	-69.5	0.0
2026-01-26 06:16:10.019398	55.9	21.3	-70.3	0.0
2026-01-26 06:16:11.156723	56.1	21.4	-69.5	0.0
2026-01-26 06:16:12.294353	56.4	21.5	-71.5	0.9
2026-01-26 06:16:13.432332	56.6	21.6	-70.7	0.0
2026-01-26 06:16:14.573554	56.9	21.7	-70.5	0.0
2026-01-26 06:16:15.710330	57.2	21.8	-69.9	0.0
2026-01-26 06:16:16.847088	57.4	21.8	-67.9	0.0
2026-01-26 06:16:17.986759	57.7	21.9	-70.1	0.0
2026-01-26 06:16:19.123668	57.9	22.0	-70.4	0.0
2026-01-26 06:16:20.261554	58.2	22.1	-68.6	0.0
2026-01-26 06:16:21.400034	58.5	22.2	-68.0	0.0
2026-01-26 06:16:22.536698	58.7	22.3	-69.3	0.0
2026-01-26 06:16:23.668784	59.0	22.4	-68.7	0.0
2026-01-26 06:16:24.800935	59.2	22.4	-67.8	0.0
2026-01-26 06:16:25.929919	59.5	22.5	-68.9	0.0
2026-01-26 06:16:27.063093	59.8	22.6	-67.4	0.0
2026-01-26 06:16:28.197418	60.1	22.7	-67.9	0.0
2026-01-26 06:16:29.334026	60.3	22.8	-68.3	0.0
2026-01-26 06:16:30.466951	60.6	22.9	-73.8	1.9
2026-01-26 06:16:31.606745	60.9	22.9	-70.4	0.0
2026-01-26 06:16:32.741196	61.1	23.0	-70.9	0.0
2026-01-26 06:16:33.874582	61.4	23.1	-70.6	0.0
2026-01-26 06:16:35.005971	61.7	23.2	-67.8	0.0
2026-01-26 06:16:36.139382	62.0	23.3	-69.8	0.0
2026-01-26 06:16:37.273131	62.3	23.4	-70.1	0.0
2026-01-26 06:16:38.408348	62.5	23.4	-70.2	0.0
2026-01-26 06:16:39.541265	62.8	23.5	-71.1	0.0
2026-01-26 06:16:40.673958	63.1	23.6	-66.0	0.0
2026-01-26 06:16:41.809077	63.4	23.7	-71.2	0.0
2026-01-26 06:16:42.946626	63.7	23.8	-69.1	0.4
2026-01-26 06:16:44.086800	64.0	23.8	-69.1	0.0
2026-01-26 06:16:45.225753	64.3	23.9	-70.2	4.0
2026-01-26 06:16:46.360565	64.6	24.0	-71.2	0.0
2026-01-26 06:16:47.494615	64.9	24.1	-72.3	0.0
2026-01-26 06:16:48.628829	65.2	24.1	-69.8	0.0
2026-01-26 06:16:49.760520	65.5	24.2	-70.5	0.0
2026-01-26 06:16:50.895032	65.8	24.3	-71.4	0.0
2026-01-26 06:16:52.030499	66.1	24.4	-72.2	3.6
2026-01-26 06:16:53.163182	66.4	24.4	-69.0	0.0
2026-01-26 06:16:54.297495	66.7	24.5	-68.8	0.0
2026-01-26 06:16:55.429865	67.0	24.6	-71.7	0.0
2026-01-26 06:16:56.562070	67.3	24.7	-68.9	0.0
2026-01-26 06:16:57.699281	67.6	24.7	-70.3	0.0
2026-01-26 06:16:58.830760	67.9	24.8	-71.1	0.0
2026-01-26 06:16:59.961389	68.2	24.9	-70.4	0.0
2026-01-26 06:17:01.090506	68.5	24.9	-70.7	0.0
2026-01-26 06:17:02.225018	68.8	25.0	-71.8	0.0
2026-01-26 06:17:03.359014	69.1	25.1	-71.0	0.0
2026-01-26 06:17:04.492034	69.4	25.1	-71.3	0.4
2026-01-26 06:17:05.625697	69.8	25.2	-70.2	0.0
2026-01-26 06:17:06.756998	70.1	25.3	-72.0	0.0
2026-01-26 06:17:07.890035	70.4	25.3	-71.8	0.0
2026-01-26 06:17:09.025636	70.7	25.4	-72.9	0.0
2026-01-26 06:17:10.160230	71.0	25.5	-71.8	0.0
2026-01-26 06:17:11.294148	71.4	25.5	-71.5	0.9
2026-01-26 06:17:12.429633	71.7	25.6	-72.3	4.1
2026-01-26 06:17:13.568697	72.0	25.7	-71.9	0.2
2026-01-26 06:17:14.707903	72.4	25.7	-72.8	4.0
2026-01-26 06:17:15.848273	72.7	25.8	-72.1	0.0
2026-01-26 06:17:16.984494	73.0	25.8	-72.7	0.0
2026-01-26 06:17:18.121141	73.3	25.9	-73.3	0.0
2026-01-26 06:17:19.257425	73.7	26.0	-72.8	0.0
2026-01-26 06:17:20.395045	74.0	26.0	-72.1	0.0
2026-01-26 06:17:21.531391	74.3	26.1	-72.5	0.0
2026-01-26 06:17:22.666429	74.7	26.1	-72.3	4.5
2026-01-26 06:17:23.808004	75.0	26.2	-70.7	0.0
2026-01-26 06:17:24.943350	75.4	26.2	-71.6	3.9
2026-01-26 06:17:26.078713	75.7	26.3	-74.8	5.0
2026-01-26 06:17:27.212526	76.0	26.3	-72.4	0.5
2026-01-26 06:17:28.351692	76.4	26.4	-71.6	5.9
2026-01-26 06:17:29.485565	76.7	26.4	-73.0	1.8
2026-01-26 06:17:30.619482	77.1	26.5	-71.7	5.5
2026-01-26 06:17:31.754754	77.4	26.5	-73.3	1.2
2026-01-26 06:17:32.892667	77.8	26.6	-72.8	2.1
2026-01-26 06:17:34.031293	78.1	26.6	-73.5	4.0
2026-01-26 06:17:35.168199	78.4	26.7	-72.3	0.0
2026-01-26 06:17:36.303635	78.8	26.7	-73.4	3.9
2026-01-26 06:17:37.438350	79.1	26.7	-73.0	0.0
2026-01-26 06:17:38.569319	79.5	26.8	-73.2	4.2
2026-01-26 06:17:39.702443	79.8	26.8	-73.5	2.8
2026-01-26 06:17:40.840971	80.2	26.9	-73.5	4.5
2026-01-26 06:17:41.974894	80.6	26.9	-74.2	6.1
2026-01-26 06:17:43.107623	80.9	26.9	-73.5	5.8
2026-01-26 06:17:44.241910	81.3	27.0	-73.1	1.7
2026-01-26 06:17:45.373457	81.6	27.0	-73.0	2.8
2026-01-26 06:17:46.507780	82.0	27.0	-73.6	3.8
2026-01-26 06:17:47.642604	82.3	27.1	-72.3	0.4
2026-01-26 06:17:48.771855	82.7	27.1	-73.0	3.0
2026-01-26 06:17:49.907520	83.0	27.1	-75.7	8.1
2026-01-26 06:17:51.039794	83.4	27.1	-73.7	4.5
2026-01-26 06:17:52.175707	83.8	27.2	-74.4	5.9
2026-01-26 06:17:53.310473	84.1	27.2	-74.9	6.6
2026-01-26 06:17:54.443772	84.5	27.2	-74.8	6.7
2026-01-26 06:17:55.580780	84.8	27.3	-75.3	7.3
2026-01-26 06:17:56.718662	85.2	27.3	-74.9	7.5
2026-01-26 06:17:57.854185	85.6	27.3	-75.1	4.5
2026-01-26 06:17:58.991707	85.9	27.3	-74.6	8.2
2026-01-26 06:18:00.125142	86.3	27.3	-75.0	5.6
2026-01-26 06:18:01.258688	86.6	27.4	-75.7	7.5
2026-01-26 06:18:02.387814	87.0	27.4	-75.5	6.5
2026-01-26 06:18:03.523787	87.4	27.4	-75.7	7.9
2026-01-26 06:18:04.654492	87.7	27.4	-75.8	7.8
2026-01-26 06:18:05.786831	88.1	27.4	-75.6	8.6
2026-01-26 06:18:06.917892	88.5	27.4	-75.2	6.0
2026-01-26 06:18:08.053102	88.8	27.4	-73.7	0.5
2026-01-26 06:18:09.190443	89.2	27.4	-75.8	7.1
2026-01-26 06:18:10.328146	89.6	27.4	-74.9	5.3
2026-01-26 06:18:11.463185	89.9	27.5	-75.4	6.2
2026-01-26 06:18:12.599077	90.3	27.5	-75.3	6.6
2026-01-26 06:18:13.736353	90.7	27.5	-75.6	7.6
2026-01-26 06:18:14.871597	91.0	27.5	-75.7	10.2
2026-01-26 06:18:16.010806	91.4	27.5	-76.2	8.8
2026-01-26 06:18:17.149199	91.8	27.5	-76.7	10.2
2026-01-26 06:18:18.283919	92.1	27.5	-76.3	10.1
2026-01-26 06:18:19.419450	92.5	27.5	-76.1	8.9
2026-01-26 06:18:20.551800	92.9	27.5	-76.4	9.5
2026-01-26 06:18:21.686739	93.2	27.5	-76.2	8.7
2026-01-26 06:18:22.824837	93.6	27.5	-76.2	8.6
2026-01-26 06:18:23.963548	94.0	27.4	-75.2	7.2
2026-01-26 06:18:25.099506	94.3	27.4	-75.8	8.6
2026-01-26 06:18:26.237829	94.7	27.4	-74.9	4.7
2026-01-26 06:18:27.376767	95.1	27.4	-74.2	5.8
2026-01-26 06:18:28.515491	95.4	27.4	-73.8	5.5
2026-01-26 06:18:29.651490	95.8	27.4	-75.1	6.2
2026-01-26 06:18:30.788027	96.2	27.4	-75.4	7.2
2026-01-26 06:18:31.925701	96.5	27.4	-74.1	6.1
2026-01-26 06:18:33.061842	96.9	27.3	-74.7	7.7
2026-01-26 06:18:34.201785	97.3	27.3	-74.4	5.8
2026-01-26 06:18:35.337551	97.6	27.3	-73.9	5.5
2026-01-26 06:18:36.476367	98.0	27.3	-74.6	5.4
2026-01-26 06:18:37.611762	98.3	27.3	-75.1	8.1
2026-01-26 06:18:38.750028	98.7	27.2	-75.4	8.3
2026-01-26 06:18:39.888557	99.1	27.2	-75.7	9.3
2026-01-26 06:18:41.021764	99.4	27.2	-75.6	8.8
2026-01-26 06:18:42.159653	99.8	27.2	-75.2	7.9
2026-01-26 06:18:43.297422	100.1	27.1	-75.6	7.6
2026-01-26 06:18:44.436007	100.5	27.1	-76.0	9.8
2026-01-26 06:18:45.575379	100.9	27.1	-75.5	8.7
2026-01-26 06:18:46.714053	101.2	27.1	-75.7	7.7
2026-01-26 06:18:47.852642	101.6	27.0	-76.2	9.5
2026-01-26 06:18:48.992394	101.9	27.0	-76.1	7.8
2026-01-26 06:18:50.127919	102.3	27.0	-76.0	10.2
2026-01-26 06:18:51.264293	102.7	26.9	-76.2	8.6
2026-01-26 06:18:52.403042	103.0	26.9	-76.5	8.3
2026-01-26 06:18:53.540349	103.4	26.8	-76.0	8.9
2026-01-26 06:18:54.675776	103.7	26.8	-76.6	10.1
2026-01-26 06:18:55.809281	104.1	26.8	-76.0	9.0
2026-01-26 06:18:56.944802	104.4	26.7	-75.6	8.1
2026-01-26 06:18:58.078922	104.8	26.7	-76.5	9.6
2026-01-26 06:18:59.213557	105.1	26.6	-76.5	9.7
2026-01-26 06:19:00.352408	105.5	26.6	-76.6	9.1
2026-01-26 06:19:01.486846	105.8	26.6	-77.0	10.0
2026-01-26 06:19:02.625057	106.2	26.5	-76.5	9.2
2026-01-26 06:19:03.762692	106.5	26.5	-76.4	9.4
2026-01-26 06:19:04.899753	106.9	26.4	-77.1	9.3
2026-01-26 06:19:06.037732	107.2	26.4	-77.4	9.9
2026-01-26 06:19:07.176196	107.5	26.3	-76.8	9.4
2026-01-26 06:19:08.314472	107.9	26.3	-76.6	10.5
2026-01-26 06:19:09.450425	108.2	26.2	-76.6	10.3
2026-01-26 06:19:10.588426	108.6	26.2	-77.0	10.3
2026-01-26 06:19:11.729818	108.9	26.1	-76.9	10.2
2026-01-26 06:19:12.866234	109.2	26.0	-77.2	11.6
2026-01-26 06:19:14.005231	109.6	26.0	-76.8	9.5
2026-01-26 06:19:15.146391	109.9	25.9	-76.6	9.9
2026-01-26 06:19:16.284825	110.2	25.9	-77.2	10.4
2026-01-26 06:19:17.421944	110.6	25.8	-77.3	9.8
2026-01-26 06:19:18.560252	110.9	25.8	-76.6	8.2
2026-01-26 06:19:19.699466	111.2	25.7	-77.3	11.9
2026-01-26 06:19:20.834814	111.6	25.6	-76.5	8.7
2026-01-26 06:19:21.970843	111.9	25.6	-76.6	9.5
2026-01-26 06:19:23.107432	112.2	25.5	-76.9	10.2
2026-01-26 06:19:24.244570	112.5	25.4	-76.5	9.3
2026-01-26 06:19:25.381319	112.9	25.4	-76.6	9.0
2026-01-26 06:19:26.519417	113.2	25.3	-77.1	10.5
2026-01-26 06:19:27.655937	113.5	25.3	-77.0	10.1
2026-01-26 06:19:28.791272	113.8	25.2	-76.8	10.3
2026-01-26 06:19:29.927768	114.2	25.1	-76.8	9.7
2026-01-26 06:19:31.063033	114.5	25.1	-76.4	9.0
2026-01-26 06:19:32.199340	114.8	25.0	-76.5	9.1
2026-01-26 06:19:33.337880	115.1	24.9	-77.5	10.4
2026-01-26 06:19:34.474431	115.4	24.8	-76.8	9.2
2026-01-26 06:19:35.613916	115.7	24.8	-76.9	8.9
2026-01-26 06:19:36.750800	116.0	24.7	-77.3	10.9
2026-01-26 06:19:37.889353	116.3	24.6	-76.9	9.6
2026-01-26 06:19:39.028509	116.7	24.6	-76.9	10.9
2026-01-26 06:19:40.166664	117.0	24.5	-77.4	10.4
2026-01-26 06:19:41.302374	117.3	24.4	-77.1	10.2
2026-01-26 06:19:42.439000	117.6	24.3	-77.5	10.7
2026-01-26 06:19:43.576909	117.9	24.3	-77.3	10.6
2026-01-26 06:19:44.714853	118.2	24.2	-77.7	10.0
2026-01-26 06:19:45.851733	118.5	24.1	-77.5	9.9
2026-01-26 06:19:46.981293	118.8	24.0	-76.6	8.3
2026-01-26 06:19:48.114638	119.1	24.0	-77.4	9.6
2026-01-26 06:19:49.245476	119.4	23.9	-77.5	10.1
2026-01-26 06:19:50.379496	119.6	23.8	-77.4	10.5
2026-01-26 06:19:51.510820	119.9	23.7	-77.7	10.5
2026-01-26 06:19:52.645445	120.2	23.6	-77.3	11.4
2026-01-26 06:19:53.778865	120.5	23.6	-76.9	9.4
2026-01-26 06:19:54.915462	120.8	23.5	-77.0	9.5
2026-01-26 06:19:56.051814	121.1	23.4	-76.7	10.7
2026-01-26 06:19:57.187788	121.4	23.3	-77.1	10.6
2026-01-26 06:19:58.323254	121.7	23.2	-77.2	10.9
2026-01-26 06:19:59.459786	121.9	23.1	-77.2	10.9
2026-01-26 06:20:00.595552	122.2	23.1	-77.4	10.4
2026-01-26 06:20:01.729078	122.5	23.0	-77.0	10.4
2026-01-26 06:20:02.863818	122.8	22.9	-77.6	11.0
2026-01-26 06:20:03.998652	123.0	22.8	-77.2	9.8
2026-01-26 06:20:05.136902	123.3	22.7	-77.0	9.4
2026-01-26 06:20:06.273539	123.6	22.6	-78.0	10.7
2026-01-26 06:20:07.408830	123.9	22.6	-77.7	11.3
2026-01-26 06:20:08.551143	124.1	22.5	-77.6	10.8
2026-01-26 06:20:09.688575	124.4	22.4	-77.4	11.0
2026-01-26 06:20:10.825745	124.7	22.3	-77.3	10.6
2026-01-26 06:20:11.962851	124.9	22.2	-77.5	10.4
2026-01-26 06:20:13.099546	125.2	22.1	-77.2	9.8
2026-01-26 06:20:14.236085	125.5	22.0	-77.5	9.7
2026-01-26 06:20:15.375130	125.7	21.9	-77.3	8.9
2026-01-26 06:20:16.510718	126.0	21.9	-77.2	9.7
2026-01-26 06:20:17.649499	126.2	21.8	-77.3	9.4
2026-01-26 06:20:18.783819	126.5	21.7	-77.4	9.9
2026-01-26 06:20:19.919985	126.8	21.6	-77.6	9.6
2026-01-26 06:20:21.054304	127.0	21.5	-77.2	10.0
2026-01-26 06:20:22.185797	127.3	21.4	-77.2	9.6
2026-01-26 06:20:23.318528	127.5	21.3	-77.3	9.0
2026-01-26 06:20:24.451642	127.8	21.2	-77.4	9.5
2026-01-26 06:20:25.586739	128.0	21.1	-77.3	9.8
2026-01-26 06:20:26.720550	128.3	21.1	-77.5	9.6
2026-01-26 06:20:27.856323	128.5	21.0	-77.2	10.2
2026-01-26 06:20:28.988377	128.7	20.9	-76.9	8.9
2026-01-26 06:20:30.121938	129.0	20.8	-77.3	9.7
2026-01-26 06:20:31.256036	129.2	20.7	-77.7	10.0
2026-01-26 06:20:32.390832	129.5	20.6	-77.0	8.6
2026-01-26 06:20:33.525075	129.7	20.5	-77.1	7.6
2026-01-26 06:20:34.662438	129.9	20.4	-76.8	8.2
2026-01-26 06:20:35.801732	130.2	20.3	-76.8	7.9
2026-01-26 06:20:36.939736	130.4	20.2	-76.9	9.0
2026-01-26 06:20:38.075092	130.6	20.1	-76.8	8.1
2026-01-26 06:20:39.210858	130.9	20.1	-76.8	7.4
2026-01-26 06:20:40.345276	131.1	20.0	-77.1	9.1
2026-01-26 06:20:41.480643	131.3	19.9	-76.9	7.0
2026-01-26 06:20:42.617966	131.6	19.8	-76.5	7.5
2026-01-26 06:20:43.752440	131.8	19.7	-77.2	8.7
2026-01-26 06:20:44.888795	132.0	19.6	-76.8	7.7
2026-01-26 06:20:46.026243	132.2	19.5	-77.3	8.9
2026-01-26 06:20:47.160414	132.5	19.4	-77.4	8.4
2026-01-26 06:20:48.293598	132.7	19.3	-77.4	9.2
2026-01-26 06:20:49.423689	132.9	19.2	-77.4	9.4
2026-01-26 06:20:50.560850	133.1	19.1	-77.3	8.5
2026-01-26 06:20:51.698447	133.3	19.0	-77.0	7.0
2026-01-26 06:20:52.834620	133.6	18.9	-77.2	7.8
2026-01-26 06:20:53.970585	133.8	18.9	-77.1	8.4
2026-01-26 06:20:55.104732	134.0	18.8	-77.4	8.8
2026-01-26 06:20:56.238818	134.2	18.7	-77.4	8.5
2026-01-26 06:20:57.372159	134.4	18.6	-77.4	7.9
2026-01-26 06:20:58.506187	134.6	18.5	-77.0	7.7
2026-01-26 06:20:59.644734	134.8	18.4	-77.4	8.8
2026-01-26 06:21:00.779494	135.0	18.3	-77.0	7.9
2026-01-26 06:21:01.913744	135.2	18.2	-77.5	10.0
2026-01-26 06:21:03.048280	135.4	18.1	-77.3	7.7
2026-01-26 06:21:04.182495	135.6	18.0	-77.3	7.6
2026-01-26 06:21:05.318061	135.8	17.9	-77.3	8.5
2026-01-26 06:21:06.450066	136.0	17.8	-77.5	8.2
2026-01-26 06:21:07.583778	136.2	17.7	-77.5	8.4
2026-01-26 06:21:08.719276	136.4	17.6	-77.5	9.1
2026-01-26 06:21:09.853055	136.6	17.6	-77.4	7.9
2026-01-26 06:21:10.991435	136.8	17.5	-77.4	9.3
2026-01-26 06:21:12.125641	137.0	17.4	-77.2	8.9
2026-01-26 06:21:13.262711	137.2	17.3	-77.4	8.5
2026-01-26 06:21:14.401763	137.4	17.2	-77.5	8.5
2026-01-26 06:21:15.538488	137.6	17.1	-77.4	8.1
2026-01-26 06:21:16.671539	137.8	17.0	-77.4	8.3
2026-01-26 06:21:17.806030	138.0	16.9	-77.7	8.3
2026-01-26 06:21:18.941253	138.2	16.8	-77.7	8.1
2026-01-26 06:21:20.075504	138.4	16.7	-77.7	8.3
2026-01-26 06:21:21.210211	138.5	16.6	-77.6	8.5
2026-01-26 06:21:22.346819	138.7	16.5	-77.6	8.3
2026-01-26 06:21:23.482781	138.9	16.4	-77.6	8.2
2026-01-26 06:21:24.614888	139.1	16.3	-77.7	8.0
2026-01-26 06:21:25.751293	139.3	16.3	-77.6	7.8
2026-01-26 06:21:26.886960	139.5	16.2	-77.9	8.0
2026-01-26 06:21:28.023329	139.6	16.1	-77.8	8.9
2026-01-26 06:21:29.157295	139.8	16.0	-77.7	9.1
2026-01-26 06:21:30.291169	140.0	15.9	-77.9	8.9
2026-01-26 06:21:31.422320	140.2	15.8	-77.5	8.3
2026-01-26 06:21:32.556561	140.3	15.7	-77.8	8.7
2026-01-26 06:21:33.690723	140.5	15.6	-77.8	8.2
2026-01-26 06:21:34.825733	140.7	15.5	-77.8	8.1
2026-01-26 06:21:35.964622	140.9	15.4	-77.7	7.2
2026-01-26 06:21:37.103368	141.0	15.3	-77.9	7.4
2026-01-26 06:21:38.243421	141.2	15.3	-78.2	7.3
2026-01-26 06:21:39.380928	141.4	15.2	-78.1	8.1
2026-01-26 06:21:40.515138	141.5	15.1	-78.0	7.8
2026-01-26 06:21:41.654240	141.7	15.0	-77.9	7.6
2026-01-26 06:21:42.791481	141.9	14.9	-77.7	7.3
2026-01-26 06:21:43.927530	142.0	14.8	-77.8	7.5
2026-01-26 06:21:45.061240	142.2	14.7	-78.2	7.5
2026-01-26 06:21:46.199271	142.4	14.6	-78.1	8.1
2026-01-26 06:21:47.334515	142.5	14.5	-78.0	7.5
2026-01-26 06:21:48.469537	142.7	14.4	-78.1	8.0
2026-01-26 06:21:49.604286	142.8	14.3	-78.1	6.5
2026-01-26 06:21:50.744602	143.0	14.3	-78.1	8.5
2026-01-26 06:21:51.883071	143.2	14.2	-78.1	8.1
2026-01-26 06:21:53.020084	143.3	14.1	-78.1	7.9
2026-01-26 06:21:54.156365	143.5	14.0	-78.4	7.6
2026-01-26 06:21:55.293465	143.6	13.9	-78.1	7.5
2026-01-26 06:21:56.429744	143.8	13.8	-77.8	7.5
2026-01-26 06:21:57.567398	143.9	13.7	-78.3	7.1
2026-01-26 06:21:58.704226	144.1	13.6	-78.3	7.9
2026-01-26 06:21:59.842626	144.2	13.5	-78.5	8.1
2026-01-26 06:22:00.980713	144.4	13.5	-78.5	8.4
2026-01-26 06:22:02.117176	144.5	13.4	-78.6	7.3
2026-01-26 06:22:03.254325	144.7	13.3	-78.1	6.4
2026-01-26 06:22:04.394366	144.8	13.2	-78.5	7.0
2026-01-26 06:22:05.528995	145.0	13.1	-78.7	8.2
2026-01-26 06:22:06.669351	145.1	13.0	-79.1	8.3
2026-01-26 06:22:07.808186	145.3	12.9	-78.5	8.2
2026-01-26 06:22:08.946003	145.4	12.8	-78.0	6.9
2026-01-26 06:22:10.084412	145.6	12.8	-78.5	7.0
2026-01-26 06:22:11.220670	145.7	12.7	-78.4	8.0
2026-01-26 06:22:12.356438	145.9	12.6	-77.8	5.5
2026-01-26 06:22:13.489270	146.0	12.5	-78.8	7.0
2026-01-26 06:22:14.618912	146.1	12.4	-78.3	7.6
2026-01-26 06:22:15.747669	146.3	12.3	-78.3	7.0
2026-01-26 06:22:16.873944	146.4	12.2	-78.8	7.6
2026-01-26 06:22:18.004730	146.6	12.1	-78.4	5.9
2026-01-26 06:22:19.134088	146.7	12.1	-77.6	8.3
2026-01-26 06:22:20.264819	146.8	12.0	-77.7	6.9
2026-01-26 06:22:21.394918	147.0	11.9	-78.1	6.5
2026-01-26 06:22:22.523077	147.1	11.8	-77.5	5.3
2026-01-26 06:22:23.654539	147.2	11.7	-78.0	5.8
2026-01-26 06:22:24.787515	147.4	11.6	-76.7	4.2
2026-01-26 06:22:25.921779	147.5	11.6	-77.6	5.8
2026-01-26 06:22:27.056607	147.6	11.5	-78.0	5.0
2026-01-26 06:22:28.189827	147.8	11.4	-77.0	5.4
2026-01-26 06:22:29.324455	147.9	11.3	-77.8	4.0
2026-01-26 06:22:30.461966	148.0	11.2	-77.6	4.8
2026-01-26 06:22:31.599876	148.2	11.1	-77.4	2.8
2026-01-26 06:22:32.738904	148.3	11.0	-74.8	0.0
2026-01-26 06:22:33.878409	148.4	11.0	-76.8	1.7
2026-01-26 06:22:35.015840	148.5	10.9	-78.4	3.5
2026-01-26 06:22:36.155309	148.7	10.8	-79.0	0.6
2026-01-26 06:22:37.293286	148.8	10.7	-81.2	0.0
2026-01-26 06:22:38.429354	148.9	10.6	-82.0	0.0
2026-01-26 06:22:39.567521	149.0	10.5	-82.3	0.0
2026-01-26 06:22:40.703756	149.2	10.5	-82.5	0.0
2026-01-26 06:22:41.840595	149.3	10.4	-84.0	0.0
2026-01-26 06:22:42.978316	149.4	10.3	-84.2	0.0
2026-01-26 06:22:44.113765	149.5	10.2	-84.2	0.0
2026-01-26 06:22:45.250856	149.7	10.1	-82.0	0.0
2026-01-26 06:22:46.386724	149.8	10.0	-83.6	0.0
#Closed at: 2026-01-26 06:13:39.844516