passes_logs/2025/01/26/LEX_Murmansk/LEX_Murmansk__20250126_082415_NOAA_19_rec.log

#Pass ID: 20250126_082415_NOAA 19
#Satellite: NOAA 19
#Configuration: NOAA 19
#Start time: 2025-01-26 08:24:10.531278

#LorettStation: 1.0.0 05.05.2024
#Station: LEX_Murmansk
#Location: 33.156738 lon 68.926811 lat
#TLE: 1 33591U 09005A   25024.84494910  .00000392  00000+0  23341-3 0  9996
#TLE: 2 33591  99.0180  88.6826 0014105  30.8618 329.3380 14.13268098822670

#Time	Az	El	Level	SNR
2025-01-26 08:24:36.663336	28.7	17.9	-91.9	5.3
2025-01-26 08:24:37.795200	28.7	18.0	-91.9	2.8
2025-01-26 08:24:38.946865	28.8	18.1	-92.0	2.2
2025-01-26 08:24:40.103036	28.8	18.3	-91.7	2.3
2025-01-26 08:24:41.252877	28.9	18.4	-91.9	5.5
2025-01-26 08:24:42.397913	28.9	18.5	-91.9	7.2
2025-01-26 08:24:43.549825	29.0	18.7	-92.4	8.7
2025-01-26 08:24:44.703295	29.0	18.8	-91.9	8.9
2025-01-26 08:24:45.851408	29.1	18.9	-92.1	7.2
2025-01-26 08:24:46.995279	29.2	19.1	-92.4	9.3
2025-01-26 08:24:48.150404	29.2	19.2	-91.9	6.7
2025-01-26 08:24:49.305869	29.3	19.4	-91.9	11.3
2025-01-26 08:24:50.454468	29.3	19.5	-91.9	11.4
2025-01-26 08:24:51.598133	29.4	19.7	-92.2	9.0
2025-01-26 08:24:52.742034	29.4	19.8	-91.9	4.5
2025-01-26 08:24:53.867595	29.5	19.9	-92.0	1.6
2025-01-26 08:24:55.008266	29.6	20.1	-92.2	3.3
2025-01-26 08:24:56.150645	29.6	20.2	-92.3	5.1
2025-01-26 08:24:57.293756	29.7	20.4	-91.8	6.7
2025-01-26 08:24:58.440398	29.7	20.5	-92.1	10.7
2025-01-26 08:24:59.585127	29.8	20.7	-91.9	11.0
2025-01-26 08:25:00.728785	29.9	20.8	-92.3	10.4
2025-01-26 08:25:01.881334	29.9	21.0	-92.7	8.5
2025-01-26 08:25:03.031469	30.0	21.1	-92.4	8.5
2025-01-26 08:25:04.180719	30.1	21.3	-91.9	8.2
2025-01-26 08:25:05.332305	30.1	21.4	-92.1	10.9
2025-01-26 08:25:06.475637	30.2	21.6	-92.4	12.2
2025-01-26 08:25:07.630677	30.2	21.7	-92.3	9.4
2025-01-26 08:25:08.758574	30.3	21.9	-92.6	4.2
2025-01-26 08:25:09.898218	30.4	22.0	-92.0	5.3
2025-01-26 08:25:11.036429	30.4	22.2	-92.2	4.5
2025-01-26 08:25:12.180358	30.5	22.3	-91.8	3.5
2025-01-26 08:25:13.331736	30.6	22.5	-92.1	5.1
2025-01-26 08:25:14.485025	30.6	22.7	-92.1	9.6
2025-01-26 08:25:15.629552	30.7	22.8	-92.3	12.6
2025-01-26 08:25:16.782625	30.8	23.0	-92.2	10.3
2025-01-26 08:25:17.928770	30.9	23.1	-92.2	9.5
2025-01-26 08:25:19.079679	30.9	23.3	-92.1	6.9
2025-01-26 08:25:20.241862	31.0	23.5	-92.1	5.5
2025-01-26 08:25:21.391253	31.1	23.6	-92.2	9.8
2025-01-26 08:25:22.535380	31.2	23.8	-92.2	12.1
2025-01-26 08:25:23.702213	31.2	24.0	-92.2	9.4
2025-01-26 08:25:24.859031	31.3	24.1	-91.4	4.3
2025-01-26 08:25:26.009841	31.4	24.3	-92.0	4.4
2025-01-26 08:25:27.160524	31.5	24.5	-92.4	2.3
2025-01-26 08:25:28.310231	31.5	24.7	-91.5	0.6
2025-01-26 08:25:29.461744	31.6	24.8	-92.2	5.1
2025-01-26 08:25:30.604090	31.7	25.0	-92.1	7.0
2025-01-26 08:25:31.760077	31.8	25.2	-92.1	10.8
2025-01-26 08:25:32.907180	31.9	25.4	-92.5	11.4
2025-01-26 08:25:34.056831	31.9	25.5	-91.6	9.0
2025-01-26 08:25:35.209839	32.0	25.7	-92.0	7.0
2025-01-26 08:25:36.359930	32.1	25.9	-92.1	4.1
2025-01-26 08:25:37.514309	32.2	26.1	-91.8	5.7
2025-01-26 08:25:38.659495	32.3	26.3	-92.1	4.3
2025-01-26 08:25:39.808200	32.4	26.4	-92.4	3.9
2025-01-26 08:25:40.947934	32.4	26.6	-92.4	4.9
2025-01-26 08:25:42.078012	32.5	26.8	-92.1	2.3
2025-01-26 08:25:43.233687	32.6	27.0	-92.3	1.3
2025-01-26 08:25:44.371376	32.7	27.2	-92.3	4.1
2025-01-26 08:25:45.514444	32.8	27.4	-92.3	2.5
2025-01-26 08:25:46.665130	32.9	27.6	-92.7	2.9
2025-01-26 08:25:47.812852	33.0	27.7	-92.4	6.1
2025-01-26 08:25:48.967476	33.1	27.9	-92.3	3.6
2025-01-26 08:25:50.118801	33.2	28.1	-92.2	3.9
2025-01-26 08:25:51.267067	33.3	28.3	-92.0	4.6
2025-01-26 08:25:52.418216	33.4	28.5	-92.5	4.8
2025-01-26 08:25:53.563070	33.5	28.7	-92.0	6.0
2025-01-26 08:25:54.712992	33.6	28.9	-92.4	6.1
2025-01-26 08:25:55.866504	33.7	29.1	-92.5	9.9
2025-01-26 08:25:57.022197	33.8	29.3	-92.5	9.9
2025-01-26 08:25:58.169982	33.9	29.5	-92.2	4.3
2025-01-26 08:25:59.317929	34.0	29.7	-92.1	3.4
2025-01-26 08:26:00.467532	34.1	29.9	-92.3	4.6
2025-01-26 08:26:01.617389	34.2	30.1	-92.3	3.2
2025-01-26 08:26:02.765987	34.3	30.3	-92.6	2.6
2025-01-26 08:26:03.918498	34.4	30.6	-92.1	5.2
2025-01-26 08:26:05.072016	34.5	30.8	-92.3	7.3
2025-01-26 08:26:06.218148	34.6	31.0	-92.4	7.6
2025-01-26 08:26:07.365906	34.8	31.2	-92.1	10.1
2025-01-26 08:26:08.523648	34.9	31.4	-92.3	9.8
2025-01-26 08:26:09.673853	35.0	31.6	-92.4	5.0
2025-01-26 08:26:10.823540	35.1	31.8	-92.5	4.6
2025-01-26 08:26:11.970199	35.2	32.1	-92.4	10.9
2025-01-26 08:26:13.118388	35.3	32.3	-92.3	9.9
2025-01-26 08:26:14.262000	35.5	32.5	-92.4	12.3
2025-01-26 08:26:15.407756	35.6	32.7	-92.4	8.6
2025-01-26 08:26:16.564680	35.7	33.0	-92.4	8.7
2025-01-26 08:26:17.715992	35.8	33.2	-92.2	3.5
2025-01-26 08:26:18.865375	36.0	33.4	-92.4	3.6
2025-01-26 08:26:20.012932	36.1	33.6	-92.7	5.7
2025-01-26 08:26:21.168554	36.2	33.9	-92.0	5.5
2025-01-26 08:26:22.315848	36.4	34.1	-92.3	7.8
2025-01-26 08:26:23.467486	36.5	34.4	-92.3	11.6
2025-01-26 08:26:24.625546	36.7	34.6	-92.3	11.9
2025-01-26 08:26:25.779671	36.8	34.8	-92.6	11.4
2025-01-26 08:26:26.931605	36.9	35.1	-92.5	11.8
2025-01-26 08:26:28.085334	37.1	35.3	-92.4	10.9
2025-01-26 08:26:29.237289	37.2	35.6	-92.2	8.6
2025-01-26 08:26:30.387254	37.4	35.8	-92.2	12.6
2025-01-26 08:26:31.539372	37.5	36.1	-92.4	15.8
2025-01-26 08:26:32.692007	37.7	36.3	-92.4	16.2
2025-01-26 08:26:33.835936	37.8	36.5	-92.6	13.5
2025-01-26 08:26:34.983258	38.0	36.8	-92.2	9.7
2025-01-26 08:26:36.106646	38.2	37.0	-92.1	6.8
2025-01-26 08:26:37.228772	38.3	37.3	-92.2	3.7
2025-01-26 08:26:38.350124	38.5	37.5	-92.1	3.1
2025-01-26 08:26:39.470259	38.6	37.8	-92.1	7.6
2025-01-26 08:26:40.592097	38.8	38.1	-92.1	10.0
2025-01-26 08:26:41.713098	39.0	38.3	-92.3	12.9
2025-01-26 08:26:42.834116	39.2	38.6	-91.9	15.3
2025-01-26 08:26:43.955052	39.3	38.8	-92.3	15.9
2025-01-26 08:26:45.080677	39.5	39.1	-92.1	14.8
2025-01-26 08:26:46.212503	39.7	39.4	-92.5	10.1
2025-01-26 08:26:47.350923	39.9	39.6	-92.1	7.5
2025-01-26 08:26:48.496450	40.1	39.9	-92.2	13.2
2025-01-26 08:26:49.659055	40.3	40.2	-92.3	13.4
2025-01-26 08:26:50.803522	40.4	40.4	-92.2	15.8
2025-01-26 08:26:51.947551	40.6	40.7	-92.2	17.9
2025-01-26 08:26:53.091681	40.9	41.0	-92.4	14.5
2025-01-26 08:26:54.244255	41.1	41.3	-92.2	10.3
2025-01-26 08:26:55.394374	41.3	41.6	-92.4	8.0
2025-01-26 08:26:56.544841	41.5	41.8	-92.3	5.5
2025-01-26 08:26:57.697510	41.7	42.1	-92.4	2.4
2025-01-26 08:26:58.847090	41.9	42.4	-92.5	4.8
2025-01-26 08:27:00.001217	42.1	42.7	-92.6	12.3
2025-01-26 08:27:01.140967	42.4	43.0	-92.1	14.5
2025-01-26 08:27:02.302658	42.6	43.3	-92.2	15.3
2025-01-26 08:27:03.448122	42.8	43.6	-92.5	17.7
2025-01-26 08:27:04.599435	43.1	43.9	-92.1	16.9
2025-01-26 08:27:05.764168	43.3	44.2	-92.2	10.6
2025-01-26 08:27:06.911080	43.6	44.5	-92.2	9.8
2025-01-26 08:27:08.068216	43.8	44.8	-92.1	9.7
2025-01-26 08:27:09.217696	44.1	45.1	-92.2	9.1
2025-01-26 08:27:10.368459	44.4	45.4	-92.1	13.1
2025-01-26 08:27:11.518756	44.6	45.7	-92.3	16.8
2025-01-26 08:27:12.664286	44.9	46.0	-91.8	16.7
2025-01-26 08:27:13.811371	45.2	46.3	-91.9	14.4
2025-01-26 08:27:14.959910	45.5	46.6	-92.1	11.2
2025-01-26 08:27:16.113071	45.8	47.0	-91.9	5.8
2025-01-26 08:27:17.257289	46.1	47.3	-91.9	5.1
2025-01-26 08:27:18.408586	46.4	47.6	-92.0	3.6
2025-01-26 08:27:19.555590	46.7	47.9	-91.9	2.9
2025-01-26 08:27:20.702254	47.0	48.2	-92.1	1.4
2025-01-26 08:27:21.853067	47.3	48.6	-92.5	1.8
2025-01-26 08:27:23.005188	47.7	48.9	-92.6	4.9
2025-01-26 08:27:24.150930	48.0	49.2	-92.6	5.7
2025-01-26 08:27:25.304718	48.3	49.5	-92.2	9.4
2025-01-26 08:27:26.452306	48.7	49.8	-92.3	8.9
2025-01-26 08:27:27.596920	49.0	50.2	-92.5	4.5
2025-01-26 08:27:28.745627	49.4	50.5	-92.2	4.5
2025-01-26 08:27:29.898161	49.8	50.8	-92.5	2.8
2025-01-26 08:27:31.048780	50.2	51.2	-92.4	2.3
2025-01-26 08:27:32.201766	50.6	51.5	-92.5	4.9
2025-01-26 08:27:33.348189	51.0	51.8	-92.4	7.7
2025-01-26 08:27:34.502919	51.4	52.2	-92.5	10.2
2025-01-26 08:27:35.653102	51.8	52.5	-92.4	9.1
2025-01-26 08:27:36.805154	52.2	52.8	-92.6	11.1
2025-01-26 08:27:37.956025	52.7	53.2	-92.4	9.0
2025-01-26 08:27:39.104664	53.1	53.5	-92.6	8.1
2025-01-26 08:27:40.257327	53.6	53.8	-92.2	3.3
2025-01-26 08:27:41.406362	54.0	54.2	-92.1	3.2
2025-01-26 08:27:42.559077	54.5	54.5	-92.5	4.3
2025-01-26 08:27:43.703999	55.0	54.9	-92.4	2.1
2025-01-26 08:27:44.852774	55.5	55.2	-92.5	1.6
2025-01-26 08:27:46.011242	56.0	55.5	-92.2	6.4
2025-01-26 08:27:47.164406	56.5	55.9	-92.5	10.2
2025-01-26 08:27:48.312498	57.1	56.2	-92.3	12.3
2025-01-26 08:27:49.456423	57.6	56.5	-92.2	14.7
2025-01-26 08:27:50.604924	58.2	56.9	-92.4	14.3
2025-01-26 08:27:51.750569	58.8	57.2	-92.6	13.7
2025-01-26 08:27:52.895152	59.4	57.6	-92.0	14.0
2025-01-26 08:27:54.041938	60.0	57.9	-92.4	13.8
2025-01-26 08:27:55.189034	60.6	58.2	-92.5	9.5
2025-01-26 08:27:56.342486	61.2	58.6	-92.4	8.5
2025-01-26 08:27:57.492917	61.9	58.9	-92.5	11.8
2025-01-26 08:27:58.647242	62.6	59.2	-92.4	9.5
2025-01-26 08:27:59.793367	63.2	59.5	-92.6	10.7
2025-01-26 08:28:00.943565	64.0	59.9	-92.5	15.0
2025-01-26 08:28:02.091959	64.7	60.2	-92.5	17.5
2025-01-26 08:28:03.239138	65.4	60.5	-92.2	18.4
2025-01-26 08:28:04.392080	66.2	60.8	-92.2	18.8
2025-01-26 08:28:05.537752	67.0	61.1	-92.6	16.6
2025-01-26 08:28:06.688173	67.8	61.4	-92.1	14.1
2025-01-26 08:28:07.845870	68.6	61.8	-92.2	12.6
2025-01-26 08:28:08.995147	69.4	62.1	-92.5	11.8
2025-01-26 08:28:10.150500	70.3	62.4	-92.5	8.0
2025-01-26 08:28:11.302706	71.2	62.7	-92.3	3.3
2025-01-26 08:28:12.458021	72.1	62.9	-92.6	6.3
2025-01-26 08:28:13.600319	73.0	63.2	-92.3	4.4
2025-01-26 08:28:14.751217	73.9	63.5	-92.6	4.1
2025-01-26 08:28:15.900991	74.9	63.8	-92.3	6.5
2025-01-26 08:28:17.050894	75.9	64.1	-92.6	8.6
2025-01-26 08:28:18.206224	76.9	64.3	-92.1	9.7
2025-01-26 08:28:19.353509	78.0	64.6	-92.2	11.8
2025-01-26 08:28:20.506248	79.0	64.8	-92.4	14.6
2025-01-26 08:28:21.651547	80.1	65.1	-92.4	16.8
2025-01-26 08:28:22.797433	81.2	65.3	-92.4	17.3
2025-01-26 08:28:23.926639	82.3	65.5	-92.2	15.5
2025-01-26 08:28:25.047650	83.4	65.7	-92.4	18.0
2025-01-26 08:28:26.167435	84.6	66.0	-92.4	18.8
2025-01-26 08:28:27.288858	85.7	66.1	-92.3	14.8
2025-01-26 08:28:28.409746	86.9	66.3	-92.6	14.8
2025-01-26 08:28:29.530201	88.1	66.5	-92.2	14.6
2025-01-26 08:28:30.651708	89.4	66.7	-92.5	12.9
2025-01-26 08:28:31.772223	90.6	66.9	-92.5	8.9
2025-01-26 08:28:32.897053	91.9	67.0	-92.6	6.9
2025-01-26 08:28:34.026720	93.2	67.2	-92.5	9.2
2025-01-26 08:28:35.173077	94.5	67.3	-92.6	5.5
2025-01-26 08:28:36.322508	95.9	67.4	-92.3	5.0
2025-01-26 08:28:37.473923	97.2	67.5	-92.4	9.5
2025-01-26 08:28:38.620929	98.6	67.6	-92.3	11.4
2025-01-26 08:28:39.777039	100.0	67.7	-92.7	19.0
2025-01-26 08:28:40.932756	101.4	67.8	-92.3	12.4
2025-01-26 08:28:42.078384	102.9	67.9	-92.2	11.6
2025-01-26 08:28:43.227861	104.3	67.9	-92.4	17.8
2025-01-26 08:28:44.376523	105.7	67.9	-92.3	16.5
2025-01-26 08:28:45.526312	107.1	68.0	-92.5	15.5
2025-01-26 08:28:46.685763	108.6	68.0	-92.0	18.0
2025-01-26 08:28:47.836866	110.0	68.0	-92.4	13.8
2025-01-26 08:28:48.985835	111.5	68.0	-92.3	16.8
2025-01-26 08:28:50.135813	112.9	68.0	-92.4	15.7
2025-01-26 08:28:51.281015	114.3	67.9	-92.2	15.4
2025-01-26 08:28:52.426350	115.8	67.9	-92.3	16.3
2025-01-26 08:28:53.579115	117.2	67.8	-92.4	18.2
2025-01-26 08:28:54.731924	118.6	67.7	-92.6	19.7
2025-01-26 08:28:55.880003	120.0	67.7	-92.2	19.0
2025-01-26 08:28:57.031940	121.4	67.6	-92.1	16.2
2025-01-26 08:28:58.183162	122.8	67.4	-92.3	17.5
2025-01-26 08:28:59.334080	124.1	67.3	-92.6	18.3
2025-01-26 08:29:00.480430	125.5	67.2	-92.1	16.8
2025-01-26 08:29:01.635051	126.8	67.1	-92.5	15.7
2025-01-26 08:29:02.785782	128.1	66.9	-92.2	17.9
2025-01-26 08:29:03.932969	129.4	66.7	-92.3	16.1
2025-01-26 08:29:05.080337	130.6	66.6	-92.1	14.1
2025-01-26 08:29:06.233840	131.9	66.4	-92.4	17.0
2025-01-26 08:29:07.384032	133.1	66.2	-92.1	13.7
2025-01-26 08:29:08.527371	134.3	66.0	-92.4	11.7
2025-01-26 08:29:09.675866	135.5	65.8	-92.7	13.3
2025-01-26 08:29:10.831897	136.6	65.5	-92.6	8.0
2025-01-26 08:29:11.982310	137.8	65.3	-92.4	6.0
2025-01-26 08:29:13.134896	138.9	65.1	-92.3	10.0
2025-01-26 08:29:14.286222	140.0	64.8	-92.5	15.8
2025-01-26 08:29:15.431912	141.0	64.6	-92.3	11.4
2025-01-26 08:29:16.574547	142.1	64.3	-92.5	10.5
2025-01-26 08:29:17.730816	143.1	64.1	-92.7	14.6
2025-01-26 08:29:18.879181	144.1	63.8	-92.6	15.1
2025-01-26 08:29:20.028588	145.1	63.5	-92.2	12.6
2025-01-26 08:29:21.184602	146.0	63.2	-92.3	18.9
2025-01-26 08:29:22.333611	146.9	63.0	-92.3	16.0
2025-01-26 08:29:23.483787	147.8	62.7	-92.5	12.6
2025-01-26 08:29:24.629918	148.7	62.4	-92.3	15.1
2025-01-26 08:29:25.783732	149.6	62.1	-92.3	16.2
2025-01-26 08:29:26.935800	150.4	61.8	-92.5	13.3
2025-01-26 08:29:28.089569	151.2	61.5	-92.7	12.4
2025-01-26 08:29:29.242798	152.0	61.2	-92.7	18.3
2025-01-26 08:29:30.396188	152.8	60.8	-92.3	15.8
2025-01-26 08:29:31.544397	153.6	60.5	-92.1	13.7
2025-01-26 08:29:32.690467	154.3	60.2	-92.5	17.4
2025-01-26 08:29:33.838699	155.1	59.9	-92.8	17.3
2025-01-26 08:29:34.987132	155.8	59.6	-92.3	15.7
2025-01-26 08:29:36.137090	156.4	59.2	-92.3	13.3
2025-01-26 08:29:37.284168	157.1	58.9	-92.3	15.5
2025-01-26 08:29:38.435456	157.8	58.6	-92.5	15.1
2025-01-26 08:29:39.584279	158.4	58.2	-92.2	16.7
2025-01-26 08:29:40.732992	159.0	57.9	-92.4	14.5
2025-01-26 08:29:41.882070	159.6	57.6	-92.8	11.3
2025-01-26 08:29:43.034224	160.2	57.2	-92.5	16.0
2025-01-26 08:29:44.182525	160.8	56.9	-92.6	14.0
2025-01-26 08:29:45.332886	161.4	56.6	-92.3	13.6
2025-01-26 08:29:46.486866	161.9	56.2	-92.5	14.6
2025-01-26 08:29:47.634487	162.5	55.9	-92.6	10.9
2025-01-26 08:29:48.783575	163.0	55.6	-92.3	11.0
2025-01-26 08:29:49.937142	163.5	55.2	-92.2	12.4
2025-01-26 08:29:51.083856	164.0	54.9	-92.6	12.2
2025-01-26 08:29:52.230384	164.5	54.5	-92.8	13.0
2025-01-26 08:29:53.384475	165.0	54.2	-92.3	11.5
2025-01-26 08:29:54.532394	165.5	53.9	-92.8	8.4
2025-01-26 08:29:55.689866	165.9	53.5	-92.4	14.6
2025-01-26 08:29:56.842197	166.4	53.2	-92.4	14.8
2025-01-26 08:29:57.992146	166.8	52.9	-92.6	7.8
2025-01-26 08:29:59.139594	167.2	52.5	-92.6	13.2
2025-01-26 08:30:00.282307	167.7	52.2	-92.5	10.8
2025-01-26 08:30:01.434495	168.1	51.9	-92.7	5.9
2025-01-26 08:30:02.583853	168.5	51.5	-92.7	5.8
2025-01-26 08:30:03.742285	168.9	51.2	-92.7	7.9
2025-01-26 08:30:04.887986	169.2	50.9	-92.4	4.5
2025-01-26 08:30:06.041187	169.6	50.5	-92.3	3.3
2025-01-26 08:30:07.187368	170.0	50.2	-92.6	11.2
2025-01-26 08:30:08.333555	170.3	49.9	-92.5	10.1
2025-01-26 08:30:09.490056	170.7	49.5	-92.4	8.1
2025-01-26 08:30:10.642922	171.0	49.2	-92.2	12.4
2025-01-26 08:30:11.792361	171.4	48.9	-92.6	15.6
2025-01-26 08:30:12.942145	171.7	48.6	-92.7	11.4
2025-01-26 08:30:14.090113	172.0	48.2	-92.3	10.9
2025-01-26 08:30:15.237923	172.3	47.9	-92.5	13.8
2025-01-26 08:30:16.390402	172.7	47.6	-92.5	14.4
2025-01-26 08:30:17.539478	173.0	47.3	-92.7	15.6
2025-01-26 08:30:18.692040	173.3	47.0	-92.6	15.5
2025-01-26 08:30:19.842504	173.5	46.7	-92.4	15.4
2025-01-26 08:30:20.988500	173.8	46.4	-92.8	12.5
2025-01-26 08:30:22.139961	174.1	46.0	-92.7	13.8
2025-01-26 08:30:23.289130	174.4	45.7	-92.5	16.0
2025-01-26 08:30:24.435866	174.7	45.4	-92.2	14.7
2025-01-26 08:30:25.583684	174.9	45.1	-92.5	10.5
2025-01-26 08:30:26.743026	175.2	44.8	-92.8	12.1
2025-01-26 08:30:27.888753	175.4	44.5	-92.6	12.3
2025-01-26 08:30:29.040874	175.7	44.2	-92.4	10.0
2025-01-26 08:30:30.194316	175.9	43.9	-92.4	16.1
2025-01-26 08:30:31.347028	176.2	43.6	-92.5	13.0
2025-01-26 08:30:32.507106	176.4	43.3	-92.4	10.7
2025-01-26 08:30:33.655144	176.7	43.0	-92.7	15.3
2025-01-26 08:30:34.804255	176.9	42.7	-92.1	14.5
2025-01-26 08:30:35.954568	177.1	42.4	-92.6	11.3
2025-01-26 08:30:37.109553	177.3	42.1	-92.3	13.8
2025-01-26 08:30:38.267632	177.6	41.9	-92.1	17.4
2025-01-26 08:30:39.418203	177.8	41.6	-92.5	16.4
2025-01-26 08:30:40.569392	178.0	41.3	-92.7	15.7
2025-01-26 08:30:41.717368	178.2	41.0	-92.3	13.1
2025-01-26 08:30:42.876419	178.4	40.7	-92.2	12.2
2025-01-26 08:30:44.024789	178.6	40.5	-92.7	10.1
2025-01-26 08:30:45.184437	178.8	40.2	-92.4	9.5
2025-01-26 08:30:46.333709	179.0	39.9	-92.6	8.8
2025-01-26 08:30:47.481341	179.2	39.6	-92.5	5.3
2025-01-26 08:30:48.631033	179.4	39.4	-92.5	7.6
2025-01-26 08:30:49.787362	179.5	39.1	-92.4	10.4
2025-01-26 08:30:50.941122	179.7	38.8	-92.6	7.7
2025-01-26 08:30:52.094028	179.9	38.6	-92.2	5.3
2025-01-26 08:30:53.242988	180.1	38.3	-92.6	12.9
2025-01-26 08:30:54.392041	180.2	38.0	-92.3	7.3
2025-01-26 08:30:55.542606	180.4	37.8	-92.6	10.2
2025-01-26 08:30:56.693653	180.6	37.5	-92.6	12.9
2025-01-26 08:30:57.849139	180.7	37.3	-92.0	14.8
2025-01-26 08:30:59.000997	180.9	37.0	-92.2	14.1
2025-01-26 08:31:00.147541	181.1	36.7	-92.0	15.8
2025-01-26 08:31:01.280572	181.2	36.5	-92.1	12.8
2025-01-26 08:31:02.438725	181.4	36.2	-92.2	12.9
2025-01-26 08:31:03.596463	181.5	36.0	-92.0	12.4
2025-01-26 08:31:04.748329	181.7	35.7	-91.4	12.8
2025-01-26 08:31:05.904245	181.8	35.5	-90.9	10.3
2025-01-26 08:31:07.054318	182.0	35.3	-91.2	7.6
2025-01-26 08:31:08.199657	182.1	35.0	-91.5	12.6
2025-01-26 08:31:09.352071	182.3	34.8	-92.4	10.8
2025-01-26 08:31:10.479228	182.4	34.5	-92.5	8.5
2025-01-26 08:31:11.599679	182.5	34.3	-92.6	8.6
2025-01-26 08:31:12.719901	182.7	34.1	-92.6	15.3
2025-01-26 08:31:13.840869	182.8	33.9	-92.8	10.3
2025-01-26 08:31:14.961347	182.9	33.6	-92.9	11.9
2025-01-26 08:31:16.082688	183.1	33.4	-92.6	10.5
2025-01-26 08:31:17.203606	183.2	33.2	-92.9	10.6
2025-01-26 08:31:18.325317	183.3	33.0	-92.5	12.5
2025-01-26 08:31:19.449763	183.4	32.7	-92.8	13.2
2025-01-26 08:31:20.596290	183.6	32.5	-92.4	12.2
2025-01-26 08:31:21.747823	183.7	32.3	-92.8	12.8
2025-01-26 08:31:22.897903	183.8	32.1	-92.8	8.4
2025-01-26 08:31:24.051848	183.9	31.8	-92.6	5.9
2025-01-26 08:31:25.198151	184.0	31.6	-92.8	9.1
2025-01-26 08:31:26.346978	184.2	31.4	-92.5	8.0
2025-01-26 08:31:27.497452	184.3	31.2	-92.8	5.6
2025-01-26 08:31:28.650508	184.4	31.0	-92.5	9.1
2025-01-26 08:31:29.801591	184.5	30.8	-92.8	8.0
2025-01-26 08:31:30.952966	184.6	30.6	-92.6	6.0
2025-01-26 08:31:32.109143	184.7	30.3	-92.3	5.5
2025-01-26 08:31:33.257722	184.8	30.1	-92.4	7.0
2025-01-26 08:31:34.410092	184.9	29.9	-92.6	8.6
2025-01-26 08:31:35.560863	185.0	29.7	-92.6	8.9
2025-01-26 08:31:36.718446	185.2	29.5	-92.7	11.7
2025-01-26 08:31:37.876627	185.3	29.3	-92.7	10.1
2025-01-26 08:31:39.027346	185.4	29.1	-92.2	10.0
2025-01-26 08:31:40.180225	185.5	28.9	-92.4	10.5
2025-01-26 08:31:41.332163	185.6	28.7	-92.4	9.3
2025-01-26 08:31:42.483759	185.7	28.5	-92.8	5.9
2025-01-26 08:31:43.630552	185.8	28.3	-92.6	5.3
2025-01-26 08:31:44.778413	185.8	28.1	-92.4	7.2
2025-01-26 08:31:45.927027	185.9	27.9	-92.9	4.1
2025-01-26 08:31:47.086071	186.0	27.7	-92.5	8.9
2025-01-26 08:31:48.243089	186.1	27.5	-92.3	11.3
2025-01-26 08:31:49.390247	186.2	27.4	-92.7	11.9
2025-01-26 08:31:50.538985	186.3	27.2	-92.7	11.6
2025-01-26 08:31:51.687139	186.4	27.0	-91.8	9.2
2025-01-26 08:31:52.835339	186.5	26.8	-92.8	9.0
2025-01-26 08:31:53.993352	186.6	26.6	-92.6	6.8
2025-01-26 08:31:55.143050	186.7	26.4	-93.0	9.0
2025-01-26 08:31:56.290064	186.8	26.2	-92.4	7.6
2025-01-26 08:31:57.442963	186.8	26.1	-92.8	4.8
2025-01-26 08:31:58.599519	186.9	25.9	-92.5	5.3
2025-01-26 08:31:59.746682	187.0	25.7	-92.7	8.0
2025-01-26 08:32:00.898551	187.1	25.5	-92.2	5.4
2025-01-26 08:32:02.056689	187.2	25.3	-92.5	6.8
2025-01-26 08:32:03.209574	187.3	25.2	-92.3	9.2
2025-01-26 08:32:04.355961	187.3	25.0	-92.3	9.6
2025-01-26 08:32:05.514320	187.4	24.8	-92.5	11.0
2025-01-26 08:32:06.668845	187.5	24.6	-92.9	10.7
2025-01-26 08:32:07.826014	187.6	24.5	-92.8	9.1
2025-01-26 08:32:08.973859	187.6	24.3	-92.7	8.5
2025-01-26 08:32:10.119718	187.7	24.1	-92.5	5.4
2025-01-26 08:32:11.278296	187.8	24.0	-92.2	10.4
2025-01-26 08:32:12.433738	187.9	23.8	-92.6	7.5
2025-01-26 08:32:13.589140	187.9	23.6	-92.6	6.3
2025-01-26 08:32:14.736115	188.0	23.5	-92.8	12.9
2025-01-26 08:32:15.883321	188.1	23.3	-92.4	7.7
2025-01-26 08:32:17.037713	188.2	23.1	-92.4	10.4
2025-01-26 08:32:18.191224	188.2	23.0	-92.5	12.5
2025-01-26 08:32:19.344595	188.3	22.8	-92.7	13.2
2025-01-26 08:32:20.492846	188.4	22.6	-92.7	13.6
2025-01-26 08:32:21.644555	188.4	22.5	-92.3	11.9
2025-01-26 08:32:22.792281	188.5	22.3	-92.5	11.1
2025-01-26 08:32:23.944485	188.6	22.2	-92.6	7.1
2025-01-26 08:32:25.103359	188.6	22.0	-92.6	5.3
2025-01-26 08:32:26.261836	188.7	21.9	-92.7	8.5
2025-01-26 08:32:27.416480	188.8	21.7	-92.8	2.6
2025-01-26 08:32:28.571927	188.8	21.5	-92.7	5.0
2025-01-26 08:32:29.719900	188.9	21.4	-92.6	4.3
2025-01-26 08:32:30.874301	189.0	21.2	-92.3	2.0
2025-01-26 08:32:32.029615	189.0	21.1	-92.6	3.2
2025-01-26 08:32:33.171340	189.1	20.9	-92.8	6.0
2025-01-26 08:32:34.328800	189.2	20.8	-92.3	6.0
2025-01-26 08:32:35.476105	189.2	20.6	-92.6	8.5
2025-01-26 08:32:36.624681	189.3	20.5	-92.5	9.2
2025-01-26 08:32:37.777610	189.3	20.3	-92.9	12.2
2025-01-26 08:32:38.929961	189.4	20.2	-92.5	7.8
2025-01-26 08:32:40.079455	189.5	20.1	-92.1	8.2
2025-01-26 08:32:41.237497	189.5	19.9	-92.2	13.1
2025-01-26 08:32:42.386967	189.6	19.8	-92.4	9.1
2025-01-26 08:32:43.548908	189.6	19.6	-92.4	6.5
2025-01-26 08:32:44.701728	189.7	19.5	-92.5	12.6
2025-01-26 08:32:45.851733	189.7	19.3	-92.4	10.0
2025-01-26 08:32:47.004138	189.8	19.2	-92.7	10.1
2025-01-26 08:32:48.157104	189.9	19.1	-92.6	9.5
2025-01-26 08:32:49.306294	189.9	18.9	-92.2	8.2
2025-01-26 08:32:50.463015	190.0	18.8	-92.5	4.7
2025-01-26 08:32:51.618000	190.0	18.6	-92.5	4.9
2025-01-26 08:32:52.765135	190.1	18.5	-92.7	6.6
2025-01-26 08:32:53.920358	190.1	18.4	-92.4	4.4
2025-01-26 08:32:55.071342	190.2	18.2	-92.4	1.5
2025-01-26 08:32:56.219369	190.2	18.1	-92.4	5.3
2025-01-26 08:32:57.372399	190.3	18.0	-92.4	2.8
2025-01-26 08:32:58.522614	190.3	17.8	-92.6	2.9
2025-01-26 08:32:59.684870	190.4	17.7	-92.7	2.7
2025-01-26 08:33:00.832330	190.4	17.6	-92.1	3.1
2025-01-26 08:33:01.986286	190.5	17.4	-92.8	3.5
2025-01-26 08:33:03.130864	190.5	17.3	-92.5	5.5
2025-01-26 08:33:04.280738	190.6	17.2	-92.5	7.2
2025-01-26 08:33:05.426209	190.6	17.0	-92.4	5.8
2025-01-26 08:33:06.580359	190.7	16.9	-92.4	5.4
2025-01-26 08:33:07.744207	190.7	16.8	-92.4	6.5
2025-01-26 08:33:08.892203	190.8	16.7	-92.6	4.9
2025-01-26 08:33:10.041991	190.8	16.5	-92.6	3.6
2025-01-26 08:33:11.195896	190.9	16.4	-92.6	6.7
2025-01-26 08:33:12.346904	190.9	16.3	-92.4	5.1
2025-01-26 08:33:13.504214	191.0	16.1	-92.8	5.6
2025-01-26 08:33:14.658014	191.0	16.0	-92.4	7.1
2025-01-26 08:33:15.814739	191.1	15.9	-92.1	4.9
2025-01-26 08:33:16.971427	191.1	15.8	-92.6	4.8
2025-01-26 08:33:18.115955	191.2	15.7	-92.4	3.7
2025-01-26 08:33:19.268331	191.2	15.5	-92.1	3.8
2025-01-26 08:33:20.421247	191.3	15.4	-92.4	1.3
2025-01-26 08:33:21.570079	191.3	15.3	-92.5	1.8
2025-01-26 08:33:22.719240	191.3	15.2	-92.7	4.3
2025-01-26 08:33:23.868836	191.4	15.0	-92.9	4.0
2025-01-26 08:33:25.021061	191.4	14.9	-92.6	2.4
2025-01-26 08:33:26.175780	191.5	14.8	-92.4	2.8
2025-01-26 08:33:27.321484	191.5	14.7	-92.4	3.7
2025-01-26 08:33:28.470083	191.6	14.6	-92.7	4.1
#Closed at: 2025-01-26 08:24:15.437210