passes_logs/2025/01/26/LEX_Murmansk/LEX_Murmansk__20250126_102744_NOAA_18_rec.log

#Pass ID: 20250126_102744_NOAA 18
#Satellite: NOAA 18
#Configuration: NOAA 18
#Start time: 2025-01-26 10:27:39.492022

#LorettStation: 1.0.0 05.05.2024
#Station: LEX_Murmansk
#Location: 33.156738 lon 68.926811 lat
#TLE: 1 28654U 05018A   25024.86051977  .00000457  00000+0  26618-3 0  9996
#TLE: 2 28654  98.8552 105.8163 0014791 151.8936 208.3038 14.13496337 14496

#Time	Az	El	Level	SNR
2025-01-26 10:27:51.713013	24.3	16.3	-92.5	9.6
2025-01-26 10:27:52.872900	24.2	16.4	-92.5	10.5
2025-01-26 10:27:54.028896	24.2	16.6	-92.3	10.3
2025-01-26 10:27:55.185449	24.2	16.7	-92.3	10.3
2025-01-26 10:27:56.350571	24.2	16.8	-92.3	9.1
2025-01-26 10:27:57.511994	24.1	17.0	-92.4	8.1
2025-01-26 10:27:58.669827	24.1	17.1	-92.5	10.3
2025-01-26 10:27:59.835862	24.1	17.2	-92.5	8.3
2025-01-26 10:28:00.993559	24.0	17.4	-92.6	10.3
2025-01-26 10:28:02.158354	24.0	17.5	-92.6	11.3
2025-01-26 10:28:03.312561	24.0	17.6	-92.5	13.7
2025-01-26 10:28:04.481377	24.0	17.8	-92.4	11.0
2025-01-26 10:28:05.640976	23.9	17.9	-92.5	12.5
2025-01-26 10:28:06.797074	23.9	18.0	-92.5	10.3
2025-01-26 10:28:07.963466	23.9	18.2	-92.2	13.0
2025-01-26 10:28:09.127090	23.8	18.3	-92.2	14.1
2025-01-26 10:28:10.287468	23.8	18.5	-92.3	10.2
2025-01-26 10:28:11.447912	23.8	18.6	-92.1	8.2
2025-01-26 10:28:12.610521	23.7	18.7	-92.2	8.0
2025-01-26 10:28:13.770980	23.7	18.9	-92.1	12.0
2025-01-26 10:28:14.929942	23.7	19.0	-92.5	5.4
2025-01-26 10:28:16.089141	23.6	19.2	-92.6	8.0
2025-01-26 10:28:17.254020	23.6	19.3	-92.6	14.0
2025-01-26 10:28:18.414689	23.6	19.4	-92.3	14.9
2025-01-26 10:28:19.581986	23.5	19.6	-92.6	13.1
2025-01-26 10:28:20.740200	23.5	19.7	-92.4	12.5
2025-01-26 10:28:21.903843	23.5	19.9	-92.5	11.4
2025-01-26 10:28:23.066956	23.4	20.0	-92.2	10.2
2025-01-26 10:28:24.223442	23.4	20.2	-92.4	14.8
2025-01-26 10:28:25.384082	23.4	20.3	-92.3	14.8
2025-01-26 10:28:26.543774	23.3	20.5	-92.4	11.6
2025-01-26 10:28:27.699766	23.3	20.6	-92.8	13.1
2025-01-26 10:28:28.859019	23.3	20.8	-92.4	10.8
2025-01-26 10:28:30.037280	23.2	20.9	-92.2	7.3
2025-01-26 10:28:31.205532	23.2	21.1	-92.5	14.0
2025-01-26 10:28:32.365242	23.1	21.3	-92.5	11.7
2025-01-26 10:28:33.529833	23.1	21.4	-92.6	14.5
2025-01-26 10:28:34.683011	23.1	21.6	-92.5	12.7
2025-01-26 10:28:35.844086	23.0	21.7	-92.8	14.6
2025-01-26 10:28:37.005702	23.0	21.9	-92.7	12.1
2025-01-26 10:28:38.176209	23.0	22.0	-91.9	13.9
2025-01-26 10:28:39.330418	22.9	22.2	-92.0	15.3
2025-01-26 10:28:40.478454	22.9	22.4	-92.6	13.0
2025-01-26 10:28:41.609955	22.8	22.5	-92.3	12.1
2025-01-26 10:28:42.730506	22.8	22.7	-92.3	13.9
2025-01-26 10:28:43.851384	22.7	22.8	-92.6	12.0
2025-01-26 10:28:44.972424	22.7	23.0	-92.3	7.4
2025-01-26 10:28:46.092896	22.7	23.2	-92.2	7.4
2025-01-26 10:28:47.214001	22.6	23.3	-92.3	13.9
2025-01-26 10:28:48.335597	22.6	23.5	-92.1	14.0
2025-01-26 10:28:49.456283	22.5	23.7	-92.3	13.4
2025-01-26 10:28:50.579077	22.5	23.8	-92.2	14.4
2025-01-26 10:28:51.716090	22.4	24.0	-92.2	16.7
2025-01-26 10:28:52.881647	22.4	24.2	-92.5	14.4
2025-01-26 10:28:54.028194	22.3	24.3	-92.2	14.0
2025-01-26 10:28:55.188918	22.3	24.5	-91.8	17.0
2025-01-26 10:28:56.345401	22.3	24.7	-92.1	16.2
2025-01-26 10:28:57.504196	22.2	24.9	-92.4	16.6
2025-01-26 10:28:58.662896	22.2	25.0	-92.0	15.6
2025-01-26 10:28:59.840124	22.1	25.2	-92.5	13.6
2025-01-26 10:29:00.993316	22.1	25.4	-92.4	10.3
2025-01-26 10:29:02.150794	22.0	25.6	-92.1	13.8
2025-01-26 10:29:03.314354	21.9	25.8	-92.2	14.1
2025-01-26 10:29:04.476934	21.9	26.0	-92.6	11.8
2025-01-26 10:29:05.634153	21.8	26.1	-92.5	14.8
2025-01-26 10:29:06.797869	21.8	26.3	-92.3	14.7
2025-01-26 10:29:07.958225	21.7	26.5	-92.1	15.5
2025-01-26 10:29:09.124748	21.7	26.7	-92.2	16.0
2025-01-26 10:29:10.285174	21.6	26.9	-92.1	15.0
2025-01-26 10:29:11.447308	21.6	27.1	-92.4	12.0
2025-01-26 10:29:12.610227	21.5	27.3	-92.4	12.7
2025-01-26 10:29:13.769332	21.4	27.5	-92.4	13.3
2025-01-26 10:29:14.933484	21.4	27.7	-92.1	13.3
2025-01-26 10:29:16.099180	21.3	27.9	-91.9	11.7
2025-01-26 10:29:17.260283	21.3	28.1	-91.9	14.2
2025-01-26 10:29:18.431346	21.2	28.3	-92.1	8.4
2025-01-26 10:29:19.599719	21.1	28.5	-92.2	8.7
2025-01-26 10:29:20.753429	21.1	28.7	-92.3	9.9
2025-01-26 10:29:21.917934	21.0	28.9	-92.0	8.2
2025-01-26 10:29:23.078112	20.9	29.1	-92.2	9.8
2025-01-26 10:29:24.237230	20.9	29.3	-92.0	9.2
2025-01-26 10:29:25.406957	20.8	29.5	-92.5	10.8
2025-01-26 10:29:26.567898	20.7	29.7	-92.3	10.8
2025-01-26 10:29:27.729210	20.7	29.9	-92.0	12.6
2025-01-26 10:29:28.893565	20.6	30.2	-92.0	10.0
2025-01-26 10:29:30.055832	20.5	30.4	-92.5	13.0
2025-01-26 10:29:31.215917	20.5	30.6	-92.4	11.9
2025-01-26 10:29:32.384586	20.4	30.8	-92.4	12.4
2025-01-26 10:29:33.533715	20.3	31.0	-92.5	10.6
2025-01-26 10:29:34.702269	20.2	31.3	-92.4	14.4
2025-01-26 10:29:35.859110	20.2	31.5	-92.2	8.6
2025-01-26 10:29:37.020138	20.1	31.7	-92.4	8.0
2025-01-26 10:29:38.180982	20.0	31.9	-92.2	12.8
2025-01-26 10:29:39.341686	19.9	32.2	-92.0	13.9
2025-01-26 10:29:40.503318	19.8	32.4	-92.0	12.0
2025-01-26 10:29:41.669204	19.8	32.6	-92.1	12.9
2025-01-26 10:29:42.829308	19.7	32.9	-92.1	9.5
2025-01-26 10:29:43.986878	19.6	33.1	-91.9	14.1
2025-01-26 10:29:45.151038	19.5	33.3	-92.3	13.5
2025-01-26 10:29:46.309535	19.4	33.6	-92.2	14.0
2025-01-26 10:29:47.474476	19.3	33.8	-92.3	16.6
2025-01-26 10:29:48.636684	19.2	34.1	-92.0	14.1
2025-01-26 10:29:49.805069	19.1	34.3	-92.3	15.8
2025-01-26 10:29:50.958265	19.0	34.6	-92.5	11.2
2025-01-26 10:29:52.123870	18.9	34.8	-92.4	12.6
2025-01-26 10:29:53.289780	18.8	35.1	-92.3	14.5
2025-01-26 10:29:54.448351	18.8	35.3	-92.2	7.1
2025-01-26 10:29:55.615319	18.7	35.6	-92.1	11.3
2025-01-26 10:29:56.783567	18.5	35.8	-92.2	13.6
2025-01-26 10:29:57.949375	18.4	36.1	-92.3	13.1
2025-01-26 10:29:59.110789	18.3	36.3	-92.1	16.2
2025-01-26 10:30:00.265160	18.2	36.6	-92.0	17.8
2025-01-26 10:30:01.427589	18.1	36.9	-92.4	14.8
2025-01-26 10:30:02.595889	18.0	37.1	-92.5	13.4
2025-01-26 10:30:03.748939	17.9	37.4	-92.4	18.3
2025-01-26 10:30:04.918488	17.8	37.7	-92.3	17.6
2025-01-26 10:30:06.082094	17.7	38.0	-92.0	19.3
2025-01-26 10:30:07.239842	17.6	38.2	-92.3	17.9
2025-01-26 10:30:08.404357	17.4	38.5	-92.2	14.9
2025-01-26 10:30:09.572966	17.3	38.8	-92.1	11.5
2025-01-26 10:30:10.737436	17.2	39.1	-92.2	14.3
2025-01-26 10:30:11.907928	17.1	39.4	-92.5	9.4
2025-01-26 10:30:13.066165	16.9	39.6	-92.3	10.0
2025-01-26 10:30:14.223801	16.8	39.9	-92.3	18.6
2025-01-26 10:30:15.384756	16.7	40.2	-92.3	16.5
2025-01-26 10:30:16.546119	16.5	40.5	-92.3	20.6
2025-01-26 10:30:17.714936	16.4	40.8	-92.1	21.0
2025-01-26 10:30:18.875078	16.2	41.1	-92.2	20.0
2025-01-26 10:30:20.044196	16.1	41.4	-92.2	16.7
2025-01-26 10:30:21.205529	16.0	41.7	-91.8	20.1
2025-01-26 10:30:22.372180	15.8	42.0	-91.9	17.8
2025-01-26 10:30:23.536988	15.6	42.3	-92.1	20.2
2025-01-26 10:30:24.690544	15.5	42.6	-92.6	21.3
2025-01-26 10:30:25.851825	15.3	42.9	-92.4	18.4
2025-01-26 10:30:27.013759	15.2	43.2	-92.4	19.2
2025-01-26 10:30:28.183758	15.0	43.6	-92.2	19.3
2025-01-26 10:30:29.347960	14.8	43.9	-92.0	17.4
2025-01-26 10:30:30.507067	14.7	44.2	-92.0	13.5
2025-01-26 10:30:31.665368	14.5	44.5	-92.1	19.3
2025-01-26 10:30:32.836738	14.3	44.8	-92.0	19.8
2025-01-26 10:30:34.003772	14.1	45.2	-92.0	15.6
2025-01-26 10:30:35.167978	13.9	45.5	-91.9	22.1
2025-01-26 10:30:36.332780	13.7	45.8	-92.0	21.7
2025-01-26 10:30:37.496121	13.5	46.2	-92.3	23.3
2025-01-26 10:30:38.666556	13.3	46.5	-92.2	21.7
2025-01-26 10:30:39.823924	13.1	46.8	-91.9	19.7
2025-01-26 10:30:40.986320	12.9	47.2	-92.2	17.5
2025-01-26 10:30:42.146624	12.7	47.5	-92.3	15.1
2025-01-26 10:30:43.304497	12.5	47.9	-92.1	15.1
2025-01-26 10:30:44.463547	12.3	48.2	-92.0	15.7
2025-01-26 10:30:45.632954	12.0	48.6	-92.2	15.2
2025-01-26 10:30:46.793932	11.8	48.9	-92.6	18.2
2025-01-26 10:30:47.955373	11.6	49.3	-92.3	17.7
2025-01-26 10:30:49.118470	11.3	49.6	-92.2	18.3
2025-01-26 10:30:50.281504	11.1	50.0	-92.3	17.2
2025-01-26 10:30:51.446969	10.8	50.4	-92.4	11.9
2025-01-26 10:30:52.609096	10.5	50.7	-92.0	14.6
2025-01-26 10:30:53.783248	10.3	51.1	-92.5	14.6
2025-01-26 10:30:54.944679	10.0	51.5	-92.2	11.3
2025-01-26 10:30:56.114943	9.7	51.8	-91.9	10.7
2025-01-26 10:30:57.269755	9.4	52.2	-92.5	14.2
2025-01-26 10:30:58.432539	9.1	52.6	-92.4	12.2
2025-01-26 10:30:59.601263	8.8	53.0	-92.2	13.5
2025-01-26 10:31:00.753616	8.5	53.3	-92.5	12.6
2025-01-26 10:31:01.915096	8.2	53.7	-92.4	14.1
2025-01-26 10:31:03.074540	7.8	54.1	-92.3	15.1
2025-01-26 10:31:04.240862	7.5	54.5	-92.1	19.0
2025-01-26 10:31:05.403400	7.1	54.9	-92.0	14.4
2025-01-26 10:31:06.564108	6.8	55.2	-92.2	14.5
2025-01-26 10:31:07.723067	6.4	55.6	-92.5	7.2
2025-01-26 10:31:08.879812	6.0	56.0	-92.2	8.5
2025-01-26 10:31:10.041952	5.6	56.4	-92.3	10.5
2025-01-26 10:31:11.203778	5.2	56.8	-91.9	13.3
2025-01-26 10:31:12.368197	4.8	57.2	-92.2	12.6
2025-01-26 10:31:13.533995	4.4	57.6	-92.4	13.9
2025-01-26 10:31:14.690939	3.9	58.0	-92.4	13.6
2025-01-26 10:31:15.861898	3.5	58.4	-92.5	11.3
2025-01-26 10:31:17.026589	3.0	58.8	-92.5	9.5
2025-01-26 10:31:18.191123	2.5	59.2	-92.3	12.3
2025-01-26 10:31:19.358134	2.0	59.6	-92.2	9.7
2025-01-26 10:31:20.523179	1.5	60.0	-92.6	9.5
2025-01-26 10:31:21.683683	1.0	60.4	-92.1	16.2
2025-01-26 10:31:22.850204	0.4	60.8	-92.5	17.0
2025-01-26 10:31:24.005500	359.9	61.2	-92.2	21.2
2025-01-26 10:31:25.172053	359.3	61.6	-92.3	20.5
2025-01-26 10:31:26.331607	358.7	62.0	-92.2	22.5
2025-01-26 10:31:27.500016	358.0	62.4	-92.3	19.1
2025-01-26 10:31:28.657127	357.4	62.8	-92.5	19.9
2025-01-26 10:31:29.824259	356.7	63.2	-92.3	21.1
2025-01-26 10:31:30.987794	356.0	63.6	-92.3	16.2
2025-01-26 10:31:32.152871	355.3	64.0	-92.1	18.7
2025-01-26 10:31:33.319857	354.6	64.4	-92.2	17.6
2025-01-26 10:31:34.480767	353.8	64.8	-92.2	18.2
2025-01-26 10:31:35.648130	353.0	65.2	-92.4	22.2
2025-01-26 10:31:36.812421	352.2	65.6	-92.4	23.4
2025-01-26 10:31:37.974832	351.3	66.0	-92.1	23.8
2025-01-26 10:31:39.134439	350.4	66.4	-92.0	23.2
2025-01-26 10:31:40.295023	349.5	66.7	-92.3	21.8
2025-01-26 10:31:41.462983	348.6	67.1	-92.3	19.0
2025-01-26 10:31:42.626431	347.6	67.5	-92.6	15.1
2025-01-26 10:31:43.790271	346.6	67.9	-92.5	13.8
2025-01-26 10:31:44.945486	345.5	68.2	-92.2	12.1
2025-01-26 10:31:46.103618	344.4	68.6	-92.2	11.9
2025-01-26 10:31:47.264345	343.3	68.9	-92.3	15.1
2025-01-26 10:31:48.433019	342.1	69.3	-92.1	11.8
2025-01-26 10:31:49.600011	340.9	69.6	-92.4	14.0
2025-01-26 10:31:50.765766	339.6	69.9	-92.4	16.5
2025-01-26 10:31:51.933186	338.3	70.2	-92.5	9.5
2025-01-26 10:31:53.086956	337.0	70.6	-92.4	11.0
2025-01-26 10:31:54.250569	335.6	70.9	-91.8	14.5
2025-01-26 10:31:55.412532	334.1	71.1	-91.9	12.2
2025-01-26 10:31:56.577195	332.6	71.4	-92.0	10.9
2025-01-26 10:31:57.742231	331.1	71.7	-92.7	12.0
2025-01-26 10:31:58.904552	329.5	72.0	-92.7	12.7
2025-01-26 10:32:00.071194	327.8	72.2	-92.5	10.5
2025-01-26 10:32:01.225010	326.2	72.4	-92.5	17.1
2025-01-26 10:32:02.388731	324.4	72.6	-92.3	18.8
2025-01-26 10:32:03.551333	322.7	72.8	-92.6	17.6
2025-01-26 10:32:04.717571	320.9	73.0	-92.6	17.7
2025-01-26 10:32:05.875039	319.0	73.2	-92.5	16.1
2025-01-26 10:32:07.037428	317.1	73.3	-92.3	15.3
2025-01-26 10:32:08.196471	315.2	73.5	-92.6	20.1
2025-01-26 10:32:09.362339	313.2	73.6	-92.3	15.5
2025-01-26 10:32:10.524711	311.3	73.7	-92.4	13.9
2025-01-26 10:32:11.687195	309.2	73.8	-92.3	21.6
2025-01-26 10:32:12.846386	307.2	73.8	-92.6	17.1
2025-01-26 10:32:14.004195	305.2	73.9	-92.7	14.3
2025-01-26 10:32:15.164182	303.2	73.9	-92.8	20.9
2025-01-26 10:32:16.323368	301.1	73.9	-92.2	23.1
2025-01-26 10:32:17.484198	299.1	73.9	-92.4	15.5
2025-01-26 10:32:18.645632	297.1	73.8	-92.7	23.9
2025-01-26 10:32:19.814406	295.0	73.8	-92.8	23.9
2025-01-26 10:32:20.975568	293.0	73.7	-92.8	17.9
2025-01-26 10:32:22.137387	291.0	73.6	-92.5	23.2
2025-01-26 10:32:23.297960	289.1	73.5	-92.5	25.8
2025-01-26 10:32:24.463902	287.2	73.3	-92.6	22.4
2025-01-26 10:32:25.625856	285.3	73.2	-92.3	25.0
2025-01-26 10:32:26.793861	283.4	73.0	-92.4	25.9
2025-01-26 10:32:27.966471	281.6	72.8	-92.5	24.9
2025-01-26 10:32:29.140005	279.8	72.6	-92.3	26.5
2025-01-26 10:32:30.304013	278.1	72.4	-92.2	28.0
2025-01-26 10:32:31.469723	276.4	72.2	-92.4	25.3
2025-01-26 10:32:32.631964	274.7	71.9	-92.9	27.7
2025-01-26 10:32:33.793259	273.2	71.7	-92.8	27.1
2025-01-26 10:32:34.959643	271.6	71.4	-92.5	26.2
2025-01-26 10:32:36.126761	270.1	71.1	-92.4	26.5
2025-01-26 10:32:37.299322	268.7	70.8	-92.1	26.5
2025-01-26 10:32:38.456545	267.3	70.5	-92.0	24.3
2025-01-26 10:32:39.621753	265.9	70.2	-92.3	26.0
2025-01-26 10:32:40.786173	264.6	69.9	-92.3	24.9
2025-01-26 10:32:41.947109	263.4	69.6	-92.2	24.2
2025-01-26 10:32:43.108021	262.1	69.2	-92.3	23.8
2025-01-26 10:32:44.266068	261.0	68.9	-92.3	23.0
2025-01-26 10:32:45.426964	259.8	68.5	-92.5	24.6
2025-01-26 10:32:46.590609	258.7	68.2	-92.4	24.9
2025-01-26 10:32:47.755938	257.7	67.8	-92.3	25.1
2025-01-26 10:32:48.918927	256.7	67.4	-92.3	26.2
2025-01-26 10:32:50.084646	255.7	67.1	-92.1	25.4
2025-01-26 10:32:51.252370	254.7	66.7	-91.9	25.0
2025-01-26 10:32:52.418171	253.8	66.3	-92.0	24.6
2025-01-26 10:32:53.581286	252.9	65.9	-92.4	25.9
2025-01-26 10:32:54.743031	252.1	65.5	-92.5	25.7
2025-01-26 10:32:55.908898	251.3	65.1	-92.5	24.6
2025-01-26 10:32:57.062803	250.5	64.7	-92.4	21.2
2025-01-26 10:32:58.222753	249.7	64.4	-92.2	24.1
2025-01-26 10:32:59.384318	249.0	64.0	-92.1	22.8
2025-01-26 10:33:00.535111	248.3	63.6	-92.6	21.4
2025-01-26 10:33:01.698509	247.6	63.2	-92.5	22.8
2025-01-26 10:33:02.863942	246.9	62.8	-92.4	22.3
2025-01-26 10:33:04.032425	246.3	62.4	-92.4	18.7
2025-01-26 10:33:05.191199	245.6	62.0	-92.1	21.9
2025-01-26 10:33:06.360173	245.0	61.5	-92.1	19.9
2025-01-26 10:33:07.522187	244.4	61.1	-92.0	17.4
2025-01-26 10:33:08.687955	243.9	60.7	-92.1	22.6
2025-01-26 10:33:09.853141	243.3	60.3	-92.4	18.6
2025-01-26 10:33:11.018039	242.8	59.9	-92.4	17.0
2025-01-26 10:33:12.184501	242.3	59.5	-92.2	20.2
2025-01-26 10:33:13.347485	241.8	59.1	-92.0	16.1
2025-01-26 10:33:14.511619	241.3	58.7	-92.0	13.9
2025-01-26 10:33:15.669494	240.8	58.3	-92.2	19.8
2025-01-26 10:33:16.831229	240.4	57.9	-92.4	18.4
2025-01-26 10:33:17.998301	239.9	57.5	-92.5	13.4
2025-01-26 10:33:19.162557	239.5	57.1	-92.4	18.7
2025-01-26 10:33:20.323350	239.1	56.7	-92.3	17.6
2025-01-26 10:33:21.481086	238.7	56.3	-92.5	14.9
2025-01-26 10:33:22.645916	238.3	55.9	-92.6	16.8
2025-01-26 10:33:23.813419	237.9	55.5	-92.5	16.1
2025-01-26 10:33:24.972572	237.5	55.2	-92.7	11.9
2025-01-26 10:33:26.145222	237.2	54.8	-92.2	18.2
2025-01-26 10:33:27.311457	236.8	54.4	-92.4	16.5
2025-01-26 10:33:28.480445	236.5	54.0	-92.6	13.5
2025-01-26 10:33:29.642721	236.1	53.6	-92.8	16.4
2025-01-26 10:33:30.804615	235.8	53.2	-92.7	15.7
2025-01-26 10:33:31.972731	235.5	52.8	-92.4	13.6
2025-01-26 10:33:33.137541	235.2	52.5	-92.4	16.8
2025-01-26 10:33:34.303159	234.9	52.1	-92.5	15.6
2025-01-26 10:33:35.460246	234.6	51.7	-92.4	14.2
2025-01-26 10:33:36.625669	234.3	51.3	-92.4	15.2
2025-01-26 10:33:37.788369	234.0	51.0	-92.5	18.4
2025-01-26 10:33:38.954446	233.8	50.6	-92.5	17.0
2025-01-26 10:33:40.115546	233.5	50.2	-92.3	15.4
2025-01-26 10:33:41.286347	233.2	49.9	-92.1	16.9
2025-01-26 10:33:42.446244	233.0	49.5	-92.4	11.4
2025-01-26 10:33:43.610008	232.7	49.2	-92.4	14.7
2025-01-26 10:33:44.766541	232.5	48.8	-92.3	15.3
2025-01-26 10:33:45.923637	232.3	48.4	-92.5	9.9
2025-01-26 10:33:47.086379	232.0	48.1	-92.2	9.7
2025-01-26 10:33:48.246041	231.8	47.7	-92.2	11.8
2025-01-26 10:33:49.410145	231.6	47.4	-92.4	10.7
2025-01-26 10:33:50.570328	231.4	47.1	-92.7	10.0
2025-01-26 10:33:51.734082	231.2	46.7	-92.5	12.4
2025-01-26 10:33:52.897047	231.0	46.4	-92.5	8.7
2025-01-26 10:33:54.062636	230.8	46.0	-92.5	8.4
2025-01-26 10:33:55.216259	230.6	45.7	-92.7	9.5
2025-01-26 10:33:56.379710	230.4	45.4	-92.6	10.1
2025-01-26 10:33:57.540826	230.2	45.0	-92.5	9.9
2025-01-26 10:33:58.701994	230.0	44.7	-92.7	10.9
2025-01-26 10:33:59.860976	229.8	44.4	-92.5	10.4
2025-01-26 10:34:01.013795	229.7	44.1	-92.8	13.8
2025-01-26 10:34:02.180270	229.5	43.7	-92.5	14.2
2025-01-26 10:34:03.352275	229.3	43.4	-92.2	12.8
2025-01-26 10:34:04.516612	229.1	43.1	-92.6	11.4
2025-01-26 10:34:05.682464	229.0	42.8	-92.9	10.9
2025-01-26 10:34:06.844611	228.8	42.5	-92.9	7.1
2025-01-26 10:34:08.011030	228.7	42.2	-92.7	6.5
2025-01-26 10:34:09.178304	228.5	41.9	-92.7	8.2
2025-01-26 10:34:10.343029	228.4	41.6	-92.5	7.3
2025-01-26 10:34:11.502659	228.2	41.2	-92.6	8.5
2025-01-26 10:34:12.671021	228.1	40.9	-92.4	11.8
2025-01-26 10:34:13.828925	227.9	40.7	-92.4	13.0
2025-01-26 10:34:14.989695	227.8	40.4	-92.3	12.9
2025-01-26 10:34:16.154834	227.7	40.1	-92.3	17.2
2025-01-26 10:34:17.317162	227.5	39.8	-92.5	16.7
2025-01-26 10:34:18.478077	227.4	39.5	-92.3	16.4
2025-01-26 10:34:19.642548	227.3	39.2	-92.8	20.0
2025-01-26 10:34:20.809406	227.1	38.9	-92.8	20.3
2025-01-26 10:34:21.979021	227.0	38.6	-92.4	17.9
2025-01-26 10:34:23.136032	226.9	38.3	-92.5	19.7
2025-01-26 10:34:24.299567	226.8	38.1	-92.4	20.0
2025-01-26 10:34:25.459963	226.6	37.8	-92.4	14.5
2025-01-26 10:34:26.625314	226.5	37.5	-92.4	15.2
2025-01-26 10:34:27.794310	226.4	37.2	-92.5	19.4
2025-01-26 10:34:28.959686	226.3	37.0	-92.5	14.5
2025-01-26 10:34:30.119749	226.2	36.7	-92.4	17.7
2025-01-26 10:34:31.288750	226.1	36.4	-92.4	18.5
2025-01-26 10:34:32.448971	226.0	36.2	-92.3	13.9
2025-01-26 10:34:33.614726	225.9	35.9	-92.5	17.1
2025-01-26 10:34:34.774208	225.8	35.7	-92.6	16.8
2025-01-26 10:34:35.936513	225.7	35.4	-92.7	19.6
2025-01-26 10:34:37.098989	225.6	35.1	-92.5	19.1
2025-01-26 10:34:38.269626	225.5	34.9	-92.5	17.5
2025-01-26 10:34:39.439122	225.4	34.6	-92.4	15.1
2025-01-26 10:34:40.604302	225.3	34.4	-92.4	15.1
2025-01-26 10:34:41.767366	225.2	34.1	-92.3	18.5
2025-01-26 10:34:42.924260	225.1	33.9	-92.1	13.5
2025-01-26 10:34:44.090484	225.0	33.6	-92.2	11.4
2025-01-26 10:34:45.243008	224.9	33.4	-92.4	16.4
2025-01-26 10:34:46.409943	224.8	33.2	-92.8	12.2
2025-01-26 10:34:47.572920	224.7	32.9	-92.6	11.8
2025-01-26 10:34:48.734278	224.6	32.7	-92.5	16.9
2025-01-26 10:34:49.898623	224.6	32.4	-92.6	15.4
2025-01-26 10:34:51.068074	224.5	32.2	-92.4	15.0
2025-01-26 10:34:52.227395	224.4	32.0	-92.2	20.2
2025-01-26 10:34:53.389653	224.3	31.7	-92.2	17.2
2025-01-26 10:34:54.555473	224.2	31.5	-92.5	15.9
2025-01-26 10:34:55.716598	224.2	31.3	-92.3	14.8
2025-01-26 10:34:56.879230	224.1	31.1	-92.9	14.3
2025-01-26 10:34:58.043146	224.0	30.8	-92.7	13.4
2025-01-26 10:34:59.208054	223.9	30.6	-92.4	16.6
2025-01-26 10:35:00.363807	223.9	30.4	-92.3	14.2
2025-01-26 10:35:01.524787	223.8	30.2	-92.7	11.7
2025-01-26 10:35:02.688927	223.7	30.0	-92.8	15.8
2025-01-26 10:35:03.851992	223.6	29.8	-92.8	11.7
2025-01-26 10:35:05.016753	223.6	29.5	-92.9	9.6
2025-01-26 10:35:06.185295	223.5	29.3	-92.3	7.5
2025-01-26 10:35:07.355784	223.4	29.1	-92.5	10.5
2025-01-26 10:35:08.523308	223.4	28.9	-92.5	10.9
2025-01-26 10:35:09.683848	223.3	28.7	-92.7	9.7
2025-01-26 10:35:10.857630	223.2	28.5	-92.7	6.9
2025-01-26 10:35:12.018814	223.2	28.3	-92.5	5.7
2025-01-26 10:35:13.185364	223.1	28.1	-92.4	5.3
2025-01-26 10:35:14.351752	223.0	27.9	-92.4	4.4
2025-01-26 10:35:15.512662	223.0	27.7	-92.9	5.3
2025-01-26 10:35:16.676781	222.9	27.5	-92.8	6.0
2025-01-26 10:35:17.841278	222.9	27.3	-92.8	5.0
2025-01-26 10:35:19.004772	222.8	27.1	-92.7	5.8
2025-01-26 10:35:20.171429	222.7	26.9	-92.4	3.2
2025-01-26 10:35:21.333115	222.7	26.7	-92.3	6.1
2025-01-26 10:35:22.496117	222.6	26.5	-92.3	6.1
2025-01-26 10:35:23.661121	222.6	26.3	-92.4	6.4
2025-01-26 10:35:24.825051	222.5	26.1	-92.4	5.4
2025-01-26 10:35:25.987431	222.5	25.9	-92.6	8.1
2025-01-26 10:35:27.149445	222.4	25.7	-92.6	9.0
2025-01-26 10:35:28.316225	222.4	25.6	-92.3	6.3
2025-01-26 10:35:29.480373	222.3	25.4	-92.4	4.9
2025-01-26 10:35:30.636020	222.2	25.2	-92.6	9.7
2025-01-26 10:35:31.801174	222.2	25.0	-92.8	9.8
2025-01-26 10:35:32.963555	222.1	24.8	-92.2	6.7
2025-01-26 10:35:34.130322	222.1	24.6	-92.4	8.7
2025-01-26 10:35:35.285256	222.0	24.5	-92.2	8.7
2025-01-26 10:35:36.448043	222.0	24.3	-92.6	8.2
2025-01-26 10:35:37.611322	221.9	24.1	-92.8	12.7
2025-01-26 10:35:38.774896	221.9	23.9	-92.8	13.5
2025-01-26 10:35:39.933323	221.9	23.8	-92.8	12.9
2025-01-26 10:35:41.097135	221.8	23.6	-92.5	11.3
2025-01-26 10:35:42.255535	221.8	23.4	-92.6	14.0
2025-01-26 10:35:43.422386	221.7	23.2	-92.2	8.7
2025-01-26 10:35:44.583768	221.7	23.1	-92.8	8.8
2025-01-26 10:35:45.739985	221.6	22.9	-92.7	13.4
2025-01-26 10:35:46.896597	221.6	22.7	-92.7	10.7
2025-01-26 10:35:48.055304	221.5	22.6	-92.8	8.3
2025-01-26 10:35:49.220900	221.5	22.4	-92.5	14.3
2025-01-26 10:35:50.380660	221.5	22.2	-92.5	13.9
2025-01-26 10:35:51.541389	221.4	22.1	-92.6	14.8
2025-01-26 10:35:52.708244	221.4	21.9	-92.6	14.4
2025-01-26 10:35:53.864462	221.3	21.8	-92.5	15.3
2025-01-26 10:35:55.028836	221.3	21.6	-92.4	15.6
2025-01-26 10:35:56.188760	221.2	21.4	-92.3	15.7
2025-01-26 10:35:57.351438	221.2	21.3	-92.4	14.1
2025-01-26 10:35:58.519233	221.2	21.1	-92.7	10.6
2025-01-26 10:35:59.682874	221.1	21.0	-92.8	15.6
2025-01-26 10:36:00.839589	221.1	20.8	-92.6	14.2
2025-01-26 10:36:02.004393	221.1	20.7	-92.6	11.1
2025-01-26 10:36:03.158193	221.0	20.5	-92.3	12.8
2025-01-26 10:36:04.325163	221.0	20.4	-92.3	13.3
2025-01-26 10:36:05.484968	220.9	20.2	-92.5	14.2
2025-01-26 10:36:06.645582	220.9	20.0	-92.6	13.7
2025-01-26 10:36:07.813716	220.9	19.9	-92.6	12.1
2025-01-26 10:36:08.978440	220.8	19.7	-92.6	11.2
2025-01-26 10:36:10.141415	220.8	19.6	-92.3	11.7
2025-01-26 10:36:11.308408	220.8	19.5	-92.5	9.9
2025-01-26 10:36:12.468936	220.7	19.3	-92.5	8.2
2025-01-26 10:36:13.634878	220.7	19.2	-92.7	12.1
2025-01-26 10:36:14.797176	220.7	19.0	-92.8	11.4
2025-01-26 10:36:15.949899	220.6	18.9	-92.9	10.0
2025-01-26 10:36:17.119017	220.6	18.7	-92.6	11.1
2025-01-26 10:36:18.281391	220.6	18.6	-92.2	12.7
2025-01-26 10:36:19.444468	220.5	18.4	-92.8	11.9
2025-01-26 10:36:20.602008	220.5	18.3	-92.5	12.9
2025-01-26 10:36:21.760707	220.5	18.2	-92.5	15.8
2025-01-26 10:36:22.922694	220.4	18.0	-92.7	14.1
2025-01-26 10:36:24.085781	220.4	17.9	-92.4	11.5
2025-01-26 10:36:25.250849	220.4	17.7	-92.5	10.8
2025-01-26 10:36:26.418160	220.3	17.6	-92.7	12.6
2025-01-26 10:36:27.578379	220.3	17.5	-92.8	10.6
2025-01-26 10:36:28.750816	220.3	17.3	-92.6	14.6
2025-01-26 10:36:29.917585	220.2	17.2	-92.5	12.4
2025-01-26 10:36:31.082573	220.2	17.1	-92.5	11.6
2025-01-26 10:36:32.243811	220.2	16.9	-92.4	11.0
2025-01-26 10:36:33.406782	220.2	16.8	-92.3	13.7
2025-01-26 10:36:34.566614	220.1	16.7	-92.2	12.8
2025-01-26 10:36:35.729939	220.1	16.5	-92.4	10.0
2025-01-26 10:36:36.899981	220.1	16.4	-92.6	9.2
2025-01-26 10:36:38.060846	220.1	16.3	-92.7	6.2
2025-01-26 10:36:39.221052	220.0	16.1	-92.5	8.9
2025-01-26 10:36:40.386595	220.0	16.0	-92.4	9.5
2025-01-26 10:36:41.545863	220.0	15.9	-92.6	7.0
2025-01-26 10:36:42.710452	219.9	15.8	-92.6	8.6
2025-01-26 10:36:43.868004	219.9	15.6	-92.4	8.4
2025-01-26 10:36:45.030003	219.9	15.5	-92.4	7.1
2025-01-26 10:36:46.186016	219.9	15.4	-92.4	10.5
2025-01-26 10:36:47.342464	219.8	15.3	-92.3	9.8
2025-01-26 10:36:48.504522	219.8	15.1	-92.4	12.2
2025-01-26 10:36:49.662429	219.8	15.0	-92.4	10.4
2025-01-26 10:36:50.822127	219.8	14.9	-92.9	9.5
2025-01-26 10:36:51.990573	219.7	14.8	-93.0	8.2
2025-01-26 10:36:53.152682	219.7	14.6	-92.4	5.2
2025-01-26 10:36:54.314421	219.7	14.5	-92.4	6.9
2025-01-26 10:36:55.466155	219.7	14.4	-92.2	7.0
#Closed at: 2025-01-26 10:27:44.500051