passes_logs/2025/01/26/LEX_Murmansk/LEX_Murmansk__20250126_100505_NOAA_19_rec.log

#Pass ID: 20250126_100505_NOAA 19
#Satellite: NOAA 19
#Configuration: NOAA 19
#Start time: 2025-01-26 10:05:00.301094

#LorettStation: 1.0.0 05.05.2024
#Station: LEX_Murmansk
#Location: 33.156738 lon 68.926811 lat
#TLE: 1 33591U 09005A   25024.84494910  .00000392  00000+0  23341-3 0  9996
#TLE: 2 33591  99.0180  88.6826 0014105  30.8618 329.3380 14.13268098822670

#Time	Az	El	Level	SNR
2025-01-26 10:05:12.467689	23.6	16.3	-92.0	1.6
2025-01-26 10:05:13.638367	23.6	16.4	-92.3	1.0
2025-01-26 10:05:14.909211	23.5	16.5	-92.1	2.7
2025-01-26 10:05:16.078129	23.4	16.6	-92.2	3.6
2025-01-26 10:05:17.235725	23.3	16.8	-91.8	3.6
2025-01-26 10:05:18.400762	23.2	16.9	-92.2	5.5
2025-01-26 10:05:19.565977	23.2	17.0	-92.0	6.3
2025-01-26 10:05:20.729560	23.1	17.1	-92.1	5.2
2025-01-26 10:05:21.895774	23.0	17.3	-91.7	3.6
2025-01-26 10:05:23.065377	22.9	17.4	-91.8	7.1
2025-01-26 10:05:24.229903	22.8	17.5	-92.2	6.9
2025-01-26 10:05:25.399177	22.7	17.7	-92.1	11.7
2025-01-26 10:05:26.562313	22.7	17.8	-91.8	7.9
2025-01-26 10:05:27.724438	22.6	17.9	-91.8	4.1
2025-01-26 10:05:28.889401	22.5	18.0	-92.2	3.9
2025-01-26 10:05:30.055920	22.4	18.2	-92.2	3.8
2025-01-26 10:05:31.221169	22.3	18.3	-92.4	2.4
2025-01-26 10:05:32.379251	22.2	18.4	-92.6	7.4
2025-01-26 10:05:33.545099	22.1	18.6	-92.5	9.7
2025-01-26 10:05:34.709000	22.0	18.7	-92.3	11.5
2025-01-26 10:05:35.877202	22.0	18.8	-92.0	11.2
2025-01-26 10:05:37.040399	21.9	19.0	-92.2	8.2
2025-01-26 10:05:38.199140	21.8	19.1	-92.2	5.9
2025-01-26 10:05:39.363262	21.7	19.3	-92.0	4.9
2025-01-26 10:05:40.527504	21.6	19.4	-92.1	8.4
2025-01-26 10:05:41.690563	21.5	19.5	-92.2	8.3
2025-01-26 10:05:42.855692	21.4	19.7	-92.4	5.5
2025-01-26 10:05:44.018401	21.3	19.8	-92.7	5.2
2025-01-26 10:05:45.183981	21.2	19.9	-92.3	1.4
2025-01-26 10:05:46.349278	21.1	20.1	-92.1	2.5
2025-01-26 10:05:47.514743	21.0	20.2	-92.3	1.6
2025-01-26 10:05:48.682417	20.9	20.4	-92.3	3.3
2025-01-26 10:05:49.850336	20.8	20.5	-92.5	7.0
2025-01-26 10:05:51.007916	20.7	20.7	-92.5	7.4
2025-01-26 10:05:52.167588	20.6	20.8	-92.3	7.8
2025-01-26 10:05:53.332973	20.5	20.9	-92.4	5.3
2025-01-26 10:05:54.496254	20.4	21.1	-92.1	6.9
2025-01-26 10:05:55.651330	20.3	21.2	-92.5	5.5
2025-01-26 10:05:56.816182	20.1	21.4	-92.1	6.2
2025-01-26 10:05:57.974024	20.0	21.5	-92.4	6.7
2025-01-26 10:05:59.136479	19.9	21.7	-92.3	8.0
2025-01-26 10:06:00.296360	19.8	21.8	-92.3	4.5
2025-01-26 10:06:01.456914	19.7	22.0	-92.3	3.2
2025-01-26 10:06:02.620302	19.6	22.1	-92.3	2.4
2025-01-26 10:06:03.779670	19.5	22.3	-92.1	1.3
2025-01-26 10:06:04.943760	19.4	22.4	-92.7	3.0
2025-01-26 10:06:06.103435	19.2	22.6	-92.1	5.9
2025-01-26 10:06:07.264620	19.1	22.7	-92.1	7.4
2025-01-26 10:06:08.418873	19.0	22.9	-92.2	11.3
2025-01-26 10:06:09.585223	18.9	23.0	-92.5	9.9
2025-01-26 10:06:10.746296	18.8	23.2	-92.6	7.9
2025-01-26 10:06:11.907556	18.6	23.4	-92.7	5.9
2025-01-26 10:06:13.072233	18.5	23.5	-92.4	9.1
2025-01-26 10:06:14.236794	18.4	23.7	-92.3	9.3
2025-01-26 10:06:15.395543	18.3	23.8	-92.6	9.3
2025-01-26 10:06:16.557796	18.1	24.0	-92.8	10.4
2025-01-26 10:06:17.720331	18.0	24.2	-92.5	6.2
2025-01-26 10:06:18.880049	17.9	24.3	-92.6	5.0
2025-01-26 10:06:20.042237	17.7	24.5	-92.5	2.9
2025-01-26 10:06:21.212616	17.6	24.6	-92.6	1.7
2025-01-26 10:06:22.373897	17.5	24.8	-92.3	3.2
2025-01-26 10:06:23.539051	17.3	25.0	-92.6	8.0
2025-01-26 10:06:24.712509	17.2	25.1	-92.6	9.9
2025-01-26 10:06:25.874139	17.0	25.3	-92.5	12.6
2025-01-26 10:06:27.040578	16.9	25.5	-92.2	11.4
2025-01-26 10:06:28.201253	16.8	25.6	-92.3	7.9
2025-01-26 10:06:29.369688	16.6	25.8	-91.9	6.4
2025-01-26 10:06:30.539120	16.5	26.0	-92.7	9.8
2025-01-26 10:06:31.704454	16.3	26.2	-92.4	11.4
2025-01-26 10:06:32.871886	16.2	26.3	-92.4	11.7
2025-01-26 10:06:34.036459	16.0	26.5	-92.4	10.9
2025-01-26 10:06:35.201906	15.9	26.7	-92.5	7.2
2025-01-26 10:06:36.364084	15.7	26.8	-92.2	4.1
2025-01-26 10:06:37.525009	15.5	27.0	-92.4	2.5
2025-01-26 10:06:38.695036	15.4	27.2	-92.8	1.2
2025-01-26 10:06:39.863959	15.2	27.4	-92.4	3.7
2025-01-26 10:06:41.026072	15.1	27.6	-92.6	7.1
2025-01-26 10:06:42.189123	14.9	27.7	-92.3	7.8
2025-01-26 10:06:43.353919	14.7	27.9	-92.3	6.9
2025-01-26 10:06:44.527244	14.6	28.1	-92.4	8.8
2025-01-26 10:06:45.692516	14.4	28.3	-92.7	6.6
2025-01-26 10:06:46.852400	14.2	28.5	-92.8	3.6
2025-01-26 10:06:48.014699	14.0	28.6	-92.6	6.0
2025-01-26 10:06:49.190157	13.9	28.8	-92.3	6.5
2025-01-26 10:06:50.357779	13.7	29.0	-92.1	6.3
2025-01-26 10:06:51.517445	13.5	29.2	-92.5	8.1
2025-01-26 10:06:52.688124	13.3	29.4	-92.3	8.2
2025-01-26 10:06:53.852575	13.1	29.6	-92.2	3.0
2025-01-26 10:06:55.015437	13.0	29.8	-92.1	4.4
2025-01-26 10:06:56.179848	12.8	30.0	-91.8	3.7
2025-01-26 10:06:57.343929	12.6	30.1	-91.9	3.9
2025-01-26 10:06:58.516764	12.4	30.3	-92.5	5.7
2025-01-26 10:06:59.679969	12.2	30.5	-92.4	6.6
2025-01-26 10:07:00.860693	12.0	30.7	-92.2	9.0
2025-01-26 10:07:02.027742	11.8	30.9	-92.5	13.0
2025-01-26 10:07:03.193904	11.6	31.1	-92.2	12.2
2025-01-26 10:07:04.362619	11.4	31.3	-92.1	8.3
2025-01-26 10:07:05.528334	11.2	31.5	-92.3	10.5
2025-01-26 10:07:06.693714	11.0	31.7	-92.2	8.0
2025-01-26 10:07:07.857271	10.7	31.9	-92.3	9.5
2025-01-26 10:07:09.016900	10.5	32.1	-92.1	13.8
2025-01-26 10:07:10.184502	10.3	32.3	-92.4	12.8
2025-01-26 10:07:11.345013	10.1	32.5	-92.3	11.8
2025-01-26 10:07:12.513249	9.9	32.7	-92.2	9.8
2025-01-26 10:07:13.666499	9.6	32.9	-92.5	4.9
2025-01-26 10:07:14.830874	9.4	33.1	-92.1	2.0
2025-01-26 10:07:15.991642	9.2	33.3	-92.3	3.9
2025-01-26 10:07:17.148623	8.9	33.5	-92.5	4.5
2025-01-26 10:07:18.310624	8.7	33.7	-92.2	6.0
2025-01-26 10:07:19.478785	8.5	33.9	-91.9	11.1
2025-01-26 10:07:20.642504	8.2	34.1	-92.2	13.9
2025-01-26 10:07:21.803492	8.0	34.3	-92.3	15.5
2025-01-26 10:07:22.968558	7.7	34.6	-92.7	15.6
2025-01-26 10:07:24.132153	7.5	34.8	-92.6	13.0
2025-01-26 10:07:25.296434	7.2	35.0	-92.6	8.7
2025-01-26 10:07:26.456513	6.9	35.2	-92.6	9.7
2025-01-26 10:07:27.621663	6.7	35.4	-92.3	14.5
2025-01-26 10:07:28.781472	6.4	35.6	-92.2	14.0
2025-01-26 10:07:29.940730	6.1	35.8	-92.5	17.4
2025-01-26 10:07:31.098040	5.9	36.0	-92.4	17.2
2025-01-26 10:07:32.254507	5.6	36.2	-92.3	13.1
2025-01-26 10:07:33.415413	5.3	36.5	-92.6	8.6
2025-01-26 10:07:34.581087	5.0	36.7	-92.4	7.4
2025-01-26 10:07:35.731844	4.7	36.9	-92.5	3.8
2025-01-26 10:07:36.892116	4.4	37.1	-92.3	4.6
2025-01-26 10:07:38.058559	4.1	37.3	-92.7	7.5
2025-01-26 10:07:39.211170	3.8	37.5	-92.3	8.0
2025-01-26 10:07:40.378588	3.5	37.8	-92.5	11.3
2025-01-26 10:07:41.544265	3.2	38.0	-92.4	16.3
2025-01-26 10:07:42.706406	2.9	38.2	-92.6	15.8
2025-01-26 10:07:43.867405	2.6	38.4	-92.2	16.0
2025-01-26 10:07:45.040719	2.3	38.6	-92.3	15.8
2025-01-26 10:07:46.204690	1.9	38.9	-92.5	11.9
2025-01-26 10:07:47.367720	1.6	39.1	-92.4	8.6
2025-01-26 10:07:48.531509	1.3	39.3	-92.6	14.2
2025-01-26 10:07:49.707506	0.9	39.5	-92.5	12.7
2025-01-26 10:07:50.872839	0.6	39.7	-92.6	16.0
2025-01-26 10:07:52.044647	0.2	40.0	-92.7	18.7
2025-01-26 10:07:53.209073	359.9	40.2	-92.3	17.9
2025-01-26 10:07:54.373550	359.5	40.4	-92.3	14.1
2025-01-26 10:07:55.536245	359.1	40.6	-92.5	12.9
2025-01-26 10:07:56.704500	358.8	40.8	-92.7	7.2
2025-01-26 10:07:57.863936	358.4	41.1	-92.5	5.2
2025-01-26 10:07:59.029574	358.0	41.3	-92.4	7.2
2025-01-26 10:08:00.187881	357.6	41.5	-92.4	4.3
2025-01-26 10:08:01.348368	357.2	41.7	-92.6	4.9
2025-01-26 10:08:02.513956	356.8	42.0	-92.4	12.0
2025-01-26 10:08:03.692361	356.4	42.2	-92.2	15.2
2025-01-26 10:08:04.849180	356.0	42.4	-92.1	18.1
2025-01-26 10:08:06.011346	355.6	42.6	-92.4	19.3
2025-01-26 10:08:07.177725	355.2	42.8	-92.5	19.6
2025-01-26 10:08:08.339979	354.7	43.1	-92.6	16.2
2025-01-26 10:08:09.504996	354.3	43.3	-92.6	17.2
2025-01-26 10:08:10.669493	353.9	43.5	-92.3	11.3
2025-01-26 10:08:11.837548	353.4	43.7	-92.7	9.2
2025-01-26 10:08:13.003283	353.0	43.9	-92.4	15.1
2025-01-26 10:08:14.167036	352.5	44.1	-92.7	13.4
2025-01-26 10:08:15.330417	352.1	44.4	-92.7	16.5
2025-01-26 10:08:16.494662	351.6	44.6	-92.3	20.7
2025-01-26 10:08:17.659401	351.1	44.8	-92.1	20.1
2025-01-26 10:08:18.820375	350.6	45.0	-92.2	19.3
2025-01-26 10:08:19.990544	350.1	45.2	-92.2	18.3
2025-01-26 10:08:21.155602	349.7	45.4	-92.2	14.1
2025-01-26 10:08:22.311796	349.2	45.6	-92.2	8.8
2025-01-26 10:08:23.478110	348.6	45.8	-92.5	10.1
2025-01-26 10:08:24.640215	348.1	46.0	-92.7	10.6
2025-01-26 10:08:25.808581	347.6	46.2	-92.6	3.8
2025-01-26 10:08:26.966917	347.1	46.4	-92.6	7.2
2025-01-26 10:08:28.120802	346.6	46.6	-92.3	5.3
2025-01-26 10:08:29.287560	346.0	46.8	-92.2	7.3
2025-01-26 10:08:30.452946	345.5	47.0	-92.1	11.6
2025-01-26 10:08:31.616177	344.9	47.2	-92.1	13.6
2025-01-26 10:08:32.784236	344.3	47.4	-92.2	16.6
2025-01-26 10:08:33.942444	343.8	47.6	-92.5	18.1
2025-01-26 10:08:35.098800	343.2	47.8	-92.3	18.7
2025-01-26 10:08:36.270597	342.6	48.0	-92.5	17.2
2025-01-26 10:08:37.432116	342.0	48.2	-92.6	14.2
2025-01-26 10:08:38.575198	341.4	48.3	-92.7	11.6
2025-01-26 10:08:39.738798	340.8	48.5	-92.5	5.5
2025-01-26 10:08:40.905003	340.2	48.7	-92.8	5.9
2025-01-26 10:08:42.063074	339.6	48.8	-92.4	8.5
2025-01-26 10:08:43.225400	339.0	49.0	-92.2	6.6
2025-01-26 10:08:44.397294	338.4	49.2	-92.5	8.3
2025-01-26 10:08:45.553181	337.7	49.3	-92.8	10.5
2025-01-26 10:08:46.718372	337.1	49.5	-92.7	11.3
2025-01-26 10:08:47.880946	336.4	49.7	-92.5	11.1
2025-01-26 10:08:49.042599	335.8	49.8	-92.6	13.4
2025-01-26 10:08:50.208795	335.1	50.0	-92.4	9.1
2025-01-26 10:08:51.372743	334.4	50.1	-92.7	6.8
2025-01-26 10:08:52.536522	333.8	50.2	-92.6	8.1
2025-01-26 10:08:53.701884	333.1	50.4	-92.4	9.9
2025-01-26 10:08:54.867965	332.4	50.5	-92.6	9.0
2025-01-26 10:08:56.030753	331.7	50.6	-92.5	8.3
2025-01-26 10:08:57.199157	331.0	50.8	-92.4	5.0
2025-01-26 10:08:58.349142	330.3	50.9	-92.4	3.9
2025-01-26 10:08:59.527758	329.6	51.0	-91.9	5.2
2025-01-26 10:09:00.685094	328.8	51.1	-92.1	1.9
2025-01-26 10:09:01.858806	328.1	51.2	-92.2	3.5
2025-01-26 10:09:03.020993	327.4	51.3	-92.6	1.9
2025-01-26 10:09:04.189158	326.6	51.4	-92.5	3.5
2025-01-26 10:09:05.354499	325.9	51.5	-92.4	1.6
2025-01-26 10:09:06.533660	325.2	51.6	-92.8	7.1
2025-01-26 10:09:07.696474	324.4	51.7	-92.7	7.5
2025-01-26 10:09:08.855413	323.7	51.8	-92.3	8.8
2025-01-26 10:09:10.016794	322.9	51.8	-92.3	11.0
2025-01-26 10:09:11.184558	322.1	51.9	-92.3	11.2
2025-01-26 10:09:12.349276	321.4	52.0	-92.3	9.4
2025-01-26 10:09:13.513080	320.6	52.0	-92.6	10.0
2025-01-26 10:09:14.677116	319.9	52.1	-92.7	10.3
2025-01-26 10:09:15.844540	319.1	52.1	-92.5	12.5
2025-01-26 10:09:17.008975	318.3	52.2	-92.6	10.1
2025-01-26 10:09:18.172168	317.5	52.2	-92.5	12.9
2025-01-26 10:09:19.333183	316.8	52.2	-92.1	9.0
2025-01-26 10:09:20.507601	316.0	52.3	-92.2	9.8
2025-01-26 10:09:21.672280	315.2	52.3	-92.7	6.9
2025-01-26 10:09:22.833972	314.4	52.3	-92.6	5.5
2025-01-26 10:09:24.003524	313.6	52.3	-92.8	5.4
2025-01-26 10:09:25.170306	312.8	52.3	-92.4	5.8
2025-01-26 10:09:26.326380	312.1	52.3	-92.7	5.0
2025-01-26 10:09:27.495279	311.3	52.3	-92.5	7.0
2025-01-26 10:09:28.655240	310.5	52.3	-92.2	5.6
2025-01-26 10:09:29.829807	309.7	52.3	-92.6	1.5
2025-01-26 10:09:30.988819	308.9	52.2	-92.3	4.9
2025-01-26 10:09:32.161724	308.2	52.2	-92.8	6.1
2025-01-26 10:09:33.330303	307.4	52.2	-92.5	3.8
2025-01-26 10:09:34.496681	306.6	52.1	-92.5	4.4
2025-01-26 10:09:35.657319	305.8	52.1	-92.3	5.2
2025-01-26 10:09:36.820474	305.1	52.0	-92.3	4.5
2025-01-26 10:09:37.984565	304.3	52.0	-91.6	8.5
2025-01-26 10:09:39.151004	303.5	51.9	-92.0	11.1
2025-01-26 10:09:40.316491	302.8	51.8	-92.4	8.4
2025-01-26 10:09:41.483873	302.0	51.8	-92.2	11.1
2025-01-26 10:09:42.649166	301.3	51.7	-91.6	11.0
2025-01-26 10:09:43.816265	300.5	51.6	-91.7	7.6
2025-01-26 10:09:44.983118	299.8	51.5	-92.1	9.9
2025-01-26 10:09:46.147275	299.0	51.4	-92.3	9.9
2025-01-26 10:09:47.314163	298.3	51.3	-91.8	10.9
2025-01-26 10:09:48.476318	297.6	51.2	-91.6	12.8
2025-01-26 10:09:49.641378	296.9	51.1	-91.9	13.4
2025-01-26 10:09:50.808450	296.1	51.0	-91.9	11.8
2025-01-26 10:09:51.975066	295.4	50.9	-92.2	12.3
2025-01-26 10:09:53.143304	294.7	50.8	-92.3	13.1
2025-01-26 10:09:54.305709	294.0	50.7	-91.9	13.5
2025-01-26 10:09:55.470283	293.3	50.5	-91.9	14.2
2025-01-26 10:09:56.627026	292.6	50.4	-92.5	15.5
2025-01-26 10:09:57.786995	291.9	50.3	-92.3	13.3
2025-01-26 10:09:58.946463	291.3	50.1	-92.4	14.0
2025-01-26 10:10:00.112969	290.6	50.0	-92.2	12.6
2025-01-26 10:10:01.265364	289.9	49.8	-92.5	13.7
2025-01-26 10:10:02.432562	289.3	49.7	-92.6	11.5
2025-01-26 10:10:03.597686	288.6	49.5	-92.4	12.8
2025-01-26 10:10:04.759584	288.0	49.4	-92.7	11.7
2025-01-26 10:10:05.928482	287.3	49.2	-92.5	11.6
2025-01-26 10:10:07.092947	286.7	49.0	-92.4	12.0
2025-01-26 10:10:08.255543	286.1	48.9	-92.5	12.9
2025-01-26 10:10:09.410870	285.5	48.7	-92.3	12.2
2025-01-26 10:10:10.578850	284.9	48.5	-92.5	13.6
2025-01-26 10:10:11.743504	284.3	48.3	-92.3	17.5
2025-01-26 10:10:12.907016	283.7	48.2	-92.4	13.3
2025-01-26 10:10:14.073821	283.1	48.0	-92.3	9.6
2025-01-26 10:10:15.238966	282.5	47.8	-92.4	13.9
2025-01-26 10:10:16.402492	281.9	47.6	-92.6	7.4
2025-01-26 10:10:17.567301	281.3	47.4	-92.6	9.9
2025-01-26 10:10:18.727228	280.8	47.2	-92.6	17.8
2025-01-26 10:10:19.886589	280.2	47.0	-92.5	13.7
2025-01-26 10:10:21.055525	279.7	46.8	-92.7	10.5
2025-01-26 10:10:22.215040	279.1	46.6	-92.3	16.7
2025-01-26 10:10:23.380391	278.6	46.4	-92.2	14.3
2025-01-26 10:10:24.547366	278.1	46.2	-92.2	9.1
2025-01-26 10:10:25.706293	277.5	46.0	-92.4	16.5
2025-01-26 10:10:26.866522	277.0	45.8	-92.5	15.2
2025-01-26 10:10:28.027110	276.5	45.6	-92.5	8.8
2025-01-26 10:10:29.189584	276.0	45.4	-92.3	17.7
2025-01-26 10:10:30.354641	275.5	45.2	-92.4	17.0
2025-01-26 10:10:31.514551	275.0	45.0	-92.5	9.4
2025-01-26 10:10:32.680301	274.6	44.8	-92.5	17.6
2025-01-26 10:10:33.849391	274.1	44.6	-92.5	15.7
2025-01-26 10:10:35.010744	273.6	44.4	-92.6	10.6
2025-01-26 10:10:36.162612	273.2	44.2	-92.4	16.0
2025-01-26 10:10:37.325092	272.7	43.9	-92.3	15.3
2025-01-26 10:10:38.488904	272.3	43.7	-92.4	9.9
2025-01-26 10:10:39.648580	271.8	43.5	-92.3	13.2
2025-01-26 10:10:40.810836	271.4	43.3	-92.2	14.5
2025-01-26 10:10:41.986583	270.9	43.1	-92.4	13.2
2025-01-26 10:10:43.141134	270.5	42.9	-92.4	16.2
2025-01-26 10:10:44.319729	270.1	42.6	-92.3	16.5
2025-01-26 10:10:45.486970	269.7	42.4	-92.2	14.3
2025-01-26 10:10:46.647826	269.3	42.2	-92.2	15.1
2025-01-26 10:10:47.814015	268.9	42.0	-92.4	16.0
2025-01-26 10:10:48.974226	268.5	41.8	-92.7	15.6
2025-01-26 10:10:50.135508	268.1	41.5	-92.6	14.9
2025-01-26 10:10:51.300919	267.7	41.3	-92.6	16.2
2025-01-26 10:10:52.466858	267.3	41.1	-92.2	16.6
2025-01-26 10:10:53.622450	266.9	40.9	-92.6	15.3
2025-01-26 10:10:54.783731	266.6	40.7	-92.3	15.2
2025-01-26 10:10:55.944417	266.2	40.4	-92.4	13.5
2025-01-26 10:10:57.109123	265.8	40.2	-92.2	11.4
2025-01-26 10:10:58.280107	265.5	40.0	-92.5	11.1
2025-01-26 10:10:59.432829	265.1	39.8	-92.7	8.2
2025-01-26 10:11:00.590399	264.8	39.6	-92.3	6.3
2025-01-26 10:11:01.753021	264.4	39.3	-92.2	7.3
2025-01-26 10:11:02.928259	264.1	39.1	-92.6	3.7
2025-01-26 10:11:04.089427	263.8	38.9	-92.5	3.0
2025-01-26 10:11:05.245951	263.4	38.7	-92.8	3.9
2025-01-26 10:11:06.411027	263.1	38.5	-92.5	4.2
2025-01-26 10:11:07.570921	262.8	38.2	-92.9	4.2
2025-01-26 10:11:08.736131	262.5	38.0	-92.4	7.2
2025-01-26 10:11:09.899734	262.2	37.8	-92.5	7.6
2025-01-26 10:11:11.078802	261.8	37.6	-92.5	6.0
2025-01-26 10:11:12.240765	261.5	37.4	-92.7	8.7
2025-01-26 10:11:13.405350	261.2	37.1	-92.8	8.0
2025-01-26 10:11:14.560056	261.0	36.9	-92.6	12.1
2025-01-26 10:11:15.719725	260.7	36.7	-92.7	13.6
2025-01-26 10:11:16.880254	260.4	36.5	-92.5	13.7
2025-01-26 10:11:18.046895	260.1	36.3	-92.4	13.1
2025-01-26 10:11:19.203316	259.8	36.1	-92.6	14.5
2025-01-26 10:11:20.363225	259.5	35.9	-92.5	15.1
2025-01-26 10:11:21.526373	259.3	35.6	-92.3	12.2
2025-01-26 10:11:22.690789	259.0	35.4	-92.4	14.3
2025-01-26 10:11:23.860890	258.7	35.2	-92.6	13.5
2025-01-26 10:11:25.026439	258.5	35.0	-92.7	10.3
2025-01-26 10:11:26.190657	258.2	34.8	-92.7	13.5
2025-01-26 10:11:27.350423	258.0	34.6	-92.3	14.0
2025-01-26 10:11:28.515591	257.7	34.4	-92.4	9.3
2025-01-26 10:11:29.672682	257.5	34.2	-92.3	13.4
2025-01-26 10:11:30.834693	257.2	34.0	-92.5	14.2
2025-01-26 10:11:32.003716	257.0	33.8	-92.3	10.4
2025-01-26 10:11:33.167757	256.7	33.6	-92.5	17.2
2025-01-26 10:11:34.332761	256.5	33.3	-92.6	19.3
2025-01-26 10:11:35.500530	256.3	33.1	-92.4	17.5
2025-01-26 10:11:36.656590	256.0	32.9	-92.4	18.9
2025-01-26 10:11:37.822767	255.8	32.7	-92.2	19.6
2025-01-26 10:11:38.979313	255.6	32.5	-92.4	20.2
2025-01-26 10:11:40.147840	255.4	32.3	-92.2	20.8
2025-01-26 10:11:41.314685	255.1	32.1	-91.8	21.3
2025-01-26 10:11:42.479379	254.9	31.9	-92.2	19.7
2025-01-26 10:11:43.644117	254.7	31.7	-92.2	19.5
2025-01-26 10:11:44.811651	254.5	31.5	-92.5	21.4
2025-01-26 10:11:45.972803	254.3	31.3	-92.4	15.2
2025-01-26 10:11:47.137273	254.1	31.2	-92.3	14.8
2025-01-26 10:11:48.300770	253.9	31.0	-92.6	20.8
2025-01-26 10:11:49.462082	253.7	30.8	-92.3	12.3
2025-01-26 10:11:50.631501	253.5	30.6	-92.3	14.4
2025-01-26 10:11:51.793563	253.3	30.4	-92.4	20.2
2025-01-26 10:11:52.958085	253.1	30.2	-92.5	16.6
2025-01-26 10:11:54.123157	252.9	30.0	-92.6	19.1
2025-01-26 10:11:55.293867	252.7	29.8	-92.4	19.9
2025-01-26 10:11:56.458409	252.5	29.6	-92.6	18.6
2025-01-26 10:11:57.621834	252.3	29.4	-92.3	19.9
2025-01-26 10:11:58.790065	252.1	29.2	-92.5	18.9
2025-01-26 10:11:59.949224	252.0	29.1	-92.2	15.6
2025-01-26 10:12:01.103733	251.8	28.9	-92.6	14.7
2025-01-26 10:12:02.270268	251.6	28.7	-92.6	17.3
2025-01-26 10:12:03.435807	251.4	28.5	-92.7	9.5
2025-01-26 10:12:04.595456	251.3	28.3	-92.7	10.3
2025-01-26 10:12:05.759281	251.1	28.1	-92.4	16.7
2025-01-26 10:12:06.920032	250.9	28.0	-92.2	9.7
2025-01-26 10:12:08.081108	250.8	27.8	-92.3	9.6
2025-01-26 10:12:09.241155	250.6	27.6	-92.2	16.9
2025-01-26 10:12:10.409232	250.4	27.4	-92.0	10.8
2025-01-26 10:12:11.573402	250.3	27.2	-92.3	13.2
2025-01-26 10:12:12.733330	250.1	27.1	-92.8	17.4
2025-01-26 10:12:13.899902	250.0	26.9	-92.6	17.1
2025-01-26 10:12:15.060551	249.8	26.7	-92.6	15.1
2025-01-26 10:12:16.217694	249.7	26.6	-92.0	14.0
2025-01-26 10:12:17.377121	249.5	26.4	-92.6	14.4
2025-01-26 10:12:18.539610	249.3	26.2	-92.7	12.5
2025-01-26 10:12:19.700487	249.2	26.0	-92.4	12.6
2025-01-26 10:12:20.864578	249.1	25.9	-92.6	11.4
2025-01-26 10:12:22.029327	248.9	25.7	-92.4	8.9
2025-01-26 10:12:23.194644	248.8	25.5	-92.5	13.5
2025-01-26 10:12:24.360957	248.6	25.4	-92.5	10.5
2025-01-26 10:12:25.518201	248.5	25.2	-92.4	9.0
2025-01-26 10:12:26.676854	248.3	25.0	-92.4	13.7
2025-01-26 10:12:27.840795	248.2	24.9	-92.4	12.5
2025-01-26 10:12:29.005962	248.1	24.7	-92.6	12.0
2025-01-26 10:12:30.161283	247.9	24.5	-92.4	10.4
2025-01-26 10:12:31.324112	247.8	24.4	-92.4	10.8
2025-01-26 10:12:32.488466	247.7	24.2	-91.9	10.7
2025-01-26 10:12:33.655548	247.5	24.1	-92.5	6.9
2025-01-26 10:12:34.819324	247.4	23.9	-92.5	6.5
2025-01-26 10:12:35.985569	247.3	23.7	-92.4	5.5
2025-01-26 10:12:37.154297	247.1	23.6	-92.4	5.0
2025-01-26 10:12:38.316256	247.0	23.4	-92.1	2.7
2025-01-26 10:12:39.473569	246.9	23.3	-92.6	4.5
2025-01-26 10:12:40.637925	246.8	23.1	-92.6	4.1
2025-01-26 10:12:41.800758	246.7	23.0	-92.7	4.6
2025-01-26 10:12:42.964478	246.5	22.8	-92.5	3.5
2025-01-26 10:12:44.128443	246.4	22.6	-92.6	4.5
2025-01-26 10:12:45.294970	246.3	22.5	-92.6	4.4
2025-01-26 10:12:46.452754	246.2	22.3	-92.5	6.1
2025-01-26 10:12:47.612468	246.1	22.2	-92.8	2.6
2025-01-26 10:12:48.771306	246.0	22.0	-92.5	5.3
2025-01-26 10:12:49.928551	245.8	21.9	-92.4	2.6
2025-01-26 10:12:51.093707	245.7	21.7	-92.4	1.4
2025-01-26 10:12:52.259010	245.6	21.6	-92.4	3.8
2025-01-26 10:12:53.420494	245.5	21.4	-92.3	3.8
2025-01-26 10:12:54.590325	245.4	21.3	-92.4	3.1
2025-01-26 10:12:55.738309	245.3	21.2	-92.5	3.5
2025-01-26 10:12:56.897217	245.2	21.0	-92.3	6.8
2025-01-26 10:12:58.050941	245.1	20.9	-92.4	4.8
2025-01-26 10:12:59.213081	245.0	20.7	-92.3	6.6
2025-01-26 10:13:00.365516	244.9	20.6	-92.3	4.8
2025-01-26 10:13:01.524421	244.8	20.4	-92.5	7.5
2025-01-26 10:13:02.688853	244.7	20.3	-92.3	2.7
2025-01-26 10:13:03.856963	244.6	20.2	-92.4	5.8
2025-01-26 10:13:05.021414	244.5	20.0	-92.4	3.3
2025-01-26 10:13:06.189080	244.4	19.9	-92.7	6.0
2025-01-26 10:13:07.354825	244.3	19.7	-92.9	5.9
2025-01-26 10:13:08.517577	244.2	19.6	-92.8	2.8
2025-01-26 10:13:09.681565	244.1	19.5	-92.8	6.4
2025-01-26 10:13:10.846204	244.0	19.3	-92.5	7.3
2025-01-26 10:13:12.013000	243.9	19.2	-92.6	5.6
2025-01-26 10:13:13.186427	243.8	19.0	-92.6	8.6
2025-01-26 10:13:14.345643	243.7	18.9	-92.7	10.1
2025-01-26 10:13:15.512072	243.6	18.8	-92.8	11.2
2025-01-26 10:13:16.671386	243.5	18.6	-92.7	11.2
2025-01-26 10:13:17.837028	243.4	18.5	-92.7	11.5
2025-01-26 10:13:18.996468	243.3	18.4	-92.4	11.9
2025-01-26 10:13:20.153795	243.2	18.2	-92.3	10.6
2025-01-26 10:13:21.320360	243.1	18.1	-92.2	9.1
2025-01-26 10:13:22.493499	243.1	18.0	-92.4	6.0
2025-01-26 10:13:23.656606	243.0	17.8	-92.7	7.8
2025-01-26 10:13:24.824400	242.9	17.7	-92.6	6.5
2025-01-26 10:13:25.989827	242.8	17.6	-92.5	6.5
2025-01-26 10:13:27.158785	242.7	17.5	-92.5	7.2
2025-01-26 10:13:28.319950	242.6	17.3	-92.4	4.0
2025-01-26 10:13:29.478642	242.6	17.2	-92.5	4.9
2025-01-26 10:13:30.651595	242.5	17.1	-92.9	6.7
2025-01-26 10:13:31.812374	242.4	17.0	-93.0	7.0
2025-01-26 10:13:32.993080	242.3	16.8	-92.7	6.2
2025-01-26 10:13:34.156048	242.2	16.7	-92.3	6.9
2025-01-26 10:13:35.322924	242.1	16.6	-92.7	6.9
2025-01-26 10:13:36.481217	242.1	16.5	-92.9	5.0
2025-01-26 10:13:37.635646	242.0	16.3	-92.7	3.4
2025-01-26 10:13:38.797273	241.9	16.2	-92.8	8.3
2025-01-26 10:13:39.953850	241.8	16.1	-92.6	6.8
2025-01-26 10:13:41.118780	241.8	16.0	-92.7	6.0
2025-01-26 10:13:42.281172	241.7	15.8	-92.8	11.4
2025-01-26 10:13:43.446512	241.6	15.7	-92.8	10.5
2025-01-26 10:13:44.615833	241.5	15.6	-92.3	10.6
2025-01-26 10:13:45.773739	241.5	15.5	-92.7	9.0
2025-01-26 10:13:46.936336	241.4	15.4	-92.7	9.3
2025-01-26 10:13:48.100834	241.3	15.2	-92.5	8.8
2025-01-26 10:13:49.265671	241.2	15.1	-92.4	10.2
2025-01-26 10:13:50.422340	241.2	15.0	-92.5	7.8
2025-01-26 10:13:51.588212	241.1	14.9	-92.6	5.6
2025-01-26 10:13:52.751885	241.0	14.8	-92.7	10.6
2025-01-26 10:13:53.909584	241.0	14.7	-92.7	7.9
2025-01-26 10:13:55.076773	240.9	14.5	-92.6	3.7
#Closed at: 2025-01-26 10:05:05.237978