passes_logs/2025/01/26/LEX_Murmansk/LEX_Murmansk__20250126_184650_NOAA_18_rec.log

#Pass ID: 20250126_184650_NOAA 18
#Satellite: NOAA 18
#Configuration: NOAA 18
#Start time: 2025-01-26 18:46:44.952268

#LorettStation: 1.0.0 05.05.2024
#Station: LEX_Murmansk
#Location: 33.156738 lon 68.926811 lat
#TLE: 1 28654U 05018A   25026.13466944  .00000433  00000+0  25315-3 0  9999
#TLE: 2 28654  98.8549 107.0777 0014815 148.4880 211.7182 14.13497478 14758

#Time	Az	El	Level	SNR
2025-01-26 18:46:57.252786	149.0	16.3	-92.1	6.1
2025-01-26 18:46:58.416544	149.0	16.5	-92.5	3.2
2025-01-26 18:46:59.569341	149.0	16.6	-92.8	4.9
2025-01-26 18:47:00.717103	149.0	16.7	-93.1	6.3
2025-01-26 18:47:01.868488	149.0	16.9	-90.5	4.7
2025-01-26 18:47:03.028948	149.0	17.0	-91.4	5.8
2025-01-26 18:47:04.182374	149.0	17.1	-90.4	4.4
2025-01-26 18:47:05.344904	148.9	17.2	-91.6	6.7
2025-01-26 18:47:06.492183	148.9	17.4	-92.6	5.6
2025-01-26 18:47:07.641226	148.9	17.5	-92.9	3.9
2025-01-26 18:47:08.793185	148.9	17.6	-92.7	4.2
2025-01-26 18:47:09.954617	148.9	17.8	-92.7	3.8
2025-01-26 18:47:11.111573	148.9	17.9	-92.5	5.2
2025-01-26 18:47:12.266345	148.9	18.1	-92.3	4.7
2025-01-26 18:47:13.416190	148.9	18.2	-92.3	4.2
2025-01-26 18:47:14.578061	148.9	18.3	-92.5	2.9
2025-01-26 18:47:15.732393	148.9	18.5	-92.2	5.0
2025-01-26 18:47:16.888474	148.9	18.6	-92.5	2.9
2025-01-26 18:47:18.037865	148.9	18.8	-92.3	3.5
2025-01-26 18:47:19.191742	148.9	18.9	-92.1	7.3
2025-01-26 18:47:20.340421	148.9	19.0	-92.2	7.5
2025-01-26 18:47:21.490256	148.9	19.2	-92.6	6.7
2025-01-26 18:47:22.645022	148.9	19.3	-92.4	6.8
2025-01-26 18:47:23.803552	148.9	19.5	-92.2	6.7
2025-01-26 18:47:24.962516	148.9	19.6	-92.6	8.2
2025-01-26 18:47:26.115257	148.8	19.8	-92.3	8.5
2025-01-26 18:47:27.268770	148.8	19.9	-92.5	6.9
2025-01-26 18:47:28.424716	148.8	20.1	-92.3	8.3
2025-01-26 18:47:29.582126	148.8	20.2	-92.9	7.6
2025-01-26 18:47:30.729461	148.8	20.4	-92.4	9.4
2025-01-26 18:47:31.881671	148.8	20.5	-92.4	6.3
2025-01-26 18:47:33.039367	148.8	20.7	-92.3	3.4
2025-01-26 18:47:34.190055	148.8	20.8	-92.2	10.0
2025-01-26 18:47:35.353398	148.8	21.0	-91.9	7.8
2025-01-26 18:47:36.501520	148.8	21.1	-92.5	11.5
2025-01-26 18:47:37.657360	148.8	21.3	-92.9	10.6
2025-01-26 18:47:38.811857	148.8	21.4	-92.8	12.4
2025-01-26 18:47:39.965336	148.8	21.6	-92.5	9.0
2025-01-26 18:47:41.110020	148.7	21.8	-92.7	10.8
2025-01-26 18:47:42.230494	148.7	21.9	-92.3	12.9
2025-01-26 18:47:43.352099	148.7	22.1	-92.4	10.2
2025-01-26 18:47:44.472721	148.7	22.2	-92.7	10.4
2025-01-26 18:47:45.594160	148.7	22.4	-92.3	8.3
2025-01-26 18:47:46.714851	148.7	22.5	-92.6	10.9
2025-01-26 18:47:47.835497	148.7	22.7	-92.4	8.9
2025-01-26 18:47:48.955817	148.7	22.9	-92.6	6.2
2025-01-26 18:47:50.077385	148.7	23.0	-92.5	6.7
2025-01-26 18:47:51.199176	148.7	23.2	-92.2	9.3
2025-01-26 18:47:52.335443	148.7	23.4	-92.6	11.0
2025-01-26 18:47:53.481044	148.7	23.5	-92.6	10.8
2025-01-26 18:47:54.626447	148.6	23.7	-92.6	11.1
2025-01-26 18:47:55.779268	148.6	23.9	-92.6	10.5
2025-01-26 18:47:56.928251	148.6	24.0	-92.7	8.6
2025-01-26 18:47:58.080007	148.6	24.2	-92.2	11.2
2025-01-26 18:47:59.232751	148.6	24.4	-92.4	12.0
2025-01-26 18:48:00.376718	148.6	24.6	-92.6	11.6
2025-01-26 18:48:01.522490	148.6	24.7	-92.7	10.6
2025-01-26 18:48:02.675292	148.6	24.9	-92.9	9.2
2025-01-26 18:48:03.825584	148.6	25.1	-92.4	9.6
2025-01-26 18:48:04.975536	148.5	25.3	-93.0	5.3
2025-01-26 18:48:06.132931	148.5	25.5	-91.8	10.1
2025-01-26 18:48:07.282605	148.5	25.7	-91.8	12.9
2025-01-26 18:48:08.436986	148.5	25.8	-90.7	9.4
2025-01-26 18:48:09.589141	148.5	26.0	-92.4	12.0
2025-01-26 18:48:10.745612	148.5	26.2	-92.5	11.7
2025-01-26 18:48:11.901463	148.5	26.4	-93.0	8.9
2025-01-26 18:48:13.068326	148.5	26.6	-92.4	8.9
2025-01-26 18:48:14.222802	148.5	26.8	-92.3	7.7
2025-01-26 18:48:15.381464	148.4	27.0	-92.8	8.5
2025-01-26 18:48:16.535757	148.4	27.2	-92.9	10.3
2025-01-26 18:48:17.693416	148.4	27.4	-92.8	10.6
2025-01-26 18:48:18.847833	148.4	27.6	-92.9	11.5
2025-01-26 18:48:19.998420	148.4	27.8	-93.0	5.1
2025-01-26 18:48:21.149540	148.4	28.0	-92.2	8.6
2025-01-26 18:48:22.305926	148.4	28.2	-92.5	6.5
2025-01-26 18:48:23.462454	148.3	28.4	-92.6	5.9
2025-01-26 18:48:24.618539	148.3	28.6	-92.4	6.4
2025-01-26 18:48:25.767873	148.3	28.8	-93.0	9.6
2025-01-26 18:48:26.921793	148.3	29.0	-92.8	6.4
2025-01-26 18:48:28.072715	148.3	29.2	-92.4	6.2
2025-01-26 18:48:29.224815	148.3	29.4	-92.2	8.1
2025-01-26 18:48:30.379664	148.3	29.6	-92.7	3.9
2025-01-26 18:48:31.532248	148.2	29.8	-92.7	6.3
2025-01-26 18:48:32.685395	148.2	30.1	-92.8	5.2
2025-01-26 18:48:33.844355	148.2	30.3	-92.8	5.1
2025-01-26 18:48:35.002820	148.2	30.5	-92.7	7.1
2025-01-26 18:48:36.164996	148.2	30.7	-92.8	5.1
2025-01-26 18:48:37.323138	148.2	30.9	-92.5	8.0
2025-01-26 18:48:38.471426	148.1	31.2	-92.3	4.5
2025-01-26 18:48:39.633710	148.1	31.4	-92.7	8.6
2025-01-26 18:48:40.789046	148.1	31.6	-92.9	12.1
2025-01-26 18:48:41.938129	148.1	31.8	-92.6	12.7
2025-01-26 18:48:43.087458	148.1	32.1	-92.5	14.3
2025-01-26 18:48:44.247928	148.0	32.3	-92.4	12.2
2025-01-26 18:48:45.402571	148.0	32.5	-92.4	11.7
2025-01-26 18:48:46.554464	148.0	32.8	-92.6	10.9
2025-01-26 18:48:47.699739	148.0	33.0	-92.3	12.3
2025-01-26 18:48:48.857516	148.0	33.3	-92.1	11.8
2025-01-26 18:48:50.005111	147.9	33.5	-92.1	13.8
2025-01-26 18:48:51.164396	147.9	33.7	-92.1	13.7
2025-01-26 18:48:52.320549	147.9	34.0	-92.7	13.1
2025-01-26 18:48:53.478751	147.9	34.2	-92.5	5.7
2025-01-26 18:48:54.628763	147.8	34.5	-92.6	8.9
2025-01-26 18:48:55.779237	147.8	34.7	-93.1	11.7
2025-01-26 18:48:56.933009	147.8	35.0	-92.3	7.0
2025-01-26 18:48:58.084603	147.8	35.2	-92.6	9.8
2025-01-26 18:48:59.243192	147.8	35.5	-92.4	14.6
2025-01-26 18:49:00.387231	147.7	35.8	-92.5	14.2
2025-01-26 18:49:01.540565	147.7	36.0	-92.2	11.2
2025-01-26 18:49:02.694010	147.7	36.3	-92.8	14.3
2025-01-26 18:49:03.850269	147.7	36.6	-92.7	14.0
2025-01-26 18:49:04.974106	147.6	36.8	-92.9	11.4
2025-01-26 18:49:06.094620	147.6	37.1	-92.0	11.1
2025-01-26 18:49:07.215730	147.6	37.3	-93.0	12.3
2025-01-26 18:49:08.336291	147.5	37.6	-92.2	12.4
2025-01-26 18:49:09.457028	147.5	37.9	-91.3	8.5
2025-01-26 18:49:10.579762	147.5	38.2	-91.4	7.3
2025-01-26 18:49:11.701626	147.5	38.4	-90.9	10.5
2025-01-26 18:49:12.822190	147.4	38.7	-91.6	11.6
2025-01-26 18:49:13.946590	147.4	39.0	-92.5	6.1
2025-01-26 18:49:15.077688	147.4	39.3	-92.7	8.8
2025-01-26 18:49:16.229724	147.3	39.6	-92.4	14.3
2025-01-26 18:49:17.378083	147.3	39.8	-92.5	15.6
2025-01-26 18:49:18.525194	147.3	40.1	-92.7	20.0
2025-01-26 18:49:19.646186	147.2	40.4	-92.7	18.4
2025-01-26 18:49:20.788549	147.2	40.7	-92.6	16.9
2025-01-26 18:49:21.910399	147.2	41.0	-92.6	12.1
2025-01-26 18:49:23.049849	147.1	41.3	-92.6	12.3
2025-01-26 18:49:24.191696	147.1	41.6	-92.6	18.2
2025-01-26 18:49:25.334968	147.1	41.9	-92.5	17.6
2025-01-26 18:49:26.489553	147.0	42.3	-92.6	18.4
2025-01-26 18:49:27.646819	147.0	42.6	-92.8	15.5
2025-01-26 18:49:28.802161	146.9	42.9	-92.8	15.5
2025-01-26 18:49:29.960396	146.9	43.2	-92.9	9.5
2025-01-26 18:49:31.113425	146.8	43.5	-92.8	11.5
2025-01-26 18:49:32.266754	146.8	43.9	-92.9	16.0
2025-01-26 18:49:33.419084	146.8	44.2	-92.8	8.9
2025-01-26 18:49:34.579583	146.7	44.5	-93.0	12.1
2025-01-26 18:49:35.734331	146.7	44.9	-92.5	17.7
2025-01-26 18:49:36.891112	146.6	45.2	-92.8	16.7
2025-01-26 18:49:38.047997	146.6	45.5	-92.9	16.6
2025-01-26 18:49:39.201146	146.5	45.9	-92.4	15.4
2025-01-26 18:49:40.356752	146.5	46.2	-92.7	11.4
2025-01-26 18:49:41.507936	146.4	46.6	-92.6	11.1
2025-01-26 18:49:42.668545	146.4	46.9	-92.6	14.2
2025-01-26 18:49:43.818136	146.3	47.3	-92.7	12.9
2025-01-26 18:49:44.981086	146.2	47.6	-92.6	9.2
2025-01-26 18:49:46.132737	146.2	48.0	-92.7	10.5
2025-01-26 18:49:47.294175	146.1	48.4	-92.5	7.0
2025-01-26 18:49:48.450728	146.1	48.7	-92.2	7.7
2025-01-26 18:49:49.610181	146.0	49.1	-92.6	9.0
2025-01-26 18:49:50.765808	145.9	49.5	-93.0	10.9
2025-01-26 18:49:51.927030	145.9	49.9	-92.5	4.0
2025-01-26 18:49:53.079697	145.8	50.2	-92.3	3.4
2025-01-26 18:49:54.236491	145.7	50.6	-92.6	6.7
2025-01-26 18:49:55.381121	145.7	51.0	-92.7	11.3
2025-01-26 18:49:56.538421	145.6	51.4	-93.0	11.9
2025-01-26 18:49:57.692188	145.5	51.8	-92.7	13.4
2025-01-26 18:49:58.847873	145.4	52.2	-92.9	16.7
2025-01-26 18:49:59.997269	145.4	52.6	-92.7	13.6
2025-01-26 18:50:01.146514	145.3	53.0	-92.7	14.8
2025-01-26 18:50:02.292411	145.2	53.4	-92.6	17.2
2025-01-26 18:50:03.412429	145.1	53.8	-92.5	12.7
2025-01-26 18:50:04.532540	145.0	54.2	-92.7	13.8
2025-01-26 18:50:05.653585	144.9	54.6	-92.8	18.8
2025-01-26 18:50:06.774005	144.8	55.0	-92.5	20.5
2025-01-26 18:50:07.895700	144.7	55.4	-92.8	19.8
2025-01-26 18:50:09.015568	144.6	55.8	-92.6	18.7
2025-01-26 18:50:10.137100	144.5	56.2	-92.5	18.1
2025-01-26 18:50:11.264238	144.4	56.6	-92.4	19.1
2025-01-26 18:50:12.385292	144.3	57.1	-92.4	10.6
2025-01-26 18:50:13.540559	144.2	57.5	-92.8	10.3
2025-01-26 18:50:14.691675	144.1	57.9	-91.3	16.8
2025-01-26 18:50:15.844633	144.0	58.4	-91.1	14.3
2025-01-26 18:50:16.992866	143.9	58.8	-91.3	12.4
2025-01-26 18:50:18.159362	143.7	59.3	-92.2	17.5
2025-01-26 18:50:19.304451	143.6	59.7	-92.5	17.5
2025-01-26 18:50:20.462420	143.4	60.2	-92.7	17.2
2025-01-26 18:50:21.619006	143.3	60.6	-92.9	15.7
2025-01-26 18:50:22.760546	143.2	61.1	-92.5	19.7
2025-01-26 18:50:23.889637	143.0	61.5	-92.7	18.4
2025-01-26 18:50:25.038935	142.8	62.0	-92.4	15.9
2025-01-26 18:50:26.177697	142.7	62.5	-92.5	21.3
2025-01-26 18:50:27.326908	142.5	62.9	-92.7	20.8
2025-01-26 18:50:28.470948	142.3	63.4	-92.2	12.7
2025-01-26 18:50:29.624170	142.1	63.9	-92.8	13.7
2025-01-26 18:50:30.782393	141.9	64.4	-92.8	18.9
2025-01-26 18:50:31.941821	141.7	64.9	-92.4	19.4
2025-01-26 18:50:33.092903	141.5	65.4	-92.3	19.8
2025-01-26 18:50:34.256239	141.3	65.8	-92.6	19.4
2025-01-26 18:50:35.419320	141.0	66.3	-92.8	18.7
2025-01-26 18:50:36.571045	140.8	66.8	-93.1	15.5
2025-01-26 18:50:37.722885	140.5	67.3	-93.1	20.3
2025-01-26 18:50:38.877767	140.2	67.8	-92.7	14.8
2025-01-26 18:50:40.038481	139.9	68.3	-93.1	12.5
2025-01-26 18:50:41.192980	139.6	68.8	-92.6	20.4
2025-01-26 18:50:42.345544	139.3	69.4	-92.4	14.7
2025-01-26 18:50:43.502815	139.0	69.9	-92.8	10.1
2025-01-26 18:50:44.663257	138.6	70.4	-92.5	20.8
2025-01-26 18:50:45.808085	138.2	70.9	-92.8	21.6
2025-01-26 18:50:46.962894	137.8	71.4	-92.8	17.2
2025-01-26 18:50:48.115197	137.4	71.9	-92.3	18.1
2025-01-26 18:50:49.268951	136.9	72.4	-92.3	21.1
2025-01-26 18:50:50.421537	136.5	73.0	-92.4	20.4
2025-01-26 18:50:51.577669	136.0	73.5	-92.8	20.1
2025-01-26 18:50:52.732650	135.4	74.0	-92.5	17.0
2025-01-26 18:50:53.887277	134.8	74.5	-92.7	16.1
2025-01-26 18:50:55.049944	134.2	75.0	-92.5	17.4
2025-01-26 18:50:56.205651	133.5	75.6	-92.3	20.2
2025-01-26 18:50:57.357411	132.8	76.1	-92.7	15.3
2025-01-26 18:50:58.510082	132.0	76.6	-92.1	11.5
2025-01-26 18:50:59.663481	131.1	77.1	-92.5	20.4
2025-01-26 18:51:00.816442	130.2	77.7	-92.8	22.6
2025-01-26 18:51:01.974040	129.1	78.2	-92.8	15.0
2025-01-26 18:51:03.149726	128.0	78.7	-92.6	16.5
2025-01-26 18:51:04.309734	126.8	79.2	-92.8	19.5
2025-01-26 18:51:05.469464	125.4	79.7	-93.3	24.0
2025-01-26 18:51:06.622143	123.9	80.2	-92.5	23.4
2025-01-26 18:51:07.780175	122.2	80.7	-92.4	24.2
2025-01-26 18:51:08.941988	120.4	81.2	-92.5	24.0
2025-01-26 18:51:10.106945	118.3	81.7	-92.8	25.1
2025-01-26 18:51:11.268021	115.9	82.2	-92.5	23.0
2025-01-26 18:51:12.424884	113.3	82.6	-92.6	23.3
2025-01-26 18:51:13.580205	110.3	83.1	-92.5	22.6
2025-01-26 18:51:14.736134	106.9	83.5	-92.7	24.9
2025-01-26 18:51:15.890836	103.1	83.9	-92.5	18.3
2025-01-26 18:51:17.046719	98.7	84.2	-92.4	17.6
2025-01-26 18:51:18.200220	93.8	84.6	-91.1	20.9
2025-01-26 18:51:19.354477	88.4	84.9	-90.8	14.6
2025-01-26 18:51:20.507694	82.3	85.1	-91.2	13.4
2025-01-26 18:51:21.659545	75.8	85.3	-91.7	22.4
2025-01-26 18:51:22.813110	68.8	85.4	-93.1	25.1
2025-01-26 18:51:23.972398	61.6	85.4	-92.3	13.9
2025-01-26 18:51:25.125801	54.5	85.4	-92.2	21.4
2025-01-26 18:51:26.281313	47.5	85.2	-92.2	25.6
2025-01-26 18:51:27.428794	41.0	85.1	-92.9	13.0
2025-01-26 18:51:28.549239	35.2	84.8	-92.7	13.2
2025-01-26 18:51:29.671247	29.9	84.6	-92.5	24.0
2025-01-26 18:51:30.791752	25.1	84.3	-92.6	24.1
2025-01-26 18:51:31.915292	20.9	83.9	-92.7	14.2
2025-01-26 18:51:33.033547	17.2	83.5	-92.3	14.2
2025-01-26 18:51:34.155249	13.8	83.1	-92.3	22.5
2025-01-26 18:51:35.275468	10.9	82.7	-92.5	22.8
2025-01-26 18:51:36.396432	8.3	82.3	-92.6	16.0
2025-01-26 18:51:37.521317	6.0	81.8	-92.6	18.0
2025-01-26 18:51:38.660305	3.9	81.3	-92.8	23.1
2025-01-26 18:51:39.809138	2.0	80.8	-92.4	21.3
2025-01-26 18:51:40.962602	0.3	80.3	-92.6	17.8
2025-01-26 18:51:42.111282	358.8	79.8	-92.6	20.5
2025-01-26 18:51:43.256757	357.4	79.3	-92.1	21.9
2025-01-26 18:51:44.413711	356.1	78.8	-92.5	19.2
2025-01-26 18:51:45.564559	355.0	78.3	-92.5	19.9
2025-01-26 18:51:46.714499	353.9	77.8	-92.3	21.0
2025-01-26 18:51:47.840461	353.0	77.3	-92.7	19.8
2025-01-26 18:51:48.987477	352.1	76.8	-92.7	19.8
2025-01-26 18:51:50.135575	351.3	76.3	-92.1	19.8
2025-01-26 18:51:51.277899	350.6	75.7	-92.2	18.1
2025-01-26 18:51:52.423560	349.9	75.2	-92.6	17.2
2025-01-26 18:51:53.564615	349.2	74.7	-92.6	14.2
2025-01-26 18:51:54.722637	348.6	74.2	-92.4	15.7
2025-01-26 18:51:55.852407	348.1	73.7	-92.6	16.6
2025-01-26 18:51:56.989408	347.5	73.2	-92.6	14.4
2025-01-26 18:51:58.123394	347.1	72.6	-92.1	15.9
2025-01-26 18:51:59.260303	346.6	72.1	-92.5	18.3
2025-01-26 18:52:00.404456	346.2	71.6	-92.3	15.6
2025-01-26 18:52:01.568144	345.8	71.1	-92.3	15.2
2025-01-26 18:52:02.715550	345.4	70.6	-92.6	16.6
2025-01-26 18:52:03.869650	345.0	70.1	-92.6	13.0
2025-01-26 18:52:05.026554	344.7	69.6	-92.7	14.6
2025-01-26 18:52:06.183309	344.3	69.1	-92.7	18.0
2025-01-26 18:52:07.338384	344.0	68.5	-92.6	18.4
2025-01-26 18:52:08.491000	343.7	68.0	-92.9	16.8
2025-01-26 18:52:09.652042	343.4	67.5	-92.6	20.0
2025-01-26 18:52:10.806091	343.2	67.0	-92.9	23.0
2025-01-26 18:52:11.958512	342.9	66.5	-92.4	17.1
2025-01-26 18:52:13.115749	342.7	66.0	-92.3	19.2
2025-01-26 18:52:14.268380	342.4	65.6	-92.6	20.8
2025-01-26 18:52:15.424704	342.2	65.1	-92.5	14.7
2025-01-26 18:52:16.578843	342.0	64.6	-92.7	14.8
2025-01-26 18:52:17.720919	341.8	64.1	-92.4	19.0
2025-01-26 18:52:18.881785	341.6	63.6	-92.8	12.8
2025-01-26 18:52:20.042565	341.4	63.1	-92.5	13.4
2025-01-26 18:52:21.189904	341.2	62.7	-92.3	22.4
2025-01-26 18:52:22.334512	341.1	62.2	-91.7	17.8
2025-01-26 18:52:23.484459	340.9	61.7	-91.7	11.2
2025-01-26 18:52:24.640383	340.7	61.3	-91.1	17.8
2025-01-26 18:52:25.795623	340.6	60.8	-91.5	18.5
2025-01-26 18:52:26.952710	340.4	60.3	-92.6	13.5
2025-01-26 18:52:28.100565	340.3	59.9	-92.7	12.6
2025-01-26 18:52:29.251939	340.2	59.4	-92.4	17.5
2025-01-26 18:52:30.410515	340.0	59.0	-92.9	12.7
2025-01-26 18:52:31.564852	339.9	58.5	-92.9	12.6
2025-01-26 18:52:32.723108	339.8	58.1	-92.8	17.5
2025-01-26 18:52:33.881255	339.6	57.7	-92.6	13.9
2025-01-26 18:52:35.039958	339.5	57.2	-92.8	15.1
2025-01-26 18:52:36.192453	339.4	56.8	-91.9	13.9
2025-01-26 18:52:37.348050	339.3	56.3	-92.3	13.4
2025-01-26 18:52:38.509295	339.2	55.9	-92.6	15.8
2025-01-26 18:52:39.671908	339.1	55.5	-92.9	17.8
2025-01-26 18:52:40.826094	339.0	55.1	-92.7	16.0
2025-01-26 18:52:41.976495	338.9	54.7	-93.0	17.5
2025-01-26 18:52:43.128741	338.8	54.2	-92.7	14.6
2025-01-26 18:52:44.284723	338.7	53.8	-92.7	10.5
2025-01-26 18:52:45.430313	338.6	53.4	-92.7	9.4
2025-01-26 18:52:46.584435	338.6	53.0	-92.7	13.2
2025-01-26 18:52:47.731910	338.5	52.6	-92.7	17.5
2025-01-26 18:52:48.884047	338.4	52.2	-93.1	14.9
2025-01-26 18:52:50.036518	338.3	51.8	-93.1	11.1
2025-01-26 18:52:51.194301	338.2	51.4	-92.8	10.4
2025-01-26 18:52:52.349686	338.2	51.0	-93.0	14.2
2025-01-26 18:52:53.505570	338.1	50.7	-92.7	11.3
2025-01-26 18:52:54.665454	338.0	50.3	-92.9	17.2
2025-01-26 18:52:55.817792	338.0	49.9	-92.5	18.2
2025-01-26 18:52:56.967784	337.9	49.5	-92.8	11.8
2025-01-26 18:52:58.126145	337.8	49.1	-92.6	13.3
2025-01-26 18:52:59.284273	337.8	48.8	-92.5	12.9
2025-01-26 18:53:00.434134	337.7	48.4	-92.9	12.8
2025-01-26 18:53:01.592041	337.6	48.0	-92.8	10.3
2025-01-26 18:53:02.747345	337.6	47.7	-92.7	17.5
2025-01-26 18:53:03.906755	337.5	47.3	-92.7	18.4
2025-01-26 18:53:05.061748	337.5	47.0	-92.1	19.7
2025-01-26 18:53:06.216604	337.4	46.6	-92.5	20.3
2025-01-26 18:53:07.363019	337.4	46.3	-92.5	20.1
2025-01-26 18:53:08.520845	337.3	45.9	-92.7	20.4
2025-01-26 18:53:09.671212	337.3	45.6	-92.8	15.3
2025-01-26 18:53:10.812067	337.2	45.2	-92.5	18.6
2025-01-26 18:53:11.932034	337.2	44.9	-92.8	16.6
2025-01-26 18:53:13.053116	337.1	44.6	-92.4	14.2
2025-01-26 18:53:14.175205	337.1	44.2	-92.7	19.7
2025-01-26 18:53:15.296576	337.0	43.9	-92.7	20.8
2025-01-26 18:53:16.416665	337.0	43.6	-92.7	16.3
2025-01-26 18:53:17.537202	337.0	43.3	-92.7	12.7
2025-01-26 18:53:18.657268	336.9	43.0	-92.6	14.1
2025-01-26 18:53:19.782201	336.9	42.7	-92.9	17.3
2025-01-26 18:53:20.903696	336.8	42.4	-92.5	17.8
2025-01-26 18:53:22.047785	336.8	42.0	-92.8	16.5
2025-01-26 18:53:23.195437	336.8	41.7	-92.5	19.7
2025-01-26 18:53:24.351097	336.7	41.4	-92.3	18.1
2025-01-26 18:53:25.470850	336.7	41.1	-93.1	20.7
2025-01-26 18:53:26.623723	336.6	40.8	-91.6	16.8
2025-01-26 18:53:27.768637	336.6	40.5	-91.1	18.1
2025-01-26 18:53:28.920203	336.6	40.2	-90.9	15.8
2025-01-26 18:53:30.072574	336.5	39.9	-91.5	16.1
2025-01-26 18:53:31.214727	336.5	39.6	-92.9	18.0
2025-01-26 18:53:32.364005	336.5	39.4	-92.4	11.5
2025-01-26 18:53:33.523871	336.4	39.1	-92.6	13.4
2025-01-26 18:53:34.684120	336.4	38.8	-92.7	18.0
2025-01-26 18:53:35.845476	336.4	38.5	-92.6	16.3
2025-01-26 18:53:37.001577	336.4	38.2	-92.7	12.3
2025-01-26 18:53:38.154605	336.3	37.9	-92.5	13.4
2025-01-26 18:53:39.307843	336.3	37.6	-92.3	16.8
2025-01-26 18:53:40.458769	336.3	37.4	-92.8	15.0
2025-01-26 18:53:41.612048	336.2	37.1	-92.5	16.0
2025-01-26 18:53:42.771637	336.2	36.8	-92.2	16.4
2025-01-26 18:53:43.932260	336.2	36.6	-92.6	14.9
2025-01-26 18:53:45.083398	336.2	36.3	-92.3	16.4
2025-01-26 18:53:46.238176	336.1	36.0	-91.9	16.6
2025-01-26 18:53:47.394603	336.1	35.8	-92.6	17.5
2025-01-26 18:53:48.547893	336.1	35.5	-92.6	15.4
2025-01-26 18:53:49.692481	336.1	35.2	-92.4	19.0
2025-01-26 18:53:50.849574	336.0	35.0	-92.5	17.3
2025-01-26 18:53:52.007363	336.0	34.7	-92.6	13.8
2025-01-26 18:53:53.142138	336.0	34.5	-92.5	14.9
2025-01-26 18:53:54.294922	336.0	34.2	-92.2	15.1
2025-01-26 18:53:55.454261	335.9	34.0	-93.1	14.8
2025-01-26 18:53:56.611243	335.9	33.7	-92.8	14.9
2025-01-26 18:53:57.759072	335.9	33.5	-92.4	14.3
2025-01-26 18:53:58.911603	335.9	33.3	-92.4	13.1
2025-01-26 18:54:00.067366	335.9	33.0	-92.5	16.1
2025-01-26 18:54:01.218265	335.8	32.8	-92.6	15.7
2025-01-26 18:54:02.376552	335.8	32.5	-92.6	17.0
2025-01-26 18:54:03.537695	335.8	32.3	-92.9	15.2
2025-01-26 18:54:04.685972	335.8	32.1	-92.8	15.7
2025-01-26 18:54:05.840765	335.8	31.8	-92.6	14.5
2025-01-26 18:54:06.994524	335.7	31.6	-92.6	8.6
2025-01-26 18:54:08.144736	335.7	31.4	-92.5	13.7
2025-01-26 18:54:09.302135	335.7	31.2	-92.4	15.2
2025-01-26 18:54:10.451106	335.7	30.9	-92.9	11.0
2025-01-26 18:54:11.614727	335.7	30.7	-92.7	13.2
2025-01-26 18:54:12.766283	335.7	30.5	-92.6	16.1
2025-01-26 18:54:13.928431	335.6	30.3	-92.6	14.4
2025-01-26 18:54:15.084171	335.6	30.1	-92.7	13.8
2025-01-26 18:54:16.238766	335.6	29.8	-92.1	15.9
2025-01-26 18:54:17.386566	335.6	29.6	-92.3	15.5
2025-01-26 18:54:18.538414	335.6	29.4	-92.6	16.5
2025-01-26 18:54:19.694694	335.6	29.2	-92.6	16.7
2025-01-26 18:54:20.856705	335.5	29.0	-92.6	15.8
2025-01-26 18:54:22.012959	335.5	28.8	-92.5	14.9
2025-01-26 18:54:23.165303	335.5	28.6	-92.4	16.0
2025-01-26 18:54:24.316392	335.5	28.4	-92.6	14.6
2025-01-26 18:54:25.465323	335.5	28.2	-92.1	12.9
2025-01-26 18:54:26.623353	335.5	28.0	-92.7	13.9
2025-01-26 18:54:27.780735	335.5	27.8	-92.4	15.2
2025-01-26 18:54:28.929808	335.5	27.6	-92.7	13.8
2025-01-26 18:54:30.081484	335.4	27.4	-92.5	13.9
2025-01-26 18:54:31.235566	335.4	27.2	-91.0	10.5
2025-01-26 18:54:32.388230	335.4	27.0	-91.0	12.5
2025-01-26 18:54:33.544612	335.4	26.8	-90.9	10.6
2025-01-26 18:54:34.703573	335.4	26.6	-91.5	14.4
2025-01-26 18:54:35.853975	335.4	26.4	-92.6	11.3
2025-01-26 18:54:37.004808	335.4	26.2	-92.8	8.5
2025-01-26 18:54:38.157232	335.4	26.0	-92.7	10.6
2025-01-26 18:54:39.320692	335.3	25.8	-92.7	13.4
2025-01-26 18:54:40.473762	335.3	25.6	-92.9	10.1
2025-01-26 18:54:41.623046	335.3	25.5	-92.5	13.7
2025-01-26 18:54:42.780043	335.3	25.3	-92.8	15.7
2025-01-26 18:54:43.906043	335.3	25.1	-92.4	14.7
2025-01-26 18:54:45.028231	335.3	24.9	-92.7	16.0
2025-01-26 18:54:46.149833	335.3	24.8	-92.2	14.4
2025-01-26 18:54:47.270941	335.3	24.6	-92.6	14.0
2025-01-26 18:54:48.391084	335.3	24.4	-92.4	13.0
2025-01-26 18:54:49.511345	335.2	24.2	-92.7	12.4
2025-01-26 18:54:50.635756	335.2	24.1	-92.5	11.7
2025-01-26 18:54:51.756720	335.2	23.9	-92.6	13.9
2025-01-26 18:54:52.880602	335.2	23.7	-92.7	11.6
2025-01-26 18:54:54.005338	335.2	23.6	-92.4	12.3
2025-01-26 18:54:55.130971	335.2	23.4	-92.4	14.6
2025-01-26 18:54:56.278155	335.2	23.2	-92.6	16.0
2025-01-26 18:54:57.416145	335.2	23.1	-92.7	13.3
2025-01-26 18:54:58.572311	335.2	22.9	-92.7	16.3
2025-01-26 18:54:59.718071	335.2	22.7	-92.9	15.4
2025-01-26 18:55:00.858360	335.2	22.6	-92.1	12.8
2025-01-26 18:55:02.009323	335.2	22.4	-92.5	12.7
2025-01-26 18:55:03.162798	335.1	22.2	-92.5	15.4
2025-01-26 18:55:04.318252	335.1	22.1	-92.6	11.1
2025-01-26 18:55:05.476275	335.1	21.9	-92.7	7.1
2025-01-26 18:55:06.630111	335.1	21.8	-92.4	8.6
2025-01-26 18:55:07.776586	335.1	21.6	-92.4	9.5
2025-01-26 18:55:08.902572	335.1	21.4	-92.2	8.2
2025-01-26 18:55:10.045712	335.1	21.3	-92.6	7.5
2025-01-26 18:55:11.196523	335.1	21.1	-92.7	8.9
2025-01-26 18:55:12.346091	335.1	21.0	-92.5	8.5
2025-01-26 18:55:13.490588	335.1	20.8	-92.6	10.4
2025-01-26 18:55:14.635615	335.1	20.7	-92.7	7.1
2025-01-26 18:55:15.793119	335.1	20.5	-92.7	6.2
2025-01-26 18:55:16.944224	335.1	20.4	-92.9	7.1
2025-01-26 18:55:18.092553	335.0	20.2	-92.2	3.0
2025-01-26 18:55:19.250886	335.0	20.1	-92.3	7.2
2025-01-26 18:55:20.404014	335.0	19.9	-92.5	5.2
2025-01-26 18:55:21.557162	335.0	19.8	-92.4	6.2
2025-01-26 18:55:22.709385	335.0	19.6	-92.9	6.3
2025-01-26 18:55:23.861598	335.0	19.5	-93.2	7.2
2025-01-26 18:55:25.016598	335.0	19.3	-93.0	6.8
2025-01-26 18:55:26.139731	335.0	19.2	-92.6	7.1
2025-01-26 18:55:27.285624	335.0	19.0	-92.5	5.6
2025-01-26 18:55:28.424587	335.0	18.9	-92.8	6.8
2025-01-26 18:55:29.571843	335.0	18.8	-93.1	5.6
2025-01-26 18:55:30.720583	335.0	18.6	-92.9	9.6
2025-01-26 18:55:31.868901	335.0	18.5	-92.7	8.8
2025-01-26 18:55:33.005854	335.0	18.3	-92.6	5.9
2025-01-26 18:55:34.136063	335.0	18.2	-92.3	7.0
2025-01-26 18:55:35.286229	335.0	18.1	-91.1	8.8
2025-01-26 18:55:36.424409	335.0	17.9	-91.6	5.6
2025-01-26 18:55:37.565985	335.0	17.8	-91.0	5.9
2025-01-26 18:55:38.717530	334.9	17.7	-91.2	7.4
2025-01-26 18:55:39.873055	334.9	17.5	-92.8	5.8
2025-01-26 18:55:41.022628	334.9	17.4	-92.6	8.0
2025-01-26 18:55:42.174714	334.9	17.3	-92.5	10.1
2025-01-26 18:55:43.331090	334.9	17.1	-92.4	10.2
2025-01-26 18:55:44.484456	334.9	17.0	-92.5	8.8
2025-01-26 18:55:45.641089	334.9	16.9	-92.8	11.2
2025-01-26 18:55:46.795371	334.9	16.7	-92.8	11.9
2025-01-26 18:55:47.951997	334.9	16.6	-92.9	10.3
2025-01-26 18:55:49.103418	334.9	16.5	-93.0	10.5
2025-01-26 18:55:50.268663	334.9	16.3	-92.7	8.8
2025-01-26 18:55:51.421816	334.9	16.2	-92.8	9.6
2025-01-26 18:55:52.575505	334.9	16.1	-93.0	10.0
2025-01-26 18:55:53.728299	334.9	16.0	-92.8	8.2
2025-01-26 18:55:54.880967	334.9	15.8	-92.7	6.6
2025-01-26 18:55:56.032384	334.9	15.7	-92.6	7.7
2025-01-26 18:55:57.180212	334.9	15.6	-92.6	9.9
2025-01-26 18:55:58.338381	334.9	15.5	-93.0	10.6
2025-01-26 18:55:59.489550	334.9	15.3	-93.2	10.4
2025-01-26 18:56:00.634074	334.9	15.2	-92.9	10.3
2025-01-26 18:56:01.786873	334.9	15.1	-92.6	10.6
2025-01-26 18:56:02.946148	334.9	15.0	-92.4	9.4
2025-01-26 18:56:04.091500	334.9	14.9	-92.4	10.1
2025-01-26 18:56:05.246580	334.9	14.7	-92.7	11.6
2025-01-26 18:56:06.403087	334.9	14.6	-92.6	8.7
2025-01-26 18:56:07.555308	334.9	14.5	-92.5	7.6
#Closed at: 2025-01-26 18:46:50.034850