passes_logs/2025/01/26/LEX_Murmansk/LEX_Murmansk__20250126_164350_NOAA_19_rec.log

#Pass ID: 20250126_164350_NOAA 19
#Satellite: NOAA 19
#Configuration: NOAA 19
#Start time: 2025-01-26 16:43:45.060201

#LorettStation: 1.0.0 05.05.2024
#Station: LEX_Murmansk
#Location: 33.156738 lon 68.926811 lat
#TLE: 1 33591U 09005A   25026.11929750  .00000374  00000+0  22339-3 0  9999
#TLE: 2 33591  99.0177  89.9666 0014047  27.3849 332.8061 14.13269171823112

#Time	Az	El	Level	SNR
2025-01-26 16:43:57.194510	122.0	16.3	-89.9	2.8
2025-01-26 16:43:58.359993	121.9	16.4	-90.3	3.9
2025-01-26 16:43:59.520074	121.8	16.5	-90.1	6.6
2025-01-26 16:44:00.675885	121.7	16.7	-90.0	7.7
2025-01-26 16:44:01.838419	121.7	16.8	-90.3	6.9
2025-01-26 16:44:03.001626	121.6	16.9	-90.0	6.2
2025-01-26 16:44:04.166711	121.5	17.0	-89.9	5.8
2025-01-26 16:44:05.328323	121.5	17.2	-90.0	7.2
2025-01-26 16:44:06.485690	121.4	17.3	-90.2	9.7
2025-01-26 16:44:07.648146	121.3	17.4	-89.9	6.3
2025-01-26 16:44:08.809593	121.2	17.6	-90.1	6.3
2025-01-26 16:44:09.976276	121.2	17.7	-89.9	4.5
2025-01-26 16:44:11.140639	121.1	17.8	-90.2	4.5
2025-01-26 16:44:12.302740	121.0	18.0	-90.4	2.8
2025-01-26 16:44:13.469639	120.9	18.1	-90.2	5.9
2025-01-26 16:44:14.635056	120.8	18.2	-90.1	9.1
2025-01-26 16:44:15.799325	120.8	18.4	-90.4	10.9
2025-01-26 16:44:16.956228	120.7	18.5	-89.9	9.6
2025-01-26 16:44:18.119838	120.6	18.6	-89.6	8.8
2025-01-26 16:44:19.280038	120.5	18.8	-90.2	4.2
2025-01-26 16:44:20.437314	120.4	18.9	-90.4	6.8
2025-01-26 16:44:21.604648	120.3	19.0	-90.1	9.1
2025-01-26 16:44:22.763507	120.3	19.2	-90.5	9.4
2025-01-26 16:44:23.923873	120.2	19.3	-90.5	7.8
2025-01-26 16:44:25.087179	120.1	19.5	-90.4	5.9
2025-01-26 16:44:26.243958	120.0	19.6	-90.3	2.7
2025-01-26 16:44:27.416346	119.9	19.7	-90.7	3.3
2025-01-26 16:44:28.580299	119.8	19.9	-90.2	3.4
2025-01-26 16:44:29.742563	119.7	20.0	-90.0	6.0
2025-01-26 16:44:30.908290	119.7	20.2	-89.5	7.3
2025-01-26 16:44:32.071660	119.6	20.3	-90.3	8.6
2025-01-26 16:44:33.233728	119.5	20.5	-89.8	11.0
2025-01-26 16:44:34.395897	119.4	20.6	-89.4	8.6
2025-01-26 16:44:35.549170	119.3	20.8	-89.9	9.2
2025-01-26 16:44:36.713195	119.2	20.9	-89.6	5.9
2025-01-26 16:44:37.871582	119.1	21.1	-89.8	9.3
2025-01-26 16:44:39.041506	119.0	21.2	-89.8	11.7
2025-01-26 16:44:40.197189	118.9	21.4	-89.8	11.2
2025-01-26 16:44:41.365156	118.8	21.5	-90.1	7.1
2025-01-26 16:44:42.524483	118.7	21.7	-89.7	4.8
2025-01-26 16:44:43.690078	118.6	21.8	-90.3	3.5
2025-01-26 16:44:44.849992	118.5	22.0	-90.1	3.1
2025-01-26 16:44:46.003539	118.4	22.1	-90.1	3.7
2025-01-26 16:44:47.169272	118.3	22.3	-90.1	7.6
2025-01-26 16:44:48.332944	118.2	22.4	-90.1	10.6
2025-01-26 16:44:49.491577	118.1	22.6	-90.1	11.1
2025-01-26 16:44:50.652348	118.0	22.7	-89.9	10.6
2025-01-26 16:44:51.824744	117.9	22.9	-90.2	6.1
2025-01-26 16:44:52.986666	117.8	23.1	-90.3	7.3
2025-01-26 16:44:54.154445	117.6	23.2	-90.0	6.5
2025-01-26 16:44:55.313163	117.5	23.4	-89.7	7.3
2025-01-26 16:44:56.471339	117.4	23.5	-89.5	8.7
2025-01-26 16:44:57.627526	117.3	23.7	-89.5	6.2
2025-01-26 16:44:58.789736	117.2	23.9	-89.7	4.1
2025-01-26 16:44:59.953016	117.1	24.0	-90.0	4.1
2025-01-26 16:45:01.106860	117.0	24.2	-90.5	2.1
2025-01-26 16:45:02.262090	116.8	24.4	-90.4	3.8
2025-01-26 16:45:03.427638	116.7	24.5	-90.3	2.6
2025-01-26 16:45:04.594656	116.6	24.7	-90.0	4.8
2025-01-26 16:45:05.755007	116.5	24.9	-90.0	8.0
2025-01-26 16:45:06.919059	116.4	25.0	-90.4	7.4
2025-01-26 16:45:08.077068	116.2	25.2	-90.2	6.1
2025-01-26 16:45:09.245420	116.1	25.4	-90.3	3.3
2025-01-26 16:45:10.406886	116.0	25.6	-90.2	4.0
2025-01-26 16:45:11.567302	115.8	25.7	-90.5	3.8
2025-01-26 16:45:12.727846	115.7	25.9	-90.2	3.9
2025-01-26 16:45:13.889949	115.6	26.1	-90.7	6.0
2025-01-26 16:45:15.049296	115.4	26.3	-90.5	4.2
2025-01-26 16:45:16.212230	115.3	26.4	-90.6	3.9
2025-01-26 16:45:17.376516	115.2	26.6	-90.6	2.4
2025-01-26 16:45:18.546035	115.0	26.8	-90.7	3.2
2025-01-26 16:45:19.713419	114.9	27.0	-90.6	2.6
2025-01-26 16:45:20.878426	114.7	27.2	-90.3	2.7
2025-01-26 16:45:22.041875	114.6	27.3	-90.6	1.4
2025-01-26 16:45:23.203622	114.5	27.5	-90.2	3.2
2025-01-26 16:45:24.369262	114.3	27.7	-90.2	3.2
2025-01-26 16:45:25.531604	114.2	27.9	-90.1	5.3
2025-01-26 16:45:26.687434	114.0	28.1	-90.3	3.9
2025-01-26 16:45:27.845833	113.9	28.3	-90.2	3.1
2025-01-26 16:45:29.009331	113.7	28.5	-89.4	5.0
2025-01-26 16:45:30.168639	113.5	28.6	-89.4	6.9
2025-01-26 16:45:31.326519	113.4	28.8	-89.3	7.5
2025-01-26 16:45:32.493402	113.2	29.0	-89.4	4.4
2025-01-26 16:45:33.653814	113.1	29.2	-89.3	4.1
2025-01-26 16:45:34.816437	112.9	29.4	-89.1	3.0
2025-01-26 16:45:35.976362	112.7	29.6	-89.1	2.4
2025-01-26 16:45:37.138867	112.6	29.8	-88.9	2.3
2025-01-26 16:45:38.306001	112.4	30.0	-90.0	3.3
2025-01-26 16:45:39.463514	112.2	30.2	-90.0	1.1
2025-01-26 16:45:40.626631	112.1	30.4	-90.1	4.2
2025-01-26 16:45:41.793193	111.9	30.6	-90.5	7.0
2025-01-26 16:45:42.957053	111.7	30.8	-90.6	10.3
2025-01-26 16:45:44.119304	111.5	31.0	-90.3	9.5
2025-01-26 16:45:45.287433	111.3	31.2	-90.0	5.3
2025-01-26 16:45:46.449188	111.1	31.4	-90.5	7.6
2025-01-26 16:45:47.617805	111.0	31.6	-90.7	11.2
2025-01-26 16:45:48.778525	110.8	31.8	-90.7	11.4
2025-01-26 16:45:49.938814	110.6	32.0	-90.6	13.8
2025-01-26 16:45:51.095179	110.4	32.2	-89.9	11.8
2025-01-26 16:45:52.253360	110.2	32.5	-90.2	9.1
2025-01-26 16:45:53.417375	110.0	32.7	-90.4	5.3
2025-01-26 16:45:54.580693	109.8	32.9	-90.2	5.3
2025-01-26 16:45:55.742854	109.6	33.1	-90.2	2.1
2025-01-26 16:45:56.898786	109.4	33.3	-89.9	3.5
2025-01-26 16:45:58.057228	109.2	33.5	-90.1	9.1
2025-01-26 16:45:59.222865	108.9	33.7	-89.8	10.6
2025-01-26 16:46:00.392793	108.7	34.0	-89.7	13.5
2025-01-26 16:46:01.555523	108.5	34.2	-89.5	14.7
2025-01-26 16:46:02.728239	108.3	34.4	-89.8	11.0
2025-01-26 16:46:03.891223	108.0	34.6	-89.7	10.1
2025-01-26 16:46:05.052196	107.8	34.8	-89.8	11.3
2025-01-26 16:46:06.218244	107.6	35.1	-90.4	8.5
2025-01-26 16:46:07.379159	107.3	35.3	-90.3	13.2
2025-01-26 16:46:08.544567	107.1	35.5	-90.5	17.3
2025-01-26 16:46:09.707176	106.9	35.7	-90.7	16.2
2025-01-26 16:46:10.879487	106.6	36.0	-90.5	13.7
2025-01-26 16:46:12.050418	106.4	36.2	-90.2	8.0
2025-01-26 16:46:13.210983	106.1	36.4	-90.1	5.3
2025-01-26 16:46:14.368849	105.9	36.6	-90.2	4.8
2025-01-26 16:46:15.531084	105.6	36.9	-90.3	4.7
2025-01-26 16:46:16.694430	105.3	37.1	-90.4	5.1
2025-01-26 16:46:17.858272	105.1	37.3	-90.2	6.3
2025-01-26 16:46:19.021999	104.8	37.6	-90.4	6.8
2025-01-26 16:46:20.179709	104.5	37.8	-90.2	9.8
2025-01-26 16:46:21.319186	104.2	38.0	-90.7	9.7
2025-01-26 16:46:22.440103	104.0	38.3	-90.4	5.0
2025-01-26 16:46:23.559668	103.7	38.5	-90.7	10.3
2025-01-26 16:46:24.680369	103.4	38.7	-90.7	7.3
2025-01-26 16:46:25.800955	103.1	38.9	-90.7	6.9
2025-01-26 16:46:26.922588	102.8	39.2	-90.7	9.5
2025-01-26 16:46:28.042131	102.5	39.4	-90.5	10.5
2025-01-26 16:46:29.161583	102.2	39.6	-90.6	8.5
2025-01-26 16:46:30.285646	101.9	39.9	-90.6	11.3
2025-01-26 16:46:31.429380	101.6	40.1	-90.2	10.5
2025-01-26 16:46:32.587079	101.3	40.3	-90.4	5.7
2025-01-26 16:46:33.748213	101.0	40.6	-90.7	2.9
2025-01-26 16:46:34.910771	100.6	40.8	-90.2	2.9
2025-01-26 16:46:36.068081	100.3	41.1	-90.4	4.0
2025-01-26 16:46:37.223320	100.0	41.3	-90.5	1.1
2025-01-26 16:46:38.389064	99.6	41.6	-89.7	0.6
2025-01-26 16:46:39.549115	99.3	41.8	-89.8	3.3
2025-01-26 16:46:40.713251	98.9	42.0	-90.3	6.1
2025-01-26 16:46:41.874009	98.5	42.3	-89.6	8.6
2025-01-26 16:46:43.037671	98.2	42.5	-90.8	11.0
2025-01-26 16:46:44.202133	97.8	42.8	-90.9	11.1
2025-01-26 16:46:45.360955	97.4	43.0	-90.4	8.3
2025-01-26 16:46:46.517898	97.0	43.3	-90.5	8.1
2025-01-26 16:46:47.679805	96.6	43.5	-90.7	7.1
2025-01-26 16:46:48.815499	96.2	43.8	-89.7	4.9
2025-01-26 16:46:49.955907	95.8	44.0	-89.7	8.3
2025-01-26 16:46:51.104376	95.4	44.2	-89.6	13.2
2025-01-26 16:46:52.253103	95.0	44.5	-89.2	13.5
2025-01-26 16:46:53.400835	94.6	44.7	-89.3	14.3
2025-01-26 16:46:54.555827	94.2	45.0	-90.0	14.4
2025-01-26 16:46:55.711799	93.7	45.2	-90.7	10.3
2025-01-26 16:46:56.870568	93.3	45.5	-90.7	8.7
2025-01-26 16:46:58.033761	92.8	45.7	-90.9	6.8
2025-01-26 16:46:59.189017	92.4	45.9	-90.6	5.4
2025-01-26 16:47:00.341615	91.9	46.2	-90.8	3.7
2025-01-26 16:47:01.490071	91.4	46.4	-90.6	4.4
2025-01-26 16:47:02.655140	91.0	46.7	-90.5	5.3
2025-01-26 16:47:03.826251	90.5	46.9	-90.6	5.5
2025-01-26 16:47:04.985808	90.0	47.1	-90.6	8.6
2025-01-26 16:47:06.144778	89.5	47.4	-90.6	7.5
2025-01-26 16:47:07.305982	89.0	47.6	-90.4	13.1
2025-01-26 16:47:08.470939	88.4	47.9	-90.5	13.8
2025-01-26 16:47:09.631468	87.9	48.1	-90.5	11.2
2025-01-26 16:47:10.798235	87.4	48.3	-90.5	10.2
2025-01-26 16:47:11.966516	86.8	48.6	-90.4	9.9
2025-01-26 16:47:13.135313	86.3	48.8	-90.2	8.3
2025-01-26 16:47:14.296848	85.7	49.0	-90.4	4.3
2025-01-26 16:47:15.461942	85.2	49.2	-90.8	5.7
2025-01-26 16:47:16.626561	84.6	49.5	-90.6	5.2
2025-01-26 16:47:17.789430	84.0	49.7	-90.4	2.5
2025-01-26 16:47:18.951689	83.4	49.9	-90.5	5.4
2025-01-26 16:47:20.112691	82.8	50.1	-90.4	5.2
2025-01-26 16:47:21.278931	82.2	50.3	-90.3	8.3
2025-01-26 16:47:22.438955	81.6	50.6	-90.5	8.4
2025-01-26 16:47:23.600571	80.9	50.8	-90.3	7.9
2025-01-26 16:47:24.762193	80.3	51.0	-90.6	6.4
2025-01-26 16:47:25.922964	79.7	51.2	-90.6	6.8
2025-01-26 16:47:27.080932	79.0	51.4	-90.2	7.6
2025-01-26 16:47:28.257079	78.3	51.6	-90.6	6.0
2025-01-26 16:47:29.423322	77.7	51.8	-90.4	4.6
2025-01-26 16:47:30.583797	77.0	52.0	-90.4	4.4
2025-01-26 16:47:31.749453	76.3	52.1	-90.5	4.7
2025-01-26 16:47:32.914993	75.6	52.3	-90.9	3.3
2025-01-26 16:47:34.080902	74.9	52.5	-90.6	5.3
2025-01-26 16:47:35.243188	74.2	52.7	-90.5	5.8
2025-01-26 16:47:36.393004	73.5	52.9	-90.5	9.3
2025-01-26 16:47:37.553090	72.7	53.0	-90.8	9.1
2025-01-26 16:47:38.714358	72.0	53.2	-90.8	10.2
2025-01-26 16:47:39.879134	71.2	53.4	-90.9	10.2
2025-01-26 16:47:41.041311	70.5	53.5	-90.5	4.6
2025-01-26 16:47:42.207919	69.7	53.7	-90.6	13.1
2025-01-26 16:47:43.371726	68.9	53.8	-90.4	10.9
2025-01-26 16:47:44.537088	68.1	53.9	-90.5	13.1
2025-01-26 16:47:45.699034	67.4	54.1	-90.4	7.7
2025-01-26 16:47:46.853408	66.6	54.2	-90.4	8.4
2025-01-26 16:47:48.020166	65.8	54.3	-90.5	8.1
2025-01-26 16:47:49.178884	65.0	54.5	-90.1	7.4
2025-01-26 16:47:50.340272	64.1	54.6	-90.4	6.1
2025-01-26 16:47:51.503311	63.3	54.7	-90.4	7.9
2025-01-26 16:47:52.668560	62.5	54.8	-90.6	7.7
2025-01-26 16:47:53.826679	61.7	54.9	-91.0	7.1
2025-01-26 16:47:54.995006	60.8	55.0	-90.3	10.4
2025-01-26 16:47:56.159356	60.0	55.0	-89.8	8.8
2025-01-26 16:47:57.323196	59.1	55.1	-90.1	5.8
2025-01-26 16:47:58.486908	58.3	55.2	-89.5	13.3
2025-01-26 16:47:59.650959	57.4	55.3	-90.6	14.5
2025-01-26 16:48:00.805088	56.5	55.3	-90.7	12.6
2025-01-26 16:48:01.965227	55.7	55.4	-90.6	10.0
2025-01-26 16:48:03.129428	54.8	55.4	-90.4	11.0
2025-01-26 16:48:04.292048	53.9	55.5	-90.6	11.6
2025-01-26 16:48:05.460743	53.1	55.5	-90.7	11.9
2025-01-26 16:48:06.616445	52.2	55.5	-90.8	12.9
2025-01-26 16:48:07.779327	51.3	55.5	-90.5	10.5
2025-01-26 16:48:08.939980	50.4	55.6	-90.7	9.7
2025-01-26 16:48:10.109462	49.5	55.6	-90.3	9.5
2025-01-26 16:48:11.272255	48.7	55.6	-90.4	7.9
2025-01-26 16:48:12.434002	47.8	55.6	-90.3	7.2
2025-01-26 16:48:13.597608	46.9	55.5	-90.4	6.4
2025-01-26 16:48:14.761084	46.0	55.5	-90.8	4.6
2025-01-26 16:48:15.920531	45.2	55.5	-91.0	5.5
2025-01-26 16:48:17.075122	44.3	55.5	-90.3	5.5
2025-01-26 16:48:18.242578	43.4	55.4	-90.3	1.6
2025-01-26 16:48:19.406626	42.5	55.4	-90.6	4.0
2025-01-26 16:48:20.570290	41.7	55.3	-90.7	6.9
2025-01-26 16:48:21.733837	40.8	55.3	-90.8	5.1
2025-01-26 16:48:22.892012	40.0	55.2	-90.8	3.5
2025-01-26 16:48:24.060623	39.1	55.1	-90.5	5.2
2025-01-26 16:48:25.215028	38.3	55.1	-90.7	4.1
2025-01-26 16:48:26.379297	37.4	55.0	-90.3	2.5
2025-01-26 16:48:27.532998	36.6	54.9	-90.8	4.6
2025-01-26 16:48:28.693520	35.7	54.8	-90.8	3.6
2025-01-26 16:48:29.852005	34.9	54.7	-89.8	3.5
2025-01-26 16:48:31.012775	34.1	54.6	-89.4	4.9
2025-01-26 16:48:32.176279	33.3	54.5	-89.0	2.9
2025-01-26 16:48:33.341494	32.5	54.4	-88.8	3.5
2025-01-26 16:48:34.504074	31.7	54.2	-89.3	7.7
2025-01-26 16:48:35.669476	30.9	54.1	-89.0	6.0
2025-01-26 16:48:36.825031	30.1	54.0	-89.4	5.4
2025-01-26 16:48:37.985111	29.3	53.8	-89.5	7.2
2025-01-26 16:48:39.150593	28.5	53.7	-89.4	8.2
2025-01-26 16:48:40.312663	27.8	53.5	-89.6	6.1
2025-01-26 16:48:41.481217	27.0	53.4	-89.8	6.5
2025-01-26 16:48:42.643550	26.3	53.2	-89.7	8.0
2025-01-26 16:48:43.807431	25.5	53.1	-89.7	3.8
2025-01-26 16:48:44.967610	24.8	52.9	-90.2	7.3
2025-01-26 16:48:46.128538	24.1	52.7	-90.4	10.3
2025-01-26 16:48:47.278814	23.4	52.5	-91.0	6.4
2025-01-26 16:48:48.447999	22.6	52.4	-90.4	7.1
2025-01-26 16:48:49.611577	21.9	52.2	-90.2	6.9
2025-01-26 16:48:50.776913	21.3	52.0	-90.6	4.5
2025-01-26 16:48:51.937524	20.6	51.8	-90.7	4.6
2025-01-26 16:48:53.103267	19.9	51.6	-90.4	6.8
2025-01-26 16:48:54.262787	19.2	51.4	-90.5	5.0
2025-01-26 16:48:55.423674	18.6	51.2	-90.6	5.3
2025-01-26 16:48:56.585661	17.9	51.0	-90.5	4.6
2025-01-26 16:48:57.743862	17.3	50.8	-91.0	4.2
2025-01-26 16:48:58.908758	16.7	50.6	-90.7	4.3
2025-01-26 16:49:00.070056	16.1	50.4	-90.7	6.7
2025-01-26 16:49:01.233499	15.4	50.2	-90.1	3.5
2025-01-26 16:49:02.398276	14.8	50.0	-90.0	2.7
2025-01-26 16:49:03.559121	14.3	49.7	-89.6	5.1
2025-01-26 16:49:04.721187	13.7	49.5	-89.3	2.2
2025-01-26 16:49:05.881753	13.1	49.3	-89.6	4.3
2025-01-26 16:49:07.041786	12.5	49.1	-89.4	6.0
2025-01-26 16:49:08.199297	12.0	48.8	-88.8	2.6
2025-01-26 16:49:09.365419	11.4	48.6	-89.4	3.8
2025-01-26 16:49:10.523180	10.9	48.4	-90.4	6.9
2025-01-26 16:49:11.689621	10.3	48.2	-90.5	6.7
2025-01-26 16:49:12.848916	9.8	47.9	-90.6	4.6
2025-01-26 16:49:14.010637	9.3	47.7	-91.2	7.3
2025-01-26 16:49:15.168629	8.8	47.5	-90.2	7.2
2025-01-26 16:49:16.329895	8.3	47.2	-90.2	7.1
2025-01-26 16:49:17.486353	7.8	47.0	-90.2	10.7
2025-01-26 16:49:18.652240	7.3	46.7	-91.2	13.4
2025-01-26 16:49:19.817970	6.8	46.5	-91.1	12.1
2025-01-26 16:49:20.988435	6.3	46.3	-90.4	14.2
2025-01-26 16:49:22.150330	5.9	46.0	-90.7	14.4
2025-01-26 16:49:23.319240	5.4	45.8	-90.6	15.7
2025-01-26 16:49:24.485945	5.0	45.5	-90.9	15.7
2025-01-26 16:49:25.646424	4.5	45.3	-90.9	17.1
2025-01-26 16:49:26.809854	4.1	45.0	-89.8	15.8
2025-01-26 16:49:27.974347	3.6	44.8	-90.5	18.5
2025-01-26 16:49:29.146770	3.2	44.6	-90.4	16.8
2025-01-26 16:49:30.310174	2.8	44.3	-90.1	15.1
2025-01-26 16:49:31.472792	2.4	44.1	-90.1	15.8
2025-01-26 16:49:32.639786	2.0	43.8	-90.2	15.4
2025-01-26 16:49:33.800677	1.6	43.6	-90.3	14.3
2025-01-26 16:49:34.968103	1.2	43.3	-90.5	14.4
2025-01-26 16:49:36.128642	0.8	43.1	-90.2	15.1
2025-01-26 16:49:37.285896	0.4	42.8	-90.3	9.9
2025-01-26 16:49:38.450682	0.0	42.6	-90.4	9.8
2025-01-26 16:49:39.612661	359.7	42.4	-90.3	12.4
2025-01-26 16:49:40.780100	359.3	42.1	-90.7	7.4
2025-01-26 16:49:41.944176	359.0	41.9	-91.0	9.4
2025-01-26 16:49:43.109330	358.6	41.6	-90.5	9.3
2025-01-26 16:49:44.274954	358.3	41.4	-90.7	4.6
2025-01-26 16:49:45.452274	357.9	41.1	-90.5	7.0
2025-01-26 16:49:46.617832	357.6	40.9	-90.6	11.2
2025-01-26 16:49:47.773676	357.2	40.7	-90.8	7.7
2025-01-26 16:49:48.941549	356.9	40.4	-90.1	7.9
2025-01-26 16:49:50.105473	356.6	40.2	-90.0	11.1
2025-01-26 16:49:51.268467	356.3	39.9	-89.7	8.9
2025-01-26 16:49:52.431775	356.0	39.7	-90.0	12.2
2025-01-26 16:49:53.590619	355.6	39.5	-90.3	14.5
2025-01-26 16:49:54.758667	355.3	39.2	-90.1	13.9
2025-01-26 16:49:55.921913	355.0	39.0	-90.5	16.3
2025-01-26 16:49:57.082379	354.7	38.7	-89.6	14.5
2025-01-26 16:49:58.245653	354.5	38.5	-89.8	14.6
2025-01-26 16:49:59.413855	354.2	38.3	-89.9	14.3
2025-01-26 16:50:00.561632	353.9	38.0	-89.7	13.0
2025-01-26 16:50:01.720622	353.6	37.8	-89.4	9.2
2025-01-26 16:50:02.877343	353.3	37.6	-90.2	8.4
2025-01-26 16:50:04.042198	353.1	37.3	-90.5	7.8
2025-01-26 16:50:05.200318	352.8	37.1	-90.6	4.0
2025-01-26 16:50:06.360521	352.5	36.9	-90.3	4.9
2025-01-26 16:50:07.517056	352.3	36.7	-90.3	6.7
2025-01-26 16:50:08.681085	352.0	36.4	-90.8	4.2
2025-01-26 16:50:09.842296	351.8	36.2	-91.3	5.4
2025-01-26 16:50:11.003858	351.5	36.0	-90.9	6.6
2025-01-26 16:50:12.168600	351.3	35.8	-90.6	3.3
2025-01-26 16:50:13.333263	351.0	35.5	-90.7	6.9
2025-01-26 16:50:14.498328	350.8	35.3	-90.9	8.9
2025-01-26 16:50:15.656318	350.6	35.1	-90.4	9.3
2025-01-26 16:50:16.815912	350.3	34.9	-90.8	9.7
2025-01-26 16:50:17.979547	350.1	34.6	-91.0	12.0
2025-01-26 16:50:19.146847	349.9	34.4	-90.8	11.7
2025-01-26 16:50:20.306151	349.7	34.2	-90.7	10.2
2025-01-26 16:50:21.467332	349.4	34.0	-90.6	8.9
2025-01-26 16:50:22.626849	349.2	33.8	-90.9	7.8
2025-01-26 16:50:23.789186	349.0	33.6	-90.7	4.2
2025-01-26 16:50:24.950926	348.8	33.3	-90.9	5.6
2025-01-26 16:50:26.110030	348.6	33.1	-91.1	1.8
2025-01-26 16:50:27.269183	348.4	32.9	-90.5	2.2
2025-01-26 16:50:28.430934	348.2	32.7	-90.6	4.1
2025-01-26 16:50:29.593757	348.0	32.5	-91.2	4.0
2025-01-26 16:50:30.752647	347.8	32.3	-90.8	2.2
2025-01-26 16:50:31.915763	347.6	32.1	-91.0	5.2
2025-01-26 16:50:33.075278	347.4	31.9	-90.9	5.8
2025-01-26 16:50:34.239636	347.2	31.7	-90.7	6.3
2025-01-26 16:50:35.400692	347.0	31.5	-90.8	9.2
2025-01-26 16:50:36.564774	346.9	31.3	-90.8	8.9
2025-01-26 16:50:37.724140	346.7	31.1	-91.0	8.9
2025-01-26 16:50:38.883177	346.5	30.9	-90.9	10.3
2025-01-26 16:50:40.045337	346.3	30.7	-90.1	8.1
2025-01-26 16:50:41.207193	346.1	30.5	-90.4	6.1
2025-01-26 16:50:42.372948	346.0	30.3	-90.2	5.1
2025-01-26 16:50:43.536608	345.8	30.1	-90.3	6.4
2025-01-26 16:50:44.694805	345.6	29.9	-90.5	3.2
2025-01-26 16:50:45.850439	345.5	29.7	-90.2	3.8
2025-01-26 16:50:47.013515	345.3	29.5	-90.2	6.5
2025-01-26 16:50:48.172026	345.1	29.3	-90.5	4.2
2025-01-26 16:50:49.337669	345.0	29.1	-90.6	4.5
2025-01-26 16:50:50.500083	344.8	28.9	-91.1	5.0
2025-01-26 16:50:51.669574	344.7	28.7	-90.8	4.9
2025-01-26 16:50:52.827014	344.5	28.5	-91.2	4.6
2025-01-26 16:50:53.985898	344.3	28.4	-91.0	4.4
2025-01-26 16:50:55.145154	344.2	28.2	-90.7	3.6
2025-01-26 16:50:56.304167	344.0	28.0	-91.0	4.0
2025-01-26 16:50:57.466445	343.9	27.8	-91.0	6.3
2025-01-26 16:50:58.627984	343.7	27.6	-90.8	5.2
2025-01-26 16:50:59.788067	343.6	27.4	-90.8	3.9
2025-01-26 16:51:00.951512	343.5	27.2	-90.9	4.3
2025-01-26 16:51:02.120382	343.3	27.1	-90.3	3.4
2025-01-26 16:51:03.283659	343.2	26.9	-90.9	1.8
2025-01-26 16:51:04.448198	343.0	26.7	-91.0	1.7
2025-01-26 16:51:05.607858	342.9	26.5	-90.5	2.2
2025-01-26 16:51:06.775191	342.8	26.4	-91.0	4.7
2025-01-26 16:51:07.937339	342.6	26.2	-90.9	5.3
2025-01-26 16:51:09.098799	342.5	26.0	-90.8	5.5
2025-01-26 16:51:10.259898	342.4	25.8	-90.8	4.9
2025-01-26 16:51:11.420832	342.2	25.7	-91.1	9.1
2025-01-26 16:51:12.588408	342.1	25.5	-90.7	8.5
2025-01-26 16:51:13.750929	342.0	25.3	-90.7	6.0
2025-01-26 16:51:14.918349	341.9	25.1	-91.0	6.4
2025-01-26 16:51:16.071690	341.7	25.0	-90.4	2.8
2025-01-26 16:51:17.232325	341.6	24.8	-90.7	3.1
2025-01-26 16:51:18.397027	341.5	24.6	-90.8	4.0
2025-01-26 16:51:19.549866	341.4	24.5	-90.6	4.4
2025-01-26 16:51:20.719586	341.3	24.3	-91.0	2.2
2025-01-26 16:51:21.893021	341.1	24.1	-90.4	3.4
2025-01-26 16:51:23.055452	341.0	24.0	-90.9	5.9
2025-01-26 16:51:24.217230	340.9	23.8	-90.3	4.2
2025-01-26 16:51:25.376948	340.8	23.7	-90.8	7.2
2025-01-26 16:51:26.541552	340.7	23.5	-90.4	5.4
2025-01-26 16:51:27.695889	340.6	23.3	-90.8	6.6
2025-01-26 16:51:28.860655	340.5	23.2	-90.5	5.0
2025-01-26 16:51:30.023688	340.4	23.0	-90.8	5.3
2025-01-26 16:51:31.187760	340.3	22.9	-90.3	3.6
2025-01-26 16:51:32.353654	340.2	22.7	-90.7	3.7
2025-01-26 16:51:33.514472	340.0	22.5	-91.0	4.6
2025-01-26 16:51:34.672058	339.9	22.4	-91.2	1.3
2025-01-26 16:51:35.836769	339.8	22.2	-91.1	3.7
2025-01-26 16:51:36.994611	339.7	22.1	-90.8	6.5
2025-01-26 16:51:38.152717	339.6	21.9	-90.8	5.7
2025-01-26 16:51:39.314255	339.5	21.8	-90.6	4.5
2025-01-26 16:51:40.480803	339.4	21.6	-90.7	5.7
2025-01-26 16:51:41.640911	339.3	21.5	-90.4	8.9
2025-01-26 16:51:42.813419	339.2	21.3	-90.4	4.9
2025-01-26 16:51:43.977959	339.1	21.2	-90.9	5.4
2025-01-26 16:51:45.140214	339.1	21.0	-90.4	1.7
2025-01-26 16:51:46.296533	339.0	20.9	-90.4	3.1
2025-01-26 16:51:47.450586	338.9	20.7	-90.0	4.2
2025-01-26 16:51:48.582730	338.8	20.6	-90.3	2.4
2025-01-26 16:51:49.703982	338.7	20.5	-90.7	3.9
2025-01-26 16:51:50.825941	338.6	20.3	-90.8	3.3
2025-01-26 16:51:51.946141	338.5	20.2	-90.8	2.7
2025-01-26 16:51:53.066179	338.4	20.0	-90.5	3.8
2025-01-26 16:51:54.186517	338.3	19.9	-90.7	3.5
2025-01-26 16:51:55.306985	338.3	19.8	-90.8	2.6
2025-01-26 16:51:56.430195	338.2	19.6	-90.8	3.1
2025-01-26 16:51:57.552405	338.1	19.5	-90.7	1.9
2025-01-26 16:51:58.678362	338.0	19.4	-90.9	2.2
2025-01-26 16:51:59.837998	337.9	19.2	-90.9	2.4
2025-01-26 16:52:00.989151	337.9	19.1	-91.0	1.3
2025-01-26 16:52:02.153065	337.8	19.0	-90.6	3.4
2025-01-26 16:52:03.310776	337.7	18.8	-90.7	2.2
2025-01-26 16:52:04.466392	337.6	18.7	-91.0	3.1
2025-01-26 16:52:05.624503	337.5	18.5	-91.0	3.8
2025-01-26 16:52:06.789484	337.4	18.4	-90.4	2.7
2025-01-26 16:52:07.941140	337.4	18.3	-90.3	4.2
2025-01-26 16:52:09.100315	337.3	18.1	-90.1	5.1
2025-01-26 16:52:10.273131	337.2	18.0	-90.6	2.7
2025-01-26 16:52:11.439469	337.1	17.9	-90.7	2.0
2025-01-26 16:52:12.602053	337.1	17.8	-90.9	2.7
2025-01-26 16:52:13.771147	337.0	17.6	-91.1	2.4
2025-01-26 16:52:14.936191	336.9	17.5	-90.8	3.3
2025-01-26 16:52:16.096521	336.8	17.4	-90.7	3.6
2025-01-26 16:52:17.262255	336.8	17.2	-91.0	2.2
2025-01-26 16:52:18.412072	336.7	17.1	-90.8	3.6
2025-01-26 16:52:19.574462	336.6	17.0	-91.0	4.1
2025-01-26 16:52:20.725821	336.6	16.9	-91.2	4.5
2025-01-26 16:52:21.854362	336.5	16.7	-91.1	4.8
2025-01-26 16:52:23.009324	336.4	16.6	-90.8	5.7
2025-01-26 16:52:24.153328	336.3	16.5	-90.7	5.5
2025-01-26 16:52:25.316386	336.3	16.4	-90.8	5.0
2025-01-26 16:52:26.464049	336.2	16.2	-91.2	3.0
2025-01-26 16:52:27.609652	336.1	16.1	-91.1	2.9
2025-01-26 16:52:28.765261	336.1	16.0	-91.2	4.4
2025-01-26 16:52:29.924866	336.0	15.9	-90.9	2.4
2025-01-26 16:52:31.083163	335.9	15.7	-91.0	3.2
2025-01-26 16:52:32.246696	335.9	15.6	-91.0	2.8
2025-01-26 16:52:33.407238	335.8	15.5	-91.1	3.4
2025-01-26 16:52:34.567221	335.8	15.4	-90.4	2.9
2025-01-26 16:52:35.728748	335.7	15.3	-89.9	4.2
2025-01-26 16:52:36.889673	335.6	15.2	-91.2	1.0
2025-01-26 16:52:38.049967	335.6	15.0	-90.5	5.2
2025-01-26 16:52:39.216885	335.5	14.9	-90.8	3.8
2025-01-26 16:52:40.375938	335.4	14.8	-90.4	4.7
2025-01-26 16:52:41.538918	335.4	14.7	-90.7	2.8
2025-01-26 16:52:42.703476	335.3	14.6	-90.9	1.8
2025-01-26 16:52:43.844680	335.3	14.5	-90.8	4.2
#Closed at: 2025-01-26 16:43:50.006282