passes_logs/2025/01/26/LEX_Murmansk/LEX_Murmansk__20250126_182426_NOAA_19_rec.log

#Pass ID: 20250126_182426_NOAA 19
#Satellite: NOAA 19
#Configuration: NOAA 19
#Start time: 2025-01-26 18:24:21.056425

#LorettStation: 1.0.0 05.05.2024
#Station: LEX_Murmansk
#Location: 33.156738 lon 68.926811 lat
#TLE: 1 33591U 09005A   25026.11929750  .00000374  00000+0  22339-3 0  9999
#TLE: 2 33591  99.0177  89.9666 0014047  27.3849 332.8061 14.13269171823112

#Time	Az	El	Level	SNR
2025-01-26 18:24:33.320037	173.7	16.3	-92.1	3.3
2025-01-26 18:24:34.471916	173.8	16.4	-92.4	3.2
2025-01-26 18:24:35.630714	173.8	16.6	-92.2	1.5
2025-01-26 18:24:36.786915	173.9	16.7	-92.3	3.4
2025-01-26 18:24:37.948798	174.0	16.8	-92.0	1.6
2025-01-26 18:24:39.103797	174.0	16.9	-92.3	3.3
2025-01-26 18:24:40.259030	174.1	17.1	-92.2	2.5
2025-01-26 18:24:41.417778	174.2	17.2	-92.4	3.9
2025-01-26 18:24:42.582200	174.2	17.3	-92.5	6.1
2025-01-26 18:24:43.739925	174.3	17.5	-92.4	3.6
2025-01-26 18:24:44.900232	174.3	17.6	-92.4	4.8
2025-01-26 18:24:46.053438	174.4	17.7	-92.5	5.6
2025-01-26 18:24:47.206911	174.5	17.9	-92.4	5.8
2025-01-26 18:24:48.361412	174.5	18.0	-91.0	4.2
2025-01-26 18:24:49.528140	174.6	18.1	-91.2	6.8
2025-01-26 18:24:50.684684	174.7	18.3	-91.4	6.0
2025-01-26 18:24:51.842419	174.7	18.4	-91.5	4.4
2025-01-26 18:24:53.000563	174.8	18.5	-92.3	3.4
2025-01-26 18:24:54.145794	174.9	18.7	-92.2	4.1
2025-01-26 18:24:55.308939	175.0	18.8	-92.2	1.9
2025-01-26 18:24:56.469565	175.0	19.0	-91.8	3.6
2025-01-26 18:24:57.635583	175.1	19.1	-92.2	5.2
2025-01-26 18:24:58.789841	175.2	19.2	-92.2	8.0
2025-01-26 18:24:59.951784	175.2	19.4	-92.4	9.8
2025-01-26 18:25:01.099219	175.3	19.5	-92.2	8.7
2025-01-26 18:25:02.265831	175.4	19.7	-92.0	6.5
2025-01-26 18:25:03.416365	175.5	19.8	-92.2	5.1
2025-01-26 18:25:04.567627	175.5	20.0	-92.5	6.4
2025-01-26 18:25:05.705300	175.6	20.1	-92.5	6.5
2025-01-26 18:25:06.826086	175.7	20.2	-92.3	8.3
2025-01-26 18:25:07.946656	175.8	20.4	-92.4	7.1
2025-01-26 18:25:09.067297	175.8	20.5	-91.8	4.4
2025-01-26 18:25:10.187336	175.9	20.7	-92.1	0.7
2025-01-26 18:25:11.308799	176.0	20.8	-91.8	1.2
2025-01-26 18:25:12.429097	176.1	21.0	-92.1	4.6
2025-01-26 18:25:13.549496	176.1	21.1	-92.1	4.9
2025-01-26 18:25:14.673205	176.2	21.3	-92.0	6.8
2025-01-26 18:25:15.794215	176.3	21.4	-92.2	8.3
2025-01-26 18:25:16.955673	176.4	21.6	-92.1	10.2
2025-01-26 18:25:18.116759	176.5	21.7	-91.8	8.4
2025-01-26 18:25:19.277325	176.5	21.9	-91.9	5.7
2025-01-26 18:25:20.426203	176.6	22.0	-92.0	8.2
2025-01-26 18:25:21.591415	176.7	22.2	-92.4	9.2
2025-01-26 18:25:22.755379	176.8	22.3	-92.4	11.1
2025-01-26 18:25:23.918547	176.9	22.5	-92.4	9.8
2025-01-26 18:25:25.075297	177.0	22.7	-92.5	7.0
2025-01-26 18:25:26.225716	177.1	22.8	-92.1	3.7
2025-01-26 18:25:27.387435	177.1	23.0	-91.9	2.8
2025-01-26 18:25:28.548395	177.2	23.1	-92.3	4.7
2025-01-26 18:25:29.709050	177.3	23.3	-92.1	4.7
2025-01-26 18:25:30.865353	177.4	23.5	-92.1	8.3
2025-01-26 18:25:32.027846	177.5	23.6	-92.0	10.7
2025-01-26 18:25:33.185260	177.6	23.8	-92.0	10.8
2025-01-26 18:25:34.332165	177.7	24.0	-92.0	8.2
2025-01-26 18:25:35.455154	177.8	24.1	-92.2	10.1
2025-01-26 18:25:36.623678	177.9	24.3	-92.0	7.6
2025-01-26 18:25:37.764076	178.0	24.5	-92.4	7.4
2025-01-26 18:25:38.894810	178.1	24.6	-92.2	10.0
2025-01-26 18:25:40.032291	178.2	24.8	-92.4	12.2
2025-01-26 18:25:41.186876	178.3	25.0	-92.5	10.5
2025-01-26 18:25:42.338515	178.4	25.2	-92.2	5.0
2025-01-26 18:25:43.486828	178.5	25.3	-92.3	4.6
2025-01-26 18:25:44.639188	178.6	25.5	-92.6	3.4
2025-01-26 18:25:45.792586	178.7	25.7	-92.3	1.7
2025-01-26 18:25:46.953230	178.8	25.9	-92.6	5.3
2025-01-26 18:25:48.116447	178.9	26.1	-92.4	8.7
2025-01-26 18:25:49.279280	179.0	26.2	-92.4	9.8
2025-01-26 18:25:50.426342	179.1	26.4	-92.2	11.7
2025-01-26 18:25:51.577097	179.2	26.6	-92.3	10.8
2025-01-26 18:25:52.736568	179.4	26.8	-91.2	5.4
2025-01-26 18:25:53.901467	179.5	27.0	-91.1	5.6
2025-01-26 18:25:55.057525	179.6	27.2	-91.7	11.8
2025-01-26 18:25:56.216212	179.7	27.3	-91.8	11.7
2025-01-26 18:25:57.365854	179.8	27.5	-92.1	11.1
2025-01-26 18:25:58.528336	179.9	27.7	-91.9	6.8
2025-01-26 18:25:59.688114	180.1	27.9	-92.6	4.0
2025-01-26 18:26:00.838598	180.2	28.1	-92.3	2.8
2025-01-26 18:26:01.991312	180.3	28.3	-92.5	1.8
2025-01-26 18:26:03.151493	180.4	28.5	-92.4	1.5
2025-01-26 18:26:04.306664	180.6	28.7	-92.3	2.6
2025-01-26 18:26:05.469621	180.7	28.9	-92.7	7.4
2025-01-26 18:26:06.629965	180.8	29.1	-92.5	9.0
2025-01-26 18:26:07.791918	180.9	29.3	-92.6	9.8
2025-01-26 18:26:08.958980	181.1	29.5	-92.4	11.3
2025-01-26 18:26:10.121850	181.2	29.7	-92.0	8.4
2025-01-26 18:26:11.261564	181.3	29.9	-92.3	5.0
2025-01-26 18:26:12.386230	181.5	30.1	-92.1	6.9
2025-01-26 18:26:13.536618	181.6	30.3	-92.5	10.0
2025-01-26 18:26:14.683753	181.8	30.5	-92.3	7.7
2025-01-26 18:26:15.832331	181.9	30.7	-92.4	6.3
2025-01-26 18:26:16.989777	182.0	30.9	-92.4	5.8
2025-01-26 18:26:18.148170	182.2	31.1	-92.3	1.5
2025-01-26 18:26:19.303239	182.3	31.3	-92.3	1.3
2025-01-26 18:26:20.458459	182.5	31.6	-92.5	2.5
2025-01-26 18:26:21.613827	182.6	31.8	-92.6	3.4
2025-01-26 18:26:22.773081	182.8	32.0	-92.2	6.2
2025-01-26 18:26:23.932093	182.9	32.2	-92.7	9.6
2025-01-26 18:26:25.093037	183.1	32.4	-92.7	10.8
2025-01-26 18:26:26.255008	183.3	32.7	-92.5	9.0
2025-01-26 18:26:27.420489	183.4	32.9	-92.4	7.1
2025-01-26 18:26:28.581112	183.6	33.1	-92.4	6.1
2025-01-26 18:26:29.739377	183.8	33.3	-92.2	5.1
2025-01-26 18:26:30.900928	183.9	33.6	-92.2	6.8
2025-01-26 18:26:32.057909	184.1	33.8	-92.5	11.2
2025-01-26 18:26:33.207097	184.3	34.0	-92.6	11.8
2025-01-26 18:26:34.351611	184.4	34.2	-92.2	10.1
2025-01-26 18:26:35.512220	184.6	34.5	-92.3	6.8
2025-01-26 18:26:36.665266	184.8	34.7	-92.5	4.3
2025-01-26 18:26:37.822129	185.0	34.9	-92.3	2.9
2025-01-26 18:26:38.972248	185.2	35.2	-92.8	4.6
2025-01-26 18:26:40.137034	185.3	35.4	-92.2	3.7
2025-01-26 18:26:41.289002	185.5	35.7	-92.2	6.1
2025-01-26 18:26:42.439424	185.7	35.9	-92.8	7.9
2025-01-26 18:26:43.580589	185.9	36.1	-92.5	10.2
2025-01-26 18:26:44.715408	186.1	36.4	-92.8	8.7
2025-01-26 18:26:45.866039	186.3	36.6	-92.4	7.5
2025-01-26 18:26:47.003896	186.5	36.9	-92.6	4.9
2025-01-26 18:26:48.152012	186.7	37.1	-92.6	4.1
2025-01-26 18:26:49.300185	186.9	37.4	-92.3	6.6
2025-01-26 18:26:50.449009	187.1	37.6	-92.3	9.0
2025-01-26 18:26:51.598925	187.4	37.9	-92.4	7.2
2025-01-26 18:26:52.751849	187.6	38.1	-92.1	5.0
2025-01-26 18:26:53.903187	187.8	38.4	-92.6	3.9
2025-01-26 18:26:55.052179	188.0	38.6	-92.3	2.7
2025-01-26 18:26:56.207891	188.3	38.9	-92.3	2.1
2025-01-26 18:26:57.348895	188.5	39.1	-91.6	1.2
2025-01-26 18:26:58.493286	188.7	39.4	-91.2	4.7
2025-01-26 18:26:59.640216	189.0	39.7	-91.6	4.7
2025-01-26 18:27:00.777183	189.2	39.9	-92.4	5.6
2025-01-26 18:27:01.926115	189.5	40.2	-92.5	11.0
2025-01-26 18:27:03.083501	189.7	40.4	-92.2	13.2
2025-01-26 18:27:04.242612	190.0	40.7	-92.2	10.8
2025-01-26 18:27:05.401990	190.2	41.0	-92.4	8.5
2025-01-26 18:27:06.561815	190.5	41.3	-92.3	8.8
2025-01-26 18:27:07.725259	190.8	41.5	-92.5	5.7
2025-01-26 18:27:08.880160	191.0	41.8	-92.5	8.0
2025-01-26 18:27:10.041314	191.3	42.1	-92.6	10.8
2025-01-26 18:27:11.197769	191.6	42.4	-92.6	15.0
2025-01-26 18:27:12.359544	191.9	42.6	-92.3	16.1
2025-01-26 18:27:13.520302	192.2	42.9	-92.5	16.2
2025-01-26 18:27:14.668579	192.5	43.2	-92.7	12.4
2025-01-26 18:27:15.798807	192.8	43.5	-92.5	6.9
2025-01-26 18:27:16.948912	193.1	43.7	-92.7	5.7
2025-01-26 18:27:18.094010	193.4	44.0	-92.1	5.0
2025-01-26 18:27:19.237273	193.7	44.3	-92.3	3.4
2025-01-26 18:27:20.391667	194.0	44.6	-92.5	6.4
2025-01-26 18:27:21.540598	194.4	44.9	-92.4	9.3
2025-01-26 18:27:22.694157	194.7	45.2	-92.7	13.1
2025-01-26 18:27:23.850081	195.0	45.5	-92.5	14.7
2025-01-26 18:27:25.007670	195.4	45.7	-92.5	14.8
2025-01-26 18:27:26.166180	195.8	46.0	-92.2	11.8
2025-01-26 18:27:27.331640	196.1	46.3	-92.5	12.3
2025-01-26 18:27:28.484519	196.5	46.6	-92.4	13.3
2025-01-26 18:27:29.635511	196.9	46.9	-92.6	10.3
2025-01-26 18:27:30.799711	197.2	47.2	-92.5	7.2
2025-01-26 18:27:31.954515	197.6	47.5	-92.4	13.2
2025-01-26 18:27:33.116544	198.0	47.8	-92.2	14.0
2025-01-26 18:27:34.258032	198.4	48.1	-92.4	15.7
2025-01-26 18:27:35.393868	198.8	48.4	-92.3	15.6
2025-01-26 18:27:36.544700	199.3	48.7	-92.4	11.9
2025-01-26 18:27:37.685208	199.7	49.0	-92.3	10.0
2025-01-26 18:27:38.851652	200.1	49.3	-92.7	7.5
2025-01-26 18:27:39.997406	200.6	49.6	-92.4	5.1
2025-01-26 18:27:41.150132	201.0	49.9	-92.4	3.3
2025-01-26 18:27:42.306444	201.5	50.2	-91.5	1.4
2025-01-26 18:27:43.462405	201.9	50.4	-91.7	4.9
2025-01-26 18:27:44.619524	202.4	50.7	-92.0	9.4
2025-01-26 18:27:45.775463	202.9	51.0	-91.4	9.0
2025-01-26 18:27:46.931134	203.4	51.3	-91.4	13.3
2025-01-26 18:27:48.087506	203.9	51.6	-91.2	16.2
2025-01-26 18:27:49.242857	204.4	51.9	-91.9	17.7
2025-01-26 18:27:50.410208	205.0	52.2	-92.1	17.3
2025-01-26 18:27:51.564983	205.5	52.5	-92.5	14.3
2025-01-26 18:27:52.723344	206.1	52.8	-92.7	11.5
2025-01-26 18:27:53.880198	206.6	53.1	-92.4	8.5
2025-01-26 18:27:55.038939	207.2	53.4	-92.4	11.5
2025-01-26 18:27:56.194267	207.8	53.7	-92.4	8.4
2025-01-26 18:27:57.352336	208.4	54.0	-92.3	11.6
2025-01-26 18:27:58.500976	209.0	54.3	-92.6	17.3
2025-01-26 18:27:59.665960	209.6	54.5	-92.4	16.7
2025-01-26 18:28:00.816635	210.2	54.8	-92.7	18.7
2025-01-26 18:28:01.978687	210.9	55.1	-92.6	19.5
2025-01-26 18:28:03.136725	211.5	55.4	-92.5	18.6
2025-01-26 18:28:04.290144	212.2	55.7	-92.2	15.5
2025-01-26 18:28:05.444850	212.9	55.9	-92.6	13.8
2025-01-26 18:28:06.609042	213.6	56.2	-92.6	12.8
2025-01-26 18:28:07.739686	214.3	56.5	-92.5	5.7
2025-01-26 18:28:08.891543	215.0	56.7	-92.8	8.3
2025-01-26 18:28:10.036132	215.7	57.0	-92.4	8.0
2025-01-26 18:28:11.182937	216.5	57.3	-92.4	4.7
2025-01-26 18:28:12.337405	217.2	57.5	-92.1	4.5
2025-01-26 18:28:13.494434	218.0	57.8	-92.5	11.4
2025-01-26 18:28:14.647555	218.8	58.0	-92.6	14.0
2025-01-26 18:28:15.799052	219.6	58.3	-92.7	15.4
2025-01-26 18:28:16.957625	220.4	58.5	-92.4	18.0
2025-01-26 18:28:18.120299	221.3	58.7	-92.2	21.0
2025-01-26 18:28:19.284181	222.1	59.0	-92.3	21.3
2025-01-26 18:28:20.445107	223.0	59.2	-92.2	22.3
2025-01-26 18:28:21.612059	223.9	59.4	-92.2	20.7
2025-01-26 18:28:22.769445	224.8	59.6	-92.3	17.9
2025-01-26 18:28:23.934345	225.7	59.8	-92.5	17.1
2025-01-26 18:28:25.097968	226.7	60.0	-92.2	16.6
2025-01-26 18:28:26.261170	227.6	60.2	-92.6	12.1
2025-01-26 18:28:27.419603	228.6	60.4	-92.7	12.9
2025-01-26 18:28:28.567994	229.5	60.6	-92.6	11.7
2025-01-26 18:28:29.724944	230.5	60.8	-92.6	6.4
2025-01-26 18:28:30.855197	231.5	61.0	-92.0	9.3
2025-01-26 18:28:32.003087	232.5	61.1	-92.4	14.6
2025-01-26 18:28:33.149541	233.5	61.3	-92.5	12.6
2025-01-26 18:28:34.302238	234.5	61.4	-92.1	13.2
2025-01-26 18:28:35.445888	235.6	61.6	-92.6	16.5
2025-01-26 18:28:36.597292	236.6	61.7	-92.6	18.5
2025-01-26 18:28:37.730956	237.7	61.8	-92.4	14.5
2025-01-26 18:28:38.872457	238.7	61.9	-92.3	18.0
2025-01-26 18:28:40.022856	239.8	62.0	-92.2	16.3
2025-01-26 18:28:41.172936	240.9	62.1	-92.0	16.3
2025-01-26 18:28:42.322827	242.0	62.2	-92.3	18.5
2025-01-26 18:28:43.471495	243.1	62.3	-92.5	19.1
2025-01-26 18:28:44.625098	244.2	62.4	-92.6	17.3
2025-01-26 18:28:45.781788	245.4	62.5	-92.6	15.2
2025-01-26 18:28:46.937750	246.5	62.5	-92.1	14.7
2025-01-26 18:28:48.093133	247.6	62.6	-92.2	14.7
2025-01-26 18:28:49.256777	248.8	62.6	-91.4	8.4
2025-01-26 18:28:50.408046	249.9	62.6	-91.4	9.9
2025-01-26 18:28:51.556712	251.0	62.6	-91.4	10.8
2025-01-26 18:28:52.679840	252.2	62.6	-91.2	6.8
2025-01-26 18:28:53.824829	253.3	62.6	-92.5	5.6
2025-01-26 18:28:54.967419	254.4	62.6	-92.3	9.2
2025-01-26 18:28:56.125947	255.6	62.6	-92.4	10.5
2025-01-26 18:28:57.273548	256.7	62.6	-92.3	4.8
2025-01-26 18:28:58.428478	257.8	62.5	-92.5	8.9
2025-01-26 18:28:59.575852	259.0	62.5	-92.4	8.6
2025-01-26 18:29:00.725631	260.1	62.4	-92.3	6.3
2025-01-26 18:29:01.876411	261.2	62.4	-92.5	5.7
2025-01-26 18:29:03.039091	262.3	62.3	-92.1	9.2
2025-01-26 18:29:04.203222	263.5	62.2	-92.1	5.1
2025-01-26 18:29:05.361524	264.6	62.1	-92.4	8.7
2025-01-26 18:29:06.516108	265.6	62.0	-92.1	9.0
2025-01-26 18:29:07.669274	266.7	61.9	-92.4	8.3
2025-01-26 18:29:08.821176	267.8	61.8	-92.6	6.4
2025-01-26 18:29:09.987038	268.9	61.6	-92.6	9.2
2025-01-26 18:29:11.144414	269.9	61.5	-92.5	9.3
2025-01-26 18:29:12.306145	271.0	61.4	-92.5	8.4
2025-01-26 18:29:13.465426	272.0	61.2	-92.5	9.5
2025-01-26 18:29:14.622302	273.0	61.0	-92.6	11.6
2025-01-26 18:29:15.779824	274.0	60.9	-92.6	7.0
2025-01-26 18:29:16.933660	275.0	60.7	-93.0	6.8
2025-01-26 18:29:18.089810	276.0	60.5	-92.6	11.1
2025-01-26 18:29:19.251005	276.9	60.3	-92.5	10.6
2025-01-26 18:29:20.404984	277.9	60.1	-93.0	9.5
2025-01-26 18:29:21.557448	278.8	59.9	-92.8	8.9
2025-01-26 18:29:22.710423	279.7	59.7	-92.5	7.0
2025-01-26 18:29:23.874690	280.6	59.5	-92.4	5.0
2025-01-26 18:29:25.025530	281.5	59.3	-92.4	10.2
2025-01-26 18:29:26.177123	282.4	59.1	-92.5	9.3
2025-01-26 18:29:27.334037	283.2	58.9	-92.5	10.4
2025-01-26 18:29:28.486792	284.1	58.6	-92.4	11.7
2025-01-26 18:29:29.646829	284.9	58.4	-92.6	12.4
2025-01-26 18:29:30.810366	285.7	58.1	-92.6	9.3
2025-01-26 18:29:31.962598	286.5	57.9	-92.5	8.3
2025-01-26 18:29:33.122224	287.3	57.6	-92.3	11.7
2025-01-26 18:29:34.273970	288.1	57.4	-92.4	11.2
2025-01-26 18:29:35.432371	288.8	57.1	-92.1	12.7
2025-01-26 18:29:36.595421	289.6	56.9	-92.3	13.8
2025-01-26 18:29:37.754737	290.3	56.6	-92.6	10.2
2025-01-26 18:29:38.910406	291.0	56.3	-92.9	13.0
2025-01-26 18:29:40.068129	291.7	56.1	-92.2	12.9
2025-01-26 18:29:41.217127	292.4	55.8	-92.3	9.9
2025-01-26 18:29:42.375870	293.1	55.5	-92.5	8.8
2025-01-26 18:29:43.540415	293.7	55.2	-92.7	12.1
2025-01-26 18:29:44.702688	294.4	55.0	-92.4	7.9
2025-01-26 18:29:45.859527	295.0	54.7	-92.5	10.6
2025-01-26 18:29:47.031148	295.7	54.4	-92.3	9.4
2025-01-26 18:29:48.180288	296.3	54.1	-92.3	6.2
2025-01-26 18:29:49.341199	296.9	53.8	-92.1	4.9
2025-01-26 18:29:50.498980	297.5	53.5	-92.6	9.4
2025-01-26 18:29:51.655161	298.0	53.2	-92.7	6.2
2025-01-26 18:29:52.809224	298.6	53.0	-91.7	5.5
2025-01-26 18:29:53.968207	299.1	52.7	-91.5	7.7
2025-01-26 18:29:55.123800	299.7	52.4	-91.4	9.2
2025-01-26 18:29:56.296616	300.2	52.1	-91.2	4.1
2025-01-26 18:29:57.458248	300.8	51.8	-92.8	10.0
2025-01-26 18:29:58.622484	301.3	51.5	-92.8	10.0
2025-01-26 18:29:59.773051	301.8	51.2	-92.5	4.8
2025-01-26 18:30:00.927107	302.3	50.9	-92.7	8.7
2025-01-26 18:30:02.085127	302.7	50.6	-92.3	11.7
2025-01-26 18:30:03.245598	303.2	50.3	-92.3	9.3
2025-01-26 18:30:04.406102	303.7	50.0	-92.0	9.3
2025-01-26 18:30:05.566543	304.1	49.7	-92.4	8.6
2025-01-26 18:30:06.727180	304.6	49.4	-92.4	10.0
2025-01-26 18:30:07.888359	305.0	49.1	-92.4	12.8
2025-01-26 18:30:09.051234	305.5	48.8	-92.2	13.8
2025-01-26 18:30:10.206797	305.9	48.5	-92.1	12.2
2025-01-26 18:30:11.361070	306.3	48.2	-92.4	12.4
2025-01-26 18:30:12.517878	306.7	47.9	-92.4	7.1
2025-01-26 18:30:13.677370	307.1	47.7	-92.3	11.0
2025-01-26 18:30:14.833512	307.5	47.4	-92.4	12.6
2025-01-26 18:30:15.988314	307.9	47.1	-92.5	11.4
2025-01-26 18:30:17.153471	308.2	46.8	-92.4	11.7
2025-01-26 18:30:18.314769	308.6	46.5	-92.3	10.4
2025-01-26 18:30:19.471427	309.0	46.2	-92.4	10.6
2025-01-26 18:30:20.632135	309.3	45.9	-92.2	9.7
2025-01-26 18:30:21.788059	309.7	45.6	-92.3	7.5
2025-01-26 18:30:22.941736	310.0	45.3	-92.6	7.2
2025-01-26 18:30:24.094191	310.4	45.0	-92.6	7.8
2025-01-26 18:30:25.262223	310.7	44.8	-92.2	3.8
2025-01-26 18:30:26.412042	311.0	44.5	-92.3	7.6
2025-01-26 18:30:27.566827	311.4	44.2	-92.5	8.8
2025-01-26 18:30:28.722159	311.7	43.9	-92.7	5.6
2025-01-26 18:30:29.883207	312.0	43.6	-92.9	8.3
2025-01-26 18:30:31.036972	312.3	43.3	-92.3	9.9
2025-01-26 18:30:32.194363	312.6	43.1	-92.3	7.7
2025-01-26 18:30:33.351023	312.9	42.8	-92.3	9.6
2025-01-26 18:30:34.511115	313.2	42.5	-92.2	13.0
2025-01-26 18:30:35.667064	313.5	42.2	-92.1	12.1
2025-01-26 18:30:36.821643	313.7	42.0	-92.3	13.7
2025-01-26 18:30:37.974775	314.0	41.7	-92.2	16.5
2025-01-26 18:30:39.134034	314.3	41.4	-92.3	15.3
2025-01-26 18:30:40.288692	314.5	41.2	-92.4	17.0
2025-01-26 18:30:41.447242	314.8	40.9	-92.7	15.8
2025-01-26 18:30:42.605202	315.1	40.6	-92.7	16.6
2025-01-26 18:30:43.763014	315.3	40.4	-92.4	13.7
2025-01-26 18:30:44.913249	315.6	40.1	-92.5	12.5
2025-01-26 18:30:46.076683	315.8	39.8	-92.6	11.9
2025-01-26 18:30:47.231552	316.1	39.6	-92.5	6.1
2025-01-26 18:30:48.395686	316.3	39.3	-92.5	5.6
2025-01-26 18:30:49.553140	316.5	39.0	-92.5	8.3
2025-01-26 18:30:50.709828	316.8	38.8	-92.6	4.1
2025-01-26 18:30:51.861104	317.0	38.5	-92.4	7.2
2025-01-26 18:30:53.025017	317.2	38.3	-92.3	4.9
2025-01-26 18:30:54.183548	317.4	38.0	-92.1	5.9
2025-01-26 18:30:55.358696	317.7	37.8	-92.7	5.5
2025-01-26 18:30:56.518679	317.9	37.5	-92.8	8.9
2025-01-26 18:30:57.679113	318.1	37.3	-91.6	9.2
2025-01-26 18:30:58.840814	318.3	37.0	-91.8	10.4
2025-01-26 18:31:00.003811	318.5	36.8	-91.6	8.9
2025-01-26 18:31:01.155650	318.7	36.5	-91.3	9.5
2025-01-26 18:31:02.313273	318.9	36.3	-92.4	11.5
2025-01-26 18:31:03.463284	319.1	36.0	-92.1	9.0
2025-01-26 18:31:04.626402	319.3	35.8	-92.6	10.4
2025-01-26 18:31:05.783131	319.5	35.6	-92.5	7.3
2025-01-26 18:31:06.928155	319.7	35.3	-92.3	6.8
2025-01-26 18:31:08.084000	319.8	35.1	-92.2	5.1
2025-01-26 18:31:09.206818	320.0	34.9	-92.3	2.0
2025-01-26 18:31:10.328230	320.2	34.6	-92.1	3.1
2025-01-26 18:31:11.449323	320.4	34.4	-92.1	8.6
2025-01-26 18:31:12.570051	320.5	34.2	-92.3	8.4
2025-01-26 18:31:13.690400	320.7	34.0	-92.4	7.2
2025-01-26 18:31:14.811230	320.9	33.8	-92.3	6.6
2025-01-26 18:31:15.931203	321.0	33.5	-92.7	11.3
2025-01-26 18:31:17.052604	321.2	33.3	-92.1	13.0
2025-01-26 18:31:18.178865	321.4	33.1	-92.3	12.4
2025-01-26 18:31:19.328047	321.5	32.9	-92.2	14.6
2025-01-26 18:31:20.484479	321.7	32.7	-92.2	14.2
2025-01-26 18:31:21.635496	321.8	32.4	-92.6	14.1
2025-01-26 18:31:22.790888	322.0	32.2	-92.5	12.2
2025-01-26 18:31:23.943604	322.1	32.0	-92.4	10.6
2025-01-26 18:31:25.096151	322.3	31.8	-92.4	12.7
2025-01-26 18:31:26.257124	322.4	31.6	-92.5	4.8
2025-01-26 18:31:27.413712	322.6	31.4	-92.4	7.6
2025-01-26 18:31:28.568642	322.7	31.2	-92.8	9.2
2025-01-26 18:31:29.729948	322.9	31.0	-91.8	6.5
2025-01-26 18:31:30.889621	323.0	30.7	-92.5	9.3
2025-01-26 18:31:32.046467	323.2	30.5	-92.3	10.6
2025-01-26 18:31:33.201883	323.3	30.3	-92.5	10.0
2025-01-26 18:31:34.360805	323.4	30.1	-92.3	10.4
2025-01-26 18:31:35.520877	323.6	29.9	-91.9	13.3
2025-01-26 18:31:36.680222	323.7	29.7	-91.8	12.3
2025-01-26 18:31:37.833186	323.8	29.5	-92.3	9.7
2025-01-26 18:31:38.991822	324.0	29.3	-92.6	7.6
2025-01-26 18:31:40.150833	324.1	29.1	-92.3	7.9
2025-01-26 18:31:41.309566	324.2	28.9	-92.1	4.0
2025-01-26 18:31:42.467517	324.4	28.7	-92.5	4.8
2025-01-26 18:31:43.622891	324.5	28.5	-92.5	5.9
2025-01-26 18:31:44.779494	324.6	28.3	-92.5	2.9
2025-01-26 18:31:45.935938	324.7	28.1	-92.7	6.6
2025-01-26 18:31:47.100894	324.9	28.0	-92.6	6.7
2025-01-26 18:31:48.255883	325.0	27.8	-92.9	6.8
2025-01-26 18:31:49.414236	325.1	27.6	-92.7	9.2
2025-01-26 18:31:50.568527	325.2	27.4	-92.2	9.3
2025-01-26 18:31:51.725018	325.3	27.2	-92.5	11.0
2025-01-26 18:31:52.878351	325.4	27.0	-92.4	11.5
2025-01-26 18:31:54.036667	325.6	26.8	-92.6	9.7
2025-01-26 18:31:55.194079	325.7	26.7	-92.0	7.6
2025-01-26 18:31:56.353154	325.8	26.5	-92.2	7.1
2025-01-26 18:31:57.510898	325.9	26.3	-92.5	6.5
2025-01-26 18:31:58.669048	326.0	26.1	-92.6	3.3
2025-01-26 18:31:59.825507	326.1	25.9	-92.9	4.7
2025-01-26 18:32:00.977552	326.2	25.8	-92.6	6.0
2025-01-26 18:32:02.124091	326.3	25.6	-91.7	4.6
2025-01-26 18:32:03.282934	326.4	25.4	-91.4	5.4
2025-01-26 18:32:04.437555	326.5	25.2	-91.8	7.8
2025-01-26 18:32:05.599331	326.6	25.1	-92.7	10.0
2025-01-26 18:32:06.755347	326.7	24.9	-92.4	8.6
2025-01-26 18:32:07.915576	326.8	24.7	-92.4	10.2
2025-01-26 18:32:09.073412	326.9	24.5	-92.5	11.3
2025-01-26 18:32:10.234592	327.0	24.4	-92.5	8.3
2025-01-26 18:32:11.383911	327.1	24.2	-92.2	7.7
2025-01-26 18:32:12.544229	327.2	24.0	-92.3	5.3
2025-01-26 18:32:13.700116	327.3	23.9	-92.5	4.3
2025-01-26 18:32:14.862382	327.4	23.7	-92.4	3.7
2025-01-26 18:32:16.020909	327.5	23.5	-92.2	2.6
2025-01-26 18:32:17.193198	327.6	23.4	-92.3	5.0
2025-01-26 18:32:18.346414	327.7	23.2	-92.7	3.3
2025-01-26 18:32:19.500647	327.8	23.1	-92.5	5.7
2025-01-26 18:32:20.647006	327.9	22.9	-92.7	7.9
2025-01-26 18:32:21.768317	327.9	22.7	-92.5	7.9
2025-01-26 18:32:22.888573	328.0	22.6	-92.6	7.8
2025-01-26 18:32:24.010863	328.1	22.4	-92.5	6.5
2025-01-26 18:32:25.132038	328.2	22.3	-92.4	6.2
2025-01-26 18:32:26.253444	328.3	22.1	-92.3	4.5
2025-01-26 18:32:27.374626	328.4	22.0	-92.4	4.6
2025-01-26 18:32:28.495557	328.4	21.8	-92.5	4.3
2025-01-26 18:32:29.617867	328.5	21.7	-92.4	5.3
2025-01-26 18:32:30.744308	328.6	21.5	-92.4	3.8
2025-01-26 18:32:31.864221	328.7	21.4	-92.3	4.8
2025-01-26 18:32:33.010920	328.8	21.2	-92.5	7.8
2025-01-26 18:32:34.167676	328.8	21.1	-92.5	7.0
2025-01-26 18:32:35.306563	328.9	20.9	-91.9	9.1
2025-01-26 18:32:36.448793	329.0	20.8	-92.1	7.1
2025-01-26 18:32:37.603136	329.1	20.7	-92.7	6.7
2025-01-26 18:32:38.759813	329.1	20.5	-92.3	5.1
2025-01-26 18:32:39.911950	329.2	20.4	-92.4	3.7
2025-01-26 18:32:41.062324	329.3	20.2	-91.7	2.9
2025-01-26 18:32:42.213171	329.4	20.1	-91.7	2.0
2025-01-26 18:32:43.371559	329.4	19.9	-91.7	2.5
2025-01-26 18:32:44.529279	329.5	19.8	-92.4	2.7
2025-01-26 18:32:45.686581	329.6	19.6	-92.6	2.9
2025-01-26 18:32:46.843449	329.7	19.5	-92.6	3.9
2025-01-26 18:32:47.993465	329.7	19.4	-92.6	3.3
2025-01-26 18:32:49.145675	329.8	19.2	-92.3	2.3
2025-01-26 18:32:50.303519	329.9	19.1	-92.2	8.4
2025-01-26 18:32:51.453643	330.0	19.0	-92.7	6.7
2025-01-26 18:32:52.607479	330.0	18.8	-92.7	8.1
2025-01-26 18:32:53.766519	330.1	18.7	-92.7	5.3
2025-01-26 18:32:54.921093	330.2	18.5	-93.0	2.5
2025-01-26 18:32:56.065974	330.2	18.4	-92.5	3.6
2025-01-26 18:32:57.196251	330.3	18.3	-92.4	2.8
2025-01-26 18:32:58.456191	330.4	18.1	-92.5	2.0
2025-01-26 18:32:59.606818	330.4	18.0	-92.5	0.9
2025-01-26 18:33:00.750044	330.5	17.9	-92.5	2.9
2025-01-26 18:33:01.893751	330.6	17.7	-92.9	2.4
2025-01-26 18:33:03.046716	330.6	17.6	-92.4	0.5
2025-01-26 18:33:04.203258	330.7	17.5	-92.3	4.1
2025-01-26 18:33:05.361847	330.8	17.3	-92.6	3.7
2025-01-26 18:33:06.518563	330.8	17.2	-91.5	1.6
2025-01-26 18:33:07.672888	330.9	17.1	-91.7	1.1
2025-01-26 18:33:08.833168	330.9	17.0	-91.9	2.0
2025-01-26 18:33:09.991040	331.0	16.8	-92.7	2.7
2025-01-26 18:33:11.157942	331.1	16.7	-92.6	2.0
2025-01-26 18:33:12.309843	331.1	16.6	-92.6	0.8
2025-01-26 18:33:13.468232	331.2	16.5	-92.5	2.6
2025-01-26 18:33:14.623660	331.2	16.3	-92.6	2.4
2025-01-26 18:33:15.788866	331.3	16.2	-92.8	2.0
2025-01-26 18:33:16.941777	331.4	16.1	-92.8	4.4
2025-01-26 18:33:18.097994	331.4	16.0	-92.7	3.4
2025-01-26 18:33:19.264183	331.5	15.8	-92.5	4.3
2025-01-26 18:33:20.428854	331.5	15.7	-92.6	6.7
2025-01-26 18:33:21.573579	331.6	15.6	-92.6	1.2
2025-01-26 18:33:22.731646	331.7	15.5	-92.5	2.5
2025-01-26 18:33:23.882607	331.7	15.3	-92.7	3.7
2025-01-26 18:33:25.040425	331.8	15.2	-92.4	2.7
2025-01-26 18:33:26.199447	331.8	15.1	-92.5	2.7
2025-01-26 18:33:27.363915	331.9	15.0	-92.4	1.7
2025-01-26 18:33:28.514323	331.9	14.9	-92.8	3.5
2025-01-26 18:33:29.672797	332.0	14.8	-92.5	2.5
2025-01-26 18:33:30.839236	332.0	14.6	-92.5	6.7
2025-01-26 18:33:31.992076	332.1	14.5	-92.3	8.2
2025-01-26 18:33:33.161790	332.1	14.4	-92.7	8.6
#Closed at: 2025-01-26 18:24:26.141306