passes_logs/2026/01/22/R3.2S_Murmansk/R3.2S_Murmansk__20260122_082753_NOAA_21_JPSS-2_rec.log

#Pass ID: 20260122_082753_NOAA 21 (JPSS-2)
#Satellite: NOAA 21 (JPSS-2)
#Configuration: NOAA-21
#almurnet v.1.7.20251203
#Start time: 2026-01-22 08:27:53

#Version: 2.2.20231116
#Station: R3.2S_Murmansk
#Location: 33.079688 lon 68.888172 lat
#TLE: 1 54234U 22150A   26021.42686626  .00000211  00000+0  12107-3 0  9996
#TLE: 2 54234  98.7506 322.2490 0000636 241.9299 118.1812 14.19537149165725

#Time	Az	El	Level	Level2	SNR	BER	BlckErr	Temp	State	Recorded	gain1	gain2
2026-01-22 08:27:53.54	126.85	1.99	-54.3	-67.1	3.8	1.49e+00	0	39	0	0	79	16478
2026-01-22 08:27:54.55	126.83	2.05	-54.5	-67.4	3.8	1.49e+00	0	39	104	0	79	16942
2026-01-22 08:27:55.56	126.80	2.12	-54.5	-67.4	3.8	1.49e+00	0	39	104	0	79	16978
2026-01-22 08:27:56.57	126.78	2.18	-54.5	-67.3	3.8	1.49e+00	0	39	104	0	79	16866
2026-01-22 08:27:57.58	126.76	2.24	-54.5	-67.3	3.8	1.49e+00	0	39	104	0	79	16850
2026-01-22 08:27:58.59	126.73	2.31	-54.5	-67.3	3.8	1.49e+00	0	39	104	0	79	16814
2026-01-22 08:27:59.59	126.71	2.37	-54.5	-67.3	3.8	1.49e+00	0	39	104	0	79	16723
2026-01-22 08:28:00.60	126.68	2.44	-54.4	-67.2	3.8	1.49e+00	0	39	104	0	79	16671
2026-01-22 08:28:01.61	126.66	2.50	-54.4	-67.2	3.8	1.49e+00	0	39	104	0	79	16619
2026-01-22 08:28:02.62	126.63	2.57	-54.3	-67.1	3.8	1.49e+00	0	39	104	0	79	16484
2026-01-22 08:28:03.63	126.61	2.63	-54.3	-67.1	3.8	1.49e+00	0	39	104	0	79	16394
2026-01-22 08:28:04.64	126.58	2.70	-54.2	-67.0	3.8	1.49e+00	0	39	104	0	79	16252
2026-01-22 08:28:05.65	126.56	2.76	-54.2	-67.0	3.8	1.49e+00	0	39	104	0	79	16168
2026-01-22 08:28:06.66	126.53	2.83	-54.1	-66.9	3.8	1.49e+00	0	39	104	0	79	15998
2026-01-22 08:28:07.66	126.51	2.89	-54.0	-66.8	3.8	1.49e+00	0	39	104	0	79	15869
2026-01-22 08:28:08.67	126.48	2.96	-53.9	-66.7	3.8	1.49e+00	0	40	104	0	79	15674
2026-01-22 08:28:09.68	126.46	3.03	-53.8	-66.6	3.8	1.49e+00	0	40	104	0	79	15524
2026-01-22 08:28:10.69	126.43	3.09	-53.6	-66.5	3.8	1.49e+00	0	39	104	0	79	15236
2026-01-22 08:28:11.70	126.41	3.16	-53.5	-66.3	3.8	1.49e+00	0	40	104	0	79	14982
2026-01-22 08:28:12.70	126.38	3.22	-53.4	-66.1	3.8	1.49e+00	0	40	104	0	78	15577
2026-01-22 08:28:13.71	126.36	3.29	-53.3	-66.1	3.8	1.49e+00	0	40	104	0	78	15427
2026-01-22 08:28:14.72	126.33	3.36	-53.2	-66.0	3.8	1.49e+00	0	40	104	0	78	15304
2026-01-22 08:28:15.73	126.30	3.43	-53.1	-65.8	3.8	1.49e+00	0	40	104	0	78	15022
2026-01-22 08:28:16.74	126.28	3.49	-52.9	-65.7	3.8	1.49e+00	0	40	104	0	77	15692
2026-01-22 08:28:17.74	126.25	3.56	-52.8	-65.5	3.8	1.49e+00	0	40	104	0	77	15261
2026-01-22 08:28:18.75	126.22	3.63	-52.6	-65.3	3.8	1.49e+00	0	40	104	0	77	15012
2026-01-22 08:28:19.76	126.20	3.69	-52.4	-64.7	3.8	1.49e+00	0	39	104	0	76	14790
2026-01-22 08:28:20.77	126.17	3.76	-52.3	-64.6	3.8	1.49e+00	0	40	104	0	76	14704
2026-01-22 08:28:21.78	126.14	3.83	-52.3	-64.7	3.8	1.49e+00	0	40	104	0	76	14752
2026-01-22 08:28:22.78	126.11	3.90	-52.4	-64.8	3.8	1.49e+00	0	40	104	0	76	15010
2026-01-22 08:28:23.79	126.09	3.97	-52.3	-64.8	3.8	1.49e+00	0	40	104	0	76	14965
2026-01-22 08:28:24.80	126.06	4.03	-52.3	-64.2	3.8	1.49e+00	0	40	104	0	76	14013
2026-01-22 08:28:25.81	126.03	4.10	-52.2	-62.6	4.0	1.48e+00	0	40	104	0	76	11677
2026-01-22 08:28:26.82	126.00	4.17	-51.8	-60.1	4.7	1.29e+00	0	40	104	0	75	9238
2026-01-22 08:28:27.82	125.98	4.24	-51.5	-58.3	5.8	4.47e-01	0	40	0	2097152	75	7479
2026-01-22 08:28:28.83	125.95	4.31	-50.9	-56.2	7.6	9.68e-02	0	40	0	5242880	73	6589
2026-01-22 08:28:29.84	125.92	4.38	-50.0	-53.7	10.2	1.41e-02	0	40	0	8388608	71	5535
2026-01-22 08:28:30.85	125.89	4.45	-49.3	-52.5	11.5	1.24e-03	0	40	0	11534336	70	5117
2026-01-22 08:28:31.86	125.86	4.52	-48.5	-51.0	13.0	2.42e-04	0	40	0	14680064	69	4555
2026-01-22 08:28:32.87	125.83	4.59	-47.8	-50.0	13.9	2.28e-05	0	40	0	17825792	67	4596
2026-01-22 08:28:33.87	125.81	4.66	-46.5	-48.1	15.8	0.00e+00	0	40	0	20971520	65	4145
2026-01-22 08:28:34.88	125.78	4.73	-46.8	-48.5	15.4	0.00e+00	0	40	0	24117248	64	4597
2026-01-22 08:28:35.89	125.75	4.80	-46.5	-48.1	15.8	0.00e+00	0	40	0	27262976	65	4138
2026-01-22 08:28:36.90	125.72	4.87	-45.8	-47.3	16.7	0.00e+00	0	40	0	30408704	63	4224
2026-01-22 08:28:37.90	125.69	4.94	-46.0	-47.5	16.5	0.00e+00	0	40	0	33554432	63	4320
2026-01-22 08:28:38.91	125.66	5.01	-46.0	-47.6	16.5	0.00e+00	0	40	0	36700160	63	4355
2026-01-22 08:28:39.92	125.63	5.08	-47.8	-50.0	14.0	0.00e+00	0	40	0	39845888	66	4859
2026-01-22 08:28:40.92	125.60	5.15	-48.9	-51.6	12.6	1.75e-05	0	40	0	42991616	68	5195
2026-01-22 08:28:41.93	125.57	5.22	-48.7	-51.5	12.6	1.83e-05	0	40	0	46137344	67	5448
2026-01-22 08:28:42.94	125.54	5.29	-45.3	-46.6	17.6	0.00e+00	0	40	0	49283072	61	4352
2026-01-22 08:28:43.95	125.51	5.36	-50.5	-55.1	8.9	6.14e-03	0	40	0	52428800	71	6509
2026-01-22 08:28:44.96	125.48	5.44	-45.3	-46.6	17.4	0.00e+00	0	40	0	55574528	62	4144
2026-01-22 08:28:45.96	125.45	5.51	-45.3	-46.6	17.5	0.00e+00	0	40	0	58720256	61	4362
2026-01-22 08:28:46.97	125.42	5.58	-44.9	-46.1	18.0	0.00e+00	0	40	0	61865984	61	4120
2026-01-22 08:28:47.98	125.38	5.65	-45.1	-46.3	17.8	0.00e+00	0	40	0	65011712	61	4239
2026-01-22 08:28:48.99	125.35	5.72	-44.4	-45.6	18.5	0.00e+00	0	40	0	68157440	60	4104
2026-01-22 08:28:50.00	125.32	5.80	-44.7	-45.9	18.2	0.00e+00	0	40	0	71303168	60	4290
2026-01-22 08:28:51.00	125.29	5.87	-44.7	-46.0	18.2	0.00e+00	0	40	0	74448896	60	4295
2026-01-22 08:28:52.01	125.26	5.94	-44.6	-45.8	18.3	0.00e+00	0	40	0	77594624	60	4221
2026-01-22 08:28:53.02	125.23	6.02	-45.0	-46.3	17.9	0.00e+00	0	40	0	80740352	60	4446
2026-01-22 08:28:54.03	125.19	6.09	-44.8	-46.0	18.2	0.00e+00	0	40	0	83886080	60	4319
2026-01-22 08:28:55.04	125.16	6.16	-44.8	-46.1	18.1	0.00e+00	0	40	0	87031808	60	4357
2026-01-22 08:28:56.05	125.13	6.24	-44.6	-45.8	18.4	0.00e+00	0	40	0	90177536	60	4219
2026-01-22 08:28:57.06	125.10	6.31	-44.4	-45.5	18.6	0.00e+00	0	40	0	93323264	60	4098
2026-01-22 08:28:58.06	125.06	6.39	-44.4	-45.5	18.6	0.00e+00	0	40	0	96468992	60	4085
2026-01-22 08:28:59.07	125.03	6.46	-44.7	-45.9	18.2	0.00e+00	0	40	0	99614720	60	4276
2026-01-22 08:29:00.08	125.00	6.54	-44.4	-45.5	18.6	0.00e+00	0	40	0	102760448	60	4078
2026-01-22 08:29:01.09	124.96	6.61	-44.4	-45.6	18.6	0.00e+00	0	40	0	105906176	60	4119
2026-01-22 08:29:02.10	124.93	6.69	-44.3	-45.5	18.7	0.00e+00	0	40	0	109051904	60	4058
2026-01-22 08:29:03.11	124.90	6.76	-44.5	-45.7	18.5	0.00e+00	0	40	0	112197632	60	4160
2026-01-22 08:29:04.11	124.86	6.84	-44.3	-45.4	18.8	0.00e+00	0	40	0	115343360	60	4031
2026-01-22 08:29:05.12	124.83	6.91	-44.4	-45.5	18.7	0.00e+00	0	40	0	118489088	60	4090
2026-01-22 08:29:06.13	124.79	6.99	-44.5	-45.7	18.5	0.00e+00	0	40	0	121634816	60	4175
2026-01-22 08:29:07.14	124.76	7.06	-44.8	-46.0	18.3	0.00e+00	0	40	0	124780544	60	4310
2026-01-22 08:29:08.14	124.72	7.14	-44.5	-45.6	18.6	0.00e+00	0	40	0	127926272	60	4129
2026-01-22 08:29:09.15	124.69	7.22	-44.4	-45.6	18.7	0.00e+00	0	40	0	131072000	60	4116
2026-01-22 08:29:10.16	124.65	7.29	-44.6	-45.8	18.5	0.00e+00	0	40	0	134217728	60	4229
2026-01-22 08:29:11.17	124.62	7.37	-44.2	-45.3	19.0	0.00e+00	0	40	0	137363456	60	3969
2026-01-22 08:29:12.18	124.58	7.45	-44.4	-45.5	18.8	0.00e+00	0	40	0	140509184	60	4083
2026-01-22 08:29:13.18	124.55	7.53	-44.2	-45.3	19.0	0.00e+00	0	40	0	143654912	60	4004
2026-01-22 08:29:14.19	124.51	7.60	-44.4	-45.6	18.8	0.00e+00	0	40	0	146800640	60	4111
2026-01-22 08:29:15.20	124.47	7.68	-44.5	-45.6	18.7	0.00e+00	0	40	0	149946368	60	4142
2026-01-22 08:29:16.20	124.44	7.76	-44.3	-45.5	18.9	0.00e+00	0	40	0	153092096	60	4058
2026-01-22 08:29:17.21	124.40	7.84	-44.3	-45.5	18.9	0.00e+00	0	40	0	156237824	60	4053
2026-01-22 08:29:18.22	124.36	7.92	-44.2	-45.3	19.0	0.00e+00	0	40	0	159383552	60	3995
2026-01-22 08:29:19.22	124.33	8.00	-44.0	-45.0	19.3	0.00e+00	0	40	0	162529280	60	3868
2026-01-22 08:29:20.23	124.29	8.07	-44.1	-45.2	19.1	0.00e+00	0	40	0	165675008	60	3955
2026-01-22 08:29:21.24	124.25	8.15	-44.3	-45.4	19.0	0.00e+00	0	40	0	168820736	60	4009
2026-01-22 08:29:22.25	124.22	8.23	-44.0	-45.1	19.3	0.00e+00	0	40	0	171966464	60	3889
2026-01-22 08:29:23.26	124.18	8.31	-44.4	-45.5	19.2	0.00e+00	0	40	0	175112192	59	4306
2026-01-22 08:29:24.26	124.14	8.39	-44.3	-45.4	19.4	0.00e+00	0	40	0	178257920	59	4246
2026-01-22 08:29:25.27	124.10	8.47	-44.3	-45.4	19.3	0.00e+00	0	40	0	181403648	59	4271
2026-01-22 08:29:26.28	124.06	8.55	-44.1	-45.1	19.6	0.00e+00	0	40	0	184549376	59	4128
2026-01-22 08:29:27.29	124.02	8.64	-44.2	-45.3	19.4	0.00e+00	0	40	0	187695104	59	4220
2026-01-22 08:29:28.30	123.98	8.72	-44.1	-45.2	19.6	0.00e+00	0	40	0	190840832	59	4165
2026-01-22 08:29:29.31	123.94	8.80	-44.3	-45.4	19.4	0.00e+00	0	40	0	193986560	59	4255
2026-01-22 08:29:30.31	123.90	8.88	-44.1	-45.2	19.6	0.00e+00	0	40	0	197132288	59	4156
2026-01-22 08:29:31.32	123.87	8.96	-44.0	-45.1	19.7	0.00e+00	0	40	0	200278016	59	4110
2026-01-22 08:29:32.33	123.82	9.04	-44.2	-45.2	19.5	0.00e+00	0	40	0	203423744	59	4180
2026-01-22 08:29:33.34	123.78	9.13	-44.1	-45.2	19.6	0.00e+00	0	40	0	206569472	59	4161
2026-01-22 08:29:34.35	123.74	9.21	-44.0	-45.1	19.7	0.00e+00	0	40	0	209715200	59	4110
2026-01-22 08:29:35.35	123.70	9.29	-43.9	-44.9	19.9	0.00e+00	0	40	0	212860928	59	4029
2026-01-22 08:29:36.36	123.66	9.37	-43.9	-44.9	19.9	0.00e+00	0	40	0	216006656	59	4038
2026-01-22 08:29:37.37	123.62	9.46	-43.9	-45.0	19.8	0.00e+00	0	40	0	219152384	59	4055
2026-01-22 08:29:38.38	123.58	9.54	-43.9	-44.9	19.9	0.00e+00	0	40	0	222298112	59	4038
2026-01-22 08:29:39.38	123.54	9.62	-43.8	-44.8	19.9	0.00e+00	0	40	0	225443840	59	3996
2026-01-22 08:29:40.39	123.50	9.71	-43.8	-44.9	19.9	0.00e+00	0	40	0	228589568	59	4008
2026-01-22 08:29:41.40	123.45	9.79	-44.0	-45.0	19.8	0.00e+00	0	40	0	231735296	59	4072
2026-01-22 08:29:42.41	123.41	9.88	-43.9	-44.9	19.9	0.00e+00	0	40	0	234881024	59	4022
2026-01-22 08:29:43.42	123.37	9.96	-43.8	-44.8	20.0	0.00e+00	0	40	0	238026752	59	3975
2026-01-22 08:29:44.42	123.32	10.05	-43.7	-44.7	20.0	0.00e+00	0	40	0	241172480	59	3956
2026-01-22 08:29:45.43	123.28	10.13	-43.7	-44.7	20.1	0.00e+00	0	40	0	244318208	59	3920
2026-01-22 08:29:46.44	123.24	10.22	-43.8	-44.8	20.0	0.00e+00	0	40	0	247463936	59	3970
2026-01-22 08:29:47.45	123.19	10.31	-43.6	-44.6	20.2	0.00e+00	0	40	0	251658240	59	3903
2026-01-22 08:29:48.45	123.15	10.39	-43.7	-44.7	20.1	0.00e+00	0	41	0	254803968	59	3934
2026-01-22 08:29:49.46	123.10	10.48	-43.7	-44.7	20.1	0.00e+00	0	40	0	257949696	59	3952
2026-01-22 08:29:50.47	123.06	10.56	-43.7	-44.7	20.2	0.00e+00	0	40	0	260046848	59	3919
2026-01-22 08:29:51.48	123.01	10.65	-43.4	-44.4	20.4	0.00e+00	0	41	0	263192576	58	4011
2026-01-22 08:29:52.48	122.97	10.74	-43.5	-44.5	20.3	0.00e+00	0	40	0	266338304	58	4082
2026-01-22 08:29:53.49	122.92	10.83	-43.6	-44.5	20.3	0.00e+00	0	40	0	269484032	58	4095
2026-01-22 08:29:54.50	122.88	10.92	-43.6	-44.5	20.3	0.00e+00	0	41	0	272629760	58	4094
2026-01-22 08:29:55.51	122.83	11.00	-43.5	-44.5	20.4	0.00e+00	0	40	0	275775488	58	4054
2026-01-22 08:29:56.52	122.78	11.09	-43.4	-44.4	20.4	0.00e+00	0	41	0	278921216	58	4034
2026-01-22 08:29:57.52	122.74	11.18	-43.4	-44.3	20.5	0.00e+00	0	41	0	282066944	58	3988
2026-01-22 08:29:58.53	122.69	11.27	-43.4	-44.3	20.5	0.00e+00	0	41	0	285212672	58	3986
2026-01-22 08:29:59.54	122.64	11.36	-43.4	-44.4	20.5	0.00e+00	0	40	0	289406976	58	4026
2026-01-22 08:30:00.55	122.59	11.45	-43.4	-44.3	20.5	0.00e+00	0	41	0	292552704	58	3996
2026-01-22 08:30:01.56	122.55	11.54	-43.3	-44.3	20.6	0.00e+00	0	40	0	295698432	58	3967
2026-01-22 08:30:02.56	122.50	11.63	-43.3	-44.3	20.6	0.00e+00	0	41	0	298844160	58	3975
2026-01-22 08:30:03.57	122.45	11.72	-43.3	-44.2	20.6	0.00e+00	0	41	0	301989888	58	3951
2026-01-22 08:30:04.58	122.40	11.81	-43.3	-44.2	20.7	0.00e+00	0	41	0	305135616	58	3934
2026-01-22 08:30:05.59	122.35	11.90	-43.3	-44.2	20.6	0.00e+00	0	40	0	307232768	58	3943
2026-01-22 08:30:06.60	122.30	12.00	-43.1	-44.1	20.8	0.00e+00	0	41	0	310378496	58	3874
2026-01-22 08:30:07.60	122.25	12.09	-43.1	-44.0	20.9	0.00e+00	0	41	0	313524224	58	3853
2026-01-22 08:30:08.61	122.20	12.18	-43.3	-44.2	20.7	0.00e+00	0	41	0	316669952	58	3930
2026-01-22 08:30:09.62	122.15	12.27	-43.1	-44.0	20.9	0.00e+00	0	41	0	319815680	58	3850
2026-01-22 08:30:10.63	122.10	12.37	-43.0	-43.9	21.0	0.00e+00	0	41	0	322961408	57	4023
2026-01-22 08:30:11.64	122.05	12.46	-43.1	-44.0	20.9	0.00e+00	0	41	0	327155712	57	4072
2026-01-22 08:30:12.64	122.00	12.55	-43.0	-43.9	20.9	0.00e+00	0	40	0	330301440	57	4038
2026-01-22 08:30:13.65	121.94	12.65	-43.0	-43.9	21.0	0.00e+00	0	40	0	333447168	57	4010
2026-01-22 08:30:14.66	121.89	12.74	-42.8	-43.6	21.2	0.00e+00	0	41	0	336592896	57	3907
2026-01-22 08:30:15.67	121.84	12.84	-42.9	-43.8	21.1	0.00e+00	0	40	0	339738624	57	3981
2026-01-22 08:30:16.68	121.78	12.93	-42.9	-43.8	21.1	0.00e+00	0	41	0	342884352	57	3975
2026-01-22 08:30:17.68	121.73	13.03	-42.8	-43.7	21.2	0.00e+00	0	41	0	346030080	57	3914
2026-01-22 08:30:18.69	121.68	13.12	-43.0	-43.9	21.0	0.00e+00	0	41	0	349175808	57	4020
2026-01-22 08:30:19.70	121.62	13.22	-42.9	-43.8	21.0	0.00e+00	0	41	0	352321536	57	3981
2026-01-22 08:30:20.71	121.57	13.32	-42.9	-43.8	21.0	0.00e+00	0	41	0	354418688	57	3990
2026-01-22 08:30:21.72	121.51	13.41	-42.8	-43.7	21.2	0.00e+00	0	40	0	357564416	57	3929
2026-01-22 08:30:22.72	121.46	13.51	-42.7	-43.6	21.2	0.00e+00	0	41	0	360710144	57	3884
2026-01-22 08:30:23.73	121.40	13.61	-42.9	-43.8	21.1	0.00e+00	0	41	0	363855872	57	3964
2026-01-22 08:30:24.74	121.35	13.71	-42.7	-43.6	21.2	0.00e+00	0	41	0	368050176	57	3884
2026-01-22 08:30:25.75	121.29	13.80	-42.8	-43.7	21.1	0.00e+00	0	40	0	371195904	57	3950
2026-01-22 08:30:26.76	121.23	13.90	-43.0	-43.9	21.0	0.00e+00	0	40	0	374341632	57	4039
2026-01-22 08:30:27.77	121.17	14.00	-43.2	-44.1	20.8	0.00e+00	0	41	0	377487360	57	4111
2026-01-22 08:30:28.77	121.12	14.10	-42.8	-43.7	21.2	0.00e+00	0	41	0	380633088	57	3927
2026-01-22 08:30:29.78	121.06	14.20	-42.9	-43.8	21.1	0.00e+00	0	41	0	383778816	57	3972
2026-01-22 08:30:30.79	121.00	14.30	-42.8	-43.6	21.2	0.00e+00	0	40	0	386924544	57	3912
2026-01-22 08:30:31.80	120.94	14.40	-42.9	-43.8	21.1	0.00e+00	0	41	0	390070272	57	3977
2026-01-22 08:30:32.81	120.88	14.50	-42.9	-43.8	21.1	0.00e+00	0	41	0	393216000	57	4004
2026-01-22 08:30:33.81	120.82	14.60	-42.8	-43.7	21.2	0.00e+00	0	40	0	396361728	57	3921
2026-01-22 08:30:34.82	120.76	14.71	-43.0	-43.9	21.1	0.00e+00	0	41	0	399507456	57	4013
2026-01-22 08:30:35.83	120.70	14.81	-43.0	-44.0	21.0	0.00e+00	0	41	0	401604608	57	4055
2026-01-22 08:30:36.84	120.64	14.91	-42.9	-43.8	21.2	0.00e+00	0	41	0	404750336	57	3961
2026-01-22 08:30:37.84	120.58	15.01	-43.0	-43.9	21.1	0.00e+00	0	40	0	408944640	57	4015
2026-01-22 08:30:38.85	120.52	15.12	-42.9	-43.8	21.1	0.00e+00	0	41	0	412090368	57	3983
2026-01-22 08:30:39.86	120.45	15.22	-43.0	-43.9	21.1	0.00e+00	0	41	0	415236096	57	4017
2026-01-22 08:30:40.87	120.39	15.32	-43.0	-43.9	21.1	0.00e+00	0	41	0	418381824	57	4018
2026-01-22 08:30:41.88	120.33	15.43	-43.1	-44.0	21.0	0.00e+00	0	41	0	421527552	57	4090
2026-01-22 08:30:42.89	120.26	15.53	-43.2	-44.2	20.9	0.00e+00	0	41	0	424673280	57	4148
2026-01-22 08:30:43.90	120.20	15.64	-43.1	-44.0	21.0	0.00e+00	0	41	0	427819008	57	4086
2026-01-22 08:30:44.90	120.13	15.74	-42.9	-43.7	21.2	0.00e+00	0	40	0	430964736	57	3958
2026-01-22 08:30:45.91	120.07	15.85	-42.9	-43.8	21.2	0.00e+00	0	41	0	434110464	57	3993
2026-01-22 08:30:46.92	120.00	15.96	-43.1	-44.0	21.1	0.00e+00	0	41	0	437256192	57	4052
2026-01-22 08:30:47.93	119.93	16.07	-42.9	-43.7	21.3	0.00e+00	0	41	0	440401920	57	3953
2026-01-22 08:30:48.94	119.87	16.17	-42.9	-43.8	21.2	0.00e+00	0	41	0	443547648	57	3979
2026-01-22 08:30:49.94	119.80	16.28	-43.0	-43.9	21.1	0.00e+00	0	41	0	446693376	57	4040
2026-01-22 08:30:50.95	119.73	16.39	-43.0	-43.9	21.1	0.00e+00	0	40	0	449839104	57	4047
2026-01-22 08:30:51.96	119.66	16.50	-42.9	-43.8	21.2	0.00e+00	0	41	0	452984832	57	3995
2026-01-22 08:30:52.97	119.59	16.61	-43.0	-43.9	21.1	0.00e+00	0	41	0	456130560	57	4040
2026-01-22 08:30:53.98	119.53	16.72	-42.9	-43.8	21.2	0.00e+00	0	41	0	459276288	57	3974
2026-01-22 08:30:54.98	119.46	16.83	-43.0	-43.8	21.2	0.00e+00	0	41	0	462422016	57	4003
2026-01-22 08:30:55.99	119.39	16.94	-42.9	-43.8	21.2	0.00e+00	0	41	0	465567744	57	3989
2026-01-22 08:30:57.00	119.31	17.05	-43.0	-43.8	21.2	0.00e+00	0	41	0	468713472	57	4004
2026-01-22 08:30:58.01	119.24	17.16	-43.1	-43.9	21.1	0.00e+00	0	41	0	471859200	57	4050
2026-01-22 08:30:59.02	119.17	17.27	-43.3	-44.2	20.9	0.00e+00	0	41	0	475004928	57	4161
2026-01-22 08:31:00.02	119.10	17.38	-43.3	-44.2	20.9	0.00e+00	0	41	0	478150656	57	4171
2026-01-22 08:31:01.03	119.02	17.50	-43.4	-44.4	20.8	0.00e+00	0	41	0	481296384	57	4251
2026-01-22 08:31:02.04	118.95	17.61	-43.3	-44.2	20.9	0.00e+00	0	40	0	484442112	57	4170
2026-01-22 08:31:03.05	118.88	17.72	-43.3	-44.2	20.9	0.00e+00	0	41	0	487587840	57	4155
2026-01-22 08:31:04.06	118.80	17.84	-43.3	-44.2	20.9	0.00e+00	0	41	0	490733568	57	4188
2026-01-22 08:31:05.06	118.73	17.95	-43.4	-44.3	20.8	0.00e+00	0	41	0	493879296	57	4234
2026-01-22 08:31:06.07	118.65	18.07	-43.5	-44.4	20.8	0.00e+00	0	41	0	497025024	57	4270
2026-01-22 08:31:07.08	118.57	18.18	-43.5	-44.5	20.7	0.00e+00	0	41	0	500170752	57	4310
2026-01-22 08:31:08.09	118.49	18.30	-43.5	-44.5	20.7	0.00e+00	0	41	0	503316480	57	4309
2026-01-22 08:31:09.10	118.42	18.42	-43.6	-44.5	20.7	0.00e+00	0	41	0	506462208	57	4319
2026-01-22 08:31:10.11	118.34	18.53	-43.5	-44.5	20.7	0.00e+00	0	41	0	509607936	57	4301
2026-01-22 08:31:11.11	118.26	18.65	-43.5	-44.5	20.7	0.00e+00	0	41	0	512753664	57	4307
2026-01-22 08:31:12.12	118.18	18.77	-43.5	-44.4	20.8	0.00e+00	0	41	0	515899392	57	4291
2026-01-22 08:31:13.13	118.10	18.89	-43.6	-44.5	20.7	0.00e+00	0	41	0	519045120	57	4334
2026-01-22 08:31:14.14	118.02	19.01	-43.7	-44.6	20.6	0.00e+00	0	41	0	522190848	57	4380
2026-01-22 08:31:15.14	117.94	19.13	-43.5	-44.4	20.8	0.00e+00	0	41	0	525336576	57	4271
2026-01-22 08:31:16.15	117.85	19.25	-43.4	-44.3	20.9	0.00e+00	0	41	0	528482304	57	4214
2026-01-22 08:31:17.16	117.77	19.37	-43.3	-44.3	21.0	0.00e+00	0	41	0	531628032	57	4200
2026-01-22 08:31:18.17	117.68	19.49	-43.4	-44.3	20.9	0.00e+00	0	41	0	534773760	57	4211
2026-01-22 08:31:19.18	117.60	19.61	-43.3	-44.2	21.0	0.00e+00	0	40	0	537919488	57	4168
2026-01-22 08:31:20.19	117.51	19.74	-43.0	-43.9	21.3	0.00e+00	0	41	0	541065216	57	4040
2026-01-22 08:31:21.20	117.43	19.86	-43.0	-43.9	21.3	0.00e+00	0	41	0	544210944	57	4021
2026-01-22 08:31:22.20	117.34	19.98	-43.2	-44.1	21.2	0.00e+00	0	41	0	547356672	57	4105
2026-01-22 08:31:23.21	117.25	20.10	-43.0	-43.9	21.3	0.00e+00	0	41	0	550502400	57	4026
2026-01-22 08:31:24.22	117.17	20.23	-42.8	-43.7	21.5	0.00e+00	0	41	0	553648128	57	3917
2026-01-22 08:31:25.23	117.08	20.35	-42.8	-43.6	21.5	0.00e+00	0	41	0	556793856	57	3891
2026-01-22 08:31:26.24	116.99	20.48	-42.6	-43.5	21.7	0.00e+00	0	41	0	559939584	57	3833
2026-01-22 08:31:27.24	116.90	20.61	-42.6	-43.5	21.7	0.00e+00	0	41	0	563085312	57	3835
2026-01-22 08:31:28.25	116.81	20.73	-42.6	-43.5	21.7	0.00e+00	0	41	0	566231040	57	3832
2026-01-22 08:31:29.26	116.71	20.86	-42.5	-43.3	21.8	0.00e+00	0	41	0	569376768	57	3767
2026-01-22 08:31:30.27	116.62	20.99	-42.5	-43.3	21.8	0.00e+00	0	41	0	572522496	56	3982
2026-01-22 08:31:31.28	116.53	21.12	-42.4	-43.3	21.9	0.00e+00	0	41	0	575668224	56	3965
2026-01-22 08:31:32.28	116.43	21.24	-42.4	-43.2	21.8	0.00e+00	0	41	0	578813952	56	3957
2026-01-22 08:31:33.29	116.34	21.37	-42.3	-43.1	21.9	0.00e+00	0	41	0	581959680	56	3910
2026-01-22 08:31:34.30	116.24	21.51	-42.2	-43.0	22.1	0.00e+00	0	41	0	585105408	56	3840
2026-01-22 08:31:35.31	116.14	21.64	-42.1	-43.0	22.1	0.00e+00	0	41	0	588251136	56	3831
2026-01-22 08:31:36.32	116.05	21.77	-42.0	-42.8	22.2	0.00e+00	0	41	0	591396864	56	3768
2026-01-22 08:31:37.32	115.95	21.90	-42.0	-42.8	22.3	0.00e+00	0	41	0	594542592	56	3766
2026-01-22 08:31:38.33	115.85	22.03	-42.1	-42.9	22.2	0.00e+00	0	41	0	597688320	56	3799
2026-01-22 08:31:39.34	115.75	22.16	-41.8	-42.5	22.4	0.00e+00	0	41	0	600834048	55	3864
2026-01-22 08:31:40.34	115.65	22.30	-41.7	-42.5	22.5	0.00e+00	0	41	0	603979776	55	3840
2026-01-22 08:31:41.35	115.54	22.43	-41.9	-42.7	22.3	0.00e+00	0	41	0	607125504	55	3923
2026-01-22 08:31:42.36	115.44	22.57	-41.7	-42.5	22.5	0.00e+00	0	41	0	610271232	55	3830
2026-01-22 08:31:43.37	115.34	22.70	-41.6	-42.4	22.5	0.00e+00	0	41	0	613416960	55	3806
2026-01-22 08:31:44.38	115.23	22.84	-41.4	-42.2	22.7	0.00e+00	0	41	0	616562688	54	3945
2026-01-22 08:31:45.39	115.13	22.98	-41.5	-42.2	22.7	0.00e+00	0	41	0	619708416	54	3950
2026-01-22 08:31:46.39	115.02	23.11	-41.5	-42.3	22.6	0.00e+00	0	41	0	622854144	54	3959
2026-01-22 08:31:47.40	114.91	23.25	-41.5	-42.3	22.6	0.00e+00	0	41	0	625999872	54	3976
2026-01-22 08:31:48.41	114.80	23.39	-41.6	-42.4	22.5	0.00e+00	0	41	0	629145600	54	4041
2026-01-22 08:31:49.42	114.69	23.53	-41.7	-42.5	22.4	0.00e+00	0	41	0	632291328	54	4077
2026-01-22 08:31:50.43	114.58	23.67	-41.7	-42.5	22.4	0.00e+00	0	41	0	635437056	54	4089
2026-01-22 08:31:51.43	114.47	23.81	-41.8	-42.6	22.3	0.00e+00	0	41	0	638582784	54	4144
2026-01-22 08:31:52.44	114.36	23.95	-41.9	-42.7	22.3	0.00e+00	0	41	0	641728512	54	4171
2026-01-22 08:31:53.45	114.24	24.09	-41.9	-42.7	22.3	0.00e+00	0	41	0	644874240	54	4179
2026-01-22 08:31:54.45	114.13	24.23	-42.0	-42.8	22.2	0.00e+00	0	41	0	648019968	54	4228
2026-01-22 08:31:55.47	114.01	24.38	-42.0	-42.9	22.2	0.00e+00	0	41	0	651165696	54	4243
2026-01-22 08:31:56.47	113.90	24.52	-41.9	-42.7	22.3	0.00e+00	0	41	0	654311424	54	4192
2026-01-22 08:31:57.48	113.78	24.66	-42.0	-42.8	22.2	0.00e+00	0	41	0	657457152	54	4229
2026-01-22 08:31:58.49	113.66	24.81	-42.0	-42.8	22.2	0.00e+00	0	41	0	660602880	54	4226
2026-01-22 08:31:59.50	113.54	24.96	-42.0	-42.8	22.2	0.00e+00	0	41	0	663748608	54	4216
2026-01-22 08:32:00.50	113.42	25.10	-41.9	-42.7	22.3	0.00e+00	0	41	0	666894336	54	4181
2026-01-22 08:32:01.51	113.29	25.25	-42.0	-42.8	22.2	0.00e+00	0	41	0	670040064	54	4233
2026-01-22 08:32:02.52	113.17	25.40	-42.1	-42.9	22.1	0.00e+00	0	41	0	673185792	54	4275
2026-01-22 08:32:03.53	113.04	25.54	-42.2	-43.0	22.1	0.00e+00	0	41	0	676331520	54	4294
2026-01-22 08:32:04.54	112.92	25.69	-42.3	-43.1	22.0	0.00e+00	0	41	0	679477248	55	4125
2026-01-22 08:32:05.55	112.79	25.84	-42.4	-43.2	21.9	0.00e+00	0	41	0	682622976	55	4158
2026-01-22 08:32:06.55	112.66	25.99	-42.5	-43.3	21.7	0.00e+00	0	41	0	685768704	55	4232
2026-01-22 08:32:07.56	112.53	26.14	-42.5	-43.4	21.7	0.00e+00	0	41	0	688914432	55	4261
2026-01-22 08:32:08.57	112.40	26.30	-42.8	-43.7	21.5	0.00e+00	0	41	0	692060160	56	4163
2026-01-22 08:32:09.57	112.27	26.45	-42.8	-43.6	21.6	0.00e+00	0	41	0	695205888	56	4141
2026-01-22 08:32:10.58	112.13	26.60	-42.9	-43.8	21.4	0.00e+00	0	41	0	698351616	56	4218
2026-01-22 08:32:11.59	112.00	26.75	-42.9	-43.8	21.5	0.00e+00	0	41	0	701497344	56	4222
2026-01-22 08:32:12.60	111.86	26.91	-43.0	-43.9	21.4	0.00e+00	0	41	0	704643072	56	4255
2026-01-22 08:32:13.61	111.72	27.07	-43.0	-43.8	21.5	0.00e+00	0	41	0	707788800	56	4230
2026-01-22 08:32:14.61	111.58	27.22	-43.0	-43.9	21.4	0.00e+00	0	41	0	710934528	56	4266
2026-01-22 08:32:15.62	111.44	27.38	-43.1	-44.0	21.4	0.00e+00	0	41	0	714080256	56	4296
2026-01-22 08:32:16.63	111.30	27.53	-43.0	-43.9	21.5	0.00e+00	0	41	0	717225984	56	4245
2026-01-22 08:32:17.64	111.16	27.69	-42.9	-43.7	21.5	0.00e+00	0	41	0	720371712	56	4171
2026-01-22 08:32:18.64	111.01	27.85	-43.0	-43.9	21.4	0.00e+00	0	41	0	723517440	56	4269
2026-01-22 08:32:19.65	110.87	28.01	-42.8	-43.7	21.5	0.00e+00	0	41	0	726663168	56	4149
2026-01-22 08:32:20.66	110.72	28.17	-42.9	-43.7	21.4	0.00e+00	0	41	0	729808896	56	4184
2026-01-22 08:32:21.67	110.57	28.33	-42.9	-43.8	21.3	0.00e+00	0	41	0	732954624	56	4217
2026-01-22 08:32:22.68	110.42	28.49	-43.0	-43.8	21.3	0.00e+00	0	41	0	736100352	56	4240
2026-01-22 08:32:23.69	110.26	28.65	-43.0	-43.9	21.3	0.00e+00	0	41	0	739246080	56	4247
2026-01-22 08:32:24.69	110.11	28.82	-43.1	-44.0	21.2	0.00e+00	0	41	0	742391808	56	4310
2026-01-22 08:32:25.70	109.95	28.98	-43.1	-44.0	21.2	0.00e+00	0	41	0	745537536	56	4303
2026-01-22 08:32:26.71	109.80	29.15	-43.1	-44.0	21.3	0.00e+00	0	41	0	748683264	56	4333
2026-01-22 08:32:27.72	109.64	29.31	-43.0	-43.9	21.4	0.00e+00	0	40	0	751828992	56	4248
2026-01-22 08:32:28.72	109.48	29.47	-43.1	-44.0	21.3	0.00e+00	0	41	0	754974720	56	4330
2026-01-22 08:32:29.73	109.31	29.64	-42.8	-43.7	21.5	0.00e+00	0	41	0	758120448	56	4172
2026-01-22 08:32:30.74	109.15	29.81	-42.7	-43.5	21.7	0.00e+00	0	41	0	761266176	56	4089
2026-01-22 08:32:31.75	108.98	29.98	-42.6	-43.5	21.8	0.00e+00	0	41	0	764411904	56	4055
2026-01-22 08:32:32.76	108.82	30.15	-42.8	-43.6	21.6	0.00e+00	0	41	0	767557632	56	4123
2026-01-22 08:32:33.77	108.65	30.32	-42.5	-43.4	21.8	0.00e+00	0	41	0	770703360	56	4010
2026-01-22 08:32:34.78	108.47	30.49	-42.4	-43.3	21.9	0.00e+00	0	41	0	773849088	56	3963
2026-01-22 08:32:35.79	108.30	30.66	-42.6	-43.4	21.6	0.00e+00	0	41	0	776994816	56	4016
2026-01-22 08:32:36.79	108.13	30.83	-42.8	-43.6	21.3	0.00e+00	0	41	0	780140544	56	4140
2026-01-22 08:32:37.81	107.95	31.00	-43.0	-43.8	21.2	0.00e+00	0	40	0	783286272	56	4233
2026-01-22 08:32:38.81	107.77	31.17	-42.9	-43.8	21.2	0.00e+00	0	41	0	786432000	56	4233
2026-01-22 08:32:39.82	107.59	31.35	-43.1	-43.9	21.1	0.00e+00	0	41	0	789577728	56	4290
2026-01-22 08:32:40.83	107.41	31.52	-43.0	-43.9	21.3	0.00e+00	0	41	0	792723456	56	4286
2026-01-22 08:32:41.84	107.22	31.70	-43.0	-43.9	21.4	0.00e+00	0	41	0	795869184	56	4245
2026-01-22 08:32:42.85	107.03	31.87	-42.8	-43.7	21.6	0.00e+00	0	41	0	799014912	56	4167
2026-01-22 08:32:43.86	106.84	32.05	-42.8	-43.6	21.7	0.00e+00	0	41	0	802160640	56	4138
2026-01-22 08:32:44.86	106.65	32.22	-42.8	-43.6	21.7	0.00e+00	0	41	0	805306368	56	4120
2026-01-22 08:32:45.87	106.46	32.40	-42.8	-43.7	21.6	0.00e+00	0	41	0	808452096	56	4158
2026-01-22 08:32:46.87	106.27	32.58	-42.7	-43.6	21.7	0.00e+00	0	41	0	811597824	56	4100
2026-01-22 08:32:47.88	106.07	32.76	-42.7	-43.5	21.7	0.00e+00	0	41	0	814743552	56	4077
2026-01-22 08:32:48.89	105.87	32.94	-42.6	-43.4	21.7	0.00e+00	0	41	0	817889280	56	4046
2026-01-22 08:32:49.90	105.67	33.12	-42.8	-43.7	21.5	0.00e+00	0	41	0	821035008	56	4151
2026-01-22 08:32:50.91	105.46	33.30	-42.7	-43.6	21.6	0.00e+00	0	41	0	824180736	56	4100
2026-01-22 08:32:51.92	105.26	33.48	-43.1	-43.9	21.3	0.00e+00	0	41	0	827326464	56	4285
2026-01-22 08:32:52.92	105.05	33.66	-43.3	-44.2	21.1	0.00e+00	0	41	0	830472192	57	4180
2026-01-22 08:32:53.93	104.84	33.85	-43.4	-44.4	21.0	0.00e+00	0	41	0	833617920	57	4248
2026-01-22 08:32:54.94	104.62	34.03	-43.6	-44.6	20.9	0.00e+00	0	40	0	836763648	57	4345
2026-01-22 08:32:55.95	104.41	34.21	-43.6	-44.5	20.9	0.00e+00	0	41	0	839909376	57	4321
2026-01-22 08:32:56.96	104.19	34.40	-43.5	-44.4	21.1	0.00e+00	0	41	0	843055104	57	4254
2026-01-22 08:32:57.97	103.96	34.59	-43.6	-44.5	21.0	0.00e+00	0	41	0	846200832	57	4298
2026-01-22 08:32:58.98	103.74	34.77	-43.6	-44.5	21.0	0.00e+00	0	41	0	849346560	57	4294
2026-01-22 08:32:59.99	103.51	34.96	-43.8	-44.7	20.8	0.00e+00	0	41	0	852492288	58	4186
2026-01-22 08:33:01.00	103.28	35.15	-43.9	-44.9	20.7	0.00e+00	0	41	0	855638016	58	4250
2026-01-22 08:33:02.00	103.05	35.33	-43.9	-44.9	20.6	0.00e+00	0	41	0	858783744	58	4255
2026-01-22 08:33:03.01	102.82	35.52	-44.1	-45.1	20.4	0.00e+00	0	41	0	861929472	58	4372
2026-01-22 08:33:04.02	102.58	35.71	-44.4	-45.4	20.2	0.00e+00	0	41	0	865075200	59	4274
2026-01-22 08:33:05.02	102.34	35.90	-44.6	-45.6	19.9	0.00e+00	0	41	0	868220928	59	4386
2026-01-22 08:33:06.03	102.10	36.09	-44.6	-45.7	19.9	0.00e+00	0	41	0	871366656	59	4416
2026-01-22 08:33:07.04	101.85	36.28	-44.3	-45.3	19.9	0.00e+00	0	41	0	874512384	60	3999
2026-01-22 08:33:08.05	101.61	36.47	-44.1	-45.1	20.1	0.00e+00	0	41	0	877658112	60	3903
2026-01-22 08:33:09.06	101.35	36.66	-44.1	-45.1	20.3	0.00e+00	0	41	0	880803840	60	3871
2026-01-22 08:33:10.04	101.11	36.85	-44.2	-45.2	20.2	0.00e+00	0	41	0	883949568	60	3924
2026-01-22 08:33:11.04	100.85	37.04	-44.3	-45.2	20.1	0.00e+00	0	41	0	887095296	60	3958
2026-01-22 08:33:12.04	100.59	37.23	-44.5	-45.5	19.9	0.00e+00	0	41	0	890241024	60	4058
2026-01-22 08:33:13.05	100.33	37.43	-44.8	-45.8	19.6	0.00e+00	0	41	0	893386752	60	4224
2026-01-22 08:33:14.06	100.06	37.62	-44.6	-45.6	19.7	0.00e+00	0	41	0	896532480	60	4127
2026-01-22 08:33:15.07	99.79	37.81	-44.5	-45.6	19.8	0.00e+00	0	41	0	899678208	60	4108
2026-01-22 08:33:16.08	99.52	38.01	-44.4	-45.4	19.9	0.00e+00	0	41	0	902823936	60	4045
2026-01-22 08:33:17.08	99.24	38.20	-44.4	-45.4	20.0	0.00e+00	0	41	0	905969664	60	4016
2026-01-22 08:33:18.09	98.96	38.40	-44.1	-45.0	20.3	0.00e+00	0	41	0	909115392	60	3868
2026-01-22 08:33:19.10	98.68	38.59	-44.1	-45.1	20.3	0.00e+00	0	41	0	912261120	60	3878
2026-01-22 08:33:20.11	98.39	38.79	-44.1	-45.0	20.3	0.00e+00	0	41	0	915406848	60	3859
2026-01-22 08:33:21.12	98.10	38.99	-44.3	-45.3	20.3	0.00e+00	0	41	0	918552576	59	4216
2026-01-22 08:33:22.12	97.81	39.18	-44.4	-45.3	20.3	0.00e+00	0	41	0	921698304	59	4239
2026-01-22 08:33:23.13	97.51	39.38	-44.2	-45.2	20.4	0.00e+00	0	41	0	924844032	59	4161
2026-01-22 08:33:24.14	97.21	39.58	-44.2	-45.1	20.5	0.00e+00	0	41	0	927989760	59	4116
2026-01-22 08:33:25.15	96.90	39.77	-44.1	-45.0	20.4	0.00e+00	0	41	0	931135488	59	4081
2026-01-22 08:33:26.16	96.59	39.97	-44.3	-45.2	20.1	0.00e+00	0	41	0	934281216	59	4182
2026-01-22 08:33:27.17	96.28	40.17	-44.4	-45.4	20.0	0.00e+00	0	41	0	937426944	59	4243
2026-01-22 08:33:28.18	95.96	40.37	-44.5	-45.5	20.0	0.00e+00	0	41	0	940572672	59	4306
2026-01-22 08:33:29.19	95.64	40.56	-44.3	-45.3	20.2	0.00e+00	0	41	0	943718400	59	4218
2026-01-22 08:33:30.19	95.32	40.76	-44.4	-45.4	20.1	0.00e+00	0	41	0	946864128	59	4250
2026-01-22 08:33:31.20	94.99	40.96	-44.5	-45.5	20.0	0.00e+00	0	41	0	950009856	59	4334
2026-01-22 08:33:32.21	94.66	41.16	-44.7	-45.7	19.9	0.00e+00	0	41	0	953155584	59	4423
2026-01-22 08:33:33.21	94.32	41.35	-44.5	-45.6	19.6	0.00e+00	0	41	0	956301312	60	4102
2026-01-22 08:33:34.22	93.98	41.55	-44.8	-46.0	19.3	0.00e+00	0	41	0	959447040	60	4293
2026-01-22 08:33:35.23	93.64	41.75	-45.2	-46.4	18.9	0.00e+00	0	41	0	962592768	60	4497
2026-01-22 08:33:36.24	93.29	41.95	-45.4	-46.6	18.7	0.00e+00	0	41	0	965738496	61	4363
2026-01-22 08:33:37.25	92.93	42.14	-45.6	-46.8	18.6	0.00e+00	0	41	0	968884224	61	4464
2026-01-22 08:33:38.26	92.57	42.34	-45.3	-46.4	19.0	0.00e+00	0	41	0	972029952	61	4258
2026-01-22 08:33:39.27	92.21	42.54	-45.3	-46.5	19.0	0.00e+00	0	41	0	975175680	61	4296
2026-01-22 08:33:40.28	91.84	42.73	-45.1	-46.2	19.2	0.00e+00	0	41	0	978321408	61	4175
2026-01-22 08:33:41.29	91.47	42.93	-45.1	-46.1	19.3	0.00e+00	0	41	0	981467136	61	4134
2026-01-22 08:33:42.29	91.10	43.12	-45.1	-46.2	19.2	0.00e+00	0	41	0	984612864	61	4165
2026-01-22 08:33:43.30	90.72	43.32	-45.3	-46.4	19.0	0.00e+00	0	41	0	987758592	61	4281
2026-01-22 08:33:44.31	90.33	43.51	-45.5	-46.6	18.8	0.00e+00	0	41	0	990904320	61	4381
2026-01-22 08:33:45.32	89.94	43.71	-45.5	-46.7	18.8	0.00e+00	0	41	0	994050048	61	4417
2026-01-22 08:33:46.33	89.55	43.90	-45.3	-46.4	19.0	0.00e+00	0	41	0	997195776	61	4282
2026-01-22 08:33:47.34	89.15	44.10	-45.2	-46.3	19.2	0.00e+00	0	41	0	1001390080	61	4201
2026-01-22 08:33:48.35	88.74	44.29	-45.1	-46.2	19.3	0.00e+00	0	41	0	1003487232	61	4154
2026-01-22 08:33:49.36	88.33	44.48	-45.1	-46.2	19.2	0.00e+00	0	41	0	1006632960	61	4187
2026-01-22 08:33:50.36	87.92	44.67	-45.3	-46.4	19.0	0.00e+00	0	41	0	1009778688	61	4257
2026-01-22 08:33:51.37	87.50	44.86	-45.2	-46.3	19.1	0.00e+00	0	41	0	1012924416	61	4237
2026-01-22 08:33:52.38	87.08	45.05	-45.2	-46.3	19.1	0.00e+00	0	41	0	1016070144	61	4237
2026-01-22 08:33:53.39	86.64	45.24	-45.1	-46.2	19.2	0.00e+00	0	41	0	1019215872	61	4146
2026-01-22 08:33:54.40	86.21	45.43	-45.0	-46.1	19.3	0.00e+00	0	41	0	1022361600	61	4119
2026-01-22 08:33:55.41	85.77	45.62	-44.7	-45.7	19.6	0.00e+00	0	41	0	1025507328	61	3941
2026-01-22 08:33:56.42	85.32	45.80	-44.8	-45.8	19.5	0.00e+00	0	41	0	1028653056	61	3997
2026-01-22 08:33:57.43	84.87	45.99	-44.8	-45.8	19.6	0.00e+00	0	41	0	1031798784	61	4003
2026-01-22 08:33:58.44	84.41	46.17	-44.9	-46.0	19.4	0.00e+00	0	41	0	1035993088	61	4062
2026-01-22 08:33:59.45	83.95	46.35	-45.0	-46.1	19.3	0.00e+00	0	41	0	1039138816	61	4101
2026-01-22 08:34:00.46	83.49	46.54	-45.0	-46.0	19.3	0.00e+00	0	41	0	1042284544	61	4092
2026-01-22 08:34:01.46	83.02	46.71	-44.8	-45.9	19.5	0.00e+00	0	41	0	1045430272	61	4028
2026-01-22 08:34:02.47	82.54	46.89	-44.7	-45.7	19.6	0.00e+00	0	41	0	1048576000	61	3947
2026-01-22 08:34:03.48	82.06	47.07	-44.3	-45.3	20.1	0.00e+00	0	41	0	1050673152	60	3976
2026-01-22 08:34:04.49	81.57	47.24	-44.3	-45.2	20.2	0.00e+00	0	41	0	1053818880	60	3946
2026-01-22 08:34:05.50	81.07	47.42	-44.5	-45.5	20.0	0.00e+00	0	41	0	1056964608	60	4057
2026-01-22 08:34:06.50	80.58	47.59	-44.7	-45.7	19.7	0.00e+00	0	41	0	1060110336	60	4188
2026-01-22 08:34:07.51	80.07	47.76	-44.5	-45.5	19.9	0.00e+00	0	41	0	1063256064	60	4074
2026-01-22 08:34:08.52	79.56	47.93	-44.3	-45.3	20.1	0.00e+00	0	41	0	1066401792	60	3975
2026-01-22 08:34:09.53	79.04	48.09	-44.5	-45.4	20.0	0.00e+00	0	41	0	1069547520	60	4051
2026-01-22 08:34:10.54	78.52	48.26	-44.4	-45.4	20.0	0.00e+00	0	41	0	1072693248	60	4026
2026-01-22 08:34:11.54	78.00	48.42	-44.4	-45.4	19.9	0.00e+00	0	41	0	1076887552	60	4019
2026-01-22 08:34:12.55	77.46	48.58	-44.4	-45.4	19.9	0.00e+00	0	41	0	1080033280	60	4040
2026-01-22 08:34:13.56	76.92	48.74	-44.4	-45.4	20.0	0.00e+00	0	41	0	1083179008	60	4043
2026-01-22 08:34:14.57	76.38	48.90	-44.4	-45.4	20.1	0.00e+00	0	41	0	1086324736	60	4006
2026-01-22 08:34:15.58	75.83	49.05	-44.2	-45.1	20.3	0.00e+00	0	41	0	1089470464	60	3904
2026-01-22 08:34:16.58	75.28	49.20	-44.4	-45.3	20.1	0.00e+00	0	41	0	1092616192	60	3996
2026-01-22 08:34:17.59	74.72	49.35	-44.3	-45.2	20.2	0.00e+00	0	41	0	1095761920	60	3948
2026-01-22 08:34:18.60	74.15	49.50	-44.3	-45.2	20.1	0.00e+00	0	41	0	1097859072	60	3953
2026-01-22 08:34:19.61	73.58	49.64	-44.4	-45.4	20.1	0.00e+00	0	41	0	1101004800	60	4012
2026-01-22 08:34:20.62	73.00	49.78	-44.2	-45.1	20.3	0.00e+00	0	41	0	1104150528	60	3888
2026-01-22 08:34:21.62	72.42	49.92	-44.3	-45.3	20.4	0.00e+00	0	41	0	1107296256	59	4207
2026-01-22 08:34:22.63	71.84	50.06	-44.0	-45.0	20.5	0.00e+00	0	41	0	1110441984	59	4069
2026-01-22 08:34:23.64	71.24	50.19	-44.2	-45.1	20.4	0.00e+00	0	41	0	1113587712	59	4141
2026-01-22 08:34:24.64	70.65	50.32	-44.4	-45.4	20.3	0.00e+00	0	41	0	1117782016	59	4255
2026-01-22 08:34:25.65	70.05	50.45	-44.6	-45.6	19.8	0.00e+00	0	41	0	1120927744	60	4133
2026-01-22 08:34:26.66	69.44	50.57	-44.7	-45.7	19.7	0.00e+00	0	41	0	1124073472	60	4171
2026-01-22 08:34:27.67	68.82	50.69	-44.6	-45.7	19.7	0.00e+00	0	41	0	1127219200	60	4159
2026-01-22 08:34:28.68	68.20	50.81	-44.2	-45.1	20.0	0.00e+00	0	41	0	1130364928	60	3907
2026-01-22 08:34:29.69	67.58	50.93	-44.4	-45.4	19.8	0.00e+00	0	41	0	1133510656	60	4046
2026-01-22 08:34:30.70	66.95	51.04	-44.6	-45.6	19.8	0.00e+00	0	41	0	1136656384	60	4121
2026-01-22 08:34:31.70	66.32	51.15	-44.3	-45.3	20.1	0.00e+00	0	41	0	1139802112	60	3963
2026-01-22 08:34:32.71	65.69	51.25	-44.3	-45.3	20.1	0.00e+00	0	41	0	1142947840	60	3977
2026-01-22 08:34:33.72	65.05	51.35	-44.8	-45.9	19.6	0.00e+00	0	41	0	1145044992	60	4245
2026-01-22 08:34:34.73	64.40	51.45	-44.7	-45.8	19.7	0.00e+00	0	41	0	1148190720	60	4213
2026-01-22 08:34:35.74	63.75	51.54	-44.8	-45.9	19.5	0.00e+00	0	41	0	1151336448	60	4269
2026-01-22 08:34:36.75	63.09	51.63	-44.4	-45.5	20.0	0.00e+00	0	41	0	1155530752	60	4053
2026-01-22 08:34:37.75	62.44	51.72	-44.2	-45.1	20.3	0.00e+00	0	41	0	1158676480	60	3900
2026-01-22 08:34:38.76	61.78	51.80	-44.1	-45.1	20.3	0.00e+00	0	41	0	1161822208	60	3888
2026-01-22 08:34:39.77	61.12	51.88	-44.1	-45.1	20.2	0.00e+00	0	41	0	1164967936	60	3885
2026-01-22 08:34:40.78	60.45	51.95	-44.2	-45.2	20.1	0.00e+00	0	41	0	1168113664	60	3924
2026-01-22 08:34:41.78	59.78	52.03	-44.1	-45.1	20.3	0.00e+00	0	41	0	1171259392	60	3873
2026-01-22 08:34:42.79	59.11	52.09	-44.0	-44.9	20.2	0.00e+00	0	41	0	1174405120	60	3821
2026-01-22 08:34:43.80	58.43	52.15	-44.1	-45.1	20.0	0.00e+00	0	41	0	1177550848	60	3882
2026-01-22 08:34:44.81	57.75	52.21	-44.0	-45.0	19.9	0.00e+00	0	41	0	1180696576	60	3836
2026-01-22 08:34:45.82	57.06	52.27	-44.4	-45.4	19.9	0.00e+00	0	41	0	1183842304	59	4251
2026-01-22 08:34:46.83	56.38	52.32	-44.4	-45.4	20.1	0.00e+00	0	41	0	1186988032	59	4288
2026-01-22 08:34:47.84	55.69	52.36	-44.4	-45.4	20.2	0.00e+00	0	41	0	1190133760	59	4282
2026-01-22 08:34:48.84	55.00	52.41	-44.4	-45.4	19.9	0.00e+00	0	41	0	1193279488	60	4035
2026-01-22 08:34:49.85	54.31	52.44	-44.2	-45.2	20.1	0.00e+00	0	41	0	1196425216	60	3934
2026-01-22 08:34:50.86	53.62	52.48	-44.0	-45.0	20.4	0.00e+00	0	41	0	1199570944	60	3840
2026-01-22 08:34:51.87	52.92	52.51	-44.3	-45.2	20.4	0.00e+00	0	41	0	1202716672	59	4190
2026-01-22 08:34:52.88	52.23	52.53	-43.8	-44.7	20.9	0.00e+00	0	41	0	1205862400	59	3927
2026-01-22 08:34:53.88	51.53	52.55	-43.8	-44.7	20.8	0.00e+00	0	41	0	1209008128	59	3944
2026-01-22 08:34:54.89	50.84	52.57	-43.7	-44.6	21.0	0.00e+00	0	41	0	1212153856	59	3892
2026-01-22 08:34:55.90	50.14	52.58	-43.6	-44.5	21.1	0.00e+00	0	41	0	1215299584	59	3832
2026-01-22 08:34:56.91	49.44	52.58	-43.6	-44.4	21.1	0.00e+00	0	41	0	1218445312	59	3821
2026-01-22 08:34:57.92	48.74	52.59	-43.2	-44.1	21.3	0.00e+00	0	41	0	1221591040	58	3881
2026-01-22 08:34:58.92	48.04	52.59	-43.2	-44.0	21.4	0.00e+00	0	41	0	1224736768	58	3848
2026-01-22 08:34:59.93	47.35	52.58	-43.0	-43.9	21.6	0.00e+00	0	41	0	1227882496	57	4012
2026-01-22 08:35:00.94	46.65	52.57	-43.4	-44.2	21.2	0.00e+00	0	41	0	1231028224	57	4189
2026-01-22 08:35:01.95	45.95	52.55	-43.9	-44.8	20.7	0.00e+00	0	41	0	1234173952	58	4204
2026-01-22 08:35:02.96	45.25	52.53	-43.6	-44.5	20.9	0.00e+00	0	41	0	1237319680	58	4088
2026-01-22 08:35:03.96	44.56	52.51	-43.7	-44.6	20.8	0.00e+00	0	41	0	1240465408	58	4129
2026-01-22 08:35:04.97	43.86	52.48	-43.4	-44.3	21.1	0.00e+00	0	41	0	1243611136	58	3977
2026-01-22 08:35:05.98	43.17	52.45	-43.2	-44.0	21.4	0.00e+00	0	41	0	1246756864	58	3843
2026-01-22 08:35:06.99	42.48	52.41	-43.2	-44.1	21.4	0.00e+00	0	41	0	1249902592	58	3874
2026-01-22 08:35:08.00	41.79	52.37	-43.3	-44.1	21.4	0.00e+00	0	41	0	1253048320	58	3901
2026-01-22 08:35:09.00	41.11	52.33	-43.7	-44.6	20.9	0.00e+00	0	41	0	1256194048	58	4112
2026-01-22 08:35:10.01	40.42	52.28	-44.0	-44.9	20.6	0.00e+00	0	41	0	1259339776	58	4291
2026-01-22 08:35:11.02	39.74	52.22	-44.1	-45.1	20.4	0.00e+00	0	41	0	1262485504	58	4353
2026-01-22 08:35:12.03	39.05	52.17	-44.2	-45.1	20.4	0.00e+00	0	41	0	1265631232	59	4136
2026-01-22 08:35:13.04	38.38	52.10	-44.2	-45.2	20.4	0.00e+00	0	41	0	1268776960	59	4153
2026-01-22 08:35:14.04	37.71	52.04	-44.2	-45.1	20.4	0.00e+00	0	41	0	1271922688	59	4140
2026-01-22 08:35:15.05	37.03	51.97	-44.3	-45.3	20.3	0.00e+00	0	41	0	1275068416	59	4199
2026-01-22 08:35:16.06	36.36	51.90	-44.2	-45.1	20.6	0.00e+00	0	41	0	1278214144	59	4138
2026-01-22 08:35:17.07	35.70	51.82	-44.5	-45.5	20.3	0.00e+00	0	41	0	1281359872	59	4295
2026-01-22 08:35:18.08	35.04	51.74	-44.4	-45.4	20.4	0.00e+00	0	41	0	1284505600	59	4243
2026-01-22 08:35:19.08	34.38	51.65	-44.2	-45.2	20.3	0.00e+00	0	41	0	1287651328	59	4169
2026-01-22 08:35:20.09	33.73	51.56	-43.8	-44.7	20.8	0.00e+00	0	41	0	1290797056	59	3932
2026-01-22 08:35:21.10	33.08	51.47	-43.9	-44.8	20.8	0.00e+00	0	41	0	1293942784	59	4004
2026-01-22 08:35:22.11	32.43	51.37	-44.4	-45.4	20.3	0.00e+00	0	41	0	1297088512	59	4256
2026-01-22 08:35:23.11	31.80	51.27	-44.5	-45.5	20.2	0.00e+00	0	41	0	1300234240	59	4334
2026-01-22 08:35:24.12	31.16	51.17	-44.4	-45.4	19.8	0.00e+00	0	41	0	1303379968	59	4289
2026-01-22 08:35:25.13	30.53	51.06	-44.3	-45.3	19.8	0.00e+00	0	41	0	1306525696	59	4202
2026-01-22 08:35:26.13	29.90	50.95	-44.0	-45.0	20.4	0.00e+00	0	41	0	1309671424	59	4058
2026-01-22 08:35:27.14	29.28	50.84	-44.0	-44.9	20.6	0.00e+00	0	41	0	1312817152	59	4021
2026-01-22 08:35:28.15	28.66	50.72	-44.2	-45.2	20.4	0.00e+00	0	41	0	1315962880	59	4170
2026-01-22 08:35:29.16	28.05	50.60	-44.7	-45.7	20.1	0.00e+00	0	41	0	1319108608	59	4413
2026-01-22 08:35:30.17	27.44	50.48	-44.7	-45.7	19.6	0.00e+00	0	41	0	1322254336	60	4172
2026-01-22 08:35:31.18	26.83	50.35	-44.7	-45.8	19.3	0.00e+00	0	41	0	1325400064	60	4198
2026-01-22 08:35:32.18	26.24	50.22	-44.6	-45.7	19.4	0.00e+00	0	41	0	1328545792	60	4156
2026-01-22 08:35:33.19	25.65	50.09	-44.5	-45.5	19.7	0.00e+00	0	41	0	1331691520	60	4076
2026-01-22 08:35:34.20	25.06	49.95	-44.3	-45.3	19.9	0.00e+00	0	41	0	1334837248	60	3998
2026-01-22 08:35:35.21	24.47	49.81	-44.7	-45.8	19.6	0.00e+00	0	41	0	1337982976	60	4215
2026-01-22 08:35:36.21	23.90	49.67	-45.3	-46.5	19.0	0.00e+00	0	41	0	1341128704	61	4292
2026-01-22 08:35:37.22	23.33	49.53	-45.4	-46.6	18.9	0.00e+00	0	41	0	1344274432	61	4361
2026-01-22 08:35:38.23	22.76	49.38	-45.1	-46.2	19.3	0.00e+00	0	41	0	1347420160	61	4147
2026-01-22 08:35:39.24	22.20	49.24	-44.4	-45.4	19.9	0.00e+00	0	41	0	1350565888	60	4009
2026-01-22 08:35:40.25	21.64	49.08	-44.1	-45.0	20.3	0.00e+00	0	41	0	1353711616	60	3843
2026-01-22 08:35:41.26	21.09	48.93	-44.2	-45.1	20.5	0.00e+00	0	41	0	1356857344	59	4142
2026-01-22 08:35:42.26	20.55	48.78	-44.8	-45.8	19.7	0.00e+00	0	41	0	1360003072	60	4236
2026-01-22 08:35:43.27	20.01	48.62	-45.6	-46.7	18.8	0.00e+00	0	41	0	1363148800	61	4439
2026-01-22 08:35:44.28	19.48	48.46	-45.4	-46.5	18.8	0.00e+00	0	41	0	1366294528	61	4296
2026-01-22 08:35:45.28	18.96	48.30	-44.7	-45.7	19.3	0.00e+00	0	41	0	1369440256	61	3943
2026-01-22 08:35:46.29	18.43	48.13	-44.3	-45.2	20.3	0.00e+00	0	41	0	1372585984	59	4178
2026-01-22 08:35:47.30	17.91	47.97	-44.1	-45.1	20.4	0.00e+00	0	41	0	1375731712	59	4102
2026-01-22 08:35:48.31	17.40	47.80	-44.6	-45.6	19.8	0.00e+00	0	41	0	1378877440	59	4363
2026-01-22 08:35:49.32	16.90	47.63	-45.5	-46.7	18.7	0.00e+00	0	41	0	1382023168	61	4405
2026-01-22 08:35:50.32	16.40	47.46	-46.4	-47.7	17.9	0.00e+00	0	41	0	1385168896	63	4440
2026-01-22 08:35:51.33	15.91	47.29	-45.7	-46.9	18.7	0.00e+00	0	41	0	1388314624	63	4025
2026-01-22 08:35:52.34	15.42	47.11	-44.3	-45.2	19.9	0.00e+00	0	41	0	1391460352	60	3946
2026-01-22 08:35:53.35	14.93	46.94	-43.9	-44.8	20.5	0.00e+00	0	41	0	1394606080	59	3988
2026-01-22 08:35:54.36	14.45	46.76	-43.7	-44.6	20.8	0.00e+00	0	41	0	1397751808	59	3902
2026-01-22 08:35:55.36	13.99	46.58	-43.7	-44.6	21.0	0.00e+00	0	41	0	1400897536	59	3895
2026-01-22 08:35:56.37	13.52	46.40	-44.5	-45.4	20.2	0.00e+00	0	41	0	1404043264	59	4279
2026-01-22 08:35:57.38	13.06	46.22	-45.2	-46.2	19.2	0.00e+00	0	41	0	1407188992	60	4436
2026-01-22 08:35:58.38	12.60	46.04	-46.1	-47.3	18.3	0.00e+00	0	41	0	1410334720	62	4480
2026-01-22 08:35:59.39	12.15	45.85	-45.8	-47.0	18.4	0.00e+00	0	41	0	1413480448	62	4298
2026-01-22 08:36:00.40	11.70	45.67	-45.2	-46.3	18.9	0.00e+00	0	41	0	1416626176	62	3982
2026-01-22 08:36:01.41	11.26	45.48	-45.0	-46.1	19.3	0.00e+00	0	41	0	1419771904	61	4111
2026-01-22 08:36:02.42	10.83	45.29	-44.8	-45.9	19.5	0.00e+00	0	41	0	1422917632	61	4028
2026-01-22 08:36:03.42	10.40	45.11	-45.1	-46.1	19.3	0.00e+00	0	41	0	1426063360	61	4145
2026-01-22 08:36:04.43	9.98	44.92	-45.7	-46.9	18.6	0.00e+00	0	41	0	1429209088	61	4502
2026-01-22 08:36:05.44	9.55	44.73	-46.6	-47.9	17.8	0.00e+00	0	41	0	1432354816	63	4528
2026-01-22 08:36:06.45	9.14	44.54	-46.9	-48.4	17.2	0.00e+00	0	41	0	1435500544	64	4535
2026-01-22 08:36:07.46	8.73	44.35	-46.5	-47.9	17.5	0.00e+00	0	41	0	1438646272	64	4266
2026-01-22 08:36:08.46	8.33	44.15	-45.7	-46.9	18.6	0.00e+00	0	41	0	1441792000	63	4035
2026-01-22 08:36:09.47	7.93	43.96	-45.2	-46.2	19.3	0.00e+00	0	41	0	1444937728	62	3945
2026-01-22 08:36:10.48	7.53	43.77	-45.0	-46.1	19.4	0.00e+00	0	41	0	1448083456	62	3875
2026-01-22 08:36:11.49	7.14	43.57	-44.5	-45.5	19.8	0.00e+00	0	41	0	1451229184	61	3854
2026-01-22 08:36:12.49	6.76	43.38	-45.0	-46.1	19.3	0.00e+00	0	41	0	1454374912	60	4342
2026-01-22 08:36:13.50	6.38	43.19	-45.8	-47.1	18.5	0.00e+00	0	41	0	1457520640	62	4348
2026-01-22 08:36:14.50	6.00	42.99	-46.6	-47.9	17.6	0.00e+00	0	41	0	1460666368	63	4540
2026-01-22 08:36:15.51	5.63	42.80	-46.7	-48.1	17.1	0.00e+00	0	41	0	1463812096	64	4389
2026-01-22 08:36:16.52	5.26	42.60	-46.3	-47.7	17.5	0.00e+00	0	41	0	1466957824	64	4152
2026-01-22 08:36:17.53	4.90	42.40	-45.6	-46.8	18.3	0.00e+00	0	41	0	1470103552	63	3996
2026-01-22 08:36:18.54	4.54	42.21	-44.6	-45.6	19.5	0.00e+00	0	41	0	1473249280	61	3880
2026-01-22 08:36:19.55	4.19	42.01	-44.1	-45.0	20.1	0.00e+00	0	41	0	1476395008	60	3859
2026-01-22 08:36:20.56	3.84	41.81	-44.3	-45.2	20.4	0.00e+00	0	41	0	1479540736	59	4171
2026-01-22 08:36:21.57	3.49	41.62	-44.6	-45.6	20.1	0.00e+00	0	41	0	1482686464	59	4380
2026-01-22 08:36:22.57	3.15	41.42	-45.1	-46.2	19.2	0.00e+00	0	41	0	1485832192	60	4413
2026-01-22 08:36:23.58	2.81	41.22	-45.9	-47.1	18.4	0.00e+00	0	41	0	1488977920	62	4369
2026-01-22 08:36:24.59	2.48	41.03	-46.2	-47.6	18.1	0.00e+00	0	41	0	1492123648	63	4343
2026-01-22 08:36:25.60	2.15	40.83	-45.8	-47.1	18.4	0.00e+00	0	41	0	1495269376	63	4104
2026-01-22 08:36:26.61	1.83	40.63	-44.9	-46.0	19.4	0.00e+00	0	41	0	1498415104	61	4076
2026-01-22 08:36:27.62	1.51	40.43	-44.2	-45.2	20.1	0.00e+00	0	41	0	1501560832	60	3935
2026-01-22 08:36:28.62	1.19	40.24	-44.0	-44.9	20.4	0.00e+00	0	41	0	1504706560	60	3811
2026-01-22 08:36:29.63	0.88	40.04	-44.0	-44.9	20.7	0.00e+00	0	41	0	1507852288	59	4051
2026-01-22 08:36:30.64	0.57	39.84	-44.0	-45.0	20.7	0.00e+00	0	41	0	1510998016	59	4057
2026-01-22 08:36:31.65	0.26	39.65	-44.1	-45.0	20.6	0.00e+00	0	41	0	1514143744	59	4094
2026-01-22 08:36:32.66	359.96	39.45	-44.0	-44.9	20.7	0.00e+00	0	41	0	1517289472	59	4031
2026-01-22 08:36:33.67	359.66	39.25	-44.2	-45.2	20.5	0.00e+00	0	41	0	1520435200	59	4154
2026-01-22 08:36:34.68	359.37	39.06	-44.4	-45.4	20.0	0.00e+00	0	41	0	1523580928	60	4037
2026-01-22 08:36:35.68	359.08	38.86	-45.0	-46.1	19.2	0.00e+00	0	41	0	1526726656	60	4367
2026-01-22 08:36:36.69	358.79	38.67	-45.0	-46.1	19.0	0.00e+00	0	41	0	1529872384	60	4371
2026-01-22 08:36:37.70	358.51	38.47	-44.8	-45.8	19.2	0.00e+00	0	41	0	1533018112	60	4240
2026-01-22 08:36:38.71	358.23	38.28	-44.5	-45.5	19.6	0.00e+00	0	41	0	1536163840	60	4068
2026-01-22 08:36:39.72	357.95	38.08	-44.0	-45.0	20.2	0.00e+00	0	41	0	1539309568	60	3831
2026-01-22 08:36:40.73	357.67	37.89	-44.4	-45.4	20.1	0.00e+00	0	41	0	1542455296	59	4265
2026-01-22 08:36:41.74	357.40	37.69	-44.4	-45.4	19.7	0.00e+00	0	41	0	1545601024	60	4019
2026-01-22 08:36:42.75	357.14	37.50	-44.8	-45.8	19.4	0.00e+00	0	41	0	1548746752	60	4235
2026-01-22 08:36:43.75	356.87	37.31	-44.6	-45.6	19.7	0.00e+00	0	41	0	1551892480	60	4114
2026-01-22 08:36:44.76	356.61	37.12	-44.3	-45.3	20.0	0.00e+00	0	41	0	1555038208	60	3991
2026-01-22 08:36:45.77	356.35	36.92	-44.0	-45.0	20.3	0.00e+00	0	41	0	1558183936	60	3832
2026-01-22 08:36:46.78	356.10	36.73	-44.0	-45.0	20.5	0.00e+00	0	41	0	1561329664	59	4053
2026-01-22 08:36:47.79	355.85	36.54	-43.7	-44.7	20.9	0.00e+00	0	41	0	1564475392	59	3917
2026-01-22 08:36:48.79	355.60	36.35	-43.6	-44.5	21.0	0.00e+00	0	41	0	1567621120	59	3859
2026-01-22 08:36:49.80	355.35	36.16	-43.7	-44.6	20.9	0.00e+00	0	41	0	1570766848	59	3879
2026-01-22 08:36:50.81	355.11	35.97	-43.5	-44.4	20.9	0.00e+00	0	41	0	1573912576	59	3798
2026-01-22 08:36:51.81	354.87	35.78	-43.5	-44.4	20.8	0.00e+00	0	41	0	1577058304	59	3805
2026-01-22 08:36:52.82	354.64	35.60	-43.4	-44.3	20.8	0.00e+00	0	41	0	1580204032	58	3998
2026-01-22 08:36:53.83	354.40	35.41	-43.5	-44.4	20.9	0.00e+00	0	41	0	1583349760	58	4037
2026-01-22 08:36:54.83	354.17	35.22	-43.8	-44.7	20.8	0.00e+00	0	41	0	1586495488	58	4162
2026-01-22 08:36:55.84	353.94	35.03	-44.2	-45.2	20.3	0.00e+00	0	41	0	1589641216	59	4170
2026-01-22 08:36:56.85	353.71	34.85	-44.6	-45.6	20.0	0.00e+00	0	41	0	1592786944	59	4368
2026-01-22 08:36:57.85	353.49	34.66	-44.4	-45.4	19.9	0.00e+00	0	41	0	1595932672	60	4037
2026-01-22 08:36:58.86	353.27	34.48	-44.3	-45.3	20.0	0.00e+00	0	41	0	1599078400	60	3992
2026-01-22 08:36:59.87	353.05	34.29	-44.0	-45.0	20.5	0.00e+00	0	41	0	1602224128	59	4070
2026-01-22 08:37:00.88	352.83	34.11	-43.2	-44.1	21.2	0.00e+00	0	41	0	1605369856	58	3893
2026-01-22 08:37:01.89	352.62	33.93	-43.0	-43.8	21.5	0.00e+00	0	41	0	1608515584	57	3983
2026-01-22 08:37:02.89	352.41	33.74	-43.1	-43.9	21.4	0.00e+00	0	41	0	1611661312	57	4039
2026-01-22 08:37:03.90	352.20	33.56	-43.0	-43.9	21.5	0.00e+00	0	41	0	1614807040	57	4010
2026-01-22 08:37:04.91	351.99	33.38	-43.2	-44.1	21.3	0.00e+00	0	41	0	1617952768	57	4123
2026-01-22 08:37:05.92	351.79	33.20	-43.5	-44.4	21.1	0.00e+00	0	41	0	1621098496	57	4255
2026-01-22 08:37:06.92	351.59	33.02	-43.7	-44.6	20.9	0.00e+00	0	41	0	1624244224	57	4373
2026-01-22 08:37:07.93	351.39	32.84	-43.7	-44.6	20.9	0.00e+00	0	41	0	1627389952	58	4139
2026-01-22 08:37:08.94	351.19	32.66	-43.6	-44.5	20.9	0.00e+00	0	41	0	1630535680	58	4080
2026-01-22 08:37:09.95	351.00	32.48	-43.6	-44.5	20.9	0.00e+00	0	41	0	1633681408	58	4083
2026-01-22 08:37:10.96	350.80	32.31	-43.6	-44.5	20.9	0.00e+00	0	41	0	1636827136	58	4097
2026-01-22 08:37:11.96	350.61	32.13	-43.1	-44.0	21.3	0.00e+00	0	41	0	1639972864	58	3842
2026-01-22 08:37:12.97	350.42	31.96	-42.9	-43.7	21.5	0.00e+00	0	41	0	1643118592	57	3935
2026-01-22 08:37:13.98	350.24	31.78	-43.0	-43.9	21.3	0.00e+00	0	41	0	1646264320	57	4033
2026-01-22 08:37:14.99	350.05	31.60	-43.0	-43.8	21.4	0.00e+00	0	41	0	1649410048	57	3995
2026-01-22 08:37:16.00	349.87	31.43	-43.0	-43.9	21.4	0.00e+00	0	41	0	1652555776	57	4021
2026-01-22 08:37:17.01	349.69	31.26	-43.2	-44.1	21.2	0.00e+00	0	41	0	1655701504	57	4129
2026-01-22 08:37:18.02	349.51	31.08	-43.1	-43.9	21.4	0.00e+00	0	41	0	1658847232	57	4046
2026-01-22 08:37:19.02	349.33	30.91	-43.1	-44.0	21.4	0.00e+00	0	41	0	1661992960	57	4074
2026-01-22 08:37:20.03	349.16	30.74	-43.1	-44.0	21.4	0.00e+00	0	41	0	1665138688	57	4080
2026-01-22 08:37:21.04	348.98	30.57	-43.2	-44.1	21.3	0.00e+00	0	41	0	1668284416	57	4130
2026-01-22 08:37:22.05	348.81	30.40	-43.3	-44.2	21.2	0.00e+00	0	41	0	1671430144	57	4170
2026-01-22 08:37:23.06	348.64	30.23	-43.4	-44.3	21.2	0.00e+00	0	41	0	1674575872	57	4203
2026-01-22 08:37:24.06	348.48	30.07	-43.3	-44.2	21.3	0.00e+00	0	41	0	1677721600	57	4146
2026-01-22 08:37:25.07	348.31	29.90	-43.0	-43.9	21.5	0.00e+00	0	41	0	1680867328	57	4034
2026-01-22 08:37:26.08	348.14	29.73	-43.1	-43.9	21.4	0.00e+00	0	41	0	1684013056	57	4043
2026-01-22 08:37:27.09	347.98	29.56	-43.0	-43.9	21.3	0.00e+00	0	41	0	1687158784	57	4025
2026-01-22 08:37:28.10	347.82	29.40	-42.9	-43.8	21.3	0.00e+00	0	41	0	1690304512	57	3984
2026-01-22 08:37:29.11	347.66	29.23	-42.7	-43.6	21.5	0.00e+00	0	41	0	1693450240	57	3878
2026-01-22 08:37:30.12	347.50	29.07	-42.7	-43.5	21.5	0.00e+00	0	41	0	1696595968	57	3861
2026-01-22 08:37:31.13	347.35	28.91	-42.6	-43.4	21.6	0.00e+00	0	41	0	1699741696	57	3803
2026-01-22 08:37:32.14	347.19	28.74	-42.3	-43.1	21.9	0.00e+00	0	41	0	1702887424	56	3906
2026-01-22 08:37:33.14	347.04	28.58	-42.2	-43.0	22.0	0.00e+00	0	41	0	1706033152	56	3828
2026-01-22 08:37:34.15	346.89	28.42	-42.3	-43.1	22.0	0.00e+00	0	41	0	1709178880	56	3870
2026-01-22 08:37:35.16	346.74	28.26	-42.3	-43.1	22.0	0.00e+00	0	41	0	1712324608	56	3872
2026-01-22 08:37:36.17	346.59	28.10	-42.2	-43.0	22.0	0.00e+00	0	41	0	1715470336	56	3868
2026-01-22 08:37:37.18	346.45	27.94	-42.3	-43.1	22.0	0.00e+00	0	41	0	1718616064	56	3897
2026-01-22 08:37:38.19	346.30	27.78	-42.4	-43.2	22.0	0.00e+00	0	41	0	1721761792	56	3943
2026-01-22 08:37:39.20	346.16	27.62	-42.4	-43.3	21.9	0.00e+00	0	41	0	1724907520	56	3966
2026-01-22 08:37:40.20	346.02	27.47	-42.4	-43.2	22.0	0.00e+00	0	41	0	1728053248	56	3945
2026-01-22 08:37:41.21	345.88	27.31	-42.3	-43.1	22.0	0.00e+00	0	41	0	1731198976	56	3896
2026-01-22 08:37:42.22	345.74	27.16	-42.2	-43.0	22.1	0.00e+00	0	41	0	1734344704	56	3865
2026-01-22 08:37:43.22	345.60	27.00	-42.1	-42.9	22.2	0.00e+00	0	41	0	1737490432	56	3813
2026-01-22 08:37:44.23	345.46	26.85	-42.0	-42.8	22.2	0.00e+00	0	41	0	1740636160	56	3758
2026-01-22 08:37:45.24	345.33	26.69	-42.1	-42.9	22.1	0.00e+00	0	41	0	1744830464	56	3809
2026-01-22 08:37:46.25	345.19	26.54	-42.0	-42.8	22.2	0.00e+00	0	41	0	1746927616	56	3759
2026-01-22 08:37:47.26	345.06	26.39	-42.1	-42.9	22.1	0.00e+00	0	41	0	1750073344	56	3812
2026-01-22 08:37:48.27	344.93	26.24	-42.1	-42.9	22.2	0.00e+00	0	41	0	1753219072	56	3788
2026-01-22 08:37:49.28	344.80	26.09	-42.2	-43.0	22.0	0.00e+00	0	41	0	1756364800	56	3854
2026-01-22 08:37:50.29	344.67	25.93	-42.2	-43.0	22.1	0.00e+00	0	41	0	1759510528	56	3848
2026-01-22 08:37:51.30	344.54	25.78	-42.2	-43.0	22.1	0.00e+00	0	41	0	1762656256	56	3843
2026-01-22 08:37:52.30	344.42	25.64	-42.2	-43.1	22.0	0.00e+00	0	41	0	1765801984	56	3872
2026-01-22 08:37:53.31	344.29	25.49	-42.3	-43.1	22.0	0.00e+00	0	41	0	1768947712	56	3889
2026-01-22 08:37:54.32	344.17	25.34	-42.1	-42.9	22.2	0.00e+00	0	41	0	1772093440	56	3803
2026-01-22 08:37:55.33	344.04	25.19	-42.1	-42.9	22.2	0.00e+00	0	41	0	1775239168	56	3822
2026-01-22 08:37:56.34	343.92	25.05	-42.1	-42.9	22.2	0.00e+00	0	41	0	1778384896	56	3816
2026-01-22 08:37:57.34	343.80	24.90	-42.1	-42.9	22.2	0.00e+00	0	41	0	1782579200	56	3797
2026-01-22 08:37:58.35	343.68	24.76	-42.1	-42.9	22.2	0.00e+00	0	41	0	1785724928	56	3811
2026-01-22 08:37:59.36	343.57	24.61	-42.0	-42.8	22.3	0.00e+00	0	41	0	1788870656	56	3769
2026-01-22 08:38:00.36	343.45	24.47	-42.0	-42.8	22.3	0.00e+00	0	41	0	1792016384	56	3751
2026-01-22 08:38:01.37	343.33	24.33	-41.9	-42.7	22.3	0.00e+00	0	41	0	1794113536	55	3916
2026-01-22 08:38:02.38	343.22	24.19	-41.9	-42.7	22.3	0.00e+00	0	41	0	1797259264	55	3937
2026-01-22 08:38:03.39	343.10	24.04	-41.7	-42.4	22.5	0.00e+00	0	41	0	1800404992	55	3824
2026-01-22 08:38:04.40	342.99	23.90	-41.7	-42.5	22.5	0.00e+00	0	41	0	1803550720	55	3825
2026-01-22 08:38:05.41	342.88	23.76	-41.8	-42.6	22.4	0.00e+00	0	41	0	1806696448	55	3897
2026-01-22 08:38:06.42	342.77	23.62	-41.9	-42.7	22.3	0.00e+00	0	41	0	1809842176	55	3932
2026-01-22 08:38:07.43	342.66	23.48	-42.0	-42.8	22.2	0.00e+00	0	41	0	1812987904	55	4001
2026-01-22 08:38:08.44	342.55	23.35	-42.2	-43.0	22.1	0.00e+00	0	41	0	1816133632	55	4064
2026-01-22 08:38:09.45	342.44	23.21	-42.3	-43.1	21.9	0.00e+00	0	41	0	1820327936	55	4141
2026-01-22 08:38:10.46	342.34	23.07	-42.5	-43.3	21.8	0.00e+00	0	41	0	1823473664	55	4224
2026-01-22 08:38:11.47	342.23	22.93	-42.5	-43.4	21.7	0.00e+00	0	41	0	1826619392	55	4264
2026-01-22 08:38:12.48	342.12	22.80	-42.7	-43.6	21.5	0.00e+00	0	41	0	1829765120	55	4359
2026-01-22 08:38:13.48	342.02	22.66	-42.7	-43.6	21.5	0.00e+00	0	41	0	1832910848	55	4347
2026-01-22 08:38:14.49	341.92	22.53	-42.7	-43.6	21.4	0.00e+00	0	41	0	1836056576	55	4346
2026-01-22 08:38:15.50	341.82	22.39	-42.6	-43.5	21.4	0.00e+00	0	41	0	1839202304	55	4314
2026-01-22 08:38:16.51	341.71	22.26	-42.8	-43.7	21.2	0.00e+00	0	41	0	1841299456	56	4179
2026-01-22 08:38:17.52	341.61	22.13	-42.5	-43.4	21.5	0.00e+00	0	41	0	1844445184	56	4007
2026-01-22 08:38:18.52	341.52	22.00	-42.6	-43.5	21.4	0.00e+00	0	41	0	1847590912	56	4060
2026-01-22 08:38:19.53	341.42	21.86	-42.5	-43.3	21.5	0.00e+00	0	41	0	1850736640	56	4001
2026-01-22 08:38:20.54	341.32	21.73	-42.3	-43.2	21.6	0.00e+00	0	41	0	1854930944	56	3917
2026-01-22 08:38:21.55	341.22	21.60	-42.2	-43.0	21.7	0.00e+00	0	41	0	1858076672	56	3856
2026-01-22 08:38:22.56	341.13	21.47	-42.1	-42.9	21.8	0.00e+00	0	41	0	1861222400	56	3805
2026-01-22 08:38:23.57	341.03	21.34	-42.1	-43.0	21.8	0.00e+00	0	41	0	1864368128	56	3829
2026-01-22 08:38:24.58	340.94	21.21	-41.7	-42.5	22.1	0.00e+00	0	41	0	1867513856	55	3839
2026-01-22 08:38:25.58	340.84	21.09	-41.7	-42.5	22.1	0.00e+00	0	41	0	1870659584	55	3843
2026-01-22 08:38:26.59	340.75	20.96	-41.7	-42.5	22.2	0.00e+00	0	41	0	1873805312	55	3840
2026-01-22 08:38:27.60	340.66	20.83	-41.7	-42.4	22.2	0.00e+00	0	41	0	1876951040	55	3818
2026-01-22 08:38:28.61	340.57	20.70	-41.6	-42.3	22.4	0.00e+00	0	41	0	1880096768	55	3774
2026-01-22 08:38:29.62	340.48	20.58	-41.3	-42.1	22.6	0.00e+00	0	41	0	1883242496	54	3891
2026-01-22 08:38:30.62	340.39	20.45	-41.3	-42.0	22.6	0.00e+00	0	41	0	1886388224	54	3849
2026-01-22 08:38:31.63	340.30	20.33	-41.3	-42.1	22.6	0.00e+00	0	41	0	1888485376	54	3882
2026-01-22 08:38:32.64	340.21	20.20	-41.2	-42.0	22.7	0.00e+00	0	41	0	1892679680	54	3837
2026-01-22 08:38:33.65	340.13	20.08	-41.2	-41.9	22.7	0.00e+00	0	41	0	1895825408	54	3815
2026-01-22 08:38:34.65	340.04	19.96	-41.3	-42.1	22.6	0.00e+00	0	41	0	1898971136	54	3873
2026-01-22 08:38:35.67	339.95	19.83	-41.3	-42.1	22.6	0.00e+00	0	41	0	1902116864	54	3878
2026-01-22 08:38:36.67	339.87	19.71	-41.3	-42.1	22.6	0.00e+00	0	41	0	1905262592	54	3893
2026-01-22 08:38:37.68	339.78	19.59	-41.4	-42.2	22.5	0.00e+00	0	41	0	1908408320	54	3914
2026-01-22 08:38:38.69	339.70	19.47	-41.5	-42.2	22.5	0.00e+00	0	41	0	1911554048	54	3941
2026-01-22 08:38:39.70	339.62	19.35	-41.6	-42.3	22.4	0.00e+00	0	41	0	1914699776	54	3997
2026-01-22 08:38:40.70	339.54	19.23	-41.5	-42.3	22.4	0.00e+00	0	41	0	1917845504	54	3968
2026-01-22 08:38:41.71	339.45	19.11	-41.6	-42.4	22.3	0.00e+00	0	41	0	1920991232	54	4027
2026-01-22 08:38:42.72	339.37	18.99	-41.7	-42.5	22.2	0.00e+00	0	41	0	1924136960	54	4081
2026-01-22 08:38:43.73	339.29	18.87	-41.8	-42.6	22.2	0.00e+00	0	41	0	1927282688	54	4108
2026-01-22 08:38:44.74	339.21	18.75	-41.8	-42.6	22.1	0.00e+00	0	41	0	1930428416	54	4137
2026-01-22 08:38:45.74	339.13	18.64	-41.9	-42.7	22.1	0.00e+00	0	41	0	1933574144	54	4160
2026-01-22 08:38:46.75	339.05	18.52	-42.1	-42.9	21.8	0.00e+00	0	41	0	1936719872	54	4267
2026-01-22 08:38:47.76	338.98	18.40	-42.1	-42.9	21.9	0.00e+00	0	41	0	1939865600	54	4260
2026-01-22 08:38:48.77	338.90	18.29	-42.2	-43.1	21.7	0.00e+00	0	41	0	1943011328	55	4109
2026-01-22 08:38:49.78	338.82	18.17	-42.2	-43.0	21.8	0.00e+00	0	41	0	1946157056	55	4077
2026-01-22 08:38:50.79	338.75	18.05	-42.3	-43.2	21.6	0.00e+00	0	41	0	1949302784	55	4149
2026-01-22 08:38:51.79	338.67	17.94	-42.5	-43.3	21.5	0.00e+00	0	41	0	1952448512	55	4220
2026-01-22 08:38:52.80	338.60	17.83	-42.5	-43.3	21.5	0.00e+00	0	41	0	1955594240	55	4232
2026-01-22 08:38:53.81	338.52	17.71	-42.7	-43.5	21.3	0.00e+00	0	41	0	1958739968	55	4329
2026-01-22 08:38:54.82	338.45	17.60	-42.6	-43.5	21.3	0.00e+00	0	41	0	1961885696	55	4316
2026-01-22 08:38:55.82	338.38	17.49	-42.9	-43.8	21.1	0.00e+00	0	41	0	1965031424	56	4216
2026-01-22 08:38:56.83	338.30	17.37	-43.0	-43.9	21.0	0.00e+00	0	41	0	1968177152	56	4279
2026-01-22 08:38:57.84	338.23	17.26	-42.9	-43.8	21.1	0.00e+00	0	41	0	1971322880	56	4231
2026-01-22 08:38:58.85	338.16	17.15	-42.8	-43.7	21.2	0.00e+00	0	41	0	1974468608	56	4150
2026-01-22 08:38:59.86	338.09	17.04	-42.7	-43.6	21.2	0.00e+00	0	41	0	1977614336	56	4118
2026-01-22 08:39:00.86	338.02	16.93	-42.8	-43.7	21.2	0.00e+00	0	41	0	1980760064	56	4155
2026-01-22 08:39:01.87	337.95	16.82	-42.8	-43.7	21.2	0.00e+00	0	41	0	1983905792	56	4157
2026-01-22 08:39:02.88	337.88	16.71	-42.8	-43.7	21.1	0.00e+00	0	41	0	1987051520	56	4172
2026-01-22 08:39:03.89	337.81	16.60	-42.9	-43.7	21.1	0.00e+00	0	41	0	1990197248	56	4192
2026-01-22 08:39:04.89	337.75	16.49	-42.9	-43.8	21.0	0.00e+00	0	41	0	1993342976	56	4217
2026-01-22 08:39:05.90	337.68	16.39	-43.1	-44.0	20.9	0.00e+00	0	41	0	1996488704	56	4306
2026-01-22 08:39:06.91	337.61	16.28	-42.9	-43.8	21.0	0.00e+00	0	41	0	1999634432	56	4224
2026-01-22 08:39:07.92	337.54	16.17	-43.1	-44.0	20.9	0.00e+00	0	41	0	2002780160	56	4296
2026-01-22 08:39:08.92	337.48	16.06	-43.0	-43.9	20.8	0.00e+00	0	41	0	2005925888	56	4278
2026-01-22 08:39:09.93	337.41	15.96	-42.8	-43.7	21.1	0.00e+00	0	41	0	2009071616	56	4174
2026-01-22 08:39:10.94	337.35	15.85	-43.0	-43.9	21.0	0.00e+00	0	41	0	2012217344	56	4268
2026-01-22 08:39:11.95	337.28	15.74	-42.9	-43.8	21.1	0.00e+00	0	41	0	2015363072	56	4199
2026-01-22 08:39:12.95	337.22	15.64	-43.0	-43.9	21.0	0.00e+00	0	41	0	2018508800	56	4261
2026-01-22 08:39:13.96	337.16	15.54	-43.0	-43.8	21.0	0.00e+00	0	41	0	2021654528	56	4241
2026-01-22 08:39:14.97	337.09	15.43	-42.9	-43.8	21.1	0.00e+00	0	41	0	2024800256	56	4232
2026-01-22 08:39:15.98	337.03	15.33	-43.0	-43.9	21.0	0.00e+00	0	41	0	2027945984	56	4250
2026-01-22 08:39:16.98	336.97	15.22	-42.9	-43.8	21.1	7.00e-07	0	41	0	2031091712	56	4229
2026-01-22 08:39:17.99	336.91	15.12	-43.0	-43.9	21.0	0.00e+00	0	41	0	2034237440	56	4251
2026-01-22 08:39:19.00	336.84	15.02	-43.0	-43.9	21.1	0.00e+00	0	41	0	2037383168	56	4252
2026-01-22 08:39:20.01	336.78	14.91	-42.9	-43.8	21.1	0.00e+00	0	41	0	2040528896	56	4218
2026-01-22 08:39:21.02	336.72	14.81	-43.0	-43.9	21.0	0.00e+00	0	41	0	2043674624	56	4262
2026-01-22 08:39:22.02	336.66	14.71	-42.9	-43.8	21.1	0.00e+00	0	41	0	2046820352	56	4231
2026-01-22 08:39:23.03	336.60	14.61	-43.0	-43.9	21.1	0.00e+00	0	41	0	2049966080	56	4252
2026-01-22 08:39:24.04	336.54	14.51	-43.0	-43.9	20.9	0.00e+00	0	41	0	2053111808	56	4261
2026-01-22 08:39:25.05	336.49	14.41	-43.0	-43.8	21.1	1.50e-06	0	41	0	2056257536	56	4242
