passes_logs/2026/01/22/R3.2S_Murmansk/R3.2S_Murmansk__20260122_204717_JL1KF02B01_rec.log

#Pass ID: 20260122_204717_JL1KF02B01
#Satellite: JL1KF02B01
#Configuration: 01B_900M
#almurnet v.1.7.20251203
#Start time: 2026-01-22 20:47:17

#Version: 2.2.20231116
#Station: R3.2S_Murmansk
#Location: 33.079688 lon 68.888172 lat
#TLE: 1 61191U 24169C   26022.52585609  .00007306  00000+0  45706-3 0  9992
#TLE: 2 61191  97.5703 113.9874 0014621  99.9713 260.3167 15.09623406 73850

#Time	Az	El	Level	Level2	SNR	BER	BlckErr	Temp	State	Recorded	gain1	gain2
2026-01-22 20:47:17.44	182.34	1.98	-55.1	-57.2	6.2	0.00e+00	0	42	0	0	81	18706
2026-01-22 20:47:18.44	182.39	2.05	-55.4	-57.6	6.2	0.00e+00	0	42	104	0	82	18458
2026-01-22 20:47:19.45	182.44	2.12	-55.4	-57.5	6.2	0.00e+00	0	42	104	0	82	18333
2026-01-22 20:47:20.46	182.49	2.19	-55.4	-57.5	6.2	0.00e+00	0	42	104	0	82	18229
2026-01-22 20:47:21.47	182.53	2.26	-55.3	-57.5	6.2	0.00e+00	0	42	104	0	82	18205
2026-01-22 20:47:22.47	182.58	2.32	-55.3	-57.4	6.2	0.00e+00	0	42	104	0	82	18119
2026-01-22 20:47:23.48	182.63	2.39	-55.3	-57.4	6.2	0.00e+00	0	43	104	0	82	18085
2026-01-22 20:47:24.49	182.68	2.46	-55.3	-57.4	6.2	0.00e+00	0	42	104	0	82	18003
2026-01-22 20:47:25.50	182.73	2.53	-55.2	-57.3	6.2	0.00e+00	0	42	104	0	82	17858
2026-01-22 20:47:26.51	182.77	2.60	-55.2	-57.3	6.2	0.00e+00	0	43	104	0	82	17846
2026-01-22 20:47:27.51	182.82	2.67	-55.2	-57.2	6.2	0.00e+00	0	42	104	0	82	17737
2026-01-22 20:47:28.52	182.87	2.74	-55.1	-57.2	6.2	0.00e+00	0	42	104	0	82	17688
2026-01-22 20:47:29.53	182.92	2.81	-55.1	-57.2	6.2	0.00e+00	0	43	104	0	82	17597
2026-01-22 20:47:30.54	182.97	2.88	-55.0	-57.1	6.2	0.00e+00	0	43	104	0	82	17420
2026-01-22 20:47:31.55	183.02	2.95	-54.9	-57.0	6.2	0.00e+00	0	43	104	0	81	18354
2026-01-22 20:47:32.56	183.07	3.02	-54.9	-57.0	6.2	0.00e+00	0	43	104	0	81	18218
2026-01-22 20:47:33.57	183.13	3.09	-54.8	-56.9	6.2	0.00e+00	0	43	104	0	81	18015
2026-01-22 20:47:34.57	183.18	3.16	-54.7	-56.8	6.2	0.00e+00	0	43	104	0	81	17836
2026-01-22 20:47:35.58	183.23	3.23	-54.6	-56.7	6.2	0.00e+00	0	43	104	0	81	17686
2026-01-22 20:47:36.59	183.28	3.30	-54.5	-56.6	6.2	0.00e+00	0	43	104	0	81	17537
2026-01-22 20:47:37.60	183.33	3.38	-54.4	-56.5	6.2	0.00e+00	0	43	104	0	80	18192
2026-01-22 20:47:38.61	183.38	3.45	-54.1	-56.1	6.2	0.00e+00	0	43	104	0	80	17545
2026-01-22 20:47:39.62	183.44	3.52	-53.8	-55.9	6.2	0.00e+00	0	43	104	0	79	18009
2026-01-22 20:47:40.63	183.49	3.59	-53.7	-55.9	6.2	0.00e+00	0	43	104	0	79	17989
2026-01-22 20:47:41.63	183.54	3.66	-53.7	-55.8	6.2	0.00e+00	0	43	104	0	79	17961
2026-01-22 20:47:42.64	183.60	3.74	-53.7	-55.8	6.2	0.00e+00	0	43	104	0	79	17853
2026-01-22 20:47:43.65	183.65	3.81	-53.7	-55.8	6.2	0.00e+00	0	43	104	0	79	17855
2026-01-22 20:47:44.66	183.70	3.88	-53.7	-55.8	6.2	0.00e+00	0	43	104	0	79	17825
2026-01-22 20:47:45.67	183.76	3.96	-53.7	-55.8	6.2	0.00e+00	0	43	104	0	79	17915
2026-01-22 20:47:46.67	183.81	4.03	-53.7	-55.8	6.2	0.00e+00	0	43	104	0	79	17872
2026-01-22 20:47:47.68	183.87	4.10	-53.7	-55.8	6.2	0.00e+00	0	43	104	0	79	17830
2026-01-22 20:47:48.69	183.92	4.18	-53.7	-55.7	6.2	0.00e+00	0	43	104	0	79	17764
2026-01-22 20:47:49.70	183.98	4.25	-53.7	-55.8	6.2	0.00e+00	0	43	104	0	79	17819
2026-01-22 20:47:50.71	184.04	4.33	-53.7	-55.8	6.2	0.00e+00	0	43	104	0	79	17782
2026-01-22 20:47:51.71	184.09	4.40	-53.6	-55.7	6.2	0.00e+00	0	43	104	0	79	17747
2026-01-22 20:47:52.72	184.15	4.48	-53.6	-55.7	6.2	0.00e+00	0	43	104	0	79	17725
2026-01-22 20:47:53.73	184.21	4.55	-53.6	-55.7	6.2	0.00e+00	0	44	104	0	79	17748
2026-01-22 20:47:54.74	184.26	4.63	-53.6	-55.7	6.2	0.00e+00	0	43	104	0	79	17741
2026-01-22 20:47:55.75	184.32	4.70	-53.6	-55.8	6.2	0.00e+00	0	43	104	0	79	17785
2026-01-22 20:47:56.75	184.38	4.78	-53.6	-55.8	6.2	0.00e+00	0	43	104	0	79	17802
2026-01-22 20:47:57.76	184.44	4.86	-53.6	-55.7	6.2	0.00e+00	0	43	104	0	79	17695
2026-01-22 20:47:58.77	184.50	4.93	-53.6	-55.7	6.2	0.00e+00	0	43	104	0	79	17735
2026-01-22 20:47:59.78	184.56	5.01	-53.6	-55.8	6.2	0.00e+00	0	43	104	0	79	17774
2026-01-22 20:48:00.79	184.61	5.09	-53.8	-55.9	6.2	0.00e+00	0	44	104	0	79	18073
2026-01-22 20:48:01.79	184.67	5.16	-53.8	-55.9	6.2	0.00e+00	0	44	104	0	79	17977
2026-01-22 20:48:02.80	184.73	5.24	-53.6	-55.8	6.2	0.00e+00	0	43	104	0	79	17826
2026-01-22 20:48:03.81	184.80	5.32	-53.6	-55.7	6.2	0.00e+00	0	43	104	0	79	17714
2026-01-22 20:48:04.82	184.86	5.40	-53.8	-55.9	6.2	0.00e+00	0	44	104	0	79	17992
2026-01-22 20:48:05.83	184.92	5.48	-53.8	-55.9	6.2	0.00e+00	0	43	104	0	79	18007
2026-01-22 20:48:06.83	184.98	5.56	-53.6	-55.7	6.2	0.00e+00	0	43	104	0	79	17738
2026-01-22 20:48:07.84	185.04	5.64	-53.6	-55.7	6.2	0.00e+00	0	43	104	0	79	17646
2026-01-22 20:48:08.85	185.10	5.72	-53.7	-55.8	6.2	0.00e+00	0	44	104	0	79	17971
2026-01-22 20:48:09.86	185.17	5.80	-53.8	-55.8	6.2	0.00e+00	0	44	104	0	79	17955
2026-01-22 20:48:10.87	185.23	5.88	-53.6	-55.7	6.2	0.00e+00	0	43	104	0	79	17701
2026-01-22 20:48:11.87	185.29	5.96	-53.6	-55.7	6.2	0.00e+00	0	44	104	0	79	17657
2026-01-22 20:48:12.88	185.36	6.04	-53.7	-55.8	6.2	0.00e+00	0	44	104	0	79	17964
2026-01-22 20:48:13.89	185.42	6.12	-53.8	-55.9	6.2	0.00e+00	0	44	104	0	79	17975
2026-01-22 20:48:14.90	185.49	6.20	-53.6	-55.7	6.2	0.00e+00	0	44	104	0	79	17736
2026-01-22 20:48:15.91	185.55	6.28	-53.6	-55.7	6.2	0.00e+00	0	44	104	0	79	17665
2026-01-22 20:48:16.91	185.62	6.36	-53.8	-55.9	6.2	0.00e+00	0	44	104	0	79	18000
2026-01-22 20:48:17.92	185.69	6.44	-53.8	-55.9	6.2	0.00e+00	0	44	104	0	79	18028
2026-01-22 20:48:18.93	185.75	6.53	-53.7	-55.8	6.2	0.00e+00	0	44	104	0	79	17843
2026-01-22 20:48:19.94	185.82	6.61	-53.6	-55.7	6.2	0.00e+00	0	44	104	0	79	17762
2026-01-22 20:48:20.95	185.89	6.69	-53.8	-55.9	6.2	0.00e+00	0	44	104	0	79	18080
2026-01-22 20:48:21.95	185.95	6.78	-53.8	-55.9	6.2	0.00e+00	0	44	104	0	79	18122
2026-01-22 20:48:22.96	186.02	6.86	-53.7	-55.8	6.2	0.00e+00	0	44	104	0	79	17867
2026-01-22 20:48:23.97	186.09	6.94	-53.7	-55.8	6.2	0.00e+00	0	44	104	0	79	17810
2026-01-22 20:48:24.98	186.16	7.03	-53.8	-55.9	6.2	0.00e+00	0	44	104	0	79	18135
2026-01-22 20:48:25.98	186.23	7.11	-53.8	-55.9	6.2	0.00e+00	0	44	104	0	79	18118
2026-01-22 20:48:26.99	186.30	7.20	-53.7	-55.8	6.2	0.00e+00	0	44	104	0	79	17945
2026-01-22 20:48:28.00	186.37	7.28	-53.7	-55.8	6.2	0.00e+00	0	44	104	0	79	17888
2026-01-22 20:48:29.01	186.44	7.37	-53.8	-55.9	6.2	0.00e+00	0	44	104	0	79	18133
2026-01-22 20:48:30.01	186.51	7.45	-53.8	-56.0	6.2	0.00e+00	0	44	104	0	79	18180
2026-01-22 20:48:31.02	186.59	7.54	-53.8	-55.8	6.2	0.00e+00	0	44	104	0	79	17959
2026-01-22 20:48:32.03	186.66	7.63	-53.7	-55.9	6.2	0.00e+00	0	44	104	0	79	17978
2026-01-22 20:48:33.04	186.73	7.72	-53.8	-55.9	6.2	0.00e+00	0	44	104	0	79	18162
2026-01-22 20:48:34.05	186.81	7.80	-53.9	-55.9	6.2	0.00e+00	0	44	104	0	79	18169
2026-01-22 20:48:35.05	186.88	7.89	-53.8	-55.9	6.2	0.00e+00	0	44	104	0	79	18014
2026-01-22 20:48:36.06	186.96	7.98	-53.7	-55.8	6.2	0.00e+00	0	44	104	0	79	17971
2026-01-22 20:48:37.07	187.03	8.07	-53.9	-56.0	6.2	0.00e+00	0	44	104	0	79	18227
2026-01-22 20:48:38.07	187.11	8.16	-53.9	-56.0	6.2	0.00e+00	0	44	104	0	79	18199
2026-01-22 20:48:39.08	187.18	8.25	-53.8	-55.9	6.2	0.00e+00	0	44	104	0	79	17996
2026-01-22 20:48:40.09	187.26	8.34	-52.1	-53.5	6.4	0.00e+00	0	44	104	0	75	17229
2026-01-22 20:48:41.10	187.34	8.43	-49.8	-50.6	6.3	0.00e+00	0	44	104	0	70	16547
2026-01-22 20:48:42.11	187.42	8.52	-46.3	-46.7	6.4	0.00e+00	0	44	104	0	64	14907
2026-01-22 20:48:43.11	187.49	8.61	-46.1	-46.4	6.3	0.00e+00	0	44	104	0	64	14391
2026-01-22 20:48:44.12	187.57	8.70	-45.9	-46.4	6.3	0.00e+00	0	44	104	0	63	15184
2026-01-22 20:48:45.13	187.65	8.79	-46.4	-46.8	6.3	0.00e+00	0	44	104	0	63	15908
2026-01-22 20:48:46.14	187.73	8.88	-49.4	-50.1	6.3	0.00e+00	0	44	104	0	70	15649
2026-01-22 20:48:47.15	187.82	8.98	-49.2	-49.9	6.3	0.00e+00	0	44	104	0	69	16202
2026-01-22 20:48:48.15	187.90	9.07	-48.5	-49.1	6.3	0.00e+00	0	44	104	0	69	14750
2026-01-22 20:48:49.16	187.98	9.16	-49.3	-50.0	6.3	0.00e+00	0	44	104	0	69	16322
2026-01-22 20:48:50.17	188.06	9.26	-46.0	-46.4	6.3	0.00e+00	0	44	104	0	63	15216
2026-01-22 20:48:51.18	188.14	9.35	-45.8	-46.2	6.3	0.00e+00	0	44	104	0	63	14808
2026-01-22 20:48:52.19	188.23	9.44	-45.5	-45.7	6.1	0.00e+00	0	44	104	0	63	14104
2026-01-22 20:48:53.20	188.31	9.54	-45.3	-45.6	6.0	0.00e+00	0	44	104	0	62	14618
2026-01-22 20:48:54.21	188.40	9.63	-48.6	-49.2	6.2	0.00e+00	0	44	104	0	69	14854
2026-01-22 20:48:55.21	188.48	9.73	-47.3	-47.7	6.1	0.00e+00	0	44	104	0	66	14890
2026-01-22 20:48:56.22	188.57	9.83	-35.8	-35.6	14.9	8.33e-04	0	44	104	0	43	13862
2026-01-22 20:48:57.23	188.66	9.92	-37.5	-37.3	14.6	5.76e-04	0	44	0	109051904	47	13448
2026-01-22 20:48:58.24	188.75	10.02	-29.4	-29.2	16.6	7.60e-06	0	44	0	234881024	30	14099
2026-01-22 20:48:59.25	188.83	10.12	-29.6	-29.5	16.5	5.70e-06	0	44	0	352321536	30	14498
2026-01-22 20:49:00.25	188.92	10.22	-29.4	-29.3	16.6	3.80e-06	0	44	0	461373440	30	14172
2026-01-22 20:49:01.26	189.01	10.31	-29.4	-29.3	16.6	1.90e-06	0	45	0	570425344	30	14114
2026-01-22 20:49:02.27	189.10	10.41	-29.4	-29.2	16.8	7.60e-06	0	45	0	687865856	30	14027
2026-01-22 20:49:03.27	189.19	10.51	-29.5	-29.3	16.7	1.90e-06	0	44	0	796917760	30	14220
2026-01-22 20:49:04.28	189.29	10.61	-29.5	-29.4	16.6	1.90e-06	0	45	0	914358272	30	14339
2026-01-22 20:49:05.29	189.38	10.71	-29.5	-29.4	16.6	5.70e-06	0	44	0	1023410176	30	14349
2026-01-22 20:49:06.30	189.47	10.81	-29.4	-29.3	16.6	1.90e-06	0	44	0	1140850688	30	14116
2026-01-22 20:49:07.30	189.57	10.91	-29.3	-29.2	16.7	3.80e-06	0	45	0	1249902592	30	13965
2026-01-22 20:49:08.31	189.66	11.02	-29.1	-29.0	16.7	9.50e-06	0	45	0	1358954496	30	13671
2026-01-22 20:49:09.32	189.76	11.12	-28.9	-28.7	16.8	7.60e-06	0	45	0	1476395008	29	14064
2026-01-22 20:49:10.33	189.85	11.22	-28.9	-28.7	16.8	1.90e-06	0	45	0	1585446912	29	14098
2026-01-22 20:49:11.33	189.95	11.32	-28.9	-28.7	16.7	3.80e-06	0	45	0	1711276032	29	14024
2026-01-22 20:49:12.34	190.05	11.43	-28.7	-28.6	16.8	3.80e-06	0	45	0	1820327936	29	13817
2026-01-22 20:49:13.35	190.15	11.53	-28.6	-28.4	16.9	0.00e+00	0	45	0	1937768448	29	13596
2026-01-22 20:49:14.36	190.25	11.64	-28.8	-28.6	16.8	1.90e-06	0	44	0	2046820352	29	13928
2026-01-22 20:49:15.37	190.35	11.74	-28.7	-28.5	16.9	1.90e-06	0	45	0	2164260864	29	13767
2026-01-22 20:49:16.37	190.45	11.85	-28.7	-28.5	16.9	0.00e+00	0	45	0	2273312768	29	13781
2026-01-22 20:49:17.38	190.55	11.95	-28.6	-28.5	16.9	1.90e-06	0	45	0	2382364672	29	13649
2026-01-22 20:49:18.39	190.65	12.06	-28.6	-28.4	16.9	0.00e+00	0	45	0	2499805184	29	13608
2026-01-22 20:49:19.40	190.76	12.17	-28.5	-28.4	17.0	0.00e+00	0	45	0	2608857088	29	13540
2026-01-22 20:49:20.41	190.86	12.28	-28.3	-28.2	17.1	1.90e-06	0	45	0	2726297600	28	13953
2026-01-22 20:49:21.41	190.97	12.38	-28.4	-28.2	17.1	0.00e+00	0	45	0	2835349504	28	14039
2026-01-22 20:49:22.42	191.07	12.49	-28.3	-28.1	17.1	1.90e-06	0	45	0	2944401408	28	13878
2026-01-22 20:49:23.43	191.18	12.60	-28.3	-28.2	17.1	3.80e-06	0	45	0	3061841920	28	13953
2026-01-22 20:49:24.44	191.29	12.71	-28.0	-27.9	17.1	0.00e+00	0	45	0	3187671040	28	13537
2026-01-22 20:49:25.45	191.40	12.83	-28.1	-28.0	17.1	1.90e-06	0	45	0	3296722944	28	13659
2026-01-22 20:49:26.45	191.51	12.94	-28.1	-28.0	17.1	0.00e+00	0	45	0	3405774848	28	13677
2026-01-22 20:49:27.46	191.62	13.05	-28.1	-28.0	17.1	0.00e+00	0	45	0	3523215360	28	13691
2026-01-22 20:49:28.47	191.73	13.16	-28.1	-27.9	17.3	1.90e-06	0	45	0	3632267264	28	13549
2026-01-22 20:49:29.48	191.85	13.27	-27.9	-27.7	17.3	0.00e+00	0	45	0	3749707776	27	14026
2026-01-22 20:49:30.49	191.96	13.39	-28.0	-27.8	17.2	1.90e-06	0	45	0	3858759680	27	14199
2026-01-22 20:49:31.49	192.07	13.50	-28.1	-28.0	17.3	1.90e-06	0	45	0	3967811584	27	14467
2026-01-22 20:49:32.50	192.19	13.62	-27.9	-27.7	17.2	0.00e+00	0	45	0	4085252096	27	14100
2026-01-22 20:49:33.51	192.31	13.73	-27.8	-27.7	17.4	3.80e-06	0	45	0	4194304000	27	14020
2026-01-22 20:49:34.52	192.43	13.85	-27.9	-27.7	17.3	0.00e+00	0	45	0	4311744512	27	14030
2026-01-22 20:49:35.53	192.55	13.96	-27.7	-27.6	17.4	3.80e-06	0	45	0	4420796416	27	13824
2026-01-22 20:49:36.53	192.66	14.08	-27.8	-27.6	17.4	0.00e+00	0	45	0	4546625536	27	13925
2026-01-22 20:49:37.54	192.79	14.20	-27.7	-27.5	17.5	0.00e+00	0	45	0	4655677440	27	13768
2026-01-22 20:49:38.55	192.91	14.32	-27.5	-27.3	17.4	0.00e+00	0	45	0	4773117952	27	13459
2026-01-22 20:49:39.56	193.03	14.44	-27.6	-27.5	17.5	0.00e+00	0	45	0	4882169856	27	13635
2026-01-22 20:49:40.57	193.16	14.56	-27.6	-27.5	17.6	1.90e-06	0	45	0	4999610368	27	13635
2026-01-22 20:49:41.58	193.28	14.68	-27.6	-27.4	17.5	0.00e+00	0	45	0	5108662272	27	13539
2026-01-22 20:49:42.59	193.41	14.80	-27.5	-27.3	17.5	0.00e+00	0	45	0	5217714176	27	13469
2026-01-22 20:49:43.59	193.54	14.92	-27.4	-27.2	17.4	0.00e+00	0	45	0	5335154688	26	14094
2026-01-22 20:49:44.60	193.67	15.04	-27.3	-27.1	17.5	0.00e+00	0	45	0	5444206592	26	13927
2026-01-22 20:49:45.61	193.80	15.16	-27.2	-27.1	17.5	0.00e+00	0	45	0	5561647104	26	13839
2026-01-22 20:49:46.62	193.93	15.29	-27.3	-27.2	17.5	0.00e+00	0	45	0	5670699008	26	13990
2026-01-22 20:49:47.63	194.06	15.41	-27.3	-27.1	17.5	0.00e+00	0	45	0	5779750912	26	13890
2026-01-22 20:49:48.64	194.20	15.54	-27.2	-27.1	17.7	1.90e-06	0	45	0	5905580032	26	13824
2026-01-22 20:49:49.65	194.33	15.66	-27.3	-27.1	17.7	0.00e+00	0	45	0	6023020544	26	13894
2026-01-22 20:49:50.65	194.47	15.79	-27.2	-27.0	17.6	0.00e+00	0	45	0	6132072448	26	13760
2026-01-22 20:49:51.66	194.61	15.92	-27.1	-26.9	17.5	0.00e+00	0	45	0	6241124352	26	13585
2026-01-22 20:49:52.67	194.75	16.04	-27.1	-26.9	17.4	0.00e+00	0	45	0	6358564864	26	13587
2026-01-22 20:49:53.68	194.89	16.17	-27.1	-26.9	17.6	1.90e-06	0	45	0	6467616768	26	13587
2026-01-22 20:49:54.69	195.03	16.30	-26.8	-26.6	17.7	0.00e+00	0	45	0	6585057280	25	13947
2026-01-22 20:49:55.69	195.17	16.43	-26.8	-26.7	17.4	0.00e+00	0	45	0	6694109184	25	13989
2026-01-22 20:49:56.70	195.32	16.56	-26.9	-26.8	17.6	0.00e+00	0	45	0	6803161088	25	14128
2026-01-22 20:49:57.71	195.46	16.69	-26.8	-26.7	17.6	0.00e+00	0	45	0	6920601600	25	13985
2026-01-22 20:49:58.72	195.61	16.83	-26.7	-26.5	17.5	0.00e+00	0	45	0	7029653504	25	13783
2026-01-22 20:49:59.73	195.76	16.96	-26.7	-26.5	17.7	0.00e+00	0	45	0	7147094016	25	13719
2026-01-22 20:50:00.73	195.91	17.09	-26.5	-26.4	17.5	0.00e+00	0	45	0	7256145920	25	13504
2026-01-22 20:50:01.74	196.06	17.23	-26.4	-26.3	17.5	0.00e+00	0	45	0	7381975040	24	14159
2026-01-22 20:50:02.75	196.21	17.36	-26.5	-26.4	17.7	0.00e+00	0	45	0	7491026944	24	14312
2026-01-22 20:50:03.76	196.37	17.50	-26.4	-26.3	17.5	0.00e+00	0	45	0	7608467456	24	14175
2026-01-22 20:50:04.77	196.53	17.63	-26.4	-26.2	17.7	0.00e+00	0	45	0	7717519360	24	14074
2026-01-22 20:50:05.78	196.69	17.77	-26.3	-26.1	17.8	0.00e+00	0	45	0	7826571264	24	13878
2026-01-22 20:50:06.78	196.84	17.91	-26.2	-26.0	17.7	0.00e+00	0	45	0	7944011776	24	13711
2026-01-22 20:50:07.79	197.01	18.05	-26.2	-26.0	17.7	0.00e+00	0	45	0	8053063680	24	13779
2026-01-22 20:50:08.80	197.17	18.19	-26.1	-25.9	17.8	0.00e+00	0	45	0	8170504192	24	13612
2026-01-22 20:50:09.81	197.33	18.33	-26.1	-25.9	17.9	0.00e+00	0	45	0	8279556096	24	13551
2026-01-22 20:50:10.81	197.50	18.47	-26.0	-25.8	17.8	0.00e+00	0	45	0	8396996608	24	13415
2026-01-22 20:50:11.82	197.67	18.61	-25.9	-25.8	17.7	0.00e+00	0	45	0	8506048512	23	14123
2026-01-22 20:50:12.83	197.84	18.75	-26.0	-25.8	17.7	0.00e+00	0	45	0	8615100416	23	14203
2026-01-22 20:50:13.83	198.01	18.90	-26.0	-25.8	17.9	0.00e+00	0	45	0	8740929536	23	14226
2026-01-22 20:50:14.84	198.18	19.04	-25.9	-25.7	18.0	0.00e+00	0	45	0	8858370048	23	14016
2026-01-22 20:50:15.85	198.36	19.19	-25.7	-25.5	18.1	0.00e+00	0	45	0	8967421952	23	13773
2026-01-22 20:50:16.86	198.54	19.33	-25.8	-25.6	18.1	0.00e+00	0	45	0	9076473856	23	13902
2026-01-22 20:50:17.87	198.72	19.48	-25.6	-25.5	18.1	0.00e+00	0	45	0	9193914368	23	13692
2026-01-22 20:50:18.88	198.90	19.63	-25.7	-25.6	18.0	0.00e+00	0	45	0	9302966272	23	13826
2026-01-22 20:50:19.89	199.08	19.78	-25.6	-25.4	18.0	0.00e+00	0	45	0	9420406784	23	13630
2026-01-22 20:50:20.90	199.27	19.93	-25.4	-25.3	18.0	0.00e+00	0	45	0	9529458688	22	14158
2026-01-22 20:50:21.91	199.45	20.08	-25.4	-25.2	18.2	0.00e+00	0	45	0	9638510592	22	14077
2026-01-22 20:50:22.92	199.64	20.23	-25.3	-25.2	18.3	0.00e+00	0	45	0	9755951104	22	13953
2026-01-22 20:50:23.93	199.83	20.38	-25.3	-25.1	18.3	0.00e+00	0	45	0	9865003008	22	13902
2026-01-22 20:50:24.93	200.02	20.53	-25.5	-25.3	18.3	0.00e+00	0	45	0	9990832128	22	14269
2026-01-22 20:50:25.94	200.22	20.69	-25.4	-25.2	18.3	0.00e+00	0	45	0	10099884032	22	14056
2026-01-22 20:50:26.95	200.42	20.84	-25.1	-25.0	18.2	0.00e+00	0	45	0	10217324544	22	13659
2026-01-22 20:50:27.96	200.62	21.00	-25.2	-25.0	18.4	0.00e+00	0	45	0	10326376448	22	13754
2026-01-22 20:50:28.97	200.82	21.15	-25.0	-24.8	18.4	0.00e+00	0	45	0	10443816960	22	13458
2026-01-22 20:50:29.98	201.03	21.31	-25.0	-24.9	18.4	0.00e+00	0	45	0	10552868864	22	13501
2026-01-22 20:50:30.99	201.23	21.47	-24.9	-24.8	18.5	0.00e+00	0	45	0	10661920768	21	14138
2026-01-22 20:50:31.99	201.44	21.63	-24.8	-24.7	18.3	0.00e+00	0	45	0	10779361280	21	13981
2026-01-22 20:50:33.00	201.65	21.79	-25.0	-24.8	18.5	0.00e+00	0	45	0	10888413184	21	14178
2026-01-22 20:50:34.01	201.86	21.95	-24.7	-24.5	18.3	0.00e+00	0	45	0	11005853696	21	13773
2026-01-22 20:50:35.02	202.08	22.11	-24.7	-24.5	18.6	0.00e+00	0	45	0	11114905600	21	13771
2026-01-22 20:50:36.03	202.30	22.27	-24.7	-24.5	18.4	0.00e+00	0	45	0	11223957504	21	13690
2026-01-22 20:50:37.04	202.52	22.43	-24.6	-24.5	18.3	0.00e+00	0	45	0	11349786624	21	13675
2026-01-22 20:50:38.05	202.74	22.60	-24.7	-24.6	18.5	0.00e+00	0	45	0	11467227136	21	13828
2026-01-22 20:50:39.05	202.97	22.76	-24.5	-24.3	18.4	0.00e+00	0	45	0	11576279040	21	13476
2026-01-22 20:50:40.06	203.20	22.93	-24.4	-24.2	18.4	0.00e+00	0	45	0	11685330944	20	14055
2026-01-22 20:50:41.07	203.43	23.10	-24.4	-24.3	18.5	0.00e+00	0	45	0	11802771456	20	14129
2026-01-22 20:50:42.08	203.66	23.26	-24.2	-24.1	18.4	0.00e+00	0	45	0	11911823360	20	13816
2026-01-22 20:50:43.09	203.90	23.43	-24.3	-24.2	18.4	0.00e+00	0	45	0	12029263872	20	13983
2026-01-22 20:50:44.10	204.14	23.60	-24.3	-24.1	18.5	0.00e+00	0	45	0	12138315776	20	13912
2026-01-22 20:50:45.10	204.38	23.77	-24.0	-23.9	18.4	0.00e+00	0	45	0	12255756288	20	13521
2026-01-22 20:50:46.11	204.63	23.94	-24.1	-23.9	18.4	0.00e+00	0	45	0	12364808192	19	14359
2026-01-22 20:50:47.12	204.88	24.11	-24.1	-24.0	18.4	0.00e+00	0	45	0	12473860096	19	14485
2026-01-22 20:50:48.13	205.13	24.29	-24.1	-24.0	18.6	0.00e+00	0	45	0	12591300608	19	14490
2026-01-22 20:50:49.14	205.38	24.46	-24.1	-23.9	18.4	0.00e+00	0	45	0	12717129728	19	14364
2026-01-22 20:50:50.15	205.64	24.64	-24.0	-23.8	18.5	0.00e+00	0	45	0	12826181632	19	14254
2026-01-22 20:50:51.16	205.90	24.81	-23.8	-23.7	18.7	0.00e+00	0	45	0	12935233536	19	13958
2026-01-22 20:50:52.17	206.16	24.99	-23.8	-23.6	18.7	0.00e+00	0	45	0	13052674048	19	13942
2026-01-22 20:50:53.17	206.43	25.16	-23.7	-23.5	18.7	0.00e+00	0	45	0	13161725952	19	13789
2026-01-22 20:50:54.18	206.70	25.34	-23.7	-23.5	18.7	0.00e+00	0	45	0	13279166464	19	13763
2026-01-22 20:50:55.19	206.97	25.52	-23.7	-23.5	18.7	0.00e+00	0	45	0	13388218368	19	13742
2026-01-22 20:50:56.20	207.25	25.70	-23.6	-23.4	18.7	0.00e+00	0	45	0	13497270272	19	13608
2026-01-22 20:50:57.21	207.53	25.88	-23.5	-23.3	18.7	0.00e+00	0	45	0	13614710784	19	13470
2026-01-22 20:50:58.22	207.81	26.06	-23.5	-23.4	18.7	0.00e+00	0	45	0	13723762688	18	14277
2026-01-22 20:50:59.23	208.10	26.24	-23.5	-23.3	18.7	0.00e+00	0	45	0	13841203200	18	14242
2026-01-22 20:51:00.24	208.39	26.43	-23.3	-23.2	18.5	0.00e+00	0	45	0	13958643712	18	13996
2026-01-22 20:51:01.25	208.69	26.61	-23.3	-23.1	18.6	0.00e+00	0	45	0	14076084224	18	13855
2026-01-22 20:51:02.25	208.98	26.79	-23.4	-23.2	18.6	0.00e+00	0	45	0	14185136128	18	14020
2026-01-22 20:51:03.26	209.28	26.98	-23.3	-23.1	18.6	0.00e+00	0	45	0	14302576640	18	13927
2026-01-22 20:51:04.27	209.59	27.16	-23.2	-23.1	18.7	0.00e+00	0	45	0	14411628544	18	13817
2026-01-22 20:51:05.28	209.90	27.35	-23.3	-23.2	18.5	0.00e+00	0	45	0	14520680448	18	13962
2026-01-22 20:51:06.28	210.21	27.54	-23.4	-23.2	18.5	0.00e+00	0	45	0	14638120960	18	14034
2026-01-22 20:51:07.30	210.53	27.73	-23.0	-22.9	18.5	0.00e+00	0	45	0	14747172864	18	13495
2026-01-22 20:51:08.31	210.85	27.91	-22.9	-22.7	18.6	0.00e+00	0	45	0	14864613376	17	14060
2026-01-22 20:51:09.31	211.17	28.10	-22.9	-22.7	18.6	0.00e+00	0	45	0	14973665280	17	14108
2026-01-22 20:51:10.32	211.50	28.29	-22.9	-22.7	18.3	0.00e+00	0	45	0	15082717184	17	14037
2026-01-22 20:51:11.33	211.84	28.48	-22.9	-22.8	18.3	0.00e+00	0	45	0	15200157696	17	14142
2026-01-22 20:51:12.34	212.18	28.67	-23.0	-22.9	18.2	0.00e+00	0	45	0	15325986816	17	14292
2026-01-22 20:51:13.35	212.52	28.86	-22.7	-22.5	18.5	0.00e+00	0	45	0	15435038720	17	13756
2026-01-22 20:51:14.35	212.86	29.05	-22.6	-22.4	18.5	0.00e+00	0	45	0	15544090624	17	13564
2026-01-22 20:51:15.36	213.21	29.24	-22.6	-22.5	18.2	0.00e+00	0	45	0	15661531136	17	13676
2026-01-22 20:51:16.37	213.57	29.44	-22.6	-22.4	18.4	0.00e+00	0	45	0	15770583040	17	13585
2026-01-22 20:51:17.38	213.93	29.63	-22.5	-22.4	18.2	0.00e+00	0	45	0	15888023552	17	13487
2026-01-22 20:51:18.38	214.29	29.82	-22.3	-22.2	18.5	0.00e+00	0	45	0	15997075456	16	13998
2026-01-22 20:51:19.39	214.66	30.01	-22.3	-22.2	18.1	0.00e+00	0	45	0	16114515968	16	13983
2026-01-22 20:51:20.40	215.03	30.21	-22.4	-22.2	18.4	0.00e+00	0	45	0	16223567872	16	14037
2026-01-22 20:51:21.41	215.41	30.40	-22.4	-22.2	18.2	0.00e+00	0	45	0	16332619776	16	13999
2026-01-22 20:51:22.42	215.80	30.60	-22.3	-22.1	18.3	0.00e+00	0	45	0	16450060288	16	13937
2026-01-22 20:51:23.43	216.18	30.79	-22.2	-22.1	18.4	0.00e+00	0	45	0	16559112192	16	13813
2026-01-22 20:51:24.44	216.58	30.99	-22.2	-22.1	18.5	0.00e+00	0	45	0	16684941312	16	13804
2026-01-22 20:51:25.45	216.98	31.18	-22.2	-22.0	18.2	0.00e+00	0	45	0	16793993216	16	13720
2026-01-22 20:51:26.45	217.38	31.38	-22.1	-21.9	18.3	0.00e+00	0	45	0	16911433728	16	13612
2026-01-22 20:51:27.46	217.79	31.57	-22.1	-21.9	18.5	0.00e+00	0	45	0	17020485632	16	13632
2026-01-22 20:51:28.47	218.20	31.77	-22.0	-21.9	18.2	0.00e+00	0	45	0	17137926144	16	13510
2026-01-22 20:51:29.48	218.62	31.96	-22.1	-21.9	18.3	0.00e+00	0	45	0	17246978048	16	13586
2026-01-22 20:51:30.49	219.04	32.16	-22.0	-21.9	18.2	0.00e+00	0	45	0	17356029952	16	13527
2026-01-22 20:51:31.49	219.47	32.35	-21.9	-21.7	18.0	0.00e+00	0	45	0	17473470464	15	14008
2026-01-22 20:51:32.50	219.90	32.54	-21.9	-21.7	18.0	0.00e+00	0	45	0	17582522368	15	14070
2026-01-22 20:51:33.51	220.35	32.74	-21.9	-21.7	18.1	0.00e+00	0	45	0	17699962880	15	14064
2026-01-22 20:51:34.52	220.79	32.93	-21.8	-21.6	18.1	0.00e+00	0	45	0	17809014784	15	13849
2026-01-22 20:51:35.53	221.24	33.12	-21.7	-21.5	17.8	0.00e+00	0	46	0	17918066688	15	13768
2026-01-22 20:51:36.53	221.70	33.32	-21.6	-21.5	18.1	0.00e+00	0	45	0	18043895808	15	13684
2026-01-22 20:51:37.54	222.16	33.51	-21.8	-21.6	18.1	0.00e+00	0	45	0	18161336320	15	13864
2026-01-22 20:51:38.55	222.63	33.70	-21.8	-21.7	17.7	0.00e+00	0	45	0	18270388224	15	13962
2026-01-22 20:51:39.56	223.11	33.89	-21.7	-21.5	17.6	0.00e+00	0	46	0	18379440128	15	13738
2026-01-22 20:51:40.57	223.59	34.08	-21.6	-21.4	17.5	0.00e+00	0	45	0	18496880640	15	13547
2026-01-22 20:51:41.57	224.07	34.27	-21.6	-21.4	17.4	0.00e+00	0	45	0	18605932544	15	13608
2026-01-22 20:51:42.58	224.56	34.46	-21.4	-21.2	17.5	0.00e+00	0	45	0	18723373056	14	14099
2026-01-22 20:51:43.59	225.06	34.65	-21.4	-21.3	17.4	0.00e+00	0	46	0	18832424960	14	14112
2026-01-22 20:51:44.60	225.57	34.83	-21.3	-21.2	17.4	0.00e+00	0	45	0	18949865472	14	13957
2026-01-22 20:51:45.61	226.08	35.02	-21.3	-21.1	17.5	0.00e+00	0	45	0	19058917376	14	13888
2026-01-22 20:51:46.61	226.59	35.20	-21.3	-21.2	17.4	0.00e+00	0	45	0	19167969280	14	13957
2026-01-22 20:51:47.62	227.11	35.38	-21.4	-21.2	17.3	0.00e+00	0	45	0	19285409792	14	14081
2026-01-22 20:51:48.63	227.64	35.57	-21.4	-21.2	17.3	0.00e+00	0	46	0	19394461696	14	14085
2026-01-22 20:51:49.63	228.17	35.75	-21.1	-21.0	17.3	0.00e+00	0	46	0	19520290816	14	13642
2026-01-22 20:51:50.64	228.71	35.92	-21.1	-20.9	17.2	0.00e+00	0	45	0	19629342720	14	13616
2026-01-22 20:51:51.65	229.26	36.10	-21.1	-20.9	17.2	0.00e+00	0	45	0	19746783232	14	13567
2026-01-22 20:51:52.66	229.82	36.28	-21.1	-20.9	17.1	0.00e+00	0	45	0	19855835136	14	13545
2026-01-22 20:51:53.67	230.38	36.45	-21.0	-20.9	16.9	0.00e+00	0	45	0	19973275648	14	13536
2026-01-22 20:51:54.68	230.94	36.62	-21.1	-20.9	16.8	0.00e+00	0	45	0	20082327552	14	13544
2026-01-22 20:51:55.68	231.51	36.79	-21.1	-20.9	16.5	0.00e+00	0	46	0	20191379456	14	13542
2026-01-22 20:51:56.69	232.09	36.96	-20.9	-20.7	16.5	0.00e+00	0	45	0	20308819968	13	14044
2026-01-22 20:51:57.70	232.67	37.13	-20.7	-20.6	16.6	0.00e+00	0	45	0	20417871872	13	13850
2026-01-22 20:51:58.71	233.26	37.29	-20.9	-20.7	16.5	0.00e+00	0	45	0	20535312384	13	14025
2026-01-22 20:51:59.72	233.86	37.45	-20.9	-20.7	16.2	0.00e+00	0	45	0	20644364288	13	14070
2026-01-22 20:52:00.73	234.47	37.61	-20.7	-20.5	16.0	0.00e+00	0	45	0	20753416192	13	13743
2026-01-22 20:52:01.73	235.07	37.76	-20.7	-20.5	15.9	0.00e+00	0	45	0	20879245312	13	13787
2026-01-22 20:52:02.74	235.68	37.92	-20.7	-20.5	16.0	0.00e+00	0	45	0	20996685824	13	13774
2026-01-22 20:52:03.75	236.31	38.07	-20.7	-20.5	15.9	0.00e+00	0	46	0	21105737728	13	13723
2026-01-22 20:52:04.76	236.93	38.22	-20.7	-20.5	15.6	0.00e+00	0	45	0	21214789632	13	13739
2026-01-22 20:52:05.77	237.57	38.36	-20.6	-20.5	16.1	0.00e+00	0	45	0	21332230144	13	13669
2026-01-22 20:52:06.77	238.20	38.50	-20.5	-20.4	16.0	0.00e+00	0	46	0	21441282048	13	13519
2026-01-22 20:52:07.78	238.84	38.64	-20.6	-20.5	15.8	0.00e+00	0	45	0	21558722560	13	13644
2026-01-22 20:52:08.79	239.49	38.78	-20.6	-20.5	16.3	1.90e-06	0	45	0	21667774464	13	13663
2026-01-22 20:52:09.80	240.15	38.91	-20.5	-20.3	15.9	0.00e+00	0	45	0	21776826368	13	13446
2026-01-22 20:52:10.80	240.81	39.03	-20.5	-20.3	16.4	0.00e+00	0	45	0	21894266880	13	13451
2026-01-22 20:52:11.81	241.47	39.16	-20.4	-20.3	15.8	0.00e+00	0	45	0	22003318784	12	14136
2026-01-22 20:52:12.82	242.14	39.28	-20.4	-20.2	16.3	0.00e+00	0	45	0	22120759296	12	14042
2026-01-22 20:52:13.83	242.82	39.40	-20.4	-20.2	16.0	0.00e+00	0	45	0	22229811200	12	14073
2026-01-22 20:52:14.84	243.50	39.51	-20.4	-20.2	15.9	0.00e+00	0	45	0	22355640320	12	14049
2026-01-22 20:52:15.84	244.18	39.62	-20.3	-20.2	16.3	0.00e+00	0	45	0	22464692224	12	13981
2026-01-22 20:52:16.85	244.88	39.73	-20.3	-20.1	16.3	0.00e+00	0	46	0	22582132736	12	13946
2026-01-22 20:52:17.86	245.57	39.83	-20.3	-20.1	16.2	0.00e+00	0	46	0	22691184640	12	13917
2026-01-22 20:52:18.87	246.27	39.92	-20.3	-20.2	16.6	0.00e+00	0	45	0	22808625152	12	13975
2026-01-22 20:52:19.88	246.98	40.02	-20.3	-20.1	16.1	0.00e+00	0	45	0	22917677056	12	13938
2026-01-22 20:52:20.89	247.69	40.11	-20.3	-20.2	16.3	0.00e+00	0	45	0	23026728960	12	13978
2026-01-22 20:52:21.89	248.39	40.19	-20.4	-20.2	16.8	0.00e+00	0	45	0	23144169472	12	14074
2026-01-22 20:52:22.90	249.11	40.27	-20.5	-20.3	16.2	0.00e+00	0	45	0	23253221376	12	14223
2026-01-22 20:52:23.91	249.83	40.34	-20.4	-20.2	16.4	0.00e+00	0	45	0	23370661888	12	14049
2026-01-22 20:52:24.92	250.55	40.41	-20.4	-20.2	16.8	0.00e+00	0	45	0	23479713792	12	14062
2026-01-22 20:52:25.93	251.28	40.48	-20.4	-20.2	16.7	0.00e+00	0	46	0	23588765696	12	14091
2026-01-22 20:52:26.93	252.00	40.54	-20.4	-20.2	16.8	0.00e+00	0	45	0	23714594816	12	14036
2026-01-22 20:52:27.94	252.73	40.59	-20.4	-20.2	16.9	0.00e+00	0	45	0	23832035328	12	14094
2026-01-22 20:52:28.95	253.47	40.65	-20.5	-20.4	16.7	0.00e+00	0	45	0	23941087232	12	14294
2026-01-22 20:52:29.96	254.20	40.69	-20.4	-20.3	16.9	0.00e+00	0	46	0	24050139136	12	14117
2026-01-22 20:52:30.96	254.94	40.73	-20.6	-20.4	17.2	0.00e+00	0	45	0	24167579648	12	14424
2026-01-22 20:52:31.97	255.68	40.77	-20.5	-20.4	17.4	0.00e+00	0	45	0	24276631552	12	14296
2026-01-22 20:52:32.98	256.42	40.80	-20.6	-20.4	17.7	0.00e+00	0	45	0	24394072064	12	14348
2026-01-22 20:52:33.99	257.16	40.82	-20.5	-20.3	17.6	0.00e+00	0	46	0	24503123968	12	14191
2026-01-22 20:52:35.00	257.91	40.84	-20.5	-20.4	17.7	0.00e+00	0	45	0	24612175872	12	14295
2026-01-22 20:52:36.01	258.65	40.86	-20.5	-20.4	17.7	0.00e+00	0	46	0	24729616384	12	14295
2026-01-22 20:52:37.01	259.39	40.87	-20.4	-20.3	17.7	0.00e+00	0	46	0	24838668288	12	14153
2026-01-22 20:52:38.02	260.14	40.88	-20.6	-20.4	17.7	0.00e+00	0	45	0	24956108800	12	14394
2026-01-22 20:52:39.03	260.88	40.88	-20.5	-20.3	17.9	0.00e+00	0	45	0	25065160704	12	14273
2026-01-22 20:52:40.04	261.63	40.87	-20.6	-20.4	18.0	0.00e+00	0	45	0	25190989824	12	14382
2026-01-22 20:52:41.05	262.38	40.86	-20.6	-20.4	18.1	0.00e+00	0	46	0	25300041728	12	14437
2026-01-22 20:52:42.05	263.11	40.84	-20.6	-20.4	18.1	0.00e+00	0	46	0	25417482240	12	14336
2026-01-22 20:52:43.06	263.86	40.82	-20.7	-20.5	18.0	0.00e+00	0	46	0	25526534144	12	14559
2026-01-22 20:52:44.07	264.60	40.80	-20.7	-20.5	17.9	0.00e+00	0	46	0	25635586048	12	14518
2026-01-22 20:52:45.07	265.34	40.77	-20.7	-20.5	18.0	0.00e+00	0	45	0	25753026560	12	14544
2026-01-22 20:52:46.08	266.08	40.73	-20.7	-20.5	18.2	0.00e+00	0	46	0	25862078464	12	14597
2026-01-22 20:52:47.09	266.81	40.69	-20.6	-20.5	18.4	0.00e+00	0	45	0	25979518976	12	14489
2026-01-22 20:52:48.10	267.55	40.64	-20.8	-20.6	18.3	0.00e+00	0	46	0	26088570880	12	14681
2026-01-22 20:52:49.11	268.28	40.59	-20.8	-20.6	18.3	0.00e+00	0	45	0	26206011392	12	14751
2026-01-22 20:52:50.12	269.02	40.53	-20.8	-20.6	18.3	0.00e+00	0	45	0	26315063296	12	14685
2026-01-22 20:52:51.13	269.75	40.47	-20.7	-20.5	18.2	0.00e+00	0	46	0	26424115200	12	14552
2026-01-22 20:52:52.13	270.46	40.41	-20.8	-20.6	18.1	0.00e+00	0	46	0	26549944320	12	14724
2026-01-22 20:52:53.14	271.19	40.34	-20.8	-20.6	18.3	0.00e+00	0	46	0	26667384832	12	14713
2026-01-22 20:52:54.15	271.91	40.26	-20.8	-20.6	18.5	0.00e+00	0	46	0	26776436736	12	14675
2026-01-22 20:52:55.16	272.62	40.18	-20.8	-20.6	18.3	0.00e+00	0	46	0	26885488640	12	14759
2026-01-22 20:52:56.17	273.33	40.10	-20.8	-20.7	18.3	0.00e+00	0	45	0	27002929152	12	14814
2026-01-22 20:52:57.17	274.04	40.01	-20.7	-20.6	18.4	0.00e+00	0	46	0	27111981056	12	14652
2026-01-22 20:52:58.18	274.74	39.92	-20.8	-20.7	18.1	0.00e+00	0	46	0	27229421568	12	14811
2026-01-22 20:52:59.19	275.44	39.82	-20.7	-20.6	18.3	0.00e+00	0	46	0	27338473472	12	14648
2026-01-22 20:53:00.20	276.13	39.72	-20.8	-20.7	18.3	0.00e+00	0	45	0	27447525376	12	14804
2026-01-22 20:53:01.21	276.83	39.61	-20.8	-20.6	18.2	0.00e+00	0	46	0	27564965888	12	14722
2026-01-22 20:53:02.21	277.51	39.50	-20.8	-20.7	18.5	0.00e+00	0	46	0	27674017792	12	14798
2026-01-22 20:53:03.22	278.19	39.39	-20.8	-20.7	18.2	0.00e+00	0	46	0	27791458304	12	14780
2026-01-22 20:53:04.23	278.86	39.27	-20.9	-20.8	18.4	0.00e+00	0	46	0	27900510208	12	15006
2026-01-22 20:53:05.24	279.53	39.15	-21.0	-20.8	18.2	0.00e+00	0	46	0	28026339328	12	15015
2026-01-22 20:53:06.25	280.20	39.03	-21.1	-20.9	18.4	0.00e+00	0	46	0	28135391232	12	15191
2026-01-22 20:53:07.25	280.85	38.90	-21.0	-20.8	18.2	0.00e+00	0	45	0	28252831744	12	15052
2026-01-22 20:53:08.26	281.51	38.77	-21.0	-20.9	18.4	0.00e+00	0	46	0	28361883648	12	15133
2026-01-22 20:53:09.27	282.16	38.63	-21.2	-21.0	18.3	0.00e+00	0	46	0	28470935552	12	15360
2026-01-22 20:53:10.28	282.80	38.49	-21.1	-21.0	18.4	0.00e+00	0	46	0	28588376064	12	15349
2026-01-22 20:53:11.29	283.44	38.35	-21.1	-20.9	18.4	0.00e+00	0	46	0	28697427968	12	15252
2026-01-22 20:53:12.30	284.07	38.21	-21.1	-20.9	18.2	0.00e+00	0	46	0	28814868480	12	15286
2026-01-22 20:53:13.30	284.69	38.06	-21.2	-21.0	18.5	0.00e+00	0	46	0	28923920384	12	15379
2026-01-22 20:53:14.31	285.31	37.91	-21.2	-21.1	18.6	0.00e+00	0	46	0	29032972288	13	14643
2026-01-22 20:53:15.32	285.93	37.76	-21.3	-21.2	18.4	0.00e+00	0	46	0	29150412800	13	14790
2026-01-22 20:53:16.33	286.54	37.60	-21.4	-21.3	18.6	0.00e+00	0	46	0	29259464704	13	14977
2026-01-22 20:53:17.33	287.13	37.44	-21.4	-21.2	18.6	0.00e+00	0	45	0	29385293824	13	14849
2026-01-22 20:53:18.34	287.73	37.28	-21.4	-21.3	18.4	0.00e+00	0	45	0	29494345728	13	14985
2026-01-22 20:53:19.35	288.32	37.12	-21.5	-21.3	18.6	0.00e+00	0	45	0	29611786240	13	15092
2026-01-22 20:53:20.36	288.90	36.95	-21.5	-21.3	18.8	0.00e+00	0	45	0	29720838144	13	15116
2026-01-22 20:53:21.36	289.47	36.79	-21.6	-21.4	18.8	0.00e+00	0	46	0	29838278656	13	15195
2026-01-22 20:53:22.37	290.05	36.62	-21.6	-21.5	18.7	0.00e+00	0	46	0	29947330560	13	15330
2026-01-22 20:53:23.38	290.61	36.45	-21.8	-21.6	18.6	0.00e+00	0	46	0	30064771072	14	14662
2026-01-22 20:53:24.39	291.17	36.27	-21.8	-21.7	18.7	0.00e+00	0	46	0	30173822976	14	14787
2026-01-22 20:53:25.40	291.72	36.10	-21.8	-21.6	18.9	0.00e+00	0	45	0	30282874880	14	14756
2026-01-22 20:53:26.41	292.27	35.92	-21.8	-21.7	19.0	0.00e+00	0	46	0	30400315392	14	14792
2026-01-22 20:53:27.41	292.81	35.74	-21.9	-21.7	19.1	0.00e+00	0	45	0	30509367296	14	14939
2026-01-22 20:53:28.42	293.34	35.56	-21.9	-21.8	19.1	0.00e+00	0	45	0	30626807808	14	14970
2026-01-22 20:53:29.43	293.87	35.38	-22.1	-21.9	19.1	0.00e+00	0	46	0	30735859712	14	15186
2026-01-22 20:53:30.44	294.39	35.20	-22.0	-21.8	19.2	0.00e+00	0	46	0	30861688832	14	15056
2026-01-22 20:53:31.45	294.91	35.01	-22.1	-21.9	19.3	0.00e+00	0	46	0	30970740736	14	15271
2026-01-22 20:53:32.45	295.41	34.83	-22.1	-21.9	19.3	0.00e+00	0	45	0	31088181248	14	15239
2026-01-22 20:53:33.46	295.92	34.64	-22.2	-22.0	19.2	0.00e+00	0	45	0	31197233152	15	14517
2026-01-22 20:53:34.47	296.41	34.46	-22.2	-22.0	19.3	0.00e+00	0	45	0	31306285056	15	14555
2026-01-22 20:53:35.48	296.90	34.27	-22.3	-22.1	19.4	0.00e+00	0	46	0	31423725568	15	14652
2026-01-22 20:53:36.49	297.39	34.08	-22.3	-22.1	19.3	0.00e+00	0	45	0	31532777472	15	14760
2026-01-22 20:53:37.50	297.87	33.89	-22.3	-22.1	19.3	0.00e+00	0	45	0	31650217984	15	14766
2026-01-22 20:53:38.51	298.35	33.70	-22.4	-22.3	19.3	0.00e+00	0	45	0	31759269888	15	14994
2026-01-22 20:53:39.51	298.81	33.51	-22.4	-22.2	19.3	0.00e+00	0	45	0	31868321792	15	14936
2026-01-22 20:53:40.52	299.27	33.31	-22.4	-22.3	19.4	0.00e+00	0	46	0	31985762304	15	14967
2026-01-22 20:53:41.53	299.73	33.12	-22.6	-22.4	19.4	0.00e+00	0	45	0	32094814208	15	15256
2026-01-22 20:53:42.54	300.18	32.93	-22.5	-22.4	19.2	0.00e+00	0	46	0	32220643328	15	15153
2026-01-22 20:53:43.55	300.63	32.74	-22.7	-22.5	19.2	0.00e+00	0	46	0	32329695232	15	15362
2026-01-22 20:53:44.56	301.07	32.54	-22.8	-22.7	19.3	0.00e+00	0	45	0	32447135744	16	14796
2026-01-22 20:53:45.56	301.50	32.35	-22.8	-22.6	19.3	0.00e+00	0	46	0	32556187648	16	14738
2026-01-22 20:53:46.57	301.93	32.16	-23.0	-22.8	19.2	0.00e+00	0	45	0	32673628160	16	14999
2026-01-22 20:53:47.58	302.35	31.96	-23.1	-22.9	19.3	0.00e+00	0	45	0	32782680064	16	15176
2026-01-22 20:53:48.59	302.77	31.77	-22.9	-22.8	19.3	0.00e+00	0	46	0	32891731968	16	14951
2026-01-22 20:53:49.60	303.18	31.57	-23.1	-22.9	19.3	0.00e+00	0	46	0	33009172480	16	15216
2026-01-22 20:53:50.60	303.58	31.38	-23.0	-22.9	19.2	0.00e+00	0	46	0	33118224384	16	15146
2026-01-22 20:53:51.61	303.99	31.18	-23.0	-22.9	19.1	0.00e+00	0	46	0	33235664896	16	15157
2026-01-22 20:53:52.62	304.39	30.99	-23.1	-23.0	19.1	0.00e+00	0	46	0	33344716800	16	15320
2026-01-22 20:53:53.63	304.78	30.80	-23.3	-23.1	19.1	0.00e+00	0	45	0	33462157312	17	14731
2026-01-22 20:53:54.63	305.16	30.60	-23.2	-23.1	18.9	0.00e+00	0	46	0	33579597824	17	14652
2026-01-22 20:53:55.64	305.55	30.41	-23.3	-23.1	18.8	0.00e+00	0	46	0	33697038336	17	14678
2026-01-22 20:53:56.65	305.92	30.22	-23.4	-23.2	19.0	0.00e+00	0	46	0	33806090240	17	14863
2026-01-22 20:53:57.66	306.30	30.02	-23.4	-23.2	18.8	0.00e+00	0	45	0	33923530752	17	14886
2026-01-22 20:53:58.66	306.66	29.83	-23.4	-23.2	18.7	0.00e+00	0	46	0	34032582656	17	14946
2026-01-22 20:53:59.67	307.03	29.64	-23.4	-23.3	18.7	0.00e+00	0	46	0	34141634560	17	15005
2026-01-22 20:54:00.68	307.39	29.45	-23.6	-23.5	18.8	0.00e+00	0	46	0	34259075072	17	15302
2026-01-22 20:54:01.69	307.74	29.25	-23.6	-23.4	18.6	0.00e+00	0	45	0	34368126976	17	15201
2026-01-22 20:54:02.69	308.09	29.06	-23.7	-23.5	18.5	0.00e+00	0	46	0	34485567488	17	15450
2026-01-22 20:54:03.70	308.43	28.87	-23.7	-23.5	18.6	0.00e+00	0	46	0	34594619392	18	14507
2026-01-22 20:54:04.71	308.77	28.68	-23.7	-23.6	18.1	0.00e+00	0	46	0	34703671296	18	14615
2026-01-22 20:54:05.72	309.11	28.49	-23.7	-23.6	18.1	0.00e+00	0	46	0	34821111808	18	14612
2026-01-22 20:54:06.73	309.45	28.30	-23.9	-23.7	18.1	0.00e+00	0	46	0	34930163712	18	14880
2026-01-22 20:54:07.73	309.77	28.12	-23.9	-23.7	17.9	0.00e+00	0	45	0	35055992832	18	14897
2026-01-22 20:54:08.74	310.10	27.93	-23.9	-23.8	18.0	0.00e+00	0	45	0	35165044736	18	14987
2026-01-22 20:54:09.75	310.42	27.74	-23.9	-23.8	18.0	0.00e+00	0	45	0	35282485248	18	14980
2026-01-22 20:54:10.76	310.73	27.55	-24.1	-23.9	17.8	0.00e+00	0	45	0	35391537152	18	15249
2026-01-22 20:54:11.77	311.05	27.37	-24.1	-24.0	17.8	0.00e+00	0	46	0	35508977664	18	15316
2026-01-22 20:54:12.77	311.35	27.18	-24.1	-23.9	18.0	0.00e+00	0	45	0	35618029568	18	15227
2026-01-22 20:54:13.78	311.66	27.00	-24.2	-24.0	18.2	0.00e+00	0	45	0	35727081472	18	15361
2026-01-22 20:54:14.79	311.96	26.81	-24.3	-24.1	18.2	0.00e+00	0	45	0	35844521984	19	14757
2026-01-22 20:54:15.80	312.26	26.63	-24.3	-24.1	18.0	0.00e+00	0	45	0	35953573888	19	14742
2026-01-22 20:54:16.81	312.55	26.44	-24.3	-24.2	18.0	0.00e+00	0	46	0	36071014400	19	14831
2026-01-22 20:54:17.81	312.84	26.26	-24.5	-24.4	18.0	0.00e+00	0	46	0	36180066304	19	15156
2026-01-22 20:54:18.82	313.13	26.08	-24.5	-24.4	18.0	0.00e+00	0	46	0	36289118208	19	15137
2026-01-22 20:54:19.83	313.41	25.90	-24.5	-24.4	18.0	0.00e+00	0	46	0	36406558720	19	15142
2026-01-22 20:54:20.84	313.69	25.72	-24.6	-24.4	18.2	0.00e+00	0	46	0	36532387840	19	15198
2026-01-22 20:54:21.85	313.97	25.54	-24.6	-24.5	18.1	0.00e+00	0	46	0	36641439744	19	15340
2026-01-22 20:54:22.85	314.24	25.37	-24.7	-24.6	18.3	0.00e+00	0	46	0	36750491648	19	15476
2026-01-22 20:54:23.86	314.51	25.19	-24.7	-24.5	18.2	0.00e+00	0	46	0	36867932160	19	15468
2026-01-22 20:54:24.87	314.77	25.01	-24.7	-24.6	18.2	0.00e+00	0	46	0	36976984064	20	14628
2026-01-22 20:54:25.88	315.04	24.84	-24.7	-24.6	18.2	0.00e+00	0	46	0	37094424576	20	14632
2026-01-22 20:54:26.88	315.30	24.66	-24.7	-24.6	18.2	0.00e+00	0	46	0	37203476480	20	14622
2026-01-22 20:54:27.89	315.55	24.49	-24.7	-24.5	18.2	0.00e+00	0	45	0	37320916992	20	14563
2026-01-22 20:54:28.90	315.81	24.31	-24.8	-24.6	18.1	0.00e+00	0	46	0	37429968896	20	14702
2026-01-22 20:54:29.91	316.06	24.14	-24.9	-24.7	18.1	0.00e+00	0	45	0	37539020800	20	14944
2026-01-22 20:54:30.92	316.31	23.97	-25.0	-24.8	18.2	0.00e+00	0	46	0	37656461312	20	15033
2026-01-22 20:54:31.92	316.55	23.80	-25.0	-24.9	18.0	0.00e+00	0	45	0	37765513216	20	15130
2026-01-22 20:54:32.93	316.79	23.63	-25.0	-24.8	18.0	0.00e+00	0	45	0	37882953728	20	15060
2026-01-22 20:54:33.94	317.03	23.46	-25.1	-24.9	18.0	0.00e+00	0	46	0	38000394240	20	15208
2026-01-22 20:54:34.95	317.27	23.29	-25.1	-24.9	17.8	0.00e+00	0	46	0	38117834752	20	15252
2026-01-22 20:54:35.95	317.50	23.13	-25.1	-25.0	17.8	0.00e+00	0	46	0	38226886656	20	15318
2026-01-22 20:54:36.96	317.73	22.96	-25.3	-25.1	17.9	0.00e+00	0	45	0	38344327168	21	14739
2026-01-22 20:54:37.97	317.96	22.80	-25.3	-25.1	17.7	0.00e+00	0	46	0	38453379072	21	14775
2026-01-22 20:54:38.98	318.19	22.63	-25.3	-25.2	17.6	0.00e+00	0	45	0	38562430976	21	14820
2026-01-22 20:54:39.98	318.41	22.47	-25.4	-25.2	17.8	0.00e+00	0	46	0	38679871488	21	14895
2026-01-22 20:54:40.99	318.63	22.31	-25.4	-25.3	17.8	1.90e-06	0	45	0	38788923392	21	14961
2026-01-22 20:54:42.00	318.85	22.14	-25.6	-25.5	17.7	0.00e+00	0	45	0	38906363904	21	15301
2026-01-22 20:54:43.01	319.07	21.98	-25.6	-25.4	17.7	0.00e+00	0	45	0	39015415808	21	15179
2026-01-22 20:54:44.02	319.28	21.82	-25.8	-25.6	17.8	0.00e+00	0	45	0	39124467712	22	14763
2026-01-22 20:54:45.03	319.49	21.66	-25.7	-25.6	17.6	0.00e+00	0	45	0	39241908224	22	14637
2026-01-22 20:54:46.04	319.70	21.50	-25.8	-25.6	17.8	0.00e+00	0	46	0	39367737344	22	14706
2026-01-22 20:54:47.05	319.91	21.35	-25.9	-25.7	17.8	0.00e+00	0	45	0	39476789248	22	14901
2026-01-22 20:54:48.05	320.11	21.19	-25.8	-25.7	17.7	0.00e+00	0	46	0	39585841152	22	14806
2026-01-22 20:54:49.06	320.31	21.03	-25.9	-25.7	17.9	0.00e+00	0	45	0	39703281664	22	14845
2026-01-22 20:54:50.07	320.51	20.88	-26.0	-25.8	17.7	0.00e+00	0	46	0	39812333568	22	15033
2026-01-22 20:54:51.08	320.71	20.72	-26.0	-25.8	17.9	0.00e+00	0	46	0	39929774080	22	15104
2026-01-22 20:54:52.09	320.90	20.57	-26.0	-25.9	17.5	0.00e+00	0	45	0	40038825984	22	15154
2026-01-22 20:54:53.10	321.10	20.42	-26.0	-25.8	17.7	0.00e+00	0	45	0	40147877888	22	15112
2026-01-22 20:54:54.10	321.29	20.27	-26.2	-26.0	17.5	0.00e+00	0	45	0	40265318400	22	15364
2026-01-22 20:54:55.12	321.48	20.12	-26.2	-26.1	17.6	0.00e+00	0	46	0	40374370304	23	14629
2026-01-22 20:54:56.12	321.66	19.97	-26.2	-26.1	17.5	0.00e+00	0	45	0	40491810816	23	14627
2026-01-22 20:54:57.13	321.85	19.82	-26.2	-26.1	17.7	0.00e+00	0	45	0	40600862720	23	14663
2026-01-22 20:54:58.14	322.03	19.67	-26.3	-26.1	17.7	0.00e+00	0	45	0	40726691840	23	14754
2026-01-22 20:54:59.15	322.21	19.52	-26.3	-26.2	17.5	0.00e+00	0	45	0	40835743744	23	14811
2026-01-22 20:55:00.15	322.39	19.38	-26.4	-26.2	17.6	0.00e+00	0	46	0	40953184256	23	14938
2026-01-22 20:55:01.16	322.57	19.23	-26.6	-26.4	17.6	0.00e+00	0	46	0	41062236160	23	15243
2026-01-22 20:55:02.17	322.74	19.08	-26.5	-26.4	17.6	0.00e+00	0	46	0	41179676672	23	15151
2026-01-22 20:55:03.18	322.92	18.94	-26.6	-26.5	17.5	0.00e+00	0	45	0	41288728576	23	15333
2026-01-22 20:55:04.18	323.09	18.80	-26.6	-26.4	17.6	0.00e+00	0	46	0	41397780480	23	15266
2026-01-22 20:55:05.19	323.26	18.66	-26.8	-26.6	17.7	0.00e+00	0	46	0	41515220992	24	14699
2026-01-22 20:55:06.20	323.43	18.51	-26.7	-26.6	17.6	1.90e-06	0	46	0	41624272896	24	14610
2026-01-22 20:55:07.21	323.59	18.37	-26.8	-26.6	17.5	0.00e+00	0	46	0	41741713408	24	14726
2026-01-22 20:55:08.22	323.76	18.23	-26.8	-26.7	17.4	0.00e+00	0	46	0	41850765312	24	14819
2026-01-22 20:55:09.22	323.92	18.09	-26.9	-26.8	17.4	0.00e+00	0	45	0	41959817216	24	14974
2026-01-22 20:55:10.23	324.08	17.96	-26.9	-26.7	17.6	0.00e+00	0	45	0	42077257728	24	14925
2026-01-22 20:55:11.24	324.24	17.82	-27.0	-26.8	17.6	0.00e+00	0	45	0	42203086848	24	15113
2026-01-22 20:55:12.25	324.40	17.68	-27.0	-26.9	17.6	0.00e+00	0	46	0	42312138752	24	15153
2026-01-22 20:55:13.25	324.56	17.54	-27.1	-26.9	17.5	0.00e+00	0	46	0	42421190656	24	15288
2026-01-22 20:55:14.26	324.71	17.41	-27.2	-27.0	17.5	0.00e+00	0	46	0	42538631168	25	14525
2026-01-22 20:55:15.27	324.87	17.27	-27.2	-27.0	17.5	0.00e+00	0	46	0	42647683072	25	14569
2026-01-22 20:55:16.28	325.02	17.14	-27.2	-27.1	17.5	0.00e+00	0	46	0	42756734976	25	14671
2026-01-22 20:55:17.29	325.17	17.01	-27.3	-27.1	17.6	0.00e+00	0	45	0	42874175488	25	14732
2026-01-22 20:55:18.30	325.32	16.87	-27.3	-27.2	17.6	0.00e+00	0	45	0	42983227392	25	14819
2026-01-22 20:55:19.31	325.47	16.74	-27.4	-27.2	17.6	0.00e+00	0	45	0	43100667904	25	14894
2026-01-22 20:55:20.32	325.61	16.61	-27.5	-27.3	17.5	0.00e+00	0	46	0	43209719808	25	15053
2026-01-22 20:55:21.32	325.76	16.48	-27.5	-27.3	17.6	0.00e+00	0	46	0	43327160320	25	15068
2026-01-22 20:55:22.33	325.90	16.35	-27.5	-27.4	17.6	0.00e+00	0	45	0	43436212224	25	15157
2026-01-22 20:55:23.34	326.04	16.22	-27.6	-27.4	17.6	0.00e+00	0	46	0	43562041344	25	15274
2026-01-22 20:55:24.35	326.19	16.09	-27.6	-27.5	17.6	0.00e+00	0	46	0	43671093248	25	15338
2026-01-22 20:55:25.35	326.32	15.97	-27.7	-27.5	17.6	0.00e+00	0	46	0	43788533760	25	15422
2026-01-22 20:55:26.36	326.46	15.84	-27.7	-27.5	17.5	1.90e-06	0	46	0	43897585664	26	14579
2026-01-22 20:55:27.37	326.60	15.71	-27.8	-27.7	17.4	3.80e-06	0	46	0	44006637568	26	14809
2026-01-22 20:55:28.38	326.73	15.59	-27.8	-27.6	17.5	0.00e+00	0	46	0	44124078080	26	14755
2026-01-22 20:55:29.39	326.87	15.46	-27.9	-27.8	17.4	1.90e-06	0	46	0	44233129984	26	14999
2026-01-22 20:55:30.40	327.00	15.34	-27.9	-27.8	17.3	0.00e+00	0	46	0	44350570496	26	15005
2026-01-22 20:55:31.41	327.13	15.22	-49.6	-50.9	6.5	0.00e+00	0	46	104	44451233792	47	63861
2026-01-22 20:55:32.41	327.26	15.09	-54.3	-56.6	6.2	0.00e+00	0	45	104	44451233792	79	19561
2026-01-22 20:55:33.42	327.39	14.97	-54.3	-56.6	6.2	0.00e+00	0	45	104	44451233792	79	19502
2026-01-22 20:55:34.43	327.52	14.85	-54.3	-56.5	6.2	0.00e+00	0	45	104	44451233792	79	19351
2026-01-22 20:55:35.44	327.65	14.73	-54.4	-56.5	6.2	0.00e+00	0	45	104	44451233792	79	19429
2026-01-22 20:55:36.45	327.78	14.61	-54.4	-56.5	6.2	0.00e+00	0	45	104	44451233792	79	19311
2026-01-22 20:55:37.46	327.90	14.49	-54.4	-56.5	6.2	0.00e+00	0	45	104	44451233792	79	19345
2026-01-22 20:55:38.47	328.02	14.37	-54.3	-56.4	6.2	0.00e+00	0	45	104	44451233792	79	19208
2026-01-22 20:55:39.47	328.15	14.25	-54.3	-56.4	6.2	0.00e+00	0	45	104	44451233792	79	19156
2026-01-22 20:55:40.48	328.27	14.14	-54.3	-56.4	6.2	0.00e+00	0	45	104	44451233792	79	19112
2026-01-22 20:55:41.49	328.39	14.02	-54.3	-56.4	6.2	0.00e+00	0	45	104	44451233792	79	19080
2026-01-22 20:55:42.50	328.51	13.90	-54.2	-56.3	6.2	0.00e+00	0	45	104	44451233792	79	19028
2026-01-22 20:55:43.51	328.63	13.79	-54.2	-56.4	6.2	0.00e+00	0	45	104	44451233792	79	19054
2026-01-22 20:55:44.52	328.74	13.67	-54.2	-56.3	6.2	0.00e+00	0	45	104	44451233792	79	18960
2026-01-22 20:55:45.53	328.86	13.56	-54.2	-56.3	6.2	0.00e+00	0	45	104	44451233792	79	18941
2026-01-22 20:55:46.53	328.97	13.44	-54.2	-56.3	6.2	0.00e+00	0	45	104	44451233792	79	18975
2026-01-22 20:55:47.54	329.09	13.33	-54.2	-56.3	6.2	0.00e+00	0	45	104	44451233792	79	18896
2026-01-22 20:55:48.55	329.20	13.22	-54.2	-56.3	6.2	0.00e+00	0	45	104	44451233792	79	18926
2026-01-22 20:55:49.56	329.32	13.11	-54.1	-56.3	6.2	0.00e+00	0	45	104	44451233792	79	18870
2026-01-22 20:55:50.57	329.43	12.99	-54.1	-56.2	6.2	0.00e+00	0	45	104	44451233792	79	18772
2026-01-22 20:55:51.58	329.54	12.88	-54.1	-56.2	6.2	0.00e+00	0	45	104	44451233792	79	18782
2026-01-22 20:55:52.59	329.65	12.77	-54.1	-56.2	6.2	0.00e+00	0	45	104	44451233792	79	18749
2026-01-22 20:55:53.59	329.75	12.66	-54.1	-56.2	6.2	0.00e+00	0	45	104	44451233792	79	18703
2026-01-22 20:55:54.60	329.86	12.55	-54.1	-56.2	6.2	0.00e+00	0	45	104	44451233792	79	18637
2026-01-22 20:55:55.61	329.97	12.44	-54.1	-56.2	6.2	0.00e+00	0	45	104	44451233792	79	18681
2026-01-22 20:55:56.62	330.08	12.34	-54.1	-56.2	6.2	0.00e+00	0	45	104	44451233792	79	18638
2026-01-22 20:55:57.62	330.18	12.23	-54.1	-56.1	6.2	0.00e+00	0	45	104	44451233792	79	18597
2026-01-22 20:55:58.63	330.28	12.12	-54.0	-56.2	6.2	0.00e+00	0	45	104	44451233792	79	18615
2026-01-22 20:55:59.64	330.39	12.01	-54.0	-56.2	6.2	0.00e+00	0	45	104	44451233792	79	18624
2026-01-22 20:56:00.65	330.49	11.91	-54.0	-56.1	6.2	0.00e+00	0	45	104	44451233792	79	18582
2026-01-22 20:56:01.66	330.59	11.80	-54.0	-56.1	6.2	0.00e+00	0	45	104	44451233792	79	18539
2026-01-22 20:56:02.67	330.69	11.70	-54.0	-56.1	6.2	0.00e+00	0	45	104	44451233792	79	18530
2026-01-22 20:56:03.68	330.79	11.59	-54.0	-56.1	6.2	0.00e+00	0	45	104	44451233792	79	18500
2026-01-22 20:56:04.69	330.89	11.49	-54.0	-56.1	6.2	0.00e+00	0	45	104	44451233792	79	18468
2026-01-22 20:56:05.70	330.99	11.38	-54.0	-56.1	6.2	0.00e+00	0	45	104	44451233792	79	18569
2026-01-22 20:56:06.71	331.09	11.28	-54.0	-56.1	6.2	0.00e+00	0	45	104	44451233792	79	18481
2026-01-22 20:56:07.71	331.18	11.18	-54.0	-56.1	6.2	0.00e+00	0	45	104	44451233792	79	18461
2026-01-22 20:56:08.72	331.28	11.08	-53.9	-56.0	6.2	0.00e+00	0	45	104	44451233792	79	18356
2026-01-22 20:56:09.73	331.38	10.98	-53.9	-56.1	6.2	0.00e+00	0	45	104	44451233792	79	18400
2026-01-22 20:56:10.74	331.47	10.87	-53.9	-56.0	6.2	0.00e+00	0	45	104	44451233792	79	18328
2026-01-22 20:56:11.75	331.56	10.77	-53.9	-56.1	6.2	0.00e+00	0	45	104	44451233792	79	18415
2026-01-22 20:56:12.76	331.66	10.67	-53.9	-56.0	6.2	0.00e+00	0	45	104	44451233792	79	18334
2026-01-22 20:56:13.77	331.75	10.57	-53.9	-56.0	6.2	0.00e+00	0	45	104	44451233792	79	18306
2026-01-22 20:56:14.77	331.84	10.48	-53.9	-56.0	6.2	0.00e+00	0	45	104	44451233792	79	18215
2026-01-22 20:56:15.78	331.93	10.38	-53.9	-56.0	6.2	0.00e+00	0	45	104	44451233792	79	18273
2026-01-22 20:56:16.79	332.02	10.28	-53.9	-56.0	6.2	0.00e+00	0	45	104	44451233792	79	18254
2026-01-22 20:56:17.80	332.11	10.18	-53.9	-55.9	6.2	0.00e+00	0	45	104	44451233792	79	18174
2026-01-22 20:56:18.81	332.20	10.08	-53.8	-55.9	6.2	0.00e+00	0	45	104	44451233792	79	18141
2026-01-22 20:56:19.81	332.29	9.99	-53.8	-55.9	6.2	0.00e+00	0	45	104	44451233792	79	18130
2026-01-22 20:56:20.82	332.38	9.89	-53.8	-55.9	6.2	0.00e+00	0	45	104	44451233792	79	18166
2026-01-22 20:56:21.83	332.46	9.79	-53.8	-55.9	6.2	0.00e+00	0	45	104	44451233792	79	18171
2026-01-22 20:56:22.84	332.55	9.70	-53.8	-55.9	6.2	0.00e+00	0	45	104	44451233792	79	18021
2026-01-22 20:56:23.85	332.64	9.60	-53.8	-55.9	6.2	0.00e+00	0	45	104	44451233792	79	18025
2026-01-22 20:56:24.85	332.72	9.51	-53.8	-55.9	6.2	0.00e+00	0	45	104	44451233792	79	18059
2026-01-22 20:56:25.86	332.80	9.41	-53.8	-55.9	6.2	0.00e+00	0	45	104	44451233792	79	17980
2026-01-22 20:56:26.87	332.89	9.32	-53.7	-55.8	6.2	0.00e+00	0	45	104	44451233792	79	17933
2026-01-22 20:56:27.88	332.97	9.23	-53.8	-55.9	6.2	0.00e+00	0	45	104	44451233792	79	18064
2026-01-22 20:56:28.88	333.05	9.13	-53.7	-55.8	6.2	0.00e+00	0	45	104	44451233792	79	17957
2026-01-22 20:56:29.89	333.14	9.04	-53.7	-55.8	6.2	0.00e+00	0	45	104	44451233792	79	17938
2026-01-22 20:56:30.90	333.22	8.95	-53.7	-55.8	6.2	0.00e+00	0	45	104	44451233792	79	17847
2026-01-22 20:56:31.91	333.30	8.86	-53.7	-55.9	6.2	0.00e+00	0	45	104	44451233792	79	18029
2026-01-22 20:56:32.91	333.38	8.77	-53.7	-55.8	6.2	0.00e+00	0	45	104	44451233792	79	17812
2026-01-22 20:56:33.92	333.46	8.67	-53.7	-55.8	6.2	0.00e+00	0	45	104	44451233792	79	17963
2026-01-22 20:56:34.93	333.54	8.58	-53.7	-55.7	6.2	0.00e+00	0	45	104	44451233792	79	17751
2026-01-22 20:56:35.94	333.62	8.49	-53.7	-55.8	6.2	0.00e+00	0	45	104	44451233792	79	17851
2026-01-22 20:56:36.95	333.69	8.40	-53.7	-55.7	6.2	0.00e+00	0	45	104	44451233792	79	17744
2026-01-22 20:56:37.96	333.77	8.31	-53.7	-55.8	6.2	0.00e+00	0	45	104	44451233792	79	17801
2026-01-22 20:56:38.96	333.85	8.22	-53.6	-55.7	6.2	0.00e+00	0	45	104	44451233792	79	17692
2026-01-22 20:56:39.97	333.92	8.14	-53.7	-55.8	6.2	0.00e+00	0	45	104	44451233792	79	17779
2026-01-22 20:56:40.98	334.00	8.05	-53.6	-55.7	6.2	0.00e+00	0	45	104	44451233792	79	17689
2026-01-22 20:56:41.99	334.08	7.96	-53.7	-55.7	6.2	0.00e+00	0	45	104	44451233792	79	17729
2026-01-22 20:56:42.99	334.15	7.87	-53.6	-55.7	6.2	0.00e+00	0	45	104	44451233792	79	17638
2026-01-22 20:56:44.00	334.22	7.78	-53.6	-55.7	6.2	0.00e+00	0	45	104	44451233792	79	17697
2026-01-22 20:56:45.01	334.30	7.70	-53.6	-55.7	6.2	0.00e+00	0	45	104	44451233792	79	17625
2026-01-22 20:56:46.02	334.37	7.61	-53.6	-55.7	6.2	0.00e+00	0	45	104	44451233792	79	17690
2026-01-22 20:56:47.02	334.44	7.52	-53.6	-55.6	6.2	0.00e+00	0	45	104	44451233792	79	17530
2026-01-22 20:56:48.03	334.52	7.44	-53.6	-55.7	6.2	0.00e+00	0	45	104	44451233792	79	17698
2026-01-22 20:56:49.04	334.59	7.35	-53.5	-55.6	6.2	0.00e+00	0	45	104	44451233792	79	17531
2026-01-22 20:56:50.05	334.66	7.27	-53.6	-55.7	6.2	0.00e+00	0	45	104	44451233792	79	17643
2026-01-22 20:56:51.06	334.73	7.18	-53.5	-55.6	6.2	0.00e+00	0	45	104	44451233792	79	17529
2026-01-22 20:56:52.07	334.80	7.10	-53.6	-55.7	6.2	0.00e+00	0	45	104	44451233792	79	17639
2026-01-22 20:56:53.07	334.87	7.01	-53.5	-55.6	6.2	0.00e+00	0	45	104	44451233792	79	17491
2026-01-22 20:56:54.08	334.94	6.93	-53.6	-55.6	6.2	0.00e+00	0	45	104	44451233792	79	17561
2026-01-22 20:56:55.09	335.01	6.85	-53.5	-55.5	6.2	0.00e+00	0	45	104	44451233792	78	18366
2026-01-22 20:56:56.10	335.08	6.76	-53.5	-55.6	6.2	0.00e+00	0	45	104	44451233792	78	18487
2026-01-22 20:56:57.11	335.15	6.68	-53.4	-55.5	6.2	0.00e+00	0	45	104	44451233792	78	18342
2026-01-22 20:56:58.12	335.21	6.60	-53.5	-55.6	6.2	0.00e+00	0	45	104	44451233792	78	18423
2026-01-22 20:56:59.12	335.28	6.51	-53.4	-55.5	6.2	0.00e+00	0	45	104	44451233792	78	18275
2026-01-22 20:57:00.13	335.35	6.43	-53.4	-55.6	6.2	0.00e+00	0	45	104	44451233792	78	18420
2026-01-22 20:57:01.14	335.41	6.35	-53.4	-55.5	6.2	0.00e+00	0	45	104	44451233792	78	18238
2026-01-22 20:57:02.15	335.48	6.27	-53.4	-55.5	6.2	0.00e+00	0	45	104	44451233792	78	18306
2026-01-22 20:57:03.16	335.54	6.19	-53.3	-55.4	6.2	0.00e+00	0	45	104	44451233792	78	18093
2026-01-22 20:57:04.17	335.61	6.11	-53.4	-55.5	6.2	0.00e+00	0	45	104	44451233792	78	18312
2026-01-22 20:57:05.17	335.67	6.03	-53.3	-55.4	6.2	0.00e+00	0	45	104	44451233792	78	18148
2026-01-22 20:57:06.18	335.74	5.95	-53.4	-55.5	6.2	0.00e+00	0	45	104	44451233792	78	18276
2026-01-22 20:57:07.19	335.80	5.87	-53.3	-55.3	6.2	0.00e+00	0	45	104	44451233792	78	17968
2026-01-22 20:57:08.20	335.87	5.79	-53.4	-55.5	6.2	0.00e+00	0	45	104	44451233792	78	18211
2026-01-22 20:57:09.21	335.93	5.71	-53.3	-55.4	6.2	0.00e+00	0	45	104	44451233792	78	18007
2026-01-22 20:57:10.21	335.99	5.63	-53.3	-55.5	6.2	0.00e+00	0	45	104	44451233792	78	18213
2026-01-22 20:57:11.22	336.05	5.55	-53.2	-55.3	6.2	0.00e+00	0	45	104	44451233792	78	17929
2026-01-22 20:57:12.23	336.12	5.47	-53.3	-55.4	6.2	0.00e+00	0	45	104	44451233792	78	18115
2026-01-22 20:57:13.24	336.18	5.39	-53.2	-55.3	6.2	0.00e+00	0	45	104	44451233792	78	17959
2026-01-22 20:57:14.25	336.24	5.31	-53.3	-55.4	6.2	0.00e+00	0	45	104	44451233792	78	18050
2026-01-22 20:57:15.25	336.30	5.24	-53.2	-55.3	6.2	0.00e+00	0	45	104	44451233792	78	17820
2026-01-22 20:57:16.26	336.36	5.16	-53.3	-55.4	6.2	0.00e+00	0	45	104	44451233792	78	18030
2026-01-22 20:57:17.27	336.42	5.08	-53.2	-55.3	6.2	0.00e+00	0	45	104	44451233792	78	17812
2026-01-22 20:57:18.28	336.48	5.01	-53.3	-55.4	6.2	0.00e+00	0	45	104	44451233792	78	17996
2026-01-22 20:57:19.28	336.54	4.93	-53.6	-55.7	6.2	0.00e+00	0	45	104	44451233792	78	18798
2026-01-22 20:57:20.29	336.60	4.85	-54.0	-56.1	6.2	0.00e+00	0	45	104	44451233792	78	19691
2026-01-22 20:57:21.30	336.66	4.78	-54.3	-56.4	6.2	0.00e+00	0	45	104	44451233792	79	19185
2026-01-22 20:57:22.31	336.71	4.70	-54.6	-56.7	6.2	0.00e+00	0	45	104	44451233792	79	19792
2026-01-22 20:57:23.32	336.77	4.63	-54.7	-56.7	6.2	0.00e+00	0	45	104	44451233792	80	18817
2026-01-22 20:57:24.33	336.83	4.55	-54.8	-56.9	6.2	0.00e+00	0	45	104	44451233792	80	19088
2026-01-22 20:57:25.33	336.89	4.48	-54.9	-57.0	6.2	0.00e+00	0	45	104	44451233792	80	19300
2026-01-22 20:57:26.34	336.94	4.40	-54.9	-57.0	6.2	0.00e+00	0	45	104	44451233792	80	19312
2026-01-22 20:57:27.35	337.00	4.33	-54.9	-57.0	6.2	0.00e+00	0	45	104	44451233792	80	19347
2026-01-22 20:57:28.36	337.06	4.25	-54.9	-57.0	6.2	0.00e+00	0	45	104	44451233792	80	19296
2026-01-22 20:57:29.37	337.11	4.18	-54.8	-56.9	6.2	0.00e+00	0	45	104	44451233792	80	19221
2026-01-22 20:57:30.38	337.17	4.10	-54.7	-56.8	6.2	0.00e+00	0	45	104	44451233792	80	19019
2026-01-22 20:57:31.39	337.22	4.03	-54.6	-56.7	6.2	0.00e+00	0	45	104	44451233792	80	18757
2026-01-22 20:57:32.40	337.28	3.96	-54.6	-56.7	6.2	0.00e+00	0	45	104	44451233792	80	18660
2026-01-22 20:57:33.40	337.33	3.88	-54.6	-56.7	6.2	0.00e+00	0	45	104	44451233792	80	18662
2026-01-22 20:57:34.41	337.39	3.81	-54.6	-56.7	6.2	0.00e+00	0	45	104	44451233792	80	18619
2026-01-22 20:57:35.42	337.44	3.74	-54.6	-56.7	6.2	0.00e+00	0	45	104	44451233792	80	18699
2026-01-22 20:57:36.43	337.50	3.67	-54.6	-56.7	6.2	0.00e+00	0	45	104	44451233792	80	18658
2026-01-22 20:57:37.43	337.55	3.59	-54.6	-56.6	6.2	0.00e+00	0	45	104	44451233792	80	18573
2026-01-22 20:57:38.44	337.60	3.52	-54.5	-56.6	6.2	0.00e+00	0	45	104	44451233792	80	18595
2026-01-22 20:57:39.45	337.66	3.45	-54.5	-56.6	6.2	0.00e+00	0	45	104	44451233792	80	18513
2026-01-22 20:57:40.46	337.71	3.38	-54.5	-56.6	6.2	0.00e+00	0	45	104	44451233792	80	18503
2026-01-22 20:57:41.47	337.76	3.31	-54.4	-56.5	6.2	0.00e+00	0	45	104	44451233792	80	18316
2026-01-22 20:57:42.48	337.81	3.24	-54.4	-56.5	6.2	0.00e+00	0	45	104	44451233792	80	18229
2026-01-22 20:57:43.48	337.86	3.17	-54.4	-56.4	6.2	0.00e+00	0	45	104	44451233792	80	18174
2026-01-22 20:57:44.49	337.92	3.10	-54.3	-56.4	6.2	0.00e+00	0	45	104	44451233792	80	18139
2026-01-22 20:57:45.50	337.97	3.03	-54.3	-56.4	6.2	0.00e+00	0	45	104	44451233792	80	18164
2026-01-22 20:57:46.51	338.02	2.96	-54.3	-56.4	6.2	0.00e+00	0	45	104	44451233792	80	18133
2026-01-22 20:57:47.52	338.07	2.89	-54.3	-56.4	6.2	0.00e+00	0	45	104	44451233792	80	18089
2026-01-22 20:57:48.53	338.12	2.82	-54.3	-56.4	6.2	0.00e+00	0	45	104	44451233792	80	18080
2026-01-22 20:57:49.53	338.17	2.75	-54.3	-56.4	6.2	0.00e+00	0	45	104	44451233792	80	18067
2026-01-22 20:57:50.54	338.22	2.68	-54.3	-56.4	6.2	0.00e+00	0	45	104	44451233792	80	18071
2026-01-22 20:57:51.55	338.27	2.61	-54.3	-56.4	6.2	0.00e+00	0	45	104	44451233792	80	18026
2026-01-22 20:57:52.56	338.32	2.54	-54.3	-56.4	6.2	0.00e+00	0	45	104	44451233792	80	18024
2026-01-22 20:57:53.57	338.37	2.47	-54.3	-56.4	6.2	0.00e+00	0	45	104	44451233792	80	18052
2026-01-22 20:57:54.58	338.42	2.40	-54.3	-56.3	6.2	0.00e+00	0	45	104	44451233792	80	17948
2026-01-22 20:57:55.58	338.46	2.33	-54.3	-56.4	6.2	0.00e+00	0	45	104	44451233792	80	18027
2026-01-22 20:57:56.59	338.51	2.27	-54.3	-56.3	6.2	0.00e+00	0	45	104	44451233792	80	17939
2026-01-22 20:57:57.60	338.56	2.20	-54.3	-56.3	6.2	0.00e+00	0	45	104	44451233792	80	17899
2026-01-22 20:57:58.61	338.61	2.13	-54.3	-56.3	6.2	0.00e+00	0	45	104	44451233792	80	17961
2026-01-22 20:57:59.62	338.66	2.06	-54.2	-56.3	6.2	0.00e+00	0	45	104	44451233792	80	17910
2026-01-22 20:58:00.63	338.70	1.99	-54.2	-56.3	6.2	0.00e+00	0	45	104	44451233792	80	17938

#Closed at: 2026-01-22 20:58:01
#Recorded file [44451 MB]: D:/lorett/data/31041_260122_234717.dat