passes_logs/2026/01/22/R3.2S_Murmansk/R3.2S_Murmansk__20260122_221107_NOAA_21_JPSS-2_rec.log

#Pass ID: 20260122_221107_NOAA 21 (JPSS-2)
#Satellite: NOAA 21 (JPSS-2)
#Configuration: NOAA-21
#almurnet v.1.7.20251203
#Start time: 2026-01-22 22:11:07

#Version: 2.2.20231116
#Station: R3.2S_Murmansk
#Location: 33.079688 lon 68.888172 lat
#TLE: 1 54234U 22150A   26022.41365820  .00000211  00000+0  12084-3 0  9990
#TLE: 2 54234  98.7507 323.2240 0000658 234.5287 125.5828 14.19537645165864

#Time	Az	El	Level	Level2	SNR	BER	BlckErr	Temp	State	Recorded	gain1	gain2
2026-01-22 22:11:07.66	18.60	2.01	-54.4	-67.2	3.8	1.49e+00	0	41	0	0	79	16508
2026-01-22 22:11:08.67	18.68	2.06	-54.5	-67.3	3.8	1.49e+00	0	41	104	0	79	16815
2026-01-22 22:11:09.68	18.75	2.12	-54.5	-67.3	3.8	1.49e+00	0	41	104	0	79	16782
2026-01-22 22:11:10.69	18.83	2.17	-54.5	-67.3	3.8	1.49e+00	0	41	104	0	79	16795
2026-01-22 22:11:11.69	18.90	2.23	-54.5	-67.3	3.8	1.49e+00	0	41	104	0	79	16761
2026-01-22 22:11:12.70	18.98	2.28	-54.5	-67.3	3.8	1.49e+00	0	41	104	0	79	16722
2026-01-22 22:11:13.71	19.05	2.34	-54.5	-67.2	3.8	1.49e+00	0	41	104	0	79	16689
2026-01-22 22:11:14.72	19.13	2.39	-54.5	-67.3	3.8	1.49e+00	0	41	104	0	79	16711
2026-01-22 22:11:15.73	19.21	2.44	-54.5	-67.2	3.8	1.49e+00	0	41	104	0	79	16692
2026-01-22 22:11:16.74	19.28	2.50	-54.4	-67.2	3.8	1.49e+00	0	41	104	0	79	16613
2026-01-22 22:11:17.75	19.36	2.55	-54.3	-67.1	3.8	1.49e+00	0	41	104	0	79	16420
2026-01-22 22:11:18.75	19.44	2.61	-54.3	-67.1	3.8	1.49e+00	0	41	104	0	79	16410
2026-01-22 22:11:19.76	19.52	2.66	-54.3	-67.1	3.8	1.49e+00	0	41	104	0	79	16402
2026-01-22 22:11:20.77	19.59	2.72	-54.3	-67.1	3.8	1.49e+00	0	41	104	0	79	16348
2026-01-22 22:11:21.78	19.67	2.77	-54.2	-67.0	3.8	1.49e+00	0	41	104	0	79	16209
2026-01-22 22:11:22.79	19.75	2.83	-54.2	-66.9	3.8	1.49e+00	0	42	104	0	79	16106
2026-01-22 22:11:23.80	19.83	2.88	-54.1	-66.9	3.8	1.49e+00	0	42	104	0	79	15964
2026-01-22 22:11:24.81	19.91	2.94	-54.0	-66.8	3.8	1.49e+00	0	42	104	0	79	15814
2026-01-22 22:11:25.82	19.99	2.99	-53.9	-66.7	3.8	1.49e+00	0	42	104	0	79	15732
2026-01-22 22:11:26.83	20.07	3.05	-53.8	-66.6	3.8	1.49e+00	0	41	104	0	79	15509
2026-01-22 22:11:27.83	20.15	3.10	-53.7	-66.5	3.8	1.49e+00	0	42	104	0	79	15286
2026-01-22 22:11:28.84	20.23	3.16	-53.5	-66.3	3.8	1.49e+00	0	42	104	0	79	14975
2026-01-22 22:11:29.85	20.31	3.21	-53.3	-66.0	3.8	1.49e+00	0	42	104	0	78	15387
2026-01-22 22:11:30.86	20.39	3.27	-52.7	-65.5	3.8	1.49e+00	0	42	104	0	77	15227
2026-01-22 22:11:31.87	20.47	3.33	-52.5	-65.0	3.8	1.49e+00	0	42	104	0	76	15288
2026-01-22 22:11:32.88	20.55	3.38	-52.5	-65.1	3.8	1.49e+00	0	42	104	0	76	15403
2026-01-22 22:11:33.89	20.63	3.44	-52.4	-65.1	3.8	1.49e+00	0	42	104	0	76	15442
2026-01-22 22:11:34.89	20.71	3.49	-52.5	-65.2	3.8	1.49e+00	0	42	104	0	76	15598
2026-01-22 22:11:35.90	20.79	3.55	-52.5	-65.2	3.8	1.49e+00	0	42	104	0	76	15624
2026-01-22 22:11:36.91	20.88	3.60	-52.5	-65.2	3.8	1.49e+00	0	42	104	0	76	15642
2026-01-22 22:11:37.92	20.96	3.66	-52.5	-65.1	3.8	1.49e+00	0	42	104	0	76	15544
2026-01-22 22:11:38.93	21.04	3.72	-52.4	-65.2	3.8	1.49e+00	0	42	104	0	76	15618
2026-01-22 22:11:39.93	21.12	3.77	-52.4	-65.1	3.8	1.49e+00	0	42	104	0	76	15473
2026-01-22 22:11:40.94	21.21	3.83	-52.4	-65.0	3.8	1.49e+00	0	42	104	0	76	15279
2026-01-22 22:11:41.95	21.29	3.89	-52.4	-64.7	3.8	1.49e+00	0	42	104	0	76	14802
2026-01-22 22:11:42.96	21.38	3.94	-52.4	-64.4	3.8	1.49e+00	0	42	104	0	76	14257
2026-01-22 22:11:43.96	21.46	4.00	-52.3	-64.0	3.8	1.49e+00	0	42	104	0	76	13646
2026-01-22 22:11:44.97	21.54	4.05	-52.3	-63.7	3.8	1.49e+00	0	42	104	0	76	13137
2026-01-22 22:11:45.98	21.63	4.11	-52.2	-63.2	3.8	1.49e+00	0	42	104	0	76	12393
2026-01-22 22:11:46.99	21.71	4.17	-52.2	-62.5	4.0	1.48e+00	0	42	104	0	76	11541
2026-01-22 22:11:47.99	21.80	4.22	-52.1	-61.6	4.2	1.46e+00	0	42	104	0	76	10357
2026-01-22 22:11:49.00	21.89	4.28	-52.0	-60.8	4.4	1.34e+00	4	42	104	0	76	9461
2026-01-22 22:11:50.01	21.97	4.34	-51.6	-58.7	5.6	5.00e-01	0	42	0	1048576	75	7839
2026-01-22 22:11:51.02	22.06	4.39	-51.0	-56.2	7.6	2.04e-01	0	42	0	4194304	74	6264
2026-01-22 22:11:52.02	22.14	4.45	-50.4	-54.7	9.2	3.52e-02	0	42	0	7340032	72	5914
2026-01-22 22:11:53.03	22.23	4.51	-49.8	-53.3	10.6	7.38e-03	0	42	0	10485760	71	5340
2026-01-22 22:11:54.04	22.32	4.57	-49.3	-52.4	11.7	1.01e-03	0	42	0	13631488	70	5073
2026-01-22 22:11:55.05	22.41	4.62	-48.8	-51.4	12.7	1.05e-04	0	42	0	16777216	69	4804
2026-01-22 22:11:56.05	22.49	4.68	-48.7	-51.3	12.8	8.01e-05	0	42	0	19922944	69	4732
2026-01-22 22:11:57.06	22.58	4.74	-48.6	-51.2	12.9	4.88e-05	0	42	0	23068672	69	4694
2026-01-22 22:11:58.07	22.67	4.79	-48.9	-51.6	12.5	8.85e-05	0	42	0	26214400	69	4890
2026-01-22 22:11:59.08	22.76	4.85	-49.3	-52.5	11.6	2.99e-04	0	42	0	29360128	69	5406
2026-01-22 22:12:00.09	22.85	4.91	-50.2	-54.2	9.9	3.54e-03	0	42	0	32505856	70	6208
2026-01-22 22:12:01.09	22.94	4.97	-50.7	-55.6	8.4	3.34e-02	0	42	0	35651584	72	6512
2026-01-22 22:12:02.10	23.03	5.02	-51.4	-57.7	6.3	2.00e-01	0	42	0	38797312	73	7893
2026-01-22 22:12:03.11	23.12	5.08	-46.7	-48.4	15.7	0.00e+00	0	42	0	41943040	65	4278
2026-01-22 22:12:04.12	23.21	5.14	-48.6	-51.2	12.9	7.60e-06	0	42	0	45088768	67	5276
2026-01-22 22:12:05.12	23.30	5.20	-52.4	-64.6	3.8	1.49e+00	0	42	104	47185920	75	15556
2026-01-22 22:12:06.13	23.39	5.25	-52.4	-64.7	3.8	1.49e+00	0	43	104	47185920	75	15674
2026-01-22 22:12:07.14	23.49	5.31	-45.6	-46.9	17.2	0.00e+00	0	42	0	47185920	63	4046
2026-01-22 22:12:08.15	23.58	5.37	-45.6	-47.0	17.3	0.00e+00	0	42	0	50331648	63	4086
2026-01-22 22:12:09.16	23.67	5.43	-45.6	-47.0	17.3	0.00e+00	0	42	0	53477376	63	4062
2026-01-22 22:12:10.17	23.76	5.49	-45.7	-47.1	17.3	0.00e+00	0	42	0	56623104	63	4107
2026-01-22 22:12:11.18	23.86	5.55	-45.9	-47.4	16.9	0.00e+00	0	42	0	59768832	63	4263
2026-01-22 22:12:12.19	23.95	5.60	-45.8	-47.3	17.0	0.00e+00	0	42	0	62914560	63	4201
2026-01-22 22:12:13.19	24.04	5.66	-45.5	-46.9	17.5	0.00e+00	0	43	0	66060288	62	4243
2026-01-22 22:12:14.20	24.14	5.72	-45.8	-47.2	17.2	0.00e+00	0	42	0	69206016	62	4396
2026-01-22 22:12:15.21	24.23	5.78	-45.8	-47.2	17.1	0.00e+00	0	42	0	72351744	62	4441
2026-01-22 22:12:16.21	24.33	5.84	-45.5	-46.8	17.5	0.00e+00	0	42	0	75497472	62	4232
2026-01-22 22:12:17.22	24.42	5.90	-45.7	-47.1	17.2	0.00e+00	0	43	0	78643200	62	4370
2026-01-22 22:12:18.23	24.52	5.96	-45.6	-47.0	17.4	0.00e+00	0	42	0	81788928	62	4303
2026-01-22 22:12:19.24	24.61	6.01	-45.5	-46.8	17.5	0.00e+00	0	42	0	84934656	62	4233
2026-01-22 22:12:20.25	24.71	6.07	-45.4	-46.8	17.6	0.00e+00	0	42	0	88080384	62	4196
2026-01-22 22:12:21.25	24.81	6.13	-45.5	-46.8	17.5	0.00e+00	0	43	0	91226112	62	4241
2026-01-22 22:12:22.26	24.90	6.19	-45.5	-46.9	17.5	0.00e+00	0	43	0	95420416	62	4256
2026-01-22 22:12:23.27	25.00	6.25	-45.4	-46.7	17.7	0.00e+00	0	43	0	98566144	62	4178
2026-01-22 22:12:24.28	25.10	6.31	-45.4	-46.8	17.7	0.00e+00	0	43	0	100663296	62	4201
2026-01-22 22:12:25.29	25.20	6.37	-45.4	-46.7	17.7	0.00e+00	0	43	0	103809024	62	4178
2026-01-22 22:12:26.30	25.30	6.43	-45.4	-46.7	17.7	0.00e+00	0	43	0	106954752	62	4160
2026-01-22 22:12:27.31	25.40	6.49	-45.4	-46.7	17.7	0.00e+00	0	43	0	110100480	62	4166
2026-01-22 22:12:28.31	25.50	6.55	-45.3	-46.6	17.9	0.00e+00	0	43	0	113246208	62	4113
2026-01-22 22:12:29.32	25.60	6.61	-45.2	-46.4	18.0	0.00e+00	0	43	0	116391936	62	4048
2026-01-22 22:12:30.33	25.70	6.67	-45.2	-46.4	18.0	0.00e+00	0	42	0	119537664	62	4049
2026-01-22 22:12:31.34	25.80	6.73	-45.3	-46.5	17.9	0.00e+00	0	42	0	122683392	62	4083
2026-01-22 22:12:32.35	25.90	6.78	-45.3	-46.6	17.9	0.00e+00	0	43	0	125829120	62	4103
2026-01-22 22:12:33.35	26.00	6.84	-45.5	-46.8	17.7	0.00e+00	0	43	0	128974848	62	4211
2026-01-22 22:12:34.36	26.10	6.90	-45.2	-46.5	18.0	0.00e+00	0	43	0	133169152	62	4068
2026-01-22 22:12:35.37	26.20	6.96	-45.1	-46.3	18.1	0.00e+00	0	43	0	136314880	62	3993
2026-01-22 22:12:36.38	26.30	7.02	-45.2	-46.4	18.0	0.00e+00	0	43	0	139460608	62	4047
2026-01-22 22:12:37.39	26.41	7.08	-45.2	-46.4	18.0	0.00e+00	0	43	0	142606336	62	4042
2026-01-22 22:12:38.40	26.51	7.14	-45.2	-46.4	18.1	0.00e+00	0	43	0	145752064	62	4039
2026-01-22 22:12:39.41	26.62	7.20	-45.1	-46.3	18.2	0.00e+00	0	43	0	147849216	62	3975
2026-01-22 22:12:40.42	26.72	7.26	-45.1	-46.3	18.2	0.00e+00	0	43	0	150994944	62	3987
2026-01-22 22:12:41.43	26.82	7.33	-45.0	-46.2	18.3	0.00e+00	0	43	0	154140672	61	4172
2026-01-22 22:12:42.44	26.93	7.39	-45.0	-46.2	18.2	0.00e+00	0	43	0	157286400	61	4193
2026-01-22 22:12:43.45	27.04	7.45	-44.9	-46.1	18.4	0.00e+00	0	43	0	160432128	61	4127
2026-01-22 22:12:44.45	27.14	7.51	-45.0	-46.2	18.2	0.00e+00	0	43	0	163577856	61	4185
2026-01-22 22:12:45.46	27.25	7.57	-44.8	-46.0	18.4	0.00e+00	0	43	0	167772160	61	4092
2026-01-22 22:12:46.47	27.35	7.63	-44.7	-45.8	18.6	0.00e+00	0	42	0	170917888	61	4004
2026-01-22 22:12:47.48	27.46	7.69	-44.8	-46.0	18.5	0.00e+00	0	43	0	174063616	61	4060
2026-01-22 22:12:48.49	27.57	7.75	-44.8	-46.0	18.5	0.00e+00	0	43	0	177209344	61	4083
2026-01-22 22:12:49.49	27.68	7.81	-44.7	-45.8	18.6	0.00e+00	0	43	0	180355072	61	4001
2026-01-22 22:12:50.50	27.78	7.87	-44.5	-45.7	18.8	0.00e+00	0	43	0	183500800	61	3915
2026-01-22 22:12:51.51	27.89	7.93	-44.6	-45.7	18.8	0.00e+00	0	43	0	186646528	61	3939
2026-01-22 22:12:52.52	28.00	7.99	-44.6	-45.7	18.7	0.00e+00	0	43	0	189792256	61	3941
2026-01-22 22:12:53.53	28.11	8.05	-44.8	-45.9	18.6	0.00e+00	0	43	0	192937984	61	4048
2026-01-22 22:12:54.53	28.22	8.11	-44.8	-45.9	18.6	0.00e+00	0	43	0	195035136	61	4043
2026-01-22 22:12:55.54	28.33	8.18	-44.7	-45.8	18.7	0.00e+00	0	43	0	198180864	61	4002
2026-01-22 22:12:56.55	28.44	8.24	-44.6	-45.8	18.7	0.00e+00	0	43	0	201326592	61	3973
2026-01-22 22:12:57.56	28.56	8.30	-44.5	-45.7	18.8	0.00e+00	0	43	0	205520896	61	3925
2026-01-22 22:12:58.57	28.67	8.36	-44.8	-45.9	18.6	0.00e+00	0	43	0	208666624	61	4035
2026-01-22 22:12:59.58	28.78	8.42	-44.9	-46.1	18.5	0.00e+00	0	43	0	211812352	61	4116
2026-01-22 22:13:00.59	28.89	8.48	-44.9	-46.1	18.5	0.00e+00	0	43	0	214958080	61	4107
2026-01-22 22:13:01.60	29.01	8.54	-44.8	-46.0	18.6	0.00e+00	0	43	0	218103808	61	4061
2026-01-22 22:13:02.61	29.12	8.61	-44.7	-45.9	18.7	0.00e+00	0	43	0	221249536	61	4021
2026-01-22 22:13:03.61	29.23	8.67	-44.6	-45.7	18.8	0.00e+00	0	43	0	224395264	61	3939
2026-01-22 22:13:04.62	29.35	8.73	-44.4	-45.5	19.0	0.00e+00	0	43	0	227540992	60	4088
2026-01-22 22:13:05.63	29.46	8.79	-44.3	-45.5	19.0	0.00e+00	0	43	0	230686720	60	4054
2026-01-22 22:13:06.64	29.58	8.85	-44.4	-45.5	19.0	0.00e+00	0	43	0	233832448	60	4063
2026-01-22 22:13:07.65	29.70	8.91	-44.3	-45.4	19.1	0.00e+00	0	43	0	236978176	60	4012
2026-01-22 22:13:08.65	29.81	8.98	-44.2	-45.3	19.2	0.00e+00	0	43	0	240123904	60	3987
2026-01-22 22:13:09.66	29.93	9.04	-44.2	-45.3	19.3	0.00e+00	0	43	0	243269632	60	3973
2026-01-22 22:13:10.67	30.05	9.10	-44.2	-45.2	19.3	0.00e+00	0	43	0	246415360	60	3953
2026-01-22 22:13:11.68	30.16	9.16	-44.1	-45.1	19.4	0.00e+00	0	43	0	249561088	60	3905
2026-01-22 22:13:12.69	30.28	9.22	-44.2	-45.2	19.3	0.00e+00	0	43	0	252706816	60	3957
2026-01-22 22:13:13.70	30.40	9.29	-44.2	-45.2	19.4	0.00e+00	0	43	0	255852544	60	3947
2026-01-22 22:13:14.71	30.52	9.35	-44.1	-45.1	19.4	0.00e+00	0	43	0	258998272	60	3898
2026-01-22 22:13:15.72	30.64	9.41	-44.6	-45.7	19.3	0.00e+00	0	43	0	262144000	59	4396
2026-01-22 22:13:16.73	30.76	9.47	-44.5	-45.6	19.3	0.00e+00	0	43	0	265289728	59	4371
2026-01-22 22:13:17.73	30.88	9.54	-44.5	-45.6	19.3	0.00e+00	0	43	0	268435456	59	4381
2026-01-22 22:13:18.74	31.00	9.60	-44.4	-45.5	19.4	0.00e+00	0	43	0	271581184	59	4331
2026-01-22 22:13:19.75	31.13	9.66	-44.4	-45.5	19.5	0.00e+00	0	43	0	274726912	59	4313
2026-01-22 22:13:20.76	31.25	9.72	-44.5	-45.5	19.4	0.00e+00	0	43	0	277872640	59	4334
2026-01-22 22:13:21.77	31.37	9.79	-44.4	-45.5	19.4	0.00e+00	0	43	0	281018368	59	4316
2026-01-22 22:13:22.77	31.49	9.85	-44.5	-45.5	19.4	0.00e+00	0	43	0	284164096	59	4340
2026-01-22 22:13:23.78	31.62	9.91	-44.3	-45.3	19.6	0.00e+00	0	43	0	287309824	59	4224
2026-01-22 22:13:24.79	31.74	9.97	-44.3	-45.4	19.5	0.00e+00	0	43	0	290455552	59	4266
2026-01-22 22:13:25.80	31.87	10.04	-44.2	-45.2	19.7	0.00e+00	0	43	0	293601280	59	4174
2026-01-22 22:13:26.81	31.99	10.10	-43.9	-44.9	20.0	0.00e+00	0	43	0	296747008	59	4046
2026-01-22 22:13:27.81	32.12	10.16	-43.6	-44.6	20.3	0.00e+00	0	43	0	299892736	59	3897
2026-01-22 22:13:28.82	32.24	10.22	-43.6	-44.5	20.3	0.00e+00	0	43	0	303038464	59	3851
2026-01-22 22:13:29.83	32.37	10.29	-43.6	-44.6	20.2	0.00e+00	0	43	0	306184192	59	3896
2026-01-22 22:13:30.83	32.50	10.35	-43.8	-44.8	20.1	0.00e+00	0	43	0	309329920	59	3975
2026-01-22 22:13:31.84	32.63	10.41	-43.8	-44.8	20.1	0.00e+00	0	43	0	312475648	59	3970
2026-01-22 22:13:32.85	32.76	10.48	-43.7	-44.7	20.2	0.00e+00	0	43	0	315621376	59	3928
2026-01-22 22:13:33.86	32.88	10.54	-43.6	-44.6	20.3	0.00e+00	0	43	0	318767104	59	3893
2026-01-22 22:13:34.87	33.01	10.60	-43.8	-44.8	20.1	0.00e+00	0	43	0	321912832	59	3985
2026-01-22 22:13:35.87	33.14	10.66	-43.9	-44.9	20.1	0.00e+00	0	43	0	325058560	59	4009
2026-01-22 22:13:36.88	33.27	10.73	-43.8	-44.8	20.1	0.00e+00	0	43	0	328204288	59	3975
2026-01-22 22:13:37.89	33.41	10.79	-43.8	-44.8	20.1	0.00e+00	0	43	0	331350016	59	3991
2026-01-22 22:13:38.90	33.54	10.85	-44.0	-45.0	20.0	0.00e+00	0	43	0	334495744	59	4070
2026-01-22 22:13:39.91	33.67	10.92	-44.1	-45.1	19.8	0.00e+00	0	43	0	337641472	59	4125
2026-01-22 22:13:40.91	33.80	10.98	-43.9	-44.9	20.0	0.00e+00	0	43	0	340787200	59	4050
2026-01-22 22:13:41.92	33.94	11.04	-43.8	-44.8	20.1	0.00e+00	0	43	0	343932928	59	3986
2026-01-22 22:13:42.93	34.07	11.11	-44.0	-45.0	19.9	0.00e+00	0	43	0	347078656	59	4077
2026-01-22 22:13:43.94	34.20	11.17	-43.8	-44.8	20.1	0.00e+00	0	43	0	350224384	59	3970
2026-01-22 22:13:44.95	34.34	11.23	-43.8	-44.8	20.1	0.00e+00	0	43	0	353370112	59	3983
2026-01-22 22:13:45.95	34.47	11.30	-43.6	-44.6	20.3	0.00e+00	0	43	0	356515840	59	3884
2026-01-22 22:13:46.96	34.61	11.36	-43.7	-44.7	20.2	0.00e+00	0	43	0	359661568	59	3931
2026-01-22 22:13:47.97	34.75	11.42	-43.7	-44.7	20.3	0.00e+00	0	43	0	362807296	59	3944
2026-01-22 22:13:48.98	34.89	11.49	-43.8	-44.8	20.2	0.00e+00	0	43	0	365953024	59	3980
2026-01-22 22:13:49.99	35.02	11.55	-43.8	-44.8	20.2	0.00e+00	0	43	0	369098752	59	3984
2026-01-22 22:13:51.00	35.16	11.62	-43.8	-44.8	20.2	0.00e+00	0	43	0	372244480	59	3984
2026-01-22 22:13:52.01	35.30	11.68	-43.8	-44.8	20.2	0.00e+00	0	43	0	375390208	59	3981
2026-01-22 22:13:53.02	35.44	11.74	-43.9	-44.9	20.1	0.00e+00	0	43	0	378535936	59	4041
2026-01-22 22:13:54.02	35.58	11.81	-43.9	-44.9	20.1	0.00e+00	0	43	0	381681664	59	4016
2026-01-22 22:13:55.03	35.72	11.87	-43.9	-44.9	20.1	0.00e+00	0	43	0	384827392	59	4051
2026-01-22 22:13:56.04	35.86	11.93	-44.0	-45.1	20.0	0.00e+00	0	43	0	387973120	59	4100
2026-01-22 22:13:57.05	36.01	12.00	-44.0	-45.0	20.0	0.00e+00	0	43	0	391118848	59	4077
2026-01-22 22:13:58.06	36.15	12.06	-44.0	-45.0	20.0	0.00e+00	0	43	0	394264576	59	4098
2026-01-22 22:13:59.06	36.29	12.12	-43.9	-44.9	20.1	0.00e+00	0	43	0	397410304	59	4016
2026-01-22 22:14:00.07	36.44	12.19	-43.9	-44.8	20.2	0.00e+00	0	43	0	400556032	59	4004
2026-01-22 22:14:01.08	36.58	12.25	-43.9	-44.9	20.2	0.00e+00	0	43	0	403701760	59	4009
2026-01-22 22:14:02.09	36.73	12.32	-43.7	-44.7	20.3	0.00e+00	0	43	0	406847488	59	3926
2026-01-22 22:14:03.09	36.87	12.38	-43.6	-44.6	20.4	0.00e+00	0	43	0	409993216	59	3880
2026-01-22 22:14:04.10	37.02	12.44	-43.6	-44.5	20.5	0.00e+00	0	43	0	413138944	59	3848
2026-01-22 22:14:05.11	37.16	12.51	-43.6	-44.5	20.5	0.00e+00	0	43	0	416284672	59	3861
2026-01-22 22:14:06.12	37.31	12.57	-43.5	-44.5	20.5	0.00e+00	0	43	0	419430400	59	3850
2026-01-22 22:14:07.13	37.46	12.63	-43.5	-44.4	20.6	0.00e+00	0	43	0	422576128	58	4051
2026-01-22 22:14:08.13	37.61	12.70	-43.5	-44.5	20.5	0.00e+00	0	43	0	425721856	58	4055
2026-01-22 22:14:09.14	37.76	12.76	-43.6	-44.6	20.4	0.00e+00	0	43	0	428867584	58	4120
2026-01-22 22:14:10.15	37.91	12.82	-43.6	-44.6	20.4	0.00e+00	0	43	0	432013312	58	4112
2026-01-22 22:14:11.16	38.06	12.89	-43.7	-44.6	20.4	0.00e+00	0	43	0	435159040	58	4144
2026-01-22 22:14:12.16	38.21	12.95	-43.7	-44.7	20.3	0.00e+00	0	43	0	438304768	58	4169
2026-01-22 22:14:13.17	38.36	13.01	-43.8	-44.8	20.2	0.00e+00	0	43	0	441450496	58	4208
2026-01-22 22:14:14.18	38.51	13.08	-43.8	-44.8	20.2	0.00e+00	0	43	0	444596224	58	4211
2026-01-22 22:14:15.19	38.67	13.14	-43.9	-44.9	20.1	0.00e+00	0	43	0	447741952	58	4250
2026-01-22 22:14:16.20	38.82	13.21	-43.4	-44.3	20.6	0.00e+00	0	43	0	450887680	58	4002
2026-01-22 22:14:17.21	38.97	13.27	-43.3	-44.2	20.8	0.00e+00	0	43	0	454033408	58	3927
2026-01-22 22:14:18.21	39.13	13.33	-43.2	-44.1	20.9	0.00e+00	0	43	0	457179136	58	3870
2026-01-22 22:14:19.22	39.28	13.40	-43.2	-44.1	20.9	0.00e+00	0	43	0	460324864	58	3886
2026-01-22 22:14:20.23	39.44	13.46	-43.2	-44.1	20.9	0.00e+00	0	43	0	463470592	58	3883
2026-01-22 22:14:21.24	39.60	13.52	-43.2	-44.1	20.9	0.00e+00	0	43	0	466616320	58	3876
2026-01-22 22:14:22.25	39.76	13.59	-43.3	-44.2	20.8	0.00e+00	0	43	0	469762048	58	3939
2026-01-22 22:14:23.26	39.91	13.65	-43.3	-44.2	20.8	0.00e+00	0	43	0	472907776	58	3957
2026-01-22 22:14:24.27	40.07	13.71	-43.5	-44.4	20.6	0.00e+00	0	43	0	476053504	58	4045
2026-01-22 22:14:25.28	40.23	13.78	-43.6	-44.6	20.5	0.00e+00	0	43	0	479199232	58	4114
2026-01-22 22:14:26.29	40.39	13.84	-43.5	-44.4	20.6	0.00e+00	0	43	0	482344960	58	4030
2026-01-22 22:14:27.30	40.55	13.90	-43.5	-44.5	20.5	0.00e+00	0	43	0	485490688	58	4058
2026-01-22 22:14:28.31	40.72	13.97	-43.5	-44.5	20.4	0.00e+00	0	43	0	488636416	58	4060
2026-01-22 22:14:29.32	40.88	14.03	-43.3	-44.2	20.7	0.00e+00	0	43	0	491782144	58	3928
2026-01-22 22:14:30.33	41.04	14.09	-43.4	-44.3	20.6	0.00e+00	0	43	0	494927872	58	3975
2026-01-22 22:14:31.33	41.20	14.16	-43.4	-44.4	20.5	0.00e+00	0	43	0	498073600	58	4014
2026-01-22 22:14:32.34	41.37	14.22	-43.3	-44.2	20.7	0.00e+00	0	43	0	501219328	58	3942
2026-01-22 22:14:33.35	41.53	14.28	-43.3	-44.2	20.7	0.00e+00	0	43	0	504365056	58	3955
2026-01-22 22:14:34.36	41.70	14.35	-43.5	-44.4	20.6	0.00e+00	0	43	0	507510784	58	4025
2026-01-22 22:14:35.37	41.87	14.41	-43.5	-44.4	20.6	0.00e+00	0	43	0	510656512	58	4025
2026-01-22 22:14:36.37	42.03	14.47	-43.6	-44.6	20.5	0.00e+00	0	43	0	513802240	58	4111
2026-01-22 22:14:37.38	42.20	14.53	-43.6	-44.6	20.5	0.00e+00	0	43	0	516947968	58	4121
2026-01-22 22:14:38.39	42.37	14.60	-43.6	-44.5	20.5	0.00e+00	0	43	0	520093696	58	4090
2026-01-22 22:14:39.40	42.54	14.66	-43.5	-44.5	20.6	0.00e+00	0	43	0	523239424	58	4054
2026-01-22 22:14:40.41	42.71	14.72	-43.5	-44.4	20.6	0.00e+00	0	43	0	526385152	58	4042
2026-01-22 22:14:41.42	42.88	14.78	-43.5	-44.5	20.6	0.00e+00	0	43	0	529530880	58	4052
2026-01-22 22:14:42.43	43.05	14.85	-43.3	-44.3	20.8	0.00e+00	0	43	0	532676608	58	3960
2026-01-22 22:14:43.43	43.22	14.91	-43.4	-44.3	20.7	0.00e+00	0	43	0	535822336	58	3992
2026-01-22 22:14:44.44	43.39	14.97	-43.2	-44.1	20.9	0.00e+00	0	43	0	538968064	58	3894
2026-01-22 22:14:45.45	43.57	15.03	-43.3	-44.2	20.8	0.00e+00	0	43	0	542113792	58	3957
2026-01-22 22:14:46.46	43.74	15.10	-43.3	-44.2	20.8	0.00e+00	0	43	0	545259520	58	3948
2026-01-22 22:14:47.47	43.92	15.16	-43.2	-44.2	20.9	0.00e+00	0	43	0	548405248	58	3914
2026-01-22 22:14:48.48	44.09	15.22	-43.3	-44.3	20.8	0.00e+00	0	43	0	551550976	58	3959
2026-01-22 22:14:49.48	44.27	15.28	-43.3	-44.2	20.8	0.00e+00	0	43	0	554696704	58	3942
2026-01-22 22:14:50.49	44.44	15.34	-43.4	-44.4	20.7	0.00e+00	0	43	0	557842432	58	4016
2026-01-22 22:14:51.50	44.62	15.40	-43.4	-44.3	20.7	0.00e+00	0	43	0	560988160	58	4001
2026-01-22 22:14:52.51	44.80	15.47	-43.4	-44.4	20.7	0.00e+00	0	43	0	564133888	58	4015
2026-01-22 22:14:53.52	44.98	15.53	-43.3	-44.3	20.8	0.00e+00	0	43	0	567279616	58	3974
2026-01-22 22:14:54.53	45.16	15.59	-43.5	-44.4	20.6	0.00e+00	0	43	0	570425344	58	4030
2026-01-22 22:14:55.54	45.34	15.65	-43.3	-44.3	20.8	0.00e+00	0	43	0	573571072	58	3974
2026-01-22 22:14:56.55	45.52	15.71	-43.4	-44.3	20.8	0.00e+00	0	43	0	576716800	58	3989
2026-01-22 22:14:57.56	45.70	15.77	-43.4	-44.4	20.7	0.00e+00	0	43	0	579862528	58	4020
2026-01-22 22:14:58.57	45.89	15.83	-43.5	-44.4	20.6	0.00e+00	0	43	0	583008256	58	4050
2026-01-22 22:14:59.57	46.07	15.89	-43.3	-44.3	20.8	0.00e+00	0	43	0	586153984	58	3971
2026-01-22 22:15:00.58	46.25	15.95	-43.4	-44.3	20.8	0.00e+00	0	43	0	589299712	58	3998
2026-01-22 22:15:01.59	46.44	16.02	-43.3	-44.2	20.9	0.00e+00	0	43	0	592445440	58	3944
2026-01-22 22:15:02.60	46.62	16.08	-43.3	-44.2	20.9	0.00e+00	0	43	0	595591168	58	3926
2026-01-22 22:15:03.61	46.81	16.14	-43.3	-44.2	20.9	0.00e+00	0	43	0	598736896	58	3918
2026-01-22 22:15:04.61	46.99	16.20	-43.1	-44.1	21.1	0.00e+00	0	43	0	601882624	58	3871
2026-01-22 22:15:05.62	47.18	16.26	-43.1	-44.0	21.1	0.00e+00	0	43	0	605028352	58	3848
2026-01-22 22:15:06.63	47.37	16.32	-43.1	-44.0	21.1	0.00e+00	0	43	0	608174080	58	3825
2026-01-22 22:15:07.64	47.56	16.38	-43.2	-44.1	21.0	0.00e+00	0	43	0	611319808	58	3873
2026-01-22 22:15:08.65	47.75	16.44	-43.2	-44.1	21.0	0.00e+00	0	43	0	614465536	58	3909
2026-01-22 22:15:09.65	47.94	16.49	-43.1	-44.0	21.0	0.00e+00	0	43	0	617611264	58	3867
2026-01-22 22:15:10.66	48.13	16.55	-43.1	-44.0	21.1	0.00e+00	0	43	0	620756992	58	3839
2026-01-22 22:15:11.67	48.32	16.61	-43.2	-44.1	21.0	0.00e+00	0	43	0	623902720	58	3878
2026-01-22 22:15:12.68	48.52	16.67	-43.3	-44.2	20.9	0.00e+00	0	43	0	627048448	58	3937
2026-01-22 22:15:13.68	48.71	16.73	-43.3	-44.2	20.9	0.00e+00	0	43	0	630194176	58	3949
2026-01-22 22:15:14.69	48.90	16.79	-43.4	-44.3	20.8	0.00e+00	0	43	0	633339904	58	3991
2026-01-22 22:15:15.70	49.10	16.85	-43.3	-44.2	20.9	0.00e+00	0	43	0	636485632	58	3947
2026-01-22 22:15:16.71	49.29	16.91	-43.3	-44.2	20.9	0.00e+00	0	43	0	639631360	58	3926
2026-01-22 22:15:17.72	49.49	16.96	-43.3	-44.2	20.9	0.00e+00	0	43	0	642777088	58	3949
2026-01-22 22:15:18.73	49.69	17.02	-43.2	-44.1	21.0	0.00e+00	0	43	0	645922816	58	3901
2026-01-22 22:15:19.73	49.88	17.08	-43.2	-44.1	21.0	0.00e+00	0	43	0	649068544	58	3902
2026-01-22 22:15:20.74	50.08	17.14	-43.1	-43.9	21.2	0.00e+00	0	44	0	652214272	58	3822
2026-01-22 22:15:21.75	50.28	17.19	-43.0	-43.8	21.2	0.00e+00	0	43	0	655360000	57	3998
2026-01-22 22:15:22.76	50.48	17.25	-42.9	-43.8	21.2	0.00e+00	0	43	0	658505728	57	3994
2026-01-22 22:15:23.77	50.68	17.31	-43.0	-43.9	21.1	0.00e+00	0	43	0	661651456	57	4035
2026-01-22 22:15:24.77	50.88	17.36	-43.0	-43.9	21.1	0.00e+00	0	43	0	664797184	57	4046
2026-01-22 22:15:25.78	51.09	17.42	-43.1	-44.0	21.0	0.00e+00	0	43	0	667942912	57	4059
2026-01-22 22:15:26.79	51.29	17.48	-43.2	-44.1	20.9	0.00e+00	0	43	0	671088640	57	4118
2026-01-22 22:15:27.79	51.49	17.53	-43.1	-44.0	21.0	0.00e+00	0	43	0	674234368	57	4081
2026-01-22 22:15:28.80	51.70	17.59	-43.0	-43.9	21.1	0.00e+00	0	43	0	677380096	57	4024
2026-01-22 22:15:29.81	51.90	17.65	-43.0	-43.9	21.1	0.00e+00	0	43	0	680525824	57	4023
2026-01-22 22:15:30.82	52.11	17.70	-43.0	-43.9	21.2	0.00e+00	0	43	0	683671552	57	4015
2026-01-22 22:15:31.83	52.32	17.76	-42.9	-43.8	21.3	0.00e+00	0	43	0	686817280	57	3973
2026-01-22 22:15:32.84	52.52	17.81	-43.0	-43.9	21.2	0.00e+00	0	43	0	689963008	57	4009
2026-01-22 22:15:33.84	52.73	17.87	-42.8	-43.7	21.4	0.00e+00	0	43	0	693108736	57	3925
2026-01-22 22:15:34.85	52.94	17.92	-42.9	-43.8	21.4	0.00e+00	0	43	0	696254464	57	3960
2026-01-22 22:15:35.86	53.15	17.97	-42.9	-43.8	21.3	0.00e+00	0	43	0	700448768	57	3991
2026-01-22 22:15:36.86	53.36	18.03	-43.0	-43.8	21.3	0.00e+00	0	43	0	702545920	57	4001
2026-01-22 22:15:37.87	53.57	18.08	-42.9	-43.8	21.3	0.00e+00	0	43	0	705691648	57	3972
2026-01-22 22:15:38.88	53.78	18.14	-42.9	-43.8	21.2	0.00e+00	0	43	0	708837376	57	3991
2026-01-22 22:15:39.89	53.99	18.19	-42.9	-43.8	21.2	0.00e+00	0	43	0	711983104	57	3967
2026-01-22 22:15:40.90	54.21	18.24	-42.9	-43.8	21.2	0.00e+00	0	43	0	715128832	57	3984
2026-01-22 22:15:41.91	54.42	18.29	-42.8	-43.7	21.2	0.00e+00	0	43	0	718274560	57	3944
2026-01-22 22:15:42.91	54.64	18.35	-42.9	-43.8	21.3	0.00e+00	0	43	0	721420288	57	3959
2026-01-22 22:15:43.92	54.85	18.40	-42.7	-43.6	21.5	0.00e+00	0	43	0	724566016	57	3892
2026-01-22 22:15:44.93	55.07	18.45	-42.6	-43.5	21.5	0.00e+00	0	43	0	727711744	57	3843
2026-01-22 22:15:45.94	55.29	18.50	-42.6	-43.4	21.6	0.00e+00	0	43	0	730857472	57	3810
2026-01-22 22:15:46.95	55.50	18.55	-42.6	-43.4	21.6	0.00e+00	0	43	0	734003200	57	3820
2026-01-22 22:15:47.96	55.72	18.60	-42.6	-43.4	21.6	0.00e+00	0	43	0	738197504	57	3809
2026-01-22 22:15:48.97	55.94	18.66	-42.6	-43.5	21.6	0.00e+00	0	43	0	741343232	57	3840
2026-01-22 22:15:49.98	56.16	18.71	-42.6	-43.5	21.6	0.00e+00	0	43	0	744488960	57	3838
2026-01-22 22:15:50.99	56.38	18.76	-42.8	-43.6	21.4	0.00e+00	0	43	0	747634688	57	3907
2026-01-22 22:15:52.00	56.60	18.81	-42.8	-43.7	21.3	0.00e+00	0	43	0	749731840	57	3933
2026-01-22 22:15:53.01	56.83	18.86	-42.8	-43.7	21.2	0.00e+00	0	43	0	752877568	57	3939
2026-01-22 22:15:54.01	57.05	18.90	-42.7	-43.6	21.3	0.00e+00	0	43	0	756023296	57	3874
2026-01-22 22:15:55.02	57.27	18.95	-42.6	-43.5	21.4	0.00e+00	0	43	0	759169024	57	3846
2026-01-22 22:15:56.03	57.50	19.00	-42.6	-43.5	21.5	0.00e+00	0	43	0	762314752	57	3831
2026-01-22 22:15:57.04	57.72	19.05	-42.6	-43.4	21.6	0.00e+00	0	43	0	765460480	57	3809
2026-01-22 22:15:58.05	57.95	19.10	-42.5	-43.3	21.7	0.00e+00	0	43	0	768606208	57	3769
2026-01-22 22:15:59.05	58.17	19.15	-42.2	-43.0	21.9	0.00e+00	0	43	0	771751936	56	3867
2026-01-22 22:16:00.06	58.40	19.19	-42.3	-43.2	21.8	0.00e+00	0	43	0	775946240	56	3920
2026-01-22 22:16:01.07	58.63	19.24	-42.5	-43.3	21.7	0.00e+00	0	43	0	779091968	56	3978
2026-01-22 22:16:02.08	58.85	19.29	-42.6	-43.4	21.6	0.00e+00	0	43	0	782237696	56	4044
2026-01-22 22:16:03.08	59.08	19.33	-42.6	-43.5	21.6	0.00e+00	0	43	0	785383424	56	4060
2026-01-22 22:16:04.09	59.31	19.38	-42.7	-43.6	21.5	0.00e+00	0	43	0	788529152	56	4113
2026-01-22 22:16:05.10	59.54	19.42	-42.8	-43.6	21.5	0.00e+00	0	43	0	791674880	56	4131
2026-01-22 22:16:06.11	59.77	19.47	-42.6	-43.5	21.6	0.00e+00	0	43	0	794820608	56	4068
2026-01-22 22:16:07.12	60.01	19.51	-42.5	-43.3	21.7	0.00e+00	0	43	0	796917760	56	4002
2026-01-22 22:16:08.13	60.24	19.56	-42.3	-43.2	21.8	0.00e+00	0	43	0	800063488	56	3916
2026-01-22 22:16:09.14	60.47	19.60	-42.2	-43.0	22.0	0.00e+00	0	43	0	803209216	56	3835
2026-01-22 22:16:10.15	60.71	19.64	-42.1	-42.9	22.1	0.00e+00	0	43	0	806354944	56	3785
2026-01-22 22:16:11.15	60.94	19.69	-42.2	-43.0	21.9	0.00e+00	0	43	0	809500672	56	3844
2026-01-22 22:16:12.16	61.17	19.73	-42.1	-42.9	22.0	0.00e+00	0	43	0	813694976	56	3823
2026-01-22 22:16:13.17	61.41	19.77	-42.3	-43.1	21.9	0.00e+00	0	43	0	816840704	56	3896
2026-01-22 22:16:14.18	61.65	19.81	-42.3	-43.1	21.9	0.00e+00	0	43	0	819986432	56	3889
2026-01-22 22:16:15.19	61.88	19.86	-42.3	-43.1	21.9	0.00e+00	0	43	0	823132160	56	3887
2026-01-22 22:16:16.20	62.12	19.90	-42.3	-43.1	21.9	0.00e+00	0	43	0	826277888	56	3904
2026-01-22 22:16:17.21	62.36	19.94	-42.3	-43.1	21.9	0.00e+00	0	43	0	829423616	56	3890
2026-01-22 22:16:18.21	62.60	19.98	-42.3	-43.1	21.9	0.00e+00	0	43	0	832569344	56	3902
2026-01-22 22:16:19.22	62.83	20.02	-42.2	-43.0	22.0	0.00e+00	0	43	0	835715072	56	3846
2026-01-22 22:16:20.23	63.08	20.06	-42.1	-42.9	22.0	0.00e+00	0	43	0	838860800	56	3818
2026-01-22 22:16:21.24	63.32	20.10	-42.1	-42.9	22.0	0.00e+00	0	43	0	842006528	56	3802
2026-01-22 22:16:22.25	63.56	20.13	-42.2	-43.0	21.9	0.00e+00	0	43	0	844103680	56	3847
2026-01-22 22:16:23.25	63.80	20.17	-42.2	-43.0	21.9	0.00e+00	0	43	0	847249408	56	3858
2026-01-22 22:16:24.26	64.04	20.21	-42.2	-43.0	22.0	0.00e+00	0	43	0	851443712	56	3838
2026-01-22 22:16:25.27	64.28	20.25	-42.2	-43.1	22.0	0.00e+00	0	43	0	854589440	56	3872
2026-01-22 22:16:26.28	64.53	20.28	-42.2	-43.0	22.0	0.00e+00	0	44	0	857735168	56	3852
2026-01-22 22:16:27.29	64.77	20.32	-42.0	-42.8	22.2	0.00e+00	0	43	0	860880896	56	3779
2026-01-22 22:16:28.29	65.01	20.36	-42.1	-42.9	22.1	0.00e+00	0	43	0	864026624	56	3812
2026-01-22 22:16:29.30	65.26	20.39	-42.1	-42.9	22.1	0.00e+00	0	43	0	867172352	56	3802
2026-01-22 22:16:30.31	65.50	20.43	-42.2	-43.0	22.0	0.00e+00	0	43	0	870318080	56	3834
2026-01-22 22:16:31.32	65.75	20.46	-42.2	-43.0	22.0	0.00e+00	0	43	0	873463808	56	3853
2026-01-22 22:16:32.33	66.00	20.49	-42.3	-43.1	21.9	0.00e+00	0	43	0	876609536	56	3896
2026-01-22 22:16:33.34	66.25	20.53	-42.4	-43.2	21.8	0.00e+00	0	44	0	879755264	56	3938
2026-01-22 22:16:34.35	66.49	20.56	-42.3	-43.2	21.9	0.00e+00	0	43	0	882900992	56	3920
2026-01-22 22:16:35.35	66.74	20.59	-42.3	-43.1	22.0	0.00e+00	0	43	0	886046720	56	3883
2026-01-22 22:16:36.36	66.99	20.63	-42.3	-43.1	21.9	0.00e+00	0	43	0	889192448	56	3886
2026-01-22 22:16:37.37	67.24	20.66	-42.1	-42.9	22.0	0.00e+00	0	43	0	892338176	56	3809
2026-01-22 22:16:38.38	67.49	20.69	-42.2	-43.0	22.0	0.00e+00	0	43	0	895483904	56	3841
2026-01-22 22:16:39.39	67.74	20.72	-42.3	-43.1	21.9	0.00e+00	0	43	0	898629632	56	3911
2026-01-22 22:16:40.40	67.99	20.75	-42.4	-43.3	21.8	0.00e+00	0	43	0	901775360	56	3963
2026-01-22 22:16:41.41	68.24	20.78	-42.4	-43.2	21.8	0.00e+00	0	43	0	904921088	56	3954
2026-01-22 22:16:42.41	68.49	20.81	-42.4	-43.3	21.8	0.00e+00	0	43	0	908066816	56	3969
2026-01-22 22:16:43.42	68.75	20.84	-42.5	-43.4	21.7	0.00e+00	0	43	0	911212544	56	4021
2026-01-22 22:16:44.43	69.00	20.86	-42.6	-43.4	21.7	0.00e+00	0	43	0	914358272	56	4039
2026-01-22 22:16:45.44	69.25	20.89	-42.5	-43.3	21.8	0.00e+00	0	43	0	917504000	56	3984
2026-01-22 22:16:46.45	69.51	20.92	-42.5	-43.3	21.8	0.00e+00	0	43	0	920649728	56	3984
2026-01-22 22:16:47.45	69.76	20.94	-42.4	-43.2	21.9	0.00e+00	0	43	0	923795456	56	3931
2026-01-22 22:16:48.46	70.01	20.97	-42.4	-43.3	21.8	0.00e+00	0	43	0	926941184	56	3969
2026-01-22 22:16:49.47	70.27	21.00	-42.4	-43.2	21.9	0.00e+00	0	43	0	930086912	56	3941
2026-01-22 22:16:50.48	70.52	21.02	-42.4	-43.2	21.8	0.00e+00	0	43	0	933232640	56	3954
2026-01-22 22:16:51.49	70.78	21.04	-42.4	-43.2	21.9	0.00e+00	0	43	0	936378368	56	3938
2026-01-22 22:16:52.49	71.03	21.07	-42.4	-43.2	21.9	0.00e+00	0	43	0	939524096	56	3948
2026-01-22 22:16:53.50	71.29	21.09	-42.2	-43.0	22.0	0.00e+00	0	43	0	942669824	56	3858
2026-01-22 22:16:54.51	71.55	21.11	-42.2	-43.0	22.1	0.00e+00	0	43	0	945815552	56	3829
2026-01-22 22:16:55.52	71.81	21.14	-42.1	-42.9	22.1	0.00e+00	0	43	0	948961280	56	3801
2026-01-22 22:16:56.53	72.06	21.16	-42.2	-43.0	22.0	0.00e+00	0	43	0	952107008	56	3846
2026-01-22 22:16:57.53	72.32	21.18	-42.1	-42.9	22.1	0.00e+00	0	43	0	955252736	56	3804
2026-01-22 22:16:58.54	72.58	21.20	-42.2	-43.0	22.0	0.00e+00	0	43	0	958398464	56	3833
2026-01-22 22:16:59.55	72.84	21.22	-42.1	-42.9	22.0	0.00e+00	0	44	0	961544192	56	3824
2026-01-22 22:17:00.56	73.10	21.24	-42.1	-42.9	22.1	0.00e+00	0	43	0	964689920	56	3805
2026-01-22 22:17:01.57	73.36	21.26	-42.2	-43.0	22.0	0.00e+00	0	43	0	967835648	56	3850
2026-01-22 22:17:02.58	73.61	21.27	-42.2	-43.0	22.0	0.00e+00	0	43	0	970981376	56	3860
2026-01-22 22:17:03.59	73.88	21.29	-42.3	-43.2	21.8	0.00e+00	0	43	0	974127104	56	3925
2026-01-22 22:17:04.59	74.13	21.31	-42.3	-43.2	21.8	0.00e+00	0	43	0	977272832	56	3925
2026-01-22 22:17:05.60	74.39	21.32	-42.3	-43.1	21.9	0.00e+00	0	43	0	980418560	56	3895
2026-01-22 22:17:06.61	74.65	21.34	-42.3	-43.1	21.9	0.00e+00	0	43	0	983564288	56	3900
2026-01-22 22:17:07.62	74.92	21.36	-42.3	-43.2	21.9	0.00e+00	0	43	0	986710016	56	3920
2026-01-22 22:17:08.63	75.18	21.37	-42.2	-43.1	21.9	0.00e+00	0	43	0	989855744	56	3872
2026-01-22 22:17:09.63	75.44	21.38	-42.1	-42.9	22.0	0.00e+00	0	43	0	993001472	56	3813
2026-01-22 22:17:10.64	75.70	21.40	-42.2	-43.1	21.9	0.00e+00	0	43	0	996147200	56	3877
2026-01-22 22:17:11.65	75.96	21.41	-42.2	-43.0	22.0	0.00e+00	0	43	0	999292928	56	3837
2026-01-22 22:17:12.66	76.22	21.42	-42.1	-43.0	22.1	0.00e+00	0	43	0	1002438656	56	3825
2026-01-22 22:17:13.67	76.49	21.43	-42.2	-43.1	21.9	0.00e+00	0	44	0	1005584384	56	3878
2026-01-22 22:17:14.67	76.75	21.44	-42.1	-43.0	22.1	0.00e+00	0	43	0	1008730112	56	3825
2026-01-22 22:17:15.68	77.01	21.46	-42.1	-42.9	22.1	0.00e+00	0	43	0	1011875840	56	3789
2026-01-22 22:17:16.69	77.27	21.47	-42.1	-42.9	22.1	0.00e+00	0	43	0	1015021568	56	3814
2026-01-22 22:17:17.69	77.53	21.47	-42.1	-42.9	22.1	0.00e+00	0	43	0	1018167296	56	3807
2026-01-22 22:17:18.70	77.80	21.48	-42.2	-43.0	22.0	0.00e+00	0	43	0	1021313024	56	3832
2026-01-22 22:17:19.71	78.06	21.49	-42.2	-43.1	21.9	0.00e+00	0	43	0	1024458752	56	3872
2026-01-22 22:17:20.72	78.32	21.50	-42.1	-42.9	22.1	0.00e+00	0	43	0	1027604480	56	3823
2026-01-22 22:17:21.73	78.59	21.51	-42.0	-42.8	22.2	0.00e+00	0	43	0	1030750208	56	3769
2026-01-22 22:17:22.74	78.85	21.51	-41.8	-42.6	22.2	0.00e+00	0	43	0	1033895936	55	3906
2026-01-22 22:17:23.75	79.12	21.52	-41.8	-42.6	22.3	0.00e+00	0	43	0	1037041664	55	3875
2026-01-22 22:17:24.75	79.38	21.52	-41.9	-42.7	22.2	0.00e+00	0	43	0	1040187392	55	3926
2026-01-22 22:17:25.76	79.64	21.53	-41.9	-42.7	22.2	0.00e+00	0	43	0	1043333120	55	3930
2026-01-22 22:17:26.77	79.91	21.53	-42.1	-42.9	22.0	0.00e+00	0	43	0	1046478848	55	4027
2026-01-22 22:17:27.78	80.17	21.53	-42.1	-42.9	22.0	0.00e+00	0	44	0	1049624576	55	4031
2026-01-22 22:17:28.79	80.44	21.54	-42.2	-43.0	21.9	0.00e+00	0	43	0	1052770304	55	4084
2026-01-22 22:17:29.80	80.70	21.54	-42.2	-43.0	21.9	0.00e+00	0	43	0	1055916032	55	4083
2026-01-22 22:17:30.81	80.97	21.54	-42.2	-43.0	21.9	0.00e+00	0	44	0	1059061760	55	4096
2026-01-22 22:17:31.81	81.23	21.54	-42.2	-43.0	21.9	0.00e+00	0	43	0	1062207488	55	4069
2026-01-22 22:17:32.82	81.49	21.54	-42.3	-43.2	21.7	0.00e+00	0	43	0	1065353216	55	4153
2026-01-22 22:17:33.83	81.76	21.54	-42.2	-43.1	21.8	0.00e+00	0	43	0	1068498944	55	4106
2026-01-22 22:17:34.84	82.02	21.54	-42.2	-43.1	21.8	0.00e+00	0	43	0	1071644672	55	4110
2026-01-22 22:17:35.85	82.29	21.54	-42.1	-43.0	21.9	0.00e+00	0	43	0	1074790400	55	4058
2026-01-22 22:17:36.85	82.55	21.53	-42.1	-43.0	21.9	0.00e+00	0	43	0	1077936128	55	4057
2026-01-22 22:17:37.86	82.81	21.53	-42.2	-43.0	22.0	0.00e+00	0	43	0	1081081856	55	4061
2026-01-22 22:17:38.87	83.08	21.53	-42.0	-42.8	22.1	0.00e+00	0	43	0	1084227584	55	3970
2026-01-22 22:17:39.88	83.34	21.52	-42.0	-42.8	22.0	0.00e+00	0	43	0	1087373312	55	4001
2026-01-22 22:17:40.89	83.61	21.52	-42.0	-42.8	22.1	0.00e+00	0	43	0	1090519040	55	3974
2026-01-22 22:17:41.89	83.87	21.51	-42.2	-43.0	21.9	0.00e+00	0	43	0	1093664768	55	4065
2026-01-22 22:17:42.90	84.13	21.51	-42.2	-43.0	21.9	0.00e+00	0	43	0	1096810496	55	4083
2026-01-22 22:17:43.91	84.40	21.50	-42.0	-42.8	22.1	0.00e+00	0	43	0	1099956224	55	3977
2026-01-22 22:17:44.92	84.66	21.49	-42.0	-42.8	22.1	0.00e+00	0	43	0	1103101952	55	3983
2026-01-22 22:17:45.93	84.92	21.49	-41.9	-42.7	22.2	0.00e+00	0	43	0	1106247680	55	3941
2026-01-22 22:17:46.94	85.19	21.48	-41.8	-42.6	22.2	0.00e+00	0	43	0	1109393408	55	3891
2026-01-22 22:17:47.95	85.45	21.47	-41.9	-42.7	22.2	0.00e+00	0	43	0	1112539136	55	3931
2026-01-22 22:17:48.95	85.71	21.46	-42.0	-42.8	22.1	0.00e+00	0	44	0	1115684864	55	3965
2026-01-22 22:17:49.96	85.97	21.45	-42.0	-42.8	22.1	0.00e+00	0	43	0	1118830592	55	4001
2026-01-22 22:17:50.97	86.24	21.44	-42.0	-42.8	22.1	0.00e+00	0	43	0	1121976320	55	3989
2026-01-22 22:17:51.98	86.50	21.43	-42.1	-42.9	22.1	0.00e+00	0	43	0	1125122048	55	4023
2026-01-22 22:17:52.99	86.76	21.42	-42.2	-43.0	21.9	0.00e+00	0	43	0	1128267776	55	4083
2026-01-22 22:17:54.00	87.03	21.40	-42.2	-43.0	21.9	0.00e+00	0	44	0	1131413504	55	4093
2026-01-22 22:17:55.01	87.29	21.39	-42.2	-43.0	21.9	0.00e+00	0	43	0	1134559232	55	4064
2026-01-22 22:17:56.02	87.55	21.38	-42.2	-43.0	21.9	0.00e+00	0	43	0	1137704960	55	4074
2026-01-22 22:17:57.03	87.81	21.36	-42.1	-43.0	21.9	0.00e+00	0	43	0	1140850688	55	4053
2026-01-22 22:17:58.04	88.07	21.35	-42.0	-42.8	22.1	0.00e+00	0	43	0	1143996416	55	3989
2026-01-22 22:17:59.04	88.33	21.33	-41.9	-42.7	22.2	0.00e+00	0	43	0	1147142144	55	3940
2026-01-22 22:18:00.05	88.59	21.32	-42.0	-42.8	22.1	0.00e+00	0	43	0	1150287872	55	3977
2026-01-22 22:18:01.06	88.85	21.30	-42.1	-42.9	22.0	0.00e+00	0	44	0	1153433600	55	4019
2026-01-22 22:18:02.07	89.12	21.28	-42.0	-42.8	22.0	0.00e+00	0	43	0	1156579328	55	3977
2026-01-22 22:18:03.08	89.38	21.26	-42.0	-42.8	22.0	0.00e+00	0	44	0	1159725056	55	3987
2026-01-22 22:18:04.09	89.64	21.25	-42.1	-42.9	22.0	0.00e+00	0	43	0	1162870784	55	4022
2026-01-22 22:18:05.09	89.89	21.23	-42.1	-42.9	21.9	0.00e+00	0	43	0	1166016512	55	4046
2026-01-22 22:18:06.10	90.15	21.21	-42.0	-42.8	22.1	0.00e+00	0	44	0	1169162240	55	3990
2026-01-22 22:18:07.11	90.41	21.19	-42.0	-42.9	22.0	0.00e+00	0	44	0	1172307968	55	4006
2026-01-22 22:18:08.12	90.67	21.17	-42.1	-42.9	22.0	0.00e+00	0	43	0	1175453696	55	4018
2026-01-22 22:18:09.13	90.93	21.14	-42.1	-42.9	22.0	0.00e+00	0	43	0	1178599424	55	4032
2026-01-22 22:18:10.14	91.19	21.12	-42.1	-42.9	21.9	0.00e+00	0	43	0	1181745152	55	4034
2026-01-22 22:18:11.15	91.44	21.10	-42.1	-42.9	22.0	0.00e+00	0	43	0	1184890880	55	4026
2026-01-22 22:18:12.15	91.70	21.08	-41.9	-42.7	22.1	0.00e+00	0	43	0	1188036608	55	3957
2026-01-22 22:18:13.16	91.96	21.05	-41.9	-42.7	22.2	0.00e+00	0	43	0	1191182336	55	3943
2026-01-22 22:18:14.17	92.21	21.03	-42.0	-42.9	22.1	0.00e+00	0	43	0	1194328064	55	4005
2026-01-22 22:18:15.18	92.47	21.01	-41.9	-42.7	22.2	0.00e+00	0	44	0	1197473792	55	3952
2026-01-22 22:18:16.19	92.73	20.98	-42.0	-42.8	22.1	0.00e+00	0	43	0	1200619520	55	3977
2026-01-22 22:18:17.20	92.98	20.95	-42.1	-43.0	21.9	0.00e+00	0	43	0	1203765248	55	4057
2026-01-22 22:18:18.21	93.24	20.93	-42.1	-42.9	22.1	0.00e+00	0	44	0	1206910976	55	4018
2026-01-22 22:18:19.21	93.49	20.90	-42.0	-42.8	22.1	0.00e+00	0	44	0	1210056704	55	3988
2026-01-22 22:18:20.22	93.74	20.87	-42.1	-42.9	22.0	0.00e+00	0	43	0	1213202432	55	4024
2026-01-22 22:18:21.23	94.00	20.85	-42.0	-42.8	22.1	0.00e+00	0	44	0	1216348160	55	3967
2026-01-22 22:18:22.24	94.25	20.82	-42.1	-42.9	22.0	0.00e+00	0	44	0	1219493888	55	4017
2026-01-22 22:18:23.24	94.50	20.79	-42.1	-43.0	21.9	0.00e+00	0	43	0	1222639616	55	4065
2026-01-22 22:18:24.25	94.75	20.76	-42.1	-43.0	21.9	0.00e+00	0	44	0	1225785344	55	4064
2026-01-22 22:18:25.26	95.00	20.73	-42.3	-43.1	21.8	0.00e+00	0	44	0	1228931072	55	4127
2026-01-22 22:18:26.27	95.26	20.70	-42.2	-43.0	21.9	0.00e+00	0	43	0	1232076800	55	4098
2026-01-22 22:18:27.27	95.50	20.67	-42.0	-42.9	22.0	0.00e+00	0	44	0	1235222528	55	4014
2026-01-22 22:18:28.28	95.75	20.64	-42.1	-42.9	22.0	0.00e+00	0	43	0	1238368256	55	4025
2026-01-22 22:18:29.29	96.00	20.61	-42.1	-42.9	22.0	0.00e+00	0	43	0	1241513984	55	4023
2026-01-22 22:18:30.30	96.25	20.57	-42.0	-42.8	22.0	0.00e+00	0	44	0	1244659712	55	3981
2026-01-22 22:18:31.31	96.50	20.54	-42.0	-42.8	22.0	0.00e+00	0	44	0	1247805440	55	3993
2026-01-22 22:18:32.31	96.75	20.51	-42.0	-42.8	22.0	0.00e+00	0	43	0	1250951168	55	4003
2026-01-22 22:18:33.32	97.00	20.47	-42.0	-42.9	22.0	0.00e+00	0	44	0	1254096896	55	4005
2026-01-22 22:18:34.33	97.24	20.44	-42.1	-42.9	22.0	0.00e+00	0	44	0	1257242624	55	4016
2026-01-22 22:18:35.34	97.49	20.40	-42.1	-42.9	21.9	0.00e+00	0	44	0	1260388352	55	4029
2026-01-22 22:18:36.34	97.73	20.37	-42.1	-42.9	22.0	0.00e+00	0	44	0	1263534080	55	4030
2026-01-22 22:18:37.35	97.98	20.33	-42.1	-42.9	21.9	0.00e+00	0	44	0	1266679808	55	4048
2026-01-22 22:18:38.36	98.23	20.30	-42.2	-43.1	21.9	0.00e+00	0	43	0	1269825536	55	4102
2026-01-22 22:18:39.37	98.47	20.26	-42.2	-43.0	21.9	0.00e+00	0	44	0	1272971264	55	4073
2026-01-22 22:18:40.38	98.71	20.22	-42.0	-42.8	22.1	0.00e+00	0	44	0	1276116992	55	3989
2026-01-22 22:18:41.39	98.96	20.19	-42.0	-42.8	22.1	0.00e+00	0	44	0	1279262720	55	3966
2026-01-22 22:18:42.40	99.20	20.15	-42.0	-42.8	22.0	0.00e+00	0	44	0	1282408448	55	3980
2026-01-22 22:18:43.41	99.44	20.11	-42.1	-42.9	22.0	0.00e+00	0	43	0	1285554176	55	4014
2026-01-22 22:18:44.41	99.68	20.07	-42.0	-42.8	22.0	0.00e+00	0	43	0	1288699904	55	4001
2026-01-22 22:18:45.42	99.92	20.03	-41.9	-42.7	22.1	0.00e+00	0	43	0	1291845632	55	3958
2026-01-22 22:18:46.43	100.16	19.99	-42.0	-42.9	22.0	0.00e+00	0	43	0	1294991360	55	4011
2026-01-22 22:18:47.44	100.40	19.95	-42.1	-43.0	21.9	0.00e+00	0	44	0	1298137088	55	4061
2026-01-22 22:18:48.45	100.64	19.91	-42.2	-43.0	21.8	0.00e+00	0	44	0	1301282816	55	4083
2026-01-22 22:18:49.45	100.88	19.87	-42.3	-43.1	21.8	0.00e+00	0	44	0	1304428544	55	4135
2026-01-22 22:18:50.46	101.12	19.83	-42.2	-43.0	21.9	0.00e+00	0	44	0	1307574272	55	4069
2026-01-22 22:18:51.47	101.36	19.79	-42.1	-42.9	21.9	0.00e+00	0	44	0	1310720000	55	4034
2026-01-22 22:18:52.47	101.59	19.74	-42.1	-42.9	21.9	0.00e+00	0	43	0	1313865728	55	4026
2026-01-22 22:18:53.48	101.83	19.70	-42.1	-43.0	21.8	0.00e+00	0	44	0	1317011456	55	4062
2026-01-22 22:18:54.49	102.06	19.66	-42.1	-42.9	21.9	0.00e+00	0	43	0	1320157184	55	4047
2026-01-22 22:18:55.49	102.29	19.62	-42.1	-42.9	21.9	0.00e+00	0	43	0	1323302912	55	4048
2026-01-22 22:18:56.50	102.53	19.57	-42.2	-43.1	21.8	0.00e+00	0	43	0	1326448640	55	4099
2026-01-22 22:18:57.51	102.76	19.53	-42.1	-42.9	21.9	0.00e+00	0	44	0	1329594368	55	4029
2026-01-22 22:18:58.52	102.99	19.48	-42.1	-42.9	21.9	0.00e+00	0	44	0	1332740096	55	4024
2026-01-22 22:18:59.53	103.23	19.44	-42.2	-43.0	21.8	0.00e+00	0	44	0	1335885824	55	4072
2026-01-22 22:19:00.54	103.46	19.39	-42.2	-43.0	21.8	0.00e+00	0	44	0	1339031552	55	4074
2026-01-22 22:19:01.55	103.69	19.35	-42.2	-43.0	21.8	0.00e+00	0	44	0	1342177280	55	4072
2026-01-22 22:19:02.56	103.92	19.30	-42.2	-43.0	21.7	0.00e+00	0	44	0	1346371584	55	4098
2026-01-22 22:19:03.56	104.15	19.25	-42.3	-43.2	21.6	0.00e+00	0	44	0	1348468736	55	4154
2026-01-22 22:19:04.57	104.38	19.21	-42.3	-43.1	21.7	0.00e+00	0	44	0	1351614464	55	4122
2026-01-22 22:19:05.58	104.60	19.16	-42.3	-43.2	21.6	0.00e+00	0	44	0	1354760192	55	4164
2026-01-22 22:19:06.59	104.83	19.11	-42.2	-43.1	21.7	0.00e+00	0	44	0	1357905920	55	4106
2026-01-22 22:19:07.59	105.06	19.06	-42.2	-43.1	21.7	0.00e+00	0	44	0	1361051648	55	4117
2026-01-22 22:19:08.60	105.28	19.02	-42.4	-43.3	21.6	0.00e+00	0	44	0	1364197376	55	4198
2026-01-22 22:19:09.61	105.51	18.97	-42.4	-43.3	21.6	0.00e+00	0	44	0	1367343104	55	4201
2026-01-22 22:19:10.62	105.73	18.92	-42.5	-43.3	21.5	0.00e+00	0	44	0	1370488832	55	4240
2026-01-22 22:19:11.63	105.96	18.87	-42.5	-43.4	21.5	0.00e+00	0	44	0	1373634560	55	4257
2026-01-22 22:19:12.63	106.18	18.82	-42.6	-43.5	21.4	0.00e+00	0	44	0	1376780288	55	4327
2026-01-22 22:19:13.64	106.40	18.77	-42.6	-43.5	21.4	0.00e+00	0	44	0	1379926016	55	4319
2026-01-22 22:19:14.65	106.62	18.72	-42.6	-43.5	21.4	0.00e+00	0	44	0	1383071744	55	4311
2026-01-22 22:19:15.66	106.84	18.67	-42.6	-43.4	21.4	0.00e+00	0	44	0	1387266048	55	4282
2026-01-22 22:19:16.67	107.06	18.62	-42.3	-43.2	21.6	0.00e+00	0	44	0	1390411776	55	4158
2026-01-22 22:19:17.67	107.28	18.57	-42.2	-43.0	21.7	0.00e+00	0	44	0	1393557504	55	4073
2026-01-22 22:19:18.68	107.50	18.51	-42.2	-43.0	21.8	0.00e+00	0	44	0	1396703232	55	4077
2026-01-22 22:19:19.69	107.72	18.46	-42.3	-43.1	21.7	0.00e+00	0	44	0	1398800384	55	4112
2026-01-22 22:19:20.70	107.94	18.41	-42.2	-43.1	21.8	0.00e+00	0	44	0	1401946112	55	4099
2026-01-22 22:19:21.71	108.15	18.36	-42.2	-43.0	21.9	0.00e+00	0	44	0	1405091840	55	4081
2026-01-22 22:19:22.71	108.37	18.31	-42.2	-43.0	21.9	0.00e+00	0	44	0	1408237568	55	4056
2026-01-22 22:19:23.72	108.58	18.25	-42.3	-43.2	21.8	0.00e+00	0	44	0	1411383296	55	4148
2026-01-22 22:19:24.73	108.80	18.20	-42.4	-43.2	21.7	0.00e+00	0	44	0	1414529024	55	4191
2026-01-22 22:19:25.74	109.01	18.15	-42.6	-43.4	21.5	0.00e+00	0	44	0	1417674752	55	4272
2026-01-22 22:19:26.75	109.23	18.09	-42.6	-43.5	21.4	0.00e+00	0	44	0	1420820480	55	4319
2026-01-22 22:19:27.75	109.44	18.04	-42.8	-43.7	21.4	0.00e+00	0	44	0	1423966208	56	4153
2026-01-22 22:19:28.76	109.65	17.98	-42.9	-43.7	21.3	0.00e+00	0	44	0	1428160512	56	4193
2026-01-22 22:19:29.77	109.86	17.93	-42.8	-43.7	21.4	0.00e+00	0	44	0	1431306240	56	4169
2026-01-22 22:19:30.78	110.07	17.88	-42.7	-43.6	21.4	0.00e+00	0	44	0	1434451968	56	4130
2026-01-22 22:19:31.79	110.28	17.82	-42.7	-43.6	21.4	0.00e+00	0	44	0	1437597696	56	4109
2026-01-22 22:19:32.80	110.49	17.76	-42.7	-43.6	21.4	0.00e+00	0	44	0	1440743424	56	4123
2026-01-22 22:19:33.81	110.70	17.71	-42.7	-43.5	21.5	0.00e+00	0	44	0	1443889152	56	4096
2026-01-22 22:19:34.81	110.90	17.65	-42.6	-43.4	21.6	0.00e+00	0	44	0	1445986304	56	4031
2026-01-22 22:19:35.82	111.11	17.60	-42.6	-43.4	21.6	0.00e+00	0	44	0	1449132032	56	4050
2026-01-22 22:19:36.83	111.31	17.54	-42.6	-43.4	21.6	0.00e+00	0	44	0	1452277760	56	4024
2026-01-22 22:19:37.84	111.52	17.49	-42.6	-43.4	21.6	0.00e+00	0	44	0	1455423488	56	4050
2026-01-22 22:19:38.85	111.72	17.43	-42.8	-43.6	21.4	0.00e+00	0	44	0	1458569216	56	4125
2026-01-22 22:19:39.86	111.93	17.37	-42.9	-43.8	21.2	0.00e+00	0	44	0	1462763520	56	4228
2026-01-22 22:19:40.87	112.13	17.31	-43.0	-43.9	21.2	0.00e+00	0	44	0	1465909248	56	4247
2026-01-22 22:19:41.87	112.33	17.26	-43.2	-44.1	21.0	0.00e+00	0	44	0	1469054976	56	4352
2026-01-22 22:19:42.88	112.53	17.20	-43.2	-44.1	21.0	0.00e+00	0	44	0	1472200704	56	4348
2026-01-22 22:19:43.89	112.73	17.14	-43.1	-44.1	21.0	0.00e+00	0	44	0	1475346432	56	4348
2026-01-22 22:19:44.89	112.93	17.09	-43.2	-44.2	21.0	0.00e+00	0	44	0	1478492160	57	4147
2026-01-22 22:19:45.90	113.13	17.03	-43.1	-44.0	21.1	0.00e+00	0	44	0	1481637888	57	4067
2026-01-22 22:19:46.91	113.33	16.97	-43.1	-44.0	21.1	0.00e+00	0	44	0	1484783616	57	4080
2026-01-22 22:19:47.92	113.53	16.91	-43.0	-43.9	21.2	0.00e+00	0	44	0	1487929344	57	4021
2026-01-22 22:19:48.93	113.72	16.85	-42.9	-43.8	21.3	0.00e+00	0	44	0	1491075072	57	3966
2026-01-22 22:19:49.93	113.92	16.79	-42.8	-43.7	21.3	0.00e+00	0	44	0	1493172224	57	3934
2026-01-22 22:19:50.94	114.11	16.73	-43.1	-43.9	21.1	0.00e+00	0	44	0	1496317952	57	4050
2026-01-22 22:19:51.95	114.31	16.67	-42.9	-43.8	21.3	0.00e+00	0	44	0	1499463680	57	3963
2026-01-22 22:19:52.96	114.50	16.62	-43.0	-43.9	21.1	0.00e+00	0	44	0	1503657984	57	4044
2026-01-22 22:19:53.97	114.69	16.56	-42.9	-43.8	21.3	0.00e+00	0	44	0	1506803712	57	3967
2026-01-22 22:19:54.97	114.89	16.50	-42.9	-43.8	21.2	0.00e+00	0	44	0	1509949440	57	3988
2026-01-22 22:19:55.98	115.08	16.44	-43.1	-44.0	21.1	0.00e+00	0	44	0	1513095168	57	4063
2026-01-22 22:19:56.99	115.27	16.38	-43.1	-44.0	21.1	0.00e+00	0	44	0	1516240896	57	4058
2026-01-22 22:19:57.99	115.46	16.32	-43.2	-44.1	21.0	0.00e+00	0	44	0	1519386624	57	4106
2026-01-22 22:19:59.00	115.65	16.26	-43.1	-44.0	21.1	0.00e+00	0	43	0	1522532352	57	4054
2026-01-22 22:20:00.01	115.84	16.20	-43.1	-44.0	21.0	0.00e+00	0	44	0	1525678080	57	4085
2026-01-22 22:20:01.02	116.02	16.14	-43.1	-44.0	21.0	0.00e+00	0	44	0	1528823808	57	4074
2026-01-22 22:20:02.03	116.21	16.08	-43.1	-44.0	21.1	0.00e+00	0	44	0	1531969536	57	4068
2026-01-22 22:20:03.04	116.40	16.01	-43.1	-44.1	21.0	0.00e+00	0	44	0	1535115264	57	4100
2026-01-22 22:20:04.05	116.58	15.95	-43.0	-43.9	21.1	0.00e+00	0	44	0	1538260992	57	4028
2026-01-22 22:20:05.05	116.77	15.89	-43.0	-43.9	21.1	0.00e+00	0	44	0	1540358144	57	4012
2026-01-22 22:20:06.06	116.95	15.83	-43.1	-44.0	21.0	0.00e+00	0	44	0	1544552448	57	4062
2026-01-22 22:20:07.07	117.14	15.77	-43.2	-44.1	20.9	0.00e+00	0	44	0	1547698176	57	4128
2026-01-22 22:20:08.08	117.32	15.71	-43.2	-44.1	20.9	0.00e+00	0	44	0	1550843904	57	4112
2026-01-22 22:20:09.09	117.50	15.65	-43.2	-44.1	20.9	0.00e+00	0	44	0	1553989632	57	4130
2026-01-22 22:20:10.09	117.68	15.59	-43.3	-44.2	20.8	0.00e+00	0	44	0	1557135360	57	4162
2026-01-22 22:20:11.10	117.86	15.52	-43.2	-44.2	20.8	0.00e+00	0	44	0	1560281088	57	4151
2026-01-22 22:20:12.11	118.04	15.46	-43.2	-44.1	20.9	0.00e+00	0	44	0	1563426816	57	4119
2026-01-22 22:20:13.12	118.22	15.40	-43.1	-44.0	21.0	0.00e+00	0	44	0	1566572544	57	4075
2026-01-22 22:20:14.13	118.40	15.34	-43.1	-44.0	21.0	0.00e+00	0	44	0	1569718272	57	4081
2026-01-22 22:20:15.13	118.58	15.28	-43.1	-44.0	21.0	0.00e+00	0	44	0	1572864000	57	4058
2026-01-22 22:20:16.14	118.75	15.21	-43.0	-43.9	21.1	0.00e+00	0	43	0	1576009728	57	4005
2026-01-22 22:20:17.15	118.93	15.15	-43.1	-44.0	21.0	0.00e+00	0	44	0	1579155456	57	4072
2026-01-22 22:20:18.16	119.11	15.09	-43.1	-44.0	21.0	0.00e+00	0	44	0	1582301184	57	4074
2026-01-22 22:20:19.17	119.28	15.03	-43.2	-44.1	20.9	0.00e+00	0	44	0	1585446912	57	4114
2026-01-22 22:20:20.17	119.45	14.96	-43.0	-44.0	21.0	0.00e+00	0	44	0	1588592640	57	4052
2026-01-22 22:20:21.18	119.63	14.90	-43.1	-44.0	21.0	0.00e+00	0	44	0	1591738368	57	4090
2026-01-22 22:20:22.19	119.80	14.84	-43.0	-43.9	21.0	0.00e+00	0	43	0	1594884096	57	4041
2026-01-22 22:20:23.20	119.97	14.78	-43.1	-44.0	21.0	0.00e+00	0	44	0	1598029824	57	4094
2026-01-22 22:20:24.20	120.14	14.71	-43.1	-44.0	21.0	0.00e+00	0	44	0	1601175552	57	4071
2026-01-22 22:20:25.21	120.31	14.65	-43.1	-44.0	21.0	0.00e+00	0	44	0	1604321280	57	4058
2026-01-22 22:20:26.22	120.48	14.59	-43.0	-43.9	21.1	0.00e+00	0	44	0	1607467008	57	4019
2026-01-22 22:20:27.23	120.65	14.52	-42.7	-43.6	21.3	0.00e+00	0	44	0	1610612736	57	3898
2026-01-22 22:20:28.24	120.82	14.46	-42.8	-43.7	21.2	0.00e+00	0	44	0	1613758464	57	3925
2026-01-22 22:20:29.25	120.99	14.40	-42.7	-43.6	21.3	0.00e+00	0	44	0	1616904192	57	3888
2026-01-22 22:20:30.25	121.16	14.33	-42.7	-43.6	21.3	0.00e+00	0	44	0	1620049920	57	3895
2026-01-22 22:20:31.26	121.32	14.27	-42.8	-43.6	21.2	0.00e+00	0	44	0	1623195648	57	3909
2026-01-22 22:20:32.27	121.49	14.21	-42.7	-43.6	21.3	0.00e+00	0	44	0	1626341376	57	3879
2026-01-22 22:20:33.27	121.65	14.14	-42.7	-43.6	21.3	0.00e+00	0	44	0	1629487104	57	3875
2026-01-22 22:20:34.28	121.82	14.08	-42.8	-43.6	21.2	0.00e+00	0	44	0	1632632832	57	3903
2026-01-22 22:20:35.29	121.98	14.02	-42.9	-43.8	21.1	0.00e+00	0	43	0	1635778560	57	3981
2026-01-22 22:20:36.30	122.14	13.95	-43.0	-43.9	20.9	0.00e+00	0	44	0	1638924288	57	4021
2026-01-22 22:20:37.31	122.31	13.89	-43.0	-43.9	20.9	0.00e+00	0	44	0	1642070016	57	4047
2026-01-22 22:20:38.31	122.47	13.83	-43.0	-43.9	20.9	0.00e+00	0	44	0	1645215744	57	4016
2026-01-22 22:20:39.32	122.63	13.76	-43.1	-44.0	20.9	0.00e+00	0	44	0	1648361472	57	4068
2026-01-22 22:20:40.33	122.79	13.70	-43.1	-44.1	20.8	0.00e+00	0	44	0	1651507200	57	4104
2026-01-22 22:20:41.34	122.95	13.63	-43.3	-44.2	20.6	0.00e+00	0	44	0	1654652928	57	4182
2026-01-22 22:20:42.35	123.11	13.57	-43.4	-44.3	20.6	0.00e+00	0	44	0	1657798656	57	4228
2026-01-22 22:20:43.36	123.27	13.51	-43.4	-44.3	20.5	0.00e+00	0	44	0	1660944384	57	4236
2026-01-22 22:20:44.37	123.43	13.44	-43.4	-44.3	20.6	0.00e+00	0	44	0	1664090112	57	4227
2026-01-22 22:20:45.37	123.58	13.38	-43.5	-44.4	20.4	0.00e+00	0	44	0	1667235840	57	4272
2026-01-22 22:20:46.38	123.74	13.32	-43.5	-44.4	20.5	0.00e+00	0	44	0	1670381568	57	4282
2026-01-22 22:20:47.39	123.89	13.25	-43.5	-44.5	20.4	0.00e+00	0	44	0	1673527296	57	4321
2026-01-22 22:20:48.40	124.05	13.19	-43.6	-44.6	20.3	0.00e+00	0	44	0	1676673024	57	4350
2026-01-22 22:20:49.41	124.20	13.12	-43.4	-44.4	20.4	0.00e+00	0	44	0	1679818752	57	4273
2026-01-22 22:20:50.41	124.36	13.06	-43.5	-44.4	20.4	0.00e+00	0	44	0	1682964480	57	4286
2026-01-22 22:20:51.42	124.51	13.00	-43.6	-44.5	20.3	0.00e+00	0	44	0	1686110208	57	4331
2026-01-22 22:20:52.43	124.66	12.93	-43.6	-44.6	20.2	0.00e+00	0	44	0	1689255936	57	4376
2026-01-22 22:20:53.44	124.81	12.87	-43.7	-44.7	20.1	0.00e+00	0	44	0	1692401664	58	4190
2026-01-22 22:20:54.45	124.97	12.80	-43.7	-44.7	20.1	0.00e+00	0	44	0	1695547392	58	4190
2026-01-22 22:20:55.46	125.12	12.74	-43.8	-44.8	20.1	0.00e+00	0	44	0	1698693120	58	4201
2026-01-22 22:20:56.47	125.27	12.67	-43.7	-44.7	20.2	0.00e+00	0	44	0	1701838848	58	4161
2026-01-22 22:20:57.47	125.42	12.61	-43.6	-44.6	20.2	0.00e+00	0	44	0	1704984576	58	4120
2026-01-22 22:20:58.48	125.56	12.55	-43.6	-44.6	20.2	0.00e+00	0	44	0	1708130304	58	4134
2026-01-22 22:20:59.49	125.71	12.48	-43.6	-44.6	20.2	0.00e+00	0	44	0	1711276032	58	4141
2026-01-22 22:21:00.50	125.86	12.42	-43.6	-44.6	20.3	0.00e+00	0	44	0	1714421760	58	4121
2026-01-22 22:21:01.50	126.01	12.35	-43.6	-44.5	20.3	0.00e+00	0	43	0	1717567488	58	4098
2026-01-22 22:21:02.51	126.15	12.29	-43.5	-44.5	20.3	0.00e+00	0	44	0	1720713216	58	4083
2026-01-22 22:21:03.52	126.30	12.23	-43.3	-44.3	20.5	0.00e+00	0	44	0	1723858944	58	3974
2026-01-22 22:21:04.53	126.44	12.16	-43.3	-44.3	20.5	0.00e+00	0	44	0	1727004672	58	3968
2026-01-22 22:21:05.53	126.59	12.10	-43.5	-44.4	20.4	0.00e+00	0	44	0	1730150400	58	4044
2026-01-22 22:21:06.54	126.73	12.03	-43.5	-44.5	20.3	0.00e+00	0	44	0	1733296128	58	4058
2026-01-22 22:21:07.55	126.87	11.97	-43.5	-44.5	20.3	0.00e+00	0	44	0	1736441856	58	4086
2026-01-22 22:21:08.56	127.02	11.91	-43.5	-44.5	20.3	0.00e+00	0	44	0	1739587584	58	4072
2026-01-22 22:21:09.57	127.16	11.84	-43.6	-44.6	20.2	0.00e+00	0	44	0	1742733312	58	4105
2026-01-22 22:21:10.58	127.30	11.78	-43.7	-44.7	20.1	0.00e+00	0	44	0	1745879040	58	4191
2026-01-22 22:21:11.59	127.44	11.71	-44.0	-45.0	19.8	0.00e+00	0	44	0	1749024768	58	4321
2026-01-22 22:21:12.59	127.58	11.65	-44.0	-45.0	19.8	0.00e+00	0	43	0	1752170496	58	4337
2026-01-22 22:21:13.60	127.72	11.58	-43.8	-44.8	20.0	0.00e+00	0	44	0	1755316224	58	4237
2026-01-22 22:21:14.61	127.86	11.52	-44.0	-45.0	19.8	0.00e+00	0	44	0	1758461952	58	4319
2026-01-22 22:21:15.62	128.00	11.46	-44.1	-45.1	19.7	0.00e+00	0	44	0	1761607680	58	4379
2026-01-22 22:21:16.63	128.14	11.39	-43.9	-45.0	19.8	0.00e+00	0	44	0	1764753408	58	4300
2026-01-22 22:21:17.64	128.28	11.33	-44.0	-45.0	19.8	0.00e+00	0	43	0	1767899136	58	4331
2026-01-22 22:21:18.65	128.41	11.26	-43.9	-45.0	19.8	0.00e+00	0	44	0	1771044864	58	4308
2026-01-22 22:21:19.66	128.55	11.20	-43.9	-44.9	19.9	0.00e+00	0	44	0	1774190592	58	4253
2026-01-22 22:21:20.67	128.69	11.14	-43.7	-44.7	20.0	0.00e+00	0	44	0	1777336320	58	4191
2026-01-22 22:21:21.67	128.82	11.07	-43.8	-44.8	20.0	0.00e+00	0	44	0	1780482048	58	4195
2026-01-22 22:21:22.68	128.95	11.01	-43.8	-44.8	19.9	0.00e+00	0	44	0	1783627776	58	4227
2026-01-22 22:21:23.69	129.09	10.95	-43.8	-44.9	19.8	0.00e+00	0	44	0	1786773504	58	4251
2026-01-22 22:21:24.70	129.22	10.88	-43.9	-44.9	19.8	0.00e+00	0	44	0	1789919232	58	4269
2026-01-22 22:21:25.71	129.35	10.82	-43.9	-45.0	19.7	0.00e+00	0	44	0	1793064960	58	4307
2026-01-22 22:21:26.72	129.49	10.75	-43.9	-44.9	19.8	0.00e+00	0	44	0	1796210688	58	4285
2026-01-22 22:21:27.73	129.62	10.69	-43.9	-44.9	19.8	0.00e+00	0	44	0	1799356416	58	4291
2026-01-22 22:21:28.73	129.75	10.63	-43.9	-45.0	19.7	0.00e+00	0	43	0	1802502144	58	4298
2026-01-22 22:21:29.74	129.88	10.56	-44.0	-45.1	19.7	0.00e+00	0	44	0	1805647872	58	4363
2026-01-22 22:21:30.75	130.01	10.50	-44.1	-45.2	19.5	0.00e+00	0	43	0	1808793600	58	4431
2026-01-22 22:21:31.76	130.14	10.44	-44.2	-45.3	19.5	0.00e+00	0	44	0	1811939328	58	4450
2026-01-22 22:21:32.77	130.27	10.37	-44.0	-45.1	19.6	0.00e+00	0	44	0	1815085056	58	4367
2026-01-22 22:21:33.77	130.40	10.31	-44.0	-45.1	19.6	0.00e+00	0	44	0	1818230784	58	4367
2026-01-22 22:21:34.78	130.52	10.25	-44.2	-45.3	19.5	0.00e+00	0	44	0	1821376512	58	4443
2026-01-22 22:21:35.79	130.65	10.18	-44.2	-45.3	19.5	0.00e+00	0	44	0	1824522240	59	4204
2026-01-22 22:21:36.80	130.78	10.12	-44.0	-45.1	19.7	0.00e+00	0	44	0	1827667968	59	4110
2026-01-22 22:21:37.81	130.91	10.05	-44.0	-45.0	19.7	0.00e+00	0	43	0	1830813696	59	4092
2026-01-22 22:21:38.82	131.03	9.99	-44.1	-45.1	19.6	0.00e+00	0	44	0	1833959424	59	4131
2026-01-22 22:21:39.83	131.16	9.93	-44.1	-45.2	19.5	0.00e+00	0	44	0	1837105152	59	4167
2026-01-22 22:21:40.83	131.28	9.87	-44.0	-45.1	19.6	0.00e+00	0	44	0	1840250880	59	4117
2026-01-22 22:21:41.84	131.41	9.80	-44.3	-45.3	19.3	0.00e+00	0	44	0	1843396608	59	4239
2026-01-22 22:21:42.85	131.53	9.74	-44.0	-45.1	19.6	0.00e+00	0	44	0	1846542336	59	4107
2026-01-22 22:21:43.86	131.65	9.68	-44.1	-45.2	19.5	0.00e+00	0	44	0	1849688064	59	4164
2026-01-22 22:21:44.87	131.78	9.61	-44.1	-45.2	19.5	0.00e+00	0	44	0	1852833792	59	4160
2026-01-22 22:21:45.87	131.90	9.55	-44.0	-45.1	19.5	0.00e+00	0	44	0	1855979520	59	4118
2026-01-22 22:21:46.88	132.02	9.49	-44.0	-45.1	19.5	0.00e+00	0	44	0	1859125248	59	4117
2026-01-22 22:21:47.89	132.14	9.42	-44.1	-45.1	19.5	0.00e+00	0	44	0	1862270976	59	4132
2026-01-22 22:21:48.90	132.26	9.36	-44.2	-45.3	19.3	0.00e+00	0	44	0	1865416704	59	4226
2026-01-22 22:21:49.91	132.38	9.30	-44.3	-45.4	19.2	0.00e+00	0	44	0	1868562432	59	4276
2026-01-22 22:21:50.91	132.50	9.24	-44.2	-45.2	19.4	0.00e+00	0	44	0	1871708160	59	4189
2026-01-22 22:21:51.92	132.62	9.17	-44.1	-45.2	19.4	0.00e+00	0	44	0	1874853888	59	4175
2026-01-22 22:21:52.93	132.74	9.11	-44.2	-45.3	19.4	0.00e+00	0	44	0	1877999616	59	4209
2026-01-22 22:21:53.94	132.86	9.05	-44.1	-45.2	19.5	0.00e+00	0	44	0	1881145344	59	4171
2026-01-22 22:21:54.95	132.98	8.99	-44.1	-45.2	19.5	0.00e+00	0	44	0	1884291072	59	4159
2026-01-22 22:21:55.95	133.09	8.92	-44.1	-45.2	19.5	0.00e+00	0	44	0	1887436800	59	4162
2026-01-22 22:21:56.96	133.21	8.86	-44.1	-45.1	19.5	0.00e+00	0	44	0	1890582528	59	4139
2026-01-22 22:21:57.97	133.33	8.80	-44.1	-45.2	19.4	0.00e+00	0	44	0	1893728256	59	4184
2026-01-22 22:21:58.98	133.44	8.74	-44.0	-45.0	19.6	0.00e+00	0	44	0	1896873984	59	4079
2026-01-22 22:21:59.99	133.56	8.67	-44.1	-45.2	19.4	0.00e+00	0	44	0	1900019712	59	4159
2026-01-22 22:22:00.99	133.67	8.61	-44.4	-45.5	19.1	0.00e+00	0	44	0	1903165440	59	4312
2026-01-22 22:22:02.00	133.79	8.55	-44.3	-45.4	19.2	0.00e+00	0	44	0	1906311168	59	4276
2026-01-22 22:22:03.01	133.90	8.49	-44.4	-45.5	19.1	0.00e+00	0	44	0	1909456896	59	4320
2026-01-22 22:22:04.01	134.01	8.43	-44.6	-45.8	18.9	0.00e+00	0	44	0	1912602624	59	4462
2026-01-22 22:22:05.02	134.13	8.36	-44.2	-45.3	19.3	0.00e+00	0	44	0	1915748352	59	4229
2026-01-22 22:22:06.03	134.24	8.30	-44.2	-45.3	19.3	0.00e+00	0	44	0	1918894080	59	4242
2026-01-22 22:22:07.04	134.35	8.24	-44.5	-45.6	19.0	0.00e+00	0	44	0	1922039808	59	4385
2026-01-22 22:22:08.05	134.46	8.18	-44.3	-45.4	19.3	0.00e+00	0	44	0	1925185536	59	4248
2026-01-22 22:22:09.05	134.57	8.12	-44.3	-45.4	19.2	0.00e+00	0	44	0	1928331264	59	4266
2026-01-22 22:22:10.06	134.68	8.06	-44.2	-45.3	19.3	0.00e+00	0	44	0	1931476992	59	4222
2026-01-22 22:22:11.07	134.79	7.99	-44.6	-45.7	18.9	0.00e+00	0	44	0	1934622720	59	4427
2026-01-22 22:22:12.08	134.90	7.93	-44.4	-45.6	19.1	0.00e+00	0	44	0	1937768448	59	4341
2026-01-22 22:22:13.09	135.01	7.87	-44.2	-45.3	19.3	0.00e+00	0	44	0	1940914176	59	4212
2026-01-22 22:22:14.09	135.12	7.81	-44.2	-45.3	19.2	0.00e+00	0	44	0	1944059904	59	4240
2026-01-22 22:22:15.10	135.23	7.75	-44.0	-45.0	19.5	0.00e+00	0	44	0	1947205632	59	4097
2026-01-22 22:22:16.11	135.34	7.69	-44.2	-45.3	19.3	0.00e+00	0	44	0	1950351360	59	4215
2026-01-22 22:22:17.12	135.45	7.63	-44.3	-45.4	19.2	0.00e+00	0	44	0	1953497088	59	4262
2026-01-22 22:22:18.13	135.55	7.56	-44.1	-45.1	19.4	0.00e+00	0	44	0	1956642816	59	4142
2026-01-22 22:22:19.13	135.66	7.50	-44.4	-45.6	19.0	0.00e+00	0	44	0	1959788544	59	4348
2026-01-22 22:22:20.14	135.77	7.44	-44.4	-45.5	19.0	0.00e+00	0	44	0	1962934272	59	4328
2026-01-22 22:22:21.15	135.87	7.38	-44.5	-45.7	18.6	0.00e+00	0	44	0	1966080000	60	4149
2026-01-22 22:22:22.15	135.98	7.32	-44.3	-45.4	18.8	0.00e+00	0	44	0	1969225728	60	4022
2026-01-22 22:22:23.16	136.08	7.26	-44.2	-45.3	18.9	0.00e+00	0	44	0	1972371456	60	3995
2026-01-22 22:22:24.17	136.19	7.20	-44.3	-45.4	19.1	0.00e+00	0	44	0	1975517184	59	4279
2026-01-22 22:22:25.18	136.29	7.14	-44.4	-45.6	18.9	0.00e+00	0	44	0	1978662912	59	4355
2026-01-22 22:22:26.19	136.40	7.08	-44.5	-45.6	18.9	0.00e+00	0	44	0	1981808640	59	4383
2026-01-22 22:22:27.19	136.50	7.02	-44.7	-45.9	18.6	0.00e+00	0	44	0	1984954368	59	4515
2026-01-22 22:22:28.20	136.60	6.96	-44.3	-45.4	18.8	0.00e+00	0	44	0	1988100096	60	4045
2026-01-22 22:22:29.21	136.71	6.90	-44.2	-45.3	18.9	0.00e+00	0	44	0	1991245824	60	3981
2026-01-22 22:22:30.22	136.81	6.84	-44.5	-45.7	18.5	0.00e+00	0	44	0	1994391552	60	4165
2026-01-22 22:22:31.23	136.91	6.78	-44.4	-45.5	18.6	0.00e+00	0	44	0	1997537280	60	4087
2026-01-22 22:22:32.23	137.01	6.72	-44.7	-45.9	18.3	0.00e+00	0	44	0	2000683008	60	4274
2026-01-22 22:22:33.24	137.11	6.66	-44.7	-46.0	18.2	0.00e+00	0	44	0	2003828736	60	4301
2026-01-22 22:22:34.25	137.21	6.60	-44.6	-45.8	18.4	0.00e+00	0	44	0	2006974464	60	4204
2026-01-22 22:22:35.26	137.31	6.53	-44.8	-46.1	18.1	0.00e+00	0	44	0	2010120192	60	4351
2026-01-22 22:22:36.27	137.41	6.47	-44.4	-45.6	18.5	0.00e+00	0	44	0	2013265920	60	4117
2026-01-22 22:22:37.28	137.51	6.41	-44.6	-45.8	18.3	0.00e+00	0	44	0	2016411648	60	4234
2026-01-22 22:22:38.29	137.61	6.35	-44.7	-45.9	18.2	0.00e+00	0	44	0	2019557376	60	4260
2026-01-22 22:22:39.29	137.71	6.30	-44.8	-46.1	18.0	0.00e+00	0	44	0	2022703104	60	4366
2026-01-22 22:22:40.30	137.81	6.24	-44.8	-46.1	18.1	0.00e+00	0	44	0	2025848832	60	4348
2026-01-22 22:22:41.31	137.91	6.18	-44.7	-46.0	18.2	0.00e+00	0	44	0	2028994560	60	4292
2026-01-22 22:22:42.32	138.00	6.12	-44.7	-46.0	18.1	0.00e+00	0	44	0	2032140288	60	4297
2026-01-22 22:22:43.33	138.10	6.06	-44.6	-45.8	18.3	0.00e+00	0	44	0	2035286016	60	4221
