passes_logs/2026/01/22/R3.2S_Murmansk/R3.2S_Murmansk__20260122_122020_SUOMI_NPP_rec.log

#Pass ID: 20260122_122020_SUOMI NPP
#Satellite: SUOMI NPP
#Configuration: NPP
#almurnet v.1.7.20251203
#Start time: 2026-01-22 12:20:22

#Version: 2.2.20231116
#Station: R3.2S_Murmansk
#Location: 33.079688 lon 68.888172 lat
#TLE: 1 37849U 11061A   26021.51818991  .00000201  00000+0  11636-3 0  9995
#TLE: 2 37849  98.7819 323.5108 0002300  52.3548 307.7836 14.19527793737637

#Time	Az	El	Level	Level2	SNR	BER	BlckErr	Temp	State	Recorded	gain1	gain2
2026-01-22 12:20:22.14	221.77	2.06	-54.4	-69.4	3.8	1.49e+00	0	39	0	0	79	21446
2026-01-22 12:20:23.14	221.85	2.12	-54.3	-69.4	3.8	1.49e+00	0	39	104	0	79	21377
2026-01-22 12:20:24.15	221.93	2.17	-54.3	-69.4	3.8	1.49e+00	0	39	104	0	79	21359
2026-01-22 12:20:25.16	222.01	2.22	-54.3	-69.4	3.8	1.49e+00	0	39	104	0	79	21355
2026-01-22 12:20:26.17	222.10	2.28	-54.3	-69.4	3.8	1.49e+00	0	39	104	0	79	21310
2026-01-22 12:20:27.18	222.18	2.33	-54.5	-69.5	3.8	1.49e+00	0	39	104	0	79	21746
2026-01-22 12:20:28.18	222.26	2.38	-54.6	-69.7	3.8	1.49e+00	0	39	104	0	79	22012
2026-01-22 12:20:29.19	222.34	2.43	-54.7	-69.7	3.8	1.49e+00	0	39	104	0	79	22212
2026-01-22 12:20:30.20	222.43	2.49	-54.7	-69.7	3.8	1.49e+00	0	39	104	0	79	22254
2026-01-22 12:20:31.21	222.51	2.54	-54.7	-69.8	3.8	1.49e+00	0	39	104	0	79	22294
2026-01-22 12:20:32.22	222.59	2.59	-54.7	-69.7	3.8	1.49e+00	0	39	104	0	79	22222
2026-01-22 12:20:33.22	222.68	2.65	-54.7	-69.7	3.8	1.49e+00	0	39	104	0	79	22107
2026-01-22 12:20:34.23	222.76	2.70	-54.6	-69.6	3.8	1.49e+00	0	39	104	0	79	21973
2026-01-22 12:20:35.24	222.85	2.75	-54.6	-69.6	3.8	1.49e+00	0	39	104	0	79	21882
2026-01-22 12:20:36.25	222.93	2.81	-54.4	-69.6	3.8	1.49e+00	0	39	104	0	79	21764
2026-01-22 12:20:37.26	223.02	2.86	-54.5	-69.5	3.8	1.49e+00	0	39	104	0	79	21571
2026-01-22 12:20:38.27	223.10	2.92	-54.4	-69.4	3.8	1.49e+00	0	39	104	0	79	21494
2026-01-22 12:20:39.28	223.19	2.97	-54.4	-69.4	3.8	1.49e+00	0	39	104	0	79	21432
2026-01-22 12:20:40.29	223.27	3.02	-54.3	-69.4	3.8	1.49e+00	0	39	104	0	79	21325
2026-01-22 12:20:41.29	223.36	3.08	-54.3	-69.3	3.8	1.49e+00	0	39	104	0	79	21153
2026-01-22 12:20:42.30	223.44	3.13	-54.2	-69.2	3.8	1.49e+00	0	39	104	0	79	20936
2026-01-22 12:20:43.31	223.53	3.18	-54.1	-69.2	3.8	1.49e+00	0	40	104	0	79	20814
2026-01-22 12:20:44.32	223.62	3.24	-54.1	-69.1	3.8	1.49e+00	0	39	104	0	79	20614
2026-01-22 12:20:45.33	223.71	3.29	-54.0	-69.0	3.8	1.49e+00	0	40	104	0	79	20417
2026-01-22 12:20:46.33	223.79	3.35	-53.8	-68.8	3.8	1.49e+00	0	39	104	0	79	20015
2026-01-22 12:20:47.34	223.88	3.40	-53.6	-68.6	3.8	1.49e+00	0	40	104	0	79	19562
2026-01-22 12:20:48.35	223.97	3.45	-53.3	-68.3	3.8	1.49e+00	0	40	104	0	78	19991
2026-01-22 12:20:49.36	224.06	3.51	-52.8	-67.8	3.8	1.49e+00	0	40	104	0	77	20009
2026-01-22 12:20:50.36	224.15	3.56	-52.8	-67.8	3.8	1.49e+00	0	40	104	0	77	19965
2026-01-22 12:20:51.37	224.24	3.62	-52.8	-67.8	3.8	1.49e+00	0	40	104	0	77	19998
2026-01-22 12:20:52.38	224.33	3.67	-52.8	-67.8	3.8	1.49e+00	0	40	104	0	77	19893
2026-01-22 12:20:53.39	224.42	3.72	-52.8	-67.8	3.8	1.49e+00	0	40	104	0	77	19983
2026-01-22 12:20:54.40	224.51	3.78	-52.8	-67.8	3.8	1.49e+00	0	40	104	0	77	19983
2026-01-22 12:20:55.41	224.60	3.83	-52.8	-67.8	3.8	1.49e+00	0	40	104	0	77	19983
2026-01-22 12:20:56.42	224.69	3.89	-52.8	-67.8	3.8	1.49e+00	0	40	104	0	77	20007
2026-01-22 12:20:57.42	224.78	3.94	-52.8	-67.8	3.8	1.49e+00	0	40	104	0	77	19920
2026-01-22 12:20:58.43	224.87	4.00	-52.8	-67.8	3.8	1.49e+00	0	40	104	0	77	19935
2026-01-22 12:20:59.44	224.96	4.05	-52.8	-67.8	3.8	1.49e+00	0	40	104	0	77	20013
2026-01-22 12:21:00.45	225.06	4.11	-52.8	-67.7	3.8	1.49e+00	0	40	104	0	77	19754
2026-01-22 12:21:01.46	225.15	4.16	-52.8	-67.4	3.8	1.49e+00	0	40	104	0	77	19109
2026-01-22 12:21:02.46	225.24	4.22	-52.8	-67.4	3.8	1.49e+00	0	40	104	0	77	19157
2026-01-22 12:21:03.48	225.33	4.27	-52.8	-67.2	3.8	1.49e+00	0	40	104	0	77	18713
2026-01-22 12:21:04.48	225.43	4.33	-52.7	-66.9	3.8	1.49e+00	0	40	104	0	77	18017
2026-01-22 12:21:05.49	225.52	4.38	-52.7	-67.0	3.8	1.49e+00	0	40	104	0	77	18280
2026-01-22 12:21:06.50	225.62	4.44	-52.7	-66.6	3.8	1.49e+00	0	40	104	0	77	17367
2026-01-22 12:21:07.51	225.71	4.49	-52.5	-63.7	4.4	1.46e+00	92	40	104	0	77	12385
2026-01-22 12:21:08.52	225.81	4.55	-52.2	-60.7	6.0	7.02e-01	0	40	0	1048576	76	9309
2026-01-22 12:21:09.52	225.90	4.60	-51.7	-58.2	8.1	1.96e-01	0	40	0	3145728	75	7435
2026-01-22 12:21:10.53	226.00	4.66	-50.7	-55.1	11.4	2.45e-03	0	40	0	5242880	73	5854
2026-01-22 12:21:11.54	226.09	4.71	-49.8	-53.2	13.4	3.07e-04	0	40	0	7340032	71	5251
2026-01-22 12:21:12.55	226.19	4.77	-49.2	-52.1	14.6	7.00e-07	0	40	0	9437184	70	4924
2026-01-22 12:21:13.56	226.28	4.82	-48.7	-51.2	15.5	0.00e+00	0	40	0	10485760	69	4676
2026-01-22 12:21:14.56	226.38	4.88	-48.5	-51.0	15.7	0.00e+00	0	40	0	12582912	69	4576
2026-01-22 12:21:15.57	226.48	4.93	-48.3	-50.6	16.1	0.00e+00	0	40	0	14680064	68	4629
2026-01-22 12:21:16.58	226.58	4.99	-48.0	-50.3	16.4	0.00e+00	0	40	0	16777216	67	4725
2026-01-22 12:21:17.59	226.67	5.04	-48.3	-50.6	16.0	0.00e+00	0	40	0	18874368	67	4920
2026-01-22 12:21:18.60	226.77	5.10	-48.6	-51.1	15.6	0.00e+00	0	40	0	19922944	67	5189
2026-01-22 12:21:19.61	226.87	5.16	-48.9	-51.5	15.3	7.00e-07	0	40	0	22020096	68	5155
2026-01-22 12:21:20.61	226.97	5.21	-50.0	-53.5	13.1	3.08e-03	0	40	0	24117248	71	5461
2026-01-22 12:21:21.62	227.07	5.27	-48.4	-50.8	16.1	2.59e-04	0	40	0	26214400	68	4737
2026-01-22 12:21:22.63	227.17	5.32	-49.2	-52.0	14.6	1.20e-02	0	40	0	28311552	70	4840
2026-01-22 12:21:23.63	227.27	5.38	-48.4	-50.8	15.9	0.00e+00	0	40	0	30408704	68	4734
2026-01-22 12:21:24.64	227.37	5.43	-48.6	-51.1	15.7	0.00e+00	0	40	0	31457280	68	4871
2026-01-22 12:21:25.65	227.47	5.49	-48.3	-50.6	16.2	0.00e+00	0	40	0	33554432	68	4624
2026-01-22 12:21:26.66	227.57	5.55	-48.7	-51.3	15.5	0.00e+00	0	40	0	35651584	68	4995
2026-01-22 12:21:27.66	227.67	5.60	-48.7	-51.2	15.6	0.00e+00	0	40	0	37748736	68	4957
2026-01-22 12:21:28.67	227.78	5.66	-48.8	-51.3	15.5	0.00e+00	0	40	0	38797312	68	5020
2026-01-22 12:21:29.68	227.88	5.72	-48.8	-51.3	15.5	0.00e+00	0	40	0	40894464	68	5026
2026-01-22 12:21:30.69	227.98	5.77	-48.6	-51.0	15.9	0.00e+00	0	40	0	42991616	68	4841
2026-01-22 12:21:31.70	228.08	5.83	-48.5	-50.8	16.0	0.00e+00	0	40	0	45088768	68	4755
2026-01-22 12:21:32.71	228.19	5.88	-48.5	-50.9	16.0	0.00e+00	0	40	0	47185920	68	4765
2026-01-22 12:21:33.71	228.29	5.94	-48.4	-50.8	16.1	0.00e+00	0	40	0	48234496	68	4737
2026-01-22 12:21:34.72	228.40	6.00	-48.2	-50.4	16.4	0.00e+00	0	40	0	50331648	68	4529
2026-01-22 12:21:35.73	228.50	6.05	-48.2	-50.4	16.4	0.00e+00	0	40	0	52428800	68	4521
2026-01-22 12:21:36.74	228.61	6.11	-48.3	-50.5	16.4	0.00e+00	0	40	0	54525952	68	4580
2026-01-22 12:21:37.75	228.71	6.17	-48.2	-50.4	16.5	0.00e+00	0	40	0	56623104	68	4502
2026-01-22 12:21:38.76	228.82	6.22	-47.9	-50.0	16.8	0.00e+00	0	40	0	58720256	67	4577
2026-01-22 12:21:39.77	228.92	6.28	-48.0	-50.1	16.7	0.00e+00	0	40	0	59768832	67	4631
2026-01-22 12:21:40.78	229.03	6.34	-47.9	-50.0	16.8	0.00e+00	0	40	0	61865984	67	4598
2026-01-22 12:21:41.79	229.14	6.39	-47.9	-50.0	16.8	0.00e+00	0	40	0	63963136	67	4597
2026-01-22 12:21:42.80	229.25	6.45	-47.9	-50.0	16.8	0.00e+00	0	40	0	66060288	67	4591
2026-01-22 12:21:43.81	229.35	6.51	-47.8	-49.9	16.9	0.00e+00	0	40	0	67108864	67	4520
2026-01-22 12:21:44.82	229.46	6.56	-47.8	-49.9	17.0	0.00e+00	0	40	0	69206016	67	4498
2026-01-22 12:21:45.83	229.57	6.62	-47.7	-49.7	17.1	0.00e+00	0	40	0	71303168	67	4427
2026-01-22 12:21:46.84	229.68	6.68	-47.6	-49.6	17.3	0.00e+00	0	40	0	73400320	67	4361
2026-01-22 12:21:47.85	229.79	6.73	-47.6	-49.6	17.2	0.00e+00	0	40	0	75497472	66	4633
2026-01-22 12:21:48.86	229.90	6.79	-47.4	-49.3	17.6	0.00e+00	0	40	0	77594624	66	4473
2026-01-22 12:21:49.87	230.01	6.85	-47.1	-48.9	17.9	0.00e+00	0	40	0	78643200	66	4262
2026-01-22 12:21:50.87	230.12	6.90	-47.3	-49.1	17.7	0.00e+00	0	40	0	80740352	66	4390
2026-01-22 12:21:51.88	230.23	6.96	-47.4	-49.2	17.7	0.00e+00	0	40	0	82837504	66	4418
2026-01-22 12:21:52.89	230.34	7.02	-47.1	-48.9	18.0	0.00e+00	0	40	0	84934656	66	4250
2026-01-22 12:21:53.90	230.46	7.08	-47.2	-49.0	17.9	0.00e+00	0	40	0	87031808	66	4307
2026-01-22 12:21:54.90	230.57	7.13	-47.1	-48.9	18.0	0.00e+00	0	40	0	88080384	66	4244
2026-01-22 12:21:55.91	230.68	7.19	-47.1	-48.8	18.1	0.00e+00	0	40	0	90177536	66	4212
2026-01-22 12:21:56.92	230.79	7.25	-47.0	-48.8	18.1	0.00e+00	0	40	0	92274688	65	4458
2026-01-22 12:21:57.93	230.91	7.31	-47.2	-49.0	17.9	0.00e+00	0	40	0	94371840	65	4554
2026-01-22 12:21:58.94	231.02	7.36	-47.3	-49.1	17.8	0.00e+00	0	40	0	96468992	65	4614
2026-01-22 12:21:59.94	231.13	7.42	-47.5	-49.3	17.6	0.00e+00	0	40	0	97517568	65	4754
2026-01-22 12:22:00.95	231.25	7.48	-47.3	-49.1	17.8	0.00e+00	0	40	0	99614720	65	4640
2026-01-22 12:22:01.96	231.37	7.53	-47.2	-48.9	18.0	0.00e+00	0	40	0	101711872	65	4545
2026-01-22 12:22:02.97	231.48	7.59	-47.5	-49.4	17.5	0.00e+00	0	40	0	103809024	65	4805
2026-01-22 12:22:03.97	231.60	7.65	-47.3	-49.1	17.9	0.00e+00	0	40	0	105906176	65	4608
2026-01-22 12:22:04.98	231.71	7.71	-47.4	-49.3	17.6	0.00e+00	0	41	0	106954752	65	4735
2026-01-22 12:22:05.99	231.83	7.76	-47.2	-48.9	18.0	0.00e+00	0	40	0	109051904	65	4535
2026-01-22 12:22:07.00	231.95	7.82	-47.2	-49.0	17.9	0.00e+00	0	40	0	111149056	65	4567
2026-01-22 12:22:08.01	232.07	7.88	-47.3	-49.1	17.8	0.00e+00	0	41	0	113246208	65	4636
2026-01-22 12:22:09.01	232.18	7.94	-47.3	-49.1	17.9	0.00e+00	0	40	0	115343360	65	4612
2026-01-22 12:22:10.02	232.30	7.99	-47.4	-49.3	17.7	0.00e+00	0	40	0	116391936	65	4718
2026-01-22 12:22:11.03	232.42	8.05	-47.4	-49.3	17.7	0.00e+00	0	40	0	118489088	65	4739
2026-01-22 12:22:12.04	232.54	8.11	-47.4	-49.2	17.8	0.00e+00	0	40	0	120586240	65	4681
2026-01-22 12:22:13.05	232.66	8.17	-47.5	-49.4	17.6	0.00e+00	0	40	0	122683392	65	4803
2026-01-22 12:22:14.06	232.78	8.23	-47.5	-49.3	17.7	0.00e+00	0	40	0	124780544	65	4756
2026-01-22 12:22:15.07	232.91	8.28	-47.2	-48.9	18.1	0.00e+00	0	40	0	125829120	65	4537
2026-01-22 12:22:16.07	233.03	8.34	-47.1	-48.8	18.2	0.00e+00	0	40	0	127926272	65	4457
2026-01-22 12:22:17.08	233.15	8.40	-47.0	-48.8	18.2	0.00e+00	0	40	0	130023424	65	4444
2026-01-22 12:22:18.09	233.27	8.46	-46.7	-48.4	18.6	0.00e+00	0	40	0	132120576	65	4244
2026-01-22 12:22:19.10	233.40	8.52	-46.8	-48.5	18.5	0.00e+00	0	40	0	134217728	65	4297
2026-01-22 12:22:20.10	233.52	8.57	-46.6	-48.2	18.8	0.00e+00	0	40	0	135266304	65	4161
2026-01-22 12:22:21.11	233.64	8.63	-46.5	-48.0	18.9	0.00e+00	0	40	0	137363456	65	4090
2026-01-22 12:22:22.12	233.77	8.69	-46.6	-48.1	18.8	0.00e+00	0	40	0	139460608	65	4145
2026-01-22 12:22:23.13	233.89	8.75	-46.4	-48.0	19.0	0.00e+00	0	40	0	141557760	64	4302
2026-01-22 12:22:24.14	234.02	8.80	-46.5	-48.1	18.9	0.00e+00	0	40	0	143654912	64	4360
2026-01-22 12:22:25.15	234.14	8.86	-46.6	-48.2	18.8	0.00e+00	0	40	0	145752064	64	4410
2026-01-22 12:22:26.15	234.27	8.92	-46.5	-48.1	18.8	0.00e+00	0	40	0	146800640	64	4360
2026-01-22 12:22:27.16	234.40	8.98	-46.7	-48.3	18.7	0.00e+00	0	40	0	148897792	64	4442
2026-01-22 12:22:28.17	234.52	9.04	-46.7	-48.3	18.7	0.00e+00	0	40	0	150994944	64	4451
2026-01-22 12:22:29.18	234.65	9.09	-46.6	-48.2	18.8	0.00e+00	0	40	0	153092096	64	4429
2026-01-22 12:22:30.18	234.78	9.15	-46.7	-48.3	18.7	0.00e+00	0	40	0	154140672	64	4451
2026-01-22 12:22:31.19	234.91	9.21	-46.6	-48.2	18.8	0.00e+00	0	40	0	156237824	64	4415
2026-01-22 12:22:32.20	235.04	9.27	-46.5	-48.0	18.9	0.00e+00	0	40	0	158334976	64	4340
2026-01-22 12:22:33.21	235.17	9.33	-46.3	-47.8	19.2	0.00e+00	0	40	0	160432128	64	4231
2026-01-22 12:22:34.22	235.30	9.39	-46.5	-48.0	19.0	0.00e+00	0	40	0	162529280	64	4337
2026-01-22 12:22:35.23	235.43	9.44	-46.4	-47.9	19.2	0.00e+00	0	40	0	163577856	64	4250
2026-01-22 12:22:36.24	235.56	9.50	-46.6	-48.1	18.9	0.00e+00	0	40	0	165675008	64	4382
2026-01-22 12:22:37.25	235.69	9.56	-46.5	-48.0	19.0	0.00e+00	0	40	0	167772160	64	4314
2026-01-22 12:22:38.26	235.83	9.62	-46.4	-47.9	19.0	0.00e+00	0	41	0	169869312	64	4291
2026-01-22 12:22:39.27	235.96	9.68	-46.5	-48.1	19.0	0.00e+00	0	40	0	171966464	64	4358
2026-01-22 12:22:40.27	236.09	9.73	-46.4	-48.0	19.0	0.00e+00	0	40	0	174063616	64	4309
2026-01-22 12:22:41.28	236.23	9.79	-46.5	-48.0	19.0	0.00e+00	0	40	0	175112192	64	4316
2026-01-22 12:22:42.29	236.36	9.85	-46.4	-47.9	19.2	0.00e+00	0	40	0	177209344	64	4258
2026-01-22 12:22:43.30	236.49	9.91	-46.5	-48.1	19.0	0.00e+00	0	40	0	179306496	64	4357
2026-01-22 12:22:44.30	236.63	9.97	-46.5	-48.0	19.0	0.00e+00	0	40	0	181403648	64	4329
2026-01-22 12:22:45.31	236.77	10.02	-46.5	-48.0	19.0	0.00e+00	0	40	0	182452224	64	4333
2026-01-22 12:22:46.32	236.90	10.08	-46.8	-48.4	18.7	0.00e+00	0	40	0	184549376	64	4502
2026-01-22 12:22:47.33	237.04	10.14	-46.6	-48.2	18.8	0.00e+00	0	40	0	186646528	64	4436
2026-01-22 12:22:48.34	237.18	10.20	-46.8	-48.4	18.7	0.00e+00	0	40	0	188743680	64	4518
2026-01-22 12:22:49.34	237.31	10.26	-46.8	-48.4	18.7	0.00e+00	0	40	0	190840832	64	4521
2026-01-22 12:22:50.35	237.45	10.32	-46.9	-48.5	18.6	0.00e+00	0	40	0	192937984	64	4568
2026-01-22 12:22:51.36	237.59	10.37	-46.6	-48.2	18.9	0.00e+00	0	40	0	193986560	64	4399
2026-01-22 12:22:52.37	237.73	10.43	-46.7	-48.3	18.7	0.00e+00	0	40	0	196083712	64	4479
2026-01-22 12:22:53.38	237.87	10.49	-46.6	-48.2	18.9	0.00e+00	0	41	0	198180864	64	4413
2026-01-22 12:22:54.38	238.01	10.55	-46.7	-48.2	18.9	0.00e+00	0	41	0	200278016	64	4437
2026-01-22 12:22:55.39	238.15	10.61	-46.6	-48.2	18.9	0.00e+00	0	40	0	202375168	64	4407
2026-01-22 12:22:56.40	238.30	10.66	-46.5	-48.1	19.0	0.00e+00	0	41	0	203423744	64	4352
2026-01-22 12:22:57.41	238.44	10.72	-46.5	-48.0	19.1	0.00e+00	0	40	0	205520896	64	4307
2026-01-22 12:22:58.42	238.58	10.78	-46.6	-48.1	19.0	0.00e+00	0	40	0	207618048	64	4371
2026-01-22 12:22:59.42	238.72	10.84	-46.4	-48.0	19.1	0.00e+00	0	40	0	209715200	64	4307
2026-01-22 12:23:00.43	238.87	10.90	-46.5	-48.1	19.0	0.00e+00	0	40	0	210763776	64	4347
2026-01-22 12:23:01.44	239.01	10.95	-46.5	-48.0	19.1	0.00e+00	0	41	0	212860928	64	4317
2026-01-22 12:23:02.45	239.16	11.01	-46.5	-48.0	19.0	0.00e+00	0	40	0	214958080	64	4335
2026-01-22 12:23:03.45	239.30	11.07	-46.4	-47.9	19.2	0.00e+00	0	40	0	217055232	64	4266
2026-01-22 12:23:04.46	239.45	11.13	-46.5	-48.1	19.0	0.00e+00	0	40	0	219152384	64	4370
2026-01-22 12:23:05.47	239.60	11.18	-46.5	-48.1	19.0	0.00e+00	0	40	0	221249536	64	4344
2026-01-22 12:23:06.48	239.74	11.24	-46.2	-47.7	19.4	0.00e+00	0	40	0	222298112	64	4170
2026-01-22 12:23:07.48	239.89	11.30	-46.1	-47.6	19.5	0.00e+00	0	40	0	224395264	64	4115
2026-01-22 12:23:08.49	240.04	11.36	-46.2	-47.7	19.4	0.00e+00	0	40	0	226492416	64	4167
2026-01-22 12:23:09.50	240.19	11.42	-46.2	-47.7	19.3	0.00e+00	0	40	0	228589568	64	4179
2026-01-22 12:23:10.50	240.34	11.47	-46.0	-47.5	19.6	0.00e+00	0	40	0	230686720	64	4058
2026-01-22 12:23:11.51	240.49	11.53	-46.1	-47.5	19.6	0.00e+00	0	40	0	231735296	64	4081
2026-01-22 12:23:12.52	240.64	11.59	-46.1	-47.5	19.5	0.00e+00	0	41	0	233832448	64	4097
2026-01-22 12:23:13.53	240.79	11.65	-46.0	-47.4	19.7	0.00e+00	0	40	0	235929600	63	4269
2026-01-22 12:23:14.54	240.94	11.70	-46.2	-47.6	19.6	0.00e+00	0	40	0	238026752	63	4363
2026-01-22 12:23:15.55	241.09	11.76	-46.2	-47.7	19.5	0.00e+00	0	40	0	240123904	63	4403
2026-01-22 12:23:16.56	241.25	11.82	-46.2	-47.7	19.5	0.00e+00	0	41	0	241172480	63	4416
2026-01-22 12:23:17.56	241.40	11.88	-46.2	-47.6	19.6	0.00e+00	0	41	0	243269632	63	4360
2026-01-22 12:23:18.57	241.55	11.93	-46.3	-47.8	19.4	0.00e+00	0	40	0	245366784	63	4464
2026-01-22 12:23:19.58	241.71	11.99	-46.4	-47.9	19.2	0.00e+00	0	40	0	247463936	63	4536
2026-01-22 12:23:20.59	241.86	12.05	-46.5	-48.0	19.2	0.00e+00	0	41	0	249561088	63	4587
2026-01-22 12:23:21.60	242.02	12.10	-46.5	-48.0	19.2	0.00e+00	0	40	0	250609664	63	4580
2026-01-22 12:23:22.61	242.18	12.16	-46.6	-48.2	19.0	0.00e+00	0	41	0	252706816	63	4669
2026-01-22 12:23:23.61	242.33	12.22	-46.6	-48.2	18.9	0.00e+00	0	41	0	254803968	64	4399
2026-01-22 12:23:24.62	242.49	12.28	-46.6	-48.2	19.0	0.00e+00	0	40	0	256901120	64	4413
2026-01-22 12:23:25.63	242.65	12.33	-46.4	-47.9	19.2	0.00e+00	0	41	0	258998272	64	4255
2026-01-22 12:23:26.64	242.81	12.39	-46.3	-47.8	19.4	0.00e+00	0	41	0	260046848	64	4203
2026-01-22 12:23:27.65	242.97	12.45	-46.1	-47.6	19.5	0.00e+00	0	41	0	262144000	64	4109
2026-01-22 12:23:28.66	243.13	12.50	-46.1	-47.5	19.6	0.00e+00	0	41	0	264241152	64	4086
2026-01-22 12:23:29.66	243.29	12.56	-46.1	-47.6	19.6	0.00e+00	0	41	0	266338304	64	4099
2026-01-22 12:23:30.67	243.45	12.62	-46.2	-47.6	19.6	0.00e+00	0	41	0	268435456	63	4375
2026-01-22 12:23:31.68	243.61	12.67	-46.3	-47.8	19.4	0.00e+00	0	41	0	269484032	63	4451
2026-01-22 12:23:32.69	243.77	12.73	-46.5	-48.0	19.3	0.00e+00	0	41	0	271581184	63	4561
2026-01-22 12:23:33.70	243.94	12.79	-46.4	-47.9	19.4	0.00e+00	0	41	0	273678336	63	4514
2026-01-22 12:23:34.71	244.10	12.84	-46.4	-47.8	19.4	0.00e+00	0	41	0	275775488	63	4475
2026-01-22 12:23:35.72	244.26	12.90	-46.2	-47.6	19.6	0.00e+00	0	40	0	277872640	63	4371
2026-01-22 12:23:36.72	244.43	12.95	-46.0	-47.4	19.8	0.00e+00	0	41	0	278921216	63	4262
2026-01-22 12:23:37.73	244.59	13.01	-45.9	-47.3	19.9	0.00e+00	0	40	0	281018368	63	4220
2026-01-22 12:23:38.74	244.76	13.07	-45.8	-47.2	20.0	0.00e+00	0	40	0	283115520	63	4163
2026-01-22 12:23:39.75	244.93	13.12	-45.7	-47.0	20.1	0.00e+00	0	41	0	285212672	63	4076
2026-01-22 12:23:40.76	245.09	13.18	-45.5	-46.8	20.4	0.00e+00	0	40	0	287309824	62	4204
2026-01-22 12:23:41.77	245.26	13.23	-45.5	-46.8	20.4	0.00e+00	0	41	0	288358400	62	4203
2026-01-22 12:23:42.78	245.43	13.29	-45.5	-46.8	20.3	0.00e+00	0	40	0	290455552	62	4214
2026-01-22 12:23:43.78	245.60	13.34	-45.7	-47.0	20.2	0.00e+00	0	41	0	292552704	62	4300
2026-01-22 12:23:44.79	245.77	13.40	-45.8	-47.1	20.1	0.00e+00	0	41	0	294649856	62	4371
2026-01-22 12:23:45.80	245.94	13.46	-46.1	-47.5	19.7	0.00e+00	0	40	0	296747008	62	4571
2026-01-22 12:23:46.81	246.11	13.51	-46.3	-47.7	19.6	0.00e+00	0	40	0	297795584	63	4420
2026-01-22 12:23:47.82	246.28	13.57	-46.1	-47.5	19.8	0.00e+00	0	40	0	299892736	63	4326
2026-01-22 12:23:48.83	246.45	13.62	-46.0	-47.4	19.8	0.00e+00	0	41	0	301989888	63	4266
2026-01-22 12:23:49.84	246.63	13.68	-45.9	-47.3	19.9	0.00e+00	0	40	0	304087040	63	4208
2026-01-22 12:23:50.85	246.80	13.73	-45.7	-47.0	20.2	0.00e+00	0	40	0	306184192	63	4069
2026-01-22 12:23:51.86	246.98	13.79	-45.7	-47.1	20.1	0.00e+00	0	40	0	308281344	63	4107
2026-01-22 12:23:52.86	247.15	13.84	-45.5	-46.9	20.3	0.00e+00	0	41	0	309329920	63	4005
2026-01-22 12:23:53.87	247.32	13.89	-45.5	-46.8	20.3	0.00e+00	0	40	0	311427072	63	3996
2026-01-22 12:23:54.88	247.50	13.95	-45.5	-46.8	20.4	0.00e+00	0	40	0	313524224	63	3992
2026-01-22 12:23:55.89	247.68	14.00	-45.6	-46.9	20.3	0.00e+00	0	41	0	315621376	62	4244
2026-01-22 12:23:56.89	247.85	14.06	-45.4	-46.7	20.5	0.00e+00	0	40	0	316669952	62	4163
2026-01-22 12:23:57.90	248.03	14.11	-45.5	-46.8	20.4	0.00e+00	0	40	0	318767104	62	4206
2026-01-22 12:23:58.91	248.21	14.16	-45.4	-46.7	20.4	0.00e+00	0	40	0	320864256	62	4178
2026-01-22 12:23:59.92	248.39	14.22	-45.6	-46.9	20.3	0.00e+00	0	41	0	322961408	62	4246
2026-01-22 12:24:00.93	248.57	14.27	-45.7	-47.0	20.2	0.00e+00	0	41	0	325058560	62	4303
2026-01-22 12:24:01.94	248.75	14.32	-45.6	-46.9	20.3	0.00e+00	0	41	0	327155712	62	4248
2026-01-22 12:24:02.94	248.93	14.38	-45.7	-47.1	20.1	0.00e+00	0	40	0	328204288	62	4357
2026-01-22 12:24:03.95	249.11	14.43	-45.7	-47.1	20.1	0.00e+00	0	40	0	330301440	62	4347
2026-01-22 12:24:04.96	249.29	14.48	-45.8	-47.1	20.1	0.00e+00	0	41	0	332398592	62	4389
2026-01-22 12:24:05.97	249.48	14.54	-46.0	-47.4	19.9	0.00e+00	0	41	0	334495744	62	4512
2026-01-22 12:24:06.98	249.66	14.59	-45.9	-47.3	20.0	0.00e+00	0	41	0	336592896	62	4450
2026-01-22 12:24:07.98	249.84	14.64	-46.0	-47.4	19.9	0.00e+00	0	41	0	337641472	62	4500
2026-01-22 12:24:08.99	250.03	14.69	-46.1	-47.5	19.8	0.00e+00	0	40	0	339738624	62	4578
2026-01-22 12:24:10.00	250.21	14.74	-46.2	-47.6	19.6	0.00e+00	0	41	0	341835776	62	4627
2026-01-22 12:24:11.01	250.40	14.80	-45.7	-47.1	20.1	0.00e+00	0	40	0	343932928	62	4343
2026-01-22 12:24:12.02	250.59	14.85	-45.8	-47.2	20.0	0.00e+00	0	41	0	344981504	62	4402
2026-01-22 12:24:13.02	250.77	14.90	-45.9	-47.3	20.0	0.00e+00	0	40	0	347078656	62	4467
2026-01-22 12:24:14.03	250.96	14.95	-45.8	-47.1	20.1	0.00e+00	0	40	0	349175808	62	4364
2026-01-22 12:24:15.04	251.15	15.00	-45.9	-47.3	19.9	0.00e+00	0	40	0	351272960	62	4469
2026-01-22 12:24:16.04	251.34	15.05	-46.1	-47.4	19.8	0.00e+00	0	41	0	353370112	62	4544
2026-01-22 12:24:17.05	251.53	15.10	-46.3	-47.8	19.4	0.00e+00	0	40	0	355467264	63	4467
2026-01-22 12:24:18.06	251.72	15.15	-46.3	-47.7	19.5	0.00e+00	0	41	0	356515840	63	4441
2026-01-22 12:24:19.07	251.91	15.21	-46.4	-47.9	19.4	0.00e+00	0	41	0	358612992	63	4501
2026-01-22 12:24:20.07	252.10	15.26	-46.3	-47.7	19.5	0.00e+00	0	41	0	360710144	63	4434
2026-01-22 12:24:21.08	252.29	15.31	-46.2	-47.6	19.6	0.00e+00	0	41	0	362807296	63	4379
2026-01-22 12:24:22.09	252.48	15.36	-46.2	-47.6	19.7	0.00e+00	0	41	0	364904448	63	4363
2026-01-22 12:24:23.10	252.68	15.41	-46.4	-47.8	19.5	0.00e+00	0	41	0	365953024	63	4475
2026-01-22 12:24:24.11	252.87	15.45	-46.6	-48.1	19.2	0.00e+00	0	41	0	368050176	63	4622
2026-01-22 12:24:25.12	253.07	15.50	-46.6	-48.1	19.2	0.00e+00	0	41	0	370147328	63	4636
2026-01-22 12:24:26.12	253.26	15.55	-46.7	-48.3	18.9	0.00e+00	0	40	0	372244480	64	4475
2026-01-22 12:24:27.13	253.45	15.60	-46.8	-48.4	18.9	0.00e+00	0	41	0	373293056	64	4509
2026-01-22 12:24:28.14	253.65	15.65	-46.9	-48.4	18.9	0.00e+00	0	41	0	375390208	64	4541
2026-01-22 12:24:29.15	253.85	15.70	-46.8	-48.4	18.9	0.00e+00	0	41	0	377487360	64	4535
2026-01-22 12:24:30.15	254.05	15.75	-46.7	-48.2	19.1	0.00e+00	0	41	0	379584512	64	4416
2026-01-22 12:24:31.16	254.24	15.79	-46.5	-48.0	19.2	0.00e+00	0	41	0	381681664	64	4336
2026-01-22 12:24:32.17	254.44	15.84	-46.5	-48.0	19.3	0.00e+00	0	41	0	383778816	64	4309
2026-01-22 12:24:33.18	254.64	15.89	-46.5	-48.0	19.2	0.00e+00	0	41	0	384827392	64	4323
2026-01-22 12:24:34.19	254.84	15.94	-46.5	-48.1	19.2	0.00e+00	0	40	0	386924544	64	4341
2026-01-22 12:24:35.20	255.04	15.98	-46.5	-47.9	19.3	0.00e+00	0	41	0	389021696	64	4285
2026-01-22 12:24:36.21	255.25	16.03	-46.5	-48.0	19.2	0.00e+00	0	41	0	391118848	64	4334
2026-01-22 12:24:37.21	255.45	16.08	-46.6	-48.1	19.2	0.00e+00	0	40	0	393216000	64	4361
2026-01-22 12:24:38.22	255.65	16.12	-46.6	-48.1	19.1	0.00e+00	0	40	0	394264576	64	4353
2026-01-22 12:24:39.23	255.85	16.17	-46.7	-48.2	19.0	0.00e+00	0	41	0	396361728	64	4425
2026-01-22 12:24:40.24	256.06	16.22	-46.7	-48.2	19.0	0.00e+00	0	41	0	398458880	64	4426
2026-01-22 12:24:41.25	256.26	16.26	-46.9	-48.5	18.8	0.00e+00	0	40	0	400556032	64	4576
2026-01-22 12:24:42.26	256.47	16.31	-46.8	-48.4	18.9	0.00e+00	0	40	0	402653184	64	4513
2026-01-22 12:24:43.26	256.67	16.35	-46.8	-48.4	19.0	0.00e+00	0	40	0	403701760	64	4496
2026-01-22 12:24:44.27	256.88	16.40	-46.8	-48.3	18.9	0.00e+00	0	41	0	405798912	64	4490
2026-01-22 12:24:45.28	257.08	16.44	-46.7	-48.2	19.0	0.00e+00	0	40	0	407896064	64	4427
2026-01-22 12:24:46.29	257.29	16.49	-46.8	-48.3	19.0	0.00e+00	0	40	0	409993216	64	4488
2026-01-22 12:24:47.30	257.50	16.53	-46.6	-48.1	19.1	0.00e+00	0	41	0	412090368	64	4367
2026-01-22 12:24:48.30	257.71	16.57	-46.7	-48.3	19.0	0.00e+00	0	40	0	413138944	64	4460
2026-01-22 12:24:49.31	257.92	16.62	-46.9	-48.5	18.8	0.00e+00	0	41	0	415236096	64	4562
2026-01-22 12:24:50.32	258.13	16.66	-46.9	-48.5	18.8	0.00e+00	0	41	0	417333248	64	4589
2026-01-22 12:24:51.33	258.34	16.70	-47.2	-48.9	18.4	0.00e+00	0	41	0	419430400	64	4781
2026-01-22 12:24:52.34	258.55	16.74	-47.3	-49.1	18.2	0.00e+00	0	41	0	421527552	65	4612
2026-01-22 12:24:53.35	258.76	16.79	-47.2	-48.9	18.4	0.00e+00	0	41	0	423624704	65	4509
2026-01-22 12:24:54.35	258.97	16.83	-47.0	-48.6	18.6	0.00e+00	0	41	0	424673280	65	4378
2026-01-22 12:24:55.36	259.18	16.87	-46.7	-48.3	19.0	0.00e+00	0	41	0	426770432	65	4214
2026-01-22 12:24:56.37	259.40	16.91	-46.6	-48.1	19.2	0.00e+00	0	41	0	428867584	65	4114
2026-01-22 12:24:57.38	259.61	16.95	-46.9	-48.5	18.8	0.00e+00	0	41	0	430964736	65	4292
2026-01-22 12:24:58.38	259.82	16.99	-46.6	-48.1	19.2	0.00e+00	0	41	0	432013312	64	4384
2026-01-22 12:24:59.39	260.04	17.03	-46.7	-48.3	19.0	0.00e+00	0	41	0	434110464	64	4461
2026-01-22 12:25:00.40	260.25	17.07	-46.6	-48.1	19.1	0.00e+00	0	41	0	436207616	64	4385
2026-01-22 12:25:01.41	260.47	17.11	-46.5	-48.0	19.2	0.00e+00	0	40	0	438304768	64	4327
2026-01-22 12:25:02.42	260.69	17.15	-46.6	-48.1	19.2	0.00e+00	0	41	0	440401920	64	4352
2026-01-22 12:25:03.42	260.90	17.19	-46.3	-47.8	19.4	0.00e+00	0	41	0	441450496	64	4202
2026-01-22 12:25:04.43	261.12	17.23	-46.1	-47.4	19.8	0.00e+00	0	40	0	443547648	64	4041
2026-01-22 12:25:05.44	261.34	17.27	-46.4	-47.9	19.3	0.00e+00	0	41	0	445644800	64	4267
2026-01-22 12:25:06.45	261.56	17.31	-46.4	-47.8	19.4	0.00e+00	0	40	0	447741952	64	4242
2026-01-22 12:25:07.46	261.78	17.34	-46.7	-48.3	19.0	0.00e+00	0	41	0	449839104	64	4442
2026-01-22 12:25:08.46	262.00	17.38	-46.7	-48.3	19.0	0.00e+00	0	41	0	451936256	64	4469
2026-01-22 12:25:09.47	262.22	17.42	-46.7	-48.3	19.0	0.00e+00	0	41	0	452984832	64	4467
2026-01-22 12:25:10.48	262.44	17.46	-46.6	-48.1	19.2	0.00e+00	0	41	0	455081984	64	4368
2026-01-22 12:25:11.49	262.66	17.49	-46.4	-47.8	19.4	0.00e+00	0	41	0	457179136	64	4239
2026-01-22 12:25:12.50	262.88	17.53	-46.2	-47.7	19.6	0.00e+00	0	41	0	459276288	64	4146
2026-01-22 12:25:13.51	263.10	17.56	-46.1	-47.4	19.8	0.00e+00	0	41	0	460324864	64	4041
2026-01-22 12:25:14.52	263.33	17.60	-45.9	-47.2	20.0	0.00e+00	0	41	0	462422016	63	4190
2026-01-22 12:25:15.52	263.55	17.63	-45.9	-47.2	20.1	0.00e+00	0	41	0	464519168	63	4162
2026-01-22 12:25:16.53	263.77	17.67	-46.2	-47.6	19.7	0.00e+00	0	41	0	466616320	63	4372
2026-01-22 12:25:17.54	264.00	17.70	-46.4	-47.8	19.5	0.00e+00	0	41	0	468713472	63	4487
2026-01-22 12:25:18.55	264.22	17.74	-46.5	-48.0	19.3	0.00e+00	0	41	0	470810624	63	4584
2026-01-22 12:25:19.56	264.45	17.77	-46.6	-48.1	19.3	0.00e+00	0	41	0	471859200	63	4630
2026-01-22 12:25:20.57	264.67	17.80	-46.5	-48.0	19.3	0.00e+00	0	41	0	473956352	63	4565
2026-01-22 12:25:21.57	264.90	17.83	-46.4	-47.9	19.4	0.00e+00	0	41	0	476053504	63	4521
2026-01-22 12:25:22.58	265.13	17.87	-46.4	-47.8	19.5	0.00e+00	0	40	0	478150656	63	4477
2026-01-22 12:25:23.59	265.35	17.90	-46.2	-47.6	19.7	0.00e+00	0	41	0	480247808	63	4346
2026-01-22 12:25:24.60	265.58	17.93	-46.2	-47.6	19.7	0.00e+00	0	41	0	481296384	63	4375
2026-01-22 12:25:25.61	265.81	17.96	-46.1	-47.5	19.8	0.00e+00	0	41	0	483393536	63	4292
2026-01-22 12:25:26.61	266.04	17.99	-46.1	-47.4	19.8	0.00e+00	0	41	0	485490688	63	4281
2026-01-22 12:25:27.62	266.27	18.02	-45.9	-47.2	20.1	0.00e+00	0	41	0	487587840	63	4168
2026-01-22 12:25:28.63	266.50	18.05	-45.4	-46.6	20.6	0.00e+00	0	41	0	489684992	62	4127
2026-01-22 12:25:29.64	266.73	18.08	-45.5	-46.7	20.5	0.00e+00	0	41	0	490733568	62	4173
2026-01-22 12:25:30.65	266.96	18.11	-45.3	-46.6	20.7	0.00e+00	0	41	0	492830720	62	4100
2026-01-22 12:25:31.66	267.19	18.14	-45.5	-46.7	20.5	0.00e+00	0	41	0	494927872	62	4187
2026-01-22 12:25:32.67	267.42	18.17	-45.8	-47.1	20.1	0.00e+00	0	40	0	497025024	62	4383
2026-01-22 12:25:33.68	267.65	18.20	-46.0	-47.4	19.9	0.00e+00	0	41	0	499122176	62	4526
2026-01-22 12:25:34.68	267.88	18.22	-46.0	-47.4	19.9	0.00e+00	0	40	0	500170752	62	4531
2026-01-22 12:25:35.69	268.11	18.25	-46.1	-47.5	19.8	0.00e+00	0	40	0	502267904	62	4587
2026-01-22 12:25:36.70	268.35	18.28	-45.9	-47.3	20.0	0.00e+00	0	41	0	504365056	62	4453
2026-01-22 12:25:37.71	268.58	18.30	-45.8	-47.1	20.2	0.00e+00	0	41	0	506462208	62	4391
2026-01-22 12:25:38.72	268.81	18.33	-46.0	-47.3	20.0	0.00e+00	0	41	0	508559360	62	4483
2026-01-22 12:25:39.73	269.05	18.35	-46.0	-47.3	20.0	0.00e+00	0	41	0	509607936	62	4477
2026-01-22 12:25:40.74	269.28	18.38	-45.7	-47.0	20.3	0.00e+00	0	41	0	511705088	62	4330
2026-01-22 12:25:41.75	269.52	18.40	-45.7	-47.0	20.2	0.00e+00	0	41	0	513802240	62	4326
2026-01-22 12:25:42.75	269.75	18.43	-45.6	-46.9	20.4	0.00e+00	0	41	0	515899392	62	4256
2026-01-22 12:25:43.76	269.99	18.45	-45.4	-46.6	20.6	0.00e+00	0	41	0	517996544	62	4143
2026-01-22 12:25:44.77	270.22	18.47	-45.4	-46.6	20.6	0.00e+00	0	41	0	519045120	62	4135
2026-01-22 12:25:45.78	270.46	18.50	-45.3	-46.5	20.7	0.00e+00	0	41	0	521142272	62	4082
2026-01-22 12:25:46.78	270.69	18.52	-45.3	-46.6	20.7	0.00e+00	0	41	0	523239424	62	4114
2026-01-22 12:25:47.79	270.93	18.54	-45.6	-46.9	20.4	0.00e+00	0	41	0	525336576	62	4244
2026-01-22 12:25:48.80	271.17	18.56	-45.6	-46.9	20.5	0.00e+00	0	41	0	527433728	62	4247
2026-01-22 12:25:49.81	271.41	18.58	-45.5	-46.8	20.5	0.00e+00	0	41	0	528482304	62	4230
2026-01-22 12:25:50.82	271.64	18.60	-45.3	-46.6	20.7	0.00e+00	0	41	0	530579456	62	4111
2026-01-22 12:25:51.82	271.88	18.62	-45.2	-46.4	20.9	0.00e+00	0	41	0	532676608	62	4033
2026-01-22 12:25:52.83	272.12	18.64	-45.2	-46.4	20.9	0.00e+00	0	41	0	534773760	62	4009
2026-01-22 12:25:53.84	272.36	18.66	-45.4	-46.6	20.7	0.00e+00	0	41	0	536870912	62	4144
2026-01-22 12:25:54.85	272.60	18.68	-45.8	-47.1	20.3	0.00e+00	0	41	0	537919488	62	4350
2026-01-22 12:25:55.86	272.84	18.70	-46.1	-47.5	19.9	0.00e+00	0	41	0	540016640	62	4566
2026-01-22 12:25:56.86	273.07	18.71	-46.3	-47.7	19.7	0.00e+00	0	41	0	542113792	63	4408
2026-01-22 12:25:57.87	273.31	18.73	-46.4	-47.8	19.7	0.00e+00	0	41	0	544210944	63	4464
2026-01-22 12:25:58.88	273.55	18.75	-46.2	-47.5	19.9	0.00e+00	0	41	0	546308096	63	4337
2026-01-22 12:25:59.89	273.79	18.76	-46.0	-47.4	20.0	0.00e+00	0	41	0	547356672	63	4260
2026-01-22 12:26:00.90	274.03	18.78	-46.1	-47.5	20.0	0.00e+00	0	41	0	549453824	63	4305
2026-01-22 12:26:01.90	274.27	18.79	-46.4	-47.8	19.6	0.00e+00	0	41	0	551550976	63	4458
2026-01-22 12:26:02.91	274.51	18.81	-46.6	-48.1	19.4	0.00e+00	0	41	0	553648128	63	4632
2026-01-22 12:26:03.92	274.75	18.82	-46.7	-48.2	19.2	0.00e+00	0	41	0	555745280	64	4421
2026-01-22 12:26:04.92	274.99	18.84	-46.6	-48.1	19.3	0.00e+00	0	41	0	556793856	64	4343
2026-01-22 12:26:05.93	275.24	18.85	-46.5	-47.9	19.5	0.00e+00	0	41	0	558891008	64	4259
2026-01-22 12:26:06.94	275.48	18.86	-46.2	-47.6	19.7	0.00e+00	0	41	0	560988160	64	4109
2026-01-22 12:26:07.95	275.72	18.87	-46.2	-47.5	19.8	0.00e+00	0	41	0	563085312	64	4091
2026-01-22 12:26:08.96	275.96	18.89	-46.3	-47.7	19.6	0.00e+00	0	41	0	565182464	64	4172
2026-01-22 12:26:09.97	276.20	18.90	-46.7	-48.1	19.2	0.00e+00	0	41	0	566231040	64	4384
2026-01-22 12:26:10.97	276.45	18.91	-46.9	-48.4	19.0	0.00e+00	0	41	0	568328192	64	4534
2026-01-22 12:26:11.98	276.69	18.92	-47.0	-48.6	18.9	0.00e+00	0	41	0	570425344	64	4606
2026-01-22 12:26:12.99	276.93	18.93	-46.9	-48.5	19.0	0.00e+00	0	41	0	572522496	64	4548
2026-01-22 12:26:14.00	277.17	18.94	-46.7	-48.1	19.2	0.00e+00	0	41	0	574619648	64	4386
2026-01-22 12:26:15.01	277.42	18.95	-46.4	-47.8	19.6	0.00e+00	0	41	0	575668224	64	4209
2026-01-22 12:26:16.02	277.66	18.95	-46.3	-47.8	19.6	0.00e+00	0	41	0	577765376	64	4194
2026-01-22 12:26:17.02	277.90	18.96	-46.3	-47.7	19.6	0.00e+00	0	41	0	579862528	64	4179
2026-01-22 12:26:18.03	278.15	18.97	-46.5	-48.0	19.4	0.00e+00	0	40	0	581959680	64	4293
2026-01-22 12:26:19.05	278.39	18.97	-46.6	-48.0	19.3	0.00e+00	0	41	0	584056832	64	4336
2026-01-22 12:26:20.05	278.63	18.98	-46.6	-48.1	19.3	0.00e+00	0	41	0	586153984	64	4355
2026-01-22 12:26:21.06	278.88	18.99	-46.6	-48.0	19.4	0.00e+00	0	40	0	587202560	64	4321
2026-01-22 12:26:22.07	279.12	18.99	-46.4	-47.8	19.6	0.00e+00	0	41	0	589299712	64	4200
2026-01-22 12:26:23.08	279.36	19.00	-46.4	-47.9	19.5	0.00e+00	0	41	0	591396864	64	4247
2026-01-22 12:26:24.09	279.61	19.00	-46.5	-47.9	19.6	0.00e+00	0	41	0	593494016	64	4260
2026-01-22 12:26:25.10	279.85	19.00	-46.5	-47.9	19.5	0.00e+00	0	41	0	594542592	64	4283
2026-01-22 12:26:26.11	280.10	19.01	-46.5	-48.0	19.4	0.00e+00	0	41	0	596639744	64	4310
2026-01-22 12:26:27.12	280.34	19.01	-46.5	-47.9	19.5	0.00e+00	0	41	0	598736896	64	4291
2026-01-22 12:26:28.13	280.59	19.01	-46.5	-47.9	19.5	0.00e+00	0	41	0	600834048	64	4261
2026-01-22 12:26:29.14	280.83	19.01	-46.2	-47.6	19.8	0.00e+00	0	41	0	602931200	64	4122
2026-01-22 12:26:30.14	281.07	19.02	-46.2	-47.6	19.8	0.00e+00	0	41	0	605028352	64	4108
2026-01-22 12:26:31.15	281.32	19.02	-46.3	-47.7	19.7	0.00e+00	0	41	0	606076928	64	4159
2026-01-22 12:26:32.16	281.56	19.02	-46.6	-48.0	19.5	0.00e+00	0	41	0	608174080	64	4331
2026-01-22 12:26:33.17	281.81	19.02	-46.5	-47.9	19.6	0.00e+00	0	41	0	610271232	64	4264
2026-01-22 12:26:34.18	282.05	19.02	-46.7	-48.2	19.3	0.00e+00	0	41	0	612368384	64	4424
2026-01-22 12:26:35.19	282.29	19.01	-46.8	-48.3	19.2	0.00e+00	0	41	0	614465536	64	4458
2026-01-22 12:26:36.19	282.54	19.01	-46.9	-48.5	19.0	0.00e+00	0	41	0	615514112	64	4546
2026-01-22 12:26:37.20	282.78	19.01	-46.9	-48.5	19.1	0.00e+00	0	41	0	617611264	64	4551
2026-01-22 12:26:38.21	283.02	19.01	-47.1	-48.6	18.9	0.00e+00	0	41	0	619708416	64	4647
2026-01-22 12:26:39.22	283.27	19.00	-46.9	-48.4	19.0	0.00e+00	0	41	0	621805568	64	4542
2026-01-22 12:26:40.23	283.51	19.00	-47.1	-48.7	18.8	0.00e+00	0	41	0	622854144	64	4705
2026-01-22 12:26:41.23	283.75	19.00	-47.0	-48.6	18.9	0.00e+00	0	41	0	624951296	65	4375
2026-01-22 12:26:42.24	284.00	18.99	-47.2	-48.8	18.8	0.00e+00	0	41	0	627048448	65	4485
2026-01-22 12:26:43.25	284.24	18.98	-46.9	-48.4	19.1	0.00e+00	0	41	0	629145600	65	4290
2026-01-22 12:26:44.26	284.49	18.98	-46.6	-48.1	19.4	0.00e+00	0	41	0	631242752	65	4104
2026-01-22 12:26:45.26	284.73	18.97	-46.3	-47.7	19.8	0.00e+00	0	41	0	633339904	64	4163
2026-01-22 12:26:46.27	284.97	18.97	-46.3	-47.7	19.8	0.00e+00	0	41	0	634388480	64	4180
2026-01-22 12:26:47.28	285.21	18.96	-46.3	-47.7	19.8	0.00e+00	0	41	0	636485632	64	4162
2026-01-22 12:26:48.29	285.46	18.95	-46.4	-47.8	19.7	0.00e+00	0	41	0	638582784	64	4223
2026-01-22 12:26:49.30	285.70	18.94	-46.6	-48.1	19.5	0.00e+00	0	41	0	640679936	64	4344
2026-01-22 12:26:50.30	285.94	18.93	-46.8	-48.3	19.2	0.00e+00	0	41	0	642777088	64	4476
2026-01-22 12:26:51.31	286.18	18.92	-46.9	-48.5	19.1	0.00e+00	0	41	0	643825664	64	4555
2026-01-22 12:26:52.32	286.43	18.91	-46.8	-48.3	19.2	0.00e+00	0	40	0	645922816	64	4492
2026-01-22 12:26:53.32	286.67	18.90	-46.9	-48.4	19.1	0.00e+00	0	41	0	648019968	64	4530
2026-01-22 12:26:54.33	286.91	18.89	-47.0	-48.5	19.1	0.00e+00	0	40	0	650117120	64	4568
2026-01-22 12:26:55.34	287.15	18.88	-47.2	-48.8	18.8	0.00e+00	0	41	0	652214272	65	4483
2026-01-22 12:26:56.35	287.39	18.87	-47.2	-48.8	18.8	0.00e+00	0	41	0	653262848	65	4443
2026-01-22 12:26:57.36	287.64	18.86	-47.1	-48.6	19.0	0.00e+00	0	41	0	655360000	65	4375
2026-01-22 12:26:58.37	287.88	18.84	-47.1	-48.7	18.9	0.00e+00	0	41	0	657457152	65	4409
2026-01-22 12:26:59.37	288.12	18.83	-46.9	-48.3	19.2	0.00e+00	0	41	0	659554304	65	4241
2026-01-22 12:27:00.38	288.36	18.82	-46.9	-48.4	19.2	0.00e+00	0	41	0	661651456	65	4253
2026-01-22 12:27:01.39	288.60	18.80	-46.8	-48.3	19.3	0.00e+00	0	41	0	662700032	65	4214
2026-01-22 12:27:02.40	288.84	18.79	-46.9	-48.4	19.2	0.00e+00	0	41	0	664797184	65	4243
2026-01-22 12:27:03.41	289.08	18.77	-46.7	-48.2	19.4	0.00e+00	0	41	0	666894336	65	4160
2026-01-22 12:27:04.41	289.32	18.76	-46.8	-48.3	19.2	0.00e+00	0	41	0	668991488	65	4220
2026-01-22 12:27:05.42	289.56	18.74	-46.6	-48.1	19.5	0.00e+00	0	41	0	671088640	65	4099
2026-01-22 12:27:06.43	289.80	18.72	-46.5	-47.9	19.7	0.00e+00	0	41	0	672137216	64	4268
2026-01-22 12:27:07.43	290.03	18.71	-46.3	-47.7	19.9	0.00e+00	0	41	0	674234368	64	4149
2026-01-22 12:27:08.44	290.27	18.69	-46.1	-47.5	20.1	0.00e+00	0	41	0	676331520	64	4073
2026-01-22 12:27:09.45	290.51	18.67	-45.9	-47.2	20.4	0.00e+00	0	41	0	678428672	63	4168
2026-01-22 12:27:10.46	290.75	18.65	-45.8	-47.1	20.4	0.00e+00	0	41	0	680525824	63	4126
2026-01-22 12:27:11.46	290.99	18.63	-45.7	-46.9	20.7	0.00e+00	0	41	0	681574400	63	4043
2026-01-22 12:27:12.47	291.23	18.62	-45.9	-47.1	20.5	0.00e+00	0	41	0	683671552	63	4138
2026-01-22 12:27:13.48	291.46	18.60	-45.8	-47.1	20.5	0.00e+00	0	41	0	685768704	63	4112
2026-01-22 12:27:14.49	291.70	18.57	-46.1	-47.4	20.3	0.00e+00	0	41	0	687865856	63	4261
2026-01-22 12:27:15.50	291.94	18.55	-46.3	-47.7	20.0	0.00e+00	0	41	0	689963008	63	4410
2026-01-22 12:27:16.50	292.17	18.53	-46.6	-48.0	19.7	0.00e+00	0	41	0	691011584	63	4571
2026-01-22 12:27:17.51	292.41	18.51	-46.7	-48.1	19.7	0.00e+00	0	41	0	693108736	63	4626
2026-01-22 12:27:18.52	292.65	18.49	-46.6	-48.1	19.5	0.00e+00	0	41	0	695205888	64	4353
2026-01-22 12:27:19.53	292.88	18.47	-46.6	-48.1	19.6	0.00e+00	0	41	0	697303040	64	4341
2026-01-22 12:27:20.54	293.12	18.44	-46.6	-48.1	19.6	0.00e+00	0	41	0	699400192	64	4344
2026-01-22 12:27:21.54	293.35	18.42	-46.6	-48.1	19.5	0.00e+00	0	41	0	701497344	64	4345
2026-01-22 12:27:22.55	293.58	18.40	-46.6	-48.0	19.6	0.00e+00	0	41	0	702545920	64	4314
2026-01-22 12:27:23.56	293.82	18.37	-46.6	-48.1	19.5	0.00e+00	0	41	0	704643072	64	4369
2026-01-22 12:27:24.57	294.05	18.35	-46.6	-48.0	19.6	0.00e+00	0	41	0	706740224	64	4331
2026-01-22 12:27:25.58	294.29	18.32	-46.4	-47.8	19.8	0.00e+00	0	41	0	708837376	64	4228
2026-01-22 12:27:26.59	294.52	18.30	-46.2	-47.6	20.0	0.00e+00	0	40	0	709885952	64	4104
2026-01-22 12:27:27.59	294.75	18.27	-46.2	-47.5	20.1	0.00e+00	0	41	0	711983104	63	4320
2026-01-22 12:27:28.60	294.98	18.24	-46.1	-47.4	20.3	0.00e+00	0	41	0	714080256	63	4250
2026-01-22 12:27:29.61	295.21	18.22	-46.1	-47.4	20.3	0.00e+00	0	41	0	716177408	63	4279
2026-01-22 12:27:30.62	295.45	18.19	-46.3	-47.6	20.1	0.00e+00	0	41	0	718274560	63	4365
2026-01-22 12:27:31.62	295.68	18.16	-46.6	-48.1	19.6	0.00e+00	0	41	0	719323136	63	4614
2026-01-22 12:27:32.63	295.91	18.13	-46.7	-48.2	19.4	0.00e+00	0	41	0	721420288	64	4423
2026-01-22 12:27:33.64	296.14	18.10	-46.9	-48.5	19.1	0.00e+00	0	41	0	723517440	64	4559
2026-01-22 12:27:34.65	296.37	18.07	-46.8	-48.3	19.3	0.00e+00	0	41	0	725614592	64	4452
2026-01-22 12:27:35.65	296.59	18.05	-46.5	-48.0	19.6	0.00e+00	0	40	0	727711744	64	4304
2026-01-22 12:27:36.66	296.82	18.02	-46.4	-47.8	19.8	0.00e+00	0	41	0	729808896	64	4194
2026-01-22 12:27:37.66	297.05	17.99	-46.2	-47.5	20.0	0.00e+00	0	41	0	730857472	64	4088
2026-01-22 12:27:38.67	297.28	17.95	-46.2	-47.6	20.1	0.00e+00	0	41	0	732954624	63	4345
2026-01-22 12:27:39.68	297.51	17.92	-46.0	-47.4	20.2	0.00e+00	0	41	0	735051776	63	4244
2026-01-22 12:27:40.69	297.73	17.89	-46.1	-47.4	20.2	0.00e+00	0	41	0	737148928	63	4288
2026-01-22 12:27:41.70	297.96	17.86	-46.1	-47.4	20.2	0.00e+00	0	41	0	738197504	63	4257
2026-01-22 12:27:42.71	298.19	17.83	-46.1	-47.4	20.2	0.00e+00	0	41	0	740294656	63	4289
2026-01-22 12:27:43.71	298.41	17.80	-46.2	-47.6	20.1	0.00e+00	0	41	0	742391808	63	4344
2026-01-22 12:27:44.72	298.63	17.76	-46.0	-47.3	20.2	0.00e+00	0	41	0	744488960	63	4220
2026-01-22 12:27:45.73	298.86	17.73	-45.6	-46.9	20.6	0.00e+00	0	41	0	746586112	63	4018
2026-01-22 12:27:46.74	299.08	17.70	-45.6	-46.9	20.6	0.00e+00	0	41	0	748683264	63	4007
2026-01-22 12:27:47.74	299.31	17.66	-45.3	-46.5	20.9	0.00e+00	0	41	0	749731840	62	4095
2026-01-22 12:27:48.75	299.53	17.63	-45.5	-46.7	20.7	0.00e+00	0	41	0	751828992	62	4190
2026-01-22 12:27:49.76	299.75	17.59	-45.4	-46.6	20.8	0.00e+00	0	41	0	753926144	62	4123
2026-01-22 12:27:50.77	299.97	17.56	-45.6	-46.9	20.6	0.00e+00	0	41	0	756023296	62	4251
2026-01-22 12:27:51.78	300.20	17.52	-45.7	-47.0	20.5	0.00e+00	0	41	0	758120448	62	4310
2026-01-22 12:27:52.78	300.42	17.49	-45.6	-46.9	20.6	0.00e+00	0	41	0	759169024	62	4261
2026-01-22 12:27:53.79	300.64	17.45	-45.7	-47.0	20.5	0.00e+00	0	41	0	761266176	62	4295
2026-01-22 12:27:54.80	300.86	17.41	-45.6	-46.9	20.6	0.00e+00	0	41	0	763363328	62	4262
2026-01-22 12:27:55.81	301.08	17.38	-45.7	-47.0	20.5	0.00e+00	0	41	0	765460480	62	4303
2026-01-22 12:27:56.82	301.30	17.34	-45.6	-46.8	20.6	0.00e+00	0	41	0	766509056	62	4236
2026-01-22 12:27:57.83	301.51	17.30	-45.5	-46.8	20.6	0.00e+00	0	41	0	768606208	62	4218
2026-01-22 12:27:58.84	301.73	17.26	-45.6	-46.8	20.6	0.00e+00	0	41	0	770703360	62	4240
2026-01-22 12:27:59.85	301.95	17.22	-45.6	-46.9	20.5	0.00e+00	0	41	0	772800512	62	4274
2026-01-22 12:28:00.85	302.16	17.19	-45.6	-46.9	20.6	0.00e+00	0	41	0	774897664	62	4254
2026-01-22 12:28:01.86	302.38	17.15	-45.6	-46.8	20.6	0.00e+00	0	41	0	776994816	62	4232
2026-01-22 12:28:02.87	302.60	17.11	-45.4	-46.7	20.8	0.00e+00	0	41	0	778043392	62	4146
2026-01-22 12:28:03.88	302.81	17.07	-45.3	-46.6	20.8	0.00e+00	0	41	0	780140544	62	4107
2026-01-22 12:28:04.89	303.03	17.03	-45.4	-46.6	20.8	0.00e+00	0	41	0	782237696	62	4135
2026-01-22 12:28:05.89	303.24	16.99	-45.5	-46.7	20.7	0.00e+00	0	41	0	784334848	62	4178
2026-01-22 12:28:06.90	303.45	16.95	-45.6	-46.9	20.5	0.00e+00	0	41	0	786432000	62	4277
2026-01-22 12:28:07.91	303.67	16.91	-45.6	-46.9	20.5	0.00e+00	0	41	0	787480576	62	4275
2026-01-22 12:28:08.92	303.88	16.86	-45.8	-47.1	20.3	0.00e+00	0	41	0	789577728	62	4360
2026-01-22 12:28:09.92	304.09	16.82	-45.7	-47.0	20.4	0.00e+00	0	41	0	791674880	62	4317
2026-01-22 12:28:10.93	304.30	16.78	-45.6	-46.8	20.6	0.00e+00	0	41	0	793772032	62	4228
2026-01-22 12:28:11.94	304.51	16.74	-45.5	-46.7	20.7	0.00e+00	0	41	0	795869184	62	4188
2026-01-22 12:28:12.95	304.72	16.70	-45.4	-46.6	20.8	0.00e+00	0	41	0	796917760	62	4116
2026-01-22 12:28:13.96	304.93	16.65	-45.4	-46.6	20.8	0.00e+00	0	41	0	799014912	62	4135
2026-01-22 12:28:14.96	305.14	16.61	-45.5	-46.7	20.7	0.00e+00	0	41	0	801112064	62	4170
2026-01-22 12:28:15.97	305.35	16.57	-45.6	-46.9	20.5	0.00e+00	0	41	0	803209216	62	4274
2026-01-22 12:28:16.98	305.56	16.53	-45.8	-47.2	20.2	0.00e+00	0	41	0	805306368	62	4397
2026-01-22 12:28:17.99	305.76	16.48	-46.0	-47.3	20.1	0.00e+00	0	41	0	806354944	62	4471
2026-01-22 12:28:19.00	305.97	16.44	-45.9	-47.2	20.2	0.00e+00	0	41	0	808452096	62	4440
2026-01-22 12:28:20.01	306.18	16.39	-45.7	-47.0	20.4	0.00e+00	0	41	0	810549248	62	4292
2026-01-22 12:28:21.01	306.38	16.35	-45.7	-46.9	20.5	0.00e+00	0	41	0	812646400	62	4281
2026-01-22 12:28:22.02	306.59	16.30	-45.6	-46.9	20.4	0.00e+00	0	41	0	814743552	62	4277
2026-01-22 12:28:23.03	306.79	16.26	-45.8	-47.1	20.4	0.00e+00	0	41	0	815792128	62	4343
2026-01-22 12:28:24.03	306.99	16.21	-46.0	-47.4	20.1	0.00e+00	0	41	0	817889280	62	4502
2026-01-22 12:28:25.04	307.19	16.17	-46.2	-47.5	19.9	0.00e+00	0	41	0	819986432	62	4595
2026-01-22 12:28:26.05	307.40	16.12	-46.6	-48.1	19.4	0.00e+00	0	41	0	822083584	63	4633
2026-01-22 12:28:27.06	307.60	16.08	-46.7	-48.3	19.1	0.00e+00	0	41	0	824180736	64	4448
2026-01-22 12:28:28.06	307.80	16.03	-46.8	-48.4	19.1	0.00e+00	0	41	0	825229312	64	4502
2026-01-22 12:28:29.07	308.00	15.98	-46.8	-48.3	19.1	0.00e+00	0	41	0	827326464	64	4483
2026-01-22 12:28:30.08	308.20	15.94	-46.7	-48.3	19.1	0.00e+00	0	41	0	829423616	64	4448
2026-01-22 12:28:31.09	308.40	15.89	-46.4	-47.9	19.5	0.00e+00	0	41	0	831520768	64	4256
2026-01-22 12:28:32.10	308.60	15.84	-46.3	-47.8	19.6	0.00e+00	0	41	0	833617920	64	4209
2026-01-22 12:28:33.11	308.80	15.79	-46.5	-47.9	19.4	0.00e+00	0	41	0	834666496	64	4280
2026-01-22 12:28:34.11	308.99	15.75	-46.0	-47.4	19.9	0.00e+00	0	41	0	836763648	64	4014
2026-01-22 12:28:35.12	309.19	15.70	-46.1	-47.4	20.0	0.00e+00	0	41	0	838860800	63	4282
2026-01-22 12:28:36.13	309.39	15.65	-46.1	-47.5	20.0	0.00e+00	0	41	0	840957952	63	4292
2026-01-22 12:28:37.14	309.58	15.60	-46.0	-47.4	20.1	0.00e+00	0	41	0	843055104	63	4248
2026-01-22 12:28:38.14	309.78	15.55	-45.9	-47.2	20.1	0.00e+00	0	41	0	844103680	63	4171
2026-01-22 12:28:39.15	309.97	15.51	-45.9	-47.2	20.2	0.00e+00	0	41	0	846200832	63	4191
2026-01-22 12:28:40.16	310.16	15.46	-45.9	-47.2	20.2	0.00e+00	0	41	0	848297984	63	4157
2026-01-22 12:28:41.17	310.36	15.41	-45.9	-47.2	20.2	0.00e+00	0	41	0	850395136	63	4175
2026-01-22 12:28:42.18	310.55	15.36	-46.1	-47.5	19.9	0.00e+00	0	41	0	852492288	63	4315
2026-01-22 12:28:43.18	310.74	15.31	-46.4	-47.9	19.5	0.00e+00	0	41	0	853540864	63	4514
2026-01-22 12:28:44.19	310.93	15.26	-46.7	-48.2	19.2	0.00e+00	0	41	0	855638016	64	4411
2026-01-22 12:28:45.20	311.12	15.21	-46.9	-48.4	18.9	0.00e+00	0	41	0	857735168	64	4541
2026-01-22 12:28:46.21	311.31	15.16	-47.3	-49.0	18.4	0.00e+00	0	41	0	859832320	65	4571
2026-01-22 12:28:47.22	311.50	15.11	-47.5	-49.3	18.2	0.00e+00	0	41	0	861929472	65	4717
2026-01-22 12:28:48.22	311.69	15.06	-47.6	-49.4	18.0	0.00e+00	0	41	0	862978048	66	4543
2026-01-22 12:28:49.23	311.88	15.01	-47.5	-49.3	18.1	0.00e+00	0	41	0	865075200	66	4451
2026-01-22 12:28:50.24	312.07	14.96	-47.4	-49.2	18.2	0.00e+00	0	41	0	867172352	66	4406
2026-01-22 12:28:51.25	312.25	14.90	-47.2	-48.8	18.5	0.00e+00	0	41	0	869269504	66	4228
2026-01-22 12:28:52.26	312.44	14.85	-46.8	-48.4	18.9	0.00e+00	0	41	0	871366656	65	4265
2026-01-22 12:28:53.26	312.62	14.80	-46.8	-48.3	19.0	0.00e+00	0	41	0	872415232	65	4231
2026-01-22 12:28:54.27	312.81	14.75	-46.5	-48.0	19.3	0.00e+00	0	41	0	874512384	65	4083
2026-01-22 12:28:55.28	312.99	14.70	-46.4	-47.9	19.3	0.00e+00	0	41	0	876609536	64	4274
2026-01-22 12:28:56.29	313.18	14.65	-46.4	-47.8	19.4	0.00e+00	0	41	0	878706688	64	4231
2026-01-22 12:28:57.30	313.36	14.59	-46.3	-47.7	19.5	0.00e+00	0	41	0	880803840	64	4192
2026-01-22 12:28:58.30	313.54	14.54	-46.3	-47.7	19.6	0.00e+00	0	41	0	881852416	64	4165
2026-01-22 12:28:59.31	313.72	14.49	-46.3	-47.7	19.6	0.00e+00	0	41	0	883949568	64	4158
2026-01-22 12:29:00.32	313.91	14.44	-46.2	-47.6	19.6	0.00e+00	0	41	0	886046720	64	4134
2026-01-22 12:29:01.33	314.09	14.38	-46.3	-47.7	19.5	0.00e+00	0	41	0	888143872	64	4171
2026-01-22 12:29:02.34	314.27	14.33	-46.2	-47.7	19.5	0.00e+00	0	41	0	890241024	64	4146
2026-01-22 12:29:03.34	314.45	14.28	-46.4	-47.8	19.4	0.00e+00	0	41	0	892338176	64	4225
2026-01-22 12:29:04.35	314.62	14.23	-46.6	-48.1	19.1	0.00e+00	0	41	0	893386752	64	4373
2026-01-22 12:29:05.36	314.80	14.17	-46.7	-48.3	19.0	0.00e+00	0	41	0	895483904	64	4455
2026-01-22 12:29:06.37	314.98	14.12	-46.6	-48.2	19.1	0.00e+00	0	41	0	897581056	64	4401
2026-01-22 12:29:07.38	315.16	14.07	-46.8	-48.4	18.9	0.00e+00	0	41	0	899678208	64	4503
2026-01-22 12:29:08.38	315.33	14.01	-46.7	-48.2	19.0	0.00e+00	0	41	0	900726784	64	4411
2026-01-22 12:29:09.39	315.51	13.96	-46.5	-48.1	19.2	0.00e+00	0	41	0	902823936	64	4341
2026-01-22 12:29:10.40	315.68	13.90	-46.5	-48.0	19.2	0.00e+00	0	41	0	904921088	64	4335
2026-01-22 12:29:11.41	315.86	13.85	-46.4	-47.9	19.3	0.00e+00	0	41	0	907018240	64	4265
2026-01-22 12:29:12.42	316.03	13.80	-46.7	-48.3	19.0	0.00e+00	0	41	0	909115392	64	4454
2026-01-22 12:29:13.42	316.20	13.74	-46.7	-48.3	18.9	0.00e+00	0	41	0	910163968	64	4475
2026-01-22 12:29:14.43	316.38	13.69	-46.9	-48.5	18.7	0.00e+00	0	41	0	912261120	64	4589
2026-01-22 12:29:15.44	316.55	13.63	-46.7	-48.2	19.0	0.00e+00	0	41	0	914358272	64	4422
2026-01-22 12:29:16.45	316.72	13.58	-46.9	-48.5	18.7	0.00e+00	0	41	0	916455424	64	4574
2026-01-22 12:29:17.46	316.89	13.52	-46.7	-48.2	19.0	0.00e+00	0	41	0	918552576	64	4410
2026-01-22 12:29:18.46	317.06	13.47	-46.5	-48.0	19.2	0.00e+00	0	41	0	920649728	64	4329
2026-01-22 12:29:19.47	317.23	13.42	-46.5	-48.0	19.2	0.00e+00	0	41	0	921698304	64	4331
2026-01-22 12:29:20.48	317.40	13.36	-46.3	-47.7	19.3	0.00e+00	0	41	0	923795456	64	4192
2026-01-22 12:29:21.49	317.57	13.30	-46.3	-47.8	19.4	0.00e+00	0	41	0	925892608	64	4203
2026-01-22 12:29:22.50	317.74	13.25	-46.4	-47.9	19.3	0.00e+00	0	41	0	927989760	64	4257
2026-01-22 12:29:23.51	317.90	13.19	-46.4	-47.9	19.3	0.00e+00	0	41	0	929038336	64	4247
2026-01-22 12:29:24.51	318.07	13.14	-46.6	-48.2	19.0	0.00e+00	0	41	0	931135488	64	4416
2026-01-22 12:29:25.52	318.24	13.08	-46.5	-48.0	19.1	0.00e+00	0	41	0	933232640	64	4336
2026-01-22 12:29:26.52	318.40	13.03	-46.5	-48.1	19.1	0.00e+00	0	41	0	935329792	64	4347
2026-01-22 12:29:27.53	318.56	12.97	-46.5	-48.0	19.2	0.00e+00	0	41	0	937426944	64	4314
2026-01-22 12:29:28.54	318.73	12.92	-46.4	-47.9	19.3	0.00e+00	0	41	0	939524096	64	4246
2026-01-22 12:29:29.55	318.89	12.86	-46.2	-47.6	19.5	0.00e+00	0	41	0	940572672	64	4131
2026-01-22 12:29:30.56	319.06	12.81	-46.0	-47.4	19.8	0.00e+00	0	41	0	942669824	63	4272
2026-01-22 12:29:31.56	319.22	12.75	-46.0	-47.4	19.8	0.00e+00	0	41	0	944766976	63	4267
2026-01-22 12:29:32.57	319.38	12.69	-45.9	-47.3	19.9	0.00e+00	0	41	0	946864128	63	4194
2026-01-22 12:29:33.58	319.54	12.64	-46.1	-47.4	19.7	0.00e+00	0	41	0	948961280	63	4290
2026-01-22 12:29:34.59	319.70	12.58	-46.0	-47.4	19.8	0.00e+00	0	41	0	950009856	63	4273
2026-01-22 12:29:35.60	319.86	12.52	-46.0	-47.5	19.8	0.00e+00	0	41	0	952107008	63	4299
2026-01-22 12:29:36.60	320.02	12.47	-46.2	-47.6	19.6	0.00e+00	0	41	0	954204160	63	4375
2026-01-22 12:29:37.61	320.18	12.41	-46.0	-47.4	19.7	0.00e+00	0	41	0	956301312	63	4285
2026-01-22 12:29:38.62	320.34	12.36	-46.3	-47.7	19.4	0.00e+00	0	41	0	957349888	63	4439
2026-01-22 12:29:39.63	320.49	12.30	-46.3	-47.7	19.4	0.00e+00	0	41	0	959447040	63	4419
2026-01-22 12:29:40.64	320.65	12.24	-46.1	-47.5	19.6	0.00e+00	0	41	0	961544192	63	4338
2026-01-22 12:29:41.65	320.81	12.19	-46.2	-47.6	19.5	0.00e+00	0	41	0	963641344	63	4375
2026-01-22 12:29:42.65	320.96	12.13	-46.0	-47.4	19.7	0.00e+00	0	41	0	965738496	63	4261
2026-01-22 12:29:43.66	321.12	12.07	-46.0	-47.4	19.8	0.00e+00	0	41	0	967835648	63	4243
2026-01-22 12:29:44.66	321.27	12.02	-46.0	-47.4	19.7	0.00e+00	0	41	0	968884224	63	4287
2026-01-22 12:29:45.67	321.42	11.96	-45.9	-47.3	19.8	0.00e+00	0	41	0	970981376	63	4232
2026-01-22 12:29:46.67	321.58	11.90	-46.1	-47.5	19.6	0.00e+00	0	41	0	973078528	63	4329
2026-01-22 12:29:47.68	321.73	11.85	-46.1	-47.6	19.5	0.00e+00	0	41	0	975175680	63	4348
2026-01-22 12:29:48.69	321.88	11.79	-46.2	-47.6	19.5	0.00e+00	0	41	0	977272832	63	4373
2026-01-22 12:29:49.70	322.03	11.73	-46.2	-47.6	19.4	0.00e+00	0	41	0	978321408	63	4385
2026-01-22 12:29:50.71	322.19	11.68	-46.1	-47.5	19.6	0.00e+00	0	41	0	980418560	63	4324
2026-01-22 12:29:51.72	322.34	11.62	-45.6	-47.0	20.1	0.00e+00	0	41	0	982515712	63	4052
2026-01-22 12:29:52.72	322.49	11.56	-45.6	-46.9	20.1	0.00e+00	0	41	0	984612864	63	4051
2026-01-22 12:29:53.73	322.64	11.50	-45.4	-46.7	20.4	0.00e+00	0	41	0	986710016	62	4150
2026-01-22 12:29:54.74	322.78	11.45	-45.2	-46.5	20.5	0.00e+00	0	41	0	987758592	62	4057
2026-01-22 12:29:55.75	322.93	11.39	-45.2	-46.5	20.5	0.00e+00	0	41	0	989855744	62	4055
2026-01-22 12:29:56.76	323.08	11.33	-45.3	-46.5	20.5	0.00e+00	0	41	0	991952896	62	4082
2026-01-22 12:29:57.76	323.23	11.27	-45.2	-46.5	20.5	0.00e+00	0	41	0	994050048	62	4052
2026-01-22 12:29:58.77	323.37	11.22	-45.3	-46.6	20.4	0.00e+00	0	41	0	996147200	62	4119
2026-01-22 12:29:59.78	323.52	11.16	-45.3	-46.5	20.4	0.00e+00	0	41	0	997195776	62	4097
2026-01-22 12:30:00.79	323.67	11.10	-45.5	-46.8	20.2	0.00e+00	0	41	0	999292928	62	4228
2026-01-22 12:30:01.80	323.81	11.05	-45.6	-47.0	20.0	0.00e+00	0	41	0	1001390080	62	4305
2026-01-22 12:30:02.80	323.96	10.99	-45.6	-47.0	20.0	0.00e+00	0	41	0	1003487232	62	4313
2026-01-22 12:30:03.81	324.10	10.93	-45.6	-46.9	20.1	0.00e+00	0	41	0	1005584384	62	4257
2026-01-22 12:30:04.82	324.24	10.87	-45.7	-47.1	19.9	0.00e+00	0	41	0	1006632960	62	4377
2026-01-22 12:30:05.83	324.39	10.82	-45.7	-47.0	20.0	0.00e+00	0	41	0	1008730112	62	4330
2026-01-22 12:30:06.84	324.53	10.76	-45.8	-47.1	19.8	0.00e+00	0	41	0	1010827264	62	4387
2026-01-22 12:30:07.84	324.67	10.70	-45.8	-47.2	19.8	0.00e+00	0	41	0	1012924416	62	4398
2026-01-22 12:30:08.85	324.81	10.64	-45.8	-47.3	19.7	0.00e+00	0	41	0	1015021568	62	4446
2026-01-22 12:30:09.86	324.95	10.59	-46.2	-47.6	19.4	0.00e+00	0	41	0	1016070144	62	4649
2026-01-22 12:30:10.87	325.09	10.53	-46.3	-47.8	19.2	0.00e+00	0	41	0	1018167296	63	4484
2026-01-22 12:30:11.88	325.23	10.47	-46.5	-48.0	19.0	0.00e+00	0	41	0	1020264448	63	4591
2026-01-22 12:30:12.88	325.37	10.41	-46.7	-48.3	18.7	0.00e+00	0	41	0	1022361600	64	4471
2026-01-22 12:30:13.89	325.51	10.35	-46.6	-48.3	18.6	0.00e+00	0	41	0	1024458752	64	4458
2026-01-22 12:30:14.90	325.65	10.30	-46.6	-48.2	18.8	0.00e+00	0	41	0	1025507328	64	4402
2026-01-22 12:30:15.90	325.78	10.24	-46.4	-47.9	19.0	0.00e+00	0	41	0	1027604480	64	4282
2026-01-22 12:30:16.91	325.92	10.18	-46.3	-47.9	19.0	0.00e+00	0	41	0	1029701632	64	4263
2026-01-22 12:30:17.92	326.06	10.12	-46.0	-47.5	19.4	0.00e+00	0	41	0	1031798784	64	4061
2026-01-22 12:30:18.93	326.19	10.07	-45.9	-47.3	19.6	0.00e+00	0	41	0	1033895936	63	4216
2026-01-22 12:30:19.94	326.33	10.01	-45.9	-47.3	19.7	0.00e+00	0	41	0	1035993088	63	4208
2026-01-22 12:30:20.94	326.46	9.95	-45.8	-47.2	19.7	0.00e+00	0	41	0	1037041664	63	4159
2026-01-22 12:30:21.95	326.60	9.89	-45.7	-47.1	19.8	0.00e+00	0	41	0	1039138816	63	4131
2026-01-22 12:30:22.96	326.73	9.84	-45.6	-47.0	19.9	0.00e+00	0	41	0	1041235968	63	4070
2026-01-22 12:30:23.97	326.87	9.78	-45.7	-47.0	19.9	0.00e+00	0	41	0	1043333120	63	4089
2026-01-22 12:30:24.98	327.00	9.72	-46.0	-47.4	19.5	0.00e+00	0	41	0	1044381696	63	4268
2026-01-22 12:30:25.98	327.13	9.66	-46.4	-47.9	19.1	0.00e+00	0	41	0	1046478848	63	4509
2026-01-22 12:30:26.99	327.26	9.61	-46.5	-48.0	18.9	0.00e+00	0	41	0	1048576000	63	4583
2026-01-22 12:30:28.00	327.39	9.55	-46.7	-48.3	18.6	0.00e+00	0	41	0	1050673152	64	4486
2026-01-22 12:30:29.01	327.53	9.49	-46.8	-48.5	18.4	0.00e+00	0	41	0	1052770304	64	4559
2026-01-22 12:30:30.02	327.66	9.43	-46.8	-48.4	18.5	0.00e+00	0	41	0	1053818880	64	4536
2026-01-22 12:30:31.02	327.79	9.38	-46.8	-48.6	18.3	0.00e+00	0	41	0	1055916032	64	4602
2026-01-22 12:30:32.03	327.91	9.32	-46.7	-48.3	18.5	0.00e+00	0	41	0	1058013184	64	4482
2026-01-22 12:30:33.04	328.04	9.26	-46.4	-48.0	18.8	0.00e+00	0	41	0	1060110336	64	4334
2026-01-22 12:30:34.04	328.17	9.20	-46.6	-48.2	18.6	0.00e+00	0	41	0	1062207488	64	4440
2026-01-22 12:30:35.05	328.30	9.15	-46.7	-48.4	18.4	0.00e+00	0	41	0	1064304640	64	4512
2026-01-22 12:30:36.06	328.43	9.09	-46.7	-48.3	18.5	0.00e+00	0	41	0	1065353216	64	4485
2026-01-22 12:30:37.07	328.55	9.03	-46.7	-48.4	18.5	0.00e+00	0	41	0	1067450368	64	4502
2026-01-22 12:30:38.08	328.68	8.97	-46.7	-48.3	18.5	0.00e+00	0	41	0	1069547520	64	4489
2026-01-22 12:30:39.08	328.81	8.92	-46.9	-48.6	18.2	0.00e+00	0	41	0	1071644672	64	4623
2026-01-22 12:30:40.09	328.93	8.86	-46.9	-48.7	18.2	0.00e+00	0	41	0	1072693248	64	4658
2026-01-22 12:30:41.10	329.06	8.80	-47.1	-48.9	17.9	0.00e+00	0	41	0	1074790400	64	4792
2026-01-22 12:30:42.11	329.18	8.74	-47.1	-49.0	17.9	0.00e+00	0	41	0	1076887552	64	4820
2026-01-22 12:30:43.12	329.31	8.68	-47.0	-48.8	18.0	0.00e+00	0	41	0	1078984704	65	4483
2026-01-22 12:30:44.12	329.43	8.63	-47.0	-48.7	18.1	0.00e+00	0	41	0	1081081856	65	4438
2026-01-22 12:30:45.13	329.55	8.57	-46.9	-48.7	18.1	0.00e+00	0	41	0	1083179008	65	4420
2026-01-22 12:30:46.14	329.68	8.51	-47.0	-48.7	18.1	0.00e+00	0	41	0	1084227584	65	4437
2026-01-22 12:30:47.15	329.80	8.46	-46.9	-48.6	18.1	0.00e+00	0	41	0	1086324736	65	4386
2026-01-22 12:30:48.16	329.92	8.40	-46.9	-48.7	18.1	0.00e+00	0	41	0	1088421888	65	4401
2026-01-22 12:30:49.17	330.04	8.34	-47.0	-48.7	18.0	0.00e+00	0	41	0	1090519040	65	4434
2026-01-22 12:30:50.18	330.16	8.28	-47.1	-48.9	17.9	0.00e+00	0	41	0	1092616192	65	4533
2026-01-22 12:30:51.18	330.28	8.23	-47.4	-49.3	17.5	0.00e+00	0	41	0	1093664768	65	4729
2026-01-22 12:30:52.19	330.40	8.17	-47.1	-48.9	17.9	0.00e+00	0	41	0	1095761920	65	4538
2026-01-22 12:30:53.20	330.52	8.11	-47.2	-49.1	17.7	0.00e+00	0	41	0	1097859072	65	4634
2026-01-22 12:30:54.21	330.64	8.05	-47.3	-49.2	17.6	0.00e+00	0	41	0	1099956224	65	4699
2026-01-22 12:30:55.22	330.76	8.00	-47.4	-49.3	17.5	0.00e+00	0	41	0	1101004800	65	4759
2026-01-22 12:30:56.22	330.88	7.94	-47.4	-49.3	17.4	0.00e+00	0	41	0	1103101952	65	4748
2026-01-22 12:30:57.23	331.00	7.88	-47.4	-49.3	17.4	0.00e+00	0	41	0	1105199104	65	4728
2026-01-22 12:30:58.24	331.11	7.83	-47.1	-48.9	17.9	0.00e+00	0	41	0	1107296256	65	4509
2026-01-22 12:30:59.25	331.23	7.77	-46.9	-48.7	18.1	0.00e+00	0	41	0	1109393408	65	4405
2026-01-22 12:31:00.25	331.35	7.71	-46.7	-48.4	18.3	0.00e+00	0	41	0	1111490560	65	4249
2026-01-22 12:31:01.26	331.46	7.66	-46.6	-48.3	18.4	0.00e+00	0	41	0	1112539136	65	4219
2026-01-22 12:31:02.27	331.58	7.60	-46.5	-48.1	18.6	0.00e+00	0	41	0	1114636288	64	4362
2026-01-22 12:31:03.28	331.69	7.54	-46.4	-48.0	18.7	0.00e+00	0	40	0	1116733440	64	4309
2026-01-22 12:31:04.29	331.81	7.48	-46.3	-47.9	18.7	0.00e+00	0	41	0	1118830592	64	4275
2026-01-22 12:31:05.30	331.92	7.43	-46.4	-48.0	18.7	0.00e+00	0	41	0	1120927744	64	4330
2026-01-22 12:31:06.31	332.04	7.37	-46.4	-48.0	18.6	0.00e+00	0	40	0	1121976320	64	4339
2026-01-22 12:31:07.32	332.15	7.31	-46.6	-48.3	18.4	0.00e+00	0	41	0	1124073472	64	4459
2026-01-22 12:31:08.32	332.26	7.26	-46.8	-48.5	18.2	0.00e+00	0	41	0	1126170624	64	4593
2026-01-22 12:31:09.33	332.38	7.20	-47.0	-48.7	18.0	0.00e+00	0	41	0	1128267776	64	4699
2026-01-22 12:31:10.34	332.49	7.14	-47.3	-49.2	17.5	0.00e+00	0	41	0	1130364928	65	4668
2026-01-22 12:31:11.35	332.60	7.09	-47.5	-49.4	17.3	0.00e+00	0	41	0	1131413504	65	4807
2026-01-22 12:31:12.36	332.71	7.03	-47.5	-49.5	17.2	0.00e+00	0	41	0	1133510656	65	4829
2026-01-22 12:31:13.37	332.82	6.97	-47.6	-49.6	17.1	0.00e+00	0	41	0	1135607808	65	4900
2026-01-22 12:31:14.38	332.93	6.92	-47.5	-49.5	17.2	0.00e+00	0	41	0	1137704960	66	4585
2026-01-22 12:31:15.38	333.04	6.86	-47.4	-49.3	17.3	0.00e+00	0	41	0	1139802112	66	4484
2026-01-22 12:31:16.39	333.15	6.80	-47.3	-49.2	17.4	0.00e+00	0	41	0	1140850688	66	4436
2026-01-22 12:31:17.40	333.26	6.75	-47.2	-49.1	17.6	0.00e+00	0	41	0	1142947840	66	4355
2026-01-22 12:31:18.41	333.37	6.69	-47.1	-49.0	17.7	0.00e+00	0	41	0	1145044992	66	4293
2026-01-22 12:31:19.42	333.48	6.63	-47.1	-49.0	17.6	0.00e+00	0	41	0	1147142144	66	4304
2026-01-22 12:31:20.43	333.59	6.58	-46.9	-48.6	18.0	0.00e+00	0	41	0	1149239296	65	4382
2026-01-22 12:31:21.44	333.70	6.52	-46.8	-48.6	18.0	0.00e+00	0	41	0	1150287872	65	4363
2026-01-22 12:31:22.44	333.80	6.47	-46.9	-48.7	17.9	0.00e+00	0	41	0	1152385024	65	4398
2026-01-22 12:31:23.45	333.91	6.41	-47.1	-49.0	17.6	0.00e+00	0	41	0	1154482176	65	4565
2026-01-22 12:31:24.46	334.02	6.35	-47.2	-49.1	17.5	0.00e+00	0	41	0	1156579328	65	4645
2026-01-22 12:31:25.47	334.12	6.30	-47.1	-49.0	17.6	0.00e+00	0	41	0	1158676480	65	4567
2026-01-22 12:31:26.48	334.23	6.24	-47.3	-49.2	17.3	1.74e-04	0	41	0	1159725056	65	4694
2026-01-22 12:31:27.49	334.33	6.18	-47.3	-49.2	17.4	0.00e+00	0	41	0	1161822208	65	4687
2026-01-22 12:31:28.49	334.44	6.13	-47.2	-49.1	17.4	6.10e-06	0	41	0	1163919360	65	4635
2026-01-22 12:31:29.50	334.54	6.07	-47.4	-49.4	17.2	0.00e+00	0	41	0	1166016512	65	4783
2026-01-22 12:31:30.51	334.65	6.02	-47.6	-49.7	16.9	0.00e+00	0	41	0	1168113664	65	4946
2026-01-22 12:31:31.52	334.75	5.96	-47.6	-49.6	16.8	0.00e+00	0	41	0	1169162240	66	4637
2026-01-22 12:31:32.53	334.86	5.91	-47.8	-49.9	16.6	0.00e+00	0	41	0	1171259392	66	4800
2026-01-22 12:31:33.54	334.96	5.85	-47.6	-49.7	16.9	0.00e+00	0	41	0	1173356544	66	4662
2026-01-22 12:31:34.54	335.06	5.79	-47.4	-49.5	17.0	0.00e+00	0	41	0	1175453696	66	4555
2026-01-22 12:31:35.55	335.16	5.74	-47.4	-49.4	17.1	0.00e+00	0	41	0	1177550848	66	4502
2026-01-22 12:31:36.56	335.27	5.68	-47.6	-49.7	16.8	0.00e+00	0	41	0	1178599424	66	4675
2026-01-22 12:31:37.57	335.37	5.63	-47.6	-49.7	16.7	0.00e+00	0	41	0	1180696576	66	4684
2026-01-22 12:31:38.58	335.47	5.57	-47.6	-49.6	16.8	0.00e+00	0	41	0	1182793728	66	4642
2026-01-22 12:31:39.58	335.57	5.52	-47.5	-49.6	16.9	0.00e+00	0	41	0	1184890880	66	4614
2026-01-22 12:31:40.59	335.67	5.46	-48.1	-50.4	16.0	0.00e+00	0	41	0	1186988032	66	5076
2026-01-22 12:31:41.60	335.77	5.41	-48.3	-50.8	15.7	0.00e+00	0	41	0	1188036608	67	5039
2026-01-22 12:31:42.61	335.87	5.35	-48.2	-50.6	15.9	0.00e+00	0	41	0	1190133760	67	4882
2026-01-22 12:31:43.62	335.97	5.29	-48.3	-50.8	15.7	0.00e+00	0	41	0	1192230912	67	4987
2026-01-22 12:31:44.62	336.07	5.24	-48.6	-51.3	15.1	0.00e+00	0	41	0	1194328064	67	5291
2026-01-22 12:31:45.63	336.17	5.18	-48.7	-51.5	15.0	0.00e+00	0	41	0	1196425216	68	5115
2026-01-22 12:31:46.64	336.26	5.13	-48.8	-51.6	14.9	0.00e+00	0	41	0	1198522368	68	5178
2026-01-22 12:31:47.65	336.36	5.07	-48.8	-51.6	14.9	0.00e+00	0	41	0	1199570944	68	5196
2026-01-22 12:31:48.66	336.46	5.02	-48.6	-51.4	15.1	0.00e+00	0	41	0	1201668096	68	5043
2026-01-22 12:31:49.66	336.56	4.96	-52.3	-62.7	5.5	3.82e-04	0	41	0	1203765248	75	12394
2026-01-22 12:31:50.67	336.65	4.91	-53.0	-68.1	3.8	1.49e+00	0	41	104	1203765248	76	21791
2026-01-22 12:31:51.68	336.75	4.85	-53.3	-68.3	3.8	1.49e+00	0	41	104	1203765248	77	21141
2026-01-22 12:31:52.69	336.85	4.80	-53.5	-68.5	3.8	1.49e+00	0	41	104	1203765248	77	21596
2026-01-22 12:31:53.70	336.94	4.74	-53.6	-68.6	3.8	1.49e+00	0	41	104	1203765248	77	21822
2026-01-22 12:31:54.71	337.04	4.69	-53.6	-68.7	3.8	1.49e+00	0	41	104	1203765248	77	22037
2026-01-22 12:31:55.72	337.14	4.64	-53.7	-68.7	3.8	1.49e+00	0	41	104	1203765248	77	22208
