passes_logs/2026/01/22/R3.2S_Murmansk/R3.2S_Murmansk__20260122_080806_KANOPUS-V_5_rec.log

#Pass ID: 20260122_080806_KANOPUS-V 5
#Satellite: KANOPUS-V 5
#Configuration: KANOPUS-V_8320
#almurnet v.1.7.20251203
#Start time: 2026-01-22 08:08:05

#Version: 2.2.20231116
#Station: R3.2S_Murmansk
#Location: 33.079688 lon 68.888172 lat
#TLE: 1 43876U 18111A   26021.54180787  .00007275  00000+0  30771-3 0  9992
#TLE: 2 43876  97.3683 289.9378 0001818  88.0577 272.0869 15.23499060392462

#Time	Az	El	Level	Level2	SNR	BER	BlckErr	Temp	State	Recorded	gain1	gain2
2026-01-22 08:08:05.83	169.57	1.98	-55.1	-63.9	3.8	7.44e-01	0	39	0	0	81	10159
2026-01-22 08:08:06.82	169.60	2.05	-54.9	-63.8	3.8	7.46e-01	0	39	104	0	81	10013
2026-01-22 08:08:07.83	169.62	2.12	-54.9	-63.7	3.8	7.45e-01	0	39	104	0	81	9939
2026-01-22 08:08:08.84	169.65	2.19	-54.9	-63.7	3.8	7.45e-01	0	39	104	0	81	9887
2026-01-22 08:08:09.85	169.68	2.26	-54.8	-63.7	3.8	7.45e-01	0	39	104	0	81	9851
2026-01-22 08:08:10.86	169.70	2.33	-54.7	-63.6	3.8	7.47e-01	0	39	104	0	81	9767
2026-01-22 08:08:11.86	169.73	2.40	-54.7	-63.5	3.8	7.47e-01	0	39	104	0	81	9648
2026-01-22 08:08:12.87	169.76	2.47	-54.6	-63.5	3.8	7.44e-01	0	39	104	0	81	9625
2026-01-22 08:08:13.88	169.78	2.54	-54.5	-63.4	3.8	7.46e-01	0	39	104	0	81	9525
2026-01-22 08:08:14.89	169.81	2.62	-54.4	-63.3	3.8	7.44e-01	0	39	104	0	80	9969
2026-01-22 08:08:15.90	169.84	2.69	-54.2	-63.1	3.8	7.46e-01	0	39	104	0	80	9735
2026-01-22 08:08:16.91	169.87	2.76	-54.1	-62.9	3.8	7.45e-01	0	40	104	0	80	9551
2026-01-22 08:08:17.91	169.89	2.83	-53.7	-62.4	3.8	7.47e-01	0	39	104	0	79	9590
2026-01-22 08:08:18.92	169.92	2.91	-53.6	-62.4	3.8	7.46e-01	0	39	104	0	79	9520
2026-01-22 08:08:19.93	169.95	2.98	-53.6	-62.3	3.8	7.45e-01	0	40	104	0	79	9495
2026-01-22 08:08:20.94	169.98	3.05	-53.6	-62.3	3.8	7.45e-01	0	40	104	0	79	9471
2026-01-22 08:08:21.94	170.00	3.13	-53.6	-62.4	3.8	7.45e-01	0	40	104	0	79	9521
2026-01-22 08:08:22.95	170.03	3.20	-53.6	-62.3	3.8	7.44e-01	0	40	104	0	79	9491
2026-01-22 08:08:23.96	170.06	3.28	-53.6	-62.4	3.8	7.45e-01	0	40	104	0	79	9532
2026-01-22 08:08:24.97	170.09	3.35	-53.5	-62.4	3.8	7.44e-01	0	39	104	0	79	9558
2026-01-22 08:08:25.98	170.12	3.43	-53.5	-62.2	3.8	7.46e-01	0	40	104	0	79	9388
2026-01-22 08:08:26.99	170.15	3.50	-53.5	-62.0	3.8	7.44e-01	0	39	104	0	78	9691
2026-01-22 08:08:27.99	170.18	3.58	-53.4	-62.0	3.8	7.43e-01	0	40	104	0	78	9654
2026-01-22 08:08:29.00	170.21	3.65	-53.4	-61.8	3.8	7.46e-01	0	40	104	0	78	9397
2026-01-22 08:08:30.01	170.24	3.73	-53.4	-61.5	3.8	7.46e-01	0	40	104	0	78	9162
2026-01-22 08:08:31.02	170.27	3.80	-53.4	-61.8	3.8	7.45e-01	0	40	104	0	78	9403
2026-01-22 08:08:32.02	170.30	3.88	-53.4	-61.8	3.8	7.46e-01	0	40	104	0	78	9444
2026-01-22 08:08:33.03	170.33	3.96	-53.3	-61.3	3.8	7.44e-01	0	40	104	0	78	8927
2026-01-22 08:08:34.04	170.36	4.03	-53.1	-60.7	3.8	7.44e-01	0	40	104	0	78	8305
2026-01-22 08:08:35.05	170.39	4.11	-52.4	-58.6	3.9	7.40e-01	0	40	104	0	76	7302
2026-01-22 08:08:36.06	170.42	4.19	-51.8	-57.1	4.8	7.06e-01	0	40	104	0	75	6510
2026-01-22 08:08:37.06	170.45	4.27	-50.6	-54.7	6.6	6.48e-01	0	40	0	10485760	73	5575
2026-01-22 08:08:38.07	170.48	4.35	-49.9	-53.6	7.8	5.99e-01	0	40	0	25165824	71	5468
2026-01-22 08:08:39.08	170.51	4.43	-49.0	-52.1	9.0	6.07e-01	0	40	0	41943040	69	5215
2026-01-22 08:08:40.09	170.54	4.50	-48.1	-50.9	10.4	6.03e-01	0	40	0	56623104	67	5088
2026-01-22 08:08:41.10	170.57	4.58	-47.3	-49.9	11.3	5.97e-01	0	40	0	71303168	65	5095
2026-01-22 08:08:42.10	170.60	4.66	-46.5	-49.0	12.1	5.95e-01	0	40	0	88080384	64	4855
2026-01-22 08:08:43.11	170.64	4.74	-45.7	-48.0	13.1	5.92e-01	0	40	0	102760448	63	4586
2026-01-22 08:08:44.12	170.67	4.82	-45.7	-48.0	13.1	5.92e-01	0	40	0	117440512	63	4583
2026-01-22 08:08:45.12	170.70	4.90	-45.6	-47.9	13.2	5.92e-01	0	40	0	134217728	62	4787
2026-01-22 08:08:46.13	170.73	4.98	-45.8	-48.2	12.9	5.93e-01	0	40	0	150994944	62	4959
2026-01-22 08:08:47.14	170.77	5.07	-46.7	-49.2	11.9	5.94e-01	0	40	0	165675008	64	4977
2026-01-22 08:08:48.15	170.80	5.15	-46.4	-48.9	12.2	5.94e-01	0	40	0	180355072	64	4797
2026-01-22 08:08:49.16	170.83	5.23	-48.3	-51.3	9.8	6.07e-01	0	40	0	197132288	68	4991
2026-01-22 08:08:50.16	170.86	5.31	-49.8	-53.3	8.0	5.88e-01	0	40	0	211812352	70	5651
2026-01-22 08:08:51.17	170.90	5.39	-47.1	-49.7	11.7	5.95e-01	0	40	0	226492416	66	4665
2026-01-22 08:08:52.18	170.93	5.48	-52.2	-57.9	4.4	7.22e-01	0	40	0	243269632	75	7145
2026-01-22 08:08:53.19	170.97	5.56	-46.5	-48.9	12.3	5.94e-01	0	40	0	257949696	64	4784
2026-01-22 08:08:54.20	171.00	5.64	-46.3	-48.7	12.5	5.93e-01	0	40	0	272629760	64	4699
2026-01-22 08:08:55.21	171.03	5.73	-46.2	-48.6	12.6	5.93e-01	0	40	0	289406976	64	4619
2026-01-22 08:08:56.22	171.07	5.81	-45.6	-47.9	13.3	5.92e-01	0	40	0	304087040	63	4530
2026-01-22 08:08:57.23	171.10	5.90	-45.9	-48.2	13.1	5.92e-01	0	40	0	320864256	62	4967
2026-01-22 08:08:58.24	171.14	5.98	-46.1	-48.4	12.8	5.92e-01	0	40	0	335544320	64	4531
2026-01-22 08:08:59.24	171.17	6.07	-45.5	-47.7	13.5	5.91e-01	0	40	0	352321536	62	4686
2026-01-22 08:09:00.25	171.21	6.15	-45.4	-47.7	13.5	6.07e-01	0	40	0	367001600	62	4660
2026-01-22 08:09:01.26	171.25	6.24	-45.4	-47.6	13.6	6.00e-01	0	40	0	381681664	62	4650
2026-01-22 08:09:02.27	171.28	6.33	-46.0	-48.4	12.9	6.07e-01	0	40	0	398458880	62	5042
2026-01-22 08:09:03.28	171.32	6.41	-44.6	-46.8	14.3	6.00e-01	0	40	0	413138944	61	4463
2026-01-22 08:09:04.28	171.35	6.50	-45.5	-47.8	13.4	6.00e-01	0	40	0	427819008	61	4986
2026-01-22 08:09:05.29	171.39	6.59	-45.1	-47.3	13.9	5.96e-01	0	40	0	442499072	61	4708
2026-01-22 08:09:06.30	171.43	6.67	-45.4	-47.6	13.5	5.99e-01	0	40	0	459276288	61	4913
2026-01-22 08:09:07.31	171.47	6.76	-45.4	-47.6	13.5	5.99e-01	0	40	0	473956352	61	4909
2026-01-22 08:09:08.32	171.50	6.85	-45.6	-47.8	13.3	6.04e-01	0	40	0	488636416	61	5037
2026-01-22 08:09:09.33	171.54	6.94	-45.0	-47.2	14.0	6.02e-01	0	40	0	505413632	61	4668
2026-01-22 08:09:10.33	171.58	7.03	-44.8	-46.9	14.2	6.01e-01	0	41	0	522190848	61	4535
2026-01-22 08:09:11.34	171.62	7.12	-44.7	-46.8	14.3	6.03e-01	0	40	0	536870912	61	4488
2026-01-22 08:09:12.35	171.66	7.21	-44.8	-47.0	14.2	6.02e-01	0	40	0	551550976	61	4548
2026-01-22 08:09:13.36	171.69	7.30	-44.7	-46.9	14.3	6.00e-01	0	41	0	568328192	61	4510
2026-01-22 08:09:14.36	171.73	7.39	-44.6	-46.8	14.4	5.98e-01	0	40	0	583008256	61	4459
2026-01-22 08:09:15.37	171.77	7.49	-44.5	-46.7	14.4	5.98e-01	0	40	0	597688320	60	4666
2026-01-22 08:09:16.38	171.81	7.58	-44.6	-46.7	14.4	6.01e-01	0	41	0	614465536	60	4678
2026-01-22 08:09:17.39	171.85	7.67	-44.5	-46.6	14.5	6.01e-01	0	41	0	629145600	60	4631
2026-01-22 08:09:18.39	171.89	7.76	-44.5	-46.6	14.6	5.99e-01	0	41	0	643825664	60	4614
2026-01-22 08:09:19.40	171.93	7.86	-44.5	-46.6	14.5	6.00e-01	0	40	0	660602880	60	4624
2026-01-22 08:09:20.41	171.97	7.95	-44.3	-46.4	14.7	5.97e-01	0	40	0	675282944	60	4545
2026-01-22 08:09:21.42	172.02	8.05	-44.4	-46.5	14.6	5.97e-01	0	40	0	689963008	60	4593
2026-01-22 08:09:22.43	172.06	8.14	-44.3	-46.4	14.8	6.00e-01	0	40	0	706740224	60	4521
2026-01-22 08:09:23.44	172.10	8.24	-44.4	-46.6	14.6	6.00e-01	0	41	0	723517440	60	4602
2026-01-22 08:09:24.44	172.14	8.33	-44.2	-46.3	14.9	6.01e-01	0	40	0	738197504	60	4467
2026-01-22 08:09:25.45	172.18	8.43	-44.2	-46.3	14.8	5.99e-01	0	41	0	752877568	60	4483
2026-01-22 08:09:26.46	172.23	8.53	-44.2	-46.2	14.9	5.99e-01	0	41	0	769654784	60	4427
2026-01-22 08:09:27.47	172.27	8.62	-44.4	-46.6	14.6	6.01e-01	0	41	0	784334848	59	4876
2026-01-22 08:09:28.48	172.31	8.72	-44.1	-46.2	14.9	6.03e-01	0	40	0	799014912	59	4703
2026-01-22 08:09:29.49	172.36	8.82	-44.1	-46.2	14.9	6.01e-01	0	41	0	815792128	59	4661
2026-01-22 08:09:30.50	172.40	8.92	-44.2	-46.3	14.8	6.02e-01	0	41	0	830472192	59	4742
2026-01-22 08:09:31.51	172.45	9.02	-44.1	-46.2	15.0	5.98e-01	0	41	0	845152256	59	4665
2026-01-22 08:09:32.52	172.49	9.12	-44.4	-46.4	14.8	6.01e-01	0	41	0	861929472	59	4813
2026-01-22 08:09:33.53	172.54	9.22	-44.0	-46.1	15.1	6.03e-01	0	41	0	876609536	59	4611
2026-01-22 08:09:34.54	172.58	9.32	-43.9	-46.0	15.2	5.99e-01	0	41	0	893386752	59	4551
2026-01-22 08:09:35.54	172.63	9.42	-43.9	-46.0	15.1	6.04e-01	0	41	0	908066816	59	4566
2026-01-22 08:09:36.55	172.67	9.52	-43.9	-45.9	15.2	6.04e-01	0	41	0	924844032	59	4526
2026-01-22 08:09:37.56	172.72	9.63	-43.7	-45.8	15.3	6.05e-01	0	41	0	939524096	59	4447
2026-01-22 08:09:38.57	172.77	9.73	-43.6	-45.6	15.5	6.02e-01	0	41	0	954204160	59	4358
2026-01-22 08:09:39.58	172.81	9.83	-43.7	-45.7	15.4	6.01e-01	0	41	0	970981376	59	4437
2026-01-22 08:09:40.58	172.86	9.94	-43.7	-45.7	15.4	6.04e-01	0	41	0	985661440	59	4429
2026-01-22 08:09:41.59	172.91	10.04	-43.7	-45.8	15.3	6.04e-01	0	41	0	1000341504	59	4459
2026-01-22 08:09:42.60	172.96	10.15	-43.6	-45.6	15.5	6.03e-01	0	41	0	1017118720	59	4342
2026-01-22 08:09:43.61	173.01	10.26	-43.4	-45.4	15.7	6.02e-01	0	41	0	1031798784	58	4529
2026-01-22 08:09:44.62	173.06	10.36	-43.7	-45.7	15.4	6.04e-01	0	41	0	1046478848	58	4684
2026-01-22 08:09:45.63	173.11	10.47	-43.4	-45.4	15.6	6.05e-01	0	41	0	1063256064	58	4521
2026-01-22 08:09:46.64	173.16	10.58	-43.5	-45.5	15.6	6.06e-01	0	41	0	1080033280	58	4588
2026-01-22 08:09:47.64	173.21	10.69	-43.3	-45.3	15.7	6.06e-01	0	41	0	1094713344	58	4476
2026-01-22 08:09:48.66	173.26	10.80	-43.3	-45.3	15.7	6.03e-01	0	41	0	1109393408	58	4473
2026-01-22 08:09:49.66	173.31	10.91	-43.3	-45.4	15.7	6.06e-01	0	41	0	1126170624	58	4498
2026-01-22 08:09:50.67	173.36	11.02	-43.2	-45.2	15.9	6.06e-01	0	41	0	1140850688	58	4399
2026-01-22 08:09:51.68	173.41	11.13	-43.1	-45.1	16.0	6.06e-01	0	41	0	1155530752	58	4375
2026-01-22 08:09:52.69	173.47	11.24	-43.0	-45.0	16.0	6.04e-01	0	41	0	1172307968	58	4333
2026-01-22 08:09:53.70	173.52	11.35	-43.2	-45.1	15.9	6.07e-01	0	41	0	1186988032	57	4643
2026-01-22 08:09:54.71	173.57	11.47	-43.1	-45.1	16.0	6.05e-01	0	41	0	1201668096	57	4610
2026-01-22 08:09:55.72	173.63	11.58	-42.9	-44.9	16.1	6.06e-01	0	41	0	1218445312	57	4539
2026-01-22 08:09:56.73	173.68	11.70	-43.1	-45.0	16.0	6.03e-01	0	41	0	1233125376	57	4594
2026-01-22 08:09:57.73	173.74	11.81	-43.0	-45.0	16.1	6.06e-01	0	41	0	1249902592	57	4560
2026-01-22 08:09:58.74	173.79	11.93	-42.9	-44.8	16.2	6.05e-01	0	41	0	1264582656	57	4483
2026-01-22 08:09:59.75	173.85	12.04	-42.9	-44.8	16.2	6.04e-01	0	41	0	1281359872	57	4465
2026-01-22 08:10:00.75	173.91	12.16	-42.9	-44.8	16.2	6.03e-01	0	41	0	1296039936	57	4468
2026-01-22 08:10:01.76	173.96	12.28	-42.9	-44.8	16.2	6.04e-01	0	41	0	1310720000	57	4465
2026-01-22 08:10:02.77	174.02	12.40	-42.8	-44.8	16.2	6.04e-01	0	41	0	1327497216	57	4448
2026-01-22 08:10:03.78	174.08	12.52	-42.6	-44.5	16.5	6.03e-01	0	41	0	1342177280	57	4333
2026-01-22 08:10:04.79	174.14	12.64	-42.4	-44.3	16.6	6.02e-01	0	41	0	1356857344	56	4476
2026-01-22 08:10:05.80	174.20	12.76	-42.5	-44.4	16.6	6.05e-01	0	41	0	1373634560	56	4506
2026-01-22 08:10:06.80	174.26	12.88	-42.5	-44.4	16.5	6.03e-01	0	41	0	1388314624	56	4526
2026-01-22 08:10:07.81	174.32	13.00	-42.4	-44.3	16.7	6.05e-01	0	41	0	1402994688	56	4476
2026-01-22 08:10:08.82	174.38	13.13	-42.3	-44.2	16.7	6.03e-01	0	41	0	1419771904	56	4411
2026-01-22 08:10:09.83	174.44	13.25	-42.3	-44.2	16.7	6.04e-01	0	41	0	1436549120	56	4419
2026-01-22 08:10:10.84	174.50	13.38	-42.3	-44.2	16.8	6.02e-01	0	41	0	1451229184	56	4404
2026-01-22 08:10:11.85	174.57	13.50	-42.1	-44.0	16.9	6.02e-01	0	41	0	1465909248	56	4330
2026-01-22 08:10:12.85	174.63	13.63	-42.2	-44.1	17.0	6.06e-01	0	41	0	1482686464	55	4651
2026-01-22 08:10:13.86	174.69	13.76	-42.2	-44.1	17.0	6.01e-01	0	41	0	1497366528	55	4634
2026-01-22 08:10:14.87	174.76	13.89	-42.2	-44.2	16.9	6.02e-01	0	41	0	1512046592	55	4662
2026-01-22 08:10:15.88	174.82	14.01	-42.1	-44.1	17.0	6.01e-01	0	41	0	1528823808	55	4614
2026-01-22 08:10:16.89	174.89	14.15	-42.2	-44.1	17.0	6.03e-01	0	41	0	1543503872	55	4630
2026-01-22 08:10:17.90	174.95	14.28	-42.1	-44.0	17.0	6.00e-01	0	41	0	1558183936	55	4595
2026-01-22 08:10:18.90	175.02	14.41	-41.9	-43.9	17.2	6.03e-01	0	41	0	1574961152	55	4506
2026-01-22 08:10:19.91	175.09	14.54	-42.0	-44.0	17.1	6.04e-01	0	41	0	1589641216	55	4564
2026-01-22 08:10:20.92	175.16	14.68	-42.0	-43.9	17.2	6.03e-01	0	41	0	1604321280	55	4543
2026-01-22 08:10:21.93	175.23	14.81	-41.8	-43.7	17.3	6.05e-01	0	41	0	1621098496	55	4420
2026-01-22 08:10:22.94	175.30	14.95	-41.8	-43.8	17.2	6.05e-01	0	41	0	1637875712	55	4469
2026-01-22 08:10:23.95	175.37	15.08	-41.7	-43.7	17.3	6.05e-01	0	41	0	1652555776	55	4406
2026-01-22 08:10:24.96	175.44	15.22	-41.6	-43.5	17.5	6.06e-01	0	41	0	1667235840	55	4329
2026-01-22 08:10:25.97	175.51	15.36	-41.6	-43.5	17.5	6.05e-01	0	41	0	1684013056	55	4329
2026-01-22 08:10:26.98	175.59	15.50	-41.4	-43.4	17.5	6.05e-01	0	41	0	1698693120	54	4522
2026-01-22 08:10:27.98	175.66	15.64	-41.4	-43.3	17.6	6.06e-01	0	41	0	1713373184	54	4492
2026-01-22 08:10:28.99	175.73	15.78	-41.4	-43.3	17.6	6.04e-01	0	41	0	1730150400	54	4490
2026-01-22 08:10:30.00	175.81	15.93	-41.4	-43.3	17.6	6.06e-01	0	41	0	1744830464	54	4485
2026-01-22 08:10:31.01	175.88	16.07	-41.1	-43.1	17.8	6.02e-01	0	41	0	1759510528	54	4357
2026-01-22 08:10:32.02	175.96	16.22	-41.2	-43.2	17.7	6.04e-01	0	41	0	1776287744	54	4396
2026-01-22 08:10:33.03	176.04	16.36	-41.2	-43.1	17.8	6.04e-01	0	41	0	1793064960	54	4375
2026-01-22 08:10:34.04	176.12	16.51	-41.0	-43.0	17.9	6.05e-01	0	41	0	1807745024	54	4300
2026-01-22 08:10:35.05	176.20	16.66	-40.9	-42.9	17.9	6.07e-01	0	41	0	1822425088	53	4499
2026-01-22 08:10:36.06	176.28	16.81	-40.9	-42.8	17.9	6.05e-01	0	41	0	1839202304	53	4477
2026-01-22 08:10:37.07	176.36	16.96	-40.9	-42.8	18.0	6.06e-01	0	41	0	1853882368	53	4464
2026-01-22 08:10:38.07	176.44	17.11	-40.7	-42.7	18.1	6.05e-01	0	41	0	1868562432	53	4406
2026-01-22 08:10:39.08	176.52	17.26	-40.7	-42.6	18.0	6.06e-01	0	41	0	1885339648	53	4391
2026-01-22 08:10:40.09	176.61	17.42	-40.6	-42.6	18.1	6.04e-01	0	41	0	1900019712	53	4352
2026-01-22 08:10:41.10	176.69	17.57	-40.6	-42.6	18.1	6.06e-01	0	41	0	1914699776	53	4345
2026-01-22 08:10:42.11	176.78	17.73	-40.7	-42.7	18.1	6.05e-01	0	41	0	1929379840	53	4394
2026-01-22 08:10:43.12	176.87	17.89	-40.6	-42.5	18.2	6.06e-01	0	41	0	1946157056	53	4307
2026-01-22 08:10:44.13	176.95	18.05	-40.5	-42.5	18.2	6.06e-01	0	41	0	1962934272	53	4299
2026-01-22 08:10:45.14	177.04	18.21	-40.7	-42.6	18.2	6.04e-01	0	41	0	1977614336	53	4370
2026-01-22 08:10:46.15	177.13	18.37	-40.6	-42.6	18.1	6.04e-01	0	41	0	1994391552	53	4350
2026-01-22 08:10:47.16	177.23	18.53	-40.4	-42.3	18.4	6.04e-01	0	41	0	2009071616	52	4463
2026-01-22 08:10:48.17	177.32	18.70	-40.4	-42.3	18.3	6.05e-01	0	41	0	2023751680	52	4468
2026-01-22 08:10:49.18	177.41	18.86	-40.3	-42.2	18.4	5.97e-01	0	41	0	2038431744	52	4428
2026-01-22 08:10:50.19	177.51	19.03	-40.2	-42.2	18.5	5.97e-01	0	41	0	2055208960	52	4393
2026-01-22 08:10:51.20	177.60	19.20	-40.2	-42.1	18.5	5.97e-01	0	41	0	2069889024	52	4369
2026-01-22 08:10:52.20	177.70	19.37	-40.2	-42.1	18.5	5.90e-01	0	41	0	2084569088	52	4374
2026-01-22 08:10:53.21	177.80	19.54	-40.1	-42.1	18.5	5.90e-01	0	41	0	2101346304	52	4368
2026-01-22 08:10:54.22	177.90	19.71	-40.2	-42.2	18.5	5.90e-01	0	41	0	2116026368	52	4425
2026-01-22 08:10:55.23	178.00	19.89	-40.1	-42.1	18.5	5.90e-01	0	41	0	2132803584	52	4388
2026-01-22 08:10:56.24	178.10	20.06	-40.1	-42.2	18.5	5.91e-01	0	41	0	2147483648	52	4408
2026-01-22 08:10:57.25	178.20	20.24	-40.2	-42.2	18.4	5.92e-01	0	41	0	2164260864	52	4418
2026-01-22 08:10:58.26	178.31	20.42	-40.2	-42.3	18.5	5.90e-01	0	41	0	2178940928	52	4446
2026-01-22 08:10:59.26	178.41	20.60	-40.1	-42.2	18.5	5.90e-01	0	41	0	2193620992	52	4396
2026-01-22 08:11:00.27	178.52	20.78	-40.2	-42.3	18.4	5.90e-01	0	41	0	2210398208	52	4453
2026-01-22 08:11:01.28	178.63	20.97	-40.1	-42.2	18.5	5.90e-01	0	41	0	2225078272	52	4437
2026-01-22 08:11:02.29	178.74	21.15	-40.0	-42.1	18.7	5.90e-01	0	41	0	2239758336	51	4604
2026-01-22 08:11:03.30	178.85	21.34	-40.0	-42.1	18.6	5.90e-01	0	41	0	2256535552	51	4603
2026-01-22 08:11:04.30	178.96	21.52	-39.9	-41.8	18.8	5.90e-01	0	41	0	2271215616	51	4488
2026-01-22 08:11:05.31	179.07	21.71	-39.9	-41.9	18.8	5.90e-01	0	41	0	2285895680	51	4497
2026-01-22 08:11:06.32	179.19	21.91	-39.8	-41.7	18.9	5.89e-01	0	41	0	2302672896	51	4411
2026-01-22 08:11:07.33	179.31	22.10	-39.6	-41.5	19.1	5.90e-01	0	41	0	2319450112	51	4309
2026-01-22 08:11:08.34	179.43	22.30	-39.6	-41.4	19.0	5.90e-01	0	41	0	2334130176	51	4289
2026-01-22 08:11:09.34	179.55	22.49	-39.6	-41.4	19.1	5.91e-01	0	41	0	2348810240	51	4291
2026-01-22 08:11:10.35	179.67	22.69	-39.5	-41.3	19.2	5.89e-01	0	41	0	2365587456	51	4202
2026-01-22 08:11:11.36	179.79	22.89	-39.6	-41.3	19.2	5.90e-01	0	41	0	2380267520	51	4237
2026-01-22 08:11:12.37	179.92	23.09	-39.6	-41.4	19.1	5.90e-01	0	41	0	2394947584	51	4251
2026-01-22 08:11:13.37	180.05	23.30	-39.7	-41.5	19.0	5.90e-01	0	41	0	2411724800	51	4309
2026-01-22 08:11:14.38	180.18	23.50	-39.6	-41.3	19.1	5.96e-01	0	41	0	2426404864	51	4241
2026-01-22 08:11:15.39	180.31	23.71	-39.7	-41.4	19.0	5.94e-01	0	41	0	2441084928	51	4288
2026-01-22 08:11:16.40	180.44	23.92	-39.7	-41.4	19.1	5.95e-01	0	41	0	2457862144	51	4251
2026-01-22 08:11:17.40	180.58	24.13	-39.6	-41.2	19.2	5.96e-01	0	41	0	2472542208	51	4190
2026-01-22 08:11:18.41	180.71	24.34	-39.7	-41.4	19.0	5.97e-01	0	41	0	2487222272	51	4250
2026-01-22 08:11:19.42	180.85	24.56	-39.6	-41.2	19.3	5.96e-01	0	41	0	2503999488	51	4180
2026-01-22 08:11:20.43	180.99	24.78	-39.6	-41.2	19.2	6.01e-01	0	41	0	2520776704	51	4161
2026-01-22 08:11:21.44	181.14	25.00	-39.6	-41.3	19.1	5.98e-01	0	41	0	2535456768	51	4202
2026-01-22 08:11:22.45	181.28	25.22	-39.6	-41.3	19.2	5.99e-01	0	41	0	2550136832	51	4204
2026-01-22 08:11:23.46	181.43	25.45	-39.6	-41.2	19.2	5.98e-01	0	41	0	2566914048	51	4188
2026-01-22 08:11:24.46	181.58	25.67	-39.7	-41.3	19.1	5.98e-01	0	41	0	2581594112	51	4242
2026-01-22 08:11:25.47	181.73	25.90	-39.7	-41.3	19.1	6.00e-01	0	41	0	2596274176	51	4222
2026-01-22 08:11:26.48	181.89	26.13	-39.7	-41.4	19.1	5.95e-01	0	41	0	2613051392	51	4244
2026-01-22 08:11:27.49	182.05	26.36	-39.7	-41.4	19.2	5.94e-01	0	41	0	2627731456	51	4245
2026-01-22 08:11:28.50	182.21	26.60	-39.6	-41.2	19.2	6.00e-01	0	41	0	2642411520	51	4181
2026-01-22 08:11:29.51	182.37	26.84	-39.6	-41.3	19.2	6.01e-01	0	41	0	2659188736	51	4200
2026-01-22 08:11:30.52	182.54	27.08	-39.6	-41.2	19.2	5.94e-01	0	41	0	2673868800	51	4181
2026-01-22 08:11:31.53	182.70	27.32	-39.6	-41.2	19.2	5.91e-01	0	41	0	2690646016	51	4193
2026-01-22 08:11:32.54	182.87	27.56	-39.7	-41.2	19.2	5.98e-01	0	41	0	2705326080	51	4192
2026-01-22 08:11:33.54	183.05	27.81	-39.7	-41.2	19.2	5.96e-01	0	41	0	2722103296	51	4191
2026-01-22 08:11:34.55	183.22	28.06	-39.6	-41.1	19.3	5.96e-01	0	41	0	2736783360	51	4138
2026-01-22 08:11:35.56	183.40	28.31	-39.6	-41.2	19.2	5.97e-01	0	41	0	2751463424	51	4161
2026-01-22 08:11:36.57	183.58	28.57	-39.7	-41.3	19.2	5.98e-01	0	41	0	2768240640	51	4229
2026-01-22 08:11:37.58	183.77	28.82	-39.7	-41.3	19.2	5.97e-01	0	41	0	2782920704	51	4227
2026-01-22 08:11:38.58	183.96	29.08	-39.7	-41.3	19.2	5.98e-01	0	41	0	2797600768	51	4227
2026-01-22 08:11:39.59	184.15	29.34	-39.8	-41.4	19.1	6.00e-01	0	41	0	2814377984	51	4277
2026-01-22 08:11:40.60	184.34	29.61	-39.7	-41.3	19.2	5.93e-01	0	41	0	2829058048	51	4237
2026-01-22 08:11:41.61	184.54	29.87	-39.8	-41.4	19.1	6.00e-01	0	41	0	2843738112	51	4271
2026-01-22 08:11:42.62	184.75	30.14	-39.8	-41.4	19.1	6.01e-01	0	41	0	2860515328	51	4285
2026-01-22 08:11:43.62	184.95	30.42	-39.8	-41.4	19.1	5.97e-01	0	41	0	2875195392	51	4287
2026-01-22 08:11:44.63	185.16	30.69	-39.8	-41.4	19.1	5.99e-01	0	41	0	2891972608	51	4284
2026-01-22 08:11:45.64	185.37	30.97	-39.9	-41.5	19.1	6.02e-01	0	41	0	2906652672	51	4327
2026-01-22 08:11:46.65	185.59	31.25	-39.8	-41.4	19.1	6.01e-01	0	41	0	2923429888	51	4274
2026-01-22 08:11:47.66	185.81	31.53	-39.7	-41.3	19.1	5.97e-01	0	41	0	2938109952	51	4235
2026-01-22 08:11:48.66	186.04	31.82	-39.7	-41.4	19.2	5.96e-01	0	41	0	2952790016	51	4259
2026-01-22 08:11:49.67	186.27	32.11	-39.7	-41.4	19.1	5.96e-01	0	41	0	2969567232	51	4264
2026-01-22 08:11:50.68	186.50	32.40	-39.6	-41.2	19.2	5.94e-01	0	41	0	2984247296	51	4174
2026-01-22 08:11:51.69	186.74	32.70	-39.7	-41.4	19.1	5.97e-01	0	41	0	2998927360	51	4252
2026-01-22 08:11:52.70	186.98	32.99	-39.6	-41.3	19.2	5.95e-01	0	41	0	3015704576	51	4208
2026-01-22 08:11:53.71	187.23	33.30	-39.6	-41.4	19.2	5.96e-01	0	41	0	3030384640	51	4256
2026-01-22 08:11:54.72	187.49	33.60	-39.7	-41.5	19.1	5.97e-01	0	41	0	3045064704	51	4331
2026-01-22 08:11:55.73	187.74	33.91	-39.9	-41.7	18.9	5.97e-01	0	41	0	3061841920	51	4419
2026-01-22 08:11:56.73	188.01	34.21	-39.8	-41.5	19.0	5.94e-01	0	41	0	3078619136	51	4332
2026-01-22 08:11:57.74	188.27	34.53	-39.6	-41.3	19.2	5.95e-01	0	41	0	3093299200	51	4215
2026-01-22 08:11:58.75	188.55	34.84	-39.7	-41.4	19.2	5.96e-01	0	41	0	3107979264	51	4249
2026-01-22 08:11:59.76	188.83	35.16	-39.5	-41.2	19.3	5.97e-01	0	41	0	3124756480	51	4146
2026-01-22 08:12:00.77	189.11	35.48	-39.4	-41.1	19.3	5.96e-01	0	41	0	3139436544	50	4378
2026-01-22 08:12:01.78	189.41	35.81	-39.5	-41.3	19.3	5.96e-01	0	41	0	3154116608	50	4444
2026-01-22 08:12:02.78	189.70	36.13	-39.5	-41.3	19.2	5.98e-01	0	41	0	3170893824	50	4472
2026-01-22 08:12:03.79	190.00	36.47	-39.5	-41.3	19.3	5.95e-01	0	41	0	3185573888	50	4463
2026-01-22 08:12:04.80	190.32	36.80	-39.4	-41.2	19.3	5.98e-01	0	41	0	3200253952	50	4402
2026-01-22 08:12:05.81	190.63	37.14	-39.2	-40.9	19.5	5.99e-01	0	41	0	3217031168	50	4258
2026-01-22 08:12:06.82	190.96	37.48	-39.2	-40.9	19.5	5.97e-01	0	41	0	3231711232	50	4244
2026-01-22 08:12:07.83	191.29	37.82	-38.9	-40.6	19.6	5.92e-01	0	41	0	3246391296	49	4385
2026-01-22 08:12:08.84	191.63	38.17	-38.9	-40.7	19.6	5.95e-01	0	41	0	3263168512	49	4423
2026-01-22 08:12:09.84	191.97	38.52	-38.7	-40.6	19.5	5.99e-01	0	41	0	3279945728	49	4391
2026-01-22 08:12:10.85	192.33	38.87	-38.6	-40.6	19.5	5.95e-01	0	41	0	3294625792	49	4387
2026-01-22 08:12:11.86	192.69	39.22	-38.7	-40.7	19.5	5.98e-01	0	41	0	3309305856	49	4425
2026-01-22 08:12:12.87	193.06	39.58	-38.7	-40.7	19.6	5.97e-01	0	41	0	3326083072	49	4408
2026-01-22 08:12:13.88	193.44	39.95	-38.7	-40.7	19.5	6.00e-01	0	41	0	3340763136	49	4422
2026-01-22 08:12:14.89	193.83	40.31	-38.6	-40.6	19.6	5.99e-01	0	41	0	3355443200	49	4368
2026-01-22 08:12:15.90	194.22	40.68	-38.0	-40.1	19.8	5.98e-01	0	41	0	3372220416	48	4362
2026-01-22 08:12:16.91	194.63	41.05	-36.8	-38.9	19.5	6.00e-01	0	41	0	3386900480	45	4520
2026-01-22 08:12:17.92	195.05	41.42	-36.6	-38.7	19.6	5.97e-01	0	41	0	3401580544	45	4420
2026-01-22 08:12:18.92	195.47	41.79	-36.4	-38.3	19.8	6.00e-01	0	41	0	3416260608	44	4488
2026-01-22 08:12:19.93	195.91	42.17	-36.4	-38.4	19.8	5.97e-01	0	41	0	3435134976	44	4510
2026-01-22 08:12:20.94	196.35	42.55	-36.5	-38.5	19.8	6.00e-01	0	41	0	3449815040	44	4563
2026-01-22 08:12:21.95	196.81	42.94	-36.3	-38.3	19.9	5.99e-01	0	41	0	3464495104	44	4464
2026-01-22 08:12:22.96	197.28	43.32	-36.4	-38.4	19.8	6.01e-01	0	41	0	3481272320	44	4495
2026-01-22 08:12:23.96	197.76	43.71	-36.2	-38.2	19.9	6.00e-01	0	41	0	3495952384	44	4438
2026-01-22 08:12:24.97	198.26	44.10	-36.3	-38.5	19.8	6.01e-01	0	41	0	3510632448	44	4558
2026-01-22 08:12:25.98	198.76	44.49	-36.2	-38.3	19.9	5.94e-01	0	41	0	3525312512	44	4456
2026-01-22 08:12:26.99	199.28	44.89	-36.0	-38.0	20.1	5.98e-01	0	41	0	3542089728	44	4323
2026-01-22 08:12:28.00	199.82	45.28	-36.2	-38.2	20.0	5.92e-01	0	41	0	3556769792	43	4683
2026-01-22 08:12:29.00	200.36	45.68	-36.2	-38.3	20.0	5.99e-01	0	41	0	3571449856	43	4736
2026-01-22 08:12:30.01	200.92	46.08	-36.3	-38.4	19.9	5.97e-01	0	41	0	3588227072	43	4797
2026-01-22 08:12:31.02	201.50	46.48	-36.3	-38.5	19.8	6.02e-01	0	41	0	3602907136	43	4840
2026-01-22 08:12:32.03	202.09	46.88	-36.2	-38.3	20.0	5.94e-01	0	41	0	3619684352	43	4751
2026-01-22 08:12:33.04	202.69	47.29	-36.1	-38.2	20.0	6.01e-01	0	41	0	3634364416	43	4696
2026-01-22 08:12:34.04	203.31	47.69	-36.0	-38.1	20.1	6.00e-01	0	42	0	3651141632	43	4606
2026-01-22 08:12:35.05	203.95	48.09	-35.9	-37.9	20.2	5.96e-01	0	41	0	3665821696	43	4525
2026-01-22 08:12:36.06	204.61	48.50	-36.0	-38.1	20.1	5.98e-01	0	41	0	3680501760	43	4611
2026-01-22 08:12:37.07	205.29	48.90	-35.8	-37.9	20.1	6.00e-01	0	41	0	3697278976	43	4545
2026-01-22 08:12:38.08	205.98	49.31	-36.0	-38.0	20.1	5.98e-01	0	41	0	3711959040	43	4567
2026-01-22 08:12:39.08	206.69	49.71	-35.9	-37.9	20.2	5.98e-01	0	41	0	3726639104	43	4509
2026-01-22 08:12:40.09	207.42	50.12	-36.0	-38.1	20.1	6.00e-01	0	41	0	3743416320	43	4618
2026-01-22 08:12:41.10	208.17	50.52	-36.1	-38.2	20.0	6.00e-01	0	41	0	3758096384	43	4670
2026-01-22 08:12:42.11	208.94	50.92	-36.2	-38.2	20.1	5.99e-01	0	41	0	3772776448	43	4682
2026-01-22 08:12:43.12	209.74	51.32	-36.0	-38.1	20.2	5.94e-01	0	41	0	3789553664	43	4602
2026-01-22 08:12:44.12	210.55	51.72	-35.9	-38.0	20.2	6.03e-01	0	41	0	3804233728	43	4558
2026-01-22 08:12:45.13	211.39	52.12	-36.1	-38.1	20.0	5.93e-01	0	41	0	3821010944	43	4636
2026-01-22 08:12:46.14	212.25	52.51	-36.1	-38.0	20.1	5.98e-01	0	41	0	3835691008	43	4568
2026-01-22 08:12:47.15	213.13	52.90	-35.9	-38.0	20.1	5.94e-01	0	41	0	3852468224	43	4594
2026-01-22 08:12:48.16	214.04	53.29	-36.0	-38.2	20.0	5.98e-01	0	41	0	3867148288	43	4665
2026-01-22 08:12:49.16	214.97	53.67	-36.3	-38.4	19.9	5.97e-01	0	41	0	3881828352	43	4781
2026-01-22 08:12:50.17	215.93	54.05	-36.5	-38.7	19.8	5.96e-01	0	41	0	3898605568	43	4947
2026-01-22 08:12:51.18	216.91	54.42	-36.6	-39.1	19.5	5.97e-01	0	41	0	3913285632	43	5182
2026-01-22 08:12:52.19	217.93	54.79	-36.7	-38.9	19.7	5.98e-01	0	41	0	3927965696	43	5100
2026-01-22 08:12:53.20	218.96	55.15	-36.6	-38.6	19.7	5.96e-01	0	41	0	3944742912	44	4628
2026-01-22 08:12:54.20	220.02	55.50	-36.4	-38.4	19.8	5.98e-01	0	41	0	3959422976	44	4541
2026-01-22 08:12:55.21	221.11	55.85	-36.5	-38.6	19.8	6.00e-01	0	41	0	3974103040	44	4638
2026-01-22 08:12:56.22	222.23	56.19	-36.4	-38.5	19.8	5.96e-01	0	41	0	3990880256	44	4581
2026-01-22 08:12:57.23	223.38	56.52	-36.5	-38.5	19.8	5.96e-01	0	41	0	4005560320	44	4580
2026-01-22 08:12:58.24	224.55	56.85	-36.5	-38.6	19.7	5.94e-01	0	41	0	4022337536	44	4614
2026-01-22 08:12:59.24	225.74	57.16	-36.7	-38.8	19.6	5.97e-01	0	41	0	4037017600	44	4724
2026-01-22 08:13:00.25	226.97	57.46	-36.9	-39.0	19.5	5.94e-01	0	41	0	4053794816	44	4823
2026-01-22 08:13:01.26	228.23	57.75	-36.8	-38.9	19.6	6.00e-01	0	41	0	4068474880	44	4791
2026-01-22 08:13:02.27	229.52	58.03	-36.8	-38.9	19.6	5.96e-01	0	41	0	4083154944	44	4786
2026-01-22 08:13:03.28	230.83	58.30	-36.7	-38.6	19.8	5.96e-01	0	41	0	4099932160	44	4639
2026-01-22 08:13:04.28	232.15	58.56	-36.6	-38.6	19.8	5.98e-01	0	41	0	4114612224	44	4609
2026-01-22 08:13:05.29	233.52	58.80	-36.9	-39.0	19.5	5.97e-01	0	41	0	4129292288	44	4839
2026-01-22 08:13:06.30	234.91	59.03	-37.0	-39.2	19.5	5.92e-01	0	41	0	4146069504	44	4954
2026-01-22 08:13:07.31	236.32	59.24	-37.2	-39.3	19.3	5.97e-01	0	41	0	4160749568	44	5033
2026-01-22 08:13:08.32	237.76	59.44	-37.2	-39.4	19.3	5.97e-01	0	41	0	4175429632	44	5096
2026-01-22 08:13:09.32	239.20	59.63	-37.1	-39.3	19.4	5.92e-01	0	41	0	4192206848	45	4723
2026-01-22 08:13:10.33	240.67	59.79	-37.2	-39.4	19.4	5.93e-01	0	41	0	4208984064	45	4788
2026-01-22 08:13:11.34	242.17	59.94	-37.0	-39.3	19.4	5.94e-01	0	41	0	4223664128	45	4721
2026-01-22 08:13:12.35	243.68	60.08	-37.0	-39.0	19.5	5.97e-01	0	41	0	4238344192	45	4595
2026-01-22 08:13:13.36	245.21	60.20	-37.1	-39.0	19.6	6.00e-01	0	41	0	4255121408	45	4585
2026-01-22 08:13:14.36	246.73	60.29	-37.0	-39.0	19.6	5.94e-01	0	41	0	4269801472	45	4551
2026-01-22 08:13:15.37	248.28	60.38	-36.8	-38.9	19.7	5.96e-01	0	41	0	4284481536	45	4498
2026-01-22 08:13:16.38	249.84	60.44	-36.9	-38.8	19.6	5.99e-01	0	41	0	4301258752	45	4490
2026-01-22 08:13:17.39	251.41	60.48	-37.0	-39.0	19.6	5.96e-01	0	41	0	4315938816	45	4565
2026-01-22 08:13:18.40	252.98	60.51	-37.1	-39.2	19.5	5.98e-01	0	41	0	4330618880	45	4669
2026-01-22 08:13:19.40	254.54	60.52	-37.1	-39.2	19.5	5.99e-01	0	41	0	4347396096	45	4685
2026-01-22 08:13:20.41	256.11	60.50	-37.0	-39.2	19.5	5.97e-01	0	41	0	4362076160	45	4669
2026-01-22 08:13:21.42	257.68	60.47	-37.1	-39.3	19.4	5.96e-01	0	41	0	4376756224	45	4725
2026-01-22 08:13:22.43	259.24	60.42	-37.3	-39.3	19.4	5.95e-01	0	41	0	4393533440	45	4752
2026-01-22 08:13:23.44	260.80	60.36	-37.3	-39.4	19.4	5.95e-01	0	41	0	4410310656	45	4765
2026-01-22 08:13:24.44	262.33	60.27	-37.0	-39.0	19.6	5.97e-01	0	41	0	4424990720	45	4584
2026-01-22 08:13:25.45	263.87	60.17	-36.8	-38.8	19.7	5.96e-01	0	41	0	4439670784	45	4467
2026-01-22 08:13:26.46	265.39	60.05	-36.9	-38.9	19.7	5.94e-01	0	41	0	4456448000	45	4511
2026-01-22 08:13:27.47	266.90	59.91	-37.0	-39.0	19.6	5.96e-01	0	41	0	4471128064	45	4578
2026-01-22 08:13:28.48	268.39	59.75	-37.1	-39.1	19.5	5.96e-01	0	41	0	4485808128	45	4632
2026-01-22 08:13:29.48	269.84	59.58	-36.9	-38.9	19.7	6.00e-01	0	41	0	4502585344	45	4545
2026-01-22 08:13:30.49	271.30	59.39	-36.8	-38.7	19.8	5.97e-01	0	41	0	4517265408	45	4439
2026-01-22 08:13:31.50	272.72	59.19	-36.7	-38.6	19.8	5.98e-01	0	41	0	4531945472	45	4366
2026-01-22 08:13:32.51	274.13	58.97	-36.8	-38.7	19.8	5.97e-01	0	41	0	4548722688	45	4413
2026-01-22 08:13:33.52	275.51	58.74	-36.8	-38.9	19.7	5.99e-01	0	41	0	4563402752	45	4496
2026-01-22 08:13:34.52	276.85	58.49	-36.6	-38.6	19.8	5.97e-01	0	41	0	4578082816	45	4388
2026-01-22 08:13:35.53	278.18	58.23	-36.7	-38.6	19.8	5.95e-01	0	41	0	4594860032	45	4383
2026-01-22 08:13:36.54	279.49	57.96	-36.6	-38.5	19.9	5.95e-01	0	41	0	4611637248	45	4314
2026-01-22 08:13:37.54	280.75	57.68	-36.5	-38.4	20.0	5.98e-01	0	41	0	4626317312	44	4533
2026-01-22 08:13:38.55	282.00	57.39	-36.5	-38.4	19.9	5.94e-01	0	41	0	4640997376	44	4509
2026-01-22 08:13:39.56	283.22	57.08	-36.6	-38.5	20.0	5.96e-01	0	41	0	4657774592	44	4572
2026-01-22 08:13:40.57	284.42	56.77	-36.5	-38.4	20.0	5.95e-01	0	41	0	4672454656	44	4519
2026-01-22 08:13:41.58	285.58	56.44	-36.4	-38.1	20.1	5.95e-01	0	41	0	4687134720	44	4388
2026-01-22 08:13:42.58	286.71	56.11	-36.3	-38.2	20.0	5.95e-01	0	41	0	4703911936	44	4421
2026-01-22 08:13:43.59	287.82	55.77	-36.3	-38.2	19.9	5.96e-01	0	42	0	4718592000	44	4416
2026-01-22 08:13:44.60	288.91	55.42	-36.4	-38.3	20.0	5.99e-01	0	41	0	4733272064	44	4477
2026-01-22 08:13:45.61	289.96	55.06	-36.2	-38.2	20.1	5.96e-01	0	41	0	4747952128	44	4405
2026-01-22 08:13:46.62	290.99	54.70	-36.3	-38.3	20.0	5.93e-01	0	41	0	4764729344	44	4481
2026-01-22 08:13:47.62	291.99	54.34	-36.2	-38.2	20.1	5.95e-01	0	41	0	4779409408	44	4393
2026-01-22 08:13:48.63	292.96	53.96	-36.0	-38.0	20.1	5.96e-01	0	41	0	4796186624	44	4316
2026-01-22 08:13:49.64	293.91	53.58	-36.0	-38.0	20.2	5.96e-01	0	41	0	4812963840	43	4583
2026-01-22 08:13:50.64	294.83	53.20	-36.1	-38.0	20.2	5.98e-01	0	41	0	4827643904	43	4589
2026-01-22 08:13:51.65	295.73	52.82	-36.0	-37.8	20.3	5.97e-01	0	41	0	4842323968	43	4493
2026-01-22 08:13:52.66	296.61	52.43	-36.0	-37.9	20.4	5.96e-01	0	41	0	4857004032	43	4496
2026-01-22 08:13:53.67	297.47	52.03	-36.0	-37.9	20.3	5.97e-01	0	41	0	4873781248	43	4515
2026-01-22 08:13:54.68	298.30	51.64	-35.8	-37.7	20.4	5.97e-01	0	41	0	4888461312	43	4401
2026-01-22 08:13:55.68	299.10	51.24	-35.8	-37.7	20.4	5.97e-01	0	41	0	4903141376	43	4392
2026-01-22 08:13:56.69	299.89	50.84	-35.9	-37.8	20.4	5.95e-01	0	41	0	4919918592	43	4447
2026-01-22 08:13:57.70	300.66	50.44	-35.8	-37.7	20.4	5.96e-01	0	41	0	4934598656	43	4407
2026-01-22 08:13:58.71	301.40	50.04	-35.9	-37.8	20.4	5.97e-01	0	41	0	4949278720	43	4446
2026-01-22 08:13:59.72	302.13	49.63	-35.7	-37.6	20.6	6.00e-01	0	41	0	4966055936	43	4378
2026-01-22 08:14:00.72	302.83	49.23	-35.8	-37.7	20.4	5.96e-01	0	41	0	4980736000	43	4438
2026-01-22 08:14:01.73	303.52	48.83	-35.9	-37.9	20.4	6.02e-01	0	41	0	4997513216	43	4494
2026-01-22 08:14:02.74	304.19	48.42	-35.9	-37.9	20.3	5.96e-01	0	41	0	5012193280	43	4536
2026-01-22 08:14:03.75	304.84	48.02	-36.0	-38.0	20.2	5.94e-01	0	41	0	5028970496	43	4592
2026-01-22 08:14:04.76	305.47	47.62	-36.1	-38.1	20.2	5.95e-01	0	41	0	5043650560	43	4628
2026-01-22 08:14:05.76	306.09	47.22	-36.1	-38.3	20.2	5.96e-01	0	41	0	5058330624	43	4710
2026-01-22 08:14:06.77	306.69	46.81	-36.1	-38.3	20.1	5.95e-01	0	41	0	5075107840	43	4729
2026-01-22 08:14:07.78	307.28	46.41	-36.2	-38.4	20.1	5.95e-01	0	41	0	5089787904	43	4776
2026-01-22 08:14:08.79	307.85	46.01	-36.3	-38.4	20.0	5.95e-01	0	41	0	5104467968	43	4776
2026-01-22 08:14:09.79	308.40	45.62	-36.4	-38.3	20.0	5.96e-01	0	41	0	5121245184	43	4747
2026-01-22 08:14:10.80	308.94	45.22	-36.4	-38.3	20.1	5.95e-01	0	41	0	5135925248	43	4714
2026-01-22 08:14:11.81	309.47	44.83	-36.5	-38.4	20.0	5.95e-01	0	41	0	5150605312	43	4773
2026-01-22 08:14:12.81	309.98	44.44	-36.6	-38.4	19.9	5.97e-01	0	41	0	5167382528	44	4507
2026-01-22 08:14:13.82	310.49	44.05	-36.7	-38.5	19.8	5.95e-01	0	41	0	5182062592	44	4584
2026-01-22 08:14:14.83	310.98	43.66	-36.7	-38.5	19.9	6.00e-01	0	41	0	5198839808	44	4569
2026-01-22 08:14:15.84	311.46	43.27	-36.7	-38.5	19.9	5.96e-01	0	41	0	5213519872	44	4583
2026-01-22 08:14:16.84	311.92	42.89	-36.8	-38.5	19.9	5.99e-01	0	41	0	5230297088	44	4591
2026-01-22 08:14:17.85	312.37	42.51	-36.9	-38.6	19.8	5.95e-01	0	41	0	5244977152	44	4635
2026-01-22 08:14:18.86	312.82	42.13	-36.9	-38.7	19.8	5.95e-01	0	41	0	5259657216	44	4681
2026-01-22 08:14:19.87	313.25	41.75	-37.1	-38.9	19.6	5.95e-01	0	41	0	5276434432	44	4811
2026-01-22 08:14:20.88	313.68	41.38	-37.3	-39.2	19.4	5.95e-01	0	41	0	5291114496	45	4684
2026-01-22 08:14:21.89	314.09	41.01	-37.5	-39.4	19.3	5.94e-01	0	42	0	5305794560	45	4808
2026-01-22 08:14:22.90	314.49	40.64	-37.6	-39.6	19.3	5.95e-01	0	41	0	5322571776	45	4887
2026-01-22 08:14:23.90	314.89	40.28	-37.7	-39.7	19.3	5.95e-01	0	41	0	5337251840	46	4667
2026-01-22 08:14:24.91	315.27	39.91	-37.7	-39.6	19.2	5.94e-01	0	41	0	5351931904	46	4646
2026-01-22 08:14:25.92	315.65	39.56	-37.8	-39.7	19.2	5.94e-01	0	41	0	5368709120	46	4674
2026-01-22 08:14:26.93	316.02	39.20	-37.9	-39.8	19.1	5.94e-01	0	41	0	5385486336	46	4751
2026-01-22 08:14:27.93	316.37	38.85	-38.0	-39.9	19.1	5.95e-01	0	41	0	5400166400	46	4761
2026-01-22 08:14:28.94	316.73	38.50	-38.1	-40.0	19.0	5.97e-01	0	41	0	5414846464	46	4852
2026-01-22 08:14:29.95	317.07	38.15	-38.2	-40.1	18.9	5.98e-01	0	41	0	5431623680	46	4895
2026-01-22 08:14:30.96	317.41	37.80	-38.4	-40.3	18.8	5.93e-01	0	41	0	5446303744	47	4724
2026-01-22 08:14:31.97	317.74	37.46	-38.5	-40.4	18.8	5.99e-01	0	41	0	5460983808	47	4787
2026-01-22 08:14:32.98	318.06	37.12	-38.5	-40.4	18.7	5.93e-01	0	41	0	5477761024	47	4801
2026-01-22 08:14:33.98	318.37	36.79	-38.6	-40.5	18.7	5.94e-01	0	41	0	5492441088	47	4849
2026-01-22 08:14:34.99	318.68	36.46	-38.7	-40.6	18.6	5.93e-01	0	41	0	5507121152	47	4894
2026-01-22 08:14:36.00	318.98	36.13	-39.8	-41.7	19.1	5.92e-01	0	41	0	5523898368	50	4679
2026-01-22 08:14:37.01	319.28	35.80	-39.9	-41.9	19.0	5.94e-01	0	41	0	5538578432	50	4766
2026-01-22 08:14:38.02	319.57	35.48	-39.9	-41.8	19.1	5.95e-01	0	41	0	5553258496	50	4719
2026-01-22 08:14:39.02	319.85	35.16	-39.9	-41.8	19.1	5.96e-01	0	41	0	5570035712	50	4713
2026-01-22 08:14:40.03	320.13	34.84	-39.9	-41.8	19.1	5.93e-01	0	41	0	5586812928	50	4721
2026-01-22 08:14:41.04	320.40	34.53	-40.0	-41.9	19.0	5.90e-01	0	41	0	5601492992	50	4771
2026-01-22 08:14:42.05	320.67	34.22	-40.0	-41.9	19.0	5.90e-01	0	41	0	5616173056	50	4788
2026-01-22 08:14:43.06	320.93	33.91	-39.9	-41.8	19.1	5.90e-01	0	41	0	5632950272	50	4719
2026-01-22 08:14:44.06	321.19	33.61	-39.9	-41.8	19.0	5.90e-01	0	41	0	5647630336	50	4707
2026-01-22 08:14:45.07	321.44	33.31	-39.8	-41.6	19.1	5.90e-01	0	42	0	5662310400	50	4642
2026-01-22 08:14:46.08	321.68	33.01	-39.8	-41.7	19.0	5.90e-01	0	41	0	5679087616	50	4662
2026-01-22 08:14:47.09	321.93	32.71	-39.9	-41.8	19.0	5.90e-01	0	41	0	5693767680	50	4721
2026-01-22 08:14:48.10	322.17	32.42	-39.8	-41.7	19.1	5.90e-01	0	41	0	5708447744	50	4668
2026-01-22 08:14:49.10	322.40	32.13	-39.9	-41.8	18.9	5.90e-01	0	41	0	5725224960	50	4743
2026-01-22 08:14:50.11	322.63	31.84	-39.9	-41.8	19.0	5.90e-01	0	41	0	5739905024	50	4745
2026-01-22 08:14:51.12	322.85	31.55	-40.0	-41.9	18.9	5.89e-01	0	41	0	5754585088	50	4814
2026-01-22 08:14:52.13	323.07	31.27	-41.2	-41.9	19.0	5.89e-01	0	41	0	5771362304	52	4277
2026-01-22 08:14:53.14	323.29	30.99	-54.7	-63.7	3.8	7.46e-01	0	41	104	5783945216	80	10468
2026-01-22 08:14:54.14	323.50	30.72	-54.7	-63.6	3.8	7.45e-01	0	41	104	5783945216	80	10380
2026-01-22 08:14:55.15	323.71	30.44	-54.7	-63.6	3.8	7.45e-01	0	41	104	5783945216	80	10303
2026-01-22 08:14:56.16	323.91	30.17	-54.7	-63.6	3.8	7.46e-01	0	42	104	5783945216	80	10329
2026-01-22 08:14:57.17	324.11	29.90	-54.7	-63.5	3.8	7.46e-01	0	41	104	5783945216	80	10239
2026-01-22 08:14:58.18	324.31	29.64	-54.7	-63.6	3.8	7.45e-01	0	42	104	5783945216	80	10320
2026-01-22 08:14:59.18	324.51	29.38	-54.7	-63.6	3.8	7.46e-01	0	41	104	5783945216	80	10308
2026-01-22 08:15:00.19	324.70	29.12	-54.7	-63.5	3.8	7.45e-01	0	41	104	5783945216	80	10247
2026-01-22 08:15:01.20	324.89	28.86	-54.7	-63.5	3.8	7.46e-01	0	41	104	5783945216	80	10268
2026-01-22 08:15:02.21	325.07	28.60	-54.7	-63.5	3.8	7.45e-01	0	41	104	5783945216	80	10281
2026-01-22 08:15:03.22	325.25	28.35	-54.7	-63.5	3.8	7.45e-01	0	41	104	5783945216	80	10234
2026-01-22 08:15:04.22	325.43	28.10	-54.7	-63.5	3.8	7.45e-01	0	41	104	5783945216	80	10261
2026-01-22 08:15:05.23	325.61	27.85	-54.7	-63.5	3.8	7.47e-01	0	41	104	5783945216	80	10230
2026-01-22 08:15:06.24	325.78	27.61	-54.6	-63.5	3.8	7.44e-01	0	42	104	5783945216	80	10242
2026-01-22 08:15:07.25	325.95	27.36	-54.6	-63.5	3.8	7.46e-01	0	41	104	5783945216	80	10177
2026-01-22 08:15:08.26	326.12	27.12	-54.7	-63.5	3.8	7.47e-01	0	41	104	5783945216	80	10209
2026-01-22 08:15:09.26	326.28	26.89	-54.6	-63.5	3.8	7.45e-01	0	41	104	5783945216	80	10216
2026-01-22 08:15:10.27	326.44	26.65	-54.6	-63.5	3.8	7.43e-01	0	41	104	5783945216	80	10182
2026-01-22 08:15:11.28	326.60	26.41	-54.6	-63.4	3.8	7.45e-01	0	41	104	5783945216	80	10156
2026-01-22 08:15:12.29	326.76	26.18	-54.6	-63.5	3.8	7.45e-01	0	41	104	5783945216	80	10183
2026-01-22 08:15:13.30	326.91	25.95	-54.6	-63.4	3.8	7.46e-01	0	41	104	5783945216	80	10127
2026-01-22 08:15:14.30	327.06	25.73	-54.6	-63.4	3.8	7.45e-01	0	41	104	5783945216	80	10143
2026-01-22 08:15:15.31	327.21	25.50	-54.6	-63.4	3.8	7.45e-01	0	41	104	5783945216	80	10120
2026-01-22 08:15:16.32	327.36	25.28	-54.6	-63.4	3.8	7.44e-01	0	41	104	5783945216	80	10144
2026-01-22 08:15:17.33	327.51	25.06	-54.6	-63.4	3.8	7.46e-01	0	41	104	5783945216	80	10139
2026-01-22 08:15:18.33	327.65	24.84	-54.5	-63.4	3.8	7.45e-01	0	41	104	5783945216	80	10106
2026-01-22 08:15:19.34	327.79	24.62	-54.5	-63.3	3.8	7.45e-01	0	41	104	5783945216	80	10054
2026-01-22 08:15:20.35	327.93	24.41	-54.5	-63.4	3.8	7.44e-01	0	41	104	5783945216	80	10093
2026-01-22 08:15:21.36	328.07	24.20	-54.5	-63.4	3.8	7.45e-01	0	41	104	5783945216	80	10080
2026-01-22 08:15:22.37	328.20	23.98	-54.5	-63.3	3.8	7.44e-01	0	41	104	5783945216	80	10059
2026-01-22 08:15:23.38	328.34	23.78	-54.5	-63.3	3.8	7.47e-01	0	41	104	5783945216	80	10054
2026-01-22 08:15:24.38	328.47	23.57	-54.5	-63.4	3.8	7.46e-01	0	41	104	5783945216	80	10069
2026-01-22 08:15:25.39	328.59	23.36	-54.5	-63.3	3.8	7.44e-01	0	41	104	5783945216	80	10054
2026-01-22 08:15:26.40	328.72	23.16	-54.5	-63.3	3.8	7.45e-01	0	42	104	5783945216	80	10022
2026-01-22 08:15:27.40	328.85	22.96	-54.5	-63.3	3.8	7.46e-01	0	41	104	5783945216	80	10025
2026-01-22 08:15:28.41	328.97	22.76	-54.5	-63.3	3.8	7.46e-01	0	41	104	5783945216	80	9995
2026-01-22 08:15:29.42	329.09	22.56	-54.5	-63.3	3.8	7.45e-01	0	41	104	5783945216	80	9977
2026-01-22 08:15:30.43	329.21	22.37	-54.4	-63.3	3.8	7.47e-01	0	41	104	5783945216	80	9950
2026-01-22 08:15:31.44	329.33	22.17	-54.4	-63.3	3.8	7.45e-01	0	41	104	5783945216	80	9964
2026-01-22 08:15:32.44	329.45	21.98	-54.5	-63.3	3.8	7.45e-01	0	41	104	5783945216	80	9981
2026-01-22 08:15:33.45	329.57	21.79	-54.4	-63.3	3.8	7.46e-01	0	41	104	5783945216	80	9962
2026-01-22 08:15:34.46	329.68	21.60	-54.4	-63.2	3.8	7.44e-01	0	41	104	5783945216	80	9928
2026-01-22 08:15:35.47	329.79	21.41	-54.4	-63.2	3.8	7.47e-01	0	41	104	5783945216	80	9924
2026-01-22 08:15:36.48	329.90	21.23	-54.4	-63.2	3.8	7.45e-01	0	41	104	5783945216	80	9937
2026-01-22 08:15:37.48	330.01	21.05	-54.4	-63.2	3.8	7.47e-01	0	41	104	5783945216	80	9934
2026-01-22 08:15:38.49	330.12	20.86	-54.4	-63.2	3.8	7.46e-01	0	41	104	5783945216	80	9869
2026-01-22 08:15:39.50	330.23	20.68	-54.4	-63.2	3.8	7.46e-01	0	41	104	5783945216	80	9891
2026-01-22 08:15:40.51	330.34	20.50	-54.4	-63.2	3.8	7.45e-01	0	42	104	5783945216	80	9892
2026-01-22 08:15:41.52	330.44	20.32	-54.4	-63.2	3.8	7.46e-01	0	41	104	5783945216	80	9896
2026-01-22 08:15:42.52	330.54	20.15	-54.3	-63.2	3.8	7.46e-01	0	41	104	5783945216	80	9881
2026-01-22 08:15:43.53	330.64	19.97	-54.3	-63.2	3.8	7.45e-01	0	41	104	5783945216	80	9842
2026-01-22 08:15:44.54	330.74	19.80	-54.4	-63.2	3.8	7.46e-01	0	41	104	5783945216	80	9862
2026-01-22 08:15:45.55	330.84	19.63	-54.3	-63.2	3.8	7.45e-01	0	42	104	5783945216	80	9839
2026-01-22 08:15:46.56	330.94	19.46	-54.3	-63.1	3.8	7.43e-01	0	41	104	5783945216	80	9820
2026-01-22 08:15:47.56	331.04	19.29	-54.3	-63.1	3.8	7.46e-01	0	41	104	5783945216	80	9788
2026-01-22 08:15:48.57	331.13	19.12	-54.3	-63.1	3.8	7.44e-01	0	42	104	5783945216	80	9808
2026-01-22 08:15:49.58	331.23	18.95	-54.3	-63.1	3.8	7.47e-01	0	41	104	5783945216	80	9829
2026-01-22 08:15:50.59	331.32	18.79	-54.3	-63.1	3.8	7.45e-01	0	41	104	5783945216	80	9749
2026-01-22 08:15:51.60	331.41	18.63	-54.3	-63.1	3.8	7.45e-01	0	41	104	5783945216	80	9785
2026-01-22 08:15:52.60	331.50	18.46	-54.3	-63.1	3.8	7.45e-01	0	41	104	5783945216	80	9758
2026-01-22 08:15:53.61	331.60	18.30	-54.3	-63.1	3.8	7.47e-01	0	42	104	5783945216	80	9803
2026-01-22 08:15:54.62	331.68	18.14	-54.2	-63.1	3.8	7.44e-01	0	41	104	5783945216	80	9776
2026-01-22 08:15:55.63	331.77	17.98	-54.2	-63.0	3.8	7.44e-01	0	41	104	5783945216	80	9702
2026-01-22 08:15:56.64	331.86	17.83	-54.2	-63.1	3.8	7.46e-01	0	41	104	5783945216	80	9767
2026-01-22 08:15:57.64	331.95	17.67	-54.3	-63.0	3.8	7.47e-01	0	41	104	5783945216	80	9706
2026-01-22 08:15:58.65	332.03	17.52	-54.2	-63.1	3.8	7.47e-01	0	41	104	5783945216	80	9726
2026-01-22 08:15:59.66	332.11	17.36	-54.2	-63.0	3.8	7.47e-01	0	41	104	5783945216	80	9679
2026-01-22 08:16:00.64	332.20	17.22	-54.2	-63.0	3.8	7.46e-01	0	41	104	5783945216	80	9711
2026-01-22 08:16:01.65	332.28	17.06	-54.2	-63.0	3.8	7.46e-01	0	41	104	5783945216	80	9705
2026-01-22 08:16:02.66	332.36	16.91	-54.2	-63.0	3.8	7.45e-01	0	41	104	5783945216	80	9666
2026-01-22 08:16:03.67	332.44	16.76	-54.2	-63.0	3.8	7.45e-01	0	41	104	5783945216	79	10287
2026-01-22 08:16:04.68	332.52	16.62	-54.2	-63.0	3.8	7.44e-01	0	41	104	5783945216	79	10281
2026-01-22 08:16:05.68	332.60	16.47	-54.2	-63.1	3.8	7.46e-01	0	41	104	5783945216	79	10294
2026-01-22 08:16:06.69	332.68	16.32	-54.2	-63.0	3.8	7.46e-01	0	41	104	5783945216	79	10226
2026-01-22 08:16:07.70	332.75	16.18	-54.2	-63.0	3.8	7.46e-01	0	41	104	5783945216	79	10258
2026-01-22 08:16:08.71	332.83	16.04	-54.2	-63.0	3.8	7.46e-01	0	41	104	5783945216	79	10213
2026-01-22 08:16:09.72	332.91	15.89	-54.2	-63.0	3.8	7.46e-01	0	41	104	5783945216	79	10214
2026-01-22 08:16:10.73	332.98	15.75	-54.1	-63.0	3.8	7.45e-01	0	41	104	5783945216	79	10178
2026-01-22 08:16:11.74	333.05	15.61	-54.1	-62.9	3.8	7.46e-01	0	42	104	5783945216	79	10153
2026-01-22 08:16:12.74	333.13	15.47	-54.1	-62.9	3.8	7.45e-01	0	41	104	5783945216	78	10763
2026-01-22 08:16:13.75	333.20	15.33	-54.1	-63.0	3.8	7.44e-01	0	41	104	5783945216	78	10783
2026-01-22 08:16:14.76	333.27	15.20	-54.1	-62.9	3.8	7.45e-01	0	41	104	5783945216	78	10718
2026-01-22 08:16:15.77	333.34	15.06	-54.1	-62.9	3.8	7.47e-01	0	41	104	5783945216	78	10714
2026-01-22 08:16:16.78	333.41	14.92	-54.1	-62.9	3.8	7.45e-01	0	41	104	5783945216	78	10697
2026-01-22 08:16:17.78	333.48	14.79	-54.1	-62.9	3.8	7.45e-01	0	41	104	5783945216	78	10724
2026-01-22 08:16:18.79	333.55	14.66	-54.0	-62.9	3.8	7.45e-01	0	41	104	5783945216	78	10663
2026-01-22 08:16:19.80	333.62	14.52	-54.1	-62.9	3.8	7.46e-01	0	41	104	5783945216	78	10681
2026-01-22 08:16:20.81	333.69	14.39	-54.0	-62.8	3.8	7.45e-01	0	42	104	5783945216	78	10619
2026-01-22 08:16:21.82	333.75	14.26	-54.1	-62.9	3.8	7.47e-01	0	41	104	5783945216	78	10677
2026-01-22 08:16:22.83	333.82	14.13	-54.0	-62.8	3.8	7.47e-01	0	41	104	5783945216	78	10637
2026-01-22 08:16:23.84	333.88	14.00	-54.0	-62.8	3.8	7.43e-01	0	41	104	5783945216	78	10628
2026-01-22 08:16:24.84	333.95	13.87	-54.0	-62.8	3.8	7.47e-01	0	41	104	5783945216	78	10610
2026-01-22 08:16:25.85	334.01	13.75	-54.0	-62.8	3.8	7.46e-01	0	41	104	5783945216	78	10632
2026-01-22 08:16:26.86	334.08	13.62	-54.0	-62.8	3.8	7.44e-01	0	41	104	5783945216	78	10595
2026-01-22 08:16:27.87	334.14	13.49	-54.0	-62.8	3.8	7.45e-01	0	41	104	5783945216	78	10592
2026-01-22 08:16:28.88	334.20	13.37	-54.0	-62.8	3.8	7.45e-01	0	42	104	5783945216	78	10569
2026-01-22 08:16:29.89	334.26	13.25	-54.0	-62.8	3.8	7.45e-01	0	41	104	5783945216	78	10557
2026-01-22 08:16:30.89	334.33	13.12	-53.9	-62.7	3.8	7.46e-01	0	41	104	5783945216	78	10530
2026-01-22 08:16:31.90	334.39	13.00	-53.9	-62.8	3.8	7.45e-01	0	41	104	5783945216	78	10546
2026-01-22 08:16:32.91	334.45	12.88	-53.9	-62.8	3.8	7.43e-01	0	41	104	5783945216	78	10563
2026-01-22 08:16:33.92	334.51	12.76	-53.9	-62.7	3.8	7.46e-01	0	41	104	5783945216	78	10529
2026-01-22 08:16:34.93	334.57	12.64	-53.9	-62.7	3.8	7.44e-01	0	41	104	5783945216	78	10460
2026-01-22 08:16:35.94	334.62	12.52	-53.9	-62.7	3.8	7.44e-01	0	42	104	5783945216	78	10491
2026-01-22 08:16:36.95	334.68	12.40	-53.9	-62.7	3.8	7.47e-01	0	41	104	5783945216	78	10466
2026-01-22 08:16:37.95	334.74	12.28	-53.9	-62.7	3.8	7.46e-01	0	41	104	5783945216	78	10511
2026-01-22 08:16:38.96	334.80	12.16	-53.9	-62.7	3.8	7.45e-01	0	41	104	5783945216	78	10476
2026-01-22 08:16:39.97	334.85	12.05	-53.9	-62.7	3.8	7.46e-01	0	41	104	5783945216	78	10489
2026-01-22 08:16:40.98	334.91	11.93	-53.0	-62.6	3.8	7.46e-01	0	41	104	5783945216	78	10403
2026-01-22 08:16:41.99	334.96	11.82	-53.9	-62.7	3.8	7.46e-01	0	41	104	5783945216	78	10478
2026-01-22 08:16:43.00	335.02	11.70	-53.8	-62.7	3.8	7.46e-01	0	41	104	5783945216	78	10435
2026-01-22 08:16:44.00	335.07	11.59	-53.9	-62.7	3.8	7.46e-01	0	41	104	5783945216	78	10436
2026-01-22 08:16:45.01	335.13	11.48	-53.8	-62.7	3.8	7.44e-01	0	41	104	5783945216	78	10418
2026-01-22 08:16:46.02	335.18	11.36	-53.9	-62.7	3.8	7.46e-01	0	41	104	5783945216	78	10486
2026-01-22 08:16:47.03	335.23	11.25	-53.8	-62.6	3.8	7.45e-01	0	41	104	5783945216	78	10366
2026-01-22 08:16:48.04	335.29	11.14	-53.8	-62.7	3.8	7.44e-01	0	41	104	5783945216	78	10418
2026-01-22 08:16:49.05	335.34	11.03	-53.8	-62.6	3.8	7.47e-01	0	41	104	5783945216	78	10363
2026-01-22 08:16:50.06	335.39	10.92	-53.8	-62.6	3.8	7.44e-01	0	41	104	5783945216	78	10382
2026-01-22 08:16:51.06	335.44	10.81	-53.8	-62.6	3.8	7.44e-01	0	41	104	5783945216	78	10328
2026-01-22 08:16:52.07	335.49	10.71	-53.8	-62.6	3.8	7.44e-01	0	41	104	5783945216	78	10355
2026-01-22 08:16:53.08	335.54	10.60	-53.7	-62.5	3.8	7.45e-01	0	41	104	5783945216	78	10281
2026-01-22 08:16:54.09	335.59	10.49	-53.8	-62.6	3.8	7.46e-01	0	41	104	5783945216	78	10335
2026-01-22 08:16:55.10	335.64	10.38	-53.7	-62.6	3.8	7.45e-01	0	41	104	5783945216	78	10316
2026-01-22 08:16:56.10	335.69	10.28	-53.8	-62.6	3.8	7.44e-01	0	41	104	5783945216	78	10308
2026-01-22 08:16:57.11	335.74	10.17	-53.7	-62.5	3.8	7.46e-01	0	41	104	5783945216	77	10819
2026-01-22 08:16:58.12	335.79	10.07	-53.8	-62.6	3.8	7.45e-01	0	41	104	5783945216	78	10325
2026-01-22 08:16:59.13	335.84	9.96	-53.7	-62.5	3.8	7.45e-01	0	41	104	5783945216	77	10810
2026-01-22 08:17:00.14	335.89	9.86	-53.7	-62.5	3.8	7.46e-01	0	41	104	5783945216	77	10858
2026-01-22 08:17:01.14	335.93	9.76	-53.6	-62.4	3.8	7.45e-01	0	41	104	5783945216	77	10770
2026-01-22 08:17:02.15	335.98	9.66	-53.7	-62.5	3.8	7.46e-01	0	41	104	5783945216	77	10866
2026-01-22 08:17:03.16	336.03	9.55	-53.6	-62.4	3.8	7.44e-01	0	42	104	5783945216	77	10744
2026-01-22 08:17:04.17	336.07	9.45	-53.6	-62.4	3.8	7.44e-01	0	41	104	5783945216	77	10766
2026-01-22 08:17:05.18	336.12	9.35	-53.6	-62.4	3.8	7.44e-01	0	41	104	5783945216	77	10751
2026-01-22 08:17:06.18	336.16	9.25	-53.7	-62.5	3.8	7.44e-01	0	41	104	5783945216	77	10814
2026-01-22 08:17:07.19	336.21	9.15	-53.6	-62.4	3.8	7.45e-01	0	41	104	5783945216	77	10775
2026-01-22 08:17:08.20	336.25	9.05	-53.6	-62.5	3.8	7.45e-01	0	41	104	5783945216	77	10788
2026-01-22 08:17:09.21	336.30	8.95	-53.6	-62.4	3.8	7.45e-01	0	41	104	5783945216	77	10727
2026-01-22 08:17:10.22	336.34	8.85	-53.6	-62.5	3.8	7.46e-01	0	41	104	5783945216	77	10795
2026-01-22 08:17:11.23	336.39	8.76	-53.6	-62.4	3.8	7.46e-01	0	41	104	5783945216	77	10705
2026-01-22 08:17:12.24	336.43	8.66	-53.6	-62.4	3.8	7.45e-01	0	41	104	5783945216	77	10695
2026-01-22 08:17:13.24	336.47	8.56	-53.5	-62.3	3.8	7.44e-01	0	41	104	5783945216	77	10650
2026-01-22 08:17:14.25	336.52	8.47	-53.6	-62.4	3.8	7.47e-01	0	42	104	5783945216	77	10745
2026-01-22 08:17:15.26	336.56	8.37	-53.5	-62.3	3.8	7.45e-01	0	41	104	5783945216	77	10639
2026-01-22 08:17:16.27	336.60	8.28	-53.5	-62.4	3.8	7.46e-01	0	41	104	5783945216	77	10685
2026-01-22 08:17:17.28	336.64	8.18	-53.5	-62.3	3.8	7.45e-01	0	41	104	5783945216	77	10601
2026-01-22 08:17:18.29	336.69	8.09	-53.5	-62.3	3.8	7.44e-01	0	41	104	5783945216	77	10653
2026-01-22 08:17:19.29	336.73	7.99	-53.5	-62.3	3.8	7.46e-01	0	41	104	5783945216	77	10624
2026-01-22 08:17:20.30	336.77	7.90	-53.5	-62.3	3.8	7.46e-01	0	41	104	5783945216	77	10632
2026-01-22 08:17:21.31	336.81	7.81	-53.5	-62.3	3.8	7.46e-01	0	42	104	5783945216	77	10555
2026-01-22 08:17:22.32	336.85	7.71	-53.5	-62.3	3.8	7.44e-01	0	41	104	5783945216	77	10629
2026-01-22 08:17:23.33	336.89	7.62	-53.5	-62.3	3.8	7.47e-01	0	41	104	5783945216	77	10563
2026-01-22 08:17:24.34	336.93	7.53	-53.5	-62.3	3.8	7.44e-01	0	41	104	5783945216	77	10584
2026-01-22 08:17:25.34	336.97	7.44	-53.5	-62.3	3.8	7.46e-01	0	41	104	5783945216	77	10580
2026-01-22 08:17:26.35	337.01	7.35	-53.5	-62.3	3.8	7.44e-01	0	41	104	5783945216	77	10597
2026-01-22 08:17:27.36	337.05	7.26	-53.4	-62.2	3.8	7.45e-01	0	42	104	5783945216	77	10525
2026-01-22 08:17:28.37	337.09	7.17	-53.4	-62.2	3.8	7.46e-01	0	42	104	5783945216	77	10519
2026-01-22 08:17:29.38	337.12	7.08	-53.4	-62.3	3.8	7.44e-01	0	41	104	5783945216	77	10573
2026-01-22 08:17:30.38	337.16	6.99	-53.4	-62.3	3.8	7.46e-01	0	41	104	5783945216	77	10538
2026-01-22 08:17:31.39	337.20	6.90	-53.4	-62.2	3.8	7.44e-01	0	41	104	5783945216	77	10492
2026-01-22 08:17:32.40	337.24	6.81	-53.4	-62.2	3.8	7.44e-01	0	41	104	5783945216	77	10472
2026-01-22 08:17:33.41	337.28	6.73	-53.4	-62.2	3.8	7.44e-01	0	41	104	5783945216	77	10470
2026-01-22 08:17:34.42	337.31	6.64	-53.4	-62.2	3.8	7.45e-01	0	41	104	5783945216	77	10480
2026-01-22 08:17:35.42	337.35	6.55	-53.4	-62.2	3.8	7.46e-01	0	41	104	5783945216	77	10442
2026-01-22 08:17:36.43	337.39	6.46	-53.4	-62.2	3.8	7.47e-01	0	41	104	5783945216	77	10454
2026-01-22 08:17:37.44	337.42	6.38	-53.4	-62.2	3.8	7.46e-01	0	41	104	5783945216	77	10424
2026-01-22 08:17:38.45	337.46	6.29	-53.4	-62.2	3.8	7.46e-01	0	41	104	5783945216	77	10486
2026-01-22 08:17:39.46	337.50	6.21	-53.4	-62.1	3.8	7.46e-01	0	42	104	5783945216	77	10394
2026-01-22 08:17:40.46	337.53	6.12	-53.3	-62.2	3.8	7.45e-01	0	41	104	5783945216	77	10438
2026-01-22 08:17:41.47	337.57	6.04	-52.8	-62.5	3.8	7.46e-01	0	41	104	5783945216	77	10798
2026-01-22 08:17:42.48	337.60	5.95	-53.3	-62.1	3.8	7.46e-01	0	41	104	5783945216	77	10402
2026-01-22 08:17:43.49	337.64	5.87	-53.3	-62.1	3.8	7.45e-01	0	41	104	5783945216	77	10367
2026-01-22 08:17:44.50	337.67	5.78	-53.3	-62.1	3.8	7.47e-01	0	41	104	5783945216	77	10315
2026-01-22 08:17:45.50	337.71	5.70	-53.3	-62.1	3.8	7.43e-01	0	41	104	5783945216	77	10335
2026-01-22 08:17:46.51	337.74	5.62	-53.3	-62.1	3.8	7.46e-01	0	41	104	5783945216	77	10358
2026-01-22 08:17:47.52	337.78	5.54	-53.2	-62.0	3.8	7.45e-01	0	41	104	5783945216	77	10260
2026-01-22 08:17:48.53	337.81	5.45	-53.2	-62.0	3.8	7.45e-01	0	41	104	5783945216	77	10229
2026-01-22 08:17:49.54	337.84	5.37	-53.2	-62.1	3.8	7.45e-01	0	41	104	5783945216	77	10301
2026-01-22 08:17:50.54	337.88	5.29	-53.1	-62.0	3.8	7.45e-01	0	41	104	5783945216	76	10791
2026-01-22 08:17:51.55	337.91	5.21	-53.2	-62.0	3.8	7.45e-01	0	41	104	5783945216	76	10813
2026-01-22 08:17:52.56	337.94	5.13	-53.0	-61.8	3.8	7.46e-01	0	41	104	5783945216	75	11269
2026-01-22 08:17:53.57	337.98	5.05	-53.1	-62.0	3.8	7.45e-01	0	41	104	5783945216	76	10787
2026-01-22 08:17:54.58	338.01	4.97	-53.3	-62.1	3.8	7.46e-01	0	41	104	5783945216	77	10397
2026-01-22 08:17:55.58	338.04	4.89	-53.6	-62.4	3.8	7.45e-01	0	41	104	5783945216	77	10667
2026-01-22 08:17:56.59	338.08	4.81	-53.9	-62.7	3.8	7.45e-01	0	41	104	5783945216	78	10458
2026-01-22 08:17:57.60	338.11	4.73	-54.0	-62.8	3.8	7.46e-01	0	41	104	5783945216	78	10571
2026-01-22 08:17:58.61	338.14	4.65	-54.1	-62.9	3.8	7.45e-01	0	41	104	5783945216	78	10757
2026-01-22 08:17:59.62	338.17	4.57	-54.2	-63.1	3.8	7.46e-01	0	41	104	5783945216	78	10904
2026-01-22 08:18:00.62	338.20	4.49	-54.4	-63.2	3.8	7.46e-01	0	41	104	5783945216	79	10502
2026-01-22 08:18:01.63	338.24	4.41	-54.4	-63.2	3.8	7.47e-01	0	41	104	5783945216	79	10517
2026-01-22 08:18:02.64	338.27	4.33	-54.5	-63.3	3.8	7.46e-01	0	41	104	5783945216	79	10602
2026-01-22 08:18:03.64	338.30	4.26	-54.5	-63.3	3.8	7.45e-01	0	41	104	5783945216	79	10605
2026-01-22 08:18:04.65	338.33	4.18	-54.5	-63.3	3.8	7.44e-01	0	41	104	5783945216	79	10548
2026-01-22 08:18:05.66	338.36	4.10	-54.4	-63.2	3.8	7.46e-01	0	42	104	5783945216	79	10499
2026-01-22 08:18:06.67	338.39	4.03	-54.3	-63.1	3.8	7.44e-01	0	41	104	5783945216	79	10400
2026-01-22 08:18:07.68	338.42	3.95	-54.2	-63.0	3.8	7.45e-01	0	41	104	5783945216	79	10287
2026-01-22 08:18:08.69	338.45	3.87	-54.2	-63.0	3.8	7.46e-01	0	41	104	5783945216	79	10243
2026-01-22 08:18:09.70	338.48	3.80	-54.3	-63.1	3.8	7.45e-01	0	41	104	5783945216	79	10304
2026-01-22 08:18:10.71	338.51	3.72	-54.3	-63.1	3.8	7.46e-01	0	41	104	5783945216	79	10374
2026-01-22 08:18:11.71	338.54	3.65	-54.3	-63.2	3.8	7.47e-01	0	41	104	5783945216	79	10431
2026-01-22 08:18:12.72	338.57	3.57	-54.4	-63.2	3.8	7.45e-01	0	41	104	5783945216	79	10451
2026-01-22 08:18:13.73	338.60	3.50	-54.4	-63.2	3.8	7.44e-01	0	41	104	5783945216	79	10482
2026-01-22 08:18:14.74	338.63	3.42	-54.4	-63.2	3.8	7.45e-01	0	41	104	5783945216	79	10486
2026-01-22 08:18:15.75	338.66	3.35	-54.4	-63.2	3.8	7.45e-01	0	41	104	5783945216	79	10517
2026-01-22 08:18:16.76	338.69	3.27	-54.4	-63.2	3.8	7.45e-01	0	41	104	5783945216	79	10479
2026-01-22 08:18:17.77	338.72	3.20	-54.4	-63.1	3.8	7.46e-01	0	41	104	5783945216	79	10411
2026-01-22 08:18:18.78	338.74	3.13	-54.4	-63.2	3.8	7.45e-01	0	41	104	5783945216	79	10469
2026-01-22 08:18:19.78	338.77	3.05	-54.2	-63.2	3.8	7.45e-01	0	41	104	5783945216	79	10438
2026-01-22 08:18:20.79	338.80	2.98	-54.3	-63.2	3.8	7.45e-01	0	41	104	5783945216	79	10415
2026-01-22 08:18:21.80	338.83	2.91	-54.3	-63.2	3.8	7.46e-01	0	41	104	5783945216	79	10427
2026-01-22 08:18:22.81	338.86	2.84	-54.3	-63.2	3.8	7.46e-01	0	41	104	5783945216	79	10427
2026-01-22 08:18:23.82	338.89	2.76	-54.3	-63.2	3.8	7.44e-01	0	41	104	5783945216	79	10435
2026-01-22 08:18:24.82	338.91	2.69	-54.3	-63.1	3.8	7.43e-01	0	41	104	5783945216	79	10412
2026-01-22 08:18:25.83	338.94	2.62	-54.2	-63.1	3.8	7.46e-01	0	41	104	5783945216	79	10403
2026-01-22 08:18:26.84	338.97	2.55	-54.3	-63.1	3.8	7.46e-01	0	41	104	5783945216	79	10390
2026-01-22 08:18:27.85	339.00	2.48	-54.3	-63.1	3.8	7.45e-01	0	41	104	5783945216	79	10404
2026-01-22 08:18:28.86	339.02	2.41	-54.3	-63.1	3.8	7.47e-01	0	41	104	5783945216	79	10385
2026-01-22 08:18:29.86	339.05	2.34	-54.3	-63.1	3.8	7.46e-01	0	41	104	5783945216	79	10384
2026-01-22 08:18:30.87	339.08	2.27	-54.3	-63.1	3.8	7.45e-01	0	41	104	5783945216	79	10402
2026-01-22 08:18:31.88	339.10	2.19	-54.3	-63.1	3.8	7.47e-01	0	41	104	5783945216	79	10405
2026-01-22 08:18:32.89	339.13	2.12	-54.3	-63.1	3.8	7.45e-01	0	41	104	5783945216	79	10384
2026-01-22 08:18:33.90	339.16	2.05	-54.3	-63.1	3.8	7.45e-01	0	41	104	5783945216	79	10396

#Closed at: 2026-01-22 08:18:34
#Recorded file [5783 MB]: D:/lorett/data/31041_260122_110805.dat