passes_logs/2026/01/22/R3.2S_Murmansk/R3.2S_Murmansk__20260122_145333_TY-42_rec.log

#Pass ID: 20260122_145333_TY-42
#Satellite: TY-42
#Configuration: TY-42_900M
#almurnet v.1.7.20251203
#Start time: 2026-01-22 14:53:35

#Version: 2.2.20231116
#Station: R3.2S_Murmansk
#Location: 33.079688 lon 68.888172 lat
#TLE: 1 64048U 25103A   26021.88848380  .00008008  00000-0  38191-3 0 09992
#TLE: 2 64048 097.4124 097.1764 0001786 094.9639 294.5154 15.19162210 37869

#Time	Az	El	Level	Level2	SNR	BER	BlckErr	Temp	State	Recorded	gain1	gain2
2026-01-22 14:53:35.34	60.84	2.09	-54.6	-56.7	6.2	0.00e+00	0	47	0	0	80	18665
2026-01-22 14:53:36.32	60.72	2.15	-54.6	-56.8	6.2	0.00e+00	0	47	104	0	81	17785
2026-01-22 14:53:37.31	60.60	2.20	-54.6	-56.7	6.2	0.00e+00	0	47	104	0	81	17718
2026-01-22 14:53:38.28	60.48	2.25	-54.6	-56.7	6.2	0.00e+00	0	47	104	0	81	17709
2026-01-22 14:53:39.27	60.36	2.30	-54.6	-56.8	6.2	0.00e+00	0	47	104	0	81	17777
2026-01-22 14:53:40.26	60.24	2.36	-54.7	-56.8	6.2	0.00e+00	0	47	104	0	81	17968
2026-01-22 14:53:41.25	60.12	2.41	-54.8	-56.9	6.2	0.00e+00	0	48	104	0	81	18040
2026-01-22 14:53:42.23	60.00	2.46	-54.8	-56.9	6.2	0.00e+00	0	48	104	0	81	18049
2026-01-22 14:53:43.21	59.88	2.51	-54.7	-56.9	6.2	0.00e+00	0	48	104	0	81	18022
2026-01-22 14:53:44.20	59.76	2.57	-54.7	-56.9	6.2	0.00e+00	0	48	104	0	81	18037
2026-01-22 14:53:45.19	59.64	2.62	-54.7	-56.8	6.2	0.00e+00	0	48	104	0	81	17956
2026-01-22 14:53:46.18	59.51	2.67	-54.7	-56.8	6.2	0.00e+00	0	48	104	0	81	17890
2026-01-22 14:53:47.17	59.39	2.73	-54.7	-56.8	6.2	0.00e+00	0	48	104	0	81	17867
2026-01-22 14:53:48.17	59.26	2.78	-54.6	-56.8	6.2	0.00e+00	0	48	104	0	81	17839
2026-01-22 14:53:49.15	59.14	2.83	-54.6	-56.7	6.2	0.00e+00	0	48	104	0	81	17704
2026-01-22 14:53:50.14	59.01	2.89	-54.5	-56.6	6.2	0.00e+00	0	48	104	0	81	17446
2026-01-22 14:53:51.13	58.89	2.94	-54.4	-56.6	6.2	0.00e+00	0	48	104	0	80	18410
2026-01-22 14:53:52.11	58.76	2.99	-54.4	-56.5	6.2	0.00e+00	0	48	104	0	80	18237
2026-01-22 14:53:53.09	58.64	3.04	-54.4	-56.5	6.2	0.00e+00	0	48	104	0	80	18301
2026-01-22 14:53:54.07	58.51	3.10	-54.3	-56.4	6.2	0.00e+00	0	48	104	0	80	18101
2026-01-22 14:53:55.06	58.38	3.15	-54.2	-56.3	6.2	0.00e+00	0	48	104	0	80	17862
2026-01-22 14:53:56.03	58.25	3.20	-54.1	-56.3	6.2	0.00e+00	0	48	104	0	80	17774
2026-01-22 14:53:57.01	58.12	3.26	-54.1	-56.2	6.2	0.00e+00	0	48	104	0	80	17598
2026-01-22 14:53:58.00	57.99	3.31	-54.0	-56.1	6.2	0.00e+00	0	48	104	0	79	18550
2026-01-22 14:53:58.99	57.86	3.36	-53.8	-56.0	6.2	0.00e+00	0	48	104	0	79	18238
2026-01-22 14:53:59.97	57.73	3.42	-53.6	-55.7	6.2	0.00e+00	0	49	104	0	79	17756
2026-01-22 14:54:00.95	57.60	3.47	-53.3	-55.4	6.2	0.00e+00	0	48	104	0	78	18094
2026-01-22 14:54:01.94	57.47	3.52	-52.9	-55.0	6.2	0.00e+00	0	49	104	0	77	18291
2026-01-22 14:54:02.93	57.33	3.57	-52.8	-54.9	6.2	0.00e+00	0	49	104	0	77	18110
2026-01-22 14:54:03.92	57.20	3.63	-52.8	-54.9	6.2	0.00e+00	0	48	104	0	77	18065
2026-01-22 14:54:04.91	57.06	3.68	-52.8	-54.9	6.2	0.00e+00	0	49	104	0	77	18026
2026-01-22 14:54:05.91	56.93	3.74	-52.8	-54.9	6.2	0.00e+00	0	49	104	0	77	18058
2026-01-22 14:54:06.89	56.79	3.79	-52.8	-54.9	6.2	0.00e+00	0	49	104	0	77	18026
2026-01-22 14:54:07.88	56.66	3.84	-52.8	-54.9	6.2	0.00e+00	0	49	104	0	77	18076
2026-01-22 14:54:08.87	56.52	3.90	-52.8	-54.9	6.2	0.00e+00	0	49	104	0	77	18087
2026-01-22 14:54:09.86	56.38	3.95	-52.8	-54.9	6.2	0.00e+00	0	49	104	0	77	18018
2026-01-22 14:54:10.85	56.24	4.00	-52.8	-54.9	6.2	0.00e+00	0	49	104	0	77	18061
2026-01-22 14:54:11.84	56.10	4.06	-52.7	-54.9	6.2	0.00e+00	0	49	104	0	77	18091
2026-01-22 14:54:12.83	55.96	4.11	-52.8	-54.9	6.2	0.00e+00	0	49	104	0	77	18066
2026-01-22 14:54:13.82	55.82	4.16	-52.7	-54.9	6.2	0.00e+00	0	49	104	0	77	17985
2026-01-22 14:54:14.81	55.68	4.22	-52.7	-54.9	6.2	0.00e+00	0	49	104	0	77	17981
2026-01-22 14:54:15.81	55.53	4.27	-52.7	-54.9	6.2	0.00e+00	0	49	104	0	77	18010
2026-01-22 14:54:16.80	55.39	4.32	-52.7	-54.9	6.2	0.00e+00	0	49	104	0	77	18039
2026-01-22 14:54:17.78	55.25	4.38	-52.7	-54.9	6.2	0.00e+00	0	49	104	0	77	18026
2026-01-22 14:54:18.78	55.10	4.43	-52.8	-54.9	6.2	0.00e+00	0	49	104	0	77	18049
2026-01-22 14:54:19.76	54.96	4.49	-52.7	-54.8	6.2	0.00e+00	0	49	104	0	77	17957
2026-01-22 14:54:20.74	54.82	4.54	-52.7	-54.9	6.2	0.00e+00	0	49	104	0	77	18008
2026-01-22 14:54:21.74	54.67	4.59	-52.7	-54.9	6.2	0.00e+00	0	49	104	0	77	17989
2026-01-22 14:54:22.73	54.52	4.65	-52.7	-54.9	6.2	0.00e+00	0	49	104	0	77	18004
2026-01-22 14:54:23.71	54.38	4.70	-52.7	-54.9	6.2	0.00e+00	0	49	104	0	77	17995
2026-01-22 14:54:24.70	54.23	4.75	-52.7	-54.9	6.2	0.00e+00	0	49	104	0	77	18028
2026-01-22 14:54:25.68	54.08	4.81	-52.7	-54.9	6.2	0.00e+00	0	49	104	0	77	18008
2026-01-22 14:54:26.66	53.93	4.86	-52.7	-54.8	6.2	0.00e+00	0	49	104	0	77	17958
2026-01-22 14:54:27.64	53.78	4.91	-52.7	-54.9	6.2	0.00e+00	0	49	104	0	77	18000
2026-01-22 14:54:28.63	53.63	4.97	-52.7	-54.9	6.2	0.00e+00	0	50	104	0	77	18005
2026-01-22 14:54:29.61	53.48	5.02	-52.7	-54.9	6.2	0.00e+00	0	49	104	0	77	18003
2026-01-22 14:54:30.59	53.33	5.07	-52.8	-54.9	6.2	0.00e+00	0	49	104	0	77	18103
2026-01-22 14:54:31.57	53.18	5.12	-52.9	-55.0	6.2	0.00e+00	0	50	104	0	77	18295
2026-01-22 14:54:32.56	53.02	5.18	-52.7	-54.9	6.2	0.00e+00	0	50	104	0	77	18027
2026-01-22 14:54:33.54	52.87	5.23	-52.7	-54.8	6.2	0.00e+00	0	49	104	0	77	17921
2026-01-22 14:54:34.52	52.72	5.28	-52.8	-54.9	6.2	0.00e+00	0	50	104	0	77	18062
2026-01-22 14:54:35.50	52.56	5.34	-52.8	-54.9	6.2	0.00e+00	0	50	104	0	77	18097
2026-01-22 14:54:36.48	52.41	5.39	-52.8	-54.9	6.2	0.00e+00	0	50	104	0	77	18172
2026-01-22 14:54:37.47	52.25	5.44	-52.7	-54.9	6.2	0.00e+00	0	50	104	0	77	17991
2026-01-22 14:54:38.47	52.09	5.50	-52.8	-54.9	6.2	0.00e+00	0	50	104	0	77	18115
2026-01-22 14:54:39.46	51.93	5.55	-52.8	-55.0	6.2	0.00e+00	0	49	104	0	77	18211
2026-01-22 14:54:40.44	51.77	5.60	-52.8	-55.0	6.2	0.00e+00	0	50	104	0	77	18224
2026-01-22 14:54:41.44	51.61	5.66	-52.7	-54.9	6.2	0.00e+00	0	50	104	0	77	17991
2026-01-22 14:54:42.43	51.45	5.71	-52.8	-55.0	6.2	0.00e+00	0	50	104	0	77	18207
2026-01-22 14:54:43.42	51.29	5.76	-52.8	-55.0	6.2	0.00e+00	0	50	104	0	77	18183
2026-01-22 14:54:44.41	51.12	5.82	-42.2	-42.2	11.4	0.00e+00	164	51	0	25165824	54	15758
2026-01-22 14:54:45.41	50.96	5.87	-52.0	-53.8	6.2	2.62e-02	0	51	104	33554432	75	17823
2026-01-22 14:54:46.39	50.79	5.92	-39.3	-39.1	13.4	0.00e+00	0	52	0	41943040	50	13896
2026-01-22 14:54:47.39	50.63	5.97	-39.7	-39.6	13.2	0.00e+00	0	52	0	159383552	51	13864
2026-01-22 14:54:48.38	50.46	6.03	-36.9	-36.8	13.8	4.26e-02	0	52	0	268435456	45	14196
2026-01-22 14:54:49.36	50.30	6.08	-36.1	-36.0	14.4	4.26e-02	0	52	0	385875968	43	14450
2026-01-22 14:54:50.35	50.13	6.13	-36.0	-35.9	14.4	3.44e-02	0	52	0	494927872	43	14333
2026-01-22 14:54:51.35	49.96	6.19	-36.0	-35.9	14.4	3.44e-02	0	52	0	603979776	43	14427
2026-01-22 14:54:52.33	49.79	6.24	-36.3	-36.2	14.3	3.44e-02	0	52	0	713031680	43	14813
2026-01-22 14:54:53.32	49.62	6.29	-35.9	-35.8	14.5	3.44e-02	0	52	0	822083584	43	14268
2026-01-22 14:54:54.31	49.45	6.34	-36.0	-35.9	14.4	2.61e-02	0	52	0	931135488	43	14375
2026-01-22 14:54:55.31	49.28	6.40	-35.7	-35.6	14.6	2.61e-02	0	52	0	1048576000	43	13906
2026-01-22 14:54:56.30	49.11	6.45	-35.7	-35.6	14.6	2.61e-02	0	52	0	1157627904	43	13888
2026-01-22 14:54:57.29	48.93	6.50	-35.8	-35.7	14.6	2.22e-02	0	52	0	1275068416	43	13995
2026-01-22 14:54:58.27	48.76	6.55	-35.6	-35.5	14.6	2.22e-02	0	52	0	1384120320	43	13783
2026-01-22 14:54:59.27	48.59	6.61	-35.7	-35.6	14.6	2.22e-02	0	52	0	1493172224	43	13876
2026-01-22 14:55:00.26	48.41	6.66	-35.7	-35.6	14.6	2.04e-02	0	52	0	1610612736	43	13946
2026-01-22 14:55:01.24	48.24	6.71	-35.6	-35.5	14.7	2.04e-02	0	52	0	1719664640	43	13756
2026-01-22 14:55:02.23	48.06	6.76	-35.7	-35.6	14.6	2.04e-02	0	52	0	1820327936	43	13921
2026-01-22 14:55:03.22	47.88	6.81	-35.7	-35.6	14.5	1.83e-02	0	52	0	1937768448	43	13882
2026-01-22 14:55:04.21	47.70	6.87	-35.8	-35.7	14.5	1.83e-02	0	53	0	2046820352	43	14072
2026-01-22 14:55:05.20	47.52	6.92	-35.6	-35.5	14.6	1.83e-02	0	53	0	2164260864	43	13755
2026-01-22 14:55:06.20	47.34	6.97	-35.8	-35.6	14.5	1.40e-02	0	52	0	2273312768	43	13942
2026-01-22 14:55:07.18	47.16	7.02	-35.5	-35.4	14.7	1.40e-02	0	53	0	2382364672	43	13582
2026-01-22 14:55:08.17	46.98	7.07	-35.5	-35.4	14.6	1.40e-02	0	53	0	2499805184	42	14430
2026-01-22 14:55:09.15	46.80	7.12	-35.4	-35.4	14.7	1.48e-02	0	53	0	2608857088	42	14284
2026-01-22 14:55:10.14	46.62	7.18	-35.5	-35.4	14.7	1.48e-02	0	53	0	2709520384	42	14305
2026-01-22 14:55:11.12	46.43	7.23	-35.6	-35.5	14.6	1.48e-02	0	53	0	2826960896	42	14552
2026-01-22 14:55:12.11	46.25	7.28	-35.7	-35.7	14.5	1.32e-02	0	53	0	2936012800	42	14778
2026-01-22 14:55:13.09	46.06	7.33	-35.7	-35.6	14.6	1.32e-02	0	53	0	3045064704	42	14760
2026-01-22 14:55:14.08	45.88	7.38	-35.8	-35.7	14.5	1.38e-02	0	53	0	3162505216	42	14815
2026-01-22 14:55:15.06	45.69	7.43	-35.9	-35.8	14.5	1.38e-02	0	53	0	3271557120	42	14974
2026-01-22 14:55:16.04	45.51	7.48	-35.8	-35.7	14.5	1.47e-02	0	53	0	3388997632	42	14873
2026-01-22 14:55:17.03	45.32	7.53	-35.5	-35.4	14.7	1.47e-02	0	53	0	3489660928	42	14286
2026-01-22 14:55:18.01	45.13	7.58	-35.5	-35.4	14.7	1.47e-02	0	53	0	3598712832	42	14281
2026-01-22 14:55:18.99	44.94	7.63	-35.5	-35.4	14.7	1.47e-02	0	53	0	3716153344	42	14309
2026-01-22 14:55:19.97	44.75	7.68	-35.4	-35.3	14.8	1.20e-02	0	53	0	3825205248	42	14165
2026-01-22 14:55:20.96	44.56	7.73	-35.3	-35.2	14.8	1.20e-02	0	53	0	3934257152	42	13990
2026-01-22 14:55:21.95	44.37	7.78	-35.6	-35.5	14.6	1.20e-02	0	53	0	4051697664	42	14603
2026-01-22 14:55:22.94	44.17	7.83	-35.3	-35.2	14.8	1.12e-02	0	53	0	4152360960	42	14025
2026-01-22 14:55:23.92	43.98	7.88	-35.4	-35.3	14.8	1.12e-02	0	53	0	4261412864	42	14196
2026-01-22 14:55:24.91	43.78	7.93	-35.3	-35.2	14.8	1.12e-02	0	53	0	4378853376	42	14073
2026-01-22 14:55:25.90	43.59	7.98	-35.3	-35.2	14.8	1.12e-02	0	53	0	4487905280	42	14070
2026-01-22 14:55:26.88	43.39	8.03	-35.3	-35.2	14.8	1.07e-02	0	53	0	4605345792	42	13978
2026-01-22 14:55:27.87	43.19	8.08	-35.3	-35.2	14.8	1.07e-02	0	53	0	4714397696	42	13981
2026-01-22 14:55:28.87	42.99	8.13	-35.1	-35.0	14.9	1.07e-02	0	53	0	4823449600	42	13777
2026-01-22 14:55:29.85	42.79	8.18	-35.2	-35.1	14.9	9.51e-03	0	53	0	4940890112	42	13852
2026-01-22 14:55:30.84	42.59	8.22	-35.4	-35.3	14.8	9.51e-03	0	54	0	5041553408	42	14219
2026-01-22 14:55:31.83	42.39	8.27	-35.2	-35.1	14.8	9.51e-03	0	54	0	5150605312	42	13908
2026-01-22 14:55:32.81	42.19	8.32	-35.1	-35.0	14.9	9.89e-03	0	54	0	5268045824	42	13764
2026-01-22 14:55:33.81	41.99	8.37	-35.1	-35.0	14.9	9.89e-03	0	54	0	5377097728	42	13716
2026-01-22 14:55:34.79	41.78	8.42	-35.0	-34.9	14.9	9.26e-03	0	53	0	5494538240	42	13594
2026-01-22 14:55:35.77	41.58	8.46	-35.0	-34.9	14.9	9.26e-03	0	54	0	5603590144	42	13606
2026-01-22 14:55:36.76	41.37	8.51	-35.2	-35.1	14.8	9.26e-03	0	54	0	5712642048	42	13922
2026-01-22 14:55:37.75	41.17	8.56	-35.2	-35.1	14.8	8.76e-03	0	54	0	5830082560	42	13888
2026-01-22 14:55:38.73	40.96	8.61	-35.0	-34.9	14.9	8.76e-03	0	54	0	5930745856	42	13604
2026-01-22 14:55:39.72	40.75	8.65	-35.0	-34.9	15.0	8.76e-03	0	54	0	6039797760	42	13559
2026-01-22 14:55:40.70	40.55	8.70	-34.9	-34.8	15.0	8.73e-03	0	54	0	6157238272	41	14191
2026-01-22 14:55:41.69	40.34	8.75	-35.1	-35.0	14.9	8.73e-03	0	54	0	6266290176	41	14462
2026-01-22 14:55:42.67	40.13	8.79	-35.2	-35.1	14.8	8.73e-03	0	54	0	6375342080	41	14726
2026-01-22 14:55:43.65	39.92	8.84	-35.0	-34.9	14.9	9.28e-03	0	54	0	6492782592	41	14358
2026-01-22 14:55:44.63	39.71	8.89	-34.8	-34.7	15.0	9.28e-03	0	54	0	6593445888	41	14109
2026-01-22 14:55:45.62	39.50	8.93	-34.8	-34.7	15.0	9.28e-03	0	54	0	6702497792	41	14035
2026-01-22 14:55:46.60	39.28	8.98	-34.9	-34.8	15.0	9.28e-03	0	54	0	6819938304	41	14187
2026-01-22 14:55:47.58	39.07	9.02	-34.8	-34.7	15.0	7.51e-03	0	54	0	6928990208	41	14056
2026-01-22 14:55:48.57	38.85	9.07	-34.8	-34.7	15.0	7.51e-03	0	54	0	7046430720	41	13969
2026-01-22 14:55:49.55	38.64	9.11	-34.8	-34.7	15.0	7.60e-03	0	54	0	7155482624	41	13972
2026-01-22 14:55:50.53	38.43	9.16	-34.8	-34.7	15.0	7.60e-03	0	54	0	7256145920	41	14099
2026-01-22 14:55:51.51	38.21	9.20	-34.8	-34.7	15.0	7.60e-03	0	54	0	7365197824	41	13982
2026-01-22 14:55:52.49	37.99	9.25	-34.8	-34.7	15.0	7.60e-03	0	54	0	7482638336	41	14059
2026-01-22 14:55:53.47	37.77	9.29	-34.7	-34.6	15.1	7.43e-03	0	54	0	7591690240	41	13814
2026-01-22 14:55:54.45	37.56	9.33	-34.8	-34.7	15.0	7.43e-03	0	54	0	7709130752	41	13970
2026-01-22 14:55:55.43	37.34	9.38	-34.7	-34.6	15.1	7.43e-03	0	54	0	7809794048	41	13819
2026-01-22 14:55:56.41	37.12	9.42	-34.7	-34.6	15.1	6.96e-03	0	54	0	7918845952	41	13849
2026-01-22 14:55:57.39	36.90	9.46	-34.6	-34.5	15.1	6.96e-03	0	54	0	8036286464	41	13768
2026-01-22 14:55:58.37	36.67	9.50	-34.6	-34.5	15.1	7.08e-03	0	54	0	8145338368	41	13665
2026-01-22 14:55:59.36	36.45	9.55	-34.6	-34.5	15.1	7.08e-03	0	54	0	8254390272	41	13773
2026-01-22 14:56:00.34	36.23	9.59	-34.7	-34.6	15.0	7.08e-03	0	54	0	8363442176	41	13931
2026-01-22 14:56:01.33	36.00	9.63	-34.7	-34.6	15.0	6.76e-03	0	54	0	8472494080	41	13899
2026-01-22 14:56:02.31	35.77	9.67	-34.6	-34.5	15.1	6.76e-03	0	54	0	8581545984	41	13720
2026-01-22 14:56:03.30	35.55	9.72	-34.8	-34.7	15.0	6.76e-03	0	54	0	8698986496	41	13988
2026-01-22 14:56:04.29	35.32	9.76	-34.6	-34.5	15.1	6.65e-03	0	54	0	8808038400	41	13780
2026-01-22 14:56:05.28	35.09	9.80	-34.7	-34.6	15.0	6.65e-03	0	54	0	8925478912	41	13889
2026-01-22 14:56:06.27	34.86	9.84	-34.7	-34.6	15.0	6.65e-03	0	54	0	9034530816	41	13800
2026-01-22 14:56:07.26	34.63	9.88	-34.5	-34.4	15.1	6.98e-03	0	54	0	9143582720	41	13580
2026-01-22 14:56:08.25	34.39	9.92	-34.5	-34.4	15.1	6.98e-03	0	54	0	9261023232	41	13556
2026-01-22 14:56:09.23	34.16	9.96	-34.4	-34.3	15.1	6.98e-03	0	54	0	9361686528	40	14220
2026-01-22 14:56:10.22	33.93	10.00	-34.5	-34.4	15.1	6.18e-03	0	54	0	9470738432	40	14377
2026-01-22 14:56:11.22	33.69	10.04	-34.4	-34.3	15.1	6.18e-03	0	54	0	9588178944	40	14221
2026-01-22 14:56:12.20	33.46	10.08	-34.3	-34.2	15.2	5.56e-03	0	54	0	9697230848	40	13989
2026-01-22 14:56:13.19	33.23	10.12	-34.2	-34.1	15.1	5.56e-03	0	54	0	9806282752	40	13950
2026-01-22 14:56:14.17	32.99	10.15	-34.3	-34.2	15.1	5.22e-03	0	54	0	9923723264	40	14087
2026-01-22 14:56:15.16	32.75	10.19	-34.3	-34.2	15.1	5.22e-03	0	54	0	10032775168	40	13995
2026-01-22 14:56:16.14	32.52	10.23	-34.2	-34.1	15.2	5.22e-03	0	54	0	10150215680	40	13949
2026-01-22 14:56:17.13	32.28	10.27	-34.4	-34.3	15.1	5.17e-03	0	54	0	10250878976	40	14216
2026-01-22 14:56:18.11	32.04	10.30	-34.4	-34.3	15.1	5.17e-03	0	54	0	10359930880	40	14209
2026-01-22 14:56:19.10	31.80	10.34	-34.5	-34.4	15.1	5.17e-03	0	54	0	10477371392	40	14313
2026-01-22 14:56:20.08	31.56	10.38	-34.5	-34.4	15.1	5.71e-03	0	54	0	10586423296	40	14396
2026-01-22 14:56:21.06	31.32	10.41	-34.5	-34.4	15.1	5.71e-03	0	54	0	10695475200	40	14343
2026-01-22 14:56:22.05	31.08	10.45	-34.6	-34.5	15.0	6.10e-03	0	54	0	10812915712	40	14521
2026-01-22 14:56:23.04	30.84	10.48	-34.5	-34.3	15.1	6.10e-03	0	54	0	10913579008	40	14270
2026-01-22 14:56:24.02	30.60	10.52	-34.5	-34.4	15.1	6.10e-03	0	54	0	11022630912	40	14349
2026-01-22 14:56:25.00	30.35	10.55	-34.6	-34.5	15.0	5.92e-03	0	54	0	11140071424	40	14458
2026-01-22 14:56:25.99	30.11	10.59	-34.6	-34.5	15.0	5.92e-03	0	54	0	11249123328	40	14527
2026-01-22 14:56:26.97	29.86	10.62	-34.4	-34.3	15.1	5.78e-03	0	54	0	11366563840	40	14167
2026-01-22 14:56:27.96	29.62	10.65	-34.3	-34.2	15.2	5.78e-03	0	54	0	11475615744	40	14046
2026-01-22 14:56:28.95	29.37	10.69	-34.3	-34.2	15.2	5.30e-03	0	54	0	11584667648	40	14015
2026-01-22 14:56:29.93	29.12	10.72	-34.3	-34.2	15.1	5.30e-03	0	54	0	11685330944	40	14037
2026-01-22 14:56:30.92	28.88	10.75	-34.4	-34.3	15.1	5.30e-03	0	54	0	11802771456	40	14133
2026-01-22 14:56:31.91	28.63	10.78	-34.4	-34.3	15.1	5.30e-03	0	54	0	11911823360	40	14112
2026-01-22 14:56:32.89	28.38	10.82	-34.4	-34.3	15.1	5.22e-03	0	54	0	12029263872	40	14193
2026-01-22 14:56:33.87	28.13	10.85	-34.4	-34.2	15.1	5.22e-03	0	54	0	12138315776	40	14086
2026-01-22 14:56:34.86	27.88	10.88	-34.3	-34.2	15.1	5.62e-03	0	54	0	12255756288	40	14067
2026-01-22 14:56:35.85	27.63	10.91	-34.4	-34.3	15.1	5.62e-03	0	55	0	12364808192	40	14192
2026-01-22 14:56:36.84	27.37	10.94	-34.5	-34.4	15.0	5.62e-03	0	54	0	12465471488	40	14343
2026-01-22 14:56:37.83	27.12	10.97	-34.4	-34.3	15.0	5.98e-03	0	54	0	12574523392	40	14265
2026-01-22 14:56:38.81	26.87	11.00	-34.3	-34.2	15.1	5.98e-03	0	54	0	12691963904	40	14083
2026-01-22 14:56:39.79	26.62	11.03	-34.4	-34.3	15.1	5.86e-03	0	54	0	12801015808	40	14122
2026-01-22 14:56:40.78	26.36	11.05	-34.5	-34.4	15.0	5.86e-03	0	55	0	12918456320	40	14412
2026-01-22 14:56:41.76	26.11	11.08	-34.4	-34.3	15.0	5.86e-03	0	54	0	13027508224	40	14123
2026-01-22 14:56:42.74	25.85	11.11	-34.4	-34.3	15.0	6.17e-03	0	54	0	13136560128	40	14119
2026-01-22 14:56:43.72	25.60	11.14	-34.3	-34.2	15.1	6.17e-03	0	55	0	13245612032	40	14093
2026-01-22 14:56:44.70	25.34	11.16	-34.4	-34.3	15.0	6.17e-03	0	54	0	13354663936	40	14210
2026-01-22 14:56:45.68	25.09	11.19	-34.3	-34.1	15.0	5.71e-03	0	54	0	13463715840	40	13948
2026-01-22 14:56:46.67	24.83	11.21	-34.3	-34.2	15.1	5.71e-03	0	54	0	13581156352	40	13993
2026-01-22 14:56:47.65	24.57	11.24	-34.4	-34.3	15.0	5.27e-03	0	54	0	13690208256	40	14136
2026-01-22 14:56:48.64	24.31	11.26	-34.3	-34.2	15.0	5.27e-03	0	54	0	13790871552	40	13977
2026-01-22 14:56:49.63	24.05	11.29	-34.3	-34.2	15.0	5.27e-03	0	54	0	13908312064	40	14055
2026-01-22 14:56:50.62	23.79	11.31	-34.4	-34.2	15.0	5.43e-03	0	54	0	14017363968	40	14105
2026-01-22 14:56:51.61	23.53	11.34	-34.3	-34.2	15.0	5.43e-03	0	54	0	14126415872	40	13982
2026-01-22 14:56:52.60	23.27	11.36	-34.4	-34.3	14.9	5.83e-03	0	55	0	14243856384	40	14217
2026-01-22 14:56:53.59	23.01	11.38	-34.3	-34.2	15.0	5.83e-03	0	54	0	14352908288	40	14031
2026-01-22 14:56:54.58	22.74	11.40	-34.3	-34.2	15.0	6.29e-03	0	55	0	14470348800	40	14092
2026-01-22 14:56:55.57	22.48	11.42	-34.4	-34.3	14.9	6.29e-03	0	54	0	14579400704	40	14251
2026-01-22 14:56:56.56	22.22	11.45	-34.4	-34.3	14.9	6.29e-03	0	54	0	14696841216	40	14247
2026-01-22 14:56:57.55	21.95	11.47	-34.5	-34.4	14.9	6.64e-03	0	55	0	14805893120	40	14379
2026-01-22 14:56:58.54	21.69	11.49	-34.4	-34.3	14.9	6.64e-03	0	55	0	14914945024	40	14176
2026-01-22 14:56:59.53	21.42	11.51	-34.4	-34.3	14.9	6.12e-03	0	55	0	15015608320	40	14234
2026-01-22 14:57:00.52	21.16	11.53	-34.4	-34.3	14.8	6.12e-03	0	55	0	15133048832	40	14242
2026-01-22 14:57:01.51	20.89	11.54	-34.5	-34.3	14.9	6.12e-03	0	55	0	15242100736	40	14270
2026-01-22 14:57:02.50	20.63	11.56	-34.6	-34.5	14.8	7.48e-03	0	55	0	15359541248	40	14513
2026-01-22 14:57:03.48	20.36	11.58	-34.5	-34.4	14.9	7.48e-03	0	54	0	15468593152	40	14279
2026-01-22 14:57:04.47	20.09	11.60	-34.5	-34.4	14.8	7.48e-03	0	55	0	15577645056	40	14422
2026-01-22 14:57:05.46	19.83	11.61	-34.7	-34.6	14.8	7.98e-03	0	55	0	15695085568	40	14686
2026-01-22 14:57:06.44	19.56	11.63	-34.5	-34.4	14.8	7.98e-03	0	55	0	15804137472	40	14400
2026-01-22 14:57:07.43	19.29	11.64	-34.6	-34.5	14.8	8.62e-03	0	55	0	15904800768	40	14482
2026-01-22 14:57:08.41	19.03	11.66	-34.7	-34.6	14.7	8.62e-03	0	55	0	16022241280	40	14649
2026-01-22 14:57:09.40	18.76	11.67	-34.6	-34.5	14.8	8.62e-03	0	55	0	16131293184	40	14515
2026-01-22 14:57:10.39	18.49	11.69	-34.5	-34.4	14.8	8.79e-03	0	55	0	16248733696	40	14337
2026-01-22 14:57:11.37	18.22	11.70	-34.6	-34.5	14.8	8.79e-03	0	55	0	16357785600	40	14509
2026-01-22 14:57:12.35	17.96	11.71	-34.6	-34.5	14.8	8.46e-03	0	55	0	16466837504	40	14574
2026-01-22 14:57:13.33	17.69	11.73	-34.6	-34.5	14.8	8.46e-03	0	55	0	16575889408	40	14470
2026-01-22 14:57:14.31	17.42	11.74	-34.6	-34.5	14.8	8.46e-03	0	55	0	16684941312	40	14542
2026-01-22 14:57:15.29	17.15	11.75	-34.6	-34.5	14.8	8.91e-03	0	55	0	16793993216	40	14507
2026-01-22 14:57:16.27	16.88	11.76	-34.7	-34.6	14.7	8.91e-03	0	55	0	16911433728	40	14670
2026-01-22 14:57:17.26	16.61	11.77	-34.7	-34.5	14.8	8.91e-03	0	55	0	17020485632	40	14603
2026-01-22 14:57:18.25	16.34	11.78	-34.6	-34.5	14.8	8.45e-03	0	55	0	17137926144	40	14475
2026-01-22 14:57:19.23	16.07	11.79	-34.6	-34.5	14.8	8.45e-03	0	55	0	17238589440	40	14584
2026-01-22 14:57:20.21	15.80	11.80	-34.5	-34.4	14.8	8.46e-03	0	55	0	17347641344	40	14417
2026-01-22 14:57:21.20	15.53	11.81	-34.7	-34.6	14.8	8.46e-03	0	55	0	17456693248	40	14613
2026-01-22 14:57:22.20	15.26	11.82	-34.8	-34.7	14.7	8.46e-03	0	55	0	17574133760	40	14804
2026-01-22 14:57:23.18	14.99	11.82	-34.7	-34.5	14.8	8.45e-03	0	55	0	17683185664	40	14597
2026-01-22 14:57:24.17	14.71	11.83	-34.7	-34.5	14.8	8.45e-03	0	55	0	17800626176	40	14603
2026-01-22 14:57:25.17	14.44	11.84	-34.6	-34.5	14.8	8.45e-03	0	55	0	17909678080	40	14467
2026-01-22 14:57:26.16	14.17	11.84	-34.7	-34.6	14.8	8.13e-03	0	55	0	18027118592	40	14666
2026-01-22 14:57:27.15	13.89	11.85	-34.7	-34.5	14.8	8.13e-03	0	55	0	18136170496	40	14596
2026-01-22 14:57:28.13	13.62	11.85	-34.6	-34.5	14.8	8.13e-03	0	55	0	18236833792	40	14569
2026-01-22 14:57:29.13	13.35	11.86	-34.7	-34.6	14.8	8.01e-03	0	55	0	18345885696	40	14750
2026-01-22 14:57:30.12	13.07	11.86	-34.7	-34.6	14.9	8.01e-03	0	55	0	18463326208	40	14635
2026-01-22 14:57:31.11	12.80	11.86	-34.6	-34.5	14.9	8.20e-03	0	55	0	18572378112	40	14555
2026-01-22 14:57:32.09	12.53	11.86	-34.6	-34.5	14.9	8.20e-03	0	55	0	18689818624	40	14579
2026-01-22 14:57:33.08	12.26	11.87	-34.6	-34.5	14.9	8.20e-03	0	55	0	18798870528	40	14523
2026-01-22 14:57:34.06	11.99	11.87	-34.5	-34.4	15.0	8.20e-03	0	55	0	18907922432	40	14363
2026-01-22 14:57:35.05	11.71	11.87	-34.6	-34.5	14.9	6.98e-03	0	55	0	19025362944	40	14493
2026-01-22 14:57:36.04	11.44	11.87	-34.6	-34.5	14.9	6.98e-03	0	55	0	19126026240	40	14596
2026-01-22 14:57:37.02	11.17	11.87	-34.7	-34.6	14.9	6.98e-03	0	55	0	19235078144	40	14734
2026-01-22 14:57:38.01	10.90	11.87	-34.6	-34.5	15.0	6.85e-03	0	55	0	19352518656	40	14453
2026-01-22 14:57:38.99	10.63	11.87	-34.5	-34.4	15.0	6.85e-03	0	55	0	19461570560	40	14325
2026-01-22 14:57:39.97	10.36	11.86	-34.4	-34.3	15.0	6.85e-03	0	55	0	19579011072	40	14238
2026-01-22 14:57:40.96	10.08	11.86	-34.6	-34.5	15.0	6.77e-03	0	55	0	19688062976	40	14468
2026-01-22 14:57:41.94	9.81	11.86	-34.5	-34.4	15.0	6.77e-03	0	55	0	19788726272	40	14380
2026-01-22 14:57:42.92	9.54	11.86	-34.4	-34.3	15.1	7.20e-03	0	55	0	19897778176	40	14211
2026-01-22 14:57:43.91	9.27	11.85	-34.0	-34.1	14.0	7.20e-03	963	55	0	20015218688	39	14610
2026-01-22 14:57:44.90	9.00	11.85	-34.0	-34.1	14.0	7.20e-03	938	55	0	20124270592	39	14643
2026-01-22 14:57:45.88	8.73	11.84	-33.9	-34.1	14.1	7.20e-03	930	55	0	20241711104	39	14630
2026-01-22 14:57:46.87	8.45	11.84	-34.0	-34.1	14.0	1.68e-01	954	55	0	20350763008	39	14752
2026-01-22 14:57:47.86	8.18	11.83	-33.9	-34.0	14.0	1.68e-01	971	56	0	20468203520	39	14592
2026-01-22 14:57:48.85	7.91	11.82	-33.8	-34.0	14.1	1.68e-01	912	55	0	20577255424	39	14463
2026-01-22 14:57:49.84	7.64	11.82	-33.8	-33.9	14.2	1.89e-01	893	55	0	20677918720	39	14439
2026-01-22 14:57:50.82	7.37	11.81	-33.7	-34.0	14.2	1.89e-01	927	55	0	20786970624	39	14480
2026-01-22 14:57:51.81	7.09	11.80	-33.8	-34.0	14.1	1.89e-01	911	55	0	20904411136	39	14579
2026-01-22 14:57:52.80	6.82	11.79	-33.7	-34.0	14.1	1.92e-01	929	55	0	21013463040	39	14587
2026-01-22 14:57:53.79	6.55	11.78	-33.7	-33.9	14.2	1.92e-01	917	55	0	21130903552	39	14290
2026-01-22 14:57:54.77	6.28	11.77	-33.7	-34.0	14.2	1.92e-01	932	55	0	21239955456	39	14558
2026-01-22 14:57:55.75	6.01	11.76	-33.8	-34.1	14.1	1.92e-01	950	55	0	21349007360	39	14645
2026-01-22 14:57:56.75	5.74	11.75	-33.7	-34.1	14.1	2.07e-01	951	55	0	21466447872	39	14713
2026-01-22 14:57:57.74	5.47	11.74	-33.7	-34.0	14.0	2.07e-01	973	55	0	21567111168	39	14449
2026-01-22 14:57:58.73	5.20	11.73	-33.7	-33.8	14.0	2.07e-01	987	55	0	21676163072	39	14214
2026-01-22 14:57:59.71	4.93	11.71	-33.8	-34.0	14.0	1.91e-01	997	55	0	21793603584	39	14465
2026-01-22 14:58:00.69	4.67	11.70	-33.6	-33.8	14.0	1.91e-01	1006	56	0	21902655488	38	14980
2026-01-22 14:58:01.67	4.40	11.69	-33.4	-33.8	14.2	2.22e-01	996	55	0	22020096000	38	14997
2026-01-22 14:58:02.65	4.13	11.67	-33.6	-33.9	14.0	2.22e-01	960	55	0	22129147904	38	15293
2026-01-22 14:58:03.63	3.87	11.66	-34.3	-34.2	15.2	2.22e-01	0	55	0	22229811200	39	14803
2026-01-22 14:58:04.62	3.60	11.64	-34.3	-34.2	15.2	1.17e-01	0	55	0	22338863104	39	14940
2026-01-22 14:58:05.60	3.33	11.63	-34.3	-34.2	15.3	1.17e-01	0	55	0	22456303616	39	14838
2026-01-22 14:58:06.58	3.07	11.61	-34.3	-34.2	15.3	1.17e-01	0	55	0	22565355520	39	14935
2026-01-22 14:58:07.56	2.80	11.59	-34.3	-34.2	15.2	4.79e-03	0	55	0	22682796032	39	14933
2026-01-22 14:58:08.55	2.54	11.58	-34.6	-34.5	15.2	4.79e-03	0	55	0	22791847936	39	15324
2026-01-22 14:58:09.54	2.27	11.56	-34.3	-34.2	15.3	4.79e-03	0	55	0	22909288448	39	14849
2026-01-22 14:58:10.53	2.00	11.54	-34.3	-34.2	15.3	5.01e-03	0	55	0	23009951744	39	14915
2026-01-22 14:58:11.52	1.74	11.52	-34.3	-34.2	15.3	5.01e-03	0	55	0	23119003648	39	14912
2026-01-22 14:58:12.51	1.47	11.50	-34.4	-34.3	15.2	4.42e-03	0	55	0	23228055552	39	15091
2026-01-22 14:58:13.50	1.21	11.48	-34.3	-34.2	15.2	4.42e-03	0	55	0	23345496064	39	14865
2026-01-22 14:58:14.48	0.95	11.46	-34.2	-34.1	15.3	4.42e-03	0	55	0	23454547968	39	14740
2026-01-22 14:58:15.48	0.68	11.44	-34.4	-34.4	15.2	5.11e-03	0	55	0	23571988480	39	15132
2026-01-22 14:58:16.47	0.42	11.42	-34.4	-34.3	15.2	5.11e-03	0	55	0	23681040384	39	15080
2026-01-22 14:58:17.46	0.15	11.40	-34.2	-34.1	15.3	4.88e-03	0	55	0	23790092288	39	14719
2026-01-22 14:58:18.44	359.89	11.38	-34.2	-34.1	15.2	4.88e-03	0	55	0	23907532800	39	14770
2026-01-22 14:58:19.44	359.63	11.36	-34.3	-34.2	15.2	4.88e-03	0	55	0	24008196096	39	14843
2026-01-22 14:58:20.43	359.37	11.33	-34.4	-34.3	15.1	4.68e-03	0	55	0	24117248000	39	15046
2026-01-22 14:58:21.42	359.10	11.31	-34.3	-34.2	15.2	4.68e-03	0	55	0	24234688512	39	14866
2026-01-22 14:58:22.40	358.85	11.28	-34.3	-34.2	15.2	4.68e-03	0	55	0	24343740416	39	14917
2026-01-22 14:58:23.39	358.59	11.26	-34.4	-34.3	15.2	5.01e-03	0	55	0	24461180928	39	15098
2026-01-22 14:58:24.38	358.33	11.24	-34.4	-34.3	15.2	5.01e-03	0	55	0	24570232832	39	15118
2026-01-22 14:58:25.36	358.07	11.21	-34.4	-34.3	15.2	5.35e-03	0	55	0	24679284736	39	15025
2026-01-22 14:58:26.34	357.81	11.18	-34.4	-34.3	15.1	5.35e-03	0	55	0	24796725248	39	15077
2026-01-22 14:58:27.32	357.56	11.16	-34.3	-34.2	15.2	5.38e-03	0	55	0	24897388544	39	14946
2026-01-22 14:58:28.31	357.30	11.13	-34.3	-34.2	15.2	5.38e-03	0	55	0	25006440448	39	14905
2026-01-22 14:58:29.29	357.05	11.11	-34.5	-34.4	15.1	5.63e-03	0	55	0	25123880960	39	15185
2026-01-22 14:58:30.26	356.80	11.08	-34.5	-34.4	15.1	5.63e-03	0	55	0	25232932864	39	15189
2026-01-22 14:58:31.25	356.54	11.05	-34.4	-34.4	15.0	5.63e-03	0	55	0	25350373376	39	15215
2026-01-22 14:58:32.23	356.29	11.02	-34.5	-34.5	15.0	6.24e-03	0	55	0	25451036672	39	15371
2026-01-22 14:58:33.22	356.03	10.99	-34.5	-34.5	15.0	6.24e-03	0	55	0	25560088576	39	15398
2026-01-22 14:58:34.20	355.78	10.96	-34.4	-34.4	15.1	6.24e-03	0	56	0	25669140480	39	15130
2026-01-22 14:58:35.19	355.53	10.93	-34.6	-34.5	15.1	1.10e-02	0	55	0	25786580992	39	15419
2026-01-22 14:58:36.18	355.28	10.90	-34.5	-34.5	15.1	1.10e-02	0	55	0	25895632896	39	15318
2026-01-22 14:58:37.17	355.03	10.87	-34.6	-34.5	15.1	1.10e-02	0	55	0	26013073408	39	15350
2026-01-22 14:58:38.16	354.77	10.84	-34.5	-34.5	15.1	1.41e-02	0	55	0	26122125312	39	15331
2026-01-22 14:58:39.15	354.52	10.81	-34.5	-34.5	15.1	1.41e-02	0	55	0	26239565824	39	15325
2026-01-22 14:58:40.14	354.27	10.78	-34.6	-34.5	15.1	1.35e-02	0	56	0	26340229120	39	15354
2026-01-22 14:58:41.13	354.02	10.75	-34.6	-34.6	15.0	1.35e-02	0	55	0	26449281024	40	14643
2026-01-22 14:58:42.12	353.78	10.72	-34.8	-34.7	15.0	1.35e-02	0	55	0	26558332928	40	14834
2026-01-22 14:58:43.10	353.53	10.68	-53.5	-55.8	6.2	1.37e-02	0	54	104	26600275968	77	19989
2026-01-22 14:58:44.09	353.28	10.65	-53.5	-55.7	6.2	1.37e-02	0	54	104	26600275968	77	19771
2026-01-22 14:58:45.08	353.04	10.62	-53.5	-55.6	6.2	1.37e-02	0	54	104	26600275968	77	19628
2026-01-22 14:58:46.07	352.79	10.58	-53.5	-55.6	6.2	1.37e-02	0	54	104	26600275968	77	19668
2026-01-22 14:58:47.06	352.55	10.55	-53.4	-55.6	6.2	1.37e-02	0	54	104	26600275968	77	19480
2026-01-22 14:58:48.05	352.30	10.51	-53.5	-55.6	6.2	1.37e-02	0	54	104	26600275968	77	19482
2026-01-22 14:58:49.03	352.06	10.48	-53.5	-55.6	6.2	1.37e-02	0	54	104	26600275968	77	19605
2026-01-22 14:58:50.02	351.82	10.44	-53.5	-55.7	6.2	1.37e-02	0	54	104	26600275968	77	19712
2026-01-22 14:58:51.01	351.57	10.41	-53.4	-55.5	6.2	1.37e-02	0	54	104	26600275968	77	19448
2026-01-22 14:58:51.99	351.33	10.37	-53.4	-55.6	6.2	1.37e-02	0	54	104	26600275968	77	19525
2026-01-22 14:58:52.98	351.09	10.33	-53.4	-55.5	6.2	1.37e-02	0	54	104	26600275968	77	19446
2026-01-22 14:58:53.96	350.86	10.30	-53.5	-55.6	6.2	0.00e+00	0	54	104	26600275968	77	19658
2026-01-22 14:58:54.96	350.61	10.26	-53.4	-55.6	6.2	0.00e+00	0	54	104	26600275968	77	19512
2026-01-22 14:58:55.94	350.38	10.22	-53.4	-55.6	6.2	0.00e+00	0	54	104	26600275968	77	19520
2026-01-22 14:58:56.93	350.14	10.19	-53.4	-55.6	6.2	0.00e+00	0	54	104	26600275968	77	19527
2026-01-22 14:58:57.91	349.91	10.15	-53.5	-55.6	6.2	0.00e+00	0	54	104	26600275968	77	19655
2026-01-22 14:58:58.90	349.67	10.11	-53.4	-55.5	6.2	0.00e+00	0	53	104	26600275968	77	19461
2026-01-22 14:58:59.89	349.43	10.07	-53.4	-55.6	6.2	0.00e+00	0	53	104	26600275968	77	19502
2026-01-22 14:59:00.87	349.20	10.03	-53.4	-55.6	6.2	0.00e+00	0	53	104	26600275968	77	19527
2026-01-22 14:59:01.86	348.97	9.99	-53.5	-55.6	6.2	0.00e+00	0	53	104	26600275968	77	19640
2026-01-22 14:59:02.85	348.73	9.95	-53.4	-55.5	6.2	0.00e+00	0	53	104	26600275968	77	19450
2026-01-22 14:59:03.84	348.50	9.91	-53.4	-55.6	6.2	0.00e+00	0	53	104	26600275968	77	19504
2026-01-22 14:59:04.83	348.27	9.87	-53.4	-55.6	6.2	0.00e+00	0	53	104	26600275968	77	19492
2026-01-22 14:59:05.82	348.04	9.83	-53.5	-55.6	6.2	0.00e+00	0	53	104	26600275968	77	19560
2026-01-22 14:59:06.81	347.81	9.79	-53.4	-55.5	6.2	0.00e+00	0	53	104	26600275968	77	19360
2026-01-22 14:59:07.79	347.58	9.75	-53.4	-55.5	6.2	0.00e+00	0	53	104	26600275968	77	19418
2026-01-22 14:59:08.78	347.35	9.71	-53.4	-55.5	6.2	0.00e+00	0	53	104	26600275968	77	19441
2026-01-22 14:59:09.76	347.13	9.67	-53.5	-55.6	6.2	0.00e+00	0	53	104	26600275968	77	19601
2026-01-22 14:59:10.75	346.90	9.63	-53.4	-55.5	6.2	0.00e+00	0	53	104	26600275968	77	19380
2026-01-22 14:59:11.74	346.68	9.58	-53.4	-55.5	6.2	0.00e+00	0	53	104	26600275968	77	19366
2026-01-22 14:59:12.73	346.45	9.54	-53.4	-55.5	6.2	0.00e+00	0	53	104	26600275968	77	19389
2026-01-22 14:59:13.71	346.23	9.50	-53.4	-55.5	6.2	0.00e+00	0	53	104	26600275968	77	19462
2026-01-22 14:59:14.69	346.01	9.46	-53.3	-55.5	6.2	0.00e+00	0	53	104	26600275968	77	19305
2026-01-22 14:59:15.67	345.79	9.41	-53.3	-55.4	6.2	0.00e+00	0	53	104	26600275968	77	19212
2026-01-22 14:59:16.65	345.57	9.37	-53.3	-55.5	6.2	0.00e+00	0	53	104	26600275968	77	19297
2026-01-22 14:59:17.63	345.35	9.33	-53.4	-55.5	6.2	0.00e+00	0	53	104	26600275968	77	19394
2026-01-22 14:59:18.61	345.13	9.28	-53.3	-55.4	6.2	0.00e+00	0	53	104	26600275968	77	19192
2026-01-22 14:59:19.59	344.91	9.24	-53.3	-55.4	6.2	0.00e+00	0	53	104	26600275968	77	19154
2026-01-22 14:59:20.57	344.70	9.19	-53.3	-55.4	6.2	0.00e+00	0	53	104	26600275968	77	19223
2026-01-22 14:59:21.56	344.48	9.15	-53.4	-55.5	6.2	0.00e+00	0	53	104	26600275968	77	19314
2026-01-22 14:59:22.54	344.26	9.11	-53.3	-55.5	6.2	0.00e+00	0	53	104	26600275968	77	19269
2026-01-22 14:59:23.52	344.05	9.06	-53.3	-55.4	6.2	0.00e+00	0	53	104	26600275968	77	19064
2026-01-22 14:59:24.50	343.84	9.02	-53.3	-55.4	6.2	0.00e+00	0	53	104	26600275968	77	19237
2026-01-22 14:59:25.49	343.62	8.97	-53.4	-55.5	6.2	0.00e+00	0	53	104	26600275968	77	19315
2026-01-22 14:59:26.48	343.41	8.92	-53.3	-55.5	6.2	0.00e+00	0	53	104	26600275968	77	19261
2026-01-22 14:59:27.46	343.20	8.88	-53.3	-55.4	6.2	0.00e+00	0	53	104	26600275968	77	19195
2026-01-22 14:59:28.44	342.99	8.83	-53.3	-55.4	6.2	0.00e+00	0	53	104	26600275968	77	19171
2026-01-22 14:59:29.43	342.78	8.79	-53.3	-55.5	6.2	0.00e+00	0	53	104	26600275968	77	19289
2026-01-22 14:59:30.42	342.57	8.74	-53.3	-55.4	6.2	0.00e+00	0	53	104	26600275968	77	19220
2026-01-22 14:59:31.41	342.36	8.69	-53.3	-55.4	6.2	0.00e+00	0	53	104	26600275968	77	19140
2026-01-22 14:59:32.40	342.15	8.65	-53.3	-55.4	6.2	0.00e+00	0	53	104	26600275968	77	19148
2026-01-22 14:59:33.38	341.94	8.60	-53.3	-55.4	6.2	0.00e+00	0	53	104	26600275968	77	19230
2026-01-22 14:59:34.37	341.73	8.55	-53.3	-55.4	6.2	0.00e+00	0	53	104	26600275968	77	19240
2026-01-22 14:59:35.36	341.53	8.50	-53.2	-55.4	6.2	0.00e+00	0	53	104	26600275968	77	19068
2026-01-22 14:59:36.35	341.32	8.46	-53.3	-55.4	6.2	0.00e+00	0	53	104	26600275968	77	19114
2026-01-22 14:59:37.33	341.12	8.41	-53.3	-55.4	6.2	0.00e+00	0	52	104	26600275968	77	19147
2026-01-22 14:59:38.31	340.92	8.36	-53.3	-55.4	6.2	0.00e+00	0	52	104	26600275968	77	19235
2026-01-22 14:59:39.29	340.72	8.31	-53.2	-55.3	6.2	0.00e+00	0	52	104	26600275968	77	18981
2026-01-22 14:59:40.27	340.52	8.27	-53.2	-55.4	6.2	0.00e+00	0	52	104	26600275968	77	19047
2026-01-22 14:59:41.26	340.32	8.22	-53.3	-55.4	6.2	0.00e+00	0	52	104	26600275968	77	19146
2026-01-22 14:59:42.24	340.12	8.17	-53.3	-55.4	6.2	0.00e+00	0	52	104	26600275968	77	19160
2026-01-22 14:59:43.21	339.92	8.12	-53.2	-55.3	6.2	0.00e+00	0	53	104	26600275968	77	19002
2026-01-22 14:59:44.19	339.73	8.07	-53.2	-55.3	6.2	0.00e+00	0	52	104	26600275968	77	19035
2026-01-22 14:59:45.18	339.53	8.02	-53.3	-55.4	6.2	0.00e+00	0	52	104	26600275968	77	19094
2026-01-22 14:59:46.16	339.33	7.97	-53.3	-55.4	6.2	0.00e+00	0	52	104	26600275968	77	19119
2026-01-22 14:59:47.13	339.14	7.93	-53.2	-55.3	6.2	0.00e+00	0	52	104	26600275968	77	18912
2026-01-22 14:59:48.12	338.95	7.88	-53.2	-55.3	6.2	0.00e+00	0	52	104	26600275968	77	18970
2026-01-22 14:59:49.11	338.75	7.83	-53.2	-55.3	6.2	0.00e+00	0	52	104	26600275968	77	18980
2026-01-22 14:59:50.09	338.56	7.78	-53.3	-55.4	6.2	0.00e+00	0	52	104	26600275968	77	19141
2026-01-22 14:59:51.08	338.37	7.73	-53.2	-55.3	6.2	0.00e+00	0	52	104	26600275968	77	18839
2026-01-22 14:59:52.06	338.18	7.68	-53.2	-55.3	6.2	0.00e+00	0	52	104	26600275968	77	18944
2026-01-22 14:59:53.05	337.99	7.63	-53.2	-55.3	6.2	0.00e+00	0	52	104	26600275968	77	18970
2026-01-22 14:59:54.04	337.80	7.58	-53.3	-55.4	6.2	0.00e+00	0	52	104	26600275968	77	19081
2026-01-22 14:59:55.03	337.61	7.53	-53.1	-55.3	6.2	0.00e+00	0	52	104	26600275968	77	18825
2026-01-22 14:59:56.02	337.42	7.47	-53.2	-55.3	6.2	0.00e+00	0	52	104	26600275968	77	18910
2026-01-22 14:59:57.01	337.23	7.42	-53.2	-55.3	6.2	0.00e+00	0	52	104	26600275968	77	18903
2026-01-22 14:59:58.00	337.04	7.37	-53.2	-55.4	6.2	0.00e+00	0	52	104	26600275968	77	19069
2026-01-22 14:59:58.99	336.86	7.32	-53.1	-55.2	6.2	0.00e+00	0	52	104	26600275968	77	18716
2026-01-22 14:59:59.98	336.67	7.27	-53.1	-55.2	6.2	0.00e+00	0	52	104	26600275968	77	18810
2026-01-22 15:00:00.97	336.49	7.22	-53.2	-55.3	6.2	0.00e+00	0	52	104	26600275968	77	18930
2026-01-22 15:00:01.95	336.30	7.17	-53.2	-55.3	6.2	0.00e+00	0	52	104	26600275968	77	18971
2026-01-22 15:00:02.94	336.12	7.12	-53.1	-55.2	6.2	0.00e+00	0	52	104	26600275968	77	18630
2026-01-22 15:00:03.92	335.94	7.07	-53.1	-55.2	6.2	0.00e+00	0	52	104	26600275968	77	18768
2026-01-22 15:00:04.90	335.76	7.02	-53.1	-55.2	6.2	0.00e+00	0	52	104	26600275968	77	18795
2026-01-22 15:00:05.89	335.58	6.96	-53.2	-55.3	6.2	0.00e+00	0	52	104	26600275968	77	18965
2026-01-22 15:00:06.87	335.40	6.91	-53.0	-55.2	6.2	0.00e+00	0	52	104	26600275968	77	18625
2026-01-22 15:00:07.86	335.22	6.86	-53.1	-55.2	6.2	0.00e+00	0	52	104	26600275968	77	18715
2026-01-22 15:00:08.84	335.05	6.81	-53.1	-55.2	6.2	0.00e+00	0	52	104	26600275968	77	18711
2026-01-22 15:00:09.83	334.87	6.76	-53.2	-55.2	6.2	0.00e+00	0	52	104	26600275968	77	18790
2026-01-22 15:00:10.81	334.70	6.71	-53.0	-55.1	6.2	0.00e+00	0	52	104	26600275968	77	18502
2026-01-22 15:00:11.79	334.52	6.65	-53.0	-55.2	6.2	0.00e+00	0	52	104	26600275968	77	18617
2026-01-22 15:00:12.77	334.35	6.60	-53.1	-55.2	6.2	0.00e+00	0	52	104	26600275968	77	18638
2026-01-22 15:00:13.75	334.18	6.55	-53.1	-55.2	6.2	0.00e+00	0	52	104	26600275968	77	18789
2026-01-22 15:00:14.73	334.00	6.50	-53.0	-55.1	6.2	0.00e+00	0	52	104	26600275968	77	18509
2026-01-22 15:00:15.71	333.83	6.45	-53.0	-55.1	6.2	0.00e+00	0	52	104	26600275968	77	18528
2026-01-22 15:00:16.69	333.66	6.40	-53.0	-55.1	6.2	0.00e+00	0	52	104	26600275968	77	18553
2026-01-22 15:00:17.67	333.49	6.34	-53.1	-55.2	6.2	0.00e+00	0	52	104	26600275968	77	18758
2026-01-22 15:00:18.65	333.33	6.29	-52.9	-55.1	6.2	0.00e+00	0	52	104	26600275968	77	18392
2026-01-22 15:00:19.63	333.16	6.24	-52.9	-55.1	6.2	0.00e+00	0	52	104	26600275968	77	18393
2026-01-22 15:00:20.62	332.99	6.19	-53.0	-55.1	6.2	0.00e+00	0	52	104	26600275968	77	18494
2026-01-22 15:00:21.60	332.82	6.13	-53.0	-55.2	6.2	0.00e+00	0	52	104	26600275968	77	18646
2026-01-22 15:00:22.59	332.66	6.08	-52.9	-55.1	6.2	0.00e+00	0	52	104	26600275968	77	18400
2026-01-22 15:00:23.58	332.49	6.03	-52.9	-55.0	6.2	0.00e+00	0	52	104	26600275968	77	18317
2026-01-22 15:00:24.57	332.32	5.98	-52.9	-55.1	6.2	0.00e+00	0	52	104	26600275968	77	18443
2026-01-22 15:00:25.56	332.16	5.92	-53.0	-55.1	6.2	0.00e+00	0	52	104	26600275968	77	18566
2026-01-22 15:00:26.56	331.99	5.87	-52.9	-55.0	6.2	0.00e+00	0	52	104	26600275968	77	18330
2026-01-22 15:00:27.55	331.83	5.82	-52.9	-55.0	6.2	0.00e+00	0	52	104	26600275968	77	18283
2026-01-22 15:00:28.54	331.67	5.76	-52.9	-55.0	6.2	0.00e+00	0	52	104	26600275968	77	18336
2026-01-22 15:00:29.53	331.50	5.71	-52.9	-55.1	6.2	0.00e+00	0	52	104	26600275968	77	18420
2026-01-22 15:00:30.52	331.34	5.66	-52.9	-55.0	6.2	0.00e+00	0	52	104	26600275968	77	18316
2026-01-22 15:00:31.50	331.18	5.60	-52.8	-54.9	6.2	0.00e+00	0	52	104	26600275968	77	18113
2026-01-22 15:00:32.49	331.03	5.55	-52.8	-55.0	6.2	0.00e+00	0	52	104	26600275968	77	18210
2026-01-22 15:00:33.48	330.87	5.50	-52.9	-55.0	6.2	0.00e+00	0	52	104	26600275968	77	18238
2026-01-22 15:00:34.47	330.71	5.44	-52.8	-54.9	6.2	0.00e+00	0	52	104	26600275968	77	18086
2026-01-22 15:00:35.45	330.55	5.39	-52.7	-54.8	6.2	0.00e+00	0	52	104	26600275968	77	17797
2026-01-22 15:00:36.44	330.40	5.34	-52.7	-54.9	6.2	0.00e+00	0	52	104	26600275968	77	18051
2026-01-22 15:00:37.42	330.24	5.29	-52.7	-54.9	6.2	0.00e+00	0	52	104	26600275968	77	18066
2026-01-22 15:00:38.41	330.09	5.23	-52.7	-54.8	6.2	0.00e+00	0	52	104	26600275968	77	17857
2026-01-22 15:00:39.39	329.93	5.18	-52.5	-54.6	6.2	0.00e+00	0	52	104	26600275968	77	17449
2026-01-22 15:00:40.37	329.78	5.13	-52.6	-54.8	6.2	0.00e+00	0	52	104	26600275968	77	17873
2026-01-22 15:00:41.36	329.63	5.07	-52.7	-54.8	6.2	0.00e+00	0	52	104	26600275968	77	17884
2026-01-22 15:00:42.34	329.48	5.02	-52.7	-54.9	6.2	0.00e+00	0	52	104	26600275968	77	18130
2026-01-22 15:00:43.32	329.33	4.97	-53.2	-55.3	6.2	0.00e+00	0	52	104	26600275968	77	18830
2026-01-22 15:00:44.31	329.18	4.91	-53.2	-55.4	6.2	0.00e+00	0	52	104	26600275968	77	19036
2026-01-22 15:00:45.29	329.03	4.86	-53.4	-55.3	6.2	0.00e+00	0	52	104	26600275968	77	19025
2026-01-22 15:00:46.28	328.88	4.81	-53.7	-55.8	6.2	0.00e+00	0	52	104	26600275968	77	20011
2026-01-22 15:00:47.26	328.73	4.75	-53.8	-55.9	6.2	0.00e+00	0	52	104	26600275968	78	19205
2026-01-22 15:00:48.25	328.58	4.70	-53.9	-56.0	6.2	0.00e+00	0	52	104	26600275968	78	19437
2026-01-22 15:00:49.24	328.44	4.65	-53.9	-56.0	6.2	0.00e+00	0	52	104	26600275968	78	19476
2026-01-22 15:00:50.24	328.29	4.59	-53.9	-56.1	6.2	0.00e+00	0	52	104	26600275968	78	19509
2026-01-22 15:00:51.22	328.14	4.54	-53.9	-56.1	6.2	0.00e+00	0	52	104	26600275968	78	19501
2026-01-22 15:00:52.21	328.00	4.49	-53.9	-56.0	6.2	0.00e+00	0	52	104	26600275968	78	19300
2026-01-22 15:00:53.20	327.85	4.43	-53.7	-55.9	6.2	0.00e+00	0	52	104	26600275968	78	19065
2026-01-22 15:00:54.19	327.71	4.38	-53.8	-55.9	6.2	0.00e+00	0	52	104	26600275968	78	19135
2026-01-22 15:00:55.18	327.57	4.33	-53.8	-55.9	6.2	0.00e+00	0	52	104	26600275968	78	19210
2026-01-22 15:00:56.17	327.42	4.27	-53.9	-56.0	6.2	0.00e+00	0	52	104	26600275968	78	19303
2026-01-22 15:00:57.15	327.28	4.22	-53.9	-56.1	6.2	0.00e+00	0	52	104	26600275968	78	19513
2026-01-22 15:00:58.14	327.14	4.17	-54.0	-56.1	6.2	0.00e+00	0	52	104	26600275968	78	19512
2026-01-22 15:00:59.14	327.00	4.11	-54.0	-56.1	6.2	0.00e+00	0	52	104	26600275968	78	19623
2026-01-22 15:01:00.12	326.86	4.06	-54.0	-56.2	6.2	0.00e+00	0	52	104	26600275968	78	19726
2026-01-22 15:01:01.11	326.72	4.01	-53.9	-56.1	6.2	0.00e+00	0	52	104	26600275968	78	19632
2026-01-22 15:01:02.10	326.58	3.95	-54.0	-56.1	6.2	0.00e+00	0	52	104	26600275968	78	19684
2026-01-22 15:01:03.09	326.44	3.90	-54.0	-56.1	6.2	0.00e+00	0	52	104	26600275968	78	19684
2026-01-22 15:01:04.08	326.31	3.85	-53.9	-56.1	6.2	0.00e+00	0	52	104	26600275968	78	19598
2026-01-22 15:01:05.06	326.17	3.79	-53.9	-56.1	6.2	0.00e+00	0	52	104	26600275968	78	19590
2026-01-22 15:01:06.04	326.04	3.74	-53.9	-56.1	6.2	0.00e+00	0	52	104	26600275968	78	19545
2026-01-22 15:01:07.02	325.90	3.69	-53.8	-56.1	6.2	0.00e+00	0	52	104	26600275968	78	19588
2026-01-22 15:01:08.00	325.77	3.63	-53.8	-56.1	6.2	0.00e+00	0	52	104	26600275968	78	19496
2026-01-22 15:01:08.98	325.64	3.58	-53.8	-56.0	6.2	0.00e+00	0	52	104	26600275968	78	19394
2026-01-22 15:01:09.95	325.51	3.53	-53.8	-56.1	6.2	0.00e+00	0	52	104	26600275968	78	19488
2026-01-22 15:01:10.94	325.37	3.48	-53.7	-56.0	6.2	0.00e+00	0	52	104	26600275968	78	19425
2026-01-22 15:01:11.92	325.24	3.42	-53.7	-56.0	6.2	0.00e+00	0	52	104	26600275968	78	19457
2026-01-22 15:01:12.90	325.11	3.37	-53.7	-56.0	6.2	0.00e+00	0	52	104	26600275968	78	19363
2026-01-22 15:01:13.88	324.98	3.32	-53.7	-56.0	6.2	0.00e+00	0	52	104	26600275968	78	19335
2026-01-22 15:01:14.86	324.85	3.26	-53.8	-56.0	6.2	0.00e+00	0	52	104	26600275968	78	19329
2026-01-22 15:01:15.85	324.72	3.21	-53.8	-56.0	6.2	0.00e+00	0	52	104	26600275968	78	19429
2026-01-22 15:01:16.84	324.59	3.16	-54.0	-56.1	6.2	0.00e+00	0	52	104	26600275968	78	19524
2026-01-22 15:01:17.82	324.47	3.10	-53.9	-56.1	6.2	0.00e+00	0	52	104	26600275968	78	19531
2026-01-22 15:01:18.81	324.34	3.05	-53.9	-56.1	6.2	0.00e+00	0	52	104	26600275968	78	19527
2026-01-22 15:01:19.80	324.21	3.00	-53.9	-56.1	6.2	0.00e+00	0	52	104	26600275968	78	19517
2026-01-22 15:01:20.79	324.08	2.95	-53.9	-56.1	6.2	0.00e+00	0	52	104	26600275968	78	19501
2026-01-22 15:01:21.78	323.96	2.89	-53.9	-56.1	6.2	0.00e+00	0	52	104	26600275968	78	19495
2026-01-22 15:01:22.77	323.83	2.84	-53.9	-56.0	6.2	0.00e+00	0	52	104	26600275968	78	19428
2026-01-22 15:01:23.77	323.71	2.79	-53.9	-56.0	6.2	0.00e+00	0	52	104	26600275968	78	19438
2026-01-22 15:01:24.77	323.58	2.73	-53.9	-56.1	6.2	0.00e+00	0	52	104	26600275968	78	19487
2026-01-22 15:01:25.76	323.46	2.68	-53.9	-56.1	6.2	0.00e+00	0	52	104	26600275968	78	19507
2026-01-22 15:01:26.76	323.33	2.62	-53.9	-56.1	6.2	0.00e+00	0	52	104	26600275968	78	19488
2026-01-22 15:01:27.76	323.21	2.57	-53.9	-56.0	6.2	0.00e+00	0	52	104	26600275968	78	19443
2026-01-22 15:01:28.75	323.09	2.52	-53.9	-56.0	6.2	0.00e+00	0	52	104	26600275968	78	19434
2026-01-22 15:01:29.75	322.96	2.46	-53.9	-56.0	6.2	0.00e+00	0	52	104	26600275968	78	19428
2026-01-22 15:01:30.75	322.84	2.41	-53.9	-56.0	6.2	0.00e+00	0	52	104	26600275968	78	19409
2026-01-22 15:01:31.75	322.72	2.36	-53.9	-56.0	6.2	0.00e+00	0	52	104	26600275968	78	19412
2026-01-22 15:01:32.74	322.60	2.31	-53.9	-56.0	6.2	0.00e+00	0	52	104	26600275968	78	19410
2026-01-22 15:01:33.73	322.48	2.25	-53.9	-56.0	6.2	0.00e+00	0	52	104	26600275968	78	19444
2026-01-22 15:01:34.73	322.36	2.20	-53.9	-56.0	6.2	0.00e+00	0	52	104	26600275968	78	19403
2026-01-22 15:01:35.72	322.24	2.15	-53.9	-56.0	6.2	0.00e+00	0	52	104	26600275968	78	19471
2026-01-22 15:01:36.71	322.12	2.09	-53.9	-56.0	6.2	0.00e+00	0	52	104	26600275968	78	19386
2026-01-22 15:01:37.71	322.01	2.04	-53.9	-56.0	6.2	0.00e+00	0	52	104	26600275968	78	19418
2026-01-22 15:01:38.70	321.89	1.99	-53.9	-56.0	6.2	0.00e+00	0	52	104	26600275968	78	19427

#Closed at: 2026-01-22 15:01:39
#Recorded file [26600 MB]: D:/lorett/data/31041_260122_175335.dat