passes_logs/2026/01/22/R3.2S_Murmansk/R3.2S_Murmansk__20260122_063440_KANOPUS-V_5_rec.log

#Pass ID: 20260122_063440_KANOPUS-V 5
#Satellite: KANOPUS-V 5
#Configuration: KANOPUS-V_8320
#almurnet v.1.7.20251203
#Start time: 2026-01-22 06:34:43

#Version: 2.2.20231116
#Station: R3.2S_Murmansk
#Location: 33.079688 lon 68.888172 lat
#TLE: 1 43876U 18111A   26021.54180787  .00007275  00000+0  30771-3 0  9992
#TLE: 2 43876  97.3683 289.9378 0001818  88.0577 272.0869 15.23499060392462

#Time	Az	El	Level	Level2	SNR	BER	BlckErr	Temp	State	Recorded	gain1	gain2
2026-01-22 06:34:43.11	126.82	2.16	-53.6	-62.4	3.8	7.45e-01	0	39	0	0	79	9564
2026-01-22 06:34:44.11	126.78	2.23	-53.3	-62.1	3.8	7.45e-01	0	39	104	0	77	10379
2026-01-22 06:34:45.12	126.73	2.29	-53.3	-62.1	3.8	7.45e-01	0	39	104	0	77	10330
2026-01-22 06:34:46.13	126.68	2.36	-53.3	-62.1	3.8	7.47e-01	0	39	104	0	77	10359
2026-01-22 06:34:47.14	126.63	2.43	-53.3	-62.1	3.8	7.43e-01	0	39	104	0	77	10349
2026-01-22 06:34:48.14	126.59	2.50	-53.2	-62.1	3.8	7.46e-01	0	39	104	0	77	10328
2026-01-22 06:34:49.15	126.54	2.57	-53.2	-62.1	3.8	7.46e-01	0	39	104	0	77	10314
2026-01-22 06:34:50.16	126.49	2.64	-53.2	-62.1	3.8	7.45e-01	0	39	104	0	77	10315
2026-01-22 06:34:51.17	126.44	2.72	-53.2	-62.1	3.8	7.44e-01	0	40	104	0	77	10336
2026-01-22 06:34:52.18	126.39	2.79	-53.2	-62.1	3.8	7.45e-01	0	40	104	0	77	10305
2026-01-22 06:34:53.19	126.34	2.86	-53.3	-62.1	3.8	7.46e-01	0	39	104	0	77	10338
2026-01-22 06:34:54.19	126.29	2.93	-53.2	-62.1	3.8	7.45e-01	0	40	104	0	77	10294
2026-01-22 06:34:55.20	126.24	3.00	-53.2	-62.1	3.8	7.45e-01	0	40	104	0	77	10315
2026-01-22 06:34:56.21	126.19	3.07	-53.2	-62.1	3.8	7.46e-01	0	40	104	0	77	10300
2026-01-22 06:34:57.22	126.14	3.14	-53.2	-62.0	3.8	7.47e-01	0	40	104	0	77	10289
2026-01-22 06:34:58.23	126.09	3.22	-53.2	-62.1	3.8	7.45e-01	0	40	104	0	77	10317
2026-01-22 06:34:59.24	126.03	3.29	-53.2	-62.0	3.8	7.44e-01	0	40	104	0	77	10289
2026-01-22 06:35:00.24	125.98	3.36	-53.2	-62.0	3.8	7.45e-01	0	40	104	0	77	10260
2026-01-22 06:35:01.25	125.93	3.44	-53.2	-62.0	3.8	7.44e-01	0	40	104	0	77	10278
2026-01-22 06:35:02.26	125.88	3.51	-53.2	-62.0	3.8	7.45e-01	0	40	104	0	77	10282
2026-01-22 06:35:03.27	125.82	3.58	-53.2	-62.1	3.8	7.43e-01	0	40	104	0	77	10297
2026-01-22 06:35:04.28	125.77	3.66	-53.2	-62.0	3.8	7.45e-01	0	40	104	0	77	10280
2026-01-22 06:35:05.29	125.71	3.73	-53.2	-62.1	3.8	7.44e-01	0	40	104	0	77	10295
2026-01-22 06:35:06.29	125.66	3.80	-53.2	-62.0	3.8	7.45e-01	0	40	104	0	77	10268
2026-01-22 06:35:07.30	125.61	3.88	-53.2	-62.0	3.8	7.46e-01	0	40	104	0	77	10263
2026-01-22 06:35:08.31	125.55	3.95	-53.2	-62.1	3.8	7.46e-01	0	40	104	0	77	10298
2026-01-22 06:35:09.32	125.49	4.03	-53.2	-62.0	3.8	7.47e-01	0	40	104	0	77	10255
2026-01-22 06:35:10.33	125.44	4.10	-53.2	-62.0	3.8	7.46e-01	0	40	104	0	77	10283
2026-01-22 06:35:11.33	125.38	4.18	-53.2	-62.1	3.8	7.46e-01	0	40	104	0	77	10314
2026-01-22 06:35:12.34	125.33	4.25	-53.2	-62.1	3.8	7.45e-01	0	40	104	0	77	10314
2026-01-22 06:35:13.35	125.27	4.33	-53.2	-62.0	3.8	7.45e-01	0	40	104	0	77	10281
2026-01-22 06:35:14.36	125.21	4.41	-53.2	-62.0	3.8	7.45e-01	0	40	104	0	77	10248
2026-01-22 06:35:15.37	125.15	4.48	-53.2	-62.0	3.8	7.44e-01	0	40	104	0	77	10286
2026-01-22 06:35:16.37	125.09	4.56	-53.2	-62.0	3.8	7.45e-01	0	40	104	0	77	10237
2026-01-22 06:35:17.38	125.04	4.64	-53.2	-62.0	3.8	7.44e-01	0	40	104	0	77	10278
2026-01-22 06:35:18.39	124.98	4.71	-53.2	-62.1	3.8	7.46e-01	0	40	104	0	77	10301
2026-01-22 06:35:19.40	124.92	4.79	-53.2	-62.0	3.8	7.45e-01	0	40	104	0	77	10262
2026-01-22 06:35:20.41	124.86	4.87	-51.5	-61.9	3.8	7.43e-01	0	40	104	0	74	12074
2026-01-22 06:35:21.42	124.80	4.95	-51.4	-61.9	3.8	7.45e-01	0	40	104	0	74	12030
2026-01-22 06:35:22.42	124.74	5.03	-47.6	-50.0	10.7	6.22e-01	0	40	104	0	67	4593
2026-01-22 06:35:23.43	124.67	5.11	-47.8	-50.3	10.6	6.20e-01	0	40	0	14680064	66	4992
2026-01-22 06:35:24.44	124.61	5.18	-48.1	-50.7	10.3	6.22e-01	0	40	0	29360128	66	5265
2026-01-22 06:35:25.45	124.55	5.26	-47.7	-50.2	10.9	6.19e-01	0	40	0	46137344	67	4691
2026-01-22 06:35:26.46	124.49	5.34	-47.0	-49.3	11.6	6.15e-01	0	40	0	60817408	66	4487
2026-01-22 06:35:27.47	124.42	5.42	-45.8	-47.8	13.0	6.12e-01	0	40	0	75497472	61	5036
2026-01-22 06:35:28.47	124.36	5.50	-50.3	-54.0	6.6	6.73e-01	0	40	104	81788928	72	5415
2026-01-22 06:35:29.48	124.30	5.58	-44.5	-46.4	14.3	6.10e-01	0	40	0	94371840	60	4533
2026-01-22 06:35:30.49	124.23	5.67	-44.6	-46.5	14.2	6.10e-01	0	40	0	109051904	60	4572
2026-01-22 06:35:31.50	124.17	5.75	-44.1	-46.0	14.8	6.09e-01	0	40	0	123731968	60	4295
2026-01-22 06:35:32.51	124.10	5.83	-44.4	-46.3	14.4	6.09e-01	0	40	0	138412032	60	4486
2026-01-22 06:35:33.52	124.03	5.91	-44.2	-46.0	14.7	6.09e-01	0	40	0	155189248	60	4335
2026-01-22 06:35:34.53	123.97	5.99	-44.3	-46.2	14.6	6.09e-01	0	40	0	171966464	60	4415
2026-01-22 06:35:35.53	123.90	6.07	-44.0	-45.8	14.9	6.09e-01	0	40	0	186646528	59	4493
2026-01-22 06:35:36.54	123.83	6.16	-44.2	-46.0	14.7	6.09e-01	0	40	0	201326592	59	4581
2026-01-22 06:35:37.55	123.76	6.24	-44.1	-46.0	14.7	6.09e-01	0	40	0	218103808	59	4563
2026-01-22 06:35:38.56	123.70	6.32	-44.2	-46.1	14.6	6.09e-01	0	40	0	232783872	59	4640
2026-01-22 06:35:39.57	123.63	6.41	-44.2	-46.1	14.7	6.09e-01	0	40	0	247463936	59	4605
2026-01-22 06:35:40.57	123.56	6.49	-44.2	-46.1	14.7	6.09e-01	0	40	0	262144000	59	4607
2026-01-22 06:35:41.58	123.49	6.58	-44.0	-45.9	14.9	6.08e-01	0	40	0	278921216	59	4526
2026-01-22 06:35:42.59	123.42	6.66	-44.3	-46.4	14.6	5.89e-01	0	40	0	293601280	59	4767
2026-01-22 06:35:43.60	123.34	6.75	-44.2	-46.3	14.7	5.90e-01	0	40	0	308281344	59	4742
2026-01-22 06:35:44.60	123.27	6.83	-44.4	-46.5	14.5	5.90e-01	0	41	0	325058560	59	4865
2026-01-22 06:35:45.61	123.20	6.92	-44.2	-46.2	14.8	5.89e-01	0	40	0	341835776	59	4699
2026-01-22 06:35:46.62	123.13	7.00	-44.2	-46.3	14.7	5.89e-01	0	40	0	356515840	59	4720
2026-01-22 06:35:47.63	123.05	7.09	-44.1	-46.2	14.8	5.90e-01	0	40	0	371195904	59	4672
2026-01-22 06:35:48.64	122.98	7.18	-44.2	-46.2	14.8	5.89e-01	0	40	0	387973120	59	4705
2026-01-22 06:35:49.65	122.91	7.26	-44.1	-46.2	14.8	5.89e-01	0	41	0	402653184	59	4691
2026-01-22 06:35:50.65	122.83	7.35	-44.2	-46.3	14.7	5.89e-01	0	40	0	417333248	59	4749
2026-01-22 06:35:51.66	122.75	7.44	-44.0	-46.1	15.0	5.89e-01	0	40	0	434110464	59	4613
2026-01-22 06:35:52.67	122.68	7.53	-44.0	-46.1	15.0	5.89e-01	0	40	0	448790528	59	4607
2026-01-22 06:35:53.68	122.60	7.62	-43.9	-46.0	15.0	5.89e-01	0	41	0	463470592	59	4590
2026-01-22 06:35:54.69	122.52	7.70	-44.1	-46.2	14.8	5.89e-01	0	40	0	480247808	59	4673
2026-01-22 06:35:55.69	122.45	7.79	-44.0	-46.0	15.0	5.89e-01	0	41	0	494927872	59	4598
2026-01-22 06:35:56.70	122.37	7.88	-43.8	-45.9	15.1	5.88e-01	0	41	0	509607936	59	4525
2026-01-22 06:35:57.71	122.29	7.97	-43.9	-46.0	15.1	5.89e-01	0	41	0	526385152	59	4558
2026-01-22 06:35:58.72	122.21	8.06	-43.9	-45.9	15.1	5.89e-01	0	41	0	543162368	59	4531
2026-01-22 06:35:59.72	122.13	8.15	-43.9	-45.9	15.1	5.90e-01	0	41	0	557842432	59	4527
2026-01-22 06:36:00.73	122.04	8.25	-43.7	-45.8	15.3	5.89e-01	0	41	0	572522496	59	4466
2026-01-22 06:36:01.74	121.96	8.34	-43.8	-45.8	15.2	5.89e-01	0	41	0	589299712	59	4473
2026-01-22 06:36:02.75	121.88	8.43	-43.8	-45.8	15.3	5.90e-01	0	41	0	603979776	59	4467
2026-01-22 06:36:03.76	121.80	8.52	-43.6	-45.6	15.4	5.89e-01	0	41	0	618659840	58	4630
2026-01-22 06:36:04.77	121.71	8.62	-43.6	-45.6	15.4	5.88e-01	0	41	0	635437056	58	4613
2026-01-22 06:36:05.78	121.63	8.71	-43.7	-45.7	15.3	5.89e-01	0	40	0	650117120	58	4677
2026-01-22 06:36:06.79	121.54	8.80	-43.5	-45.6	15.4	5.88e-01	0	41	0	664797184	58	4612
2026-01-22 06:36:07.79	121.45	8.90	-43.7	-45.7	15.3	5.89e-01	0	41	0	681574400	58	4701
2026-01-22 06:36:08.80	121.37	8.99	-43.5	-45.5	15.5	5.88e-01	0	41	0	696254464	58	4562
2026-01-22 06:36:09.81	121.28	9.09	-43.7	-45.7	15.3	5.88e-01	0	41	0	710934528	58	4686
2026-01-22 06:36:10.82	121.19	9.18	-43.4	-45.4	15.7	5.89e-01	0	41	0	727711744	58	4509
2026-01-22 06:36:11.83	121.10	9.28	-43.2	-45.2	15.7	6.04e-01	0	41	0	744488960	58	4422
2026-01-22 06:36:12.83	121.01	9.37	-43.4	-45.4	15.5	6.04e-01	0	41	0	759169024	58	4503
2026-01-22 06:36:13.84	120.92	9.47	-43.3	-45.3	15.7	5.99e-01	0	41	0	773849088	58	4450
2026-01-22 06:36:14.85	120.83	9.57	-43.2	-45.2	15.7	6.03e-01	0	41	0	790626304	58	4427
2026-01-22 06:36:15.86	120.74	9.67	-43.3	-45.4	15.7	6.00e-01	0	41	0	805306368	58	4494
2026-01-22 06:36:16.86	120.64	9.76	-43.2	-45.2	15.7	6.01e-01	0	41	0	819986432	58	4427
2026-01-22 06:36:17.87	120.55	9.86	-43.3	-45.3	15.7	6.00e-01	0	41	0	836763648	58	4454
2026-01-22 06:36:18.88	120.46	9.96	-43.2	-45.2	15.8	5.97e-01	0	41	0	851443712	58	4416
2026-01-22 06:36:19.89	120.36	10.06	-43.4	-45.4	15.6	5.99e-01	0	41	0	866123776	58	4519
2026-01-22 06:36:20.90	120.26	10.16	-43.1	-45.2	15.9	6.00e-01	0	41	0	882900992	58	4393
2026-01-22 06:36:21.90	120.17	10.26	-43.2	-45.2	15.8	6.01e-01	0	41	0	897581056	58	4405
2026-01-22 06:36:22.91	120.07	10.36	-43.0	-45.0	16.0	6.03e-01	0	41	0	914358272	58	4333
2026-01-22 06:36:23.92	119.97	10.46	-43.1	-45.1	15.9	6.01e-01	0	41	0	929038336	58	4379
2026-01-22 06:36:24.93	119.87	10.57	-43.0	-45.0	16.0	5.98e-01	0	41	0	945815552	58	4317
2026-01-22 06:36:25.94	119.77	10.67	-43.1	-45.1	15.9	5.98e-01	0	41	0	960495616	57	4641
2026-01-22 06:36:26.95	119.67	10.77	-43.0	-45.0	16.0	6.00e-01	0	41	0	975175680	57	4567
2026-01-22 06:36:27.95	119.56	10.87	-43.2	-45.3	15.8	6.00e-01	0	41	0	991952896	57	4722
2026-01-22 06:36:28.96	119.46	10.98	-42.9	-44.9	16.1	5.99e-01	0	41	0	1006632960	57	4524
2026-01-22 06:36:29.97	119.36	11.08	-42.9	-44.8	16.1	6.02e-01	0	41	0	1021313024	57	4483
2026-01-22 06:36:30.98	119.25	11.19	-42.8	-44.8	16.1	6.00e-01	0	41	0	1038090240	57	4463
2026-01-22 06:36:31.99	119.14	11.29	-42.7	-44.7	16.3	6.02e-01	0	41	0	1052770304	57	4414
2026-01-22 06:36:32.99	119.04	11.40	-42.7	-44.7	16.3	6.01e-01	0	40	0	1067450368	57	4403
2026-01-22 06:36:34.00	118.93	11.51	-42.6	-44.6	16.3	5.97e-01	0	41	0	1084227584	57	4368
2026-01-22 06:36:35.01	118.82	11.61	-42.8	-44.7	16.3	5.99e-01	0	41	0	1101004800	57	4435
2026-01-22 06:36:36.02	118.71	11.72	-42.6	-44.6	16.3	6.00e-01	0	41	0	1115684864	57	4363
2026-01-22 06:36:37.03	118.60	11.83	-42.5	-44.5	16.5	6.02e-01	0	41	0	1130364928	57	4313
2026-01-22 06:36:38.03	118.49	11.94	-42.4	-44.4	16.5	6.01e-01	0	41	0	1147142144	56	4514
2026-01-22 06:36:39.04	118.37	12.05	-42.5	-44.4	16.6	6.01e-01	0	41	0	1161822208	56	4521
2026-01-22 06:36:40.05	118.26	12.16	-42.5	-44.5	16.5	5.98e-01	0	41	0	1176502272	56	4574
2026-01-22 06:36:41.06	118.14	12.27	-42.3	-44.2	16.7	6.01e-01	0	41	0	1193279488	56	4421
2026-01-22 06:36:42.06	118.03	12.38	-42.3	-44.2	16.7	6.00e-01	0	41	0	1207959552	56	4427
2026-01-22 06:36:43.07	117.91	12.49	-42.5	-44.4	16.6	6.02e-01	0	41	0	1222639616	56	4517
2026-01-22 06:36:44.08	117.79	12.60	-42.1	-44.1	16.9	5.99e-01	0	41	0	1239416832	56	4344
2026-01-22 06:36:45.09	117.67	12.71	-42.1	-44.0	16.9	6.02e-01	0	41	0	1254096896	56	4297
2026-01-22 06:36:46.10	117.55	12.83	-42.0	-43.9	17.0	6.01e-01	0	41	0	1268776960	56	4251
2026-01-22 06:36:47.11	117.43	12.94	-42.2	-44.1	16.8	6.03e-01	0	41	0	1285554176	56	4363
2026-01-22 06:36:48.11	117.30	13.05	-42.0	-43.8	17.0	6.00e-01	0	41	0	1302331392	56	4235
2026-01-22 06:36:49.12	117.18	13.17	-42.1	-44.0	17.1	6.00e-01	0	41	0	1317011456	55	4581
2026-01-22 06:36:50.13	117.05	13.29	-42.2	-44.1	17.1	6.02e-01	0	41	0	1331691520	55	4605
2026-01-22 06:36:51.14	116.93	13.40	-42.0	-43.9	17.2	5.98e-01	0	41	0	1348468736	55	4497
2026-01-22 06:36:52.15	116.80	13.52	-41.9	-43.8	17.3	6.00e-01	0	41	0	1363148800	55	4475
2026-01-22 06:36:53.15	116.67	13.63	-41.8	-43.7	17.3	6.00e-01	0	41	0	1377828864	55	4425
2026-01-22 06:36:54.16	116.54	13.75	-41.9	-43.8	17.3	5.99e-01	0	41	0	1394606080	55	4444
2026-01-22 06:36:55.17	116.41	13.87	-42.1	-44.0	17.2	6.00e-01	0	41	0	1409286144	55	4566
2026-01-22 06:36:56.18	116.27	13.99	-42.0	-43.9	17.2	6.00e-01	0	41	0	1423966208	55	4517
2026-01-22 06:36:57.19	116.14	14.11	-41.9	-43.8	17.3	6.00e-01	0	41	0	1440743424	55	4449
2026-01-22 06:36:58.19	116.00	14.23	-42.0	-43.9	17.2	5.99e-01	0	41	0	1455423488	55	4504
2026-01-22 06:36:59.20	115.87	14.35	-42.0	-43.9	17.2	6.02e-01	0	41	0	1470103552	55	4518
2026-01-22 06:37:00.21	115.73	14.47	-41.9	-43.8	17.3	6.00e-01	0	41	0	1486880768	55	4456
2026-01-22 06:37:01.22	115.59	14.60	-41.8	-43.8	17.3	6.01e-01	0	41	0	1503657984	55	4450
2026-01-22 06:37:02.23	115.44	14.72	-41.8	-43.8	17.4	6.02e-01	0	41	0	1518338048	55	4455
2026-01-22 06:37:03.24	115.30	14.84	-42.0	-43.9	17.2	6.01e-01	0	41	0	1533018112	55	4530
2026-01-22 06:37:04.25	115.16	14.97	-41.9	-43.9	17.2	6.02e-01	0	41	0	1549795328	55	4528
2026-01-22 06:37:05.25	115.01	15.09	-41.9	-43.9	17.3	6.02e-01	0	41	0	1564475392	55	4510
2026-01-22 06:37:06.26	114.86	15.22	-41.9	-43.9	17.3	6.03e-01	0	41	0	1579155456	55	4502
2026-01-22 06:37:07.27	114.71	15.35	-41.9	-43.9	17.3	6.03e-01	0	41	0	1595932672	55	4520
2026-01-22 06:37:08.28	114.56	15.47	-41.8	-43.8	17.3	6.02e-01	0	41	0	1610612736	55	4492
2026-01-22 06:37:09.29	114.41	15.60	-42.0	-44.0	17.2	6.01e-01	0	41	0	1625292800	55	4569
2026-01-22 06:37:10.29	114.26	15.73	-41.7	-43.7	17.4	6.03e-01	0	41	0	1639972864	55	4434
2026-01-22 06:37:11.30	114.10	15.86	-41.5	-43.6	17.6	6.02e-01	0	41	0	1656750080	55	4346
2026-01-22 06:37:12.31	113.95	15.99	-41.7	-43.7	17.4	6.02e-01	0	41	0	1671430144	55	4403
2026-01-22 06:37:13.32	113.79	16.12	-41.5	-43.5	17.6	5.98e-01	0	41	0	1688207360	54	4552
2026-01-22 06:37:14.33	113.63	16.25	-41.4	-43.3	17.7	6.00e-01	0	41	0	1704984576	54	4468
2026-01-22 06:37:15.33	113.47	16.38	-41.3	-43.3	17.8	6.05e-01	0	41	0	1719664640	54	4456
2026-01-22 06:37:16.34	113.30	16.52	-41.3	-43.2	17.9	5.98e-01	0	41	0	1734344704	54	4419
2026-01-22 06:37:17.35	113.14	16.65	-41.1	-43.0	18.0	5.98e-01	0	41	0	1749024768	54	4332
2026-01-22 06:37:18.36	112.97	16.78	-41.3	-43.1	17.9	6.03e-01	0	41	0	1765801984	54	4374
2026-01-22 06:37:19.37	112.80	16.92	-40.9	-42.8	18.1	5.99e-01	0	41	0	1780482048	53	4455
2026-01-22 06:37:20.37	112.63	17.05	-40.8	-42.7	18.2	5.98e-01	0	41	0	1795162112	53	4399
2026-01-22 06:37:21.38	112.46	17.19	-41.0	-42.8	18.1	5.99e-01	0	41	0	1811939328	53	4445
2026-01-22 06:37:22.39	112.29	17.33	-40.8	-42.6	18.3	5.99e-01	0	41	0	1826619392	53	4355
2026-01-22 06:37:23.40	112.11	17.47	-40.9	-42.7	18.1	5.97e-01	0	41	0	1841299456	53	4420
2026-01-22 06:37:24.41	111.93	17.61	-40.8	-42.6	18.2	5.97e-01	0	41	0	1858076672	53	4347
2026-01-22 06:37:25.41	111.75	17.75	-40.6	-42.5	18.3	5.97e-01	0	41	0	1874853888	53	4293
2026-01-22 06:37:26.42	111.57	17.89	-40.7	-42.5	18.3	5.99e-01	0	41	0	1889533952	53	4310
2026-01-22 06:37:27.43	111.38	18.03	-40.7	-42.5	18.3	6.02e-01	0	41	0	1904214016	53	4309
2026-01-22 06:37:28.44	111.20	18.17	-40.6	-42.4	18.3	6.03e-01	0	41	0	1920991232	53	4286
2026-01-22 06:37:29.44	111.01	18.31	-40.7	-42.5	18.3	5.99e-01	0	41	0	1935671296	53	4320
2026-01-22 06:37:30.45	110.82	18.45	-40.7	-42.6	18.2	6.01e-01	0	41	0	1950351360	53	4342
2026-01-22 06:37:31.46	110.63	18.60	-40.6	-42.4	18.4	6.00e-01	0	41	0	1967128576	53	4249
2026-01-22 06:37:32.47	110.43	18.74	-40.6	-42.4	18.4	6.02e-01	0	41	0	1981808640	53	4252
2026-01-22 06:37:33.48	110.24	18.89	-40.6	-42.3	18.4	6.03e-01	0	41	0	1996488704	53	4241
2026-01-22 06:37:34.49	110.04	19.04	-40.5	-42.3	18.4	6.01e-01	0	41	0	2013265920	52	4479
2026-01-22 06:37:35.49	109.84	19.18	-40.4	-42.3	18.4	6.03e-01	0	41	0	2027945984	52	4450
2026-01-22 06:37:36.50	109.63	19.33	-40.4	-42.2	18.4	6.03e-01	0	41	0	2042626048	52	4417
2026-01-22 06:37:37.51	109.43	19.48	-40.3	-42.1	18.5	6.01e-01	0	41	0	2059403264	52	4364
2026-01-22 06:37:38.52	109.22	19.63	-40.3	-42.1	18.6	6.02e-01	0	41	0	2076180480	52	4354
2026-01-22 06:37:39.53	109.01	19.78	-40.3	-42.1	18.5	6.06e-01	0	41	0	2090860544	52	4369
2026-01-22 06:37:40.53	108.80	19.93	-40.3	-42.1	18.6	6.01e-01	0	41	0	2105540608	52	4358
2026-01-22 06:37:41.54	108.58	20.08	-40.3	-42.1	18.6	6.02e-01	0	41	0	2122317824	52	4359
2026-01-22 06:37:42.55	108.36	20.24	-40.2	-42.0	18.6	6.03e-01	0	41	0	2136997888	52	4293
2026-01-22 06:37:43.56	108.14	20.39	-40.2	-42.0	18.6	6.03e-01	0	41	0	2151677952	52	4293
2026-01-22 06:37:44.57	107.92	20.54	-40.2	-42.0	18.7	6.03e-01	0	41	0	2168455168	52	4312
2026-01-22 06:37:45.57	107.69	20.70	-40.2	-41.9	18.7	6.05e-01	0	41	0	2183135232	52	4284
2026-01-22 06:37:46.58	107.47	20.85	-40.2	-41.9	18.7	6.04e-01	0	41	0	2197815296	52	4280
2026-01-22 06:37:47.59	107.23	21.01	-40.2	-41.9	18.7	6.02e-01	0	41	0	2214592512	52	4285
2026-01-22 06:37:48.59	107.00	21.17	-40.1	-41.8	18.8	6.03e-01	0	41	0	2229272576	52	4236
2026-01-22 06:37:49.60	106.77	21.33	-40.1	-41.9	18.7	6.03e-01	0	41	0	2243952640	52	4257
2026-01-22 06:37:50.61	106.53	21.49	-40.1	-41.9	18.7	6.03e-01	0	41	0	2260729856	52	4270
2026-01-22 06:37:51.62	106.28	21.65	-40.1	-41.9	18.7	6.05e-01	0	41	0	2277507072	52	4254
2026-01-22 06:37:52.63	106.04	21.81	-40.0	-41.7	18.9	6.04e-01	0	41	0	2292187136	51	4439
2026-01-22 06:37:53.63	105.79	21.97	-40.0	-41.8	18.9	6.03e-01	0	41	0	2306867200	51	4448
2026-01-22 06:37:54.64	105.54	22.13	-40.0	-41.7	18.8	6.03e-01	0	41	0	2323644416	51	4429
2026-01-22 06:37:55.65	105.29	22.29	-39.9	-41.6	19.0	6.04e-01	0	41	0	2338324480	51	4362
2026-01-22 06:37:56.66	105.03	22.46	-40.0	-41.6	18.9	6.03e-01	0	41	0	2353004544	51	4385
2026-01-22 06:37:57.67	104.77	22.62	-39.8	-41.4	19.0	6.02e-01	0	41	0	2369781760	51	4272
2026-01-22 06:37:58.67	104.51	22.78	-39.9	-41.5	19.0	6.05e-01	0	41	0	2384461824	51	4339
2026-01-22 06:37:59.68	104.24	22.95	-39.8	-41.5	18.9	6.03e-01	0	41	0	2399141888	51	4332
2026-01-22 06:38:00.69	103.97	23.12	-39.9	-41.6	19.0	6.05e-01	0	41	0	2415919104	51	4365
2026-01-22 06:38:01.70	103.70	23.29	-39.6	-41.3	19.1	6.05e-01	0	41	0	2430599168	51	4213
2026-01-22 06:38:02.71	103.42	23.45	-39.7	-41.3	19.2	6.03e-01	0	41	0	2445279232	51	4234
2026-01-22 06:38:03.71	103.14	23.62	-39.7	-41.4	19.1	6.03e-01	0	41	0	2462056448	51	4279
2026-01-22 06:38:04.72	102.86	23.79	-39.7	-41.4	19.0	6.03e-01	0	41	0	2478833664	51	4270
2026-01-22 06:38:05.73	102.57	23.96	-39.7	-41.4	19.0	6.03e-01	0	41	0	2493513728	51	4287
2026-01-22 06:38:06.73	102.29	24.13	-39.9	-41.6	18.9	6.04e-01	0	41	0	2508193792	51	4359
2026-01-22 06:38:07.74	101.99	24.30	-39.9	-41.6	19.0	6.03e-01	0	41	0	2524971008	51	4367
2026-01-22 06:38:08.75	101.69	24.47	-40.0	-41.7	18.9	6.02e-01	0	41	0	2539651072	51	4422
2026-01-22 06:38:09.76	101.39	24.65	-40.0	-41.8	18.8	6.04e-01	0	41	0	2554331136	51	4453
2026-01-22 06:38:10.77	101.09	24.82	-40.0	-41.8	18.8	6.03e-01	0	41	0	2571108352	51	4455
2026-01-22 06:38:11.77	100.78	24.99	-39.9	-41.6	18.9	6.03e-01	0	41	0	2585788416	51	4389
2026-01-22 06:38:12.78	100.47	25.17	-39.9	-41.6	19.0	6.04e-01	0	41	0	2600468480	51	4361
2026-01-22 06:38:13.79	100.15	25.34	-39.8	-41.6	19.0	6.03e-01	0	41	0	2617245696	51	4346
2026-01-22 06:38:14.80	99.83	25.52	-39.7	-41.4	19.1	6.03e-01	0	41	0	2631925760	51	4267
2026-01-22 06:38:15.81	99.51	25.69	-39.8	-41.5	19.1	6.06e-01	0	41	0	2646605824	51	4301
2026-01-22 06:38:16.81	99.18	25.87	-39.7	-41.4	19.1	6.03e-01	0	41	0	2663383040	51	4250
2026-01-22 06:38:17.82	98.85	26.05	-39.9	-41.6	18.9	6.01e-01	0	41	0	2680160256	51	4345
2026-01-22 06:38:18.83	98.51	26.22	-39.9	-41.7	18.9	6.03e-01	0	41	0	2694840320	51	4404
2026-01-22 06:38:19.84	98.17	26.40	-40.0	-41.8	18.9	6.04e-01	0	41	0	2709520384	51	4447
2026-01-22 06:38:20.85	97.83	26.58	-40.1	-41.8	18.7	6.03e-01	0	41	0	2726297600	51	4485
2026-01-22 06:38:21.85	97.48	26.76	-40.1	-41.9	18.8	6.02e-01	0	41	0	2740977664	51	4521
2026-01-22 06:38:22.86	97.13	26.93	-40.1	-41.9	18.8	6.03e-01	0	41	0	2755657728	51	4500
2026-01-22 06:38:23.87	96.77	27.11	-40.0	-41.7	18.9	6.06e-01	0	41	0	2772434944	51	4433
2026-01-22 06:38:24.88	96.40	27.29	-40.0	-41.7	18.9	6.05e-01	0	42	0	2787115008	51	4428
2026-01-22 06:38:25.89	96.04	27.47	-40.1	-41.8	18.9	6.04e-01	0	41	0	2801795072	51	4478
2026-01-22 06:38:26.89	95.67	27.65	-40.1	-41.8	18.8	6.03e-01	0	41	0	2818572288	51	4483
2026-01-22 06:38:27.90	95.29	27.83	-40.4	-42.2	18.6	6.04e-01	0	41	0	2833252352	51	4668
2026-01-22 06:38:28.91	94.91	28.01	-40.2	-41.9	18.7	6.05e-01	0	41	0	2847932416	51	4543
2026-01-22 06:38:29.92	94.52	28.19	-40.1	-42.0	18.7	6.05e-01	0	41	0	2864709632	51	4554
2026-01-22 06:38:30.92	94.14	28.37	-40.2	-42.0	18.7	6.03e-01	0	42	0	2881486848	51	4583
2026-01-22 06:38:31.93	93.74	28.55	-40.3	-42.1	18.6	6.04e-01	0	41	0	2896166912	51	4614
2026-01-22 06:38:32.94	93.34	28.73	-40.2	-42.0	18.7	6.00e-01	0	41	0	2910846976	51	4565
2026-01-22 06:38:33.95	92.93	28.91	-40.2	-42.0	18.7	6.05e-01	0	41	0	2927624192	51	4555
2026-01-22 06:38:34.95	92.53	29.09	-40.4	-42.1	18.6	6.05e-01	0	41	0	2942304256	51	4640
2026-01-22 06:38:35.96	92.11	29.27	-40.3	-42.1	18.6	6.05e-01	0	42	0	2956984320	51	4634
2026-01-22 06:38:36.97	91.69	29.45	-40.2	-42.1	18.7	6.05e-01	0	41	0	2971664384	51	4604
2026-01-22 06:38:37.98	91.27	29.63	-40.3	-42.1	18.6	6.05e-01	0	41	0	2988441600	51	4642
2026-01-22 06:38:38.99	90.83	29.81	-40.3	-42.0	18.8	6.05e-01	0	41	0	3003121664	51	4579
2026-01-22 06:38:39.99	90.40	29.99	-40.4	-42.0	18.7	6.05e-01	0	41	0	3017801728	51	4597
2026-01-22 06:38:41.00	89.96	30.16	-40.1	-41.8	18.9	6.04e-01	0	41	0	3034578944	51	4469
2026-01-22 06:38:42.01	89.51	30.34	-40.1	-41.8	18.8	6.05e-01	0	41	0	3049259008	51	4456
2026-01-22 06:38:43.02	89.06	30.52	-40.4	-42.2	18.5	6.03e-01	0	41	0	3066036224	51	4705
2026-01-22 06:38:44.02	88.61	30.69	-40.6	-42.6	18.4	6.04e-01	0	41	0	3080716288	51	4914
2026-01-22 06:38:45.03	88.14	30.87	-40.6	-42.7	18.2	6.06e-01	0	41	0	3097493504	51	4950
2026-01-22 06:38:46.04	87.68	31.05	-40.6	-42.6	18.2	6.05e-01	0	41	0	3112173568	52	4643
2026-01-22 06:38:47.05	87.20	31.22	-40.5	-42.4	18.4	6.05e-01	0	41	0	3126853632	52	4535
2026-01-22 06:38:48.06	86.72	31.39	-40.5	-42.5	18.4	6.04e-01	0	41	0	3143630848	52	4575
2026-01-22 06:38:49.06	86.24	31.57	-40.4	-42.4	18.4	6.05e-01	0	41	0	3158310912	52	4523
2026-01-22 06:38:50.07	85.75	31.74	-40.6	-42.6	18.2	6.05e-01	0	41	0	3172990976	52	4628
2026-01-22 06:38:51.08	85.25	31.91	-40.6	-42.6	18.3	6.05e-01	0	41	0	3189768192	52	4612
2026-01-22 06:38:52.09	84.75	32.08	-40.6	-42.6	18.4	6.06e-01	0	41	0	3204448256	52	4614
2026-01-22 06:38:53.10	84.24	32.25	-40.6	-42.6	18.2	6.06e-01	0	41	0	3219128320	52	4645
2026-01-22 06:38:54.10	83.74	32.41	-40.5	-42.6	18.3	6.05e-01	0	41	0	3235905536	52	4606
2026-01-22 06:38:55.12	83.21	32.58	-40.5	-42.6	18.3	6.05e-01	0	41	0	3252682752	52	4599
2026-01-22 06:38:56.12	82.69	32.74	-40.5	-42.6	18.2	6.05e-01	0	41	0	3267362816	52	4627
2026-01-22 06:38:57.13	82.16	32.90	-40.6	-42.8	18.2	6.05e-01	0	41	0	3282042880	52	4706
2026-01-22 06:38:58.14	81.63	33.06	-40.9	-42.9	18.1	6.05e-01	0	41	0	3298820096	52	4788
2026-01-22 06:38:59.15	81.08	33.22	-40.6	-42.7	18.2	6.05e-01	0	41	0	3313500160	52	4662
2026-01-22 06:39:00.15	80.54	33.38	-40.7	-42.8	18.2	6.05e-01	0	41	0	3328180224	52	4709
2026-01-22 06:39:01.16	79.99	33.53	-40.4	-42.6	18.3	6.04e-01	0	41	0	3344957440	52	4617
2026-01-22 06:39:02.17	79.43	33.69	-40.3	-42.5	18.4	6.06e-01	0	42	0	3359637504	52	4571
2026-01-22 06:39:03.18	78.86	33.84	-40.4	-42.6	18.3	6.05e-01	0	41	0	3374317568	52	4623
2026-01-22 06:39:04.19	78.29	33.99	-40.4	-42.6	18.3	6.07e-01	0	41	0	3391094784	52	4625
2026-01-22 06:39:05.19	77.72	34.13	-40.4	-42.6	18.2	6.05e-01	0	41	0	3405774848	52	4641
2026-01-22 06:39:06.20	77.14	34.28	-40.4	-42.6	18.2	6.05e-01	0	41	0	3420454912	52	4640
2026-01-22 06:39:07.21	76.56	34.42	-40.4	-42.7	18.2	6.03e-01	0	41	0	3437232128	52	4687
2026-01-22 06:39:08.22	75.96	34.56	-40.4	-42.8	18.1	6.04e-01	0	41	0	3454009344	52	4709
2026-01-22 06:39:09.23	75.37	34.70	-40.5	-42.7	18.2	6.04e-01	0	41	0	3468689408	52	4694
2026-01-22 06:39:10.24	74.76	34.83	-40.3	-42.5	18.3	6.05e-01	0	41	0	3483369472	52	4583
2026-01-22 06:39:11.24	74.16	34.96	-40.0	-42.4	18.3	6.04e-01	0	42	0	3500146688	52	4538
2026-01-22 06:39:12.25	73.55	35.09	-40.1	-42.4	18.4	6.04e-01	0	42	0	3514826752	51	4811
2026-01-22 06:39:13.26	72.93	35.22	-40.0	-42.4	18.4	6.05e-01	0	41	0	3529506816	51	4805
2026-01-22 06:39:14.27	72.31	35.34	-40.0	-42.5	18.4	6.04e-01	0	41	0	3546284032	51	4851
2026-01-22 06:39:15.27	71.68	35.46	-40.1	-42.5	18.4	6.05e-01	0	41	0	3560964096	51	4831
2026-01-22 06:39:16.28	71.05	35.58	-40.0	-42.3	18.4	6.05e-01	0	42	0	3575644160	51	4752
2026-01-22 06:39:17.29	70.41	35.69	-40.0	-42.3	18.5	6.05e-01	0	41	0	3592421376	51	4709
2026-01-22 06:39:18.30	69.77	35.80	-39.9	-42.2	18.6	6.02e-01	0	41	0	3607101440	51	4655
2026-01-22 06:39:19.31	69.12	35.91	-40.1	-42.4	18.4	6.03e-01	0	41	0	3621781504	51	4807
2026-01-22 06:39:20.31	68.48	36.01	-40.0	-42.4	18.5	6.05e-01	0	41	0	3638558720	51	4770
2026-01-22 06:39:21.32	67.82	36.11	-39.9	-42.2	18.6	6.06e-01	0	41	0	3655335936	51	4653
2026-01-22 06:39:22.33	67.16	36.20	-39.8	-42.0	18.7	6.04e-01	0	41	0	3670016000	51	4579
2026-01-22 06:39:23.34	66.50	36.29	-40.0	-42.3	18.5	6.05e-01	0	41	0	3684696064	51	4728
2026-01-22 06:39:24.35	65.83	36.38	-40.1	-42.4	18.5	6.05e-01	0	41	0	3701473280	51	4782
2026-01-22 06:39:25.35	65.17	36.46	-40.0	-42.2	18.6	6.04e-01	0	41	0	3716153344	51	4668
2026-01-22 06:39:26.36	64.49	36.54	-39.8	-42.2	18.6	6.04e-01	0	41	0	3730833408	51	4656
2026-01-22 06:39:27.37	63.81	36.62	-39.8	-42.2	18.6	6.04e-01	0	41	0	3747610624	51	4678
2026-01-22 06:39:28.38	63.13	36.69	-39.7	-42.1	18.7	6.04e-01	0	41	0	3762290688	51	4623
2026-01-22 06:39:29.39	62.45	36.76	-39.6	-41.8	18.9	6.05e-01	0	41	0	3776970752	51	4488
2026-01-22 06:39:30.39	61.77	36.82	-39.6	-41.9	18.8	6.05e-01	0	42	0	3793747968	51	4494
2026-01-22 06:39:31.40	61.08	36.88	-39.7	-42.1	18.7	6.05e-01	0	41	0	3808428032	51	4608
2026-01-22 06:39:32.41	60.38	36.93	-39.8	-42.2	18.6	6.05e-01	0	41	0	3823108096	51	4652
2026-01-22 06:39:33.42	59.69	36.98	-39.7	-41.9	18.8	6.05e-01	0	41	0	3839885312	51	4534
2026-01-22 06:39:34.43	58.99	37.03	-39.4	-41.6	19.0	6.04e-01	0	41	0	3856662528	50	4647
2026-01-22 06:39:35.43	58.30	37.07	-39.4	-41.8	18.9	6.04e-01	0	41	0	3871342592	50	4714
2026-01-22 06:39:36.44	57.60	37.11	-39.6	-42.0	18.7	6.04e-01	0	41	0	3886022656	50	4817
2026-01-22 06:39:37.45	56.89	37.14	-39.6	-42.0	18.8	5.97e-01	0	41	0	3902799872	50	4829
2026-01-22 06:39:38.46	56.19	37.16	-39.7	-42.0	18.7	5.97e-01	0	41	0	3917479936	50	4860
2026-01-22 06:39:39.46	55.49	37.19	-39.5	-41.8	18.9	5.98e-01	0	41	0	3932160000	50	4755
2026-01-22 06:39:40.47	54.79	37.20	-39.6	-42.1	18.7	6.00e-01	0	41	0	3948937216	50	4875
2026-01-22 06:39:41.48	54.08	37.22	-39.5	-41.9	18.8	5.89e-01	0	41	0	3963617280	50	4809
2026-01-22 06:39:42.49	53.37	37.22	-39.5	-41.9	18.9	5.88e-01	0	41	0	3978297344	50	4773
2026-01-22 06:39:43.49	52.67	37.23	-39.5	-41.9	18.8	5.88e-01	0	41	0	3995074560	50	4813
2026-01-22 06:39:44.50	51.97	37.23	-39.6	-42.0	18.8	5.89e-01	0	41	0	4009754624	50	4816
2026-01-22 06:39:45.51	51.26	37.22	-39.7	-42.0	18.9	5.88e-01	0	41	0	4024434688	50	4836
2026-01-22 06:39:46.52	50.55	37.21	-39.5	-41.9	18.9	5.89e-01	0	41	0	4041211904	50	4779
2026-01-22 06:39:47.53	49.85	37.19	-39.5	-41.8	18.9	5.88e-01	0	42	0	4057989120	50	4755
2026-01-22 06:39:48.53	49.15	37.17	-39.4	-41.7	19.0	5.88e-01	0	42	0	4072669184	50	4681
2026-01-22 06:39:49.54	48.44	37.15	-39.6	-42.0	18.7	5.88e-01	0	41	0	4087349248	50	4868
2026-01-22 06:39:50.55	47.74	37.12	-39.7	-42.0	18.9	5.89e-01	0	41	0	4104126464	50	4827
2026-01-22 06:39:51.56	47.04	37.09	-39.5	-41.8	19.0	5.89e-01	0	41	0	4118806528	50	4716
2026-01-22 06:39:52.57	46.34	37.05	-39.6	-41.8	18.9	5.88e-01	0	41	0	4133486592	50	4754
2026-01-22 06:39:53.58	45.64	37.01	-39.6	-41.9	18.9	5.88e-01	0	41	0	4150263808	50	4791
2026-01-22 06:39:54.59	44.95	36.96	-39.8	-42.2	18.7	5.88e-01	0	41	0	4164943872	50	4950
2026-01-22 06:39:55.59	44.26	36.91	-39.8	-42.2	18.7	5.88e-01	0	41	0	4179623936	50	4954
2026-01-22 06:39:56.60	43.57	36.85	-39.8	-42.1	18.6	5.89e-01	0	41	0	4196401152	50	4918
2026-01-22 06:39:57.61	42.88	36.79	-39.9	-42.2	18.7	5.88e-01	0	41	0	4211081216	50	4942
2026-01-22 06:39:58.62	42.19	36.72	-39.8	-42.2	18.7	5.88e-01	0	41	0	4227858432	50	4958
2026-01-22 06:39:59.63	41.51	36.65	-39.9	-42.4	18.6	5.89e-01	0	41	0	4242538496	50	5044
2026-01-22 06:40:00.63	40.84	36.58	-40.0	-42.3	18.6	5.88e-01	0	41	0	4259315712	50	4988
2026-01-22 06:40:01.64	40.16	36.50	-40.0	-42.3	18.7	5.88e-01	0	42	0	4273995776	50	4988
2026-01-22 06:40:02.65	39.49	36.42	-39.9	-42.2	18.6	5.88e-01	0	41	0	4288675840	50	4983
2026-01-22 06:40:03.65	38.83	36.34	-40.0	-42.3	18.6	5.88e-01	0	41	0	4305453056	50	5000
2026-01-22 06:40:04.66	38.16	36.25	-39.8	-42.1	18.7	6.05e-01	0	41	0	4320133120	50	4899
2026-01-22 06:40:05.67	37.50	36.15	-40.0	-42.4	18.5	5.89e-01	0	41	0	4334813184	50	5078
2026-01-22 06:40:06.68	36.85	36.06	-40.1	-42.6	18.4	6.02e-01	0	41	0	4349493248	50	5171
2026-01-22 06:40:07.69	36.19	35.96	-40.3	-42.8	18.3	6.04e-01	0	41	0	4366270464	51	4985
2026-01-22 06:40:08.69	35.55	35.85	-40.2	-42.6	18.4	6.06e-01	0	41	0	4380950528	51	4877
2026-01-22 06:40:09.70	34.91	35.74	-40.4	-42.7	18.3	6.04e-01	0	41	0	4395630592	51	4980
2026-01-22 06:40:10.71	34.27	35.63	-40.4	-42.7	18.4	5.95e-01	0	41	0	4412407808	51	4949
2026-01-22 06:40:11.72	33.63	35.52	-40.4	-42.7	18.4	5.95e-01	0	41	0	4429185024	51	4931
2026-01-22 06:40:12.73	33.00	35.40	-40.5	-42.8	18.3	6.00e-01	0	41	0	4443865088	51	4997
2026-01-22 06:40:13.74	32.38	35.28	-40.6	-42.9	18.2	6.03e-01	0	41	0	4458545152	51	5042
2026-01-22 06:40:14.74	31.77	35.16	-40.7	-43.1	18.1	5.99e-01	0	41	0	4475322368	51	5180
2026-01-22 06:40:15.75	31.15	35.03	-40.7	-43.2	18.0	5.92e-01	0	41	0	4490002432	52	4963
2026-01-22 06:40:16.76	30.54	34.90	-40.6	-43.0	18.1	5.94e-01	0	41	0	4504682496	52	4816
2026-01-22 06:40:17.77	29.94	34.76	-40.6	-42.8	18.2	6.01e-01	0	41	0	4521459712	52	4744
2026-01-22 06:40:18.77	29.34	34.63	-40.5	-42.6	18.3	6.00e-01	0	41	0	4536139776	52	4633
2026-01-22 06:40:19.78	28.75	34.49	-40.8	-42.9	18.1	6.01e-01	0	42	0	4550819840	52	4778
2026-01-22 06:40:20.79	28.16	34.35	-41.0	-43.1	18.0	6.00e-01	0	41	0	4567597056	52	4899
2026-01-22 06:40:21.80	27.58	34.21	-40.9	-42.9	18.1	6.02e-01	0	41	0	4582277120	52	4810
2026-01-22 06:40:22.81	27.00	34.06	-40.9	-43.0	18.1	6.02e-01	0	41	0	4596957184	52	4863
2026-01-22 06:40:23.81	26.44	33.92	-41.0	-43.3	17.9	6.02e-01	0	41	0	4613734400	52	5029
2026-01-22 06:40:24.82	25.87	33.77	-41.0	-43.4	17.8	6.02e-01	0	41	0	4630511616	52	5046
2026-01-22 06:40:25.83	25.31	33.61	-41.0	-43.3	17.9	6.01e-01	0	41	0	4645191680	52	4996
2026-01-22 06:40:26.84	24.76	33.46	-41.0	-43.2	17.9	6.03e-01	0	41	0	4659871744	52	4962
2026-01-22 06:40:27.85	24.21	33.30	-41.1	-43.2	17.9	6.01e-01	0	41	0	4676648960	52	4947
2026-01-22 06:40:28.85	23.67	33.15	-41.1	-43.2	17.9	5.99e-01	0	41	0	4691329024	52	4944
2026-01-22 06:40:29.86	23.13	32.99	-41.2	-43.3	17.8	6.02e-01	0	41	0	4706009088	52	4995
2026-01-22 06:40:30.87	22.60	32.83	-41.3	-43.3	17.8	6.01e-01	0	42	0	4722786304	53	4755
2026-01-22 06:40:31.88	22.07	32.66	-41.2	-43.3	17.9	6.02e-01	0	41	0	4737466368	53	4725
2026-01-22 06:40:32.89	21.55	32.50	-41.3	-43.3	17.8	6.01e-01	0	41	0	4752146432	53	4741
2026-01-22 06:40:33.89	21.04	32.33	-41.3	-43.3	17.8	6.00e-01	0	41	0	4768923648	53	4754
2026-01-22 06:40:34.90	20.53	32.17	-41.4	-43.4	17.8	5.97e-01	0	41	0	4783603712	53	4805
2026-01-22 06:40:35.91	20.03	32.00	-41.5	-43.5	17.7	5.96e-01	0	41	0	4798283776	53	4866
2026-01-22 06:40:36.92	19.53	31.83	-41.7	-43.7	17.6	6.01e-01	0	42	0	4815060992	53	4932
2026-01-22 06:40:37.93	19.04	31.66	-41.7	-43.6	17.6	5.97e-01	0	41	0	4831838208	53	4905
2026-01-22 06:40:38.93	18.56	31.49	-41.7	-43.8	17.6	5.97e-01	0	41	0	4846518272	54	4732
2026-01-22 06:40:39.94	18.08	31.32	-41.7	-43.8	17.5	5.99e-01	0	41	0	4861198336	54	4729
2026-01-22 06:40:40.95	17.60	31.14	-41.7	-43.8	17.5	6.00e-01	0	41	0	4877975552	54	4712
2026-01-22 06:40:41.96	17.13	30.97	-41.5	-43.5	17.7	5.98e-01	0	41	0	4892655616	54	4593
2026-01-22 06:40:42.96	16.67	30.80	-41.3	-43.3	17.9	5.99e-01	0	41	0	4907335680	54	4474
2026-01-22 06:40:43.97	16.21	30.62	-41.5	-43.4	17.8	6.01e-01	0	41	0	4924112896	54	4496
2026-01-22 06:40:44.98	15.76	30.44	-41.6	-43.5	17.8	5.98e-01	0	41	0	4938792960	54	4556
2026-01-22 06:40:45.99	15.31	30.27	-41.4	-43.3	17.9	5.98e-01	0	41	0	4953473024	54	4452
2026-01-22 06:40:47.00	14.87	30.09	-41.4	-43.3	17.9	6.03e-01	0	41	0	4970250240	54	4442
2026-01-22 06:40:48.00	14.43	29.91	-41.4	-43.2	17.9	6.02e-01	0	41	0	4984930304	54	4439
2026-01-22 06:40:49.01	14.00	29.73	-41.2	-43.1	18.1	6.01e-01	0	41	0	5001707520	54	4362
2026-01-22 06:40:50.02	13.57	29.56	-41.2	-43.0	18.1	6.02e-01	0	41	0	5016387584	54	4326
2026-01-22 06:40:51.03	13.15	29.38	-41.2	-43.0	18.1	5.98e-01	0	41	0	5033164800	54	4297
2026-01-22 06:40:52.03	12.74	29.20	-41.1	-42.9	18.1	6.03e-01	0	41	0	5047844864	54	4252
2026-01-22 06:40:53.04	12.33	29.02	-41.1	-42.8	18.2	6.03e-01	0	41	0	5062524928	54	4236
2026-01-22 06:40:54.05	11.92	28.84	-41.1	-42.8	18.2	6.03e-01	0	41	0	5079302144	54	4232
2026-01-22 06:40:55.06	11.52	28.66	-41.1	-42.9	18.2	6.02e-01	0	41	0	5093982208	54	4263
2026-01-22 06:40:56.07	11.12	28.48	-41.1	-42.8	18.2	6.02e-01	0	41	0	5108662272	54	4232
2026-01-22 06:40:57.07	10.73	28.30	-41.1	-42.9	18.2	6.03e-01	0	41	0	5125439488	54	4258
2026-01-22 06:40:58.09	10.34	28.12	-41.0	-42.8	18.3	6.02e-01	0	41	0	5140119552	54	4203
2026-01-22 06:40:59.09	9.96	27.94	-40.9	-42.6	18.4	6.03e-01	0	41	0	5154799616	53	4380
2026-01-22 06:41:00.10	9.59	27.76	-40.9	-42.7	18.3	6.02e-01	0	41	0	5171576832	53	4395
2026-01-22 06:41:01.11	9.21	27.58	-40.8	-42.6	18.3	6.03e-01	0	41	0	5186256896	53	4344
2026-01-22 06:41:02.12	8.84	27.41	-40.8	-42.6	18.4	6.02e-01	0	41	0	5203034112	53	4352
2026-01-22 06:41:03.13	8.48	27.23	-40.9	-42.7	18.3	6.02e-01	0	41	0	5217714176	53	4413
2026-01-22 06:41:04.13	8.12	27.05	-40.8	-42.7	18.2	6.04e-01	0	41	0	5234491392	53	4407
2026-01-22 06:41:05.14	7.77	26.87	-40.8	-42.7	18.2	6.03e-01	0	41	0	5249171456	53	4424
2026-01-22 06:41:06.15	7.42	26.69	-40.8	-42.8	18.1	6.04e-01	0	41	0	5263851520	53	4473
2026-01-22 06:41:07.16	7.07	26.51	-40.8	-42.8	18.2	6.04e-01	0	42	0	5280628736	53	4470
2026-01-22 06:41:08.16	6.73	26.34	-40.9	-42.8	18.2	5.99e-01	0	41	0	5295308800	53	4462
2026-01-22 06:41:09.17	6.40	26.16	-40.8	-42.6	18.3	6.02e-01	0	41	0	5309988864	53	4381
2026-01-22 06:41:10.18	6.06	25.99	-40.6	-42.5	18.4	5.99e-01	0	41	0	5326766080	53	4298
2026-01-22 06:41:11.19	5.73	25.81	-40.5	-42.3	18.5	5.99e-01	0	41	0	5341446144	53	4233
2026-01-22 06:41:12.20	5.41	25.63	-40.5	-42.3	18.5	5.95e-01	0	41	0	5356126208	53	4233
2026-01-22 06:41:13.21	5.09	25.46	-40.5	-42.3	18.5	5.98e-01	0	42	0	5372903424	53	4237
2026-01-22 06:41:14.21	4.77	25.29	-40.6	-42.4	18.4	5.99e-01	0	41	0	5389680640	53	4282
2026-01-22 06:41:15.22	4.46	25.11	-40.6	-42.5	18.3	6.00e-01	0	42	0	5404360704	53	4331
2026-01-22 06:41:16.23	4.15	24.94	-40.6	-42.5	18.3	5.98e-01	0	41	0	5419040768	53	4330
2026-01-22 06:41:17.24	3.84	24.77	-40.7	-42.6	18.2	5.99e-01	0	41	0	5435817984	53	4383
2026-01-22 06:41:18.24	3.54	24.59	-40.7	-42.5	18.3	5.97e-01	0	41	0	5450498048	53	4340
2026-01-22 06:41:19.25	3.24	24.42	-40.6	-42.4	18.4	5.97e-01	0	41	0	5465178112	53	4267
2026-01-22 06:41:20.26	2.95	24.25	-40.6	-42.4	18.4	6.01e-01	0	41	0	5481955328	53	4260
2026-01-22 06:41:21.27	2.66	24.08	-40.4	-42.2	18.4	6.00e-01	0	41	0	5496635392	52	4436
2026-01-22 06:41:22.28	2.37	23.91	-40.3	-42.2	18.5	6.00e-01	0	41	0	5511315456	52	4400
2026-01-22 06:41:23.29	2.09	23.74	-40.3	-42.2	18.5	6.03e-01	0	41	0	5525995520	52	4407
2026-01-22 06:41:24.29	1.81	23.57	-40.3	-42.2	18.5	6.02e-01	0	41	0	5542772736	52	4398
2026-01-22 06:41:25.30	1.53	23.41	-40.3	-42.2	18.5	5.99e-01	0	41	0	5557452800	52	4433
2026-01-22 06:41:26.31	1.26	23.24	-40.3	-42.3	18.4	5.98e-01	0	41	0	5574230016	52	4454
2026-01-22 06:41:27.32	0.99	23.07	-40.4	-42.4	18.4	6.02e-01	0	41	0	5591007232	52	4513
2026-01-22 06:41:28.33	0.72	22.91	-40.4	-42.5	18.3	6.02e-01	0	41	0	5605687296	52	4558
2026-01-22 06:41:29.34	0.45	22.74	-40.5	-42.5	18.3	6.02e-01	0	41	0	5620367360	52	4595
2026-01-22 06:41:30.34	0.19	22.58	-40.4	-42.5	18.3	6.02e-01	0	41	0	5637144576	52	4592
2026-01-22 06:41:31.35	359.94	22.42	-40.5	-42.6	18.2	6.02e-01	0	41	0	5651824640	52	4617
2026-01-22 06:41:32.36	359.68	22.25	-40.5	-42.6	18.3	6.01e-01	0	41	0	5666504704	52	4611
2026-01-22 06:41:33.37	359.43	22.09	-40.4	-42.4	18.4	6.01e-01	0	41	0	5681184768	52	4515
2026-01-22 06:41:34.38	359.18	21.93	-40.4	-42.5	18.3	6.02e-01	0	41	0	5697961984	52	4548
2026-01-22 06:41:35.39	358.94	21.77	-40.4	-42.4	18.3	6.02e-01	0	41	0	5712642048	52	4507
2026-01-22 06:41:36.40	358.69	21.61	-40.4	-42.3	18.3	6.06e-01	0	41	0	5727322112	52	4485
2026-01-22 06:41:37.40	358.45	21.45	-40.5	-42.4	18.3	6.02e-01	0	41	0	5744099328	52	4523
2026-01-22 06:41:38.41	358.22	21.29	-40.4	-42.4	18.3	6.02e-01	0	41	0	5760876544	52	4494
2026-01-22 06:41:39.42	357.98	21.14	-40.6	-42.5	18.3	6.03e-01	0	41	0	5775556608	52	4570
2026-01-22 06:41:40.43	357.75	20.98	-40.6	-42.6	18.2	6.01e-01	0	41	0	5790236672	52	4613
2026-01-22 06:41:41.44	357.52	20.82	-40.6	-42.5	18.1	6.02e-01	0	41	0	5807013888	52	4589
2026-01-22 06:41:42.44	357.30	20.67	-40.6	-42.6	18.2	6.01e-01	0	41	0	5821693952	52	4606
2026-01-22 06:41:43.45	357.07	20.51	-40.6	-42.6	18.2	6.01e-01	0	41	0	5836374016	52	4616
2026-01-22 06:41:44.46	356.85	20.36	-40.6	-42.7	18.1	6.01e-01	0	41	0	5853151232	52	4662
2026-01-22 06:41:45.47	356.63	20.21	-40.6	-42.6	18.2	6.03e-01	0	41	0	5867831296	52	4636
2026-01-22 06:41:46.48	356.42	20.06	-40.6	-42.7	18.2	6.00e-01	0	41	0	5882511360	52	4653
2026-01-22 06:41:47.49	356.20	19.90	-40.6	-42.6	18.2	5.97e-01	0	41	0	5899288576	52	4618
2026-01-22 06:41:48.49	355.99	19.76	-40.6	-42.6	18.1	6.01e-01	0	41	0	5913968640	52	4650
2026-01-22 06:41:49.50	355.79	19.61	-40.6	-42.7	18.1	6.00e-01	0	41	0	5928648704	52	4665
2026-01-22 06:41:50.51	355.58	19.46	-40.8	-42.8	18.0	6.00e-01	0	41	0	5945425920	52	4721
2026-01-22 06:41:51.52	355.37	19.31	-40.7	-42.8	18.0	5.97e-01	0	41	0	5962203136	52	4730
2026-01-22 06:41:52.53	355.17	19.16	-40.7	-42.8	18.0	5.99e-01	0	41	0	5976883200	52	4746
2026-01-22 06:41:53.53	354.98	19.02	-40.8	-42.9	17.9	5.99e-01	0	41	0	5991563264	52	4788
2026-01-22 06:41:54.54	354.78	18.87	-40.8	-42.9	17.9	5.98e-01	0	41	0	6008340480	52	4798
2026-01-22 06:41:55.55	354.58	18.73	-40.9	-43.0	17.8	5.95e-01	0	42	0	6023020544	52	4862
2026-01-22 06:41:56.55	354.39	18.58	-41.0	-43.1	17.8	5.94e-01	0	41	0	6037700608	52	4925
2026-01-22 06:41:57.56	354.20	18.44	-41.1	-43.2	17.7	5.99e-01	0	41	0	6054477824	52	4955
2026-01-22 06:41:58.57	354.01	18.30	-41.2	-43.3	17.6	5.98e-01	0	41	0	6069157888	52	5019
2026-01-22 06:41:59.58	353.82	18.15	-41.2	-43.3	17.7	5.96e-01	0	41	0	6083837952	53	4722
2026-01-22 06:42:00.59	353.64	18.01	-41.4	-43.5	17.5	5.91e-01	0	41	0	6100615168	53	4830
2026-01-22 06:42:01.59	353.46	17.87	-41.2	-43.3	17.6	5.99e-01	0	41	0	6115295232	53	4733
2026-01-22 06:42:02.60	353.28	17.73	-41.3	-43.4	17.6	5.99e-01	0	41	0	6129975296	53	4761
2026-01-22 06:42:03.61	353.10	17.60	-41.2	-43.2	17.7	5.93e-01	0	41	0	6146752512	53	4698
2026-01-22 06:42:04.62	352.92	17.46	-41.2	-43.3	17.7	5.94e-01	0	41	0	6163529728	53	4736
2026-01-22 06:42:05.63	352.75	17.32	-41.2	-43.3	17.6	5.95e-01	0	41	0	6178209792	53	4747
2026-01-22 06:42:06.63	352.58	17.18	-41.3	-43.4	17.6	5.89e-01	0	41	0	6192889856	53	4770
2026-01-22 06:42:07.64	352.41	17.05	-41.4	-43.5	17.5	5.97e-01	0	41	0	6209667072	53	4857
2026-01-22 06:42:08.65	352.24	16.91	-41.3	-43.4	17.6	5.76e-01	0	41	0	6224347136	53	4801
2026-01-22 06:42:09.66	352.07	16.78	-41.5	-43.7	17.4	5.95e-01	0	41	0	6239027200	53	4947
2026-01-22 06:42:10.67	351.90	16.65	-41.4	-43.5	17.5	5.69e-01	0	41	0	6255804416	53	4859
2026-01-22 06:42:11.68	351.74	16.51	-41.4	-43.6	17.4	5.91e-01	0	41	0	6270484480	53	4884
2026-01-22 06:42:12.68	351.58	16.38	-41.5	-43.7	17.3	5.88e-01	0	41	0	6285164544	53	4944
2026-01-22 06:42:13.69	351.42	16.25	-41.5	-43.7	17.4	5.60e-01	0	41	0	6301941760	53	4927
2026-01-22 06:42:14.70	351.26	16.12	-41.5	-43.7	17.3	5.87e-01	0	41	0	6316621824	53	4944
2026-01-22 06:42:15.71	351.10	15.99	-41.7	-43.8	17.2	5.82e-01	0	41	0	6331301888	53	5022
2026-01-22 06:42:16.72	350.95	15.86	-41.8	-43.9	17.1	5.99e-01	0	41	0	6348079104	54	4794
2026-01-22 06:42:17.73	350.79	15.73	-41.8	-43.9	17.1	5.99e-01	0	41	0	6364856320	54	4811
2026-01-22 06:42:18.73	350.64	15.60	-42.0	-44.2	17.0	5.89e-01	0	41	0	6379536384	54	4943
2026-01-22 06:42:19.74	350.49	15.48	-42.0	-44.2	17.1	5.88e-01	0	42	0	6394216448	54	4942
2026-01-22 06:42:20.75	350.34	15.35	-42.0	-44.2	17.0	5.88e-01	0	41	0	6410993664	54	4974
2026-01-22 06:42:21.76	350.19	15.22	-42.1	-44.3	16.9	5.89e-01	0	41	0	6425673728	54	4998
2026-01-22 06:42:22.77	350.05	15.10	-42.1	-44.3	16.9	5.89e-01	0	41	0	6440353792	54	5012
2026-01-22 06:42:23.77	349.90	14.98	-42.2	-44.4	16.8	5.88e-01	0	41	0	6457131008	54	5083
2026-01-22 06:42:24.78	349.76	14.85	-42.1	-44.3	16.9	5.88e-01	0	41	0	6471811072	54	5016
2026-01-22 06:42:25.79	349.62	14.73	-42.1	-44.3	16.9	5.88e-01	0	41	0	6486491136	54	5040
2026-01-22 06:42:26.80	349.48	14.61	-42.1	-44.3	16.8	5.89e-01	0	41	0	6503268352	54	5041
2026-01-22 06:42:27.80	349.34	14.48	-42.2	-44.4	16.8	5.88e-01	0	41	0	6517948416	54	5075
2026-01-22 06:42:28.81	349.20	14.36	-43.5	-44.4	16.7	5.88e-01	0	41	0	6534725632	57	4246
2026-01-22 06:42:29.82	349.07	14.24	-54.7	-63.6	3.9	7.44e-01	0	41	0	6549405696	65	24433
2026-01-22 06:42:30.83	348.93	14.12	-54.2	-63.1	3.8	7.46e-01	0	41	104	6549405696	79	10386
2026-01-22 06:42:31.84	348.80	14.00	-54.2	-63.1	3.8	7.46e-01	0	41	104	6549405696	79	10357
2026-01-22 06:42:32.84	348.67	13.89	-54.2	-63.1	3.8	7.46e-01	0	41	104	6549405696	79	10344
2026-01-22 06:42:33.85	348.54	13.77	-54.2	-63.0	3.8	7.46e-01	0	41	104	6549405696	79	10290
2026-01-22 06:42:34.86	348.41	13.65	-54.2	-63.0	3.8	7.44e-01	0	41	104	6549405696	79	10283
2026-01-22 06:42:35.87	348.28	13.53	-54.2	-63.0	3.8	7.45e-01	0	41	104	6549405696	79	10247
2026-01-22 06:42:36.88	348.15	13.42	-54.2	-63.1	3.8	7.44e-01	0	41	104	6549405696	79	10328
2026-01-22 06:42:37.89	348.03	13.30	-54.2	-63.0	3.8	7.44e-01	0	41	104	6549405696	79	10240
2026-01-22 06:42:38.89	347.90	13.19	-54.2	-63.0	3.8	7.46e-01	0	41	104	6549405696	79	10233
2026-01-22 06:42:39.90	347.78	13.07	-54.2	-63.0	3.8	7.46e-01	0	41	104	6549405696	79	10243
2026-01-22 06:42:40.91	347.66	12.96	-54.2	-63.0	3.8	7.47e-01	0	41	104	6549405696	79	10257
2026-01-22 06:42:41.92	347.54	12.84	-54.2	-62.9	3.8	7.46e-01	0	41	104	6549405696	79	10172
2026-01-22 06:42:42.93	347.42	12.73	-54.1	-63.0	3.8	7.45e-01	0	41	104	6549405696	79	10176
2026-01-22 06:42:43.94	347.30	12.62	-54.2	-62.9	3.8	7.45e-01	0	41	104	6549405696	79	10168
2026-01-22 06:42:44.95	347.18	12.51	-54.2	-63.0	3.8	7.46e-01	0	41	104	6549405696	79	10192
2026-01-22 06:42:45.95	347.06	12.40	-54.1	-62.9	3.8	7.47e-01	0	41	104	6549405696	79	10123
2026-01-22 06:42:46.96	346.95	12.29	-54.1	-62.9	3.8	7.44e-01	0	41	104	6549405696	79	10135
2026-01-22 06:42:47.97	346.83	12.18	-54.1	-63.0	3.8	7.44e-01	0	41	104	6549405696	79	10204
2026-01-22 06:42:48.98	346.72	12.07	-54.1	-63.0	3.8	7.45e-01	0	41	104	6549405696	79	10190
2026-01-22 06:42:49.99	346.61	11.96	-54.1	-62.9	3.8	7.45e-01	0	41	104	6549405696	79	10117
2026-01-22 06:42:50.99	346.50	11.85	-54.1	-62.9	3.8	7.43e-01	0	41	104	6549405696	79	10096
2026-01-22 06:42:52.00	346.39	11.75	-54.1	-62.9	3.8	7.46e-01	0	41	104	6549405696	79	10131
2026-01-22 06:42:53.01	346.28	11.64	-54.1	-62.9	3.8	7.46e-01	0	41	104	6549405696	79	10126
2026-01-22 06:42:54.02	346.17	11.53	-54.1	-62.9	3.8	7.45e-01	0	41	104	6549405696	79	10087
2026-01-22 06:42:55.03	346.06	11.43	-54.0	-62.9	3.8	7.47e-01	0	41	104	6549405696	79	10071
2026-01-22 06:42:56.03	345.96	11.32	-54.1	-62.9	3.8	7.45e-01	0	41	104	6549405696	79	10113
2026-01-22 06:42:57.04	345.85	11.22	-54.1	-62.9	3.8	7.45e-01	0	41	104	6549405696	79	10115
2026-01-22 06:42:58.05	345.75	11.11	-54.0	-62.9	3.8	7.47e-01	0	41	104	6549405696	79	10069
2026-01-22 06:42:59.06	345.64	11.01	-54.0	-62.8	3.8	7.46e-01	0	41	104	6549405696	79	10019
2026-01-22 06:43:00.06	345.54	10.90	-54.0	-62.9	3.8	7.45e-01	0	41	104	6549405696	79	10117
2026-01-22 06:43:01.07	345.44	10.80	-54.0	-62.9	3.8	7.45e-01	0	41	104	6549405696	79	10121
2026-01-22 06:43:02.08	345.34	10.70	-54.0	-62.8	3.8	7.45e-01	0	41	104	6549405696	79	9990
2026-01-22 06:43:03.08	345.24	10.60	-54.0	-62.8	3.8	7.44e-01	0	41	104	6549405696	79	9993
2026-01-22 06:43:04.09	345.14	10.50	-54.0	-62.8	3.8	7.45e-01	0	41	104	6549405696	79	10041
2026-01-22 06:43:05.10	345.04	10.40	-54.0	-62.8	3.8	7.45e-01	0	41	104	6549405696	79	10011
2026-01-22 06:43:06.11	344.94	10.29	-53.9	-62.8	3.8	7.45e-01	0	41	104	6549405696	79	9977
2026-01-22 06:43:07.12	344.85	10.19	-53.9	-62.7	3.8	7.44e-01	0	41	104	6549405696	79	9934
2026-01-22 06:43:08.13	344.75	10.09	-54.0	-62.8	3.8	7.45e-01	0	41	104	6549405696	79	10016
2026-01-22 06:43:09.14	344.66	10.00	-54.0	-62.8	3.8	7.44e-01	0	41	104	6549405696	79	10030
2026-01-22 06:43:10.15	344.56	9.90	-53.9	-62.7	3.8	7.45e-01	0	41	104	6549405696	79	9841
2026-01-22 06:43:11.15	344.47	9.80	-53.9	-62.7	3.8	7.44e-01	0	41	104	6549405696	79	9842
2026-01-22 06:43:12.16	344.38	9.70	-53.9	-62.8	3.8	7.45e-01	0	41	104	6549405696	79	9951
2026-01-22 06:43:13.17	344.29	9.60	-53.9	-62.7	3.8	7.43e-01	0	41	104	6549405696	79	9924
2026-01-22 06:43:14.18	344.20	9.51	-53.9	-62.7	3.8	7.45e-01	0	41	104	6549405696	79	9892
2026-01-22 06:43:15.19	344.11	9.41	-53.9	-62.7	3.8	7.46e-01	0	41	104	6549405696	79	9868
2026-01-22 06:43:16.19	344.02	9.32	-53.9	-62.7	3.8	7.45e-01	0	41	104	6549405696	79	9896
2026-01-22 06:43:17.20	343.93	9.22	-53.9	-62.8	3.8	7.47e-01	0	41	104	6549405696	79	9959
2026-01-22 06:43:18.21	343.84	9.12	-53.8	-62.7	3.8	7.46e-01	0	41	104	6549405696	79	9844
2026-01-22 06:43:19.22	343.76	9.03	-53.8	-62.6	3.8	7.46e-01	0	41	104	6549405696	79	9758
2026-01-22 06:43:20.23	343.67	8.94	-53.9	-62.7	3.8	7.45e-01	0	41	104	6549405696	79	9847
2026-01-22 06:43:21.23	343.58	8.84	-53.9	-62.7	3.8	7.45e-01	0	41	104	6549405696	79	9850
2026-01-22 06:43:22.24	343.50	8.75	-53.8	-62.6	3.8	7.45e-01	0	41	104	6549405696	79	9760
2026-01-22 06:43:23.25	343.42	8.66	-53.8	-62.6	3.8	7.44e-01	0	41	104	6549405696	79	9789
2026-01-22 06:43:24.26	343.33	8.56	-53.8	-62.6	3.8	7.44e-01	0	41	104	6549405696	79	9830
2026-01-22 06:43:25.27	343.25	8.47	-53.8	-62.6	3.8	7.45e-01	0	41	104	6549405696	79	9802
2026-01-22 06:43:26.28	343.17	8.38	-53.7	-62.6	3.8	7.46e-01	0	41	104	6549405696	79	9727
2026-01-22 06:43:27.29	343.09	8.29	-53.7	-62.6	3.8	7.45e-01	0	41	104	6549405696	79	9752
2026-01-22 06:43:28.30	343.00	8.20	-53.8	-62.6	3.8	7.46e-01	0	41	104	6549405696	79	9788
2026-01-22 06:43:29.31	342.92	8.11	-53.8	-62.6	3.8	7.44e-01	0	41	104	6549405696	79	9774
2026-01-22 06:43:30.31	342.85	8.02	-53.7	-62.5	3.8	7.45e-01	0	41	104	6549405696	79	9695
2026-01-22 06:43:31.32	342.77	7.93	-53.7	-62.6	3.8	7.45e-01	0	41	104	6549405696	79	9721
2026-01-22 06:43:32.33	342.69	7.84	-53.8	-62.6	3.8	7.46e-01	0	41	104	6549405696	79	9726
2026-01-22 06:43:33.34	342.61	7.75	-53.7	-62.5	3.8	7.46e-01	0	41	104	6549405696	79	9708
2026-01-22 06:43:34.35	342.53	7.66	-53.7	-62.5	3.8	7.46e-01	0	41	104	6549405696	79	9664
2026-01-22 06:43:35.36	342.46	7.57	-53.7	-62.5	3.8	7.46e-01	0	41	104	6549405696	79	9681
2026-01-22 06:43:36.36	342.38	7.48	-53.7	-62.6	3.8	7.46e-01	0	41	104	6549405696	79	9738
2026-01-22 06:43:37.37	342.31	7.40	-53.7	-62.5	3.8	7.46e-01	0	41	104	6549405696	79	9664
2026-01-22 06:43:38.38	342.23	7.31	-53.6	-62.4	3.8	7.45e-01	0	41	104	6549405696	79	9593
2026-01-22 06:43:39.39	342.16	7.22	-53.7	-62.5	3.8	7.44e-01	0	41	104	6549405696	79	9674
2026-01-22 06:43:40.39	342.09	7.14	-53.7	-62.5	3.8	7.45e-01	0	41	104	6549405696	79	9636
2026-01-22 06:43:41.40	342.01	7.05	-53.7	-62.5	3.8	7.45e-01	0	41	104	6549405696	79	9649
2026-01-22 06:43:42.41	341.94	6.96	-53.6	-62.4	3.8	7.45e-01	0	41	104	6549405696	79	9538
2026-01-22 06:43:43.42	341.87	6.88	-53.6	-62.4	3.8	7.44e-01	0	41	104	6549405696	79	9557
2026-01-22 06:43:44.43	341.80	6.79	-53.7	-62.4	3.8	7.45e-01	0	41	104	6549405696	79	9596
2026-01-22 06:43:45.44	341.73	6.71	-53.6	-62.4	3.8	7.45e-01	0	41	104	6549405696	79	9570
2026-01-22 06:43:46.45	341.66	6.62	-53.5	-62.3	3.8	7.45e-01	0	41	104	6549405696	79	9495
2026-01-22 06:43:47.46	341.59	6.54	-53.6	-62.4	3.8	7.46e-01	0	41	104	6549405696	79	9541
2026-01-22 06:43:48.47	341.52	6.46	-53.6	-62.5	3.8	7.46e-01	0	41	104	6549405696	79	9607
2026-01-22 06:43:49.48	341.45	6.37	-53.5	-62.4	3.8	7.45e-01	0	41	104	6549405696	79	9525
2026-01-22 06:43:50.48	341.38	6.29	-53.4	-62.3	3.8	7.46e-01	0	41	104	6549405696	78	9975
2026-01-22 06:43:51.49	341.32	6.21	-53.5	-62.3	3.8	7.43e-01	0	41	104	6549405696	78	10022
2026-01-22 06:43:52.50	341.25	6.13	-53.5	-62.4	3.8	7.46e-01	0	41	104	6549405696	78	10072
2026-01-22 06:43:53.51	341.18	6.04	-53.5	-62.3	3.8	7.46e-01	0	41	104	6549405696	78	9967
2026-01-22 06:43:54.51	341.12	5.96	-53.4	-62.2	3.8	7.45e-01	0	41	104	6549405696	78	9839
2026-01-22 06:43:55.52	341.05	5.88	-53.5	-62.3	3.8	7.44e-01	0	41	104	6549405696	78	10023
2026-01-22 06:43:56.53	340.99	5.80	-53.5	-62.4	3.8	7.45e-01	0	41	104	6549405696	78	10083
2026-01-22 06:43:57.54	340.92	5.72	-53.4	-62.2	3.8	7.45e-01	0	42	104	6549405696	78	9846
2026-01-22 06:43:58.55	340.86	5.64	-53.3	-62.1	3.8	7.45e-01	0	41	104	6549405696	78	9814
2026-01-22 06:43:59.55	340.80	5.56	-53.4	-62.2	3.8	7.44e-01	0	41	104	6549405696	78	9911
2026-01-22 06:44:00.55	340.74	5.48	-53.4	-62.3	3.8	7.47e-01	0	41	104	6549405696	78	9948
2026-01-22 06:44:01.56	340.67	5.40	-53.3	-62.1	3.8	7.48e-01	0	41	104	6549405696	78	9809
2026-01-22 06:44:02.57	340.61	5.32	-53.2	-62.0	3.8	7.45e-01	0	41	104	6549405696	78	9697
2026-01-22 06:44:03.58	340.55	5.24	-53.3	-62.1	3.8	7.45e-01	0	41	104	6549405696	78	9830
2026-01-22 06:44:04.59	340.49	5.16	-53.4	-62.2	3.8	7.46e-01	0	41	104	6549405696	78	9834
2026-01-22 06:44:05.59	340.43	5.08	-53.2	-62.1	3.8	7.46e-01	0	41	104	6549405696	78	9737
2026-01-22 06:44:06.60	340.37	5.01	-53.2	-62.0	3.8	7.44e-01	0	41	104	6549405696	78	9706
2026-01-22 06:44:07.61	340.31	4.93	-53.7	-62.6	3.8	7.46e-01	0	41	104	6549405696	78	10298
2026-01-22 06:44:08.62	340.25	4.85	-54.0	-62.8	3.8	7.45e-01	0	41	104	6549405696	78	10655
2026-01-22 06:44:09.63	340.19	4.77	-54.2	-63.1	3.8	7.45e-01	0	41	104	6549405696	78	10909
2026-01-22 06:44:10.63	340.13	4.70	-54.4	-63.2	3.8	7.46e-01	0	41	104	6549405696	79	10441
2026-01-22 06:44:11.64	340.07	4.62	-54.5	-63.3	3.8	7.46e-01	0	41	104	6549405696	79	10633
2026-01-22 06:44:12.65	340.02	4.54	-54.6	-63.4	3.8	7.45e-01	0	41	104	6549405696	79	10761
2026-01-22 06:44:13.66	339.96	4.47	-54.7	-63.5	3.8	7.46e-01	0	41	104	6549405696	79	10849
2026-01-22 06:44:14.67	339.90	4.39	-54.7	-63.5	3.8	7.45e-01	0	41	104	6549405696	79	10856
2026-01-22 06:44:15.67	339.85	4.31	-54.7	-63.6	3.8	7.45e-01	0	41	104	6549405696	79	10908
2026-01-22 06:44:16.68	339.79	4.24	-54.7	-63.5	3.8	7.44e-01	0	41	104	6549405696	79	10831
2026-01-22 06:44:17.69	339.73	4.16	-54.7	-63.5	3.8	7.46e-01	0	41	104	6549405696	79	10840
2026-01-22 06:44:18.70	339.68	4.09	-54.6	-63.5	3.8	7.45e-01	0	41	104	6549405696	79	10829
2026-01-22 06:44:19.71	339.62	4.01	-54.6	-63.4	3.8	7.46e-01	0	41	104	6549405696	79	10731
2026-01-22 06:44:20.71	339.57	3.94	-54.4	-63.2	3.8	7.47e-01	0	41	104	6549405696	79	10515
2026-01-22 06:44:21.72	339.52	3.87	-54.4	-63.2	3.8	7.46e-01	0	41	104	6549405696	79	10492
2026-01-22 06:44:22.73	339.46	3.79	-54.4	-63.3	3.8	7.46e-01	0	41	104	6549405696	79	10605
2026-01-22 06:44:23.74	339.41	3.72	-54.5	-63.3	3.8	7.44e-01	0	41	104	6549405696	79	10577
2026-01-22 06:44:24.75	339.35	3.64	-54.5	-63.3	3.8	7.42e-01	0	41	104	6549405696	79	10590
2026-01-22 06:44:25.76	339.30	3.57	-54.5	-63.3	3.8	7.44e-01	0	41	104	6549405696	79	10633
2026-01-22 06:44:26.77	339.25	3.50	-54.5	-63.3	3.8	7.46e-01	0	41	104	6549405696	79	10647
2026-01-22 06:44:27.78	339.20	3.42	-54.5	-63.4	3.8	7.45e-01	0	41	104	6549405696	79	10680
2026-01-22 06:44:28.79	339.15	3.35	-54.5	-63.3	3.8	7.46e-01	0	41	104	6549405696	79	10628
2026-01-22 06:44:29.79	339.10	3.28	-54.5	-63.3	3.8	7.45e-01	0	41	104	6549405696	79	10591
2026-01-22 06:44:30.80	339.04	3.21	-54.5	-63.3	3.8	7.44e-01	0	41	104	6549405696	79	10567
2026-01-22 06:44:31.81	338.99	3.14	-54.5	-63.3	3.8	7.45e-01	0	41	104	6549405696	79	10589
2026-01-22 06:44:32.82	338.94	3.06	-54.5	-63.3	3.8	7.45e-01	0	41	104	6549405696	79	10614
2026-01-22 06:44:33.83	338.89	2.99	-54.5	-63.3	3.8	7.44e-01	0	41	104	6549405696	79	10589
2026-01-22 06:44:34.84	338.84	2.92	-54.5	-63.3	3.8	7.44e-01	0	41	104	6549405696	79	10542
2026-01-22 06:44:35.85	338.80	2.85	-54.5	-63.3	3.8	7.44e-01	0	41	104	6549405696	79	10556
2026-01-22 06:44:36.86	338.75	2.78	-54.5	-63.3	3.8	7.45e-01	0	41	104	6549405696	79	10569
2026-01-22 06:44:37.86	338.70	2.71	-54.5	-63.3	3.8	7.46e-01	0	41	104	6549405696	79	10592
2026-01-22 06:44:38.87	338.65	2.64	-54.5	-63.3	3.8	7.44e-01	0	41	104	6549405696	79	10608
2026-01-22 06:44:39.88	338.60	2.57	-54.4	-63.3	3.8	7.46e-01	0	41	104	6549405696	79	10567
2026-01-22 06:44:40.89	338.55	2.50	-54.4	-63.3	3.8	7.47e-01	0	41	104	6549405696	79	10572
2026-01-22 06:44:41.90	338.51	2.43	-54.4	-63.3	3.8	7.44e-01	0	41	104	6549405696	79	10578
2026-01-22 06:44:42.91	338.46	2.36	-54.4	-63.3	3.8	7.44e-01	0	41	104	6549405696	79	10554
2026-01-22 06:44:43.91	338.41	2.29	-54.4	-63.3	3.8	7.47e-01	0	41	104	6549405696	79	10549
2026-01-22 06:44:44.92	338.37	2.22	-54.4	-63.3	3.8	7.47e-01	0	41	104	6549405696	79	10560
2026-01-22 06:44:45.93	338.32	2.15	-54.4	-63.3	3.8	7.44e-01	0	41	104	6549405696	79	10547
2026-01-22 06:44:46.94	338.28	2.08	-54.4	-63.3	3.8	7.46e-01	0	41	104	6549405696	79	10553
2026-01-22 06:44:47.95	338.23	2.02	-54.4	-63.3	3.8	7.45e-01	0	41	104	6549405696	79	10556
2026-01-22 06:44:48.96	338.19	1.95	-54.4	-63.2	3.8	7.45e-01	0	41	104	6549405696	79	10526
2026-01-22 06:44:49.97	338.14	1.88	-54.4	-63.3	3.8	7.45e-01	0	41	104	6549405696	79	10541

#Closed at: 2026-01-22 06:44:50
#Recorded file [6549 MB]: D:/lorett/data/31041_260122_093442.dat