passes_logs/2026/01/22/R3.2S_Murmansk/R3.2S_Murmansk__20260122_095547_FENGYUN_3D_rec.log

#Pass ID: 20260122_095547_FENGYUN 3D
#Satellite: FENGYUN 3D
#Configuration: FENGYUN 3D
#almurnet v.1.7.20251203
#Start time: 2026-01-22 09:55:49

#Version: 2.2.20231116
#Station: R3.2S_Murmansk
#Location: 33.079688 lon 68.888172 lat
#TLE: 1 43010U 17072A   26021.48744220  .00000253  00000+0  14133-3 0  9991
#TLE: 2 43010  98.9948 353.4037 0002485  97.2578 262.8880 14.19697766424177

#Time	Az	El	Level	Level2	SNR	BER	BlckErr	Temp	State	Recorded	gain1	gain2
2026-01-22 09:55:49.51	113.51	2.14	-54.2	-66.2	3.8	8.47e-01	0	39	0	0	79	14828
2026-01-22 09:55:50.52	113.47	2.20	-54.5	-66.5	3.8	8.47e-01	0	39	104	0	79	15307
2026-01-22 09:55:51.53	113.44	2.26	-54.4	-66.5	3.8	8.47e-01	0	39	104	0	79	15231
2026-01-22 09:55:52.54	113.40	2.33	-54.4	-66.4	3.8	8.46e-01	0	39	104	0	79	15184
2026-01-22 09:55:53.54	113.36	2.39	-54.4	-66.4	3.8	8.46e-01	0	39	104	0	79	15126
2026-01-22 09:55:54.55	113.33	2.45	-54.4	-66.4	3.8	8.46e-01	0	39	104	0	79	15137
2026-01-22 09:55:55.56	113.29	2.52	-54.4	-66.4	3.8	8.47e-01	0	39	104	0	79	15071
2026-01-22 09:55:56.57	113.25	2.58	-54.3	-66.3	3.8	8.47e-01	0	39	104	0	79	15030
2026-01-22 09:55:57.58	113.22	2.64	-54.3	-66.3	3.8	8.46e-01	0	39	104	0	79	15015
2026-01-22 09:55:58.58	113.18	2.71	-54.3	-66.3	3.8	8.47e-01	0	39	104	0	79	14938
2026-01-22 09:55:59.59	113.14	2.77	-54.2	-66.2	3.8	8.46e-01	0	39	104	0	79	14866
2026-01-22 09:56:00.60	113.11	2.84	-54.2	-66.2	3.8	8.47e-01	0	39	104	0	79	14788
2026-01-22 09:56:01.61	113.07	2.90	-54.2	-66.2	3.8	8.46e-01	0	39	104	0	79	14716
2026-01-22 09:56:02.62	113.03	2.96	-54.1	-66.1	3.8	8.46e-01	0	39	104	0	79	14681
2026-01-22 09:56:03.63	112.99	3.03	-54.1	-66.1	3.8	8.47e-01	0	39	104	0	79	14587
2026-01-22 09:56:04.64	112.95	3.09	-54.0	-66.0	3.8	8.46e-01	0	39	104	0	79	14540
2026-01-22 09:56:05.65	112.91	3.16	-54.0	-66.0	3.8	8.47e-01	0	39	104	0	79	14453
2026-01-22 09:56:06.65	112.88	3.22	-54.0	-65.9	3.8	8.46e-01	0	40	104	0	79	14368
2026-01-22 09:56:07.67	112.84	3.29	-53.9	-65.9	3.8	8.47e-01	0	40	104	0	79	14341
2026-01-22 09:56:08.67	112.80	3.35	-53.9	-65.9	3.8	8.46e-01	0	39	104	0	79	14255
2026-01-22 09:56:09.68	112.76	3.42	-53.8	-65.8	3.8	8.46e-01	0	40	104	0	79	14198
2026-01-22 09:56:10.69	112.72	3.49	-53.8	-65.7	3.8	8.47e-01	0	39	104	0	79	14045
2026-01-22 09:56:11.70	112.68	3.55	-53.7	-65.6	3.8	8.47e-01	0	40	104	0	79	13812
2026-01-22 09:56:12.70	112.64	3.62	-53.6	-65.6	3.8	8.46e-01	0	40	104	0	79	13783
2026-01-22 09:56:13.71	112.60	3.68	-53.5	-65.5	3.8	8.46e-01	0	40	104	0	79	13609
2026-01-22 09:56:14.72	112.56	3.75	-53.4	-65.4	3.8	8.46e-01	0	40	104	0	78	14211
2026-01-22 09:56:15.73	112.52	3.82	-53.2	-65.1	3.8	8.46e-01	0	40	104	0	78	13811
2026-01-22 09:56:16.74	112.48	3.88	-52.9	-64.9	3.8	8.45e-01	0	40	104	0	77	14244
2026-01-22 09:56:17.74	112.44	3.95	-52.5	-62.9	3.8	8.46e-01	0	40	104	0	77	11384
2026-01-22 09:56:18.75	112.40	4.01	-52.4	-63.5	3.8	8.45e-01	0	40	104	0	76	12858
2026-01-22 09:56:19.76	112.36	4.08	-52.4	-63.5	3.8	8.46e-01	0	40	104	0	76	12905
2026-01-22 09:56:20.77	112.32	4.15	-52.4	-62.9	3.8	8.46e-01	0	40	104	0	76	12058
2026-01-22 09:56:21.78	112.27	4.22	-52.1	-61.0	4.1	8.43e-01	0	40	104	0	76	9702
2026-01-22 09:56:22.79	112.23	4.28	-51.6	-58.2	5.4	8.09e-01	0	40	0	0	75	7381
2026-01-22 09:56:23.80	112.19	4.35	-50.9	-55.8	7.4	1.56e-01	0	40	0	4194304	73	6309
2026-01-22 09:56:24.81	112.15	4.42	-50.1	-53.9	9.3	4.63e-02	0	40	0	10485760	72	5355
2026-01-22 09:56:25.82	112.10	4.49	-48.8	-51.5	11.9	1.78e-03	0	40	0	16777216	69	4837
2026-01-22 09:56:26.82	112.06	4.55	-48.3	-50.7	12.7	2.96e-04	0	40	0	22020096	68	4703
2026-01-22 09:56:27.83	112.02	4.62	-46.6	-48.3	15.0	3.40e-06	0	40	0	27262976	65	4239
2026-01-22 09:56:28.84	111.98	4.69	-46.5	-48.3	15.1	0.00e+00	0	40	0	33554432	64	4444
2026-01-22 09:56:29.85	111.93	4.76	-45.8	-47.3	16.2	0.00e+00	0	40	0	38797312	63	4200
2026-01-22 09:56:30.86	111.89	4.83	-45.6	-47.0	16.4	0.00e+00	0	40	0	45088768	63	4094
2026-01-22 09:56:31.87	111.85	4.90	-45.3	-46.7	16.8	0.00e+00	0	40	0	50331648	62	4182
2026-01-22 09:56:32.88	111.80	4.97	-45.1	-46.5	17.0	0.00e+00	0	40	0	55574528	62	4069
2026-01-22 09:56:33.89	111.76	5.04	-45.4	-46.9	16.6	0.00e+00	0	40	0	61865984	62	4266
2026-01-22 09:56:34.89	111.71	5.10	-44.1	-45.3	18.5	0.00e+00	0	40	0	67108864	59	4226
2026-01-22 09:56:35.90	111.67	5.17	-44.1	-45.2	18.6	0.00e+00	0	40	0	72351744	59	4189
2026-01-22 09:56:36.91	111.62	5.24	-50.8	-55.5	8.0	1.84e-03	0	40	0	78643200	72	6474
2026-01-22 09:56:37.92	111.58	5.31	-47.0	-48.8	14.9	0.00e+00	0	40	0	84934656	64	4728
2026-01-22 09:56:38.92	111.53	5.38	-46.7	-48.5	15.3	0.00e+00	0	40	0	90177536	64	4584
2026-01-22 09:56:39.93	111.49	5.45	-44.4	-45.7	18.0	0.00e+00	0	40	0	95420416	60	4149
2026-01-22 09:56:40.94	111.44	5.52	-43.9	-45.0	18.9	0.00e+00	0	40	0	101711872	59	4084
2026-01-22 09:56:41.95	111.40	5.59	-44.2	-45.4	18.6	0.00e+00	0	40	0	106954752	59	4274
2026-01-22 09:56:42.96	111.35	5.66	-43.6	-44.7	19.2	0.00e+00	0	40	0	112197632	59	3944
2026-01-22 09:56:43.96	111.30	5.74	-43.5	-44.6	19.4	0.00e+00	0	40	0	118489088	58	4105
2026-01-22 09:56:44.97	111.26	5.81	-43.5	-44.6	19.3	0.00e+00	0	40	0	123731968	58	4134
2026-01-22 09:56:45.98	111.21	5.88	-43.5	-44.6	19.4	0.00e+00	0	40	0	130023424	58	4126
2026-01-22 09:56:46.99	111.16	5.95	-43.7	-44.9	19.1	0.00e+00	0	40	0	135266304	58	4247
2026-01-22 09:56:48.00	111.12	6.02	-43.3	-44.4	19.6	0.00e+00	0	40	0	140509184	58	4032
2026-01-22 09:56:49.00	111.07	6.09	-43.5	-44.6	19.4	0.00e+00	0	40	0	146800640	58	4108
2026-01-22 09:56:50.01	111.02	6.16	-43.8	-44.9	19.1	0.00e+00	0	40	0	153092096	58	4291
2026-01-22 09:56:51.02	110.97	6.24	-43.6	-44.7	19.3	0.00e+00	0	40	0	158334976	58	4168
2026-01-22 09:56:52.03	110.92	6.31	-43.4	-44.5	19.6	0.00e+00	0	40	0	163577856	58	4055
2026-01-22 09:56:53.04	110.87	6.38	-43.8	-44.9	19.2	0.00e+00	0	40	0	169869312	58	4246
2026-01-22 09:56:54.04	110.83	6.45	-43.7	-44.8	19.3	0.00e+00	0	40	0	175112192	58	4200
2026-01-22 09:56:55.05	110.78	6.53	-43.6	-44.7	19.4	0.00e+00	0	40	0	180355072	58	4177
2026-01-22 09:56:56.06	110.73	6.60	-43.4	-44.5	19.5	0.00e+00	0	40	0	186646528	58	4083
2026-01-22 09:56:57.07	110.68	6.67	-43.4	-44.5	19.5	0.00e+00	0	40	0	191889408	58	4087
2026-01-22 09:56:58.08	110.63	6.74	-43.3	-44.4	19.6	0.00e+00	0	40	0	197132288	58	4020
2026-01-22 09:56:59.09	110.58	6.82	-43.3	-44.4	19.6	0.00e+00	0	40	0	203423744	58	4028
2026-01-22 09:57:00.10	110.53	6.89	-43.5	-44.6	19.4	0.00e+00	0	40	0	208666624	58	4120
2026-01-22 09:57:01.10	110.48	6.97	-43.7	-44.8	19.3	0.00e+00	0	40	0	214958080	58	4198
2026-01-22 09:57:02.11	110.42	7.04	-43.1	-44.2	19.8	0.00e+00	0	40	0	220200960	58	3929
2026-01-22 09:57:03.12	110.37	7.11	-43.3	-44.3	19.7	0.00e+00	0	40	0	226492416	58	3995
2026-01-22 09:57:04.13	110.32	7.19	-43.2	-44.3	19.8	0.00e+00	0	40	0	231735296	58	3960
2026-01-22 09:57:05.14	110.27	7.26	-43.0	-44.0	20.0	0.00e+00	0	40	0	238026752	58	3859
2026-01-22 09:57:06.14	110.22	7.34	-43.1	-44.2	19.9	0.00e+00	0	40	0	243269632	58	3938
2026-01-22 09:57:07.15	110.16	7.41	-43.3	-44.3	19.8	0.00e+00	0	40	0	248512512	57	4234
2026-01-22 09:57:08.16	110.11	7.49	-43.3	-44.3	19.8	0.00e+00	0	40	0	254803968	57	4242
2026-01-22 09:57:09.17	110.06	7.56	-43.2	-44.2	19.9	0.00e+00	0	40	0	260046848	57	4177
2026-01-22 09:57:10.17	110.00	7.64	-43.2	-44.2	19.8	0.00e+00	0	40	0	265289728	57	4183
2026-01-22 09:57:11.18	109.95	7.71	-42.9	-43.9	20.2	0.00e+00	0	40	0	271581184	57	4032
2026-01-22 09:57:12.19	109.90	7.79	-43.0	-44.1	20.1	0.00e+00	0	40	0	276824064	57	4101
2026-01-22 09:57:13.20	109.84	7.87	-42.9	-44.0	20.1	0.00e+00	0	40	0	282066944	57	4062
2026-01-22 09:57:14.21	109.79	7.94	-43.1	-44.1	20.0	0.00e+00	0	41	0	288358400	57	4129
2026-01-22 09:57:15.22	109.73	8.02	-42.9	-43.9	20.2	0.00e+00	0	40	0	294649856	57	4018
2026-01-22 09:57:16.23	109.68	8.10	-42.9	-43.9	20.2	0.00e+00	0	40	0	299892736	57	4020
2026-01-22 09:57:17.24	109.62	8.17	-42.9	-43.9	20.2	0.00e+00	0	40	0	305135616	57	4020
2026-01-22 09:57:18.24	109.57	8.25	-42.8	-43.9	20.2	0.00e+00	0	40	0	311427072	57	4006
2026-01-22 09:57:19.25	109.51	8.33	-42.8	-43.8	20.3	0.00e+00	0	40	0	316669952	57	3987
2026-01-22 09:57:20.26	109.45	8.41	-42.7	-43.8	20.3	0.00e+00	0	40	0	322961408	57	3959
2026-01-22 09:57:21.27	109.40	8.48	-42.8	-43.8	20.3	0.00e+00	0	40	0	328204288	57	3984
2026-01-22 09:57:22.28	109.34	8.56	-42.8	-43.8	20.3	0.00e+00	0	41	0	333447168	57	3962
2026-01-22 09:57:23.29	109.28	8.64	-42.7	-43.7	20.4	0.00e+00	0	40	0	339738624	57	3937
2026-01-22 09:57:24.30	109.22	8.72	-42.7	-43.7	20.4	0.00e+00	0	40	0	344981504	57	3930
2026-01-22 09:57:25.30	109.17	8.80	-42.7	-43.7	20.4	0.00e+00	0	40	0	350224384	57	3951
2026-01-22 09:57:26.31	109.11	8.88	-42.6	-43.6	20.5	0.00e+00	0	40	0	356515840	57	3890
2026-01-22 09:57:27.32	109.05	8.96	-42.6	-43.5	20.6	0.00e+00	0	40	0	362807296	57	3863
2026-01-22 09:57:28.33	108.99	9.04	-42.4	-43.4	20.7	0.00e+00	0	40	0	368050176	56	4034
2026-01-22 09:57:29.34	108.93	9.12	-42.4	-43.4	20.7	0.00e+00	0	40	0	373293056	56	4026
2026-01-22 09:57:30.35	108.87	9.20	-42.6	-43.6	20.6	0.00e+00	0	40	0	379584512	56	4100
2026-01-22 09:57:31.36	108.81	9.28	-42.5	-43.5	20.6	0.00e+00	0	40	0	384827392	56	4070
2026-01-22 09:57:32.36	108.75	9.36	-42.3	-43.3	20.8	0.00e+00	0	40	0	390070272	56	3982
2026-01-22 09:57:33.37	108.69	9.44	-42.4	-43.4	20.7	0.00e+00	0	40	0	396361728	56	4031
2026-01-22 09:57:34.38	108.63	9.52	-42.3	-43.3	20.8	0.00e+00	0	40	0	401604608	56	3975
2026-01-22 09:57:35.39	108.57	9.60	-42.4	-43.4	20.7	0.00e+00	0	40	0	407896064	56	4014
2026-01-22 09:57:36.40	108.50	9.68	-42.3	-43.3	20.8	0.00e+00	0	40	0	413138944	56	3960
2026-01-22 09:57:37.41	108.44	9.76	-42.2	-43.2	20.9	0.00e+00	0	40	0	418381824	56	3923
2026-01-22 09:57:38.42	108.38	9.84	-42.2	-43.2	20.9	0.00e+00	0	40	0	424673280	56	3933
2026-01-22 09:57:39.42	108.32	9.92	-42.2	-43.2	20.9	0.00e+00	0	40	0	430964736	56	3933
2026-01-22 09:57:40.43	108.25	10.01	-42.2	-43.1	20.9	0.00e+00	0	40	0	436207616	56	3909
2026-01-22 09:57:41.44	108.19	10.09	-42.2	-43.2	20.9	0.00e+00	0	40	0	441450496	56	3931
2026-01-22 09:57:42.45	108.13	10.17	-42.3	-43.2	20.9	0.00e+00	0	40	0	447741952	56	3948
2026-01-22 09:57:43.46	108.06	10.25	-42.1	-43.1	21.0	0.00e+00	0	41	0	452984832	56	3886
2026-01-22 09:57:44.46	108.00	10.34	-42.1	-43.0	21.1	0.00e+00	0	40	0	458227712	56	3844
2026-01-22 09:57:45.47	107.93	10.42	-41.9	-42.8	21.2	0.00e+00	0	40	0	464519168	55	3998
2026-01-22 09:57:46.48	107.87	10.50	-41.9	-42.9	21.1	0.00e+00	0	41	0	469762048	55	4019
2026-01-22 09:57:47.49	107.80	10.59	-41.9	-42.8	21.2	0.00e+00	0	40	0	475004928	55	3990
2026-01-22 09:57:48.50	107.73	10.67	-41.9	-42.8	21.1	0.00e+00	0	40	0	481296384	55	3991
2026-01-22 09:57:49.50	107.67	10.76	-41.9	-42.8	21.1	0.00e+00	0	40	0	486539264	55	4001
2026-01-22 09:57:50.51	107.60	10.84	-42.0	-42.9	21.1	0.00e+00	0	40	0	492830720	55	4035
2026-01-22 09:57:51.52	107.53	10.93	-41.9	-42.9	21.2	0.00e+00	0	40	0	498073600	55	4018
2026-01-22 09:57:52.53	107.46	11.01	-41.8	-42.8	21.2	0.00e+00	0	41	0	504365056	55	3966
2026-01-22 09:57:53.54	107.39	11.10	-41.7	-42.6	21.3	0.00e+00	0	40	0	509607936	55	3912
2026-01-22 09:57:54.54	107.33	11.18	-41.7	-42.6	21.4	0.00e+00	0	40	0	515899392	55	3905
2026-01-22 09:57:55.55	107.26	11.27	-41.8	-42.7	21.3	0.00e+00	0	41	0	521142272	55	3926
2026-01-22 09:57:56.56	107.19	11.35	-41.6	-42.6	21.4	0.00e+00	0	41	0	526385152	55	3876
2026-01-22 09:57:57.57	107.12	11.44	-41.7	-42.6	21.4	0.00e+00	0	40	0	532676608	55	3897
2026-01-22 09:57:58.58	107.05	11.53	-41.6	-42.5	21.5	0.00e+00	0	40	0	537919488	55	3850
2026-01-22 09:57:59.58	106.97	11.61	-41.6	-42.5	21.5	0.00e+00	0	40	0	543162368	55	3833
2026-01-22 09:58:00.59	106.90	11.70	-41.5	-42.4	21.6	0.00e+00	0	41	0	549453824	55	3817
2026-01-22 09:58:01.60	106.83	11.79	-41.6	-42.5	21.5	0.00e+00	0	40	0	554696704	55	3852
2026-01-22 09:58:02.61	106.76	11.88	-41.6	-42.5	21.5	0.00e+00	0	40	0	559939584	55	3833
2026-01-22 09:58:03.62	106.69	11.96	-41.3	-42.2	21.8	0.00e+00	0	40	0	566231040	54	3948
2026-01-22 09:58:04.62	106.61	12.05	-41.2	-42.1	21.8	0.00e+00	0	41	0	572522496	54	3900
2026-01-22 09:58:05.63	106.54	12.14	-41.3	-42.2	21.8	0.00e+00	0	40	0	577765376	54	3916
2026-01-22 09:58:06.64	106.46	12.23	-41.3	-42.2	21.8	0.00e+00	0	40	0	583008256	54	3919
2026-01-22 09:58:07.65	106.39	12.32	-41.2	-42.1	21.9	0.00e+00	0	41	0	589299712	54	3876
2026-01-22 09:58:08.66	106.31	12.41	-41.3	-42.2	21.8	0.00e+00	0	41	0	594542592	54	3919
2026-01-22 09:58:09.66	106.24	12.50	-41.3	-42.2	21.8	0.00e+00	0	41	0	600834048	54	3923
2026-01-22 09:58:10.67	106.16	12.59	-41.4	-42.2	21.8	0.00e+00	0	41	0	606076928	54	3950
2026-01-22 09:58:11.68	106.09	12.68	-41.2	-42.1	21.9	0.00e+00	0	41	0	611319808	54	3890
2026-01-22 09:58:12.68	106.01	12.77	-41.3	-42.1	21.8	0.00e+00	0	41	0	617611264	54	3903
2026-01-22 09:58:13.69	105.93	12.86	-41.3	-42.2	21.8	0.00e+00	0	40	0	622854144	54	3938
2026-01-22 09:58:14.70	105.85	12.95	-41.2	-42.1	21.9	0.00e+00	0	40	0	628097024	54	3891
2026-01-22 09:58:15.71	105.78	13.04	-41.3	-42.2	21.8	0.00e+00	0	40	0	634388480	54	3944
2026-01-22 09:58:16.72	105.70	13.13	-41.2	-42.1	21.9	0.00e+00	0	41	0	640679936	54	3896
2026-01-22 09:58:17.72	105.62	13.22	-41.2	-42.1	21.9	0.00e+00	0	40	0	645922816	54	3898
2026-01-22 09:58:18.73	105.54	13.32	-41.2	-42.0	21.9	0.00e+00	0	41	0	651165696	54	3862
2026-01-22 09:58:19.74	105.46	13.41	-41.2	-42.1	21.9	0.00e+00	0	40	0	657457152	54	3883
2026-01-22 09:58:20.74	105.38	13.50	-41.2	-42.1	21.9	0.00e+00	0	40	0	662700032	54	3886
2026-01-22 09:58:21.75	105.29	13.59	-41.1	-42.0	22.0	0.00e+00	0	41	0	667942912	54	3839
2026-01-22 09:58:22.76	105.21	13.69	-40.9	-41.7	22.2	0.00e+00	0	41	0	674234368	53	3954
2026-01-22 09:58:23.77	105.13	13.78	-40.9	-41.8	22.2	0.00e+00	0	41	0	679477248	53	3959
2026-01-22 09:58:24.78	105.04	13.87	-40.7	-41.5	22.4	0.00e+00	0	40	0	685768704	53	3867
2026-01-22 09:58:25.78	104.96	13.97	-40.6	-41.5	22.5	0.00e+00	0	40	0	691011584	53	3832
2026-01-22 09:58:26.79	104.88	14.06	-40.7	-41.6	22.4	0.00e+00	0	41	0	696254464	53	3883
2026-01-22 09:58:27.80	104.79	14.16	-40.8	-41.7	22.3	0.00e+00	0	41	0	702545920	53	3920
2026-01-22 09:58:28.81	104.71	14.25	-40.6	-41.5	22.5	0.00e+00	0	40	0	707788800	53	3835
2026-01-22 09:58:29.81	104.62	14.35	-40.8	-41.6	22.3	0.00e+00	0	40	0	714080256	53	3899
2026-01-22 09:58:30.82	104.53	14.44	-40.7	-41.5	22.4	0.00e+00	0	41	0	719323136	53	3867
2026-01-22 09:58:31.83	104.45	14.54	-40.6	-41.4	22.5	0.00e+00	0	41	0	725614592	53	3809
2026-01-22 09:58:32.83	104.36	14.64	-40.6	-41.5	22.5	0.00e+00	0	40	0	730857472	53	3846
2026-01-22 09:58:33.84	104.27	14.73	-40.7	-41.5	22.4	0.00e+00	0	40	0	736100352	53	3853
2026-01-22 09:58:34.85	104.18	14.83	-40.7	-41.6	22.3	0.00e+00	0	41	0	742391808	53	3888
2026-01-22 09:58:35.85	104.09	14.93	-40.8	-41.7	22.3	0.00e+00	0	41	0	747634688	53	3933
2026-01-22 09:58:36.86	104.00	15.02	-40.8	-41.7	22.3	0.00e+00	0	41	0	752877568	53	3925
2026-01-22 09:58:37.87	103.91	15.12	-40.7	-41.5	22.5	0.00e+00	0	41	0	759169024	53	3857
2026-01-22 09:58:38.88	103.82	15.22	-40.7	-41.5	22.5	0.00e+00	0	41	0	764411904	53	3868
2026-01-22 09:58:39.88	103.73	15.32	-40.7	-41.6	22.4	0.00e+00	0	40	0	770703360	53	3873
2026-01-22 09:58:40.89	103.64	15.42	-40.8	-41.6	22.4	0.00e+00	0	41	0	775946240	53	3903
2026-01-22 09:58:41.90	103.54	15.52	-40.7	-41.6	22.4	0.00e+00	0	41	0	781189120	53	3875
2026-01-22 09:58:42.90	103.45	15.62	-40.7	-41.5	22.5	0.00e+00	0	41	0	787480576	53	3857
2026-01-22 09:58:43.91	103.35	15.72	-40.7	-41.5	22.5	0.00e+00	0	41	0	793772032	53	3851
2026-01-22 09:58:44.92	103.26	15.82	-40.7	-41.6	22.4	0.00e+00	0	41	0	799014912	53	3871
2026-01-22 09:58:45.93	103.16	15.92	-40.7	-41.6	22.4	0.00e+00	0	41	0	804257792	53	3874
2026-01-22 09:58:46.94	103.06	16.02	-40.4	-41.3	22.7	0.00e+00	0	41	0	810549248	52	3974
2026-01-22 09:58:47.95	102.97	16.12	-40.4	-41.3	22.7	0.00e+00	0	41	0	815792128	52	3977
2026-01-22 09:58:48.95	102.87	16.22	-40.5	-41.4	22.6	0.00e+00	0	41	0	821035008	52	4016
2026-01-22 09:58:49.96	102.77	16.32	-40.5	-41.4	22.6	0.00e+00	0	40	0	827326464	52	4016
2026-01-22 09:58:50.97	102.67	16.42	-40.3	-41.1	22.8	0.00e+00	0	41	0	832569344	52	3889
2026-01-22 09:58:51.98	102.57	16.53	-40.3	-41.2	22.8	0.00e+00	0	41	0	837812224	52	3915
2026-01-22 09:58:52.99	102.47	16.63	-40.2	-41.0	22.9	0.00e+00	0	41	0	844103680	52	3854
2026-01-22 09:58:53.99	102.37	16.73	-40.3	-41.2	22.8	0.00e+00	0	41	0	849346560	52	3921
2026-01-22 09:58:55.00	102.27	16.84	-40.3	-41.0	23.1	0.00e+00	0	41	0	855638016	52	3866
2026-01-22 09:58:56.01	102.16	16.94	-40.1	-40.9	23.3	0.00e+00	0	41	0	860880896	52	3788
2026-01-22 09:58:57.02	102.06	17.04	-40.0	-40.8	23.4	0.00e+00	0	41	0	867172352	52	3765
2026-01-22 09:58:58.02	101.96	17.15	-40.1	-40.9	23.3	0.00e+00	0	41	0	872415232	52	3788
2026-01-22 09:58:59.03	101.85	17.25	-40.1	-40.9	23.4	0.00e+00	0	41	0	878706688	52	3784
2026-01-22 09:59:00.04	101.75	17.36	-40.2	-40.9	23.4	0.00e+00	0	41	0	883949568	51	4044
2026-01-22 09:59:01.05	101.64	17.47	-40.2	-41.0	23.4	0.00e+00	0	41	0	889192448	51	4054
2026-01-22 09:59:02.06	101.53	17.57	-40.2	-40.9	23.4	0.00e+00	0	41	0	895483904	51	4048
2026-01-22 09:59:03.06	101.42	17.68	-40.1	-40.9	23.5	0.00e+00	0	41	0	900726784	51	4008
2026-01-22 09:59:04.07	101.31	17.78	-40.1	-40.9	23.5	0.00e+00	0	41	0	905969664	51	4021
2026-01-22 09:59:05.08	101.20	17.89	-39.9	-40.7	23.6	0.00e+00	0	41	0	912261120	51	3934
2026-01-22 09:59:06.09	101.09	18.00	-39.9	-40.6	23.7	0.00e+00	0	41	0	917504000	51	3893
2026-01-22 09:59:07.10	100.98	18.11	-39.8	-40.5	23.8	0.00e+00	0	41	0	922746880	51	3860
2026-01-22 09:59:08.11	100.87	18.21	-39.8	-40.5	23.7	0.00e+00	0	41	0	929038336	51	3865
2026-01-22 09:59:09.12	100.76	18.32	-39.9	-40.7	23.7	0.00e+00	0	41	0	935329792	51	3914
2026-01-22 09:59:10.12	100.64	18.43	-39.9	-40.6	23.7	0.00e+00	0	41	0	940572672	51	3900
2026-01-22 09:59:11.13	100.53	18.54	-39.9	-40.7	23.7	0.00e+00	0	41	0	945815552	51	3921
2026-01-22 09:59:12.14	100.41	18.65	-39.8	-40.6	23.7	0.00e+00	0	41	0	952107008	51	3891
2026-01-22 09:59:13.15	100.30	18.76	-39.9	-40.6	23.7	0.00e+00	0	41	0	957349888	51	3903
2026-01-22 09:59:14.16	100.18	18.87	-39.9	-40.7	23.6	0.00e+00	0	41	0	963641344	51	3940
2026-01-22 09:59:15.16	100.06	18.98	-39.9	-40.6	23.7	0.00e+00	0	41	0	968884224	51	3907
2026-01-22 09:59:16.17	99.94	19.09	-39.9	-40.7	23.7	0.00e+00	0	41	0	974127104	51	3924
2026-01-22 09:59:17.18	99.82	19.20	-39.9	-40.6	23.7	0.00e+00	0	41	0	980418560	51	3900
2026-01-22 09:59:18.19	99.70	19.32	-39.7	-40.5	23.9	0.00e+00	0	41	0	985661440	51	3840
2026-01-22 09:59:19.20	99.58	19.43	-39.7	-40.4	23.9	0.00e+00	0	41	0	990904320	51	3811
2026-01-22 09:59:20.20	99.46	19.54	-39.6	-40.4	24.0	0.00e+00	0	41	0	997195776	51	3795
2026-01-22 09:59:21.21	99.33	19.65	-39.6	-40.4	24.0	0.00e+00	0	41	0	1002438656	51	3791
2026-01-22 09:59:22.22	99.21	19.77	-39.5	-40.2	24.1	0.00e+00	0	41	0	1008730112	51	3726
2026-01-22 09:59:23.22	99.08	19.88	-39.4	-40.1	24.2	0.00e+00	0	41	0	1013972992	50	3900
2026-01-22 09:59:24.23	98.96	19.99	-39.3	-40.0	24.3	0.00e+00	0	41	0	1020264448	50	3836
2026-01-22 09:59:25.24	98.83	20.11	-39.2	-40.0	24.4	0.00e+00	0	41	0	1025507328	50	3827
2026-01-22 09:59:26.25	98.70	20.22	-39.2	-39.9	24.4	0.00e+00	0	41	0	1030750208	50	3812
2026-01-22 09:59:27.26	98.57	20.34	-39.2	-40.0	24.4	0.00e+00	0	41	0	1037041664	50	3826
2026-01-22 09:59:28.27	98.44	20.45	-39.2	-39.9	24.4	0.00e+00	0	41	0	1042284544	50	3819
2026-01-22 09:59:29.28	98.31	20.57	-39.3	-40.1	24.3	0.00e+00	0	41	0	1048576000	50	3881
2026-01-22 09:59:30.28	98.18	20.69	-39.3	-40.0	24.3	0.00e+00	0	41	0	1053818880	50	3856
2026-01-22 09:59:31.29	98.04	20.80	-39.4	-40.1	24.2	0.00e+00	0	41	0	1059061760	50	3909
2026-01-22 09:59:32.30	97.91	20.92	-39.3	-40.1	24.3	0.00e+00	0	41	0	1065353216	50	3878
2026-01-22 09:59:33.31	97.77	21.04	-39.3	-40.0	24.3	0.00e+00	0	41	0	1070596096	50	3867
2026-01-22 09:59:34.32	97.64	21.15	-39.1	-39.8	24.5	0.00e+00	0	41	0	1076887552	50	3778
2026-01-22 09:59:35.32	97.50	21.27	-38.9	-39.6	24.6	0.00e+00	0	41	0	1082130432	49	3911
2026-01-22 09:59:36.33	97.36	21.39	-39.0	-39.7	24.6	0.00e+00	0	41	0	1088421888	49	3941
2026-01-22 09:59:37.34	97.22	21.51	-39.0	-39.7	24.6	0.00e+00	0	41	0	1093664768	49	3949
2026-01-22 09:59:38.35	97.08	21.63	-38.9	-39.6	24.7	0.00e+00	0	41	0	1098907648	49	3899
2026-01-22 09:59:39.36	96.94	21.75	-38.9	-39.6	24.7	0.00e+00	0	41	0	1105199104	49	3907
2026-01-22 09:59:40.36	96.79	21.87	-39.0	-39.7	24.6	0.00e+00	0	41	0	1110441984	49	3936
2026-01-22 09:59:41.37	96.65	21.99	-39.1	-39.8	24.5	0.00e+00	0	41	0	1115684864	49	3974
2026-01-22 09:59:42.38	96.50	22.11	-39.1	-39.9	24.5	0.00e+00	0	41	0	1121976320	49	4005
2026-01-22 09:59:43.39	96.36	22.23	-39.0	-39.7	24.6	0.00e+00	0	41	0	1127219200	49	3951
2026-01-22 09:59:44.40	96.21	22.35	-38.8	-39.5	24.8	0.00e+00	0	41	0	1133510656	49	3845
2026-01-22 09:59:45.40	96.06	22.47	-38.8	-39.5	24.8	0.00e+00	0	41	0	1138753536	49	3848
2026-01-22 09:59:46.41	95.91	22.60	-38.8	-39.5	24.8	0.00e+00	0	41	0	1145044992	49	3838
2026-01-22 09:59:47.42	95.76	22.72	-38.6	-39.3	24.9	0.00e+00	0	41	0	1150287872	49	3777
2026-01-22 09:59:48.43	95.61	22.84	-38.6	-39.3	25.0	0.00e+00	0	41	0	1156579328	49	3775
2026-01-22 09:59:49.44	95.45	22.96	-38.6	-39.3	25.0	0.00e+00	0	41	0	1161822208	49	3748
2026-01-22 09:59:50.45	95.30	23.09	-38.6	-39.3	25.0	0.00e+00	0	41	0	1167065088	49	3755
2026-01-22 09:59:51.46	95.14	23.21	-38.6	-39.3	25.0	0.00e+00	0	41	0	1173356544	49	3753
2026-01-22 09:59:52.46	94.98	23.34	-38.6	-39.3	25.0	0.00e+00	0	41	0	1178599424	49	3756
2026-01-22 09:59:53.47	94.82	23.46	-38.6	-39.3	25.0	0.00e+00	0	41	0	1183842304	49	3750
2026-01-22 09:59:54.48	94.66	23.59	-38.7	-39.4	24.9	0.00e+00	0	41	0	1190133760	49	3794
2026-01-22 09:59:55.49	94.50	23.71	-38.7	-39.4	24.9	0.00e+00	0	41	0	1195376640	49	3813
2026-01-22 09:59:56.49	94.34	23.84	-38.8	-39.5	24.8	0.00e+00	0	41	0	1200619520	49	3851
2026-01-22 09:59:57.50	94.18	23.96	-38.7	-39.5	24.9	0.00e+00	0	41	0	1206910976	49	3830
2026-01-22 09:59:58.51	94.01	24.09	-38.8	-39.5	24.8	0.00e+00	0	41	0	1213202432	49	3867
2026-01-22 09:59:59.52	93.84	24.22	-38.8	-39.5	24.8	0.00e+00	0	41	0	1218445312	49	3859
2026-01-22 10:00:00.52	93.68	24.34	-38.7	-39.4	24.9	0.00e+00	0	41	0	1223688192	49	3824
2026-01-22 10:00:01.53	93.51	24.47	-38.7	-39.5	24.9	0.00e+00	0	41	0	1229979648	49	3826
2026-01-22 10:00:02.54	93.34	24.60	-38.8	-39.5	24.9	0.00e+00	0	41	0	1235222528	49	3849
2026-01-22 10:00:03.54	93.16	24.73	-38.6	-39.3	25.0	0.00e+00	0	41	0	1241513984	49	3775
2026-01-22 10:00:04.55	92.99	24.86	-38.6	-39.3	25.0	0.00e+00	0	40	0	1246756864	49	3766
2026-01-22 10:00:05.56	92.82	24.98	-38.3	-39.0	25.3	0.00e+00	0	41	0	1251999744	48	3838
2026-01-22 10:00:06.57	92.64	25.11	-38.3	-39.0	25.3	0.00e+00	0	41	0	1258291200	48	3848
2026-01-22 10:00:07.58	92.46	25.24	-38.3	-39.0	25.3	0.00e+00	0	41	0	1263534080	48	3838
2026-01-22 10:00:08.59	92.28	25.37	-38.2	-38.9	25.4	0.00e+00	0	41	0	1268776960	48	3815
2026-01-22 10:00:09.60	92.10	25.50	-38.1	-38.8	25.5	0.00e+00	0	41	0	1275068416	48	3742
2026-01-22 10:00:10.60	91.92	25.63	-38.1	-38.8	25.5	0.00e+00	0	41	0	1280311296	48	3753
2026-01-22 10:00:11.61	91.73	25.76	-38.2	-38.9	25.4	0.00e+00	0	41	0	1286602752	48	3822
2026-01-22 10:00:12.62	91.55	25.90	-38.3	-39.0	25.3	0.00e+00	0	41	0	1291845632	48	3841
2026-01-22 10:00:13.62	91.36	26.03	-38.4	-39.1	25.3	0.00e+00	0	41	0	1298137088	48	3878
2026-01-22 10:00:14.63	91.17	26.16	-38.4	-39.1	25.2	0.00e+00	0	41	0	1303379968	48	3896
2026-01-22 10:00:15.64	90.98	26.29	-38.4	-39.1	25.3	0.00e+00	0	41	0	1308622848	48	3883
2026-01-22 10:00:16.65	90.79	26.42	-38.4	-39.1	25.2	0.00e+00	0	41	0	1314914304	48	3895
2026-01-22 10:00:17.66	90.59	26.56	-38.4	-39.1	25.3	0.00e+00	0	41	0	1320157184	48	3886
2026-01-22 10:00:18.67	90.40	26.69	-38.5	-39.2	25.2	0.00e+00	0	41	0	1326448640	48	3937
2026-01-22 10:00:19.67	90.20	26.82	-38.6	-39.3	25.1	0.00e+00	0	41	0	1331691520	48	3962
2026-01-22 10:00:20.68	90.00	26.95	-38.3	-39.0	25.4	0.00e+00	0	41	0	1336934400	48	3827
2026-01-22 10:00:21.69	89.80	27.09	-38.2	-38.9	25.5	0.00e+00	0	41	0	1343225856	48	3792
2026-01-22 10:00:22.70	89.60	27.22	-38.3	-39.0	25.4	0.00e+00	0	41	0	1348468736	48	3834
2026-01-22 10:00:23.71	89.40	27.36	-38.4	-39.1	25.3	0.00e+00	0	41	0	1353711616	48	3880
2026-01-22 10:00:24.72	89.19	27.49	-38.5	-39.2	25.2	0.00e+00	0	41	0	1360003072	48	3921
2026-01-22 10:00:25.72	88.98	27.63	-38.5	-39.2	25.2	0.00e+00	0	41	0	1366294528	48	3918
2026-01-22 10:00:26.73	88.77	27.76	-38.5	-39.2	25.2	0.00e+00	0	41	0	1371537408	48	3924
2026-01-22 10:00:27.74	88.56	27.90	-38.6	-39.3	25.1	0.00e+00	0	41	0	1376780288	48	3979
2026-01-22 10:00:28.75	88.35	28.03	-38.5	-39.2	25.2	0.00e+00	0	41	0	1383071744	48	3922
2026-01-22 10:00:29.76	88.13	28.17	-38.5	-39.2	25.2	0.00e+00	0	41	0	1388314624	48	3943
2026-01-22 10:00:30.77	87.92	28.30	-38.3	-39.0	25.4	0.00e+00	0	41	0	1393557504	48	3826
2026-01-22 10:00:31.77	87.70	28.44	-38.4	-39.1	25.3	0.00e+00	0	41	0	1399848960	48	3869
2026-01-22 10:00:32.79	87.48	28.58	-38.4	-39.1	25.3	0.00e+00	0	41	0	1405091840	48	3885
2026-01-22 10:00:33.79	87.26	28.71	-38.3	-39.0	25.4	0.00e+00	0	41	0	1411383296	48	3865
2026-01-22 10:00:34.80	87.03	28.85	-38.3	-39.0	25.3	0.00e+00	0	41	0	1416626176	48	3864
2026-01-22 10:00:35.81	86.81	28.99	-38.4	-39.1	25.3	0.00e+00	0	41	0	1421869056	48	3898
2026-01-22 10:00:36.82	86.58	29.12	-38.3	-39.0	25.4	0.00e+00	0	41	0	1428160512	48	3860
2026-01-22 10:00:37.82	86.35	29.26	-38.3	-39.0	25.4	0.00e+00	0	41	0	1434451968	48	3845
2026-01-22 10:00:38.83	86.12	29.40	-38.3	-39.0	25.3	0.00e+00	0	40	0	1439694848	48	3865
2026-01-22 10:00:39.84	85.88	29.53	-38.2	-38.9	25.5	0.00e+00	0	41	0	1444937728	48	3810
2026-01-22 10:00:40.85	85.65	29.67	-38.2	-38.9	25.5	0.00e+00	0	41	0	1451229184	48	3823
2026-01-22 10:00:41.86	85.41	29.81	-38.2	-38.9	25.5	0.00e+00	0	41	0	1456472064	48	3799
2026-01-22 10:00:42.86	85.17	29.95	-38.2	-38.9	25.5	0.00e+00	0	41	0	1461714944	48	3782
2026-01-22 10:00:43.87	84.93	30.08	-38.1	-38.8	25.6	0.00e+00	0	41	0	1468006400	48	3748
2026-01-22 10:00:44.88	84.68	30.22	-38.0	-38.7	25.7	0.00e+00	0	41	0	1473249280	48	3730
2026-01-22 10:00:45.89	84.44	30.36	-38.1	-38.8	25.6	0.00e+00	0	41	0	1478492160	48	3764
2026-01-22 10:00:46.90	84.19	30.50	-38.0	-38.7	25.7	0.00e+00	0	41	0	1484783616	48	3710
2026-01-22 10:00:47.91	83.94	30.64	-38.1	-38.8	25.6	0.00e+00	0	41	0	1490026496	48	3742
2026-01-22 10:00:48.91	83.69	30.77	-37.7	-38.4	25.5	0.00e+00	0	41	0	1496317952	47	3785
2026-01-22 10:00:49.92	83.43	30.91	-37.7	-38.4	25.4	0.00e+00	0	41	0	1501560832	47	3822
2026-01-22 10:00:50.93	83.17	31.05	-37.8	-38.5	25.4	0.00e+00	0	41	0	1507852288	47	3838
2026-01-22 10:00:51.94	82.91	31.19	-37.8	-38.5	25.3	0.00e+00	0	41	0	1513095168	47	3862
2026-01-22 10:00:52.95	82.65	31.33	-37.8	-38.5	25.3	0.00e+00	0	41	0	1519386624	47	3868
2026-01-22 10:00:53.96	82.39	31.47	-37.7	-38.4	25.4	0.00e+00	0	41	0	1524629504	47	3803
2026-01-22 10:00:54.96	82.12	31.60	-37.6	-38.3	25.5	0.00e+00	0	41	0	1529872384	47	3757
2026-01-22 10:00:55.97	81.85	31.74	-37.7	-38.4	25.5	0.00e+00	0	41	0	1536163840	47	3795
2026-01-22 10:00:56.98	81.58	31.88	-37.8	-38.5	25.4	0.00e+00	0	40	0	1541406720	47	3846
2026-01-22 10:00:57.99	81.31	32.02	-37.8	-38.5	25.3	0.00e+00	0	41	0	1546649600	47	3857
2026-01-22 10:00:59.00	81.03	32.15	-37.7	-38.4	25.4	0.00e+00	0	41	0	1552941056	47	3823
2026-01-22 10:01:00.00	80.76	32.29	-37.7	-38.4	25.5	0.00e+00	0	41	0	1558183936	47	3788
2026-01-22 10:01:01.01	80.48	32.43	-37.6	-38.3	25.5	0.00e+00	0	41	0	1563426816	47	3778
2026-01-22 10:01:02.02	80.19	32.57	-37.7	-38.4	25.4	0.00e+00	0	41	0	1569718272	47	3809
2026-01-22 10:01:03.02	79.91	32.70	-37.7	-38.4	25.4	0.00e+00	0	41	0	1576009728	47	3817
2026-01-22 10:01:04.03	79.62	32.84	-37.5	-38.2	25.6	0.00e+00	0	41	0	1581252608	47	3713
2026-01-22 10:01:05.04	79.33	32.98	-37.5	-38.2	25.6	0.00e+00	0	41	0	1586495488	46	3927
2026-01-22 10:01:06.05	79.04	33.11	-37.6	-38.3	25.5	0.00e+00	0	41	0	1592786944	46	3993
2026-01-22 10:01:07.06	78.74	33.25	-37.6	-38.4	25.5	0.00e+00	0	40	0	1598029824	46	4005
2026-01-22 10:01:08.07	78.45	33.38	-37.5	-38.2	25.6	0.00e+00	0	40	0	1604321280	46	3936
2026-01-22 10:01:09.07	78.15	33.52	-37.5	-38.2	25.6	0.00e+00	0	41	0	1609564160	46	3926
2026-01-22 10:01:10.08	77.85	33.65	-37.2	-37.9	25.9	0.00e+00	0	41	0	1614807040	46	3806
2026-01-22 10:01:11.08	77.54	33.79	-37.3	-38.0	25.8	0.00e+00	0	41	0	1621098496	46	3852
2026-01-22 10:01:12.09	77.24	33.92	-37.4	-38.1	25.7	0.00e+00	0	41	0	1626341376	46	3907
2026-01-22 10:01:13.10	76.92	34.06	-37.5	-38.2	25.6	0.00e+00	0	41	0	1631584256	46	3917
2026-01-22 10:01:14.11	76.61	34.19	-37.5	-38.2	25.6	0.00e+00	0	41	0	1637875712	46	3916
2026-01-22 10:01:15.12	76.30	34.32	-37.4	-38.1	25.7	0.00e+00	0	41	0	1644167168	46	3883
2026-01-22 10:01:16.13	75.98	34.46	-37.5	-38.2	25.6	0.00e+00	0	41	0	1649410048	46	3928
2026-01-22 10:01:17.14	75.66	34.59	-37.5	-38.2	25.6	0.00e+00	0	41	0	1654652928	46	3956
2026-01-22 10:01:18.14	75.34	34.72	-37.6	-38.3	25.5	0.00e+00	0	41	0	1660944384	46	3993
2026-01-22 10:01:19.15	75.01	34.85	-37.5	-38.2	25.6	0.00e+00	0	40	0	1666187264	46	3942
2026-01-22 10:01:20.16	74.68	34.99	-37.5	-38.2	25.6	0.00e+00	0	41	0	1671430144	46	3938
2026-01-22 10:01:21.17	74.35	35.12	-37.7	-38.4	25.5	0.00e+00	0	41	0	1677721600	46	4027
2026-01-22 10:01:22.18	74.02	35.25	-37.8	-38.5	25.4	0.00e+00	0	41	0	1682964480	46	4080
2026-01-22 10:01:23.18	73.68	35.37	-37.8	-38.5	25.4	0.00e+00	0	41	0	1689255936	46	4062
2026-01-22 10:01:24.19	73.34	35.50	-37.7	-38.4	25.4	0.00e+00	0	41	0	1694498816	46	4038
2026-01-22 10:01:25.20	73.00	35.63	-37.5	-38.2	25.6	0.00e+00	0	41	0	1699741696	46	3926
2026-01-22 10:01:26.21	72.66	35.76	-37.4	-38.1	25.7	0.00e+00	0	41	0	1706033152	46	3909
2026-01-22 10:01:27.22	72.31	35.89	-37.5	-38.2	25.6	0.00e+00	0	41	0	1712324608	46	3952
2026-01-22 10:01:28.22	71.96	36.01	-37.4	-38.1	25.7	0.00e+00	0	41	0	1717567488	46	3905
2026-01-22 10:01:29.23	71.61	36.14	-37.3	-38.0	25.8	0.00e+00	0	41	0	1722810368	46	3844
2026-01-22 10:01:30.24	71.25	36.26	-37.3	-38.0	25.8	0.00e+00	0	41	0	1729101824	46	3835
2026-01-22 10:01:31.24	70.90	36.38	-37.3	-38.0	25.8	0.00e+00	0	41	0	1734344704	46	3826
2026-01-22 10:01:32.25	70.53	36.51	-37.2	-37.9	25.9	0.00e+00	0	41	0	1739587584	46	3806
2026-01-22 10:01:33.26	70.17	36.63	-37.3	-37.9	25.8	0.00e+00	0	41	0	1745879040	46	3824
2026-01-22 10:01:34.27	69.80	36.75	-37.4	-38.1	25.7	0.00e+00	0	41	0	1751121920	46	3901
2026-01-22 10:01:35.28	69.43	36.87	-37.5	-38.2	25.6	0.00e+00	0	41	0	1756364800	46	3944
2026-01-22 10:01:36.28	69.07	36.99	-37.5	-38.2	25.6	0.00e+00	0	41	0	1762656256	46	3947
2026-01-22 10:01:37.29	68.69	37.11	-37.5	-38.2	25.6	0.00e+00	0	41	0	1767899136	46	3937
2026-01-22 10:01:38.30	68.31	37.23	-37.4	-38.1	25.7	0.00e+00	0	41	0	1774190592	46	3898
2026-01-22 10:01:39.31	67.93	37.34	-37.4	-38.1	25.7	0.00e+00	0	41	0	1779433472	46	3895
2026-01-22 10:01:40.32	67.55	37.46	-37.3	-38.0	25.8	0.00e+00	0	41	0	1785724928	46	3840
2026-01-22 10:01:41.33	67.16	37.57	-37.4	-38.1	25.8	0.00e+00	0	41	0	1790967808	46	3880
2026-01-22 10:01:42.34	66.77	37.69	-37.5	-38.2	25.7	0.00e+00	0	41	0	1797259264	46	3931
2026-01-22 10:01:43.34	66.39	37.80	-37.5	-38.3	25.6	0.00e+00	0	41	0	1802502144	46	3962
2026-01-22 10:01:44.35	65.99	37.91	-37.5	-38.2	25.7	0.00e+00	0	41	0	1807745024	46	3928
2026-01-22 10:01:45.36	65.60	38.02	-37.7	-38.4	25.5	0.00e+00	0	41	0	1814036480	46	4015
2026-01-22 10:01:46.37	65.20	38.13	-37.8	-38.5	25.4	0.00e+00	0	41	0	1819279360	46	4074
2026-01-22 10:01:47.37	64.80	38.23	-37.7	-38.4	25.5	0.00e+00	0	40	0	1824522240	46	4047
2026-01-22 10:01:48.38	64.39	38.34	-37.6	-38.3	25.6	0.00e+00	0	41	0	1830813696	46	3965
2026-01-22 10:01:49.39	63.99	38.44	-37.4	-38.1	25.8	0.00e+00	0	41	0	1836056576	46	3895
2026-01-22 10:01:50.40	63.58	38.55	-37.6	-38.3	25.6	0.00e+00	0	41	0	1842348032	46	3961
2026-01-22 10:01:51.41	63.16	38.65	-37.7	-38.4	25.5	0.00e+00	0	41	0	1847590912	46	4035
2026-01-22 10:01:52.41	62.75	38.75	-37.6	-38.4	25.6	0.00e+00	0	41	0	1853882368	46	4006
2026-01-22 10:01:53.42	62.33	38.85	-37.6	-38.3	25.6	0.00e+00	0	41	0	1859125248	46	3997
2026-01-22 10:01:54.43	61.91	38.95	-37.5	-38.1	25.7	0.00e+00	0	41	0	1864368128	46	3909
2026-01-22 10:01:55.44	61.49	39.04	-37.3	-38.0	25.8	0.00e+00	0	41	0	1870659584	46	3850
2026-01-22 10:01:56.45	61.07	39.14	-37.2	-37.9	25.9	0.00e+00	0	41	0	1875902464	46	3811
2026-01-22 10:01:57.45	60.64	39.23	-37.4	-38.2	25.8	0.00e+00	0	41	0	1882193920	46	3914
2026-01-22 10:01:58.46	60.21	39.32	-37.3	-38.0	25.9	0.00e+00	0	41	0	1887436800	46	3840
2026-01-22 10:01:59.47	59.78	39.41	-37.2	-37.9	25.9	0.00e+00	0	41	0	1892679680	46	3811
2026-01-22 10:02:00.47	59.35	39.50	-37.3	-37.9	25.9	0.00e+00	0	41	0	1898971136	46	3819
2026-01-22 10:02:01.48	58.91	39.59	-37.3	-38.0	25.8	0.00e+00	0	41	0	1904214016	46	3864
2026-01-22 10:02:02.49	58.47	39.67	-37.6	-38.3	25.6	0.00e+00	0	41	0	1909456896	46	3972
2026-01-22 10:02:03.50	58.03	39.75	-37.6	-38.3	25.6	0.00e+00	0	41	0	1915748352	46	3980
2026-01-22 10:02:04.50	57.59	39.83	-37.6	-38.3	25.6	0.00e+00	0	41	0	1920991232	46	3967
2026-01-22 10:02:05.51	57.14	39.91	-37.5	-38.2	25.7	0.00e+00	0	41	0	1927282688	46	3949
2026-01-22 10:02:06.52	56.70	39.99	-37.5	-38.2	25.7	0.00e+00	0	41	0	1932525568	46	3944
2026-01-22 10:02:07.53	56.24	40.07	-37.4	-38.1	25.8	0.00e+00	0	41	0	1938817024	46	3875
2026-01-22 10:02:08.54	55.79	40.14	-37.1	-37.8	26.0	0.00e+00	0	41	0	1944059904	46	3762
2026-01-22 10:02:09.54	55.34	40.21	-37.1	-37.8	26.1	0.00e+00	0	41	0	1949302784	46	3755
2026-01-22 10:02:10.55	54.88	40.28	-37.1	-37.8	26.0	0.00e+00	0	41	0	1955594240	46	3765
2026-01-22 10:02:11.56	54.43	40.35	-37.1	-37.8	26.1	0.00e+00	0	41	0	1960837120	46	3756
2026-01-22 10:02:12.57	53.97	40.42	-37.1	-37.8	26.0	0.00e+00	0	41	0	1967128576	46	3767
2026-01-22 10:02:13.58	53.50	40.48	-37.2	-37.9	26.0	0.00e+00	0	41	0	1972371456	46	3787
2026-01-22 10:02:14.59	53.04	40.55	-37.2	-37.9	26.0	0.00e+00	0	41	0	1977614336	46	3812
2026-01-22 10:02:15.60	52.57	40.61	-37.1	-37.8	26.1	0.00e+00	0	41	0	1983905792	46	3756
2026-01-22 10:02:16.61	52.10	40.66	-37.1	-37.8	26.1	0.00e+00	0	41	0	1989148672	46	3751
2026-01-22 10:02:17.61	51.64	40.72	-36.9	-37.6	26.2	0.00e+00	0	41	0	1995440128	45	3903
2026-01-22 10:02:18.62	51.17	40.77	-37.1	-37.8	26.1	0.00e+00	0	41	0	2000683008	45	3960
2026-01-22 10:02:19.63	50.69	40.83	-37.2	-37.9	26.0	0.00e+00	0	41	0	2006974464	45	4018
2026-01-22 10:02:20.64	50.22	40.88	-37.3	-38.0	25.9	0.00e+00	0	41	0	2012217344	45	4070
2026-01-22 10:02:21.64	49.75	40.92	-37.4	-38.1	25.8	0.00e+00	0	41	0	2017460224	45	4126
2026-01-22 10:02:22.65	49.27	40.97	-37.4	-38.1	25.8	0.00e+00	0	41	0	2023751680	45	4138
2026-01-22 10:02:23.66	48.79	41.01	-37.4	-38.1	25.8	0.00e+00	0	41	0	2028994560	45	4143
2026-01-22 10:02:24.67	48.31	41.05	-37.3	-38.0	25.9	0.00e+00	0	41	0	2035286016	45	4055
2026-01-22 10:02:25.67	47.84	41.09	-37.1	-37.8	26.0	0.00e+00	0	41	0	2040528896	45	3978
2026-01-22 10:02:26.68	47.36	41.13	-37.1	-37.8	26.1	0.00e+00	0	41	0	2045771776	45	3971
2026-01-22 10:02:27.69	46.87	41.16	-37.3	-38.0	25.9	0.00e+00	0	41	0	2052063232	45	4062
2026-01-22 10:02:28.70	46.39	41.20	-37.4	-38.1	25.8	0.00e+00	0	41	0	2057306112	45	4142
2026-01-22 10:02:29.71	45.90	41.23	-37.4	-38.1	25.8	0.00e+00	0	41	0	2063597568	45	4112
2026-01-22 10:02:30.72	45.42	41.25	-37.5	-38.1	25.8	0.00e+00	0	41	0	2068840448	45	4144
2026-01-22 10:02:31.73	44.93	41.28	-37.5	-38.2	25.7	0.00e+00	0	41	0	2075131904	45	4175
2026-01-22 10:02:32.73	44.45	41.30	-37.2	-37.9	26.0	0.00e+00	0	41	0	2080374784	45	4029
2026-01-22 10:02:33.74	43.96	41.32	-37.2	-37.9	26.0	0.00e+00	0	41	0	2085617664	45	4019
2026-01-22 10:02:34.75	43.47	41.34	-37.2	-37.9	26.0	0.00e+00	0	41	0	2091909120	45	4030
2026-01-22 10:02:35.76	42.98	41.36	-37.3	-37.9	25.9	0.00e+00	0	41	0	2097152000	45	4049
2026-01-22 10:02:36.77	42.50	41.37	-37.5	-38.2	25.7	0.00e+00	0	41	0	2102394880	45	4191
2026-01-22 10:02:37.78	42.01	41.38	-37.5	-38.3	25.7	0.00e+00	0	41	0	2108686336	45	4200
2026-01-22 10:02:38.78	41.52	41.39	-37.4	-38.1	25.8	0.00e+00	0	41	0	2113929216	45	4100
2026-01-22 10:02:39.79	41.03	41.40	-37.5	-38.2	25.7	0.00e+00	0	41	0	2120220672	45	4151
2026-01-22 10:02:40.80	40.54	41.40	-37.3	-38.0	25.9	0.00e+00	0	41	0	2125463552	45	4077
2026-01-22 10:02:41.81	40.05	41.40	-37.4	-38.1	25.8	0.00e+00	0	41	0	2130706432	45	4125
2026-01-22 10:02:42.81	39.56	41.40	-37.1	-37.8	26.0	0.00e+00	0	41	0	2136997888	45	3975
2026-01-22 10:02:43.82	39.07	41.40	-36.9	-37.6	26.3	0.00e+00	0	41	0	2143289344	45	3869
2026-01-22 10:02:44.83	38.58	41.39	-37.0	-37.6	26.2	0.00e+00	0	41	0	2148532224	45	3898
2026-01-22 10:02:45.84	38.09	41.38	-36.9	-37.6	26.2	0.00e+00	0	41	0	2153775104	45	3885
2026-01-22 10:02:46.84	37.61	41.37	-37.0	-37.7	26.2	0.00e+00	0	41	0	2160066560	45	3914
2026-01-22 10:02:47.85	37.12	41.36	-37.2	-37.9	26.0	0.00e+00	0	41	0	2165309440	45	4008
2026-01-22 10:02:48.86	36.63	41.35	-37.1	-37.8	26.0	0.00e+00	0	41	0	2170552320	45	3991
2026-01-22 10:02:49.87	36.14	41.33	-37.1	-37.8	26.0	0.00e+00	0	41	0	2176843776	45	3985
2026-01-22 10:02:50.88	35.65	41.31	-37.1	-37.8	26.0	0.00e+00	0	41	0	2182086656	45	3988
2026-01-22 10:02:51.88	35.17	41.29	-37.2	-37.9	26.0	0.00e+00	0	41	0	2187329536	45	4009
2026-01-22 10:02:52.89	34.68	41.26	-37.3	-38.0	25.9	0.00e+00	0	41	0	2193620992	45	4065
2026-01-22 10:02:53.90	34.20	41.24	-37.1	-37.8	26.0	0.00e+00	0	41	0	2198863872	45	3992
2026-01-22 10:02:54.91	33.71	41.21	-37.1	-37.8	26.1	0.00e+00	0	41	0	2205155328	45	3973
2026-01-22 10:02:55.92	33.23	41.18	-37.2	-37.8	26.1	0.00e+00	0	41	0	2210398208	45	3998
2026-01-22 10:02:56.92	32.75	41.14	-37.0	-37.7	26.1	0.00e+00	0	41	0	2216689664	45	3936
2026-01-22 10:02:57.93	32.27	41.11	-37.1	-37.7	26.1	0.00e+00	0	41	0	2221932544	45	3949
2026-01-22 10:02:58.94	31.79	41.07	-37.0	-37.7	26.2	0.00e+00	0	41	0	2228224000	45	3942
2026-01-22 10:02:59.95	31.31	41.03	-37.0	-37.7	26.1	0.00e+00	0	41	0	2233466880	45	3944
2026-01-22 10:03:00.95	30.83	40.99	-37.0	-37.7	26.2	0.00e+00	0	41	0	2238709760	45	3920
2026-01-22 10:03:01.96	30.35	40.94	-36.9	-37.6	26.3	0.00e+00	0	41	0	2245001216	45	3888
2026-01-22 10:03:02.97	29.88	40.90	-36.9	-37.6	26.2	0.00e+00	0	41	0	2250244096	45	3894
2026-01-22 10:03:03.98	29.40	40.85	-36.8	-37.5	26.3	0.00e+00	0	41	0	2255486976	45	3852
2026-01-22 10:03:04.99	28.93	40.80	-36.8	-37.4	26.4	0.00e+00	0	41	0	2261778432	45	3809
2026-01-22 10:03:05.99	28.46	40.74	-37.0	-37.7	26.2	0.00e+00	0	41	0	2267021312	45	3918
2026-01-22 10:03:07.00	27.99	40.69	-37.2	-37.9	26.0	0.00e+00	0	41	0	2272264192	45	4034
2026-01-22 10:03:08.01	27.53	40.63	-37.1	-37.8	26.1	0.00e+00	0	41	0	2278555648	45	3973
2026-01-22 10:03:09.02	27.06	40.57	-37.0	-37.7	26.1	0.00e+00	0	41	0	2284847104	45	3935
2026-01-22 10:03:10.02	26.60	40.51	-37.1	-37.8	26.1	0.00e+00	0	41	0	2290089984	45	3976
2026-01-22 10:03:11.03	26.14	40.45	-37.0	-37.7	26.2	0.00e+00	0	41	0	2295332864	45	3924
2026-01-22 10:03:12.04	25.67	40.38	-36.9	-37.6	26.3	0.00e+00	0	41	0	2301624320	45	3889
2026-01-22 10:03:13.05	25.22	40.31	-36.8	-37.5	26.4	0.00e+00	0	41	0	2306867200	45	3836
2026-01-22 10:03:14.06	24.76	40.24	-36.7	-37.4	26.4	0.00e+00	0	41	0	2313158656	45	3793
2026-01-22 10:03:15.06	24.31	40.17	-36.7	-37.4	26.5	0.00e+00	0	41	0	2318401536	45	3782
2026-01-22 10:03:16.07	23.85	40.10	-36.6	-37.2	26.6	0.00e+00	0	41	0	2323644416	45	3718
2026-01-22 10:03:17.08	23.40	40.03	-36.7	-37.4	26.5	0.00e+00	0	41	0	2329935872	45	3781
2026-01-22 10:03:18.09	22.95	39.95	-36.9	-37.5	26.3	0.00e+00	0	41	0	2335178752	45	3861
2026-01-22 10:03:19.10	22.51	39.87	-37.0	-37.7	26.2	0.00e+00	0	41	0	2340421632	45	3923
2026-01-22 10:03:20.11	22.06	39.79	-37.1	-37.8	26.1	0.00e+00	0	41	0	2346713088	45	3960
2026-01-22 10:03:21.12	21.62	39.71	-37.1	-37.8	26.1	0.00e+00	0	41	0	2353004544	45	3960
2026-01-22 10:03:22.12	21.18	39.62	-37.0	-37.7	26.2	0.00e+00	0	41	0	2358247424	45	3914
2026-01-22 10:03:23.13	20.75	39.54	-37.0	-37.6	26.2	0.00e+00	0	41	0	2363490304	45	3912
2026-01-22 10:03:24.14	20.31	39.45	-36.9	-37.6	26.2	0.00e+00	0	41	0	2369781760	45	3895
2026-01-22 10:03:25.15	19.88	39.36	-36.9	-37.6	26.3	0.00e+00	0	41	0	2375024640	45	3879
2026-01-22 10:03:26.16	19.45	39.27	-37.0	-37.6	26.2	0.00e+00	0	41	0	2380267520	45	3911
2026-01-22 10:03:27.17	19.02	39.18	-36.9	-37.6	26.3	0.00e+00	0	41	0	2386558976	45	3885
2026-01-22 10:03:28.18	18.59	39.08	-37.0	-37.7	26.2	0.00e+00	0	41	0	2391801856	45	3949
2026-01-22 10:03:29.18	18.17	38.99	-37.0	-37.7	26.2	0.00e+00	0	41	0	2398093312	45	3948
2026-01-22 10:03:30.19	17.75	38.89	-36.8	-37.5	26.4	0.00e+00	0	41	0	2403336192	45	3832
2026-01-22 10:03:31.20	17.33	38.79	-36.8	-37.5	26.4	0.00e+00	0	41	0	2408579072	45	3833
2026-01-22 10:03:32.21	16.92	38.69	-36.8	-37.4	26.4	0.00e+00	0	41	0	2414870528	45	3818
2026-01-22 10:03:33.21	16.51	38.59	-36.7	-37.4	26.4	0.00e+00	0	41	0	2420113408	45	3816
2026-01-22 10:03:34.22	16.10	38.49	-36.8	-37.4	26.4	0.00e+00	0	41	0	2426404864	45	3816
2026-01-22 10:03:35.23	15.69	38.39	-36.9	-37.5	26.3	0.00e+00	0	41	0	2431647744	45	3863
2026-01-22 10:03:36.24	15.28	38.28	-36.9	-37.6	26.3	0.00e+00	0	41	0	2437939200	45	3873
2026-01-22 10:03:37.24	14.89	38.18	-36.9	-37.6	26.3	0.00e+00	0	41	0	2443182080	45	3885
2026-01-22 10:03:38.25	14.49	38.07	-37.0	-37.6	26.2	0.00e+00	0	41	0	2448424960	45	3909
2026-01-22 10:03:39.26	14.09	37.96	-36.9	-37.6	26.2	0.00e+00	0	41	0	2454716416	45	3892
2026-01-22 10:03:40.27	13.69	37.85	-36.9	-37.6	26.3	0.00e+00	0	41	0	2459959296	45	3881
2026-01-22 10:03:41.28	13.30	37.74	-36.8	-37.5	26.3	0.00e+00	0	41	0	2465202176	45	3838
2026-01-22 10:03:42.29	12.91	37.62	-36.9	-37.6	26.3	0.00e+00	0	41	0	2471493632	45	3883
2026-01-22 10:03:43.29	12.53	37.51	-36.8	-37.5	26.3	0.00e+00	0	41	0	2476736512	45	3851
2026-01-22 10:03:44.30	12.15	37.40	-36.8	-37.5	26.4	0.00e+00	0	41	0	2483027968	45	3829
2026-01-22 10:03:45.31	11.76	37.28	-36.9	-37.6	26.3	0.00e+00	0	41	0	2488270848	45	3897
2026-01-22 10:03:46.32	11.39	37.16	-36.9	-37.6	26.3	0.00e+00	0	41	0	2494562304	45	3894
2026-01-22 10:03:47.32	11.01	37.05	-36.9	-37.6	26.2	0.00e+00	0	41	0	2499805184	45	3904
2026-01-22 10:03:48.33	10.64	36.93	-36.9	-37.6	26.2	0.00e+00	0	41	0	2506096640	45	3889
2026-01-22 10:03:49.34	10.27	36.81	-37.0	-37.6	26.2	0.00e+00	0	41	0	2511339520	45	3913
2026-01-22 10:03:50.35	9.90	36.69	-36.9	-37.6	26.2	0.00e+00	0	41	0	2516582400	45	3896
2026-01-22 10:03:51.36	9.54	36.57	-36.9	-37.6	26.2	0.00e+00	0	41	0	2522873856	45	3897
2026-01-22 10:03:52.36	9.18	36.44	-37.0	-37.7	26.2	0.00e+00	0	41	0	2528116736	45	3942
2026-01-22 10:03:53.37	8.82	36.32	-37.1	-37.8	26.1	0.00e+00	0	41	0	2533359616	45	3974
2026-01-22 10:03:54.38	8.46	36.20	-37.2	-37.9	26.0	0.00e+00	0	41	0	2539651072	45	4020
2026-01-22 10:03:55.39	8.11	36.07	-37.2	-37.9	26.0	0.00e+00	0	41	0	2544893952	45	4008
2026-01-22 10:03:56.40	7.76	35.95	-37.1	-37.8	26.1	0.00e+00	0	41	0	2550136832	45	3960
2026-01-22 10:03:57.41	7.41	35.82	-36.9	-37.6	26.3	0.00e+00	0	41	0	2556428288	45	3874
2026-01-22 10:03:58.41	7.07	35.69	-37.0	-37.7	26.2	0.00e+00	0	41	0	2562719744	45	3914
2026-01-22 10:03:59.42	6.73	35.57	-36.9	-37.5	26.3	0.00e+00	0	41	0	2567962624	45	3866
2026-01-22 10:04:00.43	6.39	35.44	-37.0	-37.7	26.2	0.00e+00	0	41	0	2573205504	45	3920
2026-01-22 10:04:01.44	6.05	35.31	-37.0	-37.6	26.2	0.00e+00	0	41	0	2579496960	45	3909
2026-01-22 10:04:02.44	5.72	35.18	-37.0	-37.6	26.2	0.00e+00	0	41	0	2584739840	45	3910
2026-01-22 10:04:03.45	5.39	35.05	-37.0	-37.7	26.1	0.00e+00	0	41	0	2591031296	45	3943
2026-01-22 10:04:04.46	5.06	34.92	-37.1	-37.7	26.1	0.00e+00	0	41	0	2596274176	45	3958
2026-01-22 10:04:05.47	4.73	34.79	-37.0	-37.6	26.2	0.00e+00	0	41	0	2601517056	45	3909
2026-01-22 10:04:06.48	4.41	34.66	-36.8	-37.5	26.3	0.00e+00	0	41	0	2607808512	45	3834
2026-01-22 10:04:07.49	4.08	34.52	-36.8	-37.4	26.4	0.00e+00	0	41	0	2613051392	45	3814
2026-01-22 10:04:08.50	3.76	34.39	-36.8	-37.5	26.3	0.00e+00	0	41	0	2618294272	45	3847
2026-01-22 10:04:09.50	3.45	34.26	-36.8	-37.5	26.3	0.00e+00	0	41	0	2624585728	45	3849
2026-01-22 10:04:10.52	3.13	34.12	-36.7	-37.4	26.4	0.00e+00	0	41	0	2630877184	45	3785
2026-01-22 10:04:11.52	2.83	33.99	-36.6	-37.3	26.4	0.00e+00	0	41	0	2636120064	45	3757
2026-01-22 10:04:12.53	2.52	33.86	-36.7	-37.4	26.4	0.00e+00	0	41	0	2641362944	45	3800
2026-01-22 10:04:13.54	2.21	33.72	-36.6	-37.3	26.5	0.00e+00	0	41	0	2647654400	45	3741
2026-01-22 10:04:14.54	1.91	33.59	-36.8	-37.5	26.3	0.00e+00	0	41	0	2652897280	45	3843
2026-01-22 10:04:15.55	1.61	33.45	-36.7	-37.4	26.4	0.00e+00	0	41	0	2658140160	45	3800
2026-01-22 10:04:16.56	1.31	33.32	-36.7	-37.4	26.4	0.00e+00	0	41	0	2664431616	45	3797
2026-01-22 10:04:17.57	1.02	33.18	-36.9	-37.6	26.2	0.00e+00	0	41	0	2669674496	45	3882
2026-01-22 10:04:18.58	0.72	33.05	-37.0	-37.7	26.1	0.00e+00	0	41	0	2675965952	45	3956
2026-01-22 10:04:19.58	0.44	32.91	-37.2	-37.9	26.0	0.00e+00	0	40	0	2681208832	45	4021
2026-01-22 10:04:20.59	0.15	32.77	-37.2	-37.9	25.9	0.00e+00	0	41	0	2686451712	45	4041
2026-01-22 10:04:21.60	359.86	32.64	-37.2	-37.9	25.9	0.00e+00	0	41	0	2692743168	45	4043
2026-01-22 10:04:22.61	359.58	32.50	-37.0	-37.7	26.1	0.00e+00	0	41	0	2697986048	45	3944
2026-01-22 10:04:23.62	359.30	32.36	-37.0	-37.7	26.1	0.00e+00	0	41	0	2704277504	45	3942
2026-01-22 10:04:24.62	359.02	32.23	-37.0	-37.7	26.1	0.00e+00	0	41	0	2709520384	45	3942
2026-01-22 10:04:25.63	358.74	32.09	-37.0	-37.7	26.1	0.00e+00	0	41	0	2715811840	45	3929
2026-01-22 10:04:26.64	358.47	31.95	-37.2	-37.9	25.9	0.00e+00	0	41	0	2721054720	45	4044
2026-01-22 10:04:27.65	358.20	31.81	-37.5	-38.2	25.7	0.00e+00	0	41	0	2726297600	45	4164
2026-01-22 10:04:28.66	357.93	31.68	-37.2	-37.9	25.9	0.00e+00	0	41	0	2732589056	45	4036
2026-01-22 10:04:29.67	357.66	31.54	-37.2	-37.9	25.9	0.00e+00	0	41	0	2737831936	45	4034
2026-01-22 10:04:30.67	357.40	31.40	-37.4	-38.0	25.8	0.00e+00	0	41	0	2743074816	45	4094
2026-01-22 10:04:31.68	357.14	31.26	-37.3	-38.0	25.8	0.00e+00	0	41	0	2749366272	45	4090
2026-01-22 10:04:32.69	356.88	31.13	-37.2	-37.9	25.9	0.00e+00	0	41	0	2754609152	45	4035
2026-01-22 10:04:33.70	356.62	30.99	-37.3	-38.0	25.8	0.00e+00	0	41	0	2760900608	45	4087
2026-01-22 10:04:34.71	356.36	30.85	-37.3	-38.0	25.9	0.00e+00	0	41	0	2766143488	45	4062
2026-01-22 10:04:35.71	356.11	30.71	-37.4	-38.1	25.8	0.00e+00	0	41	0	2772434944	45	4104
2026-01-22 10:04:36.72	355.86	30.58	-37.4	-38.1	25.8	0.00e+00	0	41	0	2777677824	45	4110
2026-01-22 10:04:37.73	355.61	30.44	-37.5	-38.3	25.6	0.00e+00	0	41	0	2783969280	45	4195
2026-01-22 10:04:38.74	355.36	30.30	-37.5	-38.2	25.6	0.00e+00	0	41	0	2789212160	45	4191
2026-01-22 10:04:39.75	355.12	30.16	-37.5	-38.2	25.7	0.00e+00	0	41	0	2794455040	45	4163
2026-01-22 10:04:40.75	354.88	30.03	-37.6	-38.3	25.6	0.00e+00	0	41	0	2800746496	45	4215
2026-01-22 10:04:41.76	354.64	29.89	-37.6	-38.3	25.6	0.00e+00	0	41	0	2805989376	45	4201
2026-01-22 10:04:42.77	354.40	29.75	-37.3	-38.0	25.8	0.00e+00	0	41	0	2811232256	45	4064
2026-01-22 10:04:43.78	354.16	29.61	-37.4	-38.0	25.8	0.00e+00	0	41	0	2817523712	45	4095
2026-01-22 10:04:44.78	353.93	29.48	-37.2	-37.9	25.9	0.00e+00	0	41	0	2822766592	45	4041
2026-01-22 10:04:45.79	353.70	29.34	-37.3	-38.0	25.8	0.00e+00	0	41	0	2828009472	45	4073
2026-01-22 10:04:46.80	353.47	29.20	-37.4	-38.1	25.8	0.00e+00	0	41	0	2834300928	45	4104
2026-01-22 10:04:47.81	353.24	29.07	-37.4	-38.0	25.8	0.00e+00	0	41	0	2839543808	45	4095
2026-01-22 10:04:48.82	353.01	28.93	-37.5	-38.2	25.6	0.00e+00	0	41	0	2845835264	45	4161
2026-01-22 10:04:49.82	352.79	28.79	-37.5	-38.3	25.6	0.00e+00	0	41	0	2851078144	45	4194
2026-01-22 10:04:50.83	352.57	28.66	-37.6	-38.3	25.5	0.00e+00	0	41	0	2857369600	45	4226
2026-01-22 10:04:51.84	352.35	28.52	-37.7	-38.4	25.4	0.00e+00	0	41	0	2862612480	45	4266
2026-01-22 10:04:52.85	352.13	28.38	-37.8	-38.5	25.4	0.00e+00	0	41	0	2868903936	46	4061
2026-01-22 10:04:53.86	351.91	28.25	-37.8	-38.6	25.3	0.00e+00	0	41	0	2874146816	46	4100
2026-01-22 10:04:54.86	351.70	28.11	-37.7	-38.4	25.5	0.00e+00	0	41	0	2879389696	46	4030
2026-01-22 10:04:55.87	351.48	27.98	-37.7	-38.4	25.5	0.00e+00	0	41	0	2885681152	46	4017
2026-01-22 10:04:56.88	351.27	27.84	-37.6	-38.3	25.6	0.00e+00	0	41	0	2890924032	46	3962
2026-01-22 10:04:57.89	351.06	27.71	-37.5	-38.2	25.6	0.00e+00	0	41	0	2896166912	46	3934
2026-01-22 10:04:58.90	350.85	27.57	-37.6	-38.3	25.5	0.00e+00	0	41	0	2902458368	46	3981
2026-01-22 10:04:59.90	350.65	27.44	-37.6	-38.3	25.5	0.00e+00	0	41	0	2907701248	46	3996
2026-01-22 10:05:00.91	350.44	27.31	-37.5	-38.2	25.7	0.00e+00	0	41	0	2913992704	46	3916
2026-01-22 10:05:01.92	350.24	27.17	-37.6	-38.3	25.5	0.00e+00	0	41	0	2919235584	46	4004
2026-01-22 10:05:02.92	350.04	27.04	-37.7	-38.4	25.5	0.00e+00	0	41	0	2925527040	46	4009
2026-01-22 10:05:03.93	349.84	26.91	-37.8	-38.5	25.3	0.00e+00	0	41	0	2930769920	46	4083
2026-01-22 10:05:04.94	349.64	26.77	-37.8	-38.5	25.4	0.00e+00	0	41	0	2936012800	46	4068
2026-01-22 10:05:05.95	349.45	26.64	-37.8	-38.5	25.3	0.00e+00	0	41	0	2942304256	46	4093
2026-01-22 10:05:06.96	349.25	26.51	-37.7	-38.4	25.4	0.00e+00	0	41	0	2947547136	46	4042
2026-01-22 10:05:07.96	349.06	26.38	-37.7	-38.4	25.4	0.00e+00	0	41	0	2953838592	46	4025
2026-01-22 10:05:08.97	348.87	26.25	-37.8	-38.5	25.3	0.00e+00	0	41	0	2959081472	46	4083
2026-01-22 10:05:09.98	348.68	26.11	-37.7	-38.4	25.4	0.00e+00	0	41	0	2964324352	46	4038
2026-01-22 10:05:10.99	348.50	25.98	-37.7	-38.4	25.4	0.00e+00	0	41	0	2970615808	46	4021
2026-01-22 10:05:12.00	348.31	25.85	-37.7	-38.4	25.4	0.00e+00	0	41	0	2975858688	46	4050
2026-01-22 10:05:13.00	348.13	25.72	-37.8	-38.5	25.3	0.00e+00	0	41	0	2981101568	46	4098
2026-01-22 10:05:14.01	347.94	25.59	-37.8	-38.6	25.3	0.00e+00	0	41	0	2987393024	46	4099
2026-01-22 10:05:15.02	347.76	25.46	-37.9	-38.6	25.3	0.00e+00	0	41	0	2993684480	46	4118
2026-01-22 10:05:16.03	347.58	25.33	-37.9	-38.6	25.2	0.00e+00	0	41	0	2998927360	46	4129
2026-01-22 10:05:17.04	347.40	25.20	-37.9	-38.6	25.2	0.00e+00	0	41	0	3004170240	46	4125
2026-01-22 10:05:18.04	347.23	25.07	-37.8	-38.5	25.3	0.00e+00	0	41	0	3010461696	46	4083
2026-01-22 10:05:19.05	347.05	24.94	-37.9	-38.6	25.3	0.00e+00	0	41	0	3015704576	46	4110
2026-01-22 10:05:20.06	346.88	24.82	-38.0	-38.7	25.2	0.00e+00	0	41	0	3020947456	46	4163
2026-01-22 10:05:21.07	346.70	24.69	-37.9	-38.6	25.3	0.00e+00	0	41	0	3027238912	46	4110
2026-01-22 10:05:22.08	346.53	24.56	-37.9	-38.7	25.2	0.00e+00	0	41	0	3032481792	46	4149
2026-01-22 10:05:23.08	346.36	24.43	-37.8	-38.5	25.4	0.00e+00	0	41	0	3038773248	46	4056
2026-01-22 10:05:24.09	346.20	24.31	-37.8	-38.5	25.3	0.00e+00	0	41	0	3044016128	46	4057
2026-01-22 10:05:25.10	346.03	24.18	-37.7	-38.4	25.4	0.00e+00	0	41	0	3049259008	46	4017
2026-01-22 10:05:26.11	345.86	24.05	-37.8	-38.5	25.4	0.00e+00	0	41	0	3055550464	46	4056
2026-01-22 10:05:27.12	345.70	23.93	-37.7	-38.4	25.4	0.00e+00	0	41	0	3061841920	46	4015
2026-01-22 10:05:28.12	345.54	23.80	-37.8	-38.5	25.3	0.00e+00	0	41	0	3067084800	46	4055
2026-01-22 10:05:29.13	345.37	23.68	-37.9	-38.6	25.2	0.00e+00	0	41	0	3072327680	46	4105
2026-01-22 10:05:30.14	345.21	23.55	-37.8	-38.5	25.3	0.00e+00	0	41	0	3078619136	46	4082
2026-01-22 10:05:31.15	345.05	23.43	-37.9	-38.6	25.2	0.00e+00	0	41	0	3083862016	46	4116
2026-01-22 10:05:32.16	344.90	23.30	-37.9	-38.6	25.2	0.00e+00	0	41	0	3089104896	46	4143
2026-01-22 10:05:33.16	344.74	23.18	-37.8	-38.6	25.2	0.00e+00	0	41	0	3095396352	46	4100
2026-01-22 10:05:34.17	344.59	23.05	-37.9	-38.6	25.2	0.00e+00	0	41	0	3100639232	46	4131
2026-01-22 10:05:35.18	344.43	22.93	-37.9	-38.6	25.2	0.00e+00	0	41	0	3105882112	46	4106
2026-01-22 10:05:36.19	344.28	22.81	-37.9	-38.6	25.2	0.00e+00	0	41	0	3112173568	46	4139
2026-01-22 10:05:37.20	344.13	22.69	-37.9	-38.6	25.2	0.00e+00	0	41	0	3117416448	46	4108
2026-01-22 10:05:38.20	343.98	22.56	-37.9	-38.6	25.2	0.00e+00	0	41	0	3123707904	46	4115
2026-01-22 10:05:39.21	343.83	22.44	-37.9	-38.6	25.2	0.00e+00	0	41	0	3128950784	46	4120
2026-01-22 10:05:40.22	343.68	22.32	-38.0	-38.7	25.1	0.00e+00	0	41	0	3135242240	46	4174
2026-01-22 10:05:41.23	343.53	22.20	-38.1	-38.8	25.0	0.00e+00	0	41	0	3140485120	46	4209
2026-01-22 10:05:42.24	343.39	22.08	-38.0	-38.8	25.0	0.00e+00	0	41	0	3146776576	46	4199
2026-01-22 10:05:43.24	343.24	21.96	-38.1	-38.9	25.0	0.00e+00	0	41	0	3152019456	46	4249
2026-01-22 10:05:44.25	343.10	21.84	-38.2	-38.9	24.9	0.00e+00	0	41	0	3157262336	47	4037
2026-01-22 10:05:45.26	342.96	21.72	-38.2	-38.9	24.9	0.00e+00	0	41	0	3163553792	47	4050
2026-01-22 10:05:46.27	342.82	21.60	-38.3	-39.0	24.8	0.00e+00	0	41	0	3168796672	47	4088
2026-01-22 10:05:47.28	342.68	21.48	-38.3	-39.0	24.8	0.00e+00	0	41	0	3174039552	47	4093
2026-01-22 10:05:48.28	342.54	21.36	-38.3	-39.1	24.8	0.00e+00	0	41	0	3180331008	47	4102
2026-01-22 10:05:49.29	342.40	21.25	-38.4	-39.1	24.7	0.00e+00	0	41	0	3185573888	47	4144
2026-01-22 10:05:50.30	342.27	21.13	-38.5	-39.2	24.6	0.00e+00	0	41	0	3190816768	47	4179
2026-01-22 10:05:51.31	342.13	21.01	-38.5	-39.2	24.7	0.00e+00	0	41	0	3197108224	47	4177
2026-01-22 10:05:52.32	341.99	20.89	-38.6	-39.3	24.5	0.00e+00	0	41	0	3203399680	47	4227
2026-01-22 10:05:53.32	341.86	20.78	-38.5	-39.2	24.6	0.00e+00	0	41	0	3208642560	47	4179
2026-01-22 10:05:54.33	341.73	20.66	-38.5	-39.2	24.6	0.00e+00	0	41	0	3213885440	47	4192
2026-01-22 10:05:55.34	341.60	20.55	-38.3	-39.1	24.7	0.00e+00	0	41	0	3220176896	47	4114
2026-01-22 10:05:56.35	341.47	20.43	-38.4	-39.1	24.7	0.00e+00	0	41	0	3225419776	47	4139
2026-01-22 10:05:57.36	341.34	20.32	-38.4	-39.1	24.7	0.00e+00	0	41	0	3231711232	47	4126
2026-01-22 10:05:58.36	341.21	20.20	-38.5	-39.2	24.6	0.00e+00	0	41	0	3236954112	47	4162
2026-01-22 10:05:59.37	341.08	20.09	-38.4	-39.1	24.7	0.00e+00	0	41	0	3242196992	47	4139
2026-01-22 10:06:00.38	340.96	19.97	-38.4	-39.1	24.7	0.00e+00	0	41	0	3248488448	47	4129
2026-01-22 10:06:01.39	340.83	19.86	-38.4	-39.1	24.7	0.00e+00	0	41	0	3253731328	47	4134
2026-01-22 10:06:02.40	340.71	19.75	-38.6	-39.3	24.5	0.00e+00	0	41	0	3258974208	47	4216
2026-01-22 10:06:03.40	340.58	19.63	-38.6	-39.3	24.5	0.00e+00	0	41	0	3265265664	47	4235
2026-01-22 10:06:04.41	340.46	19.52	-38.7	-39.4	24.4	0.00e+00	0	41	0	3271557120	47	4271
2026-01-22 10:06:05.42	340.34	19.41	-39.1	-39.8	24.6	0.00e+00	0	41	0	3276800000	48	4217
2026-01-22 10:06:06.43	340.22	19.30	-39.2	-39.9	24.5	0.00e+00	0	41	0	3282042880	48	4286
2026-01-22 10:06:07.43	340.10	19.19	-39.3	-40.1	24.3	0.00e+00	0	41	0	3288334336	49	4106
2026-01-22 10:06:08.44	339.98	19.08	-39.4	-40.1	24.3	0.00e+00	0	41	0	3293577216	49	4124
2026-01-22 10:06:09.45	339.86	18.96	-39.4	-40.1	24.3	0.00e+00	0	41	0	3298820096	49	4127
2026-01-22 10:06:10.46	339.74	18.85	-39.4	-40.2	24.2	0.00e+00	0	41	0	3305111552	49	4161
2026-01-22 10:06:11.47	339.63	18.74	-39.5	-40.2	24.2	0.00e+00	0	41	0	3310354432	49	4186
2026-01-22 10:06:12.48	339.51	18.63	-39.5	-40.3	24.1	0.00e+00	0	41	0	3316645888	49	4199
2026-01-22 10:06:13.48	339.40	18.53	-39.4	-40.1	24.3	0.00e+00	0	41	0	3321888768	49	4141
2026-01-22 10:06:14.49	339.28	18.42	-39.5	-40.2	24.1	0.00e+00	0	41	0	3327131648	49	4193
2026-01-22 10:06:15.50	339.17	18.31	-39.5	-40.2	24.2	0.00e+00	0	41	0	3333423104	49	4183
2026-01-22 10:06:16.51	339.06	18.20	-39.6	-40.4	24.0	0.00e+00	0	41	0	3338665984	49	4249
2026-01-22 10:06:17.52	338.95	18.09	-39.6	-40.3	24.1	0.00e+00	0	41	0	3344957440	49	4219
2026-01-22 10:06:18.52	338.84	17.99	-39.7	-40.4	24.0	0.00e+00	0	41	0	3350200320	49	4276
2026-01-22 10:06:19.53	338.73	17.88	-39.7	-40.4	24.0	0.00e+00	0	41	0	3356491776	50	4040
2026-01-22 10:06:20.54	338.62	17.77	-39.7	-40.4	24.0	0.00e+00	0	41	0	3361734656	50	4037
2026-01-22 10:06:21.54	338.51	17.67	-39.7	-40.4	24.0	0.00e+00	0	41	0	3366977536	50	4042
2026-01-22 10:06:22.55	338.40	17.56	-39.7	-40.4	24.0	0.00e+00	0	41	0	3373268992	50	4051
2026-01-22 10:06:23.56	338.29	17.45	-39.9	-40.6	23.8	0.00e+00	0	41	0	3378511872	50	4126
2026-01-22 10:06:24.57	338.19	17.35	-39.8	-40.6	23.8	0.00e+00	0	41	0	3383754752	50	4110
2026-01-22 10:06:25.58	338.08	17.24	-39.8	-40.6	23.8	0.00e+00	0	41	0	3390046208	50	4108
2026-01-22 10:06:26.59	337.98	17.14	-39.9	-40.7	23.8	0.00e+00	0	41	0	3395289088	50	4154
2026-01-22 10:06:27.60	337.88	17.03	-39.8	-40.5	23.9	0.00e+00	0	41	0	3401580544	50	4093
2026-01-22 10:06:28.60	337.77	16.93	-39.8	-40.6	23.8	0.00e+00	0	41	0	3406823424	50	4103
2026-01-22 10:06:29.61	337.67	16.83	-39.8	-40.5	23.9	0.00e+00	0	41	0	3413114880	50	4098
2026-01-22 10:06:30.62	337.57	16.72	-39.8	-40.6	23.8	0.00e+00	0	41	0	3418357760	50	4106
2026-01-22 10:06:31.63	337.47	16.62	-39.9	-40.6	23.7	0.00e+00	0	41	0	3424649216	50	4140
2026-01-22 10:06:32.64	337.37	16.52	-39.9	-40.6	23.8	0.00e+00	0	41	0	3429892096	50	4144
2026-01-22 10:06:33.65	337.27	16.42	-39.8	-40.6	23.8	0.00e+00	0	41	0	3435134976	50	4124
2026-01-22 10:06:34.66	337.17	16.31	-39.9	-40.6	23.7	0.00e+00	0	41	0	3441426432	50	4138
2026-01-22 10:06:35.66	337.07	16.21	-39.9	-40.7	23.7	0.00e+00	0	41	0	3446669312	50	4151
2026-01-22 10:06:36.67	336.98	16.11	-39.8	-40.6	23.8	0.00e+00	0	41	0	3451912192	50	4109
2026-01-22 10:06:37.68	336.88	16.01	-39.9	-40.7	23.7	0.00e+00	0	41	0	3458203648	50	4152
2026-01-22 10:06:38.69	336.78	15.91	-39.9	-40.7	23.7	0.00e+00	0	41	0	3463446528	50	4162
2026-01-22 10:06:39.70	336.69	15.81	-40.1	-40.9	23.6	0.00e+00	0	41	0	3468689408	50	4250
2026-01-22 10:06:40.70	336.59	15.71	-40.0	-40.8	23.6	0.00e+00	0	41	0	3474980864	50	4208
2026-01-22 10:06:41.71	336.50	15.61	-40.1	-40.9	23.5	0.00e+00	0	41	0	3481272320	50	4245
2026-01-22 10:06:42.72	336.41	15.51	-40.1	-40.9	23.5	0.00e+00	0	41	0	3486515200	50	4247
2026-01-22 10:06:43.72	336.31	15.41	-40.0	-40.8	23.6	0.00e+00	0	41	0	3491758080	50	4209
2026-01-22 10:06:44.73	336.22	15.32	-40.2	-40.9	23.4	0.00e+00	0	41	0	3498049536	50	4282
2026-01-22 10:06:45.74	336.13	15.22	-40.2	-41.0	23.4	0.00e+00	0	41	0	3503292416	51	4068
2026-01-22 10:06:46.75	336.04	15.12	-40.1	-40.9	23.5	0.00e+00	0	41	0	3509583872	51	4006
2026-01-22 10:06:47.76	335.95	15.02	-40.2	-41.0	23.4	0.00e+00	0	41	0	3514826752	51	4056
2026-01-22 10:06:48.76	335.86	14.93	-40.2	-41.0	23.4	0.00e+00	0	41	0	3520069632	51	4054
2026-01-22 10:06:49.77	335.77	14.83	-40.2	-41.0	23.4	0.00e+00	0	41	0	3526361088	51	4064
2026-01-22 10:06:50.78	335.68	14.73	-40.3	-41.1	23.3	0.00e+00	0	41	0	3531603968	51	4115
2026-01-22 10:06:51.78	335.60	14.64	-40.4	-41.1	23.3	0.00e+00	0	40	0	3536846848	51	4135
2026-01-22 10:06:52.79	335.51	14.54	-40.4	-41.1	23.2	0.00e+00	0	41	0	3543138304	51	4142
2026-01-22 10:06:53.80	335.42	14.44	-40.5	-41.3	23.1	0.00e+00	0	41	0	3548381184	51	4229
2026-01-22 10:06:54.81	335.34	14.35	-40.6	-41.4	22.9	0.00e+00	0	41	0	3553624064	51	4286
2026-01-22 10:06:55.82	335.25	14.25	-40.6	-41.4	23.0	0.00e+00	0	41	0	3559915520	51	4255
2026-01-22 10:06:56.83	335.17	14.16	-40.7	-41.5	22.9	0.00e+00	0	41	0	3566206976	51	4309
2026-01-22 10:06:57.83	335.08	14.06	-40.6	-41.4	22.9	0.00e+00	0	41	0	3571449856	52	4028
2026-01-22 10:06:58.84	335.00	13.97	-40.5	-41.3	22.9	0.00e+00	0	41	0	3576692736	52	3995
2026-01-22 10:06:59.85	334.92	13.88	-40.5	-41.3	23.0	0.00e+00	0	41	0	3582984192	52	3975
2026-01-22 10:07:00.86	334.83	13.78	-40.5	-41.3	23.0	0.00e+00	0	41	0	3588227072	52	3993
2026-01-22 10:07:01.86	334.75	13.69	-40.6	-41.4	22.9	0.00e+00	0	41	0	3594518528	52	4024
2026-01-22 10:07:02.87	334.67	13.60	-40.6	-41.4	22.9	0.00e+00	0	41	0	3599761408	52	4028
2026-01-22 10:07:03.88	334.59	13.50	-40.5	-41.2	23.0	0.00e+00	0	41	0	3605004288	52	3957
2026-01-22 10:07:04.89	334.51	13.41	-40.6	-41.3	22.9	0.00e+00	0	41	0	3611295744	52	4004
2026-01-22 10:07:05.90	334.43	13.32	-40.6	-41.3	22.9	0.00e+00	0	41	0	3616538624	52	3998
2026-01-22 10:07:06.90	334.35	13.23	-40.5	-41.3	22.9	0.00e+00	0	41	0	3621781504	52	3978
2026-01-22 10:07:07.91	334.27	13.14	-40.5	-41.3	22.9	0.00e+00	0	41	0	3628072960	52	3993
2026-01-22 10:07:08.92	334.19	13.04	-40.5	-41.3	23.0	0.00e+00	0	41	0	3634364416	52	3967
2026-01-22 10:07:09.93	334.11	12.95	-40.7	-41.4	22.8	0.00e+00	0	41	0	3639607296	52	4051
2026-01-22 10:07:10.94	334.04	12.86	-40.6	-41.4	22.8	0.00e+00	0	41	0	3644850176	52	4032
2026-01-22 10:07:11.94	333.96	12.77	-40.7	-41.4	22.8	0.00e+00	0	41	0	3651141632	52	4049
2026-01-22 10:07:12.95	333.88	12.68	-40.7	-41.5	22.7	0.00e+00	0	41	0	3656384512	52	4073
2026-01-22 10:07:13.96	333.81	12.59	-40.9	-41.7	22.5	0.00e+00	0	41	0	3661627392	52	4181
2026-01-22 10:07:14.97	333.73	12.50	-40.9	-41.7	22.6	0.00e+00	0	41	0	3667918848	52	4166
2026-01-22 10:07:15.98	333.66	12.41	-41.0	-41.8	22.5	0.00e+00	0	41	0	3673161728	52	4212
2026-01-22 10:07:16.99	333.58	12.32	-40.9	-41.7	22.5	0.00e+00	0	41	0	3679453184	52	4192
2026-01-22 10:07:18.00	333.51	12.24	-40.8	-41.6	22.6	0.00e+00	0	41	0	3684696064	52	4136
2026-01-22 10:07:19.00	333.44	12.15	-40.9	-41.8	22.4	0.00e+00	0	41	0	3689938944	52	4198
2026-01-22 10:07:20.01	333.36	12.06	-40.9	-41.7	22.5	0.00e+00	0	41	0	3696230400	52	4185
