passes_logs/2026/01/22/R3.2S_Murmansk/R3.2S_Murmansk__20260122_064853_NOAA_21_JPSS-2_rec.log

#Pass ID: 20260122_064853_NOAA 21 (JPSS-2)
#Satellite: NOAA 21 (JPSS-2)
#Configuration: NOAA-21
#almurnet v.1.7.20251203
#Start time: 2026-01-22 06:48:53

#Version: 2.2.20231116
#Station: R3.2S_Murmansk
#Location: 33.079688 lon 68.888172 lat
#TLE: 1 54234U 22150A   26021.42686626  .00000211  00000+0  12107-3 0  9996
#TLE: 2 54234  98.7506 322.2490 0000636 241.9299 118.1812 14.19537149165725

#Time	Az	El	Level	Level2	SNR	BER	BlckErr	Temp	State	Recorded	gain1	gain2
2026-01-22 06:48:53.52	91.21	2.03	-53.9	-66.7	3.8	1.49e+00	0	39	0	0	79	15689
2026-01-22 06:48:54.52	91.16	2.08	-53.1	-65.9	3.8	1.49e+00	0	39	104	0	77	16106
2026-01-22 06:48:55.52	91.10	2.14	-52.9	-65.7	3.8	1.49e+00	0	39	104	0	77	15633
2026-01-22 06:48:56.53	91.05	2.20	-52.8	-65.6	3.8	1.49e+00	0	39	104	0	77	15479
2026-01-22 06:48:57.54	91.00	2.26	-52.7	-65.5	3.8	1.49e+00	0	39	104	0	77	15263
2026-01-22 06:48:58.55	90.94	2.32	-52.6	-65.4	3.8	1.49e+00	0	39	104	0	77	15081
2026-01-22 06:48:59.56	90.89	2.38	-52.5	-65.3	3.8	1.49e+00	0	39	104	0	77	15003
2026-01-22 06:49:00.57	90.83	2.44	-52.5	-65.3	3.8	1.49e+00	0	39	104	0	77	14944
2026-01-22 06:49:01.58	90.78	2.51	-52.5	-65.3	3.8	1.49e+00	0	39	104	0	77	14964
2026-01-22 06:49:02.59	90.72	2.57	-52.5	-65.3	3.8	1.49e+00	0	39	104	0	77	14943
2026-01-22 06:49:03.59	90.67	2.63	-52.5	-65.3	3.8	1.49e+00	0	39	104	0	77	14989
2026-01-22 06:49:04.60	90.61	2.69	-52.5	-65.3	3.8	1.49e+00	0	39	104	0	77	14958
2026-01-22 06:49:05.61	90.55	2.75	-52.5	-65.3	3.8	1.49e+00	0	39	104	0	77	14936
2026-01-22 06:49:06.62	90.50	2.81	-52.5	-65.3	3.8	1.49e+00	0	39	104	0	77	14968
2026-01-22 06:49:07.62	90.44	2.87	-52.5	-65.3	3.8	1.49e+00	0	40	104	0	77	14887
2026-01-22 06:49:08.63	90.38	2.93	-52.5	-65.3	3.8	1.49e+00	0	39	104	0	77	14912
2026-01-22 06:49:09.64	90.33	2.99	-52.5	-65.3	3.8	1.49e+00	0	39	104	0	77	14918
2026-01-22 06:49:10.65	90.27	3.05	-52.5	-65.2	3.8	1.49e+00	0	40	104	0	77	14849
2026-01-22 06:49:11.66	90.21	3.11	-52.5	-65.2	3.8	1.49e+00	0	40	104	0	77	14828
2026-01-22 06:49:12.67	90.15	3.18	-52.5	-65.2	3.8	1.49e+00	0	40	104	0	77	14822
2026-01-22 06:49:13.68	90.09	3.24	-52.5	-65.2	3.8	1.49e+00	0	40	104	0	77	14783
2026-01-22 06:49:14.68	90.04	3.30	-52.5	-65.2	3.8	1.49e+00	0	40	104	0	77	14857
2026-01-22 06:49:15.69	89.98	3.36	-52.5	-65.3	3.8	1.49e+00	0	40	104	0	77	14880
2026-01-22 06:49:16.70	89.92	3.42	-52.5	-65.3	3.8	1.49e+00	0	40	104	0	77	14943
2026-01-22 06:49:17.71	89.86	3.48	-52.5	-65.3	3.8	1.49e+00	0	40	104	0	77	14960
2026-01-22 06:49:18.72	89.80	3.55	-52.5	-65.3	3.8	1.49e+00	0	40	104	0	77	14890
2026-01-22 06:49:19.72	89.74	3.61	-52.5	-65.1	3.8	1.49e+00	0	40	104	0	77	14583
2026-01-22 06:49:20.73	89.68	3.67	-52.5	-64.9	3.8	1.49e+00	0	40	104	0	77	14282
2026-01-22 06:49:21.74	89.62	3.73	-52.5	-64.7	3.8	1.49e+00	0	40	104	0	76	14744
2026-01-22 06:49:22.75	89.56	3.80	-52.4	-64.5	3.8	1.49e+00	0	40	104	0	76	14420
2026-01-22 06:49:23.76	89.50	3.86	-52.4	-64.5	3.8	1.49e+00	0	40	104	0	76	14397
2026-01-22 06:49:24.76	89.44	3.92	-52.4	-64.5	3.8	1.49e+00	0	40	104	0	76	14432
2026-01-22 06:49:25.77	89.37	3.98	-52.4	-64.5	3.8	1.49e+00	0	40	104	0	76	14406
2026-01-22 06:49:26.78	89.31	4.05	-52.4	-63.7	3.8	1.49e+00	0	40	104	0	76	13125
2026-01-22 06:49:27.79	89.25	4.11	-52.2	-61.9	4.2	1.46e+00	0	40	104	0	76	10725
2026-01-22 06:49:28.80	89.19	4.17	-51.9	-59.9	4.9	1.16e+00	0	40	104	0	75	8989
2026-01-22 06:49:29.81	89.12	4.24	-51.4	-57.5	6.5	3.70e-01	0	40	0	2097152	74	7250
2026-01-22 06:49:30.82	89.06	4.30	-50.5	-54.9	9.0	4.48e-02	0	40	0	5242880	73	5687
2026-01-22 06:49:31.83	89.00	4.37	-50.0	-53.6	10.5	9.53e-03	0	40	0	9437184	71	5485
2026-01-22 06:49:32.83	88.94	4.43	-49.0	-51.8	12.4	2.64e-04	0	40	0	12582912	70	4708
2026-01-22 06:49:33.84	88.87	4.49	-48.3	-50.7	13.5	1.83e-05	0	40	0	15728640	68	4658
2026-01-22 06:49:34.85	88.81	4.56	-47.4	-49.4	14.7	0.00e+00	0	40	0	18874368	66	4536
2026-01-22 06:49:35.86	88.74	4.62	-47.3	-49.2	14.9	0.00e+00	0	40	0	20971520	66	4424
2026-01-22 06:49:36.87	88.68	4.69	-47.2	-49.1	15.1	0.00e+00	0	40	0	24117248	65	4617
2026-01-22 06:49:37.87	88.61	4.75	-47.5	-49.6	14.5	0.00e+00	0	40	0	27262976	65	4884
2026-01-22 06:49:38.88	88.55	4.81	-47.2	-49.1	15.0	0.00e+00	0	40	0	30408704	65	4650
2026-01-22 06:49:39.89	88.48	4.88	-48.0	-50.2	13.9	7.00e-07	0	40	0	33554432	66	4964
2026-01-22 06:49:40.90	88.42	4.94	-48.0	-50.3	13.8	3.80e-06	0	40	0	36700160	66	5022
2026-01-22 06:49:41.90	88.35	5.01	-49.0	-51.9	12.3	6.10e-05	0	40	0	39845888	68	5350
2026-01-22 06:49:42.91	88.28	5.07	-46.0	-47.4	16.8	3.80e-06	0	40	0	42991616	63	4270
2026-01-22 06:49:43.92	88.22	5.14	-45.6	-46.9	17.4	0.00e+00	0	40	0	46137344	62	4277
2026-01-22 06:49:44.93	88.15	5.20	-52.4	-64.7	3.8	2.67e-01	0	40	104	49283072	75	15666
2026-01-22 06:49:45.94	88.08	5.27	-45.2	-46.5	17.7	3.08e-01	0	40	104	49283072	61	4297
2026-01-22 06:49:46.94	88.02	5.33	-50.1	-53.8	10.7	2.74e-05	0	40	0	52428800	70	5944
2026-01-22 06:49:47.95	87.95	5.40	-45.0	-46.3	18.0	0.00e+00	0	40	0	55574528	62	3968
2026-01-22 06:49:48.96	87.88	5.46	-44.7	-45.9	18.4	0.00e+00	0	40	0	58720256	61	4019
2026-01-22 06:49:49.97	87.81	5.53	-44.9	-46.2	18.2	0.00e+00	0	40	0	61865984	61	4154
2026-01-22 06:49:50.98	87.74	5.60	-44.7	-45.8	18.5	0.00e+00	0	40	0	65011712	61	4003
2026-01-22 06:49:51.98	87.67	5.66	-45.0	-46.3	18.1	0.00e+00	0	40	0	68157440	61	4207
2026-01-22 06:49:52.99	87.60	5.73	-45.0	-46.2	18.2	0.00e+00	0	40	0	70254592	61	4182
2026-01-22 06:49:54.00	87.53	5.79	-44.7	-45.9	18.5	0.00e+00	0	40	0	73400320	61	4040
2026-01-22 06:49:55.01	87.46	5.86	-45.2	-46.5	17.9	0.00e+00	0	40	0	76546048	61	4302
2026-01-22 06:49:56.02	87.39	5.93	-44.8	-46.1	18.3	0.00e+00	0	40	0	79691776	61	4102
2026-01-22 06:49:57.02	87.32	5.99	-44.8	-46.0	18.4	0.00e+00	0	40	0	83886080	61	4058
2026-01-22 06:49:58.03	87.25	6.06	-44.9	-46.1	18.3	0.00e+00	0	40	0	87031808	61	4115
2026-01-22 06:49:59.04	87.18	6.13	-44.6	-45.8	18.6	0.00e+00	0	40	0	90177536	61	3989
2026-01-22 06:50:00.05	87.11	6.19	-44.9	-46.1	18.3	0.00e+00	0	40	0	93323264	61	4143
2026-01-22 06:50:01.05	87.03	6.26	-44.7	-45.9	18.5	0.00e+00	0	40	0	96468992	61	4041
2026-01-22 06:50:02.06	86.96	6.33	-44.4	-45.6	18.8	0.00e+00	0	40	0	99614720	60	4119
2026-01-22 06:50:03.07	86.89	6.40	-44.5	-45.7	18.8	0.00e+00	0	40	0	102760448	60	4161
2026-01-22 06:50:04.08	86.81	6.46	-44.4	-45.6	18.9	0.00e+00	0	40	0	105906176	60	4099
2026-01-22 06:50:05.09	86.74	6.53	-44.4	-45.5	18.9	0.00e+00	0	40	0	109051904	60	4073
2026-01-22 06:50:06.10	86.67	6.60	-44.1	-45.1	19.3	0.00e+00	0	40	0	112197632	60	3909
2026-01-22 06:50:07.11	86.59	6.67	-44.6	-45.7	18.8	0.00e+00	0	40	0	115343360	60	4166
2026-01-22 06:50:08.12	86.52	6.74	-44.4	-45.5	18.9	0.00e+00	0	40	0	117440512	60	4096
2026-01-22 06:50:09.12	86.44	6.80	-44.4	-45.5	19.0	0.00e+00	0	40	0	121634816	60	4064
2026-01-22 06:50:10.13	86.37	6.87	-44.6	-45.7	18.8	0.00e+00	0	40	0	124780544	60	4162
2026-01-22 06:50:11.14	86.29	6.94	-44.4	-45.5	18.9	0.00e+00	0	40	0	127926272	60	4068
2026-01-22 06:50:12.14	86.21	7.01	-44.4	-45.5	19.0	0.00e+00	0	40	0	131072000	60	4069
2026-01-22 06:50:13.15	86.14	7.08	-44.3	-45.4	19.0	0.00e+00	0	40	0	134217728	60	4025
2026-01-22 06:50:14.16	86.06	7.15	-44.3	-45.4	19.3	0.00e+00	0	40	0	137363456	59	4268
2026-01-22 06:50:15.17	85.98	7.22	-44.5	-45.6	19.2	0.00e+00	0	40	0	140509184	59	4341
2026-01-22 06:50:16.18	85.90	7.28	-44.7	-45.8	18.9	0.00e+00	0	40	0	143654912	59	4476
2026-01-22 06:50:17.19	85.83	7.35	-44.3	-45.4	19.0	0.00e+00	0	40	0	146800640	60	4032
2026-01-22 06:50:18.20	85.75	7.42	-44.3	-45.4	19.1	0.00e+00	0	40	0	149946368	60	4008
2026-01-22 06:50:19.20	85.67	7.49	-44.5	-45.7	18.8	0.00e+00	0	40	0	153092096	60	4151
2026-01-22 06:50:20.21	85.59	7.56	-44.6	-45.8	18.7	0.00e+00	0	40	0	156237824	60	4209
2026-01-22 06:50:21.22	85.51	7.63	-44.4	-45.5	19.0	0.00e+00	0	40	0	159383552	60	4080
2026-01-22 06:50:22.23	85.43	7.70	-44.2	-45.3	19.2	0.00e+00	0	40	0	162529280	60	3994
2026-01-22 06:50:23.24	85.35	7.77	-44.3	-45.4	19.4	0.00e+00	0	40	0	165675008	59	4277
2026-01-22 06:50:24.24	85.27	7.84	-44.5	-45.6	19.2	0.00e+00	0	40	0	168820736	59	4369
2026-01-22 06:50:25.25	85.19	7.91	-44.5	-45.6	19.2	0.00e+00	0	40	0	171966464	59	4357
2026-01-22 06:50:26.26	85.10	7.98	-44.7	-45.9	19.0	0.00e+00	0	40	0	175112192	59	4495
2026-01-22 06:50:27.27	85.02	8.05	-44.3	-45.4	19.5	0.00e+00	0	40	0	178257920	59	4253
2026-01-22 06:50:28.27	84.94	8.12	-44.6	-45.7	19.2	0.00e+00	0	40	0	181403648	59	4418
2026-01-22 06:50:29.28	84.86	8.20	-44.5	-45.6	19.3	0.00e+00	0	40	0	184549376	59	4357
2026-01-22 06:50:30.29	84.77	8.27	-44.6	-45.7	19.2	0.00e+00	0	40	0	187695104	59	4409
2026-01-22 06:50:31.30	84.69	8.34	-44.1	-45.2	19.7	0.00e+00	0	40	0	190840832	59	4163
2026-01-22 06:50:32.30	84.61	8.41	-44.1	-45.2	19.7	0.00e+00	0	40	0	193986560	59	4147
2026-01-22 06:50:33.31	84.52	8.48	-44.1	-45.2	19.7	0.00e+00	0	40	0	197132288	59	4155
2026-01-22 06:50:34.32	84.44	8.55	-44.1	-45.2	19.7	0.00e+00	0	40	0	200278016	59	4156
2026-01-22 06:50:35.33	84.35	8.62	-44.2	-45.3	19.6	0.00e+00	0	40	0	203423744	59	4213
2026-01-22 06:50:36.34	84.26	8.70	-44.1	-45.1	19.7	0.00e+00	0	40	0	206569472	59	4124
2026-01-22 06:50:37.34	84.18	8.77	-44.1	-45.2	19.7	0.00e+00	0	40	0	209715200	59	4151
2026-01-22 06:50:38.35	84.09	8.84	-44.2	-45.2	19.7	0.00e+00	0	40	0	212860928	59	4173
2026-01-22 06:50:39.36	84.00	8.91	-44.0	-45.1	19.8	0.00e+00	0	40	0	216006656	59	4114
2026-01-22 06:50:40.37	83.91	8.99	-44.0	-45.0	19.9	0.00e+00	0	41	0	219152384	59	4068
2026-01-22 06:50:41.38	83.83	9.06	-43.9	-44.9	19.9	0.00e+00	0	40	0	222298112	59	4048
2026-01-22 06:50:42.38	83.74	9.13	-44.2	-45.2	19.7	0.00e+00	0	41	0	225443840	59	4163
2026-01-22 06:50:43.39	83.65	9.20	-44.0	-45.1	19.8	0.00e+00	0	40	0	228589568	59	4109
2026-01-22 06:50:44.40	83.56	9.28	-44.2	-45.2	19.7	0.00e+00	0	40	0	231735296	59	4174
2026-01-22 06:50:45.41	83.47	9.35	-44.0	-45.0	19.9	0.00e+00	0	40	0	234881024	59	4070
2026-01-22 06:50:46.42	83.38	9.42	-43.8	-44.8	20.1	0.00e+00	0	40	0	238026752	59	3987
2026-01-22 06:50:47.43	83.29	9.50	-43.8	-44.8	20.1	0.00e+00	0	41	0	241172480	59	3975
2026-01-22 06:50:48.43	83.20	9.57	-44.0	-45.1	19.8	0.00e+00	0	40	0	244318208	59	4108
2026-01-22 06:50:49.44	83.10	9.64	-43.9	-45.0	19.9	0.00e+00	0	41	0	247463936	59	4060
2026-01-22 06:50:50.45	83.01	9.72	-44.2	-45.3	19.6	0.00e+00	0	40	0	250609664	59	4204
2026-01-22 06:50:51.46	82.92	9.79	-44.2	-45.2	19.7	0.00e+00	0	40	0	253755392	59	4171
2026-01-22 06:50:52.47	82.82	9.87	-44.3	-45.3	19.6	0.00e+00	0	40	0	256901120	59	4232
2026-01-22 06:50:53.48	82.73	9.94	-43.9	-44.9	20.1	0.00e+00	0	41	0	260046848	59	4007
2026-01-22 06:50:54.48	82.64	10.02	-43.8	-44.8	20.1	0.00e+00	0	40	0	263192576	59	3972
2026-01-22 06:50:55.49	82.54	10.09	-43.9	-44.9	20.1	0.00e+00	0	41	0	266338304	59	4010
2026-01-22 06:50:56.50	82.45	10.16	-43.7	-44.7	20.3	0.00e+00	0	40	0	269484032	59	3923
2026-01-22 06:50:57.50	82.35	10.24	-43.7	-44.7	20.3	0.00e+00	0	40	0	272629760	59	3924
2026-01-22 06:50:58.51	82.25	10.31	-44.1	-45.1	19.9	0.00e+00	0	41	0	275775488	59	4125
2026-01-22 06:50:59.52	82.16	10.39	-44.0	-45.1	19.9	0.00e+00	0	41	0	278921216	59	4105
2026-01-22 06:51:00.53	82.06	10.47	-43.9	-44.9	20.0	0.00e+00	0	41	0	282066944	59	4035
2026-01-22 06:51:01.54	81.96	10.54	-43.7	-44.7	20.2	0.00e+00	0	41	0	285212672	59	3952
2026-01-22 06:51:02.55	81.86	10.62	-43.8	-44.8	20.1	0.00e+00	0	41	0	288358400	59	3996
2026-01-22 06:51:03.56	81.76	10.69	-43.6	-44.6	20.3	0.00e+00	0	41	0	291504128	59	3896
2026-01-22 06:51:04.56	81.66	10.77	-43.4	-44.3	20.6	0.00e+00	0	41	0	294649856	58	3989
2026-01-22 06:51:05.57	81.56	10.84	-43.5	-44.5	20.4	0.00e+00	0	40	0	297795584	58	4072
2026-01-22 06:51:06.58	81.46	10.92	-43.5	-44.4	20.5	0.00e+00	0	40	0	300941312	58	4050
2026-01-22 06:51:07.59	81.36	11.00	-43.5	-44.5	20.4	0.00e+00	0	41	0	304087040	58	4076
2026-01-22 06:51:08.60	81.26	11.07	-43.4	-44.4	20.6	0.00e+00	0	41	0	307232768	58	4019
2026-01-22 06:51:09.61	81.16	11.15	-43.3	-44.2	20.8	0.00e+00	0	41	0	310378496	58	3937
2026-01-22 06:51:10.62	81.05	11.23	-43.2	-44.1	20.9	0.00e+00	0	40	0	313524224	58	3882
2026-01-22 06:51:11.63	80.95	11.31	-43.3	-44.2	20.8	0.00e+00	0	40	0	316669952	58	3933
2026-01-22 06:51:12.64	80.85	11.38	-43.3	-44.2	20.7	0.00e+00	0	40	0	319815680	58	3939
2026-01-22 06:51:13.65	80.74	11.46	-43.3	-44.3	20.7	0.00e+00	0	40	0	322961408	58	3961
2026-01-22 06:51:14.66	80.64	11.54	-43.3	-44.2	20.7	0.00e+00	0	40	0	326107136	58	3958
2026-01-22 06:51:15.66	80.53	11.61	-43.2	-44.1	20.8	0.00e+00	0	40	0	329252864	58	3904
2026-01-22 06:51:16.67	80.42	11.69	-43.2	-44.1	20.8	0.00e+00	0	41	0	332398592	58	3907
2026-01-22 06:51:17.68	80.32	11.77	-43.2	-44.2	20.8	0.00e+00	0	40	0	335544320	58	3914
2026-01-22 06:51:18.69	80.21	11.85	-43.1	-44.0	20.9	0.00e+00	0	41	0	338690048	58	3862
2026-01-22 06:51:19.69	80.10	11.93	-43.1	-44.0	20.9	0.00e+00	0	40	0	341835776	58	3850
2026-01-22 06:51:20.70	79.99	12.00	-43.1	-44.0	21.0	0.00e+00	0	40	0	344981504	58	3860
2026-01-22 06:51:21.71	79.88	12.08	-43.1	-44.0	21.0	0.00e+00	0	41	0	348127232	58	3852
2026-01-22 06:51:22.72	79.77	12.16	-42.9	-43.8	21.1	0.00e+00	0	41	0	351272960	57	3982
2026-01-22 06:51:23.73	79.66	12.24	-42.9	-43.8	21.2	0.00e+00	0	40	0	354418688	57	3965
2026-01-22 06:51:24.73	79.55	12.32	-42.8	-43.7	21.2	0.00e+00	0	41	0	357564416	57	3950
2026-01-22 06:51:25.74	79.44	12.40	-42.8	-43.7	21.2	0.00e+00	0	41	0	360710144	57	3917
2026-01-22 06:51:26.75	79.33	12.48	-42.6	-43.5	21.4	0.00e+00	0	41	0	363855872	57	3854
2026-01-22 06:51:27.76	79.22	12.56	-42.8	-43.6	21.2	0.00e+00	0	41	0	367001600	57	3913
2026-01-22 06:51:28.77	79.10	12.64	-42.8	-43.7	21.2	0.00e+00	0	40	0	370147328	57	3937
2026-01-22 06:51:29.78	78.99	12.72	-42.7	-43.6	21.3	0.00e+00	0	40	0	373293056	57	3898
2026-01-22 06:51:30.78	78.87	12.80	-42.7	-43.6	21.3	0.00e+00	0	41	0	376438784	57	3885
2026-01-22 06:51:31.79	78.76	12.88	-42.8	-43.7	21.3	0.00e+00	0	40	0	379584512	57	3931
2026-01-22 06:51:32.80	78.64	12.96	-42.8	-43.7	21.2	0.00e+00	0	40	0	382730240	57	3954
2026-01-22 06:51:33.81	78.52	13.04	-42.8	-43.7	21.3	0.00e+00	0	40	0	385875968	57	3920
2026-01-22 06:51:34.82	78.41	13.12	-42.8	-43.7	21.3	0.00e+00	0	41	0	389021696	57	3917
2026-01-22 06:51:35.82	78.29	13.20	-42.6	-43.4	21.5	0.00e+00	0	40	0	392167424	57	3821
2026-01-22 06:51:36.83	78.17	13.28	-42.6	-43.5	21.5	0.00e+00	0	40	0	395313152	57	3837
2026-01-22 06:51:37.84	78.05	13.36	-42.6	-43.5	21.5	0.00e+00	0	41	0	398458880	57	3827
2026-01-22 06:51:38.85	77.93	13.44	-42.5	-43.4	21.6	0.00e+00	0	41	0	401604608	57	3795
2026-01-22 06:51:39.86	77.81	13.52	-42.6	-43.4	21.5	0.00e+00	0	41	0	404750336	57	3819
2026-01-22 06:51:40.86	77.69	13.60	-42.6	-43.4	21.5	0.00e+00	0	41	0	407896064	57	3813
2026-01-22 06:51:41.87	77.57	13.68	-42.5	-43.4	21.6	0.00e+00	0	40	0	411041792	57	3786
2026-01-22 06:51:42.88	77.44	13.77	-42.4	-43.3	21.6	0.00e+00	0	40	0	414187520	56	3963
2026-01-22 06:51:43.89	77.32	13.85	-42.4	-43.3	21.6	0.00e+00	0	41	0	417333248	56	3974
2026-01-22 06:51:44.90	77.20	13.93	-42.5	-43.3	21.6	0.00e+00	0	40	0	420478976	56	3981
2026-01-22 06:51:45.90	77.07	14.01	-42.6	-43.5	21.5	0.00e+00	0	41	0	423624704	56	4071
2026-01-22 06:51:46.91	76.95	14.09	-42.5	-43.3	21.6	0.00e+00	0	40	0	426770432	56	3987
2026-01-22 06:51:47.92	76.82	14.18	-42.7	-43.6	21.4	0.00e+00	0	40	0	429916160	56	4106
2026-01-22 06:51:48.93	76.69	14.26	-42.8	-43.6	21.4	0.00e+00	0	40	0	433061888	56	4134
2026-01-22 06:51:49.94	76.57	14.34	-42.8	-43.7	21.3	0.00e+00	0	41	0	436207616	56	4156
2026-01-22 06:51:50.95	76.44	14.42	-42.7	-43.6	21.4	0.00e+00	0	40	0	439353344	56	4128
2026-01-22 06:51:51.96	76.31	14.51	-42.8	-43.7	21.4	0.00e+00	0	41	0	442499072	56	4148
2026-01-22 06:51:52.96	76.18	14.59	-42.8	-43.7	21.4	0.00e+00	0	41	0	445644800	56	4152
2026-01-22 06:51:53.97	76.05	14.67	-42.9	-43.7	21.3	0.00e+00	0	41	0	448790528	56	4190
2026-01-22 06:51:54.98	75.92	14.76	-42.9	-43.7	21.3	0.00e+00	0	40	0	451936256	56	4184
2026-01-22 06:51:55.99	75.78	14.84	-42.8	-43.7	21.4	0.00e+00	0	41	0	455081984	56	4148
2026-01-22 06:51:57.00	75.65	14.92	-42.6	-43.5	21.5	0.00e+00	0	40	0	458227712	56	4073
2026-01-22 06:51:58.01	75.52	15.01	-42.6	-43.4	21.6	0.00e+00	0	40	0	461373440	56	4036
2026-01-22 06:51:59.02	75.38	15.09	-42.6	-43.4	21.6	0.00e+00	0	41	0	464519168	56	4034
2026-01-22 06:52:00.03	75.25	15.17	-42.5	-43.4	21.6	0.00e+00	0	41	0	467664896	56	4020
2026-01-22 06:52:01.03	75.11	15.26	-42.7	-43.6	21.4	0.00e+00	0	41	0	470810624	56	4116
2026-01-22 06:52:02.04	74.98	15.34	-42.9	-43.8	21.2	0.00e+00	0	40	0	473956352	56	4212
2026-01-22 06:52:03.05	74.84	15.43	-42.8	-43.7	21.3	0.00e+00	0	41	0	477102080	56	4185
2026-01-22 06:52:04.06	74.70	15.51	-42.9	-43.8	21.2	0.00e+00	0	41	0	480247808	56	4221
2026-01-22 06:52:05.07	74.56	15.59	-42.9	-43.8	21.2	0.00e+00	0	40	0	483393536	56	4223
2026-01-22 06:52:06.08	74.42	15.68	-43.0	-43.9	21.2	0.00e+00	0	41	0	486539264	56	4249
2026-01-22 06:52:07.09	74.28	15.76	-43.1	-44.0	21.1	0.00e+00	0	41	0	489684992	56	4292
2026-01-22 06:52:08.10	74.14	15.85	-42.8	-43.7	21.4	0.00e+00	0	41	0	492830720	56	4162
2026-01-22 06:52:09.10	74.00	15.93	-42.8	-43.6	21.4	0.00e+00	0	41	0	495976448	56	4142
2026-01-22 06:52:10.11	73.85	16.02	-42.8	-43.7	21.4	0.00e+00	0	41	0	499122176	56	4156
2026-01-22 06:52:11.12	73.71	16.10	-42.8	-43.7	21.4	0.00e+00	0	41	0	502267904	56	4147
2026-01-22 06:52:12.13	73.56	16.19	-42.7	-43.6	21.5	0.00e+00	0	41	0	505413632	56	4099
2026-01-22 06:52:13.14	73.42	16.27	-42.7	-43.6	21.4	0.00e+00	0	41	0	508559360	56	4100
2026-01-22 06:52:14.15	73.27	16.36	-42.7	-43.6	21.4	0.00e+00	0	41	0	511705088	56	4121
2026-01-22 06:52:15.16	73.12	16.45	-42.8	-43.7	21.3	0.00e+00	0	41	0	514850816	56	4158
2026-01-22 06:52:16.17	72.97	16.53	-42.9	-43.7	21.3	0.00e+00	0	40	0	517996544	56	4190
2026-01-22 06:52:17.18	72.82	16.62	-42.8	-43.7	21.4	0.00e+00	0	40	0	521142272	56	4162
2026-01-22 06:52:18.19	72.67	16.70	-42.8	-43.7	21.4	0.00e+00	0	41	0	524288000	56	4149
2026-01-22 06:52:19.19	72.52	16.79	-42.8	-43.7	21.4	0.00e+00	0	41	0	527433728	56	4168
2026-01-22 06:52:20.21	72.37	16.88	-42.9	-43.7	21.3	0.00e+00	0	41	0	530579456	56	4190
2026-01-22 06:52:21.21	72.22	16.96	-42.8	-43.7	21.4	0.00e+00	0	41	0	533725184	56	4154
2026-01-22 06:52:22.22	72.07	17.05	-42.9	-43.8	21.3	0.00e+00	0	41	0	536870912	56	4233
2026-01-22 06:52:23.23	71.91	17.13	-43.0	-43.8	21.3	0.00e+00	0	41	0	540016640	56	4238
2026-01-22 06:52:24.24	71.76	17.22	-42.8	-43.7	21.4	0.00e+00	0	41	0	543162368	56	4171
2026-01-22 06:52:25.25	71.60	17.31	-42.8	-43.7	21.4	0.00e+00	0	41	0	546308096	56	4159
2026-01-22 06:52:26.26	71.44	17.39	-42.7	-43.6	21.5	0.00e+00	0	41	0	549453824	56	4120
2026-01-22 06:52:27.26	71.28	17.48	-42.9	-43.7	21.4	0.00e+00	0	41	0	552599552	56	4177
2026-01-22 06:52:28.27	71.13	17.57	-42.8	-43.7	21.4	0.00e+00	0	41	0	555745280	56	4150
2026-01-22 06:52:29.28	70.96	17.65	-42.9	-43.8	21.3	0.00e+00	0	41	0	558891008	56	4214
2026-01-22 06:52:30.29	70.80	17.74	-42.9	-43.7	21.3	0.00e+00	0	41	0	562036736	56	4186
2026-01-22 06:52:31.30	70.64	17.83	-42.9	-43.7	21.3	0.00e+00	0	41	0	565182464	56	4186
2026-01-22 06:52:32.31	70.48	17.91	-43.0	-43.9	21.2	0.00e+00	0	41	0	568328192	56	4246
2026-01-22 06:52:33.32	70.31	18.00	-42.9	-43.8	21.3	0.00e+00	0	41	0	571473920	56	4227
2026-01-22 06:52:34.32	70.15	18.09	-42.9	-43.8	21.3	0.00e+00	0	41	0	575668224	56	4227
2026-01-22 06:52:35.33	69.99	18.17	-42.9	-43.8	21.3	0.00e+00	0	41	0	577765376	56	4204
2026-01-22 06:52:36.34	69.82	18.26	-42.9	-43.8	21.3	0.00e+00	0	40	0	580911104	56	4209
2026-01-22 06:52:37.35	69.65	18.35	-42.8	-43.7	21.4	0.00e+00	0	41	0	584056832	56	4159
2026-01-22 06:52:38.36	69.48	18.44	-42.8	-43.7	21.4	0.00e+00	0	41	0	587202560	56	4148
2026-01-22 06:52:39.37	69.31	18.52	-42.7	-43.6	21.5	0.00e+00	0	40	0	590348288	56	4123
2026-01-22 06:52:40.38	69.14	18.61	-42.7	-43.6	21.5	0.00e+00	0	41	0	593494016	56	4119
2026-01-22 06:52:41.39	68.97	18.70	-42.7	-43.6	21.5	0.00e+00	0	41	0	596639744	56	4102
2026-01-22 06:52:42.39	68.80	18.79	-42.7	-43.5	21.6	0.00e+00	0	41	0	599785472	56	4079
2026-01-22 06:52:43.40	68.62	18.87	-42.7	-43.5	21.6	0.00e+00	0	41	0	602931200	56	4079
2026-01-22 06:52:44.41	68.45	18.96	-42.7	-43.6	21.6	0.00e+00	0	41	0	606076928	56	4099
2026-01-22 06:52:45.42	68.27	19.05	-42.7	-43.5	21.6	0.00e+00	0	40	0	610271232	56	4080
2026-01-22 06:52:46.43	68.10	19.14	-42.7	-43.5	21.6	0.00e+00	0	41	0	613416960	56	4088
2026-01-22 06:52:47.44	67.92	19.23	-42.6	-43.5	21.6	0.00e+00	0	41	0	616562688	56	4062
2026-01-22 06:52:48.45	67.74	19.31	-42.6	-43.4	21.7	0.00e+00	0	41	0	619708416	56	4038
2026-01-22 06:52:49.46	67.56	19.40	-42.5	-43.4	21.7	0.00e+00	0	41	0	622854144	56	4018
2026-01-22 06:52:50.46	67.38	19.49	-42.6	-43.4	21.7	0.00e+00	0	41	0	624951296	56	4031
2026-01-22 06:52:51.47	67.20	19.58	-42.5	-43.4	21.7	0.00e+00	0	41	0	628097024	56	4016
2026-01-22 06:52:52.48	67.02	19.66	-42.5	-43.3	21.7	0.00e+00	0	41	0	631242752	56	4004
2026-01-22 06:52:53.49	66.83	19.75	-42.4	-43.3	21.8	0.00e+00	0	41	0	634388480	56	3971
2026-01-22 06:52:54.50	66.65	19.84	-42.4	-43.2	21.9	0.00e+00	0	41	0	637534208	56	3929
2026-01-22 06:52:55.50	66.46	19.93	-42.5	-43.3	21.8	0.00e+00	0	40	0	640679936	56	3985
2026-01-22 06:52:56.51	66.27	20.01	-42.5	-43.4	21.7	0.00e+00	0	41	0	643825664	56	4015
2026-01-22 06:52:57.52	66.09	20.10	-42.4	-43.2	21.9	0.00e+00	0	41	0	648019968	56	3951
2026-01-22 06:52:58.53	65.90	20.19	-42.5	-43.3	21.8	0.00e+00	0	41	0	651165696	56	3983
2026-01-22 06:52:59.54	65.71	20.28	-42.4	-43.3	21.8	0.00e+00	0	41	0	654311424	56	3964
2026-01-22 06:53:00.55	65.51	20.36	-42.2	-43.0	22.0	0.00e+00	0	40	0	657457152	56	3845
2026-01-22 06:53:01.56	65.32	20.45	-42.2	-43.0	22.0	0.00e+00	0	40	0	660602880	56	3867
2026-01-22 06:53:02.56	65.13	20.54	-42.2	-43.0	22.0	0.00e+00	0	41	0	663748608	56	3840
2026-01-22 06:53:03.57	64.93	20.63	-42.2	-43.0	22.1	0.00e+00	0	40	0	666894336	56	3844
2026-01-22 06:53:04.58	64.74	20.71	-42.1	-42.9	22.2	0.00e+00	0	41	0	670040064	56	3794
2026-01-22 06:53:05.59	64.54	20.80	-42.1	-42.9	22.1	0.00e+00	0	41	0	672137216	56	3807
2026-01-22 06:53:06.60	64.34	20.89	-42.1	-42.9	22.1	0.00e+00	0	41	0	675282944	56	3803
2026-01-22 06:53:07.60	64.14	20.98	-42.0	-42.8	22.2	0.00e+00	0	41	0	678428672	56	3774
2026-01-22 06:53:08.61	63.94	21.06	-42.1	-42.9	22.2	0.00e+00	0	41	0	681574400	56	3794
2026-01-22 06:53:09.62	63.74	21.15	-42.1	-42.9	22.2	0.00e+00	0	41	0	684720128	56	3794
2026-01-22 06:53:10.63	63.54	21.24	-42.1	-43.0	22.1	0.00e+00	0	41	0	688914432	56	3825
2026-01-22 06:53:11.64	63.33	21.32	-42.1	-42.9	22.2	0.00e+00	0	41	0	692060160	56	3815
2026-01-22 06:53:12.65	63.13	21.41	-42.1	-43.0	22.1	0.00e+00	0	40	0	695205888	56	3826
2026-01-22 06:53:13.66	62.92	21.50	-42.1	-42.9	22.2	0.00e+00	0	41	0	698351616	56	3797
2026-01-22 06:53:14.66	62.72	21.58	-42.1	-42.9	22.2	0.00e+00	0	41	0	701497344	56	3809
2026-01-22 06:53:15.67	62.51	21.67	-42.0	-42.8	22.3	0.00e+00	0	41	0	704643072	56	3767
2026-01-22 06:53:16.68	62.30	21.76	-41.9	-42.7	22.3	0.00e+00	0	41	0	707788800	55	3917
2026-01-22 06:53:17.69	62.08	21.84	-41.7	-42.5	22.4	0.00e+00	0	41	0	710934528	55	3858
2026-01-22 06:53:18.70	61.87	21.93	-41.8	-42.6	22.4	0.00e+00	0	41	0	714080256	55	3888
2026-01-22 06:53:19.71	61.66	22.02	-41.8	-42.6	22.3	0.00e+00	0	41	0	717225984	55	3898
2026-01-22 06:53:20.72	61.44	22.10	-41.8	-42.6	22.4	0.00e+00	0	41	0	719323136	55	3870
2026-01-22 06:53:21.72	61.23	22.19	-41.7	-42.4	22.5	0.00e+00	0	41	0	723517440	55	3819
2026-01-22 06:53:22.73	61.01	22.27	-41.7	-42.5	22.5	0.00e+00	0	41	0	726663168	55	3825
2026-01-22 06:53:23.74	60.79	22.36	-41.7	-42.4	22.5	0.00e+00	0	41	0	729808896	55	3823
2026-01-22 06:53:24.75	60.57	22.44	-41.7	-42.5	22.4	0.00e+00	0	41	0	732954624	55	3854
2026-01-22 06:53:25.76	60.35	22.53	-41.8	-42.6	22.4	0.00e+00	0	41	0	736100352	55	3869
2026-01-22 06:53:26.77	60.13	22.61	-41.5	-42.3	22.6	0.00e+00	0	41	0	739246080	55	3748
2026-01-22 06:53:27.78	59.91	22.70	-41.6	-42.3	22.6	0.00e+00	0	40	0	742391808	55	3768
2026-01-22 06:53:28.78	59.68	22.78	-41.7	-42.5	22.4	0.00e+00	0	41	0	745537536	55	3847
2026-01-22 06:53:29.79	59.46	22.87	-41.6	-42.4	22.5	0.00e+00	0	40	0	748683264	55	3782
2026-01-22 06:53:30.80	59.23	22.95	-41.8	-42.6	22.4	0.00e+00	0	41	0	751828992	55	3879
2026-01-22 06:53:31.81	59.00	23.03	-41.7	-42.4	22.5	0.00e+00	0	41	0	754974720	55	3823
2026-01-22 06:53:32.81	58.78	23.12	-41.8	-42.6	22.4	0.00e+00	0	41	0	758120448	55	3874
2026-01-22 06:53:33.82	58.55	23.20	-41.8	-42.6	22.4	0.00e+00	0	41	0	761266176	55	3871
2026-01-22 06:53:34.83	58.31	23.28	-41.7	-42.5	22.5	0.00e+00	0	41	0	764411904	55	3835
2026-01-22 06:53:35.84	58.08	23.37	-41.8	-42.5	22.4	0.00e+00	0	41	0	767557632	55	3867
2026-01-22 06:53:36.85	57.85	23.45	-41.8	-42.6	22.4	0.00e+00	0	41	0	770703360	55	3879
2026-01-22 06:53:37.86	57.61	23.53	-42.0	-42.8	22.2	0.00e+00	0	41	0	773849088	55	3970
2026-01-22 06:53:38.87	57.37	23.61	-42.1	-42.9	22.1	0.00e+00	0	40	0	776994816	55	4047
2026-01-22 06:53:39.88	57.13	23.70	-42.0	-42.8	22.2	0.00e+00	0	41	0	780140544	55	3981
2026-01-22 06:53:40.88	56.90	23.78	-42.1	-42.9	22.1	0.00e+00	0	41	0	783286272	55	4027
2026-01-22 06:53:41.89	56.66	23.86	-42.3	-43.1	22.0	0.00e+00	0	41	0	786432000	55	4110
2026-01-22 06:53:42.90	56.41	23.94	-42.2	-43.0	22.1	0.00e+00	0	41	0	789577728	55	4063
2026-01-22 06:53:43.91	56.17	24.02	-42.2	-43.0	22.0	0.00e+00	0	41	0	792723456	55	4090
2026-01-22 06:53:44.92	55.93	24.10	-42.4	-43.2	21.9	0.00e+00	0	41	0	795869184	55	4163
2026-01-22 06:53:45.93	55.68	24.18	-42.4	-43.2	21.9	0.00e+00	0	41	0	799014912	55	4190
2026-01-22 06:53:46.93	55.44	24.26	-42.4	-43.2	21.9	0.00e+00	0	40	0	802160640	55	4193
2026-01-22 06:53:47.94	55.19	24.34	-42.4	-43.2	21.9	0.00e+00	0	41	0	805306368	55	4168
2026-01-22 06:53:48.95	54.94	24.42	-42.4	-43.2	21.9	0.00e+00	0	41	0	808452096	55	4156
2026-01-22 06:53:49.96	54.69	24.50	-42.3	-43.1	22.0	0.00e+00	0	40	0	811597824	55	4142
2026-01-22 06:53:50.97	54.43	24.58	-42.3	-43.1	22.0	0.00e+00	0	40	0	814743552	55	4103
2026-01-22 06:53:51.98	54.18	24.65	-42.1	-42.9	22.2	0.00e+00	0	40	0	817889280	55	4031
2026-01-22 06:53:52.99	53.93	24.73	-42.1	-42.9	22.2	0.00e+00	0	41	0	821035008	55	4020
2026-01-22 06:53:54.00	53.67	24.81	-42.2	-43.0	22.1	0.00e+00	0	41	0	824180736	55	4061
2026-01-22 06:53:55.01	53.41	24.89	-42.2	-43.0	22.1	0.00e+00	0	41	0	827326464	55	4072
2026-01-22 06:53:56.02	53.15	24.96	-42.3	-43.1	22.0	0.00e+00	0	41	0	830472192	55	4141
2026-01-22 06:53:57.03	52.89	25.04	-42.4	-43.2	21.9	0.00e+00	0	41	0	833617920	55	4168
2026-01-22 06:53:58.04	52.63	25.11	-42.3	-43.2	22.0	0.00e+00	0	40	0	836763648	55	4157
2026-01-22 06:53:59.05	52.37	25.19	-42.2	-43.0	22.1	0.00e+00	0	41	0	839909376	55	4053
2026-01-22 06:54:00.06	52.11	25.26	-42.2	-43.0	22.0	0.00e+00	0	40	0	843055104	55	4076
2026-01-22 06:54:01.06	51.84	25.34	-42.2	-43.0	22.0	0.00e+00	0	41	0	846200832	55	4085
2026-01-22 06:54:02.07	51.58	25.41	-42.3	-43.2	21.9	0.00e+00	0	41	0	849346560	55	4152
2026-01-22 06:54:03.08	51.31	25.48	-42.6	-43.4	21.7	0.00e+00	0	41	0	852492288	55	4261
2026-01-22 06:54:04.09	51.04	25.56	-42.7	-43.5	21.6	0.00e+00	0	41	0	855638016	55	4330
2026-01-22 06:54:05.10	50.77	25.63	-42.6	-43.5	21.8	0.00e+00	0	40	0	858783744	56	4065
2026-01-22 06:54:06.10	50.50	25.70	-42.7	-43.5	21.7	0.00e+00	0	40	0	861929472	56	4084
2026-01-22 06:54:07.11	50.23	25.77	-42.7	-43.5	21.7	0.00e+00	0	41	0	865075200	56	4094
2026-01-22 06:54:08.12	49.96	25.84	-42.7	-43.6	21.7	0.00e+00	0	41	0	868220928	56	4102
2026-01-22 06:54:09.13	49.68	25.91	-42.7	-43.5	21.7	0.00e+00	0	40	0	871366656	56	4084
2026-01-22 06:54:10.14	49.41	25.98	-42.6	-43.4	21.8	0.00e+00	0	41	0	874512384	56	4043
2026-01-22 06:54:11.14	49.13	26.05	-42.6	-43.5	21.8	0.00e+00	0	41	0	877658112	56	4052
2026-01-22 06:54:12.15	48.86	26.12	-42.4	-43.2	22.0	0.00e+00	0	41	0	880803840	56	3938
2026-01-22 06:54:13.16	48.58	26.19	-42.3	-43.1	22.1	0.00e+00	0	41	0	883949568	56	3889
2026-01-22 06:54:14.17	48.30	26.25	-42.4	-43.2	22.0	0.00e+00	0	40	0	887095296	56	3945
2026-01-22 06:54:15.18	48.01	26.32	-42.3	-43.1	22.1	0.00e+00	0	41	0	890241024	56	3895
2026-01-22 06:54:16.19	47.73	26.39	-42.2	-43.0	22.2	0.00e+00	0	41	0	893386752	56	3839
2026-01-22 06:54:17.20	47.45	26.45	-42.3	-43.1	22.1	0.00e+00	0	41	0	896532480	56	3895
2026-01-22 06:54:18.20	47.16	26.52	-42.4	-43.2	22.0	0.00e+00	0	41	0	899678208	56	3921
2026-01-22 06:54:19.21	46.88	26.58	-42.3	-43.2	22.0	0.00e+00	0	41	0	902823936	56	3915
2026-01-22 06:54:20.22	46.59	26.64	-42.4	-43.2	22.0	0.00e+00	0	41	0	905969664	56	3948
2026-01-22 06:54:21.23	46.30	26.71	-42.4	-43.2	22.0	0.00e+00	0	40	0	909115392	56	3926
2026-01-22 06:54:22.24	46.01	26.77	-42.2	-43.0	22.1	0.00e+00	0	41	0	912261120	56	3861
2026-01-22 06:54:23.25	45.72	26.83	-42.1	-42.9	22.3	0.00e+00	0	41	0	915406848	56	3803
2026-01-22 06:54:24.25	45.43	26.89	-42.1	-42.9	22.2	0.00e+00	0	41	0	918552576	56	3819
2026-01-22 06:54:25.26	45.14	26.95	-42.0	-42.8	22.3	0.00e+00	0	41	0	921698304	56	3761
2026-01-22 06:54:26.27	44.84	27.01	-42.1	-42.9	22.2	0.00e+00	0	41	0	924844032	56	3793
2026-01-22 06:54:27.28	44.55	27.07	-42.2	-43.0	22.1	0.00e+00	0	41	0	927989760	56	3863
2026-01-22 06:54:28.28	44.25	27.13	-42.2	-43.0	22.1	0.00e+00	0	40	0	931135488	56	3861
2026-01-22 06:54:29.29	43.95	27.19	-42.2	-43.0	22.2	0.00e+00	0	41	0	934281216	56	3844
2026-01-22 06:54:30.30	43.65	27.24	-42.1	-43.0	22.2	0.00e+00	0	41	0	937426944	56	3825
2026-01-22 06:54:31.31	43.35	27.30	-42.1	-42.9	22.2	0.00e+00	0	41	0	940572672	56	3809
2026-01-22 06:54:32.32	43.05	27.35	-42.2	-43.0	22.2	0.00e+00	0	41	0	943718400	56	3838
2026-01-22 06:54:33.32	42.75	27.41	-42.3	-43.1	22.1	0.00e+00	0	41	0	946864128	56	3884
2026-01-22 06:54:34.33	42.45	27.46	-42.2	-43.1	22.2	0.00e+00	0	40	0	950009856	56	3869
2026-01-22 06:54:35.34	42.15	27.51	-42.1	-42.9	22.3	0.00e+00	0	41	0	953155584	56	3796
2026-01-22 06:54:36.35	41.84	27.57	-42.1	-42.9	22.3	0.00e+00	0	41	0	956301312	56	3781
2026-01-22 06:54:37.36	41.54	27.62	-42.0	-42.8	22.3	0.00e+00	0	41	0	959447040	56	3768
2026-01-22 06:54:38.37	41.23	27.67	-42.0	-42.8	22.3	0.00e+00	0	41	0	962592768	56	3761
2026-01-22 06:54:39.38	40.92	27.72	-42.2	-43.0	22.1	0.00e+00	0	41	0	965738496	56	3834
2026-01-22 06:54:40.38	40.62	27.77	-42.3	-43.1	22.0	0.00e+00	0	41	0	968884224	56	3901
2026-01-22 06:54:41.39	40.31	27.81	-42.4	-43.2	22.0	0.00e+00	0	41	0	972029952	56	3940
2026-01-22 06:54:42.40	39.99	27.86	-42.3	-43.1	22.0	0.00e+00	0	41	0	975175680	56	3895
2026-01-22 06:54:43.41	39.68	27.91	-42.3	-43.1	22.1	0.00e+00	0	40	0	978321408	56	3894
2026-01-22 06:54:44.42	39.37	27.95	-42.2	-43.0	22.2	0.00e+00	0	40	0	981467136	56	3843
2026-01-22 06:54:45.42	39.06	28.00	-42.2	-43.0	22.2	0.00e+00	0	41	0	984612864	56	3852
2026-01-22 06:54:46.43	38.75	28.04	-42.2	-43.0	22.2	0.00e+00	0	41	0	987758592	56	3853
2026-01-22 06:54:47.44	38.43	28.08	-42.3	-43.2	22.0	0.00e+00	0	41	0	990904320	56	3917
2026-01-22 06:54:48.45	38.11	28.12	-42.3	-43.1	22.0	0.00e+00	0	41	0	994050048	56	3904
2026-01-22 06:54:49.46	37.80	28.16	-42.3	-43.1	22.1	0.00e+00	0	41	0	997195776	56	3904
2026-01-22 06:54:50.46	37.48	28.20	-42.4	-43.2	22.0	0.00e+00	0	41	0	1000341504	56	3944
2026-01-22 06:54:51.47	37.16	28.24	-42.2	-42.9	22.3	0.00e+00	0	40	0	1003487232	56	3823
2026-01-22 06:54:52.48	36.84	28.28	-42.1	-42.9	22.3	0.00e+00	0	41	0	1006632960	56	3803
2026-01-22 06:54:53.49	36.52	28.32	-42.2	-43.0	22.2	0.00e+00	0	40	0	1009778688	56	3829
2026-01-22 06:54:54.50	36.20	28.35	-42.3	-43.1	22.2	0.00e+00	0	40	0	1012924416	56	3881
2026-01-22 06:54:55.50	35.89	28.39	-42.2	-43.0	22.2	0.00e+00	0	41	0	1016070144	56	3838
2026-01-22 06:54:56.51	35.56	28.42	-42.1	-42.9	22.3	0.00e+00	0	41	0	1019215872	56	3794
2026-01-22 06:54:57.52	35.24	28.46	-42.2	-43.0	22.2	0.00e+00	0	41	0	1022361600	56	3834
2026-01-22 06:54:58.53	34.92	28.49	-42.2	-43.0	22.2	0.00e+00	0	40	0	1025507328	56	3859
2026-01-22 06:54:59.54	34.59	28.52	-42.3	-43.1	22.0	0.00e+00	0	41	0	1028653056	56	3913
2026-01-22 06:55:00.54	34.27	28.55	-42.5	-43.3	21.9	0.00e+00	0	41	0	1031798784	56	3994
2026-01-22 06:55:01.55	33.95	28.58	-42.5	-43.3	22.0	0.00e+00	0	41	0	1034944512	56	3980
2026-01-22 06:55:02.56	33.62	28.61	-42.5	-43.3	22.0	0.00e+00	0	41	0	1038090240	56	4000
2026-01-22 06:55:03.57	33.29	28.63	-42.4	-43.2	22.0	0.00e+00	0	41	0	1041235968	56	3951
2026-01-22 06:55:04.58	32.97	28.66	-42.5	-43.3	21.9	0.00e+00	0	41	0	1044381696	56	3998
2026-01-22 06:55:05.58	32.64	28.69	-42.4	-43.2	22.1	0.00e+00	0	41	0	1047527424	56	3930
2026-01-22 06:55:06.59	32.31	28.71	-42.4	-43.2	22.0	0.00e+00	0	41	0	1050673152	56	3952
2026-01-22 06:55:07.60	31.99	28.73	-42.5	-43.4	21.9	0.00e+00	0	41	0	1053818880	56	4013
2026-01-22 06:55:08.61	31.66	28.76	-42.6	-43.4	21.8	0.00e+00	0	41	0	1056964608	56	4047
2026-01-22 06:55:09.62	31.33	28.78	-42.6	-43.4	21.9	0.00e+00	0	41	0	1060110336	56	4024
2026-01-22 06:55:10.62	31.00	28.80	-42.4	-43.2	22.1	0.00e+00	0	41	0	1063256064	56	3916
2026-01-22 06:55:11.63	30.67	28.82	-42.4	-43.2	22.1	0.00e+00	0	41	0	1066401792	56	3920
2026-01-22 06:55:12.64	30.34	28.83	-42.5	-43.3	22.0	0.00e+00	0	41	0	1069547520	56	3992
2026-01-22 06:55:13.65	30.01	28.85	-42.5	-43.3	22.0	0.00e+00	0	40	0	1072693248	56	4000
2026-01-22 06:55:14.66	29.68	28.87	-42.4	-43.2	22.1	0.00e+00	0	41	0	1075838976	56	3931
2026-01-22 06:55:15.67	29.35	28.88	-42.4	-43.3	22.1	0.00e+00	0	40	0	1078984704	56	3968
2026-01-22 06:55:16.67	29.02	28.89	-42.4	-43.2	22.1	0.00e+00	0	41	0	1082130432	56	3926
2026-01-22 06:55:17.68	28.68	28.91	-42.2	-43.0	22.3	0.00e+00	0	41	0	1085276160	56	3841
2026-01-22 06:55:18.69	28.35	28.92	-42.2	-43.0	22.2	0.00e+00	0	41	0	1088421888	56	3852
2026-01-22 06:55:19.70	28.02	28.93	-42.2	-43.0	22.2	0.00e+00	0	41	0	1091567616	56	3856
2026-01-22 06:55:20.70	27.69	28.94	-42.5	-43.3	22.0	0.00e+00	0	41	0	1094713344	56	3977
2026-01-22 06:55:21.71	27.36	28.95	-42.5	-43.3	21.9	0.00e+00	0	41	0	1097859072	56	3974
2026-01-22 06:55:22.72	27.02	28.95	-42.6	-43.5	21.8	0.00e+00	0	41	0	1101004800	56	4052
2026-01-22 06:55:23.73	26.69	28.96	-42.6	-43.4	21.8	0.00e+00	0	41	0	1104150528	56	4025
2026-01-22 06:55:24.74	26.36	28.97	-42.6	-43.4	21.8	0.00e+00	0	41	0	1107296256	56	4043
2026-01-22 06:55:25.75	26.02	28.97	-42.5	-43.3	22.0	0.00e+00	0	40	0	1110441984	56	3969
2026-01-22 06:55:26.75	25.69	28.97	-42.5	-43.3	22.0	0.00e+00	0	41	0	1113587712	56	3974
2026-01-22 06:55:27.76	25.36	28.97	-42.3	-43.1	22.1	0.00e+00	0	41	0	1116733440	56	3912
2026-01-22 06:55:28.77	25.03	28.97	-42.1	-42.9	22.3	0.00e+00	0	41	0	1119879168	56	3797
2026-01-22 06:55:29.78	24.69	28.97	-42.3	-43.1	22.2	0.00e+00	0	41	0	1123024896	56	3878
2026-01-22 06:55:30.78	24.36	28.97	-42.3	-43.2	22.1	0.00e+00	0	41	0	1126170624	56	3916
2026-01-22 06:55:31.79	24.03	28.97	-42.5	-43.3	22.0	0.00e+00	0	41	0	1129316352	56	3986
2026-01-22 06:55:32.80	23.69	28.97	-42.4	-43.2	22.1	0.00e+00	0	41	0	1132462080	56	3935
2026-01-22 06:55:33.81	23.36	28.96	-42.4	-43.2	22.1	0.00e+00	0	41	0	1135607808	56	3947
2026-01-22 06:55:34.82	23.03	28.96	-42.3	-43.1	22.1	0.00e+00	0	41	0	1138753536	56	3902
2026-01-22 06:55:35.82	22.70	28.95	-42.2	-43.0	22.2	0.00e+00	0	41	0	1141899264	56	3861
2026-01-22 06:55:36.83	22.36	28.94	-42.2	-43.0	22.2	0.00e+00	0	41	0	1145044992	56	3863
2026-01-22 06:55:37.84	22.03	28.93	-42.3	-43.1	22.2	0.00e+00	0	41	0	1148190720	56	3870
2026-01-22 06:55:38.85	21.70	28.92	-42.4	-43.2	22.1	0.00e+00	0	41	0	1151336448	56	3928
2026-01-22 06:55:39.86	21.37	28.91	-42.4	-43.2	22.1	0.00e+00	0	41	0	1154482176	56	3916
2026-01-22 06:55:40.86	21.04	28.90	-42.1	-42.9	22.4	0.00e+00	0	41	0	1157627904	56	3810
2026-01-22 06:55:41.87	20.70	28.89	-42.1	-42.8	22.4	0.00e+00	0	40	0	1160773632	56	3771
2026-01-22 06:55:42.88	20.37	28.87	-41.8	-42.6	22.5	0.00e+00	0	41	0	1163919360	55	3874
2026-01-22 06:55:43.89	20.04	28.86	-41.9	-42.7	22.4	0.00e+00	0	41	0	1167065088	55	3945
2026-01-22 06:55:44.90	19.71	28.84	-42.0	-42.8	22.3	0.00e+00	0	41	0	1170210816	55	3995
2026-01-22 06:55:45.91	19.38	28.82	-42.1	-43.0	22.3	0.00e+00	0	40	0	1173356544	55	4052
2026-01-22 06:55:46.91	19.05	28.80	-42.0	-42.8	22.4	0.00e+00	0	41	0	1176502272	55	3972
2026-01-22 06:55:47.92	18.72	28.78	-41.8	-42.6	22.5	0.00e+00	0	41	0	1179648000	55	3891
2026-01-22 06:55:48.93	18.39	28.76	-41.9	-42.7	22.5	0.00e+00	0	41	0	1182793728	55	3917
2026-01-22 06:55:49.94	18.06	28.74	-41.9	-42.7	22.4	0.00e+00	0	41	0	1185939456	55	3938
2026-01-22 06:55:50.94	17.74	28.72	-42.0	-42.8	22.3	0.00e+00	0	41	0	1189085184	55	3965
2026-01-22 06:55:51.95	17.41	28.70	-42.0	-42.8	22.4	0.00e+00	0	41	0	1192230912	55	3961
2026-01-22 06:55:52.96	17.08	28.67	-42.2	-43.0	22.1	0.00e+00	0	41	0	1195376640	55	4097
2026-01-22 06:55:53.96	16.76	28.65	-42.5	-43.3	21.9	0.00e+00	0	41	0	1198522368	55	4228
2026-01-22 06:55:54.97	16.43	28.62	-42.4	-43.3	21.9	0.00e+00	0	41	0	1201668096	55	4198
2026-01-22 06:55:55.98	16.11	28.59	-42.5	-43.3	21.9	0.00e+00	0	41	0	1204813824	55	4236
2026-01-22 06:55:56.99	15.78	28.56	-42.6	-43.5	21.8	0.00e+00	0	40	0	1207959552	55	4301
2026-01-22 06:55:58.00	15.46	28.53	-42.6	-43.5	21.8	0.00e+00	0	41	0	1211105280	55	4309
2026-01-22 06:55:59.01	15.13	28.50	-42.6	-43.5	21.8	0.00e+00	0	41	0	1214251008	55	4292
2026-01-22 06:56:00.01	14.81	28.47	-42.5	-43.3	21.9	0.00e+00	0	41	0	1217396736	55	4218
2026-01-22 06:56:01.02	14.49	28.44	-42.5	-43.3	21.9	0.00e+00	0	40	0	1221591040	55	4221
2026-01-22 06:56:02.03	14.17	28.40	-42.2	-43.0	22.2	0.00e+00	0	41	0	1224736768	55	4082
2026-01-22 06:56:03.04	13.84	28.37	-42.3	-43.1	22.1	0.00e+00	0	41	0	1226833920	55	4101
2026-01-22 06:56:04.05	13.52	28.33	-42.1	-42.9	22.3	0.00e+00	0	41	0	1229979648	55	4018
2026-01-22 06:56:05.06	13.20	28.30	-42.2	-43.0	22.2	0.00e+00	0	41	0	1233125376	55	4079
2026-01-22 06:56:06.06	12.89	28.26	-42.4	-43.2	22.0	0.00e+00	0	41	0	1236271104	55	4169
2026-01-22 06:56:07.07	12.57	28.22	-42.3	-43.1	22.1	0.00e+00	0	41	0	1239416832	55	4118
2026-01-22 06:56:08.08	12.25	28.18	-42.3	-43.1	22.0	0.00e+00	0	41	0	1242562560	55	4109
2026-01-22 06:56:09.09	11.93	28.14	-42.3	-43.1	22.0	0.00e+00	0	41	0	1245708288	55	4125
2026-01-22 06:56:10.10	11.62	28.10	-42.3	-43.1	22.1	0.00e+00	0	41	0	1248854016	55	4102
2026-01-22 06:56:11.10	11.31	28.06	-42.3	-43.1	22.1	0.00e+00	0	41	0	1251999744	55	4126
2026-01-22 06:56:12.11	10.99	28.01	-42.2	-43.0	22.2	0.00e+00	0	41	0	1255145472	55	4098
2026-01-22 06:56:13.12	10.68	27.97	-42.3	-43.1	22.1	0.00e+00	0	41	0	1259339776	55	4125
2026-01-22 06:56:14.13	10.36	27.93	-42.3	-43.1	22.1	0.00e+00	0	41	0	1262485504	55	4133
2026-01-22 06:56:15.14	10.05	27.88	-42.2	-43.0	22.1	0.00e+00	0	41	0	1265631232	55	4088
2026-01-22 06:56:16.14	9.75	27.83	-42.4	-43.2	21.9	0.00e+00	0	40	0	1268776960	55	4181
2026-01-22 06:56:17.15	9.44	27.79	-42.4	-43.2	22.0	0.00e+00	0	41	0	1271922688	55	4169
2026-01-22 06:56:18.16	9.13	27.74	-42.4	-43.2	22.0	0.00e+00	0	41	0	1274019840	55	4162
2026-01-22 06:56:19.17	8.82	27.69	-42.2	-43.0	22.1	0.00e+00	0	40	0	1277165568	55	4095
2026-01-22 06:56:20.18	8.51	27.64	-42.2	-43.0	22.1	0.00e+00	0	40	0	1280311296	55	4069
2026-01-22 06:56:21.18	8.21	27.59	-42.3	-43.1	22.1	0.00e+00	0	41	0	1283457024	55	4111
2026-01-22 06:56:22.19	7.90	27.54	-42.3	-43.2	22.0	0.00e+00	0	41	0	1286602752	55	4149
2026-01-22 06:56:23.20	7.60	27.48	-42.4	-43.3	21.9	0.00e+00	0	41	0	1289748480	55	4199
2026-01-22 06:56:24.21	7.29	27.43	-42.4	-43.2	22.0	0.00e+00	0	41	0	1292894208	55	4180
2026-01-22 06:56:25.22	6.99	27.38	-42.6	-43.5	21.6	0.00e+00	0	41	0	1296039936	55	4314
2026-01-22 06:56:26.22	6.69	27.32	-42.7	-43.6	21.6	0.00e+00	0	41	0	1300234240	55	4361
2026-01-22 06:56:27.23	6.39	27.27	-42.7	-43.6	21.7	0.00e+00	0	41	0	1303379968	56	4107
2026-01-22 06:56:28.24	6.09	27.21	-42.7	-43.6	21.8	0.00e+00	0	41	0	1306525696	56	4103
2026-01-22 06:56:29.25	5.80	27.15	-42.7	-43.6	21.7	0.00e+00	0	41	0	1309671424	56	4108
2026-01-22 06:56:30.26	5.50	27.10	-42.6	-43.4	21.9	0.00e+00	0	41	0	1312817152	56	4027
2026-01-22 06:56:31.26	5.21	27.04	-42.6	-43.5	21.8	0.00e+00	0	41	0	1315962880	56	4062
2026-01-22 06:56:32.27	4.91	26.98	-42.6	-43.4	21.9	0.00e+00	0	41	0	1319108608	56	4029
2026-01-22 06:56:33.28	4.62	26.92	-42.7	-43.6	21.8	0.00e+00	0	41	0	1321205760	56	4110
2026-01-22 06:56:34.29	4.33	26.86	-42.7	-43.5	21.8	0.00e+00	0	41	0	1324351488	56	4091
2026-01-22 06:56:35.30	4.03	26.80	-42.8	-43.7	21.7	0.00e+00	0	41	0	1327497216	56	4147
2026-01-22 06:56:36.30	3.75	26.74	-42.4	-43.3	22.1	0.00e+00	0	41	0	1330642944	56	3960
2026-01-22 06:56:37.31	3.46	26.67	-42.5	-43.4	21.9	0.00e+00	0	41	0	1333788672	56	4005
2026-01-22 06:56:38.32	3.17	26.61	-42.3	-43.1	22.2	0.00e+00	0	41	0	1336934400	56	3878
2026-01-22 06:56:39.33	2.88	26.55	-42.0	-42.8	22.4	0.00e+00	0	41	0	1341128704	56	3767
2026-01-22 06:56:40.34	2.60	26.48	-41.7	-42.5	22.6	0.00e+00	0	41	0	1344274432	55	3844
2026-01-22 06:56:41.34	2.32	26.42	-41.8	-42.6	22.5	0.00e+00	0	41	0	1347420160	55	3887
2026-01-22 06:56:42.35	2.03	26.35	-42.0	-42.8	22.3	0.00e+00	0	41	0	1350565888	55	3968
2026-01-22 06:56:43.36	1.75	26.29	-42.4	-43.2	22.0	0.00e+00	0	41	0	1353711616	55	4165
2026-01-22 06:56:44.37	1.47	26.22	-42.8	-43.7	21.7	0.00e+00	0	41	0	1356857344	56	4167
2026-01-22 06:56:45.38	1.19	26.15	-42.9	-43.8	21.6	0.00e+00	0	41	0	1360003072	56	4195
2026-01-22 06:56:46.38	0.91	26.08	-42.9	-43.8	21.6	0.00e+00	0	41	0	1363148800	56	4216
2026-01-22 06:56:47.39	0.64	26.01	-42.8	-43.7	21.6	0.00e+00	0	41	0	1366294528	56	4172
2026-01-22 06:56:48.40	0.36	25.94	-42.6	-43.5	21.8	0.00e+00	0	41	0	1368391680	56	4058
2026-01-22 06:56:49.41	0.09	25.88	-42.3	-43.1	22.2	0.00e+00	0	41	0	1371537408	56	3888
2026-01-22 06:56:50.42	359.81	25.80	-41.5	-42.3	22.7	0.00e+00	0	41	0	1374683136	55	3755
2026-01-22 06:56:51.42	359.54	25.73	-41.7	-42.5	22.6	0.00e+00	0	40	0	1378877440	54	4055
2026-01-22 06:56:52.43	359.27	25.66	-42.0	-42.8	22.4	0.00e+00	0	41	0	1382023168	54	4194
2026-01-22 06:56:53.44	359.00	25.59	-42.1	-43.0	22.2	0.00e+00	0	41	0	1385168896	54	4296
2026-01-22 06:56:54.45	358.73	25.52	-42.4	-43.3	21.9	0.00e+00	0	41	0	1388314624	55	4205
2026-01-22 06:56:55.46	358.47	25.45	-42.6	-43.5	21.7	0.00e+00	0	41	0	1391460352	55	4304
2026-01-22 06:56:56.46	358.20	25.37	-42.6	-43.5	21.7	0.00e+00	0	41	0	1394606080	55	4320
2026-01-22 06:56:57.47	357.94	25.30	-42.6	-43.5	21.8	0.00e+00	0	41	0	1397751808	56	4059
2026-01-22 06:56:58.48	357.67	25.22	-42.6	-43.4	21.9	0.00e+00	0	41	0	1400897536	56	4033
2026-01-22 06:56:59.49	357.41	25.15	-42.5	-43.4	21.9	0.00e+00	0	41	0	1404043264	56	4016
2026-01-22 06:57:00.49	357.15	25.08	-42.4	-43.2	22.1	0.00e+00	0	41	0	1407188992	56	3923
2026-01-22 06:57:01.51	356.89	25.00	-42.2	-43.0	22.2	0.00e+00	0	41	0	1410334720	56	3867
2026-01-22 06:57:02.51	356.63	24.92	-42.4	-43.2	22.1	0.00e+00	0	40	0	1413480448	56	3934
2026-01-22 06:57:03.52	356.38	24.85	-42.4	-43.3	22.0	0.00e+00	0	41	0	1416626176	56	3960
2026-01-22 06:57:04.53	356.12	24.77	-42.4	-43.2	22.0	0.00e+00	0	41	0	1419771904	56	3947
2026-01-22 06:57:05.54	355.86	24.69	-42.3	-43.1	22.0	0.00e+00	0	41	0	1422917632	56	3891
2026-01-22 06:57:06.54	355.61	24.62	-42.1	-42.9	22.1	0.00e+00	0	41	0	1426063360	56	3824
2026-01-22 06:57:07.55	355.36	24.54	-41.7	-42.5	22.4	0.00e+00	0	41	0	1429209088	55	3829
2026-01-22 06:57:08.56	355.11	24.46	-41.5	-42.3	22.7	0.00e+00	0	41	0	1432354816	55	3756
2026-01-22 06:57:09.57	354.86	24.38	-41.6	-42.4	22.6	0.00e+00	0	41	0	1435500544	55	3788
2026-01-22 06:57:10.58	354.61	24.30	-41.4	-42.2	22.8	0.00e+00	0	41	0	1438646272	54	3926
2026-01-22 06:57:11.58	354.37	24.22	-41.6	-42.4	22.6	0.00e+00	0	41	0	1441792000	54	4018
2026-01-22 06:57:12.59	354.12	24.14	-41.7	-42.5	22.5	0.00e+00	0	41	0	1444937728	54	4080
2026-01-22 06:57:13.60	353.88	24.06	-41.8	-42.6	22.5	0.00e+00	0	41	0	1448083456	54	4102
2026-01-22 06:57:14.61	353.63	23.98	-41.8	-42.6	22.5	0.00e+00	0	41	0	1451229184	54	4136
2026-01-22 06:57:15.62	353.39	23.90	-41.9	-42.6	22.4	0.00e+00	0	41	0	1454374912	54	4142
2026-01-22 06:57:16.62	353.15	23.82	-41.6	-42.4	22.6	0.00e+00	0	41	0	1457520640	54	4025
2026-01-22 06:57:17.63	352.91	23.74	-41.7	-42.5	22.5	0.00e+00	0	41	0	1460666368	54	4063
2026-01-22 06:57:18.64	352.67	23.66	-41.8	-42.5	22.4	0.00e+00	0	41	0	1463812096	54	4098
2026-01-22 06:57:19.64	352.44	23.58	-41.6	-42.3	22.6	0.00e+00	0	41	0	1466957824	54	3996
2026-01-22 06:57:20.65	352.20	23.49	-41.5	-42.3	22.6	0.00e+00	0	41	0	1470103552	54	3983
2026-01-22 06:57:21.66	351.97	23.41	-41.6	-42.4	22.6	0.00e+00	0	41	0	1473249280	54	4008
2026-01-22 06:57:22.67	351.73	23.33	-41.7	-42.5	22.5	0.00e+00	0	41	0	1476395008	54	4074
2026-01-22 06:57:23.68	351.50	23.25	-41.8	-42.5	22.5	0.00e+00	0	41	0	1479540736	54	4085
2026-01-22 06:57:24.68	351.27	23.16	-41.7	-42.5	22.4	0.00e+00	0	41	0	1482686464	54	4077
2026-01-22 06:57:25.69	351.04	23.08	-41.8	-42.5	22.4	0.00e+00	0	41	0	1485832192	54	4094
2026-01-22 06:57:26.70	350.81	23.00	-41.7	-42.5	22.4	0.00e+00	0	40	0	1488977920	54	4066
2026-01-22 06:57:27.71	350.59	22.91	-41.8	-42.6	22.4	0.00e+00	0	41	0	1492123648	54	4103
2026-01-22 06:57:28.72	350.36	22.83	-41.9	-42.7	22.3	0.00e+00	0	41	0	1495269376	54	4163
2026-01-22 06:57:29.73	350.14	22.74	-41.9	-42.6	22.4	0.00e+00	0	41	0	1498415104	54	4140
2026-01-22 06:57:30.74	349.91	22.66	-41.9	-42.7	22.3	0.00e+00	0	41	0	1501560832	54	4185
2026-01-22 06:57:31.74	349.69	22.57	-42.1	-42.9	22.2	0.00e+00	0	41	0	1504706560	54	4246
2026-01-22 06:57:32.75	349.47	22.49	-42.1	-42.9	22.2	0.00e+00	0	41	0	1507852288	54	4277
2026-01-22 06:57:33.76	349.25	22.40	-42.1	-43.0	22.1	0.00e+00	0	41	0	1510998016	55	4053
2026-01-22 06:57:34.77	349.03	22.32	-42.1	-42.9	22.2	0.00e+00	0	40	0	1514143744	55	4036
2026-01-22 06:57:35.78	348.81	22.23	-42.1	-42.9	22.1	0.00e+00	0	41	0	1517289472	55	4042
2026-01-22 06:57:36.78	348.60	22.15	-42.1	-42.9	22.2	0.00e+00	0	41	0	1520435200	55	4013
2026-01-22 06:57:37.79	348.39	22.06	-41.8	-42.6	22.4	0.00e+00	0	41	0	1523580928	55	3889
2026-01-22 06:57:38.80	348.17	21.98	-41.9	-42.7	22.3	0.00e+00	0	41	0	1526726656	55	3929
2026-01-22 06:57:39.81	347.96	21.89	-41.8	-42.6	22.4	0.00e+00	0	41	0	1529872384	55	3900
2026-01-22 06:57:40.82	347.75	21.81	-41.8	-42.6	22.4	0.00e+00	0	41	0	1533018112	55	3901
2026-01-22 06:57:41.82	347.54	21.72	-41.8	-42.6	22.4	0.00e+00	0	41	0	1536163840	55	3894
2026-01-22 06:57:42.83	347.33	21.63	-42.0	-42.8	22.3	0.00e+00	0	40	0	1539309568	55	3965
2026-01-22 06:57:43.84	347.12	21.55	-42.0	-42.8	22.2	0.00e+00	0	41	0	1542455296	55	3993
2026-01-22 06:57:44.85	346.92	21.46	-42.2	-43.0	22.1	0.00e+00	0	41	0	1545601024	55	4084
2026-01-22 06:57:45.86	346.71	21.37	-42.4	-43.3	21.9	0.00e+00	0	41	0	1548746752	55	4197
2026-01-22 06:57:46.86	346.51	21.29	-42.4	-43.2	21.9	0.00e+00	0	41	0	1551892480	55	4161
2026-01-22 06:57:47.87	346.30	21.20	-42.4	-43.3	21.9	0.00e+00	0	41	0	1555038208	55	4210
2026-01-22 06:57:48.88	346.10	21.11	-42.6	-43.4	21.8	0.00e+00	0	41	0	1558183936	55	4260
2026-01-22 06:57:49.89	345.90	21.03	-42.4	-43.2	21.9	0.00e+00	0	41	0	1561329664	55	4167
2026-01-22 06:57:50.90	345.70	20.94	-42.3	-43.1	22.0	0.00e+00	0	41	0	1564475392	55	4132
2026-01-22 06:57:51.90	345.50	20.85	-42.3	-43.2	21.9	0.00e+00	0	41	0	1567621120	55	4154
2026-01-22 06:57:52.91	345.31	20.77	-42.5	-43.3	21.9	0.00e+00	0	41	0	1570766848	55	4210
2026-01-22 06:57:53.92	345.11	20.68	-42.4	-43.2	21.9	0.00e+00	0	41	0	1573912576	55	4181
2026-01-22 06:57:54.93	344.91	20.59	-42.4	-43.3	21.8	0.00e+00	0	41	0	1577058304	55	4207
2026-01-22 06:57:55.94	344.72	20.50	-42.5	-43.4	21.8	0.00e+00	0	41	0	1580204032	55	4246
2026-01-22 06:57:56.94	344.53	20.42	-42.5	-43.3	21.8	0.00e+00	0	41	0	1583349760	55	4220
2026-01-22 06:57:57.95	344.34	20.33	-42.6	-43.4	21.8	0.00e+00	0	41	0	1586495488	55	4263
2026-01-22 06:57:58.96	344.15	20.24	-42.4	-43.2	21.9	0.00e+00	0	41	0	1589641216	55	4176
2026-01-22 06:57:59.97	343.96	20.15	-42.2	-43.1	22.0	0.00e+00	0	41	0	1592786944	55	4104
2026-01-22 06:58:00.98	343.77	20.07	-42.1	-42.9	22.1	0.00e+00	0	41	0	1595932672	55	4045
2026-01-22 06:58:01.99	343.58	19.98	-42.1	-42.9	22.1	0.00e+00	0	41	0	1599078400	55	4033
2026-01-22 06:58:02.99	343.40	19.89	-42.1	-42.9	22.1	0.00e+00	0	41	0	1602224128	55	4022
2026-01-22 06:58:04.01	343.21	19.80	-42.2	-43.0	22.1	0.00e+00	0	41	0	1605369856	55	4060
2026-01-22 06:58:05.01	343.03	19.72	-42.1	-42.9	22.1	0.00e+00	0	41	0	1608515584	55	4035
2026-01-22 06:58:06.02	342.84	19.63	-42.1	-42.9	22.1	0.00e+00	0	41	0	1611661312	55	4051
2026-01-22 06:58:07.03	342.66	19.54	-42.0	-42.8	22.2	0.00e+00	0	41	0	1614807040	55	3995
2026-01-22 06:58:08.04	342.48	19.45	-42.1	-42.8	22.2	0.00e+00	0	41	0	1617952768	55	4001
2026-01-22 06:58:09.04	342.30	19.37	-42.0	-42.8	22.2	0.00e+00	0	41	0	1621098496	55	4003
2026-01-22 06:58:10.05	342.12	19.28	-42.1	-42.9	22.1	0.00e+00	0	41	0	1624244224	55	4029
2026-01-22 06:58:11.06	341.94	19.19	-42.2	-43.0	22.1	0.00e+00	0	41	0	1627389952	55	4061
2026-01-22 06:58:12.06	341.77	19.11	-42.1	-43.0	22.1	0.00e+00	0	41	0	1630535680	55	4056
2026-01-22 06:58:13.07	341.59	19.02	-42.2	-43.1	22.0	0.00e+00	0	40	0	1633681408	55	4104
2026-01-22 06:58:14.08	341.42	18.93	-42.2	-43.0	22.0	0.00e+00	0	41	0	1636827136	55	4067
2026-01-22 06:58:15.09	341.24	18.84	-42.2	-43.1	21.9	0.00e+00	0	41	0	1639972864	55	4107
2026-01-22 06:58:16.10	341.07	18.76	-42.2	-43.0	21.9	0.00e+00	0	41	0	1643118592	55	4082
2026-01-22 06:58:17.11	340.90	18.67	-42.2	-43.0	21.9	0.00e+00	0	41	0	1646264320	55	4089
2026-01-22 06:58:18.11	340.73	18.58	-42.3	-43.1	21.8	0.00e+00	0	41	0	1649410048	55	4132
2026-01-22 06:58:19.12	340.56	18.49	-42.2	-43.0	21.9	0.00e+00	0	41	0	1652555776	55	4096
2026-01-22 06:58:20.13	340.39	18.41	-42.3	-43.1	21.9	0.00e+00	0	41	0	1655701504	55	4140
2026-01-22 06:58:21.14	340.22	18.32	-42.3	-43.1	21.9	0.00e+00	0	41	0	1658847232	55	4134
2026-01-22 06:58:22.14	340.06	18.23	-42.3	-43.2	21.8	0.00e+00	0	41	0	1661992960	55	4150
2026-01-22 06:58:23.15	339.89	18.15	-42.5	-43.3	21.7	0.00e+00	0	41	0	1665138688	55	4241
2026-01-22 06:58:24.16	339.73	18.06	-42.6	-43.5	21.6	0.00e+00	0	41	0	1668284416	55	4297
2026-01-22 06:58:25.17	339.56	17.97	-42.9	-43.8	21.4	0.00e+00	0	41	0	1671430144	56	4208
2026-01-22 06:58:26.17	339.40	17.89	-43.0	-43.9	21.3	0.00e+00	0	41	0	1674575872	56	4278
2026-01-22 06:58:27.18	339.24	17.80	-43.1	-44.0	21.2	0.00e+00	0	41	0	1677721600	56	4321
2026-01-22 06:58:28.19	339.08	17.71	-43.1	-44.0	21.2	0.00e+00	0	41	0	1680867328	56	4301
2026-01-22 06:58:29.20	338.92	17.62	-43.2	-44.1	21.1	0.00e+00	0	41	0	1684013056	56	4342
2026-01-22 06:58:30.20	338.76	17.54	-43.1	-44.0	21.1	0.00e+00	0	41	0	1687158784	56	4335
2026-01-22 06:58:31.21	338.60	17.45	-43.0	-43.9	21.2	0.00e+00	0	41	0	1690304512	56	4252
2026-01-22 06:58:32.22	338.44	17.37	-42.9	-43.7	21.4	0.00e+00	0	41	0	1693450240	56	4187
2026-01-22 06:58:33.23	338.29	17.28	-42.7	-43.5	21.6	0.00e+00	0	41	0	1696595968	56	4079
2026-01-22 06:58:34.24	338.13	17.19	-42.6	-43.5	21.6	0.00e+00	0	41	0	1699741696	56	4072
2026-01-22 06:58:35.24	337.98	17.11	-42.6	-43.4	21.7	0.00e+00	0	41	0	1702887424	56	4031
2026-01-22 06:58:36.25	337.82	17.02	-42.4	-43.3	21.8	0.00e+00	0	41	0	1706033152	56	3959
2026-01-22 06:58:37.26	337.67	16.93	-42.6	-43.4	21.7	0.00e+00	0	41	0	1709178880	56	4032
2026-01-22 06:58:38.27	337.52	16.85	-42.5	-43.4	21.7	0.00e+00	0	41	0	1712324608	56	4009
2026-01-22 06:58:39.28	337.37	16.76	-42.7	-43.5	21.6	0.00e+00	0	41	0	1715470336	56	4086
2026-01-22 06:58:40.28	337.22	16.68	-42.8	-43.7	21.4	0.00e+00	0	41	0	1718616064	56	4159
2026-01-22 06:58:41.29	337.07	16.59	-42.9	-43.8	21.4	0.00e+00	0	41	0	1721761792	56	4225
2026-01-22 06:58:42.30	336.92	16.51	-43.1	-44.0	21.2	0.00e+00	0	41	0	1724907520	56	4339
2026-01-22 06:58:43.31	336.77	16.42	-43.0	-43.9	21.2	0.00e+00	0	41	0	1728053248	56	4274
2026-01-22 06:58:44.32	336.63	16.34	-43.1	-44.0	21.2	0.00e+00	0	41	0	1731198976	56	4310
2026-01-22 06:58:45.33	336.48	16.25	-43.2	-44.1	21.0	0.00e+00	0	41	0	1734344704	57	4142
2026-01-22 06:58:46.34	336.34	16.16	-42.9	-43.7	21.3	0.00e+00	0	41	0	1737490432	57	3958
2026-01-22 06:58:47.34	336.19	16.08	-42.8	-43.7	21.4	0.00e+00	0	40	0	1740636160	57	3930
2026-01-22 06:58:48.35	336.05	16.00	-43.0	-43.8	21.3	0.00e+00	0	40	0	1743781888	57	4002
2026-01-22 06:58:49.36	335.91	15.91	-42.9	-43.8	21.3	0.00e+00	0	41	0	1746927616	57	3989
2026-01-22 06:58:50.37	335.76	15.83	-42.7	-43.5	21.5	0.00e+00	0	41	0	1750073344	57	3865
2026-01-22 06:58:51.38	335.62	15.74	-42.5	-43.3	21.7	0.00e+00	0	41	0	1753219072	57	3774
2026-01-22 06:58:52.38	335.48	15.66	-42.5	-43.3	21.7	0.00e+00	0	41	0	1756364800	57	3768
2026-01-22 06:58:53.39	335.35	15.57	-42.6	-43.5	21.6	0.00e+00	0	41	0	1759510528	57	3826
2026-01-22 06:58:54.40	335.21	15.49	-42.7	-43.5	21.6	0.00e+00	0	41	0	1762656256	57	3852
2026-01-22 06:58:55.41	335.07	15.40	-42.8	-43.7	21.4	0.00e+00	0	41	0	1765801984	57	3939
2026-01-22 06:58:56.42	334.93	15.32	-43.0	-43.8	21.3	0.00e+00	0	41	0	1768947712	57	3998
2026-01-22 06:58:57.42	334.80	15.24	-43.1	-44.0	21.1	0.00e+00	0	41	0	1772093440	57	4076
2026-01-22 06:58:58.43	334.66	15.15	-43.2	-44.1	21.0	0.00e+00	0	41	0	1775239168	57	4140
2026-01-22 06:58:59.44	334.53	15.07	-43.2	-44.1	21.0	0.00e+00	0	41	0	1778384896	57	4123
2026-01-22 06:59:00.45	334.39	14.99	-43.2	-44.1	21.0	0.00e+00	0	41	0	1781530624	57	4138
2026-01-22 06:59:01.46	334.26	14.90	-43.0	-43.9	21.2	0.00e+00	0	41	0	1784676352	57	4036
2026-01-22 06:59:02.46	334.13	14.82	-43.1	-43.9	21.1	0.00e+00	0	41	0	1787822080	57	4048
2026-01-22 06:59:03.47	334.00	14.74	-42.9	-43.8	21.3	0.00e+00	0	41	0	1790967808	57	3959
2026-01-22 06:59:04.48	333.87	14.65	-42.7	-43.6	21.4	0.00e+00	0	41	0	1794113536	57	3875
2026-01-22 06:59:05.49	333.74	14.57	-42.6	-43.4	21.6	0.00e+00	0	41	0	1797259264	57	3821
2026-01-22 06:59:06.50	333.61	14.49	-42.5	-43.4	21.6	0.00e+00	0	41	0	1800404992	57	3788
2026-01-22 06:59:07.50	333.48	14.41	-42.6	-43.4	21.6	0.00e+00	0	40	0	1803550720	57	3822
2026-01-22 06:59:08.51	333.35	14.32	-42.4	-43.2	21.7	0.00e+00	0	41	0	1806696448	56	3954
2026-01-22 06:59:09.52	333.22	14.24	-42.3	-43.2	21.8	0.00e+00	0	41	0	1809842176	56	3916
2026-01-22 06:59:10.53	333.10	14.16	-42.5	-43.3	21.7	0.00e+00	0	40	0	1812987904	56	3992
2026-01-22 06:59:11.54	332.97	14.08	-42.5	-43.4	21.6	0.00e+00	0	41	0	1816133632	56	4017
2026-01-22 06:59:12.54	332.85	13.99	-42.6	-43.5	21.5	0.00e+00	0	41	0	1819279360	56	4060
2026-01-22 06:59:13.55	332.72	13.91	-42.7	-43.6	21.4	0.00e+00	0	41	0	1822425088	56	4115
2026-01-22 06:59:14.56	332.60	13.83	-42.8	-43.7	21.3	0.00e+00	0	41	0	1825570816	56	4161
2026-01-22 06:59:15.57	332.48	13.75	-43.0	-43.9	21.1	0.00e+00	0	41	0	1828716544	56	4279
2026-01-22 06:59:16.58	332.35	13.67	-43.1	-44.0	21.1	0.00e+00	0	41	0	1831862272	56	4315
2026-01-22 06:59:17.58	332.23	13.59	-43.2	-44.1	21.0	0.00e+00	0	41	0	1835008000	56	4349
2026-01-22 06:59:18.59	332.11	13.51	-43.2	-44.1	20.9	0.00e+00	0	41	0	1838153728	57	4121
2026-01-22 06:59:19.60	331.99	13.42	-43.3	-44.2	20.8	0.00e+00	0	41	0	1841299456	57	4184
2026-01-22 06:59:20.61	331.87	13.34	-43.2	-44.1	20.8	0.00e+00	0	41	0	1844445184	57	4111
2026-01-22 06:59:21.61	331.76	13.26	-43.1	-44.0	21.0	0.00e+00	0	41	0	1847590912	57	4065
2026-01-22 06:59:22.62	331.64	13.18	-43.0	-43.9	21.0	0.00e+00	0	41	0	1850736640	57	4015
2026-01-22 06:59:23.64	331.52	13.10	-43.1	-44.0	20.9	0.00e+00	0	41	0	1853882368	57	4079
2026-01-22 06:59:24.64	331.40	13.02	-42.9	-43.7	21.2	0.00e+00	0	41	0	1857028096	57	3948
2026-01-22 06:59:25.65	331.29	12.94	-42.6	-43.5	21.4	0.00e+00	0	41	0	1860173824	57	3837
2026-01-22 06:59:26.66	331.17	12.86	-42.5	-43.4	21.5	0.00e+00	0	41	0	1863319552	57	3797
2026-01-22 06:59:27.66	331.06	12.78	-42.6	-43.4	21.5	0.00e+00	0	41	0	1866465280	57	3812
2026-01-22 06:59:28.67	330.94	12.70	-42.7	-43.5	21.4	0.00e+00	0	40	0	1869611008	57	3862
2026-01-22 06:59:29.68	330.83	12.62	-42.7	-43.6	21.4	0.00e+00	0	41	0	1872756736	57	3873
2026-01-22 06:59:30.69	330.72	12.54	-42.6	-43.5	21.5	0.00e+00	0	41	0	1875902464	57	3832
2026-01-22 06:59:31.70	330.60	12.46	-42.8	-43.7	21.3	0.00e+00	0	41	0	1879048192	57	3916
2026-01-22 06:59:32.70	330.49	12.39	-42.9	-43.8	21.2	0.00e+00	0	41	0	1882193920	57	3992
2026-01-22 06:59:33.71	330.38	12.31	-43.0	-43.9	21.1	0.00e+00	0	41	0	1885339648	57	4048
2026-01-22 06:59:34.72	330.27	12.23	-43.3	-44.3	20.8	0.00e+00	0	41	0	1888485376	57	4203
2026-01-22 06:59:35.73	330.16	12.15	-43.6	-44.6	20.5	0.00e+00	0	41	0	1891631104	57	4341
2026-01-22 06:59:36.74	330.05	12.07	-43.7	-44.7	20.4	0.00e+00	0	41	0	1894776832	57	4414
2026-01-22 06:59:37.74	329.94	11.99	-44.0	-45.0	20.2	0.00e+00	0	41	0	1897922560	58	4297
2026-01-22 06:59:38.75	329.84	11.91	-43.9	-44.9	20.2	0.00e+00	0	41	0	1901068288	58	4250
2026-01-22 06:59:39.76	329.73	11.84	-43.9	-44.9	20.1	0.00e+00	0	41	0	1904214016	58	4287
2026-01-22 06:59:40.77	329.62	11.76	-43.9	-44.9	20.1	0.00e+00	0	41	0	1907359744	58	4286
2026-01-22 06:59:41.78	329.52	11.68	-44.0	-45.0	20.1	0.00e+00	0	41	0	1910505472	58	4313
2026-01-22 06:59:42.78	329.41	11.60	-43.8	-44.7	20.3	0.00e+00	0	41	0	1913651200	58	4187
2026-01-22 06:59:43.79	329.31	11.53	-43.7	-44.7	20.4	0.00e+00	0	41	0	1916796928	58	4149
2026-01-22 06:59:44.80	329.20	11.45	-43.9	-44.9	20.2	0.00e+00	0	41	0	1919942656	58	4264
2026-01-22 06:59:45.81	329.10	11.37	-43.7	-44.7	20.3	0.00e+00	0	41	0	1923088384	58	4155
2026-01-22 06:59:46.82	328.99	11.29	-43.5	-44.4	20.5	0.00e+00	0	41	0	1926234112	58	4051
2026-01-22 06:59:47.82	328.89	11.22	-43.6	-44.5	20.5	0.00e+00	0	41	0	1929379840	58	4092
2026-01-22 06:59:48.83	328.79	11.14	-43.6	-44.6	20.4	0.00e+00	0	41	0	1932525568	58	4112
2026-01-22 06:59:49.84	328.69	11.06	-43.4	-44.3	20.6	0.00e+00	0	41	0	1935671296	58	4003
2026-01-22 06:59:50.85	328.59	10.99	-43.5	-44.4	20.5	0.00e+00	0	41	0	1938817024	58	4049
2026-01-22 06:59:51.86	328.48	10.91	-43.7	-44.6	20.4	0.00e+00	0	41	0	1941962752	58	4141
2026-01-22 06:59:52.86	328.39	10.84	-43.6	-44.6	20.4	0.00e+00	0	41	0	1945108480	58	4101
2026-01-22 06:59:53.87	328.29	10.76	-43.8	-44.8	20.2	0.00e+00	0	41	0	1948254208	58	4207
2026-01-22 06:59:54.88	328.19	10.68	-43.8	-44.8	20.2	0.00e+00	0	41	0	1951399936	58	4210
2026-01-22 06:59:55.88	328.09	10.61	-44.0	-45.0	20.0	0.00e+00	0	41	0	1954545664	58	4340
2026-01-22 06:59:56.89	327.99	10.53	-44.2	-45.2	19.9	0.00e+00	0	41	0	1957691392	59	4162
2026-01-22 06:59:57.90	327.89	10.46	-44.4	-45.4	19.7	0.00e+00	0	41	0	1960837120	59	4266
2026-01-22 06:59:58.91	327.80	10.38	-44.6	-45.7	19.4	0.00e+00	0	41	0	1963982848	59	4416
2026-01-22 06:59:59.92	327.70	10.31	-44.5	-45.6	19.2	0.00e+00	0	41	0	1967128576	60	4110
2026-01-22 07:00:00.92	327.60	10.23	-44.1	-45.1	19.6	0.00e+00	0	41	0	1970274304	60	3894
2026-01-22 07:00:01.93	327.51	10.16	-44.2	-45.3	19.5	0.00e+00	0	41	0	1973420032	60	3975
2026-01-22 07:00:02.94	327.41	10.08	-44.2	-45.2	19.5	0.00e+00	0	40	0	1976565760	60	3957
2026-01-22 07:00:03.95	327.32	10.01	-44.2	-45.3	19.5	0.00e+00	0	41	0	1979711488	60	3974
2026-01-22 07:00:04.96	327.22	9.93	-44.3	-45.4	19.3	0.00e+00	0	41	0	1982857216	60	4041
2026-01-22 07:00:05.96	327.13	9.86	-44.4	-45.5	19.3	0.00e+00	0	41	0	1986002944	60	4063
2026-01-22 07:00:06.97	327.04	9.79	-44.2	-45.3	19.4	0.00e+00	0	41	0	1989148672	60	3977
2026-01-22 07:00:07.98	326.95	9.71	-44.3	-45.3	19.4	0.00e+00	0	41	0	1992294400	60	3993
2026-01-22 07:00:08.99	326.85	9.64	-44.3	-45.4	19.3	0.00e+00	0	41	0	1995440128	60	4020
2026-01-22 07:00:10.00	326.76	9.56	-44.4	-45.5	19.2	0.00e+00	0	41	0	1998585856	60	4068
2026-01-22 07:00:11.00	326.67	9.49	-44.4	-45.4	19.2	0.00e+00	0	41	0	2001731584	60	4040
2026-01-22 07:00:12.01	326.58	9.42	-44.5	-45.6	19.0	0.00e+00	0	41	0	2004877312	60	4132
2026-01-22 07:00:13.02	326.49	9.35	-44.6	-45.8	18.9	0.00e+00	0	41	0	2008023040	60	4198
2026-01-22 07:00:14.03	326.40	9.27	-44.6	-45.7	19.0	0.00e+00	0	41	0	2012217344	60	4168
2026-01-22 07:00:15.04	326.31	9.20	-44.5	-45.6	19.0	0.00e+00	0	41	0	2014314496	60	4130
2026-01-22 07:00:16.04	326.22	9.13	-44.6	-45.7	19.0	0.00e+00	0	41	0	2017460224	60	4159
2026-01-22 07:00:17.05	326.14	9.05	-44.6	-45.7	19.0	0.00e+00	0	41	0	2020605952	60	4164
2026-01-22 07:00:18.06	326.05	8.98	-44.1	-45.2	19.5	0.00e+00	0	41	0	2023751680	60	3928
2026-01-22 07:00:19.07	325.96	8.91	-44.3	-45.3	19.6	0.00e+00	0	41	0	2026897408	59	4239
2026-01-22 07:00:20.07	325.87	8.84	-44.3	-45.3	19.6	0.00e+00	0	41	0	2030043136	59	4229
2026-01-22 07:00:21.08	325.79	8.77	-44.5	-45.5	19.4	0.00e+00	0	41	0	2033188864	59	4334
2026-01-22 07:00:22.09	325.70	8.69	-44.5	-45.5	19.4	0.00e+00	0	41	0	2036334592	59	4338
2026-01-22 07:00:23.10	325.62	8.62	-44.5	-45.6	19.3	0.00e+00	0	41	0	2039480320	59	4361
2026-01-22 07:00:24.11	325.53	8.55	-44.6	-45.7	19.2	0.00e+00	0	41	0	2042626048	59	4410
2026-01-22 07:00:25.11	325.45	8.48	-44.5	-45.6	19.0	0.00e+00	0	40	0	2045771776	60	4136
2026-01-22 07:00:26.12	325.36	8.41	-44.7	-45.9	18.7	0.00e+00	0	41	0	2048917504	60	4250
2026-01-22 07:00:27.13	325.28	8.34	-44.8	-46.0	18.6	0.00e+00	0	41	0	2053111808	60	4319
2026-01-22 07:00:28.14	325.20	8.26	-44.6	-45.7	18.9	0.00e+00	0	41	0	2056257536	60	4190
