passes_logs/2026/01/22/R3.2S_Murmansk/R3.2S_Murmansk__20260122_013801_FENGYUN_3D_rec.log

#Pass ID: 20260122_013801_FENGYUN 3D
#Satellite: FENGYUN 3D
#Configuration: FENGYUN 3D
#almurnet v.1.7.20251203
#Start time: 2026-01-22 01:38:02

#Version: 2.2.20231116
#Station: R3.2S_Murmansk
#Location: 33.079688 lon 68.888172 lat
#TLE: 1 43010U 17072A   26021.48744220  .00000253  00000+0  14133-3 0  9991
#TLE: 2 43010  98.9948 353.4037 0002485  97.2578 262.8880 14.19697766424177

#Time	Az	El	Level	Level2	SNR	BER	BlckErr	Temp	State	Recorded	gain1	gain2
2026-01-22 01:38:02.15	21.60	2.05	-52.4	-64.3	3.8	8.47e-01	0	39	0	0	76	14114
2026-01-22 01:38:03.15	21.63	2.11	-52.3	-64.3	3.8	8.46e-01	0	39	104	0	75	14977
2026-01-22 01:38:04.16	21.67	2.17	-52.3	-64.2	3.8	8.46e-01	0	39	104	0	75	14863
2026-01-22 01:38:05.17	21.71	2.24	-52.3	-64.2	3.8	8.47e-01	0	39	104	0	75	14877
2026-01-22 01:38:06.17	21.74	2.30	-52.3	-64.3	3.8	8.47e-01	0	39	104	0	75	14902
2026-01-22 01:38:07.18	21.78	2.36	-52.3	-64.3	3.8	8.47e-01	0	39	104	0	75	14914
2026-01-22 01:38:08.19	21.82	2.42	-52.3	-64.3	3.8	8.46e-01	0	39	104	0	75	14910
2026-01-22 01:38:09.20	21.86	2.49	-52.3	-64.3	3.8	8.46e-01	0	39	104	0	75	14956
2026-01-22 01:38:10.21	21.89	2.55	-52.3	-64.2	3.8	8.47e-01	0	39	104	0	75	14856
2026-01-22 01:38:11.21	21.93	2.61	-52.3	-64.2	3.8	8.46e-01	0	39	104	0	75	14840
2026-01-22 01:38:12.22	21.97	2.68	-52.3	-64.1	3.8	8.45e-01	0	39	104	0	75	14651
2026-01-22 01:38:13.23	22.01	2.74	-52.3	-64.1	3.8	8.46e-01	0	39	104	0	75	14651
2026-01-22 01:38:14.24	22.05	2.80	-52.3	-64.0	3.8	8.47e-01	0	39	104	0	75	14482
2026-01-22 01:38:15.25	22.08	2.87	-52.3	-64.0	3.8	8.46e-01	0	39	104	0	75	14415
2026-01-22 01:38:16.25	22.12	2.93	-52.3	-64.1	3.8	8.46e-01	0	39	104	0	75	14649
2026-01-22 01:38:17.26	22.16	2.99	-52.3	-64.1	3.8	8.46e-01	0	39	104	0	75	14648
2026-01-22 01:38:18.27	22.20	3.06	-52.3	-64.2	3.8	8.46e-01	0	39	104	0	75	14773
2026-01-22 01:38:19.28	22.24	3.12	-52.3	-64.3	3.8	8.47e-01	0	39	104	0	75	14913
2026-01-22 01:38:20.29	22.28	3.19	-52.3	-64.3	3.8	8.46e-01	0	40	104	0	75	14901
2026-01-22 01:38:21.29	22.32	3.25	-52.3	-64.1	3.8	8.46e-01	0	39	104	0	75	14645
2026-01-22 01:38:22.30	22.36	3.32	-52.3	-63.9	3.8	8.46e-01	0	40	104	0	75	14287
2026-01-22 01:38:23.31	22.40	3.38	-52.3	-63.5	3.8	8.46e-01	0	40	104	0	75	13635
2026-01-22 01:38:24.32	22.44	3.45	-52.2	-63.4	3.8	8.46e-01	0	40	104	0	75	13454
2026-01-22 01:38:25.33	22.48	3.51	-52.2	-63.0	3.8	8.46e-01	0	39	104	0	75	12900
2026-01-22 01:38:26.33	22.52	3.58	-52.2	-63.3	3.8	8.46e-01	0	39	104	0	75	13265
2026-01-22 01:38:27.34	22.56	3.64	-52.2	-62.9	3.8	8.45e-01	0	40	104	0	75	12784
2026-01-22 01:38:28.35	22.60	3.71	-52.1	-62.4	3.8	8.46e-01	0	39	104	0	75	12050
2026-01-22 01:38:29.36	22.64	3.77	-51.9	-60.7	4.2	8.41e-01	0	40	104	0	75	9845
2026-01-22 01:38:30.37	22.68	3.84	-51.6	-58.9	4.9	8.08e-01	0	40	0	0	75	8036
2026-01-22 01:38:31.38	22.72	3.91	-51.0	-56.3	6.7	2.22e-01	0	40	0	3145728	74	6317
2026-01-22 01:38:32.39	22.76	3.97	-50.0	-53.7	9.3	3.23e-02	0	40	0	8388608	71	5545
2026-01-22 01:38:33.40	22.80	4.04	-49.2	-52.3	10.9	5.51e-03	0	40	0	14680064	70	4984
2026-01-22 01:38:34.41	22.84	4.11	-48.0	-50.4	12.9	2.00e-04	0	40	0	19922944	68	4497
2026-01-22 01:38:35.41	22.88	4.17	-46.8	-48.6	14.6	2.20e-06	0	40	0	25165824	65	4380
2026-01-22 01:38:36.42	22.93	4.24	-46.2	-47.9	15.3	0.00e+00	0	40	0	31457280	64	4265
2026-01-22 01:38:37.43	22.97	4.31	-45.8	-47.3	16.0	0.00e+00	0	40	0	36700160	63	4229
2026-01-22 01:38:38.44	23.01	4.37	-44.3	-45.5	17.8	0.00e+00	0	40	0	41943040	60	4088
2026-01-22 01:38:39.45	23.05	4.44	-44.2	-45.4	17.9	0.00e+00	0	40	0	48234496	60	4020
2026-01-22 01:38:40.45	23.09	4.51	-43.8	-44.9	18.8	0.00e+00	0	40	0	54525952	59	4027
2026-01-22 01:38:41.46	23.14	4.58	-43.8	-45.0	18.7	0.00e+00	0	40	0	59768832	59	4055
2026-01-22 01:38:42.47	23.18	4.64	-43.8	-44.9	18.8	0.00e+00	0	40	0	65011712	59	4024
2026-01-22 01:38:43.48	23.22	4.71	-43.9	-45.1	18.5	0.00e+00	0	40	0	71303168	59	4113
2026-01-22 01:38:44.49	23.26	4.78	-44.3	-45.6	18.1	0.00e+00	0	40	0	76546048	59	4348
2026-01-22 01:38:45.50	23.31	4.85	-44.4	-45.7	17.6	0.00e+00	0	40	0	82837504	60	4163
2026-01-22 01:38:46.51	23.35	4.92	-45.1	-46.5	16.8	0.00e+00	0	40	0	88080384	60	4593
2026-01-22 01:38:47.52	23.39	4.99	-45.9	-47.5	15.8	0.00e+00	0	40	0	93323264	62	4585
2026-01-22 01:38:48.52	23.44	5.05	-44.0	-45.1	18.1	0.00e+00	0	40	0	99614720	60	3913
2026-01-22 01:38:49.53	23.48	5.12	-44.2	-45.5	18.4	0.00e+00	0	40	0	104857600	58	4554
2026-01-22 01:38:50.54	23.53	5.19	-47.2	-49.1	14.0	6.00e-01	0	40	0	109051904	66	4360
2026-01-22 01:38:51.55	23.57	5.26	-43.8	-44.9	18.8	0.00e+00	0	40	0	114294784	59	4036
2026-01-22 01:38:52.56	23.62	5.33	-45.9	-47.4	16.3	0.00e+00	0	40	0	120586240	62	4532
2026-01-22 01:38:53.56	23.66	5.40	-44.9	-46.2	17.1	3.52e-02	0	40	0	125829120	62	3935
2026-01-22 01:38:54.57	23.70	5.47	-43.7	-44.8	19.0	0.00e+00	0	40	0	132120576	58	4229
2026-01-22 01:38:55.58	23.75	5.54	-43.4	-44.5	19.4	0.00e+00	0	40	0	137363456	58	4057
2026-01-22 01:38:56.59	23.80	5.61	-43.8	-44.9	19.0	0.00e+00	0	40	0	142606336	58	4266
2026-01-22 01:38:57.60	23.84	5.68	-43.0	-44.1	19.8	0.00e+00	0	40	0	148897792	58	3878
2026-01-22 01:38:58.61	23.89	5.75	-43.1	-44.1	19.7	0.00e+00	0	40	0	154140672	57	4116
2026-01-22 01:38:59.62	23.93	5.82	-42.8	-43.8	20.0	0.00e+00	0	40	0	160432128	57	3982
2026-01-22 01:39:00.63	23.98	5.89	-43.0	-44.0	19.9	0.00e+00	0	40	0	165675008	57	4073
2026-01-22 01:39:01.63	24.02	5.96	-43.1	-44.1	19.8	0.00e+00	0	40	0	170917888	57	4113
2026-01-22 01:39:02.64	24.07	6.04	-42.7	-43.7	20.2	0.00e+00	0	40	0	177209344	57	3922
2026-01-22 01:39:03.65	24.12	6.11	-42.9	-44.0	19.9	0.00e+00	0	40	0	182452224	57	4061
2026-01-22 01:39:04.66	24.16	6.18	-42.8	-43.8	20.1	0.00e+00	0	40	0	188743680	57	3964
2026-01-22 01:39:05.66	24.21	6.25	-42.8	-43.8	20.1	0.00e+00	0	40	0	193986560	57	3981
2026-01-22 01:39:06.67	24.26	6.32	-42.8	-43.8	20.1	0.00e+00	0	40	0	200278016	57	3965
2026-01-22 01:39:07.68	24.31	6.39	-42.8	-43.8	20.1	0.00e+00	0	40	0	205520896	57	3961
2026-01-22 01:39:08.69	24.35	6.47	-42.8	-43.8	20.1	0.00e+00	0	40	0	210763776	57	3987
2026-01-22 01:39:09.70	24.40	6.54	-42.9	-43.9	20.0	0.00e+00	0	40	0	217055232	57	4005
2026-01-22 01:39:10.70	24.45	6.61	-42.8	-43.8	20.1	0.00e+00	0	40	0	222298112	57	3977
2026-01-22 01:39:11.71	24.50	6.68	-42.8	-43.8	20.1	0.00e+00	0	40	0	227540992	57	3987
2026-01-22 01:39:12.72	24.55	6.76	-42.7	-43.6	20.3	0.00e+00	0	40	0	233832448	57	3909
2026-01-22 01:39:13.73	24.60	6.83	-42.6	-43.6	20.3	0.00e+00	0	40	0	239075328	57	3908
2026-01-22 01:39:14.74	24.64	6.91	-42.7	-43.7	20.3	0.00e+00	0	40	0	245366784	57	3926
2026-01-22 01:39:15.74	24.69	6.98	-42.5	-43.4	20.5	0.00e+00	0	40	0	250609664	57	3824
2026-01-22 01:39:16.75	24.74	7.05	-42.6	-43.6	20.4	0.00e+00	0	40	0	256901120	57	3901
2026-01-22 01:39:17.76	24.79	7.13	-42.5	-43.5	20.5	0.00e+00	0	40	0	262144000	57	3840
2026-01-22 01:39:18.77	24.84	7.20	-42.4	-43.4	20.5	0.00e+00	0	40	0	268435456	56	4027
2026-01-22 01:39:19.78	24.89	7.28	-42.4	-43.4	20.6	0.00e+00	0	40	0	273678336	56	4011
2026-01-22 01:39:20.78	24.94	7.35	-42.2	-43.2	20.8	0.00e+00	0	40	0	278921216	56	3921
2026-01-22 01:39:21.79	24.99	7.42	-42.5	-43.4	20.6	0.00e+00	0	40	0	285212672	56	4032
2026-01-22 01:39:22.80	25.04	7.50	-42.6	-43.5	20.4	0.00e+00	0	40	0	290455552	56	4097
2026-01-22 01:39:23.81	25.10	7.58	-42.3	-43.2	20.8	0.00e+00	0	40	0	295698432	56	3946
2026-01-22 01:39:24.82	25.15	7.65	-42.4	-43.3	20.7	0.00e+00	0	40	0	301989888	56	3987
2026-01-22 01:39:25.83	25.20	7.73	-42.5	-43.4	20.5	0.00e+00	0	40	0	307232768	56	4048
2026-01-22 01:39:26.83	25.25	7.80	-42.3	-43.2	20.8	0.00e+00	0	40	0	312475648	56	3953
2026-01-22 01:39:27.84	25.30	7.88	-42.2	-43.2	20.8	0.00e+00	0	40	0	318767104	56	3916
2026-01-22 01:39:28.85	25.35	7.95	-42.4	-43.4	20.6	0.00e+00	0	40	0	324009984	56	4021
2026-01-22 01:39:29.86	25.41	8.03	-42.2	-43.1	20.9	0.00e+00	0	40	0	330301440	56	3891
2026-01-22 01:39:30.86	25.46	8.11	-41.9	-42.8	21.1	0.00e+00	0	40	0	335544320	55	3997
2026-01-22 01:39:31.87	25.51	8.18	-42.0	-42.9	21.0	0.00e+00	0	40	0	341835776	55	4027
2026-01-22 01:39:32.88	25.57	8.26	-42.0	-42.9	21.0	0.00e+00	0	40	0	347078656	55	4039
2026-01-22 01:39:33.89	25.62	8.34	-41.9	-42.8	21.1	0.00e+00	0	40	0	353370112	55	4003
2026-01-22 01:39:34.90	25.67	8.42	-41.8	-42.7	21.2	0.00e+00	0	40	0	358612992	55	3948
2026-01-22 01:39:35.90	25.73	8.49	-41.8	-42.7	21.3	0.00e+00	0	40	0	363855872	55	3949
2026-01-22 01:39:36.91	25.78	8.57	-41.9	-42.8	21.2	0.00e+00	0	40	0	370147328	55	3962
2026-01-22 01:39:37.92	25.84	8.65	-41.9	-42.8	21.2	0.00e+00	0	40	0	375390208	55	3983
2026-01-22 01:39:38.93	25.89	8.73	-41.9	-42.8	21.2	0.00e+00	0	40	0	380633088	55	3995
2026-01-22 01:39:39.94	25.95	8.81	-41.9	-42.8	21.2	0.00e+00	0	40	0	386924544	55	3965
2026-01-22 01:39:40.94	26.00	8.89	-41.9	-42.8	21.2	0.00e+00	0	40	0	392167424	55	3986
2026-01-22 01:39:41.95	26.06	8.97	-41.9	-42.8	21.2	0.00e+00	0	40	0	398458880	55	3963
2026-01-22 01:39:42.96	26.11	9.05	-41.8	-42.7	21.4	0.00e+00	0	40	0	403701760	55	3914
2026-01-22 01:39:43.97	26.17	9.13	-41.9	-42.8	21.3	0.00e+00	0	40	0	409993216	55	3980
2026-01-22 01:39:44.98	26.23	9.21	-41.7	-42.6	21.4	0.00e+00	0	40	0	415236096	55	3898
2026-01-22 01:39:45.98	26.28	9.29	-41.8	-42.7	21.3	0.00e+00	0	40	0	420478976	55	3940
2026-01-22 01:39:46.99	26.34	9.37	-41.6	-42.5	21.5	0.00e+00	0	40	0	426770432	55	3845
2026-01-22 01:39:48.00	26.40	9.45	-41.6	-42.5	21.6	0.00e+00	0	40	0	432013312	55	3846
2026-01-22 01:39:49.01	26.46	9.53	-41.7	-42.6	21.5	0.00e+00	0	40	0	438304768	55	3874
2026-01-22 01:39:50.01	26.51	9.61	-41.6	-42.4	21.6	0.00e+00	0	40	0	443547648	55	3822
2026-01-22 01:39:51.02	26.57	9.69	-41.5	-42.4	21.6	0.00e+00	0	40	0	448790528	55	3796
2026-01-22 01:39:52.03	26.63	9.77	-41.6	-42.4	21.6	0.00e+00	0	40	0	455081984	55	3821
2026-01-22 01:39:53.04	26.69	9.85	-41.5	-42.3	21.7	0.00e+00	0	40	0	460324864	54	3993
2026-01-22 01:39:54.04	26.75	9.93	-41.4	-42.3	21.8	0.00e+00	0	40	0	465567744	54	3983
2026-01-22 01:39:55.05	26.81	10.02	-41.4	-42.3	21.8	0.00e+00	0	40	0	471859200	54	3959
2026-01-22 01:39:56.06	26.87	10.10	-41.4	-42.2	21.8	0.00e+00	0	40	0	478150656	54	3949
2026-01-22 01:39:57.07	26.93	10.18	-41.3	-42.1	21.9	0.00e+00	0	41	0	483393536	54	3904
2026-01-22 01:39:58.08	26.99	10.27	-41.3	-42.2	21.9	0.00e+00	0	40	0	488636416	54	3927
2026-01-22 01:39:59.09	27.05	10.35	-41.3	-42.2	21.9	0.00e+00	0	40	0	494927872	54	3914
2026-01-22 01:40:00.10	27.11	10.43	-41.3	-42.1	22.0	0.00e+00	0	40	0	500170752	54	3902
2026-01-22 01:40:01.11	27.17	10.52	-41.4	-42.2	21.8	0.00e+00	0	40	0	506462208	54	3949
2026-01-22 01:40:02.12	27.23	10.60	-41.3	-42.1	21.9	0.00e+00	0	41	0	511705088	54	3908
2026-01-22 01:40:03.12	27.30	10.69	-41.1	-42.0	22.1	0.00e+00	0	40	0	516947968	54	3831
2026-01-22 01:40:04.13	27.36	10.77	-41.1	-41.9	22.2	0.00e+00	0	41	0	523239424	54	3813
2026-01-22 01:40:05.14	27.42	10.86	-41.2	-42.0	22.1	0.00e+00	0	40	0	528482304	54	3860
2026-01-22 01:40:06.15	27.48	10.94	-41.0	-41.9	22.2	0.00e+00	0	40	0	533725184	54	3790
2026-01-22 01:40:07.16	27.55	11.03	-41.0	-41.8	22.3	0.00e+00	0	40	0	540016640	53	3971
2026-01-22 01:40:08.17	27.61	11.11	-41.0	-41.8	22.2	0.00e+00	0	41	0	546308096	53	4004
2026-01-22 01:40:09.18	27.68	11.20	-41.0	-41.8	22.3	0.00e+00	0	41	0	551550976	53	3993
2026-01-22 01:40:10.18	27.74	11.28	-41.0	-41.8	22.3	0.00e+00	0	41	0	556793856	53	3994
2026-01-22 01:40:11.19	27.80	11.37	-40.8	-41.6	22.4	0.00e+00	0	40	0	563085312	53	3912
2026-01-22 01:40:12.20	27.87	11.46	-40.9	-41.7	22.4	0.00e+00	0	41	0	568328192	53	3930
2026-01-22 01:40:13.21	27.94	11.55	-41.0	-41.8	22.3	0.00e+00	0	40	0	573571072	53	3970
2026-01-22 01:40:14.22	28.00	11.63	-40.9	-41.7	22.4	0.00e+00	0	40	0	579862528	53	3951
2026-01-22 01:40:15.22	28.07	11.72	-41.0	-41.8	22.3	0.00e+00	0	40	0	585105408	53	3973
2026-01-22 01:40:16.23	28.13	11.81	-41.1	-41.9	22.2	0.00e+00	0	40	0	591396864	53	4019
2026-01-22 01:40:17.24	28.20	11.90	-41.0	-41.8	22.3	0.00e+00	0	40	0	596639744	53	4002
2026-01-22 01:40:18.25	28.27	11.98	-41.0	-41.8	22.3	0.00e+00	0	40	0	601882624	53	3991
2026-01-22 01:40:19.25	28.34	12.07	-41.0	-41.8	22.3	0.00e+00	0	40	0	608174080	53	3999
2026-01-22 01:40:20.26	28.40	12.16	-41.0	-41.9	22.3	0.00e+00	0	41	0	614465536	53	4006
2026-01-22 01:40:21.27	28.47	12.25	-41.1	-41.9	22.2	0.00e+00	0	40	0	619708416	53	4045
2026-01-22 01:40:22.28	28.54	12.34	-40.9	-41.8	22.4	0.00e+00	0	41	0	624951296	53	3964
2026-01-22 01:40:23.29	28.61	12.43	-41.0	-41.8	22.4	0.00e+00	0	41	0	631242752	53	3970
2026-01-22 01:40:24.30	28.68	12.52	-40.9	-41.7	22.4	0.00e+00	0	41	0	636485632	53	3943
2026-01-22 01:40:25.31	28.75	12.61	-40.8	-41.6	22.5	0.00e+00	0	40	0	641728512	53	3909
2026-01-22 01:40:26.32	28.82	12.70	-40.9	-41.7	22.5	0.00e+00	0	41	0	648019968	53	3923
2026-01-22 01:40:27.33	28.89	12.80	-40.9	-41.7	22.5	0.00e+00	0	41	0	653262848	53	3933
2026-01-22 01:40:28.33	28.96	12.89	-40.7	-41.5	22.7	0.00e+00	0	40	0	658505728	53	3853
2026-01-22 01:40:29.34	29.04	12.98	-40.7	-41.5	22.7	0.00e+00	0	40	0	664797184	53	3855
2026-01-22 01:40:30.35	29.11	13.07	-40.7	-41.5	22.7	0.00e+00	0	41	0	670040064	53	3853
2026-01-22 01:40:31.36	29.18	13.16	-40.7	-41.5	22.7	0.00e+00	0	41	0	676331520	53	3848
2026-01-22 01:40:32.37	29.25	13.26	-40.7	-41.5	22.7	0.00e+00	0	40	0	681574400	53	3853
2026-01-22 01:40:33.37	29.33	13.35	-40.7	-41.5	22.6	0.00e+00	0	41	0	687865856	53	3857
2026-01-22 01:40:34.38	29.40	13.44	-40.7	-41.5	22.7	0.00e+00	0	41	0	693108736	53	3847
2026-01-22 01:40:35.39	29.47	13.54	-40.8	-41.6	22.6	0.00e+00	0	40	0	699400192	53	3903
2026-01-22 01:40:36.40	29.55	13.63	-40.6	-41.4	22.7	0.00e+00	0	40	0	704643072	53	3813
2026-01-22 01:40:37.41	29.62	13.72	-40.5	-41.3	22.8	0.00e+00	0	41	0	709885952	53	3773
2026-01-22 01:40:38.42	29.70	13.82	-40.6	-41.5	22.7	0.00e+00	0	41	0	716177408	53	3833
2026-01-22 01:40:39.43	29.78	13.91	-40.5	-41.3	22.9	0.00e+00	0	40	0	721420288	53	3758
2026-01-22 01:40:40.44	29.85	14.01	-40.6	-41.4	22.8	0.00e+00	0	40	0	726663168	53	3801
2026-01-22 01:40:41.44	29.93	14.11	-40.6	-41.4	22.8	0.00e+00	0	41	0	732954624	53	3791
2026-01-22 01:40:42.45	30.01	14.20	-40.5	-41.3	22.9	0.00e+00	0	41	0	739246080	53	3763
2026-01-22 01:40:43.46	30.09	14.30	-40.4	-41.2	23.0	0.00e+00	0	40	0	744488960	52	3940
2026-01-22 01:40:44.47	30.16	14.39	-40.2	-41.0	23.2	0.00e+00	0	41	0	749731840	52	3828
2026-01-22 01:40:45.48	30.24	14.49	-40.1	-40.9	23.3	0.00e+00	0	40	0	756023296	52	3806
2026-01-22 01:40:46.48	30.32	14.59	-40.2	-41.0	23.2	0.00e+00	0	41	0	761266176	52	3857
2026-01-22 01:40:47.49	30.40	14.69	-40.2	-41.0	23.2	0.00e+00	0	40	0	766509056	52	3829
2026-01-22 01:40:48.51	30.48	14.79	-40.1	-40.8	23.4	0.00e+00	0	40	0	772800512	52	3773
2026-01-22 01:40:49.51	30.56	14.88	-40.1	-40.8	23.4	0.00e+00	0	41	0	778043392	52	3770
2026-01-22 01:40:50.52	30.65	14.98	-40.1	-40.9	23.3	0.00e+00	0	40	0	784334848	52	3800
2026-01-22 01:40:51.53	30.73	15.08	-40.0	-40.7	23.5	0.00e+00	0	41	0	789577728	52	3725
2026-01-22 01:40:52.54	30.81	15.18	-40.1	-40.8	23.4	0.00e+00	0	40	0	794820608	51	3988
2026-01-22 01:40:53.55	30.89	15.28	-40.0	-40.8	23.5	0.00e+00	0	40	0	801112064	51	3980
2026-01-22 01:40:54.56	30.98	15.38	-40.1	-40.9	23.5	0.00e+00	0	41	0	807403520	51	4014
2026-01-22 01:40:55.57	31.06	15.48	-40.1	-40.9	23.4	0.00e+00	0	41	0	812646400	51	4007
2026-01-22 01:40:56.58	31.15	15.58	-40.0	-40.8	23.5	0.00e+00	0	41	0	817889280	51	3961
2026-01-22 01:40:57.59	31.23	15.69	-40.0	-40.8	23.6	0.00e+00	0	40	0	824180736	51	3960
2026-01-22 01:40:58.60	31.32	15.79	-40.0	-40.7	23.6	0.00e+00	0	41	0	829423616	51	3946
2026-01-22 01:40:59.61	31.40	15.89	-39.9	-40.7	23.6	0.00e+00	0	41	0	834666496	51	3932
2026-01-22 01:41:00.62	31.49	15.99	-40.0	-40.8	23.5	0.00e+00	0	41	0	840957952	51	3976
2026-01-22 01:41:01.62	31.58	16.09	-40.0	-40.8	23.6	0.00e+00	0	41	0	846200832	51	3959
2026-01-22 01:41:02.63	31.66	16.20	-39.9	-40.6	23.7	0.00e+00	0	40	0	851443712	51	3888
2026-01-22 01:41:03.64	31.75	16.30	-39.9	-40.6	23.7	0.00e+00	0	41	0	857735168	51	3909
2026-01-22 01:41:04.65	31.84	16.41	-40.0	-40.7	23.6	0.00e+00	0	41	0	862978048	51	3950
2026-01-22 01:41:05.66	31.93	16.51	-39.8	-40.5	23.8	0.00e+00	0	40	0	869269504	51	3866
2026-01-22 01:41:06.67	32.02	16.61	-39.8	-40.6	23.8	0.00e+00	0	41	0	874512384	51	3877
2026-01-22 01:41:07.67	32.11	16.72	-39.8	-40.6	23.8	0.00e+00	0	40	0	880803840	51	3886
2026-01-22 01:41:08.68	32.20	16.82	-39.8	-40.5	23.8	0.00e+00	0	41	0	886046720	51	3854
2026-01-22 01:41:09.69	32.30	16.93	-39.8	-40.5	23.8	0.00e+00	0	41	0	892338176	51	3859
2026-01-22 01:41:10.70	32.39	17.04	-39.7	-40.5	23.9	0.00e+00	0	41	0	897581056	51	3837
2026-01-22 01:41:11.71	32.48	17.14	-39.8	-40.5	23.8	0.00e+00	0	40	0	902823936	51	3868
2026-01-22 01:41:12.72	32.58	17.25	-39.7	-40.5	23.8	0.00e+00	0	41	0	909115392	51	3841
2026-01-22 01:41:13.73	32.67	17.36	-39.6	-40.3	24.0	0.00e+00	0	41	0	914358272	51	3770
2026-01-22 01:41:14.74	32.77	17.47	-39.3	-40.1	24.2	0.00e+00	0	41	0	919601152	50	3885
2026-01-22 01:41:15.74	32.86	17.57	-39.4	-40.2	24.2	0.00e+00	0	41	0	925892608	50	3914
2026-01-22 01:41:16.75	32.96	17.68	-39.4	-40.1	24.2	0.00e+00	0	41	0	932184064	50	3895
2026-01-22 01:41:17.76	33.06	17.79	-39.2	-39.9	24.4	0.00e+00	0	40	0	937426944	50	3795
2026-01-22 01:41:18.77	33.15	17.90	-39.1	-39.8	24.5	0.00e+00	0	41	0	942669824	50	3769
2026-01-22 01:41:19.78	33.25	18.01	-39.1	-39.8	24.5	0.00e+00	0	41	0	948961280	50	3743
2026-01-22 01:41:20.78	33.35	18.12	-39.2	-39.9	24.4	0.00e+00	0	41	0	954204160	50	3803
2026-01-22 01:41:21.79	33.45	18.23	-39.2	-39.9	24.4	0.00e+00	0	41	0	959447040	50	3808
2026-01-22 01:41:22.80	33.55	18.34	-39.2	-39.9	24.4	0.00e+00	0	41	0	965738496	50	3812
2026-01-22 01:41:23.81	33.65	18.46	-39.3	-40.0	24.3	0.00e+00	0	40	0	970981376	50	3837
2026-01-22 01:41:24.82	33.76	18.57	-39.4	-40.1	24.2	0.00e+00	0	40	0	977272832	50	3892
2026-01-22 01:41:25.83	33.86	18.68	-39.2	-40.0	24.3	0.00e+00	0	41	0	982515712	50	3829
2026-01-22 01:41:26.84	33.96	18.79	-39.4	-40.1	24.2	0.00e+00	0	41	0	987758592	50	3884
2026-01-22 01:41:27.85	34.07	18.91	-39.4	-40.1	24.2	0.00e+00	0	40	0	994050048	50	3900
2026-01-22 01:41:28.86	34.17	19.02	-39.2	-39.9	24.4	0.00e+00	0	41	0	1000341504	50	3806
2026-01-22 01:41:29.86	34.28	19.14	-39.2	-39.9	24.4	0.00e+00	0	40	0	1005584384	50	3813
2026-01-22 01:41:30.87	34.38	19.25	-39.1	-39.9	24.5	0.00e+00	0	40	0	1010827264	50	3785
2026-01-22 01:41:31.88	34.49	19.37	-39.1	-39.8	24.5	0.00e+00	0	41	0	1017118720	50	3757
2026-01-22 01:41:32.89	34.60	19.48	-39.2	-39.9	24.4	0.00e+00	0	41	0	1022361600	50	3806
2026-01-22 01:41:33.90	34.71	19.60	-39.1	-39.9	24.5	0.00e+00	0	41	0	1027604480	50	3782
2026-01-22 01:41:34.91	34.82	19.71	-39.0	-39.7	24.6	0.00e+00	0	40	0	1033895936	50	3732
2026-01-22 01:41:35.91	34.93	19.83	-39.0	-39.7	24.6	0.00e+00	0	40	0	1039138816	50	3737
2026-01-22 01:41:36.92	35.04	19.95	-39.1	-39.8	24.5	0.00e+00	0	41	0	1044381696	50	3769
2026-01-22 01:41:37.93	35.15	20.07	-39.1	-39.8	24.6	0.00e+00	0	41	0	1050673152	50	3751
2026-01-22 01:41:38.94	35.26	20.18	-39.1	-39.8	24.5	0.00e+00	0	41	0	1055916032	50	3775
2026-01-22 01:41:39.95	35.38	20.30	-39.2	-39.9	24.5	0.00e+00	0	41	0	1062207488	50	3799
2026-01-22 01:41:40.96	35.49	20.42	-39.1	-39.8	24.6	0.00e+00	0	41	0	1067450368	50	3755
2026-01-22 01:41:41.97	35.61	20.54	-39.2	-39.9	24.5	0.00e+00	0	41	0	1073741824	50	3799
2026-01-22 01:41:42.98	35.72	20.66	-39.2	-39.9	24.4	0.00e+00	0	41	0	1078984704	50	3813
2026-01-22 01:41:43.98	35.84	20.78	-39.2	-40.0	24.4	0.00e+00	0	40	0	1085276160	50	3830
2026-01-22 01:41:44.99	35.96	20.90	-39.3	-40.0	24.3	0.00e+00	0	41	0	1090519040	50	3867
2026-01-22 01:41:46.00	36.08	21.02	-39.2	-39.9	24.4	0.00e+00	0	41	0	1095761920	50	3819
2026-01-22 01:41:47.01	36.20	21.15	-39.1	-39.8	24.6	0.00e+00	0	40	0	1102053376	50	3766
2026-01-22 01:41:48.02	36.32	21.27	-39.1	-39.8	24.5	0.00e+00	0	41	0	1107296256	50	3779
2026-01-22 01:41:49.03	36.44	21.39	-39.1	-39.8	24.6	0.00e+00	0	40	0	1112539136	50	3758
2026-01-22 01:41:50.04	36.56	21.52	-39.0	-39.7	24.6	0.00e+00	0	41	0	1118830592	50	3733
2026-01-22 01:41:51.05	36.69	21.64	-39.0	-39.7	24.7	0.00e+00	0	40	0	1124073472	50	3717
2026-01-22 01:41:52.05	36.81	21.76	-38.9	-39.6	24.7	0.00e+00	0	40	0	1130364928	49	3901
2026-01-22 01:41:53.06	36.94	21.89	-38.9	-39.6	24.7	0.00e+00	0	41	0	1135607808	49	3904
2026-01-22 01:41:54.07	37.06	22.01	-38.8	-39.5	24.8	0.00e+00	0	41	0	1141899264	49	3861
2026-01-22 01:41:55.08	37.19	22.14	-38.9	-39.6	24.8	0.00e+00	0	41	0	1147142144	49	3874
2026-01-22 01:41:56.09	37.32	22.27	-38.8	-39.5	24.8	0.00e+00	0	41	0	1152385024	49	3847
2026-01-22 01:41:57.10	37.45	22.39	-38.8	-39.5	24.8	0.00e+00	0	40	0	1158676480	49	3848
2026-01-22 01:41:58.11	37.58	22.52	-38.6	-39.3	25.1	0.00e+00	0	41	0	1163919360	49	3752
2026-01-22 01:41:59.12	37.71	22.65	-38.6	-39.3	25.0	0.00e+00	0	40	0	1170210816	49	3755
2026-01-22 01:42:00.13	37.84	22.78	-38.6	-39.3	25.0	0.00e+00	0	41	0	1175453696	49	3743
2026-01-22 01:42:01.13	37.98	22.91	-38.6	-39.3	25.1	0.00e+00	0	40	0	1180696576	49	3748
2026-01-22 01:42:02.14	38.11	23.04	-38.5	-39.2	25.2	0.00e+00	0	41	0	1186988032	49	3711
2026-01-22 01:42:03.15	38.25	23.17	-38.6	-39.3	25.1	0.00e+00	0	41	0	1192230912	49	3745
2026-01-22 01:42:04.16	38.38	23.30	-38.6	-39.3	25.0	0.00e+00	0	41	0	1198522368	49	3763
2026-01-22 01:42:05.16	38.52	23.43	-38.5	-39.2	25.1	0.00e+00	0	41	0	1203765248	49	3730
2026-01-22 01:42:06.17	38.66	23.56	-38.5	-39.2	25.2	0.00e+00	0	41	0	1210056704	49	3702
2026-01-22 01:42:07.18	38.80	23.69	-38.3	-39.0	25.3	0.00e+00	0	41	0	1215299584	48	3860
2026-01-22 01:42:08.19	38.94	23.82	-38.3	-39.0	25.3	0.00e+00	0	41	0	1220542464	48	3831
2026-01-22 01:42:09.20	39.09	23.95	-38.2	-38.9	25.4	0.00e+00	0	40	0	1226833920	48	3802
2026-01-22 01:42:10.21	39.23	24.09	-38.2	-38.9	25.4	0.00e+00	0	41	0	1232076800	48	3810
2026-01-22 01:42:11.21	39.37	24.22	-38.1	-38.8	25.4	0.00e+00	0	40	0	1237319680	48	3774
2026-01-22 01:42:12.22	39.52	24.36	-38.0	-38.7	25.6	0.00e+00	0	40	0	1243611136	48	3697
2026-01-22 01:42:13.23	39.67	24.49	-37.7	-38.4	25.3	0.00e+00	0	41	0	1248854016	47	3821
2026-01-22 01:42:14.24	39.82	24.63	-37.8	-38.5	25.3	0.00e+00	0	40	0	1255145472	47	3832
2026-01-22 01:42:15.24	39.96	24.76	-37.6	-38.3	25.5	0.00e+00	0	41	0	1260388352	47	3747
2026-01-22 01:42:16.25	40.12	24.90	-37.6	-38.3	25.4	0.00e+00	0	40	0	1266679808	47	3777
2026-01-22 01:42:17.26	40.27	25.03	-37.7	-38.4	25.3	0.00e+00	0	41	0	1271922688	47	3818
2026-01-22 01:42:18.27	40.42	25.17	-37.7	-38.4	25.3	0.00e+00	0	41	0	1278214144	47	3820
2026-01-22 01:42:19.28	40.58	25.31	-37.7	-38.4	25.3	0.00e+00	0	41	0	1283457024	47	3816
2026-01-22 01:42:20.28	40.73	25.45	-37.8	-38.5	25.3	0.00e+00	0	40	0	1288699904	47	3835
2026-01-22 01:42:21.29	40.89	25.59	-37.8	-38.5	25.2	0.00e+00	0	40	0	1294991360	47	3867
2026-01-22 01:42:22.30	41.05	25.73	-37.8	-38.5	25.3	0.00e+00	0	40	0	1300234240	47	3845
2026-01-22 01:42:23.31	41.21	25.87	-37.9	-38.6	25.2	0.00e+00	0	41	0	1305477120	47	3885
2026-01-22 01:42:24.31	41.37	26.01	-38.0	-38.7	25.1	0.00e+00	0	40	0	1311768576	47	3927
2026-01-22 01:42:25.32	41.53	26.15	-37.9	-38.6	25.1	0.00e+00	0	41	0	1317011456	47	3909
2026-01-22 01:42:26.33	41.70	26.29	-37.9	-38.6	25.2	0.00e+00	0	41	0	1322254336	47	3898
2026-01-22 01:42:27.34	41.86	26.43	-37.9	-38.6	25.2	0.00e+00	0	41	0	1328545792	47	3886
2026-01-22 01:42:28.35	42.03	26.57	-37.9	-38.6	25.2	0.00e+00	0	40	0	1333788672	47	3873
2026-01-22 01:42:29.35	42.20	26.71	-37.7	-38.4	25.4	0.00e+00	0	40	0	1340080128	47	3809
2026-01-22 01:42:30.36	42.37	26.86	-37.6	-38.3	25.5	0.00e+00	0	40	0	1345323008	47	3747
2026-01-22 01:42:31.37	42.54	27.00	-37.5	-38.2	25.5	0.00e+00	0	40	0	1351614464	47	3729
2026-01-22 01:42:32.38	42.71	27.15	-37.4	-38.1	25.6	0.00e+00	0	40	0	1356857344	46	3892
2026-01-22 01:42:33.39	42.89	27.29	-37.3	-38.0	25.7	0.00e+00	0	40	0	1363148800	46	3857
2026-01-22 01:42:34.39	43.06	27.44	-37.3	-38.0	25.7	0.00e+00	0	40	0	1368391680	46	3851
2026-01-22 01:42:35.40	43.24	27.58	-37.4	-38.1	25.7	0.00e+00	0	41	0	1373634560	46	3889
2026-01-22 01:42:36.41	43.42	27.73	-37.5	-38.2	25.6	0.00e+00	0	41	0	1379926016	46	3918
2026-01-22 01:42:37.41	43.60	27.88	-37.5	-38.1	25.6	0.00e+00	0	40	0	1385168896	46	3913
2026-01-22 01:42:38.42	43.79	28.02	-37.6	-38.3	25.5	0.00e+00	0	41	0	1390411776	46	3978
2026-01-22 01:42:39.43	43.97	28.17	-37.6	-38.3	25.5	0.00e+00	0	40	0	1396703232	46	3988
2026-01-22 01:42:40.44	44.16	28.32	-37.6	-38.3	25.4	0.00e+00	0	40	0	1401946112	46	3991
2026-01-22 01:42:41.45	44.34	28.47	-37.5	-38.2	25.6	0.00e+00	0	41	0	1407188992	46	3931
2026-01-22 01:42:42.45	44.53	28.62	-37.6	-38.2	25.5	0.00e+00	0	41	0	1413480448	46	3953
2026-01-22 01:42:43.46	44.72	28.77	-37.5	-38.2	25.6	0.00e+00	0	40	0	1419771904	46	3923
2026-01-22 01:42:44.47	44.92	28.92	-37.6	-38.3	25.5	0.00e+00	0	41	0	1425014784	46	3969
2026-01-22 01:42:45.48	45.11	29.07	-37.5	-38.2	25.5	0.00e+00	0	40	0	1430257664	46	3952
2026-01-22 01:42:46.49	45.31	29.22	-37.6	-38.3	25.5	0.00e+00	0	41	0	1436549120	46	3964
2026-01-22 01:42:47.49	45.51	29.37	-37.5	-38.2	25.6	0.00e+00	0	40	0	1441792000	46	3929
2026-01-22 01:42:48.50	45.71	29.52	-37.6	-38.3	25.5	0.00e+00	0	40	0	1448083456	46	3965
2026-01-22 01:42:49.51	45.91	29.68	-37.7	-38.4	25.4	0.00e+00	0	41	0	1453326336	46	4028
2026-01-22 01:42:50.52	46.11	29.83	-37.5	-38.2	25.6	0.00e+00	0	41	0	1458569216	46	3940
2026-01-22 01:42:51.53	46.32	29.98	-37.6	-38.3	25.5	0.00e+00	0	41	0	1464860672	46	3964
2026-01-22 01:42:52.53	46.53	30.14	-37.6	-38.3	25.6	0.00e+00	0	40	0	1470103552	46	3959
2026-01-22 01:42:53.54	46.74	30.29	-37.5	-38.2	25.6	0.00e+00	0	40	0	1475346432	46	3955
2026-01-22 01:42:54.55	46.95	30.44	-37.6	-38.3	25.5	0.00e+00	0	41	0	1481637888	46	3993
2026-01-22 01:42:55.56	47.16	30.60	-37.6	-38.3	25.5	0.00e+00	0	41	0	1487929344	46	3979
2026-01-22 01:42:56.57	47.38	30.76	-37.6	-38.3	25.5	0.00e+00	0	40	0	1493172224	46	3975
2026-01-22 01:42:57.57	47.59	30.91	-37.5	-38.2	25.6	0.00e+00	0	41	0	1498415104	46	3941
2026-01-22 01:42:58.58	47.81	31.07	-37.4	-38.1	25.7	0.00e+00	0	41	0	1504706560	46	3894
2026-01-22 01:42:59.59	48.04	31.22	-37.3	-38.0	25.8	0.00e+00	0	40	0	1509949440	46	3843
2026-01-22 01:43:00.60	48.26	31.38	-37.3	-38.0	25.8	0.00e+00	0	41	0	1515192320	46	3853
2026-01-22 01:43:01.61	48.49	31.54	-37.3	-38.0	25.7	0.00e+00	0	41	0	1521483776	46	3864
2026-01-22 01:43:02.61	48.71	31.70	-37.2	-37.9	25.8	0.00e+00	0	41	0	1526726656	46	3821
2026-01-22 01:43:03.62	48.94	31.86	-37.2	-37.9	25.9	0.00e+00	0	41	0	1533018112	46	3817
2026-01-22 01:43:04.63	49.18	32.01	-37.3	-38.0	25.8	0.00e+00	0	41	0	1538260992	46	3848
2026-01-22 01:43:05.64	49.41	32.17	-37.5	-38.2	25.7	0.00e+00	0	41	0	1543503872	46	3917
2026-01-22 01:43:06.65	49.65	32.33	-37.6	-38.3	25.6	0.00e+00	0	41	0	1549795328	46	3969
2026-01-22 01:43:07.66	49.89	32.49	-37.7	-38.4	25.5	0.00e+00	0	41	0	1556086784	46	4013
2026-01-22 01:43:08.67	50.13	32.65	-37.5	-38.2	25.6	0.00e+00	0	41	0	1561329664	46	3950
2026-01-22 01:43:09.67	50.37	32.81	-37.5	-38.2	25.7	0.00e+00	0	41	0	1566572544	46	3927
2026-01-22 01:43:10.68	50.62	32.97	-37.5	-38.2	25.6	0.00e+00	0	40	0	1572864000	46	3919
2026-01-22 01:43:11.69	50.87	33.13	-37.6	-38.2	25.6	0.00e+00	0	41	0	1578106880	46	3957
2026-01-22 01:43:12.70	51.12	33.30	-37.3	-38.0	25.8	0.00e+00	0	41	0	1583349760	46	3837
2026-01-22 01:43:13.71	51.38	33.46	-37.3	-38.0	25.9	0.00e+00	0	40	0	1589641216	46	3827
2026-01-22 01:43:14.72	51.63	33.62	-37.4	-38.1	25.7	0.00e+00	0	41	0	1594884096	46	3912
2026-01-22 01:43:15.73	51.89	33.78	-37.4	-38.1	25.7	0.00e+00	0	40	0	1600126976	46	3895
2026-01-22 01:43:16.73	52.15	33.94	-37.4	-38.2	25.7	0.00e+00	0	40	0	1606418432	46	3915
2026-01-22 01:43:17.74	52.42	34.10	-37.5	-38.2	25.6	0.00e+00	0	41	0	1611661312	46	3951
2026-01-22 01:43:18.75	52.68	34.27	-37.5	-38.2	25.6	0.00e+00	0	41	0	1617952768	46	3948
2026-01-22 01:43:19.76	52.95	34.43	-37.5	-38.2	25.6	0.00e+00	0	40	0	1623195648	46	3957
2026-01-22 01:43:20.77	53.22	34.59	-37.6	-38.3	25.5	0.00e+00	0	41	0	1629487104	46	3996
2026-01-22 01:43:21.77	53.50	34.75	-37.5	-38.2	25.7	0.00e+00	0	41	0	1634729984	46	3927
2026-01-22 01:43:22.78	53.77	34.92	-37.4	-38.1	25.8	0.00e+00	0	40	0	1641021440	46	3886
2026-01-22 01:43:23.79	54.06	35.08	-37.2	-37.9	25.9	0.00e+00	0	41	0	1646264320	46	3813
2026-01-22 01:43:24.80	54.34	35.25	-37.3	-38.0	25.9	0.00e+00	0	40	0	1651507200	46	3837
2026-01-22 01:43:25.81	54.62	35.41	-37.4	-38.1	25.8	0.00e+00	0	41	0	1657798656	46	3885
2026-01-22 01:43:26.81	54.91	35.57	-37.3	-38.0	25.8	0.00e+00	0	41	0	1663041536	46	3864
2026-01-22 01:43:27.82	55.20	35.73	-37.3	-38.0	25.9	0.00e+00	0	40	0	1668284416	46	3841
2026-01-22 01:43:28.83	55.50	35.90	-37.3	-38.0	25.9	0.00e+00	0	41	0	1674575872	46	3851
2026-01-22 01:43:29.84	55.79	36.06	-37.2	-37.9	26.0	0.00e+00	0	41	0	1679818752	46	3789
2026-01-22 01:43:30.85	56.09	36.23	-37.2	-37.9	25.9	0.00e+00	0	41	0	1685061632	46	3796
2026-01-22 01:43:31.85	56.40	36.39	-37.1	-37.8	26.0	0.00e+00	0	41	0	1691353088	46	3770
2026-01-22 01:43:32.86	56.70	36.55	-37.1	-37.7	26.1	0.00e+00	0	40	0	1697644544	46	3729
2026-01-22 01:43:33.87	57.01	36.72	-37.1	-37.8	26.1	0.00e+00	0	41	0	1702887424	46	3757
2026-01-22 01:43:34.88	57.32	36.88	-37.3	-38.0	25.8	0.00e+00	0	41	0	1708130304	46	3859
2026-01-22 01:43:35.89	57.64	37.04	-37.4	-38.1	25.7	0.00e+00	0	41	0	1714421760	46	3912
2026-01-22 01:43:36.89	57.95	37.20	-37.3	-38.0	25.9	0.00e+00	0	40	0	1719664640	46	3854
2026-01-22 01:43:37.90	58.28	37.37	-37.4	-38.0	25.9	0.00e+00	0	41	0	1725956096	46	3868
2026-01-22 01:43:38.91	58.60	37.53	-37.3	-37.9	25.9	0.00e+00	0	41	0	1731198976	46	3819
2026-01-22 01:43:39.92	58.93	37.69	-37.0	-37.7	26.1	0.00e+00	0	41	0	1736441856	46	3715
2026-01-22 01:43:40.92	59.26	37.85	-37.0	-37.7	26.2	0.00e+00	0	40	0	1742733312	46	3696
2026-01-22 01:43:41.93	59.59	38.02	-37.1	-37.7	26.1	0.00e+00	0	40	0	1747976192	46	3737
2026-01-22 01:43:42.94	59.93	38.18	-37.0	-37.7	26.1	0.00e+00	0	40	0	1753219072	46	3712
2026-01-22 01:43:43.95	60.27	38.34	-37.2	-37.9	26.0	0.00e+00	0	41	0	1759510528	46	3796
2026-01-22 01:43:44.95	60.61	38.50	-37.3	-38.0	25.9	0.00e+00	0	41	0	1765801984	46	3840
2026-01-22 01:43:45.96	60.96	38.66	-37.5	-38.2	25.7	0.00e+00	0	41	0	1771044864	46	3923
2026-01-22 01:43:46.97	61.31	38.82	-37.4	-38.1	25.8	0.00e+00	0	41	0	1776287744	46	3879
2026-01-22 01:43:47.98	61.67	38.98	-37.4	-38.1	25.8	0.00e+00	0	41	0	1782579200	46	3890
2026-01-22 01:43:48.99	62.03	39.14	-37.5	-38.2	25.7	0.00e+00	0	41	0	1787822080	46	3934
2026-01-22 01:43:50.00	62.39	39.30	-37.3	-38.0	25.9	0.00e+00	0	41	0	1793064960	46	3868
2026-01-22 01:43:51.00	62.75	39.46	-37.3	-38.0	25.9	0.00e+00	0	40	0	1799356416	46	3835
2026-01-22 01:43:52.01	63.12	39.61	-37.3	-38.0	25.9	0.00e+00	0	41	0	1804599296	46	3825
2026-01-22 01:43:53.02	63.49	39.77	-37.3	-38.0	25.8	0.00e+00	0	40	0	1810890752	46	3867
2026-01-22 01:43:54.03	63.87	39.93	-37.3	-38.0	25.9	0.00e+00	0	41	0	1816133632	46	3853
2026-01-22 01:43:55.03	64.24	40.08	-37.3	-38.0	25.9	0.00e+00	0	41	0	1821376512	46	3853
2026-01-22 01:43:56.04	64.63	40.24	-37.3	-38.0	25.9	0.00e+00	0	41	0	1827667968	46	3851
2026-01-22 01:43:57.05	65.02	40.39	-37.3	-38.0	25.9	0.00e+00	0	40	0	1833959424	46	3836
2026-01-22 01:43:58.06	65.41	40.55	-37.2	-37.9	25.9	0.00e+00	0	41	0	1839202304	46	3813
2026-01-22 01:43:59.07	65.80	40.70	-37.3	-38.0	25.9	0.00e+00	0	40	0	1844445184	46	3836
2026-01-22 01:44:00.07	66.19	40.85	-37.1	-37.7	26.1	0.00e+00	0	41	0	1850736640	46	3736
2026-01-22 01:44:01.08	66.60	41.00	-37.1	-37.8	26.1	0.00e+00	0	40	0	1855979520	46	3747
2026-01-22 01:44:02.09	67.00	41.15	-37.1	-37.8	26.1	0.00e+00	0	41	0	1861222400	46	3745
2026-01-22 01:44:03.10	67.41	41.30	-37.1	-37.8	26.1	0.00e+00	0	41	0	1867513856	46	3745
2026-01-22 01:44:04.10	67.82	41.45	-37.1	-37.8	26.0	0.00e+00	0	41	0	1872756736	46	3766
2026-01-22 01:44:05.11	68.24	41.60	-37.3	-37.9	26.0	0.00e+00	0	41	0	1877999616	46	3824
2026-01-22 01:44:06.12	68.66	41.74	-37.2	-37.9	26.0	0.00e+00	0	41	0	1884291072	46	3802
2026-01-22 01:44:07.13	69.08	41.89	-37.3	-37.9	25.9	0.00e+00	0	41	0	1889533952	46	3820
2026-01-22 01:44:08.13	69.50	42.03	-37.1	-37.8	26.1	0.00e+00	0	41	0	1895825408	46	3741
2026-01-22 01:44:09.15	69.94	42.17	-37.1	-37.8	26.0	0.00e+00	0	41	0	1901068288	46	3772
2026-01-22 01:44:10.15	70.37	42.31	-37.2	-37.9	26.0	0.00e+00	0	41	0	1907359744	46	3782
2026-01-22 01:44:11.16	70.81	42.46	-37.4	-38.0	25.9	0.00e+00	0	41	0	1912602624	46	3860
2026-01-22 01:44:12.17	71.25	42.59	-37.5	-38.2	25.8	0.00e+00	0	41	0	1918894080	46	3930
2026-01-22 01:44:13.18	71.70	42.73	-37.6	-38.3	25.7	0.00e+00	0	41	0	1924136960	46	3962
2026-01-22 01:44:14.19	72.15	42.87	-37.5	-38.2	25.7	0.00e+00	0	40	0	1929379840	46	3952
2026-01-22 01:44:15.19	72.60	43.00	-37.7	-38.4	25.6	0.00e+00	0	40	0	1935671296	46	4019
2026-01-22 01:44:16.20	73.06	43.14	-37.6	-38.3	25.6	0.00e+00	0	40	0	1940914176	46	3995
2026-01-22 01:44:17.21	73.52	43.27	-37.4	-38.1	25.8	0.00e+00	0	41	0	1946157056	46	3899
2026-01-22 01:44:18.22	73.98	43.40	-37.3	-38.0	25.9	0.00e+00	0	40	0	1952448512	46	3830
2026-01-22 01:44:19.23	74.45	43.53	-37.6	-38.3	25.7	0.00e+00	0	41	0	1957691392	46	3978
2026-01-22 01:44:20.23	74.92	43.65	-37.8	-38.6	25.4	0.00e+00	0	41	0	1962934272	46	4105
2026-01-22 01:44:21.24	75.40	43.78	-37.8	-38.5	25.4	0.00e+00	0	41	0	1969225728	46	4080
2026-01-22 01:44:22.25	75.88	43.90	-37.8	-38.5	25.5	0.00e+00	0	41	0	1974468608	46	4073
2026-01-22 01:44:23.26	76.36	44.02	-37.8	-38.5	25.5	0.00e+00	0	40	0	1980760064	46	4055
2026-01-22 01:44:24.27	76.85	44.14	-37.7	-38.4	25.6	0.00e+00	0	40	0	1986002944	46	4035
2026-01-22 01:44:25.27	77.34	44.26	-37.5	-38.2	25.8	0.00e+00	0	40	0	1992294400	46	3930
2026-01-22 01:44:26.28	77.83	44.37	-37.5	-38.2	25.8	0.00e+00	0	41	0	1997537280	46	3942
2026-01-22 01:44:27.29	78.33	44.49	-37.5	-38.2	25.8	0.00e+00	0	41	0	2003828736	46	3928
2026-01-22 01:44:28.30	78.83	44.60	-37.5	-38.2	25.8	0.00e+00	0	41	0	2009071616	46	3914
2026-01-22 01:44:29.31	79.34	44.71	-37.5	-38.2	25.8	0.00e+00	0	41	0	2014314496	46	3928
2026-01-22 01:44:30.32	79.85	44.82	-37.5	-38.2	25.8	0.00e+00	0	41	0	2020605952	46	3919
2026-01-22 01:44:31.33	80.36	44.92	-37.6	-38.2	25.7	0.00e+00	0	40	0	2025848832	46	3958
2026-01-22 01:44:32.33	80.87	45.03	-37.7	-38.5	25.5	0.00e+00	0	41	0	2031091712	46	4055
2026-01-22 01:44:33.34	81.39	45.13	-37.8	-38.5	25.5	0.00e+00	0	41	0	2037383168	46	4057
2026-01-22 01:44:34.35	81.91	45.23	-37.7	-38.4	25.6	0.00e+00	0	41	0	2043674624	46	4007
2026-01-22 01:44:35.36	82.44	45.32	-37.6	-38.3	25.7	0.00e+00	0	40	0	2048917504	46	3965
2026-01-22 01:44:36.37	82.97	45.42	-37.6	-38.3	25.7	0.00e+00	0	40	0	2054160384	46	3981
2026-01-22 01:44:37.38	83.50	45.51	-37.6	-38.3	25.6	0.00e+00	0	41	0	2060451840	46	3990
2026-01-22 01:44:38.39	84.03	45.60	-37.7	-38.4	25.6	0.00e+00	0	41	0	2065694720	46	4014
2026-01-22 01:44:39.40	84.57	45.68	-37.8	-38.5	25.5	0.00e+00	0	40	0	2070937600	46	4086
2026-01-22 01:44:40.41	85.11	45.77	-37.9	-38.7	25.3	0.00e+00	0	40	0	2077229056	46	4154
2026-01-22 01:44:41.41	85.65	45.85	-37.8	-38.5	25.5	0.00e+00	0	40	0	2082471936	46	4084
2026-01-22 01:44:42.42	86.20	45.93	-37.7	-38.4	25.6	0.00e+00	0	40	0	2088763392	46	4026
2026-01-22 01:44:43.43	86.74	46.00	-37.8	-38.5	25.5	0.00e+00	0	41	0	2094006272	46	4066
2026-01-22 01:44:44.44	87.30	46.08	-37.6	-38.3	25.6	0.00e+00	0	40	0	2099249152	46	3982
2026-01-22 01:44:45.45	87.85	46.15	-37.6	-38.3	25.7	0.00e+00	0	41	0	2105540608	46	3995
2026-01-22 01:44:46.46	88.41	46.22	-37.8	-38.5	25.5	0.00e+00	0	41	0	2111832064	46	4054
2026-01-22 01:44:47.47	88.96	46.28	-38.0	-38.7	25.3	0.00e+00	0	41	0	2117074944	46	4160
2026-01-22 01:44:48.47	89.52	46.34	-37.9	-38.6	25.4	0.00e+00	0	41	0	2122317824	46	4143
2026-01-22 01:44:49.48	90.08	46.40	-38.0	-38.7	25.3	0.00e+00	0	41	0	2128609280	46	4190
2026-01-22 01:44:50.49	90.65	46.46	-37.9	-38.6	25.4	0.00e+00	0	41	0	2133852160	46	4139
2026-01-22 01:44:51.50	91.22	46.51	-37.7	-38.4	25.5	0.00e+00	0	40	0	2139095040	46	4050
2026-01-22 01:44:52.51	91.78	46.56	-37.9	-38.6	25.4	0.00e+00	0	40	0	2145386496	46	4109
2026-01-22 01:44:53.52	92.36	46.61	-38.0	-38.7	25.3	0.00e+00	0	41	0	2150629376	46	4178
2026-01-22 01:44:54.53	92.93	46.66	-38.1	-38.8	25.2	0.00e+00	0	41	0	2155872256	46	4240
2026-01-22 01:44:55.53	93.50	46.70	-37.8	-38.5	25.5	0.00e+00	0	41	0	2162163712	46	4074
2026-01-22 01:44:56.54	94.07	46.74	-37.5	-38.2	25.7	0.00e+00	0	41	0	2167406592	46	3939
2026-01-22 01:44:57.55	94.65	46.77	-37.6	-38.2	25.7	0.00e+00	0	41	0	2173698048	46	3956
2026-01-22 01:44:58.56	95.23	46.80	-37.7	-38.4	25.6	0.00e+00	0	41	0	2178940928	46	4011
2026-01-22 01:44:59.57	95.81	46.83	-37.7	-38.4	25.6	0.00e+00	0	41	0	2185232384	46	4030
2026-01-22 01:45:00.57	96.38	46.86	-37.6	-38.3	25.6	0.00e+00	0	40	0	2190475264	46	3995
2026-01-22 01:45:01.58	96.96	46.88	-37.8	-38.5	25.5	0.00e+00	0	41	0	2196766720	46	4090
2026-01-22 01:45:02.59	97.55	46.90	-37.9	-38.6	25.4	0.00e+00	0	40	0	2202009600	46	4127
2026-01-22 01:45:03.60	98.13	46.92	-38.0	-38.7	25.3	0.00e+00	0	41	0	2207252480	46	4188
2026-01-22 01:45:04.61	98.71	46.93	-37.8	-38.5	25.5	0.00e+00	0	41	0	2213543936	46	4083
2026-01-22 01:45:05.61	99.29	46.94	-37.9	-38.6	25.4	0.00e+00	0	41	0	2218786816	46	4111
2026-01-22 01:45:06.62	99.87	46.95	-37.7	-38.4	25.6	0.00e+00	0	41	0	2224029696	46	4032
2026-01-22 01:45:07.63	100.46	46.96	-37.9	-38.6	25.4	0.00e+00	0	41	0	2230321152	46	4110
2026-01-22 01:45:08.64	101.04	46.96	-38.0	-38.7	25.3	0.00e+00	0	40	0	2235564032	46	4185
2026-01-22 01:45:09.65	101.63	46.96	-38.0	-38.7	25.3	0.00e+00	0	41	0	2240806912	46	4167
2026-01-22 01:45:10.65	102.21	46.95	-37.9	-38.6	25.4	0.00e+00	0	41	0	2247098368	46	4122
2026-01-22 01:45:11.66	102.79	46.94	-37.9	-38.6	25.4	0.00e+00	0	41	0	2253389824	46	4103
2026-01-22 01:45:12.67	103.37	46.93	-37.8	-38.5	25.5	0.00e+00	0	40	0	2258632704	46	4077
2026-01-22 01:45:13.68	103.96	46.92	-37.9	-38.6	25.4	0.00e+00	0	41	0	2263875584	46	4113
2026-01-22 01:45:14.68	104.53	46.90	-37.9	-38.6	25.4	0.00e+00	0	41	0	2270167040	46	4130
2026-01-22 01:45:15.69	105.12	46.88	-37.9	-38.6	25.4	0.00e+00	0	41	0	2275409920	46	4128
2026-01-22 01:45:16.70	105.70	46.85	-37.9	-38.6	25.4	0.00e+00	0	40	0	2281701376	46	4114
2026-01-22 01:45:17.71	106.28	46.83	-38.1	-38.9	25.2	0.00e+00	0	41	0	2286944256	46	4243
2026-01-22 01:45:18.72	106.86	46.79	-38.2	-38.9	25.2	0.00e+00	0	41	0	2292187136	47	4024
2026-01-22 01:45:19.72	107.43	46.76	-38.0	-38.7	25.3	0.00e+00	0	41	0	2298478592	47	3931
2026-01-22 01:45:20.73	108.01	46.73	-38.1	-38.9	25.2	0.00e+00	0	40	0	2303721472	47	4005
2026-01-22 01:45:21.74	108.58	46.69	-38.0	-38.7	25.3	0.00e+00	0	41	0	2308964352	47	3942
2026-01-22 01:45:22.75	109.16	46.64	-37.8	-38.5	25.5	0.00e+00	0	41	0	2315255808	47	3859
2026-01-22 01:45:23.76	109.73	46.60	-37.8	-38.5	25.5	0.00e+00	0	41	0	2321547264	47	3858
2026-01-22 01:45:24.76	110.29	46.55	-37.8	-38.5	25.5	0.00e+00	0	41	0	2326790144	47	3854
2026-01-22 01:45:25.77	110.86	46.50	-37.8	-38.5	25.5	0.00e+00	0	41	0	2332033024	47	3846
2026-01-22 01:45:26.78	111.43	46.44	-37.7	-38.4	25.5	0.00e+00	0	41	0	2338324480	47	3821
2026-01-22 01:45:27.79	112.00	46.38	-37.7	-38.4	25.6	0.00e+00	0	41	0	2343567360	47	3810
2026-01-22 01:45:28.80	112.56	46.32	-37.8	-38.5	25.5	0.00e+00	0	41	0	2348810240	47	3828
2026-01-22 01:45:29.81	113.12	46.26	-38.0	-38.7	25.4	0.00e+00	0	41	0	2355101696	47	3922
2026-01-22 01:45:30.81	113.67	46.20	-38.2	-38.9	25.1	0.00e+00	0	40	0	2360344576	47	4028
2026-01-22 01:45:31.82	114.23	46.13	-38.2	-38.9	25.1	0.00e+00	0	41	0	2366636032	47	4031
2026-01-22 01:45:32.83	114.78	46.06	-38.2	-39.0	25.1	0.00e+00	0	41	0	2371878912	47	4053
2026-01-22 01:45:33.84	115.33	45.98	-38.1	-38.8	25.2	0.00e+00	0	41	0	2377121792	47	4001
2026-01-22 01:45:34.85	115.88	45.90	-37.8	-38.5	25.5	0.00e+00	0	41	0	2383413248	47	3843
2026-01-22 01:45:35.85	116.42	45.82	-37.8	-38.5	25.5	0.00e+00	0	40	0	2389704704	47	3838
2026-01-22 01:45:36.86	116.97	45.74	-37.8	-38.5	25.5	0.00e+00	0	40	0	2394947584	47	3835
2026-01-22 01:45:37.87	117.51	45.66	-37.8	-38.6	25.5	0.00e+00	0	41	0	2400190464	47	3870
2026-01-22 01:45:38.88	118.04	45.57	-38.1	-38.8	25.2	0.00e+00	0	40	0	2406481920	47	3978
2026-01-22 01:45:39.89	118.58	45.48	-38.1	-38.8	25.2	0.00e+00	0	40	0	2411724800	47	3966
2026-01-22 01:45:40.89	119.10	45.39	-37.9	-38.6	25.3	0.00e+00	0	41	0	2416967680	47	3901
2026-01-22 01:45:41.90	119.63	45.29	-37.9	-38.6	25.4	0.00e+00	0	40	0	2423259136	47	3877
2026-01-22 01:45:42.91	120.16	45.20	-37.7	-38.4	25.5	0.00e+00	0	40	0	2428502016	47	3810
2026-01-22 01:45:43.91	120.68	45.10	-37.7	-38.4	25.5	0.00e+00	0	40	0	2433744896	47	3810
2026-01-22 01:45:44.92	121.19	45.00	-37.6	-38.3	25.6	0.00e+00	0	41	0	2440036352	47	3770
2026-01-22 01:45:45.93	121.71	44.89	-37.6	-38.3	25.6	0.00e+00	0	41	0	2445279232	47	3762
2026-01-22 01:45:46.94	122.22	44.79	-37.5	-38.2	25.7	0.00e+00	0	41	0	2451570688	47	3706
2026-01-22 01:45:47.95	122.73	44.68	-37.6	-38.3	25.6	0.00e+00	0	40	0	2456813568	47	3762
2026-01-22 01:45:48.95	123.23	44.57	-37.7	-38.4	25.6	0.00e+00	0	41	0	2463105024	47	3791
2026-01-22 01:45:49.96	123.73	44.45	-37.7	-38.4	25.6	0.00e+00	0	41	0	2468347904	47	3796
2026-01-22 01:45:50.97	124.23	44.34	-37.7	-38.4	25.6	0.00e+00	0	41	0	2474639360	47	3802
2026-01-22 01:45:51.98	124.73	44.22	-37.8	-38.5	25.4	0.00e+00	0	41	0	2479882240	47	3867
2026-01-22 01:45:52.99	125.22	44.10	-38.1	-38.8	25.2	0.00e+00	0	41	0	2485125120	47	3980
2026-01-22 01:45:54.00	125.70	43.98	-38.1	-38.8	25.2	0.00e+00	0	41	0	2491416576	47	3991
2026-01-22 01:45:55.01	126.19	43.86	-38.1	-38.8	25.2	0.00e+00	0	41	0	2496659456	47	3972
2026-01-22 01:45:56.01	126.66	43.74	-38.1	-38.8	25.2	0.00e+00	0	41	0	2501902336	47	3960
2026-01-22 01:45:57.02	127.14	43.61	-37.9	-38.5	25.4	0.00e+00	0	41	0	2508193792	47	3861
2026-01-22 01:45:58.03	127.61	43.48	-37.7	-38.3	25.6	0.00e+00	0	41	0	2513436672	47	3780
2026-01-22 01:45:59.04	128.08	43.35	-37.6	-38.3	25.6	0.00e+00	0	41	0	2518679552	47	3755
2026-01-22 01:46:00.04	128.54	43.22	-37.5	-38.2	25.7	0.00e+00	0	41	0	2524971008	47	3716
2026-01-22 01:46:01.05	129.01	43.09	-37.3	-38.0	25.9	0.00e+00	0	41	0	2531262464	46	3840
2026-01-22 01:46:02.06	129.46	42.96	-37.3	-38.0	25.8	0.00e+00	0	41	0	2536505344	46	3855
2026-01-22 01:46:03.07	129.92	42.82	-37.3	-38.0	25.8	0.00e+00	0	41	0	2541748224	46	3846
2026-01-22 01:46:04.08	130.37	42.69	-37.4	-38.0	25.8	0.00e+00	0	41	0	2548039680	46	3866
2026-01-22 01:46:05.09	130.81	42.55	-37.3	-38.0	25.9	0.00e+00	0	40	0	2553282560	46	3834
2026-01-22 01:46:06.09	131.25	42.41	-37.4	-38.1	25.8	0.00e+00	0	41	0	2559574016	46	3889
2026-01-22 01:46:07.10	131.69	42.27	-37.4	-38.1	25.8	0.00e+00	0	41	0	2564816896	46	3882
2026-01-22 01:46:08.11	132.13	42.12	-37.2	-37.9	25.9	0.00e+00	0	41	0	2570059776	46	3818
2026-01-22 01:46:09.12	132.56	41.98	-37.3	-38.0	25.9	0.00e+00	0	41	0	2576351232	46	3830
2026-01-22 01:46:10.13	132.99	41.84	-37.3	-38.0	25.9	0.00e+00	0	41	0	2581594112	46	3842
2026-01-22 01:46:11.14	133.41	41.69	-37.2	-37.9	26.0	0.00e+00	0	40	0	2586836992	46	3796
2026-01-22 01:46:12.14	133.83	41.54	-37.1	-37.8	26.0	0.00e+00	0	40	0	2593128448	46	3747
2026-01-22 01:46:13.15	134.24	41.40	-37.1	-37.8	26.1	0.00e+00	0	40	0	2599419904	46	3740
2026-01-22 01:46:14.16	134.65	41.25	-37.0	-37.7	26.1	0.00e+00	0	41	0	2604662784	46	3705
2026-01-22 01:46:15.17	135.06	41.10	-37.1	-37.7	26.1	0.00e+00	0	41	0	2609905664	46	3730
2026-01-22 01:46:16.18	135.47	40.95	-36.9	-37.6	26.2	0.00e+00	0	41	0	2616197120	45	3907
2026-01-22 01:46:17.19	135.87	40.79	-37.0	-37.7	26.1	0.00e+00	0	40	0	2621440000	45	3919
2026-01-22 01:46:18.19	136.26	40.64	-37.1	-37.8	26.0	0.00e+00	0	41	0	2626682880	45	3983
2026-01-22 01:46:19.20	136.66	40.49	-37.2	-37.9	26.0	0.00e+00	0	41	0	2632974336	45	4010
2026-01-22 01:46:20.21	137.05	40.33	-37.3	-38.0	25.8	0.00e+00	0	41	0	2638217216	45	4065
2026-01-22 01:46:21.22	137.43	40.18	-37.3	-38.0	25.9	0.00e+00	0	41	0	2644508672	45	4054
2026-01-22 01:46:22.23	137.82	40.02	-37.2	-37.8	26.0	0.00e+00	0	41	0	2649751552	45	4000
2026-01-22 01:46:23.24	138.20	39.86	-37.0	-37.7	26.1	0.00e+00	0	41	0	2654994432	45	3940
2026-01-22 01:46:24.25	138.57	39.71	-37.0	-37.7	26.1	0.00e+00	0	40	0	2661285888	45	3928
2026-01-22 01:46:25.25	138.94	39.55	-36.8	-37.5	26.2	0.00e+00	0	41	0	2667577344	45	3859
2026-01-22 01:46:26.26	139.31	39.39	-37.0	-37.7	26.1	0.00e+00	0	40	0	2672820224	45	3916
2026-01-22 01:46:27.28	139.68	39.23	-36.9	-37.6	26.2	0.00e+00	0	41	0	2678063104	45	3905
2026-01-22 01:46:28.28	140.04	39.07	-37.0	-37.7	26.0	0.00e+00	0	41	0	2684354560	45	3952
2026-01-22 01:46:29.29	140.39	38.91	-37.0	-37.7	26.1	0.00e+00	0	41	0	2689597440	45	3945
2026-01-22 01:46:30.30	140.75	38.75	-37.0	-37.7	26.0	0.00e+00	0	40	0	2694840320	45	3943
2026-01-22 01:46:31.31	141.10	38.59	-37.0	-37.7	26.1	0.00e+00	0	41	0	2701131776	45	3927
2026-01-22 01:46:32.32	141.45	38.43	-37.0	-37.7	26.0	0.00e+00	0	41	0	2706374656	45	3936
2026-01-22 01:46:33.33	141.79	38.27	-36.9	-37.6	26.1	0.00e+00	0	41	0	2711617536	45	3897
2026-01-22 01:46:34.34	142.13	38.10	-37.0	-37.7	26.1	0.00e+00	0	41	0	2717908992	45	3918
2026-01-22 01:46:35.35	142.47	37.94	-37.0	-37.7	26.0	0.00e+00	0	40	0	2723151872	45	3946
2026-01-22 01:46:36.36	142.81	37.78	-37.1	-37.8	26.0	0.00e+00	0	41	0	2729443328	45	3961
2026-01-22 01:46:37.37	143.14	37.62	-37.1	-37.8	26.0	0.00e+00	0	41	0	2734686208	45	3977
2026-01-22 01:46:38.38	143.47	37.45	-37.1	-37.8	25.9	0.00e+00	0	40	0	2740977664	45	3993
2026-01-22 01:46:39.38	143.79	37.29	-37.2	-37.9	25.9	0.00e+00	0	41	0	2746220544	45	4005
2026-01-22 01:46:40.39	144.11	37.13	-37.1	-37.7	26.0	0.00e+00	0	41	0	2752512000	45	3954
2026-01-22 01:46:41.40	144.43	36.96	-37.0	-37.7	26.0	0.00e+00	0	41	0	2757754880	45	3950
2026-01-22 01:46:42.41	144.74	36.80	-37.1	-37.8	25.9	0.00e+00	0	41	0	2762997760	45	3987
2026-01-22 01:46:43.42	145.05	36.63	-37.3	-38.0	25.8	0.00e+00	0	40	0	2769289216	45	4070
2026-01-22 01:46:44.43	145.36	36.47	-37.3	-38.0	25.7	0.00e+00	0	41	0	2774532096	45	4080
2026-01-22 01:46:45.44	145.67	36.31	-37.4	-38.1	25.7	0.00e+00	0	40	0	2779774976	45	4110
2026-01-22 01:46:46.45	145.97	36.14	-37.4	-38.1	25.6	0.00e+00	0	41	0	2786066432	45	4137
2026-01-22 01:46:47.45	146.27	35.98	-37.3	-38.1	25.7	0.00e+00	0	41	0	2792357888	45	4101
2026-01-22 01:46:48.46	146.57	35.81	-37.3	-38.0	25.8	0.00e+00	0	41	0	2797600768	45	4059
2026-01-22 01:46:49.47	146.86	35.65	-37.3	-38.1	25.3	0.00e+00	0	41	0	2802843648	45	4099
2026-01-22 01:46:50.48	147.15	35.48	-37.0	-37.7	25.5	0.00e+00	0	41	0	2809135104	45	3956
2026-01-22 01:46:51.49	147.44	35.32	-37.0	-37.7	25.5	0.00e+00	0	41	0	2814377984	45	3945
2026-01-22 01:46:52.50	147.73	35.16	-37.1	-37.8	25.4	0.00e+00	0	40	0	2819620864	45	3988
2026-01-22 01:46:53.51	148.01	34.99	-37.2	-38.0	25.2	0.00e+00	0	40	0	2825912320	45	4063
2026-01-22 01:46:54.51	148.29	34.83	-37.3	-38.1	25.2	0.00e+00	0	41	0	2831155200	45	4104
2026-01-22 01:46:55.52	148.56	34.66	-37.4	-38.1	25.1	0.00e+00	0	41	0	2837446656	45	4135
2026-01-22 01:46:56.53	148.84	34.50	-37.4	-38.2	25.1	0.00e+00	0	41	0	2842689536	45	4147
2026-01-22 01:46:57.54	149.11	34.34	-37.1	-37.8	25.3	0.00e+00	0	41	0	2847932416	45	4001
2026-01-22 01:46:58.55	149.38	34.17	-37.0	-37.8	25.4	0.00e+00	0	40	0	2854223872	45	3966
2026-01-22 01:46:59.56	149.65	34.01	-37.0	-37.7	25.4	0.00e+00	0	40	0	2860515328	45	3956
2026-01-22 01:47:00.57	149.91	33.85	-37.0	-37.8	25.4	0.00e+00	0	41	0	2865758208	45	3978
2026-01-22 01:47:01.58	150.17	33.68	-37.1	-37.8	25.3	0.00e+00	0	41	0	2871001088	45	4004
2026-01-22 01:47:02.59	150.43	33.52	-37.1	-37.8	25.3	0.00e+00	0	41	0	2877292544	45	4004
2026-01-22 01:47:03.59	150.68	33.36	-37.1	-37.8	25.3	0.00e+00	0	41	0	2882535424	45	4003
2026-01-22 01:47:04.60	150.94	33.20	-37.1	-37.9	25.3	0.00e+00	0	40	0	2887778304	45	4006
2026-01-22 01:47:05.61	151.19	33.04	-37.1	-37.8	25.3	0.00e+00	0	41	0	2894069760	45	3989
2026-01-22 01:47:06.62	151.44	32.87	-37.2	-38.0	25.2	0.00e+00	0	41	0	2899312640	45	4053
2026-01-22 01:47:07.63	151.68	32.71	-37.2	-37.9	25.2	0.00e+00	0	41	0	2904555520	45	4045
2026-01-22 01:47:08.64	151.93	32.55	-37.3	-38.1	25.1	0.00e+00	0	41	0	2910846976	45	4116
2026-01-22 01:47:09.65	152.17	32.39	-37.3	-38.0	25.1	0.00e+00	0	41	0	2916089856	45	4083
2026-01-22 01:47:10.66	152.41	32.23	-37.2	-38.0	25.1	0.00e+00	0	41	0	2922381312	45	4078
2026-01-22 01:47:11.67	152.65	32.07	-37.3	-38.1	25.1	0.00e+00	0	41	0	2927624192	45	4108
2026-01-22 01:47:12.68	152.88	31.91	-37.3	-38.0	25.1	0.00e+00	0	41	0	2933915648	45	4089
2026-01-22 01:47:13.69	153.11	31.75	-37.5	-38.2	25.0	0.00e+00	0	41	0	2939158528	45	4171
2026-01-22 01:47:14.69	153.34	31.59	-37.2	-38.0	25.2	0.00e+00	0	41	0	2945449984	45	4068
2026-01-22 01:47:15.70	153.57	31.43	-37.3	-38.1	25.2	0.00e+00	0	41	0	2950692864	45	4101
2026-01-22 01:47:16.71	153.80	31.28	-37.4	-38.2	25.0	0.00e+00	0	41	0	2955935744	45	4154
2026-01-22 01:47:17.72	154.02	31.12	-37.4	-38.2	25.0	0.00e+00	0	41	0	2962227200	45	4167
2026-01-22 01:47:18.73	154.24	30.96	-37.4	-38.2	25.0	0.00e+00	0	41	0	2967470080	45	4160
2026-01-22 01:47:19.74	154.46	30.80	-37.5	-38.3	24.9	0.00e+00	0	41	0	2972712960	45	4221
2026-01-22 01:47:20.75	154.68	30.65	-37.4	-38.1	25.1	0.00e+00	0	41	0	2979004416	45	4140
2026-01-22 01:47:21.75	154.89	30.49	-37.3	-38.0	25.2	0.00e+00	0	41	0	2985295872	45	4089
2026-01-22 01:47:22.76	155.11	30.33	-37.1	-37.9	25.3	0.00e+00	0	41	0	2990538752	45	4014
2026-01-22 01:47:23.77	155.32	30.18	-37.2	-37.9	25.2	0.00e+00	0	41	0	2995781632	45	4045
2026-01-22 01:47:24.78	155.53	30.02	-37.1	-37.8	25.3	0.00e+00	0	41	0	3002073088	45	4001
2026-01-22 01:47:25.79	155.74	29.87	-37.1	-37.9	25.2	0.00e+00	0	41	0	3007315968	45	4015
2026-01-22 01:47:26.80	155.94	29.71	-37.3	-38.0	25.1	0.00e+00	0	40	0	3012558848	45	4073
2026-01-22 01:47:27.81	156.15	29.56	-37.3	-38.0	25.1	0.00e+00	0	41	0	3018850304	45	4069
2026-01-22 01:47:28.81	156.35	29.41	-37.3	-38.1	25.1	0.00e+00	0	41	0	3024093184	45	4106
2026-01-22 01:47:29.82	156.55	29.26	-37.5	-38.2	24.9	0.00e+00	0	41	0	3030384640	45	4192
2026-01-22 01:47:30.83	156.74	29.10	-37.6	-38.3	24.9	0.00e+00	0	40	0	3035627520	45	4236
2026-01-22 01:47:31.84	156.94	28.95	-37.6	-38.3	24.8	0.00e+00	0	41	0	3040870400	45	4238
2026-01-22 01:47:32.85	157.13	28.80	-37.7	-38.4	24.8	0.00e+00	0	41	0	3047161856	45	4291
2026-01-22 01:47:33.85	157.33	28.65	-37.6	-38.4	24.8	0.00e+00	0	41	0	3053453312	45	4259
2026-01-22 01:47:34.86	157.52	28.50	-37.6	-38.4	24.8	0.00e+00	0	41	0	3058696192	45	4257
2026-01-22 01:47:35.87	157.71	28.35	-37.7	-38.5	24.7	0.00e+00	0	41	0	3063939072	45	4298
2026-01-22 01:47:36.88	157.89	28.20	-37.4	-38.1	25.0	0.00e+00	0	41	0	3070230528	45	4132
2026-01-22 01:47:37.89	158.08	28.05	-37.4	-38.2	25.0	0.00e+00	0	41	0	3075473408	45	4149
2026-01-22 01:47:38.89	158.26	27.90	-37.3	-38.1	25.1	0.00e+00	0	40	0	3080716288	45	4101
2026-01-22 01:47:39.90	158.44	27.76	-37.2	-37.9	25.2	0.00e+00	0	40	0	3087007744	45	4036
2026-01-22 01:47:40.91	158.63	27.61	-37.2	-37.9	25.2	0.00e+00	0	41	0	3092250624	45	4050
2026-01-22 01:47:41.92	158.80	27.46	-37.1	-37.8	25.3	0.00e+00	0	41	0	3097493504	45	3998
2026-01-22 01:47:42.93	158.98	27.31	-37.1	-37.8	25.3	0.00e+00	0	40	0	3103784960	45	4003
2026-01-22 01:47:43.94	159.16	27.17	-37.2	-37.9	25.2	0.00e+00	0	41	0	3109027840	45	4031
2026-01-22 01:47:44.95	159.33	27.02	-37.2	-37.9	25.2	0.00e+00	0	40	0	3115319296	45	4050
2026-01-22 01:47:45.96	159.51	26.88	-37.2	-38.0	25.2	0.00e+00	0	41	0	3120562176	45	4060
2026-01-22 01:47:46.97	159.68	26.73	-37.3	-38.1	25.1	0.00e+00	0	41	0	3126853632	45	4121
2026-01-22 01:47:47.97	159.85	26.59	-37.4	-38.1	25.0	0.00e+00	0	40	0	3132096512	45	4145
2026-01-22 01:47:48.98	160.02	26.45	-37.5	-38.2	24.9	0.00e+00	0	40	0	3138387968	45	4189
2026-01-22 01:47:49.99	160.18	26.30	-37.5	-38.3	24.9	0.00e+00	0	41	0	3143630848	45	4199
2026-01-22 01:47:51.00	160.35	26.16	-37.6	-38.4	24.8	0.00e+00	0	40	0	3148873728	45	4247
2026-01-22 01:47:52.01	160.51	26.02	-37.6	-38.4	24.8	0.00e+00	0	41	0	3155165184	45	4289
2026-01-22 01:47:53.02	160.67	25.88	-37.6	-38.4	24.8	0.00e+00	0	41	0	3160408064	45	4281
2026-01-22 01:47:54.03	160.84	25.74	-37.6	-38.4	24.8	0.00e+00	0	41	0	3165650944	45	4261
2026-01-22 01:47:55.04	161.00	25.60	-37.7	-38.5	24.7	0.00e+00	0	40	0	3171942400	46	4082
2026-01-22 01:47:56.05	161.15	25.46	-37.6	-38.4	24.8	0.00e+00	0	41	0	3177185280	46	4016
2026-01-22 01:47:57.05	161.31	25.32	-37.6	-38.4	24.8	0.00e+00	0	41	0	3183476736	46	4014
2026-01-22 01:47:58.06	161.47	25.18	-37.6	-38.4	24.8	0.00e+00	0	41	0	3188719616	46	4014
2026-01-22 01:47:59.07	161.62	25.04	-37.6	-38.4	24.8	0.00e+00	0	41	0	3195011072	46	4009
2026-01-22 01:48:00.07	161.77	24.90	-37.6	-38.4	24.8	0.00e+00	0	41	0	3200253952	46	4023
2026-01-22 01:48:01.08	161.93	24.77	-37.6	-38.4	24.8	0.00e+00	0	41	0	3205496832	46	4028
2026-01-22 01:48:02.09	162.08	24.63	-37.7	-38.4	24.8	0.00e+00	0	40	0	3211788288	46	4047
2026-01-22 01:48:03.10	162.23	24.49	-37.6	-38.4	24.8	0.00e+00	0	41	0	3217031168	46	4017
2026-01-22 01:48:04.11	162.37	24.36	-37.7	-38.5	24.7	0.00e+00	0	40	0	3223322624	46	4061
2026-01-22 01:48:05.12	162.52	24.22	-37.8	-38.5	24.7	0.00e+00	0	41	0	3228565504	46	4081
2026-01-22 01:48:06.12	162.67	24.09	-37.7	-38.5	24.7	0.00e+00	0	41	0	3233808384	46	4061
2026-01-22 01:48:07.13	162.81	23.95	-37.8	-38.5	24.7	0.00e+00	0	41	0	3240099840	46	4087
2026-01-22 01:48:08.14	162.95	23.82	-37.8	-38.5	24.7	0.00e+00	0	41	0	3245342720	46	4086
2026-01-22 01:48:09.15	163.10	23.69	-37.8	-38.6	24.6	0.00e+00	0	41	0	3250585600	46	4116
2026-01-22 01:48:10.16	163.24	23.55	-37.8	-38.6	24.6	0.00e+00	0	41	0	3256877056	46	4130
2026-01-22 01:48:11.16	163.38	23.42	-37.9	-38.6	24.6	0.00e+00	0	41	0	3263168512	46	4132
2026-01-22 01:48:12.17	163.51	23.29	-38.0	-38.7	24.5	0.00e+00	0	41	0	3268411392	46	4192
2026-01-22 01:48:13.18	163.65	23.16	-37.9	-38.7	24.5	0.00e+00	0	41	0	3273654272	46	4168
2026-01-22 01:48:14.19	163.79	23.03	-38.0	-38.8	24.4	0.00e+00	0	41	0	3279945728	46	4217
2026-01-22 01:48:15.20	163.92	22.90	-38.1	-38.8	24.4	0.00e+00	0	41	0	3285188608	46	4238
2026-01-22 01:48:16.21	164.06	22.77	-38.1	-38.9	24.4	0.00e+00	0	41	0	3290431488	46	4253
2026-01-22 01:48:17.21	164.19	22.64	-38.2	-39.0	24.2	0.00e+00	0	41	0	3296722944	47	4086
2026-01-22 01:48:18.22	164.32	22.51	-38.3	-39.1	24.2	0.00e+00	0	41	0	3301965824	47	4123
2026-01-22 01:48:19.23	164.45	22.38	-38.3	-39.1	24.2	0.00e+00	0	41	0	3308257280	47	4130
2026-01-22 01:48:20.24	164.58	22.25	-38.3	-39.1	24.2	0.00e+00	0	41	0	3313500160	47	4133
2026-01-22 01:48:21.24	164.71	22.13	-38.4	-39.2	24.1	0.00e+00	0	41	0	3318743040	47	4188
2026-01-22 01:48:22.25	164.84	22.00	-38.4	-39.2	24.1	0.00e+00	0	41	0	3325034496	47	4173
2026-01-22 01:48:23.26	164.97	21.87	-38.4	-39.2	24.0	0.00e+00	0	41	0	3331325952	47	4190
2026-01-22 01:48:24.27	165.09	21.75	-38.4	-39.2	24.1	0.00e+00	0	41	0	3336568832	47	4155
2026-01-22 01:48:25.28	165.22	21.62	-38.4	-39.2	24.0	0.00e+00	0	41	0	3341811712	47	4191
2026-01-22 01:48:26.28	165.34	21.50	-38.4	-39.2	24.1	0.00e+00	0	41	0	3348103168	47	4158
2026-01-22 01:48:27.29	165.46	21.37	-38.5	-39.3	24.0	0.00e+00	0	41	0	3353346048	47	4199
2026-01-22 01:48:28.30	165.59	21.25	-38.5	-39.3	24.0	0.00e+00	0	41	0	3358588928	47	4220
2026-01-22 01:48:29.31	165.71	21.13	-38.6	-39.4	23.9	0.00e+00	0	41	0	3364880384	47	4262
2026-01-22 01:48:30.32	165.83	21.00	-38.6	-39.4	23.9	0.00e+00	0	41	0	3370123264	47	4254
2026-01-22 01:48:31.32	165.95	20.88	-38.5	-39.2	24.0	0.00e+00	0	41	0	3375366144	47	4192
2026-01-22 01:48:32.33	166.07	20.76	-38.6	-39.4	23.9	0.00e+00	0	41	0	3381657600	47	4251
2026-01-22 01:48:33.34	166.18	20.64	-38.7	-39.5	23.8	0.00e+00	0	41	0	3386900480	47	4294
2026-01-22 01:48:34.35	166.30	20.52	-38.6	-39.4	23.8	0.00e+00	0	41	0	3393191936	47	4283
2026-01-22 01:48:35.36	166.42	20.40	-38.5	-39.3	23.9	0.00e+00	0	41	0	3398434816	47	4233
2026-01-22 01:48:36.36	166.53	20.28	-38.5	-39.3	23.9	0.00e+00	0	41	0	3404726272	47	4239
2026-01-22 01:48:37.37	166.64	20.16	-38.6	-39.4	23.8	0.00e+00	0	41	0	3409969152	47	4268
2026-01-22 01:48:38.38	166.76	20.04	-38.6	-39.4	23.8	0.00e+00	0	41	0	3416260608	47	4278
2026-01-22 01:48:39.39	166.87	19.92	-38.6	-39.4	23.8	0.00e+00	0	41	0	3421503488	47	4282
2026-01-22 01:48:40.39	166.98	19.80	-38.7	-39.5	23.8	0.00e+00	0	41	0	3426746368	47	4298
2026-01-22 01:48:41.40	167.09	19.69	-38.7	-39.5	23.8	0.00e+00	0	41	0	3433037824	47	4316
2026-01-22 01:48:42.41	167.20	19.57	-39.0	-39.8	24.0	0.00e+00	0	41	0	3438280704	48	4231
2026-01-22 01:48:43.41	167.31	19.45	-39.1	-39.9	24.0	0.00e+00	0	41	0	3443523584	48	4246
2026-01-22 01:48:44.43	167.42	19.33	-39.1	-39.9	23.9	0.00e+00	0	41	0	3449815040	48	4246
2026-01-22 01:48:45.43	167.53	19.22	-39.2	-39.9	23.9	0.00e+00	0	41	0	3455057920	48	4289
2026-01-22 01:48:46.44	167.63	19.10	-39.2	-39.9	23.9	0.00e+00	0	41	0	3460300800	48	4291
2026-01-22 01:48:47.45	167.74	18.99	-39.3	-40.0	23.8	0.00e+00	0	41	0	3466592256	49	4096
2026-01-22 01:48:48.46	167.84	18.87	-39.2	-39.9	23.9	0.00e+00	0	41	0	3472883712	49	4047
2026-01-22 01:48:49.46	167.95	18.76	-39.3	-40.0	23.8	0.00e+00	0	41	0	3478126592	49	4096
2026-01-22 01:48:50.47	168.05	18.65	-39.3	-40.0	23.8	0.00e+00	0	41	0	3483369472	49	4097
2026-01-22 01:48:51.48	168.15	18.53	-39.3	-40.1	23.8	0.00e+00	0	41	0	3489660928	49	4102
2026-01-22 01:48:52.49	168.26	18.42	-39.4	-40.1	23.7	0.00e+00	0	41	0	3494903808	49	4142
2026-01-22 01:48:53.49	168.36	18.31	-39.4	-40.1	23.7	0.00e+00	0	41	0	3501195264	49	4144
2026-01-22 01:48:54.50	168.46	18.20	-39.4	-40.2	23.7	0.00e+00	0	41	0	3506438144	49	4161
2026-01-22 01:48:55.51	168.56	18.09	-39.5	-40.3	23.6	0.00e+00	0	41	0	3511681024	49	4199
2026-01-22 01:48:56.52	168.66	17.97	-39.5	-40.3	23.5	0.00e+00	0	41	0	3517972480	49	4231
2026-01-22 01:48:57.52	168.76	17.86	-39.5	-40.3	23.5	0.00e+00	0	41	0	3523215360	49	4228
2026-01-22 01:48:58.53	168.85	17.75	-39.6	-40.4	23.5	0.00e+00	0	41	0	3528458240	49	4255
2026-01-22 01:48:59.54	168.95	17.64	-39.6	-40.4	23.5	0.00e+00	0	40	0	3534749696	49	4269
2026-01-22 01:49:00.55	169.05	17.53	-39.7	-40.5	23.4	0.00e+00	0	41	0	3539992576	49	4306
2026-01-22 01:49:01.56	169.14	17.43	-39.7	-40.5	23.4	0.00e+00	0	41	0	3546284032	50	4073
2026-01-22 01:49:02.56	169.24	17.32	-39.8	-40.6	23.3	0.00e+00	0	41	0	3551526912	50	4109
2026-01-22 01:49:03.57	169.33	17.21	-39.8	-40.7	23.3	0.00e+00	0	41	0	3557818368	50	4157
2026-01-22 01:49:04.58	169.43	17.10	-39.8	-40.6	23.3	0.00e+00	0	41	0	3563061248	50	4140
2026-01-22 01:49:05.59	169.52	16.99	-39.9	-40.7	23.3	0.00e+00	0	41	0	3568304128	50	4160
2026-01-22 01:49:06.60	169.61	16.89	-39.9	-40.7	23.2	0.00e+00	0	41	0	3574595584	50	4166
2026-01-22 01:49:07.61	169.71	16.78	-39.8	-40.7	23.3	0.00e+00	0	41	0	3579838464	50	4149
2026-01-22 01:49:08.61	169.80	16.67	-40.0	-40.8	23.1	0.00e+00	0	41	0	3586129920	50	4220
2026-01-22 01:49:09.62	169.89	16.57	-39.9	-40.8	23.2	0.00e+00	0	41	0	3591372800	50	4203
2026-01-22 01:49:10.63	169.98	16.46	-40.0	-40.8	23.1	0.00e+00	0	41	0	3596615680	50	4218
2026-01-22 01:49:11.64	170.07	16.36	-40.0	-40.8	23.1	0.00e+00	0	41	0	3602907136	50	4235
2026-01-22 01:49:12.65	170.16	16.25	-40.0	-40.8	23.1	0.00e+00	0	41	0	3608150016	50	4230
2026-01-22 01:49:13.65	170.25	16.15	-40.0	-40.8	23.1	0.00e+00	0	41	0	3614441472	50	4240
2026-01-22 01:49:14.66	170.33	16.05	-40.1	-40.9	23.0	0.00e+00	0	41	0	3619684352	50	4273
2026-01-22 01:49:15.67	170.42	15.94	-40.1	-40.9	23.0	0.00e+00	0	40	0	3625975808	50	4278
2026-01-22 01:49:16.68	170.51	15.84	-40.0	-40.9	23.1	0.00e+00	0	41	0	3631218688	50	4243
2026-01-22 01:49:17.69	170.60	15.74	-40.1	-41.0	22.9	0.00e+00	0	41	0	3636461568	50	4302
2026-01-22 01:49:18.70	170.68	15.63	-40.2	-41.0	22.9	0.00e+00	0	41	0	3642753024	51	4092
2026-01-22 01:49:19.70	170.77	15.53	-40.2	-41.0	22.8	0.00e+00	0	41	0	3647995904	51	4094
2026-01-22 01:49:20.71	170.85	15.43	-40.3	-41.2	22.7	0.00e+00	0	41	0	3653238784	51	4156
2026-01-22 01:49:21.72	170.93	15.33	-40.3	-41.2	22.7	0.00e+00	0	41	0	3659530240	51	4167
2026-01-22 01:49:22.73	171.02	15.23	-40.4	-41.2	22.7	0.00e+00	0	41	0	3664773120	51	4171
2026-01-22 01:49:23.74	171.10	15.13	-40.3	-41.2	22.7	0.00e+00	0	41	0	3671064576	51	4152
2026-01-22 01:49:24.75	171.18	15.03	-40.4	-41.3	22.6	0.00e+00	0	41	0	3676307456	51	4209
2026-01-22 01:49:25.75	171.26	14.93	-40.5	-41.3	22.6	0.00e+00	0	41	0	3682598912	51	4222
2026-01-22 01:49:26.76	171.35	14.83	-40.5	-41.3	22.6	0.00e+00	0	41	0	3687841792	51	4237
2026-01-22 01:49:27.77	171.43	14.73	-40.5	-41.3	22.6	0.00e+00	0	41	0	3694133248	51	4223
2026-01-22 01:49:28.78	171.51	14.63	-40.6	-41.5	22.5	0.00e+00	0	41	0	3699376128	51	4295
2026-01-22 01:49:29.79	171.59	14.53	-40.6	-41.5	22.4	0.00e+00	0	41	0	3704619008	51	4300
2026-01-22 01:49:30.79	171.67	14.43	-40.6	-41.5	22.4	0.00e+00	0	41	0	3710910464	51	4313
2026-01-22 01:49:31.80	171.75	14.34	-40.6	-41.4	22.4	0.00e+00	0	41	0	3716153344	52	4032
2026-01-22 01:49:32.81	171.82	14.24	-40.6	-41.5	22.4	0.00e+00	0	41	0	3721396224	52	4055
2026-01-22 01:49:33.82	171.90	14.14	-40.6	-41.5	22.3	0.00e+00	0	41	0	3727687680	52	4071
