passes_logs/2026/01/22/R3.2S_Murmansk/R3.2S_Murmansk__20260122_222949_KANOPUS-V_5_rec.log

#Pass ID: 20260122_222949_KANOPUS-V 5
#Satellite: KANOPUS-V 5
#Configuration: KANOPUS-V_8320
#almurnet v.1.7.20251203
#Start time: 2026-01-22 22:29:49

#Version: 2.2.20231116
#Station: R3.2S_Murmansk
#Location: 33.079688 lon 68.888172 lat
#TLE: 1 43876U 18111A   26022.52701148  .00004818  00000+0  20478-3 0  9994
#TLE: 2 43876  97.3679 290.9053 0001819  88.4130 271.7316 15.23508812392615

#Time	Az	El	Level	Level2	SNR	BER	BlckErr	Temp	State	Recorded	gain1	gain2
2026-01-22 22:29:49.36	20.79	2.01	-55.0	-63.9	3.8	7.45e-01	0	42	0	0	81	10098
2026-01-22 22:29:50.36	20.79	2.08	-55.2	-64.1	3.8	7.44e-01	0	42	104	0	81	10319
2026-01-22 22:29:51.37	20.78	2.15	-55.2	-64.0	3.8	7.45e-01	0	42	104	0	81	10289
2026-01-22 22:29:52.37	20.77	2.22	-55.2	-64.0	3.8	7.45e-01	0	42	104	0	81	10225
2026-01-22 22:29:53.38	20.77	2.29	-55.2	-64.0	3.8	7.46e-01	0	42	104	0	81	10268
2026-01-22 22:29:54.39	20.76	2.36	-55.2	-64.0	3.8	7.44e-01	0	42	104	0	81	10264
2026-01-22 22:29:55.40	20.75	2.44	-55.2	-64.0	3.8	7.45e-01	0	42	104	0	81	10283
2026-01-22 22:29:56.41	20.75	2.51	-55.2	-64.0	3.8	7.46e-01	0	42	104	0	81	10236
2026-01-22 22:29:57.41	20.74	2.58	-55.1	-63.9	3.8	7.46e-01	0	42	104	0	81	10155
2026-01-22 22:29:58.42	20.73	2.65	-55.1	-63.9	3.8	7.45e-01	0	42	104	0	81	10114
2026-01-22 22:29:59.43	20.73	2.72	-55.1	-63.9	3.8	7.45e-01	0	42	104	0	81	10104
2026-01-22 22:30:00.43	20.72	2.80	-55.0	-63.8	3.8	7.45e-01	0	42	104	0	81	10044
2026-01-22 22:30:01.44	20.71	2.87	-55.0	-63.8	3.8	7.45e-01	0	42	104	0	81	10027
2026-01-22 22:30:02.45	20.71	2.94	-55.0	-63.8	3.8	7.45e-01	0	43	104	0	81	9966
2026-01-22 22:30:03.46	20.70	3.02	-54.9	-63.7	3.8	7.45e-01	0	42	104	0	81	9905
2026-01-22 22:30:04.47	20.69	3.09	-54.8	-63.7	3.8	7.46e-01	0	42	104	0	81	9842
2026-01-22 22:30:05.48	20.68	3.16	-54.8	-63.6	3.8	7.46e-01	0	42	104	0	81	9739
2026-01-22 22:30:06.48	20.68	3.24	-54.7	-63.4	3.8	7.46e-01	0	42	104	0	81	9601
2026-01-22 22:30:07.49	20.67	3.31	-54.5	-63.4	3.8	7.45e-01	0	42	104	0	81	9518
2026-01-22 22:30:08.50	20.66	3.39	-54.4	-63.2	3.8	7.44e-01	0	43	104	0	80	9857
2026-01-22 22:30:09.51	20.65	3.46	-54.1	-63.0	3.8	7.44e-01	0	43	104	0	80	9612
2026-01-22 22:30:10.51	20.65	3.54	-53.9	-62.7	3.8	7.45e-01	0	43	104	0	79	9852
2026-01-22 22:30:11.52	20.64	3.61	-53.5	-62.3	3.8	7.44e-01	0	43	104	0	79	9475
2026-01-22 22:30:12.53	20.63	3.69	-53.5	-62.3	3.8	7.45e-01	0	43	104	0	79	9434
2026-01-22 22:30:13.54	20.62	3.77	-53.5	-62.3	3.8	7.45e-01	0	43	104	0	78	9954
2026-01-22 22:30:14.55	20.61	3.84	-53.5	-62.3	3.8	7.44e-01	0	43	104	0	78	9960
2026-01-22 22:30:15.56	20.60	3.92	-53.5	-62.3	3.8	7.44e-01	0	43	104	0	78	9997
2026-01-22 22:30:16.57	20.60	4.00	-53.4	-62.3	3.8	7.44e-01	0	43	104	0	78	9958
2026-01-22 22:30:17.57	20.59	4.07	-53.5	-62.3	3.8	7.45e-01	0	43	104	0	78	9965
2026-01-22 22:30:18.58	20.58	4.15	-53.4	-62.3	3.8	7.47e-01	0	43	104	0	78	9982
2026-01-22 22:30:19.59	20.57	4.23	-53.4	-62.2	3.8	7.45e-01	0	43	104	0	78	9934
2026-01-22 22:30:20.60	20.56	4.31	-53.4	-62.3	3.8	7.44e-01	0	43	104	0	78	9976
2026-01-22 22:30:21.61	20.55	4.39	-53.4	-62.3	3.8	7.44e-01	0	43	104	0	78	9966
2026-01-22 22:30:22.61	20.54	4.47	-53.4	-62.3	3.8	7.45e-01	0	43	104	0	78	9959
2026-01-22 22:30:23.62	20.54	4.55	-53.4	-62.3	3.8	7.46e-01	0	43	104	0	78	9949
2026-01-22 22:30:24.63	20.53	4.63	-53.4	-62.3	3.8	7.46e-01	0	43	104	0	78	9961
2026-01-22 22:30:25.64	20.52	4.71	-53.4	-62.2	3.8	7.46e-01	0	43	104	0	78	9892
2026-01-22 22:30:26.65	20.51	4.79	-53.4	-62.3	3.8	7.46e-01	0	43	104	0	78	9955
2026-01-22 22:30:27.65	20.50	4.87	-53.4	-62.3	3.8	7.46e-01	0	43	104	0	78	9951
2026-01-22 22:30:28.66	20.49	4.95	-53.4	-62.2	3.8	7.44e-01	0	43	104	0	78	9915
2026-01-22 22:30:29.67	20.48	5.03	-53.4	-62.2	3.8	7.46e-01	0	43	104	0	78	9921
2026-01-22 22:30:30.68	20.47	5.11	-53.4	-62.2	3.8	7.44e-01	0	43	104	0	78	9935
2026-01-22 22:30:31.69	20.46	5.19	-53.5	-62.3	3.8	7.45e-01	0	43	104	0	78	10035
2026-01-22 22:30:32.69	20.45	5.27	-53.4	-62.2	3.8	7.46e-01	0	43	104	0	78	9933
2026-01-22 22:30:33.70	20.44	5.36	-53.5	-62.3	3.8	7.45e-01	0	43	104	0	78	10001
2026-01-22 22:30:34.71	20.43	5.44	-53.5	-62.3	3.8	7.45e-01	0	43	104	0	78	9998
2026-01-22 22:30:35.72	20.42	5.52	-53.6	-62.4	3.8	7.45e-01	0	43	104	0	78	10074
2026-01-22 22:30:36.73	20.41	5.61	-53.5	-62.3	3.8	7.46e-01	0	43	104	0	78	9974
2026-01-22 22:30:37.73	20.40	5.69	-53.5	-62.3	3.8	7.45e-01	0	43	104	0	78	10037
2026-01-22 22:30:38.74	20.39	5.77	-53.5	-62.3	3.8	7.45e-01	0	43	104	0	78	10003
2026-01-22 22:30:39.75	20.38	5.86	-53.6	-62.4	3.8	7.45e-01	0	43	104	0	78	10115
2026-01-22 22:30:40.76	20.37	5.94	-53.5	-62.3	3.8	7.44e-01	0	43	104	0	78	10022
2026-01-22 22:30:41.77	20.36	6.03	-53.5	-62.3	3.8	7.46e-01	0	43	104	0	78	10041
2026-01-22 22:30:42.77	20.35	6.11	-53.5	-62.4	3.8	7.46e-01	0	43	104	0	78	10063
2026-01-22 22:30:43.78	20.34	6.20	-53.6	-62.4	3.8	7.45e-01	0	43	104	0	78	10156
2026-01-22 22:30:44.79	20.33	6.29	-53.5	-62.3	3.8	7.45e-01	0	43	104	0	78	10041
2026-01-22 22:30:45.80	20.31	6.37	-53.6	-62.4	3.8	7.46e-01	0	43	104	0	78	10127
2026-01-22 22:30:46.80	20.30	6.46	-53.6	-62.4	3.8	7.46e-01	0	43	104	0	78	10097
2026-01-22 22:30:47.81	20.29	6.55	-53.7	-62.5	3.8	7.44e-01	0	43	104	0	78	10228
2026-01-22 22:30:48.82	20.28	6.64	-53.6	-62.4	3.8	7.46e-01	0	43	104	0	78	10067
2026-01-22 22:30:49.83	20.27	6.73	-53.6	-62.4	3.8	7.45e-01	0	43	104	0	78	10171
2026-01-22 22:30:50.83	20.26	6.81	-53.6	-62.4	3.8	7.45e-01	0	43	104	0	78	10154
2026-01-22 22:30:51.84	20.24	6.90	-53.7	-62.5	3.8	7.47e-01	0	43	104	0	78	10225
2026-01-22 22:30:52.85	20.23	6.99	-53.6	-62.4	3.8	7.45e-01	0	43	104	0	78	10112
2026-01-22 22:30:53.86	20.22	7.08	-53.7	-62.5	3.8	7.43e-01	0	43	104	0	78	10202
2026-01-22 22:30:54.87	20.21	7.17	-53.7	-62.5	3.8	7.45e-01	0	43	104	0	78	10219
2026-01-22 22:30:55.87	20.20	7.27	-53.8	-62.6	3.8	7.46e-01	0	43	104	0	78	10311
2026-01-22 22:30:56.88	20.18	7.36	-53.6	-62.4	3.8	7.44e-01	0	43	104	0	78	10169
2026-01-22 22:30:57.89	20.17	7.45	-53.7	-62.5	3.8	7.46e-01	0	44	104	0	78	10226
2026-01-22 22:30:58.90	20.16	7.54	-53.7	-62.5	3.8	7.45e-01	0	43	104	0	78	10276
2026-01-22 22:30:59.91	20.14	7.63	-53.8	-62.6	3.8	7.46e-01	0	43	104	0	78	10357
2026-01-22 22:31:00.92	20.13	7.73	-53.7	-62.5	3.8	7.45e-01	0	44	104	0	78	10214
2026-01-22 22:31:01.93	20.12	7.82	-53.7	-62.6	3.8	7.46e-01	0	44	104	0	78	10310
2026-01-22 22:31:02.93	20.10	7.92	-53.7	-62.5	3.8	7.46e-01	0	43	104	0	78	10208
2026-01-22 22:31:03.94	20.09	8.01	-53.8	-62.6	3.8	7.45e-01	0	44	104	0	78	10387
2026-01-22 22:31:04.95	20.08	8.11	-53.7	-62.5	3.8	7.45e-01	0	44	104	0	78	10261
2026-01-22 22:31:05.96	20.06	8.20	-53.8	-62.6	3.8	7.44e-01	0	44	104	0	78	10306
2026-01-22 22:31:06.97	20.05	8.30	-53.8	-62.6	3.8	7.44e-01	0	44	104	0	78	10315
2026-01-22 22:31:07.97	20.04	8.39	-53.8	-62.7	3.8	7.46e-01	0	44	104	0	78	10445
2026-01-22 22:31:08.98	20.02	8.49	-53.7	-62.6	3.8	7.46e-01	0	43	104	0	78	10299
2026-01-22 22:31:09.99	20.01	8.59	-53.8	-62.6	3.8	7.45e-01	0	43	104	0	78	10372
2026-01-22 22:31:11.00	19.99	8.69	-53.8	-62.6	3.8	7.45e-01	0	44	104	0	78	10315
2026-01-22 22:31:12.00	19.98	8.79	-53.9	-62.7	3.8	7.45e-01	0	44	104	0	78	10471
2026-01-22 22:31:13.01	19.96	8.88	-53.8	-62.6	3.8	7.45e-01	0	44	104	0	78	10322
2026-01-22 22:31:14.02	19.95	8.98	-53.8	-62.6	3.8	7.44e-01	0	44	104	0	78	10345
2026-01-22 22:31:15.03	19.93	9.08	-53.8	-62.6	3.8	7.47e-01	0	44	104	0	78	10379
2026-01-22 22:31:16.03	19.92	9.18	-53.9	-62.7	3.8	7.45e-01	0	44	104	0	78	10505
2026-01-22 22:31:17.04	19.90	9.29	-53.8	-62.6	3.8	7.44e-01	0	44	104	0	78	10350
2026-01-22 22:31:18.05	19.88	9.39	-53.9	-62.7	3.8	7.45e-01	0	44	104	0	78	10458
2026-01-22 22:31:19.06	19.87	9.49	-53.8	-62.6	3.8	7.46e-01	0	44	104	0	78	10398
2026-01-22 22:31:20.07	19.85	9.59	-53.9	-62.7	3.8	7.44e-01	0	44	104	0	78	10532
2026-01-22 22:31:21.07	19.84	9.70	-53.8	-62.6	3.8	7.46e-01	0	44	104	0	78	10381
2026-01-22 22:31:22.08	19.82	9.80	-53.9	-62.7	3.8	7.46e-01	0	44	104	0	78	10457
2026-01-22 22:31:23.09	19.80	9.91	-53.9	-62.6	3.8	7.47e-01	0	44	104	0	78	10411
2026-01-22 22:31:24.10	19.79	10.01	-53.9	-62.7	3.8	7.46e-01	0	44	104	0	78	10520
2026-01-22 22:31:25.11	19.77	10.12	-53.9	-62.7	3.8	7.45e-01	0	44	104	0	78	10438
2026-01-22 22:31:26.12	19.75	10.23	-53.9	-62.7	3.8	7.46e-01	0	44	104	0	78	10512
2026-01-22 22:31:27.12	19.73	10.33	-53.9	-62.7	3.8	7.45e-01	0	44	104	0	78	10490
2026-01-22 22:31:28.13	19.72	10.44	-54.0	-62.8	3.8	7.45e-01	0	44	104	0	78	10549
2026-01-22 22:31:29.14	19.70	10.55	-53.9	-62.7	3.8	7.46e-01	0	44	104	0	78	10445
2026-01-22 22:31:30.14	19.68	10.66	-53.9	-62.8	3.8	7.44e-01	0	44	104	0	78	10547
2026-01-22 22:31:31.15	19.66	10.77	-53.9	-62.8	3.8	7.45e-01	0	44	104	0	78	10535
2026-01-22 22:31:32.16	19.64	10.88	-54.0	-62.8	3.8	7.46e-01	0	44	104	0	78	10579
2026-01-22 22:31:33.17	19.63	10.99	-53.9	-62.7	3.8	7.46e-01	0	44	104	0	78	10519
2026-01-22 22:31:34.17	19.61	11.10	-54.0	-62.8	3.8	7.44e-01	0	44	104	0	78	10534
2026-01-22 22:31:35.18	19.59	11.21	-53.9	-62.8	3.8	7.46e-01	0	44	104	0	78	10558
2026-01-22 22:31:36.19	19.57	11.32	-54.0	-62.8	3.8	7.46e-01	0	44	104	0	78	10629
2026-01-22 22:31:37.20	19.55	11.44	-53.9	-62.7	3.8	7.46e-01	0	44	104	0	78	10532
2026-01-22 22:31:38.21	19.53	11.55	-54.0	-62.8	3.8	7.47e-01	0	44	104	0	78	10548
2026-01-22 22:31:39.21	19.51	11.67	-54.0	-62.8	3.8	7.44e-01	0	44	104	0	78	10561
2026-01-22 22:31:40.22	19.49	11.78	-54.0	-62.9	3.8	7.44e-01	0	44	104	0	78	10670
2026-01-22 22:31:41.23	19.47	11.90	-54.0	-62.8	3.8	7.45e-01	0	44	104	0	78	10537
2026-01-22 22:31:42.24	19.45	12.02	-54.0	-62.8	3.8	7.44e-01	0	44	104	0	78	10619
2026-01-22 22:31:43.25	19.43	12.14	-54.0	-62.8	3.8	7.44e-01	0	44	104	0	78	10592
2026-01-22 22:31:44.25	19.41	12.26	-54.1	-62.9	3.8	7.45e-01	0	44	104	0	78	10724
2026-01-22 22:31:45.26	19.38	12.37	-54.0	-62.8	3.8	7.45e-01	0	44	104	0	78	10606
2026-01-22 22:31:46.27	19.36	12.50	-54.0	-62.8	3.8	7.46e-01	0	44	104	0	78	10627
2026-01-22 22:31:47.28	19.34	12.62	-54.0	-62.8	3.8	7.45e-01	0	44	104	0	78	10651
2026-01-22 22:31:48.28	19.32	12.74	-54.1	-62.9	3.8	7.44e-01	0	44	104	0	78	10747
2026-01-22 22:31:49.29	19.30	12.86	-54.0	-62.8	3.8	7.46e-01	0	44	104	0	78	10615
2026-01-22 22:31:50.30	19.27	12.99	-54.1	-62.9	3.8	7.46e-01	0	44	104	0	78	10686
2026-01-22 22:31:51.31	19.25	13.11	-54.1	-62.9	3.8	7.45e-01	0	44	104	0	78	10671
2026-01-22 22:31:52.32	19.23	13.24	-54.1	-62.9	3.8	7.45e-01	0	44	104	0	78	10755
2026-01-22 22:31:53.33	19.20	13.36	-54.1	-62.9	3.8	7.46e-01	0	44	104	0	78	10714
2026-01-22 22:31:54.33	19.18	13.49	-54.1	-62.9	3.8	7.45e-01	0	44	104	0	78	10720
2026-01-22 22:31:55.34	19.16	13.62	-54.1	-62.9	3.8	7.43e-01	0	44	104	0	78	10723
2026-01-22 22:31:56.35	19.13	13.75	-54.1	-62.9	3.8	7.43e-01	0	44	104	0	78	10773
2026-01-22 22:31:57.36	19.11	13.88	-54.1	-62.9	3.8	7.46e-01	0	44	104	0	78	10707
2026-01-22 22:31:58.37	19.08	14.01	-54.1	-62.9	3.8	7.45e-01	0	44	104	0	78	10757
2026-01-22 22:31:59.37	19.06	14.14	-54.1	-62.9	3.8	7.44e-01	0	44	104	0	78	10747
2026-01-22 22:32:00.38	19.03	14.27	-54.2	-62.9	3.8	7.45e-01	0	44	104	0	78	10744
2026-01-22 22:32:01.39	19.00	14.40	-54.1	-62.9	3.8	7.44e-01	0	44	104	0	78	10744
2026-01-22 22:32:02.40	18.98	14.54	-54.1	-63.0	3.8	7.46e-01	0	44	104	0	78	10786
2026-01-22 22:32:03.41	18.95	14.67	-54.1	-63.0	3.8	7.46e-01	0	44	104	0	78	10779
2026-01-22 22:32:04.42	18.92	14.81	-54.2	-63.0	3.8	7.45e-01	0	44	104	0	78	10781
2026-01-22 22:32:05.43	18.90	14.95	-54.1	-62.9	3.8	7.45e-01	0	44	104	0	78	10749
2026-01-22 22:32:06.44	18.87	15.09	-54.2	-63.0	3.8	7.46e-01	0	44	104	0	78	10827
2026-01-22 22:32:07.45	18.84	15.23	-54.2	-63.0	3.8	7.44e-01	0	44	104	0	78	10835
2026-01-22 22:32:08.45	18.81	15.37	-54.2	-63.0	3.8	7.45e-01	0	44	104	0	79	10285
2026-01-22 22:32:09.46	18.78	15.51	-54.2	-63.0	3.8	7.44e-01	0	44	104	0	79	10230
2026-01-22 22:32:10.47	18.76	15.65	-54.2	-63.0	3.8	7.45e-01	0	44	104	0	79	10236
2026-01-22 22:32:11.48	18.73	15.79	-54.2	-63.0	3.8	7.45e-01	0	44	104	0	79	10281
2026-01-22 22:32:12.49	18.70	15.94	-54.2	-63.0	3.8	7.45e-01	0	44	104	0	79	10239
2026-01-22 22:32:13.50	18.67	16.09	-54.2	-63.0	3.8	7.47e-01	0	44	104	0	79	10214
2026-01-22 22:32:14.51	18.63	16.23	-54.2	-63.0	3.8	7.45e-01	0	44	104	0	79	10218
2026-01-22 22:32:15.51	18.60	16.38	-54.3	-63.1	3.8	7.45e-01	0	44	104	0	79	10328
2026-01-22 22:32:16.52	18.57	16.53	-54.3	-63.1	3.8	7.46e-01	0	44	104	0	79	10299
2026-01-22 22:32:17.53	18.54	16.68	-54.2	-63.0	3.8	7.44e-01	0	44	104	0	79	10234
2026-01-22 22:32:18.54	18.51	16.83	-54.2	-63.0	3.8	7.45e-01	0	44	104	0	79	10292
2026-01-22 22:32:19.55	18.47	16.99	-54.3	-63.0	3.8	7.44e-01	0	44	104	0	79	10288
2026-01-22 22:32:20.56	18.44	17.14	-54.3	-63.1	3.8	7.45e-01	0	44	104	0	79	10356
2026-01-22 22:32:21.57	18.41	17.30	-54.2	-63.0	3.8	7.45e-01	0	44	104	0	79	10274
2026-01-22 22:32:22.57	18.37	17.45	-54.3	-63.1	3.8	7.45e-01	0	44	104	0	79	10318
2026-01-22 22:32:23.58	18.34	17.61	-54.3	-63.1	3.8	7.46e-01	0	44	104	0	79	10336
2026-01-22 22:32:24.59	18.30	17.77	-54.3	-63.1	3.8	7.46e-01	0	44	104	0	79	10334
2026-01-22 22:32:25.60	18.27	17.93	-54.3	-63.1	3.8	7.46e-01	0	44	104	0	79	10307
2026-01-22 22:32:26.61	18.23	18.09	-54.3	-63.1	3.8	7.46e-01	0	44	104	0	79	10331
2026-01-22 22:32:27.61	18.20	18.26	-54.3	-63.1	3.8	7.43e-01	0	44	104	0	79	10395
2026-01-22 22:32:28.62	18.16	18.42	-54.3	-63.1	3.8	7.46e-01	0	44	104	0	79	10366
2026-01-22 22:32:29.63	18.12	18.59	-54.3	-63.1	3.8	7.47e-01	0	44	104	0	79	10343
2026-01-22 22:32:30.64	18.08	18.76	-54.3	-63.1	3.8	7.46e-01	0	44	104	0	79	10362
2026-01-22 22:32:31.65	18.04	18.93	-54.3	-63.1	3.8	7.45e-01	0	44	104	0	79	10402
2026-01-22 22:32:32.66	18.00	19.10	-54.3	-63.1	3.8	7.47e-01	0	44	104	0	79	10367
2026-01-22 22:32:33.67	17.96	19.27	-54.3	-63.1	3.8	7.45e-01	0	44	104	0	79	10335
2026-01-22 22:32:34.67	17.92	19.44	-54.3	-63.1	3.8	7.44e-01	0	44	104	0	79	10378
2026-01-22 22:32:35.68	17.88	19.62	-54.4	-63.1	3.8	7.45e-01	0	44	104	0	79	10407
2026-01-22 22:32:36.69	17.84	19.79	-54.3	-63.1	3.8	7.46e-01	0	44	104	0	79	10410
2026-01-22 22:32:37.70	17.80	19.97	-54.3	-63.2	3.8	7.46e-01	0	44	104	0	79	10416
2026-01-22 22:32:38.71	17.76	20.15	-54.3	-63.1	3.8	7.47e-01	0	44	104	0	79	10412
2026-01-22 22:32:39.71	17.71	20.33	-54.4	-63.2	3.8	7.46e-01	0	44	104	0	79	10469
2026-01-22 22:32:40.72	17.67	20.52	-54.4	-63.2	3.8	7.45e-01	0	44	104	0	79	10422
2026-01-22 22:32:41.73	17.62	20.70	-54.4	-63.2	3.8	7.45e-01	0	44	104	0	79	10445
2026-01-22 22:32:42.74	17.58	20.89	-54.4	-63.2	3.8	7.44e-01	0	44	104	0	79	10423
2026-01-22 22:32:43.74	17.53	21.08	-54.4	-63.2	3.8	7.46e-01	0	44	104	0	79	10484
2026-01-22 22:32:44.75	17.49	21.27	-54.4	-63.2	3.8	7.45e-01	0	44	104	0	79	10445
2026-01-22 22:32:45.76	17.44	21.46	-54.4	-63.2	3.8	7.45e-01	0	44	104	0	79	10432
2026-01-22 22:32:46.77	17.39	21.65	-54.4	-63.2	3.8	7.45e-01	0	44	104	0	79	10486
2026-01-22 22:32:47.78	17.34	21.85	-54.4	-63.2	3.8	7.44e-01	0	44	104	0	79	10482
2026-01-22 22:32:48.79	17.29	22.05	-54.4	-63.2	3.8	7.45e-01	0	44	104	0	79	10439
2026-01-22 22:32:49.79	17.24	22.25	-54.4	-63.2	3.8	7.45e-01	0	44	104	0	79	10466
2026-01-22 22:32:50.80	17.19	22.45	-54.4	-63.2	3.8	7.45e-01	0	44	104	0	79	10459
2026-01-22 22:32:51.81	17.14	22.65	-54.5	-63.3	3.8	7.45e-01	0	44	104	0	79	10561
2026-01-22 22:32:52.81	17.09	22.85	-54.4	-63.2	3.8	7.46e-01	0	44	104	0	79	10468
2026-01-22 22:32:53.82	17.03	23.06	-54.4	-63.2	3.8	7.47e-01	0	44	104	0	79	10490
2026-01-22 22:32:54.83	16.98	23.27	-54.4	-63.2	3.8	7.44e-01	0	44	104	0	79	10500
2026-01-22 22:32:55.84	16.92	23.48	-54.5	-63.3	3.8	7.46e-01	0	44	104	0	79	10555
2026-01-22 22:32:56.85	16.86	23.70	-54.4	-63.2	3.8	7.44e-01	0	44	104	0	79	10493
2026-01-22 22:32:57.85	16.81	23.91	-54.4	-63.3	3.8	7.43e-01	0	44	104	0	79	10562
2026-01-22 22:32:58.86	16.75	24.13	-54.4	-63.2	3.8	7.45e-01	0	44	104	0	79	10525
2026-01-22 22:32:59.87	16.69	24.35	-54.5	-63.3	3.8	7.45e-01	0	44	104	0	79	10578
2026-01-22 22:33:00.88	16.63	24.58	-54.4	-63.3	3.8	7.45e-01	0	44	104	0	79	10560
2026-01-22 22:33:01.89	16.57	24.80	-54.5	-63.2	3.8	7.46e-01	0	44	104	0	79	10521
2026-01-22 22:33:02.89	16.50	25.03	-54.5	-63.3	3.8	7.45e-01	0	44	104	0	79	10564
2026-01-22 22:33:03.90	16.44	25.26	-54.5	-63.3	3.8	7.46e-01	0	44	104	0	79	10589
2026-01-22 22:33:04.91	16.38	25.49	-54.5	-63.3	3.8	7.44e-01	0	44	104	0	79	10589
2026-01-22 22:33:05.92	16.31	25.72	-54.5	-63.3	3.8	7.45e-01	0	44	104	0	79	10604
2026-01-22 22:33:06.93	16.24	25.96	-54.5	-63.3	3.8	7.45e-01	0	44	104	0	79	10588
2026-01-22 22:33:07.94	16.17	26.20	-54.5	-63.3	3.8	7.45e-01	0	44	104	0	79	10645
2026-01-22 22:33:08.95	16.10	26.44	-54.5	-63.3	3.8	7.45e-01	0	44	104	0	79	10566
2026-01-22 22:33:09.95	16.03	26.69	-54.5	-63.3	3.8	7.44e-01	0	44	104	0	79	10601
2026-01-22 22:33:10.96	15.96	26.93	-54.5	-63.3	3.8	7.45e-01	0	44	104	0	79	10606
2026-01-22 22:33:11.97	15.89	27.19	-54.5	-63.4	3.8	7.45e-01	0	44	104	0	79	10671
2026-01-22 22:33:12.98	15.81	27.44	-54.5	-63.3	3.8	7.46e-01	0	44	104	0	79	10631
2026-01-22 22:33:13.98	15.74	27.69	-54.5	-63.3	3.8	7.45e-01	0	44	104	0	79	10644
2026-01-22 22:33:15.00	15.66	27.95	-54.5	-63.3	3.8	7.46e-01	0	44	104	0	79	10627
2026-01-22 22:33:16.01	15.58	28.22	-54.6	-63.4	3.8	7.46e-01	0	44	104	0	79	10688
2026-01-22 22:33:17.01	15.50	28.48	-54.5	-63.3	3.8	7.46e-01	0	44	104	0	79	10630
2026-01-22 22:33:18.02	15.42	28.75	-54.5	-63.4	3.8	7.48e-01	0	44	104	0	79	10669
2026-01-22 22:33:19.03	15.34	29.02	-54.5	-63.4	3.8	7.45e-01	0	44	104	0	79	10660
2026-01-22 22:33:20.04	15.25	29.29	-54.6	-63.4	3.8	7.46e-01	0	44	104	0	79	10704
2026-01-22 22:33:21.05	15.16	29.57	-54.5	-63.4	3.8	7.45e-01	0	44	104	0	79	10684
2026-01-22 22:33:22.05	15.08	29.85	-54.6	-63.4	3.8	7.45e-01	0	44	104	0	79	10675
2026-01-22 22:33:23.06	14.98	30.13	-54.6	-63.3	3.8	7.46e-01	0	44	104	0	79	10634
2026-01-22 22:33:24.07	14.89	30.42	-54.6	-63.4	3.8	7.44e-01	0	44	104	0	79	10775
2026-01-22 22:33:25.08	14.80	30.71	-54.6	-63.4	3.8	7.44e-01	0	44	104	0	79	10697
2026-01-22 22:33:26.09	14.70	31.00	-54.6	-63.4	3.8	7.44e-01	0	44	104	0	79	10716
2026-01-22 22:33:27.10	14.60	31.30	-54.6	-63.4	3.8	7.44e-01	0	44	104	0	79	10723
2026-01-22 22:33:28.10	14.50	31.60	-54.6	-63.5	3.8	7.44e-01	0	44	104	0	79	10791
2026-01-22 22:33:29.12	14.40	31.90	-54.6	-63.4	3.8	7.45e-01	0	45	104	0	79	10732
2026-01-22 22:33:30.12	14.30	32.21	-54.6	-63.5	3.8	7.44e-01	0	44	104	0	79	10783
2026-01-22 22:33:31.13	14.19	32.52	-54.6	-63.4	3.8	7.47e-01	0	44	104	0	79	10724
2026-01-22 22:33:32.14	14.08	32.84	-54.7	-63.5	3.8	7.47e-01	0	44	104	0	79	10805
2026-01-22 22:33:33.15	13.97	33.16	-54.6	-63.4	3.8	7.45e-01	0	44	104	0	79	10751
2026-01-22 22:33:34.15	13.86	33.48	-54.6	-63.5	3.8	7.45e-01	0	44	104	0	79	10793
2026-01-22 22:33:35.16	13.74	33.80	-54.7	-63.5	3.8	7.44e-01	0	44	104	0	79	10798
2026-01-22 22:33:36.17	13.62	34.13	-54.7	-63.5	3.8	7.44e-01	0	44	104	0	79	10809
2026-01-22 22:33:37.18	13.50	34.47	-54.6	-63.4	3.8	7.44e-01	0	44	104	0	79	10777
2026-01-22 22:33:38.19	13.38	34.81	-54.7	-63.5	3.8	7.45e-01	0	44	104	0	79	10819
2026-01-22 22:33:39.20	13.25	35.15	-54.7	-63.5	3.8	7.45e-01	0	44	104	0	79	10806
2026-01-22 22:33:40.21	13.12	35.50	-54.7	-63.5	3.8	7.46e-01	0	44	104	0	79	10859
2026-01-22 22:33:41.22	12.98	35.85	-54.7	-63.5	3.8	7.45e-01	0	44	104	0	79	10806
2026-01-22 22:33:42.22	12.85	36.20	-54.7	-63.5	3.8	7.46e-01	0	44	104	0	79	10855
2026-01-22 22:33:43.23	12.71	36.56	-54.7	-63.5	3.8	7.45e-01	0	44	104	0	79	10810
2026-01-22 22:33:44.24	12.56	36.93	-54.7	-63.5	3.8	7.46e-01	0	44	104	0	80	10243
2026-01-22 22:33:45.25	12.42	37.30	-54.6	-63.4	3.8	7.44e-01	0	44	104	0	80	10151
2026-01-22 22:33:46.25	12.27	37.67	-54.7	-63.5	3.8	7.43e-01	0	44	104	0	80	10179
2026-01-22 22:33:47.26	12.11	38.05	-54.7	-63.5	3.8	7.47e-01	0	44	104	0	80	10236
2026-01-22 22:33:48.27	11.96	38.43	-54.7	-63.5	3.8	7.46e-01	0	44	104	0	80	10230
2026-01-22 22:33:49.28	11.79	38.82	-54.7	-63.5	3.8	7.44e-01	0	44	104	0	80	10217
2026-01-22 22:33:50.29	11.63	39.21	-54.7	-63.5	3.8	7.44e-01	0	44	104	0	80	10279
2026-01-22 22:33:51.29	11.46	39.61	-54.7	-63.5	3.8	7.45e-01	0	44	104	0	80	10259
2026-01-22 22:33:52.30	11.28	40.01	-54.7	-63.5	3.8	7.46e-01	0	44	104	0	80	10270
2026-01-22 22:33:53.31	11.10	40.42	-54.7	-63.5	3.8	7.46e-01	0	44	104	0	80	10236
2026-01-22 22:33:54.32	10.91	40.83	-54.7	-63.6	3.8	7.46e-01	0	44	104	0	80	10316
2026-01-22 22:33:55.32	10.73	41.25	-54.8	-63.6	3.8	7.45e-01	0	44	104	0	80	10313
2026-01-22 22:33:56.33	10.53	41.67	-54.8	-63.6	3.8	7.45e-01	0	44	104	0	80	10348
2026-01-22 22:33:57.34	10.33	42.10	-54.7	-63.5	3.8	7.44e-01	0	44	104	0	80	10286
2026-01-22 22:33:58.35	10.12	42.53	-54.8	-63.6	3.8	7.45e-01	0	44	104	0	80	10339
2026-01-22 22:33:59.36	9.91	42.97	-54.8	-63.6	3.8	7.46e-01	0	44	104	0	80	10343
2026-01-22 22:34:00.37	9.69	43.42	-54.8	-63.6	3.8	7.46e-01	0	45	104	0	80	10327
2026-01-22 22:34:01.38	9.46	43.87	-54.8	-63.6	3.8	7.46e-01	0	44	104	0	80	10330
2026-01-22 22:34:02.39	9.23	44.32	-54.8	-63.6	3.8	7.47e-01	0	44	104	0	80	10355
2026-01-22 22:34:03.39	8.99	44.78	-54.8	-63.6	3.8	7.46e-01	0	44	104	0	80	10389
2026-01-22 22:34:04.40	8.74	45.25	-54.8	-63.6	3.8	7.45e-01	0	44	104	0	80	10379
2026-01-22 22:34:05.41	8.49	45.72	-54.8	-63.6	3.8	7.47e-01	0	44	104	0	80	10381
2026-01-22 22:34:06.42	8.22	46.20	-54.8	-63.6	3.8	7.45e-01	0	44	104	0	80	10396
2026-01-22 22:34:07.43	7.95	46.68	-54.9	-63.7	3.8	7.45e-01	0	44	104	0	80	10418
2026-01-22 22:34:08.44	7.67	47.17	-54.8	-63.7	3.8	7.45e-01	0	44	104	0	80	10413
2026-01-22 22:34:09.45	7.38	47.66	-54.8	-63.6	3.8	7.47e-01	0	44	104	0	80	10350
2026-01-22 22:34:10.45	7.08	48.16	-54.9	-63.6	3.8	7.45e-01	0	44	104	0	80	10406
2026-01-22 22:34:11.46	6.77	48.67	-54.9	-63.7	3.8	7.46e-01	0	44	104	0	80	10507
2026-01-22 22:34:12.47	6.45	49.18	-54.9	-63.7	3.8	7.45e-01	0	44	104	0	80	10427
2026-01-22 22:34:13.48	6.11	49.70	-54.9	-63.7	3.8	7.45e-01	0	44	104	0	80	10448
2026-01-22 22:34:14.49	5.77	50.22	-54.9	-63.7	3.8	7.45e-01	0	44	104	0	80	10463
2026-01-22 22:34:15.50	5.41	50.75	-54.9	-63.7	3.8	7.43e-01	0	45	104	0	80	10521
2026-01-22 22:34:16.51	5.04	51.28	-54.9	-63.7	3.8	7.45e-01	0	44	104	0	80	10469
2026-01-22 22:34:17.51	4.65	51.82	-54.9	-63.7	3.8	7.46e-01	0	44	104	0	80	10433
2026-01-22 22:34:18.52	4.25	52.36	-54.9	-63.7	3.8	7.44e-01	0	44	104	0	80	10474
2026-01-22 22:34:19.53	3.84	52.91	-54.9	-63.7	3.8	7.46e-01	0	44	104	0	80	10522
2026-01-22 22:34:20.54	3.41	53.47	-54.9	-63.7	3.8	7.46e-01	0	44	104	0	80	10479
2026-01-22 22:34:21.55	2.96	54.03	-54.9	-63.7	3.8	7.44e-01	0	44	104	0	80	10492
2026-01-22 22:34:22.56	2.49	54.59	-54.9	-63.7	3.8	7.47e-01	0	44	104	0	80	10513
2026-01-22 22:34:23.57	2.00	55.17	-55.0	-63.8	3.8	7.45e-01	0	44	104	0	80	10571
2026-01-22 22:34:24.57	1.50	55.73	-54.9	-63.7	3.8	7.45e-01	0	44	104	0	80	10521
2026-01-22 22:34:25.58	0.97	56.31	-55.0	-63.8	3.8	7.47e-01	0	44	104	0	80	10593
2026-01-22 22:34:26.59	0.41	56.90	-55.0	-63.8	3.8	7.45e-01	0	44	104	0	80	10605
2026-01-22 22:34:27.60	359.83	57.49	-55.0	-63.8	3.8	7.47e-01	0	44	104	0	80	10634
2026-01-22 22:34:28.61	359.23	58.08	-55.0	-63.8	3.8	7.44e-01	0	44	104	0	80	10565
2026-01-22 22:34:29.62	358.60	58.67	-55.0	-63.8	3.8	7.44e-01	0	44	104	0	80	10558
2026-01-22 22:34:30.63	357.93	59.27	-55.0	-63.8	3.8	7.46e-01	0	44	104	0	80	10616
2026-01-22 22:34:31.64	357.24	59.87	-55.0	-63.8	3.8	7.45e-01	0	44	104	0	80	10602
2026-01-22 22:34:32.65	356.51	60.48	-55.0	-63.8	3.8	7.45e-01	0	45	104	0	80	10559
2026-01-22 22:34:33.65	355.75	61.08	-55.0	-63.8	3.8	7.44e-01	0	44	104	0	80	10642
2026-01-22 22:34:34.66	354.95	61.68	-55.0	-63.9	3.8	7.45e-01	0	45	104	0	80	10682
2026-01-22 22:34:35.67	354.11	62.29	-55.0	-63.8	3.8	7.44e-01	0	44	104	0	80	10631
2026-01-22 22:34:36.68	353.22	62.90	-55.0	-63.8	3.8	7.45e-01	0	44	104	0	80	10622
2026-01-22 22:34:37.69	352.29	63.51	-55.0	-63.8	3.8	7.46e-01	0	45	104	0	80	10625
2026-01-22 22:34:38.70	351.30	64.11	-55.0	-63.9	3.8	7.45e-01	0	45	104	0	80	10665
2026-01-22 22:34:39.71	350.26	64.72	-55.0	-63.8	3.8	7.45e-01	0	44	104	0	80	10649
2026-01-22 22:34:40.72	349.17	65.32	-55.0	-63.8	3.8	7.45e-01	0	44	104	0	80	10639
2026-01-22 22:34:41.73	348.01	65.92	-55.1	-63.9	3.8	7.45e-01	0	45	104	0	80	10663
2026-01-22 22:34:42.73	346.80	66.51	-55.1	-63.9	3.8	7.46e-01	0	44	104	0	80	10691
2026-01-22 22:34:43.74	345.50	67.10	-55.1	-63.9	3.8	7.45e-01	0	44	104	0	80	10732
2026-01-22 22:34:44.75	344.13	67.68	-55.0	-63.9	3.8	7.44e-01	0	45	104	0	80	10661
2026-01-22 22:34:45.76	342.69	68.26	-55.1	-63.9	3.8	7.46e-01	0	44	104	0	80	10720
2026-01-22 22:34:46.77	341.15	68.82	-55.1	-63.9	3.8	7.47e-01	0	44	104	0	80	10701
2026-01-22 22:34:47.78	339.53	69.37	-55.1	-63.9	3.8	7.45e-01	0	45	104	0	80	10752
2026-01-22 22:34:48.79	337.80	69.91	-55.1	-63.9	3.8	7.45e-01	0	44	104	0	80	10691
2026-01-22 22:34:49.80	335.98	70.44	-55.1	-63.9	3.8	7.43e-01	0	44	104	0	80	10706
2026-01-22 22:34:50.80	334.07	70.94	-55.1	-63.9	3.8	7.44e-01	0	45	104	0	80	10740
2026-01-22 22:34:51.81	332.03	71.43	-55.1	-63.9	3.8	7.45e-01	0	44	104	0	80	10742
2026-01-22 22:34:52.82	329.87	71.90	-55.1	-63.9	3.8	7.45e-01	0	44	104	0	80	10709
2026-01-22 22:34:53.83	327.60	72.35	-55.1	-63.9	3.8	7.45e-01	0	44	104	0	80	10771
2026-01-22 22:34:54.84	325.20	72.77	-55.2	-64.0	3.8	7.46e-01	0	45	104	0	80	10826
2026-01-22 22:34:55.85	322.68	73.16	-55.2	-64.0	3.8	7.44e-01	0	44	104	0	80	10791
2026-01-22 22:34:56.86	320.04	73.52	-55.1	-63.9	3.8	7.45e-01	0	44	104	0	80	10764
2026-01-22 22:34:57.87	317.28	73.85	-55.1	-64.0	3.8	7.46e-01	0	44	104	0	80	10794
2026-01-22 22:34:58.87	314.44	74.14	-55.2	-64.0	3.8	7.46e-01	0	44	104	0	80	10832
2026-01-22 22:34:59.88	311.46	74.39	-55.2	-64.0	3.8	7.47e-01	0	44	104	0	80	10821
2026-01-22 22:35:00.89	308.39	74.60	-55.1	-64.0	3.8	7.44e-01	0	44	104	0	80	10787
2026-01-22 22:35:01.90	305.24	74.76	-55.2	-64.0	3.8	7.47e-01	0	44	104	0	80	10814
2026-01-22 22:35:02.91	302.03	74.89	-55.2	-64.0	3.8	7.46e-01	0	44	104	0	80	10859
2026-01-22 22:35:03.92	298.77	74.96	-55.2	-64.0	3.8	7.46e-01	0	45	104	0	80	10866
2026-01-22 22:35:04.93	295.49	74.99	-55.2	-64.0	3.8	7.44e-01	0	44	104	0	80	10838
2026-01-22 22:35:05.93	292.24	74.97	-55.2	-64.0	3.8	7.47e-01	0	45	104	0	80	10848
2026-01-22 22:35:06.94	288.98	74.91	-55.2	-64.0	3.8	7.45e-01	0	44	104	0	81	10245
2026-01-22 22:35:07.95	285.75	74.80	-55.3	-64.1	3.8	7.44e-01	0	45	104	0	81	10312
2026-01-22 22:35:08.96	282.59	74.64	-55.2	-64.0	3.8	7.45e-01	0	45	104	0	81	10247
2026-01-22 22:35:09.97	279.50	74.44	-55.2	-64.0	3.8	7.45e-01	0	45	104	0	81	10292
2026-01-22 22:35:10.98	276.50	74.19	-55.3	-64.1	3.8	7.46e-01	0	45	104	0	81	10311
2026-01-22 22:35:11.99	273.60	73.91	-55.3	-64.1	3.8	7.45e-01	0	45	104	0	81	10335
2026-01-22 22:35:12.99	270.85	73.60	-55.2	-64.0	3.8	7.46e-01	0	44	104	0	81	10288
2026-01-22 22:35:14.00	268.18	73.24	-55.3	-64.1	3.8	7.44e-01	0	44	104	0	81	10329
2026-01-22 22:35:15.01	265.63	72.86	-55.3	-64.1	3.8	7.45e-01	0	44	104	0	81	10309
2026-01-22 22:35:16.02	263.20	72.44	-55.3	-64.1	3.8	7.45e-01	0	45	104	0	81	10337
2026-01-22 22:35:17.03	260.90	72.00	-55.2	-64.1	3.8	7.44e-01	0	44	104	0	81	10306
2026-01-22 22:35:18.03	258.74	71.54	-55.3	-64.1	3.8	7.44e-01	0	44	104	0	81	10337
2026-01-22 22:35:19.04	256.67	71.05	-55.3	-64.1	3.8	7.45e-01	0	45	104	0	81	10323
2026-01-22 22:35:20.05	254.72	70.55	-55.3	-64.1	3.8	7.45e-01	0	45	104	0	81	10367
2026-01-22 22:35:21.06	252.87	70.02	-55.2	-64.0	3.8	7.45e-01	0	44	104	0	81	10291
2026-01-22 22:35:22.07	251.13	69.49	-55.3	-64.1	3.8	7.45e-01	0	45	104	0	81	10325
2026-01-22 22:35:23.08	249.48	68.93	-55.3	-64.1	3.8	7.47e-01	0	45	104	0	81	10336
2026-01-22 22:35:24.09	247.92	68.37	-55.3	-64.1	3.8	7.45e-01	0	44	104	0	81	10353
2026-01-22 22:35:25.09	246.47	67.80	-55.3	-64.0	3.8	7.45e-01	0	45	104	0	81	10290
2026-01-22 22:35:26.10	245.08	67.22	-55.3	-64.1	3.8	7.46e-01	0	45	104	0	81	10298
2026-01-22 22:35:27.11	243.77	66.63	-55.3	-64.1	3.8	7.46e-01	0	45	104	0	81	10330
2026-01-22 22:35:28.12	242.53	66.04	-55.3	-64.1	3.8	7.46e-01	0	45	104	0	81	10319
2026-01-22 22:35:29.13	241.36	65.44	-55.2	-64.1	3.8	7.45e-01	0	44	104	0	81	10335
2026-01-22 22:35:30.13	240.26	64.84	-55.3	-64.1	3.8	7.46e-01	0	44	104	0	81	10368
2026-01-22 22:35:31.14	239.21	64.24	-55.3	-64.1	3.8	7.46e-01	0	45	104	0	81	10340
2026-01-22 22:35:32.15	238.21	63.63	-55.3	-64.1	3.8	7.47e-01	0	45	104	0	81	10343
2026-01-22 22:35:33.16	237.26	63.02	-55.2	-64.0	3.8	7.46e-01	0	45	104	0	81	10290
2026-01-22 22:35:34.17	236.37	62.41	-55.2	-64.1	3.8	7.44e-01	0	45	104	0	81	10308
2026-01-22 22:35:35.17	235.52	61.81	-55.2	-64.1	3.8	7.45e-01	0	45	104	0	81	10312
2026-01-22 22:35:36.18	234.71	61.20	-55.2	-64.1	3.8	7.45e-01	0	45	104	0	81	10307
2026-01-22 22:35:37.19	233.93	60.59	-55.2	-64.0	3.8	7.43e-01	0	45	104	0	81	10268
2026-01-22 22:35:38.20	233.20	59.99	-55.2	-64.0	3.8	7.45e-01	0	45	104	0	81	10269
2026-01-22 22:35:39.20	232.50	59.39	-55.2	-64.0	3.8	7.45e-01	0	45	104	0	81	10258
2026-01-22 22:35:40.21	231.83	58.79	-55.2	-64.0	3.8	7.48e-01	0	45	104	0	81	10265
2026-01-22 22:35:41.22	231.19	58.19	-55.2	-64.0	3.8	7.46e-01	0	45	104	0	81	10214
2026-01-22 22:35:42.23	230.58	57.60	-55.2	-64.0	3.8	7.43e-01	0	45	104	0	81	10227
2026-01-22 22:35:43.24	230.00	57.01	-55.2	-64.0	3.8	7.45e-01	0	45	104	0	81	10215
2026-01-22 22:35:44.25	229.44	56.42	-55.2	-64.0	3.8	7.44e-01	0	45	104	0	81	10189
2026-01-22 22:35:45.25	228.90	55.84	-55.1	-63.9	3.8	7.47e-01	0	45	104	0	81	10171
2026-01-22 22:35:46.26	228.39	55.27	-55.2	-64.0	3.8	7.47e-01	0	45	104	0	81	10219
2026-01-22 22:35:47.27	227.90	54.69	-55.1	-63.9	3.8	7.46e-01	0	45	104	0	81	10174
2026-01-22 22:35:48.28	227.42	54.13	-55.1	-64.0	3.8	7.45e-01	0	45	104	0	81	10181
2026-01-22 22:35:49.28	226.97	53.57	-55.1	-63.9	3.8	7.45e-01	0	45	104	0	81	10159
2026-01-22 22:35:50.29	226.54	53.01	-55.1	-63.9	3.8	7.45e-01	0	45	104	0	81	10169
2026-01-22 22:35:51.30	226.12	52.46	-55.1	-64.0	3.8	7.47e-01	0	45	104	0	81	10182
2026-01-22 22:35:52.31	225.71	51.91	-55.1	-63.9	3.8	7.45e-01	0	45	104	0	81	10133
2026-01-22 22:35:53.31	225.33	51.37	-55.1	-63.9	3.8	7.45e-01	0	45	104	0	81	10115
2026-01-22 22:35:54.32	224.95	50.83	-55.1	-63.9	3.8	7.44e-01	0	45	104	0	81	10129
2026-01-22 22:35:55.33	224.59	50.30	-55.1	-63.9	3.8	7.47e-01	0	45	104	0	81	10122
2026-01-22 22:35:56.34	224.24	49.78	-55.1	-63.9	3.8	7.45e-01	0	45	104	0	81	10111
2026-01-22 22:35:57.35	223.90	49.26	-55.0	-63.8	3.8	7.45e-01	0	45	104	0	81	10022
2026-01-22 22:35:58.36	223.58	48.74	-55.1	-63.9	3.8	7.44e-01	0	45	104	0	81	10092
2026-01-22 22:35:59.37	223.26	48.23	-55.1	-63.9	3.8	7.46e-01	0	44	104	0	81	10103
2026-01-22 22:36:00.37	222.96	47.73	-55.0	-63.9	3.8	7.46e-01	0	44	104	0	81	10087
2026-01-22 22:36:01.38	222.67	47.24	-55.0	-63.9	3.8	7.46e-01	0	45	104	0	81	10070
2026-01-22 22:36:02.39	222.39	46.75	-55.0	-63.8	3.8	7.45e-01	0	45	104	0	81	10052
2026-01-22 22:36:03.40	222.11	46.26	-55.0	-63.9	3.8	7.46e-01	0	44	104	0	81	10060
2026-01-22 22:36:04.41	221.85	45.78	-55.0	-63.8	3.8	7.46e-01	0	45	104	0	81	10020
2026-01-22 22:36:05.41	221.59	45.31	-55.0	-63.8	3.8	7.44e-01	0	45	104	0	81	10052
2026-01-22 22:36:06.42	221.34	44.84	-55.0	-63.8	3.8	7.44e-01	0	45	104	0	81	10016
2026-01-22 22:36:07.43	221.10	44.37	-55.0	-63.8	3.8	7.46e-01	0	45	104	0	81	10049
2026-01-22 22:36:08.43	220.86	43.92	-55.0	-63.8	3.8	7.46e-01	0	45	104	0	81	9983
2026-01-22 22:36:09.44	220.64	43.47	-55.0	-63.8	3.8	7.44e-01	0	45	104	0	81	9954
2026-01-22 22:36:10.45	220.41	43.02	-55.0	-63.8	3.8	7.46e-01	0	45	104	0	81	9989
2026-01-22 22:36:11.46	220.20	42.58	-55.0	-63.8	3.8	7.45e-01	0	45	104	0	81	10003
2026-01-22 22:36:12.47	219.99	42.14	-55.0	-63.8	3.8	7.47e-01	0	45	104	0	81	9996
2026-01-22 22:36:13.48	219.79	41.71	-54.9	-63.8	3.8	7.45e-01	0	45	104	0	81	9946
2026-01-22 22:36:14.49	219.59	41.28	-55.0	-63.8	3.8	7.43e-01	0	45	104	0	81	9990
2026-01-22 22:36:15.50	219.40	40.86	-54.9	-63.7	3.8	7.46e-01	0	44	104	0	81	9918
2026-01-22 22:36:16.51	219.21	40.45	-54.9	-63.7	3.8	7.44e-01	0	45	104	0	81	9915
2026-01-22 22:36:17.52	219.03	40.04	-54.9	-63.8	3.8	7.45e-01	0	45	104	0	81	9948
2026-01-22 22:36:18.52	218.85	39.64	-54.9	-63.8	3.8	7.45e-01	0	44	104	0	81	9946
2026-01-22 22:36:19.53	218.68	39.24	-54.9	-63.7	3.8	7.47e-01	0	45	104	0	81	9929
2026-01-22 22:36:20.54	218.51	38.84	-54.9	-63.7	3.8	7.46e-01	0	45	104	0	81	9935
2026-01-22 22:36:21.55	218.35	38.45	-54.9	-63.7	3.8	7.44e-01	0	45	104	0	81	9911
2026-01-22 22:36:22.56	218.19	38.06	-54.9	-63.7	3.8	7.45e-01	0	45	104	0	81	9878
2026-01-22 22:36:23.56	218.03	37.69	-54.9	-63.7	3.8	7.45e-01	0	45	104	0	81	9854
2026-01-22 22:36:24.57	217.88	37.31	-54.9	-63.7	3.8	7.46e-01	0	45	104	0	81	9888
2026-01-22 22:36:25.58	217.73	36.94	-54.9	-63.7	3.8	7.46e-01	0	45	104	0	81	9835
2026-01-22 22:36:26.59	217.59	36.57	-54.9	-63.7	3.8	7.44e-01	0	45	104	0	81	9861
2026-01-22 22:36:27.60	217.45	36.21	-54.9	-63.7	3.8	7.46e-01	0	45	104	0	81	9852
2026-01-22 22:36:28.61	217.31	35.85	-54.8	-63.6	3.8	7.46e-01	0	45	104	0	81	9817
2026-01-22 22:36:29.61	217.18	35.50	-54.8	-63.6	3.8	7.45e-01	0	45	104	0	81	9804
2026-01-22 22:36:30.62	217.05	35.15	-54.8	-63.6	3.8	7.47e-01	0	45	104	0	81	9768
2026-01-22 22:36:31.63	216.92	34.81	-54.8	-63.7	3.8	7.46e-01	0	45	104	0	81	9831
2026-01-22 22:36:32.64	216.79	34.46	-54.8	-63.6	3.8	7.45e-01	0	45	104	0	81	9809
2026-01-22 22:36:33.65	216.67	34.13	-54.8	-63.6	3.8	7.44e-01	0	45	104	0	81	9790
2026-01-22 22:36:34.66	216.55	33.80	-54.8	-63.6	3.8	7.45e-01	0	45	104	0	81	9803
2026-01-22 22:36:35.67	216.43	33.47	-54.8	-63.6	3.8	7.47e-01	0	45	104	0	81	9757
2026-01-22 22:36:36.68	216.32	33.14	-54.8	-63.6	3.8	7.45e-01	0	45	104	0	81	9748
2026-01-22 22:36:37.68	216.21	32.82	-54.8	-63.6	3.8	7.44e-01	0	44	104	0	81	9730
2026-01-22 22:36:38.69	216.10	32.51	-54.8	-63.6	3.8	7.44e-01	0	45	104	0	81	9765
2026-01-22 22:36:39.70	215.99	32.19	-54.8	-63.5	3.8	7.45e-01	0	45	104	0	81	9717
2026-01-22 22:36:40.71	215.88	31.88	-54.7	-63.6	3.8	7.45e-01	0	44	104	0	81	9726
2026-01-22 22:36:41.72	215.78	31.58	-54.7	-63.6	3.8	7.45e-01	0	44	104	0	81	9720
2026-01-22 22:36:42.73	215.68	31.28	-54.7	-63.5	3.8	7.46e-01	0	45	104	0	81	9717
2026-01-22 22:36:43.73	215.58	30.98	-54.7	-63.5	3.8	7.47e-01	0	45	104	0	81	9696
2026-01-22 22:36:44.74	215.48	30.68	-54.7	-63.5	3.8	7.44e-01	0	44	104	0	81	9710
2026-01-22 22:36:45.75	215.39	30.39	-54.7	-63.5	3.8	7.45e-01	0	44	104	0	81	9667
2026-01-22 22:36:46.76	215.30	30.10	-54.7	-63.5	3.8	7.44e-01	0	45	104	0	81	9682
2026-01-22 22:36:47.77	215.20	29.82	-54.7	-63.5	3.8	7.46e-01	0	45	104	0	81	9673
2026-01-22 22:36:48.78	215.11	29.54	-54.7	-63.5	3.8	7.45e-01	0	44	104	0	81	9656
2026-01-22 22:36:49.78	215.03	29.26	-54.7	-63.5	3.8	7.46e-01	0	45	104	0	81	9626
2026-01-22 22:36:50.80	214.94	28.98	-54.7	-63.5	3.8	7.45e-01	0	45	104	0	81	9696
2026-01-22 22:36:51.81	214.86	28.71	-54.7	-63.5	3.8	7.45e-01	0	45	104	0	81	9659
2026-01-22 22:36:52.81	214.77	28.44	-54.7	-63.5	3.8	7.46e-01	0	45	104	0	81	9639
2026-01-22 22:36:53.82	214.69	28.18	-54.6	-63.4	3.8	7.45e-01	0	45	104	0	81	9598
2026-01-22 22:36:54.83	214.61	27.91	-54.6	-63.5	3.8	7.44e-01	0	45	104	0	81	9650
2026-01-22 22:36:55.84	214.54	27.65	-54.6	-63.4	3.8	7.44e-01	0	44	104	0	81	9603
2026-01-22 22:36:56.85	214.46	27.40	-54.6	-63.5	3.8	7.44e-01	0	45	104	0	81	9607
2026-01-22 22:36:57.86	214.38	27.14	-54.6	-63.4	3.8	7.45e-01	0	45	104	0	81	9572
2026-01-22 22:36:58.86	214.31	26.89	-54.6	-63.4	3.8	7.45e-01	0	45	104	0	81	9601
2026-01-22 22:36:59.87	214.24	26.64	-54.6	-63.4	3.8	7.45e-01	0	45	104	0	81	9581
2026-01-22 22:37:00.88	214.17	26.40	-54.6	-63.4	3.8	7.46e-01	0	45	104	0	81	9570
2026-01-22 22:37:01.89	214.10	26.15	-54.6	-63.4	3.8	7.46e-01	0	44	104	0	81	9540
2026-01-22 22:37:02.89	214.03	25.91	-54.6	-63.4	3.8	7.47e-01	0	45	104	0	81	9570
2026-01-22 22:37:03.90	213.96	25.67	-54.6	-63.4	3.8	7.46e-01	0	45	104	0	81	9512
2026-01-22 22:37:04.91	213.89	25.44	-54.6	-63.4	3.8	7.47e-01	0	44	104	0	81	9551
2026-01-22 22:37:05.92	213.83	25.20	-54.6	-63.4	3.8	7.46e-01	0	44	104	0	81	9513
2026-01-22 22:37:06.92	213.76	24.98	-54.6	-63.4	3.8	7.44e-01	0	45	104	0	81	9538
2026-01-22 22:37:07.93	213.70	24.75	-54.5	-63.3	3.8	7.45e-01	0	45	104	0	81	9491
2026-01-22 22:37:08.94	213.64	24.52	-54.6	-63.4	3.8	7.43e-01	0	44	104	0	81	9525
2026-01-22 22:37:09.95	213.58	24.30	-54.5	-63.4	3.8	7.45e-01	0	45	104	0	81	9501
2026-01-22 22:37:10.96	213.52	24.07	-54.5	-63.4	3.8	7.46e-01	0	45	104	0	81	9512
2026-01-22 22:37:11.96	213.46	23.86	-54.5	-63.3	3.8	7.43e-01	0	45	104	0	81	9472
2026-01-22 22:37:12.97	213.40	23.64	-54.5	-63.3	3.8	7.47e-01	0	45	104	0	81	9485
2026-01-22 22:37:13.98	213.34	23.43	-54.5	-63.3	3.8	7.45e-01	0	45	104	0	81	9474
2026-01-22 22:37:14.99	213.29	23.21	-54.5	-63.3	3.8	7.45e-01	0	44	104	0	81	9484
2026-01-22 22:37:16.00	213.23	23.00	-54.5	-63.3	3.8	7.46e-01	0	45	104	0	81	9448
2026-01-22 22:37:17.01	213.18	22.79	-54.5	-63.3	3.8	7.46e-01	0	45	104	0	81	9443
2026-01-22 22:37:18.02	213.12	22.59	-54.5	-63.3	3.8	7.45e-01	0	44	104	0	81	9438
2026-01-22 22:37:19.03	213.07	22.38	-54.5	-63.3	3.8	7.46e-01	0	45	104	0	80	9957
2026-01-22 22:37:20.03	213.02	22.18	-54.5	-63.2	3.8	7.47e-01	0	45	104	0	80	9944
2026-01-22 22:37:21.04	212.97	21.98	-54.5	-63.2	3.8	7.45e-01	0	45	104	0	80	9926
2026-01-22 22:37:22.05	212.92	21.78	-54.4	-63.3	3.8	7.46e-01	0	44	104	0	80	9949
2026-01-22 22:37:23.06	212.87	21.58	-54.4	-63.3	3.8	7.43e-01	0	45	104	0	80	9967
2026-01-22 22:37:24.07	212.82	21.39	-54.4	-63.2	3.8	7.46e-01	0	44	104	0	80	9931
2026-01-22 22:37:25.07	212.77	21.20	-54.4	-63.2	3.8	7.46e-01	0	45	104	0	80	9932
2026-01-22 22:37:26.08	212.73	21.01	-54.4	-63.2	3.8	7.44e-01	0	44	104	0	80	9890
2026-01-22 22:37:27.09	212.68	20.82	-54.4	-63.2	3.8	7.45e-01	0	44	104	0	80	9922
2026-01-22 22:37:28.10	212.63	20.63	-54.4	-63.2	3.8	7.46e-01	0	45	104	0	80	9921
2026-01-22 22:37:29.11	212.59	20.44	-54.4	-63.2	3.8	7.47e-01	0	44	104	0	80	9937
2026-01-22 22:37:30.12	212.54	20.26	-54.4	-63.2	3.8	7.46e-01	0	44	104	0	80	9925
2026-01-22 22:37:31.13	212.50	20.08	-54.4	-63.2	3.8	7.45e-01	0	45	104	0	80	9906
2026-01-22 22:37:32.13	212.46	19.90	-54.4	-63.2	3.8	7.47e-01	0	44	104	0	80	9852
2026-01-22 22:37:33.14	212.41	19.72	-54.4	-63.2	3.8	7.46e-01	0	44	104	0	80	9848
2026-01-22 22:37:34.15	212.37	19.54	-54.4	-63.2	3.8	7.44e-01	0	44	104	0	80	9877
2026-01-22 22:37:35.16	212.33	19.36	-54.4	-63.2	3.8	7.45e-01	0	44	104	0	80	9851
2026-01-22 22:37:36.17	212.29	19.19	-54.3	-63.2	3.8	7.45e-01	0	44	104	0	80	9837
2026-01-22 22:37:37.18	212.25	19.02	-54.4	-63.2	3.8	7.45e-01	0	44	104	0	80	9836
2026-01-22 22:37:38.19	212.21	18.84	-54.3	-63.2	3.8	7.42e-01	0	44	104	0	80	9854
2026-01-22 22:37:39.19	212.17	18.68	-54.3	-63.1	3.8	7.45e-01	0	44	104	0	80	9801
2026-01-22 22:37:40.20	212.13	18.51	-54.3	-63.2	3.8	7.46e-01	0	44	104	0	80	9851
2026-01-22 22:37:41.21	212.09	18.34	-54.3	-63.2	3.8	7.45e-01	0	44	104	0	80	9846
2026-01-22 22:37:42.22	212.06	18.17	-54.3	-63.1	3.8	7.44e-01	0	44	104	0	80	9805
2026-01-22 22:37:43.23	212.02	18.01	-54.3	-63.1	3.8	7.44e-01	0	44	104	0	80	9785
2026-01-22 22:37:44.23	211.98	17.85	-54.3	-63.1	3.8	7.45e-01	0	44	104	0	80	9823
2026-01-22 22:37:45.24	211.95	17.69	-54.3	-63.1	3.8	7.45e-01	0	44	104	0	80	9793
2026-01-22 22:37:46.25	211.91	17.53	-54.3	-63.1	3.8	7.44e-01	0	44	104	0	80	9802
2026-01-22 22:37:47.26	211.88	17.37	-54.3	-63.1	3.8	7.46e-01	0	44	104	0	80	9764
2026-01-22 22:37:48.27	211.84	17.21	-54.3	-63.1	3.8	7.46e-01	0	44	104	0	80	9748
2026-01-22 22:37:49.28	211.81	17.05	-54.3	-63.1	3.8	7.45e-01	0	44	104	0	80	9785
2026-01-22 22:37:50.29	211.77	16.90	-54.3	-63.1	3.8	7.43e-01	0	44	104	0	80	9767
2026-01-22 22:37:51.29	211.74	16.75	-54.3	-63.1	3.8	7.46e-01	0	44	104	0	80	9772
2026-01-22 22:37:52.30	211.71	16.59	-54.2	-63.0	3.8	7.46e-01	0	44	104	0	80	9708
2026-01-22 22:37:53.31	211.67	16.44	-54.3	-63.1	3.8	7.44e-01	0	44	104	0	80	9745
2026-01-22 22:37:54.32	211.64	16.29	-54.2	-63.0	3.8	7.46e-01	0	44	104	0	80	9706
2026-01-22 22:37:55.33	211.61	16.14	-54.2	-63.1	3.8	7.44e-01	0	44	104	0	80	9726
2026-01-22 22:37:56.33	211.58	16.00	-54.2	-63.0	3.8	7.47e-01	0	44	104	0	80	9682
2026-01-22 22:37:57.34	211.55	15.85	-54.2	-63.0	3.8	7.45e-01	0	44	104	0	80	9685
2026-01-22 22:37:58.35	211.52	15.70	-54.2	-63.0	3.8	7.46e-01	0	44	104	0	80	9717
2026-01-22 22:37:59.36	211.49	15.56	-54.2	-63.0	3.8	7.45e-01	0	44	104	0	80	9663
2026-01-22 22:38:00.36	211.46	15.42	-54.2	-63.0	3.8	7.45e-01	0	44	104	0	80	9697
2026-01-22 22:38:01.37	211.43	15.27	-54.2	-63.0	3.8	7.46e-01	0	44	104	0	80	9669
2026-01-22 22:38:02.38	211.40	15.13	-54.2	-63.0	3.8	7.46e-01	0	44	104	0	80	9677
2026-01-22 22:38:03.39	211.37	14.99	-54.2	-63.0	3.8	7.48e-01	0	44	104	0	80	9638
2026-01-22 22:38:04.40	211.34	14.85	-54.2	-63.0	3.8	7.45e-01	0	44	104	0	80	9636
2026-01-22 22:38:05.40	211.32	14.72	-54.2	-63.0	3.8	7.44e-01	0	44	104	0	80	9653
2026-01-22 22:38:06.41	211.29	14.58	-54.2	-62.9	3.8	7.47e-01	0	44	104	0	80	9602
2026-01-22 22:38:07.42	211.26	14.44	-54.2	-63.0	3.8	7.46e-01	0	44	104	0	80	9640
2026-01-22 22:38:08.43	211.24	14.31	-54.2	-63.0	3.8	7.47e-01	0	44	104	0	80	9627
2026-01-22 22:38:09.44	211.21	14.17	-54.2	-63.0	3.8	7.46e-01	0	44	104	0	80	9612
2026-01-22 22:38:10.45	211.18	14.04	-54.1	-63.0	3.8	7.45e-01	0	44	104	0	80	9609
2026-01-22 22:38:11.45	211.16	13.91	-54.1	-62.9	3.8	7.46e-01	0	44	104	0	80	9590
2026-01-22 22:38:12.46	211.13	13.78	-54.1	-62.9	3.8	7.45e-01	0	44	104	0	80	9586
2026-01-22 22:38:13.47	211.11	13.65	-54.1	-62.9	3.8	7.44e-01	0	44	104	0	80	9604
2026-01-22 22:38:14.48	211.08	13.52	-54.1	-62.9	3.8	7.45e-01	0	44	104	0	80	9577
2026-01-22 22:38:15.49	211.06	13.39	-54.1	-62.9	3.8	7.44e-01	0	44	104	0	80	9601
2026-01-22 22:38:16.49	211.03	13.26	-54.1	-63.0	3.8	7.46e-01	0	44	104	0	80	9618
2026-01-22 22:38:17.50	211.01	13.14	-54.1	-62.9	3.8	7.45e-01	0	44	104	0	80	9578
2026-01-22 22:38:18.51	210.98	13.01	-54.1	-62.9	3.8	7.47e-01	0	44	104	0	80	9529
2026-01-22 22:38:19.52	210.96	12.89	-54.1	-62.9	3.8	7.45e-01	0	44	104	0	80	9506
2026-01-22 22:38:20.53	210.94	12.76	-54.1	-62.9	3.8	7.46e-01	0	44	104	0	80	9525
2026-01-22 22:38:21.53	210.92	12.64	-54.1	-62.9	3.8	7.46e-01	0	44	104	0	80	9578
2026-01-22 22:38:22.54	210.89	12.52	-54.1	-62.9	3.8	7.46e-01	0	44	104	0	80	9504
2026-01-22 22:38:23.55	210.87	12.39	-54.0	-62.9	3.8	7.46e-01	0	44	104	0	80	9519
2026-01-22 22:38:24.56	210.85	12.27	-54.0	-62.9	3.8	7.44e-01	0	44	104	0	80	9513
2026-01-22 22:38:25.57	210.83	12.15	-54.0	-62.9	3.8	7.44e-01	0	44	104	0	80	9533
2026-01-22 22:38:26.58	210.80	12.03	-54.0	-62.8	3.8	7.45e-01	0	44	104	0	80	9494
2026-01-22 22:38:27.58	210.78	11.92	-54.0	-62.8	3.8	7.44e-01	0	44	104	0	80	9496
2026-01-22 22:38:28.59	210.76	11.80	-54.0	-62.9	3.8	7.45e-01	0	44	104	0	80	9529
2026-01-22 22:38:29.60	210.74	11.68	-54.0	-62.9	3.8	7.45e-01	0	44	104	0	80	9505
2026-01-22 22:38:30.61	210.72	11.56	-54.0	-62.8	3.8	7.47e-01	0	44	104	0	80	9442
2026-01-22 22:38:31.62	210.70	11.45	-54.0	-62.8	3.8	7.45e-01	0	44	104	0	80	9441
2026-01-22 22:38:32.63	210.68	11.33	-54.0	-62.8	3.8	7.44e-01	0	44	104	0	80	9475
2026-01-22 22:38:33.63	210.66	11.22	-54.0	-62.8	3.8	7.45e-01	0	44	104	0	80	9442
2026-01-22 22:38:34.64	210.64	11.11	-54.0	-62.8	3.8	7.44e-01	0	44	104	0	79	10039
2026-01-22 22:38:35.65	210.62	10.99	-54.0	-62.8	3.8	7.44e-01	0	44	104	0	79	10008
2026-01-22 22:38:36.66	210.60	10.88	-54.0	-62.9	3.8	7.46e-01	0	44	104	0	79	10065
2026-01-22 22:38:37.67	210.58	10.77	-54.0	-62.8	3.8	7.45e-01	0	44	104	0	79	10046
2026-01-22 22:38:38.68	210.56	10.66	-54.0	-62.8	3.8	7.46e-01	0	44	104	0	79	10024
2026-01-22 22:38:39.69	210.54	10.55	-54.0	-62.8	3.8	7.45e-01	0	44	104	0	79	9976
2026-01-22 22:38:40.69	210.53	10.44	-54.0	-62.8	3.8	7.46e-01	0	44	104	0	79	10036
2026-01-22 22:38:41.70	210.51	10.33	-54.0	-62.8	3.8	7.46e-01	0	44	104	0	79	10010
2026-01-22 22:38:42.71	210.49	10.22	-53.9	-62.8	3.8	7.46e-01	0	44	104	0	79	9980
2026-01-22 22:38:43.72	210.47	10.11	-53.9	-62.7	3.8	7.45e-01	0	44	104	0	79	9937
2026-01-22 22:38:44.73	210.45	10.01	-54.0	-62.8	3.8	7.45e-01	0	44	104	0	79	9963
2026-01-22 22:38:45.73	210.44	9.90	-53.9	-62.7	3.8	7.44e-01	0	44	104	0	79	9926
2026-01-22 22:38:46.74	210.42	9.80	-53.9	-62.7	3.8	7.46e-01	0	44	104	0	79	9905
2026-01-22 22:38:47.75	210.40	9.69	-53.9	-62.7	3.8	7.46e-01	0	44	104	0	79	9864
2026-01-22 22:38:48.76	210.38	9.59	-53.9	-62.7	3.8	7.45e-01	0	44	104	0	79	9931
2026-01-22 22:38:49.77	210.37	9.48	-53.9	-62.7	3.8	7.45e-01	0	44	104	0	79	9904
2026-01-22 22:38:50.77	210.35	9.38	-53.9	-62.7	3.8	7.45e-01	0	44	104	0	79	9881
2026-01-22 22:38:51.78	210.33	9.28	-53.8	-62.6	3.8	7.46e-01	0	44	104	0	79	9825
2026-01-22 22:38:52.79	210.32	9.17	-53.9	-62.7	3.8	7.46e-01	0	44	104	0	79	9906
2026-01-22 22:38:53.80	210.30	9.07	-53.9	-62.7	3.8	7.45e-01	0	44	104	0	79	9878
2026-01-22 22:38:54.81	210.29	8.97	-53.8	-62.7	3.8	7.46e-01	0	44	104	0	79	9860
2026-01-22 22:38:55.81	210.27	8.87	-53.8	-62.7	3.8	7.45e-01	0	44	104	0	79	9838
2026-01-22 22:38:56.82	210.25	8.77	-53.9	-62.7	3.8	7.44e-01	0	44	104	0	79	9859
2026-01-22 22:38:57.83	210.24	8.67	-53.8	-62.7	3.8	7.44e-01	0	44	104	0	79	9845
2026-01-22 22:38:58.84	210.22	8.57	-53.8	-62.6	3.8	7.45e-01	0	44	104	0	79	9825
2026-01-22 22:38:59.85	210.21	8.47	-53.8	-62.6	3.8	7.45e-01	0	43	104	0	79	9763
2026-01-22 22:39:00.86	210.19	8.38	-53.8	-62.6	3.8	7.43e-01	0	44	104	0	79	9808
2026-01-22 22:39:01.87	210.18	8.28	-53.8	-62.6	3.8	7.45e-01	0	44	104	0	79	9800
2026-01-22 22:39:02.88	210.16	8.18	-53.8	-62.6	3.8	7.46e-01	0	44	104	0	79	9766
2026-01-22 22:39:03.89	210.15	8.09	-53.7	-62.5	3.8	7.45e-01	0	44	104	0	79	9688
2026-01-22 22:39:04.89	210.14	7.99	-53.8	-62.6	3.8	7.44e-01	0	44	104	0	79	9818
2026-01-22 22:39:05.90	210.12	7.89	-53.8	-62.6	3.8	7.44e-01	0	43	104	0	79	9755
2026-01-22 22:39:06.91	210.11	7.80	-53.7	-62.6	3.8	7.45e-01	0	43	104	0	79	9724
2026-01-22 22:39:07.92	210.09	7.70	-53.7	-62.4	3.8	7.46e-01	0	43	104	0	79	9594
2026-01-22 22:39:08.93	210.08	7.61	-53.8	-62.6	3.8	7.43e-01	0	43	104	0	79	9779
2026-01-22 22:39:09.94	210.07	7.52	-53.7	-62.5	3.8	7.44e-01	0	43	104	0	79	9710
2026-01-22 22:39:10.95	210.05	7.42	-53.7	-62.5	3.8	7.46e-01	0	43	104	0	79	9656
2026-01-22 22:39:11.95	210.04	7.33	-53.6	-62.4	3.8	7.46e-01	0	43	104	0	79	9581
2026-01-22 22:39:12.96	210.03	7.24	-53.7	-62.6	3.8	7.45e-01	0	43	104	0	79	9749
2026-01-22 22:39:13.97	210.01	7.15	-53.6	-62.5	3.8	7.44e-01	0	43	104	0	79	9617
2026-01-22 22:39:14.98	210.00	7.06	-53.6	-62.4	3.8	7.45e-01	0	43	104	0	79	9587
2026-01-22 22:39:15.99	209.99	6.97	-53.5	-62.4	3.8	7.46e-01	0	43	104	0	79	9518
2026-01-22 22:39:17.00	209.97	6.87	-53.7	-62.5	3.8	7.45e-01	0	43	104	0	79	9640
2026-01-22 22:39:18.01	209.96	6.78	-53.6	-62.4	3.8	7.46e-01	0	43	104	0	79	9514
2026-01-22 22:39:19.01	209.95	6.70	-53.6	-62.4	3.8	7.46e-01	0	43	104	0	79	9527
2026-01-22 22:39:20.02	209.94	6.61	-53.5	-62.3	3.8	7.44e-01	0	43	104	0	78	9948
2026-01-22 22:39:21.03	209.92	6.52	-53.6	-62.4	3.8	7.44e-01	0	43	104	0	78	10163
2026-01-22 22:39:22.04	209.91	6.43	-53.5	-62.4	3.8	7.45e-01	0	43	104	0	78	10072
2026-01-22 22:39:23.05	209.90	6.34	-53.5	-62.3	3.8	7.46e-01	0	43	104	0	78	10003
2026-01-22 22:39:24.06	209.89	6.25	-53.4	-62.2	3.8	7.45e-01	0	43	104	0	78	9924
2026-01-22 22:39:25.06	209.88	6.17	-53.6	-62.4	3.8	7.45e-01	0	43	104	0	78	10088
2026-01-22 22:39:26.07	209.86	6.08	-53.5	-62.3	3.8	7.44e-01	0	43	104	0	78	9967
2026-01-22 22:39:27.08	209.85	5.99	-53.4	-62.3	3.8	7.48e-01	0	43	104	0	78	9961
2026-01-22 22:39:28.08	209.84	5.91	-53.3	-62.2	3.8	7.45e-01	0	43	104	0	78	9834
2026-01-22 22:39:29.09	209.83	5.82	-53.5	-62.3	3.8	7.46e-01	0	43	104	0	78	10032
2026-01-22 22:39:30.10	209.82	5.74	-53.4	-62.2	3.8	7.46e-01	0	42	104	0	78	9904
2026-01-22 22:39:31.11	209.81	5.65	-53.4	-62.2	3.8	7.46e-01	0	43	104	0	78	9860
2026-01-22 22:39:32.12	209.80	5.57	-53.3	-62.1	3.8	7.44e-01	0	43	104	0	78	9761
2026-01-22 22:39:33.13	209.79	5.48	-53.4	-62.2	3.8	7.45e-01	0	43	104	0	78	9896
2026-01-22 22:39:34.13	209.77	5.40	-53.3	-62.1	3.8	7.46e-01	0	43	104	0	78	9819
2026-01-22 22:39:35.14	209.76	5.32	-53.3	-62.1	3.8	7.46e-01	0	43	104	0	78	9775
2026-01-22 22:39:36.15	209.75	5.23	-53.2	-62.0	3.8	7.46e-01	0	43	104	0	78	9690
2026-01-22 22:39:37.16	209.74	5.15	-53.4	-62.2	3.8	7.45e-01	0	43	104	0	78	9876
2026-01-22 22:39:38.17	209.73	5.07	-53.3	-62.1	3.8	7.45e-01	0	43	104	0	78	9734
2026-01-22 22:39:39.17	209.72	4.99	-53.2	-62.0	3.8	7.45e-01	0	43	104	0	78	9716
2026-01-22 22:39:40.18	209.71	4.90	-53.7	-62.5	3.8	7.45e-01	0	42	104	0	78	10237
2026-01-22 22:39:41.19	209.70	4.82	-54.0	-62.9	3.8	7.45e-01	0	43	104	0	78	10672
2026-01-22 22:39:42.20	209.69	4.74	-54.3	-63.1	3.8	7.45e-01	0	42	104	0	79	10370
2026-01-22 22:39:43.20	209.68	4.66	-54.5	-63.3	3.8	7.44e-01	0	42	104	0	79	10565
2026-01-22 22:39:44.21	209.67	4.58	-54.6	-63.4	3.8	7.45e-01	0	43	104	0	79	10661
2026-01-22 22:39:45.22	209.66	4.50	-54.6	-63.5	3.8	7.46e-01	0	42	104	0	79	10790
2026-01-22 22:39:46.23	209.65	4.42	-54.7	-63.6	3.8	7.45e-01	0	42	104	0	79	10904
2026-01-22 22:39:47.24	209.64	4.34	-54.7	-63.5	3.8	7.45e-01	0	42	104	0	80	10279
2026-01-22 22:39:48.25	209.63	4.26	-54.8	-63.6	3.8	7.45e-01	0	42	104	0	80	10390
2026-01-22 22:39:49.25	209.62	4.18	-54.8	-63.6	3.8	7.44e-01	0	42	104	0	80	10369
2026-01-22 22:39:50.26	209.62	4.11	-54.9	-63.7	3.8	7.45e-01	0	42	104	0	80	10487
2026-01-22 22:39:51.27	209.61	4.03	-54.9	-63.7	3.8	7.45e-01	0	42	104	0	80	10505
2026-01-22 22:39:52.28	209.60	3.95	-54.9	-63.8	3.8	7.45e-01	0	42	104	0	80	10553
2026-01-22 22:39:53.29	209.59	3.87	-54.9	-63.8	3.8	7.44e-01	0	42	104	0	80	10548
2026-01-22 22:39:54.29	209.58	3.79	-54.9	-63.8	3.8	7.45e-01	0	42	104	0	80	10534
2026-01-22 22:39:55.30	209.57	3.72	-55.0	-63.8	3.8	7.43e-01	0	42	104	0	80	10603
2026-01-22 22:39:56.31	209.56	3.64	-55.0	-63.8	3.8	7.46e-01	0	42	104	0	80	10569
2026-01-22 22:39:57.32	209.55	3.56	-55.0	-63.8	3.8	7.45e-01	0	42	104	0	80	10605
2026-01-22 22:39:58.33	209.54	3.49	-55.0	-63.8	3.8	7.45e-01	0	42	104	0	80	10605
2026-01-22 22:39:59.33	209.54	3.41	-55.0	-63.8	3.8	7.45e-01	0	42	104	0	80	10630
2026-01-22 22:40:00.34	209.53	3.34	-55.0	-63.8	3.8	7.46e-01	0	42	104	0	80	10593
2026-01-22 22:40:01.35	209.52	3.26	-54.9	-63.7	3.8	7.44e-01	0	42	104	0	80	10512
2026-01-22 22:40:02.36	209.51	3.19	-54.9	-63.7	3.8	7.45e-01	0	42	104	0	80	10437
2026-01-22 22:40:03.37	209.50	3.11	-54.8	-63.6	3.8	7.44e-01	0	42	104	0	80	10351
2026-01-22 22:40:04.37	209.49	3.04	-54.6	-63.4	3.8	7.45e-01	0	42	104	0	80	10149
2026-01-22 22:40:05.38	209.49	2.96	-54.5	-63.4	3.8	7.45e-01	0	42	104	0	80	10074
2026-01-22 22:40:06.39	209.48	2.89	-54.5	-63.4	3.8	7.45e-01	0	42	104	0	80	10090
2026-01-22 22:40:07.40	209.47	2.82	-54.5	-63.3	3.8	7.44e-01	0	42	104	0	80	9983
2026-01-22 22:40:08.41	209.46	2.74	-54.5	-63.3	3.8	7.46e-01	0	42	104	0	80	10030
2026-01-22 22:40:09.41	209.45	2.67	-54.5	-63.3	3.8	7.46e-01	0	42	104	0	80	10038
2026-01-22 22:40:10.42	209.45	2.60	-54.5	-63.3	3.8	7.46e-01	0	42	104	0	80	10042
2026-01-22 22:40:11.43	209.44	2.52	-54.5	-63.3	3.8	7.46e-01	0	42	104	0	80	10023
2026-01-22 22:40:12.44	209.43	2.45	-54.5	-63.3	3.8	7.45e-01	0	42	104	0	80	10020
2026-01-22 22:40:13.45	209.42	2.38	-54.5	-63.3	3.8	7.46e-01	0	42	104	0	80	10010
2026-01-22 22:40:14.45	209.42	2.31	-54.5	-63.3	3.8	7.47e-01	0	42	104	0	80	10017
2026-01-22 22:40:15.46	209.41	2.24	-54.5	-63.3	3.8	7.47e-01	0	42	104	0	80	10029
2026-01-22 22:40:16.47	209.40	2.16	-54.5	-63.3	3.8	7.45e-01	0	42	104	0	80	10005
2026-01-22 22:40:17.48	209.39	2.09	-54.5	-63.3	3.8	7.45e-01	0	42	104	0	80	10005
2026-01-22 22:40:18.49	209.39	2.02	-54.5	-63.3	3.8	7.45e-01	0	42	104	0	80	9994
2026-01-22 22:40:19.49	209.38	1.95	-54.4	-63.3	3.8	7.44e-01	0	42	104	0	80	9990
2026-01-22 22:40:20.50	209.37	1.88	-54.4	-63.2	3.8	7.45e-01	0	42	104	0	80	9941

#Closed at: 2026-01-22 22:40:21
#Recorded file [0 MB]: D:/lorett/data/31041_260123_012949.dat