passes_logs/2026/01/22/R3.2S_Murmansk/R3.2S_Murmansk__20260122_085726_SUOMI_NPP_rec.log

#Pass ID: 20260122_085726_SUOMI NPP
#Satellite: SUOMI NPP
#Configuration: NPP
#almurnet v.1.7.20251203
#Start time: 2026-01-22 08:57:28

#Version: 2.2.20231116
#Station: R3.2S_Murmansk
#Location: 33.079688 lon 68.888172 lat
#TLE: 1 37849U 11061A   26021.51818991  .00000201  00000+0  11636-3 0  9995
#TLE: 2 37849  98.7819 323.5108 0002300  52.3548 307.7836 14.19527793737637

#Time	Az	El	Level	Level2	SNR	BER	BlckErr	Temp	State	Recorded	gain1	gain2
2026-01-22 08:57:28.27	136.42	2.15	-54.3	-69.4	3.8	1.49e+00	0	39	0	0	79	21282
2026-01-22 08:57:29.27	136.41	2.21	-54.5	-69.6	3.8	1.49e+00	0	39	104	0	79	21927
2026-01-22 08:57:30.28	136.39	2.28	-54.5	-69.6	3.8	1.49e+00	0	39	104	0	79	21826
2026-01-22 08:57:31.28	136.38	2.34	-54.5	-69.5	3.8	1.49e+00	0	39	104	0	79	21705
2026-01-22 08:57:32.29	136.37	2.41	-54.5	-69.5	3.8	1.49e+00	0	39	104	0	79	21608
2026-01-22 08:57:33.30	136.35	2.47	-54.4	-69.5	3.8	1.49e+00	0	39	104	0	79	21548
2026-01-22 08:57:34.31	136.34	2.54	-54.4	-69.4	3.8	1.49e+00	0	39	104	0	79	21416
2026-01-22 08:57:35.32	136.32	2.60	-54.4	-69.4	3.8	1.49e+00	0	39	104	0	79	21358
2026-01-22 08:57:36.33	136.31	2.67	-54.3	-69.3	3.8	1.49e+00	0	39	104	0	79	21191
2026-01-22 08:57:37.34	136.29	2.73	-54.2	-69.2	3.8	1.49e+00	0	39	104	0	79	20925
2026-01-22 08:57:38.35	136.28	2.80	-54.1	-69.2	3.8	1.49e+00	0	39	104	0	79	20835
2026-01-22 08:57:39.36	136.27	2.87	-54.1	-69.1	3.8	1.49e+00	0	39	104	0	79	20633
2026-01-22 08:57:40.37	136.25	2.93	-54.0	-69.0	3.8	1.49e+00	0	39	104	0	79	20463
2026-01-22 08:57:41.38	136.24	3.00	-53.9	-68.9	3.8	1.49e+00	0	39	104	0	79	20104
2026-01-22 08:57:42.38	136.22	3.07	-53.7	-68.7	3.8	1.49e+00	0	39	104	0	79	19772
2026-01-22 08:57:43.39	136.21	3.13	-53.6	-68.6	3.8	1.49e+00	0	39	104	0	79	19495
2026-01-22 08:57:44.40	136.19	3.20	-53.4	-68.4	3.8	1.49e+00	0	39	104	0	78	20270
2026-01-22 08:57:45.41	136.18	3.27	-53.2	-68.2	3.8	1.49e+00	0	39	104	0	78	19734
2026-01-22 08:57:46.42	136.16	3.34	-52.9	-67.8	3.8	1.49e+00	0	39	104	0	77	19991
2026-01-22 08:57:47.42	136.14	3.40	-52.7	-67.7	3.8	1.49e+00	0	39	104	0	77	19624
2026-01-22 08:57:48.43	136.13	3.47	-52.5	-67.2	3.8	1.49e+00	0	39	104	0	77	18651
2026-01-22 08:57:49.44	136.11	3.54	-52.5	-67.1	3.8	1.49e+00	0	39	104	0	76	19583
2026-01-22 08:57:50.45	136.10	3.61	-52.5	-66.9	3.8	1.49e+00	0	39	104	0	76	19093
2026-01-22 08:57:51.46	136.08	3.68	-52.4	-67.1	3.8	1.49e+00	0	40	104	0	76	19438
2026-01-22 08:57:52.46	136.07	3.74	-52.4	-67.1	3.8	1.49e+00	0	39	104	0	76	19410
2026-01-22 08:57:53.47	136.05	3.81	-52.4	-67.2	3.8	1.49e+00	0	39	104	0	76	19794
2026-01-22 08:57:54.48	136.03	3.88	-52.4	-67.3	3.8	1.49e+00	0	39	104	0	76	19913
2026-01-22 08:57:55.49	136.02	3.95	-52.4	-67.1	3.8	1.49e+00	0	40	104	0	76	19570
2026-01-22 08:57:56.50	136.00	4.02	-52.4	-66.4	3.8	1.49e+00	0	39	104	0	76	17924
2026-01-22 08:57:57.50	135.99	4.09	-52.3	-64.6	4.0	1.49e+00	0	40	104	0	76	14660
2026-01-22 08:57:58.51	135.97	4.16	-52.1	-62.0	4.9	1.35e+00	0	40	0	0	76	10827
2026-01-22 08:57:59.52	135.95	4.23	-51.8	-59.8	6.4	3.34e-01	0	39	0	2097152	75	8960
2026-01-22 08:58:00.53	135.94	4.30	-51.4	-58.2	7.9	1.35e-01	0	40	0	4194304	74	7848
2026-01-22 08:58:01.54	135.92	4.37	-50.9	-56.2	10.0	8.59e-03	0	40	0	5242880	73	6589
2026-01-22 08:58:02.54	135.90	4.44	-50.5	-55.1	11.1	1.01e-02	0	39	0	7340032	73	5789
2026-01-22 08:58:03.55	135.89	4.51	-50.0	-54.0	12.3	1.98e-04	0	40	0	9437184	72	5411
2026-01-22 08:58:04.56	135.87	4.58	-49.1	-52.2	14.1	1.52e-05	0	39	0	11534336	70	4960
2026-01-22 08:58:05.57	135.85	4.65	-48.6	-51.3	15.1	0.00e+00	0	39	0	13631488	69	4715
2026-01-22 08:58:06.58	135.84	4.72	-48.1	-50.4	15.9	0.00e+00	0	40	0	14680064	68	4535
2026-01-22 08:58:07.59	135.82	4.79	-47.5	-49.6	16.7	0.00e+00	0	40	0	16777216	66	4612
2026-01-22 08:58:08.60	135.80	4.86	-47.2	-49.2	17.0	0.00e+00	0	39	0	18874368	66	4426
2026-01-22 08:58:09.61	135.78	4.94	-46.8	-48.6	17.5	0.00e+00	0	40	0	20971520	65	4381
2026-01-22 08:58:10.61	135.77	5.01	-47.1	-49.1	17.1	0.00e+00	0	40	0	23068672	64	4913
2026-01-22 08:58:11.62	135.75	5.08	-49.3	-52.5	14.2	0.00e+00	0	40	0	24117248	69	5423
2026-01-22 08:58:12.63	135.73	5.15	-50.0	-53.7	12.8	5.95e-04	0	40	0	26214400	71	5537
2026-01-22 08:58:13.64	135.71	5.22	-47.6	-49.8	16.7	1.83e-05	0	40	0	28311552	66	4751
2026-01-22 08:58:14.64	135.70	5.29	-47.5	-49.6	16.5	1.52e-03	0	40	0	30408704	67	4358
2026-01-22 08:58:15.65	135.68	5.37	-48.6	-51.4	15.2	0.00e+00	0	40	0	32505856	67	5353
2026-01-22 08:58:16.66	135.66	5.44	-47.4	-49.6	16.5	4.52e-03	0	40	0	33554432	67	4349
2026-01-22 08:58:17.67	135.64	5.51	-46.8	-48.7	17.6	0.00e+00	0	40	0	35651584	65	4407
2026-01-22 08:58:18.68	135.62	5.59	-47.1	-49.0	17.2	0.00e+00	0	40	0	37748736	65	4593
2026-01-22 08:58:19.68	135.60	5.66	-46.5	-48.2	18.1	0.00e+00	0	40	0	39845888	64	4423
2026-01-22 08:58:20.69	135.59	5.73	-46.4	-48.2	18.1	0.00e+00	0	40	0	41943040	64	4409
2026-01-22 08:58:21.70	135.57	5.81	-46.4	-48.1	18.1	0.00e+00	0	40	0	42991616	64	4391
2026-01-22 08:58:22.71	135.55	5.88	-46.4	-48.1	18.3	0.00e+00	0	40	0	45088768	64	4360
2026-01-22 08:58:23.71	135.53	5.96	-46.4	-48.1	18.3	0.00e+00	0	40	0	47185920	64	4379
2026-01-22 08:58:24.72	135.51	6.03	-46.3	-47.9	18.5	0.00e+00	0	40	0	49283072	64	4277
2026-01-22 08:58:25.73	135.49	6.10	-46.3	-48.0	18.4	0.00e+00	0	40	0	51380224	64	4316
2026-01-22 08:58:26.74	135.47	6.18	-46.2	-47.8	18.5	0.00e+00	0	40	0	52428800	64	4241
2026-01-22 08:58:27.75	135.45	6.26	-46.3	-48.0	18.4	0.00e+00	0	40	0	54525952	64	4308
2026-01-22 08:58:28.76	135.43	6.33	-46.3	-48.0	18.5	0.00e+00	0	40	0	56623104	64	4293
2026-01-22 08:58:29.76	135.41	6.41	-46.6	-48.3	18.1	0.00e+00	0	40	0	58720256	64	4482
2026-01-22 08:58:30.77	135.39	6.48	-46.6	-48.4	18.0	0.00e+00	0	40	0	60817408	64	4538
2026-01-22 08:58:31.78	135.37	6.56	-46.4	-48.1	18.4	0.00e+00	0	40	0	61865984	64	4367
2026-01-22 08:58:32.79	135.35	6.63	-46.4	-48.1	18.4	0.00e+00	0	40	0	63963136	64	4342
2026-01-22 08:58:33.80	135.33	6.71	-46.3	-47.9	18.5	0.00e+00	0	40	0	66060288	64	4284
2026-01-22 08:58:34.80	135.31	6.79	-46.5	-48.2	18.3	0.00e+00	0	40	0	68157440	64	4415
2026-01-22 08:58:35.81	135.29	6.86	-46.4	-48.1	18.4	0.00e+00	0	40	0	70254592	64	4370
2026-01-22 08:58:36.82	135.27	6.94	-46.1	-47.7	18.8	0.00e+00	0	40	0	71303168	64	4156
2026-01-22 08:58:37.83	135.25	7.02	-46.7	-48.5	18.1	0.00e+00	0	40	0	73400320	64	4551
2026-01-22 08:58:38.84	135.23	7.10	-46.0	-47.6	19.0	0.00e+00	0	40	0	75497472	63	4350
2026-01-22 08:58:39.84	135.21	7.17	-46.3	-47.9	18.7	0.00e+00	0	40	0	77594624	63	4543
2026-01-22 08:58:40.85	135.19	7.25	-45.9	-47.4	19.2	0.00e+00	0	40	0	79691776	63	4244
2026-01-22 08:58:41.86	135.17	7.33	-46.2	-47.8	18.9	0.00e+00	0	40	0	80740352	63	4446
2026-01-22 08:58:42.87	135.15	7.41	-45.7	-47.2	19.4	0.00e+00	0	40	0	82837504	63	4167
2026-01-22 08:58:43.88	135.13	7.49	-46.0	-47.6	19.1	0.00e+00	0	40	0	84934656	63	4341
2026-01-22 08:58:44.88	135.11	7.57	-45.9	-47.4	19.2	0.00e+00	0	40	0	87031808	63	4274
2026-01-22 08:58:45.89	135.08	7.64	-45.8	-47.3	19.3	0.00e+00	0	40	0	89128960	63	4202
2026-01-22 08:58:46.90	135.06	7.72	-45.7	-47.1	19.4	0.00e+00	0	40	0	90177536	63	4138
2026-01-22 08:58:47.90	135.04	7.80	-46.0	-47.6	19.0	0.00e+00	0	40	0	92274688	63	4353
2026-01-22 08:58:48.91	135.02	7.88	-46.1	-47.6	19.1	0.00e+00	0	40	0	94371840	63	4362
2026-01-22 08:58:49.92	135.00	7.96	-45.9	-47.4	19.2	0.00e+00	0	40	0	96468992	63	4276
2026-01-22 08:58:50.93	134.97	8.04	-46.1	-47.7	19.0	0.00e+00	0	40	0	98566144	63	4416
2026-01-22 08:58:51.94	134.95	8.13	-46.0	-47.6	19.1	0.00e+00	0	40	0	99614720	63	4349
2026-01-22 08:58:52.95	134.93	8.21	-46.4	-48.0	18.7	0.00e+00	0	40	0	101711872	63	4554
2026-01-22 08:58:53.95	134.91	8.29	-46.1	-47.6	19.1	0.00e+00	0	40	0	103809024	63	4364
2026-01-22 08:58:54.96	134.88	8.37	-46.2	-47.8	18.9	0.00e+00	0	40	0	105906176	63	4459
2026-01-22 08:58:55.97	134.86	8.45	-46.1	-47.6	19.0	0.00e+00	0	40	0	108003328	63	4384
2026-01-22 08:58:56.98	134.84	8.53	-45.8	-47.3	19.4	0.00e+00	0	40	0	110100480	63	4208
2026-01-22 08:58:57.99	134.81	8.61	-45.7	-47.2	19.5	0.00e+00	0	40	0	111149056	63	4157
2026-01-22 08:58:59.00	134.79	8.70	-45.6	-47.0	19.6	0.00e+00	0	40	0	113246208	63	4090
2026-01-22 08:59:00.00	134.77	8.78	-45.5	-46.9	19.7	0.00e+00	0	40	0	115343360	62	4290
2026-01-22 08:59:01.01	134.74	8.86	-45.4	-46.8	19.9	0.00e+00	0	40	0	117440512	62	4217
2026-01-22 08:59:02.02	134.72	8.95	-45.4	-46.8	19.9	0.00e+00	0	40	0	118489088	62	4224
2026-01-22 08:59:03.02	134.70	9.03	-45.6	-47.0	19.7	0.00e+00	0	40	0	120586240	62	4300
2026-01-22 08:59:04.03	134.67	9.11	-45.4	-46.7	19.9	0.00e+00	0	40	0	122683392	62	4183
2026-01-22 08:59:05.04	134.65	9.20	-45.4	-46.8	19.9	0.00e+00	0	40	0	124780544	62	4225
2026-01-22 08:59:06.05	134.62	9.28	-45.5	-46.9	19.9	0.00e+00	0	40	0	126877696	62	4256
2026-01-22 08:59:07.05	134.60	9.37	-45.8	-47.2	19.5	0.00e+00	0	40	0	127926272	62	4415
2026-01-22 08:59:08.06	134.57	9.45	-45.8	-47.2	19.6	0.00e+00	0	40	0	130023424	62	4421
2026-01-22 08:59:09.07	134.55	9.54	-46.0	-47.5	19.3	0.00e+00	0	40	0	132120576	62	4569
2026-01-22 08:59:10.08	134.52	9.62	-45.7	-47.1	19.7	0.00e+00	0	40	0	134217728	62	4360
2026-01-22 08:59:11.09	134.50	9.71	-45.8	-47.2	19.6	0.00e+00	0	40	0	136314880	62	4411
2026-01-22 08:59:12.09	134.47	9.79	-45.8	-47.3	19.5	0.00e+00	0	40	0	138412032	62	4446
2026-01-22 08:59:13.10	134.45	9.88	-45.6	-47.0	19.8	0.00e+00	0	40	0	139460608	62	4322
2026-01-22 08:59:14.11	134.42	9.97	-45.5	-46.8	19.9	0.00e+00	0	40	0	141557760	62	4233
2026-01-22 08:59:15.12	134.39	10.05	-45.3	-46.7	20.1	0.00e+00	0	40	0	143654912	62	4153
2026-01-22 08:59:16.13	134.37	10.14	-45.3	-46.6	20.1	0.00e+00	0	40	0	145752064	62	4137
2026-01-22 08:59:17.13	134.34	10.23	-45.3	-46.7	20.1	0.00e+00	0	40	0	146800640	62	4167
2026-01-22 08:59:18.14	134.31	10.32	-45.2	-46.6	20.2	0.00e+00	0	40	0	148897792	62	4105
2026-01-22 08:59:19.15	134.29	10.41	-45.4	-46.7	20.0	0.00e+00	0	40	0	150994944	62	4191
2026-01-22 08:59:20.16	134.26	10.49	-44.8	-46.0	20.7	0.00e+00	0	40	0	153092096	61	4084
2026-01-22 08:59:21.16	134.23	10.58	-45.0	-46.2	20.5	0.00e+00	0	40	0	155189248	61	4185
2026-01-22 08:59:22.17	134.21	10.67	-45.1	-46.4	20.3	0.00e+00	0	40	0	157286400	61	4286
2026-01-22 08:59:23.18	134.18	10.76	-45.2	-46.5	20.2	0.00e+00	0	40	0	158334976	61	4328
2026-01-22 08:59:24.19	134.15	10.85	-44.7	-45.9	20.8	0.00e+00	0	40	0	160432128	61	4026
2026-01-22 08:59:25.20	134.12	10.94	-44.7	-45.9	20.8	0.00e+00	0	40	0	162529280	61	4042
2026-01-22 08:59:26.20	134.10	11.03	-44.6	-45.8	20.9	0.00e+00	0	40	0	164626432	61	3965
2026-01-22 08:59:27.21	134.07	11.12	-44.6	-45.8	20.9	0.00e+00	0	40	0	166723584	61	3978
2026-01-22 08:59:28.22	134.04	11.21	-44.7	-45.9	20.9	0.00e+00	0	40	0	167772160	61	4008
2026-01-22 08:59:29.23	134.01	11.31	-44.7	-45.9	20.8	0.00e+00	0	40	0	169869312	61	4018
2026-01-22 08:59:30.23	133.98	11.40	-44.6	-45.8	20.9	0.00e+00	0	40	0	171966464	61	3983
2026-01-22 08:59:31.24	133.95	11.49	-44.8	-46.0	20.7	0.00e+00	0	40	0	174063616	61	4071
2026-01-22 08:59:32.25	133.92	11.58	-44.4	-45.6	21.1	0.00e+00	0	40	0	175112192	60	4113
2026-01-22 08:59:33.26	133.89	11.67	-44.4	-45.5	21.1	0.00e+00	0	40	0	177209344	60	4088
2026-01-22 08:59:34.27	133.86	11.77	-44.4	-45.6	21.2	0.00e+00	0	40	0	179306496	60	4101
2026-01-22 08:59:35.28	133.83	11.86	-44.4	-45.6	21.1	0.00e+00	0	40	0	181403648	60	4119
2026-01-22 08:59:36.29	133.80	11.96	-44.4	-45.6	21.1	0.00e+00	0	40	0	183500800	60	4123
2026-01-22 08:59:37.29	133.77	12.05	-44.3	-45.4	21.2	0.00e+00	0	40	0	185597952	60	4036
2026-01-22 08:59:38.30	133.74	12.14	-44.5	-45.6	21.1	0.00e+00	0	40	0	186646528	60	4141
2026-01-22 08:59:39.30	133.71	12.24	-44.4	-45.6	21.1	0.00e+00	0	40	0	188743680	60	4125
2026-01-22 08:59:40.31	133.68	12.33	-44.4	-45.6	21.2	0.00e+00	0	40	0	190840832	60	4113
2026-01-22 08:59:41.32	133.65	12.43	-44.6	-45.8	21.0	0.00e+00	0	40	0	192937984	60	4211
2026-01-22 08:59:42.33	133.62	12.52	-44.6	-45.8	20.9	0.00e+00	0	40	0	195035136	60	4236
2026-01-22 08:59:43.34	133.59	12.62	-44.3	-45.5	21.2	0.00e+00	0	40	0	196083712	60	4072
2026-01-22 08:59:44.34	133.55	12.72	-44.3	-45.5	21.3	0.00e+00	0	40	0	198180864	60	4059
2026-01-22 08:59:45.35	133.52	12.81	-44.3	-45.5	21.2	0.00e+00	0	40	0	200278016	60	4070
2026-01-22 08:59:46.36	133.49	12.91	-44.3	-45.4	21.3	0.00e+00	0	40	0	202375168	60	4043
2026-01-22 08:59:47.37	133.46	13.01	-44.3	-45.4	21.4	0.00e+00	0	40	0	203423744	60	4019
2026-01-22 08:59:48.37	133.42	13.11	-44.2	-45.4	21.4	0.00e+00	0	40	0	205520896	60	4007
2026-01-22 08:59:49.38	133.39	13.21	-44.3	-45.4	21.6	0.00e+00	0	40	0	207618048	59	4277
2026-01-22 08:59:50.39	133.36	13.31	-44.4	-45.6	21.5	0.00e+00	0	40	0	209715200	59	4341
2026-01-22 08:59:51.40	133.32	13.41	-44.4	-45.6	21.5	0.00e+00	0	40	0	211812352	59	4351
2026-01-22 08:59:52.41	133.29	13.51	-44.6	-45.7	21.3	0.00e+00	0	40	0	213909504	59	4435
2026-01-22 08:59:53.41	133.26	13.61	-44.5	-45.6	21.4	0.00e+00	0	40	0	214958080	59	4386
2026-01-22 08:59:54.42	133.22	13.71	-44.5	-45.8	21.2	0.00e+00	0	40	0	217055232	59	4445
2026-01-22 08:59:55.43	133.19	13.81	-44.6	-45.8	21.2	0.00e+00	0	40	0	219152384	59	4491
2026-01-22 08:59:56.44	133.15	13.91	-44.6	-45.8	21.2	0.00e+00	0	40	0	221249536	59	4484
2026-01-22 08:59:57.45	133.12	14.01	-44.5	-45.7	21.3	0.00e+00	0	40	0	223346688	59	4436
2026-01-22 08:59:58.46	133.08	14.11	-44.6	-45.9	21.1	0.00e+00	0	40	0	224395264	59	4514
2026-01-22 08:59:59.46	133.05	14.22	-44.6	-45.8	21.2	0.00e+00	0	40	0	226492416	59	4486
2026-01-22 09:00:00.47	133.01	14.32	-44.4	-45.7	21.3	0.00e+00	0	41	0	228589568	59	4394
2026-01-22 09:00:01.48	132.97	14.42	-44.5	-45.7	21.3	0.00e+00	0	40	0	230686720	59	4427
2026-01-22 09:00:02.49	132.94	14.53	-44.4	-45.6	21.4	0.00e+00	0	40	0	232783872	59	4361
2026-01-22 09:00:03.50	132.90	14.63	-44.4	-45.6	21.4	0.00e+00	0	40	0	233832448	59	4354
2026-01-22 09:00:04.50	132.86	14.73	-44.5	-45.7	21.3	0.00e+00	0	40	0	235929600	59	4424
2026-01-22 09:00:05.51	132.83	14.84	-44.5	-45.7	21.4	0.00e+00	0	40	0	238026752	59	4403
2026-01-22 09:00:06.52	132.79	14.95	-44.5	-45.8	21.3	0.00e+00	0	40	0	240123904	59	4449
2026-01-22 09:00:07.53	132.75	15.05	-44.7	-45.9	21.1	0.00e+00	0	40	0	242221056	59	4530
2026-01-22 09:00:08.54	132.71	15.16	-44.2	-45.4	21.3	0.00e+00	0	40	0	243269632	60	4024
2026-01-22 09:00:09.54	132.68	15.27	-44.2	-45.4	21.3	0.00e+00	0	40	0	245366784	60	4034
2026-01-22 09:00:10.55	132.64	15.37	-44.2	-45.4	21.4	0.00e+00	0	40	0	247463936	60	4010
2026-01-22 09:00:11.56	132.60	15.48	-44.2	-45.4	21.3	0.00e+00	0	40	0	249561088	60	4018
2026-01-22 09:00:12.57	132.56	15.59	-44.1	-45.3	21.4	0.00e+00	0	40	0	251658240	60	3970
2026-01-22 09:00:13.58	132.52	15.70	-44.5	-45.7	21.3	0.00e+00	0	40	0	253755392	59	4413
2026-01-22 09:00:14.58	132.48	15.81	-44.4	-45.6	21.4	0.00e+00	0	40	0	254803968	59	4368
2026-01-22 09:00:15.59	132.44	15.92	-44.4	-45.5	21.4	0.00e+00	0	40	0	256901120	59	4333
2026-01-22 09:00:16.60	132.40	16.03	-44.3	-45.4	21.6	0.00e+00	0	40	0	258998272	59	4276
2026-01-22 09:00:17.61	132.36	16.14	-44.3	-45.5	21.5	0.00e+00	0	40	0	261095424	59	4301
2026-01-22 09:00:18.62	132.31	16.25	-44.2	-45.3	21.6	0.00e+00	0	40	0	262144000	59	4237
2026-01-22 09:00:19.62	132.27	16.36	-44.1	-45.3	21.7	0.00e+00	0	40	0	264241152	59	4219
2026-01-22 09:00:20.63	132.23	16.47	-44.1	-45.3	21.7	0.00e+00	0	40	0	266338304	59	4202
2026-01-22 09:00:21.64	132.19	16.59	-44.3	-45.4	21.6	0.00e+00	0	40	0	268435456	59	4287
2026-01-22 09:00:22.65	132.15	16.70	-44.2	-45.4	21.6	0.00e+00	0	40	0	270532608	59	4259
2026-01-22 09:00:23.65	132.10	16.81	-44.3	-45.5	21.5	0.00e+00	0	40	0	271581184	59	4304
2026-01-22 09:00:24.66	132.06	16.93	-44.4	-45.6	21.5	0.00e+00	0	40	0	273678336	59	4344
2026-01-22 09:00:25.67	132.02	17.04	-44.3	-45.5	21.5	0.00e+00	0	40	0	275775488	59	4311
2026-01-22 09:00:26.68	131.97	17.16	-44.3	-45.4	21.6	0.00e+00	0	40	0	277872640	59	4280
2026-01-22 09:00:27.68	131.93	17.27	-44.3	-45.5	21.5	0.00e+00	0	40	0	279969792	59	4306
2026-01-22 09:00:28.69	131.88	17.39	-44.4	-45.6	21.5	0.00e+00	0	40	0	282066944	59	4345
2026-01-22 09:00:29.70	131.84	17.51	-44.4	-45.6	21.5	0.00e+00	0	40	0	283115520	59	4345
2026-01-22 09:00:30.71	131.79	17.63	-44.4	-45.6	21.5	0.00e+00	0	40	0	285212672	59	4343
2026-01-22 09:00:31.72	131.75	17.74	-44.2	-45.3	21.7	0.00e+00	0	40	0	287309824	59	4228
2026-01-22 09:00:32.72	131.70	17.86	-44.3	-45.5	21.5	0.00e+00	0	40	0	289406976	59	4318
2026-01-22 09:00:33.73	131.65	17.98	-44.4	-45.5	21.5	0.00e+00	0	40	0	290455552	59	4340
2026-01-22 09:00:34.74	131.61	18.10	-44.2	-45.4	21.7	0.00e+00	0	40	0	292552704	59	4268
2026-01-22 09:00:35.75	131.56	18.22	-44.3	-45.5	21.6	0.00e+00	0	40	0	294649856	59	4326
2026-01-22 09:00:36.75	131.51	18.34	-44.3	-45.5	21.6	0.00e+00	0	41	0	296747008	59	4321
2026-01-22 09:00:37.76	131.46	18.46	-44.4	-45.6	21.5	0.00e+00	0	40	0	298844160	59	4387
2026-01-22 09:00:38.77	131.41	18.59	-44.5	-45.8	21.4	0.00e+00	0	40	0	299892736	59	4442
2026-01-22 09:00:39.78	131.37	18.71	-44.6	-45.8	21.4	0.00e+00	0	40	0	301989888	59	4456
2026-01-22 09:00:40.79	131.32	18.83	-44.3	-45.5	21.4	0.00e+00	0	40	0	304087040	60	4060
2026-01-22 09:00:41.79	131.27	18.96	-44.4	-45.7	21.3	0.00e+00	0	40	0	306184192	60	4161
2026-01-22 09:00:42.80	131.22	19.08	-44.5	-45.8	21.2	0.00e+00	0	40	0	308281344	60	4211
2026-01-22 09:00:43.81	131.16	19.21	-44.5	-45.7	21.2	0.00e+00	0	40	0	310378496	60	4171
2026-01-22 09:00:44.82	131.11	19.33	-44.4	-45.7	21.2	0.00e+00	0	40	0	311427072	60	4149
2026-01-22 09:00:45.83	131.06	19.46	-44.7	-45.9	21.1	0.00e+00	0	40	0	313524224	60	4272
2026-01-22 09:00:46.84	131.01	19.58	-44.5	-45.8	21.2	0.00e+00	0	40	0	315621376	60	4211
2026-01-22 09:00:47.84	130.96	19.71	-44.4	-45.6	21.3	0.00e+00	0	41	0	317718528	60	4118
2026-01-22 09:00:48.85	130.90	19.84	-44.5	-45.7	21.2	0.00e+00	0	40	0	318767104	60	4164
2026-01-22 09:00:49.86	130.85	19.97	-44.6	-45.8	21.1	0.00e+00	0	40	0	320864256	60	4240
2026-01-22 09:00:50.87	130.80	20.10	-44.7	-45.9	21.0	0.00e+00	0	40	0	322961408	60	4276
2026-01-22 09:00:51.88	130.74	20.23	-44.6	-45.8	21.2	0.00e+00	0	40	0	325058560	60	4205
2026-01-22 09:00:52.88	130.69	20.36	-44.5	-45.8	21.2	0.00e+00	0	40	0	327155712	60	4198
2026-01-22 09:00:53.89	130.63	20.49	-44.4	-45.6	21.3	0.00e+00	0	40	0	329252864	60	4129
2026-01-22 09:00:54.90	130.57	20.62	-44.3	-45.5	21.5	0.00e+00	0	41	0	330301440	60	4062
2026-01-22 09:00:55.91	130.52	20.75	-44.4	-45.6	21.3	0.00e+00	0	40	0	332398592	60	4099
2026-01-22 09:00:56.92	130.46	20.89	-44.4	-45.6	21.4	0.00e+00	0	40	0	334495744	60	4114
2026-01-22 09:00:57.93	130.40	21.02	-44.4	-45.6	21.4	0.00e+00	0	40	0	336592896	60	4107
2026-01-22 09:00:58.94	130.34	21.16	-44.4	-45.7	21.3	0.00e+00	0	40	0	338690048	60	4148
2026-01-22 09:00:59.94	130.29	21.29	-44.5	-45.7	21.3	0.00e+00	0	40	0	339738624	60	4190
2026-01-22 09:01:00.95	130.23	21.43	-44.4	-45.6	21.4	0.00e+00	0	40	0	341835776	60	4118
2026-01-22 09:01:01.96	130.17	21.56	-44.6	-45.9	21.1	0.00e+00	0	40	0	343932928	60	4247
2026-01-22 09:01:02.97	130.11	21.70	-44.5	-45.7	21.2	0.00e+00	0	40	0	346030080	60	4191
2026-01-22 09:01:03.98	130.04	21.84	-44.5	-45.7	21.2	0.00e+00	0	40	0	348127232	60	4164
2026-01-22 09:01:04.98	129.98	21.98	-44.6	-45.9	21.2	0.00e+00	0	40	0	349175808	60	4255
2026-01-22 09:01:05.99	129.92	22.12	-44.8	-46.0	21.0	0.00e+00	0	41	0	351272960	60	4323
2026-01-22 09:01:07.00	129.86	22.26	-44.8	-46.1	21.0	0.00e+00	0	40	0	353370112	60	4343
2026-01-22 09:01:08.01	129.80	22.40	-44.8	-46.1	20.9	0.00e+00	0	40	0	355467264	60	4377
2026-01-22 09:01:09.02	129.73	22.54	-44.6	-45.9	21.1	0.00e+00	0	40	0	357564416	60	4247
2026-01-22 09:01:10.03	129.67	22.69	-44.7	-46.0	21.1	0.00e+00	0	41	0	358612992	60	4295
2026-01-22 09:01:11.03	129.60	22.83	-44.6	-45.8	21.1	0.00e+00	0	41	0	360710144	60	4241
2026-01-22 09:01:12.04	129.54	22.97	-44.5	-45.7	21.3	0.00e+00	0	40	0	362807296	60	4179
2026-01-22 09:01:13.05	129.47	23.12	-44.5	-45.7	21.3	0.00e+00	0	40	0	364904448	60	4180
2026-01-22 09:01:14.05	129.40	23.26	-44.4	-45.7	21.3	0.00e+00	0	40	0	367001600	60	4154
2026-01-22 09:01:15.06	129.33	23.41	-44.6	-45.8	21.2	0.00e+00	0	40	0	368050176	60	4219
2026-01-22 09:01:16.07	129.27	23.56	-44.6	-45.9	21.2	0.00e+00	0	40	0	370147328	60	4246
2026-01-22 09:01:17.08	129.20	23.70	-44.6	-45.8	21.2	0.00e+00	0	40	0	372244480	60	4207
2026-01-22 09:01:18.09	129.13	23.85	-45.0	-46.3	20.8	0.00e+00	0	40	0	374341632	60	4454
2026-01-22 09:01:19.10	129.06	24.00	-45.0	-46.3	20.8	0.00e+00	0	40	0	376438784	60	4466
2026-01-22 09:01:20.10	128.99	24.15	-45.2	-46.5	20.6	0.00e+00	0	40	0	377487360	60	4593
2026-01-22 09:01:21.11	128.91	24.30	-45.5	-46.9	20.3	0.00e+00	0	41	0	379584512	61	4510
2026-01-22 09:01:22.12	128.84	24.46	-45.3	-46.7	20.5	0.00e+00	0	41	0	381681664	61	4398
2026-01-22 09:01:23.13	128.77	24.61	-45.4	-46.8	20.4	0.00e+00	0	41	0	383778816	61	4464
2026-01-22 09:01:24.14	128.69	24.76	-45.6	-47.0	20.2	0.00e+00	0	40	0	385875968	61	4573
2026-01-22 09:01:25.14	128.62	24.92	-45.3	-46.7	20.5	0.00e+00	0	40	0	386924544	61	4400
2026-01-22 09:01:26.15	128.54	25.07	-45.6	-46.9	20.3	0.00e+00	0	41	0	389021696	61	4544
2026-01-22 09:01:27.16	128.47	25.23	-45.8	-47.2	20.0	0.00e+00	0	40	0	391118848	62	4424
2026-01-22 09:01:28.17	128.39	25.39	-45.6	-46.9	20.3	0.00e+00	0	40	0	393216000	62	4272
2026-01-22 09:01:29.18	128.31	25.54	-45.9	-47.3	20.0	0.00e+00	0	41	0	395313152	62	4469
2026-01-22 09:01:30.18	128.23	25.70	-45.8	-47.2	20.1	0.00e+00	0	41	0	396361728	62	4424
2026-01-22 09:01:31.19	128.15	25.86	-45.8	-47.2	20.1	0.00e+00	0	41	0	398458880	62	4410
2026-01-22 09:01:32.20	128.07	26.02	-45.8	-47.2	20.0	0.00e+00	0	40	0	400556032	62	4433
2026-01-22 09:01:33.21	127.99	26.19	-45.6	-46.9	20.3	0.00e+00	0	41	0	402653184	62	4291
2026-01-22 09:01:34.21	127.91	26.35	-46.1	-47.6	19.7	0.00e+00	0	41	0	404750336	62	4630
2026-01-22 09:01:35.22	127.83	26.51	-45.9	-47.4	20.0	0.00e+00	0	41	0	405798912	63	4247
2026-01-22 09:01:36.23	127.74	26.67	-45.9	-47.4	19.9	0.00e+00	0	41	0	407896064	63	4254
2026-01-22 09:01:37.24	127.66	26.84	-46.1	-47.5	19.7	0.00e+00	0	40	0	409993216	63	4334
2026-01-22 09:01:38.25	127.57	27.01	-46.0	-47.4	19.9	0.00e+00	0	40	0	412090368	63	4263
2026-01-22 09:01:39.26	127.48	27.17	-45.9	-47.3	20.0	0.00e+00	0	40	0	414187520	63	4201
2026-01-22 09:01:40.26	127.40	27.34	-45.8	-47.2	20.1	0.00e+00	0	40	0	415236096	63	4180
2026-01-22 09:01:41.27	127.31	27.51	-45.6	-47.0	20.3	0.00e+00	0	40	0	417333248	63	4055
2026-01-22 09:01:42.28	127.22	27.68	-45.8	-47.2	20.1	0.00e+00	0	40	0	419430400	63	4181
2026-01-22 09:01:43.29	127.13	27.85	-45.7	-47.0	20.2	0.00e+00	0	40	0	421527552	63	4088
2026-01-22 09:01:44.30	127.04	28.02	-45.5	-46.9	20.3	0.00e+00	0	40	0	423624704	62	4250
2026-01-22 09:01:45.30	126.94	28.20	-45.5	-46.8	20.4	0.00e+00	0	40	0	424673280	62	4239
2026-01-22 09:01:46.31	126.85	28.37	-45.5	-46.9	20.4	0.00e+00	0	40	0	426770432	62	4249
2026-01-22 09:01:47.32	126.76	28.55	-45.1	-46.3	20.9	0.00e+00	0	40	0	428867584	62	3978
2026-01-22 09:01:48.33	126.66	28.72	-45.1	-46.4	20.8	0.00e+00	0	40	0	430964736	62	4029
2026-01-22 09:01:49.34	126.56	28.90	-45.2	-46.5	20.8	0.00e+00	0	41	0	433061888	62	4063
2026-01-22 09:01:50.34	126.46	29.08	-45.2	-46.5	20.7	0.00e+00	0	40	0	434110464	62	4086
2026-01-22 09:01:51.35	126.37	29.26	-45.6	-47.0	20.3	0.00e+00	0	40	0	436207616	62	4311
2026-01-22 09:01:52.36	126.26	29.44	-46.0	-47.4	19.9	0.00e+00	0	40	0	438304768	62	4529
2026-01-22 09:01:53.37	126.16	29.62	-46.1	-47.5	19.8	0.00e+00	0	41	0	440401920	62	4591
2026-01-22 09:01:54.38	126.06	29.80	-46.7	-48.4	18.9	0.00e+00	0	40	0	442499072	64	4503
2026-01-22 09:01:55.38	125.96	29.98	-46.8	-48.5	18.9	0.00e+00	0	41	0	444596224	64	4547
2026-01-22 09:01:56.39	125.85	30.17	-46.8	-48.5	18.9	0.00e+00	0	41	0	445644800	64	4566
2026-01-22 09:01:57.40	125.75	30.35	-46.8	-48.5	18.8	0.00e+00	0	40	0	447741952	64	4579
2026-01-22 09:01:58.40	125.64	30.54	-46.7	-48.4	18.9	0.00e+00	0	40	0	449839104	64	4529
2026-01-22 09:01:59.41	125.53	30.72	-47.0	-48.7	18.6	0.00e+00	0	40	0	451936256	64	4693
2026-01-22 09:02:00.42	125.42	30.91	-46.8	-48.5	18.8	0.00e+00	0	41	0	452984832	64	4569
2026-01-22 09:02:01.43	125.31	31.10	-47.0	-48.8	18.6	0.00e+00	0	40	0	455081984	64	4709
2026-01-22 09:02:02.44	125.19	31.30	-47.6	-49.6	17.8	0.00e+00	0	40	0	457179136	65	4883
2026-01-22 09:02:03.44	125.08	31.49	-47.6	-49.6	17.8	0.00e+00	0	41	0	459276288	65	4871
2026-01-22 09:02:04.45	124.96	31.68	-47.8	-49.8	17.7	0.00e+00	0	41	0	461373440	66	4749
2026-01-22 09:02:05.46	124.85	31.87	-48.2	-50.4	17.1	0.00e+00	0	41	0	462422016	67	4783
2026-01-22 09:02:06.46	124.73	32.07	-48.3	-50.5	17.1	0.00e+00	0	40	0	464519168	67	4823
2026-01-22 09:02:07.47	124.61	32.26	-48.4	-50.6	16.9	0.00e+00	0	41	0	466616320	67	4888
2026-01-22 09:02:08.48	124.49	32.46	-47.9	-49.9	17.6	0.00e+00	0	40	0	468713472	67	4514
2026-01-22 09:02:09.49	124.36	32.66	-47.9	-49.9	17.6	0.00e+00	0	41	0	470810624	67	4534
2026-01-22 09:02:10.50	124.24	32.86	-47.2	-49.0	18.3	0.00e+00	0	41	0	472907776	66	4325
2026-01-22 09:02:11.50	124.11	33.06	-47.8	-49.8	17.6	0.00e+00	0	41	0	473956352	66	4710
2026-01-22 09:02:12.51	123.99	33.26	-47.8	-49.8	17.6	0.00e+00	0	40	0	476053504	66	4741
2026-01-22 09:02:13.52	123.86	33.47	-48.2	-50.5	17.0	0.00e+00	0	40	0	478150656	66	5128
2026-01-22 09:02:14.53	123.73	33.67	-48.4	-50.7	16.8	0.00e+00	0	41	0	480247808	67	4949
2026-01-22 09:02:15.54	123.59	33.88	-48.4	-50.8	16.3	0.00e+00	0	41	0	481296384	67	5037
2026-01-22 09:02:16.54	123.46	34.09	-48.5	-51.1	16.4	0.00e+00	0	40	0	483393536	67	5164
2026-01-22 09:02:17.55	123.32	34.29	-48.8	-51.4	16.2	0.00e+00	0	40	0	485490688	68	5081
2026-01-22 09:02:18.56	123.18	34.50	-47.9	-50.0	17.4	0.00e+00	0	40	0	487587840	67	4584
2026-01-22 09:02:19.56	123.04	34.71	-48.6	-51.1	16.3	0.00e+00	0	40	0	489684992	67	5208
2026-01-22 09:02:20.57	122.90	34.93	-48.8	-51.5	16.1	0.00e+00	0	41	0	491782144	68	5102
2026-01-22 09:02:21.58	122.76	35.14	-48.8	-51.5	16.0	0.00e+00	0	40	0	492830720	68	5145
2026-01-22 09:02:22.59	122.61	35.35	-49.1	-52.0	15.6	0.00e+00	0	41	0	494927872	68	5435
2026-01-22 09:02:23.60	122.46	35.57	-48.9	-51.6	16.0	0.00e+00	0	41	0	497025024	69	4925
2026-01-22 09:02:24.61	122.31	35.79	-49.4	-52.5	15.1	0.00e+00	0	41	0	499122176	69	5435
2026-01-22 09:02:25.62	122.16	36.01	-49.7	-53.1	14.4	2.20e-06	0	41	0	501219328	70	5519
2026-01-22 09:02:26.63	122.01	36.23	-48.8	-51.5	16.0	0.00e+00	0	41	0	502267904	69	4858
2026-01-22 09:02:27.64	121.85	36.45	-49.1	-52.1	15.3	0.00e+00	0	41	0	504365056	69	5200
2026-01-22 09:02:28.64	121.70	36.67	-48.9	-51.7	15.6	0.00e+00	0	40	0	506462208	69	4964
2026-01-22 09:02:29.65	121.53	36.89	-48.1	-50.4	17.0	0.00e+00	0	41	0	508559360	67	4784
2026-01-22 09:02:30.66	121.37	37.12	-47.7	-49.8	17.6	0.00e+00	0	40	0	509607936	67	4455
2026-01-22 09:02:31.67	121.21	37.34	-47.1	-49.0	18.1	0.00e+00	0	41	0	511705088	66	4336
2026-01-22 09:02:32.68	121.04	37.57	-47.0	-48.9	18.4	0.00e+00	0	40	0	513802240	65	4513
2026-01-22 09:02:33.69	120.87	37.80	-47.0	-48.9	18.4	0.00e+00	0	41	0	515899392	65	4507
2026-01-22 09:02:34.70	120.70	38.03	-47.2	-49.1	18.2	0.00e+00	0	41	0	517996544	65	4646
2026-01-22 09:02:35.70	120.52	38.26	-47.2	-49.1	18.2	0.00e+00	0	41	0	520093696	65	4632
2026-01-22 09:02:36.71	120.35	38.49	-46.7	-48.4	18.9	0.00e+00	0	40	0	521142272	65	4257
2026-01-22 09:02:37.72	120.17	38.72	-46.7	-48.4	18.9	0.00e+00	0	41	0	523239424	65	4256
2026-01-22 09:02:38.73	119.98	38.96	-46.5	-48.1	19.2	0.00e+00	0	40	0	525336576	64	4375
2026-01-22 09:02:39.73	119.80	39.19	-46.5	-48.1	19.2	0.00e+00	0	41	0	527433728	64	4381
2026-01-22 09:02:40.74	119.61	39.43	-46.6	-48.3	19.1	0.00e+00	0	41	0	529530880	64	4450
2026-01-22 09:02:41.75	119.42	39.67	-46.3	-48.0	19.3	0.00e+00	0	40	0	530579456	64	4298
2026-01-22 09:02:42.76	119.23	39.91	-46.3	-48.0	19.3	0.00e+00	0	40	0	532676608	64	4292
2026-01-22 09:02:43.77	119.03	40.15	-46.0	-47.6	19.7	0.00e+00	0	40	0	534773760	63	4352
2026-01-22 09:02:44.78	118.83	40.39	-45.9	-47.4	19.9	0.00e+00	0	40	0	536870912	63	4287
2026-01-22 09:02:45.79	118.63	40.64	-46.1	-47.7	19.7	0.00e+00	0	40	0	538968064	63	4421
2026-01-22 09:02:46.79	118.42	40.88	-46.2	-47.8	19.6	0.00e+00	0	40	0	540016640	63	4483
2026-01-22 09:02:47.80	118.21	41.12	-47.0	-48.8	18.6	0.00e+00	0	40	0	542113792	64	4731
2026-01-22 09:02:48.81	118.00	41.37	-46.8	-48.5	18.8	0.00e+00	0	41	0	544210944	64	4597
2026-01-22 09:02:49.82	117.79	41.62	-46.5	-48.1	19.2	0.00e+00	0	41	0	546308096	64	4368
2026-01-22 09:02:50.83	117.57	41.87	-46.6	-48.3	19.1	0.00e+00	0	40	0	548405248	64	4453
2026-01-22 09:02:51.83	117.35	42.12	-46.2	-47.7	19.6	0.00e+00	0	41	0	549453824	64	4186
2026-01-22 09:02:52.84	117.12	42.37	-46.3	-47.8	19.5	0.00e+00	0	41	0	551550976	64	4234
2026-01-22 09:02:53.85	116.89	42.63	-46.3	-47.8	19.5	0.00e+00	0	41	0	553648128	64	4230
2026-01-22 09:02:54.86	116.66	42.88	-46.5	-48.0	19.3	0.00e+00	0	40	0	555745280	64	4333
2026-01-22 09:02:55.87	116.42	43.14	-46.7	-48.3	19.0	0.00e+00	0	40	0	557842432	64	4469
2026-01-22 09:02:56.88	116.18	43.39	-46.4	-47.9	19.4	0.00e+00	0	40	0	559939584	64	4273
2026-01-22 09:02:57.89	115.93	43.65	-46.5	-48.1	19.3	0.00e+00	0	41	0	560988160	64	4362
2026-01-22 09:02:58.90	115.69	43.91	-46.6	-48.3	19.1	0.00e+00	0	41	0	563085312	64	4446
2026-01-22 09:02:59.90	115.43	44.17	-46.5	-48.2	19.2	0.00e+00	0	40	0	565182464	64	4403
2026-01-22 09:03:00.91	115.18	44.43	-46.3	-47.9	19.4	0.00e+00	0	41	0	567279616	64	4262
2026-01-22 09:03:01.92	114.92	44.69	-46.5	-48.2	19.2	0.00e+00	0	41	0	568328192	63	4681
2026-01-22 09:03:02.93	114.65	44.96	-46.5	-48.1	19.1	0.00e+00	0	40	0	570425344	63	4638
2026-01-22 09:03:03.94	114.38	45.22	-45.8	-47.3	20.0	0.00e+00	0	41	0	572522496	63	4201
2026-01-22 09:03:04.94	114.11	45.48	-45.7	-47.2	20.2	0.00e+00	0	41	0	574619648	63	4161
2026-01-22 09:03:05.95	113.83	45.75	-45.6	-47.0	20.3	0.00e+00	0	41	0	576716800	63	4090
2026-01-22 09:03:06.96	113.54	46.02	-45.8	-47.4	20.0	0.00e+00	0	41	0	577765376	63	4247
2026-01-22 09:03:07.97	113.25	46.29	-45.8	-47.3	20.1	0.00e+00	0	41	0	579862528	63	4229
2026-01-22 09:03:08.98	112.96	46.56	-45.9	-47.4	19.9	0.00e+00	0	41	0	581959680	63	4289
2026-01-22 09:03:09.98	112.66	46.83	-46.0	-47.5	19.9	0.00e+00	0	41	0	584056832	63	4300
2026-01-22 09:03:10.99	112.35	47.10	-46.0	-47.5	20.0	0.00e+00	0	41	0	586153984	63	4315
2026-01-22 09:03:12.00	112.04	47.37	-46.0	-47.6	19.8	0.00e+00	0	41	0	588251136	63	4361
2026-01-22 09:03:13.00	111.73	47.64	-45.7	-47.2	20.2	0.00e+00	0	41	0	589299712	63	4158
2026-01-22 09:03:14.01	111.41	47.91	-45.3	-46.8	20.5	0.00e+00	0	40	0	591396864	62	4201
2026-01-22 09:03:15.02	111.08	48.19	-45.3	-46.7	20.6	0.00e+00	0	41	0	593494016	62	4170
2026-01-22 09:03:16.03	110.75	48.46	-45.6	-47.1	20.1	0.00e+00	0	40	0	595591168	62	4364
2026-01-22 09:03:17.04	110.41	48.74	-46.1	-47.6	19.6	0.00e+00	0	40	0	596639744	62	4648
2026-01-22 09:03:18.04	110.07	49.01	-45.7	-47.1	20.0	0.00e+00	0	41	0	598736896	62	4389
2026-01-22 09:03:19.05	109.72	49.29	-45.3	-46.8	20.3	0.00e+00	0	41	0	600834048	62	4208
2026-01-22 09:03:20.06	109.36	49.57	-44.9	-46.3	20.7	0.00e+00	0	40	0	602931200	61	4218
2026-01-22 09:03:21.07	108.99	49.85	-45.2	-46.6	20.5	0.00e+00	0	41	0	605028352	61	4356
2026-01-22 09:03:22.08	108.62	50.12	-45.2	-46.7	20.3	0.00e+00	0	40	0	607125504	61	4412
2026-01-22 09:03:23.08	108.24	50.40	-45.3	-46.7	20.5	0.00e+00	0	41	0	608174080	61	4422
2026-01-22 09:03:24.09	107.86	50.68	-44.8	-46.1	20.9	0.00e+00	0	40	0	610271232	61	4130
2026-01-22 09:03:25.10	107.47	50.96	-44.3	-45.5	21.6	0.00e+00	0	41	0	612368384	60	4079
2026-01-22 09:03:26.11	107.07	51.24	-44.2	-45.4	21.7	0.00e+00	0	41	0	614465536	60	4011
2026-01-22 09:03:27.11	106.66	51.52	-44.3	-45.4	21.7	0.00e+00	0	40	0	616562688	60	4028
2026-01-22 09:03:28.12	106.25	51.80	-44.3	-45.5	21.6	0.00e+00	0	41	0	617611264	60	4074
2026-01-22 09:03:29.13	105.82	52.08	-44.9	-46.2	21.0	0.00e+00	0	40	0	619708416	60	4396
2026-01-22 09:03:30.14	105.39	52.35	-45.1	-46.4	20.7	0.00e+00	0	41	0	621805568	60	4532
2026-01-22 09:03:31.15	104.95	52.63	-44.8	-46.0	21.1	0.00e+00	0	41	0	623902720	61	4089
2026-01-22 09:03:32.16	104.50	52.91	-44.4	-45.6	21.4	0.00e+00	0	41	0	624951296	60	4124
2026-01-22 09:03:33.16	104.05	53.19	-44.3	-45.4	21.6	0.00e+00	0	40	0	627048448	60	4032
2026-01-22 09:03:34.17	103.58	53.47	-44.5	-45.7	21.3	0.00e+00	0	41	0	629145600	60	4185
2026-01-22 09:03:35.18	103.11	53.75	-45.2	-46.6	20.5	0.00e+00	0	41	0	631242752	61	4369
2026-01-22 09:03:36.19	102.62	54.03	-45.8	-47.4	19.8	0.00e+00	0	40	0	633339904	62	4518
2026-01-22 09:03:37.20	102.13	54.30	-45.7	-47.2	20.1	0.00e+00	0	40	0	635437056	62	4438
2026-01-22 09:03:38.20	101.63	54.58	-45.4	-46.8	20.3	0.00e+00	0	41	0	636485632	62	4230
2026-01-22 09:03:39.21	101.12	54.85	-45.5	-47.0	20.2	0.00e+00	0	41	0	638582784	62	4316
2026-01-22 09:03:40.22	100.59	55.13	-45.3	-46.7	20.4	0.00e+00	0	41	0	640679936	62	4156
2026-01-22 09:03:41.23	100.06	55.40	-44.9	-46.2	20.9	0.00e+00	0	41	0	642777088	61	4162
2026-01-22 09:03:42.23	99.52	55.67	-45.2	-46.6	20.6	0.00e+00	0	41	0	644874240	61	4384
2026-01-22 09:03:43.24	98.96	55.94	-45.3	-46.7	20.6	0.00e+00	0	40	0	645922816	61	4416
2026-01-22 09:03:44.24	98.40	56.21	-45.2	-46.5	20.7	0.00e+00	0	41	0	648019968	61	4321
2026-01-22 09:03:45.25	97.83	56.48	-44.8	-46.1	21.2	0.00e+00	0	40	0	650117120	61	4111
2026-01-22 09:03:46.26	97.24	56.75	-44.7	-45.9	21.3	0.00e+00	0	41	0	652214272	61	4010
2026-01-22 09:03:47.27	96.64	57.01	-45.0	-46.2	21.0	0.00e+00	0	41	0	653262848	61	4169
2026-01-22 09:03:48.28	96.03	57.27	-45.1	-46.3	21.0	0.00e+00	0	41	0	655360000	61	4220
2026-01-22 09:03:49.29	95.40	57.54	-45.3	-46.6	20.7	0.00e+00	0	40	0	657457152	61	4389
2026-01-22 09:03:50.29	94.77	57.79	-45.9	-47.3	20.2	0.00e+00	0	41	0	659554304	62	4479
2026-01-22 09:03:51.30	94.13	58.05	-46.1	-47.5	20.0	0.00e+00	0	40	0	661651456	62	4561
2026-01-22 09:03:52.31	93.47	58.30	-45.3	-46.6	20.8	0.00e+00	0	40	0	663748608	62	4109
2026-01-22 09:03:53.32	92.79	58.56	-44.9	-46.0	21.1	0.00e+00	0	40	0	664797184	61	4095
2026-01-22 09:03:54.32	92.11	58.80	-45.4	-46.7	20.7	0.00e+00	0	41	0	666894336	61	4440
2026-01-22 09:03:55.33	91.42	59.05	-46.2	-47.7	19.8	0.00e+00	0	41	0	668991488	62	4676
2026-01-22 09:03:56.34	90.70	59.29	-46.2	-47.7	19.8	0.00e+00	0	41	0	671088640	63	4408
2026-01-22 09:03:57.35	89.98	59.53	-45.6	-47.0	20.6	0.00e+00	0	40	0	673185792	63	4054
2026-01-22 09:03:58.36	89.24	59.77	-45.6	-46.9	20.5	0.00e+00	0	40	0	674234368	62	4250
2026-01-22 09:03:59.36	88.49	60.00	-45.3	-46.6	20.8	0.00e+00	0	40	0	676331520	62	4119
2026-01-22 09:04:00.37	87.73	60.23	-44.9	-46.2	21.1	0.00e+00	0	40	0	678428672	61	4158
2026-01-22 09:04:01.38	86.95	60.46	-44.7	-45.9	21.3	0.00e+00	0	40	0	680525824	61	4042
2026-01-22 09:04:02.39	86.16	60.68	-44.3	-45.4	21.8	0.00e+00	0	41	0	682622976	60	4050
2026-01-22 09:04:03.40	85.35	60.90	-44.4	-45.6	21.6	0.00e+00	0	41	0	683671552	60	4113
2026-01-22 09:04:04.41	84.53	61.11	-44.1	-45.2	21.9	0.00e+00	0	40	0	685768704	60	3940
2026-01-22 09:04:05.42	83.69	61.32	-44.0	-45.1	22.2	0.00e+00	0	41	0	687865856	59	4128
2026-01-22 09:04:06.43	82.84	61.52	-43.9	-45.0	22.4	0.00e+00	0	40	0	689963008	59	4054
2026-01-22 09:04:07.43	81.99	61.72	-43.8	-44.8	22.5	0.00e+00	0	40	0	692060160	59	3995
2026-01-22 09:04:08.44	81.11	61.91	-43.9	-45.0	22.2	0.00e+00	0	41	0	693108736	59	4084
2026-01-22 09:04:09.45	80.22	62.10	-44.2	-45.4	21.9	0.00e+00	0	41	0	695205888	59	4284
2026-01-22 09:04:10.46	79.31	62.28	-44.5	-45.8	21.6	0.00e+00	0	41	0	697303040	59	4456
2026-01-22 09:04:11.47	78.40	62.46	-44.0	-45.1	22.2	0.00e+00	0	41	0	699400192	59	4133
2026-01-22 09:04:12.47	77.47	62.63	-43.6	-44.6	22.7	0.00e+00	0	41	0	701497344	59	3898
2026-01-22 09:04:13.48	76.53	62.79	-43.8	-44.9	22.5	0.00e+00	0	41	0	702545920	59	4044
2026-01-22 09:04:14.49	75.57	62.95	-43.9	-45.0	22.3	0.00e+00	0	41	0	704643072	59	4086
2026-01-22 09:04:15.50	74.60	63.11	-43.4	-44.5	22.8	0.00e+00	0	40	0	706740224	58	4055
2026-01-22 09:04:16.50	73.63	63.25	-43.1	-44.1	23.1	0.00e+00	0	41	0	708837376	58	3872
2026-01-22 09:04:17.51	72.64	63.39	-42.4	-43.6	23.1	0.00e+00	0	41	0	710934528	57	3890
2026-01-22 09:04:18.52	71.63	63.52	-43.0	-44.0	23.2	0.00e+00	0	41	0	711983104	57	4085
2026-01-22 09:04:19.53	70.61	63.65	-42.9	-43.9	23.2	0.00e+00	0	41	0	714080256	57	4040
2026-01-22 09:04:20.54	69.59	63.76	-44.2	-45.4	22.1	0.00e+00	0	41	0	716177408	58	4512
2026-01-22 09:04:21.54	68.56	63.87	-44.4	-45.7	21.5	0.00e+00	0	41	0	718274560	60	4155
2026-01-22 09:04:22.55	67.51	63.98	-44.8	-46.2	21.2	0.00e+00	0	41	0	720371712	60	4402
2026-01-22 09:04:23.56	66.46	64.07	-44.6	-45.9	21.3	0.00e+00	0	41	0	721420288	60	4278
2026-01-22 09:04:24.57	65.39	64.16	-44.3	-45.5	21.7	0.00e+00	0	41	0	723517440	60	4095
2026-01-22 09:04:25.57	64.33	64.24	-43.7	-44.9	22.4	0.00e+00	0	41	0	725614592	59	4014
2026-01-22 09:04:26.58	63.25	64.31	-43.2	-44.2	23.0	0.00e+00	0	41	0	727711744	58	3945
2026-01-22 09:04:27.59	62.17	64.37	-42.6	-43.6	23.5	0.00e+00	0	41	0	729808896	57	3872
2026-01-22 09:04:28.60	61.08	64.43	-42.0	-42.9	23.9	0.00e+00	0	41	0	730857472	56	3818
2026-01-22 09:04:29.60	59.99	64.47	-42.0	-42.9	24.0	0.00e+00	0	41	0	732954624	55	4020
2026-01-22 09:04:30.61	58.89	64.51	-42.0	-42.9	23.9	0.00e+00	0	40	0	735051776	55	4023
2026-01-22 09:04:31.62	57.79	64.54	-42.0	-42.9	23.9	0.00e+00	0	41	0	737148928	55	4038
2026-01-22 09:04:32.63	56.69	64.56	-42.2	-43.1	23.8	0.00e+00	0	41	0	739246080	55	4120
2026-01-22 09:04:33.64	55.58	64.57	-42.7	-43.7	23.4	0.00e+00	0	41	0	740294656	55	4410
2026-01-22 09:04:34.65	54.47	64.58	-42.8	-43.8	23.4	0.00e+00	0	41	0	742391808	56	4209
2026-01-22 09:04:35.66	53.36	64.57	-43.1	-44.2	23.1	0.00e+00	0	41	0	744488960	56	4411
2026-01-22 09:04:36.66	52.27	64.56	-43.9	-45.1	22.4	0.00e+00	0	41	0	746586112	58	4351
2026-01-22 09:04:37.67	51.16	64.54	-43.8	-44.9	22.6	0.00e+00	0	40	0	748683264	58	4255
2026-01-22 09:04:38.68	50.06	64.51	-43.5	-44.6	22.8	0.00e+00	0	41	0	750780416	58	4103
2026-01-22 09:04:39.69	48.96	64.47	-43.0	-44.0	23.2	0.00e+00	0	41	0	751828992	57	4095
2026-01-22 09:04:40.70	47.87	64.42	-42.3	-43.2	23.9	0.00e+00	0	40	0	753926144	56	3920
2026-01-22 09:04:41.70	46.79	64.37	-42.6	-43.5	23.7	0.00e+00	0	41	0	756023296	56	4079
2026-01-22 09:04:42.71	45.70	64.31	-43.0	-44.0	23.2	0.00e+00	0	40	0	758120448	57	4054
2026-01-22 09:04:43.72	44.62	64.24	-43.9	-45.0	22.5	0.00e+00	0	41	0	759169024	58	4320
2026-01-22 09:04:44.73	43.55	64.16	-44.1	-45.2	22.4	0.00e+00	0	41	0	761266176	58	4409
2026-01-22 09:04:45.74	42.49	64.07	-44.5	-45.7	21.9	0.00e+00	0	41	0	763363328	59	4439
2026-01-22 09:04:46.74	41.45	63.97	-44.6	-45.8	21.9	0.00e+00	0	40	0	765460480	59	4443
2026-01-22 09:04:47.75	40.40	63.87	-44.4	-45.6	21.8	0.00e+00	0	41	0	767557632	60	4137
2026-01-22 09:04:48.76	39.36	63.76	-44.1	-45.3	22.0	0.00e+00	0	41	0	768606208	60	3973
2026-01-22 09:04:49.77	38.34	63.64	-43.8	-44.9	22.5	0.00e+00	0	40	0	770703360	59	4020
2026-01-22 09:04:50.78	37.32	63.52	-43.7	-44.8	22.6	0.00e+00	0	41	0	772800512	58	4196
2026-01-22 09:04:51.78	36.33	63.39	-43.8	-44.8	22.6	0.00e+00	0	41	0	774897664	58	4238
2026-01-22 09:04:52.79	35.33	63.25	-43.6	-44.7	22.7	0.00e+00	0	41	0	776994816	58	4170
2026-01-22 09:04:53.80	34.35	63.10	-43.4	-44.4	22.9	0.00e+00	0	40	0	779091968	58	4016
2026-01-22 09:04:54.81	33.38	62.95	-44.0	-45.1	22.4	0.00e+00	0	40	0	780140544	58	4344
2026-01-22 09:04:55.82	32.43	62.79	-43.7	-44.7	22.7	0.00e+00	0	41	0	782237696	59	3938
2026-01-22 09:04:56.82	31.49	62.63	-42.3	-43.2	24.0	0.00e+00	0	40	0	784334848	56	3934
2026-01-22 09:04:57.83	30.56	62.46	-42.7	-43.6	23.5	0.00e+00	0	40	0	786432000	56	4139
2026-01-22 09:04:58.84	29.65	62.28	-44.3	-45.5	22.0	0.00e+00	0	40	0	787480576	59	4319
2026-01-22 09:04:59.85	28.74	62.10	-44.3	-45.5	22.0	0.00e+00	0	41	0	789577728	59	4301
2026-01-22 09:05:00.86	27.85	61.91	-43.8	-44.9	22.5	0.00e+00	0	40	0	791674880	59	4046
2026-01-22 09:05:01.86	26.99	61.72	-44.2	-45.4	22.1	0.00e+00	0	40	0	793772032	59	4280
2026-01-22 09:05:02.87	26.12	61.52	-44.8	-46.1	21.3	0.00e+00	0	41	0	795869184	60	4341
2026-01-22 09:05:03.88	25.28	61.31	-46.0	-47.6	19.9	0.00e+00	0	41	0	797966336	62	4603
2026-01-22 09:05:04.89	24.44	61.11	-46.6	-48.4	19.0	0.00e+00	0	41	0	799014912	63	4799
2026-01-22 09:05:05.90	23.62	60.89	-46.7	-48.5	19.0	0.00e+00	0	41	0	801112064	64	4569
2026-01-22 09:05:06.91	22.81	60.68	-46.0	-47.5	20.0	0.00e+00	0	41	0	803209216	63	4298
2026-01-22 09:05:07.91	22.03	60.46	-44.9	-46.1	21.2	0.00e+00	0	41	0	805306368	61	4116
2026-01-22 09:05:08.92	21.25	60.23	-45.5	-46.8	20.7	0.00e+00	0	41	0	807403520	61	4483
2026-01-22 09:05:09.93	20.49	60.00	-46.3	-47.8	19.8	0.00e+00	0	40	0	808452096	63	4463
2026-01-22 09:05:10.94	19.74	59.77	-46.4	-47.9	19.7	0.00e+00	0	40	0	810549248	63	4510
2026-01-22 09:05:11.94	19.01	59.53	-47.3	-49.0	18.6	0.00e+00	0	40	0	812646400	65	4594
2026-01-22 09:05:12.95	18.28	59.29	-47.8	-49.6	18.1	0.00e+00	0	40	0	814743552	66	4644
2026-01-22 09:05:13.96	17.57	59.05	-47.3	-49.0	18.7	0.00e+00	0	41	0	815792128	66	4307
2026-01-22 09:05:14.97	16.87	58.80	-46.3	-47.6	20.0	0.00e+00	0	40	0	817889280	64	4138
2026-01-22 09:05:15.98	16.19	58.56	-45.6	-46.8	20.7	0.00e+00	0	40	0	819986432	63	3990
2026-01-22 09:05:16.98	15.52	58.31	-45.2	-46.3	21.1	0.00e+00	0	40	0	822083584	62	4000
2026-01-22 09:05:17.99	14.86	58.05	-44.7	-45.8	21.6	0.00e+00	0	40	0	824180736	61	3959
2026-01-22 09:05:19.00	14.22	57.80	-45.8	-47.1	20.4	0.00e+00	0	41	0	826277888	62	4374
2026-01-22 09:05:20.01	13.58	57.54	-47.0	-48.7	19.0	0.00e+00	0	41	0	827326464	64	4675
2026-01-22 09:05:21.02	12.96	57.28	-46.8	-48.4	19.1	0.00e+00	0	40	0	829423616	64	4543
2026-01-22 09:05:22.02	12.36	57.02	-46.3	-47.9	19.7	0.00e+00	0	41	0	831520768	64	4252
2026-01-22 09:05:23.03	11.76	56.75	-47.1	-48.9	18.7	0.00e+00	0	40	0	833617920	64	4760
2026-01-22 09:05:24.04	11.17	56.49	-47.6	-49.7	17.9	0.00e+00	0	41	0	835715072	66	4678
2026-01-22 09:05:25.05	10.59	56.22	-47.8	-49.9	17.7	0.00e+00	0	40	0	836763648	66	4813
2026-01-22 09:05:26.05	10.03	55.95	-47.7	-49.8	17.8	0.00e+00	0	41	0	838860800	67	4447
2026-01-22 09:05:27.06	9.48	55.68	-46.8	-48.4	19.0	0.00e+00	0	40	0	840957952	65	4288
2026-01-22 09:05:28.07	8.94	55.41	-45.4	-46.7	20.6	0.00e+00	0	41	0	843055104	62	4192
2026-01-22 09:05:29.08	8.40	55.13	-47.1	-48.9	18.6	0.00e+00	0	40	0	845152256	64	4798
2026-01-22 09:05:30.08	7.89	54.86	-47.7	-49.9	17.5	0.00e+00	0	40	0	846200832	66	4798
2026-01-22 09:05:31.09	7.37	54.59	-46.6	-48.4	19.0	0.00e+00	0	41	0	848297984	65	4245
2026-01-22 09:05:32.10	6.87	54.31	-45.6	-46.9	20.3	0.00e+00	0	41	0	850395136	63	4043
2026-01-22 09:05:33.11	6.38	54.04	-46.0	-47.5	20.0	0.00e+00	0	41	0	852492288	63	4297
2026-01-22 09:05:34.12	5.89	53.76	-46.3	-47.8	19.8	0.00e+00	0	40	0	854589440	63	4447
2026-01-22 09:05:35.12	5.42	53.48	-45.8	-47.2	20.3	0.00e+00	0	41	0	855638016	62	4398
2026-01-22 09:05:36.13	4.96	53.21	-45.9	-47.4	20.1	0.00e+00	0	40	0	857735168	62	4500
2026-01-22 09:05:37.14	4.50	52.93	-45.8	-47.2	20.2	0.00e+00	0	40	0	859832320	62	4421
2026-01-22 09:05:38.15	4.05	52.65	-46.1	-47.7	19.9	0.00e+00	0	41	0	861929472	62	4655
2026-01-22 09:05:39.15	3.62	52.37	-46.4	-48.0	19.7	0.00e+00	0	41	0	864026624	63	4548
2026-01-22 09:05:40.16	3.19	52.09	-46.3	-47.9	19.7	0.00e+00	0	40	0	865075200	63	4514
2026-01-22 09:05:41.17	2.76	51.81	-45.6	-47.0	20.6	0.00e+00	0	41	0	867172352	62	4302
2026-01-22 09:05:42.18	2.35	51.53	-45.6	-46.9	20.6	0.00e+00	0	40	0	869269504	62	4287
2026-01-22 09:05:43.19	1.94	51.26	-45.3	-46.5	20.9	0.00e+00	0	40	0	871366656	62	4082
2026-01-22 09:05:44.19	1.55	50.98	-45.0	-46.2	21.3	0.00e+00	0	40	0	873463808	61	4187
2026-01-22 09:05:45.20	1.15	50.70	-44.8	-45.9	21.5	0.00e+00	0	41	0	874512384	61	4044
2026-01-22 09:05:46.21	0.77	50.42	-45.0	-46.1	21.3	0.00e+00	0	41	0	876609536	61	4132
2026-01-22 09:05:47.22	0.39	50.14	-45.2	-46.4	21.1	0.00e+00	0	41	0	878706688	61	4260
2026-01-22 09:05:48.22	0.02	49.87	-46.3	-47.7	19.9	0.00e+00	0	41	0	880803840	63	4434
2026-01-22 09:05:49.23	359.66	49.59	-46.7	-48.4	19.2	0.00e+00	0	41	0	882900992	64	4497
2026-01-22 09:05:50.24	359.30	49.31	-46.8	-48.5	19.1	0.00e+00	0	40	0	883949568	64	4546
2026-01-22 09:05:51.25	358.95	49.04	-47.2	-49.0	18.6	0.00e+00	0	41	0	886046720	65	4596
2026-01-22 09:05:52.26	358.61	48.76	-48.0	-50.1	17.7	0.00e+00	0	40	0	888143872	66	4893
2026-01-22 09:05:53.26	358.27	48.49	-46.9	-48.5	19.0	0.00e+00	0	40	0	890241024	65	4308
2026-01-22 09:05:54.27	357.94	48.22	-45.4	-46.7	20.8	0.00e+00	0	40	0	892338176	62	4146
2026-01-22 09:05:55.28	357.61	47.94	-45.1	-46.4	21.0	0.00e+00	0	41	0	894435328	62	4011
2026-01-22 09:05:56.29	357.29	47.67	-45.4	-46.7	20.7	0.00e+00	0	41	0	895483904	62	4182
2026-01-22 09:05:57.29	356.98	47.40	-45.2	-46.4	20.9	0.00e+00	0	40	0	897581056	62	4038
2026-01-22 09:05:58.30	356.67	47.13	-44.8	-46.0	21.4	0.00e+00	0	40	0	899678208	61	4055
2026-01-22 09:05:59.31	356.36	46.86	-44.6	-45.7	21.6	0.00e+00	0	41	0	901775360	60	4184
2026-01-22 09:06:00.32	356.06	46.59	-45.7	-47.1	20.4	0.00e+00	0	40	0	902823936	61	4626
2026-01-22 09:06:01.33	355.77	46.32	-46.9	-48.6	18.9	0.00e+00	0	41	0	904921088	64	4647
2026-01-22 09:06:02.34	355.48	46.05	-47.6	-49.6	18.0	0.00e+00	0	41	0	907018240	66	4614
2026-01-22 09:06:03.35	355.20	45.78	-48.0	-50.1	17.5	0.00e+00	0	40	0	909115392	66	4884
2026-01-22 09:06:04.35	354.92	45.52	-47.4	-49.3	18.1	0.00e+00	0	40	0	911212544	66	4481
2026-01-22 09:06:05.36	354.64	45.26	-46.6	-48.2	19.2	0.00e+00	0	40	0	912261120	64	4396
2026-01-22 09:06:06.37	354.37	44.99	-46.1	-47.5	19.9	0.00e+00	0	41	0	914358272	63	4334
2026-01-22 09:06:07.38	354.11	44.73	-46.7	-48.3	19.2	0.00e+00	0	40	0	916455424	63	4756
2026-01-22 09:06:08.39	353.85	44.47	-47.0	-48.7	18.8	0.00e+00	0	40	0	918552576	64	4688
2026-01-22 09:06:09.39	353.59	44.21	-46.3	-47.8	19.7	0.00e+00	0	41	0	920649728	64	4212
2026-01-22 09:06:10.40	353.34	43.95	-46.5	-48.1	19.5	0.00e+00	0	41	0	922746880	63	4609
2026-01-22 09:06:11.41	353.09	43.69	-45.9	-47.3	20.2	0.00e+00	0	41	0	923795456	63	4204
2026-01-22 09:06:12.42	352.85	43.43	-45.5	-46.9	20.5	0.00e+00	0	41	0	925892608	62	4252
2026-01-22 09:06:13.42	352.61	43.18	-45.3	-46.6	20.7	0.00e+00	0	40	0	927989760	62	4123
2026-01-22 09:06:14.43	352.37	42.92	-45.1	-46.4	20.9	0.00e+00	0	40	0	930086912	61	4277
2026-01-22 09:06:15.44	352.14	42.67	-45.2	-46.5	20.9	0.00e+00	0	41	0	931135488	61	4304
2026-01-22 09:06:16.45	351.91	42.42	-45.6	-46.9	20.4	0.00e+00	0	41	0	933232640	61	4540
2026-01-22 09:06:17.46	351.68	42.16	-46.7	-48.4	19.0	0.00e+00	0	41	0	935329792	64	4513
2026-01-22 09:06:18.47	351.46	41.91	-48.6	-51.0	16.5	0.00e+00	0	41	0	937426944	67	5132
2026-01-22 09:06:19.48	351.24	41.67	-49.1	-51.8	15.7	0.00e+00	0	40	0	939524096	69	5031
2026-01-22 09:06:20.48	351.03	41.42	-49.1	-51.7	15.9	0.00e+00	0	41	0	941621248	69	4952
2026-01-22 09:06:21.49	350.82	41.17	-49.2	-51.8	15.7	0.00e+00	0	41	0	942669824	69	5038
2026-01-22 09:06:22.50	350.61	40.93	-48.6	-50.9	16.7	0.00e+00	0	40	0	944766976	69	4510
2026-01-22 09:06:23.51	350.40	40.68	-48.3	-50.4	17.2	0.00e+00	0	41	0	946864128	68	4542
2026-01-22 09:06:24.52	350.20	40.44	-47.5	-49.3	18.1	0.00e+00	0	40	0	948961280	66	4488
2026-01-22 09:06:25.52	350.00	40.20	-46.9	-48.5	19.0	0.00e+00	0	41	0	951058432	65	4318
2026-01-22 09:06:26.53	349.81	39.96	-46.5	-48.1	19.3	0.00e+00	0	41	0	952107008	64	4363
2026-01-22 09:06:27.54	349.61	39.72	-46.3	-47.8	19.8	0.00e+00	0	40	0	954204160	63	4456
2026-01-22 09:06:28.55	349.42	39.48	-46.0	-47.4	20.0	0.00e+00	0	41	0	956301312	63	4287
2026-01-22 09:06:29.56	349.24	39.25	-46.5	-48.1	19.3	0.00e+00	0	40	0	958398464	64	4355
2026-01-22 09:06:30.56	349.05	39.01	-46.0	-47.4	20.0	0.00e+00	0	41	0	959447040	64	4034
2026-01-22 09:06:31.57	348.87	38.78	-46.8	-48.4	19.3	0.00e+00	0	40	0	961544192	64	4504
2026-01-22 09:06:32.58	348.69	38.55	-47.3	-49.1	18.5	0.00e+00	0	41	0	963641344	65	4607
2026-01-22 09:06:33.59	348.51	38.31	-47.9	-50.0	17.6	0.00e+00	0	40	0	965738496	66	4815
2026-01-22 09:06:34.60	348.34	38.08	-48.1	-50.1	17.5	0.00e+00	0	40	0	967835648	67	4649
2026-01-22 09:06:35.60	348.17	37.86	-48.3	-50.4	17.1	0.00e+00	0	41	0	969932800	67	4791
2026-01-22 09:06:36.61	348.00	37.63	-48.1	-50.1	17.5	0.00e+00	0	41	0	970981376	67	4606
2026-01-22 09:06:37.62	347.83	37.40	-48.4	-50.5	17.2	0.00e+00	0	41	0	973078528	67	4855
2026-01-22 09:06:38.62	347.67	37.18	-48.3	-50.3	17.3	0.00e+00	0	41	0	975175680	67	4743
2026-01-22 09:06:39.63	347.51	36.95	-48.6	-50.8	17.0	0.00e+00	0	41	0	977272832	67	5030
2026-01-22 09:06:40.64	347.35	36.73	-48.6	-50.8	16.9	0.00e+00	0	41	0	979369984	68	4750
2026-01-22 09:06:41.65	347.19	36.51	-48.4	-50.5	17.3	0.00e+00	0	41	0	980418560	68	4581
2026-01-22 09:06:42.66	347.03	36.29	-47.9	-49.8	17.9	0.00e+00	0	41	0	982515712	67	4459
2026-01-22 09:06:43.66	346.88	36.07	-47.3	-49.0	18.6	0.00e+00	0	41	0	984612864	66	4299
2026-01-22 09:06:44.67	346.73	35.85	-47.1	-48.7	18.8	0.00e+00	0	41	0	986710016	66	4171
2026-01-22 09:06:45.68	346.58	35.64	-46.6	-48.1	19.4	0.00e+00	0	41	0	988807168	65	4113
2026-01-22 09:06:46.69	346.43	35.42	-46.6	-48.1	19.4	0.00e+00	0	41	0	989855744	64	4372
2026-01-22 09:06:47.70	346.29	35.21	-46.1	-47.5	20.0	0.00e+00	0	41	0	991952896	63	4307
2026-01-22 09:06:48.70	346.14	35.00	-45.9	-47.2	20.2	0.00e+00	0	41	0	994050048	63	4178
2026-01-22 09:06:49.71	346.00	34.78	-45.8	-47.1	20.3	0.00e+00	0	41	0	996147200	63	4135
2026-01-22 09:06:50.72	345.86	34.57	-46.5	-48.0	19.5	0.00e+00	0	41	0	998244352	63	4579
2026-01-22 09:06:51.73	345.72	34.36	-47.0	-48.7	18.8	0.00e+00	0	41	0	999292928	64	4700
2026-01-22 09:06:52.74	345.59	34.16	-48.3	-50.5	17.1	0.00e+00	0	41	0	1001390080	67	4832
2026-01-22 09:06:53.74	345.45	33.95	-49.1	-51.7	16.0	0.00e+00	0	41	0	1003487232	69	4940
2026-01-22 09:06:54.75	345.32	33.75	-49.1	-51.6	16.1	0.00e+00	0	41	0	1005584384	69	4891
2026-01-22 09:06:55.76	345.19	33.54	-48.3	-50.4	17.2	0.00e+00	0	41	0	1007681536	68	4522
2026-01-22 09:06:56.77	345.06	33.34	-47.9	-49.7	17.8	0.00e+00	0	41	0	1008730112	67	4438
2026-01-22 09:06:57.78	344.93	33.14	-47.5	-49.3	18.1	0.00e+00	0	41	0	1010827264	67	4233
2026-01-22 09:06:58.78	344.81	32.94	-47.4	-49.1	18.4	0.00e+00	0	41	0	1012924416	66	4379
2026-01-22 09:06:59.79	344.68	32.74	-47.6	-49.4	18.1	0.00e+00	0	41	0	1015021568	66	4518
2026-01-22 09:07:00.80	344.56	32.54	-47.3	-49.0	18.6	0.00e+00	0	41	0	1017118720	66	4308
2026-01-22 09:07:01.81	344.44	32.34	-47.1	-48.8	18.6	0.00e+00	0	41	0	1018167296	65	4453
2026-01-22 09:07:02.82	344.32	32.14	-46.8	-48.4	19.0	0.00e+00	0	41	0	1020264448	65	4259
2026-01-22 09:07:03.82	344.20	31.95	-46.7	-48.3	19.1	0.00e+00	0	40	0	1022361600	65	4234
2026-01-22 09:07:04.83	344.09	31.76	-47.2	-48.9	18.6	0.00e+00	0	41	0	1024458752	65	4515
2026-01-22 09:07:05.84	343.97	31.56	-46.9	-48.5	19.0	0.00e+00	0	41	0	1026555904	65	4301
2026-01-22 09:07:06.85	343.86	31.37	-46.9	-48.5	18.9	0.00e+00	0	41	0	1027604480	65	4337
2026-01-22 09:07:07.86	343.74	31.18	-46.8	-48.4	19.0	0.00e+00	0	41	0	1029701632	65	4275
2026-01-22 09:07:08.86	343.63	30.99	-46.5	-48.0	19.4	0.00e+00	0	41	0	1031798784	64	4324
2026-01-22 09:07:09.87	343.52	30.81	-46.6	-48.1	19.3	0.00e+00	0	41	0	1033895936	64	4346
2026-01-22 09:07:10.88	343.41	30.62	-46.2	-47.6	19.8	0.00e+00	0	41	0	1035993088	64	4130
2026-01-22 09:07:11.89	343.31	30.43	-46.4	-47.8	19.6	0.00e+00	0	41	0	1037041664	63	4490
2026-01-22 09:07:12.90	343.20	30.25	-46.9	-48.5	18.9	0.00e+00	0	41	0	1039138816	64	4576
2026-01-22 09:07:13.90	343.10	30.06	-47.6	-49.4	18.1	0.00e+00	0	41	0	1041235968	65	4780
2026-01-22 09:07:14.91	342.99	29.88	-48.4	-50.5	17.0	0.00e+00	0	41	0	1043333120	67	4846
2026-01-22 09:07:15.92	342.89	29.70	-48.7	-51.0	16.6	0.00e+00	0	41	0	1045430272	67	5131
2026-01-22 09:07:16.93	342.79	29.52	-48.7	-51.0	16.6	0.00e+00	0	41	0	1046478848	68	4828
2026-01-22 09:07:17.94	342.69	29.34	-48.3	-50.3	17.2	0.00e+00	0	41	0	1048576000	68	4492
2026-01-22 09:07:18.94	342.59	29.16	-48.2	-50.3	17.3	0.00e+00	0	41	0	1050673152	68	4449
2026-01-22 09:07:19.95	342.49	28.98	-47.8	-49.6	17.8	0.00e+00	0	41	0	1052770304	67	4376
2026-01-22 09:07:20.96	342.40	28.81	-47.8	-49.7	17.7	0.00e+00	0	41	0	1054867456	67	4428
2026-01-22 09:07:21.97	342.30	28.63	-47.8	-49.7	17.7	0.00e+00	0	41	0	1055916032	67	4432
2026-01-22 09:07:22.98	342.21	28.46	-47.8	-49.6	17.8	0.00e+00	0	41	0	1058013184	67	4388
2026-01-22 09:07:23.98	342.11	28.28	-47.8	-49.7	17.8	0.00e+00	0	41	0	1060110336	67	4396
2026-01-22 09:07:24.99	342.02	28.11	-48.3	-50.4	17.1	0.00e+00	0	41	0	1062207488	67	4762
2026-01-22 09:07:26.00	341.93	27.94	-48.0	-50.0	17.4	0.00e+00	0	41	0	1064304640	67	4570
2026-01-22 09:07:27.01	341.84	27.77	-48.1	-50.1	17.4	0.00e+00	0	41	0	1065353216	67	4617
2026-01-22 09:07:28.02	341.75	27.60	-47.7	-49.5	17.9	0.00e+00	0	40	0	1067450368	67	4320
2026-01-22 09:07:29.02	341.66	27.43	-47.6	-49.4	18.1	0.00e+00	0	41	0	1069547520	66	4513
2026-01-22 09:07:30.03	341.57	27.26	-47.4	-49.2	18.2	0.00e+00	0	41	0	1071644672	66	4426
2026-01-22 09:07:31.04	341.49	27.10	-47.1	-48.8	18.6	0.00e+00	0	41	0	1073741824	65	4455
2026-01-22 09:07:32.05	341.40	26.93	-46.9	-48.5	18.8	0.00e+00	0	41	0	1074790400	65	4333
2026-01-22 09:07:33.06	341.32	26.77	-46.6	-48.2	19.1	0.00e+00	0	41	0	1076887552	65	4183
2026-01-22 09:07:34.06	341.23	26.60	-46.8	-48.4	19.0	0.00e+00	0	41	0	1078984704	65	4257
2026-01-22 09:07:35.07	341.15	26.44	-46.6	-48.1	19.2	0.00e+00	0	41	0	1081081856	65	4135
2026-01-22 09:07:36.08	341.07	26.28	-47.0	-48.7	18.7	0.00e+00	0	41	0	1083179008	65	4394
2026-01-22 09:07:37.09	340.99	26.12	-47.0	-48.7	18.7	0.00e+00	0	41	0	1085276160	65	4428
2026-01-22 09:07:38.10	340.91	25.95	-46.9	-48.6	18.8	0.00e+00	0	41	0	1086324736	65	4353
2026-01-22 09:07:39.10	340.83	25.80	-47.1	-48.8	18.6	0.00e+00	0	41	0	1088421888	65	4484
2026-01-22 09:07:40.11	340.75	25.64	-47.3	-49.1	18.2	0.00e+00	0	41	0	1090519040	65	4650
2026-01-22 09:07:41.12	340.67	25.48	-47.6	-49.4	18.0	0.00e+00	0	41	0	1092616192	66	4526
2026-01-22 09:07:42.13	340.60	25.32	-47.6	-49.5	17.8	0.00e+00	0	41	0	1093664768	66	4560
2026-01-22 09:07:43.14	340.52	25.17	-47.8	-49.8	17.6	0.00e+00	0	41	0	1095761920	66	4727
2026-01-22 09:07:44.14	340.45	25.01	-47.5	-49.3	18.1	0.00e+00	0	41	0	1097859072	66	4469
2026-01-22 09:07:45.15	340.37	24.86	-47.3	-49.1	18.2	0.00e+00	0	41	0	1099956224	66	4365
2026-01-22 09:07:46.16	340.30	24.70	-47.1	-48.8	18.5	0.00e+00	0	41	0	1102053376	66	4196
2026-01-22 09:07:47.17	340.22	24.55	-46.8	-48.4	18.9	0.00e+00	0	41	0	1103101952	65	4246
2026-01-22 09:07:48.18	340.15	24.40	-46.7	-48.2	19.0	0.00e+00	0	41	0	1105199104	64	4436
2026-01-22 09:07:49.18	340.08	24.25	-46.3	-47.8	19.5	0.00e+00	0	41	0	1107296256	64	4212
2026-01-22 09:07:50.19	340.01	24.10	-46.1	-47.5	19.7	0.00e+00	0	41	0	1109393408	64	4085
2026-01-22 09:07:51.20	339.94	23.95	-46.3	-47.8	19.4	0.00e+00	0	41	0	1111490560	64	4240
2026-01-22 09:07:52.21	339.87	23.80	-46.3	-47.7	19.5	0.00e+00	0	41	0	1113587712	64	4188
2026-01-22 09:07:53.22	339.80	23.65	-46.7	-48.3	19.0	0.00e+00	0	41	0	1114636288	64	4448
2026-01-22 09:07:54.22	339.73	23.51	-47.0	-48.7	18.7	0.00e+00	0	41	0	1116733440	64	4688
2026-01-22 09:07:55.23	339.67	23.36	-47.3	-49.0	18.3	0.00e+00	0	41	0	1118830592	65	4593
2026-01-22 09:07:56.24	339.60	23.22	-47.0	-48.7	18.6	0.00e+00	0	41	0	1120927744	65	4430
2026-01-22 09:07:57.25	339.53	23.07	-47.2	-49.0	18.3	0.00e+00	0	41	0	1121976320	65	4568
2026-01-22 09:07:58.26	339.47	22.93	-47.6	-49.6	17.7	0.00e+00	0	41	0	1124073472	65	4883
2026-01-22 09:07:59.27	339.40	22.78	-47.3	-49.1	18.2	0.00e+00	0	41	0	1126170624	65	4608
2026-01-22 09:08:00.28	339.34	22.64	-47.2	-49.0	18.2	0.00e+00	0	41	0	1128267776	65	4589
2026-01-22 09:08:01.28	339.28	22.50	-46.8	-48.5	18.7	0.00e+00	0	40	0	1130364928	65	4313
2026-01-22 09:08:02.29	339.21	22.36	-46.9	-48.6	18.6	0.00e+00	0	41	0	1132462080	65	4370
2026-01-22 09:08:03.30	339.15	22.22	-46.7	-48.4	18.8	0.00e+00	0	41	0	1133510656	65	4249
2026-01-22 09:08:04.31	339.09	22.08	-46.6	-48.3	18.9	0.00e+00	0	41	0	1135607808	65	4201
2026-01-22 09:08:05.32	339.03	21.94	-46.6	-48.2	18.9	0.00e+00	0	41	0	1137704960	64	4439
2026-01-22 09:08:06.33	338.97	21.80	-46.5	-48.1	19.1	0.00e+00	0	41	0	1139802112	64	4360
2026-01-22 09:08:07.34	338.91	21.67	-46.6	-48.3	18.9	0.00e+00	0	40	0	1141899264	64	4469
2026-01-22 09:08:08.34	338.85	21.53	-46.8	-48.5	18.7	0.00e+00	0	41	0	1142947840	64	4558
2026-01-22 09:08:09.35	338.79	21.40	-47.0	-48.8	18.4	0.00e+00	0	40	0	1145044992	64	4750
2026-01-22 09:08:10.36	338.73	21.26	-46.9	-48.7	18.5	0.00e+00	0	41	0	1147142144	64	4668
2026-01-22 09:08:11.37	338.67	21.13	-47.1	-48.9	18.2	0.00e+00	0	41	0	1149239296	64	4814
2026-01-22 09:08:12.38	338.61	20.99	-47.3	-49.2	18.0	0.00e+00	0	41	0	1151336448	65	4679
2026-01-22 09:08:13.38	338.56	20.86	-47.3	-49.2	17.9	0.00e+00	0	41	0	1152385024	65	4700
2026-01-22 09:08:14.39	338.50	20.73	-47.2	-49.1	18.1	0.00e+00	0	41	0	1154482176	65	4632
2026-01-22 09:08:15.40	338.45	20.60	-47.0	-48.8	18.3	0.00e+00	0	41	0	1156579328	65	4484
2026-01-22 09:08:16.41	338.39	20.46	-47.1	-48.9	18.3	0.00e+00	0	41	0	1158676480	65	4536
2026-01-22 09:08:17.41	338.34	20.33	-46.7	-48.4	18.7	0.00e+00	0	41	0	1160773632	65	4243
2026-01-22 09:08:18.42	338.28	20.20	-46.7	-48.4	18.8	0.00e+00	0	41	0	1161822208	65	4255
2026-01-22 09:08:19.43	338.23	20.08	-46.6	-48.2	18.9	0.00e+00	0	41	0	1163919360	64	4436
2026-01-22 09:08:20.44	338.18	19.95	-46.5	-48.1	19.0	0.00e+00	0	41	0	1166016512	64	4358
2026-01-22 09:08:21.45	338.12	19.82	-46.2	-47.8	19.3	0.00e+00	0	41	0	1168113664	64	4218
2026-01-22 09:08:22.46	338.07	19.69	-46.1	-47.7	19.3	0.00e+00	0	41	0	1170210816	64	4151
2026-01-22 09:08:23.46	338.02	19.57	-46.0	-47.5	19.5	0.00e+00	0	41	0	1171259392	64	4094
2026-01-22 09:08:24.47	337.97	19.44	-46.0	-47.4	19.6	0.00e+00	0	41	0	1173356544	63	4288
2026-01-22 09:08:25.48	337.92	19.31	-45.9	-47.3	19.8	0.00e+00	0	41	0	1175453696	63	4216
2026-01-22 09:08:26.49	337.87	19.19	-46.0	-47.5	19.6	0.00e+00	0	41	0	1177550848	63	4326
2026-01-22 09:08:27.49	337.82	19.07	-45.9	-47.4	19.7	0.00e+00	0	41	0	1179648000	63	4248
2026-01-22 09:08:28.51	337.77	18.94	-45.8	-47.3	19.8	0.00e+00	0	41	0	1180696576	63	4209
2026-01-22 09:08:29.51	337.72	18.82	-46.0	-47.5	19.7	0.00e+00	0	41	0	1182793728	63	4301
2026-01-22 09:08:30.52	337.67	18.70	-45.9	-47.4	19.7	0.00e+00	0	41	0	1184890880	63	4270
2026-01-22 09:08:31.53	337.62	18.57	-46.0	-47.4	19.7	0.00e+00	0	40	0	1186988032	63	4285
2026-01-22 09:08:32.54	337.57	18.45	-46.1	-47.5	19.6	0.00e+00	0	41	0	1189085184	63	4335
2026-01-22 09:08:33.54	337.53	18.33	-46.2	-47.7	19.5	0.00e+00	0	40	0	1190133760	63	4399
2026-01-22 09:08:34.55	337.48	18.21	-45.9	-47.3	19.8	0.00e+00	0	41	0	1192230912	63	4222
2026-01-22 09:08:35.56	337.43	18.09	-45.8	-47.2	19.9	0.00e+00	0	41	0	1194328064	63	4169
2026-01-22 09:08:36.57	337.38	17.97	-45.8	-47.2	19.9	0.00e+00	0	41	0	1196425216	63	4185
2026-01-22 09:08:37.58	337.34	17.86	-45.7	-47.1	20.0	0.00e+00	0	41	0	1198522368	63	4140
2026-01-22 09:08:38.58	337.29	17.74	-46.0	-47.5	19.6	3.00e-06	0	41	0	1200619520	63	4318
2026-01-22 09:08:39.59	337.25	17.62	-45.9	-47.3	19.8	0.00e+00	0	41	0	1201668096	63	4230
2026-01-22 09:08:40.60	337.20	17.50	-46.1	-47.6	19.5	0.00e+00	0	41	0	1203765248	63	4380
2026-01-22 09:08:41.61	337.16	17.39	-46.2	-47.8	19.3	0.00e+00	0	41	0	1205862400	63	4452
2026-01-22 09:08:42.61	337.12	17.27	-46.2	-47.7	19.4	0.00e+00	0	41	0	1207959552	63	4424
2026-01-22 09:08:43.62	337.07	17.16	-46.4	-48.0	19.1	0.00e+00	0	41	0	1209008128	63	4585
2026-01-22 09:08:44.63	337.03	17.04	-46.8	-48.5	18.6	0.00e+00	0	41	0	1211105280	64	4562
2026-01-22 09:08:45.64	336.99	16.93	-46.5	-48.2	18.9	0.00e+00	0	41	0	1213202432	64	4416
2026-01-22 09:08:46.65	336.94	16.81	-46.9	-48.7	18.4	0.00e+00	0	41	0	1215299584	64	4655
2026-01-22 09:08:47.66	336.90	16.70	-46.9	-48.6	18.5	0.00e+00	0	41	0	1217396736	64	4648
2026-01-22 09:08:48.66	336.86	16.59	-47.0	-48.8	18.3	0.00e+00	0	41	0	1218445312	64	4726
2026-01-22 09:08:49.67	336.82	16.48	-46.7	-48.4	18.6	0.00e+00	0	41	0	1220542464	64	4533
2026-01-22 09:08:50.68	336.78	16.37	-46.9	-48.6	18.4	0.00e+00	0	41	0	1222639616	64	4646
2026-01-22 09:08:51.69	336.74	16.25	-46.8	-48.6	18.4	0.00e+00	0	40	0	1224736768	64	4625
2026-01-22 09:08:52.70	336.69	16.14	-46.6	-48.2	18.8	0.00e+00	0	41	0	1226833920	64	4437
2026-01-22 09:08:53.71	336.65	16.03	-46.9	-48.6	18.4	0.00e+00	0	41	0	1228931072	64	4644
2026-01-22 09:08:54.71	336.62	15.92	-46.6	-48.3	18.7	1.50e-06	0	41	0	1229979648	64	4456
2026-01-22 09:08:55.72	336.58	15.81	-46.4	-48.1	18.9	0.00e+00	0	41	0	1232076800	64	4344
2026-01-22 09:08:56.73	336.54	15.71	-46.5	-48.1	18.8	0.00e+00	0	41	0	1234173952	64	4383
2026-01-22 09:08:57.73	336.50	15.60	-46.4	-48.1	18.9	0.00e+00	0	41	0	1236271104	64	4358
2026-01-22 09:08:58.74	336.46	15.49	-46.4	-48.1	18.9	0.00e+00	0	41	0	1237319680	64	4341
2026-01-22 09:08:59.75	336.42	15.38	-46.3	-47.9	19.0	0.00e+00	0	41	0	1239416832	64	4278
2026-01-22 09:09:00.76	336.38	15.28	-46.5	-48.2	18.8	0.00e+00	0	41	0	1241513984	64	4404
