passes_logs/2026/01/22/R3.2S_Murmansk/R3.2S_Murmansk__20260122_105850_NOAA_20_JPSS-1_rec.log

#Pass ID: 20260122_105850_NOAA 20 (JPSS-1)
#Satellite: NOAA 20 (JPSS-1)
#Configuration: NOAA 20
#almurnet v.1.7.20251203
#Start time: 2026-01-22 10:58:51

#Version: 2.2.20231116
#Station: R3.2S_Murmansk
#Location: 33.079688 lon 68.888172 lat
#TLE: 1 43013U 17073A   26021.46221703  .00000173  00000+0  10299-3 0  9999
#TLE: 2 43013  98.7644 322.3335 0001238  29.7597 330.3649 14.19538314423652

#Time	Az	El	Level	Level2	SNR	BER	BlckErr	Temp	State	Recorded	gain1	gain2
2026-01-22 10:58:51.30	187.64	2.03	-54.3	-69.4	3.8	1.49e+00	0	39	0	0	79	21296
2026-01-22 10:58:52.31	187.69	2.09	-54.6	-69.6	3.8	1.49e+00	0	39	104	0	79	21942
2026-01-22 10:58:53.32	187.73	2.16	-54.6	-69.6	3.8	1.49e+00	0	39	104	0	79	21863
2026-01-22 10:58:54.33	187.77	2.22	-54.5	-69.6	3.8	1.49e+00	0	39	104	0	79	21762
2026-01-22 10:58:55.34	187.82	2.28	-54.6	-69.6	3.8	1.49e+00	0	39	104	0	79	21826
2026-01-22 10:58:56.35	187.86	2.34	-54.6	-69.6	3.8	1.49e+00	0	39	104	0	79	21850
2026-01-22 10:58:57.36	187.91	2.40	-54.5	-69.5	3.8	1.49e+00	0	39	104	0	79	21744
2026-01-22 10:58:58.36	187.96	2.47	-54.5	-69.5	3.8	1.49e+00	0	39	104	0	79	21667
2026-01-22 10:58:59.37	188.00	2.53	-54.5	-69.5	3.8	1.49e+00	0	39	104	0	79	21655
2026-01-22 10:59:00.38	188.05	2.59	-54.4	-69.5	3.8	1.49e+00	0	39	104	0	79	21558
2026-01-22 10:59:01.39	188.09	2.65	-54.4	-69.4	3.8	1.49e+00	0	40	104	0	79	21475
2026-01-22 10:59:02.40	188.14	2.72	-54.4	-69.4	3.8	1.49e+00	0	40	104	0	79	21439
2026-01-22 10:59:03.41	188.19	2.78	-54.3	-69.4	3.8	1.49e+00	0	40	104	0	79	21281
2026-01-22 10:59:04.41	188.23	2.84	-54.3	-69.3	3.8	1.49e+00	0	40	104	0	79	21119
2026-01-22 10:59:05.42	188.28	2.90	-54.2	-69.2	3.8	1.49e+00	0	40	104	0	79	20990
2026-01-22 10:59:06.43	188.32	2.97	-54.1	-69.2	3.8	1.49e+00	0	40	104	0	79	20822
2026-01-22 10:59:07.44	188.37	3.03	-54.1	-69.1	3.8	1.49e+00	0	40	104	0	79	20642
2026-01-22 10:59:08.44	188.42	3.09	-54.0	-69.0	3.8	1.49e+00	0	40	104	0	79	20367
2026-01-22 10:59:09.45	188.47	3.16	-53.8	-68.8	3.8	1.49e+00	0	40	104	0	79	19993
2026-01-22 10:59:10.46	188.51	3.22	-53.7	-68.7	3.8	1.49e+00	0	40	104	0	79	19679
2026-01-22 10:59:11.47	188.56	3.29	-53.5	-68.6	3.8	1.49e+00	0	40	104	0	79	19406
2026-01-22 10:59:12.47	188.61	3.35	-53.2	-68.3	3.8	1.49e+00	0	40	104	0	78	19881
2026-01-22 10:59:13.48	188.66	3.41	-52.8	-67.8	3.8	1.49e+00	0	40	104	0	77	19915
2026-01-22 10:59:14.49	188.71	3.48	-52.8	-67.7	3.8	1.49e+00	0	40	104	0	77	19780
2026-01-22 10:59:15.50	188.75	3.54	-52.8	-67.7	3.8	1.49e+00	0	40	104	0	77	19815
2026-01-22 10:59:16.51	188.80	3.61	-52.8	-67.7	3.8	1.49e+00	0	40	104	0	77	19834
2026-01-22 10:59:17.52	188.85	3.67	-52.8	-67.8	3.8	1.49e+00	0	40	104	0	77	19917
2026-01-22 10:59:18.52	188.90	3.74	-52.8	-67.7	3.8	1.49e+00	0	40	104	0	77	19813
2026-01-22 10:59:19.53	188.95	3.80	-52.8	-67.6	3.8	1.49e+00	0	40	104	0	77	19585
2026-01-22 10:59:20.54	189.00	3.87	-52.8	-67.5	3.8	1.49e+00	0	40	104	0	77	19189
2026-01-22 10:59:21.55	189.05	3.93	-52.7	-67.3	3.8	1.49e+00	0	40	104	0	77	18931
2026-01-22 10:59:22.56	189.10	4.00	-52.7	-67.1	3.8	1.49e+00	0	40	104	0	77	18405
2026-01-22 10:59:23.57	189.15	4.06	-52.7	-67.2	3.8	1.49e+00	0	40	104	0	77	18630
2026-01-22 10:59:24.57	189.20	4.13	-52.7	-67.3	3.8	1.49e+00	0	40	104	0	77	18752
2026-01-22 10:59:25.58	189.25	4.20	-52.7	-67.4	3.8	1.49e+00	0	40	104	0	77	18976
2026-01-22 10:59:26.59	189.30	4.26	-52.7	-67.2	3.8	1.49e+00	0	40	104	0	77	18583
2026-01-22 10:59:27.60	189.35	4.33	-52.7	-66.0	3.8	1.49e+00	0	40	104	0	77	16210
2026-01-22 10:59:28.61	189.40	4.39	-52.5	-63.8	4.3	1.42e+00	0	40	104	0	77	12662
2026-01-22 10:59:29.62	189.46	4.46	-52.3	-61.6	5.3	7.94e-01	0	40	0	1048576	76	10408
2026-01-22 10:59:30.63	189.51	4.53	-51.8	-58.8	7.6	2.25e-01	0	40	0	3145728	75	7979
2026-01-22 10:59:31.64	189.56	4.60	-51.3	-56.8	9.6	7.03e-02	0	40	0	5242880	74	6675
2026-01-22 10:59:32.65	189.61	4.66	-50.9	-55.6	10.9	4.16e-03	0	40	0	7340032	73	6166
2026-01-22 10:59:33.66	189.66	4.73	-50.3	-54.1	12.5	5.77e-04	0	40	0	8388608	72	5524
2026-01-22 10:59:34.67	189.72	4.80	-49.7	-53.0	13.7	3.73e-05	0	40	0	10485760	71	5103
2026-01-22 10:59:35.68	189.77	4.86	-49.0	-51.8	15.0	7.00e-07	0	40	0	12582912	70	4721
2026-01-22 10:59:36.68	189.82	4.93	-48.8	-51.4	15.3	0.00e+00	0	40	0	14680064	69	4814
2026-01-22 10:59:37.69	189.88	5.00	-48.5	-50.9	15.9	0.00e+00	0	40	0	16777216	68	4798
2026-01-22 10:59:38.70	189.93	5.07	-49.6	-52.9	14.0	0.00e+00	0	40	0	17825792	69	5670
2026-01-22 10:59:39.71	189.98	5.14	-50.9	-55.6	11.2	1.90e-05	0	40	0	19922944	72	6520
2026-01-22 10:59:40.72	190.04	5.20	-48.7	-51.3	15.6	1.31e-03	0	40	0	22020096	68	4997
2026-01-22 10:59:41.72	190.09	5.27	-50.6	-55.1	11.6	1.85e-04	0	40	0	24117248	71	6527
2026-01-22 10:59:42.73	190.14	5.34	-49.6	-52.9	14.1	1.91e-04	0	40	0	26214400	69	5657
2026-01-22 10:59:43.74	190.20	5.41	-49.2	-52.0	14.7	8.80e-04	0	40	0	27262976	70	4865
2026-01-22 10:59:44.75	190.25	5.48	-48.6	-51.1	15.6	0.00e+00	0	40	0	29360128	69	4651
2026-01-22 10:59:45.76	190.31	5.55	-48.8	-51.5	15.3	0.00e+00	0	40	0	31457280	69	4845
2026-01-22 10:59:46.76	190.36	5.61	-48.5	-50.9	15.8	0.00e+00	0	40	0	33554432	69	4544
2026-01-22 10:59:47.77	190.42	5.68	-48.5	-51.0	15.8	0.00e+00	0	40	0	35651584	69	4574
2026-01-22 10:59:48.78	190.48	5.75	-48.6	-51.0	15.8	0.00e+00	0	40	0	36700160	69	4579
2026-01-22 10:59:49.79	190.53	5.82	-48.6	-51.0	15.8	0.00e+00	0	40	0	38797312	68	4862
2026-01-22 10:59:50.80	190.59	5.89	-48.6	-51.1	15.7	0.00e+00	0	40	0	40894464	68	4896
2026-01-22 10:59:51.80	190.64	5.96	-48.5	-50.9	15.9	0.00e+00	0	40	0	42991616	68	4789
2026-01-22 10:59:52.81	190.70	6.03	-48.1	-50.4	16.4	0.00e+00	0	40	0	45088768	68	4515
2026-01-22 10:59:53.82	190.76	6.10	-48.2	-50.4	16.5	0.00e+00	0	40	0	46137344	68	4518
2026-01-22 10:59:54.83	190.82	6.17	-48.5	-51.0	15.9	0.00e+00	0	40	0	48234496	68	4817
2026-01-22 10:59:55.84	190.87	6.24	-48.2	-50.5	16.4	0.00e+00	0	40	0	50331648	68	4561
2026-01-22 10:59:56.84	190.93	6.31	-48.1	-50.3	16.6	0.00e+00	0	40	0	52428800	68	4454
2026-01-22 10:59:57.85	190.99	6.39	-48.2	-50.4	16.5	0.00e+00	0	40	0	54525952	68	4528
2026-01-22 10:59:58.86	191.05	6.46	-48.2	-50.4	16.5	0.00e+00	0	40	0	55574528	68	4529
2026-01-22 10:59:59.87	191.11	6.53	-48.1	-50.3	16.6	0.00e+00	0	40	0	57671680	68	4491
2026-01-22 11:00:00.87	191.17	6.60	-48.1	-50.2	16.7	0.00e+00	0	40	0	59768832	68	4436
2026-01-22 11:00:01.88	191.22	6.67	-47.9	-49.9	16.9	0.00e+00	0	40	0	61865984	67	4537
2026-01-22 11:00:02.89	191.28	6.74	-47.9	-50.0	16.9	0.00e+00	0	40	0	63963136	67	4552
2026-01-22 11:00:03.90	191.34	6.82	-47.9	-50.0	16.9	0.00e+00	0	41	0	65011712	67	4546
2026-01-22 11:00:04.91	191.40	6.89	-47.8	-49.9	17.0	0.00e+00	0	40	0	67108864	67	4499
2026-01-22 11:00:05.91	191.46	6.96	-47.8	-49.8	17.1	0.00e+00	0	40	0	69206016	67	4470
2026-01-22 11:00:06.92	191.52	7.03	-47.8	-49.8	17.1	0.00e+00	0	40	0	71303168	67	4488
2026-01-22 11:00:07.93	191.59	7.10	-47.9	-49.9	17.0	0.00e+00	0	41	0	73400320	67	4541
2026-01-22 11:00:08.94	191.65	7.18	-47.6	-49.6	17.4	0.00e+00	0	41	0	74448896	67	4348
2026-01-22 11:00:09.95	191.71	7.25	-47.8	-49.8	17.2	0.00e+00	0	41	0	76546048	67	4469
2026-01-22 11:00:10.95	191.77	7.32	-47.9	-50.0	17.0	0.00e+00	0	40	0	78643200	67	4547
2026-01-22 11:00:11.96	191.83	7.40	-47.7	-49.7	17.3	0.00e+00	0	41	0	80740352	67	4393
2026-01-22 11:00:12.97	191.89	7.47	-47.6	-49.6	17.4	0.00e+00	0	41	0	82837504	67	4351
2026-01-22 11:00:13.98	191.96	7.54	-47.8	-49.8	17.2	0.00e+00	0	41	0	83886080	67	4449
2026-01-22 11:00:14.98	192.02	7.62	-47.7	-49.7	17.3	0.00e+00	0	40	0	85983232	67	4430
2026-01-22 11:00:15.99	192.08	7.69	-47.5	-49.4	17.6	0.00e+00	0	40	0	88080384	67	4248
2026-01-22 11:00:17.00	192.15	7.77	-47.5	-49.3	17.7	0.00e+00	0	41	0	90177536	66	4480
2026-01-22 11:00:18.01	192.21	7.84	-47.5	-49.4	17.6	0.00e+00	0	40	0	92274688	66	4496
2026-01-22 11:00:19.02	192.27	7.92	-47.5	-49.4	17.6	0.00e+00	0	41	0	94371840	66	4535
2026-01-22 11:00:20.02	192.34	7.99	-47.4	-49.2	17.8	0.00e+00	0	41	0	95420416	66	4431
2026-01-22 11:00:21.03	192.40	8.07	-47.4	-49.2	17.8	0.00e+00	0	41	0	97517568	66	4427
2026-01-22 11:00:22.04	192.47	8.14	-47.3	-49.2	17.9	0.00e+00	0	41	0	99614720	66	4393
2026-01-22 11:00:23.05	192.53	8.22	-47.4	-49.2	17.9	0.00e+00	0	41	0	101711872	66	4426
2026-01-22 11:00:24.06	192.60	8.29	-47.4	-49.2	17.9	0.00e+00	0	41	0	102760448	66	4418
2026-01-22 11:00:25.07	192.67	8.37	-47.4	-49.2	17.8	0.00e+00	0	41	0	104857600	66	4436
2026-01-22 11:00:26.08	192.73	8.45	-47.2	-49.0	18.1	0.00e+00	0	40	0	106954752	66	4307
2026-01-22 11:00:27.09	192.80	8.52	-47.3	-49.0	18.1	0.00e+00	0	40	0	109051904	66	4326
2026-01-22 11:00:28.09	192.87	8.60	-47.0	-48.7	18.5	0.00e+00	0	40	0	111149056	66	4162
2026-01-22 11:00:29.10	192.93	8.67	-47.6	-49.5	17.7	0.00e+00	0	41	0	113246208	66	4553
2026-01-22 11:00:30.11	193.00	8.75	-47.5	-49.4	17.8	0.00e+00	0	40	0	114294784	66	4514
2026-01-22 11:00:31.12	193.07	8.83	-47.5	-49.3	17.8	0.00e+00	0	41	0	116391936	66	4493
2026-01-22 11:00:32.12	193.14	8.91	-47.4	-49.2	18.0	0.00e+00	0	41	0	118489088	66	4407
2026-01-22 11:00:33.13	193.21	8.98	-47.4	-49.2	17.9	0.00e+00	0	41	0	120586240	66	4422
2026-01-22 11:00:34.14	193.28	9.06	-47.1	-48.9	18.3	0.00e+00	0	41	0	122683392	66	4253
2026-01-22 11:00:35.15	193.34	9.14	-47.1	-48.9	18.3	0.00e+00	0	41	0	123731968	66	4250
2026-01-22 11:00:36.16	193.41	9.22	-47.3	-49.1	18.1	0.00e+00	0	40	0	125829120	66	4374
2026-01-22 11:00:37.16	193.48	9.29	-47.3	-49.0	18.2	0.00e+00	0	41	0	127926272	66	4339
2026-01-22 11:00:38.17	193.55	9.37	-47.3	-49.0	18.1	0.00e+00	0	41	0	130023424	66	4340
2026-01-22 11:00:39.18	193.63	9.45	-47.2	-48.9	18.3	0.00e+00	0	41	0	131072000	66	4265
2026-01-22 11:00:40.19	193.70	9.53	-47.1	-48.9	18.3	0.00e+00	0	41	0	133169152	66	4243
2026-01-22 11:00:41.20	193.77	9.61	-47.2	-48.9	18.3	0.00e+00	0	41	0	135266304	66	4261
2026-01-22 11:00:42.20	193.84	9.69	-47.1	-48.9	18.3	0.00e+00	0	41	0	137363456	66	4250
2026-01-22 11:00:43.21	193.91	9.77	-47.0	-48.7	18.5	0.00e+00	0	41	0	139460608	66	4178
2026-01-22 11:00:44.22	193.99	9.85	-47.1	-48.8	18.4	0.00e+00	0	41	0	141557760	66	4240
2026-01-22 11:00:45.22	194.06	9.93	-47.0	-48.7	18.5	0.00e+00	0	41	0	142606336	66	4186
2026-01-22 11:00:46.23	194.13	10.01	-47.1	-48.8	18.4	0.00e+00	0	41	0	144703488	66	4232
2026-01-22 11:00:47.24	194.20	10.09	-47.3	-49.0	18.2	0.00e+00	0	41	0	146800640	66	4316
2026-01-22 11:00:48.25	194.28	10.17	-47.1	-48.8	18.4	0.00e+00	0	40	0	148897792	66	4205
2026-01-22 11:00:49.26	194.35	10.25	-46.9	-48.5	18.7	0.00e+00	0	41	0	150994944	65	4340
2026-01-22 11:00:50.26	194.43	10.33	-47.0	-48.6	18.5	0.00e+00	0	41	0	152043520	65	4388
2026-01-22 11:00:51.27	194.50	10.41	-47.0	-48.7	18.5	0.00e+00	0	41	0	154140672	65	4401
2026-01-22 11:00:52.28	194.58	10.50	-47.0	-48.7	18.5	0.00e+00	0	41	0	156237824	65	4398
2026-01-22 11:00:53.29	194.66	10.58	-47.1	-48.8	18.4	0.00e+00	0	40	0	158334976	65	4455
2026-01-22 11:00:54.30	194.73	10.66	-46.8	-48.4	18.8	0.00e+00	0	41	0	159383552	65	4273
2026-01-22 11:00:55.30	194.81	10.74	-46.9	-48.5	18.7	0.00e+00	0	41	0	161480704	65	4310
2026-01-22 11:00:56.31	194.89	10.83	-46.8	-48.4	18.8	0.00e+00	0	41	0	163577856	65	4271
2026-01-22 11:00:57.32	194.96	10.91	-46.9	-48.5	18.7	0.00e+00	0	41	0	165675008	65	4328
2026-01-22 11:00:58.33	195.04	10.99	-46.6	-48.2	19.0	0.00e+00	0	41	0	167772160	65	4179
2026-01-22 11:00:59.34	195.12	11.07	-46.8	-48.4	18.9	0.00e+00	0	41	0	169869312	65	4254
2026-01-22 11:01:00.34	195.20	11.16	-46.8	-48.4	18.9	0.00e+00	0	41	0	170917888	65	4249
2026-01-22 11:01:01.35	195.28	11.24	-46.8	-48.4	18.9	0.00e+00	0	41	0	173015040	65	4257
2026-01-22 11:01:02.36	195.36	11.33	-46.6	-48.2	19.0	0.00e+00	0	41	0	175112192	65	4180
2026-01-22 11:01:03.37	195.44	11.41	-46.7	-48.3	19.0	0.00e+00	0	41	0	177209344	65	4197
2026-01-22 11:01:04.38	195.52	11.49	-46.7	-48.2	19.0	0.00e+00	0	41	0	179306496	65	4181
2026-01-22 11:01:05.38	195.60	11.58	-46.7	-48.3	19.0	0.00e+00	0	41	0	180355072	65	4197
2026-01-22 11:01:06.39	195.68	11.66	-46.7	-48.3	19.0	0.00e+00	0	41	0	182452224	65	4203
2026-01-22 11:01:07.40	195.77	11.75	-46.7	-48.3	19.0	0.00e+00	0	41	0	184549376	65	4207
2026-01-22 11:01:08.41	195.85	11.83	-46.6	-48.1	19.2	0.00e+00	0	41	0	186646528	65	4123
2026-01-22 11:01:09.42	195.93	11.92	-46.6	-48.2	19.1	0.00e+00	0	41	0	188743680	65	4162
2026-01-22 11:01:10.43	196.01	12.01	-46.6	-48.2	19.1	0.00e+00	0	41	0	189792256	65	4150
2026-01-22 11:01:11.44	196.10	12.09	-46.5	-48.0	19.3	0.00e+00	0	41	0	191889408	65	4081
2026-01-22 11:01:12.44	196.18	12.18	-46.2	-47.7	19.6	0.00e+00	0	41	0	193986560	64	4167
2026-01-22 11:01:13.45	196.27	12.27	-46.2	-47.7	19.6	0.00e+00	0	41	0	196083712	64	4157
2026-01-22 11:01:14.46	196.35	12.35	-46.2	-47.6	19.7	0.00e+00	0	41	0	198180864	64	4132
2026-01-22 11:01:15.47	196.44	12.44	-46.2	-47.7	19.6	0.00e+00	0	41	0	199229440	64	4154
2026-01-22 11:01:16.48	196.53	12.53	-46.2	-47.6	19.7	0.00e+00	0	41	0	201326592	64	4133
2026-01-22 11:01:17.48	196.61	12.62	-46.1	-47.5	19.8	0.00e+00	0	41	0	203423744	64	4064
2026-01-22 11:01:18.49	196.70	12.70	-46.0	-47.4	19.8	0.00e+00	0	41	0	205520896	64	4050
2026-01-22 11:01:19.50	196.79	12.79	-46.1	-47.4	19.9	0.00e+00	0	41	0	207618048	63	4290
2026-01-22 11:01:20.51	196.88	12.88	-46.1	-47.5	19.8	0.00e+00	0	41	0	209715200	63	4334
2026-01-22 11:01:21.52	196.96	12.97	-46.1	-47.5	19.9	0.00e+00	0	41	0	210763776	63	4307
2026-01-22 11:01:22.53	197.05	13.06	-45.9	-47.3	20.2	0.00e+00	0	41	0	212860928	63	4194
2026-01-22 11:01:23.54	197.14	13.15	-46.1	-47.5	19.9	0.00e+00	0	41	0	214958080	63	4302
2026-01-22 11:01:24.54	197.23	13.24	-46.2	-47.6	19.8	0.00e+00	0	41	0	217055232	63	4351
2026-01-22 11:01:25.55	197.32	13.33	-46.2	-47.6	19.9	0.00e+00	0	41	0	218103808	63	4349
2026-01-22 11:01:26.56	197.42	13.42	-46.4	-47.8	19.6	0.00e+00	0	41	0	220200960	63	4486
2026-01-22 11:01:27.57	197.51	13.51	-46.2	-47.6	19.8	0.00e+00	0	41	0	222298112	63	4382
2026-01-22 11:01:28.58	197.60	13.60	-46.1	-47.5	19.9	0.00e+00	0	41	0	224395264	63	4311
2026-01-22 11:01:29.58	197.69	13.69	-46.0	-47.4	20.0	0.00e+00	0	41	0	226492416	63	4264
2026-01-22 11:01:30.59	197.79	13.78	-46.1	-47.5	19.9	0.00e+00	0	41	0	227540992	63	4332
2026-01-22 11:01:31.60	197.88	13.87	-46.1	-47.5	20.0	0.00e+00	0	41	0	229638144	63	4302
2026-01-22 11:01:32.61	197.98	13.96	-46.1	-47.5	20.0	0.00e+00	0	41	0	231735296	63	4297
2026-01-22 11:01:33.62	198.07	14.06	-46.2	-47.6	19.9	0.00e+00	0	41	0	233832448	63	4362
2026-01-22 11:01:34.62	198.17	14.15	-46.2	-47.6	19.9	0.00e+00	0	41	0	235929600	63	4341
2026-01-22 11:01:35.63	198.26	14.24	-46.1	-47.5	20.0	0.00e+00	0	41	0	238026752	63	4320
2026-01-22 11:01:36.64	198.36	14.33	-46.2	-47.7	19.8	0.00e+00	0	41	0	239075328	63	4392
2026-01-22 11:01:37.65	198.46	14.43	-46.1	-47.5	20.0	0.00e+00	0	41	0	241172480	63	4333
2026-01-22 11:01:38.66	198.56	14.52	-46.1	-47.5	19.9	0.00e+00	0	41	0	243269632	63	4331
2026-01-22 11:01:39.66	198.65	14.61	-46.1	-47.5	20.0	0.00e+00	0	41	0	245366784	63	4298
2026-01-22 11:01:40.67	198.75	14.71	-46.1	-47.5	20.0	0.00e+00	0	41	0	246415360	63	4318
2026-01-22 11:01:41.68	198.85	14.80	-46.1	-47.5	20.0	0.00e+00	0	41	0	248512512	63	4327
2026-01-22 11:01:42.68	198.95	14.90	-46.1	-47.4	20.1	0.00e+00	0	41	0	250609664	63	4272
2026-01-22 11:01:43.69	199.06	14.99	-46.1	-47.5	20.0	0.00e+00	0	41	0	252706816	63	4321
2026-01-22 11:01:44.70	199.16	15.09	-46.3	-47.6	19.9	0.00e+00	0	40	0	254803968	63	4387
2026-01-22 11:01:45.71	199.26	15.18	-46.0	-47.4	20.1	0.00e+00	0	41	0	256901120	63	4257
2026-01-22 11:01:46.72	199.36	15.28	-46.1	-47.4	20.1	0.00e+00	0	41	0	257949696	63	4283
2026-01-22 11:01:47.72	199.47	15.37	-46.1	-47.4	20.1	0.00e+00	0	41	0	260046848	63	4272
2026-01-22 11:01:48.73	199.57	15.47	-46.1	-47.5	20.0	0.00e+00	0	41	0	262144000	63	4309
2026-01-22 11:01:49.74	199.68	15.57	-46.0	-47.3	20.2	0.00e+00	0	41	0	264241152	63	4234
2026-01-22 11:01:50.75	199.78	15.66	-46.0	-47.4	20.1	0.00e+00	0	41	0	266338304	63	4257
2026-01-22 11:01:51.75	199.89	15.76	-46.0	-47.4	20.1	0.00e+00	0	41	0	267386880	63	4264
2026-01-22 11:01:52.76	199.99	15.86	-45.9	-47.3	20.3	0.00e+00	0	41	0	269484032	63	4197
2026-01-22 11:01:53.77	200.10	15.96	-46.0	-47.3	20.1	0.00e+00	0	41	0	271581184	63	4207
2026-01-22 11:01:54.78	200.21	16.06	-45.7	-47.0	20.5	0.00e+00	0	41	0	273678336	63	4088
2026-01-22 11:01:55.78	200.32	16.15	-45.6	-46.8	20.7	0.00e+00	0	41	0	274726912	63	3990
2026-01-22 11:01:56.79	200.43	16.25	-45.6	-46.9	20.6	0.00e+00	0	41	0	276824064	63	4014
2026-01-22 11:01:57.80	200.54	16.35	-45.5	-46.8	20.7	0.00e+00	0	41	0	278921216	63	3984
2026-01-22 11:01:58.81	200.65	16.45	-45.6	-46.8	20.7	0.00e+00	0	41	0	281018368	63	3998
2026-01-22 11:01:59.82	200.76	16.55	-45.6	-46.9	20.6	0.00e+00	0	41	0	283115520	63	4030
2026-01-22 11:02:00.82	200.87	16.65	-45.7	-46.9	20.6	0.00e+00	0	41	0	285212672	63	4046
2026-01-22 11:02:01.83	200.99	16.75	-45.6	-46.9	20.6	0.00e+00	0	41	0	286261248	63	4022
2026-01-22 11:02:02.84	201.10	16.85	-45.7	-46.9	20.6	0.00e+00	0	41	0	288358400	63	4049
2026-01-22 11:02:03.85	201.22	16.95	-45.7	-47.0	20.5	0.00e+00	0	41	0	290455552	63	4058
2026-01-22 11:02:04.86	201.33	17.05	-45.8	-47.1	20.4	0.00e+00	0	41	0	292552704	63	4142
2026-01-22 11:02:05.86	201.45	17.15	-45.9	-47.2	20.4	0.00e+00	0	41	0	294649856	63	4165
2026-01-22 11:02:06.87	201.56	17.26	-45.9	-47.2	20.4	0.00e+00	0	41	0	295698432	63	4148
2026-01-22 11:02:07.88	201.68	17.36	-45.9	-47.3	20.3	0.00e+00	0	41	0	297795584	63	4204
2026-01-22 11:02:08.89	201.80	17.46	-46.0	-47.3	20.2	0.00e+00	0	41	0	299892736	63	4221
2026-01-22 11:02:09.90	201.92	17.56	-46.0	-47.4	20.2	0.00e+00	0	41	0	301989888	63	4246
2026-01-22 11:02:10.91	202.04	17.67	-46.1	-47.4	20.1	0.00e+00	0	41	0	304087040	63	4280
2026-01-22 11:02:11.92	202.16	17.77	-46.1	-47.5	20.1	0.00e+00	0	41	0	305135616	63	4322
2026-01-22 11:02:12.93	202.28	17.87	-46.1	-47.5	20.1	0.00e+00	0	41	0	307232768	63	4313
2026-01-22 11:02:13.94	202.40	17.98	-46.1	-47.5	20.1	0.00e+00	0	41	0	309329920	63	4318
2026-01-22 11:02:14.94	202.53	18.08	-46.2	-47.6	20.0	0.00e+00	0	41	0	311427072	63	4362
2026-01-22 11:02:15.95	202.65	18.19	-46.3	-47.6	19.9	0.00e+00	0	41	0	313524224	63	4391
2026-01-22 11:02:16.96	202.78	18.29	-46.3	-47.6	19.9	0.00e+00	0	41	0	314572800	63	4385
2026-01-22 11:02:17.97	202.90	18.40	-46.4	-47.9	19.8	0.00e+00	0	41	0	316669952	63	4501
2026-01-22 11:02:18.98	203.03	18.50	-46.3	-47.7	19.9	0.00e+00	0	41	0	318767104	63	4419
2026-01-22 11:02:19.98	203.15	18.61	-46.3	-47.7	19.9	0.00e+00	0	41	0	320864256	63	4400
2026-01-22 11:02:20.99	203.28	18.72	-46.3	-47.7	19.8	0.00e+00	0	41	0	322961408	63	4441
2026-01-22 11:02:22.00	203.41	18.82	-46.3	-47.7	19.9	0.00e+00	0	41	0	324009984	63	4435
2026-01-22 11:02:23.01	203.54	18.93	-46.4	-47.8	19.8	0.00e+00	0	41	0	326107136	63	4482
2026-01-22 11:02:24.02	203.67	19.04	-46.3	-47.7	19.9	0.00e+00	0	41	0	328204288	63	4396
2026-01-22 11:02:25.03	203.81	19.15	-46.4	-47.8	19.8	0.00e+00	0	41	0	330301440	63	4473
2026-01-22 11:02:26.04	203.94	19.25	-46.3	-47.7	20.0	0.00e+00	0	41	0	332398592	63	4392
2026-01-22 11:02:27.04	204.07	19.36	-46.3	-47.6	20.0	0.00e+00	0	41	0	333447168	63	4386
2026-01-22 11:02:28.05	204.21	19.47	-46.2	-47.6	20.0	0.00e+00	0	41	0	335544320	63	4365
2026-01-22 11:02:29.06	204.34	19.58	-46.2	-47.6	20.0	0.00e+00	0	41	0	337641472	63	4348
2026-01-22 11:02:30.07	204.48	19.69	-46.3	-47.7	19.9	0.00e+00	0	41	0	339738624	63	4434
2026-01-22 11:02:31.08	204.62	19.80	-46.3	-47.7	20.0	0.00e+00	0	41	0	341835776	63	4395
2026-01-22 11:02:32.09	204.75	19.91	-46.3	-47.7	20.0	0.00e+00	0	41	0	342884352	63	4397
2026-01-22 11:02:33.10	204.89	20.02	-46.3	-47.7	19.9	0.00e+00	0	41	0	344981504	63	4421
2026-01-22 11:02:34.10	205.03	20.13	-46.4	-47.7	20.0	0.00e+00	0	41	0	347078656	63	4436
2026-01-22 11:02:35.11	205.17	20.24	-46.4	-47.8	19.8	0.00e+00	0	41	0	349175808	63	4479
2026-01-22 11:02:36.12	205.32	20.35	-46.4	-47.9	19.8	0.00e+00	0	41	0	351272960	63	4498
2026-01-22 11:02:37.13	205.46	20.46	-46.4	-47.8	19.8	0.00e+00	0	41	0	352321536	63	4489
2026-01-22 11:02:38.14	205.60	20.57	-46.5	-48.0	19.7	0.00e+00	0	41	0	354418688	63	4559
2026-01-22 11:02:39.15	205.75	20.69	-46.4	-47.8	19.8	0.00e+00	0	41	0	356515840	63	4493
2026-01-22 11:02:40.16	205.90	20.80	-46.5	-48.0	19.7	0.00e+00	0	41	0	358612992	63	4555
2026-01-22 11:02:41.16	206.04	20.91	-46.5	-47.9	19.8	0.00e+00	0	40	0	360710144	63	4513
2026-01-22 11:02:42.17	206.19	21.02	-46.4	-47.9	19.8	0.00e+00	0	41	0	361758720	63	4496
2026-01-22 11:02:43.18	206.34	21.14	-46.5	-48.0	19.7	0.00e+00	0	41	0	363855872	63	4546
2026-01-22 11:02:44.19	206.49	21.25	-46.6	-48.0	19.7	0.00e+00	0	41	0	365953024	63	4588
2026-01-22 11:02:45.20	206.64	21.37	-46.6	-48.1	19.6	0.00e+00	0	41	0	368050176	63	4604
2026-01-22 11:02:46.21	206.79	21.48	-46.6	-48.0	19.6	0.00e+00	0	41	0	370147328	64	4332
2026-01-22 11:02:47.22	206.95	21.60	-46.7	-48.1	19.5	0.00e+00	0	41	0	372244480	64	4385
2026-01-22 11:02:48.22	207.10	21.71	-46.7	-48.2	19.4	0.00e+00	0	41	0	373293056	64	4432
2026-01-22 11:02:49.23	207.26	21.82	-46.8	-48.3	19.3	0.00e+00	0	41	0	375390208	64	4444
2026-01-22 11:02:50.24	207.42	21.94	-46.8	-48.4	19.3	0.00e+00	0	41	0	377487360	64	4504
2026-01-22 11:02:51.25	207.57	22.06	-46.8	-48.3	19.3	0.00e+00	0	41	0	379584512	64	4478
2026-01-22 11:02:52.26	207.73	22.17	-46.7	-48.1	19.5	0.00e+00	0	41	0	380633088	64	4379
2026-01-22 11:02:53.27	207.89	22.29	-46.7	-48.1	19.5	0.00e+00	0	41	0	382730240	64	4378
2026-01-22 11:02:54.27	208.05	22.41	-46.6	-48.0	19.6	0.00e+00	0	40	0	384827392	64	4332
2026-01-22 11:02:55.28	208.22	22.52	-46.5	-48.0	19.6	0.00e+00	0	41	0	386924544	64	4309
2026-01-22 11:02:56.29	208.38	22.64	-46.4	-47.8	19.8	0.00e+00	0	41	0	389021696	64	4217
2026-01-22 11:02:57.30	208.55	22.76	-46.4	-47.8	19.8	0.00e+00	0	41	0	390070272	64	4201
2026-01-22 11:02:58.30	208.71	22.88	-46.2	-47.6	20.1	0.00e+00	0	41	0	392167424	64	4100
2026-01-22 11:02:59.31	208.88	22.99	-46.3	-47.7	20.0	0.00e+00	0	41	0	394264576	64	4147
2026-01-22 11:03:00.32	209.05	23.11	-46.1	-47.5	20.2	0.00e+00	0	41	0	396361728	64	4060
2026-01-22 11:03:01.33	209.22	23.23	-46.0	-47.4	20.2	0.00e+00	0	41	0	398458880	64	4008
2026-01-22 11:03:02.34	209.39	23.35	-46.0	-47.3	20.3	0.00e+00	0	41	0	400556032	64	3995
2026-01-22 11:03:03.34	209.56	23.47	-46.1	-47.4	20.2	0.00e+00	0	41	0	401604608	64	4038
2026-01-22 11:03:04.35	209.74	23.59	-46.1	-47.5	20.1	0.00e+00	0	41	0	403701760	64	4067
2026-01-22 11:03:05.35	209.91	23.71	-46.1	-47.5	20.2	0.00e+00	0	41	0	405798912	64	4054
2026-01-22 11:03:06.36	210.09	23.83	-46.1	-47.5	20.1	0.00e+00	0	41	0	407896064	64	4075
2026-01-22 11:03:07.37	210.27	23.95	-46.2	-47.5	20.1	0.00e+00	0	41	0	408944640	64	4086
2026-01-22 11:03:08.38	210.45	24.07	-46.1	-47.4	20.3	0.00e+00	0	41	0	411041792	63	4256
2026-01-22 11:03:09.38	210.62	24.19	-46.0	-47.3	20.4	0.00e+00	0	41	0	413138944	63	4241
2026-01-22 11:03:10.39	210.81	24.32	-46.1	-47.4	20.4	0.00e+00	0	41	0	415236096	63	4252
2026-01-22 11:03:11.40	210.99	24.44	-46.0	-47.3	20.4	0.00e+00	0	41	0	417333248	63	4215
2026-01-22 11:03:12.41	211.17	24.56	-46.1	-47.4	20.4	0.00e+00	0	41	0	419430400	63	4258
2026-01-22 11:03:13.42	211.36	24.68	-46.0	-47.3	20.4	0.00e+00	0	41	0	420478976	63	4218
2026-01-22 11:03:14.43	211.55	24.80	-46.0	-47.3	20.3	0.00e+00	0	41	0	422576128	63	4201
2026-01-22 11:03:15.44	211.74	24.93	-45.9	-47.2	20.5	0.00e+00	0	41	0	424673280	63	4185
2026-01-22 11:03:16.45	211.93	25.05	-46.1	-47.4	20.3	0.00e+00	0	41	0	426770432	63	4268
2026-01-22 11:03:17.45	212.12	25.17	-46.1	-47.4	20.3	0.00e+00	0	41	0	428867584	63	4266
2026-01-22 11:03:18.46	212.31	25.30	-46.2	-47.6	20.1	0.00e+00	0	41	0	429916160	63	4365
2026-01-22 11:03:19.47	212.51	25.42	-46.1	-47.5	20.3	0.00e+00	0	41	0	432013312	63	4306
2026-01-22 11:03:20.48	212.70	25.55	-46.0	-47.3	20.4	0.00e+00	0	41	0	434110464	63	4221
2026-01-22 11:03:21.49	212.90	25.67	-46.0	-47.3	20.4	0.00e+00	0	41	0	436207616	63	4239
2026-01-22 11:03:22.49	213.10	25.79	-46.0	-47.3	20.5	0.00e+00	0	41	0	437256192	63	4203
2026-01-22 11:03:23.50	213.30	25.92	-45.9	-47.2	20.5	0.00e+00	0	41	0	439353344	63	4181
2026-01-22 11:03:24.51	213.50	26.04	-46.0	-47.3	20.4	0.00e+00	0	41	0	441450496	63	4221
2026-01-22 11:03:25.52	213.71	26.17	-46.1	-47.4	20.4	0.00e+00	0	41	0	443547648	63	4265
2026-01-22 11:03:26.53	213.91	26.30	-45.9	-47.2	20.5	0.00e+00	0	41	0	445644800	63	4179
2026-01-22 11:03:27.54	214.12	26.42	-45.9	-47.2	20.5	0.00e+00	0	41	0	447741952	63	4191
2026-01-22 11:03:28.54	214.33	26.55	-46.1	-47.4	20.4	0.00e+00	0	41	0	448790528	63	4249
2026-01-22 11:03:29.55	214.54	26.67	-46.1	-47.4	20.3	0.00e+00	0	41	0	450887680	63	4273
2026-01-22 11:03:30.56	214.75	26.80	-46.1	-47.4	20.3	0.00e+00	0	41	0	452984832	63	4284
2026-01-22 11:03:31.57	214.96	26.92	-46.3	-47.6	20.1	0.00e+00	0	41	0	455081984	63	4385
2026-01-22 11:03:32.58	215.18	27.05	-46.4	-47.8	20.0	0.00e+00	0	41	0	457179136	63	4443
2026-01-22 11:03:33.58	215.40	27.18	-46.5	-47.9	19.9	0.00e+00	0	41	0	458227712	63	4496
2026-01-22 11:03:34.59	215.61	27.30	-46.5	-47.9	19.9	0.00e+00	0	41	0	460324864	63	4509
2026-01-22 11:03:35.60	215.83	27.43	-46.5	-47.9	19.9	0.00e+00	0	41	0	462422016	63	4518
2026-01-22 11:03:36.61	216.06	27.56	-46.5	-47.9	19.8	0.00e+00	0	41	0	464519168	63	4540
2026-01-22 11:03:37.62	216.28	27.69	-46.6	-48.0	19.7	0.00e+00	0	41	0	466616320	63	4594
2026-01-22 11:03:38.62	216.50	27.81	-46.5	-47.9	19.8	0.00e+00	0	41	0	467664896	63	4545
2026-01-22 11:03:39.63	216.73	27.94	-46.6	-48.0	19.8	0.00e+00	0	41	0	469762048	63	4553
2026-01-22 11:03:40.64	216.96	28.07	-46.6	-48.0	19.8	0.00e+00	0	41	0	471859200	63	4578
2026-01-22 11:03:41.65	217.19	28.20	-46.5	-47.8	19.9	0.00e+00	0	41	0	473956352	63	4489
2026-01-22 11:03:42.66	217.43	28.32	-46.5	-47.9	19.9	0.00e+00	0	41	0	476053504	63	4516
2026-01-22 11:03:43.66	217.66	28.45	-46.5	-47.9	19.9	0.00e+00	0	41	0	477102080	63	4512
2026-01-22 11:03:44.67	217.89	28.58	-46.6	-48.1	19.8	0.00e+00	0	41	0	479199232	63	4599
2026-01-22 11:03:45.68	218.13	28.71	-46.7	-48.1	19.7	0.00e+00	0	41	0	481296384	63	4644
2026-01-22 11:03:46.69	218.37	28.84	-46.7	-48.2	19.5	0.00e+00	0	41	0	483393536	64	4419
2026-01-22 11:03:47.70	218.62	28.96	-46.7	-48.2	19.5	0.00e+00	0	41	0	485490688	64	4399
2026-01-22 11:03:48.70	218.86	29.09	-46.8	-48.3	19.4	0.00e+00	0	41	0	487587840	64	4487
2026-01-22 11:03:49.71	219.10	29.22	-46.9	-48.5	19.3	0.00e+00	0	41	0	488636416	64	4550
2026-01-22 11:03:50.72	219.35	29.35	-47.0	-48.6	19.1	0.00e+00	0	41	0	490733568	64	4602
2026-01-22 11:03:51.73	219.60	29.48	-47.0	-48.6	19.2	0.00e+00	0	41	0	492830720	64	4599
2026-01-22 11:03:52.73	219.85	29.60	-47.1	-48.7	19.0	0.00e+00	0	41	0	494927872	64	4675
2026-01-22 11:03:53.74	220.10	29.73	-47.0	-48.5	19.2	0.00e+00	0	41	0	495976448	64	4587
2026-01-22 11:03:54.75	220.36	29.86	-47.0	-48.6	19.2	0.00e+00	0	41	0	498073600	64	4613
2026-01-22 11:03:55.76	220.62	29.99	-47.1	-48.7	19.1	0.00e+00	0	41	0	500170752	64	4674
2026-01-22 11:03:56.77	220.88	30.12	-47.2	-48.7	19.1	0.00e+00	0	41	0	502267904	64	4691
2026-01-22 11:03:57.78	221.14	30.25	-47.1	-48.6	19.1	0.00e+00	0	41	0	504365056	64	4649
2026-01-22 11:03:58.78	221.40	30.37	-47.0	-48.5	19.3	0.00e+00	0	41	0	505413632	64	4584
2026-01-22 11:03:59.79	221.67	30.50	-47.0	-48.5	19.3	0.00e+00	0	41	0	507510784	64	4552
2026-01-22 11:04:00.80	221.93	30.63	-46.9	-48.4	19.3	0.00e+00	0	41	0	509607936	64	4515
2026-01-22 11:04:01.81	222.20	30.76	-46.8	-48.3	19.4	0.00e+00	0	41	0	511705088	64	4488
2026-01-22 11:04:02.82	222.48	30.89	-46.8	-48.3	19.4	0.00e+00	0	41	0	513802240	64	4487
2026-01-22 11:04:03.83	222.75	31.01	-47.0	-48.6	19.2	0.00e+00	0	41	0	515899392	64	4604
2026-01-22 11:04:04.83	223.02	31.14	-47.0	-48.6	19.2	0.00e+00	0	41	0	516947968	64	4612
2026-01-22 11:04:05.84	223.30	31.27	-47.2	-48.8	19.0	0.00e+00	0	41	0	519045120	65	4477
2026-01-22 11:04:06.84	223.58	31.39	-47.3	-48.8	19.0	0.00e+00	0	41	0	521142272	65	4482
2026-01-22 11:04:07.85	223.86	31.52	-47.4	-49.0	18.8	0.00e+00	0	41	0	523239424	65	4568
2026-01-22 11:04:08.86	224.15	31.65	-47.6	-49.3	18.5	0.00e+00	0	41	0	524288000	65	4748
2026-01-22 11:04:09.87	224.44	31.77	-47.8	-49.6	18.2	0.00e+00	0	41	0	526385152	66	4627
2026-01-22 11:04:10.87	224.72	31.90	-47.9	-49.6	18.1	0.00e+00	0	41	0	528482304	66	4645
2026-01-22 11:04:11.88	225.01	32.02	-48.0	-49.7	18.1	0.00e+00	0	41	0	530579456	66	4692
2026-01-22 11:04:12.88	225.30	32.15	-48.1	-49.9	17.9	0.00e+00	0	41	0	532676608	66	4807
2026-01-22 11:04:13.89	225.60	32.27	-48.2	-50.1	17.7	0.00e+00	0	41	0	533725184	67	4623
2026-01-22 11:04:14.90	225.90	32.40	-48.4	-50.4	17.5	0.00e+00	0	41	0	535822336	67	4760
2026-01-22 11:04:15.91	226.20	32.52	-48.7	-50.7	17.1	0.00e+00	0	41	0	537919488	67	4957
2026-01-22 11:04:16.92	226.50	32.65	-49.0	-51.1	16.8	0.00e+00	0	41	0	540016640	68	4920
2026-01-22 11:04:17.93	226.81	32.77	-49.1	-51.3	16.6	0.00e+00	0	41	0	542113792	69	4755
2026-01-22 11:04:18.94	227.11	32.90	-49.3	-51.5	16.4	0.00e+00	0	41	0	544210944	69	4853
2026-01-22 11:04:19.95	227.42	33.02	-49.3	-51.6	16.4	0.00e+00	0	41	0	545259520	69	4877
2026-01-22 11:04:20.96	227.74	33.14	-49.5	-51.9	16.1	0.00e+00	0	41	0	547356672	69	5051
2026-01-22 11:04:21.96	228.05	33.26	-49.5	-51.9	16.1	0.00e+00	0	41	0	549453824	69	5091
2026-01-22 11:04:22.97	228.36	33.39	-49.8	-52.4	15.6	0.00e+00	0	41	0	551550976	70	5073
2026-01-22 11:04:23.98	228.68	33.51	-50.0	-52.6	15.5	0.00e+00	0	41	0	552599552	70	5179
2026-01-22 11:04:24.99	229.00	33.63	-50.0	-52.7	15.3	0.00e+00	0	41	0	554696704	70	5232
2026-01-22 11:04:26.00	229.33	33.75	-50.0	-52.7	15.3	0.00e+00	0	41	0	556793856	70	5238
2026-01-22 11:04:27.00	229.65	33.87	-50.0	-52.6	15.4	0.00e+00	0	41	0	558891008	70	5181
2026-01-22 11:04:28.01	229.98	33.99	-50.0	-52.6	15.3	0.00e+00	0	41	0	560988160	70	5173
2026-01-22 11:04:29.02	230.31	34.11	-50.1	-52.8	15.3	0.00e+00	0	41	0	563085312	70	5283
2026-01-22 11:04:30.03	230.64	34.23	-50.0	-52.7	15.3	0.00e+00	0	41	0	564133888	70	5233
2026-01-22 11:04:31.04	230.98	34.34	-50.1	-52.8	15.2	0.00e+00	0	41	0	566231040	70	5316
2026-01-22 11:04:32.05	231.31	34.46	-50.0	-52.6	15.4	0.00e+00	0	41	0	568328192	70	5198
2026-01-22 11:04:33.05	231.65	34.58	-50.0	-52.6	15.4	0.00e+00	0	41	0	570425344	70	5181
2026-01-22 11:04:34.06	231.99	34.69	-49.8	-52.4	15.6	0.00e+00	0	41	0	572522496	70	5066
2026-01-22 11:04:35.07	232.34	34.81	-49.7	-52.1	15.8	0.00e+00	0	41	0	573571072	70	4919
2026-01-22 11:04:36.07	232.68	34.92	-49.5	-51.9	16.0	0.00e+00	0	41	0	575668224	70	4807
2026-01-22 11:04:37.08	233.03	35.03	-49.3	-51.6	16.5	0.00e+00	0	41	0	577765376	70	4603
2026-01-22 11:04:38.09	233.38	35.15	-48.9	-51.0	17.0	0.00e+00	0	41	0	579862528	69	4558
2026-01-22 11:04:39.10	233.74	35.26	-48.6	-50.6	17.4	0.00e+00	0	41	0	580911104	69	4374
2026-01-22 11:04:40.11	234.10	35.37	-48.7	-50.7	17.3	0.00e+00	0	41	0	583008256	69	4401
2026-01-22 11:04:41.11	234.45	35.48	-48.9	-51.0	17.0	0.00e+00	0	41	0	585105408	69	4579
2026-01-22 11:04:42.12	234.81	35.59	-49.1	-51.3	16.7	0.00e+00	0	41	0	587202560	69	4746
2026-01-22 11:04:43.13	235.18	35.70	-49.3	-51.5	16.5	0.00e+00	0	41	0	589299712	69	4837
2026-01-22 11:04:44.14	235.54	35.80	-49.1	-51.2	16.7	0.00e+00	0	41	0	591396864	69	4699
2026-01-22 11:04:45.14	235.91	35.91	-48.8	-50.8	17.3	0.00e+00	0	41	0	592445440	69	4445
2026-01-22 11:04:46.15	236.28	36.02	-48.6	-50.6	17.4	0.00e+00	0	41	0	594542592	69	4345
2026-01-22 11:04:47.16	236.65	36.12	-48.1	-49.8	18.1	0.00e+00	0	40	0	596639744	68	4235
2026-01-22 11:04:48.17	237.03	36.22	-47.8	-49.5	18.3	0.00e+00	0	41	0	598736896	67	4332
2026-01-22 11:04:49.18	237.41	36.33	-47.5	-49.2	18.7	0.00e+00	0	41	0	600834048	67	4159
2026-01-22 11:04:50.19	237.79	36.43	-47.6	-49.2	18.7	0.00e+00	0	41	0	601882624	67	4170
2026-01-22 11:04:51.19	238.17	36.53	-47.6	-49.3	18.6	0.00e+00	0	41	0	603979776	67	4213
2026-01-22 11:04:52.20	238.55	36.63	-47.7	-49.4	18.5	0.00e+00	0	41	0	606076928	67	4270
2026-01-22 11:04:53.21	238.94	36.73	-47.6	-49.3	18.6	0.00e+00	0	41	0	608174080	67	4227
2026-01-22 11:04:54.22	239.33	36.82	-47.6	-49.2	18.7	0.00e+00	0	41	0	610271232	67	4171
2026-01-22 11:04:55.22	239.72	36.92	-47.4	-48.9	18.9	0.00e+00	0	41	0	611319808	66	4282
2026-01-22 11:04:56.23	240.11	37.01	-47.0	-48.5	19.4	0.00e+00	0	41	0	613416960	66	4070
2026-01-22 11:04:57.24	240.51	37.11	-46.4	-47.7	20.1	0.00e+00	0	41	0	615514112	64	4177
2026-01-22 11:04:58.25	240.90	37.20	-46.0	-47.3	20.5	0.00e+00	0	41	0	617611264	64	3976
2026-01-22 11:04:59.25	241.30	37.29	-46.2	-47.5	20.4	0.00e+00	0	41	0	619708416	64	4078
2026-01-22 11:05:00.26	241.70	37.38	-46.6	-48.0	19.9	0.00e+00	0	41	0	620756992	64	4316
2026-01-22 11:05:01.27	242.11	37.47	-47.0	-48.5	19.3	0.00e+00	0	41	0	622854144	64	4580
2026-01-22 11:05:02.28	242.52	37.56	-47.2	-48.7	19.2	0.00e+00	0	41	0	624951296	64	4703
2026-01-22 11:05:03.29	242.93	37.64	-47.2	-48.7	19.1	0.00e+00	0	41	0	627048448	65	4438
2026-01-22 11:05:04.30	243.34	37.73	-47.1	-48.7	19.2	0.00e+00	0	41	0	629145600	65	4394
2026-01-22 11:05:05.30	243.75	37.81	-47.2	-48.8	19.1	0.00e+00	0	41	0	630194176	65	4454
2026-01-22 11:05:06.31	244.16	37.89	-47.0	-48.5	19.3	0.00e+00	0	41	0	632291328	65	4327
2026-01-22 11:05:07.32	244.58	37.97	-46.9	-48.4	19.5	0.00e+00	0	41	0	634388480	65	4256
2026-01-22 11:05:08.32	245.00	38.05	-47.1	-48.6	19.3	0.00e+00	0	41	0	636485632	65	4361
2026-01-22 11:05:09.33	245.42	38.13	-47.1	-48.7	19.2	0.00e+00	0	41	0	638582784	65	4396
2026-01-22 11:05:10.34	245.84	38.20	-47.3	-48.9	18.9	0.00e+00	0	41	0	639631360	65	4527
2026-01-22 11:05:11.35	246.27	38.28	-47.4	-49.0	18.9	0.00e+00	0	41	0	641728512	65	4576
2026-01-22 11:05:12.36	246.69	38.35	-47.6	-49.2	18.7	0.00e+00	0	41	0	643825664	65	4694
2026-01-22 11:05:13.37	247.12	38.42	-47.5	-49.1	18.9	0.00e+00	0	41	0	645922816	65	4621
2026-01-22 11:05:14.38	247.56	38.49	-47.3	-48.9	19.0	0.00e+00	0	41	0	648019968	65	4512
2026-01-22 11:05:15.38	247.98	38.55	-47.1	-48.7	19.2	0.00e+00	0	41	0	649068544	65	4401
2026-01-22 11:05:16.39	248.42	38.62	-47.3	-48.9	19.0	0.00e+00	0	41	0	651165696	65	4516
2026-01-22 11:05:17.39	248.85	38.68	-47.3	-48.8	19.0	0.00e+00	0	41	0	653262848	65	4486
2026-01-22 11:05:18.40	249.29	38.75	-47.3	-48.9	19.0	0.00e+00	0	41	0	655360000	65	4521
2026-01-22 11:05:19.41	249.73	38.81	-47.1	-48.6	19.3	0.00e+00	0	41	0	657457152	65	4366
2026-01-22 11:05:20.42	250.17	38.87	-47.0	-48.5	19.4	0.00e+00	0	41	0	658505728	65	4324
2026-01-22 11:05:21.42	250.61	38.92	-46.8	-48.3	19.6	0.00e+00	0	41	0	660602880	65	4208
2026-01-22 11:05:22.43	251.05	38.98	-47.1	-48.6	19.3	0.00e+00	0	41	0	662700032	65	4369
2026-01-22 11:05:23.44	251.50	39.03	-47.4	-48.9	19.0	0.00e+00	0	41	0	664797184	65	4545
2026-01-22 11:05:24.45	251.94	39.08	-48.2	-49.6	18.6	0.00e+00	0	41	0	666894336	66	4643
2026-01-22 11:05:25.46	252.39	39.13	-48.1	-49.8	18.1	0.00e+00	0	41	0	667942912	66	4754
2026-01-22 11:05:26.46	252.84	39.18	-48.0	-49.7	18.3	0.00e+00	0	41	0	670040064	66	4674
2026-01-22 11:05:27.47	253.29	39.23	-47.8	-49.5	18.5	0.00e+00	0	41	0	672137216	66	4560
2026-01-22 11:05:28.48	253.74	39.27	-47.5	-49.1	18.9	0.00e+00	0	41	0	674234368	66	4356
2026-01-22 11:05:29.49	254.20	39.31	-47.1	-48.6	19.3	0.00e+00	0	41	0	676331520	66	4135
2026-01-22 11:05:30.50	254.65	39.35	-47.0	-48.5	19.5	0.00e+00	0	41	0	677380096	66	4070
2026-01-22 11:05:31.50	255.10	39.39	-47.3	-48.9	19.1	0.00e+00	0	41	0	679477248	65	4513
2026-01-22 11:05:32.51	255.56	39.43	-47.5	-49.1	18.8	0.00e+00	0	41	0	681574400	65	4607
2026-01-22 11:05:33.52	256.02	39.46	-48.0	-49.8	18.2	0.00e+00	0	41	0	683671552	66	4727
2026-01-22 11:05:34.52	256.47	39.50	-48.0	-49.8	18.1	0.00e+00	0	41	0	685768704	66	4738
2026-01-22 11:05:35.53	256.93	39.53	-47.7	-49.4	18.5	0.00e+00	0	41	0	686817280	66	4518
2026-01-22 11:05:36.54	257.39	39.56	-47.3	-48.8	19.1	0.00e+00	0	41	0	688914432	66	4227
2026-01-22 11:05:37.55	257.85	39.58	-47.2	-48.7	19.2	0.00e+00	0	41	0	691011584	66	4173
2026-01-22 11:05:38.56	258.31	39.61	-47.5	-49.0	18.9	0.00e+00	0	41	0	693108736	66	4331
2026-01-22 11:05:39.56	258.77	39.63	-48.1	-49.9	18.1	0.00e+00	0	41	0	695205888	66	4765
2026-01-22 11:05:40.57	259.23	39.65	-48.6	-50.6	17.5	0.00e+00	0	41	0	696254464	67	4893
2026-01-22 11:05:41.58	259.70	39.67	-49.2	-51.4	16.7	0.00e+00	0	41	0	698351616	69	4762
2026-01-22 11:05:42.59	260.16	39.68	-49.4	-51.6	16.4	0.00e+00	0	41	0	700448768	69	4920
2026-01-22 11:05:43.60	260.62	39.70	-49.3	-51.5	16.5	0.00e+00	0	41	0	702545920	69	4863
2026-01-22 11:05:44.60	261.08	39.71	-49.2	-51.4	16.6	0.00e+00	0	41	0	704643072	69	4783
2026-01-22 11:05:45.61	261.55	39.72	-49.2	-51.4	16.7	0.00e+00	0	41	0	706740224	69	4782
2026-01-22 11:05:46.62	262.02	39.73	-49.2	-51.3	16.8	0.00e+00	0	41	0	707788800	69	4722
2026-01-22 11:05:47.63	262.48	39.73	-49.2	-51.4	16.7	0.00e+00	0	41	0	709885952	69	4777
2026-01-22 11:05:48.64	262.95	39.74	-49.5	-51.9	16.2	0.00e+00	0	41	0	711983104	69	5043
2026-01-22 11:05:49.65	263.41	39.74	-49.6	-52.0	16.1	0.00e+00	0	41	0	714080256	69	5104
2026-01-22 11:05:50.65	263.87	39.74	-49.6	-52.0	16.1	0.00e+00	0	41	0	715128832	69	5148
2026-01-22 11:05:51.66	264.34	39.74	-49.4	-51.7	16.3	0.00e+00	0	41	0	717225984	69	4983
2026-01-22 11:05:52.67	264.80	39.73	-49.3	-51.6	16.6	0.00e+00	0	41	0	719323136	69	4882
2026-01-22 11:05:53.68	265.27	39.73	-48.9	-51.0	17.1	0.00e+00	0	41	0	721420288	69	4569
2026-01-22 11:05:54.68	265.73	39.72	-48.7	-50.7	17.4	0.00e+00	0	41	0	723517440	69	4420
2026-01-22 11:05:55.69	266.20	39.71	-48.5	-50.4	17.7	0.00e+00	0	41	0	724566016	68	4522
2026-01-22 11:05:56.70	266.66	39.70	-48.2	-49.9	18.2	0.00e+00	0	41	0	726663168	68	4282
2026-01-22 11:05:57.71	267.12	39.68	-47.8	-49.5	18.5	0.00e+00	0	41	0	728760320	67	4297
2026-01-22 11:05:58.72	267.59	39.66	-47.8	-49.5	18.5	0.00e+00	0	41	0	730857472	67	4307
2026-01-22 11:05:59.73	268.05	39.65	-47.9	-49.6	18.3	0.00e+00	0	41	0	732954624	67	4389
2026-01-22 11:06:00.73	268.51	39.63	-47.7	-49.4	18.6	0.00e+00	0	41	0	735051776	67	4245
2026-01-22 11:06:01.74	268.97	39.60	-47.4	-49.0	19.0	0.00e+00	0	41	0	736100352	66	4310
2026-01-22 11:06:02.75	269.43	39.58	-47.5	-49.0	18.9	0.00e+00	0	41	0	738197504	66	4331
2026-01-22 11:06:03.76	269.89	39.55	-47.6	-49.3	18.8	0.00e+00	0	41	0	740294656	66	4451
2026-01-22 11:06:04.76	270.35	39.52	-47.9	-49.6	18.5	0.00e+00	0	41	0	742391808	66	4602
2026-01-22 11:06:05.77	270.81	39.49	-48.4	-50.3	17.7	0.00e+00	0	41	0	743440384	67	4742
2026-01-22 11:06:06.78	271.27	39.46	-48.6	-50.5	17.5	0.00e+00	0	41	0	745537536	67	4857
2026-01-22 11:06:07.79	271.72	39.42	-48.7	-50.7	17.4	0.00e+00	0	41	0	747634688	68	4680
2026-01-22 11:06:08.79	272.17	39.39	-48.3	-50.1	18.0	0.00e+00	0	41	0	749731840	68	4373
2026-01-22 11:06:09.80	272.63	39.35	-48.3	-50.2	18.0	0.00e+00	0	41	0	751828992	68	4392
2026-01-22 11:06:10.81	273.08	39.31	-48.7	-50.6	17.6	0.00e+00	0	41	0	753926144	68	4635
2026-01-22 11:06:11.82	273.54	39.26	-49.1	-51.2	16.9	0.00e+00	0	41	0	754974720	68	4932
2026-01-22 11:06:12.83	273.99	39.22	-49.1	-51.3	16.9	0.00e+00	0	41	0	757071872	68	4986
2026-01-22 11:06:13.83	274.43	39.17	-49.2	-51.4	16.7	0.00e+00	0	41	0	759169024	69	4792
2026-01-22 11:06:14.84	274.88	39.13	-49.3	-51.6	16.6	0.00e+00	0	41	0	761266176	69	4895
2026-01-22 11:06:15.85	275.33	39.08	-49.3	-51.5	16.6	0.00e+00	0	41	0	763363328	69	4863
2026-01-22 11:06:16.86	275.78	39.02	-49.5	-51.8	16.3	0.00e+00	0	41	0	764411904	69	5019
2026-01-22 11:06:17.86	276.22	38.97	-49.4	-51.6	16.6	0.00e+00	0	41	0	766509056	69	4906
2026-01-22 11:06:18.87	276.66	38.92	-49.2	-51.3	16.9	0.00e+00	0	41	0	768606208	69	4736
2026-01-22 11:06:19.88	277.10	38.86	-48.6	-50.5	17.6	0.00e+00	0	41	0	770703360	69	4308
2026-01-22 11:06:20.89	277.54	38.80	-48.3	-50.1	18.1	0.00e+00	0	41	0	772800512	68	4352
2026-01-22 11:06:21.89	277.98	38.74	-48.3	-50.1	18.1	0.00e+00	0	41	0	773849088	68	4347
2026-01-22 11:06:22.90	278.41	38.68	-49.0	-51.1	17.1	0.00e+00	0	41	0	775946240	68	4908
2026-01-22 11:06:23.91	278.85	38.61	-49.2	-51.4	16.8	0.00e+00	0	41	0	778043392	69	4765
2026-01-22 11:06:24.92	279.28	38.55	-48.5	-50.4	17.7	0.00e+00	0	41	0	780140544	69	4243
2026-01-22 11:06:25.93	279.72	38.48	-48.1	-49.8	18.3	0.00e+00	0	41	0	782237696	68	4200
2026-01-22 11:06:26.94	280.15	38.41	-47.7	-49.3	18.7	0.00e+00	0	41	0	783286272	67	4241
2026-01-22 11:06:27.94	280.57	38.34	-47.9	-49.6	18.5	0.00e+00	0	41	0	785383424	67	4341
2026-01-22 11:06:28.95	281.00	38.27	-48.4	-50.2	17.9	0.00e+00	0	41	0	787480576	67	4689
2026-01-22 11:06:29.96	281.42	38.19	-47.9	-49.6	18.4	0.00e+00	0	41	0	789577728	67	4391
2026-01-22 11:06:30.97	281.84	38.12	-47.4	-49.0	19.0	0.00e+00	0	41	0	791674880	66	4326
2026-01-22 11:06:31.98	282.26	38.04	-47.1	-48.5	19.5	0.00e+00	0	41	0	792723456	66	4084
2026-01-22 11:06:32.98	282.68	37.96	-46.8	-48.2	19.8	0.00e+00	0	41	0	794820608	65	4163
2026-01-22 11:06:33.99	283.09	37.88	-46.9	-48.4	19.6	0.00e+00	0	41	0	796917760	65	4264
2026-01-22 11:06:35.00	283.51	37.80	-47.2	-48.8	19.3	0.00e+00	0	41	0	799014912	65	4446
2026-01-22 11:06:36.01	283.92	37.72	-47.5	-49.1	19.0	0.00e+00	0	41	0	801112064	65	4601
2026-01-22 11:06:37.02	284.33	37.63	-47.4	-48.9	19.1	0.00e+00	0	41	0	802160640	65	4541
2026-01-22 11:06:38.02	284.74	37.55	-46.8	-48.2	19.8	0.00e+00	0	41	0	804257792	65	4168
2026-01-22 11:06:39.03	285.14	37.46	-46.5	-47.9	20.1	0.00e+00	0	41	0	806354944	65	4024
2026-01-22 11:06:40.04	285.55	37.37	-46.3	-47.6	20.4	0.00e+00	0	41	0	808452096	64	4115
2026-01-22 11:06:41.05	285.95	37.28	-46.5	-47.9	20.1	0.00e+00	0	41	0	810549248	64	4256
2026-01-22 11:06:42.06	286.35	37.19	-46.1	-47.4	20.6	0.00e+00	0	41	0	811597824	64	4021
2026-01-22 11:06:43.06	286.74	37.10	-45.2	-46.3	21.7	0.00e+00	0	41	0	813694976	62	3992
2026-01-22 11:06:44.07	287.14	37.01	-44.6	-45.6	22.3	0.00e+00	0	41	0	815792128	61	3899
2026-01-22 11:06:45.08	287.53	36.91	-44.6	-45.7	22.3	0.00e+00	0	41	0	817889280	61	3917
2026-01-22 11:06:46.09	287.92	36.81	-44.8	-45.9	22.1	0.00e+00	0	41	0	819986432	61	4025
2026-01-22 11:06:47.10	288.31	36.72	-45.6	-46.8	21.3	0.00e+00	0	41	0	821035008	61	4446
2026-01-22 11:06:48.10	288.69	36.62	-46.2	-47.5	20.6	0.00e+00	0	41	0	823132160	62	4587
2026-01-22 11:06:49.11	289.08	36.52	-45.8	-47.0	21.0	0.00e+00	0	41	0	825229312	63	4086
2026-01-22 11:06:50.12	289.46	36.42	-45.1	-46.3	21.8	0.00e+00	0	41	0	827326464	62	3965
2026-01-22 11:06:51.13	289.84	36.32	-44.7	-45.7	22.3	0.00e+00	0	41	0	829423616	61	3934
2026-01-22 11:06:52.14	290.21	36.22	-44.7	-45.8	22.2	0.00e+00	0	41	0	830472192	61	3966
2026-01-22 11:06:53.14	290.58	36.11	-44.9	-45.9	22.1	0.00e+00	0	41	0	832569344	61	4035
2026-01-22 11:06:54.15	290.96	36.01	-45.1	-46.2	21.9	0.00e+00	0	41	0	834666496	61	4171
2026-01-22 11:06:55.16	291.33	35.90	-45.0	-46.1	21.9	0.00e+00	0	41	0	836763648	61	4131
2026-01-22 11:06:56.17	291.69	35.80	-45.1	-46.2	21.8	0.00e+00	0	41	0	838860800	61	4180
2026-01-22 11:06:57.18	292.06	35.69	-45.1	-46.2	21.8	0.00e+00	0	41	0	839909376	61	4160
2026-01-22 11:06:58.18	292.42	35.58	-45.2	-46.4	21.7	0.00e+00	0	41	0	842006528	61	4243
2026-01-22 11:06:59.19	292.78	35.47	-45.6	-46.8	21.3	0.00e+00	0	41	0	844103680	61	4484
2026-01-22 11:07:00.20	293.13	35.36	-46.0	-47.2	20.9	0.00e+00	0	41	0	846200832	62	4412
2026-01-22 11:07:01.21	293.49	35.25	-45.9	-47.1	21.0	0.00e+00	0	41	0	848297984	62	4369
2026-01-22 11:07:02.22	293.84	35.14	-45.7	-46.9	21.2	0.00e+00	0	41	0	850395136	62	4268
2026-01-22 11:07:03.22	294.19	35.03	-45.7	-46.8	21.2	0.00e+00	0	41	0	851443712	62	4234
2026-01-22 11:07:04.23	294.54	34.92	-45.8	-47.0	21.1	0.00e+00	0	41	0	853540864	62	4299
2026-01-22 11:07:05.24	294.88	34.80	-46.3	-47.6	20.6	0.00e+00	0	41	0	855638016	63	4355
2026-01-22 11:07:06.25	295.23	34.69	-46.8	-48.3	19.9	0.00e+00	0	41	0	857735168	64	4442
2026-01-22 11:07:07.26	295.57	34.57	-47.0	-48.5	19.6	0.00e+00	0	41	0	858783744	64	4563
2026-01-22 11:07:08.26	295.91	34.46	-46.5	-47.9	20.2	0.00e+00	0	41	0	860880896	64	4256
2026-01-22 11:07:09.27	296.24	34.34	-46.4	-47.7	20.3	0.00e+00	0	41	0	862978048	64	4169
2026-01-22 11:07:10.28	296.58	34.22	-46.4	-47.7	20.4	0.00e+00	0	41	0	865075200	64	4158
2026-01-22 11:07:11.29	296.91	34.10	-46.7	-48.1	20.0	0.00e+00	0	41	0	867172352	64	4344
2026-01-22 11:07:12.30	297.24	33.99	-47.1	-48.6	19.5	0.00e+00	0	41	0	868220928	64	4635
2026-01-22 11:07:13.30	297.56	33.87	-47.1	-48.5	19.5	0.00e+00	0	41	0	870318080	64	4591
2026-01-22 11:07:14.31	297.89	33.75	-46.7	-48.1	20.0	0.00e+00	0	41	0	872415232	64	4342
2026-01-22 11:07:15.32	298.21	33.63	-46.6	-47.9	20.2	0.00e+00	0	41	0	874512384	64	4279
2026-01-22 11:07:16.33	298.53	33.51	-46.8	-48.2	19.9	0.00e+00	0	41	0	876609536	64	4394
2026-01-22 11:07:17.34	298.85	33.39	-47.2	-48.7	19.4	0.00e+00	0	41	0	878706688	64	4665
2026-01-22 11:07:18.35	299.16	33.27	-47.9	-49.6	18.6	0.00e+00	0	41	0	879755264	66	4609
2026-01-22 11:07:19.35	299.47	33.14	-48.1	-49.8	18.3	0.00e+00	0	41	0	881852416	66	4723
2026-01-22 11:07:20.36	299.78	33.02	-47.8	-49.4	18.8	0.00e+00	0	41	0	883949568	66	4511
2026-01-22 11:07:21.37	300.09	32.90	-47.4	-48.9	19.2	0.00e+00	0	41	0	886046720	66	4277
2026-01-22 11:07:22.38	300.40	32.78	-47.3	-48.7	19.4	0.00e+00	0	41	0	887095296	66	4185
2026-01-22 11:07:23.38	300.70	32.65	-47.2	-48.6	19.4	0.00e+00	0	41	0	889192448	66	4128
2026-01-22 11:07:24.39	301.00	32.53	-47.6	-49.2	18.9	0.00e+00	0	41	0	891289600	66	4423
2026-01-22 11:07:25.40	301.30	32.41	-48.6	-50.5	17.6	0.00e+00	0	41	0	893386752	67	4869
2026-01-22 11:07:26.41	301.59	32.28	-48.8	-50.8	17.4	0.00e+00	0	41	0	895483904	68	4741
2026-01-22 11:07:27.42	301.89	32.16	-48.6	-50.4	17.8	0.00e+00	0	41	0	897581056	68	4535
2026-01-22 11:07:28.42	302.18	32.03	-48.1	-49.8	18.4	0.00e+00	0	41	0	898629632	68	4235
2026-01-22 11:07:29.43	302.47	31.91	-47.5	-49.1	19.0	0.00e+00	0	41	0	900726784	67	4111
2026-01-22 11:07:30.44	302.76	31.78	-47.3	-48.8	19.3	0.00e+00	0	41	0	902823936	66	4194
2026-01-22 11:07:31.45	303.04	31.65	-48.1	-49.9	18.2	0.00e+00	0	41	0	904921088	66	4791
2026-01-22 11:07:32.46	303.33	31.53	-49.0	-51.1	17.1	0.00e+00	0	41	0	907018240	68	4889
2026-01-22 11:07:33.46	303.61	31.40	-48.9	-50.9	17.3	0.00e+00	0	41	0	908066816	68	4768
2026-01-22 11:07:34.47	303.89	31.28	-48.5	-50.4	17.8	0.00e+00	0	41	0	910163968	68	4500
2026-01-22 11:07:35.48	304.16	31.15	-47.7	-49.4	18.6	0.00e+00	0	41	0	912261120	67	4259
2026-01-22 11:07:36.48	304.44	31.02	-47.7	-49.4	18.7	0.00e+00	0	41	0	914358272	67	4243
2026-01-22 11:07:37.49	304.71	30.90	-47.3	-48.8	19.1	0.00e+00	0	41	0	915406848	66	4241
2026-01-22 11:07:38.50	304.98	30.77	-48.0	-49.8	18.2	0.00e+00	0	41	0	917504000	66	4724
2026-01-22 11:07:39.51	305.25	30.64	-49.1	-51.2	16.9	0.00e+00	0	41	0	919601152	68	4981
2026-01-22 11:07:40.52	305.52	30.52	-49.9	-52.4	15.8	0.00e+00	0	41	0	921698304	70	5073
2026-01-22 11:07:41.52	305.78	30.39	-49.8	-52.3	15.9	0.00e+00	0	41	0	923795456	70	4985
2026-01-22 11:07:42.53	306.04	30.26	-49.2	-51.4	16.7	0.00e+00	0	41	0	925892608	70	4525
2026-01-22 11:07:43.54	306.30	30.13	-49.1	-51.2	16.9	0.00e+00	0	41	0	926941184	70	4406
2026-01-22 11:07:44.55	306.56	30.01	-47.8	-49.5	18.5	0.00e+00	0	41	0	929038336	67	4304
2026-01-22 11:07:45.56	306.82	29.88	-47.2	-48.7	19.3	0.00e+00	0	41	0	931135488	66	4147
2026-01-22 11:07:46.56	307.07	29.75	-47.7	-49.3	18.7	0.00e+00	0	41	0	933232640	66	4464
2026-01-22 11:07:47.57	307.32	29.62	-48.4	-50.3	17.7	0.00e+00	0	41	0	935329792	67	4739
2026-01-22 11:07:48.58	307.57	29.50	-48.8	-50.9	17.2	0.00e+00	0	41	0	936378368	68	4772
2026-01-22 11:07:49.59	307.82	29.37	-47.8	-49.5	18.5	0.00e+00	0	41	0	938475520	67	4339
2026-01-22 11:07:50.60	308.07	29.24	-46.4	-47.8	20.1	0.00e+00	0	41	0	940572672	64	4212
2026-01-22 11:07:51.61	308.31	29.11	-46.1	-47.3	20.6	0.00e+00	0	41	0	942669824	63	4226
2026-01-22 11:07:52.62	308.56	28.99	-46.1	-47.3	20.6	0.00e+00	0	41	0	944766976	63	4236
2026-01-22 11:07:53.62	308.80	28.86	-46.5	-47.8	20.1	0.00e+00	0	41	0	945815552	63	4476
2026-01-22 11:07:54.63	309.04	28.73	-47.0	-48.5	19.5	0.00e+00	0	41	0	947912704	64	4555
2026-01-22 11:07:55.64	309.27	28.60	-47.6	-49.3	18.7	0.00e+00	0	41	0	950009856	65	4720
2026-01-22 11:07:56.64	309.51	28.48	-47.3	-48.9	19.1	0.00e+00	0	41	0	952107008	66	4249
2026-01-22 11:07:57.65	309.74	28.35	-46.5	-47.9	20.0	0.00e+00	0	41	0	954204160	65	4020
2026-01-22 11:07:58.66	309.97	28.22	-46.0	-47.2	20.7	0.00e+00	0	41	0	955252736	63	4173
2026-01-22 11:07:59.67	310.20	28.10	-45.1	-46.3	21.6	0.00e+00	0	41	0	957349888	62	3966
2026-01-22 11:08:00.68	310.43	27.97	-45.1	-46.2	21.6	0.00e+00	0	41	0	959447040	62	3952
2026-01-22 11:08:01.68	310.66	27.84	-45.2	-46.3	21.5	0.00e+00	0	41	0	961544192	62	3993
2026-01-22 11:08:02.69	310.88	27.72	-45.6	-46.9	21.1	0.00e+00	0	41	0	963641344	62	4244
2026-01-22 11:08:03.70	311.11	27.59	-46.2	-47.5	20.5	0.00e+00	0	41	0	965738496	62	4573
2026-01-22 11:08:04.71	311.33	27.46	-46.4	-47.8	20.1	0.00e+00	0	41	0	966787072	63	4476
2026-01-22 11:08:05.72	311.55	27.34	-46.2	-47.6	20.4	0.00e+00	0	41	0	968884224	63	4357
2026-01-22 11:08:06.72	311.76	27.21	-45.8	-47.0	20.9	0.00e+00	0	41	0	970981376	63	4079
2026-01-22 11:08:07.73	311.98	27.09	-45.6	-46.8	21.1	0.00e+00	0	41	0	973078528	63	3966
2026-01-22 11:08:08.74	312.19	26.96	-45.4	-46.6	21.2	0.00e+00	0	41	0	974127104	62	4132
2026-01-22 11:08:09.75	312.41	26.83	-45.0	-46.1	21.7	0.00e+00	0	41	0	976224256	62	3899
2026-01-22 11:08:10.76	312.62	26.71	-44.8	-45.9	21.9	0.00e+00	0	41	0	978321408	61	4026
2026-01-22 11:08:11.77	312.83	26.58	-45.0	-46.1	21.7	0.00e+00	0	41	0	980418560	61	4123
2026-01-22 11:08:12.77	313.03	26.46	-45.2	-46.4	21.5	0.00e+00	0	41	0	982515712	61	4264
2026-01-22 11:08:13.78	313.24	26.33	-45.2	-46.4	21.4	0.00e+00	0	41	0	983564288	61	4272
2026-01-22 11:08:14.79	313.45	26.21	-44.9	-46.1	21.7	0.00e+00	0	41	0	985661440	61	4102
2026-01-22 11:08:15.80	313.65	26.08	-44.5	-45.6	22.1	0.00e+00	0	41	0	987758592	61	3893
2026-01-22 11:08:16.81	313.85	25.96	-44.4	-45.5	22.2	0.00e+00	0	41	0	989855744	60	4063
2026-01-22 11:08:17.82	314.05	25.84	-44.1	-45.1	22.6	0.00e+00	0	41	0	991952896	60	3895
2026-01-22 11:08:18.82	314.25	25.71	-44.3	-45.3	22.5	0.00e+00	0	41	0	994050048	59	4233
2026-01-22 11:08:19.83	314.45	25.59	-44.5	-45.5	22.5	0.00e+00	0	41	0	995098624	59	4325
2026-01-22 11:08:20.84	314.64	25.47	-44.3	-45.3	22.4	0.00e+00	0	41	0	997195776	60	4000
2026-01-22 11:08:21.85	314.84	25.34	-44.6	-45.7	22.0	0.00e+00	0	41	0	999292928	60	4149
2026-01-22 11:08:22.85	315.03	25.22	-45.2	-46.3	21.4	0.00e+00	0	41	0	1001390080	60	4474
2026-01-22 11:08:23.86	315.22	25.10	-45.1	-46.2	21.5	0.00e+00	0	41	0	1002438656	61	4173
2026-01-22 11:08:24.87	315.41	24.97	-44.8	-45.9	21.8	0.00e+00	0	41	0	1004535808	61	4029
2026-01-22 11:08:25.88	315.60	24.85	-44.6	-45.7	22.1	0.00e+00	0	41	0	1006632960	61	3929
2026-01-22 11:08:26.89	315.79	24.73	-44.5	-45.5	22.2	0.00e+00	0	41	0	1008730112	60	4094
2026-01-22 11:08:27.90	315.97	24.61	-44.3	-45.3	22.7	0.00e+00	0	41	0	1010827264	59	4219
2026-01-22 11:08:28.90	316.15	24.49	-44.0	-44.9	23.0	0.00e+00	0	41	0	1012924416	59	4047
2026-01-22 11:08:29.91	316.34	24.37	-44.1	-45.1	22.8	0.00e+00	0	41	0	1013972992	59	4128
2026-01-22 11:08:30.92	316.52	24.25	-44.2	-45.2	22.8	0.00e+00	0	41	0	1016070144	59	4150
2026-01-22 11:08:31.93	316.70	24.12	-44.5	-45.6	22.4	0.00e+00	0	41	0	1018167296	59	4363
2026-01-22 11:08:32.94	316.88	24.00	-44.6	-45.7	22.0	0.00e+00	0	41	0	1020264448	60	4161
2026-01-22 11:08:33.94	317.06	23.89	-44.7	-45.8	21.9	0.00e+00	0	41	0	1022361600	60	4219
2026-01-22 11:08:34.95	317.23	23.77	-44.8	-45.9	21.8	0.00e+00	0	41	0	1023410176	60	4264
2026-01-22 11:08:35.96	317.41	23.65	-44.7	-45.8	22.0	0.00e+00	0	41	0	1025507328	60	4194
2026-01-22 11:08:36.97	317.58	23.53	-44.4	-45.4	22.2	0.00e+00	0	41	0	1027604480	60	4042
2026-01-22 11:08:37.97	317.75	23.41	-44.3	-45.3	22.4	0.00e+00	0	41	0	1029701632	60	3979
2026-01-22 11:08:38.98	317.92	23.29	-44.0	-45.0	22.6	0.00e+00	0	41	0	1030750208	60	3867
2026-01-22 11:08:39.99	318.09	23.17	-44.3	-45.3	22.6	0.00e+00	0	41	0	1032847360	59	4218
2026-01-22 11:08:41.00	318.26	23.05	-44.4	-45.4	22.5	0.00e+00	0	41	0	1034944512	59	4285
2026-01-22 11:08:42.00	318.43	22.94	-44.4	-45.4	22.5	0.00e+00	0	41	0	1037041664	59	4270
2026-01-22 11:08:43.01	318.59	22.82	-44.6	-45.6	22.3	0.00e+00	0	41	0	1039138816	59	4389
2026-01-22 11:08:44.02	318.76	22.70	-44.5	-45.5	22.1	0.00e+00	0	41	0	1041235968	60	4088
2026-01-22 11:08:45.03	318.92	22.58	-44.7	-45.8	21.9	0.00e+00	0	41	0	1042284544	60	4206
2026-01-22 11:08:46.04	319.09	22.47	-44.8	-46.0	21.7	0.00e+00	0	41	0	1044381696	60	4301
2026-01-22 11:08:47.05	319.25	22.35	-44.8	-45.9	21.8	0.00e+00	0	41	0	1046478848	60	4267
2026-01-22 11:08:48.06	319.41	22.24	-44.7	-45.8	21.8	0.00e+00	0	41	0	1048576000	60	4228
2026-01-22 11:08:49.06	319.56	22.12	-44.5	-45.5	22.1	0.00e+00	0	41	0	1050673152	60	4089
2026-01-22 11:08:50.07	319.72	22.01	-44.5	-45.5	22.1	0.00e+00	0	41	0	1051721728	60	4091
2026-01-22 11:08:51.08	319.88	21.89	-44.5	-45.6	22.0	0.00e+00	0	41	0	1053818880	60	4129
2026-01-22 11:08:52.09	320.04	21.78	-44.7	-45.8	21.9	0.00e+00	0	41	0	1055916032	60	4209
2026-01-22 11:08:53.10	320.19	21.66	-44.7	-45.9	21.8	0.00e+00	0	41	0	1058013184	60	4245
2026-01-22 11:08:54.10	320.34	21.55	-44.9	-46.1	21.5	0.00e+00	0	41	0	1060110336	60	4364
2026-01-22 11:08:55.11	320.49	21.43	-45.1	-46.3	21.4	0.00e+00	0	41	0	1061158912	60	4449
2026-01-22 11:08:56.12	320.65	21.32	-45.1	-46.3	21.4	0.00e+00	0	41	0	1063256064	60	4459
2026-01-22 11:08:57.13	320.80	21.21	-45.1	-46.3	21.4	0.00e+00	0	41	0	1065353216	60	4449
2026-01-22 11:08:58.14	320.95	21.09	-44.8	-45.9	21.7	0.00e+00	0	41	0	1067450368	60	4286
2026-01-22 11:08:59.15	321.09	20.98	-44.9	-46.0	21.6	0.00e+00	0	41	0	1069547520	60	4322
2026-01-22 11:09:00.15	321.24	20.87	-44.8	-45.9	21.7	0.00e+00	0	41	0	1070596096	60	4267
2026-01-22 11:09:01.16	321.39	20.76	-44.5	-45.6	22.0	0.00e+00	0	41	0	1072693248	60	4123
2026-01-22 11:09:02.17	321.53	20.65	-44.5	-45.5	22.0	0.00e+00	0	41	0	1074790400	60	4091
2026-01-22 11:09:03.17	321.67	20.54	-44.5	-45.6	22.0	0.00e+00	0	41	0	1076887552	60	4117
2026-01-22 11:09:04.18	321.82	20.43	-44.6	-45.7	21.9	0.00e+00	0	41	0	1078984704	60	4178
2026-01-22 11:09:05.19	321.96	20.31	-44.9	-46.0	21.6	0.00e+00	0	41	0	1080033280	60	4328
2026-01-22 11:09:06.20	322.10	20.20	-45.0	-46.2	21.4	0.00e+00	0	41	0	1082130432	60	4400
2026-01-22 11:09:07.21	322.24	20.09	-45.2	-46.4	21.2	0.00e+00	0	41	0	1084227584	60	4542
2026-01-22 11:09:08.21	322.38	19.99	-45.5	-46.7	20.9	0.00e+00	0	41	0	1086324736	61	4427
2026-01-22 11:09:09.22	322.52	19.88	-45.3	-46.5	21.1	0.00e+00	0	41	0	1088421888	61	4332
2026-01-22 11:09:10.23	322.65	19.77	-45.5	-46.7	20.9	0.00e+00	0	41	0	1089470464	61	4406
2026-01-22 11:09:11.24	322.79	19.66	-45.3	-46.5	21.0	0.00e+00	0	41	0	1091567616	61	4335
2026-01-22 11:09:12.24	322.92	19.55	-45.4	-46.6	21.0	0.00e+00	0	41	0	1093664768	61	4351
2026-01-22 11:09:13.25	323.06	19.44	-45.5	-46.7	20.9	0.00e+00	0	41	0	1095761920	61	4406
2026-01-22 11:09:14.26	323.19	19.34	-45.4	-46.6	21.0	0.00e+00	0	41	0	1097859072	61	4369
2026-01-22 11:09:15.27	323.33	19.23	-45.6	-46.9	20.7	0.00e+00	0	41	0	1098907648	61	4513
2026-01-22 11:09:16.28	323.46	19.12	-45.9	-47.2	20.4	0.00e+00	0	41	0	1101004800	62	4416
2026-01-22 11:09:17.28	323.59	19.01	-46.1	-47.5	20.1	0.00e+00	0	41	0	1103101952	62	4557
2026-01-22 11:09:18.29	323.72	18.91	-46.5	-47.9	19.7	0.00e+00	0	41	0	1105199104	63	4543
2026-01-22 11:09:19.30	323.85	18.80	-46.6	-48.1	19.6	0.00e+00	0	41	0	1107296256	63	4619
2026-01-22 11:09:20.31	323.98	18.70	-46.7	-48.2	19.5	0.00e+00	0	41	0	1108344832	63	4654
2026-01-22 11:09:21.32	324.10	18.59	-46.6	-48.1	19.5	0.00e+00	0	41	0	1110441984	63	4630
2026-01-22 11:09:22.32	324.23	18.49	-46.5	-48.0	19.6	0.00e+00	0	41	0	1112539136	63	4551
2026-01-22 11:09:23.33	324.35	18.38	-46.4	-47.9	19.8	0.00e+00	0	41	0	1114636288	63	4510
2026-01-22 11:09:24.34	324.48	18.28	-46.0	-47.4	20.2	0.00e+00	0	41	0	1116733440	63	4244
2026-01-22 11:09:25.34	324.60	18.17	-45.8	-47.1	20.5	0.00e+00	0	41	0	1117782016	63	4106
2026-01-22 11:09:26.35	324.73	18.07	-45.8	-47.0	20.5	0.00e+00	0	41	0	1119879168	63	4097
2026-01-22 11:09:27.36	324.85	17.97	-45.6	-46.8	20.7	0.00e+00	0	41	0	1121976320	63	3996
2026-01-22 11:09:28.37	324.97	17.86	-45.6	-46.8	20.7	0.00e+00	0	41	0	1124073472	63	3994
2026-01-22 11:09:29.38	325.09	17.76	-45.6	-46.8	20.7	0.00e+00	0	41	0	1126170624	63	3984
2026-01-22 11:09:30.38	325.21	17.66	-45.4	-46.6	21.0	0.00e+00	0	41	0	1127219200	62	4115
2026-01-22 11:09:31.39	325.33	17.56	-45.4	-46.7	20.9	0.00e+00	0	41	0	1129316352	62	4146
2026-01-22 11:09:32.40	325.45	17.45	-45.6	-46.9	20.7	0.00e+00	0	41	0	1131413504	62	4245
2026-01-22 11:09:33.41	325.57	17.35	-45.8	-47.1	20.5	0.00e+00	0	41	0	1133510656	62	4355
2026-01-22 11:09:34.42	325.68	17.25	-45.9	-47.3	20.2	0.00e+00	0	41	0	1135607808	62	4460
2026-01-22 11:09:35.42	325.80	17.15	-46.2	-47.5	20.0	0.00e+00	0	41	0	1136656384	62	4593
2026-01-22 11:09:36.43	325.91	17.05	-46.1	-47.5	20.1	0.00e+00	0	41	0	1138753536	62	4564
2026-01-22 11:09:37.44	326.03	16.95	-46.2	-47.6	20.0	0.00e+00	0	41	0	1140850688	63	4361
2026-01-22 11:09:38.44	326.14	16.85	-46.3	-47.7	19.8	0.00e+00	0	41	0	1142947840	63	4433
2026-01-22 11:09:39.45	326.25	16.75	-46.1	-47.5	20.1	0.00e+00	0	41	0	1145044992	63	4300
2026-01-22 11:09:40.46	326.37	16.65	-46.0	-47.3	20.2	0.00e+00	0	41	0	1146093568	63	4231
2026-01-22 11:09:41.47	326.48	16.55	-45.9	-47.2	20.3	0.00e+00	0	41	0	1148190720	63	4163
2026-01-22 11:09:42.48	326.59	16.45	-45.9	-47.2	20.3	0.00e+00	0	41	0	1150287872	63	4169
2026-01-22 11:09:43.48	326.70	16.35	-45.9	-47.3	20.3	0.00e+00	0	41	0	1152385024	63	4196
2026-01-22 11:09:44.49	326.81	16.26	-45.7	-47.0	20.5	0.00e+00	0	41	0	1154482176	63	4081
2026-01-22 11:09:45.50	326.92	16.16	-45.6	-46.8	20.6	0.00e+00	0	41	0	1156579328	63	3998
2026-01-22 11:09:46.51	327.03	16.06	-45.5	-46.8	20.7	0.00e+00	0	41	0	1157627904	63	3975
2026-01-22 11:09:47.52	327.14	15.96	-45.6	-46.9	20.6	0.00e+00	0	41	0	1159725056	63	4040
2026-01-22 11:09:48.52	327.24	15.87	-45.6	-46.9	20.6	0.00e+00	0	41	0	1161822208	63	4028
2026-01-22 11:09:49.53	327.35	15.77	-45.8	-47.1	20.3	0.00e+00	0	41	0	1163919360	63	4136
2026-01-22 11:09:50.54	327.45	15.67	-45.8	-47.1	20.3	0.00e+00	0	41	0	1164967936	63	4124
2026-01-22 11:09:51.55	327.56	15.58	-46.0	-47.3	20.2	0.00e+00	0	41	0	1167065088	63	4220
2026-01-22 11:09:52.56	327.66	15.48	-45.9	-47.2	20.2	0.00e+00	0	41	0	1169162240	63	4189
2026-01-22 11:09:53.57	327.77	15.38	-46.0	-47.4	20.1	0.00e+00	0	41	0	1171259392	63	4261
2026-01-22 11:09:54.58	327.87	15.29	-46.1	-47.5	19.9	0.00e+00	0	41	0	1173356544	63	4326
2026-01-22 11:09:55.58	327.97	15.19	-46.0	-47.4	20.0	0.00e+00	0	41	0	1174405120	63	4269
2026-01-22 11:09:56.59	328.08	15.10	-46.1	-47.6	19.9	0.00e+00	0	41	0	1176502272	63	4341
2026-01-22 11:09:57.60	328.18	15.01	-46.1	-47.5	19.9	0.00e+00	0	41	0	1178599424	63	4321
2026-01-22 11:09:58.61	328.28	14.91	-46.1	-47.5	19.9	0.00e+00	0	41	0	1180696576	63	4325
2026-01-22 11:09:59.62	328.38	14.82	-46.0	-47.4	20.0	0.00e+00	0	41	0	1182793728	63	4283
2026-01-22 11:10:00.62	328.48	14.72	-45.9	-47.3	20.1	0.00e+00	0	41	0	1184890880	63	4207
2026-01-22 11:10:01.63	328.58	14.63	-46.1	-47.4	20.0	0.00e+00	0	41	0	1185939456	63	4289
2026-01-22 11:10:02.64	328.67	14.54	-45.9	-47.2	20.2	0.00e+00	0	41	0	1188036608	63	4191
2026-01-22 11:10:03.65	328.77	14.45	-46.0	-47.4	20.0	0.00e+00	0	41	0	1190133760	63	4265
2026-01-22 11:10:04.66	328.87	14.35	-45.8	-47.1	20.3	0.00e+00	0	41	0	1192230912	63	4115
2026-01-22 11:10:05.66	328.97	14.26	-45.8	-47.1	20.3	0.00e+00	0	41	0	1193279488	63	4121
2026-01-22 11:10:06.67	329.06	14.17	-45.7	-47.0	20.3	0.00e+00	0	41	0	1195376640	63	4097
2026-01-22 11:10:07.68	329.16	14.08	-45.8	-47.1	20.3	0.00e+00	0	41	0	1197473792	63	4119
2026-01-22 11:10:08.69	329.25	13.99	-45.8	-47.1	20.2	0.00e+00	0	41	0	1199570944	63	4136
2026-01-22 11:10:09.70	329.35	13.89	-45.9	-47.3	20.1	0.00e+00	0	41	0	1201668096	63	4210
2026-01-22 11:10:10.71	329.44	13.80	-46.1	-47.5	19.9	0.00e+00	0	41	0	1203765248	63	4326
2026-01-22 11:10:11.72	329.53	13.71	-46.1	-47.6	19.8	0.00e+00	0	41	0	1204813824	63	4347
2026-01-22 11:10:12.72	329.63	13.62	-46.3	-47.8	19.5	7.00e-07	0	41	0	1206910976	63	4468
2026-01-22 11:10:13.73	329.72	13.53	-46.4	-47.9	19.4	0.00e+00	0	41	0	1209008128	63	4501
2026-01-22 11:10:14.74	329.81	13.44	-46.4	-47.9	19.4	0.00e+00	0	41	0	1211105280	63	4521
2026-01-22 11:10:15.75	329.90	13.35	-46.5	-48.0	19.3	0.00e+00	0	41	0	1213202432	63	4596
2026-01-22 11:10:16.76	329.99	13.26	-46.5	-48.0	19.3	0.00e+00	0	41	0	1214251008	63	4562
2026-01-22 11:10:17.76	330.08	13.18	-46.6	-48.1	19.2	0.00e+00	0	41	0	1216348160	63	4636
2026-01-22 11:10:18.77	330.17	13.09	-46.5	-48.1	19.3	0.00e+00	0	41	0	1218445312	63	4602
2026-01-22 11:10:19.78	330.26	13.00	-46.6	-48.2	19.2	0.00e+00	0	41	0	1220542464	63	4655
2026-01-22 11:10:20.79	330.35	12.91	-46.6	-48.1	19.2	0.00e+00	0	41	0	1221591040	63	4635
2026-01-22 11:10:21.80	330.44	12.82	-46.5	-48.1	19.2	0.00e+00	0	41	0	1223688192	63	4605
2026-01-22 11:10:22.80	330.53	12.74	-46.2	-47.6	19.6	0.00e+00	0	41	0	1225785344	63	4389
