passes_logs/2026/01/22/R3.2S_Murmansk/R3.2S_Murmansk__20260122_230133_NOAA_20_JPSS-1_rec.log

#Pass ID: 20260122_230133_NOAA 20 (JPSS-1)
#Satellite: NOAA 20 (JPSS-1)
#Configuration: NOAA 20
#almurnet v.1.7.20251203
#Start time: 2026-01-22 23:01:35

#Version: 2.2.20231116
#Station: R3.2S_Murmansk
#Location: 33.079688 lon 68.888172 lat
#TLE: 1 43013U 17073A   26022.44900781  .00000193  00000+0  11233-3 0  9999
#TLE: 2 43013  98.7645 323.3100 0001197  28.8413 331.2829 14.19538802423792

#Time	Az	El	Level	Level2	SNR	BER	BlckErr	Temp	State	Recorded	gain1	gain2
2026-01-22 23:01:35.39	19.95	2.13	-54.3	-69.3	3.8	1.49e+00	0	40	0	0	79	21170
2026-01-22 23:01:36.40	20.00	2.19	-54.5	-69.5	3.8	1.49e+00	0	40	104	0	79	21617
2026-01-22 23:01:37.41	20.05	2.25	-54.4	-69.5	3.8	1.49e+00	0	40	104	0	79	21557
2026-01-22 23:01:38.42	20.10	2.31	-54.4	-69.5	3.8	1.49e+00	0	41	104	0	79	21557
2026-01-22 23:01:39.43	20.16	2.37	-54.4	-69.4	3.8	1.49e+00	0	40	104	0	79	21451
2026-01-22 23:01:40.44	20.21	2.43	-54.4	-69.4	3.8	1.49e+00	0	41	104	0	79	21414
2026-01-22 23:01:41.45	20.26	2.50	-54.3	-69.3	3.8	1.49e+00	0	40	104	0	79	21190
2026-01-22 23:01:42.45	20.31	2.56	-54.3	-69.3	3.8	1.49e+00	0	40	104	0	79	21182
2026-01-22 23:01:43.46	20.37	2.62	-54.3	-69.3	3.8	1.49e+00	0	41	104	0	79	21104
2026-01-22 23:01:44.47	20.42	2.68	-54.3	-69.3	3.8	1.49e+00	0	41	104	0	79	21082
2026-01-22 23:01:45.48	20.47	2.74	-54.2	-69.2	3.8	1.49e+00	0	41	104	0	79	20987
2026-01-22 23:01:46.49	20.52	2.80	-54.2	-69.2	3.8	1.49e+00	0	41	104	0	79	20837
2026-01-22 23:01:47.50	20.58	2.86	-54.1	-69.1	3.8	1.49e+00	0	41	104	0	79	20708
2026-01-22 23:01:48.51	20.63	2.92	-54.0	-69.1	3.8	1.49e+00	0	41	104	0	79	20544
2026-01-22 23:01:49.51	20.69	2.98	-53.9	-68.9	3.8	1.49e+00	0	41	104	0	79	20253
2026-01-22 23:01:50.52	20.74	3.05	-53.8	-68.8	3.8	1.49e+00	0	41	104	0	79	20051
2026-01-22 23:01:51.53	20.79	3.11	-53.7	-68.7	3.8	1.49e+00	0	41	104	0	79	19705
2026-01-22 23:01:52.54	20.85	3.17	-53.5	-68.6	3.8	1.49e+00	0	41	104	0	79	19403
2026-01-22 23:01:53.55	20.90	3.23	-53.3	-68.3	3.8	1.49e+00	0	41	104	0	78	19963
2026-01-22 23:01:54.55	20.96	3.29	-52.9	-67.7	3.8	1.49e+00	0	41	104	0	77	19694
2026-01-22 23:01:55.57	21.01	3.36	-52.5	-67.3	3.8	1.49e+00	0	41	104	0	77	18896
2026-01-22 23:01:56.57	21.07	3.42	-52.5	-67.1	3.8	1.49e+00	0	41	104	0	77	18346
2026-01-22 23:01:57.58	21.12	3.48	-52.5	-66.7	3.8	1.49e+00	0	41	104	0	76	18642
2026-01-22 23:01:58.59	21.18	3.54	-52.5	-66.7	3.8	1.49e+00	0	41	104	0	76	18540
2026-01-22 23:01:59.60	21.24	3.61	-52.4	-66.3	3.8	1.49e+00	0	41	104	0	76	17728
2026-01-22 23:02:00.61	21.29	3.67	-52.4	-66.4	3.8	1.49e+00	0	41	104	0	76	17974
2026-01-22 23:02:01.62	21.35	3.73	-52.4	-65.8	3.8	1.49e+00	0	41	104	0	76	16830
2026-01-22 23:02:02.63	21.40	3.80	-52.4	-65.4	3.9	1.49e+00	0	41	104	0	76	16043
2026-01-22 23:02:03.64	21.46	3.86	-52.2	-63.0	4.5	1.39e+00	51	41	0	0	76	12227
2026-01-22 23:02:04.65	21.52	3.92	-52.3	-63.4	4.3	1.22e+00	134	41	0	1048576	76	12706
2026-01-22 23:02:05.66	21.58	3.99	-51.9	-60.3	6.1	7.52e-01	0	41	0	3145728	75	9410
2026-01-22 23:02:06.67	21.63	4.05	-51.7	-59.1	7.0	1.54e-01	0	41	0	5242880	75	8241
2026-01-22 23:02:07.67	21.69	4.11	-51.4	-57.8	8.4	6.74e-02	0	41	0	7340032	74	7499
2026-01-22 23:02:08.68	21.75	4.18	-51.0	-56.5	9.6	1.96e-02	0	41	0	8388608	74	6489
2026-01-22 23:02:09.69	21.81	4.24	-50.6	-55.5	10.8	2.26e-03	0	41	0	10485760	73	6072
2026-01-22 23:02:10.70	21.87	4.30	-50.1	-54.1	12.2	4.84e-04	0	41	0	12582912	72	5526
2026-01-22 23:02:11.71	21.92	4.37	-50.1	-54.1	12.2	4.56e-04	0	41	0	14680064	72	5487
2026-01-22 23:02:12.72	21.98	4.43	-50.0	-53.9	12.5	9.15e-05	0	41	0	16777216	71	5657
2026-01-22 23:02:13.73	22.04	4.50	-49.8	-53.4	13.0	6.79e-05	0	41	0	18874368	71	5372
2026-01-22 23:02:14.73	22.10	4.56	-50.2	-54.2	12.2	2.76e-04	0	41	0	19922944	71	5922
2026-01-22 23:02:15.74	22.16	4.63	-50.3	-54.6	11.7	2.30e-04	0	41	0	22020096	71	6193
2026-01-22 23:02:16.75	22.22	4.69	-50.5	-55.1	11.3	8.12e-04	0	41	0	24117248	71	6496
2026-01-22 23:02:17.76	22.28	4.76	-50.9	-56.1	10.1	3.67e-03	0	41	0	26214400	72	6915
2026-01-22 23:02:18.77	22.34	4.82	-51.3	-57.5	8.7	1.33e-02	0	41	0	28311552	73	7714
2026-01-22 23:02:19.78	22.40	4.89	-51.7	-59.2	7.0	1.02e-01	0	42	0	29360128	73	9310
2026-01-22 23:02:20.79	22.46	4.95	-52.0	-61.3	5.3	4.15e-01	0	41	0	31457280	74	11273
2026-01-22 23:02:21.79	22.52	5.02	-52.2	-63.6	4.3	8.25e-01	76	41	0	33554432	75	13741
2026-01-22 23:02:22.80	22.59	5.08	-50.7	-55.4	10.9	2.24e-01	0	42	0	34603008	73	6014
2026-01-22 23:02:23.81	22.65	5.15	-50.5	-55.0	11.3	2.73e-03	0	41	0	36700160	73	5746
2026-01-22 23:02:24.82	22.71	5.22	-52.4	-66.8	3.8	1.17e-01	0	41	104	37748736	75	19966
2026-01-22 23:02:25.83	22.77	5.28	-52.4	-67.2	3.8	1.49e+00	0	41	104	37748736	75	20863
2026-01-22 23:02:26.83	22.83	5.35	-49.0	-51.7	14.6	7.25e-01	0	42	104	37748736	70	4673
2026-01-22 23:02:27.84	22.90	5.42	-48.8	-51.5	15.1	0.00e+00	0	42	0	38797312	69	4822
2026-01-22 23:02:28.85	22.96	5.48	-48.7	-51.3	15.4	0.00e+00	0	41	0	40894464	69	4715
2026-01-22 23:02:29.86	23.02	5.55	-48.7	-51.4	15.3	0.00e+00	0	41	0	42991616	69	4775
2026-01-22 23:02:30.87	23.09	5.62	-48.3	-50.7	16.0	0.00e+00	0	42	0	45088768	68	4695
2026-01-22 23:02:31.87	23.15	5.68	-48.3	-50.6	16.1	0.00e+00	0	42	0	47185920	68	4630
2026-01-22 23:02:32.88	23.21	5.75	-48.3	-50.7	16.0	0.00e+00	0	42	0	48234496	68	4689
2026-01-22 23:02:33.89	23.28	5.82	-48.4	-50.8	16.0	0.00e+00	0	42	0	50331648	68	4729
2026-01-22 23:02:34.90	23.34	5.88	-48.4	-50.8	15.9	0.00e+00	0	42	0	52428800	68	4739
2026-01-22 23:02:35.91	23.41	5.95	-48.3	-50.7	16.0	0.00e+00	0	42	0	54525952	68	4680
2026-01-22 23:02:36.91	23.47	6.02	-48.2	-50.5	16.3	0.00e+00	0	42	0	56623104	68	4550
2026-01-22 23:02:37.92	23.54	6.09	-48.4	-50.8	16.0	0.00e+00	0	42	0	57671680	68	4708
2026-01-22 23:02:38.93	23.60	6.16	-48.1	-50.3	16.4	0.00e+00	0	42	0	59768832	68	4480
2026-01-22 23:02:39.94	23.67	6.22	-48.1	-50.3	16.5	0.00e+00	0	42	0	61865984	68	4460
2026-01-22 23:02:40.95	23.73	6.29	-48.1	-50.4	16.4	0.00e+00	0	42	0	63963136	68	4507
2026-01-22 23:02:41.95	23.80	6.36	-47.8	-49.9	16.8	0.00e+00	0	42	0	66060288	67	4515
2026-01-22 23:02:42.96	23.87	6.43	-48.0	-50.2	16.5	0.00e+00	0	42	0	67108864	67	4686
2026-01-22 23:02:43.97	23.93	6.50	-47.9	-50.0	16.7	0.00e+00	0	42	0	69206016	67	4591
2026-01-22 23:02:44.98	24.00	6.57	-47.9	-50.0	16.7	0.00e+00	0	42	0	71303168	67	4576
2026-01-22 23:02:45.99	24.07	6.64	-47.6	-49.7	17.0	0.00e+00	0	42	0	73400320	67	4427
2026-01-22 23:02:47.00	24.14	6.71	-47.6	-49.6	17.1	0.00e+00	0	42	0	75497472	67	4354
2026-01-22 23:02:48.01	24.21	6.78	-47.7	-49.8	17.0	0.00e+00	0	42	0	76546048	67	4465
2026-01-22 23:02:49.02	24.27	6.85	-47.6	-49.7	17.1	0.00e+00	0	42	0	78643200	67	4397
2026-01-22 23:02:50.03	24.34	6.92	-47.6	-49.6	17.2	0.00e+00	0	42	0	80740352	67	4362
2026-01-22 23:02:51.03	24.41	6.98	-47.6	-49.6	17.2	0.00e+00	0	42	0	82837504	66	4624
2026-01-22 23:02:52.04	24.48	7.05	-47.5	-49.5	17.3	0.00e+00	0	42	0	84934656	66	4579
2026-01-22 23:02:53.05	24.55	7.13	-47.4	-49.3	17.5	0.00e+00	0	42	0	85983232	66	4475
2026-01-22 23:02:54.06	24.62	7.20	-47.3	-49.2	17.6	0.00e+00	0	42	0	88080384	66	4400
2026-01-22 23:02:55.07	24.69	7.27	-47.4	-49.3	17.5	0.00e+00	0	42	0	90177536	66	4462
2026-01-22 23:02:56.08	24.76	7.34	-47.4	-49.3	17.5	0.00e+00	0	42	0	92274688	66	4490
2026-01-22 23:02:57.09	24.83	7.41	-47.3	-49.2	17.6	0.00e+00	0	42	0	94371840	66	4406
2026-01-22 23:02:58.09	24.91	7.48	-47.3	-49.1	17.7	0.00e+00	0	42	0	96468992	66	4380
2026-01-22 23:02:59.10	24.98	7.55	-47.2	-49.1	17.8	0.00e+00	0	42	0	97517568	66	4347
2026-01-22 23:03:00.11	25.05	7.62	-47.1	-48.9	17.9	0.00e+00	0	42	0	99614720	66	4245
2026-01-22 23:03:01.12	25.12	7.69	-47.4	-49.3	17.6	0.00e+00	0	42	0	101711872	66	4455
2026-01-22 23:03:02.13	25.19	7.76	-47.2	-49.0	17.8	0.00e+00	0	42	0	103809024	66	4339
2026-01-22 23:03:03.14	25.27	7.84	-47.3	-49.2	17.7	0.00e+00	0	42	0	104857600	66	4401
2026-01-22 23:03:04.15	25.34	7.91	-47.3	-49.2	17.7	0.00e+00	0	42	0	106954752	66	4413
2026-01-22 23:03:05.15	25.41	7.98	-47.3	-49.2	17.7	0.00e+00	0	42	0	109051904	66	4399
2026-01-22 23:03:06.16	25.49	8.05	-47.4	-49.3	17.7	0.00e+00	0	42	0	111149056	66	4457
2026-01-22 23:03:07.17	25.56	8.13	-47.5	-49.4	17.5	0.00e+00	0	42	0	113246208	66	4505
2026-01-22 23:03:08.17	25.64	8.20	-47.4	-49.3	17.6	0.00e+00	0	42	0	114294784	66	4466
2026-01-22 23:03:09.18	25.71	8.27	-47.2	-49.1	17.8	0.00e+00	0	42	0	116391936	66	4348
2026-01-22 23:03:10.19	25.79	8.34	-47.3	-49.1	17.8	0.00e+00	0	42	0	118489088	66	4380
2026-01-22 23:03:11.20	25.86	8.42	-47.1	-48.9	18.0	0.00e+00	0	42	0	120586240	66	4276
2026-01-22 23:03:12.21	25.94	8.49	-47.1	-48.8	18.1	0.00e+00	0	42	0	122683392	66	4241
2026-01-22 23:03:13.21	26.02	8.56	-47.1	-48.9	18.0	0.00e+00	0	42	0	124780544	66	4264
2026-01-22 23:03:14.22	26.09	8.64	-47.1	-48.9	18.0	0.00e+00	0	42	0	125829120	66	4284
2026-01-22 23:03:15.23	26.17	8.71	-47.2	-49.0	17.9	0.00e+00	0	42	0	127926272	66	4315
2026-01-22 23:03:16.24	26.25	8.79	-47.1	-48.9	18.0	0.00e+00	0	42	0	130023424	66	4277
2026-01-22 23:03:17.25	26.33	8.86	-47.1	-48.9	18.0	0.00e+00	0	42	0	132120576	66	4261
2026-01-22 23:03:18.26	26.40	8.93	-46.9	-48.6	18.3	0.00e+00	0	42	0	133169152	65	4377
2026-01-22 23:03:19.27	26.48	9.01	-47.0	-48.7	18.2	0.00e+00	0	42	0	135266304	65	4423
2026-01-22 23:03:20.28	26.56	9.08	-46.9	-48.6	18.3	0.00e+00	0	42	0	137363456	65	4375
2026-01-22 23:03:21.29	26.64	9.16	-46.6	-48.3	18.7	0.00e+00	0	42	0	139460608	65	4197
2026-01-22 23:03:22.30	26.72	9.23	-46.8	-48.5	18.5	0.00e+00	0	42	0	141557760	65	4299
2026-01-22 23:03:23.30	26.80	9.31	-46.8	-48.5	18.5	0.00e+00	0	42	0	143654912	65	4310
2026-01-22 23:03:24.31	26.88	9.38	-46.8	-48.4	18.6	0.00e+00	0	42	0	144703488	65	4289
2026-01-22 23:03:25.32	26.96	9.46	-46.6	-48.2	18.8	0.00e+00	0	42	0	146800640	65	4160
2026-01-22 23:03:26.33	27.05	9.54	-46.4	-48.0	19.0	0.00e+00	0	42	0	148897792	64	4293
2026-01-22 23:03:27.34	27.13	9.61	-46.5	-48.1	18.8	0.00e+00	0	42	0	150994944	64	4383
2026-01-22 23:03:28.35	27.21	9.69	-46.3	-47.9	19.1	0.00e+00	0	42	0	153092096	64	4254
2026-01-22 23:03:29.36	27.29	9.77	-46.3	-47.8	19.2	0.00e+00	0	42	0	154140672	64	4239
2026-01-22 23:03:30.37	27.38	9.84	-46.4	-47.9	19.1	0.00e+00	0	42	0	156237824	64	4268
2026-01-22 23:03:31.37	27.46	9.92	-46.1	-47.6	19.4	0.00e+00	0	42	0	158334976	64	4136
2026-01-22 23:03:32.38	27.54	10.00	-46.1	-47.6	19.4	0.00e+00	0	42	0	160432128	64	4137
2026-01-22 23:03:33.39	27.63	10.07	-46.2	-47.7	19.3	0.00e+00	0	42	0	161480704	64	4159
2026-01-22 23:03:34.40	27.71	10.15	-46.3	-47.8	19.2	0.00e+00	0	42	0	163577856	64	4204
2026-01-22 23:03:35.41	27.80	10.23	-46.0	-47.4	19.6	0.00e+00	0	42	0	165675008	63	4259
2026-01-22 23:03:36.42	27.88	10.31	-45.9	-47.3	19.8	0.00e+00	0	42	0	167772160	63	4218
2026-01-22 23:03:37.43	27.97	10.38	-46.0	-47.4	19.7	0.00e+00	0	42	0	169869312	63	4257
2026-01-22 23:03:38.44	28.06	10.46	-45.9	-47.3	19.8	0.00e+00	0	42	0	171966464	63	4204
2026-01-22 23:03:39.45	28.14	10.54	-45.8	-47.2	19.9	0.00e+00	0	42	0	173015040	63	4156
2026-01-22 23:03:40.45	28.23	10.62	-45.9	-47.3	19.8	0.00e+00	0	42	0	175112192	63	4226
2026-01-22 23:03:41.46	28.32	10.70	-46.0	-47.4	19.7	0.00e+00	0	42	0	177209344	63	4260
2026-01-22 23:03:42.47	28.41	10.78	-46.0	-47.4	19.7	0.00e+00	0	42	0	179306496	63	4262
2026-01-22 23:03:43.48	28.49	10.86	-45.9	-47.3	19.8	0.00e+00	0	42	0	181403648	63	4198
2026-01-22 23:03:44.49	28.58	10.94	-45.9	-47.3	19.8	0.00e+00	0	42	0	182452224	63	4209
2026-01-22 23:03:45.49	28.67	11.01	-45.9	-47.3	19.8	0.00e+00	0	42	0	184549376	63	4231
2026-01-22 23:03:46.50	28.76	11.09	-45.8	-47.2	20.0	0.00e+00	0	42	0	186646528	63	4159
2026-01-22 23:03:47.51	28.85	11.17	-45.9	-47.3	19.9	0.00e+00	0	42	0	188743680	63	4209
2026-01-22 23:03:48.52	28.94	11.25	-45.9	-47.4	19.8	0.00e+00	0	42	0	190840832	63	4243
2026-01-22 23:03:49.53	29.04	11.34	-45.8	-47.2	19.9	0.00e+00	0	42	0	191889408	63	4187
2026-01-22 23:03:50.53	29.13	11.42	-45.9	-47.2	19.9	0.00e+00	0	42	0	193986560	63	4192
2026-01-22 23:03:51.54	29.22	11.50	-46.1	-47.5	19.6	0.00e+00	0	42	0	196083712	63	4319
2026-01-22 23:03:52.55	29.31	11.58	-45.9	-47.3	19.9	0.00e+00	0	42	0	198180864	63	4197
2026-01-22 23:03:53.56	29.41	11.66	-45.7	-47.1	20.0	0.00e+00	0	42	0	200278016	63	4108
2026-01-22 23:03:54.57	29.50	11.74	-45.7	-47.1	20.0	0.00e+00	0	42	0	201326592	63	4128
2026-01-22 23:03:55.57	29.59	11.82	-45.7	-47.1	20.0	0.00e+00	0	42	0	203423744	63	4121
2026-01-22 23:03:56.58	29.69	11.90	-45.7	-47.0	20.1	0.00e+00	0	42	0	205520896	63	4094
2026-01-22 23:03:57.59	29.78	11.98	-45.9	-47.3	20.0	0.00e+00	0	42	0	207618048	63	4202
2026-01-22 23:03:58.60	29.88	12.07	-45.6	-46.9	20.2	0.00e+00	0	42	0	209715200	63	4032
2026-01-22 23:03:59.61	29.98	12.15	-45.7	-47.1	20.1	0.00e+00	0	42	0	211812352	63	4120
2026-01-22 23:04:00.62	30.07	12.23	-45.7	-47.1	20.1	0.00e+00	0	42	0	212860928	63	4108
2026-01-22 23:04:01.63	30.17	12.32	-45.8	-47.2	20.0	0.00e+00	0	42	0	214958080	63	4169
2026-01-22 23:04:02.63	30.27	12.40	-45.7	-47.0	20.2	0.00e+00	0	42	0	217055232	63	4093
2026-01-22 23:04:03.64	30.37	12.48	-45.8	-47.1	20.1	0.00e+00	0	42	0	219152384	63	4138
2026-01-22 23:04:04.65	30.47	12.56	-45.7	-47.0	20.2	0.00e+00	0	42	0	220200960	63	4082
2026-01-22 23:04:05.66	30.57	12.65	-45.8	-47.1	20.1	0.00e+00	0	42	0	222298112	63	4131
2026-01-22 23:04:06.66	30.66	12.73	-45.6	-46.9	20.3	0.00e+00	0	42	0	224395264	63	4038
2026-01-22 23:04:07.68	30.77	12.82	-45.6	-47.0	20.2	0.00e+00	0	42	0	226492416	63	4052
2026-01-22 23:04:08.68	30.87	12.90	-45.8	-47.2	20.1	0.00e+00	0	42	0	228589568	63	4149
2026-01-22 23:04:09.69	30.97	12.99	-45.7	-47.0	20.2	0.00e+00	0	42	0	230686720	63	4095
2026-01-22 23:04:10.70	31.07	13.07	-45.7	-47.0	20.2	0.00e+00	0	42	0	231735296	63	4080
2026-01-22 23:04:11.71	31.17	13.16	-45.6	-46.9	20.3	0.00e+00	0	42	0	233832448	63	4023
2026-01-22 23:04:12.72	31.28	13.24	-45.5	-46.8	20.4	0.00e+00	0	43	0	235929600	63	3982
2026-01-22 23:04:13.73	31.38	13.33	-45.6	-46.9	20.4	0.00e+00	0	42	0	238026752	62	4257
2026-01-22 23:04:14.74	31.49	13.41	-45.6	-46.9	20.4	0.00e+00	0	42	0	240123904	62	4258
2026-01-22 23:04:15.75	31.59	13.50	-45.5	-46.9	20.4	0.00e+00	0	42	0	241172480	62	4246
2026-01-22 23:04:16.76	31.70	13.58	-45.4	-46.7	20.5	0.00e+00	0	42	0	243269632	62	4168
2026-01-22 23:04:17.76	31.80	13.67	-45.5	-46.8	20.5	0.00e+00	0	42	0	245366784	62	4200
2026-01-22 23:04:18.77	31.91	13.76	-45.4	-46.7	20.6	0.00e+00	0	42	0	247463936	62	4171
2026-01-22 23:04:19.78	32.02	13.84	-45.4	-46.7	20.5	0.00e+00	0	42	0	248512512	62	4174
2026-01-22 23:04:20.79	32.13	13.93	-45.4	-46.6	20.6	0.00e+00	0	42	0	250609664	62	4142
2026-01-22 23:04:21.79	32.23	14.02	-45.5	-46.8	20.5	0.00e+00	0	42	0	252706816	62	4221
2026-01-22 23:04:22.80	32.34	14.10	-45.5	-46.8	20.5	0.00e+00	0	42	0	254803968	62	4207
2026-01-22 23:04:23.81	32.45	14.19	-45.5	-46.8	20.5	0.00e+00	0	42	0	256901120	62	4202
2026-01-22 23:04:24.82	32.56	14.28	-45.4	-46.7	20.6	0.00e+00	0	43	0	258998272	62	4162
2026-01-22 23:04:25.83	32.67	14.37	-45.5	-46.8	20.5	0.00e+00	0	42	0	260046848	62	4217
2026-01-22 23:04:26.83	32.79	14.46	-45.4	-46.7	20.5	0.00e+00	0	43	0	262144000	62	4189
2026-01-22 23:04:27.84	32.90	14.54	-45.5	-46.8	20.4	0.00e+00	0	42	0	264241152	62	4218
2026-01-22 23:04:28.85	33.01	14.63	-45.6	-46.9	20.4	0.00e+00	0	43	0	266338304	62	4280
2026-01-22 23:04:29.86	33.12	14.72	-45.7	-47.0	20.3	0.00e+00	0	42	0	268435456	62	4309
2026-01-22 23:04:30.87	33.24	14.81	-45.7	-47.1	20.2	0.00e+00	0	42	0	269484032	62	4350
2026-01-22 23:04:31.88	33.35	14.90	-45.7	-47.0	20.3	0.00e+00	0	43	0	271581184	62	4325
2026-01-22 23:04:32.89	33.47	14.99	-45.8	-47.2	20.2	0.00e+00	0	42	0	273678336	62	4396
2026-01-22 23:04:33.89	33.59	15.08	-45.9	-47.3	20.0	0.00e+00	0	42	0	275775488	62	4444
2026-01-22 23:04:34.90	33.70	15.17	-45.9	-47.3	20.0	0.00e+00	0	42	0	277872640	62	4469
2026-01-22 23:04:35.91	33.82	15.26	-46.0	-47.4	19.9	0.00e+00	0	43	0	278921216	62	4509
2026-01-22 23:04:36.92	33.94	15.35	-46.1	-47.5	19.8	0.00e+00	0	43	0	281018368	62	4576
2026-01-22 23:04:37.93	34.06	15.44	-46.1	-47.5	19.9	0.00e+00	0	42	0	283115520	62	4552
2026-01-22 23:04:38.93	34.18	15.53	-46.2	-47.6	19.7	0.00e+00	0	42	0	285212672	62	4617
2026-01-22 23:04:39.94	34.30	15.62	-46.3	-47.7	19.7	0.00e+00	0	43	0	287309824	63	4415
2026-01-22 23:04:40.95	34.42	15.72	-46.3	-47.7	19.6	0.00e+00	0	43	0	288358400	63	4438
2026-01-22 23:04:41.96	34.54	15.81	-46.4	-47.9	19.5	0.00e+00	0	43	0	290455552	63	4496
2026-01-22 23:04:42.97	34.66	15.90	-46.4	-47.9	19.4	0.00e+00	0	42	0	292552704	63	4524
2026-01-22 23:04:43.97	34.79	15.99	-46.5	-48.0	19.4	0.00e+00	0	42	0	294649856	63	4567
2026-01-22 23:04:44.98	34.91	16.08	-46.5	-48.0	19.4	0.00e+00	0	43	0	296747008	63	4577
2026-01-22 23:04:45.99	35.04	16.18	-46.6	-48.1	19.3	0.00e+00	0	43	0	297795584	63	4615
2026-01-22 23:04:47.00	35.16	16.27	-46.3	-47.8	19.6	0.00e+00	0	43	0	299892736	63	4469
2026-01-22 23:04:48.01	35.29	16.36	-46.3	-47.8	19.6	0.00e+00	0	43	0	301989888	63	4455
2026-01-22 23:04:49.01	35.41	16.45	-46.5	-48.0	19.4	0.00e+00	0	43	0	304087040	63	4568
2026-01-22 23:04:50.02	35.54	16.55	-46.5	-48.0	19.4	0.00e+00	0	43	0	306184192	63	4576
2026-01-22 23:04:51.03	35.67	16.64	-46.3	-47.7	19.6	0.00e+00	0	43	0	307232768	63	4431
2026-01-22 23:04:52.04	35.80	16.74	-46.2	-47.6	19.8	0.00e+00	0	43	0	309329920	63	4347
2026-01-22 23:04:53.05	35.93	16.83	-46.2	-47.6	19.8	0.00e+00	0	43	0	311427072	63	4350
2026-01-22 23:04:54.06	36.06	16.93	-46.2	-47.7	19.7	0.00e+00	0	43	0	313524224	63	4395
2026-01-22 23:04:55.07	36.19	17.02	-46.2	-47.6	19.8	0.00e+00	0	43	0	315621376	63	4376
2026-01-22 23:04:56.07	36.32	17.11	-46.3	-47.7	19.7	0.00e+00	0	43	0	316669952	63	4404
2026-01-22 23:04:57.08	36.46	17.21	-46.4	-47.8	19.6	0.00e+00	0	43	0	318767104	63	4466
2026-01-22 23:04:58.09	36.59	17.30	-46.5	-48.0	19.4	0.00e+00	0	43	0	320864256	63	4551
2026-01-22 23:04:59.10	36.73	17.40	-46.5	-48.0	19.4	0.00e+00	0	43	0	322961408	63	4551
2026-01-22 23:05:00.10	36.86	17.50	-46.5	-48.0	19.4	0.00e+00	0	43	0	325058560	63	4591
2026-01-22 23:05:01.11	37.00	17.59	-46.5	-48.0	19.4	0.00e+00	0	43	0	326107136	63	4569
2026-01-22 23:05:02.12	37.14	17.69	-46.5	-48.0	19.4	0.00e+00	0	43	0	328204288	63	4561
2026-01-22 23:05:03.13	37.28	17.78	-46.5	-47.9	19.5	0.00e+00	0	43	0	330301440	63	4540
2026-01-22 23:05:04.14	37.41	17.88	-46.4	-47.9	19.6	0.00e+00	0	43	0	332398592	63	4511
2026-01-22 23:05:05.15	37.55	17.98	-46.4	-47.9	19.5	0.00e+00	0	43	0	334495744	63	4526
2026-01-22 23:05:06.15	37.69	18.07	-46.4	-47.9	19.5	0.00e+00	0	43	0	335544320	63	4509
2026-01-22 23:05:07.16	37.84	18.17	-46.5	-48.0	19.4	0.00e+00	0	43	0	337641472	63	4580
2026-01-22 23:05:08.17	37.98	18.27	-46.5	-47.9	19.5	0.00e+00	0	43	0	339738624	63	4529
2026-01-22 23:05:09.18	38.12	18.37	-46.5	-48.0	19.4	0.00e+00	0	43	0	341835776	63	4585
2026-01-22 23:05:10.19	38.27	18.47	-46.6	-48.0	19.4	0.00e+00	0	43	0	343932928	63	4593
2026-01-22 23:05:11.19	38.41	18.56	-46.6	-48.1	19.3	0.00e+00	0	43	0	346030080	63	4648
2026-01-22 23:05:12.20	38.56	18.66	-46.7	-48.3	19.2	0.00e+00	0	43	0	347078656	63	4722
2026-01-22 23:05:13.21	38.71	18.76	-46.6	-48.2	19.2	0.00e+00	0	43	0	349175808	64	4394
2026-01-22 23:05:14.22	38.85	18.86	-46.6	-48.1	19.2	0.00e+00	0	43	0	351272960	64	4384
2026-01-22 23:05:15.23	39.00	18.96	-46.4	-47.9	19.5	0.00e+00	0	43	0	353370112	64	4279
2026-01-22 23:05:16.23	39.15	19.06	-46.4	-47.9	19.5	0.00e+00	0	43	0	354418688	64	4246
2026-01-22 23:05:17.24	39.30	19.16	-46.3	-47.7	19.7	0.00e+00	0	43	0	356515840	64	4163
2026-01-22 23:05:18.25	39.45	19.26	-46.2	-47.6	19.8	0.00e+00	0	43	0	358612992	64	4130
2026-01-22 23:05:19.25	39.61	19.36	-46.1	-47.5	19.8	0.00e+00	0	43	0	360710144	64	4086
2026-01-22 23:05:20.26	39.76	19.46	-46.1	-47.5	19.9	0.00e+00	0	43	0	362807296	64	4069
2026-01-22 23:05:21.27	39.91	19.56	-46.0	-47.4	20.0	0.00e+00	0	43	0	363855872	63	4265
2026-01-22 23:05:22.28	40.07	19.66	-46.1	-47.5	20.0	0.00e+00	0	43	0	365953024	63	4304
2026-01-22 23:05:23.29	40.23	19.76	-46.1	-47.5	19.9	0.00e+00	0	43	0	368050176	63	4330
2026-01-22 23:05:24.30	40.39	19.86	-46.2	-47.6	19.9	0.00e+00	0	43	0	370147328	63	4344
2026-01-22 23:05:25.31	40.54	19.96	-46.2	-47.7	19.8	0.00e+00	0	43	0	372244480	63	4400
2026-01-22 23:05:26.31	40.70	20.06	-46.3	-47.7	19.8	0.00e+00	0	43	0	374341632	63	4403
2026-01-22 23:05:27.32	40.86	20.16	-46.2	-47.6	19.8	0.00e+00	0	43	0	375390208	63	4391
2026-01-22 23:05:28.33	41.03	20.27	-46.2	-47.6	19.9	0.00e+00	0	43	0	377487360	63	4383
2026-01-22 23:05:29.34	41.19	20.37	-46.2	-47.6	19.8	0.00e+00	0	43	0	379584512	63	4385
2026-01-22 23:05:30.35	41.35	20.47	-46.3	-47.7	19.8	0.00e+00	0	43	0	381681664	63	4409
2026-01-22 23:05:31.36	41.52	20.57	-46.0	-47.3	20.1	0.00e+00	0	43	0	382730240	63	4226
2026-01-22 23:05:32.37	41.68	20.68	-45.7	-47.0	20.4	0.00e+00	0	43	0	384827392	63	4073
2026-01-22 23:05:33.37	41.85	20.78	-45.7	-47.0	20.5	0.00e+00	0	43	0	386924544	63	4060
2026-01-22 23:05:34.38	42.02	20.88	-45.4	-46.7	20.8	0.00e+00	0	43	0	389021696	62	4146
2026-01-22 23:05:35.39	42.19	20.98	-45.3	-46.6	20.9	0.00e+00	0	43	0	391118848	62	4104
2026-01-22 23:05:36.40	42.36	21.09	-45.4	-46.6	20.8	0.00e+00	0	43	0	393216000	62	4122
2026-01-22 23:05:37.41	42.53	21.19	-45.4	-46.7	20.8	0.00e+00	0	43	0	394264576	62	4146
2026-01-22 23:05:38.42	42.70	21.29	-45.5	-46.7	20.7	0.00e+00	0	43	0	396361728	62	4181
2026-01-22 23:05:39.43	42.88	21.40	-45.6	-46.9	20.6	0.00e+00	0	43	0	398458880	62	4253
2026-01-22 23:05:40.43	43.05	21.50	-45.5	-46.8	20.7	0.00e+00	0	43	0	400556032	62	4211
2026-01-22 23:05:41.44	43.23	21.61	-45.3	-46.5	21.0	0.00e+00	0	43	0	402653184	62	4082
2026-01-22 23:05:42.45	43.40	21.71	-45.2	-46.5	21.0	0.00e+00	0	43	0	403701760	62	4052
2026-01-22 23:05:43.46	43.58	21.81	-44.9	-46.1	21.3	0.00e+00	0	43	0	405798912	61	4107
2026-01-22 23:05:44.47	43.76	21.92	-44.8	-45.9	21.5	0.00e+00	0	43	0	407896064	61	4025
2026-01-22 23:05:45.48	43.94	22.02	-44.7	-45.9	21.5	0.00e+00	0	43	0	409993216	61	4009
2026-01-22 23:05:46.49	44.13	22.13	-44.5	-45.6	21.8	0.00e+00	0	43	0	411041792	61	3908
2026-01-22 23:05:47.49	44.31	22.23	-44.6	-45.7	21.7	0.00e+00	0	43	0	413138944	61	3940
2026-01-22 23:05:48.50	44.49	22.34	-44.6	-45.7	21.7	0.00e+00	0	43	0	415236096	61	3952
2026-01-22 23:05:49.51	44.68	22.44	-44.7	-45.8	21.6	0.00e+00	0	43	0	417333248	61	3997
2026-01-22 23:05:50.52	44.86	22.55	-44.6	-45.7	21.7	0.00e+00	0	43	0	419430400	61	3927
2026-01-22 23:05:51.53	45.05	22.66	-44.6	-45.7	21.7	0.00e+00	0	43	0	421527552	61	3939
2026-01-22 23:05:52.53	45.24	22.76	-44.6	-45.7	21.7	0.00e+00	0	43	0	422576128	61	3948
2026-01-22 23:05:53.54	45.43	22.87	-44.6	-45.7	21.7	0.00e+00	0	43	0	424673280	61	3930
2026-01-22 23:05:54.55	45.62	22.97	-44.5	-45.6	21.8	0.00e+00	0	43	0	426770432	60	4124
2026-01-22 23:05:55.56	45.82	23.08	-44.5	-45.6	21.8	0.00e+00	0	43	0	428867584	60	4133
2026-01-22 23:05:56.56	46.01	23.18	-44.3	-45.3	22.1	0.00e+00	0	43	0	430964736	60	3993
2026-01-22 23:05:57.57	46.21	23.29	-44.1	-45.1	22.3	0.00e+00	0	43	0	432013312	60	3893
2026-01-22 23:05:58.58	46.40	23.40	-44.0	-45.0	22.3	0.00e+00	0	43	0	434110464	60	3865
2026-01-22 23:05:59.59	46.60	23.50	-44.2	-45.2	22.5	0.00e+00	0	43	0	436207616	59	4188
2026-01-22 23:06:00.60	46.80	23.61	-44.2	-45.3	22.4	0.00e+00	0	43	0	438304768	59	4207
2026-01-22 23:06:01.61	47.00	23.72	-44.2	-45.2	22.5	0.00e+00	0	43	0	440401920	59	4191
2026-01-22 23:06:02.61	47.20	23.82	-44.1	-45.2	22.5	0.00e+00	0	43	0	441450496	59	4158
2026-01-22 23:06:03.62	47.41	23.93	-44.1	-45.1	22.6	0.00e+00	0	43	0	443547648	59	4135
2026-01-22 23:06:04.63	47.61	24.04	-44.2	-45.2	22.5	0.00e+00	0	43	0	445644800	59	4173
2026-01-22 23:06:05.64	47.82	24.14	-44.2	-45.2	22.5	0.00e+00	0	43	0	447741952	59	4177
2026-01-22 23:06:06.65	48.03	24.25	-44.3	-45.4	22.4	0.00e+00	0	43	0	449839104	59	4251
2026-01-22 23:06:07.65	48.23	24.36	-44.3	-45.3	22.4	0.00e+00	0	43	0	450887680	59	4234
2026-01-22 23:06:08.66	48.44	24.46	-44.3	-45.3	22.4	0.00e+00	0	43	0	452984832	59	4241
2026-01-22 23:06:09.67	48.66	24.57	-44.4	-45.5	22.2	0.00e+00	0	43	0	455081984	59	4317
2026-01-22 23:06:10.68	48.87	24.68	-44.4	-45.5	22.2	0.00e+00	0	43	0	457179136	59	4313
2026-01-22 23:06:11.69	49.08	24.79	-44.6	-45.6	22.1	0.00e+00	0	43	0	459276288	59	4387
2026-01-22 23:06:12.69	49.30	24.89	-44.4	-45.5	21.9	0.00e+00	0	43	0	461373440	60	4064
2026-01-22 23:06:13.70	49.52	25.00	-44.4	-45.5	22.0	0.00e+00	0	43	0	462422016	60	4071
2026-01-22 23:06:14.71	49.74	25.11	-44.4	-45.5	22.0	0.00e+00	0	43	0	464519168	60	4053
2026-01-22 23:06:15.72	49.96	25.22	-44.4	-45.5	22.0	0.00e+00	0	43	0	466616320	60	4071
2026-01-22 23:06:16.73	50.18	25.32	-44.4	-45.5	21.9	0.00e+00	0	43	0	468713472	60	4097
2026-01-22 23:06:17.73	50.40	25.43	-44.4	-45.5	22.0	0.00e+00	0	43	0	469762048	60	4059
2026-01-22 23:06:18.74	50.63	25.54	-44.4	-45.6	21.8	0.00e+00	0	43	0	471859200	60	4132
2026-01-22 23:06:19.75	50.85	25.64	-44.2	-45.6	21.9	0.00e+00	0	43	0	473956352	60	4116
2026-01-22 23:06:20.76	51.08	25.75	-44.1	-45.7	21.7	0.00e+00	0	43	0	476053504	60	4190
2026-01-22 23:06:21.76	51.31	25.86	-44.0	-45.9	21.5	0.00e+00	0	43	0	478150656	60	4285
2026-01-22 23:06:22.77	51.54	25.97	-44.5	-46.4	21.3	0.00e+00	0	43	0	479199232	59	4808
2026-01-22 23:06:23.78	51.77	26.07	-44.5	-46.2	21.2	0.00e+00	0	43	0	481296384	60	4400
2026-01-22 23:06:24.79	52.01	26.18	-45.0	-46.4	21.1	0.00e+00	0	43	0	483393536	60	4512
2026-01-22 23:06:25.80	52.24	26.29	-45.3	-46.6	20.9	0.00e+00	0	43	0	485490688	61	4354
2026-01-22 23:06:26.81	52.48	26.39	-45.5	-46.8	20.8	0.00e+00	0	43	0	487587840	61	4457
2026-01-22 23:06:27.81	52.72	26.50	-45.6	-46.9	20.7	0.00e+00	0	43	0	489684992	61	4502
2026-01-22 23:06:28.82	52.96	26.61	-45.8	-47.0	20.6	0.00e+00	0	43	0	490733568	62	4337
2026-01-22 23:06:29.83	53.20	26.71	-45.8	-47.1	20.5	0.00e+00	0	43	0	492830720	62	4357
2026-01-22 23:06:30.84	53.44	26.82	-45.9	-47.2	20.5	0.00e+00	0	43	0	494927872	62	4396
2026-01-22 23:06:31.85	53.69	26.93	-46.0	-47.3	20.3	0.00e+00	0	43	0	497025024	62	4468
2026-01-22 23:06:32.85	53.93	27.03	-46.2	-47.5	20.1	0.00e+00	0	43	0	498073600	62	4582
2026-01-22 23:06:33.86	54.18	27.14	-46.4	-47.8	19.9	0.00e+00	0	43	0	500170752	63	4451
2026-01-22 23:06:34.87	54.43	27.24	-46.5	-48.0	19.7	0.00e+00	0	43	0	502267904	63	4562
2026-01-22 23:06:35.88	54.68	27.35	-46.6	-48.1	19.5	0.00e+00	0	43	0	504365056	64	4350
2026-01-22 23:06:36.89	54.94	27.46	-46.7	-48.2	19.4	0.00e+00	0	43	0	506462208	64	4392
2026-01-22 23:06:37.89	55.19	27.56	-46.8	-48.3	19.2	0.00e+00	0	43	0	508559360	64	4457
2026-01-22 23:06:38.90	55.45	27.67	-46.8	-48.3	19.3	0.00e+00	0	43	0	509607936	64	4489
2026-01-22 23:06:39.91	55.70	27.77	-46.7	-48.2	19.3	0.00e+00	0	43	0	511705088	64	4438
2026-01-22 23:06:40.92	55.96	27.88	-46.7	-48.2	19.4	0.00e+00	0	43	0	513802240	64	4400
2026-01-22 23:06:41.93	56.23	27.98	-46.6	-48.1	19.4	0.00e+00	0	43	0	515899392	64	4375
2026-01-22 23:06:42.93	56.49	28.08	-46.7	-48.2	19.4	0.00e+00	0	43	0	517996544	64	4411
2026-01-22 23:06:43.94	56.75	28.19	-46.8	-48.3	19.3	0.00e+00	0	43	0	519045120	64	4463
2026-01-22 23:06:44.95	57.02	28.29	-46.8	-48.3	19.3	0.00e+00	0	43	0	521142272	64	4480
2026-01-22 23:06:45.96	57.29	28.40	-46.8	-48.4	19.2	0.00e+00	0	43	0	523239424	64	4506
2026-01-22 23:06:46.97	57.56	28.50	-46.9	-48.5	19.1	0.00e+00	0	43	0	525336576	64	4551
2026-01-22 23:06:47.97	57.83	28.60	-47.1	-48.6	19.0	0.00e+00	0	43	0	526385152	64	4639
2026-01-22 23:06:48.98	58.10	28.71	-47.2	-48.8	18.8	0.00e+00	0	43	0	528482304	65	4464
2026-01-22 23:06:49.99	58.38	28.81	-47.6	-49.3	18.4	0.00e+00	0	43	0	530579456	65	4722
2026-01-22 23:06:51.00	58.65	28.91	-48.1	-49.9	17.7	0.00e+00	0	43	0	532676608	66	4809
2026-01-22 23:06:52.01	58.93	29.01	-48.6	-50.6	17.1	0.00e+00	0	43	0	534773760	67	4924
2026-01-22 23:06:53.01	59.21	29.11	-49.0	-51.2	16.6	0.00e+00	0	43	0	536870912	68	4953
2026-01-22 23:06:54.02	59.49	29.21	-48.9	-51.1	16.6	0.00e+00	0	43	0	537919488	68	4895
2026-01-22 23:06:55.03	59.78	29.31	-48.9	-51.1	16.7	0.00e+00	0	43	0	540016640	68	4892
2026-01-22 23:06:56.04	60.06	29.42	-48.6	-50.6	17.2	0.00e+00	0	43	0	542113792	68	4625
2026-01-22 23:06:57.05	60.35	29.52	-48.4	-50.4	17.4	0.00e+00	0	43	0	544210944	68	4511
2026-01-22 23:06:58.05	60.63	29.61	-48.3	-50.2	17.5	0.00e+00	0	43	0	546308096	68	4425
2026-01-22 23:06:59.06	60.93	29.71	-48.5	-50.5	17.3	0.00e+00	0	43	0	547356672	68	4561
2026-01-22 23:07:00.07	61.22	29.81	-48.9	-51.1	16.7	0.00e+00	0	43	0	549453824	68	4888
2026-01-22 23:07:01.08	61.51	29.91	-49.4	-51.9	16.0	0.00e+00	0	43	0	551550976	69	5064
2026-01-22 23:07:02.09	61.81	30.01	-49.6	-52.1	15.7	0.00e+00	0	43	0	553648128	69	5202
2026-01-22 23:07:03.09	62.10	30.10	-49.8	-52.5	15.3	0.00e+00	0	43	0	555745280	70	5128
2026-01-22 23:07:04.10	62.40	30.20	-49.7	-52.2	15.6	0.00e+00	0	43	0	556793856	70	4963
2026-01-22 23:07:05.11	62.71	30.30	-49.4	-51.8	16.0	0.00e+00	0	43	0	558891008	70	4717
2026-01-22 23:07:06.12	63.01	30.39	-49.3	-51.6	16.1	0.00e+00	0	43	0	560988160	70	4635
2026-01-22 23:07:07.13	63.32	30.49	-49.0	-51.2	16.5	0.00e+00	0	43	0	563085312	70	4419
2026-01-22 23:07:08.13	63.62	30.58	-48.8	-51.0	16.9	0.00e+00	0	43	0	565182464	69	4557
2026-01-22 23:07:09.14	63.93	30.68	-49.0	-51.2	16.6	0.00e+00	0	43	0	566231040	69	4657
2026-01-22 23:07:10.15	64.24	30.77	-48.9	-51.0	16.7	0.00e+00	0	43	0	568328192	69	4582
2026-01-22 23:07:11.16	64.55	30.86	-49.0	-51.3	16.6	0.00e+00	0	43	0	570425344	69	4729
2026-01-22 23:07:12.16	64.86	30.95	-49.2	-51.5	16.3	0.00e+00	0	43	0	572522496	69	4836
2026-01-22 23:07:13.17	65.18	31.04	-48.9	-51.1	16.7	0.00e+00	0	43	0	574619648	69	4608
2026-01-22 23:07:14.18	65.49	31.14	-48.7	-50.8	17.0	0.00e+00	0	43	0	575668224	69	4457
2026-01-22 23:07:15.19	65.81	31.23	-48.5	-50.4	17.3	0.00e+00	0	43	0	577765376	68	4537
2026-01-22 23:07:16.20	66.13	31.32	-47.9	-49.6	18.0	0.00e+00	0	43	0	579862528	67	4377
2026-01-22 23:07:17.21	66.46	31.40	-47.7	-49.4	18.2	0.00e+00	0	43	0	581959680	67	4261
2026-01-22 23:07:18.21	66.78	31.49	-47.5	-49.2	18.5	0.00e+00	0	43	0	584056832	66	4397
2026-01-22 23:07:19.22	67.11	31.58	-47.4	-49.1	18.6	0.00e+00	0	43	0	585105408	66	4365
2026-01-22 23:07:20.23	67.43	31.67	-47.4	-49.0	18.7	0.00e+00	0	43	0	587202560	66	4335
2026-01-22 23:07:21.24	67.76	31.75	-47.3	-48.9	18.8	0.00e+00	0	43	0	589299712	66	4258
2026-01-22 23:07:22.25	68.09	31.84	-47.3	-48.9	18.7	0.00e+00	0	43	0	591396864	66	4282
2026-01-22 23:07:23.25	68.42	31.92	-47.1	-48.7	19.0	0.00e+00	0	43	0	593494016	66	4169
2026-01-22 23:07:24.26	68.76	32.00	-47.0	-48.5	19.0	0.00e+00	0	43	0	594542592	65	4326
2026-01-22 23:07:25.27	69.10	32.09	-46.9	-48.4	19.2	0.00e+00	0	43	0	596639744	65	4285
2026-01-22 23:07:26.28	69.43	32.17	-47.0	-48.5	19.2	0.00e+00	0	43	0	598736896	65	4320
2026-01-22 23:07:27.29	69.77	32.25	-47.2	-48.8	18.9	0.00e+00	0	43	0	600834048	65	4460
2026-01-22 23:07:28.29	70.11	32.33	-47.3	-48.9	18.8	0.00e+00	0	43	0	602931200	65	4502
2026-01-22 23:07:29.30	70.45	32.41	-47.2	-48.8	18.9	0.00e+00	0	43	0	605028352	65	4490
2026-01-22 23:07:30.31	70.80	32.49	-47.1	-48.6	19.0	0.00e+00	0	43	0	606076928	65	4372
2026-01-22 23:07:31.32	71.15	32.56	-46.9	-48.4	19.3	0.00e+00	0	43	0	608174080	65	4259
2026-01-22 23:07:32.32	71.49	32.64	-46.8	-48.2	19.4	0.00e+00	0	43	0	610271232	65	4188
2026-01-22 23:07:33.33	71.84	32.72	-46.6	-48.0	19.6	0.00e+00	0	43	0	612368384	65	4098
2026-01-22 23:07:34.34	72.19	32.79	-46.5	-48.0	19.7	0.00e+00	0	43	0	613416960	64	4299
2026-01-22 23:07:35.35	72.54	32.86	-46.5	-47.9	19.8	0.00e+00	0	43	0	615514112	64	4254
2026-01-22 23:07:36.36	72.90	32.94	-46.6	-48.1	19.6	0.00e+00	0	43	0	617611264	64	4344
2026-01-22 23:07:37.37	73.26	33.01	-46.9	-48.4	19.3	0.00e+00	0	43	0	619708416	64	4528
2026-01-22 23:07:38.37	73.61	33.08	-47.0	-48.6	19.1	0.00e+00	0	43	0	621805568	64	4624
2026-01-22 23:07:39.38	73.97	33.15	-47.2	-48.8	18.8	0.00e+00	0	43	0	622854144	64	4746
2026-01-22 23:07:40.39	74.33	33.22	-47.3	-48.9	18.7	0.00e+00	0	43	0	624951296	65	4517
2026-01-22 23:07:41.40	74.69	33.28	-47.3	-48.9	18.8	0.00e+00	0	43	0	627048448	65	4514
2026-01-22 23:07:42.41	75.05	33.35	-47.3	-49.0	18.7	0.00e+00	0	43	0	629145600	65	4551
2026-01-22 23:07:43.41	75.42	33.41	-47.4	-49.1	18.6	0.00e+00	0	43	0	631242752	65	4600
2026-01-22 23:07:44.42	75.78	33.48	-47.6	-49.3	18.4	0.00e+00	0	43	0	633339904	65	4720
2026-01-22 23:07:45.43	76.15	33.54	-48.2	-50.0	17.8	0.00e+00	0	43	0	634388480	66	4869
2026-01-22 23:07:46.44	76.52	33.60	-48.4	-50.4	17.3	0.00e+00	0	43	0	636485632	67	4804
2026-01-22 23:07:47.45	76.89	33.66	-49.0	-51.3	16.5	0.00e+00	0	43	0	638582784	68	4989
2026-01-22 23:07:48.45	77.26	33.72	-49.3	-51.7	16.1	0.00e+00	0	43	0	640679936	69	4940
2026-01-22 23:07:49.46	77.63	33.78	-49.3	-51.7	16.1	0.00e+00	0	43	0	641728512	69	4952
2026-01-22 23:07:50.47	78.01	33.84	-49.0	-51.3	16.5	0.00e+00	0	43	0	643825664	69	4708
2026-01-22 23:07:51.48	78.38	33.89	-48.4	-50.3	17.4	0.00e+00	0	43	0	645922816	68	4485
2026-01-22 23:07:52.49	78.76	33.95	-48.1	-49.9	17.9	0.00e+00	0	43	0	648019968	68	4252
2026-01-22 23:07:53.49	79.13	34.00	-48.0	-49.8	17.8	0.00e+00	0	43	0	650117120	67	4477
2026-01-22 23:07:54.50	79.51	34.05	-48.0	-49.9	17.8	0.00e+00	0	43	0	652214272	67	4512
2026-01-22 23:07:55.51	79.89	34.10	-48.4	-50.3	17.4	0.00e+00	0	43	0	653262848	67	4748
2026-01-22 23:07:56.52	80.28	34.15	-48.8	-50.9	16.9	0.00e+00	0	43	0	655360000	68	4791
2026-01-22 23:07:57.52	80.65	34.20	-48.8	-51.0	16.9	0.00e+00	0	43	0	657457152	68	4823
2026-01-22 23:07:58.53	81.04	34.24	-48.6	-50.6	17.2	0.00e+00	0	43	0	659554304	68	4642
2026-01-22 23:07:59.54	81.42	34.29	-48.2	-50.1	17.8	0.00e+00	0	43	0	661651456	68	4365
2026-01-22 23:08:00.55	81.81	34.33	-47.6	-49.2	18.4	0.00e+00	0	43	0	662700032	67	4183
2026-01-22 23:08:01.56	82.20	34.38	-47.2	-48.8	18.9	0.00e+00	0	43	0	664797184	66	4214
2026-01-22 23:08:02.57	82.59	34.42	-47.1	-48.6	19.1	0.00e+00	0	43	0	666894336	66	4116
2026-01-22 23:08:03.57	82.97	34.46	-47.2	-48.8	18.9	0.00e+00	0	43	0	668991488	66	4210
2026-01-22 23:08:04.58	83.36	34.49	-47.7	-49.4	18.3	0.00e+00	0	43	0	670040064	66	4519
2026-01-22 23:08:05.59	83.75	34.53	-48.0	-49.8	17.9	0.00e+00	0	43	0	672137216	66	4731
2026-01-22 23:08:06.60	84.14	34.57	-48.2	-50.2	17.6	0.00e+00	0	43	0	674234368	67	4658
2026-01-22 23:08:07.61	84.54	34.60	-48.0	-49.9	17.8	0.00e+00	0	43	0	676331520	67	4514
2026-01-22 23:08:08.61	84.93	34.63	-47.8	-49.5	18.2	0.00e+00	0	43	0	678428672	67	4338
2026-01-22 23:08:09.62	85.32	34.66	-47.8	-49.6	18.2	0.00e+00	0	43	0	680525824	67	4344
2026-01-22 23:08:10.63	85.72	34.69	-47.8	-49.6	18.2	0.00e+00	0	43	0	681574400	67	4356
2026-01-22 23:08:11.64	86.11	34.72	-47.8	-49.6	18.2	0.00e+00	0	43	0	683671552	67	4367
2026-01-22 23:08:12.65	86.51	34.75	-47.9	-49.7	18.0	0.00e+00	0	43	0	685768704	67	4438
2026-01-22 23:08:13.65	86.90	34.78	-47.9	-49.7	18.0	0.00e+00	0	43	0	687865856	67	4415
2026-01-22 23:08:14.66	87.30	34.80	-47.9	-49.7	18.0	0.00e+00	0	43	0	689963008	67	4435
2026-01-22 23:08:15.67	87.70	34.82	-48.0	-49.8	18.0	0.00e+00	0	43	0	691011584	67	4451
2026-01-22 23:08:16.68	88.10	34.84	-47.8	-49.5	18.2	0.00e+00	0	43	0	693108736	67	4338
2026-01-22 23:08:17.69	88.49	34.86	-48.0	-49.9	17.8	0.00e+00	0	43	0	695205888	67	4508
2026-01-22 23:08:18.69	88.89	34.88	-48.4	-50.4	17.3	0.00e+00	0	43	0	697303040	67	4766
2026-01-22 23:08:19.70	89.29	34.90	-48.8	-51.0	17.0	0.00e+00	0	43	0	699400192	68	4819
2026-01-22 23:08:20.71	89.69	34.91	-48.9	-51.0	16.8	0.00e+00	0	43	0	700448768	68	4855
2026-01-22 23:08:21.72	90.09	34.92	-49.0	-51.1	16.6	0.00e+00	0	43	0	702545920	68	4919
2026-01-22 23:08:22.73	90.49	34.94	-48.6	-50.6	17.2	0.00e+00	0	43	0	704643072	68	4612
2026-01-22 23:08:23.73	90.89	34.95	-48.5	-50.5	17.3	0.00e+00	0	43	0	706740224	68	4567
2026-01-22 23:08:24.74	91.29	34.95	-48.3	-50.2	17.6	0.00e+00	0	43	0	708837376	68	4430
2026-01-22 23:08:25.75	91.69	34.96	-48.2	-50.1	17.9	0.00e+00	0	43	0	709885952	68	4342
2026-01-22 23:08:26.76	92.10	34.97	-47.8	-49.5	18.2	0.00e+00	0	43	0	711983104	67	4331
2026-01-22 23:08:27.77	92.50	34.97	-47.6	-49.3	18.4	0.00e+00	0	43	0	714080256	67	4215
2026-01-22 23:08:28.77	92.90	34.97	-47.4	-49.0	18.7	0.00e+00	0	43	0	716177408	66	4307
2026-01-22 23:08:29.78	93.30	34.98	-47.3	-48.9	18.8	0.00e+00	0	43	0	718274560	66	4270
2026-01-22 23:08:30.79	93.70	34.97	-47.3	-48.8	18.9	0.00e+00	0	43	0	719323136	66	4238
2026-01-22 23:08:31.80	94.10	34.97	-46.9	-48.4	19.3	0.00e+00	0	43	0	721420288	65	4251
2026-01-22 23:08:32.80	94.50	34.97	-46.7	-48.2	19.6	0.00e+00	0	43	0	723517440	65	4146
2026-01-22 23:08:33.81	94.90	34.96	-46.5	-47.8	19.7	0.00e+00	0	43	0	725614592	64	4237
2026-01-22 23:08:34.82	95.31	34.96	-46.3	-47.6	20.0	0.00e+00	0	43	0	727711744	64	4142
2026-01-22 23:08:35.83	95.71	34.95	-46.5	-47.9	19.8	0.00e+00	0	43	0	728760320	64	4251
2026-01-22 23:08:36.84	96.11	34.94	-46.9	-48.4	19.3	0.00e+00	0	43	0	730857472	64	4538
2026-01-22 23:08:37.85	96.51	34.93	-47.5	-49.2	18.5	0.00e+00	0	43	0	732954624	65	4697
2026-01-22 23:08:38.85	96.91	34.92	-48.4	-50.5	17.3	0.00e+00	0	43	0	735051776	67	4824
2026-01-22 23:08:39.86	97.31	34.90	-48.9	-51.0	16.8	0.00e+00	0	43	0	737148928	68	4861
2026-01-22 23:08:40.87	97.71	34.88	-48.7	-50.8	17.0	0.00e+00	0	43	0	738197504	68	4745
2026-01-22 23:08:41.88	98.11	34.87	-48.2	-50.0	17.8	0.00e+00	0	43	0	740294656	68	4337
2026-01-22 23:08:42.89	98.51	34.85	-47.6	-49.3	18.4	0.00e+00	0	43	0	742391808	67	4199
2026-01-22 23:08:43.90	98.91	34.83	-47.2	-48.8	18.9	0.00e+00	0	43	0	744488960	66	4204
2026-01-22 23:08:44.91	99.31	34.81	-46.8	-48.3	19.4	0.00e+00	0	43	0	746586112	65	4217
2026-01-22 23:08:45.91	99.70	34.78	-47.2	-48.7	19.0	0.00e+00	0	43	0	747634688	65	4431
2026-01-22 23:08:46.92	100.10	34.76	-47.6	-49.3	18.4	0.00e+00	0	43	0	749731840	65	4741
2026-01-22 23:08:47.93	100.49	34.73	-48.1	-50.0	17.7	0.00e+00	0	43	0	751828992	66	4839
2026-01-22 23:08:48.94	100.89	34.70	-48.3	-50.3	17.5	0.00e+00	0	43	0	753926144	67	4711
2026-01-22 23:08:49.95	101.29	34.67	-48.5	-50.5	17.2	0.00e+00	0	43	0	756023296	67	4840
2026-01-22 23:08:50.96	101.68	34.64	-48.6	-50.7	17.1	0.00e+00	0	43	0	757071872	67	4960
2026-01-22 23:08:51.97	102.07	34.61	-49.0	-51.3	16.5	0.00e+00	0	43	0	759169024	68	5002
2026-01-22 23:08:52.97	102.46	34.58	-49.4	-51.8	16.1	0.00e+00	0	43	0	761266176	69	4992
2026-01-22 23:08:53.98	102.86	34.54	-49.6	-52.2	15.7	0.00e+00	0	43	0	763363328	69	5219
2026-01-22 23:08:54.99	103.25	34.51	-49.4	-51.8	16.0	0.00e+00	0	43	0	765460480	69	5002
2026-01-22 23:08:56.00	103.64	34.47	-48.9	-51.0	16.8	0.00e+00	0	43	0	767557632	69	4586
2026-01-22 23:08:57.01	104.03	34.43	-48.5	-50.4	17.3	0.00e+00	0	43	0	768606208	69	4288
2026-01-22 23:08:58.01	104.41	34.39	-48.3	-50.1	17.7	0.00e+00	0	43	0	770703360	68	4382
2026-01-22 23:08:59.02	104.80	34.35	-48.2	-50.1	17.8	0.00e+00	0	43	0	772800512	68	4362
2026-01-22 23:09:00.03	105.19	34.30	-48.2	-50.1	17.7	0.00e+00	0	43	0	774897664	68	4370
2026-01-22 23:09:01.04	105.58	34.26	-47.9	-49.7	18.1	0.00e+00	0	43	0	775946240	67	4412
2026-01-22 23:09:02.05	105.96	34.21	-47.6	-49.2	18.5	0.00e+00	0	43	0	778043392	67	4181
2026-01-22 23:09:03.05	106.34	34.16	-47.3	-48.9	18.8	0.00e+00	0	43	0	780140544	66	4253
2026-01-22 23:09:04.06	106.72	34.12	-47.2	-48.7	19.0	0.00e+00	0	43	0	782237696	66	4182
2026-01-22 23:09:05.07	107.10	34.07	-47.5	-49.1	18.6	0.00e+00	0	43	0	784334848	66	4376
2026-01-22 23:09:06.08	107.49	34.01	-47.7	-49.5	18.2	0.00e+00	0	43	0	785383424	66	4569
2026-01-22 23:09:07.08	107.86	33.96	-48.0	-49.9	17.8	0.00e+00	0	43	0	787480576	66	4764
2026-01-22 23:09:08.09	108.24	33.91	-48.1	-49.9	17.8	0.00e+00	0	43	0	789577728	66	4787
2026-01-22 23:09:09.10	108.62	33.85	-47.6	-49.3	18.4	0.00e+00	0	43	0	791674880	66	4478
2026-01-22 23:09:10.11	108.99	33.80	-47.3	-48.9	18.8	0.00e+00	0	43	0	793772032	66	4268
2026-01-22 23:09:11.11	109.36	33.74	-47.6	-49.3	18.5	0.00e+00	0	43	0	795869184	66	4473
2026-01-22 23:09:12.12	109.73	33.68	-48.1	-49.9	17.8	0.00e+00	0	43	0	796917760	66	4802
2026-01-22 23:09:13.13	110.11	33.62	-48.4	-50.3	17.4	0.00e+00	0	43	0	799014912	67	4748
2026-01-22 23:09:14.14	110.48	33.56	-48.2	-50.2	17.5	0.00e+00	0	43	0	801112064	67	4673
2026-01-22 23:09:15.15	110.85	33.49	-47.7	-49.5	18.2	0.00e+00	0	43	0	803209216	67	4318
2026-01-22 23:09:16.16	111.21	33.43	-47.3	-49.0	18.7	0.00e+00	0	43	0	804257792	66	4300
2026-01-22 23:09:17.17	111.58	33.37	-46.8	-48.3	19.3	0.00e+00	0	43	0	806354944	65	4206
2026-01-22 23:09:18.18	111.94	33.30	-46.7	-48.1	19.5	0.00e+00	0	43	0	808452096	65	4128
2026-01-22 23:09:19.18	112.30	33.23	-46.8	-48.2	19.4	0.00e+00	0	43	0	810549248	65	4185
2026-01-22 23:09:20.19	112.66	33.17	-46.7	-48.2	19.4	0.00e+00	0	43	0	812646400	65	4176
2026-01-22 23:09:21.20	113.02	33.10	-46.9	-48.4	19.3	0.00e+00	0	43	0	814743552	65	4249
2026-01-22 23:09:22.21	113.38	33.03	-46.8	-48.3	19.3	0.00e+00	0	43	0	815792128	65	4235
2026-01-22 23:09:23.22	113.74	32.95	-46.9	-48.4	19.2	0.00e+00	0	43	0	817889280	65	4261
2026-01-22 23:09:24.23	114.10	32.88	-47.1	-48.6	19.0	0.00e+00	0	43	0	819986432	65	4370
2026-01-22 23:09:25.23	114.45	32.81	-47.4	-49.0	18.7	0.00e+00	0	43	0	822083584	65	4592
2026-01-22 23:09:26.24	114.80	32.73	-47.5	-49.1	18.5	0.00e+00	0	43	0	824180736	65	4637
2026-01-22 23:09:27.25	115.15	32.66	-47.2	-48.8	18.8	0.00e+00	0	43	0	825229312	65	4485
2026-01-22 23:09:28.26	115.50	32.58	-47.0	-48.6	19.0	0.00e+00	0	43	0	827326464	65	4365
2026-01-22 23:09:29.27	115.85	32.50	-47.1	-48.7	18.9	0.00e+00	0	43	0	829423616	65	4425
2026-01-22 23:09:30.28	116.19	32.43	-47.1	-48.7	19.0	0.00e+00	0	43	0	831520768	65	4417
2026-01-22 23:09:31.29	116.54	32.35	-47.4	-49.0	18.7	0.00e+00	0	43	0	832569344	65	4576
2026-01-22 23:09:32.29	116.88	32.27	-47.5	-49.2	18.5	0.00e+00	0	43	0	834666496	65	4668
2026-01-22 23:09:33.30	117.22	32.19	-47.3	-49.0	18.8	0.00e+00	0	43	0	836763648	65	4549
2026-01-22 23:09:34.31	117.56	32.10	-47.3	-49.0	18.7	0.00e+00	0	43	0	838860800	65	4547
2026-01-22 23:09:35.32	117.90	32.02	-47.4	-49.1	18.5	0.00e+00	0	43	0	840957952	65	4647
2026-01-22 23:09:36.32	118.23	31.94	-47.7	-49.5	18.2	0.00e+00	0	43	0	843055104	65	4837
2026-01-22 23:09:37.33	118.56	31.85	-47.9	-49.8	17.9	0.00e+00	0	43	0	844103680	66	4714
2026-01-22 23:09:38.34	118.89	31.77	-48.0	-49.9	17.8	0.00e+00	0	43	0	846200832	66	4762
2026-01-22 23:09:39.35	119.23	31.68	-47.6	-49.4	18.3	0.00e+00	0	43	0	848297984	66	4516
2026-01-22 23:09:40.35	119.55	31.60	-47.6	-49.4	18.3	0.00e+00	0	43	0	850395136	66	4507
2026-01-22 23:09:41.36	119.88	31.51	-47.8	-49.6	18.0	0.00e+00	0	43	0	852492288	66	4646
2026-01-22 23:09:42.37	120.21	31.42	-48.2	-50.1	17.6	0.00e+00	0	43	0	853540864	66	4891
2026-01-22 23:09:43.38	120.53	31.33	-48.6	-50.7	17.0	0.00e+00	0	43	0	855638016	67	4937
2026-01-22 23:09:44.39	120.85	31.24	-48.9	-51.1	16.7	0.00e+00	0	43	0	857735168	68	4891
2026-01-22 23:09:45.40	121.17	31.15	-48.6	-50.6	17.1	0.00e+00	0	43	0	859832320	68	4629
2026-01-22 23:09:46.41	121.49	31.06	-47.8	-49.6	18.1	0.00e+00	0	43	0	861929472	67	4367
2026-01-22 23:09:47.42	121.81	30.97	-47.5	-49.2	18.5	0.00e+00	0	43	0	862978048	67	4177
2026-01-22 23:09:48.42	122.12	30.88	-47.4	-49.0	18.6	0.00e+00	0	43	0	865075200	66	4318
2026-01-22 23:09:49.43	122.43	30.79	-47.5	-49.2	18.5	0.00e+00	0	43	0	867172352	66	4396
2026-01-22 23:09:50.44	122.75	30.69	-48.0	-49.8	17.9	0.00e+00	0	43	0	869269504	66	4728
2026-01-22 23:09:51.45	123.05	30.60	-48.0	-49.9	17.8	0.00e+00	0	43	0	871366656	66	4780
2026-01-22 23:09:52.45	123.36	30.50	-47.7	-49.5	18.2	0.00e+00	0	43	0	872415232	66	4569
2026-01-22 23:09:53.46	123.67	30.41	-47.1	-48.7	18.9	0.00e+00	0	43	0	874512384	66	4167
2026-01-22 23:09:54.47	123.97	30.31	-46.6	-48.0	19.6	0.00e+00	0	43	0	876609536	65	4073
2026-01-22 23:09:55.48	124.27	30.22	-46.4	-47.8	19.8	0.00e+00	0	43	0	878706688	64	4196
2026-01-22 23:09:56.49	124.58	30.12	-46.9	-48.4	19.2	0.00e+00	0	43	0	880803840	64	4538
2026-01-22 23:09:57.49	124.87	30.02	-47.4	-49.1	18.6	0.00e+00	0	43	0	882900992	65	4632
2026-01-22 23:09:58.50	125.17	29.92	-47.6	-49.4	18.3	0.00e+00	0	43	0	883949568	65	4780
2026-01-22 23:09:59.51	125.47	29.83	-47.2	-48.8	18.7	0.00e+00	0	43	0	886046720	65	4487
2026-01-22 23:10:00.52	125.76	29.73	-46.8	-48.4	19.2	0.00e+00	0	43	0	888143872	65	4244
2026-01-22 23:10:01.53	126.05	29.63	-46.6	-48.0	19.6	0.00e+00	0	43	0	890241024	65	4086
2026-01-22 23:10:02.54	126.34	29.53	-46.8	-48.3	19.2	0.00e+00	0	43	0	891289600	65	4239
2026-01-22 23:10:03.55	126.63	29.43	-47.7	-49.4	18.2	0.00e+00	0	43	0	893386752	65	4801
2026-01-22 23:10:04.56	126.92	29.33	-48.4	-50.4	17.3	0.00e+00	0	43	0	895483904	67	4804
2026-01-22 23:10:05.57	127.20	29.22	-48.3	-50.3	17.4	0.00e+00	0	43	0	897581056	67	4728
2026-01-22 23:10:06.57	127.48	29.12	-47.4	-49.0	18.6	0.00e+00	0	43	0	899678208	66	4333
2026-01-22 23:10:07.58	127.77	29.02	-46.8	-48.2	19.4	0.00e+00	0	43	0	900726784	65	4185
2026-01-22 23:10:08.59	128.05	28.92	-46.6	-48.1	19.5	0.00e+00	0	43	0	902823936	65	4121
2026-01-22 23:10:09.60	128.32	28.82	-46.6	-48.1	19.5	0.00e+00	0	43	0	904921088	64	4365
2026-01-22 23:10:10.61	128.60	28.71	-47.4	-49.1	18.6	0.00e+00	0	43	0	907018240	65	4614
2026-01-22 23:10:11.62	128.87	28.61	-48.0	-49.8	17.8	0.00e+00	0	43	0	909115392	66	4745
2026-01-22 23:10:12.63	129.15	28.51	-47.9	-49.7	17.9	0.00e+00	0	43	0	911212544	66	4685
2026-01-22 23:10:13.63	129.42	28.40	-46.8	-48.4	19.2	0.00e+00	0	43	0	912261120	65	4245
2026-01-22 23:10:14.64	129.69	28.30	-46.3	-47.7	19.9	0.00e+00	0	43	0	914358272	64	4151
2026-01-22 23:10:15.65	129.95	28.20	-46.2	-47.6	19.9	0.00e+00	0	43	0	916455424	64	4127
2026-01-22 23:10:16.66	130.22	28.09	-46.8	-48.3	19.3	0.00e+00	0	43	0	918552576	64	4450
2026-01-22 23:10:17.67	130.49	27.99	-47.7	-49.5	18.2	0.00e+00	0	43	0	919601152	65	4830
2026-01-22 23:10:18.68	130.75	27.88	-48.3	-50.3	17.3	0.00e+00	0	43	0	921698304	67	4757
2026-01-22 23:10:19.69	131.01	27.78	-48.4	-50.4	17.2	0.00e+00	0	43	0	923795456	67	4780
2026-01-22 23:10:20.70	131.27	27.67	-47.5	-49.2	18.3	0.00e+00	0	43	0	925892608	67	4163
2026-01-22 23:10:21.71	131.53	27.56	-46.9	-48.4	19.1	0.00e+00	0	43	0	927989760	65	4267
2026-01-22 23:10:22.71	131.78	27.46	-46.4	-47.9	19.6	0.00e+00	0	43	0	930086912	64	4254
2026-01-22 23:10:23.72	132.03	27.35	-46.5	-47.9	19.6	0.00e+00	0	43	0	931135488	64	4260
2026-01-22 23:10:24.73	132.29	27.25	-47.0	-48.6	19.0	0.00e+00	0	43	0	933232640	64	4605
2026-01-22 23:10:25.74	132.54	27.14	-47.7	-49.5	18.0	0.00e+00	0	44	0	935329792	65	4857
2026-01-22 23:10:26.75	132.79	27.03	-47.9	-49.8	17.8	0.00e+00	0	43	0	937426944	66	4740
2026-01-22 23:10:27.76	133.04	26.93	-47.3	-49.0	18.5	0.00e+00	0	44	0	939524096	66	4308
2026-01-22 23:10:28.77	133.28	26.82	-46.7	-48.2	19.3	0.00e+00	0	43	0	940572672	65	4178
2026-01-22 23:10:29.77	133.52	26.71	-46.5	-48.0	19.5	0.00e+00	0	43	0	942669824	65	4072
2026-01-22 23:10:30.78	133.77	26.61	-46.2	-47.6	20.0	0.00e+00	0	43	0	944766976	63	4353
2026-01-22 23:10:31.79	134.01	26.50	-46.5	-48.0	19.7	0.00e+00	0	43	0	946864128	63	4551
2026-01-22 23:10:32.80	134.25	26.39	-46.7	-48.2	19.3	0.00e+00	0	43	0	948961280	64	4433
2026-01-22 23:10:33.81	134.49	26.28	-47.2	-48.9	18.6	0.00e+00	0	43	0	950009856	65	4531
2026-01-22 23:10:34.82	134.72	26.17	-47.1	-48.7	18.8	0.00e+00	0	44	0	952107008	65	4412
2026-01-22 23:10:35.83	134.96	26.07	-46.5	-48.0	19.5	0.00e+00	0	43	0	954204160	65	4056
2026-01-22 23:10:36.83	135.19	25.96	-46.2	-47.6	19.9	0.00e+00	0	43	0	956301312	64	4108
2026-01-22 23:10:37.84	135.42	25.85	-45.8	-47.1	20.4	0.00e+00	0	43	0	958398464	63	4115
2026-01-22 23:10:38.85	135.65	25.74	-45.8	-47.0	20.4	0.00e+00	0	43	0	959447040	63	4096
2026-01-22 23:10:39.86	135.88	25.64	-46.1	-47.5	20.0	0.00e+00	0	44	0	961544192	63	4330
2026-01-22 23:10:40.87	136.11	25.53	-46.5	-48.0	19.6	0.00e+00	0	43	0	963641344	63	4551
2026-01-22 23:10:41.87	136.33	25.42	-46.6	-48.1	19.4	0.00e+00	0	43	0	965738496	64	4362
2026-01-22 23:10:42.88	136.56	25.31	-46.2	-47.6	19.8	0.00e+00	0	44	0	967835648	64	4112
2026-01-22 23:10:43.89	136.78	25.21	-45.8	-47.1	20.4	0.00e+00	0	43	0	968884224	63	4128
2026-01-22 23:10:44.90	137.00	25.10	-45.5	-46.7	20.7	0.00e+00	0	44	0	970981376	63	3953
2026-01-22 23:10:45.91	137.22	24.99	-45.3	-46.5	21.0	0.00e+00	0	43	0	973078528	62	4085
2026-01-22 23:10:46.92	137.44	24.88	-44.9	-46.1	21.3	0.00e+00	0	43	0	975175680	61	4118
2026-01-22 23:10:47.93	137.66	24.77	-44.9	-46.1	21.3	0.00e+00	0	43	0	977272832	61	4111
2026-01-22 23:10:48.93	137.87	24.67	-45.2	-46.5	21.0	0.00e+00	0	43	0	978321408	61	4299
2026-01-22 23:10:49.94	138.09	24.56	-45.2	-46.4	21.0	0.00e+00	0	43	0	980418560	61	4272
2026-01-22 23:10:50.95	138.30	24.45	-45.1	-46.3	21.1	0.00e+00	0	44	0	982515712	61	4224
2026-01-22 23:10:51.96	138.51	24.34	-45.0	-46.2	21.2	0.00e+00	0	44	0	984612864	61	4171
2026-01-22 23:10:52.97	138.72	24.23	-45.1	-46.3	21.2	0.00e+00	0	44	0	986710016	61	4202
2026-01-22 23:10:53.98	138.93	24.13	-44.7	-45.8	21.5	0.00e+00	0	43	0	987758592	61	3996
2026-01-22 23:10:54.99	139.14	24.02	-44.5	-45.7	21.7	0.00e+00	0	43	0	989855744	61	3914
2026-01-22 23:10:55.99	139.34	23.91	-44.4	-45.5	21.8	0.00e+00	0	43	0	991952896	60	4082
2026-01-22 23:10:57.00	139.55	23.81	-44.5	-45.6	21.8	0.00e+00	0	43	0	994050048	60	4110
2026-01-22 23:10:58.01	139.75	23.70	-44.6	-45.7	21.6	0.00e+00	0	43	0	996147200	60	4190
2026-01-22 23:10:59.02	139.95	23.59	-44.8	-45.9	21.4	0.00e+00	0	43	0	997195776	60	4282
2026-01-22 23:11:00.03	140.15	23.48	-44.6	-45.7	21.6	0.00e+00	0	43	0	999292928	60	4184
2026-01-22 23:11:01.04	140.35	23.38	-44.4	-45.5	21.8	0.00e+00	0	43	0	1001390080	60	4096
2026-01-22 23:11:02.05	140.55	23.27	-44.3	-45.4	21.9	0.00e+00	0	44	0	1003487232	60	4009
2026-01-22 23:11:03.06	140.75	23.16	-44.3	-45.4	21.9	0.00e+00	0	43	0	1005584384	60	4029
2026-01-22 23:11:04.07	140.94	23.05	-44.3	-45.4	22.2	0.00e+00	0	44	0	1006632960	59	4248
2026-01-22 23:11:05.07	141.13	22.95	-44.1	-45.1	22.5	0.00e+00	0	43	0	1008730112	59	4128
2026-01-22 23:11:06.08	141.33	22.84	-44.1	-45.2	22.4	0.00e+00	0	43	0	1010827264	59	4169
2026-01-22 23:11:07.09	141.52	22.74	-44.2	-45.2	22.4	0.00e+00	0	43	0	1012924416	59	4188
2026-01-22 23:11:08.10	141.71	22.63	-44.3	-45.3	22.3	0.00e+00	0	44	0	1015021568	59	4232
2026-01-22 23:11:09.11	141.90	22.52	-44.5	-45.6	22.0	0.00e+00	0	43	0	1017118720	59	4370
2026-01-22 23:11:10.12	142.08	22.42	-44.4	-45.5	22.1	0.00e+00	0	43	0	1018167296	59	4321
2026-01-22 23:11:11.13	142.27	22.31	-44.5	-45.6	22.0	0.00e+00	0	43	0	1020264448	59	4358
2026-01-22 23:11:12.13	142.45	22.21	-44.3	-45.3	22.2	0.00e+00	0	44	0	1022361600	59	4236
2026-01-22 23:11:13.14	142.64	22.10	-44.2	-45.2	22.3	0.00e+00	0	43	0	1024458752	59	4182
2026-01-22 23:11:14.15	142.82	21.99	-44.2	-45.3	22.3	0.00e+00	0	43	0	1025507328	59	4211
2026-01-22 23:11:15.16	143.00	21.89	-44.1	-45.1	22.4	0.00e+00	0	43	0	1027604480	59	4126
2026-01-22 23:11:16.17	143.18	21.78	-44.2	-45.2	22.3	0.00e+00	0	43	0	1029701632	59	4187
2026-01-22 23:11:17.17	143.36	21.68	-44.3	-45.4	22.1	0.00e+00	0	43	0	1031798784	59	4278
2026-01-22 23:11:18.18	143.54	21.57	-44.6	-45.8	21.8	0.00e+00	0	43	0	1033895936	59	4453
2026-01-22 23:11:19.19	143.71	21.47	-44.4	-45.5	21.8	0.00e+00	0	43	0	1034944512	60	4075
2026-01-22 23:11:20.20	143.89	21.36	-44.6	-45.7	21.5	0.00e+00	0	43	0	1037041664	60	4180
2026-01-22 23:11:21.21	144.06	21.26	-44.6	-45.8	21.5	0.00e+00	0	43	0	1039138816	60	4214
2026-01-22 23:11:22.22	144.24	21.16	-44.6	-45.8	21.5	0.00e+00	0	43	0	1041235968	60	4199
2026-01-22 23:11:23.22	144.41	21.05	-44.5	-45.6	21.6	0.00e+00	0	44	0	1043333120	60	4135
2026-01-22 23:11:24.23	144.58	20.95	-44.5	-45.6	21.6	0.00e+00	0	43	0	1045430272	60	4118
2026-01-22 23:11:25.24	144.75	20.84	-44.1	-45.2	22.1	0.00e+00	0	43	0	1046478848	60	3923
2026-01-22 23:11:26.25	144.92	20.74	-44.0	-45.1	22.1	0.00e+00	0	43	0	1048576000	60	3876
2026-01-22 23:11:27.26	145.09	20.64	-44.3	-45.4	22.2	0.00e+00	0	43	0	1050673152	59	4249
2026-01-22 23:11:28.27	145.25	20.53	-44.4	-45.5	22.0	0.00e+00	0	44	0	1052770304	59	4312
2026-01-22 23:11:29.28	145.42	20.43	-44.6	-45.7	21.8	0.00e+00	0	44	0	1053818880	59	4426
2026-01-22 23:11:30.29	145.58	20.33	-44.5	-45.6	21.9	0.00e+00	0	43	0	1055916032	59	4375
2026-01-22 23:11:31.29	145.74	20.23	-44.6	-45.8	21.8	0.00e+00	0	43	0	1058013184	59	4448
2026-01-22 23:11:32.30	145.91	20.12	-44.7	-45.8	21.7	0.00e+00	0	43	0	1060110336	59	4481
2026-01-22 23:11:33.31	146.07	20.02	-44.4	-45.5	21.7	0.00e+00	0	43	0	1062207488	60	4065
2026-01-22 23:11:34.32	146.23	19.92	-44.6	-45.7	21.5	0.00e+00	0	43	0	1064304640	60	4164
2026-01-22 23:11:35.33	146.39	19.82	-44.3	-45.4	21.8	0.00e+00	0	43	0	1065353216	60	4047
2026-01-22 23:11:36.33	146.54	19.72	-44.4	-45.5	21.7	0.00e+00	0	44	0	1067450368	60	4071
2026-01-22 23:11:37.34	146.70	19.61	-44.5	-45.6	21.6	0.00e+00	0	44	0	1069547520	60	4123
2026-01-22 23:11:38.35	146.86	19.51	-44.5	-45.6	21.6	0.00e+00	0	43	0	1071644672	60	4145
2026-01-22 23:11:39.36	147.01	19.41	-44.6	-45.7	21.5	0.00e+00	0	43	0	1073741824	60	4181
2026-01-22 23:11:40.37	147.17	19.31	-44.7	-45.9	21.3	0.00e+00	0	43	0	1074790400	60	4249
2026-01-22 23:11:41.37	147.32	19.21	-44.8	-46.0	21.3	0.00e+00	0	44	0	1076887552	60	4303
2026-01-22 23:11:42.38	147.47	19.11	-44.8	-46.0	21.2	0.00e+00	0	43	0	1078984704	60	4322
2026-01-22 23:11:43.39	147.62	19.01	-44.9	-46.0	21.2	0.00e+00	0	43	0	1081081856	60	4336
2026-01-22 23:11:44.40	147.77	18.91	-44.8	-46.0	21.3	0.00e+00	0	43	0	1083179008	60	4293
2026-01-22 23:11:45.41	147.92	18.81	-44.8	-45.9	21.3	0.00e+00	0	44	0	1084227584	60	4275
2026-01-22 23:11:46.41	148.07	18.71	-44.8	-46.0	21.2	0.00e+00	0	43	0	1086324736	60	4298
2026-01-22 23:11:47.42	148.22	18.61	-44.6	-45.7	21.5	0.00e+00	0	43	0	1088421888	60	4165
2026-01-22 23:11:48.43	148.37	18.51	-44.7	-45.8	21.4	0.00e+00	0	43	0	1090519040	60	4237
2026-01-22 23:11:49.44	148.51	18.41	-45.0	-46.3	20.9	0.00e+00	0	43	0	1092616192	60	4449
2026-01-22 23:11:50.45	148.66	18.32	-45.3	-46.6	20.7	0.00e+00	0	43	0	1093664768	61	4358
2026-01-22 23:11:51.45	148.80	18.22	-45.7	-47.0	20.2	0.00e+00	0	43	0	1095761920	61	4594
2026-01-22 23:11:52.46	148.94	18.12	-45.9	-47.3	20.0	0.00e+00	0	43	0	1097859072	62	4444
2026-01-22 23:11:53.47	149.08	18.02	-46.0	-47.4	19.9	0.00e+00	0	43	0	1099956224	62	4502
2026-01-22 23:11:54.48	149.22	17.92	-46.1	-47.6	19.7	0.00e+00	0	43	0	1102053376	62	4626
2026-01-22 23:11:55.49	149.37	17.83	-45.8	-47.2	20.1	0.00e+00	0	43	0	1103101952	62	4404
2026-01-22 23:11:56.49	149.50	17.73	-45.8	-47.2	20.1	0.00e+00	0	43	0	1105199104	62	4424
2026-01-22 23:11:57.50	149.64	17.63	-45.7	-47.0	20.2	0.00e+00	0	43	0	1107296256	62	4336
2026-01-22 23:11:58.51	149.78	17.54	-45.6	-46.9	20.3	0.00e+00	0	43	0	1109393408	62	4268
2026-01-22 23:11:59.52	149.92	17.44	-45.6	-46.9	20.3	0.00e+00	0	43	0	1111490560	62	4266
2026-01-22 23:12:00.53	150.05	17.34	-45.5	-46.8	20.4	0.00e+00	0	43	0	1112539136	62	4224
2026-01-22 23:12:01.54	150.19	17.25	-45.6	-46.9	20.4	0.00e+00	0	43	0	1114636288	62	4254
2026-01-22 23:12:02.55	150.32	17.15	-46.0	-47.4	19.8	0.00e+00	0	43	0	1116733440	62	4525
2026-01-22 23:12:03.56	150.46	17.05	-46.1	-47.5	19.8	0.00e+00	0	43	0	1118830592	62	4569
2026-01-22 23:12:04.57	150.59	16.96	-46.4	-47.9	19.4	0.00e+00	0	43	0	1120927744	63	4519
2026-01-22 23:12:05.57	150.72	16.86	-46.6	-48.2	19.1	0.00e+00	0	43	0	1121976320	63	4675
2026-01-22 23:12:06.58	150.85	16.77	-46.6	-48.2	19.0	0.00e+00	0	43	0	1124073472	63	4688
2026-01-22 23:12:07.59	150.98	16.67	-46.7	-48.2	19.0	0.00e+00	0	43	0	1126170624	63	4702
2026-01-22 23:12:08.60	151.11	16.58	-46.4	-48.0	19.3	0.00e+00	0	44	0	1128267776	63	4551
2026-01-22 23:12:09.61	151.24	16.49	-46.4	-47.9	19.4	0.00e+00	0	43	0	1130364928	63	4499
2026-01-22 23:12:10.61	151.37	16.39	-46.1	-47.5	19.7	0.00e+00	0	43	0	1132462080	63	4329
2026-01-22 23:12:11.62	151.49	16.30	-45.8	-47.2	20.0	0.00e+00	0	43	0	1133510656	63	4157
2026-01-22 23:12:12.63	151.62	16.20	-45.9	-47.3	19.9	0.00e+00	0	43	0	1135607808	63	4207
2026-01-22 23:12:13.64	151.75	16.11	-45.7	-47.1	20.1	0.00e+00	0	43	0	1137704960	63	4103
2026-01-22 23:12:14.65	151.87	16.02	-45.7	-47.0	20.2	0.00e+00	0	44	0	1139802112	63	4094
2026-01-22 23:12:15.65	151.99	15.93	-45.7	-47.1	20.1	0.00e+00	0	43	0	1140850688	63	4111
2026-01-22 23:12:16.66	152.12	15.83	-45.7	-47.1	20.1	0.00e+00	0	43	0	1142947840	63	4127
2026-01-22 23:12:17.67	152.24	15.74	-46.0	-47.4	19.8	0.00e+00	0	43	0	1145044992	63	4263
2026-01-22 23:12:18.68	152.36	15.65	-46.2	-47.6	19.6	0.00e+00	0	43	0	1147142144	63	4365
2026-01-22 23:12:19.68	152.48	15.56	-46.1	-47.6	19.6	0.00e+00	0	43	0	1149239296	63	4357
2026-01-22 23:12:20.69	152.60	15.46	-46.1	-47.6	19.6	0.00e+00	0	44	0	1150287872	63	4368
2026-01-22 23:12:21.70	152.72	15.37	-46.2	-47.7	19.5	0.00e+00	0	44	0	1152385024	63	4432
2026-01-22 23:12:22.71	152.84	15.28	-46.2	-47.6	19.6	0.00e+00	0	43	0	1154482176	63	4383
2026-01-22 23:12:23.71	152.96	15.19	-46.1	-47.6	19.6	0.00e+00	0	43	0	1156579328	63	4377
2026-01-22 23:12:24.72	153.08	15.10	-46.1	-47.5	19.7	0.00e+00	0	44	0	1158676480	63	4320
2026-01-22 23:12:25.73	153.20	15.01	-46.1	-47.5	19.7	0.00e+00	0	43	0	1160773632	63	4318
2026-01-22 23:12:26.74	153.31	14.92	-45.9	-47.3	19.9	0.00e+00	0	43	0	1161822208	63	4204
2026-01-22 23:12:27.75	153.43	14.83	-45.5	-46.8	20.3	0.00e+00	0	44	0	1163919360	63	4002
2026-01-22 23:12:28.75	153.54	14.74	-45.4	-46.7	20.4	0.00e+00	0	43	0	1166016512	62	4168
2026-01-22 23:12:29.76	153.66	14.65	-45.4	-46.7	20.4	0.00e+00	0	43	0	1168113664	62	4191
2026-01-22 23:12:30.77	153.77	14.56	-45.4	-46.6	20.5	0.00e+00	0	43	0	1169162240	62	4144
2026-01-22 23:12:31.78	153.88	14.47	-45.3	-46.5	20.6	0.00e+00	0	43	0	1171259392	62	4084
2026-01-22 23:12:32.79	154.00	14.38	-45.2	-46.5	20.6	0.00e+00	0	44	0	1173356544	62	4062
2026-01-22 23:12:33.79	154.11	14.29	-45.4	-46.7	20.4	0.00e+00	0	43	0	1175453696	62	4175
2026-01-22 23:12:34.80	154.22	14.20	-45.6	-46.9	20.3	0.00e+00	0	43	0	1177550848	62	4253
2026-01-22 23:12:35.81	154.33	14.12	-45.6	-47.0	20.2	0.00e+00	0	43	0	1179648000	62	4309
2026-01-22 23:12:36.82	154.44	14.03	-46.0	-47.4	19.7	0.00e+00	0	43	0	1180696576	62	4504
2026-01-22 23:12:37.83	154.55	13.94	-46.0	-47.5	19.7	0.00e+00	0	44	0	1182793728	62	4552
2026-01-22 23:12:38.83	154.66	13.85	-46.0	-47.4	19.7	0.00e+00	0	44	0	1184890880	62	4544
2026-01-22 23:12:39.84	154.76	13.77	-46.0	-47.5	19.6	0.00e+00	0	43	0	1186988032	62	4570
2026-01-22 23:12:40.85	154.87	13.68	-46.1	-47.6	19.5	0.00e+00	0	43	0	1189085184	62	4619
2026-01-22 23:12:41.86	154.98	13.59	-46.1	-47.6	19.6	0.00e+00	0	43	0	1190133760	62	4621
2026-01-22 23:12:42.87	155.09	13.50	-46.2	-47.7	19.4	0.00e+00	0	44	0	1192230912	63	4424
2026-01-22 23:12:43.88	155.19	13.42	-46.1	-47.5	19.6	0.00e+00	0	44	0	1194328064	63	4331
2026-01-22 23:12:44.89	155.30	13.33	-46.0	-47.5	19.6	0.00e+00	0	43	0	1196425216	63	4314
2026-01-22 23:12:45.89	155.40	13.25	-46.0	-47.5	19.6	0.00e+00	0	43	0	1198522368	63	4295
2026-01-22 23:12:46.90	155.50	13.16	-45.8	-47.2	19.7	0.00e+00	0	43	0	1199570944	63	4177
2026-01-22 23:12:47.91	155.61	13.07	-45.7	-47.0	20.0	0.00e+00	0	43	0	1201668096	63	4090
2026-01-22 23:12:48.92	155.71	12.99	-45.5	-46.9	20.2	0.00e+00	0	43	0	1203765248	63	4010
2026-01-22 23:12:49.93	155.81	12.90	-45.6	-46.9	20.1	0.00e+00	0	43	0	1205862400	63	4048
2026-01-22 23:12:50.93	155.91	12.82	-45.6	-46.9	20.2	0.00e+00	0	44	0	1207959552	63	4045
2026-01-22 23:12:51.94	156.01	12.73	-45.6	-46.9	20.1	0.00e+00	0	44	0	1209008128	63	4044
2026-01-22 23:12:52.95	156.11	12.65	-45.7	-47.1	20.0	0.00e+00	0	44	0	1211105280	63	4105
2026-01-22 23:12:53.96	156.21	12.56	-45.8	-47.1	19.9	0.00e+00	0	44	0	1213202432	63	4136
2026-01-22 23:12:54.97	156.31	12.48	-45.7	-47.1	19.9	0.00e+00	0	43	0	1215299584	63	4133
2026-01-22 23:12:55.98	156.41	12.40	-45.8	-47.2	19.9	0.00e+00	0	44	0	1217396736	63	4166
2026-01-22 23:12:56.99	156.51	12.31	-45.9	-47.3	19.7	0.00e+00	0	43	0	1218445312	63	4236
2026-01-22 23:12:57.99	156.61	12.23	-46.0	-47.5	19.6	0.00e+00	0	43	0	1220542464	63	4294
2026-01-22 23:12:59.00	156.71	12.15	-46.2	-47.7	19.4	0.00e+00	0	43	0	1222639616	63	4413
2026-01-22 23:13:00.01	156.80	12.06	-46.1	-47.5	19.5	0.00e+00	0	44	0	1224736768	63	4339
2026-01-22 23:13:01.02	156.90	11.98	-46.2	-47.7	19.4	0.00e+00	0	44	0	1226833920	63	4432
2026-01-22 23:13:02.03	156.99	11.90	-46.1	-47.6	19.4	0.00e+00	0	43	0	1227882496	63	4376
2026-01-22 23:13:03.04	157.09	11.81	-46.1	-47.6	19.4	0.00e+00	0	43	0	1229979648	63	4376
2026-01-22 23:13:04.05	157.18	11.73	-46.3	-47.8	19.3	0.00e+00	0	43	0	1232076800	63	4460
2026-01-22 23:13:05.06	157.28	11.65	-46.3	-47.8	19.3	0.00e+00	0	44	0	1234173952	63	4454
2026-01-22 23:13:06.07	157.37	11.57	-46.2	-47.7	19.4	0.00e+00	0	43	0	1236271104	63	4412
2026-01-22 23:13:07.07	157.47	11.49	-46.3	-47.8	19.3	0.00e+00	0	43	0	1237319680	63	4475
2026-01-22 23:13:08.08	157.56	11.40	-46.3	-47.8	19.3	0.00e+00	0	43	0	1239416832	63	4473
2026-01-22 23:13:09.09	157.65	11.32	-46.5	-48.1	19.0	0.00e+00	0	44	0	1241513984	63	4606
2026-01-22 23:13:10.10	157.74	11.24	-46.5	-48.0	19.0	0.00e+00	0	44	0	1243611136	63	4577
2026-01-22 23:13:11.11	157.83	11.16	-46.5	-48.1	18.9	0.00e+00	0	44	0	1245708288	63	4620
