passes_logs/2026/01/22/R3.2S_Murmansk/R3.2S_Murmansk__20260122_031827_FENGYUN_3D_rec.log

#Pass ID: 20260122_031827_FENGYUN 3D
#Satellite: FENGYUN 3D
#Configuration: FENGYUN 3D
#almurnet v.1.7.20251203
#Start time: 2026-01-22 03:18:29

#Version: 2.2.20231116
#Station: R3.2S_Murmansk
#Location: 33.079688 lon 68.888172 lat
#TLE: 1 43010U 17072A   26021.48744220  .00000253  00000+0  14133-3 0  9991
#TLE: 2 43010  98.9948 353.4037 0002485  97.2578 262.8880 14.19697766424177

#Time	Az	El	Level	Level2	SNR	BER	BlckErr	Temp	State	Recorded	gain1	gain2
2026-01-22 03:18:29.23	27.29	2.12	-49.9	-61.8	3.8	8.46e-01	0	39	0	0	70	14912
2026-01-22 03:18:30.24	27.28	2.19	-49.9	-61.8	3.8	8.46e-01	0	39	104	0	70	14957
2026-01-22 03:18:31.25	27.27	2.25	-49.9	-61.8	3.8	8.46e-01	0	39	104	0	70	14970
2026-01-22 03:18:32.25	27.26	2.31	-49.9	-61.8	3.8	8.45e-01	0	39	104	0	70	14952
2026-01-22 03:18:33.26	27.25	2.38	-49.9	-61.8	3.8	8.47e-01	0	39	104	0	70	14932
2026-01-22 03:18:34.27	27.24	2.45	-49.9	-61.8	3.8	8.45e-01	0	39	104	0	70	14932
2026-01-22 03:18:35.28	27.23	2.51	-49.9	-61.8	3.8	8.46e-01	0	39	104	0	70	14954
2026-01-22 03:18:36.29	27.22	2.58	-49.9	-61.8	3.8	8.47e-01	0	39	104	0	70	14950
2026-01-22 03:18:37.30	27.21	2.64	-49.9	-61.8	3.8	8.46e-01	0	39	104	0	70	14964
2026-01-22 03:18:38.31	27.20	2.71	-49.9	-61.8	3.8	8.45e-01	0	39	104	0	70	14933
2026-01-22 03:18:39.31	27.19	2.77	-49.9	-61.8	3.8	8.47e-01	0	39	104	0	70	14940
2026-01-22 03:18:40.32	27.18	2.84	-49.9	-61.8	3.8	8.46e-01	0	39	104	0	70	14923
2026-01-22 03:18:41.33	27.17	2.91	-49.9	-61.8	3.8	8.46e-01	0	39	104	0	70	14911
2026-01-22 03:18:42.34	27.16	2.97	-49.9	-61.8	3.8	8.45e-01	0	39	104	0	70	14964
2026-01-22 03:18:43.35	27.15	3.04	-49.9	-61.8	3.8	8.46e-01	0	39	104	0	70	14923
2026-01-22 03:18:44.36	27.14	3.11	-49.9	-61.8	3.8	8.46e-01	0	40	104	0	70	14927
2026-01-22 03:18:45.37	27.13	3.17	-49.9	-61.8	3.8	8.47e-01	0	39	104	0	70	14918
2026-01-22 03:18:46.37	27.12	3.24	-49.9	-61.8	3.8	8.47e-01	0	39	104	0	70	14931
2026-01-22 03:18:47.38	27.11	3.31	-49.9	-61.8	3.8	8.46e-01	0	39	104	0	70	14971
2026-01-22 03:18:48.39	27.10	3.37	-49.9	-61.8	3.8	8.45e-01	0	39	104	0	70	14935
2026-01-22 03:18:49.39	27.09	3.44	-49.9	-61.8	3.8	8.47e-01	0	39	104	0	70	14955
2026-01-22 03:18:50.41	27.08	3.51	-49.9	-61.8	3.8	8.45e-01	0	39	104	0	70	14924
2026-01-22 03:18:51.41	27.07	3.58	-49.9	-61.8	3.8	8.47e-01	0	39	104	0	70	14975
2026-01-22 03:18:52.42	27.06	3.64	-49.9	-61.8	3.8	8.46e-01	0	39	104	0	70	14917
2026-01-22 03:18:53.43	27.05	3.71	-49.9	-61.8	3.8	8.46e-01	0	39	104	0	70	14949
2026-01-22 03:18:54.44	27.03	3.78	-49.9	-61.8	3.8	8.46e-01	0	39	104	0	70	14911
2026-01-22 03:18:55.45	27.02	3.85	-49.9	-61.8	3.8	8.46e-01	0	40	104	0	70	14906
2026-01-22 03:18:56.45	27.01	3.92	-49.9	-61.8	3.8	8.45e-01	0	39	104	0	70	14889
2026-01-22 03:18:57.46	27.00	3.99	-49.9	-61.8	3.8	8.46e-01	0	39	104	0	70	14977
2026-01-22 03:18:58.47	26.99	4.06	-49.9	-61.8	3.8	8.45e-01	0	40	104	0	70	14918
2026-01-22 03:18:59.48	26.98	4.13	-49.9	-61.8	3.8	8.47e-01	0	40	104	0	70	14964
2026-01-22 03:19:00.48	26.97	4.19	-49.9	-61.8	3.8	8.47e-01	0	39	104	0	70	14953
2026-01-22 03:19:01.49	26.96	4.26	-49.9	-61.8	3.8	8.46e-01	0	40	104	0	70	14946
2026-01-22 03:19:02.50	26.94	4.33	-49.9	-61.8	3.8	8.47e-01	0	40	104	0	70	14907
2026-01-22 03:19:03.51	26.93	4.40	-49.9	-61.8	3.8	8.46e-01	0	40	104	0	70	14951
2026-01-22 03:19:04.52	26.92	4.47	-49.9	-61.8	3.8	8.46e-01	0	40	104	0	70	14987
2026-01-22 03:19:05.53	26.91	4.54	-49.9	-61.7	3.8	8.46e-01	0	39	104	0	70	14874
2026-01-22 03:19:06.53	26.90	4.61	-49.9	-61.8	3.8	8.46e-01	0	40	104	0	70	14961
2026-01-22 03:19:07.54	26.88	4.69	-49.9	-61.8	3.8	8.47e-01	0	40	104	0	70	14954
2026-01-22 03:19:08.55	26.87	4.76	-49.9	-61.8	3.8	8.46e-01	0	40	104	0	70	14933
2026-01-22 03:19:09.56	26.86	4.83	-49.9	-61.8	3.8	8.46e-01	0	40	104	0	70	14948
2026-01-22 03:19:10.57	26.85	4.90	-49.9	-61.8	3.8	8.46e-01	0	40	104	0	70	14974
2026-01-22 03:19:11.58	26.84	4.97	-49.9	-61.8	3.8	8.46e-01	0	40	104	0	70	14907
2026-01-22 03:19:12.59	26.82	5.04	-49.9	-61.8	3.8	8.47e-01	0	40	104	0	70	14916
2026-01-22 03:19:13.59	26.81	5.11	-49.9	-61.8	3.8	8.47e-01	0	40	104	0	70	14962
2026-01-22 03:19:14.60	26.80	5.18	-49.9	-61.8	3.8	8.46e-01	0	40	104	0	70	14958
2026-01-22 03:19:15.61	26.79	5.26	-49.9	-61.8	3.8	8.46e-01	0	40	104	0	70	14937
2026-01-22 03:19:16.62	26.77	5.33	-49.9	-61.8	3.8	8.46e-01	0	40	104	0	70	14953
2026-01-22 03:19:17.63	26.76	5.40	-49.8	-61.8	3.8	8.46e-01	0	40	104	0	70	14949
2026-01-22 03:19:18.64	26.75	5.48	-49.9	-61.8	3.8	8.46e-01	0	40	104	0	70	14947
2026-01-22 03:19:19.65	26.74	5.55	-49.9	-61.8	3.8	8.46e-01	0	40	104	0	70	14917
2026-01-22 03:19:20.65	26.72	5.62	-49.9	-61.8	3.8	8.47e-01	0	40	104	0	70	14912
2026-01-22 03:19:21.66	26.71	5.69	-49.9	-61.8	3.8	8.46e-01	0	40	104	0	70	14920
2026-01-22 03:19:22.67	26.70	5.77	-49.9	-61.8	3.8	8.45e-01	0	40	104	0	70	14914
2026-01-22 03:19:23.68	26.68	5.84	-49.9	-61.8	3.8	8.47e-01	0	40	104	0	70	14952
2026-01-22 03:19:24.69	26.67	5.92	-49.9	-61.8	3.8	8.47e-01	0	40	104	0	70	14976
2026-01-22 03:19:25.69	26.66	5.99	-49.8	-61.8	3.8	8.47e-01	0	40	104	0	70	14922
2026-01-22 03:19:26.70	26.64	6.06	-49.9	-61.8	3.8	8.46e-01	0	40	104	0	70	14945
2026-01-22 03:19:27.71	26.63	6.14	-49.9	-61.8	3.8	8.45e-01	0	40	104	0	70	14974
2026-01-22 03:19:28.72	26.61	6.21	-49.9	-61.8	3.8	8.45e-01	0	40	104	0	70	14907
2026-01-22 03:19:29.72	26.60	6.29	-49.9	-61.8	3.8	8.46e-01	0	40	104	0	70	14997
2026-01-22 03:19:30.73	26.59	6.36	-49.9	-61.8	3.8	8.46e-01	0	40	104	0	70	14957
2026-01-22 03:19:31.74	26.57	6.44	-49.9	-61.8	3.8	8.46e-01	0	40	104	0	70	14964
2026-01-22 03:19:32.75	26.56	6.51	-49.9	-61.8	3.8	8.47e-01	0	40	104	0	70	14960
2026-01-22 03:19:33.75	26.54	6.59	-49.9	-61.8	3.8	8.46e-01	0	40	104	0	70	14959
2026-01-22 03:19:34.76	26.53	6.67	-49.9	-61.8	3.8	8.46e-01	0	40	104	0	70	14947
2026-01-22 03:19:35.77	26.52	6.74	-49.9	-61.8	3.8	8.45e-01	0	40	104	0	70	14935
2026-01-22 03:19:36.78	26.50	6.82	-49.9	-61.8	3.8	8.47e-01	0	40	104	0	70	14958
2026-01-22 03:19:37.79	26.49	6.90	-49.9	-61.8	3.8	8.46e-01	0	40	104	0	70	14924
2026-01-22 03:19:38.79	26.47	6.97	-49.9	-61.8	3.8	8.47e-01	0	40	104	0	70	14959
2026-01-22 03:19:39.80	26.46	7.05	-49.9	-61.8	3.8	8.47e-01	0	40	104	0	70	14939
2026-01-22 03:19:40.81	26.44	7.13	-49.9	-61.8	3.8	8.46e-01	0	40	104	0	70	14990
2026-01-22 03:19:41.82	26.43	7.21	-49.9	-61.8	3.8	8.47e-01	0	40	104	0	70	14952
2026-01-22 03:19:42.83	26.41	7.28	-49.9	-61.8	3.8	8.45e-01	0	40	104	0	70	14924
2026-01-22 03:19:43.83	26.40	7.36	-49.9	-61.8	3.8	8.46e-01	0	40	104	0	70	14946
2026-01-22 03:19:44.84	26.38	7.44	-49.9	-61.8	3.8	8.46e-01	0	40	104	0	70	14965
2026-01-22 03:19:45.85	26.37	7.52	-49.9	-61.8	3.8	8.47e-01	0	40	104	0	70	14943
2026-01-22 03:19:46.86	26.35	7.60	-49.9	-61.8	3.8	8.47e-01	0	40	104	0	70	14937
2026-01-22 03:19:47.87	26.34	7.68	-49.9	-61.8	3.8	8.46e-01	0	40	104	0	70	14988
2026-01-22 03:19:48.87	26.32	7.76	-49.9	-61.8	3.8	8.47e-01	0	40	104	0	70	14944
2026-01-22 03:19:49.88	26.30	7.84	-49.9	-61.8	3.8	8.45e-01	0	40	104	0	70	14944
2026-01-22 03:19:50.89	26.29	7.92	-49.9	-61.8	3.8	8.45e-01	0	40	104	0	70	14942
2026-01-22 03:19:51.90	26.27	8.00	-49.9	-61.8	3.8	8.46e-01	0	40	104	0	70	14896
2026-01-22 03:19:52.91	26.26	8.08	-49.9	-61.8	3.8	8.46e-01	0	40	104	0	70	14914
2026-01-22 03:19:53.91	26.24	8.16	-49.9	-61.8	3.8	8.47e-01	0	40	104	0	70	14907
2026-01-22 03:19:54.92	26.22	8.24	-49.9	-61.8	3.8	8.46e-01	0	40	104	0	70	14925
2026-01-22 03:19:55.93	26.21	8.32	-49.9	-61.8	3.8	8.46e-01	0	40	104	0	70	15002
2026-01-22 03:19:56.94	26.19	8.40	-49.9	-61.8	3.8	8.47e-01	0	40	104	0	70	14962
2026-01-22 03:19:57.95	26.17	8.48	-49.9	-61.8	3.8	8.46e-01	0	40	104	0	70	14965
2026-01-22 03:19:58.95	26.16	8.56	-49.9	-61.8	3.8	8.45e-01	0	40	104	0	70	14930
2026-01-22 03:19:59.96	26.14	8.65	-49.9	-61.8	3.8	8.45e-01	0	40	104	0	70	14945
2026-01-22 03:20:00.97	26.12	8.73	-49.9	-61.8	3.8	8.46e-01	0	40	104	0	70	14899
2026-01-22 03:20:01.98	26.10	8.81	-49.9	-61.8	3.8	8.46e-01	0	41	104	0	70	14938
2026-01-22 03:20:02.99	26.09	8.89	-49.9	-61.8	3.8	8.46e-01	0	40	104	0	70	14960
2026-01-22 03:20:04.00	26.07	8.98	-49.9	-61.8	3.8	8.46e-01	0	40	104	0	70	14935
2026-01-22 03:20:05.01	26.05	9.06	-49.9	-61.8	3.8	8.46e-01	0	40	104	0	70	14977
2026-01-22 03:20:06.02	26.03	9.14	-49.9	-61.8	3.8	8.47e-01	0	40	104	0	70	14952
2026-01-22 03:20:07.03	26.02	9.23	-49.9	-61.8	3.8	8.47e-01	0	40	104	0	70	14971
2026-01-22 03:20:08.04	26.00	9.31	-49.9	-61.8	3.8	8.46e-01	0	40	104	0	70	14934
2026-01-22 03:20:09.05	25.98	9.40	-49.9	-61.8	3.8	8.45e-01	0	40	104	0	70	14926
2026-01-22 03:20:10.05	25.96	9.48	-49.9	-61.8	3.8	8.46e-01	0	40	104	0	70	14952
2026-01-22 03:20:11.06	25.94	9.57	-49.9	-61.8	3.8	8.47e-01	0	40	104	0	70	14953
2026-01-22 03:20:12.07	25.93	9.65	-49.9	-61.8	3.8	8.45e-01	0	40	104	0	70	14932
2026-01-22 03:20:13.08	25.91	9.74	-49.9	-61.8	3.8	8.46e-01	0	40	104	0	70	14921
2026-01-22 03:20:14.09	25.89	9.83	-49.9	-61.8	3.8	8.45e-01	0	40	104	0	70	14921
2026-01-22 03:20:15.09	25.87	9.91	-49.9	-61.8	3.8	8.46e-01	0	41	104	0	70	14966
2026-01-22 03:20:16.10	25.85	10.00	-49.9	-61.8	3.8	8.47e-01	0	40	104	0	70	14908
2026-01-22 03:20:17.11	25.83	10.09	-49.9	-61.8	3.8	8.47e-01	0	40	104	0	70	14934
2026-01-22 03:20:18.12	25.81	10.17	-49.9	-61.8	3.8	8.46e-01	0	41	104	0	70	14973
2026-01-22 03:20:19.13	25.79	10.26	-49.9	-61.8	3.8	8.45e-01	0	40	104	0	70	14938
2026-01-22 03:20:20.13	25.77	10.35	-49.9	-61.8	3.8	8.47e-01	0	40	104	0	70	14968
2026-01-22 03:20:21.14	25.75	10.44	-49.9	-61.8	3.8	8.46e-01	0	40	104	0	70	14952
2026-01-22 03:20:22.15	25.73	10.53	-49.9	-61.8	3.8	8.45e-01	0	40	104	0	70	14974
2026-01-22 03:20:23.16	25.71	10.61	-49.9	-61.8	3.8	8.47e-01	0	40	104	0	70	14916
2026-01-22 03:20:24.17	25.69	10.70	-49.9	-61.8	3.8	8.45e-01	0	40	104	0	70	14971
2026-01-22 03:20:25.17	25.67	10.79	-49.9	-61.8	3.8	8.47e-01	0	40	104	0	70	14963
2026-01-22 03:20:26.18	25.65	10.88	-49.9	-61.8	3.8	8.47e-01	0	40	104	0	70	14986
2026-01-22 03:20:27.19	25.63	10.97	-49.9	-61.8	3.8	8.47e-01	0	41	104	0	70	14951
2026-01-22 03:20:28.20	25.61	11.06	-49.9	-61.8	3.8	8.46e-01	0	41	104	0	70	14991
2026-01-22 03:20:29.21	25.59	11.15	-49.9	-61.8	3.8	8.47e-01	0	41	104	0	70	14974
2026-01-22 03:20:30.22	25.57	11.25	-49.9	-61.8	3.8	8.45e-01	0	40	104	0	70	14949
2026-01-22 03:20:31.23	25.55	11.34	-49.9	-61.8	3.8	8.47e-01	0	41	104	0	70	14963
2026-01-22 03:20:32.24	25.52	11.43	-49.9	-61.8	3.8	8.47e-01	0	41	104	0	70	14955
2026-01-22 03:20:33.25	25.50	11.52	-49.9	-61.8	3.8	8.45e-01	0	41	104	0	70	14985
2026-01-22 03:20:34.25	25.48	11.61	-49.9	-61.8	3.8	8.46e-01	0	41	104	0	70	14957
2026-01-22 03:20:35.26	25.46	11.71	-49.9	-61.8	3.8	8.46e-01	0	41	104	0	70	14985
2026-01-22 03:20:36.27	25.44	11.80	-49.9	-61.8	3.8	8.47e-01	0	41	104	0	70	14975
2026-01-22 03:20:37.28	25.42	11.89	-49.9	-61.8	3.8	8.48e-01	0	40	104	0	70	14921
2026-01-22 03:20:38.28	25.39	11.99	-49.9	-61.8	3.8	8.46e-01	0	41	104	0	70	14962
2026-01-22 03:20:39.29	25.37	12.08	-49.9	-61.8	3.8	8.46e-01	0	40	104	0	70	14965
2026-01-22 03:20:40.30	25.35	12.18	-49.9	-61.8	3.8	8.46e-01	0	40	104	0	70	14920
2026-01-22 03:20:41.31	25.32	12.27	-49.9	-61.8	3.8	8.46e-01	0	41	104	0	70	14975
2026-01-22 03:20:42.32	25.30	12.37	-49.9	-61.8	3.8	8.48e-01	0	41	104	0	70	14956
2026-01-22 03:20:43.33	25.28	12.46	-49.9	-61.8	3.8	8.44e-01	0	41	104	0	70	14990
2026-01-22 03:20:44.34	25.25	12.56	-49.9	-61.8	3.8	8.46e-01	0	41	104	0	70	14959
2026-01-22 03:20:45.35	25.23	12.66	-49.9	-61.8	3.8	8.46e-01	0	40	104	0	70	14965
2026-01-22 03:20:46.35	25.21	12.75	-49.9	-61.8	3.8	8.45e-01	0	41	104	0	70	14969
2026-01-22 03:20:47.36	25.18	12.85	-49.9	-61.8	3.8	8.46e-01	0	40	104	0	70	14958
2026-01-22 03:20:48.37	25.16	12.95	-49.9	-61.8	3.8	8.47e-01	0	41	104	0	70	14962
2026-01-22 03:20:49.38	25.13	13.04	-49.9	-61.8	3.8	8.47e-01	0	41	104	0	70	14942
2026-01-22 03:20:50.39	25.11	13.14	-49.9	-61.8	3.8	8.45e-01	0	41	104	0	70	14941
2026-01-22 03:20:51.40	25.08	13.24	-49.9	-61.8	3.8	8.46e-01	0	41	104	0	70	14994
2026-01-22 03:20:52.41	25.06	13.34	-49.9	-61.8	3.8	8.45e-01	0	41	104	0	70	14952
2026-01-22 03:20:53.42	25.03	13.44	-49.9	-61.8	3.8	8.47e-01	0	40	104	0	70	14960
2026-01-22 03:20:54.43	25.01	13.54	-49.9	-61.8	3.8	8.45e-01	0	40	104	0	70	14969
2026-01-22 03:20:55.43	24.98	13.64	-49.9	-61.8	3.8	8.47e-01	0	41	104	0	70	14973
2026-01-22 03:20:56.44	24.96	13.74	-49.9	-61.8	3.8	8.46e-01	0	40	104	0	70	15012
2026-01-22 03:20:57.45	24.93	13.84	-49.9	-61.8	3.8	8.46e-01	0	41	104	0	70	14941
2026-01-22 03:20:58.46	24.91	13.94	-49.9	-61.8	3.8	8.47e-01	0	41	104	0	70	14957
2026-01-22 03:20:59.47	24.88	14.05	-49.9	-61.8	3.8	8.47e-01	0	41	104	0	70	14958
2026-01-22 03:21:00.47	24.85	14.15	-49.9	-61.8	3.8	8.46e-01	0	41	104	0	70	14967
2026-01-22 03:21:01.48	24.83	14.25	-49.9	-61.8	3.8	8.47e-01	0	41	104	0	70	14944
2026-01-22 03:21:02.49	24.80	14.36	-49.9	-61.8	3.8	8.45e-01	0	41	104	0	70	15009
2026-01-22 03:21:03.50	24.77	14.46	-49.9	-61.8	3.8	8.46e-01	0	41	104	0	70	14972
2026-01-22 03:21:04.51	24.74	14.56	-49.9	-61.8	3.8	8.46e-01	0	41	104	0	70	14992
2026-01-22 03:21:05.52	24.72	14.67	-49.9	-61.8	3.8	8.47e-01	0	41	104	0	70	14978
2026-01-22 03:21:06.53	24.69	14.77	-49.9	-61.8	3.8	8.46e-01	0	41	104	0	70	14957
2026-01-22 03:21:07.53	24.66	14.88	-49.9	-61.8	3.8	8.46e-01	0	41	104	0	70	14976
2026-01-22 03:21:08.54	24.63	14.98	-49.9	-61.8	3.8	8.46e-01	0	41	104	0	70	15038
2026-01-22 03:21:09.55	24.60	15.09	-49.9	-61.8	3.8	8.46e-01	0	41	104	0	70	15035
2026-01-22 03:21:10.56	24.57	15.20	-49.9	-61.8	3.8	8.46e-01	0	41	104	0	70	14996
2026-01-22 03:21:11.57	24.54	15.31	-49.9	-61.8	3.8	8.46e-01	0	41	104	0	70	14953
2026-01-22 03:21:12.58	24.52	15.41	-49.9	-61.8	3.8	8.47e-01	0	41	104	0	70	14950
2026-01-22 03:21:13.59	24.49	15.52	-49.9	-61.8	3.8	8.47e-01	0	41	104	0	70	14957
2026-01-22 03:21:14.59	24.46	15.63	-49.9	-61.8	3.8	8.46e-01	0	41	104	0	70	14978
2026-01-22 03:21:15.60	24.43	15.74	-49.9	-61.8	3.8	8.47e-01	0	40	104	0	70	14955
2026-01-22 03:21:16.61	24.40	15.85	-49.9	-61.8	3.8	8.45e-01	0	41	104	0	70	14982
2026-01-22 03:21:17.62	24.36	15.96	-49.9	-61.8	3.8	8.47e-01	0	41	104	0	70	14985
2026-01-22 03:21:18.63	24.33	16.07	-49.9	-61.8	3.8	8.46e-01	0	41	104	0	70	14997
2026-01-22 03:21:19.63	24.30	16.18	-49.9	-61.8	3.8	8.46e-01	0	41	104	0	70	14987
2026-01-22 03:21:20.64	24.27	16.29	-49.9	-61.8	3.8	8.47e-01	0	41	104	0	70	14958
2026-01-22 03:21:21.65	24.24	16.41	-49.9	-61.8	3.8	8.45e-01	0	41	104	0	70	14982
2026-01-22 03:21:22.66	24.21	16.52	-49.9	-61.8	3.8	8.47e-01	0	41	104	0	70	14964
2026-01-22 03:21:23.67	24.18	16.63	-49.9	-61.8	3.8	8.45e-01	0	41	104	0	70	14974
2026-01-22 03:21:24.68	24.14	16.75	-49.9	-61.8	3.8	8.46e-01	0	41	104	0	70	14954
2026-01-22 03:21:25.69	24.11	16.86	-49.9	-61.8	3.8	8.46e-01	0	41	104	0	70	14987
2026-01-22 03:21:26.69	24.08	16.97	-49.9	-61.8	3.8	8.45e-01	0	41	104	0	70	14962
2026-01-22 03:21:27.70	24.04	17.09	-49.9	-61.8	3.8	8.46e-01	0	41	104	0	70	14989
2026-01-22 03:21:28.71	24.01	17.21	-49.9	-61.8	3.8	8.47e-01	0	41	104	0	70	14931
2026-01-22 03:21:29.72	23.98	17.32	-49.9	-61.8	3.8	8.46e-01	0	41	104	0	70	14995
2026-01-22 03:21:30.72	23.94	17.44	-49.9	-61.8	3.8	8.46e-01	0	41	104	0	70	14980
2026-01-22 03:21:31.73	23.91	17.56	-49.9	-61.8	3.8	8.47e-01	0	41	104	0	70	14979
2026-01-22 03:21:32.75	23.87	17.68	-49.9	-61.8	3.8	8.45e-01	0	41	104	0	70	14961
2026-01-22 03:21:33.75	23.84	17.79	-49.9	-61.8	3.8	8.46e-01	0	41	104	0	70	14929
2026-01-22 03:21:34.76	23.80	17.91	-49.9	-61.8	3.8	8.46e-01	0	41	104	0	70	14947
2026-01-22 03:21:35.77	23.77	18.03	-49.9	-61.8	3.8	8.46e-01	0	41	104	0	70	14971
2026-01-22 03:21:36.78	23.73	18.15	-49.9	-61.8	3.8	8.47e-01	0	41	104	0	70	14982
2026-01-22 03:21:37.79	23.69	18.27	-49.9	-61.8	3.8	8.45e-01	0	41	104	0	70	14991
2026-01-22 03:21:38.80	23.66	18.40	-49.9	-61.8	3.8	8.46e-01	0	41	104	0	70	14953
2026-01-22 03:21:39.81	23.62	18.52	-49.9	-61.8	3.8	8.47e-01	0	41	104	0	70	15034
2026-01-22 03:21:40.81	23.58	18.64	-49.9	-61.8	3.8	8.45e-01	0	41	104	0	70	14954
2026-01-22 03:21:41.82	23.55	18.76	-49.9	-61.8	3.8	8.45e-01	0	41	104	0	70	15003
2026-01-22 03:21:42.83	23.51	18.89	-49.9	-61.8	3.8	8.46e-01	0	41	104	0	70	14969
2026-01-22 03:21:43.84	23.47	19.01	-49.9	-61.8	3.8	8.47e-01	0	41	104	0	70	14971
2026-01-22 03:21:44.85	23.43	19.14	-49.9	-61.8	3.8	8.46e-01	0	41	104	0	70	14996
2026-01-22 03:21:45.86	23.39	19.26	-49.9	-61.8	3.8	8.46e-01	0	41	104	0	70	15012
2026-01-22 03:21:46.87	23.35	19.39	-49.9	-61.8	3.8	8.45e-01	0	41	104	0	70	14982
2026-01-22 03:21:47.87	23.31	19.52	-49.9	-61.8	3.8	8.46e-01	0	41	104	0	70	15002
2026-01-22 03:21:48.88	23.27	19.64	-49.9	-61.8	3.8	8.46e-01	0	41	104	0	70	14973
2026-01-22 03:21:49.89	23.23	19.77	-49.9	-61.8	3.8	8.46e-01	0	41	104	0	70	14968
2026-01-22 03:21:50.90	23.19	19.90	-49.9	-61.8	3.8	8.46e-01	0	41	104	0	70	14979
2026-01-22 03:21:51.91	23.15	20.03	-49.9	-61.8	3.8	8.47e-01	0	41	104	0	70	14972
2026-01-22 03:21:52.92	23.11	20.16	-49.9	-61.8	3.8	8.47e-01	0	41	104	0	70	14920
2026-01-22 03:21:53.93	23.07	20.29	-49.9	-61.8	3.8	8.47e-01	0	41	104	0	70	14944
2026-01-22 03:21:54.93	23.02	20.42	-49.9	-61.8	3.8	8.46e-01	0	41	104	0	70	14986
2026-01-22 03:21:55.94	22.98	20.56	-49.9	-61.8	3.8	8.45e-01	0	41	104	0	70	14988
2026-01-22 03:21:56.95	22.94	20.69	-49.9	-61.8	3.8	8.47e-01	0	41	104	0	70	14985
2026-01-22 03:21:57.96	22.89	20.82	-49.9	-61.8	3.8	8.45e-01	0	41	104	0	70	14973
2026-01-22 03:21:58.97	22.85	20.96	-49.9	-61.8	3.8	8.45e-01	0	41	104	0	70	14970
2026-01-22 03:21:59.98	22.81	21.09	-49.9	-61.8	3.8	8.47e-01	0	41	104	0	70	14964
2026-01-22 03:22:00.99	22.76	21.23	-49.9	-61.8	3.8	8.47e-01	0	41	104	0	70	14966
2026-01-22 03:22:01.99	22.72	21.36	-49.9	-61.8	3.8	8.47e-01	0	41	104	0	70	14977
2026-01-22 03:22:03.00	22.67	21.50	-49.9	-61.8	3.8	8.47e-01	0	41	104	0	70	14997
2026-01-22 03:22:04.01	22.62	21.64	-49.9	-61.8	3.8	8.46e-01	0	41	104	0	70	14966
2026-01-22 03:22:05.02	22.58	21.78	-49.9	-61.8	3.8	8.47e-01	0	41	104	0	70	14992
2026-01-22 03:22:06.03	22.53	21.92	-49.9	-61.8	3.8	8.46e-01	0	41	104	0	70	14984
2026-01-22 03:22:07.04	22.48	22.06	-49.9	-61.8	3.8	8.47e-01	0	41	104	0	70	14991
2026-01-22 03:22:08.05	22.43	22.20	-49.9	-61.8	3.8	8.45e-01	0	41	104	0	70	14965
2026-01-22 03:22:09.06	22.38	22.34	-49.9	-61.8	3.8	8.45e-01	0	41	104	0	70	14980
2026-01-22 03:22:10.07	22.34	22.48	-49.9	-61.8	3.8	8.45e-01	0	41	104	0	70	15003
2026-01-22 03:22:11.07	22.29	22.63	-49.9	-61.8	3.8	8.45e-01	0	41	104	0	70	14951
2026-01-22 03:22:12.08	22.24	22.77	-49.9	-61.8	3.8	8.45e-01	0	41	104	0	70	14968
2026-01-22 03:22:13.09	22.19	22.92	-49.9	-61.8	3.8	8.46e-01	0	41	104	0	70	14984
2026-01-22 03:22:14.10	22.13	23.06	-49.9	-61.8	3.8	8.46e-01	0	41	104	0	70	14974
2026-01-22 03:22:15.11	22.08	23.21	-49.9	-61.8	3.8	8.46e-01	0	41	104	0	70	14969
2026-01-22 03:22:16.12	22.03	23.36	-49.9	-61.8	3.8	8.47e-01	0	41	104	0	70	14989
2026-01-22 03:22:17.13	21.98	23.50	-49.9	-61.8	3.8	8.46e-01	0	41	104	0	70	14997
2026-01-22 03:22:18.13	21.93	23.65	-49.9	-61.8	3.8	8.46e-01	0	41	104	0	70	14967
2026-01-22 03:22:19.14	21.87	23.80	-49.9	-61.8	3.8	8.46e-01	0	41	104	0	70	14960
2026-01-22 03:22:20.15	21.82	23.95	-49.9	-61.8	3.8	8.46e-01	0	41	104	0	70	14958
2026-01-22 03:22:21.15	21.76	24.10	-49.9	-61.8	3.8	8.45e-01	0	41	104	0	70	14991
2026-01-22 03:22:22.17	21.71	24.26	-49.9	-61.8	3.8	8.46e-01	0	41	104	0	70	14990
2026-01-22 03:22:23.17	21.65	24.41	-49.9	-61.8	3.8	8.47e-01	0	41	104	0	70	14996
2026-01-22 03:22:24.18	21.59	24.56	-49.9	-61.8	3.8	8.46e-01	0	41	104	0	70	15002
2026-01-22 03:22:25.19	21.54	24.72	-49.9	-61.8	3.8	8.46e-01	0	41	104	0	70	14961
2026-01-22 03:22:26.20	21.48	24.87	-49.9	-61.8	3.8	8.47e-01	0	41	104	0	70	15004
2026-01-22 03:22:27.20	21.42	25.03	-49.9	-61.8	3.8	8.46e-01	0	41	104	0	70	14942
2026-01-22 03:22:28.21	21.36	25.19	-49.9	-61.8	3.8	8.46e-01	0	41	104	0	70	15008
2026-01-22 03:22:29.22	21.30	25.34	-49.9	-61.8	3.8	8.46e-01	0	41	104	0	70	15014
2026-01-22 03:22:30.23	21.24	25.50	-49.9	-61.8	3.8	8.46e-01	0	41	104	0	70	14948
2026-01-22 03:22:31.24	21.18	25.66	-49.9	-61.8	3.8	8.46e-01	0	41	104	0	70	14971
2026-01-22 03:22:32.24	21.12	25.82	-49.9	-61.8	3.8	8.45e-01	0	41	104	0	70	14989
2026-01-22 03:22:33.25	21.06	25.99	-49.9	-61.8	3.8	8.45e-01	0	41	104	0	70	15001
2026-01-22 03:22:34.26	21.00	26.15	-49.9	-61.8	3.8	8.45e-01	0	41	104	0	70	14980
2026-01-22 03:22:35.27	20.93	26.31	-49.9	-61.8	3.8	8.47e-01	0	41	104	0	70	14979
2026-01-22 03:22:36.28	20.87	26.48	-49.9	-61.8	3.8	8.46e-01	0	41	104	0	70	14993
2026-01-22 03:22:37.29	20.80	26.65	-49.9	-61.8	3.8	8.47e-01	0	41	104	0	70	14962
2026-01-22 03:22:38.30	20.74	26.81	-49.9	-61.8	3.8	8.46e-01	0	41	104	0	70	15008
2026-01-22 03:22:39.31	20.67	26.98	-49.9	-61.8	3.8	8.46e-01	0	41	104	0	70	14972
2026-01-22 03:22:40.32	20.60	27.15	-49.9	-61.8	3.8	8.46e-01	0	41	104	0	70	15007
2026-01-22 03:22:41.33	20.53	27.32	-49.9	-61.8	3.8	8.46e-01	0	41	104	0	70	14966
2026-01-22 03:22:42.33	20.47	27.49	-49.9	-61.8	3.8	8.46e-01	0	41	104	0	70	14998
2026-01-22 03:22:43.34	20.40	27.66	-49.9	-61.8	3.8	8.46e-01	0	41	104	0	70	14991
2026-01-22 03:22:44.35	20.33	27.83	-49.9	-61.8	3.8	8.45e-01	0	41	104	0	70	14977
2026-01-22 03:22:45.36	20.25	28.01	-49.9	-61.8	3.8	8.46e-01	0	41	104	0	70	14992
2026-01-22 03:22:46.37	20.18	28.18	-49.9	-61.8	3.8	8.46e-01	0	41	104	0	70	14966
2026-01-22 03:22:47.37	20.11	28.36	-49.9	-61.8	3.8	8.47e-01	0	41	104	0	70	14991
2026-01-22 03:22:48.38	20.04	28.54	-49.9	-61.8	3.8	8.46e-01	0	41	104	0	70	14993
2026-01-22 03:22:49.39	19.96	28.72	-49.9	-61.8	3.8	8.45e-01	0	41	104	0	70	14956
2026-01-22 03:22:50.39	19.89	28.89	-49.9	-61.8	3.8	8.47e-01	0	41	104	0	70	14991
2026-01-22 03:22:51.40	19.81	29.07	-49.9	-61.8	3.8	8.47e-01	0	41	104	0	70	14980
2026-01-22 03:22:52.41	19.73	29.26	-49.9	-61.8	3.8	8.47e-01	0	41	104	0	70	14987
2026-01-22 03:22:53.42	19.66	29.44	-49.9	-61.8	3.8	8.46e-01	0	41	104	0	70	14967
2026-01-22 03:22:54.43	19.58	29.62	-49.9	-61.8	3.8	8.46e-01	0	41	104	0	70	14958
2026-01-22 03:22:55.44	19.50	29.81	-49.9	-61.8	3.8	8.45e-01	0	41	104	0	70	14984
2026-01-22 03:22:56.45	19.42	29.99	-49.9	-61.8	3.8	8.47e-01	0	41	104	0	70	14980
2026-01-22 03:22:57.46	19.33	30.18	-49.9	-61.8	3.8	8.46e-01	0	41	104	0	70	15002
2026-01-22 03:22:58.47	19.25	30.37	-49.9	-61.8	3.8	8.45e-01	0	41	104	0	70	15001
2026-01-22 03:22:59.47	19.17	30.56	-49.9	-61.8	3.8	8.47e-01	0	41	104	0	70	14943
2026-01-22 03:23:00.49	19.08	30.75	-49.9	-61.8	3.8	8.46e-01	0	41	104	0	70	14960
2026-01-22 03:23:01.49	19.00	30.94	-49.9	-61.8	3.8	8.45e-01	0	41	104	0	70	15011
2026-01-22 03:23:02.50	18.91	31.14	-49.9	-61.8	3.8	8.46e-01	0	41	104	0	70	14981
2026-01-22 03:23:03.51	18.82	31.33	-49.9	-61.8	3.8	8.45e-01	0	41	104	0	70	14961
2026-01-22 03:23:04.52	18.73	31.53	-49.9	-61.8	3.8	8.46e-01	0	41	104	0	70	14954
2026-01-22 03:23:05.53	18.64	31.72	-49.9	-61.8	3.8	8.47e-01	0	41	104	0	70	14948
2026-01-22 03:23:06.54	18.55	31.92	-49.9	-61.8	3.8	8.45e-01	0	41	104	0	70	14996
2026-01-22 03:23:07.55	18.45	32.12	-49.9	-61.8	3.8	8.45e-01	0	41	104	0	70	15000
2026-01-22 03:23:08.55	18.36	32.32	-49.9	-61.8	3.8	8.46e-01	0	41	104	0	70	14987
2026-01-22 03:23:09.56	18.27	32.52	-49.9	-61.8	3.8	8.46e-01	0	41	104	0	70	14956
2026-01-22 03:23:10.57	18.17	32.73	-49.9	-61.8	3.8	8.45e-01	0	41	104	0	70	14970
2026-01-22 03:23:11.58	18.07	32.93	-49.9	-61.8	3.8	8.46e-01	0	41	104	0	70	14976
2026-01-22 03:23:12.59	17.97	33.14	-49.9	-61.8	3.8	8.45e-01	0	41	104	0	70	14954
2026-01-22 03:23:13.59	17.87	33.34	-49.9	-61.8	3.8	8.46e-01	0	41	104	0	70	14906
2026-01-22 03:23:14.60	17.77	33.55	-49.9	-61.8	3.8	8.45e-01	0	41	104	0	70	15008
2026-01-22 03:23:15.61	17.67	33.76	-49.9	-61.8	3.8	8.46e-01	0	41	104	0	70	14971
2026-01-22 03:23:16.62	17.56	33.97	-49.9	-61.8	3.8	8.47e-01	0	41	104	0	70	14975
2026-01-22 03:23:17.63	17.46	34.18	-49.9	-61.8	3.8	8.45e-01	0	41	104	0	70	15002
2026-01-22 03:23:18.64	17.35	34.40	-49.9	-61.8	3.8	8.46e-01	0	41	104	0	70	14977
2026-01-22 03:23:19.65	17.24	34.61	-49.9	-61.8	3.8	8.46e-01	0	41	104	0	70	14977
2026-01-22 03:23:20.65	17.13	34.83	-49.9	-61.8	3.8	8.46e-01	0	41	104	0	70	14994
2026-01-22 03:23:21.66	17.02	35.05	-49.9	-61.8	3.8	8.46e-01	0	41	104	0	70	14988
2026-01-22 03:23:22.67	16.91	35.26	-49.9	-61.8	3.8	8.46e-01	0	41	104	0	70	14991
2026-01-22 03:23:23.68	16.79	35.49	-49.9	-61.8	3.8	8.44e-01	0	41	104	0	70	14975
2026-01-22 03:23:24.69	16.67	35.71	-49.9	-61.8	3.8	8.45e-01	0	41	104	0	70	14966
2026-01-22 03:23:25.70	16.55	35.93	-49.9	-61.8	3.8	8.46e-01	0	41	104	0	70	14985
2026-01-22 03:23:26.71	16.43	36.16	-49.9	-61.8	3.8	8.45e-01	0	41	104	0	70	15017
2026-01-22 03:23:27.71	16.31	36.38	-49.9	-61.8	3.8	8.47e-01	0	41	104	0	70	14962
2026-01-22 03:23:28.72	16.19	36.61	-49.9	-61.8	3.8	8.46e-01	0	41	104	0	70	14966
2026-01-22 03:23:29.73	16.07	36.84	-49.9	-61.8	3.8	8.45e-01	0	41	104	0	70	14982
2026-01-22 03:23:30.74	15.94	37.07	-49.9	-61.8	3.8	8.46e-01	0	41	104	0	70	14998
2026-01-22 03:23:31.75	15.81	37.30	-49.9	-61.8	3.8	8.45e-01	0	41	104	0	70	15017
2026-01-22 03:23:32.76	15.68	37.54	-49.9	-61.8	3.8	8.47e-01	0	41	104	0	70	15010
2026-01-22 03:23:33.77	15.54	37.77	-49.9	-61.8	3.8	8.46e-01	0	41	104	0	70	14966
2026-01-22 03:23:34.78	15.41	38.01	-49.9	-61.8	3.8	8.47e-01	0	41	104	0	70	15000
2026-01-22 03:23:35.79	15.27	38.25	-49.9	-61.8	3.8	8.47e-01	0	41	104	0	70	15036
2026-01-22 03:23:36.79	15.14	38.48	-49.9	-61.8	3.8	8.46e-01	0	41	104	0	70	14971
2026-01-22 03:23:37.80	14.99	38.72	-49.9	-61.8	3.8	8.46e-01	0	41	104	0	70	15008
2026-01-22 03:23:38.81	14.85	38.97	-49.9	-61.8	3.8	8.47e-01	0	41	104	0	70	14965
2026-01-22 03:23:39.82	14.70	39.21	-49.9	-61.8	3.8	8.46e-01	0	41	104	0	70	14995
2026-01-22 03:23:40.83	14.56	39.46	-49.9	-61.8	3.8	8.47e-01	0	41	104	0	70	15005
2026-01-22 03:23:41.84	14.41	39.70	-49.9	-61.8	3.8	8.46e-01	0	41	104	0	70	15045
2026-01-22 03:23:42.85	14.25	39.95	-49.9	-61.8	3.8	8.46e-01	0	41	104	0	70	14967
2026-01-22 03:23:43.85	14.10	40.20	-49.9	-61.8	3.8	8.46e-01	0	41	104	0	70	14980
2026-01-22 03:23:44.86	13.94	40.45	-49.9	-61.8	3.8	8.46e-01	0	41	104	0	70	15039
2026-01-22 03:23:45.87	13.78	40.71	-49.9	-61.8	3.8	8.46e-01	0	41	104	0	70	15019
2026-01-22 03:23:46.88	13.62	40.96	-49.9	-61.8	3.8	8.45e-01	0	41	104	0	70	14991
2026-01-22 03:23:47.89	13.46	41.22	-49.9	-61.8	3.8	8.45e-01	0	41	104	0	70	14999
2026-01-22 03:23:48.89	13.29	41.47	-49.9	-61.8	3.8	8.46e-01	0	41	104	0	70	14935
2026-01-22 03:23:49.90	13.12	41.73	-49.9	-61.8	3.8	8.48e-01	0	41	104	0	70	14976
2026-01-22 03:23:50.91	12.95	41.99	-49.9	-61.8	3.8	8.46e-01	0	41	104	0	70	14966
2026-01-22 03:23:51.92	12.77	42.26	-49.9	-61.8	3.8	8.46e-01	0	41	104	0	70	15035
2026-01-22 03:23:52.92	12.59	42.52	-49.9	-61.8	3.8	8.46e-01	0	41	104	0	70	14972
2026-01-22 03:23:53.93	12.41	42.78	-49.9	-61.8	3.8	8.46e-01	0	41	104	0	70	14991
2026-01-22 03:23:54.94	12.22	43.05	-49.9	-61.8	3.8	8.46e-01	0	41	104	0	70	14977
2026-01-22 03:23:55.95	12.03	43.32	-49.9	-61.8	3.8	8.46e-01	0	41	104	0	70	15004
2026-01-22 03:23:56.96	11.84	43.59	-49.9	-61.8	3.8	8.46e-01	0	41	104	0	70	14973
2026-01-22 03:23:57.97	11.65	43.86	-49.9	-61.8	3.8	8.45e-01	0	41	104	0	70	14974
2026-01-22 03:23:58.97	11.45	44.13	-49.9	-61.8	3.8	8.45e-01	0	41	104	0	70	14980
2026-01-22 03:23:59.98	11.25	44.41	-49.9	-61.8	3.8	8.44e-01	0	41	104	0	70	14962
2026-01-22 03:24:00.99	11.04	44.69	-49.9	-61.8	3.8	8.45e-01	0	41	104	0	70	14994
2026-01-22 03:24:02.00	10.83	44.96	-49.9	-61.8	3.8	8.46e-01	0	41	104	0	70	15010
2026-01-22 03:24:03.01	10.62	45.24	-49.9	-61.8	3.8	8.47e-01	0	41	104	0	70	15007
2026-01-22 03:24:04.01	10.41	45.52	-49.9	-61.8	3.8	8.46e-01	0	41	104	0	70	14958
2026-01-22 03:24:05.02	10.18	45.80	-49.9	-61.8	3.8	8.46e-01	0	41	104	0	70	14975
2026-01-22 03:24:06.03	9.96	46.09	-49.9	-61.8	3.8	8.46e-01	0	41	104	0	70	15038
2026-01-22 03:24:07.04	9.73	46.37	-49.9	-61.8	3.8	8.46e-01	0	41	104	0	70	14984
2026-01-22 03:24:08.05	9.50	46.66	-49.9	-61.8	3.8	8.46e-01	0	41	104	0	70	14914
2026-01-22 03:24:09.05	9.26	46.95	-49.9	-61.8	3.8	8.46e-01	0	41	104	0	70	14969
2026-01-22 03:24:10.06	9.02	47.24	-49.9	-61.8	3.8	8.47e-01	0	41	104	0	70	14996
2026-01-22 03:24:11.07	8.77	47.53	-49.9	-61.8	3.8	8.46e-01	0	41	104	0	70	14982
2026-01-22 03:24:12.08	8.52	47.82	-49.9	-61.8	3.8	8.45e-01	0	41	104	0	70	15007
2026-01-22 03:24:13.09	8.26	48.12	-49.9	-61.8	3.8	8.47e-01	0	41	104	0	70	14988
2026-01-22 03:24:14.09	8.00	48.41	-49.9	-61.8	3.8	8.47e-01	0	41	104	0	70	14984
2026-01-22 03:24:15.10	7.74	48.70	-49.9	-61.8	3.8	8.45e-01	0	41	104	0	70	14991
2026-01-22 03:24:16.11	7.46	49.00	-49.9	-61.8	3.8	8.48e-01	0	41	104	0	70	14940
2026-01-22 03:24:17.12	7.19	49.30	-49.9	-61.8	3.8	8.46e-01	0	41	104	0	70	15007
2026-01-22 03:24:18.13	6.90	49.60	-49.9	-61.8	3.8	8.47e-01	0	41	104	0	70	14956
2026-01-22 03:24:19.13	6.62	49.90	-49.9	-61.8	3.8	8.47e-01	0	41	104	0	70	14966
2026-01-22 03:24:20.14	6.32	50.21	-49.9	-61.8	3.8	8.45e-01	0	41	104	0	70	15010
2026-01-22 03:24:21.15	6.02	50.51	-49.9	-61.8	3.8	8.46e-01	0	41	104	0	70	14940
2026-01-22 03:24:22.16	5.72	50.82	-49.9	-61.8	3.8	8.46e-01	0	41	104	0	70	14939
2026-01-22 03:24:23.16	5.41	51.12	-49.9	-61.8	3.8	8.47e-01	0	41	104	0	70	14931
2026-01-22 03:24:24.17	5.09	51.43	-49.9	-61.8	3.8	8.46e-01	0	41	104	0	70	14939
2026-01-22 03:24:25.18	4.76	51.74	-49.9	-61.8	3.8	8.48e-01	0	41	104	0	70	14968
2026-01-22 03:24:26.19	4.43	52.05	-49.9	-61.8	3.8	8.46e-01	0	41	104	0	70	14953
2026-01-22 03:24:27.20	4.08	52.36	-49.9	-61.8	3.8	8.46e-01	0	41	104	0	70	14985
2026-01-22 03:24:28.21	3.74	52.67	-49.9	-61.8	3.8	8.46e-01	0	41	104	0	70	14968
2026-01-22 03:24:29.21	3.38	52.98	-49.9	-61.8	3.8	8.46e-01	0	41	104	0	70	14959
2026-01-22 03:24:30.22	3.02	53.29	-49.9	-61.8	3.8	8.46e-01	0	41	104	0	70	14968
2026-01-22 03:24:31.23	2.65	53.61	-49.9	-61.8	3.8	8.46e-01	0	41	104	0	70	14967
2026-01-22 03:24:32.23	2.27	53.92	-49.9	-61.8	3.8	8.47e-01	0	41	104	0	70	15042
2026-01-22 03:24:33.24	1.89	54.23	-49.9	-61.8	3.8	8.45e-01	0	41	104	0	70	14984
2026-01-22 03:24:34.25	1.49	54.55	-49.9	-61.8	3.8	8.47e-01	0	41	104	0	70	14955
2026-01-22 03:24:35.26	1.09	54.86	-49.9	-61.8	3.8	8.47e-01	0	41	104	0	70	14986
2026-01-22 03:24:36.27	0.67	55.18	-49.9	-61.8	3.8	8.47e-01	0	41	104	0	70	15019
2026-01-22 03:24:37.28	0.25	55.50	-49.9	-61.8	3.8	8.45e-01	0	41	104	0	70	14981
2026-01-22 03:24:38.29	359.81	55.82	-49.9	-61.8	3.8	8.45e-01	0	41	104	0	70	15033
2026-01-22 03:24:39.29	359.37	56.13	-49.9	-61.8	3.8	8.47e-01	0	41	104	0	70	14980
2026-01-22 03:24:40.30	358.92	56.45	-49.9	-61.8	3.8	8.46e-01	0	41	104	0	70	15024
2026-01-22 03:24:41.31	358.45	56.77	-49.9	-61.8	3.8	8.46e-01	0	41	104	0	70	14980
2026-01-22 03:24:42.31	357.98	57.08	-49.9	-61.8	3.8	8.46e-01	0	41	104	0	70	14984
2026-01-22 03:24:43.32	357.50	57.40	-49.9	-61.8	3.8	8.45e-01	0	41	104	0	70	14992
2026-01-22 03:24:44.33	357.00	57.72	-49.9	-61.8	3.8	8.46e-01	0	41	104	0	70	14952
2026-01-22 03:24:45.34	356.49	58.03	-49.9	-61.8	3.8	8.46e-01	0	41	104	0	70	14969
2026-01-22 03:24:46.35	355.96	58.35	-49.9	-61.8	3.8	8.46e-01	0	41	104	0	70	14989
2026-01-22 03:24:47.36	355.43	58.67	-49.9	-61.8	3.8	8.45e-01	0	41	104	0	70	14975
2026-01-22 03:24:48.36	354.89	58.98	-49.9	-61.8	3.8	8.46e-01	0	41	104	0	70	14967
2026-01-22 03:24:49.37	354.32	59.29	-49.9	-61.8	3.8	8.47e-01	0	41	104	0	70	14971
2026-01-22 03:24:50.38	353.75	59.61	-49.9	-61.8	3.8	8.45e-01	0	41	104	0	70	14948
2026-01-22 03:24:51.39	353.16	59.92	-49.9	-61.8	3.8	8.45e-01	0	41	104	0	70	14984
2026-01-22 03:24:52.40	352.55	60.23	-49.9	-61.8	3.8	8.46e-01	0	41	104	0	70	14945
2026-01-22 03:24:53.41	351.94	60.54	-49.9	-61.8	3.8	8.47e-01	0	41	104	0	70	14970
2026-01-22 03:24:54.41	351.31	60.84	-49.9	-61.8	3.8	8.46e-01	0	41	104	0	70	14950
2026-01-22 03:24:55.42	350.66	61.15	-49.9	-61.8	3.8	8.47e-01	0	41	104	0	70	14969
2026-01-22 03:24:56.43	349.99	61.45	-49.9	-61.8	3.8	8.46e-01	0	41	104	0	70	14979
2026-01-22 03:24:57.44	349.31	61.76	-49.9	-61.8	3.8	8.46e-01	0	41	104	0	70	14924
2026-01-22 03:24:58.45	348.61	62.06	-49.9	-61.8	3.8	8.48e-01	0	41	104	0	70	14945
2026-01-22 03:24:59.45	347.90	62.35	-49.9	-61.8	3.8	8.47e-01	0	41	104	0	70	15011
2026-01-22 03:25:00.46	347.17	62.65	-49.9	-61.8	3.8	8.46e-01	0	41	104	0	70	14990
2026-01-22 03:25:01.47	346.41	62.94	-49.9	-61.8	3.8	8.46e-01	0	41	104	0	70	14967
2026-01-22 03:25:02.48	345.64	63.23	-49.9	-61.8	3.8	8.46e-01	0	41	104	0	70	14986
2026-01-22 03:25:03.49	344.85	63.51	-49.9	-61.8	3.8	8.47e-01	0	41	104	0	70	14990
2026-01-22 03:25:04.49	344.05	63.79	-49.9	-61.8	3.8	8.46e-01	0	41	104	0	70	14960
2026-01-22 03:25:05.50	343.22	64.07	-49.9	-61.8	3.8	8.47e-01	0	41	104	0	70	14936
2026-01-22 03:25:06.51	342.37	64.35	-49.9	-61.8	3.8	8.47e-01	0	41	104	0	70	14985
2026-01-22 03:25:07.51	341.51	64.61	-49.9	-61.8	3.8	8.47e-01	0	41	104	0	70	14974
2026-01-22 03:25:08.52	340.62	64.88	-49.9	-61.8	3.8	8.47e-01	0	41	104	0	70	14953
2026-01-22 03:25:09.53	339.70	65.14	-49.9	-61.8	3.8	8.45e-01	0	41	104	0	70	15008
2026-01-22 03:25:10.54	338.77	65.40	-49.9	-61.8	3.8	8.45e-01	0	41	104	0	70	15003
2026-01-22 03:25:11.55	337.82	65.65	-49.9	-61.8	3.8	8.46e-01	0	41	104	0	70	14978
2026-01-22 03:25:12.56	336.84	65.89	-49.9	-61.8	3.8	8.46e-01	0	41	104	0	70	14901
2026-01-22 03:25:13.56	335.85	66.13	-49.9	-61.8	3.8	8.46e-01	0	41	104	0	70	14956
2026-01-22 03:25:14.57	334.83	66.37	-49.9	-61.8	3.8	8.46e-01	0	41	104	0	70	15005
2026-01-22 03:25:15.58	333.78	66.59	-49.9	-61.8	3.8	8.46e-01	0	41	104	0	70	14995
2026-01-22 03:25:16.59	332.72	66.81	-49.9	-61.8	3.8	8.47e-01	0	41	104	0	70	14987
2026-01-22 03:25:17.60	331.63	67.03	-49.9	-61.8	3.8	8.47e-01	0	41	104	0	70	14961
2026-01-22 03:25:18.61	330.52	67.23	-49.9	-61.8	3.8	8.46e-01	0	41	104	0	70	14966
2026-01-22 03:25:19.62	329.39	67.43	-49.9	-61.8	3.8	8.46e-01	0	41	104	0	70	14931
2026-01-22 03:25:20.63	328.24	67.62	-49.9	-61.8	3.8	8.47e-01	0	41	104	0	70	14945
2026-01-22 03:25:21.64	327.06	67.81	-49.9	-61.8	3.8	8.46e-01	0	41	104	0	70	14949
2026-01-22 03:25:22.64	325.88	67.98	-49.9	-61.8	3.8	8.46e-01	0	41	104	0	70	14929
2026-01-22 03:25:23.65	324.66	68.15	-49.9	-61.8	3.8	8.45e-01	0	40	104	0	70	15016
2026-01-22 03:25:24.66	323.43	68.30	-49.9	-61.8	3.8	8.46e-01	0	41	104	0	70	14974
2026-01-22 03:25:25.67	322.17	68.45	-49.9	-61.8	3.8	8.46e-01	0	41	104	0	70	14963
2026-01-22 03:25:26.68	320.90	68.59	-49.9	-61.8	3.8	8.46e-01	0	41	104	0	70	14912
2026-01-22 03:25:27.69	319.61	68.72	-49.9	-61.8	3.8	8.45e-01	0	41	104	0	70	14993
2026-01-22 03:25:28.70	318.30	68.84	-49.9	-61.8	3.8	8.46e-01	0	41	104	0	70	14937
2026-01-22 03:25:29.71	316.98	68.95	-49.9	-61.8	3.8	8.46e-01	0	41	104	0	70	14962
2026-01-22 03:25:30.72	315.64	69.04	-49.9	-61.8	3.8	8.46e-01	0	41	104	0	70	14968
2026-01-22 03:25:31.72	314.31	69.13	-49.9	-61.8	3.8	8.46e-01	0	41	104	0	70	15046
2026-01-22 03:25:32.73	312.95	69.21	-49.9	-61.8	3.8	8.47e-01	0	41	104	0	70	14956
2026-01-22 03:25:33.74	311.58	69.27	-49.9	-61.8	3.8	8.46e-01	0	41	104	0	70	14952
2026-01-22 03:25:34.75	310.20	69.33	-49.9	-61.8	3.8	8.46e-01	0	41	104	0	70	14995
2026-01-22 03:25:35.76	308.81	69.37	-49.9	-61.8	3.8	8.45e-01	0	41	104	0	70	14951
2026-01-22 03:25:36.77	307.42	69.40	-49.9	-61.8	3.8	8.46e-01	0	41	104	0	70	14990
2026-01-22 03:25:37.77	306.04	69.42	-49.9	-61.8	3.8	8.46e-01	0	41	104	0	70	14963
2026-01-22 03:25:38.78	304.64	69.43	-49.9	-61.8	3.8	8.46e-01	0	41	104	0	70	14964
2026-01-22 03:25:39.79	303.24	69.43	-49.9	-61.8	3.8	8.46e-01	0	41	104	0	70	14990
2026-01-22 03:25:40.80	301.84	69.42	-49.9	-61.8	3.8	8.46e-01	0	41	104	0	70	14942
2026-01-22 03:25:41.81	300.45	69.39	-49.9	-61.8	3.8	8.46e-01	0	41	104	0	70	14973
2026-01-22 03:25:42.81	299.07	69.36	-49.9	-61.8	3.8	8.46e-01	0	41	104	0	70	14934
2026-01-22 03:25:43.82	297.69	69.31	-49.9	-61.8	3.8	8.46e-01	0	41	104	0	70	14953
2026-01-22 03:25:44.83	296.31	69.25	-49.9	-61.8	3.8	8.45e-01	0	41	104	0	70	14950
2026-01-22 03:25:45.84	294.94	69.18	-49.9	-61.8	3.8	8.46e-01	0	41	104	0	70	14963
2026-01-22 03:25:46.85	293.59	69.10	-49.9	-61.8	3.8	8.46e-01	0	41	104	0	70	14926
2026-01-22 03:25:47.85	292.26	69.01	-49.9	-61.8	3.8	8.46e-01	0	41	104	0	70	14992
2026-01-22 03:25:48.86	290.92	68.91	-49.9	-61.8	3.8	8.46e-01	0	41	104	0	70	14953
2026-01-22 03:25:49.87	289.61	68.80	-49.9	-61.8	3.8	8.45e-01	0	41	104	0	70	14981
2026-01-22 03:25:50.88	288.31	68.67	-49.9	-61.8	3.8	8.45e-01	0	41	104	0	70	14940
2026-01-22 03:25:51.89	287.02	68.54	-49.9	-61.8	3.8	8.46e-01	0	41	104	0	70	14980
2026-01-22 03:25:52.90	285.75	68.40	-49.9	-61.8	3.8	8.46e-01	0	41	104	0	70	14932
2026-01-22 03:25:53.91	284.51	68.25	-49.9	-61.8	3.8	8.45e-01	0	41	104	0	70	14917
2026-01-22 03:25:54.92	283.28	68.09	-49.9	-61.8	3.8	8.47e-01	0	41	104	0	70	14965
2026-01-22 03:25:55.93	282.07	67.92	-49.9	-61.8	3.8	8.46e-01	0	41	104	0	70	14972
2026-01-22 03:25:56.93	280.89	67.74	-49.9	-61.8	3.8	8.46e-01	0	41	104	0	70	14966
2026-01-22 03:25:57.94	279.72	67.56	-49.9	-61.8	3.8	8.47e-01	0	41	104	0	70	14957
2026-01-22 03:25:58.95	278.57	67.36	-49.9	-61.8	3.8	8.45e-01	0	41	104	0	70	14924
2026-01-22 03:25:59.96	277.45	67.16	-49.9	-61.8	3.8	8.46e-01	0	41	104	0	70	14993
2026-01-22 03:26:00.97	276.35	66.95	-49.9	-61.8	3.8	8.47e-01	0	41	104	0	70	14925
2026-01-22 03:26:01.97	275.28	66.74	-49.9	-61.8	3.8	8.47e-01	0	41	104	0	70	14923
2026-01-22 03:26:02.98	274.22	66.51	-49.9	-61.8	3.8	8.45e-01	0	41	104	0	70	14987
2026-01-22 03:26:03.99	273.18	66.28	-49.9	-61.8	3.8	8.46e-01	0	41	104	0	70	14988
2026-01-22 03:26:05.00	272.17	66.05	-49.9	-61.8	3.8	8.48e-01	0	41	104	0	70	14942
2026-01-22 03:26:06.01	271.17	65.80	-49.9	-61.8	3.8	8.47e-01	0	41	104	0	70	14970
2026-01-22 03:26:07.02	270.20	65.56	-49.9	-61.8	3.8	8.46e-01	0	41	104	0	70	14964
2026-01-22 03:26:08.03	269.26	65.30	-49.9	-61.8	3.8	8.47e-01	0	41	104	0	70	14979
2026-01-22 03:26:09.03	268.34	65.05	-49.9	-61.8	3.8	8.46e-01	0	41	104	0	70	14962
2026-01-22 03:26:10.04	267.43	64.78	-49.9	-61.8	3.8	8.47e-01	0	41	104	0	70	14960
2026-01-22 03:26:11.05	266.55	64.52	-49.9	-61.8	3.8	8.46e-01	0	41	104	0	70	14984
2026-01-22 03:26:12.06	265.68	64.24	-49.9	-61.8	3.8	8.47e-01	0	41	104	0	70	14928
2026-01-22 03:26:13.07	264.84	63.97	-49.9	-61.8	3.8	8.46e-01	0	41	104	0	70	14946
2026-01-22 03:26:14.08	264.02	63.69	-49.9	-61.8	3.8	8.45e-01	0	41	104	0	70	14944
2026-01-22 03:26:15.09	263.21	63.40	-49.9	-61.8	3.8	8.47e-01	0	41	104	0	70	14942
2026-01-22 03:26:16.09	262.44	63.12	-49.9	-61.8	3.8	8.47e-01	0	41	104	0	70	14978
2026-01-22 03:26:17.10	261.67	62.83	-49.9	-61.8	3.8	8.47e-01	0	41	104	0	70	14959
2026-01-22 03:26:18.11	260.93	62.53	-49.9	-61.8	3.8	8.47e-01	0	41	104	0	70	14949
2026-01-22 03:26:19.12	260.20	62.24	-49.9	-61.8	3.8	8.45e-01	0	41	104	0	70	14967
2026-01-22 03:26:20.13	259.49	61.94	-49.9	-61.8	3.8	8.46e-01	0	41	104	0	70	14981
2026-01-22 03:26:21.13	258.80	61.64	-49.9	-61.8	3.8	8.45e-01	0	41	104	0	70	14942
2026-01-22 03:26:22.14	258.12	61.34	-49.9	-61.8	3.8	8.46e-01	0	41	104	0	70	14964
2026-01-22 03:26:23.15	257.46	61.03	-49.9	-61.8	3.8	8.46e-01	0	41	104	0	70	14911
2026-01-22 03:26:24.16	256.82	60.72	-49.9	-61.8	3.8	8.46e-01	0	41	104	0	70	14971
2026-01-22 03:26:25.17	256.19	60.41	-49.9	-61.8	3.8	8.47e-01	0	41	104	0	70	14947
2026-01-22 03:26:26.17	255.58	60.11	-49.9	-61.8	3.8	8.46e-01	0	41	104	0	70	14973
2026-01-22 03:26:27.18	254.98	59.79	-49.9	-61.8	3.8	8.47e-01	0	41	104	0	70	14972
2026-01-22 03:26:28.19	254.39	59.48	-49.9	-61.8	3.8	8.45e-01	0	41	104	0	70	14986
2026-01-22 03:26:29.20	253.82	59.17	-49.9	-61.8	3.8	8.47e-01	0	41	104	0	70	14954
2026-01-22 03:26:30.21	253.27	58.85	-49.9	-61.8	3.8	8.46e-01	0	41	104	0	70	14952
2026-01-22 03:26:31.21	252.73	58.54	-49.9	-61.8	3.8	8.46e-01	0	41	104	0	70	14965
2026-01-22 03:26:32.22	252.20	58.22	-49.9	-61.8	3.8	8.47e-01	0	41	104	0	70	14947
2026-01-22 03:26:33.23	251.68	57.90	-49.9	-61.8	3.8	8.47e-01	0	41	104	0	70	14913
2026-01-22 03:26:34.24	251.17	57.59	-49.9	-61.8	3.8	8.47e-01	0	41	104	0	70	14961
2026-01-22 03:26:35.25	250.67	57.27	-49.9	-61.8	3.8	8.47e-01	0	41	104	0	70	14961
2026-01-22 03:26:36.26	250.19	56.95	-49.9	-61.8	3.8	8.46e-01	0	41	104	0	70	14987
2026-01-22 03:26:37.27	249.72	56.63	-49.9	-61.8	3.8	8.47e-01	0	41	104	0	70	14912
2026-01-22 03:26:38.28	249.26	56.31	-49.9	-61.8	3.8	8.46e-01	0	41	104	0	70	14941
2026-01-22 03:26:39.29	248.81	55.99	-49.9	-61.8	3.8	8.46e-01	0	41	104	0	70	14954
2026-01-22 03:26:40.30	248.37	55.68	-49.9	-61.8	3.8	8.47e-01	0	41	104	0	70	14931
2026-01-22 03:26:41.31	247.94	55.36	-49.9	-61.8	3.8	8.46e-01	0	41	104	0	70	14959
2026-01-22 03:26:42.31	247.52	55.04	-49.9	-61.8	3.8	8.46e-01	0	41	104	0	70	14928
2026-01-22 03:26:43.32	247.11	54.73	-49.9	-61.8	3.8	8.46e-01	0	41	104	0	70	14988
2026-01-22 03:26:44.33	246.70	54.41	-49.9	-61.8	3.8	8.44e-01	0	41	104	0	70	14921
2026-01-22 03:26:45.34	246.31	54.09	-49.9	-61.8	3.8	8.47e-01	0	41	104	0	70	14951
2026-01-22 03:26:46.35	245.93	53.78	-49.9	-61.8	3.8	8.47e-01	0	41	104	0	70	14968
2026-01-22 03:26:47.36	245.55	53.46	-49.9	-61.8	3.8	8.47e-01	0	41	104	0	70	14938
2026-01-22 03:26:48.37	245.18	53.15	-49.9	-61.8	3.8	8.46e-01	0	41	104	0	70	14969
2026-01-22 03:26:49.38	244.82	52.83	-49.9	-61.8	3.8	8.45e-01	0	41	104	0	70	14983
2026-01-22 03:26:50.39	244.47	52.52	-49.9	-61.8	3.8	8.46e-01	0	41	104	0	70	15002
2026-01-22 03:26:51.39	244.13	52.21	-49.9	-61.8	3.8	8.45e-01	0	41	104	0	70	14954
2026-01-22 03:26:52.40	243.79	51.90	-49.9	-61.8	3.8	8.45e-01	0	41	104	0	70	14994
2026-01-22 03:26:53.41	243.46	51.59	-49.9	-61.8	3.8	8.46e-01	0	41	104	0	70	14932
2026-01-22 03:26:54.42	243.13	51.28	-49.9	-61.8	3.8	8.46e-01	0	41	104	0	70	14927
2026-01-22 03:26:55.43	242.81	50.97	-49.9	-61.8	3.8	8.45e-01	0	41	104	0	70	14975
2026-01-22 03:26:56.43	242.51	50.67	-49.9	-61.8	3.8	8.47e-01	0	41	104	0	70	14987
2026-01-22 03:26:57.44	242.20	50.36	-49.9	-61.8	3.8	8.45e-01	0	41	104	0	70	14957
2026-01-22 03:26:58.45	241.90	50.06	-49.9	-61.8	3.8	8.47e-01	0	41	104	0	70	14919
2026-01-22 03:26:59.46	241.61	49.75	-49.9	-61.8	3.8	8.47e-01	0	41	104	0	70	14890
2026-01-22 03:27:00.47	241.32	49.45	-49.9	-61.8	3.8	8.47e-01	0	41	104	0	70	14939
2026-01-22 03:27:01.47	241.04	49.15	-49.9	-61.8	3.8	8.46e-01	0	41	104	0	70	14949
2026-01-22 03:27:02.48	240.77	48.85	-49.9	-61.8	3.8	8.46e-01	0	41	104	0	70	14938
2026-01-22 03:27:03.49	240.50	48.56	-49.9	-61.8	3.8	8.46e-01	0	41	104	0	70	14927
2026-01-22 03:27:04.50	240.23	48.26	-49.9	-61.8	3.8	8.46e-01	0	41	104	0	70	14946
2026-01-22 03:27:05.51	239.97	47.96	-49.9	-61.8	3.8	8.47e-01	0	41	104	0	70	14998
2026-01-22 03:27:06.52	239.72	47.67	-49.9	-61.8	3.8	8.45e-01	0	41	104	0	70	14943
2026-01-22 03:27:07.53	239.47	47.38	-49.9	-61.8	3.8	8.46e-01	0	41	104	0	70	14958
2026-01-22 03:27:08.53	239.22	47.09	-49.9	-61.8	3.8	8.46e-01	0	41	104	0	70	14953
2026-01-22 03:27:09.54	238.98	46.80	-49.9	-61.8	3.8	8.47e-01	0	41	104	0	70	14974
2026-01-22 03:27:10.55	238.75	46.51	-49.9	-61.8	3.8	8.46e-01	0	41	104	0	70	14960
2026-01-22 03:27:11.56	238.51	46.22	-49.9	-61.8	3.8	8.46e-01	0	41	104	0	70	14936
2026-01-22 03:27:12.57	238.29	45.94	-49.9	-61.8	3.8	8.47e-01	0	41	104	0	70	14946
2026-01-22 03:27:13.57	238.06	45.65	-49.9	-61.8	3.8	8.47e-01	0	41	104	0	70	14979
2026-01-22 03:27:14.58	237.84	45.37	-49.9	-61.8	3.8	8.46e-01	0	41	104	0	70	14983
2026-01-22 03:27:15.59	237.63	45.09	-49.9	-61.8	3.8	8.46e-01	0	41	104	0	70	14960
2026-01-22 03:27:16.60	237.42	44.81	-49.9	-61.8	3.8	8.46e-01	0	41	104	0	70	14948
2026-01-22 03:27:17.61	237.21	44.53	-49.9	-61.8	3.8	8.46e-01	0	41	104	0	70	14991
2026-01-22 03:27:18.62	237.00	44.25	-49.9	-61.8	3.8	8.46e-01	0	41	104	0	70	14973
2026-01-22 03:27:19.63	236.80	43.98	-49.9	-61.8	3.8	8.46e-01	0	41	104	0	70	14940
2026-01-22 03:27:20.64	236.60	43.71	-49.9	-61.8	3.8	8.47e-01	0	41	104	0	70	14976
2026-01-22 03:27:21.65	236.41	43.43	-49.9	-61.8	3.8	8.47e-01	0	41	104	0	70	14965
2026-01-22 03:27:22.65	236.22	43.17	-49.9	-61.8	3.8	8.46e-01	0	41	104	0	70	14964
2026-01-22 03:27:23.66	236.03	42.90	-49.9	-61.8	3.8	8.48e-01	0	41	104	0	70	14957
2026-01-22 03:27:24.67	235.85	42.63	-49.9	-61.8	3.8	8.45e-01	0	41	104	0	70	14924
2026-01-22 03:27:25.68	235.67	42.36	-49.9	-61.8	3.8	8.46e-01	0	41	104	0	70	14984
2026-01-22 03:27:26.69	235.49	42.10	-49.9	-61.8	3.8	8.46e-01	0	41	104	0	70	14975
2026-01-22 03:27:27.69	235.31	41.84	-49.9	-61.8	3.8	8.45e-01	0	41	104	0	70	14958
2026-01-22 03:27:28.70	235.14	41.58	-49.9	-61.8	3.8	8.45e-01	0	41	104	0	70	14943
2026-01-22 03:27:29.71	234.97	41.32	-49.9	-61.8	3.8	8.45e-01	0	41	104	0	70	14923
2026-01-22 03:27:30.72	234.81	41.06	-49.9	-61.8	3.8	8.45e-01	0	41	104	0	70	14964
2026-01-22 03:27:31.73	234.64	40.80	-49.9	-61.8	3.8	8.46e-01	0	41	104	0	70	14953
2026-01-22 03:27:32.74	234.48	40.55	-49.9	-61.8	3.8	8.47e-01	0	41	104	0	70	14970
2026-01-22 03:27:33.75	234.32	40.30	-49.9	-61.8	3.8	8.45e-01	0	41	104	0	70	14924
2026-01-22 03:27:34.76	234.16	40.04	-49.9	-61.8	3.8	8.44e-01	0	41	104	0	70	14901
2026-01-22 03:27:35.77	234.01	39.79	-49.9	-61.8	3.8	8.47e-01	0	41	104	0	70	14943
2026-01-22 03:27:36.77	233.86	39.55	-49.9	-61.7	3.8	8.47e-01	0	41	104	0	70	14872
2026-01-22 03:27:37.78	233.71	39.30	-49.9	-61.8	3.8	8.46e-01	0	41	104	0	70	14892
2026-01-22 03:27:38.79	233.56	39.05	-49.9	-61.8	3.8	8.46e-01	0	41	104	0	70	14937
2026-01-22 03:27:39.80	233.42	38.81	-49.9	-61.8	3.8	8.46e-01	0	41	104	0	70	14931
2026-01-22 03:27:40.81	233.27	38.57	-49.9	-61.8	3.8	8.47e-01	0	41	104	0	70	14925
2026-01-22 03:27:41.82	233.13	38.33	-49.9	-61.8	3.8	8.47e-01	0	41	104	0	70	14935
2026-01-22 03:27:42.83	232.99	38.09	-49.9	-61.8	3.8	8.46e-01	0	41	104	0	70	14969
2026-01-22 03:27:43.83	232.86	37.85	-49.9	-61.8	3.8	8.46e-01	0	41	104	0	70	14986
2026-01-22 03:27:44.84	232.72	37.61	-49.9	-61.8	3.8	8.46e-01	0	41	104	0	70	14941
2026-01-22 03:27:45.85	232.59	37.38	-49.9	-61.8	3.8	8.46e-01	0	41	104	0	70	14961
2026-01-22 03:27:46.86	232.46	37.14	-49.9	-61.8	3.8	8.46e-01	0	41	104	0	70	14959
2026-01-22 03:27:47.87	232.33	36.91	-49.9	-61.8	3.8	8.46e-01	0	41	104	0	70	14948
2026-01-22 03:27:48.88	232.21	36.68	-49.9	-61.8	3.8	8.46e-01	0	41	104	0	70	14915
2026-01-22 03:27:49.89	232.08	36.45	-49.9	-61.8	3.8	8.46e-01	0	41	104	0	70	14945
2026-01-22 03:27:50.90	231.96	36.22	-49.9	-61.8	3.8	8.46e-01	0	41	104	0	70	14995
2026-01-22 03:27:51.91	231.84	36.00	-49.9	-61.8	3.8	8.46e-01	0	41	104	0	70	14936
2026-01-22 03:27:52.91	231.72	35.77	-49.9	-61.8	3.8	8.46e-01	0	41	104	0	70	14976
2026-01-22 03:27:53.92	231.60	35.55	-49.9	-61.8	3.8	8.46e-01	0	41	104	0	70	14969
2026-01-22 03:27:54.93	231.48	35.33	-49.9	-61.8	3.8	8.45e-01	0	41	104	0	70	14944
2026-01-22 03:27:55.94	231.37	35.11	-49.9	-61.8	3.8	8.47e-01	0	41	104	0	70	14959
2026-01-22 03:27:56.95	231.26	34.89	-49.9	-61.8	3.8	8.47e-01	0	41	104	0	70	14997
2026-01-22 03:27:57.96	231.14	34.67	-49.9	-61.8	3.8	8.45e-01	0	41	104	0	70	14970
2026-01-22 03:27:58.97	231.03	34.45	-49.9	-61.8	3.8	8.46e-01	0	41	104	0	70	14966
2026-01-22 03:27:59.98	230.93	34.24	-49.9	-61.8	3.8	8.46e-01	0	41	104	0	70	14950
2026-01-22 03:28:00.98	230.82	34.03	-49.9	-61.8	3.8	8.46e-01	0	41	104	0	70	14943
2026-01-22 03:28:01.99	230.71	33.81	-49.9	-61.8	3.8	8.46e-01	0	41	104	0	70	14988
2026-01-22 03:28:03.00	230.61	33.60	-49.9	-61.8	3.8	8.46e-01	0	41	104	0	70	14998
2026-01-22 03:28:04.01	230.51	33.39	-49.9	-61.8	3.8	8.45e-01	0	41	104	0	70	14977
2026-01-22 03:28:05.02	230.40	33.18	-49.9	-61.8	3.8	8.46e-01	0	41	104	0	70	14927
2026-01-22 03:28:06.03	230.30	32.98	-49.9	-61.8	3.8	8.46e-01	0	41	104	0	70	14946
2026-01-22 03:28:07.04	230.20	32.77	-49.9	-61.8	3.8	8.46e-01	0	41	104	0	70	14931
2026-01-22 03:28:08.05	230.11	32.57	-49.9	-61.8	3.8	8.46e-01	0	41	104	0	70	14944
2026-01-22 03:28:09.06	230.01	32.36	-49.9	-61.8	3.8	8.46e-01	0	41	104	0	70	14968
2026-01-22 03:28:10.07	229.92	32.16	-49.9	-61.8	3.8	8.45e-01	0	41	104	0	70	14968
2026-01-22 03:28:11.08	229.82	31.96	-49.9	-61.8	3.8	8.46e-01	0	41	104	0	70	14961
2026-01-22 03:28:12.09	229.73	31.76	-49.9	-61.8	3.8	8.46e-01	0	41	104	0	70	14951
2026-01-22 03:28:13.09	229.64	31.56	-49.9	-61.8	3.8	8.46e-01	0	41	104	0	70	14943
2026-01-22 03:28:14.10	229.55	31.37	-49.9	-61.8	3.8	8.47e-01	0	41	104	0	70	15012
2026-01-22 03:28:15.11	229.46	31.17	-49.9	-61.8	3.8	8.45e-01	0	41	104	0	70	14961
2026-01-22 03:28:16.12	229.37	30.98	-49.9	-61.8	3.8	8.45e-01	0	41	104	0	70	14983
2026-01-22 03:28:17.13	229.28	30.78	-49.9	-61.8	3.8	8.45e-01	0	41	104	0	70	14915
2026-01-22 03:28:18.13	229.20	30.59	-49.9	-61.8	3.8	8.47e-01	0	41	104	0	70	14992
2026-01-22 03:28:19.14	229.11	30.40	-49.9	-61.8	3.8	8.45e-01	0	41	104	0	70	14933
2026-01-22 03:28:20.15	229.03	30.21	-49.9	-61.8	3.8	8.45e-01	0	41	104	0	70	14955
2026-01-22 03:28:21.16	228.95	30.02	-49.9	-61.8	3.8	8.47e-01	0	41	104	0	70	15024
2026-01-22 03:28:22.17	228.86	29.84	-49.9	-61.8	3.8	8.45e-01	0	41	104	0	70	14926
2026-01-22 03:28:23.18	228.78	29.65	-49.9	-61.8	3.8	8.46e-01	0	41	104	0	70	14968
2026-01-22 03:28:24.19	228.70	29.47	-49.9	-61.8	3.8	8.46e-01	0	41	104	0	70	14984
2026-01-22 03:28:25.19	228.62	29.28	-49.9	-61.8	3.8	8.45e-01	0	41	104	0	70	14939
2026-01-22 03:28:26.20	228.55	29.10	-49.9	-61.8	3.8	8.46e-01	0	41	104	0	70	14915
2026-01-22 03:28:27.21	228.47	28.92	-49.9	-61.8	3.8	8.46e-01	0	41	104	0	70	14917
2026-01-22 03:28:28.22	228.39	28.74	-49.9	-61.8	3.8	8.45e-01	0	41	104	0	70	14954
2026-01-22 03:28:29.23	228.32	28.56	-49.9	-61.8	3.8	8.47e-01	0	41	104	0	70	14961
2026-01-22 03:28:30.23	228.24	28.38	-49.9	-61.8	3.8	8.46e-01	0	41	104	0	70	15010
2026-01-22 03:28:31.25	228.17	28.20	-49.9	-61.8	3.8	8.46e-01	0	41	104	0	70	14925
2026-01-22 03:28:32.25	228.10	28.03	-49.9	-61.8	3.8	8.47e-01	0	41	104	0	70	14926
2026-01-22 03:28:33.26	228.02	27.85	-49.9	-61.8	3.8	8.46e-01	0	41	104	0	70	14980
2026-01-22 03:28:34.27	227.95	27.68	-49.9	-61.8	3.8	8.46e-01	0	41	104	0	70	14981
2026-01-22 03:28:35.28	227.88	27.50	-49.9	-61.8	3.8	8.46e-01	0	41	104	0	70	14941
2026-01-22 03:28:36.28	227.81	27.33	-49.9	-61.8	3.8	8.47e-01	0	41	104	0	70	14930
2026-01-22 03:28:37.29	227.74	27.16	-49.9	-61.8	3.8	8.46e-01	0	41	104	0	70	14937
2026-01-22 03:28:38.30	227.68	26.99	-49.9	-61.8	3.8	8.46e-01	0	41	104	0	70	14976
2026-01-22 03:28:39.31	227.61	26.82	-49.9	-61.8	3.8	8.45e-01	0	41	104	0	70	14969
2026-01-22 03:28:40.32	227.54	26.66	-49.9	-61.8	3.8	8.47e-01	0	41	104	0	70	15023
2026-01-22 03:28:41.32	227.48	26.49	-49.9	-61.8	3.8	8.45e-01	0	41	104	0	70	15005
2026-01-22 03:28:42.33	227.41	26.32	-49.9	-61.8	3.8	8.47e-01	0	41	104	0	70	14920
2026-01-22 03:28:43.34	227.35	26.16	-49.9	-61.8	3.8	8.47e-01	0	41	104	0	70	14950
2026-01-22 03:28:44.35	227.28	25.99	-49.9	-61.8	3.8	8.47e-01	0	41	104	0	70	14945
2026-01-22 03:28:45.36	227.22	25.83	-49.9	-61.8	3.8	8.46e-01	0	41	104	0	70	14975
2026-01-22 03:28:46.36	227.16	25.67	-49.9	-61.8	3.8	8.47e-01	0	41	104	0	70	14984
2026-01-22 03:28:47.37	227.10	25.51	-49.9	-61.8	3.8	8.46e-01	0	41	104	0	70	14934
2026-01-22 03:28:48.38	227.04	25.35	-49.9	-61.8	3.8	8.46e-01	0	41	104	0	70	14950
2026-01-22 03:28:49.39	226.98	25.19	-49.9	-61.8	3.8	8.47e-01	0	41	104	0	70	14984
2026-01-22 03:28:50.40	226.92	25.03	-49.9	-61.8	3.8	8.47e-01	0	41	104	0	70	14964
2026-01-22 03:28:51.41	226.86	24.87	-49.9	-61.8	3.8	8.46e-01	0	41	104	0	70	15037
2026-01-22 03:28:52.41	226.80	24.72	-49.9	-61.8	3.8	8.46e-01	0	41	104	0	70	14945
2026-01-22 03:28:53.42	226.74	24.56	-49.9	-61.8	3.8	8.47e-01	0	41	104	0	70	14953
2026-01-22 03:28:54.43	226.68	24.41	-49.9	-61.8	3.8	8.46e-01	0	41	104	0	70	15027
2026-01-22 03:28:55.43	226.63	24.25	-49.9	-61.8	3.8	8.47e-01	0	41	104	0	70	14937
2026-01-22 03:28:56.44	226.57	24.10	-49.9	-61.8	3.8	8.47e-01	0	41	104	0	70	14979
2026-01-22 03:28:57.45	226.52	23.95	-49.9	-61.8	3.8	8.46e-01	0	41	104	0	70	15008
2026-01-22 03:28:58.46	226.46	23.80	-49.9	-61.8	3.8	8.46e-01	0	41	104	0	70	14910
2026-01-22 03:28:59.47	226.41	23.65	-49.9	-61.8	3.8	8.46e-01	0	41	104	0	70	14957
2026-01-22 03:29:00.48	226.35	23.50	-49.9	-61.8	3.8	8.45e-01	0	41	104	0	70	14934
2026-01-22 03:29:01.48	226.30	23.35	-49.9	-61.8	3.8	8.46e-01	0	41	104	0	70	14926
2026-01-22 03:29:02.49	226.25	23.20	-49.9	-61.8	3.8	8.46e-01	0	41	104	0	70	14955
2026-01-22 03:29:03.50	226.19	23.05	-49.9	-61.8	3.8	8.47e-01	0	41	104	0	70	14949
2026-01-22 03:29:04.51	226.14	22.91	-49.9	-61.8	3.8	8.46e-01	0	41	104	0	70	14961
2026-01-22 03:29:05.51	226.09	22.76	-49.9	-61.8	3.8	8.46e-01	0	41	104	0	70	14954
2026-01-22 03:29:06.52	226.04	22.62	-49.9	-61.8	3.8	8.46e-01	0	41	104	0	70	15001
2026-01-22 03:29:07.53	225.99	22.47	-49.9	-61.8	3.8	8.46e-01	0	41	104	0	70	14958
2026-01-22 03:29:08.54	225.94	22.33	-49.9	-61.8	3.8	8.46e-01	0	41	104	0	70	14961
2026-01-22 03:29:09.55	225.89	22.19	-49.9	-61.8	3.8	8.46e-01	0	41	104	0	70	14955
2026-01-22 03:29:10.56	225.84	22.05	-49.9	-61.8	3.8	8.45e-01	0	41	104	0	70	14961
2026-01-22 03:29:11.56	225.79	21.91	-49.9	-61.8	3.8	8.46e-01	0	41	104	0	70	14945
2026-01-22 03:29:12.57	225.75	21.77	-49.9	-61.8	3.8	8.46e-01	0	41	104	0	70	14953
2026-01-22 03:29:13.58	225.70	21.63	-49.9	-61.8	3.8	8.46e-01	0	41	104	0	70	14982
2026-01-22 03:29:14.59	225.65	21.49	-49.9	-61.8	3.8	8.45e-01	0	41	104	0	70	14987
2026-01-22 03:29:15.60	225.61	21.35	-49.9	-61.8	3.8	8.46e-01	0	41	104	0	70	14966
2026-01-22 03:29:16.61	225.56	21.21	-49.9	-61.8	3.8	8.46e-01	0	41	104	0	70	14971
2026-01-22 03:29:17.62	225.51	21.07	-49.9	-61.8	3.8	8.47e-01	0	41	104	0	70	14950
2026-01-22 03:29:18.62	225.47	20.94	-49.9	-61.8	3.8	8.46e-01	0	41	104	0	70	14967
2026-01-22 03:29:19.63	225.42	20.81	-49.9	-61.8	3.8	8.46e-01	0	41	104	0	70	14945
2026-01-22 03:29:20.64	225.38	20.67	-49.9	-61.8	3.8	8.46e-01	0	41	104	0	70	14913
2026-01-22 03:29:21.65	225.34	20.54	-49.9	-61.8	3.8	8.46e-01	0	41	104	0	70	15000
2026-01-22 03:29:22.66	225.29	20.40	-49.9	-61.8	3.8	8.47e-01	0	41	104	0	70	14968
2026-01-22 03:29:23.67	225.25	20.27	-49.9	-61.8	3.8	8.45e-01	0	41	104	0	70	14969
2026-01-22 03:29:24.67	225.21	20.14	-49.9	-61.8	3.8	8.45e-01	0	41	104	0	70	14946
2026-01-22 03:29:25.68	225.16	20.01	-49.9	-61.8	3.8	8.45e-01	0	41	104	0	70	14975
2026-01-22 03:29:26.69	225.12	19.88	-49.9	-61.8	3.8	8.46e-01	0	41	104	0	70	14972
2026-01-22 03:29:27.70	225.08	19.75	-49.9	-61.8	3.8	8.46e-01	0	41	104	0	70	14915
2026-01-22 03:29:28.70	225.04	19.62	-49.9	-61.8	3.8	8.45e-01	0	41	104	0	70	14931
2026-01-22 03:29:29.72	225.00	19.49	-49.9	-61.8	3.8	8.46e-01	0	41	104	0	70	14943
2026-01-22 03:29:30.72	224.96	19.37	-49.9	-61.8	3.8	8.45e-01	0	41	104	0	70	14967
2026-01-22 03:29:31.73	224.92	19.24	-49.9	-61.8	3.8	8.46e-01	0	41	104	0	70	14977
2026-01-22 03:29:32.74	224.88	19.11	-49.9	-61.8	3.8	8.46e-01	0	41	104	0	70	14982
2026-01-22 03:29:33.75	224.84	18.99	-49.9	-61.8	3.8	8.47e-01	0	41	104	0	70	14973
2026-01-22 03:29:34.76	224.80	18.86	-49.9	-61.8	3.8	8.45e-01	0	41	104	0	70	14932
2026-01-22 03:29:35.77	224.76	18.74	-49.9	-61.8	3.8	8.47e-01	0	41	104	0	70	14964
2026-01-22 03:29:36.77	224.72	18.61	-49.9	-61.8	3.8	8.47e-01	0	41	104	0	70	14963
2026-01-22 03:29:37.78	224.69	18.49	-49.9	-61.8	3.8	8.46e-01	0	41	104	0	70	14942
2026-01-22 03:29:38.79	224.65	18.37	-49.9	-61.8	3.8	8.46e-01	0	41	104	0	70	14985
2026-01-22 03:29:39.80	224.61	18.24	-49.9	-61.8	3.8	8.46e-01	0	41	104	0	70	15004
2026-01-22 03:29:40.81	224.57	18.12	-49.9	-61.8	3.8	8.46e-01	0	41	104	0	70	14925
2026-01-22 03:29:41.82	224.54	18.00	-49.9	-61.8	3.8	8.45e-01	0	41	104	0	70	14963
2026-01-22 03:29:42.83	224.50	17.88	-49.9	-61.8	3.8	8.47e-01	0	41	104	0	70	14939
2026-01-22 03:29:43.83	224.47	17.76	-49.9	-61.8	3.8	8.46e-01	0	41	104	0	70	15002
2026-01-22 03:29:44.84	224.43	17.64	-49.9	-61.8	3.8	8.46e-01	0	41	104	0	70	14976
2026-01-22 03:29:45.85	224.39	17.52	-49.9	-61.8	3.8	8.46e-01	0	41	104	0	70	14955
2026-01-22 03:29:46.86	224.36	17.41	-49.9	-61.8	3.8	8.46e-01	0	41	104	0	70	14929
2026-01-22 03:29:47.87	224.32	17.29	-49.9	-61.8	3.8	8.46e-01	0	41	104	0	70	14980
2026-01-22 03:29:48.87	224.29	17.17	-49.9	-61.8	3.8	8.46e-01	0	41	104	0	70	14961
2026-01-22 03:29:49.88	224.26	17.05	-49.9	-61.8	3.8	8.46e-01	0	41	104	0	70	14973
2026-01-22 03:29:50.89	224.22	16.94	-49.9	-61.8	3.8	8.47e-01	0	41	104	0	70	14953
2026-01-22 03:29:51.90	224.19	16.82	-49.9	-61.8	3.8	8.45e-01	0	41	104	0	70	14961
2026-01-22 03:29:52.90	224.15	16.71	-49.9	-61.8	3.8	8.46e-01	0	41	104	0	70	14986
2026-01-22 03:29:53.91	224.12	16.59	-49.9	-61.8	3.8	8.45e-01	0	41	104	0	70	14948
2026-01-22 03:29:54.92	224.09	16.48	-49.9	-61.8	3.8	8.45e-01	0	41	104	0	70	14945
2026-01-22 03:29:55.93	224.06	16.37	-49.9	-61.8	3.8	8.46e-01	0	41	104	0	70	14936
2026-01-22 03:29:56.94	224.02	16.25	-49.9	-61.8	3.8	8.47e-01	0	41	104	0	70	14994
2026-01-22 03:29:57.94	223.99	16.14	-49.9	-61.8	3.8	8.46e-01	0	41	104	0	70	15020
2026-01-22 03:29:58.95	223.96	16.03	-49.9	-61.8	3.8	8.47e-01	0	41	104	0	70	14931
2026-01-22 03:29:59.96	223.93	15.92	-49.9	-61.8	3.8	8.47e-01	0	41	104	0	70	14955
2026-01-22 03:30:00.97	223.90	15.81	-49.9	-61.8	3.8	8.45e-01	0	41	104	0	70	14940
2026-01-22 03:30:01.98	223.87	15.70	-49.9	-61.8	3.8	8.46e-01	0	41	104	0	70	14942
2026-01-22 03:30:02.99	223.84	15.59	-49.9	-61.8	3.8	8.46e-01	0	41	104	0	70	14955
2026-01-22 03:30:03.99	223.81	15.48	-49.9	-61.8	3.8	8.46e-01	0	41	104	0	70	14958
2026-01-22 03:30:05.00	223.77	15.37	-49.9	-61.8	3.8	8.45e-01	0	41	104	0	70	14968
2026-01-22 03:30:06.01	223.74	15.26	-49.9	-61.8	3.8	8.46e-01	0	41	104	0	70	14923
2026-01-22 03:30:07.02	223.72	15.15	-49.9	-61.8	3.8	8.46e-01	0	41	104	0	70	14975
2026-01-22 03:30:08.03	223.69	15.05	-49.9	-61.8	3.8	8.46e-01	0	41	104	0	70	14990
2026-01-22 03:30:09.03	223.66	14.94	-49.9	-61.8	3.8	8.47e-01	0	41	104	0	70	14945
2026-01-22 03:30:10.04	223.63	14.83	-49.9	-61.8	3.8	8.46e-01	0	41	104	0	70	14965
2026-01-22 03:30:11.05	223.60	14.73	-49.9	-61.8	3.8	8.46e-01	0	41	104	0	70	14996
2026-01-22 03:30:12.06	223.57	14.62	-49.9	-61.8	3.8	8.46e-01	0	41	104	0	70	15007
2026-01-22 03:30:13.07	223.54	14.52	-49.9	-61.8	3.8	8.46e-01	0	41	104	0	70	14943
2026-01-22 03:30:14.08	223.51	14.41	-49.9	-61.8	3.8	8.46e-01	0	41	104	0	70	14989
2026-01-22 03:30:15.09	223.49	14.31	-49.9	-61.8	3.8	8.47e-01	0	41	104	0	70	14954
2026-01-22 03:30:16.09	223.46	14.21	-49.9	-61.8	3.8	8.46e-01	0	41	104	0	70	15008
2026-01-22 03:30:17.10	223.43	14.10	-49.9	-61.8	3.8	8.46e-01	0	41	104	0	70	14927
2026-01-22 03:30:18.11	223.40	14.00	-49.9	-61.8	3.8	8.46e-01	0	41	104	0	70	14966
2026-01-22 03:30:19.12	223.38	13.90	-49.9	-61.8	3.8	8.46e-01	0	41	104	0	70	14970
2026-01-22 03:30:20.13	223.35	13.79	-49.9	-61.8	3.8	8.47e-01	0	41	104	0	70	14970
2026-01-22 03:30:21.13	223.32	13.69	-49.9	-61.8	3.8	8.44e-01	0	41	104	0	70	14958
2026-01-22 03:30:22.14	223.30	13.59	-49.9	-61.8	3.8	8.45e-01	0	41	104	0	70	14965
2026-01-22 03:30:23.15	223.27	13.49	-49.9	-61.8	3.8	8.46e-01	0	41	104	0	70	14965
2026-01-22 03:30:24.16	223.24	13.39	-49.9	-61.8	3.8	8.45e-01	0	41	104	0	70	14981
2026-01-22 03:30:25.17	223.22	13.29	-49.9	-61.8	3.8	8.46e-01	0	41	104	0	70	14976
2026-01-22 03:30:26.18	223.19	13.19	-49.9	-61.8	3.8	8.45e-01	0	41	104	0	70	14955
2026-01-22 03:30:27.19	223.17	13.09	-49.9	-61.8	3.8	8.45e-01	0	41	104	0	70	14999
2026-01-22 03:30:28.19	223.14	12.99	-49.9	-61.8	3.8	8.46e-01	0	41	104	0	70	15000
2026-01-22 03:30:29.20	223.12	12.89	-49.9	-61.8	3.8	8.47e-01	0	41	104	0	70	14975
2026-01-22 03:30:30.21	223.09	12.80	-49.9	-61.8	3.8	8.46e-01	0	41	104	0	70	14975
2026-01-22 03:30:31.22	223.07	12.70	-49.9	-61.8	3.8	8.46e-01	0	41	104	0	70	14940
2026-01-22 03:30:32.23	223.04	12.60	-49.9	-61.8	3.8	8.45e-01	0	41	104	0	70	15006
2026-01-22 03:30:33.24	223.02	12.50	-49.9	-61.8	3.8	8.46e-01	0	41	104	0	70	15030
2026-01-22 03:30:34.25	222.99	12.41	-49.9	-61.8	3.8	8.46e-01	0	41	104	0	70	14949
2026-01-22 03:30:35.26	222.97	12.31	-49.9	-61.8	3.8	8.46e-01	0	41	104	0	70	14968
2026-01-22 03:30:36.26	222.95	12.22	-49.9	-61.8	3.8	8.45e-01	0	41	104	0	70	14942
2026-01-22 03:30:37.27	222.92	12.12	-49.9	-61.8	3.8	8.46e-01	0	41	104	0	70	14973
2026-01-22 03:30:38.28	222.90	12.03	-49.9	-61.8	3.8	8.46e-01	0	41	104	0	70	14954
2026-01-22 03:30:39.29	222.88	11.93	-49.9	-61.8	3.8	8.46e-01	0	41	104	0	70	14983
2026-01-22 03:30:40.30	222.85	11.84	-49.9	-61.8	3.8	8.46e-01	0	41	104	0	70	14965
2026-01-22 03:30:41.30	222.83	11.74	-49.9	-61.8	3.8	8.45e-01	0	41	104	0	70	14890
2026-01-22 03:30:42.31	222.81	11.65	-49.9	-61.8	3.8	8.47e-01	0	41	104	0	70	14933
2026-01-22 03:30:43.32	222.78	11.56	-49.9	-61.8	3.8	8.47e-01	0	41	104	0	70	14965
2026-01-22 03:30:44.33	222.76	11.46	-49.9	-61.8	3.8	8.47e-01	0	41	104	0	70	14934
2026-01-22 03:30:45.34	222.74	11.37	-49.9	-61.8	3.8	8.46e-01	0	41	104	0	70	14977
2026-01-22 03:30:46.34	222.72	11.28	-49.9	-61.8	3.8	8.47e-01	0	41	104	0	70	14938
2026-01-22 03:30:47.36	222.70	11.19	-49.9	-61.8	3.8	8.46e-01	0	41	104	0	70	14972
2026-01-22 03:30:48.36	222.67	11.09	-49.9	-61.8	3.8	8.46e-01	0	41	104	0	70	14949
2026-01-22 03:30:49.37	222.65	11.00	-49.9	-61.8	3.8	8.46e-01	0	41	104	0	70	14952
2026-01-22 03:30:50.38	222.63	10.91	-49.9	-61.8	3.8	8.46e-01	0	41	104	0	70	14981
2026-01-22 03:30:51.39	222.61	10.82	-49.9	-61.8	3.8	8.46e-01	0	41	104	0	70	14945
2026-01-22 03:30:52.40	222.59	10.73	-49.9	-61.8	3.8	8.46e-01	0	41	104	0	70	14955
2026-01-22 03:30:53.40	222.57	10.64	-49.9	-61.8	3.8	8.47e-01	0	41	104	0	70	14908
2026-01-22 03:30:54.41	222.55	10.55	-49.9	-61.8	3.8	8.46e-01	0	41	104	0	70	14976
2026-01-22 03:30:55.42	222.53	10.46	-49.9	-61.8	3.8	8.48e-01	0	41	104	0	70	14953
