passes_logs/2026/01/22/R3.2S_Murmansk/R3.2S_Murmansk__20260122_224054_SUOMI_NPP_rec.log

#Pass ID: 20260122_224054_SUOMI NPP
#Satellite: SUOMI NPP
#Configuration: NPP
#almurnet v.1.7.20251203
#Start time: 2026-01-22 22:40:56

#Version: 2.2.20231116
#Station: R3.2S_Murmansk
#Location: 33.079688 lon 68.888172 lat
#TLE: 1 37849U 11061A   26022.50498765  .00000208  00000+0  11976-3 0  9992
#TLE: 2 37849  98.7820 324.4892 0002275  50.8149 309.3229 14.19528284737775

#Time	Az	El	Level	Level2	SNR	BER	BlckErr	Temp	State	Recorded	gain1	gain2
2026-01-22 22:40:56.32	19.32	2.11	-54.5	-69.5	3.8	1.49e+00	0	42	0	0	79	21653
2026-01-22 22:40:57.33	19.39	2.17	-54.4	-69.5	3.8	1.49e+00	0	41	104	0	79	21538
2026-01-22 22:40:58.34	19.45	2.23	-54.4	-69.5	3.8	1.49e+00	0	41	104	0	79	21513
2026-01-22 22:40:59.35	19.51	2.29	-54.4	-69.4	3.8	1.49e+00	0	41	104	0	79	21491
2026-01-22 22:41:00.35	19.58	2.34	-54.4	-69.4	3.8	1.49e+00	0	41	104	0	79	21472
2026-01-22 22:41:01.36	19.64	2.40	-54.5	-69.5	3.8	1.49e+00	0	41	104	0	79	21542
2026-01-22 22:41:02.37	19.71	2.46	-54.4	-69.5	3.8	1.49e+00	0	41	104	0	79	21555
2026-01-22 22:41:03.38	19.77	2.52	-54.4	-69.4	3.8	1.49e+00	0	41	104	0	79	21477
2026-01-22 22:41:04.39	19.84	2.58	-54.4	-69.4	3.8	1.49e+00	0	41	104	0	79	21449
2026-01-22 22:41:05.39	19.90	2.63	-54.4	-69.4	3.8	1.49e+00	0	41	104	0	79	21355
2026-01-22 22:41:06.40	19.97	2.69	-54.4	-69.4	3.8	1.49e+00	0	41	104	0	79	21364
2026-01-22 22:41:07.41	20.03	2.75	-54.4	-69.4	3.8	1.49e+00	0	41	104	0	79	21347
2026-01-22 22:41:08.42	20.10	2.81	-54.4	-69.4	3.8	1.49e+00	0	41	104	0	79	21332
2026-01-22 22:41:09.43	20.17	2.87	-54.4	-69.4	3.8	1.49e+00	0	41	104	0	79	21353
2026-01-22 22:41:10.44	20.23	2.93	-54.3	-69.4	3.8	1.49e+00	0	41	104	0	79	21268
2026-01-22 22:41:11.45	20.30	2.98	-54.4	-69.4	3.8	1.49e+00	0	42	104	0	79	21346
2026-01-22 22:41:12.46	20.37	3.04	-54.3	-69.3	3.8	1.49e+00	0	41	104	0	79	21248
2026-01-22 22:41:13.47	20.43	3.10	-54.3	-69.4	3.8	1.49e+00	0	41	104	0	79	21285
2026-01-22 22:41:14.48	20.50	3.16	-54.3	-69.3	3.8	1.49e+00	0	41	104	0	79	21240
2026-01-22 22:41:15.48	20.57	3.22	-54.3	-69.3	3.8	1.49e+00	0	41	104	0	79	21150
2026-01-22 22:41:16.49	20.64	3.28	-54.3	-69.3	3.8	1.49e+00	0	41	104	0	79	21242
2026-01-22 22:41:17.50	20.71	3.34	-54.3	-69.3	3.8	1.49e+00	0	41	104	0	79	21234
2026-01-22 22:41:18.51	20.78	3.40	-54.3	-69.4	3.8	1.49e+00	0	41	104	0	79	21281
2026-01-22 22:41:19.52	20.84	3.46	-54.3	-69.4	3.8	1.49e+00	0	41	104	0	79	21275
2026-01-22 22:41:20.53	20.91	3.52	-54.3	-69.3	3.8	1.49e+00	0	41	104	0	79	21161
2026-01-22 22:41:21.54	20.98	3.58	-54.3	-69.3	3.8	1.49e+00	0	41	104	0	79	21176
2026-01-22 22:41:22.54	21.05	3.64	-54.4	-69.4	3.8	1.49e+00	0	41	104	0	79	21393
2026-01-22 22:41:23.55	21.12	3.70	-54.5	-69.5	3.8	1.49e+00	0	41	104	0	79	21628
2026-01-22 22:41:24.56	21.19	3.76	-54.5	-69.5	3.8	1.49e+00	0	41	104	0	79	21526
2026-01-22 22:41:25.57	21.26	3.82	-54.5	-69.5	3.8	1.49e+00	0	41	104	0	79	21596
2026-01-22 22:41:26.58	21.33	3.88	-54.5	-69.4	3.8	1.49e+00	0	41	104	0	79	21503
2026-01-22 22:41:27.59	21.40	3.94	-54.4	-69.5	3.8	1.49e+00	0	41	104	0	79	21570
2026-01-22 22:41:28.60	21.48	4.00	-54.4	-69.5	3.8	1.49e+00	0	42	104	0	79	21517
2026-01-22 22:41:29.61	21.55	4.06	-54.4	-69.4	3.8	1.49e+00	0	41	104	0	79	21434
2026-01-22 22:41:30.61	21.62	4.12	-54.4	-69.4	3.8	1.49e+00	0	41	104	0	79	21451
2026-01-22 22:41:31.62	21.69	4.18	-54.3	-69.4	3.8	1.49e+00	0	41	104	0	79	21275
2026-01-22 22:41:32.63	21.76	4.24	-54.3	-69.3	3.8	1.49e+00	0	42	104	0	79	21211
2026-01-22 22:41:33.64	21.84	4.30	-54.3	-69.3	3.8	1.49e+00	0	42	104	0	79	21066
2026-01-22 22:41:34.65	21.91	4.36	-54.3	-69.3	3.8	1.49e+00	0	41	104	0	79	21021
2026-01-22 22:41:35.65	21.98	4.42	-54.2	-69.2	3.8	1.49e+00	0	41	104	0	79	20914
2026-01-22 22:41:36.66	22.06	4.48	-54.1	-69.1	3.8	1.49e+00	0	41	104	0	79	20744
2026-01-22 22:41:37.67	22.13	4.54	-54.1	-69.1	3.8	1.49e+00	0	41	104	0	79	20608
2026-01-22 22:41:38.68	22.20	4.61	-54.0	-69.0	3.8	1.49e+00	0	41	104	0	79	20345
2026-01-22 22:41:39.69	22.28	4.67	-53.9	-68.9	3.8	1.49e+00	0	41	104	0	79	20189
2026-01-22 22:41:40.69	22.35	4.73	-53.8	-68.8	3.8	1.49e+00	0	41	104	0	79	19888
2026-01-22 22:41:41.70	22.43	4.79	-53.7	-68.7	3.8	1.49e+00	0	41	104	0	79	19647
2026-01-22 22:41:42.71	22.50	4.85	-53.5	-68.4	3.8	1.49e+00	0	41	104	0	79	19146
2026-01-22 22:41:43.72	22.58	4.91	-53.2	-68.1	3.8	1.49e+00	0	41	104	0	78	19583
2026-01-22 22:41:44.73	22.65	4.98	-51.2	-56.3	5.2	1.49e+00	0	41	104	0	74	6299
2026-01-22 22:41:45.73	22.73	5.04	-52.4	-66.5	3.8	1.97e-01	0	41	104	0	75	19378
2026-01-22 22:41:46.74	22.81	5.10	-52.1	-62.0	4.2	1.47e+00	0	42	104	0	75	11451
2026-01-22 22:41:47.75	22.88	5.16	-52.3	-66.6	3.8	1.43e+00	0	42	104	0	75	19488
2026-01-22 22:41:48.76	22.96	5.23	-51.7	-58.8	7.0	1.49e+00	1	41	104	0	75	7981
2026-01-22 22:41:49.77	23.04	5.29	-47.9	-50.0	16.3	4.15e-03	0	41	0	1048576	67	4583
2026-01-22 22:41:50.78	23.11	5.35	-52.4	-64.5	4.2	6.45e-02	72	41	0	3145728	75	15339
2026-01-22 22:41:51.79	23.19	5.41	-48.4	-50.9	15.0	1.48e+00	1	41	104	3145728	69	4507
2026-01-22 22:41:52.80	23.27	5.48	-47.8	-50.0	16.5	0.00e+00	0	41	0	4194304	66	4836
2026-01-22 22:41:53.80	23.35	5.54	-48.0	-50.3	16.1	0.00e+00	0	41	0	6291456	66	5031
2026-01-22 22:41:54.81	23.43	5.60	-47.9	-50.2	16.4	0.00e+00	0	41	0	7340032	66	4953
2026-01-22 22:41:55.82	23.51	5.67	-47.8	-50.1	16.4	0.00e+00	0	41	0	9437184	66	4875
2026-01-22 22:41:56.83	23.59	5.73	-47.6	-49.7	16.9	0.00e+00	0	41	0	11534336	66	4653
2026-01-22 22:41:57.84	23.67	5.79	-47.6	-49.8	16.7	0.00e+00	0	41	0	13631488	66	4728
2026-01-22 22:41:58.85	23.75	5.86	-47.4	-49.5	17.1	0.00e+00	0	42	0	15728640	66	4562
2026-01-22 22:41:59.85	23.83	5.92	-47.2	-49.2	17.4	0.00e+00	0	41	0	17825792	66	4404
2026-01-22 22:42:00.86	23.91	5.98	-47.2	-49.1	17.5	0.00e+00	0	41	0	18874368	66	4370
2026-01-22 22:42:01.87	23.99	6.05	-47.1	-49.0	17.5	0.00e+00	0	41	0	20971520	65	4584
2026-01-22 22:42:02.88	24.07	6.11	-47.1	-49.0	17.5	0.00e+00	0	41	0	23068672	65	4593
2026-01-22 22:42:03.88	24.15	6.18	-47.1	-49.0	17.5	0.00e+00	0	41	0	25165824	65	4582
2026-01-22 22:42:04.89	24.23	6.24	-47.3	-49.2	17.4	0.00e+00	0	41	0	26214400	65	4700
2026-01-22 22:42:05.90	24.32	6.30	-47.2	-49.1	17.4	0.00e+00	0	41	0	28311552	65	4638
2026-01-22 22:42:06.91	24.40	6.37	-47.0	-48.8	17.8	0.00e+00	0	41	0	30408704	65	4464
2026-01-22 22:42:07.92	24.48	6.43	-47.1	-48.9	17.7	0.00e+00	0	41	0	32505856	65	4526
2026-01-22 22:42:08.92	24.57	6.50	-46.9	-48.7	17.8	0.00e+00	0	41	0	34603008	65	4400
2026-01-22 22:42:09.93	24.65	6.56	-46.8	-48.6	18.0	0.00e+00	0	41	0	36700160	65	4377
2026-01-22 22:42:10.94	24.73	6.63	-46.7	-48.4	18.2	0.00e+00	0	41	0	37748736	65	4277
2026-01-22 22:42:11.95	24.82	6.69	-46.9	-48.7	17.9	0.00e+00	0	41	0	39845888	65	4399
2026-01-22 22:42:12.96	24.90	6.76	-46.7	-48.4	18.1	0.00e+00	0	41	0	41943040	65	4291
2026-01-22 22:42:13.97	24.99	6.82	-46.3	-47.9	18.7	0.00e+00	0	41	0	44040192	64	4282
2026-01-22 22:42:14.98	25.08	6.89	-46.5	-48.2	18.4	0.00e+00	0	41	0	46137344	64	4412
2026-01-22 22:42:15.99	25.16	6.95	-46.5	-48.2	18.4	0.00e+00	0	41	0	47185920	64	4422
2026-01-22 22:42:17.00	25.25	7.02	-46.4	-48.0	18.6	0.00e+00	0	42	0	49283072	64	4331
2026-01-22 22:42:18.01	25.34	7.08	-46.3	-47.8	18.8	0.00e+00	0	41	0	51380224	64	4235
2026-01-22 22:42:19.02	25.42	7.15	-46.2	-47.8	18.9	0.00e+00	0	42	0	53477376	64	4224
2026-01-22 22:42:20.02	25.51	7.22	-46.5	-48.1	18.4	0.00e+00	0	42	0	55574528	64	4368
2026-01-22 22:42:21.03	25.60	7.28	-46.1	-47.7	18.9	0.00e+00	0	41	0	56623104	64	4167
2026-01-22 22:42:22.04	25.69	7.35	-46.5	-48.2	18.5	0.00e+00	0	41	0	58720256	64	4410
2026-01-22 22:42:23.05	25.78	7.41	-46.4	-48.0	18.7	0.00e+00	0	41	0	60817408	64	4302
2026-01-22 22:42:24.05	25.86	7.48	-46.2	-47.8	18.8	0.00e+00	0	41	0	62914560	64	4194
2026-01-22 22:42:25.06	25.95	7.55	-46.2	-47.8	18.8	0.00e+00	0	41	0	65011712	64	4226
2026-01-22 22:42:26.07	26.04	7.61	-46.5	-48.1	18.7	0.00e+00	0	41	0	66060288	63	4639
2026-01-22 22:42:27.08	26.13	7.68	-46.5	-48.2	18.6	0.00e+00	0	41	0	68157440	63	4666
2026-01-22 22:42:28.09	26.22	7.75	-46.5	-48.1	18.7	0.00e+00	0	42	0	70254592	63	4641
2026-01-22 22:42:29.10	26.32	7.81	-46.4	-48.0	18.7	0.00e+00	0	41	0	72351744	63	4576
2026-01-22 22:42:30.11	26.41	7.88	-46.6	-48.2	18.5	0.00e+00	0	41	0	74448896	63	4701
2026-01-22 22:42:31.12	26.50	7.95	-46.6	-48.3	18.5	0.00e+00	0	41	0	75497472	64	4448
2026-01-22 22:42:32.13	26.59	8.02	-46.4	-48.1	18.6	0.00e+00	0	41	0	77594624	64	4351
2026-01-22 22:42:33.14	26.68	8.08	-46.3	-47.8	18.8	0.00e+00	0	41	0	79691776	64	4227
2026-01-22 22:42:34.14	26.78	8.15	-46.5	-48.2	18.6	0.00e+00	0	42	0	81788928	64	4403
2026-01-22 22:42:35.15	26.87	8.22	-46.2	-47.7	18.9	0.00e+00	0	41	0	83886080	64	4189
2026-01-22 22:42:36.16	26.96	8.29	-46.1	-47.6	19.1	0.00e+00	0	41	0	84934656	64	4139
2026-01-22 22:42:37.17	27.06	8.36	-46.4	-48.0	18.7	0.00e+00	0	42	0	87031808	64	4310
2026-01-22 22:42:38.18	27.15	8.42	-46.3	-47.9	18.8	0.00e+00	0	42	0	89128960	64	4276
2026-01-22 22:42:39.19	27.25	8.49	-46.3	-47.8	18.9	0.00e+00	0	42	0	91226112	64	4223
2026-01-22 22:42:40.20	27.34	8.56	-46.3	-47.8	18.9	0.00e+00	0	42	0	93323264	64	4238
2026-01-22 22:42:41.20	27.44	8.63	-46.2	-47.8	19.0	0.00e+00	0	41	0	94371840	64	4195
2026-01-22 22:42:42.21	27.54	8.70	-46.2	-47.7	19.1	0.00e+00	0	42	0	96468992	64	4182
2026-01-22 22:42:43.22	27.63	8.77	-46.2	-47.7	19.0	0.00e+00	0	42	0	98566144	64	4185
2026-01-22 22:42:44.23	27.73	8.83	-46.3	-47.8	18.9	0.00e+00	0	41	0	100663296	64	4223
2026-01-22 22:42:45.24	27.83	8.90	-46.4	-48.0	18.7	0.00e+00	0	42	0	102760448	64	4330
2026-01-22 22:42:46.25	27.93	8.97	-46.4	-48.0	18.8	0.00e+00	0	42	0	103809024	64	4330
2026-01-22 22:42:47.25	28.02	9.04	-46.5	-48.1	18.7	0.00e+00	0	41	0	105906176	64	4371
2026-01-22 22:42:48.26	28.12	9.11	-46.6	-48.2	18.6	0.00e+00	0	42	0	108003328	64	4422
2026-01-22 22:42:49.27	28.22	9.18	-46.7	-48.3	18.4	0.00e+00	0	42	0	110100480	64	4488
2026-01-22 22:42:50.28	28.32	9.25	-46.5	-48.2	18.6	0.00e+00	0	41	0	112197632	64	4408
2026-01-22 22:42:51.29	28.42	9.32	-46.8	-48.6	18.2	0.00e+00	0	42	0	113246208	64	4615
2026-01-22 22:42:52.29	28.52	9.39	-46.7	-48.4	18.4	0.00e+00	0	42	0	115343360	64	4506
2026-01-22 22:42:53.30	28.62	9.46	-46.7	-48.4	18.4	0.00e+00	0	42	0	117440512	64	4514
2026-01-22 22:42:54.31	28.73	9.53	-46.8	-48.5	18.3	0.00e+00	0	42	0	119537664	64	4564
2026-01-22 22:42:55.32	28.83	9.60	-46.7	-48.3	18.5	0.00e+00	0	42	0	121634816	64	4479
2026-01-22 22:42:56.33	28.93	9.67	-46.9	-48.6	18.2	0.00e+00	0	42	0	123731968	64	4647
2026-01-22 22:42:57.34	29.03	9.74	-46.6	-48.2	18.6	0.00e+00	0	42	0	124780544	64	4436
2026-01-22 22:42:58.35	29.14	9.81	-46.5	-48.1	18.7	0.00e+00	0	42	0	126877696	64	4379
2026-01-22 22:42:59.35	29.24	9.88	-46.3	-47.9	19.0	0.00e+00	0	42	0	128974848	64	4253
2026-01-22 22:43:00.36	29.35	9.95	-46.3	-47.9	18.9	0.00e+00	0	42	0	131072000	64	4267
2026-01-22 22:43:01.37	29.45	10.02	-46.5	-48.1	18.7	0.00e+00	0	42	0	132120576	64	4381
2026-01-22 22:43:02.38	29.56	10.09	-46.1	-47.6	19.2	0.00e+00	0	42	0	134217728	64	4142
2026-01-22 22:43:03.39	29.66	10.16	-46.0	-47.5	19.3	0.00e+00	0	42	0	136314880	64	4053
2026-01-22 22:43:04.39	29.77	10.23	-46.0	-47.4	19.5	0.00e+00	0	42	0	138412032	63	4269
2026-01-22 22:43:05.40	29.88	10.31	-46.0	-47.4	19.4	0.00e+00	0	42	0	140509184	63	4279
2026-01-22 22:43:06.41	29.98	10.38	-45.8	-47.2	19.7	0.00e+00	0	42	0	141557760	63	4184
2026-01-22 22:43:07.41	30.09	10.45	-45.9	-47.3	19.6	0.00e+00	0	42	0	143654912	63	4206
2026-01-22 22:43:08.42	30.20	10.52	-45.8	-47.2	19.7	0.00e+00	0	42	0	145752064	63	4180
2026-01-22 22:43:09.43	30.31	10.59	-45.8	-47.2	19.7	0.00e+00	0	42	0	147849216	63	4172
2026-01-22 22:43:10.44	30.42	10.66	-45.6	-47.0	19.9	0.00e+00	0	42	0	149946368	63	4068
2026-01-22 22:43:11.45	30.53	10.74	-45.6	-47.0	20.0	0.00e+00	0	42	0	152043520	63	4063
2026-01-22 22:43:12.46	30.64	10.81	-45.6	-47.0	19.9	0.00e+00	0	42	0	153092096	63	4073
2026-01-22 22:43:13.47	30.75	10.88	-45.5	-46.8	20.0	0.00e+00	0	42	0	155189248	62	4232
2026-01-22 22:43:14.47	30.86	10.95	-45.6	-46.9	19.9	0.00e+00	0	42	0	157286400	62	4291
2026-01-22 22:43:15.48	30.97	11.03	-45.7	-47.1	19.9	0.00e+00	0	42	0	159383552	62	4356
2026-01-22 22:43:16.49	31.09	11.10	-45.7	-47.1	19.8	0.00e+00	0	42	0	160432128	62	4369
2026-01-22 22:43:17.50	31.20	11.17	-45.8	-47.2	19.7	0.00e+00	0	42	0	162529280	62	4406
2026-01-22 22:43:18.51	31.31	11.24	-45.7	-47.1	19.8	0.00e+00	0	42	0	164626432	62	4370
2026-01-22 22:43:19.52	31.43	11.32	-45.8	-47.1	19.9	0.00e+00	0	42	0	166723584	62	4387
2026-01-22 22:43:20.53	31.54	11.39	-45.9	-47.3	19.7	0.00e+00	0	42	0	168820736	62	4465
2026-01-22 22:43:21.54	31.66	11.46	-45.9	-47.4	19.6	0.00e+00	0	42	0	170917888	62	4501
2026-01-22 22:43:22.54	31.77	11.54	-46.0	-47.5	19.5	0.00e+00	0	42	0	171966464	62	4563
2026-01-22 22:43:23.55	31.89	11.61	-45.9	-47.4	19.6	0.00e+00	0	42	0	174063616	62	4501
2026-01-22 22:43:24.56	32.01	11.68	-46.1	-47.6	19.4	0.00e+00	0	42	0	176160768	63	4368
2026-01-22 22:43:25.57	32.12	11.76	-46.2	-47.7	19.3	0.00e+00	0	42	0	178257920	63	4410
2026-01-22 22:43:26.58	32.24	11.83	-46.3	-47.8	19.2	0.00e+00	0	42	0	180355072	63	4463
2026-01-22 22:43:27.59	32.36	11.91	-46.4	-48.0	19.1	0.00e+00	0	42	0	181403648	63	4559
2026-01-22 22:43:28.59	32.48	11.98	-46.2	-47.7	19.3	0.00e+00	0	42	0	183500800	63	4419
2026-01-22 22:43:29.60	32.60	12.05	-46.1	-47.6	19.4	0.00e+00	0	42	0	185597952	63	4356
2026-01-22 22:43:30.61	32.72	12.13	-46.3	-47.9	19.2	0.00e+00	0	42	0	187695104	63	4499
2026-01-22 22:43:31.62	32.84	12.20	-46.4	-48.0	19.1	0.00e+00	0	42	0	189792256	63	4546
2026-01-22 22:43:32.63	32.96	12.28	-46.4	-47.9	19.1	0.00e+00	0	42	0	190840832	63	4543
2026-01-22 22:43:33.64	33.09	12.35	-46.4	-47.9	19.1	0.00e+00	0	42	0	192937984	63	4531
2026-01-22 22:43:34.65	33.21	12.43	-46.5	-48.0	19.0	0.00e+00	0	42	0	195035136	63	4592
2026-01-22 22:43:35.65	33.33	12.50	-46.6	-48.2	18.9	0.00e+00	0	42	0	197132288	63	4688
2026-01-22 22:43:36.66	33.46	12.58	-46.6	-48.2	18.8	0.00e+00	0	42	0	199229440	64	4404
2026-01-22 22:43:37.67	33.58	12.65	-46.6	-48.3	18.7	0.00e+00	0	42	0	200278016	64	4454
2026-01-22 22:43:38.68	33.71	12.73	-46.8	-48.4	18.6	0.00e+00	0	42	0	202375168	64	4532
2026-01-22 22:43:39.69	33.83	12.80	-46.8	-48.4	18.6	0.00e+00	0	42	0	204472320	64	4528
2026-01-22 22:43:40.69	33.96	12.88	-46.7	-48.3	18.6	0.00e+00	0	42	0	206569472	64	4491
2026-01-22 22:43:41.70	34.08	12.95	-46.6	-48.2	18.8	0.00e+00	0	42	0	208666624	64	4413
2026-01-22 22:43:42.71	34.21	13.03	-46.6	-48.2	18.8	0.00e+00	0	42	0	209715200	64	4417
2026-01-22 22:43:43.72	34.34	13.11	-46.4	-47.9	19.1	0.00e+00	0	42	0	211812352	64	4283
2026-01-22 22:43:44.73	34.47	13.18	-46.2	-47.7	19.3	0.00e+00	0	42	0	213909504	64	4166
2026-01-22 22:43:45.73	34.60	13.26	-46.1	-47.5	19.5	0.00e+00	0	42	0	216006656	64	4097
2026-01-22 22:43:46.74	34.73	13.33	-46.0	-47.4	19.7	0.00e+00	0	42	0	218103808	63	4271
2026-01-22 22:43:47.75	34.86	13.41	-46.0	-47.4	19.6	0.00e+00	0	42	0	219152384	63	4281
2026-01-22 22:43:48.76	34.99	13.49	-45.8	-47.2	19.9	0.00e+00	0	42	0	221249536	63	4178
2026-01-22 22:43:49.77	35.12	13.56	-45.9	-47.3	19.7	0.00e+00	0	42	0	223346688	63	4223
2026-01-22 22:43:50.78	35.26	13.64	-45.7	-47.1	19.9	0.00e+00	0	42	0	225443840	63	4103
2026-01-22 22:43:51.79	35.39	13.72	-45.6	-46.9	20.1	0.00e+00	0	42	0	227540992	63	4045
2026-01-22 22:43:52.79	35.52	13.79	-45.4	-46.7	20.3	0.00e+00	0	42	0	228589568	62	4174
2026-01-22 22:43:53.80	35.66	13.87	-45.3	-46.6	20.4	0.00e+00	0	42	0	230686720	62	4123
2026-01-22 22:43:54.81	35.80	13.95	-45.2	-46.5	20.5	0.00e+00	0	42	0	232783872	62	4080
2026-01-22 22:43:55.82	35.93	14.02	-45.2	-46.5	20.5	0.00e+00	0	42	0	234881024	62	4067
2026-01-22 22:43:56.83	36.07	14.10	-45.2	-46.5	20.5	0.00e+00	0	42	0	236978176	62	4060
2026-01-22 22:43:57.83	36.21	14.18	-45.2	-46.4	20.6	0.00e+00	0	42	0	239075328	62	4046
2026-01-22 22:43:58.84	36.34	14.26	-45.1	-46.3	20.6	0.00e+00	0	42	0	240123904	62	3995
2026-01-22 22:43:59.85	36.48	14.33	-45.1	-46.4	20.6	0.00e+00	0	42	0	242221056	62	4027
2026-01-22 22:44:00.86	36.62	14.41	-45.1	-46.3	20.7	0.00e+00	0	42	0	244318208	62	3971
2026-01-22 22:44:01.87	36.76	14.49	-45.3	-46.5	20.5	0.00e+00	0	42	0	246415360	62	4091
2026-01-22 22:44:02.88	36.90	14.57	-45.2	-46.4	20.6	0.00e+00	0	42	0	247463936	61	4267
2026-01-22 22:44:03.89	37.05	14.64	-45.1	-46.4	20.6	0.00e+00	0	42	0	249561088	61	4251
2026-01-22 22:44:04.90	37.19	14.72	-45.2	-46.4	20.6	0.00e+00	0	42	0	251658240	61	4283
2026-01-22 22:44:05.90	37.33	14.80	-45.2	-46.4	20.6	0.00e+00	0	42	0	253755392	61	4268
2026-01-22 22:44:06.91	37.48	14.88	-45.3	-46.6	20.4	0.00e+00	0	42	0	255852544	61	4365
2026-01-22 22:44:07.92	37.62	14.96	-45.3	-46.6	20.4	0.00e+00	0	43	0	257949696	61	4377
2026-01-22 22:44:08.93	37.77	15.03	-45.4	-46.7	20.3	0.00e+00	0	42	0	258998272	61	4421
2026-01-22 22:44:09.94	37.91	15.11	-45.4	-46.7	20.3	0.00e+00	0	42	0	261095424	61	4421
2026-01-22 22:44:10.95	38.06	15.19	-45.6	-46.9	20.2	0.00e+00	0	43	0	263192576	61	4541
2026-01-22 22:44:11.95	38.21	15.27	-45.6	-46.9	20.1	0.00e+00	0	43	0	265289728	62	4290
2026-01-22 22:44:12.96	38.36	15.35	-45.8	-47.2	19.8	0.00e+00	0	42	0	267386880	62	4398
2026-01-22 22:44:13.97	38.50	15.43	-45.9	-47.3	19.9	0.00e+00	0	42	0	268435456	62	4453
2026-01-22 22:44:14.98	38.66	15.51	-46.0	-47.4	19.7	0.00e+00	0	42	0	270532608	62	4512
2026-01-22 22:44:15.99	38.81	15.59	-45.9	-47.2	19.9	0.00e+00	0	42	0	272629760	62	4435
2026-01-22 22:44:17.00	38.96	15.66	-46.1	-47.5	19.6	0.00e+00	0	43	0	274726912	62	4559
2026-01-22 22:44:18.00	39.11	15.74	-46.1	-47.5	19.7	0.00e+00	0	43	0	275775488	63	4301
2026-01-22 22:44:19.01	39.26	15.82	-46.2	-47.6	19.5	0.00e+00	0	42	0	277872640	63	4363
2026-01-22 22:44:20.01	39.41	15.90	-46.1	-47.5	19.7	0.00e+00	0	43	0	279969792	63	4299
2026-01-22 22:44:21.02	39.57	15.98	-46.0	-47.5	19.7	0.00e+00	0	42	0	282066944	63	4298
2026-01-22 22:44:22.03	39.73	16.06	-45.8	-47.2	19.9	0.00e+00	0	43	0	284164096	63	4174
2026-01-22 22:44:23.04	39.88	16.14	-45.8	-47.2	20.0	0.00e+00	0	43	0	286261248	63	4152
2026-01-22 22:44:24.05	40.04	16.22	-45.7	-47.1	20.1	0.00e+00	0	43	0	287309824	63	4114
2026-01-22 22:44:25.06	40.20	16.30	-45.5	-46.8	20.4	0.00e+00	0	43	0	289406976	62	4211
2026-01-22 22:44:26.07	40.36	16.38	-45.3	-46.5	20.5	0.00e+00	0	42	0	291504128	62	4088
2026-01-22 22:44:27.08	40.52	16.46	-45.2	-46.5	20.6	0.00e+00	0	43	0	293601280	62	4073
2026-01-22 22:44:28.09	40.68	16.54	-44.9	-46.1	20.9	0.00e+00	0	42	0	295698432	61	4112
2026-01-22 22:44:29.09	40.84	16.62	-44.9	-46.1	21.0	0.00e+00	0	42	0	296747008	61	4102
2026-01-22 22:44:30.10	41.00	16.70	-45.0	-46.2	20.8	0.00e+00	0	43	0	298844160	61	4175
2026-01-22 22:44:31.11	41.16	16.78	-44.8	-45.9	21.1	0.00e+00	0	43	0	300941312	61	4045
2026-01-22 22:44:32.12	41.32	16.86	-44.9	-46.1	21.0	0.00e+00	0	42	0	303038464	61	4120
2026-01-22 22:44:33.13	41.49	16.94	-44.7	-45.9	21.1	0.00e+00	0	43	0	305135616	61	4024
2026-01-22 22:44:34.13	41.65	17.01	-44.7	-45.9	21.1	0.00e+00	0	42	0	306184192	61	4022
2026-01-22 22:44:35.14	41.82	17.09	-44.4	-45.6	21.3	0.00e+00	0	43	0	308281344	60	4117
2026-01-22 22:44:36.15	41.99	17.17	-44.5	-45.6	21.3	0.00e+00	0	43	0	310378496	60	4139
2026-01-22 22:44:37.16	42.16	17.25	-44.3	-45.5	21.5	0.00e+00	0	43	0	312475648	60	4053
2026-01-22 22:44:38.17	42.32	17.33	-44.4	-45.5	21.4	0.00e+00	0	42	0	314572800	60	4082
2026-01-22 22:44:39.17	42.49	17.41	-44.4	-45.5	21.4	0.00e+00	0	43	0	315621376	60	4087
2026-01-22 22:44:40.18	42.66	17.49	-44.5	-45.6	21.4	0.00e+00	0	43	0	317718528	60	4127
2026-01-22 22:44:41.19	42.83	17.57	-44.7	-45.9	21.1	0.00e+00	0	43	0	319815680	60	4267
2026-01-22 22:44:42.20	43.01	17.65	-44.8	-46.1	21.1	0.00e+00	0	43	0	321912832	60	4344
2026-01-22 22:44:43.20	43.18	17.73	-45.0	-46.2	20.8	0.00e+00	0	43	0	324009984	60	4435
2026-01-22 22:44:44.21	43.35	17.81	-45.0	-46.2	20.8	0.00e+00	0	43	0	325058560	60	4416
2026-01-22 22:44:45.22	43.53	17.89	-45.0	-46.2	20.8	0.00e+00	0	43	0	327155712	60	4433
2026-01-22 22:44:46.23	43.70	17.98	-45.1	-46.3	20.8	0.00e+00	0	42	0	329252864	60	4469
2026-01-22 22:44:47.24	43.88	18.06	-44.9	-46.1	20.9	0.00e+00	0	43	0	331350016	60	4367
2026-01-22 22:44:48.25	44.06	18.14	-44.9	-46.1	20.9	0.00e+00	0	43	0	333447168	60	4361
2026-01-22 22:44:49.25	44.24	18.22	-44.9	-46.1	20.9	0.00e+00	0	43	0	334495744	60	4377
2026-01-22 22:44:50.26	44.42	18.30	-45.2	-46.4	20.7	0.00e+00	0	43	0	336592896	60	4527
2026-01-22 22:44:51.27	44.60	18.38	-44.9	-46.1	21.0	0.00e+00	0	43	0	338690048	61	4101
2026-01-22 22:44:52.28	44.78	18.46	-45.2	-46.5	20.6	0.00e+00	0	43	0	340787200	61	4294
2026-01-22 22:44:53.29	44.96	18.54	-45.3	-46.6	20.6	0.00e+00	0	43	0	342884352	61	4357
2026-01-22 22:44:54.30	45.14	18.62	-45.2	-46.4	20.7	0.00e+00	0	43	0	343932928	61	4282
2026-01-22 22:44:55.31	45.33	18.70	-45.2	-46.5	20.6	0.00e+00	0	43	0	346030080	61	4306
2026-01-22 22:44:56.32	45.51	18.78	-45.2	-46.4	20.7	0.00e+00	0	43	0	348127232	61	4278
2026-01-22 22:44:57.33	45.70	18.86	-44.9	-46.1	21.0	0.00e+00	0	43	0	350224384	61	4126
2026-01-22 22:44:58.34	45.89	18.94	-44.7	-45.9	21.1	0.00e+00	0	43	0	352321536	61	4008
2026-01-22 22:44:59.35	46.08	19.02	-44.8	-46.0	21.0	0.00e+00	0	43	0	353370112	61	4072
2026-01-22 22:45:00.35	46.26	19.10	-44.7	-45.8	21.2	0.00e+00	0	43	0	355467264	61	3997
2026-01-22 22:45:01.36	46.45	19.18	-44.5	-45.7	21.3	0.00e+00	0	43	0	357564416	61	3930
2026-01-22 22:45:02.37	46.64	19.26	-44.5	-45.6	21.4	0.00e+00	0	43	0	359661568	61	3913
2026-01-22 22:45:03.38	46.84	19.34	-44.5	-45.6	21.4	0.00e+00	0	43	0	361758720	60	4117
2026-01-22 22:45:04.39	47.03	19.42	-44.5	-45.6	21.5	0.00e+00	0	43	0	362807296	60	4127
2026-01-22 22:45:05.40	47.22	19.50	-44.3	-45.4	21.6	0.00e+00	0	43	0	364904448	60	4035
2026-01-22 22:45:06.41	47.42	19.58	-44.2	-45.3	21.6	0.00e+00	0	43	0	367001600	60	4000
2026-01-22 22:45:07.41	47.61	19.65	-44.3	-45.4	21.6	0.00e+00	0	43	0	369098752	60	4019
2026-01-22 22:45:08.42	47.81	19.73	-44.2	-45.3	21.7	0.00e+00	0	43	0	371195904	60	3978
2026-01-22 22:45:09.43	48.01	19.81	-44.3	-45.4	21.9	0.00e+00	0	43	0	373293056	59	4267
2026-01-22 22:45:10.44	48.21	19.89	-44.3	-45.4	21.9	0.00e+00	0	43	0	374341632	59	4280
2026-01-22 22:45:11.45	48.41	19.97	-44.2	-45.3	21.9	0.00e+00	0	43	0	376438784	59	4224
2026-01-22 22:45:12.45	48.61	20.05	-44.1	-45.2	22.0	0.00e+00	0	43	0	378535936	59	4171
2026-01-22 22:45:13.46	48.81	20.13	-44.1	-45.1	22.1	0.00e+00	0	43	0	380633088	59	4132
2026-01-22 22:45:14.47	49.01	20.21	-44.1	-45.2	22.1	0.00e+00	0	43	0	381681664	59	4158
2026-01-22 22:45:15.48	49.21	20.29	-44.1	-45.2	22.0	0.00e+00	0	43	0	383778816	59	4174
2026-01-22 22:45:16.49	49.42	20.37	-43.8	-44.9	22.4	0.00e+00	0	43	0	385875968	59	4009
2026-01-22 22:45:17.49	49.62	20.45	-43.9	-45.0	22.2	0.00e+00	0	43	0	387973120	59	4059
2026-01-22 22:45:18.50	49.83	20.52	-43.9	-44.9	22.2	0.00e+00	0	43	0	390070272	59	4048
2026-01-22 22:45:19.51	50.04	20.60	-43.9	-44.9	22.3	0.00e+00	0	43	0	391118848	59	4040
2026-01-22 22:45:20.52	50.25	20.68	-44.0	-45.0	22.2	0.00e+00	0	43	0	393216000	59	4098
2026-01-22 22:45:21.53	50.46	20.76	-44.1	-45.1	22.1	0.00e+00	0	43	0	395313152	59	4143
2026-01-22 22:45:22.54	50.67	20.84	-44.1	-45.2	22.1	0.00e+00	0	43	0	397410304	59	4158
2026-01-22 22:45:23.54	50.88	20.91	-44.3	-45.3	21.9	0.00e+00	0	43	0	399507456	59	4239
2026-01-22 22:45:24.55	51.09	20.99	-44.2	-45.3	21.9	0.00e+00	0	43	0	401604608	59	4197
2026-01-22 22:45:25.55	51.31	21.07	-44.1	-45.2	22.1	0.00e+00	0	43	0	402653184	59	4162
2026-01-22 22:45:26.55	51.52	21.15	-44.2	-45.3	22.0	0.00e+00	0	43	0	404750336	59	4218
2026-01-22 22:45:27.56	51.74	21.22	-44.2	-45.2	22.0	0.00e+00	0	43	0	406847488	59	4182
2026-01-22 22:45:28.56	51.95	21.30	-44.2	-45.3	22.0	0.00e+00	0	43	0	408944640	59	4229
2026-01-22 22:45:29.57	52.17	21.38	-44.1	-45.2	22.0	0.00e+00	0	43	0	409993216	59	4173
2026-01-22 22:45:30.57	52.39	21.45	-44.2	-45.3	22.0	0.00e+00	0	43	0	412090368	59	4222
2026-01-22 22:45:31.58	52.61	21.53	-44.1	-45.2	22.0	0.00e+00	0	43	0	414187520	59	4162
2026-01-22 22:45:32.58	52.83	21.61	-44.1	-45.2	22.1	0.00e+00	0	43	0	416284672	59	4149
2026-01-22 22:45:33.59	53.05	21.68	-43.9	-45.0	22.3	0.00e+00	0	43	0	418381824	59	4058
2026-01-22 22:45:34.60	53.28	21.76	-44.1	-45.1	22.1	0.00e+00	0	43	0	419430400	59	4131
2026-01-22 22:45:35.61	53.50	21.83	-44.0	-45.0	22.2	0.00e+00	0	43	0	421527552	59	4094
2026-01-22 22:45:36.61	53.72	21.91	-44.3	-45.4	21.9	0.00e+00	0	43	0	423624704	59	4270
2026-01-22 22:45:37.62	53.95	21.98	-44.4	-45.5	21.9	0.00e+00	0	43	0	425721856	59	4308
2026-01-22 22:45:38.63	54.18	22.06	-44.3	-45.4	21.9	0.00e+00	0	43	0	427819008	59	4256
2026-01-22 22:45:39.63	54.41	22.13	-44.5	-45.6	21.7	0.00e+00	0	43	0	429916160	59	4384
2026-01-22 22:45:40.63	54.64	22.21	-44.6	-45.7	21.7	0.00e+00	0	43	0	430964736	59	4416
2026-01-22 22:45:41.63	54.86	22.28	-44.4	-45.5	21.6	0.00e+00	0	43	0	433061888	59	4322
2026-01-22 22:45:42.63	55.09	22.35	-44.3	-45.4	21.9	0.00e+00	0	43	0	435159040	59	4270
2026-01-22 22:45:43.63	55.33	22.43	-44.4	-45.5	21.8	0.00e+00	0	43	0	437256192	59	4339
2026-01-22 22:45:44.64	55.56	22.50	-44.5	-45.6	21.7	0.00e+00	0	43	0	438304768	59	4382
2026-01-22 22:45:45.65	55.80	22.57	-44.6	-45.7	21.7	0.00e+00	0	43	0	440401920	59	4412
2026-01-22 22:45:46.65	56.03	22.65	-44.5	-45.6	21.6	0.00e+00	0	43	0	442499072	60	4111
2026-01-22 22:45:47.66	56.27	22.72	-44.4	-45.5	21.6	0.00e+00	0	43	0	444596224	60	4060
2026-01-22 22:45:48.65	56.50	22.79	-44.3	-45.4	21.6	0.00e+00	0	43	0	446693376	60	4028
2026-01-22 22:45:49.66	56.74	22.86	-44.2	-45.3	21.7	0.00e+00	0	43	0	447741952	60	3986
2026-01-22 22:45:50.66	56.98	22.94	-44.3	-45.3	21.9	0.00e+00	0	43	0	449839104	59	4227
2026-01-22 22:45:51.67	57.23	23.01	-44.4	-45.5	21.8	0.00e+00	0	43	0	451936256	59	4295
2026-01-22 22:45:52.68	57.47	23.08	-44.7	-45.8	21.5	0.00e+00	0	43	0	454033408	59	4485
2026-01-22 22:45:53.69	57.71	23.15	-44.5	-45.7	21.4	0.00e+00	0	43	0	456130560	60	4151
2026-01-22 22:45:54.69	57.96	23.22	-44.8	-46.0	21.1	0.00e+00	0	43	0	457179136	60	4322
2026-01-22 22:45:55.70	58.20	23.29	-44.9	-46.1	21.0	0.00e+00	0	43	0	459276288	60	4379
2026-01-22 22:45:56.71	58.45	23.36	-44.8	-46.0	21.2	0.00e+00	0	43	0	461373440	60	4294
2026-01-22 22:45:57.72	58.70	23.43	-44.3	-45.4	21.7	0.00e+00	0	43	0	463470592	60	4034
2026-01-22 22:45:58.73	58.95	23.50	-44.1	-45.1	21.9	0.00e+00	0	43	0	465567744	60	3893
2026-01-22 22:45:59.73	59.20	23.57	-44.3	-45.4	22.0	0.00e+00	0	43	0	467664896	59	4253
2026-01-22 22:46:00.74	59.45	23.64	-44.6	-45.7	21.7	0.00e+00	0	43	0	468713472	59	4420
2026-01-22 22:46:01.75	59.70	23.70	-44.6	-45.8	21.4	0.00e+00	0	43	0	470810624	60	4199
2026-01-22 22:46:02.76	59.96	23.77	-45.0	-46.2	21.0	0.00e+00	0	43	0	472907776	60	4420
2026-01-22 22:46:03.77	60.21	23.84	-45.3	-46.6	20.7	0.00e+00	0	43	0	475004928	61	4342
2026-01-22 22:46:04.77	60.47	23.90	-45.5	-46.8	20.5	0.00e+00	0	43	0	476053504	61	4458
2026-01-22 22:46:05.78	60.72	23.97	-45.6	-46.9	20.4	0.00e+00	0	43	0	478150656	61	4504
2026-01-22 22:46:06.79	60.98	24.04	-45.7	-46.9	20.3	0.00e+00	0	43	0	480247808	61	4534
2026-01-22 22:46:07.80	61.24	24.10	-45.7	-47.0	20.3	0.00e+00	0	43	0	482344960	62	4301
2026-01-22 22:46:08.80	61.50	24.17	-46.1	-47.5	19.8	0.00e+00	0	43	0	484442112	62	4582
2026-01-22 22:46:09.81	61.76	24.23	-46.2	-47.6	19.7	0.00e+00	0	43	0	485490688	63	4390
2026-01-22 22:46:10.82	62.03	24.30	-46.1	-47.5	19.9	0.00e+00	0	43	0	487587840	63	4297
2026-01-22 22:46:11.83	62.29	24.36	-45.9	-47.3	20.0	0.00e+00	0	43	0	489684992	63	4211
2026-01-22 22:46:12.83	62.55	24.42	-45.7	-46.9	20.4	0.00e+00	0	43	0	491782144	63	4046
2026-01-22 22:46:13.84	62.82	24.49	-45.4	-46.7	20.6	0.00e+00	0	43	0	493879296	62	4159
2026-01-22 22:46:14.85	63.09	24.55	-45.3	-46.5	20.8	0.00e+00	0	43	0	495976448	62	4071
2026-01-22 22:46:15.86	63.35	24.61	-45.5	-46.8	20.5	0.00e+00	0	43	0	497025024	62	4220
2026-01-22 22:46:16.87	63.62	24.67	-46.0	-47.3	20.1	0.00e+00	0	43	0	499122176	62	4471
2026-01-22 22:46:17.88	63.89	24.73	-46.4	-47.8	19.6	0.00e+00	0	43	0	501219328	63	4454
2026-01-22 22:46:18.89	64.16	24.79	-46.8	-48.3	19.0	0.00e+00	0	43	0	503316480	64	4482
2026-01-22 22:46:19.89	64.43	24.85	-47.3	-49.0	18.5	0.00e+00	0	43	0	504365056	65	4557
2026-01-22 22:46:20.90	64.71	24.91	-47.5	-49.2	18.2	0.00e+00	0	43	0	506462208	65	4701
2026-01-22 22:46:21.91	64.98	24.97	-47.8	-49.7	17.8	0.00e+00	0	43	0	508559360	66	4694
2026-01-22 22:46:22.92	65.26	25.03	-47.5	-49.2	18.2	0.00e+00	0	43	0	510656512	66	4417
2026-01-22 22:46:23.93	65.53	25.09	-47.2	-48.9	18.5	0.00e+00	0	43	0	512753664	66	4257
2026-01-22 22:46:24.93	65.81	25.14	-46.8	-48.4	18.9	0.00e+00	0	43	0	514850816	65	4255
2026-01-22 22:46:25.94	66.08	25.20	-46.5	-47.9	19.4	0.00e+00	0	43	0	515899392	64	4279
2026-01-22 22:46:26.95	66.36	25.26	-46.4	-47.8	19.5	0.00e+00	0	43	0	517996544	64	4225
2026-01-22 22:46:27.96	66.64	25.31	-46.6	-48.2	19.2	0.00e+00	0	43	0	520093696	64	4398
2026-01-22 22:46:28.97	66.92	25.37	-47.2	-48.9	18.4	0.00e+00	0	43	0	522190848	65	4522
2026-01-22 22:46:29.97	67.20	25.42	-48.0	-50.0	17.5	0.00e+00	0	43	0	524288000	66	4826
2026-01-22 22:46:30.98	67.49	25.47	-48.4	-50.4	17.1	0.00e+00	0	43	0	525336576	67	4800
2026-01-22 22:46:31.99	67.77	25.53	-48.3	-50.4	17.1	0.00e+00	0	43	0	527433728	67	4770
2026-01-22 22:46:32.99	68.05	25.58	-48.2	-50.1	17.4	0.00e+00	0	43	0	529530880	67	4624
2026-01-22 22:46:34.00	68.34	25.63	-47.6	-49.4	18.0	0.00e+00	0	43	0	531628032	67	4259
2026-01-22 22:46:35.01	68.63	25.68	-47.4	-49.1	18.3	0.00e+00	0	43	0	532676608	66	4349
2026-01-22 22:46:36.02	68.91	25.73	-47.2	-48.8	18.6	0.00e+00	0	43	0	534773760	66	4220
2026-01-22 22:46:37.03	69.20	25.78	-47.6	-49.4	18.1	0.00e+00	0	43	0	536870912	66	4503
2026-01-22 22:46:38.03	69.49	25.83	-47.5	-49.3	18.1	0.00e+00	0	43	0	538968064	66	4479
2026-01-22 22:46:39.04	69.78	25.88	-47.2	-48.9	18.6	0.00e+00	0	43	0	541065216	66	4243
2026-01-22 22:46:40.05	70.07	25.93	-47.1	-48.7	18.7	0.00e+00	0	43	0	543162368	66	4151
2026-01-22 22:46:41.06	70.36	25.97	-46.7	-48.3	19.1	0.00e+00	0	43	0	544210944	65	4203
2026-01-22 22:46:42.07	70.65	26.02	-47.0	-48.5	18.9	0.00e+00	0	43	0	546308096	65	4336
2026-01-22 22:46:43.07	70.94	26.07	-47.3	-49.0	18.4	0.00e+00	0	43	0	548405248	65	4593
2026-01-22 22:46:44.08	71.24	26.11	-47.7	-49.6	17.9	0.00e+00	0	43	0	550502400	65	4875
2026-01-22 22:46:45.09	71.53	26.16	-47.6	-49.4	18.1	0.00e+00	0	43	0	552599552	66	4497
2026-01-22 22:46:46.10	71.83	26.20	-47.7	-49.6	17.9	0.00e+00	0	43	0	553648128	66	4604
2026-01-22 22:46:47.11	72.13	26.24	-47.3	-49.0	18.3	0.00e+00	0	43	0	555745280	66	4317
2026-01-22 22:46:48.11	72.42	26.28	-47.3	-49.0	18.4	0.00e+00	0	43	0	557842432	66	4314
2026-01-22 22:46:49.12	72.72	26.33	-47.7	-49.5	17.9	0.00e+00	0	43	0	559939584	66	4577
2026-01-22 22:46:50.13	73.02	26.37	-48.3	-50.3	17.2	0.00e+00	0	43	0	562036736	67	4733
2026-01-22 22:46:51.14	73.32	26.41	-48.8	-51.1	16.5	0.00e+00	0	43	0	563085312	68	4897
2026-01-22 22:46:52.15	73.62	26.44	-48.5	-50.6	16.9	0.00e+00	0	43	0	565182464	68	4619
2026-01-22 22:46:53.15	73.92	26.48	-47.7	-49.5	18.0	0.00e+00	0	43	0	567279616	67	4296
2026-01-22 22:46:54.16	74.22	26.52	-47.6	-49.3	18.1	0.00e+00	0	43	0	569376768	66	4482
2026-01-22 22:46:55.17	74.52	26.56	-47.0	-48.5	18.8	0.00e+00	0	43	0	571473920	65	4329
2026-01-22 22:46:56.18	74.83	26.59	-46.8	-48.4	19.0	0.00e+00	0	43	0	572522496	65	4255
2026-01-22 22:46:57.19	75.13	26.63	-46.8	-48.3	19.1	0.00e+00	0	43	0	574619648	65	4214
2026-01-22 22:46:58.20	75.44	26.66	-46.7	-48.2	19.1	0.00e+00	0	43	0	576716800	65	4183
2026-01-22 22:46:59.21	75.74	26.70	-46.8	-48.3	19.0	0.00e+00	0	43	0	578813952	65	4231
2026-01-22 22:47:00.21	76.04	26.73	-47.0	-48.6	18.8	0.00e+00	0	43	0	580911104	65	4360
2026-01-22 22:47:01.22	76.35	26.76	-47.4	-49.1	18.3	0.00e+00	0	43	0	581959680	65	4613
2026-01-22 22:47:02.23	76.66	26.79	-47.7	-49.5	18.0	0.00e+00	0	43	0	584056832	65	4838
2026-01-22 22:47:03.23	76.96	26.82	-48.0	-49.9	17.5	0.00e+00	0	43	0	586153984	66	4813
2026-01-22 22:47:04.24	77.27	26.85	-47.9	-49.8	17.5	0.00e+00	0	43	0	588251136	66	4750
2026-01-22 22:47:05.25	77.58	26.88	-47.9	-49.8	17.7	0.00e+00	0	43	0	590348288	66	4741
2026-01-22 22:47:06.26	77.89	26.91	-47.8	-49.6	17.9	0.00e+00	0	43	0	591396864	66	4628
2026-01-22 22:47:07.27	78.20	26.94	-47.8	-49.5	17.9	0.00e+00	0	43	0	593494016	66	4586
2026-01-22 22:47:08.27	78.51	26.96	-47.4	-49.0	18.4	0.00e+00	0	43	0	595591168	66	4320
2026-01-22 22:47:09.28	78.82	26.99	-47.2	-48.8	18.6	0.00e+00	0	43	0	597688320	66	4239
2026-01-22 22:47:10.29	79.13	27.01	-47.0	-48.6	18.8	0.00e+00	0	43	0	599785472	66	4130
2026-01-22 22:47:11.30	79.44	27.03	-47.4	-49.1	18.3	0.00e+00	0	43	0	600834048	66	4381
2026-01-22 22:47:12.31	79.76	27.06	-47.7	-49.5	18.0	0.00e+00	0	43	0	602931200	66	4567
2026-01-22 22:47:13.32	80.07	27.08	-47.8	-49.6	17.8	0.00e+00	0	43	0	605028352	66	4629
2026-01-22 22:47:14.33	80.38	27.10	-47.9	-49.8	17.7	0.00e+00	0	43	0	607125504	66	4741
2026-01-22 22:47:15.33	80.69	27.12	-47.4	-49.1	18.4	0.00e+00	0	43	0	609222656	66	4364
2026-01-22 22:47:16.34	81.01	27.14	-47.0	-48.6	18.8	0.00e+00	0	43	0	610271232	66	4116
2026-01-22 22:47:17.35	81.32	27.16	-46.7	-48.2	19.1	0.00e+00	0	43	0	612368384	65	4189
2026-01-22 22:47:18.36	81.64	27.17	-46.6	-48.1	19.2	0.00e+00	0	44	0	614465536	65	4132
2026-01-22 22:47:19.37	81.95	27.19	-46.6	-48.2	19.2	0.00e+00	0	44	0	616562688	65	4151
2026-01-22 22:47:20.38	82.27	27.21	-46.9	-48.4	19.0	0.00e+00	0	43	0	618659840	65	4279
2026-01-22 22:47:21.39	82.58	27.22	-46.9	-48.4	18.9	0.00e+00	0	43	0	619708416	65	4279
2026-01-22 22:47:22.40	82.90	27.23	-46.8	-48.4	19.0	0.00e+00	0	44	0	621805568	65	4245
2026-01-22 22:47:23.41	83.22	27.25	-46.8	-48.3	19.0	0.00e+00	0	43	0	623902720	65	4235
2026-01-22 22:47:24.41	83.53	27.26	-46.9	-48.4	19.0	0.00e+00	0	43	0	625999872	65	4282
2026-01-22 22:47:25.42	83.85	27.27	-47.0	-48.6	18.8	0.00e+00	0	43	0	628097024	65	4347
2026-01-22 22:47:26.43	84.16	27.28	-47.5	-49.2	18.2	0.00e+00	0	43	0	630194176	65	4697
2026-01-22 22:47:27.44	84.48	27.29	-47.9	-49.8	17.7	0.00e+00	0	43	0	631242752	66	4712
2026-01-22 22:47:28.45	84.80	27.30	-47.7	-49.5	17.9	0.00e+00	0	43	0	633339904	66	4583
2026-01-22 22:47:29.46	85.12	27.30	-47.7	-49.5	18.0	0.00e+00	0	44	0	635437056	66	4550
2026-01-22 22:47:30.46	85.43	27.31	-47.6	-49.4	18.1	0.00e+00	0	44	0	637534208	66	4503
2026-01-22 22:47:31.47	85.75	27.32	-47.6	-49.4	18.1	0.00e+00	0	43	0	638582784	66	4503
2026-01-22 22:47:32.48	86.07	27.32	-48.0	-49.9	17.6	0.00e+00	0	44	0	640679936	66	4801
2026-01-22 22:47:33.49	86.38	27.32	-48.2	-50.2	17.4	0.00e+00	0	43	0	642777088	66	4941
2026-01-22 22:47:34.49	86.70	27.33	-48.0	-49.9	17.5	0.00e+00	0	43	0	644874240	67	4534
2026-01-22 22:47:35.50	87.02	27.33	-47.5	-49.2	18.2	0.00e+00	0	43	0	646971392	67	4174
2026-01-22 22:47:36.51	87.33	27.33	-47.2	-48.8	18.6	0.00e+00	0	43	0	648019968	66	4219
2026-01-22 22:47:37.52	87.65	27.33	-46.6	-48.1	19.2	0.00e+00	0	43	0	650117120	65	4108
2026-01-22 22:47:38.53	87.97	27.33	-46.5	-48.0	19.3	0.00e+00	0	43	0	652214272	65	4070
2026-01-22 22:47:39.53	88.29	27.33	-46.3	-47.7	19.6	0.00e+00	0	43	0	654311424	64	4170
2026-01-22 22:47:40.54	88.60	27.32	-46.2	-47.6	19.8	0.00e+00	0	43	0	656408576	63	4343
2026-01-22 22:47:41.55	88.92	27.32	-45.8	-47.1	20.3	0.00e+00	0	43	0	658505728	63	4104
2026-01-22 22:47:42.56	89.24	27.31	-45.7	-47.0	20.3	0.00e+00	0	43	0	659554304	63	4089
2026-01-22 22:47:43.57	89.56	27.31	-45.9	-47.2	20.1	0.00e+00	0	43	0	661651456	63	4191
2026-01-22 22:47:44.57	89.87	27.30	-46.2	-47.6	19.8	0.00e+00	0	43	0	663748608	63	4362
2026-01-22 22:47:45.58	90.19	27.29	-46.7	-48.2	19.2	0.00e+00	0	43	0	665845760	63	4679
2026-01-22 22:47:46.59	90.51	27.29	-47.0	-48.5	18.9	0.00e+00	0	43	0	666894336	64	4597
2026-01-22 22:47:47.60	90.82	27.28	-47.3	-49.0	18.5	0.00e+00	0	43	0	668991488	65	4576
2026-01-22 22:47:48.61	91.14	27.27	-47.1	-48.7	18.6	0.00e+00	0	43	0	671088640	65	4433
2026-01-22 22:47:49.62	91.46	27.25	-47.1	-48.8	18.6	0.00e+00	0	43	0	673185792	65	4453
2026-01-22 22:47:50.63	91.78	27.24	-47.0	-48.5	18.8	0.00e+00	0	43	0	675282944	65	4340
2026-01-22 22:47:51.63	92.09	27.23	-46.9	-48.4	19.0	0.00e+00	0	43	0	677380096	65	4258
2026-01-22 22:47:52.64	92.41	27.22	-46.8	-48.3	19.0	0.00e+00	0	43	0	678428672	65	4232
2026-01-22 22:47:53.65	92.72	27.20	-46.6	-48.1	19.3	0.00e+00	0	43	0	680525824	65	4132
2026-01-22 22:47:54.66	93.04	27.19	-46.6	-48.1	19.3	0.00e+00	0	43	0	682622976	65	4130
2026-01-22 22:47:55.67	93.35	27.17	-46.6	-48.1	19.3	0.00e+00	0	43	0	684720128	65	4102
2026-01-22 22:47:56.67	93.66	27.15	-46.8	-48.3	19.1	0.00e+00	0	43	0	686817280	65	4211
2026-01-22 22:47:57.68	93.98	27.13	-46.7	-48.2	19.2	0.00e+00	0	43	0	687865856	65	4183
2026-01-22 22:47:58.69	94.29	27.11	-46.5	-47.9	19.5	0.00e+00	0	43	0	689963008	64	4265
2026-01-22 22:47:59.70	94.61	27.09	-46.5	-47.9	19.5	0.00e+00	0	43	0	692060160	64	4261
2026-01-22 22:48:00.71	94.92	27.07	-46.8	-48.4	19.0	0.00e+00	0	43	0	694157312	64	4505
2026-01-22 22:48:01.72	95.23	27.05	-46.9	-48.4	19.0	0.00e+00	0	43	0	696254464	64	4542
2026-01-22 22:48:02.72	95.54	27.03	-46.8	-48.4	19.0	0.00e+00	0	43	0	697303040	64	4512
2026-01-22 22:48:03.73	95.86	27.00	-46.9	-48.5	18.9	0.00e+00	0	43	0	699400192	64	4565
2026-01-22 22:48:04.74	96.17	26.98	-46.6	-48.1	19.2	0.00e+00	0	43	0	701497344	64	4380
2026-01-22 22:48:05.75	96.48	26.95	-46.4	-47.8	19.6	0.00e+00	0	43	0	703594496	64	4234
2026-01-22 22:48:06.76	96.79	26.93	-46.0	-47.3	20.0	0.00e+00	0	43	0	705691648	63	4216
2026-01-22 22:48:07.77	97.10	26.90	-45.5	-46.7	20.6	0.00e+00	0	43	0	706740224	63	3947
2026-01-22 22:48:08.77	97.41	26.87	-45.3	-46.6	20.7	0.00e+00	0	43	0	708837376	62	4111
2026-01-22 22:48:09.78	97.72	26.84	-45.6	-46.8	20.5	0.00e+00	0	43	0	710934528	62	4242
2026-01-22 22:48:10.79	98.02	26.81	-46.1	-47.5	19.9	0.00e+00	0	43	0	713031680	62	4557
2026-01-22 22:48:11.80	98.33	26.78	-46.5	-48.0	19.4	0.00e+00	0	43	0	715128832	63	4583
2026-01-22 22:48:12.81	98.64	26.75	-46.9	-48.5	18.9	0.00e+00	0	43	0	716177408	64	4565
2026-01-22 22:48:13.81	98.94	26.72	-46.9	-48.5	18.9	0.00e+00	0	43	0	718274560	64	4565
2026-01-22 22:48:14.82	99.25	26.69	-46.8	-48.3	19.1	0.00e+00	0	43	0	720371712	64	4489
2026-01-22 22:48:15.83	99.56	26.65	-46.1	-47.5	19.7	0.00e+00	0	43	0	722468864	64	4087
2026-01-22 22:48:16.84	99.86	26.62	-45.6	-46.9	20.4	0.00e+00	0	43	0	724566016	63	4045
2026-01-22 22:48:17.85	100.16	26.58	-45.3	-46.5	20.7	0.00e+00	0	43	0	725614592	62	4096
2026-01-22 22:48:18.86	100.47	26.54	-45.4	-46.6	20.7	0.00e+00	0	43	0	727711744	62	4144
2026-01-22 22:48:19.87	100.77	26.51	-45.3	-46.5	20.7	0.00e+00	0	43	0	729808896	62	4098
2026-01-22 22:48:20.87	101.07	26.47	-45.1	-46.3	21.0	0.00e+00	0	43	0	731906048	62	3967
2026-01-22 22:48:21.88	101.37	26.43	-44.6	-45.8	21.4	0.00e+00	0	43	0	734003200	61	3961
2026-01-22 22:48:22.89	101.67	26.39	-44.3	-45.4	21.7	0.00e+00	0	43	0	735051776	60	4005
2026-01-22 22:48:23.90	101.97	26.35	-44.5	-45.6	21.6	0.00e+00	0	43	0	737148928	60	4124
2026-01-22 22:48:24.91	102.27	26.31	-44.8	-45.9	21.2	0.00e+00	0	43	0	739246080	60	4284
2026-01-22 22:48:25.91	102.57	26.27	-45.5	-46.7	20.6	0.00e+00	0	43	0	741343232	61	4439
2026-01-22 22:48:26.92	102.87	26.23	-46.1	-47.4	19.9	0.00e+00	0	43	0	743440384	62	4541
2026-01-22 22:48:27.93	103.16	26.18	-45.9	-47.2	20.1	0.00e+00	0	43	0	745537536	62	4425
2026-01-22 22:48:28.94	103.46	26.14	-45.7	-47.0	20.4	0.00e+00	0	43	0	746586112	62	4329
2026-01-22 22:48:29.95	103.76	26.09	-45.1	-46.4	20.9	0.00e+00	0	43	0	748683264	62	4005
2026-01-22 22:48:30.96	104.05	26.05	-44.4	-45.5	21.7	0.00e+00	0	43	0	750780416	60	4061
2026-01-22 22:48:31.97	104.34	26.00	-44.1	-45.1	21.9	0.00e+00	0	43	0	752877568	60	3902
2026-01-22 22:48:32.98	104.64	25.96	-44.2	-45.3	21.9	0.00e+00	0	43	0	753926144	60	3985
2026-01-22 22:48:33.99	104.93	25.91	-44.4	-45.5	21.9	0.00e+00	0	43	0	756023296	59	4340
2026-01-22 22:48:34.99	105.22	25.86	-44.4	-45.4	22.0	0.00e+00	0	43	0	758120448	59	4281
2026-01-22 22:48:36.00	105.51	25.81	-44.1	-45.2	22.2	0.00e+00	0	43	0	760217600	59	4156
2026-01-22 22:48:37.01	105.80	25.76	-43.8	-44.8	22.5	0.00e+00	0	43	0	762314752	59	3995
2026-01-22 22:48:38.02	106.09	25.71	-43.6	-44.6	22.6	0.00e+00	0	43	0	764411904	59	3893
2026-01-22 22:48:39.03	106.38	25.66	-43.6	-44.6	22.7	0.00e+00	0	43	0	765460480	59	3880
2026-01-22 22:48:40.04	106.66	25.61	-44.1	-45.2	22.1	0.00e+00	0	44	0	767557632	59	4152
2026-01-22 22:48:41.05	106.95	25.56	-44.3	-45.4	22.0	0.00e+00	0	43	0	769654784	59	4273
2026-01-22 22:48:42.06	107.23	25.51	-44.6	-45.7	21.4	0.00e+00	0	43	0	771751936	60	4161
2026-01-22 22:48:43.07	107.52	25.45	-44.7	-45.9	21.3	0.00e+00	0	43	0	773849088	60	4270
2026-01-22 22:48:44.08	107.80	25.40	-44.8	-46.0	21.2	0.00e+00	0	43	0	774897664	60	4314
2026-01-22 22:48:45.08	108.08	25.34	-44.4	-45.5	21.6	0.00e+00	0	43	0	776994816	60	4076
2026-01-22 22:48:46.09	108.36	25.29	-44.0	-45.1	22.0	0.00e+00	0	43	0	779091968	60	3897
2026-01-22 22:48:47.10	108.64	25.23	-44.3	-45.3	22.0	0.00e+00	0	43	0	781189120	59	4242
2026-01-22 22:48:48.11	108.92	25.18	-44.1	-45.2	22.2	0.00e+00	0	43	0	782237696	59	4159
2026-01-22 22:48:49.11	109.20	25.12	-44.0	-45.0	22.3	0.00e+00	0	43	0	784334848	59	4086
2026-01-22 22:48:50.12	109.47	25.06	-44.0	-45.0	22.3	0.00e+00	0	43	0	786432000	59	4072
2026-01-22 22:48:51.13	109.75	25.00	-44.0	-45.0	22.3	0.00e+00	0	43	0	788529152	59	4073
2026-01-22 22:48:52.14	110.03	24.95	-44.2	-45.2	22.1	0.00e+00	0	43	0	790626304	59	4193
2026-01-22 22:48:53.15	110.30	24.89	-44.3	-45.4	22.0	0.00e+00	0	43	0	792723456	59	4276
2026-01-22 22:48:54.16	110.57	24.83	-44.5	-45.6	21.8	0.00e+00	0	43	0	793772032	59	4345
2026-01-22 22:48:55.17	110.85	24.77	-44.6	-45.7	21.7	0.00e+00	0	43	0	795869184	59	4424
2026-01-22 22:48:56.18	111.12	24.71	-44.4	-45.5	21.6	0.00e+00	0	43	0	797966336	60	4095
2026-01-22 22:48:57.19	111.39	24.64	-44.3	-45.3	21.7	0.00e+00	0	43	0	800063488	60	4000
2026-01-22 22:48:58.19	111.65	24.58	-44.3	-45.4	22.0	0.00e+00	0	43	0	802160640	59	4268
2026-01-22 22:48:59.20	111.92	24.52	-44.2	-45.2	22.1	0.00e+00	0	43	0	803209216	59	4178
2026-01-22 22:49:00.21	112.19	24.46	-44.1	-45.2	22.2	0.00e+00	0	43	0	805306368	59	4150
2026-01-22 22:49:01.22	112.46	24.39	-44.0	-45.0	22.1	0.00e+00	0	43	0	807403520	59	4093
2026-01-22 22:49:02.23	112.72	24.33	-44.2	-45.2	22.1	0.00e+00	0	43	0	809500672	59	4189
2026-01-22 22:49:03.23	112.98	24.27	-44.4	-45.5	21.9	0.00e+00	0	43	0	811597824	59	4312
2026-01-22 22:49:04.24	113.25	24.20	-44.4	-45.5	21.8	0.00e+00	0	43	0	812646400	59	4320
2026-01-22 22:49:05.25	113.51	24.14	-44.7	-45.8	21.6	0.00e+00	0	43	0	814743552	59	4467
2026-01-22 22:49:06.26	113.77	24.07	-44.6	-45.7	21.7	0.00e+00	0	43	0	816840704	59	4400
2026-01-22 22:49:07.27	114.03	24.00	-44.6	-45.8	21.6	0.00e+00	0	43	0	818937856	59	4447
2026-01-22 22:49:08.28	114.29	23.94	-44.5	-45.6	21.8	0.00e+00	0	43	0	821035008	59	4353
2026-01-22 22:49:09.29	114.55	23.87	-44.4	-45.5	21.6	0.00e+00	0	43	0	822083584	60	4059
2026-01-22 22:49:10.29	114.80	23.80	-44.7	-45.9	21.2	0.00e+00	0	43	0	824180736	60	4264
2026-01-22 22:49:11.30	115.06	23.74	-44.9	-46.1	21.0	0.00e+00	0	43	0	826277888	60	4365
2026-01-22 22:49:12.31	115.31	23.67	-45.0	-46.2	21.0	0.00e+00	0	43	0	828375040	60	4421
2026-01-22 22:49:13.32	115.56	23.60	-44.8	-46.0	21.1	0.00e+00	0	43	0	830472192	60	4317
2026-01-22 22:49:14.33	115.82	23.53	-44.7	-45.8	21.3	0.00e+00	0	43	0	831520768	60	4238
2026-01-22 22:49:15.33	116.07	23.46	-44.4	-45.5	21.6	0.00e+00	0	43	0	833617920	60	4064
2026-01-22 22:49:16.34	116.32	23.39	-44.2	-45.3	21.8	0.00e+00	0	43	0	835715072	60	3974
2026-01-22 22:49:17.35	116.56	23.32	-44.1	-45.1	21.9	0.00e+00	0	43	0	837812224	60	3905
2026-01-22 22:49:18.36	116.81	23.25	-44.3	-45.4	21.7	0.00e+00	0	43	0	839909376	60	4015
2026-01-22 22:49:19.37	117.06	23.18	-44.3	-45.4	21.7	0.00e+00	0	43	0	840957952	60	4019
2026-01-22 22:49:20.37	117.30	23.11	-44.3	-45.4	21.6	0.00e+00	0	43	0	843055104	60	4026
2026-01-22 22:49:21.38	117.55	23.04	-44.2	-45.3	21.8	0.00e+00	0	43	0	845152256	60	3961
2026-01-22 22:49:22.39	117.79	22.97	-44.3	-45.4	21.7	0.00e+00	0	43	0	847249408	60	4012
2026-01-22 22:49:23.40	118.03	22.89	-44.4	-45.6	21.5	0.00e+00	0	43	0	849346560	60	4099
2026-01-22 22:49:24.41	118.28	22.82	-44.6	-45.8	21.3	0.00e+00	0	43	0	850395136	60	4208
2026-01-22 22:49:25.41	118.51	22.75	-44.8	-46.0	21.1	0.00e+00	0	43	0	852492288	60	4307
2026-01-22 22:49:26.42	118.75	22.68	-44.9	-46.1	21.0	0.00e+00	0	43	0	854589440	60	4373
2026-01-22 22:49:27.43	118.99	22.60	-44.6	-45.8	21.3	0.00e+00	0	43	0	856686592	60	4213
2026-01-22 22:49:28.44	119.23	22.53	-44.6	-45.7	21.3	0.00e+00	0	44	0	858783744	60	4193
2026-01-22 22:49:29.45	119.46	22.46	-44.5	-45.6	21.5	0.00e+00	0	43	0	859832320	60	4112
2026-01-22 22:49:30.45	119.70	22.38	-44.8	-45.9	21.2	0.00e+00	0	43	0	861929472	60	4277
2026-01-22 22:49:31.46	119.93	22.31	-45.2	-46.4	20.8	0.00e+00	0	43	0	864026624	60	4511
2026-01-22 22:49:32.47	120.16	22.23	-45.1	-46.3	20.8	0.00e+00	0	43	0	866123776	60	4483
2026-01-22 22:49:33.48	120.40	22.16	-45.1	-46.3	20.8	0.00e+00	0	43	0	868220928	61	4227
2026-01-22 22:49:34.48	120.62	22.08	-45.0	-46.2	21.0	0.00e+00	0	43	0	869269504	61	4147
2026-01-22 22:49:35.49	120.85	22.01	-44.7	-45.9	21.2	0.00e+00	0	43	0	871366656	61	4014
2026-01-22 22:49:36.50	121.08	21.93	-44.6	-45.8	21.4	0.00e+00	0	43	0	873463808	61	3962
2026-01-22 22:49:37.51	121.31	21.86	-44.7	-45.9	20.6	0.00e+00	0	43	0	875560960	60	4253
2026-01-22 22:49:38.52	121.54	21.78	-45.2	-46.5	20.7	0.00e+00	0	43	0	877658112	60	4557
2026-01-22 22:49:39.53	121.76	21.70	-45.5	-46.9	20.3	0.00e+00	0	43	0	879755264	61	4501
2026-01-22 22:49:40.53	121.98	21.63	-46.0	-47.4	19.9	0.00e+00	0	43	0	880803840	62	4501
2026-01-22 22:49:41.54	122.21	21.55	-46.0	-47.4	19.9	0.00e+00	0	43	0	882900992	62	4500
2026-01-22 22:49:42.55	122.43	21.48	-45.8	-47.2	20.0	0.00e+00	0	43	0	884998144	62	4423
2026-01-22 22:49:43.56	122.65	21.40	-45.4	-46.7	20.5	0.00e+00	0	43	0	887095296	62	4176
2026-01-22 22:49:44.57	122.87	21.32	-44.8	-46.0	21.1	0.00e+00	0	43	0	888143872	61	4085
2026-01-22 22:49:45.57	123.09	21.24	-44.6	-45.7	21.3	0.00e+00	0	43	0	890241024	61	3929
2026-01-22 22:49:46.58	123.30	21.17	-44.3	-45.4	21.6	0.00e+00	0	43	0	892338176	60	4015
2026-01-22 22:49:47.59	123.52	21.09	-44.1	-45.2	21.7	0.00e+00	0	43	0	894435328	60	3935
2026-01-22 22:49:48.60	123.74	21.01	-44.6	-45.7	21.3	0.00e+00	0	43	0	896532480	60	4174
2026-01-22 22:49:49.60	123.95	20.93	-44.9	-46.1	21.0	0.00e+00	0	43	0	897581056	60	4372
2026-01-22 22:49:50.61	124.16	20.85	-45.1	-46.4	20.7	0.00e+00	0	43	0	899678208	60	4494
2026-01-22 22:49:51.62	124.37	20.78	-45.2	-46.5	20.6	0.00e+00	0	43	0	901775360	61	4315
2026-01-22 22:49:52.63	124.58	20.70	-45.2	-46.5	20.6	0.00e+00	0	43	0	903872512	61	4306
2026-01-22 22:49:53.63	124.79	20.62	-45.4	-46.6	20.5	0.00e+00	0	43	0	905969664	61	4385
2026-01-22 22:49:54.64	125.00	20.54	-45.5	-46.8	20.4	0.00e+00	0	43	0	908066816	61	4455
2026-01-22 22:49:55.65	125.21	20.46	-45.7	-47.0	20.1	0.00e+00	0	43	0	909115392	61	4588
2026-01-22 22:49:56.66	125.42	20.38	-45.9	-47.3	19.9	0.00e+00	0	43	0	911212544	62	4482
2026-01-22 22:49:57.67	125.62	20.30	-46.1	-47.5	19.7	0.00e+00	0	43	0	913309696	62	4581
2026-01-22 22:49:58.68	125.83	20.22	-46.0	-47.4	19.7	0.00e+00	0	43	0	915406848	62	4542
2026-01-22 22:49:59.69	126.03	20.14	-45.5	-46.8	20.4	0.00e+00	0	43	0	916455424	62	4201
2026-01-22 22:50:00.69	126.23	20.07	-44.8	-45.9	21.1	0.00e+00	0	43	0	918552576	61	4039
2026-01-22 22:50:01.70	126.44	19.99	-44.1	-45.2	21.7	0.00e+00	0	43	0	920649728	60	3915
2026-01-22 22:50:02.71	126.64	19.91	-44.0	-45.1	21.8	0.00e+00	0	43	0	922746880	60	3893
2026-01-22 22:50:03.72	126.84	19.83	-44.4	-45.5	21.7	0.00e+00	0	43	0	924844032	59	4325
2026-01-22 22:50:04.73	127.04	19.75	-44.6	-45.7	21.6	0.00e+00	0	43	0	926941184	59	4404
2026-01-22 22:50:05.73	127.23	19.67	-44.8	-46.0	21.0	0.00e+00	0	43	0	927989760	60	4302
2026-01-22 22:50:06.74	127.43	19.59	-45.3	-46.6	20.5	0.00e+00	0	43	0	930086912	61	4357
2026-01-22 22:50:07.75	127.63	19.51	-45.8	-47.1	20.0	0.00e+00	0	43	0	932184064	62	4385
2026-01-22 22:50:08.76	127.82	19.43	-45.9	-47.3	19.8	0.00e+00	0	43	0	934281216	62	4479
2026-01-22 22:50:09.77	128.01	19.35	-45.7	-47.1	20.1	0.00e+00	0	43	0	936378368	62	4344
2026-01-22 22:50:10.77	128.21	19.27	-45.4	-46.7	20.3	0.00e+00	0	43	0	937426944	62	4176
2026-01-22 22:50:11.78	128.40	19.19	-45.3	-46.6	20.4	0.00e+00	0	43	0	939524096	62	4112
2026-01-22 22:50:12.79	128.59	19.11	-45.2	-46.4	20.6	0.00e+00	0	43	0	941621248	62	4026
2026-01-22 22:50:13.80	128.78	19.03	-45.0	-46.2	20.8	0.00e+00	0	43	0	943718400	61	4173
2026-01-22 22:50:14.81	128.97	18.94	-45.2	-46.5	20.5	0.00e+00	0	43	0	944766976	61	4312
2026-01-22 22:50:15.81	129.15	18.86	-45.2	-46.5	20.5	0.00e+00	0	43	0	946864128	61	4293
2026-01-22 22:50:16.82	129.34	18.78	-45.4	-46.7	20.4	0.00e+00	0	43	0	948961280	61	4410
2026-01-22 22:50:17.83	129.53	18.70	-45.1	-46.3	20.7	0.00e+00	0	43	0	951058432	61	4229
2026-01-22 22:50:18.84	129.71	18.62	-44.7	-45.9	21.0	0.00e+00	0	43	0	953155584	61	4030
2026-01-22 22:50:19.85	129.90	18.54	-44.4	-45.5	21.3	0.00e+00	0	43	0	955252736	60	4094
2026-01-22 22:50:20.85	130.08	18.46	-44.2	-45.3	21.5	0.00e+00	0	43	0	956301312	60	4002
2026-01-22 22:50:21.86	130.26	18.38	-44.2	-45.3	21.5	0.00e+00	0	43	0	958398464	60	3983
2026-01-22 22:50:22.87	130.44	18.30	-44.1	-45.3	21.6	0.00e+00	0	43	0	960495616	60	3961
2026-01-22 22:50:23.88	130.62	18.22	-44.2	-45.4	21.5	0.00e+00	0	43	0	962592768	60	4006
2026-01-22 22:50:24.89	130.80	18.14	-44.4	-45.5	21.3	0.00e+00	0	43	0	964689920	60	4093
2026-01-22 22:50:25.90	130.98	18.06	-44.6	-45.8	21.1	0.00e+00	0	43	0	965738496	60	4210
2026-01-22 22:50:26.91	131.16	17.98	-44.8	-46.0	20.9	0.00e+00	0	43	0	967835648	60	4340
2026-01-22 22:50:27.92	131.34	17.90	-44.8	-46.0	20.9	0.00e+00	0	43	0	969932800	60	4307
2026-01-22 22:50:28.93	131.51	17.82	-44.7	-45.9	21.0	0.00e+00	0	43	0	972029952	60	4257
2026-01-22 22:50:29.94	131.69	17.74	-44.8	-46.0	20.9	0.00e+00	0	43	0	974127104	60	4306
2026-01-22 22:50:30.94	131.86	17.66	-44.9	-46.1	20.8	0.00e+00	0	43	0	975175680	60	4371
2026-01-22 22:50:31.95	132.03	17.57	-45.0	-46.2	20.7	0.00e+00	0	43	0	977272832	60	4437
2026-01-22 22:50:32.96	132.21	17.49	-45.2	-46.5	20.5	0.00e+00	0	43	0	979369984	61	4302
2026-01-22 22:50:33.97	132.38	17.41	-45.7	-47.1	19.9	0.00e+00	0	43	0	981467136	61	4606
2026-01-22 22:50:34.97	132.55	17.33	-46.0	-47.5	19.6	0.00e+00	0	43	0	983564288	62	4550
2026-01-22 22:50:35.98	132.72	17.25	-46.1	-47.5	19.5	0.00e+00	0	43	0	984612864	62	4576
2026-01-22 22:50:36.99	132.89	17.17	-46.2	-47.7	19.4	0.00e+00	0	43	0	986710016	63	4397
2026-01-22 22:50:38.00	133.05	17.09	-46.2	-47.7	19.3	0.00e+00	0	43	0	988807168	63	4438
2026-01-22 22:50:39.00	133.22	17.01	-45.8	-47.2	19.8	0.00e+00	0	43	0	990904320	63	4166
2026-01-22 22:50:40.01	133.39	16.93	-45.5	-46.9	20.1	0.00e+00	0	43	0	993001472	62	4243
2026-01-22 22:50:41.02	133.55	16.85	-45.1	-46.3	20.6	0.00e+00	0	43	0	994050048	62	3986
2026-01-22 22:50:42.03	133.72	16.77	-44.8	-46.0	20.9	0.00e+00	0	43	0	996147200	61	4073
2026-01-22 22:50:43.04	133.88	16.69	-44.7	-45.9	21.0	0.00e+00	0	43	0	998244352	61	4022
2026-01-22 22:50:44.05	134.04	16.61	-44.7	-45.9	20.9	0.00e+00	0	43	0	1000341504	61	4034
2026-01-22 22:50:45.06	134.20	16.53	-44.6	-45.8	21.0	0.00e+00	0	43	0	1002438656	61	3970
2026-01-22 22:50:46.06	134.36	16.45	-44.6	-45.8	21.0	0.00e+00	0	43	0	1003487232	61	3982
2026-01-22 22:50:47.07	134.52	16.37	-44.6	-45.7	21.0	0.00e+00	0	43	0	1005584384	61	3958
2026-01-22 22:50:48.08	134.68	16.29	-44.5	-45.7	21.1	0.00e+00	0	43	0	1007681536	61	3945
2026-01-22 22:50:49.09	134.84	16.21	-44.3	-45.5	21.3	0.00e+00	0	43	0	1009778688	60	4064
2026-01-22 22:50:50.10	135.00	16.13	-44.3	-45.4	21.3	0.00e+00	0	43	0	1011875840	60	4019
2026-01-22 22:50:51.10	135.16	16.05	-44.2	-45.3	21.4	0.00e+00	0	43	0	1012924416	60	3985
2026-01-22 22:50:52.11	135.31	15.97	-44.3	-45.5	21.3	0.00e+00	0	43	0	1015021568	60	4064
2026-01-22 22:50:53.12	135.47	15.89	-44.3	-45.4	21.3	0.00e+00	0	43	0	1017118720	60	4022
2026-01-22 22:50:54.13	135.62	15.81	-44.4	-45.5	21.2	0.00e+00	0	43	0	1019215872	60	4087
2026-01-22 22:50:55.14	135.78	15.73	-44.7	-45.9	20.9	0.00e+00	0	43	0	1021313024	60	4243
2026-01-22 22:50:56.15	135.93	15.65	-44.7	-45.9	20.9	0.00e+00	0	43	0	1023410176	60	4291
2026-01-22 22:50:57.15	136.08	15.57	-44.9	-46.1	20.7	0.00e+00	0	43	0	1024458752	60	4387
2026-01-22 22:50:58.16	136.23	15.49	-45.2	-46.4	20.5	0.00e+00	0	43	0	1026555904	60	4535
2026-01-22 22:50:59.17	136.38	15.41	-45.4	-46.7	20.2	0.00e+00	0	43	0	1028653056	61	4419
2026-01-22 22:51:00.18	136.53	15.33	-45.6	-47.0	19.9	0.00e+00	0	43	0	1030750208	61	4568
2026-01-22 22:51:01.19	136.68	15.26	-45.7	-47.1	19.8	0.00e+00	0	43	0	1031798784	61	4610
2026-01-22 22:51:02.20	136.83	15.18	-45.9	-47.3	19.6	0.00e+00	0	43	0	1033895936	62	4478
2026-01-22 22:51:03.21	136.98	15.10	-45.8	-47.2	19.7	0.00e+00	0	43	0	1035993088	62	4400
2026-01-22 22:51:04.21	137.12	15.02	-45.6	-47.0	19.8	0.00e+00	0	43	0	1038090240	62	4334
2026-01-22 22:51:05.22	137.27	14.94	-45.6	-47.0	19.9	0.00e+00	0	43	0	1040187392	62	4325
2026-01-22 22:51:06.23	137.42	14.86	-45.5	-46.9	20.0	0.00e+00	0	43	0	1042284544	62	4278
2026-01-22 22:51:07.24	137.56	14.78	-45.3	-46.6	20.2	0.00e+00	0	43	0	1043333120	62	4142
2026-01-22 22:51:08.25	137.70	14.70	-45.2	-46.5	20.3	0.00e+00	0	43	0	1045430272	62	4080
2026-01-22 22:51:09.25	137.85	14.63	-45.2	-46.5	20.4	0.00e+00	0	43	0	1047527424	62	4063
2026-01-22 22:51:10.26	137.99	14.55	-45.1	-46.5	20.3	0.00e+00	0	43	0	1049624576	62	4052
2026-01-22 22:51:11.27	138.13	14.47	-45.0	-46.3	20.5	0.00e+00	0	43	0	1051721728	62	3964
2026-01-22 22:51:12.28	138.27	14.39	-44.9	-46.2	20.5	0.00e+00	0	43	0	1052770304	61	4166
2026-01-22 22:51:13.29	138.41	14.31	-44.9	-46.2	20.6	0.00e+00	0	43	0	1054867456	61	4149
2026-01-22 22:51:14.29	138.55	14.23	-45.0	-46.3	20.4	0.00e+00	0	43	0	1056964608	61	4230
2026-01-22 22:51:15.30	138.69	14.16	-44.9	-46.1	20.6	0.00e+00	0	43	0	1059061760	61	4125
2026-01-22 22:51:16.31	138.83	14.08	-44.6	-45.8	20.9	0.00e+00	0	43	0	1060110336	61	3983
2026-01-22 22:51:17.32	138.97	14.00	-44.6	-45.8	20.9	0.00e+00	0	43	0	1062207488	61	3970
2026-01-22 22:51:18.33	139.10	13.92	-44.5	-45.6	21.1	0.00e+00	0	43	0	1064304640	60	4138
2026-01-22 22:51:19.33	139.24	13.85	-44.5	-45.7	21.0	0.00e+00	0	43	0	1066401792	60	4169
2026-01-22 22:51:20.34	139.37	13.77	-44.5	-45.7	21.0	0.00e+00	0	43	0	1068498944	60	4147
2026-01-22 22:51:21.36	139.51	13.69	-44.4	-45.6	21.1	0.00e+00	0	43	0	1070596096	60	4099
2026-01-22 22:51:22.36	139.64	13.61	-44.6	-45.8	20.9	0.00e+00	0	43	0	1071644672	60	4199
2026-01-22 22:51:23.37	139.78	13.54	-44.7	-45.9	20.8	0.00e+00	0	43	0	1073741824	60	4289
2026-01-22 22:51:24.37	139.91	13.46	-44.9	-46.1	20.6	0.00e+00	0	43	0	1075838976	60	4385
2026-01-22 22:51:25.38	140.04	13.38	-45.0	-46.3	20.4	0.00e+00	0	43	0	1077936128	60	4460
2026-01-22 22:51:26.39	140.17	13.31	-45.3	-46.6	20.1	0.00e+00	0	43	0	1080033280	61	4378
2026-01-22 22:51:27.40	140.30	13.23	-45.6	-47.0	19.9	0.00e+00	0	43	0	1081081856	61	4556
2026-01-22 22:51:28.41	140.43	13.15	-45.8	-47.2	19.6	0.00e+00	0	43	0	1083179008	62	4427
2026-01-22 22:51:29.42	140.56	13.08	-46.0	-47.5	19.4	0.00e+00	0	43	0	1085276160	62	4551
2026-01-22 22:51:30.43	140.69	13.00	-46.0	-47.4	19.4	0.00e+00	0	43	0	1087373312	62	4543
2026-01-22 22:51:31.44	140.82	12.92	-46.0	-47.4	19.4	0.00e+00	0	43	0	1089470464	62	4526
2026-01-22 22:51:32.45	140.95	12.85	-45.9	-47.4	19.4	0.00e+00	0	43	0	1090519040	62	4515
2026-01-22 22:51:33.45	141.07	12.77	-45.7	-47.1	19.7	0.00e+00	0	43	0	1092616192	62	4386
2026-01-22 22:51:34.46	141.20	12.70	-45.7	-47.2	19.6	0.00e+00	0	43	0	1094713344	62	4398
2026-01-22 22:51:35.47	141.32	12.62	-45.7	-47.1	19.7	0.00e+00	0	43	0	1096810496	62	4372
2026-01-22 22:51:36.48	141.45	12.54	-45.5	-46.9	19.9	0.00e+00	0	43	0	1098907648	62	4259
2026-01-22 22:51:37.49	141.57	12.47	-45.6	-47.0	19.8	0.00e+00	0	43	0	1099956224	62	4319
2026-01-22 22:51:38.50	141.70	12.39	-45.6	-47.0	19.8	0.00e+00	0	43	0	1102053376	62	4328
2026-01-22 22:51:39.51	141.82	12.32	-45.7	-47.1	19.7	0.00e+00	0	43	0	1104150528	62	4361
2026-01-22 22:51:40.51	141.94	12.24	-45.8	-47.2	19.6	0.00e+00	0	43	0	1106247680	62	4434
2026-01-22 22:51:41.52	142.06	12.17	-45.9	-47.4	19.5	0.00e+00	0	43	0	1108344832	62	4495
2026-01-22 22:51:42.53	142.19	12.09	-46.0	-47.5	19.3	0.00e+00	0	43	0	1109393408	62	4561
2026-01-22 22:51:43.54	142.31	12.02	-46.2	-47.8	19.1	0.00e+00	0	43	0	1111490560	63	4446
2026-01-22 22:51:44.55	142.43	11.94	-46.3	-47.8	19.0	0.00e+00	0	43	0	1113587712	63	4473
2026-01-22 22:51:45.55	142.55	11.87	-46.5	-48.1	18.7	0.00e+00	0	43	0	1115684864	63	4641
2026-01-22 22:51:46.56	142.66	11.79	-46.4	-48.0	18.8	0.00e+00	0	43	0	1117782016	63	4582
2026-01-22 22:51:47.57	142.78	11.72	-46.4	-47.9	18.9	0.00e+00	0	43	0	1118830592	63	4534
2026-01-22 22:51:48.58	142.90	11.65	-46.5	-48.1	18.7	0.00e+00	0	43	0	1120927744	63	4634
2026-01-22 22:51:49.59	143.02	11.57	-46.3	-47.9	18.9	0.00e+00	0	43	0	1123024896	63	4511
2026-01-22 22:51:50.60	143.14	11.50	-46.4	-47.9	18.9	0.00e+00	0	43	0	1125122048	63	4529
2026-01-22 22:51:51.61	143.25	11.42	-46.4	-47.9	18.9	0.00e+00	0	43	0	1127219200	63	4535
2026-01-22 22:51:52.62	143.37	11.35	-46.0	-47.5	19.3	0.00e+00	0	43	0	1128267776	63	4296
2026-01-22 22:51:53.62	143.48	11.28	-46.3	-47.9	18.9	0.00e+00	0	43	0	1130364928	63	4522
2026-01-22 22:51:54.63	143.60	11.20	-46.0	-47.5	19.3	0.00e+00	0	43	0	1132462080	63	4307
2026-01-22 22:51:55.64	143.71	11.13	-45.9	-47.4	19.4	0.00e+00	0	43	0	1134559232	63	4255
2026-01-22 22:51:56.65	143.82	11.06	-46.2	-47.7	19.1	0.00e+00	0	43	0	1136656384	63	4425
2026-01-22 22:51:57.65	143.94	10.98	-46.2	-47.7	19.0	0.00e+00	0	43	0	1137704960	63	4440
2026-01-22 22:51:58.66	144.05	10.91	-46.3	-47.9	18.9	0.00e+00	0	43	0	1139802112	63	4524
2026-01-22 22:51:59.67	144.16	10.84	-46.5	-48.1	18.7	0.00e+00	0	43	0	1141899264	63	4607
2026-01-22 22:52:00.68	144.27	10.76	-46.4	-48.0	18.7	0.00e+00	0	43	0	1143996416	63	4597
2026-01-22 22:52:01.69	144.38	10.69	-46.6	-48.2	18.5	0.00e+00	0	43	0	1146093568	63	4693
2026-01-22 22:52:02.69	144.49	10.62	-46.3	-47.9	18.8	0.00e+00	0	43	0	1147142144	63	4517
2026-01-22 22:52:03.70	144.60	10.55	-46.3	-47.9	18.9	0.00e+00	0	43	0	1149239296	63	4494
2026-01-22 22:52:04.71	144.71	10.47	-46.3	-47.9	18.9	0.00e+00	0	43	0	1151336448	63	4500
2026-01-22 22:52:05.72	144.82	10.40	-46.2	-47.8	18.9	0.00e+00	0	43	0	1153433600	63	4469
2026-01-22 22:52:06.72	144.93	10.33	-46.3	-47.9	18.9	0.00e+00	0	43	0	1155530752	63	4501
2026-01-22 22:52:07.73	145.03	10.26	-46.0	-47.5	19.2	0.00e+00	0	43	0	1157627904	63	4322
2026-01-22 22:52:08.74	145.14	10.19	-45.8	-47.3	19.4	0.00e+00	0	43	0	1158676480	63	4206
2026-01-22 22:52:09.75	145.25	10.11	-46.0	-47.5	19.2	0.00e+00	0	43	0	1160773632	63	4321
2026-01-22 22:52:10.76	145.35	10.04	-45.9	-47.3	19.3	0.00e+00	0	43	0	1162870784	63	4242
2026-01-22 22:52:11.77	145.46	9.97	-46.0	-47.5	19.2	0.00e+00	0	43	0	1164967936	63	4308
2026-01-22 22:52:12.78	145.57	9.90	-46.2	-47.7	19.0	0.00e+00	0	43	0	1166016512	63	4439
2026-01-22 22:52:13.79	145.67	9.83	-46.3	-47.8	18.9	0.00e+00	0	43	0	1168113664	63	4476
2026-01-22 22:52:14.79	145.77	9.76	-46.6	-48.2	18.5	0.00e+00	0	43	0	1170210816	63	4683
2026-01-22 22:52:15.80	145.88	9.69	-46.6	-48.3	18.3	0.00e+00	0	42	0	1172307968	64	4474
2026-01-22 22:52:16.81	145.98	9.62	-46.7	-48.4	18.3	0.00e+00	0	43	0	1174405120	64	4501
2026-01-22 22:52:17.82	146.08	9.55	-47.0	-48.8	17.9	0.00e+00	0	43	0	1176502272	64	4724
2026-01-22 22:52:18.83	146.19	9.47	-47.1	-49.0	17.7	0.00e+00	0	43	0	1177550848	64	4836
2026-01-22 22:52:19.84	146.29	9.40	-47.2	-49.1	17.4	0.00e+00	0	43	0	1179648000	65	4641
2026-01-22 22:52:20.85	146.39	9.33	-47.3	-49.2	17.4	0.00e+00	0	43	0	1181745152	65	4680
2026-01-22 22:52:21.86	146.49	9.26	-47.2	-49.1	17.6	0.00e+00	0	43	0	1183842304	65	4614
2026-01-22 22:52:22.86	146.59	9.19	-47.4	-49.4	17.2	0.00e+00	0	43	0	1185939456	65	4812
2026-01-22 22:52:23.87	146.69	9.12	-47.4	-49.4	17.3	0.00e+00	0	43	0	1186988032	65	4766
2026-01-22 22:52:24.88	146.79	9.05	-47.2	-49.1	17.6	0.00e+00	0	43	0	1189085184	65	4609
2026-01-22 22:52:25.89	146.89	8.98	-47.2	-49.1	17.5	0.00e+00	0	43	0	1191182336	65	4603
2026-01-22 22:52:26.89	146.99	8.91	-46.9	-48.7	17.8	0.00e+00	0	42	0	1193279488	65	4428
2026-01-22 22:52:27.90	147.08	8.85	-46.9	-48.7	17.9	0.00e+00	0	43	0	1194328064	65	4409
2026-01-22 22:52:28.91	147.18	8.78	-46.9	-48.7	17.8	0.00e+00	0	42	0	1196425216	65	4420
2026-01-22 22:52:29.92	147.28	8.71	-46.6	-48.3	18.2	0.00e+00	0	43	0	1198522368	65	4234
2026-01-22 22:52:30.92	147.37	8.64	-46.5	-48.2	18.4	0.00e+00	0	42	0	1200619520	65	4172
2026-01-22 22:52:31.93	147.47	8.57	-46.3	-48.0	18.5	0.00e+00	0	43	0	1202716672	64	4302
2026-01-22 22:52:32.94	147.57	8.50	-46.3	-48.0	18.6	0.00e+00	0	42	0	1204813824	64	4294
2026-01-22 22:52:33.95	147.66	8.43	-46.3	-48.0	18.5	0.00e+00	0	42	0	1205862400	64	4307
2026-01-22 22:52:34.96	147.76	8.36	-46.2	-47.8	18.7	0.00e+00	0	43	0	1207959552	64	4237
