passes_logs/2026/01/22/R3.2S_Murmansk/R3.2S_Murmansk__20260122_195549_JL1KF02B07_rec.log

#Pass ID: 20260122_195549_JL1KF02B07
#Satellite: JL1KF02B07
#Configuration: 01B_900M
#almurnet v.1.7.20251203
#Start time: 2026-01-22 19:55:50

#Version: 2.2.20231116
#Station: R3.2S_Murmansk
#Location: 33.079688 lon 68.888172 lat
#TLE: 1 65939U 25226B   26020.89886288  .00033261  00000+0  20820-2 0  9994
#TLE: 2 65939  97.6530  99.8959 0018064 279.8018  80.1170 15.09176210 15350

#Time	Az	El	Level	Level2	SNR	BER	BlckErr	Temp	State	Recorded	gain1	gain2
2026-01-22 19:55:50.45	181.62	2.06	-55.2	-57.3	6.2	0.00e+00	0	42	0	0	81	18913
2026-01-22 19:55:51.47	181.67	2.13	-55.4	-57.5	6.2	0.00e+00	0	42	104	0	82	18308
2026-01-22 19:55:52.47	181.71	2.20	-55.3	-57.5	6.2	0.00e+00	0	42	104	0	82	18200
2026-01-22 19:55:53.48	181.76	2.27	-55.3	-57.4	6.2	0.00e+00	0	42	104	0	82	18029
2026-01-22 19:55:54.49	181.81	2.34	-55.3	-57.4	6.2	0.00e+00	0	42	104	0	82	18047
2026-01-22 19:55:55.50	181.85	2.41	-55.2	-57.3	6.2	0.00e+00	0	42	104	0	82	17958
2026-01-22 19:55:56.51	181.90	2.47	-55.2	-57.3	6.2	0.00e+00	0	43	104	0	82	17871
2026-01-22 19:55:57.51	181.95	2.54	-55.2	-57.2	6.2	0.00e+00	0	43	104	0	82	17764
2026-01-22 19:55:58.52	181.99	2.61	-55.1	-57.2	6.2	0.00e+00	0	43	104	0	82	17746
2026-01-22 19:55:59.53	182.04	2.68	-55.1	-57.2	6.2	0.00e+00	0	43	104	0	82	17652
2026-01-22 19:56:00.54	182.09	2.75	-55.1	-57.1	6.2	0.00e+00	0	43	104	0	82	17548
2026-01-22 19:56:01.55	182.13	2.82	-55.0	-57.1	6.2	0.00e+00	0	43	104	0	82	17446
2026-01-22 19:56:02.56	182.18	2.89	-54.9	-57.0	6.2	0.00e+00	0	43	104	0	81	18312
2026-01-22 19:56:03.57	182.23	2.96	-54.9	-56.9	6.2	0.00e+00	0	43	104	0	81	18165
2026-01-22 19:56:04.57	182.28	3.03	-54.8	-56.8	6.2	0.00e+00	0	43	104	0	81	17959
2026-01-22 19:56:05.58	182.33	3.10	-54.7	-56.7	6.2	0.00e+00	0	43	104	0	81	17745
2026-01-22 19:56:06.59	182.38	3.17	-54.6	-56.7	6.2	0.00e+00	0	43	104	0	81	17574
2026-01-22 19:56:07.60	182.43	3.25	-54.5	-56.6	6.2	0.00e+00	0	43	104	0	81	17396
2026-01-22 19:56:08.61	182.48	3.32	-54.3	-56.4	6.2	0.00e+00	0	43	104	0	80	18127
2026-01-22 19:56:09.61	182.53	3.39	-54.0	-56.1	6.2	0.00e+00	0	43	104	0	80	17452
2026-01-22 19:56:10.62	182.58	3.46	-53.7	-55.8	6.2	0.00e+00	0	43	104	0	79	17931
2026-01-22 19:56:11.63	182.63	3.53	-53.7	-55.8	6.2	0.00e+00	0	43	104	0	79	17864
2026-01-22 19:56:12.64	182.68	3.61	-53.7	-55.8	6.2	0.00e+00	0	43	104	0	79	17914
2026-01-22 19:56:13.65	182.73	3.68	-53.7	-55.8	6.2	0.00e+00	0	43	104	0	79	17847
2026-01-22 19:56:14.65	182.78	3.75	-53.7	-55.8	6.2	0.00e+00	0	43	104	0	79	17823
2026-01-22 19:56:15.66	182.83	3.82	-53.7	-55.8	6.2	0.00e+00	0	43	104	0	79	17821
2026-01-22 19:56:16.67	182.88	3.90	-53.7	-55.8	6.2	0.00e+00	0	43	104	0	79	17772
2026-01-22 19:56:17.68	182.93	3.97	-53.7	-55.8	6.2	0.00e+00	0	43	104	0	79	17789
2026-01-22 19:56:18.69	182.99	4.04	-53.7	-55.8	6.2	0.00e+00	0	43	104	0	79	17853
2026-01-22 19:56:19.69	183.04	4.12	-53.6	-55.8	6.2	0.00e+00	0	43	104	0	79	17788
2026-01-22 19:56:20.70	183.09	4.19	-53.6	-55.7	6.2	0.00e+00	0	43	104	0	79	17731
2026-01-22 19:56:21.71	183.15	4.27	-53.6	-55.8	6.2	0.00e+00	0	43	104	0	79	17781
2026-01-22 19:56:22.72	183.20	4.34	-53.6	-55.8	6.2	0.00e+00	0	44	104	0	79	17793
2026-01-22 19:56:23.73	183.25	4.42	-53.6	-55.8	6.2	0.00e+00	0	44	104	0	79	17772
2026-01-22 19:56:24.74	183.31	4.49	-53.6	-55.7	6.2	0.00e+00	0	43	104	0	79	17740
2026-01-22 19:56:25.75	183.36	4.57	-53.6	-55.7	6.2	0.00e+00	0	43	104	0	79	17715
2026-01-22 19:56:26.75	183.42	4.64	-53.6	-55.7	6.2	0.00e+00	0	43	104	0	79	17721
2026-01-22 19:56:27.76	183.47	4.72	-53.6	-55.7	6.2	0.00e+00	0	43	104	0	79	17749
2026-01-22 19:56:28.77	183.53	4.79	-53.6	-55.7	6.2	0.00e+00	0	44	104	0	79	17743
2026-01-22 19:56:29.78	183.58	4.87	-53.6	-55.7	6.2	0.00e+00	0	43	104	0	79	17716
2026-01-22 19:56:30.79	183.64	4.95	-53.6	-55.7	6.2	0.00e+00	0	43	104	0	79	17757
2026-01-22 19:56:31.80	183.70	5.03	-53.6	-55.7	6.2	0.00e+00	0	43	104	0	79	17745
2026-01-22 19:56:32.80	183.75	5.10	-53.7	-55.8	6.2	0.00e+00	0	44	104	0	79	17851
2026-01-22 19:56:33.81	183.81	5.18	-53.7	-55.9	6.2	0.00e+00	0	43	104	0	79	17977
2026-01-22 19:56:34.82	183.87	5.26	-53.6	-55.7	6.2	0.00e+00	0	44	104	0	79	17695
2026-01-22 19:56:35.83	183.93	5.34	-53.6	-55.7	6.2	0.00e+00	0	43	104	0	79	17696
2026-01-22 19:56:36.84	183.98	5.41	-53.7	-55.9	6.2	0.00e+00	0	44	104	0	79	17985
2026-01-22 19:56:37.85	184.04	5.49	-53.8	-55.9	6.2	0.00e+00	0	44	104	0	79	17992
2026-01-22 19:56:38.85	184.10	5.57	-53.6	-55.7	6.2	0.00e+00	0	44	104	0	79	17703
2026-01-22 19:56:39.86	184.16	5.65	-53.6	-55.7	6.2	0.00e+00	0	44	104	0	79	17663
2026-01-22 19:56:40.87	184.22	5.73	-53.7	-55.8	6.2	0.00e+00	0	44	104	0	79	17912
2026-01-22 19:56:41.88	184.28	5.81	-53.7	-55.8	6.2	0.00e+00	0	44	104	0	79	17961
2026-01-22 19:56:42.88	184.34	5.89	-53.6	-55.7	6.2	0.00e+00	0	44	104	0	79	17662
2026-01-22 19:56:43.89	184.40	5.97	-53.6	-55.7	6.2	0.00e+00	0	44	104	0	79	17644
2026-01-22 19:56:44.90	184.46	6.05	-53.7	-55.8	6.2	0.00e+00	0	44	104	0	79	17916
2026-01-22 19:56:45.91	184.52	6.13	-53.7	-55.8	6.2	0.00e+00	0	44	104	0	79	17941
2026-01-22 19:56:46.92	184.59	6.21	-53.6	-55.7	6.2	0.00e+00	0	44	104	0	79	17689
2026-01-22 19:56:47.92	184.65	6.29	-53.6	-55.7	6.2	0.00e+00	0	44	104	0	79	17623
2026-01-22 19:56:48.93	184.71	6.38	-53.7	-55.8	6.2	0.00e+00	0	44	104	0	79	17967
2026-01-22 19:56:49.94	184.77	6.46	-53.8	-55.8	6.2	0.00e+00	0	44	104	0	79	17963
2026-01-22 19:56:50.95	184.84	6.54	-53.6	-55.7	6.2	0.00e+00	0	44	104	0	79	17736
2026-01-22 19:56:51.95	184.90	6.62	-53.6	-55.7	6.2	0.00e+00	0	44	104	0	79	17666
2026-01-22 19:56:52.96	184.97	6.71	-53.8	-55.9	6.2	0.00e+00	0	44	104	0	79	17981
2026-01-22 19:56:53.97	185.03	6.79	-53.8	-55.9	6.2	0.00e+00	0	44	104	0	79	18084
2026-01-22 19:56:54.98	185.10	6.87	-53.6	-55.7	6.2	0.00e+00	0	44	104	0	79	17681
2026-01-22 19:56:55.99	185.16	6.96	-53.6	-55.7	6.2	0.00e+00	0	44	104	0	79	17764
2026-01-22 19:56:57.00	185.23	7.04	-53.8	-55.9	6.2	0.00e+00	0	44	104	0	79	18037
2026-01-22 19:56:58.01	185.30	7.13	-53.8	-55.9	6.2	0.00e+00	0	44	104	0	79	18115
2026-01-22 19:56:59.02	185.36	7.21	-53.7	-55.8	6.2	0.00e+00	0	44	104	0	79	17858
2026-01-22 19:57:00.02	185.43	7.30	-53.6	-55.7	6.2	0.00e+00	0	44	104	0	79	17761
2026-01-22 19:57:01.03	185.50	7.38	-53.8	-55.9	6.2	0.00e+00	0	44	104	0	79	18051
2026-01-22 19:57:02.04	185.57	7.47	-53.8	-55.9	6.2	0.00e+00	0	44	104	0	79	18117
2026-01-22 19:57:03.05	185.63	7.55	-53.7	-55.8	6.2	0.00e+00	0	44	104	0	79	17826
2026-01-22 19:57:04.05	185.70	7.64	-53.7	-55.8	6.2	0.00e+00	0	44	104	0	79	17792
2026-01-22 19:57:05.06	185.77	7.73	-53.8	-55.9	6.2	0.00e+00	0	44	104	0	79	18073
2026-01-22 19:57:06.07	185.84	7.81	-53.8	-55.9	6.2	0.00e+00	0	44	104	0	79	18064
2026-01-22 19:57:07.07	185.91	7.90	-53.7	-55.8	6.2	0.00e+00	0	44	104	0	79	17893
2026-01-22 19:57:08.08	185.98	7.99	-53.7	-55.8	6.2	0.00e+00	0	44	104	0	79	17846
2026-01-22 19:57:09.09	186.06	8.08	-53.8	-55.9	6.2	0.00e+00	0	44	104	0	79	18115
2026-01-22 19:57:10.10	186.13	8.17	-53.8	-55.9	6.2	0.00e+00	0	44	104	0	79	18162
2026-01-22 19:57:11.11	186.20	8.26	-53.7	-55.9	6.2	0.00e+00	0	44	104	0	79	18044
2026-01-22 19:57:12.11	186.27	8.35	-53.7	-55.8	6.2	0.00e+00	0	44	104	0	79	17893
2026-01-22 19:57:13.12	186.35	8.44	-53.9	-55.9	6.2	0.00e+00	0	44	104	0	79	18161
2026-01-22 19:57:14.13	186.42	8.53	-53.9	-55.9	6.2	0.00e+00	0	44	104	0	79	18160
2026-01-22 19:57:15.14	186.50	8.62	-53.8	-55.9	6.2	0.00e+00	0	44	104	0	79	18037
2026-01-22 19:57:16.15	186.57	8.71	-53.8	-55.8	6.2	0.00e+00	0	44	104	0	79	17946
2026-01-22 19:57:17.16	186.65	8.80	-53.9	-56.0	6.2	0.00e+00	0	44	104	0	79	18224
2026-01-22 19:57:18.17	186.72	8.89	-53.9	-56.0	6.2	0.00e+00	0	44	104	0	79	18200
2026-01-22 19:57:19.17	186.80	8.98	-51.4	-52.5	6.4	0.00e+00	0	44	104	0	74	16278
2026-01-22 19:57:20.18	186.88	9.08	-50.8	-51.8	6.3	0.00e+00	0	44	104	0	73	15899
2026-01-22 19:57:21.19	186.95	9.17	-52.8	-54.6	6.2	0.00e+00	0	44	104	0	76	18425
2026-01-22 19:57:22.20	187.03	9.26	-49.7	-50.6	6.3	0.00e+00	0	44	104	0	71	15491
2026-01-22 19:57:23.21	187.11	9.36	-49.4	-50.1	6.3	0.00e+00	0	44	104	0	70	15544
2026-01-22 19:57:24.21	187.19	9.45	-49.4	-50.2	6.3	0.00e+00	0	44	104	0	70	15793
2026-01-22 19:57:25.22	187.27	9.54	-50.4	-51.4	6.3	0.00e+00	0	45	104	0	71	16981
2026-01-22 19:57:26.23	187.35	9.64	-50.3	-51.2	6.3	0.00e+00	0	44	104	0	71	16657
2026-01-22 19:57:27.24	187.43	9.73	-53.9	-55.9	6.2	0.00e+00	0	44	104	0	78	19237
2026-01-22 19:57:28.25	187.52	9.83	-50.5	-51.5	6.3	0.00e+00	0	44	104	0	73	15327
2026-01-22 19:57:29.26	187.60	9.93	-52.8	-54.3	6.2	0.00e+00	0	44	104	0	77	16871
2026-01-22 19:57:30.27	187.68	10.02	-49.7	-50.4	6.3	0.00e+00	0	44	104	0	71	15289
2026-01-22 19:57:31.27	187.76	10.12	-49.1	-49.8	6.3	0.00e+00	0	44	104	0	70	14968
2026-01-22 19:57:32.28	187.85	10.22	-48.9	-49.6	6.3	0.00e+00	0	44	104	0	69	15576
2026-01-22 19:57:33.29	187.93	10.32	-49.6	-50.3	6.3	0.00e+00	0	44	104	0	70	16008
2026-01-22 19:57:34.30	188.02	10.41	-51.3	-52.3	6.3	0.00e+00	0	44	104	0	72	17952
2026-01-22 19:57:35.31	188.11	10.51	-51.5	-52.6	6.6	0.00e+00	0	44	104	0	75	15555
2026-01-22 19:57:36.31	188.19	10.61	-41.0	-40.8	12.9	4.48e-03	0	44	104	0	54	13426
2026-01-22 19:57:37.32	188.28	10.71	-51.8	-52.9	6.5	0.00e+00	0	44	104	33554432	75	16096
2026-01-22 19:57:38.33	188.37	10.81	-41.4	-41.2	12.9	3.10e-03	0	45	0	75497472	54	14081
2026-01-22 19:57:39.33	188.46	10.91	-39.9	-39.8	13.9	1.17e-03	0	44	0	192937984	51	14120
2026-01-22 19:57:40.34	188.55	11.01	-38.3	-38.2	15.0	3.39e-04	0	45	0	301989888	48	13983
2026-01-22 19:57:41.35	188.64	11.12	-36.2	-36.1	15.3	2.15e-04	0	45	0	419430400	44	13833
2026-01-22 19:57:42.36	188.73	11.22	-35.0	-34.8	16.1	4.19e-05	0	45	0	536870912	42	13407
2026-01-22 19:57:43.37	188.82	11.32	-34.3	-34.2	16.3	1.90e-05	0	45	0	654311424	40	14012
2026-01-22 19:57:44.37	188.91	11.42	-33.9	-33.7	16.6	5.70e-06	0	45	0	763363328	39	14035
2026-01-22 19:57:45.38	189.01	11.53	-33.4	-33.3	17.0	7.60e-06	0	45	0	880803840	38	14136
2026-01-22 19:57:46.39	189.10	11.63	-33.2	-33.0	17.1	3.80e-06	0	45	0	989855744	38	13776
2026-01-22 19:57:47.39	189.19	11.74	-32.8	-32.7	17.3	1.90e-06	0	45	0	1098907648	37	13999
2026-01-22 19:57:48.40	189.29	11.84	-32.7	-32.5	17.4	0.00e+00	0	45	0	1216348160	37	13750
2026-01-22 19:57:49.41	189.39	11.95	-32.5	-32.3	17.5	0.00e+00	0	45	0	1325400064	36	14247
2026-01-22 19:57:50.42	189.48	12.05	-32.4	-32.2	17.5	0.00e+00	0	45	0	1442840576	36	14107
2026-01-22 19:57:51.43	189.58	12.16	-32.2	-32.0	17.7	0.00e+00	0	45	0	1551892480	36	13718
2026-01-22 19:57:52.43	189.68	12.27	-32.2	-32.1	17.7	0.00e+00	0	45	0	1669332992	36	13819
2026-01-22 19:57:53.44	189.78	12.37	-32.3	-32.1	17.7	0.00e+00	0	45	0	1778384896	36	13942
2026-01-22 19:57:54.45	189.88	12.48	-32.2	-32.0	17.7	0.00e+00	0	45	0	1887436800	36	13783
2026-01-22 19:57:55.46	189.98	12.59	-32.2	-32.0	17.7	3.80e-06	0	45	0	2013265920	36	13747
2026-01-22 19:57:56.47	190.08	12.70	-32.2	-32.1	17.7	0.00e+00	0	45	0	2130706432	36	13813
2026-01-22 19:57:57.47	190.18	12.81	-32.0	-31.8	18.0	0.00e+00	0	45	0	2239758336	36	13459
2026-01-22 19:57:58.48	190.29	12.92	-32.0	-31.8	18.1	0.00e+00	0	45	0	2348810240	36	13395
2026-01-22 19:57:59.49	190.39	13.03	-29.5	-29.3	17.4	0.00e+00	0	45	0	2466250752	31	13475
2026-01-22 19:58:00.50	190.50	13.14	-29.5	-29.4	17.4	0.00e+00	0	45	0	2575302656	31	13489
2026-01-22 19:58:01.50	190.60	13.25	-29.6	-29.4	17.4	3.80e-06	0	45	0	2692743168	31	13547
2026-01-22 19:58:02.51	190.71	13.37	-29.4	-29.3	17.6	1.90e-06	0	45	0	2801795072	30	14135
2026-01-22 19:58:03.52	190.82	13.48	-29.4	-29.2	17.6	1.90e-06	0	45	0	2910846976	30	14028
2026-01-22 19:58:04.53	190.93	13.59	-29.4	-29.2	17.6	0.00e+00	0	45	0	3028287488	30	14106
2026-01-22 19:58:05.54	191.04	13.71	-29.4	-29.2	17.6	0.00e+00	0	45	0	3137339392	30	14078
2026-01-22 19:58:06.54	191.15	13.82	-29.3	-29.1	17.6	0.00e+00	0	45	0	3254779904	30	13926
2026-01-22 19:58:07.55	191.26	13.94	-29.3	-29.1	17.7	0.00e+00	0	45	0	3372220416	30	13847
2026-01-22 19:58:08.56	191.37	14.06	-29.2	-29.1	17.6	0.00e+00	0	45	0	3489660928	30	13841
2026-01-22 19:58:09.57	191.49	14.17	-29.1	-28.9	17.8	1.90e-06	0	45	0	3598712832	30	13623
2026-01-22 19:58:10.58	191.60	14.29	-29.1	-29.0	17.8	1.90e-06	0	45	0	3716153344	30	13645
2026-01-22 19:58:11.58	191.72	14.41	-29.1	-29.0	17.8	0.00e+00	0	45	0	3825205248	30	13645
2026-01-22 19:58:12.59	191.83	14.53	-29.0	-28.8	17.8	0.00e+00	0	45	0	3934257152	30	13431
2026-01-22 19:58:13.60	191.95	14.64	-28.9	-28.7	17.8	0.00e+00	0	45	0	4051697664	29	14076
2026-01-22 19:58:14.61	192.07	14.77	-28.9	-28.8	17.9	0.00e+00	0	45	0	4160749568	29	14126
2026-01-22 19:58:15.62	192.19	14.89	-28.9	-28.7	17.9	1.90e-06	0	45	0	4278190080	29	14021
2026-01-22 19:58:16.63	192.31	15.01	-28.9	-28.8	17.8	0.00e+00	0	45	0	4387241984	29	14128
2026-01-22 19:58:17.63	192.43	15.13	-28.7	-28.6	18.0	1.90e-06	0	45	0	4496293888	29	13803
2026-01-22 19:58:18.64	192.56	15.25	-28.7	-28.5	17.9	0.00e+00	0	45	0	4613734400	29	13781
2026-01-22 19:58:19.65	192.68	15.37	-28.6	-28.4	18.0	0.00e+00	0	45	0	4722786304	29	13616
2026-01-22 19:58:20.66	192.81	15.50	-28.5	-28.4	18.0	0.00e+00	0	45	0	4848615424	29	13505
2026-01-22 19:58:21.67	192.93	15.62	-28.5	-28.3	18.0	0.00e+00	0	45	0	4957667328	29	13444
2026-01-22 19:58:22.68	193.06	15.75	-28.5	-28.3	18.1	0.00e+00	0	45	0	5075107840	29	13463
2026-01-22 19:58:23.69	193.19	15.87	-28.5	-28.3	18.0	0.00e+00	0	45	0	5184159744	29	13402
2026-01-22 19:58:24.69	193.32	16.00	-28.4	-28.2	18.0	0.00e+00	0	45	0	5301600256	28	14079
2026-01-22 19:58:25.70	193.45	16.13	-28.4	-28.2	18.1	0.00e+00	0	45	0	5410652160	28	14012
2026-01-22 19:58:26.71	193.58	16.25	-28.3	-28.1	18.2	1.90e-06	0	45	0	5528092672	28	13878
2026-01-22 19:58:27.72	193.72	16.38	-28.1	-27.9	18.2	0.00e+00	0	45	0	5637144576	28	13602
2026-01-22 19:58:28.73	193.85	16.51	-28.2	-28.0	18.2	0.00e+00	0	45	0	5746196480	28	13706
2026-01-22 19:58:29.74	193.99	16.64	-28.1	-28.0	18.3	0.00e+00	0	45	0	5863636992	28	13665
2026-01-22 19:58:30.75	194.13	16.77	-28.1	-28.0	18.2	0.00e+00	0	45	0	5972688896	27	14488
2026-01-22 19:58:31.75	194.27	16.90	-28.2	-28.1	18.3	0.00e+00	0	45	0	6098518016	27	14652
2026-01-22 19:58:32.76	194.41	17.04	-28.2	-28.0	18.2	0.00e+00	0	45	0	6207569920	27	14548
2026-01-22 19:58:33.77	194.55	17.17	-28.1	-28.0	18.2	0.00e+00	0	45	0	6325010432	27	14457
2026-01-22 19:58:34.78	194.69	17.30	-28.0	-27.8	18.4	0.00e+00	0	45	0	6434062336	27	14239
2026-01-22 19:58:35.79	194.84	17.44	-28.2	-28.0	18.3	0.00e+00	0	45	0	6551502848	27	14525
2026-01-22 19:58:36.79	194.98	17.57	-27.9	-27.8	18.3	0.00e+00	0	45	0	6660554752	27	14133
2026-01-22 19:58:37.80	195.13	17.71	-28.1	-28.0	18.4	0.00e+00	0	45	0	6769606656	27	14483
2026-01-22 19:58:38.81	195.28	17.84	-28.0	-27.8	18.3	0.00e+00	0	45	0	6887047168	27	14247
2026-01-22 19:58:39.82	195.43	17.98	-27.9	-27.8	18.4	1.90e-06	0	45	0	6996099072	27	14112
2026-01-22 19:58:40.83	195.58	18.12	-27.8	-27.7	18.4	0.00e+00	0	45	0	7113539584	27	13989
2026-01-22 19:58:41.83	195.73	18.26	-28.1	-28.0	18.4	0.00e+00	0	45	0	7222591488	27	14450
2026-01-22 19:58:42.84	195.89	18.40	-28.0	-27.8	18.4	0.00e+00	0	45	0	7331643392	27	14192
2026-01-22 19:58:43.85	196.04	18.54	-28.1	-27.9	18.2	1.90e-06	0	45	0	7449083904	27	14394
2026-01-22 19:58:44.86	196.20	18.68	-28.1	-27.9	18.2	0.00e+00	0	45	0	7574913024	27	14426
2026-01-22 19:58:45.86	196.36	18.82	-27.9	-27.8	18.2	0.00e+00	0	45	0	7683964928	27	14152
2026-01-22 19:58:46.87	196.52	18.96	-28.1	-27.9	18.2	0.00e+00	0	45	0	7793016832	27	14379
2026-01-22 19:58:47.88	196.69	19.11	-28.1	-27.9	18.3	0.00e+00	0	45	0	7910457344	27	14398
2026-01-22 19:58:48.89	196.85	19.25	-28.0	-27.8	18.4	0.00e+00	0	45	0	8019509248	27	14190
2026-01-22 19:58:49.90	197.02	19.40	-28.0	-27.9	18.3	0.00e+00	0	45	0	8136949760	27	14284
2026-01-22 19:58:50.91	197.19	19.54	-28.2	-28.0	18.3	0.00e+00	0	45	0	8246001664	27	14518
2026-01-22 19:58:51.91	197.35	19.69	-28.2	-28.1	18.2	0.00e+00	0	45	0	8355053568	27	14610
2026-01-22 19:58:52.92	197.53	19.84	-28.3	-28.1	18.4	0.00e+00	0	45	0	8472494080	27	14698
2026-01-22 19:58:53.93	197.70	19.99	-28.3	-28.2	18.2	0.00e+00	0	45	0	8581545984	27	14841
2026-01-22 19:58:54.94	197.88	20.14	-28.4	-28.3	18.2	0.00e+00	0	46	0	8698986496	27	14962
2026-01-22 19:58:55.95	198.05	20.29	-28.6	-28.5	18.1	0.00e+00	0	45	0	8808038400	28	14458
2026-01-22 19:58:56.96	198.23	20.44	-28.6	-28.5	18.2	0.00e+00	0	45	0	8933867520	28	14484
2026-01-22 19:58:57.97	198.41	20.59	-29.0	-28.9	18.0	0.00e+00	0	45	0	9042919424	28	15128
2026-01-22 19:58:58.97	198.60	20.74	-29.0	-28.9	18.1	1.90e-06	0	45	0	9160359936	29	14297
2026-01-22 19:58:59.98	198.78	20.90	-28.9	-28.8	18.2	0.00e+00	0	45	0	9269411840	29	14134
2026-01-22 19:59:00.99	198.97	21.05	-29.1	-28.9	18.0	0.00e+00	0	45	0	9386852352	29	14392
2026-01-22 19:59:01.99	199.15	21.20	-29.7	-29.5	17.6	1.90e-06	0	45	0	9495904256	29	15378
2026-01-22 19:59:03.00	199.35	21.36	-29.7	-29.5	17.6	1.90e-06	0	46	0	9604956160	30	14564
2026-01-22 19:59:04.01	199.54	21.52	-29.6	-29.4	17.8	0.00e+00	0	45	0	9722396672	30	14420
2026-01-22 19:59:05.02	199.74	21.68	-29.8	-29.6	17.6	0.00e+00	0	45	0	9831448576	30	14736
2026-01-22 19:59:06.03	199.93	21.84	-29.8	-29.6	17.7	5.70e-06	0	45	0	9948889088	30	14735
2026-01-22 19:59:07.03	200.13	21.99	-30.1	-30.0	17.4	0.00e+00	0	45	0	10057940992	31	14486
2026-01-22 19:59:08.04	200.33	22.16	-30.3	-30.1	17.3	5.70e-06	0	45	0	10166992896	31	14747
2026-01-22 19:59:09.05	200.54	22.32	-30.4	-30.3	17.3	1.90e-06	0	45	0	10284433408	32	14149
2026-01-22 19:59:10.05	200.74	22.48	-30.5	-30.4	17.1	3.80e-06	0	45	0	10410262528	32	14303
2026-01-22 19:59:11.06	200.95	22.64	-30.7	-30.6	17.0	7.60e-06	0	46	0	10519314432	32	14651
2026-01-22 19:59:12.07	201.16	22.81	-31.5	-31.3	16.6	1.33e-05	0	45	0	10628366336	34	14271
2026-01-22 19:59:13.08	201.38	22.97	-31.9	-31.8	16.3	1.71e-05	0	45	0	10745806848	34	15035
2026-01-22 19:59:14.09	201.59	23.14	-31.6	-31.5	16.5	1.90e-05	0	45	0	10854858752	34	14479
2026-01-22 19:59:15.10	201.81	23.30	-32.2	-32.1	16.1	4.95e-05	0	46	0	10972299264	35	14633
2026-01-22 19:59:16.10	202.03	23.47	-34.9	-34.8	16.8	1.52e-05	0	45	0	11081351168	40	14952
2026-01-22 19:59:17.11	202.25	23.64	-35.8	-35.7	16.2	4.38e-05	0	45	0	11190403072	42	14795
2026-01-22 19:59:18.12	202.48	23.81	-35.5	-35.4	16.2	4.19e-05	0	45	0	11307843584	42	14351
2026-01-22 19:59:19.13	202.71	23.98	-36.0	-35.9	16.0	4.76e-05	0	45	0	11416895488	42	15201
2026-01-22 19:59:20.14	202.94	24.15	-36.6	-36.4	15.5	1.16e-04	0	45	0	11534336000	44	14437
2026-01-22 19:59:21.15	203.18	24.32	-36.9	-36.7	15.5	2.04e-04	0	46	0	11643387904	45	14057
2026-01-22 19:59:22.16	203.41	24.50	-37.2	-37.1	15.1	1.81e-04	0	45	0	11769217024	45	14692
2026-01-22 19:59:23.17	203.65	24.67	-37.5	-37.4	15.0	3.47e-04	0	46	0	11878268928	46	14338
2026-01-22 19:59:24.18	203.90	24.85	-38.7	-38.6	14.1	9.38e-04	0	45	0	11995709440	47	15605
2026-01-22 19:59:25.18	204.14	25.02	-40.3	-40.2	14.2	7.74e-04	0	45	0	12104761344	51	14926
2026-01-22 19:59:26.19	204.39	25.20	-39.7	-39.6	14.7	4.65e-04	0	46	0	12213813248	51	13865
2026-01-22 19:59:27.20	204.64	25.37	-40.6	-40.5	14.0	9.12e-04	0	46	0	12331253760	51	15446
2026-01-22 19:59:28.20	204.89	25.55	-41.2	-41.1	13.6	1.51e-03	0	46	0	12440305664	53	14636
2026-01-22 19:59:29.21	205.15	25.73	-42.1	-42.0	12.9	3.04e-03	0	45	0	12557746176	54	15408
2026-01-22 19:59:30.22	205.41	25.91	-42.2	-42.1	12.8	3.53e-03	0	45	0	12666798080	56	13893
2026-01-22 19:59:31.23	205.67	26.09	-42.2	-42.2	12.7	3.55e-03	0	45	0	12784238592	56	13978
2026-01-22 19:59:32.24	205.94	26.27	-43.2	-43.2	12.0	8.24e-03	0	46	0	12893290496	57	14839
2026-01-22 19:59:33.25	206.21	26.46	-43.8	-43.8	11.6	1.01e-02	0	46	0	13002342400	59	14169
2026-01-22 19:59:34.26	206.49	26.64	-43.9	-44.0	11.4	1.08e-02	0	45	0	13128171520	59	14455
2026-01-22 19:59:35.27	206.76	26.82	-44.5	-44.6	11.0	1.38e-02	0	46	0	13245612032	59	15555
2026-01-22 19:59:36.27	207.04	27.01	-45.2	-45.2	10.7	1.72e-02	0	45	0	13354663936	61	14942
2026-01-22 19:59:37.28	207.33	27.19	-45.5	-45.6	10.4	2.14e-02	0	45	0	13463715840	62	14720
2026-01-22 19:59:38.29	207.61	27.38	-45.6	-45.6	10.3	2.21e-02	0	45	0	13564379136	62	14776
2026-01-22 19:59:39.30	207.90	27.57	-45.9	-46.0	10.1	2.14e-02	0	45	0	13665042432	62	15329
2026-01-22 19:59:40.31	208.20	27.76	-46.0	-46.1	10.1	2.03e-02	0	45	0	13757317120	62	15635
2026-01-22 19:59:41.32	208.50	27.94	-46.1	-46.2	10.0	2.02e-02	0	46	0	13816037376	63	14903
2026-01-22 19:59:42.32	208.80	28.13	-46.1	-46.2	10.0	1.71e-02	0	45	0	13883146240	63	14886
2026-01-22 19:59:43.33	209.10	28.32	-46.1	-46.3	10.0	1.60e-02	0	45	0	13941866496	63	14954
2026-01-22 19:59:44.34	209.41	28.51	-46.0	-46.1	9.9	1.54e-02	0	45	0	14000586752	63	14741
2026-01-22 19:59:45.35	209.73	28.71	-46.2	-46.4	9.8	7.21e-03	0	46	0	14050918400	63	15153
2026-01-22 19:59:46.36	210.04	28.90	-46.3	-46.5	9.7	7.74e-03	0	46	0	14084472832	63	15408
2026-01-22 19:59:47.37	210.37	29.09	-46.5	-46.7	9.5	1.74e-03	0	45	0	14092861440	63	15768
2026-01-22 19:59:48.37	210.69	29.28	-46.6	-46.8	9.6	3.63e-03	0	46	0	14101250048	63	15879
2026-01-22 19:59:49.38	211.02	29.48	-46.8	-47.0	9.3	1.11e-03	0	45	0	14109638656	64	15301
2026-01-22 19:59:50.39	211.35	29.67	-47.2	-47.5	9.0	2.71e-04	0	45	0	14109638656	65	15300
2026-01-22 19:59:51.40	211.69	29.87	-47.6	-47.8	8.8	1.16e-04	0	45	0	14109638656	65	15998
2026-01-22 19:59:52.41	212.04	30.06	-47.7	-48.0	8.7	3.43e-05	0	46	0	14109638656	66	15377
2026-01-22 19:59:53.42	212.38	30.26	-48.4	-48.7	8.1	0.00e+00	0	45	104	14109638656	67	15793
2026-01-22 19:59:54.43	212.73	30.45	-48.7	-49.1	7.9	0.00e+00	0	45	104	14109638656	68	15564
2026-01-22 19:59:55.44	213.09	30.65	-48.6	-49.0	7.9	0.00e+00	0	45	104	14109638656	68	15427
2026-01-22 19:59:56.45	213.45	30.85	-48.9	-49.4	7.8	0.00e+00	0	45	104	14109638656	68	16099
2026-01-22 19:59:57.46	213.82	31.05	-52.8	-53.7	6.4	0.00e+00	0	45	104	14109638656	75	17621
2026-01-22 19:59:58.47	214.19	31.24	-53.5	-55.2	6.2	0.00e+00	0	45	104	14109638656	77	18773
2026-01-22 19:59:59.47	214.56	31.44	-54.2	-56.1	6.2	0.00e+00	0	45	104	14109638656	78	19572
2026-01-22 20:00:00.48	214.94	31.64	-54.1	-55.9	6.2	0.00e+00	0	45	104	14109638656	79	18083
2026-01-22 20:00:01.49	215.32	31.84	-54.2	-56.2	6.2	0.00e+00	0	45	104	14109638656	79	18606
2026-01-22 20:00:02.50	215.71	32.04	-54.3	-56.3	6.2	0.00e+00	0	46	104	14109638656	79	18929
2026-01-22 20:00:03.51	216.11	32.24	-54.3	-56.2	6.2	0.00e+00	0	45	104	14109638656	79	18769
2026-01-22 20:00:04.51	216.50	32.43	-54.3	-56.3	6.2	0.00e+00	0	45	104	14109638656	79	18861
2026-01-22 20:00:05.52	216.91	32.63	-54.1	-56.0	6.2	0.00e+00	0	45	104	14109638656	79	18192
2026-01-22 20:00:06.53	217.32	32.83	-54.3	-56.2	6.2	0.00e+00	0	45	104	14109638656	79	18779
2026-01-22 20:00:07.54	217.73	33.03	-54.2	-56.1	6.2	0.00e+00	0	45	104	14109638656	79	18589
2026-01-22 20:00:08.55	218.15	33.23	-53.6	-55.2	6.2	0.00e+00	0	45	104	14109638656	78	17673
2026-01-22 20:00:09.55	218.58	33.43	-53.2	-54.6	6.3	0.00e+00	0	45	104	14109638656	78	16560
2026-01-22 20:00:10.56	219.01	33.63	-53.3	-54.8	6.3	0.00e+00	0	45	104	14109638656	78	16786
2026-01-22 20:00:11.57	219.44	33.83	-53.2	-54.6	6.3	0.00e+00	0	45	104	14109638656	78	16573
2026-01-22 20:00:12.58	219.89	34.02	-53.2	-54.7	6.3	0.00e+00	0	45	104	14109638656	78	16726
2026-01-22 20:00:13.58	220.33	34.22	-53.8	-55.5	6.2	0.00e+00	0	45	104	14109638656	78	18218
2026-01-22 20:00:14.60	220.79	34.42	-53.8	-55.6	6.2	0.00e+00	0	45	104	14109638656	78	18476
2026-01-22 20:00:15.60	221.24	34.61	-54.2	-56.2	6.2	0.00e+00	0	45	104	14109638656	79	18653
2026-01-22 20:00:16.61	221.71	34.81	-54.0	-55.7	6.2	0.00e+00	0	45	104	14109638656	79	17764
2026-01-22 20:00:17.61	222.18	35.00	-54.3	-56.3	6.2	0.00e+00	0	45	104	14109638656	79	18820
2026-01-22 20:00:18.62	222.65	35.20	-54.3	-56.3	6.2	0.00e+00	0	46	104	14109638656	79	18912
2026-01-22 20:00:19.63	223.14	35.39	-54.3	-56.2	6.2	0.00e+00	0	45	104	14109638656	79	18743
2026-01-22 20:00:20.64	223.62	35.59	-54.1	-55.9	6.2	0.00e+00	0	45	104	14109638656	79	18177
2026-01-22 20:00:21.65	224.12	35.78	-53.9	-55.7	6.2	0.00e+00	0	45	104	14109638656	79	17742
2026-01-22 20:00:22.66	224.62	35.97	-54.2	-56.1	6.2	0.00e+00	0	45	104	14109638656	79	18570
2026-01-22 20:00:23.67	225.13	36.16	-54.1	-55.9	6.2	0.00e+00	0	45	104	14109638656	79	18147
2026-01-22 20:00:24.67	225.64	36.35	-54.3	-56.2	6.2	0.00e+00	0	45	104	14109638656	79	18668
2026-01-22 20:00:25.68	226.16	36.54	-54.5	-56.5	6.2	0.00e+00	0	45	104	14109638656	79	19270
2026-01-22 20:00:26.69	226.68	36.72	-54.3	-56.3	6.2	0.00e+00	0	45	104	14109638656	79	18947
2026-01-22 20:00:27.70	227.21	36.91	-54.2	-56.1	6.2	0.00e+00	0	45	104	14109638656	79	18517
2026-01-22 20:00:28.70	227.74	37.09	-54.2	-56.1	6.2	0.00e+00	0	45	104	14109638656	79	18562
2026-01-22 20:00:29.72	228.29	37.27	-54.3	-56.3	6.2	0.00e+00	0	45	104	14109638656	79	18837
2026-01-22 20:00:30.72	228.84	37.45	-54.2	-56.1	6.2	0.00e+00	0	45	104	14109638656	79	18417
2026-01-22 20:00:31.73	229.40	37.63	-54.4	-56.3	6.2	0.00e+00	0	45	104	14109638656	79	18963
2026-01-22 20:00:32.74	229.96	37.81	-54.3	-56.2	6.2	0.00e+00	0	45	104	14109638656	79	18753
2026-01-22 20:00:33.75	230.53	37.98	-54.3	-56.2	6.2	0.00e+00	0	45	104	14109638656	79	18770
2026-01-22 20:00:34.75	231.10	38.15	-54.0	-55.8	6.2	0.00e+00	0	45	104	14109638656	79	17819
2026-01-22 20:00:35.76	231.68	38.32	-54.0	-55.8	6.2	0.00e+00	0	45	104	14109638656	79	17899
2026-01-22 20:00:36.77	232.27	38.49	-54.0	-55.8	6.2	0.00e+00	0	45	104	14109638656	79	17908
2026-01-22 20:00:37.78	232.86	38.66	-54.5	-56.6	6.2	0.00e+00	0	45	104	14109638656	79	19555
2026-01-22 20:00:38.79	233.46	38.82	-54.5	-56.6	6.2	0.00e+00	0	45	104	14109638656	79	19589
2026-01-22 20:00:39.79	234.06	38.98	-54.4	-56.4	6.2	0.00e+00	0	45	104	14109638656	79	19076
2026-01-22 20:00:40.80	234.68	39.14	-54.2	-56.1	6.2	0.00e+00	0	45	104	14109638656	79	18442
2026-01-22 20:00:41.81	235.30	39.30	-54.4	-56.4	6.2	0.00e+00	0	45	104	14109638656	79	19098
2026-01-22 20:00:42.82	235.92	39.45	-54.2	-56.0	6.2	0.00e+00	0	45	104	14109638656	79	18296
2026-01-22 20:00:43.82	236.55	39.60	-54.1	-55.9	6.2	0.00e+00	0	45	104	14109638656	79	18176
2026-01-22 20:00:44.83	237.18	39.74	-54.2	-56.0	6.2	0.00e+00	0	45	104	14109638656	79	18240
2026-01-22 20:00:45.84	237.82	39.89	-54.4	-56.4	6.2	0.00e+00	0	45	104	14109638656	79	19050
2026-01-22 20:00:46.85	238.47	40.03	-54.4	-56.4	6.2	0.00e+00	0	45	104	14109638656	79	19143
2026-01-22 20:00:47.85	239.12	40.16	-54.6	-56.6	6.2	0.00e+00	0	45	104	14109638656	79	19643
2026-01-22 20:00:48.86	239.78	40.30	-54.5	-56.4	6.2	0.00e+00	0	45	104	14109638656	79	19255
2026-01-22 20:00:49.87	240.45	40.43	-54.6	-56.6	6.2	0.00e+00	0	45	104	14109638656	79	19572
2026-01-22 20:00:50.88	241.12	40.55	-54.5	-56.5	6.2	0.00e+00	0	45	104	14109638656	79	19385
2026-01-22 20:00:51.88	241.79	40.68	-54.5	-56.5	6.2	0.00e+00	0	45	104	14109638656	79	19285
2026-01-22 20:00:52.89	242.47	40.79	-54.4	-56.4	6.2	0.00e+00	0	45	104	14109638656	79	19134
2026-01-22 20:00:53.90	243.15	40.91	-54.6	-56.7	6.2	0.00e+00	0	45	104	14109638656	79	19797
2026-01-22 20:00:54.91	243.84	41.02	-54.4	-56.4	6.2	0.00e+00	0	45	104	14109638656	79	19117
2026-01-22 20:00:55.92	244.54	41.13	-54.6	-56.5	6.2	0.00e+00	0	45	104	14109638656	79	19444
2026-01-22 20:00:56.92	245.23	41.23	-54.5	-56.5	6.2	0.00e+00	0	45	104	14109638656	79	19354
2026-01-22 20:00:57.93	245.94	41.33	-54.4	-56.3	6.2	0.00e+00	0	45	104	14109638656	79	18850
2026-01-22 20:00:58.94	246.65	41.42	-54.2	-56.1	6.2	0.00e+00	0	45	104	14109638656	79	18457
2026-01-22 20:00:59.95	247.36	41.51	-54.3	-56.2	6.2	0.00e+00	0	45	104	14109638656	79	18763
2026-01-22 20:01:00.96	248.08	41.59	-54.4	-56.2	6.2	0.00e+00	0	45	104	14109638656	79	18730
2026-01-22 20:01:01.96	248.79	41.67	-54.7	-56.7	6.2	0.00e+00	0	45	104	14109638656	79	19845
2026-01-22 20:01:02.97	249.52	41.75	-54.4	-56.3	6.2	0.00e+00	0	45	104	14109638656	79	18947
2026-01-22 20:01:03.98	250.24	41.82	-54.6	-56.5	6.2	0.00e+00	0	45	104	14109638656	79	19422
2026-01-22 20:01:04.99	250.97	41.89	-54.3	-56.2	6.2	0.00e+00	0	45	104	14109638656	80	17625
2026-01-22 20:01:05.99	251.70	41.95	-54.5	-56.4	6.2	0.00e+00	0	45	104	14109638656	80	18089
2026-01-22 20:01:07.00	252.44	42.00	-54.5	-56.4	6.2	0.00e+00	0	45	104	14109638656	80	18104
2026-01-22 20:01:08.01	253.18	42.05	-54.5	-56.4	6.2	0.00e+00	0	45	104	14109638656	80	18107
2026-01-22 20:01:09.02	253.92	42.10	-54.4	-56.3	6.2	0.00e+00	0	45	104	14109638656	80	17935
2026-01-22 20:01:10.02	254.65	42.14	-54.6	-56.6	6.2	0.00e+00	0	45	104	14109638656	80	18419
2026-01-22 20:01:11.03	255.40	42.18	-54.4	-56.3	6.2	0.00e+00	0	45	104	14109638656	80	17883
2026-01-22 20:01:12.04	256.14	42.21	-54.5	-56.5	6.2	0.00e+00	0	45	104	14109638656	80	18235
2026-01-22 20:01:13.05	256.89	42.23	-54.7	-56.7	6.2	0.00e+00	0	45	104	14109638656	80	18768
2026-01-22 20:01:14.05	257.63	42.25	-54.6	-56.5	6.2	0.00e+00	0	45	104	14109638656	80	18357
2026-01-22 20:01:15.06	258.38	42.27	-54.4	-56.4	6.2	0.00e+00	0	45	104	14109638656	80	18001
2026-01-22 20:01:16.07	259.13	42.28	-54.4	-56.4	6.2	0.00e+00	0	45	104	14109638656	80	17990
2026-01-22 20:01:17.08	259.88	42.28	-54.6	-56.7	6.2	0.00e+00	0	45	104	14109638656	80	18669
2026-01-22 20:01:18.08	260.63	42.28	-54.6	-56.6	6.2	0.00e+00	0	45	104	14109638656	80	18457
2026-01-22 20:01:19.09	261.38	42.28	-54.5	-56.4	6.2	0.00e+00	0	45	104	14109638656	80	17991
2026-01-22 20:01:20.10	262.13	42.27	-54.5	-56.5	6.2	0.00e+00	0	45	104	14109638656	80	18277
2026-01-22 20:01:21.11	262.88	42.25	-54.7	-56.7	6.2	0.00e+00	0	45	104	14109638656	80	18747
2026-01-22 20:01:22.12	263.63	42.23	-54.7	-56.7	6.2	0.00e+00	0	45	104	14109638656	80	18658
2026-01-22 20:01:23.13	264.37	42.20	-54.4	-56.3	6.2	0.00e+00	0	45	104	14109638656	80	17869
2026-01-22 20:01:24.13	265.11	42.17	-54.6	-56.6	6.2	0.00e+00	0	45	104	14109638656	80	18513
2026-01-22 20:01:25.14	265.86	42.13	-54.7	-56.7	6.2	0.00e+00	0	45	104	14109638656	80	18763
2026-01-22 20:01:26.15	266.60	42.09	-54.7	-56.8	6.2	0.00e+00	0	45	104	14109638656	80	18900
2026-01-22 20:01:27.16	267.34	42.04	-54.4	-56.3	6.2	0.00e+00	0	45	104	14109638656	80	17843
2026-01-22 20:01:28.17	268.07	41.99	-54.6	-56.6	6.2	0.00e+00	0	45	104	14109638656	80	18505
2026-01-22 20:01:29.17	268.80	41.93	-54.7	-56.8	6.2	0.00e+00	0	45	104	14109638656	80	18831
2026-01-22 20:01:30.18	269.53	41.87	-54.8	-56.8	6.2	0.00e+00	0	45	104	14109638656	80	19025
2026-01-22 20:01:31.19	270.26	41.81	-54.4	-56.3	6.2	0.00e+00	0	45	104	14109638656	80	17799
2026-01-22 20:01:32.19	270.98	41.73	-54.7	-56.7	6.2	0.00e+00	0	45	104	14109638656	80	18651
2026-01-22 20:01:33.20	271.71	41.66	-54.5	-56.4	6.2	0.00e+00	0	45	104	14109638656	80	18168
2026-01-22 20:01:34.21	272.42	41.58	-54.5	-56.4	6.2	0.00e+00	0	45	104	14109638656	80	18009
2026-01-22 20:01:35.22	273.14	41.49	-54.4	-56.2	6.2	0.00e+00	0	45	104	14109638656	80	17612
2026-01-22 20:01:36.23	273.85	41.40	-54.4	-56.2	6.2	0.00e+00	0	45	104	14109638656	80	17599
2026-01-22 20:01:37.23	274.55	41.31	-54.4	-56.2	6.2	0.00e+00	0	45	104	14109638656	80	17628
2026-01-22 20:01:38.24	275.25	41.21	-54.5	-56.4	6.2	0.00e+00	0	45	104	14109638656	80	18136
2026-01-22 20:01:39.25	275.95	41.11	-54.6	-56.6	6.2	0.00e+00	0	45	104	14109638656	80	18403
2026-01-22 20:01:40.26	276.64	41.00	-54.7	-56.8	6.2	0.00e+00	0	45	104	14109638656	80	18820
2026-01-22 20:01:41.27	277.33	40.89	-54.5	-56.4	6.2	0.00e+00	0	45	104	14109638656	80	17980
2026-01-22 20:01:42.27	278.01	40.77	-54.2	-55.9	6.2	0.00e+00	0	45	104	14109638656	80	17142
2026-01-22 20:01:43.28	278.69	40.65	-54.0	-55.7	6.3	0.00e+00	0	45	104	14109638656	80	16660
2026-01-22 20:01:44.29	279.36	40.53	-53.6	-55.0	6.3	0.00e+00	0	45	104	14109638656	79	16211
2026-01-22 20:01:45.30	280.03	40.40	-53.2	-54.4	6.4	0.00e+00	0	45	104	14109638656	78	16171
2026-01-22 20:01:46.31	280.69	40.27	-53.1	-54.4	6.4	0.00e+00	0	45	104	14109638656	78	16125
2026-01-22 20:01:47.31	281.34	40.14	-54.7	-56.7	6.2	0.00e+00	0	45	104	14109638656	79	19714
2026-01-22 20:01:48.32	281.99	40.00	-54.8	-56.8	6.2	0.00e+00	0	45	104	14109638656	80	18862
2026-01-22 20:01:49.33	282.64	39.86	-54.2	-55.9	6.2	0.00e+00	0	45	104	14109638656	79	18034
2026-01-22 20:01:50.34	283.28	39.72	-54.2	-55.8	6.2	0.00e+00	0	45	104	14109638656	79	17940
2026-01-22 20:01:51.35	283.91	39.57	-53.8	-55.3	6.3	0.00e+00	0	45	104	14109638656	79	16911
2026-01-22 20:01:52.36	284.54	39.42	-53.6	-55.0	6.3	0.00e+00	0	45	104	14109638656	79	16330
2026-01-22 20:01:53.37	285.16	39.27	-53.5	-54.8	6.3	0.00e+00	0	45	104	14109638656	79	15915
2026-01-22 20:01:54.37	285.77	39.12	-53.8	-55.3	6.3	0.00e+00	0	45	104	14109638656	78	17869
2026-01-22 20:01:55.38	286.38	38.96	-54.5	-56.3	6.2	0.00e+00	0	45	104	14109638656	79	19028
2026-01-22 20:01:56.39	286.98	38.80	-54.7	-56.6	6.2	0.00e+00	0	45	104	14109638656	80	18580
2026-01-22 20:01:57.40	287.58	38.63	-53.8	-55.3	6.3	0.00e+00	0	45	104	14109638656	79	16865
2026-01-22 20:01:58.40	288.16	38.47	-52.6	-53.6	6.4	0.00e+00	0	45	104	14109638656	77	15562
2026-01-22 20:01:59.41	288.75	38.30	-52.4	-53.4	6.4	0.00e+00	0	45	104	14109638656	76	16120
2026-01-22 20:02:00.42	289.33	38.13	-52.2	-53.1	6.4	0.00e+00	0	45	104	14109638656	76	15636
2026-01-22 20:02:01.43	289.90	37.96	-52.1	-53.0	6.4	0.00e+00	0	45	104	14109638656	76	15347
2026-01-22 20:02:02.44	290.46	37.79	-52.4	-53.5	6.4	0.00e+00	0	45	104	14109638656	76	16363
2026-01-22 20:02:03.45	291.02	37.61	-54.4	-56.1	6.2	0.00e+00	0	45	104	14109638656	79	18564
2026-01-22 20:02:04.45	291.57	37.43	-54.5	-56.2	6.2	0.00e+00	0	45	104	14109638656	79	18753
2026-01-22 20:02:05.46	292.12	37.25	-53.6	-54.9	6.3	0.00e+00	0	45	104	14109638656	79	16145
2026-01-22 20:02:06.47	292.66	37.07	-52.0	-52.9	6.5	0.00e+00	0	45	104	14109638656	76	15185
2026-01-22 20:02:07.48	293.19	36.89	-52.0	-52.8	6.5	0.00e+00	0	45	104	14109638656	75	15978
2026-01-22 20:02:08.49	293.72	36.70	-51.9	-52.7	6.5	0.00e+00	0	45	104	14109638656	75	15744
2026-01-22 20:02:09.49	294.24	36.52	-51.4	-52.2	6.7	0.00e+00	0	45	104	14109638656	74	15675
2026-01-22 20:02:10.50	294.75	36.33	-51.1	-51.8	6.8	0.00e+00	0	45	104	14109638656	74	15059
2026-01-22 20:02:11.51	295.26	36.15	-53.3	-54.6	6.3	0.00e+00	0	45	104	14109638656	77	17390
2026-01-22 20:02:12.52	295.77	35.96	-53.1	-54.3	6.4	0.00e+00	0	45	104	14109638656	78	15844
2026-01-22 20:02:13.52	296.26	35.77	-51.1	-51.8	6.9	0.00e+00	0	45	104	14109638656	73	15874
2026-01-22 20:02:14.53	296.75	35.58	-52.2	-53.0	6.5	0.00e+00	0	45	104	14109638656	76	15457
2026-01-22 20:02:15.54	297.24	35.38	-51.2	-51.8	6.8	0.00e+00	0	45	104	14109638656	74	15071
2026-01-22 20:02:16.55	297.72	35.19	-51.1	-51.8	6.9	0.00e+00	0	45	104	14109638656	74	15101
2026-01-22 20:02:17.56	298.19	35.00	-51.1	-51.8	6.9	0.00e+00	0	45	104	14109638656	74	15062
2026-01-22 20:02:18.57	298.66	34.80	-51.6	-52.4	6.8	0.00e+00	0	45	104	14109638656	74	16187
2026-01-22 20:02:19.57	299.12	34.61	-52.9	-54.0	6.4	0.00e+00	0	45	104	14109638656	76	17329
2026-01-22 20:02:20.58	299.57	34.41	-52.5	-53.4	6.5	0.00e+00	0	45	104	14109638656	77	15289
2026-01-22 20:02:21.59	300.02	34.22	-52.8	-54.0	6.4	0.00e+00	0	45	104	14109638656	76	17166
2026-01-22 20:02:22.60	300.47	34.02	-52.4	-53.4	6.5	0.00e+00	0	45	104	14109638656	76	16087
2026-01-22 20:02:23.61	300.91	33.83	-51.8	-52.5	6.7	0.00e+00	0	45	104	14109638656	75	15410
2026-01-22 20:02:24.61	301.34	33.63	-51.7	-52.5	6.7	0.00e+00	0	45	104	14109638656	75	15402
2026-01-22 20:02:25.62	301.77	33.43	-52.4	-53.5	6.5	0.00e+00	0	45	104	14109638656	75	17170
2026-01-22 20:02:26.63	302.19	33.24	-52.2	-53.2	6.6	0.00e+00	0	45	104	14109638656	76	15735
2026-01-22 20:02:27.64	302.61	33.04	-53.4	-54.7	6.3	0.00e+00	0	45	104	14109638656	77	17740
2026-01-22 20:02:28.65	303.02	32.84	-53.0	-54.1	6.4	0.00e+00	0	45	104	14109638656	77	16523
2026-01-22 20:02:29.66	303.43	32.64	-53.8	-55.2	6.3	0.00e+00	0	45	104	14109638656	78	17621
2026-01-22 20:02:30.66	303.83	32.45	-53.0	-54.1	6.4	0.00e+00	0	45	104	14109638656	78	15513
2026-01-22 20:02:31.67	304.22	32.25	-52.9	-54.1	6.4	0.00e+00	0	45	104	14109638656	77	16393
2026-01-22 20:02:32.68	304.62	32.05	-53.1	-54.2	6.4	0.00e+00	0	45	104	14109638656	77	16737
2026-01-22 20:02:33.69	305.00	31.85	-52.6	-53.6	6.5	0.00e+00	0	45	104	14109638656	77	15610
2026-01-22 20:02:34.69	305.38	31.66	-53.1	-54.2	6.4	0.00e+00	0	45	104	14109638656	77	16714
2026-01-22 20:02:35.70	305.76	31.46	-53.7	-55.1	6.3	0.00e+00	0	45	104	14109638656	79	16525
2026-01-22 20:02:36.71	306.13	31.26	-52.3	-53.3	6.5	0.00e+00	0	45	104	14109638656	76	15839
2026-01-22 20:02:37.72	306.50	31.07	-54.1	-55.8	6.2	0.00e+00	0	45	104	14109638656	78	18928
2026-01-22 20:02:38.72	306.86	30.87	-52.7	-53.8	6.4	0.00e+00	0	45	104	14109638656	77	15870
2026-01-22 20:02:39.73	307.22	30.68	-52.2	-53.1	6.5	0.00e+00	0	45	104	14109638656	76	15642
2026-01-22 20:02:40.74	307.57	30.48	-52.4	-53.4	6.4	0.00e+00	0	45	104	14109638656	76	16068
2026-01-22 20:02:41.75	307.92	30.29	-52.5	-53.5	6.4	0.00e+00	0	45	104	14109638656	76	16250
2026-01-22 20:02:42.76	308.26	30.09	-53.2	-54.5	6.3	0.00e+00	0	45	104	14109638656	76	18208
2026-01-22 20:02:43.77	308.61	29.90	-54.8	-56.7	6.2	0.00e+00	0	45	104	14109638656	80	18780
2026-01-22 20:02:44.78	308.94	29.70	-53.6	-55.1	6.3	0.00e+00	0	45	104	14109638656	79	16421
2026-01-22 20:02:45.79	309.27	29.51	-54.3	-56.0	6.2	0.00e+00	0	45	104	14109638656	79	18242
2026-01-22 20:02:46.79	309.60	29.32	-53.5	-54.7	6.3	0.00e+00	0	45	104	14109638656	79	15828
2026-01-22 20:02:47.80	309.92	29.13	-53.1	-54.4	6.3	0.00e+00	0	45	104	14109638656	78	16153
2026-01-22 20:02:48.81	310.24	28.94	-53.2	-54.5	6.3	0.00e+00	0	45	104	14109638656	78	16229
2026-01-22 20:02:49.82	310.56	28.75	-53.1	-54.3	6.3	0.00e+00	0	45	104	14109638656	78	15839
2026-01-22 20:02:50.83	310.87	28.56	-54.3	-56.0	6.2	0.00e+00	0	45	104	14109638656	79	18269
2026-01-22 20:02:51.84	311.18	28.37	-54.5	-56.4	6.2	0.00e+00	0	45	104	14109638656	80	17974
2026-01-22 20:02:52.85	311.48	28.18	-54.8	-56.7	6.2	0.00e+00	0	45	104	14109638656	80	18715
2026-01-22 20:02:53.85	311.78	27.99	-54.2	-55.8	6.2	0.00e+00	0	45	104	14109638656	79	17970
2026-01-22 20:02:54.86	312.08	27.81	-54.1	-55.7	6.2	0.00e+00	0	45	104	14109638656	79	17695
2026-01-22 20:02:55.87	312.37	27.62	-54.1	-55.7	6.2	0.00e+00	0	45	104	14109638656	79	17705
2026-01-22 20:02:56.88	312.66	27.43	-54.0	-55.6	6.2	0.00e+00	0	45	104	14109638656	79	17543
2026-01-22 20:02:57.89	312.94	27.25	-53.8	-55.3	6.2	0.00e+00	0	45	104	14109638656	79	16951
2026-01-22 20:02:58.89	313.22	27.07	-54.3	-56.0	6.2	0.00e+00	0	45	104	14109638656	79	18266
2026-01-22 20:02:59.90	313.50	26.88	-54.8	-56.7	6.2	0.00e+00	0	45	104	14109638656	80	18725
2026-01-22 20:03:00.91	313.78	26.70	-54.0	-55.5	6.3	0.00e+00	0	45	104	14109638656	79	17350
2026-01-22 20:03:01.92	314.05	26.52	-54.7	-56.6	6.2	0.00e+00	0	45	104	14109638656	80	18476
2026-01-22 20:03:02.93	314.32	26.34	-54.1	-55.7	6.2	0.00e+00	0	45	104	14109638656	80	16771
2026-01-22 20:03:03.93	314.58	26.16	-54.1	-55.7	6.2	0.00e+00	0	45	104	14109638656	80	16664
2026-01-22 20:03:04.94	314.85	25.98	-54.0	-55.6	6.2	0.00e+00	0	45	104	14109638656	79	17370
2026-01-22 20:03:05.95	315.11	25.80	-53.4	-54.9	6.3	0.00e+00	0	45	104	14109638656	77	17986
2026-01-22 20:03:06.96	315.36	25.62	-53.8	-55.2	6.3	0.00e+00	0	45	104	14109638656	79	16646
2026-01-22 20:03:07.97	315.61	25.44	-54.9	-56.9	6.2	0.00e+00	0	45	104	14109638656	80	19173
2026-01-22 20:03:08.97	315.86	25.27	-54.2	-55.8	6.2	0.00e+00	0	45	104	14109638656	80	16935
2026-01-22 20:03:09.98	316.11	25.10	-54.7	-56.6	6.2	0.00e+00	0	45	104	14109638656	80	18575
2026-01-22 20:03:10.99	316.35	24.92	-53.7	-55.1	6.3	0.00e+00	0	45	104	14109638656	79	16443
2026-01-22 20:03:12.00	316.60	24.75	-53.6	-55.0	6.3	0.00e+00	0	45	104	14109638656	79	16310
2026-01-22 20:03:13.01	316.83	24.57	-53.5	-54.9	6.3	0.00e+00	0	45	104	14109638656	79	16022
2026-01-22 20:03:14.01	317.07	24.40	-54.6	-56.6	6.2	0.00e+00	0	45	104	14109638656	80	18416
2026-01-22 20:03:15.02	317.30	24.23	-53.9	-55.5	6.3	0.00e+00	0	45	104	14109638656	79	17168
2026-01-22 20:03:16.03	317.53	24.06	-54.6	-56.5	6.2	0.00e+00	0	45	104	14109638656	80	18359
2026-01-22 20:03:17.04	317.76	23.89	-54.1	-55.8	6.2	0.00e+00	0	45	104	14109638656	80	16880
2026-01-22 20:03:18.05	317.98	23.73	-54.7	-56.6	6.2	0.00e+00	0	45	104	14109638656	80	18564
2026-01-22 20:03:19.06	318.21	23.56	-53.7	-55.2	6.3	0.00e+00	0	45	104	14109638656	79	16646
2026-01-22 20:03:20.06	318.43	23.39	-53.5	-54.9	6.3	0.00e+00	0	45	104	14109638656	79	16139
2026-01-22 20:03:21.07	318.64	23.23	-53.5	-54.8	6.3	0.00e+00	0	45	104	14109638656	78	16842
2026-01-22 20:03:22.08	318.86	23.06	-54.3	-56.1	6.2	0.00e+00	0	45	104	14109638656	79	18408
2026-01-22 20:03:23.09	319.07	22.90	-54.5	-56.4	6.2	0.00e+00	0	45	104	14109638656	79	19049
2026-01-22 20:03:24.10	319.28	22.74	-54.1	-55.8	6.2	0.00e+00	0	45	104	14109638656	80	16826
2026-01-22 20:03:25.11	319.49	22.57	-54.6	-56.5	6.2	0.00e+00	0	45	104	14109638656	80	18296
2026-01-22 20:03:26.11	319.69	22.41	-53.8	-55.3	6.3	0.00e+00	0	45	104	14109638656	79	16875
2026-01-22 20:03:27.12	319.90	22.25	-53.7	-55.2	6.3	0.00e+00	0	45	104	14109638656	79	16705
2026-01-22 20:03:28.13	320.10	22.09	-53.7	-55.2	6.3	0.00e+00	0	45	104	14109638656	79	16751
2026-01-22 20:03:29.14	320.30	21.94	-53.7	-55.2	6.3	0.00e+00	0	45	104	14109638656	79	16712
2026-01-22 20:03:30.15	320.49	21.78	-54.0	-55.6	6.3	0.00e+00	0	45	104	14109638656	79	17362
2026-01-22 20:03:31.15	320.69	21.62	-53.9	-55.5	6.3	0.00e+00	0	45	104	14109638656	79	17224
2026-01-22 20:03:32.16	320.88	21.47	-54.5	-56.5	6.2	0.00e+00	0	45	104	14109638656	79	19282
2026-01-22 20:03:33.17	321.07	21.31	-54.4	-56.2	6.2	0.00e+00	0	45	104	14109638656	79	18813
2026-01-22 20:03:34.18	321.26	21.16	-54.1	-55.7	6.3	0.00e+00	0	45	104	14109638656	79	17765
2026-01-22 20:03:35.19	321.44	21.00	-53.9	-55.5	6.3	0.00e+00	0	45	104	14109638656	79	17295
2026-01-22 20:03:36.19	321.63	20.85	-53.8	-55.4	6.3	0.00e+00	0	45	104	14109638656	79	17041
2026-01-22 20:03:37.20	321.81	20.70	-53.7	-55.2	6.3	0.00e+00	0	45	104	14109638656	79	16741
2026-01-22 20:03:38.21	321.99	20.55	-53.9	-55.4	6.3	0.00e+00	0	45	104	14109638656	79	17139
2026-01-22 20:03:39.22	322.17	20.40	-54.1	-55.8	6.2	0.00e+00	0	45	104	14109638656	79	17944
2026-01-22 20:03:40.23	322.34	20.25	-53.5	-54.8	6.3	0.00e+00	0	45	104	14109638656	78	16922
2026-01-22 20:03:41.23	322.52	20.10	-54.2	-56.0	6.2	0.00e+00	0	45	104	14109638656	79	18209
2026-01-22 20:03:42.24	322.69	19.96	-52.1	-53.1	6.6	0.00e+00	0	45	104	14109638656	76	15531
2026-01-22 20:03:43.25	322.86	19.81	-52.1	-53.1	6.6	0.00e+00	0	45	104	14109638656	76	15588
2026-01-22 20:03:44.25	323.03	19.66	-51.5	-52.4	6.8	0.00e+00	0	45	104	14109638656	75	15130
2026-01-22 20:03:45.26	323.20	19.52	-50.5	-51.1	7.2	0.00e+00	0	45	104	14109638656	73	14723
2026-01-22 20:03:46.27	323.36	19.38	-49.9	-50.5	7.6	0.00e+00	0	45	104	14109638656	70	16266
2026-01-22 20:03:47.28	323.53	19.23	-54.2	-56.1	6.2	0.00e+00	0	45	104	14109638656	78	19553
2026-01-22 20:03:48.29	323.69	19.09	-54.6	-56.7	6.2	0.00e+00	0	45	104	14109638656	79	19722
2026-01-22 20:03:49.30	323.85	18.95	-54.0	-55.7	6.2	0.00e+00	0	45	104	14109638656	79	17584
2026-01-22 20:03:50.30	324.01	18.81	-51.8	-52.7	6.7	0.00e+00	0	45	104	14109638656	75	15690
2026-01-22 20:03:51.31	324.17	18.67	-51.7	-52.6	6.7	0.00e+00	0	45	104	14109638656	75	15502
2026-01-22 20:03:52.32	324.32	18.53	-50.7	-51.4	7.1	0.00e+00	0	45	104	14109638656	73	15165
2026-01-22 20:03:53.33	324.48	18.39	-48.7	-49.1	8.1	0.00e+00	0	45	104	14109638656	69	14646
2026-01-22 20:03:54.34	324.63	18.25	-49.3	-49.1	8.2	2.09e-05	0	45	104	14109638656	68	15589
2026-01-22 20:03:55.34	324.78	18.11	-53.6	-55.2	6.3	0.00e+00	0	45	104	14109638656	77	18753
2026-01-22 20:03:56.35	324.93	17.98	-54.6	-56.7	6.2	0.00e+00	0	45	104	14109638656	79	19831
2026-01-22 20:03:57.36	325.08	17.84	-52.6	-53.7	6.4	0.00e+00	0	45	104	14109638656	77	15678
2026-01-22 20:03:58.37	325.23	17.71	-51.1	-51.8	6.9	0.00e+00	0	45	104	14109638656	74	15103
2026-01-22 20:03:59.38	325.37	17.57	-50.7	-51.3	7.1	0.00e+00	0	45	104	14109638656	73	15078
2026-01-22 20:04:00.38	325.52	17.44	-54.3	-56.2	6.2	0.00e+00	0	45	104	14109638656	79	18763
2026-01-22 20:04:01.39	325.66	17.31	-54.7	-56.8	6.2	0.00e+00	0	45	104	14109638656	79	20086
2026-01-22 20:04:02.40	325.80	17.18	-54.7	-56.8	6.2	0.00e+00	0	45	104	14109638656	79	20095
2026-01-22 20:04:03.41	325.94	17.04	-54.7	-56.8	6.2	0.00e+00	0	45	104	14109638656	79	20035
2026-01-22 20:04:04.41	326.08	16.92	-54.7	-56.8	6.2	0.00e+00	0	45	104	14109638656	79	19985
2026-01-22 20:04:05.42	326.22	16.79	-54.6	-56.7	6.2	0.00e+00	0	45	104	14109638656	79	19929
2026-01-22 20:04:06.43	326.35	16.66	-54.6	-56.7	6.2	0.00e+00	0	45	104	14109638656	79	19834
2026-01-22 20:04:07.44	326.49	16.53	-54.6	-56.7	6.2	0.00e+00	0	45	104	14109638656	79	19809
2026-01-22 20:04:08.45	326.62	16.40	-54.6	-56.7	6.2	0.00e+00	0	45	104	14109638656	79	19733
2026-01-22 20:04:09.45	326.75	16.27	-54.6	-56.7	6.2	0.00e+00	0	44	104	14109638656	79	19711
2026-01-22 20:04:10.46	326.88	16.15	-54.5	-56.6	6.2	0.00e+00	0	45	104	14109638656	79	19645
2026-01-22 20:04:11.47	327.01	16.02	-54.5	-56.6	6.2	0.00e+00	0	45	104	14109638656	79	19642
2026-01-22 20:04:12.48	327.14	15.90	-54.5	-56.6	6.2	0.00e+00	0	45	104	14109638656	79	19584
2026-01-22 20:04:13.49	327.27	15.77	-54.5	-56.6	6.2	0.00e+00	0	45	104	14109638656	79	19583
2026-01-22 20:04:14.50	327.40	15.65	-54.5	-56.5	6.2	0.00e+00	0	45	104	14109638656	79	19461
2026-01-22 20:04:15.50	327.52	15.53	-54.5	-56.6	6.2	0.00e+00	0	45	104	14109638656	79	19512
2026-01-22 20:04:16.51	327.65	15.40	-54.4	-56.5	6.2	0.00e+00	0	45	104	14109638656	79	19426
2026-01-22 20:04:17.52	327.77	15.28	-54.4	-56.5	6.2	0.00e+00	0	45	104	14109638656	79	19410
2026-01-22 20:04:18.53	327.89	15.16	-54.4	-56.5	6.2	0.00e+00	0	45	104	14109638656	79	19375
2026-01-22 20:04:19.53	328.01	15.04	-54.4	-56.5	6.2	0.00e+00	0	45	104	14109638656	79	19390
2026-01-22 20:04:20.54	328.13	14.92	-54.4	-56.5	6.2	0.00e+00	0	45	104	14109638656	79	19278
2026-01-22 20:04:21.55	328.25	14.80	-54.4	-56.5	6.2	0.00e+00	0	45	104	14109638656	79	19327
2026-01-22 20:04:22.56	328.37	14.68	-54.3	-56.4	6.2	0.00e+00	0	45	104	14109638656	79	19230
2026-01-22 20:04:23.57	328.48	14.57	-54.3	-56.4	6.2	0.00e+00	0	45	104	14109638656	79	19253
2026-01-22 20:04:24.57	328.60	14.45	-54.3	-56.4	6.2	0.00e+00	0	45	104	14109638656	79	19161
2026-01-22 20:04:25.58	328.71	14.33	-54.3	-56.4	6.2	0.00e+00	0	45	104	14109638656	79	19112
2026-01-22 20:04:26.59	328.83	14.22	-54.3	-56.4	6.2	0.00e+00	0	45	104	14109638656	79	19077
2026-01-22 20:04:27.60	328.94	14.10	-54.3	-56.4	6.2	0.00e+00	0	45	104	14109638656	79	19122
2026-01-22 20:04:28.61	329.05	13.99	-54.3	-56.3	6.2	0.00e+00	0	45	104	14109638656	79	19020
2026-01-22 20:04:29.61	329.16	13.87	-54.2	-56.3	6.2	0.00e+00	0	45	104	14109638656	79	19018
2026-01-22 20:04:30.62	329.27	13.76	-54.2	-56.3	6.2	0.00e+00	0	45	104	14109638656	79	18992
2026-01-22 20:04:31.63	329.38	13.65	-54.2	-56.3	6.2	0.00e+00	0	45	104	14109638656	79	18940
2026-01-22 20:04:32.64	329.49	13.53	-54.2	-56.3	6.2	0.00e+00	0	45	104	14109638656	79	18886
2026-01-22 20:04:33.65	329.60	13.42	-54.2	-56.3	6.2	0.00e+00	0	45	104	14109638656	79	18892
2026-01-22 20:04:34.65	329.70	13.31	-54.2	-56.3	6.2	0.00e+00	0	45	104	14109638656	79	18848
2026-01-22 20:04:35.66	329.81	13.20	-54.2	-56.3	6.2	0.00e+00	0	45	104	14109638656	79	18850
2026-01-22 20:04:36.67	329.91	13.09	-54.2	-56.3	6.2	0.00e+00	0	45	104	14109638656	79	18887
2026-01-22 20:04:37.68	330.02	12.98	-54.2	-56.2	6.2	0.00e+00	0	45	104	14109638656	79	18766
2026-01-22 20:04:38.69	330.12	12.87	-54.1	-56.2	6.2	0.00e+00	0	45	104	14109638656	79	18796
2026-01-22 20:04:39.70	330.22	12.76	-54.1	-56.2	6.2	0.00e+00	0	45	104	14109638656	79	18746
2026-01-22 20:04:40.70	330.32	12.66	-54.1	-56.2	6.2	0.00e+00	0	45	104	14109638656	79	18742
2026-01-22 20:04:41.71	330.42	12.55	-54.1	-56.2	6.2	0.00e+00	0	45	104	14109638656	79	18778
2026-01-22 20:04:42.72	330.52	12.44	-54.1	-56.2	6.2	0.00e+00	0	45	104	14109638656	79	18673
2026-01-22 20:04:43.73	330.62	12.33	-54.1	-56.2	6.2	0.00e+00	0	45	104	14109638656	79	18670
2026-01-22 20:04:44.73	330.72	12.23	-54.1	-56.2	6.2	0.00e+00	0	45	104	14109638656	79	18695
2026-01-22 20:04:45.74	330.81	12.12	-54.1	-56.2	6.2	0.00e+00	0	45	104	14109638656	79	18677
2026-01-22 20:04:46.75	330.91	12.02	-54.1	-56.1	6.2	0.00e+00	0	45	104	14109638656	79	18599
2026-01-22 20:04:47.76	331.01	11.91	-54.1	-56.1	6.2	0.00e+00	0	45	104	14109638656	79	18599
2026-01-22 20:04:48.77	331.10	11.81	-54.1	-56.2	6.2	0.00e+00	0	44	104	14109638656	79	18681
2026-01-22 20:04:49.77	331.19	11.71	-54.1	-56.2	6.2	0.00e+00	0	45	104	14109638656	79	18604
2026-01-22 20:04:50.78	331.29	11.60	-54.0	-56.1	6.2	0.00e+00	0	45	104	14109638656	79	18564
2026-01-22 20:04:51.79	331.38	11.50	-54.0	-56.1	6.2	0.00e+00	0	45	104	14109638656	79	18584
2026-01-22 20:04:52.80	331.47	11.40	-54.0	-56.1	6.2	0.00e+00	0	45	104	14109638656	79	18551
2026-01-22 20:04:53.81	331.56	11.30	-54.0	-56.1	6.2	0.00e+00	0	45	104	14109638656	79	18594
2026-01-22 20:04:54.82	331.65	11.20	-54.0	-56.1	6.2	0.00e+00	0	45	104	14109638656	79	18494
2026-01-22 20:04:55.83	331.74	11.09	-54.0	-56.1	6.2	0.00e+00	0	45	104	14109638656	79	18479
2026-01-22 20:04:56.84	331.83	10.99	-54.0	-56.0	6.2	0.00e+00	0	45	104	14109638656	79	18377
2026-01-22 20:04:57.84	331.92	10.90	-54.0	-56.1	6.2	0.00e+00	0	45	104	14109638656	79	18461
2026-01-22 20:04:58.85	332.01	10.80	-53.9	-56.1	6.2	0.00e+00	0	45	104	14109638656	79	18407
2026-01-22 20:04:59.86	332.10	10.70	-54.0	-56.1	6.2	0.00e+00	0	45	104	14109638656	79	18430
2026-01-22 20:05:00.87	332.18	10.60	-53.9	-56.0	6.2	0.00e+00	0	45	104	14109638656	79	18349
2026-01-22 20:05:01.87	332.27	10.50	-53.9	-56.0	6.2	0.00e+00	0	45	104	14109638656	79	18372
2026-01-22 20:05:02.88	332.35	10.40	-53.9	-56.0	6.2	0.00e+00	0	45	104	14109638656	79	18219
2026-01-22 20:05:03.89	332.44	10.31	-53.9	-56.0	6.2	0.00e+00	0	45	104	14109638656	79	18329
2026-01-22 20:05:04.90	332.52	10.21	-53.9	-56.0	6.2	0.00e+00	0	45	104	14109638656	79	18240
2026-01-22 20:05:05.90	332.60	10.12	-53.9	-56.0	6.2	0.00e+00	0	45	104	14109638656	79	18282
2026-01-22 20:05:06.92	332.69	10.02	-53.8	-55.9	6.2	0.00e+00	0	45	104	14109638656	79	18068
2026-01-22 20:05:07.92	332.77	9.92	-53.9	-56.0	6.2	0.00e+00	0	45	104	14109638656	79	18193
2026-01-22 20:05:08.93	332.85	9.83	-53.8	-55.9	6.2	0.00e+00	0	45	104	14109638656	79	18129
2026-01-22 20:05:09.94	332.93	9.73	-53.9	-55.9	6.2	0.00e+00	0	45	104	14109638656	79	18163
2026-01-22 20:05:10.95	333.01	9.64	-53.8	-55.9	6.2	0.00e+00	0	45	104	14109638656	79	18028
2026-01-22 20:05:11.96	333.09	9.55	-53.8	-55.9	6.2	0.00e+00	0	45	104	14109638656	79	18110
2026-01-22 20:05:12.97	333.17	9.45	-53.8	-55.9	6.2	0.00e+00	0	45	104	14109638656	79	17981
2026-01-22 20:05:13.98	333.25	9.36	-53.8	-55.9	6.2	0.00e+00	0	45	104	14109638656	79	18093
2026-01-22 20:05:14.99	333.33	9.27	-53.7	-55.8	6.2	0.00e+00	0	45	104	14109638656	79	17922
2026-01-22 20:05:15.99	333.40	9.18	-53.8	-55.9	6.2	0.00e+00	0	45	104	14109638656	79	18006
2026-01-22 20:05:17.00	333.48	9.08	-53.7	-55.8	6.2	0.00e+00	0	45	104	14109638656	79	17884
2026-01-22 20:05:18.01	333.56	8.99	-53.7	-55.8	6.2	0.00e+00	0	45	104	14109638656	79	17956
2026-01-22 20:05:19.02	333.63	8.90	-53.7	-55.8	6.2	0.00e+00	0	45	104	14109638656	79	17793
2026-01-22 20:05:20.03	333.71	8.81	-53.7	-55.8	6.2	0.00e+00	0	45	104	14109638656	79	17961
2026-01-22 20:05:21.03	333.78	8.72	-53.7	-55.8	6.2	0.00e+00	0	45	104	14109638656	79	17797
2026-01-22 20:05:22.04	333.86	8.63	-53.7	-55.8	6.2	0.00e+00	0	45	104	14109638656	79	17857
2026-01-22 20:05:23.05	333.93	8.54	-53.6	-55.7	6.2	0.00e+00	0	45	104	14109638656	79	17722
2026-01-22 20:05:24.06	334.01	8.45	-53.7	-55.8	6.2	0.00e+00	0	45	104	14109638656	79	17829
2026-01-22 20:05:25.07	334.08	8.36	-53.6	-55.7	6.2	0.00e+00	0	45	104	14109638656	79	17714
2026-01-22 20:05:26.08	334.15	8.28	-53.7	-55.7	6.2	0.00e+00	0	45	104	14109638656	79	17738
2026-01-22 20:05:27.09	334.22	8.19	-53.6	-55.7	6.2	0.00e+00	0	45	104	14109638656	79	17657
2026-01-22 20:05:28.09	334.29	8.10	-53.6	-55.7	6.2	0.00e+00	0	45	104	14109638656	79	17746
2026-01-22 20:05:29.10	334.36	8.01	-53.6	-55.7	6.2	0.00e+00	0	45	104	14109638656	79	17631
2026-01-22 20:05:30.11	334.44	7.93	-53.6	-55.7	6.2	0.00e+00	0	45	104	14109638656	79	17739
2026-01-22 20:05:31.12	334.51	7.84	-53.6	-55.7	6.2	0.00e+00	0	45	104	14109638656	79	17601
2026-01-22 20:05:32.13	334.58	7.75	-53.6	-55.7	6.2	0.00e+00	0	45	104	14109638656	79	17704
2026-01-22 20:05:33.13	334.64	7.67	-53.5	-55.6	6.2	0.00e+00	0	45	104	14109638656	79	17467
2026-01-22 20:05:34.14	334.71	7.58	-53.6	-55.7	6.2	0.00e+00	0	45	104	14109638656	79	17586
2026-01-22 20:05:35.15	334.78	7.50	-53.5	-55.6	6.2	0.00e+00	0	45	104	14109638656	79	17455
2026-01-22 20:05:36.16	334.85	7.41	-53.6	-55.6	6.2	0.00e+00	0	45	104	14109638656	79	17548
2026-01-22 20:05:37.17	334.92	7.33	-53.5	-55.6	6.2	0.00e+00	0	45	104	14109638656	79	17442
2026-01-22 20:05:38.17	334.98	7.25	-53.5	-55.6	6.2	0.00e+00	0	45	104	14109638656	79	17536
2026-01-22 20:05:39.18	335.05	7.16	-53.5	-55.6	6.2	0.00e+00	0	45	104	14109638656	78	18413
2026-01-22 20:05:40.19	335.11	7.08	-53.5	-55.6	6.2	0.00e+00	0	45	104	14109638656	78	18479
2026-01-22 20:05:41.20	335.18	6.99	-53.4	-55.5	6.2	0.00e+00	0	45	104	14109638656	78	18360
2026-01-22 20:05:42.21	335.25	6.91	-53.5	-55.6	6.2	0.00e+00	0	45	104	14109638656	78	18408
2026-01-22 20:05:43.21	335.31	6.83	-53.4	-55.5	6.2	0.00e+00	0	45	104	14109638656	78	18185
2026-01-22 20:05:44.22	335.37	6.75	-53.5	-55.6	6.2	0.00e+00	0	45	104	14109638656	78	18408
2026-01-22 20:05:45.23	335.44	6.66	-53.4	-55.5	6.2	0.00e+00	0	45	104	14109638656	78	18264
2026-01-22 20:05:46.24	335.50	6.58	-53.4	-55.5	6.2	0.00e+00	0	45	104	14109638656	78	18382
2026-01-22 20:05:47.25	335.56	6.50	-53.3	-55.4	6.2	0.00e+00	0	45	104	14109638656	78	18157
2026-01-22 20:05:48.26	335.63	6.42	-53.4	-55.5	6.2	0.00e+00	0	45	104	14109638656	78	18249
2026-01-22 20:05:49.27	335.69	6.34	-53.3	-55.5	6.2	0.00e+00	0	45	104	14109638656	78	18182
2026-01-22 20:05:50.28	335.75	6.26	-53.4	-55.5	6.2	0.00e+00	0	45	104	14109638656	78	18201
2026-01-22 20:05:51.29	335.81	6.18	-53.3	-55.4	6.2	0.00e+00	0	45	104	14109638656	78	18015
2026-01-22 20:05:52.29	335.87	6.10	-53.3	-55.4	6.2	0.00e+00	0	45	104	14109638656	78	18149
2026-01-22 20:05:53.30	335.94	6.02	-53.3	-55.3	6.2	0.00e+00	0	45	104	14109638656	78	17968
2026-01-22 20:05:54.31	336.00	5.94	-53.3	-55.4	6.2	0.00e+00	0	45	104	14109638656	78	18021
2026-01-22 20:05:55.32	336.06	5.86	-53.2	-55.3	6.2	0.00e+00	0	45	104	14109638656	78	17870
2026-01-22 20:05:56.33	336.12	5.78	-53.3	-55.4	6.2	0.00e+00	0	45	104	14109638656	78	18025
2026-01-22 20:05:57.33	336.17	5.70	-53.2	-55.3	6.2	0.00e+00	0	45	104	14109638656	78	17927
2026-01-22 20:05:58.34	336.23	5.63	-53.3	-55.4	6.2	0.00e+00	0	45	104	14109638656	78	18008
2026-01-22 20:05:59.35	336.29	5.55	-53.2	-55.3	6.2	0.00e+00	0	45	104	14109638656	78	17815
2026-01-22 20:06:00.36	336.35	5.47	-53.2	-55.3	6.2	0.00e+00	0	45	104	14109638656	78	17845
2026-01-22 20:06:01.37	336.41	5.39	-53.2	-55.3	6.2	0.00e+00	0	45	104	14109638656	78	17796
2026-01-22 20:06:02.38	336.47	5.32	-53.2	-55.3	6.2	0.00e+00	0	45	104	14109638656	78	17772
2026-01-22 20:06:03.38	336.52	5.24	-53.1	-55.2	6.2	0.00e+00	0	45	104	14109638656	78	17715
2026-01-22 20:06:04.39	336.58	5.16	-53.1	-55.2	6.2	0.00e+00	0	45	104	14109638656	78	17717
2026-01-22 20:06:05.40	336.64	5.09	-53.1	-55.2	6.2	0.00e+00	0	45	104	14109638656	78	17646
2026-01-22 20:06:06.41	336.69	5.01	-53.2	-55.3	6.2	0.00e+00	0	45	104	14109638656	78	17799
2026-01-22 20:06:07.42	336.75	4.93	-53.7	-55.8	6.2	0.00e+00	0	45	104	14109638656	78	18821
2026-01-22 20:06:08.43	336.81	4.86	-54.1	-56.1	6.2	0.00e+00	0	45	104	14109638656	78	19684
2026-01-22 20:06:09.43	336.86	4.78	-54.4	-56.5	6.2	0.00e+00	0	45	104	14109638656	79	19325
2026-01-22 20:06:10.44	336.92	4.71	-54.6	-56.7	6.2	0.00e+00	0	45	104	14109638656	79	19859
2026-01-22 20:06:11.45	336.97	4.63	-54.7	-56.8	6.2	0.00e+00	0	45	104	14109638656	80	18943
2026-01-22 20:06:12.46	337.03	4.56	-54.8	-56.9	6.2	0.00e+00	0	45	104	14109638656	80	19183
2026-01-22 20:06:13.47	337.08	4.48	-54.9	-57.0	6.2	0.00e+00	0	45	104	14109638656	80	19285
2026-01-22 20:06:14.48	337.13	4.41	-54.9	-57.0	6.2	0.00e+00	0	45	104	14109638656	80	19370
2026-01-22 20:06:15.49	337.19	4.34	-54.9	-57.0	6.2	0.00e+00	0	45	104	14109638656	80	19357
2026-01-22 20:06:16.50	337.24	4.26	-54.9	-57.0	6.2	0.00e+00	0	45	104	14109638656	80	19283
2026-01-22 20:06:17.51	337.29	4.19	-54.8	-56.9	6.2	0.00e+00	0	45	104	14109638656	80	19141
2026-01-22 20:06:18.51	337.35	4.12	-54.7	-56.8	6.2	0.00e+00	0	45	104	14109638656	80	18990
2026-01-22 20:06:19.52	337.40	4.04	-54.6	-56.6	6.2	0.00e+00	0	45	104	14109638656	80	18602
2026-01-22 20:06:20.53	337.45	3.97	-54.5	-56.6	6.2	0.00e+00	0	45	104	14109638656	80	18557
2026-01-22 20:06:21.53	337.50	3.90	-54.5	-56.6	6.2	0.00e+00	0	45	104	14109638656	80	18566
2026-01-22 20:06:22.54	337.55	3.83	-54.5	-56.6	6.2	0.00e+00	0	45	104	14109638656	80	18535
2026-01-22 20:06:23.55	337.60	3.75	-54.5	-56.6	6.2	0.00e+00	0	45	104	14109638656	80	18550
2026-01-22 20:06:24.56	337.65	3.68	-54.5	-56.6	6.2	0.00e+00	0	45	104	14109638656	80	18430
2026-01-22 20:06:25.57	337.71	3.61	-54.5	-56.6	6.2	0.00e+00	0	45	104	14109638656	80	18521
2026-01-22 20:06:26.57	337.76	3.54	-54.5	-56.6	6.2	0.00e+00	0	45	104	14109638656	80	18441
2026-01-22 20:06:27.58	337.81	3.47	-54.5	-56.5	6.2	0.00e+00	0	45	104	14109638656	80	18362
2026-01-22 20:06:28.59	337.86	3.40	-54.4	-56.5	6.2	0.00e+00	0	45	104	14109638656	80	18269
2026-01-22 20:06:29.60	337.91	3.33	-54.4	-56.5	6.2	0.00e+00	0	45	104	14109638656	80	18235
2026-01-22 20:06:30.60	337.95	3.26	-54.4	-56.5	6.2	0.00e+00	0	45	104	14109638656	80	18212
2026-01-22 20:06:31.61	338.00	3.19	-54.3	-56.4	6.2	0.00e+00	0	45	104	14109638656	80	18141
2026-01-22 20:06:32.62	338.05	3.12	-54.3	-56.4	6.2	0.00e+00	0	45	104	14109638656	80	18151
2026-01-22 20:06:33.63	338.10	3.05	-54.3	-56.4	6.2	0.00e+00	0	45	104	14109638656	80	18120
2026-01-22 20:06:34.64	338.15	2.98	-54.3	-56.4	6.2	0.00e+00	0	45	104	14109638656	80	18065
2026-01-22 20:06:35.65	338.20	2.91	-54.3	-56.4	6.2	0.00e+00	0	45	104	14109638656	80	18004
2026-01-22 20:06:36.65	338.24	2.84	-54.3	-56.4	6.2	0.00e+00	0	45	104	14109638656	80	18034
2026-01-22 20:06:37.66	338.29	2.77	-54.3	-56.3	6.2	0.00e+00	0	45	104	14109638656	80	17953
2026-01-22 20:06:38.67	338.34	2.70	-54.3	-56.4	6.2	0.00e+00	0	45	104	14109638656	80	17999
2026-01-22 20:06:39.68	338.39	2.63	-54.3	-56.4	6.2	0.00e+00	0	45	104	14109638656	80	17977
2026-01-22 20:06:40.69	338.43	2.56	-54.3	-56.4	6.2	0.00e+00	0	45	104	14109638656	80	18006
2026-01-22 20:06:41.69	338.48	2.50	-54.2	-56.3	6.2	0.00e+00	0	45	104	14109638656	80	17929
2026-01-22 20:06:42.70	338.53	2.43	-54.2	-56.3	6.2	0.00e+00	0	45	104	14109638656	80	17924
2026-01-22 20:06:43.71	338.57	2.36	-54.2	-56.3	6.2	0.00e+00	0	45	104	14109638656	80	17922
2026-01-22 20:06:44.72	338.62	2.29	-54.2	-56.3	6.2	0.00e+00	0	45	104	14109638656	80	17936
2026-01-22 20:06:45.73	338.66	2.22	-54.2	-56.3	6.2	0.00e+00	0	45	104	14109638656	80	17907
2026-01-22 20:06:46.74	338.71	2.16	-54.2	-56.3	6.2	0.00e+00	0	45	104	14109638656	80	17875
2026-01-22 20:06:47.75	338.75	2.09	-54.2	-56.3	6.2	0.00e+00	0	45	104	14109638656	80	17859
2026-01-22 20:06:48.75	338.80	2.02	-54.2	-56.3	6.2	0.00e+00	0	45	104	14109638656	80	17815

#Closed at: 2026-01-22 20:06:49
#Recorded file [14109 MB]: D:/lorett/data/31041_260122_225550.dat