passes_logs/2026/01/22/R3.2S_Murmansk/R3.2S_Murmansk__20260122_101336_TY-42_rec.log

#Pass ID: 20260122_101336_TY-42
#Satellite: TY-42
#Configuration: TY-42_900M
#almurnet v.1.7.20251203
#Start time: 2026-01-22 10:13:36

#Version: 2.2.20231116
#Station: R3.2S_Murmansk
#Location: 33.079688 lon 68.888172 lat
#TLE: 1 64048U 25103A   26021.88848380  .00008008  00000-0  38191-3 0 09992
#TLE: 2 64048 097.4124 097.1764 0001786 094.9639 294.5154 15.19162210 37869

#Time	Az	El	Level	Level2	SNR	BER	BlckErr	Temp	State	Recorded	gain1	gain2
2026-01-22 10:13:36.65	21.61	1.99	-54.6	-56.7	6.2	0.00e+00	0	47	0	0	80	18707
2026-01-22 10:13:37.66	21.58	2.05	-54.7	-56.9	6.2	0.00e+00	0	47	104	0	81	18042
2026-01-22 10:13:38.67	21.55	2.12	-54.7	-56.9	6.2	0.00e+00	0	47	104	0	81	18015
2026-01-22 10:13:39.68	21.51	2.19	-54.7	-56.9	6.2	0.00e+00	0	47	104	0	81	18029
2026-01-22 10:13:40.68	21.48	2.26	-54.7	-56.8	6.2	0.00e+00	0	47	104	0	81	17929
2026-01-22 10:13:41.69	21.45	2.33	-54.7	-56.8	6.2	0.00e+00	0	47	104	0	81	17903
2026-01-22 10:13:42.70	21.42	2.40	-54.7	-56.8	6.2	0.00e+00	0	48	104	0	81	17848
2026-01-22 10:13:43.71	21.38	2.47	-54.7	-56.8	6.2	0.00e+00	0	48	104	0	81	17838
2026-01-22 10:13:44.72	21.35	2.54	-54.6	-56.7	6.2	0.00e+00	0	48	104	0	81	17743
2026-01-22 10:13:45.73	21.31	2.61	-54.6	-56.7	6.2	0.00e+00	0	48	104	0	81	17659
2026-01-22 10:13:46.74	21.28	2.69	-54.6	-56.7	6.2	0.00e+00	0	48	104	0	81	17627
2026-01-22 10:13:47.75	21.25	2.76	-54.5	-56.7	6.2	0.00e+00	0	48	104	0	81	17578
2026-01-22 10:13:48.75	21.21	2.83	-54.5	-56.6	6.2	0.00e+00	0	48	104	0	81	17539
2026-01-22 10:13:49.77	21.18	2.90	-54.4	-56.5	6.2	0.00e+00	0	48	104	0	80	18357
2026-01-22 10:13:50.77	21.14	2.97	-54.3	-56.4	6.2	0.00e+00	0	48	104	0	80	18156
2026-01-22 10:13:51.78	21.11	3.04	-54.3	-56.4	6.2	0.00e+00	0	48	104	0	80	18070
2026-01-22 10:13:52.79	21.07	3.12	-54.2	-56.3	6.2	0.00e+00	0	48	104	0	80	17833
2026-01-22 10:13:53.80	21.03	3.19	-54.1	-56.2	6.2	0.00e+00	0	48	104	0	80	17676
2026-01-22 10:13:54.81	21.00	3.26	-54.0	-56.1	6.2	0.00e+00	0	48	104	0	79	18531
2026-01-22 10:13:55.82	20.96	3.34	-53.8	-55.9	6.2	0.00e+00	0	48	104	0	79	18118
2026-01-22 10:13:56.83	20.93	3.41	-53.5	-55.7	6.2	0.00e+00	0	48	104	0	79	17601
2026-01-22 10:13:57.83	20.89	3.48	-53.1	-55.2	6.2	0.00e+00	0	48	104	0	78	17583
2026-01-22 10:13:58.84	20.85	3.56	-52.8	-54.8	6.2	0.00e+00	0	48	104	0	77	17956
2026-01-22 10:13:59.85	20.81	3.63	-52.7	-54.9	6.2	0.00e+00	0	48	104	0	77	18011
2026-01-22 10:14:00.86	20.78	3.70	-52.7	-54.8	6.2	0.00e+00	0	49	104	0	77	17957
2026-01-22 10:14:01.87	20.74	3.78	-52.7	-54.9	6.2	0.00e+00	0	49	104	0	77	17991
2026-01-22 10:14:02.88	20.70	3.85	-52.7	-54.9	6.2	0.00e+00	0	48	104	0	77	17991
2026-01-22 10:14:03.88	20.66	3.93	-52.7	-54.9	6.2	0.00e+00	0	49	104	0	77	17986
2026-01-22 10:14:04.89	20.62	4.00	-52.7	-54.8	6.2	0.00e+00	0	49	104	0	77	17964
2026-01-22 10:14:05.90	20.58	4.08	-52.7	-54.8	6.2	0.00e+00	0	49	104	0	77	17970
2026-01-22 10:14:06.91	20.54	4.16	-52.7	-54.8	6.2	0.00e+00	0	49	104	0	77	17941
2026-01-22 10:14:07.92	20.50	4.23	-52.7	-54.8	6.2	0.00e+00	0	49	104	0	77	17925
2026-01-22 10:14:08.93	20.46	4.31	-52.7	-54.8	6.2	0.00e+00	0	49	104	0	77	17927
2026-01-22 10:14:09.94	20.42	4.39	-52.7	-54.9	6.2	0.00e+00	0	49	104	0	77	17986
2026-01-22 10:14:10.95	20.38	4.46	-52.7	-54.8	6.2	0.00e+00	0	49	104	0	77	17921
2026-01-22 10:14:11.95	20.34	4.54	-52.7	-54.8	6.2	0.00e+00	0	49	104	0	77	17922
2026-01-22 10:14:12.96	20.30	4.62	-52.7	-54.8	6.2	0.00e+00	0	49	104	0	77	17880
2026-01-22 10:14:13.97	20.26	4.70	-52.7	-54.8	6.2	0.00e+00	0	49	104	0	77	17934
2026-01-22 10:14:14.98	20.22	4.77	-52.7	-54.8	6.2	0.00e+00	0	49	104	0	77	17899
2026-01-22 10:14:15.99	20.18	4.85	-52.7	-54.8	6.2	0.00e+00	0	49	104	0	77	17944
2026-01-22 10:14:17.00	20.13	4.93	-52.7	-54.8	6.2	0.00e+00	0	49	104	0	77	17923
2026-01-22 10:14:18.00	20.09	5.01	-52.7	-54.8	6.2	0.00e+00	0	49	104	0	77	17935
2026-01-22 10:14:19.01	20.05	5.09	-53.1	-55.2	6.2	0.00e+00	0	49	104	0	77	18783
2026-01-22 10:14:20.02	20.01	5.17	-52.9	-55.0	6.2	0.00e+00	0	49	104	0	77	18275
2026-01-22 10:14:21.03	19.96	5.25	-52.6	-54.7	6.2	0.00e+00	0	49	104	0	76	18680
2026-01-22 10:14:22.04	19.92	5.33	-52.8	-54.9	6.2	0.00e+00	0	49	104	0	76	19246
2026-01-22 10:14:23.04	19.87	5.41	-52.7	-54.8	6.2	0.00e+00	0	49	104	0	76	18965
2026-01-22 10:14:24.05	19.83	5.49	-52.8	-55.0	6.2	0.00e+00	0	49	104	0	76	19266
2026-01-22 10:14:25.06	19.78	5.57	-52.3	-54.2	6.2	0.00e+00	0	49	104	0	75	18810
2026-01-22 10:14:26.07	19.74	5.65	-42.4	-42.4	11.0	0.00e+00	11024	52	0	8388608	56	14338
2026-01-22 10:14:27.08	19.69	5.73	-52.1	-54.0	6.2	7.65e-02	0	50	104	58720256	75	18377
2026-01-22 10:14:28.08	19.65	5.82	-42.0	-42.0	10.8	0.00e+00	11034	52	104	58720256	55	14471
2026-01-22 10:14:29.09	19.60	5.90	-40.6	-40.6	12.3	0.00e+00	0	52	0	159383552	53	13820
2026-01-22 10:14:30.10	19.56	5.98	-40.3	-40.2	12.5	1.19e-01	0	52	0	276824064	52	14064
2026-01-22 10:14:31.11	19.51	6.06	-40.0	-40.0	12.7	1.19e-01	0	52	0	385875968	51	14507
2026-01-22 10:14:32.12	19.46	6.15	-40.6	-40.6	12.3	1.19e-01	0	52	0	494927872	52	14635
2026-01-22 10:14:33.12	19.41	6.23	-39.6	-39.5	13.0	9.66e-02	0	52	0	612368384	51	13758
2026-01-22 10:14:34.13	19.36	6.32	-39.8	-39.7	12.9	9.66e-02	0	52	0	721420288	50	14914
2026-01-22 10:14:35.14	19.32	6.40	-38.9	-38.8	13.4	9.66e-02	0	52	0	838860800	49	14221
2026-01-22 10:14:36.14	19.27	6.48	-38.9	-38.8	13.4	9.66e-02	0	52	0	947912704	48	15071
2026-01-22 10:14:37.15	19.22	6.57	-38.7	-38.6	13.5	5.59e-02	0	52	0	1073741824	49	13938
2026-01-22 10:14:38.16	19.17	6.66	-39.0	-38.9	13.4	5.59e-02	0	52	0	1182793728	49	14406
2026-01-22 10:14:39.17	19.12	6.74	-38.5	-38.5	13.7	5.59e-02	0	52	0	1300234240	48	14447
2026-01-22 10:14:40.18	19.07	6.83	-38.1	-38.0	14.0	3.64e-02	0	52	0	1409286144	48	13774
2026-01-22 10:14:41.19	19.02	6.91	-38.3	-38.2	13.9	3.64e-02	0	52	0	1518338048	48	14028
2026-01-22 10:14:42.19	18.97	7.00	-37.0	-37.0	13.6	3.64e-02	0	52	0	1635778560	45	14450
2026-01-22 10:14:43.20	18.91	7.09	-36.8	-36.7	13.8	3.12e-02	0	52	0	1744830464	45	14049
2026-01-22 10:14:44.21	18.86	7.18	-36.9	-36.8	13.7	3.12e-02	0	52	0	1862270976	45	14207
2026-01-22 10:14:45.22	18.81	7.26	-36.5	-36.4	13.9	3.12e-02	0	52	0	1971322880	44	14392
2026-01-22 10:14:46.23	18.76	7.35	-36.7	-36.6	13.8	3.37e-02	0	52	0	2080374784	44	14728
2026-01-22 10:14:47.24	18.70	7.44	-36.6	-36.5	13.8	3.37e-02	0	52	0	2197815296	44	14584
2026-01-22 10:14:48.24	18.65	7.53	-36.5	-36.5	13.9	3.04e-02	0	52	0	2306867200	44	14444
2026-01-22 10:14:49.25	18.59	7.62	-36.2	-36.1	14.1	3.04e-02	0	52	0	2432696320	44	13925
2026-01-22 10:14:50.26	18.54	7.71	-36.1	-36.0	14.1	3.04e-02	0	52	0	2541748224	44	13758
2026-01-22 10:14:51.26	18.48	7.80	-36.2	-36.2	14.0	2.49e-02	0	52	0	2659188736	44	13961
2026-01-22 10:14:52.27	18.43	7.89	-36.1	-36.0	14.2	2.49e-02	0	53	0	2768240640	43	14547
2026-01-22 10:14:53.28	18.37	7.98	-36.3	-36.3	14.1	2.49e-02	0	53	0	2885681152	43	14989
2026-01-22 10:14:54.28	18.32	8.07	-36.3	-36.2	14.1	2.27e-02	0	52	0	2994733056	43	14914
2026-01-22 10:14:55.29	18.26	8.17	-36.1	-36.1	14.2	2.27e-02	0	53	0	3103784960	43	14653
2026-01-22 10:14:56.30	18.20	8.26	-36.1	-36.0	14.2	2.07e-02	0	53	0	3221225472	43	14584
2026-01-22 10:14:57.31	18.14	8.35	-36.2	-36.2	14.1	2.07e-02	0	53	0	3330277376	43	14809
2026-01-22 10:14:58.32	18.08	8.45	-36.0	-35.9	14.3	2.07e-02	0	53	0	3447717888	43	14417
2026-01-22 10:14:59.33	18.03	8.54	-36.0	-35.9	14.3	2.03e-02	0	53	0	3556769792	43	14349
2026-01-22 10:15:00.34	17.97	8.63	-35.8	-35.8	14.4	2.03e-02	0	53	0	3674210304	43	14153
2026-01-22 10:15:01.34	17.91	8.73	-35.7	-35.7	14.4	1.75e-02	0	53	0	3783262208	43	13951
2026-01-22 10:15:02.35	17.85	8.82	-35.7	-35.6	14.4	1.75e-02	0	53	0	3909091328	43	13945
2026-01-22 10:15:03.36	17.78	8.92	-35.8	-35.7	14.4	1.75e-02	0	53	0	4018143232	43	14019
2026-01-22 10:15:04.37	17.72	9.01	-35.6	-35.6	14.5	1.66e-02	0	53	0	4135583744	43	13810
2026-01-22 10:15:05.38	17.66	9.11	-35.5	-35.5	14.5	1.66e-02	0	53	0	4244635648	43	13641
2026-01-22 10:15:06.38	17.60	9.21	-35.6	-35.5	14.5	1.43e-02	0	53	0	4353687552	42	14535
2026-01-22 10:15:07.39	17.53	9.31	-35.3	-35.3	14.6	1.43e-02	0	53	0	4471128064	42	14164
2026-01-22 10:15:08.40	17.47	9.40	-35.5	-35.5	14.5	1.43e-02	0	53	0	4580179968	42	14463
2026-01-22 10:15:09.41	17.41	9.50	-35.7	-35.6	14.5	1.43e-02	0	53	0	4697620480	42	14726
2026-01-22 10:15:10.42	17.34	9.60	-35.5	-35.4	14.6	1.35e-02	0	53	0	4806672384	42	14400
2026-01-22 10:15:11.43	17.28	9.70	-35.4	-35.4	14.6	1.35e-02	0	53	0	4915724288	42	14297
2026-01-22 10:15:12.44	17.21	9.80	-35.1	-35.1	14.7	1.20e-02	0	53	0	5033164800	42	13828
2026-01-22 10:15:13.45	17.14	9.90	-35.1	-35.1	14.8	1.20e-02	0	53	0	5158993920	42	13813
2026-01-22 10:15:14.46	17.08	10.00	-35.2	-35.1	14.7	1.20e-02	0	53	0	5268045824	42	13931
2026-01-22 10:15:15.46	17.01	10.10	-35.2	-35.1	14.7	1.06e-02	0	53	0	5377097728	42	13926
2026-01-22 10:15:16.47	16.94	10.21	-35.2	-35.1	14.8	1.06e-02	0	53	0	5494538240	42	13834
2026-01-22 10:15:17.48	16.87	10.31	-35.1	-35.0	14.8	1.01e-02	0	53	0	5603590144	42	13695
2026-01-22 10:15:18.49	16.80	10.41	-35.1	-35.0	14.8	1.01e-02	0	53	0	5721030656	42	13682
2026-01-22 10:15:19.50	16.73	10.51	-34.9	-34.8	14.9	1.01e-02	0	53	0	5830082560	41	14247
2026-01-22 10:15:20.51	16.66	10.62	-35.0	-34.9	14.9	8.54e-03	0	54	0	5939134464	41	14379
2026-01-22 10:15:21.52	16.59	10.72	-35.1	-35.0	14.8	8.54e-03	0	53	0	6056574976	41	14549
2026-01-22 10:15:22.53	16.51	10.83	-34.9	-34.8	14.9	8.54e-03	0	53	0	6165626880	41	14161
2026-01-22 10:15:23.53	16.44	10.93	-34.8	-34.8	14.9	8.52e-03	0	53	0	6283067392	41	14124
2026-01-22 10:15:24.54	16.37	11.04	-34.7	-34.6	15.0	8.52e-03	0	53	0	6392119296	41	13908
2026-01-22 10:15:25.55	16.29	11.15	-34.9	-34.8	14.9	8.52e-03	0	53	0	6517948416	41	14227
2026-01-22 10:15:26.56	16.22	11.25	-34.6	-34.5	15.1	7.28e-03	0	54	0	6627000320	41	13708
2026-01-22 10:15:27.56	16.14	11.36	-34.5	-34.4	15.1	7.28e-03	0	54	0	6744440832	41	13620
2026-01-22 10:15:28.57	16.07	11.47	-34.4	-34.4	15.1	7.28e-03	0	54	0	6853492736	40	14291
2026-01-22 10:15:29.58	15.99	11.58	-34.6	-34.5	15.0	6.42e-03	0	54	0	6962544640	40	14494
2026-01-22 10:15:30.59	15.91	11.69	-34.2	-34.2	15.2	6.42e-03	0	54	0	7079985152	40	13960
2026-01-22 10:15:31.60	15.83	11.80	-34.2	-34.2	15.2	5.54e-03	0	54	0	7189037056	40	13967
2026-01-22 10:15:32.60	15.75	11.91	-34.3	-34.3	15.1	5.54e-03	0	54	0	7306477568	40	14165
2026-01-22 10:15:33.61	15.67	12.02	-34.3	-34.2	15.2	5.54e-03	0	54	0	7415529472	40	14052
2026-01-22 10:15:34.62	15.59	12.13	-34.2	-34.1	15.2	4.76e-03	0	54	0	7532969984	40	13923
2026-01-22 10:15:35.63	15.51	12.25	-34.0	-34.0	15.3	4.76e-03	0	54	0	7642021888	39	14492
2026-01-22 10:15:36.64	15.43	12.36	-34.1	-34.0	15.3	4.32e-03	0	54	0	7751073792	39	14516
2026-01-22 10:15:37.65	15.34	12.48	-34.1	-34.0	15.3	4.32e-03	0	54	0	7876902912	39	14536
2026-01-22 10:15:38.66	15.26	12.59	-34.0	-33.9	15.4	4.32e-03	0	54	0	7994343424	39	14326
2026-01-22 10:15:39.67	15.17	12.71	-34.1	-34.1	15.3	3.73e-03	0	54	0	8103395328	39	14655
2026-01-22 10:15:40.68	15.09	12.82	-33.8	-33.7	15.4	3.73e-03	0	54	0	8212447232	39	14019
2026-01-22 10:15:41.69	15.00	12.94	-33.7	-33.6	15.5	3.50e-03	0	54	0	8329887744	39	13852
2026-01-22 10:15:42.70	14.91	13.06	-33.6	-33.6	15.5	3.50e-03	0	54	0	8438939648	39	13839
2026-01-22 10:15:43.70	14.83	13.17	-33.7	-33.6	15.5	3.50e-03	0	54	0	8556380160	39	13842
2026-01-22 10:15:44.71	14.74	13.29	-33.6	-33.5	15.5	2.69e-03	0	54	0	8665432064	39	13721
2026-01-22 10:15:45.72	14.65	13.41	-33.6	-33.5	15.5	2.69e-03	0	54	0	8774483968	39	13694
2026-01-22 10:15:46.73	14.55	13.53	-33.5	-33.4	15.5	2.42e-03	0	54	0	8891924480	38	14363
2026-01-22 10:15:47.74	14.46	13.65	-33.4	-33.3	15.6	2.42e-03	0	54	0	9000976384	38	14265
2026-01-22 10:15:48.75	14.37	13.78	-33.2	-33.1	15.7	2.42e-03	0	54	0	9126805504	38	13840
2026-01-22 10:15:49.76	14.28	13.90	-33.2	-33.1	15.7	2.13e-03	0	54	0	9235857408	38	13870
2026-01-22 10:15:50.77	14.18	14.02	-33.3	-33.3	15.6	2.13e-03	0	54	0	9353297920	38	14124
2026-01-22 10:15:51.78	14.08	14.15	-33.0	-32.9	15.8	2.13e-03	0	54	0	9462349824	38	13541
2026-01-22 10:15:52.78	13.99	14.27	-32.9	-32.8	15.8	1.83e-03	0	54	0	9579790336	37	14235
2026-01-22 10:15:53.79	13.89	14.39	-32.9	-32.8	15.7	1.83e-03	0	54	0	9688842240	37	14256
2026-01-22 10:15:54.80	13.79	14.52	-32.7	-32.7	15.8	1.24e-03	0	54	0	9797894144	37	13967
2026-01-22 10:15:55.81	13.69	14.65	-32.6	-32.5	15.9	1.24e-03	0	54	0	9915334656	37	13779
2026-01-22 10:15:56.82	13.59	14.78	-32.6	-32.5	15.9	1.24e-03	0	54	0	10024386560	37	13758
2026-01-22 10:15:57.83	13.49	14.90	-32.6	-32.5	15.9	1.08e-03	0	54	0	10141827072	37	13738
2026-01-22 10:15:58.84	13.38	15.03	-32.6	-32.5	15.9	1.08e-03	0	54	0	10250878976	37	13710
2026-01-22 10:15:59.85	13.28	15.16	-32.2	-32.1	16.0	1.08e-03	0	54	0	10376708096	36	13924
2026-01-22 10:16:00.86	13.17	15.30	-32.1	-32.0	16.0	7.20e-04	0	54	0	10485760000	36	13761
2026-01-22 10:16:01.86	13.07	15.43	-32.1	-32.1	16.0	7.20e-04	0	54	0	10603200512	36	13791
2026-01-22 10:16:02.87	12.96	15.56	-29.5	-29.4	15.6	7.20e-04	0	54	0	10712252416	31	13601
2026-01-22 10:16:03.88	12.85	15.69	-29.4	-29.4	15.6	1.34e-03	0	54	0	10829692928	30	14311
2026-01-22 10:16:04.89	12.74	15.83	-29.5	-29.4	15.5	1.34e-03	0	54	0	10938744832	30	14388
2026-01-22 10:16:05.90	12.63	15.96	-29.2	-29.1	15.6	1.34e-03	0	54	0	11047796736	30	13914
2026-01-22 10:16:06.91	12.52	16.10	-29.1	-29.0	15.6	1.80e-03	0	54	0	11165237248	30	13779
2026-01-22 10:16:07.92	12.40	16.23	-29.0	-29.0	15.6	1.80e-03	0	54	0	11274289152	30	13679
2026-01-22 10:16:08.92	12.29	16.37	-29.0	-28.9	15.6	1.40e-03	0	54	0	11391729664	29	14398
2026-01-22 10:16:09.93	12.17	16.51	-28.8	-28.7	15.7	1.40e-03	0	54	0	11500781568	29	14077
2026-01-22 10:16:10.94	12.05	16.65	-28.6	-28.6	15.7	1.40e-03	0	54	0	11609833472	29	13825
2026-01-22 10:16:11.95	11.93	16.79	-28.7	-28.6	15.7	1.14e-03	0	54	0	11735662592	29	13855
2026-01-22 10:16:12.96	11.81	16.93	-28.7	-28.6	15.7	1.14e-03	0	54	0	11853103104	29	13928
2026-01-22 10:16:13.97	11.69	17.07	-28.6	-28.5	15.9	1.14e-03	0	54	0	11962155008	29	13756
2026-01-22 10:16:14.98	11.57	17.22	-28.6	-28.5	15.9	8.73e-04	0	54	0	12071206912	29	13780
2026-01-22 10:16:15.99	11.44	17.36	-28.7	-28.6	15.9	8.73e-04	0	54	0	12188647424	29	13923
2026-01-22 10:16:16.99	11.32	17.51	-28.9	-28.8	15.9	8.73e-04	0	54	0	12297699328	29	14224
2026-01-22 10:16:18.00	11.19	17.65	-28.7	-28.7	16.0	7.82e-04	0	54	0	12415139840	29	13975
2026-01-22 10:16:19.01	11.06	17.80	-28.8	-28.7	16.0	7.82e-04	0	54	0	12524191744	29	14085
2026-01-22 10:16:20.02	10.93	17.95	-28.7	-28.7	16.0	7.68e-04	0	54	0	12633243648	29	13972
2026-01-22 10:16:21.03	10.80	18.10	-28.8	-28.8	16.0	7.68e-04	0	54	0	12750684160	29	14115
2026-01-22 10:16:22.04	10.67	18.25	-28.7	-28.6	16.0	7.68e-04	0	54	0	12859736064	29	13901
2026-01-22 10:16:23.04	10.53	18.40	-28.7	-28.6	16.0	5.53e-04	0	54	0	12977176576	29	13836
2026-01-22 10:16:24.05	10.40	18.55	-28.7	-28.6	16.0	5.53e-04	0	54	0	13094617088	29	13943
2026-01-22 10:16:25.06	10.26	18.70	-28.7	-28.6	16.0	5.86e-04	0	54	0	13212057600	29	13876
2026-01-22 10:16:26.07	10.12	18.86	-28.5	-28.5	16.0	5.86e-04	0	54	0	13321109504	29	13644
2026-01-22 10:16:27.08	9.98	19.01	-28.3	-28.2	16.1	5.86e-04	0	54	0	13438550016	28	14094
2026-01-22 10:16:28.09	9.83	19.17	-28.3	-28.2	16.1	4.62e-04	0	54	0	13547601920	28	13984
2026-01-22 10:16:29.09	9.69	19.33	-28.0	-27.9	16.1	4.62e-04	0	54	0	13656653824	28	13588
2026-01-22 10:16:30.10	9.54	19.48	-28.1	-28.0	16.1	4.62e-04	0	54	0	13774094336	27	14501
2026-01-22 10:16:31.11	9.39	19.64	-28.1	-28.0	16.1	3.10e-04	0	54	0	13883146240	27	14548
2026-01-22 10:16:32.12	9.24	19.80	-27.9	-27.8	16.1	3.10e-04	0	54	0	14000586752	27	14220
2026-01-22 10:16:33.13	9.09	19.97	-27.7	-27.6	16.2	3.10e-04	0	54	0	14109638656	27	13898
2026-01-22 10:16:34.14	8.94	20.13	-27.7	-27.6	16.2	3.10e-04	0	54	0	14227079168	27	13881
2026-01-22 10:16:35.15	8.78	20.29	-27.7	-27.6	16.2	1.52e-04	0	54	0	14344519680	27	13880
2026-01-22 10:16:36.15	8.62	20.46	-27.5	-27.4	16.3	1.52e-04	0	54	0	14461960192	27	13545
2026-01-22 10:16:37.16	8.46	20.62	-27.5	-27.4	16.3	1.52e-04	0	54	0	14571012096	26	14385
2026-01-22 10:16:38.17	8.30	20.79	-27.3	-27.2	16.3	1.48e-04	0	55	0	14688452608	26	14027
2026-01-22 10:16:39.17	8.14	20.96	-27.2	-27.1	16.4	1.48e-04	0	54	0	14797504512	26	13931
2026-01-22 10:16:40.18	7.97	21.13	-27.3	-27.3	16.3	1.48e-04	0	54	0	14906556416	26	14114
2026-01-22 10:16:41.19	7.80	21.30	-27.0	-27.0	16.4	8.10e-05	0	54	0	15023996928	26	13661
2026-01-22 10:16:42.20	7.63	21.47	-26.8	-26.7	16.4	8.10e-05	0	54	0	15133048832	25	14037
2026-01-22 10:16:43.21	7.46	21.65	-26.8	-26.7	16.4	8.10e-05	0	55	0	15250489344	25	14084
2026-01-22 10:16:44.22	7.28	21.82	-26.8	-26.7	16.4	1.24e-04	0	54	0	15359541248	25	14064
2026-01-22 10:16:45.23	7.10	22.00	-26.6	-26.5	16.5	1.24e-04	0	54	0	15468593152	25	13729
2026-01-22 10:16:46.24	6.92	22.18	-26.7	-26.6	16.4	1.24e-04	0	54	0	15586033664	25	13824
2026-01-22 10:16:47.24	6.74	22.35	-26.7	-26.6	16.4	5.24e-05	0	55	0	15695085568	25	13921
2026-01-22 10:16:48.25	6.56	22.53	-26.7	-26.6	16.5	5.24e-05	0	55	0	15820914688	25	13824
2026-01-22 10:16:49.26	6.37	22.71	-26.6	-26.5	16.5	5.24e-05	0	55	0	15929966592	25	13661
2026-01-22 10:16:50.27	6.18	22.90	-26.5	-26.4	16.5	3.33e-05	0	54	0	16047407104	25	13574
2026-01-22 10:16:51.28	5.99	23.08	-26.3	-26.2	16.5	3.33e-05	0	54	0	16156459008	24	14055
2026-01-22 10:16:52.29	5.80	23.27	-26.4	-26.3	16.5	3.33e-05	0	54	0	16273899520	24	14166
2026-01-22 10:16:53.29	5.60	23.45	-26.3	-26.2	16.6	2.86e-05	0	55	0	16382951424	24	14061
2026-01-22 10:16:54.30	5.40	23.64	-26.1	-26.0	16.6	2.86e-05	0	55	0	16492003328	24	13762
2026-01-22 10:16:55.31	5.20	23.83	-26.0	-25.9	16.6	2.86e-05	0	55	0	16609443840	24	13606
2026-01-22 10:16:56.32	4.99	24.02	-26.0	-25.9	16.6	3.81e-05	0	55	0	16718495744	24	13601
2026-01-22 10:16:57.33	4.78	24.21	-26.0	-25.9	16.6	3.81e-05	0	54	0	16835936256	24	13555
2026-01-22 10:16:58.34	4.57	24.40	-25.8	-25.7	16.7	0.00e+00	0	54	0	16944988160	23	14074
2026-01-22 10:16:59.35	4.36	24.60	-25.7	-25.6	16.7	0.00e+00	0	54	0	17070817280	23	13931
2026-01-22 10:17:00.36	4.14	24.79	-25.6	-25.5	16.7	0.00e+00	0	54	0	17179869184	23	13737
2026-01-22 10:17:01.36	3.92	24.99	-25.7	-25.6	16.7	9.50e-06	0	54	0	17297309696	23	13825
2026-01-22 10:17:02.37	3.70	25.19	-25.5	-25.4	16.7	9.50e-06	0	54	0	17406361600	23	13624
2026-01-22 10:17:03.38	3.47	25.39	-25.3	-25.2	16.7	9.50e-06	0	54	0	17515413504	22	14107
2026-01-22 10:17:04.38	3.24	25.59	-25.2	-25.1	16.8	9.50e-06	0	54	0	17632854016	22	13903
2026-01-22 10:17:05.39	3.01	25.79	-25.3	-25.2	16.8	2.38e-05	0	54	0	17741905920	22	13951
2026-01-22 10:17:06.40	2.77	25.99	-25.1	-25.0	16.8	2.38e-05	0	54	0	17859346432	22	13701
2026-01-22 10:17:07.41	2.53	26.20	-25.2	-25.1	16.8	2.38e-05	0	54	0	17968398336	22	13875
2026-01-22 10:17:08.41	2.29	26.40	-25.1	-25.0	16.9	0.00e+00	0	54	0	18085838848	22	13658
2026-01-22 10:17:09.42	2.04	26.61	-24.8	-24.7	16.9	0.00e+00	0	55	0	18194890752	21	14079
2026-01-22 10:17:10.43	1.79	26.82	-24.9	-24.7	16.9	0.00e+00	0	54	0	18303942656	21	14111
2026-01-22 10:17:11.44	1.54	27.03	-25.0	-24.8	16.9	0.00e+00	0	54	0	18421383168	21	14259
2026-01-22 10:17:12.45	1.28	27.24	-24.8	-24.7	16.9	0.00e+00	0	54	0	18530435072	21	13960
2026-01-22 10:17:13.45	1.02	27.45	-24.8	-24.7	16.9	0.00e+00	0	54	0	18656264192	21	14018
2026-01-22 10:17:14.46	0.75	27.67	-24.7	-24.6	17.0	0.00e+00	0	54	0	18765316096	21	13894
2026-01-22 10:17:15.47	0.48	27.89	-24.6	-24.5	17.0	0.00e+00	0	54	0	18882756608	21	13758
2026-01-22 10:17:16.48	0.21	28.10	-24.6	-24.5	17.0	0.00e+00	0	54	0	18991808512	21	13674
2026-01-22 10:17:17.48	359.93	28.32	-24.5	-24.4	17.0	0.00e+00	0	54	0	19109249024	21	13499
2026-01-22 10:17:18.49	359.65	28.54	-24.3	-24.2	17.1	0.00e+00	0	54	0	19218300928	20	14057
2026-01-22 10:17:19.50	359.36	28.76	-24.4	-24.2	17.1	0.00e+00	0	54	0	19327352832	20	14098
2026-01-22 10:17:20.51	359.07	28.99	-24.3	-24.2	17.1	0.00e+00	0	54	0	19444793344	20	13999
2026-01-22 10:17:21.52	358.78	29.21	-24.3	-24.2	17.1	0.00e+00	0	54	0	19553845248	20	13981
2026-01-22 10:17:22.52	358.48	29.43	-24.3	-24.1	17.1	0.00e+00	0	54	0	19671285760	20	13935
2026-01-22 10:17:23.53	358.17	29.66	-24.0	-23.9	17.1	0.00e+00	0	54	0	19780337664	20	13502
2026-01-22 10:17:24.54	357.86	29.89	-24.0	-23.8	17.1	0.00e+00	0	54	0	19889389568	19	14258
2026-01-22 10:17:25.55	357.55	30.12	-24.0	-23.9	17.1	0.00e+00	0	54	0	20015218688	19	14327
2026-01-22 10:17:26.56	357.23	30.35	-24.1	-24.0	17.1	0.00e+00	0	55	0	20132659200	19	14444
2026-01-22 10:17:27.56	356.91	30.58	-23.9	-23.8	17.2	0.00e+00	0	54	0	20241711104	19	14239
2026-01-22 10:17:28.57	356.58	30.81	-23.9	-23.7	17.2	0.00e+00	0	54	0	20350763008	19	14101
2026-01-22 10:17:29.58	356.24	31.05	-23.6	-23.5	17.2	0.00e+00	0	54	0	20468203520	19	13700
2026-01-22 10:17:30.59	355.90	31.29	-23.7	-23.5	17.2	0.00e+00	0	55	0	20577255424	19	13764
2026-01-22 10:17:31.60	355.56	31.52	-23.7	-23.6	17.2	0.00e+00	0	54	0	20694695936	19	13819
2026-01-22 10:17:32.60	355.21	31.76	-23.4	-23.3	17.2	0.00e+00	0	54	0	20803747840	18	14160
2026-01-22 10:17:33.61	354.85	32.00	-23.5	-23.3	17.2	0.00e+00	0	55	0	20912799744	18	14253
2026-01-22 10:17:34.62	354.49	32.24	-23.4	-23.3	17.2	0.00e+00	0	54	0	21030240256	18	14195
2026-01-22 10:17:35.63	354.12	32.48	-23.3	-23.2	17.2	0.00e+00	0	55	0	21139292160	18	14061
2026-01-22 10:17:36.64	353.75	32.72	-23.1	-23.0	17.3	0.00e+00	0	54	0	21256732672	18	13720
2026-01-22 10:17:37.65	353.36	32.96	-23.2	-23.0	17.3	0.00e+00	0	54	0	21374173184	18	13767
2026-01-22 10:17:38.66	352.98	33.21	-23.0	-22.9	17.3	0.00e+00	0	54	0	21491613696	18	13537
2026-01-22 10:17:39.67	352.58	33.45	-22.9	-22.8	17.2	0.00e+00	0	54	0	21600665600	17	14116
2026-01-22 10:17:40.68	352.18	33.70	-22.8	-22.7	17.3	0.00e+00	0	54	0	21718106112	17	13989
2026-01-22 10:17:41.68	351.78	33.94	-22.9	-22.8	17.2	0.00e+00	0	54	0	21827158016	17	14132
2026-01-22 10:17:42.69	351.37	34.19	-22.8	-22.7	17.2	0.00e+00	0	54	0	21944598528	17	14025
2026-01-22 10:17:43.70	350.95	34.44	-22.6	-22.5	17.2	0.00e+00	0	54	0	22053650432	17	13707
2026-01-22 10:17:44.71	350.52	34.69	-22.7	-22.5	17.2	0.00e+00	0	54	0	22162702336	17	13781
2026-01-22 10:17:45.72	350.09	34.94	-22.7	-22.6	17.2	0.00e+00	0	54	0	22280142848	17	13869
2026-01-22 10:17:46.72	349.65	35.18	-22.5	-22.4	17.2	0.00e+00	0	54	0	22389194752	17	13544
2026-01-22 10:17:47.73	349.21	35.43	-22.3	-22.2	17.3	0.00e+00	0	54	0	22506635264	16	14056
2026-01-22 10:17:48.74	348.75	35.68	-22.3	-22.1	17.3	0.00e+00	0	54	0	22615687168	16	13950
2026-01-22 10:17:49.75	348.29	35.94	-22.1	-22.0	17.3	0.00e+00	0	54	0	22741516288	16	13714
2026-01-22 10:17:50.76	347.82	36.19	-22.1	-22.0	17.3	0.00e+00	0	54	0	22850568192	16	13744
2026-01-22 10:17:51.76	347.34	36.43	-22.1	-22.0	17.3	0.00e+00	0	54	0	22968008704	16	13724
2026-01-22 10:17:52.77	346.86	36.69	-22.0	-21.9	17.3	0.00e+00	0	54	0	23077060608	16	13555
2026-01-22 10:17:53.78	346.36	36.94	-22.0	-21.9	17.3	0.00e+00	0	54	0	23186112512	16	13575
2026-01-22 10:17:54.79	345.86	37.19	-22.0	-21.9	17.3	0.00e+00	0	55	0	23303553024	16	13524
2026-01-22 10:17:55.80	345.35	37.44	-21.7	-21.6	17.3	0.00e+00	0	54	0	23412604928	15	13889
2026-01-22 10:17:56.81	344.83	37.69	-21.7	-21.6	17.3	0.00e+00	0	54	0	23530045440	15	13897
2026-01-22 10:17:57.81	344.31	37.94	-21.7	-21.6	17.3	0.00e+00	0	54	0	23639097344	15	13824
2026-01-22 10:17:58.82	343.77	38.18	-21.6	-21.5	17.3	0.00e+00	0	54	0	23748149248	15	13715
2026-01-22 10:17:59.83	343.23	38.43	-21.6	-21.5	17.3	0.00e+00	0	54	0	23865589760	15	13659
2026-01-22 10:18:00.82	342.68	38.68	-21.4	-21.2	17.3	0.00e+00	0	54	0	23974641664	14	14084
2026-01-22 10:18:01.83	342.12	38.92	-21.3	-21.2	17.3	0.00e+00	0	54	0	24092082176	14	14039
2026-01-22 10:18:02.84	341.55	39.17	-21.4	-21.3	17.3	0.00e+00	0	54	0	24201134080	14	14112
2026-01-22 10:18:03.84	340.98	39.41	-21.1	-21.0	17.4	0.00e+00	0	54	0	24318574592	14	13742
2026-01-22 10:18:04.85	340.39	39.65	-21.2	-21.1	17.3	0.00e+00	0	54	0	24436015104	14	13794
2026-01-22 10:18:05.86	339.79	39.90	-21.0	-20.9	17.4	0.00e+00	0	54	0	24553455616	14	13485
2026-01-22 10:18:06.87	339.18	40.14	-21.1	-20.9	17.3	0.00e+00	0	54	0	24662507520	14	13616
2026-01-22 10:18:07.88	338.56	40.37	-21.0	-20.9	17.3	0.00e+00	0	54	0	24771559424	14	13526
2026-01-22 10:18:08.88	337.94	40.61	-20.9	-20.8	17.3	0.00e+00	0	54	0	24888999936	13	14190
2026-01-22 10:18:09.89	337.30	40.84	-21.0	-20.8	17.3	0.00e+00	0	54	0	24998051840	13	14224
2026-01-22 10:18:10.90	336.65	41.08	-20.9	-20.7	17.3	0.00e+00	0	54	0	25115492352	13	14065
2026-01-22 10:18:11.91	336.00	41.31	-20.8	-20.6	17.3	0.00e+00	0	54	0	25224544256	13	13922
2026-01-22 10:18:12.91	335.34	41.53	-20.8	-20.7	17.3	0.00e+00	0	54	0	25341984768	13	13959
2026-01-22 10:18:13.92	334.66	41.76	-20.7	-20.6	17.3	0.00e+00	0	54	0	25451036672	13	13883
2026-01-22 10:18:14.93	333.97	41.98	-20.7	-20.6	17.3	0.00e+00	0	54	0	25560088576	13	13845
2026-01-22 10:18:15.94	333.28	42.20	-20.7	-20.6	17.3	0.00e+00	0	54	0	25677529088	13	13831
2026-01-22 10:18:16.94	332.58	42.41	-20.6	-20.4	17.3	0.00e+00	0	54	0	25786580992	13	13597
2026-01-22 10:18:17.95	331.86	42.62	-20.6	-20.5	17.3	0.00e+00	0	54	0	25912410112	13	13642
2026-01-22 10:18:18.96	331.14	42.83	-20.6	-20.5	17.3	0.00e+00	0	54	0	26021462016	13	13729
2026-01-22 10:18:19.97	330.40	43.04	-20.7	-20.5	17.3	0.00e+00	0	54	0	26138902528	13	13760
2026-01-22 10:18:20.98	329.66	43.24	-20.4	-20.2	17.3	0.00e+00	0	54	0	26247954432	12	14111
2026-01-22 10:18:21.99	328.90	43.43	-20.4	-20.3	17.3	0.00e+00	0	55	0	26365394944	12	14144
2026-01-22 10:18:22.99	328.14	43.63	-20.4	-20.2	17.3	0.00e+00	0	54	0	26474446848	12	14049
2026-01-22 10:18:24.00	327.37	43.81	-20.3	-20.2	17.3	0.00e+00	0	54	0	26583498752	12	13972
2026-01-22 10:18:25.01	326.58	44.00	-20.3	-20.1	17.3	0.00e+00	0	55	0	26700939264	12	13947
2026-01-22 10:18:26.01	325.80	44.17	-20.2	-20.1	17.3	0.00e+00	0	55	0	26809991168	12	13824
2026-01-22 10:18:27.02	325.00	44.35	-20.2	-20.1	17.3	0.00e+00	0	55	0	26927431680	12	13827
2026-01-22 10:18:28.03	324.19	44.51	-20.3	-20.1	17.3	0.00e+00	0	54	0	27036483584	12	13908
2026-01-22 10:18:29.04	323.37	44.68	-20.2	-20.0	17.3	0.00e+00	0	54	0	27145535488	12	13785
2026-01-22 10:18:30.05	322.54	44.83	-20.2	-20.1	17.3	0.00e+00	0	55	0	27271364608	12	13834
2026-01-22 10:18:31.05	321.71	44.98	-20.1	-19.9	17.3	0.00e+00	0	54	0	27388805120	12	13631
2026-01-22 10:18:32.06	320.86	45.13	-20.0	-19.8	17.2	0.00e+00	0	55	0	27497857024	12	13471
2026-01-22 10:18:33.07	320.01	45.27	-19.5	-20.0	17.3	0.00e+00	0	54	0	27606908928	11	14515
2026-01-22 10:18:34.08	319.15	45.40	-20.1	-20.0	17.2	0.00e+00	0	54	0	27724349440	11	14520
2026-01-22 10:18:35.08	318.29	45.52	-20.4	-20.2	17.2	0.00e+00	0	54	0	27833401344	11	14916
2026-01-22 10:18:36.09	317.42	45.64	-20.3	-20.1	17.2	0.00e+00	0	54	0	27950841856	11	14719
2026-01-22 10:18:37.10	316.53	45.76	-20.1	-19.9	17.3	0.00e+00	0	54	0	28059893760	11	14420
2026-01-22 10:18:38.11	315.65	45.86	-20.0	-19.9	17.3	0.00e+00	0	54	0	28177334272	11	14346
2026-01-22 10:18:39.12	314.75	45.96	-20.1	-19.9	17.3	0.00e+00	0	54	0	28286386176	11	14418
2026-01-22 10:18:40.13	313.85	46.05	-20.0	-19.9	17.3	0.00e+00	0	54	0	28395438080	11	14318
2026-01-22 10:18:41.14	312.95	46.13	-20.1	-19.9	17.3	0.00e+00	0	54	0	28512878592	11	14416
2026-01-22 10:18:42.14	312.05	46.21	-20.0	-19.9	17.3	0.00e+00	0	54	0	28621930496	11	14329
2026-01-22 10:18:43.15	311.13	46.28	-20.1	-20.0	17.3	0.00e+00	0	54	0	28747759616	11	14446
2026-01-22 10:18:44.16	310.22	46.34	-20.0	-19.9	17.3	0.00e+00	0	55	0	28856811520	11	14356
2026-01-22 10:18:45.17	309.30	46.39	-20.1	-19.9	17.3	0.00e+00	0	54	0	28974252032	11	14389
2026-01-22 10:18:46.18	308.37	46.44	-20.0	-19.8	17.4	0.00e+00	0	54	0	29083303936	11	14222
2026-01-22 10:18:47.18	307.45	46.47	-20.0	-19.9	17.4	0.00e+00	0	54	0	29200744448	11	14307
2026-01-22 10:18:48.19	306.52	46.50	-20.0	-19.9	17.4	0.00e+00	0	54	0	29309796352	11	14293
2026-01-22 10:18:49.20	305.59	46.52	-20.0	-19.8	17.4	0.00e+00	0	54	0	29418848256	11	14263
2026-01-22 10:18:50.21	304.66	46.54	-19.8	-19.7	17.4	0.00e+00	0	54	0	29536288768	11	14062
2026-01-22 10:18:51.22	303.73	46.54	-19.9	-19.7	17.5	0.00e+00	0	54	0	29645340672	11	14110
2026-01-22 10:18:52.22	302.81	46.54	-20.0	-19.8	17.5	0.00e+00	0	54	0	29762781184	11	14238
2026-01-22 10:18:53.23	301.88	46.53	-19.9	-19.8	17.5	0.00e+00	0	54	0	29871833088	11	14219
2026-01-22 10:18:54.24	300.95	46.51	-19.9	-19.7	17.5	0.00e+00	0	54	0	29980884992	11	14066
2026-01-22 10:18:55.25	300.02	46.48	-19.9	-19.7	17.5	0.00e+00	0	54	0	30106714112	11	14087
2026-01-22 10:18:56.26	299.09	46.45	-19.9	-19.8	17.5	0.00e+00	0	54	0	30224154624	11	14151
2026-01-22 10:18:57.26	298.17	46.40	-19.8	-19.7	17.5	0.00e+00	0	54	0	30333206528	11	14063
2026-01-22 10:18:58.27	297.25	46.35	-19.9	-19.8	17.5	0.00e+00	0	55	0	30442258432	11	14152
2026-01-22 10:18:59.28	296.33	46.29	-19.9	-19.7	17.5	0.00e+00	0	55	0	30559698944	11	14097
2026-01-22 10:19:00.29	295.42	46.23	-20.0	-19.9	17.5	0.00e+00	0	54	0	30668750848	11	14350
2026-01-22 10:19:01.30	294.50	46.15	-20.0	-19.9	17.5	0.00e+00	0	54	0	30786191360	11	14330
2026-01-22 10:19:02.30	293.61	46.07	-20.0	-19.9	17.6	0.00e+00	0	54	0	30895243264	11	14288
2026-01-22 10:19:03.31	292.70	45.98	-20.0	-19.9	17.6	0.00e+00	0	54	0	31004295168	11	14327
2026-01-22 10:19:04.32	291.81	45.89	-20.1	-20.0	17.5	0.00e+00	0	55	0	31121735680	11	14451
2026-01-22 10:19:05.33	290.92	45.78	-20.0	-19.9	17.5	0.00e+00	0	54	0	31230787584	11	14361
2026-01-22 10:19:06.34	290.03	45.67	-20.2	-20.0	17.5	0.00e+00	0	54	0	31348228096	11	14578
2026-01-22 10:19:07.34	289.17	45.56	-20.1	-20.0	17.5	0.00e+00	0	54	0	31457280000	11	14548
2026-01-22 10:19:08.35	288.29	45.43	-20.2	-20.1	17.5	0.00e+00	0	54	0	31583109120	11	14632
2026-01-22 10:19:09.36	287.43	45.30	-20.2	-20.0	17.4	0.00e+00	0	54	0	31692161024	11	14578
2026-01-22 10:19:10.37	286.58	45.16	-20.2	-20.1	17.4	0.00e+00	0	54	0	31809601536	11	14707
2026-01-22 10:19:11.38	285.73	45.02	-20.2	-20.0	17.4	0.00e+00	0	54	0	31918653440	11	14592
2026-01-22 10:19:12.38	284.90	44.87	-20.3	-20.1	17.4	0.00e+00	0	54	0	32036093952	11	14746
2026-01-22 10:19:13.39	284.06	44.72	-20.4	-20.2	17.4	0.00e+00	0	54	0	32145145856	11	14913
2026-01-22 10:19:14.40	283.24	44.55	-20.4	-20.2	17.3	0.00e+00	0	54	0	32254197760	11	14911
2026-01-22 10:19:15.41	282.43	44.39	-20.4	-20.3	17.3	0.00e+00	0	54	0	32371638272	11	15071
2026-01-22 10:19:16.42	281.62	44.22	-20.5	-20.3	17.3	0.00e+00	0	54	0	32480690176	11	15091
2026-01-22 10:19:17.42	280.83	44.04	-20.4	-20.3	17.3	0.00e+00	0	54	0	32598130688	11	15047
2026-01-22 10:19:18.43	280.04	43.86	-20.5	-20.4	17.3	0.00e+00	0	54	0	32707182592	11	15142
2026-01-22 10:19:19.44	279.27	43.67	-20.5	-20.4	17.3	0.00e+00	0	54	0	32816234496	11	15182
2026-01-22 10:19:20.44	278.51	43.48	-20.5	-20.3	17.3	0.00e+00	0	54	0	32933675008	11	15108
2026-01-22 10:19:21.45	277.75	43.28	-20.5	-20.4	17.3	0.00e+00	0	54	0	33059504128	11	15190
2026-01-22 10:19:22.46	277.00	43.08	-20.7	-20.5	17.3	0.00e+00	0	54	0	33168556032	11	15452
2026-01-22 10:19:23.47	276.26	42.88	-20.6	-20.4	17.3	0.00e+00	0	54	0	33277607936	11	15276
2026-01-22 10:19:24.48	275.53	42.67	-20.6	-20.4	17.4	0.00e+00	0	54	0	33395048448	11	15276
2026-01-22 10:19:25.48	274.82	42.46	-20.6	-20.5	17.4	0.00e+00	0	54	0	33504100352	11	15409
2026-01-22 10:19:26.49	274.11	42.25	-20.6	-20.5	17.4	0.00e+00	0	54	0	33621540864	12	14491
2026-01-22 10:19:27.50	273.41	42.03	-20.6	-20.5	17.4	0.00e+00	0	54	0	33730592768	12	14536
2026-01-22 10:19:28.51	272.72	41.81	-20.7	-20.6	17.4	0.00e+00	0	54	0	33839644672	12	14611
2026-01-22 10:19:29.52	272.04	41.58	-20.6	-20.5	17.4	0.00e+00	0	54	0	33957085184	12	14547
2026-01-22 10:19:30.52	271.37	41.36	-20.8	-20.7	17.4	0.00e+00	0	54	0	34066137088	12	14892
2026-01-22 10:19:31.53	270.71	41.13	-20.8	-20.7	17.5	0.00e+00	0	54	0	34183577600	12	14908
2026-01-22 10:19:32.54	270.06	40.89	-20.8	-20.7	17.5	0.00e+00	0	54	0	34292629504	12	14870
2026-01-22 10:19:33.55	269.42	40.66	-21.0	-20.8	17.5	0.00e+00	0	54	0	34418458624	12	15109
2026-01-22 10:19:34.56	268.79	40.42	-21.0	-20.8	17.5	0.00e+00	0	54	0	34527510528	12	15097
2026-01-22 10:19:35.56	268.17	40.18	-20.9	-20.8	17.5	0.00e+00	0	54	0	34644951040	12	15070
2026-01-22 10:19:36.57	267.56	39.94	-21.0	-20.9	17.5	0.00e+00	0	54	0	34754002944	12	15188
2026-01-22 10:19:37.58	266.96	39.70	-21.2	-21.1	17.5	0.00e+00	0	54	0	34863054848	12	15501
2026-01-22 10:19:38.59	266.36	39.46	-21.1	-21.0	17.5	0.00e+00	0	54	0	34980495360	12	15320
2026-01-22 10:19:39.59	265.78	39.22	-21.3	-21.1	17.5	0.00e+00	0	54	0	35089547264	13	14765
2026-01-22 10:19:40.60	265.21	38.97	-21.4	-21.3	17.5	0.00e+00	0	54	0	35206987776	13	14958
2026-01-22 10:19:41.61	264.64	38.72	-21.5	-21.3	17.5	0.00e+00	0	54	0	35316039680	13	15100
2026-01-22 10:19:42.62	264.09	38.47	-21.5	-21.3	17.6	0.00e+00	0	54	0	35433480192	13	15112
2026-01-22 10:19:43.63	263.54	38.22	-21.6	-21.5	17.5	0.00e+00	0	54	0	35542532096	13	15384
2026-01-22 10:19:44.63	263.00	37.98	-21.7	-21.6	17.6	0.00e+00	0	54	0	35651584000	14	14616
2026-01-22 10:19:45.64	262.47	37.73	-21.6	-21.5	17.6	0.00e+00	0	54	0	35769024512	14	14531
2026-01-22 10:19:46.65	261.95	37.48	-21.7	-21.6	17.6	0.00e+00	0	54	0	35894853632	14	14697
2026-01-22 10:19:47.66	261.44	37.22	-21.8	-21.7	17.6	0.00e+00	0	54	0	36003905536	14	14842
2026-01-22 10:19:48.66	260.94	36.98	-21.9	-21.8	17.6	0.00e+00	0	55	0	36112957440	14	15013
2026-01-22 10:19:49.67	260.44	36.72	-21.9	-21.8	17.6	0.00e+00	0	55	0	36230397952	14	14991
2026-01-22 10:19:50.68	259.95	36.47	-22.0	-21.9	17.6	0.00e+00	0	55	0	36339449856	14	15231
2026-01-22 10:19:51.69	259.47	36.22	-22.1	-22.0	17.5	0.00e+00	0	55	0	36456890368	14	15369
2026-01-22 10:19:52.70	259.00	35.97	-22.1	-22.0	17.5	0.00e+00	0	54	0	36565942272	14	15415
2026-01-22 10:19:53.70	258.53	35.72	-22.2	-22.0	17.5	0.00e+00	0	54	0	36674994176	14	15470
2026-01-22 10:19:54.71	258.08	35.47	-22.1	-22.0	17.6	0.00e+00	0	54	0	36792434688	14	15383
2026-01-22 10:19:55.72	257.63	35.22	-22.3	-22.2	17.6	0.00e+00	0	54	0	36901486592	15	14857
2026-01-22 10:19:56.73	257.18	34.97	-22.4	-22.2	17.5	0.00e+00	0	55	0	37018927104	15	14930
2026-01-22 10:19:57.74	256.75	34.72	-22.5	-22.4	17.5	0.00e+00	0	54	0	37127979008	15	15124
2026-01-22 10:19:58.75	256.32	34.47	-22.5	-22.4	17.5	0.00e+00	0	54	0	37253808128	15	15213
2026-01-22 10:19:59.76	255.89	34.22	-22.6	-22.4	17.5	0.00e+00	0	54	0	37362860032	15	15272
2026-01-22 10:20:00.76	255.48	33.97	-22.7	-22.5	17.5	0.00e+00	0	54	0	37480300544	15	15431
2026-01-22 10:20:01.77	255.07	33.72	-22.8	-22.7	17.5	0.00e+00	0	54	0	37589352448	16	14804
2026-01-22 10:20:02.78	254.67	33.48	-22.9	-22.8	17.5	0.00e+00	0	54	0	37698404352	16	14985
2026-01-22 10:20:03.78	254.28	33.23	-22.9	-22.7	17.5	0.00e+00	0	54	0	37815844864	16	14940
2026-01-22 10:20:04.79	253.89	32.99	-23.0	-22.9	17.5	0.00e+00	0	54	0	37924896768	16	15155
2026-01-22 10:20:05.80	253.51	32.74	-23.1	-23.0	17.5	0.00e+00	0	55	0	38042337280	16	15385
2026-01-22 10:20:06.81	253.13	32.50	-23.3	-23.1	17.5	0.00e+00	0	54	0	38151389184	17	14740
2026-01-22 10:20:07.82	252.76	32.26	-23.5	-23.3	17.4	0.00e+00	0	54	0	38260441088	17	15120
2026-01-22 10:20:08.83	252.39	32.02	-23.8	-23.7	17.4	0.00e+00	0	55	0	38377881600	18	14847
2026-01-22 10:20:09.84	252.04	31.78	-23.4	-23.3	17.5	0.00e+00	0	54	0	38486933504	18	14216
2026-01-22 10:20:10.84	251.69	31.54	-23.7	-23.5	17.4	0.00e+00	0	55	0	38604374016	18	14563
2026-01-22 10:20:11.85	251.34	31.30	-23.6	-23.5	17.4	0.00e+00	0	54	0	38721814528	18	14561
2026-01-22 10:20:12.86	250.99	31.06	-23.6	-23.5	17.4	0.00e+00	0	55	0	38839255040	18	14469
2026-01-22 10:20:13.87	250.66	30.83	-23.7	-23.6	17.4	0.00e+00	0	54	0	38948306944	18	14717
2026-01-22 10:20:14.88	250.33	30.59	-23.8	-23.7	17.4	0.00e+00	0	54	0	39065747456	18	14883
2026-01-22 10:20:15.88	250.00	30.36	-23.9	-23.8	17.3	0.00e+00	0	54	0	39174799360	18	14964
2026-01-22 10:20:16.89	249.68	30.13	-24.0	-23.9	17.3	0.00e+00	0	54	0	39292239872	18	15239
2026-01-22 10:20:17.90	249.36	29.90	-24.1	-23.9	17.3	0.00e+00	0	54	0	39401291776	18	15295
2026-01-22 10:20:18.91	249.05	29.67	-24.1	-24.0	17.2	0.00e+00	0	54	0	39510343680	18	15335
2026-01-22 10:20:19.92	248.75	29.44	-24.3	-24.2	17.2	0.00e+00	0	55	0	39627784192	19	14786
2026-01-22 10:20:20.92	248.45	29.22	-24.3	-24.2	17.2	0.00e+00	0	54	0	39736836096	19	14790
2026-01-22 10:20:21.93	248.15	28.99	-24.3	-24.2	17.2	0.00e+00	0	54	0	39854276608	19	14847
2026-01-22 10:20:22.94	247.85	28.77	-24.4	-24.3	17.2	0.00e+00	0	54	0	39963328512	19	15015
2026-01-22 10:20:23.95	247.57	28.54	-24.5	-24.4	17.1	4.70e-06	0	54	0	40089157632	19	15205
2026-01-22 10:20:24.96	247.28	28.32	-24.6	-24.5	17.1	4.70e-06	0	54	0	40198209536	19	15301
2026-01-22 10:20:25.96	247.00	28.10	-24.7	-24.6	17.1	4.70e-06	0	55	0	40315650048	19	15506
2026-01-22 10:20:26.97	246.73	27.88	-24.7	-24.6	17.1	0.00e+00	0	54	0	40424701952	20	14675
2026-01-22 10:20:27.98	246.46	27.67	-24.8	-24.7	17.0	0.00e+00	0	55	0	40533753856	20	14864
2026-01-22 10:20:28.99	246.19	27.45	-24.8	-24.7	17.0	0.00e+00	0	54	0	40651194368	20	14885
2026-01-22 10:20:30.00	245.92	27.24	-24.9	-24.8	17.0	0.00e+00	0	54	0	40760246272	20	15028
2026-01-22 10:20:31.00	245.67	27.02	-25.1	-24.9	17.0	0.00e+00	0	54	0	40877686784	20	15294
2026-01-22 10:20:32.01	245.41	26.81	-25.1	-25.0	17.0	9.50e-06	0	54	0	40986738688	20	15423
2026-01-22 10:20:33.02	245.16	26.60	-25.3	-25.1	17.0	9.50e-06	0	54	0	41095790592	21	14774
2026-01-22 10:20:34.03	244.91	26.39	-25.3	-25.2	16.9	0.00e+00	0	54	0	41213231104	21	14802
2026-01-22 10:20:35.04	244.66	26.19	-25.3	-25.2	16.9	0.00e+00	0	54	0	41322283008	21	14795
2026-01-22 10:20:36.04	244.43	25.98	-25.4	-25.2	16.9	0.00e+00	0	54	0	41439723520	21	14927
2026-01-22 10:20:37.05	244.19	25.78	-25.4	-25.2	16.9	1.43e-05	0	55	0	41557164032	21	14934
2026-01-22 10:20:38.06	243.95	25.57	-25.5	-25.4	16.8	1.43e-05	0	54	0	41674604544	21	15169
2026-01-22 10:20:39.07	243.72	25.37	-25.6	-25.4	16.8	1.43e-05	0	55	0	41783656448	21	15274
2026-01-22 10:20:40.08	243.49	25.17	-25.5	-25.4	16.9	0.00e+00	0	54	0	41901096960	21	15184
2026-01-22 10:20:41.09	243.27	24.97	-25.7	-25.6	16.8	0.00e+00	0	54	0	42010148864	21	15500
2026-01-22 10:20:42.09	243.05	24.77	-25.9	-25.8	16.7	0.00e+00	0	54	0	42119200768	22	15062
2026-01-22 10:20:43.10	242.83	24.58	-25.8	-25.7	16.8	9.50e-06	0	54	0	42236641280	22	14885
2026-01-22 10:20:44.11	242.61	24.38	-26.0	-25.9	16.7	9.50e-06	0	54	0	42345693184	22	15125
2026-01-22 10:20:45.12	242.40	24.19	-26.0	-25.9	16.7	9.50e-06	0	54	0	42463133696	22	15138
2026-01-22 10:20:46.12	242.19	24.00	-26.1	-26.0	16.7	4.70e-06	0	55	0	42572185600	22	15310
2026-01-22 10:20:47.13	241.99	23.81	-26.1	-26.0	16.7	4.70e-06	0	55	0	42689626112	22	15342
2026-01-22 10:20:48.14	241.78	23.62	-26.1	-26.0	16.7	1.90e-05	0	55	0	42798678016	22	15412
2026-01-22 10:20:49.15	241.58	23.43	-26.1	-26.0	16.7	1.90e-05	0	54	0	42924507136	22	15328
2026-01-22 10:20:50.16	241.38	23.24	-26.2	-26.0	16.7	1.90e-05	0	54	0	43033559040	23	14583
2026-01-22 10:20:51.16	241.19	23.05	-26.2	-26.1	16.7	4.70e-06	0	55	0	43150999552	23	14674
2026-01-22 10:20:52.17	240.99	22.87	-26.3	-26.2	16.7	4.70e-06	0	54	0	43260051456	23	14789
2026-01-22 10:20:53.18	240.80	22.69	-26.4	-26.2	16.6	9.50e-06	0	55	0	43369103360	23	14925
2026-01-22 10:20:54.19	240.61	22.50	-26.3	-26.2	16.7	9.50e-06	0	55	0	43486543872	23	14785
2026-01-22 10:20:55.20	240.43	22.32	-26.4	-26.3	16.6	9.50e-06	0	55	0	43595595776	23	14982
2026-01-22 10:20:56.21	240.24	22.14	-26.5	-26.4	16.6	2.38e-05	0	55	0	43713036288	23	15122
2026-01-22 10:20:57.21	240.07	21.97	-26.5	-26.3	16.6	2.38e-05	0	54	0	43822088192	23	15120
2026-01-22 10:20:58.22	239.89	21.79	-26.6	-26.5	16.6	2.38e-05	0	55	0	43931140096	23	15402
2026-01-22 10:20:59.23	239.71	21.61	-26.6	-26.5	16.6	2.38e-05	0	54	0	44048580608	23	15319
2026-01-22 10:21:00.24	239.54	21.44	-26.7	-26.6	16.6	4.29e-05	0	55	0	44157632512	24	14646
2026-01-22 10:21:01.25	239.36	21.27	-26.8	-26.7	16.6	4.29e-05	0	54	0	44283461632	24	14802
2026-01-22 10:21:02.26	239.19	21.09	-26.9	-26.8	16.5	4.29e-05	0	54	0	44392513536	24	14970
2026-01-22 10:21:03.26	239.03	20.93	-27.0	-26.8	16.5	4.29e-05	0	54	0	44509954048	24	15104
2026-01-22 10:21:04.27	238.86	20.76	-26.9	-26.8	16.5	4.29e-05	0	55	0	44619005952	24	14968
2026-01-22 10:21:05.28	238.70	20.59	-27.0	-26.9	16.5	4.76e-05	0	54	0	44736446464	24	15127
2026-01-22 10:21:06.29	238.54	20.42	-27.0	-26.9	16.5	4.76e-05	0	54	0	44845498368	24	15181
2026-01-22 10:21:07.30	238.38	20.25	-27.1	-26.9	16.5	4.76e-05	0	55	0	44954550272	24	15295
2026-01-22 10:21:08.31	238.22	20.09	-27.2	-27.1	16.5	5.24e-05	0	55	0	45071990784	24	15494
2026-01-22 10:21:09.32	238.07	19.92	-27.4	-27.3	16.4	5.24e-05	0	55	0	45181042688	25	14979
2026-01-22 10:21:10.33	237.91	19.76	-27.4	-27.3	16.5	5.24e-05	0	54	0	45298483200	25	14954
2026-01-22 10:21:11.34	237.76	19.60	-27.6	-27.4	16.4	5.24e-05	0	55	0	45407535104	25	15282
2026-01-22 10:21:12.34	237.61	19.44	-27.6	-27.5	16.4	9.05e-05	0	55	0	45516587008	25	15418
2026-01-22 10:21:13.35	237.47	19.28	-27.8	-27.7	16.3	9.05e-05	0	54	0	45642416128	26	14841
2026-01-22 10:21:14.36	237.32	19.12	-27.9	-27.8	16.3	9.05e-05	0	54	0	45759856640	26	15025
2026-01-22 10:21:15.37	237.17	18.97	-28.0	-27.8	16.3	1.48e-04	0	55	0	45868908544	26	15091
2026-01-22 10:21:16.38	237.03	18.81	-28.1	-28.0	16.3	1.48e-04	0	55	0	45977960448	26	15305
2026-01-22 10:21:17.39	236.89	18.65	-28.1	-28.0	16.2	1.48e-04	0	55	0	46095400960	26	15384
2026-01-22 10:21:18.39	236.75	18.50	-28.3	-28.2	16.2	2.38e-04	0	55	0	46204452864	27	14842
2026-01-22 10:21:19.40	236.62	18.35	-28.4	-28.2	16.2	2.38e-04	0	55	0	46321893376	27	14934
2026-01-22 10:21:20.41	236.48	18.20	-28.4	-28.3	16.1	2.38e-04	0	55	0	46430945280	27	15103
2026-01-22 10:21:21.42	236.35	18.05	-28.6	-28.5	16.0	3.53e-04	0	55	0	46548385792	27	15316
2026-01-22 10:21:22.42	236.21	17.90	-28.6	-28.5	16.0	3.53e-04	0	55	0	46657437696	27	15366
2026-01-22 10:21:23.43	236.08	17.75	-28.7	-28.6	16.0	3.53e-04	0	55	0	46766489600	27	15493
2026-01-22 10:21:24.44	235.95	17.60	-28.7	-28.6	15.9	4.67e-04	0	55	0	46883930112	28	14683
2026-01-22 10:21:25.45	235.82	17.45	-28.8	-28.7	15.9	4.67e-04	0	55	0	47001370624	28	14893
2026-01-22 10:21:26.46	235.70	17.31	-28.9	-28.8	15.9	4.67e-04	0	55	0	47118811136	28	14970
2026-01-22 10:21:27.46	235.57	17.16	-29.0	-28.9	15.8	4.67e-04	0	55	0	47227863040	28	15251
2026-01-22 10:21:28.47	235.45	17.02	-29.2	-29.1	15.8	6.25e-04	0	55	0	47345303552	28	15523
2026-01-22 10:21:29.48	235.33	16.88	-29.3	-29.2	15.7	6.25e-04	0	55	0	47454355456	29	14915
2026-01-22 10:21:30.49	235.20	16.73	-29.5	-29.4	15.7	6.25e-04	0	55	0	47571795968	29	15176
2026-01-22 10:21:31.50	235.08	16.59	-29.6	-29.4	15.7	1.04e-03	0	55	0	47680847872	29	15278
2026-01-22 10:21:32.51	234.97	16.45	-29.6	-29.5	15.7	1.04e-03	0	55	0	47789899776	29	15332
2026-01-22 10:21:33.52	234.85	16.31	-29.8	-29.7	15.6	1.39e-03	0	55	0	47907340288	30	14840
2026-01-22 10:21:34.53	234.73	16.18	-29.8	-29.7	15.6	1.39e-03	0	55	0	48016392192	30	14869
2026-01-22 10:21:35.54	234.62	16.04	-29.9	-29.8	15.6	1.39e-03	0	55	0	48133832704	30	15035
2026-01-22 10:21:36.54	234.51	15.90	-29.8	-29.7	15.6	1.39e-03	0	55	0	48242884608	30	14919
2026-01-22 10:21:37.55	234.39	15.77	-29.8	-29.7	15.7	1.52e-03	0	55	0	48368713728	30	14866
2026-01-22 10:21:38.56	234.28	15.63	-29.9	-29.8	15.6	1.52e-03	0	55	0	48477765632	30	15070
2026-01-22 10:21:39.57	234.17	15.50	-29.9	-29.8	15.6	1.52e-03	0	55	0	48595206144	30	15081
2026-01-22 10:21:40.58	234.06	15.36	-29.9	-29.8	15.6	1.64e-03	0	55	0	48704258048	30	15016
2026-01-22 10:21:41.59	233.96	15.23	-30.0	-29.9	15.6	1.64e-03	0	55	0	48813309952	30	15252
2026-01-22 10:21:42.60	233.85	15.10	-30.0	-29.9	15.6	1.64e-03	0	55	0	48930750464	30	15267
2026-01-22 10:21:43.61	233.75	14.97	-30.2	-30.1	15.5	2.12e-03	0	55	0	49039802368	30	15606
2026-01-22 10:21:44.61	233.64	14.84	-30.3	-30.2	15.5	2.12e-03	0	55	0	49157242880	31	14825
2026-01-22 10:21:45.62	233.54	14.71	-30.2	-30.1	15.5	2.12e-03	0	55	0	49266294784	31	14723
2026-01-22 10:21:46.63	233.44	14.58	-30.3	-30.2	15.5	2.45e-03	0	55	0	49375346688	31	14881
2026-01-22 10:21:47.64	233.34	14.46	-30.3	-30.2	15.5	2.45e-03	0	55	0	49492787200	31	14787
2026-01-22 10:21:48.65	233.24	14.33	-30.4	-30.3	15.4	2.45e-03	0	55	0	49618616320	31	14969
2026-01-22 10:21:49.66	233.14	14.20	-30.4	-30.3	15.4	2.93e-03	0	55	0	49727668224	31	15075
2026-01-22 10:21:50.66	233.04	14.08	-30.5	-30.4	15.4	2.93e-03	0	55	0	49836720128	31	15261
2026-01-22 10:21:51.67	232.94	13.95	-30.5	-30.4	15.4	2.93e-03	0	55	0	49954160640	31	15216
2026-01-22 10:21:52.68	232.85	13.83	-30.6	-30.5	15.3	2.93e-03	0	55	0	50063212544	31	15325
2026-01-22 10:21:53.69	232.75	13.71	-30.7	-30.6	15.3	3.12e-03	0	55	0	50180653056	31	15524
2026-01-22 10:21:54.70	232.66	13.59	-30.5	-30.4	15.3	3.12e-03	0	55	0	50289704960	32	14434
2026-01-22 10:21:55.70	232.57	13.47	-30.7	-30.6	15.3	3.12e-03	0	55	0	50398756864	32	14637
2026-01-22 10:21:56.71	232.48	13.34	-30.7	-30.6	15.2	3.60e-03	0	55	0	50516197376	32	14749
2026-01-22 10:21:57.72	232.38	13.22	-30.8	-30.7	15.2	3.60e-03	0	55	0	50625249280	32	14781
2026-01-22 10:21:58.73	232.29	13.10	-30.6	-30.5	15.3	4.13e-03	0	55	0	50742689792	32	14558
2026-01-22 10:21:59.74	232.20	12.99	-30.8	-30.7	15.2	4.13e-03	0	55	0	50851741696	32	14845
2026-01-22 10:22:00.74	232.12	12.87	-30.8	-30.7	15.2	4.02e-03	0	55	0	50969182208	32	14873
2026-01-22 10:22:01.75	232.03	12.75	-31.0	-30.9	15.1	4.02e-03	0	55	0	51086622720	32	15132
2026-01-22 10:22:02.76	231.94	12.64	-30.9	-30.9	15.1	4.02e-03	0	55	0	51204063232	32	15139
2026-01-22 10:22:03.77	231.86	12.52	-31.1	-31.0	15.0	5.11e-03	0	55	0	51313115136	32	15354
2026-01-22 10:22:04.78	231.77	12.40	-31.0	-30.9	15.1	5.11e-03	0	55	0	51430555648	32	15215
2026-01-22 10:22:05.79	231.69	12.29	-31.1	-31.0	15.0	5.11e-03	0	55	0	51539607552	32	15461
2026-01-22 10:22:06.79	231.61	12.18	-31.3	-31.2	15.0	6.14e-03	0	55	0	51648659456	33	14839
2026-01-22 10:22:07.80	231.52	12.06	-31.3	-31.2	15.0	6.14e-03	0	55	0	51766099968	33	14801
2026-01-22 10:22:08.81	231.44	11.95	-31.3	-31.2	15.0	6.14e-03	0	55	0	51875151872	33	14856
2026-01-22 10:22:09.82	231.36	11.84	-31.4	-31.3	14.9	6.49e-03	0	55	0	51992592384	33	15100
2026-01-22 10:22:10.83	231.28	11.73	-31.5	-31.4	14.9	6.49e-03	0	55	0	52101644288	33	15223
2026-01-22 10:22:11.84	231.20	11.62	-31.5	-31.4	14.9	7.70e-03	0	55	0	52210696192	33	15214
2026-01-22 10:22:12.85	231.12	11.51	-31.7	-31.6	14.8	7.70e-03	0	55	0	52336525312	33	15560
2026-01-22 10:22:13.86	231.04	11.40	-31.7	-31.6	14.8	7.70e-03	0	55	0	52453965824	33	15506
2026-01-22 10:22:14.86	230.97	11.29	-31.7	-31.6	14.8	7.70e-03	0	55	0	52563017728	34	14722
2026-01-22 10:22:15.87	230.89	11.18	-31.9	-31.8	14.7	9.52e-03	0	55	0	52672069632	34	15040
2026-01-22 10:22:16.88	230.81	11.07	-31.9	-31.9	14.6	9.52e-03	0	55	0	52789510144	34	15143
2026-01-22 10:22:17.89	230.74	10.96	-32.0	-31.9	14.6	9.52e-03	0	55	0	52898562048	34	15169
2026-01-22 10:22:18.90	230.66	10.86	-32.1	-32.0	14.6	1.13e-02	0	55	0	53016002560	34	15319
2026-01-22 10:22:19.91	230.59	10.75	-32.1	-32.1	14.5	1.13e-02	0	55	0	53125054464	34	15488
2026-01-22 10:22:20.92	230.52	10.64	-32.1	-32.0	14.6	1.13e-02	0	55	0	53234106368	34	15355
2026-01-22 10:22:21.92	230.45	10.54	-32.2	-32.1	14.5	1.33e-02	0	55	0	53351546880	34	15555
2026-01-22 10:22:22.93	230.37	10.44	-32.3	-32.2	14.5	1.33e-02	0	55	0	53460598784	35	14812
2026-01-22 10:22:23.94	230.30	10.33	-32.4	-32.4	14.4	1.33e-02	0	55	0	53578039296	35	15132
2026-01-22 10:22:24.95	230.23	10.23	-32.6	-32.5	14.3	1.53e-02	0	55	0	53695479808	35	15419
2026-01-22 10:22:25.96	230.16	10.13	-32.5	-32.4	14.4	1.53e-02	0	55	0	53812920320	35	15249
2026-01-22 10:22:26.97	230.09	10.02	-32.6	-32.6	14.3	1.53e-02	0	55	0	53921972224	35	15475
2026-01-22 10:22:27.98	230.02	9.92	-32.6	-32.5	14.3	1.85e-02	0	55	0	54039412736	35	15358
2026-01-22 10:22:28.98	229.96	9.82	-32.6	-32.5	14.3	1.85e-02	0	55	0	54148464640	35	15444
2026-01-22 10:22:29.99	229.89	9.72	-35.3	-35.3	14.8	1.81e-02	0	55	0	54257516544	41	14958
2026-01-22 10:22:31.00	229.82	9.62	-35.4	-35.3	14.7	1.81e-02	0	55	0	54374957056	41	15036
2026-01-22 10:22:32.01	229.76	9.52	-35.5	-35.4	14.7	1.81e-02	0	55	0	54484008960	41	15174
2026-01-22 10:22:33.02	229.69	9.42	-35.5	-35.4	14.7	1.81e-02	0	55	0	54601449472	41	15177
2026-01-22 10:22:34.03	229.63	9.32	-35.6	-35.5	14.7	1.08e-02	0	55	0	54710501376	41	15337
2026-01-22 10:22:35.04	229.56	9.22	-35.5	-35.4	14.7	1.08e-02	0	55	0	54827941888	41	15248
2026-01-22 10:22:36.05	229.50	9.12	-35.5	-35.4	14.7	1.08e-02	0	55	0	54945382400	41	15268
2026-01-22 10:22:37.06	229.43	9.03	-35.6	-35.5	14.6	1.15e-02	0	55	0	55062822912	41	15347
2026-01-22 10:22:38.07	229.37	8.93	-35.6	-35.5	14.6	1.15e-02	0	55	0	55171874816	41	15437
2026-01-22 10:22:39.08	229.31	8.83	-35.8	-35.7	14.5	1.15e-02	0	55	0	55289315328	42	14857
2026-01-22 10:22:40.08	229.25	8.74	-35.7	-35.6	14.5	1.18e-02	0	55	0	55398367232	42	14737
2026-01-22 10:22:41.09	229.19	8.64	-35.9	-35.8	14.4	1.18e-02	0	55	0	55507419136	42	15059
2026-01-22 10:22:42.10	229.13	8.55	-35.9	-35.8	14.4	1.18e-02	0	55	0	55624859648	42	15120
2026-01-22 10:22:43.11	229.07	8.45	-36.0	-35.9	14.4	1.30e-02	0	55	0	55733911552	42	15183
2026-01-22 10:22:44.12	229.01	8.36	-36.0	-35.9	14.4	1.30e-02	0	55	0	55851352064	42	15156
2026-01-22 10:22:45.13	228.95	8.27	-36.1	-36.1	14.3	1.30e-02	0	55	0	55960403968	42	15491
2026-01-22 10:22:46.14	228.89	8.17	-36.1	-36.0	14.3	1.60e-02	0	55	0	56069455872	42	15347
2026-01-22 10:22:47.15	228.83	8.08	-36.4	-36.3	14.1	1.60e-02	0	55	0	56195284992	43	15116
2026-01-22 10:22:48.16	228.77	7.99	-36.4	-36.4	14.1	1.60e-02	0	55	0	56312725504	43	15132
2026-01-22 10:22:49.17	228.71	7.89	-53.3	-55.6	6.2	1.60e-02	0	54	104	56337891328	77	19498
2026-01-22 10:22:50.18	228.66	7.80	-53.3	-55.5	6.2	1.60e-02	0	54	104	56337891328	77	19420
2026-01-22 10:22:51.18	228.60	7.71	-53.3	-55.5	6.2	1.60e-02	0	54	104	56337891328	77	19324
2026-01-22 10:22:52.19	228.55	7.62	-53.3	-55.4	6.2	1.60e-02	0	54	104	56337891328	77	19245
2026-01-22 10:22:53.20	228.49	7.53	-53.3	-55.5	6.2	1.60e-02	0	54	104	56337891328	77	19335
2026-01-22 10:22:54.21	228.43	7.44	-53.3	-55.4	6.2	1.24e-02	0	54	104	56337891328	77	19153
2026-01-22 10:22:55.22	228.38	7.35	-53.3	-55.5	6.2	1.24e-02	0	54	104	56337891328	77	19263
2026-01-22 10:22:56.22	228.33	7.26	-53.3	-55.4	6.2	1.24e-02	0	54	104	56337891328	77	19187
2026-01-22 10:22:57.23	228.27	7.17	-53.2	-55.4	6.2	1.24e-02	0	53	104	56337891328	77	19055
2026-01-22 10:22:58.24	228.22	7.09	-53.2	-55.3	6.2	1.24e-02	0	53	104	56337891328	77	19021
2026-01-22 10:22:59.25	228.17	7.00	-53.3	-55.4	6.2	1.24e-02	0	53	104	56337891328	77	19093
2026-01-22 10:23:00.26	228.11	6.91	-53.2	-55.4	6.2	1.24e-02	0	54	104	56337891328	77	19075
2026-01-22 10:23:01.26	228.06	6.82	-53.2	-55.3	6.2	1.24e-02	0	53	104	56337891328	77	18960
2026-01-22 10:23:02.27	228.01	6.74	-53.2	-55.3	6.2	1.24e-02	0	53	104	56337891328	77	18968
2026-01-22 10:23:03.28	227.96	6.65	-53.2	-55.3	6.2	0.00e+00	0	53	104	56337891328	77	19011
2026-01-22 10:23:04.29	227.91	6.56	-53.2	-55.3	6.2	0.00e+00	0	53	104	56337891328	77	18970
2026-01-22 10:23:05.30	227.86	6.48	-53.1	-55.3	6.2	0.00e+00	0	53	104	56337891328	77	18872
2026-01-22 10:23:06.30	227.81	6.39	-53.1	-55.3	6.2	0.00e+00	0	53	104	56337891328	77	18874
2026-01-22 10:23:07.31	227.76	6.31	-53.2	-55.3	6.2	0.00e+00	0	53	104	56337891328	77	18932
2026-01-22 10:23:08.32	227.71	6.22	-53.1	-55.3	6.2	0.00e+00	0	54	104	56337891328	77	18830
2026-01-22 10:23:09.33	227.66	6.14	-53.1	-55.2	6.2	0.00e+00	0	53	104	56337891328	77	18772
2026-01-22 10:23:10.33	227.61	6.05	-53.1	-55.2	6.2	0.00e+00	0	53	104	56337891328	77	18693
2026-01-22 10:23:11.34	227.57	5.97	-53.1	-55.3	6.2	0.00e+00	0	53	104	56337891328	77	18830
2026-01-22 10:23:12.35	227.52	5.89	-53.1	-55.2	6.2	0.00e+00	0	53	104	56337891328	77	18704
2026-01-22 10:23:13.36	227.47	5.80	-53.0	-55.1	6.2	0.00e+00	0	53	104	56337891328	77	18532
2026-01-22 10:23:14.37	227.42	5.72	-53.0	-55.1	6.2	0.00e+00	0	53	104	56337891328	77	18600
2026-01-22 10:23:15.38	227.38	5.64	-53.1	-55.2	6.2	0.00e+00	0	53	104	56337891328	77	18696
2026-01-22 10:23:16.38	227.33	5.56	-53.0	-55.1	6.2	0.00e+00	0	53	104	56337891328	77	18590
2026-01-22 10:23:17.39	227.28	5.48	-52.9	-55.0	6.2	0.00e+00	0	53	104	56337891328	77	18358
2026-01-22 10:23:18.40	227.24	5.39	-53.0	-55.1	6.2	0.00e+00	0	53	104	56337891328	77	18492
2026-01-22 10:23:19.41	227.19	5.31	-53.0	-55.2	6.2	0.00e+00	0	53	104	56337891328	77	18635
2026-01-22 10:23:20.42	227.15	5.23	-52.9	-55.1	6.2	0.00e+00	0	53	104	56337891328	77	18464
2026-01-22 10:23:21.42	227.10	5.15	-52.8	-55.0	6.2	0.00e+00	0	53	104	56337891328	77	18230
2026-01-22 10:23:22.43	227.06	5.07	-52.9	-55.0	6.2	0.00e+00	0	53	104	56337891328	77	18321
2026-01-22 10:23:23.44	227.02	4.99	-53.0	-55.2	6.2	0.00e+00	0	53	104	56337891328	77	18632
2026-01-22 10:23:24.45	226.97	4.91	-53.4	-55.5	6.2	0.00e+00	0	53	104	56337891328	77	19378
2026-01-22 10:23:25.46	226.93	4.83	-53.7	-55.8	6.2	0.00e+00	0	53	104	56337891328	77	20056
2026-01-22 10:23:26.46	226.89	4.75	-53.9	-56.0	6.2	0.00e+00	0	53	104	56337891328	78	19369
2026-01-22 10:23:27.47	226.84	4.68	-54.0	-56.2	6.2	0.00e+00	0	53	104	56337891328	78	19740
2026-01-22 10:23:28.48	226.80	4.60	-54.1	-56.2	6.2	0.00e+00	0	53	104	56337891328	78	19923
2026-01-22 10:23:29.49	226.76	4.52	-54.2	-56.3	6.2	0.00e+00	0	53	104	56337891328	78	20140
2026-01-22 10:23:30.50	226.72	4.44	-54.2	-56.4	6.2	0.00e+00	0	53	104	56337891328	79	19081
2026-01-22 10:23:31.51	226.68	4.36	-54.3	-56.4	6.2	0.00e+00	0	52	104	56337891328	79	19160
2026-01-22 10:23:32.52	226.63	4.29	-54.3	-56.4	6.2	0.00e+00	0	53	104	56337891328	79	19164
2026-01-22 10:23:33.53	226.59	4.21	-54.3	-56.5	6.2	0.00e+00	0	53	104	56337891328	79	19295
2026-01-22 10:23:34.54	226.55	4.13	-54.3	-56.5	6.2	0.00e+00	0	52	104	56337891328	79	19265
2026-01-22 10:23:35.54	226.51	4.06	-54.3	-56.5	6.2	0.00e+00	0	52	104	56337891328	79	19318
2026-01-22 10:23:36.55	226.47	3.98	-54.3	-56.4	6.2	0.00e+00	0	52	104	56337891328	79	19254
2026-01-22 10:23:37.56	226.43	3.91	-54.3	-56.4	6.2	0.00e+00	0	52	104	56337891328	79	19186
2026-01-22 10:23:38.57	226.39	3.83	-54.3	-56.4	6.2	0.00e+00	0	52	104	56337891328	79	19117
2026-01-22 10:23:39.58	226.35	3.75	-54.2	-56.3	6.2	0.00e+00	0	52	104	56337891328	79	19027
2026-01-22 10:23:40.58	226.32	3.68	-54.2	-56.3	6.2	0.00e+00	0	52	104	56337891328	79	18895
2026-01-22 10:23:41.59	226.28	3.60	-54.1	-56.2	6.2	0.00e+00	0	52	104	56337891328	79	18682
2026-01-22 10:23:42.60	226.24	3.53	-53.9	-56.1	6.2	0.00e+00	0	52	104	56337891328	79	18415
2026-01-22 10:23:43.61	226.20	3.46	-54.0	-56.1	6.2	0.00e+00	0	52	104	56337891328	79	18522
2026-01-22 10:23:44.62	226.16	3.38	-54.0	-56.1	6.2	0.00e+00	0	52	104	56337891328	79	18570
2026-01-22 10:23:45.62	226.13	3.31	-54.0	-56.1	6.2	0.00e+00	0	52	104	56337891328	79	18544
2026-01-22 10:23:46.63	226.09	3.23	-54.0	-56.1	6.2	0.00e+00	0	52	104	56337891328	79	18448
2026-01-22 10:23:47.64	226.05	3.16	-53.9	-56.1	6.2	0.00e+00	0	52	104	56337891328	79	18392
2026-01-22 10:23:48.65	226.02	3.09	-53.9	-56.1	6.2	0.00e+00	0	52	104	56337891328	79	18434
2026-01-22 10:23:49.66	225.98	3.02	-53.9	-56.1	6.2	0.00e+00	0	52	104	56337891328	79	18468
2026-01-22 10:23:50.67	225.94	2.94	-53.9	-56.1	6.2	0.00e+00	0	52	104	56337891328	79	18431
2026-01-22 10:23:51.67	225.91	2.87	-53.9	-56.1	6.2	0.00e+00	0	52	104	56337891328	79	18432
2026-01-22 10:23:52.68	225.87	2.80	-53.9	-56.0	6.2	0.00e+00	0	52	104	56337891328	79	18376
2026-01-22 10:23:53.69	225.84	2.73	-53.9	-56.0	6.2	0.00e+00	0	52	104	56337891328	79	18331
2026-01-22 10:23:54.70	225.80	2.66	-53.9	-56.0	6.2	0.00e+00	0	52	104	56337891328	79	18339
2026-01-22 10:23:55.70	225.77	2.58	-53.9	-56.1	6.2	0.00e+00	0	52	104	56337891328	79	18405
2026-01-22 10:23:56.71	225.73	2.51	-53.9	-56.0	6.2	0.00e+00	0	52	104	56337891328	79	18343
2026-01-22 10:23:57.72	225.70	2.44	-53.9	-56.1	6.2	0.00e+00	0	52	104	56337891328	79	18393
2026-01-22 10:23:58.73	225.66	2.37	-53.9	-56.0	6.2	0.00e+00	0	52	104	56337891328	79	18375
2026-01-22 10:23:59.74	225.63	2.30	-53.9	-56.0	6.2	0.00e+00	0	52	104	56337891328	79	18352
2026-01-22 10:24:00.75	225.59	2.23	-53.9	-56.0	6.2	0.00e+00	0	52	104	56337891328	79	18315
2026-01-22 10:24:01.75	225.56	2.16	-53.9	-56.0	6.2	0.00e+00	0	52	104	56337891328	79	18303
2026-01-22 10:24:02.76	225.53	2.09	-53.9	-56.0	6.2	0.00e+00	0	52	104	56337891328	79	18347
2026-01-22 10:24:03.77	225.49	2.02	-53.9	-56.0	6.2	0.00e+00	0	52	104	56337891328	79	18308
2026-01-22 10:24:04.78	225.46	1.95	-53.9	-56.0	6.2	0.00e+00	0	52	104	56337891328	79	18352

#Closed at: 2026-01-22 10:24:05
#Recorded file [56337 MB]: D:/lorett/data/31041_260122_131336.dat