passes_logs/2026/01/22/R3.2S_Murmansk/R3.2S_Murmansk__20260122_210835_JL1KF02B02_rec.log

#Pass ID: 20260122_210835_JL1KF02B02
#Satellite: JL1KF02B02
#Configuration: 01B_900M
#almurnet v.1.7.20251203
#Start time: 2026-01-22 21:08:37

#Version: 2.2.20231116
#Station: R3.2S_Murmansk
#Location: 33.079688 lon 68.888172 lat
#TLE: 1 61193U 24169E   26022.40808490  .00007244  00000+0  45160-3 0  9992
#TLE: 2 61193  97.5730 114.1865 0013674 111.0098 249.2596 15.09762919 73848

#Time	Az	El	Level	Level2	SNR	BER	BlckErr	Temp	State	Recorded	gain1	gain2
2026-01-22 21:08:37.97	192.03	2.14	-55.3	-57.4	6.2	0.00e+00	0	43	0	0	81	19176
2026-01-22 21:08:38.93	192.09	2.20	-55.4	-57.5	6.2	0.00e+00	0	43	104	0	82	18378
2026-01-22 21:08:39.90	192.15	2.26	-55.4	-57.5	6.2	0.00e+00	0	43	104	0	82	18322
2026-01-22 21:08:40.87	192.21	2.33	-55.4	-57.5	6.2	0.00e+00	0	43	104	0	82	18185
2026-01-22 21:08:41.85	192.27	2.39	-55.3	-57.4	6.2	0.00e+00	0	43	104	0	82	18082
2026-01-22 21:08:42.82	192.33	2.46	-55.3	-57.4	6.2	0.00e+00	0	43	104	0	82	18049
2026-01-22 21:08:43.79	192.40	2.52	-55.2	-57.3	6.2	0.00e+00	0	43	104	0	82	17887
2026-01-22 21:08:44.76	192.46	2.59	-55.2	-57.3	6.2	0.00e+00	0	43	104	0	82	17872
2026-01-22 21:08:45.73	192.52	2.65	-55.2	-57.3	6.2	0.00e+00	0	43	104	0	82	17787
2026-01-22 21:08:46.71	192.59	2.72	-55.1	-57.2	6.2	0.00e+00	0	43	104	0	82	17675
2026-01-22 21:08:47.68	192.65	2.78	-55.1	-57.1	6.2	0.00e+00	0	43	104	0	82	17559
2026-01-22 21:08:48.65	192.71	2.85	-55.0	-57.1	6.2	0.00e+00	0	43	104	0	82	17480
2026-01-22 21:08:49.63	192.78	2.91	-55.0	-57.1	6.2	0.00e+00	0	43	104	0	82	17403
2026-01-22 21:08:50.60	192.84	2.98	-54.9	-57.0	6.2	0.00e+00	0	43	104	0	81	18201
2026-01-22 21:08:51.56	192.91	3.04	-54.8	-56.9	6.2	0.00e+00	0	43	104	0	81	18145
2026-01-22 21:08:52.54	192.97	3.11	-54.7	-56.8	6.2	0.00e+00	0	43	104	0	81	17960
2026-01-22 21:08:53.50	193.04	3.17	-54.7	-56.7	6.2	0.00e+00	0	43	104	0	81	17747
2026-01-22 21:08:54.47	193.10	3.24	-54.6	-56.7	6.2	0.00e+00	0	43	104	0	81	17605
2026-01-22 21:08:55.44	193.17	3.31	-54.4	-56.5	6.2	0.00e+00	0	43	104	0	80	18289
2026-01-22 21:08:56.42	193.24	3.37	-54.1	-56.3	6.2	0.00e+00	0	43	104	0	80	17784
2026-01-22 21:08:57.39	193.30	3.44	-53.9	-56.0	6.2	0.00e+00	0	43	104	0	79	18197
2026-01-22 21:08:58.36	193.37	3.51	-53.8	-55.9	6.2	0.00e+00	0	43	104	0	79	18108
2026-01-22 21:08:59.33	193.44	3.58	-53.8	-55.9	6.2	0.00e+00	0	43	104	0	79	18070
2026-01-22 21:09:00.30	193.51	3.64	-53.8	-55.9	6.2	0.00e+00	0	43	104	0	79	18019
2026-01-22 21:09:01.27	193.57	3.71	-53.8	-55.9	6.2	0.00e+00	0	43	104	0	79	18067
2026-01-22 21:09:02.24	193.64	3.78	-53.8	-55.8	6.2	0.00e+00	0	43	104	0	79	17967
2026-01-22 21:09:03.21	193.71	3.85	-53.8	-55.9	6.2	0.00e+00	0	44	104	0	79	17976
2026-01-22 21:09:04.18	193.78	3.91	-53.8	-55.9	6.2	0.00e+00	0	43	104	0	79	18004
2026-01-22 21:09:05.15	193.85	3.98	-53.8	-55.9	6.2	0.00e+00	0	43	104	0	79	17997
2026-01-22 21:09:06.12	193.92	4.05	-53.8	-55.9	6.2	0.00e+00	0	44	104	0	79	17994
2026-01-22 21:09:07.09	193.99	4.12	-53.8	-55.9	6.2	0.00e+00	0	44	104	0	79	18035
2026-01-22 21:09:08.06	194.06	4.19	-53.7	-55.9	6.2	0.00e+00	0	44	104	0	79	17973
2026-01-22 21:09:09.02	194.14	4.26	-53.8	-55.9	6.2	0.00e+00	0	44	104	0	79	17996
2026-01-22 21:09:10.00	194.21	4.33	-53.8	-55.8	6.2	0.00e+00	0	44	104	0	79	17895
2026-01-22 21:09:10.97	194.28	4.40	-53.7	-55.9	6.2	0.00e+00	0	44	104	0	79	17975
2026-01-22 21:09:11.94	194.35	4.47	-53.7	-55.8	6.2	0.00e+00	0	43	104	0	79	17922
2026-01-22 21:09:12.91	194.43	4.54	-53.7	-55.8	6.2	0.00e+00	0	44	104	0	79	17953
2026-01-22 21:09:13.88	194.50	4.61	-53.7	-55.8	6.2	0.00e+00	0	44	104	0	79	17960
2026-01-22 21:09:14.86	194.57	4.68	-53.7	-55.8	6.2	0.00e+00	0	44	104	0	79	17960
2026-01-22 21:09:15.83	194.65	4.75	-53.7	-55.8	6.2	0.00e+00	0	44	104	0	79	17913
2026-01-22 21:09:16.80	194.72	4.82	-53.7	-55.8	6.2	0.00e+00	0	44	104	0	79	17906
2026-01-22 21:09:17.77	194.80	4.89	-53.7	-55.8	6.2	0.00e+00	0	44	104	0	79	17954
2026-01-22 21:09:18.74	194.87	4.96	-53.7	-55.8	6.2	0.00e+00	0	44	104	0	79	17949
2026-01-22 21:09:19.71	194.95	5.03	-53.7	-55.8	6.2	0.00e+00	0	44	104	0	79	17961
2026-01-22 21:09:20.68	195.03	5.10	-53.9	-55.9	6.2	0.00e+00	0	44	104	0	79	18173
2026-01-22 21:09:21.64	195.10	5.18	-53.8	-55.9	6.2	0.00e+00	0	44	104	0	79	18154
2026-01-22 21:09:22.61	195.18	5.25	-53.8	-55.8	6.2	0.00e+00	0	44	104	0	79	17956
2026-01-22 21:09:23.58	195.26	5.32	-53.7	-55.8	6.2	0.00e+00	0	44	104	0	79	17830
2026-01-22 21:09:24.55	195.34	5.39	-53.7	-55.8	6.2	0.00e+00	0	44	104	0	79	17955
2026-01-22 21:09:25.53	195.42	5.47	-53.8	-55.9	6.2	0.00e+00	0	44	104	0	79	18085
2026-01-22 21:09:26.50	195.50	5.54	-53.8	-55.8	6.2	0.00e+00	0	44	104	0	79	17960
2026-01-22 21:09:27.47	195.57	5.61	-53.7	-55.8	6.2	0.00e+00	0	44	104	0	79	17776
2026-01-22 21:09:28.44	195.65	5.68	-53.7	-55.8	6.2	0.00e+00	0	44	104	0	79	17858
2026-01-22 21:09:29.41	195.74	5.76	-53.8	-55.9	6.2	0.00e+00	0	44	104	0	79	18105
2026-01-22 21:09:30.38	195.82	5.83	-53.8	-55.9	6.2	0.00e+00	0	44	104	0	79	18039
2026-01-22 21:09:31.36	195.90	5.91	-53.7	-55.8	6.2	0.00e+00	0	44	104	0	79	17830
2026-01-22 21:09:32.33	195.98	5.98	-53.7	-55.8	6.2	0.00e+00	0	44	104	0	79	17856
2026-01-22 21:09:33.30	196.06	6.06	-53.8	-55.9	6.2	0.00e+00	0	44	104	0	79	18102
2026-01-22 21:09:34.27	196.15	6.13	-53.8	-55.9	6.2	0.00e+00	0	44	104	0	79	17998
2026-01-22 21:09:35.24	196.23	6.21	-53.7	-55.8	6.2	0.00e+00	0	44	104	0	79	17853
2026-01-22 21:09:36.21	196.31	6.28	-53.7	-55.8	6.2	0.00e+00	0	44	104	0	79	17812
2026-01-22 21:09:37.18	196.40	6.36	-53.8	-55.9	6.2	0.00e+00	0	44	104	0	79	18158
2026-01-22 21:09:38.15	196.48	6.43	-53.8	-55.9	6.2	0.00e+00	0	44	104	0	79	18071
2026-01-22 21:09:39.12	196.57	6.51	-53.7	-55.8	6.2	0.00e+00	0	44	104	0	79	17898
2026-01-22 21:09:40.09	196.66	6.58	-53.7	-55.8	6.2	0.00e+00	0	44	104	0	79	17877
2026-01-22 21:09:41.06	196.74	6.66	-53.8	-55.9	6.2	0.00e+00	0	44	104	0	79	18133
2026-01-22 21:09:42.03	196.83	6.74	-53.8	-55.9	6.2	0.00e+00	0	44	104	0	79	18107
2026-01-22 21:09:43.01	196.92	6.81	-53.7	-55.8	6.2	0.00e+00	0	44	104	0	79	17886
2026-01-22 21:09:43.98	197.01	6.89	-53.7	-55.8	6.2	0.00e+00	0	44	104	0	79	17874
2026-01-22 21:09:44.95	197.10	6.97	-53.8	-55.9	6.2	0.00e+00	0	44	104	0	79	18125
2026-01-22 21:09:45.93	197.19	7.05	-53.8	-55.9	6.2	0.00e+00	0	44	104	0	79	18107
2026-01-22 21:09:46.90	197.28	7.13	-53.8	-55.9	6.2	0.00e+00	0	44	104	0	79	17984
2026-01-22 21:09:47.87	197.37	7.20	-53.7	-55.8	6.2	0.00e+00	0	44	104	0	79	17850
2026-01-22 21:09:48.84	197.46	7.28	-53.8	-55.9	6.2	0.00e+00	0	44	104	0	79	18146
2026-01-22 21:09:49.82	197.55	7.36	-53.8	-55.9	6.2	0.00e+00	0	44	104	0	79	18160
2026-01-22 21:09:50.79	197.64	7.44	-53.8	-55.9	6.2	0.00e+00	0	44	104	0	79	18012
2026-01-22 21:09:51.76	197.74	7.52	-53.7	-55.8	6.2	0.00e+00	0	44	104	0	79	17949
2026-01-22 21:09:52.73	197.83	7.60	-53.8	-55.9	6.2	0.00e+00	0	44	104	0	79	18084
2026-01-22 21:09:53.70	197.92	7.68	-53.9	-56.0	6.2	0.00e+00	0	44	104	0	79	18212
2026-01-22 21:09:54.67	198.02	7.76	-53.8	-55.9	6.2	0.00e+00	0	44	104	0	79	18073
2026-01-22 21:09:55.64	198.11	7.84	-53.8	-55.9	6.2	0.00e+00	0	44	104	0	79	18012
2026-01-22 21:09:56.62	198.21	7.92	-53.8	-55.9	6.2	0.00e+00	0	44	104	0	79	18143
2026-01-22 21:09:57.59	198.31	8.00	-53.9	-56.0	6.2	0.00e+00	0	44	104	0	79	18271
2026-01-22 21:09:58.56	198.40	8.08	-53.8	-56.0	6.2	0.00e+00	0	44	104	0	79	18185
2026-01-22 21:09:59.53	198.50	8.16	-53.8	-55.9	6.2	0.00e+00	0	44	104	0	79	18063
2026-01-22 21:10:00.50	198.60	8.25	-53.8	-55.9	6.2	0.00e+00	0	44	104	0	79	18090
2026-01-22 21:10:01.47	198.70	8.33	-53.9	-56.0	6.2	0.00e+00	0	44	104	0	79	18304
2026-01-22 21:10:02.44	198.80	8.41	-49.7	-50.3	6.8	0.00e+00	0	44	104	0	71	15060
2026-01-22 21:10:03.41	198.90	8.49	-48.9	-49.5	6.3	0.00e+00	0	44	104	0	69	15468
2026-01-22 21:10:04.38	199.00	8.58	-47.1	-47.5	6.3	0.00e+00	0	44	104	0	66	14585
2026-01-22 21:10:05.35	199.10	8.66	-50.3	-51.2	6.3	0.00e+00	0	44	104	0	72	15807
2026-01-22 21:10:06.33	199.20	8.74	-47.3	-47.7	6.2	0.00e+00	0	44	104	0	66	14829
2026-01-22 21:10:07.30	199.31	8.83	-46.8	-47.2	6.3	0.00e+00	0	44	104	0	65	14876
2026-01-22 21:10:08.26	199.41	8.91	-46.8	-47.2	6.2	0.00e+00	0	44	104	0	65	14896
2026-01-22 21:10:09.23	199.51	8.99	-46.9	-47.5	6.3	0.00e+00	0	44	104	0	65	15297
2026-01-22 21:10:10.20	199.62	9.08	-48.1	-48.7	6.3	0.00e+00	0	44	104	0	68	14858
2026-01-22 21:10:11.17	199.73	9.16	-48.9	-49.5	6.3	0.00e+00	0	45	104	0	69	15390
2026-01-22 21:10:12.14	199.83	9.25	-48.5	-49.2	6.3	0.00e+00	0	44	104	0	67	16735
2026-01-22 21:10:13.11	199.94	9.33	-52.2	-53.6	6.3	0.00e+00	0	44	104	0	75	17441
2026-01-22 21:10:14.08	200.05	9.42	-46.5	-47.1	6.3	0.00e+00	0	45	104	0	65	14660
2026-01-22 21:10:15.05	200.16	9.51	-46.5	-46.8	6.1	0.00e+00	0	45	104	0	64	15105
2026-01-22 21:10:16.02	200.27	9.59	-46.0	-46.4	6.2	0.00e+00	0	44	104	0	63	15238
2026-01-22 21:10:17.00	200.38	9.68	-50.8	-51.8	6.3	0.00e+00	0	44	104	0	72	16963
2026-01-22 21:10:17.96	200.49	9.77	-49.8	-50.5	6.2	0.00e+00	0	44	104	0	71	15324
2026-01-22 21:10:18.93	200.60	9.85	-34.7	-34.5	11.7	0.00e+00	0	44	104	0	59	4890
2026-01-22 21:10:19.91	200.71	9.94	-42.8	-42.8	11.9	5.51e-03	0	45	0	25165824	56	14953
2026-01-22 21:10:20.88	200.83	10.03	-38.8	-38.2	13.7	1.09e-03	0	45	0	134217728	47	14860
2026-01-22 21:10:21.85	200.94	10.12	-36.1	-36.0	15.2	2.80e-04	0	45	0	234881024	44	13667
2026-01-22 21:10:22.82	201.05	10.21	-36.0	-35.9	15.2	2.40e-04	0	45	0	352321536	43	14314
2026-01-22 21:10:23.79	201.17	10.30	-35.8	-35.7	15.2	2.44e-04	0	45	0	461373440	43	13973
2026-01-22 21:10:24.76	201.29	10.39	-35.1	-34.9	14.8	3.43e-04	0	45	0	562036736	42	13567
2026-01-22 21:10:25.73	201.40	10.48	-34.6	-34.5	14.4	4.77e-04	0	45	0	671088640	41	13703
2026-01-22 21:10:26.70	201.52	10.57	-34.3	-34.1	14.5	3.49e-04	0	45	0	788529152	40	13922
2026-01-22 21:10:27.67	201.64	10.66	-33.9	-33.8	14.5	2.75e-04	0	45	0	897581056	39	14151
2026-01-22 21:10:28.64	201.76	10.75	-33.2	-33.0	14.6	1.70e-04	0	44	0	998244352	38	13725
2026-01-22 21:10:29.61	201.88	10.84	-32.3	-32.2	14.2	1.79e-04	0	45	0	1115684864	36	13993
2026-01-22 21:10:30.59	202.01	10.93	-29.3	-29.2	13.8	3.68e-04	0	45	0	1224736768	30	13964
2026-01-22 21:10:31.56	202.13	11.02	-28.9	-28.7	13.8	2.90e-04	0	45	0	1325400064	29	14054
2026-01-22 21:10:32.53	202.25	11.11	-29.0	-28.9	13.8	2.75e-04	0	45	0	1442840576	29	14281
2026-01-22 21:10:33.50	202.38	11.21	-28.9	-28.8	13.9	2.94e-04	0	45	0	1551892480	29	14176
2026-01-22 21:10:34.47	202.50	11.30	-28.8	-28.6	13.7	2.57e-04	0	45	0	1669332992	29	13875
2026-01-22 21:10:35.44	202.63	11.39	-28.8	-28.6	13.9	1.94e-04	0	45	0	1769996288	29	13900
2026-01-22 21:10:36.41	202.75	11.49	-29.1	-28.9	13.8	2.37e-04	0	45	0	1879048192	29	14370
2026-01-22 21:10:37.39	202.88	11.58	-28.8	-28.7	13.9	1.72e-04	0	45	0	1988100096	29	13953
2026-01-22 21:10:38.37	203.01	11.68	-28.7	-28.6	13.9	1.64e-04	0	45	0	2105540608	29	13819
2026-01-22 21:10:39.34	203.14	11.77	-28.4	-28.2	13.8	1.81e-04	0	45	0	2206203904	28	14076
2026-01-22 21:10:40.31	203.28	11.86	-28.2	-28.0	13.7	1.89e-04	0	45	0	2315255808	28	13761
2026-01-22 21:10:41.28	203.41	11.96	-28.2	-28.1	13.8	2.48e-04	0	45	0	2432696320	28	13814
2026-01-22 21:10:42.24	203.54	12.05	-28.2	-28.1	13.8	2.37e-04	0	45	0	2533359616	28	13865
2026-01-22 21:10:43.22	203.67	12.15	-28.0	-27.9	13.7	2.14e-04	0	45	0	2642411520	28	13532
2026-01-22 21:10:44.19	203.81	12.25	-28.1	-28.0	13.7	2.33e-04	0	45	0	2759852032	28	13683
2026-01-22 21:10:45.16	203.94	12.34	-28.1	-28.0	13.7	2.23e-04	0	45	0	2860515328	28	13650
2026-01-22 21:10:46.13	204.08	12.44	-28.1	-27.9	13.8	1.89e-04	0	45	0	2969567232	28	13567
2026-01-22 21:10:47.10	204.22	12.54	-28.0	-27.8	13.7	1.81e-04	0	45	0	3087007744	27	14250
2026-01-22 21:10:48.07	204.36	12.64	-28.0	-27.8	13.7	2.06e-04	0	45	0	3196059648	27	14240
2026-01-22 21:10:49.04	204.50	12.73	-28.1	-27.9	13.8	1.98e-04	0	45	0	3296722944	27	14383
2026-01-22 21:10:50.01	204.64	12.83	-28.0	-27.8	13.7	1.85e-04	0	45	0	3405774848	27	14202
2026-01-22 21:10:50.98	204.78	12.93	-27.9	-27.7	13.8	1.73e-04	0	45	0	3523215360	27	14097
2026-01-22 21:10:51.95	204.93	13.03	-27.9	-27.7	13.7	1.94e-04	0	45	0	3623878656	27	14099
2026-01-22 21:10:52.92	205.07	13.13	-27.8	-27.6	13.8	1.56e-04	0	45	0	3732930560	27	13911
2026-01-22 21:10:53.89	205.22	13.23	-27.8	-27.6	13.7	1.77e-04	0	45	0	3850371072	27	13924
2026-01-22 21:10:54.86	205.36	13.33	-27.8	-27.6	13.7	2.08e-04	0	45	0	3951034368	27	13920
2026-01-22 21:10:55.83	205.51	13.43	-27.7	-27.5	13.7	1.70e-04	0	45	0	4060086272	27	13778
2026-01-22 21:10:56.80	205.66	13.53	-27.6	-27.5	13.8	1.43e-04	0	45	0	4177526784	27	13683
2026-01-22 21:10:57.77	205.81	13.63	-27.8	-27.6	13.7	1.75e-04	0	45	0	4286578688	27	13895
2026-01-22 21:10:58.74	205.96	13.74	-27.5	-27.4	13.7	1.49e-04	0	45	0	4387241984	27	13493
2026-01-22 21:10:59.71	206.11	13.84	-27.5	-27.3	13.8	1.52e-04	0	45	0	4496293888	27	13447
2026-01-22 21:11:00.68	206.27	13.94	-27.5	-27.4	13.7	1.37e-04	0	45	0	4613734400	26	14300
2026-01-22 21:11:01.65	206.42	14.04	-27.4	-27.2	13.8	1.16e-04	0	45	0	4714397696	26	14061
2026-01-22 21:11:02.62	206.58	14.15	-27.4	-27.3	13.7	1.39e-04	0	45	0	4823449600	26	14157
2026-01-22 21:11:03.59	206.74	14.25	-27.6	-27.4	13.8	1.41e-04	0	45	0	4940890112	26	14385
2026-01-22 21:11:04.56	206.89	14.35	-27.3	-27.2	13.7	1.20e-04	0	45	0	5041553408	26	14008
2026-01-22 21:11:05.53	207.05	14.46	-27.2	-27.1	13.8	1.28e-04	0	45	0	5150605312	26	13804
2026-01-22 21:11:06.51	207.22	14.57	-27.3	-27.1	13.7	1.35e-04	0	45	0	5268045824	26	13891
2026-01-22 21:11:07.48	207.38	14.67	-27.1	-27.0	13.7	9.15e-05	0	46	0	5377097728	26	13659
2026-01-22 21:11:08.45	207.54	14.78	-27.0	-26.8	13.7	1.12e-04	0	45	0	5477761024	26	13422
2026-01-22 21:11:09.42	207.71	14.88	-27.0	-26.9	13.7	9.53e-05	0	45	0	5595201536	25	14304
2026-01-22 21:11:10.39	207.87	14.99	-27.0	-26.8	13.8	1.03e-04	0	45	0	5704253440	25	14218
2026-01-22 21:11:11.37	208.04	15.10	-27.0	-26.8	13.8	9.34e-05	0	46	0	5813305344	25	14174
2026-01-22 21:11:12.33	208.21	15.20	-27.1	-26.9	13.7	9.15e-05	0	45	0	5913968640	25	14347
2026-01-22 21:11:13.30	208.38	15.31	-26.9	-26.7	13.8	9.91e-05	0	45	0	6031409152	25	14050
2026-01-22 21:11:14.27	208.55	15.42	-26.7	-26.5	13.8	5.53e-05	0	45	0	6140461056	25	13744
2026-01-22 21:11:15.25	208.73	15.53	-26.8	-26.7	13.8	8.96e-05	0	45	0	6241124352	25	13990
2026-01-22 21:11:16.22	208.90	15.64	-26.8	-26.6	13.8	8.58e-05	0	45	0	6358564864	25	13900
2026-01-22 21:11:17.19	209.08	15.75	-26.8	-26.6	13.8	8.20e-05	0	45	0	6467616768	25	13908
2026-01-22 21:11:18.16	209.26	15.86	-26.8	-26.7	13.8	8.01e-05	0	45	0	6568280064	25	13985
2026-01-22 21:11:19.13	209.44	15.97	-26.6	-26.5	13.8	8.96e-05	0	45	0	6685720576	25	13653
2026-01-22 21:11:20.10	209.62	16.08	-26.6	-26.5	13.8	6.29e-05	0	45	0	6794772480	25	13691
2026-01-22 21:11:21.07	209.80	16.19	-26.6	-26.5	13.8	7.82e-05	0	46	0	6903824384	25	13659
2026-01-22 21:11:22.04	209.98	16.30	-26.5	-26.3	13.8	7.43e-05	0	45	0	7012876288	25	13456
2026-01-22 21:11:23.00	210.17	16.41	-26.4	-26.3	13.8	8.77e-05	0	45	0	7121928192	24	14136
2026-01-22 21:11:23.97	210.36	16.52	-26.4	-26.2	13.8	5.72e-05	0	45	0	7230980096	24	14015
2026-01-22 21:11:24.94	210.54	16.63	-26.4	-26.2	13.8	8.58e-05	0	45	0	7331643392	24	14108
2026-01-22 21:11:25.91	210.73	16.75	-26.2	-26.1	13.8	6.86e-05	0	45	0	7449083904	24	13798
2026-01-22 21:11:26.88	210.93	16.86	-26.2	-26.0	13.9	7.24e-05	0	45	0	7558135808	24	13776
2026-01-22 21:11:27.85	211.12	16.97	-26.2	-26.1	13.8	7.43e-05	0	45	0	7658799104	24	13797
2026-01-22 21:11:28.82	211.31	17.09	-26.2	-26.1	13.9	8.58e-05	0	45	0	7776239616	24	13854
2026-01-22 21:11:29.79	211.51	17.20	-26.2	-26.0	13.8	5.91e-05	0	45	0	7885291520	24	13780
2026-01-22 21:11:30.76	211.71	17.31	-26.1	-26.0	13.8	6.86e-05	0	45	0	7985954816	24	13635
2026-01-22 21:11:31.73	211.91	17.43	-26.1	-25.9	13.8	4.19e-05	0	45	0	8103395328	24	13549
2026-01-22 21:11:32.71	212.11	17.55	-26.1	-26.0	13.9	7.82e-05	0	46	0	8212447232	24	13670
2026-01-22 21:11:33.68	212.31	17.66	-26.2	-26.0	13.8	7.82e-05	0	46	0	8321499136	24	13769
2026-01-22 21:11:34.65	212.52	17.78	-25.9	-25.8	13.8	8.77e-05	0	45	0	8430551040	23	14175
2026-01-22 21:11:35.62	212.73	17.89	-25.9	-25.8	13.9	7.43e-05	0	46	0	8539602944	23	14160
2026-01-22 21:11:36.59	212.94	18.01	-25.9	-25.8	13.8	7.62e-05	0	46	0	8648654848	23	14188
2026-01-22 21:11:37.56	213.15	18.13	-25.9	-25.7	13.9	5.91e-05	0	45	0	8749318144	23	14040
2026-01-22 21:11:38.53	213.36	18.25	-25.7	-25.6	14.0	4.00e-05	0	45	0	8866758656	23	13794
2026-01-22 21:11:39.50	213.57	18.36	-25.7	-25.5	13.9	4.19e-05	0	45	0	8975810560	23	13750
2026-01-22 21:11:40.47	213.79	18.48	-25.7	-25.5	13.9	2.86e-05	0	46	0	9093251072	23	13740
2026-01-22 21:11:41.44	214.01	18.60	-25.7	-25.5	14.0	5.72e-05	0	46	0	9193914368	23	13773
2026-01-22 21:11:42.41	214.23	18.72	-25.6	-25.4	13.9	4.38e-05	0	46	0	9302966272	23	13593
2026-01-22 21:11:43.38	214.45	18.84	-25.6	-25.4	13.9	6.10e-05	0	45	0	9420406784	23	13556
2026-01-22 21:11:44.35	214.67	18.96	-25.5	-25.4	13.9	5.91e-05	0	46	0	9521070080	22	14282
2026-01-22 21:11:45.32	214.90	19.08	-25.4	-25.2	13.9	4.76e-05	0	45	0	9630121984	22	14076
2026-01-22 21:11:46.29	215.12	19.20	-25.2	-25.1	14.0	4.57e-05	0	46	0	9739173888	22	13848
2026-01-22 21:11:47.26	215.35	19.32	-25.4	-25.2	14.0	4.95e-05	0	46	0	9848225792	22	14101
2026-01-22 21:11:48.24	215.59	19.44	-25.3	-25.2	13.9	5.91e-05	0	46	0	9957277696	22	13995
2026-01-22 21:11:49.20	215.82	19.56	-25.2	-25.0	13.9	4.00e-05	0	46	0	10066329600	22	13788
2026-01-22 21:11:50.17	216.06	19.68	-25.2	-25.0	13.9	3.81e-05	0	46	0	10183770112	22	13700
2026-01-22 21:11:51.15	216.30	19.81	-25.2	-25.0	13.9	4.19e-05	0	45	0	10284433408	22	13772
2026-01-22 21:11:52.12	216.54	19.93	-25.1	-24.9	13.9	3.81e-05	0	46	0	10393485312	22	13578
2026-01-22 21:11:53.08	216.77	20.05	-25.1	-25.0	13.9	4.38e-05	0	46	0	10510925824	22	13641
2026-01-22 21:11:54.05	217.02	20.17	-25.0	-24.9	13.9	3.62e-05	0	46	0	10611589120	22	13487
2026-01-22 21:11:55.03	217.27	20.30	-25.1	-24.9	13.9	4.38e-05	0	46	0	10720641024	22	13575
2026-01-22 21:11:56.00	217.52	20.42	-25.0	-24.8	13.9	4.00e-05	0	45	0	10838081536	22	13468
2026-01-22 21:11:56.97	217.77	20.54	-25.1	-24.9	13.9	4.57e-05	0	46	0	10947133440	22	13558
2026-01-22 21:11:57.94	218.02	20.67	-24.9	-24.8	14.0	4.19e-05	0	46	0	11047796736	21	14116
2026-01-22 21:11:58.91	218.28	20.79	-24.7	-24.6	14.0	3.43e-05	0	46	0	11156848640	21	13819
2026-01-22 21:11:59.88	218.53	20.91	-24.8	-24.7	14.0	4.38e-05	0	46	0	11274289152	21	13993
2026-01-22 21:12:00.85	218.79	21.04	-24.7	-24.6	13.9	2.86e-05	0	46	0	11374952448	21	13806
2026-01-22 21:12:01.82	219.05	21.16	-24.7	-24.6	14.0	1.90e-05	0	45	0	11484004352	21	13791
2026-01-22 21:12:02.80	219.32	21.29	-24.9	-24.7	13.9	3.24e-05	0	45	0	11601444864	21	14030
2026-01-22 21:12:03.77	219.59	21.41	-24.8	-24.7	13.9	4.76e-05	0	46	0	11710496768	21	13952
2026-01-22 21:12:04.74	219.86	21.54	-24.5	-24.4	14.1	2.47e-05	0	46	0	11811160064	21	13482
2026-01-22 21:12:05.71	220.13	21.66	-24.6	-24.4	14.0	3.43e-05	0	46	0	11928600576	21	13598
2026-01-22 21:12:06.68	220.40	21.79	-24.5	-24.4	14.0	3.05e-05	0	46	0	12037652480	21	13534
2026-01-22 21:12:07.65	220.68	21.92	-24.4	-24.2	14.1	1.71e-05	0	46	0	12138315776	20	14100
2026-01-22 21:12:08.62	220.96	22.04	-24.5	-24.3	14.1	2.09e-05	0	46	0	12255756288	20	14237
2026-01-22 21:12:09.58	221.24	22.17	-24.5	-24.3	13.9	2.47e-05	0	46	0	12364808192	20	14268
2026-01-22 21:12:10.55	221.52	22.29	-24.3	-24.2	14.1	2.47e-05	0	46	0	12465471488	20	13961
2026-01-22 21:12:11.52	221.81	22.42	-24.3	-24.1	14.0	1.71e-05	0	46	0	12574523392	20	13850
2026-01-22 21:12:12.49	222.10	22.54	-24.2	-24.1	14.0	1.33e-05	0	45	0	12691963904	20	13818
2026-01-22 21:12:13.46	222.39	22.67	-24.2	-24.0	14.0	3.24e-05	0	46	0	12792627200	20	13742
2026-01-22 21:12:14.43	222.68	22.80	-24.2	-24.0	14.0	2.09e-05	0	45	0	12901679104	20	13695
2026-01-22 21:12:15.41	222.98	22.92	-24.2	-24.0	14.0	2.47e-05	0	46	0	13019119616	20	13770
2026-01-22 21:12:16.38	223.28	23.05	-24.1	-23.9	14.0	3.24e-05	0	46	0	13128171520	20	13623
2026-01-22 21:12:17.35	223.58	23.18	-24.1	-24.0	14.0	3.43e-05	0	46	0	13228834816	20	13656
2026-01-22 21:12:18.32	223.89	23.30	-24.1	-23.9	14.0	2.28e-05	0	45	0	13346275328	20	13613
2026-01-22 21:12:19.28	224.19	23.43	-24.0	-23.9	13.9	3.05e-05	0	46	0	13455327232	20	13524
2026-01-22 21:12:20.25	224.50	23.55	-24.1	-23.9	13.9	3.43e-05	0	46	0	13555990528	19	14344
2026-01-22 21:12:21.22	224.81	23.68	-24.2	-24.1	14.0	4.57e-05	0	46	0	13665042432	19	14631
2026-01-22 21:12:22.19	225.13	23.81	-24.2	-24.0	13.9	3.81e-05	0	45	0	13782482944	19	14536
2026-01-22 21:12:23.16	225.45	23.93	-24.1	-23.9	13.9	5.14e-05	0	46	0	13883146240	19	14440
2026-01-22 21:12:24.13	225.77	24.06	-24.1	-23.9	14.0	3.43e-05	0	46	0	13992198144	19	14385
2026-01-22 21:12:25.11	226.10	24.18	-24.0	-23.8	13.9	3.24e-05	0	46	0	14109638656	19	14185
2026-01-22 21:12:26.08	226.42	24.31	-24.0	-23.8	14.0	3.81e-05	0	45	0	14218690560	19	14213
2026-01-22 21:12:27.04	226.75	24.43	-24.0	-23.9	14.0	2.86e-05	0	46	0	14319353856	19	14311
2026-01-22 21:12:28.01	227.08	24.56	-24.0	-23.8	13.8	6.86e-05	0	46	0	14436794368	19	14239
2026-01-22 21:12:28.99	227.42	24.69	-23.8	-23.7	14.0	4.76e-05	0	45	0	14545846272	19	13991
2026-01-22 21:12:29.96	227.76	24.81	-23.9	-23.7	14.0	4.95e-05	0	45	0	14646509568	19	14032
2026-01-22 21:12:30.94	228.10	24.94	-23.9	-23.8	13.8	4.76e-05	0	45	0	14763950080	19	14121
2026-01-22 21:12:31.90	228.44	25.06	-23.8	-23.7	13.9	5.91e-05	0	46	0	14873001984	19	13960
2026-01-22 21:12:32.87	228.79	25.18	-24.0	-23.8	13.9	5.34e-05	0	46	0	14982053888	19	14188
2026-01-22 21:12:33.84	229.14	25.31	-23.8	-23.6	13.9	4.19e-05	0	46	0	15082717184	19	13921
2026-01-22 21:12:34.81	229.49	25.43	-24.0	-23.8	13.7	8.39e-05	0	46	0	15200157696	19	14173
2026-01-22 21:12:35.78	229.85	25.55	-23.7	-23.6	13.7	5.91e-05	0	45	0	15309209600	19	13792
2026-01-22 21:12:36.75	230.21	25.68	-23.8	-23.6	13.6	8.39e-05	0	46	0	15409872896	19	13944
2026-01-22 21:12:37.73	230.57	25.80	-23.7	-23.6	13.8	6.67e-05	0	46	0	15527313408	19	13825
2026-01-22 21:12:38.69	230.94	25.92	-23.8	-23.6	13.8	6.48e-05	0	46	0	15636365312	19	13856
2026-01-22 21:12:39.66	231.30	26.04	-23.8	-23.6	13.8	6.86e-05	0	46	0	15737028608	19	13865
2026-01-22 21:12:40.64	231.68	26.16	-23.7	-23.6	13.9	8.39e-05	0	45	0	15854469120	19	13843
2026-01-22 21:12:41.61	232.05	26.28	-23.5	-23.4	13.8	7.62e-05	0	46	0	15963521024	19	13486
2026-01-22 21:12:42.59	232.43	26.40	-23.4	-23.3	13.7	8.58e-05	0	46	0	16072572928	18	14131
2026-01-22 21:12:43.57	232.82	26.52	-23.5	-23.3	13.7	8.96e-05	0	46	0	16190013440	18	14217
2026-01-22 21:12:44.54	233.20	26.64	-23.5	-23.3	13.7	8.39e-05	0	45	0	16290676736	18	14249
2026-01-22 21:12:45.52	233.59	26.76	-23.4	-23.3	13.7	7.05e-05	0	46	0	16399728640	18	14157
2026-01-22 21:12:46.49	233.98	26.88	-23.4	-23.2	13.7	7.05e-05	0	46	0	16517169152	18	14109
2026-01-22 21:12:47.46	234.37	26.99	-23.3	-23.2	13.8	9.34e-05	0	46	0	16617832448	18	13968
2026-01-22 21:12:48.42	234.76	27.11	-23.5	-23.3	13.8	5.91e-05	0	46	0	16726884352	18	14174
2026-01-22 21:12:49.39	235.16	27.22	-23.3	-23.2	13.8	6.10e-05	0	45	0	16844324864	18	13984
2026-01-22 21:12:50.37	235.57	27.33	-23.3	-23.2	13.8	8.96e-05	0	46	0	16953376768	18	13953
2026-01-22 21:12:51.34	235.97	27.45	-23.2	-23.0	14.1	7.05e-05	0	46	0	17054040064	18	13706
2026-01-22 21:12:52.31	236.38	27.56	-23.3	-23.1	14.3	6.29e-05	0	46	0	17171480576	18	13878
2026-01-22 21:12:53.28	236.79	27.67	-23.1	-23.0	14.3	4.00e-05	0	46	0	17280532480	18	13639
2026-01-22 21:12:54.25	237.20	27.78	-23.1	-23.0	14.3	5.53e-05	0	46	0	17381195776	18	13685
2026-01-22 21:12:55.23	237.63	27.89	-23.0	-22.9	14.5	6.67e-05	0	45	0	17490247680	18	13520
2026-01-22 21:12:56.20	238.05	28.00	-22.9	-22.7	14.6	3.81e-05	0	46	0	17607688192	17	14072
2026-01-22 21:12:57.17	238.47	28.11	-22.9	-22.8	14.6	4.00e-05	0	46	0	17716740096	17	14129
2026-01-22 21:12:58.14	238.89	28.21	-22.9	-22.7	14.5	5.34e-05	0	46	0	17817403392	17	14021
2026-01-22 21:12:59.11	239.32	28.32	-22.9	-22.8	14.6	5.91e-05	0	46	0	17934843904	17	14123
2026-01-22 21:13:00.09	239.76	28.42	-22.8	-22.6	14.7	2.67e-05	0	46	0	18043895808	17	13863
2026-01-22 21:13:01.06	240.19	28.52	-22.9	-22.7	14.4	7.24e-05	0	46	0	18144559104	17	14066
2026-01-22 21:13:02.03	240.63	28.62	-23.0	-22.8	14.4	6.67e-05	0	46	0	18261999616	17	14205
2026-01-22 21:13:03.00	241.07	28.72	-22.9	-22.7	14.4	9.15e-05	0	46	0	18371051520	17	14046
2026-01-22 21:13:03.97	241.52	28.82	-22.8	-22.6	14.6	4.38e-05	0	46	0	18480103424	17	13859
2026-01-22 21:13:04.94	241.96	28.92	-22.7	-22.5	14.8	3.05e-05	0	46	0	18589155328	17	13780
2026-01-22 21:13:05.91	242.41	29.02	-22.7	-22.5	14.7	4.00e-05	0	46	0	18698207232	17	13771
2026-01-22 21:13:06.89	242.87	29.11	-22.7	-22.5	14.9	4.38e-05	0	45	0	18807259136	17	13762
2026-01-22 21:13:07.86	243.33	29.20	-22.7	-22.5	15.0	2.67e-05	0	46	0	18907922432	17	13767
2026-01-22 21:13:08.83	243.78	29.30	-22.6	-22.4	14.9	9.50e-06	0	45	0	19025362944	17	13573
2026-01-22 21:13:09.80	244.24	29.39	-22.6	-22.5	15.1	1.90e-06	0	46	0	19134414848	17	13649
2026-01-22 21:13:10.77	244.71	29.47	-22.7	-22.6	15.3	3.80e-06	0	46	0	19251855360	17	13844
2026-01-22 21:13:11.74	245.17	29.56	-22.6	-22.4	14.9	1.90e-05	0	46	0	19352518656	17	13599
2026-01-22 21:13:12.71	245.64	29.65	-22.7	-22.5	15.2	9.50e-06	0	46	0	19461570560	17	13778
2026-01-22 21:13:13.69	246.12	29.73	-22.6	-22.4	15.3	3.80e-06	0	46	0	19579011072	17	13561
2026-01-22 21:13:14.66	246.59	29.81	-22.6	-22.5	15.1	1.14e-05	0	46	0	19679674368	17	13684
2026-01-22 21:13:15.63	247.07	29.89	-22.6	-22.4	15.6	9.50e-06	0	46	0	19788726272	17	13564
2026-01-22 21:13:16.60	247.55	29.97	-22.5	-22.4	15.3	9.50e-06	0	46	0	19897778176	17	13520
2026-01-22 21:13:17.57	248.03	30.05	-22.6	-22.5	15.5	5.70e-06	0	46	0	20006830080	17	13668
2026-01-22 21:13:18.54	248.51	30.12	-22.6	-22.4	15.1	9.50e-06	0	46	0	20115881984	17	13549
2026-01-22 21:13:19.51	249.00	30.19	-22.5	-22.4	15.1	1.14e-05	0	46	0	20224933888	17	13493
2026-01-22 21:13:20.48	249.49	30.27	-22.7	-22.5	15.4	5.70e-06	0	46	0	20342374400	17	13679
2026-01-22 21:13:21.45	249.98	30.33	-22.6	-22.4	15.1	2.47e-05	0	46	0	20443037696	17	13616
2026-01-22 21:13:22.42	250.47	30.40	-22.5	-22.3	14.9	2.67e-05	0	46	0	20552089600	17	13451
2026-01-22 21:13:23.40	250.97	30.47	-22.4	-22.3	14.7	2.67e-05	0	46	0	20669530112	16	14156
2026-01-22 21:13:24.37	251.47	30.53	-22.5	-22.4	14.9	4.00e-05	0	46	0	20778582016	16	14282
2026-01-22 21:13:25.34	251.97	30.59	-22.5	-22.4	14.7	7.82e-05	0	46	0	20879245312	16	14331
2026-01-22 21:13:26.31	252.47	30.65	-22.4	-22.3	14.4	5.14e-05	0	45	0	20996685824	16	14139
2026-01-22 21:13:27.28	252.97	30.71	-22.5	-22.4	14.7	6.67e-05	0	46	0	21105737728	16	14278
2026-01-22 21:13:28.25	253.48	30.76	-22.5	-22.3	14.4	7.43e-05	0	46	0	21206401024	16	14219
2026-01-22 21:13:29.22	253.98	30.81	-22.4	-22.3	14.7	2.67e-05	0	46	0	21315452928	16	14113
2026-01-22 21:13:30.18	254.49	30.86	-22.5	-22.3	14.5	5.53e-05	0	46	0	21432893440	16	14250
2026-01-22 21:13:31.15	255.00	30.91	-22.6	-22.5	14.4	6.10e-05	0	46	0	21533556736	16	14441
2026-01-22 21:13:32.12	255.51	30.96	-22.4	-22.2	14.6	7.62e-05	0	46	0	21642608640	16	14096
2026-01-22 21:13:33.09	256.02	31.00	-22.4	-22.2	14.4	9.15e-05	0	46	0	21760049152	16	14106
2026-01-22 21:13:34.06	256.54	31.04	-22.4	-22.2	14.4	4.57e-05	0	46	0	21860712448	16	14007
2026-01-22 21:13:35.03	257.05	31.08	-22.5	-22.3	14.4	6.48e-05	0	46	0	21969764352	16	14216
2026-01-22 21:13:36.01	257.57	31.11	-22.4	-22.3	14.4	1.54e-04	0	46	0	22087204864	16	14142
2026-01-22 21:13:36.98	258.09	31.15	-22.6	-22.4	14.2	1.52e-04	0	46	0	22196256768	16	14325
2026-01-22 21:13:37.95	258.61	31.18	-22.5	-22.3	14.3	8.20e-05	0	46	0	22296920064	16	14207
2026-01-22 21:13:38.92	259.13	31.21	-22.5	-22.4	14.5	9.53e-05	0	46	0	22414360576	16	14331
2026-01-22 21:13:39.88	259.65	31.24	-22.5	-22.4	14.2	1.58e-04	0	46	0	22523412480	16	14322
2026-01-22 21:13:40.86	260.18	31.26	-22.5	-22.4	14.2	1.43e-04	0	46	0	22624075776	16	14279
2026-01-22 21:13:41.83	260.70	31.28	-22.5	-22.4	14.1	1.68e-04	0	46	0	22733127680	16	14292
2026-01-22 21:13:42.80	261.22	31.30	-22.5	-22.3	14.2	9.91e-05	0	46	0	22850568192	16	14272
2026-01-22 21:13:43.77	261.75	31.32	-22.7	-22.5	14.1	1.64e-04	0	46	0	22959620096	16	14523
2026-01-22 21:13:44.74	262.27	31.33	-22.6	-22.4	14.1	1.52e-04	0	46	0	23060283392	16	14439
2026-01-22 21:13:45.71	262.80	31.35	-22.7	-22.5	14.0	1.75e-04	0	46	0	23177723904	16	14495
2026-01-22 21:13:46.68	263.32	31.36	-22.5	-22.3	13.9	1.28e-04	0	45	0	23286775808	16	14238
2026-01-22 21:13:47.66	263.85	31.36	-22.6	-22.4	13.8	1.81e-04	0	46	0	23387439104	16	14430
2026-01-22 21:13:48.63	264.38	31.37	-22.6	-22.5	13.8	1.37e-04	0	46	0	23504879616	16	14456
2026-01-22 21:13:49.60	264.90	31.37	-22.7	-22.6	13.9	1.81e-04	0	45	0	23613931520	16	14631
2026-01-22 21:13:50.57	265.43	31.37	-22.7	-22.5	13.8	1.54e-04	0	45	0	23722983424	16	14518
2026-01-22 21:13:51.54	265.96	31.37	-22.7	-22.5	13.8	1.45e-04	0	46	0	23832035328	16	14603
2026-01-22 21:13:52.50	266.48	31.36	-22.6	-22.5	13.7	1.70e-04	0	46	0	23941087232	16	14497
2026-01-22 21:13:53.47	267.00	31.35	-22.7	-22.5	13.7	1.62e-04	0	46	0	24050139136	16	14534
2026-01-22 21:13:54.45	267.53	31.34	-22.7	-22.6	13.8	1.47e-04	0	46	0	24150802432	16	14637
2026-01-22 21:13:55.42	268.06	31.33	-22.7	-22.5	13.8	1.35e-04	0	46	0	24268242944	16	14516
2026-01-22 21:13:56.39	268.58	31.31	-22.7	-22.6	13.8	1.12e-04	0	46	0	24377294848	16	14613
2026-01-22 21:13:57.36	269.11	31.30	-22.8	-22.7	13.8	1.26e-04	0	46	0	24477958144	16	14818
2026-01-22 21:13:58.33	269.63	31.28	-22.8	-22.6	13.8	1.09e-04	0	46	0	24595398656	16	14719
2026-01-22 21:13:59.30	270.15	31.25	-22.8	-22.6	13.8	1.26e-04	0	46	0	24704450560	16	14662
2026-01-22 21:14:00.28	270.68	31.23	-22.8	-22.7	13.9	7.43e-05	0	46	0	24821891072	16	14787
2026-01-22 21:14:01.25	271.20	31.20	-22.9	-22.7	13.9	8.77e-05	0	46	0	24922554368	16	14836
2026-01-22 21:14:02.21	271.72	31.17	-22.9	-22.7	13.9	8.96e-05	0	46	0	25031606272	16	14838
2026-01-22 21:14:03.19	272.24	31.14	-22.9	-22.7	13.8	6.67e-05	0	46	0	25140658176	16	14860
2026-01-22 21:14:04.16	272.76	31.10	-22.9	-22.7	13.9	9.91e-05	0	46	0	25241321472	16	14839
2026-01-22 21:14:05.13	273.27	31.07	-22.9	-22.7	13.9	5.72e-05	0	46	0	25358761984	16	14862
2026-01-22 21:14:06.10	273.79	31.03	-22.9	-22.7	14.0	6.29e-05	0	46	0	25467813888	16	14881
2026-01-22 21:14:07.07	274.30	30.99	-22.9	-22.7	14.0	6.10e-05	0	46	0	25585254400	16	14823
2026-01-22 21:14:08.04	274.82	30.94	-22.9	-22.7	14.0	5.14e-05	0	46	0	25685917696	16	14933
2026-01-22 21:14:09.02	275.33	30.90	-22.8	-22.7	13.9	8.01e-05	0	46	0	25794969600	16	14811
2026-01-22 21:14:09.99	275.84	30.85	-22.9	-22.8	13.9	7.62e-05	0	46	0	25912410112	16	14980
2026-01-22 21:14:10.95	276.34	30.80	-23.0	-22.8	14.0	7.62e-05	0	46	0	26013073408	16	15045
2026-01-22 21:14:11.92	276.85	30.74	-23.0	-22.9	14.0	9.53e-05	0	46	0	26122125312	16	15124
2026-01-22 21:14:12.89	277.35	30.69	-23.0	-22.8	14.0	8.39e-05	0	46	0	26239565824	16	15056
2026-01-22 21:14:13.86	277.86	30.63	-23.0	-22.8	13.9	8.39e-05	0	46	0	26340229120	16	15117
2026-01-22 21:14:14.83	278.36	30.57	-23.1	-22.9	13.9	1.14e-04	0	46	0	26449281024	16	15238
2026-01-22 21:14:15.80	278.85	30.51	-23.1	-22.9	13.9	1.01e-04	0	46	0	26558332928	16	15230
2026-01-22 21:14:16.77	279.35	30.45	-23.1	-22.9	13.9	5.91e-05	0	46	0	26675773440	16	15180
2026-01-22 21:14:17.73	279.84	30.38	-23.1	-23.0	14.0	8.01e-05	0	46	0	26776436736	16	15306
2026-01-22 21:14:18.70	280.33	30.32	-23.0	-22.8	13.9	7.62e-05	0	46	0	26885488640	16	15007
2026-01-22 21:14:19.67	280.82	30.25	-23.1	-22.9	13.8	1.14e-04	0	46	0	27002929152	16	15291
2026-01-22 21:14:20.64	281.31	30.18	-23.1	-22.9	13.9	1.16e-04	0	46	0	27103592448	16	15241
2026-01-22 21:14:21.62	281.80	30.10	-23.1	-22.9	13.9	1.09e-04	0	46	0	27212644352	16	15223
2026-01-22 21:14:22.59	282.28	30.03	-23.3	-23.1	13.8	1.68e-04	0	46	0	27330084864	17	14675
2026-01-22 21:14:23.56	282.76	29.95	-23.2	-23.0	13.9	1.24e-04	0	45	0	27430748160	17	14566
2026-01-22 21:14:24.53	283.24	29.87	-23.2	-23.1	13.8	1.56e-04	0	46	0	27539800064	17	14631
2026-01-22 21:14:25.50	283.72	29.79	-23.2	-23.0	13.8	1.35e-04	0	46	0	27648851968	17	14529
2026-01-22 21:14:26.46	284.18	29.71	-23.2	-23.0	13.9	1.05e-04	0	46	0	27757903872	17	14583
2026-01-22 21:14:27.43	284.65	29.63	-23.3	-23.2	13.8	1.26e-04	0	46	0	27866955776	17	14783
2026-01-22 21:14:28.41	285.13	29.54	-23.3	-23.2	13.8	1.64e-04	0	46	0	27976007680	17	14806
2026-01-22 21:14:29.38	285.59	29.45	-23.3	-23.1	13.8	1.64e-04	0	46	0	28093448192	17	14763
2026-01-22 21:14:30.35	286.05	29.36	-23.3	-23.1	13.8	1.32e-04	0	46	0	28194111488	17	14733
2026-01-22 21:14:31.32	286.51	29.27	-23.4	-23.2	13.8	1.11e-04	0	46	0	28303163392	17	14831
2026-01-22 21:14:32.29	286.97	29.18	-23.5	-23.3	13.7	1.52e-04	0	46	0	28420603904	17	15011
2026-01-22 21:14:33.27	287.43	29.09	-23.5	-23.3	13.8	1.75e-04	0	46	0	28529655808	17	15057
2026-01-22 21:14:34.24	287.88	28.99	-23.5	-23.3	13.8	1.18e-04	0	46	0	28630319104	17	15097
2026-01-22 21:14:35.21	288.33	28.90	-23.5	-23.3	13.8	1.47e-04	0	46	0	28747759616	17	15111
2026-01-22 21:14:36.18	288.77	28.80	-23.5	-23.3	13.8	1.28e-04	0	46	0	28856811520	17	15042
2026-01-22 21:14:37.15	289.22	28.70	-23.6	-23.4	13.9	1.62e-04	0	46	0	28957474816	17	15194
2026-01-22 21:14:38.12	289.66	28.60	-23.6	-23.4	13.9	9.53e-05	0	46	0	29066526720	17	15178
2026-01-22 21:14:39.09	290.09	28.50	-23.6	-23.4	13.9	1.43e-04	0	46	0	29183967232	17	15264
2026-01-22 21:14:40.06	290.53	28.40	-23.7	-23.5	13.8	1.85e-04	0	46	0	29284630528	17	15345
2026-01-22 21:14:41.03	290.96	28.29	-23.8	-23.6	13.9	1.03e-04	0	46	0	29393682432	18	14682
2026-01-22 21:14:42.00	291.38	28.19	-23.7	-23.6	13.9	1.49e-04	0	46	0	29511122944	18	14611
2026-01-22 21:14:42.97	291.81	28.08	-23.8	-23.6	13.9	1.09e-04	0	46	0	29620174848	18	14742
2026-01-22 21:14:43.94	292.23	27.98	-23.9	-23.7	13.9	1.30e-04	0	46	0	29720838144	18	14906
2026-01-22 21:14:44.91	292.65	27.87	-23.9	-23.7	13.8	9.15e-05	0	46	0	29838278656	18	14888
2026-01-22 21:14:45.88	293.07	27.76	-23.9	-23.8	13.9	1.12e-04	0	46	0	29947330560	18	14963
2026-01-22 21:14:46.85	293.48	27.65	-23.9	-23.7	13.9	1.07e-04	0	46	0	30047993856	18	14925
2026-01-22 21:14:47.82	293.89	27.54	-24.0	-23.8	13.9	1.47e-04	0	46	0	30165434368	18	15055
2026-01-22 21:14:48.79	294.29	27.43	-24.0	-23.8	13.9	9.91e-05	0	46	0	30274486272	18	15056
2026-01-22 21:14:49.76	294.70	27.31	-24.0	-23.9	13.8	1.58e-04	0	46	0	30375149568	18	15145
2026-01-22 21:14:50.73	295.10	27.20	-24.1	-24.0	13.9	1.68e-04	0	46	0	30484201472	18	15324
2026-01-22 21:14:51.70	295.50	27.08	-24.1	-23.9	13.8	2.50e-04	0	46	0	30601641984	18	15264
2026-01-22 21:14:52.67	295.89	26.97	-24.3	-24.1	13.9	9.72e-05	0	46	0	30710693888	19	14674
2026-01-22 21:14:53.63	296.28	26.85	-24.2	-24.1	13.9	1.54e-04	0	46	0	30811357184	19	14617
2026-01-22 21:14:54.61	296.67	26.74	-24.2	-24.0	13.9	1.28e-04	0	46	0	30928797696	19	14601
2026-01-22 21:14:55.58	297.05	26.62	-24.3	-24.2	13.8	1.66e-04	0	46	0	31037849600	19	14815
2026-01-22 21:14:56.55	297.44	26.50	-24.4	-24.2	13.8	1.28e-04	0	46	0	31138512896	19	14910
2026-01-22 21:14:57.52	297.81	26.38	-24.4	-24.2	13.9	1.70e-04	0	46	0	31255953408	19	14850
2026-01-22 21:14:58.49	298.19	26.26	-24.5	-24.4	13.9	2.15e-04	0	46	0	31365005312	19	15123
2026-01-22 21:14:59.46	298.56	26.14	-24.5	-24.3	13.8	1.52e-04	0	46	0	31465668608	19	15113
2026-01-22 21:15:00.44	298.94	26.02	-24.5	-24.3	13.8	1.11e-04	0	46	0	31583109120	19	15114
2026-01-22 21:15:01.40	299.30	25.90	-24.5	-24.3	13.8	1.09e-04	0	46	0	31692161024	19	15087
2026-01-22 21:15:02.37	299.66	25.78	-24.6	-24.5	13.9	1.54e-04	0	46	0	31801212928	19	15321
2026-01-22 21:15:03.34	300.03	25.66	-24.6	-24.4	13.9	1.35e-04	0	46	0	31901876224	19	15279
2026-01-22 21:15:04.32	300.39	25.54	-24.7	-24.5	13.9	1.47e-04	0	46	0	32019316736	19	15456
2026-01-22 21:15:05.28	300.74	25.42	-24.5	-24.4	13.8	1.45e-04	0	46	0	32128368640	20	14312
2026-01-22 21:15:06.25	301.09	25.29	-24.6	-24.5	13.8	1.83e-04	0	46	0	32229031936	20	14449
2026-01-22 21:15:07.22	301.44	25.17	-24.6	-24.4	13.8	1.18e-04	0	46	0	32346472448	20	14418
2026-01-22 21:15:08.19	301.78	25.05	-24.6	-24.4	13.8	1.47e-04	0	46	0	32455524352	20	14415
2026-01-22 21:15:09.16	302.13	24.92	-24.7	-24.5	13.8	1.35e-04	0	46	0	32556187648	20	14500
2026-01-22 21:15:10.13	302.47	24.80	-24.7	-24.5	13.8	2.38e-04	0	46	0	32673628160	20	14532
2026-01-22 21:15:11.10	302.81	24.67	-24.7	-24.6	13.8	1.72e-04	0	46	0	32782680064	20	14648
2026-01-22 21:15:12.08	303.14	24.55	-24.7	-24.5	13.8	1.66e-04	0	46	0	32891731968	20	14582
2026-01-22 21:15:13.05	303.47	24.42	-24.7	-24.6	13.8	1.72e-04	0	45	0	33000783872	20	14634
2026-01-22 21:15:14.02	303.80	24.30	-24.9	-24.7	13.8	1.79e-04	0	46	0	33109835776	20	14894
2026-01-22 21:15:14.99	304.13	24.17	-24.9	-24.7	13.8	1.75e-04	0	46	0	33218887680	20	14929
2026-01-22 21:15:15.96	304.45	24.05	-24.8	-24.6	13.7	1.60e-04	0	46	0	33319550976	20	14747
2026-01-22 21:15:16.93	304.77	23.92	-24.9	-24.8	13.8	1.81e-04	0	46	0	33436991488	20	14970
2026-01-22 21:15:17.90	305.09	23.79	-24.9	-24.7	13.8	1.91e-04	0	46	0	33546043392	20	14840
2026-01-22 21:15:18.87	305.40	23.67	-24.9	-24.7	13.8	2.25e-04	0	46	0	33663483904	20	14927
2026-01-22 21:15:19.84	305.72	23.54	-24.9	-24.7	13.8	2.42e-04	0	46	0	33764147200	20	14932
2026-01-22 21:15:20.82	306.03	23.42	-25.0	-24.9	13.8	2.46e-04	0	46	0	33873199104	20	15125
2026-01-22 21:15:21.79	306.34	23.29	-25.0	-24.8	13.7	2.19e-04	0	46	0	33990639616	20	15088
2026-01-22 21:15:22.76	306.64	23.16	-25.1	-25.0	13.7	2.55e-04	0	46	0	34091302912	20	15297
2026-01-22 21:15:23.73	306.94	23.04	-25.1	-24.9	13.8	2.02e-04	0	46	0	34200354816	20	15216
2026-01-22 21:15:24.70	307.24	22.91	-25.3	-25.1	13.8	2.57e-04	0	46	0	34309406720	21	14705
2026-01-22 21:15:25.67	307.53	22.79	-25.2	-25.0	13.7	2.48e-04	0	46	0	34426847232	21	14572
2026-01-22 21:15:26.64	307.83	22.66	-25.2	-25.0	13.9	2.33e-04	0	46	0	34527510528	21	14594
2026-01-22 21:15:27.61	308.12	22.53	-25.3	-25.2	13.9	2.33e-04	0	46	0	34636562432	21	14795
2026-01-22 21:15:28.58	308.41	22.41	-25.5	-25.3	13.9	2.94e-04	0	46	0	34754002944	21	15047
2026-01-22 21:15:29.55	308.69	22.28	-25.5	-25.4	13.8	2.96e-04	0	46	0	34854666240	21	15150
2026-01-22 21:15:30.53	308.98	22.16	-25.4	-25.2	13.8	2.50e-04	0	46	0	34963718144	21	14933
2026-01-22 21:15:31.50	309.26	22.03	-25.5	-25.3	13.8	2.37e-04	0	46	0	35081158656	21	15044
2026-01-22 21:15:32.47	309.54	21.90	-25.5	-25.4	13.9	3.36e-04	0	46	0	35190210560	21	15162
2026-01-22 21:15:33.44	309.81	21.78	-25.5	-25.3	13.9	3.03e-04	0	46	0	35290873856	21	15094
2026-01-22 21:15:34.41	310.09	21.65	-25.6	-25.4	13.7	3.07e-04	0	46	0	35399925760	21	15196
2026-01-22 21:15:35.37	310.35	21.53	-26.2	-25.6	13.8	3.11e-04	0	46	0	35517366272	22	14722
2026-01-22 21:15:36.34	310.62	21.41	-25.6	-25.4	13.9	3.18e-04	0	46	0	35618029568	22	14407
2026-01-22 21:15:37.31	310.89	21.28	-25.7	-25.5	13.9	2.94e-04	0	46	0	35727081472	22	14545
2026-01-22 21:15:38.28	311.15	21.16	-25.7	-25.5	13.9	2.65e-04	0	46	0	35844521984	22	14570
2026-01-22 21:15:39.25	311.41	21.03	-25.7	-25.6	14.0	2.75e-04	0	46	0	35945185280	22	14625
2026-01-22 21:15:40.22	311.67	20.91	-25.8	-25.6	14.0	4.00e-04	0	46	0	36054237184	22	14742
2026-01-22 21:15:41.19	311.93	20.78	-25.8	-25.7	14.0	3.24e-04	0	46	0	36171677696	22	14817
2026-01-22 21:15:42.16	312.18	20.66	-25.8	-25.7	13.9	2.76e-04	0	46	0	36272340992	22	14787
2026-01-22 21:15:43.12	312.43	20.54	-25.9	-25.7	14.1	2.67e-04	0	45	0	36381392896	22	14866
2026-01-22 21:15:44.09	312.68	20.42	-25.9	-25.7	14.0	3.68e-04	0	45	0	36498833408	22	14859
2026-01-22 21:15:45.06	312.93	20.29	-25.9	-25.7	13.9	3.49e-04	0	46	0	36599496704	22	14916
2026-01-22 21:15:46.03	313.18	20.17	-26.0	-25.8	14.0	3.57e-04	0	46	0	36708548608	22	15058
2026-01-22 21:15:47.00	313.42	20.05	-26.0	-25.9	13.8	3.32e-04	0	46	0	36817600512	22	15123
2026-01-22 21:15:47.97	313.66	19.93	-26.1	-25.9	13.9	3.34e-04	0	46	0	36935041024	22	15273
2026-01-22 21:15:48.93	313.90	19.81	-26.0	-25.9	14.0	3.05e-04	0	46	0	37035704320	22	15152
2026-01-22 21:15:49.90	314.14	19.68	-26.1	-25.9	13.9	3.05e-04	0	46	0	37144756224	22	15280
2026-01-22 21:15:50.87	314.37	19.56	-26.1	-26.0	14.0	3.43e-04	0	46	0	37262196736	22	15336
2026-01-22 21:15:51.85	314.61	19.44	-26.3	-26.1	13.9	3.05e-04	0	46	0	37362860032	23	14694
2026-01-22 21:15:52.82	314.84	19.32	-26.3	-26.1	14.0	3.26e-04	0	46	0	37471911936	23	14744
2026-01-22 21:15:53.78	315.07	19.20	-26.2	-26.1	13.9	3.34e-04	0	46	0	37589352448	23	14635
2026-01-22 21:15:54.76	315.29	19.08	-26.4	-26.2	14.1	3.43e-04	0	46	0	37690015744	23	14876
2026-01-22 21:15:55.72	315.52	18.96	-26.4	-26.3	13.9	3.34e-04	0	46	0	37799067648	23	14977
2026-01-22 21:15:56.69	315.74	18.84	-26.4	-26.2	13.9	3.64e-04	0	46	0	37916508160	23	14859
2026-01-22 21:15:57.66	315.96	18.72	-26.4	-26.3	13.8	3.91e-04	0	46	0	38017171456	23	15007
2026-01-22 21:15:58.63	316.18	18.61	-26.5	-26.4	14.0	3.70e-04	0	46	0	38126223360	23	15142
2026-01-22 21:15:59.60	316.40	18.49	-26.6	-26.4	13.8	3.99e-04	0	46	0	38235275264	23	15250
2026-01-22 21:16:00.57	316.61	18.37	-26.6	-26.5	13.9	3.91e-04	0	46	0	38352715776	23	15317
2026-01-22 21:16:01.54	316.83	18.25	-26.5	-26.4	13.8	3.97e-04	0	46	0	38453379072	23	15194
2026-01-22 21:16:02.51	317.04	18.14	-26.6	-26.5	13.8	3.85e-04	0	46	0	38562430976	23	15329
2026-01-22 21:16:03.48	317.25	18.02	-26.8	-26.6	14.0	3.64e-04	0	46	0	38679871488	24	14697
2026-01-22 21:16:04.45	317.46	17.90	-26.7	-26.6	13.8	3.95e-04	0	46	0	38780534784	24	14655
2026-01-22 21:16:05.42	317.66	17.79	-26.8	-26.6	13.9	3.57e-04	0	46	0	38889586688	24	14701
2026-01-22 21:16:06.39	317.87	17.67	-26.8	-26.6	13.8	4.29e-04	0	46	0	39007027200	24	14759
2026-01-22 21:16:07.36	318.07	17.55	-26.9	-26.7	13.7	3.93e-04	0	46	0	39107690496	24	14944
2026-01-22 21:16:08.34	318.28	17.44	-26.9	-26.8	13.8	4.21e-04	0	46	0	39216742400	24	14999
2026-01-22 21:16:09.31	318.48	17.32	-26.9	-26.7	13.9	4.04e-04	0	46	0	39334182912	24	14917
2026-01-22 21:16:10.28	318.67	17.21	-27.0	-26.8	13.8	3.58e-04	0	46	0	39443234816	24	15027
2026-01-22 21:16:11.25	318.87	17.10	-27.0	-26.8	13.8	3.87e-04	0	46	0	39543898112	24	15071
2026-01-22 21:16:12.22	319.06	16.98	-27.0	-26.9	13.9	3.58e-04	0	46	0	39652950016	24	15153
2026-01-22 21:16:13.19	319.26	16.87	-27.1	-26.9	13.8	3.91e-04	0	46	0	39770390528	24	15203
2026-01-22 21:16:14.16	319.45	16.76	-27.1	-26.9	13.7	4.25e-04	0	46	0	39871053824	24	15281
2026-01-22 21:16:15.13	319.64	16.64	-27.2	-27.1	13.8	4.56e-04	0	46	0	39980105728	25	14639
2026-01-22 21:16:16.10	319.83	16.53	-27.3	-27.1	13.9	4.39e-04	0	46	0	40097546240	25	14760
2026-01-22 21:16:17.07	320.01	16.42	-27.3	-27.2	13.9	3.87e-04	0	46	0	40206598144	25	14810
2026-01-22 21:16:18.04	320.20	16.31	-27.3	-27.1	13.8	4.08e-04	0	46	0	40307261440	25	14754
2026-01-22 21:16:19.01	320.38	16.20	-27.4	-27.2	13.8	4.25e-04	0	46	0	40424701952	25	14933
2026-01-22 21:16:19.99	320.57	16.09	-27.4	-27.2	14.0	3.80e-04	0	46	0	40533753856	25	14890
2026-01-22 21:16:20.96	320.75	15.98	-27.4	-27.2	14.1	3.64e-04	0	46	0	40634417152	25	14914
2026-01-22 21:16:21.92	320.92	15.87	-27.5	-27.3	14.2	3.15e-04	0	46	0	40751857664	25	15049
2026-01-22 21:16:22.89	321.10	15.76	-27.5	-27.4	14.1	3.11e-04	0	46	0	40860909568	25	15171
2026-01-22 21:16:23.86	321.28	15.65	-27.5	-27.4	14.1	2.99e-04	0	46	0	40961572864	25	15139
2026-01-22 21:16:24.83	321.45	15.54	-27.7	-27.5	14.1	3.70e-04	0	46	0	41070624768	25	15385
2026-01-22 21:16:25.81	321.63	15.43	-27.7	-27.5	14.0	2.57e-04	0	46	0	41188065280	26	14508
2026-01-22 21:16:26.78	321.80	15.33	-27.8	-27.6	14.0	3.51e-04	0	46	0	41297117184	26	14678
2026-01-22 21:16:27.74	321.97	15.22	-27.8	-27.7	14.0	4.58e-04	0	46	0	41397780480	26	14803
2026-01-22 21:16:28.71	322.14	15.11	-27.7	-27.6	14.1	3.07e-04	0	46	0	41515220992	26	14629
2026-01-22 21:16:29.68	322.30	15.01	-27.8	-27.7	14.1	3.36e-04	0	46	0	41624272896	26	14806
2026-01-22 21:16:30.65	322.47	14.90	-27.8	-27.7	14.1	3.38e-04	0	46	0	41724936192	26	14791
2026-01-22 21:16:31.63	322.64	14.79	-28.0	-27.8	14.1	3.34e-04	0	46	0	41842376704	26	15049
2026-01-22 21:16:32.60	322.80	14.69	-27.9	-27.8	14.1	3.32e-04	0	46	0	41951428608	26	14952
2026-01-22 21:16:33.57	322.96	14.58	-28.0	-27.8	14.2	3.93e-04	0	46	0	42060480512	26	15042
2026-01-22 21:16:34.54	323.12	14.48	-50.3	-50.9	7.5	0.00e+00	0	46	104	42135977984	71	16173
2026-01-22 21:16:35.51	323.28	14.37	-54.4	-56.7	6.2	0.00e+00	0	46	104	42135977984	79	19706
2026-01-22 21:16:36.48	323.44	14.27	-54.4	-56.6	6.2	0.00e+00	0	46	104	42135977984	79	19487
2026-01-22 21:16:37.45	323.60	14.17	-54.4	-56.5	6.2	0.00e+00	0	46	104	42135977984	79	19442
2026-01-22 21:16:38.42	323.76	14.06	-54.5	-56.6	6.2	0.00e+00	0	46	104	42135977984	79	19481
2026-01-22 21:16:39.39	323.91	13.96	-54.4	-56.5	6.2	0.00e+00	0	46	104	42135977984	79	19418
2026-01-22 21:16:40.36	324.06	13.86	-54.4	-56.5	6.2	0.00e+00	0	45	104	42135977984	79	19395
2026-01-22 21:16:41.33	324.22	13.76	-54.4	-56.5	6.2	0.00e+00	0	46	104	42135977984	79	19397
2026-01-22 21:16:42.30	324.37	13.65	-54.4	-56.4	6.2	0.00e+00	0	45	104	42135977984	79	19223
2026-01-22 21:16:43.26	324.52	13.55	-54.3	-56.4	6.2	0.00e+00	0	45	104	42135977984	79	19147
2026-01-22 21:16:44.23	324.67	13.45	-54.3	-56.4	6.2	0.00e+00	0	45	104	42135977984	79	19172
2026-01-22 21:16:45.20	324.81	13.35	-54.3	-56.3	6.2	0.00e+00	0	45	104	42135977984	79	18991
2026-01-22 21:16:46.17	324.96	13.25	-54.3	-56.3	6.2	0.00e+00	0	45	104	42135977984	79	18995
2026-01-22 21:16:47.14	325.11	13.15	-54.3	-56.4	6.2	0.00e+00	0	45	104	42135977984	79	19049
2026-01-22 21:16:48.11	325.25	13.05	-54.3	-56.3	6.2	0.00e+00	0	45	104	42135977984	79	19010
2026-01-22 21:16:49.08	325.39	12.96	-54.2	-56.3	6.2	0.00e+00	0	45	104	42135977984	79	18892
2026-01-22 21:16:50.05	325.54	12.86	-54.2	-56.3	6.2	0.00e+00	0	45	104	42135977984	79	18959
2026-01-22 21:16:51.02	325.68	12.76	-54.2	-56.3	6.2	0.00e+00	0	45	104	42135977984	79	18997
2026-01-22 21:16:51.99	325.82	12.66	-54.2	-56.3	6.2	0.00e+00	0	46	104	42135977984	79	18931
2026-01-22 21:16:52.96	325.96	12.56	-54.2	-56.3	6.2	0.00e+00	0	45	104	42135977984	79	18905
2026-01-22 21:16:53.93	326.09	12.47	-54.2	-56.3	6.2	0.00e+00	0	45	104	42135977984	79	18910
2026-01-22 21:16:54.90	326.23	12.37	-54.2	-56.3	6.2	0.00e+00	0	45	104	42135977984	79	18896
2026-01-22 21:16:55.87	326.37	12.27	-54.2	-56.3	6.2	0.00e+00	0	45	104	42135977984	79	18837
2026-01-22 21:16:56.84	326.50	12.18	-54.2	-56.3	6.2	0.00e+00	0	45	104	42135977984	79	18855
2026-01-22 21:16:57.81	326.64	12.08	-54.1	-56.2	6.2	0.00e+00	0	45	104	42135977984	79	18799
2026-01-22 21:16:58.78	326.77	11.99	-54.2	-56.3	6.2	0.00e+00	0	45	104	42135977984	79	18828
2026-01-22 21:16:59.75	326.90	11.89	-54.1	-56.2	6.2	0.00e+00	0	45	104	42135977984	79	18724
2026-01-22 21:17:00.73	327.03	11.80	-54.1	-56.2	6.2	0.00e+00	0	45	104	42135977984	79	18691
2026-01-22 21:17:01.70	327.16	11.70	-54.1	-56.2	6.2	0.00e+00	0	46	104	42135977984	79	18687
2026-01-22 21:17:02.67	327.29	11.61	-54.1	-56.2	6.2	0.00e+00	0	45	104	42135977984	79	18695
2026-01-22 21:17:03.64	327.42	11.52	-54.1	-56.2	6.2	0.00e+00	0	45	104	42135977984	79	18620
2026-01-22 21:17:04.60	327.55	11.42	-54.0	-56.2	6.2	0.00e+00	0	45	104	42135977984	79	18608
2026-01-22 21:17:05.57	327.67	11.33	-54.0	-56.1	6.2	0.00e+00	0	45	104	42135977984	79	18593
2026-01-22 21:17:06.54	327.80	11.24	-54.0	-56.2	6.2	0.00e+00	0	45	104	42135977984	79	18608
2026-01-22 21:17:07.51	327.92	11.15	-54.0	-56.1	6.2	0.00e+00	0	45	104	42135977984	79	18575
2026-01-22 21:17:08.48	328.05	11.05	-54.0	-56.1	6.2	0.00e+00	0	45	104	42135977984	79	18518
2026-01-22 21:17:09.44	328.17	10.96	-54.0	-56.1	6.2	0.00e+00	0	45	104	42135977984	79	18526
2026-01-22 21:17:10.41	328.29	10.87	-54.0	-56.1	6.2	0.00e+00	0	45	104	42135977984	79	18478
2026-01-22 21:17:11.38	328.41	10.78	-54.0	-56.1	6.2	0.00e+00	0	45	104	42135977984	79	18435
2026-01-22 21:17:12.36	328.53	10.69	-54.0	-56.1	6.2	0.00e+00	0	45	104	42135977984	79	18452
2026-01-22 21:17:13.33	328.65	10.60	-54.0	-56.0	6.2	0.00e+00	0	45	104	42135977984	79	18368
2026-01-22 21:17:14.29	328.77	10.51	-53.9	-56.0	6.2	0.00e+00	0	45	104	42135977984	79	18358
2026-01-22 21:17:15.26	328.89	10.42	-53.9	-56.1	6.2	0.00e+00	0	45	104	42135977984	79	18418
2026-01-22 21:17:16.23	329.00	10.33	-53.9	-56.0	6.2	0.00e+00	0	45	104	42135977984	79	18387
2026-01-22 21:17:17.20	329.12	10.24	-53.9	-56.0	6.2	0.00e+00	0	46	104	42135977984	79	18320
2026-01-22 21:17:18.16	329.23	10.16	-53.9	-56.0	6.2	0.00e+00	0	45	104	42135977984	79	18245
2026-01-22 21:17:19.13	329.35	10.07	-53.9	-56.0	6.2	0.00e+00	0	45	104	42135977984	79	18341
2026-01-22 21:17:20.10	329.46	9.98	-53.9	-56.0	6.2	0.00e+00	0	45	104	42135977984	79	18299
2026-01-22 21:17:21.07	329.57	9.89	-53.9	-56.0	6.2	0.00e+00	0	45	104	42135977984	79	18233
2026-01-22 21:17:22.03	329.68	9.81	-53.9	-56.0	6.2	0.00e+00	0	45	104	42135977984	79	18212
2026-01-22 21:17:23.00	329.80	9.72	-53.9	-56.0	6.2	0.00e+00	0	45	104	42135977984	79	18275
2026-01-22 21:17:23.97	329.91	9.63	-53.9	-56.0	6.2	0.00e+00	0	45	104	42135977984	79	18183
2026-01-22 21:17:24.94	330.02	9.55	-53.8	-56.0	6.2	0.00e+00	0	45	104	42135977984	79	18189
2026-01-22 21:17:25.90	330.12	9.46	-53.8	-55.9	6.2	0.00e+00	0	45	104	42135977984	79	18078
2026-01-22 21:17:26.88	330.23	9.38	-53.9	-56.0	6.2	0.00e+00	0	45	104	42135977984	79	18210
2026-01-22 21:17:27.84	330.34	9.29	-53.8	-55.9	6.2	0.00e+00	0	45	104	42135977984	79	18074
2026-01-22 21:17:28.81	330.45	9.21	-53.8	-55.9	6.2	0.00e+00	0	45	104	42135977984	79	18165
2026-01-22 21:17:29.78	330.55	9.12	-53.8	-55.9	6.2	0.00e+00	0	45	104	42135977984	79	17995
2026-01-22 21:17:30.75	330.66	9.04	-53.8	-55.9	6.2	0.00e+00	0	45	104	42135977984	79	18143
2026-01-22 21:17:31.73	330.76	8.95	-53.8	-55.9	6.2	0.00e+00	0	45	104	42135977984	79	18008
2026-01-22 21:17:32.70	330.87	8.87	-53.8	-55.9	6.2	0.00e+00	0	45	104	42135977984	79	18050
2026-01-22 21:17:33.67	330.97	8.78	-53.8	-55.9	6.2	0.00e+00	0	45	104	42135977984	79	17975
2026-01-22 21:17:34.64	331.07	8.70	-53.8	-55.9	6.2	0.00e+00	0	45	104	42135977984	79	18026
2026-01-22 21:17:35.61	331.18	8.62	-53.8	-55.9	6.2	0.00e+00	0	45	104	42135977984	79	17989
2026-01-22 21:17:36.57	331.28	8.54	-53.8	-55.9	6.2	0.00e+00	0	45	104	42135977984	79	18053
2026-01-22 21:17:37.54	331.38	8.45	-53.7	-55.8	6.2	0.00e+00	0	45	104	42135977984	79	17912
2026-01-22 21:17:38.51	331.48	8.37	-53.7	-55.8	6.2	0.00e+00	0	45	104	42135977984	79	17895
2026-01-22 21:17:39.48	331.58	8.29	-53.7	-55.8	6.2	0.00e+00	0	45	104	42135977984	79	17892
2026-01-22 21:17:40.45	331.67	8.21	-53.7	-55.8	6.2	0.00e+00	0	45	104	42135977984	79	17866
2026-01-22 21:17:41.42	331.77	8.13	-53.7	-55.8	6.2	0.00e+00	0	45	104	42135977984	79	17842
2026-01-22 21:17:42.39	331.87	8.05	-53.7	-55.8	6.2	0.00e+00	0	45	104	42135977984	79	17889
2026-01-22 21:17:43.36	331.97	7.97	-53.7	-55.8	6.2	0.00e+00	0	45	104	42135977984	79	17842
2026-01-22 21:17:44.33	332.06	7.89	-53.7	-55.8	6.2	0.00e+00	0	45	104	42135977984	79	17775
2026-01-22 21:17:45.30	332.16	7.81	-53.7	-55.7	6.2	0.00e+00	0	45	104	42135977984	79	17740
2026-01-22 21:17:46.26	332.25	7.73	-53.6	-55.8	6.2	0.00e+00	0	45	104	42135977984	79	17805
2026-01-22 21:17:47.23	332.35	7.65	-53.7	-55.8	6.2	0.00e+00	0	45	104	42135977984	79	17813
2026-01-22 21:17:48.20	332.44	7.57	-53.6	-55.7	6.2	0.00e+00	0	45	104	42135977984	79	17713
2026-01-22 21:17:49.17	332.53	7.49	-53.6	-55.7	6.2	0.00e+00	0	45	104	42135977984	79	17709
2026-01-22 21:17:50.14	332.63	7.41	-53.6	-55.7	6.2	0.00e+00	0	45	104	42135977984	79	17601
2026-01-22 21:17:51.11	332.72	7.33	-53.6	-55.8	6.2	0.00e+00	0	45	104	42135977984	79	17820
2026-01-22 21:17:52.08	332.81	7.25	-53.6	-55.7	6.2	0.00e+00	0	45	104	42135977984	79	17643
2026-01-22 21:17:53.05	332.90	7.18	-53.6	-55.7	6.2	0.00e+00	0	45	104	42135977984	79	17732
2026-01-22 21:17:54.02	332.99	7.10	-53.5	-55.6	6.2	0.00e+00	0	45	104	42135977984	79	17562
2026-01-22 21:17:54.99	333.08	7.02	-53.6	-55.7	6.2	0.00e+00	0	45	104	42135977984	79	17695
2026-01-22 21:17:55.96	333.17	6.94	-53.5	-55.6	6.2	0.00e+00	0	45	104	42135977984	79	17558
2026-01-22 21:17:56.93	333.26	6.87	-53.6	-55.7	6.2	0.00e+00	0	45	104	42135977984	79	17602
2026-01-22 21:17:57.90	333.35	6.79	-53.5	-55.6	6.2	0.00e+00	0	45	104	42135977984	79	17438
2026-01-22 21:17:58.87	333.43	6.71	-53.6	-55.7	6.2	0.00e+00	0	45	104	42135977984	79	17678
2026-01-22 21:17:59.85	333.52	6.64	-53.5	-55.6	6.2	0.00e+00	0	45	104	42135977984	79	17441
2026-01-22 21:18:00.82	333.61	6.56	-53.5	-55.7	6.2	0.00e+00	0	45	104	42135977984	79	17583
2026-01-22 21:18:01.78	333.69	6.48	-53.4	-55.5	6.2	0.00e+00	0	45	104	42135977984	78	18343
2026-01-22 21:18:02.75	333.78	6.41	-53.5	-55.6	6.2	0.00e+00	0	45	104	42135977984	78	18550
2026-01-22 21:18:03.73	333.87	6.33	-53.4	-55.5	6.2	0.00e+00	0	45	104	42135977984	78	18349
2026-01-22 21:18:04.70	333.95	6.26	-53.5	-55.6	6.2	0.00e+00	0	45	104	42135977984	78	18478
2026-01-22 21:18:05.67	334.03	6.18	-53.4	-55.5	6.2	0.00e+00	0	45	104	42135977984	78	18197
2026-01-22 21:18:06.64	334.12	6.11	-53.5	-55.6	6.2	0.00e+00	0	45	104	42135977984	78	18417
2026-01-22 21:18:07.61	334.20	6.03	-53.3	-55.4	6.2	0.00e+00	0	45	104	42135977984	78	18016
2026-01-22 21:18:08.58	334.28	5.96	-53.4	-55.5	6.2	0.00e+00	0	45	104	42135977984	78	18339
2026-01-22 21:18:09.54	334.36	5.89	-53.2	-55.3	6.2	0.00e+00	0	45	104	42135977984	78	17913
2026-01-22 21:18:10.51	334.45	5.81	-53.2	-55.3	6.2	0.00e+00	0	45	104	42135977984	77	18995
2026-01-22 21:18:11.49	334.53	5.74	-52.8	-54.8	6.2	0.00e+00	0	45	104	42135977984	77	17906
2026-01-22 21:18:12.46	334.61	5.67	-52.3	-54.4	6.2	0.00e+00	0	45	104	42135977984	76	18005
2026-01-22 21:18:13.42	334.69	5.59	-52.4	-54.5	6.2	0.00e+00	0	45	104	42135977984	76	18250
2026-01-22 21:18:14.39	334.77	5.52	-52.2	-54.3	6.2	0.00e+00	0	45	104	42135977984	76	17817
2026-01-22 21:18:15.36	334.85	5.45	-52.3	-54.4	6.2	0.00e+00	0	45	104	42135977984	76	18030
2026-01-22 21:18:16.34	334.93	5.38	-52.5	-54.6	6.2	0.00e+00	0	45	104	42135977984	76	18570
2026-01-22 21:18:17.30	335.00	5.30	-53.0	-55.1	6.2	0.00e+00	0	45	104	42135977984	76	19584
2026-01-22 21:18:18.27	335.08	5.23	-52.9	-55.0	6.2	0.00e+00	0	45	104	42135977984	76	19352
2026-01-22 21:18:19.24	335.16	5.16	-52.5	-54.6	6.2	0.00e+00	0	45	104	42135977984	76	18418
2026-01-22 21:18:20.21	335.24	5.09	-52.4	-54.5	6.2	0.00e+00	0	45	104	42135977984	76	18282
2026-01-22 21:18:21.18	335.31	5.02	-53.2	-55.4	6.2	0.00e+00	0	45	104	42135977984	77	19045
2026-01-22 21:18:22.15	335.39	4.95	-53.6	-55.7	6.2	0.00e+00	0	45	104	42135977984	77	19821
2026-01-22 21:18:23.13	335.47	4.88	-54.1	-56.1	6.2	0.00e+00	0	45	104	42135977984	78	19671
2026-01-22 21:18:24.10	335.54	4.80	-54.4	-56.5	6.2	0.00e+00	0	45	104	42135977984	79	19314
2026-01-22 21:18:25.06	335.62	4.74	-54.6	-56.7	6.2	0.00e+00	0	45	104	42135977984	79	19756
2026-01-22 21:18:26.03	335.69	4.67	-54.7	-56.8	6.2	0.00e+00	0	45	104	42135977984	80	18926
2026-01-22 21:18:27.00	335.76	4.60	-54.8	-56.9	6.2	0.00e+00	0	45	104	42135977984	80	19121
2026-01-22 21:18:27.97	335.84	4.53	-54.9	-57.0	6.2	0.00e+00	0	45	104	42135977984	80	19312
2026-01-22 21:18:28.94	335.91	4.46	-54.9	-57.0	6.2	0.00e+00	0	45	104	42135977984	80	19416
2026-01-22 21:18:29.91	335.98	4.39	-54.9	-57.0	6.2	0.00e+00	0	45	104	42135977984	80	19440
2026-01-22 21:18:30.88	336.06	4.32	-54.9	-57.0	6.2	0.00e+00	0	45	104	42135977984	80	19356
2026-01-22 21:18:31.85	336.13	4.25	-54.8	-56.9	6.2	0.00e+00	0	45	104	42135977984	80	19254
2026-01-22 21:18:32.82	336.20	4.18	-54.8	-56.9	6.2	0.00e+00	0	45	104	42135977984	80	19140
2026-01-22 21:18:33.79	336.27	4.11	-54.7	-56.8	6.2	0.00e+00	0	45	104	42135977984	80	18889
2026-01-22 21:18:34.76	336.34	4.04	-54.6	-56.7	6.2	0.00e+00	0	45	104	42135977984	80	18799
2026-01-22 21:18:35.73	336.41	3.97	-54.6	-56.7	6.2	0.00e+00	0	45	104	42135977984	80	18758
2026-01-22 21:18:36.70	336.48	3.91	-54.6	-56.7	6.2	0.00e+00	0	45	104	42135977984	80	18759
2026-01-22 21:18:37.67	336.55	3.84	-54.7	-56.7	6.2	0.00e+00	0	45	104	42135977984	80	18816
2026-01-22 21:18:38.64	336.62	3.77	-54.6	-56.7	6.2	0.00e+00	0	45	104	42135977984	80	18815
2026-01-22 21:18:39.61	336.69	3.70	-54.6	-56.7	6.2	0.00e+00	0	45	104	42135977984	80	18767
2026-01-22 21:18:40.57	336.76	3.64	-54.6	-56.7	6.2	0.00e+00	0	45	104	42135977984	80	18746
2026-01-22 21:18:41.54	336.83	3.57	-54.6	-56.7	6.2	0.00e+00	0	45	104	42135977984	80	18666
2026-01-22 21:18:42.52	336.89	3.50	-54.6	-56.6	6.2	0.00e+00	0	45	104	42135977984	80	18579
2026-01-22 21:18:43.49	336.96	3.44	-54.5	-56.6	6.2	0.00e+00	0	45	104	42135977984	80	18508
2026-01-22 21:18:44.46	337.03	3.37	-54.5	-56.6	6.2	0.00e+00	0	45	104	42135977984	80	18423
2026-01-22 21:18:45.43	337.10	3.30	-54.4	-56.5	6.2	0.00e+00	0	45	104	42135977984	80	18306
2026-01-22 21:18:46.40	337.16	3.24	-54.4	-56.5	6.2	0.00e+00	0	45	104	42135977984	80	18286
2026-01-22 21:18:47.37	337.23	3.17	-54.4	-56.5	6.2	0.00e+00	0	45	104	42135977984	80	18307
2026-01-22 21:18:48.34	337.29	3.11	-54.4	-56.5	6.2	0.00e+00	0	45	104	42135977984	80	18306
2026-01-22 21:18:49.30	337.36	3.04	-54.4	-56.5	6.2	0.00e+00	0	45	104	42135977984	80	18262
2026-01-22 21:18:50.27	337.42	2.98	-54.4	-56.5	6.2	0.00e+00	0	45	104	42135977984	80	18256
2026-01-22 21:18:51.24	337.49	2.91	-54.4	-56.5	6.2	0.00e+00	0	45	104	42135977984	80	18206
2026-01-22 21:18:52.21	337.55	2.84	-54.4	-56.5	6.2	0.00e+00	0	45	104	42135977984	80	18210
2026-01-22 21:18:53.18	337.62	2.78	-54.4	-56.5	6.2	0.00e+00	0	45	104	42135977984	80	18191
2026-01-22 21:18:54.14	337.68	2.72	-54.3	-56.4	6.2	0.00e+00	0	45	104	42135977984	80	18168
2026-01-22 21:18:55.12	337.75	2.65	-54.3	-56.4	6.2	0.00e+00	0	45	104	42135977984	80	18164
2026-01-22 21:18:56.08	337.81	2.59	-54.3	-56.4	6.2	0.00e+00	0	45	104	42135977984	80	18153
2026-01-22 21:18:57.06	337.87	2.52	-54.3	-56.5	6.2	0.00e+00	0	45	104	42135977984	80	18181
2026-01-22 21:18:58.02	337.93	2.46	-54.3	-56.4	6.2	0.00e+00	0	45	104	42135977984	80	18126
2026-01-22 21:18:58.99	338.00	2.39	-54.3	-56.4	6.2	0.00e+00	0	45	104	42135977984	80	18104
2026-01-22 21:18:59.96	338.06	2.33	-54.3	-56.4	6.2	0.00e+00	0	45	104	42135977984	80	18136
2026-01-22 21:19:00.93	338.12	2.27	-54.3	-56.4	6.2	0.00e+00	0	45	104	42135977984	80	18084
2026-01-22 21:19:01.90	338.18	2.20	-54.3	-56.4	6.2	0.00e+00	0	45	104	42135977984	80	18080
2026-01-22 21:19:02.87	338.24	2.14	-54.3	-56.4	6.2	0.00e+00	0	45	104	42135977984	80	18059
2026-01-22 21:19:03.84	338.30	2.08	-54.3	-56.4	6.2	0.00e+00	0	45	104	42135977984	80	18041
2026-01-22 21:19:04.81	338.36	2.01	-54.3	-56.4	6.2	0.00e+00	0	45	104	42135977984	80	18022
2026-01-22 21:19:05.79	338.42	1.95	-54.3	-56.4	6.2	0.00e+00	0	45	104	42135977984	80	18037

#Closed at: 2026-01-22 21:19:06
#Recorded file [42135 MB]: D:/lorett/data/31041_260123_000837.dat