passes_logs/2026/01/22/R3.2S_Murmansk/R3.2S_Murmansk__20260122_010053_NOAA_20_JPSS-1_rec.log

#Pass ID: 20260122_010053_NOAA 20 (JPSS-1)
#Satellite: NOAA 20 (JPSS-1)
#Configuration: NOAA 20
#almurnet v.1.7.20251203
#Start time: 2026-01-22 01:00:52

#Version: 2.2.20231116
#Station: R3.2S_Murmansk
#Location: 33.079688 lon 68.888172 lat
#TLE: 1 43013U 17073A   26021.46221703  .00000173  00000+0  10299-3 0  9999
#TLE: 2 43013  98.7644 322.3335 0001238  29.7597 330.3649 14.19538314423652

#Time	Az	El	Level	Level2	SNR	BER	BlckErr	Temp	State	Recorded	gain1	gain2
2026-01-22 01:00:52.87	25.82	1.96	-54.2	-69.2	3.8	1.49e+00	0	39	0	0	79	20845
2026-01-22 01:00:53.86	25.81	2.03	-54.3	-69.3	3.8	1.49e+00	0	39	104	0	79	21221
2026-01-22 01:00:54.87	25.81	2.09	-54.3	-69.4	3.8	1.49e+00	0	39	104	0	79	21322
2026-01-22 01:00:55.88	25.80	2.16	-54.4	-69.4	3.8	1.49e+00	0	39	104	0	79	21303
2026-01-22 01:00:56.88	25.80	2.22	-54.4	-69.4	3.8	1.49e+00	0	39	104	0	79	21406
2026-01-22 01:00:57.89	25.79	2.29	-54.4	-69.4	3.8	1.49e+00	0	39	104	0	79	21370
2026-01-22 01:00:58.90	25.79	2.35	-54.3	-69.4	3.8	1.49e+00	0	39	104	0	79	21280
2026-01-22 01:00:59.91	25.78	2.42	-54.3	-69.4	3.8	1.49e+00	0	39	104	0	79	21310
2026-01-22 01:01:00.92	25.78	2.48	-54.3	-69.3	3.8	1.49e+00	0	39	104	0	79	21229
2026-01-22 01:01:01.93	25.77	2.55	-54.3	-69.3	3.8	1.49e+00	0	39	104	0	79	21079
2026-01-22 01:01:02.93	25.77	2.61	-54.2	-69.2	3.8	1.49e+00	0	39	104	0	79	20976
2026-01-22 01:01:03.94	25.76	2.68	-54.3	-69.2	3.8	1.49e+00	0	39	104	0	79	21015
2026-01-22 01:01:04.95	25.76	2.74	-54.2	-69.2	3.8	1.49e+00	0	39	104	0	79	20882
2026-01-22 01:01:05.95	25.75	2.81	-54.2	-69.1	3.8	1.49e+00	0	39	104	0	79	20775
2026-01-22 01:01:06.96	25.75	2.88	-54.1	-69.1	3.8	1.49e+00	0	39	104	0	79	20629
2026-01-22 01:01:07.97	25.74	2.94	-54.0	-69.0	3.8	1.49e+00	0	39	104	0	79	20518
2026-01-22 01:01:08.98	25.74	3.01	-54.0	-69.0	3.8	1.49e+00	0	39	104	0	79	20347
2026-01-22 01:01:09.99	25.73	3.08	-53.9	-68.9	3.8	1.49e+00	0	39	104	0	79	20082
2026-01-22 01:01:10.99	25.73	3.14	-53.8	-68.8	3.8	1.49e+00	0	39	104	0	79	19911
2026-01-22 01:01:12.00	25.72	3.21	-53.7	-68.7	3.8	1.49e+00	0	39	104	0	79	19635
2026-01-22 01:01:13.01	25.71	3.28	-53.5	-68.5	3.8	1.49e+00	0	39	104	0	79	19280
2026-01-22 01:01:14.02	25.71	3.34	-53.3	-68.3	3.8	1.49e+00	0	39	104	0	78	19991
2026-01-22 01:01:15.02	25.70	3.41	-53.0	-68.0	3.8	1.49e+00	0	39	104	0	78	19193
2026-01-22 01:01:16.03	25.70	3.48	-52.5	-67.5	3.8	1.49e+00	0	39	104	0	77	19344
2026-01-22 01:01:17.04	25.69	3.55	-52.3	-66.9	3.8	1.49e+00	0	40	104	0	76	18975
2026-01-22 01:01:18.05	25.69	3.61	-52.3	-66.2	3.8	1.49e+00	0	39	104	0	76	17606
2026-01-22 01:01:19.06	25.68	3.68	-52.2	-65.3	3.8	1.49e+00	0	39	104	0	76	15817
2026-01-22 01:01:20.06	25.67	3.75	-52.1	-63.7	4.2	1.45e+00	0	39	0	0	76	13120
2026-01-22 01:01:21.07	25.67	3.82	-51.9	-61.6	5.1	8.26e-01	0	39	0	1048576	75	10913
2026-01-22 01:01:22.08	25.66	3.89	-51.8	-60.4	5.9	4.06e-01	0	39	0	3145728	75	9504
2026-01-22 01:01:23.09	25.66	3.96	-51.5	-58.7	7.3	2.00e-01	0	40	0	5242880	74	8291
2026-01-22 01:01:24.10	25.65	4.03	-51.1	-57.2	8.7	3.99e-02	0	40	0	6291456	74	7034
2026-01-22 01:01:25.10	25.64	4.09	-50.5	-55.3	10.7	6.68e-03	0	40	0	8388608	73	5934
2026-01-22 01:01:26.12	25.64	4.17	-50.2	-54.6	11.5	8.93e-04	0	39	0	10485760	72	5824
2026-01-22 01:01:27.12	25.63	4.23	-49.7	-53.4	12.9	1.79e-04	0	39	0	12582912	71	5354
2026-01-22 01:01:28.13	25.62	4.30	-49.6	-53.1	13.1	6.40e-05	0	40	0	14680064	71	5205
2026-01-22 01:01:29.14	25.62	4.37	-49.2	-52.4	13.9	5.30e-06	0	40	0	15728640	70	5053
2026-01-22 01:01:30.15	25.61	4.44	-49.2	-52.5	13.8	1.50e-06	0	40	0	17825792	69	5439
2026-01-22 01:01:31.16	25.61	4.51	-48.7	-51.5	14.8	0.00e+00	0	40	0	19922944	69	4859
2026-01-22 01:01:32.17	25.60	4.59	-48.9	-51.9	14.4	3.00e-06	0	40	0	22020096	69	5079
2026-01-22 01:01:33.17	25.59	4.66	-48.8	-51.8	14.5	7.00e-07	0	40	0	24117248	69	4989
2026-01-22 01:01:34.18	25.59	4.73	-49.0	-52.1	14.2	1.50e-06	0	40	0	26214400	69	5204
2026-01-22 01:01:35.19	25.58	4.80	-49.2	-52.5	13.8	2.20e-06	0	40	0	27262976	69	5443
2026-01-22 01:01:36.20	25.57	4.87	-49.5	-53.0	13.3	1.90e-05	0	40	0	29360128	69	5733
2026-01-22 01:01:37.21	25.57	4.94	-49.9	-53.9	12.4	8.08e-05	0	40	0	31457280	70	5993
2026-01-22 01:01:38.22	25.56	5.01	-50.3	-54.7	11.5	3.66e-04	0	40	0	33554432	71	6226
2026-01-22 01:01:39.23	25.55	5.08	-50.6	-55.5	10.5	1.76e-03	0	40	0	34603008	71	6828
2026-01-22 01:01:40.23	25.54	5.16	-49.2	-52.4	14.0	2.20e-06	0	40	0	36700160	69	5356
2026-01-22 01:01:41.24	25.54	5.23	-50.4	-54.9	11.4	5.92e-04	0	40	0	38797312	71	6373
2026-01-22 01:01:42.24	25.53	5.30	-51.7	-60.0	6.0	2.10e-01	0	40	0	40894464	74	9665
2026-01-22 01:01:43.25	25.52	5.37	-48.6	-51.3	15.1	5.49e-05	0	40	0	42991616	69	4726
2026-01-22 01:01:44.26	25.52	5.45	-52.2	-66.5	3.8	1.48e+00	0	40	104	44040192	74	20412
2026-01-22 01:01:45.27	25.51	5.52	-48.5	-51.2	15.1	8.95e-02	0	40	0	44040192	69	4656
2026-01-22 01:01:46.27	25.50	5.59	-48.6	-51.3	15.1	7.00e-07	0	40	0	46137344	69	4720
2026-01-22 01:01:47.28	25.49	5.66	-48.7	-51.4	15.0	0.00e+00	0	40	0	48234496	69	4810
2026-01-22 01:01:48.29	25.49	5.74	-48.5	-51.0	15.4	0.00e+00	0	40	0	49283072	68	4868
2026-01-22 01:01:49.30	25.48	5.81	-48.5	-51.1	15.4	0.00e+00	0	40	0	51380224	68	4890
2026-01-22 01:01:50.31	25.47	5.89	-48.4	-50.9	15.6	0.00e+00	0	40	0	53477376	68	4775
2026-01-22 01:01:51.31	25.46	5.96	-48.3	-50.8	15.7	0.00e+00	0	40	0	55574528	68	4742
2026-01-22 01:01:52.32	25.46	6.03	-48.5	-51.0	15.5	0.00e+00	0	40	0	57671680	68	4840
2026-01-22 01:01:53.33	25.45	6.11	-48.0	-50.3	16.2	0.00e+00	0	40	0	58720256	68	4489
2026-01-22 01:01:54.33	25.44	6.18	-48.3	-50.8	15.8	0.00e+00	0	40	0	60817408	68	4709
2026-01-22 01:01:55.34	25.43	6.26	-48.3	-50.8	15.9	0.00e+00	0	40	0	62914560	68	4708
2026-01-22 01:01:56.35	25.43	6.33	-48.2	-50.5	16.0	0.00e+00	0	40	0	65011712	68	4598
2026-01-22 01:01:57.36	25.42	6.41	-48.2	-50.6	16.0	0.00e+00	0	40	0	67108864	68	4611
2026-01-22 01:01:58.37	25.41	6.49	-48.2	-50.6	16.1	0.00e+00	0	40	0	68157440	68	4604
2026-01-22 01:01:59.37	25.40	6.56	-48.2	-50.6	16.0	0.00e+00	0	40	0	70254592	68	4619
2026-01-22 01:02:00.38	25.39	6.64	-48.3	-50.6	16.1	0.00e+00	0	40	0	72351744	68	4639
2026-01-22 01:02:01.39	25.38	6.71	-48.2	-50.6	16.1	0.00e+00	0	40	0	74448896	68	4599
2026-01-22 01:02:02.39	25.38	6.79	-48.2	-50.6	16.1	0.00e+00	0	40	0	76546048	68	4621
2026-01-22 01:02:03.40	25.37	6.87	-48.1	-50.4	16.3	0.00e+00	0	40	0	77594624	68	4523
2026-01-22 01:02:04.41	25.36	6.94	-48.3	-50.6	16.1	0.00e+00	0	40	0	79691776	68	4637
2026-01-22 01:02:05.42	25.35	7.02	-48.1	-50.5	16.3	0.00e+00	0	40	0	81788928	68	4546
2026-01-22 01:02:06.43	25.34	7.10	-48.2	-50.5	16.2	0.00e+00	0	40	0	83886080	68	4585
2026-01-22 01:02:07.43	25.33	7.18	-48.2	-50.5	16.2	0.00e+00	0	40	0	85983232	68	4570
2026-01-22 01:02:08.44	25.33	7.25	-48.2	-50.5	16.2	0.00e+00	0	40	0	87031808	68	4596
2026-01-22 01:02:09.45	25.32	7.33	-48.0	-50.2	16.5	0.00e+00	0	40	0	89128960	68	4424
2026-01-22 01:02:10.46	25.31	7.41	-48.0	-50.3	16.3	0.00e+00	0	40	0	91226112	67	4734
2026-01-22 01:02:11.47	25.30	7.49	-47.9	-50.0	16.6	0.00e+00	0	40	0	93323264	67	4590
2026-01-22 01:02:12.48	25.29	7.57	-47.9	-50.1	16.5	0.00e+00	0	40	0	95420416	67	4646
2026-01-22 01:02:13.48	25.28	7.65	-48.0	-50.3	16.4	0.00e+00	0	40	0	97517568	67	4713
2026-01-22 01:02:14.49	25.27	7.73	-47.9	-50.2	16.5	0.00e+00	0	40	0	98566144	67	4661
2026-01-22 01:02:15.50	25.26	7.81	-47.8	-50.0	16.7	0.00e+00	0	40	0	100663296	67	4566
2026-01-22 01:02:16.51	25.25	7.89	-47.9	-50.0	16.7	0.00e+00	0	40	0	102760448	67	4581
2026-01-22 01:02:17.51	25.24	7.97	-47.9	-50.1	16.6	0.00e+00	0	40	0	104857600	67	4614
2026-01-22 01:02:18.52	25.23	8.05	-47.7	-49.9	16.9	0.00e+00	0	40	0	105906176	67	4494
2026-01-22 01:02:19.53	25.22	8.13	-47.9	-50.1	16.7	0.00e+00	0	40	0	108003328	67	4611
2026-01-22 01:02:20.54	25.21	8.21	-47.9	-50.1	16.6	0.00e+00	0	40	0	110100480	67	4634
2026-01-22 01:02:21.54	25.21	8.29	-48.0	-50.3	16.5	0.00e+00	0	40	0	112197632	67	4714
2026-01-22 01:02:22.55	25.20	8.37	-47.9	-50.0	16.7	0.00e+00	0	40	0	114294784	67	4580
2026-01-22 01:02:23.56	25.19	8.45	-47.7	-49.8	16.9	0.00e+00	0	40	0	115343360	67	4484
2026-01-22 01:02:24.57	25.18	8.54	-47.7	-49.7	17.0	0.00e+00	0	40	0	117440512	67	4425
2026-01-22 01:02:25.58	25.17	8.62	-47.7	-49.8	17.0	0.00e+00	0	40	0	119537664	67	4459
2026-01-22 01:02:26.58	25.16	8.70	-47.7	-49.8	16.9	0.00e+00	0	40	0	121634816	67	4481
2026-01-22 01:02:27.59	25.15	8.78	-47.6	-49.7	17.1	0.00e+00	0	40	0	123731968	67	4398
2026-01-22 01:02:28.60	25.14	8.87	-47.5	-49.5	17.2	0.00e+00	0	40	0	125829120	67	4332
2026-01-22 01:02:29.61	25.12	8.95	-47.6	-49.7	17.1	0.00e+00	0	40	0	126877696	67	4401
2026-01-22 01:02:30.61	25.11	9.03	-47.5	-49.5	17.2	0.00e+00	0	40	0	128974848	67	4322
2026-01-22 01:02:31.62	25.10	9.12	-47.6	-49.6	17.2	0.00e+00	0	40	0	131072000	67	4363
2026-01-22 01:02:32.63	25.09	9.20	-47.6	-49.6	17.3	0.00e+00	0	40	0	133169152	67	4344
2026-01-22 01:02:33.64	25.08	9.29	-47.5	-49.5	17.3	0.00e+00	0	40	0	134217728	67	4328
2026-01-22 01:02:34.65	25.07	9.37	-47.5	-49.5	17.3	0.00e+00	0	40	0	136314880	67	4329
2026-01-22 01:02:35.66	25.06	9.46	-47.4	-49.4	17.4	0.00e+00	0	40	0	138412032	66	4518
2026-01-22 01:02:36.67	25.05	9.54	-47.4	-49.3	17.5	0.00e+00	0	40	0	140509184	66	4490
2026-01-22 01:02:37.67	25.04	9.63	-47.5	-49.5	17.4	0.00e+00	0	40	0	142606336	66	4547
2026-01-22 01:02:38.68	25.03	9.71	-47.4	-49.3	17.4	0.00e+00	0	40	0	144703488	66	4493
2026-01-22 01:02:39.69	25.02	9.80	-47.4	-49.4	17.4	0.00e+00	0	40	0	145752064	66	4502
2026-01-22 01:02:40.70	25.01	9.88	-47.4	-49.3	17.5	0.00e+00	0	40	0	147849216	66	4466
2026-01-22 01:02:41.71	24.99	9.97	-47.4	-49.3	17.6	0.00e+00	0	40	0	149946368	66	4473
2026-01-22 01:02:42.71	24.98	10.06	-47.4	-49.3	17.6	0.00e+00	0	40	0	152043520	66	4443
2026-01-22 01:02:43.72	24.97	10.15	-47.3	-49.2	17.7	0.00e+00	0	40	0	154140672	66	4431
2026-01-22 01:02:44.73	24.96	10.23	-47.2	-49.1	17.8	0.00e+00	0	40	0	155189248	66	4343
2026-01-22 01:02:45.73	24.95	10.32	-47.2	-49.1	17.8	0.00e+00	0	40	0	157286400	66	4346
2026-01-22 01:02:46.74	24.94	10.41	-47.3	-49.1	17.8	0.00e+00	0	40	0	159383552	66	4373
2026-01-22 01:02:47.75	24.92	10.50	-47.2	-49.1	17.8	0.00e+00	0	40	0	161480704	66	4351
2026-01-22 01:02:48.76	24.91	10.59	-47.2	-49.1	17.8	0.00e+00	0	40	0	162529280	66	4355
2026-01-22 01:02:49.77	24.90	10.68	-47.3	-49.2	17.7	0.00e+00	0	40	0	164626432	66	4410
2026-01-22 01:02:50.78	24.89	10.77	-47.2	-49.1	17.8	0.00e+00	0	40	0	166723584	66	4341
2026-01-22 01:02:51.78	24.88	10.86	-47.1	-48.9	18.1	0.00e+00	0	40	0	168820736	66	4252
2026-01-22 01:02:52.79	24.86	10.95	-47.1	-48.9	18.0	0.00e+00	0	40	0	170917888	66	4275
2026-01-22 01:02:53.80	24.85	11.04	-47.1	-48.9	18.1	0.00e+00	0	40	0	173015040	66	4261
2026-01-22 01:02:54.81	24.84	11.13	-47.1	-48.9	18.1	0.00e+00	0	40	0	174063616	66	4252
2026-01-22 01:02:55.81	24.82	11.22	-47.0	-48.8	18.1	0.00e+00	0	40	0	176160768	66	4232
2026-01-22 01:02:56.82	24.81	11.31	-47.0	-48.8	18.2	0.00e+00	0	40	0	178257920	66	4223
2026-01-22 01:02:57.83	24.80	11.40	-47.0	-48.8	18.2	0.00e+00	0	40	0	180355072	66	4217
2026-01-22 01:02:58.84	24.79	11.50	-47.1	-48.8	18.1	0.00e+00	0	40	0	182452224	66	4238
2026-01-22 01:02:59.85	24.77	11.59	-47.0	-48.8	18.2	0.00e+00	0	40	0	183500800	65	4458
2026-01-22 01:03:00.85	24.76	11.68	-46.9	-48.6	18.3	0.00e+00	0	40	0	185597952	65	4378
2026-01-22 01:03:01.86	24.75	11.77	-46.8	-48.5	18.4	0.00e+00	0	40	0	187695104	65	4319
2026-01-22 01:03:02.87	24.73	11.87	-46.8	-48.5	18.5	0.00e+00	0	40	0	189792256	65	4307
2026-01-22 01:03:03.88	24.72	11.96	-46.8	-48.5	18.5	0.00e+00	0	40	0	191889408	65	4324
2026-01-22 01:03:04.89	24.70	12.06	-46.8	-48.5	18.5	0.00e+00	0	40	0	192937984	65	4328
2026-01-22 01:03:05.89	24.69	12.15	-46.8	-48.4	18.6	0.00e+00	0	40	0	195035136	65	4280
2026-01-22 01:03:06.90	24.68	12.25	-46.9	-48.6	18.4	0.00e+00	0	40	0	197132288	65	4371
2026-01-22 01:03:07.91	24.66	12.34	-46.9	-48.7	18.3	0.00e+00	0	40	0	199229440	65	4398
2026-01-22 01:03:08.92	24.65	12.44	-46.8	-48.4	18.6	0.00e+00	0	40	0	201326592	65	4269
2026-01-22 01:03:09.92	24.63	12.53	-46.8	-48.5	18.6	0.00e+00	0	40	0	202375168	65	4319
2026-01-22 01:03:10.94	24.62	12.63	-46.9	-48.6	18.5	0.00e+00	0	40	0	204472320	65	4357
2026-01-22 01:03:11.94	24.61	12.73	-46.7	-48.4	18.6	0.00e+00	0	40	0	206569472	65	4263
2026-01-22 01:03:12.95	24.59	12.83	-46.7	-48.3	18.7	0.00e+00	0	40	0	208666624	65	4209
2026-01-22 01:03:13.96	24.58	12.92	-46.8	-48.4	18.6	0.00e+00	0	40	0	210763776	65	4284
2026-01-22 01:03:14.97	24.56	13.02	-46.6	-48.3	18.8	0.00e+00	0	40	0	212860928	65	4198
2026-01-22 01:03:15.98	24.55	13.12	-46.6	-48.2	18.8	0.00e+00	0	40	0	213909504	65	4183
2026-01-22 01:03:16.98	24.53	13.22	-46.6	-48.2	18.9	0.00e+00	0	40	0	216006656	65	4148
2026-01-22 01:03:17.99	24.51	13.32	-46.6	-48.2	18.9	0.00e+00	0	40	0	218103808	65	4151
2026-01-22 01:03:19.00	24.50	13.42	-46.5	-48.1	19.0	0.00e+00	0	40	0	220200960	65	4110
2026-01-22 01:03:20.01	24.48	13.52	-46.3	-47.9	19.2	0.00e+00	0	40	0	221249536	64	4248
2026-01-22 01:03:21.01	24.47	13.62	-46.4	-47.9	19.1	0.00e+00	0	40	0	223346688	64	4274
2026-01-22 01:03:22.02	24.45	13.72	-46.4	-48.0	19.1	0.00e+00	0	40	0	225443840	64	4308
2026-01-22 01:03:23.03	24.44	13.82	-46.4	-48.0	19.1	0.00e+00	0	40	0	227540992	64	4301
2026-01-22 01:03:24.04	24.42	13.92	-46.4	-47.9	19.2	0.00e+00	0	40	0	229638144	64	4267
2026-01-22 01:03:25.04	24.40	14.03	-46.3	-47.8	19.3	0.00e+00	0	40	0	230686720	64	4196
2026-01-22 01:03:26.05	24.39	14.13	-46.3	-47.8	19.3	0.00e+00	0	40	0	232783872	64	4209
2026-01-22 01:03:27.06	24.37	14.23	-46.3	-47.8	19.3	0.00e+00	0	40	0	234881024	64	4223
2026-01-22 01:03:28.07	24.35	14.34	-46.3	-47.8	19.4	0.00e+00	0	40	0	236978176	64	4196
2026-01-22 01:03:29.08	24.34	14.44	-46.2	-47.6	19.5	0.00e+00	0	40	0	239075328	64	4140
2026-01-22 01:03:30.09	24.32	14.54	-46.2	-47.6	19.4	0.00e+00	0	40	0	241172480	64	4144
2026-01-22 01:03:31.09	24.30	14.65	-46.2	-47.7	19.4	0.00e+00	0	40	0	242221056	64	4155
2026-01-22 01:03:32.10	24.29	14.75	-46.1	-47.6	19.5	0.00e+00	0	40	0	244318208	64	4114
2026-01-22 01:03:33.11	24.27	14.86	-46.0	-47.5	19.7	0.00e+00	0	40	0	246415360	63	4297
2026-01-22 01:03:34.12	24.25	14.97	-46.1	-47.5	19.7	0.00e+00	0	40	0	248512512	63	4316
2026-01-22 01:03:35.13	24.23	15.07	-46.1	-47.6	19.6	0.00e+00	0	40	0	249561088	63	4352
2026-01-22 01:03:36.14	24.21	15.18	-46.2	-47.6	19.6	0.00e+00	0	40	0	251658240	63	4376
2026-01-22 01:03:37.15	24.20	15.29	-46.1	-47.6	19.7	0.00e+00	0	40	0	253755392	63	4351
2026-01-22 01:03:38.15	24.18	15.40	-46.0	-47.4	19.8	0.00e+00	0	40	0	255852544	63	4273
2026-01-22 01:03:39.16	24.16	15.51	-46.0	-47.4	19.8	0.00e+00	0	40	0	257949696	63	4280
2026-01-22 01:03:40.17	24.14	15.61	-46.0	-47.4	19.8	0.00e+00	0	40	0	260046848	63	4253
2026-01-22 01:03:41.18	24.12	15.72	-46.0	-47.4	19.8	0.00e+00	0	40	0	261095424	63	4278
2026-01-22 01:03:42.19	24.10	15.84	-45.9	-47.3	19.9	0.00e+00	0	40	0	263192576	63	4222
2026-01-22 01:03:43.19	24.08	15.94	-45.9	-47.3	19.9	0.00e+00	0	40	0	265289728	63	4222
2026-01-22 01:03:44.20	24.06	16.06	-45.9	-47.3	20.0	0.00e+00	0	40	0	267386880	63	4217
2026-01-22 01:03:45.21	24.04	16.17	-46.0	-47.4	19.8	0.00e+00	0	40	0	269484032	63	4276
2026-01-22 01:03:46.22	24.02	16.28	-45.9	-47.3	20.0	0.00e+00	0	40	0	270532608	63	4210
2026-01-22 01:03:47.22	24.01	16.39	-45.9	-47.3	20.0	0.00e+00	0	40	0	272629760	63	4221
2026-01-22 01:03:48.23	23.99	16.51	-46.0	-47.4	19.9	0.00e+00	0	40	0	274726912	63	4251
2026-01-22 01:03:49.24	23.96	16.62	-45.8	-47.2	20.0	0.00e+00	0	40	0	276824064	63	4175
2026-01-22 01:03:50.25	23.94	16.73	-45.7	-47.1	20.2	0.00e+00	0	40	0	277872640	63	4106
2026-01-22 01:03:51.26	23.92	16.85	-45.9	-47.3	20.0	0.00e+00	0	40	0	279969792	63	4206
2026-01-22 01:03:52.27	23.90	16.96	-45.7	-47.0	20.3	0.00e+00	0	40	0	282066944	63	4072
2026-01-22 01:03:53.27	23.88	17.08	-45.6	-46.9	20.3	0.00e+00	0	40	0	284164096	63	4029
2026-01-22 01:03:54.28	23.86	17.20	-45.5	-46.8	20.5	0.00e+00	0	40	0	286261248	63	3991
2026-01-22 01:03:55.29	23.84	17.31	-45.4	-46.7	20.5	0.00e+00	0	40	0	288358400	62	4186
2026-01-22 01:03:56.30	23.82	17.43	-45.4	-46.7	20.6	0.00e+00	0	40	0	289406976	62	4176
2026-01-22 01:03:57.31	23.80	17.55	-45.5	-46.8	20.5	0.00e+00	0	40	0	291504128	62	4205
2026-01-22 01:03:58.32	23.77	17.67	-45.6	-46.9	20.4	0.00e+00	0	40	0	293601280	62	4253
2026-01-22 01:03:59.33	23.75	17.79	-45.4	-46.7	20.6	0.00e+00	0	40	0	295698432	62	4158
2026-01-22 01:04:00.33	23.73	17.91	-45.3	-46.5	20.8	0.00e+00	0	40	0	297795584	62	4083
2026-01-22 01:04:01.34	23.71	18.03	-45.2	-46.4	20.8	0.00e+00	0	40	0	298844160	62	4047
2026-01-22 01:04:02.35	23.68	18.15	-45.1	-46.4	20.9	0.00e+00	0	40	0	300941312	62	4020
2026-01-22 01:04:03.36	23.66	18.27	-45.2	-46.5	20.8	0.00e+00	0	40	0	303038464	62	4068
2026-01-22 01:04:04.37	23.64	18.39	-45.2	-46.4	20.8	0.00e+00	0	40	0	305135616	62	4048
2026-01-22 01:04:05.37	23.61	18.51	-45.2	-46.5	20.8	0.00e+00	0	40	0	307232768	62	4056
2026-01-22 01:04:06.38	23.59	18.64	-45.1	-46.3	21.0	0.00e+00	0	40	0	308281344	62	3976
2026-01-22 01:04:07.39	23.57	18.76	-45.1	-46.3	21.0	0.00e+00	0	40	0	310378496	62	3982
2026-01-22 01:04:08.40	23.54	18.89	-45.1	-46.3	21.0	0.00e+00	0	40	0	312475648	62	3991
2026-01-22 01:04:09.40	23.52	19.01	-45.2	-46.4	20.9	0.00e+00	0	40	0	314572800	62	4026
2026-01-22 01:04:10.41	23.49	19.14	-45.2	-46.4	20.9	0.00e+00	0	40	0	316669952	62	4027
2026-01-22 01:04:11.42	23.47	19.26	-45.1	-46.3	21.0	0.00e+00	0	40	0	317718528	62	3967
2026-01-22 01:04:12.43	23.44	19.39	-45.0	-46.2	21.1	0.00e+00	0	40	0	319815680	62	3956
2026-01-22 01:04:13.44	23.42	19.52	-44.9	-46.1	21.1	0.00e+00	0	40	0	321912832	61	4144
2026-01-22 01:04:14.44	23.39	19.65	-44.9	-46.1	21.2	0.00e+00	0	40	0	324009984	61	4100
2026-01-22 01:04:15.45	23.37	19.78	-44.9	-46.1	21.2	0.00e+00	0	40	0	326107136	61	4122
2026-01-22 01:04:16.46	23.34	19.91	-44.9	-46.1	21.2	0.00e+00	0	40	0	327155712	61	4108
2026-01-22 01:04:17.47	23.31	20.04	-44.8	-46.0	21.3	0.00e+00	0	40	0	329252864	61	4072
2026-01-22 01:04:18.48	23.29	20.17	-44.9	-46.1	21.2	0.00e+00	0	40	0	331350016	61	4103
2026-01-22 01:04:19.49	23.26	20.30	-44.8	-46.0	21.3	0.00e+00	0	40	0	333447168	61	4077
2026-01-22 01:04:20.49	23.23	20.43	-44.8	-45.9	21.4	0.00e+00	0	40	0	335544320	61	4041
2026-01-22 01:04:21.50	23.21	20.56	-44.8	-46.0	21.3	0.00e+00	0	40	0	336592896	61	4069
2026-01-22 01:04:22.51	23.18	20.70	-44.8	-46.0	21.3	0.00e+00	0	41	0	338690048	61	4078
2026-01-22 01:04:23.52	23.15	20.83	-44.8	-46.0	21.3	0.00e+00	0	40	0	340787200	61	4059
2026-01-22 01:04:24.53	23.12	20.97	-44.8	-46.0	21.3	0.00e+00	0	40	0	342884352	61	4073
2026-01-22 01:04:25.53	23.09	21.10	-44.9	-46.0	21.3	0.00e+00	0	40	0	344981504	61	4090
2026-01-22 01:04:26.54	23.07	21.24	-44.7	-45.9	21.4	0.00e+00	0	40	0	346030080	61	4010
2026-01-22 01:04:27.55	23.04	21.38	-44.6	-45.7	21.6	0.00e+00	0	40	0	348127232	61	3946
2026-01-22 01:04:28.56	23.01	21.52	-44.5	-45.7	21.6	0.00e+00	0	40	0	350224384	61	3919
2026-01-22 01:04:29.56	22.98	21.65	-44.6	-45.8	21.6	0.00e+00	0	40	0	352321536	61	3965
2026-01-22 01:04:30.57	22.95	21.79	-44.5	-45.7	21.6	0.00e+00	0	40	0	354418688	60	4151
2026-01-22 01:04:31.58	22.92	21.94	-44.5	-45.7	21.7	0.00e+00	0	40	0	355467264	60	4146
2026-01-22 01:04:32.59	22.89	22.08	-44.5	-45.6	21.7	0.00e+00	0	41	0	357564416	60	4123
2026-01-22 01:04:33.60	22.86	22.22	-44.6	-45.8	21.5	0.00e+00	0	40	0	359661568	60	4209
2026-01-22 01:04:34.61	22.82	22.36	-44.6	-45.8	21.5	0.00e+00	0	40	0	361758720	60	4206
2026-01-22 01:04:35.61	22.79	22.51	-44.6	-45.7	21.6	0.00e+00	0	40	0	363855872	60	4170
2026-01-22 01:04:36.62	22.76	22.65	-44.6	-45.8	21.6	0.00e+00	0	40	0	364904448	60	4197
2026-01-22 01:04:37.63	22.73	22.80	-44.6	-45.8	21.6	0.00e+00	0	40	0	367001600	60	4203
2026-01-22 01:04:38.64	22.70	22.94	-44.6	-45.7	21.6	0.00e+00	0	40	0	369098752	60	4166
2026-01-22 01:04:39.65	22.66	23.09	-44.6	-45.7	21.6	0.00e+00	0	40	0	371195904	60	4175
2026-01-22 01:04:40.66	22.63	23.24	-44.6	-45.7	21.6	0.00e+00	0	40	0	373293056	60	4171
2026-01-22 01:04:41.67	22.60	23.39	-44.7	-45.8	21.6	0.00e+00	0	40	0	374341632	60	4217
2026-01-22 01:04:42.67	22.56	23.53	-44.8	-45.9	21.4	0.00e+00	0	40	0	376438784	60	4278
2026-01-22 01:04:43.68	22.53	23.68	-44.7	-45.9	21.4	0.00e+00	0	40	0	378535936	60	4252
2026-01-22 01:04:44.69	22.49	23.84	-44.8	-45.9	21.4	0.00e+00	0	40	0	380633088	60	4289
2026-01-22 01:04:45.70	22.46	23.99	-44.8	-46.0	21.4	0.00e+00	0	40	0	382730240	60	4323
2026-01-22 01:04:46.70	22.42	24.14	-44.8	-45.9	21.5	0.00e+00	0	40	0	383778816	60	4270
2026-01-22 01:04:47.71	22.39	24.29	-44.8	-46.0	21.4	0.00e+00	0	40	0	385875968	60	4298
2026-01-22 01:04:48.72	22.35	24.45	-44.7	-45.8	21.5	0.00e+00	0	40	0	387973120	60	4232
2026-01-22 01:04:49.73	22.31	24.60	-44.8	-46.0	21.4	0.00e+00	0	40	0	390070272	60	4302
2026-01-22 01:04:50.74	22.28	24.76	-44.9	-46.1	21.3	0.00e+00	0	40	0	392167424	60	4383
2026-01-22 01:04:51.75	22.24	24.92	-44.9	-46.1	21.3	0.00e+00	0	40	0	393216000	60	4364
2026-01-22 01:04:52.75	22.20	25.08	-45.0	-46.2	21.2	0.00e+00	0	40	0	395313152	60	4408
2026-01-22 01:04:53.76	22.16	25.24	-45.1	-46.3	21.2	0.00e+00	0	40	0	397410304	60	4444
2026-01-22 01:04:54.77	22.12	25.40	-45.1	-46.3	21.1	0.00e+00	0	40	0	399507456	60	4490
2026-01-22 01:04:55.78	22.08	25.56	-45.1	-46.3	21.1	0.00e+00	0	40	0	401604608	60	4480
2026-01-22 01:04:56.79	22.05	25.72	-45.0	-46.2	21.2	0.00e+00	0	40	0	403701760	60	4402
2026-01-22 01:04:57.79	22.01	25.88	-45.0	-46.2	21.2	0.00e+00	0	40	0	404750336	60	4423
2026-01-22 01:04:58.80	21.96	26.05	-45.1	-46.3	21.1	0.00e+00	0	40	0	406847488	60	4478
2026-01-22 01:04:59.81	21.92	26.21	-45.2	-46.4	21.0	0.00e+00	0	40	0	408944640	60	4516
2026-01-22 01:05:00.81	21.88	26.38	-45.3	-46.5	21.0	0.00e+00	0	40	0	411041792	61	4305
2026-01-22 01:05:01.82	21.84	26.54	-45.4	-46.6	20.9	0.00e+00	0	40	0	412090368	61	4363
2026-01-22 01:05:02.83	21.80	26.71	-45.4	-46.6	20.9	0.00e+00	0	40	0	414187520	61	4377
2026-01-22 01:05:03.84	21.75	26.88	-45.4	-46.6	20.8	0.00e+00	0	40	0	416284672	61	4387
2026-01-22 01:05:04.85	21.71	27.05	-45.5	-46.7	20.8	0.00e+00	0	40	0	418381824	61	4414
2026-01-22 01:05:05.85	21.67	27.22	-45.5	-46.7	20.8	0.00e+00	0	41	0	420478976	61	4431
2026-01-22 01:05:06.86	21.62	27.39	-45.5	-46.8	20.8	0.00e+00	0	40	0	421527552	61	4448
2026-01-22 01:05:07.87	21.58	27.57	-45.7	-46.9	20.6	0.00e+00	0	40	0	423624704	61	4537
2026-01-22 01:05:08.88	21.53	27.74	-45.8	-47.1	20.4	0.00e+00	0	40	0	425721856	62	4376
2026-01-22 01:05:09.89	21.49	27.92	-45.9	-47.2	20.4	0.00e+00	0	40	0	427819008	62	4408
2026-01-22 01:05:10.89	21.44	28.09	-46.1	-47.5	20.1	0.00e+00	0	40	0	429916160	62	4547
2026-01-22 01:05:11.90	21.39	28.27	-46.2	-47.6	20.0	0.00e+00	0	40	0	432013312	62	4603
2026-01-22 01:05:12.91	21.34	28.45	-46.3	-47.7	19.9	0.00e+00	0	41	0	433061888	63	4429
2026-01-22 01:05:13.92	21.30	28.63	-46.5	-47.9	19.6	0.00e+00	0	41	0	435159040	63	4543
2026-01-22 01:05:14.92	21.25	28.81	-46.6	-48.0	19.6	0.00e+00	0	41	0	437256192	63	4586
2026-01-22 01:05:15.93	21.20	28.99	-46.7	-48.2	19.3	0.00e+00	0	40	0	439353344	64	4425
2026-01-22 01:05:16.94	21.15	29.18	-46.8	-48.4	19.2	0.00e+00	0	40	0	440401920	64	4501
2026-01-22 01:05:17.95	21.10	29.36	-46.8	-48.4	19.2	0.00e+00	0	40	0	442499072	64	4494
2026-01-22 01:05:18.96	21.05	29.55	-47.0	-48.6	19.0	0.00e+00	0	40	0	444596224	64	4605
2026-01-22 01:05:19.96	20.99	29.73	-47.1	-48.6	18.9	0.00e+00	0	40	0	446693376	64	4650
2026-01-22 01:05:20.97	20.94	29.92	-47.1	-48.7	18.8	0.00e+00	0	40	0	448790528	64	4683
2026-01-22 01:05:21.98	20.89	30.11	-47.1	-48.7	18.8	0.00e+00	0	41	0	450887680	64	4683
2026-01-22 01:05:22.99	20.83	30.30	-47.0	-48.6	19.0	0.00e+00	0	40	0	451936256	65	4370
2026-01-22 01:05:24.00	20.78	30.50	-47.2	-48.9	18.7	0.00e+00	0	40	0	454033408	65	4511
2026-01-22 01:05:25.01	20.72	30.69	-47.3	-48.9	18.7	0.00e+00	0	40	0	456130560	65	4536
2026-01-22 01:05:26.01	20.67	30.88	-47.4	-49.1	18.5	0.00e+00	0	40	0	458227712	65	4609
2026-01-22 01:05:27.02	20.61	31.08	-47.5	-49.2	18.5	0.00e+00	0	40	0	460324864	65	4666
2026-01-22 01:05:28.03	20.55	31.28	-47.5	-49.2	18.5	0.00e+00	0	40	0	461373440	65	4653
2026-01-22 01:05:29.04	20.49	31.47	-47.5	-49.2	18.4	0.00e+00	0	40	0	463470592	65	4693
2026-01-22 01:05:30.05	20.43	31.67	-47.6	-49.3	18.3	0.00e+00	0	41	0	465567744	65	4710
2026-01-22 01:05:31.05	20.38	31.87	-47.7	-49.4	18.2	0.00e+00	0	40	0	467664896	66	4535
2026-01-22 01:05:32.06	20.31	32.08	-47.9	-49.7	18.0	0.00e+00	0	41	0	468713472	66	4659
2026-01-22 01:05:33.07	20.25	32.28	-47.7	-49.4	18.2	0.00e+00	0	40	0	470810624	66	4533
2026-01-22 01:05:34.08	20.19	32.49	-47.8	-49.6	18.1	0.00e+00	0	40	0	472907776	66	4599
2026-01-22 01:05:35.09	20.13	32.69	-47.8	-49.6	18.1	0.00e+00	0	40	0	475004928	66	4615
2026-01-22 01:05:36.09	20.06	32.90	-47.6	-49.4	18.3	0.00e+00	0	40	0	477102080	66	4509
2026-01-22 01:05:37.10	20.00	33.11	-47.6	-49.3	18.3	0.00e+00	0	41	0	479199232	66	4490
2026-01-22 01:05:38.11	19.93	33.32	-47.7	-49.4	18.2	0.00e+00	0	40	0	480247808	66	4538
2026-01-22 01:05:39.12	19.87	33.53	-47.8	-49.6	18.1	0.00e+00	0	41	0	482344960	66	4644
2026-01-22 01:05:40.13	19.80	33.75	-47.6	-49.2	18.4	0.00e+00	0	40	0	484442112	66	4441
2026-01-22 01:05:41.13	19.73	33.96	-47.3	-49.0	18.7	0.00e+00	0	40	0	486539264	66	4307
2026-01-22 01:05:42.14	19.66	34.18	-47.1	-48.7	19.0	0.00e+00	0	40	0	488636416	66	4156
2026-01-22 01:05:43.15	19.59	34.39	-47.1	-48.7	19.0	0.00e+00	0	40	0	489684992	66	4150
2026-01-22 01:05:44.16	19.52	34.61	-47.0	-48.6	19.1	0.00e+00	0	40	0	491782144	66	4101
2026-01-22 01:05:45.16	19.44	34.83	-46.9	-48.4	19.2	0.00e+00	0	41	0	493879296	65	4268
2026-01-22 01:05:46.17	19.37	35.05	-46.7	-48.1	19.6	0.00e+00	0	40	0	495976448	65	4125
2026-01-22 01:05:47.18	19.30	35.28	-46.4	-47.8	19.9	0.00e+00	0	40	0	498073600	64	4194
2026-01-22 01:05:48.19	19.22	35.50	-46.1	-47.4	20.2	0.00e+00	0	40	0	499122176	64	4051
2026-01-22 01:05:49.20	19.14	35.73	-45.5	-47.2	20.3	0.00e+00	0	41	0	501219328	63	4184
2026-01-22 01:05:50.21	19.06	35.96	-45.8	-47.0	20.7	0.00e+00	0	41	0	503316480	63	4086
2026-01-22 01:05:51.21	18.99	36.19	-45.6	-46.9	20.8	0.00e+00	0	41	0	505413632	63	4014
2026-01-22 01:05:52.22	18.91	36.42	-45.5	-46.8	20.9	0.00e+00	0	40	0	507510784	62	4198
2026-01-22 01:05:53.23	18.82	36.65	-45.5	-46.7	21.0	0.00e+00	0	40	0	508559360	62	4151
2026-01-22 01:05:54.24	18.74	36.89	-45.4	-46.5	21.1	0.00e+00	0	40	0	510656512	62	4096
2026-01-22 01:05:55.25	18.66	37.13	-45.3	-46.5	21.0	0.00e+00	0	40	0	512753664	62	4084
2026-01-22 01:05:56.25	18.57	37.36	-45.3	-46.5	21.1	0.00e+00	0	40	0	514850816	62	4086
2026-01-22 01:05:57.26	18.48	37.60	-45.3	-46.5	21.1	0.00e+00	0	40	0	516947968	62	4095
2026-01-22 01:05:58.27	18.40	37.84	-45.4	-46.6	21.0	0.00e+00	0	40	0	517996544	62	4137
2026-01-22 01:05:59.27	18.31	38.09	-45.4	-46.6	21.1	0.00e+00	0	40	0	520093696	62	4113
2026-01-22 01:06:00.28	18.22	38.33	-45.3	-46.5	21.2	0.00e+00	0	40	0	522190848	62	4074
2026-01-22 01:06:01.29	18.12	38.58	-45.5	-46.7	21.0	0.00e+00	0	40	0	524288000	62	4186
2026-01-22 01:06:02.30	18.03	38.83	-45.7	-47.0	20.8	0.00e+00	0	40	0	526385152	62	4305
2026-01-22 01:06:03.30	17.94	39.07	-46.0	-47.3	20.4	0.00e+00	0	40	0	527433728	62	4492
2026-01-22 01:06:04.31	17.84	39.33	-46.1	-47.4	20.4	0.00e+00	0	40	0	529530880	62	4530
2026-01-22 01:06:05.32	17.74	39.58	-46.3	-47.7	20.1	0.00e+00	0	40	0	531628032	63	4411
2026-01-22 01:06:06.33	17.64	39.84	-46.5	-47.8	20.0	0.00e+00	0	40	0	533725184	63	4488
2026-01-22 01:06:07.34	17.54	40.09	-46.6	-48.0	19.8	0.00e+00	0	40	0	535822336	63	4590
2026-01-22 01:06:08.35	17.43	40.35	-46.8	-48.2	19.5	0.00e+00	0	40	0	536870912	64	4433
2026-01-22 01:06:09.35	17.33	40.61	-47.1	-48.7	19.1	0.00e+00	0	40	0	538968064	64	4654
2026-01-22 01:06:10.36	17.22	40.87	-47.5	-49.2	18.6	0.00e+00	0	40	0	541065216	65	4673
2026-01-22 01:06:11.37	17.11	41.14	-47.5	-49.2	18.6	0.00e+00	0	40	0	543162368	66	4393
2026-01-22 01:06:12.38	17.00	41.40	-47.3	-48.9	18.9	0.00e+00	0	40	0	545259520	66	4271
2026-01-22 01:06:13.39	16.89	41.67	-47.3	-48.9	18.9	0.00e+00	0	40	0	547356672	66	4275
2026-01-22 01:06:14.39	16.78	41.94	-47.2	-48.8	19.0	0.00e+00	0	40	0	548405248	66	4222
2026-01-22 01:06:15.40	16.66	42.21	-47.3	-48.9	18.9	0.00e+00	0	40	0	550502400	66	4264
2026-01-22 01:06:16.41	16.54	42.48	-47.4	-49.0	18.7	0.00e+00	0	40	0	552599552	66	4340
2026-01-22 01:06:17.42	16.42	42.76	-47.4	-49.0	18.8	0.00e+00	0	40	0	554696704	66	4315
2026-01-22 01:06:18.43	16.30	43.04	-47.2	-48.8	19.0	0.00e+00	0	40	0	555745280	66	4205
2026-01-22 01:06:19.43	16.17	43.31	-47.2	-48.7	19.1	0.00e+00	0	40	0	557842432	66	4192
2026-01-22 01:06:20.44	16.05	43.60	-47.3	-48.8	19.0	0.00e+00	0	40	0	559939584	66	4227
2026-01-22 01:06:21.45	15.92	43.88	-47.5	-49.1	18.7	0.00e+00	0	40	0	562036736	66	4377
2026-01-22 01:06:22.45	15.79	44.16	-47.6	-49.3	18.5	0.00e+00	0	40	0	564133888	66	4470
2026-01-22 01:06:23.46	15.65	44.45	-47.6	-49.3	18.6	0.00e+00	0	40	0	565182464	66	4454
2026-01-22 01:06:24.47	15.51	44.74	-47.6	-49.3	18.6	0.00e+00	0	40	0	567279616	66	4449
2026-01-22 01:06:25.48	15.38	45.03	-47.4	-49.0	18.9	0.00e+00	0	41	0	569376768	66	4312
2026-01-22 01:06:26.48	15.23	45.32	-47.5	-49.1	18.8	0.00e+00	0	40	0	571473920	66	4355
2026-01-22 01:06:27.49	15.09	45.61	-47.5	-49.1	18.8	0.00e+00	0	40	0	573571072	66	4346
2026-01-22 01:06:28.50	14.94	45.91	-47.5	-49.1	18.8	0.00e+00	0	40	0	575668224	66	4362
2026-01-22 01:06:29.51	14.79	46.21	-47.5	-49.1	18.7	0.00e+00	0	40	0	576716800	66	4383
2026-01-22 01:06:30.52	14.64	46.51	-47.7	-49.4	18.6	0.00e+00	0	40	0	578813952	66	4497
2026-01-22 01:06:31.53	14.48	46.81	-47.8	-49.5	18.4	0.00e+00	0	41	0	580911104	66	4566
2026-01-22 01:06:32.53	14.32	47.11	-48.1	-50.0	17.9	0.00e+00	0	40	0	583008256	66	4822
2026-01-22 01:06:33.54	14.16	47.42	-48.2	-50.0	17.9	0.00e+00	0	40	0	584056832	67	4583
2026-01-22 01:06:34.55	13.99	47.73	-48.3	-50.2	17.8	0.00e+00	0	40	0	586153984	67	4661
2026-01-22 01:06:35.56	13.82	48.04	-48.3	-50.2	17.7	0.00e+00	0	40	0	588251136	67	4673
2026-01-22 01:06:36.57	13.65	48.35	-48.1	-49.8	18.1	0.00e+00	0	40	0	590348288	67	4493
2026-01-22 01:06:37.57	13.47	48.66	-47.9	-49.6	18.3	0.00e+00	0	40	0	592445440	67	4356
2026-01-22 01:06:38.58	13.29	48.98	-47.8	-49.4	18.5	0.00e+00	0	40	0	594542592	67	4288
2026-01-22 01:06:39.59	13.11	49.30	-47.7	-49.3	18.6	0.00e+00	0	40	0	595591168	67	4230
2026-01-22 01:06:40.60	12.92	49.62	-47.4	-49.0	18.9	0.00e+00	0	40	0	597688320	66	4303
2026-01-22 01:06:41.61	12.73	49.94	-47.3	-48.9	18.9	0.00e+00	0	40	0	599785472	66	4269
2026-01-22 01:06:42.61	12.53	50.26	-46.8	-48.2	19.6	0.00e+00	0	40	0	601882624	65	4176
2026-01-22 01:06:43.62	12.33	50.58	-46.2	-47.5	20.3	0.00e+00	0	40	0	603979776	64	4090
2026-01-22 01:06:44.63	12.13	50.91	-46.0	-47.3	20.6	0.00e+00	0	40	0	605028352	63	4223
2026-01-22 01:06:45.64	11.91	51.24	-46.1	-47.3	20.6	0.00e+00	0	40	0	607125504	63	4240
2026-01-22 01:06:46.65	11.70	51.57	-45.8	-47.1	20.8	0.00e+00	0	40	0	609222656	63	4118
2026-01-22 01:06:47.65	11.48	51.90	-45.3	-46.4	21.4	0.00e+00	0	40	0	611319808	62	4033
2026-01-22 01:06:48.66	11.26	52.24	-45.2	-46.4	21.5	0.00e+00	0	40	0	612368384	62	4013
2026-01-22 01:06:49.67	11.03	52.58	-44.4	-45.4	22.2	0.00e+00	0	40	0	614465536	60	4046
2026-01-22 01:06:50.68	10.79	52.92	-44.1	-45.1	22.6	0.00e+00	0	40	0	616562688	60	3909
2026-01-22 01:06:51.68	10.55	53.25	-44.1	-45.1	22.6	0.00e+00	0	40	0	618659840	60	3908
2026-01-22 01:06:52.69	10.30	53.60	-44.2	-45.3	22.5	0.00e+00	0	40	0	620756992	60	3962
2026-01-22 01:06:53.70	10.05	53.94	-44.2	-45.2	22.5	0.00e+00	0	40	0	622854144	60	3958
2026-01-22 01:06:54.71	9.79	54.29	-44.2	-45.2	22.5	0.00e+00	0	40	0	623902720	60	3938
2026-01-22 01:06:55.72	9.53	54.63	-44.2	-45.2	22.6	0.00e+00	0	40	0	625999872	60	3927
2026-01-22 01:06:56.73	9.25	54.98	-44.5	-45.6	22.2	0.00e+00	0	41	0	628097024	60	4111
2026-01-22 01:06:57.74	8.97	55.33	-45.0	-46.1	21.8	0.00e+00	0	40	0	630194176	60	4350
2026-01-22 01:06:58.75	8.69	55.69	-45.2	-46.3	21.6	0.00e+00	0	40	0	632291328	60	4478
2026-01-22 01:06:59.75	8.40	56.04	-45.3	-46.5	21.4	0.00e+00	0	40	0	633339904	61	4308
2026-01-22 01:07:00.76	8.09	56.39	-46.0	-47.2	20.8	0.00e+00	0	40	0	635437056	62	4419
2026-01-22 01:07:01.77	7.79	56.75	-46.4	-47.7	20.3	0.00e+00	0	40	0	637534208	63	4424
2026-01-22 01:07:02.78	7.47	57.11	-46.6	-48.0	20.1	0.00e+00	0	40	0	639631360	63	4554
2026-01-22 01:07:03.78	7.14	57.47	-46.9	-48.4	19.6	0.00e+00	0	40	0	641728512	64	4515
2026-01-22 01:07:04.79	6.81	57.83	-47.6	-49.2	18.8	0.00e+00	0	40	0	642777088	65	4701
2026-01-22 01:07:05.80	6.46	58.19	-47.9	-49.6	18.4	0.00e+00	0	40	0	644874240	66	4624
2026-01-22 01:07:06.81	6.11	58.56	-47.7	-49.3	18.6	0.00e+00	0	40	0	646971392	66	4485
2026-01-22 01:07:07.82	5.75	58.92	-47.1	-48.6	19.4	0.00e+00	0	40	0	649068544	66	4105
2026-01-22 01:07:08.82	5.38	59.28	-46.6	-48.0	19.9	0.00e+00	0	40	0	651165696	65	4083
2026-01-22 01:07:09.83	4.99	59.65	-46.4	-47.7	20.3	0.00e+00	0	41	0	652214272	64	4167
2026-01-22 01:07:10.84	4.59	60.02	-45.9	-47.2	20.8	0.00e+00	0	40	0	654311424	63	4148
2026-01-22 01:07:11.85	4.19	60.39	-45.3	-46.4	21.4	0.00e+00	0	40	0	656408576	62	4032
2026-01-22 01:07:12.86	3.77	60.76	-44.7	-45.8	22.1	0.00e+00	0	40	0	658505728	61	3972
2026-01-22 01:07:13.86	3.34	61.13	-44.2	-45.3	22.6	0.00e+00	0	40	0	660602880	60	3961
2026-01-22 01:07:14.87	2.89	61.50	-44.3	-45.3	22.8	0.00e+00	0	40	0	661651456	59	4200
2026-01-22 01:07:15.88	2.43	61.87	-44.0	-45.0	23.1	0.00e+00	0	40	0	663748608	59	4062
2026-01-22 01:07:16.89	1.96	62.24	-44.3	-45.3	22.9	0.00e+00	0	40	0	665845760	59	4196
2026-01-22 01:07:17.90	1.47	62.61	-44.6	-45.6	22.6	0.00e+00	0	40	0	667942912	59	4361
2026-01-22 01:07:18.91	0.97	62.99	-44.4	-45.5	22.5	0.00e+00	0	41	0	670040064	60	4052
2026-01-22 01:07:19.91	0.45	63.36	-44.7	-45.7	22.1	0.00e+00	0	40	0	671088640	60	4181
2026-01-22 01:07:20.92	359.92	63.73	-44.9	-46.0	21.9	0.00e+00	0	40	0	673185792	60	4329
2026-01-22 01:07:21.93	359.36	64.10	-44.9	-46.0	21.9	0.00e+00	0	40	0	675282944	60	4322
2026-01-22 01:07:22.93	358.80	64.47	-45.2	-46.3	21.7	0.00e+00	0	40	0	677380096	61	4227
2026-01-22 01:07:23.94	358.20	64.84	-45.2	-46.3	21.6	0.00e+00	0	40	0	679477248	61	4235
2026-01-22 01:07:24.95	357.59	65.21	-45.5	-46.6	21.4	0.00e+00	0	40	0	680525824	61	4375
2026-01-22 01:07:25.96	356.96	65.58	-45.9	-47.2	20.8	0.00e+00	0	40	0	682622976	62	4414
2026-01-22 01:07:26.97	356.31	65.95	-46.6	-47.9	20.1	0.00e+00	0	40	0	684720128	63	4543
2026-01-22 01:07:27.97	355.64	66.32	-47.2	-48.8	19.3	0.00e+00	0	40	0	686817280	65	4455
2026-01-22 01:07:28.98	354.94	66.68	-47.6	-49.2	18.9	0.00e+00	0	40	0	688914432	65	4666
2026-01-22 01:07:29.99	354.21	67.05	-47.5	-49.1	18.9	0.00e+00	0	40	0	689963008	65	4601
2026-01-22 01:07:30.99	353.47	67.41	-47.2	-48.7	19.3	0.00e+00	0	40	0	692060160	65	4410
2026-01-22 01:07:32.01	352.69	67.77	-47.2	-48.7	19.3	0.00e+00	0	40	0	694157312	65	4399
2026-01-22 01:07:33.01	351.89	68.13	-47.3	-48.9	19.1	0.00e+00	0	40	0	696254464	65	4500
2026-01-22 01:07:34.02	351.06	68.48	-47.5	-49.1	18.9	0.00e+00	0	40	0	698351616	65	4647
2026-01-22 01:07:35.03	350.19	68.83	-47.4	-49.0	19.0	0.00e+00	0	40	0	699400192	66	4319
2026-01-22 01:07:36.04	349.30	69.18	-46.7	-48.1	19.9	0.00e+00	0	40	0	701497344	65	4131
2026-01-22 01:07:37.04	348.38	69.53	-46.1	-47.4	20.6	0.00e+00	0	40	0	703594496	64	4026
2026-01-22 01:07:38.05	347.42	69.87	-45.4	-46.6	21.4	0.00e+00	0	40	0	705691648	62	4100
2026-01-22 01:07:39.06	346.42	70.20	-45.1	-46.3	21.8	0.00e+00	0	40	0	707788800	62	3967
2026-01-22 01:07:40.06	345.39	70.53	-44.9	-46.0	22.0	0.00e+00	0	40	0	708837376	61	4058
2026-01-22 01:07:41.07	344.32	70.86	-44.9	-45.9	22.0	0.00e+00	0	40	0	710934528	61	4038
2026-01-22 01:07:42.08	343.21	71.18	-44.8	-45.8	22.1	0.00e+00	0	40	0	713031680	61	3983
2026-01-22 01:07:43.08	342.07	71.50	-45.1	-46.2	21.7	0.00e+00	0	41	0	715128832	61	4182
2026-01-22 01:07:44.09	340.87	71.81	-45.8	-47.0	21.1	0.00e+00	0	40	0	717225984	62	4325
2026-01-22 01:07:45.10	339.63	72.11	-45.9	-47.2	20.9	0.00e+00	0	40	0	719323136	62	4396
2026-01-22 01:07:46.11	338.35	72.40	-45.9	-47.1	21.0	0.00e+00	0	40	0	720371712	62	4373
2026-01-22 01:07:47.12	337.02	72.69	-45.3	-46.4	21.5	0.00e+00	0	40	0	722468864	62	4039
2026-01-22 01:07:48.12	335.66	72.97	-45.1	-46.2	21.8	0.00e+00	0	40	0	724566016	62	3951
2026-01-22 01:07:49.13	334.24	73.24	-45.2	-46.3	21.6	0.00e+00	0	40	0	726663168	62	4002
2026-01-22 01:07:50.14	332.77	73.50	-45.8	-47.0	21.1	0.00e+00	0	40	0	727711744	62	4294
2026-01-22 01:07:51.15	331.25	73.75	-46.4	-47.7	20.4	0.00e+00	0	40	0	729808896	63	4422
2026-01-22 01:07:52.16	329.68	73.99	-47.0	-48.4	19.6	0.00e+00	0	40	0	731906048	64	4541
2026-01-22 01:07:53.17	328.06	74.22	-47.9	-49.6	18.5	0.00e+00	0	40	0	734003200	66	4613
2026-01-22 01:07:54.17	326.42	74.43	-48.1	-49.9	18.2	0.00e+00	0	40	0	736100352	66	4761
2026-01-22 01:07:55.18	324.70	74.63	-47.4	-49.0	19.0	0.00e+00	0	40	0	738197504	66	4307
2026-01-22 01:07:56.19	322.94	74.82	-47.1	-48.6	19.4	0.00e+00	0	40	0	739246080	65	4365
2026-01-22 01:07:57.20	321.14	75.00	-47.9	-49.6	18.5	0.00e+00	0	40	0	741343232	66	4615
2026-01-22 01:07:58.20	319.31	75.16	-48.4	-50.2	17.9	0.00e+00	0	40	0	743440384	67	4669
2026-01-22 01:07:59.21	317.43	75.31	-48.9	-50.9	17.4	0.00e+00	0	40	0	745537536	68	4768
2026-01-22 01:08:00.22	315.50	75.44	-49.4	-51.7	16.6	0.00e+00	0	40	0	747634688	69	4940
2026-01-22 01:08:01.23	313.55	75.55	-49.7	-52.0	16.2	0.00e+00	0	40	0	748683264	69	5157
2026-01-22 01:08:02.24	311.56	75.65	-50.1	-52.7	15.5	0.00e+00	0	40	0	750780416	70	5260
2026-01-22 01:08:03.25	309.55	75.73	-50.0	-52.6	15.7	0.00e+00	0	40	0	752877568	71	4883
2026-01-22 01:08:04.25	307.53	75.80	-49.4	-51.6	16.5	0.00e+00	0	40	0	754974720	70	4642
2026-01-22 01:08:05.26	305.48	75.84	-48.8	-50.8	17.4	0.00e+00	0	40	0	756023296	69	4451
2026-01-22 01:08:06.27	303.41	75.87	-49.0	-51.0	17.3	0.00e+00	0	40	0	758120448	69	4585
2026-01-22 01:08:07.28	301.34	75.89	-48.4	-50.2	17.8	0.00e+00	0	40	0	760217600	68	4407
2026-01-22 01:08:08.28	299.29	75.88	-47.9	-49.6	18.6	0.00e+00	0	40	0	762314752	67	4348
2026-01-22 01:08:09.29	297.23	75.86	-48.2	-49.9	18.2	0.00e+00	0	40	0	764411904	67	4540
2026-01-22 01:08:10.30	295.17	75.81	-48.2	-50.0	18.2	0.00e+00	0	40	0	766509056	67	4576
2026-01-22 01:08:11.31	293.13	75.75	-48.3	-50.2	18.0	0.00e+00	0	40	0	767557632	67	4653
2026-01-22 01:08:12.32	291.11	75.68	-48.5	-50.3	17.9	0.00e+00	0	40	0	769654784	68	4466
2026-01-22 01:08:13.33	289.11	75.58	-48.3	-50.1	18.2	0.00e+00	0	40	0	771751936	68	4377
2026-01-22 01:08:14.33	287.16	75.47	-48.6	-50.4	17.9	0.00e+00	0	40	0	773849088	68	4542
2026-01-22 01:08:15.34	285.23	75.35	-48.8	-50.7	17.6	0.00e+00	0	40	0	775946240	68	4697
2026-01-22 01:08:16.35	283.33	75.21	-49.0	-51.1	17.2	0.00e+00	0	40	0	776994816	68	4887
2026-01-22 01:08:17.35	281.49	75.05	-49.4	-51.7	16.6	0.00e+00	0	40	0	779091968	69	4933
2026-01-22 01:08:18.36	279.67	74.88	-49.6	-51.8	16.5	0.00e+00	0	41	0	781189120	69	5040
2026-01-22 01:08:19.37	277.90	74.69	-49.5	-51.8	16.6	0.00e+00	0	40	0	783286272	69	5000
2026-01-22 01:08:20.37	276.19	74.50	-48.8	-50.8	17.5	0.00e+00	0	40	0	785383424	69	4456
2026-01-22 01:08:21.38	274.51	74.28	-48.2	-49.9	18.3	0.00e+00	0	40	0	786432000	68	4289
2026-01-22 01:08:22.39	272.88	74.06	-48.0	-49.6	18.5	0.00e+00	0	41	0	788529152	67	4388
2026-01-22 01:08:23.39	271.31	73.83	-47.7	-49.3	18.9	0.00e+00	0	40	0	790626304	67	4202
2026-01-22 01:08:24.40	269.77	73.58	-47.7	-49.3	18.8	0.00e+00	0	40	0	792723456	67	4237
2026-01-22 01:08:25.41	268.29	73.32	-47.6	-49.1	19.0	0.00e+00	0	40	0	794820608	67	4120
2026-01-22 01:08:26.42	266.85	73.05	-47.0	-48.4	19.7	0.00e+00	0	41	0	795869184	66	4009
2026-01-22 01:08:27.43	265.46	72.78	-46.7	-48.0	20.1	0.00e+00	0	41	0	797966336	65	4098
2026-01-22 01:08:28.44	264.11	72.49	-46.8	-48.1	20.0	0.00e+00	0	40	0	800063488	65	4138
2026-01-22 01:08:29.45	262.81	72.20	-46.2	-47.5	20.6	0.00e+00	0	41	0	802160640	64	4069
2026-01-22 01:08:30.45	261.57	71.90	-46.1	-47.3	20.8	0.00e+00	0	40	0	804257792	63	4236
2026-01-22 01:08:31.46	260.36	71.59	-45.9	-47.1	21.0	0.00e+00	0	40	0	805306368	63	4119
2026-01-22 01:08:32.47	259.20	71.28	-45.9	-47.1	21.0	0.00e+00	0	41	0	807403520	63	4123
2026-01-22 01:08:33.48	258.07	70.96	-46.7	-48.0	20.2	0.00e+00	0	40	0	809500672	63	4591
2026-01-22 01:08:34.49	256.99	70.63	-47.2	-48.7	19.4	0.00e+00	0	40	0	811597824	64	4681
2026-01-22 01:08:35.49	255.95	70.30	-47.8	-49.4	18.7	0.00e+00	0	41	0	813694976	66	4527
2026-01-22 01:08:36.50	254.94	69.97	-48.0	-49.7	18.5	0.00e+00	0	40	0	814743552	66	4673
2026-01-22 01:08:37.51	253.97	69.63	-48.5	-50.3	17.8	0.00e+00	0	40	0	816840704	67	4751
2026-01-22 01:08:38.52	253.03	69.28	-49.0	-51.0	17.2	0.00e+00	0	41	0	818937856	68	4861
2026-01-22 01:08:39.53	252.12	68.93	-49.0	-51.0	17.2	0.00e+00	0	41	0	821035008	68	4822
2026-01-22 01:08:40.54	251.25	68.58	-48.8	-50.8	17.5	0.00e+00	0	40	0	823132160	68	4709
2026-01-22 01:08:41.55	250.41	68.23	-48.7	-50.6	17.7	0.00e+00	0	40	0	824180736	68	4631
2026-01-22 01:08:42.55	249.60	67.87	-49.2	-51.4	17.0	0.00e+00	0	41	0	826277888	68	5056
2026-01-22 01:08:43.56	248.81	67.51	-48.7	-50.6	17.6	0.00e+00	0	41	0	828375040	69	4367
2026-01-22 01:08:44.57	248.06	67.15	-47.7	-49.2	18.8	0.00e+00	0	41	0	830472192	67	4191
2026-01-22 01:08:45.58	247.32	66.78	-47.3	-48.8	19.3	0.00e+00	0	41	0	832569344	66	4228
2026-01-22 01:08:46.59	246.62	66.42	-46.7	-48.1	20.0	0.00e+00	0	41	0	833617920	65	4113
2026-01-22 01:08:47.59	245.94	66.05	-46.3	-47.6	20.4	0.00e+00	0	41	0	835715072	64	4145
2026-01-22 01:08:48.60	245.28	65.68	-45.6	-46.8	21.3	0.00e+00	0	41	0	837812224	63	3972
2026-01-22 01:08:49.61	244.64	65.31	-45.1	-46.2	21.8	0.00e+00	0	40	0	839909376	62	3952
2026-01-22 01:08:50.62	244.02	64.94	-44.9	-46.0	22.1	0.00e+00	0	41	0	842006528	61	4073
2026-01-22 01:08:51.62	243.43	64.57	-44.5	-45.5	22.5	0.00e+00	0	41	0	843055104	61	3857
2026-01-22 01:08:52.63	242.85	64.20	-44.2	-45.2	23.0	0.00e+00	0	40	0	845152256	59	4179
2026-01-22 01:08:53.64	242.29	63.83	-44.5	-45.5	22.8	0.00e+00	0	41	0	847249408	59	4308
2026-01-22 01:08:54.65	241.75	63.45	-44.3	-45.4	22.9	0.00e+00	0	40	0	849346560	59	4244
2026-01-22 01:08:55.66	241.23	63.08	-44.2	-45.2	23.0	0.00e+00	0	41	0	851443712	59	4169
2026-01-22 01:08:56.67	240.72	62.71	-43.8	-44.7	23.5	0.00e+00	0	41	0	853540864	59	3936
2026-01-22 01:08:57.67	240.23	62.34	-43.9	-44.8	23.3	0.00e+00	0	41	0	854589440	59	3991
2026-01-22 01:08:58.68	239.75	61.96	-44.4	-45.4	22.8	0.00e+00	0	40	0	856686592	59	4268
2026-01-22 01:08:59.69	239.29	61.59	-44.9	-46.0	22.1	0.00e+00	0	41	0	858783744	60	4294
2026-01-22 01:09:00.70	238.84	61.22	-45.7	-46.9	21.3	0.00e+00	0	41	0	860880896	61	4494
2026-01-22 01:09:01.71	238.40	60.85	-46.4	-47.7	20.5	0.00e+00	0	41	0	861929472	63	4424
2026-01-22 01:09:02.72	237.98	60.48	-46.7	-48.1	20.1	0.00e+00	0	41	0	864026624	64	4344
2026-01-22 01:09:03.72	237.57	60.11	-46.8	-48.2	19.8	0.00e+00	0	40	0	866123776	64	4438
2026-01-22 01:09:04.73	237.17	59.74	-47.4	-49.0	19.1	0.00e+00	0	41	0	868220928	65	4563
2026-01-22 01:09:05.74	236.78	59.37	-48.3	-50.1	18.0	0.00e+00	0	41	0	870318080	67	4648
2026-01-22 01:09:06.75	236.40	59.00	-49.7	-52.1	16.2	0.00e+00	0	41	0	871366656	69	5210
2026-01-22 01:09:07.76	236.03	58.64	-50.2	-52.9	15.3	0.00e+00	0	41	0	873463808	71	5054
2026-01-22 01:09:08.77	235.68	58.27	-50.1	-52.6	15.5	0.00e+00	0	41	0	875560960	71	4917
2026-01-22 01:09:09.77	235.33	57.91	-49.0	-51.1	17.0	0.00e+00	0	41	0	877658112	70	4354
2026-01-22 01:09:10.78	235.00	57.55	-48.3	-50.0	18.1	0.00e+00	0	41	0	879755264	68	4326
2026-01-22 01:09:11.79	234.67	57.19	-47.9	-49.5	18.5	0.00e+00	0	41	0	881852416	67	4330
2026-01-22 01:09:12.80	234.35	56.83	-48.0	-49.8	18.3	0.00e+00	0	40	0	882900992	67	4449
2026-01-22 01:09:13.81	234.03	56.47	-48.1	-49.8	18.3	0.00e+00	0	41	0	884998144	67	4473
2026-01-22 01:09:14.81	233.73	56.12	-47.5	-49.0	18.9	0.00e+00	0	41	0	887095296	67	4098
2026-01-22 01:09:15.82	233.44	55.76	-46.9	-48.3	19.7	0.00e+00	0	41	0	889192448	65	4208
2026-01-22 01:09:16.83	233.15	55.41	-46.3	-47.7	20.3	0.00e+00	0	41	0	890241024	64	4147
2026-01-22 01:09:17.84	232.87	55.05	-46.0	-47.2	20.8	0.00e+00	0	41	0	892338176	63	4168
2026-01-22 01:09:18.85	232.59	54.70	-45.4	-46.5	21.5	0.00e+00	0	41	0	894435328	62	4078
2026-01-22 01:09:19.85	232.32	54.36	-45.2	-46.3	21.7	0.00e+00	0	41	0	896532480	62	3970
2026-01-22 01:09:20.86	232.06	54.01	-45.4	-46.6	21.4	0.00e+00	0	40	0	898629632	62	4104
2026-01-22 01:09:21.87	231.81	53.66	-45.5	-46.6	21.3	0.00e+00	0	40	0	900726784	62	4142
2026-01-22 01:09:22.88	231.56	53.32	-45.3	-46.4	21.6	0.00e+00	0	41	0	901775360	62	4031
2026-01-22 01:09:23.89	231.32	52.98	-45.2	-46.4	21.6	0.00e+00	0	41	0	903872512	62	4028
2026-01-22 01:09:24.89	231.08	52.64	-45.3	-46.4	21.5	0.00e+00	0	41	0	905969664	62	4033
2026-01-22 01:09:25.90	230.85	52.30	-45.5	-46.7	21.3	0.00e+00	0	41	0	908066816	62	4158
2026-01-22 01:09:26.91	230.62	51.97	-45.6	-46.8	21.2	0.00e+00	0	41	0	910163968	62	4198
2026-01-22 01:09:27.92	230.40	51.63	-45.8	-47.0	21.0	0.00e+00	0	41	0	911212544	62	4334
2026-01-22 01:09:28.93	230.18	51.30	-46.1	-47.4	20.6	0.00e+00	0	40	0	913309696	62	4518
2026-01-22 01:09:29.94	229.97	50.97	-46.4	-47.7	20.4	0.00e+00	0	41	0	915406848	63	4416
2026-01-22 01:09:30.95	229.76	50.64	-46.7	-48.2	19.8	0.00e+00	0	41	0	917504000	64	4409
2026-01-22 01:09:31.96	229.56	50.31	-46.8	-48.3	19.7	0.00e+00	0	41	0	918552576	64	4455
2026-01-22 01:09:32.97	229.36	49.99	-47.1	-48.6	19.4	0.00e+00	0	40	0	920649728	64	4615
2026-01-22 01:09:33.97	229.17	49.67	-47.6	-49.2	18.7	0.00e+00	0	41	0	922746880	65	4673
2026-01-22 01:09:34.98	228.98	49.34	-48.1	-49.9	18.1	0.00e+00	0	40	0	924844032	66	4794
2026-01-22 01:09:35.99	228.79	49.03	-48.4	-50.3	17.6	0.00e+00	0	41	0	926941184	67	4755
2026-01-22 01:09:37.00	228.61	48.71	-48.2	-50.1	18.0	0.00e+00	0	41	0	929038336	67	4601
2026-01-22 01:09:38.01	228.43	48.39	-47.9	-49.6	18.3	0.00e+00	0	40	0	930086912	67	4384
2026-01-22 01:09:39.01	228.26	48.08	-47.7	-49.4	18.6	0.00e+00	0	40	0	932184064	67	4249
2026-01-22 01:09:40.02	228.09	47.77	-47.5	-49.1	18.8	0.00e+00	0	40	0	934281216	66	4380
2026-01-22 01:09:41.03	227.92	47.46	-47.1	-48.6	19.3	0.00e+00	0	41	0	936378368	66	4124
2026-01-22 01:09:42.04	227.76	47.15	-47.0	-48.5	19.5	0.00e+00	0	40	0	938475520	66	4082
2026-01-22 01:09:43.05	227.60	46.85	-47.1	-48.6	19.4	0.00e+00	0	41	0	939524096	65	4348
2026-01-22 01:09:44.06	227.44	46.54	-47.1	-48.6	19.2	0.00e+00	0	41	0	941621248	65	4387
2026-01-22 01:09:45.06	227.29	46.24	-46.9	-48.4	19.4	0.00e+00	0	41	0	943718400	65	4272
2026-01-22 01:09:46.07	227.13	45.94	-47.1	-48.6	19.3	0.00e+00	0	41	0	945815552	65	4369
2026-01-22 01:09:47.08	226.99	45.65	-47.1	-48.6	19.3	0.00e+00	0	41	0	947912704	65	4386
2026-01-22 01:09:48.09	226.84	45.35	-47.4	-49.0	18.8	0.00e+00	0	41	0	948961280	65	4597
2026-01-22 01:09:49.10	226.70	45.06	-47.5	-49.1	18.9	0.00e+00	0	41	0	951058432	65	4629
2026-01-22 01:09:50.11	226.56	44.76	-47.4	-49.1	18.9	0.00e+00	0	41	0	953155584	65	4604
2026-01-22 01:09:51.12	226.42	44.47	-47.2	-48.8	19.0	0.00e+00	0	41	0	955252736	65	4464
2026-01-22 01:09:52.13	226.28	44.19	-47.2	-48.8	19.1	0.00e+00	0	41	0	957349888	65	4442
2026-01-22 01:09:53.13	226.15	43.90	-47.4	-49.0	18.9	0.00e+00	0	41	0	958398464	65	4556
2026-01-22 01:09:54.14	226.02	43.62	-48.0	-49.8	18.1	0.00e+00	0	41	0	960495616	66	4712
2026-01-22 01:09:55.15	225.89	43.34	-48.2	-50.1	17.9	0.00e+00	0	41	0	962592768	67	4604
2026-01-22 01:09:56.16	225.77	43.06	-48.4	-50.3	17.5	0.00e+00	0	40	0	964689920	67	4723
2026-01-22 01:09:57.17	225.64	42.78	-48.4	-50.2	17.6	0.00e+00	0	41	0	966787072	67	4701
2026-01-22 01:09:58.17	225.52	42.50	-48.6	-50.6	17.3	0.00e+00	0	41	0	968884224	67	4875
2026-01-22 01:09:59.18	225.40	42.23	-48.5	-50.5	17.5	0.00e+00	0	40	0	969932800	67	4817
2026-01-22 01:10:00.19	225.28	41.96	-48.1	-50.0	17.8	0.00e+00	0	41	0	972029952	67	4547
2026-01-22 01:10:01.20	225.17	41.68	-48.1	-49.9	18.0	0.00e+00	0	41	0	974127104	67	4495
2026-01-22 01:10:02.21	225.06	41.42	-47.9	-49.7	18.3	0.00e+00	0	41	0	976224256	67	4413
2026-01-22 01:10:03.22	224.94	41.15	-47.9	-49.7	18.2	0.00e+00	0	41	0	977272832	67	4406
2026-01-22 01:10:04.23	224.83	40.88	-48.0	-49.8	18.1	0.00e+00	0	41	0	979369984	67	4459
2026-01-22 01:10:05.24	224.73	40.62	-48.2	-50.0	17.9	0.00e+00	0	41	0	981467136	67	4567
2026-01-22 01:10:06.25	224.62	40.36	-48.1	-49.9	18.0	0.00e+00	0	41	0	983564288	67	4497
2026-01-22 01:10:07.26	224.52	40.10	-48.4	-50.3	17.6	0.00e+00	0	40	0	985661440	67	4724
2026-01-22 01:10:08.26	224.41	39.84	-48.4	-50.3	17.6	0.00e+00	0	40	0	986710016	67	4752
2026-01-22 01:10:09.27	224.31	39.58	-48.5	-50.5	17.4	0.00e+00	0	41	0	988807168	67	4818
2026-01-22 01:10:10.28	224.21	39.33	-48.2	-50.1	17.8	0.00e+00	0	41	0	990904320	67	4631
2026-01-22 01:10:11.29	224.12	39.08	-48.0	-49.8	18.1	0.00e+00	0	41	0	993001472	67	4456
2026-01-22 01:10:12.30	224.02	38.82	-47.6	-49.2	18.7	0.00e+00	0	41	0	995098624	67	4178
2026-01-22 01:10:13.31	223.93	38.58	-47.5	-49.1	18.8	0.00e+00	0	40	0	997195776	66	4374
2026-01-22 01:10:14.31	223.83	38.33	-47.1	-48.7	19.2	0.00e+00	0	41	0	998244352	66	4146
2026-01-22 01:10:15.32	223.74	38.08	-47.1	-48.7	19.2	0.00e+00	0	41	0	1000341504	66	4150
2026-01-22 01:10:16.33	223.65	37.84	-46.8	-48.3	19.5	0.00e+00	0	41	0	1002438656	65	4202
2026-01-22 01:10:17.34	223.56	37.60	-46.8	-48.2	19.6	0.00e+00	0	41	0	1004535808	65	4191
2026-01-22 01:10:18.34	223.48	37.36	-46.8	-48.2	19.6	0.00e+00	0	41	0	1005584384	65	4184
2026-01-22 01:10:19.35	223.39	37.12	-46.9	-48.4	19.4	0.00e+00	0	41	0	1007681536	65	4257
2026-01-22 01:10:20.36	223.31	36.88	-47.0	-48.5	19.3	0.00e+00	0	41	0	1009778688	65	4315
2026-01-22 01:10:21.36	223.22	36.65	-47.2	-48.8	19.0	0.00e+00	0	41	0	1011875840	65	4461
2026-01-22 01:10:22.37	223.14	36.41	-47.5	-49.1	18.7	0.00e+00	0	41	0	1013972992	65	4624
2026-01-22 01:10:23.38	223.06	36.18	-47.6	-49.2	18.6	0.00e+00	0	40	0	1016070144	65	4691
2026-01-22 01:10:24.38	222.98	35.95	-47.5	-49.1	18.6	0.00e+00	0	40	0	1017118720	65	4651
2026-01-22 01:10:25.39	222.90	35.72	-47.3	-49.0	18.8	0.00e+00	0	41	0	1019215872	65	4554
2026-01-22 01:10:26.40	222.82	35.49	-47.4	-49.1	18.7	0.00e+00	0	41	0	1021313024	65	4610
2026-01-22 01:10:27.41	222.75	35.27	-47.4	-49.0	18.7	0.00e+00	0	40	0	1023410176	65	4586
2026-01-22 01:10:28.42	222.67	35.04	-47.4	-49.1	18.7	0.00e+00	0	41	0	1025507328	65	4618
2026-01-22 01:10:29.43	222.60	34.82	-47.5	-49.2	18.5	0.00e+00	0	41	0	1026555904	65	4691
2026-01-22 01:10:30.44	222.52	34.59	-47.6	-49.4	18.3	0.00e+00	0	41	0	1028653056	65	4770
2026-01-22 01:10:31.45	222.45	34.37	-47.6	-49.4	18.4	0.00e+00	0	41	0	1030750208	65	4765
2026-01-22 01:10:32.45	222.38	34.16	-47.8	-49.5	18.2	0.00e+00	0	41	0	1032847360	66	4578
2026-01-22 01:10:33.46	222.31	33.94	-47.8	-49.6	18.1	0.00e+00	0	40	0	1033895936	66	4634
2026-01-22 01:10:34.47	222.24	33.72	-47.9	-49.8	18.0	0.00e+00	0	40	0	1035993088	66	4710
2026-01-22 01:10:35.48	222.17	33.51	-48.2	-50.1	17.7	0.00e+00	0	41	0	1038090240	67	4606
2026-01-22 01:10:36.49	222.11	33.30	-48.4	-50.4	17.3	0.00e+00	0	40	0	1040187392	67	4801
2026-01-22 01:10:37.50	222.04	33.08	-48.5	-50.5	17.2	0.00e+00	0	41	0	1042284544	67	4836
2026-01-22 01:10:38.51	221.97	32.87	-48.4	-50.4	17.3	0.00e+00	0	41	0	1044381696	67	4808
2026-01-22 01:10:39.51	221.91	32.67	-48.4	-50.4	17.3	0.00e+00	0	41	0	1045430272	67	4778
2026-01-22 01:10:40.52	221.85	32.46	-48.2	-50.1	17.6	0.00e+00	0	40	0	1047527424	67	4630
2026-01-22 01:10:41.53	221.78	32.25	-47.9	-49.8	18.0	0.00e+00	0	40	0	1049624576	67	4445
2026-01-22 01:10:42.54	221.72	32.05	-47.9	-49.6	18.0	0.00e+00	0	41	0	1051721728	67	4386
2026-01-22 01:10:43.55	221.66	31.84	-47.9	-49.6	18.0	0.00e+00	0	40	0	1053818880	67	4383
2026-01-22 01:10:44.55	221.60	31.64	-47.8	-49.6	18.1	0.00e+00	0	41	0	1054867456	67	4348
2026-01-22 01:10:45.56	221.54	31.44	-47.9	-49.7	18.1	0.00e+00	0	40	0	1056964608	67	4401
2026-01-22 01:10:46.57	221.48	31.24	-48.0	-49.8	17.9	0.00e+00	0	40	0	1059061760	67	4459
2026-01-22 01:10:47.58	221.42	31.05	-48.1	-49.9	17.8	0.00e+00	0	40	0	1061158912	67	4537
2026-01-22 01:10:48.58	221.36	30.85	-48.2	-50.1	17.6	0.00e+00	0	41	0	1063256064	67	4633
2026-01-22 01:10:49.59	221.31	30.66	-48.3	-50.3	17.5	0.00e+00	0	40	0	1064304640	67	4714
2026-01-22 01:10:50.60	221.25	30.46	-48.4	-50.4	17.3	0.00e+00	0	40	0	1066401792	67	4775
2026-01-22 01:10:51.61	221.20	30.27	-48.4	-50.4	17.3	0.00e+00	0	40	0	1068498944	67	4779
2026-01-22 01:10:52.62	221.14	30.08	-48.5	-50.6	17.1	0.00e+00	0	41	0	1070596096	67	4898
2026-01-22 01:10:53.62	221.09	29.89	-48.5	-50.6	17.1	0.00e+00	0	40	0	1072693248	67	4891
2026-01-22 01:10:54.63	221.04	29.70	-48.5	-50.5	17.1	0.00e+00	0	41	0	1073741824	67	4869
2026-01-22 01:10:55.64	220.98	29.51	-48.4	-50.5	17.2	0.00e+00	0	41	0	1075838976	67	4827
2026-01-22 01:10:56.65	220.93	29.32	-48.4	-50.3	17.3	0.00e+00	0	40	0	1077936128	67	4759
2026-01-22 01:10:57.65	220.88	29.14	-48.3	-50.3	17.4	0.00e+00	0	41	0	1080033280	67	4706
2026-01-22 01:10:58.66	220.83	28.96	-48.4	-50.4	17.3	0.00e+00	0	40	0	1082130432	67	4770
2026-01-22 01:10:59.67	220.78	28.77	-48.4	-50.4	17.3	0.00e+00	0	41	0	1083179008	67	4787
2026-01-22 01:11:00.68	220.73	28.59	-48.2	-50.2	17.5	0.00e+00	0	41	0	1085276160	67	4664
2026-01-22 01:11:01.68	220.68	28.41	-48.1	-49.9	17.7	0.00e+00	0	41	0	1087373312	67	4542
2026-01-22 01:11:02.69	220.63	28.23	-47.9	-49.7	17.9	0.00e+00	0	40	0	1089470464	67	4430
2026-01-22 01:11:03.70	220.58	28.05	-47.8	-49.6	18.1	0.00e+00	0	41	0	1091567616	67	4344
2026-01-22 01:11:04.71	220.54	27.87	-47.6	-49.3	18.3	0.00e+00	0	41	0	1092616192	67	4231
2026-01-22 01:11:05.71	220.49	27.70	-47.5	-49.2	18.4	0.00e+00	0	41	0	1094713344	67	4161
2026-01-22 01:11:06.72	220.45	27.52	-47.3	-49.0	18.6	0.00e+00	0	41	0	1096810496	66	4307
2026-01-22 01:11:07.73	220.40	27.35	-47.2	-48.8	18.7	0.00e+00	0	41	0	1098907648	66	4228
2026-01-22 01:11:08.74	220.35	27.18	-47.1	-48.7	18.9	0.00e+00	0	41	0	1101004800	66	4163
2026-01-22 01:11:09.75	220.31	27.00	-46.9	-48.5	19.0	0.00e+00	0	41	0	1102053376	65	4319
2026-01-22 01:11:10.75	220.27	26.84	-47.0	-48.5	19.1	0.00e+00	0	41	0	1104150528	65	4331
2026-01-22 01:11:11.76	220.22	26.67	-47.2	-48.8	18.8	0.00e+00	0	41	0	1106247680	65	4457
2026-01-22 01:11:12.77	220.18	26.50	-47.2	-48.8	18.7	0.00e+00	0	41	0	1108344832	65	4487
2026-01-22 01:11:13.78	220.14	26.33	-47.3	-48.9	18.6	0.00e+00	0	41	0	1110441984	65	4529
2026-01-22 01:11:14.79	220.10	26.16	-47.4	-49.1	18.4	0.00e+00	0	41	0	1111490560	65	4629
2026-01-22 01:11:15.79	220.05	26.00	-47.4	-49.1	18.4	0.00e+00	0	41	0	1113587712	65	4629
2026-01-22 01:11:16.80	220.01	25.83	-47.4	-49.1	18.5	0.00e+00	0	41	0	1115684864	65	4603
2026-01-22 01:11:17.81	219.97	25.67	-47.5	-49.2	18.3	0.00e+00	0	41	0	1117782016	65	4699
2026-01-22 01:11:18.82	219.93	25.51	-47.2	-48.9	18.7	0.00e+00	0	41	0	1119879168	65	4494
2026-01-22 01:11:19.83	219.89	25.34	-47.0	-48.7	18.9	0.00e+00	0	41	0	1120927744	65	4395
2026-01-22 01:11:20.84	219.85	25.18	-47.0	-48.6	18.9	0.00e+00	0	41	0	1123024896	65	4387
2026-01-22 01:11:21.85	219.81	25.02	-46.8	-48.3	19.2	0.00e+00	0	41	0	1125122048	65	4230
2026-01-22 01:11:22.85	219.78	24.86	-46.6	-48.0	19.5	0.00e+00	0	41	0	1127219200	65	4093
2026-01-22 01:11:23.86	219.74	24.71	-46.5	-48.0	19.5	0.00e+00	0	41	0	1129316352	65	4054
2026-01-22 01:11:24.87	219.70	24.55	-46.5	-48.0	19.5	0.00e+00	0	41	0	1131413504	64	4298
2026-01-22 01:11:25.88	219.66	24.39	-46.4	-47.8	19.6	0.00e+00	0	41	0	1132462080	64	4223
2026-01-22 01:11:26.89	219.63	24.24	-46.1	-47.5	20.0	0.00e+00	0	41	0	1134559232	64	4075
2026-01-22 01:11:27.89	219.59	24.08	-46.1	-47.5	20.0	0.00e+00	0	41	0	1136656384	64	4070
2026-01-22 01:11:28.90	219.55	23.93	-46.0	-47.4	20.0	0.00e+00	0	41	0	1138753536	64	4027
2026-01-22 01:11:29.91	219.52	23.78	-45.9	-47.2	20.3	0.00e+00	0	41	0	1139802112	63	4181
2026-01-22 01:11:30.92	219.48	23.63	-45.7	-47.0	20.5	0.00e+00	0	41	0	1141899264	63	4056
2026-01-22 01:11:31.93	219.45	23.47	-45.7	-47.0	20.5	0.00e+00	0	41	0	1143996416	63	4070
2026-01-22 01:11:32.93	219.41	23.33	-45.7	-47.0	20.5	0.00e+00	0	41	0	1146093568	63	4077
2026-01-22 01:11:33.94	219.38	23.18	-45.7	-47.0	20.5	0.00e+00	0	41	0	1148190720	63	4084
2026-01-22 01:11:34.95	219.35	23.03	-45.8	-47.1	20.4	0.00e+00	0	41	0	1149239296	63	4138
2026-01-22 01:11:35.96	219.31	22.88	-45.9	-47.2	20.3	0.00e+00	0	40	0	1151336448	63	4178
2026-01-22 01:11:36.97	219.28	22.73	-45.8	-47.2	20.3	0.00e+00	0	41	0	1153433600	63	4152
2026-01-22 01:11:37.98	219.25	22.59	-45.9	-47.3	20.2	0.00e+00	0	41	0	1155530752	63	4212
2026-01-22 01:11:38.99	219.21	22.44	-45.9	-47.2	20.3	0.00e+00	0	41	0	1157627904	63	4173
2026-01-22 01:11:39.99	219.18	22.30	-46.0	-47.3	20.1	0.00e+00	0	41	0	1159725056	63	4220
2026-01-22 01:11:41.00	219.15	22.16	-45.9	-47.3	20.2	0.00e+00	0	41	0	1160773632	63	4196
2026-01-22 01:11:42.02	219.12	22.01	-45.9	-47.3	20.2	0.00e+00	0	41	0	1162870784	63	4204
2026-01-22 01:11:43.02	219.09	21.87	-45.9	-47.3	20.2	0.00e+00	0	41	0	1164967936	63	4209
2026-01-22 01:11:44.03	219.06	21.73	-46.0	-47.3	20.2	0.00e+00	0	41	0	1167065088	63	4219
2026-01-22 01:11:45.04	219.03	21.59	-46.0	-47.3	20.1	0.00e+00	0	41	0	1168113664	63	4240
2026-01-22 01:11:46.05	219.00	21.45	-46.0	-47.3	20.1	0.00e+00	0	41	0	1170210816	63	4229
2026-01-22 01:11:47.05	218.97	21.31	-46.1	-47.5	20.0	0.00e+00	0	40	0	1172307968	63	4297
2026-01-22 01:11:48.06	218.94	21.17	-46.1	-47.5	20.0	0.00e+00	0	40	0	1174405120	63	4319
2026-01-22 01:11:49.07	218.91	21.04	-46.1	-47.5	19.9	0.00e+00	0	41	0	1176502272	63	4326
2026-01-22 01:11:50.08	218.88	20.90	-46.2	-47.7	19.8	0.00e+00	0	41	0	1178599424	63	4393
2026-01-22 01:11:51.08	218.85	20.77	-46.3	-47.7	19.7	0.00e+00	0	40	0	1179648000	63	4435
2026-01-22 01:11:52.09	218.82	20.63	-46.5	-48.0	19.5	0.00e+00	0	41	0	1181745152	63	4547
2026-01-22 01:11:53.10	218.79	20.50	-46.4	-47.9	19.5	0.00e+00	0	41	0	1183842304	63	4527
2026-01-22 01:11:54.11	218.77	20.36	-46.5	-48.0	19.5	0.00e+00	0	40	0	1185939456	63	4567
2026-01-22 01:11:55.12	218.74	20.23	-46.5	-48.0	19.4	0.00e+00	0	40	0	1188036608	63	4575
2026-01-22 01:11:56.12	218.71	20.10	-46.6	-48.1	19.3	0.00e+00	0	41	0	1189085184	63	4648
2026-01-22 01:11:57.13	218.68	19.97	-46.7	-48.3	19.0	0.00e+00	0	41	0	1191182336	64	4475
2026-01-22 01:11:58.14	218.66	19.83	-46.7	-48.3	19.1	0.00e+00	0	40	0	1193279488	64	4446
2026-01-22 01:11:59.15	218.63	19.70	-46.8	-48.3	19.0	0.00e+00	0	41	0	1195376640	64	4493
2026-01-22 01:12:00.15	218.60	19.58	-46.8	-48.4	18.9	0.00e+00	0	41	0	1196425216	64	4516
2026-01-22 01:12:01.14	218.58	19.45	-46.7	-48.2	19.1	0.00e+00	0	41	0	1198522368	64	4430
2026-01-22 01:12:02.15	218.55	19.32	-46.8	-48.4	19.0	0.00e+00	0	40	0	1200619520	64	4500
2026-01-22 01:12:03.16	218.53	19.19	-46.7	-48.2	19.1	0.00e+00	0	41	0	1202716672	64	4415
2026-01-22 01:12:04.16	218.50	19.07	-46.8	-48.4	18.9	0.00e+00	0	41	0	1204813824	64	4498
2026-01-22 01:12:05.17	218.48	18.94	-46.8	-48.4	19.0	0.00e+00	0	41	0	1206910976	64	4507
2026-01-22 01:12:06.18	218.45	18.82	-46.8	-48.4	18.9	0.00e+00	0	40	0	1207959552	64	4513
2026-01-22 01:12:07.19	218.43	18.69	-46.8	-48.5	18.8	0.00e+00	0	40	0	1210056704	64	4548
2026-01-22 01:12:08.20	218.40	18.57	-46.8	-48.4	18.9	0.00e+00	0	41	0	1212153856	64	4530
2026-01-22 01:12:09.21	218.38	18.44	-46.8	-48.3	19.0	0.00e+00	0	40	0	1214251008	64	4492
2026-01-22 01:12:10.21	218.36	18.32	-46.7	-48.3	19.0	0.00e+00	0	40	0	1216348160	64	4475
2026-01-22 01:12:11.22	218.33	18.20	-46.7	-48.3	19.0	0.00e+00	0	41	0	1217396736	64	4468
2026-01-22 01:12:12.23	218.31	18.07	-46.7	-48.3	19.0	0.00e+00	0	41	0	1219493888	64	4467
2026-01-22 01:12:13.24	218.28	17.95	-46.9	-48.4	18.8	0.00e+00	0	41	0	1221591040	64	4543
2026-01-22 01:12:14.25	218.26	17.83	-46.8	-48.3	18.9	0.00e+00	0	41	0	1223688192	64	4492
2026-01-22 01:12:15.25	218.24	17.71	-46.8	-48.4	18.8	0.00e+00	0	41	0	1224736768	64	4536
2026-01-22 01:12:16.26	218.22	17.59	-46.7	-48.2	19.1	0.00e+00	0	41	0	1226833920	64	4426
2026-01-22 01:12:17.27	218.19	17.47	-46.7	-48.2	19.0	0.00e+00	0	41	0	1228931072	64	4430
2026-01-22 01:12:18.28	218.17	17.36	-46.7	-48.2	19.0	0.00e+00	0	41	0	1231028224	64	4411
2026-01-22 01:12:19.29	218.15	17.24	-46.6	-48.1	19.1	0.00e+00	0	40	0	1233125376	64	4376
2026-01-22 01:12:20.29	218.13	17.12	-46.6	-48.1	19.2	0.00e+00	0	41	0	1235222528	64	4357
2026-01-22 01:12:21.30	218.11	17.00	-46.7	-48.2	19.0	0.00e+00	0	41	0	1236271104	64	4419
2026-01-22 01:12:22.31	218.08	16.89	-46.6	-48.2	19.1	0.00e+00	0	41	0	1238368256	64	4394
2026-01-22 01:12:23.32	218.06	16.77	-46.7	-48.2	19.0	0.00e+00	0	41	0	1240465408	64	4439
2026-01-22 01:12:24.33	218.04	16.66	-46.7	-48.2	19.0	0.00e+00	0	40	0	1242562560	64	4434
2026-01-22 01:12:25.34	218.02	16.54	-46.6	-48.1	19.1	0.00e+00	0	41	0	1244659712	64	4391
2026-01-22 01:12:26.35	218.00	16.43	-46.7	-48.2	19.0	0.00e+00	0	40	0	1245708288	64	4435
2026-01-22 01:12:27.35	217.98	16.31	-46.8	-48.4	18.9	0.00e+00	0	41	0	1247805440	64	4494
2026-01-22 01:12:28.37	217.96	16.20	-46.8	-48.4	18.8	0.00e+00	0	41	0	1249902592	64	4533
