passes_logs/2026/01/22/R3.2S_Murmansk/R3.2S_Murmansk__20260122_133410_NOAA_21_JPSS-2_rec.log

#Pass ID: 20260122_133410_NOAA 21 (JPSS-2)
#Satellite: NOAA 21 (JPSS-2)
#Configuration: NOAA-21
#almurnet v.1.7.20251203
#Start time: 2026-01-22 13:34:11

#Version: 2.2.20231116
#Station: R3.2S_Murmansk
#Location: 33.079688 lon 68.888172 lat
#TLE: 1 54234U 22150A   26021.42686626  .00000211  00000+0  12107-3 0  9996
#TLE: 2 54234  98.7506 322.2490 0000636 241.9299 118.1812 14.19537149165725

#Time	Az	El	Level	Level2	SNR	BER	BlckErr	Temp	State	Recorded	gain1	gain2
2026-01-22 13:34:11.28	260.12	2.03	-53.8	-66.6	3.8	1.49e+00	0	40	0	0	79	15468
2026-01-22 13:34:12.28	260.24	2.07	-53.0	-65.8	3.8	1.49e+00	0	40	104	0	77	15825
2026-01-22 13:34:13.27	260.35	2.11	-52.9	-65.7	3.8	1.49e+00	0	40	104	0	77	15630
2026-01-22 13:34:14.27	260.46	2.14	-52.6	-65.3	3.8	1.49e+00	0	40	104	0	77	15047
2026-01-22 13:34:15.26	260.57	2.18	-52.5	-65.2	3.8	1.49e+00	0	40	104	0	76	15705
2026-01-22 13:34:16.25	260.68	2.22	-52.5	-65.2	3.8	1.49e+00	0	40	104	0	76	15736
2026-01-22 13:34:17.24	260.79	2.25	-52.4	-65.2	3.8	1.49e+00	0	40	104	0	76	15711
2026-01-22 13:34:18.24	260.91	2.29	-52.4	-65.2	3.8	1.49e+00	0	40	104	0	76	15726
2026-01-22 13:34:19.24	261.02	2.33	-52.4	-65.2	3.8	1.49e+00	0	40	104	0	76	15646
2026-01-22 13:34:20.23	261.13	2.36	-52.4	-65.2	3.8	1.49e+00	0	40	104	0	76	15691
2026-01-22 13:34:21.22	261.25	2.40	-52.4	-65.2	3.8	1.49e+00	0	40	104	0	76	15742
2026-01-22 13:34:22.22	261.36	2.44	-52.4	-65.2	3.8	1.49e+00	0	40	104	0	76	15687
2026-01-22 13:34:23.21	261.48	2.47	-52.4	-65.2	3.8	1.49e+00	0	40	104	0	76	15644
2026-01-22 13:34:24.21	261.59	2.51	-52.4	-65.2	3.8	1.49e+00	0	40	104	0	76	15722
2026-01-22 13:34:25.20	261.71	2.55	-52.4	-65.2	3.8	1.49e+00	0	40	104	0	76	15680
2026-01-22 13:34:26.19	261.82	2.58	-52.4	-65.2	3.8	1.49e+00	0	40	104	0	76	15717
2026-01-22 13:34:27.18	261.93	2.62	-52.4	-65.2	3.8	1.49e+00	0	40	104	0	76	15694
2026-01-22 13:34:28.18	262.05	2.65	-52.4	-65.2	3.8	1.49e+00	0	40	104	0	76	15656
2026-01-22 13:34:29.17	262.17	2.69	-52.4	-65.2	3.8	1.49e+00	0	40	104	0	76	15629
2026-01-22 13:34:30.16	262.28	2.73	-52.4	-65.2	3.8	1.49e+00	0	40	104	0	76	15685
2026-01-22 13:34:31.15	262.40	2.76	-52.4	-65.2	3.8	1.49e+00	0	40	104	0	76	15632
2026-01-22 13:34:32.14	262.51	2.80	-52.4	-65.2	3.8	1.49e+00	0	40	104	0	76	15663
2026-01-22 13:34:33.13	262.63	2.83	-52.4	-65.2	3.8	1.49e+00	0	40	104	0	76	15648
2026-01-22 13:34:34.13	262.75	2.87	-52.4	-65.2	3.8	1.49e+00	0	40	104	0	76	15633
2026-01-22 13:34:35.12	262.86	2.91	-52.4	-65.2	3.8	1.49e+00	0	40	104	0	76	15678
2026-01-22 13:34:36.11	262.98	2.94	-52.4	-65.2	3.8	1.49e+00	0	40	104	0	76	15621
2026-01-22 13:34:37.10	263.10	2.98	-52.4	-65.2	3.8	1.49e+00	0	40	104	0	76	15634
2026-01-22 13:34:38.09	263.22	3.01	-52.4	-65.2	3.8	1.49e+00	0	40	104	0	76	15653
2026-01-22 13:34:39.08	263.33	3.05	-52.4	-65.2	3.8	1.49e+00	0	40	104	0	76	15638
2026-01-22 13:34:40.07	263.45	3.08	-52.4	-65.2	3.8	1.49e+00	0	40	104	0	76	15659
2026-01-22 13:34:41.07	263.57	3.12	-52.4	-65.2	3.8	1.49e+00	0	40	104	0	76	15697
2026-01-22 13:34:42.06	263.69	3.15	-52.4	-65.2	3.8	1.49e+00	0	40	104	0	76	15650
2026-01-22 13:34:43.05	263.81	3.19	-52.4	-65.2	3.8	1.49e+00	0	40	104	0	76	15641
2026-01-22 13:34:44.04	263.93	3.22	-52.4	-65.2	3.8	1.49e+00	0	40	104	0	76	15603
2026-01-22 13:34:45.04	264.05	3.26	-52.4	-65.2	3.8	1.49e+00	0	40	104	0	76	15659
2026-01-22 13:34:46.03	264.17	3.30	-52.4	-65.1	3.8	1.49e+00	0	40	104	0	76	15580
2026-01-22 13:34:47.02	264.29	3.33	-52.4	-65.2	3.8	1.49e+00	0	40	104	0	76	15633
2026-01-22 13:34:48.01	264.41	3.37	-52.4	-65.1	3.8	1.49e+00	0	40	104	0	76	15572
2026-01-22 13:34:49.01	264.53	3.40	-52.4	-65.1	3.8	1.49e+00	0	40	104	0	76	15545
2026-01-22 13:34:50.00	264.65	3.44	-52.4	-65.1	3.8	1.49e+00	0	40	104	0	76	15517
2026-01-22 13:34:51.00	264.78	3.47	-52.4	-65.2	3.8	1.49e+00	0	40	104	0	76	15588
2026-01-22 13:34:51.98	264.90	3.51	-52.4	-65.1	3.8	1.49e+00	0	40	104	0	76	15564
2026-01-22 13:34:52.97	265.02	3.54	-52.4	-65.1	3.8	1.49e+00	0	40	104	0	76	15534
2026-01-22 13:34:53.96	265.14	3.57	-52.4	-65.2	3.8	1.49e+00	0	40	104	0	76	15598
2026-01-22 13:34:54.95	265.26	3.61	-52.4	-65.1	3.8	1.49e+00	0	40	104	0	76	15546
2026-01-22 13:34:55.94	265.39	3.64	-52.4	-65.1	3.8	1.49e+00	0	40	104	0	76	15536
2026-01-22 13:34:56.94	265.51	3.68	-52.4	-65.2	3.8	1.49e+00	0	40	104	0	76	15582
2026-01-22 13:34:57.93	265.63	3.71	-52.4	-65.2	3.8	1.49e+00	0	40	104	0	76	15619
2026-01-22 13:34:58.93	265.76	3.75	-52.4	-65.1	3.8	1.49e+00	0	40	104	0	76	15578
2026-01-22 13:34:59.92	265.88	3.78	-52.4	-65.1	3.8	1.49e+00	0	40	104	0	76	15574
2026-01-22 13:35:00.91	266.01	3.82	-52.4	-65.2	3.8	1.49e+00	0	40	104	0	76	15586
2026-01-22 13:35:01.90	266.13	3.85	-52.4	-65.2	3.8	1.49e+00	0	40	104	0	76	15604
2026-01-22 13:35:02.90	266.26	3.88	-52.4	-65.1	3.8	1.49e+00	0	40	104	0	76	15446
2026-01-22 13:35:03.89	266.38	3.92	-52.4	-65.1	3.8	1.49e+00	0	40	104	0	76	15433
2026-01-22 13:35:04.87	266.50	3.95	-52.4	-65.1	3.8	1.49e+00	0	40	104	0	76	15578
2026-01-22 13:35:05.86	266.63	3.99	-52.4	-65.1	3.8	1.49e+00	0	40	104	0	76	15437
2026-01-22 13:35:06.86	266.76	4.02	-52.4	-65.1	3.8	1.49e+00	0	41	104	0	76	15570
2026-01-22 13:35:07.85	266.88	4.05	-52.4	-65.1	3.8	1.49e+00	0	40	104	0	76	15494
2026-01-22 13:35:08.85	267.01	4.09	-52.4	-65.1	3.8	1.49e+00	0	41	104	0	76	15496
2026-01-22 13:35:09.84	267.14	4.12	-52.4	-64.9	3.8	1.49e+00	0	41	104	0	76	15123
2026-01-22 13:35:10.83	267.26	4.15	-52.4	-64.7	3.8	1.49e+00	0	41	104	0	76	14835
2026-01-22 13:35:11.82	267.39	4.19	-52.4	-65.0	3.8	1.49e+00	0	41	104	0	76	15295
2026-01-22 13:35:12.81	267.52	4.22	-52.4	-65.1	3.8	1.49e+00	0	40	104	0	76	15561
2026-01-22 13:35:13.80	267.65	4.25	-52.4	-65.0	3.8	1.49e+00	0	41	104	0	76	15340
2026-01-22 13:35:14.79	267.77	4.29	-52.4	-64.7	3.8	1.49e+00	0	41	104	0	76	14791
2026-01-22 13:35:15.78	267.90	4.32	-52.4	-64.7	3.8	1.49e+00	0	41	104	0	76	14758
2026-01-22 13:35:16.78	268.03	4.35	-52.3	-64.4	3.8	1.49e+00	0	41	104	0	76	14329
2026-01-22 13:35:17.77	268.16	4.39	-52.4	-64.8	3.8	1.49e+00	0	40	104	0	76	14906
2026-01-22 13:35:18.77	268.29	4.42	-52.4	-65.0	3.8	1.49e+00	0	40	104	0	76	15374
2026-01-22 13:35:19.76	268.42	4.45	-52.4	-65.0	3.8	1.49e+00	0	41	104	0	76	15289
2026-01-22 13:35:20.76	268.55	4.49	-52.4	-65.2	3.8	1.49e+00	0	41	104	0	76	15592
2026-01-22 13:35:21.75	268.68	4.52	-52.4	-64.9	3.8	1.49e+00	0	41	104	0	76	15190
2026-01-22 13:35:22.74	268.81	4.55	-52.3	-64.5	3.8	1.49e+00	0	41	104	0	76	14478
2026-01-22 13:35:23.74	268.94	4.58	-52.3	-64.5	3.8	1.49e+00	0	41	104	0	76	14518
2026-01-22 13:35:24.73	269.07	4.62	-52.3	-64.2	3.8	1.49e+00	0	41	104	0	76	14041
2026-01-22 13:35:25.72	269.20	4.65	-52.3	-64.1	3.8	1.49e+00	0	41	104	0	76	13882
2026-01-22 13:35:26.72	269.34	4.68	-52.4	-64.6	3.8	1.49e+00	0	41	104	0	76	14694
2026-01-22 13:35:27.71	269.47	4.71	-52.3	-64.6	3.8	1.49e+00	0	41	104	0	76	14702
2026-01-22 13:35:28.70	269.60	4.75	-52.1	-62.5	3.9	1.49e+00	0	41	104	0	76	11527
2026-01-22 13:35:29.68	269.73	4.78	-51.6	-58.8	5.5	8.30e-01	0	41	0	0	75	7909
2026-01-22 13:35:30.68	269.86	4.81	-51.1	-56.6	7.2	1.64e-01	0	41	0	3145728	74	6558
2026-01-22 13:35:31.67	270.00	4.84	-50.4	-54.7	9.2	2.82e-02	0	41	0	6291456	72	5862
2026-01-22 13:35:32.66	270.13	4.87	-49.4	-52.6	11.4	3.98e-03	0	41	0	9437184	70	5191
2026-01-22 13:35:33.65	270.26	4.91	-48.0	-50.3	13.8	2.67e-05	0	41	0	12582912	68	4471
2026-01-22 13:35:34.64	270.40	4.94	-46.8	-48.6	15.4	7.00e-07	0	41	0	15728640	65	4344
2026-01-22 13:35:35.63	270.53	4.97	-45.9	-47.4	16.7	0.00e+00	0	41	0	18874368	63	4252
2026-01-22 13:35:36.63	270.67	5.00	-45.6	-47.0	17.0	0.00e+00	0	41	0	20971520	63	4097
2026-01-22 13:35:37.62	270.80	5.03	-46.8	-48.6	15.5	0.00e+00	0	41	0	24117248	64	4610
2026-01-22 13:35:38.61	270.93	5.06	-46.4	-48.1	15.9	0.00e+00	0	41	0	27262976	64	4382
2026-01-22 13:35:39.60	271.07	5.09	-47.5	-49.5	14.8	0.00e+00	0	41	0	30408704	65	4851
2026-01-22 13:35:40.59	271.20	5.12	-47.9	-49.9	14.2	7.56e-03	0	41	0	33554432	67	4533
2026-01-22 13:35:41.59	271.34	5.16	-46.8	-48.6	15.5	0.00e+00	0	41	0	36700160	64	4610
2026-01-22 13:35:42.58	271.48	5.19	-47.5	-49.5	14.4	7.53e-04	0	41	0	39845888	67	4322
2026-01-22 13:35:43.57	271.61	5.22	-46.0	-47.5	16.7	0.00e+00	0	41	0	42991616	63	4302
2026-01-22 13:35:44.56	271.75	5.25	-46.1	-47.6	16.7	0.00e+00	0	41	0	46137344	63	4351
2026-01-22 13:35:45.55	271.89	5.28	-46.1	-47.6	16.6	0.00e+00	0	41	0	49283072	63	4388
2026-01-22 13:35:46.55	272.02	5.31	-46.0	-47.5	16.8	0.00e+00	0	41	0	52428800	63	4296
2026-01-22 13:35:47.54	272.16	5.34	-46.0	-47.4	16.9	0.00e+00	0	41	0	55574528	63	4286
2026-01-22 13:35:48.53	272.30	5.37	-45.6	-47.0	17.3	0.00e+00	0	41	0	58720256	63	4094
2026-01-22 13:35:49.53	272.44	5.40	-45.5	-46.9	17.4	0.00e+00	0	41	0	61865984	63	4034
2026-01-22 13:35:50.52	272.57	5.43	-45.4	-46.8	17.5	0.00e+00	0	41	0	65011712	62	4197
2026-01-22 13:35:51.52	272.71	5.46	-45.8	-47.2	17.1	0.00e+00	0	41	0	68157440	62	4413
2026-01-22 13:35:52.52	272.85	5.49	-45.7	-47.1	17.2	0.00e+00	0	41	0	71303168	62	4371
2026-01-22 13:35:53.51	272.99	5.52	-45.7	-47.1	17.2	0.00e+00	0	40	0	74448896	62	4373
2026-01-22 13:35:54.50	273.13	5.55	-45.4	-46.7	17.7	0.00e+00	0	41	0	77594624	62	4159
2026-01-22 13:35:55.50	273.27	5.58	-45.4	-46.7	17.6	0.00e+00	0	41	0	80740352	62	4153
2026-01-22 13:35:56.49	273.41	5.61	-45.3	-46.6	17.7	0.00e+00	0	41	0	83886080	62	4140
2026-01-22 13:35:57.48	273.55	5.64	-45.4	-46.7	17.6	0.00e+00	0	41	0	87031808	62	4168
2026-01-22 13:35:58.47	273.69	5.67	-45.5	-46.8	17.5	0.00e+00	0	41	0	89128960	62	4222
2026-01-22 13:35:59.47	273.83	5.70	-45.5	-46.9	17.5	0.00e+00	0	41	0	92274688	62	4250
2026-01-22 13:36:00.46	273.97	5.73	-45.4	-46.7	17.6	0.00e+00	0	41	0	95420416	62	4159
2026-01-22 13:36:01.45	274.11	5.75	-45.2	-46.5	17.8	0.00e+00	0	41	0	98566144	62	4065
2026-01-22 13:36:02.45	274.26	5.78	-45.0	-46.3	18.1	0.00e+00	0	41	0	101711872	62	3983
2026-01-22 13:36:03.44	274.40	5.81	-45.3	-46.6	17.8	0.00e+00	0	41	0	104857600	62	4102
2026-01-22 13:36:04.43	274.54	5.84	-45.4	-46.7	17.7	0.00e+00	0	41	0	108003328	62	4162
2026-01-22 13:36:05.42	274.68	5.87	-45.2	-46.5	17.9	0.00e+00	0	41	0	111149056	62	4061
2026-01-22 13:36:06.42	274.82	5.90	-45.2	-46.4	17.9	0.00e+00	0	41	0	114294784	62	4049
2026-01-22 13:36:07.41	274.97	5.93	-45.0	-46.2	18.1	0.00e+00	0	41	0	117440512	62	3940
2026-01-22 13:36:08.41	275.11	5.95	-45.3	-46.6	17.8	0.00e+00	0	41	0	120586240	62	4127
2026-01-22 13:36:09.40	275.25	5.98	-45.5	-46.9	17.6	0.00e+00	0	41	0	123731968	62	4244
2026-01-22 13:36:10.39	275.40	6.01	-45.1	-46.4	18.0	0.00e+00	0	41	0	126877696	62	4027
2026-01-22 13:36:11.39	275.54	6.04	-45.2	-46.4	18.0	0.00e+00	0	41	0	130023424	62	4048
2026-01-22 13:36:12.38	275.69	6.06	-45.3	-46.6	17.8	0.00e+00	0	41	0	133169152	62	4138
2026-01-22 13:36:13.37	275.83	6.09	-45.4	-46.7	17.7	0.00e+00	0	41	0	136314880	62	4177
2026-01-22 13:36:14.36	275.97	6.12	-45.5	-46.8	17.7	0.00e+00	0	41	0	139460608	62	4215
2026-01-22 13:36:15.36	276.12	6.15	-45.4	-46.7	17.7	0.00e+00	0	41	0	142606336	62	4182
2026-01-22 13:36:16.34	276.26	6.17	-45.5	-46.9	17.6	0.00e+00	0	41	0	145752064	62	4249
2026-01-22 13:36:17.34	276.41	6.20	-45.4	-46.7	17.8	0.00e+00	0	41	0	148897792	62	4165
2026-01-22 13:36:18.34	276.56	6.23	-45.2	-46.4	18.0	0.00e+00	0	41	0	152043520	62	4044
2026-01-22 13:36:19.32	276.70	6.25	-45.4	-46.7	17.7	0.00e+00	0	41	0	155189248	62	4171
2026-01-22 13:36:20.32	276.85	6.28	-45.5	-46.8	17.6	0.00e+00	0	41	0	158334976	62	4224
2026-01-22 13:36:21.31	276.99	6.31	-45.3	-46.6	17.8	0.00e+00	0	41	0	161480704	62	4136
2026-01-22 13:36:22.31	277.14	6.33	-45.4	-46.7	17.8	0.00e+00	0	41	0	164626432	62	4158
2026-01-22 13:36:23.30	277.29	6.36	-45.0	-46.3	18.1	0.00e+00	0	41	0	167772160	62	3965
2026-01-22 13:36:24.29	277.43	6.39	-44.5	-45.7	18.7	0.00e+00	0	41	0	170917888	61	3924
2026-01-22 13:36:25.29	277.58	6.41	-44.8	-46.1	18.3	0.00e+00	0	41	0	174063616	61	4101
2026-01-22 13:36:26.28	277.73	6.44	-45.1	-46.4	18.0	0.00e+00	0	41	0	177209344	61	4264
2026-01-22 13:36:27.27	277.88	6.46	-45.2	-46.5	18.0	0.00e+00	0	41	0	179306496	61	4307
2026-01-22 13:36:28.26	278.03	6.49	-45.2	-46.4	18.0	0.00e+00	0	41	0	182452224	61	4270
2026-01-22 13:36:29.26	278.18	6.52	-45.3	-46.6	17.9	0.00e+00	0	41	0	185597952	61	4343
2026-01-22 13:36:30.25	278.32	6.54	-45.0	-46.2	18.3	0.00e+00	0	41	0	188743680	61	4158
2026-01-22 13:36:31.25	278.47	6.57	-45.0	-46.2	18.2	0.00e+00	0	41	0	191889408	61	4182
2026-01-22 13:36:32.24	278.62	6.59	-45.1	-46.3	18.1	0.00e+00	0	41	0	195035136	61	4225
2026-01-22 13:36:33.23	278.77	6.62	-45.0	-46.2	18.3	0.00e+00	0	41	0	198180864	61	4170
2026-01-22 13:36:34.23	278.92	6.64	-45.0	-46.2	18.3	0.00e+00	0	41	0	201326592	61	4169
2026-01-22 13:36:35.22	279.07	6.66	-44.8	-46.0	18.5	0.00e+00	0	41	0	204472320	61	4071
2026-01-22 13:36:36.22	279.22	6.69	-45.0	-46.2	18.3	0.00e+00	0	41	0	207618048	61	4162
2026-01-22 13:36:37.21	279.37	6.71	-45.1	-46.4	18.1	0.00e+00	0	41	0	210763776	61	4261
2026-01-22 13:36:38.20	279.52	6.74	-45.0	-46.2	18.3	0.00e+00	0	41	0	213909504	61	4181
2026-01-22 13:36:39.19	279.67	6.76	-44.8	-46.0	18.4	0.00e+00	0	41	0	217055232	61	4096
2026-01-22 13:36:40.19	279.83	6.79	-44.9	-46.0	18.5	0.00e+00	0	41	0	220200960	61	4097
2026-01-22 13:36:41.19	279.98	6.81	-44.9	-46.1	18.5	0.00e+00	0	41	0	223346688	61	4103
2026-01-22 13:36:42.18	280.13	6.83	-44.9	-46.1	18.5	0.00e+00	0	41	0	226492416	61	4109
2026-01-22 13:36:43.17	280.28	6.86	-45.0	-46.3	18.3	0.00e+00	0	41	0	229638144	61	4194
2026-01-22 13:36:44.16	280.43	6.88	-45.1	-46.3	18.3	0.00e+00	0	41	0	232783872	61	4228
2026-01-22 13:36:45.15	280.58	6.90	-45.1	-46.3	18.2	0.00e+00	0	41	0	235929600	61	4233
2026-01-22 13:36:46.14	280.74	6.93	-45.0	-46.2	18.3	0.00e+00	0	41	0	239075328	61	4182
2026-01-22 13:36:47.14	280.89	6.95	-44.8	-46.0	18.6	0.00e+00	0	41	0	242221056	61	4057
2026-01-22 13:36:48.13	281.04	6.97	-44.7	-45.8	18.7	0.00e+00	0	41	0	245366784	61	3988
2026-01-22 13:36:49.13	281.20	6.99	-44.6	-45.7	18.8	0.00e+00	0	41	0	248512512	61	3948
2026-01-22 13:36:50.12	281.35	7.02	-44.6	-45.8	18.8	0.00e+00	0	41	0	251658240	61	3963
2026-01-22 13:36:51.11	281.50	7.04	-44.6	-45.7	18.8	0.00e+00	0	41	0	254803968	61	3954
2026-01-22 13:36:52.11	281.66	7.06	-44.6	-45.7	18.9	0.00e+00	0	41	0	256901120	61	3935
2026-01-22 13:36:53.10	281.81	7.08	-44.7	-45.8	18.8	0.00e+00	0	41	0	260046848	61	3978
2026-01-22 13:36:54.09	281.97	7.10	-44.7	-45.8	18.7	0.00e+00	0	41	0	263192576	61	3997
2026-01-22 13:36:55.09	282.12	7.13	-44.8	-45.9	18.7	0.00e+00	0	41	0	266338304	61	4032
2026-01-22 13:36:56.08	282.28	7.15	-44.8	-46.0	18.6	0.00e+00	0	41	0	269484032	61	4068
2026-01-22 13:36:57.07	282.43	7.17	-44.8	-45.9	18.7	0.00e+00	0	41	0	272629760	61	4044
2026-01-22 13:36:58.07	282.59	7.19	-44.7	-45.8	18.8	0.00e+00	0	41	0	275775488	61	3984
2026-01-22 13:36:59.06	282.74	7.21	-44.8	-45.9	18.7	0.00e+00	0	41	0	278921216	61	4040
2026-01-22 13:37:00.05	282.90	7.23	-44.5	-45.6	19.0	0.00e+00	0	41	0	282066944	61	3909
2026-01-22 13:37:01.04	283.05	7.25	-44.4	-45.5	19.1	0.00e+00	0	41	0	285212672	60	4094
2026-01-22 13:37:02.04	283.21	7.27	-44.5	-45.6	19.0	0.00e+00	0	41	0	288358400	60	4133
2026-01-22 13:37:03.03	283.36	7.29	-44.7	-45.8	18.9	0.00e+00	0	41	0	291504128	60	4240
2026-01-22 13:37:04.03	283.52	7.31	-44.8	-46.0	18.7	0.00e+00	0	41	0	294649856	60	4314
2026-01-22 13:37:05.03	283.68	7.33	-45.2	-46.4	18.4	0.00e+00	0	41	0	297795584	60	4503
2026-01-22 13:37:06.02	283.84	7.35	-45.4	-46.6	18.1	0.00e+00	0	41	0	300941312	61	4386
2026-01-22 13:37:07.01	283.99	7.37	-44.9	-46.1	18.6	0.00e+00	0	41	0	304087040	61	4117
2026-01-22 13:37:08.01	284.15	7.39	-45.0	-46.1	18.6	0.00e+00	0	41	0	307232768	61	4135
2026-01-22 13:37:09.02	284.31	7.41	-45.0	-46.1	18.6	0.00e+00	0	41	0	310378496	61	4138
2026-01-22 13:37:10.01	284.47	7.43	-44.8	-46.0	18.7	0.00e+00	0	41	0	313524224	61	4070
2026-01-22 13:37:11.01	284.63	7.45	-44.7	-45.9	18.9	0.00e+00	0	41	0	316669952	61	4016
2026-01-22 13:37:12.01	284.79	7.47	-44.8	-46.0	18.8	0.00e+00	0	41	0	319815680	61	4071
2026-01-22 13:37:13.00	284.94	7.49	-44.8	-46.0	18.8	0.00e+00	0	41	0	322961408	61	4067
2026-01-22 13:37:14.00	285.10	7.51	-44.7	-45.8	19.0	0.00e+00	0	41	0	326107136	61	3991
2026-01-22 13:37:15.00	285.26	7.53	-44.9	-46.0	18.8	0.00e+00	0	41	0	329252864	61	4088
2026-01-22 13:37:15.99	285.42	7.54	-45.0	-46.1	18.7	0.00e+00	0	41	0	332398592	61	4133
2026-01-22 13:37:16.99	285.58	7.56	-44.9	-46.0	18.8	0.00e+00	0	41	0	335544320	61	4073
2026-01-22 13:37:17.99	285.74	7.58	-44.9	-46.0	18.8	0.00e+00	0	41	0	338690048	61	4089
2026-01-22 13:37:18.98	285.90	7.60	-44.8	-45.9	18.8	0.00e+00	0	41	0	341835776	61	4049
2026-01-22 13:37:19.98	286.06	7.62	-44.9	-46.1	18.7	0.00e+00	0	41	0	343932928	61	4105
2026-01-22 13:37:20.97	286.22	7.63	-44.9	-46.1	18.8	0.00e+00	0	41	0	347078656	61	4110
2026-01-22 13:37:21.96	286.38	7.65	-44.9	-46.1	18.7	0.00e+00	0	41	0	350224384	61	4124
2026-01-22 13:37:22.96	286.54	7.67	-44.9	-46.1	18.8	0.00e+00	0	41	0	353370112	61	4112
2026-01-22 13:37:23.96	286.70	7.68	-44.9	-46.0	18.8	0.00e+00	0	41	0	356515840	61	4078
2026-01-22 13:37:24.96	286.87	7.70	-44.6	-45.7	19.1	0.00e+00	0	41	0	359661568	61	3938
2026-01-22 13:37:25.95	287.03	7.72	-44.6	-45.7	19.1	0.00e+00	0	41	0	362807296	61	3945
2026-01-22 13:37:26.95	287.19	7.73	-44.7	-45.8	19.0	0.00e+00	0	41	0	365953024	61	3991
2026-01-22 13:37:27.94	287.35	7.75	-44.7	-45.8	19.1	0.00e+00	0	41	0	369098752	61	3981
2026-01-22 13:37:28.93	287.51	7.76	-45.0	-46.1	18.8	0.00e+00	0	41	0	372244480	61	4124
2026-01-22 13:37:29.93	287.67	7.78	-45.2	-46.3	18.6	0.00e+00	0	41	0	375390208	61	4234
2026-01-22 13:37:30.92	287.83	7.80	-44.8	-45.9	18.9	0.00e+00	0	41	0	378535936	61	4043
2026-01-22 13:37:31.92	288.00	7.81	-44.9	-46.1	18.8	0.00e+00	0	41	0	381681664	61	4112
2026-01-22 13:37:32.92	288.16	7.83	-45.1	-46.2	18.7	0.00e+00	0	41	0	384827392	61	4188
2026-01-22 13:37:33.91	288.32	7.84	-45.1	-46.3	18.6	0.00e+00	0	41	0	387973120	61	4207
2026-01-22 13:37:34.91	288.48	7.86	-45.0	-46.2	18.7	0.00e+00	0	41	0	391118848	61	4172
2026-01-22 13:37:35.91	288.65	7.87	-45.0	-46.1	18.8	0.00e+00	0	41	0	394264576	61	4133
2026-01-22 13:37:36.90	288.81	7.88	-45.1	-46.3	18.6	0.00e+00	0	41	0	397410304	61	4215
2026-01-22 13:37:37.90	288.97	7.90	-44.9	-46.0	18.9	0.00e+00	0	41	0	400556032	61	4070
2026-01-22 13:37:38.89	289.14	7.91	-45.0	-46.1	18.8	0.00e+00	0	41	0	403701760	61	4129
2026-01-22 13:37:39.88	289.30	7.93	-45.0	-46.2	18.8	0.00e+00	0	41	0	406847488	61	4151
2026-01-22 13:37:40.88	289.46	7.94	-45.0	-46.1	18.8	0.00e+00	0	41	0	409993216	61	4130
2026-01-22 13:37:41.87	289.62	7.95	-44.9	-46.0	19.0	0.00e+00	0	41	0	413138944	61	4061
2026-01-22 13:37:42.87	289.79	7.97	-45.0	-46.2	18.8	0.00e+00	0	41	0	416284672	61	4158
2026-01-22 13:37:43.87	289.95	7.98	-44.8	-45.9	19.0	0.00e+00	0	41	0	419430400	61	4031
2026-01-22 13:37:44.87	290.12	7.99	-45.0	-46.2	18.8	0.00e+00	0	41	0	422576128	61	4150
2026-01-22 13:37:45.87	290.28	8.01	-45.1	-46.2	18.7	0.00e+00	0	41	0	425721856	61	4182
2026-01-22 13:37:46.86	290.45	8.02	-44.7	-45.8	19.1	0.00e+00	0	41	0	428867584	61	3988
2026-01-22 13:37:47.85	290.61	8.03	-44.9	-46.0	18.9	0.00e+00	0	41	0	430964736	61	4069
2026-01-22 13:37:48.85	290.78	8.04	-44.8	-45.9	19.0	0.00e+00	0	41	0	434110464	61	4028
2026-01-22 13:37:49.85	290.94	8.05	-44.9	-46.1	18.9	0.00e+00	0	41	0	437256192	61	4106
2026-01-22 13:37:50.85	291.11	8.07	-44.9	-46.0	18.9	0.00e+00	0	41	0	440401920	61	4083
2026-01-22 13:37:51.85	291.27	8.08	-44.9	-46.0	19.0	0.00e+00	0	41	0	443547648	61	4083
2026-01-22 13:37:52.85	291.44	8.09	-45.0	-46.1	18.9	0.00e+00	0	41	0	446693376	61	4133
2026-01-22 13:37:53.84	291.60	8.10	-45.0	-46.1	18.9	0.00e+00	0	41	0	449839104	61	4128
2026-01-22 13:37:54.85	291.77	8.11	-44.9	-46.0	19.0	0.00e+00	0	41	0	452984832	61	4070
2026-01-22 13:37:55.84	291.93	8.12	-44.9	-46.0	18.9	0.00e+00	0	41	0	456130560	61	4093
2026-01-22 13:37:56.84	292.10	8.13	-44.8	-45.9	19.0	0.00e+00	0	41	0	459276288	61	4014
2026-01-22 13:37:57.84	292.27	8.14	-44.9	-46.1	18.9	0.00e+00	0	41	0	462422016	61	4103
2026-01-22 13:37:58.84	292.43	8.15	-45.1	-46.3	18.7	0.00e+00	0	41	0	465567744	61	4206
2026-01-22 13:37:59.84	292.60	8.16	-44.9	-46.1	18.9	0.00e+00	0	41	0	468713472	61	4105
2026-01-22 13:38:00.83	292.77	8.17	-44.9	-46.1	18.9	0.00e+00	0	41	0	471859200	61	4113
2026-01-22 13:38:01.83	292.93	8.18	-44.7	-45.8	19.1	0.00e+00	0	41	0	475004928	61	3990
2026-01-22 13:38:02.83	293.10	8.19	-44.8	-45.9	19.0	0.00e+00	0	41	0	478150656	61	4044
2026-01-22 13:38:03.82	293.26	8.20	-44.8	-45.9	19.1	0.00e+00	0	41	0	481296384	61	4015
2026-01-22 13:38:04.82	293.43	8.21	-44.8	-46.0	19.0	0.00e+00	0	41	0	484442112	61	4053
2026-01-22 13:38:05.81	293.60	8.22	-44.8	-45.9	19.0	0.00e+00	0	41	0	487587840	61	4050
2026-01-22 13:38:06.81	293.76	8.22	-44.7	-45.8	19.1	0.00e+00	0	41	0	490733568	61	3994
2026-01-22 13:38:07.80	293.93	8.23	-44.8	-45.9	19.0	0.00e+00	0	41	0	493879296	61	4047
2026-01-22 13:38:08.80	294.10	8.24	-44.6	-45.7	19.2	0.00e+00	0	41	0	497025024	61	3936
2026-01-22 13:38:09.79	294.26	8.25	-44.7	-45.8	19.1	0.00e+00	0	41	0	500170752	61	3983
2026-01-22 13:38:10.79	294.43	8.26	-44.7	-45.8	19.1	0.00e+00	0	41	0	503316480	61	4004
2026-01-22 13:38:11.79	294.60	8.26	-44.7	-45.8	19.1	0.00e+00	0	41	0	506462208	61	3989
2026-01-22 13:38:12.79	294.77	8.27	-44.6	-45.8	19.2	0.00e+00	0	41	0	509607936	61	3962
2026-01-22 13:38:13.78	294.93	8.28	-44.7	-45.8	19.1	0.00e+00	0	41	0	512753664	61	3998
2026-01-22 13:38:14.78	295.10	8.29	-44.9	-46.0	18.9	0.00e+00	0	41	0	515899392	61	4089
2026-01-22 13:38:15.78	295.27	8.29	-44.7	-45.9	19.0	0.00e+00	0	41	0	519045120	61	4009
2026-01-22 13:38:16.78	295.44	8.30	-44.9	-46.0	18.9	0.00e+00	0	41	0	522190848	61	4085
2026-01-22 13:38:17.77	295.60	8.30	-44.8	-45.9	19.0	0.00e+00	0	41	0	525336576	61	4040
2026-01-22 13:38:18.77	295.77	8.31	-44.9	-46.0	18.9	0.00e+00	0	41	0	528482304	61	4077
2026-01-22 13:38:19.77	295.94	8.32	-44.5	-45.6	19.2	0.00e+00	0	41	0	531628032	61	3895
2026-01-22 13:38:20.77	296.11	8.32	-44.6	-45.7	19.2	0.00e+00	0	41	0	534773760	61	3947
2026-01-22 13:38:21.76	296.27	8.33	-44.7	-45.8	19.0	0.00e+00	0	41	0	537919488	61	3995
2026-01-22 13:38:22.76	296.44	8.33	-44.7	-45.8	19.1	0.00e+00	0	41	0	541065216	61	3966
2026-01-22 13:38:23.76	296.61	8.34	-44.7	-45.8	19.0	0.00e+00	0	41	0	543162368	61	3992
2026-01-22 13:38:24.76	296.78	8.34	-44.6	-45.7	19.1	0.00e+00	0	41	0	546308096	61	3954
2026-01-22 13:38:25.76	296.95	8.35	-44.7	-45.8	19.0	0.00e+00	0	41	0	549453824	61	3999
2026-01-22 13:38:26.76	297.12	8.35	-44.8	-45.9	18.9	0.00e+00	0	41	0	552599552	61	4042
2026-01-22 13:38:27.75	297.28	8.35	-44.7	-45.8	19.0	0.00e+00	0	41	0	555745280	61	3987
2026-01-22 13:38:28.75	297.45	8.36	-44.7	-45.8	19.1	0.00e+00	0	41	0	558891008	61	3986
2026-01-22 13:38:29.75	297.62	8.36	-44.6	-45.7	19.2	0.00e+00	0	41	0	562036736	61	3916
2026-01-22 13:38:30.74	297.79	8.37	-44.6	-45.7	19.2	0.00e+00	0	41	0	565182464	61	3914
2026-01-22 13:38:31.74	297.96	8.37	-44.5	-45.6	19.2	0.00e+00	0	41	0	568328192	61	3896
2026-01-22 13:38:32.73	298.13	8.37	-44.5	-45.6	19.2	0.00e+00	0	41	0	571473920	60	4132
2026-01-22 13:38:33.73	298.29	8.37	-44.6	-45.7	19.0	0.00e+00	0	41	0	574619648	60	4186
2026-01-22 13:38:34.73	298.46	8.38	-44.6	-45.8	19.0	0.00e+00	0	41	0	577765376	60	4195
2026-01-22 13:38:35.73	298.63	8.38	-44.8	-45.9	18.9	0.00e+00	0	41	0	580911104	60	4256
2026-01-22 13:38:36.73	298.80	8.38	-44.5	-45.6	19.2	0.00e+00	0	41	0	584056832	60	4136
2026-01-22 13:38:37.73	298.97	8.38	-44.7	-45.8	19.0	0.00e+00	0	41	0	587202560	60	4217
2026-01-22 13:38:38.73	299.14	8.39	-44.7	-45.8	19.0	0.00e+00	0	41	0	590348288	60	4233
2026-01-22 13:38:39.73	299.31	8.39	-44.8	-46.0	18.9	0.00e+00	0	41	0	593494016	60	4307
2026-01-22 13:38:40.72	299.48	8.39	-44.6	-45.7	19.1	0.00e+00	0	41	0	596639744	60	4168
2026-01-22 13:38:41.72	299.65	8.39	-44.6	-45.7	19.1	0.00e+00	0	41	0	599785472	60	4180
2026-01-22 13:38:42.71	299.81	8.39	-44.6	-45.7	19.1	0.00e+00	0	41	0	602931200	60	4192
2026-01-22 13:38:43.70	299.98	8.39	-44.5	-45.6	19.2	0.00e+00	0	41	0	606076928	60	4123
2026-01-22 13:38:44.70	300.15	8.39	-44.6	-45.7	19.1	0.00e+00	0	41	0	609222656	60	4165
2026-01-22 13:38:45.70	300.32	8.39	-44.6	-45.8	19.0	0.00e+00	0	41	0	612368384	60	4204
2026-01-22 13:38:46.69	300.49	8.39	-44.7	-45.9	18.9	0.00e+00	0	41	0	615514112	60	4247
2026-01-22 13:38:47.69	300.65	8.39	-44.8	-45.9	18.9	0.00e+00	0	41	0	618659840	60	4270
2026-01-22 13:38:48.68	300.82	8.39	-44.8	-45.9	18.9	0.00e+00	0	41	0	621805568	60	4283
2026-01-22 13:38:49.68	300.99	8.39	-44.8	-45.9	18.9	0.00e+00	0	41	0	624951296	60	4273
2026-01-22 13:38:50.67	301.16	8.39	-44.6	-45.7	19.0	0.00e+00	0	41	0	628097024	60	4190
2026-01-22 13:38:51.67	301.33	8.39	-44.5	-45.7	19.1	0.00e+00	0	41	0	631242752	60	4149
2026-01-22 13:38:52.67	301.50	8.39	-44.5	-45.5	19.2	0.00e+00	0	41	0	634388480	60	4096
2026-01-22 13:38:53.67	301.67	8.39	-44.5	-45.6	19.2	0.00e+00	0	41	0	637534208	60	4125
2026-01-22 13:38:54.66	301.83	8.38	-44.5	-45.6	19.1	0.00e+00	0	41	0	640679936	60	4110
2026-01-22 13:38:55.66	302.00	8.38	-44.5	-45.6	19.1	0.00e+00	0	41	0	643825664	60	4108
2026-01-22 13:38:56.65	302.17	8.38	-44.6	-45.7	19.0	0.00e+00	0	41	0	646971392	60	4173
2026-01-22 13:38:57.65	302.34	8.38	-44.5	-45.6	19.1	0.00e+00	0	41	0	650117120	60	4144
2026-01-22 13:38:58.64	302.51	8.38	-44.6	-45.7	19.1	0.00e+00	0	41	0	652214272	60	4156
2026-01-22 13:38:59.64	302.67	8.37	-44.5	-45.5	19.2	0.00e+00	0	41	0	655360000	60	4098
2026-01-22 13:39:00.64	302.84	8.37	-44.5	-45.6	19.2	0.00e+00	0	41	0	658505728	60	4130
2026-01-22 13:39:01.63	303.01	8.37	-44.5	-45.6	19.2	0.00e+00	0	41	0	661651456	60	4106
2026-01-22 13:39:02.63	303.18	8.36	-44.5	-45.6	19.1	0.00e+00	0	41	0	664797184	60	4128
2026-01-22 13:39:03.64	303.35	8.36	-44.4	-45.5	19.3	0.00e+00	0	41	0	667942912	60	4062
2026-01-22 13:39:04.64	303.52	8.36	-44.4	-45.4	19.3	0.00e+00	0	41	0	671088640	60	4035
2026-01-22 13:39:05.65	303.69	8.35	-44.3	-45.4	19.3	0.00e+00	0	41	0	674234368	60	4030
2026-01-22 13:39:06.66	303.86	8.35	-44.3	-45.4	19.3	0.00e+00	0	41	0	677380096	60	4031
2026-01-22 13:39:07.67	304.03	8.34	-44.2	-45.3	19.5	0.00e+00	0	41	0	680525824	60	3960
2026-01-22 13:39:08.68	304.20	8.34	-44.2	-45.3	19.5	0.00e+00	0	41	0	684720128	60	3977
2026-01-22 13:39:09.69	304.37	8.33	-44.3	-45.3	19.5	0.00e+00	0	41	0	687865856	60	3987
2026-01-22 13:39:10.70	304.54	8.33	-44.2	-45.3	19.5	0.00e+00	0	41	0	691011584	60	3963
2026-01-22 13:39:11.70	304.71	8.32	-44.3	-45.4	19.4	0.00e+00	0	41	0	694157312	60	4021
2026-01-22 13:39:12.71	304.88	8.32	-44.3	-45.4	19.4	0.00e+00	0	41	0	697303040	60	4020
2026-01-22 13:39:13.72	305.05	8.31	-44.2	-45.3	19.4	0.00e+00	0	41	0	699400192	60	3979
2026-01-22 13:39:14.72	305.22	8.31	-44.2	-45.3	19.4	0.00e+00	0	41	0	702545920	60	3983
2026-01-22 13:39:15.73	305.39	8.30	-44.2	-45.3	19.4	0.00e+00	0	41	0	705691648	60	3977
2026-01-22 13:39:16.74	305.56	8.29	-44.3	-45.4	19.4	0.00e+00	0	41	0	708837376	60	4005
2026-01-22 13:39:17.74	305.72	8.29	-44.3	-45.4	19.3	0.00e+00	0	41	0	711983104	60	4016
2026-01-22 13:39:18.75	305.89	8.28	-44.4	-45.5	19.2	0.00e+00	0	41	0	715128832	60	4052
2026-01-22 13:39:19.76	306.06	8.27	-44.3	-45.4	19.4	0.00e+00	0	41	0	718274560	60	4015
2026-01-22 13:39:20.75	306.23	8.27	-44.4	-45.5	19.2	0.00e+00	0	41	0	721420288	60	4071
2026-01-22 13:39:21.74	306.39	8.26	-44.3	-45.3	19.4	0.00e+00	0	41	0	724566016	60	3999
2026-01-22 13:39:22.74	306.56	8.25	-44.1	-45.2	19.5	0.00e+00	0	41	0	727711744	60	3930
2026-01-22 13:39:23.73	306.73	8.24	-44.3	-45.4	19.3	0.00e+00	0	41	0	730857472	60	4029
2026-01-22 13:39:24.72	306.89	8.24	-44.3	-45.4	19.3	0.00e+00	0	41	0	734003200	60	4030
2026-01-22 13:39:25.72	307.06	8.23	-44.5	-45.6	19.1	0.00e+00	0	41	0	737148928	60	4126
2026-01-22 13:39:26.71	307.23	8.22	-44.4	-45.5	19.2	0.00e+00	0	41	0	740294656	60	4083
2026-01-22 13:39:27.71	307.39	8.21	-44.5	-45.6	19.1	0.00e+00	0	41	0	743440384	60	4144
2026-01-22 13:39:28.71	307.56	8.20	-44.6	-45.7	19.0	0.00e+00	0	41	0	746586112	60	4179
2026-01-22 13:39:29.71	307.73	8.19	-44.5	-45.6	19.1	0.00e+00	0	41	0	749731840	60	4141
2026-01-22 13:39:30.70	307.89	8.18	-44.4	-45.5	19.2	0.00e+00	0	41	0	752877568	60	4063
2026-01-22 13:39:31.70	308.06	8.18	-44.4	-45.5	19.2	0.00e+00	0	41	0	756023296	60	4079
2026-01-22 13:39:32.70	308.23	8.17	-44.1	-45.1	19.6	0.00e+00	0	41	0	759169024	60	3888
2026-01-22 13:39:33.69	308.39	8.16	-44.5	-45.6	19.1	0.00e+00	0	41	0	762314752	60	4113
2026-01-22 13:39:34.69	308.56	8.15	-44.5	-45.6	19.1	0.00e+00	0	41	0	765460480	60	4145
2026-01-22 13:39:35.69	308.72	8.14	-44.5	-45.6	19.2	0.00e+00	0	41	0	768606208	60	4099
2026-01-22 13:39:36.69	308.89	8.13	-44.1	-45.2	19.5	0.00e+00	0	41	0	771751936	60	3938
2026-01-22 13:39:37.69	309.05	8.12	-44.2	-45.2	19.4	0.00e+00	0	41	0	774897664	60	3946
2026-01-22 13:39:38.68	309.22	8.10	-44.1	-45.1	19.5	0.00e+00	0	41	0	778043392	60	3907
2026-01-22 13:39:39.68	309.38	8.09	-44.3	-45.3	19.6	0.00e+00	0	41	0	781189120	59	4226
2026-01-22 13:39:40.68	309.55	8.08	-44.6	-45.7	19.2	0.00e+00	0	41	0	784334848	59	4423
2026-01-22 13:39:41.68	309.72	8.07	-44.6	-45.7	19.2	0.00e+00	0	41	0	787480576	59	4438
2026-01-22 13:39:42.67	309.88	8.06	-44.5	-45.6	19.0	0.00e+00	0	41	0	790626304	60	4118
2026-01-22 13:39:43.67	310.04	8.05	-44.5	-45.6	19.0	0.00e+00	0	41	0	793772032	60	4126
2026-01-22 13:39:44.66	310.21	8.04	-44.5	-45.6	18.9	0.00e+00	0	41	0	796917760	60	4140
2026-01-22 13:39:45.66	310.37	8.02	-44.6	-45.7	18.9	0.00e+00	0	41	0	800063488	60	4154
2026-01-22 13:39:46.66	310.54	8.01	-44.5	-45.6	19.0	0.00e+00	0	41	0	803209216	60	4119
2026-01-22 13:39:47.65	310.70	8.00	-44.3	-45.3	19.3	0.00e+00	0	41	0	806354944	60	4003
2026-01-22 13:39:48.65	310.87	7.99	-44.3	-45.4	19.2	0.00e+00	0	41	0	809500672	60	4043
2026-01-22 13:39:49.65	311.03	7.97	-44.4	-45.5	19.1	0.00e+00	0	41	0	811597824	60	4092
2026-01-22 13:39:50.64	311.19	7.96	-44.6	-45.7	19.0	0.00e+00	0	41	0	814743552	60	4158
2026-01-22 13:39:51.64	311.36	7.95	-44.5	-45.6	19.1	0.00e+00	0	41	0	817889280	60	4099
2026-01-22 13:39:52.63	311.52	7.93	-44.4	-45.5	19.2	0.00e+00	0	41	0	821035008	60	4072
2026-01-22 13:39:53.64	311.68	7.92	-44.5	-45.6	19.0	0.00e+00	0	41	0	824180736	60	4144
2026-01-22 13:39:54.63	311.85	7.91	-44.5	-45.6	19.0	0.00e+00	0	41	0	827326464	60	4139
2026-01-22 13:39:55.63	312.01	7.89	-44.4	-45.5	19.1	0.00e+00	0	41	0	830472192	60	4086
2026-01-22 13:39:56.62	312.17	7.88	-44.5	-45.6	19.0	0.00e+00	0	41	0	833617920	60	4105
2026-01-22 13:39:57.62	312.34	7.86	-44.5	-45.7	18.9	0.00e+00	0	41	0	836763648	60	4149
2026-01-22 13:39:58.62	312.50	7.85	-44.5	-45.6	19.0	0.00e+00	0	41	0	839909376	60	4138
2026-01-22 13:39:59.62	312.66	7.83	-44.6	-45.7	18.9	0.00e+00	0	41	0	843055104	60	4173
2026-01-22 13:40:00.61	312.82	7.82	-44.6	-45.7	18.9	0.00e+00	0	41	0	846200832	60	4189
2026-01-22 13:40:01.61	312.98	7.80	-44.6	-45.7	18.9	0.00e+00	0	41	0	849346560	60	4163
2026-01-22 13:40:02.61	313.15	7.79	-44.7	-45.8	18.8	0.00e+00	0	41	0	852492288	60	4225
2026-01-22 13:40:03.60	313.31	7.77	-44.8	-46.0	18.6	0.00e+00	0	41	0	855638016	60	4297
2026-01-22 13:40:04.60	313.47	7.76	-44.8	-46.0	18.6	0.00e+00	0	41	0	858783744	60	4309
2026-01-22 13:40:05.60	313.63	7.74	-44.6	-45.7	18.9	0.00e+00	0	41	0	861929472	60	4184
2026-01-22 13:40:06.60	313.79	7.72	-44.6	-45.8	18.8	0.00e+00	0	41	0	865075200	60	4196
2026-01-22 13:40:07.60	313.96	7.71	-44.7	-45.9	18.7	0.00e+00	0	41	0	868220928	60	4244
2026-01-22 13:40:08.60	314.12	7.69	-44.7	-45.9	18.7	0.00e+00	0	41	0	871366656	60	4245
2026-01-22 13:40:09.59	314.28	7.67	-44.8	-46.0	18.6	0.00e+00	0	41	0	874512384	60	4301
2026-01-22 13:40:10.59	314.44	7.66	-44.7	-45.8	18.7	0.00e+00	0	41	0	877658112	60	4226
2026-01-22 13:40:11.59	314.60	7.64	-44.7	-45.8	18.7	0.00e+00	0	41	0	880803840	60	4231
2026-01-22 13:40:12.59	314.76	7.62	-44.8	-45.9	18.6	0.00e+00	0	41	0	883949568	60	4279
2026-01-22 13:40:13.59	314.92	7.61	-44.7	-45.9	18.7	0.00e+00	0	41	0	887095296	60	4252
2026-01-22 13:40:14.59	315.08	7.59	-44.5	-45.7	18.8	0.00e+00	0	41	0	890241024	60	4165
2026-01-22 13:40:15.59	315.24	7.57	-44.7	-45.9	18.6	0.00e+00	0	41	0	893386752	60	4272
2026-01-22 13:40:16.59	315.40	7.55	-44.9	-46.1	18.4	0.00e+00	0	41	0	896532480	60	4365
2026-01-22 13:40:17.60	315.56	7.53	-45.1	-46.3	18.2	0.00e+00	0	41	0	899678208	60	4453
2026-01-22 13:40:18.60	315.72	7.52	-44.9	-46.1	18.3	0.00e+00	0	41	0	902823936	60	4391
2026-01-22 13:40:19.60	315.88	7.50	-44.7	-45.9	18.5	0.00e+00	0	41	0	905969664	60	4248
2026-01-22 13:40:20.60	316.04	7.48	-44.7	-45.9	18.5	0.00e+00	0	41	0	909115392	60	4257
2026-01-22 13:40:21.59	316.20	7.46	-44.7	-45.9	18.5	0.00e+00	0	41	0	912261120	60	4269
2026-01-22 13:40:22.60	316.36	7.44	-44.6	-45.8	18.6	0.00e+00	0	41	0	915406848	60	4203
2026-01-22 13:40:23.60	316.51	7.42	-44.5	-45.6	18.7	0.00e+00	0	41	0	918552576	60	4131
2026-01-22 13:40:24.59	316.67	7.40	-44.7	-45.8	18.6	0.00e+00	0	41	0	921698304	60	4242
2026-01-22 13:40:25.59	316.83	7.38	-44.5	-45.7	18.8	0.00e+00	0	41	0	924844032	60	4150
2026-01-22 13:40:26.59	316.99	7.36	-44.6	-45.7	18.7	0.00e+00	0	41	0	927989760	60	4169
2026-01-22 13:40:27.59	317.14	7.34	-44.7	-45.8	18.6	0.00e+00	0	41	0	931135488	60	4241
2026-01-22 13:40:28.58	317.30	7.32	-44.7	-45.9	18.5	0.00e+00	0	41	0	934281216	60	4263
2026-01-22 13:40:29.58	317.46	7.30	-44.4	-45.5	18.9	0.00e+00	0	41	0	937426944	60	4089
2026-01-22 13:40:30.58	317.62	7.28	-44.5	-45.6	18.8	0.00e+00	0	41	0	940572672	60	4144
2026-01-22 13:40:31.58	317.77	7.26	-44.3	-45.5	18.9	0.00e+00	0	41	0	943718400	60	4055
2026-01-22 13:40:32.58	317.93	7.24	-44.6	-45.8	18.5	0.00e+00	0	41	0	945815552	60	4222
2026-01-22 13:40:33.58	318.09	7.22	-44.5	-45.6	18.6	0.00e+00	0	41	0	950009856	60	4125
2026-01-22 13:40:34.58	318.24	7.20	-44.5	-45.7	18.4	0.00e+00	0	41	0	953155584	60	4159
2026-01-22 13:40:35.58	318.40	7.18	-44.6	-45.8	18.4	0.00e+00	0	41	0	956301312	60	4204
2026-01-22 13:40:36.58	318.55	7.16	-44.6	-45.7	18.3	0.00e+00	0	41	0	959447040	60	4178
2026-01-22 13:40:37.58	318.71	7.14	-44.7	-45.8	18.2	0.00e+00	0	41	0	961544192	60	4233
2026-01-22 13:40:38.57	318.86	7.12	-44.5	-45.6	18.7	0.00e+00	0	41	0	964689920	60	4137
2026-01-22 13:40:39.57	319.02	7.09	-44.4	-45.5	18.8	0.00e+00	0	41	0	967835648	60	4097
2026-01-22 13:40:40.57	319.17	7.07	-44.4	-45.6	18.8	0.00e+00	0	41	0	970981376	60	4140
2026-01-22 13:40:41.57	319.33	7.05	-44.5	-45.7	18.7	0.00e+00	0	41	0	974127104	60	4157
2026-01-22 13:40:42.57	319.48	7.03	-44.5	-45.7	18.8	0.00e+00	0	41	0	977272832	60	4148
2026-01-22 13:40:43.57	319.64	7.01	-44.7	-45.8	18.6	0.00e+00	0	41	0	980418560	60	4236
2026-01-22 13:40:44.57	319.79	6.98	-44.5	-45.7	18.7	0.00e+00	0	41	0	983564288	60	4158
2026-01-22 13:40:45.57	319.94	6.96	-44.6	-45.7	18.7	0.00e+00	0	41	0	986710016	60	4191
2026-01-22 13:40:46.56	320.10	6.94	-44.6	-45.7	18.7	0.00e+00	0	41	0	989855744	60	4185
2026-01-22 13:40:47.56	320.25	6.91	-44.4	-45.6	18.8	0.00e+00	0	41	0	993001472	60	4109
2026-01-22 13:40:48.55	320.40	6.89	-44.4	-45.6	18.9	0.00e+00	0	41	0	996147200	60	4103
2026-01-22 13:40:49.55	320.55	6.87	-44.6	-45.7	18.7	0.00e+00	0	41	0	999292928	60	4179
2026-01-22 13:40:50.55	320.71	6.84	-44.5	-45.6	18.8	0.00e+00	0	41	0	1002438656	60	4125
2026-01-22 13:40:51.54	320.86	6.82	-44.5	-45.7	18.8	0.00e+00	0	41	0	1005584384	60	4162
2026-01-22 13:40:52.55	321.01	6.80	-44.4	-45.5	18.9	0.00e+00	0	41	0	1008730112	60	4065
2026-01-22 13:40:53.54	321.16	6.77	-44.4	-45.5	18.9	0.00e+00	0	41	0	1011875840	60	4082
2026-01-22 13:40:54.53	321.31	6.75	-44.3	-45.4	19.0	0.00e+00	0	41	0	1015021568	60	4040
2026-01-22 13:40:55.53	321.46	6.73	-44.4	-45.5	18.9	0.00e+00	0	41	0	1018167296	60	4078
2026-01-22 13:40:56.53	321.61	6.70	-44.5	-45.6	18.8	0.00e+00	0	41	0	1021313024	60	4135
2026-01-22 13:40:57.52	321.76	6.68	-44.5	-45.6	18.8	0.00e+00	0	41	0	1024458752	60	4124
2026-01-22 13:40:58.52	321.91	6.65	-44.3	-45.4	18.9	0.00e+00	0	41	0	1027604480	60	4050
2026-01-22 13:40:59.51	322.06	6.63	-44.5	-45.7	18.7	0.00e+00	0	41	0	1030750208	60	4156
2026-01-22 13:41:00.51	322.21	6.60	-44.6	-45.7	18.6	0.00e+00	0	41	0	1033895936	60	4193
2026-01-22 13:41:01.51	322.36	6.58	-44.6	-45.7	18.6	0.00e+00	0	41	0	1037041664	60	4182
2026-01-22 13:41:02.51	322.51	6.55	-44.3	-45.5	18.9	0.00e+00	0	41	0	1040187392	60	4056
2026-01-22 13:41:03.50	322.66	6.53	-44.5	-45.7	18.7	0.00e+00	0	41	0	1043333120	60	4158
2026-01-22 13:41:04.49	322.81	6.50	-44.6	-45.7	18.6	0.00e+00	0	41	0	1046478848	60	4182
2026-01-22 13:41:05.49	322.96	6.48	-44.6	-45.7	18.6	0.00e+00	0	41	0	1049624576	60	4184
2026-01-22 13:41:06.49	323.10	6.45	-44.6	-45.8	18.5	0.00e+00	0	41	0	1052770304	60	4232
2026-01-22 13:41:07.48	323.25	6.43	-44.6	-45.8	18.5	0.00e+00	0	41	0	1055916032	60	4214
2026-01-22 13:41:08.48	323.40	6.40	-44.7	-45.9	18.4	0.00e+00	0	41	0	1059061760	60	4291
2026-01-22 13:41:09.48	323.55	6.37	-44.8	-46.0	18.4	0.00e+00	0	41	0	1061158912	60	4318
2026-01-22 13:41:10.47	323.69	6.35	-44.7	-45.9	18.4	0.00e+00	0	41	0	1064304640	60	4287
2026-01-22 13:41:11.47	323.84	6.32	-44.9	-46.1	18.2	0.00e+00	0	41	0	1067450368	60	4369
2026-01-22 13:41:12.46	323.99	6.29	-45.0	-46.2	18.1	0.00e+00	0	41	0	1070596096	60	4412
2026-01-22 13:41:13.46	324.13	6.27	-44.7	-45.9	18.4	0.00e+00	0	41	0	1073741824	60	4246
2026-01-22 13:41:14.46	324.28	6.24	-44.5	-45.6	18.6	0.00e+00	0	41	0	1076887552	60	4143
2026-01-22 13:41:15.45	324.42	6.21	-44.6	-45.8	18.5	0.00e+00	0	41	0	1080033280	60	4232
2026-01-22 13:41:16.44	324.57	6.19	-44.6	-45.8	18.5	0.00e+00	0	41	0	1083179008	60	4213
2026-01-22 13:41:17.44	324.71	6.16	-44.8	-46.0	18.4	0.00e+00	0	41	0	1086324736	60	4294
2026-01-22 13:41:18.43	324.86	6.13	-44.9	-46.1	18.1	0.00e+00	0	41	0	1089470464	60	4389
2026-01-22 13:41:19.43	325.00	6.11	-44.8	-46.0	18.3	0.00e+00	0	41	0	1092616192	60	4316
2026-01-22 13:41:20.43	325.15	6.08	-44.8	-46.0	18.3	0.00e+00	0	41	0	1095761920	60	4322
2026-01-22 13:41:21.42	325.29	6.05	-44.8	-46.0	18.4	0.00e+00	0	41	0	1098907648	60	4299
2026-01-22 13:41:22.42	325.44	6.02	-44.8	-46.0	18.2	0.00e+00	0	41	0	1102053376	60	4335
2026-01-22 13:41:23.41	325.58	6.00	-44.8	-46.0	18.3	0.00e+00	0	41	0	1105199104	60	4322
2026-01-22 13:41:24.41	325.72	5.97	-44.8	-46.0	18.2	0.00e+00	0	41	0	1108344832	60	4311
2026-01-22 13:41:25.40	325.87	5.94	-44.8	-46.0	18.3	0.00e+00	0	41	0	1111490560	60	4305
2026-01-22 13:41:26.40	326.01	5.91	-44.8	-46.0	18.2	0.00e+00	0	41	0	1114636288	60	4333
2026-01-22 13:41:27.39	326.15	5.88	-44.9	-46.1	18.2	0.00e+00	0	41	0	1117782016	60	4363
2026-01-22 13:41:28.39	326.29	5.86	-44.9	-46.1	18.2	0.00e+00	0	41	0	1120927744	60	4382
2026-01-22 13:41:29.38	326.43	5.83	-44.8	-46.0	18.3	0.00e+00	0	41	0	1124073472	60	4333
2026-01-22 13:41:30.37	326.58	5.80	-44.9	-46.1	18.2	0.00e+00	0	41	0	1127219200	60	4368
2026-01-22 13:41:31.37	326.72	5.77	-44.6	-45.8	18.4	0.00e+00	0	41	0	1130364928	60	4223
2026-01-22 13:41:32.37	326.86	5.74	-44.6	-45.8	18.5	0.00e+00	0	41	0	1133510656	60	4199
2026-01-22 13:41:33.35	327.00	5.71	-44.6	-45.8	18.4	0.00e+00	0	41	0	1136656384	60	4231
2026-01-22 13:41:34.35	327.14	5.68	-44.6	-45.8	18.4	0.00e+00	0	41	0	1139802112	60	4240
2026-01-22 13:41:35.34	327.28	5.66	-44.7	-45.9	18.4	0.00e+00	0	41	0	1141899264	60	4264
2026-01-22 13:41:36.34	327.42	5.63	-44.8	-46.0	18.3	0.00e+00	0	41	0	1145044992	60	4302
2026-01-22 13:41:37.33	327.56	5.60	-44.9	-46.1	18.2	0.00e+00	0	41	0	1148190720	60	4365
2026-01-22 13:41:38.32	327.70	5.57	-44.9	-46.2	18.1	0.00e+00	0	41	0	1151336448	60	4397
2026-01-22 13:41:39.32	327.84	5.54	-45.1	-46.4	17.9	0.00e+00	0	41	0	1154482176	60	4500
2026-01-22 13:41:40.31	327.98	5.51	-45.1	-46.4	17.9	0.00e+00	0	41	0	1157627904	60	4499
2026-01-22 13:41:41.31	328.12	5.48	-45.1	-46.4	17.8	0.00e+00	0	41	0	1160773632	61	4277
2026-01-22 13:41:42.30	328.25	5.45	-45.6	-46.9	17.3	0.00e+00	0	41	0	1163919360	61	4540
2026-01-22 13:41:43.30	328.39	5.42	-46.1	-47.6	16.7	0.00e+00	0	41	0	1167065088	62	4649
2026-01-22 13:41:44.30	328.53	5.39	-46.1	-47.7	16.6	0.00e+00	0	41	0	1170210816	63	4396
2026-01-22 13:41:45.29	328.67	5.36	-46.0	-47.5	16.7	0.00e+00	0	41	0	1173356544	63	4327
2026-01-22 13:41:46.28	328.80	5.33	-46.0	-47.5	16.8	0.00e+00	0	41	0	1176502272	63	4323
2026-01-22 13:41:47.28	328.94	5.30	-45.3	-46.7	17.5	0.00e+00	0	41	0	1179648000	62	4159
2026-01-22 13:41:48.27	329.08	5.27	-45.4	-46.8	17.4	0.00e+00	0	41	0	1182793728	62	4210
2026-01-22 13:41:49.26	329.21	5.24	-45.6	-47.0	17.2	0.00e+00	0	41	0	1185939456	62	4320
2026-01-22 13:41:50.26	329.35	5.21	-45.5	-46.9	17.3	0.00e+00	0	41	0	1189085184	62	4281
2026-01-22 13:41:51.26	329.49	5.18	-45.5	-46.8	17.4	0.00e+00	0	41	0	1192230912	62	4234
2026-01-22 13:41:52.26	329.62	5.14	-45.8	-47.2	17.0	0.00e+00	0	41	0	1195376640	62	4433
2026-01-22 13:41:53.26	329.76	5.11	-45.8	-47.3	16.9	0.00e+00	0	41	0	1198522368	62	4451
2026-01-22 13:41:54.25	329.89	5.08	-45.8	-47.3	16.9	0.00e+00	0	41	0	1201668096	62	4459
2026-01-22 13:41:55.25	330.03	5.05	-46.0	-47.5	16.7	0.00e+00	0	41	0	1204813824	62	4553
2026-01-22 13:41:56.25	330.16	5.02	-45.8	-47.2	17.0	0.00e+00	0	41	0	1207959552	63	4176
2026-01-22 13:41:57.24	330.30	4.99	-52.7	-65.5	3.8	7.90e-01	0	41	104	1210056704	75	17230
2026-01-22 13:41:58.23	330.43	4.96	-53.1	-65.9	3.8	1.49e+00	0	41	104	1210056704	76	17029
2026-01-22 13:41:59.23	330.57	4.93	-53.3	-66.1	3.8	1.49e+00	0	41	104	1210056704	77	16375
2026-01-22 13:42:00.23	330.70	4.89	-53.3	-66.2	3.8	1.49e+00	0	41	104	1210056704	77	16562
2026-01-22 13:42:01.22	330.83	4.86	-53.5	-66.2	3.8	1.49e+00	0	41	104	1210056704	77	16688
2026-01-22 13:42:02.22	330.97	4.83	-53.5	-66.3	3.8	1.49e+00	0	41	104	1210056704	77	16747
2026-01-22 13:42:03.21	331.10	4.80	-53.5	-66.3	3.8	1.49e+00	0	41	104	1210056704	77	16796
2026-01-22 13:42:04.21	331.23	4.77	-53.5	-66.3	3.8	1.49e+00	0	41	104	1210056704	77	16867
2026-01-22 13:42:05.20	331.36	4.74	-53.5	-66.4	3.8	1.49e+00	0	41	104	1210056704	77	16891
2026-01-22 13:42:06.20	331.49	4.70	-53.5	-66.3	3.8	1.49e+00	0	41	104	1210056704	77	16783
2026-01-22 13:42:07.19	331.63	4.67	-53.4	-66.2	3.8	1.49e+00	0	41	104	1210056704	77	16566
2026-01-22 13:42:08.18	331.76	4.64	-53.4	-66.2	3.8	1.49e+00	0	41	104	1210056704	77	16574
2026-01-22 13:42:09.18	331.89	4.61	-53.4	-66.2	3.8	1.49e+00	0	41	104	1210056704	77	16657
2026-01-22 13:42:10.17	332.02	4.57	-53.5	-66.2	3.8	1.49e+00	0	41	104	1210056704	77	16668
2026-01-22 13:42:11.16	332.15	4.54	-53.5	-66.3	3.8	1.49e+00	0	41	104	1210056704	77	16844
2026-01-22 13:42:12.16	332.28	4.51	-53.6	-66.4	3.8	1.49e+00	0	41	104	1210056704	77	16951
2026-01-22 13:42:13.16	332.41	4.48	-53.6	-66.4	3.8	1.49e+00	0	41	104	1210056704	77	17002
2026-01-22 13:42:14.15	332.54	4.44	-53.7	-66.5	3.8	1.49e+00	0	41	104	1210056704	77	17131
2026-01-22 13:42:15.15	332.67	4.41	-53.7	-66.5	3.8	1.49e+00	0	41	104	1210056704	77	17191
2026-01-22 13:42:16.14	332.80	4.38	-53.8	-66.5	3.8	1.49e+00	0	41	104	1210056704	78	16303
2026-01-22 13:42:17.14	332.93	4.35	-53.8	-66.6	3.8	1.49e+00	0	41	104	1210056704	78	16318
2026-01-22 13:42:18.13	333.05	4.31	-53.8	-66.6	3.8	1.49e+00	0	41	104	1210056704	78	16392
2026-01-22 13:42:19.13	333.18	4.28	-53.8	-66.5	3.8	1.49e+00	0	41	104	1210056704	78	16307
2026-01-22 13:42:20.12	333.31	4.25	-53.7	-66.5	3.8	1.49e+00	0	41	104	1210056704	78	16258
2026-01-22 13:42:21.12	333.44	4.21	-53.7	-66.5	3.8	1.49e+00	0	41	104	1210056704	78	16206
2026-01-22 13:42:22.11	333.56	4.18	-53.7	-66.5	3.8	1.49e+00	0	41	104	1210056704	78	16206
2026-01-22 13:42:23.10	333.69	4.15	-53.7	-66.5	3.8	1.49e+00	0	41	104	1210056704	78	16199
2026-01-22 13:42:24.09	333.82	4.11	-53.7	-66.5	3.8	1.49e+00	0	41	104	1210056704	78	16267
2026-01-22 13:42:25.09	333.94	4.08	-53.7	-66.5	3.8	1.49e+00	0	41	104	1210056704	78	16205
2026-01-22 13:42:26.09	334.07	4.05	-53.7	-66.5	3.8	1.49e+00	0	41	104	1210056704	78	16174
2026-01-22 13:42:27.08	334.20	4.01	-53.7	-66.5	3.8	1.49e+00	0	41	104	1210056704	78	16249
2026-01-22 13:42:28.07	334.32	3.98	-53.7	-66.5	3.8	1.49e+00	0	41	104	1210056704	78	16181
2026-01-22 13:42:29.07	334.45	3.94	-53.7	-66.5	3.8	1.49e+00	0	41	104	1210056704	78	16186
2026-01-22 13:42:30.06	334.57	3.91	-53.7	-66.5	3.8	1.49e+00	0	41	104	1210056704	78	16170
2026-01-22 13:42:31.06	334.70	3.88	-53.7	-66.5	3.8	1.49e+00	0	41	104	1210056704	78	16205
2026-01-22 13:42:32.05	334.82	3.84	-53.7	-66.5	3.8	1.49e+00	0	41	104	1210056704	78	16181
2026-01-22 13:42:33.05	334.95	3.81	-53.7	-66.5	3.8	1.49e+00	0	41	104	1210056704	78	16196
2026-01-22 13:42:34.04	335.07	3.77	-53.7	-66.5	3.8	1.49e+00	0	41	104	1210056704	78	16204
2026-01-22 13:42:35.03	335.19	3.74	-53.7	-66.5	3.8	1.49e+00	0	41	104	1210056704	78	16172
2026-01-22 13:42:36.03	335.32	3.71	-53.7	-66.5	3.8	1.49e+00	0	41	104	1210056704	78	16178
2026-01-22 13:42:37.02	335.44	3.67	-53.7	-66.4	3.8	1.49e+00	0	41	104	1210056704	78	16117
2026-01-22 13:42:38.02	335.56	3.64	-53.7	-66.5	3.8	1.49e+00	0	41	104	1210056704	78	16163
2026-01-22 13:42:39.01	335.68	3.60	-53.7	-66.4	3.8	1.49e+00	0	41	104	1210056704	78	16114
2026-01-22 13:42:40.01	335.81	3.57	-53.7	-66.4	3.8	1.49e+00	0	41	104	1210056704	78	16115
2026-01-22 13:42:41.00	335.93	3.53	-53.7	-66.5	3.8	1.49e+00	0	41	104	1210056704	78	16140
2026-01-22 13:42:42.00	336.05	3.50	-53.7	-66.5	3.8	1.49e+00	0	41	104	1210056704	78	16129
2026-01-22 13:42:42.99	336.17	3.46	-53.7	-66.5	3.8	1.49e+00	0	41	104	1210056704	78	16136
2026-01-22 13:42:43.99	336.29	3.43	-53.6	-66.4	3.8	1.49e+00	0	41	104	1210056704	78	16091
2026-01-22 13:42:44.99	336.42	3.39	-53.6	-66.4	3.8	1.49e+00	0	41	104	1210056704	78	16049
2026-01-22 13:42:45.99	336.54	3.36	-53.6	-66.5	3.8	1.49e+00	0	41	104	1210056704	78	16143
2026-01-22 13:42:46.99	336.66	3.32	-53.6	-66.4	3.8	1.49e+00	0	41	104	1210056704	78	16071
2026-01-22 13:42:47.98	336.78	3.29	-53.6	-66.4	3.8	1.49e+00	0	41	104	1210056704	78	16087
2026-01-22 13:42:48.98	336.90	3.25	-53.6	-66.4	3.8	1.49e+00	0	41	104	1210056704	78	16083
2026-01-22 13:42:49.97	337.02	3.22	-53.6	-66.4	3.8	1.49e+00	0	41	104	1210056704	78	16051
2026-01-22 13:42:50.97	337.14	3.18	-53.6	-66.4	3.8	1.49e+00	0	41	104	1210056704	78	16080
2026-01-22 13:42:51.97	337.26	3.15	-53.6	-66.4	3.8	1.49e+00	0	41	104	1210056704	78	16088
2026-01-22 13:42:52.96	337.38	3.11	-53.6	-66.4	3.8	1.49e+00	0	41	104	1210056704	78	16089
2026-01-22 13:42:53.95	337.49	3.08	-53.6	-66.4	3.8	1.49e+00	0	41	104	1210056704	78	16042
2026-01-22 13:42:54.95	337.61	3.04	-53.6	-66.4	3.8	1.49e+00	0	41	104	1210056704	78	16040
2026-01-22 13:42:55.95	337.73	3.01	-53.6	-66.4	3.8	1.49e+00	0	41	104	1210056704	78	16083
2026-01-22 13:42:56.95	337.85	2.97	-53.6	-66.4	3.8	1.49e+00	0	41	104	1210056704	78	16101
2026-01-22 13:42:57.94	337.97	2.94	-53.6	-66.4	3.8	1.49e+00	0	41	104	1210056704	78	16105
2026-01-22 13:42:58.94	338.08	2.90	-53.6	-66.4	3.8	1.49e+00	0	41	104	1210056704	78	16054
2026-01-22 13:42:59.93	338.20	2.87	-53.6	-66.4	3.8	1.49e+00	0	41	104	1210056704	78	16059
2026-01-22 13:43:00.93	338.32	2.83	-53.6	-66.4	3.8	1.49e+00	0	41	104	1210056704	78	16080
2026-01-22 13:43:01.93	338.43	2.79	-53.6	-66.4	3.8	1.49e+00	0	41	104	1210056704	78	16073
2026-01-22 13:43:02.92	338.55	2.76	-53.6	-66.4	3.8	1.49e+00	0	41	104	1210056704	78	16072
2026-01-22 13:43:03.92	338.67	2.72	-53.6	-66.4	3.8	1.49e+00	0	41	104	1210056704	78	16020
2026-01-22 13:43:04.91	338.78	2.69	-53.6	-66.4	3.8	1.49e+00	0	41	104	1210056704	78	16057
2026-01-22 13:43:05.91	338.90	2.65	-53.6	-66.4	3.8	1.49e+00	0	41	104	1210056704	78	16015
2026-01-22 13:43:06.91	339.01	2.61	-53.6	-66.4	3.8	1.49e+00	0	41	104	1210056704	78	16030
2026-01-22 13:43:07.90	339.13	2.58	-53.6	-66.4	3.8	1.49e+00	0	41	104	1210056704	78	16033
2026-01-22 13:43:08.90	339.24	2.54	-53.6	-66.4	3.8	1.49e+00	0	41	104	1210056704	78	16034
2026-01-22 13:43:09.89	339.36	2.51	-53.6	-66.4	3.8	1.49e+00	0	41	104	1210056704	78	16002
2026-01-22 13:43:10.89	339.47	2.47	-53.6	-66.4	3.8	1.49e+00	0	41	104	1210056704	78	15995
2026-01-22 13:43:11.89	339.58	2.43	-53.6	-66.4	3.8	1.49e+00	0	41	104	1210056704	78	16024
2026-01-22 13:43:12.89	339.70	2.40	-53.6	-66.4	3.8	1.49e+00	0	41	104	1210056704	78	16000
2026-01-22 13:43:13.88	339.81	2.36	-53.6	-66.4	3.8	1.49e+00	0	41	104	1210056704	78	15974
2026-01-22 13:43:14.88	339.92	2.32	-53.6	-66.4	3.8	1.49e+00	0	41	104	1210056704	78	15947
2026-01-22 13:43:15.88	340.04	2.29	-53.6	-66.4	3.8	1.49e+00	0	41	104	1210056704	78	16015
2026-01-22 13:43:16.88	340.15	2.25	-53.6	-66.4	3.8	1.49e+00	0	41	104	1210056704	78	15993
2026-01-22 13:43:17.88	340.26	2.22	-53.6	-66.4	3.8	1.49e+00	0	41	104	1210056704	78	16022
2026-01-22 13:43:18.87	340.37	2.18	-53.6	-66.4	3.8	1.49e+00	0	41	104	1210056704	78	16017
2026-01-22 13:43:19.87	340.49	2.14	-53.6	-66.4	3.8	1.49e+00	0	41	104	1210056704	78	16003
2026-01-22 13:43:20.86	340.60	2.11	-53.6	-66.4	3.8	1.49e+00	0	41	104	1210056704	78	15975
2026-01-22 13:43:21.85	340.71	2.07	-53.6	-66.4	3.8	1.49e+00	0	41	104	1210056704	78	15992
2026-01-22 13:43:22.85	340.82	2.03	-53.6	-66.4	3.8	1.49e+00	0	41	104	1210056704	78	16039
2026-01-22 13:43:23.85	340.93	2.00	-53.6	-66.4	3.8	1.49e+00	0	41	104	1210056704	78	15998
2026-01-22 13:43:24.84	341.04	1.96	-53.6	-66.4	3.8	1.49e+00	0	41	104	1210056704	78	15993

#Closed at: 2026-01-22 13:43:25
#Recorded file [1210 MB]: D:/lorett/data/31041_260122_163411.dat