passes_logs/2026/01/22/R3.2S_Murmansk/R3.2S_Murmansk__20260122_053928_SUOMI_NPP_rec.log

#Pass ID: 20260122_053928_SUOMI NPP
#Satellite: SUOMI NPP
#Configuration: NPP
#almurnet v.1.7.20251203
#Start time: 2026-01-22 05:39:28

#Version: 2.2.20231116
#Station: R3.2S_Murmansk
#Location: 33.079688 lon 68.888172 lat
#TLE: 1 37849U 11061A   26021.51818991  .00000201  00000+0  11636-3 0  9995
#TLE: 2 37849  98.7819 323.5108 0002300  52.3548 307.7836 14.19527793737637

#Time	Az	El	Level	Level2	SNR	BER	BlckErr	Temp	State	Recorded	gain1	gain2
2026-01-22 05:39:28.66	68.68	2.03	-50.0	-65.0	3.8	1.49e+00	0	39	0	0	70	21602
2026-01-22 05:39:29.65	68.61	2.09	-50.0	-65.0	3.8	1.49e+00	0	39	104	0	70	21628
2026-01-22 05:39:30.66	68.55	2.15	-50.0	-65.0	3.8	1.49e+00	0	39	104	0	70	21594
2026-01-22 05:39:31.67	68.48	2.21	-50.0	-65.0	3.8	1.49e+00	0	39	104	0	70	21563
2026-01-22 05:39:32.68	68.42	2.26	-50.0	-65.0	3.8	1.49e+00	0	39	104	0	70	21546
2026-01-22 05:39:33.69	68.35	2.32	-50.0	-65.0	3.8	1.49e+00	0	39	104	0	70	21574
2026-01-22 05:39:34.70	68.29	2.38	-50.0	-65.0	3.8	1.49e+00	0	39	104	0	70	21540
2026-01-22 05:39:35.71	68.22	2.44	-50.0	-65.0	3.8	1.49e+00	0	39	104	0	70	21526
2026-01-22 05:39:36.71	68.16	2.49	-50.0	-65.0	3.8	1.49e+00	0	39	104	0	70	21569
2026-01-22 05:39:37.72	68.09	2.55	-50.0	-65.0	3.8	1.49e+00	0	39	104	0	70	21532
2026-01-22 05:39:38.73	68.03	2.61	-50.0	-65.0	3.8	1.49e+00	0	39	104	0	70	21545
2026-01-22 05:39:39.74	67.96	2.67	-50.0	-65.0	3.8	1.49e+00	0	39	104	0	70	21526
2026-01-22 05:39:40.75	67.89	2.73	-50.0	-65.0	3.8	1.49e+00	0	39	104	0	70	21524
2026-01-22 05:39:41.76	67.83	2.79	-50.0	-65.0	3.8	1.49e+00	0	39	104	0	70	21547
2026-01-22 05:39:42.77	67.76	2.84	-50.0	-65.0	3.8	1.49e+00	0	39	104	0	70	21579
2026-01-22 05:39:43.77	67.69	2.90	-50.0	-65.0	3.8	1.49e+00	0	39	104	0	70	21537
2026-01-22 05:39:44.78	67.62	2.96	-50.0	-64.9	3.8	1.49e+00	0	39	104	0	70	21506
2026-01-22 05:39:45.79	67.55	3.02	-50.0	-65.0	3.8	1.49e+00	0	39	104	0	70	21513
2026-01-22 05:39:46.80	67.49	3.08	-50.0	-65.0	3.8	1.49e+00	0	39	104	0	70	21547
2026-01-22 05:39:47.81	67.42	3.14	-50.0	-65.0	3.8	1.49e+00	0	39	104	0	70	21567
2026-01-22 05:39:48.81	67.35	3.20	-50.0	-65.0	3.8	1.49e+00	0	39	104	0	70	21530
2026-01-22 05:39:49.82	67.28	3.26	-50.0	-65.0	3.8	1.49e+00	0	39	104	0	70	21513
2026-01-22 05:39:50.83	67.21	3.31	-50.0	-65.0	3.8	1.49e+00	0	39	104	0	70	21572
2026-01-22 05:39:51.84	67.14	3.37	-50.0	-65.0	3.8	1.49e+00	0	39	104	0	70	21543
2026-01-22 05:39:52.85	67.07	3.43	-50.0	-65.0	3.8	1.49e+00	0	39	104	0	70	21584
2026-01-22 05:39:53.85	67.00	3.49	-50.0	-65.0	3.8	1.49e+00	0	39	104	0	70	21581
2026-01-22 05:39:54.86	66.93	3.55	-50.0	-65.0	3.8	1.49e+00	0	39	104	0	70	21553
2026-01-22 05:39:55.87	66.86	3.61	-50.0	-65.0	3.8	1.49e+00	0	39	104	0	70	21555
2026-01-22 05:39:56.88	66.79	3.67	-50.0	-65.0	3.8	1.49e+00	0	39	104	0	70	21541
2026-01-22 05:39:57.89	66.71	3.73	-50.0	-65.0	3.8	1.49e+00	0	39	104	0	70	21549
2026-01-22 05:39:58.90	66.64	3.79	-50.0	-65.0	3.8	1.49e+00	0	39	104	0	70	21577
2026-01-22 05:39:59.91	66.57	3.85	-50.0	-65.0	3.8	1.49e+00	0	39	104	0	70	21569
2026-01-22 05:40:00.92	66.50	3.91	-50.0	-65.0	3.8	1.49e+00	0	39	104	0	70	21510
2026-01-22 05:40:01.92	66.42	3.97	-50.0	-65.0	3.8	1.49e+00	0	40	104	0	70	21557
2026-01-22 05:40:02.93	66.35	4.03	-50.0	-65.0	3.8	1.49e+00	0	40	104	0	70	21577
2026-01-22 05:40:03.94	66.28	4.09	-50.0	-65.0	3.8	1.49e+00	0	39	104	0	70	21558
2026-01-22 05:40:04.95	66.20	4.15	-50.0	-65.0	3.8	1.49e+00	0	40	104	0	70	21587
2026-01-22 05:40:05.96	66.13	4.21	-50.0	-65.0	3.8	1.49e+00	0	40	104	0	70	21557
2026-01-22 05:40:06.97	66.05	4.27	-50.0	-65.0	3.8	1.49e+00	0	40	104	0	70	21567
2026-01-22 05:40:07.97	65.98	4.33	-50.0	-65.0	3.8	1.49e+00	0	40	104	0	70	21592
2026-01-22 05:40:08.98	65.90	4.39	-50.0	-65.0	3.8	1.49e+00	0	40	104	0	70	21557
2026-01-22 05:40:09.99	65.83	4.46	-50.0	-65.0	3.8	1.49e+00	0	40	104	0	70	21589
2026-01-22 05:40:11.00	65.75	4.52	-50.0	-65.0	3.8	1.49e+00	0	40	104	0	70	21601
2026-01-22 05:40:12.01	65.68	4.58	-50.0	-65.0	3.8	1.49e+00	0	40	104	0	70	21581
2026-01-22 05:40:13.01	65.60	4.64	-50.0	-65.0	3.8	1.49e+00	0	40	104	0	70	21538
2026-01-22 05:40:14.02	65.52	4.70	-50.0	-65.0	3.8	1.49e+00	0	40	104	0	70	21569
2026-01-22 05:40:15.03	65.45	4.76	-50.0	-65.0	3.8	1.49e+00	0	40	104	0	70	21568
2026-01-22 05:40:16.04	65.37	4.82	-50.0	-65.0	3.8	1.49e+00	0	40	104	0	70	21576
2026-01-22 05:40:17.05	65.29	4.88	-50.0	-65.0	3.8	1.49e+00	0	40	104	0	70	21582
2026-01-22 05:40:18.06	65.21	4.94	-50.0	-65.0	3.8	1.49e+00	0	40	104	0	70	21581
2026-01-22 05:40:19.07	65.13	5.01	-50.0	-65.0	3.8	1.49e+00	0	40	104	0	70	21569
2026-01-22 05:40:20.07	65.06	5.07	-50.0	-65.0	3.8	1.49e+00	0	40	104	0	70	21563
2026-01-22 05:40:21.08	64.98	5.13	-50.0	-65.0	3.8	1.49e+00	0	40	104	0	70	21532
2026-01-22 05:40:22.09	64.90	5.19	-50.0	-65.0	3.8	1.49e+00	0	40	104	0	70	21557
2026-01-22 05:40:23.10	64.82	5.25	-50.0	-65.0	3.8	1.49e+00	0	40	104	0	70	21560
2026-01-22 05:40:24.11	64.74	5.32	-50.0	-65.0	3.8	1.49e+00	0	40	104	0	70	21583
2026-01-22 05:40:25.11	64.66	5.38	-50.0	-65.0	3.8	1.49e+00	0	40	104	0	70	21580
2026-01-22 05:40:26.12	64.57	5.44	-50.0	-65.0	3.8	1.49e+00	0	40	104	0	70	21568
2026-01-22 05:40:27.13	64.49	5.50	-50.0	-65.0	3.8	1.49e+00	0	40	104	0	70	21618
2026-01-22 05:40:28.14	64.41	5.56	-50.0	-65.0	3.8	1.49e+00	0	40	104	0	70	21590
2026-01-22 05:40:29.15	64.33	5.63	-50.0	-65.0	3.8	1.49e+00	0	40	104	0	70	21581
2026-01-22 05:40:30.15	64.25	5.69	-50.0	-64.9	3.8	1.49e+00	0	40	104	0	70	21502
2026-01-22 05:40:31.16	64.16	5.75	-50.0	-65.0	3.8	1.49e+00	0	40	104	0	70	21580
2026-01-22 05:40:32.17	64.08	5.82	-50.0	-65.0	3.8	1.49e+00	0	40	104	0	70	21571
2026-01-22 05:40:33.18	64.00	5.88	-50.0	-65.0	3.8	1.49e+00	0	40	104	0	70	21590
2026-01-22 05:40:34.18	63.91	5.94	-50.0	-65.0	3.8	1.49e+00	0	40	104	0	70	21523
2026-01-22 05:40:35.19	63.83	6.00	-50.0	-65.0	3.8	1.49e+00	0	40	104	0	70	21631
2026-01-22 05:40:36.20	63.74	6.07	-50.0	-65.0	3.8	1.49e+00	0	40	104	0	70	21542
2026-01-22 05:40:37.21	63.66	6.13	-50.0	-65.0	3.8	1.49e+00	0	40	104	0	70	21613
2026-01-22 05:40:38.22	63.57	6.19	-50.0	-65.0	3.8	1.49e+00	0	40	104	0	70	21551
2026-01-22 05:40:39.23	63.49	6.26	-50.0	-65.0	3.8	1.49e+00	0	40	104	0	70	21561
2026-01-22 05:40:40.23	63.40	6.32	-50.0	-65.0	3.8	1.49e+00	0	40	104	0	70	21541
2026-01-22 05:40:41.24	63.32	6.38	-50.0	-65.0	3.8	1.49e+00	0	40	104	0	70	21509
2026-01-22 05:40:42.25	63.23	6.45	-50.0	-65.0	3.8	1.49e+00	0	40	104	0	70	21580
2026-01-22 05:40:43.26	63.14	6.51	-50.0	-65.0	3.8	1.49e+00	0	40	104	0	70	21519
2026-01-22 05:40:44.26	63.05	6.58	-50.0	-65.0	3.8	1.49e+00	0	40	104	0	70	21571
2026-01-22 05:40:45.27	62.96	6.64	-50.0	-65.0	3.8	1.49e+00	0	40	104	0	70	21575
2026-01-22 05:40:46.28	62.88	6.70	-50.9	-65.8	3.8	1.49e+00	0	40	104	0	72	21246
2026-01-22 05:40:47.29	62.79	6.77	-52.1	-67.1	3.8	1.49e+00	0	40	104	0	74	21801
2026-01-22 05:40:48.30	62.70	6.83	-52.5	-67.5	3.8	1.49e+00	0	40	104	0	75	21722
2026-01-22 05:40:49.31	62.61	6.90	-52.9	-67.9	3.8	1.49e+00	0	40	104	0	76	21362
2026-01-22 05:40:50.31	62.52	6.96	-53.0	-68.0	3.8	1.49e+00	0	40	104	0	76	21674
2026-01-22 05:40:51.33	62.43	7.03	-53.0	-68.0	3.8	1.49e+00	0	40	104	0	76	21640
2026-01-22 05:40:52.33	62.34	7.09	-53.0	-68.0	3.8	1.49e+00	0	40	104	0	76	21603
2026-01-22 05:40:53.34	62.24	7.16	-53.0	-68.0	3.8	1.49e+00	0	40	104	0	76	21635
2026-01-22 05:40:54.35	62.15	7.22	-53.0	-68.0	3.8	1.49e+00	0	40	104	0	76	21640
2026-01-22 05:40:55.36	62.06	7.29	-53.0	-68.0	3.8	1.49e+00	0	40	104	0	76	21556
2026-01-22 05:40:56.36	61.97	7.35	-53.0	-68.0	3.8	1.49e+00	0	40	104	0	76	21588
2026-01-22 05:40:57.37	61.87	7.42	-53.0	-68.0	3.8	1.49e+00	0	40	104	0	76	21604
2026-01-22 05:40:58.38	61.78	7.48	-53.0	-68.0	3.8	1.49e+00	0	40	104	0	76	21615
2026-01-22 05:40:59.39	61.69	7.55	-53.0	-68.0	3.8	1.49e+00	0	40	104	0	76	21547
2026-01-22 05:41:00.40	61.59	7.61	-53.0	-68.0	3.8	1.49e+00	0	40	104	0	76	21612
2026-01-22 05:41:01.41	61.50	7.68	-53.0	-68.0	3.8	1.49e+00	0	40	104	0	76	21609
2026-01-22 05:41:02.42	61.40	7.74	-53.0	-68.0	3.8	1.49e+00	0	40	104	0	76	21545
2026-01-22 05:41:03.43	61.30	7.81	-53.0	-68.0	3.8	1.49e+00	0	40	104	0	76	21578
2026-01-22 05:41:04.44	61.21	7.87	-53.0	-68.0	3.8	1.49e+00	0	40	104	0	76	21620
2026-01-22 05:41:05.45	61.11	7.94	-53.0	-68.0	3.8	1.49e+00	0	40	104	0	76	21590
2026-01-22 05:41:06.45	61.01	8.01	-53.0	-68.0	3.8	1.49e+00	0	40	104	0	76	21569
2026-01-22 05:41:07.46	60.92	8.07	-53.0	-68.0	3.8	1.49e+00	0	40	104	0	76	21545
2026-01-22 05:41:08.47	60.82	8.14	-53.0	-68.0	3.8	1.49e+00	0	40	104	0	76	21561
2026-01-22 05:41:09.48	60.72	8.20	-53.1	-68.1	3.8	1.49e+00	0	40	104	0	76	21922
2026-01-22 05:41:10.49	60.62	8.27	-53.3	-68.3	3.8	1.49e+00	0	40	104	0	77	21135
2026-01-22 05:41:11.49	60.52	8.34	-53.4	-68.5	3.8	1.49e+00	0	40	104	0	77	21549
2026-01-22 05:41:12.50	60.42	8.40	-53.5	-68.5	3.8	1.49e+00	0	40	104	0	77	21749
2026-01-22 05:41:13.51	60.32	8.47	-53.6	-68.6	3.8	1.49e+00	0	40	104	0	77	21961
2026-01-22 05:41:14.51	60.22	8.54	-53.7	-68.7	3.8	1.49e+00	0	40	104	0	77	22193
2026-01-22 05:41:15.52	60.12	8.60	-53.8	-68.8	3.8	1.49e+00	0	40	104	0	78	21181
2026-01-22 05:41:16.53	60.02	8.67	-53.8	-68.8	3.8	1.49e+00	0	40	104	0	78	21259
2026-01-22 05:41:17.54	59.91	8.74	-53.9	-68.9	3.8	1.49e+00	0	40	104	0	78	21414
2026-01-22 05:41:18.55	59.81	8.80	-54.0	-69.0	3.8	1.49e+00	0	40	104	0	78	21581
2026-01-22 05:41:19.55	59.71	8.87	-54.0	-69.0	3.8	1.49e+00	0	40	104	0	78	21628
2026-01-22 05:41:20.56	59.60	8.94	-53.9	-69.0	3.8	1.49e+00	0	40	104	0	78	21574
2026-01-22 05:41:21.57	59.50	9.01	-53.9	-69.0	3.8	1.49e+00	0	40	104	0	78	21535
2026-01-22 05:41:22.58	59.40	9.07	-53.9	-69.0	3.8	1.49e+00	0	40	104	0	78	21566
2026-01-22 05:41:23.59	59.29	9.14	-53.9	-69.0	3.8	1.49e+00	0	40	104	0	78	21516
2026-01-22 05:41:24.59	59.18	9.21	-54.0	-69.0	3.8	1.49e+00	0	40	104	0	78	21703
2026-01-22 05:41:25.60	59.08	9.28	-54.1	-69.1	3.8	1.49e+00	0	40	104	0	78	21949
2026-01-22 05:41:26.61	58.97	9.34	-54.2	-69.2	3.8	1.49e+00	0	40	104	0	78	22212
2026-01-22 05:41:27.62	58.86	9.41	-54.3	-69.3	3.8	1.49e+00	0	40	104	0	79	21186
2026-01-22 05:41:28.62	58.76	9.48	-54.3	-69.4	3.8	1.49e+00	0	40	104	0	79	21323
2026-01-22 05:41:29.63	58.65	9.55	-54.4	-69.4	3.8	1.49e+00	0	40	104	0	79	21479
2026-01-22 05:41:30.64	58.54	9.61	-54.5	-69.5	3.8	1.49e+00	0	40	104	0	79	21624
2026-01-22 05:41:31.65	58.43	9.68	-54.5	-69.6	3.8	1.49e+00	0	40	104	0	79	21770
2026-01-22 05:41:32.66	58.32	9.75	-54.6	-69.6	3.8	1.49e+00	0	40	104	0	79	21901
2026-01-22 05:41:33.66	58.21	9.82	-54.6	-69.6	3.8	1.49e+00	0	40	104	0	79	21998
2026-01-22 05:41:34.67	58.10	9.89	-54.6	-69.6	3.8	1.49e+00	0	40	104	0	79	22002
2026-01-22 05:41:35.68	57.99	9.96	-54.6	-69.6	3.8	1.49e+00	0	40	104	0	79	21983
2026-01-22 05:41:36.69	57.87	10.03	-54.6	-69.7	3.8	1.49e+00	0	40	104	0	79	22019
2026-01-22 05:41:37.69	57.76	10.09	-54.6	-69.7	3.8	1.49e+00	0	40	104	0	79	22012
2026-01-22 05:41:38.70	57.65	10.16	-54.6	-69.6	3.8	1.49e+00	0	40	104	0	79	21850
2026-01-22 05:41:39.71	57.54	10.23	-54.5	-69.6	3.8	1.49e+00	0	40	104	0	79	21774
2026-01-22 05:41:40.72	57.42	10.30	-54.5	-69.5	3.8	1.49e+00	0	40	104	0	79	21652
2026-01-22 05:41:41.73	57.31	10.37	-54.5	-69.5	3.8	1.49e+00	0	40	104	0	79	21722
2026-01-22 05:41:42.74	57.19	10.44	-54.5	-69.5	3.8	1.49e+00	0	40	104	0	79	21656
2026-01-22 05:41:43.75	57.07	10.51	-54.5	-69.6	3.8	1.49e+00	0	41	104	0	79	21822
2026-01-22 05:41:44.75	56.96	10.58	-54.6	-69.6	3.8	1.49e+00	0	40	104	0	79	21831
2026-01-22 05:41:45.76	56.84	10.65	-54.5	-69.6	3.8	1.49e+00	0	40	104	0	79	21807
2026-01-22 05:41:46.77	56.72	10.72	-54.5	-69.5	3.8	1.49e+00	0	40	104	0	79	21682
2026-01-22 05:41:47.78	56.60	10.78	-54.5	-69.5	3.8	1.49e+00	0	40	104	0	79	21613
2026-01-22 05:41:48.79	56.49	10.85	-54.5	-69.5	3.8	1.49e+00	0	40	104	0	79	21607
2026-01-22 05:41:49.80	56.37	10.92	-54.4	-69.5	3.8	1.49e+00	0	40	104	0	79	21613
2026-01-22 05:41:50.81	56.25	10.99	-54.4	-69.5	3.8	1.49e+00	0	40	104	0	79	21545
2026-01-22 05:41:51.82	56.12	11.06	-54.4	-69.4	3.8	1.49e+00	0	40	104	0	79	21457
2026-01-22 05:41:52.83	56.00	11.13	-54.4	-69.5	3.8	1.49e+00	0	41	104	0	79	21538
2026-01-22 05:41:53.84	55.88	11.20	-54.4	-69.4	3.8	1.49e+00	0	40	104	0	79	21488
2026-01-22 05:41:54.84	55.76	11.27	-54.4	-69.4	3.8	1.49e+00	0	40	104	0	79	21459
2026-01-22 05:41:55.85	55.64	11.34	-54.4	-69.4	3.8	1.49e+00	0	41	104	0	79	21419
2026-01-22 05:41:56.86	55.51	11.41	-54.4	-69.4	3.8	1.49e+00	0	40	104	0	79	21360
2026-01-22 05:41:57.87	55.39	11.48	-54.4	-69.4	3.8	1.49e+00	0	40	104	0	79	21401
2026-01-22 05:41:58.88	55.26	11.55	-54.4	-69.4	3.8	1.49e+00	0	40	104	0	79	21358
2026-01-22 05:41:59.89	55.14	11.62	-54.4	-69.4	3.8	1.49e+00	0	41	104	0	79	21381
2026-01-22 05:42:00.90	55.01	11.70	-54.4	-69.4	3.8	1.49e+00	0	41	104	0	79	21345
2026-01-22 05:42:01.91	54.89	11.77	-54.3	-69.4	3.8	1.49e+00	0	40	104	0	79	21318
2026-01-22 05:42:02.92	54.76	11.84	-54.3	-69.4	3.8	1.49e+00	0	41	104	0	79	21278
2026-01-22 05:42:03.92	54.63	11.91	-54.3	-69.4	3.8	1.49e+00	0	41	104	0	79	21335
2026-01-22 05:42:04.93	54.50	11.98	-54.3	-69.4	3.8	1.49e+00	0	40	104	0	79	21293
2026-01-22 05:42:05.94	54.37	12.05	-54.3	-69.3	3.8	1.49e+00	0	40	104	0	79	21255
2026-01-22 05:42:06.95	54.24	12.12	-54.3	-69.3	3.8	1.49e+00	0	41	104	0	79	21218
2026-01-22 05:42:07.96	54.11	12.19	-54.3	-69.3	3.8	1.49e+00	0	41	104	0	79	21166
2026-01-22 05:42:08.97	53.98	12.26	-54.3	-69.3	3.8	1.49e+00	0	40	104	0	79	21174
2026-01-22 05:42:09.98	53.85	12.33	-54.3	-69.3	3.8	1.49e+00	0	40	104	0	79	21195
2026-01-22 05:42:10.99	53.72	12.40	-54.3	-69.3	3.8	1.49e+00	0	40	104	0	79	21167
2026-01-22 05:42:11.99	53.58	12.47	-54.3	-69.3	3.8	1.49e+00	0	40	104	0	79	21080
2026-01-22 05:42:13.00	53.45	12.54	-54.3	-69.3	3.8	1.49e+00	0	41	104	0	79	21117
2026-01-22 05:42:14.01	53.32	12.62	-54.3	-69.3	3.8	1.49e+00	0	40	104	0	79	21098
2026-01-22 05:42:15.02	53.18	12.69	-54.3	-69.3	3.8	1.49e+00	0	41	104	0	79	21103
2026-01-22 05:42:16.02	53.05	12.76	-54.3	-69.3	3.8	1.49e+00	0	41	104	0	79	21027
2026-01-22 05:42:17.03	52.91	12.83	-54.2	-69.3	3.8	1.49e+00	0	41	104	0	79	21081
2026-01-22 05:42:18.04	52.77	12.90	-54.2	-69.3	3.8	1.49e+00	0	41	104	0	79	21047
2026-01-22 05:42:19.05	52.63	12.97	-54.3	-69.3	3.8	1.49e+00	0	41	104	0	79	21078
2026-01-22 05:42:20.06	52.50	13.04	-54.2	-69.3	3.8	1.49e+00	0	40	104	0	79	21119
2026-01-22 05:42:21.07	52.36	13.11	-54.2	-69.3	3.8	1.49e+00	0	41	104	0	79	21063
2026-01-22 05:42:22.08	52.22	13.19	-54.2	-69.3	3.8	1.49e+00	0	41	104	0	79	21020
2026-01-22 05:42:23.09	52.08	13.26	-54.2	-69.3	3.8	1.49e+00	0	40	104	0	79	21021
2026-01-22 05:42:24.10	51.93	13.33	-54.2	-69.3	3.8	1.49e+00	0	40	104	0	79	21054
2026-01-22 05:42:25.11	51.79	13.40	-54.2	-69.2	3.8	1.49e+00	0	40	104	0	79	20990
2026-01-22 05:42:26.11	51.65	13.47	-54.2	-69.3	3.8	1.49e+00	0	40	104	0	79	21063
2026-01-22 05:42:27.12	51.51	13.54	-54.2	-69.3	3.8	1.49e+00	0	40	104	0	79	21072
2026-01-22 05:42:28.13	51.36	13.62	-54.2	-69.3	3.8	1.49e+00	0	40	104	0	79	21050
2026-01-22 05:42:29.14	51.22	13.69	-54.2	-69.2	3.8	1.49e+00	0	40	104	0	79	21006
2026-01-22 05:42:30.15	51.07	13.76	-54.2	-69.3	3.8	1.49e+00	0	41	104	0	79	21024
2026-01-22 05:42:31.15	50.93	13.83	-54.2	-69.2	3.8	1.49e+00	0	41	104	0	79	21013
2026-01-22 05:42:32.16	50.78	13.90	-54.2	-69.2	3.8	1.49e+00	0	40	104	0	79	21003
2026-01-22 05:42:33.17	50.63	13.97	-54.2	-69.2	3.8	1.49e+00	0	40	104	0	79	20983
2026-01-22 05:42:34.18	50.48	14.05	-54.2	-69.2	3.8	1.49e+00	0	40	104	0	79	20998
2026-01-22 05:42:35.19	50.34	14.12	-54.2	-69.3	3.8	1.49e+00	0	40	104	0	79	21040
2026-01-22 05:42:36.19	50.19	14.19	-54.2	-69.2	3.8	1.49e+00	0	40	104	0	79	21005
2026-01-22 05:42:37.20	50.04	14.26	-54.2	-69.3	3.8	1.49e+00	0	40	104	0	79	21027
2026-01-22 05:42:38.21	49.88	14.33	-54.2	-69.2	3.8	1.49e+00	0	40	104	0	79	20950
2026-01-22 05:42:39.21	49.73	14.40	-54.2	-69.2	3.8	1.49e+00	0	41	104	0	79	20964
2026-01-22 05:42:40.22	49.58	14.48	-54.2	-69.2	3.8	1.49e+00	0	40	104	0	79	20948
2026-01-22 05:42:41.23	49.43	14.55	-54.2	-69.2	3.8	1.49e+00	0	40	104	0	79	20966
2026-01-22 05:42:42.24	49.27	14.62	-54.2	-69.2	3.8	1.49e+00	0	40	104	0	79	20992
2026-01-22 05:42:43.25	49.12	14.69	-54.2	-69.2	3.8	1.49e+00	0	40	104	0	79	20938
2026-01-22 05:42:44.26	48.96	14.77	-54.2	-69.2	3.8	1.49e+00	0	40	104	0	79	20908
2026-01-22 05:42:45.26	48.81	14.84	-54.2	-69.2	3.8	1.49e+00	0	40	104	0	79	20928
2026-01-22 05:42:46.27	48.65	14.91	-54.2	-69.2	3.8	1.49e+00	0	41	104	0	79	20933
2026-01-22 05:42:47.28	48.49	14.98	-54.2	-69.2	3.8	1.49e+00	0	41	104	0	79	20965
2026-01-22 05:42:48.29	48.33	15.05	-54.2	-69.2	3.8	1.49e+00	0	41	104	0	79	20961
2026-01-22 05:42:49.30	48.17	15.12	-54.2	-69.2	3.8	1.49e+00	0	41	104	0	79	20999
2026-01-22 05:42:50.31	48.01	15.20	-54.2	-69.2	3.8	1.49e+00	0	41	104	0	79	20902
2026-01-22 05:42:51.31	47.85	15.27	-54.2	-69.2	3.8	1.49e+00	0	41	104	0	79	20962
2026-01-22 05:42:52.32	47.69	15.34	-54.2	-69.2	3.8	1.49e+00	0	41	104	0	79	20903
2026-01-22 05:42:53.33	47.53	15.41	-54.2	-69.2	3.8	1.49e+00	0	41	104	0	79	20872
2026-01-22 05:42:54.34	47.36	15.48	-54.2	-69.2	3.8	1.49e+00	0	40	104	0	79	20884
2026-01-22 05:42:55.35	47.20	15.56	-54.2	-69.2	3.8	1.49e+00	0	41	104	0	79	20900
2026-01-22 05:42:56.36	47.03	15.63	-54.2	-69.2	3.8	1.49e+00	0	40	104	0	79	20928
2026-01-22 05:42:57.37	46.86	15.70	-54.2	-69.2	3.8	1.49e+00	0	41	104	0	79	20902
2026-01-22 05:42:58.38	46.70	15.77	-54.2	-69.2	3.8	1.49e+00	0	40	104	0	79	20965
2026-01-22 05:42:59.38	46.53	15.84	-54.2	-69.2	3.8	1.49e+00	0	41	104	0	79	20954
2026-01-22 05:43:00.39	46.36	15.91	-54.2	-69.2	3.8	1.49e+00	0	41	104	0	79	20904
2026-01-22 05:43:01.40	46.19	15.98	-54.2	-69.2	3.8	1.49e+00	0	41	104	0	79	20903
2026-01-22 05:43:02.41	46.02	16.06	-54.2	-69.2	3.8	1.49e+00	0	41	104	0	79	20900
2026-01-22 05:43:03.42	45.85	16.13	-54.2	-69.2	3.8	1.49e+00	0	41	104	0	79	20952
2026-01-22 05:43:04.43	45.68	16.20	-54.2	-69.2	3.8	1.49e+00	0	41	104	0	79	20941
2026-01-22 05:43:05.44	45.51	16.27	-54.2	-69.2	3.8	1.49e+00	0	41	104	0	79	20912
2026-01-22 05:43:06.44	45.34	16.34	-54.2	-69.2	3.8	1.49e+00	0	41	104	0	79	20891
2026-01-22 05:43:07.45	45.16	16.41	-54.2	-69.2	3.8	1.49e+00	0	41	104	0	79	20927
2026-01-22 05:43:08.46	44.99	16.48	-54.2	-69.2	3.8	1.49e+00	0	41	104	0	79	20946
2026-01-22 05:43:09.47	44.81	16.56	-54.2	-69.2	3.8	1.49e+00	0	41	104	0	79	20977
2026-01-22 05:43:10.48	44.63	16.63	-54.2	-69.2	3.8	1.49e+00	0	41	104	0	79	20930
2026-01-22 05:43:11.49	44.45	16.70	-54.2	-69.2	3.8	1.49e+00	0	41	104	0	79	20955
2026-01-22 05:43:12.49	44.28	16.77	-54.2	-69.2	3.8	1.49e+00	0	41	104	0	79	20962
2026-01-22 05:43:13.50	44.10	16.84	-54.2	-69.2	3.8	1.49e+00	0	40	104	0	79	20919
2026-01-22 05:43:14.51	43.92	16.91	-54.2	-69.2	3.8	1.49e+00	0	41	104	0	79	20945
2026-01-22 05:43:15.52	43.74	16.98	-54.2	-69.2	3.8	1.49e+00	0	41	104	0	79	20944
2026-01-22 05:43:16.53	43.55	17.05	-54.2	-69.2	3.8	1.49e+00	0	40	104	0	79	20888
2026-01-22 05:43:17.53	43.37	17.12	-54.2	-69.2	3.8	1.49e+00	0	41	104	0	79	20963
2026-01-22 05:43:18.54	43.19	17.19	-54.2	-69.2	3.8	1.49e+00	0	41	104	0	79	20905
2026-01-22 05:43:19.55	43.00	17.26	-54.2	-69.2	3.8	1.49e+00	0	41	104	0	79	20942
2026-01-22 05:43:20.56	42.82	17.33	-54.2	-69.2	3.8	1.49e+00	0	41	104	0	79	20881
2026-01-22 05:43:21.57	42.63	17.40	-54.2	-69.2	3.8	1.49e+00	0	40	104	0	79	20975
2026-01-22 05:43:22.58	42.44	17.47	-54.2	-69.2	3.8	1.49e+00	0	41	104	0	79	20922
2026-01-22 05:43:23.59	42.26	17.54	-54.2	-69.2	3.8	1.49e+00	0	41	104	0	79	20940
2026-01-22 05:43:24.59	42.07	17.61	-54.2	-69.2	3.8	1.49e+00	0	40	104	0	79	20926
2026-01-22 05:43:25.60	41.88	17.68	-54.2	-69.2	3.8	1.49e+00	0	40	104	0	79	20901
2026-01-22 05:43:26.61	41.69	17.75	-54.2	-69.2	3.8	1.49e+00	0	41	104	0	79	20964
2026-01-22 05:43:27.62	41.50	17.82	-54.2	-69.2	3.8	1.49e+00	0	41	104	0	79	20922
2026-01-22 05:43:28.63	41.30	17.89	-54.2	-69.2	3.8	1.49e+00	0	41	104	0	79	20903
2026-01-22 05:43:29.64	41.11	17.96	-54.2	-69.2	3.8	1.49e+00	0	41	104	0	79	20949
2026-01-22 05:43:30.65	40.91	18.02	-54.2	-69.2	3.8	1.49e+00	0	41	104	0	79	20944
2026-01-22 05:43:31.66	40.72	18.09	-54.2	-69.2	3.8	1.49e+00	0	41	104	0	79	20890
2026-01-22 05:43:32.67	40.52	18.16	-54.2	-69.2	3.8	1.49e+00	0	41	104	0	79	20991
2026-01-22 05:43:33.67	40.33	18.23	-54.2	-69.2	3.8	1.49e+00	0	41	104	0	79	20873
2026-01-22 05:43:34.68	40.13	18.30	-54.2	-69.2	3.8	1.49e+00	0	41	104	0	79	20911
2026-01-22 05:43:35.69	39.93	18.37	-54.2	-69.2	3.8	1.49e+00	0	41	104	0	79	20981
2026-01-22 05:43:36.70	39.73	18.43	-54.2	-69.2	3.8	1.49e+00	0	41	104	0	79	20893
2026-01-22 05:43:37.71	39.53	18.50	-54.2	-69.2	3.8	1.49e+00	0	41	104	0	79	20941
2026-01-22 05:43:38.72	39.33	18.57	-54.2	-69.2	3.8	1.49e+00	0	40	104	0	79	20919
2026-01-22 05:43:39.73	39.13	18.64	-54.2	-69.2	3.8	1.49e+00	0	41	104	0	79	20907
2026-01-22 05:43:40.74	38.92	18.70	-54.2	-69.2	3.8	1.49e+00	0	41	104	0	79	20872
2026-01-22 05:43:41.75	38.72	18.77	-54.2	-69.2	3.8	1.49e+00	0	41	104	0	79	20939
2026-01-22 05:43:42.75	38.51	18.84	-54.2	-69.2	3.8	1.49e+00	0	41	104	0	79	20906
2026-01-22 05:43:43.76	38.31	18.90	-54.2	-69.2	3.8	1.49e+00	0	41	104	0	79	20943
2026-01-22 05:43:44.77	38.10	18.97	-54.2	-69.2	3.8	1.49e+00	0	41	104	0	79	20923
2026-01-22 05:43:45.78	37.89	19.04	-54.2	-69.2	3.8	1.49e+00	0	41	104	0	79	20912
2026-01-22 05:43:46.79	37.68	19.10	-54.2	-69.2	3.8	1.49e+00	0	40	104	0	79	20924
2026-01-22 05:43:47.79	37.48	19.17	-54.2	-69.2	3.8	1.49e+00	0	41	104	0	79	20948
2026-01-22 05:43:48.80	37.27	19.23	-54.2	-69.2	3.8	1.49e+00	0	41	104	0	79	20920
2026-01-22 05:43:49.81	37.05	19.30	-54.2	-69.2	3.8	1.49e+00	0	41	104	0	79	20865
2026-01-22 05:43:50.82	36.84	19.36	-54.2	-69.2	3.8	1.49e+00	0	41	104	0	79	20933
2026-01-22 05:43:51.83	36.63	19.43	-54.2	-69.2	3.8	1.49e+00	0	41	104	0	79	20852
2026-01-22 05:43:52.84	36.41	19.49	-54.2	-69.2	3.8	1.49e+00	0	41	104	0	79	20925
2026-01-22 05:43:53.85	36.20	19.56	-54.2	-69.2	3.8	1.49e+00	0	41	104	0	79	20958
2026-01-22 05:43:54.86	35.98	19.62	-54.2	-69.2	3.8	1.49e+00	0	41	104	0	79	20908
2026-01-22 05:43:55.87	35.76	19.68	-54.2	-69.2	3.8	1.49e+00	0	41	104	0	79	20862
2026-01-22 05:43:56.87	35.55	19.75	-54.2	-69.2	3.8	1.49e+00	0	41	104	0	79	20951
2026-01-22 05:43:57.88	35.33	19.81	-54.2	-69.2	3.8	1.49e+00	0	41	104	0	79	20933
2026-01-22 05:43:58.89	35.11	19.87	-54.2	-69.2	3.8	1.49e+00	0	41	104	0	79	20879
2026-01-22 05:43:59.90	34.89	19.93	-54.2	-69.2	3.8	1.49e+00	0	40	104	0	79	20902
2026-01-22 05:44:00.91	34.67	20.00	-54.2	-69.2	3.8	1.49e+00	0	41	104	0	79	20933
2026-01-22 05:44:01.92	34.44	20.06	-54.2	-69.2	3.8	1.49e+00	0	41	104	0	79	20891
2026-01-22 05:44:02.93	34.22	20.12	-54.2	-69.2	3.8	1.49e+00	0	41	104	0	79	20841
2026-01-22 05:44:03.93	34.00	20.18	-54.2	-69.2	3.8	1.49e+00	0	41	104	0	79	20860
2026-01-22 05:44:04.94	33.77	20.24	-54.2	-69.2	3.8	1.49e+00	0	41	104	0	79	20907
2026-01-22 05:44:05.95	33.55	20.30	-54.2	-69.2	3.8	1.49e+00	0	41	104	0	79	20910
2026-01-22 05:44:06.96	33.32	20.36	-54.2	-69.2	3.8	1.49e+00	0	41	104	0	79	20913
2026-01-22 05:44:07.97	33.09	20.42	-54.2	-69.2	3.8	1.49e+00	0	41	104	0	79	20956
2026-01-22 05:44:08.98	32.86	20.48	-54.2	-69.3	3.8	1.49e+00	0	41	104	0	79	21030
2026-01-22 05:44:09.99	32.63	20.54	-54.2	-69.2	3.8	1.49e+00	0	41	104	0	79	20909
2026-01-22 05:44:10.99	32.40	20.60	-54.2	-69.2	3.8	1.49e+00	0	41	104	0	79	20944
2026-01-22 05:44:12.00	32.17	20.66	-54.2	-69.2	3.8	1.49e+00	0	41	104	0	79	20962
2026-01-22 05:44:13.01	31.94	20.72	-54.2	-69.2	3.8	1.49e+00	0	41	104	0	79	20904
2026-01-22 05:44:14.02	31.71	20.77	-54.2	-69.2	3.8	1.49e+00	0	41	104	0	79	20861
2026-01-22 05:44:15.03	31.47	20.83	-54.2	-69.2	3.8	1.49e+00	0	41	104	0	79	20861
2026-01-22 05:44:16.04	31.24	20.89	-54.2	-69.2	3.8	1.49e+00	0	41	104	0	79	20853
2026-01-22 05:44:17.05	31.00	20.95	-54.2	-69.2	3.8	1.49e+00	0	41	104	0	79	20818
2026-01-22 05:44:18.05	30.77	21.00	-54.2	-69.2	3.8	1.49e+00	0	40	104	0	79	20855
2026-01-22 05:44:19.06	30.53	21.06	-54.2	-69.2	3.8	1.49e+00	0	40	104	0	79	20838
2026-01-22 05:44:20.07	30.29	21.11	-54.2	-69.2	3.8	1.49e+00	0	41	104	0	79	20838
2026-01-22 05:44:21.08	30.05	21.17	-54.2	-69.2	3.8	1.49e+00	0	41	104	0	79	20851
2026-01-22 05:44:22.09	29.81	21.22	-54.2	-69.2	3.8	1.49e+00	0	40	104	0	79	20801
2026-01-22 05:44:23.10	29.57	21.28	-54.2	-69.2	3.8	1.49e+00	0	41	104	0	79	20794
2026-01-22 05:44:24.11	29.33	21.33	-54.2	-69.2	3.8	1.49e+00	0	40	104	0	79	20905
2026-01-22 05:44:25.11	29.09	21.38	-54.2	-69.2	3.8	1.49e+00	0	41	104	0	79	20809
2026-01-22 05:44:26.12	28.84	21.44	-54.2	-69.2	3.8	1.49e+00	0	41	104	0	79	20850
2026-01-22 05:44:27.13	28.60	21.49	-54.2	-69.2	3.8	1.49e+00	0	41	104	0	79	20863
2026-01-22 05:44:28.14	28.35	21.54	-54.1	-69.2	3.8	1.49e+00	0	41	104	0	79	20815
2026-01-22 05:44:29.15	28.11	21.59	-54.1	-69.2	3.8	1.49e+00	0	41	104	0	79	20800
2026-01-22 05:44:30.16	27.86	21.65	-54.1	-69.2	3.8	1.49e+00	0	41	104	0	79	20793
2026-01-22 05:44:31.17	27.61	21.70	-54.1	-69.2	3.8	1.49e+00	0	41	104	0	79	20798
2026-01-22 05:44:32.17	27.36	21.75	-54.1	-69.2	3.8	1.49e+00	0	41	104	0	79	20802
2026-01-22 05:44:33.18	27.11	21.80	-54.1	-69.1	3.8	1.49e+00	0	41	104	0	79	20750
2026-01-22 05:44:34.19	26.86	21.84	-54.1	-69.1	3.8	1.49e+00	0	41	104	0	79	20745
2026-01-22 05:44:35.20	26.61	21.89	-54.1	-69.1	3.8	1.49e+00	0	41	104	0	79	20776
2026-01-22 05:44:36.21	26.36	21.94	-54.1	-69.1	3.8	1.49e+00	0	41	104	0	79	20740
2026-01-22 05:44:37.21	26.11	21.99	-54.1	-69.2	3.8	1.49e+00	0	41	104	0	79	20777
2026-01-22 05:44:38.22	25.86	22.04	-54.1	-69.1	3.8	1.49e+00	0	41	104	0	79	20755
2026-01-22 05:44:39.23	25.60	22.08	-54.1	-69.2	3.8	1.49e+00	0	41	104	0	79	20778
2026-01-22 05:44:40.24	25.35	22.13	-54.1	-69.1	3.8	1.49e+00	0	41	104	0	79	20770
2026-01-22 05:44:41.25	25.09	22.18	-54.1	-69.1	3.8	1.49e+00	0	41	104	0	79	20758
2026-01-22 05:44:42.26	24.84	22.22	-54.1	-69.1	3.8	1.49e+00	0	41	104	0	79	20746
2026-01-22 05:44:43.27	24.58	22.27	-54.1	-69.1	3.8	1.49e+00	0	41	104	0	79	20725
2026-01-22 05:44:44.28	24.32	22.31	-54.1	-69.1	3.8	1.49e+00	0	41	104	0	79	20703
2026-01-22 05:44:45.29	24.06	22.35	-54.1	-69.1	3.8	1.49e+00	0	41	104	0	79	20767
2026-01-22 05:44:46.30	23.80	22.40	-54.1	-69.1	3.8	1.49e+00	0	41	104	0	79	20711
2026-01-22 05:44:47.31	23.54	22.44	-54.1	-69.1	3.8	1.49e+00	0	41	104	0	79	20753
2026-01-22 05:44:48.31	23.28	22.48	-54.1	-69.1	3.8	1.49e+00	0	41	104	0	79	20694
2026-01-22 05:44:49.32	23.02	22.52	-54.1	-69.1	3.8	1.49e+00	0	41	104	0	79	20705
2026-01-22 05:44:50.33	22.76	22.56	-54.1	-69.1	3.8	1.49e+00	0	41	104	0	79	20723
2026-01-22 05:44:51.34	22.50	22.60	-54.1	-69.1	3.8	1.49e+00	0	41	104	0	79	20774
2026-01-22 05:44:52.35	22.23	22.64	-54.1	-69.2	3.8	1.49e+00	0	41	104	0	79	20798
2026-01-22 05:44:53.36	21.97	22.68	-54.1	-69.1	3.8	1.49e+00	0	41	104	0	79	20741
2026-01-22 05:44:54.36	21.71	22.72	-54.1	-69.2	3.8	1.49e+00	0	41	104	0	79	20793
2026-01-22 05:44:55.37	21.44	22.76	-54.1	-69.1	3.8	1.49e+00	0	41	104	0	79	20758
2026-01-22 05:44:56.38	21.17	22.79	-54.2	-69.2	3.8	1.49e+00	0	41	104	0	79	20790
2026-01-22 05:44:57.39	20.91	22.83	-54.1	-69.2	3.8	1.49e+00	0	41	104	0	79	20786
2026-01-22 05:44:58.39	20.64	22.87	-54.1	-69.1	3.8	1.49e+00	0	41	104	0	79	20768
2026-01-22 05:44:59.40	20.37	22.90	-54.1	-69.2	3.8	1.49e+00	0	41	104	0	79	20815
2026-01-22 05:45:00.41	20.10	22.94	-54.1	-69.2	3.8	1.49e+00	0	41	104	0	79	20821
2026-01-22 05:45:01.42	19.84	22.97	-54.1	-69.2	3.8	1.49e+00	0	41	104	0	79	20803
2026-01-22 05:45:02.43	19.57	23.00	-54.1	-69.2	3.8	1.49e+00	0	41	104	0	79	20804
2026-01-22 05:45:03.44	19.29	23.04	-54.1	-69.1	3.8	1.49e+00	0	41	104	0	79	20749
2026-01-22 05:45:04.45	19.02	23.07	-54.1	-69.1	3.8	1.49e+00	0	41	104	0	79	20728
2026-01-22 05:45:05.45	18.75	23.10	-54.1	-69.1	3.8	1.49e+00	0	41	104	0	79	20734
2026-01-22 05:45:06.46	18.48	23.13	-54.1	-69.2	3.8	1.49e+00	0	41	104	0	79	20787
2026-01-22 05:45:07.47	18.21	23.16	-54.1	-69.1	3.8	1.49e+00	0	41	104	0	79	20751
2026-01-22 05:45:08.48	17.94	23.19	-54.1	-69.2	3.8	1.49e+00	0	41	104	0	79	20805
2026-01-22 05:45:09.49	17.66	23.22	-54.1	-69.2	3.8	1.49e+00	0	41	104	0	79	20795
2026-01-22 05:45:10.50	17.39	23.25	-54.1	-69.2	3.8	1.49e+00	0	41	104	0	79	20780
2026-01-22 05:45:11.51	17.11	23.27	-54.1	-69.1	3.8	1.49e+00	0	41	104	0	79	20762
2026-01-22 05:45:12.51	16.84	23.30	-54.1	-69.2	3.8	1.49e+00	0	41	104	0	79	20801
2026-01-22 05:45:13.52	16.56	23.33	-54.1	-69.2	3.8	1.49e+00	0	41	104	0	79	20777
2026-01-22 05:45:14.53	16.29	23.35	-54.1	-69.1	3.8	1.49e+00	0	41	104	0	79	20754
2026-01-22 05:45:15.54	16.01	23.38	-54.1	-69.1	3.8	1.49e+00	0	41	104	0	79	20763
2026-01-22 05:45:16.55	15.73	23.40	-54.1	-69.1	3.8	1.49e+00	0	41	104	0	79	20754
2026-01-22 05:45:17.55	15.46	23.42	-54.1	-69.1	3.8	1.49e+00	0	41	104	0	79	20714
2026-01-22 05:45:18.56	15.18	23.45	-54.1	-69.1	3.8	1.49e+00	0	41	104	0	79	20765
2026-01-22 05:45:19.57	14.90	23.47	-54.1	-69.1	3.8	1.49e+00	0	41	104	0	79	20714
2026-01-22 05:45:20.58	14.63	23.49	-54.1	-69.2	3.8	1.49e+00	0	41	104	0	79	20797
2026-01-22 05:45:21.58	14.35	23.51	-54.1	-69.2	3.8	1.49e+00	0	40	104	0	79	20790
2026-01-22 05:45:22.59	14.07	23.53	-54.1	-69.1	3.8	1.49e+00	0	41	104	0	79	20724
2026-01-22 05:45:23.60	13.79	23.55	-54.1	-69.1	3.8	1.49e+00	0	41	104	0	79	20735
2026-01-22 05:45:24.61	13.51	23.57	-54.1	-69.1	3.8	1.49e+00	0	41	104	0	79	20722
2026-01-22 05:45:25.62	13.23	23.58	-54.1	-69.1	3.8	1.49e+00	0	41	104	0	79	20722
2026-01-22 05:45:26.63	12.95	23.60	-54.1	-69.1	3.8	1.49e+00	0	41	104	0	79	20729
2026-01-22 05:45:27.63	12.67	23.62	-54.1	-69.1	3.8	1.49e+00	0	41	104	0	79	20709
2026-01-22 05:45:28.64	12.39	23.63	-54.1	-69.1	3.8	1.49e+00	0	40	104	0	79	20744
2026-01-22 05:45:29.65	12.11	23.65	-54.1	-69.1	3.8	1.49e+00	0	41	104	0	79	20714
2026-01-22 05:45:30.66	11.83	23.66	-54.1	-69.2	3.8	1.49e+00	0	41	104	0	79	20778
2026-01-22 05:45:31.67	11.54	23.67	-54.1	-69.1	3.8	1.49e+00	0	41	104	0	79	20680
2026-01-22 05:45:32.67	11.26	23.69	-54.1	-69.1	3.8	1.49e+00	0	40	104	0	79	20716
2026-01-22 05:45:33.68	10.98	23.70	-54.1	-69.1	3.8	1.49e+00	0	41	104	0	79	20752
2026-01-22 05:45:34.69	10.70	23.71	-54.1	-69.1	3.8	1.49e+00	0	41	104	0	79	20708
2026-01-22 05:45:35.69	10.42	23.72	-54.1	-69.2	3.8	1.49e+00	0	41	104	0	79	20780
2026-01-22 05:45:36.70	10.14	23.73	-54.1	-69.1	3.8	1.49e+00	0	41	104	0	79	20770
2026-01-22 05:45:37.71	9.85	23.74	-54.1	-69.1	3.8	1.49e+00	0	41	104	0	79	20709
2026-01-22 05:45:38.72	9.57	23.74	-54.1	-69.1	3.8	1.49e+00	0	41	104	0	79	20715
2026-01-22 05:45:39.73	9.28	23.75	-54.1	-69.1	3.8	1.49e+00	0	41	104	0	79	20637
2026-01-22 05:45:40.73	9.00	23.76	-54.1	-69.1	3.8	1.49e+00	0	41	104	0	79	20763
2026-01-22 05:45:41.74	8.72	23.76	-54.1	-69.1	3.8	1.49e+00	0	41	104	0	79	20687
2026-01-22 05:45:42.75	8.44	23.77	-54.1	-69.1	3.8	1.49e+00	0	40	104	0	79	20734
2026-01-22 05:45:43.76	8.15	23.77	-54.1	-69.1	3.8	1.49e+00	0	41	104	0	79	20667
2026-01-22 05:45:44.77	7.87	23.78	-54.1	-69.1	3.8	1.49e+00	0	41	104	0	79	20748
2026-01-22 05:45:45.77	7.59	23.78	-54.1	-69.2	3.8	1.49e+00	0	41	104	0	79	20779
2026-01-22 05:45:46.78	7.30	23.78	-54.1	-69.1	3.8	1.49e+00	0	41	104	0	79	20709
2026-01-22 05:45:47.79	7.02	23.78	-54.1	-69.1	3.8	1.49e+00	0	41	104	0	79	20731
2026-01-22 05:45:48.80	6.73	23.78	-54.1	-69.1	3.8	1.49e+00	0	41	104	0	79	20749
2026-01-22 05:45:49.81	6.45	23.78	-54.1	-69.1	3.8	1.49e+00	0	41	104	0	79	20709
2026-01-22 05:45:50.81	6.17	23.78	-54.1	-69.1	3.8	1.49e+00	0	41	104	0	79	20735
2026-01-22 05:45:51.82	5.89	23.78	-54.1	-69.1	3.8	1.49e+00	0	41	104	0	79	20724
2026-01-22 05:45:52.83	5.60	23.77	-54.1	-69.1	3.8	1.49e+00	0	41	104	0	79	20679
2026-01-22 05:45:53.84	5.32	23.77	-54.1	-69.1	3.8	1.49e+00	0	41	104	0	79	20719
2026-01-22 05:45:54.85	5.03	23.77	-54.1	-69.1	3.8	1.49e+00	0	41	104	0	79	20706
2026-01-22 05:45:55.85	4.75	23.76	-54.1	-69.1	3.8	1.49e+00	0	41	104	0	79	20693
2026-01-22 05:45:56.86	4.47	23.76	-54.1	-69.1	3.8	1.49e+00	0	41	104	0	79	20692
2026-01-22 05:45:57.87	4.19	23.75	-54.1	-69.1	3.8	1.49e+00	0	41	104	0	79	20696
2026-01-22 05:45:58.88	3.90	23.74	-54.1	-69.1	3.8	1.49e+00	0	41	104	0	79	20663
2026-01-22 05:45:59.89	3.62	23.73	-54.1	-69.1	3.8	1.49e+00	0	41	104	0	79	20731
2026-01-22 05:46:00.89	3.34	23.72	-54.1	-69.1	3.8	1.49e+00	0	41	104	0	79	20679
2026-01-22 05:46:01.90	3.05	23.72	-54.1	-69.1	3.8	1.49e+00	0	41	104	0	79	20701
2026-01-22 05:46:02.91	2.77	23.70	-54.1	-69.1	3.8	1.49e+00	0	41	104	0	79	20731
2026-01-22 05:46:03.92	2.49	23.69	-54.1	-69.1	3.8	1.49e+00	0	41	104	0	79	20717
2026-01-22 05:46:04.93	2.21	23.68	-54.1	-69.1	3.8	1.49e+00	0	41	104	0	79	20729
2026-01-22 05:46:05.94	1.92	23.67	-54.1	-69.1	3.8	1.49e+00	0	41	104	0	79	20685
2026-01-22 05:46:06.95	1.64	23.66	-54.1	-69.1	3.8	1.49e+00	0	41	104	0	79	20685
2026-01-22 05:46:07.96	1.36	23.64	-54.1	-69.1	3.8	1.49e+00	0	41	104	0	79	20697
2026-01-22 05:46:08.97	1.08	23.63	-54.1	-69.1	3.8	1.49e+00	0	41	104	0	79	20704
2026-01-22 05:46:09.97	0.80	23.61	-54.1	-69.1	3.8	1.49e+00	0	41	104	0	79	20732
2026-01-22 05:46:10.98	0.52	23.60	-54.1	-69.1	3.8	1.49e+00	0	41	104	0	79	20706
2026-01-22 05:46:11.99	0.24	23.58	-54.1	-69.1	3.8	1.49e+00	0	41	104	0	79	20718
2026-01-22 05:46:13.00	359.96	23.56	-54.1	-69.1	3.8	1.49e+00	0	41	104	0	79	20716
2026-01-22 05:46:14.01	359.68	23.54	-54.1	-69.1	3.8	1.49e+00	0	41	104	0	79	20742
2026-01-22 05:46:15.02	359.40	23.52	-54.1	-69.1	3.8	1.49e+00	0	41	104	0	79	20670
2026-01-22 05:46:16.03	359.12	23.50	-54.1	-69.1	3.8	1.49e+00	0	41	104	0	79	20722
2026-01-22 05:46:17.04	358.84	23.48	-54.1	-69.1	3.8	1.49e+00	0	41	104	0	79	20643
2026-01-22 05:46:18.04	358.57	23.46	-54.1	-69.1	3.8	1.49e+00	0	41	104	0	79	20743
2026-01-22 05:46:19.05	358.29	23.44	-54.1	-69.1	3.8	1.49e+00	0	41	104	0	79	20672
2026-01-22 05:46:20.06	358.01	23.42	-54.1	-69.1	3.8	1.49e+00	0	40	104	0	79	20668
2026-01-22 05:46:21.07	357.73	23.39	-54.1	-69.1	3.8	1.49e+00	0	41	104	0	79	20717
2026-01-22 05:46:22.08	357.46	23.37	-54.1	-69.1	3.8	1.49e+00	0	41	104	0	79	20692
2026-01-22 05:46:23.08	357.18	23.34	-54.1	-69.1	3.8	1.49e+00	0	41	104	0	79	20707
2026-01-22 05:46:24.09	356.91	23.32	-54.1	-69.1	3.8	1.49e+00	0	41	104	0	79	20686
2026-01-22 05:46:25.10	356.63	23.29	-54.1	-69.1	3.8	1.49e+00	0	41	104	0	79	20725
2026-01-22 05:46:26.11	356.36	23.27	-54.1	-69.1	3.8	1.49e+00	0	41	104	0	79	20648
2026-01-22 05:46:27.12	356.08	23.24	-54.1	-69.1	3.8	1.49e+00	0	40	104	0	79	20703
2026-01-22 05:46:28.12	355.81	23.21	-54.1	-69.1	3.8	1.49e+00	0	41	104	0	79	20655
2026-01-22 05:46:29.13	355.54	23.18	-54.1	-69.1	3.8	1.49e+00	0	41	104	0	79	20739
2026-01-22 05:46:30.13	355.27	23.15	-54.1	-69.1	3.8	1.49e+00	0	41	104	0	79	20680
2026-01-22 05:46:31.15	354.99	23.12	-54.1	-69.1	3.8	1.49e+00	0	41	104	0	79	20705
2026-01-22 05:46:32.15	354.72	23.09	-54.1	-69.1	3.8	1.49e+00	0	41	104	0	79	20665
2026-01-22 05:46:33.16	354.45	23.06	-54.1	-69.1	3.8	1.49e+00	0	41	104	0	79	20677
2026-01-22 05:46:34.17	354.18	23.03	-54.1	-69.1	3.8	1.49e+00	0	41	104	0	79	20645
2026-01-22 05:46:35.17	353.91	22.99	-54.1	-69.1	3.8	1.49e+00	0	41	104	0	79	20687
2026-01-22 05:46:36.18	353.64	22.96	-54.1	-69.1	3.8	1.49e+00	0	41	104	0	79	20662
2026-01-22 05:46:37.19	353.37	22.93	-54.1	-69.1	3.8	1.49e+00	0	41	104	0	79	20702
2026-01-22 05:46:38.20	353.10	22.89	-54.1	-69.1	3.8	1.49e+00	0	41	104	0	79	20679
2026-01-22 05:46:39.21	352.84	22.85	-54.1	-69.1	3.8	1.49e+00	0	41	104	0	79	20655
2026-01-22 05:46:40.21	352.57	22.82	-54.1	-69.1	3.8	1.49e+00	0	41	104	0	79	20626
2026-01-22 05:46:41.22	352.30	22.78	-54.1	-69.1	3.8	1.49e+00	0	41	104	0	79	20698
2026-01-22 05:46:42.23	352.04	22.75	-54.1	-69.1	3.8	1.49e+00	0	41	104	0	79	20675
2026-01-22 05:46:43.24	351.77	22.71	-54.1	-69.1	3.8	1.49e+00	0	41	104	0	79	20702
2026-01-22 05:46:44.25	351.51	22.67	-54.1	-69.1	3.8	1.49e+00	0	41	104	0	79	20660
2026-01-22 05:46:45.26	351.24	22.63	-54.1	-69.1	3.8	1.49e+00	0	41	104	0	79	20736
2026-01-22 05:46:46.26	350.98	22.59	-54.1	-69.1	3.8	1.49e+00	0	41	104	0	79	20677
2026-01-22 05:46:47.28	350.72	22.55	-54.1	-69.1	3.8	1.49e+00	0	41	104	0	79	20682
2026-01-22 05:46:48.28	350.46	22.51	-54.1	-69.1	3.8	1.49e+00	0	41	104	0	79	20697
2026-01-22 05:46:49.29	350.20	22.47	-54.1	-69.1	3.8	1.49e+00	0	41	104	0	79	20650
2026-01-22 05:46:50.30	349.94	22.43	-54.1	-69.1	3.8	1.49e+00	0	41	104	0	79	20733
2026-01-22 05:46:51.31	349.68	22.38	-54.1	-69.1	3.8	1.49e+00	0	41	104	0	79	20698
2026-01-22 05:46:52.32	349.42	22.34	-54.1	-69.1	3.8	1.49e+00	0	41	104	0	79	20695
2026-01-22 05:46:53.33	349.16	22.30	-54.1	-69.1	3.8	1.49e+00	0	41	104	0	79	20718
2026-01-22 05:46:54.34	348.90	22.25	-54.1	-69.1	3.8	1.49e+00	0	41	104	0	79	20689
2026-01-22 05:46:55.35	348.65	22.21	-54.1	-69.1	3.8	1.49e+00	0	41	104	0	79	20694
2026-01-22 05:46:56.36	348.39	22.16	-54.1	-69.1	3.8	1.49e+00	0	41	104	0	79	20627
2026-01-22 05:46:57.37	348.13	22.12	-54.1	-69.1	3.8	1.49e+00	0	41	104	0	79	20644
2026-01-22 05:46:58.37	347.88	22.07	-54.1	-69.1	3.8	1.49e+00	0	41	104	0	79	20686
2026-01-22 05:46:59.38	347.63	22.02	-54.1	-69.1	3.8	1.49e+00	0	41	104	0	79	20634
2026-01-22 05:47:00.39	347.37	21.98	-54.1	-69.1	3.8	1.49e+00	0	41	104	0	79	20629
2026-01-22 05:47:01.40	347.12	21.93	-54.1	-69.1	3.8	1.49e+00	0	41	104	0	79	20666
2026-01-22 05:47:02.41	346.87	21.88	-54.1	-69.1	3.8	1.49e+00	0	41	104	0	79	20611
2026-01-22 05:47:03.42	346.62	21.83	-54.1	-69.1	3.8	1.49e+00	0	41	104	0	79	20616
2026-01-22 05:47:04.43	346.37	21.78	-54.1	-69.1	3.8	1.49e+00	0	41	104	0	79	20640
2026-01-22 05:47:05.43	346.12	21.73	-54.1	-69.1	3.8	1.49e+00	0	41	104	0	79	20666
2026-01-22 05:47:06.44	345.87	21.68	-54.1	-69.1	3.8	1.49e+00	0	41	104	0	79	20615
2026-01-22 05:47:07.45	345.63	21.63	-54.1	-69.1	3.8	1.49e+00	0	41	104	0	79	20636
2026-01-22 05:47:08.46	345.38	21.58	-54.1	-69.1	3.8	1.49e+00	0	41	104	0	79	20630
2026-01-22 05:47:09.47	345.13	21.53	-54.1	-69.1	3.8	1.49e+00	0	41	104	0	79	20674
2026-01-22 05:47:10.47	344.89	21.48	-54.1	-69.1	3.8	1.49e+00	0	40	104	0	79	20637
2026-01-22 05:47:11.48	344.65	21.42	-54.1	-69.1	3.8	1.49e+00	0	41	104	0	79	20610
2026-01-22 05:47:12.49	344.40	21.37	-54.1	-69.1	3.8	1.49e+00	0	41	104	0	79	20689
2026-01-22 05:47:13.50	344.16	21.32	-54.1	-69.1	3.8	1.49e+00	0	41	104	0	79	20617
2026-01-22 05:47:14.50	343.92	21.26	-54.1	-69.1	3.8	1.49e+00	0	41	104	0	79	20586
2026-01-22 05:47:15.51	343.68	21.21	-54.1	-69.1	3.8	1.49e+00	0	41	104	0	79	20622
2026-01-22 05:47:16.52	343.44	21.15	-54.1	-69.1	3.8	1.49e+00	0	41	104	0	79	20560
2026-01-22 05:47:17.53	343.20	21.10	-54.1	-69.1	3.8	1.49e+00	0	41	104	0	79	20620
2026-01-22 05:47:18.54	342.96	21.04	-54.1	-69.1	3.8	1.49e+00	0	41	104	0	79	20606
2026-01-22 05:47:19.54	342.73	20.99	-54.1	-69.1	3.8	1.49e+00	0	41	104	0	79	20671
2026-01-22 05:47:20.55	342.49	20.93	-54.1	-69.1	3.8	1.49e+00	0	41	104	0	79	20581
2026-01-22 05:47:21.56	342.26	20.87	-54.1	-69.1	3.8	1.49e+00	0	41	104	0	79	20560
2026-01-22 05:47:22.57	342.02	20.82	-54.1	-69.1	3.8	1.49e+00	0	41	104	0	79	20633
2026-01-22 05:47:23.58	341.79	20.76	-54.1	-69.1	3.8	1.49e+00	0	41	104	0	79	20622
2026-01-22 05:47:24.59	341.56	20.70	-54.0	-69.1	3.8	1.49e+00	0	41	104	0	79	20606
2026-01-22 05:47:25.60	341.32	20.64	-54.0	-69.1	3.8	1.49e+00	0	41	104	0	79	20587
2026-01-22 05:47:26.61	341.09	20.58	-54.1	-69.1	3.8	1.49e+00	0	41	104	0	79	20586
2026-01-22 05:47:27.61	340.86	20.53	-54.0	-69.1	3.8	1.49e+00	0	41	104	0	79	20557
2026-01-22 05:47:28.62	340.63	20.47	-54.0	-69.1	3.8	1.49e+00	0	41	104	0	79	20574
2026-01-22 05:47:29.63	340.41	20.41	-54.0	-69.1	3.8	1.49e+00	0	41	104	0	79	20561
2026-01-22 05:47:30.64	340.18	20.35	-54.0	-69.1	3.8	1.49e+00	0	41	104	0	79	20601
2026-01-22 05:47:31.65	339.95	20.29	-54.0	-69.1	3.8	1.49e+00	0	41	104	0	79	20592
2026-01-22 05:47:32.65	339.73	20.23	-54.0	-69.1	3.8	1.49e+00	0	41	104	0	79	20617
2026-01-22 05:47:33.66	339.50	20.16	-54.1	-69.1	3.8	1.49e+00	0	41	104	0	79	20609
2026-01-22 05:47:34.67	339.28	20.10	-54.0	-69.1	3.8	1.49e+00	0	41	104	0	79	20599
2026-01-22 05:47:35.68	339.06	20.04	-54.0	-69.1	3.8	1.49e+00	0	41	104	0	79	20590
2026-01-22 05:47:36.69	338.83	19.98	-54.1	-69.1	3.8	1.49e+00	0	41	104	0	79	20617
2026-01-22 05:47:37.70	338.61	19.92	-54.0	-69.1	3.8	1.49e+00	0	41	104	0	79	20593
2026-01-22 05:47:38.71	338.39	19.85	-54.1	-69.1	3.8	1.49e+00	0	41	104	0	79	20573
2026-01-22 05:47:39.72	338.17	19.79	-54.1	-69.1	3.8	1.49e+00	0	41	104	0	79	20618
2026-01-22 05:47:40.73	337.95	19.73	-54.0	-69.1	3.8	1.49e+00	0	41	104	0	79	20593
2026-01-22 05:47:41.73	337.74	19.67	-54.0	-69.1	3.8	1.49e+00	0	41	104	0	79	20596
2026-01-22 05:47:42.74	337.52	19.60	-54.0	-69.1	3.8	1.49e+00	0	41	104	0	79	20573
2026-01-22 05:47:43.75	337.31	19.54	-54.0	-69.1	3.8	1.49e+00	0	41	104	0	79	20549
2026-01-22 05:47:44.76	337.09	19.47	-54.1	-69.1	3.8	1.49e+00	0	41	104	0	79	20578
2026-01-22 05:47:45.77	336.88	19.41	-54.1	-69.1	3.8	1.49e+00	0	41	104	0	79	20607
2026-01-22 05:47:46.77	336.67	19.35	-54.1	-69.1	3.8	1.49e+00	0	41	104	0	79	20591
2026-01-22 05:47:47.78	336.45	19.28	-54.0	-69.1	3.8	1.49e+00	0	41	104	0	79	20621
2026-01-22 05:47:48.79	336.24	19.22	-54.1	-69.1	3.8	1.49e+00	0	41	104	0	79	20568
2026-01-22 05:47:49.80	336.03	19.15	-54.1	-69.0	3.8	1.49e+00	0	41	104	0	79	20516
2026-01-22 05:47:50.81	335.82	19.08	-54.0	-69.1	3.8	1.49e+00	0	41	104	0	79	20542
2026-01-22 05:47:51.82	335.61	19.02	-54.0	-69.1	3.8	1.49e+00	0	41	104	0	79	20597
2026-01-22 05:47:52.83	335.41	18.95	-54.0	-69.1	3.8	1.49e+00	0	41	104	0	79	20592
2026-01-22 05:47:53.83	335.20	18.89	-54.0	-69.1	3.8	1.49e+00	0	41	104	0	79	20560
2026-01-22 05:47:54.84	335.00	18.82	-54.0	-69.1	3.8	1.49e+00	0	41	104	0	79	20590
2026-01-22 05:47:55.85	334.79	18.75	-54.0	-69.1	3.8	1.49e+00	0	41	104	0	79	20604
2026-01-22 05:47:56.86	334.59	18.69	-54.0	-69.0	3.8	1.49e+00	0	41	104	0	79	20538
2026-01-22 05:47:57.87	334.39	18.62	-54.0	-69.1	3.8	1.49e+00	0	40	104	0	79	20568
2026-01-22 05:47:58.88	334.18	18.55	-54.0	-69.0	3.8	1.49e+00	0	41	104	0	79	20519
2026-01-22 05:47:59.89	333.98	18.48	-54.0	-69.0	3.8	1.49e+00	0	41	104	0	79	20536
2026-01-22 05:48:00.90	333.78	18.42	-54.0	-69.0	3.8	1.49e+00	0	40	104	0	79	20530
2026-01-22 05:48:01.91	333.58	18.35	-54.0	-69.1	3.8	1.49e+00	0	41	104	0	79	20577
2026-01-22 05:48:02.91	333.39	18.28	-54.0	-69.1	3.8	1.49e+00	0	41	104	0	79	20596
2026-01-22 05:48:03.92	333.19	18.21	-54.0	-69.1	3.8	1.49e+00	0	41	104	0	79	20552
2026-01-22 05:48:04.93	332.99	18.15	-54.0	-69.1	3.8	1.49e+00	0	41	104	0	79	20645
2026-01-22 05:48:05.94	332.80	18.08	-54.0	-69.0	3.8	1.49e+00	0	41	104	0	79	20499
2026-01-22 05:48:06.95	332.60	18.01	-54.0	-69.0	3.8	1.49e+00	0	41	104	0	79	20525
2026-01-22 05:48:07.95	332.41	17.94	-54.0	-69.1	3.8	1.49e+00	0	41	104	0	79	20543
2026-01-22 05:48:08.96	332.21	17.87	-54.0	-69.1	3.8	1.49e+00	0	41	104	0	79	20552
2026-01-22 05:48:09.97	332.02	17.80	-54.0	-69.1	3.8	1.49e+00	0	41	104	0	79	20558
2026-01-22 05:48:10.98	331.83	17.73	-54.0	-69.0	3.8	1.49e+00	0	41	104	0	79	20511
2026-01-22 05:48:11.99	331.64	17.66	-54.0	-69.0	3.8	1.49e+00	0	41	104	0	79	20486
2026-01-22 05:48:13.00	331.45	17.59	-54.0	-69.0	3.8	1.49e+00	0	41	104	0	79	20517
2026-01-22 05:48:14.01	331.26	17.52	-54.0	-69.1	3.8	1.49e+00	0	41	104	0	79	20565
2026-01-22 05:48:15.01	331.08	17.45	-54.0	-69.1	3.8	1.49e+00	0	41	104	0	79	20549
2026-01-22 05:48:16.02	330.89	17.39	-54.0	-69.0	3.8	1.49e+00	0	41	104	0	79	20524
2026-01-22 05:48:17.03	330.70	17.32	-54.0	-69.1	3.8	1.49e+00	0	41	104	0	79	20555
2026-01-22 05:48:18.04	330.52	17.24	-54.0	-69.1	3.8	1.49e+00	0	41	104	0	79	20566
2026-01-22 05:48:19.05	330.33	17.17	-54.0	-69.1	3.8	1.49e+00	0	41	104	0	79	20575
2026-01-22 05:48:20.06	330.15	17.10	-54.0	-69.0	3.8	1.49e+00	0	41	104	0	79	20532
2026-01-22 05:48:21.07	329.97	17.03	-54.0	-69.1	3.8	1.49e+00	0	41	104	0	79	20575
2026-01-22 05:48:22.07	329.79	16.96	-54.0	-69.0	3.8	1.49e+00	0	41	104	0	79	20538
2026-01-22 05:48:23.08	329.61	16.89	-54.0	-69.0	3.8	1.49e+00	0	41	104	0	79	20532
2026-01-22 05:48:24.09	329.43	16.82	-54.0	-69.0	3.8	1.49e+00	0	41	104	0	79	20530
2026-01-22 05:48:25.10	329.25	16.75	-54.0	-69.1	3.8	1.49e+00	0	41	104	0	79	20567
2026-01-22 05:48:26.11	329.07	16.68	-54.0	-69.1	3.8	1.49e+00	0	41	104	0	79	20546
2026-01-22 05:48:27.12	328.89	16.61	-54.0	-69.0	3.8	1.49e+00	0	41	104	0	79	20536
2026-01-22 05:48:28.13	328.72	16.54	-54.0	-69.0	3.8	1.49e+00	0	41	104	0	79	20501
2026-01-22 05:48:29.13	328.54	16.47	-54.0	-69.0	3.8	1.49e+00	0	41	104	0	79	20536
2026-01-22 05:48:30.14	328.37	16.40	-54.0	-69.1	3.8	1.49e+00	0	41	104	0	79	20554
2026-01-22 05:48:31.15	328.19	16.33	-54.0	-69.1	3.8	1.49e+00	0	41	104	0	79	20546
2026-01-22 05:48:32.16	328.02	16.26	-54.0	-69.1	3.8	1.49e+00	0	41	104	0	79	20620
2026-01-22 05:48:33.16	327.85	16.18	-54.0	-69.1	3.8	1.49e+00	0	41	104	0	79	20577
2026-01-22 05:48:34.17	327.68	16.11	-54.0	-69.0	3.8	1.49e+00	0	41	104	0	79	20508
2026-01-22 05:48:35.18	327.51	16.04	-54.0	-69.1	3.8	1.49e+00	0	41	104	0	79	20542
2026-01-22 05:48:36.19	327.34	15.97	-54.0	-69.1	3.8	1.49e+00	0	41	104	0	79	20582
2026-01-22 05:48:37.20	327.17	15.90	-54.0	-69.0	3.8	1.49e+00	0	41	104	0	79	20515
2026-01-22 05:48:38.21	327.00	15.83	-54.0	-69.1	3.8	1.49e+00	0	41	104	0	79	20551
2026-01-22 05:48:39.22	326.83	15.76	-54.0	-69.1	3.8	1.49e+00	0	41	104	0	79	20570
2026-01-22 05:48:40.23	326.66	15.68	-54.0	-69.1	3.8	1.49e+00	0	41	104	0	79	20563
2026-01-22 05:48:41.24	326.50	15.61	-54.0	-69.0	3.8	1.49e+00	0	41	104	0	79	20524
2026-01-22 05:48:42.24	326.34	15.54	-54.0	-69.0	3.8	1.49e+00	0	41	104	0	79	20514
2026-01-22 05:48:43.25	326.17	15.47	-54.0	-69.0	3.8	1.49e+00	0	41	104	0	79	20489
2026-01-22 05:48:44.26	326.01	15.40	-54.0	-69.1	3.8	1.49e+00	0	41	104	0	79	20561
2026-01-22 05:48:45.27	325.84	15.33	-54.1	-69.1	3.8	1.49e+00	0	41	104	0	79	20617
2026-01-22 05:48:46.28	325.68	15.25	-54.0	-69.1	3.8	1.49e+00	0	41	104	0	79	20569
2026-01-22 05:48:47.29	325.52	15.18	-54.0	-69.1	3.8	1.49e+00	0	41	104	0	79	20541
2026-01-22 05:48:48.30	325.36	15.11	-54.0	-69.1	3.8	1.49e+00	0	41	104	0	79	20570
2026-01-22 05:48:49.30	325.20	15.04	-54.0	-69.0	3.8	1.49e+00	0	41	104	0	79	20500
2026-01-22 05:48:50.31	325.05	14.97	-54.0	-69.1	3.8	1.49e+00	0	41	104	0	79	20593
2026-01-22 05:48:51.32	324.89	14.89	-54.0	-69.0	3.8	1.49e+00	0	41	104	0	79	20526
2026-01-22 05:48:52.33	324.73	14.82	-54.0	-69.1	3.8	1.49e+00	0	41	104	0	79	20550
2026-01-22 05:48:53.34	324.57	14.75	-54.0	-69.0	3.8	1.49e+00	0	41	104	0	79	20538
2026-01-22 05:48:54.35	324.42	14.68	-54.0	-69.0	3.8	1.49e+00	0	41	104	0	79	20534
2026-01-22 05:48:55.35	324.26	14.61	-54.0	-69.0	3.8	1.49e+00	0	41	104	0	79	20494
2026-01-22 05:48:56.36	324.11	14.54	-54.0	-69.0	3.8	1.49e+00	0	41	104	0	79	20513
2026-01-22 05:48:57.37	323.96	14.46	-54.0	-69.0	3.8	1.49e+00	0	41	104	0	79	20505
2026-01-22 05:48:58.38	323.80	14.39	-54.0	-69.0	3.8	1.49e+00	0	41	104	0	79	20472
2026-01-22 05:48:59.38	323.65	14.32	-54.0	-69.0	3.8	1.49e+00	0	41	104	0	79	20492
2026-01-22 05:49:00.39	323.50	14.25	-54.0	-69.0	3.8	1.49e+00	0	41	104	0	79	20479
2026-01-22 05:49:01.40	323.35	14.18	-54.0	-69.0	3.8	1.49e+00	0	41	104	0	79	20500
2026-01-22 05:49:02.41	323.20	14.10	-54.0	-69.0	3.8	1.49e+00	0	41	104	0	79	20501
2026-01-22 05:49:03.42	323.05	14.03	-54.0	-69.0	3.8	1.49e+00	0	41	104	0	79	20523
2026-01-22 05:49:04.43	322.91	13.96	-54.0	-69.0	3.8	1.49e+00	0	41	104	0	79	20527
2026-01-22 05:49:05.43	322.76	13.89	-54.0	-69.0	3.8	1.49e+00	0	41	104	0	79	20486
2026-01-22 05:49:06.44	322.61	13.82	-54.0	-69.0	3.8	1.49e+00	0	41	104	0	79	20489
2026-01-22 05:49:07.45	322.47	13.75	-54.0	-69.0	3.8	1.49e+00	0	41	104	0	79	20531
2026-01-22 05:49:08.46	322.32	13.67	-54.0	-69.0	3.8	1.49e+00	0	41	104	0	79	20433
2026-01-22 05:49:09.46	322.18	13.60	-54.0	-69.1	3.8	1.49e+00	0	41	104	0	79	20545
2026-01-22 05:49:10.47	322.04	13.53	-54.0	-69.0	3.8	1.49e+00	0	41	104	0	79	20440
2026-01-22 05:49:11.48	321.89	13.46	-54.0	-69.0	3.8	1.49e+00	0	41	104	0	79	20513
2026-01-22 05:49:12.48	321.75	13.39	-54.0	-69.0	3.8	1.49e+00	0	41	104	0	79	20437
2026-01-22 05:49:13.49	321.61	13.32	-54.0	-69.0	3.8	1.49e+00	0	41	104	0	79	20488
2026-01-22 05:49:14.50	321.47	13.25	-54.0	-69.0	3.8	1.49e+00	0	41	104	0	79	20486
2026-01-22 05:49:15.51	321.33	13.17	-54.0	-69.0	3.8	1.49e+00	0	41	104	0	79	20436
2026-01-22 05:49:16.52	321.19	13.10	-54.0	-69.0	3.8	1.49e+00	0	41	104	0	79	20514
2026-01-22 05:49:17.53	321.05	13.03	-54.0	-69.0	3.8	1.49e+00	0	41	104	0	79	20464
2026-01-22 05:49:18.53	320.91	12.96	-54.0	-69.0	3.8	1.49e+00	0	41	104	0	79	20455
2026-01-22 05:49:19.54	320.78	12.89	-54.0	-69.0	3.8	1.49e+00	0	41	104	0	79	20470
2026-01-22 05:49:20.55	320.64	12.82	-54.0	-69.0	3.8	1.49e+00	0	41	104	0	79	20362
2026-01-22 05:49:21.56	320.50	12.75	-54.0	-69.0	3.8	1.49e+00	0	41	104	0	79	20444
2026-01-22 05:49:22.57	320.37	12.68	-54.0	-69.0	3.8	1.49e+00	0	41	104	0	79	20416
2026-01-22 05:49:23.57	320.23	12.61	-54.0	-69.0	3.8	1.49e+00	0	41	104	0	79	20473
2026-01-22 05:49:24.58	320.10	12.53	-54.0	-69.0	3.8	1.49e+00	0	41	104	0	79	20453
2026-01-22 05:49:25.59	319.97	12.46	-54.0	-69.0	3.8	1.49e+00	0	41	104	0	79	20450
2026-01-22 05:49:26.60	319.83	12.39	-54.0	-69.0	3.8	1.49e+00	0	41	104	0	79	20463
2026-01-22 05:49:27.61	319.70	12.32	-54.0	-69.0	3.8	1.49e+00	0	41	104	0	79	20442
2026-01-22 05:49:28.61	319.57	12.25	-54.0	-69.0	3.8	1.49e+00	0	41	104	0	79	20439
2026-01-22 05:49:29.62	319.44	12.18	-54.0	-69.0	3.8	1.49e+00	0	41	104	0	79	20452
2026-01-22 05:49:30.63	319.31	12.11	-54.0	-69.0	3.8	1.49e+00	0	41	104	0	79	20499
2026-01-22 05:49:31.64	319.18	12.04	-54.0	-69.0	3.8	1.49e+00	0	41	104	0	79	20493
2026-01-22 05:49:32.65	319.05	11.97	-54.0	-69.0	3.8	1.49e+00	0	41	104	0	79	20522
2026-01-22 05:49:33.66	318.92	11.90	-54.0	-69.0	3.8	1.49e+00	0	41	104	0	79	20435
2026-01-22 05:49:34.67	318.79	11.83	-54.0	-69.0	3.8	1.49e+00	0	41	104	0	79	20451
2026-01-22 05:49:35.67	318.67	11.76	-54.0	-69.0	3.8	1.49e+00	0	41	104	0	79	20420
2026-01-22 05:49:36.68	318.54	11.69	-54.0	-69.0	3.8	1.49e+00	0	41	104	0	79	20435
2026-01-22 05:49:37.69	318.42	11.62	-54.0	-69.0	3.8	1.49e+00	0	41	104	0	79	20460
2026-01-22 05:49:38.70	318.29	11.55	-54.0	-69.0	3.8	1.49e+00	0	41	104	0	79	20485
2026-01-22 05:49:39.71	318.17	11.47	-54.0	-69.0	3.8	1.49e+00	0	41	104	0	79	20451
2026-01-22 05:49:40.72	318.04	11.40	-54.0	-69.0	3.8	1.49e+00	0	41	104	0	79	20390
2026-01-22 05:49:41.73	317.92	11.33	-54.0	-69.0	3.8	1.49e+00	0	41	104	0	79	20402
2026-01-22 05:49:42.73	317.80	11.27	-54.0	-69.0	3.8	1.49e+00	0	41	104	0	79	20336
2026-01-22 05:49:43.74	317.67	11.20	-54.0	-69.0	3.8	1.49e+00	0	41	104	0	79	20414
2026-01-22 05:49:44.75	317.55	11.13	-54.0	-69.0	3.8	1.49e+00	0	41	104	0	79	20437
2026-01-22 05:49:45.76	317.43	11.06	-54.0	-69.0	3.8	1.49e+00	0	41	104	0	79	20405
2026-01-22 05:49:46.77	317.31	10.99	-54.0	-69.0	3.8	1.49e+00	0	41	104	0	79	20445
2026-01-22 05:49:47.78	317.19	10.92	-54.0	-69.0	3.8	1.49e+00	0	41	104	0	79	20428
2026-01-22 05:49:48.79	317.07	10.85	-54.0	-69.0	3.8	1.49e+00	0	41	104	0	79	20398
2026-01-22 05:49:49.80	316.95	10.78	-54.0	-69.0	3.8	1.49e+00	0	41	104	0	79	20431
2026-01-22 05:49:50.81	316.84	10.71	-54.0	-69.0	3.8	1.49e+00	0	41	104	0	79	20359
2026-01-22 05:49:51.81	316.72	10.64	-54.0	-69.0	3.8	1.49e+00	0	41	104	0	79	20434
2026-01-22 05:49:52.82	316.60	10.57	-54.0	-69.0	3.8	1.49e+00	0	41	104	0	79	20433
2026-01-22 05:49:53.83	316.49	10.50	-54.0	-69.0	3.8	1.49e+00	0	41	104	0	79	20440
2026-01-22 05:49:54.84	316.37	10.43	-54.0	-69.0	3.8	1.49e+00	0	41	104	0	79	20419
2026-01-22 05:49:55.85	316.25	10.36	-54.0	-69.0	3.8	1.49e+00	0	41	104	0	79	20396
2026-01-22 05:49:56.85	316.14	10.29	-54.0	-69.0	3.8	1.49e+00	0	41	104	0	79	20381
2026-01-22 05:49:57.86	316.03	10.22	-54.0	-69.0	3.8	1.49e+00	0	41	104	0	79	20385
2026-01-22 05:49:58.87	315.91	10.16	-54.0	-69.0	3.8	1.49e+00	0	41	104	0	79	20392
2026-01-22 05:49:59.88	315.80	10.09	-54.0	-69.0	3.8	1.49e+00	0	41	104	0	79	20427
2026-01-22 05:50:00.89	315.69	10.02	-54.0	-69.0	3.8	1.49e+00	0	41	104	0	79	20485
2026-01-22 05:50:01.89	315.58	9.95	-54.0	-69.0	3.8	1.49e+00	0	41	104	0	79	20389
2026-01-22 05:50:02.90	315.47	9.88	-54.0	-69.0	3.8	1.49e+00	0	41	104	0	79	20346
2026-01-22 05:50:03.91	315.35	9.81	-54.0	-69.0	3.8	1.49e+00	0	41	104	0	79	20460
2026-01-22 05:50:04.92	315.24	9.74	-54.0	-69.0	3.8	1.49e+00	0	41	104	0	79	20356
2026-01-22 05:50:05.93	315.13	9.68	-54.0	-69.0	3.8	1.49e+00	0	41	104	0	79	20373
2026-01-22 05:50:06.93	315.03	9.61	-54.0	-69.0	3.8	1.49e+00	0	41	104	0	79	20400
2026-01-22 05:50:07.94	314.92	9.54	-54.0	-69.0	3.8	1.49e+00	0	41	104	0	79	20382
2026-01-22 05:50:08.95	314.81	9.47	-54.0	-69.0	3.8	1.49e+00	0	41	104	0	79	20420
2026-01-22 05:50:09.96	314.70	9.41	-54.0	-69.0	3.8	1.49e+00	0	41	104	0	79	20415
2026-01-22 05:50:10.97	314.59	9.34	-54.0	-69.0	3.8	1.49e+00	0	41	104	0	79	20408
2026-01-22 05:50:11.97	314.49	9.27	-54.0	-69.0	3.8	1.49e+00	0	41	104	0	79	20353
2026-01-22 05:50:12.98	314.38	9.20	-54.0	-69.0	3.8	1.49e+00	0	41	104	0	79	20392
2026-01-22 05:50:13.99	314.28	9.13	-54.0	-69.0	3.8	1.49e+00	0	41	104	0	79	20363
2026-01-22 05:50:15.00	314.17	9.07	-54.0	-69.0	3.8	1.49e+00	0	41	104	0	79	20409
2026-01-22 05:50:16.01	314.07	9.00	-54.0	-69.0	3.8	1.49e+00	0	41	104	0	79	20436
2026-01-22 05:50:17.02	313.96	8.93	-54.0	-69.0	3.8	1.49e+00	0	41	104	0	79	20407
2026-01-22 05:50:18.03	313.86	8.87	-54.0	-69.0	3.8	1.49e+00	0	41	104	0	79	20418
2026-01-22 05:50:19.04	313.75	8.80	-54.0	-69.0	3.8	1.49e+00	0	41	104	0	79	20363
2026-01-22 05:50:20.05	313.65	8.73	-54.0	-69.0	3.8	1.49e+00	0	41	104	0	79	20384
2026-01-22 05:50:21.05	313.55	8.66	-54.0	-69.0	3.8	1.49e+00	0	41	104	0	79	20391
2026-01-22 05:50:22.06	313.45	8.60	-54.0	-69.0	3.8	1.49e+00	0	41	104	0	79	20370
2026-01-22 05:50:23.07	313.35	8.53	-54.0	-69.0	3.8	1.49e+00	0	41	104	0	79	20418
2026-01-22 05:50:24.08	313.25	8.46	-54.0	-69.0	3.8	1.49e+00	0	41	104	0	79	20383
2026-01-22 05:50:25.09	313.15	8.40	-54.0	-69.0	3.8	1.49e+00	0	41	104	0	79	20417
2026-01-22 05:50:26.10	313.05	8.33	-54.0	-69.0	3.8	1.49e+00	0	41	104	0	79	20363
2026-01-22 05:50:27.11	312.95	8.26	-54.0	-69.0	3.8	1.49e+00	0	41	104	0	79	20434
2026-01-22 05:50:28.11	312.85	8.20	-54.0	-69.0	3.8	1.49e+00	0	41	104	0	79	20416
2026-01-22 05:50:29.12	312.75	8.13	-54.0	-69.0	3.8	1.49e+00	0	41	104	0	79	20343
2026-01-22 05:50:30.13	312.65	8.07	-54.0	-69.0	3.8	1.49e+00	0	41	104	0	79	20382
2026-01-22 05:50:31.14	312.56	8.00	-54.0	-69.0	3.8	1.49e+00	0	41	104	0	79	20374
2026-01-22 05:50:32.15	312.46	7.93	-54.0	-69.0	3.8	1.49e+00	0	41	104	0	79	20384
2026-01-22 05:50:33.15	312.36	7.87	-54.0	-69.0	3.8	1.49e+00	0	41	104	0	79	20409
2026-01-22 05:50:34.16	312.27	7.80	-54.0	-69.0	3.8	1.49e+00	0	41	104	0	79	20414
2026-01-22 05:50:35.17	312.17	7.74	-54.0	-69.0	3.8	1.49e+00	0	41	104	0	79	20406
2026-01-22 05:50:36.18	312.08	7.67	-54.0	-69.0	3.8	1.49e+00	0	41	104	0	79	20402
2026-01-22 05:50:37.18	311.98	7.61	-54.0	-69.0	3.8	1.49e+00	0	41	104	0	79	20397
2026-01-22 05:50:38.19	311.89	7.54	-54.0	-69.0	3.8	1.49e+00	0	41	104	0	79	20456
2026-01-22 05:50:39.20	311.79	7.48	-54.0	-69.0	3.8	1.49e+00	0	41	104	0	79	20432
2026-01-22 05:50:40.21	311.70	7.41	-54.0	-69.0	3.8	1.49e+00	0	41	104	0	79	20379
2026-01-22 05:50:41.22	311.61	7.35	-54.0	-69.0	3.8	1.49e+00	0	41	104	0	79	20361
2026-01-22 05:50:42.23	311.51	7.28	-54.0	-69.0	3.8	1.49e+00	0	41	104	0	79	20415
2026-01-22 05:50:43.24	311.42	7.22	-54.0	-69.0	3.8	1.49e+00	0	41	104	0	79	20442
2026-01-22 05:50:44.25	311.33	7.15	-54.0	-69.0	3.8	1.49e+00	0	41	104	0	79	20400
2026-01-22 05:50:45.26	311.24	7.09	-54.0	-69.0	3.8	1.49e+00	0	41	104	0	79	20365
2026-01-22 05:50:46.27	311.15	7.02	-54.0	-69.0	3.8	1.49e+00	0	41	104	0	79	20436
2026-01-22 05:50:47.28	311.06	6.96	-54.0	-69.0	3.8	1.49e+00	0	41	104	0	79	20377
2026-01-22 05:50:48.28	310.97	6.89	-54.0	-69.0	3.8	1.49e+00	0	41	104	0	79	20347
2026-01-22 05:50:49.29	310.88	6.83	-54.0	-69.0	3.8	1.49e+00	0	41	104	0	79	20391
2026-01-22 05:50:50.30	310.79	6.76	-54.0	-69.0	3.8	1.49e+00	0	41	104	0	79	20359
2026-01-22 05:50:51.31	310.70	6.70	-54.0	-69.0	3.8	1.49e+00	0	41	104	0	79	20383
2026-01-22 05:50:52.31	310.61	6.64	-54.0	-69.0	3.8	1.49e+00	0	41	104	0	79	20381
2026-01-22 05:50:53.32	310.52	6.57	-54.0	-69.0	3.8	1.49e+00	0	41	104	0	79	20398
2026-01-22 05:50:54.33	310.44	6.51	-54.0	-69.0	3.8	1.49e+00	0	41	104	0	79	20374
2026-01-22 05:50:55.34	310.35	6.45	-54.0	-69.0	3.8	1.49e+00	0	41	104	0	79	20347
2026-01-22 05:50:56.35	310.26	6.38	-54.0	-69.0	3.8	1.49e+00	0	41	104	0	79	20383
2026-01-22 05:50:57.35	310.18	6.32	-54.0	-69.0	3.8	1.49e+00	0	41	104	0	79	20365
2026-01-22 05:50:58.36	310.09	6.25	-53.9	-69.0	3.8	1.49e+00	0	41	104	0	79	20391
2026-01-22 05:50:59.37	310.00	6.19	-54.0	-69.0	3.8	1.49e+00	0	41	104	0	79	20402
2026-01-22 05:51:00.38	309.92	6.13	-54.0	-69.0	3.8	1.49e+00	0	41	104	0	79	20373
2026-01-22 05:51:01.38	309.83	6.07	-54.0	-69.0	3.8	1.49e+00	0	41	104	0	79	20325
2026-01-22 05:51:02.39	309.75	6.00	-54.0	-69.0	3.8	1.49e+00	0	41	104	0	79	20377
2026-01-22 05:51:03.40	309.67	5.94	-53.9	-69.0	3.8	1.49e+00	0	41	104	0	79	20329
2026-01-22 05:51:04.41	309.58	5.88	-54.0	-69.0	3.8	1.49e+00	0	41	104	0	79	20359
2026-01-22 05:51:05.42	309.50	5.81	-53.9	-69.0	3.8	1.49e+00	0	41	104	0	79	20367
2026-01-22 05:51:06.42	309.42	5.75	-54.0	-69.0	3.8	1.49e+00	0	41	104	0	79	20390
2026-01-22 05:51:07.43	309.33	5.69	-54.0	-68.9	3.8	1.49e+00	0	41	104	0	79	20300
2026-01-22 05:51:08.44	309.25	5.63	-54.0	-69.0	3.8	1.49e+00	0	41	104	0	79	20334
2026-01-22 05:51:09.45	309.17	5.56	-54.0	-69.0	3.8	1.49e+00	0	41	104	0	79	20338
2026-01-22 05:51:10.46	309.09	5.50	-54.0	-69.0	3.8	1.49e+00	0	41	104	0	79	20355
2026-01-22 05:51:11.47	309.01	5.44	-53.9	-69.0	3.8	1.49e+00	0	41	104	0	79	20369
2026-01-22 05:51:12.48	308.92	5.38	-53.9	-69.0	3.8	1.49e+00	0	41	104	0	79	20356
2026-01-22 05:51:13.49	308.84	5.31	-53.9	-69.0	3.8	1.49e+00	0	41	104	0	79	20365
2026-01-22 05:51:14.49	308.76	5.25	-53.9	-69.0	3.8	1.49e+00	0	41	104	0	79	20319
2026-01-22 05:51:15.50	308.68	5.19	-53.9	-69.0	3.8	1.49e+00	0	41	104	0	79	20395
2026-01-22 05:51:16.51	308.61	5.13	-53.9	-68.9	3.8	1.49e+00	0	41	104	0	79	20297
2026-01-22 05:51:17.52	308.53	5.07	-53.9	-69.0	3.8	1.49e+00	0	41	104	0	79	20335
2026-01-22 05:51:18.53	308.45	5.00	-53.9	-69.0	3.8	1.49e+00	0	41	104	0	79	20373
2026-01-22 05:51:19.53	308.37	4.94	-53.9	-69.0	3.8	1.49e+00	0	41	104	0	79	20346
2026-01-22 05:51:20.54	308.29	4.88	-54.0	-69.0	3.8	1.49e+00	0	41	104	0	79	20396
2026-01-22 05:51:21.55	308.21	4.82	-53.9	-69.0	3.8	1.49e+00	0	41	104	0	79	20333
2026-01-22 05:51:22.56	308.14	4.76	-53.9	-69.0	3.8	1.49e+00	0	41	104	0	79	20319
2026-01-22 05:51:23.57	308.06	4.70	-53.9	-69.0	3.8	1.49e+00	0	41	104	0	79	20341
2026-01-22 05:51:24.57	307.98	4.64	-53.9	-69.0	3.8	1.49e+00	0	41	104	0	79	20321
2026-01-22 05:51:25.58	307.91	4.58	-53.9	-69.0	3.8	1.49e+00	0	41	104	0	79	20314
2026-01-22 05:51:26.59	307.83	4.52	-53.9	-69.0	3.8	1.49e+00	0	41	104	0	79	20342
2026-01-22 05:51:27.60	307.76	4.45	-53.9	-69.0	3.8	1.49e+00	0	41	104	0	79	20344
2026-01-22 05:51:28.61	307.68	4.39	-53.9	-68.9	3.8	1.49e+00	0	41	104	0	79	20272
2026-01-22 05:51:29.61	307.61	4.33	-53.9	-68.9	3.8	1.49e+00	0	41	104	0	79	20300
2026-01-22 05:51:30.62	307.53	4.27	-53.9	-69.0	3.8	1.49e+00	0	41	104	0	79	20324
2026-01-22 05:51:31.63	307.46	4.21	-53.9	-69.0	3.8	1.49e+00	0	41	104	0	79	20384
2026-01-22 05:51:32.64	307.38	4.15	-53.9	-69.0	3.8	1.49e+00	0	41	104	0	79	20326
2026-01-22 05:51:33.65	307.31	4.09	-53.9	-68.9	3.8	1.49e+00	0	41	104	0	79	20290
2026-01-22 05:51:34.65	307.24	4.03	-53.9	-69.0	3.8	1.49e+00	0	41	104	0	79	20304
2026-01-22 05:51:35.66	307.16	3.97	-53.9	-69.0	3.8	1.49e+00	0	41	104	0	79	20375
2026-01-22 05:51:36.67	307.09	3.91	-53.9	-69.0	3.8	1.49e+00	0	41	104	0	79	20349
2026-01-22 05:51:37.68	307.02	3.85	-54.0	-69.0	3.8	1.49e+00	0	41	104	0	79	20435
2026-01-22 05:51:38.68	306.95	3.79	-54.0	-69.0	3.8	1.49e+00	0	41	104	0	79	20401
2026-01-22 05:51:39.69	306.87	3.73	-54.0	-69.0	3.8	1.49e+00	0	41	104	0	79	20413
2026-01-22 05:51:40.70	306.80	3.67	-54.0	-69.0	3.8	1.49e+00	0	41	104	0	79	20409
2026-01-22 05:51:41.71	306.73	3.61	-54.0	-69.0	3.8	1.49e+00	0	41	104	0	79	20381
2026-01-22 05:51:42.72	306.66	3.55	-54.0	-69.0	3.8	1.49e+00	0	41	104	0	79	20405
2026-01-22 05:51:43.72	306.59	3.49	-54.0	-69.0	3.8	1.49e+00	0	41	104	0	79	20383
2026-01-22 05:51:44.73	306.52	3.43	-54.0	-69.0	3.8	1.49e+00	0	41	104	0	79	20402
2026-01-22 05:51:45.74	306.45	3.38	-54.0	-69.0	3.8	1.49e+00	0	41	104	0	79	20359
2026-01-22 05:51:46.75	306.38	3.32	-53.9	-69.0	3.8	1.49e+00	0	41	104	0	79	20360
2026-01-22 05:51:47.76	306.31	3.26	-53.9	-69.0	3.8	1.49e+00	0	41	104	0	79	20341
2026-01-22 05:51:48.76	306.24	3.20	-54.0	-69.0	3.8	1.49e+00	0	41	104	0	79	20386
2026-01-22 05:51:49.77	306.17	3.14	-54.0	-69.0	3.8	1.49e+00	0	41	104	0	79	20373
2026-01-22 05:51:50.78	306.10	3.08	-53.9	-69.0	3.8	1.49e+00	0	41	104	0	79	20363
2026-01-22 05:51:51.79	306.04	3.02	-53.9	-69.0	3.8	1.49e+00	0	41	104	0	79	20376
2026-01-22 05:51:52.80	305.97	2.96	-53.9	-68.9	3.8	1.49e+00	0	41	104	0	79	20293
2026-01-22 05:51:53.81	305.90	2.90	-53.9	-69.0	3.8	1.49e+00	0	41	104	0	79	20305
2026-01-22 05:51:54.81	305.83	2.85	-53.9	-69.0	3.8	1.49e+00	0	41	104	0	79	20360
2026-01-22 05:51:55.82	305.77	2.79	-53.9	-69.0	3.8	1.49e+00	0	41	104	0	79	20332
2026-01-22 05:51:56.84	305.70	2.73	-53.9	-69.0	3.8	1.49e+00	0	41	104	0	79	20361
