passes_logs/2026/01/22/R3.2S_Murmansk/R3.2S_Murmansk__20260122_113524_FENGYUN_3D_rec.log

#Pass ID: 20260122_113524_FENGYUN 3D
#Satellite: FENGYUN 3D
#Configuration: FENGYUN 3D
#almurnet v.1.7.20251203
#Start time: 2026-01-22 11:35:24

#Version: 2.2.20231116
#Station: R3.2S_Murmansk
#Location: 33.079688 lon 68.888172 lat
#TLE: 1 43010U 17072A   26021.48744220  .00000253  00000+0  14133-3 0  9991
#TLE: 2 43010  98.9948 353.4037 0002485  97.2578 262.8880 14.19697766424177

#Time	Az	El	Level	Level2	SNR	BER	BlckErr	Temp	State	Recorded	gain1	gain2
2026-01-22 11:35:24.23	151.86	1.97	-54.3	-66.3	3.8	8.47e-01	0	39	0	0	79	15047
2026-01-22 11:35:25.24	151.86	2.04	-54.3	-66.4	3.8	8.46e-01	0	39	104	0	79	15076
2026-01-22 11:35:26.24	151.86	2.10	-54.3	-66.4	3.8	8.46e-01	0	39	104	0	79	15077
2026-01-22 11:35:27.25	151.87	2.17	-54.3	-66.3	3.8	8.47e-01	0	39	104	0	79	15050
2026-01-22 11:35:28.26	151.87	2.23	-54.3	-66.3	3.8	8.46e-01	0	39	104	0	79	15047
2026-01-22 11:35:29.26	151.88	2.30	-54.3	-66.3	3.8	8.46e-01	0	39	104	0	79	15048
2026-01-22 11:35:30.27	151.88	2.36	-54.5	-66.6	3.8	8.46e-01	0	39	104	0	79	15423
2026-01-22 11:35:31.28	151.88	2.43	-54.6	-66.6	3.8	8.47e-01	0	39	104	0	79	15474
2026-01-22 11:35:32.29	151.89	2.49	-54.6	-66.6	3.8	8.46e-01	0	39	104	0	79	15454
2026-01-22 11:35:33.30	151.89	2.56	-54.6	-66.6	3.8	8.46e-01	0	39	104	0	79	15445
2026-01-22 11:35:34.30	151.90	2.63	-54.6	-66.5	3.8	8.47e-01	0	39	104	0	79	15399
2026-01-22 11:35:35.31	151.90	2.69	-54.5	-66.5	3.8	8.46e-01	0	39	104	0	79	15396
2026-01-22 11:35:36.32	151.90	2.76	-54.5	-66.5	3.8	8.45e-01	0	39	104	0	79	15346
2026-01-22 11:35:37.33	151.91	2.83	-54.5	-66.5	3.8	8.47e-01	0	39	104	0	79	15276
2026-01-22 11:35:38.34	151.91	2.89	-54.4	-66.4	3.8	8.46e-01	0	40	104	0	79	15155
2026-01-22 11:35:39.34	151.92	2.96	-54.3	-66.4	3.8	8.46e-01	0	39	104	0	79	15062
2026-01-22 11:35:40.35	151.92	3.03	-54.3	-66.3	3.8	8.46e-01	0	39	104	0	79	14894
2026-01-22 11:35:41.36	151.92	3.09	-54.2	-66.2	3.8	8.45e-01	0	39	104	0	79	14827
2026-01-22 11:35:42.37	151.93	3.16	-54.1	-66.1	3.8	8.46e-01	0	39	104	0	79	14674
2026-01-22 11:35:43.37	151.93	3.23	-54.1	-66.1	3.8	8.47e-01	0	40	104	0	79	14614
2026-01-22 11:35:44.38	151.94	3.30	-54.0	-66.0	3.8	8.47e-01	0	39	104	0	79	14467
2026-01-22 11:35:45.39	151.94	3.36	-53.9	-65.9	3.8	8.45e-01	0	40	104	0	79	14220
2026-01-22 11:35:46.40	151.94	3.43	-53.8	-65.7	3.8	8.47e-01	0	40	104	0	79	14036
2026-01-22 11:35:47.41	151.95	3.50	-53.6	-65.6	3.8	8.47e-01	0	40	104	0	79	13773
2026-01-22 11:35:48.42	151.95	3.57	-53.5	-65.5	3.8	8.46e-01	0	40	104	0	79	13682
2026-01-22 11:35:49.42	151.96	3.64	-53.4	-65.3	3.8	8.44e-01	0	40	104	0	78	14141
2026-01-22 11:35:50.43	151.96	3.71	-53.1	-64.9	3.8	8.46e-01	0	40	104	0	78	13550
2026-01-22 11:35:51.44	151.96	3.77	-52.7	-64.3	3.8	8.46e-01	0	40	104	0	77	13293
2026-01-22 11:35:52.45	151.97	3.84	-52.6	-63.8	3.8	8.46e-01	0	40	104	0	77	12539
2026-01-22 11:35:53.46	151.97	3.91	-52.5	-63.4	3.8	8.45e-01	0	40	104	0	77	12084
2026-01-22 11:35:54.47	151.98	3.98	-52.4	-62.2	3.8	8.47e-01	0	40	104	0	76	11072
2026-01-22 11:35:55.47	151.98	4.05	-52.2	-60.4	4.4	8.39e-01	0	40	0	0	76	9021
2026-01-22 11:35:56.48	151.98	4.12	-51.6	-57.8	5.8	6.57e-01	0	40	0	0	75	7083
2026-01-22 11:35:57.49	151.99	4.19	-50.9	-55.7	7.6	1.73e-01	0	40	0	6291456	73	6244
2026-01-22 11:35:58.50	151.99	4.26	-50.1	-53.8	9.5	2.39e-02	0	40	0	11534336	72	5326
2026-01-22 11:35:59.51	152.00	4.33	-48.9	-51.5	12.0	1.15e-03	0	40	0	16777216	69	4829
2026-01-22 11:36:00.52	152.00	4.40	-47.8	-49.9	13.6	2.74e-05	0	40	0	23068672	67	4522
2026-01-22 11:36:01.52	152.00	4.47	-47.3	-49.2	14.3	2.20e-06	0	40	0	29360128	66	4414
2026-01-22 11:36:02.53	152.01	4.54	-46.3	-47.9	15.7	0.00e+00	0	40	0	34603008	63	4514
2026-01-22 11:36:03.54	152.01	4.62	-44.8	-46.1	17.4	0.00e+00	0	40	0	39845888	61	4142
2026-01-22 11:36:04.55	152.02	4.69	-44.8	-46.1	17.4	0.00e+00	0	40	0	46137344	61	4140
2026-01-22 11:36:05.56	152.02	4.76	-44.3	-45.6	18.3	0.00e+00	0	40	0	51380224	59	4341
2026-01-22 11:36:06.57	152.02	4.83	-44.3	-45.5	18.3	0.00e+00	0	40	0	57671680	59	4312
2026-01-22 11:36:07.58	152.03	4.90	-43.9	-45.1	18.8	0.00e+00	0	40	0	62914560	59	4099
2026-01-22 11:36:08.59	152.03	4.97	-43.9	-45.0	18.9	0.00e+00	0	40	0	68157440	58	4330
2026-01-22 11:36:09.60	152.04	5.05	-43.1	-44.2	19.6	0.00e+00	0	40	0	74448896	58	3931
2026-01-22 11:36:10.61	152.04	5.12	-43.5	-44.6	19.3	0.00e+00	0	40	0	79691776	58	4116
2026-01-22 11:36:11.62	152.04	5.19	-44.1	-45.3	18.7	0.00e+00	0	40	0	84934656	58	4457
2026-01-22 11:36:12.62	152.05	5.26	-45.9	-47.4	16.4	0.00e+00	0	40	0	91226112	62	4494
2026-01-22 11:36:13.63	152.05	5.34	-44.6	-45.9	18.2	0.00e+00	0	40	0	97517568	59	4521
2026-01-22 11:36:14.64	152.06	5.41	-44.7	-46.0	17.5	9.72e-05	0	40	0	102760448	61	4081
2026-01-22 11:36:15.65	152.06	5.49	-43.9	-45.0	18.8	0.00e+00	0	40	0	108003328	59	4084
2026-01-22 11:36:16.66	152.06	5.56	-43.4	-44.4	19.4	0.00e+00	0	40	0	114294784	58	4049
2026-01-22 11:36:17.67	152.07	5.63	-43.3	-44.4	19.5	0.00e+00	0	40	0	119537664	58	4008
2026-01-22 11:36:18.68	152.07	5.71	-43.5	-44.6	19.3	0.00e+00	0	40	0	124780544	58	4125
2026-01-22 11:36:19.69	152.08	5.78	-43.2	-44.3	19.6	0.00e+00	0	40	0	131072000	58	3962
2026-01-22 11:36:20.69	152.08	5.86	-43.0	-44.1	19.8	0.00e+00	0	40	0	136314880	58	3883
2026-01-22 11:36:21.70	152.08	5.93	-42.8	-43.8	20.1	0.00e+00	0	40	0	142606336	57	3983
2026-01-22 11:36:22.71	152.09	6.01	-42.8	-43.9	20.0	0.00e+00	0	40	0	147849216	57	4011
2026-01-22 11:36:23.72	152.09	6.08	-43.2	-44.2	19.7	0.00e+00	0	40	0	153092096	57	4187
2026-01-22 11:36:24.73	152.10	6.16	-42.9	-44.0	20.0	0.00e+00	0	40	0	159383552	57	4055
2026-01-22 11:36:25.74	152.10	6.23	-43.1	-44.1	19.9	0.00e+00	0	40	0	165675008	57	4133
2026-01-22 11:36:26.74	152.11	6.31	-42.4	-43.3	20.6	0.00e+00	0	40	0	170917888	56	3993
2026-01-22 11:36:27.75	152.11	6.38	-42.6	-43.6	20.3	0.00e+00	0	40	0	176160768	56	4121
2026-01-22 11:36:28.76	152.11	6.46	-42.5	-43.5	20.4	0.00e+00	0	40	0	182452224	56	4083
2026-01-22 11:36:29.77	152.12	6.54	-42.7	-43.7	20.2	0.00e+00	0	40	0	187695104	56	4185
2026-01-22 11:36:30.78	152.12	6.61	-42.6	-43.6	20.3	0.00e+00	0	40	0	192937984	56	4138
2026-01-22 11:36:31.78	152.13	6.69	-42.5	-43.4	20.5	0.00e+00	0	40	0	199229440	56	4051
2026-01-22 11:36:32.79	152.13	6.77	-42.5	-43.5	20.5	0.00e+00	0	40	0	204472320	56	4068
2026-01-22 11:36:33.80	152.13	6.84	-42.6	-43.6	20.4	0.00e+00	0	40	0	209715200	56	4109
2026-01-22 11:36:34.80	152.14	6.92	-42.4	-43.4	20.6	0.00e+00	0	40	0	216006656	56	4027
2026-01-22 11:36:35.81	152.14	7.00	-42.3	-43.3	20.7	0.00e+00	0	40	0	221249536	56	3974
2026-01-22 11:36:36.82	152.15	7.08	-42.2	-43.2	20.8	0.00e+00	0	40	0	227540992	56	3931
2026-01-22 11:36:37.83	152.15	7.16	-42.4	-43.4	20.6	0.00e+00	0	40	0	232783872	56	4008
2026-01-22 11:36:38.84	152.15	7.24	-42.3	-43.2	20.8	0.00e+00	0	40	0	239075328	56	3934
2026-01-22 11:36:39.85	152.16	7.31	-42.3	-43.2	20.8	0.00e+00	0	40	0	244318208	56	3934
2026-01-22 11:36:40.86	152.16	7.39	-42.3	-43.3	20.7	0.00e+00	0	40	0	250609664	56	3976
2026-01-22 11:36:41.87	152.17	7.47	-42.3	-43.3	20.8	0.00e+00	0	40	0	255852544	56	3964
2026-01-22 11:36:42.88	152.17	7.55	-42.4	-43.3	20.7	0.00e+00	0	40	0	261095424	56	3991
2026-01-22 11:36:43.89	152.18	7.63	-42.2	-43.2	20.8	0.00e+00	0	40	0	267386880	56	3929
2026-01-22 11:36:44.89	152.18	7.71	-42.1	-43.1	21.0	0.00e+00	0	40	0	272629760	56	3876
2026-01-22 11:36:45.90	152.18	7.79	-42.2	-43.1	21.0	0.00e+00	0	40	0	277872640	56	3888
2026-01-22 11:36:46.91	152.19	7.87	-42.3	-43.3	20.8	0.00e+00	0	40	0	284164096	56	3972
2026-01-22 11:36:47.92	152.19	7.95	-42.2	-43.1	20.9	0.00e+00	0	40	0	289406976	56	3902
2026-01-22 11:36:48.92	152.20	8.03	-42.0	-42.9	21.1	0.00e+00	0	40	0	295698432	56	3819
2026-01-22 11:36:49.93	152.20	8.12	-42.3	-43.3	20.7	0.00e+00	0	40	0	300941312	55	4200
2026-01-22 11:36:50.94	152.20	8.20	-41.8	-42.7	21.3	0.00e+00	0	40	0	307232768	55	3945
2026-01-22 11:36:51.95	152.21	8.28	-42.1	-43.0	21.0	0.00e+00	0	40	0	312475648	55	4076
2026-01-22 11:36:52.96	152.21	8.36	-42.1	-43.0	21.0	0.00e+00	0	40	0	317718528	55	4077
2026-01-22 11:36:53.97	152.22	8.45	-42.0	-42.9	21.1	0.00e+00	0	40	0	324009984	55	4012
2026-01-22 11:36:54.97	152.22	8.53	-42.1	-43.0	21.0	0.00e+00	0	40	0	329252864	55	4066
2026-01-22 11:36:55.98	152.23	8.61	-41.9	-42.8	21.2	0.00e+00	0	40	0	335544320	55	3976
2026-01-22 11:36:56.99	152.23	8.69	-41.8	-42.7	21.3	0.00e+00	0	40	0	340787200	55	3944
2026-01-22 11:36:58.00	152.23	8.78	-41.9	-42.8	21.2	0.00e+00	0	40	0	346030080	55	3990
2026-01-22 11:36:59.01	152.24	8.86	-41.8	-42.7	21.3	0.00e+00	0	40	0	352321536	55	3939
2026-01-22 11:37:00.02	152.24	8.95	-41.8	-42.7	21.3	0.00e+00	0	40	0	357564416	55	3942
2026-01-22 11:37:01.02	152.25	9.03	-41.7	-42.6	21.4	0.00e+00	0	40	0	363855872	55	3899
2026-01-22 11:37:02.03	152.25	9.11	-41.7	-42.6	21.4	0.00e+00	0	40	0	369098752	55	3911
2026-01-22 11:37:03.04	152.26	9.20	-41.9	-42.8	21.3	0.00e+00	0	40	0	375390208	55	3993
2026-01-22 11:37:04.05	152.26	9.29	-41.8	-42.7	21.3	0.00e+00	0	40	0	380633088	55	3954
2026-01-22 11:37:05.06	152.26	9.37	-41.8	-42.7	21.4	0.00e+00	0	40	0	385875968	55	3919
2026-01-22 11:37:06.06	152.27	9.46	-41.8	-42.7	21.3	0.00e+00	0	40	0	392167424	55	3949
2026-01-22 11:37:07.07	152.27	9.54	-41.8	-42.7	21.4	0.00e+00	0	40	0	397410304	55	3946
2026-01-22 11:37:08.08	152.28	9.63	-41.9	-42.8	21.3	0.00e+00	0	41	0	402653184	55	3991
2026-01-22 11:37:09.08	152.28	9.72	-41.5	-42.4	21.6	0.00e+00	0	40	0	408944640	55	3809
2026-01-22 11:37:10.09	152.29	9.80	-42.0	-42.9	21.2	0.00e+00	0	40	0	414187520	55	4020
2026-01-22 11:37:11.10	152.29	9.89	-41.8	-42.7	21.4	0.00e+00	0	40	0	420478976	55	3931
2026-01-22 11:37:12.11	152.29	9.98	-41.9	-42.7	21.3	0.00e+00	0	40	0	425721856	55	3957
2026-01-22 11:37:13.12	152.30	10.07	-41.6	-42.5	21.6	0.00e+00	0	40	0	430964736	55	3844
2026-01-22 11:37:14.12	152.30	10.15	-41.8	-42.7	21.4	0.00e+00	0	40	0	437256192	55	3931
2026-01-22 11:37:15.13	152.31	10.24	-41.8	-42.6	21.5	0.00e+00	0	41	0	443547648	55	3912
2026-01-22 11:37:16.14	152.31	10.33	-41.7	-42.6	21.5	0.00e+00	0	40	0	448790528	55	3877
2026-01-22 11:37:17.14	152.32	10.42	-41.6	-42.5	21.6	0.00e+00	0	40	0	454033408	55	3863
2026-01-22 11:37:18.15	152.32	10.51	-41.7	-42.6	21.5	0.00e+00	0	40	0	460324864	55	3877
2026-01-22 11:37:19.17	152.32	10.60	-41.7	-42.6	21.5	0.00e+00	0	40	0	465567744	55	3886
2026-01-22 11:37:20.17	152.33	10.69	-41.7	-42.6	21.5	0.00e+00	0	40	0	470810624	55	3884
2026-01-22 11:37:21.18	152.33	10.78	-41.7	-42.6	21.6	0.00e+00	0	40	0	477102080	55	3876
2026-01-22 11:37:22.19	152.34	10.87	-41.7	-42.6	21.5	0.00e+00	0	40	0	482344960	55	3893
2026-01-22 11:37:23.20	152.34	10.96	-41.8	-42.7	21.5	0.00e+00	0	41	0	487587840	55	3920
2026-01-22 11:37:24.21	152.35	11.06	-41.6	-42.5	21.6	0.00e+00	0	40	0	493879296	55	3853
2026-01-22 11:37:25.21	152.35	11.15	-41.5	-42.4	21.7	0.00e+00	0	40	0	499122176	54	4014
2026-01-22 11:37:26.22	152.35	11.24	-41.6	-42.5	21.7	0.00e+00	0	41	0	505413632	54	4059
2026-01-22 11:37:27.23	152.36	11.33	-41.6	-42.5	21.7	0.00e+00	0	40	0	510656512	54	4062
2026-01-22 11:37:28.24	152.36	11.42	-41.6	-42.5	21.7	0.00e+00	0	40	0	516947968	54	4053
2026-01-22 11:37:29.24	152.37	11.52	-41.5	-42.3	21.8	0.00e+00	0	40	0	522190848	54	3996
2026-01-22 11:37:30.25	152.37	11.61	-41.5	-42.4	21.8	0.00e+00	0	40	0	528482304	54	4020
2026-01-22 11:37:31.26	152.38	11.71	-41.6	-42.5	21.7	0.00e+00	0	40	0	533725184	54	4056
2026-01-22 11:37:32.27	152.38	11.80	-41.4	-42.2	21.9	0.00e+00	0	40	0	538968064	54	3945
2026-01-22 11:37:33.28	152.39	11.90	-41.4	-42.2	21.9	0.00e+00	0	40	0	545259520	54	3951
2026-01-22 11:37:34.29	152.39	11.99	-41.3	-42.2	21.9	0.00e+00	0	40	0	550502400	54	3938
2026-01-22 11:37:35.29	152.39	12.09	-41.4	-42.3	21.9	0.00e+00	0	40	0	555745280	54	3975
2026-01-22 11:37:36.30	152.40	12.18	-41.3	-42.2	22.0	0.00e+00	0	41	0	562036736	54	3925
2026-01-22 11:37:37.31	152.40	12.28	-41.3	-42.1	22.0	0.00e+00	0	41	0	567279616	54	3888
2026-01-22 11:37:38.32	152.41	12.37	-41.2	-42.1	22.1	0.00e+00	0	41	0	572522496	54	3883
2026-01-22 11:37:39.33	152.41	12.47	-41.3	-42.2	21.9	0.00e+00	0	40	0	578813952	54	3925
2026-01-22 11:37:40.34	152.42	12.57	-41.3	-42.1	22.0	0.00e+00	0	40	0	585105408	54	3904
2026-01-22 11:37:41.35	152.42	12.67	-41.1	-42.0	22.2	0.00e+00	0	41	0	590348288	54	3826
2026-01-22 11:37:42.35	152.43	12.77	-41.1	-42.0	22.2	0.00e+00	0	40	0	595591168	54	3849
2026-01-22 11:37:43.36	152.43	12.86	-41.1	-41.9	22.2	0.00e+00	0	40	0	601882624	54	3810
2026-01-22 11:37:44.37	152.43	12.96	-41.1	-41.9	22.2	0.00e+00	0	41	0	607125504	54	3819
2026-01-22 11:37:45.38	152.44	13.06	-41.0	-41.9	22.3	0.00e+00	0	41	0	613416960	54	3782
2026-01-22 11:37:46.38	152.44	13.16	-40.9	-41.8	22.3	0.00e+00	0	40	0	618659840	53	3967
2026-01-22 11:37:47.39	152.45	13.26	-40.9	-41.7	22.4	0.00e+00	0	41	0	623902720	53	3956
2026-01-22 11:37:48.40	152.45	13.36	-40.8	-41.7	22.4	0.00e+00	0	41	0	630194176	53	3927
2026-01-22 11:37:49.41	152.46	13.46	-40.9	-41.7	22.4	0.00e+00	0	41	0	635437056	53	3944
2026-01-22 11:37:50.42	152.46	13.57	-40.9	-41.7	22.4	0.00e+00	0	41	0	640679936	53	3946
2026-01-22 11:37:51.43	152.47	13.67	-40.8	-41.6	22.5	0.00e+00	0	41	0	646971392	53	3903
2026-01-22 11:37:52.44	152.47	13.77	-40.8	-41.6	22.5	0.00e+00	0	41	0	653262848	53	3889
2026-01-22 11:37:53.45	152.48	13.87	-40.6	-41.5	22.7	0.00e+00	0	41	0	658505728	53	3836
2026-01-22 11:37:54.46	152.48	13.98	-40.7	-41.5	22.6	0.00e+00	0	40	0	663748608	53	3843
2026-01-22 11:37:55.46	152.48	14.08	-40.7	-41.6	22.6	0.00e+00	0	41	0	670040064	53	3869
2026-01-22 11:37:56.47	152.49	14.18	-40.6	-41.4	22.7	0.00e+00	0	41	0	675282944	53	3811
2026-01-22 11:37:57.48	152.49	14.29	-40.6	-41.4	22.7	0.00e+00	0	41	0	680525824	53	3814
2026-01-22 11:37:58.49	152.50	14.39	-40.5	-41.3	22.7	0.00e+00	0	41	0	686817280	53	3780
2026-01-22 11:37:59.50	152.50	14.50	-40.5	-41.3	22.8	0.00e+00	0	41	0	692060160	52	3984
2026-01-22 11:38:00.51	152.51	14.61	-40.5	-41.3	22.8	0.00e+00	0	41	0	698351616	52	3988
2026-01-22 11:38:01.52	152.51	14.71	-40.4	-41.2	22.9	0.00e+00	0	41	0	703594496	52	3954
2026-01-22 11:38:02.52	152.52	14.82	-40.4	-41.2	22.9	0.00e+00	0	41	0	709885952	52	3942
2026-01-22 11:38:03.54	152.52	14.93	-40.5	-41.3	22.8	0.00e+00	0	40	0	715128832	52	3976
2026-01-22 11:38:04.54	152.53	15.03	-40.4	-41.2	22.9	0.00e+00	0	41	0	721420288	52	3930
2026-01-22 11:38:05.55	152.53	15.14	-40.4	-41.2	22.9	0.00e+00	0	41	0	726663168	52	3929
2026-01-22 11:38:06.56	152.54	15.25	-40.3	-41.2	23.0	0.00e+00	0	40	0	731906048	52	3914
2026-01-22 11:38:07.57	152.54	15.36	-40.3	-41.2	23.0	0.00e+00	0	41	0	738197504	52	3915
2026-01-22 11:38:08.58	152.54	15.47	-40.3	-41.1	23.0	0.00e+00	0	41	0	743440384	52	3885
2026-01-22 11:38:09.59	152.55	15.58	-40.2	-41.1	23.0	0.00e+00	0	41	0	748683264	52	3870
2026-01-22 11:38:10.60	152.55	15.69	-40.3	-41.1	23.0	0.00e+00	0	41	0	754974720	52	3886
2026-01-22 11:38:11.61	152.56	15.80	-40.2	-41.0	23.1	0.00e+00	0	41	0	760217600	52	3857
2026-01-22 11:38:12.62	152.56	15.92	-40.1	-40.9	23.2	0.00e+00	0	41	0	765460480	52	3801
2026-01-22 11:38:13.62	152.57	16.03	-40.1	-40.9	23.2	0.00e+00	0	41	0	771751936	52	3809
2026-01-22 11:38:14.63	152.57	16.14	-40.1	-40.9	23.1	0.00e+00	0	41	0	778043392	52	3808
2026-01-22 11:38:15.64	152.58	16.25	-40.1	-40.9	23.2	0.00e+00	0	41	0	783286272	52	3792
2026-01-22 11:38:16.65	152.58	16.37	-40.1	-40.9	23.2	0.00e+00	0	41	0	788529152	52	3786
2026-01-22 11:38:17.66	152.59	16.48	-40.0	-40.8	23.3	0.00e+00	0	41	0	794820608	51	3996
2026-01-22 11:38:18.66	152.59	16.60	-40.1	-40.9	23.3	0.00e+00	0	41	0	800063488	51	4030
2026-01-22 11:38:19.67	152.60	16.71	-40.0	-40.8	23.4	0.00e+00	0	41	0	806354944	51	3961
2026-01-22 11:38:20.68	152.60	16.83	-40.0	-40.8	23.4	0.00e+00	0	41	0	811597824	51	3980
2026-01-22 11:38:21.69	152.61	16.95	-40.1	-40.9	23.3	0.00e+00	0	41	0	816840704	51	4017
2026-01-22 11:38:22.70	152.61	17.06	-40.2	-41.0	23.2	0.00e+00	0	41	0	823132160	51	4057
2026-01-22 11:38:23.70	152.62	17.18	-40.0	-40.8	23.4	0.00e+00	0	41	0	828375040	51	3971
2026-01-22 11:38:24.71	152.62	17.30	-39.9	-40.7	23.5	0.00e+00	0	41	0	833617920	51	3918
2026-01-22 11:38:25.72	152.63	17.42	-39.8	-40.6	23.6	0.00e+00	0	41	0	839909376	51	3881
2026-01-22 11:38:26.73	152.63	17.54	-39.8	-40.6	23.6	0.00e+00	0	41	0	846200832	51	3897
2026-01-22 11:38:27.74	152.63	17.66	-39.7	-40.5	23.7	0.00e+00	0	41	0	851443712	51	3839
2026-01-22 11:38:28.75	152.64	17.78	-39.6	-40.4	23.8	0.00e+00	0	41	0	856686592	51	3801
2026-01-22 11:38:29.76	152.64	17.90	-39.7	-40.4	23.7	0.00e+00	0	41	0	862978048	51	3822
2026-01-22 11:38:30.77	152.65	18.02	-39.6	-40.4	23.8	0.00e+00	0	41	0	868220928	51	3805
2026-01-22 11:38:31.77	152.65	18.14	-39.7	-40.5	23.7	0.00e+00	0	41	0	873463808	51	3847
2026-01-22 11:38:32.78	152.66	18.27	-39.6	-40.4	23.8	0.00e+00	0	40	0	879755264	51	3793
2026-01-22 11:38:33.79	152.66	18.39	-39.4	-40.2	24.0	0.00e+00	0	41	0	884998144	50	3933
2026-01-22 11:38:34.80	152.67	18.52	-39.5	-40.2	23.9	0.00e+00	0	41	0	891289600	50	3953
2026-01-22 11:38:35.80	152.67	18.64	-39.4	-40.2	24.0	0.00e+00	0	40	0	896532480	50	3936
2026-01-22 11:38:36.82	152.68	18.77	-39.3	-40.0	24.1	0.00e+00	0	41	0	901775360	50	3867
2026-01-22 11:38:37.83	152.68	18.89	-39.4	-40.1	24.0	0.00e+00	0	41	0	908066816	50	3902
2026-01-22 11:38:38.84	152.69	19.02	-39.3	-40.1	24.1	0.00e+00	0	41	0	914358272	50	3886
2026-01-22 11:38:39.84	152.69	19.15	-39.3	-40.1	24.1	0.00e+00	0	41	0	919601152	50	3888
2026-01-22 11:38:40.85	152.70	19.28	-39.3	-40.1	24.1	0.00e+00	0	40	0	924844032	50	3870
2026-01-22 11:38:41.86	152.70	19.41	-39.2	-39.9	24.2	0.00e+00	0	41	0	931135488	50	3810
2026-01-22 11:38:42.87	152.71	19.53	-39.1	-39.9	24.3	0.00e+00	0	41	0	936378368	50	3801
2026-01-22 11:38:43.87	152.71	19.66	-39.2	-40.0	24.2	0.00e+00	0	40	0	941621248	50	3827
2026-01-22 11:38:44.89	152.72	19.80	-39.2	-40.0	24.2	0.00e+00	0	41	0	947912704	50	3840
2026-01-22 11:38:45.89	152.72	19.93	-39.2	-39.9	24.2	0.00e+00	0	41	0	953155584	50	3810
2026-01-22 11:38:46.90	152.73	20.06	-39.1	-39.9	24.2	0.00e+00	0	41	0	958398464	50	3796
2026-01-22 11:38:47.91	152.73	20.19	-39.2	-39.9	24.2	0.00e+00	0	41	0	964689920	50	3820
2026-01-22 11:38:48.92	152.74	20.33	-39.2	-40.0	24.2	0.00e+00	0	41	0	969932800	50	3826
2026-01-22 11:38:49.93	152.74	20.46	-39.0	-39.8	24.4	0.00e+00	0	41	0	976224256	50	3738
2026-01-22 11:38:50.94	152.75	20.60	-39.0	-39.8	24.3	0.00e+00	0	41	0	981467136	49	3972
2026-01-22 11:38:51.95	152.75	20.73	-39.1	-39.8	24.3	0.00e+00	0	40	0	987758592	49	3997
2026-01-22 11:38:52.95	152.76	20.87	-38.9	-39.7	24.4	0.00e+00	0	40	0	993001472	49	3928
2026-01-22 11:38:53.96	152.76	21.01	-38.9	-39.7	24.5	0.00e+00	0	41	0	999292928	49	3914
2026-01-22 11:38:54.97	152.77	21.14	-39.0	-39.8	24.3	0.00e+00	0	41	0	1004535808	49	3969
2026-01-22 11:38:55.98	152.77	21.28	-39.0	-39.8	24.3	0.00e+00	0	41	0	1009778688	49	3973
2026-01-22 11:38:56.99	152.78	21.42	-38.8	-39.6	24.5	0.00e+00	0	41	0	1016070144	49	3869
2026-01-22 11:38:58.00	152.79	21.56	-38.8	-39.5	24.5	0.00e+00	0	41	0	1021313024	49	3864
2026-01-22 11:38:59.01	152.79	21.71	-38.8	-39.6	24.5	0.00e+00	0	41	0	1026555904	49	3885
2026-01-22 11:39:00.01	152.80	21.85	-38.9	-39.7	24.4	0.00e+00	0	41	0	1032847360	49	3915
2026-01-22 11:39:01.02	152.80	21.99	-38.9	-39.7	24.4	0.00e+00	0	41	0	1039138816	49	3926
2026-01-22 11:39:02.03	152.81	22.13	-38.9	-39.7	24.4	0.00e+00	0	41	0	1044381696	49	3925
2026-01-22 11:39:03.04	152.81	22.28	-38.9	-39.7	24.4	0.00e+00	0	41	0	1049624576	49	3941
2026-01-22 11:39:04.05	152.82	22.42	-38.9	-39.7	24.4	0.00e+00	0	41	0	1055916032	49	3935
2026-01-22 11:39:05.06	152.82	22.57	-38.9	-39.7	24.4	0.00e+00	0	41	0	1061158912	49	3935
2026-01-22 11:39:06.07	152.83	22.72	-39.0	-39.7	24.3	0.00e+00	0	41	0	1066401792	49	3954
2026-01-22 11:39:07.08	152.83	22.87	-39.0	-39.7	24.3	0.00e+00	0	41	0	1072693248	49	3957
2026-01-22 11:39:08.08	152.84	23.01	-38.9	-39.7	24.4	0.00e+00	0	41	0	1077936128	49	3917
2026-01-22 11:39:09.09	152.84	23.16	-38.8	-39.6	24.5	0.00e+00	0	41	0	1084227584	49	3884
2026-01-22 11:39:10.10	152.85	23.31	-38.8	-39.6	24.5	0.00e+00	0	41	0	1089470464	49	3897
2026-01-22 11:39:11.11	152.85	23.47	-38.8	-39.6	24.5	0.00e+00	0	41	0	1094713344	49	3883
2026-01-22 11:39:12.12	152.86	23.62	-38.8	-39.6	24.4	0.00e+00	0	41	0	1101004800	49	3887
2026-01-22 11:39:13.13	152.86	23.77	-38.9	-39.7	24.4	0.00e+00	0	41	0	1107296256	49	3928
2026-01-22 11:39:14.14	152.87	23.93	-39.0	-39.7	24.4	0.00e+00	0	41	0	1112539136	49	3958
2026-01-22 11:39:15.14	152.88	24.08	-38.9	-39.6	24.5	0.00e+00	0	41	0	1117782016	49	3907
2026-01-22 11:39:16.15	152.88	24.24	-38.6	-39.4	24.7	0.00e+00	0	41	0	1124073472	49	3798
2026-01-22 11:39:17.16	152.89	24.39	-38.6	-39.4	24.7	0.00e+00	0	41	0	1129316352	49	3797
2026-01-22 11:39:18.17	152.89	24.55	-38.7	-39.4	24.6	0.00e+00	0	41	0	1134559232	49	3824
2026-01-22 11:39:19.18	152.90	24.71	-38.4	-39.2	24.9	0.00e+00	0	41	0	1140850688	48	3923
2026-01-22 11:39:20.18	152.90	24.87	-38.4	-39.1	24.9	0.00e+00	0	41	0	1146093568	48	3907
2026-01-22 11:39:21.19	152.91	25.03	-38.4	-39.1	24.9	0.00e+00	0	41	0	1151336448	48	3895
2026-01-22 11:39:22.20	152.91	25.19	-38.4	-39.1	25.0	0.00e+00	0	41	0	1157627904	48	3892
2026-01-22 11:39:23.21	152.92	25.35	-38.4	-39.1	24.9	0.00e+00	0	41	0	1162870784	48	3908
2026-01-22 11:39:24.21	152.93	25.52	-38.4	-39.1	24.9	0.00e+00	0	41	0	1169162240	48	3901
2026-01-22 11:39:25.23	152.93	25.68	-38.4	-39.1	24.9	0.00e+00	0	41	0	1174405120	48	3913
2026-01-22 11:39:26.23	152.94	25.85	-38.4	-39.2	24.9	0.00e+00	0	41	0	1180696576	48	3928
2026-01-22 11:39:27.24	152.94	26.01	-38.5	-39.2	24.8	0.00e+00	0	41	0	1185939456	48	3939
2026-01-22 11:39:28.25	152.95	26.18	-38.3	-39.1	25.0	0.00e+00	0	41	0	1192230912	48	3871
2026-01-22 11:39:29.26	152.95	26.35	-38.4	-39.1	25.0	0.00e+00	0	41	0	1197473792	48	3898
2026-01-22 11:39:30.26	152.96	26.52	-38.4	-39.1	25.0	0.00e+00	0	41	0	1202716672	48	3911
2026-01-22 11:39:31.27	152.97	26.69	-38.4	-39.1	25.0	0.00e+00	0	41	0	1209008128	48	3891
2026-01-22 11:39:32.28	152.97	26.86	-38.3	-39.0	25.0	0.00e+00	0	41	0	1214251008	48	3862
2026-01-22 11:39:33.29	152.98	27.04	-38.3	-39.1	25.0	0.00e+00	0	41	0	1219493888	48	3879
2026-01-22 11:39:34.30	152.98	27.21	-38.3	-39.0	25.1	0.00e+00	0	41	0	1225785344	48	3851
2026-01-22 11:39:35.30	152.99	27.38	-38.3	-39.1	25.0	0.00e+00	0	41	0	1231028224	48	3877
2026-01-22 11:39:36.31	153.00	27.56	-38.3	-39.1	25.0	0.00e+00	0	41	0	1236271104	48	3875
2026-01-22 11:39:37.32	153.00	27.74	-38.4	-39.1	25.0	0.00e+00	0	41	0	1242562560	48	3897
2026-01-22 11:39:38.33	153.01	27.92	-38.3	-39.0	25.0	0.00e+00	0	41	0	1248854016	48	3865
2026-01-22 11:39:39.33	153.01	28.10	-38.2	-39.0	25.1	0.00e+00	0	41	0	1254096896	48	3833
2026-01-22 11:39:40.34	153.02	28.28	-38.3	-39.0	25.1	0.00e+00	0	41	0	1259339776	48	3856
2026-01-22 11:39:41.35	153.03	28.46	-38.3	-39.0	25.1	0.00e+00	0	41	0	1265631232	48	3852
2026-01-22 11:39:42.36	153.03	28.64	-38.2	-38.9	25.1	0.00e+00	0	41	0	1270874112	48	3822
2026-01-22 11:39:43.36	153.04	28.83	-38.1	-38.8	25.2	0.00e+00	0	41	0	1277165568	48	3770
2026-01-22 11:39:44.37	153.04	29.01	-38.1	-38.9	25.2	0.00e+00	0	41	0	1282408448	48	3784
2026-01-22 11:39:45.38	153.05	29.20	-38.1	-38.8	25.3	0.00e+00	0	41	0	1287651328	48	3757
2026-01-22 11:39:46.39	153.06	29.39	-38.0	-38.7	25.3	0.00e+00	0	41	0	1293942784	48	3723
2026-01-22 11:39:47.40	153.06	29.58	-37.7	-38.5	25.0	0.00e+00	0	41	0	1299185664	47	3825
2026-01-22 11:39:48.41	153.07	29.77	-37.6	-38.4	25.1	0.00e+00	0	41	0	1304428544	47	3793
2026-01-22 11:39:49.42	153.07	29.96	-37.6	-38.3	25.1	0.00e+00	0	41	0	1310720000	46	4001
2026-01-22 11:39:50.42	153.08	30.16	-37.5	-38.4	25.1	0.00e+00	0	41	0	1317011456	46	4006
2026-01-22 11:39:51.43	153.09	30.35	-37.5	-38.3	25.2	0.00e+00	0	41	0	1322254336	46	3983
2026-01-22 11:39:52.44	153.09	30.55	-37.5	-38.3	25.2	0.00e+00	0	41	0	1327497216	46	3969
2026-01-22 11:39:53.45	153.10	30.75	-37.5	-38.3	25.2	0.00e+00	0	41	0	1333788672	46	3973
2026-01-22 11:39:54.46	153.11	30.94	-37.5	-38.2	25.2	0.00e+00	0	41	0	1339031552	46	3952
2026-01-22 11:39:55.47	153.11	31.15	-37.4	-38.2	25.3	0.00e+00	0	41	0	1344274432	46	3918
2026-01-22 11:39:56.48	153.12	31.35	-37.4	-38.1	25.3	0.00e+00	0	41	0	1350565888	46	3907
2026-01-22 11:39:57.48	153.13	31.55	-37.4	-38.1	25.3	0.00e+00	0	41	0	1355808768	46	3913
2026-01-22 11:39:58.49	153.13	31.75	-37.4	-38.1	25.3	0.00e+00	0	41	0	1362100224	46	3889
2026-01-22 11:39:59.50	153.14	31.96	-37.4	-38.2	25.3	0.00e+00	0	41	0	1367343104	46	3929
2026-01-22 11:40:00.51	153.15	32.17	-37.4	-38.2	25.3	0.00e+00	0	41	0	1372585984	46	3918
2026-01-22 11:40:01.52	153.15	32.38	-37.3	-38.1	25.4	0.00e+00	0	41	0	1378877440	46	3872
2026-01-22 11:40:02.52	153.16	32.59	-37.4	-38.2	25.3	0.00e+00	0	41	0	1385168896	46	3924
2026-01-22 11:40:03.53	153.17	32.80	-37.5	-38.3	25.2	0.00e+00	0	41	0	1390411776	46	3975
2026-01-22 11:40:04.54	153.17	33.01	-37.6	-38.4	25.1	0.00e+00	0	41	0	1395654656	46	4024
2026-01-22 11:40:05.55	153.18	33.23	-37.7	-38.4	25.0	0.00e+00	0	41	0	1401946112	46	4040
2026-01-22 11:40:06.56	153.19	33.44	-37.6	-38.3	25.1	0.00e+00	0	41	0	1407188992	46	3992
2026-01-22 11:40:07.56	153.19	33.66	-37.4	-38.2	25.2	0.00e+00	0	41	0	1412431872	46	3938
2026-01-22 11:40:08.57	153.20	33.88	-37.5	-38.2	25.2	0.00e+00	0	41	0	1418723328	46	3954
2026-01-22 11:40:09.58	153.21	34.10	-37.3	-38.1	25.3	0.00e+00	0	41	0	1423966208	46	3876
2026-01-22 11:40:10.59	153.21	34.32	-37.3	-38.0	25.4	0.00e+00	0	41	0	1429209088	46	3861
2026-01-22 11:40:11.60	153.22	34.55	-37.2	-38.0	25.5	0.00e+00	0	41	0	1435500544	46	3826
2026-01-22 11:40:12.60	153.23	34.77	-37.3	-38.0	25.4	0.00e+00	0	41	0	1440743424	46	3864
2026-01-22 11:40:13.61	153.24	35.00	-37.4	-38.2	25.3	0.00e+00	0	41	0	1447034880	46	3933
2026-01-22 11:40:14.62	153.24	35.23	-37.5	-38.3	25.2	0.00e+00	0	41	0	1452277760	46	3979
2026-01-22 11:40:15.63	153.25	35.46	-37.5	-38.3	25.2	0.00e+00	0	41	0	1458569216	46	3976
2026-01-22 11:40:16.64	153.26	35.69	-37.4	-38.2	25.3	0.00e+00	0	41	0	1463812096	46	3928
2026-01-22 11:40:17.64	153.26	35.92	-37.4	-38.1	25.4	0.00e+00	0	41	0	1470103552	46	3902
2026-01-22 11:40:18.65	153.27	36.16	-37.2	-37.9	25.6	0.00e+00	0	41	0	1475346432	46	3798
2026-01-22 11:40:19.66	153.28	36.40	-36.9	-37.6	25.8	0.00e+00	0	41	0	1480589312	45	3909
2026-01-22 11:40:20.67	153.29	36.64	-36.9	-37.6	25.9	0.00e+00	0	41	0	1486880768	45	3872
2026-01-22 11:40:21.68	153.29	36.88	-36.9	-37.6	25.8	0.00e+00	0	41	0	1492123648	45	3898
2026-01-22 11:40:22.68	153.30	37.12	-36.8	-37.5	25.9	0.00e+00	0	41	0	1497366528	45	3859
2026-01-22 11:40:23.69	153.31	37.37	-36.9	-37.7	25.8	0.00e+00	0	41	0	1503657984	45	3919
2026-01-22 11:40:24.70	153.32	37.61	-36.9	-37.6	26.2	0.00e+00	0	41	0	1508900864	45	3887
2026-01-22 11:40:25.71	153.33	37.86	-37.0	-37.7	26.2	0.00e+00	0	41	0	1514143744	45	3928
2026-01-22 11:40:26.72	153.33	38.11	-37.1	-37.7	26.1	0.00e+00	0	41	0	1520435200	45	3953
2026-01-22 11:40:27.72	153.34	38.36	-37.2	-37.8	26.0	0.00e+00	0	41	0	1526726656	45	4003
2026-01-22 11:40:28.73	153.35	38.62	-37.3	-38.0	25.9	0.00e+00	0	41	0	1531969536	45	4058
2026-01-22 11:40:29.74	153.36	38.87	-37.4	-38.1	25.9	0.00e+00	0	41	0	1537212416	45	4103
2026-01-22 11:40:30.75	153.37	39.13	-37.5	-38.2	25.7	0.00e+00	0	41	0	1543503872	45	4162
2026-01-22 11:40:31.76	153.37	39.39	-37.5	-38.2	25.7	0.00e+00	0	41	0	1548746752	45	4192
2026-01-22 11:40:32.76	153.38	39.65	-37.5	-38.2	25.8	0.00e+00	0	41	0	1555038208	45	4150
2026-01-22 11:40:33.77	153.39	39.91	-37.5	-38.2	25.7	0.00e+00	0	41	0	1560281088	45	4164
2026-01-22 11:40:34.78	153.40	40.18	-37.7	-38.3	25.6	0.00e+00	0	41	0	1565523968	45	4239
2026-01-22 11:40:35.79	153.41	40.45	-37.7	-38.4	25.6	0.00e+00	0	41	0	1571815424	45	4243
2026-01-22 11:40:36.80	153.42	40.72	-37.8	-38.5	25.6	0.00e+00	0	41	0	1577058304	46	4056
2026-01-22 11:40:37.81	153.43	40.99	-37.9	-38.6	25.4	0.00e+00	0	41	0	1582301184	46	4118
2026-01-22 11:40:38.81	153.43	41.26	-38.0	-38.7	25.3	0.00e+00	0	41	0	1588592640	46	4176
2026-01-22 11:40:39.82	153.44	41.54	-38.1	-38.8	25.2	0.00e+00	0	41	0	1593835520	46	4240
2026-01-22 11:40:40.83	153.45	41.82	-38.0	-38.8	25.3	0.00e+00	0	41	0	1600126976	46	4200
2026-01-22 11:40:41.84	153.46	42.10	-38.0	-38.7	25.4	0.00e+00	0	41	0	1605369856	46	4168
2026-01-22 11:40:42.84	153.47	42.38	-37.9	-38.6	25.4	0.00e+00	0	41	0	1611661312	46	4145
2026-01-22 11:40:43.85	153.48	42.66	-37.9	-38.6	25.4	0.00e+00	0	41	0	1616904192	46	4130
2026-01-22 11:40:44.86	153.49	42.95	-37.9	-38.6	25.4	0.00e+00	0	41	0	1622147072	46	4137
2026-01-22 11:40:45.86	153.50	43.24	-37.9	-38.6	25.4	0.00e+00	0	41	0	1628438528	46	4143
2026-01-22 11:40:46.87	153.51	43.53	-37.8	-38.5	25.5	0.00e+00	0	41	0	1633681408	46	4090
2026-01-22 11:40:47.88	153.52	43.82	-37.8	-38.5	25.5	0.00e+00	0	41	0	1639972864	46	4098
2026-01-22 11:40:48.89	153.53	44.12	-37.8	-38.5	25.6	0.00e+00	0	41	0	1645215744	46	4073
2026-01-22 11:40:49.90	153.54	44.41	-37.7	-38.4	25.6	0.00e+00	0	41	0	1650458624	46	4023
2026-01-22 11:40:50.90	153.55	44.71	-37.8	-38.5	25.6	0.00e+00	0	41	0	1656750080	46	4057
2026-01-22 11:40:51.91	153.56	45.01	-37.9	-38.7	25.4	0.00e+00	0	41	0	1661992960	46	4148
2026-01-22 11:40:52.92	153.57	45.32	-38.0	-38.7	25.3	0.00e+00	0	41	0	1667235840	46	4177
2026-01-22 11:40:53.93	153.58	45.63	-37.9	-38.6	25.5	0.00e+00	0	41	0	1673527296	46	4124
2026-01-22 11:40:54.94	153.59	45.94	-37.8	-38.5	25.6	0.00e+00	0	41	0	1679818752	46	4055
2026-01-22 11:40:55.95	153.60	46.25	-37.9	-38.6	25.4	0.00e+00	0	41	0	1685061632	46	4144
2026-01-22 11:40:56.95	153.61	46.56	-38.1	-38.9	25.2	0.00e+00	0	41	0	1690304512	46	4248
2026-01-22 11:40:57.96	153.62	46.88	-37.9	-38.6	25.5	0.00e+00	0	41	0	1696595968	46	4135
2026-01-22 11:40:58.97	153.63	47.20	-37.8	-38.5	25.5	0.00e+00	0	41	0	1701838848	46	4097
2026-01-22 11:40:59.98	153.64	47.52	-37.7	-38.4	25.7	0.00e+00	0	41	0	1707081728	46	4015
2026-01-22 11:41:00.99	153.65	47.84	-37.8	-38.5	25.6	0.00e+00	0	41	0	1713373184	46	4066
2026-01-22 11:41:01.99	153.67	48.16	-37.8	-38.4	25.6	0.00e+00	0	41	0	1718616064	46	4047
2026-01-22 11:41:03.00	153.68	48.49	-37.7	-38.4	25.7	0.00e+00	0	41	0	1724907520	46	4018
2026-01-22 11:41:04.01	153.69	48.83	-37.8	-38.5	25.6	0.00e+00	0	41	0	1730150400	46	4075
2026-01-22 11:41:05.02	153.70	49.16	-37.9	-38.6	25.5	0.00e+00	0	41	0	1736441856	46	4114
2026-01-22 11:41:06.03	153.71	49.50	-38.0	-38.7	25.4	0.00e+00	0	41	0	1741684736	46	4158
2026-01-22 11:41:07.04	153.73	49.83	-38.1	-38.8	25.3	0.00e+00	0	41	0	1747976192	46	4205
2026-01-22 11:41:08.05	153.74	50.18	-38.2	-38.9	25.2	0.00e+00	0	41	0	1753219072	46	4269
2026-01-22 11:41:09.06	153.75	50.52	-38.1	-38.8	25.3	0.00e+00	0	41	0	1758461952	47	3988
2026-01-22 11:41:10.06	153.76	50.86	-38.0	-38.7	25.4	0.00e+00	0	41	0	1764753408	47	3940
2026-01-22 11:41:11.07	153.78	51.21	-38.1	-38.8	25.3	0.00e+00	0	41	0	1769996288	47	3991
2026-01-22 11:41:12.08	153.79	51.57	-38.5	-39.2	25.0	0.00e+00	0	41	0	1775239168	47	4181
2026-01-22 11:41:13.09	153.80	51.92	-39.3	-40.0	24.8	0.00e+00	0	41	0	1781530624	49	4093
2026-01-22 11:41:14.10	153.82	52.28	-39.7	-40.4	24.4	0.00e+00	0	41	0	1786773504	49	4285
2026-01-22 11:41:15.10	153.83	52.63	-39.7	-40.4	24.5	0.00e+00	0	41	0	1792016384	50	4036
2026-01-22 11:41:16.11	153.85	53.00	-39.6	-40.3	24.6	0.00e+00	0	41	0	1798307840	50	3977
2026-01-22 11:41:17.12	153.86	53.36	-39.7	-40.4	24.4	0.00e+00	0	41	0	1803550720	50	4042
2026-01-22 11:41:18.13	153.88	53.73	-39.6	-40.3	24.6	0.00e+00	0	41	0	1809842176	50	3964
2026-01-22 11:41:19.14	153.89	54.10	-39.6	-40.3	24.6	0.00e+00	0	41	0	1815085056	50	3991
2026-01-22 11:41:20.14	153.91	54.47	-39.7	-40.4	24.5	0.00e+00	0	41	0	1821376512	50	4020
2026-01-22 11:41:21.15	153.92	54.84	-39.6	-40.4	24.5	0.00e+00	0	41	0	1826619392	50	4007
2026-01-22 11:41:22.16	153.94	55.22	-39.3	-40.0	24.9	0.00e+00	0	41	0	1832910848	50	3836
2026-01-22 11:41:23.17	153.96	55.60	-39.3	-39.9	24.9	0.00e+00	0	41	0	1838153728	50	3818
2026-01-22 11:41:24.18	153.97	55.99	-39.2	-39.9	24.9	0.00e+00	0	41	0	1843396608	50	3790
2026-01-22 11:41:25.18	153.99	56.37	-39.1	-39.8	25.1	0.00e+00	0	41	0	1849688064	50	3744
2026-01-22 11:41:26.19	154.01	56.76	-38.7	-39.4	25.3	0.00e+00	0	41	0	1854930944	49	3822
2026-01-22 11:41:27.20	154.02	57.15	-38.6	-39.2	25.5	0.00e+00	0	41	0	1860173824	49	3727
2026-01-22 11:41:28.21	154.04	57.55	-38.7	-39.3	25.4	0.00e+00	0	41	0	1866465280	49	3779
2026-01-22 11:41:29.22	154.06	57.94	-38.8	-39.5	25.2	0.00e+00	0	41	0	1871708160	49	3860
2026-01-22 11:41:30.22	154.08	58.34	-38.7	-39.4	25.3	0.00e+00	0	41	0	1877999616	49	3813
2026-01-22 11:41:31.23	154.10	58.74	-38.7	-39.4	25.3	0.00e+00	0	41	0	1883242496	49	3813
2026-01-22 11:41:32.24	154.12	59.15	-38.9	-39.6	25.2	0.00e+00	0	41	0	1889533952	49	3903
2026-01-22 11:41:33.25	154.14	59.56	-38.8	-39.5	25.3	0.00e+00	0	41	0	1894776832	49	3838
2026-01-22 11:41:34.26	154.16	59.97	-38.2	-38.9	25.8	0.00e+00	0	41	0	1900019712	48	3801
2026-01-22 11:41:35.26	154.18	60.38	-38.3	-39.0	25.7	0.00e+00	0	41	0	1906311168	48	3830
2026-01-22 11:41:36.27	154.21	60.79	-38.6	-39.3	25.4	0.00e+00	0	41	0	1911554048	48	4004
2026-01-22 11:41:37.28	154.23	61.21	-38.7	-39.4	25.4	0.00e+00	0	41	0	1917845504	48	4014
2026-01-22 11:41:38.29	154.25	61.63	-38.2	-38.8	25.8	0.00e+00	0	41	0	1923088384	48	3776
2026-01-22 11:41:39.30	154.28	62.06	-38.0	-38.6	26.0	0.00e+00	0	41	0	1928331264	48	3693
2026-01-22 11:41:40.30	154.30	62.48	-37.7	-38.4	25.8	0.00e+00	0	41	0	1934622720	47	3789
2026-01-22 11:41:41.31	154.33	62.91	-37.7	-38.4	25.7	0.00e+00	0	41	0	1939865600	47	3816
2026-01-22 11:41:42.32	154.36	63.34	-37.4	-38.1	26.0	0.00e+00	0	41	0	1945108480	46	3890
2026-01-22 11:41:43.33	154.38	63.78	-37.1	-37.7	26.3	0.00e+00	0	41	0	1951399936	46	3735
2026-01-22 11:41:44.34	154.41	64.21	-37.2	-37.9	26.2	0.00e+00	0	41	0	1957691392	46	3795
2026-01-22 11:41:45.35	154.44	64.65	-37.3	-38.0	26.1	0.00e+00	0	41	0	1962934272	46	3833
2026-01-22 11:41:46.35	154.47	65.09	-37.2	-37.9	26.2	0.00e+00	0	41	0	1968177152	46	3787
2026-01-22 11:41:47.36	154.50	65.54	-37.2	-37.9	26.1	0.00e+00	0	41	0	1974468608	46	3804
2026-01-22 11:41:48.37	154.54	65.99	-37.0	-37.7	26.3	0.00e+00	0	41	0	1979711488	46	3705
2026-01-22 11:41:49.38	154.57	66.44	-37.0	-37.6	26.4	0.00e+00	0	41	0	1984954368	45	3902
2026-01-22 11:41:50.38	154.60	66.88	-36.9	-37.6	26.4	0.00e+00	0	41	0	1991245824	45	3874
2026-01-22 11:41:51.39	154.64	67.34	-36.8	-37.4	26.5	0.00e+00	0	41	0	1996488704	45	3823
2026-01-22 11:41:52.40	154.68	67.80	-36.9	-37.6	26.4	0.00e+00	0	41	0	2002780160	45	3872
2026-01-22 11:41:53.41	154.72	68.26	-36.6	-37.3	26.7	0.00e+00	0	41	0	2008023040	45	3738
2026-01-22 11:41:54.41	154.76	68.72	-36.6	-37.2	26.6	0.00e+00	0	41	0	2013265920	44	3955
2026-01-22 11:41:55.42	154.80	69.18	-36.9	-37.6	26.4	0.00e+00	0	41	0	2019557376	44	4133
2026-01-22 11:41:56.43	154.85	69.65	-36.9	-37.6	26.4	0.00e+00	0	41	0	2025848832	45	3903
2026-01-22 11:41:57.44	154.89	70.12	-36.6	-37.2	26.7	0.00e+00	0	41	0	2031091712	45	3732
2026-01-22 11:41:58.45	154.94	70.59	-36.7	-37.4	26.6	0.00e+00	0	41	0	2036334592	45	3799
2026-01-22 11:41:59.46	154.99	71.06	-37.1	-37.8	26.3	0.00e+00	0	41	0	2042626048	45	3970
2026-01-22 11:42:00.46	155.05	71.53	-36.8	-37.5	26.6	0.00e+00	0	41	0	2047868928	45	3825
2026-01-22 11:42:01.47	155.11	72.01	-36.5	-37.2	26.7	0.00e+00	0	41	0	2053111808	45	3704
2026-01-22 11:42:02.48	155.17	72.49	-36.5	-37.2	26.8	0.00e+00	0	41	0	2059403264	44	3928
2026-01-22 11:42:03.49	155.23	72.97	-36.4	-37.1	26.7	0.00e+00	0	41	0	2064646144	44	3900
2026-01-22 11:42:04.50	155.30	73.46	-36.3	-36.9	26.9	0.00e+00	0	41	0	2069889024	44	3801
2026-01-22 11:42:05.51	155.37	73.94	-36.2	-36.9	27.0	0.00e+00	0	41	0	2076180480	44	3803
2026-01-22 11:42:06.51	155.44	74.43	-36.4	-37.1	26.9	0.00e+00	0	41	0	2081423360	44	3872
2026-01-22 11:42:07.52	155.52	74.92	-36.4	-37.0	26.8	0.00e+00	0	41	0	2087714816	44	3868
2026-01-22 11:42:08.52	155.61	75.41	-36.2	-36.9	27.0	0.00e+00	0	41	0	2092957696	44	3798
2026-01-22 11:42:09.53	155.70	75.90	-36.4	-37.0	26.9	0.00e+00	0	41	0	2099249152	44	3861
2026-01-22 11:42:10.54	155.80	76.39	-36.1	-36.8	27.1	0.00e+00	0	41	0	2104492032	44	3742
2026-01-22 11:42:11.55	155.90	76.89	-36.3	-36.9	27.0	0.00e+00	0	41	0	2110783488	44	3811
2026-01-22 11:42:12.56	156.02	77.39	-36.5	-37.2	26.7	0.00e+00	0	41	0	2116026368	44	3924
2026-01-22 11:42:13.57	156.14	77.89	-35.7	-36.4	27.3	0.00e+00	0	41	0	2121269248	43	3807
2026-01-22 11:42:14.57	156.27	78.39	-35.5	-36.1	27.5	0.00e+00	0	41	0	2127560704	42	3896
2026-01-22 11:42:15.58	156.42	78.89	-35.5	-36.2	27.5	0.00e+00	0	41	0	2132803584	42	3922
2026-01-22 11:42:16.59	156.58	79.40	-35.5	-36.1	27.5	0.00e+00	0	41	0	2138046464	42	3911
2026-01-22 11:42:17.60	156.75	79.90	-35.0	-35.7	27.8	0.00e+00	0	41	0	2144337920	42	3714
2026-01-22 11:42:18.61	156.95	80.41	-35.0	-35.6	27.8	0.00e+00	0	41	0	2149580800	41	3907
2026-01-22 11:42:19.62	157.16	80.92	-35.1	-35.7	27.8	0.00e+00	0	41	0	2154823680	41	3933
2026-01-22 11:42:20.62	157.40	81.42	-35.6	-36.2	27.3	0.00e+00	0	41	0	2161115136	41	4190
2026-01-22 11:42:21.63	157.67	81.93	-35.4	-36.0	27.6	0.00e+00	0	41	0	2167406592	41	4094
2026-01-22 11:42:22.64	157.98	82.44	-35.1	-35.7	27.8	0.00e+00	0	41	0	2172649472	41	3932
2026-01-22 11:42:23.65	158.33	82.95	-35.3	-36.0	27.7	0.00e+00	0	41	0	2177892352	41	4057
2026-01-22 11:42:24.65	158.73	83.46	-35.4	-36.1	27.6	0.00e+00	0	41	0	2184183808	41	4100
2026-01-22 11:42:25.66	159.21	83.97	-35.6	-36.2	27.4	0.00e+00	0	41	0	2189426688	41	4185
2026-01-22 11:42:26.67	159.77	84.49	-35.2	-35.8	27.7	0.00e+00	0	41	0	2195718144	41	4002
2026-01-22 11:42:27.68	160.45	85.00	-35.2	-35.8	27.7	0.00e+00	0	41	0	2200961024	41	4000
2026-01-22 11:42:28.69	161.28	85.51	-35.3	-36.0	27.6	0.00e+00	0	41	0	2206203904	41	4057
2026-01-22 11:42:29.70	162.33	86.03	-35.1	-35.7	27.8	0.00e+00	0	41	0	2212495360	41	3950
2026-01-22 11:42:30.70	163.67	86.53	-35.3	-35.9	27.7	0.00e+00	0	41	0	2217738240	41	4025
2026-01-22 11:42:31.71	165.50	87.04	-35.3	-35.9	27.7	0.00e+00	0	41	0	2222981120	41	4051
2026-01-22 11:42:32.72	168.07	87.55	-35.5	-36.1	27.5	0.00e+00	0	41	0	2229272576	41	4124
2026-01-22 11:42:33.73	171.97	88.05	-35.3	-35.9	27.6	0.00e+00	0	41	0	2235564032	41	4047
2026-01-22 11:42:34.74	178.48	88.53	-35.8	-36.5	27.3	0.00e+00	0	41	0	2240806912	42	4065
2026-01-22 11:42:35.75	190.96	88.98	-36.3	-37.0	26.7	0.00e+00	0	41	0	2246049792	43	4084
2026-01-22 11:42:36.76	218.39	89.31	-36.5	-37.1	26.8	0.00e+00	0	41	0	2252341248	44	3910
2026-01-22 11:42:37.76	263.03	89.33	-36.4	-37.0	26.8	0.00e+00	0	41	0	2257584128	43	4097
2026-01-22 11:42:38.77	293.26	89.03	-36.2	-36.8	27.0	0.00e+00	0	41	0	2262827008	43	3999
2026-01-22 11:42:39.78	306.98	88.59	-35.5	-36.1	27.6	0.00e+00	0	41	0	2269118464	42	3892
2026-01-22 11:42:40.79	313.99	88.11	-35.5	-36.2	27.5	0.00e+00	0	41	0	2274361344	42	3926
2026-01-22 11:42:41.80	318.13	87.61	-35.6	-36.2	27.4	0.00e+00	0	41	0	2280652800	42	3958
2026-01-22 11:42:42.80	320.81	87.11	-35.6	-36.2	27.5	0.00e+00	0	41	0	2285895680	42	3956
2026-01-22 11:42:43.81	322.72	86.60	-35.2	-35.9	27.7	0.00e+00	0	41	0	2291138560	42	3783
2026-01-22 11:42:44.82	324.12	86.09	-35.2	-35.8	27.7	0.00e+00	0	41	0	2297430016	42	3776
2026-01-22 11:42:45.83	325.21	85.58	-35.2	-35.9	27.7	0.00e+00	0	41	0	2303721472	42	3803
2026-01-22 11:42:46.84	326.06	85.07	-35.0	-35.7	27.9	0.00e+00	0	41	0	2308964352	42	3709
2026-01-22 11:42:47.84	326.75	84.56	-34.9	-35.6	27.9	0.00e+00	0	41	0	2314207232	41	3891
2026-01-22 11:42:48.85	327.33	84.05	-34.6	-35.2	28.2	0.00e+00	0	41	0	2320498688	41	3734
2026-01-22 11:42:49.86	327.82	83.53	-34.7	-35.3	28.2	0.00e+00	0	41	0	2325741568	41	3753
2026-01-22 11:42:50.87	328.23	83.02	-34.6	-35.2	28.2	0.00e+00	0	41	0	2330984448	41	3731
2026-01-22 11:42:51.88	328.59	82.51	-34.2	-34.8	28.5	0.00e+00	0	41	0	2337275904	40	3771
2026-01-22 11:42:52.88	328.90	82.00	-34.5	-35.1	28.3	0.00e+00	0	41	0	2342518784	40	3896
2026-01-22 11:42:53.89	329.17	81.49	-35.0	-35.7	27.9	0.00e+00	0	41	0	2347761664	40	4183
2026-01-22 11:42:54.90	329.42	80.98	-34.9	-35.6	28.0	0.00e+00	0	41	0	2354053120	40	4121
2026-01-22 11:42:55.91	329.64	80.48	-35.0	-35.7	27.9	0.00e+00	0	41	0	2359296000	40	4157
2026-01-22 11:42:56.92	329.83	79.97	-35.2	-35.8	27.8	0.00e+00	0	41	0	2365587456	40	4223
2026-01-22 11:42:57.92	330.01	79.47	-35.1	-35.8	27.8	0.00e+00	0	41	0	2370830336	40	4212
2026-01-22 11:42:58.93	330.17	78.96	-35.2	-35.8	27.8	0.00e+00	0	41	0	2377121792	40	4227
2026-01-22 11:42:59.94	330.32	78.46	-35.3	-35.9	27.8	0.00e+00	0	41	0	2382364672	41	4049
2026-01-22 11:43:00.95	330.45	77.96	-35.4	-36.1	27.6	0.00e+00	0	41	0	2388656128	41	4099
2026-01-22 11:43:01.96	330.58	77.46	-35.5	-36.1	27.6	0.00e+00	0	41	0	2393899008	41	4132
2026-01-22 11:43:02.96	330.69	76.97	-35.6	-36.2	27.5	0.00e+00	0	41	0	2399141888	41	4186
2026-01-22 11:43:03.97	330.80	76.47	-36.0	-36.7	27.1	0.00e+00	0	41	0	2405433344	42	4179
2026-01-22 11:43:04.98	330.90	75.97	-35.9	-36.6	27.1	0.00e+00	0	41	0	2410676224	42	4128
2026-01-22 11:43:05.99	330.99	75.48	-36.0	-36.6	27.1	0.00e+00	0	41	0	2415919104	42	4132
2026-01-22 11:43:07.00	331.08	74.99	-36.1	-36.8	27.1	0.00e+00	0	41	0	2422210560	42	4200
2026-01-22 11:43:08.01	331.16	74.50	-36.2	-36.9	26.9	0.00e+00	0	41	0	2427453440	43	4036
2026-01-22 11:43:09.02	331.23	74.01	-35.9	-36.5	27.3	0.00e+00	0	41	0	2432696320	43	3845
2026-01-22 11:43:10.02	331.30	73.53	-35.9	-36.6	27.3	0.00e+00	0	41	0	2438987776	43	3878
2026-01-22 11:43:11.03	331.37	73.05	-36.0	-36.6	27.3	0.00e+00	0	41	0	2445279232	43	3907
2026-01-22 11:43:12.04	331.44	72.56	-36.1	-36.8	27.1	0.00e+00	0	41	0	2450522112	43	3973
2026-01-22 11:43:13.05	331.50	72.08	-36.3	-36.9	27.0	0.00e+00	0	41	0	2455764992	43	4045
2026-01-22 11:43:14.06	331.55	71.61	-36.3	-37.0	26.9	0.00e+00	0	41	0	2462056448	43	4069
2026-01-22 11:43:15.07	331.61	71.13	-36.6	-37.3	26.7	0.00e+00	0	41	0	2467299328	43	4195
2026-01-22 11:43:16.08	331.66	70.66	-36.8	-37.5	26.6	0.00e+00	0	41	0	2473590784	44	4074
2026-01-22 11:43:17.09	331.71	70.19	-36.9	-37.5	26.6	0.00e+00	0	41	0	2478833664	44	4085
2026-01-22 11:43:18.10	331.76	69.72	-36.8	-37.5	26.6	0.00e+00	0	41	0	2484076544	44	4074
2026-01-22 11:43:19.11	331.80	69.25	-36.6	-37.3	26.8	0.00e+00	0	41	0	2490368000	44	3983
2026-01-22 11:43:20.12	331.85	68.79	-36.7	-37.3	26.8	0.00e+00	0	41	0	2495610880	44	3995
2026-01-22 11:43:21.13	331.89	68.32	-37.1	-37.8	26.4	0.00e+00	0	41	0	2501902336	44	4220
2026-01-22 11:43:22.14	331.93	67.87	-37.0	-37.7	26.3	0.00e+00	0	41	0	2507145216	45	3957
2026-01-22 11:43:23.14	331.96	67.41	-36.6	-37.2	26.8	0.00e+00	0	41	0	2513436672	45	3725
2026-01-22 11:43:24.15	332.00	66.96	-36.7	-37.4	26.7	0.00e+00	0	41	0	2518679552	45	3784
2026-01-22 11:43:25.16	332.04	66.51	-37.4	-38.0	26.2	0.00e+00	0	41	0	2523922432	45	4097
2026-01-22 11:43:26.17	332.07	66.06	-37.2	-37.9	26.2	0.00e+00	0	41	0	2530213888	45	4031
2026-01-22 11:43:27.18	332.10	65.61	-37.1	-37.8	26.4	0.00e+00	0	41	0	2535456768	45	3966
2026-01-22 11:43:28.19	332.14	65.16	-37.4	-38.0	26.1	0.00e+00	0	41	0	2540699648	45	4094
2026-01-22 11:43:29.20	332.17	64.72	-37.4	-38.2	26.0	0.00e+00	0	41	0	2546991104	45	4147
2026-01-22 11:43:30.21	332.20	64.28	-37.1	-37.8	26.4	0.00e+00	0	41	0	2552233984	45	3982
2026-01-22 11:43:31.22	332.22	63.85	-37.0	-37.7	26.5	0.00e+00	0	41	0	2558525440	45	3925
2026-01-22 11:43:32.23	332.25	63.41	-37.0	-37.7	26.5	0.00e+00	0	41	0	2563768320	45	3930
2026-01-22 11:43:33.24	332.28	62.98	-37.0	-37.7	26.5	0.00e+00	0	41	0	2570059776	45	3929
2026-01-22 11:43:34.25	332.31	62.55	-37.2	-37.9	26.3	0.00e+00	0	41	0	2575302656	45	4019
2026-01-22 11:43:35.26	332.33	62.12	-37.3	-38.0	26.2	0.00e+00	0	41	0	2581594112	45	4092
2026-01-22 11:43:36.26	332.35	61.70	-37.5	-38.2	26.0	0.00e+00	0	41	0	2586836992	45	4175
2026-01-22 11:43:37.27	332.38	61.28	-37.4	-38.1	26.1	0.00e+00	0	40	0	2592079872	45	4126
2026-01-22 11:43:38.29	332.40	60.86	-37.4	-38.0	26.2	0.00e+00	0	41	0	2598371328	45	4087
2026-01-22 11:43:39.29	332.42	60.45	-37.7	-38.4	25.9	0.00e+00	0	41	0	2603614208	45	4246
2026-01-22 11:43:40.30	332.45	60.04	-37.8	-38.6	25.7	0.00e+00	0	41	0	2608857088	46	4109
2026-01-22 11:43:41.31	332.47	59.63	-37.9	-38.6	25.7	0.00e+00	0	41	0	2615148544	46	4110
2026-01-22 11:43:42.32	332.49	59.22	-37.9	-38.6	25.7	0.00e+00	0	41	0	2620391424	46	4118
2026-01-22 11:43:43.33	332.51	58.81	-37.9	-38.6	25.7	0.00e+00	0	41	0	2626682880	46	4124
2026-01-22 11:43:44.34	332.53	58.41	-37.8	-38.5	25.8	0.00e+00	0	41	0	2631925760	46	4059
2026-01-22 11:43:45.35	332.55	58.01	-38.1	-38.7	25.6	0.00e+00	0	41	0	2638217216	46	4192
2026-01-22 11:43:46.36	332.57	57.61	-38.3	-39.0	25.4	0.00e+00	0	41	0	2643460096	47	4065
2026-01-22 11:43:47.36	332.59	57.22	-38.4	-39.1	25.3	0.00e+00	0	41	0	2648702976	47	4133
2026-01-22 11:43:48.37	332.60	56.83	-38.3	-39.0	25.3	0.00e+00	0	41	0	2654994432	47	4083
2026-01-22 11:43:49.38	332.62	56.44	-38.3	-39.0	25.3	0.00e+00	0	41	0	2660237312	47	4090
2026-01-22 11:43:50.39	332.64	56.06	-38.5	-39.2	25.2	0.00e+00	0	41	0	2666528768	47	4166
2026-01-22 11:43:51.40	332.66	55.67	-39.2	-39.9	25.1	0.00e+00	0	41	0	2671771648	48	4289
2026-01-22 11:43:52.41	332.67	55.29	-39.3	-40.0	25.0	0.00e+00	0	41	0	2677014528	49	4094
2026-01-22 11:43:53.42	332.69	54.92	-39.3	-40.1	25.0	0.00e+00	0	41	0	2683305984	49	4105
2026-01-22 11:43:54.43	332.71	54.54	-39.4	-40.1	24.9	0.00e+00	0	41	0	2689597440	49	4127
2026-01-22 11:43:55.44	332.72	54.17	-39.5	-40.2	24.8	0.00e+00	0	41	0	2694840320	49	4163
2026-01-22 11:43:56.44	332.74	53.80	-39.4	-40.1	24.9	0.00e+00	0	41	0	2700083200	49	4111
2026-01-22 11:43:57.45	332.75	53.44	-39.4	-40.1	24.9	0.00e+00	0	41	0	2706374656	49	4119
2026-01-22 11:43:58.46	332.77	53.07	-39.1	-39.8	25.1	0.00e+00	0	41	0	2711617536	49	3999
2026-01-22 11:43:59.47	332.78	52.71	-38.9	-39.6	25.4	0.00e+00	0	41	0	2716860416	49	3872
2026-01-22 11:44:00.48	332.80	52.35	-38.6	-39.2	25.7	0.00e+00	0	41	0	2723151872	49	3721
2026-01-22 11:44:01.49	332.81	51.99	-38.6	-39.2	25.7	0.00e+00	0	41	0	2728394752	49	3714
2026-01-22 11:44:02.50	332.82	51.64	-38.4	-39.1	25.7	0.00e+00	0	41	0	2733637632	48	3892
2026-01-22 11:44:03.51	332.84	51.29	-38.4	-39.0	25.8	0.00e+00	0	41	0	2739929088	48	3860
2026-01-22 11:44:04.51	332.85	50.94	-38.5	-39.2	25.7	0.00e+00	0	41	0	2745171968	48	3939
2026-01-22 11:44:05.52	332.86	50.60	-38.4	-39.1	25.7	0.00e+00	0	41	0	2751463424	48	3884
2026-01-22 11:44:06.53	332.88	50.25	-38.1	-38.8	26.0	0.00e+00	0	41	0	2756706304	48	3748
2026-01-22 11:44:07.55	332.89	49.91	-37.6	-38.2	26.0	0.00e+00	0	41	0	2762997760	47	3730
2026-01-22 11:44:08.56	332.90	49.57	-37.6	-38.3	25.9	0.00e+00	0	41	0	2768240640	47	3753
2026-01-22 11:44:09.57	332.91	49.23	-37.6	-38.3	26.0	0.00e+00	0	41	0	2774532096	47	3739
2026-01-22 11:44:10.58	332.93	48.90	-37.8	-38.6	25.7	0.00e+00	0	41	0	2779774976	47	3870
2026-01-22 11:44:11.58	332.94	48.57	-38.0	-38.7	25.6	0.00e+00	0	41	0	2785017856	47	3944
2026-01-22 11:44:12.59	332.95	48.24	-38.0	-38.7	25.6	0.00e+00	0	41	0	2791309312	47	3939
2026-01-22 11:44:13.60	332.96	47.92	-37.9	-38.7	25.6	0.00e+00	0	41	0	2796552192	47	3918
2026-01-22 11:44:14.61	332.97	47.59	-38.0	-38.7	25.6	0.00e+00	0	41	0	2801795072	47	3914
2026-01-22 11:44:15.62	332.98	47.27	-37.7	-38.4	25.9	0.00e+00	0	41	0	2808086528	47	3790
2026-01-22 11:44:16.62	333.00	46.96	-37.6	-38.3	25.9	0.00e+00	0	41	0	2813329408	47	3749
2026-01-22 11:44:17.63	333.01	46.64	-37.4	-38.0	26.1	0.00e+00	0	41	0	2819620864	46	3861
2026-01-22 11:44:18.64	333.02	46.33	-37.3	-37.9	26.2	0.00e+00	0	41	0	2824863744	46	3810
2026-01-22 11:44:19.65	333.03	46.02	-37.3	-38.0	26.2	0.00e+00	0	41	0	2831155200	46	3837
2026-01-22 11:44:20.66	333.04	45.71	-37.5	-38.2	26.0	0.00e+00	0	41	0	2836398080	46	3917
2026-01-22 11:44:21.67	333.05	45.40	-37.6	-38.3	25.9	0.00e+00	0	41	0	2841640960	46	3984
2026-01-22 11:44:22.68	333.06	45.10	-37.6	-38.3	25.8	0.00e+00	0	41	0	2847932416	46	3992
2026-01-22 11:44:23.69	333.07	44.79	-37.6	-38.3	25.8	0.00e+00	0	41	0	2853175296	46	4002
2026-01-22 11:44:24.70	333.08	44.49	-37.6	-38.3	25.8	0.00e+00	0	41	0	2859466752	46	3986
2026-01-22 11:44:25.70	333.09	44.20	-37.5	-38.2	26.0	0.00e+00	0	41	0	2864709632	46	3915
2026-01-22 11:44:26.71	333.10	43.90	-37.4	-38.1	26.0	0.00e+00	0	41	0	2869952512	46	3878
2026-01-22 11:44:27.72	333.11	43.61	-37.5	-38.2	26.0	0.00e+00	0	41	0	2876243968	46	3937
2026-01-22 11:44:28.73	333.12	43.32	-37.6	-38.3	25.9	0.00e+00	0	41	0	2882535424	46	3968
2026-01-22 11:44:29.74	333.13	43.03	-37.7	-38.4	25.8	0.00e+00	0	41	0	2887778304	46	4013
2026-01-22 11:44:30.75	333.14	42.75	-37.8	-38.5	25.7	0.00e+00	0	41	0	2893021184	46	4059
2026-01-22 11:44:31.76	333.15	42.46	-37.8	-38.5	25.7	0.00e+00	0	41	0	2899312640	46	4072
2026-01-22 11:44:32.76	333.16	42.18	-37.7	-38.4	25.8	0.00e+00	0	41	0	2904555520	46	4022
2026-01-22 11:44:33.77	333.17	41.90	-37.6	-38.3	25.8	0.00e+00	0	41	0	2909798400	46	3986
2026-01-22 11:44:34.78	333.18	41.62	-37.6	-38.3	25.8	0.00e+00	0	41	0	2916089856	46	3994
2026-01-22 11:44:35.79	333.19	41.35	-37.6	-38.3	25.8	0.00e+00	0	41	0	2921332736	46	3999
2026-01-22 11:44:36.79	333.20	41.08	-37.4	-38.1	26.0	0.00e+00	0	41	0	2926575616	46	3897
2026-01-22 11:44:37.80	333.20	40.81	-37.2	-37.9	26.2	0.00e+00	0	41	0	2932867072	46	3797
2026-01-22 11:44:38.81	333.21	40.54	-37.3	-37.9	26.1	0.00e+00	0	41	0	2938109952	46	3824
2026-01-22 11:44:39.82	333.22	40.27	-37.1	-37.8	26.3	0.00e+00	0	41	0	2944401408	46	3749
2026-01-22 11:44:40.83	333.23	40.00	-37.1	-37.8	26.2	0.00e+00	0	41	0	2949644288	46	3768
2026-01-22 11:44:41.84	333.24	39.74	-37.1	-37.8	26.3	0.00e+00	0	41	0	2955935744	46	3753
2026-01-22 11:44:42.85	333.25	39.48	-37.2	-37.9	26.2	0.00e+00	0	41	0	2961178624	46	3798
2026-01-22 11:44:43.86	333.26	39.22	-37.3	-38.0	26.1	0.00e+00	0	41	0	2967470080	46	3833
2026-01-22 11:44:44.86	333.26	38.96	-37.3	-38.1	26.0	0.00e+00	0	41	0	2972712960	46	3873
2026-01-22 11:44:45.87	333.27	38.71	-37.3	-38.0	26.1	0.00e+00	0	41	0	2977955840	46	3832
2026-01-22 11:44:46.88	333.28	38.45	-37.3	-38.0	26.0	0.00e+00	0	41	0	2984247296	46	3855
2026-01-22 11:44:47.89	333.29	38.20	-37.1	-37.8	26.2	0.00e+00	0	41	0	2989490176	46	3755
2026-01-22 11:44:48.90	333.30	37.95	-37.2	-37.9	26.2	0.00e+00	0	41	0	2994733056	46	3784
2026-01-22 11:44:49.91	333.31	37.70	-36.9	-37.6	26.4	0.00e+00	0	41	0	3001024512	45	3875
2026-01-22 11:44:50.92	333.31	37.46	-36.8	-37.5	26.5	0.00e+00	0	41	0	3006267392	45	3830
2026-01-22 11:44:51.93	333.32	37.21	-36.9	-37.5	26.5	0.00e+00	0	41	0	3012558848	45	3848
2026-01-22 11:44:52.93	333.33	36.97	-37.0	-37.7	26.3	0.00e+00	0	41	0	3017801728	45	3924
2026-01-22 11:44:53.95	333.34	36.73	-37.1	-37.8	26.2	0.00e+00	0	41	0	3024093184	45	3991
2026-01-22 11:44:54.95	333.35	36.49	-37.3	-38.0	26.1	0.00e+00	0	41	0	3029336064	45	4059
2026-01-22 11:44:55.96	333.35	36.25	-37.3	-38.0	26.0	0.00e+00	0	41	0	3034578944	45	4068
2026-01-22 11:44:56.97	333.36	36.02	-37.4	-38.1	26.0	0.00e+00	0	41	0	3040870400	45	4109
2026-01-22 11:44:57.98	333.37	35.78	-37.3	-38.0	26.0	0.00e+00	0	41	0	3046113280	45	4083
2026-01-22 11:44:58.99	333.38	35.55	-37.2	-37.9	26.1	0.00e+00	0	41	0	3052404736	45	4012
2026-01-22 11:44:59.99	333.38	35.32	-37.2	-37.9	26.1	0.00e+00	0	41	0	3057647616	45	4005
2026-01-22 11:45:01.00	333.39	35.09	-37.0	-37.7	26.3	0.00e+00	0	41	0	3062890496	45	3919
2026-01-22 11:45:02.01	333.40	34.87	-36.9	-37.6	26.3	0.00e+00	0	41	0	3069181952	45	3894
2026-01-22 11:45:03.02	333.41	34.64	-37.0	-37.6	26.3	0.00e+00	0	41	0	3074424832	45	3913
2026-01-22 11:45:04.03	333.41	34.42	-37.1	-37.8	26.2	0.00e+00	0	41	0	3080716288	45	3976
2026-01-22 11:45:05.04	333.42	34.20	-37.2	-37.8	26.1	0.00e+00	0	41	0	3085959168	45	4004
2026-01-22 11:45:06.04	333.43	33.98	-37.3	-38.0	26.1	0.00e+00	0	41	0	3092250624	45	4053
2026-01-22 11:45:07.05	333.44	33.76	-37.5	-38.2	25.9	0.00e+00	0	41	0	3097493504	45	4151
2026-01-22 11:45:08.06	333.44	33.54	-37.5	-38.2	25.8	0.00e+00	0	41	0	3102736384	45	4170
2026-01-22 11:45:09.07	333.45	33.32	-37.6	-38.3	25.7	0.00e+00	0	41	0	3109027840	45	4235
2026-01-22 11:45:10.08	333.46	33.11	-37.7	-38.4	25.7	0.00e+00	0	41	0	3114270720	45	4253
2026-01-22 11:45:11.09	333.46	32.90	-37.7	-38.4	25.6	0.00e+00	0	41	0	3119513600	46	4045
2026-01-22 11:45:12.10	333.47	32.68	-37.7	-38.4	25.6	0.00e+00	0	41	0	3125805056	46	4038
2026-01-22 11:45:13.11	333.48	32.47	-37.7	-38.5	25.6	0.00e+00	0	41	0	3131047936	46	4056
2026-01-22 11:45:14.12	333.48	32.27	-37.7	-38.4	25.6	0.00e+00	0	41	0	3137339392	46	4031
2026-01-22 11:45:15.12	333.49	32.06	-37.8	-38.5	25.6	0.00e+00	0	41	0	3142582272	46	4056
2026-01-22 11:45:16.13	333.50	31.85	-37.7	-38.4	25.6	0.00e+00	0	41	0	3148873728	46	4041
2026-01-22 11:45:17.14	333.51	31.65	-37.6	-38.3	25.7	0.00e+00	0	41	0	3154116608	46	3996
2026-01-22 11:45:18.15	333.51	31.45	-37.7	-38.4	25.6	0.00e+00	0	41	0	3160408064	46	4019
2026-01-22 11:45:19.16	333.52	31.25	-37.5	-38.2	25.8	0.00e+00	0	41	0	3165650944	46	3936
2026-01-22 11:45:20.16	333.53	31.05	-37.5	-38.2	25.8	0.00e+00	0	41	0	3170893824	46	3947
2026-01-22 11:45:21.17	333.53	30.85	-37.4	-38.1	25.9	0.00e+00	0	41	0	3177185280	46	3886
2026-01-22 11:45:22.18	333.54	30.65	-37.4	-38.0	25.9	0.00e+00	0	41	0	3182428160	46	3863
2026-01-22 11:45:23.19	333.55	30.45	-37.4	-38.1	25.8	0.00e+00	0	41	0	3187671040	46	3903
2026-01-22 11:45:24.20	333.55	30.26	-37.4	-38.1	25.9	0.00e+00	0	41	0	3193962496	46	3878
2026-01-22 11:45:25.20	333.56	30.07	-37.5	-38.2	25.8	0.00e+00	0	41	0	3199205376	46	3918
2026-01-22 11:45:26.21	333.57	29.88	-37.5	-38.2	25.8	0.00e+00	0	41	0	3204448256	46	3927
2026-01-22 11:45:27.22	333.57	29.68	-37.4	-38.1	25.8	0.00e+00	0	41	0	3210739712	46	3903
2026-01-22 11:45:28.23	333.58	29.50	-37.5	-38.2	25.7	0.00e+00	0	41	0	3217031168	46	3932
2026-01-22 11:45:29.24	333.59	29.31	-37.6	-38.3	25.7	0.00e+00	0	41	0	3222274048	46	3969
2026-01-22 11:45:30.25	333.59	29.12	-37.6	-38.3	25.6	0.00e+00	0	41	0	3227516928	46	4002
2026-01-22 11:45:31.26	333.60	28.93	-37.7	-38.4	25.6	0.00e+00	0	41	0	3233808384	46	4020
2026-01-22 11:45:32.27	333.60	28.75	-37.6	-38.3	25.6	0.00e+00	0	41	0	3239051264	46	3994
2026-01-22 11:45:33.28	333.61	28.57	-37.7	-38.4	25.6	0.00e+00	0	41	0	3245342720	46	4033
2026-01-22 11:45:34.29	333.62	28.38	-37.7	-38.5	25.5	0.00e+00	0	41	0	3250585600	46	4056
2026-01-22 11:45:35.29	333.62	28.20	-37.7	-38.4	25.6	0.00e+00	0	41	0	3255828480	46	4016
2026-01-22 11:45:36.30	333.63	28.02	-37.7	-38.4	25.6	0.00e+00	0	41	0	3262119936	46	4020
2026-01-22 11:45:37.31	333.64	27.85	-37.7	-38.4	25.5	0.00e+00	0	41	0	3267362816	46	4036
2026-01-22 11:45:38.32	333.64	27.67	-37.7	-38.4	25.6	0.00e+00	0	41	0	3272605696	46	4020
2026-01-22 11:45:39.33	333.65	27.49	-37.7	-38.4	25.6	0.00e+00	0	41	0	3278897152	46	4020
2026-01-22 11:45:40.34	333.66	27.32	-37.8	-38.5	25.5	0.00e+00	0	41	0	3285188608	46	4070
2026-01-22 11:45:41.34	333.66	27.14	-37.7	-38.4	25.5	0.00e+00	0	41	0	3290431488	46	4036
2026-01-22 11:45:42.35	333.67	26.97	-37.6	-38.3	25.6	0.00e+00	0	41	0	3295674368	46	3974
2026-01-22 11:45:43.36	333.67	26.80	-37.7	-38.4	25.6	0.00e+00	0	41	0	3301965824	46	4006
2026-01-22 11:45:44.37	333.68	26.63	-37.7	-38.4	25.5	0.00e+00	0	41	0	3307208704	46	4044
2026-01-22 11:45:45.38	333.69	26.46	-37.7	-38.4	25.5	0.00e+00	0	41	0	3312451584	46	4028
2026-01-22 11:45:46.39	333.69	26.29	-37.7	-38.5	25.5	0.00e+00	0	41	0	3318743040	46	4054
2026-01-22 11:45:47.40	333.70	26.12	-37.9	-38.6	25.3	0.00e+00	0	41	0	3323985920	46	4140
2026-01-22 11:45:48.40	333.70	25.96	-37.9	-38.6	25.3	0.00e+00	0	41	0	3330277376	46	4131
2026-01-22 11:45:49.41	333.71	25.79	-37.8	-38.5	25.4	0.00e+00	0	41	0	3335520256	46	4094
2026-01-22 11:45:50.42	333.72	25.63	-37.8	-38.5	25.4	0.00e+00	0	41	0	3340763136	46	4092
2026-01-22 11:45:51.43	333.72	25.46	-37.8	-38.6	25.4	0.00e+00	0	41	0	3347054592	46	4101
2026-01-22 11:45:52.44	333.73	25.30	-37.9	-38.6	25.3	0.00e+00	0	41	0	3353346048	46	4141
2026-01-22 11:45:53.45	333.73	25.14	-38.0	-38.7	25.2	0.00e+00	0	41	0	3358588928	46	4186
2026-01-22 11:45:54.46	333.74	24.98	-38.0	-38.7	25.3	0.00e+00	0	41	0	3363831808	46	4159
2026-01-22 11:45:55.46	333.75	24.82	-38.0	-38.7	25.2	0.00e+00	0	41	0	3370123264	46	4169
2026-01-22 11:45:56.47	333.75	24.66	-38.0	-38.7	25.2	0.00e+00	0	41	0	3375366144	46	4181
2026-01-22 11:45:57.48	333.76	24.50	-37.9	-38.6	25.3	0.00e+00	0	41	0	3380609024	46	4145
2026-01-22 11:45:58.49	333.76	24.35	-37.9	-38.6	25.3	0.00e+00	0	41	0	3386900480	46	4144
2026-01-22 11:45:59.50	333.77	24.19	-38.0	-38.8	25.2	0.00e+00	0	41	0	3392143360	46	4198
2026-01-22 11:46:00.51	333.78	24.04	-38.1	-38.8	25.2	0.00e+00	0	41	0	3397386240	46	4204
2026-01-22 11:46:01.51	333.78	23.88	-37.9	-38.6	25.3	0.00e+00	0	41	0	3403677696	46	4129
2026-01-22 11:46:02.52	333.79	23.73	-38.0	-38.7	25.2	0.00e+00	0	41	0	3408920576	46	4156
2026-01-22 11:46:03.53	333.79	23.58	-38.0	-38.7	25.2	0.00e+00	0	41	0	3415212032	46	4172
2026-01-22 11:46:04.54	333.80	23.43	-38.2	-38.9	25.1	0.00e+00	0	41	0	3420454912	46	4254
2026-01-22 11:46:05.55	333.80	23.28	-38.0	-38.7	25.2	0.00e+00	0	41	0	3426746368	46	4193
2026-01-22 11:46:06.55	333.81	23.13	-38.1	-38.8	25.1	0.00e+00	0	41	0	3431989248	46	4211
2026-01-22 11:46:07.56	333.82	22.98	-38.1	-38.8	25.1	0.00e+00	0	41	0	3438280704	46	4237
2026-01-22 11:46:08.57	333.82	22.83	-38.2	-38.9	25.0	0.00e+00	0	41	0	3443523584	47	4038
2026-01-22 11:46:09.57	333.83	22.69	-38.1	-38.9	25.1	0.00e+00	0	41	0	3448766464	47	4010
2026-01-22 11:46:10.58	333.83	22.54	-38.2	-38.9	25.0	0.00e+00	0	41	0	3455057920	47	4048
2026-01-22 11:46:11.59	333.84	22.40	-38.3	-39.0	24.9	0.00e+00	0	41	0	3460300800	47	4071
2026-01-22 11:46:12.60	333.84	22.25	-38.3	-39.0	24.9	0.00e+00	0	41	0	3465543680	47	4093
2026-01-22 11:46:13.61	333.85	22.11	-38.3	-39.1	24.9	0.00e+00	0	41	0	3471835136	47	4111
2026-01-22 11:46:14.62	333.86	21.96	-38.4	-39.1	24.8	0.00e+00	0	41	0	3477078016	47	4120
2026-01-22 11:46:15.63	333.86	21.82	-38.4	-39.2	24.8	0.00e+00	0	41	0	3483369472	47	4158
2026-01-22 11:46:16.64	333.87	21.68	-38.4	-39.2	24.8	0.00e+00	0	41	0	3488612352	47	4156
2026-01-22 11:46:17.64	333.87	21.54	-38.5	-39.2	24.7	0.00e+00	0	41	0	3494903808	47	4166
2026-01-22 11:46:18.65	333.88	21.40	-38.6	-39.3	24.6	0.00e+00	0	41	0	3500146688	47	4221
2026-01-22 11:46:19.66	333.88	21.26	-38.6	-39.3	24.6	0.00e+00	0	41	0	3505389568	47	4218
2026-01-22 11:46:20.67	333.89	21.13	-38.7	-39.4	24.5	0.00e+00	0	41	0	3511681024	47	4271
2026-01-22 11:46:21.68	333.90	20.99	-38.7	-39.4	24.5	0.00e+00	0	41	0	3516923904	47	4266
2026-01-22 11:46:22.69	333.90	20.85	-39.0	-39.7	24.8	0.00e+00	0	41	0	3523215360	48	4187
2026-01-22 11:46:23.70	333.91	20.72	-39.0	-39.8	24.7	0.00e+00	0	41	0	3528458240	48	4194
2026-01-22 11:46:24.70	333.91	20.58	-39.1	-39.9	24.6	0.00e+00	0	41	0	3533701120	49	4010
2026-01-22 11:46:25.71	333.92	20.45	-39.0	-39.8	24.7	0.00e+00	0	41	0	3539992576	49	3968
2026-01-22 11:46:26.72	333.92	20.31	-39.2	-39.9	24.6	0.00e+00	0	41	0	3545235456	49	4030
2026-01-22 11:46:27.73	333.93	20.18	-39.2	-39.9	24.6	0.00e+00	0	41	0	3551526912	49	4023
2026-01-22 11:46:28.73	333.93	20.05	-39.2	-39.9	24.5	0.00e+00	0	41	0	3556769792	49	4047
2026-01-22 11:46:29.74	333.94	19.92	-39.1	-39.9	24.6	0.00e+00	0	41	0	3563061248	49	4008
2026-01-22 11:46:30.75	333.94	19.79	-39.1	-39.8	24.6	0.00e+00	0	41	0	3568304128	49	4003
2026-01-22 11:46:31.76	333.95	19.66	-39.1	-39.8	24.6	0.00e+00	0	41	0	3573547008	49	3986
2026-01-22 11:46:32.77	333.96	19.53	-39.2	-39.9	24.5	0.00e+00	0	41	0	3579838464	49	4021
2026-01-22 11:46:33.78	333.96	19.40	-39.2	-39.9	24.6	1.10e-06	0	41	0	3585081344	49	4011
2026-01-22 11:46:34.79	333.97	19.27	-39.2	-39.9	24.5	0.00e+00	0	41	0	3590324224	49	4045
2026-01-22 11:46:35.79	333.97	19.14	-39.2	-39.9	24.5	0.00e+00	0	41	0	3596615680	49	4032
2026-01-22 11:46:36.81	333.98	19.01	-39.3	-40.0	24.4	0.00e+00	0	41	0	3601858560	49	4066
2026-01-22 11:46:37.81	333.98	18.89	-39.4	-40.1	24.4	0.00e+00	0	41	0	3608150016	49	4114
2026-01-22 11:46:38.82	333.99	18.76	-39.3	-40.0	24.4	0.00e+00	0	41	0	3613392896	49	4097
2026-01-22 11:46:39.83	333.99	18.64	-39.3	-40.1	24.3	0.00e+00	0	41	0	3619684352	49	4101
2026-01-22 11:46:40.84	334.00	18.51	-39.3	-40.1	24.4	0.00e+00	0	41	0	3624927232	49	4107
2026-01-22 11:46:41.85	334.00	18.39	-39.4	-40.2	24.3	0.00e+00	0	41	0	3631218688	49	4147
2026-01-22 11:46:42.86	334.01	18.27	-39.4	-40.2	24.2	0.00e+00	0	41	0	3636461568	49	4151
2026-01-22 11:46:43.87	334.01	18.15	-39.6	-40.3	24.1	0.00e+00	0	41	0	3641704448	49	4227
2026-01-22 11:46:44.88	334.02	18.02	-39.5	-40.3	24.2	0.00e+00	0	41	0	3647995904	49	4198
2026-01-22 11:46:45.88	334.03	17.90	-39.6	-40.3	24.1	0.00e+00	0	41	0	3653238784	49	4223
2026-01-22 11:46:46.89	334.03	17.78	-39.6	-40.3	24.1	0.00e+00	0	41	0	3658481664	49	4238
2026-01-22 11:46:47.90	334.04	17.66	-39.7	-40.4	24.0	0.00e+00	0	41	0	3664773120	49	4284
2026-01-22 11:46:48.91	334.04	17.54	-39.8	-40.5	23.9	0.00e+00	0	41	0	3670016000	50	4098
2026-01-22 11:46:49.92	334.05	17.42	-39.8	-40.5	23.9	0.00e+00	0	41	0	3675258880	50	4087
2026-01-22 11:46:50.93	334.05	17.31	-39.8	-40.6	23.9	0.00e+00	0	41	0	3681550336	50	4109
