passes_logs/2026/01/22/R3.2S_Murmansk/R3.2S_Murmansk__20260122_015402_AQUA_rec.log

#Pass ID: 20260122_015402_AQUA
#Satellite: AQUA
#Configuration: AQUA
#almurnet v.1.7.20251203
#Start time: 2026-01-22 01:54:04

#Version: 2.2.20231116
#Station: R3.2S_Murmansk
#Location: 33.079688 lon 68.888172 lat
#TLE: 1 27424U 02022A   26021.53721517  .00002456  00000+0  50140-3 0  9996
#TLE: 2 27424  98.4098 348.0744 0002012  70.1009  46.1672 14.61843091261845

#Time	Az	El	Level	Level2	SNR	BER	BlckErr	Temp	State	Recorded	gain1	gain2
2026-01-22 01:54:04.10	22.59	2.09	-55.8	-73.7	3.8	7.46e-01	0	40	0	0	82	29368
2026-01-22 01:54:05.10	22.60	2.15	-55.8	-73.7	3.8	7.43e-01	0	40	104	0	82	29431
2026-01-22 01:54:06.10	22.62	2.22	-55.8	-73.7	3.8	7.45e-01	0	40	104	0	82	29370
2026-01-22 01:54:07.11	22.64	2.29	-55.8	-73.6	3.8	7.46e-01	0	40	104	0	82	29244
2026-01-22 01:54:08.12	22.66	2.35	-55.8	-73.5	3.8	7.46e-01	0	40	104	0	82	28958
2026-01-22 01:54:09.13	22.68	2.42	-55.7	-73.5	3.8	7.44e-01	0	40	104	0	82	28744
2026-01-22 01:54:10.14	22.70	2.49	-55.7	-73.4	3.8	7.46e-01	0	40	104	0	82	28540
2026-01-22 01:54:11.15	22.72	2.56	-55.7	-73.5	3.8	7.50e-01	0	40	104	0	82	28743
2026-01-22 01:54:12.15	22.74	2.62	-55.7	-73.5	3.8	7.46e-01	0	40	104	0	82	28763
2026-01-22 01:54:13.16	22.76	2.69	-55.6	-73.4	3.8	7.44e-01	0	40	104	0	82	28511
2026-01-22 01:54:14.17	22.78	2.76	-55.5	-73.3	3.8	7.49e-01	0	40	104	0	82	28149
2026-01-22 01:54:15.18	22.79	2.83	-55.4	-73.2	3.8	7.46e-01	0	40	104	0	82	27879
2026-01-22 01:54:16.18	22.81	2.90	-55.3	-72.7	3.8	7.46e-01	0	40	104	0	82	26278
2026-01-22 01:54:17.19	22.83	2.96	-55.3	-72.7	3.8	7.45e-01	0	40	104	0	82	26246
2026-01-22 01:54:18.20	22.85	3.03	-55.1	-72.7	3.8	7.44e-01	0	40	104	0	82	26402
2026-01-22 01:54:19.21	22.87	3.10	-55.0	-72.3	3.8	7.46e-01	0	40	104	0	81	26651
2026-01-22 01:54:20.22	22.89	3.17	-54.7	-72.5	3.8	7.43e-01	0	40	104	0	81	27233
2026-01-22 01:54:21.22	22.91	3.24	-54.4	-72.2	3.7	7.46e-01	0	40	104	0	80	27932
2026-01-22 01:54:22.23	22.93	3.31	-54.0	-71.8	3.8	7.47e-01	0	40	104	0	80	26611
2026-01-22 01:54:23.24	22.95	3.38	-53.9	-71.6	3.8	7.46e-01	0	40	104	0	79	27683
2026-01-22 01:54:24.25	22.97	3.45	-53.9	-71.6	3.8	7.43e-01	0	40	104	0	79	27541
2026-01-22 01:54:25.26	22.99	3.52	-53.9	-71.4	3.8	7.46e-01	0	40	104	0	79	26839
2026-01-22 01:54:26.27	23.01	3.59	-53.7	-70.8	3.8	7.42e-01	0	40	104	0	79	25038
2026-01-22 01:54:27.28	23.03	3.66	-53.5	-69.7	3.8	7.43e-01	0	40	104	0	79	22105
2026-01-22 01:54:28.29	23.05	3.73	-53.1	-68.4	3.8	7.42e-01	0	40	104	0	78	20077
2026-01-22 01:54:29.30	23.07	3.80	-52.3	-66.4	3.8	7.46e-01	0	40	104	0	76	17947
2026-01-22 01:54:30.31	23.10	3.88	-51.6	-64.8	3.8	7.46e-01	0	40	104	0	75	15919
2026-01-22 01:54:31.31	23.12	3.95	-51.0	-63.7	3.8	7.45e-01	0	40	104	0	74	14798
2026-01-22 01:54:32.32	23.14	4.02	-49.9	-62.0	3.8	7.47e-01	0	40	104	0	71	14435
2026-01-22 01:54:33.33	23.16	4.09	-48.9	-60.5	3.8	7.46e-01	0	40	104	0	69	13598
2026-01-22 01:54:34.34	23.18	4.16	-48.3	-59.8	3.8	7.47e-01	0	40	104	0	68	13287
2026-01-22 01:54:35.35	23.20	4.23	-48.0	-59.5	3.8	7.47e-01	0	40	104	0	67	13631
2026-01-22 01:54:36.36	23.22	4.31	-47.7	-59.0	3.8	7.44e-01	0	40	104	0	66	13597
2026-01-22 01:54:37.37	23.24	4.38	-47.1	-58.3	3.8	7.44e-01	0	40	104	0	66	12535
2026-01-22 01:54:38.38	23.26	4.45	-46.9	-58.0	3.8	7.46e-01	0	40	104	0	65	12923
2026-01-22 01:54:39.39	23.28	4.53	-46.9	-58.0	3.8	7.42e-01	0	40	104	0	65	12878
2026-01-22 01:54:40.39	23.31	4.60	-46.5	-57.6	3.8	7.44e-01	0	40	104	0	65	12255
2026-01-22 01:54:41.40	23.33	4.67	-47.0	-58.1	3.8	7.44e-01	0	40	104	0	65	13054
2026-01-22 01:54:42.41	23.35	4.75	-48.1	-59.5	3.8	7.48e-01	0	40	104	0	66	14528
2026-01-22 01:54:43.42	23.37	4.82	-47.7	-59.0	3.8	7.43e-01	0	40	104	0	67	12952
2026-01-22 01:54:44.43	23.39	4.89	-49.4	-61.2	3.8	7.47e-01	0	40	104	0	69	14866
2026-01-22 01:54:45.43	23.42	4.97	-49.8	-61.9	3.9	7.43e-01	0	40	104	0	70	15053
2026-01-22 01:54:46.44	23.44	5.04	-48.8	-60.4	3.8	7.42e-01	0	40	104	0	69	13442
2026-01-22 01:54:47.45	23.46	5.12	-46.8	-57.9	3.8	7.41e-01	0	40	104	0	65	12783
2026-01-22 01:54:48.46	23.48	5.19	-48.8	-60.1	3.8	7.44e-01	0	40	104	0	67	14612
2026-01-22 01:54:49.46	23.50	5.27	-53.3	-69.6	3.9	7.41e-01	0	40	104	0	78	23289
2026-01-22 01:54:50.47	23.53	5.34	-47.1	-58.2	3.8	7.43e-01	0	40	104	0	66	12500
2026-01-22 01:54:51.48	23.55	5.42	-47.8	-59.1	3.8	7.45e-01	0	40	104	0	67	12985
2026-01-22 01:54:52.49	23.57	5.49	-46.6	-57.6	3.8	7.47e-01	0	40	104	0	64	13006
2026-01-22 01:54:53.50	23.59	5.57	-46.5	-57.5	3.8	7.44e-01	0	40	104	0	64	12929
2026-01-22 01:54:54.50	23.62	5.65	-47.1	-58.2	3.9	7.44e-01	0	40	104	0	64	13994
2026-01-22 01:54:55.51	23.64	5.72	-46.8	-57.9	3.9	7.44e-01	0	40	104	0	65	12720
2026-01-22 01:54:56.52	23.66	5.80	-50.5	-62.8	3.8	7.45e-01	0	40	104	0	71	15877
2026-01-22 01:54:57.53	23.69	5.88	-51.9	-65.6	3.9	7.42e-01	0	40	104	0	76	16499
2026-01-22 01:54:58.53	23.71	5.96	-46.1	-57.0	3.9	7.41e-01	0	40	104	0	64	12198
2026-01-22 01:54:59.54	23.73	6.03	-47.2	-58.3	3.8	7.43e-01	0	40	104	0	66	12660
2026-01-22 01:55:00.55	23.76	6.11	-46.3	-57.3	3.8	7.43e-01	0	40	104	0	64	12566
2026-01-22 01:55:01.56	23.78	6.19	-46.3	-57.3	3.8	7.45e-01	0	40	104	0	64	12533
2026-01-22 01:55:02.57	23.80	6.27	-46.0	-57.0	3.8	7.46e-01	0	40	104	0	64	12112
2026-01-22 01:55:03.57	23.83	6.35	-46.1	-57.1	3.9	7.44e-01	0	40	104	0	64	12330
2026-01-22 01:55:04.58	23.85	6.43	-50.1	-62.1	3.8	7.46e-01	0	40	104	0	70	15523
2026-01-22 01:55:05.59	23.88	6.51	-52.2	-66.1	4.0	7.42e-01	0	40	104	0	76	17292
2026-01-22 01:55:06.60	23.90	6.59	-46.3	-57.3	3.9	7.50e-01	0	40	104	0	64	12531
2026-01-22 01:55:07.60	23.92	6.66	-46.6	-57.7	3.8	7.45e-01	0	40	104	0	65	12385
2026-01-22 01:55:08.61	23.95	6.75	-46.4	-57.3	3.8	7.42e-01	0	40	104	0	64	12630
2026-01-22 01:55:09.62	23.97	6.83	-46.4	-57.4	3.8	7.46e-01	0	41	104	0	64	12701
2026-01-22 01:55:10.63	24.00	6.91	-47.1	-58.2	3.8	7.45e-01	0	40	104	0	64	14013
2026-01-22 01:55:11.64	24.02	6.99	-45.9	-56.8	3.8	7.40e-01	0	40	104	0	63	12606
2026-01-22 01:55:12.65	24.05	7.07	-52.5	-66.4	3.8	7.47e-01	0	40	104	0	75	19051
2026-01-22 01:55:13.66	24.07	7.15	-49.8	-61.7	3.9	7.43e-01	0	40	104	0	71	13942
2026-01-22 01:55:14.67	24.10	7.23	-46.2	-57.1	3.8	7.42e-01	0	40	104	0	63	12969
2026-01-22 01:55:15.67	24.12	7.31	-46.5	-57.5	3.9	7.45e-01	0	40	104	0	65	12151
2026-01-22 01:55:16.68	24.15	7.40	-45.9	-56.9	3.9	7.43e-01	0	40	104	0	63	12750
2026-01-22 01:55:17.69	24.17	7.48	-46.0	-57.0	3.8	7.44e-01	0	40	104	0	63	12854
2026-01-22 01:55:18.70	24.20	7.56	-46.6	-57.6	3.8	7.46e-01	0	40	104	0	63	13870
2026-01-22 01:55:19.71	24.23	7.65	-45.7	-56.7	3.8	7.43e-01	0	40	104	0	63	12391
2026-01-22 01:55:20.72	24.25	7.73	-53.8	-70.2	3.7	7.52e-01	0	40	104	0	78	24958
2026-01-22 01:55:21.72	24.28	7.81	-48.7	-60.2	3.9	7.44e-01	0	40	104	0	69	13229
2026-01-22 01:55:22.74	24.30	7.90	-46.6	-57.5	3.8	7.47e-01	0	40	104	0	63	13674
2026-01-22 01:55:23.74	24.33	7.98	-46.0	-56.9	3.8	7.48e-01	0	40	104	0	64	12038
2026-01-22 01:55:24.75	24.36	8.07	-45.8	-56.8	3.8	7.43e-01	0	40	104	0	63	12530
2026-01-22 01:55:25.75	24.38	8.15	-45.8	-56.7	3.8	7.43e-01	0	40	104	0	63	12419
2026-01-22 01:55:26.76	24.41	8.24	-45.9	-56.8	3.8	7.45e-01	0	40	104	0	63	12594
2026-01-22 01:55:27.77	24.44	8.32	-45.4	-56.2	3.8	7.43e-01	0	40	104	0	62	12469
2026-01-22 01:55:28.78	24.46	8.41	-53.8	-70.1	3.7	7.47e-01	0	40	104	0	78	24430
2026-01-22 01:55:29.79	24.49	8.50	-49.5	-61.3	3.8	7.40e-01	0	41	104	0	71	13362
2026-01-22 01:55:30.80	24.52	8.58	-47.3	-58.6	3.9	7.48e-01	0	40	104	0	65	13885
2026-01-22 01:55:31.81	24.55	8.67	-45.9	-56.9	3.8	7.46e-01	0	40	104	0	63	12701
2026-01-22 01:55:32.82	24.57	8.76	-45.7	-56.6	3.8	7.45e-01	0	40	104	0	63	12278
2026-01-22 01:55:33.83	24.60	8.85	-45.6	-56.5	3.8	7.44e-01	0	41	104	0	63	12206
2026-01-22 01:55:34.83	24.63	8.93	-45.6	-56.5	3.8	7.46e-01	0	41	104	0	62	12869
2026-01-22 01:55:35.84	24.66	9.02	-45.4	-56.3	3.9	7.45e-01	0	41	104	0	62	12586
2026-01-22 01:55:36.85	24.69	9.11	-54.2	-71.2	3.7	7.45e-01	0	41	104	0	78	27953
2026-01-22 01:55:37.86	24.71	9.20	-49.1	-60.7	3.8	7.46e-01	0	41	104	0	70	13217
2026-01-22 01:55:38.87	24.74	9.29	-47.4	-58.6	3.9	7.41e-01	0	40	104	0	65	13733
2026-01-22 01:55:39.88	24.77	9.38	-45.8	-56.6	3.8	7.43e-01	0	41	104	0	63	12375
2026-01-22 01:55:40.89	24.80	9.47	-45.5	-56.3	3.8	7.45e-01	0	41	104	0	63	11945
2026-01-22 01:55:41.89	24.83	9.56	-45.4	-56.2	3.8	7.44e-01	0	40	104	0	62	12442
2026-01-22 01:55:42.90	24.86	9.65	-45.8	-56.7	3.8	7.45e-01	0	41	104	0	62	13111
2026-01-22 01:55:43.91	24.89	9.74	-45.4	-56.2	3.8	7.44e-01	0	40	104	0	62	12472
2026-01-22 01:55:44.92	24.92	9.84	-54.2	-71.4	3.9	7.45e-01	0	40	104	0	79	26932
2026-01-22 01:55:45.93	24.95	9.93	-48.8	-60.2	3.8	7.43e-01	0	41	104	0	69	13131
2026-01-22 01:55:46.94	24.98	10.02	-47.7	-58.8	3.9	7.41e-01	0	40	104	0	65	14099
2026-01-22 01:55:47.95	25.01	10.11	-45.5	-56.3	3.8	7.45e-01	0	41	104	0	63	11899
2026-01-22 01:55:48.95	25.04	10.21	-45.5	-56.3	3.8	7.42e-01	0	41	104	0	62	12619
2026-01-22 01:55:49.96	25.07	10.30	-45.4	-56.2	3.8	7.42e-01	0	41	104	0	62	12462
2026-01-22 01:55:50.97	25.10	10.39	-46.0	-56.9	3.8	7.46e-01	0	41	104	0	62	13480
2026-01-22 01:55:51.98	25.13	10.49	-45.2	-56.0	3.9	7.45e-01	0	41	104	0	62	12187
2026-01-22 01:55:52.99	25.16	10.58	-54.3	-71.5	3.8	7.45e-01	0	40	104	0	79	27077
2026-01-22 01:55:54.00	25.19	10.68	-48.7	-60.1	3.8	7.46e-01	0	40	104	0	69	12977
2026-01-22 01:55:55.01	25.22	10.78	-47.8	-59.0	3.8	7.42e-01	0	40	104	0	66	13710
2026-01-22 01:55:56.01	25.26	10.87	-45.4	-56.2	3.8	7.44e-01	0	41	104	0	62	12427
2026-01-22 01:55:57.02	25.29	10.97	-45.3	-56.1	3.8	7.45e-01	0	40	104	0	62	12246
2026-01-22 01:55:58.03	25.32	11.06	-44.9	-55.7	3.8	7.45e-01	0	41	104	0	61	12458
2026-01-22 01:55:59.04	25.35	11.16	-45.7	-56.6	3.8	7.45e-01	0	41	104	0	61	13735
2026-01-22 01:56:00.05	25.38	11.26	-44.9	-55.7	3.8	7.42e-01	0	41	104	0	61	12439
2026-01-22 01:56:01.05	25.42	11.36	-54.3	-71.4	3.8	7.42e-01	0	41	104	0	79	26807
2026-01-22 01:56:02.06	25.45	11.46	-48.9	-60.3	3.8	7.43e-01	0	40	104	0	69	13383
2026-01-22 01:56:03.07	25.48	11.56	-47.6	-58.7	3.8	7.47e-01	0	40	104	0	65	14035
2026-01-22 01:56:04.07	25.51	11.65	-45.2	-56.0	3.8	7.48e-01	0	40	104	0	62	12221
2026-01-22 01:56:05.08	25.55	11.75	-45.0	-55.8	3.8	7.46e-01	0	41	104	0	62	11941
2026-01-22 01:56:06.09	25.58	11.85	-44.9	-55.6	3.8	7.46e-01	0	40	104	0	61	12363
2026-01-22 01:56:07.10	25.62	11.96	-45.5	-56.3	3.8	7.46e-01	0	40	104	0	61	13301
2026-01-22 01:56:08.11	25.65	12.06	-44.8	-55.6	3.8	7.42e-01	0	41	104	0	61	12251
2026-01-22 01:56:09.12	25.68	12.16	-54.4	-71.4	3.8	7.45e-01	0	41	104	0	79	26998
2026-01-22 01:56:10.13	25.72	12.26	-48.1	-59.4	3.8	7.45e-01	0	40	104	0	68	12757
2026-01-22 01:56:11.14	25.75	12.36	-47.6	-58.8	3.8	7.44e-01	0	40	104	0	66	13384
2026-01-22 01:56:12.14	25.79	12.47	-45.0	-55.8	3.8	7.45e-01	0	41	104	0	62	11916
2026-01-22 01:56:13.15	25.82	12.57	-45.0	-55.8	3.8	7.46e-01	0	40	104	0	61	12553
2026-01-22 01:56:14.16	25.86	12.67	-45.0	-55.8	3.8	7.47e-01	0	41	104	0	61	12540
2026-01-22 01:56:15.17	25.89	12.78	-45.0	-55.9	3.8	7.40e-01	0	40	104	0	61	12679
2026-01-22 01:56:16.18	25.93	12.89	-44.7	-55.5	3.8	7.45e-01	0	40	104	0	61	12197
2026-01-22 01:56:17.19	25.97	12.99	-54.4	-71.5	3.8	7.46e-01	0	41	104	0	79	27178
2026-01-22 01:56:18.20	26.00	13.10	-48.0	-59.1	3.8	7.41e-01	0	40	104	0	67	12965
2026-01-22 01:56:19.21	26.04	13.20	-47.1	-58.2	3.9	7.42e-01	0	41	104	0	65	13183
2026-01-22 01:56:20.22	26.08	13.31	-44.9	-55.7	3.9	7.44e-01	0	40	104	0	61	12425
2026-01-22 01:56:21.23	26.11	13.42	-44.7	-55.5	3.8	7.42e-01	0	40	104	0	61	12132
2026-01-22 01:56:22.23	26.15	13.53	-44.6	-55.4	3.9	7.46e-01	0	40	104	0	61	11997
2026-01-22 01:56:23.24	26.19	13.64	-45.2	-56.0	3.8	7.47e-01	0	41	104	0	61	12888
2026-01-22 01:56:24.25	26.23	13.74	-44.5	-55.3	3.9	7.43e-01	0	40	104	0	61	11825
2026-01-22 01:56:25.26	26.26	13.85	-54.5	-71.5	3.8	7.48e-01	0	40	104	0	79	27240
2026-01-22 01:56:26.27	26.30	13.97	-47.2	-58.2	3.9	7.47e-01	0	40	104	0	66	12518
2026-01-22 01:56:27.28	26.34	14.08	-46.9	-57.9	3.8	7.44e-01	0	40	104	0	65	12798
2026-01-22 01:56:28.28	26.38	14.19	-44.8	-55.5	3.8	7.44e-01	0	41	104	0	61	12209
2026-01-22 01:56:29.29	26.42	14.30	-44.8	-55.5	3.9	7.45e-01	0	40	104	0	61	12196
2026-01-22 01:56:30.30	26.46	14.41	-44.8	-55.5	3.8	7.45e-01	0	40	104	0	61	12165
2026-01-22 01:56:31.31	26.50	14.53	-45.1	-55.9	3.8	7.45e-01	0	41	104	0	61	12777
2026-01-22 01:56:32.32	26.54	14.64	-44.6	-55.4	3.9	7.47e-01	0	40	104	0	60	12666
2026-01-22 01:56:33.33	26.58	14.75	-54.1	-70.2	3.8	7.41e-01	0	41	104	0	79	23558
2026-01-22 01:56:34.33	26.62	14.87	-45.9	-56.6	3.9	7.42e-01	0	41	104	0	63	12363
2026-01-22 01:56:35.34	26.66	14.98	-46.5	-57.5	3.9	7.44e-01	0	40	104	0	65	12168
2026-01-22 01:56:36.35	26.70	15.10	-44.6	-55.3	3.8	7.44e-01	0	40	104	0	61	11899
2026-01-22 01:56:37.36	26.74	15.22	-44.5	-55.2	3.9	7.45e-01	0	41	104	0	61	11802
2026-01-22 01:56:38.37	26.79	15.33	-44.4	-55.2	3.8	7.46e-01	0	40	104	0	60	12444
2026-01-22 01:56:39.38	26.83	15.45	-45.1	-56.0	3.9	7.45e-01	0	41	104	0	61	12830
2026-01-22 01:56:40.39	26.87	15.57	-44.8	-55.6	3.8	7.44e-01	0	41	104	0	60	12968
2026-01-22 01:56:41.39	26.91	15.69	-54.1	-70.2	3.8	7.44e-01	0	40	104	0	79	23506
2026-01-22 01:56:42.40	26.96	15.81	-45.0	-55.7	3.9	7.42e-01	0	40	104	0	62	11798
2026-01-22 01:56:43.41	27.00	15.93	-46.0	-56.9	3.8	7.41e-01	0	41	104	0	64	12037
2026-01-22 01:56:44.42	27.04	16.05	-44.7	-55.4	3.8	7.43e-01	0	41	104	0	61	12075
2026-01-22 01:56:45.43	27.09	16.17	-44.4	-55.2	3.8	7.43e-01	0	40	104	0	60	12481
2026-01-22 01:56:46.43	27.13	16.29	-44.3	-55.0	3.8	7.40e-01	0	40	104	0	60	12151
2026-01-22 01:56:47.44	27.18	16.42	-44.5	-55.2	3.9	7.42e-01	0	41	104	0	60	12511
2026-01-22 01:56:48.45	27.22	16.54	-46.3	-57.0	3.8	7.44e-01	0	40	104	0	62	13721
2026-01-22 01:56:49.46	27.27	16.67	-52.6	-66.2	4.0	7.43e-01	0	41	104	0	77	16650
2026-01-22 01:56:50.47	27.31	16.79	-44.6	-55.3	3.9	7.42e-01	0	41	104	0	61	11890
2026-01-22 01:56:51.48	27.36	16.92	-45.8	-56.7	3.9	7.43e-01	0	41	104	0	63	12449
2026-01-22 01:56:52.49	27.41	17.04	-44.3	-55.0	3.9	7.44e-01	0	40	104	0	60	12159
2026-01-22 01:56:53.49	27.45	17.17	-44.2	-55.0	3.8	7.46e-01	0	41	104	0	60	12159
2026-01-22 01:56:54.50	27.50	17.30	-45.2	-56.0	3.8	7.45e-01	0	40	104	0	60	13688
2026-01-22 01:56:55.51	27.55	17.43	-44.6	-55.4	3.8	7.40e-01	0	41	104	0	61	11987
2026-01-22 01:56:56.52	27.60	17.56	-48.5	-59.9	3.8	7.44e-01	0	41	104	0	67	14349
2026-01-22 01:56:57.53	27.65	17.69	-50.3	-62.1	3.9	7.45e-01	0	41	104	0	72	13804
2026-01-22 01:56:58.54	27.70	17.82	-44.3	-54.9	3.9	7.44e-01	0	41	104	0	60	12081
2026-01-22 01:56:59.55	27.74	17.95	-45.5	-56.4	3.8	7.44e-01	0	40	104	0	63	11960
2026-01-22 01:57:00.55	27.79	18.08	-44.5	-55.3	3.8	7.43e-01	0	41	104	0	60	12522
2026-01-22 01:57:01.56	27.84	18.22	-44.3	-55.0	3.8	7.42e-01	0	41	104	0	60	12227
2026-01-22 01:57:02.57	27.90	18.35	-44.3	-55.1	3.8	7.43e-01	0	41	104	0	60	12239
2026-01-22 01:57:03.58	27.95	18.49	-44.5	-55.3	3.8	7.42e-01	0	41	104	0	60	12548
2026-01-22 01:57:04.59	28.00	18.62	-48.3	-59.5	3.8	7.44e-01	0	41	104	0	66	14392
2026-01-22 01:57:05.60	28.05	18.76	-50.1	-62.0	3.9	7.43e-01	0	41	104	0	72	13612
2026-01-22 01:57:06.61	28.10	18.90	-44.6	-55.3	3.8	7.44e-01	0	40	104	0	60	12527
2026-01-22 01:57:07.61	28.16	19.03	-44.8	-55.5	3.8	7.41e-01	0	41	104	0	61	12225
2026-01-22 01:57:08.62	28.21	19.17	-44.2	-55.0	3.8	7.46e-01	0	40	104	0	60	12127
2026-01-22 01:57:09.63	28.26	19.31	-44.2	-55.0	3.8	7.46e-01	0	41	104	0	60	12114
2026-01-22 01:57:10.64	28.32	19.45	-45.3	-56.2	3.8	7.47e-01	0	41	104	0	61	13223
2026-01-22 01:57:11.65	28.37	19.59	-44.5	-55.2	3.8	7.45e-01	0	41	104	0	61	11724
2026-01-22 01:57:12.65	28.43	19.73	-51.5	-64.0	3.8	7.47e-01	0	40	104	0	73	16264
2026-01-22 01:57:13.66	28.48	19.88	-49.0	-60.4	3.9	7.46e-01	0	41	104	0	70	12805
2026-01-22 01:57:14.67	28.54	20.02	-44.9	-55.6	3.9	7.42e-01	0	41	104	0	60	13077
2026-01-22 01:57:15.68	28.60	20.17	-45.1	-56.0	3.8	7.42e-01	0	41	104	0	62	12096
2026-01-22 01:57:16.68	28.65	20.31	-44.6	-55.3	3.8	7.41e-01	0	41	104	0	61	11892
2026-01-22 01:57:17.69	28.71	20.46	-44.3	-55.0	3.8	7.44e-01	0	41	104	0	60	12167
2026-01-22 01:57:18.70	28.77	20.61	-44.9	-55.6	3.8	7.45e-01	0	41	104	0	60	13021
2026-01-22 01:57:19.71	28.83	20.76	-44.6	-55.3	3.8	7.45e-01	0	41	104	0	60	12588
2026-01-22 01:57:20.72	28.89	20.91	-53.8	-68.2	3.8	7.46e-01	0	41	104	0	77	20834
2026-01-22 01:57:21.73	28.95	21.06	-48.1	-59.4	3.8	7.44e-01	0	41	104	0	68	12726
2026-01-22 01:57:22.74	29.01	21.21	-45.9	-56.8	3.8	7.45e-01	0	40	104	0	62	13363
2026-01-22 01:57:23.75	29.07	21.36	-44.9	-55.7	3.8	7.48e-01	0	41	104	0	61	12398
2026-01-22 01:57:24.76	29.13	21.51	-44.5	-55.3	3.8	7.41e-01	0	41	104	0	61	11881
2026-01-22 01:57:25.77	29.20	21.67	-44.6	-55.4	3.8	7.41e-01	0	41	104	0	61	11960
2026-01-22 01:57:26.77	29.26	21.82	-44.8	-55.6	3.8	7.45e-01	0	41	104	0	60	12983
2026-01-22 01:57:27.78	29.32	21.98	-44.9	-55.7	3.8	7.44e-01	0	41	104	0	60	13173
2026-01-22 01:57:28.79	29.39	22.14	-53.6	-67.8	3.8	7.45e-01	0	40	104	0	77	20071
2026-01-22 01:57:29.80	29.45	22.30	-48.2	-59.3	3.8	7.40e-01	0	40	104	0	68	12636
2026-01-22 01:57:30.81	29.52	22.46	-46.7	-57.6	3.8	7.46e-01	0	41	104	0	63	13766
2026-01-22 01:57:31.81	29.59	22.62	-44.6	-55.3	3.8	7.44e-01	0	40	104	0	61	11853
2026-01-22 01:57:32.82	29.65	22.78	-44.4	-55.2	3.9	7.41e-01	0	40	104	0	60	12390
2026-01-22 01:57:33.83	29.72	22.94	-44.6	-55.4	3.8	7.43e-01	0	41	104	0	60	12676
2026-01-22 01:57:34.84	29.79	23.11	-45.3	-56.1	3.8	7.41e-01	0	41	104	0	61	13089
2026-01-22 01:57:35.85	29.86	23.27	-45.0	-55.8	3.8	7.42e-01	0	41	104	0	61	12520
2026-01-22 01:57:36.86	29.93	23.44	-54.6	-70.9	3.7	7.50e-01	0	41	104	0	79	25299
2026-01-22 01:57:37.87	30.00	23.60	-48.6	-59.9	3.8	7.47e-01	0	41	104	0	69	12760
2026-01-22 01:57:38.87	30.07	23.77	-47.1	-58.0	3.8	7.40e-01	0	41	104	0	64	13707
2026-01-22 01:57:39.88	30.14	23.94	-44.9	-55.6	3.8	7.45e-01	0	41	104	0	61	12304
2026-01-22 01:57:40.89	30.22	24.11	-44.6	-55.3	3.9	7.43e-01	0	41	104	0	61	11918
2026-01-22 01:57:41.90	30.29	24.28	-44.6	-55.2	3.8	7.43e-01	0	41	104	0	61	11812
2026-01-22 01:57:42.91	30.36	24.46	-45.7	-56.5	3.8	7.42e-01	0	40	104	0	61	13618
2026-01-22 01:57:43.91	30.44	24.63	-45.0	-55.7	3.8	7.45e-01	0	41	104	0	61	12505
2026-01-22 01:57:44.92	30.51	24.81	-54.8	-72.0	3.8	7.47e-01	0	41	104	0	80	27136
2026-01-22 01:57:45.93	30.59	24.98	-49.1	-60.4	3.8	7.44e-01	0	41	104	0	69	13552
2026-01-22 01:57:46.94	30.67	25.16	-47.7	-58.9	3.8	7.47e-01	0	41	104	0	65	14213
2026-01-22 01:57:47.95	30.75	25.34	-45.0	-55.8	3.8	7.49e-01	0	41	104	0	62	11900
2026-01-22 01:57:48.95	30.83	25.52	-44.8	-55.5	3.8	7.44e-01	0	41	104	0	61	12189
2026-01-22 01:57:49.96	30.91	25.70	-44.7	-55.5	3.8	7.46e-01	0	41	104	0	61	12122
2026-01-22 01:57:50.97	30.99	25.89	-46.8	-57.8	3.8	7.43e-01	0	41	104	0	64	13277
2026-01-22 01:57:51.98	31.07	26.07	-44.9	-55.5	3.8	7.42e-01	0	41	104	0	61	12147
2026-01-22 01:57:52.99	31.16	26.26	-54.8	-71.9	3.8	7.45e-01	0	41	104	0	80	26826
2026-01-22 01:57:54.00	31.24	26.44	-48.8	-60.1	3.8	7.42e-01	0	41	104	0	69	12973
2026-01-22 01:57:55.00	31.32	26.63	-47.9	-59.1	3.9	7.47e-01	0	41	104	0	66	13798
2026-01-22 01:57:56.01	31.41	26.82	-44.6	-55.4	3.8	7.43e-01	0	41	104	0	61	11973
2026-01-22 01:57:57.02	31.50	27.01	-44.5	-55.2	3.8	7.43e-01	0	41	104	0	61	11799
2026-01-22 01:57:58.03	31.59	27.21	-44.5	-55.2	3.8	7.45e-01	0	41	104	0	61	11797
2026-01-22 01:57:59.04	31.68	27.40	-45.7	-56.5	3.8	7.44e-01	0	41	104	0	61	13580
2026-01-22 01:58:00.05	31.77	27.60	-44.9	-55.6	3.8	7.45e-01	0	41	104	0	61	12281
2026-01-22 01:58:01.05	31.86	27.79	-54.9	-72.1	3.8	7.49e-01	0	41	104	0	80	27454
2026-01-22 01:58:02.06	31.95	27.99	-49.1	-60.5	3.8	7.48e-01	0	41	104	0	69	13660
2026-01-22 01:58:03.07	32.04	28.19	-47.6	-58.6	3.8	7.42e-01	0	41	104	0	65	13828
2026-01-22 01:58:04.08	32.14	28.39	-44.5	-55.3	3.8	7.43e-01	0	40	104	0	61	11833
2026-01-22 01:58:05.08	32.23	28.59	-44.5	-55.3	3.8	7.42e-01	0	40	104	0	61	11828
2026-01-22 01:58:06.09	32.33	28.80	-44.3	-54.9	3.8	7.43e-01	0	41	104	0	60	12089
2026-01-22 01:58:07.10	32.43	29.00	-45.3	-56.1	3.8	7.44e-01	0	41	104	0	61	12966
2026-01-22 01:58:08.11	32.53	29.21	-44.4	-55.1	3.9	7.45e-01	0	40	104	0	60	12271
2026-01-22 01:58:09.11	32.63	29.42	-54.8	-71.9	3.8	7.47e-01	0	41	104	0	80	26810
2026-01-22 01:58:10.12	32.73	29.63	-47.9	-59.0	3.9	7.44e-01	0	40	104	0	67	12898
2026-01-22 01:58:11.13	32.84	29.84	-47.1	-58.2	3.8	7.43e-01	0	41	104	0	65	13155
2026-01-22 01:58:12.14	32.94	30.05	-44.1	-54.8	3.8	7.46e-01	0	41	104	0	60	11910
2026-01-22 01:58:13.15	33.05	30.27	-44.2	-54.9	3.8	7.42e-01	0	41	104	0	60	11989
2026-01-22 01:58:14.16	33.16	30.49	-44.2	-54.9	3.8	7.43e-01	0	41	104	0	60	12045
2026-01-22 01:58:15.17	33.27	30.71	-44.9	-55.7	3.8	7.45e-01	0	41	104	0	60	13154
2026-01-22 01:58:16.17	33.38	30.93	-44.2	-54.9	3.8	7.45e-01	0	41	104	0	60	12044
2026-01-22 01:58:17.18	33.49	31.15	-54.9	-71.9	3.8	7.48e-01	0	41	104	0	80	26972
2026-01-22 01:58:18.19	33.60	31.37	-48.4	-59.6	3.8	7.45e-01	0	40	104	0	68	13026
2026-01-22 01:58:19.20	33.72	31.60	-47.3	-58.3	3.8	7.46e-01	0	41	104	0	65	13330
2026-01-22 01:58:20.21	33.84	31.83	-44.6	-55.3	3.8	7.44e-01	0	41	104	0	61	11923
2026-01-22 01:58:21.21	33.95	32.05	-44.5	-55.3	3.9	7.41e-01	0	41	104	0	61	11910
2026-01-22 01:58:22.22	34.08	32.28	-44.3	-55.1	3.8	7.41e-01	0	41	104	0	60	12246
2026-01-22 01:58:23.23	34.20	32.52	-45.4	-56.1	3.8	7.46e-01	0	40	104	0	61	13089
2026-01-22 01:58:24.24	34.32	32.75	-44.4	-55.1	3.9	7.44e-01	0	40	104	0	60	12244
2026-01-22 01:58:25.24	34.45	32.99	-54.7	-71.4	3.8	7.45e-01	0	41	104	0	80	25452
2026-01-22 01:58:26.25	34.57	33.22	-47.7	-58.9	3.8	7.44e-01	0	41	104	0	67	12735
2026-01-22 01:58:27.26	34.70	33.46	-47.2	-58.2	3.9	7.44e-01	0	41	104	0	66	12516
2026-01-22 01:58:28.27	34.84	33.71	-44.8	-55.5	3.8	7.42e-01	0	41	104	0	61	12118
2026-01-22 01:58:29.28	34.97	33.95	-44.8	-55.5	3.8	7.47e-01	0	41	104	0	61	12195
2026-01-22 01:58:30.28	35.10	34.19	-45.0	-55.8	3.8	7.48e-01	0	41	104	0	61	12652
2026-01-22 01:58:31.29	35.24	34.44	-45.6	-56.5	3.8	7.47e-01	0	40	104	0	62	12858
2026-01-22 01:58:32.30	35.38	34.69	-45.4	-56.2	3.8	7.44e-01	0	41	104	0	62	12426
2026-01-22 01:58:33.31	35.52	34.94	-53.9	-68.3	3.9	7.40e-01	0	41	104	0	79	18854
2026-01-22 01:58:34.32	35.67	35.20	-47.0	-58.0	3.8	7.47e-01	0	40	104	0	66	12151
2026-01-22 01:58:35.33	35.81	35.45	-47.6	-58.6	3.8	7.45e-01	0	41	104	0	67	12276
2026-01-22 01:58:36.33	35.96	35.71	-45.6	-56.4	3.8	7.46e-01	0	41	104	0	62	12749
2026-01-22 01:58:37.34	36.11	35.97	-45.9	-56.7	3.8	7.44e-01	0	41	104	0	62	13218
2026-01-22 01:58:38.35	36.26	36.23	-45.7	-56.5	3.8	7.47e-01	0	41	104	0	62	12902
2026-01-22 01:58:39.36	36.42	36.49	-46.6	-57.5	3.8	7.43e-01	0	41	104	0	65	12159
2026-01-22 01:58:40.36	36.58	36.76	-45.8	-56.6	3.8	7.46e-01	0	41	104	0	63	12312
2026-01-22 01:58:41.37	36.74	37.03	-53.9	-68.8	3.9	7.37e-01	0	41	104	0	80	18895
2026-01-22 01:58:42.38	36.90	37.30	-47.8	-59.0	3.9	7.44e-01	0	41	104	0	67	12825
2026-01-22 01:58:43.38	37.07	37.57	-48.2	-59.4	3.8	7.47e-01	0	41	104	0	68	12702
2026-01-22 01:58:44.39	37.24	37.84	-46.1	-56.9	3.8	7.45e-01	0	41	104	0	64	11978
2026-01-22 01:58:45.40	37.41	38.12	-46.2	-57.0	3.8	7.44e-01	0	41	104	0	64	12153
2026-01-22 01:58:46.41	37.58	38.40	-46.5	-57.4	3.8	7.45e-01	0	41	104	0	64	12741
2026-01-22 01:58:47.42	37.76	38.68	-47.4	-58.4	3.8	7.45e-01	0	41	104	0	66	12788
2026-01-22 01:58:48.42	37.94	38.96	-47.3	-58.7	3.8	7.43e-01	0	41	104	0	65	13938
2026-01-22 01:58:49.43	38.12	39.24	-52.6	-65.7	3.9	7.41e-01	0	41	104	0	77	15620
2026-01-22 01:58:50.44	38.31	39.53	-46.4	-57.3	3.8	7.43e-01	0	41	104	0	65	11913
2026-01-22 01:58:51.45	38.50	39.82	-47.4	-58.1	3.8	7.44e-01	0	41	104	0	66	12333
2026-01-22 01:58:52.46	38.70	40.11	-46.0	-56.9	3.8	7.42e-01	0	41	104	0	63	12764
2026-01-22 01:58:53.47	38.89	40.40	-46.2	-57.1	3.8	7.42e-01	0	41	104	0	63	13037
2026-01-22 01:58:54.47	39.09	40.70	-46.0	-56.8	3.8	7.48e-01	0	41	104	0	63	12658
2026-01-22 01:58:55.48	39.30	41.00	-46.5	-57.4	3.8	7.47e-01	0	41	104	0	65	12017
2026-01-22 01:58:56.49	39.51	41.30	-46.6	-57.4	3.8	7.45e-01	0	41	104	0	63	13566
2026-01-22 01:58:57.50	39.72	41.60	-52.0	-64.6	3.9	7.45e-01	0	41	104	0	76	14634
2026-01-22 01:58:58.51	39.94	41.90	-45.1	-55.8	3.8	7.46e-01	0	41	104	0	62	11891
2026-01-22 01:58:59.51	40.15	42.21	-45.9	-56.7	3.8	7.43e-01	0	41	104	0	63	12464
2026-01-22 01:59:00.52	40.38	42.52	-44.7	-55.4	3.8	7.43e-01	0	41	104	0	61	12076
2026-01-22 01:59:01.53	40.61	42.83	-44.4	-55.1	3.8	7.44e-01	0	41	104	0	60	12372
2026-01-22 01:59:02.54	40.84	43.14	-45.4	-56.2	3.8	7.41e-01	0	41	104	0	61	13112
2026-01-22 01:59:03.55	41.08	43.46	-45.8	-56.6	3.8	7.43e-01	0	41	104	0	63	12358
2026-01-22 01:59:04.55	41.32	43.78	-47.5	-58.6	3.8	7.46e-01	0	41	104	0	65	13743
2026-01-22 01:59:05.56	41.57	44.10	-49.2	-60.6	3.8	7.42e-01	0	41	104	0	70	12989
2026-01-22 01:59:06.57	41.82	44.42	-44.2	-54.8	3.8	7.43e-01	0	41	104	0	60	11894
2026-01-22 01:59:07.58	42.08	44.74	-45.1	-55.8	3.8	7.47e-01	0	41	104	0	62	11856
2026-01-22 01:59:08.59	42.35	45.07	-44.1	-54.8	3.8	7.44e-01	0	41	104	0	60	11854
2026-01-22 01:59:09.59	42.61	45.40	-44.0	-54.7	3.8	7.45e-01	0	41	104	0	60	11777
2026-01-22 01:59:10.60	42.89	45.73	-45.2	-55.9	3.8	7.44e-01	0	41	104	0	60	13547
2026-01-22 01:59:11.61	43.17	46.06	-45.5	-56.2	3.9	7.40e-01	0	41	104	0	62	12426
2026-01-22 01:59:12.62	43.46	46.40	-50.1	-61.7	3.8	7.48e-01	0	41	104	0	70	14795
2026-01-22 01:59:13.63	43.75	46.74	-48.7	-59.9	3.8	7.45e-01	0	40	104	0	69	12782
2026-01-22 01:59:14.63	44.05	47.08	-44.4	-45.5	25.1	6.02e-01	0	41	0	0	59	4302
2026-01-22 01:59:15.64	44.35	47.42	-44.1	-45.2	26.4	6.03e-01	0	41	0	2097152	60	3946
2026-01-22 01:59:16.65	44.67	47.76	-43.7	-44.8	27.0	6.02e-01	0	40	0	4194304	59	3974
2026-01-22 01:59:17.66	44.98	48.11	-43.9	-45.0	26.9	6.01e-01	0	40	0	5767168	59	4087
2026-01-22 01:59:18.67	45.31	48.46	-43.9	-44.9	26.9	6.02e-01	0	41	0	7864320	59	4050
2026-01-22 01:59:19.67	45.64	48.80	-43.6	-44.6	27.2	6.02e-01	0	41	0	9437184	59	3910
2026-01-22 01:59:20.68	45.99	49.16	-43.6	-44.7	27.1	6.02e-01	0	41	0	11534336	59	3936
2026-01-22 01:59:21.69	46.34	49.51	-43.7	-44.7	27.0	6.01e-01	0	41	0	13107200	59	3951
2026-01-22 01:59:22.70	46.69	49.87	-43.6	-44.7	27.1	6.02e-01	0	41	0	15204352	59	3934
2026-01-22 01:59:23.71	47.06	50.22	-43.6	-44.7	27.2	6.01e-01	0	41	0	17301504	58	4157
2026-01-22 01:59:24.71	47.43	50.58	-43.6	-44.7	27.2	6.02e-01	0	40	0	18874368	58	4155
2026-01-22 01:59:25.72	47.82	50.94	-43.4	-44.5	27.4	6.01e-01	0	41	0	20971520	58	4063
2026-01-22 01:59:26.72	48.21	51.30	-43.6	-44.7	27.2	6.02e-01	0	41	0	23068672	58	4148
2026-01-22 01:59:27.73	48.61	51.66	-43.4	-44.5	27.3	6.03e-01	0	40	0	24641536	58	4074
2026-01-22 01:59:28.74	49.02	52.03	-43.4	-44.5	27.4	6.03e-01	0	41	0	26738688	58	4062
2026-01-22 01:59:29.75	49.45	52.40	-43.4	-44.4	27.4	6.01e-01	0	41	0	28311552	58	4051
2026-01-22 01:59:30.76	49.88	52.76	-43.3	-44.4	27.5	6.02e-01	0	41	0	30408704	58	4024
2026-01-22 01:59:31.77	50.33	53.13	-43.1	-44.1	27.6	6.02e-01	0	41	0	32505856	58	3892
2026-01-22 01:59:32.77	50.78	53.50	-43.5	-44.5	27.4	6.02e-01	0	40	0	34078720	58	4098
2026-01-22 01:59:33.78	51.25	53.87	-43.4	-44.5	27.4	6.03e-01	0	41	0	36175872	58	4057
2026-01-22 01:59:34.79	51.73	54.24	-43.4	-44.5	27.3	6.01e-01	0	41	0	37748736	58	4075
2026-01-22 01:59:35.80	52.22	54.62	-43.4	-44.5	27.4	6.02e-01	0	41	0	39845888	58	4064
2026-01-22 01:59:36.81	52.73	54.99	-43.7	-44.8	27.1	6.03e-01	0	41	0	41943040	58	4209
2026-01-22 01:59:37.81	53.25	55.36	-43.8	-44.9	27.1	6.02e-01	0	41	0	43515904	58	4253
2026-01-22 01:59:38.82	53.78	55.74	-43.9	-44.9	27.0	6.01e-01	0	41	0	45613056	58	4289
2026-01-22 01:59:39.83	54.33	56.11	-44.0	-45.1	26.8	6.03e-01	0	41	0	47185920	58	4362
2026-01-22 01:59:40.84	54.89	56.49	-44.2	-45.3	26.7	6.01e-01	0	41	0	49283072	58	4471
2026-01-22 01:59:41.84	55.47	56.86	-44.4	-45.5	26.5	6.05e-01	0	41	0	51380224	59	4324
2026-01-22 01:59:42.85	56.06	57.23	-44.5	-45.7	26.4	6.02e-01	0	41	0	52953088	59	4403
2026-01-22 01:59:43.86	56.67	57.61	-44.9	-46.0	26.2	6.04e-01	0	41	0	55050240	60	4330
2026-01-22 01:59:44.87	57.30	57.98	-45.3	-46.5	25.8	6.03e-01	0	41	0	56623104	61	4308
2026-01-22 01:59:45.87	57.94	58.35	-45.2	-46.4	25.9	6.00e-01	0	41	0	58720256	61	4251
2026-01-22 01:59:46.88	58.61	58.72	-45.6	-46.8	25.5	6.04e-01	0	40	0	60817408	61	4469
2026-01-22 01:59:47.89	59.29	59.09	-45.9	-47.2	25.1	6.05e-01	0	41	0	62390272	62	4395
2026-01-22 01:59:48.90	59.99	59.46	-46.4	-47.8	24.7	6.06e-01	0	40	0	64487424	63	4458
2026-01-22 01:59:49.91	60.72	59.83	-46.4	-47.7	23.2	5.98e-01	0	40	0	66584576	63	4397
2026-01-22 01:59:50.91	61.45	60.19	-46.6	-48.0	24.4	6.04e-01	0	40	0	68157440	64	4306
2026-01-22 01:59:51.92	62.22	60.56	-46.8	-48.2	24.1	6.03e-01	0	41	0	70254592	64	4416
2026-01-22 01:59:52.93	63.00	60.92	-46.7	-48.1	24.2	6.02e-01	0	40	0	71827456	64	4364
2026-01-22 01:59:53.94	63.81	61.28	-46.5	-47.8	24.4	6.02e-01	0	40	0	73924608	64	4230
2026-01-22 01:59:54.95	64.65	61.63	-46.8	-48.1	24.2	6.01e-01	0	40	0	75497472	64	4383
2026-01-22 01:59:55.95	65.50	61.98	-46.7	-48.1	24.2	6.04e-01	0	41	0	77594624	64	4349
2026-01-22 01:59:56.96	66.38	62.33	-46.6	-47.9	24.4	6.00e-01	0	41	0	79691776	64	4270
2026-01-22 01:59:57.97	67.29	62.68	-47.0	-48.4	24.0	6.03e-01	0	40	0	81264640	64	4517
2026-01-22 01:59:58.98	68.22	63.02	-47.0	-48.4	23.9	6.04e-01	0	40	0	83361792	64	4502
2026-01-22 01:59:59.99	69.19	63.35	-47.2	-48.6	23.7	6.03e-01	0	40	0	84934656	64	4624
2026-01-22 02:00:00.99	70.16	63.68	-47.1	-48.5	23.9	6.02e-01	0	41	0	87031808	64	4582
2026-01-22 02:00:02.00	71.18	64.00	-48.0	-49.7	22.8	6.02e-01	0	41	0	89128960	66	4660
2026-01-22 02:00:03.01	72.23	64.32	-47.7	-49.2	23.2	6.04e-01	0	41	0	90701824	66	4423
2026-01-22 02:00:04.01	73.29	64.63	-48.3	-49.9	22.5	6.01e-01	0	41	0	92798976	67	4544
2026-01-22 02:00:05.02	74.39	64.94	-48.3	-49.9	22.5	6.03e-01	0	40	0	94896128	67	4527
2026-01-22 02:00:06.03	75.53	65.24	-48.5	-50.2	22.2	6.04e-01	0	40	0	96468992	67	4698
2026-01-22 02:00:07.04	76.69	65.53	-48.4	-50.1	22.3	6.02e-01	0	40	0	98566144	67	4617
2026-01-22 02:00:08.05	77.89	65.81	-48.4	-50.0	22.3	6.03e-01	0	41	0	100139008	67	4582
2026-01-22 02:00:09.05	79.10	66.08	-48.5	-50.2	22.3	6.03e-01	0	41	0	102236160	67	4659
2026-01-22 02:00:10.06	80.36	66.35	-48.6	-50.3	22.1	6.04e-01	0	40	0	103809024	67	4725
2026-01-22 02:00:11.07	81.64	66.60	-48.4	-50.1	22.3	6.01e-01	0	41	0	105906176	67	4626
2026-01-22 02:00:12.08	82.96	66.85	-48.2	-49.8	22.6	6.02e-01	0	40	0	108003328	67	4469
2026-01-22 02:00:13.09	84.31	67.08	-48.8	-50.6	21.8	6.03e-01	0	40	0	109576192	68	4643
2026-01-22 02:00:14.09	85.67	67.30	-47.9	-49.5	22.9	6.01e-01	0	40	0	111673344	67	4293
2026-01-22 02:00:15.10	87.08	67.52	-48.4	-50.1	22.3	6.04e-01	0	40	0	113770496	67	4632
2026-01-22 02:00:16.11	88.52	67.72	-48.4	-50.0	22.4	6.00e-01	0	40	0	115343360	67	4582
2026-01-22 02:00:17.12	89.98	67.90	-48.5	-50.2	22.3	6.04e-01	0	40	0	117440512	67	4659
2026-01-22 02:00:18.12	91.45	68.08	-48.3	-49.9	22.4	6.04e-01	0	41	0	119013376	67	4535
2026-01-22 02:00:19.13	92.97	68.24	-48.5	-50.1	22.2	6.04e-01	0	40	0	121110528	67	4644
2026-01-22 02:00:20.14	94.51	68.39	-48.5	-50.2	22.2	6.03e-01	0	40	0	123207680	67	4652
2026-01-22 02:00:21.15	96.06	68.52	-48.5	-50.2	22.4	6.03e-01	0	40	0	124780544	67	4660
2026-01-22 02:00:22.16	97.64	68.64	-48.0	-49.5	22.7	6.02e-01	0	41	0	126877696	68	4091
2026-01-22 02:00:23.16	99.22	68.74	-47.8	-49.4	23.0	6.04e-01	0	41	0	128450560	67	4270
2026-01-22 02:00:24.17	100.84	68.83	-47.6	-49.1	23.3	6.03e-01	0	41	0	130547712	67	4127
2026-01-22 02:00:25.18	102.46	68.90	-47.5	-48.9	23.4	6.04e-01	0	41	0	132120576	67	4048
2026-01-22 02:00:26.19	104.10	68.96	-47.4	-48.9	23.5	6.03e-01	0	41	0	134217728	66	4249
2026-01-22 02:00:27.20	105.75	69.00	-47.5	-48.9	23.4	6.02e-01	0	40	0	136314880	66	4291
2026-01-22 02:00:28.21	107.40	69.03	-47.5	-49.0	23.4	6.02e-01	0	40	0	138412032	66	4301
2026-01-22 02:00:29.22	109.05	69.04	-47.2	-48.6	23.8	6.02e-01	0	41	0	139984896	66	4140
2026-01-22 02:00:30.22	110.69	69.03	-47.7	-49.2	23.2	6.01e-01	0	40	0	142082048	66	4425
2026-01-22 02:00:31.24	112.36	69.01	-47.6	-49.1	23.2	6.05e-01	0	41	0	143654912	66	4374
2026-01-22 02:00:32.24	113.99	68.97	-47.1	-48.5	23.9	6.02e-01	0	41	0	145752064	66	4083
2026-01-22 02:00:33.25	115.63	68.92	-47.8	-49.3	23.1	6.04e-01	0	41	0	147324928	66	4470
2026-01-22 02:00:34.26	117.26	68.85	-47.8	-49.3	23.1	6.01e-01	0	41	0	149422080	66	4464
2026-01-22 02:00:35.27	118.87	68.76	-47.4	-48.8	23.5	6.02e-01	0	40	0	151519232	66	4233
2026-01-22 02:00:36.27	120.46	68.66	-47.3	-48.8	23.6	6.03e-01	0	41	0	153092096	66	4202
2026-01-22 02:00:37.28	122.04	68.55	-47.6	-49.1	23.3	6.06e-01	0	41	0	155189248	66	4342
2026-01-22 02:00:38.29	123.61	68.42	-47.4	-48.9	23.5	6.04e-01	0	41	0	156762112	66	4255
2026-01-22 02:00:39.30	125.15	68.27	-47.4	-48.8	23.5	6.03e-01	0	41	0	158859264	66	4231
2026-01-22 02:00:40.31	126.67	68.11	-47.4	-48.8	23.6	6.04e-01	0	41	0	160956416	66	4239
2026-01-22 02:00:41.32	128.17	67.94	-47.1	-48.6	23.8	6.02e-01	0	41	0	162529280	66	4106
2026-01-22 02:00:42.33	129.64	67.76	-47.0	-48.4	24.0	6.05e-01	0	41	0	164626432	66	4007
2026-01-22 02:00:43.33	131.06	67.56	-47.1	-48.6	23.8	6.03e-01	0	41	0	166723584	65	4344
2026-01-22 02:00:44.34	132.48	67.35	-47.2	-48.7	23.7	6.03e-01	0	41	0	168296448	65	4410
2026-01-22 02:00:45.35	133.86	67.13	-47.1	-48.5	23.8	6.04e-01	0	40	0	170393600	65	4336
2026-01-22 02:00:46.36	135.22	66.90	-47.2	-48.6	23.7	6.02e-01	0	40	0	171966464	65	4383
2026-01-22 02:00:47.36	136.53	66.66	-47.1	-48.5	23.9	6.02e-01	0	40	0	174063616	65	4304
2026-01-22 02:00:48.37	137.82	66.40	-47.2	-48.6	23.7	6.01e-01	0	40	0	175636480	65	4386
2026-01-22 02:00:49.38	139.09	66.14	-47.2	-48.6	23.7	6.04e-01	0	41	0	177733632	65	4368
2026-01-22 02:00:50.39	140.32	65.87	-46.7	-48.0	24.3	6.04e-01	0	41	0	179830784	65	4078
2026-01-22 02:00:51.40	141.52	65.58	-46.1	-47.4	24.8	6.01e-01	0	40	0	181403648	64	4041
2026-01-22 02:00:52.41	142.70	65.29	-46.6	-48.0	24.3	6.05e-01	0	41	0	183500800	64	4329
2026-01-22 02:00:53.41	143.83	65.00	-46.1	-47.4	24.8	6.00e-01	0	41	0	185597952	64	4006
2026-01-22 02:00:54.42	144.94	64.70	-45.9	-47.2	25.2	6.02e-01	0	41	0	187170816	63	4147
2026-01-22 02:00:55.43	146.02	64.38	-45.8	-47.1	25.2	6.01e-01	0	40	0	189267968	63	4117
2026-01-22 02:00:56.44	147.07	64.07	-46.2	-47.5	24.9	6.04e-01	0	41	0	190840832	63	4319
2026-01-22 02:00:57.44	148.09	63.74	-46.0	-47.3	25.0	6.03e-01	0	41	0	192937984	63	4215
2026-01-22 02:00:58.45	149.08	63.41	-45.8	-47.1	25.2	6.01e-01	0	40	0	195035136	63	4113
2026-01-22 02:00:59.46	150.05	63.08	-45.9	-47.2	25.1	6.01e-01	0	40	0	196608000	63	4152
2026-01-22 02:01:00.46	150.98	62.74	-46.1	-47.3	25.0	6.05e-01	0	41	0	198705152	63	4240
2026-01-22 02:01:01.47	151.90	62.40	-46.1	-47.4	25.0	6.00e-01	0	40	0	200278016	63	4244
2026-01-22 02:01:02.48	152.78	62.05	-45.7	-47.0	25.4	6.02e-01	0	41	0	202375168	63	4070
2026-01-22 02:01:03.49	153.65	61.70	-45.3	-46.5	25.7	6.03e-01	0	41	0	203948032	62	4071
2026-01-22 02:01:04.50	154.49	61.34	-45.5	-46.8	25.6	6.01e-01	0	40	0	206045184	62	4201
2026-01-22 02:01:05.51	155.30	60.98	-45.2	-46.4	25.7	6.01e-01	0	41	0	208142336	62	4021
2026-01-22 02:01:06.51	156.09	60.63	-45.2	-46.4	25.9	6.02e-01	0	41	0	210239488	62	4012
2026-01-22 02:01:07.52	156.86	60.26	-45.1	-46.3	25.9	6.04e-01	0	41	0	211812352	62	3990
2026-01-22 02:01:08.53	157.61	59.89	-44.9	-46.0	26.2	6.03e-01	0	41	0	213909504	61	4060
2026-01-22 02:01:09.54	158.34	59.53	-45.4	-46.7	25.6	6.01e-01	0	40	0	215482368	61	4392
2026-01-22 02:01:10.55	159.05	59.16	-45.4	-46.6	25.5	6.03e-01	0	40	0	217579520	61	4349
2026-01-22 02:01:11.55	159.73	58.79	-45.1	-46.3	25.9	6.04e-01	0	41	0	219152384	61	4196
2026-01-22 02:01:12.56	160.40	58.42	-45.4	-46.6	25.7	6.02e-01	0	40	0	221249536	61	4370
2026-01-22 02:01:13.57	161.05	58.04	-45.4	-46.7	25.5	6.03e-01	0	41	0	223346688	61	4399
2026-01-22 02:01:14.58	161.68	57.67	-45.1	-46.3	25.9	6.02e-01	0	41	0	224919552	61	4228
2026-01-22 02:01:15.58	162.29	57.30	-45.1	-46.3	25.9	6.02e-01	0	41	0	227016704	61	4215
2026-01-22 02:01:16.59	162.89	56.92	-44.6	-45.8	26.4	6.04e-01	0	41	0	228589568	61	3968
2026-01-22 02:01:17.60	163.47	56.54	-44.1	-45.2	26.9	6.02e-01	0	41	0	230686720	60	3927
2026-01-22 02:01:18.61	164.04	56.17	-44.1	-45.2	26.5	6.01e-01	0	40	0	232783872	59	4148
2026-01-22 02:01:19.61	164.58	55.80	-44.3	-45.4	26.5	6.01e-01	0	40	0	234356736	59	4279
2026-01-22 02:01:20.62	165.12	55.42	-44.2	-45.3	26.6	6.01e-01	0	41	0	236453888	59	4219
2026-01-22 02:01:21.63	165.65	55.04	-44.1	-45.2	26.7	6.05e-01	0	40	0	238551040	59	4185
2026-01-22 02:01:22.64	166.15	54.67	-43.8	-44.8	27.0	6.02e-01	0	40	0	240123904	59	4001
2026-01-22 02:01:23.65	166.65	54.30	-43.9	-44.9	26.9	6.01e-01	0	40	0	242221056	59	4045
2026-01-22 02:01:24.65	167.13	53.93	-43.9	-45.0	26.8	6.03e-01	0	40	0	243793920	59	4084
2026-01-22 02:01:25.66	167.60	53.55	-43.8	-44.8	27.0	6.02e-01	0	41	0	245891072	59	3991
2026-01-22 02:01:26.67	168.06	53.18	-43.8	-44.9	27.0	6.01e-01	0	41	0	247463936	59	4019
2026-01-22 02:01:27.68	168.51	52.81	-44.0	-45.1	26.9	6.01e-01	0	41	0	249561088	59	4105
2026-01-22 02:01:28.69	168.95	52.44	-44.0	-45.1	26.8	6.02e-01	0	40	0	251658240	59	4121
2026-01-22 02:01:29.69	169.37	52.08	-44.1	-45.2	26.6	6.01e-01	0	40	0	253231104	59	4150
2026-01-22 02:01:30.70	169.79	51.71	-44.1	-45.2	26.7	6.03e-01	0	41	0	255328256	59	4167
2026-01-22 02:01:31.71	170.19	51.34	-44.1	-45.2	26.6	6.01e-01	0	41	0	257425408	59	4188
2026-01-22 02:01:32.72	170.59	50.98	-44.2	-45.3	26.6	6.03e-01	0	40	0	258998272	59	4225
2026-01-22 02:01:33.73	170.97	50.62	-44.5	-45.7	26.3	6.02e-01	0	41	0	261095424	59	4406
2026-01-22 02:01:34.73	171.35	50.26	-44.7	-45.8	26.1	6.03e-01	0	41	0	262668288	59	4483
2026-01-22 02:01:35.74	171.72	49.90	-44.6	-45.7	26.3	6.04e-01	0	40	0	264765440	60	4175
2026-01-22 02:01:36.75	172.08	49.54	-44.7	-45.8	26.2	6.04e-01	0	40	0	266862592	60	4233
2026-01-22 02:01:37.76	172.43	49.19	-44.5	-45.7	26.4	6.02e-01	0	40	0	268435456	60	4146
2026-01-22 02:01:38.76	172.77	48.84	-44.5	-45.6	26.4	6.03e-01	0	41	0	270532608	60	4143
2026-01-22 02:01:39.77	173.11	48.49	-44.6	-45.8	26.3	6.01e-01	0	40	0	272105472	60	4202
2026-01-22 02:01:40.78	173.44	48.14	-44.8	-45.9	26.1	6.03e-01	0	40	0	274202624	60	4281
2026-01-22 02:01:41.79	173.76	47.79	-44.8	-46.0	26.0	6.05e-01	0	40	0	275775488	60	4314
2026-01-22 02:01:42.80	174.07	47.44	-44.8	-46.0	26.1	6.02e-01	0	40	0	277872640	60	4299
2026-01-22 02:01:43.81	174.38	47.10	-44.6	-45.7	26.2	6.03e-01	0	41	0	279969792	60	4193
2026-01-22 02:01:44.81	174.68	46.76	-44.4	-45.6	26.5	6.01e-01	0	40	0	282066944	60	4109
2026-01-22 02:01:45.82	174.97	46.42	-44.4	-45.5	26.5	6.05e-01	0	41	0	283639808	60	4078
2026-01-22 02:01:46.83	175.26	46.08	-44.3	-45.4	26.5	6.02e-01	0	40	0	285736960	60	4051
2026-01-22 02:01:47.84	175.54	45.75	-44.2	-45.4	26.7	6.03e-01	0	41	0	287309824	60	4006
2026-01-22 02:01:48.84	175.82	45.42	-44.4	-45.6	26.5	6.02e-01	0	40	0	289406976	60	4114
2026-01-22 02:01:49.85	176.09	45.09	-44.6	-45.7	26.3	6.00e-01	0	41	0	290979840	60	4189
2026-01-22 02:01:50.86	176.35	44.76	-44.4	-45.5	26.4	6.02e-01	0	40	0	293076992	60	4097
2026-01-22 02:01:51.87	176.61	44.43	-44.3	-45.4	26.6	6.03e-01	0	40	0	295174144	60	4036
2026-01-22 02:01:52.87	176.86	44.11	-44.5	-45.6	26.4	6.00e-01	0	40	0	296747008	60	4135
2026-01-22 02:01:53.88	177.11	43.79	-44.6	-45.8	26.3	6.01e-01	0	40	0	298844160	60	4202
2026-01-22 02:01:54.89	177.36	43.47	-44.5	-45.7	26.4	6.02e-01	0	40	0	300417024	60	4150
2026-01-22 02:01:55.90	177.60	43.15	-44.5	-45.6	26.4	6.01e-01	0	40	0	302514176	60	4139
2026-01-22 02:01:56.91	177.83	42.84	-44.4	-45.5	26.4	6.02e-01	0	41	0	304611328	60	4077
2026-01-22 02:01:57.91	178.06	42.53	-44.5	-45.6	26.4	6.01e-01	0	41	0	306184192	60	4117
2026-01-22 02:01:58.92	178.28	42.22	-44.5	-45.6	26.3	6.04e-01	0	40	0	308281344	60	4139
2026-01-22 02:01:59.93	178.51	41.91	-44.8	-45.9	26.0	6.04e-01	0	41	0	310378496	60	4279
2026-01-22 02:02:00.94	178.72	41.60	-44.8	-46.0	26.0	6.01e-01	0	41	0	311951360	60	4305
2026-01-22 02:02:01.95	178.94	41.30	-44.8	-46.0	26.0	6.01e-01	0	40	0	314048512	60	4323
2026-01-22 02:02:02.95	179.15	41.00	-45.0	-46.2	25.9	6.03e-01	0	41	0	315621376	60	4413
2026-01-22 02:02:03.96	179.35	40.70	-45.2	-46.4	25.7	6.04e-01	0	41	0	317718528	60	4533
2026-01-22 02:02:04.97	179.55	40.40	-45.5	-46.7	25.4	6.04e-01	0	41	0	319291392	61	4422
2026-01-22 02:02:05.98	179.75	40.10	-45.4	-46.6	25.5	6.07e-01	0	40	0	321388544	61	4386
2026-01-22 02:02:06.99	179.95	39.81	-45.4	-46.7	25.4	6.03e-01	0	40	0	323485696	61	4422
2026-01-22 02:02:08.00	180.14	39.52	-45.2	-46.4	25.6	6.02e-01	0	41	0	325058560	61	4260
2026-01-22 02:02:09.01	180.33	39.23	-45.1	-46.2	25.8	6.02e-01	0	40	0	327155712	61	4185
2026-01-22 02:02:10.01	180.51	38.95	-45.0	-46.2	25.8	6.03e-01	0	41	0	329252864	61	4177
2026-01-22 02:02:11.02	180.69	38.66	-44.9	-46.0	26.0	6.03e-01	0	41	0	330825728	61	4090
2026-01-22 02:02:12.03	180.87	38.38	-44.9	-46.0	26.0	6.01e-01	0	41	0	332922880	61	4096
2026-01-22 02:02:13.04	181.04	38.10	-44.8	-46.0	26.0	6.03e-01	0	41	0	334495744	61	4063
2026-01-22 02:02:14.05	181.22	37.82	-44.9	-46.1	25.8	6.02e-01	0	41	0	336592896	61	4137
2026-01-22 02:02:15.05	181.38	37.55	-44.9	-46.1	25.9	6.01e-01	0	41	0	338690048	61	4107
2026-01-22 02:02:16.06	181.55	37.28	-44.7	-45.9	26.2	6.03e-01	0	41	0	340262912	61	4019
2026-01-22 02:02:17.07	181.72	37.01	-44.6	-45.8	26.2	6.01e-01	0	41	0	342360064	61	3966
2026-01-22 02:02:18.08	181.88	36.74	-44.6	-45.8	26.2	6.00e-01	0	41	0	343932928	61	3966
2026-01-22 02:02:19.09	182.04	36.47	-44.6	-45.7	26.2	6.03e-01	0	41	0	346030080	61	3951
2026-01-22 02:02:20.09	182.19	36.21	-44.3	-45.5	26.3	6.03e-01	0	40	0	347602944	60	4068
2026-01-22 02:02:21.10	182.34	35.95	-44.3	-45.5	26.5	6.02e-01	0	40	0	349700096	60	4061
2026-01-22 02:02:22.11	182.49	35.68	-44.1	-45.3	26.7	6.03e-01	0	40	0	351797248	60	3959
2026-01-22 02:02:23.12	182.64	35.43	-44.2	-45.4	26.6	6.03e-01	0	41	0	353370112	60	4012
2026-01-22 02:02:24.13	182.79	35.17	-44.0	-45.1	26.7	6.02e-01	0	41	0	355467264	60	3894
2026-01-22 02:02:25.13	182.93	34.92	-43.8	-44.9	26.9	6.04e-01	0	40	0	357564416	59	4039
2026-01-22 02:02:26.14	183.08	34.66	-43.8	-44.9	26.8	6.01e-01	0	41	0	359137280	59	4029
2026-01-22 02:02:27.15	183.22	34.41	-43.8	-44.9	26.8	6.05e-01	0	41	0	361234432	59	4047
2026-01-22 02:02:28.16	183.35	34.16	-43.8	-44.9	26.8	6.02e-01	0	41	0	362807296	59	4015
2026-01-22 02:02:29.17	183.49	33.92	-43.6	-44.7	27.0	6.03e-01	0	41	0	364904448	59	3948
2026-01-22 02:02:30.17	183.62	33.67	-43.5	-44.5	27.2	6.03e-01	0	40	0	367001600	58	4087
2026-01-22 02:02:31.18	183.75	33.43	-43.3	-44.3	27.3	6.02e-01	0	40	0	368574464	58	3997
2026-01-22 02:02:32.19	183.88	33.19	-43.2	-44.3	27.3	6.04e-01	0	40	0	370671616	58	3961
2026-01-22 02:02:33.20	184.01	32.95	-43.2	-44.3	27.3	6.01e-01	0	41	0	372244480	58	3965
2026-01-22 02:02:34.21	184.14	32.71	-43.3	-44.4	27.3	6.01e-01	0	40	0	374341632	58	4008
2026-01-22 02:02:35.21	184.26	32.48	-43.3	-44.3	27.3	6.03e-01	0	41	0	376438784	58	4003
2026-01-22 02:02:36.22	184.38	32.24	-43.3	-44.4	27.2	6.01e-01	0	40	0	378011648	58	4026
2026-01-22 02:02:37.23	184.50	32.01	-43.1	-44.1	27.4	6.01e-01	0	40	0	380108800	58	3900
2026-01-22 02:02:38.24	184.62	31.78	-43.0	-44.0	27.6	6.00e-01	0	41	0	381681664	58	3860
2026-01-22 02:02:39.25	184.74	31.55	-43.0	-44.0	27.5	6.02e-01	0	41	0	383778816	58	3865
2026-01-22 02:02:40.25	184.85	31.33	-42.9	-44.0	27.6	6.02e-01	0	41	0	385875968	57	4069
2026-01-22 02:02:41.26	184.97	31.10	-43.0	-44.1	27.5	6.04e-01	0	41	0	387448832	57	4117
2026-01-22 02:02:42.27	185.08	30.88	-43.1	-44.2	27.4	6.01e-01	0	41	0	389545984	57	4162
2026-01-22 02:02:43.28	185.19	30.66	-43.2	-44.2	27.4	6.02e-01	0	41	0	391118848	57	4180
2026-01-22 02:02:44.28	185.30	30.44	-43.2	-44.2	27.4	6.02e-01	0	41	0	393216000	57	4179
2026-01-22 02:02:45.29	185.41	30.22	-43.1	-44.2	27.4	6.02e-01	0	41	0	395313152	57	4159
2026-01-22 02:02:46.30	185.52	30.01	-43.0	-44.0	27.4	6.02e-01	0	41	0	396886016	57	4085
2026-01-22 02:02:47.31	185.62	29.79	-42.9	-43.9	27.5	6.02e-01	0	41	0	398983168	57	4051
2026-01-22 02:02:48.32	185.73	29.58	-43.0	-44.0	27.5	6.03e-01	0	41	0	401080320	57	4067
2026-01-22 02:02:49.33	185.83	29.37	-43.1	-44.1	27.4	6.03e-01	0	41	0	402653184	57	4125
2026-01-22 02:02:50.33	185.93	29.16	-43.1	-44.1	27.3	6.02e-01	0	41	0	404750336	57	4133
2026-01-22 02:02:51.34	186.03	28.95	-43.3	-44.4	27.1	6.01e-01	0	41	0	406323200	57	4250
2026-01-22 02:02:52.35	186.13	28.74	-43.4	-44.5	27.0	6.01e-01	0	40	0	408420352	57	4333
2026-01-22 02:02:53.36	186.23	28.54	-43.5	-44.6	26.9	6.02e-01	0	41	0	409993216	57	4391
2026-01-22 02:02:54.36	186.32	28.33	-43.6	-44.8	26.8	6.02e-01	0	41	0	412090368	57	4447
2026-01-22 02:02:55.37	186.42	28.13	-43.7	-44.8	26.8	6.03e-01	0	41	0	414187520	57	4464
2026-01-22 02:02:56.38	186.51	27.93	-43.7	-44.8	26.7	6.04e-01	0	41	0	415760384	58	4225
2026-01-22 02:02:57.39	186.60	27.73	-43.7	-44.8	26.8	6.05e-01	0	41	0	417857536	58	4196
2026-01-22 02:02:58.40	186.69	27.53	-43.8	-44.9	26.7	6.02e-01	0	41	0	419430400	58	4254
2026-01-22 02:02:59.40	186.78	27.34	-43.8	-44.9	26.7	6.01e-01	0	40	0	421527552	58	4247
2026-01-22 02:03:00.41	186.87	27.14	-43.8	-44.9	26.6	6.02e-01	0	41	0	423624704	58	4284
2026-01-22 02:03:01.42	186.96	26.95	-43.8	-44.9	26.6	6.03e-01	0	41	0	425197568	58	4277
2026-01-22 02:03:02.43	187.05	26.76	-43.8	-44.9	26.6	6.03e-01	0	41	0	427294720	58	4260
2026-01-22 02:03:03.44	187.14	26.57	-43.8	-44.9	26.6	6.05e-01	0	41	0	429391872	58	4290
2026-01-22 02:03:04.44	187.22	26.38	-43.9	-45.0	26.5	6.02e-01	0	41	0	430964736	58	4340
2026-01-22 02:03:05.45	187.30	26.19	-44.0	-45.1	26.4	6.03e-01	0	41	0	433061888	58	4388
2026-01-22 02:03:06.46	187.39	26.00	-44.1	-45.3	26.3	6.00e-01	0	41	0	434634752	58	4462
2026-01-22 02:03:07.47	187.47	25.82	-44.3	-45.4	26.2	6.03e-01	0	41	0	436731904	59	4281
2026-01-22 02:03:08.48	187.55	25.63	-44.2	-45.4	26.2	6.04e-01	0	40	0	438304768	59	4247
2026-01-22 02:03:09.48	187.63	25.45	-44.2	-45.3	26.2	6.01e-01	0	41	0	440401920	59	4242
2026-01-22 02:03:10.49	187.71	25.27	-44.2	-45.3	26.2	6.03e-01	0	41	0	442499072	59	4229
2026-01-22 02:03:11.50	187.79	25.09	-44.2	-45.4	26.2	6.02e-01	0	41	0	444596224	59	4247
2026-01-22 02:03:12.51	187.87	24.91	-44.3	-45.5	26.0	6.01e-01	0	41	0	446169088	59	4312
2026-01-22 02:03:13.52	187.94	24.74	-44.3	-45.5	26.0	6.02e-01	0	40	0	448266240	59	4298
2026-01-22 02:03:14.52	188.02	24.56	-44.1	-45.3	26.2	6.04e-01	0	41	0	449839104	59	4211
2026-01-22 02:03:15.53	188.09	24.39	-44.2	-45.3	26.2	6.02e-01	0	41	0	451936256	59	4230
2026-01-22 02:03:16.54	188.17	24.21	-44.1	-45.2	26.3	6.03e-01	0	41	0	453509120	59	4193
2026-01-22 02:03:17.55	188.24	24.04	-44.2	-45.3	26.2	6.00e-01	0	41	0	455606272	59	4234
2026-01-22 02:03:18.56	188.32	23.87	-44.1	-45.3	26.3	6.01e-01	0	41	0	457703424	59	4209
2026-01-22 02:03:19.56	188.39	23.70	-44.2	-45.3	26.3	6.02e-01	0	41	0	459276288	59	4219
2026-01-22 02:03:20.57	188.46	23.53	-44.3	-45.4	26.1	6.03e-01	0	41	0	461373440	59	4290
2026-01-22 02:03:21.58	188.53	23.36	-44.3	-45.5	26.1	6.01e-01	0	40	0	462946304	59	4292
2026-01-22 02:03:22.59	188.60	23.19	-44.3	-45.4	26.1	6.04e-01	0	41	0	465043456	59	4291
2026-01-22 02:03:23.60	188.67	23.03	-44.2	-45.4	26.2	6.02e-01	0	41	0	466616320	59	4258
2026-01-22 02:03:24.61	188.74	22.86	-44.2	-45.4	26.2	6.03e-01	0	41	0	468713472	59	4256
2026-01-22 02:03:25.61	188.80	22.70	-44.3	-45.4	26.1	6.03e-01	0	41	0	470810624	59	4287
2026-01-22 02:03:26.62	188.87	22.54	-44.3	-45.4	26.1	6.01e-01	0	41	0	472907776	59	4279
2026-01-22 02:03:27.63	188.94	22.38	-44.2	-45.4	26.1	6.04e-01	0	41	0	474480640	59	4260
2026-01-22 02:03:28.64	189.00	22.22	-44.3	-45.5	26.0	6.03e-01	0	41	0	476577792	59	4306
2026-01-22 02:03:29.65	189.07	22.06	-44.3	-45.4	26.1	6.03e-01	0	41	0	478150656	59	4287
2026-01-22 02:03:30.65	189.13	21.90	-44.3	-45.4	26.0	6.00e-01	0	41	0	480247808	59	4291
2026-01-22 02:03:31.66	189.19	21.74	-44.1	-45.3	26.2	6.02e-01	0	41	0	481820672	59	4206
2026-01-22 02:03:32.67	189.26	21.59	-44.1	-45.3	26.2	6.05e-01	0	40	0	483917824	59	4209
2026-01-22 02:03:33.68	189.32	21.43	-44.2	-45.3	26.1	6.03e-01	0	41	0	486014976	59	4217
2026-01-22 02:03:34.69	189.38	21.28	-44.2	-45.3	26.2	6.03e-01	0	41	0	487587840	59	4216
2026-01-22 02:03:35.69	189.44	21.13	-44.1	-45.2	26.2	6.03e-01	0	40	0	489684992	59	4191
2026-01-22 02:03:36.70	189.50	20.97	-44.1	-45.2	26.3	6.03e-01	0	41	0	491257856	59	4179
2026-01-22 02:03:37.71	189.56	20.82	-44.2	-45.3	26.1	6.01e-01	0	41	0	493355008	59	4241
2026-01-22 02:03:38.72	189.62	20.67	-44.1	-45.2	26.2	6.01e-01	0	41	0	495452160	59	4175
2026-01-22 02:03:39.73	189.68	20.52	-44.1	-45.2	26.2	6.01e-01	0	41	0	497025024	59	4191
2026-01-22 02:03:40.73	189.74	20.38	-44.1	-45.3	26.1	6.01e-01	0	41	0	499122176	59	4213
2026-01-22 02:03:41.74	189.80	20.23	-44.1	-45.2	26.2	6.03e-01	0	41	0	501219328	59	4184
2026-01-22 02:03:42.75	189.85	20.08	-43.9	-45.0	26.4	6.01e-01	0	41	0	502792192	59	4084
2026-01-22 02:03:43.76	189.91	19.94	-44.0	-45.1	26.2	6.01e-01	0	41	0	504889344	59	4143
2026-01-22 02:03:44.76	189.97	19.79	-43.9	-45.1	26.3	6.01e-01	0	41	0	506462208	59	4101
2026-01-22 02:03:45.77	190.02	19.65	-43.9	-45.0	26.3	6.04e-01	0	41	0	508559360	59	4080
2026-01-22 02:03:46.78	190.08	19.51	-43.9	-45.0	26.4	6.02e-01	0	41	0	510132224	59	4081
2026-01-22 02:03:47.79	190.13	19.36	-43.9	-45.0	26.4	6.02e-01	0	40	0	512229376	59	4073
2026-01-22 02:03:48.80	190.19	19.22	-43.8	-44.9	26.4	6.03e-01	0	41	0	514326528	59	4033
2026-01-22 02:03:49.81	190.24	19.08	-43.8	-44.9	26.5	6.05e-01	0	41	0	516423680	59	4034
2026-01-22 02:03:50.81	190.29	18.94	-43.7	-44.8	26.5	6.01e-01	0	41	0	517996544	59	3986
2026-01-22 02:03:51.82	190.35	18.80	-43.7	-44.8	26.5	6.04e-01	0	41	0	520093696	59	3992
2026-01-22 02:03:52.83	190.40	18.67	-43.8	-44.9	26.5	6.03e-01	0	41	0	521666560	59	4036
2026-01-22 02:03:53.84	190.45	18.53	-43.7	-44.8	26.6	6.02e-01	0	41	0	523763712	59	3978
2026-01-22 02:03:54.84	190.50	18.39	-43.8	-44.9	26.5	6.03e-01	0	41	0	525336576	59	4013
2026-01-22 02:03:55.85	190.55	18.26	-43.7	-44.8	26.6	6.02e-01	0	41	0	527433728	59	3968
2026-01-22 02:03:56.86	190.60	18.12	-43.7	-44.8	26.5	6.03e-01	0	41	0	529530880	59	3984
2026-01-22 02:03:57.87	190.65	17.99	-43.7	-44.8	26.5	6.01e-01	0	41	0	531103744	59	3987
2026-01-22 02:03:58.88	190.70	17.86	-43.7	-44.8	26.6	6.04e-01	0	41	0	533200896	59	3988
2026-01-22 02:03:59.89	190.75	17.72	-43.8	-44.9	26.4	6.02e-01	0	41	0	534773760	59	4047
2026-01-22 02:04:00.89	190.80	17.59	-43.7	-44.9	26.5	6.03e-01	0	41	0	536870912	59	4010
2026-01-22 02:04:01.90	190.85	17.46	-43.7	-44.8	26.5	6.01e-01	0	40	0	538968064	59	3992
2026-01-22 02:04:02.91	190.90	17.33	-43.9	-45.0	26.4	6.04e-01	0	41	0	540540928	59	4066
2026-01-22 02:04:03.92	190.94	17.20	-43.8	-44.9	26.4	6.04e-01	0	41	0	542638080	59	4040
2026-01-22 02:04:04.92	190.99	17.08	-43.8	-45.0	26.4	6.03e-01	0	41	0	544735232	59	4056
2026-01-22 02:04:05.93	191.04	16.95	-43.7	-44.8	25.4	6.04e-01	0	41	0	546308096	59	3969
2026-01-22 02:04:06.94	191.08	16.82	-43.8	-44.9	26.4	6.00e-01	0	41	0	548405248	59	4031
2026-01-22 02:04:07.95	191.13	16.70	-43.8	-45.0	26.4	6.04e-01	0	40	0	549978112	59	4060
2026-01-22 02:04:08.96	191.18	16.57	-43.6	-44.7	26.6	6.01e-01	0	41	0	552075264	59	3936
2026-01-22 02:04:09.96	191.22	16.45	-43.6	-44.8	26.6	6.01e-01	0	40	0	553648128	59	3961
2026-01-22 02:04:10.97	191.27	16.32	-43.7	-44.8	26.5	6.00e-01	0	41	0	555745280	59	4004
2026-01-22 02:04:11.98	191.31	16.20	-43.7	-44.8	26.5	6.02e-01	0	41	0	557842432	59	3982
2026-01-22 02:04:12.99	191.35	16.07	-43.8	-44.9	26.4	6.02e-01	0	41	0	559415296	59	4021
2026-01-22 02:04:14.00	191.40	15.95	-43.6	-44.7	26.6	6.02e-01	0	41	0	561512448	59	3949
2026-01-22 02:04:15.01	191.44	15.83	-43.6	-44.7	26.6	6.03e-01	0	41	0	563609600	59	3933
2026-01-22 02:04:16.01	191.48	15.71	-43.6	-44.7	26.6	6.02e-01	0	40	0	565182464	59	3948
2026-01-22 02:04:17.02	191.53	15.59	-43.7	-44.8	26.5	6.02e-01	0	41	0	567279616	59	3963
2026-01-22 02:04:18.03	191.57	15.47	-43.7	-44.8	26.5	6.02e-01	0	40	0	568852480	59	3983
2026-01-22 02:04:19.04	191.61	15.35	-43.8	-44.9	26.4	6.00e-01	0	41	0	570949632	59	4036
2026-01-22 02:04:20.05	191.65	15.23	-43.8	-44.9	26.4	6.03e-01	0	41	0	573046784	59	4018
2026-01-22 02:04:21.06	191.70	15.11	-43.7	-44.8	26.5	6.02e-01	0	41	0	574619648	59	3987
2026-01-22 02:04:22.07	191.74	15.00	-43.7	-44.9	26.4	6.01e-01	0	41	0	576716800	59	4012
2026-01-22 02:04:23.07	191.78	14.88	-43.9	-45.0	26.3	6.01e-01	0	40	0	578289664	59	4082
2026-01-22 02:04:24.08	191.82	14.77	-43.8	-45.0	26.4	6.01e-01	0	40	0	580386816	59	4053
2026-01-22 02:04:25.09	191.86	14.65	-43.9	-45.0	26.3	6.01e-01	0	41	0	581959680	59	4073
2026-01-22 02:04:26.10	191.90	14.54	-43.8	-45.0	26.3	6.02e-01	0	41	0	584056832	59	4063
2026-01-22 02:04:27.11	191.94	14.42	-43.9	-45.1	26.2	6.02e-01	0	41	0	586153984	59	4119
2026-01-22 02:04:28.11	191.98	14.31	-43.8	-45.0	26.3	6.02e-01	0	41	0	588251136	59	4069
2026-01-22 02:04:29.12	192.02	14.20	-44.0	-45.1	26.2	6.02e-01	0	40	0	589824000	59	4141
2026-01-22 02:04:30.13	192.05	14.08	-43.9	-45.1	26.2	6.02e-01	0	41	0	591921152	59	4099
2026-01-22 02:04:31.13	192.09	13.97	-44.0	-45.1	26.1	6.02e-01	0	40	0	593494016	59	4128
2026-01-22 02:04:32.14	192.13	13.86	-44.0	-45.2	26.1	6.04e-01	0	40	0	595591168	59	4165
2026-01-22 02:04:33.15	192.17	13.75	-43.9	-45.1	26.1	6.01e-01	0	41	0	597164032	59	4112
2026-01-22 02:04:34.16	192.21	13.64	-43.9	-45.0	26.2	6.01e-01	0	41	0	599261184	59	4074
2026-01-22 02:04:35.16	192.24	13.53	-43.9	-45.1	26.1	6.02e-01	0	41	0	601358336	59	4116
2026-01-22 02:04:36.17	192.28	13.42	-43.9	-45.1	26.1	6.00e-01	0	41	0	602931200	59	4112
2026-01-22 02:04:37.18	192.32	13.31	-44.0	-45.1	26.0	6.02e-01	0	40	0	605028352	59	4139
2026-01-22 02:04:38.19	192.36	13.20	-43.9	-45.1	26.0	6.02e-01	0	40	0	606601216	59	4108
2026-01-22 02:04:39.19	192.39	13.10	-44.0	-45.2	25.9	6.03e-01	0	41	0	608698368	59	4175
2026-01-22 02:04:40.20	192.43	12.99	-44.0	-45.1	26.0	6.03e-01	0	40	0	610795520	59	4135
2026-01-22 02:04:41.21	192.46	12.88	-44.1	-45.3	25.9	6.02e-01	0	41	0	612368384	59	4197
2026-01-22 02:04:42.22	192.50	12.78	-44.1	-45.3	25.8	6.01e-01	0	41	0	614465536	59	4197
2026-01-22 02:04:43.23	192.53	12.67	-44.0	-45.1	26.0	6.00e-01	0	41	0	616562688	59	4134
2026-01-22 02:04:44.23	192.57	12.57	-44.0	-45.2	25.9	6.03e-01	0	41	0	618135552	59	4169
2026-01-22 02:04:45.24	192.60	12.46	-44.1	-45.2	25.9	6.03e-01	0	41	0	620232704	59	4191
2026-01-22 02:04:46.25	192.64	12.36	-44.0	-45.2	25.9	6.03e-01	0	40	0	621805568	59	4167
2026-01-22 02:04:47.26	192.67	12.26	-44.1	-45.3	25.9	6.04e-01	0	40	0	623902720	59	4210
2026-01-22 02:04:48.27	192.71	12.15	-44.1	-45.3	25.8	6.06e-01	0	40	0	625475584	59	4195
2026-01-22 02:04:49.27	192.74	12.05	-44.2	-45.3	25.8	6.02e-01	0	41	0	627572736	59	4239
2026-01-22 02:04:50.28	192.78	11.95	-44.1	-45.3	25.8	6.01e-01	0	41	0	629669888	59	4208
2026-01-22 02:04:51.29	192.81	11.85	-44.2	-45.4	25.7	6.01e-01	0	40	0	631242752	59	4262
2026-01-22 02:04:52.30	192.84	11.75	-44.1	-45.3	25.8	6.02e-01	0	41	0	633339904	59	4223
2026-01-22 02:04:53.31	192.88	11.64	-44.2	-45.4	25.7	6.01e-01	0	40	0	635437056	59	4263
2026-01-22 02:04:54.32	192.91	11.54	-44.2	-45.3	25.7	6.01e-01	0	41	0	637009920	59	4239
2026-01-22 02:04:55.32	192.94	11.45	-44.2	-45.4	25.8	6.04e-01	0	41	0	639107072	59	4253
2026-01-22 02:04:56.33	192.97	11.35	-44.3	-45.5	25.7	6.02e-01	0	41	0	640679936	59	4301
2026-01-22 02:04:57.34	193.01	11.25	-44.4	-45.6	25.5	6.02e-01	0	41	0	642777088	59	4345
2026-01-22 02:04:58.35	193.04	11.15	-44.3	-45.5	25.6	6.03e-01	0	40	0	644874240	59	4310
2026-01-22 02:04:59.35	193.07	11.05	-44.3	-45.5	25.6	6.02e-01	0	41	0	646447104	59	4334
2026-01-22 02:05:00.36	193.10	10.95	-44.3	-45.5	25.6	6.02e-01	0	41	0	648544256	59	4318
2026-01-22 02:05:01.37	193.13	10.86	-44.4	-45.6	25.5	6.02e-01	0	40	0	650117120	59	4369
2026-01-22 02:05:02.38	193.16	10.76	-44.4	-45.6	25.5	6.02e-01	0	41	0	652214272	59	4373
2026-01-22 02:05:03.38	193.19	10.66	-44.4	-45.6	25.5	6.01e-01	0	40	0	653787136	59	4368
2026-01-22 02:05:04.39	193.23	10.57	-44.4	-45.6	25.5	6.02e-01	0	41	0	655884288	59	4360
2026-01-22 02:05:05.40	193.26	10.47	-44.4	-45.6	25.5	6.01e-01	0	40	0	657981440	59	4357
2026-01-22 02:05:06.41	193.29	10.38	-44.5	-45.7	25.4	6.02e-01	0	41	0	659554304	59	4405
2026-01-22 02:05:07.42	193.32	10.28	-44.4	-45.7	25.4	6.01e-01	0	41	0	661651456	59	4399
2026-01-22 02:05:08.42	193.35	10.19	-44.5	-45.8	25.3	6.02e-01	0	41	0	663748608	59	4446
2026-01-22 02:05:09.43	193.38	10.09	-44.4	-45.6	25.4	6.04e-01	0	41	0	665321472	59	4388
2026-01-22 02:05:10.44	193.41	10.00	-44.4	-45.7	25.4	6.03e-01	0	41	0	667418624	59	4396
2026-01-22 02:05:11.45	193.44	9.91	-44.5	-45.7	25.3	6.02e-01	0	41	0	668991488	59	4427
2026-01-22 02:05:12.45	193.47	9.81	-44.5	-45.7	25.3	6.01e-01	0	41	0	671088640	59	4433
2026-01-22 02:05:13.46	193.49	9.72	-44.5	-45.7	25.3	6.03e-01	0	40	0	673185792	59	4428
2026-01-22 02:05:14.47	193.52	9.63	-44.6	-45.9	25.1	6.02e-01	0	40	0	674758656	59	4522
2026-01-22 02:05:15.48	193.55	9.54	-44.6	-45.8	25.2	6.02e-01	0	41	0	676855808	59	4487
2026-01-22 02:05:16.49	193.58	9.45	-44.6	-45.9	25.1	6.01e-01	0	41	0	678428672	59	4506
2026-01-22 02:05:17.50	193.61	9.36	-44.7	-46.0	25.1	6.00e-01	0	40	0	680525824	59	4558
2026-01-22 02:05:18.50	193.64	9.27	-44.7	-45.9	25.2	6.02e-01	0	41	0	682622976	60	4276
2026-01-22 02:05:19.51	193.67	9.18	-44.7	-45.9	25.2	6.02e-01	0	41	0	684195840	60	4289
2026-01-22 02:05:20.52	193.69	9.09	-44.7	-46.0	25.1	6.01e-01	0	41	0	686292992	60	4319
2026-01-22 02:05:21.53	193.72	9.00	-44.7	-45.9	25.2	6.00e-01	0	40	0	687865856	60	4270
2026-01-22 02:05:22.53	193.75	8.91	-44.6	-45.9	25.2	6.01e-01	0	41	0	689963008	60	4266
2026-01-22 02:05:23.54	193.78	8.82	-44.6	-45.9	25.2	6.03e-01	0	41	0	692060160	60	4264
2026-01-22 02:05:24.55	193.81	8.73	-44.7	-46.0	25.0	6.00e-01	0	40	0	693633024	60	4324
2026-01-22 02:05:25.56	193.83	8.64	-44.7	-45.9	25.1	6.02e-01	0	40	0	695730176	60	4283
2026-01-22 02:05:26.56	193.86	8.55	-44.7	-46.0	25.1	6.04e-01	0	40	0	697303040	60	4297
2026-01-22 02:05:27.57	193.89	8.47	-44.7	-46.0	25.1	6.04e-01	0	40	0	699400192	60	4296
2026-01-22 02:05:28.58	193.91	8.38	-44.8	-46.1	25.0	6.01e-01	0	41	0	701497344	60	4349
2026-01-22 02:05:29.58	193.94	8.29	-44.8	-46.0	25.0	6.00e-01	0	41	0	703070208	60	4334
2026-01-22 02:05:30.59	193.97	8.21	-44.8	-46.1	24.9	6.01e-01	0	40	0	705167360	60	4371
2026-01-22 02:05:31.60	193.99	8.12	-44.8	-46.1	25.0	6.02e-01	0	40	0	706740224	60	4349
2026-01-22 02:05:32.60	194.02	8.04	-44.9	-46.2	24.8	6.02e-01	0	41	0	708837376	60	4409
2026-01-22 02:05:33.61	194.04	7.95	-44.9	-46.2	24.8	6.02e-01	0	41	0	710934528	60	4428
2026-01-22 02:05:34.62	194.07	7.86	-45.0	-46.3	24.7	6.02e-01	0	40	0	712507392	60	4464
2026-01-22 02:05:35.63	194.10	7.78	-45.1	-46.4	24.6	6.04e-01	0	41	0	714604544	60	4520
2026-01-22 02:05:36.63	194.12	7.70	-45.2	-46.5	24.5	6.03e-01	0	41	0	716177408	61	4340
2026-01-22 02:05:37.64	194.15	7.61	-45.0	-46.3	24.8	6.03e-01	0	41	0	718274560	61	4199
2026-01-22 02:05:38.65	194.17	7.53	-45.1	-46.4	24.6	6.00e-01	0	40	0	720371712	61	4286
2026-01-22 02:05:39.66	194.20	7.44	-45.0	-46.3	24.6	6.02e-01	0	41	0	721944576	61	4239
2026-01-22 02:05:40.67	194.22	7.36	-45.1	-46.4	24.6	6.03e-01	0	41	0	724041728	61	4277
2026-01-22 02:05:41.68	194.25	7.28	-45.1	-46.5	24.5	6.03e-01	0	41	0	725614592	61	4296
2026-01-22 02:05:42.68	194.27	7.20	-45.1	-46.4	24.6	6.00e-01	0	40	0	727711744	61	4267
2026-01-22 02:05:43.69	194.30	7.11	-45.4	-46.8	24.2	6.02e-01	0	40	0	729808896	61	4476
2026-01-22 02:05:44.70	194.32	7.03	-45.3	-46.6	24.4	6.03e-01	0	41	0	731381760	61	4373
2026-01-22 02:05:45.71	194.35	6.95	-45.3	-46.7	24.3	6.03e-01	0	41	0	733478912	61	4410
2026-01-22 02:05:46.72	194.37	6.87	-45.3	-46.7	24.3	6.02e-01	0	41	0	735576064	61	4423
2026-01-22 02:05:47.73	194.39	6.79	-45.4	-46.8	24.2	6.04e-01	0	41	0	737148928	61	4460
2026-01-22 02:05:48.73	194.42	6.71	-45.3	-46.6	24.3	6.04e-01	0	40	0	739246080	61	4391
2026-01-22 02:05:49.74	194.44	6.62	-45.4	-46.7	24.2	6.02e-01	0	41	0	740818944	61	4427
2026-01-22 02:05:50.75	194.47	6.54	-45.5	-46.9	24.1	6.03e-01	0	41	0	742916096	61	4498
2026-01-22 02:05:51.76	194.49	6.46	-45.5	-46.9	24.1	6.01e-01	0	41	0	744488960	61	4523
2026-01-22 02:05:52.77	194.51	6.38	-45.6	-47.0	23.9	6.02e-01	0	41	0	746586112	61	4588
2026-01-22 02:05:53.78	194.54	6.30	-45.8	-47.3	23.7	6.01e-01	0	40	0	748683264	62	4459
2026-01-22 02:05:54.79	194.56	6.22	-45.8	-47.2	23.8	6.04e-01	0	40	0	750256128	62	4419
2026-01-22 02:05:55.79	194.58	6.15	-45.9	-47.3	23.7	6.03e-01	0	41	0	752353280	62	4483
2026-01-22 02:05:56.80	194.61	6.07	-45.7	-47.1	23.9	6.02e-01	0	40	0	754450432	62	4360
2026-01-22 02:05:57.81	194.63	5.99	-45.6	-47.0	22.4	6.05e-01	0	41	0	756023296	62	4308
2026-01-22 02:05:58.82	194.65	5.91	-45.6	-47.1	23.8	6.03e-01	0	41	0	758120448	62	4345
2026-01-22 02:05:59.82	194.68	5.83	-45.7	-47.2	23.7	6.03e-01	0	41	0	759693312	62	4402
2026-01-22 02:06:00.83	194.70	5.76	-45.9	-47.4	23.5	6.03e-01	0	41	0	761790464	62	4515
