passes_logs/2026/01/22/R3.2S_Murmansk/R3.2S_Murmansk__20260122_231659_AQUA_rec.log

#Pass ID: 20260122_231659_AQUA
#Satellite: AQUA
#Configuration: AQUA
#almurnet v.1.7.20251203
#Start time: 2026-01-22 23:17:01

#Version: 2.2.20231116
#Station: R3.2S_Murmansk
#Location: 33.079688 lon 68.888172 lat
#TLE: 1 27424U 02022A   26022.49486490  .00002153  00000+0  44069-3 0  9997
#TLE: 2 27424  98.4099 349.0485 0001970  69.5876  43.4746 14.61847233261984

#Time	Az	El	Level	Level2	SNR	BER	BlckErr	Temp	State	Recorded	gain1	gain2
2026-01-22 23:17:01.34	22.42	2.09	-55.8	-73.7	3.8	7.44e-01	0	43	0	0	82	29416
2026-01-22 23:17:02.34	22.53	2.14	-56.0	-73.9	3.8	7.49e-01	0	43	104	0	82	30074
2026-01-22 23:17:03.35	22.64	2.19	-56.0	-73.8	3.8	7.44e-01	0	43	104	0	82	29907
2026-01-22 23:17:04.36	22.75	2.23	-55.9	-73.8	3.8	7.44e-01	0	43	104	0	82	29770
2026-01-22 23:17:05.37	22.86	2.28	-55.9	-73.7	3.8	7.45e-01	0	43	104	0	82	29677
2026-01-22 23:17:06.37	22.97	2.33	-55.9	-73.7	3.8	7.43e-01	0	43	104	0	82	29637
2026-01-22 23:17:07.38	23.08	2.38	-55.9	-73.7	3.8	7.47e-01	0	43	104	0	82	29514
2026-01-22 23:17:08.39	23.19	2.42	-55.8	-73.7	3.8	7.45e-01	0	43	104	0	82	29360
2026-01-22 23:17:09.40	23.31	2.47	-55.8	-73.6	3.8	7.41e-01	0	43	104	0	82	29289
2026-01-22 23:17:10.41	23.42	2.52	-55.8	-73.6	3.8	7.43e-01	0	43	104	0	82	29150
2026-01-22 23:17:11.42	23.53	2.56	-55.8	-73.6	3.8	7.43e-01	0	43	104	0	82	29150
2026-01-22 23:17:12.43	23.65	2.61	-55.7	-73.6	3.8	7.45e-01	0	43	104	0	82	29039
2026-01-22 23:17:13.43	23.76	2.66	-55.7	-73.5	3.8	7.46e-01	0	43	104	0	82	28805
2026-01-22 23:17:14.44	23.87	2.71	-55.6	-73.4	3.8	7.46e-01	0	43	104	0	82	28555
2026-01-22 23:17:15.45	23.99	2.75	-55.5	-73.4	3.8	7.48e-01	0	43	104	0	82	28449
2026-01-22 23:17:16.46	24.10	2.80	-55.4	-73.3	3.8	7.45e-01	0	43	104	0	82	28120
2026-01-22 23:17:17.47	24.22	2.85	-55.4	-73.2	3.8	7.46e-01	0	43	104	0	82	27806
2026-01-22 23:17:18.48	24.33	2.89	-55.2	-73.1	3.8	7.43e-01	0	43	104	0	82	27499
2026-01-22 23:17:19.49	24.45	2.94	-55.1	-72.9	3.8	7.46e-01	0	43	104	0	82	26976
2026-01-22 23:17:20.49	24.57	2.99	-54.8	-72.5	3.8	7.43e-01	0	43	104	0	81	27152
2026-01-22 23:17:21.50	24.68	3.04	-54.5	-72.4	3.8	7.44e-01	0	43	104	0	81	26782
2026-01-22 23:17:22.51	24.80	3.08	-54.0	-71.8	3.8	7.43e-01	0	43	104	0	80	26546
2026-01-22 23:17:23.52	24.92	3.13	-54.0	-71.8	3.8	7.49e-01	0	43	104	0	80	26549
2026-01-22 23:17:24.53	25.04	3.18	-54.0	-71.8	3.8	7.44e-01	0	43	104	0	80	26559
2026-01-22 23:17:25.53	25.15	3.22	-54.0	-71.8	3.8	7.43e-01	0	43	104	0	80	26646
2026-01-22 23:17:26.54	25.27	3.27	-54.0	-71.8	3.8	7.46e-01	0	43	104	0	80	26735
2026-01-22 23:17:27.55	25.39	3.32	-54.0	-71.8	3.8	7.43e-01	0	43	104	0	80	26667
2026-01-22 23:17:28.56	25.51	3.37	-54.0	-71.8	3.8	7.48e-01	0	43	104	0	80	26723
2026-01-22 23:17:29.57	25.63	3.41	-54.0	-71.8	3.8	7.41e-01	0	43	104	0	80	26672
2026-01-22 23:17:30.57	25.75	3.46	-54.0	-71.8	3.8	7.43e-01	0	43	104	0	80	26747
2026-01-22 23:17:31.58	25.87	3.51	-54.0	-71.8	3.8	7.45e-01	0	43	104	0	80	26665
2026-01-22 23:17:32.59	25.99	3.55	-54.0	-71.8	3.8	7.44e-01	0	43	104	0	80	26637
2026-01-22 23:17:33.60	26.12	3.60	-54.0	-71.8	3.8	7.47e-01	0	43	104	0	80	26658
2026-01-22 23:17:34.61	26.24	3.65	-54.0	-71.8	3.8	7.44e-01	0	43	104	0	80	26619
2026-01-22 23:17:35.62	26.36	3.70	-54.0	-71.8	3.8	7.44e-01	0	43	104	0	80	26609
2026-01-22 23:17:36.63	26.48	3.74	-54.0	-71.8	3.8	7.45e-01	0	43	104	0	80	26664
2026-01-22 23:17:37.64	26.61	3.79	-54.0	-71.8	3.8	7.46e-01	0	43	104	0	80	26654
2026-01-22 23:17:38.65	26.73	3.84	-54.0	-71.8	3.8	7.46e-01	0	43	104	0	80	26655
2026-01-22 23:17:39.65	26.85	3.88	-54.0	-71.8	3.8	7.45e-01	0	43	104	0	80	26717
2026-01-22 23:17:40.66	26.98	3.93	-54.0	-71.8	3.8	7.45e-01	0	43	104	0	80	26536
2026-01-22 23:17:41.67	27.10	3.98	-54.0	-71.8	3.8	7.46e-01	0	43	104	0	80	26641
2026-01-22 23:17:42.68	27.23	4.03	-54.0	-71.8	3.8	7.44e-01	0	43	104	0	80	26549
2026-01-22 23:17:43.68	27.35	4.07	-54.0	-71.8	3.8	7.44e-01	0	43	104	0	80	26580
2026-01-22 23:17:44.69	27.48	4.12	-54.0	-71.8	3.8	7.45e-01	0	43	104	0	80	26558
2026-01-22 23:17:45.70	27.61	4.17	-54.0	-71.8	3.8	7.46e-01	0	43	104	0	80	26630
2026-01-22 23:17:46.71	27.73	4.21	-54.0	-71.8	3.8	7.46e-01	0	43	104	0	80	26550
2026-01-22 23:17:47.72	27.86	4.26	-54.0	-71.8	3.8	7.45e-01	0	43	104	0	80	26460
2026-01-22 23:17:48.73	27.99	4.31	-54.0	-71.8	3.8	7.43e-01	0	43	104	0	80	26510
2026-01-22 23:17:49.73	28.12	4.35	-54.0	-71.8	3.8	7.48e-01	0	43	104	0	79	28097
2026-01-22 23:17:50.74	28.25	4.40	-54.0	-71.6	3.8	7.49e-01	0	43	104	0	79	27681
2026-01-22 23:17:51.75	28.38	4.45	-53.9	-71.2	3.8	7.44e-01	0	43	104	0	79	26458
2026-01-22 23:17:52.76	28.51	4.50	-53.8	-70.7	3.8	7.46e-01	0	43	104	0	79	24789
2026-01-22 23:17:53.77	28.64	4.54	-53.7	-70.3	3.8	7.45e-01	0	43	104	0	79	23674
2026-01-22 23:17:54.77	28.77	4.59	-53.6	-69.7	3.8	7.44e-01	0	43	104	0	79	22174
2026-01-22 23:17:55.78	28.90	4.64	-53.6	-69.8	3.8	7.44e-01	0	43	104	0	79	22292
2026-01-22 23:17:56.79	29.03	4.68	-53.1	-68.2	3.8	7.42e-01	0	43	104	0	78	19751
2026-01-22 23:17:57.80	29.16	4.73	-52.5	-66.5	3.8	7.47e-01	0	43	104	0	77	17281
2026-01-22 23:17:58.81	29.29	4.78	-51.4	-64.3	3.8	7.41e-01	0	44	104	0	74	15862
2026-01-22 23:17:59.82	29.43	4.82	-50.9	-63.4	3.8	7.45e-01	0	43	104	0	73	15185
2026-01-22 23:18:00.83	29.56	4.87	-50.4	-62.7	3.8	7.44e-01	0	43	104	0	72	14782
2026-01-22 23:18:01.84	29.69	4.92	-50.4	-62.8	3.8	7.43e-01	0	43	104	0	72	14913
2026-01-22 23:18:02.84	29.83	4.96	-50.6	-63.0	3.8	7.46e-01	0	43	104	0	72	15287
2026-01-22 23:18:03.85	29.96	5.01	-51.9	-65.4	3.8	7.41e-01	0	43	104	0	74	18027
2026-01-22 23:18:04.86	30.10	5.06	-52.0	-65.5	3.8	7.40e-01	0	43	104	0	75	17124
2026-01-22 23:18:05.87	30.23	5.10	-50.2	-62.4	3.8	7.45e-01	0	43	104	0	72	14326
2026-01-22 23:18:06.88	30.37	5.15	-53.8	-70.9	3.8	7.43e-01	0	43	104	0	78	26915
2026-01-22 23:18:07.89	30.51	5.20	-53.9	-71.5	3.8	7.47e-01	0	43	104	0	78	28897
2026-01-22 23:18:08.89	30.64	5.24	-46.8	-57.8	3.8	7.43e-01	0	43	104	0	65	12613
2026-01-22 23:18:09.90	30.78	5.29	-47.3	-58.5	3.8	7.42e-01	0	43	104	0	65	13601
2026-01-22 23:18:10.91	30.92	5.33	-47.5	-58.7	3.8	7.45e-01	0	43	104	0	65	13955
2026-01-22 23:18:11.92	31.05	5.38	-47.1	-58.2	3.8	7.43e-01	0	43	104	0	65	13186
2026-01-22 23:18:12.93	31.19	5.43	-48.5	-59.9	3.8	7.45e-01	0	43	104	0	67	14256
2026-01-22 23:18:13.93	31.33	5.47	-50.0	-62.0	3.8	7.45e-01	0	44	104	0	70	15272
2026-01-22 23:18:14.94	31.47	5.52	-53.9	-71.1	3.8	7.49e-01	0	43	104	0	78	27413
2026-01-22 23:18:15.95	31.61	5.57	-54.0	-71.6	3.8	7.44e-01	0	44	104	0	78	29295
2026-01-22 23:18:16.96	31.75	5.61	-47.1	-58.2	3.8	7.45e-01	0	43	104	0	66	12433
2026-01-22 23:18:17.97	31.89	5.66	-47.2	-58.4	3.8	7.44e-01	0	44	104	0	66	12714
2026-01-22 23:18:18.98	32.04	5.70	-46.9	-58.0	3.8	7.46e-01	0	43	104	0	65	12826
2026-01-22 23:18:19.99	32.18	5.75	-46.9	-58.0	3.8	7.44e-01	0	44	104	0	65	12907
2026-01-22 23:18:20.99	32.32	5.80	-47.9	-59.2	3.8	7.47e-01	0	43	104	0	66	13918
2026-01-22 23:18:22.00	32.46	5.84	-50.1	-62.1	3.8	7.45e-01	0	43	104	0	70	15444
2026-01-22 23:18:23.01	32.61	5.89	-54.0	-71.0	3.8	7.46e-01	0	43	104	0	78	27335
2026-01-22 23:18:24.02	32.75	5.93	-54.1	-71.7	3.8	7.44e-01	0	43	104	0	78	29545
2026-01-22 23:18:25.03	32.89	5.98	-46.8	-57.9	3.8	7.45e-01	0	43	104	0	65	12681
2026-01-22 23:18:26.03	33.04	6.02	-46.6	-57.7	3.8	7.44e-01	0	43	104	0	65	12443
2026-01-22 23:18:27.04	33.18	6.07	-46.7	-57.8	3.8	7.42e-01	0	43	104	0	65	12648
2026-01-22 23:18:28.05	33.33	6.12	-46.6	-57.7	3.8	7.43e-01	0	44	104	0	65	12399
2026-01-22 23:18:29.06	33.48	6.16	-46.8	-57.8	3.8	7.42e-01	0	43	104	0	65	12658
2026-01-22 23:18:30.07	33.62	6.21	-47.9	-59.1	3.8	7.49e-01	0	43	104	0	66	13770
2026-01-22 23:18:31.08	33.77	6.25	-54.1	-71.8	3.8	7.46e-01	0	43	104	0	78	29886
2026-01-22 23:18:32.09	33.92	6.30	-46.9	-58.0	3.8	7.41e-01	0	44	104	0	65	12874
2026-01-22 23:18:33.09	34.06	6.34	-52.4	-66.1	3.8	7.47e-01	0	43	104	0	75	18433
2026-01-22 23:18:34.10	34.21	6.39	-46.6	-57.6	3.9	7.44e-01	0	43	104	0	65	12351
2026-01-22 23:18:35.11	34.36	6.43	-46.7	-57.7	3.8	7.43e-01	0	44	104	0	65	12501
2026-01-22 23:18:36.12	34.51	6.48	-46.7	-57.8	3.8	7.45e-01	0	44	104	0	65	12591
2026-01-22 23:18:37.13	34.66	6.52	-49.7	-61.6	3.8	7.44e-01	0	43	104	0	70	14589
2026-01-22 23:18:38.13	34.81	6.57	-47.7	-58.9	3.8	7.45e-01	0	43	104	0	65	14273
2026-01-22 23:18:39.14	34.96	6.61	-54.2	-71.9	3.8	7.43e-01	0	43	104	0	78	30291
2026-01-22 23:18:40.15	35.12	6.66	-46.7	-57.7	3.8	7.45e-01	0	44	104	0	65	12464
2026-01-22 23:18:41.15	35.27	6.70	-51.8	-64.9	3.8	7.45e-01	0	44	104	0	74	17080
2026-01-22 23:18:42.16	35.42	6.75	-46.7	-57.8	3.8	7.45e-01	0	43	104	0	65	12535
2026-01-22 23:18:43.17	35.57	6.79	-46.5	-57.5	3.8	7.45e-01	0	43	104	0	64	12918
2026-01-22 23:18:44.18	35.73	6.84	-46.5	-57.5	3.8	7.45e-01	0	44	104	0	64	12949
2026-01-22 23:18:45.19	35.88	6.88	-48.5	-60.0	3.8	7.47e-01	0	44	104	0	68	13722
2026-01-22 23:18:46.19	36.03	6.92	-47.5	-58.7	3.8	7.49e-01	0	43	104	0	65	13895
2026-01-22 23:18:47.20	36.19	6.97	-54.3	-71.9	3.8	7.42e-01	0	43	104	0	79	28657
2026-01-22 23:18:48.21	36.34	7.01	-46.7	-57.7	3.9	7.42e-01	0	43	104	0	65	12406
2026-01-22 23:18:49.22	36.50	7.06	-51.6	-64.6	3.8	7.40e-01	0	44	104	0	74	16500
2026-01-22 23:18:50.23	36.66	7.10	-46.2	-57.2	3.8	7.45e-01	0	43	104	0	64	12384
2026-01-22 23:18:51.24	36.82	7.15	-46.5	-57.5	3.8	7.43e-01	0	43	104	0	64	12923
2026-01-22 23:18:52.25	36.97	7.19	-46.3	-57.4	3.8	7.45e-01	0	43	104	0	64	12670
2026-01-22 23:18:53.25	37.13	7.23	-48.6	-60.1	3.8	7.45e-01	0	43	104	0	69	12980
2026-01-22 23:18:54.26	37.29	7.28	-47.7	-58.8	3.8	7.44e-01	0	43	104	0	65	14182
2026-01-22 23:18:55.27	37.45	7.32	-54.3	-72.0	3.8	7.41e-01	0	43	104	0	79	28785
2026-01-22 23:18:56.28	37.61	7.36	-46.0	-56.9	3.8	7.45e-01	0	43	104	0	63	12743
2026-01-22 23:18:57.29	37.77	7.41	-51.1	-63.9	3.9	7.44e-01	0	43	104	0	74	15073
2026-01-22 23:18:58.29	37.93	7.45	-46.3	-57.3	3.8	7.47e-01	0	43	104	0	64	12539
2026-01-22 23:18:59.30	38.09	7.49	-46.3	-57.3	3.8	7.42e-01	0	43	104	0	64	12553
2026-01-22 23:19:00.31	38.25	7.54	-46.4	-57.3	3.8	7.44e-01	0	43	104	0	64	12619
2026-01-22 23:19:01.32	38.41	7.58	-49.9	-61.6	3.9	7.43e-01	0	43	104	0	71	13768
2026-01-22 23:19:02.33	38.58	7.62	-47.4	-58.5	3.8	7.45e-01	0	43	104	0	65	13638
2026-01-22 23:19:03.33	38.74	7.67	-53.7	-69.8	3.9	7.42e-01	0	43	104	0	79	22404
2026-01-22 23:19:04.34	38.90	7.71	-46.3	-57.3	3.9	7.47e-01	0	44	104	0	64	12558
2026-01-22 23:19:05.35	39.06	7.75	-49.7	-61.6	3.9	7.46e-01	0	44	104	0	71	13823
2026-01-22 23:19:06.36	39.23	7.79	-46.2	-57.1	3.8	7.44e-01	0	43	104	0	64	12333
2026-01-22 23:19:07.37	39.40	7.84	-46.3	-57.1	3.8	7.47e-01	0	43	104	0	64	12342
2026-01-22 23:19:08.37	39.56	7.88	-46.2	-57.1	3.8	7.42e-01	0	43	104	0	64	12331
2026-01-22 23:19:09.38	39.73	7.92	-48.0	-58.9	3.9	7.43e-01	0	43	104	0	67	12694
2026-01-22 23:19:10.39	39.89	7.96	-48.3	-59.5	3.8	7.46e-01	0	43	104	0	66	14487
2026-01-22 23:19:11.40	40.06	8.00	-53.8	-70.0	3.9	7.41e-01	0	43	104	0	79	22964
2026-01-22 23:19:12.41	40.23	8.05	-46.1	-57.0	3.8	7.44e-01	0	43	104	0	63	12913
2026-01-22 23:19:13.41	40.39	8.09	-49.7	-61.5	3.9	7.41e-01	0	43	104	0	71	13721
2026-01-22 23:19:14.42	40.56	8.13	-45.9	-56.8	3.8	7.39e-01	0	43	104	0	63	12598
2026-01-22 23:19:15.43	40.73	8.17	-45.9	-56.8	3.8	7.45e-01	0	43	104	0	63	12563
2026-01-22 23:19:16.44	40.90	8.21	-46.7	-58.0	3.8	7.45e-01	0	43	104	0	64	13697
2026-01-22 23:19:17.45	41.07	8.25	-46.9	-57.7	3.9	7.44e-01	0	43	104	0	65	12403
2026-01-22 23:19:18.45	41.24	8.29	-49.7	-61.4	3.8	7.42e-01	0	43	104	0	69	15062
2026-01-22 23:19:19.46	41.41	8.34	-51.7	-64.6	4.0	7.42e-01	0	43	104	0	75	15524
2026-01-22 23:19:20.47	41.59	8.38	-46.4	-57.4	3.8	7.47e-01	0	43	104	0	63	13421
2026-01-22 23:19:21.48	41.76	8.42	-48.0	-59.3	3.9	7.48e-01	0	43	104	0	68	12646
2026-01-22 23:19:22.49	41.93	8.46	-45.9	-56.8	3.8	7.45e-01	0	43	104	0	63	12622
2026-01-22 23:19:23.49	42.10	8.50	-46.0	-56.9	3.8	7.44e-01	0	44	104	0	63	12689
2026-01-22 23:19:24.50	42.28	8.54	-46.7	-57.7	3.8	7.43e-01	0	43	104	0	63	13981
2026-01-22 23:19:25.51	42.45	8.58	-46.5	-57.5	3.8	7.44e-01	0	43	104	0	65	12212
2026-01-22 23:19:26.52	42.63	8.62	-49.7	-61.4	3.8	7.48e-01	0	43	104	0	69	15112
2026-01-22 23:19:27.53	42.80	8.66	-48.7	-60.1	3.9	7.46e-01	0	43	104	0	69	13003
2026-01-22 23:19:28.54	42.98	8.70	-47.5	-58.6	3.9	7.45e-01	0	43	104	0	65	13847
2026-01-22 23:19:29.55	43.15	8.74	-46.7	-57.7	3.9	7.43e-01	0	43	104	0	65	12515
2026-01-22 23:19:30.56	43.33	8.78	-45.8	-56.7	3.8	7.47e-01	0	44	104	0	63	12404
2026-01-22 23:19:31.57	43.51	8.82	-45.8	-56.7	3.9	7.43e-01	0	43	104	0	63	12501
2026-01-22 23:19:32.57	43.68	8.85	-47.5	-58.6	3.8	7.45e-01	0	44	104	0	65	13811
2026-01-22 23:19:33.58	43.86	8.89	-46.0	-56.7	3.8	7.44e-01	0	44	104	0	63	12475
2026-01-22 23:19:34.59	44.04	8.93	-52.4	-66.0	3.8	7.45e-01	0	43	104	0	75	18138
2026-01-22 23:19:35.60	44.22	8.97	-48.5	-60.0	3.9	7.46e-01	0	43	104	0	69	12889
2026-01-22 23:19:36.61	44.40	9.01	-47.3	-58.7	3.8	7.45e-01	0	43	104	0	65	13929
2026-01-22 23:19:37.62	44.58	9.05	-46.7	-57.6	3.9	7.44e-01	0	44	104	0	65	12347
2026-01-22 23:19:38.63	44.76	9.09	-45.7	-56.6	3.9	7.45e-01	0	44	104	0	63	12274
2026-01-22 23:19:39.63	44.94	9.12	-45.7	-56.6	3.9	7.46e-01	0	44	104	0	63	12320
2026-01-22 23:19:40.64	45.12	9.16	-49.5	-61.3	3.8	7.45e-01	0	43	104	0	69	14881
2026-01-22 23:19:41.65	45.31	9.20	-45.8	-56.7	3.9	7.41e-01	0	44	104	0	63	12392
2026-01-22 23:19:42.66	45.49	9.24	-54.0	-69.7	3.7	7.49e-01	0	43	104	0	78	23426
2026-01-22 23:19:43.67	45.67	9.27	-46.8	-57.6	3.8	7.48e-01	0	43	104	0	65	12288
2026-01-22 23:19:44.68	45.86	9.31	-48.6	-59.8	3.8	7.43e-01	0	43	104	0	67	14157
2026-01-22 23:19:45.69	46.04	9.35	-45.9	-56.9	3.9	7.45e-01	0	43	104	0	63	12667
2026-01-22 23:19:46.69	46.23	9.38	-45.6	-56.6	3.8	7.45e-01	0	44	104	0	63	12255
2026-01-22 23:19:47.70	46.41	9.42	-45.7	-56.5	3.8	7.44e-01	0	44	104	0	63	12160
2026-01-22 23:19:48.71	46.60	9.46	-50.5	-62.4	3.8	7.47e-01	0	43	104	0	71	15179
2026-01-22 23:19:49.72	46.78	9.49	-45.7	-56.6	3.8	7.47e-01	0	44	104	0	63	12264
2026-01-22 23:19:50.73	46.97	9.53	-54.0	-69.6	3.7	7.48e-01	0	44	104	0	78	23203
2026-01-22 23:19:51.73	47.16	9.56	-46.2	-57.2	3.8	7.42e-01	0	44	104	0	64	12449
2026-01-22 23:19:52.74	47.34	9.60	-49.5	-61.1	3.8	7.44e-01	0	43	104	0	69	14705
2026-01-22 23:19:53.75	47.53	9.64	-45.6	-56.3	3.8	7.43e-01	0	43	104	0	63	11948
2026-01-22 23:19:54.76	47.72	9.67	-45.7	-56.5	3.8	7.45e-01	0	43	104	0	63	12212
2026-01-22 23:19:55.77	47.91	9.71	-45.7	-56.5	3.8	7.45e-01	0	43	104	0	63	12229
2026-01-22 23:19:56.77	48.10	9.74	-50.2	-62.2	3.9	7.50e-01	0	43	104	0	70	15682
2026-01-22 23:19:57.78	48.29	9.78	-45.8	-56.7	3.8	7.44e-01	0	43	104	0	63	12384
2026-01-22 23:19:58.79	48.48	9.81	-54.4	-71.7	3.7	7.47e-01	0	43	104	0	79	27813
2026-01-22 23:19:59.80	48.67	9.84	-46.0	-56.8	3.8	7.47e-01	0	44	104	0	64	11882
2026-01-22 23:20:00.81	48.86	9.88	-49.5	-61.1	3.8	7.45e-01	0	44	104	0	69	14670
2026-01-22 23:20:01.81	49.05	9.91	-45.6	-56.5	3.8	7.44e-01	0	44	104	0	63	12210
2026-01-22 23:20:02.82	49.24	9.94	-45.5	-56.4	3.8	7.41e-01	0	44	104	0	63	12030
2026-01-22 23:20:03.83	49.44	9.98	-45.5	-56.3	3.8	7.42e-01	0	43	104	0	62	12634
2026-01-22 23:20:04.84	49.63	10.01	-51.0	-63.4	3.8	7.46e-01	0	43	104	0	72	16037
2026-01-22 23:20:05.85	49.83	10.04	-45.7	-56.5	3.8	7.42e-01	0	43	104	0	62	12933
2026-01-22 23:20:06.85	50.02	10.08	-54.5	-72.1	3.8	7.42e-01	0	44	104	0	79	29305
2026-01-22 23:20:07.86	50.21	10.11	-46.0	-56.9	3.9	7.44e-01	0	44	104	0	63	12766
2026-01-22 23:20:08.87	50.41	10.14	-50.5	-62.4	3.8	7.41e-01	0	44	104	0	71	15198
2026-01-22 23:20:09.88	50.60	10.17	-45.5	-56.2	3.8	7.48e-01	0	44	104	0	62	12506
2026-01-22 23:20:10.89	50.80	10.20	-45.4	-56.2	3.8	7.44e-01	0	43	104	0	62	12513
2026-01-22 23:20:11.89	51.00	10.24	-45.5	-56.3	3.8	7.43e-01	0	44	104	0	62	12626
2026-01-22 23:20:12.90	51.19	10.27	-47.5	-58.7	3.9	7.48e-01	0	43	104	0	65	13938
2026-01-22 23:20:13.91	51.39	10.30	-45.9	-56.7	3.8	7.42e-01	0	43	104	0	62	13248
2026-01-22 23:20:14.91	51.59	10.33	-54.5	-72.1	3.8	7.43e-01	0	43	104	0	79	29264
2026-01-22 23:20:15.92	51.78	10.36	-46.0	-56.8	3.8	7.48e-01	0	44	104	0	63	12651
2026-01-22 23:20:16.93	51.98	10.39	-50.9	-63.3	3.8	7.45e-01	0	44	104	0	72	15831
2026-01-22 23:20:17.94	52.18	10.42	-45.3	-56.2	3.8	7.41e-01	0	43	104	0	62	12426
2026-01-22 23:20:18.95	52.38	10.45	-45.3	-56.0	3.9	7.41e-01	0	44	104	0	62	12222
2026-01-22 23:20:19.96	52.58	10.48	-45.3	-56.1	3.8	7.43e-01	0	44	104	0	62	12295
2026-01-22 23:20:20.97	52.78	10.51	-50.3	-62.3	3.9	7.46e-01	0	43	104	0	71	15002
2026-01-22 23:20:21.97	52.98	10.54	-46.3	-57.3	3.8	7.45e-01	0	44	104	0	63	13311
2026-01-22 23:20:22.98	53.18	10.57	-54.5	-72.1	3.8	7.47e-01	0	44	104	0	79	29220
2026-01-22 23:20:23.99	53.39	10.59	-46.0	-56.8	3.8	7.45e-01	0	44	104	0	63	12577
2026-01-22 23:20:25.00	53.59	10.62	-51.0	-63.3	3.8	7.44e-01	0	44	104	0	72	15825
2026-01-22 23:20:26.01	53.79	10.65	-45.2	-56.0	3.8	7.48e-01	0	43	104	0	62	12177
2026-01-22 23:20:27.02	53.99	10.68	-45.1	-55.9	3.8	7.46e-01	0	44	104	0	62	12081
2026-01-22 23:20:28.03	54.20	10.71	-45.2	-56.0	3.8	7.43e-01	0	44	104	0	62	12230
2026-01-22 23:20:29.03	54.40	10.73	-47.0	-58.1	3.8	7.44e-01	0	44	104	0	65	13029
2026-01-22 23:20:30.04	54.60	10.76	-46.1	-57.1	3.8	7.46e-01	0	44	104	0	62	13727
2026-01-22 23:20:31.05	54.81	10.79	-54.5	-72.1	3.8	7.43e-01	0	44	104	0	79	29186
2026-01-22 23:20:32.06	55.01	10.81	-45.9	-56.8	3.9	7.43e-01	0	44	104	0	63	12609
2026-01-22 23:20:33.07	55.22	10.84	-51.2	-63.8	3.8	7.41e-01	0	44	104	0	73	15818
2026-01-22 23:20:34.07	55.42	10.86	-45.2	-56.0	3.8	7.44e-01	0	44	104	0	62	12188
2026-01-22 23:20:35.08	55.63	10.89	-45.3	-56.1	3.8	7.48e-01	0	44	104	0	62	12282
2026-01-22 23:20:36.09	55.84	10.92	-45.1	-55.9	3.8	7.42e-01	0	44	104	0	62	12040
2026-01-22 23:20:37.10	56.04	10.94	-49.1	-60.7	3.8	7.46e-01	0	44	104	0	69	14028
2026-01-22 23:20:38.11	56.25	10.96	-45.9	-56.9	3.8	7.44e-01	0	43	104	0	62	13435
2026-01-22 23:20:39.11	56.46	10.99	-54.5	-72.1	3.8	7.44e-01	0	43	104	0	79	29137
2026-01-22 23:20:40.12	56.67	11.01	-45.8	-56.7	3.8	7.44e-01	0	44	104	0	63	12479
2026-01-22 23:20:41.13	56.87	11.04	-50.6	-62.7	3.9	7.44e-01	0	44	104	0	72	14783
2026-01-22 23:20:42.14	57.08	11.06	-45.2	-56.0	3.8	7.41e-01	0	43	104	0	62	12170
2026-01-22 23:20:43.15	57.29	11.08	-45.3	-56.1	3.8	7.43e-01	0	44	104	0	62	12371
2026-01-22 23:20:44.15	57.50	11.11	-45.2	-56.0	3.8	7.46e-01	0	43	104	0	62	12230
2026-01-22 23:20:45.16	57.71	11.13	-48.2	-59.5	3.9	7.44e-01	0	44	104	0	68	12922
2026-01-22 23:20:46.17	57.92	11.15	-45.8	-56.6	3.8	7.48e-01	0	44	104	0	62	13083
2026-01-22 23:20:47.17	58.13	11.17	-54.5	-72.0	3.8	7.43e-01	0	44	104	0	79	28868
2026-01-22 23:20:48.18	58.34	11.20	-45.3	-56.1	3.9	7.41e-01	0	44	104	0	62	12349
2026-01-22 23:20:49.19	58.55	11.22	-50.4	-62.4	3.9	7.46e-01	0	44	104	0	72	14240
2026-01-22 23:20:50.20	58.76	11.24	-45.1	-55.9	3.8	7.43e-01	0	44	104	0	62	11975
2026-01-22 23:20:51.21	58.97	11.26	-45.1	-55.9	3.8	7.44e-01	0	44	104	0	62	12003
2026-01-22 23:20:52.22	59.19	11.28	-45.2	-56.0	3.8	7.47e-01	0	44	104	0	62	12178
2026-01-22 23:20:53.23	59.40	11.30	-48.1	-59.5	3.9	7.45e-01	0	44	104	0	68	12811
2026-01-22 23:20:54.24	59.61	11.32	-46.1	-57.0	3.8	7.50e-01	0	43	104	0	62	13658
2026-01-22 23:20:55.25	59.82	11.34	-54.3	-71.1	3.8	7.42e-01	0	44	104	0	79	25920
2026-01-22 23:20:56.25	60.04	11.36	-45.2	-55.9	3.8	7.48e-01	0	43	104	0	62	12008
2026-01-22 23:20:57.26	60.25	11.38	-49.6	-61.3	3.9	7.46e-01	0	44	104	0	71	13272
2026-01-22 23:20:58.27	60.46	11.40	-45.1	-55.9	3.8	7.45e-01	0	44	104	0	62	12008
2026-01-22 23:20:59.28	60.68	11.41	-45.1	-56.0	3.8	7.47e-01	0	43	104	0	62	12111
2026-01-22 23:21:00.29	60.89	11.43	-45.2	-56.0	3.8	7.46e-01	0	44	104	0	62	12140
2026-01-22 23:21:01.30	61.11	11.45	-48.0	-58.9	3.8	7.47e-01	0	44	104	0	67	12701
2026-01-22 23:21:02.30	61.32	11.47	-45.9	-56.9	3.8	7.46e-01	0	44	104	0	62	13469
2026-01-22 23:21:03.31	61.54	11.48	-54.3	-71.1	3.8	7.47e-01	0	44	104	0	79	26152
2026-01-22 23:21:04.32	61.75	11.50	-44.7	-46.5	5.3	7.05e-01	0	43	104	0	61	4340
2026-01-22 23:21:05.33	61.97	11.52	-48.0	-49.7	20.9	6.02e-01	0	44	0	524288	68	4192
2026-01-22 23:21:06.34	62.18	11.53	-44.7	-45.9	25.5	6.04e-01	0	44	0	2621440	61	4026
2026-01-22 23:21:07.35	62.40	11.55	-44.7	-45.9	25.5	6.00e-01	0	44	0	4718592	61	4018
2026-01-22 23:21:08.35	62.61	11.56	-44.7	-45.9	25.5	6.02e-01	0	44	0	6291456	61	4034
2026-01-22 23:21:09.36	62.83	11.58	-44.6	-45.8	25.4	6.04e-01	0	44	0	8388608	61	3994
2026-01-22 23:21:10.37	63.05	11.59	-44.7	-45.9	25.5	6.04e-01	0	44	0	9961472	61	4046
2026-01-22 23:21:11.38	63.27	11.61	-44.8	-46.0	25.5	6.04e-01	0	44	0	12058624	61	4076
2026-01-22 23:21:12.39	63.48	11.62	-44.7	-45.9	25.6	6.04e-01	0	44	0	13631488	61	4029
2026-01-22 23:21:13.40	63.70	11.63	-44.5	-45.7	25.8	6.01e-01	0	44	0	15728640	61	3933
2026-01-22 23:21:14.41	63.92	11.65	-44.5	-45.7	25.8	6.02e-01	0	44	0	17825792	61	3926
2026-01-22 23:21:15.42	64.14	11.66	-44.5	-45.7	25.7	6.05e-01	0	44	0	19398656	60	4191
2026-01-22 23:21:16.43	64.36	11.67	-44.7	-45.9	25.6	6.01e-01	0	44	0	21495808	60	4279
2026-01-22 23:21:17.43	64.57	11.68	-44.6	-45.9	25.6	6.01e-01	0	44	0	23592960	60	4243
2026-01-22 23:21:18.44	64.79	11.70	-44.6	-45.8	25.7	6.02e-01	0	44	0	25165824	60	4202
2026-01-22 23:21:19.45	65.01	11.71	-44.7	-45.9	25.5	6.02e-01	0	44	0	27262976	60	4286
2026-01-22 23:21:20.46	65.23	11.72	-44.7	-45.9	25.5	6.01e-01	0	44	0	28835840	60	4275
2026-01-22 23:21:21.47	65.45	11.73	-44.7	-46.0	25.4	6.04e-01	0	44	0	30932992	60	4295
2026-01-22 23:21:22.47	65.67	11.74	-44.7	-45.9	25.6	6.04e-01	0	44	0	33030144	60	4254
2026-01-22 23:21:23.48	65.89	11.75	-44.7	-45.9	25.6	6.02e-01	0	44	0	34603008	60	4257
2026-01-22 23:21:24.49	66.11	11.76	-44.5	-45.7	25.7	6.02e-01	0	44	0	36700160	60	4161
2026-01-22 23:21:25.50	66.33	11.77	-44.4	-45.6	25.9	6.05e-01	0	44	0	38273024	60	4136
2026-01-22 23:21:26.51	66.55	11.78	-44.4	-45.6	25.9	6.03e-01	0	44	0	40370176	60	4122
2026-01-22 23:21:27.51	66.76	11.79	-44.7	-45.9	25.6	6.00e-01	0	44	0	41943040	60	4256
2026-01-22 23:21:28.52	66.98	11.80	-44.7	-45.9	25.5	6.02e-01	0	44	0	44040192	60	4273
2026-01-22 23:21:29.53	67.20	11.80	-44.7	-45.9	25.6	6.02e-01	0	44	0	46137344	60	4257
2026-01-22 23:21:30.54	67.43	11.81	-44.6	-45.8	25.6	6.02e-01	0	44	0	48234496	60	4221
2026-01-22 23:21:31.55	67.65	11.82	-44.5	-45.7	25.8	6.01e-01	0	44	0	49807360	60	4186
2026-01-22 23:21:32.56	67.87	11.83	-44.5	-45.7	25.8	6.02e-01	0	44	0	51904512	60	4175
2026-01-22 23:21:33.57	68.09	11.83	-44.5	-45.7	25.8	6.02e-01	0	44	0	53477376	60	4173
2026-01-22 23:21:34.57	68.31	11.84	-44.6	-45.8	25.7	6.05e-01	0	44	0	55574528	60	4210
2026-01-22 23:21:35.58	68.53	11.84	-44.5	-45.7	25.8	6.03e-01	0	44	0	57147392	60	4175
2026-01-22 23:21:36.59	68.75	11.85	-44.6	-45.8	25.7	6.03e-01	0	44	0	59244544	60	4240
2026-01-22 23:21:37.60	68.97	11.85	-44.9	-46.1	25.4	6.05e-01	0	44	0	61341696	60	4373
2026-01-22 23:21:38.61	69.19	11.86	-44.8	-46.0	25.5	6.02e-01	0	44	0	62914560	60	4338
2026-01-22 23:21:39.62	69.41	11.86	-44.7	-45.9	25.6	6.03e-01	0	44	0	65011712	60	4268
2026-01-22 23:21:40.63	69.64	11.87	-44.5	-45.7	25.8	6.02e-01	0	44	0	66584576	60	4179
2026-01-22 23:21:41.64	69.86	11.87	-44.5	-45.7	25.8	6.02e-01	0	44	0	68681728	60	4157
2026-01-22 23:21:42.65	70.08	11.87	-44.5	-45.7	25.8	6.02e-01	0	44	0	70778880	60	4178
2026-01-22 23:21:43.65	70.30	11.88	-44.5	-45.7	25.8	6.00e-01	0	44	0	72351744	60	4149
2026-01-22 23:21:44.66	70.52	11.88	-44.6	-45.8	25.7	6.00e-01	0	44	0	74448896	60	4215
2026-01-22 23:21:45.67	70.74	11.88	-44.6	-45.8	25.5	6.02e-01	0	44	0	76546048	60	4240
2026-01-22 23:21:46.68	70.96	11.88	-44.6	-45.8	25.6	6.04e-01	0	44	0	78118912	60	4232
2026-01-22 23:21:47.69	71.19	11.89	-44.6	-45.9	25.7	6.02e-01	0	44	0	80216064	60	4246
2026-01-22 23:21:48.69	71.41	11.89	-44.6	-45.8	25.7	6.03e-01	0	44	0	81788928	60	4201
2026-01-22 23:21:49.70	71.63	11.89	-44.5	-45.7	25.7	6.03e-01	0	44	0	83886080	60	4188
2026-01-22 23:21:50.71	71.85	11.89	-44.6	-45.8	25.8	6.02e-01	0	44	0	85458944	60	4202
2026-01-22 23:21:51.72	72.07	11.89	-44.7	-45.9	25.6	6.03e-01	0	44	0	87556096	60	4259
2026-01-22 23:21:52.73	72.29	11.89	-44.7	-45.9	25.6	6.03e-01	0	44	0	89653248	60	4265
2026-01-22 23:21:53.73	72.51	11.89	-44.7	-45.9	25.6	6.06e-01	0	44	0	91750400	60	4251
2026-01-22 23:21:54.74	72.74	11.88	-44.7	-45.9	25.6	6.02e-01	0	44	0	93323264	60	4270
2026-01-22 23:21:55.75	72.96	11.88	-44.7	-46.0	25.5	6.04e-01	0	44	0	95420416	60	4297
2026-01-22 23:21:56.76	73.18	11.88	-44.7	-46.0	25.5	6.02e-01	0	44	0	96993280	60	4294
2026-01-22 23:21:57.77	73.40	11.88	-44.6	-45.8	25.6	6.03e-01	0	44	0	99090432	60	4237
2026-01-22 23:21:58.77	73.62	11.88	-44.7	-45.9	25.6	6.01e-01	0	44	0	100663296	60	4252
2026-01-22 23:21:59.78	73.84	11.87	-44.4	-45.6	25.8	6.02e-01	0	44	0	102760448	60	4136
2026-01-22 23:22:00.79	74.07	11.87	-44.5	-45.7	25.8	6.03e-01	0	44	0	104857600	60	4181
2026-01-22 23:22:01.80	74.29	11.87	-44.6	-45.8	25.7	6.01e-01	0	44	0	106430464	60	4220
2026-01-22 23:22:02.81	74.51	11.86	-44.8	-46.0	25.5	6.03e-01	0	44	0	108527616	60	4312
2026-01-22 23:22:03.82	74.73	11.86	-44.6	-45.8	25.7	6.02e-01	0	44	0	110100480	60	4239
2026-01-22 23:22:04.83	74.95	11.85	-44.6	-45.8	25.7	6.03e-01	0	44	0	112197632	60	4206
2026-01-22 23:22:05.84	75.17	11.85	-44.5	-45.7	25.7	6.03e-01	0	44	0	114294784	60	4185
2026-01-22 23:22:06.85	75.40	11.84	-44.5	-45.7	25.7	6.02e-01	0	44	0	115867648	60	4162
2026-01-22 23:22:07.85	75.61	11.84	-44.5	-45.7	25.8	6.04e-01	0	44	0	117964800	60	4165
2026-01-22 23:22:08.86	75.84	11.83	-44.5	-45.7	25.7	6.04e-01	0	44	0	120061952	60	4169
2026-01-22 23:22:09.87	76.06	11.82	-44.6	-45.8	25.7	6.02e-01	0	44	0	121634816	60	4199
2026-01-22 23:22:10.88	76.28	11.82	-44.6	-45.9	25.7	6.01e-01	0	44	0	123731968	60	4246
2026-01-22 23:22:11.89	76.50	11.81	-44.6	-45.9	25.7	6.01e-01	0	44	0	125304832	60	4252
2026-01-22 23:22:12.90	76.72	11.80	-44.5	-45.8	25.7	6.02e-01	0	44	0	127401984	60	4199
2026-01-22 23:22:13.90	76.94	11.79	-44.6	-45.8	25.7	6.03e-01	0	44	0	128974848	60	4213
2026-01-22 23:22:14.91	77.16	11.79	-44.7	-46.0	25.5	6.00e-01	0	44	0	131072000	60	4298
2026-01-22 23:22:15.92	77.38	11.78	-44.5	-45.7	25.8	6.03e-01	0	44	0	133169152	60	4174
2026-01-22 23:22:16.93	77.60	11.77	-44.6	-45.8	25.7	6.03e-01	0	44	0	134742016	60	4204
2026-01-22 23:22:17.93	77.82	11.76	-44.7	-45.9	25.6	6.00e-01	0	44	0	136839168	60	4258
2026-01-22 23:22:18.94	78.04	11.75	-44.7	-45.9	25.5	6.04e-01	0	44	0	138936320	60	4291
2026-01-22 23:22:19.95	78.26	11.74	-44.8	-46.1	25.4	6.03e-01	0	44	0	140509184	60	4351
2026-01-22 23:22:20.96	78.48	11.73	-44.6	-45.8	25.6	6.02e-01	0	44	0	142606336	60	4241
2026-01-22 23:22:21.97	78.70	11.72	-44.6	-45.8	25.7	6.01e-01	0	44	0	144179200	60	4213
2026-01-22 23:22:22.97	78.91	11.71	-44.5	-45.7	25.7	6.02e-01	0	44	0	146276352	60	4179
2026-01-22 23:22:23.98	79.13	11.69	-44.6	-45.8	25.7	6.04e-01	0	44	0	148373504	60	4212
2026-01-22 23:22:24.99	79.35	11.68	-44.6	-45.8	25.7	6.03e-01	0	44	0	149946368	60	4214
2026-01-22 23:22:26.00	79.57	11.67	-44.6	-45.8	25.6	6.03e-01	0	44	0	152043520	60	4239
2026-01-22 23:22:27.01	79.79	11.66	-44.6	-45.8	25.6	6.03e-01	0	44	0	153616384	60	4229
2026-01-22 23:22:28.02	80.01	11.64	-44.6	-45.8	25.6	6.03e-01	0	44	0	155713536	60	4234
2026-01-22 23:22:29.03	80.23	11.63	-44.6	-45.8	25.7	6.04e-01	0	44	0	157286400	60	4222
2026-01-22 23:22:30.03	80.44	11.62	-44.8	-46.0	25.5	6.03e-01	0	44	0	159383552	60	4316
2026-01-22 23:22:31.04	80.66	11.60	-44.6	-45.8	25.6	6.04e-01	0	44	0	161480704	60	4221
2026-01-22 23:22:32.05	80.88	11.59	-44.7	-45.9	25.6	6.02e-01	0	44	0	163053568	60	4260
2026-01-22 23:22:33.06	81.10	11.57	-44.6	-45.8	25.7	6.04e-01	0	44	0	165150720	60	4197
2026-01-22 23:22:34.07	81.31	11.56	-44.6	-45.8	25.7	6.03e-01	0	44	0	167247872	60	4234
2026-01-22 23:22:35.08	81.53	11.54	-44.6	-45.8	25.6	6.02e-01	0	44	0	168820736	60	4217
2026-01-22 23:22:36.08	81.74	11.53	-44.5	-45.7	25.8	6.02e-01	0	44	0	170917888	60	4158
2026-01-22 23:22:37.09	81.96	11.51	-44.7	-45.9	25.6	6.03e-01	0	44	0	172490752	60	4272
2026-01-22 23:22:38.10	82.18	11.50	-44.6	-45.8	25.7	6.01e-01	0	44	0	174587904	60	4205
2026-01-22 23:22:39.11	82.39	11.48	-44.6	-45.8	25.7	6.02e-01	0	44	0	176685056	60	4202
2026-01-22 23:22:40.12	82.61	11.46	-44.7	-45.9	25.5	6.03e-01	0	44	0	178257920	60	4276
2026-01-22 23:22:41.13	82.82	11.44	-44.8	-46.0	25.5	6.03e-01	0	44	0	180355072	60	4310
2026-01-22 23:22:42.14	83.04	11.43	-44.6	-45.8	25.6	6.05e-01	0	44	0	182452224	60	4220
2026-01-22 23:22:43.15	83.25	11.41	-44.6	-45.8	25.6	6.03e-01	0	44	0	184025088	60	4225
2026-01-22 23:22:44.15	83.47	11.39	-44.5	-45.7	25.7	6.03e-01	0	44	0	186122240	60	4188
2026-01-22 23:22:45.16	83.68	11.37	-44.5	-45.8	25.7	6.01e-01	0	44	0	187695104	60	4195
2026-01-22 23:22:46.17	83.90	11.35	-44.6	-45.9	25.6	6.00e-01	0	44	0	189792256	60	4243
2026-01-22 23:22:47.18	84.11	11.33	-44.8	-46.0	25.4	6.05e-01	0	44	0	191889408	60	4340
2026-01-22 23:22:48.19	84.32	11.31	-44.6	-45.9	25.6	6.03e-01	0	44	0	193462272	60	4244
2026-01-22 23:22:49.19	84.53	11.29	-44.8	-46.0	25.4	6.01e-01	0	44	0	195559424	60	4338
2026-01-22 23:22:50.20	84.75	11.27	-44.6	-45.9	25.6	6.04e-01	0	44	0	197132288	60	4248
2026-01-22 23:22:51.21	84.96	11.25	-44.5	-45.7	25.7	6.03e-01	0	44	0	199229440	60	4177
2026-01-22 23:22:52.22	85.17	11.23	-44.5	-45.7	25.7	6.02e-01	0	44	0	200802304	60	4169
2026-01-22 23:22:53.23	85.38	11.21	-44.5	-45.7	25.7	6.05e-01	0	44	0	202899456	60	4188
2026-01-22 23:22:54.24	85.60	11.19	-44.6	-45.8	25.6	6.03e-01	0	44	0	204996608	60	4226
2026-01-22 23:22:55.25	85.81	11.17	-44.6	-45.8	25.6	6.04e-01	0	44	0	206569472	60	4234
2026-01-22 23:22:56.25	86.02	11.15	-44.6	-45.9	25.5	6.03e-01	0	44	0	208666624	60	4245
2026-01-22 23:22:57.26	86.23	11.12	-44.6	-45.8	25.6	6.03e-01	0	44	0	210763776	60	4238
2026-01-22 23:22:58.27	86.44	11.10	-44.7	-45.9	25.5	6.01e-01	0	44	0	212336640	60	4285
2026-01-22 23:22:59.28	86.65	11.08	-44.8	-46.0	25.4	6.00e-01	0	44	0	214433792	60	4337
2026-01-22 23:23:00.29	86.86	11.05	-44.7	-45.9	25.5	6.02e-01	0	44	0	216006656	60	4286
2026-01-22 23:23:01.29	87.06	11.03	-44.7	-46.0	25.5	6.03e-01	0	44	0	218103808	60	4298
2026-01-22 23:23:02.30	87.27	11.01	-44.6	-45.8	25.6	6.04e-01	0	44	0	220200960	60	4227
2026-01-22 23:23:03.31	87.48	10.98	-44.6	-45.9	25.6	6.02e-01	0	44	0	221773824	60	4248
2026-01-22 23:23:04.32	87.69	10.96	-44.6	-45.9	25.5	6.05e-01	0	44	0	223870976	60	4246
2026-01-22 23:23:05.33	87.90	10.93	-44.5	-45.7	25.7	6.01e-01	0	44	0	225443840	60	4172
2026-01-22 23:23:06.33	88.10	10.91	-44.6	-45.9	25.5	6.03e-01	0	44	0	227540992	60	4248
2026-01-22 23:23:07.34	88.31	10.88	-44.7	-46.0	25.4	6.02e-01	0	44	0	229638144	60	4304
2026-01-22 23:23:08.35	88.52	10.86	-44.7	-45.9	25.5	6.03e-01	0	44	0	231211008	60	4270
2026-01-22 23:23:09.35	88.72	10.83	-44.7	-45.9	25.5	6.01e-01	0	44	0	233308160	60	4260
2026-01-22 23:23:10.36	88.93	10.80	-44.7	-45.9	25.5	6.01e-01	0	44	0	234881024	60	4267
2026-01-22 23:23:11.37	89.13	10.78	-44.7	-45.9	25.5	6.03e-01	0	44	0	236978176	60	4280
2026-01-22 23:23:12.38	89.34	10.75	-44.6	-45.8	25.6	6.04e-01	0	44	0	239075328	60	4211
2026-01-22 23:23:13.39	89.54	10.72	-44.6	-45.8	25.6	6.02e-01	0	44	0	240648192	60	4241
2026-01-22 23:23:14.40	89.75	10.70	-44.7	-46.0	25.4	6.02e-01	0	44	0	242745344	60	4296
2026-01-22 23:23:15.41	89.95	10.67	-44.7	-45.9	25.5	6.03e-01	0	44	0	244318208	60	4280
2026-01-22 23:23:16.41	90.15	10.64	-44.7	-45.9	25.5	6.03e-01	0	44	0	246415360	60	4258
2026-01-22 23:23:17.42	90.36	10.61	-44.8	-46.1	25.2	6.05e-01	0	44	0	248512512	60	4344
2026-01-22 23:23:18.43	90.56	10.59	-44.6	-45.9	25.4	6.04e-01	0	44	0	250085376	60	4245
2026-01-22 23:23:19.44	90.76	10.56	-44.8	-46.0	25.4	6.04e-01	0	44	0	252182528	60	4328
2026-01-22 23:23:20.45	90.96	10.53	-44.8	-46.1	25.3	6.02e-01	0	44	0	254279680	60	4354
2026-01-22 23:23:21.45	91.16	10.50	-44.8	-46.0	25.3	6.01e-01	0	44	0	255852544	60	4327
2026-01-22 23:23:22.46	91.36	10.47	-44.7	-45.9	25.4	6.01e-01	0	44	0	257949696	60	4282
2026-01-22 23:23:23.47	91.56	10.44	-44.6	-45.8	25.5	6.04e-01	0	44	0	259522560	60	4238
2026-01-22 23:23:24.48	91.77	10.41	-44.7	-45.9	25.4	6.01e-01	0	44	0	261619712	60	4274
2026-01-22 23:23:25.49	91.96	10.38	-44.7	-45.9	25.5	6.02e-01	0	44	0	263192576	60	4257
2026-01-22 23:23:26.49	92.16	10.35	-44.6	-45.8	25.6	6.04e-01	0	44	0	265289728	60	4219
2026-01-22 23:23:27.50	92.36	10.32	-44.7	-45.9	25.5	6.02e-01	0	44	0	267386880	60	4262
2026-01-22 23:23:28.51	92.56	10.29	-44.9	-46.1	25.3	6.03e-01	0	44	0	268959744	60	4372
2026-01-22 23:23:29.52	92.76	10.26	-44.8	-46.0	25.3	6.02e-01	0	44	0	271056896	60	4331
2026-01-22 23:23:30.52	92.95	10.22	-44.8	-46.0	25.3	6.04e-01	0	44	0	272629760	60	4333
2026-01-22 23:23:31.53	93.15	10.19	-44.8	-46.0	25.3	6.03e-01	0	44	0	274726912	60	4325
2026-01-22 23:23:32.54	93.35	10.16	-44.7	-45.9	25.4	6.02e-01	0	44	0	276824064	60	4276
2026-01-22 23:23:33.55	93.54	10.13	-44.8	-46.0	25.3	6.03e-01	0	44	0	278396928	60	4333
2026-01-22 23:23:34.56	93.74	10.10	-44.7	-45.9	25.4	6.02e-01	0	44	0	280494080	60	4290
2026-01-22 23:23:35.57	93.94	10.06	-44.6	-45.9	25.5	6.02e-01	0	44	0	282591232	60	4252
2026-01-22 23:23:36.58	94.13	10.03	-44.7	-46.0	25.4	6.03e-01	0	44	0	284164096	60	4295
2026-01-22 23:23:37.59	94.33	10.00	-44.8	-46.0	25.3	6.03e-01	0	44	0	286261248	60	4332
2026-01-22 23:23:38.59	94.52	9.96	-44.8	-46.1	25.3	6.04e-01	0	43	0	287834112	60	4356
2026-01-22 23:23:39.60	94.71	9.93	-44.7	-46.0	25.4	6.02e-01	0	44	0	289931264	60	4307
2026-01-22 23:23:40.61	94.90	9.90	-44.8	-46.0	25.3	6.01e-01	0	44	0	291504128	60	4316
2026-01-22 23:23:41.62	95.10	9.86	-44.8	-46.0	25.3	6.01e-01	0	44	0	293601280	60	4340
2026-01-22 23:23:42.63	95.29	9.83	-44.9	-46.2	25.1	6.02e-01	0	44	0	295698432	60	4413
2026-01-22 23:23:43.64	95.48	9.79	-44.8	-46.0	25.3	6.02e-01	0	44	0	297795584	60	4324
2026-01-22 23:23:44.65	95.67	9.76	-44.7	-46.0	25.3	6.01e-01	0	44	0	299368448	60	4301
2026-01-22 23:23:45.65	95.86	9.73	-44.8	-46.1	25.1	6.00e-01	0	44	0	301465600	60	4365
2026-01-22 23:23:46.66	96.05	9.69	-44.8	-46.1	25.2	6.03e-01	0	44	0	303038464	60	4343
2026-01-22 23:23:47.67	96.24	9.66	-44.9	-46.2	25.1	6.03e-01	0	44	0	305135616	60	4401
2026-01-22 23:23:48.68	96.43	9.62	-45.0	-46.2	25.1	6.04e-01	0	44	0	306708480	60	4430
2026-01-22 23:23:49.69	96.62	9.58	-45.0	-46.3	25.0	6.01e-01	0	44	0	308805632	60	4459
2026-01-22 23:23:50.69	96.81	9.55	-44.9	-46.2	25.1	6.03e-01	0	44	0	310902784	60	4400
2026-01-22 23:23:51.70	96.99	9.51	-44.9	-46.2	25.2	6.04e-01	0	44	0	312475648	60	4405
2026-01-22 23:23:52.71	97.18	9.48	-44.9	-46.1	25.2	6.02e-01	0	44	0	314572800	60	4385
2026-01-22 23:23:53.72	97.37	9.44	-44.8	-46.1	25.2	6.02e-01	0	44	0	316145664	60	4343
2026-01-22 23:23:54.73	97.55	9.40	-44.8	-46.0	25.3	6.02e-01	0	44	0	318242816	60	4337
2026-01-22 23:23:55.73	97.74	9.37	-44.9	-46.2	25.1	6.03e-01	0	44	0	320339968	60	4395
2026-01-22 23:23:56.74	97.92	9.33	-44.9	-46.2	25.1	6.03e-01	0	44	0	321912832	60	4407
2026-01-22 23:23:57.75	98.11	9.29	-45.0	-46.3	25.0	6.02e-01	0	44	0	324009984	60	4462
2026-01-22 23:23:58.76	98.29	9.26	-45.1	-46.4	24.9	6.01e-01	0	44	0	326107136	60	4532
2026-01-22 23:23:59.77	98.48	9.22	-45.3	-46.6	24.7	6.02e-01	0	44	0	327680000	61	4387
2026-01-22 23:24:00.77	98.66	9.18	-45.1	-46.4	24.9	6.02e-01	0	44	0	329777152	61	4285
2026-01-22 23:24:01.78	98.84	9.14	-44.9	-46.2	25.1	6.01e-01	0	44	0	331350016	61	4150
2026-01-22 23:24:02.79	99.03	9.10	-44.9	-46.1	25.2	6.02e-01	0	44	0	333447168	61	4141
2026-01-22 23:24:03.80	99.21	9.07	-44.9	-46.2	25.2	6.02e-01	0	44	0	335020032	61	4148
2026-01-22 23:24:04.81	99.39	9.03	-45.0	-46.3	25.1	6.04e-01	0	44	0	337117184	61	4198
2026-01-22 23:24:05.82	99.57	8.99	-45.0	-46.3	25.0	6.02e-01	0	44	0	339214336	61	4223
2026-01-22 23:24:06.82	99.75	8.95	-45.1	-46.3	25.0	6.02e-01	0	44	0	340787200	61	4242
2026-01-22 23:24:07.83	99.93	8.91	-44.9	-46.2	25.1	6.02e-01	0	44	0	342884352	61	4149
2026-01-22 23:24:08.84	100.11	8.87	-44.9	-46.1	25.1	6.02e-01	0	44	0	344981504	61	4135
2026-01-22 23:24:09.85	100.29	8.83	-45.0	-46.2	25.0	6.04e-01	0	44	0	346554368	61	4192
2026-01-22 23:24:10.86	100.47	8.79	-45.0	-46.3	25.0	6.02e-01	0	44	0	348651520	61	4203
2026-01-22 23:24:11.87	100.64	8.75	-45.1	-46.4	24.9	6.01e-01	0	44	0	350224384	61	4259
2026-01-22 23:24:12.88	100.82	8.71	-45.2	-46.6	24.7	6.03e-01	0	44	0	352321536	61	4348
2026-01-22 23:24:13.89	101.00	8.68	-45.1	-46.4	24.8	6.03e-01	0	44	0	354418688	61	4289
2026-01-22 23:24:14.89	101.17	8.64	-45.1	-46.4	24.8	6.01e-01	0	44	0	355991552	61	4273
2026-01-22 23:24:15.90	101.35	8.60	-45.0	-46.3	24.9	6.04e-01	0	44	0	358088704	61	4223
2026-01-22 23:24:16.91	101.52	8.55	-45.0	-46.3	24.8	6.02e-01	0	44	0	359661568	61	4238
2026-01-22 23:24:17.92	101.70	8.51	-44.9	-46.2	25.1	6.02e-01	0	44	0	361758720	61	4168
2026-01-22 23:24:18.93	101.87	8.47	-44.9	-46.2	25.1	6.04e-01	0	44	0	363331584	61	4181
2026-01-22 23:24:19.93	102.05	8.43	-45.1	-46.4	24.9	6.04e-01	0	44	0	365428736	61	4262
2026-01-22 23:24:20.94	102.22	8.39	-45.1	-46.4	24.8	6.05e-01	0	44	0	367525888	61	4286
2026-01-22 23:24:21.95	102.39	8.35	-45.1	-46.4	24.8	6.03e-01	0	44	0	369623040	61	4265
2026-01-22 23:24:22.96	102.56	8.31	-45.4	-46.8	24.6	6.02e-01	0	44	0	371195904	61	4463
2026-01-22 23:24:23.96	102.74	8.27	-45.5	-46.8	24.5	6.04e-01	0	44	0	373293056	61	4474
2026-01-22 23:24:24.97	102.91	8.23	-45.2	-46.5	24.7	6.04e-01	0	44	0	374865920	61	4340
2026-01-22 23:24:25.98	103.08	8.19	-45.4	-46.7	24.6	6.04e-01	0	44	0	376963072	61	4411
2026-01-22 23:24:26.99	103.25	8.14	-45.3	-46.7	24.6	6.05e-01	0	44	0	378535936	61	4397
2026-01-22 23:24:28.00	103.42	8.10	-45.2	-46.5	24.8	6.02e-01	0	44	0	380633088	61	4319
2026-01-22 23:24:29.01	103.59	8.06	-45.2	-46.5	24.8	6.01e-01	0	44	0	382730240	61	4337
2026-01-22 23:24:30.01	103.75	8.02	-45.3	-46.6	24.7	6.04e-01	0	44	0	384303104	61	4368
2026-01-22 23:24:31.02	103.92	7.98	-45.4	-46.8	24.5	6.01e-01	0	44	0	386400256	61	4455
2026-01-22 23:24:32.03	104.09	7.93	-45.5	-46.8	24.4	6.02e-01	0	44	0	387973120	61	4486
2026-01-22 23:24:33.04	104.26	7.89	-45.5	-46.9	24.4	6.02e-01	0	44	0	390070272	61	4499
2026-01-22 23:24:34.05	104.42	7.85	-45.5	-46.9	24.3	6.04e-01	0	44	0	392167424	61	4522
2026-01-22 23:24:35.05	104.59	7.81	-45.5	-46.8	24.5	6.02e-01	0	44	0	393740288	61	4471
2026-01-22 23:24:36.06	104.76	7.76	-45.6	-47.0	24.3	6.01e-01	0	44	0	395837440	61	4582
2026-01-22 23:24:37.07	104.92	7.72	-45.8	-47.1	24.2	6.02e-01	0	44	0	397934592	62	4388
2026-01-22 23:24:38.08	105.09	7.68	-45.7	-47.0	24.2	6.01e-01	0	44	0	399507456	62	4333
2026-01-22 23:24:39.09	105.25	7.64	-45.7	-47.1	24.2	6.03e-01	0	44	0	401604608	62	4343
2026-01-22 23:24:40.09	105.41	7.59	-45.6	-47.0	24.3	6.03e-01	0	44	0	403177472	62	4316
2026-01-22 23:24:41.10	105.58	7.55	-45.4	-46.8	24.5	6.02e-01	0	44	0	405274624	62	4200
2026-01-22 23:24:42.11	105.74	7.51	-45.5	-46.8	24.4	6.04e-01	0	44	0	406847488	62	4231
2026-01-22 23:24:43.12	105.90	7.46	-45.4	-46.8	24.5	6.03e-01	0	44	0	408944640	62	4195
2026-01-22 23:24:44.12	106.06	7.42	-45.5	-46.8	24.4	6.03e-01	0	44	0	411041792	62	4236
2026-01-22 23:24:45.13	106.22	7.38	-45.5	-46.9	24.3	6.02e-01	0	44	0	412614656	62	4262
2026-01-22 23:24:46.14	106.38	7.33	-45.6	-47.0	24.3	6.04e-01	0	44	0	414711808	62	4311
2026-01-22 23:24:47.15	106.54	7.29	-45.9	-47.3	24.0	6.04e-01	0	44	0	416808960	62	4458
2026-01-22 23:24:48.16	106.70	7.24	-45.9	-47.3	23.9	6.03e-01	0	43	0	418381824	62	4479
2026-01-22 23:24:49.17	106.86	7.20	-45.6	-47.0	24.2	6.03e-01	0	44	0	420478976	62	4321
2026-01-22 23:24:50.17	107.02	7.16	-45.7	-47.1	24.1	6.03e-01	0	44	0	422051840	62	4348
2026-01-22 23:24:51.18	107.18	7.11	-45.5	-46.9	24.3	6.02e-01	0	44	0	424148992	62	4258
2026-01-22 23:24:52.19	107.33	7.07	-45.5	-46.8	24.4	6.02e-01	0	44	0	426246144	62	4237
2026-01-22 23:24:53.20	107.49	7.02	-45.5	-46.9	24.4	6.03e-01	0	44	0	427819008	62	4249
2026-01-22 23:24:54.21	107.65	6.98	-45.6	-47.0	24.3	6.02e-01	0	44	0	429916160	62	4295
2026-01-22 23:24:55.21	107.80	6.93	-45.6	-46.9	24.3	6.04e-01	0	44	0	431489024	62	4274
2026-01-22 23:24:56.22	107.96	6.89	-45.7	-47.1	24.2	6.03e-01	0	44	0	433586176	62	4345
2026-01-22 23:24:57.23	108.11	6.84	-45.8	-47.2	24.1	6.01e-01	0	44	0	435683328	62	4405
2026-01-22 23:24:58.24	108.27	6.80	-46.0	-47.4	23.9	6.02e-01	0	44	0	437256192	62	4512
2026-01-22 23:24:59.25	108.42	6.75	-45.9	-47.3	24.0	6.04e-01	0	43	0	439353344	62	4461
2026-01-22 23:25:00.26	108.58	6.71	-45.9	-47.4	23.9	6.03e-01	0	44	0	440926208	62	4500
2026-01-22 23:25:01.27	108.73	6.66	-45.8	-47.1	24.1	6.04e-01	0	44	0	443023360	62	4391
2026-01-22 23:25:02.28	108.88	6.62	-45.7	-47.1	24.2	6.03e-01	0	44	0	445120512	62	4361
2026-01-22 23:25:03.28	109.03	6.57	-45.8	-47.2	24.0	6.03e-01	0	44	0	446693376	62	4427
2026-01-22 23:25:04.29	109.18	6.53	-45.5	-46.9	24.3	6.02e-01	0	44	0	448790528	62	4251
2026-01-22 23:25:05.30	109.34	6.48	-45.6	-46.9	24.3	6.03e-01	0	44	0	450363392	62	4274
2026-01-22 23:25:06.31	109.49	6.44	-45.9	-47.4	23.8	6.03e-01	0	44	0	452460544	62	4499
2026-01-22 23:25:07.31	109.64	6.39	-45.7	-47.0	24.2	6.06e-01	0	44	0	454557696	62	4332
2026-01-22 23:25:08.32	109.79	6.35	-45.8	-47.2	24.0	6.04e-01	0	44	0	456130560	62	4417
2026-01-22 23:25:09.33	109.93	6.30	-45.9	-47.4	23.9	6.02e-01	0	44	0	458227712	62	4496
2026-01-22 23:25:10.34	110.08	6.26	-46.1	-47.5	23.7	6.03e-01	0	44	0	460324864	62	4593
2026-01-22 23:25:11.34	110.23	6.21	-46.2	-47.6	23.5	6.05e-01	0	44	0	461897728	62	4644
2026-01-22 23:25:12.35	110.38	6.17	-45.9	-47.3	23.9	6.04e-01	0	44	0	463994880	62	4485
2026-01-22 23:25:13.36	110.53	6.12	-45.9	-47.3	23.9	6.02e-01	0	44	0	465567744	62	4479
2026-01-22 23:25:14.37	110.67	6.07	-46.2	-47.6	23.6	6.03e-01	0	44	0	467664896	62	4635
2026-01-22 23:25:15.38	110.82	6.03	-46.1	-47.5	23.7	6.02e-01	0	44	0	469762048	62	4585
2026-01-22 23:25:16.39	110.96	5.98	-46.3	-47.8	23.5	6.02e-01	0	44	0	471334912	63	4450
2026-01-22 23:25:17.40	111.11	5.94	-46.2	-47.6	23.6	6.03e-01	0	44	0	473432064	63	4376
2026-01-22 23:25:18.40	111.25	5.89	-46.2	-47.7	23.6	6.02e-01	0	44	0	475004928	63	4401
2026-01-22 23:25:19.41	111.40	5.84	-46.2	-47.7	23.6	6.03e-01	0	44	0	477102080	63	4412
2026-01-22 23:25:20.42	111.54	5.80	-46.3	-47.7	23.5	6.02e-01	0	44	0	478674944	63	4441
2026-01-22 23:25:21.43	111.68	5.75	-46.2	-47.7	23.5	6.03e-01	0	44	0	480772096	63	4403
2026-01-22 23:25:22.44	111.83	5.70	-46.1	-47.6	23.6	6.02e-01	0	44	0	482869248	63	4358
2026-01-22 23:25:23.45	111.97	5.66	-46.2	-47.6	23.5	6.04e-01	0	44	0	484442112	63	4388
2026-01-22 23:25:24.45	112.11	5.61	-46.6	-48.1	23.1	6.04e-01	0	44	0	486539264	63	4635
2026-01-22 23:25:25.46	112.25	5.57	-46.6	-48.1	23.2	6.03e-01	0	44	0	488636416	63	4635
2026-01-22 23:25:26.47	112.39	5.52	-46.4	-47.9	23.3	6.02e-01	0	44	0	490209280	63	4534
2026-01-22 23:25:27.48	112.53	5.47	-46.5	-48.0	23.2	6.04e-01	0	44	0	492306432	63	4580
2026-01-22 23:25:28.49	112.67	5.43	-46.5	-48.1	23.1	6.05e-01	0	44	0	493879296	63	4602
2026-01-22 23:25:29.49	112.81	5.38	-46.7	-48.3	22.7	6.02e-01	0	44	0	495976448	64	4470
2026-01-22 23:25:30.50	112.95	5.33	-46.7	-48.3	22.7	6.03e-01	0	44	0	498073600	64	4468
2026-01-22 23:25:31.51	113.09	5.29	-46.5	-48.1	23.0	6.00e-01	0	44	0	499646464	64	4356
2026-01-22 23:25:32.52	113.23	5.24	-46.7	-48.3	22.8	6.04e-01	0	44	0	501743616	64	4457
2026-01-22 23:25:33.53	113.37	5.19	-46.1	-47.6	23.4	6.05e-01	0	44	0	503316480	64	4123
2026-01-22 23:25:34.54	113.50	5.15	-46.3	-47.9	23.1	6.03e-01	0	44	0	505413632	64	4244
2026-01-22 23:25:35.55	113.64	5.10	-46.7	-48.3	22.6	6.01e-01	0	44	0	507510784	64	4481
2026-01-22 23:25:36.55	113.78	5.05	-46.2	-47.7	23.2	6.04e-01	0	44	0	509083648	64	4164
2026-01-22 23:25:37.56	113.91	5.01	-47.7	-49.5	21.9	6.03e-01	0	44	0	511180800	65	4852
2026-01-22 23:25:38.57	114.05	4.96	-54.5	-72.2	3.8	7.48e-01	0	44	104	511705088	79	29394
2026-01-22 23:25:39.58	114.18	4.91	-54.8	-72.4	3.8	7.45e-01	0	44	104	511705088	80	28524
2026-01-22 23:25:40.59	114.32	4.86	-55.0	-72.8	3.8	7.43e-01	0	44	104	511705088	80	29771
2026-01-22 23:25:41.60	114.45	4.82	-55.1	-72.9	3.8	7.43e-01	0	44	104	511705088	80	30130
2026-01-22 23:25:42.61	114.58	4.77	-55.2	-73.0	3.8	7.46e-01	0	44	104	511705088	80	30597
2026-01-22 23:25:43.61	114.72	4.72	-55.3	-73.1	3.8	7.47e-01	0	44	104	511705088	81	29246
2026-01-22 23:25:44.62	114.85	4.68	-55.4	-73.2	3.8	7.46e-01	0	44	104	511705088	81	29417
2026-01-22 23:25:45.63	114.98	4.63	-55.4	-73.2	3.8	7.43e-01	0	44	104	511705088	81	29566
2026-01-22 23:25:46.64	115.11	4.58	-55.5	-73.2	3.8	7.48e-01	0	44	104	511705088	81	29684
2026-01-22 23:25:47.65	115.24	4.53	-55.5	-73.2	3.8	7.45e-01	0	44	104	511705088	81	29615
2026-01-22 23:25:48.66	115.38	4.49	-55.5	-73.4	3.8	7.45e-01	0	44	104	511705088	81	30088
2026-01-22 23:25:49.67	115.51	4.44	-55.6	-73.4	3.8	7.42e-01	0	44	104	511705088	81	30151
2026-01-22 23:25:50.67	115.63	4.39	-55.6	-73.4	3.8	7.44e-01	0	44	104	511705088	81	30150
2026-01-22 23:25:51.68	115.76	4.35	-55.6	-73.5	3.8	7.46e-01	0	44	104	511705088	81	30432
2026-01-22 23:25:52.69	115.89	4.30	-55.6	-73.4	3.8	7.45e-01	0	44	104	511705088	81	30312
2026-01-22 23:25:53.70	116.02	4.25	-55.7	-73.5	3.8	7.46e-01	0	44	104	511705088	81	30511
2026-01-22 23:25:54.71	116.15	4.20	-55.7	-73.5	3.8	7.43e-01	0	44	104	511705088	81	30613
2026-01-22 23:25:55.72	116.28	4.16	-55.7	-73.5	3.8	7.45e-01	0	44	104	511705088	81	30651
2026-01-22 23:25:56.73	116.41	4.11	-55.8	-73.6	3.8	7.46e-01	0	44	104	511705088	82	29042
2026-01-22 23:25:57.73	116.53	4.06	-55.8	-73.6	3.8	7.49e-01	0	44	104	511705088	82	29166
2026-01-22 23:25:58.74	116.66	4.01	-55.8	-73.6	3.8	7.45e-01	0	44	104	511705088	82	29235
2026-01-22 23:25:59.75	116.78	3.97	-55.8	-73.6	3.8	7.45e-01	0	44	104	511705088	82	29222
2026-01-22 23:26:00.76	116.91	3.92	-55.8	-73.7	3.8	7.44e-01	0	44	104	511705088	82	29387
2026-01-22 23:26:01.77	117.04	3.87	-55.8	-73.7	3.8	7.45e-01	0	44	104	511705088	82	29355
2026-01-22 23:26:02.78	117.16	3.82	-55.9	-73.7	3.8	7.50e-01	0	44	104	511705088	82	29425
2026-01-22 23:26:03.78	117.28	3.78	-55.9	-73.7	3.8	7.45e-01	0	44	104	511705088	82	29534
2026-01-22 23:26:04.79	117.41	3.73	-55.9	-73.7	3.8	7.42e-01	0	44	104	511705088	82	29500
2026-01-22 23:26:05.80	117.53	3.68	-55.9	-73.7	3.8	7.48e-01	0	44	104	511705088	82	29599
2026-01-22 23:26:06.81	117.65	3.63	-55.9	-73.7	3.8	7.46e-01	0	44	104	511705088	82	29626
2026-01-22 23:26:07.81	117.78	3.59	-55.9	-73.8	3.8	7.45e-01	0	44	104	511705088	82	29796
2026-01-22 23:26:08.82	117.90	3.54	-56.0	-73.8	3.8	7.45e-01	0	44	104	511705088	82	29881
2026-01-22 23:26:09.83	118.02	3.49	-56.0	-73.9	3.8	7.45e-01	0	44	104	511705088	82	30058
2026-01-22 23:26:10.84	118.14	3.44	-56.0	-73.9	3.8	7.44e-01	0	44	104	511705088	82	30146
2026-01-22 23:26:11.85	118.26	3.40	-56.1	-73.9	3.8	7.47e-01	0	44	104	511705088	82	30178
2026-01-22 23:26:12.86	118.38	3.35	-56.1	-73.9	3.8	7.39e-01	0	44	104	511705088	82	30224
2026-01-22 23:26:13.87	118.50	3.30	-56.1	-73.9	3.8	7.43e-01	0	44	104	511705088	82	30285
2026-01-22 23:26:14.88	118.62	3.25	-56.1	-73.9	3.8	7.44e-01	0	44	104	511705088	82	30286
2026-01-22 23:26:15.89	118.74	3.21	-56.1	-73.9	3.8	7.45e-01	0	44	104	511705088	82	30299
2026-01-22 23:26:16.89	118.86	3.16	-56.1	-73.9	3.8	7.46e-01	0	44	104	511705088	82	30286
2026-01-22 23:26:17.90	118.98	3.11	-56.1	-73.9	3.8	7.45e-01	0	44	104	511705088	82	30230
2026-01-22 23:26:18.91	119.10	3.06	-56.1	-73.9	3.8	7.47e-01	0	44	104	511705088	82	30249
2026-01-22 23:26:19.92	119.22	3.02	-56.1	-73.9	3.8	7.49e-01	0	44	104	511705088	82	30141
2026-01-22 23:26:20.93	119.33	2.97	-56.1	-73.9	3.8	7.47e-01	0	44	104	511705088	82	30154
2026-01-22 23:26:21.94	119.45	2.92	-56.0	-73.9	3.8	7.43e-01	0	44	104	511705088	82	30056
2026-01-22 23:26:22.95	119.57	2.87	-56.0	-73.8	3.8	7.45e-01	0	44	104	511705088	82	29997
2026-01-22 23:26:23.95	119.68	2.83	-56.0	-73.8	3.8	7.45e-01	0	44	104	511705088	82	29889
2026-01-22 23:26:24.96	119.80	2.78	-56.0	-73.8	3.8	7.46e-01	0	44	104	511705088	82	29802
2026-01-22 23:26:25.97	119.91	2.73	-55.9	-73.7	3.8	7.48e-01	0	44	104	511705088	82	29668
2026-01-22 23:26:26.98	120.03	2.68	-55.9	-73.7	3.8	7.43e-01	0	44	104	511705088	82	29572
2026-01-22 23:26:27.99	120.14	2.64	-55.9	-73.7	3.8	7.44e-01	0	44	104	511705088	82	29365
2026-01-22 23:26:28.99	120.26	2.59	-55.8	-73.6	3.8	7.46e-01	0	44	104	511705088	82	29307
2026-01-22 23:26:30.00	120.37	2.54	-55.8	-73.6	3.8	7.46e-01	0	44	104	511705088	82	29123
2026-01-22 23:26:31.01	120.49	2.49	-55.7	-73.6	3.8	7.43e-01	0	44	104	511705088	82	29033
2026-01-22 23:26:32.02	120.60	2.45	-55.7	-73.5	3.8	7.46e-01	0	44	104	511705088	82	28843
2026-01-22 23:26:33.03	120.71	2.40	-55.6	-73.4	3.8	7.46e-01	0	44	104	511705088	82	28625
2026-01-22 23:26:34.03	120.82	2.35	-55.5	-73.3	3.8	7.44e-01	0	44	104	511705088	82	28198
2026-01-22 23:26:35.04	120.93	2.30	-55.3	-73.2	3.8	7.45e-01	0	44	104	511705088	82	27762
2026-01-22 23:26:36.05	121.05	2.26	-55.2	-73.0	3.8	7.46e-01	0	44	104	511705088	82	27284
2026-01-22 23:26:37.06	121.16	2.21	-55.2	-73.0	3.8	7.48e-01	0	44	104	511705088	82	27186
2026-01-22 23:26:38.07	121.27	2.16	-55.2	-73.0	3.8	7.44e-01	0	44	104	511705088	82	27208
2026-01-22 23:26:39.08	121.38	2.11	-55.2	-73.0	3.8	7.44e-01	0	44	104	511705088	82	27132
2026-01-22 23:26:40.09	121.49	2.07	-55.1	-73.0	3.8	7.42e-01	0	44	104	511705088	82	27190
2026-01-22 23:26:41.09	121.60	2.02	-55.1	-73.0	3.8	7.49e-01	0	44	104	511705088	82	27080
2026-01-22 23:26:42.10	121.71	1.97	-55.1	-73.0	3.8	7.43e-01	0	44	104	511705088	82	27116

#Closed at: 2026-01-22 23:26:42
#Recorded file [511 MB]: D:/lorett/data/31041_260123_021701.dat