passes_logs/2026/01/22/R3.2S_Murmansk/R3.2S_Murmansk__20260122_125917_JL1KF02B01_rec.log

#Pass ID: 20260122_125917_JL1KF02B01
#Satellite: JL1KF02B01
#Configuration: 01B_900M
#almurnet v.1.7.20251203
#Start time: 2026-01-22 12:59:18

#Version: 2.2.20231116
#Station: R3.2S_Murmansk
#Location: 33.079688 lon 68.888172 lat
#TLE: 1 61191U 24169C   26021.53159942  .00009943  00000+0  62067-3 0  9997
#TLE: 2 61191  97.5704 113.0057 0014541 103.1873 257.0980 15.09606060 73708

#Time	Az	El	Level	Level2	SNR	BER	BlckErr	Temp	State	Recorded	gain1	gain2
2026-01-22 12:59:18.56	27.97	2.08	-55.3	-57.4	6.2	0.00e+00	0	41	0	0	81	19095
2026-01-22 12:59:19.57	27.88	2.14	-55.3	-57.4	6.2	0.00e+00	0	41	104	0	82	18047
2026-01-22 12:59:20.58	27.80	2.20	-55.4	-57.5	6.2	0.00e+00	0	41	104	0	82	18214
2026-01-22 12:59:21.59	27.71	2.26	-55.5	-57.6	6.2	0.00e+00	0	41	104	0	82	18461
2026-01-22 12:59:22.60	27.62	2.33	-55.5	-57.6	6.2	0.00e+00	0	41	104	0	82	18539
2026-01-22 12:59:23.60	27.53	2.39	-55.5	-57.6	6.2	0.00e+00	0	41	104	0	82	18518
2026-01-22 12:59:24.61	27.44	2.45	-55.6	-57.7	6.2	0.00e+00	0	42	104	0	82	18624
2026-01-22 12:59:25.62	27.35	2.51	-55.5	-57.6	6.2	0.00e+00	0	42	104	0	82	18581
2026-01-22 12:59:26.63	27.26	2.57	-55.6	-57.7	6.2	0.00e+00	0	42	104	0	82	18672
2026-01-22 12:59:27.64	27.17	2.64	-55.6	-57.7	6.2	0.00e+00	0	42	104	0	82	18702
2026-01-22 12:59:28.65	27.08	2.70	-55.6	-57.7	6.2	0.00e+00	0	42	104	0	82	18662
2026-01-22 12:59:29.66	26.99	2.76	-55.5	-57.6	6.2	0.00e+00	0	42	104	0	82	18573
2026-01-22 12:59:30.66	26.90	2.82	-55.5	-57.6	6.2	0.00e+00	0	42	104	0	82	18571
2026-01-22 12:59:31.67	26.80	2.89	-55.5	-57.6	6.2	0.00e+00	0	42	104	0	82	18515
2026-01-22 12:59:32.68	26.71	2.95	-55.5	-57.6	6.2	0.00e+00	0	42	104	0	82	18433
2026-01-22 12:59:33.69	26.62	3.01	-55.4	-57.5	6.2	0.00e+00	0	42	104	0	82	18318
2026-01-22 12:59:34.70	26.52	3.08	-55.4	-57.5	6.2	0.00e+00	0	42	104	0	82	18249
2026-01-22 12:59:35.71	26.43	3.14	-55.3	-57.4	6.2	0.00e+00	0	42	104	0	82	18122
2026-01-22 12:59:36.71	26.33	3.20	-55.3	-57.4	6.2	0.00e+00	0	42	104	0	82	18023
2026-01-22 12:59:37.72	26.24	3.27	-55.2	-57.3	6.2	0.00e+00	0	42	104	0	82	17812
2026-01-22 12:59:38.73	26.14	3.33	-55.0	-57.1	6.2	0.00e+00	0	42	104	0	82	17495
2026-01-22 12:59:39.74	26.04	3.39	-54.8	-56.9	6.2	0.00e+00	0	42	104	0	81	18121
2026-01-22 12:59:40.75	25.95	3.46	-54.6	-56.7	6.2	0.00e+00	0	42	104	0	81	17741
2026-01-22 12:59:41.75	25.85	3.52	-54.3	-56.4	6.2	0.00e+00	0	42	104	0	80	18143
2026-01-22 12:59:42.76	25.75	3.58	-54.0	-56.1	6.2	0.00e+00	0	42	104	0	79	18561
2026-01-22 12:59:43.77	25.65	3.65	-53.8	-55.9	6.2	0.00e+00	0	42	104	0	79	17995
2026-01-22 12:59:44.78	25.55	3.71	-53.7	-55.8	6.2	0.00e+00	0	42	104	0	79	17803
2026-01-22 12:59:45.79	25.45	3.78	-53.7	-55.8	6.2	0.00e+00	0	42	104	0	79	17915
2026-01-22 12:59:46.80	25.35	3.84	-53.7	-55.8	6.2	0.00e+00	0	42	104	0	79	17890
2026-01-22 12:59:47.80	25.25	3.91	-53.7	-55.8	6.2	0.00e+00	0	42	104	0	79	17881
2026-01-22 12:59:48.81	25.15	3.97	-53.7	-55.8	6.2	0.00e+00	0	42	104	0	79	17857
2026-01-22 12:59:49.82	25.04	4.04	-53.7	-55.8	6.2	0.00e+00	0	42	104	0	79	17820
2026-01-22 12:59:50.83	24.94	4.10	-53.7	-55.8	6.2	0.00e+00	0	42	104	0	79	17780
2026-01-22 12:59:51.84	24.84	4.17	-53.7	-55.7	6.2	0.00e+00	0	42	104	0	79	17761
2026-01-22 12:59:52.85	24.73	4.23	-53.7	-55.7	6.2	0.00e+00	0	42	104	0	79	17754
2026-01-22 12:59:53.85	24.63	4.30	-53.6	-55.7	6.2	0.00e+00	0	42	104	0	79	17735
2026-01-22 12:59:54.86	24.52	4.36	-53.6	-55.8	6.2	0.00e+00	0	42	104	0	79	17769
2026-01-22 12:59:55.87	24.41	4.43	-53.6	-55.7	6.2	0.00e+00	0	42	104	0	79	17752
2026-01-22 12:59:56.88	24.31	4.50	-53.6	-55.8	6.2	0.00e+00	0	42	104	0	79	17793
2026-01-22 12:59:57.89	24.20	4.56	-53.6	-55.8	6.2	0.00e+00	0	42	104	0	79	17768
2026-01-22 12:59:58.90	24.09	4.63	-53.6	-55.7	6.2	0.00e+00	0	42	104	0	79	17691
2026-01-22 12:59:59.90	23.98	4.69	-53.6	-55.7	6.2	0.00e+00	0	42	104	0	79	17721
2026-01-22 13:00:00.91	23.87	4.76	-53.6	-55.7	6.2	0.00e+00	0	42	104	0	79	17694
2026-01-22 13:00:01.92	23.76	4.83	-53.6	-55.7	6.2	0.00e+00	0	42	104	0	79	17708
2026-01-22 13:00:02.93	23.65	4.89	-53.6	-55.7	6.2	0.00e+00	0	42	104	0	79	17719
2026-01-22 13:00:03.94	23.54	4.96	-53.6	-55.7	6.2	0.00e+00	0	42	104	0	79	17639
2026-01-22 13:00:04.94	23.43	5.03	-53.6	-55.7	6.2	0.00e+00	0	42	104	0	79	17681
2026-01-22 13:00:05.95	23.32	5.09	-53.7	-55.8	6.2	0.00e+00	0	42	104	0	79	17848
2026-01-22 13:00:06.96	23.21	5.16	-53.7	-55.8	6.2	0.00e+00	0	42	104	0	79	17839
2026-01-22 13:00:07.97	23.09	5.23	-53.6	-55.7	6.2	0.00e+00	0	42	104	0	79	17682
2026-01-22 13:00:08.98	22.98	5.30	-53.7	-55.8	6.2	0.00e+00	0	42	104	0	79	17931
2026-01-22 13:00:09.98	22.86	5.36	-53.5	-55.6	6.2	0.00e+00	0	42	104	0	79	17530
2026-01-22 13:00:10.99	22.75	5.43	-53.7	-55.8	6.2	0.00e+00	0	42	104	0	79	17837
2026-01-22 13:00:12.00	22.63	5.50	-53.6	-55.7	6.2	0.00e+00	0	43	104	0	79	17582
2026-01-22 13:00:13.01	22.51	5.57	-53.7	-55.8	6.2	0.00e+00	0	42	104	0	79	17901
2026-01-22 13:00:14.02	22.39	5.63	-53.5	-55.6	6.2	0.00e+00	0	42	104	0	79	17483
2026-01-22 13:00:15.03	22.27	5.70	-53.6	-55.8	6.2	0.00e+00	0	42	104	0	79	17775
2026-01-22 13:00:16.04	22.15	5.77	-53.6	-55.7	6.2	0.00e+00	0	42	104	0	79	17590
2026-01-22 13:00:17.05	22.03	5.84	-53.7	-55.8	6.2	0.00e+00	0	42	104	0	79	17866
2026-01-22 13:00:18.05	21.91	5.91	-53.5	-55.6	6.2	0.00e+00	0	43	104	0	79	17471
2026-01-22 13:00:19.06	21.79	5.98	-53.6	-55.7	6.2	0.00e+00	0	42	104	0	79	17673
2026-01-22 13:00:20.07	21.67	6.05	-53.6	-55.6	6.2	0.00e+00	0	42	104	0	79	17554
2026-01-22 13:00:21.08	21.55	6.12	-53.7	-55.8	6.2	0.00e+00	0	42	104	0	79	17837
2026-01-22 13:00:22.09	21.42	6.18	-53.5	-55.6	6.2	0.00e+00	0	43	104	0	79	17489
2026-01-22 13:00:23.09	21.30	6.25	-53.6	-55.7	6.2	0.00e+00	0	43	104	0	79	17690
2026-01-22 13:00:24.10	21.17	6.32	-53.5	-55.6	6.2	0.00e+00	0	42	104	0	79	17561
2026-01-22 13:00:25.11	21.05	6.39	-53.7	-55.8	6.2	0.00e+00	0	43	104	0	79	17869
2026-01-22 13:00:26.12	20.92	6.46	-53.6	-55.7	6.2	0.00e+00	0	43	104	0	79	17577
2026-01-22 13:00:27.13	20.79	6.53	-53.6	-55.7	6.2	0.00e+00	0	43	104	0	79	17714
2026-01-22 13:00:28.14	20.66	6.60	-53.6	-55.7	6.2	0.00e+00	0	42	104	0	79	17585
2026-01-22 13:00:29.14	20.54	6.67	-53.7	-55.8	6.2	0.00e+00	0	43	104	0	79	17836
2026-01-22 13:00:30.15	20.41	6.74	-53.6	-55.6	6.2	0.00e+00	0	43	104	0	79	17561
2026-01-22 13:00:31.16	20.28	6.81	-53.6	-55.7	6.2	0.00e+00	0	43	104	0	79	17722
2026-01-22 13:00:32.17	20.14	6.88	-53.6	-55.7	6.2	0.00e+00	0	43	104	0	79	17620
2026-01-22 13:00:33.18	20.01	6.95	-53.7	-55.8	6.2	0.00e+00	0	43	104	0	79	17823
2026-01-22 13:00:34.18	19.88	7.02	-53.6	-55.7	6.2	0.00e+00	0	43	104	0	79	17681
2026-01-22 13:00:35.19	19.75	7.09	-53.6	-55.7	6.2	0.00e+00	0	43	104	0	79	17719
2026-01-22 13:00:36.20	19.61	7.17	-53.6	-55.7	6.2	0.00e+00	0	43	104	0	79	17602
2026-01-22 13:00:37.21	19.47	7.24	-53.7	-55.8	6.2	0.00e+00	0	43	104	0	79	17832
2026-01-22 13:00:38.22	19.34	7.31	-53.6	-55.7	6.2	0.00e+00	0	43	104	0	79	17593
2026-01-22 13:00:39.22	19.20	7.38	-53.6	-55.7	6.2	0.00e+00	0	43	104	0	79	17752
2026-01-22 13:00:40.23	19.06	7.45	-53.6	-55.7	6.2	0.00e+00	0	43	104	0	79	17683
2026-01-22 13:00:41.24	18.92	7.52	-53.7	-55.8	6.2	0.00e+00	0	43	104	0	79	17927
2026-01-22 13:00:42.25	18.78	7.59	-53.6	-55.7	6.2	0.00e+00	0	43	104	0	79	17645
2026-01-22 13:00:43.25	18.64	7.66	-53.6	-55.7	6.2	0.00e+00	0	43	104	0	79	17739
2026-01-22 13:00:44.26	18.50	7.74	-53.6	-55.7	6.2	0.00e+00	0	43	104	0	79	17662
2026-01-22 13:00:45.27	18.36	7.81	-53.7	-55.8	6.2	0.00e+00	0	43	104	0	79	17820
2026-01-22 13:00:46.28	18.22	7.88	-53.6	-55.7	6.2	0.00e+00	0	43	104	0	79	17644
2026-01-22 13:00:47.29	18.07	7.95	-53.6	-55.7	6.2	0.00e+00	0	43	104	0	79	17725
2026-01-22 13:00:48.29	17.93	8.03	-53.6	-55.7	6.2	0.00e+00	0	43	104	0	79	17690
2026-01-22 13:00:49.30	17.78	8.10	-53.7	-55.8	6.2	0.00e+00	0	43	104	0	79	17889
2026-01-22 13:00:50.31	17.64	8.17	-53.6	-55.7	6.2	0.00e+00	0	43	104	0	79	17692
2026-01-22 13:00:51.32	17.49	8.24	-53.7	-55.8	6.2	0.00e+00	0	43	104	0	79	17822
2026-01-22 13:00:52.33	17.34	8.32	-53.6	-55.7	6.2	0.00e+00	0	43	104	0	79	17707
2026-01-22 13:00:53.34	17.19	8.39	-53.8	-55.9	6.2	0.00e+00	0	43	104	0	79	18001
2026-01-22 13:00:54.34	17.04	8.46	-53.7	-55.7	6.2	0.00e+00	0	43	104	0	79	17759
2026-01-22 13:00:55.35	16.89	8.54	-53.7	-55.8	6.2	0.00e+00	0	43	104	0	79	17903
2026-01-22 13:00:56.36	16.73	8.61	-53.6	-55.8	6.2	0.00e+00	0	43	104	0	79	17770
2026-01-22 13:00:57.37	16.58	8.68	-53.8	-55.9	6.2	0.00e+00	0	43	104	0	79	18004
2026-01-22 13:00:58.38	16.43	8.76	-53.7	-55.8	6.2	0.00e+00	0	43	104	0	79	17810
2026-01-22 13:00:59.38	16.27	8.83	-53.7	-55.8	6.2	0.00e+00	0	43	104	0	79	17896
2026-01-22 13:01:00.39	16.12	8.90	-53.7	-55.8	6.2	0.00e+00	0	43	104	0	79	17791
2026-01-22 13:01:01.40	15.96	8.98	-53.8	-55.9	6.2	0.00e+00	0	43	104	0	79	18019
2026-01-22 13:01:02.41	15.80	9.05	-53.7	-55.8	6.2	0.00e+00	0	43	104	0	79	17868
2026-01-22 13:01:03.42	15.64	9.13	-53.8	-55.9	6.2	0.00e+00	0	43	104	0	79	18020
2026-01-22 13:01:04.43	15.48	9.20	-53.7	-55.8	6.2	0.00e+00	0	43	104	0	79	17895
2026-01-22 13:01:05.44	15.32	9.27	-53.8	-55.9	6.2	0.00e+00	0	43	104	0	79	18144
2026-01-22 13:01:06.44	15.16	9.35	-53.7	-55.8	6.2	0.00e+00	0	43	104	0	79	17911
2026-01-22 13:01:07.45	14.99	9.42	-53.8	-55.9	6.2	0.00e+00	0	43	104	0	79	18096
2026-01-22 13:01:08.46	14.83	9.50	-53.8	-55.8	6.2	0.00e+00	0	43	104	0	79	17968
2026-01-22 13:01:09.46	14.66	9.57	-53.8	-55.9	6.2	0.00e+00	0	43	104	0	79	18045
2026-01-22 13:01:10.48	14.50	9.65	-53.8	-55.8	6.2	0.00e+00	0	43	104	0	79	17967
2026-01-22 13:01:11.48	14.33	9.72	-53.8	-55.9	6.2	0.00e+00	0	43	104	0	79	17995
2026-01-22 13:01:12.49	14.16	9.80	-53.8	-55.9	6.2	0.00e+00	0	43	104	0	79	17976
2026-01-22 13:01:13.50	13.99	9.87	-53.8	-55.9	6.2	0.00e+00	0	43	104	0	79	18103
2026-01-22 13:01:14.51	13.82	9.95	-53.8	-55.9	6.2	0.00e+00	0	43	104	0	79	17983
2026-01-22 13:01:15.52	13.65	10.02	-53.8	-55.9	6.2	0.00e+00	0	43	104	0	79	18056
2026-01-22 13:01:16.52	13.48	10.10	-53.8	-55.9	6.2	0.00e+00	0	43	104	0	79	17979
2026-01-22 13:01:17.53	13.30	10.17	-53.9	-56.0	6.2	0.00e+00	0	43	104	0	79	18180
2026-01-22 13:01:18.54	13.13	10.25	-53.8	-55.9	6.2	0.00e+00	0	43	104	0	79	18048
2026-01-22 13:01:19.55	12.95	10.32	-53.8	-55.9	6.2	0.00e+00	0	43	104	0	79	18155
2026-01-22 13:01:20.56	12.77	10.40	-53.9	-56.0	6.2	0.00e+00	0	43	104	0	79	18215
2026-01-22 13:01:21.57	12.60	10.47	-53.9	-56.0	6.2	0.00e+00	0	43	104	0	79	18304
2026-01-22 13:01:22.58	12.42	10.55	-53.9	-56.0	6.2	0.00e+00	0	43	104	0	79	18233
2026-01-22 13:01:23.58	12.24	10.62	-53.9	-56.0	6.2	0.00e+00	0	43	104	0	79	18200
2026-01-22 13:01:24.59	12.05	10.70	-53.9	-56.0	6.2	0.00e+00	0	43	104	0	79	18279
2026-01-22 13:01:25.60	11.87	10.78	-53.9	-56.0	6.2	0.00e+00	0	43	104	0	79	18247
2026-01-22 13:01:26.61	11.69	10.85	-53.9	-56.0	6.2	0.00e+00	0	43	104	0	79	18237
2026-01-22 13:01:27.62	11.50	10.93	-53.8	-56.0	6.2	0.00e+00	0	43	104	0	79	18184
2026-01-22 13:01:28.62	11.32	11.00	-53.9	-55.9	6.2	0.00e+00	0	43	104	0	79	18162
2026-01-22 13:01:29.63	11.13	11.08	-53.9	-56.0	6.2	0.00e+00	0	43	104	0	79	18231
2026-01-22 13:01:30.64	10.94	11.16	-53.9	-55.9	6.2	0.00e+00	0	43	104	0	79	18157
2026-01-22 13:01:31.65	10.75	11.23	-53.8	-56.0	6.2	0.00e+00	0	43	104	0	79	18227
2026-01-22 13:01:32.66	10.56	11.31	-53.9	-56.0	6.2	0.00e+00	0	43	104	0	79	18319
2026-01-22 13:01:33.67	10.36	11.38	-53.9	-56.0	6.2	0.00e+00	0	43	104	0	79	18203
2026-01-22 13:01:34.67	10.17	11.46	-53.9	-56.0	6.2	0.00e+00	0	43	104	0	79	18219
2026-01-22 13:01:35.68	9.98	11.54	-53.9	-56.0	6.2	0.00e+00	0	43	104	0	79	18201
2026-01-22 13:01:36.69	9.78	11.61	-53.9	-56.1	6.2	0.00e+00	0	43	104	0	79	18403
2026-01-22 13:01:37.70	9.58	11.69	-53.9	-56.0	6.2	0.00e+00	0	43	104	0	79	18200
2026-01-22 13:01:38.70	9.39	11.76	-53.9	-56.0	6.2	0.00e+00	0	43	104	0	79	18262
2026-01-22 13:01:39.70	9.19	11.84	-53.9	-56.0	6.2	0.00e+00	0	43	104	0	79	18208
2026-01-22 13:01:40.71	8.99	11.92	-54.0	-56.1	6.2	0.00e+00	0	43	104	0	79	18416
2026-01-22 13:01:41.72	8.78	11.99	-53.9	-56.0	6.2	0.00e+00	0	43	104	0	79	18324
2026-01-22 13:01:42.73	8.58	12.07	-53.9	-56.0	6.2	0.00e+00	0	43	104	0	79	18292
2026-01-22 13:01:43.74	8.37	12.15	-53.9	-56.0	6.2	0.00e+00	0	43	104	0	79	18240
2026-01-22 13:01:44.75	8.17	12.22	-54.0	-56.1	6.2	0.00e+00	0	43	104	0	79	18427
2026-01-22 13:01:45.75	7.96	12.30	-53.9	-56.1	6.2	0.00e+00	0	43	104	0	79	18393
2026-01-22 13:01:46.76	7.75	12.37	-53.9	-56.0	6.2	0.00e+00	0	43	104	0	79	18355
2026-01-22 13:01:47.77	7.54	12.45	-53.9	-56.0	6.2	0.00e+00	0	43	104	0	79	18314
2026-01-22 13:01:48.78	7.33	12.53	-54.0	-56.1	6.2	0.00e+00	0	43	104	0	79	18525
2026-01-22 13:01:49.79	7.12	12.60	-53.9	-56.1	6.2	0.00e+00	0	43	104	0	79	18400
2026-01-22 13:01:50.80	6.90	12.68	-54.0	-56.1	6.2	0.00e+00	0	43	104	0	79	18537
2026-01-22 13:01:51.81	6.69	12.75	-54.0	-56.1	6.2	0.00e+00	0	43	104	0	79	18496
2026-01-22 13:01:52.82	6.47	12.83	-54.1	-56.2	6.2	0.00e+00	0	43	104	0	79	18685
2026-01-22 13:01:53.82	6.25	12.91	-54.0	-56.1	6.2	0.00e+00	0	43	104	0	79	18445
2026-01-22 13:01:54.83	6.03	12.98	-54.0	-56.1	6.2	0.00e+00	0	43	104	0	79	18467
2026-01-22 13:01:55.84	5.81	13.06	-54.0	-56.0	6.2	0.00e+00	0	43	104	0	79	18384
2026-01-22 13:01:56.85	5.59	13.13	-54.1	-56.2	6.2	0.00e+00	0	43	104	0	79	18607
2026-01-22 13:01:57.85	5.37	13.21	-54.0	-56.1	6.2	0.00e+00	0	43	104	0	79	18431
2026-01-22 13:01:58.86	5.14	13.28	-54.0	-56.1	6.2	0.00e+00	0	43	104	0	79	18451
2026-01-22 13:01:59.87	4.92	13.36	-54.0	-56.0	6.2	0.00e+00	0	43	104	0	79	18358
2026-01-22 13:02:00.88	4.69	13.44	-54.1	-56.2	6.2	0.00e+00	0	43	104	0	79	18646
2026-01-22 13:02:01.89	4.46	13.51	-54.0	-56.1	6.2	0.00e+00	0	43	104	0	79	18484
2026-01-22 13:02:02.89	4.23	13.59	-54.0	-56.1	6.2	0.00e+00	0	43	104	0	79	18433
2026-01-22 13:02:03.90	4.00	13.66	-54.0	-56.1	6.2	0.00e+00	0	43	104	0	79	18400
2026-01-22 13:02:04.91	3.77	13.74	-54.1	-56.2	6.2	0.00e+00	0	43	104	0	79	18656
2026-01-22 13:02:05.91	3.53	13.81	-54.0	-56.1	6.2	0.00e+00	0	43	104	0	79	18473
2026-01-22 13:02:06.92	3.30	13.89	-54.0	-56.1	6.2	0.00e+00	0	43	104	0	79	18553
2026-01-22 13:02:07.93	3.06	13.96	-54.0	-56.1	6.2	0.00e+00	0	43	104	0	79	18465
2026-01-22 13:02:08.94	2.82	14.03	-54.1	-56.2	6.2	0.00e+00	0	43	104	0	79	18713
2026-01-22 13:02:09.95	2.58	14.11	-54.0	-56.1	6.2	0.00e+00	0	43	104	0	79	18528
2026-01-22 13:02:10.96	2.34	14.18	-54.1	-56.2	6.2	0.00e+00	0	43	104	0	79	18649
2026-01-22 13:02:11.97	2.09	14.26	-54.0	-56.1	6.2	0.00e+00	0	43	104	0	79	18521
2026-01-22 13:02:12.98	1.85	14.33	-54.1	-56.2	6.2	0.00e+00	0	44	104	0	79	18776
2026-01-22 13:02:13.98	1.61	14.40	-54.0	-56.1	6.2	0.00e+00	0	43	104	0	79	18544
2026-01-22 13:02:14.99	1.36	14.48	-54.1	-56.2	6.2	0.00e+00	0	43	104	0	79	18655
2026-01-22 13:02:16.00	1.11	14.55	-54.0	-56.2	6.2	0.00e+00	0	43	104	0	79	18605
2026-01-22 13:02:17.01	0.86	14.62	-54.1	-56.2	6.2	0.00e+00	0	43	104	0	79	18805
2026-01-22 13:02:18.02	0.61	14.70	-54.1	-56.2	6.2	0.00e+00	0	43	104	0	79	18618
2026-01-22 13:02:19.02	0.35	14.77	-54.1	-56.2	6.2	0.00e+00	0	43	104	0	79	18688
2026-01-22 13:02:20.03	0.10	14.84	-54.0	-56.1	6.2	0.00e+00	0	43	104	0	79	18555
2026-01-22 13:02:21.04	359.84	14.91	-54.1	-56.2	6.2	0.00e+00	0	43	104	0	79	18770
2026-01-22 13:02:22.05	359.58	14.99	-54.0	-56.1	6.2	0.00e+00	0	43	104	0	79	18592
2026-01-22 13:02:23.06	359.32	15.06	-54.1	-56.2	6.2	0.00e+00	0	43	104	0	79	18683
2026-01-22 13:02:24.06	359.07	15.13	-54.0	-56.1	6.2	0.00e+00	0	43	104	0	79	18578
2026-01-22 13:02:25.07	358.80	15.20	-54.1	-56.3	6.2	0.00e+00	0	43	104	0	79	18821
2026-01-22 13:02:26.08	358.54	15.27	-54.1	-56.2	6.2	0.00e+00	0	43	104	0	79	18657
2026-01-22 13:02:27.09	358.27	15.34	-54.1	-56.2	6.2	0.00e+00	0	44	104	0	79	18720
2026-01-22 13:02:28.10	358.01	15.41	-54.1	-56.2	6.2	0.00e+00	0	43	104	0	79	18643
2026-01-22 13:02:29.10	357.74	15.48	-54.2	-56.3	6.2	0.00e+00	0	43	104	0	79	18877
2026-01-22 13:02:30.11	357.47	15.55	-54.1	-56.2	6.2	0.00e+00	0	43	104	0	79	18635
2026-01-22 13:02:31.12	357.20	15.62	-54.1	-56.2	6.2	0.00e+00	0	43	104	0	79	18725
2026-01-22 13:02:32.13	356.93	15.69	-54.1	-56.2	6.2	0.00e+00	0	43	104	0	79	18677
2026-01-22 13:02:33.14	356.65	15.76	-54.2	-56.3	6.2	0.00e+00	0	43	104	0	79	18861
2026-01-22 13:02:34.15	356.38	15.83	-54.1	-56.2	6.2	0.00e+00	0	43	104	0	79	18701
2026-01-22 13:02:35.15	356.10	15.90	-54.2	-56.3	6.2	0.00e+00	0	43	104	0	79	18823
2026-01-22 13:02:36.16	355.82	15.96	-54.1	-56.2	6.2	0.00e+00	0	43	104	0	79	18717
2026-01-22 13:02:37.17	355.54	16.03	-54.2	-56.3	6.2	0.00e+00	0	43	104	0	79	18911
2026-01-22 13:02:38.18	355.26	16.10	-54.1	-56.2	6.2	0.00e+00	0	43	104	0	79	18733
2026-01-22 13:02:39.19	354.98	16.16	-54.1	-56.2	6.2	0.00e+00	0	43	104	0	79	18763
2026-01-22 13:02:40.19	354.70	16.23	-54.1	-56.2	6.2	0.00e+00	0	43	104	0	79	18742
2026-01-22 13:02:41.20	354.41	16.30	-54.2	-56.3	6.2	0.00e+00	0	43	104	0	79	18855
2026-01-22 13:02:42.21	354.12	16.36	-54.1	-56.2	6.2	0.00e+00	0	43	104	0	79	18814
2026-01-22 13:02:43.22	353.83	16.43	-54.2	-56.3	6.2	0.00e+00	0	43	104	0	79	18831
2026-01-22 13:02:44.23	353.54	16.49	-54.1	-56.2	6.2	0.00e+00	0	43	104	0	79	18808
2026-01-22 13:02:45.24	353.25	16.55	-54.2	-56.3	6.2	0.00e+00	0	43	104	0	79	18982
2026-01-22 13:02:46.25	352.96	16.62	-54.2	-56.2	6.2	0.00e+00	0	43	104	0	79	18786
2026-01-22 13:02:47.26	352.66	16.68	-54.2	-56.3	6.2	0.00e+00	0	43	104	0	79	18856
2026-01-22 13:02:48.26	352.37	16.74	-54.1	-56.2	6.2	0.00e+00	0	43	104	0	79	18761
2026-01-22 13:02:49.27	352.07	16.81	-54.2	-56.3	6.2	0.00e+00	0	43	104	0	79	18971
2026-01-22 13:02:50.28	351.77	16.87	-54.2	-56.3	6.2	0.00e+00	0	43	104	0	79	18842
2026-01-22 13:02:51.29	351.47	16.93	-54.2	-56.4	6.2	0.00e+00	0	43	104	0	79	19053
2026-01-22 13:02:52.30	351.17	16.99	-54.2	-56.3	6.2	0.00e+00	0	43	104	0	79	18909
2026-01-22 13:02:53.31	350.87	17.05	-54.3	-56.4	6.2	0.00e+00	0	44	104	0	79	19112
2026-01-22 13:02:54.32	350.56	17.11	-54.2	-56.3	6.2	0.00e+00	0	43	104	0	79	18944
2026-01-22 13:02:55.32	350.26	17.17	-54.3	-56.4	6.2	0.00e+00	0	43	104	0	79	19058
2026-01-22 13:02:56.33	349.95	17.22	-54.2	-56.3	6.2	0.00e+00	0	43	104	0	79	18962
2026-01-22 13:02:57.34	349.64	17.28	-54.3	-56.4	6.2	0.00e+00	0	43	104	0	79	19196
2026-01-22 13:02:58.35	349.33	17.34	-54.3	-56.4	6.2	0.00e+00	0	43	104	0	79	19049
2026-01-22 13:02:59.36	349.02	17.40	-54.3	-56.4	6.2	0.00e+00	0	43	104	0	79	19175
2026-01-22 13:03:00.37	348.71	17.45	-54.3	-56.4	6.2	0.00e+00	0	43	104	0	79	19159
2026-01-22 13:03:01.38	348.39	17.51	-54.3	-56.4	6.2	0.00e+00	0	43	104	0	79	19148
2026-01-22 13:03:02.38	348.08	17.56	-54.3	-56.4	6.2	0.00e+00	0	44	104	0	79	19133
2026-01-22 13:03:03.39	347.76	17.62	-54.3	-56.4	6.2	0.00e+00	0	43	104	0	79	19127
2026-01-22 13:03:04.40	347.45	17.67	-54.3	-56.4	6.2	0.00e+00	0	44	104	0	79	19099
2026-01-22 13:03:05.41	347.13	17.72	-54.3	-56.4	6.2	0.00e+00	0	43	104	0	79	19132
2026-01-22 13:03:06.42	346.81	17.77	-54.3	-56.4	6.2	0.00e+00	0	43	104	0	79	19101
2026-01-22 13:03:07.42	346.49	17.82	-54.3	-56.4	6.2	0.00e+00	0	43	104	0	79	19152
2026-01-22 13:03:08.43	346.16	17.87	-54.3	-56.4	6.2	0.00e+00	0	43	104	0	79	19153
2026-01-22 13:03:09.44	345.84	17.92	-54.3	-56.4	6.2	0.00e+00	0	43	104	0	79	19170
2026-01-22 13:03:10.45	345.51	17.97	-54.3	-56.4	6.2	0.00e+00	0	44	104	0	79	19075
2026-01-22 13:03:11.46	345.19	18.02	-54.3	-56.4	6.2	0.00e+00	0	43	104	0	79	19109
2026-01-22 13:03:12.46	344.86	18.07	-54.3	-56.4	6.2	0.00e+00	0	44	104	0	79	19134
2026-01-22 13:03:13.47	344.53	18.12	-54.3	-56.4	6.2	0.00e+00	0	43	104	0	79	19226
2026-01-22 13:03:14.48	344.20	18.16	-54.3	-56.4	6.2	0.00e+00	0	43	104	0	79	19144
2026-01-22 13:03:15.49	343.87	18.21	-54.3	-56.4	6.2	0.00e+00	0	43	104	0	79	19125
2026-01-22 13:03:16.49	343.54	18.25	-54.3	-56.4	6.2	0.00e+00	0	43	104	0	79	19166
2026-01-22 13:03:17.50	343.21	18.30	-54.3	-56.4	6.2	0.00e+00	0	44	104	0	79	19244
2026-01-22 13:03:18.51	342.87	18.34	-54.3	-56.4	6.2	0.00e+00	0	43	104	0	79	19109
2026-01-22 13:03:19.52	342.53	18.38	-54.3	-56.4	6.2	0.00e+00	0	44	104	0	79	19140
2026-01-22 13:03:20.53	342.20	18.42	-54.3	-56.4	6.2	0.00e+00	0	44	104	0	79	19191
2026-01-22 13:03:21.54	341.86	18.46	-54.3	-56.5	6.2	0.00e+00	0	43	104	0	79	19271
2026-01-22 13:03:22.55	341.52	18.50	-54.3	-56.4	6.2	0.00e+00	0	43	104	0	79	19195
2026-01-22 13:03:23.56	341.18	18.54	-54.3	-56.4	6.2	0.00e+00	0	43	104	0	79	19189
2026-01-22 13:03:24.57	340.84	18.58	-54.4	-56.5	6.2	0.00e+00	0	43	104	0	79	19290
2026-01-22 13:03:25.58	340.50	18.62	-54.4	-56.5	6.2	0.00e+00	0	43	104	0	79	19282
2026-01-22 13:03:26.58	340.16	18.65	-54.3	-56.5	6.2	0.00e+00	0	43	104	0	79	19264
2026-01-22 13:03:27.59	339.81	18.69	-54.3	-56.4	6.2	0.00e+00	0	43	104	0	79	19213
2026-01-22 13:03:28.60	339.47	18.72	-54.4	-56.5	6.2	0.00e+00	0	43	104	0	79	19293
2026-01-22 13:03:29.61	339.12	18.76	-54.4	-56.5	6.2	0.00e+00	0	43	104	0	79	19314
2026-01-22 13:03:30.62	338.77	18.79	-54.3	-56.5	6.2	0.00e+00	0	43	104	0	79	19264
2026-01-22 13:03:31.63	338.43	18.82	-54.3	-56.4	6.2	0.00e+00	0	43	104	0	79	19211
2026-01-22 13:03:32.64	338.08	18.85	-54.4	-56.5	6.2	0.00e+00	0	44	104	0	79	19411
2026-01-22 13:03:33.64	337.73	18.88	-54.4	-56.5	6.2	0.00e+00	0	43	104	0	79	19344
2026-01-22 13:03:34.65	337.38	18.91	-54.4	-56.5	6.2	0.00e+00	0	43	104	0	79	19283
2026-01-22 13:03:35.66	337.03	18.94	-54.4	-56.5	6.2	0.00e+00	0	43	104	0	79	19279
2026-01-22 13:03:36.66	336.68	18.96	-54.4	-56.6	6.2	0.00e+00	0	43	104	0	79	19491
2026-01-22 13:03:37.67	336.33	18.99	-54.4	-56.5	6.2	0.00e+00	0	43	104	0	79	19408
2026-01-22 13:03:38.68	335.98	19.01	-54.4	-56.5	6.2	0.00e+00	0	43	104	0	79	19361
2026-01-22 13:03:39.69	335.62	19.04	-54.4	-56.5	6.2	0.00e+00	0	44	104	0	79	19327
2026-01-22 13:03:40.70	335.27	19.06	-54.5	-56.6	6.2	0.00e+00	0	43	104	0	79	19548
2026-01-22 13:03:41.71	334.91	19.08	-54.4	-56.5	6.2	0.00e+00	0	43	104	0	79	19400
2026-01-22 13:03:42.71	334.56	19.10	-54.4	-56.6	6.2	0.00e+00	0	43	104	0	79	19499
2026-01-22 13:03:43.72	334.21	19.12	-54.5	-56.5	6.2	0.00e+00	0	43	104	0	79	19456
2026-01-22 13:03:44.73	333.85	19.14	-54.5	-56.6	6.2	0.00e+00	0	43	104	0	79	19583
2026-01-22 13:03:45.74	333.49	19.16	-54.5	-56.6	6.2	0.00e+00	0	43	104	0	79	19566
2026-01-22 13:03:46.75	333.14	19.18	-54.5	-56.6	6.2	0.00e+00	0	43	104	0	79	19510
2026-01-22 13:03:47.76	332.78	19.19	-54.5	-56.6	6.2	0.00e+00	0	43	104	0	79	19531
2026-01-22 13:03:48.77	332.42	19.21	-54.5	-56.7	6.2	0.00e+00	0	43	104	0	79	19723
2026-01-22 13:03:49.78	332.06	19.22	-54.5	-56.6	6.2	0.00e+00	0	43	104	0	79	19566
2026-01-22 13:03:50.78	331.70	19.24	-54.5	-56.6	6.2	0.00e+00	0	43	104	0	79	19544
2026-01-22 13:03:51.79	331.35	19.25	-54.5	-56.6	6.2	0.00e+00	0	43	104	0	79	19492
2026-01-22 13:03:52.80	330.99	19.26	-54.6	-56.7	6.2	0.00e+00	0	43	104	0	79	19736
2026-01-22 13:03:53.81	330.63	19.27	-54.5	-56.6	6.2	0.00e+00	0	43	104	0	79	19581
2026-01-22 13:03:54.82	330.27	19.28	-54.5	-56.6	6.2	0.00e+00	0	43	104	0	79	19534
2026-01-22 13:03:55.82	329.91	19.28	-54.5	-56.6	6.2	0.00e+00	0	43	104	0	79	19524
2026-01-22 13:03:56.83	329.55	19.29	-54.6	-56.7	6.2	0.00e+00	0	43	104	0	79	19769
2026-01-22 13:03:57.84	329.19	19.30	-54.5	-56.6	6.2	0.00e+00	0	43	104	0	79	19577
2026-01-22 13:03:58.85	328.83	19.30	-54.5	-56.6	6.2	0.00e+00	0	43	104	0	79	19603
2026-01-22 13:03:59.86	328.46	19.30	-54.5	-56.6	6.2	0.00e+00	0	43	104	0	79	19588
2026-01-22 13:04:00.86	328.11	19.31	-54.6	-56.7	6.2	0.00e+00	0	43	104	0	79	19772
2026-01-22 13:04:01.87	327.75	19.31	-54.5	-56.6	6.2	0.00e+00	0	43	104	0	79	19621
2026-01-22 13:04:02.88	327.38	19.31	-54.5	-56.6	6.2	0.00e+00	0	44	104	0	79	19664
2026-01-22 13:04:03.89	327.02	19.31	-54.5	-56.6	6.2	0.00e+00	0	43	104	0	79	19578
2026-01-22 13:04:04.90	326.66	19.30	-54.6	-56.7	6.2	0.00e+00	0	43	104	0	79	19754
2026-01-22 13:04:05.90	326.30	19.30	-54.5	-56.6	6.2	0.00e+00	0	43	104	0	79	19574
2026-01-22 13:04:06.91	325.94	19.30	-54.5	-56.6	6.2	0.00e+00	0	43	104	0	79	19528
2026-01-22 13:04:07.91	325.59	19.29	-54.5	-56.5	6.2	0.00e+00	0	44	104	0	79	19463
2026-01-22 13:04:08.92	325.23	19.28	-54.6	-56.7	6.2	0.00e+00	0	43	104	0	79	19735
2026-01-22 13:04:09.93	324.87	19.28	-54.5	-56.6	6.2	0.00e+00	0	43	104	0	79	19629
2026-01-22 13:04:10.94	324.50	19.27	-54.5	-56.6	6.2	0.00e+00	0	43	104	0	79	19668
2026-01-22 13:04:11.95	324.14	19.26	-54.5	-56.6	6.2	0.00e+00	0	43	104	0	79	19544
2026-01-22 13:04:12.96	323.78	19.25	-54.6	-56.7	6.2	0.00e+00	0	43	104	0	79	19755
2026-01-22 13:04:13.96	323.43	19.24	-54.5	-56.6	6.2	0.00e+00	0	43	104	0	79	19607
2026-01-22 13:04:14.97	323.07	19.22	-54.5	-56.6	6.2	0.00e+00	0	43	104	0	79	19680
2026-01-22 13:04:15.98	322.71	19.21	-54.5	-56.6	6.2	0.00e+00	0	43	104	0	79	19615
2026-01-22 13:04:16.99	322.35	19.20	-54.6	-56.7	6.2	0.00e+00	0	43	104	0	79	19814
2026-01-22 13:04:17.99	322.00	19.18	-54.5	-56.6	6.2	0.00e+00	0	43	104	0	79	19657
2026-01-22 13:04:19.00	321.64	19.16	-54.6	-56.7	6.2	0.00e+00	0	43	104	0	79	19762
2026-01-22 13:04:20.01	321.28	19.15	-54.5	-56.6	6.2	0.00e+00	0	44	104	0	79	19694
2026-01-22 13:04:21.02	320.93	19.13	-54.6	-56.7	6.2	0.00e+00	0	43	104	0	79	19829
2026-01-22 13:04:22.02	320.57	19.11	-54.6	-56.6	6.2	0.00e+00	0	43	104	0	79	19689
2026-01-22 13:04:23.03	320.22	19.09	-54.6	-56.7	6.2	0.00e+00	0	43	104	0	79	19777
2026-01-22 13:04:24.04	319.86	19.07	-54.5	-56.6	6.2	0.00e+00	0	43	104	0	79	19662
2026-01-22 13:04:25.05	319.51	19.04	-54.6	-56.7	6.2	0.00e+00	0	43	104	0	79	19908
2026-01-22 13:04:26.06	319.15	19.02	-54.6	-56.7	6.2	0.00e+00	0	43	104	0	79	19779
2026-01-22 13:04:27.06	318.80	18.99	-54.6	-56.7	6.2	0.00e+00	0	43	104	0	79	19801
2026-01-22 13:04:28.07	318.45	18.97	-54.6	-56.7	6.2	0.00e+00	0	43	104	0	79	19710
2026-01-22 13:04:29.08	318.10	18.94	-54.6	-56.7	6.2	0.00e+00	0	44	104	0	79	19863
2026-01-22 13:04:30.08	317.75	18.91	-54.6	-56.7	6.2	0.00e+00	0	44	104	0	79	19747
2026-01-22 13:04:31.09	317.40	18.89	-54.6	-56.7	6.2	0.00e+00	0	43	104	0	79	19780
2026-01-22 13:04:32.10	317.05	18.86	-54.6	-56.7	6.2	0.00e+00	0	43	104	0	79	19715
2026-01-22 13:04:33.11	316.70	18.83	-54.6	-56.7	6.2	0.00e+00	0	43	104	0	79	19853
2026-01-22 13:04:34.12	316.35	18.79	-54.6	-56.7	6.2	0.00e+00	0	43	104	0	79	19728
2026-01-22 13:04:35.12	316.01	18.76	-54.6	-56.7	6.2	0.00e+00	0	44	104	0	79	19839
2026-01-22 13:04:36.13	315.66	18.73	-54.6	-56.7	6.2	0.00e+00	0	43	104	0	79	19751
2026-01-22 13:04:37.14	315.32	18.69	-54.6	-56.7	6.2	0.00e+00	0	43	104	0	79	19917
2026-01-22 13:04:38.14	314.98	18.66	-54.6	-56.7	6.2	0.00e+00	0	44	104	0	79	19858
2026-01-22 13:04:39.15	314.63	18.62	-54.6	-56.7	6.2	0.00e+00	0	44	104	0	79	19916
2026-01-22 13:04:40.16	314.29	18.59	-54.6	-56.7	6.2	0.00e+00	0	43	104	0	79	19745
2026-01-22 13:04:41.17	313.95	18.55	-54.6	-56.7	6.2	0.00e+00	0	43	104	0	79	19884
2026-01-22 13:04:42.17	313.61	18.51	-54.6	-56.7	6.2	0.00e+00	0	44	104	0	79	19872
2026-01-22 13:04:43.18	313.27	18.47	-54.6	-56.7	6.2	0.00e+00	0	43	104	0	79	19874
2026-01-22 13:04:44.19	312.93	18.43	-54.6	-56.7	6.2	0.00e+00	0	43	104	0	79	19808
2026-01-22 13:04:45.20	312.59	18.39	-54.6	-56.7	6.2	0.00e+00	0	43	104	0	79	19923
2026-01-22 13:04:46.21	312.26	18.35	-54.6	-56.8	6.2	0.00e+00	0	43	104	0	79	19940
2026-01-22 13:04:47.22	311.92	18.30	-54.6	-56.7	6.2	0.00e+00	0	43	104	0	79	19911
2026-01-22 13:04:48.22	311.59	18.26	-54.6	-56.7	6.2	0.00e+00	0	43	104	0	79	19808
2026-01-22 13:04:49.23	311.25	18.22	-54.6	-56.7	6.2	0.00e+00	0	44	104	0	79	19900
2026-01-22 13:04:50.24	310.92	18.17	-54.6	-56.7	6.2	0.00e+00	0	44	104	0	79	19819
2026-01-22 13:04:51.25	310.59	18.12	-54.6	-56.8	6.2	0.00e+00	0	43	104	0	79	19963
2026-01-22 13:04:52.26	310.26	18.08	-54.6	-56.7	6.2	0.00e+00	0	43	104	0	79	19769
2026-01-22 13:04:53.26	309.93	18.03	-54.7	-56.7	6.2	0.00e+00	0	43	104	0	79	19933
2026-01-22 13:04:54.27	309.61	17.98	-54.6	-56.7	6.2	0.00e+00	0	44	104	0	79	19930
2026-01-22 13:04:55.28	309.28	17.93	-54.7	-56.8	6.2	0.00e+00	0	44	104	0	79	20004
2026-01-22 13:04:56.29	308.95	17.88	-54.6	-56.7	6.2	0.00e+00	0	43	104	0	79	19802
2026-01-22 13:04:57.30	308.63	17.83	-54.7	-56.8	6.2	0.00e+00	0	43	104	0	79	19956
2026-01-22 13:04:58.30	308.31	17.78	-54.6	-56.7	6.2	0.00e+00	0	43	104	0	79	19838
2026-01-22 13:04:59.31	307.99	17.73	-54.7	-56.7	6.2	0.00e+00	0	43	104	0	79	19921
2026-01-22 13:05:00.32	307.67	17.68	-54.6	-56.7	6.2	0.00e+00	0	43	104	0	79	19790
2026-01-22 13:05:01.33	307.35	17.62	-54.7	-56.8	6.2	0.00e+00	0	43	104	0	79	19936
2026-01-22 13:05:02.34	307.03	17.57	-54.6	-56.8	6.2	0.00e+00	0	43	104	0	79	19935
2026-01-22 13:05:03.34	306.72	17.52	-54.7	-56.7	6.2	0.00e+00	0	44	104	0	79	19870
2026-01-22 13:05:04.35	306.40	17.46	-54.6	-56.7	6.2	0.00e+00	0	43	104	0	79	19832
2026-01-22 13:05:05.36	306.09	17.40	-54.7	-56.7	6.2	0.00e+00	0	43	104	0	79	19930
2026-01-22 13:05:06.37	305.78	17.35	-54.6	-56.8	6.2	0.00e+00	0	44	104	0	79	19944
2026-01-22 13:05:07.37	305.47	17.29	-54.7	-56.8	6.2	0.00e+00	0	43	104	0	79	19954
2026-01-22 13:05:08.38	305.16	17.23	-54.6	-56.7	6.2	0.00e+00	0	44	104	0	79	19895
2026-01-22 13:05:09.39	304.85	17.18	-54.6	-56.7	6.2	0.00e+00	0	43	104	0	79	19882
2026-01-22 13:05:10.40	304.54	17.12	-54.6	-56.7	6.2	0.00e+00	0	43	104	0	79	19860
2026-01-22 13:05:11.40	304.24	17.06	-54.6	-56.8	6.2	0.00e+00	0	43	104	0	79	19967
2026-01-22 13:05:12.41	303.94	17.00	-54.6	-56.7	6.2	0.00e+00	0	43	104	0	79	19853
2026-01-22 13:05:13.42	303.63	16.94	-54.6	-56.7	6.2	0.00e+00	0	44	104	0	79	19893
2026-01-22 13:05:14.43	303.33	16.88	-54.6	-56.7	6.2	0.00e+00	0	43	104	0	79	19884
2026-01-22 13:05:15.44	303.03	16.81	-54.6	-56.7	6.2	0.00e+00	0	43	104	0	79	19877
2026-01-22 13:05:16.44	302.74	16.75	-54.6	-56.7	6.2	0.00e+00	0	43	104	0	79	19828
2026-01-22 13:05:17.45	302.44	16.69	-54.6	-56.7	6.2	0.00e+00	0	44	104	0	79	19913
2026-01-22 13:05:18.46	302.14	16.63	-54.6	-56.7	6.2	0.00e+00	0	43	104	0	79	19900
2026-01-22 13:05:19.47	301.85	16.56	-54.6	-56.7	6.2	0.00e+00	0	43	104	0	79	19891
2026-01-22 13:05:20.48	301.56	16.50	-54.6	-56.7	6.2	0.00e+00	0	44	104	0	79	19902
2026-01-22 13:05:21.48	301.27	16.43	-54.7	-56.8	6.2	0.00e+00	0	44	104	0	79	20034
2026-01-22 13:05:22.49	300.98	16.37	-54.6	-56.7	6.2	0.00e+00	0	43	104	0	79	19921
2026-01-22 13:05:23.50	300.69	16.30	-54.6	-56.8	6.2	0.00e+00	0	43	104	0	79	19986
2026-01-22 13:05:24.51	300.40	16.24	-54.6	-56.7	6.2	0.00e+00	0	43	104	0	79	19842
2026-01-22 13:05:25.51	300.12	16.17	-54.6	-56.7	6.2	0.00e+00	0	43	104	0	79	19891
2026-01-22 13:05:26.52	299.84	16.11	-54.6	-56.7	6.2	0.00e+00	0	43	104	0	79	19868
2026-01-22 13:05:27.53	299.55	16.04	-54.6	-56.7	6.2	0.00e+00	0	43	104	0	79	19863
2026-01-22 13:05:28.54	299.27	15.97	-54.6	-56.7	6.2	0.00e+00	0	44	104	0	79	19900
2026-01-22 13:05:29.55	298.99	15.90	-54.6	-56.7	6.2	0.00e+00	0	43	104	0	79	19846
2026-01-22 13:05:30.55	298.72	15.84	-54.6	-56.7	6.2	0.00e+00	0	43	104	0	79	19843
2026-01-22 13:05:31.56	298.44	15.77	-54.6	-56.7	6.2	0.00e+00	0	43	104	0	79	19844
2026-01-22 13:05:32.57	298.16	15.70	-54.6	-56.8	6.2	0.00e+00	0	43	104	0	79	19934
2026-01-22 13:05:33.58	297.89	15.63	-54.6	-56.7	6.2	0.00e+00	0	43	104	0	79	19864
2026-01-22 13:05:34.59	297.62	15.56	-54.6	-56.7	6.2	0.00e+00	0	43	104	0	79	19915
2026-01-22 13:05:35.60	297.35	15.49	-54.6	-56.7	6.2	0.00e+00	0	43	104	0	79	19870
2026-01-22 13:05:36.61	297.08	15.42	-54.6	-56.7	6.2	0.00e+00	0	44	104	0	79	19889
2026-01-22 13:05:37.62	296.81	15.35	-54.6	-56.7	6.2	0.00e+00	0	43	104	0	79	19863
2026-01-22 13:05:38.62	296.55	15.28	-54.6	-56.7	6.2	0.00e+00	0	44	104	0	79	19857
2026-01-22 13:05:39.63	296.28	15.21	-54.6	-56.7	6.2	0.00e+00	0	43	104	0	79	19879
2026-01-22 13:05:40.64	296.02	15.14	-54.6	-56.7	6.2	0.00e+00	0	43	104	0	79	19874
2026-01-22 13:05:41.65	295.75	15.06	-54.6	-56.7	6.2	0.00e+00	0	43	104	0	79	19866
2026-01-22 13:05:42.66	295.49	14.99	-54.6	-56.7	6.2	0.00e+00	0	43	104	0	79	19856
2026-01-22 13:05:43.66	295.24	14.92	-54.6	-56.7	6.2	0.00e+00	0	44	104	0	79	19851
2026-01-22 13:05:44.67	294.98	14.85	-54.6	-56.8	6.2	0.00e+00	0	43	104	0	79	19948
2026-01-22 13:05:45.68	294.72	14.78	-54.6	-56.7	6.2	0.00e+00	0	44	104	0	79	19814
2026-01-22 13:05:46.69	294.47	14.70	-54.6	-56.7	6.2	0.00e+00	0	43	104	0	79	19831
2026-01-22 13:05:47.70	294.22	14.63	-54.6	-56.7	6.2	0.00e+00	0	43	104	0	79	19860
2026-01-22 13:05:48.71	293.96	14.56	-54.6	-56.7	6.2	0.00e+00	0	44	104	0	79	19795
2026-01-22 13:05:49.72	293.71	14.48	-54.6	-56.7	6.2	0.00e+00	0	43	104	0	79	19716
2026-01-22 13:05:50.72	293.47	14.41	-54.6	-56.7	6.2	0.00e+00	0	43	104	0	79	19796
2026-01-22 13:05:51.73	293.22	14.34	-54.6	-56.7	6.2	0.00e+00	0	43	104	0	79	19878
2026-01-22 13:05:52.74	292.97	14.26	-54.6	-56.7	6.2	0.00e+00	0	43	104	0	79	19848
2026-01-22 13:05:53.75	292.73	14.19	-54.5	-56.7	6.2	0.00e+00	0	44	104	0	79	19738
2026-01-22 13:05:54.76	292.49	14.11	-54.6	-56.7	6.2	0.00e+00	0	43	104	0	79	19816
2026-01-22 13:05:55.76	292.25	14.04	-54.6	-56.7	6.2	0.00e+00	0	44	104	0	79	19849
2026-01-22 13:05:56.77	292.01	13.96	-54.6	-56.7	6.2	0.00e+00	0	44	104	0	79	19771
2026-01-22 13:05:57.78	291.77	13.89	-54.5	-56.6	6.2	0.00e+00	0	43	104	0	79	19595
2026-01-22 13:05:58.79	291.53	13.81	-54.6	-56.7	6.2	0.00e+00	0	43	104	0	79	19727
2026-01-22 13:05:59.80	291.30	13.74	-54.6	-56.7	6.2	0.00e+00	0	44	104	0	79	19827
2026-01-22 13:06:00.81	291.06	13.66	-54.5	-56.7	6.2	0.00e+00	0	43	104	0	79	19788
2026-01-22 13:06:01.82	290.83	13.59	-54.5	-56.6	6.2	0.00e+00	0	43	104	0	79	19531
2026-01-22 13:06:02.82	290.60	13.51	-54.5	-56.6	6.2	0.00e+00	0	43	104	0	79	19636
2026-01-22 13:06:03.83	290.37	13.44	-54.6	-56.7	6.2	0.00e+00	0	44	104	0	79	19796
2026-01-22 13:06:04.84	290.14	13.36	-54.5	-56.7	6.2	0.00e+00	0	43	104	0	79	19714
2026-01-22 13:06:05.85	289.91	13.29	-54.5	-56.6	6.2	0.00e+00	0	44	104	0	79	19516
2026-01-22 13:06:06.86	289.69	13.21	-54.5	-56.6	6.2	0.00e+00	0	43	104	0	79	19536
2026-01-22 13:06:07.87	289.46	13.14	-54.5	-56.6	6.2	0.00e+00	0	43	104	0	79	19703
2026-01-22 13:06:08.88	289.24	13.06	-54.5	-56.6	6.2	0.00e+00	0	44	104	0	79	19574
2026-01-22 13:06:09.88	289.02	12.98	-54.4	-56.5	6.2	0.00e+00	0	44	104	0	79	19359
2026-01-22 13:06:10.89	288.80	12.91	-54.4	-56.5	6.2	0.00e+00	0	43	104	0	79	19269
2026-01-22 13:06:11.90	288.58	12.83	-54.5	-56.6	6.2	0.00e+00	0	43	104	0	79	19511
2026-01-22 13:06:12.91	288.36	12.75	-54.4	-56.5	6.2	0.00e+00	0	43	104	0	79	19405
2026-01-22 13:06:13.92	288.14	12.68	-54.3	-56.4	6.2	0.00e+00	0	44	104	0	79	19159
2026-01-22 13:06:14.92	287.93	12.60	-54.3	-56.4	6.2	0.00e+00	0	43	104	0	79	19112
2026-01-22 13:06:15.93	287.72	12.53	-54.4	-56.5	6.2	0.00e+00	0	43	104	0	79	19339
2026-01-22 13:06:16.94	287.50	12.45	-54.3	-56.4	6.2	0.00e+00	0	44	104	0	79	19186
2026-01-22 13:06:17.95	287.29	12.37	-54.2	-56.3	6.2	0.00e+00	0	43	104	0	79	18930
2026-01-22 13:06:18.96	287.08	12.30	-54.2	-56.3	6.2	0.00e+00	0	43	104	0	79	18899
2026-01-22 13:06:19.97	286.87	12.22	-54.3	-56.4	6.2	0.00e+00	0	43	104	0	79	19105
2026-01-22 13:06:20.98	286.67	12.14	-54.2	-56.3	6.2	0.00e+00	0	44	104	0	79	18989
2026-01-22 13:06:21.98	286.46	12.07	-54.1	-56.2	6.2	0.00e+00	0	44	104	0	79	18750
2026-01-22 13:06:22.99	286.26	11.99	-54.1	-56.2	6.2	0.00e+00	0	43	104	0	79	18751
2026-01-22 13:06:24.00	286.05	11.91	-54.2	-56.3	6.2	0.00e+00	0	43	104	0	79	18947
2026-01-22 13:06:25.01	285.85	11.84	-54.2	-56.3	6.2	0.00e+00	0	44	104	0	79	18852
2026-01-22 13:06:26.02	285.65	11.76	-54.1	-56.2	6.2	0.00e+00	0	43	104	0	79	18669
2026-01-22 13:06:27.03	285.45	11.68	-54.1	-56.1	6.2	0.00e+00	0	43	104	0	79	18594
2026-01-22 13:06:28.04	285.25	11.61	-54.1	-56.3	6.2	0.00e+00	0	44	104	0	79	18839
2026-01-22 13:06:29.04	285.06	11.53	-54.1	-56.2	6.2	0.00e+00	0	44	104	0	79	18706
2026-01-22 13:06:30.05	284.86	11.46	-54.0	-56.1	6.2	0.00e+00	0	43	104	0	79	18514
2026-01-22 13:06:31.06	284.66	11.38	-54.0	-56.1	6.2	0.00e+00	0	44	104	0	79	18541
2026-01-22 13:06:32.07	284.47	11.30	-54.1	-56.2	6.2	0.00e+00	0	44	104	0	79	18714
2026-01-22 13:06:33.08	284.28	11.23	-54.1	-56.2	6.2	0.00e+00	0	44	104	0	79	18687
2026-01-22 13:06:34.08	284.09	11.15	-54.0	-56.1	6.2	0.00e+00	0	44	104	0	79	18416
2026-01-22 13:06:35.09	283.90	11.07	-54.0	-56.0	6.2	0.00e+00	0	44	104	0	79	18386
2026-01-22 13:06:36.10	283.71	11.00	-54.0	-56.1	6.2	0.00e+00	0	43	104	0	79	18548
2026-01-22 13:06:37.11	283.52	10.92	-54.0	-56.1	6.2	0.00e+00	0	44	104	0	79	18564
2026-01-22 13:06:38.11	283.34	10.85	-53.9	-56.0	6.2	0.00e+00	0	44	104	0	79	18274
2026-01-22 13:06:39.12	283.15	10.77	-53.9	-56.0	6.2	0.00e+00	0	44	104	0	79	18344
2026-01-22 13:06:40.13	282.97	10.69	-54.0	-56.1	6.2	0.00e+00	0	44	104	0	79	18463
2026-01-22 13:06:41.14	282.79	10.62	-54.0	-56.0	6.2	0.00e+00	0	44	104	0	79	18358
2026-01-22 13:06:42.15	282.60	10.54	-53.9	-56.0	6.2	0.00e+00	0	44	104	0	79	18222
2026-01-22 13:06:43.16	282.42	10.47	-53.9	-56.0	6.2	0.00e+00	0	43	104	0	79	18260
2026-01-22 13:06:44.16	282.25	10.39	-53.9	-56.0	6.2	0.00e+00	0	43	104	0	79	18342
2026-01-22 13:06:45.17	282.07	10.31	-53.9	-56.0	6.2	0.00e+00	0	44	104	0	79	18348
2026-01-22 13:06:46.18	281.89	10.24	-53.9	-56.0	6.2	0.00e+00	0	43	104	0	79	18190
2026-01-22 13:06:47.19	281.71	10.16	-53.9	-56.0	6.2	0.00e+00	0	43	104	0	79	18277
2026-01-22 13:06:48.19	281.54	10.09	-53.9	-56.0	6.2	0.00e+00	0	43	104	0	79	18263
2026-01-22 13:06:49.20	281.37	10.01	-53.9	-56.0	6.2	0.00e+00	0	43	104	0	79	18308
2026-01-22 13:06:50.21	281.19	9.94	-53.8	-55.9	6.2	0.00e+00	0	44	104	0	79	18159
2026-01-22 13:06:51.22	281.02	9.86	-53.8	-55.9	6.2	0.00e+00	0	43	104	0	79	18163
2026-01-22 13:06:52.23	280.85	9.79	-53.9	-56.0	6.2	0.00e+00	0	43	104	0	79	18314
2026-01-22 13:06:53.24	280.68	9.71	-53.9	-55.9	6.2	0.00e+00	0	43	104	0	79	18170
2026-01-22 13:06:54.24	280.51	9.64	-53.8	-55.9	6.2	0.00e+00	0	43	104	0	79	18042
2026-01-22 13:06:55.25	280.35	9.56	-53.8	-55.9	6.2	0.00e+00	0	44	104	0	79	18061
2026-01-22 13:06:56.26	280.18	9.49	-53.8	-55.9	6.2	0.00e+00	0	44	104	0	79	18165
2026-01-22 13:06:57.27	280.01	9.41	-53.8	-55.9	6.2	0.00e+00	0	43	104	0	79	18167
2026-01-22 13:06:58.28	279.85	9.34	-53.8	-55.9	6.2	0.00e+00	0	43	104	0	79	18030
2026-01-22 13:06:59.29	279.69	9.26	-53.8	-55.9	6.2	0.00e+00	0	44	104	0	79	18007
2026-01-22 13:07:00.29	279.53	9.19	-53.8	-55.9	6.2	0.00e+00	0	44	104	0	79	18015
2026-01-22 13:07:01.30	279.36	9.11	-53.8	-55.9	6.2	0.00e+00	0	43	104	0	79	18032
2026-01-22 13:07:02.31	279.20	9.04	-53.7	-55.8	6.2	0.00e+00	0	44	104	0	79	17965
2026-01-22 13:07:03.32	279.05	8.97	-53.8	-55.9	6.2	0.00e+00	0	44	104	0	79	17973
2026-01-22 13:07:04.33	278.89	8.89	-53.8	-55.9	6.2	0.00e+00	0	44	104	0	79	18067
2026-01-22 13:07:05.34	278.73	8.82	-53.8	-55.9	6.2	0.00e+00	0	43	104	0	79	17978
2026-01-22 13:07:06.35	278.57	8.74	-53.7	-55.8	6.2	0.00e+00	0	44	104	0	79	17863
2026-01-22 13:07:07.36	278.42	8.67	-53.7	-55.9	6.2	0.00e+00	0	43	104	0	79	18027
2026-01-22 13:07:08.37	278.26	8.60	-53.7	-55.9	6.2	0.00e+00	0	43	104	0	79	17977
2026-01-22 13:07:09.38	278.11	8.52	-53.7	-55.8	6.2	0.00e+00	0	44	104	0	79	17949
2026-01-22 13:07:10.38	277.96	8.45	-53.7	-55.8	6.2	0.00e+00	0	44	104	0	79	17872
2026-01-22 13:07:11.39	277.81	8.38	-53.7	-55.8	6.2	0.00e+00	0	44	104	0	79	17857
2026-01-22 13:07:12.40	277.66	8.30	-53.7	-55.8	6.2	0.00e+00	0	44	104	0	79	17892
2026-01-22 13:07:13.41	277.51	8.23	-53.7	-55.8	6.2	0.00e+00	0	43	104	0	79	17907
2026-01-22 13:07:14.42	277.36	8.16	-53.6	-55.7	6.2	0.00e+00	0	43	104	0	79	17741
2026-01-22 13:07:15.43	277.21	8.08	-53.7	-55.8	6.2	0.00e+00	0	43	104	0	79	17860
2026-01-22 13:07:16.44	277.06	8.01	-53.7	-55.8	6.2	0.00e+00	0	43	104	0	79	17855
2026-01-22 13:07:17.45	276.92	7.94	-53.7	-55.7	6.2	0.00e+00	0	44	104	0	79	17757
2026-01-22 13:07:18.46	276.77	7.87	-53.6	-55.7	6.2	0.00e+00	0	44	104	0	79	17750
2026-01-22 13:07:19.47	276.63	7.79	-53.6	-55.8	6.2	0.00e+00	0	44	104	0	79	17772
2026-01-22 13:07:20.47	276.49	7.72	-53.7	-55.8	6.2	0.00e+00	0	44	104	0	79	17818
2026-01-22 13:07:21.48	276.34	7.65	-53.6	-55.8	6.2	0.00e+00	0	43	104	0	79	17786
2026-01-22 13:07:22.49	276.20	7.58	-53.6	-55.7	6.2	0.00e+00	0	44	104	0	79	17686
2026-01-22 13:07:23.50	276.06	7.51	-53.6	-55.8	6.2	0.00e+00	0	44	104	0	79	17783
2026-01-22 13:07:24.51	275.92	7.43	-53.7	-55.8	6.2	0.00e+00	0	43	104	0	79	17824
2026-01-22 13:07:25.52	275.78	7.36	-53.6	-55.7	6.2	0.00e+00	0	43	104	0	79	17621
2026-01-22 13:07:26.53	275.64	7.29	-53.6	-55.7	6.2	0.00e+00	0	44	104	0	79	17600
2026-01-22 13:07:27.54	275.51	7.22	-53.6	-55.7	6.2	0.00e+00	0	43	104	0	79	17678
2026-01-22 13:07:28.54	275.37	7.15	-53.6	-55.7	6.2	0.00e+00	0	44	104	0	79	17684
2026-01-22 13:07:29.55	275.24	7.08	-53.5	-55.7	6.2	0.00e+00	0	44	104	0	79	17565
2026-01-22 13:07:30.56	275.10	7.01	-53.5	-55.6	6.2	0.00e+00	0	43	104	0	79	17526
2026-01-22 13:07:31.57	274.97	6.93	-53.6	-55.7	6.2	0.00e+00	0	43	104	0	79	17595
2026-01-22 13:07:32.58	274.83	6.86	-53.6	-55.7	6.2	0.00e+00	0	44	104	0	79	17702
2026-01-22 13:07:33.59	274.70	6.79	-53.5	-55.6	6.2	0.00e+00	0	44	104	0	79	17475
2026-01-22 13:07:34.60	274.57	6.72	-53.5	-55.6	6.2	0.00e+00	0	44	104	0	78	18421
2026-01-22 13:07:35.60	274.44	6.65	-53.5	-55.6	6.2	0.00e+00	0	44	104	0	78	18576
2026-01-22 13:07:36.61	274.31	6.58	-53.6	-55.7	6.2	0.00e+00	0	44	104	0	78	18658
2026-01-22 13:07:37.62	274.18	6.51	-53.5	-55.5	6.2	0.00e+00	0	43	104	0	78	18359
2026-01-22 13:07:38.63	274.05	6.44	-53.4	-55.6	6.2	0.00e+00	0	44	104	0	78	18399
2026-01-22 13:07:39.64	273.92	6.37	-53.5	-55.5	6.2	0.00e+00	0	44	104	0	78	18363
2026-01-22 13:07:40.64	273.80	6.30	-53.5	-55.6	6.2	0.00e+00	0	43	104	0	78	18548
2026-01-22 13:07:41.65	273.67	6.23	-53.4	-55.5	6.2	0.00e+00	0	44	104	0	78	18270
2026-01-22 13:07:42.66	273.55	6.16	-53.4	-55.5	6.2	0.00e+00	0	44	104	0	78	18287
2026-01-22 13:07:43.67	273.42	6.09	-53.4	-55.6	6.2	0.00e+00	0	44	104	0	78	18419
2026-01-22 13:07:44.68	273.30	6.02	-53.5	-55.6	6.2	0.00e+00	0	44	104	0	78	18489
2026-01-22 13:07:45.68	273.18	5.96	-53.4	-55.5	6.2	0.00e+00	0	44	104	0	78	18182
2026-01-22 13:07:46.69	273.05	5.89	-53.3	-55.5	6.2	0.00e+00	0	43	104	0	78	18222
2026-01-22 13:07:47.70	272.93	5.82	-53.4	-55.5	6.2	0.00e+00	0	44	104	0	78	18287
2026-01-22 13:07:48.71	272.81	5.75	-53.4	-55.5	6.2	0.00e+00	0	43	104	0	78	18357
2026-01-22 13:07:49.72	272.69	5.68	-53.3	-55.4	6.2	0.00e+00	0	43	104	0	78	18089
2026-01-22 13:07:50.72	272.57	5.61	-53.3	-55.4	6.2	0.00e+00	0	43	104	0	78	18141
2026-01-22 13:07:51.73	272.45	5.54	-53.4	-55.5	6.2	0.00e+00	0	44	104	0	78	18213
2026-01-22 13:07:52.74	272.34	5.48	-53.4	-55.5	6.2	0.00e+00	0	44	104	0	78	18277
2026-01-22 13:07:53.75	272.22	5.41	-53.3	-55.4	6.2	0.00e+00	0	44	104	0	78	18054
2026-01-22 13:07:54.76	272.10	5.34	-53.2	-55.3	6.2	0.00e+00	0	43	104	0	78	17901
2026-01-22 13:07:55.77	271.99	5.27	-53.3	-55.4	6.2	0.00e+00	0	44	104	0	78	18103
2026-01-22 13:07:56.78	271.87	5.20	-53.3	-55.4	6.2	0.00e+00	0	44	104	0	78	18079
2026-01-22 13:07:57.78	271.76	5.14	-53.1	-55.2	6.2	0.00e+00	0	44	104	0	78	17669
2026-01-22 13:07:58.79	271.64	5.07	-53.0	-55.1	6.2	0.00e+00	0	44	104	0	78	17470
2026-01-22 13:07:59.80	271.53	5.00	-53.2	-55.3	6.2	0.00e+00	0	43	104	0	78	17869
2026-01-22 13:08:00.81	271.42	4.94	-53.3	-55.4	6.2	0.00e+00	0	43	104	0	78	18081
2026-01-22 13:08:01.82	271.30	4.87	-53.3	-55.4	6.2	0.00e+00	0	44	104	0	78	18122
2026-01-22 13:08:02.82	271.19	4.80	-53.3	-55.4	6.2	0.00e+00	0	44	104	0	78	18053
2026-01-22 13:08:03.83	271.08	4.74	-53.4	-55.5	6.2	0.00e+00	0	44	104	0	78	18261
2026-01-22 13:08:04.84	270.97	4.67	-53.5	-55.6	6.2	0.00e+00	0	43	104	0	78	18469
2026-01-22 13:08:05.85	270.86	4.60	-53.6	-55.7	6.2	0.00e+00	0	43	104	0	78	18673
2026-01-22 13:08:06.86	270.75	4.54	-53.7	-55.8	6.2	0.00e+00	0	43	104	0	78	18872
2026-01-22 13:08:07.86	270.65	4.47	-53.7	-55.9	6.2	0.00e+00	0	43	104	0	78	19042
2026-01-22 13:08:08.87	270.54	4.40	-53.8	-55.9	6.2	0.00e+00	0	43	104	0	78	19126
2026-01-22 13:08:09.88	270.43	4.34	-53.9	-56.0	6.2	0.00e+00	0	43	104	0	78	19400
2026-01-22 13:08:10.89	270.33	4.27	-54.0	-56.0	6.2	0.00e+00	0	43	104	0	78	19464
2026-01-22 13:08:11.90	270.22	4.21	-54.0	-56.1	6.2	0.00e+00	0	44	104	0	78	19578
2026-01-22 13:08:12.90	270.12	4.14	-54.1	-56.1	6.2	0.00e+00	0	44	104	0	78	19668
2026-01-22 13:08:13.91	270.01	4.08	-54.1	-56.2	6.2	0.00e+00	0	44	104	0	78	19766
2026-01-22 13:08:14.92	269.91	4.01	-54.1	-56.2	6.2	0.00e+00	0	43	104	0	78	19872
2026-01-22 13:08:15.93	269.80	3.95	-54.2	-56.2	6.2	0.00e+00	0	44	104	0	78	19923
2026-01-22 13:08:16.94	269.70	3.88	-54.2	-56.3	6.2	0.00e+00	0	44	104	0	78	19960
2026-01-22 13:08:17.94	269.60	3.82	-54.2	-56.3	6.2	0.00e+00	0	43	104	0	79	18995
2026-01-22 13:08:18.95	269.50	3.75	-54.3	-56.4	6.2	0.00e+00	0	44	104	0	79	19232
2026-01-22 13:08:19.96	269.40	3.69	-54.3	-56.4	6.2	0.00e+00	0	44	104	0	79	19184
2026-01-22 13:08:20.97	269.30	3.62	-54.3	-56.4	6.2	0.00e+00	0	44	104	0	79	19147
2026-01-22 13:08:21.98	269.20	3.56	-54.3	-56.4	6.2	0.00e+00	0	44	104	0	79	19153
2026-01-22 13:08:22.98	269.10	3.49	-54.3	-56.4	6.2	0.00e+00	0	44	104	0	79	19090
2026-01-22 13:08:23.99	269.00	3.43	-54.3	-56.3	6.2	0.00e+00	0	44	104	0	79	19017
2026-01-22 13:08:25.00	268.90	3.37	-54.3	-56.4	6.2	0.00e+00	0	43	104	0	79	19084
2026-01-22 13:08:26.01	268.80	3.30	-54.3	-56.4	6.2	0.00e+00	0	44	104	0	79	19056
2026-01-22 13:08:27.02	268.71	3.24	-54.2	-56.3	6.2	0.00e+00	0	44	104	0	79	19002
2026-01-22 13:08:28.02	268.61	3.17	-54.2	-56.3	6.2	0.00e+00	0	44	104	0	79	19005
2026-01-22 13:08:29.03	268.51	3.11	-54.2	-56.3	6.2	0.00e+00	0	44	104	0	79	18993
2026-01-22 13:08:30.04	268.42	3.05	-54.2	-56.3	6.2	0.00e+00	0	43	104	0	79	18981
2026-01-22 13:08:31.05	268.32	2.98	-54.2	-56.3	6.2	0.00e+00	0	44	104	0	79	18965
2026-01-22 13:08:32.06	268.23	2.92	-54.2	-56.3	6.2	0.00e+00	0	43	104	0	79	18960
2026-01-22 13:08:33.06	268.14	2.86	-54.2	-56.3	6.2	0.00e+00	0	43	104	0	79	18996
2026-01-22 13:08:34.07	268.04	2.79	-54.2	-56.3	6.2	0.00e+00	0	44	104	0	79	18916
2026-01-22 13:08:35.08	267.95	2.73	-54.2	-56.3	6.2	0.00e+00	0	43	104	0	79	18916
2026-01-22 13:08:36.09	267.86	2.67	-54.2	-56.3	6.2	0.00e+00	0	43	104	0	79	18916
2026-01-22 13:08:37.10	267.77	2.61	-54.2	-56.3	6.2	0.00e+00	0	44	104	0	79	18915
2026-01-22 13:08:38.10	267.68	2.54	-54.2	-56.3	6.2	0.00e+00	0	44	104	0	79	18901
2026-01-22 13:08:39.11	267.58	2.48	-54.2	-56.3	6.2	0.00e+00	0	43	104	0	79	18864
2026-01-22 13:08:40.12	267.49	2.42	-54.2	-56.3	6.2	0.00e+00	0	44	104	0	79	18896
2026-01-22 13:08:41.13	267.40	2.36	-54.2	-56.3	6.2	0.00e+00	0	44	104	0	79	18867
2026-01-22 13:08:42.14	267.31	2.30	-54.2	-56.3	6.2	0.00e+00	0	43	104	0	79	18885
2026-01-22 13:08:43.15	267.23	2.23	-54.2	-56.3	6.2	0.00e+00	0	44	104	0	79	18864
2026-01-22 13:08:44.15	267.14	2.17	-54.2	-56.3	6.2	0.00e+00	0	44	104	0	79	18890
2026-01-22 13:08:45.16	267.05	2.11	-54.2	-56.2	6.2	0.00e+00	0	44	104	0	79	18815
2026-01-22 13:08:46.17	266.96	2.05	-54.2	-56.2	6.2	0.00e+00	0	44	104	0	79	18795
2026-01-22 13:08:47.18	266.87	1.99	-54.2	-56.3	6.2	0.00e+00	0	43	104	0	79	18849

#Closed at: 2026-01-22 13:08:47
#Recorded file [0 MB]: D:/lorett/data/31041_260122_155918.dat