passes_logs/2026/01/22/R3.2S_Murmansk/R3.2S_Murmansk__20260122_073827_NOAA_20_JPSS-1_rec.log

#Pass ID: 20260122_073827_NOAA 20 (JPSS-1)
#Satellite: NOAA 20 (JPSS-1)
#Configuration: NOAA 20
#almurnet v.1.7.20251203
#Start time: 2026-01-22 07:38:28

#Version: 2.2.20231116
#Station: R3.2S_Murmansk
#Location: 33.079688 lon 68.888172 lat
#TLE: 1 43013U 17073A   26021.46221703  .00000173  00000+0  10299-3 0  9999
#TLE: 2 43013  98.7644 322.3335 0001238  29.7597 330.3649 14.19538314423652

#Time	Az	El	Level	Level2	SNR	BER	BlckErr	Temp	State	Recorded	gain1	gain2
2026-01-22 07:38:28.45	108.37	2.06	-54.5	-69.5	3.8	1.49e+00	0	39	0	0	79	21677
2026-01-22 07:38:29.45	108.33	2.12	-54.3	-69.4	3.8	1.49e+00	0	39	104	0	79	21337
2026-01-22 07:38:30.46	108.29	2.19	-54.3	-69.3	3.8	1.49e+00	0	39	104	0	79	21166
2026-01-22 07:38:31.47	108.25	2.25	-54.3	-69.3	3.8	1.49e+00	0	39	104	0	79	21125
2026-01-22 07:38:32.48	108.21	2.31	-54.2	-69.2	3.8	1.49e+00	0	39	104	0	79	21016
2026-01-22 07:38:33.49	108.16	2.37	-54.2	-69.2	3.8	1.49e+00	0	39	104	0	79	20876
2026-01-22 07:38:34.50	108.12	2.44	-54.2	-69.2	3.8	1.49e+00	0	39	104	0	79	20837
2026-01-22 07:38:35.50	108.08	2.50	-54.1	-69.1	3.8	1.49e+00	0	39	104	0	79	20711
2026-01-22 07:38:36.51	108.04	2.56	-54.1	-69.0	3.8	1.49e+00	0	39	104	0	79	20524
2026-01-22 07:38:37.52	108.00	2.62	-54.0	-69.0	3.8	1.49e+00	0	39	104	0	79	20470
2026-01-22 07:38:38.53	107.95	2.69	-53.9	-68.9	3.8	1.49e+00	0	39	104	0	79	20289
2026-01-22 07:38:39.54	107.91	2.75	-53.9	-68.9	3.8	1.49e+00	0	39	104	0	79	20151
2026-01-22 07:38:40.54	107.87	2.81	-53.8	-68.8	3.8	1.49e+00	0	39	104	0	79	19963
2026-01-22 07:38:41.55	107.82	2.88	-53.7	-68.7	3.8	1.49e+00	0	39	104	0	79	19832
2026-01-22 07:38:42.56	107.78	2.94	-53.6	-68.6	3.8	1.49e+00	0	40	104	0	79	19552
2026-01-22 07:38:43.57	107.74	3.00	-53.5	-68.5	3.8	1.49e+00	0	39	104	0	79	19358
2026-01-22 07:38:44.58	107.69	3.07	-53.4	-68.4	3.8	1.49e+00	0	39	104	0	78	20178
2026-01-22 07:38:45.58	107.65	3.13	-53.3	-68.2	3.8	1.49e+00	0	39	104	0	78	19811
2026-01-22 07:38:46.59	107.61	3.20	-53.1	-68.1	3.8	1.49e+00	0	40	104	0	78	19435
2026-01-22 07:38:47.60	107.56	3.26	-52.8	-67.7	3.8	1.49e+00	0	39	104	0	77	19833
2026-01-22 07:38:48.61	107.52	3.32	-52.5	-67.4	3.8	1.49e+00	0	40	104	0	77	19166
2026-01-22 07:38:49.62	107.47	3.39	-52.4	-67.4	3.8	1.49e+00	0	39	104	0	76	20091
2026-01-22 07:38:50.63	107.43	3.45	-52.4	-67.3	3.8	1.49e+00	0	40	104	0	76	19967
2026-01-22 07:38:51.63	107.38	3.52	-52.4	-67.1	3.8	1.49e+00	0	39	104	0	76	19467
2026-01-22 07:38:52.64	107.34	3.58	-52.4	-67.1	3.8	1.49e+00	0	40	104	0	76	19455
2026-01-22 07:38:53.65	107.29	3.65	-52.4	-67.0	3.8	1.49e+00	0	40	104	0	76	19202
2026-01-22 07:38:54.66	107.24	3.71	-52.4	-66.8	3.8	1.49e+00	0	40	104	0	76	18864
2026-01-22 07:38:55.66	107.20	3.78	-52.4	-66.6	3.8	1.49e+00	0	40	104	0	76	18457
2026-01-22 07:38:56.67	107.15	3.84	-52.4	-66.6	3.8	1.49e+00	0	40	104	0	76	18357
2026-01-22 07:38:57.68	107.10	3.91	-52.4	-66.5	3.8	1.49e+00	0	40	104	0	76	18202
2026-01-22 07:38:58.69	107.06	3.98	-52.3	-65.9	3.8	1.49e+00	0	40	104	0	76	16951
2026-01-22 07:38:59.70	107.01	4.04	-52.3	-64.7	4.0	1.48e+00	0	40	104	0	76	14779
2026-01-22 07:39:00.70	106.96	4.11	-52.2	-63.4	4.3	1.35e+00	28	40	0	0	76	12806
2026-01-22 07:39:01.71	106.92	4.17	-51.9	-61.1	5.4	8.53e-01	0	40	0	1048576	75	10367
2026-01-22 07:39:02.72	106.87	4.24	-51.7	-59.4	6.7	3.42e-01	0	40	0	3145728	75	8515
2026-01-22 07:39:03.73	106.82	4.31	-51.5	-58.5	7.5	9.35e-02	0	40	0	5242880	74	8128
2026-01-22 07:39:04.73	106.77	4.37	-50.8	-55.9	10.2	1.27e-02	0	40	0	7340032	73	6405
2026-01-22 07:39:05.74	106.72	4.44	-50.8	-56.1	10.0	1.06e-02	0	40	0	8388608	73	6557
2026-01-22 07:39:06.75	106.67	4.51	-50.4	-54.9	11.2	1.52e-03	0	40	0	10485760	72	6044
2026-01-22 07:39:07.76	106.63	4.57	-50.2	-54.4	11.8	4.67e-04	0	40	0	12582912	72	5702
2026-01-22 07:39:08.77	106.58	4.64	-50.2	-54.5	11.7	2.53e-04	0	40	0	14680064	72	5777
2026-01-22 07:39:09.78	106.53	4.71	-49.9	-53.7	12.7	8.85e-05	0	40	0	16777216	71	5541
2026-01-22 07:39:10.78	106.48	4.78	-49.5	-52.9	13.4	1.60e-05	0	40	0	18874368	70	5399
2026-01-22 07:39:11.79	106.43	4.84	-49.9	-53.7	12.6	2.44e-05	0	40	0	19922944	70	5913
2026-01-22 07:39:12.80	106.38	4.91	-50.1	-54.2	12.1	2.77e-04	0	40	0	22020096	70	6246
2026-01-22 07:39:13.81	106.33	4.98	-50.2	-54.3	12.0	7.09e-05	0	40	0	24117248	70	6327
2026-01-22 07:39:14.82	106.28	5.05	-50.7	-55.6	10.6	2.07e-03	0	40	0	26214400	71	6922
2026-01-22 07:39:15.83	106.22	5.12	-50.1	-54.1	12.3	3.51e-03	0	40	0	28311552	72	5494
2026-01-22 07:39:16.83	106.17	5.18	-48.1	-50.4	16.1	5.30e-06	0	40	0	29360128	68	4539
2026-01-22 07:39:17.84	106.12	5.25	-51.1	-56.8	9.7	2.68e-04	0	40	0	31457280	72	7459
2026-01-22 07:39:18.85	106.07	5.32	-50.4	-54.3	12.7	2.07e-02	0	40	0	33554432	71	5968
2026-01-22 07:39:19.86	106.02	5.39	-52.4	-64.0	4.2	1.20e-01	108	40	0	35651584	75	14408
2026-01-22 07:39:20.86	105.97	5.46	-51.3	-57.0	9.1	7.76e-01	0	40	0	35651584	74	6810
2026-01-22 07:39:21.87	105.91	5.53	-51.1	-56.3	10.1	2.02e-02	0	40	0	37748736	74	6327
2026-01-22 07:39:22.88	105.86	5.60	-51.2	-56.8	9.7	1.99e-02	0	40	0	39845888	74	6666
2026-01-22 07:39:23.88	105.81	5.67	-51.1	-56.3	10.0	2.12e-02	0	40	0	40894464	74	6304
2026-01-22 07:39:24.89	105.76	5.74	-51.1	-56.4	10.0	9.16e-03	0	40	0	42991616	74	6403
2026-01-22 07:39:25.90	105.70	5.81	-51.2	-56.8	9.8	7.21e-03	0	40	0	45088768	73	7070
2026-01-22 07:39:26.91	105.65	5.88	-50.8	-55.5	10.9	1.06e-02	0	40	0	47185920	73	6101
2026-01-22 07:39:27.92	105.59	5.95	-50.2	-54.1	12.5	2.82e-04	0	40	0	48234496	72	5497
2026-01-22 07:39:28.92	105.54	6.02	-49.5	-52.6	14.1	6.25e-05	0	40	0	50331648	71	4908
2026-01-22 07:39:29.93	105.49	6.09	-49.4	-52.4	14.3	7.00e-07	0	40	0	52428800	70	5095
2026-01-22 07:39:30.94	105.43	6.16	-49.5	-52.7	14.1	7.00e-07	0	40	0	54525952	70	5233
2026-01-22 07:39:31.95	105.38	6.23	-49.0	-51.8	15.0	1.50e-06	0	40	0	56623104	70	4743
2026-01-22 07:39:32.96	105.32	6.30	-49.1	-51.9	14.9	0.00e+00	0	40	0	58720256	69	5062
2026-01-22 07:39:33.96	105.26	6.37	-49.6	-52.9	13.9	0.00e+00	0	40	0	59768832	69	5691
2026-01-22 07:39:34.97	105.21	6.44	-48.7	-51.3	15.5	1.50e-06	0	40	0	61865984	69	4718
2026-01-22 07:39:35.98	105.15	6.51	-48.9	-51.6	15.3	0.00e+00	0	40	0	63963136	69	4879
2026-01-22 07:39:36.99	105.09	6.58	-48.4	-50.8	16.0	0.00e+00	0	40	0	66060288	68	4729
2026-01-22 07:39:38.00	105.04	6.66	-48.1	-50.4	16.3	0.00e+00	0	40	0	68157440	67	4789
2026-01-22 07:39:39.00	104.98	6.73	-48.1	-50.4	16.4	0.00e+00	0	40	0	69206016	67	4776
2026-01-22 07:39:40.01	104.92	6.80	-47.5	-49.5	17.2	0.00e+00	0	40	0	71303168	67	4338
2026-01-22 07:39:41.02	104.87	6.87	-47.7	-49.7	17.0	0.00e+00	0	40	0	73400320	66	4697
2026-01-22 07:39:42.02	104.81	6.94	-47.4	-49.3	17.4	0.00e+00	0	40	0	75497472	66	4487
2026-01-22 07:39:43.03	104.75	7.02	-47.5	-49.5	17.2	0.00e+00	0	40	0	76546048	66	4586
2026-01-22 07:39:44.04	104.69	7.09	-47.9	-50.0	16.7	0.00e+00	0	40	0	78643200	66	4851
2026-01-22 07:39:45.05	104.63	7.16	-47.3	-49.2	17.5	0.00e+00	0	40	0	80740352	66	4422
2026-01-22 07:39:46.06	104.57	7.24	-47.4	-49.3	17.5	0.00e+00	0	40	0	82837504	66	4471
2026-01-22 07:39:47.06	104.51	7.31	-47.4	-49.3	17.4	0.00e+00	0	40	0	84934656	66	4493
2026-01-22 07:39:48.07	104.45	7.38	-47.7	-49.8	17.0	0.00e+00	0	40	0	87031808	66	4713
2026-01-22 07:39:49.08	104.39	7.46	-47.5	-49.5	17.2	0.00e+00	0	40	0	88080384	66	4562
2026-01-22 07:39:50.09	104.33	7.53	-47.4	-49.3	17.5	0.00e+00	0	40	0	90177536	66	4469
2026-01-22 07:39:51.10	104.27	7.61	-47.3	-49.2	17.6	0.00e+00	0	40	0	92274688	66	4407
2026-01-22 07:39:52.10	104.21	7.68	-47.2	-49.0	17.8	0.00e+00	0	40	0	94371840	66	4330
2026-01-22 07:39:53.11	104.15	7.75	-46.9	-48.7	18.1	0.00e+00	0	40	0	96468992	65	4416
2026-01-22 07:39:54.12	104.09	7.83	-47.1	-48.9	17.9	0.00e+00	0	40	0	97517568	65	4495
2026-01-22 07:39:55.13	104.02	7.90	-47.1	-48.9	17.8	0.00e+00	0	40	0	99614720	65	4534
2026-01-22 07:39:56.14	103.96	7.98	-47.1	-48.9	17.9	0.00e+00	0	40	0	101711872	65	4535
2026-01-22 07:39:57.14	103.90	8.05	-47.2	-49.1	17.7	0.00e+00	0	40	0	103809024	65	4635
2026-01-22 07:39:58.15	103.83	8.13	-47.2	-49.0	17.8	0.00e+00	0	40	0	104857600	65	4592
2026-01-22 07:39:59.16	103.77	8.20	-47.2	-49.1	17.7	0.00e+00	0	40	0	106954752	65	4599
2026-01-22 07:40:00.16	103.71	8.28	-47.3	-49.1	17.7	0.00e+00	0	40	0	109051904	65	4641
2026-01-22 07:40:01.17	103.64	8.36	-47.3	-49.1	17.6	0.00e+00	0	40	0	111149056	65	4646
2026-01-22 07:40:02.18	103.58	8.43	-47.4	-49.4	17.5	0.00e+00	0	40	0	113246208	65	4769
2026-01-22 07:40:03.19	103.51	8.51	-47.4	-49.3	17.5	0.00e+00	0	40	0	115343360	65	4724
2026-01-22 07:40:04.20	103.45	8.59	-47.4	-49.3	17.5	0.00e+00	0	40	0	116391936	65	4755
2026-01-22 07:40:05.21	103.38	8.66	-47.3	-49.2	17.6	0.00e+00	0	40	0	118489088	65	4693
2026-01-22 07:40:06.21	103.32	8.74	-47.1	-49.0	17.8	0.00e+00	0	40	0	120586240	65	4554
2026-01-22 07:40:07.22	103.25	8.82	-47.2	-49.1	17.7	0.00e+00	0	40	0	122683392	65	4626
2026-01-22 07:40:08.23	103.18	8.89	-46.9	-48.7	18.2	0.00e+00	0	40	0	124780544	65	4402
2026-01-22 07:40:09.24	103.11	8.97	-47.2	-49.0	17.8	0.00e+00	0	40	0	125829120	65	4584
2026-01-22 07:40:10.24	103.05	9.05	-47.0	-48.8	18.1	0.00e+00	0	40	0	127926272	65	4466
2026-01-22 07:40:11.25	102.98	9.13	-46.9	-48.7	18.2	0.00e+00	0	40	0	130023424	65	4400
2026-01-22 07:40:12.26	102.91	9.20	-46.9	-48.7	18.2	0.00e+00	0	40	0	132120576	65	4423
2026-01-22 07:40:13.27	102.84	9.28	-46.9	-48.7	18.2	0.00e+00	0	41	0	134217728	65	4406
2026-01-22 07:40:14.28	102.77	9.36	-46.9	-48.6	18.3	0.00e+00	0	40	0	135266304	65	4361
2026-01-22 07:40:15.29	102.70	9.44	-46.8	-48.5	18.4	0.00e+00	0	40	0	137363456	65	4337
2026-01-22 07:40:16.29	102.63	9.52	-47.0	-48.8	18.1	0.00e+00	0	40	0	139460608	65	4447
2026-01-22 07:40:17.30	102.56	9.60	-46.9	-48.6	18.3	0.00e+00	0	40	0	141557760	65	4372
2026-01-22 07:40:18.30	102.49	9.68	-47.0	-48.7	18.2	0.00e+00	0	40	0	143654912	65	4423
2026-01-22 07:40:19.31	102.42	9.76	-46.9	-48.6	18.3	0.00e+00	0	40	0	144703488	65	4384
2026-01-22 07:40:20.32	102.35	9.84	-46.9	-48.6	18.4	0.00e+00	0	40	0	146800640	65	4350
2026-01-22 07:40:21.33	102.28	9.92	-46.9	-48.6	18.4	0.00e+00	0	40	0	148897792	65	4351
2026-01-22 07:40:22.34	102.21	10.00	-46.8	-48.5	18.4	0.00e+00	0	40	0	150994944	65	4307
2026-01-22 07:40:23.34	102.13	10.08	-46.8	-48.5	18.4	0.00e+00	0	40	0	153092096	65	4295
2026-01-22 07:40:24.35	102.06	10.16	-46.8	-48.5	18.4	0.00e+00	0	40	0	154140672	65	4317
2026-01-22 07:40:25.36	101.99	10.24	-46.8	-48.5	18.4	0.00e+00	0	40	0	156237824	65	4317
2026-01-22 07:40:26.37	101.91	10.32	-46.6	-48.2	18.7	0.00e+00	0	40	0	158334976	65	4177
2026-01-22 07:40:27.37	101.84	10.40	-46.6	-48.3	18.7	0.00e+00	0	40	0	160432128	65	4208
2026-01-22 07:40:28.38	101.76	10.48	-46.7	-48.4	18.5	0.00e+00	0	40	0	162529280	65	4256
2026-01-22 07:40:29.39	101.69	10.56	-46.7	-48.3	18.6	0.00e+00	0	40	0	163577856	65	4220
2026-01-22 07:40:30.40	101.61	10.65	-46.6	-48.2	18.7	0.00e+00	0	40	0	165675008	65	4180
2026-01-22 07:40:31.41	101.54	10.73	-46.5	-48.1	18.8	0.00e+00	0	40	0	167772160	65	4129
2026-01-22 07:40:32.42	101.46	10.81	-46.6	-48.3	18.7	0.00e+00	0	40	0	169869312	65	4205
2026-01-22 07:40:33.42	101.38	10.89	-46.7	-48.3	18.6	0.00e+00	0	40	0	171966464	65	4229
2026-01-22 07:40:34.43	101.30	10.98	-46.7	-48.3	18.6	0.00e+00	0	40	0	173015040	65	4227
2026-01-22 07:40:35.44	101.23	11.06	-46.7	-48.4	18.6	0.00e+00	0	40	0	175112192	65	4266
2026-01-22 07:40:36.45	101.15	11.14	-46.6	-48.3	18.7	0.00e+00	0	40	0	177209344	65	4204
2026-01-22 07:40:37.46	101.07	11.23	-46.7	-48.4	18.6	0.00e+00	0	41	0	179306496	65	4249
2026-01-22 07:40:38.46	100.99	11.31	-46.5	-48.1	18.9	0.00e+00	0	41	0	181403648	65	4107
2026-01-22 07:40:39.47	100.91	11.39	-46.5	-48.1	18.9	0.00e+00	0	40	0	182452224	64	4369
2026-01-22 07:40:40.48	100.83	11.48	-46.4	-48.0	19.0	0.00e+00	0	40	0	184549376	64	4323
2026-01-22 07:40:41.49	100.75	11.56	-46.6	-48.2	18.8	0.00e+00	0	40	0	186646528	64	4431
2026-01-22 07:40:42.49	100.67	11.65	-46.7	-48.3	18.7	0.00e+00	0	40	0	188743680	64	4486
2026-01-22 07:40:43.50	100.59	11.73	-46.6	-48.2	18.8	0.00e+00	0	41	0	190840832	64	4416
2026-01-22 07:40:44.51	100.50	11.82	-46.5	-48.1	18.9	0.00e+00	0	41	0	191889408	64	4361
2026-01-22 07:40:45.52	100.42	11.90	-46.6	-48.2	18.9	0.00e+00	0	41	0	193986560	64	4403
2026-01-22 07:40:46.53	100.34	11.99	-46.6	-48.2	18.8	0.00e+00	0	40	0	196083712	64	4438
2026-01-22 07:40:47.54	100.25	12.08	-46.5	-48.0	19.0	0.00e+00	0	40	0	198180864	64	4337
2026-01-22 07:40:48.54	100.17	12.16	-46.5	-48.1	18.9	0.00e+00	0	41	0	200278016	64	4354
2026-01-22 07:40:49.55	100.08	12.25	-46.5	-48.1	18.9	0.00e+00	0	41	0	201326592	64	4387
2026-01-22 07:40:50.56	100.00	12.33	-46.4	-48.0	19.1	0.00e+00	0	40	0	203423744	64	4299
2026-01-22 07:40:51.57	99.91	12.42	-46.5	-48.0	19.0	0.00e+00	0	41	0	205520896	64	4333
2026-01-22 07:40:52.58	99.83	12.51	-46.4	-48.0	19.1	0.00e+00	0	41	0	207618048	64	4301
2026-01-22 07:40:53.58	99.74	12.60	-46.3	-47.8	19.3	0.00e+00	0	41	0	209715200	64	4196
2026-01-22 07:40:54.59	99.65	12.68	-46.3	-47.8	19.3	0.00e+00	0	41	0	210763776	64	4219
2026-01-22 07:40:55.60	99.56	12.77	-46.3	-47.8	19.2	0.00e+00	0	41	0	212860928	64	4229
2026-01-22 07:40:56.61	99.47	12.86	-46.3	-47.9	19.2	0.00e+00	0	41	0	214958080	64	4249
2026-01-22 07:40:57.62	99.39	12.95	-46.4	-47.9	19.1	0.00e+00	0	40	0	217055232	64	4265
2026-01-22 07:40:58.62	99.30	13.04	-46.3	-47.8	19.2	0.00e+00	0	40	0	219152384	64	4238
2026-01-22 07:40:59.63	99.21	13.13	-46.4	-47.9	19.1	0.00e+00	0	41	0	220200960	64	4283
2026-01-22 07:41:00.64	99.11	13.21	-46.2	-47.7	19.3	0.00e+00	0	40	0	222298112	64	4186
2026-01-22 07:41:01.65	99.02	13.30	-46.1	-47.6	19.5	0.00e+00	0	40	0	224395264	64	4103
2026-01-22 07:41:02.66	98.93	13.39	-46.1	-47.5	19.5	0.00e+00	0	41	0	226492416	64	4084
2026-01-22 07:41:03.66	98.84	13.48	-46.1	-47.6	19.4	0.00e+00	0	40	0	228589568	64	4134
2026-01-22 07:41:04.67	98.75	13.57	-46.1	-47.6	19.5	0.00e+00	0	41	0	230686720	64	4105
2026-01-22 07:41:05.68	98.65	13.66	-46.1	-47.6	19.5	0.00e+00	0	41	0	231735296	64	4122
2026-01-22 07:41:06.69	98.56	13.75	-46.1	-47.6	19.5	0.00e+00	0	40	0	233832448	64	4130
2026-01-22 07:41:07.70	98.46	13.85	-46.1	-47.5	19.6	0.00e+00	0	41	0	235929600	64	4095
2026-01-22 07:41:08.70	98.37	13.94	-46.2	-47.7	19.4	0.00e+00	0	41	0	238026752	64	4149
2026-01-22 07:41:09.71	98.27	14.03	-46.2	-47.6	19.5	0.00e+00	0	41	0	239075328	64	4138
2026-01-22 07:41:10.72	98.18	14.12	-46.1	-47.6	19.5	0.00e+00	0	41	0	241172480	64	4129
2026-01-22 07:41:11.73	98.08	14.21	-46.2	-47.6	19.5	0.00e+00	0	41	0	243269632	64	4133
2026-01-22 07:41:12.73	97.98	14.30	-46.0	-47.4	19.7	0.00e+00	0	41	0	245366784	64	4035
2026-01-22 07:41:13.74	97.88	14.40	-46.1	-47.5	19.7	0.00e+00	0	41	0	247463936	63	4340
2026-01-22 07:41:14.75	97.78	14.49	-46.1	-47.6	19.7	0.00e+00	0	41	0	248512512	63	4348
2026-01-22 07:41:15.76	97.68	14.58	-46.2	-47.7	19.6	0.00e+00	0	41	0	250609664	63	4396
2026-01-22 07:41:16.76	97.58	14.67	-46.2	-47.7	19.6	0.00e+00	0	40	0	252706816	63	4398
2026-01-22 07:41:17.77	97.48	14.77	-46.4	-47.9	19.3	0.00e+00	0	41	0	254803968	63	4513
2026-01-22 07:41:18.78	97.38	14.86	-46.3	-47.7	19.5	0.00e+00	0	40	0	256901120	63	4429
2026-01-22 07:41:19.79	97.28	14.96	-46.1	-47.6	19.7	0.00e+00	0	41	0	258998272	63	4351
2026-01-22 07:41:20.80	97.17	15.05	-46.0	-47.5	19.8	0.00e+00	0	40	0	260046848	63	4295
2026-01-22 07:41:21.80	97.07	15.14	-46.1	-47.5	19.7	0.00e+00	0	41	0	262144000	63	4326
2026-01-22 07:41:22.81	96.97	15.24	-46.0	-47.4	19.8	0.00e+00	0	41	0	264241152	63	4268
2026-01-22 07:41:23.82	96.86	15.34	-46.0	-47.4	19.8	0.00e+00	0	41	0	266338304	63	4267
2026-01-22 07:41:24.83	96.75	15.43	-46.0	-47.4	19.8	0.00e+00	0	41	0	267386880	63	4273
2026-01-22 07:41:25.84	96.65	15.53	-46.0	-47.4	19.8	0.00e+00	0	40	0	269484032	63	4273
2026-01-22 07:41:26.84	96.54	15.62	-46.0	-47.4	19.8	0.00e+00	0	41	0	271581184	63	4291
2026-01-22 07:41:27.85	96.43	15.72	-46.0	-47.4	19.8	0.00e+00	0	41	0	273678336	63	4282
2026-01-22 07:41:28.86	96.32	15.81	-46.0	-47.4	19.9	0.00e+00	0	41	0	275775488	63	4246
2026-01-22 07:41:29.87	96.21	15.91	-46.0	-47.4	19.8	0.00e+00	0	40	0	277872640	63	4270
2026-01-22 07:41:30.88	96.10	16.01	-45.9	-47.3	20.0	0.00e+00	0	41	0	278921216	63	4208
2026-01-22 07:41:31.88	95.99	16.11	-45.9	-47.3	19.9	0.00e+00	0	40	0	281018368	63	4225
2026-01-22 07:41:32.89	95.88	16.20	-45.9	-47.3	20.0	0.00e+00	0	40	0	283115520	63	4214
2026-01-22 07:41:33.90	95.77	16.30	-45.9	-47.3	20.0	0.00e+00	0	41	0	285212672	63	4240
2026-01-22 07:41:34.91	95.66	16.40	-46.0	-47.4	19.9	0.00e+00	0	41	0	287309824	63	4274
2026-01-22 07:41:35.91	95.54	16.50	-46.0	-47.4	19.9	0.00e+00	0	40	0	288358400	63	4287
2026-01-22 07:41:36.92	95.43	16.60	-46.0	-47.4	19.9	0.00e+00	0	41	0	290455552	63	4258
2026-01-22 07:41:37.93	95.31	16.70	-46.0	-47.4	19.9	0.00e+00	0	41	0	292552704	63	4257
2026-01-22 07:41:38.94	95.20	16.79	-46.0	-47.4	19.9	0.00e+00	0	40	0	294649856	63	4267
2026-01-22 07:41:39.94	95.08	16.89	-46.0	-47.4	19.8	0.00e+00	0	41	0	295698432	63	4287
2026-01-22 07:41:40.95	94.96	16.99	-46.1	-47.5	19.8	0.00e+00	0	41	0	297795584	63	4316
2026-01-22 07:41:41.96	94.84	17.09	-46.1	-47.5	19.8	0.00e+00	0	41	0	299892736	63	4330
2026-01-22 07:41:42.97	94.72	17.19	-46.2	-47.6	19.7	0.00e+00	0	40	0	301989888	63	4379
2026-01-22 07:41:43.98	94.60	17.30	-46.1	-47.5	19.8	0.00e+00	0	40	0	304087040	63	4309
2026-01-22 07:41:44.98	94.48	17.40	-46.2	-47.6	19.7	0.00e+00	0	40	0	306184192	63	4367
2026-01-22 07:41:45.99	94.36	17.50	-46.3	-47.8	19.6	0.00e+00	0	41	0	307232768	63	4458
2026-01-22 07:41:47.00	94.24	17.60	-46.6	-48.1	19.3	0.00e+00	0	41	0	309329920	63	4621
2026-01-22 07:41:48.00	94.12	17.70	-46.5	-48.1	19.3	0.00e+00	0	41	0	311427072	64	4344
2026-01-22 07:41:49.01	93.99	17.80	-46.7	-48.3	19.0	0.00e+00	0	41	0	313524224	64	4471
2026-01-22 07:41:50.02	93.87	17.90	-46.8	-48.4	18.8	0.00e+00	0	41	0	315621376	64	4545
2026-01-22 07:41:51.03	93.74	18.01	-47.1	-48.7	18.6	0.00e+00	0	40	0	316669952	64	4687
2026-01-22 07:41:52.04	93.61	18.11	-47.1	-48.7	18.6	0.00e+00	0	40	0	318767104	65	4429
2026-01-22 07:41:53.04	93.49	18.21	-47.1	-48.8	18.5	0.00e+00	0	40	0	320864256	65	4474
2026-01-22 07:41:54.05	93.36	18.32	-47.0	-48.6	18.7	0.00e+00	0	41	0	322961408	65	4386
2026-01-22 07:41:55.06	93.23	18.42	-47.2	-48.8	18.5	0.00e+00	0	41	0	325058560	65	4488
2026-01-22 07:41:56.07	93.10	18.52	-47.1	-48.8	18.5	0.00e+00	0	40	0	326107136	65	4487
2026-01-22 07:41:57.08	92.96	18.63	-47.3	-49.0	18.3	0.00e+00	0	41	0	328204288	65	4555
2026-01-22 07:41:58.08	92.83	18.73	-47.5	-49.3	18.1	0.00e+00	0	41	0	330301440	65	4717
2026-01-22 07:41:59.09	92.70	18.84	-47.6	-49.4	17.9	0.00e+00	0	40	0	332398592	65	4801
2026-01-22 07:42:00.09	92.57	18.94	-47.5	-49.3	18.0	0.00e+00	0	40	0	334495744	65	4750
2026-01-22 07:42:01.11	92.43	19.05	-47.8	-49.7	17.7	0.00e+00	0	40	0	335544320	66	4674
2026-01-22 07:42:02.11	92.29	19.15	-47.9	-49.8	17.5	0.00e+00	0	41	0	337641472	66	4752
2026-01-22 07:42:03.12	92.16	19.26	-48.1	-50.1	17.3	0.00e+00	0	41	0	339738624	66	4924
2026-01-22 07:42:04.12	92.02	19.37	-48.1	-50.1	17.2	0.00e+00	0	41	0	341835776	67	4634
2026-01-22 07:42:05.13	91.88	19.47	-48.2	-50.2	17.2	0.00e+00	0	41	0	343932928	67	4663
2026-01-22 07:42:06.14	91.74	19.58	-48.4	-50.4	17.0	0.00e+00	0	40	0	344981504	67	4811
2026-01-22 07:42:07.15	91.60	19.69	-48.7	-50.9	16.5	0.00e+00	0	40	0	347078656	67	5056
2026-01-22 07:42:08.16	91.46	19.79	-48.7	-50.9	16.6	0.00e+00	0	40	0	349175808	68	4813
2026-01-22 07:42:09.16	91.32	19.90	-48.8	-51.1	16.4	0.00e+00	0	41	0	351272960	68	4903
2026-01-22 07:42:10.17	91.17	20.01	-49.1	-51.5	16.0	0.00e+00	0	40	0	353370112	68	5153
2026-01-22 07:42:11.18	91.03	20.12	-49.4	-51.9	15.6	0.00e+00	0	41	0	354418688	69	5083
2026-01-22 07:42:12.19	90.88	20.23	-49.4	-51.9	15.6	0.00e+00	0	40	0	356515840	69	5069
2026-01-22 07:42:13.19	90.73	20.33	-49.7	-52.5	15.1	0.00e+00	0	40	0	358612992	69	5418
2026-01-22 07:42:14.20	90.58	20.44	-49.7	-52.4	15.1	0.00e+00	0	41	0	360710144	69	5363
2026-01-22 07:42:15.21	90.43	20.55	-49.6	-52.3	15.3	7.00e-07	0	40	0	362807296	70	5004
2026-01-22 07:42:16.22	90.28	20.66	-49.7	-52.4	15.1	0.00e+00	0	41	0	363855872	70	5073
2026-01-22 07:42:17.22	90.13	20.77	-49.8	-52.6	14.9	7.00e-07	0	40	0	365953024	70	5171
2026-01-22 07:42:18.23	89.98	20.88	-49.9	-52.8	14.8	1.50e-06	0	41	0	368050176	70	5283
2026-01-22 07:42:19.24	89.83	20.99	-50.0	-52.9	14.7	0.00e+00	0	40	0	370147328	70	5342
2026-01-22 07:42:20.25	89.67	21.10	-50.1	-53.0	14.5	7.00e-07	0	40	0	372244480	70	5455
2026-01-22 07:42:21.26	89.51	21.21	-50.4	-53.6	13.9	2.20e-06	0	41	0	374341632	71	5519
2026-01-22 07:42:22.27	89.36	21.33	-50.3	-53.4	14.1	0.00e+00	0	41	0	375390208	71	5383
2026-01-22 07:42:23.27	89.20	21.44	-50.5	-53.8	13.7	5.30e-06	0	41	0	377487360	71	5619
2026-01-22 07:42:24.28	89.04	21.55	-50.8	-54.4	13.0	2.28e-05	0	40	0	379584512	72	5720
2026-01-22 07:42:25.28	88.88	21.66	-50.8	-54.4	13.0	1.52e-05	0	41	0	381681664	72	5701
2026-01-22 07:42:26.29	88.72	21.77	-50.7	-54.3	13.1	3.12e-05	0	41	0	382730240	72	5646
2026-01-22 07:42:27.30	88.56	21.88	-51.0	-54.9	12.5	7.55e-05	0	41	0	384827392	72	5997
2026-01-22 07:42:28.31	88.39	22.00	-51.0	-54.9	12.6	9.53e-05	0	40	0	386924544	72	6048
2026-01-22 07:42:29.32	88.22	22.11	-51.2	-55.3	12.1	2.33e-04	0	40	0	389021696	72	6299
2026-01-22 07:42:30.32	88.06	22.22	-51.5	-55.9	11.5	5.75e-04	0	41	0	391118848	73	6413
2026-01-22 07:42:31.33	87.89	22.34	-51.4	-55.8	11.5	1.05e-03	0	41	0	392167424	73	6323
2026-01-22 07:42:32.34	87.72	22.45	-51.6	-56.3	11.0	1.39e-03	0	41	0	394264576	73	6648
2026-01-22 07:42:33.34	87.55	22.56	-51.8	-56.7	10.6	1.65e-03	0	41	0	396361728	74	6607
2026-01-22 07:42:34.35	87.38	22.68	-51.9	-57.0	10.4	4.11e-03	0	41	0	398458880	74	6807
2026-01-22 07:42:35.36	87.21	22.79	-52.0	-57.4	9.8	7.41e-03	0	41	0	400556032	74	7196
2026-01-22 07:42:36.37	87.03	22.91	-52.1	-57.8	9.5	1.28e-02	0	41	0	402653184	74	7501
2026-01-22 07:42:37.38	86.86	23.02	-52.4	-58.6	8.7	2.32e-02	0	41	0	403701760	75	7730
2026-01-22 07:42:38.38	86.68	23.13	-52.4	-58.8	8.6	3.28e-02	0	41	0	405798912	75	7910
2026-01-22 07:42:39.39	86.50	23.25	-52.4	-58.8	8.4	5.36e-02	0	40	0	407896064	75	7935
2026-01-22 07:42:40.40	86.32	23.37	-52.6	-59.4	7.9	7.66e-02	0	40	0	409993216	75	8523
2026-01-22 07:42:41.41	86.14	23.48	-52.7	-60.1	7.2	1.15e-01	0	41	0	411041792	76	8733
2026-01-22 07:42:42.42	85.96	23.60	-52.9	-60.8	6.7	1.48e-01	0	41	0	413138944	76	9416
2026-01-22 07:42:43.42	85.78	23.71	-52.9	-60.9	6.5	2.08e-01	0	41	0	415236096	76	9576
2026-01-22 07:42:44.43	85.59	23.83	-53.0	-61.7	5.9	3.23e-01	0	41	0	417333248	76	10444
2026-01-22 07:42:45.44	85.40	23.94	-53.6	-68.4	3.8	4.42e-01	0	41	104	418381824	77	21430
2026-01-22 07:42:46.45	85.22	24.06	-53.7	-68.7	3.8	1.49e+00	0	41	104	418381824	77	22038
2026-01-22 07:42:47.46	85.03	24.18	-53.7	-68.6	3.8	1.49e+00	0	41	104	418381824	78	20560
2026-01-22 07:42:48.46	84.84	24.29	-53.7	-68.7	3.8	1.49e+00	0	41	104	418381824	78	20833
2026-01-22 07:42:49.47	84.64	24.41	-53.7	-68.6	3.8	1.49e+00	0	41	104	418381824	78	20604
2026-01-22 07:42:50.48	84.45	24.53	-53.7	-68.7	3.8	1.49e+00	0	41	104	418381824	78	20815
2026-01-22 07:42:51.49	84.26	24.65	-53.7	-68.6	3.8	1.49e+00	0	41	104	418381824	78	20776
2026-01-22 07:42:52.49	84.06	24.76	-53.7	-68.6	3.8	1.49e+00	0	41	104	418381824	78	20767
2026-01-22 07:42:53.50	83.86	24.88	-53.7	-68.6	3.8	1.49e+00	0	41	104	418381824	78	20677
2026-01-22 07:42:54.51	83.66	25.00	-53.7	-68.6	3.8	1.49e+00	0	41	104	418381824	78	20772
2026-01-22 07:42:55.52	83.46	25.12	-53.7	-68.7	3.8	1.49e+00	0	41	104	418381824	78	20844
2026-01-22 07:42:56.53	83.26	25.24	-53.7	-68.6	3.8	1.49e+00	0	41	104	418381824	78	20748
2026-01-22 07:42:57.54	83.05	25.35	-53.7	-68.6	3.8	1.49e+00	0	41	104	418381824	78	20697
2026-01-22 07:42:58.54	82.85	25.47	-53.7	-68.6	3.8	1.49e+00	0	41	104	418381824	78	20685
2026-01-22 07:42:59.55	82.64	25.59	-53.7	-68.6	3.8	1.49e+00	0	41	104	418381824	78	20762
2026-01-22 07:43:00.56	82.43	25.71	-53.7	-68.6	3.8	1.49e+00	0	41	104	418381824	78	20700
2026-01-22 07:43:01.57	82.22	25.83	-53.7	-68.7	3.8	1.49e+00	0	41	104	418381824	78	20845
2026-01-22 07:43:02.57	82.01	25.94	-53.7	-68.7	3.8	1.49e+00	0	41	104	418381824	78	20801
2026-01-22 07:43:03.58	81.80	26.06	-53.7	-68.7	3.8	1.49e+00	0	41	104	418381824	78	20846
2026-01-22 07:43:04.59	81.58	26.18	-53.7	-68.6	3.8	1.49e+00	0	41	104	418381824	78	20736
2026-01-22 07:43:05.60	81.36	26.30	-53.7	-68.7	3.8	1.49e+00	0	41	104	418381824	78	20884
2026-01-22 07:43:06.60	81.15	26.42	-53.7	-68.6	3.8	1.49e+00	0	41	104	418381824	78	20745
2026-01-22 07:43:07.61	80.93	26.54	-53.7	-68.7	3.8	1.49e+00	0	41	104	418381824	78	20787
2026-01-22 07:43:08.62	80.71	26.66	-53.7	-68.6	3.8	1.49e+00	0	41	104	418381824	78	20711
2026-01-22 07:43:09.63	80.48	26.78	-53.7	-68.7	3.8	1.49e+00	0	41	104	418381824	78	20920
2026-01-22 07:43:10.64	80.26	26.90	-53.7	-68.6	3.8	1.49e+00	0	41	104	418381824	78	20745
2026-01-22 07:43:11.64	80.03	27.02	-53.7	-68.7	3.8	1.49e+00	0	41	104	418381824	78	20778
2026-01-22 07:43:12.65	79.80	27.14	-53.7	-68.7	3.8	1.49e+00	0	41	104	418381824	78	20788
2026-01-22 07:43:13.66	79.57	27.25	-53.7	-68.7	3.8	1.49e+00	0	41	104	418381824	78	20896
2026-01-22 07:43:14.67	79.34	27.37	-53.7	-68.7	3.8	1.49e+00	0	41	104	418381824	78	20802
2026-01-22 07:43:15.67	79.11	27.49	-53.7	-68.6	3.8	1.49e+00	0	41	104	418381824	78	20622
2026-01-22 07:43:16.68	78.87	27.61	-53.7	-68.6	3.8	1.49e+00	0	41	104	418381824	78	20748
2026-01-22 07:43:17.69	78.63	27.73	-53.7	-68.7	3.8	1.49e+00	0	41	104	418381824	78	20934
2026-01-22 07:43:18.70	78.39	27.85	-53.7	-68.7	3.8	1.49e+00	0	41	104	418381824	78	20818
2026-01-22 07:43:19.70	78.15	27.97	-53.7	-68.6	3.8	1.49e+00	0	41	104	418381824	78	20670
2026-01-22 07:43:20.71	77.91	28.09	-53.7	-68.7	3.8	1.49e+00	0	41	104	418381824	78	20877
2026-01-22 07:43:21.72	77.67	28.21	-53.7	-68.7	3.8	1.49e+00	0	41	104	418381824	78	20884
2026-01-22 07:43:22.73	77.42	28.33	-53.7	-68.6	3.8	1.49e+00	0	41	104	418381824	78	20767
2026-01-22 07:43:23.74	77.17	28.45	-53.7	-68.6	3.8	1.49e+00	0	41	104	418381824	78	20658
2026-01-22 07:43:24.74	76.92	28.56	-53.7	-68.7	3.8	1.49e+00	0	41	104	418381824	78	20847
2026-01-22 07:43:25.75	76.67	28.68	-53.7	-68.7	3.8	1.49e+00	0	41	104	418381824	78	20922
2026-01-22 07:43:26.76	76.42	28.80	-53.7	-68.7	3.8	1.49e+00	0	41	104	418381824	78	20893
2026-01-22 07:43:27.77	76.16	28.92	-53.7	-68.6	3.8	1.49e+00	0	41	104	418381824	78	20686
2026-01-22 07:43:28.78	75.90	29.04	-53.7	-68.7	3.8	1.49e+00	0	41	104	418381824	78	20829
2026-01-22 07:43:29.78	75.64	29.15	-53.7	-68.7	3.8	1.49e+00	0	41	104	418381824	78	20988
2026-01-22 07:43:30.79	75.38	29.27	-53.7	-68.7	3.8	1.49e+00	0	41	104	418381824	78	20856
2026-01-22 07:43:31.80	75.12	29.39	-53.7	-68.7	3.8	1.49e+00	0	41	104	418381824	78	20785
2026-01-22 07:43:32.81	74.85	29.51	-53.7	-68.7	3.8	1.49e+00	0	41	104	418381824	78	20912
2026-01-22 07:43:33.82	74.58	29.63	-53.7	-68.7	3.8	1.49e+00	0	41	104	418381824	78	20981
2026-01-22 07:43:34.83	74.31	29.74	-53.7	-68.7	3.8	1.49e+00	0	41	104	418381824	78	20914
2026-01-22 07:43:35.84	74.04	29.86	-53.7	-68.7	3.8	1.49e+00	0	41	104	418381824	78	20838
2026-01-22 07:43:36.85	73.77	29.98	-53.7	-68.7	3.8	1.49e+00	0	41	104	418381824	78	20886
2026-01-22 07:43:37.85	73.49	30.09	-53.7	-68.7	3.8	1.49e+00	0	41	104	418381824	78	20970
2026-01-22 07:43:38.86	73.22	30.21	-53.7	-68.7	3.8	1.49e+00	0	41	104	418381824	78	20909
2026-01-22 07:43:39.87	72.94	30.32	-53.7	-68.7	3.8	1.49e+00	0	41	104	418381824	78	20892
2026-01-22 07:43:40.88	72.66	30.44	-53.7	-68.7	3.8	1.49e+00	0	41	104	418381824	78	20906
2026-01-22 07:43:41.89	72.37	30.56	-53.7	-68.7	3.8	1.49e+00	0	41	104	418381824	78	20918
2026-01-22 07:43:42.89	72.09	30.67	-53.7	-68.7	3.8	1.49e+00	0	41	104	418381824	78	20984
2026-01-22 07:43:43.90	71.80	30.78	-53.7	-68.7	3.8	1.49e+00	0	41	104	418381824	78	20972
2026-01-22 07:43:44.91	71.51	30.90	-53.7	-68.7	3.8	1.49e+00	0	41	104	418381824	78	20885
2026-01-22 07:43:45.92	71.22	31.01	-53.7	-68.7	3.8	1.49e+00	0	41	104	418381824	78	20995
2026-01-22 07:43:46.93	70.92	31.12	-53.7	-68.7	3.8	1.49e+00	0	41	104	418381824	78	20946
2026-01-22 07:43:47.94	70.63	31.24	-53.7	-68.8	3.8	1.49e+00	0	41	104	418381824	78	21042
2026-01-22 07:43:48.94	70.33	31.35	-53.7	-68.7	3.8	1.49e+00	0	41	104	418381824	78	20914
2026-01-22 07:43:49.95	70.03	31.46	-53.8	-68.7	3.8	1.49e+00	0	41	104	418381824	78	20956
2026-01-22 07:43:50.96	69.73	31.57	-53.7	-68.7	3.8	1.49e+00	0	41	104	418381824	78	20959
2026-01-22 07:43:51.97	69.42	31.68	-53.7	-68.7	3.8	1.49e+00	0	41	104	418381824	78	21007
2026-01-22 07:43:52.97	69.12	31.79	-53.7	-68.7	3.8	1.49e+00	0	41	104	418381824	78	20885
2026-01-22 07:43:53.98	68.81	31.90	-53.7	-68.7	3.8	1.49e+00	0	41	104	418381824	78	20961
2026-01-22 07:43:54.99	68.50	32.01	-53.8	-68.8	3.8	1.49e+00	0	41	104	418381824	78	21034
2026-01-22 07:43:56.00	68.19	32.12	-53.7	-68.7	3.8	1.49e+00	0	41	104	418381824	78	20987
2026-01-22 07:43:57.01	67.87	32.23	-53.7	-68.7	3.8	1.49e+00	0	41	104	418381824	78	20952
2026-01-22 07:43:58.02	67.56	32.34	-53.7	-68.7	3.8	1.49e+00	0	41	104	418381824	78	20926
2026-01-22 07:43:59.02	67.24	32.44	-53.8	-68.8	3.8	1.49e+00	0	41	104	418381824	78	21074
2026-01-22 07:44:00.03	66.92	32.55	-53.7	-68.8	3.8	1.49e+00	0	41	104	418381824	78	21039
2026-01-22 07:44:01.04	66.60	32.66	-53.7	-68.7	3.8	1.49e+00	0	41	104	418381824	78	20999
2026-01-22 07:44:02.04	66.27	32.76	-53.8	-68.7	3.8	1.49e+00	0	41	104	418381824	78	20940
2026-01-22 07:44:03.05	65.95	32.86	-53.8	-68.8	3.8	1.49e+00	0	41	104	418381824	78	21077
2026-01-22 07:44:04.05	65.62	32.97	-53.8	-68.8	3.8	1.49e+00	0	41	104	418381824	78	21074
2026-01-22 07:44:05.06	65.29	33.07	-53.7	-68.7	3.8	1.49e+00	0	41	104	418381824	78	20948
2026-01-22 07:44:06.07	64.95	33.17	-53.8	-68.7	3.8	1.49e+00	0	41	104	418381824	78	21017
2026-01-22 07:44:07.08	64.62	33.27	-53.8	-68.8	3.8	1.49e+00	0	41	104	418381824	78	21091
2026-01-22 07:44:08.09	64.28	33.37	-53.8	-68.8	3.8	1.49e+00	0	41	104	418381824	78	21061
2026-01-22 07:44:09.10	63.94	33.47	-53.7	-68.7	3.8	1.49e+00	0	41	104	418381824	78	20971
2026-01-22 07:44:10.11	63.60	33.57	-53.8	-68.7	3.8	1.49e+00	0	41	104	418381824	78	20991
2026-01-22 07:44:11.12	63.25	33.67	-53.8	-68.8	3.8	1.49e+00	0	41	104	418381824	78	21063
2026-01-22 07:44:12.13	62.90	33.77	-53.8	-68.8	3.8	1.49e+00	0	41	104	418381824	78	21102
2026-01-22 07:44:13.13	62.56	33.86	-53.8	-68.7	3.8	1.49e+00	0	41	104	418381824	78	20903
2026-01-22 07:44:14.14	62.21	33.96	-53.8	-68.8	3.8	1.49e+00	0	41	104	418381824	78	21054
2026-01-22 07:44:15.15	61.86	34.05	-53.8	-68.8	3.8	1.49e+00	0	41	104	418381824	78	21142
2026-01-22 07:44:16.16	61.50	34.15	-53.8	-68.8	3.8	1.49e+00	0	41	104	418381824	78	21063
2026-01-22 07:44:17.17	61.14	34.24	-53.7	-68.7	3.8	1.49e+00	0	41	104	418381824	78	20830
2026-01-22 07:44:18.18	60.78	34.33	-53.8	-68.7	3.8	1.49e+00	0	41	104	418381824	78	20983
2026-01-22 07:44:19.18	60.43	34.42	-53.8	-68.8	3.8	1.49e+00	0	41	104	418381824	78	21147
2026-01-22 07:44:20.19	60.06	34.51	-53.8	-68.8	3.8	1.49e+00	0	41	104	418381824	78	21054
2026-01-22 07:44:21.20	59.70	34.60	-53.8	-68.7	3.8	1.49e+00	0	41	104	418381824	78	20811
2026-01-22 07:44:22.20	59.34	34.69	-53.8	-68.7	3.8	1.49e+00	0	41	104	418381824	78	20999
2026-01-22 07:44:23.21	58.97	34.77	-53.8	-68.8	3.8	1.49e+00	0	41	104	418381824	78	21075
2026-01-22 07:44:24.22	58.60	34.86	-53.8	-68.8	3.8	1.49e+00	0	41	104	418381824	78	21028
2026-01-22 07:44:25.23	58.22	34.94	-53.8	-68.6	3.8	1.49e+00	0	41	104	418381824	78	20620
2026-01-22 07:44:26.24	57.85	35.02	-53.8	-68.7	3.8	1.49e+00	0	41	104	418381824	78	20915
2026-01-22 07:44:27.25	57.47	35.11	-53.8	-68.8	3.8	1.49e+00	0	41	104	418381824	78	21101
2026-01-22 07:44:28.25	57.10	35.19	-53.8	-68.7	3.8	1.49e+00	0	41	104	418381824	78	20975
2026-01-22 07:44:29.26	56.72	35.27	-53.8	-68.5	3.8	1.49e+00	0	41	104	418381824	78	20495
2026-01-22 07:44:30.27	56.33	35.34	-53.8	-68.7	3.8	1.49e+00	0	41	104	418381824	78	20857
2026-01-22 07:44:31.27	55.95	35.42	-53.8	-68.8	3.8	1.49e+00	0	41	104	418381824	78	21134
2026-01-22 07:44:32.28	55.57	35.49	-53.8	-68.7	3.8	1.49e+00	0	41	104	418381824	78	20981
2026-01-22 07:44:33.29	55.18	35.57	-53.8	-68.6	3.8	1.49e+00	0	41	104	418381824	78	20561
2026-01-22 07:44:34.30	54.79	35.64	-53.8	-68.7	3.8	1.49e+00	0	41	104	418381824	78	20887
2026-01-22 07:44:35.31	54.40	35.71	-53.8	-68.8	3.8	1.49e+00	0	41	104	418381824	78	21134
2026-01-22 07:44:36.31	54.01	35.78	-53.8	-68.7	3.8	1.49e+00	0	41	104	418381824	78	20932
2026-01-22 07:44:37.32	53.62	35.85	-53.8	-68.6	3.8	1.49e+00	0	41	104	418381824	78	20578
2026-01-22 07:44:38.33	53.22	35.92	-53.8	-68.7	3.8	1.49e+00	0	41	104	418381824	78	20909
2026-01-22 07:44:39.34	52.82	35.98	-53.8	-68.8	3.8	1.49e+00	0	41	104	418381824	78	21212
2026-01-22 07:44:40.34	52.43	36.05	-53.8	-68.7	3.8	1.49e+00	0	41	104	418381824	78	20913
2026-01-22 07:44:41.35	52.03	36.11	-53.8	-68.5	3.8	1.49e+00	0	41	104	418381824	78	20476
2026-01-22 07:44:42.36	51.63	36.17	-53.8	-68.7	3.8	1.49e+00	0	41	104	418381824	78	20858
2026-01-22 07:44:43.37	51.22	36.23	-53.8	-68.8	3.8	1.49e+00	0	41	104	418381824	78	21177
2026-01-22 07:44:44.38	50.82	36.29	-53.8	-68.7	3.8	1.49e+00	0	41	104	418381824	78	20893
2026-01-22 07:44:45.38	50.41	36.35	-53.8	-68.6	3.8	1.49e+00	0	41	104	418381824	78	20752
2026-01-22 07:44:46.39	50.01	36.40	-53.8	-68.7	3.8	1.49e+00	0	41	104	418381824	78	20812
2026-01-22 07:44:47.40	49.60	36.46	-53.8	-68.8	3.8	1.49e+00	0	41	104	418381824	78	21167
2026-01-22 07:44:48.41	49.18	36.51	-53.8	-68.7	3.8	1.49e+00	0	41	104	418381824	78	20836
2026-01-22 07:44:49.41	48.78	36.56	-53.8	-68.6	3.8	1.49e+00	0	41	104	418381824	78	20764
2026-01-22 07:44:50.42	48.36	36.61	-53.8	-68.6	3.8	1.49e+00	0	41	104	418381824	78	20771
2026-01-22 07:44:51.43	47.95	36.65	-53.8	-68.8	3.8	1.49e+00	0	41	104	418381824	78	21225
2026-01-22 07:44:52.44	47.53	36.70	-53.8	-68.6	3.8	1.49e+00	0	41	104	418381824	78	20776
2026-01-22 07:44:53.45	47.12	36.74	-53.8	-68.7	3.8	1.49e+00	0	41	104	418381824	78	20814
2026-01-22 07:44:54.46	46.70	36.79	-53.8	-68.6	3.8	1.49e+00	0	41	104	418381824	78	20684
2026-01-22 07:44:55.47	46.28	36.83	-53.8	-68.8	3.8	1.49e+00	0	41	104	418381824	78	21086
2026-01-22 07:44:56.48	45.86	36.86	-53.8	-68.6	3.8	1.49e+00	0	41	104	418381824	78	20695
2026-01-22 07:44:57.48	45.44	36.90	-53.8	-68.7	3.8	1.49e+00	0	41	104	418381824	78	20970
2026-01-22 07:44:58.49	45.02	36.94	-53.8	-68.6	3.8	1.49e+00	0	41	104	418381824	78	20629
2026-01-22 07:44:59.50	44.60	36.97	-53.8	-68.7	3.8	1.49e+00	0	41	104	418381824	78	20945
2026-01-22 07:45:00.51	44.17	37.00	-53.8	-68.6	3.8	1.49e+00	0	41	104	418381824	78	20575
2026-01-22 07:45:01.51	43.75	37.03	-53.8	-68.7	3.8	1.49e+00	0	41	104	418381824	78	20949
2026-01-22 07:45:02.52	43.33	37.06	-53.8	-68.6	3.8	1.49e+00	0	41	104	418381824	78	20621
2026-01-22 07:45:03.53	42.90	37.09	-53.8	-68.7	3.8	1.49e+00	0	41	104	418381824	78	20835
2026-01-22 07:45:04.54	42.47	37.11	-53.8	-68.6	3.8	1.49e+00	0	41	104	418381824	78	20746
2026-01-22 07:45:05.54	42.05	37.14	-53.8	-68.8	3.8	1.49e+00	0	41	104	418381824	78	21136
2026-01-22 07:45:06.55	41.62	37.16	-53.8	-68.7	3.8	1.49e+00	0	41	104	418381824	78	20846
2026-01-22 07:45:07.56	41.20	37.18	-53.8	-68.7	3.8	1.49e+00	0	41	104	418381824	78	20852
2026-01-22 07:45:08.57	40.77	37.19	-53.8	-68.7	3.8	1.49e+00	0	41	104	418381824	78	20859
2026-01-22 07:45:09.57	40.34	37.21	-53.9	-68.8	3.8	1.49e+00	0	41	104	418381824	78	21193
2026-01-22 07:45:10.58	39.91	37.22	-53.9	-68.7	3.8	1.49e+00	0	41	104	418381824	78	20875
2026-01-22 07:45:11.59	39.48	37.24	-53.9	-68.7	3.8	1.49e+00	0	41	104	418381824	78	20967
2026-01-22 07:45:12.60	39.05	37.25	-53.9	-68.7	3.8	1.49e+00	0	41	104	418381824	78	20984
2026-01-22 07:45:13.61	38.62	37.25	-53.9	-68.8	3.8	1.49e+00	0	41	104	418381824	78	21202
2026-01-22 07:45:14.62	38.19	37.26	-53.9	-68.7	3.8	1.49e+00	0	41	104	418381824	78	20951
2026-01-22 07:45:15.62	37.76	37.27	-53.9	-68.7	3.8	1.49e+00	0	41	104	418381824	78	20983
2026-01-22 07:45:16.63	37.33	37.27	-53.9	-68.8	3.8	1.49e+00	0	41	104	418381824	78	21071
2026-01-22 07:45:17.64	36.90	37.27	-53.9	-68.8	3.8	1.49e+00	0	41	104	418381824	78	21242
2026-01-22 07:45:18.65	36.47	37.27	-53.9	-68.7	3.8	1.49e+00	0	41	104	418381824	78	20909
2026-01-22 07:45:19.66	36.04	37.27	-53.9	-68.7	3.8	1.49e+00	0	41	104	418381824	78	21008
2026-01-22 07:45:20.66	35.61	37.26	-53.8	-68.8	3.8	1.49e+00	0	41	104	418381824	78	21027
2026-01-22 07:45:21.67	35.18	37.25	-53.9	-68.8	3.8	1.49e+00	0	41	104	418381824	78	21238
2026-01-22 07:45:22.68	34.75	37.25	-53.9	-68.7	3.8	1.49e+00	0	41	104	418381824	78	20931
2026-01-22 07:45:23.69	34.32	37.24	-53.9	-68.8	3.8	1.49e+00	0	41	104	418381824	78	21111
2026-01-22 07:45:24.69	33.89	37.23	-53.9	-68.8	3.8	1.49e+00	0	41	104	418381824	78	21103
2026-01-22 07:45:25.70	33.46	37.21	-53.9	-68.8	3.8	1.49e+00	0	41	104	418381824	78	21241
2026-01-22 07:45:26.70	33.04	37.20	-53.9	-68.7	3.8	1.49e+00	0	41	104	418381824	78	20951
2026-01-22 07:45:27.71	32.61	37.18	-53.9	-68.8	3.8	1.49e+00	0	41	104	418381824	78	21100
2026-01-22 07:45:28.72	32.18	37.16	-53.9	-68.8	3.8	1.49e+00	0	41	104	418381824	78	21136
2026-01-22 07:45:29.73	31.75	37.14	-53.9	-68.8	3.8	1.49e+00	0	41	104	418381824	78	21224
2026-01-22 07:45:30.74	31.33	37.12	-53.9	-68.8	3.8	1.49e+00	0	41	104	418381824	78	21041
2026-01-22 07:45:31.75	30.90	37.09	-53.9	-68.8	3.8	1.49e+00	0	41	104	418381824	78	21165
2026-01-22 07:45:32.76	30.47	37.06	-53.9	-68.8	3.8	1.49e+00	0	41	104	418381824	78	21226
2026-01-22 07:45:33.76	30.05	37.04	-53.9	-68.8	3.8	1.49e+00	0	41	104	418381824	78	21196
2026-01-22 07:45:34.77	29.63	37.01	-53.9	-68.8	3.8	1.49e+00	0	41	104	418381824	78	21111
2026-01-22 07:45:35.78	29.21	36.98	-53.9	-68.8	3.8	1.49e+00	0	41	104	418381824	78	21225
2026-01-22 07:45:36.78	28.79	36.94	-53.9	-68.8	3.8	1.49e+00	0	41	104	418381824	78	21254
2026-01-22 07:45:37.79	28.37	36.91	-53.9	-68.8	3.8	1.49e+00	0	41	104	418381824	78	21181
2026-01-22 07:45:38.80	27.94	36.87	-53.9	-68.8	3.8	1.49e+00	0	41	104	418381824	78	21079
2026-01-22 07:45:39.81	27.52	36.83	-53.9	-68.8	3.8	1.49e+00	0	41	104	418381824	78	21234
2026-01-22 07:45:40.82	27.11	36.79	-53.8	-68.8	3.8	1.49e+00	0	41	104	418381824	78	21150
2026-01-22 07:45:41.82	26.69	36.75	-53.9	-68.8	3.8	1.49e+00	0	41	104	418381824	78	21184
2026-01-22 07:45:42.83	26.27	36.71	-53.9	-68.8	3.8	1.49e+00	0	41	104	418381824	78	21164
2026-01-22 07:45:43.84	25.86	36.66	-53.9	-68.8	3.8	1.49e+00	0	41	104	418381824	78	21234
2026-01-22 07:45:44.85	25.44	36.61	-53.9	-68.8	3.8	1.49e+00	0	41	104	418381824	78	21238
2026-01-22 07:45:45.86	25.03	36.57	-53.9	-68.8	3.8	1.49e+00	0	41	104	418381824	78	21178
2026-01-22 07:45:46.86	24.62	36.52	-53.9	-68.8	3.8	1.49e+00	0	41	104	418381824	78	21144
2026-01-22 07:45:47.87	24.21	36.46	-53.9	-68.9	3.8	1.49e+00	0	41	104	418381824	78	21266
2026-01-22 07:45:48.88	23.80	36.41	-53.8	-68.8	3.8	1.49e+00	0	41	104	418381824	78	21246
2026-01-22 07:45:49.89	23.40	36.36	-53.9	-68.8	3.8	1.49e+00	0	41	104	418381824	78	21145
2026-01-22 07:45:50.90	22.99	36.30	-53.9	-68.8	3.8	1.49e+00	0	41	104	418381824	78	21165
2026-01-22 07:45:51.91	22.58	36.24	-53.9	-68.9	3.8	1.49e+00	0	41	104	418381824	78	21275
2026-01-22 07:45:52.91	22.18	36.18	-53.9	-68.8	3.8	1.49e+00	0	41	104	418381824	78	21188
2026-01-22 07:45:53.92	21.78	36.12	-53.9	-68.8	3.8	1.49e+00	0	41	104	418381824	78	21217
2026-01-22 07:45:54.93	21.38	36.06	-53.9	-68.8	3.8	1.49e+00	0	41	104	418381824	78	21028
2026-01-22 07:45:55.94	20.98	35.99	-53.9	-68.8	3.8	1.49e+00	0	41	104	418381824	78	21190
2026-01-22 07:45:56.94	20.59	35.93	-53.8	-68.8	3.8	1.49e+00	0	41	104	418381824	78	21176
2026-01-22 07:45:57.95	20.19	35.86	-53.9	-68.8	3.8	1.49e+00	0	41	104	418381824	78	21092
2026-01-22 07:45:58.96	19.80	35.79	-53.9	-68.8	3.8	1.49e+00	0	41	104	418381824	78	21019
2026-01-22 07:45:59.97	19.41	35.72	-53.9	-68.8	3.8	1.49e+00	0	41	104	418381824	78	21102
2026-01-22 07:46:00.97	19.02	35.65	-53.8	-68.8	3.8	1.49e+00	0	41	104	418381824	78	21207
2026-01-22 07:46:01.98	18.63	35.58	-53.9	-68.8	3.8	1.49e+00	0	41	104	418381824	78	21046
2026-01-22 07:46:02.99	18.24	35.51	-53.9	-68.8	3.8	1.49e+00	0	41	104	418381824	78	21027
2026-01-22 07:46:04.00	17.86	35.43	-53.9	-68.8	3.8	1.49e+00	0	41	104	418381824	78	21117
2026-01-22 07:46:05.00	17.48	35.36	-53.9	-68.8	3.8	1.49e+00	0	41	104	418381824	78	21184
2026-01-22 07:46:06.01	17.10	35.28	-53.9	-68.7	3.8	1.49e+00	0	41	104	418381824	78	21012
2026-01-22 07:46:07.02	16.72	35.20	-53.9	-68.7	3.8	1.49e+00	0	41	104	418381824	78	20950
2026-01-22 07:46:08.03	16.34	35.12	-53.9	-68.8	3.8	1.49e+00	0	41	104	418381824	78	21049
2026-01-22 07:46:09.04	15.96	35.04	-53.9	-68.8	3.8	1.49e+00	0	41	104	418381824	78	21225
2026-01-22 07:46:10.04	15.59	34.96	-53.9	-68.8	3.8	1.49e+00	0	41	104	418381824	78	21042
2026-01-22 07:46:11.05	15.22	34.87	-53.9	-68.7	3.8	1.49e+00	0	41	104	418381824	78	20961
2026-01-22 07:46:12.06	14.85	34.79	-53.9	-68.8	3.8	1.49e+00	0	41	104	418381824	78	21076
2026-01-22 07:46:13.07	14.48	34.70	-53.8	-68.8	3.8	1.49e+00	0	41	104	418381824	78	21203
2026-01-22 07:46:14.08	14.11	34.62	-53.9	-68.8	3.8	1.49e+00	0	41	104	418381824	78	21162
2026-01-22 07:46:15.08	13.75	34.53	-53.9	-68.7	3.8	1.49e+00	0	41	104	418381824	78	20920
2026-01-22 07:46:16.09	13.39	34.44	-53.9	-68.8	3.8	1.49e+00	0	41	104	418381824	78	21109
2026-01-22 07:46:17.10	13.03	34.35	-53.8	-68.8	3.8	1.49e+00	0	41	104	418381824	78	21235
2026-01-22 07:46:18.11	12.67	34.26	-53.9	-68.8	3.8	1.49e+00	0	41	104	418381824	78	21080
2026-01-22 07:46:19.12	12.31	34.17	-53.9	-68.8	3.8	1.49e+00	0	41	104	418381824	78	21045
2026-01-22 07:46:20.12	11.96	34.07	-53.8	-68.8	3.8	1.49e+00	0	41	104	418381824	78	21133
2026-01-22 07:46:21.13	11.61	33.98	-53.8	-68.8	3.8	1.49e+00	0	41	104	418381824	78	21232
2026-01-22 07:46:22.14	11.26	33.88	-53.9	-68.8	3.8	1.49e+00	0	41	104	418381824	78	21143
2026-01-22 07:46:23.15	10.91	33.79	-53.9	-68.8	3.8	1.49e+00	0	41	104	418381824	78	21066
2026-01-22 07:46:24.16	10.56	33.69	-53.8	-68.8	3.8	1.49e+00	0	41	104	418381824	78	21132
2026-01-22 07:46:25.16	10.22	33.59	-53.8	-68.8	3.8	1.49e+00	0	41	104	418381824	78	21210
2026-01-22 07:46:26.17	9.88	33.50	-53.9	-68.8	3.8	1.49e+00	0	41	104	418381824	78	21074
2026-01-22 07:46:27.18	9.54	33.40	-53.8	-68.8	3.8	1.49e+00	0	41	104	418381824	78	21018
2026-01-22 07:46:28.19	9.20	33.30	-53.8	-68.8	3.8	1.49e+00	0	41	104	418381824	78	21122
2026-01-22 07:46:29.20	8.87	33.19	-53.8	-68.8	3.8	1.49e+00	0	41	104	418381824	78	21235
2026-01-22 07:46:30.20	8.53	33.09	-53.8	-68.8	3.8	1.49e+00	0	41	104	418381824	78	21233
2026-01-22 07:46:31.21	8.20	32.99	-53.8	-68.8	3.8	1.49e+00	0	41	104	418381824	78	21126
2026-01-22 07:46:32.22	7.87	32.89	-53.8	-68.8	3.8	1.49e+00	0	41	104	418381824	78	21238
2026-01-22 07:46:33.23	7.55	32.78	-53.8	-68.8	3.8	1.49e+00	0	41	104	418381824	78	21247
2026-01-22 07:46:34.23	7.22	32.68	-53.8	-68.8	3.8	1.49e+00	0	41	104	418381824	78	21179
2026-01-22 07:46:35.24	6.90	32.57	-53.8	-68.8	3.8	1.49e+00	0	41	104	418381824	78	21033
2026-01-22 07:46:36.25	6.58	32.47	-53.8	-68.8	3.8	1.49e+00	0	41	104	418381824	78	21117
2026-01-22 07:46:37.26	6.26	32.36	-53.8	-68.8	3.8	1.49e+00	0	41	104	418381824	78	21198
2026-01-22 07:46:38.26	5.95	32.26	-53.8	-68.8	3.8	1.49e+00	0	41	104	418381824	78	21138
2026-01-22 07:46:39.27	5.63	32.15	-53.8	-68.7	3.8	1.49e+00	0	41	104	418381824	78	21009
2026-01-22 07:46:40.28	5.32	32.04	-53.8	-68.8	3.8	1.49e+00	0	41	104	418381824	78	21129
2026-01-22 07:46:41.29	5.01	31.93	-53.8	-68.8	3.8	1.49e+00	0	41	104	418381824	78	21191
2026-01-22 07:46:42.30	4.70	31.82	-53.8	-68.8	3.8	1.49e+00	0	41	104	418381824	78	21167
2026-01-22 07:46:43.30	4.40	31.71	-53.8	-68.8	3.8	1.49e+00	0	41	104	418381824	78	21023
2026-01-22 07:46:44.31	4.09	31.60	-53.8	-68.8	3.8	1.49e+00	0	41	104	418381824	78	21111
2026-01-22 07:46:45.32	3.79	31.49	-53.8	-68.8	3.8	1.49e+00	0	41	104	418381824	78	21141
2026-01-22 07:46:46.33	3.49	31.38	-53.8	-68.8	3.8	1.49e+00	0	41	104	418381824	78	21092
2026-01-22 07:46:47.34	3.19	31.27	-53.8	-68.8	3.8	1.49e+00	0	41	104	418381824	78	21108
2026-01-22 07:46:48.34	2.90	31.15	-53.8	-68.8	3.8	1.49e+00	0	41	104	418381824	78	21088
2026-01-22 07:46:49.35	2.61	31.04	-53.8	-68.8	3.8	1.49e+00	0	41	104	418381824	78	21181
2026-01-22 07:46:50.36	2.31	30.93	-53.8	-68.8	3.8	1.49e+00	0	41	104	418381824	78	21099
2026-01-22 07:46:51.37	2.02	30.81	-53.8	-68.8	3.8	1.49e+00	0	41	104	418381824	78	21031
2026-01-22 07:46:52.38	1.74	30.70	-53.8	-68.8	3.8	1.49e+00	0	41	104	418381824	78	21065
2026-01-22 07:46:53.39	1.45	30.58	-53.8	-68.8	3.8	1.49e+00	0	41	104	418381824	78	21103
2026-01-22 07:46:54.39	1.17	30.47	-53.8	-68.8	3.8	1.49e+00	0	41	104	418381824	78	21085
2026-01-22 07:46:55.40	0.89	30.36	-53.8	-68.7	3.8	1.49e+00	0	41	104	418381824	78	21007
2026-01-22 07:46:56.41	0.61	30.24	-53.8	-68.8	3.8	1.49e+00	0	41	104	418381824	78	21061
2026-01-22 07:46:57.42	0.33	30.12	-53.8	-68.8	3.8	1.49e+00	0	41	104	418381824	78	21116
2026-01-22 07:46:58.42	0.06	30.01	-53.8	-68.8	3.8	1.49e+00	0	41	104	418381824	78	21122
2026-01-22 07:46:59.43	359.78	29.89	-53.8	-68.8	3.8	1.49e+00	0	41	104	418381824	78	21076
2026-01-22 07:47:00.44	359.51	29.78	-53.8	-68.8	3.8	1.49e+00	0	41	104	418381824	78	21022
2026-01-22 07:47:01.45	359.24	29.66	-53.8	-68.8	3.8	1.49e+00	0	41	104	418381824	78	21035
2026-01-22 07:47:02.46	358.98	29.54	-53.8	-68.7	3.8	1.49e+00	0	41	104	418381824	78	20907
2026-01-22 07:47:03.46	358.71	29.43	-53.8	-68.7	3.8	1.49e+00	0	41	104	418381824	78	20879
2026-01-22 07:47:04.47	358.45	29.31	-53.8	-68.7	3.8	1.49e+00	0	41	104	418381824	78	20947
2026-01-22 07:47:05.48	358.19	29.19	-53.8	-68.8	3.8	1.49e+00	0	41	104	418381824	78	21044
2026-01-22 07:47:06.49	357.93	29.07	-53.8	-68.7	3.8	1.49e+00	0	41	104	418381824	78	20924
2026-01-22 07:47:07.49	357.67	28.96	-53.8	-68.7	3.8	1.49e+00	0	41	104	418381824	78	20915
2026-01-22 07:47:08.50	357.42	28.84	-53.8	-68.7	3.8	1.49e+00	0	41	104	418381824	78	20785
2026-01-22 07:47:09.51	357.16	28.72	-53.8	-68.7	3.8	1.49e+00	0	41	104	418381824	78	20997
2026-01-22 07:47:10.52	356.91	28.60	-53.8	-68.7	3.8	1.49e+00	0	41	104	418381824	78	20803
2026-01-22 07:47:11.52	356.66	28.48	-53.8	-68.7	3.8	1.49e+00	0	41	104	418381824	78	20866
2026-01-22 07:47:12.53	356.41	28.37	-53.8	-68.7	3.8	1.49e+00	0	41	104	418381824	78	20792
2026-01-22 07:47:13.54	356.17	28.25	-53.8	-68.7	3.8	1.49e+00	0	41	104	418381824	78	20995
2026-01-22 07:47:14.55	355.92	28.13	-53.7	-68.6	3.8	1.49e+00	0	41	104	418381824	78	20718
2026-01-22 07:47:15.56	355.68	28.01	-53.8	-68.6	3.8	1.49e+00	0	41	104	418381824	78	20753
2026-01-22 07:47:16.56	355.44	27.89	-53.7	-68.6	3.8	1.49e+00	0	41	104	418381824	78	20691
2026-01-22 07:47:17.57	355.20	27.77	-53.8	-68.7	3.8	1.49e+00	0	41	104	418381824	78	20972
2026-01-22 07:47:18.58	354.96	27.65	-53.7	-68.6	3.8	1.49e+00	0	41	104	418381824	78	20663
2026-01-22 07:47:19.58	354.73	27.54	-53.7	-68.6	3.8	1.49e+00	0	41	104	418381824	78	20646
2026-01-22 07:47:20.59	354.50	27.42	-53.7	-68.6	3.8	1.49e+00	0	41	104	418381824	78	20544
2026-01-22 07:47:21.60	354.26	27.30	-53.7	-68.7	3.8	1.49e+00	0	41	104	418381824	78	20888
2026-01-22 07:47:22.61	354.03	27.18	-53.7	-68.6	3.8	1.49e+00	0	41	104	418381824	78	20737
2026-01-22 07:47:23.62	353.81	27.06	-53.7	-68.6	3.8	1.49e+00	0	41	104	418381824	78	20694
2026-01-22 07:47:24.62	353.58	26.94	-53.7	-68.5	3.8	1.49e+00	0	41	104	418381824	78	20497
2026-01-22 07:47:25.63	353.36	26.82	-53.7	-68.7	3.8	1.49e+00	0	41	104	418381824	78	20843
2026-01-22 07:47:26.64	353.13	26.70	-53.7	-68.6	3.8	1.49e+00	0	41	104	418381824	78	20662
2026-01-22 07:47:27.65	352.91	26.58	-53.7	-68.6	3.8	1.49e+00	0	41	104	418381824	78	20617
2026-01-22 07:47:28.66	352.69	26.46	-53.7	-68.4	3.8	1.49e+00	0	41	104	418381824	78	20257
2026-01-22 07:47:29.66	352.47	26.35	-53.7	-68.7	3.8	1.49e+00	0	41	104	418381824	78	20902
2026-01-22 07:47:30.67	352.26	26.23	-53.7	-68.7	3.8	1.49e+00	0	41	104	418381824	78	20810
2026-01-22 07:47:31.68	352.04	26.11	-53.7	-68.6	3.8	1.49e+00	0	41	104	418381824	78	20586
2026-01-22 07:47:32.69	351.83	25.99	-53.7	-68.4	3.8	1.49e+00	0	41	104	418381824	78	20241
2026-01-22 07:47:33.70	351.62	25.87	-53.7	-68.7	3.8	1.49e+00	0	41	104	418381824	78	20777
2026-01-22 07:47:34.70	351.41	25.75	-53.7	-68.7	3.8	1.49e+00	0	41	104	418381824	78	20864
2026-01-22 07:47:35.71	351.20	25.64	-53.7	-68.5	3.8	1.49e+00	0	41	104	418381824	78	20510
2026-01-22 07:47:36.72	350.99	25.52	-53.7	-68.4	3.8	1.49e+00	0	41	104	418381824	78	20171
2026-01-22 07:47:37.73	350.78	25.40	-53.7	-68.6	3.8	1.49e+00	0	41	104	418381824	78	20703
2026-01-22 07:47:38.74	350.58	25.28	-53.7	-68.7	3.8	1.49e+00	0	41	104	418381824	78	20829
2026-01-22 07:47:39.74	350.38	25.16	-53.7	-68.5	3.8	1.49e+00	0	41	104	418381824	78	20536
2026-01-22 07:47:40.75	350.18	25.05	-53.7	-68.4	3.8	1.49e+00	0	41	104	418381824	78	20177
2026-01-22 07:47:41.76	349.98	24.93	-53.7	-68.6	3.8	1.49e+00	0	41	104	418381824	78	20731
2026-01-22 07:47:42.77	349.78	24.81	-53.7	-68.7	3.8	1.49e+00	0	41	104	418381824	78	20943
2026-01-22 07:47:43.78	349.58	24.69	-53.7	-68.5	3.8	1.49e+00	0	41	104	418381824	78	20482
2026-01-22 07:47:44.78	349.39	24.58	-53.7	-68.3	3.8	1.49e+00	0	41	104	418381824	78	20049
2026-01-22 07:47:45.79	349.20	24.46	-53.7	-68.6	3.8	1.49e+00	0	41	104	418381824	78	20703
2026-01-22 07:47:46.80	349.01	24.34	-53.7	-68.7	3.8	1.49e+00	0	41	104	418381824	78	20815
2026-01-22 07:47:47.81	348.82	24.23	-53.7	-68.5	3.8	1.49e+00	0	41	104	418381824	78	20499
2026-01-22 07:47:48.81	348.63	24.11	-53.7	-68.3	3.8	1.49e+00	0	41	104	418381824	78	19990
2026-01-22 07:47:49.82	348.44	24.00	-53.7	-68.6	3.8	1.49e+00	0	41	104	418381824	78	20605
2026-01-22 07:47:50.83	348.25	23.88	-53.7	-68.7	3.8	1.49e+00	0	41	104	418381824	78	20850
2026-01-22 07:47:51.84	348.07	23.76	-53.7	-68.5	3.8	1.49e+00	0	41	104	418381824	78	20485
2026-01-22 07:47:52.85	347.88	23.65	-53.6	-68.2	3.8	1.49e+00	0	41	104	418381824	78	19841
2026-01-22 07:47:53.86	347.70	23.53	-53.7	-68.6	3.8	1.49e+00	0	41	104	418381824	78	20556
2026-01-22 07:47:54.86	347.52	23.42	-53.7	-68.7	3.8	1.49e+00	0	41	104	418381824	78	20798
2026-01-22 07:47:55.87	347.34	23.30	-53.6	-68.5	3.8	1.49e+00	0	41	104	418381824	78	20418
2026-01-22 07:47:56.88	347.17	23.19	-53.6	-68.3	3.8	1.49e+00	0	41	104	418381824	78	19870
2026-01-22 07:47:57.89	346.99	23.07	-53.7	-68.6	3.8	1.49e+00	0	41	104	418381824	78	20642
2026-01-22 07:47:58.90	346.81	22.96	-53.6	-68.6	3.8	1.49e+00	0	41	104	418381824	78	20744
2026-01-22 07:47:59.90	346.64	22.84	-53.6	-68.5	3.8	1.49e+00	0	41	104	418381824	78	20358
2026-01-22 07:48:00.91	346.47	22.73	-53.6	-68.2	3.8	1.49e+00	0	41	104	418381824	78	19819
2026-01-22 07:48:01.92	346.30	22.62	-53.6	-68.6	3.8	1.49e+00	0	41	104	418381824	78	20583
2026-01-22 07:48:02.93	346.12	22.50	-53.6	-68.6	3.8	1.49e+00	0	41	104	418381824	78	20706
2026-01-22 07:48:03.93	345.96	22.39	-53.6	-68.5	3.8	1.49e+00	0	41	104	418381824	78	20382
2026-01-22 07:48:04.94	345.79	22.28	-53.6	-68.3	3.8	1.49e+00	0	41	104	418381824	78	19957
2026-01-22 07:48:05.94	345.62	22.17	-53.6	-68.5	3.8	1.49e+00	0	41	104	418381824	78	20531
2026-01-22 07:48:06.95	345.46	22.05	-53.6	-68.6	3.8	1.49e+00	0	41	104	418381824	78	20750
2026-01-22 07:48:07.96	345.29	21.94	-53.6	-68.5	3.8	1.49e+00	0	41	104	418381824	78	20426
2026-01-22 07:48:08.96	345.13	21.83	-53.6	-68.3	3.8	1.49e+00	0	41	104	418381824	78	19910
2026-01-22 07:48:09.97	344.97	21.72	-53.6	-68.5	3.8	1.49e+00	0	41	104	418381824	78	20535
2026-01-22 07:48:10.98	344.81	21.61	-53.6	-68.6	3.8	1.49e+00	0	41	104	418381824	78	20678
2026-01-22 07:48:11.99	344.65	21.49	-53.6	-68.5	3.8	1.49e+00	0	41	104	418381824	78	20414
2026-01-22 07:48:13.00	344.49	21.38	-53.6	-68.3	3.8	1.49e+00	0	41	104	418381824	78	19955
2026-01-22 07:48:14.00	344.34	21.27	-53.6	-68.5	3.8	1.49e+00	0	41	104	418381824	78	20492
2026-01-22 07:48:15.01	344.18	21.16	-53.6	-68.6	3.8	1.49e+00	0	41	104	418381824	78	20665
2026-01-22 07:48:16.02	344.03	21.05	-53.6	-68.5	3.8	1.49e+00	0	41	104	418381824	78	20459
2026-01-22 07:48:17.03	343.87	20.94	-53.6	-68.3	3.8	1.49e+00	0	41	104	418381824	78	19950
2026-01-22 07:48:18.04	343.72	20.83	-53.6	-68.5	3.8	1.49e+00	0	41	104	418381824	78	20446
2026-01-22 07:48:19.04	343.57	20.72	-53.6	-68.6	3.8	1.49e+00	0	41	104	418381824	78	20666
2026-01-22 07:48:20.05	343.42	20.61	-53.6	-68.5	3.8	1.49e+00	0	41	104	418381824	78	20422
2026-01-22 07:48:21.06	343.27	20.50	-53.6	-68.3	3.8	1.49e+00	0	41	104	418381824	78	19915
2026-01-22 07:48:22.07	343.12	20.39	-53.6	-68.4	3.8	1.49e+00	0	41	104	418381824	78	20302
2026-01-22 07:48:23.08	342.97	20.29	-53.6	-68.6	3.8	1.49e+00	0	41	104	418381824	78	20565
2026-01-22 07:48:24.08	342.83	20.18	-53.5	-68.5	3.8	1.49e+00	0	41	104	418381824	78	20495
2026-01-22 07:48:25.09	342.68	20.07	-53.5	-68.3	3.8	1.49e+00	0	41	104	418381824	78	19881
2026-01-22 07:48:26.10	342.54	19.96	-53.6	-68.4	3.8	1.49e+00	0	41	104	418381824	78	20281
2026-01-22 07:48:27.11	342.40	19.85	-53.5	-68.5	3.8	1.49e+00	0	41	104	418381824	78	20515
2026-01-22 07:48:28.12	342.25	19.75	-53.5	-68.5	3.8	1.49e+00	0	41	104	418381824	78	20421
2026-01-22 07:48:29.12	342.11	19.64	-53.5	-68.3	3.8	1.49e+00	0	41	104	418381824	78	19894
2026-01-22 07:48:30.13	341.97	19.53	-53.5	-68.4	3.8	1.49e+00	0	41	104	418381824	78	20258
2026-01-22 07:48:31.14	341.84	19.43	-53.5	-68.5	3.8	1.49e+00	0	41	104	418381824	78	20506
2026-01-22 07:48:32.15	341.70	19.32	-53.5	-68.5	3.8	1.49e+00	0	41	104	418381824	78	20412
2026-01-22 07:48:33.16	341.56	19.22	-53.5	-68.3	3.8	1.49e+00	0	41	104	418381824	78	19846
2026-01-22 07:48:34.16	341.43	19.11	-53.5	-68.3	3.8	1.49e+00	0	41	104	418381824	78	20047
2026-01-22 07:48:35.17	341.29	19.01	-53.5	-68.5	3.8	1.49e+00	0	41	104	418381824	78	20469
2026-01-22 07:48:36.18	341.16	18.90	-53.5	-68.5	3.8	1.49e+00	0	41	104	418381824	78	20448
2026-01-22 07:48:37.19	341.02	18.80	-53.5	-68.3	3.8	1.49e+00	0	41	104	418381824	78	19864
2026-01-22 07:48:38.19	340.89	18.69	-53.5	-68.4	3.8	1.49e+00	0	41	104	418381824	78	20101
2026-01-22 07:48:39.20	340.76	18.59	-53.5	-68.5	3.8	1.49e+00	0	41	104	418381824	78	20455
2026-01-22 07:48:40.21	340.63	18.48	-53.5	-68.5	3.8	1.49e+00	0	41	104	418381824	78	20453
2026-01-22 07:48:41.22	340.50	18.38	-53.5	-68.3	3.8	1.49e+00	0	41	104	418381824	78	19848
2026-01-22 07:48:42.22	340.37	18.28	-53.5	-68.3	3.8	1.49e+00	0	41	104	418381824	78	20058
2026-01-22 07:48:43.23	340.25	18.17	-53.5	-68.5	3.8	1.49e+00	0	41	104	418381824	78	20411
2026-01-22 07:48:44.24	340.12	18.07	-53.5	-68.5	3.8	1.49e+00	0	41	104	418381824	78	20381
2026-01-22 07:48:45.25	339.99	17.97	-53.5	-68.3	3.8	1.49e+00	0	41	104	418381824	78	19854
2026-01-22 07:48:46.26	339.87	17.87	-53.5	-68.4	3.8	1.49e+00	0	41	104	418381824	78	20182
2026-01-22 07:48:47.26	339.74	17.77	-53.5	-68.5	3.8	1.49e+00	0	41	104	418381824	78	20378
2026-01-22 07:48:48.27	339.62	17.66	-53.5	-68.5	3.8	1.49e+00	0	41	104	418381824	78	20374
2026-01-22 07:48:49.28	339.50	17.56	-53.5	-68.3	3.8	1.49e+00	0	41	104	418381824	78	19933
2026-01-22 07:48:50.29	339.38	17.46	-53.5	-68.4	3.8	1.49e+00	0	41	104	418381824	78	20151
2026-01-22 07:48:51.30	339.26	17.36	-53.5	-68.5	3.8	1.49e+00	0	41	104	418381824	78	20393
2026-01-22 07:48:52.30	339.14	17.26	-53.5	-68.5	3.8	1.49e+00	0	41	104	418381824	78	20401
2026-01-22 07:48:53.31	339.02	17.16	-53.5	-68.3	3.8	1.49e+00	0	41	104	418381824	78	19863
2026-01-22 07:48:54.32	338.90	17.06	-53.5	-68.4	3.8	1.49e+00	0	41	104	418381824	78	20199
2026-01-22 07:48:55.33	338.78	16.96	-53.5	-68.5	3.8	1.49e+00	0	41	104	418381824	78	20365
2026-01-22 07:48:56.34	338.67	16.86	-53.5	-68.5	3.8	1.49e+00	0	41	104	418381824	78	20360
2026-01-22 07:48:57.34	338.55	16.76	-53.5	-68.3	3.8	1.49e+00	0	41	104	418381824	78	19963
2026-01-22 07:48:58.35	338.44	16.66	-53.4	-68.4	3.8	1.49e+00	0	41	104	418381824	78	20148
2026-01-22 07:48:59.36	338.32	16.56	-53.4	-68.4	3.8	1.49e+00	0	41	104	418381824	78	20277
2026-01-22 07:49:00.37	338.21	16.47	-53.4	-68.4	3.8	1.49e+00	0	41	104	418381824	78	20302
2026-01-22 07:49:01.38	338.09	16.37	-53.4	-68.3	3.8	1.49e+00	0	41	104	418381824	78	19941
2026-01-22 07:49:02.38	337.98	16.27	-53.4	-68.4	3.8	1.49e+00	0	41	104	418381824	78	20193
2026-01-22 07:49:03.39	337.87	16.17	-53.4	-68.4	3.8	1.49e+00	0	41	104	418381824	78	20237
2026-01-22 07:49:04.40	337.76	16.08	-53.4	-68.4	3.8	1.49e+00	0	41	104	418381824	78	20275
2026-01-22 07:49:05.41	337.65	15.98	-53.4	-68.3	3.8	1.49e+00	0	41	104	418381824	78	19913
2026-01-22 07:49:06.41	337.54	15.88	-53.4	-68.4	3.8	1.49e+00	0	41	104	418381824	78	20274
2026-01-22 07:49:07.42	337.43	15.79	-53.4	-68.4	3.8	1.49e+00	0	41	104	418381824	78	20237
2026-01-22 07:49:08.43	337.33	15.69	-53.4	-68.4	3.8	1.49e+00	0	41	104	418381824	78	20215
2026-01-22 07:49:09.44	337.22	15.59	-53.4	-68.3	3.8	1.49e+00	0	41	104	418381824	78	19928
2026-01-22 07:49:10.44	337.11	15.50	-53.4	-68.4	3.8	1.49e+00	0	41	104	418381824	78	20187
2026-01-22 07:49:11.45	337.01	15.40	-53.4	-68.4	3.8	1.49e+00	0	41	104	418381824	78	20214
2026-01-22 07:49:12.46	336.90	15.31	-53.4	-68.4	3.8	1.49e+00	0	41	104	418381824	78	20196
2026-01-22 07:49:13.47	336.80	15.21	-53.4	-68.3	3.8	1.49e+00	0	41	104	418381824	78	19936
2026-01-22 07:49:14.48	336.70	15.12	-53.4	-68.4	3.8	1.49e+00	0	41	104	418381824	78	20141
2026-01-22 07:49:15.48	336.59	15.03	-53.4	-68.4	3.8	1.49e+00	0	41	104	418381824	78	20083
2026-01-22 07:49:16.49	336.49	14.93	-53.4	-68.4	3.8	1.49e+00	0	41	104	418381824	78	20139
2026-01-22 07:49:17.50	336.39	14.84	-53.4	-68.3	3.8	1.49e+00	0	41	104	418381824	78	19919
2026-01-22 07:49:18.51	336.29	14.75	-53.4	-68.4	3.8	1.49e+00	0	41	104	418381824	78	20133
2026-01-22 07:49:19.52	336.19	14.65	-53.4	-68.3	3.8	1.49e+00	0	41	104	418381824	78	20067
2026-01-22 07:49:20.52	336.09	14.56	-53.4	-68.4	3.8	1.49e+00	0	41	104	418381824	78	20132
2026-01-22 07:49:21.53	335.99	14.47	-53.4	-68.3	3.8	1.49e+00	0	41	104	418381824	78	19956
2026-01-22 07:49:22.54	335.89	14.38	-53.4	-68.3	3.8	1.49e+00	0	41	104	418381824	78	20070
2026-01-22 07:49:23.55	335.79	14.28	-53.4	-68.3	3.8	1.49e+00	0	41	104	418381824	78	20063
2026-01-22 07:49:24.55	335.70	14.19	-53.4	-68.4	3.8	1.49e+00	0	41	104	418381824	78	20074
2026-01-22 07:49:25.56	335.60	14.10	-53.4	-68.3	3.8	1.49e+00	0	41	104	418381824	78	19951
2026-01-22 07:49:26.57	335.51	14.01	-53.4	-68.3	3.8	1.49e+00	0	41	104	418381824	78	20049
2026-01-22 07:49:27.58	335.41	13.92	-53.3	-68.3	3.8	1.49e+00	0	41	104	418381824	78	19969
2026-01-22 07:49:28.59	335.32	13.83	-53.3	-68.3	3.8	1.49e+00	0	41	104	418381824	78	20045
2026-01-22 07:49:29.59	335.22	13.74	-53.4	-68.3	3.8	1.49e+00	0	41	104	418381824	78	19952
2026-01-22 07:49:30.60	335.13	13.65	-53.3	-68.3	3.8	1.49e+00	0	41	104	418381824	78	20040
2026-01-22 07:49:31.61	335.04	13.56	-53.3	-68.3	3.8	1.49e+00	0	41	104	418381824	78	19947
2026-01-22 07:49:32.62	334.94	13.47	-53.3	-68.3	3.8	1.49e+00	0	41	104	418381824	78	20039
2026-01-22 07:49:33.62	334.85	13.38	-53.3	-68.3	3.8	1.49e+00	0	41	104	418381824	78	19910
2026-01-22 07:49:34.63	334.76	13.29	-53.3	-68.3	3.8	1.49e+00	0	41	104	418381824	78	20034
2026-01-22 07:49:35.64	334.67	13.20	-53.3	-68.3	3.8	1.49e+00	0	41	104	418381824	78	19916
2026-01-22 07:49:36.65	334.58	13.11	-53.3	-68.3	3.8	1.49e+00	0	41	104	418381824	78	19994
2026-01-22 07:49:37.66	334.49	13.02	-53.3	-68.3	3.8	1.49e+00	0	41	104	418381824	78	19967
2026-01-22 07:49:38.66	334.40	12.93	-53.3	-68.3	3.8	1.49e+00	0	41	104	418381824	78	19897
2026-01-22 07:49:39.67	334.32	12.85	-53.3	-68.3	3.8	1.49e+00	0	41	104	418381824	78	19844
2026-01-22 07:49:40.68	334.23	12.76	-53.3	-68.3	3.8	1.49e+00	0	41	104	418381824	78	19895
2026-01-22 07:49:41.69	334.14	12.67	-53.3	-68.3	3.8	1.49e+00	0	41	104	418381824	78	19899
2026-01-22 07:49:42.70	334.05	12.58	-53.3	-68.3	3.8	1.49e+00	0	41	104	418381824	78	19864
2026-01-22 07:49:43.70	333.97	12.50	-53.3	-68.2	3.8	1.49e+00	0	41	104	418381824	78	19729
2026-01-22 07:49:44.71	333.88	12.41	-53.3	-68.3	3.8	1.49e+00	0	41	104	418381824	78	19886
2026-01-22 07:49:45.72	333.80	12.32	-53.3	-68.3	3.8	1.49e+00	0	41	104	418381824	78	19855
2026-01-22 07:49:46.73	333.71	12.24	-53.3	-68.2	3.8	1.49e+00	0	41	104	418381824	78	19814
2026-01-22 07:49:47.74	333.63	12.15	-53.2	-68.2	3.8	1.49e+00	0	41	104	418381824	78	19738
2026-01-22 07:49:48.75	333.55	12.07	-53.3	-68.3	3.8	1.49e+00	0	41	104	418381824	78	19865
2026-01-22 07:49:49.76	333.46	11.98	-53.3	-68.3	3.8	1.49e+00	0	41	104	418381824	78	19857
2026-01-22 07:49:50.76	333.38	11.89	-53.2	-68.2	3.8	1.49e+00	0	41	104	418381824	78	19780
2026-01-22 07:49:51.77	333.30	11.81	-53.2	-68.2	3.8	1.49e+00	0	41	104	418381824	78	19640
2026-01-22 07:49:52.78	333.22	11.72	-53.2	-68.3	3.8	1.49e+00	0	41	104	418381824	78	19842
2026-01-22 07:49:53.79	333.14	11.64	-53.3	-68.2	3.8	1.49e+00	0	41	104	418381824	78	19824
2026-01-22 07:49:54.80	333.06	11.56	-53.2	-68.2	3.8	1.49e+00	0	41	104	418381824	78	19737
2026-01-22 07:49:55.80	332.98	11.47	-53.2	-68.1	3.8	1.49e+00	0	41	104	418381824	78	19614
