passes_logs/2026/01/22/R3.2S_Murmansk/R3.2S_Murmansk__20260122_040021_SUOMI_NPP_rec.log

#Pass ID: 20260122_040021_SUOMI NPP
#Satellite: SUOMI NPP
#Configuration: NPP
#almurnet v.1.7.20251203
#Start time: 2026-01-22 04:00:21

#Version: 2.2.20231116
#Station: R3.2S_Murmansk
#Location: 33.079688 lon 68.888172 lat
#TLE: 1 37849U 11061A   26021.51818991  .00000201  00000+0  11636-3 0  9995
#TLE: 2 37849  98.7819 323.5108 0002300  52.3548 307.7836 14.19527793737637

#Time	Az	El	Level	Level2	SNR	BER	BlckErr	Temp	State	Recorded	gain1	gain2
2026-01-22 04:00:21.77	46.33	2.04	-49.9	-64.8	3.8	1.49e+00	0	39	0	0	70	21243
2026-01-22 04:00:22.77	46.27	2.10	-49.9	-64.9	3.8	1.49e+00	0	39	104	0	70	21293
2026-01-22 04:00:23.77	46.21	2.16	-49.9	-64.8	3.8	1.49e+00	0	39	104	0	70	21250
2026-01-22 04:00:24.78	46.15	2.22	-49.9	-64.8	3.8	1.49e+00	0	39	104	0	70	21226
2026-01-22 04:00:25.79	46.09	2.27	-49.9	-64.8	3.8	1.49e+00	0	39	104	0	70	21232
2026-01-22 04:00:26.80	46.03	2.33	-49.9	-64.8	3.8	1.49e+00	0	39	104	0	70	21212
2026-01-22 04:00:27.81	45.97	2.39	-49.9	-64.8	3.8	1.49e+00	0	39	104	0	70	21196
2026-01-22 04:00:28.81	45.91	2.45	-49.9	-64.8	3.8	1.49e+00	0	39	104	0	70	21185
2026-01-22 04:00:29.82	45.85	2.51	-49.9	-64.8	3.8	1.49e+00	0	39	104	0	70	21199
2026-01-22 04:00:30.83	45.79	2.57	-49.9	-64.9	3.8	1.49e+00	0	39	104	0	70	21263
2026-01-22 04:00:31.84	45.73	2.63	-49.9	-64.8	3.8	1.49e+00	0	39	104	0	70	21197
2026-01-22 04:00:32.85	45.67	2.69	-49.9	-64.8	3.8	1.49e+00	0	39	104	0	70	21250
2026-01-22 04:00:33.85	45.61	2.75	-49.9	-64.8	3.8	1.49e+00	0	39	104	0	70	21202
2026-01-22 04:00:34.86	45.54	2.81	-49.9	-64.8	3.8	1.49e+00	0	39	104	0	70	21216
2026-01-22 04:00:35.87	45.48	2.87	-49.9	-64.8	3.8	1.49e+00	0	39	104	0	70	21255
2026-01-22 04:00:36.88	45.42	2.93	-49.9	-64.8	3.8	1.49e+00	0	39	104	0	70	21223
2026-01-22 04:00:37.88	45.36	2.99	-49.9	-64.8	3.8	1.49e+00	0	39	104	0	70	21190
2026-01-22 04:00:38.89	45.29	3.05	-49.9	-64.8	3.8	1.49e+00	0	39	104	0	70	21228
2026-01-22 04:00:39.90	45.23	3.11	-49.9	-64.8	3.8	1.49e+00	0	39	104	0	70	21183
2026-01-22 04:00:40.91	45.17	3.17	-49.9	-64.8	3.8	1.49e+00	0	39	104	0	70	21232
2026-01-22 04:00:41.92	45.10	3.23	-49.9	-64.8	3.8	1.49e+00	0	39	104	0	70	21228
2026-01-22 04:00:42.93	45.04	3.29	-49.9	-64.8	3.8	1.49e+00	0	39	104	0	70	21247
2026-01-22 04:00:43.93	44.98	3.35	-49.9	-64.8	3.8	1.49e+00	0	39	104	0	70	21251
2026-01-22 04:00:44.94	44.91	3.41	-49.9	-64.8	3.8	1.49e+00	0	39	104	0	70	21182
2026-01-22 04:00:45.95	44.85	3.47	-49.9	-64.8	3.8	1.49e+00	0	39	104	0	70	21166
2026-01-22 04:00:46.96	44.78	3.53	-49.9	-64.8	3.8	1.49e+00	0	39	104	0	70	21254
2026-01-22 04:00:47.97	44.71	3.59	-49.9	-64.8	3.8	1.49e+00	0	39	104	0	70	21219
2026-01-22 04:00:48.98	44.65	3.65	-49.9	-64.8	3.8	1.49e+00	0	39	104	0	70	21227
2026-01-22 04:00:49.99	44.58	3.71	-49.9	-64.8	3.8	1.49e+00	0	40	104	0	70	21237
2026-01-22 04:00:50.99	44.52	3.77	-49.9	-64.8	3.8	1.49e+00	0	40	104	0	70	21229
2026-01-22 04:00:52.01	44.45	3.83	-49.9	-64.8	3.8	1.49e+00	0	39	104	0	70	21197
2026-01-22 04:00:53.01	44.38	3.90	-49.9	-64.8	3.8	1.49e+00	0	40	104	0	70	21237
2026-01-22 04:00:54.02	44.32	3.96	-49.9	-64.8	3.8	1.49e+00	0	40	104	0	70	21249
2026-01-22 04:00:55.03	44.25	4.02	-49.9	-64.9	3.8	1.49e+00	0	40	104	0	70	21272
2026-01-22 04:00:56.04	44.18	4.08	-49.9	-64.8	3.8	1.49e+00	0	40	104	0	70	21216
2026-01-22 04:00:57.05	44.11	4.14	-49.9	-64.8	3.8	1.49e+00	0	40	104	0	70	21259
2026-01-22 04:00:58.05	44.04	4.20	-49.9	-64.8	3.8	1.49e+00	0	40	104	0	70	21191
2026-01-22 04:00:59.06	43.97	4.26	-49.9	-64.8	3.8	1.49e+00	0	40	104	0	70	21235
2026-01-22 04:01:00.07	43.91	4.33	-49.9	-64.8	3.8	1.49e+00	0	40	104	0	70	21250
2026-01-22 04:01:01.08	43.84	4.39	-49.9	-64.9	3.8	1.49e+00	0	40	104	0	70	21261
2026-01-22 04:01:02.09	43.77	4.45	-49.9	-64.8	3.8	1.49e+00	0	40	104	0	70	21231
2026-01-22 04:01:03.09	43.70	4.51	-49.9	-64.8	3.8	1.49e+00	0	40	104	0	70	21239
2026-01-22 04:01:04.10	43.63	4.58	-49.9	-64.8	3.8	1.49e+00	0	40	104	0	70	21234
2026-01-22 04:01:05.11	43.56	4.64	-49.9	-64.9	3.8	1.49e+00	0	40	104	0	70	21268
2026-01-22 04:01:06.12	43.48	4.70	-49.9	-64.8	3.8	1.49e+00	0	40	104	0	70	21234
2026-01-22 04:01:07.13	43.41	4.76	-49.9	-64.9	3.8	1.49e+00	0	40	104	0	70	21290
2026-01-22 04:01:08.14	43.34	4.83	-49.9	-64.8	3.8	1.49e+00	0	40	104	0	70	21189
2026-01-22 04:01:09.15	43.27	4.89	-49.9	-64.8	3.8	1.49e+00	0	40	104	0	70	21218
2026-01-22 04:01:10.16	43.20	4.95	-49.9	-64.8	3.8	1.49e+00	0	40	104	0	70	21221
2026-01-22 04:01:11.17	43.12	5.02	-49.9	-64.8	3.8	1.49e+00	0	40	104	0	70	21255
2026-01-22 04:01:12.17	43.05	5.08	-49.9	-64.8	3.8	1.49e+00	0	40	104	0	70	21246
2026-01-22 04:01:13.18	42.98	5.14	-49.9	-64.8	3.8	1.49e+00	0	40	104	0	70	21227
2026-01-22 04:01:14.19	42.90	5.21	-49.9	-64.8	3.8	1.49e+00	0	40	104	0	70	21242
2026-01-22 04:01:15.19	42.83	5.27	-49.9	-64.8	3.8	1.49e+00	0	40	104	0	70	21199
2026-01-22 04:01:16.21	42.76	5.33	-49.9	-64.8	3.8	1.49e+00	0	40	104	0	70	21183
2026-01-22 04:01:17.21	42.68	5.40	-49.9	-64.8	3.8	1.49e+00	0	40	104	0	70	21231
2026-01-22 04:01:18.22	42.61	5.46	-49.9	-64.9	3.8	1.49e+00	0	40	104	0	70	21272
2026-01-22 04:01:19.23	42.53	5.52	-49.9	-64.8	3.8	1.49e+00	0	40	104	0	70	21226
2026-01-22 04:01:20.24	42.46	5.59	-49.9	-64.8	3.8	1.49e+00	0	40	104	0	70	21240
2026-01-22 04:01:21.25	42.38	5.65	-49.9	-64.9	3.8	1.49e+00	0	40	104	0	70	21276
2026-01-22 04:01:22.26	42.30	5.72	-49.9	-64.9	3.8	1.49e+00	0	40	104	0	70	21286
2026-01-22 04:01:23.26	42.23	5.78	-49.9	-64.9	3.8	1.49e+00	0	40	104	0	70	21265
2026-01-22 04:01:24.27	42.15	5.85	-49.9	-64.8	3.8	1.49e+00	0	40	104	0	70	21224
2026-01-22 04:01:25.28	42.07	5.91	-49.9	-64.8	3.8	1.49e+00	0	40	104	0	70	21207
2026-01-22 04:01:26.29	41.99	5.98	-49.9	-64.8	3.8	1.49e+00	0	40	104	0	70	21217
2026-01-22 04:01:27.30	41.92	6.04	-49.9	-64.8	3.8	1.49e+00	0	40	104	0	70	21240
2026-01-22 04:01:28.31	41.84	6.11	-49.9	-64.8	3.8	1.49e+00	0	40	104	0	70	21252
2026-01-22 04:01:29.32	41.76	6.17	-49.9	-64.8	3.8	1.49e+00	0	40	104	0	70	21214
2026-01-22 04:01:30.33	41.68	6.24	-49.9	-64.8	3.8	1.49e+00	0	40	104	0	70	21225
2026-01-22 04:01:31.34	41.60	6.30	-49.9	-64.8	3.8	1.49e+00	0	40	104	0	70	21240
2026-01-22 04:01:32.35	41.52	6.37	-49.9	-64.8	3.8	1.49e+00	0	40	104	0	70	21241
2026-01-22 04:01:33.36	41.44	6.43	-49.9	-64.9	3.8	1.49e+00	0	40	104	0	70	21269
2026-01-22 04:01:34.37	41.36	6.50	-49.9	-64.8	3.8	1.49e+00	0	40	104	0	70	21248
2026-01-22 04:01:35.37	41.28	6.56	-49.9	-64.9	3.8	1.49e+00	0	40	104	0	70	21278
2026-01-22 04:01:36.38	41.20	6.63	-49.9	-64.8	3.8	1.49e+00	0	40	104	0	70	21219
2026-01-22 04:01:37.39	41.11	6.70	-49.9	-64.9	3.8	1.49e+00	0	40	104	0	70	21262
2026-01-22 04:01:38.40	41.03	6.76	-49.9	-64.8	3.8	1.49e+00	0	40	104	0	70	21232
2026-01-22 04:01:39.41	40.95	6.83	-49.9	-64.8	3.8	1.49e+00	0	40	104	0	70	21235
2026-01-22 04:01:40.42	40.87	6.89	-49.9	-64.8	3.8	1.49e+00	0	40	104	0	70	21252
2026-01-22 04:01:41.43	40.78	6.96	-49.9	-64.8	3.8	1.49e+00	0	40	104	0	70	21224
2026-01-22 04:01:42.43	40.70	7.03	-49.9	-64.8	3.8	1.49e+00	0	40	104	0	70	21246
2026-01-22 04:01:43.44	40.61	7.09	-49.9	-64.8	3.8	1.49e+00	0	40	104	0	70	21246
2026-01-22 04:01:44.45	40.53	7.16	-49.9	-64.8	3.8	1.49e+00	0	40	104	0	70	21228
2026-01-22 04:01:45.46	40.44	7.23	-49.9	-64.8	3.8	1.49e+00	0	40	104	0	70	21253
2026-01-22 04:01:46.47	40.36	7.29	-49.9	-64.9	3.8	1.49e+00	0	40	104	0	70	21267
2026-01-22 04:01:47.48	40.27	7.36	-49.9	-64.8	3.8	1.49e+00	0	40	104	0	70	21212
2026-01-22 04:01:48.49	40.19	7.43	-49.9	-64.8	3.8	1.49e+00	0	40	104	0	70	21218
2026-01-22 04:01:49.49	40.10	7.50	-49.9	-64.8	3.8	1.49e+00	0	40	104	0	70	21256
2026-01-22 04:01:50.50	40.01	7.56	-49.9	-64.8	3.8	1.49e+00	0	41	104	0	70	21223
2026-01-22 04:01:51.51	39.93	7.63	-49.9	-64.9	3.8	1.49e+00	0	40	104	0	70	21269
2026-01-22 04:01:52.52	39.84	7.70	-49.9	-64.8	3.8	1.49e+00	0	40	104	0	70	21214
2026-01-22 04:01:53.53	39.75	7.77	-49.9	-64.9	3.8	1.49e+00	0	40	104	0	70	21283
2026-01-22 04:01:54.54	39.66	7.83	-49.9	-64.8	3.8	1.49e+00	0	40	104	0	70	21191
2026-01-22 04:01:55.55	39.57	7.90	-49.9	-64.9	3.8	1.49e+00	0	40	104	0	70	21274
2026-01-22 04:01:56.55	39.48	7.97	-49.9	-64.9	3.8	1.49e+00	0	40	104	0	70	21286
2026-01-22 04:01:57.56	39.39	8.04	-49.9	-64.9	3.8	1.49e+00	0	40	104	0	70	21274
2026-01-22 04:01:58.57	39.30	8.11	-49.9	-64.8	3.8	1.49e+00	0	40	104	0	70	21243
2026-01-22 04:01:59.58	39.21	8.17	-49.9	-64.9	3.8	1.49e+00	0	40	104	0	70	21273
2026-01-22 04:02:00.59	39.12	8.24	-49.9	-64.8	3.8	1.49e+00	0	40	104	0	70	21259
2026-01-22 04:02:01.59	39.03	8.31	-49.9	-64.8	3.8	1.49e+00	0	40	104	0	70	21249
2026-01-22 04:02:02.60	38.93	8.38	-49.9	-64.8	3.8	1.49e+00	0	40	104	0	70	21209
2026-01-22 04:02:03.61	38.84	8.45	-49.9	-64.8	3.8	1.49e+00	0	40	104	0	70	21231
2026-01-22 04:02:04.62	38.75	8.52	-49.9	-64.8	3.8	1.49e+00	0	40	104	0	70	21202
2026-01-22 04:02:05.63	38.65	8.59	-49.9	-64.9	3.8	1.49e+00	0	40	104	0	70	21273
2026-01-22 04:02:06.63	38.56	8.66	-49.9	-64.8	3.8	1.49e+00	0	40	104	0	70	21241
2026-01-22 04:02:07.64	38.47	8.73	-49.9	-64.8	3.8	1.49e+00	0	40	104	0	70	21256
2026-01-22 04:02:08.65	38.37	8.80	-49.9	-64.8	3.8	1.49e+00	0	40	104	0	70	21228
2026-01-22 04:02:09.66	38.27	8.87	-49.9	-64.8	3.8	1.49e+00	0	40	104	0	70	21244
2026-01-22 04:02:10.67	38.18	8.94	-49.9	-64.8	3.8	1.49e+00	0	41	104	0	70	21237
2026-01-22 04:02:11.68	38.08	9.00	-49.9	-64.8	3.8	1.49e+00	0	40	104	0	70	21252
2026-01-22 04:02:12.69	37.98	9.07	-49.9	-64.9	3.8	1.49e+00	0	40	104	0	70	21346
2026-01-22 04:02:13.69	37.89	9.14	-49.9	-64.8	3.8	1.49e+00	0	40	104	0	70	21220
2026-01-22 04:02:14.70	37.79	9.21	-49.9	-64.8	3.8	1.49e+00	0	40	104	0	70	21256
2026-01-22 04:02:15.71	37.69	9.29	-49.9	-64.9	3.8	1.49e+00	0	40	104	0	70	21286
2026-01-22 04:02:16.72	37.59	9.36	-49.9	-64.8	3.8	1.49e+00	0	40	104	0	70	21244
2026-01-22 04:02:17.73	37.49	9.43	-49.9	-64.9	3.8	1.49e+00	0	40	104	0	70	21279
2026-01-22 04:02:18.73	37.39	9.50	-49.9	-64.8	3.8	1.49e+00	0	41	104	0	70	21207
2026-01-22 04:02:19.74	37.29	9.57	-49.9	-64.9	3.8	1.49e+00	0	40	104	0	70	21274
2026-01-22 04:02:20.75	37.19	9.64	-49.9	-64.9	3.8	1.49e+00	0	40	104	0	70	21277
2026-01-22 04:02:21.76	37.09	9.71	-49.9	-64.8	3.8	1.49e+00	0	40	104	0	70	21242
2026-01-22 04:02:22.77	36.99	9.78	-49.9	-64.9	3.8	1.49e+00	0	40	104	0	70	21315
2026-01-22 04:02:23.77	36.89	9.85	-49.9	-64.9	3.8	1.49e+00	0	40	104	0	70	21280
2026-01-22 04:02:24.78	36.78	9.92	-49.9	-64.8	3.8	1.49e+00	0	40	104	0	70	21211
2026-01-22 04:02:25.79	36.68	9.99	-49.9	-64.8	3.8	1.49e+00	0	41	104	0	70	21243
2026-01-22 04:02:26.80	36.57	10.07	-49.9	-64.9	3.8	1.49e+00	0	40	104	0	70	21296
2026-01-22 04:02:27.81	36.47	10.14	-49.9	-64.8	3.8	1.49e+00	0	40	104	0	70	21255
2026-01-22 04:02:28.82	36.36	10.21	-49.9	-64.8	3.8	1.49e+00	0	40	104	0	70	21242
2026-01-22 04:02:29.82	36.26	10.28	-49.9	-64.8	3.8	1.49e+00	0	40	104	0	70	21220
2026-01-22 04:02:30.84	36.15	10.35	-49.9	-64.8	3.8	1.49e+00	0	40	104	0	70	21229
2026-01-22 04:02:31.84	36.05	10.42	-49.9	-64.8	3.8	1.49e+00	0	40	104	0	70	21260
2026-01-22 04:02:32.85	35.94	10.50	-49.9	-64.8	3.8	1.49e+00	0	41	104	0	70	21226
2026-01-22 04:02:33.86	35.83	10.57	-49.9	-64.8	3.8	1.49e+00	0	40	104	0	70	21228
2026-01-22 04:02:34.87	35.72	10.64	-49.9	-64.9	3.8	1.49e+00	0	40	104	0	70	21271
2026-01-22 04:02:35.88	35.61	10.71	-49.9	-64.8	3.8	1.49e+00	0	40	104	0	70	21194
2026-01-22 04:02:36.89	35.50	10.79	-49.9	-64.9	3.8	1.49e+00	0	41	104	0	70	21319
2026-01-22 04:02:37.89	35.39	10.86	-49.9	-64.9	3.8	1.49e+00	0	41	104	0	70	21264
2026-01-22 04:02:38.90	35.28	10.93	-49.9	-64.8	3.8	1.49e+00	0	40	104	0	70	21230
2026-01-22 04:02:39.91	35.17	11.01	-49.9	-64.8	3.8	1.49e+00	0	40	104	0	70	21241
2026-01-22 04:02:40.92	35.06	11.08	-49.9	-64.8	3.8	1.49e+00	0	40	104	0	70	21231
2026-01-22 04:02:41.93	34.95	11.15	-49.9	-64.8	3.8	1.49e+00	0	40	104	0	70	21212
2026-01-22 04:02:42.94	34.83	11.23	-49.9	-64.8	3.8	1.49e+00	0	40	104	0	70	21252
2026-01-22 04:02:43.94	34.72	11.30	-49.9	-64.8	3.8	1.49e+00	0	40	104	0	70	21254
2026-01-22 04:02:44.95	34.61	11.37	-49.9	-64.8	3.8	1.49e+00	0	40	104	0	70	21208
2026-01-22 04:02:45.96	34.49	11.45	-49.9	-64.9	3.8	1.49e+00	0	40	104	0	70	21276
2026-01-22 04:02:46.97	34.38	11.52	-49.9	-64.8	3.8	1.49e+00	0	41	104	0	70	21224
2026-01-22 04:02:47.97	34.26	11.59	-49.9	-64.8	3.8	1.49e+00	0	41	104	0	70	21234
2026-01-22 04:02:48.98	34.15	11.67	-49.9	-64.9	3.8	1.49e+00	0	40	104	0	70	21314
2026-01-22 04:02:49.99	34.03	11.74	-49.9	-64.8	3.8	1.49e+00	0	41	104	0	70	21251
2026-01-22 04:02:51.00	33.91	11.81	-49.9	-64.8	3.8	1.49e+00	0	40	104	0	70	21212
2026-01-22 04:02:52.01	33.79	11.89	-49.9	-64.9	3.8	1.49e+00	0	40	104	0	70	21305
2026-01-22 04:02:53.01	33.67	11.96	-49.9	-64.8	3.8	1.49e+00	0	40	104	0	70	21254
2026-01-22 04:02:54.02	33.55	12.04	-49.9	-64.9	3.8	1.49e+00	0	40	104	0	70	21310
2026-01-22 04:02:55.03	33.43	12.11	-49.9	-64.9	3.8	1.49e+00	0	41	104	0	70	21298
2026-01-22 04:02:56.04	33.31	12.19	-49.9	-64.9	3.8	1.49e+00	0	40	104	0	70	21265
2026-01-22 04:02:57.05	33.19	12.26	-49.9	-64.8	3.8	1.49e+00	0	40	104	0	70	21211
2026-01-22 04:02:58.05	33.07	12.34	-49.9	-64.8	3.8	1.49e+00	0	40	104	0	70	21229
2026-01-22 04:02:59.06	32.95	12.41	-49.9	-64.9	3.8	1.49e+00	0	41	104	0	70	21265
2026-01-22 04:03:00.07	32.82	12.49	-49.9	-64.9	3.8	1.49e+00	0	41	104	0	70	21283
2026-01-22 04:03:01.08	32.70	12.56	-49.9	-64.9	3.8	1.49e+00	0	41	104	0	70	21300
2026-01-22 04:03:02.09	32.57	12.64	-49.9	-64.9	3.8	1.49e+00	0	41	104	0	70	21270
2026-01-22 04:03:03.10	32.45	12.71	-49.9	-64.9	3.8	1.49e+00	0	41	104	0	70	21279
2026-01-22 04:03:04.11	32.32	12.79	-49.9	-64.9	3.8	1.49e+00	0	40	104	0	70	21324
2026-01-22 04:03:05.12	32.20	12.86	-49.9	-64.9	3.8	1.49e+00	0	40	104	0	70	21286
2026-01-22 04:03:06.13	32.07	12.94	-49.9	-64.8	3.8	1.49e+00	0	41	104	0	70	21252
2026-01-22 04:03:07.14	31.94	13.02	-49.9	-64.9	3.8	1.49e+00	0	41	104	0	70	21304
2026-01-22 04:03:08.15	31.81	13.09	-49.9	-64.9	3.8	1.49e+00	0	41	104	0	70	21273
2026-01-22 04:03:09.15	31.68	13.17	-49.9	-64.9	3.8	1.49e+00	0	40	104	0	70	21308
2026-01-22 04:03:10.16	31.55	13.24	-49.9	-64.9	3.8	1.49e+00	0	41	104	0	70	21265
2026-01-22 04:03:11.17	31.42	13.32	-49.9	-64.8	3.8	1.49e+00	0	41	104	0	70	21245
2026-01-22 04:03:12.18	31.29	13.39	-49.9	-64.8	3.8	1.49e+00	0	40	104	0	70	21219
2026-01-22 04:03:13.19	31.16	13.47	-49.9	-64.9	3.8	1.49e+00	0	40	104	0	70	21304
2026-01-22 04:03:14.20	31.03	13.55	-49.9	-64.8	3.8	1.49e+00	0	41	104	0	70	21242
2026-01-22 04:03:15.21	30.89	13.62	-49.9	-64.8	3.8	1.49e+00	0	40	104	0	70	21257
2026-01-22 04:03:16.22	30.76	13.70	-49.9	-64.9	3.8	1.49e+00	0	41	104	0	70	21293
2026-01-22 04:03:17.23	30.62	13.78	-49.9	-64.9	3.8	1.49e+00	0	40	104	0	70	21268
2026-01-22 04:03:18.23	30.49	13.85	-49.9	-64.8	3.8	1.49e+00	0	41	104	0	70	21260
2026-01-22 04:03:19.24	30.35	13.93	-49.9	-64.8	3.8	1.49e+00	0	41	104	0	70	21257
2026-01-22 04:03:20.25	30.21	14.01	-49.9	-64.8	3.8	1.49e+00	0	41	104	0	70	21229
2026-01-22 04:03:21.26	30.08	14.08	-49.9	-64.8	3.8	1.49e+00	0	41	104	0	70	21228
2026-01-22 04:03:22.27	29.94	14.16	-49.9	-64.9	3.8	1.49e+00	0	40	104	0	70	21289
2026-01-22 04:03:23.28	29.80	14.24	-49.9	-64.8	3.8	1.49e+00	0	41	104	0	70	21226
2026-01-22 04:03:24.29	29.66	14.32	-49.9	-64.9	3.8	1.49e+00	0	41	104	0	70	21266
2026-01-22 04:03:25.30	29.52	14.39	-49.9	-64.8	3.8	1.49e+00	0	40	104	0	70	21222
2026-01-22 04:03:26.30	29.38	14.47	-49.9	-64.9	3.8	1.49e+00	0	41	104	0	70	21310
2026-01-22 04:03:27.31	29.23	14.55	-49.9	-64.8	3.8	1.49e+00	0	41	104	0	70	21255
2026-01-22 04:03:28.32	29.09	14.62	-49.9	-64.9	3.8	1.49e+00	0	40	104	0	70	21284
2026-01-22 04:03:29.33	28.95	14.70	-49.9	-64.9	3.8	1.49e+00	0	40	104	0	70	21278
2026-01-22 04:03:30.34	28.80	14.78	-49.9	-64.8	3.8	1.49e+00	0	40	104	0	70	21258
2026-01-22 04:03:31.35	28.66	14.86	-49.9	-64.9	3.8	1.49e+00	0	41	104	0	70	21262
2026-01-22 04:03:32.36	28.51	14.93	-49.9	-64.9	3.8	1.49e+00	0	41	104	0	70	21267
2026-01-22 04:03:33.37	28.36	15.01	-49.9	-64.8	3.8	1.49e+00	0	41	104	0	70	21239
2026-01-22 04:03:34.37	28.22	15.09	-49.9	-64.8	3.8	1.49e+00	0	41	104	0	70	21227
2026-01-22 04:03:35.38	28.07	15.17	-49.9	-64.9	3.8	1.49e+00	0	41	104	0	70	21265
2026-01-22 04:03:36.39	27.92	15.25	-49.9	-64.9	3.8	1.49e+00	0	41	104	0	70	21289
2026-01-22 04:03:37.40	27.77	15.32	-49.9	-64.8	3.8	1.49e+00	0	41	104	0	70	21249
2026-01-22 04:03:38.41	27.62	15.40	-49.9	-64.9	3.8	1.49e+00	0	41	104	0	70	21286
2026-01-22 04:03:39.42	27.47	15.48	-49.9	-64.8	3.8	1.49e+00	0	40	104	0	70	21245
2026-01-22 04:03:40.43	27.31	15.56	-49.9	-64.9	3.8	1.49e+00	0	40	104	0	70	21329
2026-01-22 04:03:41.43	27.16	15.64	-49.9	-64.8	3.8	1.49e+00	0	41	104	0	70	21241
2026-01-22 04:03:42.44	27.01	15.71	-49.9	-64.9	3.8	1.49e+00	0	41	104	0	70	21311
2026-01-22 04:03:43.45	26.85	15.79	-49.9	-64.8	3.8	1.49e+00	0	40	104	0	70	21190
2026-01-22 04:03:44.46	26.70	15.87	-49.9	-64.9	3.8	1.49e+00	0	41	104	0	70	21269
2026-01-22 04:03:45.46	26.54	15.95	-49.9	-64.8	3.8	1.49e+00	0	40	104	0	70	21238
2026-01-22 04:03:46.47	26.38	16.03	-49.9	-64.9	3.8	1.49e+00	0	41	104	0	70	21301
2026-01-22 04:03:47.48	26.22	16.10	-49.9	-64.9	3.8	1.49e+00	0	41	104	0	70	21290
2026-01-22 04:03:48.49	26.06	16.18	-49.9	-64.9	3.8	1.49e+00	0	41	104	0	70	21298
2026-01-22 04:03:49.50	25.90	16.26	-49.9	-64.9	3.8	1.49e+00	0	40	104	0	70	21271
2026-01-22 04:03:50.51	25.74	16.34	-49.9	-64.9	3.8	1.49e+00	0	41	104	0	70	21261
2026-01-22 04:03:51.51	25.58	16.42	-49.9	-64.8	3.8	1.49e+00	0	40	104	0	70	21230
2026-01-22 04:03:52.52	25.42	16.50	-49.9	-64.8	3.8	1.49e+00	0	40	104	0	70	21232
2026-01-22 04:03:53.53	25.26	16.57	-49.9	-64.8	3.8	1.49e+00	0	41	104	0	70	21250
2026-01-22 04:03:54.54	25.09	16.65	-49.9	-64.9	3.8	1.49e+00	0	41	104	0	70	21272
2026-01-22 04:03:55.55	24.93	16.73	-49.9	-64.8	3.8	1.49e+00	0	41	104	0	70	21259
2026-01-22 04:03:56.55	24.76	16.81	-49.9	-64.9	3.8	1.49e+00	0	40	104	0	70	21323
2026-01-22 04:03:57.56	24.60	16.89	-49.9	-64.9	3.8	1.49e+00	0	40	104	0	70	21329
2026-01-22 04:03:58.57	24.43	16.97	-49.9	-64.9	3.8	1.49e+00	0	41	104	0	70	21270
2026-01-22 04:03:59.58	24.26	17.04	-49.9	-64.9	3.8	1.49e+00	0	41	104	0	70	21312
2026-01-22 04:04:00.59	24.09	17.12	-49.9	-64.8	3.8	1.49e+00	0	41	104	0	70	21259
2026-01-22 04:04:01.60	23.92	17.20	-49.9	-64.9	3.8	1.49e+00	0	41	104	0	70	21295
2026-01-22 04:04:02.61	23.75	17.28	-49.9	-64.8	3.8	1.49e+00	0	41	104	0	70	21223
2026-01-22 04:04:03.62	23.57	17.36	-49.9	-64.8	3.8	1.49e+00	0	40	104	0	70	21187
2026-01-22 04:04:04.63	23.40	17.44	-49.9	-64.9	3.8	1.49e+00	0	41	104	0	70	21288
2026-01-22 04:04:05.63	23.23	17.51	-49.9	-64.9	3.8	1.49e+00	0	41	104	0	70	21284
2026-01-22 04:04:06.64	23.05	17.59	-49.9	-64.9	3.8	1.49e+00	0	41	104	0	70	21295
2026-01-22 04:04:07.65	22.88	17.67	-49.9	-64.8	3.8	1.49e+00	0	41	104	0	70	21241
2026-01-22 04:04:08.66	22.70	17.75	-49.9	-64.9	3.8	1.49e+00	0	41	104	0	70	21267
2026-01-22 04:04:09.67	22.52	17.83	-49.9	-64.9	3.8	1.49e+00	0	40	104	0	70	21337
2026-01-22 04:04:10.67	22.34	17.91	-49.9	-64.9	3.8	1.49e+00	0	41	104	0	70	21280
2026-01-22 04:04:11.68	22.16	17.98	-49.9	-64.8	3.8	1.49e+00	0	40	104	0	70	21251
2026-01-22 04:04:12.69	21.98	18.06	-49.9	-64.8	3.8	1.49e+00	0	41	104	0	70	21204
2026-01-22 04:04:13.70	21.80	18.14	-49.9	-64.9	3.8	1.49e+00	0	41	104	0	70	21278
2026-01-22 04:04:14.71	21.62	18.22	-49.9	-64.8	3.8	1.49e+00	0	40	104	0	70	21219
2026-01-22 04:04:15.72	21.44	18.30	-49.9	-64.8	3.8	1.49e+00	0	41	104	0	70	21257
2026-01-22 04:04:16.73	21.25	18.37	-49.9	-64.9	3.8	1.49e+00	0	41	104	0	70	21315
2026-01-22 04:04:17.74	21.07	18.45	-49.9	-64.9	3.8	1.49e+00	0	41	104	0	70	21291
2026-01-22 04:04:18.75	20.88	18.53	-49.9	-64.9	3.8	1.49e+00	0	40	104	0	70	21280
2026-01-22 04:04:19.75	20.69	18.61	-49.9	-64.8	3.8	1.49e+00	0	41	104	0	70	21225
2026-01-22 04:04:20.76	20.50	18.68	-49.9	-64.9	3.8	1.49e+00	0	41	104	0	70	21300
2026-01-22 04:04:21.77	20.31	18.76	-49.9	-64.9	3.8	1.49e+00	0	41	104	0	70	21272
2026-01-22 04:04:22.78	20.12	18.84	-49.9	-64.9	3.8	1.49e+00	0	41	104	0	70	21270
2026-01-22 04:04:23.79	19.93	18.92	-49.9	-64.8	3.8	1.49e+00	0	40	104	0	70	21258
2026-01-22 04:04:24.79	19.74	18.99	-49.9	-64.9	3.8	1.49e+00	0	40	104	0	70	21285
2026-01-22 04:04:25.80	19.55	19.07	-49.9	-64.9	3.8	1.49e+00	0	41	104	0	70	21264
2026-01-22 04:04:26.81	19.35	19.15	-49.9	-64.9	3.8	1.49e+00	0	41	104	0	70	21261
2026-01-22 04:04:27.82	19.16	19.22	-49.9	-64.8	3.8	1.49e+00	0	41	104	0	70	21255
2026-01-22 04:04:28.83	18.96	19.30	-49.9	-64.9	3.8	1.49e+00	0	40	104	0	70	21281
2026-01-22 04:04:29.84	18.76	19.38	-49.9	-64.8	3.8	1.49e+00	0	41	104	0	70	21198
2026-01-22 04:04:30.84	18.57	19.45	-49.9	-64.9	3.8	1.49e+00	0	41	104	0	70	21272
2026-01-22 04:04:31.85	18.37	19.53	-49.9	-64.9	3.8	1.49e+00	0	41	104	0	70	21314
2026-01-22 04:04:32.86	18.17	19.61	-49.9	-64.8	3.8	1.49e+00	0	41	104	0	70	21234
2026-01-22 04:04:33.87	17.97	19.68	-49.9	-64.9	3.8	1.49e+00	0	41	104	0	70	21322
2026-01-22 04:04:34.88	17.76	19.76	-49.9	-64.8	3.8	1.49e+00	0	41	104	0	70	21205
2026-01-22 04:04:35.89	17.56	19.83	-49.9	-64.8	3.8	1.49e+00	0	41	104	0	70	21185
2026-01-22 04:04:36.89	17.36	19.91	-49.9	-64.8	3.8	1.49e+00	0	41	104	0	70	21250
2026-01-22 04:04:37.90	17.15	19.98	-49.9	-64.9	3.8	1.49e+00	0	41	104	0	70	21286
2026-01-22 04:04:38.91	16.95	20.06	-49.9	-64.9	3.8	1.49e+00	0	41	104	0	70	21294
2026-01-22 04:04:39.92	16.74	20.14	-49.9	-64.9	3.8	1.49e+00	0	41	104	0	70	21274
2026-01-22 04:04:40.93	16.53	20.21	-49.9	-64.9	3.8	1.49e+00	0	41	104	0	70	21294
2026-01-22 04:04:41.94	16.32	20.29	-49.9	-64.9	3.8	1.49e+00	0	41	104	0	70	21304
2026-01-22 04:04:42.95	16.11	20.36	-49.9	-64.9	3.8	1.49e+00	0	41	104	0	70	21271
2026-01-22 04:04:43.96	15.90	20.43	-49.9	-64.9	3.8	1.49e+00	0	41	104	0	70	21274
2026-01-22 04:04:44.97	15.68	20.51	-49.9	-64.9	3.8	1.49e+00	0	41	104	0	70	21277
2026-01-22 04:04:45.97	15.47	20.58	-49.9	-64.9	3.8	1.49e+00	0	41	104	0	70	21268
2026-01-22 04:04:46.98	15.26	20.66	-49.9	-64.9	3.8	1.49e+00	0	40	104	0	70	21278
2026-01-22 04:04:47.99	15.04	20.73	-49.9	-64.9	3.8	1.49e+00	0	41	104	0	70	21265
2026-01-22 04:04:49.00	14.83	20.80	-49.9	-64.9	3.8	1.49e+00	0	41	104	0	70	21309
2026-01-22 04:04:50.01	14.61	20.88	-49.9	-64.9	3.8	1.49e+00	0	41	104	0	70	21277
2026-01-22 04:04:51.02	14.39	20.95	-49.9	-64.8	3.8	1.49e+00	0	41	104	0	70	21239
2026-01-22 04:04:52.03	14.17	21.02	-49.9	-64.9	3.8	1.49e+00	0	41	104	0	70	21289
2026-01-22 04:04:53.04	13.95	21.10	-49.9	-64.9	3.8	1.49e+00	0	41	104	0	70	21267
2026-01-22 04:04:54.04	13.73	21.17	-49.9	-64.9	3.8	1.49e+00	0	41	104	0	70	21350
2026-01-22 04:04:55.05	13.50	21.24	-49.9	-64.8	3.8	1.49e+00	0	41	104	0	70	21247
2026-01-22 04:04:56.06	13.28	21.31	-49.9	-64.9	3.8	1.49e+00	0	41	104	0	70	21289
2026-01-22 04:04:57.07	13.05	21.38	-49.9	-64.9	3.8	1.49e+00	0	41	104	0	70	21286
2026-01-22 04:04:58.08	12.83	21.45	-49.9	-64.9	3.8	1.49e+00	0	41	104	0	70	21270
2026-01-22 04:04:59.09	12.60	21.52	-49.9	-64.9	3.8	1.49e+00	0	41	104	0	70	21301
2026-01-22 04:05:00.10	12.37	21.59	-49.9	-64.9	3.8	1.49e+00	0	41	104	0	70	21286
2026-01-22 04:05:01.11	12.14	21.67	-49.9	-64.8	3.8	1.49e+00	0	41	104	0	70	21245
2026-01-22 04:05:02.11	11.91	21.73	-49.9	-64.8	3.8	1.49e+00	0	41	104	0	70	21260
2026-01-22 04:05:03.12	11.68	21.80	-49.9	-64.9	3.8	1.49e+00	0	41	104	0	70	21292
2026-01-22 04:05:04.13	11.45	21.87	-49.9	-64.9	3.8	1.49e+00	0	40	104	0	70	21277
2026-01-22 04:05:05.14	11.21	21.94	-49.9	-64.9	3.8	1.49e+00	0	41	104	0	70	21282
2026-01-22 04:05:06.15	10.98	22.01	-49.9	-64.9	3.8	1.49e+00	0	41	104	0	70	21309
2026-01-22 04:05:07.15	10.75	22.08	-49.9	-64.8	3.8	1.49e+00	0	41	104	0	70	21249
2026-01-22 04:05:08.16	10.51	22.15	-49.9	-64.8	3.8	1.49e+00	0	41	104	0	70	21244
2026-01-22 04:05:09.17	10.27	22.22	-49.9	-64.8	3.8	1.49e+00	0	41	104	0	70	21232
2026-01-22 04:05:10.18	10.03	22.28	-49.9	-64.9	3.8	1.49e+00	0	41	104	0	70	21281
2026-01-22 04:05:11.19	9.79	22.35	-49.9	-64.8	3.8	1.49e+00	0	41	104	0	70	21253
2026-01-22 04:05:12.20	9.55	22.42	-49.9	-64.9	3.8	1.49e+00	0	41	104	0	70	21293
2026-01-22 04:05:13.21	9.31	22.48	-49.9	-64.9	3.8	1.49e+00	0	41	104	0	70	21264
2026-01-22 04:05:14.22	9.07	22.55	-49.9	-64.9	3.8	1.49e+00	0	41	104	0	70	21286
2026-01-22 04:05:15.23	8.82	22.61	-49.9	-64.9	3.8	1.49e+00	0	41	104	0	70	21281
2026-01-22 04:05:16.23	8.58	22.68	-49.9	-64.9	3.8	1.49e+00	0	41	104	0	70	21348
2026-01-22 04:05:17.24	8.33	22.74	-49.9	-64.9	3.8	1.49e+00	0	41	104	0	70	21333
2026-01-22 04:05:18.25	8.08	22.81	-49.9	-64.9	3.8	1.49e+00	0	41	104	0	70	21293
2026-01-22 04:05:19.26	7.84	22.87	-49.9	-64.9	3.8	1.49e+00	0	41	104	0	70	21320
2026-01-22 04:05:20.27	7.59	22.94	-49.9	-64.9	3.8	1.49e+00	0	41	104	0	70	21345
2026-01-22 04:05:21.27	7.34	23.00	-49.9	-64.9	3.8	1.49e+00	0	41	104	0	70	21294
2026-01-22 04:05:22.28	7.09	23.06	-49.9	-64.9	3.8	1.49e+00	0	41	104	0	70	21292
2026-01-22 04:05:23.29	6.83	23.12	-49.9	-64.8	3.8	1.49e+00	0	41	104	0	70	21257
2026-01-22 04:05:24.30	6.58	23.18	-49.9	-64.9	3.8	1.49e+00	0	41	104	0	70	21292
2026-01-22 04:05:25.31	6.33	23.25	-49.9	-64.8	3.8	1.49e+00	0	41	104	0	70	21248
2026-01-22 04:05:26.31	6.07	23.31	-49.9	-64.9	3.8	1.49e+00	0	41	104	0	70	21296
2026-01-22 04:05:27.32	5.82	23.37	-49.9	-64.9	3.8	1.49e+00	0	41	104	0	70	21312
2026-01-22 04:05:28.33	5.56	23.43	-49.9	-64.9	3.8	1.49e+00	0	41	104	0	70	21298
2026-01-22 04:05:29.34	5.30	23.49	-49.9	-64.9	3.8	1.49e+00	0	41	104	0	70	21284
2026-01-22 04:05:30.35	5.04	23.54	-49.9	-64.9	3.8	1.49e+00	0	41	104	0	70	21300
2026-01-22 04:05:31.36	4.78	23.60	-49.9	-64.9	3.8	1.49e+00	0	41	104	0	70	21272
2026-01-22 04:05:32.36	4.52	23.66	-49.9	-64.8	3.8	1.49e+00	0	41	104	0	70	21239
2026-01-22 04:05:33.37	4.26	23.72	-49.9	-64.9	3.8	1.49e+00	0	41	104	0	70	21288
2026-01-22 04:05:34.38	4.00	23.77	-49.9	-64.8	3.8	1.49e+00	0	41	104	0	70	21240
2026-01-22 04:05:35.39	3.73	23.83	-49.9	-64.9	3.8	1.49e+00	0	41	104	0	70	21265
2026-01-22 04:05:36.40	3.47	23.89	-49.9	-64.9	3.8	1.49e+00	0	41	104	0	70	21357
2026-01-22 04:05:37.41	3.20	23.94	-49.9	-64.8	3.8	1.49e+00	0	41	104	0	70	21248
2026-01-22 04:05:38.42	2.93	24.00	-49.9	-64.9	3.8	1.49e+00	0	41	104	0	70	21328
2026-01-22 04:05:39.43	2.66	24.05	-49.9	-64.9	3.8	1.49e+00	0	41	104	0	70	21280
2026-01-22 04:05:40.43	2.40	24.10	-49.9	-64.9	3.8	1.49e+00	0	41	104	0	70	21270
2026-01-22 04:05:41.44	2.13	24.16	-49.9	-64.8	3.8	1.49e+00	0	41	104	0	70	21240
2026-01-22 04:05:42.45	1.86	24.21	-49.9	-64.9	3.8	1.49e+00	0	41	104	0	70	21275
2026-01-22 04:05:43.46	1.59	24.26	-49.9	-64.9	3.8	1.49e+00	0	41	104	0	70	21297
2026-01-22 04:05:44.47	1.31	24.31	-49.9	-64.8	3.8	1.49e+00	0	41	104	0	70	21205
2026-01-22 04:05:45.48	1.04	24.36	-49.9	-64.9	3.8	1.49e+00	0	41	104	0	70	21263
2026-01-22 04:05:46.49	0.76	24.41	-49.9	-64.8	3.8	1.49e+00	0	41	104	0	70	21259
2026-01-22 04:05:47.50	0.49	24.46	-49.9	-64.9	3.8	1.49e+00	0	40	104	0	70	21303
2026-01-22 04:05:48.51	0.21	24.51	-49.9	-64.9	3.8	1.49e+00	0	41	104	0	70	21315
2026-01-22 04:05:49.51	359.94	24.56	-49.9	-64.8	3.8	1.49e+00	0	41	104	0	70	21250
2026-01-22 04:05:50.52	359.66	24.60	-49.9	-64.9	3.8	1.49e+00	0	41	104	0	70	21294
2026-01-22 04:05:51.53	359.38	24.65	-49.9	-64.9	3.8	1.49e+00	0	41	104	0	70	21280
2026-01-22 04:05:52.54	359.10	24.70	-49.9	-64.9	3.8	1.49e+00	0	41	104	0	70	21334
2026-01-22 04:05:53.55	358.82	24.74	-49.9	-64.9	3.8	1.49e+00	0	41	104	0	70	21305
2026-01-22 04:05:54.56	358.54	24.79	-49.9	-64.9	3.8	1.49e+00	0	41	104	0	70	21280
2026-01-22 04:05:55.56	358.26	24.83	-49.9	-64.9	3.8	1.49e+00	0	41	104	0	70	21275
2026-01-22 04:05:56.57	357.98	24.87	-49.9	-64.8	3.8	1.49e+00	0	40	104	0	70	21257
2026-01-22 04:05:57.58	357.69	24.92	-49.9	-64.9	3.8	1.49e+00	0	41	104	0	70	21273
2026-01-22 04:05:58.59	357.41	24.96	-49.9	-64.9	3.8	1.49e+00	0	41	104	0	70	21292
2026-01-22 04:05:59.60	357.13	25.00	-49.9	-64.9	3.8	1.49e+00	0	41	104	0	70	21270
2026-01-22 04:06:00.61	356.84	25.04	-49.9	-64.9	3.8	1.49e+00	0	41	104	0	70	21284
2026-01-22 04:06:01.61	356.56	25.08	-49.9	-64.9	3.8	1.49e+00	0	41	104	0	70	21285
2026-01-22 04:06:02.62	356.27	25.12	-49.9	-64.8	3.8	1.49e+00	0	41	104	0	70	21246
2026-01-22 04:06:03.63	355.98	25.16	-49.9	-64.9	3.8	1.49e+00	0	41	104	0	70	21264
2026-01-22 04:06:04.64	355.69	25.19	-49.9	-64.9	3.8	1.49e+00	0	41	104	0	70	21319
2026-01-22 04:06:05.64	355.40	25.23	-49.9	-64.9	3.8	1.49e+00	0	41	104	0	70	21325
2026-01-22 04:06:06.65	355.11	25.27	-49.9	-64.9	3.8	1.49e+00	0	41	104	0	70	21298
2026-01-22 04:06:07.66	354.82	25.30	-49.9	-64.9	3.8	1.49e+00	0	41	104	0	70	21262
2026-01-22 04:06:08.67	354.53	25.34	-49.9	-64.9	3.8	1.49e+00	0	41	104	0	70	21298
2026-01-22 04:06:09.68	354.24	25.37	-49.9	-64.9	3.8	1.49e+00	0	41	104	0	70	21280
2026-01-22 04:06:10.69	353.95	25.40	-49.9	-64.9	3.8	1.49e+00	0	41	104	0	70	21277
2026-01-22 04:06:11.69	353.66	25.44	-49.9	-64.9	3.8	1.49e+00	0	41	104	0	70	21284
2026-01-22 04:06:12.70	353.36	25.47	-49.9	-64.8	3.8	1.49e+00	0	40	104	0	70	21214
2026-01-22 04:06:13.71	353.07	25.50	-49.9	-64.9	3.8	1.49e+00	0	41	104	0	70	21265
2026-01-22 04:06:14.72	352.77	25.53	-49.9	-64.9	3.8	1.49e+00	0	41	104	0	70	21267
2026-01-22 04:06:15.73	352.48	25.56	-49.9	-64.8	3.8	1.49e+00	0	40	104	0	70	21258
2026-01-22 04:06:16.73	352.19	25.58	-49.9	-64.8	3.8	1.49e+00	0	41	104	0	70	21258
2026-01-22 04:06:17.75	351.89	25.61	-49.9	-64.9	3.8	1.49e+00	0	41	104	0	70	21301
2026-01-22 04:06:18.75	351.59	25.64	-49.9	-64.9	3.8	1.49e+00	0	41	104	0	70	21308
2026-01-22 04:06:19.76	351.29	25.66	-49.9	-64.9	3.8	1.49e+00	0	41	104	0	70	21374
2026-01-22 04:06:20.77	351.00	25.69	-49.9	-64.9	3.8	1.49e+00	0	41	104	0	70	21304
2026-01-22 04:06:21.78	350.70	25.71	-49.9	-64.9	3.8	1.49e+00	0	41	104	0	70	21319
2026-01-22 04:06:22.79	350.40	25.74	-49.9	-64.9	3.8	1.49e+00	0	41	104	0	70	21284
2026-01-22 04:06:23.79	350.10	25.76	-49.9	-64.9	3.8	1.49e+00	0	41	104	0	70	21291
2026-01-22 04:06:24.80	349.80	25.78	-49.9	-64.9	3.8	1.49e+00	0	41	104	0	70	21276
2026-01-22 04:06:25.81	349.50	25.80	-49.9	-64.9	3.8	1.49e+00	0	41	104	0	70	21269
2026-01-22 04:06:26.82	349.20	25.82	-49.9	-64.8	3.8	1.49e+00	0	41	104	0	70	21256
2026-01-22 04:06:27.83	348.90	25.84	-49.9	-64.8	3.8	1.49e+00	0	41	104	0	70	21246
2026-01-22 04:06:28.83	348.60	25.86	-49.9	-64.8	3.8	1.49e+00	0	41	104	0	70	21251
2026-01-22 04:06:29.84	348.30	25.88	-49.9	-64.9	3.8	1.49e+00	0	41	104	0	70	21341
2026-01-22 04:06:30.85	348.00	25.89	-49.9	-64.8	3.8	1.49e+00	0	41	104	0	70	21258
2026-01-22 04:06:31.86	347.70	25.91	-49.9	-64.9	3.8	1.49e+00	0	41	104	0	70	21303
2026-01-22 04:06:32.87	347.39	25.92	-49.9	-64.9	3.8	1.49e+00	0	41	104	0	70	21319
2026-01-22 04:06:33.87	347.09	25.94	-49.9	-64.9	3.8	1.49e+00	0	41	104	0	70	21349
2026-01-22 04:06:34.88	346.79	25.95	-49.9	-64.9	3.8	1.49e+00	0	41	104	0	70	21299
2026-01-22 04:06:35.89	346.49	25.96	-49.9	-64.9	3.8	1.49e+00	0	41	104	0	70	21311
2026-01-22 04:06:36.90	346.18	25.97	-49.9	-64.9	3.8	1.49e+00	0	41	104	0	70	21315
2026-01-22 04:06:37.91	345.88	25.98	-49.9	-64.9	3.8	1.49e+00	0	41	104	0	70	21317
2026-01-22 04:06:38.92	345.57	25.99	-49.9	-64.9	3.8	1.49e+00	0	41	104	0	70	21266
2026-01-22 04:06:39.93	345.27	26.00	-49.9	-64.8	3.8	1.49e+00	0	41	104	0	70	21241
2026-01-22 04:06:40.94	344.97	26.01	-49.9	-64.8	3.8	1.49e+00	0	41	104	0	70	21249
2026-01-22 04:06:41.95	344.66	26.02	-49.9	-64.9	3.8	1.49e+00	0	41	104	0	70	21310
2026-01-22 04:06:42.96	344.36	26.02	-49.9	-64.9	3.8	1.49e+00	0	41	104	0	70	21261
2026-01-22 04:06:43.97	344.05	26.03	-49.9	-64.9	3.8	1.49e+00	0	41	104	0	70	21300
2026-01-22 04:06:44.97	343.75	26.03	-49.9	-64.9	3.8	1.49e+00	0	41	104	0	70	21320
2026-01-22 04:06:45.98	343.44	26.03	-49.9	-64.8	3.8	1.49e+00	0	41	104	0	70	21260
2026-01-22 04:06:46.99	343.14	26.04	-49.9	-64.9	3.8	1.49e+00	0	41	104	0	70	21378
2026-01-22 04:06:48.00	342.83	26.04	-49.9	-64.9	3.8	1.49e+00	0	41	104	0	70	21293
2026-01-22 04:06:49.01	342.53	26.04	-49.9	-64.8	3.8	1.49e+00	0	41	104	0	70	21258
2026-01-22 04:06:50.01	342.23	26.04	-49.9	-64.9	3.8	1.49e+00	0	41	104	0	70	21338
2026-01-22 04:06:51.02	341.92	26.04	-49.9	-64.8	3.8	1.49e+00	0	41	104	0	70	21241
2026-01-22 04:06:52.03	341.62	26.04	-49.9	-64.9	3.8	1.49e+00	0	41	104	0	70	21334
2026-01-22 04:06:53.04	341.31	26.03	-49.9	-64.9	3.8	1.49e+00	0	41	104	0	70	21261
2026-01-22 04:06:54.05	341.01	26.03	-49.9	-64.8	3.8	1.49e+00	0	41	104	0	70	21248
2026-01-22 04:06:55.05	340.71	26.02	-49.9	-64.9	3.8	1.49e+00	0	41	104	0	70	21287
2026-01-22 04:06:56.06	340.40	26.02	-49.9	-64.9	3.8	1.49e+00	0	41	104	0	70	21303
2026-01-22 04:06:57.07	340.10	26.01	-49.9	-64.9	3.8	1.49e+00	0	41	104	0	70	21312
2026-01-22 04:06:58.08	339.79	26.00	-49.9	-64.9	3.8	1.49e+00	0	41	104	0	70	21286
2026-01-22 04:06:59.09	339.49	26.00	-49.9	-64.9	3.8	1.49e+00	0	41	104	0	70	21273
2026-01-22 04:07:00.09	339.19	25.99	-49.9	-64.9	3.8	1.49e+00	0	41	104	0	70	21312
2026-01-22 04:07:01.10	338.88	25.98	-49.9	-64.9	3.8	1.49e+00	0	41	104	0	70	21323
2026-01-22 04:07:02.11	338.58	25.97	-49.9	-64.9	3.8	1.49e+00	0	41	104	0	70	21321
2026-01-22 04:07:03.12	338.27	25.95	-49.9	-64.9	3.8	1.49e+00	0	41	104	0	70	21301
2026-01-22 04:07:04.12	337.97	25.94	-49.9	-64.9	3.8	1.49e+00	0	41	104	0	70	21270
2026-01-22 04:07:05.13	337.67	25.93	-49.9	-64.9	3.8	1.49e+00	0	41	104	0	70	21281
2026-01-22 04:07:06.14	337.37	25.91	-49.9	-64.9	3.8	1.49e+00	0	41	104	0	70	21288
2026-01-22 04:07:07.15	337.07	25.90	-49.9	-64.9	3.8	1.49e+00	0	41	104	0	70	21267
2026-01-22 04:07:08.15	336.77	25.88	-49.9	-64.9	3.8	1.49e+00	0	41	104	0	70	21271
2026-01-22 04:07:09.16	336.46	25.86	-49.9	-64.8	3.8	1.49e+00	0	41	104	0	70	21260
2026-01-22 04:07:10.17	336.16	25.85	-49.9	-64.8	3.8	1.49e+00	0	41	104	0	70	21254
2026-01-22 04:07:11.18	335.86	25.83	-49.9	-64.8	3.8	1.49e+00	0	41	104	0	70	21244
2026-01-22 04:07:12.19	335.56	25.81	-49.9	-64.9	3.8	1.49e+00	0	41	104	0	70	21326
2026-01-22 04:07:13.20	335.26	25.79	-49.9	-64.9	3.8	1.49e+00	0	41	104	0	70	21286
2026-01-22 04:07:14.21	334.96	25.77	-49.9	-64.9	3.8	1.49e+00	0	40	104	0	70	21296
2026-01-22 04:07:15.21	334.66	25.74	-49.9	-64.9	3.8	1.49e+00	0	41	104	0	70	21279
2026-01-22 04:07:16.22	334.36	25.72	-49.9	-64.9	3.8	1.49e+00	0	41	104	0	70	21282
2026-01-22 04:07:17.23	334.07	25.70	-49.9	-64.9	3.8	1.49e+00	0	41	104	0	70	21270
2026-01-22 04:07:18.24	333.77	25.67	-49.9	-64.8	3.8	1.49e+00	0	41	104	0	70	21257
2026-01-22 04:07:19.25	333.47	25.65	-49.9	-64.9	3.8	1.49e+00	0	41	104	0	70	21324
2026-01-22 04:07:20.25	333.17	25.62	-49.9	-64.9	3.8	1.49e+00	0	41	104	0	70	21275
2026-01-22 04:07:21.26	332.88	25.59	-49.9	-64.9	3.8	1.49e+00	0	41	104	0	70	21277
2026-01-22 04:07:22.27	332.58	25.57	-49.9	-64.9	3.8	1.49e+00	0	40	104	0	70	21288
2026-01-22 04:07:23.28	332.29	25.54	-49.9	-64.9	3.8	1.49e+00	0	41	104	0	70	21278
2026-01-22 04:07:24.29	331.99	25.51	-49.9	-64.8	3.8	1.49e+00	0	41	104	0	70	21258
2026-01-22 04:07:25.30	331.70	25.48	-49.9	-64.9	3.8	1.49e+00	0	41	104	0	70	21338
2026-01-22 04:07:26.30	331.40	25.45	-49.9	-64.9	3.8	1.49e+00	0	41	104	0	70	21307
2026-01-22 04:07:27.31	331.11	25.42	-49.9	-64.9	3.8	1.49e+00	0	41	104	0	70	21281
2026-01-22 04:07:28.32	330.82	25.38	-49.9	-64.9	3.8	1.49e+00	0	41	104	0	70	21296
2026-01-22 04:07:29.33	330.53	25.35	-49.9	-64.9	3.8	1.49e+00	0	41	104	0	70	21314
2026-01-22 04:07:30.34	330.23	25.31	-49.9	-64.9	3.8	1.49e+00	0	41	104	0	70	21340
2026-01-22 04:07:31.34	329.95	25.28	-49.9	-64.9	3.8	1.49e+00	0	41	104	0	70	21317
2026-01-22 04:07:32.35	329.65	25.24	-49.9	-64.9	3.8	1.49e+00	0	41	104	0	70	21319
2026-01-22 04:07:33.36	329.37	25.21	-49.9	-64.9	3.8	1.49e+00	0	41	104	0	70	21302
2026-01-22 04:07:34.37	329.08	25.17	-49.9	-64.8	3.8	1.49e+00	0	41	104	0	70	21255
2026-01-22 04:07:35.38	328.79	25.13	-49.9	-64.8	3.8	1.49e+00	0	41	104	0	70	21217
2026-01-22 04:07:36.38	328.50	25.09	-49.9	-64.9	3.8	1.49e+00	0	41	104	0	70	21307
2026-01-22 04:07:37.39	328.22	25.05	-49.9	-64.9	3.8	1.49e+00	0	41	104	0	70	21343
2026-01-22 04:07:38.40	327.93	25.01	-49.9	-64.9	3.8	1.49e+00	0	41	104	0	70	21318
2026-01-22 04:07:39.41	327.64	24.97	-49.9	-64.9	3.8	1.49e+00	0	40	104	0	70	21263
2026-01-22 04:07:40.42	327.36	24.93	-49.9	-64.9	3.8	1.49e+00	0	41	104	0	70	21319
2026-01-22 04:07:41.43	327.08	24.89	-49.9	-64.9	3.8	1.49e+00	0	41	104	0	70	21313
2026-01-22 04:07:42.44	326.79	24.85	-49.9	-64.9	3.8	1.49e+00	0	41	104	0	70	21368
2026-01-22 04:07:43.45	326.51	24.80	-49.9	-64.9	3.8	1.49e+00	0	41	104	0	70	21284
2026-01-22 04:07:44.46	326.23	24.76	-49.9	-64.9	3.8	1.49e+00	0	41	104	0	70	21312
2026-01-22 04:07:45.47	325.95	24.71	-49.9	-64.9	3.8	1.49e+00	0	41	104	0	70	21336
2026-01-22 04:07:46.48	325.67	24.67	-49.9	-64.9	3.8	1.49e+00	0	41	104	0	70	21287
2026-01-22 04:07:47.48	325.39	24.62	-49.9	-64.9	3.8	1.49e+00	0	41	104	0	70	21279
2026-01-22 04:07:48.49	325.11	24.57	-49.9	-64.9	3.8	1.49e+00	0	41	104	0	70	21270
2026-01-22 04:07:49.50	324.83	24.53	-49.9	-64.9	3.8	1.49e+00	0	41	104	0	70	21311
2026-01-22 04:07:50.51	324.56	24.48	-49.9	-64.9	3.8	1.49e+00	0	41	104	0	70	21287
2026-01-22 04:07:51.52	324.28	24.43	-49.9	-64.9	3.8	1.49e+00	0	41	104	0	70	21270
2026-01-22 04:07:52.53	324.01	24.38	-49.9	-64.9	3.8	1.49e+00	0	41	104	0	70	21311
2026-01-22 04:07:53.53	323.74	24.33	-49.9	-64.8	3.8	1.49e+00	0	41	104	0	70	21256
2026-01-22 04:07:54.54	323.46	24.28	-49.9	-64.8	3.8	1.49e+00	0	41	104	0	70	21242
2026-01-22 04:07:55.55	323.19	24.23	-49.9	-64.9	3.8	1.49e+00	0	41	104	0	70	21303
2026-01-22 04:07:56.56	322.92	24.18	-49.9	-64.8	3.8	1.49e+00	0	41	104	0	70	21248
2026-01-22 04:07:57.57	322.65	24.12	-49.9	-64.8	3.8	1.49e+00	0	41	104	0	70	21241
2026-01-22 04:07:58.58	322.38	24.07	-49.9	-64.9	3.8	1.49e+00	0	41	104	0	70	21276
2026-01-22 04:07:59.59	322.11	24.02	-49.9	-64.9	3.8	1.49e+00	0	41	104	0	70	21302
2026-01-22 04:08:00.59	321.85	23.96	-49.9	-64.8	3.8	1.49e+00	0	41	104	0	70	21236
2026-01-22 04:08:01.60	321.58	23.91	-49.9	-64.9	3.8	1.49e+00	0	41	104	0	70	21271
2026-01-22 04:08:02.61	321.31	23.85	-49.9	-64.8	3.8	1.49e+00	0	41	104	0	70	21254
2026-01-22 04:08:03.62	321.05	23.79	-49.9	-64.8	3.8	1.49e+00	0	41	104	0	70	21252
2026-01-22 04:08:04.63	320.78	23.74	-49.9	-64.9	3.8	1.49e+00	0	41	104	0	70	21273
2026-01-22 04:08:05.64	320.52	23.68	-49.9	-64.9	3.8	1.49e+00	0	41	104	0	70	21287
2026-01-22 04:08:06.65	320.26	23.62	-49.9	-64.9	3.8	1.49e+00	0	41	104	0	70	21331
2026-01-22 04:08:07.65	320.00	23.57	-49.9	-64.9	3.8	1.49e+00	0	41	104	0	70	21307
2026-01-22 04:08:08.66	319.74	23.51	-49.9	-64.9	3.8	1.49e+00	0	41	104	0	70	21272
2026-01-22 04:08:09.67	319.48	23.45	-49.9	-64.9	3.8	1.49e+00	0	41	104	0	70	21292
2026-01-22 04:08:10.68	319.22	23.39	-49.9	-64.9	3.8	1.49e+00	0	41	104	0	70	21347
2026-01-22 04:08:11.69	318.97	23.33	-49.9	-64.9	3.8	1.49e+00	0	41	104	0	70	21284
2026-01-22 04:08:12.69	318.71	23.27	-49.9	-64.9	3.8	1.49e+00	0	41	104	0	70	21347
2026-01-22 04:08:13.70	318.46	23.21	-49.9	-64.9	3.8	1.49e+00	0	41	104	0	70	21319
2026-01-22 04:08:14.71	318.20	23.15	-49.9	-64.9	3.8	1.49e+00	0	41	104	0	70	21337
2026-01-22 04:08:15.72	317.95	23.08	-49.9	-64.9	3.8	1.49e+00	0	41	104	0	70	21268
2026-01-22 04:08:16.73	317.70	23.02	-49.9	-64.8	3.8	1.49e+00	0	41	104	0	70	21234
2026-01-22 04:08:17.74	317.45	22.96	-49.9	-64.9	3.8	1.49e+00	0	41	104	0	70	21269
2026-01-22 04:08:18.75	317.20	22.89	-49.9	-64.8	3.8	1.49e+00	0	41	104	0	70	21252
2026-01-22 04:08:19.76	316.95	22.83	-49.9	-64.9	3.8	1.49e+00	0	41	104	0	70	21316
2026-01-22 04:08:20.76	316.70	22.77	-49.9	-64.9	3.8	1.49e+00	0	41	104	0	70	21302
2026-01-22 04:08:21.77	316.46	22.70	-49.9	-64.8	3.8	1.49e+00	0	41	104	0	70	21235
2026-01-22 04:08:22.78	316.21	22.64	-49.9	-64.8	3.8	1.49e+00	0	41	104	0	70	21225
2026-01-22 04:08:23.79	315.97	22.57	-49.9	-64.8	3.8	1.49e+00	0	41	104	0	70	21223
2026-01-22 04:08:24.80	315.72	22.51	-49.9	-64.9	3.8	1.49e+00	0	41	104	0	70	21295
2026-01-22 04:08:25.81	315.48	22.44	-49.9	-64.9	3.8	1.49e+00	0	41	104	0	70	21265
2026-01-22 04:08:26.82	315.24	22.37	-49.9	-64.9	3.8	1.49e+00	0	41	104	0	70	21287
2026-01-22 04:08:27.82	315.00	22.31	-49.9	-64.9	3.8	1.49e+00	0	41	104	0	70	21277
2026-01-22 04:08:28.83	314.76	22.24	-49.9	-64.8	3.8	1.49e+00	0	41	104	0	70	21243
2026-01-22 04:08:29.84	314.52	22.17	-49.9	-64.8	3.8	1.49e+00	0	41	104	0	70	21249
2026-01-22 04:08:30.85	314.28	22.10	-49.9	-64.9	3.8	1.49e+00	0	41	104	0	70	21266
2026-01-22 04:08:31.86	314.05	22.04	-49.9	-64.9	3.8	1.49e+00	0	41	104	0	70	21338
2026-01-22 04:08:32.87	313.81	21.97	-49.9	-64.9	3.8	1.49e+00	0	41	104	0	70	21295
2026-01-22 04:08:33.87	313.58	21.90	-49.9	-64.9	3.8	1.49e+00	0	41	104	0	70	21266
2026-01-22 04:08:34.88	313.35	21.83	-49.9	-64.8	3.8	1.49e+00	0	41	104	0	70	21252
2026-01-22 04:08:35.89	313.11	21.76	-49.9	-64.9	3.8	1.49e+00	0	41	104	0	70	21276
2026-01-22 04:08:36.89	312.88	21.69	-49.9	-64.9	3.8	1.49e+00	0	41	104	0	70	21291
2026-01-22 04:08:37.90	312.65	21.62	-49.9	-64.9	3.8	1.49e+00	0	41	104	0	70	21278
2026-01-22 04:08:38.91	312.42	21.55	-49.9	-64.9	3.8	1.49e+00	0	41	104	0	70	21268
2026-01-22 04:08:39.92	312.20	21.48	-49.9	-64.9	3.8	1.49e+00	0	41	104	0	70	21275
2026-01-22 04:08:40.92	311.97	21.41	-49.9	-64.9	3.8	1.49e+00	0	41	104	0	70	21350
2026-01-22 04:08:41.93	311.75	21.34	-49.9	-64.8	3.8	1.49e+00	0	41	104	0	70	21258
2026-01-22 04:08:42.94	311.52	21.26	-49.9	-64.8	3.8	1.49e+00	0	41	104	0	70	21222
2026-01-22 04:08:43.95	311.30	21.19	-49.9	-64.8	3.8	1.49e+00	0	41	104	0	70	21259
2026-01-22 04:08:44.96	311.07	21.12	-49.9	-64.9	3.8	1.49e+00	0	41	104	0	70	21272
2026-01-22 04:08:45.97	310.85	21.05	-49.9	-64.8	3.8	1.49e+00	0	41	104	0	70	21252
2026-01-22 04:08:46.97	310.63	20.98	-49.9	-64.9	3.8	1.49e+00	0	41	104	0	70	21261
2026-01-22 04:08:47.98	310.41	20.90	-49.9	-64.8	3.8	1.49e+00	0	41	104	0	70	21248
2026-01-22 04:08:48.99	310.20	20.83	-49.9	-64.8	3.8	1.49e+00	0	41	104	0	70	21245
2026-01-22 04:08:50.00	309.98	20.76	-49.9	-64.9	3.8	1.49e+00	0	41	104	0	70	21301
2026-01-22 04:08:51.01	309.76	20.68	-49.9	-64.9	3.8	1.49e+00	0	41	104	0	70	21288
2026-01-22 04:08:52.01	309.55	20.61	-49.9	-64.8	3.8	1.49e+00	0	41	104	0	70	21253
2026-01-22 04:08:53.02	309.33	20.53	-49.9	-64.9	3.8	1.49e+00	0	41	104	0	70	21308
2026-01-22 04:08:54.03	309.12	20.46	-49.9	-64.8	3.8	1.49e+00	0	41	104	0	70	21231
2026-01-22 04:08:55.04	308.91	20.39	-49.9	-64.9	3.8	1.49e+00	0	41	104	0	70	21261
2026-01-22 04:08:56.05	308.70	20.31	-49.9	-64.8	3.8	1.49e+00	0	41	104	0	70	21247
2026-01-22 04:08:57.06	308.49	20.24	-49.9	-64.9	3.8	1.49e+00	0	41	104	0	70	21284
2026-01-22 04:08:58.07	308.28	20.16	-49.9	-64.9	3.8	1.49e+00	0	41	104	0	70	21319
2026-01-22 04:08:59.07	308.07	20.09	-49.9	-64.9	3.8	1.49e+00	0	41	104	0	70	21274
2026-01-22 04:09:00.08	307.86	20.01	-49.9	-64.8	3.8	1.49e+00	0	41	104	0	70	21226
2026-01-22 04:09:01.09	307.66	19.94	-49.9	-64.9	3.8	1.49e+00	0	41	104	0	70	21266
2026-01-22 04:09:02.10	307.45	19.86	-49.9	-64.8	3.8	1.49e+00	0	41	104	0	70	21258
2026-01-22 04:09:03.11	307.25	19.78	-49.9	-64.9	3.8	1.49e+00	0	41	104	0	70	21282
2026-01-22 04:09:04.12	307.05	19.71	-49.9	-64.9	3.8	1.49e+00	0	41	104	0	70	21306
2026-01-22 04:09:05.13	306.84	19.63	-49.9	-64.9	3.8	1.49e+00	0	41	104	0	70	21312
2026-01-22 04:09:06.13	306.64	19.56	-49.9	-64.8	3.8	1.49e+00	0	41	104	0	70	21243
2026-01-22 04:09:07.14	306.44	19.48	-49.9	-64.9	3.8	1.49e+00	0	41	104	0	70	21297
2026-01-22 04:09:08.15	306.24	19.40	-49.9	-64.9	3.8	1.49e+00	0	41	104	0	70	21275
2026-01-22 04:09:09.16	306.05	19.33	-49.9	-64.9	3.8	1.49e+00	0	41	104	0	70	21288
2026-01-22 04:09:10.17	305.85	19.25	-49.9	-64.9	3.8	1.49e+00	0	41	104	0	70	21279
2026-01-22 04:09:11.17	305.66	19.17	-49.9	-64.8	3.8	1.49e+00	0	41	104	0	70	21254
2026-01-22 04:09:12.18	305.46	19.10	-49.9	-64.8	3.8	1.49e+00	0	41	104	0	70	21237
2026-01-22 04:09:13.19	305.27	19.02	-49.9	-64.8	3.8	1.49e+00	0	41	104	0	70	21253
2026-01-22 04:09:14.20	305.07	18.94	-49.9	-64.9	3.8	1.49e+00	0	41	104	0	70	21309
2026-01-22 04:09:15.21	304.88	18.86	-49.9	-64.9	3.8	1.49e+00	0	41	104	0	70	21274
2026-01-22 04:09:16.21	304.69	18.79	-49.9	-64.8	3.8	1.49e+00	0	41	104	0	70	21235
2026-01-22 04:09:17.22	304.50	18.71	-49.9	-64.8	3.8	1.49e+00	0	41	104	0	70	21253
2026-01-22 04:09:18.23	304.31	18.63	-49.9	-64.8	3.8	1.49e+00	0	41	104	0	70	21250
2026-01-22 04:09:19.24	304.13	18.55	-49.9	-64.9	3.8	1.49e+00	0	41	104	0	70	21281
2026-01-22 04:09:20.25	303.94	18.48	-49.9	-64.9	3.8	1.49e+00	0	41	104	0	70	21278
2026-01-22 04:09:21.26	303.75	18.40	-49.9	-64.9	3.8	1.49e+00	0	41	104	0	70	21295
2026-01-22 04:09:22.27	303.57	18.32	-49.9	-64.9	3.8	1.49e+00	0	41	104	0	70	21282
2026-01-22 04:09:23.27	303.38	18.24	-49.9	-64.9	3.8	1.49e+00	0	41	104	0	70	21268
2026-01-22 04:09:24.28	303.20	18.17	-49.9	-64.9	3.8	1.49e+00	0	41	104	0	70	21283
2026-01-22 04:09:25.29	303.02	18.09	-49.9	-64.9	3.8	1.49e+00	0	41	104	0	70	21277
2026-01-22 04:09:26.30	302.84	18.01	-49.9	-64.9	3.8	1.49e+00	0	41	104	0	70	21267
2026-01-22 04:09:27.31	302.66	17.93	-49.9	-64.9	3.8	1.49e+00	0	41	104	0	70	21325
2026-01-22 04:09:28.32	302.48	17.85	-49.9	-64.9	3.8	1.49e+00	0	41	104	0	70	21299
2026-01-22 04:09:29.32	302.30	17.78	-49.9	-64.9	3.8	1.49e+00	0	40	104	0	70	21263
2026-01-22 04:09:30.34	302.12	17.70	-49.9	-64.9	3.8	1.49e+00	0	41	104	0	70	21280
2026-01-22 04:09:31.35	301.94	17.62	-49.9	-64.9	3.8	1.49e+00	0	41	104	0	70	21280
2026-01-22 04:09:32.35	301.77	17.54	-49.9	-64.9	3.8	1.49e+00	0	41	104	0	70	21303
2026-01-22 04:09:33.36	301.60	17.46	-49.9	-64.9	3.8	1.49e+00	0	41	104	0	70	21350
2026-01-22 04:09:34.37	301.42	17.38	-49.9	-64.9	3.8	1.49e+00	0	41	104	0	70	21272
2026-01-22 04:09:35.38	301.25	17.31	-49.9	-64.9	3.8	1.49e+00	0	41	104	0	70	21280
2026-01-22 04:09:36.38	301.08	17.23	-49.9	-64.9	3.8	1.49e+00	0	41	104	0	70	21275
2026-01-22 04:09:37.39	300.91	17.15	-49.9	-64.9	3.8	1.49e+00	0	41	104	0	70	21279
2026-01-22 04:09:38.40	300.74	17.07	-49.9	-64.9	3.8	1.49e+00	0	41	104	0	70	21266
2026-01-22 04:09:39.41	300.57	16.99	-49.9	-64.9	3.8	1.49e+00	0	41	104	0	70	21278
2026-01-22 04:09:40.42	300.40	16.91	-49.9	-64.8	3.8	1.49e+00	0	41	104	0	70	21254
2026-01-22 04:09:41.43	300.23	16.83	-49.9	-64.9	3.8	1.49e+00	0	41	104	0	70	21321
2026-01-22 04:09:42.44	300.06	16.76	-49.9	-64.8	3.8	1.49e+00	0	41	104	0	70	21248
2026-01-22 04:09:43.44	299.90	16.68	-49.9	-64.9	3.8	1.49e+00	0	41	104	0	70	21284
2026-01-22 04:09:44.45	299.73	16.60	-49.9	-64.9	3.8	1.49e+00	0	41	104	0	70	21281
2026-01-22 04:09:45.46	299.57	16.52	-49.9	-64.9	3.8	1.49e+00	0	41	104	0	70	21321
2026-01-22 04:09:46.47	299.41	16.44	-49.9	-64.9	3.8	1.49e+00	0	41	104	0	70	21298
2026-01-22 04:09:47.48	299.24	16.36	-49.9	-64.9	3.8	1.49e+00	0	41	104	0	70	21312
2026-01-22 04:09:48.49	299.08	16.29	-49.9	-64.9	3.8	1.49e+00	0	41	104	0	70	21303
2026-01-22 04:09:49.50	298.92	16.21	-49.9	-64.9	3.8	1.49e+00	0	41	104	0	70	21302
2026-01-22 04:09:50.51	298.76	16.13	-49.9	-64.9	3.8	1.49e+00	0	41	104	0	70	21313
2026-01-22 04:09:51.51	298.61	16.05	-49.9	-64.9	3.8	1.49e+00	0	41	104	0	70	21334
2026-01-22 04:09:52.52	298.45	15.97	-49.9	-64.9	3.8	1.49e+00	0	41	104	0	70	21299
2026-01-22 04:09:53.53	298.29	15.89	-49.9	-64.8	3.8	1.49e+00	0	41	104	0	70	21241
2026-01-22 04:09:54.54	298.13	15.82	-49.9	-64.9	3.8	1.49e+00	0	41	104	0	70	21270
2026-01-22 04:09:55.55	297.98	15.74	-49.9	-64.9	3.8	1.49e+00	0	41	104	0	70	21315
2026-01-22 04:09:56.56	297.82	15.66	-49.9	-64.9	3.8	1.49e+00	0	41	104	0	70	21302
2026-01-22 04:09:57.57	297.67	15.58	-49.9	-64.9	3.8	1.49e+00	0	41	104	0	70	21318
2026-01-22 04:09:58.57	297.52	15.50	-49.9	-64.9	3.8	1.49e+00	0	41	104	0	70	21274
2026-01-22 04:09:59.59	297.36	15.42	-49.9	-64.8	3.8	1.49e+00	0	41	104	0	70	21230
2026-01-22 04:10:00.59	297.21	15.35	-49.9	-64.9	3.8	1.49e+00	0	41	104	0	70	21290
2026-01-22 04:10:01.60	297.06	15.27	-49.9	-64.9	3.8	1.49e+00	0	41	104	0	70	21305
2026-01-22 04:10:02.61	296.91	15.19	-49.9	-64.9	3.8	1.49e+00	0	41	104	0	70	21273
2026-01-22 04:10:03.62	296.76	15.11	-49.9	-64.9	3.8	1.49e+00	0	41	104	0	70	21331
2026-01-22 04:10:04.63	296.61	15.04	-49.9	-64.9	3.8	1.49e+00	0	41	104	0	70	21295
2026-01-22 04:10:05.64	296.47	14.96	-49.9	-64.8	3.8	1.49e+00	0	41	104	0	70	21235
2026-01-22 04:10:06.65	296.32	14.88	-49.9	-64.9	3.8	1.49e+00	0	41	104	0	70	21263
2026-01-22 04:10:07.65	296.18	14.80	-49.9	-64.9	3.8	1.49e+00	0	40	104	0	70	21330
2026-01-22 04:10:08.66	296.03	14.73	-49.9	-64.9	3.8	1.49e+00	0	41	104	0	70	21291
2026-01-22 04:10:09.67	295.89	14.65	-49.9	-64.9	3.8	1.49e+00	0	40	104	0	70	21286
2026-01-22 04:10:10.68	295.74	14.57	-49.9	-64.9	3.8	1.49e+00	0	41	104	0	70	21270
2026-01-22 04:10:11.69	295.60	14.49	-49.9	-64.8	3.8	1.49e+00	0	41	104	0	70	21251
2026-01-22 04:10:12.69	295.46	14.42	-49.9	-64.9	3.8	1.49e+00	0	41	104	0	70	21286
2026-01-22 04:10:13.70	295.32	14.34	-49.9	-64.9	3.8	1.49e+00	0	41	104	0	70	21266
2026-01-22 04:10:14.71	295.18	14.26	-49.9	-64.9	3.8	1.49e+00	0	41	104	0	70	21292
2026-01-22 04:10:15.72	295.04	14.18	-49.9	-64.9	3.8	1.49e+00	0	41	104	0	70	21292
2026-01-22 04:10:16.73	294.90	14.11	-49.9	-64.9	3.8	1.49e+00	0	41	104	0	70	21292
2026-01-22 04:10:17.73	294.76	14.03	-49.9	-64.9	3.8	1.49e+00	0	41	104	0	70	21274
2026-01-22 04:10:18.74	294.62	13.95	-49.9	-64.9	3.8	1.49e+00	0	41	104	0	70	21285
2026-01-22 04:10:19.75	294.49	13.88	-49.9	-64.9	3.8	1.49e+00	0	41	104	0	70	21306
2026-01-22 04:10:20.75	294.35	13.80	-49.9	-64.9	3.8	1.49e+00	0	41	104	0	70	21311
2026-01-22 04:10:21.76	294.21	13.72	-49.9	-64.9	3.8	1.49e+00	0	41	104	0	70	21288
2026-01-22 04:10:22.77	294.08	13.65	-49.9	-64.8	3.8	1.49e+00	0	41	104	0	70	21259
2026-01-22 04:10:23.78	293.95	13.57	-49.9	-64.9	3.8	1.49e+00	0	41	104	0	70	21314
2026-01-22 04:10:24.79	293.81	13.49	-49.9	-64.8	3.8	1.49e+00	0	41	104	0	70	21257
2026-01-22 04:10:25.79	293.68	13.42	-49.9	-64.9	3.8	1.49e+00	0	41	104	0	70	21295
2026-01-22 04:10:26.80	293.55	13.34	-49.9	-64.9	3.8	1.49e+00	0	41	104	0	70	21297
2026-01-22 04:10:27.81	293.42	13.27	-49.9	-64.9	3.8	1.49e+00	0	40	104	0	70	21311
2026-01-22 04:10:28.82	293.29	13.19	-49.9	-64.9	3.8	1.49e+00	0	41	104	0	70	21282
2026-01-22 04:10:29.83	293.16	13.11	-49.9	-64.9	3.8	1.49e+00	0	41	104	0	70	21280
2026-01-22 04:10:30.84	293.03	13.04	-49.9	-64.9	3.8	1.49e+00	0	41	104	0	70	21339
2026-01-22 04:10:31.85	292.90	12.96	-49.9	-64.9	3.8	1.49e+00	0	41	104	0	70	21292
2026-01-22 04:10:32.85	292.77	12.89	-49.9	-64.9	3.8	1.49e+00	0	40	104	0	70	21280
2026-01-22 04:10:33.86	292.64	12.81	-49.9	-64.9	3.8	1.49e+00	0	41	104	0	70	21266
2026-01-22 04:10:34.87	292.52	12.74	-49.9	-64.8	3.8	1.49e+00	0	41	104	0	70	21258
2026-01-22 04:10:35.88	292.39	12.66	-49.9	-64.9	3.8	1.49e+00	0	41	104	0	70	21368
2026-01-22 04:10:36.89	292.27	12.58	-49.9	-64.9	3.8	1.49e+00	0	41	104	0	70	21320
2026-01-22 04:10:37.89	292.14	12.51	-49.9	-64.9	3.8	1.49e+00	0	41	104	0	70	21287
2026-01-22 04:10:38.90	292.02	12.43	-49.9	-64.9	3.8	1.49e+00	0	41	104	0	70	21263
2026-01-22 04:10:39.91	291.90	12.36	-49.9	-64.8	3.8	1.49e+00	0	41	104	0	70	21227
2026-01-22 04:10:40.92	291.77	12.28	-49.9	-64.9	3.8	1.49e+00	0	41	104	0	70	21282
2026-01-22 04:10:41.93	291.65	12.21	-49.9	-64.9	3.8	1.49e+00	0	41	104	0	70	21305
2026-01-22 04:10:42.93	291.53	12.14	-49.9	-64.9	3.8	1.49e+00	0	41	104	0	70	21311
2026-01-22 04:10:43.94	291.41	12.06	-49.9	-64.9	3.8	1.49e+00	0	41	104	0	70	21284
2026-01-22 04:10:44.95	291.29	11.99	-49.9	-64.8	3.8	1.49e+00	0	41	104	0	70	21241
2026-01-22 04:10:45.96	291.17	11.91	-49.9	-64.9	3.8	1.49e+00	0	41	104	0	70	21291
2026-01-22 04:10:46.97	291.05	11.84	-49.9	-64.9	3.8	1.49e+00	0	40	104	0	70	21283
2026-01-22 04:10:47.98	290.93	11.76	-49.9	-64.9	3.8	1.49e+00	0	41	104	0	70	21326
2026-01-22 04:10:48.99	290.82	11.69	-49.9	-64.9	3.8	1.49e+00	0	41	104	0	70	21304
2026-01-22 04:10:49.99	290.70	11.61	-49.9	-64.9	3.8	1.49e+00	0	41	104	0	70	21303
2026-01-22 04:10:51.00	290.58	11.54	-49.9	-64.9	3.8	1.49e+00	0	41	104	0	70	21321
2026-01-22 04:10:52.01	290.47	11.47	-49.9	-64.9	3.8	1.49e+00	0	41	104	0	70	21327
2026-01-22 04:10:53.02	290.35	11.39	-49.9	-64.8	3.8	1.49e+00	0	41	104	0	70	21240
2026-01-22 04:10:54.03	290.24	11.32	-49.9	-64.9	3.8	1.49e+00	0	41	104	0	70	21306
2026-01-22 04:10:55.04	290.12	11.25	-49.9	-64.9	3.8	1.49e+00	0	41	104	0	70	21262
2026-01-22 04:10:56.05	290.01	11.17	-49.9	-64.9	3.8	1.49e+00	0	41	104	0	70	21282
2026-01-22 04:10:57.06	289.90	11.10	-49.9	-64.9	3.8	1.49e+00	0	41	104	0	70	21265
2026-01-22 04:10:58.07	289.78	11.03	-49.9	-64.9	3.8	1.49e+00	0	41	104	0	70	21308
2026-01-22 04:10:59.07	289.67	10.95	-49.9	-64.9	3.8	1.49e+00	0	41	104	0	70	21293
2026-01-22 04:11:00.08	289.56	10.88	-49.9	-64.9	3.8	1.49e+00	0	41	104	0	70	21332
2026-01-22 04:11:01.09	289.45	10.81	-49.9	-64.9	3.8	1.49e+00	0	41	104	0	70	21314
2026-01-22 04:11:02.10	289.34	10.73	-49.9	-64.9	3.8	1.49e+00	0	41	104	0	70	21291
2026-01-22 04:11:03.11	289.23	10.66	-49.9	-64.9	3.8	1.49e+00	0	41	104	0	70	21271
2026-01-22 04:11:04.12	289.12	10.59	-49.9	-64.8	3.8	1.49e+00	0	41	104	0	70	21232
2026-01-22 04:11:05.13	289.01	10.52	-49.9	-64.9	3.8	1.49e+00	0	41	104	0	70	21320
2026-01-22 04:11:06.13	288.91	10.44	-49.9	-64.9	3.8	1.49e+00	0	41	104	0	70	21311
2026-01-22 04:11:07.14	288.80	10.37	-49.9	-64.9	3.8	1.49e+00	0	41	104	0	70	21290
2026-01-22 04:11:08.15	288.69	10.30	-49.9	-64.9	3.8	1.49e+00	0	41	104	0	70	21310
2026-01-22 04:11:09.16	288.59	10.23	-49.9	-64.9	3.8	1.49e+00	0	41	104	0	70	21307
2026-01-22 04:11:10.17	288.48	10.16	-49.9	-64.9	3.8	1.49e+00	0	41	104	0	70	21316
2026-01-22 04:11:11.17	288.38	10.09	-49.9	-64.9	3.8	1.49e+00	0	41	104	0	70	21316
2026-01-22 04:11:12.18	288.27	10.01	-49.9	-64.8	3.8	1.49e+00	0	41	104	0	70	21246
2026-01-22 04:11:13.19	288.17	9.94	-49.9	-64.9	3.8	1.49e+00	0	41	104	0	70	21271
2026-01-22 04:11:14.20	288.06	9.87	-49.9	-64.8	3.8	1.49e+00	0	41	104	0	70	21257
2026-01-22 04:11:15.21	287.96	9.80	-49.9	-64.8	3.8	1.49e+00	0	41	104	0	70	21230
2026-01-22 04:11:16.21	287.86	9.73	-49.9	-64.9	3.8	1.49e+00	0	41	104	0	70	21282
2026-01-22 04:11:17.22	287.76	9.66	-49.9	-64.9	3.8	1.49e+00	0	41	104	0	70	21300
2026-01-22 04:11:18.23	287.66	9.59	-49.9	-64.9	3.8	1.49e+00	0	41	104	0	70	21287
2026-01-22 04:11:19.24	287.55	9.52	-49.9	-64.9	3.8	1.49e+00	0	41	104	0	70	21262
2026-01-22 04:11:20.24	287.46	9.45	-49.9	-64.9	3.8	1.49e+00	0	41	104	0	70	21303
2026-01-22 04:11:21.25	287.36	9.37	-49.9	-64.8	3.8	1.49e+00	0	40	104	0	70	21254
2026-01-22 04:11:22.26	287.26	9.30	-49.9	-64.9	3.8	1.49e+00	0	41	104	0	70	21294
2026-01-22 04:11:23.27	287.16	9.23	-49.9	-64.9	3.8	1.49e+00	0	41	104	0	70	21279
2026-01-22 04:11:24.28	287.06	9.16	-49.9	-64.9	3.8	1.49e+00	0	41	104	0	70	21335
2026-01-22 04:11:25.29	286.96	9.09	-49.9	-64.9	3.8	1.49e+00	0	41	104	0	70	21305
2026-01-22 04:11:26.29	286.86	9.02	-49.9	-64.9	3.8	1.49e+00	0	41	104	0	70	21328
2026-01-22 04:11:27.30	286.77	8.95	-49.9	-64.8	3.8	1.49e+00	0	41	104	0	70	21260
2026-01-22 04:11:28.31	286.67	8.88	-49.9	-64.9	3.8	1.49e+00	0	41	104	0	70	21313
2026-01-22 04:11:29.32	286.57	8.81	-49.9	-64.9	3.8	1.49e+00	0	41	104	0	70	21303
2026-01-22 04:11:30.33	286.48	8.74	-49.9	-64.8	3.8	1.49e+00	0	41	104	0	70	21255
2026-01-22 04:11:31.33	286.38	8.68	-49.9	-64.9	3.8	1.49e+00	0	41	104	0	70	21334
2026-01-22 04:11:32.34	286.29	8.61	-49.9	-64.9	3.8	1.49e+00	0	41	104	0	70	21292
2026-01-22 04:11:33.35	286.19	8.54	-49.9	-64.9	3.8	1.49e+00	0	41	104	0	70	21286
2026-01-22 04:11:34.36	286.10	8.47	-49.9	-64.8	3.8	1.49e+00	0	41	104	0	70	21252
2026-01-22 04:11:35.36	286.01	8.40	-49.9	-64.9	3.8	1.49e+00	0	41	104	0	70	21281
2026-01-22 04:11:36.37	285.92	8.33	-49.9	-64.9	3.8	1.49e+00	0	41	104	0	70	21339
2026-01-22 04:11:37.38	285.82	8.26	-49.9	-64.8	3.8	1.49e+00	0	41	104	0	70	21218
2026-01-22 04:11:38.39	285.73	8.19	-49.9	-64.9	3.8	1.49e+00	0	41	104	0	70	21331
2026-01-22 04:11:39.39	285.64	8.12	-49.9	-64.9	3.8	1.49e+00	0	41	104	0	70	21277
2026-01-22 04:11:40.41	285.55	8.06	-49.9	-64.8	3.8	1.49e+00	0	41	104	0	70	21247
2026-01-22 04:11:41.41	285.46	7.99	-49.9	-64.9	3.8	1.49e+00	0	41	104	0	70	21290
2026-01-22 04:11:42.42	285.37	7.92	-49.9	-64.9	3.8	1.49e+00	0	41	104	0	70	21340
2026-01-22 04:11:43.43	285.28	7.85	-49.9	-64.9	3.8	1.49e+00	0	41	104	0	70	21296
2026-01-22 04:11:44.44	285.19	7.78	-49.9	-64.8	3.8	1.49e+00	0	41	104	0	70	21257
2026-01-22 04:11:45.45	285.10	7.72	-49.9	-64.9	3.8	1.49e+00	0	41	104	0	70	21279
2026-01-22 04:11:46.46	285.01	7.65	-49.9	-64.9	3.8	1.49e+00	0	41	104	0	70	21304
2026-01-22 04:11:47.47	284.92	7.58	-49.9	-64.9	3.8	1.49e+00	0	41	104	0	70	21302
2026-01-22 04:11:48.47	284.84	7.51	-49.9	-64.9	3.8	1.49e+00	0	41	104	0	70	21298
2026-01-22 04:11:49.48	284.75	7.45	-49.9	-64.9	3.8	1.49e+00	0	41	104	0	70	21264
2026-01-22 04:11:50.49	284.66	7.38	-49.9	-64.9	3.8	1.49e+00	0	41	104	0	70	21283
2026-01-22 04:11:51.50	284.58	7.31	-49.9	-64.9	3.8	1.49e+00	0	41	104	0	70	21319
2026-01-22 04:11:52.51	284.49	7.24	-49.9	-64.9	3.8	1.49e+00	0	41	104	0	70	21319
2026-01-22 04:11:53.52	284.40	7.18	-49.9	-64.9	3.8	1.49e+00	0	41	104	0	70	21367
2026-01-22 04:11:54.53	284.32	7.11	-49.9	-64.9	3.8	1.49e+00	0	41	104	0	70	21314
2026-01-22 04:11:55.54	284.23	7.04	-49.9	-64.9	3.8	1.49e+00	0	41	104	0	70	21295
2026-01-22 04:11:56.54	284.15	6.98	-49.9	-64.9	3.8	1.49e+00	0	41	104	0	70	21261
2026-01-22 04:11:57.55	284.07	6.91	-49.9	-64.9	3.8	1.49e+00	0	41	104	0	70	21296
2026-01-22 04:11:58.56	283.98	6.84	-49.9	-64.9	3.8	1.49e+00	0	41	104	0	70	21286
2026-01-22 04:11:59.57	283.90	6.78	-49.9	-64.9	3.8	1.49e+00	0	41	104	0	70	21293
2026-01-22 04:12:00.58	283.82	6.71	-49.9	-64.8	3.8	1.49e+00	0	41	104	0	70	21247
2026-01-22 04:12:01.59	283.73	6.64	-49.9	-64.9	3.8	1.49e+00	0	41	104	0	70	21261
2026-01-22 04:12:02.60	283.65	6.58	-49.9	-64.8	3.8	1.49e+00	0	41	104	0	70	21241
2026-01-22 04:12:03.61	283.57	6.51	-49.9	-64.9	3.8	1.49e+00	0	41	104	0	70	21302
2026-01-22 04:12:04.61	283.49	6.45	-49.9	-64.9	3.8	1.49e+00	0	41	104	0	70	21305
2026-01-22 04:12:05.63	283.41	6.38	-49.9	-64.9	3.8	1.49e+00	0	41	104	0	70	21296
2026-01-22 04:12:06.63	283.33	6.32	-49.9	-64.9	3.8	1.49e+00	0	41	104	0	70	21303
2026-01-22 04:12:07.64	283.25	6.25	-49.9	-64.9	3.8	1.49e+00	0	41	104	0	70	21407
2026-01-22 04:12:08.65	283.17	6.19	-49.9	-64.9	3.8	1.49e+00	0	41	104	0	70	21296
2026-01-22 04:12:09.66	283.09	6.12	-49.9	-64.9	3.8	1.49e+00	0	41	104	0	70	21303
2026-01-22 04:12:10.67	283.01	6.06	-49.9	-64.9	3.8	1.49e+00	0	41	104	0	70	21284
2026-01-22 04:12:11.68	282.93	5.99	-49.9	-64.9	3.8	1.49e+00	0	41	104	0	70	21282
2026-01-22 04:12:12.69	282.85	5.93	-49.9	-64.9	3.8	1.49e+00	0	41	104	0	70	21299
2026-01-22 04:12:13.70	282.78	5.86	-49.9	-64.9	3.8	1.49e+00	0	41	104	0	70	21302
2026-01-22 04:12:14.71	282.70	5.80	-49.9	-64.9	3.8	1.49e+00	0	41	104	0	70	21277
2026-01-22 04:12:15.71	282.62	5.73	-49.9	-64.9	3.8	1.49e+00	0	41	104	0	70	21267
2026-01-22 04:12:16.72	282.54	5.67	-49.9	-64.8	3.8	1.49e+00	0	41	104	0	70	21245
2026-01-22 04:12:17.73	282.47	5.60	-49.9	-64.9	3.8	1.49e+00	0	41	104	0	70	21306
2026-01-22 04:12:18.74	282.39	5.54	-49.9	-64.9	3.8	1.49e+00	0	41	104	0	70	21274
2026-01-22 04:12:19.75	282.32	5.47	-49.9	-64.9	3.8	1.49e+00	0	41	104	0	70	21336
2026-01-22 04:12:20.75	282.24	5.41	-49.9	-64.9	3.8	1.49e+00	0	41	104	0	70	21269
2026-01-22 04:12:21.76	282.17	5.35	-49.9	-64.9	3.8	1.49e+00	0	41	104	0	70	21329
2026-01-22 04:12:22.77	282.09	5.28	-49.9	-64.9	3.8	1.49e+00	0	41	104	0	70	21274
2026-01-22 04:12:23.78	282.02	5.22	-49.9	-64.9	3.8	1.49e+00	0	41	104	0	70	21312
2026-01-22 04:12:24.79	281.94	5.16	-49.9	-64.9	3.8	1.49e+00	0	41	104	0	70	21264
2026-01-22 04:12:25.80	281.87	5.09	-49.9	-64.9	3.8	1.49e+00	0	41	104	0	70	21322
2026-01-22 04:12:26.81	281.80	5.03	-49.9	-64.8	3.8	1.49e+00	0	41	104	0	70	21255
2026-01-22 04:12:27.82	281.72	4.97	-49.9	-64.9	3.8	1.49e+00	0	41	104	0	70	21301
2026-01-22 04:12:28.83	281.65	4.90	-49.9	-64.8	3.8	1.49e+00	0	41	104	0	70	21241
2026-01-22 04:12:29.84	281.58	4.84	-49.9	-64.9	3.8	1.49e+00	0	41	104	0	70	21265
2026-01-22 04:12:30.84	281.51	4.78	-49.9	-64.9	3.8	1.49e+00	0	41	104	0	70	21262
2026-01-22 04:12:31.85	281.43	4.71	-49.9	-64.9	3.8	1.49e+00	0	41	104	0	70	21298
2026-01-22 04:12:32.86	281.36	4.65	-49.9	-64.9	3.8	1.49e+00	0	41	104	0	70	21305
2026-01-22 04:12:33.87	281.29	4.59	-49.9	-64.9	3.8	1.49e+00	0	41	104	0	70	21270
2026-01-22 04:12:34.87	281.22	4.53	-49.9	-64.9	3.8	1.49e+00	0	41	104	0	70	21329
2026-01-22 04:12:35.88	281.15	4.46	-49.9	-64.9	3.8	1.49e+00	0	41	104	0	70	21338
2026-01-22 04:12:36.89	281.08	4.40	-49.9	-64.8	3.8	1.49e+00	0	41	104	0	70	21244
2026-01-22 04:12:37.90	281.01	4.34	-49.9	-64.9	3.8	1.49e+00	0	41	104	0	70	21376
2026-01-22 04:12:38.91	280.94	4.28	-49.9	-64.9	3.8	1.49e+00	0	41	104	0	70	21305
2026-01-22 04:12:39.91	280.87	4.22	-49.9	-64.9	3.8	1.49e+00	0	41	104	0	70	21317
2026-01-22 04:12:40.92	280.80	4.15	-49.9	-64.9	3.8	1.49e+00	0	41	104	0	70	21274
2026-01-22 04:12:41.93	280.74	4.09	-49.9	-64.9	3.8	1.49e+00	0	41	104	0	70	21320
2026-01-22 04:12:42.94	280.67	4.03	-49.9	-64.8	3.8	1.49e+00	0	41	104	0	70	21250
2026-01-22 04:12:43.95	280.60	3.97	-49.9	-64.9	3.8	1.49e+00	0	41	104	0	70	21316
2026-01-22 04:12:44.96	280.53	3.91	-49.9	-64.9	3.8	1.49e+00	0	41	104	0	70	21340
2026-01-22 04:12:45.97	280.46	3.85	-49.9	-64.9	3.8	1.49e+00	0	41	104	0	70	21293
2026-01-22 04:12:46.97	280.40	3.79	-49.9	-64.9	3.8	1.49e+00	0	41	104	0	70	21295
2026-01-22 04:12:47.98	280.33	3.72	-49.9	-64.9	3.8	1.49e+00	0	41	104	0	70	21305
2026-01-22 04:12:48.99	280.26	3.66	-49.9	-64.9	3.8	1.49e+00	0	41	104	0	70	21305
