passes_logs/2026/01/22/R3.2S_Murmansk/R3.2S_Murmansk__20260122_091755_NOAA_20_JPSS-1_rec.log

#Pass ID: 20260122_091755_NOAA 20 (JPSS-1)
#Satellite: NOAA 20 (JPSS-1)
#Configuration: NOAA 20
#almurnet v.1.7.20251203
#Start time: 2026-01-22 09:17:55

#Version: 2.2.20231116
#Station: R3.2S_Murmansk
#Location: 33.079688 lon 68.888172 lat
#TLE: 1 43013U 17073A   26021.46221703  .00000173  00000+0  10299-3 0  9999
#TLE: 2 43013  98.7644 322.3335 0001238  29.7597 330.3649 14.19538314423652

#Time	Az	El	Level	Level2	SNR	BER	BlckErr	Temp	State	Recorded	gain1	gain2
2026-01-22 09:17:55.02	146.24	1.97	-54.3	-69.3	3.8	1.49e+00	0	39	0	0	79	21254
2026-01-22 09:17:56.02	146.23	2.04	-54.5	-69.5	3.8	1.49e+00	0	39	104	0	79	21713
2026-01-22 09:17:57.03	146.23	2.10	-54.5	-69.6	3.8	1.49e+00	0	39	104	0	79	21764
2026-01-22 09:17:58.04	146.23	2.17	-54.5	-69.6	3.8	1.49e+00	0	39	104	0	79	21811
2026-01-22 09:17:59.04	146.22	2.23	-54.5	-69.6	3.8	1.49e+00	0	39	104	0	79	21783
2026-01-22 09:18:00.05	146.22	2.30	-54.5	-69.5	3.8	1.49e+00	0	39	104	0	79	21686
2026-01-22 09:18:01.06	146.22	2.36	-54.5	-69.5	3.8	1.49e+00	0	39	104	0	79	21692
2026-01-22 09:18:02.07	146.21	2.43	-54.5	-69.5	3.8	1.49e+00	0	39	104	0	79	21586
2026-01-22 09:18:03.08	146.21	2.49	-54.4	-69.4	3.8	1.49e+00	0	39	104	0	79	21496
2026-01-22 09:18:04.09	146.21	2.56	-54.4	-69.4	3.8	1.49e+00	0	39	104	0	79	21425
2026-01-22 09:18:05.10	146.20	2.63	-54.4	-69.4	3.8	1.49e+00	0	39	104	0	79	21320
2026-01-22 09:18:06.10	146.20	2.69	-54.3	-69.3	3.8	1.49e+00	0	39	104	0	79	21163
2026-01-22 09:18:07.11	146.20	2.76	-54.2	-69.3	3.8	1.49e+00	0	39	104	0	79	21086
2026-01-22 09:18:08.12	146.19	2.83	-54.2	-69.2	3.8	1.49e+00	0	39	104	0	79	20820
2026-01-22 09:18:09.13	146.19	2.89	-54.1	-69.1	3.8	1.49e+00	0	40	104	0	79	20581
2026-01-22 09:18:10.14	146.19	2.96	-54.0	-69.0	3.8	1.49e+00	0	39	104	0	79	20490
2026-01-22 09:18:11.14	146.18	3.03	-53.9	-68.9	3.8	1.49e+00	0	39	104	0	79	20280
2026-01-22 09:18:12.15	146.18	3.09	-53.8	-68.8	3.8	1.49e+00	0	39	104	0	79	19954
2026-01-22 09:18:13.16	146.18	3.16	-53.7	-68.7	3.8	1.49e+00	0	40	104	0	79	19723
2026-01-22 09:18:14.17	146.17	3.23	-53.5	-68.5	3.8	1.49e+00	0	39	104	0	79	19351
2026-01-22 09:18:15.18	146.17	3.30	-53.4	-68.4	3.8	1.49e+00	0	39	104	0	78	20143
2026-01-22 09:18:16.19	146.16	3.36	-53.1	-68.1	3.8	1.49e+00	0	39	104	0	78	19545
2026-01-22 09:18:17.20	146.16	3.43	-52.8	-67.7	3.8	1.49e+00	0	40	104	0	77	19839
2026-01-22 09:18:18.21	146.16	3.50	-52.6	-67.5	3.8	1.49e+00	0	40	104	0	77	19381
2026-01-22 09:18:19.22	146.15	3.57	-52.6	-67.5	3.8	1.49e+00	0	40	104	0	77	19269
2026-01-22 09:18:20.22	146.15	3.64	-52.6	-67.5	3.8	1.49e+00	0	40	104	0	77	19209
2026-01-22 09:18:21.23	146.14	3.71	-52.6	-67.5	3.8	1.49e+00	0	40	104	0	77	19199
2026-01-22 09:18:22.24	146.14	3.78	-52.6	-67.5	3.8	1.49e+00	0	40	104	0	77	19196
2026-01-22 09:18:23.25	146.14	3.85	-52.6	-67.6	3.8	1.49e+00	0	40	104	0	77	19400
2026-01-22 09:18:24.26	146.13	3.91	-52.6	-67.6	3.8	1.49e+00	0	40	104	0	77	19515
2026-01-22 09:18:25.26	146.13	3.98	-52.6	-67.5	3.8	1.49e+00	0	40	104	0	77	19280
2026-01-22 09:18:26.27	146.12	4.05	-52.6	-67.0	3.8	1.49e+00	0	40	104	0	77	18185
2026-01-22 09:18:27.28	146.12	4.12	-52.5	-65.4	3.9	1.49e+00	0	40	104	0	77	15091
2026-01-22 09:18:28.29	146.12	4.19	-52.3	-63.5	4.4	1.41e+00	164	40	0	0	76	12815
2026-01-22 09:18:29.30	146.11	4.26	-52.1	-61.2	5.5	1.07e+00	0	40	0	1048576	76	9839
2026-01-22 09:18:30.30	146.11	4.33	-51.8	-59.3	7.0	2.12e-01	0	40	0	3145728	75	8415
2026-01-22 09:18:31.31	146.10	4.40	-51.3	-57.4	8.9	5.14e-02	0	40	0	5242880	74	7138
2026-01-22 09:18:32.32	146.10	4.47	-50.9	-55.9	10.4	1.10e-02	0	40	0	7340032	73	6381
2026-01-22 09:18:33.33	146.10	4.55	-50.4	-54.6	11.7	5.13e-04	0	40	0	9437184	72	5848
2026-01-22 09:18:34.34	146.09	4.62	-50.0	-53.8	12.6	9.00e-05	0	40	0	11534336	72	5335
2026-01-22 09:18:35.35	146.09	4.69	-49.5	-52.8	13.6	4.11e-05	0	40	0	12582912	71	5037
2026-01-22 09:18:36.36	146.08	4.76	-49.6	-52.9	13.6	1.83e-05	0	40	0	14680064	70	5373
2026-01-22 09:18:37.37	146.08	4.83	-48.9	-51.6	15.0	0.00e+00	0	40	0	16777216	68	5213
2026-01-22 09:18:38.38	146.07	4.90	-48.9	-51.7	14.8	0.00e+00	0	40	0	18874368	69	4960
2026-01-22 09:18:39.38	146.07	4.98	-48.8	-51.6	15.0	0.00e+00	0	40	0	19922944	69	4880
2026-01-22 09:18:40.39	146.06	5.05	-48.7	-51.3	15.3	0.00e+00	0	40	0	22020096	69	4727
2026-01-22 09:18:41.40	146.06	5.12	-49.5	-52.7	14.0	2.82e-05	0	40	0	24117248	70	5220
2026-01-22 09:18:42.41	146.05	5.19	-49.7	-53.0	13.5	5.01e-04	0	40	0	26214400	71	5102
2026-01-22 09:18:43.42	146.05	5.27	-50.3	-54.6	11.5	2.49e-02	0	40	0	28311552	72	5822
2026-01-22 09:18:44.42	146.04	5.34	-48.6	-51.2	15.4	1.50e-06	0	40	0	30408704	69	4695
2026-01-22 09:18:45.43	146.04	5.41	-49.8	-53.4	12.9	1.91e-03	0	40	0	31457280	71	5373
2026-01-22 09:18:46.44	146.04	5.49	-48.6	-51.2	15.3	0.00e+00	0	40	0	33554432	69	4696
2026-01-22 09:18:47.45	146.03	5.56	-47.8	-50.0	16.5	0.00e+00	0	40	0	35651584	67	4598
2026-01-22 09:18:48.46	146.03	5.63	-48.6	-51.2	15.4	0.00e+00	0	40	0	37748736	67	5251
2026-01-22 09:18:49.46	146.02	5.71	-48.1	-50.5	16.2	0.00e+00	0	40	0	39845888	67	4823
2026-01-22 09:18:50.47	146.02	5.78	-48.4	-50.9	15.7	0.00e+00	0	40	0	40894464	67	5065
2026-01-22 09:18:51.48	146.01	5.86	-48.3	-50.7	16.0	0.00e+00	0	40	0	42991616	67	4953
2026-01-22 09:18:52.49	146.01	5.93	-48.4	-50.8	15.9	0.00e+00	0	40	0	45088768	67	5005
2026-01-22 09:18:53.50	146.00	6.01	-48.1	-50.4	16.3	0.00e+00	0	40	0	47185920	67	4780
2026-01-22 09:18:54.50	145.99	6.08	-47.6	-49.7	16.9	0.00e+00	0	40	0	48234496	67	4414
2026-01-22 09:18:55.51	145.99	6.16	-48.4	-50.8	15.8	0.00e+00	0	40	0	50331648	67	5041
2026-01-22 09:18:56.52	145.98	6.23	-47.9	-50.1	16.6	0.00e+00	0	40	0	52428800	67	4617
2026-01-22 09:18:57.53	145.98	6.31	-48.0	-50.3	16.4	0.00e+00	0	40	0	54525952	67	4710
2026-01-22 09:18:58.54	145.97	6.38	-48.1	-50.3	16.4	0.00e+00	0	40	0	56623104	67	4727
2026-01-22 09:18:59.55	145.97	6.46	-48.2	-50.6	16.1	0.00e+00	0	40	0	58720256	67	4886
2026-01-22 09:19:00.55	145.96	6.54	-48.4	-50.8	15.9	0.00e+00	0	40	0	59768832	67	5013
2026-01-22 09:19:01.56	145.96	6.61	-47.9	-50.0	16.8	0.00e+00	0	40	0	61865984	67	4567
2026-01-22 09:19:02.57	145.95	6.69	-48.5	-51.0	15.8	0.00e+00	0	40	0	63963136	67	5121
2026-01-22 09:19:03.58	145.95	6.77	-47.9	-50.0	16.8	0.00e+00	0	40	0	66060288	67	4581
2026-01-22 09:19:04.58	145.94	6.84	-48.1	-50.3	16.5	0.00e+00	0	40	0	68157440	67	4727
2026-01-22 09:19:05.59	145.93	6.92	-47.8	-49.9	16.9	0.00e+00	0	40	0	69206016	67	4527
2026-01-22 09:19:06.60	145.93	7.00	-48.2	-50.5	16.3	0.00e+00	0	40	0	71303168	67	4853
2026-01-22 09:19:07.61	145.92	7.08	-48.0	-50.2	16.7	0.00e+00	0	40	0	73400320	67	4681
2026-01-22 09:19:08.61	145.92	7.15	-47.9	-50.1	16.8	0.00e+00	0	40	0	75497472	67	4611
2026-01-22 09:19:09.62	145.91	7.23	-47.9	-50.0	16.9	0.00e+00	0	40	0	77594624	67	4557
2026-01-22 09:19:10.63	145.91	7.31	-48.2	-50.4	16.4	0.00e+00	0	40	0	78643200	67	4802
2026-01-22 09:19:11.64	145.90	7.39	-47.9	-50.0	16.9	0.00e+00	0	40	0	80740352	67	4548
2026-01-22 09:19:12.65	145.89	7.47	-48.1	-50.2	16.6	0.00e+00	0	40	0	82837504	67	4704
2026-01-22 09:19:13.66	145.89	7.55	-47.7	-49.8	17.1	0.00e+00	0	40	0	84934656	67	4442
2026-01-22 09:19:14.67	145.88	7.63	-47.9	-49.9	16.9	0.00e+00	0	40	0	87031808	67	4535
2026-01-22 09:19:15.68	145.88	7.71	-47.7	-49.7	17.3	0.00e+00	0	40	0	88080384	67	4394
2026-01-22 09:19:16.68	145.87	7.79	-47.8	-49.9	17.0	0.00e+00	0	40	0	90177536	67	4512
2026-01-22 09:19:17.69	145.86	7.87	-47.9	-49.9	17.0	0.00e+00	0	40	0	92274688	67	4532
2026-01-22 09:19:18.70	145.86	7.95	-47.6	-49.5	17.4	0.00e+00	0	40	0	94371840	67	4308
2026-01-22 09:19:19.71	145.85	8.03	-47.6	-49.5	17.4	0.00e+00	0	40	0	96468992	66	4578
2026-01-22 09:19:20.72	145.84	8.11	-47.5	-49.4	17.5	0.00e+00	0	40	0	97517568	66	4534
2026-01-22 09:19:21.73	145.84	8.20	-47.5	-49.5	17.4	0.00e+00	0	40	0	99614720	66	4564
2026-01-22 09:19:22.74	145.83	8.28	-47.8	-49.8	17.1	0.00e+00	0	40	0	101711872	66	4756
2026-01-22 09:19:23.74	145.82	8.36	-47.6	-49.5	17.5	0.00e+00	0	41	0	103809024	66	4567
2026-01-22 09:19:24.75	145.82	8.44	-47.4	-49.3	17.7	0.00e+00	0	40	0	105906176	66	4461
2026-01-22 09:19:25.76	145.81	8.53	-47.6	-49.5	17.5	0.00e+00	0	40	0	106954752	66	4573
2026-01-22 09:19:26.77	145.80	8.61	-47.7	-49.6	17.3	0.00e+00	0	40	0	109051904	66	4648
2026-01-22 09:19:27.78	145.80	8.69	-47.6	-49.5	17.5	0.00e+00	0	40	0	111149056	66	4574
2026-01-22 09:19:28.78	145.79	8.77	-47.6	-49.6	17.4	0.00e+00	0	40	0	113246208	66	4617
2026-01-22 09:19:29.79	145.78	8.86	-47.5	-49.4	17.6	0.00e+00	0	40	0	115343360	66	4526
2026-01-22 09:19:30.80	145.78	8.94	-47.5	-49.4	17.6	0.00e+00	0	40	0	116391936	66	4537
2026-01-22 09:19:31.81	145.77	9.03	-47.5	-49.5	17.5	0.00e+00	0	40	0	118489088	66	4554
2026-01-22 09:19:32.82	145.76	9.11	-47.5	-49.4	17.5	0.00e+00	0	40	0	120586240	66	4540
2026-01-22 09:19:33.82	145.75	9.20	-47.6	-49.6	17.4	0.00e+00	0	40	0	122683392	66	4628
2026-01-22 09:19:34.83	145.75	9.28	-47.4	-49.3	17.7	0.00e+00	0	41	0	124780544	66	4474
2026-01-22 09:19:35.84	145.74	9.37	-47.5	-49.4	17.6	0.00e+00	0	40	0	125829120	66	4524
2026-01-22 09:19:36.85	145.73	9.45	-47.4	-49.2	17.8	0.00e+00	0	40	0	127926272	66	4421
2026-01-22 09:19:37.86	145.72	9.54	-47.4	-49.2	17.8	0.00e+00	0	40	0	130023424	66	4413
2026-01-22 09:19:38.86	145.72	9.62	-47.5	-49.4	17.6	0.00e+00	0	40	0	132120576	66	4517
2026-01-22 09:19:39.87	145.71	9.71	-47.2	-49.0	18.0	0.00e+00	0	40	0	134217728	66	4335
2026-01-22 09:19:40.88	145.70	9.80	-47.5	-49.4	17.7	0.00e+00	0	40	0	135266304	66	4508
2026-01-22 09:19:41.89	145.69	9.89	-47.4	-49.2	17.9	0.00e+00	0	40	0	137363456	66	4407
2026-01-22 09:19:42.90	145.69	9.97	-47.2	-49.0	18.1	0.00e+00	0	41	0	139460608	66	4315
2026-01-22 09:19:43.91	145.68	10.06	-47.4	-49.2	17.9	0.00e+00	0	41	0	141557760	66	4406
2026-01-22 09:19:44.92	145.67	10.15	-47.4	-49.3	17.8	0.00e+00	0	40	0	143654912	66	4442
2026-01-22 09:19:45.93	145.66	10.24	-47.5	-49.4	17.7	0.00e+00	0	40	0	145752064	66	4504
2026-01-22 09:19:46.94	145.65	10.33	-47.3	-49.1	18.0	0.00e+00	0	41	0	146800640	66	4379
2026-01-22 09:19:47.94	145.65	10.42	-47.1	-48.8	18.3	0.00e+00	0	41	0	148897792	66	4229
2026-01-22 09:19:48.95	145.64	10.51	-47.4	-49.3	17.8	0.00e+00	0	40	0	150994944	66	4456
2026-01-22 09:19:49.96	145.63	10.60	-47.2	-48.9	18.2	0.00e+00	0	41	0	153092096	66	4268
2026-01-22 09:19:50.97	145.62	10.69	-47.2	-48.9	18.2	0.00e+00	0	40	0	154140672	66	4276
2026-01-22 09:19:51.98	145.61	10.78	-47.3	-49.1	18.1	0.00e+00	0	40	0	156237824	66	4342
2026-01-22 09:19:52.99	145.60	10.87	-47.1	-48.8	18.3	0.00e+00	0	40	0	158334976	66	4235
2026-01-22 09:19:54.00	145.60	10.96	-47.0	-48.7	18.4	0.00e+00	0	40	0	160432128	66	4158
2026-01-22 09:19:55.01	145.59	11.05	-47.0	-48.7	18.5	0.00e+00	0	40	0	162529280	65	4392
2026-01-22 09:19:56.01	145.58	11.14	-47.0	-48.7	18.4	0.00e+00	0	40	0	163577856	65	4408
2026-01-22 09:19:57.02	145.57	11.23	-47.0	-48.7	18.4	0.00e+00	0	40	0	165675008	65	4411
2026-01-22 09:19:58.03	145.56	11.33	-46.9	-48.6	18.6	0.00e+00	0	41	0	167772160	65	4356
2026-01-22 09:19:59.04	145.55	11.42	-46.9	-48.5	18.6	0.00e+00	0	40	0	169869312	65	4336
2026-01-22 09:20:00.05	145.54	11.51	-46.8	-48.4	18.7	0.00e+00	0	41	0	171966464	65	4269
2026-01-22 09:20:01.05	145.53	11.61	-46.9	-48.6	18.6	0.00e+00	0	40	0	174063616	65	4343
2026-01-22 09:20:02.06	145.53	11.70	-46.9	-48.6	18.6	0.00e+00	0	40	0	175112192	65	4353
2026-01-22 09:20:03.07	145.52	11.79	-46.9	-48.6	18.6	0.00e+00	0	40	0	177209344	65	4366
2026-01-22 09:20:04.08	145.51	11.89	-46.9	-48.5	18.6	0.00e+00	0	40	0	179306496	65	4320
2026-01-22 09:20:05.08	145.50	11.98	-46.9	-48.6	18.6	0.00e+00	0	40	0	181403648	65	4351
2026-01-22 09:20:06.09	145.49	12.08	-46.9	-48.5	18.7	0.00e+00	0	40	0	182452224	65	4315
2026-01-22 09:20:07.10	145.48	12.17	-46.8	-48.4	18.7	0.00e+00	0	40	0	184549376	65	4275
2026-01-22 09:20:08.10	145.47	12.27	-46.7	-48.4	18.8	0.00e+00	0	40	0	186646528	65	4245
2026-01-22 09:20:09.11	145.46	12.37	-46.7	-48.3	18.9	0.00e+00	0	41	0	188743680	65	4218
2026-01-22 09:20:10.12	145.45	12.46	-46.6	-48.2	18.9	0.00e+00	0	41	0	190840832	65	4182
2026-01-22 09:20:11.13	145.44	12.56	-46.7	-48.2	18.9	0.00e+00	0	41	0	192937984	65	4189
2026-01-22 09:20:12.14	145.43	12.66	-46.5	-48.1	19.1	0.00e+00	0	40	0	193986560	65	4117
2026-01-22 09:20:13.14	145.42	12.76	-46.7	-48.3	18.9	0.00e+00	0	40	0	196083712	65	4196
2026-01-22 09:20:14.15	145.41	12.85	-46.5	-48.0	19.1	0.00e+00	0	40	0	198180864	65	4096
2026-01-22 09:20:15.16	145.40	12.95	-46.5	-48.1	19.1	0.00e+00	0	40	0	200278016	65	4113
2026-01-22 09:20:16.16	145.39	13.05	-46.5	-48.1	19.1	0.00e+00	0	40	0	202375168	65	4101
2026-01-22 09:20:17.17	145.38	13.15	-46.4	-47.9	19.3	0.00e+00	0	41	0	203423744	64	4255
2026-01-22 09:20:18.18	145.37	13.25	-46.4	-48.0	19.2	0.00e+00	0	41	0	205520896	64	4293
2026-01-22 09:20:19.19	145.36	13.35	-46.5	-48.0	19.2	0.00e+00	0	41	0	207618048	64	4315
2026-01-22 09:20:20.20	145.35	13.45	-46.5	-48.1	19.1	0.00e+00	0	40	0	209715200	64	4351
2026-01-22 09:20:21.20	145.33	13.55	-46.5	-48.1	19.1	0.00e+00	0	41	0	210763776	64	4355
2026-01-22 09:20:22.21	145.32	13.66	-46.4	-47.9	19.3	0.00e+00	0	40	0	212860928	64	4276
2026-01-22 09:20:23.22	145.31	13.76	-46.4	-47.9	19.3	0.00e+00	0	40	0	214958080	64	4245
2026-01-22 09:20:24.22	145.30	13.86	-46.4	-47.9	19.3	0.00e+00	0	40	0	217055232	64	4272
2026-01-22 09:20:25.23	145.29	13.96	-46.3	-47.8	19.4	0.00e+00	0	40	0	219152384	64	4221
2026-01-22 09:20:26.24	145.28	14.07	-46.2	-47.7	19.5	0.00e+00	0	40	0	221249536	64	4177
2026-01-22 09:20:27.25	145.27	14.17	-46.2	-47.6	19.6	0.00e+00	0	41	0	222298112	64	4143
2026-01-22 09:20:28.25	145.26	14.27	-46.2	-47.7	19.6	0.00e+00	0	41	0	224395264	64	4152
2026-01-22 09:20:29.26	145.24	14.38	-46.3	-47.8	19.5	0.00e+00	0	41	0	226492416	64	4204
2026-01-22 09:20:30.27	145.23	14.49	-46.2	-47.7	19.5	0.00e+00	0	41	0	228589568	64	4152
2026-01-22 09:20:31.28	145.22	14.59	-46.2	-47.6	19.6	0.00e+00	0	41	0	230686720	64	4136
2026-01-22 09:20:32.29	145.21	14.70	-46.1	-47.5	19.7	0.00e+00	0	41	0	231735296	64	4079
2026-01-22 09:20:33.30	145.20	14.80	-46.0	-47.4	19.8	0.00e+00	0	40	0	233832448	64	4042
2026-01-22 09:20:34.30	145.18	14.91	-46.0	-47.5	19.8	0.00e+00	0	40	0	235929600	64	4057
2026-01-22 09:20:35.31	145.17	15.02	-46.0	-47.4	19.9	0.00e+00	0	41	0	238026752	63	4278
2026-01-22 09:20:36.32	145.16	15.13	-46.1	-47.5	19.8	0.00e+00	0	40	0	240123904	63	4334
2026-01-22 09:20:37.33	145.15	15.23	-46.1	-47.6	19.8	0.00e+00	0	40	0	241172480	63	4342
2026-01-22 09:20:38.33	145.13	15.34	-46.0	-47.4	19.9	0.00e+00	0	40	0	243269632	63	4266
2026-01-22 09:20:39.34	145.12	15.45	-46.0	-47.3	20.0	0.00e+00	0	41	0	245366784	63	4238
2026-01-22 09:20:40.35	145.11	15.56	-45.9	-47.3	20.0	0.00e+00	0	41	0	247463936	63	4216
2026-01-22 09:20:41.36	145.10	15.67	-46.0	-47.4	19.9	0.00e+00	0	40	0	249561088	63	4282
2026-01-22 09:20:42.36	145.08	15.78	-46.0	-47.4	19.9	0.00e+00	0	40	0	250609664	63	4267
2026-01-22 09:20:43.37	145.07	15.90	-46.0	-47.4	19.9	0.00e+00	0	41	0	252706816	63	4279
2026-01-22 09:20:44.38	145.06	16.01	-45.8	-47.2	20.2	0.00e+00	0	41	0	254803968	63	4158
2026-01-22 09:20:45.39	145.04	16.12	-45.8	-47.1	20.2	0.00e+00	0	41	0	256901120	63	4141
2026-01-22 09:20:46.40	145.03	16.23	-45.8	-47.1	20.3	0.00e+00	0	41	0	258998272	63	4118
2026-01-22 09:20:47.40	145.01	16.35	-45.7	-47.0	20.3	0.00e+00	0	41	0	260046848	63	4078
2026-01-22 09:20:48.41	145.00	16.46	-45.7	-47.0	20.3	0.00e+00	0	41	0	262144000	63	4089
2026-01-22 09:20:49.42	144.99	16.57	-45.6	-47.0	20.4	0.00e+00	0	41	0	264241152	63	4059
2026-01-22 09:20:50.43	144.97	16.69	-45.6	-46.9	20.4	0.00e+00	0	41	0	266338304	63	4036
2026-01-22 09:20:51.44	144.96	16.81	-45.6	-47.0	20.4	0.00e+00	0	41	0	268435456	63	4052
2026-01-22 09:20:52.44	144.94	16.92	-45.6	-46.9	20.4	0.00e+00	0	40	0	269484032	63	4039
2026-01-22 09:20:53.45	144.93	17.04	-45.6	-46.9	20.5	0.00e+00	0	41	0	271581184	63	4026
2026-01-22 09:20:54.46	144.91	17.16	-45.6	-46.9	20.5	0.00e+00	0	41	0	273678336	63	4019
2026-01-22 09:20:55.47	144.90	17.27	-45.6	-46.9	20.5	0.00e+00	0	41	0	275775488	63	4018
2026-01-22 09:20:56.48	144.88	17.39	-45.6	-46.8	20.5	0.00e+00	0	41	0	277872640	63	3999
2026-01-22 09:20:57.49	144.87	17.51	-45.5	-46.8	20.5	0.00e+00	0	40	0	278921216	63	3982
2026-01-22 09:20:58.49	144.85	17.63	-45.5	-46.8	20.6	0.00e+00	0	40	0	281018368	63	3964
2026-01-22 09:20:59.50	144.84	17.75	-45.4	-46.7	20.7	0.00e+00	0	41	0	283115520	62	4168
2026-01-22 09:21:00.50	144.82	17.87	-45.5	-46.7	20.6	0.00e+00	0	41	0	285212672	62	4185
2026-01-22 09:21:01.51	144.81	17.99	-45.5	-46.7	20.6	0.00e+00	0	41	0	287309824	62	4191
2026-01-22 09:21:02.52	144.79	18.11	-45.4	-46.7	20.7	0.00e+00	0	41	0	288358400	62	4162
2026-01-22 09:21:03.53	144.77	18.24	-45.4	-46.6	20.8	0.00e+00	0	41	0	290455552	62	4121
2026-01-22 09:21:04.54	144.76	18.36	-45.4	-46.7	20.7	0.00e+00	0	40	0	292552704	62	4153
2026-01-22 09:21:05.54	144.74	18.48	-45.4	-46.7	20.7	0.00e+00	0	41	0	294649856	62	4161
2026-01-22 09:21:06.55	144.73	18.61	-45.2	-46.5	20.9	0.00e+00	0	41	0	296747008	62	4053
2026-01-22 09:21:07.56	144.71	18.73	-45.3	-46.5	20.8	0.00e+00	0	41	0	297795584	62	4087
2026-01-22 09:21:08.57	144.69	18.86	-45.3	-46.5	20.8	0.00e+00	0	40	0	299892736	62	4091
2026-01-22 09:21:09.58	144.67	18.99	-45.1	-46.3	21.0	0.00e+00	0	41	0	301989888	62	3990
2026-01-22 09:21:10.58	144.66	19.11	-45.1	-46.3	21.0	0.00e+00	0	41	0	304087040	62	4002
2026-01-22 09:21:11.59	144.64	19.24	-45.1	-46.3	21.1	0.00e+00	0	41	0	306184192	62	3981
2026-01-22 09:21:12.60	144.62	19.37	-45.0	-46.2	21.1	0.00e+00	0	41	0	307232768	62	3952
2026-01-22 09:21:13.61	144.60	19.50	-45.1	-46.3	21.0	0.00e+00	0	41	0	309329920	62	3994
2026-01-22 09:21:14.62	144.59	19.63	-45.1	-46.3	21.1	0.00e+00	0	41	0	311427072	62	3960
2026-01-22 09:21:15.62	144.57	19.76	-44.9	-46.1	21.2	0.00e+00	0	41	0	313524224	61	4130
2026-01-22 09:21:16.63	144.55	19.89	-44.9	-46.1	21.3	0.00e+00	0	40	0	315621376	61	4137
2026-01-22 09:21:17.64	144.53	20.02	-44.9	-46.1	21.3	0.00e+00	0	41	0	317718528	61	4099
2026-01-22 09:21:18.65	144.51	20.15	-44.9	-46.1	21.2	0.00e+00	0	40	0	318767104	61	4133
2026-01-22 09:21:19.65	144.49	20.28	-44.8	-45.9	21.4	0.00e+00	0	41	0	320864256	61	4047
2026-01-22 09:21:20.66	144.48	20.42	-44.9	-46.1	21.3	0.00e+00	0	41	0	322961408	61	4105
2026-01-22 09:21:21.67	144.46	20.55	-44.8	-46.0	21.4	0.00e+00	0	41	0	325058560	61	4052
2026-01-22 09:21:22.68	144.44	20.69	-44.7	-45.9	21.5	0.00e+00	0	41	0	326107136	61	4018
2026-01-22 09:21:23.68	144.42	20.82	-44.8	-45.9	21.5	0.00e+00	0	41	0	328204288	61	4047
2026-01-22 09:21:24.69	144.40	20.96	-44.8	-46.0	21.4	0.00e+00	0	41	0	330301440	61	4060
2026-01-22 09:21:25.70	144.38	21.10	-44.7	-45.9	21.5	0.00e+00	0	41	0	332398592	61	4007
2026-01-22 09:21:26.71	144.36	21.24	-44.6	-45.7	21.6	0.00e+00	0	40	0	334495744	61	3939
2026-01-22 09:21:27.72	144.34	21.37	-44.6	-45.7	21.6	0.00e+00	0	41	0	335544320	60	4181
2026-01-22 09:21:28.72	144.32	21.51	-44.6	-45.7	21.7	0.00e+00	0	41	0	337641472	60	4169
2026-01-22 09:21:29.73	144.29	21.65	-44.5	-45.6	21.7	0.00e+00	0	40	0	339738624	60	4131
2026-01-22 09:21:30.73	144.27	21.79	-44.5	-45.6	21.7	0.00e+00	0	41	0	341835776	60	4134
2026-01-22 09:21:31.74	144.25	21.94	-44.6	-45.7	21.7	0.00e+00	0	40	0	343932928	60	4174
2026-01-22 09:21:32.75	144.23	22.08	-44.6	-45.7	21.6	0.00e+00	0	41	0	346030080	60	4180
2026-01-22 09:21:33.75	144.21	22.22	-44.5	-45.7	21.7	0.00e+00	0	40	0	347078656	60	4150
2026-01-22 09:21:34.76	144.19	22.37	-44.5	-45.6	21.8	0.00e+00	0	41	0	349175808	60	4109
2026-01-22 09:21:35.76	144.16	22.51	-44.4	-45.5	21.8	0.00e+00	0	41	0	351272960	60	4077
2026-01-22 09:21:36.77	144.14	22.66	-44.4	-45.5	21.9	0.00e+00	0	40	0	353370112	60	4065
2026-01-22 09:21:37.78	144.12	22.80	-44.4	-45.5	21.8	0.00e+00	0	41	0	354418688	60	4098
2026-01-22 09:21:38.79	144.10	22.95	-44.5	-45.6	21.8	0.00e+00	0	41	0	356515840	60	4103
2026-01-22 09:21:39.79	144.07	23.10	-44.6	-45.7	21.7	0.00e+00	0	41	0	358612992	60	4167
2026-01-22 09:21:40.80	144.05	23.25	-44.4	-45.5	21.9	0.00e+00	0	41	0	360710144	60	4069
2026-01-22 09:21:41.81	144.02	23.40	-44.4	-45.5	21.8	0.00e+00	0	41	0	362807296	60	4090
2026-01-22 09:21:42.82	144.00	23.55	-44.4	-45.5	21.9	0.00e+00	0	40	0	363855872	60	4091
2026-01-22 09:21:43.82	143.98	23.70	-44.5	-45.5	21.8	0.00e+00	0	41	0	365953024	60	4097
2026-01-22 09:21:44.83	143.95	23.85	-44.4	-45.5	21.9	0.00e+00	0	40	0	368050176	60	4093
2026-01-22 09:21:45.84	143.93	24.01	-44.6	-45.7	21.7	0.00e+00	0	40	0	370147328	60	4154
2026-01-22 09:21:46.85	143.90	24.16	-44.6	-45.7	21.7	0.00e+00	0	41	0	372244480	60	4186
2026-01-22 09:21:47.86	143.88	24.32	-44.6	-45.7	21.7	0.00e+00	0	41	0	374341632	60	4183
2026-01-22 09:21:48.86	143.85	24.47	-44.6	-45.8	21.7	0.00e+00	0	40	0	375390208	60	4195
2026-01-22 09:21:49.87	143.82	24.63	-44.7	-45.8	21.6	0.00e+00	0	41	0	377487360	60	4212
2026-01-22 09:21:50.88	143.80	24.79	-44.8	-45.9	21.6	0.00e+00	0	41	0	379584512	60	4267
2026-01-22 09:21:51.89	143.77	24.95	-44.8	-45.9	21.6	0.00e+00	0	41	0	381681664	60	4262
2026-01-22 09:21:52.90	143.74	25.11	-44.8	-46.0	21.5	0.00e+00	0	41	0	382730240	60	4294
2026-01-22 09:21:53.90	143.72	25.27	-44.9	-46.1	21.4	0.00e+00	0	40	0	384827392	60	4346
2026-01-22 09:21:54.91	143.69	25.43	-45.0	-46.1	21.3	0.00e+00	0	40	0	386924544	60	4389
2026-01-22 09:21:55.92	143.66	25.60	-45.0	-46.2	21.3	0.00e+00	0	40	0	389021696	60	4392
2026-01-22 09:21:56.93	143.63	25.76	-45.1	-46.3	21.2	0.00e+00	0	41	0	391118848	60	4460
2026-01-22 09:21:57.94	143.60	25.93	-45.1	-46.3	21.2	0.00e+00	0	41	0	393216000	60	4450
2026-01-22 09:21:58.95	143.58	26.09	-45.2	-46.4	21.1	0.00e+00	0	41	0	394264576	60	4518
2026-01-22 09:21:59.96	143.55	26.26	-45.3	-46.5	21.1	0.00e+00	0	40	0	396361728	61	4302
2026-01-22 09:22:00.97	143.52	26.43	-45.3	-46.5	21.0	0.00e+00	0	41	0	398458880	61	4317
2026-01-22 09:22:01.97	143.49	26.60	-45.4	-46.6	20.9	0.00e+00	0	41	0	400556032	61	4379
2026-01-22 09:22:02.98	143.46	26.77	-45.6	-46.8	20.7	0.00e+00	0	41	0	402653184	61	4493
2026-01-22 09:22:03.99	143.43	26.94	-45.5	-46.8	20.8	0.00e+00	0	41	0	403701760	61	4445
2026-01-22 09:22:05.00	143.39	27.11	-45.6	-46.9	20.6	0.00e+00	0	41	0	405798912	61	4529
2026-01-22 09:22:06.00	143.36	27.28	-45.7	-47.0	20.6	0.00e+00	0	41	0	407896064	62	4303
2026-01-22 09:22:07.01	143.33	27.46	-45.8	-47.1	20.5	0.00e+00	0	41	0	409993216	62	4377
2026-01-22 09:22:08.02	143.30	27.64	-45.9	-47.2	20.4	0.00e+00	0	40	0	411041792	62	4432
2026-01-22 09:22:09.03	143.27	27.81	-45.9	-47.2	20.4	0.00e+00	0	41	0	413138944	62	4425
2026-01-22 09:22:10.04	143.23	27.99	-46.0	-47.4	20.2	0.00e+00	0	41	0	415236096	62	4498
2026-01-22 09:22:11.05	143.20	28.17	-46.1	-47.4	20.2	0.00e+00	0	41	0	417333248	62	4540
2026-01-22 09:22:12.05	143.17	28.35	-46.2	-47.6	20.0	0.00e+00	0	40	0	419430400	63	4368
2026-01-22 09:22:13.06	143.13	28.53	-46.4	-47.8	19.9	0.00e+00	0	41	0	421527552	63	4450
2026-01-22 09:22:14.07	143.10	28.71	-46.5	-47.9	19.7	0.00e+00	0	40	0	422576128	63	4524
2026-01-22 09:22:15.08	143.06	28.90	-46.7	-48.2	19.4	0.00e+00	0	41	0	424673280	64	4438
2026-01-22 09:22:16.09	143.03	29.08	-46.9	-48.4	19.2	0.00e+00	0	40	0	426770432	64	4524
2026-01-22 09:22:17.09	142.99	29.27	-47.0	-48.6	19.0	0.00e+00	0	41	0	428867584	64	4624
2026-01-22 09:22:18.10	142.95	29.46	-47.1	-48.7	18.9	0.00e+00	0	41	0	430964736	64	4674
2026-01-22 09:22:19.11	142.92	29.65	-47.1	-48.7	18.8	0.00e+00	0	41	0	432013312	64	4701
2026-01-22 09:22:20.12	142.88	29.84	-47.3	-48.9	18.7	0.00e+00	0	41	0	434110464	65	4523
2026-01-22 09:22:21.12	142.84	30.03	-47.3	-49.0	18.6	0.00e+00	0	41	0	436207616	65	4550
2026-01-22 09:22:22.13	142.80	30.22	-47.5	-49.2	18.4	0.00e+00	0	40	0	438304768	65	4682
2026-01-22 09:22:23.14	142.77	30.41	-47.6	-49.4	18.2	0.00e+00	0	40	0	440401920	65	4762
2026-01-22 09:22:24.15	142.73	30.61	-47.6	-49.3	18.3	0.00e+00	0	40	0	441450496	65	4725
2026-01-22 09:22:25.16	142.69	30.80	-47.7	-49.5	18.2	0.00e+00	0	41	0	443547648	66	4576
2026-01-22 09:22:26.16	142.65	31.00	-47.7	-49.5	18.2	0.00e+00	0	41	0	445644800	66	4555
2026-01-22 09:22:27.17	142.60	31.20	-47.6	-49.3	18.3	0.00e+00	0	41	0	447741952	66	4482
2026-01-22 09:22:28.18	142.56	31.40	-47.7	-49.4	18.3	0.00e+00	0	41	0	449839104	66	4514
2026-01-22 09:22:29.19	142.52	31.60	-47.7	-49.4	18.2	0.00e+00	0	41	0	450887680	66	4521
2026-01-22 09:22:30.20	142.48	31.81	-47.8	-49.6	18.1	0.00e+00	0	41	0	452984832	66	4628
2026-01-22 09:22:31.21	142.43	32.01	-47.8	-49.6	18.0	0.00e+00	0	41	0	455081984	66	4623
2026-01-22 09:22:32.21	142.39	32.22	-47.7	-49.4	18.2	0.00e+00	0	41	0	457179136	66	4522
2026-01-22 09:22:33.22	142.35	32.42	-47.8	-49.6	18.1	0.00e+00	0	41	0	459276288	66	4615
2026-01-22 09:22:34.23	142.30	32.63	-47.8	-49.6	18.0	0.00e+00	0	41	0	461373440	66	4649
2026-01-22 09:22:35.24	142.26	32.84	-47.8	-49.6	18.1	0.00e+00	0	41	0	462422016	66	4646
2026-01-22 09:22:36.24	142.21	33.05	-47.8	-49.6	18.1	0.00e+00	0	41	0	464519168	66	4599
2026-01-22 09:22:37.25	142.16	33.27	-47.7	-49.4	18.3	0.00e+00	0	41	0	466616320	66	4521
2026-01-22 09:22:38.26	142.11	33.48	-47.6	-49.3	18.4	0.00e+00	0	41	0	468713472	66	4444
2026-01-22 09:22:39.27	142.07	33.70	-47.4	-49.1	18.6	0.00e+00	0	41	0	469762048	66	4354
2026-01-22 09:22:40.27	142.02	33.91	-47.3	-48.9	18.7	0.00e+00	0	41	0	471859200	66	4267
2026-01-22 09:22:41.28	141.97	34.13	-47.2	-48.7	18.9	0.00e+00	0	41	0	473956352	66	4188
2026-01-22 09:22:42.29	141.92	34.35	-47.1	-48.7	19.0	0.00e+00	0	41	0	476053504	66	4156
2026-01-22 09:22:43.29	141.87	34.57	-47.1	-48.7	19.0	0.00e+00	0	41	0	478150656	66	4154
2026-01-22 09:22:44.30	141.81	34.80	-46.9	-48.4	19.2	0.00e+00	0	41	0	479199232	65	4281
2026-01-22 09:22:45.31	141.76	35.02	-46.7	-48.1	19.5	0.00e+00	0	41	0	481296384	65	4132
2026-01-22 09:22:46.32	141.71	35.25	-46.6	-48.0	19.6	0.00e+00	0	41	0	483393536	65	4078
2026-01-22 09:22:47.33	141.65	35.48	-46.4	-47.8	19.9	0.00e+00	0	41	0	485490688	64	4199
2026-01-22 09:22:48.34	141.60	35.71	-46.0	-47.3	20.3	0.00e+00	0	41	0	487587840	64	3980
2026-01-22 09:22:49.35	141.54	35.94	-45.9	-47.2	20.5	0.00e+00	0	41	0	489684992	63	4163
2026-01-22 09:22:50.35	141.49	36.17	-45.6	-46.8	20.8	0.00e+00	0	41	0	490733568	63	4001
2026-01-22 09:22:51.36	141.43	36.41	-45.6	-46.8	20.9	0.00e+00	0	41	0	492830720	62	4211
2026-01-22 09:22:52.37	141.37	36.65	-45.4	-46.6	21.0	0.00e+00	0	41	0	494927872	62	4124
2026-01-22 09:22:53.38	141.31	36.88	-45.4	-46.6	21.1	0.00e+00	0	41	0	497025024	62	4133
2026-01-22 09:22:54.38	141.25	37.12	-45.3	-46.5	21.1	0.00e+00	0	41	0	498073600	62	4085
2026-01-22 09:22:55.39	141.19	37.36	-45.4	-46.6	21.1	0.00e+00	0	41	0	500170752	62	4116
2026-01-22 09:22:56.40	141.13	37.61	-45.3	-46.4	21.2	0.00e+00	0	41	0	502267904	62	4050
2026-01-22 09:22:57.41	141.06	37.85	-45.1	-46.3	21.3	0.00e+00	0	41	0	504365056	62	3990
2026-01-22 09:22:58.42	141.00	38.10	-45.1	-46.2	21.4	0.00e+00	0	41	0	506462208	62	3940
2026-01-22 09:22:59.42	140.93	38.35	-45.0	-46.2	21.5	0.00e+00	0	41	0	508559360	61	4151
2026-01-22 09:23:00.43	140.87	38.60	-45.2	-46.4	21.3	0.00e+00	0	41	0	509607936	61	4266
2026-01-22 09:23:01.44	140.80	38.85	-45.3	-46.5	21.1	0.00e+00	0	41	0	511705088	61	4333
2026-01-22 09:23:02.45	140.73	39.11	-45.4	-46.6	21.0	0.00e+00	0	41	0	513802240	61	4387
2026-01-22 09:23:03.46	140.66	39.36	-45.7	-46.9	20.8	0.00e+00	0	41	0	515899392	61	4530
2026-01-22 09:23:04.46	140.59	39.62	-45.9	-47.2	20.5	0.00e+00	0	41	0	517996544	62	4402
2026-01-22 09:23:05.47	140.52	39.88	-46.0	-47.3	20.4	0.00e+00	0	41	0	519045120	62	4481
2026-01-22 09:23:06.48	140.44	40.14	-46.1	-47.4	20.3	0.00e+00	0	41	0	521142272	62	4515
2026-01-22 09:23:07.49	140.37	40.41	-46.1	-47.4	20.3	0.00e+00	0	41	0	523239424	63	4273
2026-01-22 09:23:08.50	140.29	40.67	-46.4	-47.8	20.0	0.00e+00	0	41	0	525336576	63	4469
2026-01-22 09:23:09.50	140.22	40.94	-46.6	-48.0	19.8	0.00e+00	0	41	0	526385152	63	4584
2026-01-22 09:23:10.51	140.14	41.21	-46.6	-48.0	19.6	0.00e+00	0	41	0	528482304	64	4334
2026-01-22 09:23:11.52	140.06	41.48	-46.5	-47.9	19.8	0.00e+00	0	41	0	530579456	64	4254
2026-01-22 09:23:12.53	139.98	41.75	-46.6	-48.1	19.6	0.00e+00	0	41	0	532676608	64	4360
2026-01-22 09:23:13.54	139.89	42.03	-46.7	-48.1	19.6	0.00e+00	0	41	0	534773760	64	4384
2026-01-22 09:23:14.54	139.81	42.30	-46.9	-48.4	19.3	0.00e+00	0	41	0	536870912	64	4524
2026-01-22 09:23:15.55	139.72	42.58	-47.2	-48.8	18.9	0.00e+00	0	41	0	537919488	65	4478
2026-01-22 09:23:16.56	139.64	42.86	-47.2	-48.8	18.9	0.00e+00	0	41	0	540016640	65	4471
2026-01-22 09:23:17.57	139.55	43.15	-47.1	-48.6	19.1	0.00e+00	0	41	0	542113792	65	4363
2026-01-22 09:23:18.58	139.46	43.43	-47.1	-48.7	19.1	0.00e+00	0	41	0	544210944	65	4394
2026-01-22 09:23:19.58	139.36	43.72	-46.9	-48.4	19.3	0.00e+00	0	41	0	546308096	65	4262
2026-01-22 09:23:20.59	139.27	44.01	-47.1	-48.7	19.0	0.00e+00	0	41	0	547356672	65	4426
2026-01-22 09:23:21.60	139.17	44.30	-47.2	-48.8	19.0	0.00e+00	0	41	0	549453824	65	4445
2026-01-22 09:23:22.61	139.08	44.59	-47.2	-48.8	19.0	0.00e+00	0	41	0	551550976	65	4453
2026-01-22 09:23:23.62	138.98	44.89	-47.3	-48.9	18.9	0.00e+00	0	41	0	553648128	65	4498
2026-01-22 09:23:24.62	138.88	45.18	-47.2	-48.8	18.9	0.00e+00	0	41	0	555745280	65	4481
2026-01-22 09:23:25.63	138.77	45.49	-47.4	-49.0	18.8	0.00e+00	0	41	0	556793856	65	4563
2026-01-22 09:23:26.64	138.67	45.79	-47.4	-49.0	18.7	0.00e+00	0	41	0	558891008	65	4567
2026-01-22 09:23:27.65	138.56	46.09	-47.4	-49.0	18.8	0.00e+00	0	41	0	560988160	65	4596
2026-01-22 09:23:28.66	138.45	46.40	-47.4	-49.1	18.7	0.00e+00	0	41	0	563085312	65	4612
2026-01-22 09:23:29.67	138.34	46.71	-47.6	-49.3	18.5	0.00e+00	0	41	0	565182464	65	4711
2026-01-22 09:23:30.68	138.22	47.02	-47.9	-49.7	18.2	0.00e+00	0	41	0	566231040	66	4672
2026-01-22 09:23:31.68	138.10	47.33	-48.0	-49.9	18.0	0.00e+00	0	41	0	568328192	66	4763
2026-01-22 09:23:32.69	137.99	47.64	-48.6	-50.7	17.2	0.00e+00	0	41	0	570425344	67	4951
2026-01-22 09:23:33.70	137.86	47.96	-49.0	-51.2	16.8	0.00e+00	0	41	0	572522496	68	4973
2026-01-22 09:23:34.71	137.74	48.28	-49.2	-51.5	16.5	0.00e+00	0	41	0	574619648	69	4827
2026-01-22 09:23:35.72	137.61	48.60	-48.9	-51.0	16.9	0.00e+00	0	41	0	575668224	69	4579
2026-01-22 09:23:36.72	137.48	48.93	-48.1	-49.9	18.1	0.00e+00	0	41	0	577765376	68	4247
2026-01-22 09:23:37.73	137.35	49.25	-47.4	-49.0	18.8	0.00e+00	0	41	0	579862528	66	4326
2026-01-22 09:23:38.74	137.21	49.58	-47.1	-48.6	19.2	0.00e+00	0	41	0	581959680	66	4122
2026-01-22 09:23:39.75	137.07	49.91	-47.0	-48.5	19.4	0.00e+00	0	40	0	584056832	65	4293
2026-01-22 09:23:40.76	136.93	50.24	-46.4	-47.8	20.0	0.00e+00	0	41	0	585105408	64	4203
2026-01-22 09:23:41.76	136.79	50.58	-46.1	-47.5	20.2	0.00e+00	0	41	0	587202560	64	4059
2026-01-22 09:23:42.77	136.64	50.91	-45.8	-47.1	20.7	0.00e+00	0	41	0	589299712	63	4111
2026-01-22 09:23:43.78	136.49	51.25	-45.0	-46.2	21.6	0.00e+00	0	41	0	591396864	62	3921
2026-01-22 09:23:44.79	136.33	51.60	-44.6	-45.7	22.0	0.00e+00	0	41	0	593494016	61	3933
2026-01-22 09:23:45.80	136.17	51.94	-44.6	-45.7	22.0	0.00e+00	0	41	0	594542592	61	3942
2026-01-22 09:23:46.81	136.01	52.29	-44.7	-45.8	21.9	0.00e+00	0	41	0	596639744	61	3987
2026-01-22 09:23:47.81	135.84	52.63	-44.6	-45.7	22.0	0.00e+00	0	41	0	598736896	61	3943
2026-01-22 09:23:48.82	135.67	52.98	-44.5	-45.6	22.2	0.00e+00	0	41	0	600834048	61	3877
2026-01-22 09:23:49.83	135.50	53.34	-44.4	-45.5	22.2	0.00e+00	0	41	0	602931200	60	4063
2026-01-22 09:23:50.84	135.32	53.69	-44.6	-45.7	22.1	0.00e+00	0	41	0	603979776	60	4149
2026-01-22 09:23:51.84	135.14	54.05	-44.7	-45.8	21.9	0.00e+00	0	41	0	606076928	60	4224
2026-01-22 09:23:52.85	134.95	54.41	-44.6	-45.6	22.1	0.00e+00	0	41	0	608174080	60	4139
2026-01-22 09:23:53.86	134.75	54.77	-44.6	-45.7	22.0	0.00e+00	0	41	0	610271232	60	4176
2026-01-22 09:23:54.87	134.55	55.13	-44.8	-45.8	21.8	0.00e+00	0	40	0	612368384	60	4232
2026-01-22 09:23:55.88	134.35	55.50	-44.8	-45.9	21.8	0.00e+00	0	41	0	613416960	60	4274
2026-01-22 09:23:56.88	134.14	55.86	-45.1	-46.2	21.5	0.00e+00	0	41	0	615514112	60	4435
2026-01-22 09:23:57.89	133.93	56.23	-45.2	-46.4	21.4	0.00e+00	0	41	0	617611264	61	4246
2026-01-22 09:23:58.90	133.70	56.61	-45.7	-47.0	20.9	0.00e+00	0	41	0	619708416	62	4297
2026-01-22 09:23:59.91	133.48	56.98	-46.4	-47.7	20.2	0.00e+00	0	41	0	621805568	63	4430
2026-01-22 09:24:00.92	133.24	57.36	-46.6	-48.0	19.8	0.00e+00	0	41	0	622854144	64	4314
2026-01-22 09:24:01.92	133.00	57.73	-47.1	-48.6	19.2	0.00e+00	0	41	0	624951296	64	4640
2026-01-22 09:24:02.93	132.76	58.11	-47.7	-49.4	18.6	0.00e+00	0	41	0	627048448	65	4769
2026-01-22 09:24:03.94	132.50	58.49	-48.1	-49.9	18.0	0.00e+00	0	41	0	629145600	66	4798
2026-01-22 09:24:04.95	132.24	58.88	-47.9	-49.6	18.3	0.00e+00	0	41	0	631242752	66	4626
2026-01-22 09:24:05.96	131.97	59.26	-47.5	-49.2	18.7	0.00e+00	0	41	0	632291328	66	4392
2026-01-22 09:24:06.96	131.69	59.65	-47.5	-49.1	18.7	0.00e+00	0	41	0	634388480	66	4357
2026-01-22 09:24:07.97	131.41	60.04	-46.9	-48.4	19.4	0.00e+00	0	40	0	636485632	65	4267
2026-01-22 09:24:08.98	131.11	60.43	-46.1	-47.4	20.4	0.00e+00	0	41	0	638582784	64	4040
2026-01-22 09:24:09.99	130.80	60.82	-45.6	-46.8	21.1	0.00e+00	0	41	0	640679936	63	3962
2026-01-22 09:24:11.00	130.49	61.22	-45.1	-46.3	21.4	0.00e+00	0	41	0	641728512	62	3974
2026-01-22 09:24:12.00	130.17	61.61	-44.7	-45.7	22.1	0.00e+00	0	41	0	643825664	61	3958
2026-01-22 09:24:13.01	129.83	62.01	-44.2	-45.3	22.5	0.00e+00	0	41	0	645922816	60	3962
2026-01-22 09:24:14.02	129.48	62.41	-44.1	-45.1	22.9	0.00e+00	0	41	0	648019968	59	4129
2026-01-22 09:24:15.03	129.12	62.81	-44.2	-45.2	22.9	0.00e+00	0	41	0	650117120	59	4166
2026-01-22 09:24:16.04	128.75	63.21	-44.2	-45.2	22.8	0.00e+00	0	41	0	652214272	59	4187
2026-01-22 09:24:17.04	128.37	63.61	-44.4	-45.5	22.6	0.00e+00	0	41	0	653262848	59	4306
2026-01-22 09:24:18.05	127.97	64.01	-44.5	-45.6	22.5	0.00e+00	0	41	0	655360000	59	4350
2026-01-22 09:24:19.06	127.56	64.42	-44.3	-45.4	22.5	0.00e+00	0	41	0	657457152	60	4006
2026-01-22 09:24:20.07	127.14	64.83	-44.7	-45.8	22.0	0.00e+00	0	41	0	659554304	60	4203
2026-01-22 09:24:21.08	126.69	65.23	-45.0	-46.1	21.7	0.00e+00	0	41	0	660602880	60	4353
2026-01-22 09:24:22.08	126.24	65.64	-45.2	-46.3	21.5	0.00e+00	0	40	0	662700032	60	4474
2026-01-22 09:24:23.09	125.76	66.05	-45.7	-46.9	21.0	0.00e+00	0	41	0	664797184	61	4523
2026-01-22 09:24:24.10	125.27	66.46	-46.5	-47.9	20.1	0.00e+00	0	41	0	666894336	63	4533
2026-01-22 09:24:25.11	124.75	66.86	-46.7	-48.1	19.8	0.00e+00	0	41	0	668991488	64	4372
2026-01-22 09:24:26.12	124.22	67.27	-46.4	-47.8	20.1	0.00e+00	0	41	0	670040064	64	4219
2026-01-22 09:24:27.12	123.67	67.68	-46.5	-47.8	20.0	0.00e+00	0	41	0	672137216	64	4236
2026-01-22 09:24:28.13	123.09	68.09	-46.4	-47.8	20.1	0.00e+00	0	41	0	674234368	64	4200
2026-01-22 09:24:29.14	122.48	68.50	-46.3	-47.6	20.2	0.00e+00	0	41	0	676331520	64	4143
2026-01-22 09:24:30.14	121.86	68.90	-45.7	-46.9	21.0	0.00e+00	0	41	0	678428672	63	4027
2026-01-22 09:24:31.15	121.20	69.31	-45.3	-46.5	21.4	0.00e+00	0	41	0	680525824	62	4065
2026-01-22 09:24:32.16	120.52	69.72	-45.2	-46.3	21.6	0.00e+00	0	41	0	681574400	62	3974
2026-01-22 09:24:33.17	119.81	70.13	-45.0	-46.0	21.8	0.00e+00	0	41	0	683671552	61	4098
2026-01-22 09:24:34.18	119.06	70.53	-45.2	-46.3	21.5	0.00e+00	0	41	0	685768704	61	4217
2026-01-22 09:24:35.18	118.29	70.93	-45.4	-46.6	21.3	0.00e+00	0	41	0	687865856	61	4377
2026-01-22 09:24:36.19	117.47	71.33	-44.9	-46.0	21.8	0.00e+00	0	41	0	688914432	61	4056
2026-01-22 09:24:37.20	116.62	71.73	-44.7	-45.8	22.1	0.00e+00	0	41	0	691011584	61	3976
2026-01-22 09:24:38.21	115.72	72.13	-45.1	-46.2	21.6	0.00e+00	0	41	0	693108736	61	4180
2026-01-22 09:24:39.22	114.79	72.52	-45.5	-46.7	21.2	0.00e+00	0	41	0	695205888	61	4434
2026-01-22 09:24:40.22	113.81	72.91	-46.1	-47.4	20.6	0.00e+00	0	41	0	697303040	62	4514
2026-01-22 09:24:41.23	112.78	73.29	-46.2	-47.5	20.5	0.00e+00	0	41	0	699400192	63	4300
2026-01-22 09:24:42.24	111.70	73.68	-46.9	-48.4	19.6	0.00e+00	0	40	0	700448768	64	4505
2026-01-22 09:24:43.25	110.56	74.05	-47.5	-49.1	18.7	0.00e+00	0	41	0	702545920	65	4646
2026-01-22 09:24:44.26	109.37	74.43	-47.5	-49.1	18.9	0.00e+00	0	41	0	704643072	65	4615
2026-01-22 09:24:45.26	108.13	74.79	-47.7	-49.3	18.6	0.00e+00	0	41	0	706740224	66	4470
2026-01-22 09:24:46.27	106.81	75.15	-47.9	-49.6	18.3	0.00e+00	0	41	0	708837376	66	4637
2026-01-22 09:24:47.28	105.43	75.50	-48.6	-50.6	17.4	0.00e+00	0	41	0	709885952	67	4889
2026-01-22 09:24:48.29	103.97	75.85	-48.7	-50.7	17.4	0.00e+00	0	41	0	711983104	68	4705
2026-01-22 09:24:49.30	102.44	76.19	-48.3	-50.1	18.0	0.00e+00	0	41	0	714080256	68	4365
2026-01-22 09:24:50.31	100.83	76.52	-47.4	-49.0	18.8	0.00e+00	0	41	0	716177408	66	4314
2026-01-22 09:24:51.32	99.14	76.83	-47.5	-49.2	18.9	0.00e+00	0	41	0	717225984	66	4397
2026-01-22 09:24:52.32	97.38	77.14	-47.6	-49.3	18.8	0.00e+00	0	41	0	719323136	66	4458
2026-01-22 09:24:53.33	95.52	77.43	-47.4	-49.0	19.0	0.00e+00	0	41	0	721420288	66	4330
2026-01-22 09:24:54.34	93.57	77.71	-46.6	-48.0	19.9	0.00e+00	0	41	0	723517440	65	4082
2026-01-22 09:24:55.35	91.52	77.98	-46.0	-47.3	20.7	0.00e+00	0	40	0	725614592	63	4202
2026-01-22 09:24:56.36	89.38	78.23	-46.4	-47.7	20.4	0.00e+00	0	41	0	727711744	63	4416
2026-01-22 09:24:57.37	87.16	78.47	-46.5	-47.9	20.0	0.00e+00	0	40	0	728760320	64	4259
2026-01-22 09:24:58.38	84.83	78.69	-46.7	-48.1	19.8	0.00e+00	0	41	0	730857472	64	4366
2026-01-22 09:24:59.39	82.42	78.89	-46.5	-47.9	20.1	0.00e+00	0	41	0	732954624	64	4284
2026-01-22 09:25:00.40	79.93	79.07	-46.0	-47.3	20.6	0.00e+00	0	41	0	735051776	64	3967
2026-01-22 09:25:01.40	77.38	79.22	-46.3	-47.6	20.3	0.00e+00	0	41	0	737148928	64	4130
2026-01-22 09:25:02.41	74.73	79.36	-47.1	-48.6	19.4	0.00e+00	0	41	0	738197504	64	4605
2026-01-22 09:25:03.42	72.01	79.48	-46.9	-48.4	19.6	0.00e+00	0	41	0	740294656	64	4500
2026-01-22 09:25:04.43	69.25	79.57	-46.4	-47.8	20.2	0.00e+00	0	41	0	742391808	64	4211
2026-01-22 09:25:05.44	66.43	79.63	-46.1	-47.4	20.5	0.00e+00	0	41	0	744488960	64	4013
2026-01-22 09:25:06.44	63.62	79.67	-45.7	-46.9	21.0	0.00e+00	0	41	0	746586112	63	4045
2026-01-22 09:25:07.45	60.77	79.69	-45.5	-46.6	21.3	0.00e+00	0	41	0	747634688	62	4141
2026-01-22 09:25:08.46	57.91	79.68	-45.3	-46.4	21.6	0.00e+00	0	41	0	749731840	62	4025
2026-01-22 09:25:09.47	55.06	79.65	-44.9	-46.0	21.9	0.00e+00	0	41	0	751828992	61	4096
2026-01-22 09:25:10.48	52.24	79.59	-44.6	-45.7	22.3	0.00e+00	0	41	0	753926144	61	3918
2026-01-22 09:25:11.49	49.46	79.51	-44.5	-45.6	22.4	0.00e+00	0	41	0	756023296	61	3879
2026-01-22 09:25:12.49	46.75	79.40	-44.3	-45.3	22.5	0.00e+00	0	41	0	757071872	60	3981
2026-01-22 09:25:13.50	44.08	79.27	-44.7	-45.8	22.1	0.00e+00	0	41	0	759169024	60	4194
2026-01-22 09:25:14.51	41.48	79.12	-45.3	-46.5	21.5	0.00e+00	0	41	0	761266176	61	4312
2026-01-22 09:25:15.52	38.96	78.94	-45.6	-46.8	21.2	0.00e+00	0	40	0	763363328	61	4462
2026-01-22 09:25:16.53	36.53	78.75	-45.8	-47.0	21.0	0.00e+00	0	41	0	765460480	62	4293
2026-01-22 09:25:17.54	34.18	78.54	-46.1	-47.4	20.7	0.00e+00	0	41	0	767557632	62	4516
2026-01-22 09:25:18.55	31.92	78.31	-46.7	-48.1	20.0	0.00e+00	0	41	0	768606208	64	4347
2026-01-22 09:25:19.56	29.76	78.06	-47.5	-49.0	19.0	0.00e+00	0	41	0	770703360	65	4592
2026-01-22 09:25:20.56	27.71	77.80	-48.4	-50.2	17.9	0.00e+00	0	41	0	772800512	67	4672
2026-01-22 09:25:21.57	25.73	77.52	-49.0	-51.0	17.2	0.00e+00	0	41	0	774897664	68	4856
2026-01-22 09:25:22.58	23.84	77.23	-49.4	-51.6	16.6	0.00e+00	0	41	0	775946240	69	4925
2026-01-22 09:25:23.59	22.04	76.93	-49.4	-51.7	16.5	0.00e+00	0	41	0	778043392	69	4931
2026-01-22 09:25:24.60	20.32	76.62	-49.0	-51.0	17.1	0.00e+00	0	41	0	780140544	69	4590
2026-01-22 09:25:25.61	18.69	76.29	-48.6	-50.5	17.6	0.00e+00	0	41	0	782237696	69	4326
2026-01-22 09:25:26.62	17.13	75.96	-48.5	-50.3	17.7	0.00e+00	0	41	0	784334848	68	4483
2026-01-22 09:25:27.62	15.67	75.62	-49.0	-51.1	17.1	0.00e+00	0	41	0	786432000	68	4881
2026-01-22 09:25:28.63	14.26	75.27	-48.8	-50.8	17.4	0.00e+00	0	41	0	787480576	68	4711
2026-01-22 09:25:29.64	12.93	74.91	-48.0	-49.8	18.4	0.00e+00	0	41	0	789577728	68	4199
2026-01-22 09:25:30.65	11.65	74.54	-47.4	-48.9	19.1	0.00e+00	0	41	0	791674880	66	4290
2026-01-22 09:25:31.66	10.44	74.17	-46.8	-48.2	19.8	0.00e+00	0	41	0	793772032	65	4162
2026-01-22 09:25:32.67	9.29	73.80	-46.8	-48.2	19.9	0.00e+00	0	41	0	795869184	65	4173
2026-01-22 09:25:33.68	8.19	73.42	-46.3	-47.6	20.4	0.00e+00	0	41	0	796917760	64	4101
2026-01-22 09:25:34.69	7.15	73.03	-45.6	-46.8	21.2	0.00e+00	0	41	0	799014912	63	3981
2026-01-22 09:25:35.69	6.16	72.65	-44.9	-46.0	22.0	0.00e+00	0	41	0	801112064	61	4071
2026-01-22 09:25:36.70	5.21	72.25	-44.8	-45.8	22.1	0.00e+00	0	41	0	803209216	61	3992
2026-01-22 09:25:37.71	4.30	71.86	-44.6	-45.6	22.4	0.00e+00	0	41	0	804257792	61	3894
2026-01-22 09:25:38.72	3.44	71.46	-44.9	-45.9	22.1	0.00e+00	0	41	0	806354944	61	4050
2026-01-22 09:25:39.73	2.61	71.06	-45.0	-46.1	21.9	0.00e+00	0	41	0	808452096	61	4123
2026-01-22 09:25:40.74	1.82	70.66	-45.5	-46.7	21.3	0.00e+00	0	41	0	810549248	61	4414
2026-01-22 09:25:41.74	1.07	70.26	-46.2	-47.5	20.7	0.00e+00	0	41	0	812646400	62	4572
2026-01-22 09:25:42.75	0.35	69.85	-46.2	-47.4	20.6	0.00e+00	0	41	0	814743552	63	4289
2026-01-22 09:25:43.76	359.65	69.45	-45.9	-47.2	20.9	0.00e+00	0	41	0	815792128	63	4147
2026-01-22 09:25:44.77	358.99	69.04	-46.3	-47.6	20.6	0.00e+00	0	41	0	817889280	63	4374
2026-01-22 09:25:45.78	358.35	68.63	-47.2	-48.7	19.4	0.00e+00	0	41	0	819986432	65	4437
2026-01-22 09:25:46.79	357.74	68.22	-48.6	-50.5	17.7	0.00e+00	0	41	0	822083584	67	4825
2026-01-22 09:25:47.80	357.16	67.82	-49.4	-51.6	16.6	0.00e+00	0	41	0	824180736	69	4912
2026-01-22 09:25:48.80	356.60	67.41	-49.1	-51.1	17.1	0.00e+00	0	41	0	825229312	69	4644
2026-01-22 09:25:49.81	356.06	67.00	-48.4	-50.1	18.1	0.00e+00	0	41	0	827326464	68	4383
2026-01-22 09:25:50.82	355.54	66.59	-47.7	-49.3	18.9	0.00e+00	0	41	0	829423616	67	4210
2026-01-22 09:25:51.83	355.04	66.18	-47.1	-48.6	19.5	0.00e+00	0	41	0	831520768	66	4100
2026-01-22 09:25:52.84	354.56	65.78	-46.3	-47.5	20.5	0.00e+00	0	41	0	833617920	64	4090
2026-01-22 09:25:53.85	354.09	65.37	-45.7	-46.8	21.2	0.00e+00	0	41	0	834666496	63	3986
2026-01-22 09:25:54.86	353.65	64.96	-45.5	-46.6	21.4	0.00e+00	0	41	0	836763648	62	4130
2026-01-22 09:25:55.86	353.22	64.56	-45.1	-46.2	21.9	0.00e+00	0	41	0	838860800	62	3915
2026-01-22 09:25:56.87	352.80	64.15	-44.8	-45.9	22.1	0.00e+00	0	41	0	840957952	61	4005
2026-01-22 09:25:57.88	352.40	63.75	-44.4	-45.5	22.5	0.00e+00	0	41	0	843055104	60	4055
2026-01-22 09:25:58.89	352.01	63.35	-44.1	-45.1	22.8	0.00e+00	0	41	0	844103680	60	3886
2026-01-22 09:25:59.90	351.64	62.95	-43.9	-44.9	23.3	0.00e+00	0	41	0	846200832	59	4012
2026-01-22 09:26:00.91	351.28	62.55	-44.1	-45.0	23.1	0.00e+00	0	41	0	848297984	59	4096
2026-01-22 09:26:01.91	350.93	62.15	-44.5	-45.5	22.7	0.00e+00	0	41	0	850395136	59	4301
2026-01-22 09:26:02.92	350.59	61.75	-44.4	-45.5	22.4	0.00e+00	0	41	0	852492288	60	4076
2026-01-22 09:26:03.93	350.26	61.36	-45.1	-46.2	21.9	0.00e+00	0	41	0	853540864	60	4416
2026-01-22 09:26:04.94	349.94	60.96	-46.0	-47.2	20.9	0.00e+00	0	41	0	855638016	62	4419
2026-01-22 09:26:05.94	349.64	60.57	-45.9	-47.1	21.0	0.00e+00	0	41	0	857735168	62	4377
2026-01-22 09:26:06.95	349.34	60.18	-46.0	-47.2	20.9	0.00e+00	0	41	0	859832320	62	4426
2026-01-22 09:26:07.96	349.05	59.79	-46.4	-47.7	20.4	0.00e+00	0	41	0	861929472	63	4405
2026-01-22 09:26:08.97	348.77	59.41	-47.2	-48.6	19.4	0.00e+00	0	41	0	862978048	64	4649
2026-01-22 09:26:09.98	348.50	59.02	-48.3	-50.1	18.1	0.00e+00	0	41	0	865075200	67	4621
2026-01-22 09:26:10.98	348.24	58.64	-48.8	-50.7	17.6	0.00e+00	0	41	0	867172352	68	4677
2026-01-22 09:26:11.99	347.98	58.26	-48.7	-50.6	17.6	0.00e+00	0	41	0	869269504	68	4611
2026-01-22 09:26:13.00	347.73	57.88	-48.5	-50.3	17.9	0.00e+00	0	41	0	871366656	68	4486
2026-01-22 09:26:14.00	347.49	57.50	-48.1	-49.9	18.3	0.00e+00	0	41	0	872415232	68	4245
2026-01-22 09:26:15.01	347.25	57.13	-47.7	-49.4	18.7	0.00e+00	0	41	0	874512384	67	4255
2026-01-22 09:26:16.02	347.02	56.75	-47.5	-49.0	19.0	0.00e+00	0	41	0	876609536	67	4085
2026-01-22 09:26:17.03	346.80	56.38	-46.7	-48.1	19.9	0.00e+00	0	41	0	878706688	65	4117
2026-01-22 09:26:18.04	346.58	56.01	-46.4	-47.7	20.3	0.00e+00	0	41	0	880803840	64	4163
2026-01-22 09:26:19.04	346.37	55.65	-46.1	-47.4	20.6	0.00e+00	0	41	0	881852416	64	4010
2026-01-22 09:26:20.05	346.17	55.28	-45.3	-46.4	21.5	0.00e+00	0	41	0	883949568	62	4050
2026-01-22 09:26:21.06	345.97	54.92	-44.5	-45.6	22.4	0.00e+00	0	41	0	886046720	61	3869
2026-01-22 09:26:22.07	345.77	54.56	-44.3	-45.3	22.6	0.00e+00	0	41	0	888143872	60	3975
2026-01-22 09:26:23.07	345.58	54.20	-44.3	-45.3	22.6	0.00e+00	0	41	0	890241024	60	3990
2026-01-22 09:26:24.08	345.40	53.84	-44.2	-45.2	22.6	0.00e+00	0	41	0	891289600	60	3949
2026-01-22 09:26:25.09	345.22	53.49	-44.2	-45.2	22.7	0.00e+00	0	41	0	893386752	60	3953
2026-01-22 09:26:26.10	345.04	53.13	-44.5	-45.5	22.4	0.00e+00	0	41	0	895483904	60	4075
2026-01-22 09:26:27.11	344.87	52.78	-44.6	-45.7	22.2	0.00e+00	0	41	0	897581056	60	4165
2026-01-22 09:26:28.12	344.70	52.43	-44.7	-45.8	22.2	0.00e+00	0	41	0	899678208	60	4198
2026-01-22 09:26:29.12	344.54	52.09	-44.8	-45.8	22.0	0.00e+00	0	41	0	901775360	60	4240
2026-01-22 09:26:30.13	344.38	51.75	-44.7	-45.8	22.1	0.00e+00	0	41	0	902823936	60	4208
2026-01-22 09:26:31.14	344.22	51.41	-44.9	-46.0	21.9	0.00e+00	0	41	0	904921088	60	4324
2026-01-22 09:26:32.14	344.07	51.07	-45.7	-46.9	21.1	0.00e+00	0	41	0	907018240	61	4506
2026-01-22 09:26:33.15	343.92	50.73	-46.6	-48.0	20.0	0.00e+00	0	41	0	909115392	64	4330
2026-01-22 09:26:34.16	343.77	50.40	-47.4	-49.0	19.1	0.00e+00	0	41	0	910163968	65	4559
2026-01-22 09:26:35.17	343.63	50.06	-48.0	-49.7	18.3	0.00e+00	0	41	0	912261120	66	4687
2026-01-22 09:26:36.18	343.49	49.73	-48.2	-50.0	18.1	0.00e+00	0	41	0	914358272	66	4819
2026-01-22 09:26:37.18	343.36	49.41	-48.5	-50.5	17.5	0.00e+00	0	41	0	916455424	67	4846
2026-01-22 09:26:38.19	343.22	49.08	-48.7	-50.7	17.4	0.00e+00	0	41	0	918552576	68	4668
2026-01-22 09:26:39.20	343.09	48.76	-48.7	-50.7	17.5	0.00e+00	0	41	0	919601152	68	4677
2026-01-22 09:26:40.21	342.96	48.44	-48.7	-50.6	17.5	0.00e+00	0	41	0	921698304	68	4625
2026-01-22 09:26:41.22	342.84	48.12	-48.8	-50.8	17.4	0.00e+00	0	41	0	923795456	68	4735
2026-01-22 09:26:42.22	342.72	47.80	-49.1	-51.2	16.9	0.00e+00	0	41	0	925892608	68	4968
2026-01-22 09:26:43.23	342.60	47.49	-49.5	-51.8	16.4	0.00e+00	0	41	0	927989760	69	5009
2026-01-22 09:26:44.24	342.48	47.17	-49.2	-51.4	16.7	0.00e+00	0	41	0	930086912	69	4784
2026-01-22 09:26:45.25	342.37	46.86	-48.7	-50.7	17.3	0.00e+00	0	41	0	931135488	69	4425
2026-01-22 09:26:46.26	342.25	46.55	-48.2	-50.0	18.1	0.00e+00	0	41	0	933232640	68	4307
2026-01-22 09:26:47.26	342.14	46.25	-47.5	-49.1	18.8	0.00e+00	0	41	0	935329792	67	4116
2026-01-22 09:26:48.27	342.03	45.95	-47.0	-48.4	19.4	0.00e+00	0	41	0	937426944	66	4040
2026-01-22 09:26:49.28	341.93	45.64	-46.9	-48.4	19.5	0.00e+00	0	41	0	938475520	65	4249
2026-01-22 09:26:50.29	341.82	45.34	-46.8	-48.2	19.7	0.00e+00	0	41	0	940572672	65	4192
2026-01-22 09:26:51.29	341.72	45.05	-47.2	-48.8	19.2	0.00e+00	0	41	0	942669824	65	4448
2026-01-22 09:26:52.30	341.62	44.75	-47.7	-49.3	18.7	0.00e+00	0	41	0	944766976	65	4753
2026-01-22 09:26:53.31	341.52	44.46	-48.1	-49.9	18.1	0.00e+00	0	41	0	946864128	66	4788
2026-01-22 09:26:54.32	341.43	44.17	-48.6	-50.5	17.5	0.00e+00	0	41	0	947912704	67	4855
2026-01-22 09:26:55.33	341.33	43.88	-48.6	-50.5	17.5	0.00e+00	0	41	0	950009856	67	4848
2026-01-22 09:26:56.33	341.24	43.59	-48.3	-50.1	17.9	0.00e+00	0	41	0	952107008	67	4646
2026-01-22 09:26:57.34	341.15	43.31	-48.1	-49.8	18.2	0.00e+00	0	41	0	954204160	67	4471
2026-01-22 09:26:58.35	341.06	43.02	-47.9	-49.7	18.3	0.00e+00	0	41	0	956301312	67	4398
2026-01-22 09:26:59.36	340.97	42.74	-47.7	-49.3	18.6	0.00e+00	0	41	0	958398464	67	4239
2026-01-22 09:27:00.37	340.89	42.46	-47.5	-49.1	18.8	0.00e+00	0	41	0	959447040	67	4142
2026-01-22 09:27:01.38	340.80	42.18	-47.5	-49.1	18.9	0.00e+00	0	41	0	961544192	67	4108
2026-01-22 09:27:02.38	340.72	41.91	-47.7	-49.4	18.6	0.00e+00	0	41	0	963641344	66	4505
2026-01-22 09:27:03.39	340.64	41.64	-47.7	-49.3	18.6	0.00e+00	0	41	0	965738496	66	4472
2026-01-22 09:27:04.40	340.56	41.37	-47.9	-49.6	18.4	0.00e+00	0	41	0	966787072	66	4628
2026-01-22 09:27:05.41	340.48	41.10	-48.1	-49.9	18.1	0.00e+00	0	41	0	968884224	66	4791
2026-01-22 09:27:06.42	340.40	40.83	-48.5	-50.4	17.6	0.00e+00	0	41	0	970981376	67	4777
2026-01-22 09:27:07.42	340.33	40.57	-48.5	-50.4	17.5	0.00e+00	0	41	0	973078528	67	4801
2026-01-22 09:27:08.43	340.25	40.30	-48.5	-50.5	17.5	0.00e+00	0	41	0	975175680	67	4837
2026-01-22 09:27:09.44	340.18	40.04	-48.4	-50.3	17.6	0.00e+00	0	41	0	977272832	67	4747
2026-01-22 09:27:10.45	340.10	39.78	-48.3	-50.2	17.7	0.00e+00	0	41	0	978321408	67	4662
2026-01-22 09:27:11.46	340.03	39.52	-48.2	-50.0	17.9	0.00e+00	0	41	0	980418560	67	4575
2026-01-22 09:27:12.46	339.96	39.27	-48.1	-49.9	18.0	0.00e+00	0	41	0	982515712	67	4526
2026-01-22 09:27:13.47	339.90	39.01	-48.0	-49.7	18.2	0.00e+00	0	41	0	984612864	67	4428
2026-01-22 09:27:14.48	339.83	38.76	-48.0	-49.8	18.2	0.00e+00	0	41	0	986710016	67	4454
2026-01-22 09:27:15.49	339.76	38.51	-47.9	-49.7	18.2	0.00e+00	0	41	0	987758592	67	4404
2026-01-22 09:27:16.50	339.70	38.26	-47.8	-49.5	18.5	0.00e+00	0	41	0	989855744	67	4294
2026-01-22 09:27:17.50	339.63	38.02	-47.9	-49.6	18.3	0.00e+00	0	41	0	991952896	67	4370
2026-01-22 09:27:18.51	339.57	37.77	-47.9	-49.6	18.3	0.00e+00	0	41	0	994050048	67	4358
2026-01-22 09:27:19.52	339.51	37.53	-47.9	-49.6	18.3	0.00e+00	0	41	0	995098624	67	4359
2026-01-22 09:27:20.53	339.44	37.28	-47.7	-49.4	18.5	0.00e+00	0	41	0	997195776	67	4286
2026-01-22 09:27:21.54	339.38	37.04	-47.6	-49.2	18.7	0.00e+00	0	41	0	999292928	67	4168
2026-01-22 09:27:22.54	339.32	36.81	-47.4	-48.9	18.9	0.00e+00	0	41	0	1001390080	66	4290
2026-01-22 09:27:23.55	339.27	36.57	-47.2	-48.7	19.1	0.00e+00	0	41	0	1003487232	66	4168
2026-01-22 09:27:24.56	339.21	36.34	-47.0	-48.5	19.4	0.00e+00	0	41	0	1005584384	65	4293
2026-01-22 09:27:25.57	339.15	36.10	-46.9	-48.4	19.5	0.00e+00	0	41	0	1006632960	65	4262
2026-01-22 09:27:26.57	339.10	35.87	-46.9	-48.3	19.5	0.00e+00	0	41	0	1008730112	65	4230
2026-01-22 09:27:27.58	339.04	35.64	-46.8	-48.3	19.5	0.00e+00	0	41	0	1010827264	65	4206
2026-01-22 09:27:28.59	338.99	35.41	-46.7	-48.1	19.7	0.00e+00	0	41	0	1012924416	65	4135
2026-01-22 09:27:29.60	338.93	35.19	-46.6	-48.0	19.8	0.00e+00	0	41	0	1015021568	65	4056
2026-01-22 09:27:30.61	338.88	34.96	-46.7	-48.1	19.7	0.00e+00	0	41	0	1016070144	65	4133
2026-01-22 09:27:31.62	338.83	34.74	-46.7	-48.2	19.7	0.00e+00	0	41	0	1018167296	65	4152
2026-01-22 09:27:32.62	338.78	34.52	-46.7	-48.2	19.7	0.00e+00	0	41	0	1020264448	65	4147
2026-01-22 09:27:33.63	338.73	34.30	-46.8	-48.3	19.5	0.00e+00	0	41	0	1022361600	65	4215
2026-01-22 09:27:34.64	338.68	34.08	-46.8	-48.2	19.6	0.00e+00	0	41	0	1024458752	65	4167
2026-01-22 09:27:35.65	338.63	33.86	-46.8	-48.3	19.5	0.00e+00	0	41	0	1025507328	65	4200
2026-01-22 09:27:36.65	338.58	33.64	-47.0	-48.5	19.3	0.00e+00	0	41	0	1027604480	65	4329
2026-01-22 09:27:37.66	338.53	33.43	-47.4	-49.0	18.9	0.00e+00	0	41	0	1029701632	65	4551
2026-01-22 09:27:38.67	338.48	33.22	-47.7	-49.4	18.4	0.00e+00	0	41	0	1031798784	65	4802
2026-01-22 09:27:39.68	338.44	33.00	-48.2	-50.1	17.8	0.00e+00	0	41	0	1033895936	66	4882
2026-01-22 09:27:40.69	338.39	32.79	-48.5	-50.5	17.2	0.00e+00	0	41	0	1034944512	67	4850
2026-01-22 09:27:41.70	338.35	32.58	-48.8	-50.9	17.1	0.00e+00	0	41	0	1037041664	68	4778
2026-01-22 09:27:42.70	338.30	32.38	-48.8	-51.0	17.0	0.00e+00	0	41	0	1039138816	68	4819
2026-01-22 09:27:43.71	338.26	32.17	-48.8	-50.9	17.0	0.00e+00	0	41	0	1041235968	68	4775
2026-01-22 09:27:44.72	338.22	31.97	-48.5	-50.5	17.4	0.00e+00	0	41	0	1043333120	68	4575
2026-01-22 09:27:45.73	338.17	31.77	-48.4	-50.4	17.5	0.00e+00	0	41	0	1045430272	68	4506
2026-01-22 09:27:46.74	338.13	31.56	-48.1	-50.0	17.9	0.00e+00	0	41	0	1046478848	68	4302
2026-01-22 09:27:47.74	338.09	31.36	-48.0	-49.8	18.1	0.00e+00	0	41	0	1048576000	68	4197
2026-01-22 09:27:48.75	338.05	31.17	-47.8	-49.6	18.2	0.00e+00	0	41	0	1050673152	67	4344
2026-01-22 09:27:49.76	338.01	30.97	-47.7	-49.4	18.3	0.00e+00	0	41	0	1052770304	67	4289
2026-01-22 09:27:50.77	337.97	30.77	-47.5	-49.2	18.6	0.00e+00	0	41	0	1053818880	67	4165
2026-01-22 09:27:51.78	337.93	30.58	-47.5	-49.2	18.6	0.00e+00	0	41	0	1055916032	66	4394
2026-01-22 09:27:52.78	337.89	30.38	-47.4	-49.0	18.7	0.00e+00	0	41	0	1058013184	66	4323
2026-01-22 09:27:53.79	337.85	30.19	-47.3	-48.8	18.9	0.00e+00	0	40	0	1060110336	66	4240
2026-01-22 09:27:54.80	337.82	30.00	-47.2	-48.8	18.9	0.00e+00	0	41	0	1062207488	66	4215
2026-01-22 09:27:55.80	337.78	29.81	-47.4	-49.0	18.7	0.00e+00	0	41	0	1063256064	66	4333
2026-01-22 09:27:56.81	337.74	29.62	-47.5	-49.1	18.6	0.00e+00	0	41	0	1065353216	66	4390
2026-01-22 09:27:57.82	337.71	29.43	-47.6	-49.3	18.4	0.00e+00	0	41	0	1067450368	66	4482
2026-01-22 09:27:58.83	337.67	29.25	-47.6	-49.3	18.4	0.00e+00	0	41	0	1069547520	66	4454
2026-01-22 09:27:59.84	337.63	29.06	-47.7	-49.5	18.2	0.00e+00	0	41	0	1071644672	66	4567
2026-01-22 09:28:00.84	337.60	28.88	-47.5	-49.2	18.5	0.00e+00	0	41	0	1073741824	66	4418
2026-01-22 09:28:01.85	337.56	28.70	-47.5	-49.1	18.6	0.00e+00	0	41	0	1074790400	66	4391
2026-01-22 09:28:02.86	337.53	28.51	-47.4	-49.0	18.7	0.00e+00	0	41	0	1076887552	66	4335
2026-01-22 09:28:03.87	337.50	28.33	-47.3	-49.0	18.7	0.00e+00	0	41	0	1078984704	66	4293
2026-01-22 09:28:04.88	337.46	28.15	-47.3	-48.9	18.8	0.00e+00	0	41	0	1081081856	66	4262
2026-01-22 09:28:05.88	337.43	27.98	-47.2	-48.8	18.9	0.00e+00	0	41	0	1082130432	66	4211
2026-01-22 09:28:06.89	337.40	27.80	-47.0	-48.5	19.2	0.00e+00	0	41	0	1084227584	66	4078
2026-01-22 09:28:07.90	337.37	27.63	-46.9	-48.4	19.2	0.00e+00	0	41	0	1086324736	65	4282
2026-01-22 09:28:08.91	337.34	27.45	-46.9	-48.4	19.2	0.00e+00	0	41	0	1088421888	65	4279
2026-01-22 09:28:09.92	337.30	27.28	-46.7	-48.1	19.5	0.00e+00	0	41	0	1090519040	65	4134
2026-01-22 09:28:10.92	337.27	27.11	-46.8	-48.3	19.4	0.00e+00	0	41	0	1092616192	65	4201
2026-01-22 09:28:11.93	337.24	26.93	-46.7	-48.2	19.4	0.00e+00	0	41	0	1093664768	65	4166
2026-01-22 09:28:12.94	337.21	26.76	-46.6	-48.0	19.6	0.00e+00	0	41	0	1095761920	65	4080
2026-01-22 09:28:13.95	337.18	26.59	-46.6	-48.0	19.6	0.00e+00	0	41	0	1097859072	65	4086
2026-01-22 09:28:14.96	337.15	26.42	-46.5	-47.9	19.7	0.00e+00	0	41	0	1099956224	65	4035
2026-01-22 09:28:15.96	337.12	26.26	-46.4	-47.8	19.7	0.00e+00	0	41	0	1102053376	64	4237
2026-01-22 09:28:16.97	337.10	26.09	-46.4	-47.8	19.7	0.00e+00	0	41	0	1103101952	64	4238
2026-01-22 09:28:17.98	337.07	25.93	-46.4	-47.9	19.7	0.00e+00	0	41	0	1105199104	64	4251
2026-01-22 09:28:18.99	337.04	25.76	-46.2	-47.5	20.0	0.00e+00	0	41	0	1107296256	64	4097
2026-01-22 09:28:19.99	337.01	25.60	-46.3	-47.7	19.8	0.00e+00	0	41	0	1109393408	64	4176
2026-01-22 09:28:21.00	336.98	25.44	-46.3	-47.6	19.9	0.00e+00	0	41	0	1110441984	64	4144
2026-01-22 09:28:22.01	336.96	25.28	-46.1	-47.5	20.0	0.00e+00	0	41	0	1112539136	64	4087
2026-01-22 09:28:23.02	336.93	25.12	-46.2	-47.6	19.9	0.00e+00	0	41	0	1114636288	64	4142
2026-01-22 09:28:24.02	336.90	24.96	-46.3	-47.7	19.9	0.00e+00	0	41	0	1116733440	64	4163
2026-01-22 09:28:25.03	336.88	24.80	-46.2	-47.6	19.9	0.00e+00	0	41	0	1118830592	64	4128
2026-01-22 09:28:26.04	336.85	24.64	-46.4	-47.8	19.8	0.00e+00	0	41	0	1120927744	64	4216
2026-01-22 09:28:27.05	336.83	24.49	-46.4	-47.9	19.7	0.00e+00	0	41	0	1121976320	64	4256
2026-01-22 09:28:28.06	336.80	24.33	-46.3	-47.7	19.8	0.00e+00	0	41	0	1124073472	64	4161
2026-01-22 09:28:29.07	336.78	24.18	-46.2	-47.6	19.9	0.00e+00	0	41	0	1126170624	64	4116
2026-01-22 09:28:30.08	336.75	24.02	-46.2	-47.6	19.9	0.00e+00	0	41	0	1128267776	64	4128
2026-01-22 09:28:31.08	336.73	23.87	-46.1	-47.5	20.0	0.00e+00	0	41	0	1130364928	64	4088
2026-01-22 09:28:32.09	336.70	23.72	-46.1	-47.5	20.0	0.00e+00	0	41	0	1131413504	64	4092
2026-01-22 09:28:33.10	336.68	23.57	-46.1	-47.5	20.1	0.00e+00	0	41	0	1133510656	64	4060
2026-01-22 09:28:34.11	336.66	23.42	-46.2	-47.6	20.0	0.00e+00	0	41	0	1135607808	64	4099
2026-01-22 09:28:35.12	336.63	23.27	-46.3	-47.7	19.8	0.00e+00	0	41	0	1137704960	64	4159
2026-01-22 09:28:36.13	336.61	23.12	-46.2	-47.6	19.9	0.00e+00	0	41	0	1139802112	64	4109
2026-01-22 09:28:37.14	336.59	22.97	-46.0	-47.4	20.1	0.00e+00	0	41	0	1140850688	64	4039
2026-01-22 09:28:38.14	336.57	22.82	-46.1	-47.5	20.0	0.00e+00	0	41	0	1142947840	64	4061
2026-01-22 09:28:39.15	336.54	22.68	-46.2	-47.6	19.9	0.00e+00	0	41	0	1145044992	64	4110
2026-01-22 09:28:40.16	336.52	22.53	-46.1	-47.5	20.0	0.00e+00	0	41	0	1147142144	64	4059
2026-01-22 09:28:41.17	336.50	22.39	-46.0	-47.4	20.1	0.00e+00	0	41	0	1149239296	64	4009
2026-01-22 09:28:42.17	336.48	22.25	-46.1	-47.5	20.0	0.00e+00	0	41	0	1150287872	64	4052
2026-01-22 09:28:43.18	336.46	22.10	-46.0	-47.4	20.2	0.00e+00	0	41	0	1152385024	63	4258
2026-01-22 09:28:44.19	336.44	21.96	-45.9	-47.3	20.2	0.00e+00	0	41	0	1154482176	63	4211
2026-01-22 09:28:45.20	336.41	21.82	-46.0	-47.3	20.2	0.00e+00	0	41	0	1156579328	63	4222
2026-01-22 09:28:46.21	336.39	21.68	-45.9	-47.2	20.3	0.00e+00	0	41	0	1158676480	63	4176
2026-01-22 09:28:47.21	336.37	21.54	-45.9	-47.3	20.3	0.00e+00	0	41	0	1159725056	63	4195
2026-01-22 09:28:48.22	336.35	21.40	-45.8	-47.1	20.4	0.00e+00	0	41	0	1161822208	63	4140
2026-01-22 09:28:49.23	336.33	21.26	-45.8	-47.1	20.4	0.00e+00	0	41	0	1163919360	63	4113
2026-01-22 09:28:50.24	336.31	21.13	-45.8	-47.1	20.4	0.00e+00	0	41	0	1166016512	63	4133
2026-01-22 09:28:51.24	336.29	20.99	-45.8	-47.1	20.4	0.00e+00	0	41	0	1168113664	63	4109
2026-01-22 09:28:52.25	336.27	20.85	-45.9	-47.2	20.3	0.00e+00	0	41	0	1169162240	63	4193
2026-01-22 09:28:53.27	336.26	20.72	-46.0	-47.3	20.2	0.00e+00	0	41	0	1171259392	63	4241
2026-01-22 09:28:54.27	336.24	20.58	-46.0	-47.3	20.2	0.00e+00	0	41	0	1173356544	63	4242
2026-01-22 09:28:55.28	336.22	20.45	-46.1	-47.4	20.1	0.00e+00	0	41	0	1175453696	63	4287
2026-01-22 09:28:56.29	336.20	20.32	-46.1	-47.5	20.0	0.00e+00	0	41	0	1177550848	63	4327
2026-01-22 09:28:57.30	336.18	20.18	-46.2	-47.6	19.9	0.00e+00	0	41	0	1178599424	63	4377
2026-01-22 09:28:58.30	336.16	20.05	-46.3	-47.7	19.8	0.00e+00	0	41	0	1180696576	63	4423
2026-01-22 09:28:59.31	336.14	19.92	-46.3	-47.7	19.7	0.00e+00	0	41	0	1182793728	63	4441
2026-01-22 09:29:00.32	336.13	19.79	-46.4	-47.8	19.7	0.00e+00	0	41	0	1184890880	63	4480
2026-01-22 09:29:01.33	336.11	19.66	-46.5	-47.9	19.6	0.00e+00	0	41	0	1186988032	63	4524
2026-01-22 09:29:02.34	336.09	19.53	-46.5	-47.9	19.6	0.00e+00	0	41	0	1188036608	63	4531
2026-01-22 09:29:03.34	336.07	19.41	-46.4	-47.8	19.6	0.00e+00	0	41	0	1190133760	63	4492
2026-01-22 09:29:04.35	336.06	19.28	-46.4	-47.9	19.6	0.00e+00	0	41	0	1192230912	63	4513
2026-01-22 09:29:05.36	336.04	19.15	-46.4	-47.9	19.6	0.00e+00	0	41	0	1194328064	63	4500
2026-01-22 09:29:06.37	336.02	19.03	-46.4	-47.9	19.6	0.00e+00	0	41	0	1196425216	63	4510
2026-01-22 09:29:07.37	336.01	18.90	-46.5	-48.0	19.5	0.00e+00	0	41	0	1197473792	63	4553
2026-01-22 09:29:08.38	335.99	18.78	-46.5	-48.0	19.5	0.00e+00	0	41	0	1199570944	63	4568
2026-01-22 09:29:09.39	335.98	18.65	-46.4	-47.8	19.7	0.00e+00	0	41	0	1201668096	63	4476
2026-01-22 09:29:10.40	335.96	18.53	-46.6	-48.1	19.4	0.00e+00	0	41	0	1203765248	63	4600
2026-01-22 09:29:11.41	335.94	18.40	-46.5	-48.0	19.5	0.00e+00	0	41	0	1205862400	63	4567
2026-01-22 09:29:12.41	335.93	18.28	-46.7	-48.2	19.3	0.00e+00	0	41	0	1206910976	63	4697
2026-01-22 09:29:13.42	335.91	18.16	-46.5	-48.0	19.5	0.00e+00	0	41	0	1209008128	63	4564
2026-01-22 09:29:14.43	335.90	18.04	-46.6	-48.1	19.3	0.00e+00	0	41	0	1211105280	63	4634
2026-01-22 09:29:15.44	335.88	17.92	-46.6	-48.1	19.3	0.00e+00	0	41	0	1213202432	63	4620
2026-01-22 09:29:16.44	335.87	17.80	-46.7	-48.2	19.3	0.00e+00	0	41	0	1215299584	63	4672
2026-01-22 09:29:17.45	335.85	17.68	-46.6	-48.1	19.3	0.00e+00	0	41	0	1216348160	63	4641
2026-01-22 09:29:18.46	335.84	17.56	-46.6	-48.1	19.2	0.00e+00	0	41	0	1218445312	64	4375
2026-01-22 09:29:19.47	335.82	17.44	-46.7	-48.2	19.1	0.00e+00	0	41	0	1220542464	64	4425
2026-01-22 09:29:20.48	335.81	17.32	-46.7	-48.2	19.1	0.00e+00	0	41	0	1222639616	64	4436
2026-01-22 09:29:21.48	335.79	17.21	-46.7	-48.3	19.0	0.00e+00	0	41	0	1224736768	64	4471
2026-01-22 09:29:22.49	335.78	17.09	-46.9	-48.4	18.9	0.00e+00	0	41	0	1225785344	64	4541
2026-01-22 09:29:23.49	335.77	16.97	-46.8	-48.3	19.0	0.00e+00	0	41	0	1227882496	64	4482
2026-01-22 09:29:24.50	335.75	16.86	-46.8	-48.4	18.9	0.00e+00	0	41	0	1229979648	64	4526
2026-01-22 09:29:25.51	335.74	16.74	-46.8	-48.4	18.9	0.00e+00	0	41	0	1232076800	64	4530
2026-01-22 09:29:26.52	335.72	16.63	-46.9	-48.5	18.8	0.00e+00	0	41	0	1234173952	64	4574
