passes_logs/2026/01/22/R3.2S_Murmansk/R3.2S_Murmansk__20260122_055940_NOAA_20_JPSS-1_rec.log

#Pass ID: 20260122_055940_NOAA 20 (JPSS-1)
#Satellite: NOAA 20 (JPSS-1)
#Configuration: NOAA 20
#almurnet v.1.7.20251203
#Start time: 2026-01-22 05:59:40

#Version: 2.2.20231116
#Station: R3.2S_Murmansk
#Location: 33.079688 lon 68.888172 lat
#TLE: 1 43013U 17073A   26021.46221703  .00000173  00000+0  10299-3 0  9999
#TLE: 2 43013  98.7644 322.3335 0001238  29.7597 330.3649 14.19538314423652

#Time	Az	El	Level	Level2	SNR	BER	BlckErr	Temp	State	Recorded	gain1	gain2
2026-01-22 05:59:40.48	75.72	1.99	-52.4	-67.4	3.8	1.49e+00	0	39	0	0	76	20078
2026-01-22 05:59:41.50	75.65	2.04	-52.3	-67.4	3.8	1.49e+00	0	39	104	0	75	21272
2026-01-22 05:59:42.51	75.59	2.10	-52.3	-67.4	3.8	1.49e+00	0	39	104	0	75	21288
2026-01-22 05:59:43.52	75.53	2.16	-52.3	-67.4	3.8	1.49e+00	0	39	104	0	75	21275
2026-01-22 05:59:44.53	75.47	2.22	-52.3	-67.4	3.8	1.49e+00	0	39	104	0	75	21262
2026-01-22 05:59:45.53	75.41	2.28	-52.3	-67.3	3.8	1.49e+00	0	39	104	0	75	21190
2026-01-22 05:59:46.54	75.34	2.33	-52.3	-67.3	3.8	1.49e+00	0	39	104	0	75	21193
2026-01-22 05:59:47.55	75.28	2.39	-52.3	-67.3	3.8	1.49e+00	0	39	104	0	75	21214
2026-01-22 05:59:48.56	75.22	2.45	-52.3	-67.4	3.8	1.49e+00	0	39	104	0	75	21265
2026-01-22 05:59:49.57	75.15	2.51	-52.3	-67.4	3.8	1.49e+00	0	39	104	0	75	21310
2026-01-22 05:59:50.57	75.09	2.57	-52.3	-67.3	3.8	1.49e+00	0	39	104	0	75	21198
2026-01-22 05:59:51.58	75.03	2.63	-52.3	-67.3	3.8	1.49e+00	0	39	104	0	75	21227
2026-01-22 05:59:52.59	74.96	2.68	-52.3	-67.3	3.8	1.49e+00	0	39	104	0	75	21226
2026-01-22 05:59:53.60	74.90	2.74	-52.3	-67.3	3.8	1.49e+00	0	39	104	0	75	21159
2026-01-22 05:59:54.61	74.83	2.80	-52.3	-67.4	3.8	1.49e+00	0	39	104	0	75	21282
2026-01-22 05:59:55.61	74.77	2.86	-52.3	-67.3	3.8	1.49e+00	0	39	104	0	75	21228
2026-01-22 05:59:56.62	74.70	2.92	-52.3	-67.3	3.8	1.49e+00	0	39	104	0	75	21172
2026-01-22 05:59:57.63	74.64	2.98	-52.3	-67.3	3.8	1.49e+00	0	39	104	0	75	21172
2026-01-22 05:59:58.64	74.57	3.04	-52.3	-67.3	3.8	1.49e+00	0	39	104	0	75	21213
2026-01-22 05:59:59.65	74.50	3.10	-52.3	-67.3	3.8	1.49e+00	0	39	104	0	75	21164
2026-01-22 06:00:00.65	74.44	3.16	-52.3	-67.3	3.8	1.49e+00	0	39	104	0	75	21155
2026-01-22 06:00:01.66	74.37	3.22	-52.3	-67.3	3.8	1.49e+00	0	39	104	0	75	21199
2026-01-22 06:00:02.67	74.30	3.28	-52.3	-67.3	3.8	1.49e+00	0	39	104	0	75	21118
2026-01-22 06:00:03.68	74.23	3.34	-52.3	-67.3	3.8	1.49e+00	0	39	104	0	75	21162
2026-01-22 06:00:04.69	74.17	3.40	-52.3	-67.3	3.8	1.49e+00	0	40	104	0	75	21072
2026-01-22 06:00:05.69	74.10	3.46	-52.3	-67.3	3.8	1.49e+00	0	39	104	0	75	21071
2026-01-22 06:00:06.70	74.03	3.52	-52.3	-67.2	3.8	1.49e+00	0	40	104	0	75	20982
2026-01-22 06:00:07.71	73.96	3.58	-52.3	-67.3	3.8	1.49e+00	0	40	104	0	75	21106
2026-01-22 06:00:08.72	73.89	3.64	-52.3	-67.3	3.8	1.49e+00	0	40	104	0	75	21104
2026-01-22 06:00:09.73	73.82	3.70	-52.3	-67.3	3.8	1.49e+00	0	40	104	0	75	21228
2026-01-22 06:00:10.74	73.75	3.76	-52.3	-67.3	3.8	1.49e+00	0	40	104	0	75	21180
2026-01-22 06:00:11.75	73.68	3.82	-52.3	-67.2	3.8	1.49e+00	0	40	104	0	75	20977
2026-01-22 06:00:12.76	73.61	3.88	-52.3	-67.1	3.8	1.49e+00	0	40	104	0	75	20640
2026-01-22 06:00:13.76	73.54	3.94	-52.3	-66.9	3.8	1.49e+00	0	40	104	0	75	20078
2026-01-22 06:00:14.77	73.47	4.00	-52.3	-66.8	3.8	1.49e+00	0	40	104	0	75	19904
2026-01-22 06:00:15.78	73.40	4.06	-52.3	-66.5	3.8	1.49e+00	0	40	104	0	75	19242
2026-01-22 06:00:16.79	73.33	4.12	-52.3	-66.5	3.8	1.49e+00	0	40	104	0	75	19334
2026-01-22 06:00:17.80	73.26	4.18	-52.3	-66.7	3.8	1.49e+00	0	40	104	0	75	19683
2026-01-22 06:00:18.81	73.19	4.24	-52.3	-66.1	3.8	1.49e+00	0	40	104	0	75	18333
2026-01-22 06:00:19.82	73.11	4.31	-52.2	-63.9	4.2	1.49e+00	0	40	104	0	75	14357
2026-01-22 06:00:20.83	73.04	4.37	-52.0	-61.8	5.0	9.90e-01	0	40	0	1048576	75	11199
2026-01-22 06:00:21.84	72.97	4.43	-51.7	-59.7	6.4	3.28e-01	0	40	0	3145728	75	8826
2026-01-22 06:00:22.85	72.89	4.49	-51.2	-57.6	8.4	9.28e-02	0	40	0	4194304	74	7330
2026-01-22 06:00:23.85	72.82	4.55	-50.9	-56.3	9.7	1.80e-02	0	40	0	6291456	73	6717
2026-01-22 06:00:24.86	72.75	4.61	-50.5	-55.2	10.9	2.66e-03	0	40	0	8388608	73	5919
2026-01-22 06:00:25.87	72.67	4.68	-49.8	-53.5	12.8	3.98e-04	0	40	0	10485760	71	5415
2026-01-22 06:00:26.88	72.60	4.74	-49.4	-52.7	13.7	1.37e-05	0	40	0	12582912	70	5227
2026-01-22 06:00:27.89	72.52	4.80	-49.0	-52.1	14.2	7.00e-07	0	40	0	14680064	69	5194
2026-01-22 06:00:28.89	72.45	4.86	-49.5	-52.9	13.5	8.30e-06	0	40	0	15728640	69	5690
2026-01-22 06:00:29.90	72.37	4.92	-49.3	-52.7	13.6	3.00e-06	0	40	0	17825792	69	5541
2026-01-22 06:00:30.91	72.30	4.99	-49.6	-53.2	13.1	1.52e-05	0	40	0	19922944	69	5875
2026-01-22 06:00:31.92	72.22	5.05	-50.2	-54.4	11.9	1.22e-04	0	40	0	22020096	70	6366
2026-01-22 06:00:32.93	72.14	5.11	-49.1	-52.2	14.3	3.77e-04	0	40	0	24117248	70	4941
2026-01-22 06:00:33.94	72.07	5.17	-49.5	-52.8	13.6	0.00e+00	0	40	0	25165824	70	5328
2026-01-22 06:00:34.95	71.99	5.24	-51.9	-61.1	5.6	4.50e-02	0	40	0	27262976	74	10998
2026-01-22 06:00:35.96	71.91	5.30	-48.2	-50.5	16.0	2.39e-02	0	40	0	29360128	68	4577
2026-01-22 06:00:36.96	71.83	5.36	-52.2	-64.0	4.2	1.37e-05	51	40	0	31457280	74	15395
2026-01-22 06:00:37.97	71.76	5.42	-48.7	-51.4	14.9	5.76e-03	0	40	0	31457280	69	4776
2026-01-22 06:00:38.98	71.68	5.49	-48.7	-51.4	15.0	0.00e+00	0	40	0	33554432	69	4809
2026-01-22 06:00:39.99	71.60	5.55	-48.9	-51.8	14.7	0.00e+00	0	40	0	35651584	69	5015
2026-01-22 06:00:41.00	71.52	5.61	-48.4	-51.0	15.5	0.00e+00	0	40	0	36700160	68	4826
2026-01-22 06:00:42.01	71.44	5.68	-47.8	-50.0	16.5	0.00e+00	0	40	0	38797312	67	4548
2026-01-22 06:00:43.02	71.36	5.74	-48.0	-50.3	16.2	0.00e+00	0	40	0	40894464	67	4713
2026-01-22 06:00:44.03	71.28	5.81	-48.1	-50.5	16.0	0.00e+00	0	40	0	42991616	67	4832
2026-01-22 06:00:45.03	71.20	5.87	-48.0	-50.3	16.2	0.00e+00	0	40	0	45088768	67	4724
2026-01-22 06:00:46.04	71.12	5.93	-48.1	-50.5	16.0	0.00e+00	0	40	0	46137344	67	4843
2026-01-22 06:00:47.05	71.03	6.00	-48.1	-50.5	16.0	0.00e+00	0	40	0	48234496	67	4867
2026-01-22 06:00:48.06	70.95	6.06	-48.2	-50.5	16.0	0.00e+00	0	40	0	50331648	67	4864
2026-01-22 06:00:49.06	70.87	6.12	-48.0	-50.3	16.2	0.00e+00	0	40	0	52428800	67	4738
2026-01-22 06:00:50.07	70.79	6.19	-48.1	-50.5	16.2	0.00e+00	0	40	0	54525952	67	4825
2026-01-22 06:00:51.08	70.71	6.25	-48.1	-50.4	16.2	0.00e+00	0	40	0	55574528	67	4778
2026-01-22 06:00:52.09	70.62	6.32	-47.9	-50.1	16.5	0.00e+00	0	40	0	57671680	67	4611
2026-01-22 06:00:53.09	70.54	6.38	-48.4	-50.8	15.8	0.00e+00	0	40	0	59768832	67	5017
2026-01-22 06:00:54.10	70.45	6.45	-47.8	-50.0	16.7	0.00e+00	0	40	0	61865984	67	4553
2026-01-22 06:00:55.11	70.37	6.51	-47.9	-50.1	16.6	0.00e+00	0	40	0	63963136	67	4624
2026-01-22 06:00:56.12	70.28	6.58	-48.0	-50.3	16.3	0.00e+00	0	40	0	65011712	67	4723
2026-01-22 06:00:57.12	70.20	6.64	-47.8	-50.0	16.6	0.00e+00	0	40	0	67108864	67	4585
2026-01-22 06:00:58.13	70.11	6.70	-47.8	-50.0	16.7	0.00e+00	0	40	0	69206016	67	4569
2026-01-22 06:00:59.14	70.03	6.77	-47.9	-50.0	16.6	0.00e+00	0	40	0	71303168	67	4593
2026-01-22 06:01:00.15	69.94	6.83	-47.8	-49.9	16.8	0.00e+00	0	40	0	73400320	67	4506
2026-01-22 06:01:01.16	69.85	6.90	-47.8	-50.0	16.7	0.00e+00	0	40	0	74448896	67	4555
2026-01-22 06:01:02.16	69.77	6.97	-47.8	-49.9	16.8	0.00e+00	0	40	0	76546048	67	4523
2026-01-22 06:01:03.17	69.68	7.03	-47.8	-50.0	16.7	0.00e+00	0	40	0	78643200	67	4571
2026-01-22 06:01:04.18	69.59	7.10	-47.8	-49.9	16.8	0.00e+00	0	40	0	80740352	67	4538
2026-01-22 06:01:05.19	69.50	7.16	-48.1	-50.3	16.4	0.00e+00	0	40	0	82837504	67	4756
2026-01-22 06:01:06.20	69.41	7.23	-48.1	-50.3	16.5	0.00e+00	0	40	0	84934656	67	4740
2026-01-22 06:01:07.21	69.32	7.29	-47.9	-50.1	16.6	0.00e+00	0	40	0	85983232	67	4643
2026-01-22 06:01:08.21	69.23	7.36	-47.7	-49.8	16.9	0.00e+00	0	40	0	88080384	67	4488
2026-01-22 06:01:09.22	69.14	7.43	-47.7	-49.7	17.0	0.00e+00	0	40	0	90177536	67	4429
2026-01-22 06:01:10.23	69.05	7.49	-47.6	-49.6	17.2	0.00e+00	0	40	0	92274688	67	4374
2026-01-22 06:01:11.24	68.96	7.56	-47.9	-50.0	16.8	0.00e+00	0	40	0	93323264	67	4561
2026-01-22 06:01:12.25	68.87	7.63	-47.9	-50.0	16.8	0.00e+00	0	40	0	95420416	67	4585
2026-01-22 06:01:13.25	68.78	7.69	-47.9	-50.0	16.8	0.00e+00	0	40	0	97517568	67	4591
2026-01-22 06:01:14.26	68.69	7.76	-47.9	-50.0	16.8	0.00e+00	0	40	0	99614720	67	4588
2026-01-22 06:01:15.27	68.59	7.82	-47.9	-50.1	16.7	0.00e+00	0	40	0	101711872	67	4626
2026-01-22 06:01:16.28	68.50	7.89	-47.8	-49.9	16.9	0.00e+00	0	40	0	102760448	67	4537
2026-01-22 06:01:17.28	68.41	7.96	-47.9	-50.0	16.8	0.00e+00	0	40	0	104857600	67	4573
2026-01-22 06:01:18.29	68.31	8.02	-47.7	-49.7	17.0	0.00e+00	0	40	0	106954752	67	4430
2026-01-22 06:01:19.30	68.22	8.09	-47.8	-49.9	17.0	0.00e+00	0	40	0	109051904	67	4515
2026-01-22 06:01:20.31	68.12	8.16	-48.0	-50.2	16.6	0.00e+00	0	40	0	111149056	67	4665
2026-01-22 06:01:21.32	68.03	8.23	-47.9	-50.1	16.8	0.00e+00	0	40	0	113246208	67	4599
2026-01-22 06:01:22.33	67.93	8.29	-47.8	-49.9	16.9	0.00e+00	0	40	0	114294784	67	4528
2026-01-22 06:01:23.34	67.83	8.36	-48.0	-50.2	16.6	0.00e+00	0	40	0	116391936	67	4695
2026-01-22 06:01:24.35	67.74	8.43	-47.9	-50.0	16.8	0.00e+00	0	40	0	118489088	67	4590
2026-01-22 06:01:25.35	67.64	8.50	-47.8	-49.9	17.0	0.00e+00	0	40	0	120586240	67	4508
2026-01-22 06:01:26.36	67.54	8.56	-47.9	-50.0	16.9	0.00e+00	0	40	0	121634816	67	4567
2026-01-22 06:01:27.37	67.44	8.63	-47.6	-49.6	17.3	0.00e+00	0	40	0	123731968	67	4357
2026-01-22 06:01:28.38	67.34	8.70	-47.8	-49.8	17.0	0.00e+00	0	40	0	125829120	67	4483
2026-01-22 06:01:29.38	67.24	8.77	-47.7	-49.7	17.2	0.00e+00	0	40	0	127926272	67	4402
2026-01-22 06:01:30.39	67.14	8.84	-47.4	-49.3	17.5	0.00e+00	0	40	0	130023424	66	4489
2026-01-22 06:01:31.40	67.04	8.91	-47.5	-49.5	17.4	0.00e+00	0	40	0	132120576	66	4548
2026-01-22 06:01:32.41	66.94	8.97	-47.3	-49.2	17.7	0.00e+00	0	40	0	133169152	66	4422
2026-01-22 06:01:33.41	66.84	9.04	-47.4	-49.3	17.6	0.00e+00	0	40	0	135266304	66	4456
2026-01-22 06:01:34.42	66.74	9.11	-47.3	-49.1	17.8	0.00e+00	0	40	0	137363456	66	4369
2026-01-22 06:01:35.43	66.64	9.18	-47.4	-49.3	17.6	0.00e+00	0	40	0	139460608	66	4464
2026-01-22 06:01:36.44	66.54	9.25	-47.5	-49.4	17.5	0.00e+00	0	40	0	141557760	66	4499
2026-01-22 06:01:37.45	66.43	9.32	-47.5	-49.4	17.5	0.00e+00	0	40	0	142606336	66	4527
2026-01-22 06:01:38.45	66.33	9.39	-47.5	-49.5	17.4	0.00e+00	0	40	0	144703488	66	4572
2026-01-22 06:01:39.46	66.23	9.46	-47.6	-49.6	17.3	0.00e+00	0	40	0	146800640	66	4625
2026-01-22 06:01:40.47	66.12	9.52	-47.4	-49.3	17.6	0.00e+00	0	40	0	148897792	66	4493
2026-01-22 06:01:41.48	66.01	9.59	-47.4	-49.3	17.7	0.00e+00	0	40	0	149946368	66	4445
2026-01-22 06:01:42.48	65.91	9.66	-47.2	-49.0	17.9	0.00e+00	0	40	0	152043520	66	4319
2026-01-22 06:01:43.49	65.80	9.73	-47.2	-49.0	18.0	0.00e+00	0	40	0	154140672	66	4304
2026-01-22 06:01:44.50	65.70	9.80	-47.1	-48.9	18.0	0.00e+00	0	40	0	156237824	66	4277
2026-01-22 06:01:45.51	65.59	9.87	-47.1	-48.9	18.0	0.00e+00	0	40	0	158334976	66	4280
2026-01-22 06:01:46.52	65.48	9.94	-47.2	-49.0	17.9	0.00e+00	0	40	0	160432128	66	4324
2026-01-22 06:01:47.53	65.37	10.01	-47.2	-49.0	17.9	0.00e+00	0	40	0	161480704	66	4337
2026-01-22 06:01:48.53	65.26	10.08	-47.3	-49.1	17.9	0.00e+00	0	40	0	163577856	66	4356
2026-01-22 06:01:49.54	65.15	10.15	-47.1	-48.9	18.1	0.00e+00	0	40	0	165675008	66	4250
2026-01-22 06:01:50.55	65.04	10.22	-47.4	-49.3	17.7	0.00e+00	0	40	0	167772160	66	4470
2026-01-22 06:01:51.56	64.93	10.29	-47.4	-49.3	17.7	0.00e+00	0	40	0	169869312	66	4468
2026-01-22 06:01:52.57	64.82	10.36	-47.4	-49.2	17.8	0.00e+00	0	40	0	170917888	66	4431
2026-01-22 06:01:53.58	64.71	10.43	-47.3	-49.1	17.9	0.00e+00	0	40	0	173015040	66	4365
2026-01-22 06:01:54.59	64.60	10.50	-47.4	-49.2	17.8	0.00e+00	0	40	0	175112192	66	4434
2026-01-22 06:01:55.59	64.49	10.57	-47.4	-49.3	17.7	0.00e+00	0	40	0	177209344	66	4486
2026-01-22 06:01:56.60	64.37	10.65	-47.3	-49.2	17.9	0.00e+00	0	40	0	179306496	66	4398
2026-01-22 06:01:57.61	64.26	10.72	-47.4	-49.2	17.8	0.00e+00	0	40	0	180355072	66	4431
2026-01-22 06:01:58.62	64.14	10.79	-47.2	-49.0	18.0	0.00e+00	0	40	0	182452224	66	4299
2026-01-22 06:01:59.63	64.03	10.86	-47.3	-49.2	17.8	0.00e+00	0	40	0	184549376	66	4411
2026-01-22 06:02:00.63	63.91	10.93	-47.3	-49.1	17.9	0.00e+00	0	40	0	186646528	66	4349
2026-01-22 06:02:01.64	63.80	11.00	-47.5	-49.4	17.6	0.00e+00	0	40	0	188743680	66	4498
2026-01-22 06:02:02.65	63.68	11.07	-47.4	-49.3	17.8	0.00e+00	0	40	0	189792256	66	4445
2026-01-22 06:02:03.65	63.56	11.14	-47.3	-49.1	17.9	0.00e+00	0	40	0	191889408	66	4383
2026-01-22 06:02:04.66	63.45	11.21	-47.2	-49.0	18.1	0.00e+00	0	40	0	193986560	66	4310
2026-01-22 06:02:05.67	63.33	11.29	-47.4	-49.3	17.8	0.00e+00	0	40	0	196083712	66	4451
2026-01-22 06:02:06.68	63.21	11.36	-47.3	-49.2	17.9	0.00e+00	0	40	0	198180864	66	4400
2026-01-22 06:02:07.69	63.09	11.43	-47.0	-48.8	18.3	0.00e+00	0	40	0	200278016	66	4197
2026-01-22 06:02:08.70	62.97	11.50	-47.0	-48.7	18.4	0.00e+00	0	40	0	201326592	66	4161
2026-01-22 06:02:09.71	62.85	11.57	-47.0	-48.8	18.3	0.00e+00	0	40	0	203423744	65	4458
2026-01-22 06:02:10.71	62.73	11.64	-47.0	-48.7	18.4	0.00e+00	0	40	0	205520896	65	4418
2026-01-22 06:02:11.72	62.60	11.72	-47.0	-48.7	18.3	0.00e+00	0	40	0	207618048	65	4430
2026-01-22 06:02:12.73	62.48	11.79	-47.1	-48.8	18.3	0.00e+00	0	40	0	208666624	65	4476
2026-01-22 06:02:13.74	62.36	11.86	-47.0	-48.7	18.4	0.00e+00	0	40	0	210763776	65	4428
2026-01-22 06:02:14.74	62.23	11.93	-47.0	-48.7	18.4	0.00e+00	0	40	0	212860928	65	4393
2026-01-22 06:02:15.75	62.11	12.01	-47.0	-48.8	18.3	0.00e+00	0	40	0	214958080	65	4451
2026-01-22 06:02:16.76	61.98	12.08	-46.8	-48.4	18.6	0.00e+00	0	40	0	217055232	65	4283
2026-01-22 06:02:17.77	61.86	12.15	-46.9	-48.6	18.4	0.00e+00	0	40	0	218103808	65	4382
2026-01-22 06:02:18.78	61.73	12.22	-46.8	-48.5	18.6	0.00e+00	0	41	0	220200960	65	4317
2026-01-22 06:02:19.78	61.61	12.30	-46.9	-48.6	18.4	0.00e+00	0	40	0	222298112	65	4376
2026-01-22 06:02:20.79	61.48	12.37	-46.7	-48.4	18.7	0.00e+00	0	40	0	224395264	65	4244
2026-01-22 06:02:21.80	61.35	12.44	-46.7	-48.4	18.7	0.00e+00	0	40	0	226492416	65	4251
2026-01-22 06:02:22.81	61.22	12.51	-46.7	-48.3	18.8	0.00e+00	0	40	0	228589568	65	4215
2026-01-22 06:02:23.82	61.09	12.59	-46.7	-48.3	18.8	0.00e+00	0	40	0	229638144	65	4207
2026-01-22 06:02:24.82	60.96	12.66	-46.5	-48.1	19.0	0.00e+00	0	41	0	231735296	65	4124
2026-01-22 06:02:25.83	60.83	12.73	-46.7	-48.3	18.8	0.00e+00	0	40	0	233832448	65	4207
2026-01-22 06:02:26.84	60.70	12.81	-46.6	-48.2	18.9	0.00e+00	0	40	0	235929600	65	4152
2026-01-22 06:02:27.85	60.56	12.88	-46.7	-48.3	18.8	0.00e+00	0	40	0	236978176	65	4210
2026-01-22 06:02:28.86	60.43	12.95	-46.8	-48.4	18.7	0.00e+00	0	40	0	239075328	65	4268
2026-01-22 06:02:29.86	60.30	13.03	-46.8	-48.4	18.8	0.00e+00	0	41	0	241172480	65	4262
2026-01-22 06:02:30.87	60.16	13.10	-46.9	-48.5	18.6	0.00e+00	0	40	0	243269632	65	4317
2026-01-22 06:02:31.88	60.03	13.17	-46.7	-48.4	18.8	0.00e+00	0	40	0	245366784	65	4255
2026-01-22 06:02:32.89	59.89	13.25	-46.6	-48.2	18.9	0.00e+00	0	41	0	247463936	65	4174
2026-01-22 06:02:33.89	59.76	13.32	-46.6	-48.2	18.9	0.00e+00	0	40	0	248512512	65	4190
2026-01-22 06:02:34.90	59.62	13.39	-46.5	-48.1	19.0	0.00e+00	0	40	0	250609664	65	4126
2026-01-22 06:02:35.91	59.48	13.47	-46.7	-48.3	18.9	0.00e+00	0	41	0	252706816	65	4205
2026-01-22 06:02:36.92	59.34	13.54	-46.5	-48.1	19.0	0.00e+00	0	40	0	254803968	65	4119
2026-01-22 06:02:37.93	59.20	13.62	-46.5	-48.1	19.0	0.00e+00	0	40	0	256901120	65	4119
2026-01-22 06:02:38.93	59.06	13.69	-46.4	-47.9	19.2	0.00e+00	0	40	0	257949696	64	4276
2026-01-22 06:02:39.94	58.92	13.76	-46.5	-48.0	19.1	0.00e+00	0	41	0	260046848	64	4332
2026-01-22 06:02:40.95	58.78	13.84	-46.4	-47.9	19.2	0.00e+00	0	40	0	262144000	64	4268
2026-01-22 06:02:41.96	58.64	13.91	-46.2	-47.7	19.5	0.00e+00	0	40	0	264241152	64	4158
2026-01-22 06:02:42.96	58.50	13.99	-46.4	-47.9	19.2	0.00e+00	0	40	0	265289728	64	4263
2026-01-22 06:02:43.97	58.35	14.06	-46.5	-48.1	19.1	0.00e+00	0	41	0	267386880	64	4348
2026-01-22 06:02:44.98	58.21	14.13	-46.3	-47.8	19.4	0.00e+00	0	40	0	269484032	64	4221
2026-01-22 06:02:45.99	58.06	14.21	-46.3	-47.7	19.4	0.00e+00	0	41	0	271581184	64	4183
2026-01-22 06:02:47.00	57.92	14.28	-46.1	-47.6	19.6	0.00e+00	0	41	0	273678336	64	4101
2026-01-22 06:02:48.01	57.77	14.36	-46.1	-47.6	19.5	0.00e+00	0	40	0	275775488	64	4126
2026-01-22 06:02:49.01	57.62	14.43	-46.2	-47.7	19.6	0.00e+00	0	40	0	276824064	63	4394
2026-01-22 06:02:50.02	57.48	14.51	-46.4	-47.9	19.4	0.00e+00	0	40	0	278921216	63	4523
2026-01-22 06:02:51.03	57.33	14.58	-46.5	-48.1	19.2	0.00e+00	0	41	0	281018368	63	4606
2026-01-22 06:02:52.04	57.18	14.65	-46.6	-48.1	19.1	0.00e+00	0	40	0	283115520	63	4651
2026-01-22 06:02:53.05	57.03	14.73	-46.6	-48.1	19.2	0.00e+00	0	41	0	285212672	63	4630
2026-01-22 06:02:54.05	56.88	14.80	-46.3	-47.8	19.5	0.00e+00	0	41	0	286261248	63	4446
2026-01-22 06:02:55.06	56.72	14.88	-46.4	-47.9	19.4	0.00e+00	0	40	0	288358400	63	4511
2026-01-22 06:02:56.07	56.57	14.95	-46.4	-47.9	19.4	0.00e+00	0	41	0	290455552	63	4517
2026-01-22 06:02:57.08	56.42	15.03	-46.5	-48.0	19.3	0.00e+00	0	41	0	292552704	63	4553
2026-01-22 06:02:58.09	56.26	15.10	-46.5	-48.1	19.2	0.00e+00	0	40	0	294649856	63	4603
2026-01-22 06:02:59.10	56.11	15.18	-46.6	-48.1	19.2	0.00e+00	0	40	0	295698432	63	4615
2026-01-22 06:03:00.10	55.95	15.25	-46.8	-48.3	18.9	0.00e+00	0	40	0	297795584	64	4493
2026-01-22 06:03:01.11	55.80	15.33	-46.6	-48.1	19.1	0.00e+00	0	40	0	299892736	64	4372
2026-01-22 06:03:02.12	55.64	15.40	-46.4	-47.9	19.3	0.00e+00	0	40	0	301989888	64	4267
2026-01-22 06:03:03.13	55.48	15.48	-46.5	-48.0	19.2	0.00e+00	0	40	0	304087040	64	4301
2026-01-22 06:03:04.14	55.32	15.55	-46.5	-48.0	19.2	0.00e+00	0	41	0	305135616	64	4319
2026-01-22 06:03:05.14	55.16	15.62	-46.5	-48.0	19.2	0.00e+00	0	41	0	307232768	64	4323
2026-01-22 06:03:06.15	55.00	15.70	-46.5	-48.0	19.3	0.00e+00	0	41	0	309329920	64	4298
2026-01-22 06:03:07.16	54.84	15.77	-46.5	-48.0	19.3	0.00e+00	0	40	0	311427072	64	4321
2026-01-22 06:03:08.17	54.68	15.85	-46.5	-48.0	19.3	0.00e+00	0	40	0	313524224	64	4319
2026-01-22 06:03:09.18	54.51	15.92	-46.5	-48.1	19.2	0.00e+00	0	40	0	314572800	64	4342
2026-01-22 06:03:10.19	54.35	16.00	-46.6	-48.1	19.1	0.00e+00	0	40	0	316669952	64	4376
2026-01-22 06:03:11.19	54.19	16.07	-46.6	-48.1	19.2	0.00e+00	0	41	0	318767104	64	4369
2026-01-22 06:03:12.20	54.02	16.15	-46.6	-48.2	19.1	0.00e+00	0	40	0	320864256	64	4392
2026-01-22 06:03:13.21	53.85	16.22	-46.7	-48.2	19.1	0.00e+00	0	40	0	322961408	64	4429
2026-01-22 06:03:14.22	53.69	16.30	-46.6	-48.2	19.1	0.00e+00	0	40	0	324009984	64	4396
2026-01-22 06:03:15.23	53.52	16.37	-46.6	-48.1	19.1	0.00e+00	0	40	0	326107136	64	4387
2026-01-22 06:03:16.23	53.35	16.44	-46.7	-48.2	19.1	0.00e+00	0	40	0	328204288	64	4421
2026-01-22 06:03:17.24	53.18	16.52	-46.6	-48.2	19.1	0.00e+00	0	40	0	330301440	64	4414
2026-01-22 06:03:18.25	53.01	16.59	-46.5	-48.1	19.2	0.00e+00	0	40	0	332398592	64	4342
2026-01-22 06:03:19.26	52.84	16.67	-46.6	-48.1	19.2	0.00e+00	0	40	0	333447168	64	4371
2026-01-22 06:03:20.26	52.67	16.74	-46.6	-48.2	19.1	0.00e+00	0	40	0	335544320	64	4398
2026-01-22 06:03:21.27	52.49	16.82	-46.6	-48.1	19.1	0.00e+00	0	41	0	337641472	64	4389
2026-01-22 06:03:22.28	52.32	16.89	-46.7	-48.3	19.0	0.00e+00	0	40	0	339738624	64	4457
2026-01-22 06:03:23.29	52.14	16.97	-46.8	-48.4	18.9	0.00e+00	0	41	0	341835776	64	4508
2026-01-22 06:03:24.30	51.97	17.04	-46.8	-48.3	19.0	0.00e+00	0	41	0	342884352	64	4488
2026-01-22 06:03:25.30	51.79	17.11	-46.8	-48.3	19.0	0.00e+00	0	41	0	344981504	64	4487
2026-01-22 06:03:26.31	51.61	17.19	-46.8	-48.3	19.0	0.00e+00	0	40	0	347078656	64	4485
2026-01-22 06:03:27.32	51.43	17.26	-46.9	-48.4	18.9	0.00e+00	0	40	0	349175808	64	4545
2026-01-22 06:03:28.33	51.26	17.34	-46.8	-48.4	19.0	0.00e+00	0	40	0	351272960	64	4507
2026-01-22 06:03:29.34	51.07	17.41	-46.8	-48.4	19.0	0.00e+00	0	40	0	352321536	64	4498
2026-01-22 06:03:30.34	50.89	17.48	-46.8	-48.3	19.0	0.00e+00	0	41	0	354418688	64	4482
2026-01-22 06:03:31.35	50.71	17.56	-46.7	-48.3	19.1	0.00e+00	0	41	0	356515840	64	4454
2026-01-22 06:03:32.36	50.53	17.63	-46.8	-48.4	18.9	0.00e+00	0	41	0	358612992	64	4542
2026-01-22 06:03:33.37	50.34	17.70	-46.9	-48.5	18.9	0.00e+00	0	40	0	360710144	64	4583
2026-01-22 06:03:34.37	50.16	17.78	-46.9	-48.6	18.8	0.00e+00	0	41	0	361758720	64	4604
2026-01-22 06:03:35.38	49.98	17.85	-46.7	-48.2	19.1	0.00e+00	0	40	0	363855872	64	4413
2026-01-22 06:03:36.39	49.79	17.92	-46.7	-48.3	19.0	0.00e+00	0	40	0	365953024	64	4465
2026-01-22 06:03:37.40	49.60	18.00	-46.8	-48.4	18.9	0.00e+00	0	41	0	368050176	64	4539
2026-01-22 06:03:38.41	49.41	18.07	-46.8	-48.4	18.9	0.00e+00	0	41	0	370147328	64	4539
2026-01-22 06:03:39.41	49.22	18.14	-46.9	-48.5	18.8	0.00e+00	0	40	0	371195904	64	4589
2026-01-22 06:03:40.42	49.03	18.22	-46.8	-48.4	18.9	0.00e+00	0	40	0	373293056	64	4531
2026-01-22 06:03:41.43	48.84	18.29	-46.8	-48.4	18.9	0.00e+00	0	40	0	375390208	64	4521
2026-01-22 06:03:42.44	48.65	18.36	-46.6	-48.1	19.3	0.00e+00	0	41	0	377487360	64	4347
2026-01-22 06:03:43.44	48.46	18.43	-46.3	-47.7	19.6	0.00e+00	0	40	0	379584512	64	4187
2026-01-22 06:03:44.45	48.26	18.51	-46.3	-47.7	19.6	0.00e+00	0	40	0	380633088	64	4186
2026-01-22 06:03:45.46	48.07	18.58	-46.2	-47.7	19.7	0.00e+00	0	41	0	382730240	64	4150
2026-01-22 06:03:46.47	47.87	18.65	-46.3	-47.8	19.6	0.00e+00	0	41	0	384827392	64	4204
2026-01-22 06:03:47.48	47.68	18.72	-46.1	-47.6	19.8	0.00e+00	0	41	0	386924544	64	4100
2026-01-22 06:03:48.49	47.48	18.79	-46.3	-47.7	19.7	0.00e+00	0	41	0	389021696	64	4167
2026-01-22 06:03:49.50	47.28	18.87	-46.0	-47.4	19.9	0.00e+00	0	41	0	391118848	64	4042
2026-01-22 06:03:50.51	47.08	18.94	-46.0	-47.4	20.1	0.00e+00	0	41	0	392167424	63	4245
2026-01-22 06:03:51.51	46.88	19.01	-46.0	-47.4	20.1	0.00e+00	0	41	0	394264576	63	4246
2026-01-22 06:03:52.52	46.68	19.08	-45.7	-47.0	20.4	0.00e+00	0	41	0	396361728	63	4061
2026-01-22 06:03:53.53	46.47	19.15	-45.5	-46.8	20.6	0.00e+00	0	41	0	398458880	63	3982
2026-01-22 06:03:54.54	46.27	19.22	-45.5	-46.8	20.6	0.00e+00	0	40	0	399507456	62	4226
2026-01-22 06:03:55.55	46.07	19.29	-45.4	-46.7	20.7	0.00e+00	0	40	0	401604608	62	4162
2026-01-22 06:03:56.55	45.86	19.36	-45.3	-46.6	20.8	0.00e+00	0	40	0	403701760	62	4110
2026-01-22 06:03:57.56	45.66	19.43	-45.1	-46.3	21.1	0.00e+00	0	41	0	405798912	62	4000
2026-01-22 06:03:58.57	45.45	19.50	-45.1	-46.3	21.1	0.00e+00	0	41	0	407896064	62	3975
2026-01-22 06:03:59.58	45.24	19.57	-45.0	-46.2	21.2	0.00e+00	0	41	0	408944640	62	3943
2026-01-22 06:04:00.59	45.03	19.64	-44.9	-46.1	21.2	0.00e+00	0	41	0	411041792	61	4123
2026-01-22 06:04:01.60	44.82	19.71	-44.9	-46.1	21.3	0.00e+00	0	40	0	413138944	61	4102
2026-01-22 06:04:02.61	44.61	19.78	-45.0	-46.2	21.2	0.00e+00	0	40	0	415236096	61	4173
2026-01-22 06:04:03.61	44.40	19.85	-44.7	-45.9	21.5	0.00e+00	0	41	0	417333248	61	4015
2026-01-22 06:04:04.62	44.18	19.92	-44.7	-45.8	21.6	0.00e+00	0	41	0	419430400	61	3992
2026-01-22 06:04:05.63	43.97	19.99	-44.7	-45.9	21.5	0.00e+00	0	41	0	420478976	61	4013
2026-01-22 06:04:06.64	43.75	20.06	-44.6	-45.8	21.6	0.00e+00	0	41	0	422576128	61	3975
2026-01-22 06:04:07.64	43.54	20.12	-44.7	-45.8	21.6	0.00e+00	0	41	0	424673280	61	4003
2026-01-22 06:04:08.65	43.32	20.19	-44.6	-45.7	21.7	0.00e+00	0	41	0	426770432	61	3927
2026-01-22 06:04:09.66	43.10	20.26	-44.5	-45.7	21.7	0.00e+00	0	41	0	427819008	61	3915
2026-01-22 06:04:10.67	42.88	20.33	-44.6	-45.7	21.7	0.00e+00	0	41	0	429916160	61	3932
2026-01-22 06:04:11.68	42.66	20.39	-44.5	-45.6	21.7	0.00e+00	0	40	0	432013312	61	3897
2026-01-22 06:04:12.69	42.44	20.46	-44.6	-45.8	21.6	0.00e+00	0	40	0	434110464	61	3967
2026-01-22 06:04:13.70	42.22	20.53	-44.5	-45.6	21.8	0.00e+00	0	41	0	436207616	60	4114
2026-01-22 06:04:14.71	42.00	20.59	-44.5	-45.6	21.7	0.00e+00	0	41	0	438304768	60	4142
2026-01-22 06:04:15.71	41.78	20.66	-44.5	-45.6	21.8	0.00e+00	0	40	0	439353344	60	4102
2026-01-22 06:04:16.72	41.55	20.72	-44.4	-45.6	21.8	0.00e+00	0	41	0	441450496	60	4099
2026-01-22 06:04:17.73	41.32	20.79	-44.5	-45.6	21.8	0.00e+00	0	40	0	443547648	60	4111
2026-01-22 06:04:18.74	41.10	20.85	-44.3	-45.4	22.0	0.00e+00	0	40	0	445644800	60	4010
2026-01-22 06:04:19.75	40.87	20.92	-44.1	-45.2	22.1	0.00e+00	0	41	0	447741952	60	3940
2026-01-22 06:04:20.75	40.64	20.98	-44.2	-45.2	22.1	0.00e+00	0	41	0	448790528	60	3944
2026-01-22 06:04:21.76	40.41	21.05	-44.1	-45.2	22.2	0.00e+00	0	40	0	450887680	60	3930
2026-01-22 06:04:22.77	40.18	21.11	-44.2	-45.2	22.2	0.00e+00	0	41	0	452984832	60	3944
2026-01-22 06:04:23.78	39.95	21.18	-44.2	-45.2	22.1	0.00e+00	0	41	0	455081984	60	3956
2026-01-22 06:04:24.79	39.72	21.24	-44.2	-45.3	22.0	0.00e+00	0	40	0	457179136	60	3988
2026-01-22 06:04:25.80	39.48	21.30	-44.1	-45.2	22.2	0.00e+00	0	41	0	458227712	60	3927
2026-01-22 06:04:26.81	39.25	21.36	-44.1	-45.2	22.2	0.00e+00	0	41	0	460324864	60	3929
2026-01-22 06:04:27.81	39.02	21.43	-44.2	-45.3	22.1	0.00e+00	0	40	0	462422016	60	3973
2026-01-22 06:04:28.82	38.78	21.49	-44.5	-45.6	21.7	0.00e+00	0	41	0	464519168	60	4134
2026-01-22 06:04:29.83	38.54	21.55	-44.5	-45.6	21.8	0.00e+00	0	41	0	466616320	60	4125
2026-01-22 06:04:30.84	38.30	21.61	-44.5	-45.6	21.8	0.00e+00	0	41	0	467664896	60	4130
2026-01-22 06:04:31.85	38.06	21.67	-44.4	-45.5	21.8	0.00e+00	0	41	0	469762048	60	4096
2026-01-22 06:04:32.85	37.83	21.73	-44.5	-45.6	21.8	0.00e+00	0	40	0	471859200	60	4132
2026-01-22 06:04:33.86	37.58	21.79	-44.4	-45.5	21.8	0.00e+00	0	41	0	473956352	60	4089
2026-01-22 06:04:34.87	37.34	21.85	-44.5	-45.6	21.8	0.00e+00	0	40	0	476053504	60	4109
2026-01-22 06:04:35.87	37.10	21.91	-44.5	-45.6	21.8	0.00e+00	0	41	0	477102080	60	4140
2026-01-22 06:04:36.88	36.86	21.97	-44.5	-45.6	21.8	0.00e+00	0	41	0	479199232	60	4135
2026-01-22 06:04:37.89	36.61	22.02	-44.6	-45.7	21.7	0.00e+00	0	41	0	481296384	60	4169
2026-01-22 06:04:38.90	36.37	22.08	-44.6	-45.7	21.7	0.00e+00	0	41	0	483393536	60	4153
2026-01-22 06:04:39.91	36.12	22.14	-44.4	-45.5	21.9	0.00e+00	0	40	0	485490688	60	4094
2026-01-22 06:04:40.92	35.87	22.20	-44.4	-45.5	21.8	0.00e+00	0	40	0	486539264	60	4094
2026-01-22 06:04:41.93	35.62	22.25	-44.4	-45.4	21.9	0.00e+00	0	41	0	488636416	60	4046
2026-01-22 06:04:42.94	35.37	22.31	-44.2	-45.2	22.2	0.00e+00	0	41	0	490733568	60	3952
2026-01-22 06:04:43.94	35.12	22.36	-44.1	-45.2	22.2	0.00e+00	0	40	0	492830720	60	3934
2026-01-22 06:04:44.95	34.87	22.42	-44.2	-45.3	22.1	0.00e+00	0	41	0	494927872	60	3989
2026-01-22 06:04:45.96	34.62	22.47	-44.2	-45.3	22.1	0.00e+00	0	41	0	495976448	60	3962
2026-01-22 06:04:46.97	34.37	22.53	-44.2	-45.2	22.2	0.00e+00	0	41	0	498073600	60	3951
2026-01-22 06:04:47.98	34.11	22.58	-44.1	-45.2	22.2	0.00e+00	0	41	0	500170752	60	3931
2026-01-22 06:04:48.99	33.86	22.63	-44.2	-45.2	22.2	0.00e+00	0	41	0	502267904	60	3943
2026-01-22 06:04:49.99	33.60	22.69	-44.2	-45.3	22.1	0.00e+00	0	41	0	504365056	60	3974
2026-01-22 06:04:51.00	33.35	22.74	-44.2	-45.2	22.2	0.00e+00	0	41	0	506462208	60	3952
2026-01-22 06:04:52.01	33.09	22.79	-44.3	-45.4	22.1	0.00e+00	0	41	0	507510784	60	4006
2026-01-22 06:04:53.02	32.83	22.84	-44.3	-45.3	22.1	0.00e+00	0	41	0	509607936	60	4001
2026-01-22 06:04:54.02	32.58	22.89	-44.3	-45.3	22.1	0.00e+00	0	41	0	511705088	60	3994
2026-01-22 06:04:55.03	32.32	22.94	-44.0	-45.1	22.3	0.00e+00	0	41	0	513802240	60	3870
2026-01-22 06:04:56.04	32.05	22.99	-44.4	-45.5	22.2	0.00e+00	0	40	0	514850816	59	4297
2026-01-22 06:04:57.05	31.79	23.04	-44.2	-45.3	22.4	0.00e+00	0	40	0	516947968	59	4195
2026-01-22 06:04:58.06	31.53	23.09	-44.2	-45.2	22.4	0.00e+00	0	40	0	519045120	59	4190
2026-01-22 06:04:59.06	31.27	23.13	-44.2	-45.2	22.5	0.00e+00	0	40	0	521142272	59	4193
2026-01-22 06:05:00.07	31.01	23.18	-44.3	-45.3	22.4	0.00e+00	0	41	0	523239424	59	4220
2026-01-22 06:05:01.08	30.74	23.23	-44.2	-45.3	22.4	0.00e+00	0	41	0	524288000	59	4206
2026-01-22 06:05:02.09	30.47	23.27	-44.3	-45.4	22.3	0.00e+00	0	40	0	526385152	59	4271
2026-01-22 06:05:03.09	30.21	23.32	-44.4	-45.5	22.2	0.00e+00	0	41	0	528482304	59	4318
2026-01-22 06:05:04.10	29.94	23.36	-44.4	-45.5	22.2	0.00e+00	0	40	0	530579456	59	4330
2026-01-22 06:05:05.11	29.67	23.41	-44.5	-45.6	22.2	0.00e+00	0	40	0	532676608	59	4374
2026-01-22 06:05:06.12	29.41	23.45	-44.6	-45.7	22.1	0.00e+00	0	41	0	534773760	59	4417
2026-01-22 06:05:07.13	29.14	23.49	-44.6	-45.7	22.0	0.00e+00	0	41	0	535822336	59	4439
2026-01-22 06:05:08.13	28.87	23.54	-44.4	-45.5	21.9	0.00e+00	0	41	0	537919488	60	4076
2026-01-22 06:05:09.14	28.60	23.58	-44.4	-45.5	21.9	0.00e+00	0	40	0	540016640	60	4074
2026-01-22 06:05:10.15	28.33	23.62	-44.3	-45.4	22.1	0.00e+00	0	41	0	542113792	60	4022
2026-01-22 06:05:11.16	28.05	23.66	-44.2	-45.2	22.2	0.00e+00	0	41	0	543162368	60	3947
2026-01-22 06:05:12.16	27.78	23.70	-44.2	-45.3	22.2	0.00e+00	0	41	0	545259520	60	3969
2026-01-22 06:05:13.17	27.51	23.74	-44.4	-45.5	22.0	0.00e+00	0	41	0	547356672	60	4062
2026-01-22 06:05:14.18	27.23	23.78	-44.6	-45.7	21.8	0.00e+00	0	41	0	549453824	60	4175
2026-01-22 06:05:15.19	26.96	23.81	-44.8	-45.9	21.6	0.00e+00	0	40	0	551550976	60	4260
2026-01-22 06:05:16.19	26.69	23.85	-44.9	-46.0	21.5	0.00e+00	0	41	0	553648128	60	4313
2026-01-22 06:05:17.20	26.41	23.89	-44.8	-45.9	21.5	0.00e+00	0	40	0	554696704	60	4282
2026-01-22 06:05:18.21	26.13	23.92	-44.9	-46.0	21.4	0.00e+00	0	41	0	556793856	60	4334
2026-01-22 06:05:19.22	25.85	23.96	-45.2	-46.4	21.1	0.00e+00	0	41	0	558891008	60	4514
2026-01-22 06:05:20.23	25.58	23.99	-45.4	-46.6	20.9	0.00e+00	0	41	0	560988160	61	4370
2026-01-22 06:05:21.24	25.30	24.03	-45.5	-46.7	20.8	0.00e+00	0	40	0	563085312	61	4430
2026-01-22 06:05:22.25	25.02	24.06	-45.5	-46.8	20.8	0.00e+00	0	41	0	564133888	61	4448
2026-01-22 06:05:23.25	24.74	24.09	-45.4	-46.6	20.9	0.00e+00	0	40	0	566231040	61	4374
2026-01-22 06:05:24.26	24.46	24.12	-45.5	-46.7	20.8	0.00e+00	0	41	0	568328192	61	4416
2026-01-22 06:05:25.27	24.18	24.16	-45.6	-46.9	20.6	0.00e+00	0	41	0	570425344	61	4522
2026-01-22 06:05:26.28	23.90	24.19	-45.8	-47.1	20.5	0.00e+00	0	41	0	571473920	62	4346
2026-01-22 06:05:27.28	23.62	24.21	-45.8	-47.1	20.5	0.00e+00	0	41	0	573571072	62	4347
2026-01-22 06:05:28.29	23.33	24.24	-45.8	-47.1	20.5	0.00e+00	0	41	0	575668224	62	4387
2026-01-22 06:05:29.30	23.05	24.27	-45.8	-47.1	20.6	0.00e+00	0	41	0	577765376	62	4345
2026-01-22 06:05:30.31	22.76	24.30	-45.7	-47.0	20.6	0.00e+00	0	41	0	579862528	62	4305
2026-01-22 06:05:31.32	22.48	24.33	-45.8	-47.1	20.5	0.00e+00	0	40	0	581959680	62	4380
2026-01-22 06:05:32.33	22.20	24.35	-45.8	-47.1	20.5	0.00e+00	0	41	0	583008256	62	4366
2026-01-22 06:05:33.33	21.91	24.38	-45.9	-47.3	20.3	0.00e+00	0	41	0	585105408	62	4443
2026-01-22 06:05:34.34	21.63	24.40	-46.0	-47.3	20.3	0.00e+00	0	41	0	587202560	62	4461
2026-01-22 06:05:35.35	21.34	24.42	-45.9	-47.3	20.3	0.00e+00	0	41	0	589299712	62	4455
2026-01-22 06:05:36.36	21.05	24.45	-46.0	-47.3	20.3	0.00e+00	0	41	0	591396864	62	4490
2026-01-22 06:05:37.36	20.77	24.47	-46.1	-47.5	20.1	0.00e+00	0	41	0	592445440	62	4585
2026-01-22 06:05:38.37	20.48	24.49	-46.2	-47.6	20.0	0.00e+00	0	41	0	594542592	63	4368
2026-01-22 06:05:39.38	20.19	24.51	-46.4	-47.8	19.8	0.00e+00	0	41	0	596639744	63	4480
2026-01-22 06:05:40.39	19.91	24.53	-46.4	-47.8	19.8	0.00e+00	0	41	0	598736896	63	4467
2026-01-22 06:05:41.39	19.62	24.55	-46.3	-47.7	20.0	0.00e+00	0	41	0	600834048	63	4392
2026-01-22 06:05:42.40	19.33	24.57	-46.2	-47.6	20.0	0.00e+00	0	41	0	601882624	63	4372
2026-01-22 06:05:43.41	19.04	24.59	-46.2	-47.6	20.0	0.00e+00	0	41	0	603979776	63	4364
2026-01-22 06:05:44.42	18.75	24.60	-46.1	-47.4	20.2	0.00e+00	0	41	0	606076928	63	4277
2026-01-22 06:05:45.42	18.46	24.62	-46.0	-47.3	20.3	0.00e+00	0	41	0	608174080	63	4227
2026-01-22 06:05:46.43	18.17	24.63	-46.0	-47.3	20.3	0.00e+00	0	41	0	610271232	63	4213
2026-01-22 06:05:47.44	17.88	24.65	-46.0	-47.3	20.3	0.00e+00	0	40	0	611319808	63	4214
2026-01-22 06:05:48.45	17.59	24.66	-45.9	-47.2	20.4	0.00e+00	0	40	0	613416960	63	4175
2026-01-22 06:05:49.46	17.30	24.67	-46.0	-47.3	20.3	0.00e+00	0	41	0	615514112	63	4215
2026-01-22 06:05:50.47	17.01	24.69	-46.2	-47.6	20.0	0.00e+00	0	41	0	617611264	63	4378
2026-01-22 06:05:51.48	16.72	24.70	-46.3	-47.7	19.9	0.00e+00	0	41	0	619708416	63	4400
2026-01-22 06:05:52.48	16.43	24.71	-46.2	-47.6	20.0	0.00e+00	0	41	0	620756992	63	4371
2026-01-22 06:05:53.49	16.14	24.72	-46.2	-47.6	20.0	0.00e+00	0	41	0	622854144	63	4368
2026-01-22 06:05:54.50	15.85	24.73	-46.2	-47.6	20.1	0.00e+00	0	41	0	624951296	63	4346
2026-01-22 06:05:55.51	15.55	24.73	-46.1	-47.5	20.1	0.00e+00	0	41	0	627048448	63	4304
2026-01-22 06:05:56.51	15.26	24.74	-46.1	-47.4	20.2	0.00e+00	0	41	0	629145600	63	4286
2026-01-22 06:05:57.52	14.97	24.75	-46.1	-47.5	20.1	0.00e+00	0	41	0	630194176	63	4293
2026-01-22 06:05:58.53	14.68	24.75	-46.0	-47.3	20.3	0.00e+00	0	40	0	632291328	63	4214
2026-01-22 06:05:59.54	14.39	24.76	-45.8	-47.1	20.5	0.00e+00	0	41	0	634388480	63	4129
2026-01-22 06:06:00.54	14.10	24.76	-45.7	-47.0	20.6	0.00e+00	0	41	0	636485632	63	4084
2026-01-22 06:06:01.55	13.80	24.76	-45.7	-47.0	20.6	0.00e+00	0	41	0	638582784	63	4060
2026-01-22 06:06:02.56	13.51	24.77	-45.8	-47.1	20.5	0.00e+00	0	41	0	639631360	63	4132
2026-01-22 06:06:03.57	13.22	24.77	-45.9	-47.2	20.4	0.00e+00	0	41	0	641728512	63	4172
2026-01-22 06:06:04.57	12.93	24.77	-45.9	-47.2	20.4	0.00e+00	0	41	0	643825664	63	4160
2026-01-22 06:06:05.58	12.64	24.77	-45.8	-47.1	20.5	0.00e+00	0	41	0	645922816	63	4114
2026-01-22 06:06:06.59	12.34	24.77	-45.5	-46.8	20.8	0.00e+00	0	41	0	648019968	63	3962
2026-01-22 06:06:07.60	12.05	24.77	-45.4	-46.6	21.0	0.00e+00	0	41	0	649068544	62	4106
2026-01-22 06:06:08.61	11.76	24.76	-45.3	-46.5	21.1	0.00e+00	0	41	0	651165696	62	4076
2026-01-22 06:06:09.61	11.47	24.76	-45.1	-46.3	21.3	0.00e+00	0	41	0	653262848	62	3986
2026-01-22 06:06:10.62	11.17	24.75	-45.3	-46.5	21.1	0.00e+00	0	41	0	655360000	62	4095
2026-01-22 06:06:11.63	10.88	24.75	-45.2	-46.4	21.2	0.00e+00	0	41	0	657457152	62	4009
2026-01-22 06:06:12.64	10.59	24.74	-45.0	-46.2	21.4	0.00e+00	0	41	0	658505728	62	3927
2026-01-22 06:06:13.65	10.30	24.74	-44.9	-46.1	21.5	0.00e+00	0	40	0	660602880	61	4110
2026-01-22 06:06:14.65	10.01	24.73	-45.0	-46.1	21.4	0.00e+00	0	41	0	662700032	61	4137
2026-01-22 06:06:15.66	9.72	24.72	-44.9	-46.0	21.5	0.00e+00	0	41	0	664797184	61	4091
2026-01-22 06:06:16.67	9.42	24.71	-44.6	-45.8	21.7	0.00e+00	0	41	0	666894336	61	3962
2026-01-22 06:06:17.68	9.13	24.70	-44.5	-45.6	21.9	0.00e+00	0	41	0	667942912	61	3902
2026-01-22 06:06:18.68	8.84	24.69	-44.5	-45.6	21.9	0.00e+00	0	41	0	670040064	61	3874
2026-01-22 06:06:19.69	8.55	24.68	-44.4	-45.5	22.0	0.00e+00	0	41	0	672137216	60	4075
2026-01-22 06:06:20.70	8.26	24.67	-44.4	-45.5	22.0	0.00e+00	0	40	0	674234368	60	4064
2026-01-22 06:06:21.71	7.97	24.65	-44.3	-45.4	22.1	0.00e+00	0	41	0	676331520	60	4032
2026-01-22 06:06:22.72	7.68	24.64	-44.3	-45.3	22.1	0.00e+00	0	41	0	677380096	60	3997
2026-01-22 06:06:23.72	7.39	24.63	-44.1	-45.2	22.3	0.00e+00	0	41	0	679477248	60	3928
2026-01-22 06:06:24.73	7.10	24.61	-44.3	-45.4	22.4	0.00e+00	0	41	0	681574400	59	4243
2026-01-22 06:06:25.74	6.81	24.59	-44.4	-45.5	22.3	0.00e+00	0	41	0	683671552	59	4321
2026-01-22 06:06:26.75	6.52	24.58	-44.2	-45.3	22.5	0.00e+00	0	41	0	685768704	59	4213
2026-01-22 06:06:27.76	6.23	24.56	-44.2	-45.3	22.4	0.00e+00	0	41	0	686817280	59	4215
2026-01-22 06:06:28.77	5.94	24.54	-44.2	-45.3	22.5	0.00e+00	0	41	0	688914432	59	4207
2026-01-22 06:06:29.77	5.66	24.52	-44.2	-45.3	22.5	0.00e+00	0	40	0	691011584	59	4198
2026-01-22 06:06:30.78	5.37	24.50	-44.1	-45.2	22.6	0.00e+00	0	40	0	693108736	59	4159
2026-01-22 06:06:31.79	5.08	24.48	-44.1	-45.1	22.6	0.00e+00	0	41	0	695205888	59	4111
2026-01-22 06:06:32.80	4.80	24.46	-43.9	-44.9	22.8	0.00e+00	0	41	0	697303040	59	4046
2026-01-22 06:06:33.81	4.51	24.44	-44.0	-45.0	22.8	0.00e+00	0	41	0	698351616	59	4061
2026-01-22 06:06:34.81	4.23	24.41	-44.0	-45.0	22.8	0.00e+00	0	41	0	700448768	59	4065
2026-01-22 06:06:35.82	3.94	24.39	-44.0	-45.0	22.8	0.00e+00	0	41	0	702545920	59	4061
2026-01-22 06:06:36.83	3.65	24.36	-44.1	-45.1	22.6	0.00e+00	0	41	0	704643072	59	4126
2026-01-22 06:06:37.84	3.37	24.34	-44.0	-45.0	22.7	0.00e+00	0	41	0	705691648	59	4077
2026-01-22 06:06:38.85	3.08	24.31	-44.1	-45.1	22.6	0.00e+00	0	40	0	707788800	59	4143
2026-01-22 06:06:39.86	2.80	24.28	-44.1	-45.2	22.6	0.00e+00	0	41	0	709885952	59	4153
2026-01-22 06:06:40.86	2.52	24.26	-44.1	-45.1	22.6	0.00e+00	0	41	0	711983104	59	4130
2026-01-22 06:06:41.87	2.24	24.23	-44.3	-45.4	22.4	0.00e+00	0	41	0	714080256	59	4274
2026-01-22 06:06:42.88	1.95	24.20	-44.4	-45.5	22.3	0.00e+00	0	41	0	715128832	59	4313
2026-01-22 06:06:43.89	1.67	24.17	-44.3	-45.3	22.4	0.00e+00	0	41	0	717225984	59	4219
2026-01-22 06:06:44.89	1.39	24.14	-44.3	-45.4	22.4	0.00e+00	0	40	0	719323136	59	4264
2026-01-22 06:06:45.90	1.11	24.11	-44.4	-45.4	22.3	0.00e+00	0	41	0	721420288	59	4289
2026-01-22 06:06:46.91	0.83	24.08	-44.5	-45.6	22.2	0.00e+00	0	40	0	723517440	59	4356
2026-01-22 06:06:47.92	0.55	24.04	-44.5	-45.6	22.2	0.00e+00	0	41	0	725614592	59	4371
2026-01-22 06:06:48.93	0.27	24.01	-44.7	-45.8	21.9	0.00e+00	0	41	0	726663168	59	4469
2026-01-22 06:06:49.94	359.99	23.98	-44.4	-45.5	22.0	0.00e+00	0	41	0	728760320	60	4061
2026-01-22 06:06:50.94	359.72	23.94	-44.3	-45.4	22.1	0.00e+00	0	41	0	730857472	60	4013
2026-01-22 06:06:51.95	359.44	23.91	-44.3	-45.4	22.0	0.00e+00	0	41	0	732954624	60	4039
2026-01-22 06:06:52.96	359.16	23.87	-44.5	-45.6	21.9	0.00e+00	0	41	0	734003200	60	4108
2026-01-22 06:06:53.97	358.89	23.83	-44.6	-45.7	21.8	0.00e+00	0	41	0	736100352	60	4178
2026-01-22 06:06:54.98	358.61	23.79	-44.8	-45.9	21.6	0.00e+00	0	40	0	738197504	60	4277
2026-01-22 06:06:55.98	358.34	23.76	-44.7	-45.9	21.6	0.00e+00	0	41	0	740294656	60	4249
2026-01-22 06:06:56.99	358.07	23.72	-44.9	-46.0	21.5	0.00e+00	0	40	0	742391808	60	4331
2026-01-22 06:06:58.00	357.79	23.68	-44.9	-46.1	21.4	0.00e+00	0	41	0	744488960	60	4368
2026-01-22 06:06:59.01	357.52	23.64	-45.0	-46.1	21.4	0.00e+00	0	41	0	745537536	60	4377
2026-01-22 06:07:00.02	357.25	23.60	-45.0	-46.2	21.3	0.00e+00	0	40	0	747634688	60	4415
2026-01-22 06:07:01.03	356.98	23.56	-45.0	-46.1	21.4	0.00e+00	0	41	0	749731840	60	4377
2026-01-22 06:07:02.04	356.71	23.51	-45.0	-46.2	21.3	0.00e+00	0	41	0	751828992	60	4398
2026-01-22 06:07:03.05	356.44	23.47	-45.1	-46.3	21.2	0.00e+00	0	41	0	753926144	60	4457
2026-01-22 06:07:04.05	356.17	23.43	-45.0	-46.2	21.3	0.00e+00	0	41	0	754974720	60	4405
2026-01-22 06:07:05.06	355.90	23.38	-45.2	-46.4	21.1	0.00e+00	0	40	0	757071872	61	4282
2026-01-22 06:07:06.07	355.64	23.34	-45.5	-46.7	20.8	0.00e+00	0	41	0	759169024	61	4429
2026-01-22 06:07:07.08	355.37	23.29	-45.5	-46.8	20.7	0.00e+00	0	40	0	761266176	61	4463
2026-01-22 06:07:08.09	355.10	23.25	-45.6	-46.9	20.7	0.00e+00	0	41	0	763363328	61	4501
2026-01-22 06:07:09.09	354.84	23.20	-45.7	-47.0	20.6	0.00e+00	0	40	0	764411904	61	4546
2026-01-22 06:07:10.10	354.58	23.16	-45.7	-47.0	20.6	0.00e+00	0	40	0	766509056	61	4554
2026-01-22 06:07:11.11	354.31	23.11	-45.6	-46.8	20.7	0.00e+00	0	41	0	768606208	61	4475
2026-01-22 06:07:12.11	354.05	23.06	-45.5	-46.8	20.8	0.00e+00	0	41	0	770703360	61	4458
2026-01-22 06:07:13.12	353.79	23.01	-45.5	-46.7	20.8	0.00e+00	0	41	0	772800512	61	4435
2026-01-22 06:07:14.13	353.53	22.96	-45.6	-46.9	20.7	0.00e+00	0	40	0	773849088	61	4496
2026-01-22 06:07:15.14	353.27	22.91	-45.7	-47.0	20.6	0.00e+00	0	41	0	775946240	62	4307
2026-01-22 06:07:16.14	353.01	22.86	-45.7	-46.9	20.6	0.00e+00	0	41	0	778043392	62	4287
2026-01-22 06:07:17.15	352.75	22.81	-45.8	-47.1	20.5	0.00e+00	0	41	0	780140544	62	4372
2026-01-22 06:07:18.16	352.50	22.76	-46.0	-47.4	20.2	0.00e+00	0	41	0	782237696	62	4496
2026-01-22 06:07:19.17	352.24	22.71	-46.1	-47.4	20.1	0.00e+00	0	41	0	783286272	62	4542
2026-01-22 06:07:20.18	351.98	22.66	-46.0	-47.4	20.2	0.00e+00	0	41	0	785383424	62	4504
2026-01-22 06:07:21.19	351.73	22.61	-46.0	-47.4	20.2	0.00e+00	0	41	0	787480576	62	4509
2026-01-22 06:07:22.19	351.48	22.55	-45.9	-47.3	20.3	0.00e+00	0	41	0	789577728	62	4449
2026-01-22 06:07:23.20	351.22	22.50	-46.0	-47.3	20.3	0.00e+00	0	41	0	791674880	62	4472
2026-01-22 06:07:24.21	350.97	22.44	-45.9	-47.2	20.4	0.00e+00	0	41	0	792723456	62	4412
2026-01-22 06:07:25.22	350.72	22.39	-45.6	-46.9	20.6	0.00e+00	0	41	0	794820608	62	4270
2026-01-22 06:07:26.23	350.47	22.33	-45.8	-47.1	20.5	0.00e+00	0	41	0	796917760	62	4363
2026-01-22 06:07:27.23	350.22	22.28	-45.8	-47.1	20.4	0.00e+00	0	41	0	799014912	62	4389
2026-01-22 06:07:28.24	349.97	22.22	-46.1	-47.4	20.1	0.00e+00	0	41	0	801112064	62	4520
2026-01-22 06:07:29.25	349.72	22.17	-46.2	-47.6	20.0	0.00e+00	0	40	0	802160640	62	4603
2026-01-22 06:07:30.26	349.48	22.11	-46.2	-47.6	20.0	0.00e+00	0	41	0	804257792	63	4374
2026-01-22 06:07:31.27	349.23	22.05	-46.1	-47.4	20.1	0.00e+00	0	41	0	806354944	63	4286
2026-01-22 06:07:32.27	348.99	22.00	-46.0	-47.3	20.3	0.00e+00	0	41	0	808452096	63	4212
2026-01-22 06:07:33.28	348.74	21.94	-45.9	-47.2	20.4	0.00e+00	0	40	0	810549248	63	4170
2026-01-22 06:07:34.29	348.50	21.88	-45.8	-47.1	20.5	0.00e+00	0	41	0	812646400	63	4106
2026-01-22 06:07:35.29	348.26	21.82	-45.8	-47.1	20.4	0.00e+00	0	40	0	813694976	63	4138
2026-01-22 06:07:36.30	348.02	21.76	-45.8	-47.1	20.5	0.00e+00	0	41	0	815792128	63	4126
2026-01-22 06:07:37.31	347.78	21.70	-45.9	-47.2	20.3	0.00e+00	0	40	0	817889280	63	4186
2026-01-22 06:07:38.32	347.54	21.64	-45.8	-47.1	20.4	0.00e+00	0	40	0	819986432	63	4142
2026-01-22 06:07:39.33	347.30	21.58	-45.9	-47.2	20.3	0.00e+00	0	41	0	821035008	63	4183
2026-01-22 06:07:40.33	347.06	21.52	-45.9	-47.2	20.3	0.00e+00	0	41	0	823132160	63	4189
2026-01-22 06:07:41.34	346.83	21.46	-45.8	-47.1	20.5	0.00e+00	0	41	0	825229312	63	4121
2026-01-22 06:07:42.35	346.59	21.40	-45.9	-47.3	20.3	0.00e+00	0	41	0	827326464	63	4200
2026-01-22 06:07:43.36	346.36	21.33	-45.6	-46.9	20.6	0.00e+00	0	41	0	829423616	63	4009
2026-01-22 06:07:44.36	346.12	21.27	-45.6	-46.8	20.8	0.00e+00	0	40	0	830472192	62	4222
2026-01-22 06:07:45.37	345.89	21.21	-45.4	-46.6	20.9	0.00e+00	0	41	0	832569344	62	4118
2026-01-22 06:07:46.38	345.66	21.14	-45.3	-46.5	21.0	0.00e+00	0	40	0	834666496	62	4098
2026-01-22 06:07:47.39	345.43	21.08	-45.3	-46.5	21.0	0.00e+00	0	40	0	836763648	62	4097
2026-01-22 06:07:48.40	345.20	21.02	-45.3	-46.5	21.0	0.00e+00	0	41	0	838860800	62	4097
2026-01-22 06:07:49.41	344.97	20.95	-45.3	-46.5	21.0	0.00e+00	0	40	0	840957952	62	4079
2026-01-22 06:07:50.41	344.74	20.89	-45.2	-46.4	21.1	0.00e+00	0	41	0	842006528	62	4009
2026-01-22 06:07:51.42	344.52	20.82	-45.1	-46.3	21.2	0.00e+00	0	41	0	844103680	62	3973
2026-01-22 06:07:52.43	344.29	20.76	-45.2	-46.4	21.2	0.00e+00	0	40	0	846200832	62	4006
2026-01-22 06:07:53.44	344.06	20.69	-45.1	-46.3	21.2	0.00e+00	0	41	0	848297984	62	3964
2026-01-22 06:07:54.45	343.84	20.63	-45.2	-46.4	21.1	0.00e+00	0	41	0	849346560	62	4038
2026-01-22 06:07:55.45	343.62	20.56	-45.3	-46.5	21.0	0.00e+00	0	41	0	851443712	62	4063
2026-01-22 06:07:56.46	343.40	20.50	-45.3	-46.5	21.0	0.00e+00	0	41	0	853540864	62	4096
2026-01-22 06:07:57.47	343.17	20.43	-45.4	-46.6	20.9	0.00e+00	0	41	0	855638016	62	4114
2026-01-22 06:07:58.48	342.95	20.36	-45.3	-46.5	20.9	0.00e+00	0	40	0	857735168	62	4097
2026-01-22 06:07:59.48	342.74	20.30	-45.2	-46.4	21.1	0.00e+00	0	41	0	858783744	62	4011
2026-01-22 06:08:00.49	342.52	20.23	-45.1	-46.3	21.2	0.00e+00	0	41	0	860880896	62	3991
2026-01-22 06:08:01.50	342.30	20.16	-45.3	-46.5	21.0	0.00e+00	0	40	0	862978048	62	4063
2026-01-22 06:08:02.51	342.08	20.09	-45.2	-46.4	21.1	0.00e+00	0	41	0	865075200	62	4006
2026-01-22 06:08:03.52	341.87	20.02	-45.2	-46.4	21.0	0.00e+00	0	40	0	867172352	62	4050
2026-01-22 06:08:04.53	341.65	19.96	-45.1	-46.3	21.1	0.00e+00	0	41	0	869269504	62	3998
2026-01-22 06:08:05.53	341.44	19.89	-45.1	-46.3	21.2	0.00e+00	0	41	0	870318080	62	3999
2026-01-22 06:08:06.54	341.23	19.82	-45.2	-46.4	21.1	0.00e+00	0	41	0	872415232	62	4017
2026-01-22 06:08:07.55	341.02	19.75	-45.2	-46.4	21.1	0.00e+00	0	41	0	874512384	62	4020
2026-01-22 06:08:08.56	340.81	19.68	-45.1	-46.3	21.1	0.00e+00	0	41	0	876609536	62	3998
2026-01-22 06:08:09.56	340.60	19.61	-45.3	-46.5	21.0	0.00e+00	0	40	0	877658112	62	4091
2026-01-22 06:08:10.57	340.39	19.54	-45.4	-46.7	20.8	0.00e+00	0	40	0	879755264	62	4151
2026-01-22 06:08:11.58	340.18	19.47	-45.2	-46.5	21.0	0.00e+00	0	41	0	881852416	62	4058
2026-01-22 06:08:12.59	339.98	19.40	-45.3	-46.6	20.9	0.00e+00	0	40	0	883949568	62	4099
2026-01-22 06:08:13.60	339.77	19.33	-45.2	-46.4	21.0	0.00e+00	0	41	0	886046720	62	4050
2026-01-22 06:08:14.61	339.56	19.26	-45.3	-46.5	20.9	0.00e+00	0	41	0	888143872	62	4081
2026-01-22 06:08:15.61	339.36	19.19	-45.2	-46.4	21.1	0.00e+00	0	41	0	889192448	62	4016
2026-01-22 06:08:16.62	339.16	19.12	-45.3	-46.5	20.9	0.00e+00	0	41	0	891289600	62	4089
2026-01-22 06:08:17.63	338.96	19.05	-45.2	-46.4	21.1	0.00e+00	0	41	0	893386752	62	4010
2026-01-22 06:08:18.63	338.76	18.98	-45.1	-46.2	21.2	0.00e+00	0	41	0	895483904	62	3949
2026-01-22 06:08:19.64	338.56	18.91	-44.9	-46.1	21.3	0.00e+00	0	41	0	897581056	61	4117
2026-01-22 06:08:20.65	338.36	18.83	-45.0	-46.2	21.2	0.00e+00	0	41	0	898629632	61	4177
2026-01-22 06:08:21.66	338.16	18.76	-45.1	-46.3	21.2	0.00e+00	0	41	0	900726784	61	4199
2026-01-22 06:08:22.67	337.96	18.69	-45.0	-46.1	21.3	0.00e+00	0	41	0	902823936	61	4137
2026-01-22 06:08:23.68	337.77	18.62	-45.0	-46.2	21.2	0.00e+00	0	41	0	904921088	61	4146
2026-01-22 06:08:24.69	337.57	18.55	-45.1	-46.3	21.2	0.00e+00	0	40	0	907018240	61	4197
2026-01-22 06:08:25.69	337.38	18.47	-44.9	-46.1	21.4	0.00e+00	0	41	0	908066816	61	4103
2026-01-22 06:08:26.70	337.19	18.40	-45.0	-46.1	21.2	0.00e+00	0	41	0	910163968	61	4143
2026-01-22 06:08:27.71	336.99	18.33	-44.9	-46.1	21.3	0.00e+00	0	41	0	912261120	61	4099
2026-01-22 06:08:28.72	336.80	18.26	-44.9	-46.0	21.4	0.00e+00	0	41	0	914358272	61	4087
2026-01-22 06:08:29.73	336.61	18.18	-44.8	-46.0	21.4	0.00e+00	0	41	0	916455424	61	4058
2026-01-22 06:08:30.73	336.42	18.11	-44.7	-45.9	21.5	0.00e+00	0	41	0	917504000	61	4014
2026-01-22 06:08:31.74	336.23	18.04	-44.7	-45.8	21.6	0.00e+00	0	41	0	919601152	61	3992
2026-01-22 06:08:32.75	336.05	17.97	-44.6	-45.8	21.6	0.00e+00	0	41	0	921698304	61	3974
2026-01-22 06:08:33.75	335.86	17.89	-44.5	-45.7	21.7	0.00e+00	0	41	0	923795456	61	3917
2026-01-22 06:08:34.76	335.67	17.82	-44.5	-45.6	21.8	0.00e+00	0	41	0	925892608	61	3886
2026-01-22 06:08:35.77	335.49	17.75	-44.5	-45.6	21.7	0.00e+00	0	41	0	926941184	61	3903
2026-01-22 06:08:36.78	335.30	17.67	-44.3	-45.4	21.9	0.00e+00	0	41	0	929038336	60	4031
2026-01-22 06:08:37.79	335.12	17.60	-44.4	-45.5	21.8	0.00e+00	0	41	0	931135488	60	4065
2026-01-22 06:08:38.79	334.94	17.53	-44.4	-45.5	21.9	2.20e-06	0	41	0	933232640	60	4053
2026-01-22 06:08:39.80	334.76	17.45	-44.4	-45.6	21.8	0.00e+00	0	41	0	935329792	60	4100
2026-01-22 06:08:40.81	334.58	17.38	-44.5	-45.7	21.7	0.00e+00	0	41	0	936378368	60	4147
2026-01-22 06:08:41.82	334.40	17.30	-44.6	-45.7	21.7	0.00e+00	0	41	0	938475520	60	4158
2026-01-22 06:08:42.83	334.22	17.23	-44.5	-45.6	21.7	0.00e+00	0	41	0	940572672	60	4134
2026-01-22 06:08:43.84	334.04	17.16	-44.5	-45.7	21.7	0.00e+00	0	41	0	942669824	60	4158
2026-01-22 06:08:44.85	333.86	17.08	-44.4	-45.5	21.8	0.00e+00	0	41	0	944766976	60	4076
2026-01-22 06:08:45.85	333.69	17.01	-44.4	-45.5	21.9	0.00e+00	0	41	0	945815552	60	4062
2026-01-22 06:08:46.86	333.51	16.94	-44.2	-45.3	22.0	0.00e+00	0	41	0	947912704	60	3990
2026-01-22 06:08:47.87	333.34	16.86	-44.3	-45.4	21.9	0.00e+00	0	41	0	950009856	60	4021
2026-01-22 06:08:48.88	333.16	16.79	-44.5	-45.6	21.8	0.00e+00	0	41	0	952107008	60	4108
2026-01-22 06:08:49.89	332.99	16.71	-44.2	-45.3	22.0	0.00e+00	0	41	0	954204160	60	3985
2026-01-22 06:08:50.89	332.82	16.64	-44.3	-45.4	21.9	0.00e+00	0	41	0	955252736	60	4037
2026-01-22 06:08:51.90	332.65	16.56	-44.2	-45.2	22.0	0.00e+00	0	41	0	957349888	60	3954
2026-01-22 06:08:52.91	332.48	16.49	-44.3	-45.4	21.9	0.00e+00	0	41	0	959447040	60	4029
2026-01-22 06:08:53.92	332.31	16.42	-44.5	-45.6	21.7	0.00e+00	0	41	0	961544192	60	4140
2026-01-22 06:08:54.92	332.14	16.34	-44.6	-45.8	21.6	0.00e+00	0	41	0	963641344	60	4196
2026-01-22 06:08:55.93	331.98	16.27	-44.6	-45.7	21.6	0.00e+00	0	41	0	964689920	60	4171
2026-01-22 06:08:56.94	331.81	16.19	-44.4	-45.5	21.8	0.00e+00	0	41	0	966787072	60	4091
2026-01-22 06:08:57.95	331.64	16.12	-44.5	-45.6	21.7	0.00e+00	0	41	0	968884224	60	4130
2026-01-22 06:08:58.96	331.48	16.04	-44.5	-45.6	21.7	0.00e+00	0	41	0	970981376	60	4138
2026-01-22 06:08:59.96	331.32	15.97	-44.3	-45.5	21.8	0.00e+00	0	41	0	973078528	60	4054
2026-01-22 06:09:00.97	331.15	15.89	-44.4	-45.5	21.8	0.00e+00	0	41	0	974127104	60	4064
2026-01-22 06:09:01.98	330.99	15.82	-44.3	-45.4	21.8	0.00e+00	0	41	0	976224256	60	4047
2026-01-22 06:09:02.99	330.83	15.74	-44.4	-45.6	21.7	0.00e+00	0	41	0	978321408	60	4106
2026-01-22 06:09:04.00	330.67	15.67	-44.5	-45.7	21.6	0.00e+00	0	41	0	980418560	60	4147
2026-01-22 06:09:05.00	330.51	15.60	-44.5	-45.6	21.7	0.00e+00	0	41	0	982515712	60	4119
2026-01-22 06:09:06.01	330.35	15.52	-44.4	-45.6	21.7	0.00e+00	0	41	0	983564288	60	4101
2026-01-22 06:09:07.02	330.19	15.45	-44.4	-45.6	21.7	0.00e+00	0	41	0	985661440	60	4103
2026-01-22 06:09:08.03	330.03	15.37	-44.6	-45.7	21.6	0.00e+00	0	41	0	987758592	60	4164
2026-01-22 06:09:09.04	329.87	15.30	-44.6	-45.7	21.6	0.00e+00	0	41	0	989855744	60	4193
2026-01-22 06:09:10.05	329.72	15.22	-44.6	-45.7	21.6	0.00e+00	0	40	0	991952896	60	4159
2026-01-22 06:09:11.05	329.56	15.15	-44.8	-45.9	21.3	0.00e+00	0	41	0	993001472	60	4286
2026-01-22 06:09:12.06	329.41	15.07	-44.9	-46.1	21.2	0.00e+00	0	41	0	995098624	60	4358
2026-01-22 06:09:13.07	329.26	15.00	-44.9	-46.1	21.2	0.00e+00	0	41	0	997195776	60	4386
2026-01-22 06:09:14.08	329.10	14.93	-45.0	-46.2	21.1	0.00e+00	0	41	0	999292928	60	4404
2026-01-22 06:09:15.08	328.95	14.85	-45.1	-46.3	21.0	1.50e-06	0	41	0	1001390080	60	4486
2026-01-22 06:09:16.09	328.80	14.78	-45.1	-46.3	20.9	0.00e+00	0	40	0	1003487232	60	4492
2026-01-22 06:09:17.10	328.65	14.70	-45.2	-46.4	20.9	0.00e+00	0	41	0	1004535808	60	4535
2026-01-22 06:09:18.11	328.50	14.63	-45.3	-46.6	20.7	0.00e+00	0	41	0	1006632960	61	4376
2026-01-22 06:09:19.12	328.35	14.55	-45.4	-46.7	20.6	0.00e+00	0	41	0	1008730112	61	4432
2026-01-22 06:09:20.13	328.20	14.48	-45.3	-46.5	20.8	0.00e+00	0	41	0	1010827264	61	4323
2026-01-22 06:09:21.13	328.06	14.41	-45.3	-46.6	20.7	0.00e+00	0	41	0	1011875840	61	4365
2026-01-22 06:09:22.14	327.91	14.33	-45.5	-46.8	20.5	0.00e+00	0	41	0	1013972992	61	4454
2026-01-22 06:09:23.15	327.76	14.26	-45.3	-46.5	20.8	0.00e+00	0	41	0	1016070144	61	4340
2026-01-22 06:09:24.16	327.62	14.18	-45.4	-46.7	20.6	0.00e+00	0	41	0	1018167296	61	4410
2026-01-22 06:09:25.17	327.47	14.11	-45.3	-46.6	20.7	0.00e+00	0	41	0	1020264448	61	4361
2026-01-22 06:09:26.17	327.33	14.03	-45.1	-46.3	20.9	7.00e-07	0	41	0	1021313024	61	4231
2026-01-22 06:09:27.18	327.19	13.96	-45.2	-46.4	20.8	0.00e+00	0	41	0	1023410176	61	4290
2026-01-22 06:09:28.19	327.04	13.89	-45.3	-46.6	20.7	0.00e+00	0	41	0	1025507328	61	4353
2026-01-22 06:09:29.20	326.90	13.81	-45.3	-46.5	20.7	0.00e+00	0	41	0	1027604480	61	4321
2026-01-22 06:09:30.21	326.76	13.74	-45.4	-46.7	20.6	0.00e+00	0	41	0	1029701632	61	4405
2026-01-22 06:09:31.21	326.62	13.66	-45.5	-46.8	20.5	0.00e+00	0	41	0	1031798784	61	4477
2026-01-22 06:09:32.22	326.48	13.59	-45.5	-46.8	20.5	0.00e+00	0	41	0	1032847360	61	4464
2026-01-22 06:09:33.23	326.34	13.52	-45.6	-47.0	20.3	0.00e+00	0	41	0	1034944512	61	4560
2026-01-22 06:09:34.24	326.21	13.44	-45.7	-47.1	20.2	0.00e+00	0	41	0	1037041664	62	4350
2026-01-22 06:09:35.25	326.07	13.37	-45.6	-47.0	20.3	0.00e+00	0	41	0	1039138816	62	4307
2026-01-22 06:09:36.25	325.93	13.30	-45.7	-47.0	20.3	0.00e+00	0	41	0	1040187392	62	4322
2026-01-22 06:09:37.26	325.80	13.22	-45.7	-47.0	20.2	0.00e+00	0	41	0	1042284544	62	4337
2026-01-22 06:09:38.27	325.66	13.15	-45.7	-47.0	20.2	0.00e+00	0	41	0	1044381696	62	4339
2026-01-22 06:09:39.28	325.53	13.08	-45.8	-47.2	20.1	0.00e+00	0	40	0	1046478848	62	4409
2026-01-22 06:09:40.29	325.39	13.00	-45.7	-47.0	20.3	0.00e+00	0	41	0	1048576000	62	4309
2026-01-22 06:09:41.30	325.26	12.93	-45.8	-47.2	20.1	0.00e+00	0	40	0	1050673152	62	4425
2026-01-22 06:09:42.30	325.13	12.86	-45.8	-47.1	20.2	0.00e+00	0	41	0	1051721728	62	4377
2026-01-22 06:09:43.31	325.00	12.78	-45.7	-47.1	20.2	0.00e+00	0	41	0	1053818880	62	4343
2026-01-22 06:09:44.32	324.86	12.71	-45.8	-47.1	20.1	0.00e+00	0	41	0	1055916032	62	4378
2026-01-22 06:09:45.33	324.73	12.64	-45.9	-47.2	20.0	0.00e+00	0	40	0	1058013184	62	4439
2026-01-22 06:09:46.34	324.60	12.56	-45.8	-47.2	20.1	0.00e+00	0	41	0	1060110336	62	4416
2026-01-22 06:09:47.35	324.47	12.49	-45.9	-47.3	20.0	0.00e+00	0	41	0	1061158912	62	4443
2026-01-22 06:09:48.35	324.35	12.42	-45.9	-47.3	20.0	0.00e+00	0	41	0	1063256064	62	4478
2026-01-22 06:09:49.36	324.22	12.35	-46.1	-47.5	19.8	0.00e+00	0	41	0	1065353216	62	4566
2026-01-22 06:09:50.37	324.09	12.27	-46.0	-47.4	19.8	0.00e+00	0	40	0	1067450368	62	4511
2026-01-22 06:09:51.38	323.97	12.20	-46.0	-47.4	19.8	0.00e+00	0	41	0	1068498944	62	4526
2026-01-22 06:09:52.39	323.84	12.13	-46.1	-47.5	19.8	0.00e+00	0	40	0	1070596096	62	4562
2026-01-22 06:09:53.39	323.71	12.06	-46.1	-47.5	19.7	0.00e+00	0	41	0	1072693248	62	4597
2026-01-22 06:09:54.40	323.59	11.98	-46.2	-47.6	19.6	0.00e+00	0	40	0	1074790400	63	4382
2026-01-22 06:09:55.41	323.47	11.91	-46.1	-47.6	19.7	0.00e+00	0	41	0	1076887552	63	4351
2026-01-22 06:09:56.42	323.34	11.84	-46.4	-47.8	19.4	0.00e+00	0	41	0	1078984704	63	4489
2026-01-22 06:09:57.42	323.22	11.77	-46.2	-47.7	19.6	0.00e+00	0	41	0	1080033280	63	4401
2026-01-22 06:09:58.43	323.10	11.69	-46.2	-47.7	19.6	0.00e+00	0	41	0	1082130432	63	4405
2026-01-22 06:09:59.44	322.98	11.62	-46.3	-47.7	19.5	0.00e+00	0	41	0	1084227584	63	4427
2026-01-22 06:10:00.45	322.85	11.55	-46.2	-47.7	19.6	0.00e+00	0	41	0	1086324736	63	4407
2026-01-22 06:10:01.46	322.73	11.48	-46.3	-47.8	19.5	0.00e+00	0	41	0	1088421888	63	4452
2026-01-22 06:10:02.47	322.61	11.41	-46.3	-47.7	19.5	0.00e+00	0	41	0	1089470464	63	4433
2026-01-22 06:10:03.48	322.49	11.34	-46.2	-47.6	19.6	0.00e+00	0	41	0	1091567616	63	4382
2026-01-22 06:10:04.49	322.38	11.26	-46.2	-47.6	19.6	0.00e+00	0	41	0	1093664768	63	4386
2026-01-22 06:10:05.49	322.26	11.19	-46.2	-47.6	19.6	0.00e+00	0	41	0	1095761920	63	4373
2026-01-22 06:10:06.50	322.14	11.12	-46.2	-47.7	19.5	0.00e+00	0	41	0	1097859072	63	4421
2026-01-22 06:10:07.51	322.02	11.05	-46.3	-47.8	19.4	0.00e+00	0	41	0	1098907648	63	4474
2026-01-22 06:10:08.52	321.91	10.98	-46.3	-47.8	19.4	0.00e+00	0	41	0	1101004800	63	4457
2026-01-22 06:10:09.53	321.79	10.91	-46.3	-47.8	19.4	0.00e+00	0	41	0	1103101952	63	4464
2026-01-22 06:10:10.54	321.68	10.84	-46.4	-47.9	19.3	0.00e+00	0	41	0	1105199104	63	4533
2026-01-22 06:10:11.54	321.56	10.77	-46.6	-48.2	19.0	0.00e+00	0	41	0	1107296256	63	4653
2026-01-22 06:10:12.55	321.45	10.70	-46.4	-48.0	19.2	0.00e+00	0	41	0	1108344832	63	4554
2026-01-22 06:10:13.56	321.34	10.62	-46.6	-48.2	19.0	0.00e+00	0	41	0	1110441984	63	4657
2026-01-22 06:10:14.57	321.22	10.55	-46.5	-48.0	19.2	0.00e+00	0	41	0	1112539136	63	4572
2026-01-22 06:10:15.58	321.11	10.48	-46.7	-48.3	18.8	0.00e+00	0	41	0	1114636288	64	4473
2026-01-22 06:10:16.59	321.00	10.41	-46.6	-48.3	18.8	0.00e+00	0	41	0	1116733440	64	4447
2026-01-22 06:10:17.59	320.89	10.34	-46.7	-48.4	18.7	0.00e+00	0	41	0	1118830592	64	4519
2026-01-22 06:10:18.60	320.78	10.27	-46.6	-48.3	18.8	0.00e+00	0	41	0	1119879168	64	4450
2026-01-22 06:10:19.61	320.67	10.20	-46.8	-48.5	18.6	0.00e+00	0	41	0	1121976320	64	4568
2026-01-22 06:10:20.62	320.56	10.13	-46.7	-48.3	18.7	0.00e+00	0	41	0	1124073472	64	4489
2026-01-22 06:10:21.63	320.45	10.06	-46.8	-48.4	18.6	0.00e+00	0	41	0	1126170624	64	4542
2026-01-22 06:10:22.63	320.34	9.99	-46.8	-48.4	18.6	0.00e+00	0	41	0	1127219200	64	4525
2026-01-22 06:10:23.64	320.23	9.92	-46.8	-48.4	18.7	0.00e+00	0	41	0	1129316352	64	4521
2026-01-22 06:10:24.65	320.13	9.85	-46.9	-48.6	18.4	0.00e+00	0	41	0	1131413504	64	4636
2026-01-22 06:10:25.66	320.02	9.78	-47.0	-48.8	18.3	0.00e+00	0	41	0	1133510656	64	4715
2026-01-22 06:10:26.67	319.91	9.71	-47.0	-48.7	18.3	0.00e+00	0	41	0	1135607808	64	4700
2026-01-22 06:10:27.67	319.81	9.64	-47.1	-48.9	18.2	0.00e+00	0	41	0	1136656384	64	4782
2026-01-22 06:10:28.68	319.70	9.58	-47.1	-48.8	18.2	0.00e+00	0	41	0	1138753536	64	4734
2026-01-22 06:10:29.69	319.60	9.51	-47.3	-49.1	17.9	0.00e+00	0	41	0	1140850688	65	4624
2026-01-22 06:10:30.70	319.49	9.44	-47.2	-49.0	18.0	0.00e+00	0	41	0	1142947840	65	4582
2026-01-22 06:10:31.71	319.39	9.37	-47.3	-49.1	17.9	0.00e+00	0	41	0	1145044992	65	4635
2026-01-22 06:10:32.71	319.29	9.30	-47.3	-49.1	17.9	0.00e+00	0	41	0	1147142144	65	4623
2026-01-22 06:10:33.72	319.18	9.23	-47.5	-49.4	17.6	0.00e+00	0	41	0	1148190720	65	4800
2026-01-22 06:10:34.73	319.08	9.16	-47.1	-48.9	18.1	0.00e+00	0	41	0	1150287872	65	4535
2026-01-22 06:10:35.74	318.98	9.09	-47.1	-48.9	18.1	0.00e+00	0	41	0	1152385024	65	4510
2026-01-22 06:10:36.75	318.88	9.02	-47.1	-48.8	18.2	0.00e+00	0	41	0	1154482176	65	4480
2026-01-22 06:10:37.76	318.78	8.96	-47.1	-48.8	18.2	0.00e+00	0	41	0	1155530752	65	4490
2026-01-22 06:10:38.76	318.68	8.89	-47.1	-48.9	18.1	0.00e+00	0	41	0	1157627904	65	4513
2026-01-22 06:10:39.77	318.58	8.82	-47.1	-48.8	18.1	0.00e+00	0	41	0	1159725056	65	4483
2026-01-22 06:10:40.78	318.48	8.75	-47.0	-48.7	18.3	0.00e+00	0	41	0	1161822208	65	4415
2026-01-22 06:10:41.79	318.38	8.68	-47.0	-48.7	18.2	0.00e+00	0	41	0	1163919360	65	4427
2026-01-22 06:10:42.80	318.28	8.62	-47.0	-48.8	18.2	0.00e+00	0	41	0	1166016512	65	4458
2026-01-22 06:10:43.81	318.18	8.55	-47.1	-48.9	18.1	0.00e+00	0	41	0	1167065088	65	4528
2026-01-22 06:10:44.81	318.09	8.48	-47.0	-48.7	18.3	0.00e+00	0	41	0	1169162240	65	4416
2026-01-22 06:10:45.82	317.99	8.41	-47.2	-49.0	18.0	0.00e+00	0	41	0	1171259392	65	4562
2026-01-22 06:10:46.83	317.89	8.35	-47.2	-49.0	17.9	0.00e+00	0	41	0	1173356544	65	4578
2026-01-22 06:10:47.84	317.80	8.28	-47.2	-49.0	18.0	0.00e+00	0	41	0	1175453696	65	4557
2026-01-22 06:10:48.85	317.70	8.21	-47.4	-49.2	17.7	0.00e+00	0	41	0	1176502272	65	4691
2026-01-22 06:10:49.85	317.61	8.14	-47.5	-49.3	17.6	0.00e+00	0	41	0	1178599424	65	4758
2026-01-22 06:10:50.86	317.51	8.08	-47.5	-49.4	17.5	0.00e+00	0	41	0	1180696576	65	4790
2026-01-22 06:10:51.87	317.42	8.01	-47.3	-49.1	17.8	0.00e+00	0	41	0	1182793728	65	4635
2026-01-22 06:10:52.88	317.32	7.94	-47.4	-49.3	17.7	0.00e+00	0	41	0	1183842304	65	4708
2026-01-22 06:10:53.89	317.23	7.88	-47.2	-49.1	17.9	0.00e+00	0	41	0	1185939456	65	4603
2026-01-22 06:10:54.89	317.14	7.81	-47.4	-49.2	17.6	0.00e+00	0	41	0	1188036608	65	4699
2026-01-22 06:10:55.90	317.04	7.74	-47.4	-49.3	17.6	0.00e+00	0	41	0	1190133760	65	4714
2026-01-22 06:10:56.91	316.95	7.68	-47.5	-49.4	17.5	0.00e+00	0	41	0	1192230912	65	4788
2026-01-22 06:10:57.91	316.86	7.61	-47.3	-49.1	17.7	0.00e+00	0	41	0	1194328064	65	4649
2026-01-22 06:10:58.93	316.77	7.54	-47.4	-49.3	17.5	0.00e+00	0	41	0	1195376640	65	4749
2026-01-22 06:10:59.93	316.68	7.48	-47.4	-49.3	17.6	0.00e+00	0	41	0	1197473792	65	4738
2026-01-22 06:11:00.94	316.59	7.41	-47.6	-49.6	17.2	0.00e+00	0	41	0	1199570944	65	4914
2026-01-22 06:11:01.95	316.50	7.35	-47.7	-49.7	17.2	0.00e+00	0	41	0	1201668096	65	4935
2026-01-22 06:11:02.96	316.41	7.28	-47.5	-49.4	17.4	0.00e+00	0	41	0	1203765248	66	4529
2026-01-22 06:11:03.96	316.32	7.21	-47.9	-50.0	16.8	0.00e+00	0	41	0	1204813824	66	4866
2026-01-22 06:11:04.97	316.23	7.15	-47.8	-49.9	17.0	0.00e+00	0	41	0	1206910976	66	4762
2026-01-22 06:11:05.98	316.14	7.08	-48.0	-50.2	16.5	0.00e+00	0	41	0	1209008128	66	4963
2026-01-22 06:11:06.99	316.06	7.02	-47.8	-49.9	16.9	0.00e+00	0	41	0	1211105280	66	4812
2026-01-22 06:11:08.00	315.97	6.95	-47.8	-49.9	16.9	0.00e+00	0	41	0	1213202432	66	4795
2026-01-22 06:11:09.00	315.88	6.89	-48.0	-50.2	16.6	0.00e+00	0	41	0	1214251008	66	4957
2026-01-22 06:11:10.01	315.80	6.82	-48.0	-50.3	16.5	0.00e+00	0	41	0	1216348160	66	4990
2026-01-22 06:11:11.02	315.71	6.76	-47.9	-50.1	16.7	0.00e+00	0	41	0	1218445312	66	4908
2026-01-22 06:11:12.03	315.62	6.69	-48.0	-50.3	16.6	0.00e+00	0	41	0	1220542464	66	4988
2026-01-22 06:11:13.04	315.54	6.63	-48.1	-50.4	16.4	0.00e+00	0	41	0	1222639616	67	4769
2026-01-22 06:11:14.05	315.45	6.56	-48.2	-50.5	16.3	0.00e+00	0	41	0	1223688192	67	4832
2026-01-22 06:11:15.05	315.37	6.50	-48.2	-50.5	16.2	0.00e+00	0	41	0	1225785344	67	4870
2026-01-22 06:11:16.06	315.28	6.43	-48.2	-50.6	16.2	0.00e+00	0	41	0	1227882496	67	4882
2026-01-22 06:11:17.07	315.20	6.37	-48.3	-50.6	16.1	0.00e+00	0	41	0	1229979648	67	4917
2026-01-22 06:11:18.08	315.12	6.30	-48.1	-50.4	16.4	0.00e+00	0	41	0	1232076800	67	4769
