passes_logs/2026/01/22/R3.2S_Murmansk/R3.2S_Murmansk__20260122_004016_SUOMI_NPP_rec.log

#Pass ID: 20260122_004016_SUOMI NPP
#Satellite: SUOMI NPP
#Configuration: NPP
#almurnet v.1.7.20251203
#Start time: 2026-01-22 00:40:17

#Version: 2.2.20231116
#Station: R3.2S_Murmansk
#Location: 33.079688 lon 68.888172 lat
#TLE: 1 37849U 11061A   26021.51818991  .00000201  00000+0  11636-3 0  9995
#TLE: 2 37849  98.7819 323.5108 0002300  52.3548 307.7836 14.19527793737637

#Time	Az	El	Level	Level2	SNR	BER	BlckErr	Temp	State	Recorded	gain1	gain2
2026-01-22 00:40:17.11	24.21	2.07	-54.2	-69.2	3.8	1.49e+00	0	39	0	0	79	20911
2026-01-22 00:40:18.11	24.22	2.13	-54.4	-69.4	3.8	1.49e+00	0	39	104	0	79	21434
2026-01-22 00:40:19.12	24.22	2.20	-54.4	-69.4	3.8	1.49e+00	0	39	104	0	79	21317
2026-01-22 00:40:20.13	24.23	2.26	-54.4	-69.4	3.8	1.49e+00	0	39	104	0	79	21317
2026-01-22 00:40:21.13	24.24	2.33	-54.3	-69.3	3.8	1.49e+00	0	39	104	0	79	21259
2026-01-22 00:40:22.14	24.24	2.39	-54.3	-69.3	3.8	1.49e+00	0	39	104	0	79	21206
2026-01-22 00:40:23.15	24.25	2.46	-54.2	-69.3	3.8	1.49e+00	0	39	104	0	79	21077
2026-01-22 00:40:24.16	24.26	2.52	-54.3	-69.3	3.8	1.49e+00	0	39	104	0	79	21064
2026-01-22 00:40:25.17	24.26	2.59	-54.2	-69.3	3.8	1.49e+00	0	39	104	0	79	21024
2026-01-22 00:40:26.18	24.27	2.65	-54.2	-69.2	3.8	1.49e+00	0	39	104	0	79	20873
2026-01-22 00:40:27.19	24.28	2.72	-54.1	-69.1	3.8	1.49e+00	0	39	104	0	79	20774
2026-01-22 00:40:28.20	24.28	2.79	-54.1	-69.1	3.8	1.49e+00	0	39	104	0	79	20667
2026-01-22 00:40:29.21	24.29	2.85	-54.0	-69.0	3.8	1.49e+00	0	39	104	0	79	20479
2026-01-22 00:40:30.22	24.30	2.92	-53.9	-68.9	3.8	1.49e+00	0	39	104	0	79	20296
2026-01-22 00:40:31.23	24.30	2.99	-53.8	-68.9	3.8	1.49e+00	0	39	104	0	79	20078
2026-01-22 00:40:32.24	24.31	3.05	-53.7	-68.7	3.8	1.49e+00	0	39	104	0	79	19825
2026-01-22 00:40:33.25	24.32	3.12	-53.6	-68.6	3.8	1.49e+00	0	39	104	0	79	19579
2026-01-22 00:40:34.25	24.32	3.19	-53.4	-68.4	3.8	1.49e+00	0	39	104	0	78	20288
2026-01-22 00:40:35.26	24.33	3.25	-53.2	-68.2	3.8	1.49e+00	0	39	104	0	78	19715
2026-01-22 00:40:36.28	24.33	3.32	-52.9	-67.9	3.8	1.49e+00	0	39	104	0	77	20142
2026-01-22 00:40:37.28	24.34	3.39	-52.4	-67.1	3.8	1.49e+00	0	39	104	0	76	19530
2026-01-22 00:40:38.29	24.35	3.46	-51.5	-58.8	7.2	8.03e-01	0	39	0	0	74	8397
2026-01-22 00:40:39.30	24.35	3.52	-51.1	-57.5	8.4	5.50e-02	0	39	0	2097152	74	7260
2026-01-22 00:40:40.31	24.36	3.59	-50.5	-55.5	10.6	1.52e-02	0	39	0	4194304	72	6428
2026-01-22 00:40:41.32	24.37	3.66	-50.5	-55.4	10.6	5.54e-03	0	39	0	6291456	72	6387
2026-01-22 00:40:42.33	24.37	3.73	-50.1	-54.5	11.5	6.49e-04	0	39	0	7340032	72	5775
2026-01-22 00:40:43.33	24.38	3.80	-49.8	-53.7	12.5	1.46e-04	0	39	0	9437184	71	5563
2026-01-22 00:40:44.34	24.39	3.86	-49.4	-53.0	13.2	1.62e-04	0	39	0	11534336	70	5404
2026-01-22 00:40:45.35	24.39	3.93	-49.2	-52.4	13.8	1.37e-05	0	39	0	13631488	70	5074
2026-01-22 00:40:46.36	24.40	4.00	-48.9	-51.9	14.3	4.50e-06	0	39	0	15728640	69	5048
2026-01-22 00:40:47.37	24.41	4.07	-49.0	-52.1	14.1	2.20e-06	0	39	0	16777216	69	5198
2026-01-22 00:40:48.38	24.41	4.14	-48.9	-51.9	14.4	0.00e+00	0	39	0	18874368	69	5050
2026-01-22 00:40:49.39	24.42	4.21	-49.0	-52.2	14.0	2.20e-06	0	39	0	20971520	69	5253
2026-01-22 00:40:50.40	24.43	4.28	-49.1	-52.3	13.9	0.00e+00	0	39	0	23068672	69	5290
2026-01-22 00:40:51.41	24.43	4.35	-49.2	-52.5	13.6	2.20e-06	0	40	0	25165824	69	5454
2026-01-22 00:40:52.42	24.44	4.42	-49.5	-53.0	13.1	2.28e-05	0	39	0	27262976	69	5788
2026-01-22 00:40:53.42	24.45	4.49	-49.7	-53.5	12.7	9.46e-05	0	40	0	28311552	70	5762
2026-01-22 00:40:54.43	24.45	4.56	-50.4	-55.0	11.1	1.08e-03	0	40	0	30408704	71	6480
2026-01-22 00:40:55.44	24.46	4.63	-50.6	-55.8	10.3	4.78e-03	0	40	0	32505856	71	7096
2026-01-22 00:40:56.45	24.47	4.70	-50.9	-56.8	9.1	7.80e-03	0	39	0	34603008	72	7528
2026-01-22 00:40:57.45	24.47	4.77	-51.4	-58.8	7.2	4.47e-02	0	39	0	35651584	73	8904
2026-01-22 00:40:58.46	24.48	4.84	-51.7	-60.2	6.0	2.83e-01	0	40	0	37748736	73	10468
2026-01-22 00:40:59.47	24.49	4.92	-51.9	-62.1	4.8	6.04e-01	0	40	0	39845888	74	12330
2026-01-22 00:41:00.48	24.49	4.99	-52.1	-64.0	4.1	1.07e+00	0	40	0	40894464	74	15305
2026-01-22 00:41:01.49	24.50	5.06	-52.1	-64.5	3.9	1.49e+00	0	40	104	40894464	74	16268
2026-01-22 00:41:02.49	24.51	5.13	-52.1	-64.6	4.0	1.40e+00	0	40	0	40894464	74	16412
2026-01-22 00:41:03.50	24.51	5.20	-52.2	-65.4	3.8	1.49e+00	0	40	104	40894464	74	18023
2026-01-22 00:41:04.51	24.52	5.28	-51.5	-58.3	7.1	1.29e+00	0	40	104	40894464	75	7509
2026-01-22 00:41:05.52	24.53	5.35	-52.3	-65.7	3.9	1.60e-03	48	40	0	41943040	75	17629
2026-01-22 00:41:06.53	24.54	5.42	-52.2	-64.4	3.9	1.49e+00	0	40	104	41943040	75	15096
2026-01-22 00:41:07.53	24.54	5.49	-49.7	-53.3	13.0	3.43e-05	0	40	0	41943040	71	5325
2026-01-22 00:41:08.54	24.55	5.57	-49.6	-53.1	13.3	2.44e-05	0	40	0	44040192	71	5167
2026-01-22 00:41:09.55	24.56	5.64	-49.0	-51.9	14.5	3.00e-06	0	40	0	46137344	70	4797
2026-01-22 00:41:10.56	24.56	5.71	-49.2	-52.3	14.2	0.00e+00	0	40	0	47185920	70	4999
2026-01-22 00:41:11.57	24.57	5.79	-48.9	-51.7	14.7	0.00e+00	0	40	0	49283072	69	4952
2026-01-22 00:41:12.57	24.58	5.86	-48.7	-51.5	15.0	0.00e+00	0	40	0	51380224	69	4833
2026-01-22 00:41:13.58	24.58	5.94	-48.7	-51.5	15.0	0.00e+00	0	40	0	53477376	69	4848
2026-01-22 00:41:14.59	24.59	6.01	-48.8	-51.6	14.9	7.00e-07	0	40	0	55574528	69	4891
2026-01-22 00:41:15.59	24.60	6.08	-48.8	-51.7	14.8	0.00e+00	0	40	0	56623104	69	4934
2026-01-22 00:41:16.60	24.60	6.16	-48.7	-51.5	15.0	0.00e+00	0	40	0	58720256	69	4837
2026-01-22 00:41:17.61	24.61	6.23	-48.5	-51.1	15.4	0.00e+00	0	40	0	60817408	69	4638
2026-01-22 00:41:18.62	24.62	6.31	-48.6	-51.1	15.4	0.00e+00	0	40	0	62914560	69	4648
2026-01-22 00:41:19.63	24.62	6.39	-48.5	-51.0	15.5	0.00e+00	0	40	0	65011712	68	4857
2026-01-22 00:41:20.64	24.63	6.46	-48.5	-51.1	15.5	0.00e+00	0	40	0	67108864	68	4898
2026-01-22 00:41:21.64	24.64	6.54	-48.3	-50.7	15.9	0.00e+00	0	40	0	68157440	68	4674
2026-01-22 00:41:22.65	24.65	6.61	-48.2	-50.6	15.9	0.00e+00	0	40	0	70254592	68	4647
2026-01-22 00:41:23.66	24.65	6.69	-48.3	-50.8	15.8	0.00e+00	0	40	0	72351744	68	4731
2026-01-22 00:41:24.67	24.66	6.77	-48.5	-51.0	15.6	0.00e+00	0	40	0	74448896	68	4865
2026-01-22 00:41:25.68	24.67	6.84	-48.2	-50.6	16.0	0.00e+00	0	40	0	75497472	68	4634
2026-01-22 00:41:26.68	24.67	6.92	-48.2	-50.5	16.1	0.00e+00	0	40	0	77594624	68	4564
2026-01-22 00:41:27.69	24.68	7.00	-48.3	-50.6	16.0	0.00e+00	0	40	0	79691776	68	4651
2026-01-22 00:41:28.70	24.69	7.07	-48.2	-50.6	16.0	0.00e+00	0	40	0	81788928	68	4634
2026-01-22 00:41:29.71	24.70	7.15	-48.3	-50.7	15.9	0.00e+00	0	40	0	83886080	68	4701
2026-01-22 00:41:30.71	24.70	7.23	-48.1	-50.4	16.3	0.00e+00	0	40	0	85983232	68	4525
2026-01-22 00:41:31.72	24.71	7.31	-48.1	-50.5	16.2	0.00e+00	0	40	0	87031808	68	4548
2026-01-22 00:41:32.73	24.72	7.39	-48.2	-50.6	16.1	0.00e+00	0	40	0	89128960	68	4601
2026-01-22 00:41:33.74	24.72	7.47	-48.1	-50.3	16.3	0.00e+00	0	40	0	91226112	68	4479
2026-01-22 00:41:34.74	24.73	7.54	-47.9	-50.1	16.5	0.00e+00	0	40	0	93323264	67	4629
2026-01-22 00:41:35.75	24.74	7.62	-48.1	-50.4	16.2	0.00e+00	0	40	0	95420416	67	4803
2026-01-22 00:41:36.76	24.75	7.70	-48.0	-50.2	16.4	0.00e+00	0	40	0	96468992	67	4681
2026-01-22 00:41:37.77	24.75	7.78	-48.0	-50.2	16.4	0.00e+00	0	40	0	98566144	67	4700
2026-01-22 00:41:38.78	24.76	7.86	-47.8	-49.9	16.7	0.00e+00	0	40	0	100663296	67	4517
2026-01-22 00:41:39.79	24.77	7.94	-47.9	-50.1	16.6	0.00e+00	0	40	0	102760448	67	4614
2026-01-22 00:41:40.80	24.77	8.02	-47.9	-50.1	16.6	0.00e+00	0	40	0	103809024	67	4632
2026-01-22 00:41:41.80	24.78	8.10	-48.0	-50.2	16.4	0.00e+00	0	40	0	105906176	67	4700
2026-01-22 00:41:42.81	24.79	8.18	-47.9	-50.1	16.5	0.00e+00	0	40	0	108003328	67	4626
2026-01-22 00:41:43.82	24.80	8.27	-47.9	-50.0	16.6	0.00e+00	0	40	0	110100480	67	4589
2026-01-22 00:41:44.83	24.80	8.35	-47.8	-49.9	16.7	0.00e+00	0	40	0	112197632	67	4544
2026-01-22 00:41:45.84	24.81	8.43	-47.9	-50.1	16.6	0.00e+00	0	40	0	114294784	67	4625
2026-01-22 00:41:46.85	24.82	8.51	-47.7	-49.8	16.8	0.00e+00	0	40	0	115343360	67	4476
2026-01-22 00:41:47.85	24.83	8.59	-47.6	-49.7	17.0	0.00e+00	0	40	0	117440512	67	4394
2026-01-22 00:41:48.86	24.83	8.68	-47.7	-49.8	16.9	0.00e+00	0	40	0	119537664	67	4492
2026-01-22 00:41:49.87	24.84	8.76	-47.7	-49.8	16.9	0.00e+00	0	40	0	121634816	67	4444
2026-01-22 00:41:50.88	24.85	8.84	-47.7	-49.8	16.9	0.00e+00	0	40	0	123731968	67	4482
2026-01-22 00:41:51.89	24.86	8.93	-47.6	-49.7	17.0	0.00e+00	0	40	0	124780544	67	4424
2026-01-22 00:41:52.90	24.86	9.01	-47.6	-49.6	17.1	0.00e+00	0	40	0	126877696	67	4391
2026-01-22 00:41:53.90	24.87	9.09	-47.6	-49.7	17.0	0.00e+00	0	40	0	128974848	67	4410
2026-01-22 00:41:54.91	24.88	9.18	-47.5	-49.5	17.2	0.00e+00	0	40	0	131072000	66	4596
2026-01-22 00:41:55.92	24.89	9.26	-47.5	-49.5	17.2	0.00e+00	0	40	0	133169152	66	4575
2026-01-22 00:41:56.93	24.89	9.35	-47.2	-49.1	17.6	0.00e+00	0	40	0	134217728	66	4385
2026-01-22 00:41:57.94	24.90	9.43	-47.4	-49.4	17.3	0.00e+00	0	40	0	136314880	66	4525
2026-01-22 00:41:58.95	24.91	9.52	-47.2	-49.1	17.7	0.00e+00	0	40	0	138412032	66	4365
2026-01-22 00:41:59.96	24.92	9.60	-47.1	-49.0	17.7	0.00e+00	0	40	0	140509184	66	4299
2026-01-22 00:42:00.97	24.92	9.69	-47.2	-49.0	17.7	0.00e+00	0	40	0	142606336	66	4334
2026-01-22 00:42:01.98	24.93	9.78	-47.2	-49.0	17.7	0.00e+00	0	40	0	143654912	66	4338
2026-01-22 00:42:02.98	24.94	9.86	-47.1	-48.9	17.8	0.00e+00	0	40	0	145752064	66	4283
2026-01-22 00:42:03.99	24.95	9.95	-47.0	-48.9	17.9	0.00e+00	0	40	0	147849216	66	4256
2026-01-22 00:42:05.00	24.95	10.04	-47.0	-48.9	17.9	0.00e+00	0	40	0	149946368	65	4499
2026-01-22 00:42:06.01	24.96	10.12	-46.9	-48.7	18.0	0.00e+00	0	40	0	152043520	65	4406
2026-01-22 00:42:07.01	24.97	10.21	-46.9	-48.7	18.0	0.00e+00	0	40	0	154140672	65	4420
2026-01-22 00:42:08.02	24.98	10.30	-47.0	-48.8	18.0	0.00e+00	0	40	0	155189248	65	4455
2026-01-22 00:42:09.03	24.99	10.39	-46.8	-48.6	18.2	0.00e+00	0	40	0	157286400	65	4353
2026-01-22 00:42:10.04	24.99	10.48	-46.9	-48.6	18.1	0.00e+00	0	40	0	159383552	65	4389
2026-01-22 00:42:11.05	25.00	10.57	-46.7	-48.4	18.4	0.00e+00	0	40	0	161480704	65	4266
2026-01-22 00:42:12.06	25.01	10.66	-46.7	-48.4	18.4	0.00e+00	0	40	0	162529280	65	4264
2026-01-22 00:42:13.06	25.02	10.74	-46.5	-48.2	18.5	0.00e+00	0	40	0	164626432	65	4169
2026-01-22 00:42:14.07	25.02	10.83	-46.7	-48.4	18.4	0.00e+00	0	40	0	166723584	65	4263
2026-01-22 00:42:15.08	25.03	10.93	-46.6	-48.3	18.4	0.00e+00	0	40	0	168820736	65	4215
2026-01-22 00:42:16.09	25.04	11.02	-46.5	-48.2	18.6	0.00e+00	0	40	0	170917888	64	4403
2026-01-22 00:42:17.10	25.05	11.11	-46.4	-48.0	18.7	0.00e+00	0	40	0	171966464	64	4320
2026-01-22 00:42:18.10	25.06	11.20	-46.4	-48.1	18.7	0.00e+00	0	40	0	174063616	64	4345
2026-01-22 00:42:19.11	25.06	11.29	-46.4	-48.0	18.8	0.00e+00	0	40	0	176160768	64	4306
2026-01-22 00:42:20.12	25.07	11.38	-46.5	-48.1	18.7	0.00e+00	0	40	0	178257920	64	4365
2026-01-22 00:42:21.13	25.08	11.47	-46.3	-47.9	18.8	0.00e+00	0	40	0	180355072	64	4273
2026-01-22 00:42:22.13	25.09	11.57	-46.4	-48.0	18.7	0.00e+00	0	40	0	182452224	64	4337
2026-01-22 00:42:23.14	25.10	11.66	-46.4	-47.9	18.9	0.00e+00	0	40	0	183500800	64	4289
2026-01-22 00:42:24.15	25.10	11.75	-46.3	-47.9	18.8	0.00e+00	0	40	0	185597952	64	4287
2026-01-22 00:42:25.16	25.11	11.85	-46.2	-47.8	19.0	0.00e+00	0	40	0	187695104	64	4208
2026-01-22 00:42:26.17	25.12	11.94	-46.0	-47.5	19.3	0.00e+00	0	40	0	189792256	64	4058
2026-01-22 00:42:27.17	25.13	12.04	-46.1	-47.6	19.3	0.00e+00	0	40	0	190840832	63	4375
2026-01-22 00:42:28.18	25.14	12.13	-46.2	-47.7	19.2	0.00e+00	0	40	0	192937984	63	4404
2026-01-22 00:42:29.19	25.15	12.23	-46.0	-47.5	19.4	0.00e+00	0	40	0	195035136	63	4307
2026-01-22 00:42:30.20	25.15	12.32	-46.1	-47.6	19.3	0.00e+00	0	40	0	197132288	63	4368
2026-01-22 00:42:31.21	25.16	12.42	-46.1	-47.6	19.3	0.00e+00	0	40	0	199229440	63	4388
2026-01-22 00:42:32.21	25.17	12.51	-46.1	-47.6	19.3	0.00e+00	0	40	0	201326592	63	4378
2026-01-22 00:42:33.22	25.18	12.61	-45.8	-47.2	19.6	0.00e+00	0	40	0	202375168	63	4170
2026-01-22 00:42:34.23	25.19	12.71	-45.7	-47.1	19.7	0.00e+00	0	40	0	204472320	63	4133
2026-01-22 00:42:35.24	25.20	12.81	-45.9	-47.4	19.6	0.00e+00	0	40	0	206569472	63	4243
2026-01-22 00:42:36.25	25.20	12.90	-45.8	-47.2	19.7	0.00e+00	0	40	0	208666624	63	4179
2026-01-22 00:42:37.25	25.21	13.00	-45.8	-47.2	19.7	0.00e+00	0	40	0	210763776	63	4149
2026-01-22 00:42:38.26	25.22	13.10	-45.6	-47.0	19.9	0.00e+00	0	40	0	211812352	63	4074
2026-01-22 00:42:39.27	25.23	13.20	-45.5	-46.9	20.0	0.00e+00	0	40	0	213909504	63	4012
2026-01-22 00:42:40.28	25.24	13.30	-45.5	-46.8	20.1	0.00e+00	0	40	0	216006656	62	4231
2026-01-22 00:42:41.29	25.25	13.40	-45.4	-46.7	20.2	0.00e+00	0	40	0	218103808	62	4154
2026-01-22 00:42:42.29	25.25	13.50	-45.3	-46.6	20.2	0.00e+00	0	40	0	219152384	62	4128
2026-01-22 00:42:43.30	25.26	13.60	-45.4	-46.7	20.2	0.00e+00	0	40	0	221249536	62	4173
2026-01-22 00:42:44.31	25.27	13.70	-45.3	-46.7	20.2	0.00e+00	0	40	0	223346688	62	4159
2026-01-22 00:42:45.32	25.28	13.80	-45.2	-46.6	20.3	0.00e+00	0	40	0	225443840	62	4100
2026-01-22 00:42:46.32	25.29	13.91	-45.2	-46.5	20.4	0.00e+00	0	40	0	227540992	62	4062
2026-01-22 00:42:47.33	25.30	14.01	-45.2	-46.6	20.3	0.00e+00	0	40	0	229638144	62	4099
2026-01-22 00:42:48.34	25.31	14.11	-45.2	-46.5	20.4	0.00e+00	0	40	0	230686720	62	4055
2026-01-22 00:42:49.35	25.32	14.22	-45.2	-46.4	20.4	0.00e+00	0	40	0	232783872	62	4049
2026-01-22 00:42:50.36	25.32	14.32	-45.2	-46.5	20.4	0.00e+00	0	40	0	234881024	62	4054
2026-01-22 00:42:51.37	25.33	14.42	-45.1	-46.4	20.5	0.00e+00	0	40	0	236978176	62	4030
2026-01-22 00:42:52.38	25.34	14.53	-45.0	-46.3	20.5	0.00e+00	0	40	0	239075328	61	4222
2026-01-22 00:42:53.39	25.35	14.63	-45.1	-46.4	20.4	0.00e+00	0	40	0	240123904	61	4272
2026-01-22 00:42:54.39	25.36	14.74	-45.0	-46.2	20.6	0.00e+00	0	40	0	242221056	61	4170
2026-01-22 00:42:55.40	25.37	14.85	-45.0	-46.3	20.6	0.00e+00	0	40	0	244318208	61	4201
2026-01-22 00:42:56.41	25.38	14.95	-45.1	-46.3	20.6	0.00e+00	0	40	0	246415360	61	4225
2026-01-22 00:42:57.42	25.39	15.06	-44.9	-46.1	20.7	0.00e+00	0	40	0	248512512	61	4141
2026-01-22 00:42:58.43	25.40	15.17	-44.8	-46.0	20.8	0.00e+00	0	40	0	249561088	61	4095
2026-01-22 00:42:59.44	25.41	15.28	-44.9	-46.2	20.7	0.00e+00	0	40	0	251658240	61	4149
2026-01-22 00:43:00.45	25.41	15.38	-45.0	-46.2	20.7	0.00e+00	0	40	0	253755392	61	4185
2026-01-22 00:43:01.45	25.42	15.49	-44.9	-46.2	20.7	0.00e+00	0	40	0	255852544	61	4165
2026-01-22 00:43:02.46	25.43	15.60	-44.9	-46.1	20.8	0.00e+00	0	40	0	257949696	61	4120
2026-01-22 00:43:03.47	25.44	15.71	-44.9	-46.1	20.8	0.00e+00	0	40	0	258998272	61	4126
2026-01-22 00:43:04.48	25.45	15.82	-44.8	-46.0	20.8	0.00e+00	0	40	0	261095424	61	4076
2026-01-22 00:43:05.49	25.46	15.93	-45.0	-46.2	20.7	0.00e+00	0	40	0	263192576	61	4163
2026-01-22 00:43:06.49	25.47	16.04	-45.0	-46.2	20.7	0.00e+00	0	40	0	265289728	61	4185
2026-01-22 00:43:07.50	25.48	16.16	-44.9	-46.1	20.8	0.00e+00	0	40	0	267386880	61	4108
2026-01-22 00:43:08.51	25.49	16.27	-44.7	-45.9	21.0	0.00e+00	0	40	0	268435456	61	4021
2026-01-22 00:43:09.52	25.50	16.38	-44.8	-46.0	20.9	0.00e+00	0	40	0	270532608	61	4069
2026-01-22 00:43:10.53	25.51	16.50	-44.6	-45.8	21.1	0.00e+00	0	40	0	272629760	61	3987
2026-01-22 00:43:11.54	25.52	16.61	-44.6	-45.7	21.1	0.00e+00	0	40	0	274726912	61	3957
2026-01-22 00:43:12.54	25.53	16.72	-44.7	-45.9	21.1	0.00e+00	0	40	0	276824064	61	4016
2026-01-22 00:43:13.55	25.54	16.84	-44.6	-45.8	21.1	0.00e+00	0	40	0	277872640	61	3980
2026-01-22 00:43:14.56	25.55	16.96	-44.6	-45.7	21.1	0.00e+00	0	40	0	279969792	61	3951
2026-01-22 00:43:15.57	25.56	17.07	-44.4	-45.5	21.3	0.00e+00	0	40	0	282066944	60	4092
2026-01-22 00:43:16.57	25.57	17.19	-44.5	-45.7	21.2	0.00e+00	0	40	0	284164096	60	4152
2026-01-22 00:43:17.58	25.58	17.31	-44.4	-45.6	21.3	0.00e+00	0	40	0	286261248	60	4103
2026-01-22 00:43:18.59	25.59	17.42	-44.5	-45.6	21.2	0.00e+00	0	40	0	287309824	60	4140
2026-01-22 00:43:19.60	25.60	17.54	-44.5	-45.7	21.2	0.00e+00	0	40	0	289406976	60	4165
2026-01-22 00:43:20.61	25.61	17.66	-44.4	-45.6	21.3	0.00e+00	0	40	0	291504128	60	4104
2026-01-22 00:43:21.62	25.62	17.78	-44.5	-45.6	21.3	0.00e+00	0	40	0	293601280	60	4123
2026-01-22 00:43:22.62	25.63	17.90	-44.5	-45.6	21.3	0.00e+00	0	40	0	295698432	60	4144
2026-01-22 00:43:23.63	25.64	18.02	-44.6	-45.8	21.2	0.00e+00	0	40	0	296747008	60	4194
2026-01-22 00:43:24.64	25.65	18.14	-44.5	-45.6	21.2	0.00e+00	0	40	0	298844160	60	4134
2026-01-22 00:43:25.65	25.66	18.27	-44.6	-45.7	21.2	0.00e+00	0	40	0	300941312	60	4174
2026-01-22 00:43:26.65	25.67	18.39	-44.7	-45.9	21.0	0.00e+00	0	40	0	303038464	60	4277
2026-01-22 00:43:27.66	25.68	18.51	-44.8	-46.0	21.0	0.00e+00	0	40	0	305135616	60	4312
2026-01-22 00:43:28.67	25.69	18.64	-44.6	-45.8	21.1	0.00e+00	0	40	0	306184192	60	4202
2026-01-22 00:43:29.68	25.70	18.76	-44.8	-46.0	21.0	0.00e+00	0	40	0	308281344	60	4301
2026-01-22 00:43:30.69	25.71	18.89	-44.8	-46.0	20.9	0.00e+00	0	40	0	310378496	60	4336
2026-01-22 00:43:31.69	25.72	19.01	-44.9	-46.1	20.9	0.00e+00	0	40	0	312475648	60	4367
2026-01-22 00:43:32.70	25.73	19.14	-45.0	-46.2	20.8	0.00e+00	0	40	0	314572800	60	4424
2026-01-22 00:43:33.71	25.74	19.26	-45.1	-46.3	20.7	0.00e+00	0	40	0	316669952	60	4474
2026-01-22 00:43:34.72	25.75	19.39	-45.0	-46.2	20.8	0.00e+00	0	40	0	317718528	60	4416
2026-01-22 00:43:35.73	25.76	19.52	-45.0	-46.2	20.8	0.00e+00	0	40	0	319815680	60	4426
2026-01-22 00:43:36.73	25.77	19.65	-44.9	-46.1	20.9	0.00e+00	0	40	0	321912832	60	4350
2026-01-22 00:43:37.74	25.78	19.78	-45.0	-46.2	20.8	0.00e+00	0	40	0	324009984	60	4435
2026-01-22 00:43:38.75	25.79	19.91	-45.2	-46.4	20.6	0.00e+00	0	40	0	325058560	60	4539
2026-01-22 00:43:39.76	25.80	20.04	-45.1	-46.3	20.7	0.00e+00	0	40	0	327155712	61	4235
2026-01-22 00:43:40.77	25.81	20.17	-44.8	-46.0	21.0	0.00e+00	0	40	0	329252864	61	4085
2026-01-22 00:43:41.77	25.82	20.30	-45.0	-46.2	20.8	0.00e+00	0	40	0	331350016	61	4186
2026-01-22 00:43:42.78	25.84	20.44	-45.1	-46.3	20.7	0.00e+00	0	40	0	333447168	61	4208
2026-01-22 00:43:43.79	25.85	20.57	-45.2	-46.5	20.6	0.00e+00	0	40	0	334495744	61	4308
2026-01-22 00:43:44.80	25.86	20.71	-45.3	-46.5	20.5	0.00e+00	0	40	0	336592896	61	4330
2026-01-22 00:43:45.81	25.87	20.84	-45.3	-46.6	20.5	0.00e+00	0	40	0	338690048	61	4353
2026-01-22 00:43:46.81	25.88	20.98	-45.4	-46.6	20.5	0.00e+00	0	40	0	340787200	61	4379
2026-01-22 00:43:47.82	25.89	21.12	-45.4	-46.7	20.4	0.00e+00	0	40	0	342884352	61	4421
2026-01-22 00:43:48.83	25.90	21.25	-45.5	-46.8	20.2	0.00e+00	0	40	0	344981504	61	4489
2026-01-22 00:43:49.84	25.91	21.39	-45.7	-47.1	20.1	0.00e+00	0	40	0	346030080	62	4358
2026-01-22 00:43:50.84	25.93	21.53	-45.9	-47.2	20.0	0.00e+00	0	40	0	348127232	62	4428
2026-01-22 00:43:51.85	25.94	21.67	-46.0	-47.4	19.9	0.00e+00	0	40	0	350224384	62	4499
2026-01-22 00:43:52.86	25.95	21.81	-45.8	-47.2	20.0	0.00e+00	0	40	0	352321536	62	4430
2026-01-22 00:43:53.87	25.96	21.95	-45.9	-47.3	19.9	0.00e+00	0	40	0	353370112	62	4473
2026-01-22 00:43:54.88	25.97	22.10	-45.8	-47.2	20.0	0.00e+00	0	40	0	355467264	62	4428
2026-01-22 00:43:55.89	25.98	22.24	-45.9	-47.2	20.0	0.00e+00	0	40	0	357564416	62	4429
2026-01-22 00:43:56.89	26.00	22.38	-45.7	-47.0	20.1	0.00e+00	0	41	0	359661568	62	4334
2026-01-22 00:43:57.90	26.01	22.53	-46.1	-47.5	19.7	0.00e+00	0	40	0	361758720	62	4575
2026-01-22 00:43:58.91	26.02	22.67	-45.9	-47.2	20.0	0.00e+00	0	40	0	363855872	62	4436
2026-01-22 00:43:59.92	26.03	22.82	-45.9	-47.2	20.0	0.00e+00	0	40	0	364904448	62	4439
2026-01-22 00:44:00.93	26.05	22.97	-46.1	-47.6	19.7	0.00e+00	0	40	0	367001600	63	4351
2026-01-22 00:44:01.94	26.06	23.11	-46.0	-47.4	19.9	0.00e+00	0	40	0	369098752	63	4270
2026-01-22 00:44:02.94	26.07	23.26	-46.1	-47.5	19.7	0.00e+00	0	40	0	371195904	63	4332
2026-01-22 00:44:03.95	26.08	23.41	-46.3	-47.8	19.5	0.00e+00	0	40	0	373293056	63	4458
2026-01-22 00:44:04.96	26.10	23.56	-46.2	-47.7	19.6	0.00e+00	0	40	0	374341632	63	4401
2026-01-22 00:44:05.96	26.11	23.71	-46.3	-47.8	19.5	0.00e+00	0	40	0	376438784	63	4462
2026-01-22 00:44:06.97	26.12	23.87	-46.4	-47.9	19.4	0.00e+00	0	40	0	378535936	63	4537
2026-01-22 00:44:07.98	26.13	24.02	-46.2	-47.6	19.7	0.00e+00	0	40	0	380633088	63	4359
2026-01-22 00:44:08.99	26.15	24.17	-46.3	-47.8	19.4	0.00e+00	0	40	0	381681664	63	4464
2026-01-22 00:44:09.99	26.16	24.33	-46.3	-47.7	19.6	0.00e+00	0	40	0	383778816	63	4418
2026-01-22 00:44:11.00	26.17	24.48	-46.3	-47.7	19.5	0.00e+00	0	40	0	385875968	63	4441
2026-01-22 00:44:12.01	26.19	24.64	-46.2	-47.6	19.6	0.00e+00	0	40	0	387973120	63	4374
2026-01-22 00:44:13.02	26.20	24.80	-46.1	-47.6	19.7	0.00e+00	0	40	0	390070272	63	4342
2026-01-22 00:44:14.03	26.21	24.96	-46.2	-47.6	19.7	0.00e+00	0	40	0	392167424	63	4363
2026-01-22 00:44:15.03	26.23	25.12	-46.3	-47.7	19.5	0.00e+00	0	40	0	393216000	63	4435
2026-01-22 00:44:16.04	26.24	25.28	-46.2	-47.6	19.7	0.00e+00	0	40	0	395313152	63	4350
2026-01-22 00:44:17.05	26.25	25.44	-46.6	-48.1	19.2	0.00e+00	0	40	0	397410304	63	4620
2026-01-22 00:44:18.06	26.27	25.60	-46.7	-48.3	19.0	0.00e+00	0	40	0	399507456	64	4447
2026-01-22 00:44:19.07	26.28	25.77	-46.5	-48.0	19.3	0.00e+00	0	40	0	401604608	64	4298
2026-01-22 00:44:20.07	26.29	25.93	-46.5	-48.0	19.3	0.00e+00	0	40	0	402653184	64	4309
2026-01-22 00:44:21.08	26.31	26.10	-46.5	-48.0	19.3	0.00e+00	0	40	0	404750336	64	4292
2026-01-22 00:44:22.09	26.32	26.26	-46.6	-48.1	19.1	0.00e+00	0	41	0	406847488	64	4388
2026-01-22 00:44:23.10	26.34	26.43	-46.5	-48.0	19.2	0.00e+00	0	40	0	408944640	64	4330
2026-01-22 00:44:24.11	26.35	26.60	-46.3	-47.7	19.5	0.00e+00	0	40	0	409993216	64	4188
2026-01-22 00:44:25.11	26.36	26.77	-46.2	-47.6	19.6	0.00e+00	0	40	0	412090368	64	4134
2026-01-22 00:44:26.12	26.38	26.94	-46.1	-47.5	19.8	0.00e+00	0	40	0	414187520	64	4093
2026-01-22 00:44:27.13	26.39	27.11	-46.1	-47.4	19.8	0.00e+00	0	40	0	416284672	63	4277
2026-01-22 00:44:28.13	26.41	27.29	-46.3	-47.7	19.6	0.00e+00	0	40	0	418381824	63	4411
2026-01-22 00:44:29.14	26.42	27.46	-46.3	-47.7	19.6	0.00e+00	0	40	0	420478976	63	4437
2026-01-22 00:44:30.15	26.44	27.64	-46.5	-48.0	19.4	0.00e+00	0	40	0	421527552	63	4551
2026-01-22 00:44:31.16	26.45	27.81	-46.6	-48.1	19.3	0.00e+00	0	40	0	423624704	63	4642
2026-01-22 00:44:32.17	26.47	27.99	-46.6	-48.1	19.2	0.00e+00	0	40	0	425721856	64	4344
2026-01-22 00:44:33.17	26.48	28.17	-46.6	-48.1	19.2	0.00e+00	0	40	0	427819008	64	4369
2026-01-22 00:44:34.18	26.50	28.35	-46.7	-48.2	19.1	0.00e+00	0	40	0	429916160	64	4408
2026-01-22 00:44:35.19	26.52	28.53	-46.6	-48.1	19.2	0.00e+00	0	40	0	430964736	64	4364
2026-01-22 00:44:36.20	26.53	28.71	-46.4	-47.9	19.4	0.00e+00	0	40	0	433061888	64	4251
2026-01-22 00:44:37.21	26.55	28.90	-46.5	-48.0	19.2	0.00e+00	0	40	0	435159040	64	4329
2026-01-22 00:44:38.22	26.56	29.08	-46.2	-47.6	19.6	0.00e+00	0	40	0	437256192	64	4134
2026-01-22 00:44:39.22	26.58	29.27	-46.2	-47.6	19.7	0.00e+00	0	40	0	439353344	64	4109
2026-01-22 00:44:40.23	26.59	29.46	-46.4	-47.9	19.5	0.00e+00	0	40	0	440401920	64	4248
2026-01-22 00:44:41.24	26.61	29.65	-46.2	-47.6	19.7	0.00e+00	0	40	0	442499072	64	4109
2026-01-22 00:44:42.25	26.63	29.84	-46.5	-48.0	19.3	0.00e+00	0	40	0	444596224	64	4322
2026-01-22 00:44:43.26	26.64	30.03	-46.4	-47.9	19.4	0.00e+00	0	40	0	446693376	64	4274
2026-01-22 00:44:44.27	26.66	30.22	-46.7	-48.2	19.1	0.00e+00	0	40	0	448790528	64	4422
2026-01-22 00:44:45.27	26.68	30.41	-47.2	-48.9	18.5	0.00e+00	0	40	0	449839104	64	4810
2026-01-22 00:44:46.28	26.70	30.61	-46.8	-48.4	19.0	0.00e+00	0	40	0	451936256	65	4262
2026-01-22 00:44:47.29	26.71	30.80	-46.9	-48.5	19.0	0.00e+00	0	40	0	454033408	65	4314
2026-01-22 00:44:48.30	26.73	31.00	-47.4	-49.2	18.3	0.00e+00	0	40	0	456130560	65	4681
2026-01-22 00:44:49.31	26.75	31.20	-47.2	-48.9	18.5	0.00e+00	0	40	0	458227712	65	4534
2026-01-22 00:44:50.31	26.77	31.40	-47.1	-48.7	18.7	0.00e+00	0	40	0	460324864	65	4414
2026-01-22 00:44:51.32	26.78	31.60	-47.1	-48.7	18.7	0.00e+00	0	40	0	461373440	65	4409
2026-01-22 00:44:52.33	26.80	31.81	-47.2	-48.9	18.6	0.00e+00	0	41	0	463470592	65	4502
2026-01-22 00:44:53.34	26.82	32.01	-47.2	-48.9	18.6	0.00e+00	0	40	0	465567744	65	4501
2026-01-22 00:44:54.35	26.84	32.22	-47.5	-49.2	18.3	0.00e+00	0	40	0	467664896	65	4695
2026-01-22 00:44:55.35	26.86	32.42	-47.6	-49.3	18.2	0.00e+00	0	40	0	468713472	65	4738
2026-01-22 00:44:56.36	26.88	32.63	-47.7	-49.5	18.0	0.00e+00	0	41	0	470810624	66	4589
2026-01-22 00:44:57.37	26.90	32.84	-47.9	-49.8	17.7	0.00e+00	0	40	0	472907776	66	4730
2026-01-22 00:44:58.38	26.91	33.06	-47.4	-49.1	18.4	0.00e+00	0	40	0	475004928	66	4371
2026-01-22 00:44:59.39	26.93	33.27	-47.2	-48.9	18.6	0.00e+00	0	40	0	477102080	66	4246
2026-01-22 00:45:00.39	26.95	33.48	-47.6	-49.3	18.2	0.00e+00	0	41	0	478150656	66	4454
2026-01-22 00:45:01.40	26.97	33.70	-46.9	-48.4	19.0	0.00e+00	0	40	0	480247808	65	4249
2026-01-22 00:45:02.41	26.99	33.92	-46.9	-48.4	19.0	0.00e+00	0	40	0	482344960	65	4286
2026-01-22 00:45:03.42	27.01	34.14	-46.8	-48.3	19.1	0.00e+00	0	40	0	484442112	65	4234
2026-01-22 00:45:04.43	27.03	34.36	-46.7	-48.1	19.3	0.00e+00	0	40	0	486539264	64	4387
2026-01-22 00:45:05.43	27.06	34.58	-46.6	-48.1	19.4	0.00e+00	0	40	0	488636416	64	4347
2026-01-22 00:45:06.44	27.08	34.80	-46.4	-47.8	19.6	0.00e+00	0	40	0	489684992	64	4220
2026-01-22 00:45:07.45	27.10	35.03	-46.1	-47.4	20.1	0.00e+00	0	40	0	491782144	63	4259
2026-01-22 00:45:08.46	27.12	35.26	-45.7	-46.9	20.4	0.00e+00	0	40	0	493879296	63	4050
2026-01-22 00:45:09.46	27.14	35.49	-44.4	-45.7	21.2	0.00e+00	0	40	0	495976448	61	3924
2026-01-22 00:45:10.47	27.16	35.72	-44.8	-45.9	21.4	0.00e+00	0	40	0	497025024	61	4020
2026-01-22 00:45:11.48	27.18	35.95	-44.7	-45.8	21.5	0.00e+00	0	40	0	499122176	61	3976
2026-01-22 00:45:12.49	27.21	36.18	-44.5	-45.5	21.8	0.00e+00	0	40	0	501219328	60	4078
2026-01-22 00:45:13.49	27.23	36.42	-44.3	-45.3	22.0	0.00e+00	0	40	0	503316480	60	3974
2026-01-22 00:45:14.50	27.25	36.66	-44.3	-45.3	21.9	0.00e+00	0	40	0	505413632	60	3989
2026-01-22 00:45:15.51	27.28	36.90	-44.5	-45.5	21.7	0.00e+00	0	40	0	507510784	60	4092
2026-01-22 00:45:16.52	27.30	37.14	-44.2	-45.3	22.0	0.00e+00	0	40	0	508559360	60	3978
2026-01-22 00:45:17.53	27.32	37.38	-44.5	-45.6	21.7	0.00e+00	0	40	0	510656512	60	4102
2026-01-22 00:45:18.53	27.35	37.62	-44.6	-45.7	21.5	0.00e+00	0	40	0	512753664	60	4181
2026-01-22 00:45:19.54	27.37	37.87	-44.3	-45.4	21.7	0.00e+00	0	40	0	514850816	60	4036
2026-01-22 00:45:20.55	27.40	38.12	-44.4	-45.5	21.8	0.00e+00	0	40	0	516947968	60	4075
2026-01-22 00:45:21.55	27.42	38.37	-44.6	-45.8	21.6	0.00e+00	0	40	0	517996544	60	4201
2026-01-22 00:45:22.56	27.45	38.62	-44.3	-45.4	21.9	0.00e+00	0	40	0	520093696	60	4030
2026-01-22 00:45:23.57	27.47	38.87	-44.5	-45.7	21.7	0.00e+00	0	40	0	522190848	60	4151
2026-01-22 00:45:24.58	27.50	39.13	-44.8	-46.0	21.5	0.00e+00	0	40	0	524288000	60	4296
2026-01-22 00:45:25.59	27.53	39.39	-45.1	-46.3	21.1	0.00e+00	0	40	0	525336576	60	4458
2026-01-22 00:45:26.59	27.55	39.65	-44.9	-46.0	21.4	0.00e+00	0	40	0	527433728	60	4340
2026-01-22 00:45:27.60	27.58	39.91	-44.9	-46.1	21.5	0.00e+00	0	40	0	529530880	60	4352
2026-01-22 00:45:28.61	27.61	40.17	-44.8	-46.0	21.5	0.00e+00	0	40	0	531628032	60	4299
2026-01-22 00:45:29.61	27.63	40.44	-45.0	-46.1	21.3	0.00e+00	0	40	0	533725184	60	4381
2026-01-22 00:45:30.62	27.66	40.70	-45.2	-46.4	21.0	0.00e+00	0	40	0	535822336	61	4279
2026-01-22 00:45:31.63	27.69	40.97	-45.1	-46.2	21.2	0.00e+00	0	40	0	536870912	61	4173
2026-01-22 00:45:32.64	27.72	41.25	-45.1	-46.3	21.2	0.00e+00	0	40	0	538968064	61	4210
2026-01-22 00:45:33.65	27.75	41.52	-45.0	-46.1	21.3	0.00e+00	0	40	0	541065216	61	4138
2026-01-22 00:45:34.65	27.78	41.79	-45.0	-46.1	21.3	0.00e+00	0	40	0	543162368	61	4128
2026-01-22 00:45:35.66	27.81	42.07	-45.4	-46.5	21.0	0.00e+00	0	40	0	545259520	61	4330
2026-01-22 00:45:36.67	27.84	42.35	-45.5	-46.6	20.8	0.00e+00	0	40	0	546308096	61	4391
2026-01-22 00:45:37.68	27.87	42.63	-45.6	-46.8	20.7	0.00e+00	0	40	0	548405248	61	4458
2026-01-22 00:45:38.69	27.90	42.92	-45.6	-46.8	20.7	0.00e+00	0	40	0	550502400	62	4214
2026-01-22 00:45:39.69	27.94	43.20	-46.0	-47.4	20.2	0.00e+00	0	40	0	552599552	62	4504
2026-01-22 00:45:40.70	27.97	43.49	-46.5	-48.0	19.7	0.00e+00	0	40	0	553648128	63	4569
2026-01-22 00:45:41.71	28.00	43.78	-46.1	-47.4	20.1	0.00e+00	0	40	0	555745280	63	4271
2026-01-22 00:45:42.72	28.04	44.08	-46.2	-47.5	20.1	0.00e+00	0	40	0	557842432	63	4323
2026-01-22 00:45:43.73	28.07	44.37	-45.9	-47.2	20.4	0.00e+00	0	40	0	559939584	63	4147
2026-01-22 00:45:44.73	28.11	44.67	-46.2	-47.5	20.1	0.00e+00	0	40	0	562036736	63	4324
2026-01-22 00:45:45.74	28.14	44.97	-46.1	-47.4	20.2	0.00e+00	0	40	0	564133888	63	4280
2026-01-22 00:45:46.75	28.18	45.27	-46.3	-47.7	20.0	0.00e+00	0	40	0	565182464	63	4406
2026-01-22 00:45:47.76	28.21	45.57	-46.6	-48.1	19.5	0.00e+00	0	40	0	567279616	64	4358
2026-01-22 00:45:48.77	28.25	45.88	-46.5	-48.0	19.6	0.00e+00	0	40	0	569376768	64	4297
2026-01-22 00:45:49.78	28.29	46.19	-47.2	-48.8	18.8	0.00e+00	0	40	0	571473920	66	4211
2026-01-22 00:45:50.79	28.33	46.50	-47.2	-48.8	18.9	0.00e+00	0	40	0	573571072	66	4194
2026-01-22 00:45:51.80	28.37	46.81	-47.5	-49.1	18.7	0.00e+00	0	41	0	574619648	65	4612
2026-01-22 00:45:52.80	28.41	47.13	-47.5	-49.1	18.6	0.00e+00	0	41	0	576716800	65	4628
2026-01-22 00:45:53.81	28.45	47.45	-48.0	-49.8	17.9	0.00e+00	0	41	0	578813952	66	4732
2026-01-22 00:45:54.82	28.49	47.77	-48.5	-50.4	17.3	0.00e+00	0	40	0	580911104	67	4798
2026-01-22 00:45:55.83	28.53	48.09	-49.3	-51.6	16.2	0.00e+00	0	40	0	583008256	69	4914
2026-01-22 00:45:56.83	28.58	48.41	-49.4	-51.8	15.9	0.00e+00	0	40	0	584056832	70	4737
2026-01-22 00:45:57.84	28.62	48.74	-50.0	-52.7	15.2	0.00e+00	0	40	0	586153984	70	5268
2026-01-22 00:45:58.85	28.67	49.07	-50.0	-52.8	15.0	0.00e+00	0	40	0	588251136	70	5321
2026-01-22 00:45:59.86	28.71	49.41	-49.3	-51.6	16.3	0.00e+00	0	40	0	590348288	70	4633
2026-01-22 00:46:00.87	28.76	49.74	-48.1	-50.0	17.8	0.00e+00	0	40	0	592445440	68	4309
2026-01-22 00:46:01.88	28.81	50.08	-47.1	-48.7	18.9	0.00e+00	0	40	0	593494016	66	4165
2026-01-22 00:46:02.89	28.85	50.42	-46.2	-47.5	20.0	0.00e+00	0	40	0	595591168	64	4088
2026-01-22 00:46:03.89	28.90	50.76	-46.0	-47.3	20.3	0.00e+00	0	40	0	597688320	63	4222
2026-01-22 00:46:04.90	28.96	51.11	-45.4	-46.6	21.0	0.00e+00	0	40	0	599785472	62	4124
2026-01-22 00:46:05.91	29.01	51.46	-45.0	-46.2	21.3	0.00e+00	0	41	0	601882624	62	3924
2026-01-22 00:46:06.92	29.06	51.81	-44.4	-45.4	21.9	0.00e+00	0	40	0	602931200	60	4051
2026-01-22 00:46:07.93	29.11	52.16	-44.6	-45.7	21.7	0.00e+00	0	40	0	605028352	60	4178
2026-01-22 00:46:08.93	29.17	52.51	-44.8	-45.9	21.5	0.00e+00	0	40	0	607125504	60	4289
2026-01-22 00:46:09.94	29.23	52.87	-44.8	-45.9	21.6	0.00e+00	0	40	0	609222656	60	4283
2026-01-22 00:46:10.95	29.28	53.23	-44.6	-45.7	21.8	0.00e+00	0	40	0	611319808	60	4149
2026-01-22 00:46:11.96	29.34	53.60	-44.9	-46.0	21.5	0.00e+00	0	41	0	612368384	60	4314
2026-01-22 00:46:12.97	29.40	53.96	-44.2	-45.3	22.2	0.00e+00	0	40	0	614465536	60	3971
2026-01-22 00:46:13.97	29.47	54.33	-44.3	-45.3	22.3	0.00e+00	0	40	0	616562688	59	4221
2026-01-22 00:46:14.98	29.53	54.70	-44.1	-45.1	22.5	0.00e+00	0	41	0	618659840	59	4134
2026-01-22 00:46:15.99	29.60	55.07	-43.6	-44.6	22.9	0.00e+00	0	40	0	620756992	59	3883
2026-01-22 00:46:17.00	29.66	55.45	-43.9	-44.9	22.7	0.00e+00	0	40	0	621805568	59	4022
2026-01-22 00:46:18.01	29.73	55.83	-43.8	-44.8	22.7	0.00e+00	0	40	0	623902720	59	3975
2026-01-22 00:46:19.01	29.80	56.21	-43.4	-44.3	23.2	0.00e+00	0	40	0	625999872	58	3982
2026-01-22 00:46:20.02	29.87	56.59	-43.3	-44.2	23.2	0.00e+00	0	40	0	628097024	58	3939
2026-01-22 00:46:21.03	29.95	56.98	-43.3	-44.3	23.2	0.00e+00	0	40	0	630194176	58	3982
2026-01-22 00:46:22.03	30.02	57.37	-44.0	-45.1	22.6	0.00e+00	0	40	0	631242752	58	4345
2026-01-22 00:46:23.04	30.10	57.76	-44.6	-45.7	21.8	0.00e+00	0	41	0	633339904	60	4161
2026-01-22 00:46:24.05	30.18	58.16	-44.8	-45.9	21.5	0.00e+00	0	40	0	635437056	60	4272
2026-01-22 00:46:25.06	30.27	58.55	-44.8	-45.9	21.6	0.00e+00	0	40	0	637534208	60	4257
2026-01-22 00:46:26.07	30.35	58.95	-44.8	-45.9	21.5	0.00e+00	0	40	0	639631360	60	4272
2026-01-22 00:46:27.08	30.44	59.36	-45.0	-46.1	21.4	0.00e+00	0	40	0	640679936	61	4112
2026-01-22 00:46:28.08	30.53	59.76	-44.4	-45.5	21.9	0.00e+00	0	40	0	642777088	60	4054
2026-01-22 00:46:29.09	30.62	60.17	-44.3	-45.3	22.1	0.00e+00	0	40	0	644874240	60	3998
2026-01-22 00:46:30.10	30.72	60.58	-44.3	-45.4	22.2	0.00e+00	0	41	0	646971392	59	4252
2026-01-22 00:46:31.04	30.81	60.96	-44.1	-45.2	22.5	0.00e+00	0	40	0	649068544	59	4148
2026-01-22 00:46:32.05	30.91	61.38	-43.5	-44.4	23.1	0.00e+00	0	40	0	651165696	59	3823
2026-01-22 00:46:33.06	31.02	61.80	-42.9	-43.8	23.6	0.00e+00	0	40	0	652214272	57	3968
2026-01-22 00:46:34.07	31.13	62.22	-42.6	-43.4	23.8	0.00e+00	0	41	0	654311424	57	3814
2026-01-22 00:46:35.08	31.24	62.64	-42.7	-43.6	23.8	0.00e+00	0	41	0	656408576	56	4116
2026-01-22 00:46:36.09	31.36	63.07	-43.4	-44.4	23.1	0.00e+00	0	41	0	658505728	57	4258
2026-01-22 00:46:37.09	31.48	63.49	-43.3	-44.3	23.2	0.00e+00	0	40	0	659554304	57	4221
2026-01-22 00:46:38.10	31.60	63.93	-43.3	-44.2	23.2	0.00e+00	0	41	0	661651456	57	4163
2026-01-22 00:46:39.11	31.73	64.36	-43.5	-44.4	23.0	0.00e+00	0	40	0	663748608	57	4288
2026-01-22 00:46:40.12	31.86	64.80	-44.4	-45.5	22.2	0.00e+00	0	40	0	665845760	59	4330
2026-01-22 00:46:41.13	32.00	65.23	-44.6	-45.8	21.8	0.00e+00	0	41	0	667942912	60	4203
2026-01-22 00:46:42.13	32.15	65.67	-45.4	-46.6	21.1	0.00e+00	0	41	0	668991488	61	4380
2026-01-22 00:46:43.14	32.30	66.11	-45.2	-46.4	21.2	0.00e+00	0	41	0	671088640	61	4265
2026-01-22 00:46:44.15	32.46	66.56	-45.7	-46.9	20.8	0.00e+00	0	40	0	673185792	61	4543
2026-01-22 00:46:45.16	32.62	67.01	-45.6	-46.8	20.8	0.00e+00	0	40	0	675282944	61	4487
2026-01-22 00:46:46.17	32.79	67.46	-45.4	-46.6	21.0	0.00e+00	0	40	0	677380096	61	4343
2026-01-22 00:46:47.17	32.97	67.90	-45.6	-46.8	20.8	0.00e+00	0	41	0	679477248	61	4456
2026-01-22 00:46:48.18	33.15	68.36	-46.6	-48.0	19.9	0.00e+00	0	40	0	680525824	63	4596
2026-01-22 00:46:49.19	33.35	68.82	-47.3	-48.9	18.9	0.00e+00	0	40	0	682622976	65	4512
2026-01-22 00:46:50.20	33.55	69.27	-47.0	-48.5	19.1	0.00e+00	0	40	0	684720128	65	4303
2026-01-22 00:46:51.21	33.76	69.74	-46.4	-47.8	19.9	0.00e+00	0	41	0	686817280	64	4200
2026-01-22 00:46:52.22	33.99	70.20	-47.1	-48.7	19.1	0.00e+00	0	40	0	687865856	64	4659
2026-01-22 00:46:53.22	34.22	70.66	-47.7	-49.3	18.4	0.00e+00	0	40	0	689963008	65	4747
2026-01-22 00:46:54.23	34.47	71.12	-47.8	-49.5	18.2	0.00e+00	0	41	0	692060160	66	4573
2026-01-22 00:46:55.24	34.73	71.59	-47.1	-48.5	19.0	0.00e+00	0	40	0	694157312	66	4088
2026-01-22 00:46:56.25	35.00	72.06	-45.6	-46.7	20.9	0.00e+00	0	40	0	696254464	63	3948
2026-01-22 00:46:57.26	35.29	72.53	-44.1	-45.1	22.3	0.00e+00	0	40	0	698351616	60	3877
2026-01-22 00:46:58.26	35.59	73.00	-44.0	-45.0	22.6	0.00e+00	0	40	0	699400192	59	4056
2026-01-22 00:46:59.27	35.92	73.48	-44.3	-45.3	22.1	0.00e+00	0	40	0	701497344	60	4001
2026-01-22 00:47:00.28	36.26	73.95	-44.0	-45.0	22.3	0.00e+00	0	40	0	703594496	60	3852
2026-01-22 00:47:01.29	36.63	74.43	-44.0	-44.9	22.6	0.00e+00	0	40	0	705691648	59	4048
2026-01-22 00:47:02.29	37.01	74.91	-44.6	-45.7	21.8	0.00e+00	0	40	0	707788800	60	4175
2026-01-22 00:47:03.30	37.43	75.38	-46.6	-48.0	19.8	0.00e+00	0	40	0	708837376	63	4594
2026-01-22 00:47:04.31	37.87	75.87	-46.6	-48.0	19.6	0.00e+00	0	40	0	710934528	64	4338
2026-01-22 00:47:05.32	38.35	76.35	-45.1	-46.2	21.4	0.00e+00	0	40	0	713031680	62	3928
2026-01-22 00:47:06.32	38.86	76.82	-45.3	-46.4	21.2	0.00e+00	0	40	0	715128832	61	4291
2026-01-22 00:47:07.33	39.41	77.31	-46.1	-47.4	20.3	0.00e+00	0	40	0	716177408	62	4522
2026-01-22 00:47:08.34	40.01	77.79	-46.6	-48.0	19.9	0.00e+00	0	40	0	718274560	63	4554
2026-01-22 00:47:09.35	40.66	78.27	-47.1	-48.6	19.1	0.00e+00	0	41	0	720371712	65	4386
2026-01-22 00:47:10.36	41.36	78.76	-47.1	-48.6	19.1	0.00e+00	0	41	0	722468864	65	4363
2026-01-22 00:47:11.36	42.12	79.23	-46.1	-47.4	20.2	0.00e+00	0	41	0	724566016	64	4030
2026-01-22 00:47:12.37	42.96	79.72	-46.1	-47.3	20.4	0.00e+00	0	40	0	726663168	63	4238
2026-01-22 00:47:13.38	43.89	80.20	-46.6	-48.1	19.6	0.00e+00	0	40	0	727711744	64	4342
2026-01-22 00:47:14.39	44.91	80.67	-46.6	-48.0	19.7	0.00e+00	0	40	0	729808896	64	4338
2026-01-22 00:47:15.39	46.03	81.15	-47.7	-49.5	18.5	0.00e+00	0	40	0	731906048	65	4815
2026-01-22 00:47:16.40	47.29	81.62	-49.5	-52.0	16.1	0.00e+00	0	41	0	734003200	69	5103
2026-01-22 00:47:17.41	48.70	82.09	-49.7	-52.3	15.7	0.00e+00	0	40	0	736100352	71	4732
2026-01-22 00:47:18.41	50.28	82.55	-48.3	-50.1	17.7	0.00e+00	0	40	0	737148928	68	4389
2026-01-22 00:47:19.42	52.08	83.01	-46.7	-48.1	19.6	0.00e+00	0	41	0	739246080	65	4110
2026-01-22 00:47:20.43	54.14	83.47	-45.9	-47.1	20.5	0.00e+00	0	41	0	741343232	63	4136
2026-01-22 00:47:21.44	56.50	83.91	-45.3	-46.5	21.1	0.00e+00	0	40	0	743440384	62	4065
2026-01-22 00:47:22.45	59.23	84.34	-45.8	-46.9	20.8	0.00e+00	0	41	0	744488960	62	4287
2026-01-22 00:47:23.45	62.38	84.76	-45.5	-46.6	21.0	0.00e+00	0	40	0	746586112	62	4131
2026-01-22 00:47:24.46	66.09	85.16	-46.2	-47.5	20.2	0.00e+00	0	40	0	748683264	63	4296
2026-01-22 00:47:25.47	70.46	85.54	-46.2	-47.5	20.1	0.00e+00	0	40	0	750780416	64	4076
2026-01-22 00:47:26.48	75.59	85.89	-46.1	-47.4	20.3	0.00e+00	0	40	0	752877568	64	4008
2026-01-22 00:47:27.49	81.63	86.19	-47.3	-48.9	18.9	0.00e+00	0	40	0	754974720	65	4527
2026-01-22 00:47:28.50	88.63	86.45	-46.7	-48.1	19.6	0.00e+00	0	41	0	756023296	65	4121
2026-01-22 00:47:29.51	96.60	86.65	-46.7	-48.1	19.6	0.00e+00	0	40	0	758120448	65	4114
2026-01-22 00:47:30.51	105.30	86.78	-47.7	-49.4	18.4	0.00e+00	0	40	0	760217600	66	4518
2026-01-22 00:47:31.53	114.67	86.83	-46.8	-48.2	19.4	0.00e+00	0	40	0	762314752	65	4178
2026-01-22 00:47:32.53	123.89	86.79	-45.2	-46.4	21.2	0.00e+00	0	40	0	764411904	62	4023
2026-01-22 00:47:33.54	132.77	86.67	-44.0	-45.0	22.4	0.00e+00	0	41	0	765460480	60	3863
2026-01-22 00:47:34.55	140.86	86.48	-44.7	-45.7	21.8	0.00e+00	0	40	0	767557632	60	4176
2026-01-22 00:47:35.55	147.93	86.23	-47.1	-48.6	19.1	0.00e+00	0	41	0	769654784	64	4648
2026-01-22 00:47:36.56	154.09	85.93	-46.9	-48.4	19.4	0.00e+00	0	40	0	771751936	65	4251
2026-01-22 00:47:37.57	159.34	85.59	-46.0	-47.2	20.4	0.00e+00	0	40	0	773849088	63	4176
2026-01-22 00:47:38.58	163.81	85.21	-46.5	-47.9	19.9	0.00e+00	0	41	0	774897664	63	4543
2026-01-22 00:47:39.59	167.61	84.82	-45.8	-47.1	20.6	0.00e+00	0	41	0	776994816	63	4116
2026-01-22 00:47:40.60	170.85	84.40	-45.3	-46.5	21.2	0.00e+00	0	40	0	779091968	62	4075
2026-01-22 00:47:41.60	173.61	83.97	-46.1	-47.4	20.4	0.00e+00	0	40	0	781189120	62	4506
2026-01-22 00:47:42.61	176.02	83.53	-45.6	-46.9	20.8	0.00e+00	0	40	0	783286272	62	4243
2026-01-22 00:47:43.62	178.12	83.08	-45.4	-46.6	21.0	0.00e+00	0	40	0	784334848	62	4112
2026-01-22 00:47:44.62	179.93	82.62	-46.3	-47.6	20.2	0.00e+00	0	41	0	786432000	63	4367
2026-01-22 00:47:45.63	181.55	82.15	-46.4	-47.7	20.0	0.00e+00	0	40	0	788529152	63	4436
2026-01-22 00:47:46.64	182.99	81.68	-48.3	-50.3	17.7	0.00e+00	0	40	0	790626304	67	4707
2026-01-22 00:47:47.65	184.27	81.21	-47.7	-49.3	18.4	0.00e+00	0	41	0	792723456	67	4240
2026-01-22 00:47:48.65	185.41	80.74	-45.8	-46.9	20.7	0.00e+00	0	40	0	794820608	63	4027
2026-01-22 00:47:49.66	186.44	80.26	-45.5	-46.7	20.9	0.00e+00	0	40	0	795869184	62	4154
2026-01-22 00:47:50.67	187.38	79.78	-45.2	-46.3	21.3	0.00e+00	0	40	0	797966336	61	4234
2026-01-22 00:47:51.68	188.23	79.30	-46.0	-47.3	20.6	0.00e+00	0	40	0	800063488	62	4465
2026-01-22 00:47:52.68	189.00	78.82	-49.1	-51.3	16.8	0.00e+00	0	40	0	802160640	68	5040
2026-01-22 00:47:53.69	189.71	78.34	-48.1	-50.0	17.8	0.00e+00	0	40	0	803209216	68	4294
2026-01-22 00:47:54.70	190.37	77.85	-46.6	-47.9	19.7	0.00e+00	0	41	0	805306368	64	4285
2026-01-22 00:47:55.71	190.97	77.37	-47.7	-49.4	18.4	0.00e+00	0	40	0	807403520	65	4793
2026-01-22 00:47:56.72	191.53	76.89	-47.2	-48.8	19.1	0.00e+00	0	41	0	809500672	66	4198
2026-01-22 00:47:57.73	192.05	76.40	-45.8	-47.0	20.8	0.00e+00	0	40	0	811597824	63	4076
2026-01-22 00:47:58.73	192.53	75.93	-44.7	-45.8	21.9	0.00e+00	0	40	0	812646400	61	3959
2026-01-22 00:47:59.74	192.98	75.44	-46.0	-47.2	20.5	0.00e+00	0	40	0	814743552	62	4434
2026-01-22 00:48:00.75	193.40	74.96	-46.6	-47.9	19.8	0.00e+00	0	40	0	816840704	64	4280
2026-01-22 00:48:01.76	193.79	74.48	-48.0	-49.8	18.1	0.00e+00	0	40	0	818937856	66	4717
2026-01-22 00:48:02.77	194.16	74.01	-46.3	-47.7	20.0	0.00e+00	0	41	0	821035008	64	4156
2026-01-22 00:48:03.77	194.50	73.53	-45.8	-47.0	20.8	0.00e+00	0	40	0	823132160	63	4066
2026-01-22 00:48:04.78	194.83	73.06	-46.6	-48.0	19.6	0.00e+00	0	40	0	824180736	64	4322
2026-01-22 00:48:05.79	195.14	72.58	-47.9	-49.7	18.4	0.00e+00	0	41	0	826277888	66	4665
2026-01-22 00:48:06.80	195.43	72.11	-47.9	-49.6	18.2	0.00e+00	0	40	0	828375040	67	4363
2026-01-22 00:48:07.81	195.71	71.64	-46.6	-48.0	19.7	0.00e+00	0	41	0	830472192	65	4075
2026-01-22 00:48:08.81	195.96	71.18	-48.3	-50.2	17.9	0.00e+00	0	40	0	831520768	67	4665
2026-01-22 00:48:09.82	196.21	70.71	-49.6	-52.0	16.0	0.00e+00	0	40	0	833617920	70	4817
2026-01-22 00:48:10.83	196.45	70.24	-48.7	-50.7	17.5	0.00e+00	0	40	0	835715072	68	4666
2026-01-22 00:48:11.84	196.67	69.78	-48.5	-50.3	17.6	0.00e+00	0	40	0	837812224	67	4751
2026-01-22 00:48:12.85	196.89	69.32	-47.0	-48.4	19.3	0.00e+00	0	41	0	839909376	65	4275
2026-01-22 00:48:13.86	197.09	68.86	-46.7	-48.1	19.7	0.00e+00	0	40	0	842006528	64	4352
2026-01-22 00:48:14.86	197.29	68.41	-48.4	-50.4	17.5	0.00e+00	0	40	0	843055104	67	4785
2026-01-22 00:48:15.87	197.47	67.95	-48.4	-50.2	17.8	0.00e+00	0	40	0	845152256	68	4441
2026-01-22 00:48:16.88	197.65	67.50	-47.3	-48.8	18.8	0.00e+00	0	40	0	847249408	66	4225
2026-01-22 00:48:17.89	197.82	67.05	-47.7	-49.4	18.4	0.00e+00	0	41	0	849346560	66	4514
2026-01-22 00:48:18.90	197.99	66.60	-48.0	-49.9	17.9	0.00e+00	0	40	0	851443712	67	4517
2026-01-22 00:48:19.91	198.15	66.15	-47.6	-49.3	18.4	0.00e+00	0	40	0	852492288	67	4195
2026-01-22 00:48:20.91	198.30	65.71	-47.6	-49.4	18.8	0.00e+00	0	40	0	854589440	66	4524
2026-01-22 00:48:21.92	198.44	65.27	-46.8	-48.3	19.3	0.00e+00	0	41	0	856686592	65	4230
2026-01-22 00:48:22.93	198.58	64.83	-45.6	-46.8	20.9	0.00e+00	0	41	0	858783744	63	3982
2026-01-22 00:48:23.94	198.72	64.39	-44.5	-45.6	21.9	0.00e+00	0	41	0	859832320	61	3872
2026-01-22 00:48:24.95	198.85	63.96	-45.0	-46.1	21.4	0.00e+00	0	41	0	861929472	60	4387
2026-01-22 00:48:25.95	198.97	63.53	-46.0	-47.4	20.4	0.00e+00	0	41	0	864026624	62	4498
2026-01-22 00:48:26.96	199.09	63.10	-45.7	-47.0	20.7	0.00e+00	0	40	0	866123776	63	4061
2026-01-22 00:48:27.97	199.21	62.67	-44.4	-45.5	21.9	0.00e+00	0	40	0	868220928	60	4069
2026-01-22 00:48:28.98	199.32	62.25	-44.5	-45.6	22.2	0.00e+00	0	41	0	870318080	59	4343
2026-01-22 00:48:29.99	199.43	61.83	-44.1	-45.1	22.6	0.00e+00	0	41	0	871366656	59	4100
2026-01-22 00:48:31.00	199.54	61.41	-44.1	-45.1	22.5	0.00e+00	0	40	0	873463808	59	4126
2026-01-22 00:48:32.00	199.64	60.99	-45.3	-46.5	21.1	0.00e+00	0	40	0	875560960	61	4304
2026-01-22 00:48:33.01	199.74	60.58	-46.3	-47.7	20.0	0.00e+00	0	40	0	877658112	63	4413
2026-01-22 00:48:34.02	199.83	60.17	-46.2	-47.5	20.1	0.00e+00	0	40	0	879755264	63	4331
2026-01-22 00:48:35.03	199.93	59.76	-45.3	-46.4	21.1	0.00e+00	0	40	0	880803840	62	4040
2026-01-22 00:48:36.04	200.02	59.35	-45.3	-46.5	21.0	0.00e+00	0	41	0	882900992	62	4052
2026-01-22 00:48:37.05	200.11	58.95	-45.8	-47.0	20.4	0.00e+00	0	41	0	884998144	62	4327
2026-01-22 00:48:38.05	200.19	58.55	-44.8	-45.8	21.7	0.00e+00	0	41	0	887095296	61	4003
2026-01-22 00:48:39.06	200.27	58.15	-44.4	-45.4	22.1	0.00e+00	0	40	0	889192448	60	4029
2026-01-22 00:48:40.07	200.35	57.75	-45.6	-46.8	20.9	0.00e+00	0	40	0	890241024	61	4485
2026-01-22 00:48:41.08	200.43	57.36	-47.1	-48.8	19.1	0.00e+00	0	40	0	892338176	64	4708
2026-01-22 00:48:42.09	200.51	56.97	-45.9	-47.1	20.4	0.00e+00	0	40	0	894435328	63	4136
2026-01-22 00:48:43.10	200.58	56.58	-44.2	-45.2	22.2	0.00e+00	0	40	0	896532480	60	3916
2026-01-22 00:48:44.11	200.66	56.20	-44.5	-45.5	22.0	0.00e+00	0	40	0	898629632	60	4081
2026-01-22 00:48:45.11	200.73	55.82	-46.0	-47.3	20.5	0.00e+00	0	40	0	899678208	62	4455
2026-01-22 00:48:46.12	200.79	55.44	-45.5	-46.7	20.9	0.00e+00	0	40	0	901775360	63	3931
2026-01-22 00:48:47.13	200.86	55.06	-44.5	-45.6	21.9	0.00e+00	0	40	0	903872512	61	3874
2026-01-22 00:48:48.14	200.93	54.68	-45.1	-46.2	21.4	0.00e+00	0	41	0	905969664	60	4409
2026-01-22 00:48:49.15	200.99	54.31	-46.8	-48.3	19.4	0.00e+00	0	40	0	908066816	64	4467
2026-01-22 00:48:50.16	201.05	53.94	-47.0	-48.6	19.2	0.00e+00	0	41	0	909115392	65	4345
2026-01-22 00:48:51.16	201.11	53.58	-45.6	-46.8	20.7	0.00e+00	0	40	0	911212544	63	4000
2026-01-22 00:48:52.17	201.17	53.21	-44.6	-45.7	21.8	0.00e+00	0	40	0	913309696	61	3933
2026-01-22 00:48:53.18	201.23	52.85	-44.7	-45.8	21.6	0.00e+00	0	41	0	915406848	61	3969
2026-01-22 00:48:54.19	201.29	52.49	-46.1	-47.5	20.2	0.00e+00	0	40	0	917504000	62	4556
2026-01-22 00:48:55.20	201.34	52.13	-47.8	-49.6	18.3	0.00e+00	0	40	0	918552576	66	4623
2026-01-22 00:48:56.21	201.40	51.78	-48.0	-49.8	17.8	0.00e+00	0	40	0	920649728	66	4758
2026-01-22 00:48:57.21	201.45	51.43	-47.0	-48.6	19.1	0.00e+00	0	40	0	922746880	66	4100
2026-01-22 00:48:58.22	201.50	51.08	-46.3	-47.7	20.2	0.00e+00	0	41	0	924844032	63	4436
2026-01-22 00:48:59.23	201.55	50.73	-45.6	-46.9	20.7	0.00e+00	0	41	0	926941184	63	4021
2026-01-22 00:49:00.24	201.60	50.39	-45.3	-46.4	21.1	0.00e+00	0	41	0	927989760	62	4051
2026-01-22 00:49:01.25	201.65	50.05	-44.9	-46.0	21.5	0.00e+00	0	41	0	930086912	61	4069
2026-01-22 00:49:02.25	201.70	49.71	-45.4	-46.6	20.9	0.00e+00	0	40	0	932184064	61	4389
2026-01-22 00:49:03.26	201.74	49.38	-46.4	-47.8	19.8	0.00e+00	0	40	0	934281216	63	4491
2026-01-22 00:49:04.27	201.79	49.04	-48.3	-50.4	17.5	0.00e+00	0	40	0	936378368	67	4760
2026-01-22 00:49:05.28	201.84	48.71	-50.9	-54.8	13.2	0.00e+00	0	41	0	937426944	72	5931
2026-01-22 00:49:06.28	201.88	48.38	-49.9	-52.8	14.6	5.87e-05	0	40	0	939524096	71	5032
2026-01-22 00:49:07.29	201.92	48.06	-47.4	-49.1	18.4	0.00e+00	0	40	0	941621248	66	4343
2026-01-22 00:49:08.30	201.96	47.73	-45.4	-46.6	20.8	0.00e+00	0	40	0	943718400	63	3897
2026-01-22 00:49:09.31	202.01	47.41	-44.6	-45.6	21.7	0.00e+00	0	41	0	945815552	61	3911
2026-01-22 00:49:10.32	202.05	47.09	-44.5	-45.5	21.9	0.00e+00	0	41	0	946864128	60	4060
2026-01-22 00:49:11.33	202.09	46.77	-45.4	-46.5	21.0	0.00e+00	0	40	0	948961280	61	4332
2026-01-22 00:49:12.33	202.13	46.46	-45.9	-47.2	20.5	0.00e+00	0	41	0	951058432	62	4404
2026-01-22 00:49:13.34	202.17	46.15	-46.7	-48.2	19.5	0.00e+00	0	41	0	953155584	64	4397
2026-01-22 00:49:14.35	202.20	45.84	-46.3	-47.7	19.9	0.00e+00	0	41	0	955252736	64	4166
2026-01-22 00:49:15.36	202.24	45.53	-46.8	-48.4	19.3	0.00e+00	0	40	0	957349888	64	4504
2026-01-22 00:49:16.36	202.28	45.23	-46.9	-48.5	19.0	0.00e+00	0	41	0	958398464	65	4308
2026-01-22 00:49:17.37	202.31	44.93	-46.4	-47.8	19.6	0.00e+00	0	40	0	960495616	64	4229
2026-01-22 00:49:18.38	202.35	44.63	-46.3	-47.7	19.8	0.00e+00	0	40	0	962592768	64	4173
2026-01-22 00:49:19.39	202.38	44.33	-45.7	-46.9	20.5	0.00e+00	0	41	0	964689920	63	4025
2026-01-22 00:49:20.40	202.42	44.03	-44.3	-45.3	21.9	0.00e+00	0	41	0	965738496	60	3976
2026-01-22 00:49:21.41	202.45	43.74	-43.2	-44.1	23.3	0.00e+00	0	40	0	967835648	58	3876
2026-01-22 00:49:22.41	202.48	43.45	-43.8	-44.7	22.7	0.00e+00	0	41	0	969932800	58	4175
2026-01-22 00:49:23.42	202.52	43.16	-44.2	-45.2	22.3	0.00e+00	0	40	0	972029952	59	4182
2026-01-22 00:49:24.43	202.55	42.87	-44.6	-45.6	21.7	0.00e+00	0	40	0	974127104	60	4143
2026-01-22 00:49:25.44	202.58	42.59	-45.1	-46.3	21.1	0.00e+00	0	41	0	975175680	60	4459
2026-01-22 00:49:26.45	202.61	42.30	-46.5	-48.0	19.7	0.00e+00	0	40	0	977272832	63	4552
2026-01-22 00:49:27.45	202.64	42.02	-47.2	-48.8	18.7	0.00e+00	0	40	0	979369984	65	4443
2026-01-22 00:49:28.46	202.67	41.74	-47.4	-49.2	18.4	0.00e+00	0	41	0	981467136	65	4662
2026-01-22 00:49:29.47	202.70	41.47	-48.0	-49.9	17.7	0.00e+00	0	40	0	983564288	67	4513
2026-01-22 00:49:30.48	202.73	41.19	-46.9	-48.4	19.0	0.00e+00	0	40	0	985661440	65	4257
2026-01-22 00:49:31.49	202.76	40.92	-45.4	-46.5	20.8	0.00e+00	0	40	0	986710016	62	4096
2026-01-22 00:49:32.49	202.79	40.65	-44.4	-45.4	21.9	0.00e+00	0	40	0	988807168	60	4023
2026-01-22 00:49:33.50	202.82	40.38	-44.4	-45.5	21.9	0.00e+00	0	40	0	990904320	60	4065
2026-01-22 00:49:34.51	202.84	40.12	-44.6	-45.6	21.7	0.00e+00	0	41	0	993001472	60	4145
2026-01-22 00:49:35.52	202.87	39.85	-45.3	-46.4	21.1	0.00e+00	0	41	0	994050048	61	4283
2026-01-22 00:49:36.53	202.90	39.59	-46.7	-48.1	19.4	0.00e+00	0	40	0	996147200	64	4375
2026-01-22 00:49:37.54	202.93	39.33	-47.9	-49.6	18.1	0.00e+00	0	40	0	998244352	66	4651
2026-01-22 00:49:38.55	202.95	39.07	-48.7	-50.8	16.9	0.00e+00	0	41	0	1000341504	67	4991
2026-01-22 00:49:39.55	202.98	38.82	-50.2	-53.1	14.7	0.00e+00	0	40	0	1002438656	70	5505
2026-01-22 00:49:40.56	203.00	38.56	-51.1	-55.0	12.6	2.59e-05	0	41	0	1004535808	72	6119
2026-01-22 00:49:41.57	203.03	38.31	-51.6	-56.4	11.0	8.54e-05	0	40	0	1005584384	73	6789
2026-01-22 00:49:42.58	203.05	38.06	-51.8	-57.0	10.3	7.04e-04	0	40	0	1007681536	74	6874
2026-01-22 00:49:43.58	203.08	37.81	-51.0	-54.7	12.5	1.84e-03	0	40	0	1009778688	74	5277
2026-01-22 00:49:44.59	203.10	37.56	-50.4	-53.5	14.0	3.73e-05	0	41	0	1011875840	72	5158
2026-01-22 00:49:45.60	203.13	37.32	-49.7	-52.2	15.5	7.00e-07	0	40	0	1013972992	71	4663
2026-01-22 00:49:46.61	203.15	37.07	-48.6	-50.6	17.1	0.00e+00	0	40	0	1015021568	69	4344
2026-01-22 00:49:47.62	203.17	36.83	-46.9	-48.4	19.0	0.00e+00	0	41	0	1017118720	65	4248
2026-01-22 00:49:48.63	203.20	36.59	-45.6	-46.8	20.7	0.00e+00	0	40	0	1019215872	63	3961
2026-01-22 00:49:49.64	203.22	36.35	-45.4	-46.5	20.8	0.00e+00	0	40	0	1021313024	62	4093
2026-01-22 00:49:50.65	203.24	36.11	-45.9	-47.2	20.2	0.00e+00	0	41	0	1023410176	62	4415
2026-01-22 00:49:51.66	203.26	35.88	-47.2	-48.8	18.7	0.00e+00	0	40	0	1024458752	64	4723
2026-01-22 00:49:52.67	203.28	35.65	-48.1	-49.9	17.7	0.00e+00	0	40	0	1026555904	66	4783
2026-01-22 00:49:53.67	203.31	35.42	-49.6	-52.1	15.6	0.00e+00	0	40	0	1028653056	69	5161
2026-01-22 00:49:54.68	203.33	35.19	-50.7	-54.1	13.6	0.00e+00	0	41	0	1030750208	72	5472
2026-01-22 00:49:55.69	203.35	34.96	-51.4	-55.6	11.9	5.18e-05	0	40	0	1032847360	73	6194
2026-01-22 00:49:56.70	203.37	34.73	-51.8	-56.7	10.8	2.91e-03	0	41	0	1033895936	74	6575
2026-01-22 00:49:57.71	203.39	34.51	-51.8	-56.5	10.9	2.22e-03	0	41	0	1035993088	74	6484
2026-01-22 00:49:58.71	203.41	34.28	-51.9	-57.0	10.5	5.09e-03	0	40	0	1038090240	74	6843
2026-01-22 00:49:59.73	203.43	34.06	-51.0	-54.8	12.7	9.69e-04	0	40	0	1040187392	74	5340
2026-01-22 00:50:00.73	203.45	33.84	-50.4	-53.7	13.9	4.65e-05	0	40	0	1042284544	72	5226
2026-01-22 00:50:01.74	203.47	33.62	-50.2	-53.3	14.2	1.06e-05	0	40	0	1043333120	72	4995
2026-01-22 00:50:02.75	203.49	33.41	-49.4	-51.9	15.7	0.00e+00	0	40	0	1045430272	70	4787
2026-01-22 00:50:03.76	203.51	33.19	-48.8	-51.1	16.5	0.00e+00	0	41	0	1047527424	69	4601
2026-01-22 00:50:04.77	203.53	32.98	-48.5	-50.5	16.9	0.00e+00	0	40	0	1049624576	69	4328
2026-01-22 00:50:05.77	203.55	32.77	-48.2	-50.1	17.6	0.00e+00	0	41	0	1051721728	68	4344
2026-01-22 00:50:06.78	203.57	32.55	-47.5	-49.2	18.2	0.00e+00	0	40	0	1052770304	67	4187
2026-01-22 00:50:07.79	203.59	32.34	-47.7	-49.5	18.0	0.00e+00	0	40	0	1054867456	66	4553
2026-01-22 00:50:08.80	203.60	32.14	-47.2	-48.8	18.7	0.00e+00	0	41	0	1056964608	66	4206
2026-01-22 00:50:09.81	203.62	31.93	-47.1	-48.6	18.8	0.00e+00	0	40	0	1059061760	66	4144
2026-01-22 00:50:10.81	203.64	31.73	-47.3	-48.9	18.5	0.00e+00	0	41	0	1061158912	66	4279
2026-01-22 00:50:11.82	203.66	31.52	-47.1	-48.6	18.8	0.00e+00	0	41	0	1062207488	66	4115
2026-01-22 00:50:12.83	203.68	31.32	-47.0	-48.5	19.0	0.00e+00	0	41	0	1064304640	65	4306
2026-01-22 00:50:13.84	203.69	31.12	-46.9	-48.4	18.9	0.00e+00	0	40	0	1066401792	65	4286
2026-01-22 00:50:14.84	203.71	30.92	-46.5	-47.9	19.4	0.00e+00	0	41	0	1068498944	65	4050
2026-01-22 00:50:15.85	203.73	30.72	-46.5	-48.0	19.4	0.00e+00	0	41	0	1070596096	64	4307
2026-01-22 00:50:16.86	203.74	30.52	-46.7	-48.2	19.2	0.00e+00	0	41	0	1072693248	64	4407
2026-01-22 00:50:17.87	203.76	30.33	-46.8	-48.3	19.0	0.00e+00	0	40	0	1073741824	64	4493
2026-01-22 00:50:18.87	203.78	30.14	-47.1	-48.8	18.6	0.00e+00	0	41	0	1075838976	64	4725
2026-01-22 00:50:19.88	203.79	29.94	-47.5	-49.3	18.2	0.00e+00	0	41	0	1077936128	65	4722
2026-01-22 00:50:20.89	203.81	29.75	-47.7	-49.5	18.2	0.00e+00	0	41	0	1080033280	66	4577
2026-01-22 00:50:21.89	203.83	29.56	-48.3	-50.3	17.2	0.00e+00	0	41	0	1081081856	67	4732
2026-01-22 00:50:22.90	203.84	29.37	-48.5	-50.7	16.8	0.00e+00	0	41	0	1083179008	67	4957
2026-01-22 00:50:23.91	203.86	29.18	-48.8	-51.1	16.5	0.00e+00	0	41	0	1085276160	68	4873
2026-01-22 00:50:24.92	203.88	29.00	-49.0	-51.4	16.1	0.00e+00	0	40	0	1087373312	68	5073
2026-01-22 00:50:25.93	203.89	28.81	-48.8	-51.1	16.4	0.00e+00	0	41	0	1089470464	68	4901
2026-01-22 00:50:26.93	203.91	28.63	-48.3	-50.2	17.2	0.00e+00	0	41	0	1090519040	68	4435
2026-01-22 00:50:27.94	203.92	28.45	-48.0	-49.9	17.6	0.00e+00	0	41	0	1092616192	68	4283
2026-01-22 00:50:28.95	203.94	28.26	-47.2	-48.8	18.6	0.00e+00	0	41	0	1094713344	66	4231
2026-01-22 00:50:29.96	203.95	28.08	-46.2	-47.6	19.7	0.00e+00	0	41	0	1096810496	64	4112
2026-01-22 00:50:30.96	203.97	27.91	-45.6	-46.9	20.4	0.00e+00	0	41	0	1098907648	63	4007
2026-01-22 00:50:31.97	203.98	27.73	-45.2	-46.4	20.8	0.00e+00	0	41	0	1101004800	62	4016
2026-01-22 00:50:32.98	204.00	27.55	-45.0	-46.1	21.0	0.00e+00	0	41	0	1102053376	61	4118
2026-01-22 00:50:33.99	204.01	27.37	-44.8	-45.9	21.3	0.00e+00	0	41	0	1104150528	61	4031
2026-01-22 00:50:35.00	204.03	27.20	-44.8	-45.9	21.2	0.00e+00	0	40	0	1106247680	61	4041
2026-01-22 00:50:36.01	204.04	27.02	-45.1	-46.3	20.8	0.00e+00	0	40	0	1108344832	61	4229
2026-01-22 00:50:37.01	204.05	26.85	-45.2	-46.4	20.8	0.00e+00	0	41	0	1109393408	61	4250
2026-01-22 00:50:38.02	204.07	26.68	-45.5	-46.7	20.5	0.00e+00	0	40	0	1111490560	61	4416
2026-01-22 00:50:39.03	204.08	26.51	-45.7	-47.0	20.2	0.00e+00	0	41	0	1113587712	61	4567
2026-01-22 00:50:40.04	204.10	26.34	-45.6	-46.8	20.4	0.00e+00	0	41	0	1115684864	62	4230
2026-01-22 00:50:41.04	204.11	26.17	-45.7	-47.0	20.2	0.00e+00	0	41	0	1117782016	62	4320
2026-01-22 00:50:42.05	204.12	26.01	-45.6	-46.8	20.4	0.00e+00	0	41	0	1119879168	62	4236
2026-01-22 00:50:43.06	204.14	25.84	-45.8	-47.1	20.2	0.00e+00	0	40	0	1120927744	62	4358
2026-01-22 00:50:44.07	204.15	25.67	-45.5	-46.8	20.4	0.00e+00	0	41	0	1123024896	62	4205
2026-01-22 00:50:45.08	204.17	25.51	-45.5	-46.8	20.5	0.00e+00	0	41	0	1125122048	62	4195
2026-01-22 00:50:46.08	204.18	25.35	-45.6	-46.9	20.3	0.00e+00	0	40	0	1127219200	62	4246
2026-01-22 00:50:47.09	204.19	25.19	-45.5	-46.8	20.4	0.00e+00	0	40	0	1129316352	62	4199
2026-01-22 00:50:48.10	204.20	25.02	-45.5	-46.8	20.4	0.00e+00	0	41	0	1130364928	62	4222
2026-01-22 00:50:49.11	204.22	24.86	-45.2	-46.4	20.8	0.00e+00	0	41	0	1132462080	62	4014
2026-01-22 00:50:50.12	204.23	24.70	-45.3	-46.5	20.6	0.00e+00	0	41	0	1134559232	62	4089
2026-01-22 00:50:51.13	204.24	24.55	-45.1	-46.3	20.8	0.00e+00	0	41	0	1136656384	62	3999
2026-01-22 00:50:52.13	204.26	24.39	-44.8	-46.0	21.1	0.00e+00	0	41	0	1137704960	61	4068
2026-01-22 00:50:53.14	204.27	24.23	-44.9	-46.0	21.0	0.00e+00	0	41	0	1139802112	61	4084
2026-01-22 00:50:54.15	204.28	24.08	-44.7	-45.9	21.1	0.00e+00	0	41	0	1141899264	61	4032
2026-01-22 00:50:55.16	204.29	23.92	-44.6	-45.7	21.3	0.00e+00	0	40	0	1143996416	61	3925
2026-01-22 00:50:56.16	204.31	23.77	-44.5	-45.6	21.4	0.00e+00	0	40	0	1146093568	61	3874
2026-01-22 00:50:57.17	204.32	23.62	-44.6	-45.8	21.2	0.00e+00	0	40	0	1148190720	60	4198
2026-01-22 00:50:58.18	204.33	23.46	-44.8	-45.9	21.1	0.00e+00	0	41	0	1149239296	60	4279
2026-01-22 00:50:59.19	204.34	23.31	-44.6	-45.7	21.3	0.00e+00	0	41	0	1151336448	60	4166
2026-01-22 00:51:00.19	204.36	23.16	-44.6	-45.8	21.3	0.00e+00	0	40	0	1153433600	60	4206
2026-01-22 00:51:01.20	204.37	23.02	-44.6	-45.7	21.3	0.00e+00	0	41	0	1155530752	60	4185
2026-01-22 00:51:02.21	204.38	22.87	-44.7	-45.9	21.2	0.00e+00	0	41	0	1157627904	60	4243
2026-01-22 00:51:03.22	204.39	22.72	-44.5	-45.6	21.4	0.00e+00	0	40	0	1158676480	60	4132
2026-01-22 00:51:04.23	204.40	22.57	-44.3	-45.4	21.5	0.00e+00	0	41	0	1160773632	60	4036
2026-01-22 00:51:05.24	204.41	22.43	-44.2	-45.3	21.6	0.00e+00	0	40	0	1162870784	60	4000
2026-01-22 00:51:06.25	204.43	22.28	-44.2	-45.3	21.7	0.00e+00	0	41	0	1164967936	60	3959
2026-01-22 00:51:07.25	204.44	22.14	-44.0	-45.1	21.8	0.00e+00	0	40	0	1167065088	60	3895
2026-01-22 00:51:08.26	204.45	21.99	-44.4	-45.5	21.8	0.00e+00	0	41	0	1168113664	59	4338
2026-01-22 00:51:09.27	204.46	21.85	-44.2	-45.3	21.9	0.00e+00	0	41	0	1170210816	59	4201
2026-01-22 00:51:10.28	204.47	21.71	-44.2	-45.3	21.9	0.00e+00	0	41	0	1172307968	59	4205
2026-01-22 00:51:11.28	204.48	21.57	-44.3	-45.4	21.8	0.00e+00	0	41	0	1174405120	59	4275
2026-01-22 00:51:12.29	204.49	21.43	-44.2	-45.3	21.9	0.00e+00	0	41	0	1176502272	59	4217
2026-01-22 00:51:13.30	204.51	21.29	-44.5	-45.7	21.6	0.00e+00	0	41	0	1177550848	59	4396
2026-01-22 00:51:14.31	204.52	21.15	-44.4	-45.5	21.5	0.00e+00	0	40	0	1179648000	60	4066
2026-01-22 00:51:15.32	204.53	21.01	-44.3	-45.5	21.4	0.00e+00	0	41	0	1181745152	60	4071
2026-01-22 00:51:16.32	204.54	20.88	-44.6	-45.8	21.2	0.00e+00	0	41	0	1183842304	60	4212
2026-01-22 00:51:17.33	204.55	20.74	-44.9	-46.1	20.9	0.00e+00	0	41	0	1185939456	60	4364
2026-01-22 00:51:18.34	204.56	20.60	-45.1	-46.4	20.7	0.00e+00	0	41	0	1186988032	60	4499
2026-01-22 00:51:19.35	204.57	20.47	-45.4	-46.7	20.4	0.00e+00	0	41	0	1189085184	61	4434
2026-01-22 00:51:20.36	204.58	20.33	-45.6	-47.0	20.1	0.00e+00	0	41	0	1191182336	62	4305
2026-01-22 00:51:21.37	204.59	20.20	-45.8	-47.2	19.9	0.00e+00	0	41	0	1193279488	62	4418
2026-01-22 00:51:22.37	204.60	20.07	-46.0	-47.4	19.7	0.00e+00	0	40	0	1195376640	62	4541
2026-01-22 00:51:23.38	204.61	19.94	-46.0	-47.5	19.7	0.00e+00	0	41	0	1196425216	62	4572
2026-01-22 00:51:24.39	204.62	19.80	-46.1	-47.6	19.6	0.00e+00	0	41	0	1198522368	62	4600
2026-01-22 00:51:25.40	204.63	19.67	-46.2	-47.8	19.4	0.00e+00	0	41	0	1200619520	63	4454
2026-01-22 00:51:26.41	204.64	19.54	-46.3	-47.9	19.3	0.00e+00	0	41	0	1202716672	63	4494
2026-01-22 00:51:27.41	204.65	19.42	-46.2	-47.7	19.4	0.00e+00	0	41	0	1204813824	63	4434
2026-01-22 00:51:28.42	204.66	19.29	-46.4	-48.0	19.1	0.00e+00	0	40	0	1205862400	63	4563
2026-01-22 00:51:29.43	204.67	19.16	-46.3	-47.8	19.3	0.00e+00	0	40	0	1207959552	63	4467
2026-01-22 00:51:30.44	204.68	19.03	-46.4	-48.0	19.1	0.00e+00	0	41	0	1210056704	63	4572
2026-01-22 00:51:31.45	204.69	18.90	-46.3	-47.9	19.2	0.00e+00	0	41	0	1212153856	63	4509
2026-01-22 00:51:32.45	204.70	18.78	-46.4	-48.0	19.2	0.00e+00	0	41	0	1214251008	63	4549
2026-01-22 00:51:33.46	204.71	18.65	-46.4	-48.0	19.1	0.00e+00	0	41	0	1215299584	63	4560
2026-01-22 00:51:34.47	204.72	18.53	-46.4	-48.0	19.0	0.00e+00	0	40	0	1217396736	64	4316
2026-01-22 00:51:35.48	204.73	18.40	-46.3	-47.9	19.1	0.00e+00	0	41	0	1219493888	64	4244
2026-01-22 00:51:36.49	204.74	18.28	-46.5	-48.1	18.9	0.00e+00	0	41	0	1221591040	64	4364
2026-01-22 00:51:37.49	204.75	18.16	-46.3	-47.8	19.2	0.00e+00	0	41	0	1223688192	64	4236
2026-01-22 00:51:38.50	204.76	18.04	-46.2	-47.7	19.3	0.00e+00	0	40	0	1224736768	64	4148
2026-01-22 00:51:39.51	204.77	17.91	-46.2	-47.7	19.3	0.00e+00	0	41	0	1226833920	64	4183
2026-01-22 00:51:40.52	204.78	17.79	-46.0	-47.5	19.5	0.00e+00	0	41	0	1228931072	64	4065
2026-01-22 00:51:41.52	204.79	17.67	-46.1	-47.5	19.4	0.00e+00	0	40	0	1231028224	64	4092
2026-01-22 00:51:42.53	204.80	17.55	-46.2	-47.7	19.3	0.00e+00	0	40	0	1233125376	64	4167
2026-01-22 00:51:43.54	204.81	17.43	-46.0	-47.4	19.5	0.00e+00	0	41	0	1234173952	64	4030
2026-01-22 00:51:44.55	204.82	17.31	-46.2	-47.6	19.4	0.00e+00	0	40	0	1236271104	63	4386
2026-01-22 00:51:45.56	204.83	17.20	-46.1	-47.5	19.5	0.00e+00	0	41	0	1238368256	63	4334
2026-01-22 00:51:46.57	204.84	17.08	-46.0	-47.4	19.6	0.00e+00	0	41	0	1240465408	63	4278
2026-01-22 00:51:47.57	204.85	16.96	-46.1	-47.5	19.5	0.00e+00	0	41	0	1242562560	63	4325
2026-01-22 00:51:48.58	204.86	16.84	-46.0	-47.4	19.6	0.00e+00	0	41	0	1243611136	63	4260
2026-01-22 00:51:49.59	204.87	16.73	-46.1	-47.5	19.5	0.00e+00	0	41	0	1245708288	63	4337
2026-01-22 00:51:50.60	204.88	16.61	-46.1	-47.5	19.5	0.00e+00	0	41	0	1247805440	63	4315
2026-01-22 00:51:51.60	204.89	16.50	-46.0	-47.4	19.5	0.00e+00	0	41	0	1249902592	63	4257
2026-01-22 00:51:52.61	204.89	16.38	-46.1	-47.6	19.5	0.00e+00	0	40	0	1251999744	63	4361
