passes_logs/2026/01/22/R3.2S_Murmansk/R3.2S_Murmansk__20260122_042042_NOAA_20_JPSS-1_rec.log

#Pass ID: 20260122_042042_NOAA 20 (JPSS-1)
#Satellite: NOAA 20 (JPSS-1)
#Configuration: NOAA 20
#almurnet v.1.7.20251203
#Start time: 2026-01-22 04:20:42

#Version: 2.2.20231116
#Station: R3.2S_Murmansk
#Location: 33.079688 lon 68.888172 lat
#TLE: 1 43013U 17073A   26021.46221703  .00000173  00000+0  10299-3 0  9999
#TLE: 2 43013  98.7644 322.3335 0001238  29.7597 330.3649 14.19538314423652

#Time	Az	El	Level	Level2	SNR	BER	BlckErr	Temp	State	Recorded	gain1	gain2
2026-01-22 04:20:42.61	51.07	2.00	-49.9	-64.9	3.8	1.49e+00	0	39	0	0	70	21348
2026-01-22 04:20:43.61	51.01	2.05	-49.9	-64.9	3.8	1.49e+00	0	39	104	0	70	21428
2026-01-22 04:20:44.62	50.95	2.11	-49.9	-64.9	3.8	1.49e+00	0	39	104	0	70	21383
2026-01-22 04:20:45.62	50.89	2.17	-49.9	-64.9	3.8	1.49e+00	0	39	104	0	70	21394
2026-01-22 04:20:46.63	50.82	2.23	-49.9	-64.9	3.8	1.49e+00	0	39	104	0	70	21406
2026-01-22 04:20:47.64	50.76	2.29	-49.9	-64.9	3.8	1.49e+00	0	39	104	0	70	21344
2026-01-22 04:20:48.65	50.70	2.34	-49.9	-64.9	3.8	1.49e+00	0	39	104	0	70	21333
2026-01-22 04:20:49.66	50.64	2.40	-49.9	-64.9	3.8	1.49e+00	0	39	104	0	70	21311
2026-01-22 04:20:50.67	50.57	2.46	-49.9	-64.9	3.8	1.49e+00	0	39	104	0	70	21330
2026-01-22 04:20:51.68	50.51	2.52	-49.9	-64.9	3.8	1.49e+00	0	39	104	0	70	21351
2026-01-22 04:20:52.69	50.44	2.58	-49.9	-64.9	3.8	1.49e+00	0	39	104	0	70	21326
2026-01-22 04:20:53.69	50.38	2.63	-49.9	-64.9	3.8	1.49e+00	0	39	104	0	70	21360
2026-01-22 04:20:54.70	50.31	2.69	-49.9	-64.9	3.8	1.49e+00	0	39	104	0	70	21349
2026-01-22 04:20:55.71	50.25	2.75	-49.9	-64.9	3.8	1.49e+00	0	39	104	0	70	21414
2026-01-22 04:20:56.72	50.18	2.81	-49.9	-64.9	3.8	1.49e+00	0	39	104	0	70	21359
2026-01-22 04:20:57.73	50.12	2.87	-49.9	-64.9	3.8	1.49e+00	0	39	104	0	70	21374
2026-01-22 04:20:58.73	50.05	2.93	-49.9	-64.9	3.8	1.49e+00	0	39	104	0	70	21323
2026-01-22 04:20:59.74	49.99	2.99	-49.9	-64.9	3.8	1.49e+00	0	39	104	0	70	21386
2026-01-22 04:21:00.75	49.92	3.05	-49.9	-64.9	3.8	1.49e+00	0	39	104	0	70	21345
2026-01-22 04:21:01.76	49.85	3.11	-49.9	-64.9	3.8	1.49e+00	0	39	104	0	70	21332
2026-01-22 04:21:02.76	49.79	3.16	-49.9	-64.9	3.8	1.49e+00	0	39	104	0	70	21382
2026-01-22 04:21:03.77	49.72	3.22	-49.9	-64.9	3.8	1.49e+00	0	39	104	0	70	21370
2026-01-22 04:21:04.78	49.65	3.28	-49.9	-64.9	3.8	1.49e+00	0	39	104	0	70	21372
2026-01-22 04:21:05.79	49.58	3.34	-49.9	-64.9	3.8	1.49e+00	0	39	104	0	70	21375
2026-01-22 04:21:06.80	49.51	3.40	-49.9	-64.9	3.8	1.49e+00	0	39	104	0	70	21309
2026-01-22 04:21:07.80	49.45	3.46	-49.9	-64.9	3.8	1.49e+00	0	39	104	0	70	21328
2026-01-22 04:21:08.81	49.38	3.52	-49.9	-64.9	3.8	1.49e+00	0	39	104	0	70	21324
2026-01-22 04:21:09.82	49.31	3.58	-49.9	-64.9	3.8	1.49e+00	0	40	104	0	70	21394
2026-01-22 04:21:10.83	49.24	3.64	-49.9	-64.9	3.8	1.49e+00	0	39	104	0	70	21360
2026-01-22 04:21:11.84	49.17	3.70	-49.9	-64.9	3.8	1.49e+00	0	40	104	0	70	21330
2026-01-22 04:21:12.85	49.10	3.76	-49.9	-64.9	3.8	1.49e+00	0	39	104	0	70	21367
2026-01-22 04:21:13.86	49.03	3.82	-49.9	-64.9	3.8	1.49e+00	0	40	104	0	70	21367
2026-01-22 04:21:14.87	48.96	3.88	-49.9	-64.9	3.8	1.49e+00	0	40	104	0	70	21296
2026-01-22 04:21:15.87	48.89	3.94	-49.9	-64.9	3.8	1.49e+00	0	39	104	0	70	21327
2026-01-22 04:21:16.88	48.82	4.00	-49.9	-64.9	3.8	1.49e+00	0	40	104	0	70	21339
2026-01-22 04:21:17.89	48.74	4.06	-49.9	-64.9	3.8	1.49e+00	0	40	104	0	70	21327
2026-01-22 04:21:18.90	48.67	4.13	-49.9	-64.9	3.8	1.49e+00	0	40	104	0	70	21315
2026-01-22 04:21:19.91	48.60	4.19	-49.9	-64.9	3.8	1.49e+00	0	40	104	0	70	21351
2026-01-22 04:21:20.91	48.53	4.25	-49.9	-64.9	3.8	1.49e+00	0	40	104	0	70	21350
2026-01-22 04:21:21.92	48.46	4.31	-49.9	-64.9	3.8	1.49e+00	0	40	104	0	70	21322
2026-01-22 04:21:22.93	48.38	4.37	-49.9	-64.9	3.8	1.49e+00	0	39	104	0	70	21317
2026-01-22 04:21:23.94	48.31	4.43	-49.9	-64.9	3.8	1.49e+00	0	39	104	0	70	21340
2026-01-22 04:21:24.95	48.24	4.49	-49.9	-64.9	3.8	1.49e+00	0	40	104	0	70	21348
2026-01-22 04:21:25.96	48.16	4.55	-49.9	-64.9	3.8	1.49e+00	0	40	104	0	70	21381
2026-01-22 04:21:26.97	48.09	4.61	-49.9	-64.9	3.8	1.49e+00	0	40	104	0	70	21367
2026-01-22 04:21:27.97	48.01	4.68	-49.9	-64.9	3.8	1.49e+00	0	40	104	0	70	21359
2026-01-22 04:21:28.98	47.94	4.74	-49.9	-64.9	3.8	1.49e+00	0	40	104	0	70	21382
2026-01-22 04:21:29.99	47.86	4.80	-49.9	-64.9	3.8	1.49e+00	0	40	104	0	70	21345
2026-01-22 04:21:31.00	47.79	4.86	-49.9	-64.9	3.8	1.49e+00	0	40	104	0	70	21390
2026-01-22 04:21:32.01	47.71	4.92	-49.9	-64.9	3.8	1.49e+00	0	40	104	0	70	21317
2026-01-22 04:21:33.01	47.63	4.98	-49.9	-64.9	3.8	1.49e+00	0	40	104	0	70	21306
2026-01-22 04:21:34.02	47.56	5.05	-49.9	-64.9	3.8	1.49e+00	0	40	104	0	70	21371
2026-01-22 04:21:35.03	47.48	5.11	-49.9	-64.9	3.8	1.49e+00	0	40	104	0	70	21358
2026-01-22 04:21:36.04	47.40	5.17	-49.9	-64.9	3.8	1.49e+00	0	40	104	0	70	21365
2026-01-22 04:21:37.05	47.33	5.23	-49.9	-64.9	3.8	1.49e+00	0	40	104	0	70	21339
2026-01-22 04:21:38.06	47.25	5.30	-49.9	-64.9	3.8	1.49e+00	0	40	104	0	70	21326
2026-01-22 04:21:39.07	47.17	5.36	-49.9	-64.9	3.8	1.49e+00	0	40	104	0	70	21375
2026-01-22 04:21:40.08	47.09	5.42	-49.9	-64.9	3.8	1.49e+00	0	40	104	0	70	21350
2026-01-22 04:21:41.09	47.01	5.49	-49.9	-64.9	3.8	1.49e+00	0	40	104	0	70	21422
2026-01-22 04:21:42.09	46.93	5.55	-49.9	-64.9	3.8	1.49e+00	0	40	104	0	70	21361
2026-01-22 04:21:43.10	46.85	5.61	-49.9	-64.9	3.8	1.49e+00	0	40	104	0	70	21350
2026-01-22 04:21:44.11	46.77	5.67	-49.9	-64.9	3.8	1.49e+00	0	40	104	0	70	21379
2026-01-22 04:21:45.12	46.69	5.74	-49.9	-64.9	3.8	1.49e+00	0	40	104	0	70	21387
2026-01-22 04:21:46.13	46.61	5.80	-49.9	-64.9	3.8	1.49e+00	0	40	104	0	70	21350
2026-01-22 04:21:47.13	46.53	5.86	-49.9	-64.9	3.8	1.49e+00	0	40	104	0	70	21319
2026-01-22 04:21:48.14	46.45	5.93	-49.9	-64.9	3.8	1.49e+00	0	40	104	0	70	21380
2026-01-22 04:21:49.15	46.36	5.99	-49.9	-64.9	3.8	1.49e+00	0	40	104	0	70	21331
2026-01-22 04:21:50.16	46.28	6.05	-49.9	-64.9	3.8	1.49e+00	0	40	104	0	70	21315
2026-01-22 04:21:51.17	46.20	6.12	-49.9	-64.9	3.8	1.49e+00	0	40	104	0	70	21351
2026-01-22 04:21:52.17	46.12	6.18	-49.9	-64.9	3.8	1.49e+00	0	40	104	0	70	21380
2026-01-22 04:21:53.18	46.03	6.25	-49.9	-64.9	3.8	1.49e+00	0	40	104	0	70	21399
2026-01-22 04:21:54.19	45.95	6.31	-49.9	-64.9	3.8	1.49e+00	0	40	104	0	70	21371
2026-01-22 04:21:55.20	45.86	6.37	-49.9	-64.9	3.8	1.49e+00	0	40	104	0	70	21407
2026-01-22 04:21:56.21	45.78	6.44	-49.9	-64.9	3.8	1.49e+00	0	40	104	0	70	21407
2026-01-22 04:21:57.22	45.69	6.50	-49.9	-64.9	3.8	1.49e+00	0	40	104	0	70	21334
2026-01-22 04:21:58.23	45.61	6.57	-49.9	-64.9	3.8	1.49e+00	0	40	104	0	70	21397
2026-01-22 04:21:59.23	45.52	6.63	-49.9	-64.9	3.8	1.49e+00	0	40	104	0	70	21335
2026-01-22 04:22:00.24	45.44	6.70	-49.9	-64.9	3.8	1.49e+00	0	40	104	0	70	21395
2026-01-22 04:22:01.25	45.35	6.76	-49.9	-64.9	3.8	1.49e+00	0	40	104	0	70	21394
2026-01-22 04:22:02.26	45.26	6.83	-49.9	-64.9	3.8	1.49e+00	0	40	104	0	70	21396
2026-01-22 04:22:03.27	45.18	6.89	-49.9	-64.9	3.8	1.49e+00	0	40	104	0	70	21414
2026-01-22 04:22:04.27	45.09	6.96	-49.9	-64.9	3.8	1.49e+00	0	40	104	0	70	21346
2026-01-22 04:22:05.28	45.00	7.02	-49.9	-64.9	3.8	1.49e+00	0	40	104	0	70	21385
2026-01-22 04:22:06.29	44.91	7.09	-49.9	-64.9	3.8	1.49e+00	0	40	104	0	70	21311
2026-01-22 04:22:07.30	44.82	7.15	-49.9	-64.9	3.8	1.49e+00	0	40	104	0	70	21344
2026-01-22 04:22:08.31	44.73	7.22	-50.0	-64.9	3.8	1.49e+00	0	40	104	0	70	21353
2026-01-22 04:22:09.31	44.64	7.28	-49.9	-64.9	3.8	1.49e+00	0	40	104	0	70	21380
2026-01-22 04:22:10.32	44.55	7.35	-50.0	-64.9	3.8	1.49e+00	0	40	104	0	70	21371
2026-01-22 04:22:11.33	44.46	7.41	-49.9	-64.9	3.8	1.49e+00	0	40	104	0	70	21375
2026-01-22 04:22:12.34	44.37	7.48	-49.9	-64.9	3.8	1.49e+00	0	40	104	0	70	21373
2026-01-22 04:22:13.35	44.28	7.55	-49.9	-64.9	3.8	1.49e+00	0	40	104	0	70	21388
2026-01-22 04:22:14.35	44.19	7.61	-49.9	-64.9	3.8	1.49e+00	0	40	104	0	70	21393
2026-01-22 04:22:15.36	44.09	7.68	-49.9	-64.9	3.8	1.49e+00	0	40	104	0	70	21396
2026-01-22 04:22:16.37	44.00	7.74	-49.9	-64.9	3.8	1.49e+00	0	40	104	0	70	21382
2026-01-22 04:22:17.38	43.91	7.81	-49.9	-64.9	3.8	1.49e+00	0	40	104	0	70	21335
2026-01-22 04:22:18.38	43.81	7.88	-49.9	-64.9	3.8	1.49e+00	0	40	104	0	70	21369
2026-01-22 04:22:19.39	43.72	7.94	-49.9	-64.9	3.8	1.49e+00	0	40	104	0	70	21372
2026-01-22 04:22:20.40	43.62	8.01	-49.9	-64.9	3.8	1.49e+00	0	40	104	0	70	21411
2026-01-22 04:22:21.41	43.53	8.08	-49.9	-64.9	3.8	1.49e+00	0	40	104	0	70	21397
2026-01-22 04:22:22.42	43.43	8.14	-49.9	-64.9	3.8	1.49e+00	0	41	104	0	70	21348
2026-01-22 04:22:23.42	43.34	8.21	-49.9	-64.9	3.8	1.49e+00	0	40	104	0	70	21366
2026-01-22 04:22:24.43	43.24	8.28	-49.9	-64.9	3.8	1.49e+00	0	40	104	0	70	21430
2026-01-22 04:22:25.44	43.14	8.34	-49.9	-64.9	3.8	1.49e+00	0	40	104	0	70	21396
2026-01-22 04:22:26.45	43.05	8.41	-49.9	-64.9	3.8	1.49e+00	0	40	104	0	70	21353
2026-01-22 04:22:27.46	42.95	8.48	-49.9	-64.9	3.8	1.49e+00	0	40	104	0	70	21366
2026-01-22 04:22:28.47	42.85	8.55	-49.9	-64.9	3.8	1.49e+00	0	40	104	0	70	21394
2026-01-22 04:22:29.47	42.75	8.61	-49.9	-64.9	3.8	1.49e+00	0	40	104	0	70	21331
2026-01-22 04:22:30.48	42.65	8.68	-49.9	-64.9	3.8	1.49e+00	0	40	104	0	70	21386
2026-01-22 04:22:31.49	42.55	8.75	-49.9	-64.9	3.8	1.49e+00	0	41	104	0	70	21365
2026-01-22 04:22:32.50	42.45	8.82	-49.9	-64.9	3.8	1.49e+00	0	40	104	0	70	21403
2026-01-22 04:22:33.51	42.35	8.88	-49.9	-64.9	3.8	1.49e+00	0	40	104	0	70	21392
2026-01-22 04:22:34.51	42.25	8.95	-49.9	-64.9	3.8	1.49e+00	0	40	104	0	70	21364
2026-01-22 04:22:35.52	42.15	9.02	-49.9	-64.9	3.8	1.49e+00	0	40	104	0	70	21418
2026-01-22 04:22:36.53	42.05	9.09	-49.9	-64.9	3.8	1.49e+00	0	41	104	0	70	21450
2026-01-22 04:22:37.54	41.94	9.16	-50.0	-64.9	3.8	1.49e+00	0	40	104	0	70	21342
2026-01-22 04:22:38.55	41.84	9.23	-49.9	-64.9	3.8	1.49e+00	0	40	104	0	70	21349
2026-01-22 04:22:39.55	41.74	9.29	-49.9	-64.9	3.8	1.49e+00	0	41	104	0	70	21389
2026-01-22 04:22:40.56	41.63	9.36	-49.9	-64.9	3.8	1.49e+00	0	40	104	0	70	21397
2026-01-22 04:22:41.57	41.53	9.43	-49.9	-64.9	3.8	1.49e+00	0	40	104	0	70	21348
2026-01-22 04:22:42.58	41.42	9.50	-49.9	-64.9	3.8	1.49e+00	0	41	104	0	70	21439
2026-01-22 04:22:43.58	41.32	9.57	-49.9	-64.9	3.8	1.49e+00	0	40	104	0	70	21426
2026-01-22 04:22:44.59	41.21	9.64	-49.9	-64.9	3.8	1.49e+00	0	40	104	0	70	21369
2026-01-22 04:22:45.60	41.10	9.71	-49.9	-64.9	3.8	1.49e+00	0	41	104	0	70	21411
2026-01-22 04:22:46.61	41.00	9.78	-49.9	-64.9	3.8	1.49e+00	0	40	104	0	70	21358
2026-01-22 04:22:47.61	40.89	9.84	-49.9	-64.9	3.8	1.49e+00	0	40	104	0	70	21369
2026-01-22 04:22:48.62	40.78	9.91	-49.9	-64.9	3.8	1.49e+00	0	40	104	0	70	21329
2026-01-22 04:22:49.63	40.67	9.98	-49.9	-64.9	3.8	1.49e+00	0	40	104	0	70	21380
2026-01-22 04:22:50.64	40.56	10.05	-49.9	-64.9	3.8	1.49e+00	0	40	104	0	70	21372
2026-01-22 04:22:51.65	40.45	10.12	-49.9	-64.9	3.8	1.49e+00	0	40	104	0	70	21387
2026-01-22 04:22:52.65	40.34	10.19	-49.9	-64.9	3.8	1.49e+00	0	40	104	0	70	21316
2026-01-22 04:22:53.67	40.23	10.26	-49.9	-64.9	3.8	1.49e+00	0	40	104	0	70	21420
2026-01-22 04:22:54.67	40.12	10.33	-49.9	-64.9	3.8	1.49e+00	0	41	104	0	70	21432
2026-01-22 04:22:55.68	40.01	10.40	-49.9	-64.9	3.8	1.49e+00	0	40	104	0	70	21390
2026-01-22 04:22:56.69	39.89	10.47	-49.9	-64.9	3.8	1.49e+00	0	40	104	0	70	21425
2026-01-22 04:22:57.70	39.78	10.54	-49.9	-64.9	3.8	1.49e+00	0	40	104	0	70	21331
2026-01-22 04:22:58.71	39.67	10.61	-49.9	-64.9	3.8	1.49e+00	0	40	104	0	70	21386
2026-01-22 04:22:59.71	39.55	10.68	-49.9	-64.9	3.8	1.49e+00	0	40	104	0	70	21351
2026-01-22 04:23:00.72	39.44	10.75	-49.9	-64.9	3.8	1.49e+00	0	40	104	0	70	21352
2026-01-22 04:23:01.73	39.32	10.82	-49.9	-64.9	3.8	1.49e+00	0	41	104	0	70	21420
2026-01-22 04:23:02.74	39.20	10.89	-50.0	-64.9	3.8	1.49e+00	0	40	104	0	70	21349
2026-01-22 04:23:03.75	39.09	10.96	-49.9	-64.9	3.8	1.49e+00	0	41	104	0	70	21404
2026-01-22 04:23:04.76	38.97	11.04	-50.0	-64.9	3.8	1.49e+00	0	40	104	0	70	21431
2026-01-22 04:23:05.77	38.85	11.11	-49.9	-64.9	3.8	1.49e+00	0	40	104	0	70	21418
2026-01-22 04:23:06.78	38.73	11.18	-49.9	-64.9	3.8	1.49e+00	0	40	104	0	70	21411
2026-01-22 04:23:07.78	38.62	11.25	-50.0	-64.9	3.8	1.49e+00	0	41	104	0	70	21418
2026-01-22 04:23:08.79	38.50	11.32	-49.9	-64.9	3.8	1.49e+00	0	41	104	0	70	21405
2026-01-22 04:23:09.80	38.38	11.39	-49.9	-64.9	3.8	1.49e+00	0	41	104	0	70	21344
2026-01-22 04:23:10.81	38.25	11.46	-49.9	-64.9	3.8	1.49e+00	0	40	104	0	70	21340
2026-01-22 04:23:11.82	38.13	11.53	-50.0	-64.9	3.8	1.49e+00	0	40	104	0	70	21371
2026-01-22 04:23:12.83	38.01	11.60	-49.9	-64.9	3.8	1.49e+00	0	41	104	0	70	21386
2026-01-22 04:23:13.83	37.89	11.68	-50.0	-64.9	3.8	1.49e+00	0	40	104	0	70	21350
2026-01-22 04:23:14.84	37.77	11.75	-49.9	-64.9	3.8	1.49e+00	0	41	104	0	70	21453
2026-01-22 04:23:15.85	37.64	11.82	-49.9	-64.9	3.8	1.49e+00	0	41	104	0	70	21401
2026-01-22 04:23:16.86	37.52	11.89	-50.0	-64.9	3.8	1.49e+00	0	40	104	0	70	21403
2026-01-22 04:23:17.86	37.39	11.96	-49.9	-64.9	3.8	1.49e+00	0	41	104	0	70	21397
2026-01-22 04:23:18.87	37.27	12.03	-49.9	-64.9	3.8	1.49e+00	0	40	104	0	70	21375
2026-01-22 04:23:19.88	37.14	12.11	-49.9	-64.9	3.8	1.49e+00	0	40	104	0	70	21417
2026-01-22 04:23:20.89	37.01	12.18	-50.0	-64.9	3.8	1.49e+00	0	40	104	0	70	21443
2026-01-22 04:23:21.90	36.88	12.25	-49.9	-64.9	3.8	1.49e+00	0	40	104	0	70	21386
2026-01-22 04:23:22.90	36.76	12.32	-49.9	-64.9	3.8	1.49e+00	0	41	104	0	70	21420
2026-01-22 04:23:23.91	36.63	12.39	-49.9	-64.9	3.8	1.49e+00	0	40	104	0	70	21409
2026-01-22 04:23:24.92	36.50	12.47	-50.0	-64.9	3.8	1.49e+00	0	40	104	0	70	21363
2026-01-22 04:23:25.93	36.37	12.54	-49.9	-64.9	3.8	1.49e+00	0	41	104	0	70	21380
2026-01-22 04:23:26.94	36.24	12.61	-49.9	-64.9	3.8	1.49e+00	0	41	104	0	70	21388
2026-01-22 04:23:27.94	36.11	12.68	-49.9	-64.9	3.8	1.49e+00	0	40	104	0	70	21360
2026-01-22 04:23:28.95	35.97	12.76	-49.9	-64.9	3.8	1.49e+00	0	41	104	0	70	21317
2026-01-22 04:23:29.96	35.84	12.83	-49.9	-64.9	3.8	1.49e+00	0	41	104	0	70	21425
2026-01-22 04:23:30.97	35.71	12.90	-49.9	-64.9	3.8	1.49e+00	0	41	104	0	70	21397
2026-01-22 04:23:31.98	35.57	12.97	-49.9	-64.9	3.8	1.49e+00	0	41	104	0	70	21413
2026-01-22 04:23:32.99	35.44	13.05	-49.9	-64.9	3.8	1.49e+00	0	41	104	0	70	21344
2026-01-22 04:23:33.99	35.30	13.12	-50.0	-64.9	3.8	1.49e+00	0	41	104	0	70	21433
2026-01-22 04:23:35.00	35.17	13.19	-49.9	-64.9	3.8	1.49e+00	0	41	104	0	70	21357
2026-01-22 04:23:36.01	35.03	13.27	-50.0	-64.9	3.8	1.49e+00	0	40	104	0	70	21452
2026-01-22 04:23:37.02	34.89	13.34	-49.9	-64.9	3.8	1.49e+00	0	40	104	0	70	21384
2026-01-22 04:23:38.03	34.75	13.41	-49.9	-64.9	3.8	1.49e+00	0	41	104	0	70	21402
2026-01-22 04:23:39.03	34.61	13.48	-49.9	-64.9	3.8	1.49e+00	0	40	104	0	70	21370
2026-01-22 04:23:40.04	34.47	13.56	-50.0	-64.9	3.8	1.49e+00	0	41	104	0	70	21366
2026-01-22 04:23:41.05	34.33	13.63	-49.9	-64.9	3.8	1.49e+00	0	41	104	0	70	21424
2026-01-22 04:23:42.06	34.19	13.70	-49.9	-64.9	3.8	1.49e+00	0	40	104	0	70	21425
2026-01-22 04:23:43.07	34.05	13.78	-50.0	-64.9	3.8	1.49e+00	0	41	104	0	70	21420
2026-01-22 04:23:44.07	33.91	13.85	-49.9	-64.9	3.8	1.49e+00	0	40	104	0	70	21385
2026-01-22 04:23:45.08	33.76	13.92	-49.9	-64.9	3.8	1.49e+00	0	41	104	0	70	21389
2026-01-22 04:23:46.09	33.62	14.00	-49.9	-64.9	3.8	1.49e+00	0	40	104	0	70	21370
2026-01-22 04:23:47.10	33.48	14.07	-49.9	-64.9	3.8	1.49e+00	0	41	104	0	70	21379
2026-01-22 04:23:48.11	33.33	14.14	-49.9	-64.9	3.8	1.49e+00	0	41	104	0	70	21356
2026-01-22 04:23:49.11	33.18	14.22	-49.9	-64.9	3.8	1.49e+00	0	40	104	0	70	21339
2026-01-22 04:23:50.13	33.04	14.29	-49.9	-64.9	3.8	1.49e+00	0	40	104	0	70	21346
2026-01-22 04:23:51.13	32.89	14.36	-50.0	-64.9	3.8	1.49e+00	0	41	104	0	70	21439
2026-01-22 04:23:52.14	32.74	14.44	-49.9	-64.9	3.8	1.49e+00	0	41	104	0	70	21399
2026-01-22 04:23:53.15	32.59	14.51	-49.9	-64.9	3.8	1.49e+00	0	41	104	0	70	21365
2026-01-22 04:23:54.16	32.44	14.59	-49.9	-64.9	3.8	1.49e+00	0	41	104	0	70	21421
2026-01-22 04:23:55.17	32.29	14.66	-49.9	-64.9	3.8	1.49e+00	0	40	104	0	70	21434
2026-01-22 04:23:56.18	32.14	14.73	-50.0	-64.9	3.8	1.49e+00	0	41	104	0	70	21418
2026-01-22 04:23:57.19	31.99	14.81	-49.9	-64.9	3.8	1.49e+00	0	40	104	0	70	21362
2026-01-22 04:23:58.19	31.83	14.88	-50.0	-64.9	3.8	1.49e+00	0	40	104	0	70	21462
2026-01-22 04:23:59.20	31.68	14.95	-49.9	-64.9	3.8	1.49e+00	0	41	104	0	70	21376
2026-01-22 04:24:00.21	31.52	15.03	-49.9	-64.9	3.8	1.49e+00	0	40	104	0	70	21390
2026-01-22 04:24:01.22	31.37	15.10	-49.9	-64.9	3.8	1.49e+00	0	41	104	0	70	21373
2026-01-22 04:24:02.22	31.21	15.17	-50.0	-64.9	3.8	1.49e+00	0	41	104	0	70	21456
2026-01-22 04:24:03.23	31.06	15.25	-49.9	-64.9	3.8	1.49e+00	0	41	104	0	70	21424
2026-01-22 04:24:04.24	30.90	15.32	-49.9	-64.9	3.8	1.49e+00	0	40	104	0	70	21398
2026-01-22 04:24:05.25	30.74	15.40	-49.9	-64.9	3.8	1.49e+00	0	40	104	0	70	21402
2026-01-22 04:24:06.26	30.58	15.47	-50.0	-64.9	3.8	1.49e+00	0	41	104	0	70	21405
2026-01-22 04:24:07.27	30.42	15.54	-50.0	-64.9	3.8	1.49e+00	0	41	104	0	70	21407
2026-01-22 04:24:08.27	30.26	15.62	-50.0	-64.9	3.8	1.49e+00	0	41	104	0	70	21462
2026-01-22 04:24:09.28	30.10	15.69	-49.9	-64.9	3.8	1.49e+00	0	41	104	0	70	21408
2026-01-22 04:24:10.29	29.93	15.76	-49.9	-64.9	3.8	1.49e+00	0	41	104	0	70	21348
2026-01-22 04:24:11.30	29.77	15.84	-50.0	-64.9	3.8	1.49e+00	0	41	104	0	70	21421
2026-01-22 04:24:12.30	29.61	15.91	-50.0	-64.9	3.8	1.49e+00	0	41	104	0	70	21413
2026-01-22 04:24:13.31	29.44	15.99	-49.9	-64.9	3.8	1.49e+00	0	41	104	0	70	21304
2026-01-22 04:24:14.32	29.28	16.06	-50.0	-64.9	3.8	1.49e+00	0	40	104	0	70	21443
2026-01-22 04:24:15.33	29.11	16.13	-49.9	-64.9	3.8	1.49e+00	0	41	104	0	70	21376
2026-01-22 04:24:16.34	28.94	16.21	-49.9	-64.9	3.8	1.49e+00	0	41	104	0	70	21385
2026-01-22 04:24:17.35	28.77	16.28	-49.9	-64.9	3.8	1.49e+00	0	41	104	0	70	21432
2026-01-22 04:24:18.35	28.61	16.35	-50.0	-64.9	3.8	1.49e+00	0	41	104	0	70	21408
2026-01-22 04:24:19.36	28.44	16.43	-49.9	-64.9	3.8	1.49e+00	0	41	104	0	70	21356
2026-01-22 04:24:20.37	28.26	16.50	-49.9	-64.9	3.8	1.49e+00	0	41	104	0	70	21413
2026-01-22 04:24:21.38	28.09	16.57	-50.0	-64.9	3.8	1.49e+00	0	41	104	0	70	21333
2026-01-22 04:24:22.39	27.92	16.65	-49.9	-64.9	3.8	1.49e+00	0	41	104	0	70	21407
2026-01-22 04:24:23.39	27.75	16.72	-50.0	-64.9	3.8	1.49e+00	0	41	104	0	70	21367
2026-01-22 04:24:24.40	27.57	16.79	-50.0	-64.9	3.8	1.49e+00	0	41	104	0	70	21406
2026-01-22 04:24:25.41	27.40	16.87	-49.9	-64.9	3.8	1.49e+00	0	41	104	0	70	21425
2026-01-22 04:24:26.42	27.22	16.94	-50.0	-64.9	3.8	1.49e+00	0	41	104	0	70	21427
2026-01-22 04:24:27.43	27.04	17.01	-49.9	-64.9	3.8	1.49e+00	0	41	104	0	70	21432
2026-01-22 04:24:28.43	26.87	17.09	-50.0	-64.9	3.8	1.49e+00	0	41	104	0	70	21362
2026-01-22 04:24:29.44	26.69	17.16	-50.0	-64.9	3.8	1.49e+00	0	41	104	0	70	21402
2026-01-22 04:24:30.45	26.51	17.23	-50.0	-64.9	3.8	1.49e+00	0	41	104	0	70	21380
2026-01-22 04:24:31.46	26.33	17.30	-50.0	-64.9	3.8	1.49e+00	0	41	104	0	70	21397
2026-01-22 04:24:32.46	26.15	17.38	-50.0	-64.9	3.8	1.49e+00	0	41	104	0	70	21372
2026-01-22 04:24:33.47	25.96	17.45	-50.0	-64.9	3.8	1.49e+00	0	41	104	0	70	21411
2026-01-22 04:24:34.48	25.78	17.52	-50.0	-64.9	3.8	1.49e+00	0	41	104	0	70	21398
2026-01-22 04:24:35.49	25.60	17.59	-50.0	-64.9	3.8	1.49e+00	0	40	104	0	70	21392
2026-01-22 04:24:36.50	25.41	17.67	-50.0	-64.9	3.8	1.49e+00	0	41	104	0	70	21357
2026-01-22 04:24:37.51	25.23	17.74	-50.0	-64.9	3.8	1.49e+00	0	41	104	0	70	21334
2026-01-22 04:24:38.51	25.04	17.81	-50.0	-64.9	3.8	1.49e+00	0	41	104	0	70	21432
2026-01-22 04:24:39.52	24.85	17.88	-49.9	-64.9	3.8	1.49e+00	0	41	104	0	70	21435
2026-01-22 04:24:40.53	24.66	17.96	-50.0	-64.9	3.8	1.49e+00	0	40	104	0	70	21369
2026-01-22 04:24:41.54	24.47	18.03	-49.9	-64.9	3.8	1.49e+00	0	41	104	0	70	21361
2026-01-22 04:24:42.55	24.28	18.10	-49.9	-64.9	3.8	1.49e+00	0	41	104	0	70	21384
2026-01-22 04:24:43.55	24.09	18.17	-50.0	-64.9	3.8	1.49e+00	0	41	104	0	70	21404
2026-01-22 04:24:44.56	23.90	18.24	-50.0	-64.9	3.8	1.49e+00	0	41	104	0	70	21396
2026-01-22 04:24:45.57	23.71	18.31	-50.0	-64.9	3.8	1.49e+00	0	41	104	0	70	21421
2026-01-22 04:24:46.58	23.51	18.38	-49.9	-64.9	3.8	1.49e+00	0	41	104	0	70	21405
2026-01-22 04:24:47.59	23.32	18.46	-50.0	-64.9	3.8	1.49e+00	0	41	104	0	70	21442
2026-01-22 04:24:48.59	23.12	18.53	-50.0	-64.9	3.8	1.49e+00	0	40	104	0	70	21436
2026-01-22 04:24:49.60	22.93	18.60	-49.9	-64.9	3.8	1.49e+00	0	41	104	0	70	21439
2026-01-22 04:24:50.61	22.73	18.67	-50.0	-64.9	3.8	1.49e+00	0	40	104	0	70	21402
2026-01-22 04:24:51.62	22.53	18.74	-50.0	-64.9	3.8	1.49e+00	0	41	104	0	70	21441
2026-01-22 04:24:52.63	22.33	18.81	-50.0	-64.9	3.8	1.49e+00	0	41	104	0	70	21413
2026-01-22 04:24:53.63	22.13	18.88	-50.0	-64.9	3.8	1.49e+00	0	41	104	0	70	21364
2026-01-22 04:24:54.64	21.93	18.95	-50.0	-64.9	3.8	1.49e+00	0	41	104	0	70	21393
2026-01-22 04:24:55.65	21.73	19.02	-50.0	-64.9	3.8	1.49e+00	0	40	104	0	70	21432
2026-01-22 04:24:56.66	21.52	19.09	-49.9	-64.9	3.8	1.49e+00	0	41	104	0	70	21433
2026-01-22 04:24:57.67	21.32	19.16	-49.9	-64.9	3.8	1.49e+00	0	40	104	0	70	21385
2026-01-22 04:24:58.67	21.11	19.23	-50.0	-64.9	3.8	1.49e+00	0	40	104	0	70	21428
2026-01-22 04:24:59.68	20.91	19.30	-50.0	-64.9	3.8	1.49e+00	0	41	104	0	70	21389
2026-01-22 04:25:00.69	20.70	19.36	-49.9	-64.9	3.8	1.49e+00	0	41	104	0	70	21415
2026-01-22 04:25:01.69	20.49	19.43	-49.9	-64.9	3.8	1.49e+00	0	41	104	0	70	21379
2026-01-22 04:25:02.70	20.28	19.50	-49.9	-64.9	3.8	1.49e+00	0	41	104	0	70	21415
2026-01-22 04:25:03.71	20.07	19.57	-49.9	-64.9	3.8	1.49e+00	0	41	104	0	70	21462
2026-01-22 04:25:04.72	19.86	19.64	-49.9	-64.9	3.8	1.49e+00	0	40	104	0	70	21354
2026-01-22 04:25:05.73	19.65	19.70	-49.9	-64.9	3.8	1.49e+00	0	41	104	0	70	21369
2026-01-22 04:25:06.73	19.44	19.77	-49.9	-64.9	3.8	1.49e+00	0	41	104	0	70	21416
2026-01-22 04:25:07.74	19.23	19.84	-50.0	-64.9	3.8	1.49e+00	0	41	104	0	70	21394
2026-01-22 04:25:08.75	19.01	19.91	-50.0	-64.9	3.8	1.49e+00	0	41	104	0	70	21379
2026-01-22 04:25:09.76	18.79	19.97	-50.0	-64.9	3.8	1.49e+00	0	40	104	0	70	21384
2026-01-22 04:25:10.77	18.58	20.04	-49.9	-64.9	3.8	1.49e+00	0	40	104	0	70	21391
2026-01-22 04:25:11.77	18.36	20.11	-49.9	-64.9	3.8	1.49e+00	0	41	104	0	70	21425
2026-01-22 04:25:12.78	18.14	20.17	-49.9	-64.9	3.8	1.49e+00	0	41	104	0	70	21377
2026-01-22 04:25:13.79	17.92	20.24	-49.9	-64.9	3.8	1.49e+00	0	41	104	0	70	21398
2026-01-22 04:25:14.80	17.70	20.30	-49.9	-64.9	3.8	1.49e+00	0	41	104	0	70	21436
2026-01-22 04:25:15.81	17.48	20.37	-49.9	-64.9	3.8	1.49e+00	0	41	104	0	70	21347
2026-01-22 04:25:16.81	17.26	20.43	-49.9	-64.9	3.8	1.49e+00	0	41	104	0	70	21376
2026-01-22 04:25:17.82	17.04	20.50	-49.9	-64.9	3.8	1.49e+00	0	41	104	0	70	21354
2026-01-22 04:25:18.83	16.81	20.56	-49.9	-64.9	3.8	1.49e+00	0	41	104	0	70	21403
2026-01-22 04:25:19.84	16.59	20.63	-50.0	-64.9	3.8	1.49e+00	0	41	104	0	70	21396
2026-01-22 04:25:20.85	16.36	20.69	-50.0	-64.9	3.8	1.49e+00	0	41	104	0	70	21392
2026-01-22 04:25:21.85	16.13	20.75	-50.0	-64.9	3.8	1.49e+00	0	41	104	0	70	21402
2026-01-22 04:25:22.86	15.91	20.82	-49.9	-64.9	3.8	1.49e+00	0	41	104	0	70	21432
2026-01-22 04:25:23.87	15.68	20.88	-50.0	-64.9	3.8	1.49e+00	0	41	104	0	70	21411
2026-01-22 04:25:24.88	15.45	20.94	-50.0	-64.9	3.8	1.49e+00	0	41	104	0	70	21368
2026-01-22 04:25:25.89	15.22	21.00	-49.9	-64.9	3.8	1.49e+00	0	41	104	0	70	21392
2026-01-22 04:25:26.90	14.98	21.07	-50.0	-64.9	3.8	1.49e+00	0	41	104	0	70	21421
2026-01-22 04:25:27.91	14.75	21.13	-50.0	-64.9	3.8	1.49e+00	0	41	104	0	70	21391
2026-01-22 04:25:28.91	14.52	21.19	-50.0	-64.9	3.8	1.49e+00	0	41	104	0	70	21390
2026-01-22 04:25:29.92	14.28	21.25	-50.0	-64.9	3.8	1.49e+00	0	41	104	0	70	21399
2026-01-22 04:25:30.93	14.05	21.31	-50.0	-64.9	3.8	1.49e+00	0	41	104	0	70	21407
2026-01-22 04:25:31.94	13.81	21.37	-50.0	-64.9	3.8	1.49e+00	0	41	104	0	70	21456
2026-01-22 04:25:32.95	13.57	21.43	-50.0	-64.9	3.8	1.49e+00	0	41	104	0	70	21411
2026-01-22 04:25:33.95	13.34	21.49	-50.0	-64.9	3.8	1.49e+00	0	41	104	0	70	21419
2026-01-22 04:25:34.96	13.10	21.55	-50.0	-64.9	3.8	1.49e+00	0	41	104	0	70	21416
2026-01-22 04:25:35.97	12.86	21.60	-49.9	-64.9	3.8	1.49e+00	0	41	104	0	70	21365
2026-01-22 04:25:36.98	12.62	21.66	-50.0	-64.9	3.8	1.49e+00	0	41	104	0	70	21452
2026-01-22 04:25:37.99	12.37	21.72	-49.9	-64.9	3.8	1.49e+00	0	41	104	0	70	21465
2026-01-22 04:25:39.00	12.13	21.78	-49.9	-64.9	3.8	1.49e+00	0	41	104	0	70	21437
2026-01-22 04:25:40.01	11.89	21.83	-50.0	-64.9	3.8	1.49e+00	0	41	104	0	70	21397
2026-01-22 04:25:41.02	11.64	21.89	-50.0	-64.9	3.8	1.49e+00	0	41	104	0	70	21437
2026-01-22 04:25:42.03	11.39	21.95	-49.9	-64.9	3.8	1.49e+00	0	40	104	0	70	21330
2026-01-22 04:25:43.03	11.15	22.00	-50.0	-64.9	3.8	1.49e+00	0	41	104	0	70	21412
2026-01-22 04:25:44.04	10.90	22.06	-50.0	-64.9	3.8	1.49e+00	0	41	104	0	70	21379
2026-01-22 04:25:45.05	10.65	22.11	-49.9	-64.9	3.8	1.49e+00	0	41	104	0	70	21382
2026-01-22 04:25:46.06	10.40	22.16	-50.0	-64.9	3.8	1.49e+00	0	41	104	0	70	21354
2026-01-22 04:25:47.07	10.15	22.22	-49.9	-64.9	3.8	1.49e+00	0	41	104	0	70	21391
2026-01-22 04:25:48.07	9.91	22.27	-50.0	-64.9	3.8	1.49e+00	0	41	104	0	70	21380
2026-01-22 04:25:49.08	9.65	22.32	-49.9	-64.9	3.8	1.49e+00	0	41	104	0	70	21383
2026-01-22 04:25:50.09	9.40	22.37	-49.9	-64.9	3.8	1.49e+00	0	41	104	0	70	21379
2026-01-22 04:25:51.10	9.15	22.43	-50.0	-64.9	3.8	1.49e+00	0	41	104	0	70	21430
2026-01-22 04:25:52.11	8.89	22.48	-49.9	-64.9	3.8	1.49e+00	0	41	104	0	70	21337
2026-01-22 04:25:53.12	8.64	22.53	-50.0	-64.9	3.8	1.49e+00	0	41	104	0	70	21419
2026-01-22 04:25:54.12	8.38	22.58	-50.0	-64.9	3.8	1.49e+00	0	41	104	0	70	21451
2026-01-22 04:25:55.13	8.13	22.63	-49.9	-64.9	3.8	1.49e+00	0	41	104	0	70	21403
2026-01-22 04:25:56.14	7.87	22.68	-49.9	-64.9	3.8	1.49e+00	0	41	104	0	70	21381
2026-01-22 04:25:57.15	7.61	22.73	-50.0	-64.9	3.8	1.49e+00	0	41	104	0	70	21342
2026-01-22 04:25:58.16	7.35	22.77	-50.0	-64.9	3.8	1.49e+00	0	41	104	0	70	21397
2026-01-22 04:25:59.17	7.09	22.82	-50.0	-64.9	3.8	1.49e+00	0	41	104	0	70	21346
2026-01-22 04:26:00.18	6.83	22.87	-50.0	-64.9	3.8	1.49e+00	0	41	104	0	70	21412
2026-01-22 04:26:01.19	6.57	22.91	-49.9	-64.9	3.8	1.49e+00	0	41	104	0	70	21424
2026-01-22 04:26:02.19	6.31	22.96	-50.0	-64.9	3.8	1.49e+00	0	41	104	0	70	21395
2026-01-22 04:26:03.20	6.04	23.00	-49.9	-64.9	3.8	1.49e+00	0	41	104	0	70	21394
2026-01-22 04:26:04.21	5.78	23.05	-49.9	-64.9	3.8	1.49e+00	0	41	104	0	70	21353
2026-01-22 04:26:05.22	5.51	23.09	-49.9	-64.9	3.8	1.49e+00	0	41	104	0	70	21458
2026-01-22 04:26:06.23	5.25	23.14	-50.0	-64.9	3.8	1.49e+00	0	41	104	0	70	21404
2026-01-22 04:26:07.23	4.98	23.18	-50.0	-64.9	3.8	1.49e+00	0	41	104	0	70	21375
2026-01-22 04:26:08.24	4.72	23.22	-50.0	-64.9	3.8	1.49e+00	0	41	104	0	70	21394
2026-01-22 04:26:09.25	4.45	23.26	-50.0	-64.9	3.8	1.49e+00	0	41	104	0	70	21429
2026-01-22 04:26:10.26	4.18	23.30	-49.9	-64.9	3.8	1.49e+00	0	41	104	0	70	21355
2026-01-22 04:26:11.27	3.91	23.34	-49.9	-64.9	3.8	1.49e+00	0	41	104	0	70	21405
2026-01-22 04:26:12.28	3.64	23.38	-49.9	-64.9	3.8	1.49e+00	0	41	104	0	70	21383
2026-01-22 04:26:13.29	3.37	23.42	-49.9	-64.9	3.8	1.49e+00	0	41	104	0	70	21380
2026-01-22 04:26:14.30	3.10	23.46	-50.0	-64.9	3.8	1.49e+00	0	41	104	0	70	21372
2026-01-22 04:26:15.30	2.83	23.50	-50.0	-64.9	3.8	1.49e+00	0	41	104	0	70	21405
2026-01-22 04:26:16.31	2.56	23.54	-50.0	-64.9	3.8	1.49e+00	0	41	104	0	70	21429
2026-01-22 04:26:17.32	2.28	23.57	-50.0	-64.9	3.8	1.49e+00	0	41	104	0	70	21382
2026-01-22 04:26:18.33	2.01	23.61	-50.0	-64.9	3.8	1.49e+00	0	41	104	0	70	21366
2026-01-22 04:26:19.34	1.73	23.64	-50.0	-64.9	3.8	1.49e+00	0	41	104	0	70	21400
2026-01-22 04:26:20.35	1.46	23.68	-49.9	-64.9	3.8	1.49e+00	0	41	104	0	70	21411
2026-01-22 04:26:21.36	1.18	23.71	-50.0	-64.9	3.8	1.49e+00	0	41	104	0	70	21429
2026-01-22 04:26:22.37	0.91	23.75	-49.9	-64.9	3.8	1.49e+00	0	41	104	0	70	21411
2026-01-22 04:26:23.37	0.63	23.78	-50.0	-64.9	3.8	1.49e+00	0	41	104	0	70	21397
2026-01-22 04:26:24.38	0.35	23.81	-50.0	-64.9	3.8	1.49e+00	0	41	104	0	70	21366
2026-01-22 04:26:25.39	0.07	23.84	-49.9	-64.9	3.8	1.49e+00	0	41	104	0	70	21451
2026-01-22 04:26:26.40	359.80	23.87	-50.0	-64.9	3.8	1.49e+00	0	41	104	0	70	21430
2026-01-22 04:26:27.41	359.52	23.90	-50.0	-64.9	3.8	1.49e+00	0	41	104	0	70	21389
2026-01-22 04:26:28.41	359.24	23.93	-50.0	-64.9	3.8	1.49e+00	0	41	104	0	70	21430
2026-01-22 04:26:29.42	358.96	23.96	-50.0	-64.9	3.8	1.49e+00	0	41	104	0	70	21443
2026-01-22 04:26:30.43	358.68	23.99	-50.0	-64.9	3.8	1.49e+00	0	41	104	0	70	21407
2026-01-22 04:26:31.44	358.40	24.01	-50.0	-64.9	3.8	1.49e+00	0	41	104	0	70	21430
2026-01-22 04:26:32.45	358.11	24.04	-50.0	-64.9	3.8	1.49e+00	0	41	104	0	70	21413
2026-01-22 04:26:33.46	357.83	24.07	-50.0	-64.9	3.8	1.49e+00	0	41	104	0	70	21418
2026-01-22 04:26:34.47	357.55	24.09	-49.9	-64.9	3.8	1.49e+00	0	41	104	0	70	21339
2026-01-22 04:26:35.47	357.27	24.11	-50.0	-64.9	3.8	1.49e+00	0	41	104	0	70	21379
2026-01-22 04:26:36.48	356.99	24.14	-50.0	-64.9	3.8	1.49e+00	0	41	104	0	70	21392
2026-01-22 04:26:37.49	356.70	24.16	-49.9	-64.9	3.8	1.49e+00	0	40	104	0	70	21376
2026-01-22 04:26:38.50	356.42	24.18	-50.0	-64.9	3.8	1.49e+00	0	41	104	0	70	21479
2026-01-22 04:26:39.51	356.13	24.20	-50.0	-64.9	3.8	1.49e+00	0	41	104	0	70	21435
2026-01-22 04:26:40.52	355.85	24.22	-49.9	-64.9	3.8	1.49e+00	0	40	104	0	70	21382
2026-01-22 04:26:41.53	355.56	24.24	-50.0	-64.9	3.8	1.49e+00	0	41	104	0	70	21385
2026-01-22 04:26:42.54	355.28	24.26	-49.9	-64.9	3.8	1.49e+00	0	41	104	0	70	21381
2026-01-22 04:26:43.55	354.99	24.28	-50.0	-64.9	3.8	1.49e+00	0	41	104	0	70	21410
2026-01-22 04:26:44.55	354.71	24.30	-50.0	-64.9	3.8	1.49e+00	0	41	104	0	70	21402
2026-01-22 04:26:45.56	354.42	24.31	-50.0	-64.9	3.8	1.49e+00	0	41	104	0	70	21366
2026-01-22 04:26:46.57	354.13	24.33	-50.0	-64.9	3.8	1.49e+00	0	41	104	0	70	21440
2026-01-22 04:26:47.58	353.84	24.34	-49.9	-64.9	3.8	1.49e+00	0	41	104	0	70	21430
2026-01-22 04:26:48.59	353.56	24.36	-50.0	-64.9	3.8	1.49e+00	0	41	104	0	70	21435
2026-01-22 04:26:49.60	353.27	24.37	-50.0	-64.9	3.8	1.49e+00	0	41	104	0	70	21382
2026-01-22 04:26:50.61	352.98	24.38	-50.0	-64.9	3.8	1.49e+00	0	41	104	0	70	21398
2026-01-22 04:26:51.61	352.69	24.40	-49.9	-64.9	3.8	1.49e+00	0	41	104	0	70	21425
2026-01-22 04:26:52.62	352.40	24.41	-50.0	-64.9	3.8	1.49e+00	0	41	104	0	70	21414
2026-01-22 04:26:53.63	352.12	24.42	-49.9	-64.9	3.8	1.49e+00	0	41	104	0	70	21350
2026-01-22 04:26:54.64	351.83	24.43	-49.9	-64.9	3.8	1.49e+00	0	41	104	0	70	21412
2026-01-22 04:26:55.65	351.54	24.43	-49.9	-64.9	3.8	1.49e+00	0	41	104	0	70	21366
2026-01-22 04:26:56.66	351.25	24.44	-50.0	-64.9	3.8	1.49e+00	0	41	104	0	70	21388
2026-01-22 04:26:57.67	350.96	24.45	-49.9	-64.9	3.8	1.49e+00	0	41	104	0	70	21386
2026-01-22 04:26:58.68	350.67	24.46	-50.0	-64.9	3.8	1.49e+00	0	41	104	0	70	21359
2026-01-22 04:26:59.69	350.38	24.46	-49.9	-64.9	3.8	1.49e+00	0	40	104	0	70	21403
2026-01-22 04:27:00.70	350.09	24.47	-50.0	-64.9	3.8	1.49e+00	0	41	104	0	70	21391
2026-01-22 04:27:01.71	349.80	24.47	-50.0	-64.9	3.8	1.49e+00	0	41	104	0	70	21376
2026-01-22 04:27:02.71	349.51	24.47	-49.9	-64.9	3.8	1.49e+00	0	41	104	0	70	21375
2026-01-22 04:27:03.72	349.22	24.48	-49.9	-64.9	3.8	1.49e+00	0	41	104	0	70	21391
2026-01-22 04:27:04.73	348.93	24.48	-50.0	-64.9	3.8	1.49e+00	0	41	104	0	70	21406
2026-01-22 04:27:05.74	348.64	24.48	-50.0	-64.9	3.8	1.49e+00	0	41	104	0	70	21405
2026-01-22 04:27:06.75	348.35	24.48	-50.0	-64.9	3.8	1.49e+00	0	41	104	0	70	21389
2026-01-22 04:27:07.76	348.06	24.48	-49.9	-64.9	3.8	1.49e+00	0	41	104	0	70	21405
2026-01-22 04:27:08.77	347.77	24.47	-50.0	-64.9	3.8	1.49e+00	0	41	104	0	70	21397
2026-01-22 04:27:09.77	347.48	24.47	-49.9	-64.9	3.8	1.49e+00	0	41	104	0	70	21433
2026-01-22 04:27:10.78	347.19	24.47	-50.0	-64.9	3.8	1.49e+00	0	41	104	0	70	21397
2026-01-22 04:27:11.79	346.90	24.47	-49.9	-64.9	3.8	1.49e+00	0	41	104	0	70	21470
2026-01-22 04:27:12.80	346.61	24.46	-50.0	-64.9	3.8	1.49e+00	0	41	104	0	70	21456
2026-01-22 04:27:13.81	346.32	24.45	-49.9	-64.9	3.8	1.49e+00	0	40	104	0	70	21360
2026-01-22 04:27:14.82	346.03	24.45	-49.9	-64.9	3.8	1.49e+00	0	41	104	0	70	21402
2026-01-22 04:27:15.83	345.74	24.44	-50.0	-64.9	3.8	1.49e+00	0	41	104	0	70	21440
2026-01-22 04:27:16.84	345.46	24.43	-49.9	-64.9	3.8	1.49e+00	0	41	104	0	70	21405
2026-01-22 04:27:17.84	345.17	24.42	-50.0	-64.9	3.8	1.49e+00	0	41	104	0	70	21444
2026-01-22 04:27:18.85	344.88	24.41	-50.0	-64.9	3.8	1.49e+00	0	41	104	0	70	21411
2026-01-22 04:27:19.86	344.59	24.40	-49.9	-64.9	3.8	1.49e+00	0	41	104	0	70	21394
2026-01-22 04:27:20.87	344.30	24.39	-49.9	-64.9	3.8	1.49e+00	0	41	104	0	70	21403
2026-01-22 04:27:21.88	344.01	24.38	-50.0	-64.9	3.8	1.49e+00	0	41	104	0	70	21440
2026-01-22 04:27:22.89	343.73	24.37	-49.9	-64.9	3.8	1.49e+00	0	41	104	0	70	21408
2026-01-22 04:27:23.90	343.44	24.35	-49.9	-64.9	3.8	1.49e+00	0	41	104	0	70	21433
2026-01-22 04:27:24.90	343.15	24.34	-50.0	-64.9	3.8	1.49e+00	0	41	104	0	70	21392
2026-01-22 04:27:25.91	342.86	24.32	-50.0	-64.9	3.8	1.49e+00	0	41	104	0	70	21415
2026-01-22 04:27:26.92	342.58	24.31	-49.9	-64.9	3.8	1.49e+00	0	41	104	0	70	21418
2026-01-22 04:27:27.93	342.29	24.29	-49.9	-64.9	3.8	1.49e+00	0	41	104	0	70	21343
2026-01-22 04:27:28.94	342.00	24.27	-49.9	-64.9	3.8	1.49e+00	0	41	104	0	70	21380
2026-01-22 04:27:29.95	341.72	24.26	-49.9	-64.9	3.8	1.49e+00	0	41	104	0	70	21355
2026-01-22 04:27:30.95	341.43	24.24	-49.9	-64.9	3.8	1.49e+00	0	40	104	0	70	21412
2026-01-22 04:27:31.96	341.15	24.22	-49.9	-64.9	3.8	1.49e+00	0	41	104	0	70	21429
2026-01-22 04:27:32.97	340.86	24.20	-50.0	-64.9	3.8	1.49e+00	0	41	104	0	70	21365
2026-01-22 04:27:33.97	340.58	24.18	-49.9	-64.9	3.8	1.49e+00	0	41	104	0	70	21441
2026-01-22 04:27:34.98	340.30	24.15	-49.9	-64.9	3.8	1.49e+00	0	41	104	0	70	21395
2026-01-22 04:27:35.99	340.01	24.13	-50.0	-64.9	3.8	1.49e+00	0	41	104	0	70	21351
2026-01-22 04:27:37.00	339.73	24.11	-49.9	-64.9	3.8	1.49e+00	0	41	104	0	70	21366
2026-01-22 04:27:38.01	339.45	24.08	-49.9	-64.9	3.8	1.49e+00	0	41	104	0	70	21378
2026-01-22 04:27:39.02	339.16	24.06	-49.9	-64.9	3.8	1.49e+00	0	41	104	0	70	21410
2026-01-22 04:27:40.03	338.88	24.03	-49.9	-64.9	3.8	1.49e+00	0	41	104	0	70	21391
2026-01-22 04:27:41.04	338.60	24.01	-50.0	-64.9	3.8	1.49e+00	0	41	104	0	70	21437
2026-01-22 04:27:42.04	338.32	23.98	-50.0	-64.9	3.8	1.49e+00	0	41	104	0	70	21455
2026-01-22 04:27:43.05	338.04	23.95	-50.0	-64.9	3.8	1.49e+00	0	41	104	0	70	21425
2026-01-22 04:27:44.06	337.76	23.92	-49.9	-64.9	3.8	1.49e+00	0	41	104	0	70	21409
2026-01-22 04:27:45.07	337.48	23.89	-50.0	-64.9	3.8	1.49e+00	0	41	104	0	70	21390
2026-01-22 04:27:46.08	337.20	23.86	-50.0	-64.9	3.8	1.49e+00	0	41	104	0	70	21366
2026-01-22 04:27:47.09	336.92	23.83	-50.0	-64.9	3.8	1.49e+00	0	41	104	0	70	21380
2026-01-22 04:27:48.09	336.65	23.80	-50.0	-64.9	3.8	1.49e+00	0	41	104	0	70	21411
2026-01-22 04:27:49.10	336.37	23.77	-50.0	-64.9	3.8	1.49e+00	0	41	104	0	70	21375
2026-01-22 04:27:50.11	336.09	23.74	-50.0	-64.9	3.8	1.49e+00	0	41	104	0	70	21444
2026-01-22 04:27:51.12	335.82	23.70	-50.0	-64.9	3.8	1.49e+00	0	41	104	0	70	21400
2026-01-22 04:27:52.13	335.54	23.67	-49.9	-64.9	3.8	1.49e+00	0	41	104	0	70	21374
2026-01-22 04:27:53.14	335.26	23.63	-49.9	-64.9	3.8	1.49e+00	0	41	104	0	70	21402
2026-01-22 04:27:54.15	334.99	23.60	-50.0	-65.0	3.8	1.49e+00	0	41	104	0	70	21527
2026-01-22 04:27:55.15	334.72	23.56	-50.0	-64.9	3.8	1.49e+00	0	41	104	0	70	21417
2026-01-22 04:27:56.16	334.45	23.53	-50.0	-64.9	3.8	1.49e+00	0	41	104	0	70	21436
2026-01-22 04:27:57.17	334.17	23.49	-50.0	-64.9	3.8	1.49e+00	0	41	104	0	70	21430
2026-01-22 04:27:58.18	333.90	23.45	-50.0	-64.9	3.8	1.49e+00	0	41	104	0	70	21422
2026-01-22 04:27:59.19	333.63	23.41	-50.0	-64.9	3.8	1.49e+00	0	41	104	0	70	21346
2026-01-22 04:28:00.20	333.36	23.37	-49.9	-64.9	3.8	1.49e+00	0	41	104	0	70	21366
2026-01-22 04:28:01.21	333.09	23.33	-49.9	-64.9	3.8	1.49e+00	0	41	104	0	70	21407
2026-01-22 04:28:02.21	332.82	23.29	-49.9	-64.9	3.8	1.49e+00	0	41	104	0	70	21346
2026-01-22 04:28:03.22	332.55	23.25	-50.0	-64.9	3.8	1.49e+00	0	41	104	0	70	21414
2026-01-22 04:28:04.23	332.29	23.21	-49.9	-64.9	3.8	1.49e+00	0	41	104	0	70	21394
2026-01-22 04:28:05.24	332.02	23.17	-50.0	-64.9	3.8	1.49e+00	0	41	104	0	70	21393
2026-01-22 04:28:06.25	331.75	23.12	-50.0	-64.9	3.8	1.49e+00	0	41	104	0	70	21374
2026-01-22 04:28:07.26	331.49	23.08	-50.0	-64.9	3.8	1.49e+00	0	41	104	0	70	21419
2026-01-22 04:28:08.26	331.22	23.04	-50.0	-64.9	3.8	1.49e+00	0	41	104	0	70	21418
2026-01-22 04:28:09.27	330.96	22.99	-50.0	-64.9	3.8	1.49e+00	0	41	104	0	70	21405
2026-01-22 04:28:10.28	330.70	22.95	-49.9	-64.9	3.8	1.49e+00	0	41	104	0	70	21384
2026-01-22 04:28:11.29	330.43	22.90	-49.9	-64.9	3.8	1.49e+00	0	40	104	0	70	21397
2026-01-22 04:28:12.30	330.17	22.85	-49.9	-64.9	3.8	1.49e+00	0	41	104	0	70	21449
2026-01-22 04:28:13.31	329.91	22.81	-49.9	-64.9	3.8	1.49e+00	0	41	104	0	70	21398
2026-01-22 04:28:14.31	329.65	22.76	-49.9	-64.9	3.8	1.49e+00	0	41	104	0	70	21428
2026-01-22 04:28:15.32	329.39	22.71	-49.9	-64.9	3.8	1.49e+00	0	41	104	0	70	21370
2026-01-22 04:28:16.33	329.14	22.66	-49.9	-64.9	3.8	1.49e+00	0	41	104	0	70	21396
2026-01-22 04:28:17.34	328.88	22.61	-49.9	-64.9	3.8	1.49e+00	0	41	104	0	70	21364
2026-01-22 04:28:18.35	328.62	22.56	-49.9	-64.9	3.8	1.49e+00	0	41	104	0	70	21389
2026-01-22 04:28:19.36	328.36	22.51	-49.9	-64.9	3.8	1.49e+00	0	41	104	0	70	21400
2026-01-22 04:28:20.37	328.11	22.46	-49.9	-64.9	3.8	1.49e+00	0	41	104	0	70	21353
2026-01-22 04:28:21.37	327.86	22.41	-50.0	-64.9	3.8	1.49e+00	0	41	104	0	70	21381
2026-01-22 04:28:22.38	327.60	22.36	-50.0	-64.9	3.8	1.49e+00	0	41	104	0	70	21420
2026-01-22 04:28:23.39	327.35	22.31	-50.0	-64.9	3.8	1.49e+00	0	41	104	0	70	21408
2026-01-22 04:28:24.40	327.10	22.26	-50.0	-64.9	3.8	1.49e+00	0	41	104	0	70	21383
2026-01-22 04:28:25.41	326.85	22.20	-49.9	-64.9	3.8	1.49e+00	0	41	104	0	70	21410
2026-01-22 04:28:26.42	326.60	22.15	-50.0	-64.9	3.8	1.49e+00	0	41	104	0	70	21392
2026-01-22 04:28:27.43	326.35	22.09	-50.0	-64.9	3.8	1.49e+00	0	41	104	0	70	21443
2026-01-22 04:28:28.43	326.10	22.04	-50.0	-64.9	3.8	1.49e+00	0	41	104	0	70	21416
2026-01-22 04:28:29.44	325.85	21.98	-50.0	-64.9	3.8	1.49e+00	0	41	104	0	70	21409
2026-01-22 04:28:30.45	325.61	21.93	-50.0	-64.9	3.8	1.49e+00	0	41	104	0	70	21405
2026-01-22 04:28:31.46	325.36	21.87	-49.9	-64.9	3.8	1.49e+00	0	41	104	0	70	21369
2026-01-22 04:28:32.47	325.12	21.82	-49.9	-64.9	3.8	1.49e+00	0	41	104	0	70	21430
2026-01-22 04:28:33.48	324.87	21.76	-50.0	-64.9	3.8	1.49e+00	0	41	104	0	70	21477
2026-01-22 04:28:34.49	324.63	21.70	-50.0	-64.9	3.8	1.49e+00	0	41	104	0	70	21416
2026-01-22 04:28:35.49	324.39	21.65	-50.0	-64.9	3.8	1.49e+00	0	41	104	0	70	21424
2026-01-22 04:28:36.50	324.15	21.59	-50.0	-64.9	3.8	1.49e+00	0	41	104	0	70	21389
2026-01-22 04:28:37.51	323.91	21.53	-50.0	-64.9	3.8	1.49e+00	0	41	104	0	70	21417
2026-01-22 04:28:38.52	323.67	21.47	-50.0	-64.9	3.8	1.49e+00	0	40	104	0	70	21407
2026-01-22 04:28:39.52	323.43	21.41	-50.0	-64.9	3.8	1.49e+00	0	41	104	0	70	21371
2026-01-22 04:28:40.53	323.20	21.35	-50.0	-64.9	3.8	1.49e+00	0	41	104	0	70	21390
2026-01-22 04:28:41.54	322.96	21.29	-50.0	-64.9	3.8	1.49e+00	0	41	104	0	70	21422
2026-01-22 04:28:42.55	322.72	21.23	-50.0	-64.9	3.8	1.49e+00	0	41	104	0	70	21408
2026-01-22 04:28:43.56	322.49	21.17	-49.9	-64.9	3.8	1.49e+00	0	41	104	0	70	21422
2026-01-22 04:28:44.57	322.25	21.11	-49.9	-64.9	3.8	1.49e+00	0	40	104	0	70	21410
2026-01-22 04:28:45.58	322.02	21.05	-50.0	-64.9	3.8	1.49e+00	0	41	104	0	70	21397
2026-01-22 04:28:46.58	321.79	20.99	-50.0	-64.9	3.8	1.49e+00	0	41	104	0	70	21373
2026-01-22 04:28:47.59	321.56	20.92	-50.0	-64.9	3.8	1.49e+00	0	41	104	0	70	21401
2026-01-22 04:28:48.60	321.33	20.86	-49.9	-64.9	3.8	1.49e+00	0	41	104	0	70	21398
2026-01-22 04:28:49.61	321.10	20.80	-49.9	-64.9	3.8	1.49e+00	0	41	104	0	70	21385
2026-01-22 04:28:50.62	320.87	20.73	-49.9	-64.9	3.8	1.49e+00	0	41	104	0	70	21356
2026-01-22 04:28:51.62	320.65	20.67	-50.0	-64.9	3.8	1.49e+00	0	41	104	0	70	21401
2026-01-22 04:28:52.63	320.42	20.61	-49.9	-64.9	3.8	1.49e+00	0	41	104	0	70	21370
2026-01-22 04:28:53.65	320.19	20.54	-49.9	-64.9	3.8	1.49e+00	0	41	104	0	70	21405
2026-01-22 04:28:54.65	319.97	20.48	-50.0	-64.9	3.8	1.49e+00	0	41	104	0	70	21393
2026-01-22 04:28:55.66	319.75	20.41	-49.9	-64.9	3.8	1.49e+00	0	41	104	0	70	21389
2026-01-22 04:28:56.67	319.53	20.35	-49.9	-64.9	3.8	1.49e+00	0	41	104	0	70	21395
2026-01-22 04:28:57.68	319.31	20.28	-49.9	-64.9	3.8	1.49e+00	0	41	104	0	70	21389
2026-01-22 04:28:58.69	319.08	20.22	-49.9	-64.9	3.8	1.49e+00	0	41	104	0	70	21393
2026-01-22 04:28:59.70	318.86	20.15	-49.9	-64.9	3.8	1.49e+00	0	41	104	0	70	21350
2026-01-22 04:29:00.71	318.65	20.09	-49.9	-64.9	3.8	1.49e+00	0	41	104	0	70	21357
2026-01-22 04:29:01.71	318.43	20.02	-49.9	-64.9	3.8	1.49e+00	0	41	104	0	70	21411
2026-01-22 04:29:02.72	318.21	19.95	-49.9	-64.9	3.8	1.49e+00	0	41	104	0	70	21376
2026-01-22 04:29:03.73	318.00	19.89	-50.0	-64.9	3.8	1.49e+00	0	41	104	0	70	21366
2026-01-22 04:29:04.74	317.78	19.82	-49.9	-64.9	3.8	1.49e+00	0	41	104	0	70	21416
2026-01-22 04:29:05.75	317.57	19.75	-50.0	-64.9	3.8	1.49e+00	0	41	104	0	70	21398
2026-01-22 04:29:06.76	317.36	19.68	-49.9	-64.9	3.8	1.49e+00	0	41	104	0	70	21425
2026-01-22 04:29:07.77	317.14	19.62	-50.0	-64.9	3.8	1.49e+00	0	41	104	0	70	21446
2026-01-22 04:29:08.77	316.93	19.55	-50.0	-64.9	3.8	1.49e+00	0	41	104	0	70	21434
2026-01-22 04:29:09.78	316.72	19.48	-49.9	-64.9	3.8	1.49e+00	0	41	104	0	70	21342
2026-01-22 04:29:10.79	316.52	19.41	-49.9	-64.9	3.8	1.49e+00	0	41	104	0	70	21367
2026-01-22 04:29:11.80	316.31	19.34	-50.0	-64.9	3.8	1.49e+00	0	41	104	0	70	21402
2026-01-22 04:29:12.81	316.10	19.27	-50.0	-64.9	3.8	1.49e+00	0	41	104	0	70	21381
2026-01-22 04:29:13.82	315.89	19.20	-49.9	-64.9	3.8	1.49e+00	0	41	104	0	70	21376
2026-01-22 04:29:14.82	315.69	19.14	-50.0	-64.9	3.8	1.49e+00	0	41	104	0	70	21423
2026-01-22 04:29:15.83	315.49	19.07	-50.0	-64.9	3.8	1.49e+00	0	41	104	0	70	21430
2026-01-22 04:29:16.84	315.28	19.00	-50.0	-64.9	3.8	1.49e+00	0	41	104	0	70	21441
2026-01-22 04:29:17.85	315.08	18.93	-50.0	-64.9	3.8	1.49e+00	0	41	104	0	70	21406
2026-01-22 04:29:18.86	314.88	18.86	-49.9	-64.9	3.8	1.49e+00	0	41	104	0	70	21372
2026-01-22 04:29:19.87	314.68	18.79	-50.0	-64.9	3.8	1.49e+00	0	41	104	0	70	21389
2026-01-22 04:29:20.87	314.48	18.72	-49.9	-64.9	3.8	1.49e+00	0	41	104	0	70	21412
2026-01-22 04:29:21.88	314.28	18.65	-49.9	-64.9	3.8	1.49e+00	0	41	104	0	70	21389
2026-01-22 04:29:22.89	314.08	18.57	-49.9	-64.9	3.8	1.49e+00	0	41	104	0	70	21465
2026-01-22 04:29:23.90	313.89	18.50	-49.9	-64.9	3.8	1.49e+00	0	41	104	0	70	21369
2026-01-22 04:29:24.91	313.69	18.43	-49.9	-64.9	3.8	1.49e+00	0	41	104	0	70	21410
2026-01-22 04:29:25.91	313.50	18.36	-49.9	-64.9	3.8	1.49e+00	0	41	104	0	70	21413
2026-01-22 04:29:26.92	313.30	18.29	-49.9	-64.9	3.8	1.49e+00	0	41	104	0	70	21386
2026-01-22 04:29:27.93	313.11	18.22	-50.0	-64.9	3.8	1.49e+00	0	41	104	0	70	21413
2026-01-22 04:29:28.94	312.92	18.15	-49.9	-64.9	3.8	1.49e+00	0	41	104	0	70	21403
2026-01-22 04:29:29.94	312.73	18.08	-50.0	-64.9	3.8	1.49e+00	0	41	104	0	70	21376
2026-01-22 04:29:30.95	312.54	18.00	-49.9	-64.9	3.8	1.49e+00	0	41	104	0	70	21376
2026-01-22 04:29:31.96	312.35	17.93	-50.0	-64.9	3.8	1.49e+00	0	41	104	0	70	21411
2026-01-22 04:29:32.97	312.16	17.86	-50.0	-64.9	3.8	1.49e+00	0	40	104	0	70	21405
2026-01-22 04:29:33.98	311.97	17.79	-50.0	-64.9	3.8	1.49e+00	0	41	104	0	70	21414
2026-01-22 04:29:34.99	311.78	17.72	-50.0	-64.9	3.8	1.49e+00	0	41	104	0	70	21380
2026-01-22 04:29:35.99	311.60	17.64	-50.0	-64.9	3.8	1.49e+00	0	41	104	0	70	21476
2026-01-22 04:29:37.00	311.41	17.57	-49.9	-64.9	3.8	1.49e+00	0	41	104	0	70	21410
2026-01-22 04:29:38.01	311.23	17.50	-50.0	-64.9	3.8	1.49e+00	0	41	104	0	70	21422
2026-01-22 04:29:39.02	311.05	17.43	-49.9	-64.9	3.8	1.49e+00	0	41	104	0	70	21389
2026-01-22 04:29:40.03	310.86	17.35	-50.0	-64.9	3.8	1.49e+00	0	41	104	0	70	21430
2026-01-22 04:29:41.04	310.68	17.28	-50.0	-64.9	3.8	1.49e+00	0	41	104	0	70	21416
2026-01-22 04:29:42.05	310.50	17.21	-50.0	-64.9	3.8	1.49e+00	0	41	104	0	70	21453
2026-01-22 04:29:43.05	310.32	17.14	-50.0	-64.9	3.8	1.49e+00	0	41	104	0	70	21386
2026-01-22 04:29:44.06	310.14	17.06	-49.9	-64.9	3.8	1.49e+00	0	41	104	0	70	21377
2026-01-22 04:29:45.07	309.97	16.99	-50.0	-64.9	3.8	1.49e+00	0	41	104	0	70	21392
2026-01-22 04:29:46.08	309.79	16.92	-50.0	-64.9	3.8	1.49e+00	0	41	104	0	70	21436
2026-01-22 04:29:47.09	309.61	16.84	-50.0	-64.9	3.8	1.49e+00	0	41	104	0	70	21432
2026-01-22 04:29:48.09	309.44	16.77	-50.0	-64.9	3.8	1.49e+00	0	41	104	0	70	21404
2026-01-22 04:29:49.11	309.26	16.70	-50.0	-64.9	3.8	1.49e+00	0	41	104	0	70	21470
2026-01-22 04:29:50.11	309.09	16.62	-49.9	-64.9	3.8	1.49e+00	0	41	104	0	70	21391
2026-01-22 04:29:51.12	308.92	16.55	-50.0	-64.9	3.8	1.49e+00	0	41	104	0	70	21394
2026-01-22 04:29:52.13	308.75	16.48	-50.0	-64.9	3.8	1.49e+00	0	41	104	0	70	21426
2026-01-22 04:29:53.14	308.58	16.40	-50.0	-64.9	3.8	1.49e+00	0	41	104	0	70	21386
2026-01-22 04:29:54.15	308.41	16.33	-49.9	-64.9	3.8	1.49e+00	0	41	104	0	70	21408
2026-01-22 04:29:55.16	308.24	16.26	-49.9	-64.9	3.8	1.49e+00	0	41	104	0	70	21379
2026-01-22 04:29:56.17	308.07	16.18	-49.9	-64.9	3.8	1.49e+00	0	41	104	0	70	21400
2026-01-22 04:29:57.17	307.90	16.11	-49.9	-64.9	3.8	1.49e+00	0	41	104	0	70	21455
2026-01-22 04:29:58.18	307.73	16.03	-50.0	-64.9	3.8	1.49e+00	0	41	104	0	70	21413
2026-01-22 04:29:59.19	307.57	15.96	-50.0	-64.9	3.8	1.49e+00	0	41	104	0	70	21367
2026-01-22 04:30:00.20	307.40	15.89	-49.9	-64.9	3.8	1.49e+00	0	41	104	0	70	21346
2026-01-22 04:30:01.21	307.24	15.81	-50.0	-64.9	3.8	1.49e+00	0	41	104	0	70	21459
2026-01-22 04:30:02.21	307.08	15.74	-50.0	-64.9	3.8	1.49e+00	0	41	104	0	70	21368
2026-01-22 04:30:03.22	306.91	15.67	-49.9	-64.9	3.8	1.49e+00	0	41	104	0	70	21389
2026-01-22 04:30:04.23	306.75	15.59	-50.0	-64.9	3.8	1.49e+00	0	41	104	0	70	21356
2026-01-22 04:30:05.24	306.59	15.52	-49.9	-64.9	3.8	1.49e+00	0	41	104	0	70	21393
2026-01-22 04:30:06.25	306.43	15.44	-50.0	-64.9	3.8	1.49e+00	0	41	104	0	70	21341
2026-01-22 04:30:07.26	306.27	15.37	-50.0	-64.9	3.8	1.49e+00	0	41	104	0	70	21418
2026-01-22 04:30:08.27	306.11	15.30	-50.0	-64.9	3.8	1.49e+00	0	41	104	0	70	21450
2026-01-22 04:30:09.27	305.96	15.22	-50.0	-64.9	3.8	1.49e+00	0	41	104	0	70	21431
2026-01-22 04:30:10.28	305.80	15.15	-50.0	-64.9	3.8	1.49e+00	0	41	104	0	70	21439
2026-01-22 04:30:11.29	305.64	15.08	-49.9	-64.9	3.8	1.49e+00	0	41	104	0	70	21412
2026-01-22 04:30:12.30	305.49	15.00	-50.0	-64.9	3.8	1.49e+00	0	41	104	0	70	21388
2026-01-22 04:30:13.31	305.33	14.93	-50.0	-64.9	3.8	1.49e+00	0	41	104	0	70	21391
2026-01-22 04:30:14.32	305.18	14.85	-50.0	-64.9	3.8	1.49e+00	0	41	104	0	70	21422
2026-01-22 04:30:15.33	305.03	14.78	-50.0	-64.9	3.8	1.49e+00	0	41	104	0	70	21431
2026-01-22 04:30:16.34	304.87	14.71	-50.0	-64.9	3.8	1.49e+00	0	41	104	0	70	21403
2026-01-22 04:30:17.35	304.72	14.63	-49.9	-64.9	3.8	1.49e+00	0	41	104	0	70	21408
2026-01-22 04:30:18.35	304.57	14.56	-49.9	-64.9	3.8	1.49e+00	0	41	104	0	70	21370
2026-01-22 04:30:19.36	304.42	14.49	-49.9	-64.9	3.8	1.49e+00	0	41	104	0	70	21353
2026-01-22 04:30:20.37	304.27	14.41	-50.0	-64.9	3.8	1.49e+00	0	41	104	0	70	21417
2026-01-22 04:30:21.38	304.12	14.34	-49.9	-64.9	3.8	1.49e+00	0	41	104	0	70	21330
2026-01-22 04:30:22.39	303.98	14.26	-50.0	-64.9	3.8	1.49e+00	0	41	104	0	70	21414
2026-01-22 04:30:23.39	303.83	14.19	-49.9	-64.9	3.8	1.49e+00	0	41	104	0	70	21358
2026-01-22 04:30:24.40	303.68	14.12	-49.9	-64.9	3.8	1.49e+00	0	41	104	0	70	21342
2026-01-22 04:30:25.41	303.54	14.04	-49.9	-64.9	3.8	1.49e+00	0	41	104	0	70	21378
2026-01-22 04:30:26.42	303.39	13.97	-49.9	-64.9	3.8	1.49e+00	0	40	104	0	70	21366
2026-01-22 04:30:27.42	303.25	13.90	-49.9	-64.9	3.8	1.49e+00	0	41	104	0	70	21335
2026-01-22 04:30:28.43	303.11	13.82	-49.9	-64.9	3.8	1.49e+00	0	41	104	0	70	21402
2026-01-22 04:30:29.44	302.96	13.75	-49.9	-64.9	3.8	1.49e+00	0	41	104	0	70	21373
2026-01-22 04:30:30.45	302.82	13.68	-50.0	-64.9	3.8	1.49e+00	0	41	104	0	70	21407
2026-01-22 04:30:31.46	302.68	13.60	-50.0	-64.9	3.8	1.49e+00	0	41	104	0	70	21343
2026-01-22 04:30:32.46	302.54	13.53	-49.9	-64.9	3.8	1.49e+00	0	41	104	0	70	21410
2026-01-22 04:30:33.47	302.40	13.46	-49.9	-64.9	3.8	1.49e+00	0	41	104	0	70	21337
2026-01-22 04:30:34.48	302.26	13.39	-49.9	-64.9	3.8	1.49e+00	0	41	104	0	70	21402
2026-01-22 04:30:35.49	302.12	13.31	-49.9	-64.9	3.8	1.49e+00	0	41	104	0	70	21417
2026-01-22 04:30:36.50	301.99	13.24	-49.9	-64.9	3.8	1.49e+00	0	41	104	0	70	21361
2026-01-22 04:30:37.50	301.85	13.17	-49.9	-64.9	3.8	1.49e+00	0	41	104	0	70	21383
2026-01-22 04:30:38.51	301.71	13.09	-50.0	-64.9	3.8	1.49e+00	0	41	104	0	70	21408
2026-01-22 04:30:39.52	301.58	13.02	-49.9	-64.9	3.8	1.49e+00	0	41	104	0	70	21378
2026-01-22 04:30:40.53	301.44	12.95	-50.0	-64.9	3.8	1.49e+00	0	41	104	0	70	21370
2026-01-22 04:30:41.54	301.31	12.87	-49.9	-64.9	3.8	1.49e+00	0	41	104	0	70	21416
2026-01-22 04:30:42.54	301.18	12.80	-49.9	-64.9	3.8	1.49e+00	0	41	104	0	70	21448
2026-01-22 04:30:43.55	301.04	12.73	-49.9	-64.9	3.8	1.49e+00	0	41	104	0	70	21395
2026-01-22 04:30:44.56	300.91	12.66	-49.9	-64.9	3.8	1.49e+00	0	41	104	0	70	21416
2026-01-22 04:30:45.57	300.78	12.58	-49.9	-64.9	3.8	1.49e+00	0	41	104	0	70	21391
2026-01-22 04:30:46.58	300.65	12.51	-49.9	-64.9	3.8	1.49e+00	0	41	104	0	70	21389
2026-01-22 04:30:47.59	300.52	12.44	-49.9	-64.9	3.8	1.49e+00	0	41	104	0	70	21424
2026-01-22 04:30:48.60	300.39	12.37	-49.9	-64.9	3.8	1.49e+00	0	41	104	0	70	21395
2026-01-22 04:30:49.61	300.26	12.30	-50.0	-64.9	3.8	1.49e+00	0	40	104	0	70	21344
2026-01-22 04:30:50.61	300.13	12.22	-49.9	-64.9	3.8	1.49e+00	0	40	104	0	70	21391
2026-01-22 04:30:51.63	300.00	12.15	-50.0	-64.9	3.8	1.49e+00	0	40	104	0	70	21374
2026-01-22 04:30:52.63	299.88	12.08	-49.9	-64.9	3.8	1.49e+00	0	41	104	0	70	21410
2026-01-22 04:30:53.65	299.75	12.01	-49.9	-64.9	3.8	1.49e+00	0	41	104	0	70	21377
2026-01-22 04:30:54.65	299.62	11.94	-49.9	-64.9	3.8	1.49e+00	0	41	104	0	70	21399
2026-01-22 04:30:55.66	299.50	11.86	-49.9	-64.9	3.8	1.49e+00	0	41	104	0	70	21402
2026-01-22 04:30:56.67	299.37	11.79	-49.9	-64.9	3.8	1.49e+00	0	41	104	0	70	21419
2026-01-22 04:30:57.68	299.25	11.72	-49.9	-64.9	3.8	1.49e+00	0	41	104	0	70	21350
2026-01-22 04:30:58.69	299.13	11.65	-49.9	-64.9	3.8	1.49e+00	0	41	104	0	70	21365
2026-01-22 04:30:59.70	299.00	11.58	-49.9	-64.9	3.8	1.49e+00	0	41	104	0	70	21426
2026-01-22 04:31:00.71	298.88	11.50	-49.9	-64.9	3.8	1.49e+00	0	41	104	0	70	21397
2026-01-22 04:31:01.71	298.76	11.43	-49.9	-64.9	3.8	1.49e+00	0	41	104	0	70	21356
2026-01-22 04:31:02.72	298.64	11.36	-50.0	-64.9	3.8	1.49e+00	0	41	104	0	70	21426
2026-01-22 04:31:03.73	298.52	11.29	-49.9	-64.9	3.8	1.49e+00	0	41	104	0	70	21407
2026-01-22 04:31:04.74	298.40	11.22	-50.0	-64.9	3.8	1.49e+00	0	41	104	0	70	21438
2026-01-22 04:31:05.75	298.28	11.15	-50.0	-64.9	3.8	1.49e+00	0	41	104	0	70	21404
2026-01-22 04:31:06.75	298.16	11.08	-50.0	-64.9	3.8	1.49e+00	0	41	104	0	70	21425
2026-01-22 04:31:07.76	298.04	11.01	-50.0	-64.9	3.8	1.49e+00	0	41	104	0	70	21424
2026-01-22 04:31:08.77	297.93	10.94	-49.9	-64.9	3.8	1.49e+00	0	41	104	0	70	21391
2026-01-22 04:31:09.78	297.81	10.87	-49.9	-64.9	3.8	1.49e+00	0	41	104	0	70	21415
2026-01-22 04:31:10.79	297.69	10.80	-49.9	-64.9	3.8	1.49e+00	0	41	104	0	70	21409
2026-01-22 04:31:11.80	297.58	10.73	-49.9	-64.9	3.8	1.49e+00	0	41	104	0	70	21426
2026-01-22 04:31:12.81	297.46	10.65	-50.0	-64.9	3.8	1.49e+00	0	41	104	0	70	21417
2026-01-22 04:31:13.81	297.35	10.58	-49.9	-64.9	3.8	1.49e+00	0	41	104	0	70	21346
2026-01-22 04:31:14.82	297.24	10.51	-50.0	-64.9	3.8	1.49e+00	0	41	104	0	70	21425
2026-01-22 04:31:15.83	297.12	10.44	-50.0	-64.9	3.8	1.49e+00	0	41	104	0	70	21435
2026-01-22 04:31:16.84	297.01	10.37	-50.0	-64.9	3.8	1.49e+00	0	41	104	0	70	21371
2026-01-22 04:31:17.84	296.90	10.30	-50.0	-64.9	3.8	1.49e+00	0	41	104	0	70	21367
2026-01-22 04:31:18.85	296.79	10.23	-50.0	-64.9	3.8	1.49e+00	0	41	104	0	70	21412
2026-01-22 04:31:19.86	296.67	10.17	-49.9	-64.9	3.8	1.49e+00	0	41	104	0	70	21399
2026-01-22 04:31:20.87	296.56	10.10	-50.0	-64.9	3.8	1.49e+00	0	41	104	0	70	21478
2026-01-22 04:31:21.88	296.45	10.03	-49.9	-64.9	3.8	1.49e+00	0	41	104	0	70	21400
2026-01-22 04:31:22.89	296.34	9.96	-50.0	-64.9	3.8	1.49e+00	0	41	104	0	70	21392
2026-01-22 04:31:23.89	296.24	9.89	-49.9	-64.9	3.8	1.49e+00	0	41	104	0	70	21392
2026-01-22 04:31:24.90	296.13	9.82	-50.0	-64.9	3.8	1.49e+00	0	41	104	0	70	21418
2026-01-22 04:31:25.91	296.02	9.75	-50.0	-64.9	3.8	1.49e+00	0	41	104	0	70	21382
2026-01-22 04:31:26.92	295.91	9.68	-50.0	-64.9	3.8	1.49e+00	0	41	104	0	70	21396
2026-01-22 04:31:27.93	295.80	9.61	-50.0	-64.9	3.8	1.49e+00	0	41	104	0	70	21374
2026-01-22 04:31:28.94	295.70	9.54	-50.0	-64.9	3.8	1.49e+00	0	41	104	0	70	21408
2026-01-22 04:31:29.95	295.59	9.47	-49.9	-64.9	3.8	1.49e+00	0	41	104	0	70	21445
2026-01-22 04:31:30.95	295.49	9.40	-50.0	-64.9	3.8	1.49e+00	0	41	104	0	70	21376
2026-01-22 04:31:31.96	295.38	9.34	-50.0	-64.9	3.8	1.49e+00	0	41	104	0	70	21400
2026-01-22 04:31:32.97	295.28	9.27	-50.0	-64.9	3.8	1.49e+00	0	41	104	0	70	21398
2026-01-22 04:31:33.98	295.17	9.20	-50.0	-64.9	3.8	1.49e+00	0	41	104	0	70	21392
2026-01-22 04:31:34.99	295.07	9.13	-50.0	-64.9	3.8	1.49e+00	0	41	104	0	70	21460
2026-01-22 04:31:36.00	294.97	9.06	-50.0	-64.9	3.8	1.49e+00	0	41	104	0	70	21430
2026-01-22 04:31:37.01	294.87	8.99	-49.9	-65.0	3.8	1.49e+00	0	41	104	0	70	21507
2026-01-22 04:31:38.01	294.76	8.93	-50.0	-64.9	3.8	1.49e+00	0	41	104	0	70	21435
2026-01-22 04:31:39.02	294.66	8.86	-50.0	-64.9	3.8	1.49e+00	0	41	104	0	70	21426
2026-01-22 04:31:40.03	294.56	8.79	-50.0	-64.9	3.8	1.49e+00	0	41	104	0	70	21412
2026-01-22 04:31:41.04	294.46	8.72	-50.0	-64.9	3.8	1.49e+00	0	41	104	0	70	21415
2026-01-22 04:31:42.05	294.36	8.65	-50.0	-64.9	3.8	1.49e+00	0	41	104	0	70	21382
2026-01-22 04:31:43.06	294.26	8.59	-50.0	-64.9	3.8	1.49e+00	0	40	104	0	70	21398
2026-01-22 04:31:44.07	294.16	8.52	-50.0	-64.9	3.8	1.49e+00	0	41	104	0	70	21433
2026-01-22 04:31:45.07	294.07	8.45	-50.0	-64.9	3.8	1.49e+00	0	41	104	0	70	21385
2026-01-22 04:31:46.08	293.97	8.38	-50.0	-64.9	3.8	1.49e+00	0	41	104	0	70	21482
2026-01-22 04:31:47.09	293.87	8.32	-50.0	-64.9	3.8	1.49e+00	0	41	104	0	70	21436
2026-01-22 04:31:48.10	293.77	8.25	-50.0	-64.9	3.8	1.49e+00	0	41	104	0	70	21428
2026-01-22 04:31:49.11	293.68	8.18	-50.0	-64.9	3.8	1.49e+00	0	41	104	0	70	21404
2026-01-22 04:31:50.12	293.58	8.12	-50.0	-64.9	3.8	1.49e+00	0	41	104	0	70	21400
2026-01-22 04:31:51.13	293.48	8.05	-50.0	-64.9	3.8	1.49e+00	0	41	104	0	70	21389
2026-01-22 04:31:52.13	293.39	7.98	-50.0	-64.9	3.8	1.49e+00	0	41	104	0	70	21398
2026-01-22 04:31:53.14	293.29	7.92	-50.0	-64.9	3.8	1.49e+00	0	41	104	0	70	21409
2026-01-22 04:31:54.15	293.20	7.85	-50.0	-64.9	3.8	1.49e+00	0	41	104	0	70	21456
2026-01-22 04:31:55.16	293.11	7.78	-50.0	-64.9	3.8	1.49e+00	0	41	104	0	70	21468
2026-01-22 04:31:56.17	293.01	7.72	-49.9	-64.9	3.8	1.49e+00	0	41	104	0	70	21398
2026-01-22 04:31:57.17	292.92	7.65	-50.0	-64.9	3.8	1.49e+00	0	41	104	0	70	21400
2026-01-22 04:31:58.18	292.83	7.58	-50.0	-64.9	3.8	1.49e+00	0	41	104	0	70	21422
2026-01-22 04:31:59.19	292.74	7.52	-49.9	-64.9	3.8	1.49e+00	0	41	104	0	70	21378
2026-01-22 04:32:00.20	292.64	7.45	-50.0	-64.9	3.8	1.49e+00	0	41	104	0	70	21420
2026-01-22 04:32:01.21	292.55	7.39	-49.9	-64.9	3.8	1.49e+00	0	41	104	0	70	21393
2026-01-22 04:32:02.21	292.46	7.32	-50.0	-64.9	3.8	1.49e+00	0	41	104	0	70	21423
2026-01-22 04:32:03.22	292.37	7.25	-50.0	-64.9	3.8	1.49e+00	0	41	104	0	70	21397
2026-01-22 04:32:04.23	292.28	7.19	-50.0	-64.9	3.8	1.49e+00	0	41	104	0	70	21431
2026-01-22 04:32:05.24	292.19	7.12	-50.0	-64.9	3.8	1.49e+00	0	41	104	0	70	21396
2026-01-22 04:32:06.25	292.10	7.06	-50.0	-64.9	3.8	1.49e+00	0	41	104	0	70	21467
2026-01-22 04:32:07.26	292.01	6.99	-50.0	-64.9	3.8	1.49e+00	0	41	104	0	70	21450
2026-01-22 04:32:08.27	291.92	6.93	-50.0	-64.9	3.8	1.49e+00	0	41	104	0	70	21404
2026-01-22 04:32:09.27	291.84	6.86	-50.0	-64.9	3.8	1.49e+00	0	41	104	0	70	21408
2026-01-22 04:32:10.28	291.75	6.80	-50.0	-64.9	3.8	1.49e+00	0	41	104	0	70	21453
2026-01-22 04:32:11.29	291.66	6.73	-50.0	-64.9	3.8	1.49e+00	0	41	104	0	70	21445
2026-01-22 04:32:12.30	291.58	6.67	-50.0	-64.9	3.8	1.49e+00	0	41	104	0	70	21380
2026-01-22 04:32:13.30	291.49	6.60	-50.0	-64.9	3.8	1.49e+00	0	40	104	0	70	21429
2026-01-22 04:32:14.32	291.40	6.54	-50.0	-64.9	3.8	1.49e+00	0	41	104	0	70	21411
2026-01-22 04:32:15.32	291.32	6.48	-50.0	-64.9	3.8	1.49e+00	0	41	104	0	70	21418
2026-01-22 04:32:16.33	291.23	6.41	-50.0	-64.9	3.8	1.49e+00	0	41	104	0	70	21415
2026-01-22 04:32:17.34	291.15	6.35	-50.0	-64.9	3.8	1.49e+00	0	41	104	0	70	21420
2026-01-22 04:32:18.35	291.06	6.28	-50.0	-64.9	3.8	1.49e+00	0	41	104	0	70	21414
2026-01-22 04:32:19.36	290.98	6.22	-50.0	-64.9	3.8	1.49e+00	0	41	104	0	70	21417
2026-01-22 04:32:20.37	290.90	6.15	-50.0	-64.9	3.8	1.49e+00	0	41	104	0	70	21405
2026-01-22 04:32:21.38	290.81	6.09	-50.0	-64.9	3.8	1.49e+00	0	41	104	0	70	21443
2026-01-22 04:32:22.38	290.73	6.03	-50.0	-64.9	3.8	1.49e+00	0	41	104	0	70	21429
2026-01-22 04:32:23.39	290.65	5.96	-50.0	-64.9	3.8	1.49e+00	0	41	104	0	70	21401
2026-01-22 04:32:24.40	290.57	5.90	-50.0	-64.9	3.8	1.49e+00	0	41	104	0	70	21383
2026-01-22 04:32:25.41	290.48	5.84	-50.0	-64.9	3.8	1.49e+00	0	41	104	0	70	21466
2026-01-22 04:32:26.42	290.40	5.77	-49.9	-64.9	3.8	1.49e+00	0	41	104	0	70	21398
2026-01-22 04:32:27.43	290.32	5.71	-50.0	-64.9	3.8	1.49e+00	0	41	104	0	70	21448
2026-01-22 04:32:28.43	290.24	5.65	-50.0	-64.9	3.8	1.49e+00	0	41	104	0	70	21397
2026-01-22 04:32:29.44	290.16	5.58	-49.9	-64.9	3.8	1.49e+00	0	41	104	0	70	21375
2026-01-22 04:32:30.45	290.08	5.52	-50.0	-64.9	3.8	1.49e+00	0	41	104	0	70	21424
2026-01-22 04:32:31.46	290.00	5.46	-49.9	-64.9	3.8	1.49e+00	0	41	104	0	70	21423
2026-01-22 04:32:32.47	289.92	5.39	-50.0	-64.9	3.8	1.49e+00	0	41	104	0	70	21389
2026-01-22 04:32:33.48	289.84	5.33	-50.0	-64.9	3.8	1.49e+00	0	41	104	0	70	21420
2026-01-22 04:32:34.49	289.76	5.27	-50.0	-64.9	3.8	1.49e+00	0	41	104	0	70	21475
2026-01-22 04:32:35.49	289.69	5.21	-50.0	-64.9	3.8	1.49e+00	0	41	104	0	70	21412
2026-01-22 04:32:36.50	289.61	5.14	-50.0	-64.9	3.8	1.49e+00	0	41	104	0	70	21457
2026-01-22 04:32:37.51	289.53	5.08	-50.0	-64.9	3.8	1.49e+00	0	41	104	0	70	21402
2026-01-22 04:32:38.52	289.45	5.02	-50.0	-64.9	3.8	1.49e+00	0	41	104	0	70	21407
2026-01-22 04:32:39.53	289.38	4.96	-50.0	-64.9	3.8	1.49e+00	0	41	104	0	70	21442
2026-01-22 04:32:40.54	289.30	4.90	-50.0	-64.9	3.8	1.49e+00	0	41	104	0	70	21398
2026-01-22 04:32:41.55	289.22	4.83	-50.0	-64.9	3.8	1.49e+00	0	41	104	0	70	21437
2026-01-22 04:32:42.55	289.15	4.77	-50.0	-64.9	3.8	1.49e+00	0	40	104	0	70	21454
2026-01-22 04:32:43.56	289.07	4.71	-50.0	-64.9	3.8	1.49e+00	0	41	104	0	70	21339
2026-01-22 04:32:44.57	289.00	4.65	-50.0	-64.9	3.8	1.49e+00	0	41	104	0	70	21458
2026-01-22 04:32:45.58	288.92	4.59	-50.0	-64.9	3.8	1.49e+00	0	41	104	0	70	21416
2026-01-22 04:32:46.59	288.85	4.53	-49.9	-64.9	3.8	1.49e+00	0	41	104	0	70	21374
2026-01-22 04:32:47.60	288.78	4.46	-50.0	-64.9	3.8	1.49e+00	0	41	104	0	70	21457
2026-01-22 04:32:48.60	288.70	4.40	-50.0	-64.9	3.8	1.49e+00	0	41	104	0	70	21397
2026-01-22 04:32:49.61	288.63	4.34	-50.0	-64.9	3.8	1.49e+00	0	41	104	0	70	21432
2026-01-22 04:32:50.62	288.56	4.28	-50.0	-64.9	3.8	1.49e+00	0	41	104	0	70	21350
2026-01-22 04:32:51.63	288.48	4.22	-49.9	-64.9	3.8	1.49e+00	0	41	104	0	70	21427
2026-01-22 04:32:52.64	288.41	4.16	-50.0	-64.9	3.8	1.49e+00	0	41	104	0	70	21431
2026-01-22 04:32:53.65	288.34	4.10	-50.0	-64.9	3.8	1.49e+00	0	41	104	0	70	21400
2026-01-22 04:32:54.65	288.27	4.04	-50.0	-64.9	3.8	1.49e+00	0	41	104	0	70	21380
2026-01-22 04:32:55.66	288.19	3.98	-50.0	-64.9	3.8	1.49e+00	0	41	104	0	70	21400
2026-01-22 04:32:56.67	288.12	3.92	-50.0	-64.9	3.8	1.49e+00	0	41	104	0	70	21428
2026-01-22 04:32:57.68	288.05	3.86	-49.9	-64.9	3.8	1.49e+00	0	41	104	0	70	21400
2026-01-22 04:32:58.68	287.98	3.80	-50.0	-64.9	3.8	1.49e+00	0	41	104	0	70	21418
2026-01-22 04:32:59.69	287.91	3.74	-50.0	-64.9	3.8	1.49e+00	0	41	104	0	70	21405
2026-01-22 04:33:00.70	287.84	3.68	-50.0	-64.9	3.8	1.49e+00	0	41	104	0	70	21388
2026-01-22 04:33:01.71	287.77	3.62	-50.0	-64.9	3.8	1.49e+00	0	41	104	0	70	21369
2026-01-22 04:33:02.72	287.70	3.56	-50.0	-64.9	3.8	1.49e+00	0	41	104	0	70	21442
2026-01-22 04:33:03.72	287.63	3.50	-50.0	-64.9	3.8	1.49e+00	0	41	104	0	70	21379
2026-01-22 04:33:04.73	287.56	3.44	-50.0	-64.9	3.8	1.49e+00	0	41	104	0	70	21388
2026-01-22 04:33:05.74	287.50	3.38	-50.0	-64.9	3.8	1.49e+00	0	41	104	0	70	21440
2026-01-22 04:33:06.75	287.43	3.32	-50.0	-64.9	3.8	1.49e+00	0	41	104	0	70	21415
2026-01-22 04:33:07.76	287.36	3.26	-50.0	-64.9	3.8	1.49e+00	0	41	104	0	70	21376
2026-01-22 04:33:08.77	287.29	3.20	-49.9	-64.9	3.8	1.49e+00	0	41	104	0	70	21382
2026-01-22 04:33:09.77	287.22	3.14	-50.0	-64.9	3.8	1.49e+00	0	41	104	0	70	21389
