passes_logs/2026/01/22/R3.2S_Murmansk/R3.2S_Murmansk__20260122_233832_FENGYUN_3D_rec.log

#Pass ID: 20260122_233832_FENGYUN 3D
#Satellite: FENGYUN 3D
#Configuration: FENGYUN 3D
#almurnet v.1.7.20251203
#Start time: 2026-01-22 23:38:34

#Version: 2.2.20231116
#Station: R3.2S_Murmansk
#Location: 33.079688 lon 68.888172 lat
#TLE: 1 43010U 17072A   26022.47411728  .00000617  00000+0  31375-3 0  9996
#TLE: 2 43010  98.9952 354.4060 0002481  95.7964 264.3494 14.19699924424319

#Time	Az	El	Level	Level2	SNR	BER	BlckErr	Temp	State	Recorded	gain1	gain2
2026-01-22 23:38:34.44	19.30	2.09	-52.5	-64.4	3.8	8.46e-01	0	42	0	0	77	13484
2026-01-22 23:38:35.45	19.39	2.14	-52.4	-64.3	3.8	8.46e-01	0	42	104	0	75	14918
2026-01-22 23:38:36.46	19.48	2.19	-52.4	-64.2	3.8	8.46e-01	0	42	104	0	75	14837
2026-01-22 23:38:37.47	19.58	2.24	-52.4	-64.2	3.8	8.45e-01	0	42	104	0	75	14812
2026-01-22 23:38:38.47	19.67	2.28	-52.4	-64.3	3.8	8.46e-01	0	42	104	0	75	14887
2026-01-22 23:38:39.48	19.77	2.33	-52.4	-64.2	3.8	8.46e-01	0	42	104	0	75	14792
2026-01-22 23:38:40.49	19.86	2.38	-52.4	-64.2	3.8	8.46e-01	0	42	104	0	75	14808
2026-01-22 23:38:41.50	19.96	2.43	-52.4	-64.2	3.8	8.45e-01	0	42	104	0	75	14744
2026-01-22 23:38:42.51	20.05	2.47	-52.4	-64.3	3.8	8.46e-01	0	42	104	0	75	14904
2026-01-22 23:38:43.52	20.15	2.52	-52.4	-64.1	3.8	8.47e-01	0	42	104	0	75	14689
2026-01-22 23:38:44.53	20.24	2.57	-52.4	-64.2	3.8	8.46e-01	0	42	104	0	75	14776
2026-01-22 23:38:45.53	20.34	2.62	-52.4	-64.2	3.8	8.45e-01	0	42	104	0	75	14748
2026-01-22 23:38:46.54	20.44	2.67	-52.4	-64.2	3.8	8.47e-01	0	42	104	0	75	14792
2026-01-22 23:38:47.55	20.53	2.71	-52.4	-64.1	3.8	8.47e-01	0	42	104	0	75	14636
2026-01-22 23:38:48.56	20.63	2.76	-52.4	-64.2	3.8	8.46e-01	0	43	104	0	75	14746
2026-01-22 23:38:49.57	20.73	2.81	-52.4	-64.2	3.8	8.47e-01	0	43	104	0	75	14770
2026-01-22 23:38:50.58	20.83	2.86	-52.4	-64.1	3.8	8.45e-01	0	43	104	0	75	14560
2026-01-22 23:38:51.59	20.92	2.91	-52.4	-64.1	3.8	8.48e-01	0	43	104	0	75	14704
2026-01-22 23:38:52.60	21.02	2.95	-52.4	-64.1	3.8	8.46e-01	0	43	104	0	75	14702
2026-01-22 23:38:53.61	21.12	3.00	-52.4	-64.1	3.8	8.47e-01	0	43	104	0	75	14544
2026-01-22 23:38:54.61	21.22	3.05	-52.4	-64.0	3.8	8.46e-01	0	43	104	0	75	14446
2026-01-22 23:38:55.62	21.32	3.10	-52.4	-64.0	3.8	8.45e-01	0	43	104	0	75	14450
2026-01-22 23:38:56.63	21.42	3.14	-52.4	-63.9	3.8	8.45e-01	0	43	104	0	75	14235
2026-01-22 23:38:57.64	21.52	3.19	-52.4	-63.8	3.8	8.46e-01	0	43	104	0	75	14200
2026-01-22 23:38:58.65	21.62	3.24	-52.4	-63.9	3.8	8.47e-01	0	43	104	0	75	14325
2026-01-22 23:38:59.65	21.72	3.29	-52.4	-63.8	3.8	8.46e-01	0	43	104	0	75	14169
2026-01-22 23:39:00.66	21.82	3.34	-52.4	-64.1	3.8	8.47e-01	0	43	104	0	75	14570
2026-01-22 23:39:01.67	21.92	3.38	-52.4	-64.2	3.8	8.46e-01	0	43	104	0	75	14757
2026-01-22 23:39:02.68	22.02	3.43	-52.4	-64.2	3.8	8.44e-01	0	43	104	0	75	14810
2026-01-22 23:39:03.69	22.13	3.48	-52.4	-64.3	3.8	8.47e-01	0	43	104	0	75	14940
2026-01-22 23:39:04.69	22.23	3.53	-52.4	-64.3	3.8	8.45e-01	0	43	104	0	75	14941
2026-01-22 23:39:05.70	22.33	3.58	-52.4	-64.3	3.8	8.46e-01	0	43	104	0	75	14929
2026-01-22 23:39:06.71	22.43	3.62	-52.4	-64.3	3.8	8.47e-01	0	43	104	0	75	14924
2026-01-22 23:39:07.72	22.54	3.67	-52.4	-64.2	3.8	8.46e-01	0	43	104	0	75	14786
2026-01-22 23:39:08.73	22.64	3.72	-52.4	-64.2	3.8	8.47e-01	0	43	104	0	75	14821
2026-01-22 23:39:09.73	22.74	3.77	-52.4	-64.1	3.8	8.46e-01	0	43	104	0	75	14560
2026-01-22 23:39:10.74	22.85	3.82	-52.4	-64.1	3.8	8.46e-01	0	43	104	0	75	14692
2026-01-22 23:39:11.75	22.95	3.87	-52.4	-64.1	3.8	8.46e-01	0	43	104	0	75	14689
2026-01-22 23:39:12.76	23.06	3.91	-52.4	-64.3	3.8	8.46e-01	0	43	104	0	75	14954
2026-01-22 23:39:13.77	23.16	3.96	-52.4	-64.4	3.8	8.46e-01	0	43	104	0	75	15097
2026-01-22 23:39:14.78	23.27	4.01	-52.4	-64.4	3.8	8.46e-01	0	43	104	0	75	15089
2026-01-22 23:39:15.79	23.37	4.06	-52.4	-64.3	3.8	8.46e-01	0	43	104	0	75	15039
2026-01-22 23:39:16.80	23.48	4.11	-52.4	-64.3	3.8	8.46e-01	0	43	104	0	75	15008
2026-01-22 23:39:17.80	23.58	4.15	-52.4	-64.4	3.8	8.46e-01	0	43	104	0	75	15060
2026-01-22 23:39:18.81	23.69	4.20	-52.4	-64.3	3.8	8.47e-01	0	43	104	0	75	15008
2026-01-22 23:39:19.82	23.80	4.25	-52.4	-64.1	3.8	8.46e-01	0	43	104	0	75	14613
2026-01-22 23:39:20.83	23.91	4.30	-52.3	-63.4	3.8	8.45e-01	0	43	104	0	75	13556
2026-01-22 23:39:21.84	24.01	4.35	-52.3	-62.6	3.8	8.45e-01	0	43	104	0	75	12285
2026-01-22 23:39:22.85	24.12	4.40	-52.1	-61.5	3.9	8.45e-01	0	43	104	0	75	10838
2026-01-22 23:39:23.85	24.23	4.44	-52.1	-61.0	4.2	8.40e-01	0	43	0	0	75	10211
2026-01-22 23:39:24.86	24.34	4.49	-52.0	-60.6	4.3	8.38e-01	0	43	0	0	75	9727
2026-01-22 23:39:25.87	24.45	4.54	-51.6	-58.4	5.2	7.81e-01	0	43	0	0	75	7595
2026-01-22 23:39:26.88	24.56	4.59	-50.8	-55.5	7.5	2.40e-01	0	43	0	4194304	73	6124
2026-01-22 23:39:27.89	24.67	4.64	-50.0	-53.6	9.6	2.63e-02	0	43	0	9437184	71	5487
2026-01-22 23:39:28.89	24.78	4.68	-48.9	-51.6	11.7	1.77e-03	0	43	0	14680064	69	4888
2026-01-22 23:39:29.90	24.89	4.73	-47.6	-49.7	13.6	3.54e-05	0	43	0	20971520	67	4398
2026-01-22 23:39:30.91	25.00	4.78	-46.3	-47.9	15.4	0.00e+00	0	43	0	26214400	64	4283
2026-01-22 23:39:31.92	25.11	4.83	-46.1	-47.6	15.7	0.00e+00	0	44	0	31457280	64	4139
2026-01-22 23:39:32.93	25.22	4.88	-46.1	-47.7	15.7	0.00e+00	0	43	0	37748736	63	4423
2026-01-22 23:39:33.94	25.33	4.93	-46.3	-47.9	15.5	0.00e+00	0	43	0	44040192	63	4523
2026-01-22 23:39:34.95	25.45	4.97	-46.7	-48.4	14.8	1.10e-06	0	44	0	49283072	64	4535
2026-01-22 23:39:35.95	25.56	5.02	-47.9	-50.2	13.1	8.00e-06	0	43	0	54525952	66	4949
2026-01-22 23:39:36.96	25.67	5.07	-46.5	-48.2	15.1	0.00e+00	0	44	0	60817408	64	4441
2026-01-22 23:39:37.97	25.78	5.12	-46.2	-47.9	15.5	0.00e+00	0	44	0	66060288	64	4243
2026-01-22 23:39:38.98	25.90	5.17	-52.0	-60.8	4.2	3.08e-01	0	44	0	71303168	74	10629
2026-01-22 23:39:39.99	26.01	5.22	-52.1	-62.4	3.8	8.23e-01	0	43	104	71303168	74	12725
2026-01-22 23:39:41.00	26.13	5.26	-43.6	-44.7	19.2	0.00e+00	0	44	0	73400320	59	3928
2026-01-22 23:39:42.01	26.24	5.31	-43.6	-44.6	19.3	0.00e+00	0	43	0	78643200	59	3902
2026-01-22 23:39:43.01	26.35	5.36	-43.4	-44.5	19.4	0.00e+00	0	44	0	84934656	58	4073
2026-01-22 23:39:44.02	26.47	5.41	-43.3	-44.4	19.5	0.00e+00	0	44	0	90177536	58	4005
2026-01-22 23:39:45.03	26.59	5.46	-43.2	-44.2	19.7	0.00e+00	0	44	0	95420416	58	3952
2026-01-22 23:39:46.04	26.70	5.51	-43.1	-44.1	19.8	0.00e+00	0	44	0	101711872	58	3875
2026-01-22 23:39:47.05	26.82	5.55	-43.3	-44.3	19.6	0.00e+00	0	43	0	108003328	58	3980
2026-01-22 23:39:48.06	26.94	5.60	-43.4	-44.4	19.5	0.00e+00	0	43	0	113246208	58	4046
2026-01-22 23:39:49.07	27.05	5.65	-43.4	-44.4	19.5	0.00e+00	0	44	0	118489088	58	4041
2026-01-22 23:39:50.08	27.17	5.70	-43.1	-44.1	19.9	0.00e+00	0	44	0	124780544	58	3911
2026-01-22 23:39:51.08	27.29	5.75	-42.9	-43.9	20.0	0.00e+00	0	44	0	130023424	57	4033
2026-01-22 23:39:52.09	27.41	5.79	-43.2	-44.2	19.7	0.00e+00	0	44	0	135266304	57	4185
2026-01-22 23:39:53.10	27.53	5.84	-43.3	-44.3	19.6	0.00e+00	0	44	0	141557760	57	4224
2026-01-22 23:39:54.11	27.65	5.89	-43.2	-44.2	19.7	0.00e+00	0	44	0	146800640	57	4185
2026-01-22 23:39:55.12	27.77	5.94	-43.2	-44.2	19.8	0.00e+00	0	44	0	153092096	57	4165
2026-01-22 23:39:56.13	27.89	5.99	-43.2	-44.3	19.7	0.00e+00	0	44	0	158334976	57	4201
2026-01-22 23:39:57.14	28.01	6.04	-43.1	-44.1	19.9	0.00e+00	0	44	0	164626432	57	4123
2026-01-22 23:39:58.15	28.13	6.08	-43.1	-44.1	19.8	0.00e+00	0	44	0	169869312	57	4134
2026-01-22 23:39:59.16	28.25	6.13	-43.1	-44.1	19.9	0.00e+00	0	44	0	176160768	57	4141
2026-01-22 23:40:00.17	28.37	6.18	-43.0	-43.9	20.0	0.00e+00	0	44	0	181403648	57	4050
2026-01-22 23:40:01.17	28.49	6.23	-42.7	-43.7	20.3	0.00e+00	0	44	0	186646528	57	3942
2026-01-22 23:40:02.18	28.61	6.28	-42.9	-43.9	20.1	0.00e+00	0	44	0	192937984	57	4028
2026-01-22 23:40:03.19	28.74	6.32	-42.9	-43.9	20.1	0.00e+00	0	44	0	198180864	57	4047
2026-01-22 23:40:04.20	28.86	6.37	-43.1	-44.1	19.9	0.00e+00	0	44	0	203423744	57	4116
2026-01-22 23:40:05.21	28.98	6.42	-43.1	-44.2	19.8	0.00e+00	0	44	0	209715200	57	4150
2026-01-22 23:40:06.22	29.11	6.47	-42.9	-43.9	20.1	0.00e+00	0	44	0	214958080	57	4027
2026-01-22 23:40:07.23	29.23	6.52	-43.2	-44.3	19.8	0.00e+00	0	44	0	220200960	57	4198
2026-01-22 23:40:08.23	29.35	6.56	-43.2	-44.3	19.8	0.00e+00	0	44	0	226492416	57	4202
2026-01-22 23:40:09.24	29.48	6.61	-43.2	-44.3	19.8	0.00e+00	0	44	0	232783872	57	4198
2026-01-22 23:40:10.25	29.60	6.66	-42.9	-43.9	20.1	0.00e+00	0	44	0	238026752	57	4026
2026-01-22 23:40:11.26	29.73	6.71	-42.7	-43.6	20.5	0.00e+00	0	44	0	243269632	57	3910
2026-01-22 23:40:12.27	29.86	6.76	-42.6	-43.6	20.5	0.00e+00	0	44	0	249561088	57	3878
2026-01-22 23:40:13.28	29.98	6.80	-42.6	-43.6	20.5	0.00e+00	0	44	0	254803968	57	3870
2026-01-22 23:40:14.29	30.11	6.85	-42.5	-43.4	20.6	0.00e+00	0	44	0	261095424	57	3819
2026-01-22 23:40:15.29	30.24	6.90	-42.4	-43.3	20.7	0.00e+00	0	44	0	266338304	56	3986
2026-01-22 23:40:16.30	30.36	6.95	-42.5	-43.4	20.6	0.00e+00	0	44	0	271581184	56	4046
2026-01-22 23:40:17.31	30.49	6.99	-42.3	-43.2	20.9	0.00e+00	0	44	0	277872640	56	3937
2026-01-22 23:40:18.32	30.62	7.04	-42.3	-43.2	20.9	0.00e+00	0	44	0	283115520	56	3934
2026-01-22 23:40:19.33	30.75	7.09	-42.3	-43.2	20.8	0.00e+00	0	44	0	288358400	56	3943
2026-01-22 23:40:20.33	30.88	7.14	-42.4	-43.3	20.7	0.00e+00	0	44	0	294649856	56	3999
2026-01-22 23:40:21.34	31.01	7.18	-42.4	-43.4	20.7	0.00e+00	0	44	0	300941312	56	4018
2026-01-22 23:40:22.35	31.14	7.23	-42.8	-43.8	20.3	0.00e+00	0	44	0	306184192	56	4199
2026-01-22 23:40:23.36	31.27	7.28	-42.5	-43.4	20.7	0.00e+00	0	44	0	311427072	56	4034
2026-01-22 23:40:24.36	31.40	7.33	-42.5	-43.5	20.6	0.00e+00	0	44	0	317718528	56	4063
2026-01-22 23:40:25.38	31.53	7.37	-42.5	-43.5	20.6	0.00e+00	0	44	0	322961408	56	4053
2026-01-22 23:40:26.38	31.66	7.42	-42.5	-43.4	20.7	0.00e+00	0	44	0	328204288	56	4049
2026-01-22 23:40:27.39	31.80	7.47	-42.6	-43.5	20.6	0.00e+00	0	44	0	334495744	56	4085
2026-01-22 23:40:28.40	31.93	7.52	-42.6	-43.6	20.6	0.00e+00	0	44	0	339738624	56	4105
2026-01-22 23:40:29.41	32.06	7.56	-42.5	-43.5	20.7	0.00e+00	0	44	0	346030080	56	4054
2026-01-22 23:40:30.42	32.19	7.61	-42.5	-43.4	20.7	0.00e+00	0	44	0	351272960	56	4031
2026-01-22 23:40:31.43	32.33	7.66	-42.4	-43.3	20.8	0.00e+00	0	44	0	356515840	56	3987
2026-01-22 23:40:32.44	32.46	7.71	-42.4	-43.3	20.8	0.00e+00	0	44	0	362807296	56	3993
2026-01-22 23:40:33.45	32.60	7.75	-42.3	-43.2	20.9	0.00e+00	0	44	0	369098752	56	3949
2026-01-22 23:40:34.46	32.73	7.80	-42.4	-43.4	20.8	0.00e+00	0	44	0	374341632	56	4006
2026-01-22 23:40:35.47	32.87	7.85	-42.4	-43.4	20.8	0.00e+00	0	44	0	379584512	56	4029
2026-01-22 23:40:36.47	33.00	7.89	-42.6	-43.5	20.7	0.00e+00	0	44	0	385875968	56	4084
2026-01-22 23:40:37.48	33.14	7.94	-42.5	-43.4	20.7	0.00e+00	0	44	0	391118848	56	4048
2026-01-22 23:40:38.49	33.28	7.99	-42.8	-43.7	20.4	0.00e+00	0	44	0	396361728	56	4193
2026-01-22 23:40:39.50	33.42	8.03	-42.7	-43.7	20.5	0.00e+00	0	44	0	402653184	56	4177
2026-01-22 23:40:40.51	33.55	8.08	-42.5	-43.4	20.7	0.00e+00	0	44	0	407896064	56	4043
2026-01-22 23:40:41.52	33.69	8.13	-42.7	-43.7	20.6	0.00e+00	0	44	0	413138944	56	4148
2026-01-22 23:40:42.53	33.83	8.18	-42.6	-43.5	20.6	0.00e+00	0	44	0	419430400	56	4079
2026-01-22 23:40:43.54	33.97	8.22	-42.2	-43.1	21.0	0.00e+00	0	44	0	425721856	56	3913
2026-01-22 23:40:44.55	34.11	8.27	-42.1	-43.1	21.1	0.00e+00	0	44	0	430964736	56	3874
2026-01-22 23:40:45.55	34.25	8.31	-42.2	-43.1	21.1	0.00e+00	0	44	0	436207616	56	3899
2026-01-22 23:40:46.56	34.39	8.36	-42.3	-43.2	20.9	0.00e+00	0	44	0	442499072	56	3954
2026-01-22 23:40:47.57	34.53	8.41	-42.3	-43.2	21.0	0.00e+00	0	44	0	447741952	56	3936
2026-01-22 23:40:48.58	34.67	8.45	-42.3	-43.2	21.0	0.00e+00	0	44	0	454033408	56	3955
2026-01-22 23:40:49.59	34.81	8.50	-42.1	-43.0	21.2	0.00e+00	0	44	0	459276288	56	3847
2026-01-22 23:40:50.60	34.95	8.55	-42.0	-42.9	21.3	0.00e+00	0	44	0	464519168	56	3814
2026-01-22 23:40:51.61	35.10	8.59	-41.8	-42.7	21.4	0.00e+00	0	44	0	470810624	55	3929
2026-01-22 23:40:52.61	35.24	8.64	-41.9	-42.8	21.3	0.00e+00	0	44	0	476053504	55	3969
2026-01-22 23:40:53.62	35.38	8.68	-42.0	-42.9	21.2	0.00e+00	0	44	0	481296384	55	4051
2026-01-22 23:40:54.63	35.53	8.73	-42.0	-42.9	21.3	0.00e+00	0	44	0	487587840	55	4019
2026-01-22 23:40:55.64	35.67	8.78	-41.9	-42.8	21.4	0.00e+00	0	44	0	493879296	55	3980
2026-01-22 23:40:56.65	35.81	8.82	-41.8	-42.7	21.4	0.00e+00	0	44	0	499122176	55	3946
2026-01-22 23:40:57.66	35.96	8.87	-41.9	-42.8	21.3	0.00e+00	0	44	0	504365056	55	3984
2026-01-22 23:40:58.67	36.11	8.91	-42.0	-42.9	21.2	0.00e+00	0	44	0	510656512	55	4017
2026-01-22 23:40:59.68	36.25	8.96	-41.9	-42.8	21.3	0.00e+00	0	44	0	515899392	55	3996
2026-01-22 23:41:00.69	36.40	9.01	-41.7	-42.6	21.5	0.00e+00	0	44	0	521142272	55	3888
2026-01-22 23:41:01.70	36.55	9.05	-41.7	-42.5	21.6	0.00e+00	0	44	0	527433728	55	3868
2026-01-22 23:41:02.71	36.69	9.10	-41.9	-42.7	21.4	0.00e+00	0	44	0	532676608	55	3953
2026-01-22 23:41:03.72	36.84	9.14	-41.8	-42.7	21.4	0.00e+00	0	44	0	538968064	55	3938
2026-01-22 23:41:04.72	36.99	9.19	-41.8	-42.6	21.5	0.00e+00	0	44	0	544210944	55	3905
2026-01-22 23:41:05.73	37.14	9.23	-41.6	-42.5	21.7	0.00e+00	0	44	0	549453824	55	3832
2026-01-22 23:41:06.74	37.29	9.28	-41.8	-42.6	21.5	0.00e+00	0	44	0	555745280	55	3904
2026-01-22 23:41:07.75	37.43	9.32	-41.7	-42.6	21.5	0.00e+00	0	44	0	562036736	55	3901
2026-01-22 23:41:08.76	37.59	9.37	-41.6	-42.5	21.7	0.00e+00	0	44	0	567279616	55	3829
2026-01-22 23:41:09.77	37.74	9.41	-41.6	-42.5	21.7	0.00e+00	0	44	0	572522496	55	3850
2026-01-22 23:41:10.78	37.89	9.46	-41.7	-42.5	21.6	0.00e+00	0	44	0	578813952	55	3856
2026-01-22 23:41:11.78	38.04	9.50	-41.7	-42.6	21.6	0.00e+00	0	44	0	584056832	55	3888
2026-01-22 23:41:12.79	38.19	9.54	-41.8	-42.7	21.5	0.00e+00	0	44	0	589299712	55	3926
2026-01-22 23:41:13.80	38.34	9.59	-41.9	-42.8	21.4	0.00e+00	0	44	0	595591168	55	3973
2026-01-22 23:41:14.81	38.49	9.63	-41.7	-42.5	21.6	0.00e+00	0	44	0	600834048	55	3863
2026-01-22 23:41:15.81	38.65	9.68	-41.4	-42.2	21.9	0.00e+00	0	44	0	606076928	54	3948
2026-01-22 23:41:16.82	38.80	9.72	-41.5	-42.4	21.8	0.00e+00	0	44	0	612368384	54	4015
2026-01-22 23:41:17.83	38.95	9.77	-41.5	-42.4	21.8	0.00e+00	0	44	0	617611264	54	4005
2026-01-22 23:41:18.84	39.11	9.81	-41.5	-42.4	21.8	0.00e+00	0	44	0	623902720	54	4018
2026-01-22 23:41:19.85	39.26	9.85	-41.5	-42.4	21.8	0.00e+00	0	44	0	629145600	54	4014
2026-01-22 23:41:20.85	39.42	9.90	-41.6	-42.4	21.8	0.00e+00	0	44	0	635437056	54	4049
2026-01-22 23:41:21.86	39.57	9.94	-41.5	-42.4	21.8	0.00e+00	0	44	0	640679936	54	4028
2026-01-22 23:41:22.87	39.73	9.98	-41.6	-42.4	21.8	0.00e+00	0	44	0	646971392	54	4049
2026-01-22 23:41:23.88	39.89	10.03	-41.4	-42.2	22.0	0.00e+00	0	44	0	652214272	54	3942
2026-01-22 23:41:24.89	40.04	10.07	-41.2	-42.0	22.1	0.00e+00	0	44	0	657457152	54	3866
2026-01-22 23:41:25.90	40.20	10.11	-41.3	-42.1	22.1	0.00e+00	0	44	0	663748608	54	3894
2026-01-22 23:41:26.91	40.36	10.16	-41.3	-42.2	22.0	0.00e+00	0	44	0	668991488	54	3922
2026-01-22 23:41:27.91	40.52	10.20	-41.2	-42.1	22.2	0.00e+00	0	44	0	674234368	54	3876
2026-01-22 23:41:28.92	40.68	10.24	-41.1	-42.0	22.2	0.00e+00	0	44	0	680525824	54	3833
2026-01-22 23:41:29.93	40.83	10.29	-41.2	-42.1	22.2	0.00e+00	0	44	0	685768704	54	3869
2026-01-22 23:41:30.94	40.99	10.33	-41.2	-42.1	22.1	0.00e+00	0	44	0	692060160	54	3879
2026-01-22 23:41:31.95	41.16	10.37	-41.4	-42.2	22.0	0.00e+00	0	44	0	697303040	54	3955
2026-01-22 23:41:32.96	41.32	10.41	-41.3	-42.1	22.1	0.00e+00	0	44	0	703594496	54	3892
2026-01-22 23:41:33.97	41.48	10.46	-41.3	-42.2	22.1	0.00e+00	0	44	0	708837376	54	3917
2026-01-22 23:41:34.98	41.64	10.50	-41.3	-42.1	22.1	0.00e+00	0	44	0	714080256	54	3887
2026-01-22 23:41:35.99	41.80	10.54	-41.2	-42.0	22.2	0.00e+00	0	44	0	720371712	54	3851
2026-01-22 23:41:36.99	41.96	10.58	-41.1	-41.9	22.3	0.00e+00	0	44	0	725614592	54	3820
2026-01-22 23:41:38.00	42.13	10.62	-41.1	-41.9	22.3	0.00e+00	0	44	0	731906048	54	3815
2026-01-22 23:41:39.01	42.29	10.66	-41.2	-42.1	22.2	0.00e+00	0	44	0	737148928	54	3870
2026-01-22 23:41:40.02	42.45	10.71	-41.2	-42.0	22.2	0.00e+00	0	44	0	742391808	54	3856
2026-01-22 23:41:41.03	42.62	10.75	-41.2	-42.0	22.2	0.00e+00	0	44	0	748683264	54	3859
2026-01-22 23:41:42.04	42.78	10.79	-41.2	-42.0	22.2	0.00e+00	0	44	0	754974720	54	3835
2026-01-22 23:41:43.05	42.95	10.83	-41.1	-41.9	22.3	0.00e+00	0	44	0	760217600	54	3806
2026-01-22 23:41:44.06	43.11	10.87	-41.1	-42.0	22.3	0.00e+00	0	44	0	765460480	54	3828
2026-01-22 23:41:45.06	43.28	10.91	-41.3	-42.2	22.1	0.00e+00	0	44	0	771751936	54	3920
2026-01-22 23:41:46.07	43.45	10.95	-41.2	-42.1	22.2	0.00e+00	0	44	0	776994816	54	3873
2026-01-22 23:41:47.08	43.61	10.99	-41.3	-42.1	22.1	0.00e+00	0	44	0	782237696	54	3895
2026-01-22 23:41:48.09	43.78	11.03	-41.3	-42.1	22.1	0.00e+00	0	44	0	788529152	54	3912
2026-01-22 23:41:49.10	43.95	11.07	-41.5	-42.3	21.9	0.00e+00	0	44	0	793772032	54	3995
2026-01-22 23:41:50.10	44.12	11.11	-41.5	-42.4	21.9	0.00e+00	0	44	0	799014912	54	4014
2026-01-22 23:41:51.12	44.29	11.15	-41.4	-42.3	22.0	0.00e+00	0	44	0	805306368	54	3972
2026-01-22 23:41:52.12	44.45	11.19	-41.5	-42.4	21.9	0.00e+00	0	44	0	810549248	54	4019
2026-01-22 23:41:53.13	44.62	11.23	-41.7	-42.5	21.8	0.00e+00	0	44	0	816840704	54	4081
2026-01-22 23:41:54.14	44.79	11.27	-41.3	-42.2	22.1	0.00e+00	0	44	0	822083584	54	3930
2026-01-22 23:41:55.15	44.96	11.31	-41.4	-42.2	22.0	0.00e+00	0	44	0	828375040	54	3944
2026-01-22 23:41:56.16	45.14	11.35	-41.2	-42.1	22.2	0.00e+00	0	44	0	833617920	54	3873
2026-01-22 23:41:57.17	45.31	11.39	-41.2	-42.0	22.2	0.00e+00	0	44	0	839909376	54	3862
2026-01-22 23:41:58.17	45.48	11.43	-41.1	-41.9	22.3	0.00e+00	0	44	0	845152256	54	3807
2026-01-22 23:41:59.18	45.65	11.47	-41.1	-41.9	22.3	0.00e+00	0	44	0	850395136	54	3806
2026-01-22 23:42:00.19	45.82	11.50	-41.0	-41.8	22.4	0.00e+00	0	44	0	856686592	54	3764
2026-01-22 23:42:01.20	46.00	11.54	-40.9	-41.7	22.5	0.00e+00	0	44	0	861929472	53	3929
2026-01-22 23:42:02.21	46.17	11.58	-41.0	-41.8	22.4	0.00e+00	0	44	0	867172352	53	3978
2026-01-22 23:42:03.22	46.35	11.62	-41.1	-41.9	22.3	0.00e+00	0	44	0	873463808	53	4027
2026-01-22 23:42:04.22	46.52	11.66	-41.1	-42.0	22.3	0.00e+00	0	44	0	878706688	53	4058
2026-01-22 23:42:05.23	46.69	11.69	-41.2	-42.0	22.2	0.00e+00	0	44	0	883949568	53	4096
2026-01-22 23:42:06.24	46.87	11.73	-41.2	-42.0	22.3	0.00e+00	0	44	0	890241024	53	4075
2026-01-22 23:42:07.25	47.05	11.77	-41.1	-41.9	22.3	0.00e+00	0	44	0	896532480	53	4051
2026-01-22 23:42:08.25	47.22	11.81	-41.1	-41.9	22.3	0.00e+00	0	44	0	901775360	53	4039
2026-01-22 23:42:09.26	47.40	11.84	-40.9	-41.7	22.5	0.00e+00	0	44	0	907018240	53	3938
2026-01-22 23:42:10.27	47.57	11.88	-40.8	-41.6	22.6	0.00e+00	0	44	0	913309696	53	3900
2026-01-22 23:42:11.28	47.75	11.92	-40.8	-41.6	22.6	0.00e+00	0	44	0	918552576	53	3886
2026-01-22 23:42:12.29	47.93	11.95	-40.7	-41.5	22.8	0.00e+00	0	44	0	924844032	53	3827
2026-01-22 23:42:13.29	48.11	11.99	-40.6	-41.4	22.8	0.00e+00	0	44	0	930086912	53	3810
2026-01-22 23:42:14.30	48.29	12.02	-40.6	-41.3	22.9	0.00e+00	0	44	0	935329792	53	3773
2026-01-22 23:42:15.31	48.47	12.06	-40.7	-41.4	22.8	0.00e+00	0	44	0	941621248	53	3814
2026-01-22 23:42:16.32	48.65	12.10	-40.6	-41.4	22.8	0.00e+00	0	44	0	946864128	53	3815
2026-01-22 23:42:17.33	48.83	12.13	-40.8	-41.6	22.7	0.00e+00	0	44	0	952107008	53	3883
2026-01-22 23:42:18.34	49.01	12.17	-40.9	-41.8	22.5	0.00e+00	0	44	0	958398464	53	3967
2026-01-22 23:42:19.35	49.19	12.20	-41.0	-41.8	22.5	0.00e+00	0	44	0	964689920	53	3986
2026-01-22 23:42:20.36	49.37	12.24	-41.1	-41.9	22.4	0.00e+00	0	44	0	969932800	53	4025
2026-01-22 23:42:21.37	49.55	12.27	-41.1	-41.9	22.3	0.00e+00	0	44	0	975175680	53	4051
2026-01-22 23:42:22.37	49.73	12.30	-41.0	-41.8	22.4	0.00e+00	0	44	0	981467136	53	3997
2026-01-22 23:42:23.38	49.91	12.34	-41.0	-41.9	22.4	0.00e+00	0	44	0	986710016	53	4010
2026-01-22 23:42:24.39	50.10	12.37	-40.8	-41.6	22.7	0.00e+00	0	44	0	991952896	53	3881
2026-01-22 23:42:25.40	50.28	12.41	-40.6	-41.4	22.8	0.00e+00	0	44	0	998244352	53	3822
2026-01-22 23:42:26.41	50.47	12.44	-40.6	-41.4	22.8	0.00e+00	0	44	0	1003487232	53	3804
2026-01-22 23:42:27.41	50.65	12.47	-40.8	-41.6	22.7	0.00e+00	0	44	0	1009778688	53	3873
2026-01-22 23:42:28.42	50.83	12.50	-40.7	-41.4	22.8	0.00e+00	0	44	0	1015021568	53	3818
2026-01-22 23:42:29.43	51.02	12.54	-40.7	-41.5	22.8	0.00e+00	0	44	0	1020264448	53	3834
2026-01-22 23:42:30.44	51.20	12.57	-40.6	-41.4	22.9	0.00e+00	0	44	0	1026555904	53	3800
2026-01-22 23:42:31.45	51.39	12.60	-40.7	-41.5	22.7	0.00e+00	0	44	0	1032847360	53	3859
2026-01-22 23:42:32.45	51.58	12.63	-40.8	-41.6	22.6	0.00e+00	0	44	0	1038090240	53	3902
2026-01-22 23:42:33.46	51.76	12.67	-40.8	-41.6	22.6	0.00e+00	0	44	0	1043333120	53	3898
2026-01-22 23:42:34.47	51.95	12.70	-40.9	-41.7	22.6	0.00e+00	0	44	0	1049624576	53	3923
2026-01-22 23:42:35.48	52.14	12.73	-40.7	-41.6	22.7	0.00e+00	0	44	0	1054867456	53	3870
2026-01-22 23:42:36.49	52.33	12.76	-40.7	-41.5	22.7	0.00e+00	0	44	0	1060110336	53	3861
2026-01-22 23:42:37.49	52.51	12.79	-40.8	-41.6	22.7	0.00e+00	0	44	0	1066401792	53	3874
2026-01-22 23:42:38.50	52.70	12.82	-40.7	-41.5	22.7	0.00e+00	0	44	0	1071644672	53	3859
2026-01-22 23:42:39.51	52.89	12.85	-40.8	-41.6	22.7	0.00e+00	0	44	0	1076887552	53	3882
2026-01-22 23:42:40.52	53.08	12.88	-40.9	-41.7	22.5	0.00e+00	0	44	0	1083179008	53	3942
2026-01-22 23:42:41.53	53.27	12.91	-40.9	-41.7	22.6	0.00e+00	0	44	0	1088421888	53	3930
2026-01-22 23:42:42.53	53.46	12.94	-40.8	-41.6	22.6	0.00e+00	0	44	0	1094713344	53	3913
2026-01-22 23:42:43.54	53.65	12.97	-40.9	-41.7	22.6	0.00e+00	0	44	0	1099956224	53	3934
2026-01-22 23:42:44.55	53.84	13.00	-40.8	-41.6	22.7	0.00e+00	0	44	0	1106247680	53	3881
2026-01-22 23:42:45.56	54.03	13.03	-40.6	-41.4	22.9	0.00e+00	0	44	0	1111490560	53	3795
2026-01-22 23:42:46.57	54.22	13.06	-40.7	-41.5	22.8	0.00e+00	0	44	0	1117782016	53	3836
2026-01-22 23:42:47.57	54.41	13.09	-40.7	-41.5	22.7	0.00e+00	0	44	0	1123024896	53	3865
2026-01-22 23:42:48.58	54.61	13.11	-40.7	-41.5	22.8	0.00e+00	0	44	0	1128267776	53	3840
2026-01-22 23:42:49.59	54.80	13.14	-40.7	-41.5	22.7	0.00e+00	0	44	0	1134559232	53	3864
2026-01-22 23:42:50.60	54.99	13.17	-40.7	-41.5	22.7	0.00e+00	0	44	0	1139802112	53	3861
2026-01-22 23:42:51.61	55.19	13.20	-40.6	-41.4	22.8	0.00e+00	0	44	0	1145044992	53	3819
2026-01-22 23:42:52.62	55.38	13.22	-40.5	-41.3	22.9	0.00e+00	0	44	0	1151336448	53	3773
2026-01-22 23:42:53.63	55.57	13.25	-40.6	-41.4	22.9	0.00e+00	0	44	0	1156579328	53	3788
2026-01-22 23:42:54.63	55.77	13.28	-40.5	-41.3	23.0	0.00e+00	0	44	0	1161822208	53	3762
2026-01-22 23:42:55.64	55.96	13.30	-40.4	-41.1	23.1	0.00e+00	0	44	0	1168113664	52	3913
2026-01-22 23:42:56.65	56.16	13.33	-40.3	-41.1	23.1	0.00e+00	0	44	0	1174405120	52	3886
2026-01-22 23:42:57.66	56.35	13.36	-40.3	-41.1	23.2	0.00e+00	0	44	0	1179648000	52	3896
2026-01-22 23:42:58.67	56.55	13.38	-40.4	-41.1	23.1	0.00e+00	0	44	0	1184890880	52	3909
2026-01-22 23:42:59.68	56.74	13.41	-40.4	-41.2	23.1	0.00e+00	0	44	0	1191182336	52	3923
2026-01-22 23:43:00.69	56.94	13.43	-40.5	-41.3	23.0	0.00e+00	0	44	0	1196425216	52	3965
2026-01-22 23:43:01.70	57.14	13.46	-40.4	-41.2	23.1	0.00e+00	0	44	0	1202716672	52	3943
2026-01-22 23:43:02.71	57.34	13.48	-40.4	-41.2	23.1	0.00e+00	0	44	0	1207959552	52	3927
2026-01-22 23:43:03.72	57.53	13.50	-40.4	-41.1	23.1	0.00e+00	0	44	0	1213202432	52	3911
2026-01-22 23:43:04.73	57.73	13.53	-40.3	-41.0	23.2	0.00e+00	0	44	0	1219493888	52	3858
2026-01-22 23:43:05.73	57.93	13.55	-40.2	-40.9	23.3	0.00e+00	0	44	0	1224736768	52	3820
2026-01-22 23:43:06.74	58.13	13.57	-40.2	-41.0	23.3	0.00e+00	0	44	0	1231028224	52	3827
2026-01-22 23:43:07.75	58.32	13.60	-40.2	-40.9	23.3	0.00e+00	0	44	0	1236271104	52	3813
2026-01-22 23:43:08.76	58.52	13.62	-40.3	-41.0	23.2	0.00e+00	0	44	0	1242562560	52	3858
2026-01-22 23:43:09.77	58.72	13.64	-40.2	-41.0	23.3	0.00e+00	0	44	0	1247805440	52	3842
2026-01-22 23:43:10.77	58.92	13.66	-40.3	-41.0	23.2	0.00e+00	0	44	0	1253048320	52	3858
2026-01-22 23:43:11.78	59.12	13.69	-40.4	-41.1	23.1	0.00e+00	0	44	0	1259339776	52	3907
2026-01-22 23:43:12.79	59.32	13.71	-40.5	-41.3	23.0	0.00e+00	0	44	0	1264582656	52	3960
2026-01-22 23:43:13.80	59.52	13.73	-40.4	-41.2	23.1	0.00e+00	0	44	0	1269825536	52	3918
2026-01-22 23:43:14.81	59.72	13.75	-40.4	-41.2	23.1	0.00e+00	0	44	0	1276116992	52	3933
2026-01-22 23:43:15.82	59.92	13.77	-40.5	-41.3	23.0	0.00e+00	0	44	0	1281359872	52	3976
2026-01-22 23:43:16.83	60.13	13.79	-40.6	-41.4	22.9	0.00e+00	0	44	0	1287651328	52	4022
2026-01-22 23:43:17.84	60.33	13.81	-40.8	-41.6	22.7	0.00e+00	0	44	0	1292894208	52	4129
2026-01-22 23:43:18.85	60.53	13.83	-40.7	-41.5	22.8	0.00e+00	0	44	0	1299185664	52	4086
2026-01-22 23:43:19.86	60.73	13.85	-40.7	-41.5	22.7	0.00e+00	0	44	0	1304428544	52	4088
2026-01-22 23:43:20.87	60.93	13.87	-40.7	-41.5	22.8	0.00e+00	0	44	0	1310720000	52	4065
2026-01-22 23:43:21.88	61.14	13.89	-40.8	-41.6	22.7	0.00e+00	0	44	0	1315962880	52	4114
2026-01-22 23:43:22.89	61.34	13.91	-40.6	-41.4	22.9	0.00e+00	0	44	0	1321205760	52	4018
2026-01-22 23:43:23.89	61.54	13.92	-40.5	-41.3	23.0	0.00e+00	0	44	0	1327497216	52	3977
2026-01-22 23:43:24.90	61.74	13.94	-40.4	-41.2	23.1	0.00e+00	0	44	0	1332740096	52	3926
2026-01-22 23:43:25.91	61.95	13.96	-40.3	-41.1	23.2	0.00e+00	0	44	0	1337982976	52	3877
2026-01-22 23:43:26.92	62.15	13.98	-40.4	-41.2	23.1	0.00e+00	0	44	0	1344274432	52	3929
2026-01-22 23:43:27.93	62.36	13.99	-40.4	-41.2	23.1	0.00e+00	0	44	0	1349517312	52	3914
2026-01-22 23:43:28.93	62.56	14.01	-40.5	-41.3	23.0	0.00e+00	0	44	0	1354760192	52	3970
2026-01-22 23:43:29.94	62.76	14.03	-40.5	-41.3	23.0	0.00e+00	0	44	0	1361051648	52	3997
2026-01-22 23:43:30.95	62.97	14.04	-40.5	-41.3	22.9	0.00e+00	0	44	0	1367343104	52	3998
2026-01-22 23:43:31.96	63.17	14.06	-40.4	-41.2	23.1	0.00e+00	0	44	0	1372585984	52	3933
2026-01-22 23:43:32.97	63.38	14.07	-40.5	-41.3	23.0	0.00e+00	0	44	0	1377828864	52	3967
2026-01-22 23:43:33.98	63.58	14.09	-40.4	-41.2	23.1	0.00e+00	0	44	0	1384120320	52	3919
2026-01-22 23:43:34.99	63.79	14.10	-40.3	-41.1	23.2	0.00e+00	0	44	0	1389363200	52	3882
2026-01-22 23:43:35.99	63.99	14.12	-40.5	-41.3	23.0	0.00e+00	0	44	0	1395654656	52	3968
2026-01-22 23:43:37.00	64.20	14.13	-40.5	-41.3	23.0	0.00e+00	0	44	0	1400897536	52	3980
2026-01-22 23:43:38.01	64.40	14.14	-40.6	-41.4	22.9	0.00e+00	0	44	0	1406140416	52	4010
2026-01-22 23:43:39.02	64.61	14.16	-40.4	-41.2	23.1	0.00e+00	0	44	0	1412431872	52	3927
2026-01-22 23:43:40.03	64.82	14.17	-40.3	-41.0	23.2	0.00e+00	0	44	0	1417674752	52	3860
2026-01-22 23:43:41.04	65.02	14.18	-40.2	-41.0	23.4	0.00e+00	0	44	0	1423966208	52	3826
2026-01-22 23:43:42.05	65.23	14.19	-40.1	-40.8	23.4	0.00e+00	0	44	0	1429209088	52	3762
2026-01-22 23:43:43.06	65.44	14.21	-40.2	-41.0	23.3	0.00e+00	0	44	0	1435500544	52	3830
2026-01-22 23:43:44.07	65.65	14.22	-40.1	-40.8	23.4	0.00e+00	0	44	0	1440743424	52	3772
2026-01-22 23:43:45.08	65.85	14.23	-40.1	-40.9	23.4	0.00e+00	0	44	0	1445986304	52	3783
2026-01-22 23:43:46.09	66.06	14.24	-40.3	-41.0	23.2	0.00e+00	0	44	0	1452277760	52	3867
2026-01-22 23:43:47.09	66.27	14.25	-40.4	-41.2	23.1	0.00e+00	0	44	0	1457520640	52	3930
2026-01-22 23:43:48.10	66.47	14.26	-40.5	-41.3	23.0	0.00e+00	0	44	0	1462763520	52	3975
2026-01-22 23:43:49.11	66.68	14.27	-40.4	-41.2	23.0	0.00e+00	0	44	0	1469054976	52	3945
2026-01-22 23:43:50.12	66.89	14.28	-40.3	-41.1	23.2	0.00e+00	0	44	0	1474297856	52	3900
2026-01-22 23:43:51.13	67.10	14.29	-40.3	-41.1	23.2	0.00e+00	0	44	0	1480589312	52	3895
2026-01-22 23:43:52.14	67.31	14.30	-40.4	-41.1	23.1	0.00e+00	0	44	0	1485832192	52	3913
2026-01-22 23:43:53.15	67.52	14.30	-40.4	-41.2	23.1	0.00e+00	0	44	0	1492123648	52	3944
2026-01-22 23:43:54.16	67.72	14.31	-40.4	-41.2	23.0	0.00e+00	0	44	0	1497366528	52	3956
2026-01-22 23:43:55.17	67.93	14.32	-40.5	-41.3	23.0	0.00e+00	0	44	0	1503657984	52	3979
2026-01-22 23:43:56.18	68.14	14.33	-40.6	-41.4	23.0	0.00e+00	0	44	0	1508900864	52	4006
2026-01-22 23:43:57.19	68.35	14.34	-40.4	-41.2	23.1	0.00e+00	0	44	0	1514143744	52	3948
2026-01-22 23:43:58.19	68.56	14.34	-40.4	-41.2	23.1	0.00e+00	0	44	0	1520435200	52	3933
2026-01-22 23:43:59.20	68.77	14.35	-40.6	-41.4	23.0	0.00e+00	0	44	0	1525678080	52	4005
2026-01-22 23:44:00.21	68.98	14.35	-40.4	-41.2	23.1	0.00e+00	0	44	0	1530920960	52	3942
2026-01-22 23:44:01.22	69.19	14.36	-40.4	-41.2	23.1	0.00e+00	0	44	0	1537212416	52	3935
2026-01-22 23:44:02.23	69.40	14.37	-40.6	-41.4	23.0	0.00e+00	0	44	0	1542455296	52	4015
2026-01-22 23:44:03.24	69.60	14.37	-40.4	-41.2	23.2	0.00e+00	0	44	0	1548746752	52	3915
2026-01-22 23:44:04.25	69.81	14.37	-40.3	-41.1	23.2	0.00e+00	0	44	0	1553989632	52	3869
2026-01-22 23:44:05.26	70.02	14.38	-40.3	-41.0	23.2	0.00e+00	0	44	0	1560281088	52	3864
2026-01-22 23:44:06.27	70.23	14.38	-40.3	-41.0	23.3	0.00e+00	0	44	0	1565523968	52	3861
2026-01-22 23:44:07.28	70.44	14.39	-40.3	-41.0	23.3	0.00e+00	0	44	0	1570766848	52	3856
2026-01-22 23:44:08.28	70.65	14.39	-40.3	-41.1	23.2	0.00e+00	0	44	0	1577058304	52	3877
2026-01-22 23:44:09.29	70.86	14.39	-40.4	-41.2	23.1	0.00e+00	0	44	0	1582301184	52	3951
2026-01-22 23:44:10.30	71.07	14.39	-40.5	-41.2	23.1	0.00e+00	0	44	0	1588592640	52	3952
2026-01-22 23:44:11.31	71.28	14.40	-40.4	-41.2	23.2	0.00e+00	0	44	0	1593835520	52	3915
2026-01-22 23:44:12.32	71.49	14.40	-40.4	-41.2	23.1	0.00e+00	0	44	0	1599078400	52	3914
2026-01-22 23:44:13.33	71.70	14.40	-40.4	-41.2	23.1	0.00e+00	0	44	0	1605369856	52	3947
2026-01-22 23:44:14.34	71.91	14.40	-40.3	-41.1	23.2	0.00e+00	0	44	0	1611661312	52	3891
2026-01-22 23:44:15.35	72.12	14.40	-40.4	-41.1	23.1	0.00e+00	0	44	0	1616904192	52	3907
2026-01-22 23:44:16.36	72.33	14.40	-40.4	-41.2	23.1	0.00e+00	0	44	0	1622147072	52	3918
2026-01-22 23:44:17.37	72.54	14.40	-40.4	-41.2	23.1	0.00e+00	0	44	0	1628438528	52	3932
2026-01-22 23:44:18.37	72.75	14.40	-40.5	-41.2	23.1	0.00e+00	0	44	0	1633681408	52	3958
2026-01-22 23:44:19.38	72.96	14.40	-40.4	-41.1	23.1	0.00e+00	0	44	0	1638924288	52	3909
2026-01-22 23:44:20.39	73.17	14.40	-40.4	-41.2	23.1	0.00e+00	0	44	0	1645215744	52	3945
2026-01-22 23:44:21.40	73.38	14.40	-40.5	-41.3	23.0	0.00e+00	0	44	0	1650458624	52	3960
2026-01-22 23:44:22.41	73.59	14.40	-40.6	-41.4	23.0	0.00e+00	0	44	0	1655701504	52	4007
2026-01-22 23:44:23.41	73.80	14.39	-40.5	-41.3	23.0	0.00e+00	0	44	0	1661992960	52	3997
2026-01-22 23:44:24.42	74.01	14.39	-40.6	-41.4	22.9	0.00e+00	0	44	0	1667235840	52	4024
2026-01-22 23:44:25.43	74.22	14.39	-40.6	-41.4	22.9	0.00e+00	0	44	0	1673527296	52	4041
2026-01-22 23:44:26.44	74.43	14.39	-40.7	-41.5	22.8	0.00e+00	0	44	0	1678770176	52	4079
2026-01-22 23:44:27.45	74.64	14.38	-40.7	-41.5	22.7	0.00e+00	0	44	0	1685061632	52	4084
2026-01-22 23:44:28.46	74.85	14.38	-40.4	-41.1	23.1	0.00e+00	0	44	0	1690304512	52	3912
2026-01-22 23:44:29.47	75.05	14.37	-40.4	-41.1	23.1	0.00e+00	0	44	0	1696595968	52	3904
2026-01-22 23:44:30.48	75.26	14.37	-40.3	-41.1	23.2	0.00e+00	0	44	0	1701838848	52	3875
2026-01-22 23:44:31.49	75.47	14.36	-40.4	-41.2	23.1	0.00e+00	0	44	0	1707081728	52	3926
2026-01-22 23:44:32.50	75.68	14.36	-40.3	-41.1	23.2	0.00e+00	0	44	0	1713373184	52	3879
2026-01-22 23:44:33.51	75.89	14.35	-40.4	-41.2	23.1	0.00e+00	0	44	0	1718616064	52	3919
2026-01-22 23:44:34.52	76.10	14.35	-40.4	-41.2	23.1	0.00e+00	0	44	0	1723858944	52	3926
2026-01-22 23:44:35.53	76.31	14.34	-40.3	-41.1	23.2	0.00e+00	0	44	0	1730150400	52	3887
2026-01-22 23:44:36.53	76.52	14.33	-40.4	-41.2	23.1	0.00e+00	0	44	0	1735393280	52	3921
2026-01-22 23:44:37.54	76.73	14.33	-40.4	-41.1	23.2	0.00e+00	0	44	0	1741684736	52	3911
2026-01-22 23:44:38.55	76.94	14.32	-40.5	-41.3	23.0	0.00e+00	0	45	0	1746927616	52	3966
2026-01-22 23:44:39.56	77.15	14.31	-40.5	-41.3	23.0	0.00e+00	0	44	0	1753219072	52	3968
2026-01-22 23:44:40.57	77.35	14.30	-40.5	-41.3	23.0	0.00e+00	0	44	0	1758461952	52	4003
2026-01-22 23:44:41.58	77.56	14.30	-40.5	-41.3	23.0	0.00e+00	0	44	0	1763704832	52	3971
2026-01-22 23:44:42.59	77.77	14.29	-40.4	-41.2	23.1	0.00e+00	0	44	0	1769996288	52	3925
2026-01-22 23:44:43.59	77.98	14.28	-40.5	-41.3	23.0	0.00e+00	0	44	0	1775239168	52	3973
2026-01-22 23:44:44.60	78.19	14.27	-40.4	-41.2	23.1	0.00e+00	0	44	0	1781530624	52	3943
2026-01-22 23:44:45.61	78.39	14.26	-40.4	-41.2	23.1	0.00e+00	0	44	0	1786773504	52	3923
2026-01-22 23:44:46.62	78.60	14.25	-40.4	-41.2	23.0	0.00e+00	0	44	0	1792016384	52	3920
2026-01-22 23:44:47.63	78.81	14.24	-40.4	-41.2	23.0	0.00e+00	0	44	0	1798307840	52	3948
2026-01-22 23:44:48.63	79.02	14.23	-40.4	-41.2	23.1	0.00e+00	0	44	0	1803550720	52	3950
2026-01-22 23:44:49.64	79.22	14.22	-40.5	-41.2	23.0	0.00e+00	0	44	0	1809842176	52	3957
2026-01-22 23:44:50.65	79.43	14.20	-40.3	-41.1	23.2	0.00e+00	0	44	0	1815085056	52	3892
2026-01-22 23:44:51.66	79.64	14.19	-40.5	-41.3	23.0	0.00e+00	0	44	0	1821376512	52	3986
2026-01-22 23:44:52.67	79.85	14.18	-40.4	-41.2	23.1	0.00e+00	0	44	0	1826619392	52	3928
2026-01-22 23:44:53.68	80.05	14.17	-40.4	-41.2	23.0	0.00e+00	0	44	0	1831862272	52	3951
2026-01-22 23:44:54.69	80.26	14.16	-40.5	-41.2	23.0	0.00e+00	0	44	0	1838153728	52	3955
2026-01-22 23:44:55.70	80.47	14.14	-40.5	-41.3	23.0	0.00e+00	0	44	0	1843396608	52	3984
2026-01-22 23:44:56.70	80.67	14.13	-40.5	-41.3	23.0	0.00e+00	0	44	0	1848639488	52	3997
2026-01-22 23:44:57.71	80.88	14.11	-40.5	-41.3	23.0	0.00e+00	0	44	0	1854930944	52	3981
2026-01-22 23:44:58.72	81.08	14.10	-40.5	-41.3	23.0	0.00e+00	0	44	0	1860173824	52	3961
2026-01-22 23:44:59.73	81.29	14.09	-40.4	-41.2	23.1	0.00e+00	0	44	0	1866465280	52	3941
2026-01-22 23:45:00.74	81.50	14.07	-40.5	-41.3	23.0	0.00e+00	0	44	0	1871708160	52	3959
2026-01-22 23:45:01.75	81.70	14.06	-40.5	-41.3	23.0	0.00e+00	0	44	0	1877999616	52	3984
2026-01-22 23:45:02.76	81.91	14.04	-40.5	-41.3	23.0	0.00e+00	0	44	0	1883242496	52	3977
2026-01-22 23:45:03.77	82.11	14.02	-40.6	-41.4	22.9	0.00e+00	0	44	0	1889533952	52	4009
2026-01-22 23:45:04.77	82.31	14.01	-40.7	-41.5	22.8	0.00e+00	0	44	0	1894776832	52	4072
2026-01-22 23:45:05.78	82.52	13.99	-40.7	-41.5	22.8	0.00e+00	0	44	0	1900019712	52	4059
2026-01-22 23:45:06.79	82.72	13.97	-40.5	-41.3	23.0	0.00e+00	0	44	0	1906311168	52	3993
2026-01-22 23:45:07.80	82.93	13.96	-40.7	-41.5	22.8	0.00e+00	0	44	0	1911554048	52	4055
2026-01-22 23:45:08.81	83.13	13.94	-40.6	-41.4	22.9	0.00e+00	0	44	0	1916796928	52	4006
2026-01-22 23:45:09.82	83.34	13.92	-40.6	-41.4	22.8	0.00e+00	0	44	0	1923088384	52	4051
2026-01-22 23:45:10.83	83.54	13.90	-40.5	-41.3	22.9	0.00e+00	0	44	0	1928331264	52	4002
2026-01-22 23:45:11.84	83.74	13.89	-40.6	-41.4	22.9	0.00e+00	0	44	0	1934622720	52	4007
2026-01-22 23:45:12.85	83.95	13.87	-40.7	-41.5	22.8	0.00e+00	0	44	0	1939865600	52	4069
2026-01-22 23:45:13.85	84.15	13.85	-40.7	-41.5	22.8	0.00e+00	0	44	0	1946157056	52	4066
2026-01-22 23:45:14.86	84.35	13.83	-40.6	-41.4	22.8	0.00e+00	0	44	0	1951399936	52	4021
2026-01-22 23:45:15.87	84.55	13.81	-40.7	-41.5	22.7	0.00e+00	0	44	0	1956642816	52	4096
2026-01-22 23:45:16.88	84.75	13.79	-40.8	-41.6	22.7	0.00e+00	0	44	0	1962934272	52	4108
2026-01-22 23:45:17.89	84.95	13.77	-40.7	-41.5	22.7	0.00e+00	0	44	0	1968177152	52	4074
2026-01-22 23:45:18.90	85.16	13.75	-40.8	-41.6	22.7	0.00e+00	0	44	0	1974468608	52	4109
2026-01-22 23:45:19.91	85.36	13.73	-40.7	-41.4	22.8	0.00e+00	0	44	0	1979711488	52	4050
2026-01-22 23:45:20.92	85.56	13.71	-40.7	-41.6	22.5	0.00e+00	0	44	0	1984954368	52	4104
2026-01-22 23:45:21.93	85.76	13.68	-40.6	-41.5	22.5	0.00e+00	0	44	0	1991245824	52	4070
2026-01-22 23:45:22.93	85.96	13.66	-40.7	-41.5	22.5	0.00e+00	0	44	0	1996488704	52	4098
2026-01-22 23:45:23.94	86.16	13.64	-40.8	-41.7	22.4	0.00e+00	0	44	0	2002780160	52	4164
2026-01-22 23:45:24.95	86.36	13.62	-40.8	-41.7	22.4	0.00e+00	0	44	0	2008023040	52	4172
2026-01-22 23:45:25.96	86.56	13.60	-40.7	-41.6	22.5	0.00e+00	0	44	0	2014314496	52	4119
2026-01-22 23:45:26.97	86.76	13.57	-40.8	-41.6	22.4	0.00e+00	0	44	0	2019557376	52	4128
2026-01-22 23:45:27.97	86.95	13.55	-40.6	-41.4	22.6	0.00e+00	0	44	0	2024800256	52	4044
2026-01-22 23:45:28.98	87.15	13.53	-40.7	-41.5	22.5	0.00e+00	0	44	0	2031091712	52	4079
2026-01-22 23:45:29.99	87.35	13.50	-40.7	-41.5	22.5	0.00e+00	0	44	0	2036334592	52	4092
2026-01-22 23:45:31.00	87.55	13.48	-40.7	-41.6	22.5	0.00e+00	0	44	0	2041577472	52	4103
2026-01-22 23:45:32.01	87.75	13.45	-40.7	-41.6	22.4	0.00e+00	0	44	0	2047868928	52	4119
2026-01-22 23:45:33.01	87.94	13.43	-40.8	-41.6	22.4	0.00e+00	0	44	0	2053111808	52	4129
2026-01-22 23:45:34.02	88.14	13.40	-40.6	-41.5	22.6	0.00e+00	0	44	0	2059403264	52	4068
2026-01-22 23:45:35.03	88.34	13.38	-40.5	-41.4	22.6	0.00e+00	0	44	0	2064646144	52	4022
2026-01-22 23:45:36.04	88.53	13.35	-40.6	-41.5	22.6	0.00e+00	0	44	0	2070937600	52	4053
2026-01-22 23:45:37.04	88.73	13.33	-40.6	-41.5	22.6	0.00e+00	0	44	0	2076180480	52	4053
2026-01-22 23:45:38.05	88.92	13.30	-40.7	-41.5	22.5	0.00e+00	0	44	0	2082471936	52	4079
2026-01-22 23:45:39.06	89.12	13.27	-40.6	-41.4	22.6	0.00e+00	0	44	0	2087714816	52	4038
2026-01-22 23:45:40.07	89.31	13.25	-40.7	-41.6	22.5	0.00e+00	0	44	0	2092957696	52	4107
2026-01-22 23:45:41.08	89.51	13.22	-40.8	-41.7	22.4	0.00e+00	0	44	0	2099249152	52	4161
2026-01-22 23:45:42.08	89.70	13.19	-40.9	-41.8	22.3	0.00e+00	0	44	0	2104492032	52	4219
2026-01-22 23:45:43.09	89.89	13.17	-40.9	-41.8	22.2	0.00e+00	0	44	0	2109734912	52	4198
2026-01-22 23:45:44.10	90.09	13.14	-41.0	-41.9	22.2	0.00e+00	0	44	0	2116026368	52	4246
2026-01-22 23:45:45.11	90.28	13.11	-40.9	-41.8	22.2	0.00e+00	0	44	0	2121269248	52	4209
2026-01-22 23:45:46.12	90.47	13.08	-40.7	-41.5	22.5	0.00e+00	0	44	0	2126512128	52	4094
2026-01-22 23:45:47.13	90.67	13.05	-40.9	-41.7	22.3	0.00e+00	0	44	0	2132803584	52	4184
2026-01-22 23:45:48.14	90.86	13.02	-40.9	-41.8	22.3	0.00e+00	0	44	0	2139095040	52	4195
2026-01-22 23:45:49.15	91.05	13.00	-40.9	-41.8	22.2	0.00e+00	0	44	0	2144337920	52	4215
2026-01-22 23:45:50.16	91.24	12.97	-40.9	-41.8	22.3	0.00e+00	0	44	0	2149580800	52	4201
2026-01-22 23:45:51.17	91.43	12.94	-40.9	-41.7	22.2	0.00e+00	0	44	0	2155872256	52	4191
2026-01-22 23:45:52.18	91.62	12.91	-40.9	-41.7	22.3	0.00e+00	0	44	0	2161115136	52	4193
2026-01-22 23:45:53.19	91.81	12.88	-40.8	-41.7	22.3	0.00e+00	0	44	0	2167406592	52	4158
2026-01-22 23:45:54.20	92.00	12.85	-40.9	-41.8	22.3	0.00e+00	0	44	0	2172649472	52	4202
2026-01-22 23:45:55.21	92.19	12.82	-41.0	-41.9	22.2	0.00e+00	0	44	0	2177892352	52	4245
2026-01-22 23:45:56.22	92.38	12.78	-40.8	-41.7	22.3	0.00e+00	0	44	0	2184183808	52	4160
2026-01-22 23:45:57.23	92.57	12.75	-40.9	-41.8	22.2	0.00e+00	0	44	0	2189426688	52	4198
2026-01-22 23:45:58.23	92.76	12.72	-40.9	-41.8	22.2	0.00e+00	0	44	0	2194669568	52	4211
2026-01-22 23:45:59.24	92.95	12.69	-40.9	-41.8	22.2	0.00e+00	0	44	0	2200961024	52	4203
2026-01-22 23:46:00.25	93.14	12.66	-41.0	-41.8	22.2	0.00e+00	0	44	0	2207252480	52	4237
2026-01-22 23:46:01.26	93.32	12.63	-41.1	-41.9	22.1	0.00e+00	0	44	0	2212495360	52	4288
2026-01-22 23:46:02.27	93.51	12.59	-41.1	-42.0	22.1	0.00e+00	0	44	0	2217738240	52	4294
2026-01-22 23:46:03.28	93.70	12.56	-41.0	-41.9	22.2	0.00e+00	0	44	0	2224029696	52	4243
2026-01-22 23:46:04.29	93.88	12.53	-41.0	-41.8	22.2	0.00e+00	0	44	0	2229272576	52	4226
2026-01-22 23:46:05.29	94.07	12.50	-41.1	-42.0	22.0	0.00e+00	0	44	0	2234515456	52	4302
2026-01-22 23:46:06.30	94.25	12.46	-41.1	-42.0	22.0	0.00e+00	0	44	0	2240806912	52	4305
2026-01-22 23:46:07.31	94.44	12.43	-41.0	-41.9	22.1	0.00e+00	0	44	0	2246049792	52	4260
2026-01-22 23:46:08.32	94.62	12.40	-41.2	-42.1	21.9	0.00e+00	0	44	0	2251292672	52	4347
2026-01-22 23:46:09.33	94.81	12.36	-41.1	-42.0	22.0	0.00e+00	0	44	0	2257584128	52	4318
2026-01-22 23:46:10.34	94.99	12.33	-41.1	-42.0	22.0	0.00e+00	0	44	0	2263875584	52	4321
2026-01-22 23:46:11.35	95.17	12.29	-41.1	-42.0	22.0	0.00e+00	0	44	0	2269118464	52	4316
2026-01-22 23:46:12.36	95.36	12.26	-41.2	-42.1	21.9	0.00e+00	0	44	0	2275409920	52	4347
2026-01-22 23:46:13.37	95.54	12.23	-41.1	-42.0	22.1	0.00e+00	0	44	0	2280652800	52	4296
2026-01-22 23:46:14.37	95.72	12.19	-41.2	-42.1	21.9	0.00e+00	0	44	0	2285895680	52	4349
2026-01-22 23:46:15.38	95.90	12.16	-41.2	-42.1	22.0	0.00e+00	0	44	0	2292187136	52	4342
2026-01-22 23:46:16.39	96.08	12.12	-41.2	-42.1	21.9	0.00e+00	0	44	0	2297430016	53	4137
2026-01-22 23:46:17.40	96.26	12.08	-41.3	-42.2	21.8	0.00e+00	0	44	0	2302672896	53	4181
2026-01-22 23:46:18.41	96.44	12.05	-41.3	-42.2	21.8	0.00e+00	0	44	0	2308964352	53	4188
2026-01-22 23:46:19.41	96.62	12.01	-41.4	-42.3	21.7	0.00e+00	0	44	0	2314207232	53	4202
2026-01-22 23:46:20.42	96.80	11.98	-41.4	-42.3	21.7	0.00e+00	0	44	0	2319450112	53	4210
2026-01-22 23:46:21.43	96.98	11.94	-41.2	-42.1	21.9	0.00e+00	0	44	0	2325741568	53	4126
2026-01-22 23:46:22.44	97.16	11.90	-41.2	-42.1	21.9	0.00e+00	0	44	0	2332033024	53	4099
2026-01-22 23:46:23.45	97.34	11.87	-41.2	-42.0	21.9	0.00e+00	0	44	0	2337275904	53	4096
2026-01-22 23:46:24.45	97.51	11.83	-41.2	-42.1	21.9	0.00e+00	0	44	0	2342518784	53	4099
2026-01-22 23:46:25.46	97.69	11.79	-41.0	-41.9	22.1	0.00e+00	0	44	0	2348810240	53	4016
2026-01-22 23:46:26.47	97.87	11.76	-41.2	-42.1	21.9	0.00e+00	0	44	0	2354053120	53	4127
2026-01-22 23:46:27.48	98.04	11.72	-41.2	-42.1	21.9	0.00e+00	0	45	0	2360344576	53	4133
2026-01-22 23:46:28.48	98.22	11.68	-41.3	-42.2	21.8	0.00e+00	0	44	0	2365587456	53	4167
2026-01-22 23:46:29.49	98.39	11.64	-41.4	-42.3	21.8	0.00e+00	0	44	0	2370830336	53	4195
2026-01-22 23:46:30.50	98.57	11.61	-41.4	-42.3	21.7	0.00e+00	0	44	0	2377121792	53	4203
2026-01-22 23:46:31.51	98.74	11.57	-41.5	-42.4	21.6	0.00e+00	0	44	0	2382364672	53	4254
2026-01-22 23:46:32.52	98.92	11.53	-41.4	-42.3	21.7	0.00e+00	0	44	0	2387607552	53	4222
2026-01-22 23:46:33.53	99.09	11.49	-41.3	-42.2	21.8	0.00e+00	0	44	0	2393899008	53	4164
2026-01-22 23:46:34.53	99.26	11.45	-41.2	-42.1	21.9	0.00e+00	0	44	0	2399141888	53	4123
2026-01-22 23:46:35.54	99.44	11.41	-41.4	-42.3	21.8	0.00e+00	0	45	0	2405433344	53	4197
2026-01-22 23:46:36.55	99.61	11.37	-41.4	-42.3	21.7	0.00e+00	0	44	0	2410676224	53	4230
2026-01-22 23:46:37.56	99.78	11.34	-41.4	-42.3	21.7	0.00e+00	0	44	0	2416967680	53	4214
2026-01-22 23:46:38.57	99.95	11.30	-41.3	-42.1	21.8	0.00e+00	0	44	0	2422210560	53	4142
2026-01-22 23:46:39.58	100.13	11.26	-41.4	-42.3	21.7	0.00e+00	0	44	0	2427453440	53	4206
2026-01-22 23:46:40.59	100.30	11.22	-41.3	-42.2	21.7	0.00e+00	0	44	0	2433744896	53	4192
2026-01-22 23:46:41.59	100.47	11.18	-41.3	-42.2	21.7	0.00e+00	0	45	0	2438987776	53	4192
2026-01-22 23:46:42.60	100.64	11.14	-41.5	-42.4	21.6	0.00e+00	0	44	0	2445279232	53	4263
2026-01-22 23:46:43.61	100.80	11.10	-41.6	-42.5	21.5	0.00e+00	0	44	0	2450522112	53	4337
2026-01-22 23:46:44.62	100.97	11.06	-41.4	-42.3	21.6	0.00e+00	0	45	0	2455764992	53	4235
2026-01-22 23:46:45.63	101.14	11.02	-41.5	-42.4	21.6	0.00e+00	0	44	0	2462056448	53	4252
2026-01-22 23:46:46.63	101.31	10.98	-41.6	-42.5	21.4	0.00e+00	0	44	0	2467299328	53	4336
2026-01-22 23:46:47.64	101.48	10.93	-41.6	-42.5	21.4	0.00e+00	0	44	0	2473590784	54	4096
2026-01-22 23:46:48.65	101.64	10.89	-41.7	-42.6	21.4	0.00e+00	0	45	0	2478833664	54	4141
2026-01-22 23:46:49.66	101.81	10.85	-41.7	-42.7	21.3	0.00e+00	0	45	0	2485125120	54	4165
2026-01-22 23:46:50.67	101.98	10.81	-41.8	-42.7	21.3	0.00e+00	0	44	0	2490368000	54	4165
2026-01-22 23:46:51.68	102.14	10.77	-41.7	-42.7	21.3	0.00e+00	0	45	0	2495610880	54	4162
2026-01-22 23:46:52.69	102.31	10.73	-41.9	-42.8	21.2	0.00e+00	0	45	0	2501902336	54	4238
2026-01-22 23:46:53.69	102.47	10.69	-41.7	-42.6	21.3	0.00e+00	0	44	0	2507145216	54	4133
2026-01-22 23:46:54.70	102.64	10.65	-41.8	-42.7	21.3	0.00e+00	0	44	0	2512388096	54	4165
2026-01-22 23:46:55.71	102.80	10.60	-41.7	-42.6	21.4	0.00e+00	0	44	0	2518679552	54	4120
2026-01-22 23:46:56.72	102.96	10.56	-41.8	-42.7	21.3	0.00e+00	0	44	0	2523922432	54	4179
2026-01-22 23:46:57.73	103.13	10.52	-41.9	-42.8	21.2	0.00e+00	0	44	0	2530213888	54	4209
2026-01-22 23:46:58.73	103.29	10.48	-41.8	-42.8	21.2	0.00e+00	0	44	0	2535456768	54	4207
2026-01-22 23:46:59.74	103.45	10.43	-41.8	-42.7	21.3	0.00e+00	0	44	0	2541748224	54	4182
2026-01-22 23:47:00.75	103.61	10.39	-41.8	-42.7	21.3	0.00e+00	0	44	0	2546991104	54	4168
2026-01-22 23:47:01.76	103.77	10.35	-42.0	-42.9	21.1	0.00e+00	0	44	0	2553282560	54	4260
2026-01-22 23:47:02.77	103.94	10.31	-41.8	-42.7	21.3	0.00e+00	0	44	0	2558525440	54	4180
2026-01-22 23:47:03.77	104.09	10.26	-41.7	-42.7	21.3	0.00e+00	0	44	0	2563768320	54	4155
2026-01-22 23:47:04.78	104.25	10.22	-41.9	-42.8	21.2	0.00e+00	0	44	0	2570059776	54	4210
2026-01-22 23:47:05.79	104.41	10.18	-41.9	-42.8	21.2	0.00e+00	0	44	0	2575302656	54	4229
2026-01-22 23:47:06.80	104.57	10.13	-41.9	-42.8	21.2	0.00e+00	0	44	0	2580545536	54	4234
2026-01-22 23:47:07.81	104.73	10.09	-41.9	-42.9	21.1	0.00e+00	0	44	0	2586836992	54	4263
2026-01-22 23:47:08.82	104.89	10.05	-42.0	-42.9	21.1	0.00e+00	0	44	0	2592079872	54	4280
2026-01-22 23:47:09.83	105.05	10.00	-41.8	-42.8	21.3	0.00e+00	0	44	0	2597322752	54	4198
2026-01-22 23:47:10.84	105.21	9.96	-41.9	-42.9	21.2	0.00e+00	0	44	0	2603614208	54	4244
2026-01-22 23:47:11.84	105.36	9.92	-41.8	-42.7	21.2	0.00e+00	0	44	0	2609905664	54	4192
2026-01-22 23:47:12.85	105.52	9.87	-41.7	-42.7	21.3	0.00e+00	0	44	0	2615148544	54	4151
2026-01-22 23:47:13.86	105.67	9.83	-41.9	-42.8	21.1	0.00e+00	0	44	0	2620391424	54	4237
2026-01-22 23:47:14.87	105.83	9.78	-42.0	-43.0	21.0	0.00e+00	0	45	0	2626682880	54	4305
2026-01-22 23:47:15.88	105.98	9.74	-42.0	-42.9	21.0	0.00e+00	0	44	0	2631925760	54	4284
2026-01-22 23:47:16.89	106.14	9.70	-41.8	-42.8	21.2	0.00e+00	0	44	0	2638217216	54	4207
2026-01-22 23:47:17.89	106.29	9.65	-41.9	-42.8	21.2	0.00e+00	0	44	0	2643460096	54	4206
2026-01-22 23:47:18.90	106.44	9.61	-41.9	-42.8	21.2	0.00e+00	0	44	0	2648702976	54	4212
2026-01-22 23:47:19.91	106.60	9.56	-42.1	-43.0	21.0	0.00e+00	0	45	0	2654994432	54	4320
2026-01-22 23:47:20.92	106.75	9.52	-41.9	-42.8	21.1	0.00e+00	0	45	0	2660237312	54	4235
2026-01-22 23:47:21.93	106.90	9.47	-42.0	-43.0	21.0	0.00e+00	0	45	0	2665480192	54	4297
2026-01-22 23:47:22.93	107.05	9.43	-42.2	-43.1	20.9	0.00e+00	0	44	0	2671771648	54	4390
2026-01-22 23:47:23.94	107.20	9.38	-42.4	-43.4	20.6	0.00e+00	0	44	0	2678063104	55	4277
2026-01-22 23:47:24.95	107.36	9.34	-42.4	-43.5	20.6	0.00e+00	0	45	0	2683305984	55	4294
2026-01-22 23:47:25.96	107.51	9.29	-42.3	-43.3	20.7	0.00e+00	0	45	0	2688548864	55	4214
2026-01-22 23:47:26.97	107.66	9.25	-42.4	-43.4	20.6	0.00e+00	0	45	0	2694840320	55	4259
2026-01-22 23:47:27.98	107.81	9.20	-42.4	-43.4	20.6	0.00e+00	0	44	0	2700083200	55	4280
2026-01-22 23:47:28.99	107.95	9.16	-42.2	-43.1	20.9	0.00e+00	0	44	0	2705326080	55	4125
2026-01-22 23:47:29.99	108.10	9.11	-42.0	-43.0	21.0	0.00e+00	0	44	0	2711617536	55	4065
2026-01-22 23:47:31.00	108.25	9.07	-42.2	-43.1	20.9	0.00e+00	0	45	0	2716860416	55	4129
2026-01-22 23:47:32.01	108.40	9.02	-42.2	-43.1	20.8	0.00e+00	0	44	0	2723151872	55	4144
2026-01-22 23:47:33.02	108.55	8.97	-42.1	-43.1	20.9	0.00e+00	0	44	0	2728394752	55	4117
2026-01-22 23:47:34.03	108.69	8.93	-42.1	-43.1	20.9	0.00e+00	0	45	0	2733637632	55	4115
2026-01-22 23:47:35.04	108.84	8.88	-42.4	-43.3	20.7	0.00e+00	0	44	0	2739929088	55	4235
2026-01-22 23:47:36.04	108.98	8.84	-42.6	-43.6	20.4	0.00e+00	0	45	0	2746220544	55	4355
2026-01-22 23:47:37.05	109.13	8.79	-42.5	-43.4	20.5	0.00e+00	0	45	0	2751463424	55	4287
2026-01-22 23:47:38.06	109.27	8.74	-42.4	-43.4	20.7	0.00e+00	0	44	0	2756706304	55	4245
2026-01-22 23:47:39.07	109.42	8.70	-42.4	-43.3	20.7	0.00e+00	0	44	0	2762997760	55	4239
2026-01-22 23:47:40.08	109.56	8.65	-42.3	-43.3	20.7	0.00e+00	0	45	0	2768240640	55	4194
2026-01-22 23:47:41.09	109.71	8.60	-42.4	-43.3	20.7	0.00e+00	0	44	0	2773483520	55	4225
2026-01-22 23:47:42.09	109.85	8.56	-42.5	-43.5	20.5	0.00e+00	0	44	0	2779774976	55	4306
2026-01-22 23:47:43.10	109.99	8.51	-42.5	-43.5	20.6	0.00e+00	0	44	0	2785017856	55	4297
2026-01-22 23:47:44.11	110.14	8.47	-42.5	-43.5	20.5	0.00e+00	0	45	0	2790260736	55	4305
2026-01-22 23:47:45.12	110.28	8.42	-42.5	-43.5	20.5	0.00e+00	0	44	0	2796552192	55	4325
2026-01-22 23:47:46.13	110.42	8.37	-42.6	-43.6	20.4	0.00e+00	0	44	0	2801795072	55	4357
2026-01-22 23:47:47.13	110.56	8.33	-42.9	-43.9	20.2	0.00e+00	0	44	0	2808086528	56	4269
2026-01-22 23:47:48.14	110.70	8.28	-42.9	-43.9	20.2	0.00e+00	0	44	0	2813329408	56	4255
2026-01-22 23:47:49.15	110.84	8.23	-42.9	-43.9	20.2	0.00e+00	0	45	0	2819620864	56	4277
2026-01-22 23:47:50.16	110.98	8.18	-42.8	-43.8	20.2	0.00e+00	0	44	0	2824863744	56	4230
2026-01-22 23:47:51.17	111.12	8.14	-42.7	-43.7	20.3	0.00e+00	0	44	0	2831155200	56	4182
2026-01-22 23:47:52.18	111.26	8.09	-42.6	-43.6	20.5	0.00e+00	0	44	0	2836398080	56	4109
2026-01-22 23:47:53.19	111.40	8.04	-42.7	-43.6	20.5	0.00e+00	0	44	0	2841640960	56	4137
2026-01-22 23:47:54.20	111.54	8.00	-42.8	-43.8	20.3	0.00e+00	0	44	0	2847932416	56	4234
2026-01-22 23:47:55.21	111.67	7.95	-42.6	-43.6	20.5	0.00e+00	0	45	0	2853175296	56	4130
2026-01-22 23:47:56.22	111.81	7.90	-42.8	-43.8	20.3	0.00e+00	0	44	0	2858418176	56	4218
2026-01-22 23:47:57.22	111.95	7.85	-42.8	-43.9	20.2	0.00e+00	0	44	0	2864709632	56	4243
2026-01-22 23:47:58.23	112.08	7.81	-42.9	-43.9	20.2	0.00e+00	0	44	0	2869952512	56	4255
2026-01-22 23:47:59.24	112.22	7.76	-42.8	-43.8	20.3	0.00e+00	0	44	0	2876243968	56	4235
2026-01-22 23:48:00.25	112.35	7.71	-42.9	-43.9	20.2	0.00e+00	0	45	0	2881486848	56	4255
2026-01-22 23:48:01.26	112.49	7.66	-42.9	-43.9	20.2	0.00e+00	0	44	0	2887778304	56	4256
2026-01-22 23:48:02.27	112.62	7.62	-42.8	-43.9	20.2	0.00e+00	0	44	0	2893021184	56	4246
2026-01-22 23:48:03.27	112.76	7.57	-42.9	-43.9	20.1	0.00e+00	0	44	0	2898264064	56	4290
2026-01-22 23:48:04.28	112.89	7.52	-43.0	-44.0	20.1	0.00e+00	0	45	0	2904555520	56	4311
2026-01-22 23:48:05.29	113.02	7.47	-43.0	-44.0	20.1	0.00e+00	0	44	0	2909798400	56	4315
2026-01-22 23:48:06.30	113.16	7.43	-43.0	-44.0	20.0	0.00e+00	0	44	0	2916089856	56	4339
2026-01-22 23:48:07.31	113.29	7.38	-43.0	-44.1	20.0	0.00e+00	0	45	0	2921332736	56	4349
2026-01-22 23:48:08.32	113.42	7.33	-43.1	-44.1	19.9	0.00e+00	0	44	0	2926575616	56	4381
2026-01-22 23:48:09.33	113.55	7.28	-43.0	-44.1	20.0	0.00e+00	0	44	0	2932867072	56	4359
2026-01-22 23:48:10.34	113.69	7.23	-42.7	-43.7	20.3	0.00e+00	0	44	0	2939158528	56	4175
2026-01-22 23:48:11.35	113.82	7.19	-42.9	-43.9	20.1	0.00e+00	0	44	0	2944401408	56	4281
2026-01-22 23:48:12.35	113.95	7.14	-43.1	-44.1	20.0	0.00e+00	0	44	0	2949644288	56	4384
2026-01-22 23:48:13.36	114.08	7.09	-43.0	-44.1	20.0	0.00e+00	0	44	0	2955935744	56	4341
2026-01-22 23:48:14.37	114.21	7.04	-43.0	-44.1	20.0	0.00e+00	0	44	0	2961178624	56	4341
2026-01-22 23:48:15.38	114.34	7.00	-43.1	-44.2	19.9	0.00e+00	0	44	0	2966421504	56	4393
2026-01-22 23:48:16.39	114.46	6.95	-42.9	-44.0	20.1	0.00e+00	0	44	0	2972712960	56	4295
2026-01-22 23:48:17.40	114.59	6.90	-43.1	-44.1	19.9	0.00e+00	0	45	0	2977955840	56	4384
2026-01-22 23:48:18.41	114.72	6.85	-42.9	-44.0	20.0	0.00e+00	0	44	0	2983198720	56	4294
2026-01-22 23:48:19.41	114.85	6.80	-42.8	-43.8	20.1	0.00e+00	0	44	0	2989490176	56	4235
2026-01-22 23:48:20.42	114.98	6.75	-43.2	-44.2	19.7	0.00e+00	0	44	0	2994733056	56	4422
2026-01-22 23:48:21.43	115.10	6.71	-43.2	-44.2	19.7	0.00e+00	0	44	0	3001024512	56	4433
2026-01-22 23:48:22.44	115.23	6.66	-43.2	-44.3	19.6	0.00e+00	0	44	0	3006267392	57	4226
2026-01-22 23:48:23.45	115.36	6.61	-43.3	-44.4	19.5	0.00e+00	0	45	0	3012558848	57	4267
2026-01-22 23:48:24.46	115.48	6.56	-43.3	-44.4	19.5	0.00e+00	0	44	0	3017801728	57	4258
2026-01-22 23:48:25.47	115.61	6.51	-43.5	-44.5	19.3	0.00e+00	0	44	0	3024093184	57	4339
2026-01-22 23:48:26.47	115.73	6.46	-43.5	-44.6	19.3	0.00e+00	0	45	0	3029336064	57	4354
2026-01-22 23:48:27.48	115.85	6.42	-43.5	-44.6	19.3	0.00e+00	0	44	0	3034578944	57	4365
2026-01-22 23:48:28.49	115.98	6.37	-43.9	-45.1	18.9	0.00e+00	0	45	0	3040870400	58	4345
2026-01-22 23:48:29.50	116.10	6.32	-43.6	-44.8	19.1	0.00e+00	0	44	0	3046113280	58	4194
2026-01-22 23:48:30.51	116.23	6.27	-44.0	-45.2	18.7	0.00e+00	0	44	0	3051356160	58	4398
2026-01-22 23:48:31.52	116.35	6.22	-43.6	-44.8	19.1	0.00e+00	0	44	0	3057647616	58	4207
2026-01-22 23:48:32.53	116.47	6.17	-43.3	-44.4	19.4	0.00e+00	0	44	0	3062890496	58	4037
2026-01-22 23:48:33.53	116.59	6.13	-43.6	-44.7	19.2	0.00e+00	0	44	0	3068133376	58	4159
2026-01-22 23:48:34.54	116.71	6.08	-43.5	-44.7	19.2	0.00e+00	0	44	0	3074424832	58	4157
2026-01-22 23:48:35.55	116.84	6.03	-43.5	-44.7	19.2	0.00e+00	0	44	0	3080716288	58	4159
2026-01-22 23:48:36.56	116.96	5.98	-43.4	-44.5	19.3	0.00e+00	0	44	0	3085959168	58	4076
2026-01-22 23:48:37.57	117.08	5.93	-43.5	-44.6	19.1	0.00e+00	0	44	0	3091202048	58	4143
2026-01-22 23:48:38.58	117.20	5.88	-43.6	-44.7	19.1	0.00e+00	0	44	0	3097493504	58	4169
2026-01-22 23:48:39.59	117.32	5.83	-43.6	-44.7	19.1	0.00e+00	0	44	0	3102736384	58	4160
2026-01-22 23:48:40.60	117.44	5.79	-43.5	-44.6	19.1	0.00e+00	0	44	0	3109027840	58	4145
2026-01-22 23:48:41.61	117.56	5.74	-43.6	-44.8	19.0	0.00e+00	0	44	0	3114270720	58	4201
2026-01-22 23:48:42.62	117.67	5.69	-43.7	-44.8	18.9	0.00e+00	0	44	0	3119513600	58	4221
2026-01-22 23:48:43.62	117.79	5.64	-43.7	-44.9	18.8	0.00e+00	0	44	0	3125805056	58	4252
2026-01-22 23:48:44.63	117.91	5.59	-43.5	-44.6	19.1	0.00e+00	0	44	0	3131047936	58	4130
2026-01-22 23:48:45.64	118.03	5.54	-43.7	-44.8	18.9	0.00e+00	0	44	0	3137339392	58	4234
2026-01-22 23:48:46.65	118.14	5.49	-43.7	-44.9	18.8	0.00e+00	0	44	0	3142582272	58	4270
2026-01-22 23:48:47.65	118.26	5.45	-43.5	-44.6	19.1	0.00e+00	0	44	0	3148873728	58	4134
2026-01-22 23:48:48.66	118.38	5.40	-43.5	-44.7	19.0	0.00e+00	0	44	0	3154116608	58	4171
2026-01-22 23:48:49.67	118.49	5.35	-43.6	-44.8	18.9	0.00e+00	0	44	0	3159359488	58	4194
2026-01-22 23:48:50.68	118.61	5.30	-43.7	-44.9	18.8	0.00e+00	0	44	0	3165650944	58	4243
2026-01-22 23:48:51.69	118.72	5.25	-43.5	-44.7	19.0	0.00e+00	0	44	0	3170893824	58	4150
2026-01-22 23:48:52.69	118.84	5.20	-43.6	-44.8	18.8	0.00e+00	0	44	0	3176136704	58	4225
2026-01-22 23:48:53.70	118.95	5.15	-43.8	-45.0	18.6	0.00e+00	0	44	0	3182428160	58	4332
2026-01-22 23:48:54.71	119.07	5.11	-43.3	-44.4	19.2	0.00e+00	0	44	0	3187671040	58	4026
2026-01-22 23:48:55.72	119.18	5.06	-43.5	-44.6	19.0	0.00e+00	0	44	0	3193962496	58	4131
2026-01-22 23:48:56.73	119.29	5.01	-46.8	-48.7	15.0	0.00e+00	0	44	0	3199205376	63	4935
2026-01-22 23:48:57.73	119.41	4.96	-52.8	-64.8	3.8	8.47e-01	0	44	104	3200253952	76	14974
2026-01-22 23:48:58.74	119.52	4.91	-53.1	-65.0	3.8	8.46e-01	0	44	104	3200253952	76	15282
2026-01-22 23:48:59.75	119.63	4.86	-53.3	-65.2	3.8	8.46e-01	0	44	104	3200253952	77	14732
2026-01-22 23:49:00.76	119.74	4.81	-53.5	-65.3	3.8	8.46e-01	0	44	104	3200253952	77	15018
2026-01-22 23:49:01.77	119.86	4.76	-53.6	-65.4	3.8	8.46e-01	0	44	104	3200253952	77	15078
2026-01-22 23:49:02.77	119.97	4.72	-53.7	-65.7	3.8	8.46e-01	0	44	104	3200253952	77	15605
2026-01-22 23:49:03.78	120.08	4.67	-53.8	-65.7	3.8	8.46e-01	0	44	104	3200253952	78	14840
2026-01-22 23:49:04.79	120.19	4.62	-53.9	-65.9	3.8	8.46e-01	0	44	104	3200253952	78	15121
2026-01-22 23:49:05.80	120.30	4.57	-54.0	-66.0	3.8	8.45e-01	0	44	104	3200253952	78	15238
2026-01-22 23:49:06.81	120.41	4.52	-54.0	-66.0	3.8	8.46e-01	0	44	104	3200253952	78	15316
2026-01-22 23:49:07.82	120.52	4.47	-54.1	-66.0	3.8	8.46e-01	0	44	104	3200253952	78	15389
2026-01-22 23:49:08.83	120.63	4.42	-54.2	-66.1	3.8	8.46e-01	0	44	104	3200253952	78	15555
2026-01-22 23:49:09.83	120.73	4.38	-54.2	-66.2	3.8	8.46e-01	0	44	104	3200253952	78	15626
2026-01-22 23:49:10.84	120.84	4.33	-54.3	-66.2	3.8	8.47e-01	0	44	104	3200253952	79	14793
2026-01-22 23:49:11.85	120.95	4.28	-54.3	-66.3	3.8	8.46e-01	0	44	104	3200253952	79	14916
2026-01-22 23:49:12.86	121.06	4.23	-54.3	-66.3	3.8	8.46e-01	0	44	104	3200253952	79	14953
2026-01-22 23:49:13.87	121.17	4.18	-54.3	-66.3	3.8	8.45e-01	0	44	104	3200253952	79	14969
2026-01-22 23:49:14.88	121.27	4.13	-54.4	-66.4	3.8	8.45e-01	0	44	104	3200253952	79	15059
2026-01-22 23:49:15.89	121.38	4.08	-54.4	-66.3	3.8	8.46e-01	0	44	104	3200253952	79	15048
2026-01-22 23:49:16.89	121.49	4.04	-54.4	-66.4	3.8	8.47e-01	0	44	104	3200253952	79	15089
2026-01-22 23:49:17.90	121.59	3.99	-54.4	-66.4	3.8	8.47e-01	0	44	104	3200253952	79	15130
2026-01-22 23:49:18.91	121.70	3.94	-54.4	-66.4	3.8	8.46e-01	0	44	104	3200253952	79	15138
2026-01-22 23:49:19.92	121.80	3.89	-54.4	-66.4	3.8	8.46e-01	0	44	104	3200253952	79	15132
2026-01-22 23:49:20.93	121.91	3.84	-54.4	-66.4	3.8	8.47e-01	0	44	104	3200253952	79	15187
2026-01-22 23:49:21.94	122.01	3.79	-54.4	-66.4	3.8	8.47e-01	0	44	104	3200253952	79	15173
2026-01-22 23:49:22.95	122.12	3.74	-54.5	-66.5	3.8	8.46e-01	0	44	104	3200253952	79	15266
2026-01-22 23:49:23.96	122.22	3.69	-54.5	-66.5	3.8	8.46e-01	0	44	104	3200253952	79	15275
2026-01-22 23:49:24.96	122.33	3.65	-54.5	-66.5	3.8	8.45e-01	0	44	104	3200253952	79	15319
2026-01-22 23:49:25.97	122.43	3.60	-54.5	-66.5	3.8	8.46e-01	0	44	104	3200253952	79	15313
2026-01-22 23:49:26.98	122.53	3.55	-54.6	-66.6	3.8	8.47e-01	0	44	104	3200253952	79	15436
2026-01-22 23:49:27.99	122.63	3.50	-54.6	-66.6	3.8	8.45e-01	0	44	104	3200253952	79	15467
2026-01-22 23:49:29.00	122.74	3.45	-54.6	-66.6	3.8	8.46e-01	0	44	104	3200253952	79	15485
2026-01-22 23:49:30.01	122.84	3.40	-54.6	-66.6	3.8	8.46e-01	0	44	104	3200253952	79	15580
2026-01-22 23:49:31.02	122.94	3.36	-54.7	-66.7	3.8	8.46e-01	0	44	104	3200253952	79	15591
2026-01-22 23:49:32.02	123.04	3.31	-54.6	-66.6	3.8	8.47e-01	0	44	104	3200253952	79	15580
2026-01-22 23:49:33.03	123.14	3.26	-54.7	-66.6	3.8	8.46e-01	0	44	104	3200253952	79	15574
2026-01-22 23:49:34.04	123.24	3.21	-54.7	-66.6	3.8	8.46e-01	0	44	104	3200253952	79	15564
2026-01-22 23:49:35.05	123.34	3.16	-54.7	-66.7	3.8	8.46e-01	0	44	104	3200253952	79	15591
2026-01-22 23:49:36.05	123.44	3.11	-54.7	-66.7	3.8	8.46e-01	0	44	104	3200253952	79	15591
2026-01-22 23:49:37.06	123.54	3.07	-54.6	-66.6	3.8	8.46e-01	0	44	104	3200253952	79	15528
2026-01-22 23:49:38.07	123.64	3.02	-54.6	-66.6	3.8	8.45e-01	0	45	104	3200253952	79	15489
2026-01-22 23:49:39.08	123.74	2.97	-54.6	-66.6	3.8	8.49e-01	0	44	104	3200253952	79	15471
2026-01-22 23:49:40.09	123.84	2.92	-54.6	-66.5	3.8	8.47e-01	0	44	104	3200253952	79	15395
2026-01-22 23:49:41.09	123.94	2.87	-54.5	-66.5	3.8	8.45e-01	0	44	104	3200253952	79	15342
2026-01-22 23:49:42.10	124.04	2.82	-54.5	-66.5	3.8	8.46e-01	0	44	104	3200253952	79	15264
2026-01-22 23:49:43.11	124.14	2.78	-54.5	-66.5	3.8	8.46e-01	0	44	104	3200253952	79	15281
2026-01-22 23:49:44.12	124.23	2.73	-54.5	-66.4	3.8	8.45e-01	0	44	104	3200253952	79	15188
2026-01-22 23:49:45.13	124.33	2.68	-54.4	-66.4	3.8	8.46e-01	0	44	104	3200253952	79	15159
2026-01-22 23:49:46.14	124.43	2.63	-54.4	-66.4	3.8	8.46e-01	0	44	104	3200253952	79	15059
2026-01-22 23:49:47.15	124.53	2.58	-54.3	-66.3	3.8	8.46e-01	0	44	104	3200253952	79	14915
2026-01-22 23:49:48.15	124.62	2.53	-54.3	-66.3	3.8	8.48e-01	0	44	104	3200253952	79	14887
2026-01-22 23:49:49.16	124.72	2.49	-54.2	-66.2	3.8	8.46e-01	0	44	104	3200253952	79	14812
2026-01-22 23:49:50.17	124.81	2.44	-54.2	-66.1	3.8	8.45e-01	0	44	104	3200253952	79	14656
2026-01-22 23:49:51.18	124.91	2.39	-54.1	-66.0	3.8	8.47e-01	0	44	104	3200253952	79	14513
2026-01-22 23:49:52.19	125.01	2.34	-54.0	-65.9	3.8	8.46e-01	0	44	104	3200253952	79	14315
2026-01-22 23:49:53.19	125.10	2.29	-53.8	-65.8	3.8	8.47e-01	0	44	104	3200253952	79	14084
2026-01-22 23:49:54.20	125.19	2.25	-53.7	-65.7	3.8	8.47e-01	0	44	104	3200253952	79	13925
2026-01-22 23:49:55.21	125.29	2.20	-53.7	-65.6	3.8	8.46e-01	0	44	104	3200253952	79	13857
2026-01-22 23:49:56.22	125.38	2.15	-53.7	-65.6	3.8	8.46e-01	0	44	104	3200253952	79	13883
2026-01-22 23:49:57.23	125.48	2.10	-53.7	-65.6	3.8	8.46e-01	0	44	104	3200253952	79	13835
2026-01-22 23:49:58.24	125.57	2.05	-53.7	-65.6	3.8	8.46e-01	0	44	104	3200253952	79	13879
2026-01-22 23:49:59.25	125.66	2.01	-53.7	-65.6	3.8	8.46e-01	0	44	104	3200253952	79	13851
2026-01-22 23:50:00.26	125.76	1.96	-53.7	-65.6	3.8	8.46e-01	0	44	104	3200253952	79	13824

#Closed at: 2026-01-22 23:50:00
#Recorded file [3200 MB]: D:/lorett/data/31041_260123_023834.dat