passes_logs/2026/01/22/R3.2S_Murmansk/R3.2S_Murmansk__20260122_165650_ZKF01_rec.log

#Pass ID: 20260122_165650_ZKF01
#Satellite: ZKF01
#Configuration: ZKF01
#almurnet v.1.7.20251203
#Start time: 2026-01-22 16:56:50

#Version: 2.2.20231116
#Station: R3.2S_Murmansk
#Location: 33.079688 lon 68.888172 lat
#TLE: 1 61240U 24174C   26021.51232440  .00008806  00000-0  39796-3 0  9992
#TLE: 2 61240  97.4456  31.4158 0011438   6.6898 353.4488 15.21125250 73409

#Time	Az	El	Level	Level2	SNR	BER	BlckErr	Temp	State	Recorded	gain1	gain2
2026-01-22 16:56:50.83	231.63	2.00	-56.1	-57.8	3.6	0.00e+00	0	44	0	0	83	17897
2026-01-22 16:56:51.83	231.76	2.05	-56.1	-57.9	3.7	0.00e+00	0	44	104	0	82	19097
2026-01-22 16:56:52.84	231.89	2.11	-56.1	-57.9	3.7	0.00e+00	0	44	104	0	82	19042
2026-01-22 16:56:53.84	232.01	2.16	-56.1	-57.8	3.7	0.00e+00	0	44	104	0	82	18971
2026-01-22 16:56:54.85	232.14	2.21	-56.1	-57.8	3.7	0.00e+00	0	44	104	0	82	18954
2026-01-22 16:56:55.86	232.27	2.26	-56.1	-57.8	3.7	0.00e+00	0	44	104	0	82	18869
2026-01-22 16:56:56.86	232.40	2.32	-56.1	-57.8	3.7	0.00e+00	0	44	104	0	82	18900
2026-01-22 16:56:57.86	232.53	2.37	-56.2	-58.0	3.7	0.00e+00	0	44	104	0	82	19303
2026-01-22 16:56:58.87	232.66	2.42	-56.3	-58.1	3.7	0.00e+00	0	44	104	0	83	18399
2026-01-22 16:56:59.87	232.79	2.47	-56.4	-58.1	3.7	0.00e+00	0	44	104	0	83	18517
2026-01-22 16:57:00.87	232.92	2.53	-56.4	-58.1	3.7	0.00e+00	0	44	104	0	83	18575
2026-01-22 16:57:01.87	233.05	2.58	-56.4	-58.1	3.7	0.00e+00	0	45	104	0	83	18590
2026-01-22 16:57:02.87	233.18	2.63	-56.4	-58.2	3.7	0.00e+00	0	45	104	0	83	18635
2026-01-22 16:57:03.88	233.32	2.68	-56.4	-58.1	3.7	0.00e+00	0	45	104	0	83	18556
2026-01-22 16:57:04.88	233.45	2.74	-56.4	-58.1	3.7	0.00e+00	0	45	104	0	83	18525
2026-01-22 16:57:05.88	233.58	2.79	-56.3	-58.1	3.7	0.00e+00	0	45	104	0	83	18458
2026-01-22 16:57:06.88	233.72	2.84	-56.3	-58.0	3.7	0.00e+00	0	45	104	0	83	18389
2026-01-22 16:57:07.88	233.85	2.89	-56.3	-58.0	3.7	0.00e+00	0	45	104	0	83	18250
2026-01-22 16:57:08.88	233.99	2.95	-56.2	-58.0	3.7	0.00e+00	0	45	104	0	83	18233
2026-01-22 16:57:09.88	234.12	3.00	-56.2	-57.9	3.7	0.00e+00	0	45	104	0	83	18116
2026-01-22 16:57:10.89	234.26	3.05	-56.1	-57.8	3.7	0.00e+00	0	45	104	0	83	17893
2026-01-22 16:57:11.89	234.40	3.10	-56.0	-57.8	3.7	0.00e+00	0	45	104	0	83	17786
2026-01-22 16:57:12.89	234.54	3.16	-56.0	-57.7	3.7	0.00e+00	0	45	104	0	83	17683
2026-01-22 16:57:13.90	234.67	3.21	-55.9	-57.6	3.7	0.00e+00	0	45	104	0	83	17531
2026-01-22 16:57:14.90	234.81	3.26	-55.8	-57.6	3.7	0.00e+00	0	45	104	0	83	17394
2026-01-22 16:57:15.90	234.95	3.31	-55.7	-57.5	3.7	0.00e+00	0	45	104	0	83	17189
2026-01-22 16:57:16.90	235.09	3.37	-55.6	-57.3	3.7	0.00e+00	0	45	104	0	83	16895
2026-01-22 16:57:17.90	235.23	3.42	-55.4	-57.2	3.7	0.00e+00	0	45	104	0	82	17613
2026-01-22 16:57:18.90	235.38	3.47	-55.2	-56.9	3.7	0.00e+00	0	45	104	0	82	17096
2026-01-22 16:57:19.90	235.52	3.53	-54.8	-56.5	3.7	0.00e+00	0	45	104	0	81	17241
2026-01-22 16:57:20.91	235.66	3.58	-54.7	-56.4	3.7	0.00e+00	0	45	104	0	81	17097
2026-01-22 16:57:21.92	235.81	3.63	-54.7	-56.4	3.7	0.00e+00	0	45	104	0	81	17145
2026-01-22 16:57:22.92	235.95	3.68	-54.7	-56.4	3.7	0.00e+00	0	45	104	0	81	17128
2026-01-22 16:57:23.93	236.10	3.74	-54.7	-56.4	3.7	0.00e+00	0	45	104	0	81	17153
2026-01-22 16:57:24.94	236.24	3.79	-54.7	-56.5	3.7	0.00e+00	0	45	104	0	81	17169
2026-01-22 16:57:25.94	236.39	3.84	-54.7	-56.4	3.7	0.00e+00	0	45	104	0	81	17124
2026-01-22 16:57:26.95	236.54	3.90	-54.7	-56.4	3.7	0.00e+00	0	45	104	0	81	17107
2026-01-22 16:57:27.96	236.69	3.95	-54.7	-56.4	3.7	0.00e+00	0	45	104	0	81	17093
2026-01-22 16:57:28.96	236.83	4.00	-54.7	-56.5	3.7	0.00e+00	0	45	104	0	81	17164
2026-01-22 16:57:29.97	236.98	4.06	-54.7	-56.4	3.7	0.00e+00	0	45	104	0	81	17153
2026-01-22 16:57:30.97	237.13	4.11	-54.7	-56.4	3.7	0.00e+00	0	46	104	0	81	17092
2026-01-22 16:57:31.98	237.28	4.16	-54.7	-56.4	3.7	0.00e+00	0	46	104	0	81	17111
2026-01-22 16:57:32.98	237.44	4.21	-54.7	-56.4	3.7	0.00e+00	0	45	104	0	81	17103
2026-01-22 16:57:33.99	237.59	4.27	-54.7	-56.4	3.7	0.00e+00	0	45	104	0	81	17160
2026-01-22 16:57:34.99	237.74	4.32	-54.7	-56.4	3.7	0.00e+00	0	46	104	0	81	17070
2026-01-22 16:57:36.00	237.89	4.37	-54.7	-56.4	3.7	0.00e+00	0	45	104	0	81	17108
2026-01-22 16:57:37.01	238.05	4.43	-54.7	-56.4	3.7	0.00e+00	0	46	104	0	81	17082
2026-01-22 16:57:38.02	238.20	4.48	-54.7	-56.4	3.7	0.00e+00	0	46	104	0	81	17092
2026-01-22 16:57:39.03	238.36	4.53	-54.7	-56.4	3.7	0.00e+00	0	46	104	0	81	17057
2026-01-22 16:57:40.04	238.52	4.59	-54.7	-56.4	3.7	0.00e+00	0	46	104	0	81	17038
2026-01-22 16:57:41.04	238.67	4.64	-54.6	-56.4	3.7	0.00e+00	0	46	104	0	81	17094
2026-01-22 16:57:42.05	238.83	4.69	-54.6	-56.4	3.7	0.00e+00	0	46	104	0	81	17075
2026-01-22 16:57:43.06	238.99	4.75	-54.7	-56.4	3.7	0.00e+00	0	46	104	0	81	17074
2026-01-22 16:57:44.06	239.15	4.80	-54.7	-56.4	3.7	0.00e+00	0	46	104	0	81	17051
2026-01-22 16:57:45.07	239.31	4.85	-54.6	-56.4	3.7	0.00e+00	0	46	104	0	81	17076
2026-01-22 16:57:46.08	239.47	4.91	-54.6	-56.4	3.7	0.00e+00	0	46	104	0	81	17006
2026-01-22 16:57:47.09	239.63	4.96	-54.6	-56.4	3.7	0.00e+00	0	46	104	0	81	17067
2026-01-22 16:57:48.10	239.79	5.01	-54.6	-56.4	3.7	0.00e+00	0	46	104	0	81	17037
2026-01-22 16:57:49.10	239.96	5.06	-54.6	-56.3	3.7	0.00e+00	0	46	104	0	81	16943
2026-01-22 16:57:50.11	240.12	5.12	-54.6	-56.3	3.7	0.00e+00	0	46	104	0	81	16882
2026-01-22 16:57:51.12	240.28	5.17	-54.5	-56.2	3.7	0.00e+00	0	46	104	0	81	16755
2026-01-22 16:57:52.12	240.45	5.22	-54.2	-55.9	3.7	0.00e+00	0	46	104	0	80	17141
2026-01-22 16:57:53.13	240.61	5.28	-54.6	-56.3	3.7	0.00e+00	0	46	104	0	80	17951
2026-01-22 16:57:54.14	240.78	5.33	-54.6	-56.3	3.7	0.00e+00	0	46	104	0	80	17889
2026-01-22 16:57:55.14	240.95	5.38	-53.7	-55.4	3.7	0.00e+00	0	46	104	0	79	17105
2026-01-22 16:57:56.15	241.12	5.43	-54.5	-56.3	3.7	0.00e+00	0	46	104	0	79	18846
2026-01-22 16:57:57.16	241.28	5.49	-53.6	-55.3	3.7	0.00e+00	0	46	104	0	79	16913
2026-01-22 16:57:58.16	241.45	5.54	-53.7	-55.4	3.7	0.00e+00	0	46	104	0	79	17142
2026-01-22 16:57:59.16	241.62	5.59	-53.7	-55.4	3.7	0.00e+00	0	46	104	0	79	17139
2026-01-22 16:58:00.16	241.79	5.64	-54.0	-55.7	3.7	0.00e+00	0	46	104	0	79	17718
2026-01-22 16:58:01.17	241.96	5.70	-54.6	-56.4	3.7	0.00e+00	0	46	104	0	79	19062
2026-01-22 16:58:02.17	242.14	5.75	-54.7	-56.4	3.7	0.00e+00	0	46	104	0	79	19234
2026-01-22 16:58:03.18	242.31	5.80	-54.7	-56.5	3.7	0.00e+00	0	46	104	0	80	18249
2026-01-22 16:58:04.17	242.48	5.85	-54.6	-56.4	3.7	0.00e+00	0	46	104	0	80	18096
2026-01-22 16:58:05.18	242.65	5.91	-54.8	-56.6	3.7	0.00e+00	0	46	104	0	80	18458
2026-01-22 16:58:06.18	242.83	5.96	-54.7	-56.5	3.7	0.00e+00	0	46	104	0	80	18298
2026-01-22 16:58:07.18	243.00	6.01	-54.7	-56.5	3.7	0.00e+00	0	46	104	0	80	18192
2026-01-22 16:58:08.19	243.18	6.06	-54.7	-56.4	3.7	0.00e+00	0	46	104	0	80	18093
2026-01-22 16:58:09.19	243.36	6.11	-54.8	-56.6	3.7	0.00e+00	0	46	104	0	80	18455
2026-01-22 16:58:10.20	243.54	6.17	-54.7	-56.5	3.7	0.00e+00	0	46	104	0	80	18237
2026-01-22 16:58:11.20	243.71	6.22	-54.7	-56.4	3.7	0.00e+00	0	46	104	0	80	18150
2026-01-22 16:58:12.20	243.89	6.27	-54.7	-56.4	3.7	0.00e+00	0	46	104	0	80	18071
2026-01-22 16:58:13.20	244.07	6.32	-54.8	-56.6	3.7	0.00e+00	0	46	104	0	80	18487
2026-01-22 16:58:14.20	244.25	6.37	-54.8	-56.5	3.7	0.00e+00	0	46	104	0	80	18330
2026-01-22 16:58:15.20	244.43	6.43	-54.7	-56.4	3.7	0.00e+00	0	46	104	0	80	18149
2026-01-22 16:58:16.21	244.62	6.48	-54.7	-56.4	3.7	0.00e+00	0	46	104	0	80	18171
2026-01-22 16:58:17.21	244.80	6.53	-54.8	-56.6	3.7	0.00e+00	0	46	104	0	80	18518
2026-01-22 16:58:18.22	244.99	6.58	-54.8	-56.5	3.7	0.00e+00	0	46	104	0	80	18356
2026-01-22 16:58:19.22	245.17	6.63	-54.7	-56.5	3.7	0.00e+00	0	46	104	0	80	18199
2026-01-22 16:58:20.22	245.36	6.68	-54.7	-56.4	3.7	0.00e+00	0	46	104	0	80	18169
2026-01-22 16:58:21.22	245.54	6.73	-54.9	-56.6	3.7	0.00e+00	0	46	104	0	80	18511
2026-01-22 16:58:22.23	245.73	6.78	-54.8	-56.5	3.7	0.00e+00	0	46	104	0	80	18251
2026-01-22 16:58:23.23	245.92	6.84	-54.7	-56.5	3.7	0.00e+00	0	46	104	0	80	18214
2026-01-22 16:58:24.23	246.11	6.89	-54.7	-56.4	3.7	0.00e+00	0	46	104	0	80	18156
2026-01-22 16:58:25.24	246.30	6.94	-54.9	-56.6	3.7	0.00e+00	0	46	104	0	80	18498
2026-01-22 16:58:26.24	246.49	6.99	-54.8	-56.5	3.7	0.00e+00	0	46	104	0	80	18371
2026-01-22 16:58:27.24	246.68	7.04	-54.7	-56.5	3.7	0.00e+00	0	46	104	0	80	18256
2026-01-22 16:58:28.25	246.87	7.09	-54.7	-56.5	3.7	0.00e+00	0	46	104	0	80	18216
2026-01-22 16:58:29.25	247.06	7.14	-54.9	-56.6	3.7	0.00e+00	0	46	104	0	80	18482
2026-01-22 16:58:30.26	247.26	7.19	-54.8	-56.5	3.7	0.00e+00	0	46	104	0	80	18389
2026-01-22 16:58:31.26	247.45	7.24	-54.7	-56.5	3.7	0.00e+00	0	46	104	0	80	18284
2026-01-22 16:58:32.26	247.65	7.29	-54.7	-56.5	3.7	0.00e+00	0	46	104	0	80	18272
2026-01-22 16:58:33.26	247.84	7.34	-54.9	-56.6	3.7	0.00e+00	0	47	104	0	80	18524
2026-01-22 16:58:34.26	248.04	7.39	-54.8	-56.6	3.7	0.00e+00	0	46	104	0	80	18401
2026-01-22 16:58:35.25	248.23	7.44	-54.8	-56.5	3.7	0.00e+00	0	46	104	0	80	18328
2026-01-22 16:58:36.26	248.43	7.49	-54.8	-56.5	3.7	0.00e+00	0	46	104	0	80	18298
2026-01-22 16:58:37.26	248.63	7.54	-54.9	-56.6	3.7	0.00e+00	0	46	104	0	80	18546
2026-01-22 16:58:38.26	248.83	7.59	-54.8	-56.6	3.7	0.00e+00	0	46	104	0	80	18444
2026-01-22 16:58:39.27	249.03	7.64	-54.8	-56.5	3.7	0.00e+00	0	46	104	0	80	18337
2026-01-22 16:58:40.27	249.23	7.69	-54.8	-56.5	3.7	0.00e+00	0	46	104	0	80	18385
2026-01-22 16:58:41.28	249.44	7.74	-54.9	-56.6	3.7	0.00e+00	0	46	104	0	80	18545
2026-01-22 16:58:42.29	249.64	7.79	-54.8	-56.6	3.7	0.00e+00	0	47	104	0	80	18432
2026-01-22 16:58:43.30	249.85	7.83	-54.8	-56.6	3.7	0.00e+00	0	47	104	0	80	18408
2026-01-22 16:58:44.31	250.06	7.88	-54.8	-56.5	3.7	0.00e+00	0	46	104	0	80	18366
2026-01-22 16:58:45.32	250.26	7.93	-54.9	-56.7	3.7	0.00e+00	0	46	104	0	80	18657
2026-01-22 16:58:46.33	250.47	7.98	-54.8	-56.6	3.7	0.00e+00	0	47	104	0	80	18453
2026-01-22 16:58:47.33	250.68	8.03	-54.8	-56.6	3.7	0.00e+00	0	46	104	0	80	18421
2026-01-22 16:58:48.34	250.89	8.08	-54.8	-56.6	3.7	0.00e+00	0	47	104	0	80	18443
2026-01-22 16:58:49.34	251.10	8.13	-54.9	-56.7	3.7	0.00e+00	0	47	104	0	80	18662
2026-01-22 16:58:50.35	251.31	8.17	-54.8	-56.6	3.7	0.00e+00	0	46	104	0	80	18492
2026-01-22 16:58:51.35	251.52	8.22	-54.8	-56.6	3.7	0.00e+00	0	46	104	0	80	18428
2026-01-22 16:58:52.36	251.73	8.27	-54.8	-56.6	3.7	0.00e+00	0	47	104	0	80	18452
2026-01-22 16:58:53.36	251.94	8.32	-54.9	-56.6	3.7	0.00e+00	0	46	104	0	80	18593
2026-01-22 16:58:54.37	252.16	8.36	-54.9	-56.6	3.7	0.00e+00	0	47	104	0	80	18484
2026-01-22 16:58:55.37	252.37	8.41	-54.8	-56.6	3.7	0.00e+00	0	47	104	0	80	18535
2026-01-22 16:58:56.38	252.59	8.46	-54.8	-56.6	3.7	0.00e+00	0	46	104	0	80	18493
2026-01-22 16:58:57.38	252.80	8.50	-54.9	-56.7	3.7	0.00e+00	0	47	104	0	80	18632
2026-01-22 16:58:58.38	253.02	8.55	-54.9	-56.6	3.7	0.00e+00	0	47	104	0	80	18585
2026-01-22 16:58:59.38	253.24	8.59	-54.8	-56.6	3.7	0.00e+00	0	46	104	0	80	18511
2026-01-22 16:59:00.39	253.46	8.64	-54.8	-56.6	3.7	0.00e+00	0	47	104	0	80	18522
2026-01-22 16:59:01.39	253.67	8.69	-55.0	-56.7	3.7	0.00e+00	0	47	104	0	80	18776
2026-01-22 16:59:02.40	253.90	8.73	-54.9	-56.6	3.7	0.00e+00	0	46	104	0	80	18511
2026-01-22 16:59:03.40	254.12	8.78	-54.9	-56.6	3.7	0.00e+00	0	47	104	0	80	18518
2026-01-22 16:59:04.41	254.34	8.82	-54.8	-56.6	3.7	0.00e+00	0	47	104	0	80	18505
2026-01-22 16:59:05.41	254.56	8.87	-55.0	-56.7	3.7	0.00e+00	0	47	104	0	80	18719
2026-01-22 16:59:06.42	254.79	8.91	-54.9	-56.6	3.7	0.00e+00	0	47	104	0	80	18559
2026-01-22 16:59:07.43	255.01	8.96	-54.9	-56.6	3.7	0.00e+00	0	47	104	0	80	18590
2026-01-22 16:59:08.43	255.24	9.00	-54.9	-56.6	3.7	0.00e+00	0	47	104	0	80	18594
2026-01-22 16:59:09.44	255.46	9.05	-55.0	-56.7	3.7	0.00e+00	0	47	104	0	80	18779
2026-01-22 16:59:10.44	255.69	9.09	-54.9	-56.7	3.7	0.00e+00	0	46	104	0	80	18614
2026-01-22 16:59:11.45	255.92	9.13	-54.9	-56.6	3.7	0.00e+00	0	47	104	0	80	18578
2026-01-22 16:59:12.45	256.15	9.18	-54.9	-56.7	3.7	0.00e+00	0	47	104	0	80	18624
2026-01-22 16:59:13.45	256.37	9.22	-55.0	-56.7	3.7	0.00e+00	0	47	104	0	80	18742
2026-01-22 16:59:14.46	256.60	9.26	-54.9	-56.7	3.7	0.00e+00	0	47	104	0	80	18641
2026-01-22 16:59:15.47	256.84	9.31	-54.9	-56.6	3.7	0.00e+00	0	47	104	0	80	18577
2026-01-22 16:59:16.48	257.07	9.35	-54.9	-56.7	3.7	0.00e+00	0	47	104	0	80	18612
2026-01-22 16:59:17.48	257.30	9.39	-55.0	-56.7	3.6	0.00e+00	0	47	104	0	80	18699
2026-01-22 16:59:18.49	257.54	9.43	-54.9	-56.7	3.7	0.00e+00	0	47	104	0	80	18632
2026-01-22 16:59:19.50	257.77	9.47	-54.9	-56.6	3.7	0.00e+00	0	47	104	0	80	18599
2026-01-22 16:59:20.50	258.01	9.51	-54.9	-56.6	3.7	0.00e+00	0	47	104	0	80	18594
2026-01-22 16:59:21.50	258.24	9.56	-55.0	-56.7	3.7	0.00e+00	0	47	104	0	80	18669
2026-01-22 16:59:22.51	258.48	9.60	-54.9	-56.7	3.7	0.00e+00	0	47	104	0	80	18624
2026-01-22 16:59:23.52	258.72	9.64	-54.9	-56.7	3.7	0.00e+00	0	47	104	0	80	18636
2026-01-22 16:59:24.52	258.95	9.68	-54.9	-56.7	3.7	0.00e+00	0	47	104	0	80	18645
2026-01-22 16:59:25.53	259.19	9.72	-55.0	-56.7	3.7	0.00e+00	0	47	104	0	80	18750
2026-01-22 16:59:26.54	259.43	9.76	-54.9	-56.7	3.7	0.00e+00	0	47	104	0	80	18728
2026-01-22 16:59:27.54	259.67	9.80	-54.9	-56.7	3.7	0.00e+00	0	47	104	0	80	18684
2026-01-22 16:59:28.55	259.92	9.84	-54.9	-56.7	3.7	0.00e+00	0	47	104	0	80	18739
2026-01-22 16:59:29.55	260.16	9.87	-55.0	-56.7	3.7	0.00e+00	0	47	104	0	80	18766
2026-01-22 16:59:30.56	260.40	9.91	-54.9	-56.7	3.7	0.00e+00	0	47	104	0	80	18670
2026-01-22 16:59:31.57	260.65	9.95	-54.9	-56.7	3.7	0.00e+00	0	47	104	0	80	18671
2026-01-22 16:59:32.58	260.89	9.99	-54.9	-56.7	3.7	0.00e+00	0	47	104	0	80	18756
2026-01-22 16:59:33.59	261.14	10.03	-55.0	-56.8	3.7	0.00e+00	0	47	104	0	80	18821
2026-01-22 16:59:34.59	261.38	10.06	-54.9	-56.7	3.7	0.00e+00	0	47	104	0	80	18759
2026-01-22 16:59:35.60	261.63	10.10	-54.9	-56.7	3.7	0.00e+00	0	47	104	0	80	18619
2026-01-22 16:59:36.60	261.88	10.14	-55.0	-56.7	3.7	0.00e+00	0	47	104	0	80	18743
2026-01-22 16:59:37.61	262.12	10.17	-55.0	-56.7	3.7	0.00e+00	0	47	104	0	80	18811
2026-01-22 16:59:38.62	262.37	10.21	-54.9	-56.7	3.7	0.00e+00	0	47	104	0	80	18780
2026-01-22 16:59:39.63	262.63	10.24	-54.9	-56.7	3.7	0.00e+00	0	47	104	0	80	18701
2026-01-22 16:59:40.63	262.87	10.28	-55.0	-56.7	3.7	0.00e+00	0	47	104	0	80	18773
2026-01-22 16:59:41.64	263.13	10.31	-55.0	-56.8	3.7	0.00e+00	0	47	104	0	80	18826
2026-01-22 16:59:42.65	263.38	10.35	-54.9	-56.7	3.7	0.00e+00	0	47	104	0	80	18733
2026-01-22 16:59:43.65	263.63	10.38	-54.9	-56.7	3.7	0.00e+00	0	47	104	0	80	18721
2026-01-22 16:59:44.66	263.88	10.42	-55.0	-56.8	3.7	0.00e+00	0	47	104	0	80	18882
2026-01-22 16:59:45.67	264.14	10.45	-55.0	-56.8	3.7	0.00e+00	0	47	104	0	80	18829
2026-01-22 16:59:46.68	264.39	10.48	-54.9	-56.7	3.7	0.00e+00	0	47	104	0	80	18756
2026-01-22 16:59:47.68	264.65	10.51	-54.9	-56.7	3.7	0.00e+00	0	47	104	0	80	18652
2026-01-22 16:59:48.69	264.90	10.55	-55.0	-56.8	3.7	0.00e+00	0	47	104	0	80	18847
2026-01-22 16:59:49.70	265.16	10.58	-55.0	-56.8	3.7	0.00e+00	0	47	104	0	80	18845
2026-01-22 16:59:50.70	265.42	10.61	-55.0	-56.7	3.7	0.00e+00	0	47	104	0	80	18766
2026-01-22 16:59:51.71	265.68	10.64	-54.9	-56.7	3.7	0.00e+00	0	47	104	0	80	18683
2026-01-22 16:59:52.72	265.94	10.67	-55.0	-56.8	3.7	0.00e+00	0	47	104	0	80	18861
2026-01-22 16:59:53.72	266.19	10.70	-55.0	-56.7	3.7	0.00e+00	0	47	104	0	80	18775
2026-01-22 16:59:54.73	266.45	10.73	-54.9	-56.7	3.7	0.00e+00	0	47	104	0	80	18756
2026-01-22 16:59:55.73	266.71	10.76	-54.8	-56.6	3.7	0.00e+00	0	47	104	0	80	18437
2026-01-22 16:59:56.74	266.98	10.79	-55.0	-56.8	3.7	0.00e+00	0	47	104	0	80	18838
2026-01-22 16:59:57.75	267.24	10.82	-54.9	-56.7	3.7	0.00e+00	0	47	104	0	80	18609
2026-01-22 16:59:58.76	267.50	10.85	-54.8	-56.6	3.7	0.00e+00	0	47	104	0	80	18541
2026-01-22 16:59:59.76	267.76	10.87	-54.6	-56.3	3.7	0.00e+00	0	47	104	0	80	17905
2026-01-22 17:00:00.76	268.02	10.90	-55.0	-56.8	3.7	0.00e+00	0	47	104	0	80	18830
2026-01-22 17:00:01.77	268.29	10.93	-54.9	-56.7	3.7	0.00e+00	0	47	104	0	80	18709
2026-01-22 17:00:02.78	268.55	10.96	-54.9	-56.7	3.7	0.00e+00	0	47	104	0	80	18610
2026-01-22 17:00:03.79	268.82	10.98	-54.7	-56.4	3.7	0.00e+00	0	47	104	0	80	18154
2026-01-22 17:00:04.80	269.09	11.01	-55.0	-56.8	3.7	0.00e+00	0	47	104	0	80	18880
2026-01-22 17:00:05.80	269.35	11.03	-55.0	-56.7	3.7	0.00e+00	0	47	104	0	80	18809
2026-01-22 17:00:06.81	269.62	11.06	-54.9	-56.7	3.7	0.00e+00	0	47	104	0	80	18645
2026-01-22 17:00:07.82	269.89	11.08	-54.8	-56.6	3.7	0.00e+00	0	47	104	0	80	18407
2026-01-22 17:00:08.83	270.16	11.10	-55.1	-56.8	3.7	0.00e+00	0	47	104	0	80	18936
2026-01-22 17:00:09.84	270.42	11.13	-55.0	-56.8	3.7	0.00e+00	0	47	104	0	80	18843
2026-01-22 17:00:10.84	270.69	11.15	-54.9	-56.7	3.7	0.00e+00	0	47	104	0	80	18777
2026-01-22 17:00:11.85	270.96	11.17	-55.0	-56.7	3.7	0.00e+00	0	47	104	0	80	18734
2026-01-22 17:00:12.85	271.23	11.19	-55.1	-56.8	3.7	0.00e+00	0	47	104	0	80	18968
2026-01-22 17:00:13.86	271.50	11.22	-55.0	-56.8	3.7	0.00e+00	0	47	104	0	80	18907
2026-01-22 17:00:14.86	271.77	11.24	-55.0	-56.8	3.7	0.00e+00	0	47	104	0	80	18858
2026-01-22 17:00:15.87	272.04	11.26	-55.0	-56.7	3.7	0.00e+00	0	47	104	0	80	18714
2026-01-22 17:00:16.88	272.31	11.28	-55.1	-56.9	3.7	0.00e+00	0	47	104	0	80	19048
2026-01-22 17:00:17.88	272.58	11.30	-55.0	-56.8	3.7	0.00e+00	0	47	104	0	80	18887
2026-01-22 17:00:18.89	272.86	11.32	-54.1	-55.4	3.7	0.00e+00	0	47	104	0	79	17014
2026-01-22 17:00:19.90	273.13	11.34	-53.7	-55.0	3.7	0.00e+00	0	47	104	0	79	16211
2026-01-22 17:00:20.90	273.40	11.35	-54.7	-56.3	3.7	0.00e+00	0	47	104	0	79	18945
2026-01-22 17:00:21.91	273.68	11.37	-53.6	-54.7	3.7	0.00e+00	0	47	104	0	79	15826
2026-01-22 17:00:22.92	273.95	11.39	-53.6	-54.7	3.7	0.00e+00	0	47	104	0	79	15727
2026-01-22 17:00:23.92	274.22	11.40	-53.7	-54.9	3.7	0.00e+00	0	47	104	0	79	16146
2026-01-22 17:00:24.92	274.50	11.42	-54.4	-55.8	3.7	0.00e+00	0	47	104	0	79	17870
2026-01-22 17:00:25.93	274.77	11.44	-53.8	-54.9	3.7	0.00e+00	0	47	104	0	79	16199
2026-01-22 17:00:26.93	275.05	11.45	-54.8	-56.5	3.7	0.00e+00	0	47	104	0	80	18182
2026-01-22 17:00:27.94	275.32	11.47	-54.4	-55.9	3.7	0.00e+00	0	47	104	0	80	17102
2026-01-22 17:00:28.94	275.60	11.48	-53.9	-55.2	3.8	0.00e+00	0	47	104	0	79	16646
2026-01-22 17:00:29.95	275.87	11.49	-53.8	-55.0	3.7	0.00e+00	0	47	104	0	79	16269
2026-01-22 17:00:30.96	276.15	11.51	-53.7	-54.8	3.7	0.00e+00	0	47	104	0	79	16012
2026-01-22 17:00:31.96	276.43	11.52	-53.7	-54.8	3.8	0.00e+00	0	47	104	0	79	15964
2026-01-22 17:00:32.96	276.70	11.53	-53.6	-54.7	3.8	0.00e+00	0	47	104	0	79	15732
2026-01-22 17:00:33.97	276.98	11.54	-53.8	-54.9	3.8	0.00e+00	0	47	104	0	79	16148
2026-01-22 17:00:34.98	277.26	11.55	-54.9	-56.6	3.7	0.00e+00	0	47	104	0	80	18392
2026-01-22 17:00:35.98	277.53	11.56	-54.5	-56.0	3.7	0.00e+00	0	47	104	0	80	17254
2026-01-22 17:00:36.99	277.81	11.57	-54.0	-55.3	3.7	0.00e+00	0	47	104	0	79	16898
2026-01-22 17:00:38.00	278.09	11.58	-53.7	-54.9	3.7	0.00e+00	0	47	104	0	79	16161
2026-01-22 17:00:39.00	278.37	11.59	-53.7	-54.9	3.8	0.00e+00	0	47	104	0	79	16029
2026-01-22 17:00:40.00	278.64	11.60	-53.7	-54.9	3.7	0.00e+00	0	47	104	0	79	16080
2026-01-22 17:00:41.01	278.92	11.61	-53.9	-55.1	3.7	0.00e+00	0	47	104	0	79	16499
2026-01-22 17:00:42.02	279.20	11.62	-53.8	-55.1	3.7	0.00e+00	0	47	104	0	79	16442
2026-01-22 17:00:43.02	279.48	11.62	-55.0	-56.7	3.7	0.00e+00	0	47	104	0	80	18733
2026-01-22 17:00:44.03	279.76	11.63	-54.6	-56.1	3.7	0.00e+00	0	47	104	0	80	17431
2026-01-22 17:00:45.03	280.04	11.64	-54.2	-55.5	3.7	0.00e+00	0	47	104	0	79	17249
2026-01-22 17:00:46.04	280.32	11.64	-53.9	-55.1	3.7	0.00e+00	0	47	104	0	79	16567
2026-01-22 17:00:47.05	280.60	11.65	-53.9	-55.2	3.7	0.00e+00	0	47	104	0	79	16665
2026-01-22 17:00:48.06	280.88	11.65	-53.9	-55.1	3.7	0.00e+00	0	47	104	0	79	16572
2026-01-22 17:00:49.06	281.16	11.65	-54.0	-55.2	3.7	0.00e+00	0	47	104	0	79	16657
2026-01-22 17:00:50.07	281.44	11.66	-54.0	-55.3	3.7	0.00e+00	0	47	104	0	79	16921
2026-01-22 17:00:51.07	281.72	11.66	-55.1	-56.8	3.7	0.00e+00	0	47	104	0	80	18862
2026-01-22 17:00:52.08	282.00	11.66	-54.7	-56.3	3.7	0.00e+00	0	47	104	0	80	17773
2026-01-22 17:00:53.08	282.27	11.66	-54.3	-55.6	3.7	0.00e+00	0	47	104	0	79	17511
2026-01-22 17:00:54.09	282.56	11.66	-54.0	-55.2	3.7	0.00e+00	0	47	104	0	79	16659
2026-01-22 17:00:55.10	282.84	11.66	-54.0	-55.2	3.7	0.00e+00	0	47	104	0	79	16679
2026-01-22 17:00:56.10	283.11	11.66	-54.0	-55.2	3.7	0.00e+00	0	47	104	0	79	16768
2026-01-22 17:00:57.11	283.39	11.66	-54.0	-55.3	3.7	0.00e+00	0	47	104	0	79	16793
2026-01-22 17:00:58.12	283.68	11.66	-54.2	-55.5	3.7	0.00e+00	0	47	104	0	79	17275
2026-01-22 17:00:59.12	283.95	11.66	-55.1	-56.8	3.7	0.00e+00	0	47	104	0	80	18855
2026-01-22 17:01:00.13	284.23	11.66	-54.8	-56.4	3.7	0.00e+00	0	47	104	0	80	17980
2026-01-22 17:01:01.13	284.51	11.66	-54.3	-55.7	3.7	0.00e+00	0	47	104	0	80	16649
2026-01-22 17:01:02.14	284.79	11.65	-54.1	-55.3	3.7	0.00e+00	0	47	104	0	80	15854
2026-01-22 17:01:03.15	285.07	11.65	-54.1	-55.4	3.7	0.00e+00	0	47	104	0	80	16081
2026-01-22 17:01:04.16	285.35	11.65	-54.2	-55.4	3.7	0.00e+00	0	47	104	0	80	16149
2026-01-22 17:01:05.16	285.63	11.64	-54.2	-55.4	3.7	0.00e+00	0	47	104	0	80	16149
2026-01-22 17:01:06.17	285.91	11.64	-54.6	-56.0	3.7	0.00e+00	0	47	104	0	80	17326
2026-01-22 17:01:07.18	286.19	11.63	-55.2	-56.8	3.7	0.00e+00	0	47	104	0	81	17910
2026-01-22 17:01:08.19	286.47	11.62	-54.4	-55.8	3.7	0.00e+00	0	47	104	0	80	16843
2026-01-22 17:01:09.19	286.75	11.62	-54.7	-56.2	3.7	0.00e+00	0	47	104	0	80	17715
2026-01-22 17:01:10.20	287.02	11.61	-54.3	-55.7	3.7	0.00e+00	0	47	104	0	80	16634
2026-01-22 17:01:11.21	287.30	11.60	-54.4	-55.8	3.7	0.00e+00	0	47	104	0	80	16797
2026-01-22 17:01:12.22	287.58	11.59	-54.4	-55.7	3.7	0.00e+00	0	47	104	0	80	16687
2026-01-22 17:01:13.23	287.86	11.58	-54.9	-56.4	3.7	0.00e+00	0	47	104	0	80	18170
2026-01-22 17:01:14.24	288.14	11.57	-54.6	-56.0	3.7	0.00e+00	0	47	104	0	80	17179
2026-01-22 17:01:15.24	288.42	11.56	-54.5	-55.9	3.7	0.00e+00	0	47	104	0	80	17128
2026-01-22 17:01:16.25	288.69	11.55	-54.6	-56.0	3.7	0.00e+00	0	47	104	0	80	17207
2026-01-22 17:01:17.26	288.97	11.54	-54.5	-55.9	3.7	0.00e+00	0	47	104	0	79	18175
2026-01-22 17:01:18.27	289.25	11.53	-53.9	-55.2	3.7	0.00e+00	0	47	104	0	79	16618
2026-01-22 17:01:19.26	289.52	11.52	-55.5	-57.3	3.7	0.00e+00	0	47	104	0	81	18846
2026-01-22 17:01:20.27	289.80	11.50	-55.5	-57.3	3.7	0.00e+00	0	47	104	0	81	18868
2026-01-22 17:01:21.28	290.07	11.49	-55.5	-57.3	3.7	0.00e+00	0	47	104	0	81	18892
2026-01-22 17:01:22.29	290.35	11.48	-55.5	-57.3	3.7	0.00e+00	0	47	104	0	81	18849
2026-01-22 17:01:23.30	290.63	11.46	-55.5	-57.2	3.7	0.00e+00	0	47	104	0	81	18812
2026-01-22 17:01:24.30	290.90	11.45	-55.5	-57.3	3.7	0.00e+00	0	47	104	0	81	18914
2026-01-22 17:01:25.31	291.17	11.43	-55.5	-57.3	3.6	0.00e+00	0	47	104	0	81	18889
2026-01-22 17:01:26.32	291.45	11.42	-55.5	-57.3	3.7	0.00e+00	0	47	104	0	81	18871
2026-01-22 17:01:27.33	291.72	11.40	-55.6	-57.3	3.7	0.00e+00	0	47	104	0	81	19007
2026-01-22 17:01:28.34	292.00	11.39	-55.6	-57.3	3.7	0.00e+00	0	47	104	0	81	18982
2026-01-22 17:01:29.34	292.27	11.37	-55.5	-57.3	3.7	0.00e+00	0	47	104	0	81	18928
2026-01-22 17:01:30.35	292.54	11.35	-55.5	-57.3	3.7	0.00e+00	0	47	104	0	81	18823
2026-01-22 17:01:31.36	292.82	11.33	-55.6	-57.3	3.7	0.00e+00	0	47	104	0	81	18916
2026-01-22 17:01:32.37	293.09	11.31	-55.5	-57.3	3.7	0.00e+00	0	47	104	0	81	18894
2026-01-22 17:01:33.37	293.36	11.29	-55.5	-57.3	3.7	0.00e+00	0	47	104	0	81	18822
2026-01-22 17:01:34.37	293.63	11.28	-55.5	-57.2	3.7	0.00e+00	0	47	104	0	81	18789
2026-01-22 17:01:35.37	293.89	11.26	-55.5	-57.3	3.7	0.00e+00	0	47	104	0	81	18934
2026-01-22 17:01:36.38	294.17	11.23	-55.5	-57.3	3.7	0.00e+00	0	47	104	0	81	18843
2026-01-22 17:01:37.39	294.44	11.21	-55.5	-57.3	3.7	0.00e+00	0	47	104	0	81	18841
2026-01-22 17:01:38.40	294.71	11.19	-55.5	-57.2	3.7	0.00e+00	0	47	104	0	81	18712
2026-01-22 17:01:39.40	294.97	11.17	-55.5	-57.3	3.7	0.00e+00	0	47	104	0	81	18839
2026-01-22 17:01:40.41	295.24	11.15	-55.5	-57.2	3.7	0.00e+00	0	47	104	0	81	18733
2026-01-22 17:01:41.41	295.51	11.13	-55.4	-57.2	3.7	0.00e+00	0	47	104	0	81	18681
2026-01-22 17:01:42.42	295.77	11.10	-55.4	-57.2	3.7	0.00e+00	0	47	104	0	81	18649
2026-01-22 17:01:43.42	296.04	11.08	-55.4	-57.2	3.7	0.00e+00	0	47	104	0	81	18716
2026-01-22 17:01:44.43	296.31	11.05	-55.4	-57.2	3.7	0.00e+00	0	47	104	0	81	18698
2026-01-22 17:01:45.43	296.57	11.03	-55.4	-57.2	3.7	0.00e+00	0	47	104	0	81	18620
2026-01-22 17:01:46.44	296.84	11.00	-55.4	-57.1	3.7	0.00e+00	0	47	104	0	81	18593
2026-01-22 17:01:47.44	297.10	10.98	-55.4	-57.2	3.7	0.00e+00	0	47	104	0	81	18676
2026-01-22 17:01:48.45	297.36	10.95	-55.4	-57.2	3.7	0.00e+00	0	47	104	0	81	18646
2026-01-22 17:01:49.46	297.63	10.93	-55.4	-57.1	3.7	0.00e+00	0	47	104	0	81	18533
2026-01-22 17:01:50.47	297.89	10.90	-55.3	-57.1	3.7	0.00e+00	0	47	104	0	81	18496
2026-01-22 17:01:51.48	298.15	10.87	-55.3	-57.1	3.7	0.00e+00	0	47	104	0	81	18515
2026-01-22 17:01:52.48	298.41	10.85	-55.3	-57.1	3.7	0.00e+00	0	47	104	0	81	18510
2026-01-22 17:01:53.49	298.67	10.82	-55.3	-57.1	3.7	0.00e+00	0	47	104	0	81	18474
2026-01-22 17:01:54.50	298.93	10.79	-55.3	-57.1	3.7	0.00e+00	0	47	104	0	81	18460
2026-01-22 17:01:55.51	299.19	10.76	-55.3	-57.1	3.7	0.00e+00	0	47	104	0	81	18435
2026-01-22 17:01:56.52	299.45	10.73	-55.3	-57.0	3.7	0.00e+00	0	47	104	0	81	18339
2026-01-22 17:01:57.52	299.71	10.70	-55.3	-57.1	3.7	0.00e+00	0	47	104	0	81	18391
2026-01-22 17:01:58.53	299.97	10.67	-55.2	-57.1	3.7	0.00e+00	0	47	104	0	81	18392
2026-01-22 17:01:59.54	300.23	10.64	-55.2	-57.0	3.7	0.00e+00	0	47	104	0	81	18347
2026-01-22 17:02:00.55	300.48	10.61	-55.3	-57.1	3.7	0.00e+00	0	47	104	0	81	18427
2026-01-22 17:02:01.56	300.74	10.58	-55.3	-57.0	3.7	0.00e+00	0	47	104	0	81	18356
2026-01-22 17:02:02.56	300.99	10.55	-55.2	-57.0	3.7	0.00e+00	0	47	104	0	81	18333
2026-01-22 17:02:03.57	301.25	10.51	-55.2	-57.0	3.7	0.00e+00	0	47	104	0	81	18365
2026-01-22 17:02:04.58	301.50	10.48	-55.2	-57.0	3.7	0.00e+00	0	47	104	0	81	18270
2026-01-22 17:02:05.59	301.76	10.45	-55.3	-57.0	3.7	0.00e+00	0	47	104	0	81	18302
2026-01-22 17:02:06.60	302.01	10.42	-55.2	-57.0	3.7	0.00e+00	0	47	104	0	81	18331
2026-01-22 17:02:07.60	302.26	10.38	-55.2	-57.0	3.7	0.00e+00	0	47	104	0	81	18254
2026-01-22 17:02:08.61	302.51	10.35	-55.2	-57.0	3.7	0.00e+00	0	47	104	0	81	18279
2026-01-22 17:02:09.62	302.76	10.31	-55.2	-57.0	3.7	0.00e+00	0	47	104	0	81	18269
2026-01-22 17:02:10.63	303.01	10.28	-55.2	-57.0	3.7	0.00e+00	0	47	104	0	81	18282
2026-01-22 17:02:11.63	303.26	10.25	-55.2	-57.0	3.7	0.00e+00	0	47	104	0	81	18233
2026-01-22 17:02:12.64	303.51	10.21	-55.2	-57.0	3.7	0.00e+00	0	47	104	0	81	18247
2026-01-22 17:02:13.65	303.76	10.17	-55.2	-57.0	3.7	0.00e+00	0	47	104	0	81	18226
2026-01-22 17:02:14.66	304.00	10.14	-55.2	-57.0	3.7	0.00e+00	0	47	104	0	81	18315
2026-01-22 17:02:15.67	304.25	10.10	-55.2	-57.0	3.7	0.00e+00	0	47	104	0	81	18245
2026-01-22 17:02:16.68	304.50	10.07	-55.2	-57.0	3.7	0.00e+00	0	47	104	0	81	18196
2026-01-22 17:02:17.68	304.74	10.03	-55.2	-57.0	3.7	0.00e+00	0	47	104	0	81	18213
2026-01-22 17:02:18.69	304.98	9.99	-55.2	-57.0	3.7	0.00e+00	0	47	104	0	81	18265
2026-01-22 17:02:19.70	305.23	9.95	-55.2	-57.0	3.7	0.00e+00	0	47	104	0	81	18211
2026-01-22 17:02:20.71	305.47	9.92	-55.1	-56.9	3.7	0.00e+00	0	47	104	0	81	18093
2026-01-22 17:02:21.71	305.71	9.88	-55.2	-56.9	3.7	0.00e+00	0	47	104	0	81	18160
2026-01-22 17:02:22.72	305.95	9.84	-55.1	-56.9	3.7	0.00e+00	0	47	104	0	81	18166
2026-01-22 17:02:23.74	306.19	9.80	-55.1	-56.9	3.7	0.00e+00	0	47	104	0	81	18130
2026-01-22 17:02:24.74	306.43	9.76	-55.1	-56.9	3.7	0.00e+00	0	47	104	0	81	18065
2026-01-22 17:02:25.75	306.67	9.72	-55.2	-56.9	3.7	0.00e+00	0	47	104	0	81	18035
2026-01-22 17:02:26.76	306.91	9.68	-55.1	-56.9	3.7	0.00e+00	0	47	104	0	81	18155
2026-01-22 17:02:27.77	307.14	9.64	-55.1	-56.9	3.7	0.00e+00	0	47	104	0	81	18107
2026-01-22 17:02:28.78	307.38	9.60	-55.1	-56.9	3.7	0.00e+00	0	47	104	0	81	18049
2026-01-22 17:02:29.78	307.61	9.56	-55.1	-56.9	3.6	0.00e+00	0	47	104	0	81	18019
2026-01-22 17:02:30.79	307.85	9.52	-55.1	-56.9	3.7	0.00e+00	0	47	104	0	81	18089
2026-01-22 17:02:31.80	308.08	9.48	-55.1	-56.9	3.7	0.00e+00	0	47	104	0	81	18007
2026-01-22 17:02:32.81	308.31	9.44	-55.1	-56.8	3.7	0.00e+00	0	47	104	0	81	17939
2026-01-22 17:02:33.82	308.55	9.40	-55.1	-56.8	3.7	0.00e+00	0	47	104	0	81	17918
2026-01-22 17:02:34.82	308.78	9.36	-55.1	-56.9	3.7	0.00e+00	0	47	104	0	81	18073
2026-01-22 17:02:35.83	309.01	9.31	-55.1	-56.8	3.7	0.00e+00	0	47	104	0	81	17949
2026-01-22 17:02:36.84	309.24	9.27	-55.1	-56.8	3.7	0.00e+00	0	47	104	0	81	17871
2026-01-22 17:02:37.85	309.47	9.23	-55.0	-56.8	3.7	0.00e+00	0	47	104	0	81	17830
2026-01-22 17:02:38.86	309.69	9.18	-55.1	-56.9	3.7	0.00e+00	0	47	104	0	81	17981
2026-01-22 17:02:39.87	309.92	9.14	-55.0	-56.8	3.7	0.00e+00	0	47	104	0	81	17811
2026-01-22 17:02:40.87	310.15	9.10	-55.0	-56.8	3.7	0.00e+00	0	47	104	0	81	17834
2026-01-22 17:02:41.88	310.37	9.06	-55.0	-56.8	3.7	0.00e+00	0	47	104	0	81	17799
2026-01-22 17:02:42.89	310.60	9.01	-55.1	-56.8	3.7	0.00e+00	0	47	104	0	81	17933
2026-01-22 17:02:43.90	310.82	8.97	-55.0	-56.8	3.7	0.00e+00	0	47	104	0	81	17830
2026-01-22 17:02:44.91	311.05	8.92	-55.0	-56.7	3.7	0.00e+00	0	47	104	0	81	17724
2026-01-22 17:02:45.92	311.27	8.88	-55.0	-56.7	3.7	0.00e+00	0	47	104	0	81	17750
2026-01-22 17:02:46.92	311.49	8.83	-55.0	-56.8	3.7	0.00e+00	0	47	104	0	81	17865
2026-01-22 17:02:47.93	311.71	8.79	-55.0	-56.7	3.7	0.00e+00	0	47	104	0	81	17738
2026-01-22 17:02:48.94	311.93	8.74	-55.0	-56.7	3.7	0.00e+00	0	47	104	0	81	17646
2026-01-22 17:02:49.95	312.15	8.70	-54.9	-56.7	3.7	0.00e+00	0	47	104	0	81	17595
2026-01-22 17:02:50.95	312.36	8.65	-55.0	-56.8	3.7	0.00e+00	0	47	104	0	81	17782
2026-01-22 17:02:51.96	312.58	8.61	-54.9	-56.7	3.7	0.00e+00	0	47	104	0	81	17639
2026-01-22 17:02:52.97	312.80	8.56	-54.9	-56.7	3.7	0.00e+00	0	47	104	0	81	17609
2026-01-22 17:02:53.98	313.01	8.52	-54.9	-56.6	3.7	0.00e+00	0	47	104	0	81	17561
2026-01-22 17:02:54.98	313.23	8.47	-55.0	-56.8	3.7	0.00e+00	0	47	104	0	81	17777
2026-01-22 17:02:55.99	313.44	8.42	-54.9	-56.7	3.7	0.00e+00	0	47	104	0	81	17618
2026-01-22 17:02:57.00	313.66	8.38	-54.9	-56.6	3.7	0.00e+00	0	47	104	0	81	17550
2026-01-22 17:02:58.01	313.87	8.33	-54.9	-56.6	3.7	0.00e+00	0	47	104	0	81	17459
2026-01-22 17:02:59.01	314.08	8.28	-54.9	-56.7	3.7	0.00e+00	0	47	104	0	81	17704
2026-01-22 17:03:00.02	314.29	8.24	-54.9	-56.6	3.7	0.00e+00	0	47	104	0	81	17528
2026-01-22 17:03:01.03	314.50	8.19	-54.9	-56.6	3.7	0.00e+00	0	47	104	0	81	17509
2026-01-22 17:03:02.03	314.71	8.14	-54.8	-56.6	3.7	0.00e+00	0	47	104	0	81	17474
2026-01-22 17:03:03.04	314.91	8.09	-54.9	-56.7	3.7	0.00e+00	0	47	104	0	81	17597
2026-01-22 17:03:04.05	315.12	8.05	-54.8	-56.6	3.7	0.00e+00	0	47	104	0	81	17426
2026-01-22 17:03:05.06	315.33	8.00	-54.8	-56.6	3.7	0.00e+00	0	47	104	0	81	17480
2026-01-22 17:03:06.07	315.54	7.95	-54.8	-56.5	3.7	0.00e+00	0	47	104	0	81	17361
2026-01-22 17:03:07.08	315.74	7.90	-54.9	-56.7	3.7	0.00e+00	0	47	104	0	81	17567
2026-01-22 17:03:08.08	315.94	7.85	-54.8	-56.6	3.7	0.00e+00	0	47	104	0	81	17371
2026-01-22 17:03:09.09	316.15	7.81	-54.8	-56.6	3.7	0.00e+00	0	47	104	0	81	17364
2026-01-22 17:03:10.10	316.35	7.76	-54.8	-56.5	3.7	0.00e+00	0	47	104	0	81	17281
2026-01-22 17:03:11.11	316.55	7.71	-54.8	-56.6	3.7	0.00e+00	0	47	104	0	81	17492
2026-01-22 17:03:12.12	316.75	7.66	-54.8	-56.5	3.7	0.00e+00	0	47	104	0	81	17349
2026-01-22 17:03:13.12	316.95	7.61	-54.8	-56.6	3.7	0.00e+00	0	47	104	0	81	17363
2026-01-22 17:03:14.13	317.15	7.56	-54.7	-56.5	3.7	0.00e+00	0	47	104	0	81	17199
2026-01-22 17:03:15.14	317.35	7.51	-54.8	-56.6	3.7	0.00e+00	0	47	104	0	81	17441
2026-01-22 17:03:16.15	317.55	7.46	-54.7	-56.5	3.7	0.00e+00	0	47	104	0	81	17236
2026-01-22 17:03:17.15	317.74	7.41	-54.7	-56.5	3.7	0.00e+00	0	47	104	0	81	17228
2026-01-22 17:03:18.16	317.94	7.36	-54.7	-56.5	3.7	0.00e+00	0	47	104	0	81	17168
2026-01-22 17:03:19.17	318.13	7.31	-54.8	-56.6	3.7	0.00e+00	0	47	104	0	81	17373
2026-01-22 17:03:20.18	318.33	7.26	-54.7	-56.5	3.7	0.00e+00	0	47	104	0	81	17197
2026-01-22 17:03:21.19	318.52	7.21	-54.7	-56.5	3.7	0.00e+00	0	47	104	0	81	17207
2026-01-22 17:03:22.20	318.71	7.16	-54.7	-56.4	3.7	0.00e+00	0	47	104	0	81	17122
2026-01-22 17:03:23.20	318.90	7.12	-54.7	-56.5	3.7	0.00e+00	0	47	104	0	81	17263
2026-01-22 17:03:24.21	319.09	7.06	-54.7	-56.4	3.7	0.00e+00	0	47	104	0	81	17106
2026-01-22 17:03:25.22	319.28	7.01	-54.7	-56.4	3.7	0.00e+00	0	47	104	0	81	17088
2026-01-22 17:03:26.23	319.47	6.96	-54.6	-56.4	3.7	0.00e+00	0	47	104	0	81	17031
2026-01-22 17:03:27.23	319.66	6.91	-54.7	-56.5	3.7	0.00e+00	0	47	104	0	81	17197
2026-01-22 17:03:28.24	319.85	6.86	-54.6	-56.4	3.7	0.00e+00	0	47	104	0	81	17079
2026-01-22 17:03:29.25	320.04	6.81	-54.6	-56.4	3.7	0.00e+00	0	47	104	0	81	17046
2026-01-22 17:03:30.26	320.22	6.76	-54.6	-56.3	3.7	0.00e+00	0	47	104	0	81	16963
2026-01-22 17:03:31.27	320.41	6.71	-54.6	-56.4	3.7	0.00e+00	0	48	104	0	81	17077
2026-01-22 17:03:32.27	320.59	6.66	-54.6	-56.3	3.7	0.00e+00	0	47	104	0	81	16957
2026-01-22 17:03:33.28	320.77	6.61	-54.6	-56.3	3.7	0.00e+00	0	47	104	0	81	16938
2026-01-22 17:03:34.29	320.96	6.56	-54.5	-56.3	3.7	0.00e+00	0	47	104	0	81	16854
2026-01-22 17:03:35.30	321.14	6.51	-54.6	-56.4	3.7	0.00e+00	0	47	104	0	81	17041
2026-01-22 17:03:36.31	321.32	6.46	-54.6	-56.3	3.7	0.00e+00	0	47	104	0	81	16962
2026-01-22 17:03:37.31	321.50	6.40	-54.6	-56.3	3.7	0.00e+00	0	47	104	0	81	16898
2026-01-22 17:03:38.32	321.68	6.35	-54.5	-56.3	3.7	0.00e+00	0	47	104	0	81	16796
2026-01-22 17:03:39.33	321.86	6.30	-54.6	-56.3	3.7	0.00e+00	0	47	104	0	81	16887
2026-01-22 17:03:40.34	322.04	6.25	-54.5	-56.3	3.7	0.00e+00	0	47	104	0	81	16886
2026-01-22 17:03:41.35	322.22	6.20	-54.5	-56.3	3.7	0.00e+00	0	47	104	0	81	16787
2026-01-22 17:03:42.35	322.39	6.15	-54.5	-56.2	3.7	0.00e+00	0	47	104	0	80	17727
2026-01-22 17:03:43.36	322.57	6.10	-54.5	-56.3	3.7	0.00e+00	0	47	104	0	80	17923
2026-01-22 17:03:44.37	322.74	6.04	-54.5	-56.2	3.7	0.00e+00	0	47	104	0	80	17730
2026-01-22 17:03:45.38	322.92	5.99	-54.5	-56.2	3.7	0.00e+00	0	47	104	0	80	17681
2026-01-22 17:03:46.39	323.09	5.94	-54.4	-56.2	3.7	0.00e+00	0	47	104	0	80	17670
2026-01-22 17:03:47.40	323.26	5.89	-54.5	-56.2	3.7	0.00e+00	0	47	104	0	80	17737
2026-01-22 17:03:48.41	323.44	5.84	-54.4	-56.2	3.7	0.00e+00	0	47	104	0	80	17653
2026-01-22 17:03:49.42	323.61	5.78	-54.4	-56.1	3.7	0.00e+00	0	47	104	0	80	17560
2026-01-22 17:03:50.43	323.78	5.73	-54.4	-56.2	3.7	0.00e+00	0	47	104	0	80	17685
2026-01-22 17:03:51.43	323.95	5.68	-54.4	-56.2	3.7	0.00e+00	0	47	104	0	80	17657
2026-01-22 17:03:52.45	324.12	5.63	-54.4	-56.2	3.7	0.00e+00	0	47	104	0	80	17570
2026-01-22 17:03:53.45	324.29	5.58	-54.4	-56.1	3.7	0.00e+00	0	47	104	0	80	17493
2026-01-22 17:03:54.46	324.45	5.52	-54.4	-56.2	3.7	0.00e+00	0	47	104	0	80	17588
2026-01-22 17:03:55.47	324.62	5.47	-54.4	-56.1	3.7	0.00e+00	0	47	104	0	80	17534
2026-01-22 17:03:56.48	324.79	5.42	-54.4	-56.2	3.7	0.00e+00	0	47	104	0	80	17570
2026-01-22 17:03:57.48	324.95	5.37	-54.3	-56.1	3.7	0.00e+00	0	47	104	0	80	17435
2026-01-22 17:03:58.49	325.12	5.32	-54.3	-56.1	3.7	0.00e+00	0	47	104	0	80	17508
2026-01-22 17:03:59.50	325.28	5.26	-54.4	-56.1	3.7	0.00e+00	0	47	104	0	80	17526
2026-01-22 17:04:00.50	325.44	5.21	-54.3	-56.0	3.7	0.00e+00	0	47	104	0	80	17347
2026-01-22 17:04:01.51	325.60	5.16	-54.3	-56.0	3.7	0.00e+00	0	47	104	0	80	17335
2026-01-22 17:04:02.52	325.77	5.11	-54.3	-56.1	3.7	0.00e+00	0	47	104	0	80	17379
2026-01-22 17:04:03.53	325.93	5.05	-54.3	-56.1	3.6	0.00e+00	0	47	104	0	80	17417
2026-01-22 17:04:04.54	326.09	5.00	-54.3	-56.0	3.7	0.00e+00	0	47	104	0	80	17353
2026-01-22 17:04:05.55	326.25	4.95	-54.6	-56.4	3.7	0.00e+00	0	47	104	0	80	18035
2026-01-22 17:04:06.56	326.41	4.90	-54.9	-56.7	3.7	0.00e+00	0	47	104	0	80	18644
2026-01-22 17:04:07.56	326.56	4.85	-55.1	-56.8	3.7	0.00e+00	0	47	104	0	80	18975
2026-01-22 17:04:08.57	326.72	4.79	-55.2	-56.9	3.7	0.00e+00	0	47	104	0	80	19182
2026-01-22 17:04:09.58	326.88	4.74	-55.2	-57.0	3.7	0.00e+00	0	47	104	0	81	18184
2026-01-22 17:04:10.59	327.04	4.69	-55.3	-57.0	3.7	0.00e+00	0	47	104	0	81	18362
2026-01-22 17:04:11.60	327.19	4.64	-55.3	-57.0	3.7	0.00e+00	0	47	104	0	81	18379
2026-01-22 17:04:12.60	327.34	4.58	-55.3	-57.0	3.7	0.00e+00	0	47	104	0	81	18308
2026-01-22 17:04:13.61	327.50	4.53	-55.2	-56.9	3.7	0.00e+00	0	47	104	0	81	18109
2026-01-22 17:04:14.62	327.65	4.48	-55.1	-56.9	3.7	0.00e+00	0	47	104	0	81	18057
2026-01-22 17:04:15.63	327.81	4.43	-55.2	-56.9	3.7	0.00e+00	0	47	104	0	81	18111
2026-01-22 17:04:16.64	327.96	4.37	-55.2	-57.0	3.7	0.00e+00	0	47	104	0	81	18261
2026-01-22 17:04:17.65	328.11	4.32	-55.3	-57.0	3.7	0.00e+00	0	47	104	0	81	18376
2026-01-22 17:04:18.66	328.26	4.27	-55.4	-57.1	3.7	0.00e+00	0	47	104	0	81	18403
2026-01-22 17:04:19.67	328.41	4.22	-55.4	-57.1	3.7	0.00e+00	0	47	104	0	81	18599
2026-01-22 17:04:20.68	328.56	4.16	-55.4	-57.2	3.7	0.00e+00	0	47	104	0	81	18722
2026-01-22 17:04:21.68	328.71	4.11	-55.5	-57.2	3.7	0.00e+00	0	47	104	0	81	18753
2026-01-22 17:04:22.69	328.86	4.06	-55.5	-57.3	3.7	0.00e+00	0	47	104	0	81	18850
2026-01-22 17:04:23.70	329.00	4.01	-55.5	-57.3	3.7	0.00e+00	0	47	104	0	81	18948
2026-01-22 17:04:24.71	329.15	3.95	-55.5	-57.3	3.7	0.00e+00	0	47	104	0	81	18938
2026-01-22 17:04:25.71	329.30	3.90	-55.5	-57.3	3.7	0.00e+00	0	47	104	0	81	18889
2026-01-22 17:04:26.72	329.44	3.85	-55.5	-57.3	3.7	0.00e+00	0	47	104	0	81	18895
2026-01-22 17:04:27.73	329.59	3.80	-55.5	-57.2	3.7	0.00e+00	0	47	104	0	81	18764
2026-01-22 17:04:28.74	329.73	3.74	-55.5	-57.2	3.7	0.00e+00	0	47	104	0	81	18775
2026-01-22 17:04:29.75	329.87	3.69	-55.5	-57.2	3.7	0.00e+00	0	47	104	0	81	18754
2026-01-22 17:04:30.76	330.02	3.64	-55.5	-57.2	3.7	0.00e+00	0	47	104	0	81	18735
2026-01-22 17:04:31.77	330.16	3.59	-55.5	-57.2	3.7	0.00e+00	0	47	104	0	81	18688
2026-01-22 17:04:32.77	330.30	3.53	-55.4	-57.2	3.7	0.00e+00	0	47	104	0	81	18687
2026-01-22 17:04:33.78	330.44	3.48	-55.4	-57.2	3.7	0.00e+00	0	47	104	0	81	18680
2026-01-22 17:04:34.79	330.58	3.43	-55.4	-57.2	3.7	0.00e+00	0	47	104	0	81	18667
2026-01-22 17:04:35.80	330.72	3.38	-55.4	-57.2	3.7	0.00e+00	0	47	104	0	81	18659
2026-01-22 17:04:36.80	330.86	3.32	-55.4	-57.2	3.7	0.00e+00	0	47	104	0	81	18613
2026-01-22 17:04:37.81	331.00	3.27	-55.4	-57.2	3.7	0.00e+00	0	47	104	0	81	18612
2026-01-22 17:04:38.82	331.14	3.22	-55.4	-57.1	3.7	0.00e+00	0	47	104	0	81	18573
2026-01-22 17:04:39.83	331.28	3.17	-55.4	-57.1	3.7	0.00e+00	0	47	104	0	81	18576
2026-01-22 17:04:40.84	331.41	3.11	-55.4	-57.1	3.7	0.00e+00	0	47	104	0	81	18591
2026-01-22 17:04:41.84	331.55	3.06	-55.4	-57.1	3.7	0.00e+00	0	47	104	0	81	18589
2026-01-22 17:04:42.85	331.68	3.01	-55.4	-57.1	3.7	0.00e+00	0	47	104	0	81	18551
2026-01-22 17:04:43.86	331.82	2.96	-55.4	-57.2	3.7	0.00e+00	0	47	104	0	81	18615
2026-01-22 17:04:44.87	331.95	2.91	-55.4	-57.1	3.7	0.00e+00	0	47	104	0	81	18591
2026-01-22 17:04:45.88	332.09	2.85	-55.4	-57.1	3.7	0.00e+00	0	47	104	0	81	18524
2026-01-22 17:04:46.89	332.22	2.80	-55.4	-57.1	3.7	0.00e+00	0	47	104	0	81	18530
2026-01-22 17:04:47.89	332.35	2.75	-55.4	-57.1	3.7	0.00e+00	0	47	104	0	81	18556
2026-01-22 17:04:48.90	332.48	2.70	-55.4	-57.1	3.7	0.00e+00	0	47	104	0	81	18519
2026-01-22 17:04:49.91	332.62	2.65	-55.4	-57.1	3.7	0.00e+00	0	47	104	0	81	18535
2026-01-22 17:04:50.92	332.75	2.59	-55.4	-57.1	3.7	0.00e+00	0	47	104	0	81	18491
2026-01-22 17:04:51.93	332.88	2.54	-55.4	-57.1	3.7	0.00e+00	0	47	104	0	81	18513
2026-01-22 17:04:52.94	333.01	2.49	-55.4	-57.1	3.7	0.00e+00	0	47	104	0	81	18443
2026-01-22 17:04:53.95	333.14	2.44	-55.4	-57.1	3.7	0.00e+00	0	48	104	0	81	18489
2026-01-22 17:04:54.95	333.26	2.39	-55.4	-57.1	3.7	0.00e+00	0	47	104	0	81	18521
2026-01-22 17:04:55.96	333.39	2.33	-55.3	-57.1	3.7	0.00e+00	0	47	104	0	81	18465
2026-01-22 17:04:56.97	333.52	2.28	-55.3	-57.1	3.7	0.00e+00	0	47	104	0	81	18514
2026-01-22 17:04:57.98	333.65	2.23	-55.3	-57.1	3.7	0.00e+00	0	47	104	0	81	18526
2026-01-22 17:04:58.99	333.77	2.18	-55.3	-57.1	3.7	0.00e+00	0	47	104	0	81	18466
2026-01-22 17:05:00.00	333.90	2.13	-55.3	-57.1	3.7	0.00e+00	0	47	104	0	81	18468
2026-01-22 17:05:01.01	334.03	2.08	-55.3	-57.1	3.7	0.00e+00	0	47	104	0	81	18498
2026-01-22 17:05:02.02	334.15	2.02	-55.3	-57.1	3.7	0.00e+00	0	47	104	0	81	18453
2026-01-22 17:05:03.02	334.27	1.97	-55.3	-57.1	3.7	0.00e+00	0	47	104	0	81	18492
2026-01-22 17:05:04.03	334.40	1.92	-55.3	-57.0	3.7	0.00e+00	0	47	104	0	81	18371

#Closed at: 2026-01-22 17:05:04
#Recorded file [0 MB]: D:/lorett/data/31041_260122_195650.dat