passes_logs/2026/01/22/R3.2S_Murmansk/R3.2S_Murmansk__20260122_193226_TY-42_rec.log

#Pass ID: 20260122_193226_TY-42
#Satellite: TY-42
#Configuration: TY-42_900M
#almurnet v.1.7.20251203
#Start time: 2026-01-22 19:32:26

#Version: 2.2.20231116
#Station: R3.2S_Murmansk
#Location: 33.079688 lon 68.888172 lat
#TLE: 1 64048U 25103A   26022.68086806  .00008008  00000-0  38191-3 0 09998
#TLE: 2 64048 097.4120 097.9538 0001839 092.0767 308.1526 15.19160957 37986

#Time	Az	El	Level	Level2	SNR	BER	BlckErr	Temp	State	Recorded	gain1	gain2
2026-01-22 19:32:26.61	177.47	1.95	-54.6	-56.7	6.2	0.00e+00	0	48	0	0	80	18768
2026-01-22 19:32:27.62	177.51	2.02	-54.6	-56.8	6.2	0.00e+00	0	48	104	0	80	18879
2026-01-22 19:32:28.63	177.55	2.09	-54.6	-56.8	6.2	0.00e+00	0	48	104	0	80	18877
2026-01-22 19:32:29.63	177.59	2.16	-54.6	-56.7	6.2	0.00e+00	0	48	104	0	80	18741
2026-01-22 19:32:30.64	177.63	2.23	-54.7	-56.8	6.2	0.00e+00	0	48	104	0	80	18865
2026-01-22 19:32:31.65	177.67	2.30	-54.8	-56.9	6.2	0.00e+00	0	48	104	0	80	19166
2026-01-22 19:32:32.66	177.71	2.37	-54.8	-56.9	6.2	0.00e+00	0	48	104	0	80	19219
2026-01-22 19:32:33.67	177.75	2.44	-54.8	-56.9	6.2	0.00e+00	0	48	104	0	80	19145
2026-01-22 19:32:34.67	177.79	2.51	-54.8	-56.9	6.2	0.00e+00	0	49	104	0	80	19149
2026-01-22 19:32:35.68	177.83	2.58	-54.8	-56.9	6.2	0.00e+00	0	49	104	0	80	19092
2026-01-22 19:32:36.69	177.87	2.65	-54.7	-56.9	6.2	0.00e+00	0	49	104	0	80	19066
2026-01-22 19:32:37.70	177.91	2.72	-54.7	-56.8	6.2	0.00e+00	0	49	104	0	80	18967
2026-01-22 19:32:38.70	177.95	2.79	-54.7	-56.8	6.2	0.00e+00	0	49	104	0	80	18971
2026-01-22 19:32:39.71	178.00	2.86	-54.7	-56.8	6.2	0.00e+00	0	49	104	0	80	18981
2026-01-22 19:32:40.72	178.04	2.93	-54.6	-56.8	6.2	0.00e+00	0	49	104	0	80	18875
2026-01-22 19:32:41.73	178.08	3.01	-54.6	-56.7	6.2	0.00e+00	0	49	104	0	80	18774
2026-01-22 19:32:42.73	178.12	3.08	-54.6	-56.7	6.2	0.00e+00	0	49	104	0	80	18778
2026-01-22 19:32:43.74	178.17	3.15	-54.5	-56.7	6.2	0.00e+00	0	49	104	0	80	18616
2026-01-22 19:32:44.75	178.21	3.22	-54.5	-56.6	6.2	0.00e+00	0	49	104	0	80	18506
2026-01-22 19:32:45.76	178.25	3.30	-54.4	-56.6	6.2	0.00e+00	0	49	104	0	80	18423
2026-01-22 19:32:46.77	178.30	3.37	-54.4	-56.5	6.2	0.00e+00	0	49	104	0	80	18216
2026-01-22 19:32:47.78	178.34	3.44	-54.3	-56.4	6.2	0.00e+00	0	49	104	0	80	18066
2026-01-22 19:32:48.78	178.39	3.52	-54.2	-56.3	6.2	0.00e+00	0	49	104	0	80	17894
2026-01-22 19:32:49.79	178.43	3.59	-54.1	-56.2	6.2	0.00e+00	0	49	104	0	80	17689
2026-01-22 19:32:50.80	178.47	3.67	-54.0	-56.1	6.2	0.00e+00	0	49	104	0	79	18593
2026-01-22 19:32:51.81	178.52	3.74	-53.8	-55.9	6.2	0.00e+00	0	50	104	0	79	18070
2026-01-22 19:32:52.82	178.56	3.82	-53.4	-55.6	6.2	0.00e+00	0	49	104	0	78	18423
2026-01-22 19:32:53.83	178.61	3.89	-53.2	-55.4	6.2	0.00e+00	0	50	104	0	78	18014
2026-01-22 19:32:54.84	178.66	3.97	-53.2	-55.4	6.2	0.00e+00	0	50	104	0	78	17983
2026-01-22 19:32:55.85	178.70	4.04	-53.2	-55.3	6.2	0.00e+00	0	50	104	0	78	17962
2026-01-22 19:32:56.86	178.75	4.12	-53.2	-55.4	6.2	0.00e+00	0	50	104	0	78	17983
2026-01-22 19:32:57.87	178.80	4.19	-53.2	-55.4	6.2	0.00e+00	0	50	104	0	78	18014
2026-01-22 19:32:58.87	178.84	4.27	-53.2	-55.3	6.2	0.00e+00	0	50	104	0	78	17970
2026-01-22 19:32:59.88	178.89	4.35	-53.2	-55.3	6.2	0.00e+00	0	50	104	0	78	17960
2026-01-22 19:33:00.89	178.94	4.42	-53.2	-55.3	6.2	0.00e+00	0	50	104	0	78	17913
2026-01-22 19:33:01.90	178.98	4.50	-53.2	-55.3	6.2	0.00e+00	0	50	104	0	78	17900
2026-01-22 19:33:02.91	179.03	4.58	-53.2	-55.3	6.2	0.00e+00	0	50	104	0	78	17944
2026-01-22 19:33:03.92	179.08	4.66	-53.2	-55.3	6.2	0.00e+00	0	50	104	0	78	17906
2026-01-22 19:33:04.93	179.13	4.74	-53.2	-55.3	6.2	0.00e+00	0	50	104	0	78	17912
2026-01-22 19:33:05.94	179.18	4.81	-53.2	-55.3	6.2	0.00e+00	0	50	104	0	78	17929
2026-01-22 19:33:06.95	179.23	4.89	-53.2	-55.3	6.2	0.00e+00	0	50	104	0	78	17903
2026-01-22 19:33:07.95	179.28	4.97	-53.2	-55.3	6.2	0.00e+00	0	50	104	0	78	17861
2026-01-22 19:33:08.96	179.33	5.05	-53.2	-55.3	6.2	0.00e+00	0	50	104	0	78	17946
2026-01-22 19:33:09.96	179.38	5.13	-53.4	-55.5	6.2	0.00e+00	0	50	104	0	78	18248
2026-01-22 19:33:10.97	179.43	5.21	-53.3	-55.4	6.2	0.00e+00	0	50	104	0	78	18098
2026-01-22 19:33:11.98	179.48	5.29	-53.2	-55.3	6.2	0.00e+00	0	50	104	0	78	17795
2026-01-22 19:33:12.99	179.53	5.37	-53.1	-55.3	6.2	0.00e+00	0	50	104	0	78	17820
2026-01-22 19:33:14.00	179.58	5.45	-43.2	-43.4	10.8	0.00e+00	10918	53	104	0	56	16021
2026-01-22 19:33:15.00	179.63	5.53	-38.7	-38.6	13.7	0.00e+00	0	52	0	109051904	49	13938
2026-01-22 19:33:16.01	179.68	5.61	-38.1	-38.1	14.0	9.12e-02	0	52	0	234881024	48	13816
2026-01-22 19:33:17.02	179.74	5.70	-36.4	-36.4	14.0	9.12e-02	0	52	0	352321536	44	14306
2026-01-22 19:33:18.03	179.79	5.78	-36.3	-36.2	14.1	9.12e-02	0	52	0	461373440	44	14077
2026-01-22 19:33:19.04	179.84	5.86	-36.5	-36.4	14.0	2.74e-02	0	52	0	570425344	44	14377
2026-01-22 19:33:20.04	179.90	5.94	-36.5	-36.4	14.0	2.74e-02	0	52	0	687865856	44	14335
2026-01-22 19:33:21.05	179.95	6.03	-36.4	-36.3	14.1	2.74e-02	0	53	0	796917760	44	14165
2026-01-22 19:33:22.06	180.00	6.11	-36.5	-36.4	14.0	2.46e-02	0	52	0	914358272	44	14361
2026-01-22 19:33:23.07	180.06	6.19	-36.3	-36.2	14.1	2.46e-02	0	53	0	1023410176	44	14079
2026-01-22 19:33:24.08	180.11	6.28	-36.5	-36.4	14.0	2.46e-02	0	53	0	1132462080	44	14344
2026-01-22 19:33:25.09	180.17	6.36	-36.3	-36.3	14.1	2.45e-02	0	53	0	1249902592	44	14125
2026-01-22 19:33:26.10	180.23	6.45	-36.2	-36.1	14.2	2.45e-02	0	53	0	1358954496	44	13845
2026-01-22 19:33:27.11	180.28	6.53	-36.3	-36.2	14.1	2.21e-02	0	53	0	1484783616	44	14063
2026-01-22 19:33:28.12	180.34	6.62	-35.9	-35.8	14.3	2.21e-02	0	53	0	1593835520	43	14221
2026-01-22 19:33:29.12	180.39	6.70	-36.0	-35.9	14.2	2.09e-02	0	53	0	1711276032	43	14430
2026-01-22 19:33:30.13	180.45	6.79	-36.1	-36.0	14.2	2.09e-02	0	53	0	1820327936	43	14550
2026-01-22 19:33:31.14	180.51	6.88	-36.2	-36.2	14.1	2.09e-02	0	53	0	1937768448	43	14777
2026-01-22 19:33:32.15	180.57	6.96	-36.2	-36.2	14.1	2.09e-02	0	53	0	2046820352	43	14791
2026-01-22 19:33:33.15	180.63	7.05	-36.4	-36.3	14.1	2.15e-02	0	53	0	2164260864	43	15045
2026-01-22 19:33:34.16	180.69	7.14	-36.2	-36.1	14.2	2.15e-02	0	53	0	2273312768	43	14680
2026-01-22 19:33:35.17	180.74	7.23	-36.4	-36.3	14.1	2.15e-02	0	53	0	2382364672	43	15021
2026-01-22 19:33:36.18	180.80	7.31	-35.8	-35.7	14.4	2.21e-02	0	53	0	2499805184	43	14074
2026-01-22 19:33:37.18	180.86	7.40	-35.8	-35.8	14.3	2.21e-02	0	53	0	2608857088	43	14125
2026-01-22 19:33:38.19	180.92	7.49	-35.8	-35.7	14.4	2.21e-02	0	53	0	2726297600	43	14111
2026-01-22 19:33:39.20	180.99	7.58	-35.8	-35.7	14.4	1.78e-02	0	53	0	2835349504	43	14043
2026-01-22 19:33:40.21	181.05	7.67	-35.8	-35.8	14.4	1.78e-02	0	54	0	2944401408	43	14125
2026-01-22 19:33:41.22	181.11	7.76	-35.7	-35.6	14.4	1.78e-02	0	54	0	3070230528	43	13893
2026-01-22 19:33:42.22	181.17	7.85	-36.3	-36.2	14.1	1.73e-02	0	54	0	3187671040	43	14866
2026-01-22 19:33:43.23	181.23	7.94	-35.7	-35.6	14.5	1.73e-02	0	54	0	3296722944	43	13824
2026-01-22 19:33:44.24	181.30	8.04	-36.0	-35.9	14.3	1.73e-02	0	54	0	3405774848	43	14359
2026-01-22 19:33:45.25	181.36	8.13	-35.7	-35.6	14.4	1.76e-02	0	54	0	3523215360	43	13845
2026-01-22 19:33:46.26	181.43	8.22	-35.5	-35.4	14.5	1.76e-02	0	54	0	3632267264	43	13623
2026-01-22 19:33:47.27	181.49	8.31	-35.5	-35.4	14.5	1.76e-02	0	54	0	3749707776	42	14432
2026-01-22 19:33:48.27	181.55	8.41	-35.5	-35.4	14.6	1.42e-02	0	54	0	3858759680	42	14353
2026-01-22 19:33:49.28	181.62	8.50	-35.4	-35.4	14.6	1.42e-02	0	54	0	3967811584	42	14277
2026-01-22 19:33:50.29	181.69	8.59	-35.4	-35.3	14.6	1.33e-02	0	54	0	4085252096	42	14214
2026-01-22 19:33:51.30	181.75	8.69	-35.3	-35.2	14.6	1.33e-02	0	54	0	4194304000	42	14077
2026-01-22 19:33:52.31	181.82	8.79	-35.3	-35.2	14.6	1.12e-02	0	54	0	4320133120	42	14046
2026-01-22 19:33:53.32	181.89	8.88	-35.3	-35.2	14.7	1.12e-02	0	54	0	4429185024	42	13988
2026-01-22 19:33:54.32	181.96	8.98	-35.1	-35.0	14.7	1.12e-02	0	54	0	4546625536	42	13778
2026-01-22 19:33:55.33	182.02	9.07	-35.0	-34.9	14.8	1.07e-02	0	54	0	4655677440	41	14375
2026-01-22 19:33:56.34	182.09	9.17	-35.0	-34.9	14.8	1.07e-02	0	54	0	4773117952	41	14296
2026-01-22 19:33:57.34	182.16	9.27	-34.9	-34.8	14.9	1.07e-02	0	54	0	4882169856	41	14166
2026-01-22 19:33:58.35	182.23	9.36	-34.8	-34.7	14.9	8.88e-03	0	54	0	4991221760	41	14072
2026-01-22 19:33:59.36	182.30	9.46	-34.8	-34.7	14.9	8.88e-03	0	54	0	5108662272	41	14026
2026-01-22 19:34:00.37	182.38	9.56	-34.7	-34.6	14.9	7.86e-03	0	54	0	5217714176	41	13921
2026-01-22 19:34:01.38	182.45	9.66	-34.7	-34.6	14.9	7.86e-03	0	54	0	5335154688	41	13821
2026-01-22 19:34:02.39	182.52	9.76	-34.7	-34.6	14.9	7.86e-03	0	54	0	5444206592	41	13888
2026-01-22 19:34:03.40	182.59	9.86	-34.7	-34.6	14.9	7.72e-03	0	54	0	5561647104	41	13838
2026-01-22 19:34:04.41	182.67	9.96	-34.5	-34.4	15.0	7.72e-03	0	54	0	5670699008	41	13522
2026-01-22 19:34:05.41	182.74	10.06	-34.5	-34.4	15.0	7.72e-03	0	54	0	5796528128	40	14310
2026-01-22 19:34:06.42	182.82	10.17	-34.3	-34.2	15.1	6.22e-03	0	55	0	5905580032	40	13961
2026-01-22 19:34:07.43	182.89	10.27	-34.3	-34.2	15.1	6.22e-03	0	55	0	6023020544	40	14001
2026-01-22 19:34:08.44	182.97	10.37	-34.3	-34.2	15.1	6.22e-03	0	55	0	6132072448	40	14094
2026-01-22 19:34:09.44	183.04	10.48	-34.2	-34.1	15.1	5.25e-03	0	54	0	6241124352	40	13891
2026-01-22 19:34:10.45	183.12	10.58	-34.2	-34.1	15.1	5.25e-03	0	55	0	6358564864	40	13847
2026-01-22 19:34:11.46	183.20	10.68	-34.2	-34.1	15.2	5.25e-03	0	54	0	6467616768	40	13864
2026-01-22 19:34:12.46	183.28	10.79	-34.3	-34.2	15.1	4.79e-03	0	55	0	6585057280	40	13986
2026-01-22 19:34:13.47	183.36	10.89	-34.1	-34.0	15.2	4.79e-03	0	55	0	6694109184	40	13638
2026-01-22 19:34:14.48	183.44	11.00	-34.1	-34.0	15.2	4.79e-03	0	54	0	6803161088	40	13724
2026-01-22 19:34:15.49	183.52	11.11	-34.0	-33.8	15.3	4.79e-03	0	55	0	6920601600	39	14258
2026-01-22 19:34:16.49	183.60	11.21	-34.2	-34.1	15.2	4.29e-03	0	55	0	7029653504	39	14705
2026-01-22 19:34:17.50	183.68	11.32	-34.2	-34.1	15.2	4.29e-03	0	55	0	7147094016	39	14660
2026-01-22 19:34:18.51	183.76	11.43	-34.1	-34.0	15.4	4.29e-03	0	55	0	7264534528	39	14485
2026-01-22 19:34:19.52	183.85	11.54	-34.0	-33.9	15.5	4.19e-03	0	55	0	7381975040	39	14289
2026-01-22 19:34:20.53	183.93	11.65	-33.8	-33.7	15.6	4.19e-03	0	55	0	7491026944	39	14036
2026-01-22 19:34:21.54	184.02	11.76	-33.8	-33.7	15.6	2.35e-03	0	55	0	7608467456	39	13964
2026-01-22 19:34:22.55	184.10	11.87	-33.9	-33.8	15.5	2.35e-03	0	55	0	7717519360	39	14184
2026-01-22 19:34:23.55	184.19	11.98	-34.1	-34.0	15.4	2.35e-03	0	55	0	7826571264	39	14569
2026-01-22 19:34:24.56	184.27	12.10	-34.2	-34.1	15.3	2.35e-03	0	55	0	7944011776	39	14722
2026-01-22 19:34:25.57	184.36	12.21	-33.9	-33.8	15.4	2.54e-03	0	55	0	8053063680	39	14126
2026-01-22 19:34:26.58	184.45	12.32	-33.9	-33.8	15.4	2.54e-03	0	55	0	8170504192	39	14172
2026-01-22 19:34:27.59	184.54	12.44	-33.7	-33.5	15.5	2.50e-03	0	55	0	8279556096	39	13785
2026-01-22 19:34:28.59	184.63	12.55	-33.4	-33.3	15.6	2.50e-03	0	55	0	8396996608	38	14218
2026-01-22 19:34:29.60	184.72	12.67	-33.4	-33.3	15.6	2.50e-03	0	55	0	8506048512	38	14122
2026-01-22 19:34:30.61	184.81	12.78	-33.4	-33.3	15.6	1.83e-03	0	55	0	8631877632	38	14239
2026-01-22 19:34:31.62	184.91	12.90	-33.3	-33.2	15.6	1.83e-03	0	55	0	8740929536	38	13960
2026-01-22 19:34:32.63	185.00	13.02	-33.0	-32.9	15.8	1.83e-03	0	55	0	8849981440	38	13573
2026-01-22 19:34:33.63	185.09	13.13	-33.0	-32.9	15.8	1.83e-03	0	56	0	8967421952	38	13536
2026-01-22 19:34:34.64	185.19	13.25	-33.1	-33.0	15.7	1.36e-03	0	56	0	9076473856	38	13688
2026-01-22 19:34:35.65	185.28	13.37	-33.0	-32.9	15.7	1.36e-03	0	55	0	9193914368	38	13607
2026-01-22 19:34:36.66	185.38	13.49	-32.7	-32.6	15.8	1.36e-03	0	55	0	9302966272	37	13923
2026-01-22 19:34:37.67	185.48	13.62	-32.8	-32.6	15.8	9.01e-04	0	55	0	9420406784	37	13950
2026-01-22 19:34:38.68	185.58	13.74	-32.6	-32.5	15.9	9.01e-04	0	56	0	9529458688	37	13653
2026-01-22 19:34:39.68	185.68	13.86	-32.6	-32.5	15.9	8.44e-04	0	56	0	9638510592	37	13736
2026-01-22 19:34:40.69	185.78	13.98	-32.6	-32.4	15.9	8.44e-04	0	56	0	9755951104	37	13632
2026-01-22 19:34:41.70	185.88	14.11	-32.4	-32.3	15.9	8.44e-04	0	55	0	9865003008	36	14177
2026-01-22 19:34:42.70	185.98	14.23	-32.3	-32.2	15.9	8.44e-04	0	56	0	9982443520	36	14085
2026-01-22 19:34:43.71	186.09	14.36	-32.3	-32.2	15.9	6.20e-04	0	56	0	10099884032	36	14076
2026-01-22 19:34:44.72	186.19	14.48	-32.2	-32.1	16.0	6.20e-04	0	56	0	10217324544	36	13851
2026-01-22 19:34:45.73	186.30	14.61	-32.2	-32.1	16.0	4.34e-04	0	56	0	10326376448	36	13807
2026-01-22 19:34:46.74	186.40	14.74	-32.1	-32.0	16.1	4.34e-04	0	56	0	10443816960	36	13699
2026-01-22 19:34:47.75	186.51	14.87	-32.1	-32.0	16.1	4.34e-04	0	56	0	10552868864	36	13645
2026-01-22 19:34:48.75	186.62	14.99	-32.2	-32.1	16.0	3.48e-04	0	56	0	10661920768	36	13797
2026-01-22 19:34:49.76	186.73	15.12	-32.1	-31.9	16.0	3.48e-04	0	56	0	10779361280	36	13630
2026-01-22 19:34:50.77	186.84	15.26	-32.1	-32.0	16.0	3.48e-04	0	56	0	10888413184	36	13654
2026-01-22 19:34:51.78	186.95	15.39	-32.1	-31.9	16.0	3.34e-04	0	56	0	11005853696	36	13623
2026-01-22 19:34:52.78	187.06	15.52	-32.0	-31.9	16.1	3.34e-04	0	56	0	11114905600	36	13505
2026-01-22 19:34:53.80	187.18	15.65	-29.7	-29.6	15.6	3.34e-04	0	56	0	11223957504	31	13844
2026-01-22 19:34:54.80	187.29	15.79	-29.8	-29.7	15.6	9.54e-04	0	56	0	11341398016	31	14051
2026-01-22 19:34:55.81	187.41	15.92	-29.5	-29.4	15.7	9.54e-04	0	56	0	11467227136	31	13568
2026-01-22 19:34:56.82	187.53	16.06	-29.5	-29.4	15.7	9.54e-04	0	56	0	11576279040	31	13527
2026-01-22 19:34:57.83	187.65	16.20	-29.5	-29.4	15.8	1.47e-03	0	56	0	11685330944	31	13507
2026-01-22 19:34:58.83	187.77	16.33	-29.4	-29.3	15.8	1.47e-03	0	56	0	11802771456	30	14206
2026-01-22 19:34:59.84	187.89	16.47	-29.5	-29.3	15.8	1.42e-03	0	56	0	11911823360	30	14257
2026-01-22 19:35:00.85	188.01	16.61	-29.4	-29.3	15.8	1.42e-03	0	56	0	12029263872	30	14218
2026-01-22 19:35:01.86	188.14	16.75	-29.5	-29.4	15.7	1.42e-03	0	56	0	12138315776	30	14385
2026-01-22 19:35:02.87	188.26	16.89	-29.2	-29.1	15.9	1.33e-03	0	56	0	12255756288	30	13830
2026-01-22 19:35:03.87	188.39	17.04	-29.1	-29.0	15.9	1.33e-03	0	56	0	12364808192	30	13757
2026-01-22 19:35:04.88	188.52	17.18	-29.1	-29.0	15.9	8.25e-04	0	56	0	12473860096	30	13651
2026-01-22 19:35:05.89	188.65	17.32	-29.1	-29.0	16.0	8.25e-04	0	56	0	12591300608	30	13706
2026-01-22 19:35:06.90	188.78	17.47	-28.8	-28.7	16.1	8.25e-04	0	56	0	12700352512	29	14027
2026-01-22 19:35:07.90	188.91	17.61	-28.9	-28.7	16.0	7.44e-04	0	56	0	12817793024	29	14111
2026-01-22 19:35:08.91	189.04	17.76	-28.8	-28.7	16.0	7.44e-04	0	56	0	12935233536	29	14043
2026-01-22 19:35:09.92	189.18	17.91	-28.9	-28.8	15.9	6.29e-04	0	56	0	13052674048	29	14226
2026-01-22 19:35:10.93	189.32	18.06	-28.9	-28.8	16.0	6.29e-04	0	56	0	13161725952	29	14174
2026-01-22 19:35:11.93	189.45	18.21	-28.6	-28.5	16.1	6.29e-04	0	56	0	13279166464	29	13643
2026-01-22 19:35:12.94	189.59	18.36	-28.6	-28.5	16.1	5.39e-04	0	56	0	13388218368	29	13752
2026-01-22 19:35:13.95	189.73	18.51	-28.7	-28.6	16.1	5.39e-04	0	56	0	13497270272	29	13816
2026-01-22 19:35:14.96	189.88	18.67	-28.4	-28.3	16.1	5.39e-04	0	56	0	13614710784	28	14139
2026-01-22 19:35:15.97	190.02	18.82	-28.4	-28.3	16.1	4.67e-04	0	56	0	13723762688	28	14242
2026-01-22 19:35:16.97	190.17	18.98	-28.3	-28.2	16.1	4.67e-04	0	56	0	13841203200	28	14065
2026-01-22 19:35:17.98	190.31	19.13	-28.3	-28.2	16.1	3.96e-04	0	56	0	13950255104	28	13954
2026-01-22 19:35:18.99	190.46	19.29	-28.2	-28.1	16.2	3.96e-04	0	56	0	14059307008	28	13868
2026-01-22 19:35:20.00	190.62	19.45	-28.1	-28.0	16.2	3.96e-04	0	56	0	14176747520	28	13710
2026-01-22 19:35:21.01	190.77	19.61	-28.0	-27.9	16.3	2.48e-04	0	56	0	14285799424	27	14288
2026-01-22 19:35:22.02	190.92	19.77	-28.0	-27.9	16.3	2.48e-04	0	56	0	14411628544	27	14276
2026-01-22 19:35:23.02	191.08	19.93	-28.0	-27.9	16.3	1.91e-04	0	56	0	14520680448	27	14379
2026-01-22 19:35:24.03	191.24	20.10	-28.0	-27.8	16.3	1.91e-04	0	56	0	14638120960	27	14244
2026-01-22 19:35:25.04	191.40	20.26	-28.0	-27.9	16.2	1.91e-04	0	56	0	14747172864	27	14410
2026-01-22 19:35:26.05	191.56	20.43	-27.7	-27.6	16.3	2.38e-04	0	56	0	14864613376	27	13918
2026-01-22 19:35:27.05	191.72	20.59	-27.6	-27.5	16.4	2.38e-04	0	56	0	14973665280	27	13654
2026-01-22 19:35:28.06	191.89	20.76	-27.6	-27.5	16.4	2.38e-04	0	56	0	15082717184	27	13714
2026-01-22 19:35:29.07	192.06	20.93	-27.5	-27.4	16.4	1.14e-04	0	56	0	15200157696	27	13565
2026-01-22 19:35:30.08	192.23	21.10	-27.3	-27.2	16.4	1.14e-04	0	56	0	15309209600	26	14048
2026-01-22 19:35:31.09	192.40	21.27	-27.4	-27.3	16.4	9.53e-05	0	56	0	15426650112	26	14131
2026-01-22 19:35:32.09	192.58	21.44	-27.4	-27.3	16.4	9.53e-05	0	56	0	15535702016	26	14234
2026-01-22 19:35:33.10	192.75	21.62	-27.5	-27.4	16.4	8.58e-05	0	56	0	15653142528	26	14306
2026-01-22 19:35:34.11	192.93	21.79	-27.3	-27.2	16.5	8.58e-05	0	56	0	15770583040	26	13952
2026-01-22 19:35:35.12	193.11	21.97	-27.4	-27.3	16.4	8.58e-05	0	56	0	15888023552	26	14163
2026-01-22 19:35:36.13	193.30	22.15	-27.3	-27.1	16.5	8.10e-05	0	56	0	15997075456	26	13931
2026-01-22 19:35:37.14	193.48	22.33	-27.3	-27.1	16.5	8.10e-05	0	56	0	16114515968	26	13941
2026-01-22 19:35:38.14	193.67	22.51	-27.2	-27.1	16.5	8.10e-05	0	56	0	16223567872	26	13887
2026-01-22 19:35:39.15	193.86	22.69	-27.2	-27.0	16.5	3.81e-05	0	56	0	16332619776	26	13770
2026-01-22 19:35:40.16	194.05	22.87	-26.8	-26.7	16.5	3.81e-05	0	56	0	16450060288	25	14064
2026-01-22 19:35:41.17	194.25	23.05	-26.8	-26.6	16.6	3.81e-05	0	56	0	16559112192	25	13931
2026-01-22 19:35:42.17	194.45	23.24	-26.7	-26.6	16.6	3.81e-05	0	56	0	16676552704	25	13819
2026-01-22 19:35:43.18	194.65	23.43	-26.8	-26.6	16.6	3.81e-05	0	56	0	16785604608	25	13935
2026-01-22 19:35:44.19	194.85	23.61	-26.7	-26.6	16.6	3.81e-05	0	56	0	16894656512	25	13861
2026-01-22 19:35:45.20	195.06	23.80	-26.8	-26.7	16.6	2.86e-05	0	56	0	17012097024	25	13997
2026-01-22 19:35:46.21	195.26	24.00	-26.5	-26.4	16.6	2.86e-05	0	56	0	17121148928	25	13593
2026-01-22 19:35:47.21	195.47	24.19	-26.4	-26.3	16.6	2.86e-05	0	56	0	17246978048	24	14129
2026-01-22 19:35:48.22	195.69	24.38	-26.5	-26.4	16.6	3.81e-05	0	56	0	17356029952	24	14292
2026-01-22 19:35:49.23	195.91	24.58	-26.2	-26.1	16.7	3.81e-05	0	56	0	17473470464	24	13875
2026-01-22 19:35:50.24	196.13	24.77	-26.2	-26.1	16.7	3.81e-05	0	56	0	17582522368	24	13857
2026-01-22 19:35:51.25	196.35	24.97	-26.3	-26.1	16.7	1.90e-05	0	56	0	17699962880	24	13947
2026-01-22 19:35:52.25	196.57	25.17	-26.1	-26.0	16.7	1.90e-05	0	56	0	17809014784	24	13651
2026-01-22 19:35:53.26	196.80	25.37	-26.0	-25.9	16.7	1.90e-05	0	56	0	17918066688	24	13572
2026-01-22 19:35:54.27	197.04	25.57	-26.0	-25.9	16.7	9.50e-06	0	56	0	18035507200	24	13551
2026-01-22 19:35:55.28	197.27	25.77	-25.9	-25.8	16.7	9.50e-06	0	56	0	18144559104	23	14212
2026-01-22 19:35:56.29	197.51	25.98	-25.9	-25.7	16.7	9.50e-06	0	56	0	18261999616	23	14109
2026-01-22 19:35:57.29	197.75	26.18	-25.8	-25.7	16.7	3.33e-05	0	56	0	18371051520	23	14013
2026-01-22 19:35:58.30	198.00	26.39	-25.7	-25.6	16.8	3.33e-05	0	56	0	18488492032	23	13918
2026-01-22 19:35:59.31	198.25	26.60	-25.7	-25.6	16.8	3.33e-05	0	56	0	18605932544	23	13800
2026-01-22 19:36:00.32	198.50	26.81	-25.6	-25.5	16.8	4.70e-06	0	56	0	18723373056	23	13647
2026-01-22 19:36:01.33	198.76	27.02	-25.6	-25.5	16.8	4.70e-06	0	56	0	18832424960	23	13723
2026-01-22 19:36:02.33	199.02	27.24	-25.6	-25.5	16.8	0.00e+00	0	56	0	18941476864	23	13642
2026-01-22 19:36:03.34	199.28	27.45	-25.3	-25.2	16.8	0.00e+00	0	56	0	19058917376	22	13984
2026-01-22 19:36:04.35	199.55	27.67	-25.3	-25.2	16.8	0.00e+00	0	56	0	19167969280	22	13971
2026-01-22 19:36:05.36	199.82	27.88	-25.1	-25.0	16.9	4.70e-06	0	56	0	19285409792	22	13705
2026-01-22 19:36:06.37	200.10	28.10	-25.1	-24.9	16.9	4.70e-06	0	56	0	19394461696	22	13607
2026-01-22 19:36:07.38	200.38	28.32	-24.9	-24.8	16.9	0.00e+00	0	56	0	19511902208	21	14211
2026-01-22 19:36:08.38	200.66	28.54	-24.8	-24.7	16.9	0.00e+00	0	56	0	19620954112	21	14044
2026-01-22 19:36:09.39	200.95	28.77	-24.9	-24.8	16.9	0.00e+00	0	56	0	19730006016	21	14121
2026-01-22 19:36:10.40	201.24	28.99	-24.9	-24.7	16.9	4.70e-06	0	56	0	19847446528	21	14107
2026-01-22 19:36:11.41	201.54	29.22	-24.8	-24.6	16.9	4.70e-06	0	56	0	19973275648	21	13939
2026-01-22 19:36:12.42	201.84	29.45	-24.7	-24.5	16.9	4.70e-06	0	56	0	20082327552	21	13784
2026-01-22 19:36:13.43	202.14	29.68	-24.6	-24.5	16.9	4.70e-06	0	56	0	20191379456	21	13659
2026-01-22 19:36:14.43	202.45	29.90	-24.3	-24.2	17.0	4.70e-06	0	56	0	20308819968	20	14010
2026-01-22 19:36:15.44	202.77	30.14	-24.3	-24.2	17.0	4.70e-06	0	56	0	20417871872	20	14018
2026-01-22 19:36:16.45	203.09	30.37	-24.2	-24.0	17.0	4.70e-06	0	56	0	20535312384	20	13790
2026-01-22 19:36:17.46	203.41	30.60	-24.1	-23.9	17.0	4.70e-06	0	56	0	20644364288	20	13598
2026-01-22 19:36:18.47	203.74	30.84	-24.1	-23.9	17.0	4.70e-06	0	56	0	20753416192	20	13620
2026-01-22 19:36:19.47	204.08	31.07	-24.0	-23.9	17.0	4.70e-06	0	56	0	20870856704	19	14365
2026-01-22 19:36:20.48	204.42	31.31	-24.0	-23.8	17.0	0.00e+00	0	56	0	20979908608	19	14251
2026-01-22 19:36:21.49	204.76	31.55	-23.9	-23.8	17.0	0.00e+00	0	56	0	21097349120	19	14169
2026-01-22 19:36:22.49	205.11	31.79	-23.9	-23.8	17.1	0.00e+00	0	56	0	21206401024	19	14187
2026-01-22 19:36:23.50	205.47	32.03	-23.7	-23.6	17.1	0.00e+00	0	56	0	21315452928	19	13828
2026-01-22 19:36:24.51	205.83	32.27	-23.6	-23.5	17.1	0.00e+00	0	56	0	21441282048	19	13695
2026-01-22 19:36:25.52	206.20	32.52	-23.8	-23.6	17.1	0.00e+00	0	56	0	21558722560	19	13927
2026-01-22 19:36:26.53	206.58	32.76	-23.6	-23.4	17.1	0.00e+00	0	56	0	21667774464	19	13604
2026-01-22 19:36:27.53	206.95	33.01	-23.5	-23.4	17.1	0.00e+00	0	56	0	21776826368	18	14284
2026-01-22 19:36:28.54	207.34	33.25	-23.1	-23.0	17.3	0.00e+00	0	56	0	21894266880	18	13684
2026-01-22 19:36:29.55	207.73	33.50	-23.1	-22.9	17.2	0.00e+00	0	56	0	22003318784	18	13607
2026-01-22 19:36:30.56	208.13	33.75	-22.9	-22.8	17.2	0.00e+00	0	56	0	22120759296	17	14158
2026-01-22 19:36:31.57	208.54	34.00	-22.9	-22.7	17.2	0.00e+00	0	56	0	22229811200	17	14103
2026-01-22 19:36:32.57	208.95	34.25	-22.9	-22.8	17.2	0.00e+00	0	56	0	22347251712	17	14198
2026-01-22 19:36:33.58	209.37	34.50	-22.7	-22.6	17.2	0.00e+00	0	56	0	22456303616	17	13874
2026-01-22 19:36:34.59	209.79	34.75	-22.5	-22.4	17.2	0.00e+00	0	56	0	22565355520	17	13542
2026-01-22 19:36:35.59	210.22	35.00	-22.6	-22.4	17.2	0.00e+00	0	56	0	22682796032	17	13613
2026-01-22 19:36:36.60	210.66	35.26	-22.4	-22.3	17.3	0.00e+00	0	56	0	22791847936	16	14206
2026-01-22 19:36:37.61	211.11	35.51	-22.3	-22.2	17.3	0.00e+00	0	56	0	22909288448	16	14006
2026-01-22 19:36:38.61	211.56	35.76	-22.3	-22.2	17.3	0.00e+00	0	56	0	23026728960	16	13980
2026-01-22 19:36:39.62	212.02	36.02	-22.1	-22.0	17.3	0.00e+00	0	56	0	23144169472	16	13745
2026-01-22 19:36:40.63	212.49	36.27	-22.2	-22.0	17.3	0.00e+00	0	56	0	23253221376	16	13770
2026-01-22 19:36:41.64	212.97	36.53	-22.0	-21.9	17.3	0.00e+00	0	56	0	23370661888	16	13571
2026-01-22 19:36:42.65	213.45	36.79	-22.0	-21.9	17.3	0.00e+00	0	56	0	23479713792	16	13558
2026-01-22 19:36:43.65	213.94	37.04	-22.0	-21.9	17.3	0.00e+00	0	56	0	23588765696	16	13543
2026-01-22 19:36:44.66	214.44	37.30	-21.9	-21.8	17.3	0.00e+00	0	56	0	23706206208	15	14115
2026-01-22 19:36:45.67	214.95	37.55	-21.7	-21.6	17.4	0.00e+00	0	56	0	23815258112	15	13847
2026-01-22 19:36:46.68	215.47	37.81	-21.7	-21.6	17.3	0.00e+00	0	56	0	23932698624	15	13865
2026-01-22 19:36:47.69	216.00	38.06	-21.6	-21.5	17.4	0.00e+00	0	56	0	24041750528	15	13730
2026-01-22 19:36:48.69	216.53	38.31	-21.5	-21.4	17.4	0.00e+00	0	56	0	24150802432	15	13535
2026-01-22 19:36:49.70	217.07	38.57	-21.6	-21.5	17.4	0.00e+00	0	56	0	24268242944	15	13667
2026-01-22 19:36:50.71	217.62	38.82	-21.5	-21.4	17.4	0.00e+00	0	56	0	24394072064	15	13548
2026-01-22 19:36:51.72	218.18	39.08	-21.6	-21.5	17.4	0.00e+00	0	56	0	24503123968	15	13674
2026-01-22 19:36:52.73	218.76	39.33	-21.3	-21.2	17.4	0.00e+00	0	56	0	24612175872	14	14050
2026-01-22 19:36:53.73	219.33	39.58	-21.3	-21.2	17.4	0.00e+00	0	56	0	24729616384	14	13972
2026-01-22 19:36:54.74	219.92	39.83	-21.2	-21.1	17.4	0.00e+00	0	56	0	24838668288	14	13860
2026-01-22 19:36:55.75	220.52	40.07	-21.2	-21.0	17.5	0.00e+00	0	56	0	24956108800	14	13773
2026-01-22 19:36:56.76	221.13	40.32	-21.1	-20.9	17.5	0.00e+00	0	56	0	25065160704	14	13611
2026-01-22 19:36:57.77	221.74	40.57	-21.0	-20.9	17.5	0.00e+00	0	56	0	25174212608	14	13496
2026-01-22 19:36:58.77	222.37	40.81	-21.0	-20.9	17.5	0.00e+00	0	56	0	25291653120	14	13501
2026-01-22 19:36:59.78	223.00	41.05	-21.0	-20.9	17.5	0.00e+00	0	56	0	25400705024	14	13550
2026-01-22 19:37:00.79	223.65	41.29	-20.9	-20.8	17.5	0.00e+00	0	56	0	25518145536	13	14195
2026-01-22 19:37:01.80	224.31	41.53	-20.8	-20.7	17.5	0.00e+00	0	56	0	25627197440	13	14067
2026-01-22 19:37:02.81	224.97	41.77	-20.8	-20.7	17.5	0.00e+00	0	56	0	25744637952	13	14063
2026-01-22 19:37:03.81	225.65	42.00	-20.8	-20.6	17.5	0.00e+00	0	56	0	25862078464	13	13921
2026-01-22 19:37:04.82	226.33	42.23	-20.6	-20.5	17.5	0.00e+00	0	56	0	25979518976	13	13716
2026-01-22 19:37:05.83	227.03	42.45	-20.5	-20.4	17.5	0.00e+00	0	56	0	26088570880	13	13529
2026-01-22 19:37:06.84	227.74	42.68	-20.5	-20.3	17.5	0.00e+00	0	56	0	26206011392	12	14246
2026-01-22 19:37:07.85	228.46	42.90	-20.3	-20.2	17.5	0.00e+00	0	56	0	26315063296	12	14062
2026-01-22 19:37:08.85	229.18	43.12	-20.3	-20.2	17.5	0.00e+00	0	56	0	26424115200	12	14043
2026-01-22 19:37:09.86	229.91	43.33	-20.3	-20.1	17.5	0.00e+00	0	56	0	26541555712	12	13941
2026-01-22 19:37:10.87	230.66	43.54	-20.2	-20.1	17.5	0.00e+00	0	56	0	26650607616	12	13862
2026-01-22 19:37:11.87	231.41	43.75	-20.3	-20.2	17.5	0.00e+00	0	56	0	26768048128	12	13958
2026-01-22 19:37:12.88	232.18	43.95	-20.1	-20.0	17.6	0.00e+00	0	56	0	26877100032	12	13674
2026-01-22 19:37:13.89	232.96	44.15	-20.2	-20.0	17.5	0.00e+00	0	56	0	26986151936	12	13760
2026-01-22 19:37:14.90	233.75	44.34	-20.1	-20.0	17.5	0.00e+00	0	56	0	27103592448	12	13646
2026-01-22 19:37:15.91	234.55	44.53	-20.0	-19.9	17.6	0.00e+00	0	56	0	27212644352	12	13487
2026-01-22 19:37:16.91	235.34	44.71	-20.1	-20.0	17.5	0.00e+00	0	56	0	27338473472	11	14474
2026-01-22 19:37:17.92	236.16	44.89	-20.2	-20.1	17.5	0.00e+00	0	56	0	27447525376	11	14683
2026-01-22 19:37:18.93	236.99	45.06	-20.2	-20.1	17.5	0.00e+00	0	56	0	27564965888	11	14690
2026-01-22 19:37:19.94	237.82	45.23	-20.0	-19.9	17.5	0.00e+00	0	56	0	27674017792	11	14370
2026-01-22 19:37:20.95	238.67	45.39	-20.1	-20.0	17.5	0.00e+00	0	56	0	27791458304	11	14480
2026-01-22 19:37:21.95	239.51	45.55	-20.0	-19.9	17.5	0.00e+00	0	56	0	27900510208	11	14366
2026-01-22 19:37:22.96	240.37	45.70	-20.0	-19.9	17.5	0.00e+00	0	56	0	28009562112	11	14280
2026-01-22 19:37:23.97	241.24	45.84	-19.9	-19.7	17.5	0.00e+00	0	56	0	28127002624	11	14085
2026-01-22 19:37:24.98	242.12	45.98	-19.9	-19.8	17.5	0.00e+00	0	56	0	28236054528	11	14177
2026-01-22 19:37:25.99	243.01	46.11	-19.8	-19.7	17.5	0.00e+00	0	56	0	28353495040	11	13999
2026-01-22 19:37:26.99	243.89	46.23	-19.9	-19.8	17.5	0.00e+00	0	56	0	28462546944	11	14150
2026-01-22 19:37:28.00	244.79	46.35	-20.0	-19.9	17.5	0.00e+00	0	56	0	28571598848	11	14284
2026-01-22 19:37:29.01	245.69	46.46	-20.0	-19.8	17.5	0.00e+00	0	56	0	28697427968	11	14270
2026-01-22 19:37:30.02	246.61	46.56	-19.7	-19.6	17.5	0.00e+00	0	56	0	28814868480	11	13871
2026-01-22 19:37:31.03	247.52	46.65	-19.8	-19.7	17.5	0.00e+00	0	56	0	28923920384	11	13991
2026-01-22 19:37:32.03	248.44	46.74	-19.8	-19.7	17.7	0.00e+00	0	56	0	29032972288	11	14028
2026-01-22 19:37:33.04	249.37	46.82	-19.9	-19.8	17.5	0.00e+00	0	56	0	29150412800	11	14137
2026-01-22 19:37:34.05	250.30	46.89	-19.9	-19.8	17.5	0.00e+00	0	56	0	29259464704	11	14147
2026-01-22 19:37:35.06	251.24	46.96	-19.9	-19.8	17.5	0.00e+00	0	56	0	29376905216	11	14160
2026-01-22 19:37:36.07	252.18	47.01	-20.0	-19.8	17.5	0.00e+00	0	56	0	29485957120	11	14256
2026-01-22 19:37:37.07	253.11	47.06	-20.0	-19.9	17.5	0.00e+00	0	56	0	29603397632	11	14281
2026-01-22 19:37:38.08	254.06	47.10	-20.0	-19.9	17.5	0.00e+00	0	56	0	29712449536	11	14298
2026-01-22 19:37:39.09	255.01	47.13	-20.0	-19.8	17.5	0.00e+00	0	56	0	29821501440	11	14242
2026-01-22 19:37:40.10	255.96	47.16	-20.0	-19.9	17.5	0.00e+00	0	56	0	29938941952	11	14305
2026-01-22 19:37:41.11	256.91	47.17	-20.0	-19.9	17.5	0.00e+00	0	56	0	30047993856	11	14284
2026-01-22 19:37:42.11	257.86	47.18	-20.0	-19.9	17.5	0.00e+00	0	56	0	30173822976	11	14307
2026-01-22 19:37:43.12	258.81	47.18	-19.9	-19.8	17.5	0.00e+00	0	56	0	30282874880	11	14194
2026-01-22 19:37:44.13	259.76	47.17	-20.0	-19.8	17.5	0.00e+00	0	56	0	30400315392	11	14249
2026-01-22 19:37:45.14	260.71	47.15	-19.9	-19.8	17.5	0.00e+00	0	56	0	30509367296	11	14227
2026-01-22 19:37:46.15	261.66	47.13	-20.0	-19.9	17.5	0.00e+00	0	56	0	30626807808	11	14285
2026-01-22 19:37:47.15	262.60	47.09	-20.0	-19.9	17.5	0.00e+00	0	56	0	30735859712	11	14346
2026-01-22 19:37:48.16	263.55	47.05	-20.0	-19.8	17.4	0.00e+00	0	56	0	30844911616	11	14249
2026-01-22 19:37:49.17	264.49	47.00	-20.0	-19.9	17.5	0.00e+00	0	56	0	30962352128	11	14284
2026-01-22 19:37:50.17	265.42	46.94	-20.0	-19.9	17.5	0.00e+00	0	56	0	31071404032	11	14293
2026-01-22 19:37:51.18	266.36	46.88	-20.0	-19.9	17.4	0.00e+00	0	56	0	31188844544	11	14292
2026-01-22 19:37:52.19	267.29	46.80	-20.0	-19.9	17.4	0.00e+00	0	56	0	31297896448	11	14368
2026-01-22 19:37:53.20	268.22	46.72	-20.0	-19.8	17.4	0.00e+00	0	56	0	31406948352	11	14220
2026-01-22 19:37:54.21	269.14	46.63	-19.9	-19.7	17.5	0.00e+00	0	56	0	31524388864	11	14097
2026-01-22 19:37:55.21	270.04	46.54	-19.9	-19.8	17.4	0.00e+00	0	56	0	31650217984	11	14193
2026-01-22 19:37:56.22	270.95	46.43	-20.0	-19.9	17.4	0.00e+00	0	56	0	31759269888	11	14320
2026-01-22 19:37:57.23	271.86	46.32	-20.0	-19.8	17.4	0.00e+00	0	56	0	31868321792	11	14270
2026-01-22 19:37:58.24	272.76	46.20	-20.1	-20.0	17.3	0.00e+00	0	56	0	31985762304	11	14552
2026-01-22 19:37:59.25	273.64	46.08	-20.2	-20.0	17.3	0.00e+00	0	56	0	32094814208	11	14598
2026-01-22 19:38:00.25	274.52	45.95	-20.2	-20.0	17.3	0.00e+00	0	56	0	32212254720	11	14574
2026-01-22 19:38:01.26	275.39	45.81	-20.1	-20.0	17.3	0.00e+00	0	56	0	32321306624	11	14518
2026-01-22 19:38:02.27	276.26	45.66	-20.3	-20.2	17.3	0.00e+00	0	56	0	32430358528	11	14810
2026-01-22 19:38:03.28	277.12	45.51	-20.3	-20.1	17.3	0.00e+00	0	56	0	32547799040	11	14746
2026-01-22 19:38:04.28	277.96	45.36	-20.3	-20.2	17.3	0.00e+00	0	56	0	32656850944	11	14876
2026-01-22 19:38:05.29	278.80	45.19	-20.4	-20.2	17.3	0.00e+00	0	56	0	32774291456	11	14945
2026-01-22 19:38:06.30	279.63	45.02	-20.6	-20.5	17.3	0.00e+00	0	56	0	32883343360	11	15333
2026-01-22 19:38:07.31	280.45	44.85	-20.6	-20.5	17.3	0.00e+00	0	56	0	33000783872	11	15334
2026-01-22 19:38:08.31	281.26	44.67	-20.5	-20.4	17.3	0.00e+00	0	56	0	33118224384	11	15219
2026-01-22 19:38:09.32	282.06	44.49	-20.6	-20.5	17.3	0.00e+00	0	56	0	33235664896	11	15343
2026-01-22 19:38:10.33	282.86	44.30	-20.6	-20.5	17.3	0.00e+00	0	56	0	33344716800	11	15308
2026-01-22 19:38:11.34	283.64	44.11	-20.6	-20.5	17.3	0.00e+00	0	56	0	33462157312	12	14481
2026-01-22 19:38:12.35	284.42	43.91	-20.4	-20.3	17.4	0.00e+00	0	56	0	33571209216	12	14197
2026-01-22 19:38:13.35	285.17	43.71	-20.4	-20.3	17.4	0.00e+00	0	56	0	33680261120	12	14161
2026-01-22 19:38:14.36	285.93	43.50	-20.4	-20.3	17.4	0.00e+00	0	56	0	33797701632	12	14228
2026-01-22 19:38:15.37	286.67	43.29	-20.5	-20.4	17.4	0.00e+00	0	56	0	33906753536	12	14278
2026-01-22 19:38:16.38	287.41	43.07	-20.5	-20.4	17.4	0.00e+00	0	56	0	34024194048	12	14276
2026-01-22 19:38:17.38	288.12	42.86	-20.5	-20.4	17.4	0.00e+00	0	56	0	34133245952	12	14318
2026-01-22 19:38:18.39	288.84	42.64	-20.6	-20.5	17.4	0.00e+00	0	56	0	34242297856	12	14454
2026-01-22 19:38:19.40	289.54	42.41	-20.7	-20.5	17.4	0.00e+00	0	56	0	34359738368	12	14578
2026-01-22 19:38:20.41	290.23	42.18	-20.7	-20.6	17.5	0.00e+00	0	56	0	34485567488	12	14675
2026-01-22 19:38:21.42	290.92	41.95	-20.7	-20.6	17.5	0.00e+00	0	56	0	34594619392	12	14702
2026-01-22 19:38:22.43	291.59	41.72	-20.8	-20.7	17.5	0.00e+00	0	56	0	34703671296	12	14884
2026-01-22 19:38:23.43	292.25	41.49	-20.8	-20.7	17.5	0.00e+00	0	56	0	34821111808	12	14890
2026-01-22 19:38:24.44	292.90	41.25	-20.9	-20.8	17.5	0.00e+00	0	56	0	34930163712	12	15039
2026-01-22 19:38:25.45	293.54	41.01	-21.0	-20.9	17.5	0.00e+00	0	56	0	35047604224	12	15187
2026-01-22 19:38:26.46	294.18	40.77	-21.0	-20.9	17.5	0.00e+00	0	56	0	35156656128	12	15155
2026-01-22 19:38:27.47	294.80	40.52	-21.2	-21.0	17.5	0.00e+00	0	56	0	35265708032	12	15456
2026-01-22 19:38:28.47	295.41	40.28	-21.2	-21.0	17.5	0.00e+00	0	56	0	35383148544	13	14599
2026-01-22 19:38:29.48	296.02	40.03	-21.2	-21.1	17.5	0.00e+00	0	56	0	35492200448	13	14691
2026-01-22 19:38:30.49	296.61	39.79	-21.2	-21.1	17.5	0.00e+00	0	56	0	35609640960	13	14721
2026-01-22 19:38:31.50	297.20	39.54	-21.2	-21.1	17.5	0.00e+00	0	56	0	35718692864	13	14708
2026-01-22 19:38:32.51	297.77	39.29	-21.3	-21.1	17.5	0.00e+00	0	56	0	35827744768	13	14749
2026-01-22 19:38:33.51	298.33	39.04	-21.3	-21.1	17.5	0.00e+00	0	56	0	35953573888	13	14755
2026-01-22 19:38:34.52	298.89	38.79	-21.3	-21.2	17.5	0.00e+00	0	56	0	36071014400	13	14815
2026-01-22 19:38:35.53	299.44	38.53	-21.4	-21.3	17.4	0.00e+00	0	56	0	36180066304	13	15018
2026-01-22 19:38:36.54	299.98	38.28	-21.5	-21.4	17.4	0.00e+00	0	56	0	36289118208	13	15122
2026-01-22 19:38:37.55	300.51	38.03	-21.4	-21.3	17.4	0.00e+00	0	56	0	36406558720	13	15072
2026-01-22 19:38:38.55	301.03	37.77	-21.6	-21.4	17.4	0.00e+00	0	56	0	36515610624	13	15269
2026-01-22 19:38:39.56	301.55	37.52	-21.6	-21.5	17.4	0.00e+00	0	56	0	36633051136	13	15303
2026-01-22 19:38:40.57	302.05	37.26	-21.7	-21.6	17.4	0.00e+00	0	56	0	36742103040	13	15531
2026-01-22 19:38:41.58	302.55	37.01	-21.7	-21.6	17.4	0.00e+00	0	56	0	36859543552	13	15507
2026-01-22 19:38:42.59	303.04	36.76	-21.9	-21.8	17.4	0.00e+00	0	56	0	36968595456	14	14996
2026-01-22 19:38:43.59	303.52	36.50	-21.8	-21.7	17.4	0.00e+00	0	56	0	37077647360	14	14916
2026-01-22 19:38:44.60	303.99	36.25	-21.9	-21.8	17.4	0.00e+00	0	56	0	37195087872	14	15068
2026-01-22 19:38:45.61	304.46	35.99	-22.0	-21.9	17.4	0.00e+00	0	56	0	37304139776	14	15187
2026-01-22 19:38:46.61	304.92	35.74	-22.1	-22.0	17.3	0.00e+00	0	56	0	37429968896	14	15396
2026-01-22 19:38:47.62	305.37	35.49	-22.1	-22.0	17.3	0.00e+00	0	56	0	37539020800	14	15370
2026-01-22 19:38:48.63	305.81	35.24	-22.3	-22.2	17.3	0.00e+00	0	56	0	37656461312	15	14848
2026-01-22 19:38:49.64	306.25	34.98	-22.3	-22.2	17.3	0.00e+00	0	56	0	37765513216	15	14875
2026-01-22 19:38:50.65	306.68	34.73	-22.4	-22.3	17.3	0.00e+00	0	56	0	37882953728	15	14985
2026-01-22 19:38:51.66	307.10	34.48	-22.5	-22.4	17.3	0.00e+00	0	56	0	37992005632	15	15125
2026-01-22 19:38:52.66	307.52	34.23	-22.6	-22.5	16.8	0.00e+00	0	56	0	38101057536	15	15350
2026-01-22 19:38:53.67	307.93	33.98	-22.8	-22.7	14.3	0.00e+00	0	56	0	38218498048	16	14808
2026-01-22 19:38:54.68	308.33	33.74	-22.9	-22.8	17.1	4.72e-04	0	57	0	38327549952	16	15009
2026-01-22 19:38:55.69	308.73	33.49	-23.0	-22.8	17.2	4.72e-04	0	56	0	38444990464	16	15099
2026-01-22 19:38:56.69	309.11	33.24	-23.0	-22.8	17.2	4.72e-04	0	56	0	38554042368	16	15100
2026-01-22 19:38:57.70	309.50	33.00	-23.0	-22.9	17.2	9.50e-06	0	56	0	38663094272	16	15256
2026-01-22 19:38:58.71	309.88	32.75	-23.1	-22.9	17.2	9.50e-06	0	56	0	38788923392	16	15289
2026-01-22 19:38:59.72	310.25	32.51	-23.1	-23.0	17.2	0.00e+00	0	56	0	38906363904	16	15346
2026-01-22 19:39:00.73	310.62	32.27	-23.3	-23.2	17.2	0.00e+00	0	56	0	39015415808	17	14800
2026-01-22 19:39:01.73	310.97	32.03	-23.3	-23.2	17.2	0.00e+00	0	56	0	39124467712	17	14869
2026-01-22 19:39:02.74	311.33	31.79	-23.4	-23.3	17.2	0.00e+00	0	56	0	39241908224	17	14970
2026-01-22 19:39:03.75	311.68	31.55	-23.4	-23.3	17.3	0.00e+00	0	56	0	39350960128	17	15018
2026-01-22 19:39:04.76	312.02	31.31	-23.5	-23.4	17.2	0.00e+00	0	56	0	39468400640	17	15256
2026-01-22 19:39:05.77	312.36	31.07	-23.6	-23.5	17.2	0.00e+00	0	56	0	39577452544	17	15340
2026-01-22 19:39:06.78	312.70	30.84	-23.8	-23.6	17.3	0.00e+00	0	56	0	39686504448	18	14763
2026-01-22 19:39:07.79	313.03	30.60	-23.9	-23.8	17.2	0.00e+00	0	57	0	39803944960	18	15015
2026-01-22 19:39:08.80	313.35	30.37	-24.0	-23.9	17.2	0.00e+00	0	56	0	39912996864	18	15159
2026-01-22 19:39:09.81	313.67	30.14	-24.2	-24.1	17.2	0.00e+00	0	56	0	40030437376	18	15518
2026-01-22 19:39:10.81	313.98	29.91	-24.2	-24.1	17.1	0.00e+00	0	56	0	40147877888	18	15501
2026-01-22 19:39:11.82	314.29	29.68	-24.4	-24.2	17.2	0.00e+00	0	56	0	40265318400	19	14928
2026-01-22 19:39:12.83	314.59	29.45	-24.3	-24.2	17.1	0.00e+00	0	56	0	40374370304	19	14869
2026-01-22 19:39:13.84	314.89	29.23	-24.3	-24.2	17.2	0.00e+00	0	57	0	40491810816	19	14882
2026-01-22 19:39:14.85	315.19	29.00	-24.4	-24.3	17.1	0.00e+00	0	56	0	40600862720	19	15019
2026-01-22 19:39:15.86	315.48	28.78	-24.5	-24.4	17.1	0.00e+00	0	56	0	40718303232	19	15206
2026-01-22 19:39:16.87	315.77	28.56	-24.6	-24.4	17.1	0.00e+00	0	57	0	40827355136	19	15274
2026-01-22 19:39:17.88	316.05	28.33	-24.6	-24.5	17.1	0.00e+00	0	57	0	40936407040	20	14569
2026-01-22 19:39:18.89	316.33	28.12	-24.6	-24.5	17.1	0.00e+00	0	56	0	41053847552	20	14543
2026-01-22 19:39:19.89	316.60	27.90	-24.6	-24.5	17.1	0.00e+00	0	57	0	41162899456	20	14523
2026-01-22 19:39:20.90	316.87	27.68	-24.8	-24.7	17.0	0.00e+00	0	56	0	41280339968	20	14808
2026-01-22 19:39:21.91	317.14	27.47	-24.8	-24.6	17.0	0.00e+00	0	56	0	41397780480	20	14766
2026-01-22 19:39:22.92	317.40	27.25	-24.7	-24.6	17.0	0.00e+00	0	56	0	41515220992	20	14714
2026-01-22 19:39:23.93	317.66	27.04	-24.8	-24.7	17.0	0.00e+00	0	57	0	41624272896	20	14884
2026-01-22 19:39:24.93	317.91	26.83	-25.0	-24.9	17.0	0.00e+00	0	56	0	41741713408	20	15166
2026-01-22 19:39:25.94	318.16	26.62	-25.1	-25.0	17.0	0.00e+00	0	57	0	41850765312	20	15300
2026-01-22 19:39:26.95	318.41	26.42	-25.3	-25.1	17.0	0.00e+00	0	56	0	41959817216	21	14762
2026-01-22 19:39:27.96	318.66	26.21	-25.3	-25.2	17.0	0.00e+00	0	57	0	42077257728	21	14873
2026-01-22 19:39:28.97	318.90	26.00	-25.4	-25.3	16.9	0.00e+00	0	57	0	42186309632	21	15077
2026-01-22 19:39:29.97	319.14	25.80	-25.4	-25.3	16.9	0.00e+00	0	57	0	42303750144	21	15041
2026-01-22 19:39:30.98	319.37	25.60	-25.5	-25.4	16.8	4.70e-06	0	57	0	42412802048	21	15207
2026-01-22 19:39:31.99	319.60	25.40	-25.5	-25.4	16.0	4.70e-06	0	57	0	42521853952	21	15245
2026-01-22 19:39:33.00	319.83	25.20	-25.5	-25.4	11.9	5.02e-03	0	57	0	42639294464	21	15207
2026-01-22 19:39:34.01	320.06	25.00	-25.6	-25.5	13.4	5.02e-03	0	57	0	42765123584	21	15385
2026-01-22 19:39:35.01	320.28	24.81	-25.8	-25.7	16.7	5.02e-03	0	57	0	42874175488	22	14890
2026-01-22 19:39:36.02	320.50	24.61	-25.8	-25.7	16.9	5.02e-03	0	57	0	42983227392	22	14838
2026-01-22 19:39:37.03	320.71	24.42	-25.9	-25.8	16.8	5.06e-02	0	57	0	43100667904	22	14988
2026-01-22 19:39:38.04	320.93	24.22	-26.0	-25.8	16.8	5.06e-02	0	57	0	43209719808	22	15099
2026-01-22 19:39:39.05	321.14	24.03	-26.0	-25.9	16.9	4.70e-06	0	57	0	43327160320	22	15142
2026-01-22 19:39:40.05	321.34	23.84	-26.0	-25.9	16.9	4.70e-06	0	57	0	43436212224	22	15183
2026-01-22 19:39:41.06	321.55	23.66	-26.1	-25.9	16.9	4.70e-06	0	57	0	43545264128	22	15294
2026-01-22 19:39:42.07	321.75	23.47	-26.1	-26.0	16.8	4.70e-06	0	57	0	43662704640	22	15334
2026-01-22 19:39:43.08	321.95	23.28	-26.1	-26.0	16.8	4.70e-06	0	57	0	43771756544	22	15350
2026-01-22 19:39:44.09	322.15	23.10	-26.2	-26.1	16.8	1.43e-05	0	57	0	43889197056	22	15509
2026-01-22 19:39:45.09	322.34	22.92	-26.3	-26.2	16.8	1.43e-05	0	57	0	43998248960	23	14889
2026-01-22 19:39:46.10	322.53	22.73	-26.3	-26.1	16.8	1.43e-05	0	57	0	44115689472	23	14773
2026-01-22 19:39:47.11	322.72	22.55	-26.3	-26.1	16.8	4.70e-06	0	57	0	44233129984	23	14759
2026-01-22 19:39:48.12	322.91	22.37	-26.3	-26.2	16.8	4.70e-06	0	57	0	44350570496	23	14855
2026-01-22 19:39:49.13	323.10	22.19	-26.4	-26.3	16.8	4.70e-06	0	57	0	44459622400	23	15017
2026-01-22 19:39:50.14	323.28	22.02	-26.5	-26.4	16.7	1.90e-05	0	57	0	44577062912	23	15141
2026-01-22 19:39:51.15	323.46	21.84	-26.6	-26.5	16.7	1.90e-05	0	57	0	44686114816	23	15323
2026-01-22 19:39:52.15	323.64	21.67	-26.7	-26.6	16.7	0.00e+00	0	57	0	44795166720	23	15488
2026-01-22 19:39:53.16	323.81	21.50	-26.8	-26.6	16.7	0.00e+00	0	57	0	44912607232	24	14772
2026-01-22 19:39:54.17	323.99	21.32	-26.8	-26.7	16.7	0.00e+00	0	57	0	45021659136	24	14807
2026-01-22 19:39:55.18	324.16	21.15	-26.9	-26.8	16.7	9.50e-06	0	57	0	45139099648	24	15018
2026-01-22 19:39:56.19	324.33	20.98	-27.0	-26.9	16.6	9.50e-06	0	57	0	45248151552	24	15200
2026-01-22 19:39:57.19	324.50	20.82	-26.9	-26.7	16.7	2.86e-05	0	57	0	45357203456	24	14918
2026-01-22 19:39:58.20	324.66	20.65	-27.0	-26.9	16.6	2.86e-05	0	57	0	45474643968	24	15261
2026-01-22 19:39:59.21	324.83	20.48	-27.1	-27.0	16.6	2.86e-05	0	57	0	45600473088	24	15360
2026-01-22 19:40:00.22	324.99	20.32	-27.2	-27.1	16.6	3.33e-05	0	57	0	45709524992	24	15496
2026-01-22 19:40:01.22	325.15	20.16	-27.3	-27.1	16.6	3.33e-05	0	57	0	45818576896	25	14773
2026-01-22 19:40:02.23	325.30	19.99	-27.3	-27.2	16.6	2.38e-05	0	57	0	45936017408	25	14859
2026-01-22 19:40:03.24	325.46	19.83	-27.4	-27.2	16.6	2.38e-05	0	57	0	46045069312	25	14934
2026-01-22 19:40:04.25	325.62	19.67	-27.4	-27.3	16.6	2.38e-05	0	57	0	46162509824	25	14952
2026-01-22 19:40:05.26	325.77	19.51	-27.4	-27.3	16.5	7.62e-05	0	57	0	46271561728	25	15095
2026-01-22 19:40:06.27	325.92	19.35	-27.5	-27.4	16.5	7.62e-05	0	57	0	46380613632	25	15175
2026-01-22 19:40:07.28	326.07	19.20	-27.5	-27.4	16.5	7.15e-05	0	57	0	46498054144	25	15235
2026-01-22 19:40:08.29	326.22	19.04	-27.5	-27.4	16.5	7.15e-05	0	57	0	46607106048	25	15266
2026-01-22 19:40:09.29	326.36	18.89	-27.6	-27.4	16.5	6.67e-05	0	57	0	46724546560	25	15294
2026-01-22 19:40:10.30	326.51	18.73	-27.6	-27.5	16.5	6.67e-05	0	57	0	46833598464	25	15408
2026-01-22 19:40:11.31	326.65	18.58	-27.6	-27.5	16.5	6.67e-05	0	57	0	46959427584	25	15442
2026-01-22 19:40:12.32	326.79	18.43	-27.7	-27.6	16.4	1.05e-04	0	57	0	47068479488	25	15558
2026-01-22 19:40:13.33	326.93	18.28	-27.8	-27.7	16.4	1.05e-04	0	57	0	47185920000	26	14874
2026-01-22 19:40:14.33	327.07	18.13	-27.9	-27.8	16.4	1.05e-04	0	57	0	47294971904	26	15100
2026-01-22 19:40:15.34	327.20	17.98	-28.0	-27.9	16.4	1.05e-04	0	57	0	47404023808	26	15171
2026-01-22 19:40:16.35	327.34	17.83	-28.1	-28.0	16.3	1.05e-04	0	57	0	47521464320	26	15297
2026-01-22 19:40:17.36	327.47	17.69	-28.1	-27.9	16.3	1.10e-04	0	57	0	47630516224	26	15288
2026-01-22 19:40:18.37	327.60	17.54	-28.0	-27.9	16.4	1.10e-04	0	57	0	47747956736	26	15192
2026-01-22 19:40:19.37	327.73	17.40	-28.0	-27.9	16.3	1.10e-04	0	57	0	47857008640	26	15254
2026-01-22 19:40:20.38	327.86	17.25	-28.1	-28.0	16.3	2.00e-04	0	57	0	47974449152	26	15465
2026-01-22 19:40:21.39	327.99	17.11	-28.1	-27.9	16.3	2.00e-04	0	57	0	48083501056	26	15289
2026-01-22 19:40:22.40	328.12	16.97	-28.1	-28.0	16.3	2.00e-04	0	57	0	48192552960	26	15454
2026-01-22 19:40:23.41	328.24	16.83	-28.2	-28.1	16.3	1.33e-04	0	57	0	48309993472	26	15558
2026-01-22 19:40:24.41	328.37	16.69	-28.3	-28.2	16.3	1.33e-04	0	57	0	48427433984	27	14862
2026-01-22 19:40:25.42	328.49	16.55	-28.4	-28.3	16.2	1.33e-04	0	57	0	48544874496	27	15010
2026-01-22 19:40:26.43	328.61	16.41	-28.5	-28.4	16.2	1.72e-04	0	57	0	48653926400	27	15217
2026-01-22 19:40:27.44	328.73	16.28	-28.5	-28.4	16.2	1.72e-04	0	57	0	48771366912	27	15189
2026-01-22 19:40:28.45	328.85	16.14	-28.5	-28.4	16.2	1.72e-04	0	57	0	48880418816	27	15221
2026-01-22 19:40:29.45	328.97	16.00	-28.6	-28.5	16.2	1.72e-04	0	57	0	48997859328	27	15328
2026-01-22 19:40:30.46	329.08	15.87	-28.7	-28.6	16.1	2.62e-04	0	57	0	49106911232	27	15506
2026-01-22 19:40:31.47	329.20	15.74	-28.8	-28.7	16.1	2.62e-04	0	57	0	49215963136	28	14832
2026-01-22 19:40:32.48	329.31	15.60	-28.6	-28.6	16.1	4.05e-04	0	57	0	49333403648	28	14613
2026-01-22 19:40:33.49	329.43	15.47	-28.8	-28.7	16.1	4.05e-04	0	57	0	49442455552	28	14820
2026-01-22 19:40:34.49	329.54	15.34	-28.8	-28.7	16.0	4.05e-04	0	57	0	49559896064	28	14940
2026-01-22 19:40:35.50	329.65	15.21	-28.9	-28.8	16.0	4.34e-04	0	57	0	49668947968	28	14970
2026-01-22 19:40:36.51	329.76	15.08	-28.9	-28.8	16.0	4.34e-04	0	57	0	49794777088	28	14994
2026-01-22 19:40:37.52	329.87	14.95	-29.0	-28.9	16.0	5.43e-04	0	57	0	49903828992	28	15232
2026-01-22 19:40:38.52	329.97	14.82	-29.1	-29.0	15.9	5.43e-04	0	57	0	50021269504	28	15414
2026-01-22 19:40:39.53	330.08	14.70	-29.1	-29.0	15.9	6.63e-04	0	57	0	50130321408	28	15331
2026-01-22 19:40:40.54	330.19	14.57	-29.3	-29.2	15.9	6.63e-04	0	57	0	50239373312	29	14840
2026-01-22 19:40:41.55	330.29	14.44	-29.2	-29.1	15.9	6.63e-04	0	57	0	50356813824	29	14733
2026-01-22 19:40:42.56	330.40	14.32	-29.1	-29.0	15.9	7.39e-04	0	57	0	50465865728	29	14561
2026-01-22 19:40:43.57	330.50	14.20	-29.2	-29.1	15.9	7.39e-04	0	57	0	50583306240	29	14620
2026-01-22 19:40:44.58	330.60	14.07	-29.2	-29.1	15.9	7.39e-04	0	58	0	50692358144	29	14669
2026-01-22 19:40:45.59	330.70	13.95	-29.3	-29.2	15.8	6.34e-04	0	57	0	50801410048	29	14854
2026-01-22 19:40:46.59	330.80	13.83	-29.3	-29.2	15.8	6.34e-04	0	57	0	50918850560	29	14935
2026-01-22 19:40:47.60	330.90	13.71	-29.3	-29.2	15.8	1.05e-03	0	57	0	51027902464	29	14891
2026-01-22 19:40:48.61	331.00	13.59	-29.4	-29.3	15.8	1.05e-03	0	57	0	51153731584	29	15055
2026-01-22 19:40:49.62	331.09	13.47	-29.4	-29.3	15.8	1.14e-03	0	57	0	51262783488	29	15117
2026-01-22 19:40:50.63	331.19	13.35	-29.3	-29.3	15.8	1.14e-03	0	57	0	51380224000	29	14953
2026-01-22 19:40:51.64	331.29	13.23	-29.6	-29.5	15.7	1.14e-03	0	57	0	51489275904	29	15389
2026-01-22 19:40:52.65	331.38	13.11	-29.6	-29.5	15.7	1.14e-03	0	57	0	51606716416	29	15322
2026-01-22 19:40:53.65	331.47	13.00	-29.6	-29.6	15.7	1.17e-03	0	57	0	51715768320	29	15478
2026-01-22 19:40:54.66	331.57	12.88	-29.7	-29.6	15.6	1.17e-03	0	57	0	51833208832	29	15622
2026-01-22 19:40:55.67	331.66	12.76	-29.8	-29.7	15.7	1.17e-03	0	58	0	51942260736	30	14867
2026-01-22 19:40:56.68	331.75	12.65	-29.9	-29.8	15.6	1.53e-03	0	57	0	52051312640	30	15009
2026-01-22 19:40:57.69	331.84	12.53	-30.0	-29.9	15.6	1.53e-03	0	58	0	52168753152	30	15195
2026-01-22 19:40:58.70	331.93	12.42	-29.9	-29.8	15.6	1.76e-03	0	57	0	52277805056	30	15109
2026-01-22 19:40:59.71	332.02	12.31	-30.0	-29.9	15.6	1.76e-03	0	57	0	52395245568	30	15199
2026-01-22 19:41:00.71	332.10	12.19	-30.0	-29.9	15.6	1.76e-03	0	57	0	52512686080	30	15255
2026-01-22 19:41:01.72	332.19	12.08	-30.2	-30.1	15.5	1.76e-03	0	57	0	52630126592	30	15552
2026-01-22 19:41:02.73	332.28	11.97	-30.1	-30.0	15.5	2.25e-03	0	57	0	52739178496	30	15365
2026-01-22 19:41:03.74	332.36	11.86	-30.3	-30.2	15.5	2.25e-03	0	57	0	52856619008	31	14885
2026-01-22 19:41:04.75	332.45	11.75	-30.2	-30.1	15.5	2.25e-03	0	57	0	52965670912	31	14731
2026-01-22 19:41:05.75	332.53	11.64	-30.3	-30.2	15.5	2.67e-03	0	57	0	53074722816	31	14810
2026-01-22 19:41:06.76	332.62	11.53	-30.5	-30.4	15.4	2.67e-03	0	57	0	53192163328	31	15292
2026-01-22 19:41:07.77	332.70	11.43	-30.4	-30.3	15.4	3.10e-03	0	57	0	53301215232	31	15076
2026-01-22 19:41:08.77	332.78	11.32	-30.4	-30.3	15.4	3.10e-03	0	58	0	53418655744	31	15056
2026-01-22 19:41:09.78	332.86	11.21	-30.4	-30.3	15.4	3.10e-03	0	57	0	53527707648	31	15101
2026-01-22 19:41:10.79	332.94	11.10	-30.4	-30.3	15.4	3.27e-03	0	58	0	53636759552	31	15014
2026-01-22 19:41:11.80	333.02	11.00	-30.4	-30.3	15.4	3.27e-03	0	57	0	53754200064	31	15028
2026-01-22 19:41:12.81	333.10	10.89	-30.4	-30.4	15.4	3.27e-03	0	58	0	53863251968	31	15136
2026-01-22 19:41:13.81	333.18	10.79	-30.6	-30.6	15.3	3.39e-03	0	58	0	53989081088	31	15480
2026-01-22 19:41:14.82	333.26	10.69	-30.5	-30.4	15.3	3.39e-03	0	57	0	54098132992	31	15261
2026-01-22 19:41:15.83	333.34	10.58	-30.5	-30.5	15.3	3.90e-03	0	57	0	54215573504	31	15301
2026-01-22 19:41:16.84	333.41	10.48	-30.5	-30.4	15.3	3.90e-03	0	57	0	54324625408	31	15235
2026-01-22 19:41:17.85	333.49	10.38	-30.7	-30.6	15.3	3.90e-03	0	58	0	54442065920	31	15523
2026-01-22 19:41:18.85	333.57	10.27	-30.7	-30.6	15.2	4.21e-03	0	57	0	54551117824	32	14691
2026-01-22 19:41:19.86	333.64	10.17	-30.6	-30.5	15.2	4.21e-03	0	58	0	54660169728	32	14505
2026-01-22 19:41:20.87	333.72	10.07	-30.5	-30.4	15.3	4.21e-03	0	57	0	54777610240	32	14429
2026-01-22 19:41:21.88	333.79	9.97	-30.6	-30.5	15.2	4.52e-03	0	57	0	54886662144	32	14606
2026-01-22 19:41:22.89	333.86	9.87	-30.7	-30.6	15.2	4.52e-03	0	57	0	55004102656	32	14670
2026-01-22 19:41:23.90	333.94	9.77	-30.8	-30.7	15.2	4.52e-03	0	58	0	55113154560	32	14836
2026-01-22 19:41:24.91	334.01	9.67	-30.7	-30.6	15.2	5.00e-03	0	57	0	55230595072	32	14751
2026-01-22 19:41:25.91	334.08	9.57	-30.8	-30.7	15.1	5.00e-03	0	57	0	55348035584	32	14854
2026-01-22 19:41:26.92	334.15	9.48	-30.8	-30.8	15.1	5.32e-03	0	57	0	55465476096	32	14963
2026-01-22 19:41:27.93	334.22	9.38	-30.9	-30.9	15.1	5.32e-03	0	57	0	55574528000	32	15163
2026-01-22 19:41:28.94	334.29	9.28	-31.0	-31.0	15.0	5.32e-03	0	57	0	55683579904	32	15299
2026-01-22 19:41:29.95	334.36	9.18	-31.1	-31.1	15.0	7.19e-03	0	57	0	55801020416	32	15493
2026-01-22 19:41:30.96	334.43	9.09	-31.5	-31.4	14.8	7.19e-03	0	57	0	55910072320	33	15287
2026-01-22 19:41:31.97	334.50	8.99	-31.7	-31.7	14.7	7.19e-03	0	57	0	56027512832	34	14788
2026-01-22 19:41:32.97	334.57	8.90	-31.8	-31.7	14.7	7.19e-03	0	57	0	56136564736	34	14904
2026-01-22 19:41:33.98	334.63	8.80	-32.0	-31.9	14.6	1.05e-02	0	57	0	56254005248	34	15216
2026-01-22 19:41:34.99	334.70	8.71	-31.7	-31.6	14.7	1.05e-02	0	57	0	56363057152	34	14733
2026-01-22 19:41:36.00	334.77	8.61	-31.6	-31.5	14.8	1.33e-02	0	57	0	56472109056	34	14534
2026-01-22 19:41:37.01	334.83	8.52	-31.7	-31.7	14.7	1.33e-02	0	57	0	56589549568	34	14791
2026-01-22 19:41:38.01	334.90	8.43	-31.7	-31.6	14.7	1.33e-02	0	58	0	56715378688	34	14755
2026-01-22 19:41:39.02	334.96	8.34	-31.6	-31.5	14.8	1.21e-02	0	58	0	56824430592	34	14553
2026-01-22 19:41:40.02	335.03	8.24	-31.8	-31.7	14.6	1.21e-02	0	57	0	56933482496	34	14920
2026-01-22 19:41:41.03	335.09	8.15	-31.6	-31.5	14.8	1.21e-02	0	57	0	57050923008	34	14575
2026-01-22 19:41:42.04	335.15	8.06	-31.7	-31.6	14.7	1.19e-02	0	57	0	57159974912	34	14687
2026-01-22 19:41:43.05	335.22	7.97	-31.8	-31.7	14.6	1.19e-02	0	58	0	57277415424	34	14934
2026-01-22 19:41:44.06	335.28	7.88	-31.9	-31.8	14.6	1.19e-02	0	57	0	57386467328	34	15046
2026-01-22 19:41:45.07	335.34	7.79	-31.8	-31.7	14.6	1.35e-02	0	57	0	57495519232	34	14930
2026-01-22 19:41:46.07	335.40	7.70	-32.1	-32.1	14.5	1.35e-02	0	57	0	57612959744	34	15488
2026-01-22 19:41:47.08	335.47	7.61	-32.3	-32.2	14.4	1.35e-02	0	58	0	57722011648	35	14920
2026-01-22 19:41:48.09	335.53	7.52	-32.0	-32.0	14.5	1.73e-02	0	58	0	57839452160	35	14481
2026-01-22 19:41:49.10	335.59	7.43	-32.2	-32.1	14.4	1.73e-02	0	57	0	57948504064	35	14739
2026-01-22 19:41:50.10	335.65	7.34	-32.2	-32.1	14.4	1.73e-02	0	57	0	58057555968	35	14753
2026-01-22 19:41:51.11	335.71	7.26	-32.2	-32.1	14.4	1.64e-02	0	58	0	58183385088	35	14681
2026-01-22 19:41:52.12	335.77	7.17	-32.4	-32.3	14.3	1.64e-02	0	57	0	58300825600	35	15093
2026-01-22 19:41:53.12	335.82	7.08	-32.3	-32.2	14.4	1.85e-02	0	57	0	58409877504	35	14885
2026-01-22 19:41:54.13	335.88	7.00	-32.5	-32.4	14.2	1.85e-02	0	57	0	58518929408	35	15273
2026-01-22 19:41:55.13	335.94	6.91	-32.6	-32.5	14.2	1.85e-02	0	57	0	58636369920	35	15417
2026-01-22 19:41:56.14	336.00	6.82	-35.2	-35.1	14.8	1.99e-02	0	57	0	58745421824	41	14770
2026-01-22 19:41:57.15	336.06	6.74	-35.2	-35.1	14.8	1.99e-02	0	57	0	58862862336	41	14704
2026-01-22 19:41:58.16	336.11	6.65	-35.1	-35.0	14.8	1.99e-02	0	57	0	58971914240	41	14516
2026-01-22 19:41:59.17	336.17	6.57	-35.3	-35.2	14.7	1.04e-02	0	58	0	59080966144	41	14833
2026-01-22 19:42:00.17	336.23	6.48	-35.0	-34.9	14.8	1.04e-02	0	57	0	59198406656	41	14400
2026-01-22 19:42:01.18	336.28	6.40	-35.1	-35.0	14.8	1.04e-02	0	57	0	59307458560	41	14556
2026-01-22 19:42:02.19	336.34	6.32	-35.6	-35.6	14.5	1.04e-02	0	57	0	59424899072	41	15509
2026-01-22 19:42:03.20	336.39	6.23	-35.3	-35.2	14.7	1.09e-02	0	57	0	59533950976	42	14101
2026-01-22 19:42:04.21	336.45	6.15	-35.9	-35.8	14.4	1.09e-02	0	57	0	59651391488	42	15097
2026-01-22 19:42:05.21	336.50	6.07	-35.4	-35.3	14.7	1.53e-02	0	57	0	59768832000	42	14208
2026-01-22 19:42:06.22	336.55	5.99	-35.9	-35.8	14.4	1.53e-02	0	57	0	59886272512	42	15081
2026-01-22 19:42:07.23	336.61	5.90	-35.8	-35.7	14.4	1.54e-02	0	57	0	59995324416	42	14888
2026-01-22 19:42:08.24	336.66	5.82	-35.5	-35.4	14.6	1.54e-02	0	57	0	60112764928	42	14330
2026-01-22 19:42:09.25	336.71	5.74	-35.4	-35.3	14.6	1.54e-02	0	57	0	60221816832	42	14242
2026-01-22 19:42:10.25	336.77	5.66	-35.6	-35.5	14.5	1.52e-02	0	57	0	60330868736	42	14526
2026-01-22 19:42:11.26	336.82	5.58	-35.8	-35.7	14.4	1.52e-02	0	58	0	60448309248	42	14930
2026-01-22 19:42:12.27	336.87	5.50	-35.4	-35.3	14.6	1.62e-02	0	57	0	60557361152	42	14251
2026-01-22 19:42:13.28	336.92	5.42	-35.6	-35.5	14.5	1.62e-02	0	57	0	60674801664	42	14561
2026-01-22 19:42:14.29	336.97	5.34	-35.6	-35.5	14.5	1.62e-02	0	57	0	60783853568	42	14478
2026-01-22 19:42:15.29	337.02	5.26	-35.9	-35.9	14.3	1.62e-02	0	57	0	60892905472	42	15173
2026-01-22 19:42:16.30	337.08	5.18	-35.7	-35.7	14.4	1.55e-02	0	57	0	61010345984	43	13977
2026-01-22 19:42:17.31	337.13	5.10	-36.0	-36.0	14.3	1.55e-02	0	57	0	61119397888	43	14464
2026-01-22 19:42:18.32	337.18	5.02	-36.2	-36.2	14.2	1.55e-02	0	57	0	61245227008	42	15653
2026-01-22 19:42:19.33	337.23	4.94	-53.1	-55.4	6.2	2.04e-02	0	56	104	61278781440	76	20177
2026-01-22 19:42:20.34	337.28	4.86	-53.5	-55.7	6.2	2.04e-02	0	56	104	61278781440	77	19785
2026-01-22 19:42:21.35	337.32	4.79	-53.7	-55.9	6.2	2.04e-02	0	56	104	61278781440	77	20205
2026-01-22 19:42:22.35	337.37	4.71	-53.9	-56.0	6.2	2.04e-02	0	56	104	61278781440	78	19352
2026-01-22 19:42:23.36	337.42	4.63	-54.0	-56.1	6.2	2.04e-02	0	56	104	61278781440	78	19577
2026-01-22 19:42:24.37	337.47	4.55	-54.1	-56.2	6.2	2.04e-02	0	56	104	61278781440	78	19866
2026-01-22 19:42:25.38	337.52	4.48	-54.2	-56.3	6.2	2.04e-02	0	56	104	61278781440	78	20040
2026-01-22 19:42:26.39	337.57	4.40	-54.2	-56.3	6.2	2.04e-02	0	56	104	61278781440	78	20138
2026-01-22 19:42:27.40	337.61	4.32	-54.2	-56.3	6.2	1.92e-02	0	56	104	61278781440	78	20146
2026-01-22 19:42:28.40	337.66	4.25	-54.2	-56.3	6.2	1.92e-02	0	56	104	61278781440	78	20063
2026-01-22 19:42:29.42	337.71	4.17	-54.1	-56.3	6.2	1.92e-02	0	56	104	61278781440	78	19984
2026-01-22 19:42:30.42	337.75	4.10	-54.1	-56.2	6.2	1.92e-02	0	56	104	61278781440	78	19845
2026-01-22 19:42:31.43	337.80	4.02	-53.9	-56.0	6.2	1.92e-02	0	56	104	61278781440	78	19428
2026-01-22 19:42:32.44	337.85	3.95	-53.8	-55.9	6.2	1.92e-02	0	55	104	61278781440	78	19218
2026-01-22 19:42:33.45	337.89	3.87	-53.9	-56.0	6.2	1.92e-02	0	56	104	61278781440	78	19377
2026-01-22 19:42:34.46	337.94	3.80	-53.9	-56.0	6.2	1.92e-02	0	56	104	61278781440	78	19477
2026-01-22 19:42:35.47	337.98	3.72	-54.0	-56.1	6.2	1.92e-02	0	55	104	61278781440	78	19591
2026-01-22 19:42:36.47	338.03	3.65	-54.0	-56.2	6.2	1.92e-02	0	55	104	61278781440	78	19719
2026-01-22 19:42:37.48	338.07	3.58	-54.0	-56.2	6.2	1.92e-02	0	55	104	61278781440	78	19755
2026-01-22 19:42:38.49	338.12	3.50	-54.0	-56.2	6.2	1.92e-02	0	55	104	61278781440	78	19722
2026-01-22 19:42:39.50	338.16	3.43	-54.0	-56.2	6.2	1.92e-02	0	55	104	61278781440	78	19744
2026-01-22 19:42:40.51	338.20	3.36	-54.0	-56.2	6.2	1.92e-02	0	55	104	61278781440	78	19733
2026-01-22 19:42:41.51	338.25	3.29	-54.0	-56.1	6.2	0.00e+00	0	55	104	61278781440	78	19612
2026-01-22 19:42:42.53	338.29	3.21	-54.0	-56.1	6.2	0.00e+00	0	55	104	61278781440	78	19639
2026-01-22 19:42:43.53	338.33	3.14	-54.0	-56.1	6.2	0.00e+00	0	55	104	61278781440	78	19527
2026-01-22 19:42:44.54	338.38	3.07	-54.0	-56.1	6.2	0.00e+00	0	55	104	61278781440	78	19591
2026-01-22 19:42:45.55	338.42	3.00	-54.0	-56.1	6.2	0.00e+00	0	55	104	61278781440	78	19540
2026-01-22 19:42:46.56	338.46	2.93	-54.0	-56.1	6.2	0.00e+00	0	55	104	61278781440	78	19519
2026-01-22 19:42:47.57	338.51	2.86	-53.9	-56.1	6.2	0.00e+00	0	55	104	61278781440	78	19509
2026-01-22 19:42:48.58	338.55	2.78	-53.9	-56.1	6.2	0.00e+00	0	55	104	61278781440	78	19499
2026-01-22 19:42:49.59	338.59	2.71	-53.9	-56.0	6.2	0.00e+00	0	55	104	61278781440	78	19458
2026-01-22 19:42:50.59	338.63	2.64	-53.9	-56.0	6.2	0.00e+00	0	55	104	61278781440	78	19411
2026-01-22 19:42:51.60	338.67	2.57	-53.9	-56.0	6.2	0.00e+00	0	55	104	61278781440	78	19437
2026-01-22 19:42:52.61	338.71	2.50	-53.9	-56.0	6.2	0.00e+00	0	55	104	61278781440	78	19434
2026-01-22 19:42:53.62	338.75	2.43	-53.9	-56.0	6.2	0.00e+00	0	55	104	61278781440	78	19409
2026-01-22 19:42:54.63	338.80	2.36	-53.9	-56.0	6.2	0.00e+00	0	55	104	61278781440	78	19405
2026-01-22 19:42:55.63	338.84	2.29	-53.9	-56.0	6.2	0.00e+00	0	55	104	61278781440	78	19410
2026-01-22 19:42:56.65	338.88	2.22	-53.9	-56.0	6.2	0.00e+00	0	55	104	61278781440	78	19376
2026-01-22 19:42:57.65	338.92	2.16	-53.9	-56.0	6.2	0.00e+00	0	55	104	61278781440	78	19420
2026-01-22 19:42:58.66	338.96	2.09	-53.9	-56.0	6.2	0.00e+00	0	55	104	61278781440	78	19368
2026-01-22 19:42:59.67	339.00	2.02	-53.9	-56.0	6.2	0.00e+00	0	55	104	61278781440	78	19381
2026-01-22 19:43:00.68	339.03	1.95	-53.9	-56.0	6.2	0.00e+00	0	55	104	61278781440	78	19401

#Closed at: 2026-01-22 19:43:01
#Recorded file [61278 MB]: D:/lorett/data/31041_260122_223226.dat