passes_logs/2026/01/22/R3.2S_Murmansk/R3.2S_Murmansk__20260122_103756_SUOMI_NPP_rec.log

#Pass ID: 20260122_103756_SUOMI NPP
#Satellite: SUOMI NPP
#Configuration: NPP
#almurnet v.1.7.20251203
#Start time: 2026-01-22 10:37:57

#Version: 2.2.20231116
#Station: R3.2S_Murmansk
#Location: 33.079688 lon 68.888172 lat
#TLE: 1 37849U 11061A   26021.51818991  .00000201  00000+0  11636-3 0  9995
#TLE: 2 37849  98.7819 323.5108 0002300  52.3548 307.7836 14.19527793737637

#Time	Az	El	Level	Level2	SNR	BER	BlckErr	Temp	State	Recorded	gain1	gain2
2026-01-22 10:37:57.83	177.01	2.11	-52.5	-68.9	3.8	1.49e+00	0	39	0	0	76	24119
2026-01-22 10:37:58.79	177.04	2.17	-51.6	-69.0	3.9	1.49e+00	0	39	104	0	75	25731
2026-01-22 10:37:59.76	177.07	2.23	-52.2	-69.0	3.9	1.49e+00	0	39	104	0	75	25790
2026-01-22 10:38:00.73	177.10	2.29	-52.0	-69.0	3.9	1.49e+00	0	39	104	0	74	27278
2026-01-22 10:38:01.70	177.13	2.36	-51.9	-68.9	3.9	1.49e+00	0	39	104	0	75	25535
2026-01-22 10:38:02.67	177.16	2.42	-52.1	-68.9	3.9	1.49e+00	0	39	104	0	74	26981
2026-01-22 10:38:03.64	177.20	2.48	-51.1	-68.9	3.9	1.49e+00	0	39	104	0	74	26778
2026-01-22 10:38:04.62	177.23	2.54	-51.9	-68.9	3.8	1.50e+00	0	39	104	0	74	26808
2026-01-22 10:38:05.59	177.26	2.60	-50.9	-68.7	3.9	1.50e+00	0	39	104	0	73	27807
2026-01-22 10:38:06.56	177.29	2.67	-51.1	-68.9	3.9	1.50e+00	0	40	104	0	73	28574
2026-01-22 10:38:07.53	177.32	2.73	-51.2	-69.1	3.8	1.50e+00	0	40	104	0	74	27569
2026-01-22 10:38:08.50	177.36	2.79	-51.5	-69.2	3.9	1.49e+00	0	39	104	0	74	27978
2026-01-22 10:38:09.47	177.39	2.85	-51.4	-69.1	3.9	1.50e+00	0	39	104	0	74	27596
2026-01-22 10:38:10.44	177.42	2.91	-52.0	-69.2	3.8	1.50e+00	0	40	104	0	75	26157
2026-01-22 10:38:11.41	177.45	2.98	-52.9	-69.2	3.9	1.49e+00	0	40	104	0	76	24941
2026-01-22 10:38:12.38	177.49	3.04	-54.4	-69.5	3.8	1.49e+00	0	40	104	0	79	21571
2026-01-22 10:38:13.35	177.52	3.10	-54.4	-69.4	3.8	1.49e+00	0	40	104	0	79	21496
2026-01-22 10:38:14.33	177.55	3.17	-54.4	-69.4	3.8	1.49e+00	0	40	104	0	79	21360
2026-01-22 10:38:15.29	177.58	3.23	-54.3	-69.4	3.8	1.49e+00	0	40	104	0	79	21337
2026-01-22 10:38:16.26	177.62	3.29	-54.3	-69.4	3.8	1.49e+00	0	40	104	0	79	21313
2026-01-22 10:38:17.23	177.65	3.36	-54.3	-69.3	3.8	1.49e+00	0	40	104	0	79	21224
2026-01-22 10:38:18.21	177.69	3.42	-54.3	-69.3	3.8	1.49e+00	0	40	104	0	79	21087
2026-01-22 10:38:19.19	177.72	3.48	-54.2	-69.3	3.8	1.49e+00	0	40	104	0	79	21119
2026-01-22 10:38:20.16	177.75	3.55	-54.2	-69.2	3.8	1.49e+00	0	40	104	0	79	20878
2026-01-22 10:38:21.13	177.79	3.61	-54.1	-69.2	3.8	1.49e+00	0	40	104	0	79	20832
2026-01-22 10:38:22.10	177.82	3.68	-54.1	-69.1	3.8	1.49e+00	0	40	104	0	79	20603
2026-01-22 10:38:23.08	177.86	3.74	-54.0	-69.0	3.8	1.49e+00	0	40	104	0	79	20452
2026-01-22 10:38:24.06	177.89	3.81	-53.9	-68.9	3.8	1.49e+00	0	40	104	0	79	20184
2026-01-22 10:38:25.03	177.92	3.87	-53.8	-68.8	3.8	1.49e+00	0	40	104	0	79	19961
2026-01-22 10:38:26.00	177.96	3.94	-53.7	-68.7	3.8	1.49e+00	0	40	104	0	79	19768
2026-01-22 10:38:26.98	177.99	4.00	-53.6	-68.6	3.8	1.49e+00	0	40	104	0	78	20596
2026-01-22 10:38:27.94	178.03	4.07	-53.3	-68.3	3.8	1.49e+00	0	40	104	0	78	20014
2026-01-22 10:38:28.92	178.06	4.13	-53.0	-67.9	3.8	1.49e+00	0	40	104	0	78	19013
2026-01-22 10:38:29.89	178.10	4.20	-51.4	-57.3	9.1	9.44e-01	0	40	0	0	74	7113
2026-01-22 10:38:30.86	178.13	4.26	-50.9	-55.7	10.7	5.99e-03	0	40	0	2097152	73	6259
2026-01-22 10:38:31.83	178.17	4.33	-50.6	-55.1	11.4	6.81e-04	0	40	0	4194304	73	5845
2026-01-22 10:38:32.80	178.21	4.39	-49.8	-53.3	13.3	1.29e-04	0	40	0	5242880	71	5297
2026-01-22 10:38:33.77	178.24	4.46	-49.5	-52.7	14.0	1.06e-05	0	40	0	7340032	71	4949
2026-01-22 10:38:34.74	178.28	4.53	-48.9	-51.7	15.0	0.00e+00	0	40	0	9437184	69	4949
2026-01-22 10:38:35.72	178.31	4.59	-48.5	-51.0	15.6	0.00e+00	0	40	0	10485760	69	4584
2026-01-22 10:38:36.70	178.35	4.66	-48.5	-50.9	15.7	0.00e+00	0	40	0	12582912	68	4806
2026-01-22 10:38:37.67	178.39	4.73	-48.3	-50.7	15.9	0.00e+00	0	40	0	14680064	68	4695
2026-01-22 10:38:38.64	178.42	4.79	-47.9	-50.2	16.3	0.00e+00	0	40	0	16777216	67	4673
2026-01-22 10:38:39.61	178.46	4.86	-48.2	-50.6	15.9	0.00e+00	0	40	0	17825792	67	4874
2026-01-22 10:38:40.59	178.50	4.93	-48.3	-50.8	15.7	0.00e+00	0	40	0	19922944	67	5001
2026-01-22 10:38:41.56	178.53	5.00	-48.5	-51.1	15.5	0.00e+00	0	40	0	22020096	67	5185
2026-01-22 10:38:42.53	178.57	5.06	-48.1	-50.3	16.5	0.00e+00	0	40	0	24117248	68	4480
2026-01-22 10:38:43.50	178.61	5.13	-48.9	-51.5	15.3	0.00e+00	0	40	0	25165824	69	4822
2026-01-22 10:38:44.47	178.65	5.20	-48.1	-50.4	16.4	0.00e+00	0	40	0	27262976	67	4793
2026-01-22 10:38:45.44	178.68	5.27	-51.1	-56.4	9.8	4.02e-01	0	40	0	29360128	74	6351
2026-01-22 10:38:46.41	178.72	5.33	-48.1	-50.3	16.2	9.90e-06	0	40	0	30408704	68	4447
2026-01-22 10:38:47.39	178.76	5.40	-49.9	-53.4	13.1	5.79e-05	0	40	0	32505856	72	5077
2026-01-22 10:38:48.36	178.80	5.47	-47.7	-49.8	16.8	0.00e+00	0	40	0	34603008	67	4487
2026-01-22 10:38:49.33	178.84	5.54	-47.8	-50.0	16.7	0.00e+00	0	40	0	36700160	67	4556
2026-01-22 10:38:50.30	178.87	5.61	-47.5	-49.5	17.1	0.00e+00	0	40	0	37748736	66	4589
2026-01-22 10:38:51.27	178.91	5.68	-47.5	-49.5	17.1	0.00e+00	0	40	0	39845888	66	4578
2026-01-22 10:38:52.24	178.95	5.75	-47.5	-49.5	17.1	0.00e+00	0	40	0	41943040	66	4581
2026-01-22 10:38:53.22	178.99	5.82	-47.4	-49.3	17.3	0.00e+00	0	40	0	44040192	66	4489
2026-01-22 10:38:54.19	179.03	5.89	-47.3	-49.2	17.5	0.00e+00	0	40	0	45088768	66	4395
2026-01-22 10:38:55.17	179.07	5.96	-47.3	-49.2	17.4	0.00e+00	0	40	0	47185920	66	4428
2026-01-22 10:38:56.14	179.11	6.03	-47.3	-49.2	17.5	0.00e+00	0	40	0	49283072	66	4426
2026-01-22 10:38:57.12	179.15	6.10	-47.4	-49.3	17.3	0.00e+00	0	40	0	51380224	66	4477
2026-01-22 10:38:58.09	179.19	6.17	-47.4	-49.3	17.4	0.00e+00	0	40	0	52428800	66	4477
2026-01-22 10:38:59.05	179.23	6.24	-47.2	-49.1	17.6	0.00e+00	0	40	0	54525952	66	4373
2026-01-22 10:39:00.02	179.27	6.31	-47.3	-49.2	17.5	0.00e+00	0	40	0	56623104	66	4422
2026-01-22 10:39:00.99	179.31	6.38	-47.2	-49.0	17.7	0.00e+00	0	40	0	58720256	66	4331
2026-01-22 10:39:01.96	179.35	6.45	-47.2	-49.0	17.8	0.00e+00	0	40	0	59768832	66	4311
2026-01-22 10:39:02.93	179.39	6.52	-47.5	-49.5	17.3	0.00e+00	0	40	0	61865984	66	4563
2026-01-22 10:39:03.90	179.43	6.59	-47.2	-49.0	17.7	0.00e+00	0	40	0	63963136	66	4318
2026-01-22 10:39:04.87	179.47	6.66	-47.1	-48.8	17.9	0.00e+00	0	40	0	66060288	66	4242
2026-01-22 10:39:05.84	179.51	6.73	-47.2	-49.0	17.8	0.00e+00	0	40	0	67108864	66	4325
2026-01-22 10:39:06.81	179.55	6.81	-47.2	-49.0	17.8	0.00e+00	0	40	0	69206016	66	4317
2026-01-22 10:39:07.79	179.60	6.88	-47.1	-49.0	17.8	0.00e+00	0	40	0	71303168	66	4296
2026-01-22 10:39:08.77	179.64	6.95	-47.2	-49.0	17.8	0.00e+00	0	40	0	72351744	66	4331
2026-01-22 10:39:09.75	179.68	7.02	-47.3	-49.2	17.6	0.00e+00	0	41	0	74448896	66	4398
2026-01-22 10:39:10.73	179.72	7.10	-47.1	-48.9	17.9	0.00e+00	0	40	0	76546048	66	4287
2026-01-22 10:39:11.70	179.76	7.17	-47.1	-48.8	17.9	0.00e+00	0	41	0	78643200	66	4241
2026-01-22 10:39:12.68	179.81	7.24	-47.3	-49.1	17.7	0.00e+00	0	40	0	79691776	65	4629
2026-01-22 10:39:13.66	179.85	7.32	-47.4	-49.3	17.5	0.00e+00	0	41	0	81788928	65	4746
2026-01-22 10:39:14.64	179.89	7.39	-47.0	-48.8	18.0	0.00e+00	0	40	0	83886080	65	4455
2026-01-22 10:39:15.62	179.94	7.47	-47.3	-49.1	17.7	0.00e+00	0	40	0	85983232	65	4649
2026-01-22 10:39:16.60	179.98	7.54	-47.2	-49.0	17.8	0.00e+00	0	40	0	87031808	65	4595
2026-01-22 10:39:17.59	180.03	7.62	-47.1	-48.9	18.0	0.00e+00	0	40	0	89128960	65	4497
2026-01-22 10:39:18.57	180.07	7.69	-47.2	-49.0	17.8	0.00e+00	0	40	0	91226112	65	4565
2026-01-22 10:39:19.55	180.11	7.77	-47.2	-48.9	17.9	0.00e+00	0	40	0	93323264	65	4541
2026-01-22 10:39:20.52	180.16	7.84	-47.2	-49.0	17.8	0.00e+00	0	41	0	95420416	65	4584
2026-01-22 10:39:21.50	180.20	7.92	-47.2	-49.0	17.8	0.00e+00	0	40	0	96468992	65	4588
2026-01-22 10:39:22.48	180.25	7.99	-47.0	-48.8	18.1	0.00e+00	0	40	0	98566144	65	4463
2026-01-22 10:39:23.46	180.29	8.07	-47.2	-49.1	17.8	0.00e+00	0	41	0	100663296	65	4604
2026-01-22 10:39:24.43	180.34	8.14	-47.2	-49.0	17.8	0.00e+00	0	40	0	102760448	65	4577
2026-01-22 10:39:25.41	180.38	8.22	-47.1	-48.8	18.1	0.00e+00	0	40	0	103809024	65	4476
2026-01-22 10:39:26.39	180.43	8.30	-47.3	-49.2	17.7	0.00e+00	0	40	0	105906176	65	4681
2026-01-22 10:39:27.37	180.48	8.37	-47.2	-49.1	17.9	0.00e+00	0	41	0	108003328	65	4609
2026-01-22 10:39:28.35	180.52	8.45	-47.3	-49.1	17.9	0.00e+00	0	41	0	110100480	65	4622
2026-01-22 10:39:29.33	180.57	8.53	-47.1	-48.9	18.0	0.00e+00	0	40	0	111149056	65	4538
2026-01-22 10:39:30.31	180.62	8.61	-47.1	-48.9	18.0	0.00e+00	0	41	0	113246208	65	4516
2026-01-22 10:39:31.29	180.66	8.68	-47.1	-48.8	18.1	0.00e+00	0	41	0	115343360	65	4493
2026-01-22 10:39:32.27	180.71	8.76	-47.2	-48.9	18.0	0.00e+00	0	41	0	117440512	65	4543
2026-01-22 10:39:33.24	180.76	8.84	-47.3	-49.1	17.9	0.00e+00	0	41	0	118489088	65	4617
2026-01-22 10:39:34.22	180.80	8.92	-47.3	-49.1	17.8	0.00e+00	0	40	0	120586240	65	4637
2026-01-22 10:39:35.19	180.85	9.00	-47.2	-49.0	18.0	0.00e+00	0	40	0	122683392	65	4563
2026-01-22 10:39:36.16	180.90	9.07	-47.1	-48.9	18.1	0.00e+00	0	40	0	123731968	65	4498
2026-01-22 10:39:37.14	180.95	9.15	-46.8	-48.5	18.5	0.00e+00	0	41	0	125829120	65	4305
2026-01-22 10:39:38.11	181.00	9.23	-47.0	-48.7	18.3	0.00e+00	0	40	0	127926272	65	4415
2026-01-22 10:39:39.08	181.04	9.31	-47.1	-48.9	18.1	0.00e+00	0	41	0	130023424	65	4527
2026-01-22 10:39:40.06	181.09	9.39	-46.9	-48.6	18.4	0.00e+00	0	40	0	131072000	65	4376
2026-01-22 10:39:41.04	181.14	9.47	-46.9	-48.7	18.3	0.00e+00	0	41	0	133169152	65	4393
2026-01-22 10:39:42.02	181.19	9.55	-46.8	-48.5	18.5	0.00e+00	0	41	0	135266304	65	4314
2026-01-22 10:39:43.00	181.24	9.63	-46.9	-48.6	18.3	0.00e+00	0	41	0	137363456	65	4387
2026-01-22 10:39:43.98	181.29	9.71	-46.7	-48.3	18.6	0.00e+00	0	41	0	138412032	65	4241
2026-01-22 10:39:44.96	181.34	9.79	-46.7	-48.3	18.7	0.00e+00	0	40	0	140509184	65	4223
2026-01-22 10:39:45.93	181.39	9.87	-46.9	-48.6	18.4	0.00e+00	0	41	0	142606336	65	4347
2026-01-22 10:39:46.91	181.44	9.96	-46.8	-48.5	18.5	0.00e+00	0	40	0	144703488	65	4311
2026-01-22 10:39:47.89	181.50	10.04	-46.9	-48.6	18.4	0.00e+00	0	40	0	145752064	65	4341
2026-01-22 10:39:48.87	181.55	10.12	-46.6	-48.2	18.8	0.00e+00	0	41	0	147849216	65	4187
2026-01-22 10:39:49.85	181.60	10.20	-46.7	-48.3	18.7	0.00e+00	0	40	0	149946368	65	4240
2026-01-22 10:39:50.83	181.65	10.28	-46.4	-47.9	19.0	0.00e+00	0	41	0	152043520	64	4278
2026-01-22 10:39:51.81	181.70	10.37	-46.5	-48.1	18.9	0.00e+00	0	40	0	153092096	64	4379
2026-01-22 10:39:52.78	181.76	10.45	-46.4	-47.9	19.0	0.00e+00	0	41	0	155189248	64	4291
2026-01-22 10:39:53.76	181.81	10.53	-46.5	-48.1	19.0	0.00e+00	0	41	0	157286400	64	4342
2026-01-22 10:39:54.74	181.86	10.62	-46.5	-48.1	18.9	0.00e+00	0	40	0	159383552	64	4352
2026-01-22 10:39:55.72	181.91	10.70	-46.3	-47.8	19.1	0.00e+00	0	41	0	161480704	64	4242
2026-01-22 10:39:56.70	181.97	10.78	-46.4	-48.0	19.0	0.00e+00	0	41	0	162529280	64	4306
2026-01-22 10:39:57.68	182.02	10.87	-46.5	-48.0	19.0	0.00e+00	0	41	0	164626432	64	4311
2026-01-22 10:39:58.66	182.08	10.95	-46.4	-47.9	19.1	0.00e+00	0	41	0	166723584	64	4250
2026-01-22 10:39:59.65	182.13	11.04	-46.3	-47.8	19.2	0.00e+00	0	41	0	168820736	64	4225
2026-01-22 10:40:00.63	182.19	11.13	-46.2	-47.7	19.3	0.00e+00	0	40	0	169869312	64	4178
2026-01-22 10:40:01.61	182.24	11.21	-46.2	-47.7	19.3	0.00e+00	0	40	0	171966464	64	4150
2026-01-22 10:40:02.59	182.30	11.30	-46.2	-47.6	19.4	0.00e+00	0	40	0	174063616	64	4135
2026-01-22 10:40:03.57	182.35	11.38	-46.0	-47.4	19.6	0.00e+00	0	41	0	175112192	64	4048
2026-01-22 10:40:04.54	182.41	11.47	-46.0	-47.4	19.7	0.00e+00	0	40	0	177209344	63	4271
2026-01-22 10:40:05.53	182.47	11.56	-46.0	-47.4	19.7	0.00e+00	0	41	0	179306496	63	4279
2026-01-22 10:40:06.51	182.52	11.64	-45.9	-47.2	19.9	0.00e+00	0	41	0	181403648	63	4181
2026-01-22 10:40:07.49	182.58	11.73	-46.0	-47.3	19.7	0.00e+00	0	40	0	182452224	63	4235
2026-01-22 10:40:08.47	182.64	11.82	-45.7	-47.0	20.0	0.00e+00	0	40	0	184549376	63	4088
2026-01-22 10:40:09.45	182.69	11.91	-45.7	-47.0	20.0	0.00e+00	0	40	0	186646528	63	4093
2026-01-22 10:40:10.42	182.75	11.99	-45.6	-46.9	20.1	0.00e+00	0	41	0	188743680	63	4038
2026-01-22 10:40:11.39	182.81	12.08	-45.5	-46.8	20.2	0.00e+00	0	41	0	189792256	62	4237
2026-01-22 10:40:12.37	182.87	12.17	-45.7	-47.1	20.0	0.00e+00	0	41	0	191889408	62	4346
2026-01-22 10:40:13.34	182.93	12.26	-45.6	-46.9	20.2	0.00e+00	0	40	0	193986560	62	4243
2026-01-22 10:40:14.31	182.98	12.35	-45.7	-47.1	20.0	0.00e+00	0	41	0	196083712	62	4343
2026-01-22 10:40:15.29	183.04	12.43	-45.7	-47.0	20.1	0.00e+00	0	41	0	197132288	62	4306
2026-01-22 10:40:16.27	183.10	12.52	-45.5	-46.8	20.3	0.00e+00	0	40	0	199229440	62	4206
2026-01-22 10:40:17.25	183.16	12.61	-45.6	-47.0	20.1	0.00e+00	0	40	0	201326592	62	4296
2026-01-22 10:40:18.23	183.23	12.71	-45.5	-46.8	20.2	0.00e+00	0	41	0	203423744	62	4240
2026-01-22 10:40:19.21	183.29	12.80	-45.3	-46.6	20.4	0.00e+00	0	41	0	204472320	62	4105
2026-01-22 10:40:20.20	183.35	12.89	-45.4	-46.7	20.4	0.00e+00	0	41	0	206569472	62	4171
2026-01-22 10:40:21.17	183.41	12.98	-45.4	-46.6	20.4	0.00e+00	0	40	0	208666624	62	4137
2026-01-22 10:40:22.16	183.47	13.07	-45.4	-46.6	20.4	0.00e+00	0	41	0	210763776	62	4129
2026-01-22 10:40:23.14	183.53	13.16	-45.5	-46.8	20.3	0.00e+00	0	40	0	212860928	62	4194
2026-01-22 10:40:24.12	183.60	13.26	-45.5	-46.8	20.3	0.00e+00	0	41	0	213909504	62	4225
2026-01-22 10:40:25.11	183.66	13.35	-45.5	-46.8	20.3	0.00e+00	0	41	0	216006656	62	4194
2026-01-22 10:40:26.09	183.72	13.44	-45.4	-46.7	20.4	0.00e+00	0	41	0	218103808	62	4160
2026-01-22 10:40:27.07	183.79	13.54	-45.5	-46.8	20.3	0.00e+00	0	41	0	220200960	62	4205
2026-01-22 10:40:28.06	183.85	13.63	-45.4	-46.7	20.4	0.00e+00	0	41	0	221249536	62	4159
2026-01-22 10:40:29.04	183.92	13.72	-45.4	-46.7	20.4	0.00e+00	0	41	0	223346688	62	4179
2026-01-22 10:40:30.03	183.98	13.82	-45.5	-46.8	20.3	0.00e+00	0	41	0	225443840	62	4225
2026-01-22 10:40:31.01	184.05	13.91	-45.6	-46.9	20.2	0.00e+00	0	41	0	226492416	62	4275
2026-01-22 10:40:31.99	184.12	14.01	-45.4	-46.7	20.4	0.00e+00	0	40	0	228589568	62	4158
2026-01-22 10:40:32.98	184.18	14.11	-45.5	-46.8	20.3	0.00e+00	0	40	0	230686720	62	4201
2026-01-22 10:40:33.96	184.25	14.20	-45.4	-46.6	20.5	0.00e+00	0	41	0	232783872	62	4133
2026-01-22 10:40:34.94	184.32	14.30	-45.6	-46.9	20.3	0.00e+00	0	41	0	234881024	62	4249
2026-01-22 10:40:35.92	184.38	14.39	-45.4	-46.7	20.4	0.00e+00	0	41	0	235929600	62	4163
2026-01-22 10:40:36.90	184.45	14.49	-45.4	-46.7	20.4	0.00e+00	0	41	0	238026752	62	4180
2026-01-22 10:40:37.88	184.52	14.59	-45.5	-46.8	20.2	0.00e+00	0	41	0	240123904	62	4240
2026-01-22 10:40:38.86	184.59	14.69	-45.3	-46.6	20.5	0.00e+00	0	41	0	242221056	62	4124
2026-01-22 10:40:39.83	184.66	14.78	-45.3	-46.6	20.5	0.00e+00	0	41	0	243269632	62	4126
2026-01-22 10:40:40.81	184.73	14.88	-45.3	-46.6	20.5	0.00e+00	0	41	0	245366784	62	4118
2026-01-22 10:40:41.78	184.80	14.98	-45.4	-46.7	20.4	0.00e+00	0	41	0	247463936	62	4190
2026-01-22 10:40:42.75	184.87	15.08	-45.5	-46.8	20.4	0.00e+00	0	41	0	249561088	62	4199
2026-01-22 10:40:43.72	184.94	15.17	-45.7	-47.0	20.2	0.00e+00	0	41	0	250609664	62	4310
2026-01-22 10:40:44.69	185.01	15.27	-45.6	-46.9	20.2	0.00e+00	0	40	0	252706816	62	4289
2026-01-22 10:40:45.67	185.08	15.37	-45.6	-47.0	20.2	0.00e+00	0	40	0	254803968	62	4298
2026-01-22 10:40:46.64	185.15	15.47	-45.8	-47.2	20.0	0.00e+00	0	41	0	256901120	62	4393
2026-01-22 10:40:47.61	185.22	15.57	-45.7	-47.1	20.1	0.00e+00	0	41	0	257949696	62	4344
2026-01-22 10:40:48.58	185.29	15.67	-45.7	-47.1	20.1	0.00e+00	0	40	0	260046848	62	4369
2026-01-22 10:40:49.55	185.37	15.77	-45.7	-47.1	20.1	0.00e+00	0	41	0	262144000	62	4351
2026-01-22 10:40:50.53	185.44	15.88	-45.6	-46.9	20.2	0.00e+00	0	41	0	264241152	62	4276
2026-01-22 10:40:51.50	185.51	15.98	-45.5	-46.8	20.4	0.00e+00	0	41	0	265289728	62	4202
2026-01-22 10:40:52.48	185.59	16.08	-45.4	-46.7	20.4	0.00e+00	0	41	0	267386880	62	4160
2026-01-22 10:40:53.45	185.66	16.18	-45.4	-46.6	20.5	0.00e+00	0	41	0	269484032	62	4129
2026-01-22 10:40:54.42	185.74	16.28	-45.2	-46.4	20.7	0.00e+00	0	41	0	271581184	62	4040
2026-01-22 10:40:55.40	185.82	16.39	-45.1	-46.3	20.8	0.00e+00	0	41	0	272629760	62	3995
2026-01-22 10:40:56.37	185.89	16.49	-45.0	-46.2	20.9	0.00e+00	0	41	0	274726912	61	4160
2026-01-22 10:40:57.35	185.97	16.60	-44.8	-46.0	21.1	0.00e+00	0	41	0	276824064	61	4075
2026-01-22 10:40:58.32	186.05	16.70	-44.9	-46.1	21.0	0.00e+00	0	41	0	277872640	61	4108
2026-01-22 10:40:59.29	186.13	16.80	-44.8	-46.0	21.1	0.00e+00	0	41	0	279969792	61	4054
2026-01-22 10:41:00.27	186.20	16.91	-44.7	-45.9	21.2	0.00e+00	0	41	0	282066944	61	4025
2026-01-22 10:41:01.24	186.28	17.01	-44.6	-45.8	21.3	0.00e+00	0	41	0	284164096	61	3979
2026-01-22 10:41:02.22	186.36	17.12	-44.7	-45.9	21.2	0.00e+00	0	41	0	285212672	61	4016
2026-01-22 10:41:03.20	186.44	17.23	-44.6	-45.7	21.3	0.00e+00	0	41	0	287309824	61	3934
2026-01-22 10:41:04.17	186.52	17.33	-44.6	-45.8	21.3	0.00e+00	0	41	0	289406976	61	3975
2026-01-22 10:41:05.15	186.61	17.44	-44.7	-45.9	21.2	0.00e+00	0	41	0	291504128	61	4037
2026-01-22 10:41:06.12	186.69	17.55	-44.7	-45.9	21.2	0.00e+00	0	41	0	292552704	61	4034
2026-01-22 10:41:07.10	186.77	17.66	-44.9	-46.1	21.0	0.00e+00	0	40	0	294649856	61	4125
2026-01-22 10:41:08.07	186.85	17.77	-45.0	-46.2	21.0	0.00e+00	0	41	0	296747008	61	4147
2026-01-22 10:41:09.04	186.94	17.88	-44.9	-46.1	21.1	0.00e+00	0	41	0	298844160	61	4112
2026-01-22 10:41:10.02	187.02	17.99	-45.0	-46.2	20.9	0.00e+00	0	41	0	299892736	61	4162
2026-01-22 10:41:11.00	187.11	18.10	-45.0	-46.2	20.9	0.00e+00	0	41	0	301989888	61	4190
2026-01-22 10:41:11.97	187.19	18.21	-45.1	-46.4	20.8	0.00e+00	0	41	0	304087040	61	4244
2026-01-22 10:41:12.95	187.28	18.32	-45.1	-46.3	20.9	0.00e+00	0	41	0	306184192	61	4235
2026-01-22 10:41:13.93	187.36	18.43	-45.0	-46.3	20.9	0.00e+00	0	41	0	307232768	61	4203
2026-01-22 10:41:14.91	187.45	18.54	-44.8	-46.0	21.1	0.00e+00	0	41	0	309329920	61	4094
2026-01-22 10:41:15.88	187.54	18.65	-44.9	-46.0	21.1	0.00e+00	0	41	0	311427072	61	4097
2026-01-22 10:41:16.86	187.63	18.77	-44.7	-45.9	21.3	0.00e+00	0	41	0	313524224	61	4014
2026-01-22 10:41:17.84	187.72	18.88	-44.8	-45.9	21.2	0.00e+00	0	41	0	314572800	61	4046
2026-01-22 10:41:18.82	187.81	18.99	-44.6	-45.8	21.3	0.00e+00	0	41	0	316669952	61	3979
2026-01-22 10:41:19.79	187.90	19.11	-44.6	-45.8	21.3	0.00e+00	0	41	0	318767104	61	3970
2026-01-22 10:41:20.76	187.99	19.22	-44.8	-46.0	21.2	0.00e+00	0	41	0	320864256	61	4056
2026-01-22 10:41:21.73	188.08	19.33	-44.6	-45.7	21.4	0.00e+00	0	41	0	321912832	61	3952
2026-01-22 10:41:22.71	188.17	19.45	-44.6	-45.7	21.4	0.00e+00	0	41	0	324009984	61	3938
2026-01-22 10:41:23.68	188.26	19.57	-44.7	-45.8	21.3	0.00e+00	0	41	0	326107136	60	4217
2026-01-22 10:41:24.65	188.36	19.68	-44.3	-45.4	21.7	0.00e+00	0	41	0	328204288	60	4020
2026-01-22 10:41:25.62	188.45	19.80	-44.4	-45.5	21.6	0.00e+00	0	41	0	329252864	60	4061
2026-01-22 10:41:26.60	188.55	19.92	-44.4	-45.5	21.6	0.00e+00	0	41	0	331350016	60	4054
2026-01-22 10:41:27.57	188.64	20.03	-44.4	-45.5	21.6	0.00e+00	0	41	0	333447168	60	4070
2026-01-22 10:41:28.54	188.74	20.15	-44.2	-45.2	21.8	0.00e+00	0	41	0	334495744	60	3947
2026-01-22 10:41:29.52	188.84	20.27	-44.5	-45.6	21.5	0.00e+00	0	41	0	336592896	60	4112
2026-01-22 10:41:30.49	188.93	20.39	-44.5	-45.6	21.5	0.00e+00	0	41	0	338690048	60	4114
2026-01-22 10:41:31.46	189.03	20.51	-44.4	-45.5	21.7	0.00e+00	0	41	0	340787200	60	4055
2026-01-22 10:41:32.43	189.13	20.63	-44.5	-45.6	21.5	0.00e+00	0	41	0	341835776	60	4130
2026-01-22 10:41:33.41	189.23	20.75	-44.4	-45.5	21.6	0.00e+00	0	41	0	343932928	60	4070
2026-01-22 10:41:34.38	189.33	20.87	-44.4	-45.5	21.6	0.00e+00	0	41	0	346030080	60	4069
2026-01-22 10:41:35.36	189.43	20.99	-44.4	-45.5	21.6	0.00e+00	0	41	0	348127232	60	4096
2026-01-22 10:41:36.34	189.54	21.11	-44.4	-45.6	21.6	0.00e+00	0	41	0	349175808	60	4105
2026-01-22 10:41:37.32	189.64	21.24	-44.4	-45.5	21.6	0.00e+00	0	41	0	351272960	60	4085
2026-01-22 10:41:38.30	189.74	21.36	-44.3	-45.4	21.7	0.00e+00	0	41	0	353370112	60	4029
2026-01-22 10:41:39.28	189.85	21.48	-44.3	-45.4	21.7	0.00e+00	0	41	0	355467264	60	4047
2026-01-22 10:41:40.26	189.95	21.61	-44.3	-45.4	21.8	0.00e+00	0	41	0	356515840	60	4019
2026-01-22 10:41:41.24	190.06	21.73	-44.3	-45.4	21.8	0.00e+00	0	41	0	358612992	60	4011
2026-01-22 10:41:42.21	190.17	21.86	-44.1	-45.1	22.0	0.00e+00	0	41	0	360710144	60	3906
2026-01-22 10:41:43.19	190.28	21.99	-44.2	-45.3	21.9	0.00e+00	0	40	0	362807296	60	3961
2026-01-22 10:41:44.17	190.39	22.11	-44.3	-45.4	22.0	0.00e+00	0	41	0	363855872	59	4261
2026-01-22 10:41:45.14	190.50	22.24	-44.4	-45.4	21.9	0.00e+00	0	41	0	365953024	59	4285
2026-01-22 10:41:46.12	190.61	22.37	-44.2	-45.2	22.2	0.00e+00	0	41	0	368050176	59	4181
2026-01-22 10:41:47.10	190.72	22.50	-44.1	-45.2	22.2	0.00e+00	0	41	0	370147328	59	4168
2026-01-22 10:41:48.08	190.83	22.62	-44.2	-45.2	22.1	0.00e+00	0	41	0	371195904	59	4185
2026-01-22 10:41:49.05	190.94	22.75	-44.1	-45.1	22.2	0.00e+00	0	41	0	373293056	59	4118
2026-01-22 10:41:50.03	191.06	22.88	-44.0	-45.1	22.3	0.00e+00	0	41	0	375390208	59	4110
2026-01-22 10:41:51.01	191.17	23.01	-44.2	-45.3	22.1	0.00e+00	0	41	0	377487360	59	4214
2026-01-22 10:41:52.00	191.29	23.15	-44.1	-45.2	22.2	0.00e+00	0	41	0	378535936	59	4156
2026-01-22 10:41:52.97	191.41	23.28	-44.2	-45.2	22.2	0.00e+00	0	41	0	380633088	59	4176
2026-01-22 10:41:53.95	191.53	23.41	-44.0	-45.1	22.3	0.00e+00	0	41	0	382730240	59	4105
2026-01-22 10:41:54.92	191.64	23.54	-44.5	-45.6	21.9	0.00e+00	0	41	0	384827392	59	4352
2026-01-22 10:41:55.90	191.77	23.67	-43.9	-45.0	22.4	0.00e+00	0	41	0	385875968	59	4055
2026-01-22 10:41:56.87	191.89	23.81	-44.1	-45.2	22.2	0.00e+00	0	41	0	387973120	59	4165
2026-01-22 10:41:57.84	192.01	23.94	-44.5	-45.6	21.8	0.00e+00	0	41	0	390070272	59	4388
2026-01-22 10:41:58.82	192.13	24.07	-44.3	-45.4	22.1	0.00e+00	0	41	0	391118848	59	4268
2026-01-22 10:41:59.79	192.25	24.21	-44.6	-45.7	21.7	0.00e+00	0	41	0	393216000	59	4428
2026-01-22 10:42:00.77	192.38	24.35	-44.3	-45.4	21.8	0.00e+00	0	41	0	395313152	60	4011
2026-01-22 10:42:01.75	192.51	24.48	-44.4	-45.5	21.6	0.00e+00	0	41	0	397410304	60	4097
2026-01-22 10:42:02.72	192.63	24.62	-44.6	-45.7	21.5	0.00e+00	0	41	0	399507456	60	4187
2026-01-22 10:42:03.70	192.76	24.76	-44.8	-46.0	21.3	0.00e+00	0	41	0	400556032	60	4293
2026-01-22 10:42:04.69	192.89	24.90	-44.9	-46.1	21.2	0.00e+00	0	41	0	402653184	60	4362
2026-01-22 10:42:05.66	193.02	25.03	-44.8	-45.9	21.3	0.00e+00	0	41	0	404750336	60	4274
2026-01-22 10:42:06.65	193.15	25.18	-44.9	-46.1	21.2	0.00e+00	0	41	0	406847488	60	4370
2026-01-22 10:42:07.62	193.29	25.31	-44.8	-45.9	21.3	0.00e+00	0	41	0	407896064	60	4267
2026-01-22 10:42:08.61	193.42	25.46	-44.9	-46.0	21.3	0.00e+00	0	41	0	409993216	60	4328
2026-01-22 10:42:09.59	193.56	25.60	-45.1	-46.2	21.1	0.00e+00	0	41	0	412090368	61	4183
2026-01-22 10:42:10.57	193.69	25.74	-45.1	-46.3	21.0	0.00e+00	0	41	0	414187520	61	4224
2026-01-22 10:42:11.55	193.83	25.88	-45.1	-46.3	21.0	0.00e+00	0	41	0	415236096	61	4216
2026-01-22 10:42:12.54	193.97	26.03	-45.2	-46.4	20.9	0.00e+00	0	41	0	417333248	61	4280
2026-01-22 10:42:13.52	194.11	26.17	-45.2	-46.4	21.0	0.00e+00	0	41	0	419430400	61	4256
2026-01-22 10:42:14.50	194.25	26.32	-45.1	-46.3	21.0	0.00e+00	0	41	0	421527552	61	4199
2026-01-22 10:42:15.49	194.40	26.46	-45.0	-46.2	21.1	0.00e+00	0	41	0	422576128	61	4153
2026-01-22 10:42:16.48	194.54	26.61	-45.3	-46.5	20.8	0.00e+00	0	41	0	424673280	61	4314
2026-01-22 10:42:17.46	194.69	26.76	-45.1	-46.3	21.1	0.00e+00	0	41	0	426770432	61	4202
2026-01-22 10:42:18.45	194.84	26.90	-45.4	-46.6	20.8	0.00e+00	0	40	0	428867584	61	4359
2026-01-22 10:42:19.43	194.99	27.05	-45.1	-46.2	21.1	0.00e+00	0	41	0	429916160	61	4186
2026-01-22 10:42:20.42	195.14	27.20	-45.2	-46.4	20.9	0.00e+00	0	41	0	432013312	61	4275
2026-01-22 10:42:21.40	195.29	27.35	-45.3	-46.5	20.8	0.00e+00	0	41	0	434110464	61	4332
2026-01-22 10:42:22.38	195.44	27.50	-45.1	-46.3	21.0	0.00e+00	0	41	0	436207616	61	4209
2026-01-22 10:42:23.37	195.59	27.65	-45.1	-46.3	21.0	0.00e+00	0	41	0	437256192	61	4224
2026-01-22 10:42:24.35	195.75	27.80	-45.3	-46.5	20.9	0.00e+00	0	41	0	439353344	61	4307
2026-01-22 10:42:25.34	195.91	27.95	-45.4	-46.7	20.7	0.00e+00	0	41	0	441450496	61	4411
2026-01-22 10:42:26.32	196.06	28.11	-45.5	-46.7	20.7	0.00e+00	0	41	0	443547648	61	4421
2026-01-22 10:42:27.31	196.23	28.26	-45.8	-47.2	20.3	0.00e+00	0	41	0	444596224	62	4407
2026-01-22 10:42:28.29	196.39	28.41	-45.9	-47.3	20.3	0.00e+00	0	41	0	446693376	62	4460
2026-01-22 10:42:29.26	196.55	28.57	-46.0	-47.4	20.1	0.00e+00	0	41	0	448790528	62	4513
2026-01-22 10:42:30.24	196.71	28.72	-46.3	-47.7	19.8	0.00e+00	0	41	0	450887680	63	4420
2026-01-22 10:42:31.22	196.88	28.87	-46.3	-47.7	19.7	0.00e+00	0	41	0	452984832	63	4420
2026-01-22 10:42:32.20	197.04	29.03	-46.6	-48.0	19.5	0.00e+00	0	41	0	454033408	63	4576
2026-01-22 10:42:33.17	197.21	29.18	-46.7	-48.2	19.3	0.00e+00	0	41	0	456130560	64	4398
2026-01-22 10:42:34.15	197.38	29.34	-46.6	-48.1	19.3	0.00e+00	0	41	0	458227712	64	4368
2026-01-22 10:42:35.14	197.55	29.50	-46.9	-48.5	18.9	0.00e+00	0	41	0	460324864	64	4548
2026-01-22 10:42:36.12	197.73	29.66	-46.8	-48.2	19.2	0.00e+00	0	41	0	461373440	64	4437
2026-01-22 10:42:37.10	197.90	29.82	-47.3	-49.0	18.6	0.00e+00	0	41	0	463470592	65	4548
2026-01-22 10:42:38.08	198.08	29.98	-47.2	-48.9	18.7	0.00e+00	0	41	0	465567744	65	4494
2026-01-22 10:42:39.06	198.25	30.13	-47.6	-49.4	18.2	0.00e+00	0	41	0	467664896	65	4760
2026-01-22 10:42:40.04	198.43	30.30	-47.8	-49.6	18.0	0.00e+00	0	41	0	468713472	66	4643
2026-01-22 10:42:41.02	198.62	30.46	-47.7	-49.6	17.9	0.00e+00	0	41	0	470810624	66	4603
2026-01-22 10:42:42.00	198.80	30.62	-48.0	-49.9	17.7	0.00e+00	0	41	0	472907776	66	4773
2026-01-22 10:42:42.99	198.99	30.78	-47.7	-49.5	18.1	0.00e+00	0	41	0	475004928	66	4582
2026-01-22 10:42:43.97	199.17	30.94	-47.6	-49.3	18.3	0.00e+00	0	41	0	476053504	66	4466
2026-01-22 10:42:44.95	199.36	31.11	-47.7	-49.4	18.1	0.00e+00	0	41	0	478150656	66	4526
2026-01-22 10:42:45.94	199.56	31.27	-47.5	-49.2	18.3	0.00e+00	0	41	0	480247808	66	4434
2026-01-22 10:42:46.92	199.75	31.44	-47.5	-49.1	18.4	0.00e+00	0	41	0	482344960	66	4388
2026-01-22 10:42:47.91	199.95	31.60	-47.4	-49.1	18.5	0.00e+00	0	41	0	483393536	66	4365
2026-01-22 10:42:48.89	200.14	31.77	-47.3	-49.0	18.6	0.00e+00	0	41	0	485490688	66	4317
2026-01-22 10:42:49.88	200.34	31.94	-47.2	-48.8	18.7	0.00e+00	0	41	0	487587840	66	4222
2026-01-22 10:42:50.86	200.54	32.10	-47.4	-49.1	18.5	0.00e+00	0	41	0	489684992	66	4364
2026-01-22 10:42:51.84	200.75	32.27	-47.3	-49.0	18.6	0.00e+00	0	41	0	490733568	66	4293
2026-01-22 10:42:52.82	200.95	32.44	-47.3	-48.9	18.6	0.00e+00	0	41	0	492830720	66	4283
2026-01-22 10:42:53.80	201.16	32.61	-47.1	-48.6	18.9	0.00e+00	0	41	0	494927872	65	4387
2026-01-22 10:42:54.78	201.37	32.78	-46.8	-48.3	19.2	0.00e+00	0	41	0	497025024	65	4218
2026-01-22 10:42:55.77	201.58	32.95	-46.4	-47.8	19.7	0.00e+00	0	41	0	498073600	64	4228
2026-01-22 10:42:56.74	201.79	33.11	-46.1	-47.5	20.0	0.00e+00	0	41	0	500170752	64	4082
2026-01-22 10:42:57.72	202.01	33.29	-46.4	-47.8	19.7	0.00e+00	0	41	0	502267904	64	4234
2026-01-22 10:42:58.70	202.22	33.46	-46.5	-48.0	19.6	0.00e+00	0	41	0	504365056	64	4296
2026-01-22 10:42:59.68	202.44	33.63	-46.7	-48.3	19.3	0.00e+00	0	41	0	505413632	64	4444
2026-01-22 10:43:00.67	202.67	33.80	-46.9	-48.4	19.2	0.00e+00	0	41	0	507510784	64	4532
2026-01-22 10:43:01.65	202.89	33.97	-47.1	-48.8	18.8	0.00e+00	0	41	0	509607936	64	4718
2026-01-22 10:43:02.63	203.12	34.15	-46.3	-47.7	19.8	0.00e+00	0	41	0	511705088	64	4175
2026-01-22 10:43:03.61	203.35	34.32	-46.2	-47.6	19.9	0.00e+00	0	41	0	512753664	64	4112
2026-01-22 10:43:04.59	203.58	34.49	-46.0	-47.3	20.4	0.00e+00	0	41	0	514850816	63	4216
2026-01-22 10:43:05.57	203.82	34.67	-46.2	-47.5	20.0	0.00e+00	0	41	0	516947968	63	4338
2026-01-22 10:43:06.55	204.05	34.84	-46.3	-47.6	20.0	0.00e+00	0	41	0	519045120	63	4360
2026-01-22 10:43:07.52	204.29	35.02	-46.3	-47.7	19.9	0.00e+00	0	41	0	521142272	63	4414
2026-01-22 10:43:08.50	204.53	35.19	-46.3	-47.6	20.1	0.00e+00	0	41	0	522190848	63	4366
2026-01-22 10:43:09.47	204.77	35.37	-46.2	-47.5	20.1	0.00e+00	0	41	0	524288000	63	4300
2026-01-22 10:43:10.45	205.02	35.54	-46.4	-47.7	19.9	0.00e+00	0	41	0	526385152	63	4420
2026-01-22 10:43:11.43	205.27	35.72	-45.8	-47.0	20.5	0.00e+00	0	41	0	527433728	63	4093
2026-01-22 10:43:12.41	205.52	35.90	-45.9	-47.2	20.4	0.00e+00	0	41	0	529530880	63	4174
2026-01-22 10:43:13.39	205.77	36.07	-45.6	-46.9	20.8	0.00e+00	0	41	0	531628032	63	4008
2026-01-22 10:43:14.37	206.03	36.25	-45.8	-47.1	20.5	0.00e+00	0	41	0	533725184	63	4116
2026-01-22 10:43:15.34	206.29	36.43	-45.6	-46.9	20.7	0.00e+00	0	41	0	534773760	63	4017
2026-01-22 10:43:16.32	206.55	36.61	-45.3	-46.5	21.0	0.00e+00	0	41	0	536870912	62	4070
2026-01-22 10:43:17.30	206.82	36.79	-44.9	-46.0	21.5	0.00e+00	0	41	0	538968064	61	4083
2026-01-22 10:43:18.27	207.08	36.96	-45.0	-46.2	21.3	0.00e+00	0	41	0	541065216	61	4161
2026-01-22 10:43:19.25	207.35	37.14	-45.1	-46.2	21.3	0.00e+00	0	41	0	542113792	61	4181
2026-01-22 10:43:20.23	207.63	37.32	-45.0	-46.1	21.3	0.00e+00	0	41	0	544210944	61	4138
2026-01-22 10:43:21.21	207.91	37.50	-45.3	-46.5	21.0	0.00e+00	0	41	0	546308096	61	4320
2026-01-22 10:43:22.19	208.19	37.68	-45.1	-46.3	21.2	0.00e+00	0	41	0	548405248	61	4196
2026-01-22 10:43:23.17	208.47	37.86	-45.1	-46.3	21.2	0.00e+00	0	41	0	549453824	61	4214
2026-01-22 10:43:24.16	208.76	38.05	-44.8	-45.9	21.5	0.00e+00	0	41	0	551550976	61	4006
2026-01-22 10:43:25.14	209.05	38.23	-44.5	-45.6	21.8	0.00e+00	0	41	0	553648128	61	3878
2026-01-22 10:43:26.12	209.34	38.41	-44.6	-45.7	21.7	0.00e+00	0	41	0	555745280	61	3935
2026-01-22 10:43:27.10	209.64	38.59	-44.4	-45.5	21.9	0.00e+00	0	41	0	556793856	60	4059
2026-01-22 10:43:28.08	209.94	38.77	-44.6	-45.7	21.8	0.00e+00	0	41	0	558891008	60	4151
2026-01-22 10:43:29.06	210.24	38.95	-44.9	-46.0	21.4	0.00e+00	0	41	0	560988160	60	4340
2026-01-22 10:43:30.05	210.55	39.14	-45.2	-46.4	21.1	0.00e+00	0	41	0	563085312	61	4265
2026-01-22 10:43:31.03	210.86	39.32	-45.1	-46.3	21.1	0.00e+00	0	41	0	565182464	61	4228
2026-01-22 10:43:32.01	211.17	39.50	-45.9	-47.2	20.5	0.00e+00	0	41	0	566231040	62	4397
2026-01-22 10:43:32.99	211.49	39.68	-45.8	-47.1	20.5	0.00e+00	0	41	0	568328192	62	4346
2026-01-22 10:43:33.98	211.81	39.86	-45.8	-47.0	20.6	0.00e+00	0	41	0	570425344	62	4324
2026-01-22 10:43:34.96	212.14	40.05	-45.6	-46.8	20.8	0.00e+00	0	41	0	571473920	62	4238
2026-01-22 10:43:35.94	212.46	40.23	-45.4	-46.6	20.9	0.00e+00	0	41	0	573571072	62	4132
2026-01-22 10:43:36.92	212.79	40.41	-45.4	-46.6	21.0	0.00e+00	0	41	0	575668224	62	4134
2026-01-22 10:43:37.90	213.13	40.59	-45.4	-46.7	21.0	0.00e+00	0	41	0	577765376	62	4148
2026-01-22 10:43:38.88	213.47	40.77	-45.2	-46.4	21.1	0.00e+00	0	41	0	578813952	62	4029
2026-01-22 10:43:39.86	213.81	40.95	-45.0	-46.1	21.4	0.00e+00	0	41	0	580911104	61	4113
2026-01-22 10:43:40.83	214.15	41.13	-45.2	-46.3	21.1	0.00e+00	0	41	0	583008256	61	4242
2026-01-22 10:43:41.80	214.50	41.31	-45.0	-46.2	21.2	0.00e+00	0	41	0	585105408	61	4156
2026-01-22 10:43:42.78	214.85	41.49	-45.5	-46.8	20.8	0.00e+00	0	41	0	586153984	61	4445
2026-01-22 10:43:43.75	215.20	41.67	-45.6	-46.8	20.8	0.00e+00	0	41	0	588251136	61	4464
2026-01-22 10:43:44.73	215.56	41.85	-46.1	-47.4	20.3	0.00e+00	0	41	0	590348288	62	4500
2026-01-22 10:43:45.71	215.93	42.02	-45.9	-47.2	20.4	0.00e+00	0	41	0	592445440	62	4418
2026-01-22 10:43:46.69	216.30	42.20	-45.7	-46.9	20.7	0.00e+00	0	41	0	593494016	62	4277
2026-01-22 10:43:47.67	216.67	42.38	-45.6	-46.8	20.8	0.00e+00	0	41	0	595591168	62	4210
2026-01-22 10:43:48.65	217.05	42.56	-45.4	-46.5	21.0	0.00e+00	0	41	0	597688320	62	4094
2026-01-22 10:43:49.63	217.43	42.74	-45.4	-46.6	21.0	0.00e+00	0	41	0	599785472	62	4103
2026-01-22 10:43:50.60	217.81	42.91	-45.2	-46.4	21.1	0.00e+00	0	41	0	600834048	62	4037
2026-01-22 10:43:51.58	218.20	43.09	-45.1	-46.2	21.4	0.00e+00	0	41	0	602931200	62	3936
2026-01-22 10:43:52.57	218.60	43.26	-45.1	-46.2	21.3	0.00e+00	0	41	0	605028352	61	4190
2026-01-22 10:43:53.55	219.00	43.44	-44.9	-46.0	21.5	0.00e+00	0	41	0	607125504	61	4095
2026-01-22 10:43:54.54	219.40	43.61	-45.4	-46.5	21.0	0.00e+00	0	41	0	609222656	61	4331
2026-01-22 10:43:55.53	219.81	43.79	-45.5	-46.7	20.9	0.00e+00	0	41	0	610271232	61	4415
2026-01-22 10:43:56.51	220.22	43.96	-45.5	-46.7	20.9	0.00e+00	0	41	0	612368384	61	4410
2026-01-22 10:43:57.50	220.64	44.14	-45.4	-46.6	20.9	0.00e+00	0	41	0	614465536	61	4390
2026-01-22 10:43:58.48	221.06	44.31	-45.6	-46.9	20.8	0.00e+00	0	41	0	616562688	61	4497
2026-01-22 10:43:59.46	221.49	44.48	-46.0	-47.3	20.4	0.00e+00	0	41	0	617611264	62	4446
2026-01-22 10:44:00.45	221.92	44.65	-46.1	-47.4	20.3	0.00e+00	0	41	0	619708416	62	4531
2026-01-22 10:44:01.42	222.35	44.81	-46.3	-47.7	20.0	0.00e+00	0	41	0	621805568	63	4418
2026-01-22 10:44:02.40	222.79	44.98	-46.6	-48.0	19.6	0.00e+00	0	41	0	622854144	64	4332
2026-01-22 10:44:03.39	223.23	45.14	-46.9	-48.4	19.3	0.00e+00	0	41	0	624951296	64	4530
2026-01-22 10:44:04.38	223.69	45.31	-47.1	-48.6	19.1	0.00e+00	0	41	0	627048448	64	4644
2026-01-22 10:44:05.36	224.14	45.47	-46.9	-48.4	19.3	0.00e+00	0	41	0	629145600	64	4544
2026-01-22 10:44:06.34	224.59	45.64	-46.4	-47.9	19.8	0.00e+00	0	41	0	631242752	64	4252
2026-01-22 10:44:07.32	225.05	45.80	-46.2	-47.5	20.1	0.00e+00	0	41	0	632291328	64	4095
2026-01-22 10:44:08.30	225.52	45.95	-45.8	-47.1	20.6	0.00e+00	0	41	0	634388480	63	4110
2026-01-22 10:44:09.29	226.00	46.11	-45.6	-46.9	20.8	0.00e+00	0	41	0	636485632	63	4014
2026-01-22 10:44:10.27	226.47	46.27	-45.7	-47.0	20.7	0.00e+00	0	41	0	638582784	63	4060
2026-01-22 10:44:11.26	226.95	46.43	-45.9	-47.1	20.6	0.00e+00	0	41	0	639631360	63	4135
2026-01-22 10:44:12.24	227.44	46.58	-45.8	-47.1	20.6	0.00e+00	0	41	0	641728512	63	4114
2026-01-22 10:44:13.22	227.93	46.73	-45.7	-47.0	20.8	0.00e+00	0	41	0	643825664	63	4062
2026-01-22 10:44:14.20	228.42	46.88	-45.4	-46.6	21.0	0.00e+00	0	41	0	645922816	62	4126
2026-01-22 10:44:15.18	228.92	47.03	-45.3	-46.5	21.1	0.00e+00	0	41	0	646971392	62	4074
2026-01-22 10:44:16.15	229.42	47.17	-45.2	-46.3	21.3	0.00e+00	0	41	0	649068544	62	3991
2026-01-22 10:44:17.13	229.92	47.31	-45.2	-46.4	21.3	0.00e+00	0	41	0	651165696	62	4011
2026-01-22 10:44:18.10	230.43	47.46	-45.3	-46.5	21.2	0.00e+00	0	41	0	653262848	61	4292
2026-01-22 10:44:19.07	230.94	47.59	-45.6	-46.8	20.9	0.00e+00	0	41	0	654311424	62	4207
2026-01-22 10:44:20.04	231.46	47.73	-46.3	-47.6	20.2	0.00e+00	0	41	0	656408576	63	4360
2026-01-22 10:44:21.01	231.98	47.87	-46.0	-47.3	20.4	0.00e+00	0	41	0	658505728	63	4214
2026-01-22 10:44:21.99	232.51	48.00	-45.9	-47.2	20.5	0.00e+00	0	41	0	660602880	63	4155
2026-01-22 10:44:22.96	233.04	48.13	-46.1	-47.4	20.3	0.00e+00	0	41	0	661651456	63	4285
2026-01-22 10:44:23.93	233.57	48.26	-45.7	-46.9	20.7	0.00e+00	0	41	0	663748608	63	4046
2026-01-22 10:44:24.90	234.11	48.38	-45.7	-46.9	20.7	0.00e+00	0	41	0	665845760	63	4047
2026-01-22 10:44:25.87	234.65	48.51	-45.0	-46.1	21.5	0.00e+00	0	41	0	667942912	61	4134
2026-01-22 10:44:26.84	235.20	48.63	-44.5	-45.6	21.9	0.00e+00	0	41	0	668991488	61	3880
2026-01-22 10:44:27.81	235.75	48.75	-44.8	-45.9	21.6	0.00e+00	0	40	0	671088640	61	4039
2026-01-22 10:44:28.79	236.31	48.86	-45.1	-46.2	21.4	0.00e+00	0	41	0	673185792	61	4178
2026-01-22 10:44:29.76	236.87	48.98	-45.3	-46.4	21.2	0.00e+00	0	41	0	674234368	61	4289
2026-01-22 10:44:30.73	237.43	49.09	-45.1	-46.3	21.4	0.00e+00	0	41	0	676331520	61	4199
2026-01-22 10:44:31.70	238.00	49.20	-44.8	-45.9	21.7	0.00e+00	0	41	0	678428672	61	4036
2026-01-22 10:44:32.67	238.57	49.30	-45.5	-46.7	21.0	0.00e+00	0	41	0	680525824	61	4417
2026-01-22 10:44:33.64	239.14	49.41	-45.3	-46.4	21.2	0.00e+00	0	41	0	681574400	61	4275
2026-01-22 10:44:34.61	239.72	49.51	-45.2	-46.3	21.3	0.00e+00	0	41	0	683671552	61	4225
2026-01-22 10:44:35.58	240.30	49.60	-45.6	-46.8	20.8	0.00e+00	0	41	0	685768704	61	4481
2026-01-22 10:44:36.56	240.89	49.70	-45.7	-47.0	20.8	0.00e+00	0	41	0	687865856	62	4309
2026-01-22 10:44:37.53	241.48	49.79	-45.3	-46.4	21.2	0.00e+00	0	41	0	688914432	62	4045
2026-01-22 10:44:38.50	242.08	49.88	-44.3	-45.3	22.1	0.00e+00	0	41	0	691011584	60	3986
2026-01-22 10:44:39.47	242.67	49.96	-44.3	-45.3	22.4	0.00e+00	0	41	0	693108736	59	4219
2026-01-22 10:44:40.44	243.27	50.05	-44.3	-45.4	22.1	0.00e+00	0	41	0	695205888	60	4011
2026-01-22 10:44:41.42	243.88	50.13	-44.6	-45.6	21.9	0.00e+00	0	41	0	696254464	60	4135
2026-01-22 10:44:42.39	244.49	50.20	-44.3	-45.3	22.1	0.00e+00	0	40	0	698351616	60	3976
2026-01-22 10:44:43.36	245.09	50.27	-44.3	-45.3	22.1	0.00e+00	0	41	0	700448768	60	3982
2026-01-22 10:44:44.33	245.71	50.34	-44.4	-45.5	22.0	0.00e+00	0	41	0	702545920	60	4072
2026-01-22 10:44:45.31	246.33	50.41	-44.4	-45.4	22.1	0.00e+00	0	41	0	703594496	60	4031
2026-01-22 10:44:46.28	246.94	50.47	-44.2	-45.2	22.5	0.00e+00	0	41	0	705691648	59	4188
2026-01-22 10:44:47.25	247.56	50.53	-43.8	-44.8	22.9	0.00e+00	0	41	0	707788800	59	3972
2026-01-22 10:44:48.22	248.18	50.59	-44.4	-45.4	22.4	0.00e+00	0	41	0	708837376	59	4276
2026-01-22 10:44:49.19	248.81	50.64	-44.7	-45.8	21.8	0.00e+00	0	41	0	710934528	60	4234
2026-01-22 10:44:50.15	249.43	50.69	-45.0	-46.1	21.5	0.00e+00	0	41	0	713031680	60	4356
2026-01-22 10:44:51.12	250.05	50.73	-44.8	-46.0	21.7	0.00e+00	0	41	0	715128832	60	4300
2026-01-22 10:44:52.09	250.68	50.78	-44.7	-45.8	21.8	0.00e+00	0	41	0	716177408	60	4216
2026-01-22 10:44:53.06	251.32	50.82	-44.4	-45.4	22.3	0.00e+00	0	41	0	718274560	59	4290
2026-01-22 10:44:54.03	251.95	50.85	-43.5	-44.4	23.1	0.00e+00	0	41	0	720371712	59	3801
2026-01-22 10:44:55.00	252.58	50.88	-43.5	-44.4	23.1	0.00e+00	0	41	0	722468864	58	4040
2026-01-22 10:44:55.97	253.22	50.91	-44.7	-45.8	22.1	0.00e+00	0	41	0	723517440	59	4450
2026-01-22 10:44:56.95	253.86	50.93	-45.5	-46.7	20.9	0.00e+00	0	41	0	725614592	61	4433
2026-01-22 10:44:57.92	254.50	50.95	-45.4	-46.6	21.1	0.00e+00	0	41	0	727711744	61	4366
2026-01-22 10:44:58.89	255.14	50.97	-45.4	-46.6	21.1	0.00e+00	0	41	0	729808896	61	4361
2026-01-22 10:44:59.86	255.77	50.98	-45.4	-46.7	21.0	0.00e+00	0	41	0	730857472	62	4151
2026-01-22 10:45:00.83	256.41	50.99	-44.7	-45.8	21.8	0.00e+00	0	41	0	732954624	61	3971
2026-01-22 10:45:01.80	257.05	51.00	-43.9	-44.9	22.8	0.00e+00	0	41	0	735051776	59	4020
2026-01-22 10:45:02.78	257.70	51.00	-44.1	-45.1	22.6	0.00e+00	0	41	0	737148928	59	4132
2026-01-22 10:45:03.75	258.34	51.00	-44.6	-45.7	21.8	0.00e+00	0	41	0	738197504	60	4158
2026-01-22 10:45:04.72	258.98	50.99	-45.4	-46.6	21.1	0.00e+00	0	41	0	740294656	61	4362
2026-01-22 10:45:05.69	259.62	50.99	-45.0	-46.2	21.4	0.00e+00	0	41	0	742391808	61	4166
2026-01-22 10:45:06.66	260.26	50.97	-44.4	-45.4	22.1	0.00e+00	0	41	0	743440384	60	4024
2026-01-22 10:45:07.63	260.89	50.96	-44.3	-45.4	22.1	0.00e+00	0	41	0	745537536	60	4018
2026-01-22 10:45:08.60	261.53	50.94	-44.8	-46.0	21.6	0.00e+00	0	41	0	747634688	60	4303
2026-01-22 10:45:09.57	262.17	50.91	-44.8	-45.9	21.7	0.00e+00	0	41	0	749731840	60	4277
2026-01-22 10:45:10.53	262.80	50.89	-44.2	-45.2	22.5	0.00e+00	0	41	0	750780416	59	4153
2026-01-22 10:45:11.50	263.43	50.86	-43.4	-44.4	23.2	0.00e+00	0	41	0	752877568	58	4020
2026-01-22 10:45:12.47	264.06	50.82	-43.8	-44.8	22.9	0.00e+00	0	41	0	754974720	58	4214
2026-01-22 10:45:13.44	264.69	50.78	-44.7	-45.7	22.1	0.00e+00	0	41	0	757071872	59	4440
2026-01-22 10:45:14.41	265.32	50.74	-44.3	-45.3	22.2	0.00e+00	0	41	0	758120448	60	3994
2026-01-22 10:45:15.39	265.96	50.70	-44.4	-45.5	22.1	0.00e+00	0	41	0	760217600	60	4054
2026-01-22 10:45:16.36	266.58	50.65	-45.0	-46.2	21.5	0.00e+00	0	41	0	762314752	60	4409
2026-01-22 10:45:17.33	267.21	50.60	-45.1	-46.3	21.3	0.00e+00	0	41	0	764411904	61	4229
2026-01-22 10:45:18.30	267.83	50.54	-45.0	-46.2	21.6	0.00e+00	0	41	0	765460480	61	4153
2026-01-22 10:45:19.28	268.45	50.48	-45.2	-46.4	21.2	0.00e+00	0	41	0	767557632	61	4281
2026-01-22 10:45:20.25	269.07	50.42	-45.3	-46.4	21.2	0.00e+00	0	41	0	769654784	61	4285
2026-01-22 10:45:21.22	269.68	50.35	-45.1	-46.2	21.4	0.00e+00	0	41	0	771751936	61	4183
2026-01-22 10:45:22.20	270.30	50.28	-44.7	-45.8	21.8	0.00e+00	0	41	0	772800512	61	3972
2026-01-22 10:45:23.16	270.90	50.21	-44.7	-45.8	21.8	0.00e+00	0	41	0	774897664	60	4223
2026-01-22 10:45:24.13	271.51	50.14	-45.3	-46.5	21.3	0.00e+00	0	41	0	776994816	61	4300
2026-01-22 10:45:25.10	272.11	50.06	-45.3	-46.4	21.3	0.00e+00	0	41	0	778043392	61	4270
2026-01-22 10:45:26.07	272.71	49.98	-45.1	-46.2	21.5	0.00e+00	0	41	0	780140544	61	4165
2026-01-22 10:45:27.04	273.31	49.89	-45.6	-46.8	20.9	0.00e+00	0	41	0	782237696	61	4463
2026-01-22 10:45:28.02	273.91	49.80	-46.6	-48.0	19.9	0.00e+00	0	41	0	784334848	63	4546
2026-01-22 10:45:28.99	274.50	49.71	-48.0	-49.8	18.2	0.00e+00	0	41	0	785383424	66	4708
2026-01-22 10:45:29.96	275.08	49.62	-48.0	-49.7	18.2	0.00e+00	0	41	0	787480576	67	4432
2026-01-22 10:45:30.93	275.66	49.52	-47.2	-48.7	19.1	0.00e+00	0	41	0	789577728	66	4188
2026-01-22 10:45:31.90	276.24	49.42	-46.2	-47.5	20.3	0.00e+00	0	41	0	791674880	63	4322
2026-01-22 10:45:32.87	276.82	49.32	-46.7	-48.2	19.8	0.00e+00	0	41	0	792723456	63	4657
2026-01-22 10:45:33.84	277.39	49.22	-47.7	-49.3	18.6	0.00e+00	0	41	0	794820608	66	4489
2026-01-22 10:45:34.81	277.95	49.11	-48.3	-50.1	17.8	0.00e+00	0	41	0	796917760	67	4619
2026-01-22 10:45:35.78	278.52	49.00	-47.6	-49.2	18.7	0.00e+00	0	41	0	799014912	67	4147
2026-01-22 10:45:36.75	279.07	48.89	-48.0	-49.7	18.1	0.00e+00	0	41	0	800063488	67	4421
2026-01-22 10:45:37.72	279.63	48.77	-49.3	-51.5	16.6	0.00e+00	0	41	0	802160640	69	4830
2026-01-22 10:45:38.70	280.19	48.65	-49.5	-51.7	16.3	0.00e+00	0	41	0	804257792	70	4698
2026-01-22 10:45:39.67	280.73	48.53	-49.2	-51.3	16.9	0.00e+00	0	41	0	805306368	70	4447
2026-01-22 10:45:40.64	281.27	48.41	-48.6	-50.5	17.5	0.00e+00	0	41	0	807403520	69	4330
2026-01-22 10:45:41.61	281.81	48.28	-49.2	-51.3	16.7	0.00e+00	0	41	0	809500672	69	4749
2026-01-22 10:45:42.57	282.34	48.16	-49.3	-51.5	16.6	0.00e+00	0	41	0	811597824	69	4851
2026-01-22 10:45:43.55	282.87	48.03	-49.0	-51.0	16.9	0.00e+00	0	41	0	812646400	70	4323
2026-01-22 10:45:44.52	283.40	47.89	-49.5	-51.7	16.5	0.00e+00	0	41	0	814743552	69	4970
2026-01-22 10:45:45.49	283.92	47.76	-50.7	-53.8	14.4	0.00e+00	0	41	0	816840704	71	5615
2026-01-22 10:45:46.46	284.43	47.62	-50.2	-53.0	14.9	7.00e-07	0	41	0	818937856	72	4842
2026-01-22 10:45:47.43	284.94	47.49	-49.6	-52.1	16.1	0.00e+00	0	41	0	819986432	71	4608
2026-01-22 10:45:48.41	285.46	47.35	-49.9	-52.3	15.7	0.00e+00	0	41	0	822083584	71	4757
2026-01-22 10:45:49.38	285.96	47.20	-49.0	-51.0	17.1	0.00e+00	0	41	0	824180736	70	4331
2026-01-22 10:45:50.35	286.46	47.06	-49.1	-51.2	16.9	0.00e+00	0	41	0	826277888	69	4682
2026-01-22 10:45:51.32	286.95	46.91	-48.5	-50.3	17.8	0.00e+00	0	41	0	827326464	68	4469
2026-01-22 10:45:52.29	287.44	46.77	-49.2	-51.3	16.9	0.00e+00	0	41	0	829423616	68	5016
2026-01-22 10:45:53.26	287.92	46.62	-49.3	-51.5	16.6	0.00e+00	0	41	0	831520768	69	4864
2026-01-22 10:45:54.24	288.41	46.47	-49.0	-51.1	17.3	0.00e+00	0	41	0	833617920	69	4606
2026-01-22 10:45:55.21	288.88	46.31	-48.5	-50.4	17.7	0.00e+00	0	41	0	834666496	68	4507
2026-01-22 10:45:56.18	289.35	46.16	-48.3	-50.2	17.9	0.00e+00	0	41	0	836763648	68	4393
2026-01-22 10:45:57.16	289.82	46.00	-49.1	-51.2	16.9	0.00e+00	0	41	0	838860800	68	4975
2026-01-22 10:45:58.13	290.28	45.85	-48.7	-50.6	17.5	0.00e+00	0	41	0	840957952	69	4355
2026-01-22 10:45:59.10	290.74	45.69	-48.7	-50.6	17.5	0.00e+00	0	41	0	842006528	68	4600
2026-01-22 10:46:00.06	291.18	45.53	-49.1	-51.1	17.0	0.00e+00	0	41	0	844103680	68	4926
2026-01-22 10:46:01.03	291.63	45.37	-50.2	-52.9	15.4	0.00e+00	0	41	0	846200832	70	5342
2026-01-22 10:46:02.00	292.08	45.21	-50.8	-54.0	14.1	0.00e+00	0	41	0	847249408	72	5457
2026-01-22 10:46:02.98	292.52	45.05	-50.2	-52.9	15.1	1.14e-05	0	41	0	849346560	72	4789
2026-01-22 10:46:03.95	292.95	44.88	-48.0	-49.7	18.3	0.00e+00	0	41	0	851443712	68	4153
2026-01-22 10:46:04.91	293.38	44.72	-47.1	-48.5	19.2	0.00e+00	0	41	0	853540864	66	4087
2026-01-22 10:46:05.89	293.81	44.55	-47.3	-48.8	19.1	0.00e+00	0	41	0	854589440	66	4214
2026-01-22 10:46:06.86	294.23	44.38	-47.6	-49.2	18.6	0.00e+00	0	41	0	856686592	66	4399
2026-01-22 10:46:07.83	294.64	44.22	-47.5	-49.1	18.8	0.00e+00	0	41	0	858783744	66	4361
2026-01-22 10:46:08.80	295.06	44.05	-46.7	-48.1	19.6	0.00e+00	0	41	0	860880896	65	4142
2026-01-22 10:46:09.77	295.46	43.88	-45.7	-46.9	20.9	0.00e+00	0	41	0	861929472	63	4027
2026-01-22 10:46:10.74	295.87	43.71	-45.2	-46.3	21.5	0.00e+00	0	41	0	864026624	62	3962
2026-01-22 10:46:11.72	296.27	43.54	-45.1	-46.2	21.4	0.00e+00	0	41	0	866123776	61	4186
2026-01-22 10:46:12.68	296.66	43.37	-45.3	-46.5	21.3	0.00e+00	0	41	0	867172352	61	4297
2026-01-22 10:46:13.65	297.05	43.19	-44.8	-45.9	21.8	0.00e+00	0	41	0	869269504	61	4032
2026-01-22 10:46:14.63	297.44	43.02	-44.3	-45.3	22.3	0.00e+00	0	41	0	871366656	60	3993
2026-01-22 10:46:15.60	297.83	42.84	-44.3	-45.3	22.7	0.00e+00	0	41	0	873463808	59	4202
2026-01-22 10:46:16.57	298.21	42.67	-44.5	-45.5	22.3	0.00e+00	0	41	0	874512384	59	4339
2026-01-22 10:46:17.54	298.58	42.49	-44.4	-45.4	22.2	0.00e+00	0	41	0	876609536	60	4048
2026-01-22 10:46:18.51	298.95	42.32	-44.8	-45.9	21.8	0.00e+00	0	41	0	878706688	60	4249
2026-01-22 10:46:19.48	299.32	42.14	-44.5	-45.6	22.0	0.00e+00	0	41	0	880803840	60	4102
2026-01-22 10:46:20.45	299.68	41.97	-44.2	-45.2	22.4	0.00e+00	0	41	0	881852416	60	3939
2026-01-22 10:46:21.42	300.04	41.79	-44.2	-45.2	22.3	0.00e+00	0	41	0	883949568	60	3942
2026-01-22 10:46:22.39	300.39	41.61	-44.8	-45.9	21.8	0.00e+00	0	41	0	886046720	60	4258
2026-01-22 10:46:23.36	300.74	41.44	-45.4	-46.6	21.1	0.00e+00	0	41	0	888143872	61	4352
2026-01-22 10:46:24.33	301.09	41.26	-44.9	-46.0	21.7	0.00e+00	0	41	0	889192448	61	4053
2026-01-22 10:46:25.30	301.43	41.08	-44.8	-45.9	21.7	0.00e+00	0	41	0	891289600	61	4029
2026-01-22 10:46:26.27	301.77	40.90	-44.2	-45.2	22.3	0.00e+00	0	41	0	893386752	60	3920
2026-01-22 10:46:27.25	302.11	40.72	-44.3	-45.3	22.5	0.00e+00	0	41	0	895483904	59	4225
2026-01-22 10:46:28.22	302.45	40.54	-44.4	-45.4	22.2	0.00e+00	0	41	0	896532480	60	4030
2026-01-22 10:46:29.20	302.78	40.36	-45.2	-46.4	21.3	0.00e+00	0	41	0	898629632	60	4510
2026-01-22 10:46:30.17	303.10	40.19	-46.0	-47.2	20.5	0.00e+00	0	41	0	900726784	62	4425
2026-01-22 10:46:31.14	303.43	40.01	-45.8	-47.0	20.7	0.00e+00	0	41	0	902823936	62	4330
2026-01-22 10:46:32.11	303.74	39.83	-45.7	-46.9	20.9	0.00e+00	0	41	0	903872512	62	4263
2026-01-22 10:46:33.08	304.06	39.65	-45.7	-47.0	20.8	0.00e+00	0	41	0	905969664	62	4295
2026-01-22 10:46:34.05	304.37	39.47	-45.9	-47.2	20.7	0.00e+00	0	41	0	908066816	62	4399
2026-01-22 10:46:35.02	304.68	39.29	-46.5	-47.8	20.1	0.00e+00	0	41	0	910163968	63	4474
2026-01-22 10:46:35.99	304.98	39.11	-47.3	-48.8	19.1	0.00e+00	0	41	0	911212544	65	4476
2026-01-22 10:46:36.96	305.28	38.93	-48.3	-50.2	17.7	0.00e+00	0	41	0	913309696	67	4672
2026-01-22 10:46:37.93	305.58	38.75	-49.1	-51.3	16.8	0.00e+00	0	41	0	915406848	68	5034
2026-01-22 10:46:38.91	305.88	38.57	-50.3	-53.1	15.1	0.00e+00	0	41	0	916455424	71	5192
2026-01-22 10:46:39.88	306.17	38.40	-49.8	-52.3	15.7	0.00e+00	0	41	0	918552576	71	4741
2026-01-22 10:46:40.85	306.46	38.22	-49.2	-51.5	16.6	0.00e+00	0	41	0	920649728	70	4557
2026-01-22 10:46:41.82	306.75	38.04	-48.3	-50.2	17.7	0.00e+00	0	41	0	922746880	68	4420
2026-01-22 10:46:42.79	307.03	37.86	-47.6	-49.2	18.6	0.00e+00	0	41	0	923795456	67	4192
2026-01-22 10:46:43.76	307.31	37.68	-47.3	-48.9	18.9	0.00e+00	0	41	0	925892608	66	4252
2026-01-22 10:46:44.74	307.59	37.50	-47.7	-49.4	18.5	0.00e+00	0	41	0	927989760	66	4512
2026-01-22 10:46:45.70	307.86	37.33	-48.4	-50.2	17.7	0.00e+00	0	41	0	929038336	67	4689
2026-01-22 10:46:46.67	308.13	37.15	-48.7	-50.7	17.3	0.00e+00	0	41	0	931135488	69	4413
2026-01-22 10:46:47.65	308.40	36.97	-48.1	-49.8	18.1	0.00e+00	0	41	0	933232640	68	4212
2026-01-22 10:46:48.62	308.66	36.80	-47.5	-49.0	18.8	0.00e+00	0	41	0	935329792	66	4340
2026-01-22 10:46:49.59	308.93	36.62	-47.0	-48.4	19.3	0.00e+00	0	41	0	936378368	66	4043
2026-01-22 10:46:50.55	309.18	36.45	-47.0	-48.4	19.3	0.00e+00	0	41	0	938475520	65	4278
2026-01-22 10:46:51.52	309.44	36.27	-47.8	-49.4	18.4	0.00e+00	0	41	0	940572672	66	4542
2026-01-22 10:46:52.49	309.69	36.09	-49.3	-51.5	16.7	0.00e+00	0	41	0	942669824	69	4815
2026-01-22 10:46:53.47	309.95	35.92	-50.8	-53.9	14.2	0.00e+00	0	41	0	943718400	71	5682
2026-01-22 10:46:54.44	310.19	35.74	-51.7	-56.0	12.0	5.26e-05	0	41	0	945815552	73	6493
2026-01-22 10:46:55.41	310.44	35.57	-51.7	-55.9	12.0	8.13e-04	0	41	0	947912704	74	6012
2026-01-22 10:46:56.38	310.68	35.39	-50.4	-53.3	14.5	3.80e-06	0	41	0	950009856	72	5035
2026-01-22 10:46:57.36	310.93	35.22	-48.6	-50.5	17.4	0.00e+00	0	41	0	951058432	69	4323
2026-01-22 10:46:58.33	311.17	35.05	-47.5	-49.1	18.6	0.00e+00	0	41	0	953155584	67	4099
2026-01-22 10:46:59.29	311.40	34.88	-46.6	-47.9	19.8	0.00e+00	0	41	0	955252736	65	4043
2026-01-22 10:47:00.27	311.64	34.70	-46.8	-48.2	19.5	0.00e+00	0	41	0	957349888	65	4166
2026-01-22 10:47:01.24	311.87	34.53	-46.9	-48.3	19.3	0.00e+00	0	41	0	958398464	65	4237
2026-01-22 10:47:02.21	312.09	34.36	-48.0	-49.7	18.1	0.00e+00	0	41	0	960495616	66	4679
2026-01-22 10:47:03.19	312.32	34.19	-49.1	-51.4	16.6	0.00e+00	0	41	0	962592768	69	4761
2026-01-22 10:47:04.15	312.55	34.02	-49.8	-52.3	15.7	0.00e+00	0	41	0	964689920	70	4990
2026-01-22 10:47:05.13	312.77	33.85	-49.3	-51.6	16.4	0.00e+00	0	41	0	965738496	70	4599
2026-01-22 10:47:06.10	312.99	33.68	-48.1	-49.9	17.9	0.00e+00	0	41	0	967835648	68	4282
2026-01-22 10:47:07.06	313.20	33.51	-47.2	-48.7	18.9	0.00e+00	0	41	0	969932800	66	4190
2026-01-22 10:47:08.03	313.42	33.34	-47.6	-49.2	18.6	0.00e+00	0	41	0	972029952	66	4431
2026-01-22 10:47:09.00	313.63	33.17	-48.3	-50.2	17.7	0.00e+00	0	41	0	973078528	67	4671
2026-01-22 10:47:09.97	313.84	33.01	-48.5	-50.4	17.4	0.00e+00	0	41	0	975175680	67	4781
2026-01-22 10:47:10.95	314.05	32.84	-48.9	-50.9	17.0	0.00e+00	0	41	0	977272832	68	4794
2026-01-22 10:47:11.92	314.26	32.67	-49.1	-51.2	16.7	0.00e+00	0	41	0	979369984	68	4964
2026-01-22 10:47:12.90	314.47	32.50	-49.0	-51.1	16.8	0.00e+00	0	41	0	980418560	69	4643
2026-01-22 10:47:13.87	314.67	32.34	-48.9	-51.0	16.9	0.00e+00	0	41	0	982515712	69	4558
2026-01-22 10:47:14.84	314.87	32.17	-47.8	-49.5	18.3	0.00e+00	0	41	0	984612864	67	4317
2026-01-22 10:47:15.81	315.07	32.01	-47.4	-49.0	18.6	0.00e+00	0	41	0	985661440	66	4338
2026-01-22 10:47:16.78	315.26	31.85	-47.1	-48.7	19.0	0.00e+00	0	41	0	987758592	66	4160
2026-01-22 10:47:17.75	315.46	31.68	-47.0	-48.5	19.2	0.00e+00	0	41	0	989855744	65	4313
2026-01-22 10:47:18.72	315.65	31.52	-46.4	-47.8	19.8	0.00e+00	0	41	0	991952896	64	4210
2026-01-22 10:47:19.69	315.84	31.36	-46.6	-48.0	19.6	0.00e+00	0	41	0	993001472	64	4317
2026-01-22 10:47:20.66	316.03	31.20	-46.8	-48.3	19.4	0.00e+00	0	41	0	995098624	64	4469
2026-01-22 10:47:21.63	316.22	31.04	-47.0	-48.5	19.2	0.00e+00	0	41	0	997195776	64	4569
2026-01-22 10:47:22.60	316.40	30.88	-47.5	-49.1	18.6	0.00e+00	0	41	0	998244352	65	4640
2026-01-22 10:47:23.57	316.59	30.72	-48.0	-49.9	17.9	0.00e+00	0	41	0	1000341504	66	4763
2026-01-22 10:47:24.54	316.77	30.56	-47.9	-49.7	18.0	0.00e+00	0	41	0	1002438656	66	4698
2026-01-22 10:47:25.51	316.95	30.40	-48.1	-49.9	17.8	0.00e+00	0	41	0	1004535808	67	4542
2026-01-22 10:47:26.48	317.13	30.24	-47.3	-48.9	18.8	0.00e+00	0	41	0	1005584384	66	4264
2026-01-22 10:47:27.45	317.30	30.08	-46.7	-48.1	19.5	0.00e+00	0	41	0	1007681536	65	4139
2026-01-22 10:47:28.42	317.48	29.93	-46.7	-48.1	19.5	0.00e+00	0	41	0	1009778688	65	4126
2026-01-22 10:47:29.39	317.65	29.77	-46.9	-48.4	19.2	0.00e+00	0	41	0	1011875840	65	4281
2026-01-22 10:47:30.36	317.82	29.61	-47.0	-48.6	19.1	0.00e+00	0	41	0	1012924416	65	4341
2026-01-22 10:47:31.34	318.00	29.46	-46.7	-48.1	19.4	0.00e+00	0	41	0	1015021568	65	4139
2026-01-22 10:47:32.31	318.16	29.30	-47.1	-48.7	18.9	0.00e+00	0	41	0	1017118720	65	4406
2026-01-22 10:47:33.28	318.33	29.15	-46.8	-48.3	19.4	0.00e+00	0	41	0	1019215872	65	4205
2026-01-22 10:47:34.24	318.50	29.00	-46.6	-48.0	19.6	0.00e+00	0	41	0	1020264448	65	4067
2026-01-22 10:47:35.22	318.66	28.84	-46.6	-48.1	19.6	0.00e+00	0	41	0	1022361600	64	4351
2026-01-22 10:47:36.19	318.82	28.69	-46.5	-48.0	19.6	0.00e+00	0	41	0	1024458752	64	4293
2026-01-22 10:47:37.16	318.98	28.54	-46.4	-47.7	19.8	0.00e+00	0	41	0	1026555904	64	4192
2026-01-22 10:47:38.13	319.14	28.39	-46.5	-47.9	19.7	0.00e+00	0	41	0	1027604480	64	4267
2026-01-22 10:47:39.10	319.30	28.24	-46.7	-48.2	19.5	0.00e+00	0	41	0	1029701632	64	4393
2026-01-22 10:47:40.08	319.46	28.09	-46.6	-48.0	19.5	0.00e+00	0	41	0	1031798784	64	4324
2026-01-22 10:47:41.05	319.62	27.94	-46.3	-47.6	19.9	0.00e+00	0	41	0	1033895936	64	4127
2026-01-22 10:47:42.02	319.77	27.79	-46.1	-47.4	20.2	0.00e+00	0	41	0	1034944512	63	4248
2026-01-22 10:47:42.99	319.92	27.64	-46.0	-47.3	20.3	0.00e+00	0	41	0	1037041664	63	4211
2026-01-22 10:47:43.96	320.07	27.49	-45.3	-46.4	21.1	0.00e+00	0	41	0	1039138816	62	4044
2026-01-22 10:47:44.93	320.22	27.35	-45.1	-46.2	21.3	0.00e+00	0	41	0	1041235968	62	3929
2026-01-22 10:47:45.90	320.37	27.20	-44.9	-46.0	21.4	0.00e+00	0	41	0	1042284544	61	4059
2026-01-22 10:47:46.87	320.52	27.06	-44.5	-45.6	21.8	0.00e+00	0	41	0	1044381696	60	4110
2026-01-22 10:47:47.84	320.66	26.91	-44.5	-45.6	21.8	0.00e+00	0	41	0	1046478848	60	4119
2026-01-22 10:47:48.81	320.81	26.77	-44.8	-45.9	21.5	0.00e+00	0	41	0	1047527424	60	4287
2026-01-22 10:47:49.78	320.95	26.62	-44.8	-45.9	21.5	0.00e+00	0	41	0	1049624576	60	4280
2026-01-22 10:47:50.75	321.09	26.48	-45.1	-46.2	21.2	0.00e+00	0	41	0	1051721728	60	4415
2026-01-22 10:47:51.73	321.23	26.33	-45.6	-46.9	20.7	0.00e+00	0	41	0	1053818880	61	4515
2026-01-22 10:47:52.69	321.37	26.19	-45.8	-47.2	20.4	0.00e+00	0	41	0	1054867456	62	4393
2026-01-22 10:47:53.66	321.51	26.05	-46.2	-47.6	20.0	0.00e+00	0	41	0	1056964608	62	4609
2026-01-22 10:47:54.63	321.65	25.91	-46.4	-47.8	19.8	0.00e+00	0	41	0	1059061760	63	4483
2026-01-22 10:47:55.60	321.78	25.77	-46.5	-47.9	19.7	0.00e+00	0	41	0	1060110336	63	4539
2026-01-22 10:47:56.58	321.92	25.63	-46.5	-47.9	19.7	0.00e+00	0	41	0	1062207488	63	4512
2026-01-22 10:47:57.55	322.05	25.49	-46.7	-48.2	19.3	0.00e+00	0	41	0	1064304640	64	4436
2026-01-22 10:47:58.51	322.19	25.35	-46.1	-47.4	20.0	0.00e+00	0	41	0	1066401792	64	4039
2026-01-22 10:47:59.49	322.32	25.21	-45.9	-47.1	20.3	0.00e+00	0	41	0	1067450368	63	4145
2026-01-22 10:48:00.46	322.45	25.08	-46.0	-47.3	20.2	0.00e+00	0	41	0	1069547520	63	4216
2026-01-22 10:48:01.43	322.58	24.94	-45.4	-46.7	20.8	0.00e+00	0	41	0	1071644672	62	4152
2026-01-22 10:48:02.40	322.71	24.80	-45.5	-46.7	20.7	0.00e+00	0	41	0	1073741824	62	4173
2026-01-22 10:48:03.37	322.83	24.67	-45.7	-47.0	20.5	0.00e+00	0	41	0	1074790400	62	4297
2026-01-22 10:48:04.34	322.96	24.53	-45.7	-47.0	20.5	0.00e+00	0	41	0	1076887552	62	4315
2026-01-22 10:48:05.31	323.08	24.40	-45.9	-47.2	20.3	0.00e+00	0	41	0	1078984704	62	4409
2026-01-22 10:48:06.28	323.21	24.26	-45.9	-47.3	20.2	0.00e+00	0	41	0	1081081856	63	4204
2026-01-22 10:48:07.26	323.33	24.13	-46.0	-47.3	20.2	0.00e+00	0	41	0	1082130432	63	4214
2026-01-22 10:48:08.23	323.45	24.00	-45.9	-47.2	20.2	0.00e+00	0	41	0	1084227584	63	4181
2026-01-22 10:48:09.20	323.57	23.86	-45.8	-47.1	20.3	0.00e+00	0	41	0	1086324736	63	4123
2026-01-22 10:48:10.18	323.70	23.73	-45.8	-47.1	20.4	0.00e+00	0	41	0	1088421888	63	4106
2026-01-22 10:48:11.15	323.81	23.60	-45.6	-46.8	20.6	0.00e+00	0	41	0	1089470464	63	3997
2026-01-22 10:48:12.13	323.93	23.47	-45.8	-47.1	20.3	0.00e+00	0	41	0	1091567616	63	4131
2026-01-22 10:48:13.10	324.05	23.34	-45.7	-46.9	20.5	0.00e+00	0	41	0	1093664768	63	4042
2026-01-22 10:48:14.07	324.17	23.21	-45.6	-46.8	20.6	0.00e+00	0	41	0	1095761920	62	4228
2026-01-22 10:48:15.04	324.28	23.08	-45.8	-47.1	20.3	0.00e+00	0	41	0	1096810496	62	4355
2026-01-22 10:48:16.01	324.40	22.95	-45.8	-47.1	20.3	0.00e+00	0	41	0	1098907648	62	4350
2026-01-22 10:48:16.98	324.51	22.82	-45.8	-47.1	20.3	0.00e+00	0	41	0	1101004800	62	4365
2026-01-22 10:48:17.95	324.62	22.69	-46.0	-47.3	20.1	0.00e+00	0	41	0	1103101952	62	4476
2026-01-22 10:48:18.92	324.73	22.57	-45.6	-46.8	20.5	0.00e+00	0	41	0	1104150528	62	4234
2026-01-22 10:48:19.89	324.85	22.44	-45.8	-47.0	20.4	0.00e+00	0	41	0	1106247680	62	4338
2026-01-22 10:48:20.87	324.96	22.31	-45.9	-47.2	20.2	0.00e+00	0	41	0	1108344832	62	4412
2026-01-22 10:48:21.84	325.07	22.19	-45.5	-46.8	20.6	0.00e+00	0	41	0	1110441984	62	4201
2026-01-22 10:48:22.81	325.17	22.06	-45.8	-47.1	20.3	0.00e+00	0	41	0	1111490560	62	4368
2026-01-22 10:48:23.78	325.28	21.94	-45.5	-46.8	20.6	0.00e+00	0	41	0	1113587712	62	4217
2026-01-22 10:48:24.75	325.39	21.81	-45.6	-46.9	20.5	0.00e+00	0	41	0	1115684864	62	4250
2026-01-22 10:48:25.72	325.49	21.69	-45.9	-47.2	20.2	0.00e+00	0	41	0	1116733440	62	4424
2026-01-22 10:48:26.68	325.60	21.57	-45.7	-47.1	20.3	0.00e+00	0	41	0	1118830592	62	4351
2026-01-22 10:48:27.66	325.70	21.45	-45.7	-47.0	20.3	0.00e+00	0	41	0	1120927744	62	4336
2026-01-22 10:48:28.63	325.81	21.32	-45.8	-47.1	20.2	0.00e+00	0	41	0	1123024896	62	4385
2026-01-22 10:48:29.61	325.91	21.20	-45.6	-46.9	20.4	0.00e+00	0	41	0	1124073472	62	4277
2026-01-22 10:48:30.58	326.01	21.08	-46.0	-47.3	20.1	0.00e+00	0	41	0	1126170624	62	4488
2026-01-22 10:48:31.55	326.11	20.96	-46.0	-47.3	20.0	0.00e+00	0	41	0	1128267776	62	4481
2026-01-22 10:48:32.52	326.21	20.84	-45.9	-47.2	20.2	0.00e+00	0	41	0	1130364928	62	4441
2026-01-22 10:48:33.49	326.31	20.72	-46.2	-47.6	19.7	0.00e+00	0	41	0	1131413504	63	4390
2026-01-22 10:48:34.46	326.41	20.60	-46.3	-47.7	19.7	0.00e+00	0	41	0	1133510656	63	4419
2026-01-22 10:48:35.42	326.51	20.48	-46.3	-47.7	19.7	0.00e+00	0	41	0	1135607808	63	4412
2026-01-22 10:48:36.39	326.61	20.37	-46.5	-48.0	19.4	0.00e+00	0	41	0	1136656384	63	4552
2026-01-22 10:48:37.37	326.70	20.25	-46.4	-47.9	19.5	0.00e+00	0	41	0	1138753536	63	4515
2026-01-22 10:48:38.34	326.80	20.13	-46.9	-48.5	18.8	0.00e+00	0	41	0	1140850688	64	4592
2026-01-22 10:48:39.31	326.89	20.01	-47.0	-48.7	18.7	0.00e+00	0	41	0	1142947840	64	4674
2026-01-22 10:48:40.28	326.99	19.90	-47.0	-48.6	18.7	0.00e+00	0	41	0	1143996416	64	4648
2026-01-22 10:48:41.25	327.08	19.78	-47.4	-49.1	18.2	0.00e+00	0	41	0	1146093568	65	4646
2026-01-22 10:48:42.23	327.18	19.67	-47.4	-49.1	18.2	0.00e+00	0	41	0	1148190720	65	4639
2026-01-22 10:48:43.20	327.27	19.55	-47.2	-48.9	18.4	0.00e+00	0	41	0	1150287872	65	4533
2026-01-22 10:48:44.17	327.36	19.44	-47.2	-48.9	18.4	0.00e+00	0	41	0	1151336448	65	4518
2026-01-22 10:48:45.14	327.45	19.32	-47.3	-49.1	18.2	0.00e+00	0	41	0	1153433600	65	4607
2026-01-22 10:48:46.11	327.54	19.21	-47.1	-48.8	18.5	0.00e+00	0	41	0	1155530752	65	4493
2026-01-22 10:48:47.08	327.63	19.10	-46.8	-48.4	18.4	0.00e+00	0	41	0	1157627904	65	4284
2026-01-22 10:48:48.06	327.72	18.98	-46.6	-48.1	19.1	0.00e+00	0	41	0	1158676480	65	4126
2026-01-22 10:48:49.03	327.81	18.87	-46.3	-47.7	19.5	0.00e+00	0	41	0	1160773632	64	4177
2026-01-22 10:48:50.00	327.90	18.76	-46.1	-47.5	19.7	0.00e+00	0	41	0	1162870784	64	4069
2026-01-22 10:48:50.97	327.99	18.65	-45.9	-47.3	19.9	0.00e+00	0	41	0	1164967936	63	4215
2026-01-22 10:48:51.94	328.08	18.54	-45.8	-47.1	20.1	0.00e+00	0	41	0	1166016512	63	4124
2026-01-22 10:48:52.91	328.16	18.43	-45.7	-47.0	20.2	0.00e+00	0	41	0	1168113664	63	4071
2026-01-22 10:48:53.88	328.25	18.32	-45.5	-46.8	20.4	0.00e+00	0	41	0	1170210816	63	3978
2026-01-22 10:48:54.85	328.33	18.21	-45.3	-46.5	20.6	0.00e+00	0	41	0	1172307968	62	4082
2026-01-22 10:48:55.82	328.42	18.10	-45.4	-46.7	20.5	0.00e+00	0	41	0	1173356544	62	4174
2026-01-22 10:48:56.79	328.50	17.99	-45.5	-46.7	20.4	0.00e+00	0	41	0	1175453696	62	4193
2026-01-22 10:48:57.77	328.59	17.88	-45.4	-46.6	20.6	0.00e+00	0	41	0	1177550848	62	4132
2026-01-22 10:48:58.74	328.67	17.78	-45.4	-46.7	20.5	0.00e+00	0	41	0	1178599424	62	4147
2026-01-22 10:48:59.71	328.75	17.67	-45.4	-46.7	20.5	0.00e+00	0	41	0	1180696576	62	4149
2026-01-22 10:49:00.68	328.83	17.56	-45.2	-46.4	20.7	0.00e+00	0	41	0	1182793728	62	4039
2026-01-22 10:49:01.66	328.91	17.45	-45.4	-46.7	20.5	0.00e+00	0	41	0	1184890880	62	4151
2026-01-22 10:49:02.63	329.00	17.35	-45.3	-46.5	20.7	0.00e+00	0	41	0	1185939456	62	4059
2026-01-22 10:49:03.60	329.08	17.24	-45.2	-46.4	20.7	0.00e+00	0	41	0	1188036608	62	4040
2026-01-22 10:49:04.57	329.16	17.14	-45.3	-46.5	20.6	0.00e+00	0	41	0	1190133760	62	4088
2026-01-22 10:49:05.54	329.23	17.03	-45.3	-46.5	20.5	0.00e+00	0	41	0	1192230912	62	4063
2026-01-22 10:49:06.51	329.31	16.93	-45.5	-46.7	20.4	0.00e+00	0	41	0	1193279488	62	4177
