passes_logs/2026/01/22/R3.2S_Murmansk/R3.2S_Murmansk__20260122_212901_JL1KF02B06_rec.log

#Pass ID: 20260122_212901_JL1KF02B06
#Satellite: JL1KF02B06
#Configuration: 01B_900M
#almurnet v.1.7.20251203
#Start time: 2026-01-22 21:29:01

#Version: 2.2.20231116
#Station: R3.2S_Murmansk
#Location: 33.079688 lon 68.888172 lat
#TLE: 1 61192U 24169D   26022.48839692  .00006381  00000+0  40023-3 0  9991
#TLE: 2 61192  97.5622 113.5680 0006993  82.6694 277.5330 15.09645297 73856

#Time	Az	El	Level	Level2	SNR	BER	BlckErr	Temp	State	Recorded	gain1	gain2
2026-01-22 21:29:01.20	203.18	2.00	-55.3	-57.4	6.3	0.00e+00	0	44	0	0	81	19124
2026-01-22 21:29:02.21	203.26	2.07	-55.3	-57.4	6.2	0.00e+00	0	44	104	0	82	18166
2026-01-22 21:29:03.22	203.34	2.13	-55.3	-57.4	6.2	0.00e+00	0	44	104	0	82	18068
2026-01-22 21:29:04.22	203.43	2.19	-55.3	-57.4	6.2	0.00e+00	0	44	104	0	82	18065
2026-01-22 21:29:05.23	203.51	2.26	-55.3	-57.4	6.2	0.00e+00	0	44	104	0	82	18022
2026-01-22 21:29:06.24	203.59	2.32	-55.3	-57.4	6.2	0.00e+00	0	44	104	0	82	18039
2026-01-22 21:29:07.25	203.67	2.38	-55.3	-57.4	6.2	0.00e+00	0	44	104	0	82	18043
2026-01-22 21:29:08.26	203.75	2.45	-55.5	-57.6	6.2	0.00e+00	0	44	104	0	82	18532
2026-01-22 21:29:09.27	203.84	2.51	-55.5	-57.7	6.2	0.00e+00	0	44	104	0	82	18614
2026-01-22 21:29:10.27	203.92	2.57	-55.6	-57.6	6.2	0.00e+00	0	44	104	0	82	18560
2026-01-22 21:29:11.28	204.00	2.64	-55.5	-57.6	6.2	0.00e+00	0	44	104	0	82	18574
2026-01-22 21:29:12.29	204.09	2.70	-55.5	-57.6	6.2	0.00e+00	0	44	104	0	82	18582
2026-01-22 21:29:13.30	204.17	2.77	-55.5	-57.6	6.2	0.00e+00	0	44	104	0	82	18494
2026-01-22 21:29:14.31	204.26	2.83	-55.4	-57.5	6.2	0.00e+00	0	44	104	0	82	18316
2026-01-22 21:29:15.32	204.34	2.90	-55.4	-57.5	6.2	0.00e+00	0	44	104	0	82	18270
2026-01-22 21:29:16.33	204.43	2.96	-55.3	-57.4	6.2	0.00e+00	0	44	104	0	82	18160
2026-01-22 21:29:17.33	204.52	3.03	-55.3	-57.4	6.2	0.00e+00	0	44	104	0	82	18023
2026-01-22 21:29:18.34	204.60	3.09	-55.3	-57.4	6.2	0.00e+00	0	44	104	0	82	17992
2026-01-22 21:29:19.35	204.69	3.16	-55.2	-57.3	6.2	0.00e+00	0	44	104	0	82	17914
2026-01-22 21:29:20.36	204.78	3.22	-55.2	-57.3	6.2	0.00e+00	0	44	104	0	82	17828
2026-01-22 21:29:21.37	204.87	3.29	-55.1	-57.2	6.2	0.00e+00	0	44	104	0	82	17625
2026-01-22 21:29:22.37	204.95	3.35	-55.1	-57.1	6.2	0.00e+00	0	44	104	0	82	17555
2026-01-22 21:29:23.38	205.04	3.42	-55.0	-57.1	6.2	0.00e+00	0	45	104	0	82	17475
2026-01-22 21:29:24.39	205.13	3.49	-54.9	-57.0	6.2	0.00e+00	0	45	104	0	81	18208
2026-01-22 21:29:25.39	205.22	3.55	-54.8	-56.9	6.2	0.00e+00	0	45	104	0	81	18052
2026-01-22 21:29:26.40	205.31	3.62	-54.7	-56.8	6.2	0.00e+00	0	44	104	0	81	17903
2026-01-22 21:29:27.41	205.41	3.68	-54.6	-56.7	6.2	0.00e+00	0	44	104	0	81	17641
2026-01-22 21:29:28.42	205.50	3.75	-54.4	-56.6	6.2	0.00e+00	0	45	104	0	80	18394
2026-01-22 21:29:29.43	205.59	3.82	-54.2	-56.3	6.2	0.00e+00	0	45	104	0	80	17819
2026-01-22 21:29:30.44	205.68	3.89	-53.9	-56.0	6.2	0.00e+00	0	45	104	0	79	18309
2026-01-22 21:29:31.45	205.78	3.95	-53.9	-56.0	6.2	0.00e+00	0	45	104	0	79	18216
2026-01-22 21:29:32.45	205.87	4.02	-53.8	-55.9	6.2	0.00e+00	0	45	104	0	79	18148
2026-01-22 21:29:33.46	205.96	4.09	-53.8	-55.9	6.2	0.00e+00	0	45	104	0	79	18174
2026-01-22 21:29:34.47	206.06	4.16	-53.8	-55.9	6.2	0.00e+00	0	45	104	0	79	18156
2026-01-22 21:29:35.48	206.15	4.22	-53.8	-55.9	6.2	0.00e+00	0	45	104	0	79	18100
2026-01-22 21:29:36.49	206.25	4.29	-53.8	-55.9	6.2	0.00e+00	0	45	104	0	79	18084
2026-01-22 21:29:37.50	206.35	4.36	-53.8	-55.9	6.2	0.00e+00	0	45	104	0	79	18099
2026-01-22 21:29:38.51	206.44	4.43	-53.8	-55.9	6.2	0.00e+00	0	45	104	0	79	18097
2026-01-22 21:29:39.51	206.54	4.50	-53.8	-55.9	6.2	0.00e+00	0	45	104	0	79	18076
2026-01-22 21:29:40.52	206.64	4.57	-53.8	-55.9	6.2	0.00e+00	0	45	104	0	79	18062
2026-01-22 21:29:41.53	206.74	4.63	-53.8	-55.9	6.2	0.00e+00	0	45	104	0	79	18066
2026-01-22 21:29:42.53	206.83	4.70	-53.8	-55.9	6.2	0.00e+00	0	45	104	0	79	18101
2026-01-22 21:29:43.54	206.93	4.77	-53.8	-55.9	6.2	0.00e+00	0	45	104	0	79	18014
2026-01-22 21:29:44.55	207.03	4.84	-53.8	-55.9	6.2	0.00e+00	0	45	104	0	79	18068
2026-01-22 21:29:45.56	207.13	4.91	-53.8	-55.9	6.2	0.00e+00	0	45	104	0	79	18027
2026-01-22 21:29:46.57	207.24	4.98	-53.8	-55.9	6.2	0.00e+00	0	45	104	0	79	18054
2026-01-22 21:29:47.57	207.34	5.05	-53.9	-56.0	6.2	0.00e+00	0	45	104	0	79	18257
2026-01-22 21:29:48.58	207.44	5.12	-53.8	-55.9	6.2	0.00e+00	0	45	104	0	79	18089
2026-01-22 21:29:49.59	207.54	5.19	-53.8	-55.9	6.2	0.00e+00	0	45	104	0	79	18028
2026-01-22 21:29:50.60	207.65	5.26	-53.8	-55.9	6.2	0.00e+00	0	45	104	0	79	18179
2026-01-22 21:29:51.60	207.75	5.33	-53.8	-55.9	6.2	0.00e+00	0	45	104	0	79	18015
2026-01-22 21:29:52.61	207.85	5.40	-53.7	-55.8	6.2	0.00e+00	0	45	104	0	79	17879
2026-01-22 21:29:53.62	207.96	5.47	-53.8	-55.9	6.2	0.00e+00	0	45	104	0	79	18010
2026-01-22 21:29:54.62	208.06	5.54	-53.8	-55.9	6.2	0.00e+00	0	45	104	0	79	18091
2026-01-22 21:29:55.63	208.17	5.61	-53.7	-55.8	6.2	0.00e+00	0	45	104	0	79	17924
2026-01-22 21:29:56.64	208.28	5.69	-53.7	-55.8	6.2	0.00e+00	0	45	104	0	79	17885
2026-01-22 21:29:57.65	208.39	5.76	-53.8	-55.9	6.2	0.00e+00	0	45	104	0	79	18020
2026-01-22 21:29:58.66	208.50	5.83	-53.8	-55.9	6.2	0.00e+00	0	45	104	0	79	18020
2026-01-22 21:29:59.67	208.60	5.90	-53.7	-55.8	6.2	0.00e+00	0	45	104	0	79	17928
2026-01-22 21:30:00.67	208.71	5.97	-53.7	-55.8	6.2	0.00e+00	0	45	104	0	79	17850
2026-01-22 21:30:01.68	208.82	6.05	-53.7	-55.8	6.2	0.00e+00	0	45	104	0	79	17960
2026-01-22 21:30:02.69	208.93	6.12	-53.8	-55.9	6.2	0.00e+00	0	45	104	0	79	18077
2026-01-22 21:30:03.69	209.05	6.19	-53.7	-55.8	6.2	0.00e+00	0	45	104	0	79	17924
2026-01-22 21:30:04.70	209.16	6.26	-53.7	-55.8	6.2	0.00e+00	0	45	104	0	79	17778
2026-01-22 21:30:05.71	209.27	6.34	-53.8	-55.9	6.2	0.00e+00	0	45	104	0	79	18025
2026-01-22 21:30:06.72	209.38	6.41	-53.8	-55.9	6.2	0.00e+00	0	45	104	0	79	18077
2026-01-22 21:30:07.73	209.50	6.48	-53.7	-55.8	6.2	0.00e+00	0	45	104	0	79	17923
2026-01-22 21:30:08.74	209.61	6.56	-53.7	-55.8	6.2	0.00e+00	0	45	104	0	79	17856
2026-01-22 21:30:09.75	209.73	6.63	-53.8	-55.9	6.2	0.00e+00	0	45	104	0	79	18025
2026-01-22 21:30:10.75	209.85	6.71	-53.8	-55.9	6.2	0.00e+00	0	45	104	0	79	18047
2026-01-22 21:30:11.76	209.96	6.78	-53.7	-55.9	6.2	0.00e+00	0	45	104	0	79	17994
2026-01-22 21:30:12.77	210.08	6.86	-53.7	-55.8	6.2	0.00e+00	0	46	104	0	79	17878
2026-01-22 21:30:13.78	210.20	6.93	-53.8	-55.9	6.2	0.00e+00	0	46	104	0	79	18047
2026-01-22 21:30:14.78	210.32	7.00	-53.8	-55.9	6.2	0.00e+00	0	45	104	0	79	18085
2026-01-22 21:30:15.79	210.44	7.08	-53.7	-55.9	6.2	0.00e+00	0	46	104	0	79	18000
2026-01-22 21:30:16.80	210.56	7.15	-53.7	-55.8	6.2	0.00e+00	0	46	104	0	79	17864
2026-01-22 21:30:17.81	210.68	7.23	-53.8	-55.9	6.2	0.00e+00	0	46	104	0	79	18099
2026-01-22 21:30:18.81	210.80	7.31	-53.8	-55.9	6.2	0.00e+00	0	46	104	0	79	18109
2026-01-22 21:30:19.82	210.92	7.38	-53.8	-55.9	6.2	0.00e+00	0	46	104	0	79	18013
2026-01-22 21:30:20.83	211.05	7.46	-53.7	-55.8	6.2	0.00e+00	0	46	104	0	79	17889
2026-01-22 21:30:21.83	211.17	7.53	-53.9	-56.0	6.2	0.00e+00	0	46	104	0	79	18198
2026-01-22 21:30:22.84	211.30	7.61	-53.8	-55.9	6.2	0.00e+00	0	46	104	0	79	18157
2026-01-22 21:30:23.85	211.42	7.69	-53.8	-55.9	6.2	0.00e+00	0	46	104	0	79	18064
2026-01-22 21:30:24.85	211.55	7.76	-53.7	-55.9	6.2	0.00e+00	0	46	104	0	79	18050
2026-01-22 21:30:25.86	211.68	7.84	-53.9	-56.0	6.2	0.00e+00	0	46	104	0	79	18228
2026-01-22 21:30:26.87	211.80	7.92	-53.9	-56.0	6.2	0.00e+00	0	46	104	0	79	18264
2026-01-22 21:30:27.88	211.93	7.99	-53.8	-55.9	6.2	0.00e+00	0	46	104	0	79	18081
2026-01-22 21:30:28.88	212.06	8.07	-53.8	-55.9	6.2	0.00e+00	0	46	104	0	79	18000
2026-01-22 21:30:29.89	212.19	8.15	-53.9	-56.0	6.2	0.00e+00	0	46	104	0	79	18294
2026-01-22 21:30:30.90	212.32	8.23	-53.9	-56.0	6.2	0.00e+00	0	46	104	0	79	18255
2026-01-22 21:30:31.91	212.46	8.31	-53.8	-55.9	6.2	0.00e+00	0	46	104	0	79	18163
2026-01-22 21:30:32.91	212.59	8.38	-53.8	-55.9	6.2	0.00e+00	0	46	104	0	79	18075
2026-01-22 21:30:33.92	212.72	8.46	-53.9	-56.0	6.2	0.00e+00	0	46	104	0	79	18240
2026-01-22 21:30:34.93	212.86	8.54	-49.9	-50.5	6.8	0.00e+00	0	46	104	0	71	15374
2026-01-22 21:30:35.94	212.99	8.62	-49.5	-50.2	6.5	0.00e+00	0	46	104	0	69	16625
2026-01-22 21:30:36.95	213.13	8.70	-47.3	-47.6	6.7	0.00e+00	0	46	104	0	66	14750
2026-01-22 21:30:37.96	213.27	8.78	-47.2	-47.6	6.7	0.00e+00	0	46	104	0	66	14610
2026-01-22 21:30:38.97	213.41	8.86	-47.5	-47.9	6.7	0.00e+00	0	46	104	0	66	15135
2026-01-22 21:30:39.98	213.55	8.94	-47.3	-47.7	6.8	0.00e+00	0	46	104	0	66	14856
2026-01-22 21:30:40.99	213.69	9.02	-49.6	-50.3	6.6	0.00e+00	0	46	104	0	69	16815
2026-01-22 21:30:42.00	213.83	9.10	-49.2	-49.8	6.6	0.00e+00	0	46	104	0	68	16881
2026-01-22 21:30:43.00	213.97	9.18	-49.4	-50.0	6.5	0.00e+00	0	46	104	0	69	16369
2026-01-22 21:30:44.01	214.11	9.26	-52.9	-54.6	6.2	0.00e+00	0	46	104	0	76	18469
2026-01-22 21:30:45.02	214.26	9.34	-47.4	-47.7	6.8	0.00e+00	0	46	104	0	66	14881
2026-01-22 21:30:46.03	214.40	9.42	-47.1	-47.4	6.8	0.00e+00	0	46	104	0	66	14337
2026-01-22 21:30:47.04	214.55	9.50	-46.7	-47.0	7.6	0.00e+00	0	46	104	0	65	14486
2026-01-22 21:30:48.04	214.69	9.58	-47.6	-48.0	7.4	0.00e+00	0	46	104	0	65	16250
2026-01-22 21:30:49.05	214.84	9.66	-49.5	-50.1	7.0	0.00e+00	0	46	104	0	69	16425
2026-01-22 21:30:50.06	214.99	9.75	-49.8	-50.4	6.9	0.00e+00	0	46	104	0	70	16193
2026-01-22 21:30:51.07	215.14	9.83	-36.2	-36.1	15.8	1.18e-04	0	46	104	0	42	15488
2026-01-22 21:30:52.07	215.29	9.91	-41.1	-41.0	13.5	1.45e-03	0	46	0	109051904	52	15434
2026-01-22 21:30:53.08	215.44	9.99	-29.3	-29.1	17.6	0.00e+00	0	46	0	226492416	30	13890
2026-01-22 21:30:54.09	215.59	10.08	-29.2	-29.1	17.5	0.00e+00	0	46	0	335544320	30	13862
2026-01-22 21:30:55.09	215.74	10.16	-28.8	-28.6	17.7	0.00e+00	0	46	0	452984832	29	13944
2026-01-22 21:30:56.10	215.90	10.24	-28.7	-28.6	17.7	0.00e+00	0	46	0	570425344	29	13855
2026-01-22 21:30:57.11	216.05	10.32	-28.5	-28.3	17.7	0.00e+00	0	46	0	687865856	29	13422
2026-01-22 21:30:58.12	216.21	10.41	-28.4	-28.3	17.8	0.00e+00	0	46	0	796917760	28	14165
2026-01-22 21:30:59.13	216.37	10.49	-28.4	-28.3	17.9	0.00e+00	0	46	0	914358272	28	14168
2026-01-22 21:31:00.13	216.52	10.57	-28.4	-28.3	17.9	0.00e+00	0	47	0	1023410176	28	14187
2026-01-22 21:31:01.14	216.68	10.66	-28.4	-28.2	17.9	0.00e+00	0	46	0	1140850688	28	14072
2026-01-22 21:31:02.15	216.84	10.74	-28.4	-28.2	17.8	0.00e+00	0	47	0	1249902592	28	14110
2026-01-22 21:31:03.16	217.01	10.83	-28.3	-28.1	17.8	0.00e+00	0	46	0	1358954496	28	13870
2026-01-22 21:31:04.16	217.17	10.91	-28.3	-28.1	17.8	1.90e-06	0	47	0	1476395008	28	13921
2026-01-22 21:31:05.17	217.33	11.00	-28.1	-28.0	17.8	0.00e+00	0	47	0	1585446912	28	13682
2026-01-22 21:31:06.17	217.50	11.08	-28.3	-28.1	17.6	1.90e-06	0	47	0	1702887424	28	13895
2026-01-22 21:31:07.18	217.66	11.17	-28.4	-28.2	17.6	0.00e+00	0	47	0	1811939328	28	14048
2026-01-22 21:31:08.19	217.83	11.25	-28.4	-28.3	17.8	0.00e+00	0	47	0	1920991232	28	14124
2026-01-22 21:31:09.20	218.00	11.34	-28.2	-28.0	17.9	0.00e+00	0	47	0	2046820352	28	13714
2026-01-22 21:31:10.21	218.17	11.42	-28.1	-27.9	17.8	0.00e+00	0	47	0	2164260864	28	13604
2026-01-22 21:31:11.21	218.34	11.51	-28.1	-27.9	17.9	0.00e+00	0	47	0	2273312768	28	13601
2026-01-22 21:31:12.22	218.51	11.59	-28.2	-28.0	17.8	0.00e+00	0	47	0	2382364672	28	13735
2026-01-22 21:31:13.23	218.68	11.68	-28.0	-27.9	17.9	0.00e+00	0	47	0	2499805184	27	14316
2026-01-22 21:31:14.24	218.86	11.77	-28.1	-28.0	17.8	0.00e+00	0	47	0	2608857088	27	14502
2026-01-22 21:31:15.25	219.03	11.85	-28.2	-28.0	17.8	0.00e+00	0	47	0	2726297600	27	14533
2026-01-22 21:31:16.25	219.21	11.94	-28.1	-27.9	17.8	0.00e+00	0	47	0	2835349504	27	14384
2026-01-22 21:31:17.26	219.38	12.03	-27.9	-27.8	18.0	1.90e-06	0	47	0	2944401408	27	14151
2026-01-22 21:31:18.27	219.56	12.12	-27.9	-27.7	18.2	0.00e+00	0	47	0	3061841920	27	14047
2026-01-22 21:31:19.28	219.74	12.20	-27.8	-27.6	18.2	0.00e+00	0	47	0	3170893824	27	13922
2026-01-22 21:31:20.28	219.92	12.29	-27.8	-27.6	18.1	0.00e+00	0	47	0	3288334336	27	13925
2026-01-22 21:31:21.29	220.11	12.38	-27.7	-27.5	18.1	0.00e+00	0	47	0	3397386240	27	13758
2026-01-22 21:31:22.30	220.29	12.47	-27.7	-27.5	18.2	0.00e+00	0	47	0	3523215360	27	13780
2026-01-22 21:31:23.30	220.47	12.55	-27.7	-27.5	18.2	0.00e+00	0	47	0	3632267264	27	13746
2026-01-22 21:31:24.31	220.66	12.64	-27.7	-27.6	18.2	0.00e+00	0	47	0	3749707776	27	13814
2026-01-22 21:31:25.32	220.85	12.73	-27.6	-27.4	18.3	0.00e+00	0	47	0	3858759680	27	13573
2026-01-22 21:31:26.33	221.04	12.82	-27.7	-27.5	18.2	1.90e-06	0	47	0	3967811584	27	13732
2026-01-22 21:31:27.34	221.23	12.91	-27.6	-27.5	18.3	0.00e+00	0	47	0	4085252096	27	13664
2026-01-22 21:31:28.35	221.42	13.00	-27.6	-27.4	18.4	0.00e+00	0	47	0	4194304000	27	13565
2026-01-22 21:31:29.35	221.61	13.08	-27.4	-27.3	18.4	0.00e+00	0	47	0	4311744512	26	14156
2026-01-22 21:31:30.36	221.80	13.17	-27.4	-27.3	18.3	0.00e+00	0	47	0	4420796416	26	14152
2026-01-22 21:31:31.37	222.00	13.26	-27.3	-27.2	18.5	0.00e+00	0	47	0	4538236928	26	13972
2026-01-22 21:31:32.38	222.20	13.35	-27.3	-27.1	18.4	0.00e+00	0	47	0	4647288832	26	13937
2026-01-22 21:31:33.38	222.39	13.44	-27.3	-27.2	18.5	0.00e+00	0	47	0	4756340736	26	13980
2026-01-22 21:31:34.39	222.59	13.53	-27.3	-27.1	18.4	0.00e+00	0	47	0	4873781248	26	13867
2026-01-22 21:31:35.40	222.80	13.62	-27.3	-27.1	18.5	0.00e+00	0	47	0	4999610368	26	13893
2026-01-22 21:31:36.41	223.00	13.71	-27.2	-27.1	18.3	0.00e+00	0	47	0	5108662272	26	13798
2026-01-22 21:31:37.42	223.20	13.80	-27.2	-27.0	18.4	0.00e+00	0	47	0	5217714176	26	13772
2026-01-22 21:31:38.43	223.41	13.89	-27.1	-26.9	18.6	0.00e+00	0	47	0	5335154688	26	13611
2026-01-22 21:31:39.44	223.61	13.98	-27.2	-27.0	18.5	0.00e+00	0	47	0	5444206592	26	13745
2026-01-22 21:31:40.45	223.82	14.07	-27.2	-27.0	18.4	0.00e+00	0	47	0	5561647104	26	13726
2026-01-22 21:31:41.45	224.03	14.16	-27.2	-27.1	18.3	0.00e+00	0	47	0	5670699008	26	13792
2026-01-22 21:31:42.46	224.24	14.25	-27.2	-27.0	18.3	0.00e+00	0	47	0	5779750912	26	13741
2026-01-22 21:31:43.47	224.46	14.35	-26.9	-26.8	18.3	0.00e+00	0	47	0	5897191424	25	14134
2026-01-22 21:31:44.48	224.67	14.44	-26.9	-26.8	18.4	0.00e+00	0	47	0	6006243328	25	14175
2026-01-22 21:31:45.49	224.89	14.53	-26.9	-26.8	18.4	0.00e+00	0	47	0	6123683840	25	14163
2026-01-22 21:31:46.49	225.10	14.62	-26.9	-26.7	18.2	0.00e+00	0	47	0	6232735744	25	14023
2026-01-22 21:31:47.50	225.32	14.71	-27.0	-26.9	18.1	0.00e+00	0	47	0	6358564864	25	14277
2026-01-22 21:31:48.51	225.54	14.80	-26.8	-26.7	18.4	0.00e+00	0	47	0	6467616768	25	13964
2026-01-22 21:31:49.52	225.76	14.89	-27.0	-26.8	18.2	0.00e+00	0	47	0	6585057280	25	14189
2026-01-22 21:31:50.53	225.98	14.98	-26.9	-26.7	18.1	0.00e+00	0	47	0	6694109184	25	14085
2026-01-22 21:31:51.53	226.21	15.07	-26.8	-26.6	18.3	0.00e+00	0	47	0	6803161088	25	13947
2026-01-22 21:31:52.54	226.43	15.17	-26.8	-26.6	18.3	0.00e+00	0	47	0	6920601600	25	13934
2026-01-22 21:31:53.55	226.66	15.26	-26.6	-26.5	18.3	0.00e+00	0	47	0	7029653504	25	13692
2026-01-22 21:31:54.56	226.89	15.35	-26.6	-26.5	18.5	0.00e+00	0	47	0	7147094016	25	13687
2026-01-22 21:31:55.57	227.12	15.44	-26.7	-26.6	18.3	0.00e+00	0	47	0	7256145920	25	13791
2026-01-22 21:31:56.58	227.36	15.53	-26.7	-26.5	18.2	0.00e+00	0	47	0	7365197824	25	13707
2026-01-22 21:31:57.59	227.59	15.63	-26.8	-26.6	18.3	0.00e+00	0	47	0	7482638336	25	13901
2026-01-22 21:31:58.59	227.82	15.72	-26.6	-26.5	18.4	0.00e+00	0	47	0	7591690240	25	13643
2026-01-22 21:31:59.60	228.06	15.81	-26.4	-26.2	18.4	0.00e+00	0	47	0	7717519360	24	14098
2026-01-22 21:32:00.61	228.30	15.90	-26.4	-26.3	18.3	0.00e+00	0	47	0	7826571264	24	14128
2026-01-22 21:32:01.62	228.54	15.99	-26.4	-26.2	18.4	0.00e+00	0	48	0	7944011776	24	14014
2026-01-22 21:32:02.62	228.78	16.08	-26.3	-26.2	18.5	0.00e+00	0	47	0	8053063680	24	13958
2026-01-22 21:32:03.63	229.03	16.18	-26.3	-26.1	18.4	0.00e+00	0	47	0	8170504192	24	13925
2026-01-22 21:32:04.64	229.27	16.27	-26.3	-26.2	18.4	0.00e+00	0	47	0	8279556096	24	13969
2026-01-22 21:32:05.65	229.52	16.36	-26.4	-26.3	18.2	0.00e+00	0	48	0	8396996608	24	14182
2026-01-22 21:32:06.65	229.77	16.45	-26.4	-26.2	18.4	0.00e+00	0	47	0	8506048512	24	14097
2026-01-22 21:32:07.66	230.02	16.54	-26.3	-26.2	18.5	0.00e+00	0	47	0	8615100416	24	13973
2026-01-22 21:32:08.67	230.27	16.64	-26.1	-26.0	18.2	0.00e+00	0	48	0	8732540928	24	13643
2026-01-22 21:32:09.68	230.53	16.73	-26.1	-25.9	18.2	0.00e+00	0	47	0	8841592832	24	13632
2026-01-22 21:32:10.69	230.78	16.82	-26.1	-25.9	18.4	0.00e+00	0	47	0	8959033344	24	13546
2026-01-22 21:32:11.69	231.04	16.91	-26.1	-25.9	18.1	0.00e+00	0	47	0	9068085248	24	13597
2026-01-22 21:32:12.70	231.30	17.00	-26.1	-26.0	18.3	0.00e+00	0	47	0	9193914368	24	13664
2026-01-22 21:32:13.71	231.56	17.09	-25.9	-25.8	18.2	0.00e+00	0	47	0	9302966272	23	14123
2026-01-22 21:32:14.72	231.82	17.18	-26.1	-25.9	18.2	0.00e+00	0	47	0	9420406784	23	14437
2026-01-22 21:32:15.73	232.09	17.28	-26.2	-26.0	18.1	0.00e+00	0	48	0	9529458688	23	14533
2026-01-22 21:32:16.73	232.35	17.37	-25.9	-25.8	18.1	0.00e+00	0	48	0	9638510592	23	14116
2026-01-22 21:32:17.74	232.62	17.46	-25.8	-25.6	18.0	0.00e+00	0	48	0	9755951104	23	13893
2026-01-22 21:32:18.75	232.89	17.55	-25.8	-25.7	18.2	0.00e+00	0	47	0	9865003008	23	13972
2026-01-22 21:32:19.76	233.17	17.64	-25.9	-25.7	17.9	0.00e+00	0	48	0	9982443520	23	14095
2026-01-22 21:32:20.77	233.44	17.73	-26.0	-25.8	17.6	0.00e+00	0	47	0	10091495424	23	14274
2026-01-22 21:32:21.77	233.71	17.82	-25.9	-25.7	18.0	0.00e+00	0	48	0	10200547328	23	14032
2026-01-22 21:32:22.78	233.99	17.91	-25.8	-25.6	17.9	0.00e+00	0	47	0	10317987840	23	13949
2026-01-22 21:32:23.79	234.27	18.00	-25.8	-25.6	17.8	0.00e+00	0	47	0	10427039744	23	13949
2026-01-22 21:32:24.80	234.55	18.09	-25.7	-25.6	17.8	0.00e+00	0	48	0	10544480256	23	13829
2026-01-22 21:32:25.81	234.84	18.18	-25.7	-25.5	17.8	0.00e+00	0	47	0	10661920768	23	13767
2026-01-22 21:32:26.82	235.12	18.27	-25.8	-25.6	17.8	0.00e+00	0	47	0	10779361280	23	13840
2026-01-22 21:32:27.82	235.41	18.36	-25.6	-25.5	18.0	0.00e+00	0	47	0	10888413184	23	13637
2026-01-22 21:32:28.83	235.70	18.45	-25.6	-25.4	17.9	0.00e+00	0	47	0	11005853696	23	13597
2026-01-22 21:32:29.84	235.99	18.54	-25.6	-25.4	17.8	0.00e+00	0	48	0	11114905600	23	13622
2026-01-22 21:32:30.85	236.28	18.63	-25.6	-25.5	17.6	0.00e+00	0	47	0	11223957504	23	13636
2026-01-22 21:32:31.85	236.57	18.71	-25.5	-25.3	17.6	0.00e+00	0	47	0	11341398016	23	13451
2026-01-22 21:32:32.86	236.87	18.80	-25.6	-25.4	17.4	0.00e+00	0	48	0	11450449920	22	14359
2026-01-22 21:32:33.87	237.17	18.89	-25.5	-25.4	17.6	0.00e+00	0	48	0	11567890432	22	14305
2026-01-22 21:32:34.88	237.47	18.98	-25.5	-25.3	17.5	0.00e+00	0	48	0	11676942336	22	14186
2026-01-22 21:32:35.89	237.77	19.06	-25.5	-25.3	17.4	0.00e+00	0	47	0	11794382848	22	14186
2026-01-22 21:32:36.89	238.07	19.15	-25.5	-25.3	17.3	0.00e+00	0	48	0	11903434752	22	14235
2026-01-22 21:32:37.90	238.38	19.24	-25.4	-25.3	17.4	0.00e+00	0	48	0	12029263872	22	14123
2026-01-22 21:32:38.91	238.69	19.32	-25.5	-25.3	17.3	0.00e+00	0	48	0	12138315776	22	14237
2026-01-22 21:32:39.92	239.00	19.41	-25.4	-25.3	17.3	0.00e+00	0	48	0	12255756288	22	14137
2026-01-22 21:32:40.92	239.31	19.49	-25.4	-25.2	17.4	0.00e+00	0	48	0	12364808192	22	14017
2026-01-22 21:32:41.93	239.62	19.58	-25.4	-25.2	17.6	0.00e+00	0	48	0	12473860096	22	14070
2026-01-22 21:32:42.94	239.94	19.66	-25.4	-25.2	17.5	0.00e+00	0	48	0	12591300608	22	14058
2026-01-22 21:32:43.95	240.26	19.74	-25.3	-25.2	17.4	0.00e+00	0	48	0	12700352512	22	13961
2026-01-22 21:32:44.95	240.57	19.83	-25.4	-25.2	17.1	0.00e+00	0	48	0	12817793024	22	14010
2026-01-22 21:32:45.96	240.89	19.91	-25.3	-25.1	16.8	0.00e+00	0	48	0	12926844928	22	13909
2026-01-22 21:32:46.97	241.22	19.99	-25.2	-25.0	16.8	0.00e+00	0	48	0	13035896832	22	13752
2026-01-22 21:32:47.98	241.54	20.08	-25.2	-25.0	17.0	0.00e+00	0	48	0	13153337344	22	13717
2026-01-22 21:32:48.99	241.87	20.16	-25.2	-25.0	17.2	0.00e+00	0	47	0	13262389248	22	13754
2026-01-22 21:32:50.00	242.20	20.24	-25.1	-24.9	16.9	0.00e+00	0	48	0	13388218368	22	13593
2026-01-22 21:32:51.01	242.53	20.32	-25.1	-24.9	16.6	0.00e+00	0	48	0	13497270272	22	13632
2026-01-22 21:32:52.01	242.86	20.40	-25.2	-25.0	16.7	0.00e+00	0	48	0	13614710784	22	13709
2026-01-22 21:32:53.02	243.20	20.48	-25.1	-24.9	17.1	0.00e+00	0	48	0	13723762688	22	13630
2026-01-22 21:32:54.03	243.53	20.56	-24.9	-24.8	16.8	0.00e+00	0	48	0	13841203200	21	14169
2026-01-22 21:32:55.04	243.87	20.63	-25.0	-24.8	16.4	1.90e-06	0	48	0	13950255104	21	14206
2026-01-22 21:32:56.05	244.21	20.71	-25.0	-24.8	16.3	0.00e+00	0	48	0	14059307008	21	14191
2026-01-22 21:32:57.05	244.55	20.79	-24.9	-24.8	16.5	0.00e+00	0	48	0	14176747520	21	14153
2026-01-22 21:32:58.06	244.90	20.86	-24.8	-24.7	16.4	0.00e+00	0	48	0	14285799424	21	13996
2026-01-22 21:32:59.07	245.24	20.94	-25.0	-24.8	16.2	0.00e+00	0	48	0	14403239936	21	14231
2026-01-22 21:33:00.08	245.59	21.01	-24.9	-24.8	16.4	0.00e+00	0	48	0	14512291840	21	14116
2026-01-22 21:33:01.09	245.94	21.09	-24.8	-24.6	16.3	0.00e+00	0	48	0	14621343744	21	13889
2026-01-22 21:33:02.10	246.29	21.16	-24.8	-24.7	16.3	0.00e+00	0	48	0	14747172864	21	13954
2026-01-22 21:33:03.11	246.65	21.23	-24.8	-24.7	16.4	0.00e+00	0	48	0	14864613376	21	13973
2026-01-22 21:33:04.11	247.00	21.31	-24.8	-24.6	15.7	0.00e+00	0	48	0	14973665280	21	13889
2026-01-22 21:33:05.12	247.36	21.38	-24.8	-24.6	16.2	1.90e-06	0	48	0	15082717184	21	13884
2026-01-22 21:33:06.13	247.72	21.45	-24.8	-24.6	16.0	0.00e+00	0	48	0	15200157696	21	13876
2026-01-22 21:33:07.14	248.08	21.52	-24.7	-24.5	16.1	0.00e+00	0	48	0	15309209600	21	13776
2026-01-22 21:33:08.15	248.44	21.59	-24.6	-24.5	16.1	1.90e-06	0	48	0	15426650112	21	13671
2026-01-22 21:33:09.15	248.80	21.65	-24.6	-24.5	15.6	0.00e+00	0	48	0	15535702016	21	13674
2026-01-22 21:33:10.16	249.17	21.72	-24.7	-24.5	15.9	3.80e-06	0	48	0	15653142528	21	13790
2026-01-22 21:33:11.17	249.54	21.79	-24.6	-24.4	15.5	1.90e-06	0	48	0	15762194432	21	13583
2026-01-22 21:33:12.18	249.91	21.85	-24.8	-24.7	15.9	1.90e-06	0	47	0	15871246336	21	13971
2026-01-22 21:33:13.19	250.28	21.92	-24.6	-24.5	15.7	0.00e+00	0	48	0	15988686848	21	13661
2026-01-22 21:33:14.20	250.65	21.98	-24.8	-24.6	16.1	0.00e+00	0	48	0	16114515968	21	13856
2026-01-22 21:33:15.20	251.02	22.04	-24.7	-24.5	15.7	1.90e-06	0	48	0	16223567872	21	13760
2026-01-22 21:33:16.21	251.40	22.10	-24.7	-24.5	16.1	0.00e+00	0	48	0	16332619776	21	13739
2026-01-22 21:33:17.22	251.78	22.16	-24.6	-24.4	15.6	0.00e+00	0	47	0	16450060288	21	13611
2026-01-22 21:33:18.23	252.15	22.22	-24.5	-24.4	16.0	0.00e+00	0	48	0	16559112192	21	13524
2026-01-22 21:33:19.24	252.54	22.28	-24.5	-24.4	15.7	0.00e+00	0	48	0	16676552704	21	13485
2026-01-22 21:33:20.24	252.91	22.34	-24.5	-24.4	16.1	0.00e+00	0	47	0	16785604608	20	14336
2026-01-22 21:33:21.25	253.30	22.39	-24.6	-24.4	15.9	0.00e+00	0	48	0	16894656512	20	14417
2026-01-22 21:33:22.26	253.68	22.45	-24.5	-24.4	15.7	0.00e+00	0	48	0	17012097024	20	14324
2026-01-22 21:33:23.26	254.07	22.50	-24.5	-24.4	15.9	0.00e+00	0	48	0	17121148928	20	14301
2026-01-22 21:33:24.27	254.46	22.56	-24.5	-24.3	15.6	1.90e-06	0	48	0	17238589440	20	14215
2026-01-22 21:33:25.28	254.85	22.61	-24.5	-24.3	16.0	0.00e+00	0	48	0	17347641344	20	14272
2026-01-22 21:33:26.29	255.24	22.66	-24.5	-24.3	16.0	0.00e+00	0	48	0	17456693248	20	14216
2026-01-22 21:33:27.30	255.63	22.71	-24.5	-24.3	15.8	0.00e+00	0	48	0	17582522368	20	14182
2026-01-22 21:33:28.31	256.02	22.76	-24.5	-24.3	15.6	0.00e+00	0	48	0	17699962880	20	14210
2026-01-22 21:33:29.31	256.42	22.80	-24.5	-24.3	16.0	0.00e+00	0	48	0	17809014784	20	14267
2026-01-22 21:33:30.32	256.81	22.85	-24.4	-24.2	15.8	0.00e+00	0	47	0	17918066688	20	14062
2026-01-22 21:33:31.33	257.21	22.90	-24.5	-24.3	15.7	0.00e+00	0	48	0	18035507200	20	14210
2026-01-22 21:33:32.33	257.61	22.94	-24.5	-24.3	16.1	1.90e-06	0	48	0	18144559104	20	14267
2026-01-22 21:33:33.34	258.01	22.98	-24.4	-24.2	16.1	0.00e+00	0	48	0	18261999616	20	14084
2026-01-22 21:33:34.35	258.41	23.02	-24.4	-24.3	15.7	0.00e+00	0	48	0	18371051520	20	14143
2026-01-22 21:33:35.36	258.81	23.06	-24.5	-24.3	16.0	1.90e-06	0	48	0	18488492032	20	14242
2026-01-22 21:33:36.37	259.21	23.10	-24.5	-24.3	16.2	0.00e+00	0	48	0	18597543936	20	14194
2026-01-22 21:33:37.38	259.62	23.14	-24.5	-24.4	15.9	0.00e+00	0	48	0	18706595840	20	14277
2026-01-22 21:33:38.39	260.03	23.18	-24.5	-24.3	16.1	0.00e+00	0	48	0	18824036352	20	14177
2026-01-22 21:33:39.39	260.43	23.21	-24.5	-24.3	16.5	0.00e+00	0	48	0	18933088256	20	14256
2026-01-22 21:33:40.40	260.84	23.24	-24.5	-24.3	16.5	0.00e+00	0	48	0	19058917376	20	14209
2026-01-22 21:33:41.41	261.25	23.28	-24.4	-24.3	16.5	0.00e+00	0	48	0	19167969280	20	14131
2026-01-22 21:33:42.42	261.65	23.31	-24.5	-24.3	16.4	0.00e+00	0	48	0	19285409792	20	14244
2026-01-22 21:33:43.43	262.07	23.34	-24.5	-24.3	16.6	0.00e+00	0	48	0	19394461696	20	14251
2026-01-22 21:33:44.43	262.47	23.37	-24.4	-24.2	16.9	0.00e+00	0	48	0	19511902208	20	14057
2026-01-22 21:33:45.44	262.88	23.39	-24.4	-24.3	16.7	0.00e+00	0	48	0	19620954112	20	14164
2026-01-22 21:33:46.45	263.30	23.42	-24.4	-24.2	16.6	0.00e+00	0	48	0	19730006016	20	14077
2026-01-22 21:33:47.46	263.71	23.44	-24.4	-24.3	16.6	0.00e+00	0	48	0	19847446528	20	14139
2026-01-22 21:33:48.47	264.13	23.47	-24.5	-24.3	16.9	0.00e+00	0	48	0	19956498432	20	14237
2026-01-22 21:33:49.48	264.54	23.49	-24.4	-24.3	17.2	0.00e+00	0	48	0	20073938944	20	14115
2026-01-22 21:33:50.48	264.95	23.51	-24.5	-24.4	17.2	0.00e+00	0	48	0	20182990848	20	14303
2026-01-22 21:33:51.49	265.37	23.53	-24.5	-24.3	17.0	0.00e+00	0	48	0	20292042752	20	14241
2026-01-22 21:33:52.50	265.78	23.54	-24.6	-24.4	17.3	0.00e+00	0	48	0	20417871872	20	14333
2026-01-22 21:33:53.51	266.20	23.56	-24.5	-24.3	17.2	0.00e+00	0	48	0	20535312384	20	14188
2026-01-22 21:33:54.51	266.61	23.57	-24.5	-24.3	17.6	0.00e+00	0	48	0	20644364288	20	14218
2026-01-22 21:33:55.52	267.03	23.59	-24.5	-24.3	17.9	0.00e+00	0	48	0	20753416192	20	14273
2026-01-22 21:33:56.53	267.45	23.60	-24.6	-24.4	17.9	0.00e+00	0	48	0	20870856704	20	14347
2026-01-22 21:33:57.54	267.87	23.61	-24.6	-24.5	17.9	0.00e+00	0	48	0	20979908608	20	14476
2026-01-22 21:33:58.55	268.29	23.62	-24.6	-24.5	18.0	0.00e+00	0	48	0	21097349120	20	14446
2026-01-22 21:33:59.56	268.71	23.62	-24.6	-24.4	17.8	0.00e+00	0	48	0	21206401024	20	14372
2026-01-22 21:34:00.57	269.13	23.63	-24.8	-24.6	17.9	0.00e+00	0	48	0	21315452928	20	14657
2026-01-22 21:34:01.57	269.54	23.63	-24.7	-24.5	18.2	0.00e+00	0	48	0	21432893440	20	14595
2026-01-22 21:34:02.58	269.96	23.63	-24.8	-24.6	18.3	0.00e+00	0	48	0	21541945344	20	14666
2026-01-22 21:34:03.59	270.38	23.64	-24.7	-24.6	18.4	0.00e+00	0	48	0	21659385856	20	14638
2026-01-22 21:34:04.60	270.80	23.64	-24.7	-24.5	18.4	0.00e+00	0	48	0	21776826368	20	14577
2026-01-22 21:34:05.61	271.22	23.63	-24.7	-24.5	18.5	0.00e+00	0	48	0	21894266880	20	14606
2026-01-22 21:34:06.61	271.63	23.63	-24.7	-24.6	18.7	0.00e+00	0	48	0	22003318784	20	14637
2026-01-22 21:34:07.62	272.05	23.63	-24.7	-24.6	18.8	0.00e+00	0	48	0	22120759296	20	14625
2026-01-22 21:34:08.63	272.47	23.62	-24.8	-24.7	18.9	0.00e+00	0	48	0	22229811200	20	14779
2026-01-22 21:34:09.63	272.89	23.61	-24.8	-24.6	18.9	0.00e+00	0	48	0	22347251712	20	14741
2026-01-22 21:34:10.64	273.30	23.60	-24.7	-24.6	19.0	0.00e+00	0	48	0	22456303616	20	14618
2026-01-22 21:34:11.64	273.72	23.59	-24.8	-24.7	19.0	0.00e+00	0	48	0	22565355520	20	14777
2026-01-22 21:34:12.65	274.14	23.58	-24.8	-24.7	19.1	0.00e+00	0	48	0	22682796032	20	14801
2026-01-22 21:34:13.66	274.55	23.57	-24.8	-24.6	19.1	0.00e+00	0	47	0	22791847936	20	14761
2026-01-22 21:34:14.67	274.97	23.55	-24.8	-24.6	19.2	0.00e+00	0	48	0	22909288448	20	14683
2026-01-22 21:34:15.68	275.39	23.54	-24.9	-24.7	19.2	0.00e+00	0	48	0	23018340352	20	14890
2026-01-22 21:34:16.69	275.80	23.52	-24.8	-24.6	19.3	0.00e+00	0	48	0	23127392256	20	14683
2026-01-22 21:34:17.70	276.22	23.50	-24.8	-24.6	19.3	0.00e+00	0	47	0	23244832768	20	14730
2026-01-22 21:34:18.70	276.63	23.48	-24.8	-24.7	19.5	0.00e+00	0	48	0	23370661888	20	14815
2026-01-22 21:34:19.71	277.04	23.46	-24.8	-24.7	19.6	0.00e+00	0	48	0	23479713792	20	14809
2026-01-22 21:34:20.72	277.46	23.44	-24.8	-24.7	19.5	0.00e+00	0	48	0	23588765696	20	14806
2026-01-22 21:34:21.73	277.87	23.41	-24.9	-24.8	19.6	0.00e+00	0	48	0	23706206208	20	14993
2026-01-22 21:34:22.73	278.28	23.39	-24.9	-24.7	19.7	0.00e+00	0	48	0	23815258112	20	14946
2026-01-22 21:34:23.74	278.69	23.36	-25.0	-24.8	19.7	0.00e+00	0	48	0	23932698624	20	15102
2026-01-22 21:34:24.75	279.10	23.33	-25.0	-24.8	19.7	0.00e+00	0	48	0	24041750528	20	15049
2026-01-22 21:34:25.75	279.51	23.30	-25.0	-24.8	19.6	0.00e+00	0	48	0	24150802432	20	15078
2026-01-22 21:34:26.76	279.92	23.27	-25.0	-24.8	19.6	0.00e+00	0	48	0	24268242944	20	15017
2026-01-22 21:34:27.77	280.32	23.24	-25.0	-24.8	19.6	0.00e+00	0	48	0	24377294848	20	15110
2026-01-22 21:34:28.78	280.73	23.20	-24.9	-24.8	19.6	0.00e+00	0	48	0	24494735360	20	14988
2026-01-22 21:34:29.79	281.14	23.17	-25.0	-24.9	19.6	0.00e+00	0	48	0	24603787264	20	15132
2026-01-22 21:34:30.79	281.54	23.13	-25.0	-24.8	19.6	0.00e+00	0	48	0	24712839168	20	15044
2026-01-22 21:34:31.80	281.94	23.09	-25.1	-24.9	19.5	0.00e+00	0	48	0	24838668288	20	15279
2026-01-22 21:34:32.81	282.34	23.05	-25.1	-24.9	19.6	0.00e+00	0	48	0	24956108800	20	15207
2026-01-22 21:34:33.82	282.75	23.01	-25.2	-25.0	19.5	0.00e+00	0	48	0	25065160704	20	15376
2026-01-22 21:34:34.83	283.15	22.97	-25.2	-25.0	19.6	0.00e+00	0	47	0	25174212608	21	14596
2026-01-22 21:34:35.83	283.54	22.93	-25.1	-25.0	19.7	0.00e+00	0	48	0	25291653120	21	14487
2026-01-22 21:34:36.84	283.94	22.89	-25.1	-24.9	19.7	0.00e+00	0	48	0	25400705024	21	14430
2026-01-22 21:34:37.85	284.34	22.84	-25.2	-25.0	19.6	0.00e+00	0	48	0	25518145536	21	14582
2026-01-22 21:34:38.85	284.73	22.79	-25.2	-25.0	19.6	0.00e+00	0	48	0	25627197440	21	14505
2026-01-22 21:34:39.86	285.12	22.75	-25.2	-25.1	19.6	0.00e+00	0	48	0	25744637952	21	14629
2026-01-22 21:34:40.87	285.52	22.70	-25.2	-25.0	19.6	0.00e+00	0	48	0	25853689856	21	14573
2026-01-22 21:34:41.88	285.91	22.65	-25.2	-25.1	19.7	0.00e+00	0	47	0	25962741760	21	14622
2026-01-22 21:34:42.89	286.30	22.60	-25.2	-25.1	19.7	0.00e+00	0	48	0	26080182272	21	14628
2026-01-22 21:34:43.89	286.68	22.54	-25.2	-25.0	19.8	0.00e+00	0	48	0	26189234176	21	14531
2026-01-22 21:34:44.90	287.07	22.49	-25.3	-25.1	19.7	0.00e+00	0	48	0	26315063296	21	14744
2026-01-22 21:34:45.91	287.46	22.44	-25.3	-25.2	19.8	0.00e+00	0	48	0	26424115200	21	14786
2026-01-22 21:34:46.92	287.84	22.38	-25.3	-25.2	19.8	0.00e+00	0	48	0	26541555712	21	14790
2026-01-22 21:34:47.92	288.22	22.33	-25.4	-25.2	19.8	0.00e+00	0	48	0	26650607616	21	14884
2026-01-22 21:34:48.93	288.60	22.27	-25.5	-25.3	19.8	0.00e+00	0	48	0	26768048128	21	15006
2026-01-22 21:34:49.94	288.98	22.21	-25.6	-25.5	19.8	0.00e+00	0	48	0	26877100032	21	15342
2026-01-22 21:34:50.95	289.36	22.15	-25.6	-25.4	19.8	0.00e+00	0	48	0	26986151936	22	14408
2026-01-22 21:34:51.96	289.73	22.09	-25.5	-25.3	19.8	0.00e+00	0	48	0	27103592448	22	14250
2026-01-22 21:34:52.96	290.11	22.03	-25.5	-25.4	19.6	0.00e+00	0	48	0	27212644352	22	14304
2026-01-22 21:34:53.96	290.48	21.97	-25.6	-25.4	19.6	0.00e+00	0	48	0	27330084864	22	14342
2026-01-22 21:34:54.96	290.84	21.90	-25.6	-25.5	19.6	0.00e+00	0	48	0	27439136768	22	14452
2026-01-22 21:34:55.94	291.20	21.84	-25.7	-25.5	19.6	0.00e+00	0	48	0	27548188672	22	14607
2026-01-22 21:34:56.92	291.56	21.78	-25.9	-25.7	19.6	0.00e+00	0	48	0	27665629184	22	14851
2026-01-22 21:34:57.89	291.91	21.71	-25.9	-25.7	19.6	0.00e+00	0	48	0	27766292480	22	14842
2026-01-22 21:34:58.86	292.26	21.65	-25.8	-25.7	19.6	0.00e+00	0	48	0	27875344384	22	14778
2026-01-22 21:34:59.83	292.61	21.59	-25.8	-25.7	19.5	0.00e+00	0	48	0	27992784896	22	14790
2026-01-22 21:35:00.80	292.96	21.52	-25.7	-25.5	19.6	0.00e+00	0	48	0	28101836800	22	14577
2026-01-22 21:35:01.77	293.30	21.45	-25.7	-25.6	19.6	0.00e+00	0	48	0	28202500096	22	14620
2026-01-22 21:35:02.74	293.65	21.39	-25.8	-25.6	19.6	0.00e+00	0	48	0	28319940608	22	14770
2026-01-22 21:35:03.71	293.99	21.32	-25.9	-25.7	19.5	0.00e+00	0	48	0	28428992512	22	14844
2026-01-22 21:35:04.68	294.33	21.25	-25.9	-25.7	19.5	0.00e+00	0	48	0	28529655808	22	14869
2026-01-22 21:35:05.65	294.67	21.18	-25.9	-25.8	19.5	0.00e+00	0	48	0	28647096320	22	14957
2026-01-22 21:35:06.62	295.01	21.11	-26.0	-25.8	19.5	0.00e+00	0	48	0	28756148224	22	14997
2026-01-22 21:35:07.59	295.34	21.04	-25.9	-25.7	19.5	0.00e+00	0	48	0	28856811520	22	14943
2026-01-22 21:35:08.56	295.68	20.97	-25.9	-25.7	19.5	0.00e+00	0	48	0	28965863424	22	14908
2026-01-22 21:35:09.53	296.01	20.90	-26.0	-25.8	19.4	0.00e+00	0	48	0	29083303936	22	15012
2026-01-22 21:35:10.51	296.34	20.82	-26.0	-25.8	19.5	0.00e+00	0	48	0	29192355840	22	15047
2026-01-22 21:35:11.48	296.67	20.75	-26.0	-25.8	19.5	0.00e+00	0	48	0	29293019136	22	15094
2026-01-22 21:35:12.45	297.00	20.68	-26.1	-26.0	19.5	0.00e+00	0	48	0	29410459648	22	15321
2026-01-22 21:35:13.41	297.32	20.60	-26.1	-26.0	19.6	0.00e+00	0	48	0	29519511552	22	15347
2026-01-22 21:35:14.38	297.64	20.53	-26.3	-26.1	19.5	0.00e+00	0	48	0	29620174848	23	14703
2026-01-22 21:35:15.35	297.97	20.45	-26.3	-26.1	19.5	0.00e+00	0	48	0	29737615360	23	14726
2026-01-22 21:35:16.33	298.29	20.37	-26.2	-26.1	19.6	0.00e+00	0	48	0	29846667264	23	14653
2026-01-22 21:35:17.30	298.61	20.30	-26.1	-26.0	19.5	0.00e+00	0	48	0	29955719168	23	14465
2026-01-22 21:35:18.27	298.92	20.22	-26.2	-26.1	19.5	0.00e+00	0	48	0	30056382464	23	14623
2026-01-22 21:35:19.24	299.24	20.14	-26.2	-26.0	19.5	0.00e+00	0	48	0	30173822976	23	14574
2026-01-22 21:35:20.21	299.55	20.06	-26.3	-26.1	19.6	0.00e+00	0	48	0	30282874880	23	14690
2026-01-22 21:35:21.18	299.86	19.99	-26.3	-26.1	19.6	0.00e+00	0	48	0	30383538176	23	14762
2026-01-22 21:35:22.15	300.17	19.91	-26.4	-26.2	19.5	0.00e+00	0	48	0	30500978688	23	14829
2026-01-22 21:35:23.12	300.48	19.83	-26.4	-26.2	19.5	0.00e+00	0	48	0	30610030592	23	14924
2026-01-22 21:35:24.09	300.79	19.75	-26.5	-26.3	19.5	0.00e+00	0	48	0	30710693888	23	15058
2026-01-22 21:35:25.06	301.09	19.67	-26.4	-26.2	19.5	0.00e+00	0	48	0	30828134400	23	14918
2026-01-22 21:35:26.03	301.39	19.59	-26.3	-26.2	19.5	0.00e+00	0	48	0	30937186304	23	14790
2026-01-22 21:35:27.00	301.69	19.51	-26.4	-26.2	19.4	0.00e+00	0	48	0	31054626816	23	14833
2026-01-22 21:35:27.97	301.99	19.42	-26.4	-26.2	19.5	0.00e+00	0	48	0	31155290112	23	14927
2026-01-22 21:35:28.94	302.29	19.34	-26.5	-26.3	19.4	0.00e+00	0	48	0	31264342016	23	15058
2026-01-22 21:35:29.91	302.58	19.26	-26.5	-26.4	19.3	0.00e+00	0	48	0	31373393920	23	15132
2026-01-22 21:35:30.89	302.88	19.18	-26.4	-26.3	19.3	0.00e+00	0	48	0	31474057216	23	14981
2026-01-22 21:35:31.86	303.17	19.09	-26.5	-26.3	19.2	0.00e+00	0	48	0	31591497728	23	15074
2026-01-22 21:35:32.83	303.46	19.01	-26.5	-26.3	19.3	0.00e+00	0	48	0	31700549632	23	15078
2026-01-22 21:35:33.80	303.75	18.93	-26.6	-26.5	19.1	0.00e+00	0	48	0	31817990144	23	15309
2026-01-22 21:35:34.78	304.04	18.84	-26.6	-26.4	19.2	0.00e+00	0	48	0	31918653440	23	15235
2026-01-22 21:35:35.75	304.32	18.76	-26.5	-26.3	19.1	0.00e+00	0	48	0	32027705344	23	15094
2026-01-22 21:35:36.72	304.61	18.67	-26.5	-26.3	19.1	0.00e+00	0	48	0	32145145856	23	15072
2026-01-22 21:35:37.68	304.88	18.59	-26.5	-26.3	19.1	0.00e+00	0	48	0	32245809152	23	15115
2026-01-22 21:35:38.65	305.16	18.51	-26.6	-26.4	18.9	0.00e+00	0	48	0	32354861056	23	15263
2026-01-22 21:35:39.63	305.44	18.42	-26.7	-26.5	19.0	0.00e+00	0	48	0	32463912960	24	14512
2026-01-22 21:35:40.60	305.72	18.34	-26.7	-26.5	19.0	0.00e+00	0	48	0	32581353472	24	14527
2026-01-22 21:35:41.57	305.99	18.25	-26.7	-26.5	19.0	0.00e+00	0	48	0	32682016768	24	14598
2026-01-22 21:35:42.54	306.27	18.16	-26.8	-26.6	18.8	0.00e+00	0	48	0	32791068672	24	14670
2026-01-22 21:35:43.51	306.54	18.08	-26.8	-26.6	19.0	0.00e+00	0	48	0	32908509184	24	14726
2026-01-22 21:35:44.48	306.81	17.99	-26.8	-26.7	18.7	0.00e+00	0	48	0	33009172480	24	14779
2026-01-22 21:35:45.45	307.07	17.91	-27.0	-26.8	18.9	0.00e+00	0	48	0	33118224384	24	15077
2026-01-22 21:35:46.42	307.34	17.82	-26.9	-26.8	18.7	0.00e+00	0	48	0	33235664896	24	14953
2026-01-22 21:35:47.39	307.60	17.73	-27.0	-26.8	18.9	0.00e+00	0	48	0	33336328192	24	15045
2026-01-22 21:35:48.36	307.86	17.65	-27.0	-26.9	18.7	0.00e+00	0	48	0	33445380096	24	15161
2026-01-22 21:35:49.33	308.13	17.56	-27.0	-26.8	18.9	0.00e+00	0	48	0	33562820608	24	15075
2026-01-22 21:35:50.30	308.38	17.47	-27.0	-26.8	18.7	0.00e+00	0	48	0	33671872512	24	15074
2026-01-22 21:35:51.27	308.64	17.39	-27.1	-26.9	18.8	0.00e+00	0	48	0	33772535808	24	15226
2026-01-22 21:35:52.24	308.90	17.30	-27.0	-26.9	18.7	0.00e+00	0	48	0	33881587712	24	15147
2026-01-22 21:35:53.21	309.15	17.21	-27.1	-26.9	18.6	0.00e+00	0	48	0	33999028224	24	15264
2026-01-22 21:35:54.19	309.41	17.12	-27.1	-26.9	18.7	0.00e+00	0	48	0	34099691520	24	15270
2026-01-22 21:35:55.16	309.66	17.04	-27.1	-27.0	18.6	0.00e+00	0	48	0	34208743424	24	15333
2026-01-22 21:35:56.13	309.90	16.95	-27.2	-27.1	18.7	0.00e+00	0	48	0	34326183936	25	14649
2026-01-22 21:35:57.10	310.15	16.86	-27.2	-27.0	18.6	0.00e+00	0	48	0	34435235840	25	14545
2026-01-22 21:35:58.07	310.40	16.77	-27.2	-27.1	18.6	0.00e+00	0	48	0	34535899136	25	14660
2026-01-22 21:35:59.04	310.64	16.69	-27.2	-27.1	18.6	0.00e+00	0	48	0	34653339648	25	14627
2026-01-22 21:36:00.01	310.88	16.60	-27.3	-27.2	18.4	0.00e+00	0	48	0	34762391552	25	14827
2026-01-22 21:36:00.98	311.12	16.51	-27.4	-27.2	18.5	0.00e+00	0	48	0	34863054848	25	14861
2026-01-22 21:36:01.95	311.36	16.42	-27.5	-27.3	18.4	0.00e+00	0	48	0	34980495360	25	15055
2026-01-22 21:36:02.93	311.60	16.33	-27.5	-27.3	18.5	0.00e+00	0	48	0	35089547264	25	15098
2026-01-22 21:36:03.90	311.84	16.25	-27.4	-27.2	18.5	0.00e+00	0	48	0	35198599168	25	14921
2026-01-22 21:36:04.86	312.07	16.16	-27.4	-27.2	18.4	0.00e+00	0	48	0	35299262464	25	14868
2026-01-22 21:36:05.83	312.31	16.07	-27.4	-27.3	18.5	0.00e+00	0	48	0	35416702976	25	14950
2026-01-22 21:36:06.80	312.54	15.98	-27.6	-27.4	18.2	0.00e+00	0	48	0	35525754880	25	15229
2026-01-22 21:36:07.77	312.77	15.90	-27.5	-27.4	18.4	0.00e+00	0	48	0	35626418176	25	15167
2026-01-22 21:36:08.73	312.99	15.81	-27.6	-27.4	18.4	0.00e+00	0	48	0	35743858688	25	15250
2026-01-22 21:36:09.71	313.22	15.72	-27.6	-27.4	18.1	0.00e+00	0	48	0	35852910592	25	15198
2026-01-22 21:36:10.68	313.45	15.63	-27.6	-27.4	18.2	0.00e+00	0	48	0	35953573888	25	15252
2026-01-22 21:36:11.66	313.67	15.54	-27.6	-27.5	18.0	0.00e+00	0	48	0	36071014400	25	15312
2026-01-22 21:36:12.63	313.90	15.46	-27.8	-27.6	17.8	0.00e+00	0	48	0	36180066304	26	14719
2026-01-22 21:36:13.60	314.12	15.37	-27.9	-27.7	17.8	0.00e+00	0	48	0	36289118208	26	14871
2026-01-22 21:36:14.57	314.34	15.28	-27.7	-27.5	17.8	0.00e+00	0	48	0	36398170112	26	14591
2026-01-22 21:36:15.54	314.55	15.19	-27.8	-27.6	17.7	0.00e+00	0	48	0	36507222016	26	14741
2026-01-22 21:36:16.52	314.77	15.10	-27.9	-27.7	17.7	1.90e-06	0	48	0	36616273920	26	14937
2026-01-22 21:36:17.49	314.99	15.02	-27.9	-27.7	17.5	0.00e+00	0	48	0	36716937216	26	14919
2026-01-22 21:36:18.46	315.20	14.93	-28.0	-27.8	17.4	0.00e+00	0	48	0	36834377728	26	15021
2026-01-22 21:36:19.43	315.41	14.84	-28.0	-27.8	17.6	0.00e+00	0	48	0	36943429632	26	15028
2026-01-22 21:36:20.40	315.63	14.75	-27.9	-27.8	17.7	0.00e+00	0	48	0	37060870144	26	14950
2026-01-22 21:36:21.37	315.84	14.67	-28.0	-27.8	17.4	0.00e+00	0	48	0	37161533440	26	15106
2026-01-22 21:36:22.34	316.04	14.58	-28.1	-27.9	17.5	0.00e+00	0	48	0	37270585344	26	15205
2026-01-22 21:36:23.31	316.25	14.49	-28.1	-27.9	17.6	0.00e+00	0	48	0	37388025856	26	15285
2026-01-22 21:36:24.28	316.46	14.41	-28.2	-28.1	17.4	0.00e+00	0	48	0	37488689152	27	14615
2026-01-22 21:36:25.25	316.66	14.32	-28.1	-28.0	17.5	0.00e+00	0	48	0	37597741056	27	14492
2026-01-22 21:36:26.23	316.86	14.23	-28.3	-28.2	17.4	0.00e+00	0	48	0	37706792960	27	14790
2026-01-22 21:36:27.20	317.06	14.15	-28.2	-28.0	17.6	0.00e+00	0	48	0	37815844864	27	14589
2026-01-22 21:36:28.17	317.26	14.06	-28.2	-28.1	17.5	0.00e+00	0	48	0	37924896768	27	14656
2026-01-22 21:36:29.14	317.46	13.97	-28.4	-28.2	17.4	0.00e+00	0	48	0	38033948672	27	14920
2026-01-22 21:36:30.11	317.66	13.89	-28.4	-28.2	17.5	0.00e+00	0	48	0	38151389184	27	14847
2026-01-22 21:36:31.08	317.86	13.80	-28.3	-28.1	17.8	1.90e-06	0	48	0	38252052480	27	14695
2026-01-22 21:36:32.05	318.05	13.71	-28.3	-28.2	17.6	1.90e-06	0	48	0	38361104384	27	14803
2026-01-22 21:36:33.02	318.24	13.63	-28.4	-28.2	17.4	1.90e-06	0	48	0	38478544896	27	14942
2026-01-22 21:36:33.99	318.44	13.54	-28.4	-28.3	17.7	0.00e+00	0	48	0	38579208192	27	14954
2026-01-22 21:36:34.96	318.63	13.46	-28.6	-28.5	17.5	0.00e+00	0	48	0	38688260096	27	15300
2026-01-22 21:36:35.93	318.82	13.37	-28.6	-28.4	17.6	1.90e-06	0	48	0	38805700608	27	15216
2026-01-22 21:36:36.90	319.01	13.29	-28.5	-28.4	17.7	0.00e+00	0	48	0	38914752512	27	15171
2026-01-22 21:36:37.87	319.19	13.20	-28.4	-28.2	17.5	1.90e-06	0	48	0	39015415808	27	14850
2026-01-22 21:36:38.84	319.38	13.11	-28.4	-28.2	17.5	0.00e+00	0	48	0	39124467712	27	14891
2026-01-22 21:36:39.82	319.56	13.03	-28.5	-28.3	17.6	1.90e-06	0	47	0	39241908224	27	15073
2026-01-22 21:36:40.79	319.75	12.94	-28.5	-28.4	17.6	0.00e+00	0	48	0	39342571520	27	15169
2026-01-22 21:36:41.76	319.93	12.86	-28.7	-28.5	17.5	0.00e+00	0	48	0	39451623424	27	15391
2026-01-22 21:36:42.73	320.11	12.77	-28.5	-28.3	17.5	1.90e-06	0	48	0	39569063936	28	14235
2026-01-22 21:36:43.70	320.29	12.69	-28.5	-28.3	17.4	0.00e+00	0	48	0	39678115840	28	14273
2026-01-22 21:36:44.67	320.47	12.61	-28.6	-28.5	17.5	0.00e+00	0	48	0	39778779136	28	14489
2026-01-22 21:36:45.64	320.65	12.52	-28.6	-28.5	17.6	0.00e+00	0	48	0	39896219648	28	14448
2026-01-22 21:36:46.61	320.82	12.44	-28.6	-28.4	17.6	0.00e+00	0	48	0	40005271552	28	14405
2026-01-22 21:36:47.58	321.00	12.35	-28.6	-28.5	17.7	0.00e+00	0	48	0	40105934848	28	14481
2026-01-22 21:36:48.54	321.17	12.27	-28.7	-28.5	17.7	0.00e+00	0	48	0	40214986752	28	14584
2026-01-22 21:36:49.52	321.35	12.19	-28.8	-28.6	17.7	1.90e-06	0	48	0	40332427264	28	14756
2026-01-22 21:36:50.49	321.52	12.10	-28.7	-28.6	17.6	0.00e+00	0	48	0	40433090560	28	14617
2026-01-22 21:36:51.46	321.69	12.02	-28.8	-28.7	17.6	5.70e-06	0	48	0	40542142464	28	14781
2026-01-22 21:36:52.43	321.86	11.94	-28.8	-28.6	17.5	0.00e+00	0	48	0	40659582976	28	14734
2026-01-22 21:36:53.40	322.03	11.85	-28.8	-28.7	17.5	0.00e+00	0	48	0	40768634880	28	14809
2026-01-22 21:36:54.37	322.19	11.77	-28.8	-28.7	17.7	0.00e+00	0	48	0	40869298176	28	14814
2026-01-22 21:36:55.34	322.36	11.69	-28.9	-28.7	17.6	0.00e+00	0	48	0	40986738688	28	14871
2026-01-22 21:36:56.31	322.52	11.61	-28.8	-28.7	17.7	1.90e-06	0	48	0	41095790592	28	14783
2026-01-22 21:36:57.28	322.69	11.52	-28.9	-28.7	17.8	0.00e+00	0	48	0	41196453888	28	14886
2026-01-22 21:36:58.25	322.85	11.44	-29.0	-28.8	17.7	0.00e+00	0	48	0	41313894400	28	15043
2026-01-22 21:36:59.22	323.01	11.36	-29.0	-28.8	17.7	0.00e+00	0	48	0	41422946304	28	15119
2026-01-22 21:37:00.19	323.17	11.28	-29.0	-28.8	17.6	0.00e+00	0	48	0	41523609600	28	15028
2026-01-22 21:37:01.16	323.33	11.20	-29.1	-28.9	17.6	0.00e+00	0	48	0	41632661504	28	15285
2026-01-22 21:37:02.14	323.49	11.12	-29.2	-29.0	17.5	0.00e+00	0	48	0	41750102016	28	15447
2026-01-22 21:37:03.11	323.65	11.03	-29.1	-29.0	17.5	1.90e-06	0	48	0	41859153920	28	15311
2026-01-22 21:37:04.08	323.81	10.95	-29.1	-29.0	17.6	0.00e+00	0	48	0	41959817216	28	15298
2026-01-22 21:37:05.05	323.97	10.87	-29.2	-29.0	17.5	0.00e+00	0	48	0	42077257728	29	14564
2026-01-22 21:37:06.02	324.12	10.79	-29.3	-29.1	17.4	3.80e-06	0	48	0	42186309632	29	14776
2026-01-22 21:37:06.99	324.27	10.71	-29.3	-29.1	17.5	1.90e-06	0	48	0	42286972928	29	14703
2026-01-22 21:37:07.96	324.43	10.63	-51.6	-52.7	6.7	0.00e+00	0	47	104	42328915968	73	17634
2026-01-22 21:37:08.93	324.58	10.55	-54.2	-56.3	6.2	0.00e+00	0	47	104	42328915968	78	20146
2026-01-22 21:37:09.89	324.73	10.47	-54.1	-56.3	6.2	0.00e+00	0	47	104	42328915968	78	19948
2026-01-22 21:37:10.86	324.88	10.39	-54.1	-56.3	6.2	0.00e+00	0	47	104	42328915968	78	19987
2026-01-22 21:37:11.83	325.03	10.31	-54.2	-56.3	6.2	0.00e+00	0	47	104	42328915968	78	19973
2026-01-22 21:37:12.80	325.18	10.23	-54.1	-56.2	6.2	0.00e+00	0	47	104	42328915968	78	19920
2026-01-22 21:37:13.77	325.32	10.15	-54.1	-56.3	6.2	0.00e+00	0	47	104	42328915968	78	19943
2026-01-22 21:37:14.74	325.47	10.07	-54.1	-56.2	6.2	0.00e+00	0	47	104	42328915968	78	19876
2026-01-22 21:37:15.71	325.62	10.00	-54.1	-56.3	6.2	0.00e+00	0	47	104	42328915968	78	19984
2026-01-22 21:37:16.69	325.76	9.92	-54.1	-56.2	6.2	0.00e+00	0	47	104	42328915968	78	19805
2026-01-22 21:37:17.65	325.90	9.84	-54.1	-56.2	6.2	0.00e+00	0	47	104	42328915968	78	19716
2026-01-22 21:37:18.62	326.05	9.76	-54.0	-56.1	6.2	0.00e+00	0	47	104	42328915968	78	19668
2026-01-22 21:37:19.59	326.19	9.68	-54.0	-56.2	6.2	0.00e+00	0	47	104	42328915968	78	19724
2026-01-22 21:37:20.56	326.33	9.60	-54.0	-56.1	6.2	0.00e+00	0	47	104	42328915968	78	19648
2026-01-22 21:37:21.53	326.47	9.53	-54.0	-56.1	6.2	0.00e+00	0	47	104	42328915968	78	19639
2026-01-22 21:37:22.50	326.61	9.45	-54.0	-56.1	6.2	0.00e+00	0	47	104	42328915968	78	19515
2026-01-22 21:37:23.48	326.75	9.37	-54.0	-56.1	6.2	0.00e+00	0	47	104	42328915968	78	19546
2026-01-22 21:37:24.45	326.89	9.29	-54.0	-56.1	6.2	0.00e+00	0	47	104	42328915968	78	19553
2026-01-22 21:37:25.42	327.02	9.22	-54.0	-56.0	6.2	0.00e+00	0	47	104	42328915968	78	19441
2026-01-22 21:37:26.39	327.16	9.14	-53.9	-56.0	6.2	0.00e+00	0	47	104	42328915968	78	19440
2026-01-22 21:37:27.36	327.29	9.06	-53.9	-56.1	6.2	0.00e+00	0	47	104	42328915968	78	19482
2026-01-22 21:37:28.33	327.43	8.99	-53.9	-56.0	6.2	0.00e+00	0	47	104	42328915968	78	19468
2026-01-22 21:37:29.30	327.56	8.91	-53.9	-56.0	6.2	0.00e+00	0	47	104	42328915968	78	19298
2026-01-22 21:37:30.27	327.69	8.84	-53.9	-56.0	6.2	0.00e+00	0	47	104	42328915968	78	19281
2026-01-22 21:37:31.24	327.83	8.76	-53.9	-56.0	6.2	0.00e+00	0	47	104	42328915968	78	19290
2026-01-22 21:37:32.21	327.96	8.68	-53.9	-56.0	6.2	0.00e+00	0	47	104	42328915968	78	19371
2026-01-22 21:37:33.18	328.09	8.61	-53.9	-56.0	6.2	0.00e+00	0	47	104	42328915968	78	19291
2026-01-22 21:37:34.15	328.22	8.53	-53.8	-56.0	6.2	0.00e+00	0	47	104	42328915968	78	19275
2026-01-22 21:37:35.11	328.34	8.46	-53.8	-55.9	6.2	0.00e+00	0	47	104	42328915968	78	19175
2026-01-22 21:37:36.08	328.47	8.38	-53.9	-56.0	6.2	0.00e+00	0	47	104	42328915968	78	19291
2026-01-22 21:37:37.05	328.60	8.31	-53.8	-55.9	6.2	0.00e+00	0	47	104	42328915968	78	19119
2026-01-22 21:37:38.03	328.73	8.23	-53.8	-55.9	6.2	0.00e+00	0	47	104	42328915968	78	19119
2026-01-22 21:37:39.00	328.85	8.16	-53.8	-55.9	6.2	0.00e+00	0	47	104	42328915968	78	19099
2026-01-22 21:37:39.97	328.98	8.08	-53.9	-56.0	6.2	0.00e+00	0	47	104	42328915968	78	19307
2026-01-22 21:37:40.94	329.10	8.01	-53.8	-55.9	6.2	0.00e+00	0	47	104	42328915968	78	19078
2026-01-22 21:37:41.91	329.22	7.94	-53.8	-55.9	6.2	0.00e+00	0	47	104	42328915968	78	19140
2026-01-22 21:37:42.87	329.34	7.86	-53.7	-55.8	6.2	0.00e+00	0	47	104	42328915968	78	19001
2026-01-22 21:37:43.84	329.47	7.79	-53.8	-55.9	6.2	0.00e+00	0	47	104	42328915968	78	19195
2026-01-22 21:37:44.81	329.59	7.72	-53.7	-55.8	6.2	0.00e+00	0	47	104	42328915968	78	19001
2026-01-22 21:37:45.78	329.71	7.64	-53.7	-55.8	6.2	0.00e+00	0	47	104	42328915968	78	19003
2026-01-22 21:37:46.75	329.83	7.57	-53.7	-55.8	6.2	0.00e+00	0	47	104	42328915968	78	18942
2026-01-22 21:37:47.72	329.95	7.50	-53.8	-55.9	6.2	0.00e+00	0	47	104	42328915968	78	19071
2026-01-22 21:37:48.69	330.07	7.43	-53.7	-55.8	6.2	0.00e+00	0	47	104	42328915968	78	18900
2026-01-22 21:37:49.66	330.18	7.35	-53.7	-55.8	6.2	0.00e+00	0	47	104	42328915968	78	18871
2026-01-22 21:37:50.63	330.30	7.28	-53.7	-55.8	6.2	0.00e+00	0	47	104	42328915968	78	18847
2026-01-22 21:37:51.60	330.42	7.21	-53.7	-55.8	6.2	0.00e+00	0	47	104	42328915968	78	18980
2026-01-22 21:37:52.58	330.53	7.14	-53.7	-55.8	6.2	0.00e+00	0	47	104	42328915968	78	18900
2026-01-22 21:37:53.55	330.65	7.07	-53.7	-55.8	6.2	0.00e+00	0	47	104	42328915968	78	18844
2026-01-22 21:37:54.51	330.76	6.99	-53.6	-55.7	6.2	0.00e+00	0	47	104	42328915968	78	18724
2026-01-22 21:37:55.48	330.88	6.92	-53.6	-55.7	6.2	0.00e+00	0	47	104	42328915968	78	18803
2026-01-22 21:37:56.45	330.99	6.85	-53.6	-55.8	6.2	0.00e+00	0	47	104	42328915968	78	18821
2026-01-22 21:37:57.42	331.10	6.78	-53.6	-55.7	6.2	0.00e+00	0	47	104	42328915968	78	18753
2026-01-22 21:37:58.39	331.21	6.71	-53.6	-55.7	6.2	0.00e+00	0	47	104	42328915968	78	18687
2026-01-22 21:37:59.37	331.33	6.64	-53.6	-55.7	6.2	0.00e+00	0	47	104	42328915968	78	18640
2026-01-22 21:38:00.34	331.44	6.57	-53.6	-55.7	6.2	0.00e+00	0	47	104	42328915968	78	18800
2026-01-22 21:38:01.31	331.55	6.50	-53.6	-55.7	6.2	0.00e+00	0	47	104	42328915968	78	18652
2026-01-22 21:38:02.28	331.66	6.43	-53.6	-55.7	6.2	0.00e+00	0	47	104	42328915968	78	18654
2026-01-22 21:38:03.25	331.76	6.36	-53.5	-55.6	6.2	0.00e+00	0	47	104	42328915968	78	18549
2026-01-22 21:38:04.22	331.87	6.29	-53.6	-55.7	6.2	0.00e+00	0	47	104	42328915968	78	18627
2026-01-22 21:38:05.19	331.98	6.22	-53.5	-55.6	6.2	0.00e+00	0	47	104	42328915968	78	18452
2026-01-22 21:38:06.16	332.09	6.15	-53.5	-55.6	6.2	0.00e+00	0	47	104	42328915968	78	18568
2026-01-22 21:38:07.12	332.19	6.08	-53.5	-55.6	6.2	0.00e+00	0	47	104	42328915968	78	18435
2026-01-22 21:38:08.09	332.30	6.01	-53.5	-55.7	6.2	0.00e+00	0	47	104	42328915968	78	18613
2026-01-22 21:38:09.06	332.40	5.94	-53.5	-55.5	6.2	0.00e+00	0	47	104	42328915968	78	18381
2026-01-22 21:38:10.03	332.51	5.87	-53.5	-55.6	6.2	0.00e+00	0	47	104	42328915968	78	18468
2026-01-22 21:38:11.00	332.61	5.81	-53.4	-55.5	6.2	0.00e+00	0	47	104	42328915968	78	18266
2026-01-22 21:38:11.97	332.71	5.74	-53.5	-55.6	6.2	0.00e+00	0	47	104	42328915968	78	18554
2026-01-22 21:38:12.94	332.82	5.67	-53.4	-55.5	6.2	0.00e+00	0	47	104	42328915968	78	18256
2026-01-22 21:38:13.91	332.92	5.60	-53.4	-55.5	6.2	0.00e+00	0	47	104	42328915968	78	18357
2026-01-22 21:38:14.88	333.02	5.53	-53.3	-55.4	6.2	0.00e+00	0	47	104	42328915968	78	18136
2026-01-22 21:38:15.84	333.12	5.47	-53.5	-55.6	6.2	0.00e+00	0	47	104	42328915968	78	18451
2026-01-22 21:38:16.81	333.22	5.40	-53.3	-55.4	6.2	0.00e+00	0	47	104	42328915968	78	17991
2026-01-22 21:38:17.78	333.32	5.33	-53.4	-55.5	6.2	0.00e+00	0	47	104	42328915968	78	18195
2026-01-22 21:38:18.75	333.42	5.26	-53.2	-55.3	6.2	0.00e+00	0	47	104	42328915968	78	17919
2026-01-22 21:38:19.72	333.52	5.20	-53.4	-55.5	6.2	0.00e+00	0	47	104	42328915968	78	18199
2026-01-22 21:38:20.69	333.62	5.13	-52.9	-55.0	6.2	0.00e+00	0	47	104	42328915968	77	18226
2026-01-22 21:38:21.66	333.72	5.06	-53.2	-55.3	6.2	0.00e+00	0	47	104	42328915968	77	19013
2026-01-22 21:38:22.62	333.81	5.00	-53.4	-55.5	6.2	0.00e+00	0	47	104	42328915968	77	19323
2026-01-22 21:38:23.59	333.91	4.93	-53.8	-56.0	6.2	0.00e+00	0	47	104	42328915968	78	19268
2026-01-22 21:38:24.56	334.01	4.86	-54.2	-56.3	6.2	0.00e+00	0	47	104	42328915968	78	20081
2026-01-22 21:38:25.53	334.10	4.80	-54.5	-56.6	6.2	0.00e+00	0	47	104	42328915968	79	19578
2026-01-22 21:38:26.50	334.20	4.73	-54.7	-56.8	6.2	0.00e+00	0	47	104	42328915968	79	20103
2026-01-22 21:38:27.46	334.29	4.67	-54.7	-56.9	6.2	0.00e+00	0	47	104	42328915968	80	19040
2026-01-22 21:38:28.43	334.39	4.60	-54.8	-56.9	6.2	0.00e+00	0	47	104	42328915968	80	19178
2026-01-22 21:38:29.40	334.48	4.53	-54.9	-57.0	6.2	0.00e+00	0	47	104	42328915968	80	19305
2026-01-22 21:38:30.37	334.57	4.47	-54.9	-57.0	6.2	0.00e+00	0	47	104	42328915968	80	19353
2026-01-22 21:38:31.34	334.67	4.40	-54.9	-57.0	6.2	0.00e+00	0	47	104	42328915968	80	19306
2026-01-22 21:38:32.31	334.76	4.34	-54.8	-56.9	6.2	0.00e+00	0	47	104	42328915968	80	19253
2026-01-22 21:38:33.28	334.85	4.27	-54.8	-56.9	6.2	0.00e+00	0	47	104	42328915968	80	19117
2026-01-22 21:38:34.25	334.94	4.21	-54.6	-56.8	6.2	0.00e+00	0	47	104	42328915968	80	18833
2026-01-22 21:38:35.22	335.03	4.14	-54.6	-56.7	6.2	0.00e+00	0	47	104	42328915968	80	18699
2026-01-22 21:38:36.19	335.12	4.08	-54.6	-56.7	6.2	0.00e+00	0	47	104	42328915968	80	18720
2026-01-22 21:38:37.16	335.21	4.02	-54.6	-56.7	6.2	0.00e+00	0	47	104	42328915968	80	18689
2026-01-22 21:38:38.13	335.30	3.95	-54.6	-56.7	6.2	0.00e+00	0	47	104	42328915968	80	18763
2026-01-22 21:38:39.10	335.39	3.89	-54.6	-56.7	6.2	0.00e+00	0	47	104	42328915968	80	18759
2026-01-22 21:38:40.07	335.48	3.82	-54.6	-56.7	6.2	0.00e+00	0	47	104	42328915968	80	18807
2026-01-22 21:38:41.04	335.57	3.76	-54.6	-56.7	6.2	0.00e+00	0	47	104	42328915968	80	18773
2026-01-22 21:38:42.01	335.66	3.70	-54.6	-56.7	6.2	0.00e+00	0	47	104	42328915968	80	18739
2026-01-22 21:38:42.99	335.74	3.63	-54.6	-56.7	6.2	0.00e+00	0	47	104	42328915968	80	18628
2026-01-22 21:38:43.96	335.83	3.57	-54.6	-56.7	6.2	0.00e+00	0	47	104	42328915968	80	18667
2026-01-22 21:38:44.93	335.92	3.51	-54.5	-56.6	6.2	0.00e+00	0	47	104	42328915968	80	18496
2026-01-22 21:38:45.90	336.00	3.44	-54.5	-56.6	6.2	0.00e+00	0	47	104	42328915968	80	18394
2026-01-22 21:38:46.87	336.09	3.38	-54.5	-56.6	6.2	0.00e+00	0	47	104	42328915968	80	18402
2026-01-22 21:38:47.84	336.17	3.32	-54.4	-56.6	6.2	0.00e+00	0	47	104	42328915968	80	18394
2026-01-22 21:38:48.80	336.26	3.25	-54.4	-56.5	6.2	0.00e+00	0	47	104	42328915968	80	18299
2026-01-22 21:38:49.78	336.34	3.19	-54.4	-56.5	6.2	0.00e+00	0	47	104	42328915968	80	18283
2026-01-22 21:38:50.74	336.43	3.13	-54.4	-56.5	6.2	0.00e+00	0	47	104	42328915968	80	18312
2026-01-22 21:38:51.71	336.51	3.07	-54.4	-56.5	6.2	0.00e+00	0	47	104	42328915968	80	18307
2026-01-22 21:38:52.68	336.59	3.01	-54.4	-56.5	6.2	0.00e+00	0	47	104	42328915968	80	18253
2026-01-22 21:38:53.65	336.68	2.94	-54.4	-56.4	6.2	0.00e+00	0	47	104	42328915968	80	18165
2026-01-22 21:38:54.63	336.76	2.88	-54.4	-56.5	6.2	0.00e+00	0	47	104	42328915968	80	18194
2026-01-22 21:38:55.59	336.84	2.82	-54.4	-56.4	6.2	0.00e+00	0	47	104	42328915968	80	18163
2026-01-22 21:38:56.56	336.92	2.76	-54.4	-56.5	6.2	0.00e+00	0	47	104	42328915968	80	18282
2026-01-22 21:38:57.52	337.00	2.70	-54.4	-56.5	6.2	0.00e+00	0	47	104	42328915968	80	18199
2026-01-22 21:38:58.49	337.08	2.64	-54.4	-56.4	6.2	0.00e+00	0	47	104	42328915968	80	18178
2026-01-22 21:38:59.47	337.16	2.58	-54.4	-56.4	6.2	0.00e+00	0	47	104	42328915968	80	18135
2026-01-22 21:39:00.44	337.24	2.51	-54.3	-56.4	6.2	0.00e+00	0	47	104	42328915968	80	18131
2026-01-22 21:39:01.40	337.32	2.45	-54.3	-56.4	6.2	0.00e+00	0	47	104	42328915968	80	18149
2026-01-22 21:39:02.37	337.40	2.39	-54.3	-56.4	6.2	0.00e+00	0	47	104	42328915968	80	18139
2026-01-22 21:39:03.33	337.48	2.33	-54.3	-56.4	6.2	0.00e+00	0	47	104	42328915968	80	18059
2026-01-22 21:39:04.31	337.56	2.27	-54.3	-56.4	6.2	0.00e+00	0	47	104	42328915968	80	18092
2026-01-22 21:39:05.27	337.63	2.21	-54.3	-56.4	6.2	0.00e+00	0	47	104	42328915968	80	18035
2026-01-22 21:39:06.24	337.71	2.15	-54.3	-56.4	6.2	0.00e+00	0	47	104	42328915968	80	18038
2026-01-22 21:39:07.21	337.79	2.09	-54.3	-56.4	6.2	0.00e+00	0	47	104	42328915968	80	18114
2026-01-22 21:39:08.18	337.87	2.03	-54.3	-56.4	6.2	0.00e+00	0	47	104	42328915968	80	18044

#Closed at: 2026-01-22 21:39:08
#Recorded file [42328 MB]: D:/lorett/data/31041_260123_002901.dat