passes_logs/2026/01/22/R3.2S_Murmansk/R3.2S_Murmansk__20260122_001030_NOAA_21_JPSS-2_rec.log

#Pass ID: 20260122_001030_NOAA 21 (JPSS-2)
#Satellite: NOAA 21 (JPSS-2)
#Configuration: NOAA-21
#almurnet v.1.7.20251203
#Start time: 2026-01-22 00:10:30

#Version: 2.2.20231116
#Station: R3.2S_Murmansk
#Location: 33.079688 lon 68.888172 lat
#TLE: 1 54234U 22150A   26021.42686626  .00000211  00000+0  12107-3 0  9996
#TLE: 2 54234  98.7506 322.2490 0000636 241.9299 118.1812 14.19537149165725

#Time	Az	El	Level	Level2	SNR	BER	BlckErr	Temp	State	Recorded	gain1	gain2
2026-01-22 00:10:30.24	22.69	1.96	-54.3	-67.1	3.8	1.49e+00	0	41	0	0	79	16370
2026-01-22 00:10:31.24	22.71	2.02	-54.2	-67.0	3.8	1.49e+00	0	41	104	0	79	16256
2026-01-22 00:10:32.25	22.73	2.09	-54.2	-67.0	3.8	1.49e+00	0	41	104	0	79	16214
2026-01-22 00:10:33.26	22.75	2.15	-54.2	-67.0	3.8	1.49e+00	0	41	104	0	79	16202
2026-01-22 00:10:34.27	22.77	2.22	-54.2	-67.0	3.8	1.49e+00	0	41	104	0	79	16162
2026-01-22 00:10:35.28	22.78	2.28	-54.2	-67.0	3.8	1.49e+00	0	41	104	0	79	16194
2026-01-22 00:10:36.29	22.80	2.34	-54.2	-67.0	3.8	1.49e+00	0	41	104	0	79	16177
2026-01-22 00:10:37.30	22.82	2.41	-54.2	-67.0	3.8	1.49e+00	0	41	104	0	79	16163
2026-01-22 00:10:38.30	22.84	2.47	-54.2	-67.0	3.8	1.49e+00	0	41	104	0	79	16189
2026-01-22 00:10:39.31	22.86	2.54	-54.2	-66.9	3.8	1.49e+00	0	41	104	0	79	16118
2026-01-22 00:10:40.32	22.87	2.60	-54.2	-67.0	3.8	1.49e+00	0	41	104	0	79	16165
2026-01-22 00:10:41.33	22.89	2.67	-54.2	-67.0	3.8	1.49e+00	0	41	104	0	79	16154
2026-01-22 00:10:42.34	22.91	2.73	-54.4	-67.2	3.8	1.49e+00	0	41	104	0	79	16517
2026-01-22 00:10:43.35	22.93	2.80	-54.4	-67.2	3.8	1.49e+00	0	41	104	0	79	16569
2026-01-22 00:10:44.36	22.95	2.87	-54.4	-67.2	3.8	1.49e+00	0	41	104	0	79	16617
2026-01-22 00:10:45.37	22.97	2.93	-54.4	-67.2	3.8	1.49e+00	0	41	104	0	79	16545
2026-01-22 00:10:46.38	22.98	3.00	-54.4	-67.2	3.8	1.49e+00	0	41	104	0	79	16559
2026-01-22 00:10:47.38	23.00	3.06	-54.4	-67.2	3.8	1.49e+00	0	41	104	0	79	16550
2026-01-22 00:10:48.39	23.02	3.13	-54.4	-67.2	3.8	1.49e+00	0	41	104	0	79	16507
2026-01-22 00:10:49.40	23.04	3.20	-54.3	-67.1	3.8	1.49e+00	0	41	104	0	79	16420
2026-01-22 00:10:50.41	23.06	3.26	-54.3	-67.1	3.8	1.49e+00	0	41	104	0	79	16339
2026-01-22 00:10:51.42	23.08	3.33	-54.3	-67.0	3.8	1.49e+00	0	41	104	0	79	16293
2026-01-22 00:10:52.43	23.10	3.40	-54.3	-67.0	3.8	1.49e+00	0	41	104	0	79	16303
2026-01-22 00:10:53.44	23.12	3.46	-54.2	-67.0	3.8	1.49e+00	0	41	104	0	79	16238
2026-01-22 00:10:54.44	23.13	3.53	-54.2	-67.0	3.8	1.49e+00	0	41	104	0	79	16129
2026-01-22 00:10:55.45	23.15	3.60	-54.1	-66.9	3.8	1.49e+00	0	41	104	0	79	16025
2026-01-22 00:10:56.46	23.17	3.67	-54.0	-66.8	3.8	1.49e+00	0	41	104	0	79	15825
2026-01-22 00:10:57.47	23.19	3.73	-53.9	-66.7	3.8	1.49e+00	0	41	104	0	79	15750
2026-01-22 00:10:58.48	23.21	3.80	-53.9	-66.7	3.8	1.49e+00	0	41	104	0	79	15588
2026-01-22 00:10:59.49	23.23	3.87	-53.7	-66.5	3.8	1.49e+00	0	41	104	0	79	15309
2026-01-22 00:11:00.50	23.25	3.94	-53.6	-66.4	3.8	1.49e+00	0	41	104	0	79	15158
2026-01-22 00:11:01.51	23.27	4.01	-53.5	-66.2	3.8	1.49e+00	0	41	104	0	78	15604
2026-01-22 00:11:02.51	23.29	4.07	-53.2	-66.0	3.8	1.49e+00	0	41	104	0	78	15233
2026-01-22 00:11:03.52	23.31	4.14	-52.9	-65.6	3.8	1.49e+00	0	41	104	0	77	15566
2026-01-22 00:11:04.53	23.33	4.21	-46.0	-47.4	16.1	2.56e-01	0	41	104	0	63	4278
2026-01-22 00:11:05.54	23.35	4.28	-45.8	-47.2	16.8	0.00e+00	0	41	0	2097152	63	4163
2026-01-22 00:11:06.55	23.37	4.35	-45.0	-46.3	17.7	0.00e+00	0	41	0	6291456	62	3987
2026-01-22 00:11:07.55	23.39	4.42	-45.3	-46.7	17.3	0.00e+00	0	41	0	9437184	62	4165
2026-01-22 00:11:08.56	23.41	4.49	-45.4	-46.8	17.2	0.00e+00	0	41	0	12582912	62	4239
2026-01-22 00:11:09.57	23.43	4.56	-46.1	-47.6	16.4	0.00e+00	0	41	0	15728640	62	4630
2026-01-22 00:11:10.58	23.45	4.63	-46.5	-48.2	15.9	0.00e+00	0	41	0	18874368	63	4654
2026-01-22 00:11:11.59	23.47	4.70	-46.8	-48.6	15.4	0.00e+00	0	41	0	20971520	64	4603
2026-01-22 00:11:12.60	23.49	4.77	-47.6	-49.8	14.1	7.00e-07	0	41	0	24117248	65	5037
2026-01-22 00:11:13.61	23.51	4.84	-48.3	-50.8	13.2	9.10e-06	0	41	0	27262976	67	4984
2026-01-22 00:11:14.61	23.53	4.91	-49.1	-52.2	11.8	1.99e-04	0	41	0	30408704	68	5538
2026-01-22 00:11:15.62	23.55	4.98	-50.0	-53.9	10.1	4.20e-03	0	41	0	33554432	70	5996
2026-01-22 00:11:16.63	23.57	5.05	-48.9	-51.7	12.3	6.62e-03	0	41	0	36700160	69	4956
2026-01-22 00:11:17.64	23.59	5.12	-46.0	-47.5	16.4	2.20e-06	0	41	0	39845888	64	4096
2026-01-22 00:11:18.65	23.61	5.20	-52.1	-62.7	4.0	2.50e-02	6	41	0	44040192	74	13231
2026-01-22 00:11:19.66	23.63	5.27	-49.7	-53.0	10.6	8.57e-01	0	41	104	44040192	71	5159
2026-01-22 00:11:20.66	23.66	5.34	-45.7	-47.1	17.1	0.00e+00	0	41	0	46137344	62	4346
2026-01-22 00:11:21.67	23.68	5.41	-45.3	-46.6	17.5	0.00e+00	0	41	0	49283072	62	4135
2026-01-22 00:11:22.68	23.70	5.48	-45.1	-46.4	17.7	0.00e+00	0	41	0	52428800	62	4039
2026-01-22 00:11:23.69	23.72	5.56	-45.2	-46.5	17.7	0.00e+00	0	41	0	55574528	62	4062
2026-01-22 00:11:24.70	23.74	5.63	-45.2	-46.5	17.7	0.00e+00	0	41	0	58720256	62	4064
2026-01-22 00:11:25.70	23.76	5.70	-45.1	-46.4	17.8	0.00e+00	0	41	0	61865984	62	4026
2026-01-22 00:11:26.71	23.78	5.77	-45.1	-46.4	17.8	0.00e+00	0	41	0	65011712	62	4036
2026-01-22 00:11:27.72	23.80	5.85	-45.1	-46.3	17.9	0.00e+00	0	41	0	68157440	62	4001
2026-01-22 00:11:28.73	23.83	5.92	-45.2	-46.5	17.7	0.00e+00	0	41	0	71303168	62	4063
2026-01-22 00:11:29.74	23.85	5.99	-45.2	-46.6	17.7	0.00e+00	0	41	0	74448896	62	4103
2026-01-22 00:11:30.75	23.87	6.07	-45.0	-46.3	17.9	0.00e+00	0	41	0	77594624	62	3974
2026-01-22 00:11:31.75	23.89	6.14	-45.0	-46.3	17.9	0.00e+00	0	41	0	80740352	62	3961
2026-01-22 00:11:32.76	23.91	6.22	-44.6	-45.8	18.4	0.00e+00	0	41	0	83886080	61	3970
2026-01-22 00:11:33.77	23.94	6.29	-44.9	-46.1	18.1	0.00e+00	0	41	0	87031808	61	4138
2026-01-22 00:11:34.78	23.96	6.37	-44.9	-46.1	18.1	0.00e+00	0	41	0	90177536	61	4143
2026-01-22 00:11:35.79	23.98	6.44	-44.7	-46.0	18.3	0.00e+00	0	41	0	93323264	61	4058
2026-01-22 00:11:36.79	24.00	6.52	-44.5	-45.6	18.6	0.00e+00	0	41	0	96468992	60	4143
2026-01-22 00:11:37.80	24.02	6.59	-44.6	-45.8	18.5	0.00e+00	0	41	0	99614720	60	4195
2026-01-22 00:11:38.81	24.05	6.67	-44.5	-45.6	18.6	0.00e+00	0	41	0	102760448	60	4135
2026-01-22 00:11:39.82	24.07	6.74	-44.6	-45.8	18.5	0.00e+00	0	41	0	105906176	60	4223
2026-01-22 00:11:40.83	24.09	6.82	-44.5	-45.7	18.6	0.00e+00	0	41	0	109051904	60	4165
2026-01-22 00:11:41.84	24.11	6.89	-44.6	-45.8	18.5	0.00e+00	0	41	0	112197632	60	4227
2026-01-22 00:11:42.84	24.14	6.97	-44.4	-45.6	18.7	0.00e+00	0	41	0	115343360	60	4107
2026-01-22 00:11:43.85	24.16	7.05	-44.5	-45.7	18.6	0.00e+00	0	41	0	118489088	60	4175
2026-01-22 00:11:44.86	24.18	7.12	-44.5	-45.7	18.6	0.00e+00	0	41	0	121634816	60	4156
2026-01-22 00:11:45.87	24.21	7.20	-44.4	-45.5	18.8	0.00e+00	0	41	0	124780544	60	4071
2026-01-22 00:11:46.87	24.23	7.28	-44.4	-45.5	18.8	0.00e+00	0	41	0	127926272	60	4091
2026-01-22 00:11:47.88	24.25	7.36	-44.4	-45.5	18.8	0.00e+00	0	41	0	131072000	60	4091
2026-01-22 00:11:48.89	24.28	7.43	-44.3	-45.4	19.0	0.00e+00	0	41	0	134217728	60	4017
2026-01-22 00:11:49.90	24.30	7.51	-44.3	-45.4	18.9	0.00e+00	0	41	0	137363456	60	4026
2026-01-22 00:11:50.91	24.32	7.59	-44.4	-45.6	18.8	0.00e+00	0	41	0	140509184	60	4112
2026-01-22 00:11:51.91	24.35	7.67	-44.2	-45.4	19.0	0.00e+00	0	41	0	143654912	60	4012
2026-01-22 00:11:52.92	24.37	7.75	-44.1	-45.2	19.1	0.00e+00	0	41	0	146800640	60	3935
2026-01-22 00:11:53.93	24.40	7.83	-44.1	-45.2	19.1	0.00e+00	0	41	0	149946368	60	3943
2026-01-22 00:11:54.94	24.42	7.91	-44.1	-45.2	19.1	0.00e+00	0	41	0	153092096	60	3943
2026-01-22 00:11:55.95	24.44	7.99	-44.2	-45.3	19.1	0.00e+00	0	41	0	156237824	60	3972
2026-01-22 00:11:56.95	24.47	8.06	-44.1	-45.2	19.2	0.00e+00	0	41	0	159383552	60	3935
2026-01-22 00:11:57.96	24.49	8.14	-44.0	-45.1	19.3	0.00e+00	0	41	0	162529280	60	3890
2026-01-22 00:11:58.97	24.52	8.22	-44.2	-45.3	19.1	0.00e+00	0	41	0	165675008	60	3971
2026-01-22 00:11:59.98	24.54	8.31	-44.1	-45.2	19.2	0.00e+00	0	41	0	168820736	60	3926
2026-01-22 00:12:00.97	24.57	8.38	-44.1	-45.2	19.2	0.00e+00	0	41	0	171966464	60	3938
2026-01-22 00:12:01.98	24.59	8.47	-44.4	-45.5	19.2	0.00e+00	0	41	0	175112192	59	4321
2026-01-22 00:12:02.98	24.62	8.55	-44.4	-45.5	19.2	0.00e+00	0	41	0	178257920	59	4323
2026-01-22 00:12:03.99	24.64	8.63	-44.5	-45.6	19.1	0.00e+00	0	41	0	181403648	59	4377
2026-01-22 00:12:05.00	24.67	8.71	-44.6	-45.8	19.0	0.00e+00	0	41	0	184549376	59	4465
2026-01-22 00:12:06.01	24.69	8.79	-44.6	-45.8	19.0	0.00e+00	0	41	0	187695104	59	4449
2026-01-22 00:12:07.02	24.72	8.87	-44.7	-45.8	19.0	0.00e+00	0	41	0	190840832	59	4465
2026-01-22 00:12:08.03	24.74	8.96	-44.2	-45.3	19.2	0.00e+00	0	41	0	193986560	60	3972
2026-01-22 00:12:09.03	24.77	9.04	-44.2	-45.3	19.4	0.00e+00	0	41	0	197132288	59	4219
2026-01-22 00:12:10.04	24.79	9.12	-44.2	-45.3	19.5	0.00e+00	0	41	0	200278016	59	4204
2026-01-22 00:12:11.05	24.82	9.21	-44.4	-45.5	19.3	0.00e+00	0	41	0	203423744	59	4296
2026-01-22 00:12:12.06	24.85	9.29	-44.2	-45.3	19.4	0.00e+00	0	41	0	206569472	59	4218
2026-01-22 00:12:13.07	24.87	9.37	-43.9	-45.0	19.8	0.00e+00	0	41	0	209715200	59	4057
2026-01-22 00:12:14.08	24.90	9.46	-44.0	-45.0	19.7	0.00e+00	0	41	0	212860928	59	4079
2026-01-22 00:12:15.09	24.92	9.54	-44.1	-45.2	19.6	0.00e+00	0	41	0	216006656	59	4151
2026-01-22 00:12:16.10	24.95	9.63	-44.2	-45.2	19.5	0.00e+00	0	41	0	219152384	59	4184
2026-01-22 00:12:17.11	24.98	9.71	-43.9	-45.0	19.7	0.00e+00	0	41	0	222298112	59	4070
2026-01-22 00:12:18.12	25.00	9.80	-43.9	-44.9	19.8	0.00e+00	0	41	0	225443840	59	4049
2026-01-22 00:12:19.12	25.03	9.88	-44.0	-45.0	19.8	0.00e+00	0	41	0	228589568	59	4086
2026-01-22 00:12:20.14	25.06	9.97	-43.9	-44.9	19.8	0.00e+00	0	41	0	231735296	59	4029
2026-01-22 00:12:21.14	25.09	10.06	-43.7	-44.7	20.1	0.00e+00	0	41	0	234881024	59	3928
2026-01-22 00:12:22.15	25.11	10.14	-43.7	-44.7	20.1	0.00e+00	0	40	0	238026752	59	3923
2026-01-22 00:12:23.16	25.14	10.23	-43.7	-44.7	20.0	0.00e+00	0	41	0	241172480	59	3955
2026-01-22 00:12:24.17	25.17	10.32	-43.7	-44.8	20.0	0.00e+00	0	41	0	244318208	59	3964
2026-01-22 00:12:25.18	25.20	10.40	-43.9	-44.9	19.9	0.00e+00	0	40	0	247463936	59	4028
2026-01-22 00:12:26.19	25.22	10.49	-43.7	-44.7	20.1	0.00e+00	0	41	0	250609664	59	3923
2026-01-22 00:12:27.20	25.25	10.58	-43.6	-44.6	20.2	0.00e+00	0	41	0	253755392	59	3883
2026-01-22 00:12:28.20	25.28	10.67	-43.6	-44.5	20.2	0.00e+00	0	41	0	256901120	59	3864
2026-01-22 00:12:29.22	25.31	10.76	-43.6	-44.5	20.2	0.00e+00	0	41	0	260046848	59	3862
2026-01-22 00:12:30.22	25.34	10.85	-43.5	-44.4	20.3	0.00e+00	0	41	0	263192576	58	4048
2026-01-22 00:12:31.23	25.37	10.94	-43.5	-44.5	20.3	0.00e+00	0	41	0	266338304	58	4060
2026-01-22 00:12:32.24	25.39	11.03	-43.4	-44.4	20.4	0.00e+00	0	41	0	269484032	58	4015
2026-01-22 00:12:33.25	25.42	11.12	-43.5	-44.4	20.3	0.00e+00	0	41	0	272629760	58	4047
2026-01-22 00:12:34.26	25.45	11.21	-43.3	-44.3	20.4	0.00e+00	0	41	0	275775488	58	3969
2026-01-22 00:12:35.27	25.48	11.30	-43.4	-44.3	20.4	0.00e+00	0	41	0	278921216	58	4002
2026-01-22 00:12:36.28	25.51	11.39	-43.5	-44.4	20.3	0.00e+00	0	41	0	282066944	58	4043
2026-01-22 00:12:37.28	25.54	11.48	-43.2	-44.2	20.6	0.00e+00	0	41	0	285212672	58	3927
2026-01-22 00:12:38.29	25.57	11.57	-43.1	-44.0	20.7	0.00e+00	0	41	0	288358400	58	3845
2026-01-22 00:12:39.30	25.60	11.66	-43.2	-44.2	20.6	0.00e+00	0	41	0	291504128	58	3917
2026-01-22 00:12:40.31	25.63	11.75	-43.1	-44.1	20.6	0.00e+00	0	41	0	294649856	58	3882
2026-01-22 00:12:41.31	25.66	11.85	-43.1	-44.0	20.7	0.00e+00	0	41	0	297795584	58	3860
2026-01-22 00:12:42.32	25.69	11.94	-42.9	-43.8	20.9	0.00e+00	0	41	0	300941312	57	3984
2026-01-22 00:12:43.33	25.72	12.03	-42.9	-43.8	20.9	0.00e+00	0	41	0	304087040	57	4003
2026-01-22 00:12:44.34	25.75	12.13	-43.0	-43.9	20.8	0.00e+00	0	41	0	307232768	57	4033
2026-01-22 00:12:45.35	25.78	12.22	-43.0	-43.9	20.8	0.00e+00	0	41	0	310378496	57	4047
2026-01-22 00:12:46.36	25.81	12.32	-43.0	-43.9	20.8	0.00e+00	0	41	0	313524224	57	4048
2026-01-22 00:12:47.36	25.84	12.41	-42.9	-43.8	20.9	0.00e+00	0	41	0	316669952	57	4000
2026-01-22 00:12:48.37	25.87	12.50	-43.0	-43.9	20.9	0.00e+00	0	41	0	319815680	57	4015
2026-01-22 00:12:49.38	25.91	12.60	-43.0	-43.9	20.8	0.00e+00	0	41	0	322961408	57	4051
2026-01-22 00:12:50.39	25.94	12.70	-42.9	-43.9	20.9	0.00e+00	0	41	0	326107136	57	4006
2026-01-22 00:12:51.40	25.97	12.79	-42.9	-43.8	21.0	0.00e+00	0	41	0	329252864	57	3962
2026-01-22 00:12:52.41	26.00	12.89	-43.0	-43.9	20.9	0.00e+00	0	40	0	332398592	57	4009
2026-01-22 00:12:53.42	26.03	12.99	-42.9	-43.8	21.0	0.00e+00	0	41	0	335544320	57	3975
2026-01-22 00:12:54.42	26.07	13.08	-43.0	-43.9	20.8	0.00e+00	0	41	0	338690048	57	4046
2026-01-22 00:12:55.43	26.10	13.18	-42.9	-43.8	21.0	0.00e+00	0	41	0	341835776	57	3982
2026-01-22 00:12:56.44	26.13	13.28	-42.9	-43.8	20.9	0.00e+00	0	41	0	344981504	57	3998
2026-01-22 00:12:57.45	26.16	13.38	-42.9	-43.8	20.9	0.00e+00	0	41	0	348127232	57	3985
2026-01-22 00:12:58.46	26.20	13.48	-42.9	-43.8	20.9	0.00e+00	0	41	0	351272960	57	3991
2026-01-22 00:12:59.47	26.23	13.58	-42.9	-43.9	20.9	0.00e+00	0	41	0	354418688	57	4009
2026-01-22 00:13:00.48	26.26	13.68	-42.9	-43.8	21.0	0.00e+00	0	41	0	357564416	57	3971
2026-01-22 00:13:01.49	26.30	13.78	-43.0	-43.9	20.9	0.00e+00	0	41	0	360710144	57	4030
2026-01-22 00:13:02.50	26.33	13.88	-43.0	-43.9	20.9	0.00e+00	0	41	0	363855872	57	4017
2026-01-22 00:13:03.50	26.37	13.98	-42.8	-43.7	21.0	0.00e+00	0	41	0	367001600	57	3957
2026-01-22 00:13:04.51	26.40	14.08	-42.8	-43.7	21.0	0.00e+00	0	41	0	370147328	57	3944
2026-01-22 00:13:05.52	26.43	14.18	-42.8	-43.7	21.1	0.00e+00	0	41	0	373293056	57	3941
2026-01-22 00:13:06.53	26.47	14.28	-42.8	-43.7	21.1	0.00e+00	0	41	0	376438784	57	3939
2026-01-22 00:13:07.54	26.50	14.39	-42.7	-43.6	21.2	0.00e+00	0	41	0	379584512	57	3897
2026-01-22 00:13:08.55	26.54	14.49	-42.8	-43.7	21.1	0.00e+00	0	41	0	383778816	57	3946
2026-01-22 00:13:09.56	26.57	14.59	-42.8	-43.7	21.1	0.00e+00	0	41	0	386924544	57	3942
2026-01-22 00:13:10.57	26.61	14.70	-42.8	-43.6	21.2	0.00e+00	0	41	0	390070272	57	3911
2026-01-22 00:13:11.57	26.65	14.80	-42.8	-43.7	21.1	0.00e+00	0	41	0	393216000	57	3947
2026-01-22 00:13:12.58	26.68	14.91	-42.9	-43.8	21.1	0.00e+00	0	41	0	396361728	57	3973
2026-01-22 00:13:13.59	26.72	15.01	-42.9	-43.8	21.1	0.00e+00	0	41	0	398458880	57	3970
2026-01-22 00:13:14.60	26.75	15.12	-43.0	-43.9	21.0	0.00e+00	0	41	0	401604608	57	4032
2026-01-22 00:13:15.61	26.79	15.22	-42.9	-43.8	21.1	0.00e+00	0	41	0	404750336	57	3991
2026-01-22 00:13:16.61	26.83	15.33	-42.9	-43.8	21.0	0.00e+00	0	41	0	407896064	57	4004
2026-01-22 00:13:17.62	26.86	15.44	-43.1	-44.0	20.9	0.00e+00	0	41	0	411041792	57	4058
2026-01-22 00:13:18.63	26.90	15.54	-43.1	-44.0	20.9	0.00e+00	0	41	0	414187520	57	4077
2026-01-22 00:13:19.64	26.94	15.65	-43.1	-44.0	20.9	0.00e+00	0	41	0	418381824	57	4055
2026-01-22 00:13:20.65	26.98	15.76	-43.1	-44.0	20.9	0.00e+00	0	41	0	421527552	57	4068
2026-01-22 00:13:21.66	27.02	15.87	-43.2	-44.1	20.8	0.00e+00	0	41	0	424673280	57	4109
2026-01-22 00:13:22.67	27.05	15.98	-43.0	-43.9	20.9	0.00e+00	0	41	0	427819008	57	4042
2026-01-22 00:13:23.67	27.09	16.09	-43.1	-44.1	20.8	0.00e+00	0	41	0	430964736	57	4105
2026-01-22 00:13:24.68	27.13	16.20	-43.1	-44.0	20.8	0.00e+00	0	41	0	434110464	57	4089
2026-01-22 00:13:25.69	27.17	16.31	-43.1	-44.0	20.9	0.00e+00	0	41	0	437256192	57	4055
2026-01-22 00:13:26.70	27.21	16.42	-43.1	-44.0	20.8	0.00e+00	0	41	0	440401920	57	4068
2026-01-22 00:13:27.71	27.25	16.53	-42.9	-43.8	21.0	0.00e+00	0	41	0	443547648	57	4001
2026-01-22 00:13:28.71	27.29	16.65	-42.9	-43.8	21.0	0.00e+00	0	41	0	445644800	57	3998
2026-01-22 00:13:29.72	27.33	16.76	-42.9	-43.8	21.0	0.00e+00	0	41	0	448790528	57	3989
2026-01-22 00:13:30.73	27.37	16.87	-42.9	-43.8	21.0	0.00e+00	0	41	0	451936256	57	3982
2026-01-22 00:13:31.74	27.41	16.99	-43.1	-44.0	20.9	0.00e+00	0	41	0	455081984	57	4062
2026-01-22 00:13:32.75	27.45	17.10	-42.9	-43.8	21.1	0.00e+00	0	41	0	459276288	57	3965
2026-01-22 00:13:33.75	27.49	17.22	-43.0	-43.9	21.0	0.00e+00	0	41	0	462422016	57	4013
2026-01-22 00:13:34.76	27.53	17.33	-43.0	-43.9	20.9	0.00e+00	0	41	0	465567744	57	4031
2026-01-22 00:13:35.77	27.58	17.45	-42.9	-43.8	21.1	0.00e+00	0	41	0	468713472	57	3963
2026-01-22 00:13:36.78	27.62	17.56	-42.9	-43.8	21.1	0.00e+00	0	41	0	471859200	57	3967
2026-01-22 00:13:37.79	27.66	17.68	-42.8	-43.7	21.1	0.00e+00	0	41	0	475004928	57	3941
2026-01-22 00:13:38.79	27.70	17.80	-42.8	-43.7	21.2	0.00e+00	0	41	0	478150656	57	3919
2026-01-22 00:13:39.80	27.75	17.92	-43.0	-43.9	21.0	0.00e+00	0	40	0	481296384	57	4006
2026-01-22 00:13:40.81	27.79	18.04	-42.7	-43.6	21.2	0.00e+00	0	41	0	484442112	57	3870
2026-01-22 00:13:41.81	27.83	18.15	-42.8	-43.6	21.2	0.00e+00	0	41	0	487587840	57	3909
2026-01-22 00:13:42.82	27.88	18.27	-42.8	-43.7	21.2	0.00e+00	0	41	0	490733568	57	3919
2026-01-22 00:13:43.83	27.92	18.40	-42.6	-43.5	21.3	0.00e+00	0	41	0	492830720	57	3846
2026-01-22 00:13:44.84	27.96	18.52	-42.7	-43.6	21.3	0.00e+00	0	41	0	497025024	57	3875
2026-01-22 00:13:45.85	28.01	18.64	-42.7	-43.5	21.3	0.00e+00	0	41	0	500170752	57	3862
2026-01-22 00:13:46.86	28.05	18.76	-42.5	-43.4	21.4	0.00e+00	0	41	0	503316480	57	3796
2026-01-22 00:13:47.87	28.10	18.88	-42.6	-43.4	21.4	0.00e+00	0	41	0	506462208	57	3818
2026-01-22 00:13:48.88	28.15	19.01	-42.5	-43.4	21.4	0.00e+00	0	41	0	509607936	57	3789
2026-01-22 00:13:49.88	28.19	19.13	-42.5	-43.4	21.5	0.00e+00	0	41	0	512753664	57	3788
2026-01-22 00:13:50.89	28.24	19.26	-42.6	-43.4	21.4	0.00e+00	0	40	0	515899392	57	3818
2026-01-22 00:13:51.90	28.29	19.38	-42.5	-43.3	21.5	0.00e+00	0	41	0	519045120	57	3769
2026-01-22 00:13:52.91	28.33	19.51	-42.4	-43.2	21.6	0.00e+00	0	41	0	522190848	56	3946
2026-01-22 00:13:53.91	28.38	19.63	-42.4	-43.3	21.6	0.00e+00	0	41	0	525336576	56	3976
2026-01-22 00:13:54.92	28.43	19.76	-42.4	-43.3	21.6	0.00e+00	0	41	0	528482304	56	3967
2026-01-22 00:13:55.93	28.48	19.89	-42.5	-43.4	21.5	0.00e+00	0	41	0	531628032	56	4011
2026-01-22 00:13:56.94	28.52	20.02	-42.4	-43.2	21.7	0.00e+00	0	41	0	534773760	56	3937
2026-01-22 00:13:57.95	28.57	20.15	-42.3	-43.2	21.7	0.00e+00	0	41	0	537919488	56	3928
2026-01-22 00:13:58.95	28.62	20.28	-42.3	-43.1	21.8	0.00e+00	0	41	0	541065216	56	3891
2026-01-22 00:13:59.96	28.67	20.41	-42.2	-43.0	21.8	0.00e+00	0	41	0	544210944	56	3868
2026-01-22 00:14:00.97	28.72	20.54	-42.3	-43.1	21.8	0.00e+00	0	41	0	547356672	56	3898
2026-01-22 00:14:01.97	28.77	20.67	-42.3	-43.1	21.8	0.00e+00	0	41	0	550502400	56	3910
2026-01-22 00:14:02.98	28.82	20.80	-42.3	-43.1	21.8	0.00e+00	0	40	0	553648128	56	3889
2026-01-22 00:14:03.99	28.87	20.93	-42.3	-43.1	21.8	0.00e+00	0	41	0	556793856	56	3896
2026-01-22 00:14:05.00	28.93	21.07	-42.3	-43.2	21.7	0.00e+00	0	41	0	559939584	56	3927
2026-01-22 00:14:06.01	28.98	21.20	-42.2	-43.1	21.9	0.00e+00	0	41	0	563085312	56	3872
2026-01-22 00:14:07.02	29.03	21.34	-42.2	-43.0	21.9	0.00e+00	0	41	0	566231040	56	3843
2026-01-22 00:14:08.02	29.08	21.47	-42.3	-43.1	21.9	0.00e+00	0	41	0	569376768	56	3880
2026-01-22 00:14:09.03	29.14	21.61	-42.1	-42.9	22.0	0.00e+00	0	41	0	572522496	56	3801
2026-01-22 00:14:10.04	29.19	21.75	-42.1	-42.9	22.0	0.00e+00	0	41	0	575668224	56	3794
2026-01-22 00:14:11.05	29.25	21.89	-42.1	-42.9	22.0	0.00e+00	0	40	0	578813952	56	3790
2026-01-22 00:14:12.06	29.30	22.02	-42.0	-42.8	22.1	0.00e+00	0	41	0	581959680	56	3751
2026-01-22 00:14:13.07	29.36	22.16	-41.8	-42.6	22.1	0.00e+00	0	41	0	585105408	55	3897
2026-01-22 00:14:14.07	29.41	22.30	-41.9	-42.7	22.1	0.00e+00	0	41	0	588251136	55	3917
2026-01-22 00:14:15.08	29.47	22.44	-41.8	-42.6	22.2	0.00e+00	0	41	0	591396864	55	3910
2026-01-22 00:14:16.09	29.52	22.59	-41.6	-42.4	22.4	0.00e+00	0	41	0	594542592	55	3786
2026-01-22 00:14:17.10	29.58	22.73	-41.5	-42.3	22.4	0.00e+00	0	41	0	597688320	55	3750
2026-01-22 00:14:18.10	29.64	22.87	-41.5	-42.2	22.5	0.00e+00	0	41	0	600834048	54	3955
2026-01-22 00:14:19.11	29.70	23.02	-41.4	-42.1	22.6	0.00e+00	0	41	0	603979776	54	3907
2026-01-22 00:14:20.11	29.75	23.16	-41.3	-42.1	22.6	0.00e+00	0	40	0	607125504	54	3891
2026-01-22 00:14:21.12	29.81	23.31	-41.4	-42.1	22.5	0.00e+00	0	41	0	610271232	54	3906
2026-01-22 00:14:22.13	29.87	23.45	-41.5	-42.2	22.5	0.00e+00	0	41	0	613416960	54	3956
2026-01-22 00:14:23.14	29.93	23.60	-41.2	-41.9	22.8	0.00e+00	0	40	0	616562688	54	3807
2026-01-22 00:14:24.15	29.99	23.75	-41.0	-41.8	22.9	0.00e+00	0	41	0	619708416	54	3753
2026-01-22 00:14:25.16	30.05	23.90	-41.0	-41.7	22.9	0.00e+00	0	41	0	622854144	53	3929
2026-01-22 00:14:26.16	30.12	24.05	-41.1	-41.8	22.8	0.00e+00	0	41	0	625999872	53	3988
2026-01-22 00:14:27.17	30.18	24.20	-41.1	-41.9	22.8	0.00e+00	0	41	0	629145600	53	4015
2026-01-22 00:14:28.18	30.24	24.35	-41.2	-41.9	22.8	0.00e+00	0	41	0	632291328	53	4041
2026-01-22 00:14:29.19	30.30	24.50	-41.1	-41.9	22.9	0.00e+00	0	41	0	635437056	53	4006
2026-01-22 00:14:30.19	30.37	24.65	-41.1	-41.9	22.9	0.00e+00	0	41	0	638582784	53	4016
2026-01-22 00:14:31.20	30.43	24.81	-41.2	-42.0	22.8	0.00e+00	0	41	0	641728512	53	4074
2026-01-22 00:14:32.21	30.50	24.96	-41.4	-42.2	22.7	0.00e+00	0	41	0	644874240	53	4146
2026-01-22 00:14:33.22	30.56	25.12	-41.5	-42.3	22.6	0.00e+00	0	41	0	648019968	53	4211
2026-01-22 00:14:34.23	30.63	25.28	-41.6	-42.4	22.5	0.00e+00	0	40	0	651165696	53	4251
2026-01-22 00:14:35.23	30.70	25.43	-41.8	-42.5	22.4	0.00e+00	0	41	0	654311424	54	4088
2026-01-22 00:14:36.24	30.76	25.59	-41.9	-42.6	22.3	0.00e+00	0	41	0	657457152	54	4143
2026-01-22 00:14:37.25	30.83	25.75	-41.9	-42.7	22.2	0.00e+00	0	41	0	660602880	54	4186
2026-01-22 00:14:38.26	30.90	25.91	-42.0	-42.8	22.2	0.00e+00	0	41	0	663748608	54	4204
2026-01-22 00:14:39.27	30.97	26.07	-42.1	-42.9	22.0	0.00e+00	0	40	0	666894336	54	4276
2026-01-22 00:14:40.28	31.04	26.23	-42.1	-42.9	22.0	0.00e+00	0	40	0	670040064	54	4285
2026-01-22 00:14:41.29	31.11	26.40	-42.1	-42.9	22.1	0.00e+00	0	41	0	673185792	54	4263
2026-01-22 00:14:42.30	31.18	26.56	-42.2	-43.0	22.0	0.00e+00	0	40	0	676331520	54	4300
2026-01-22 00:14:43.30	31.25	26.73	-42.2	-43.0	22.0	0.00e+00	0	40	0	679477248	54	4323
2026-01-22 00:14:44.31	31.33	26.89	-42.2	-43.0	22.0	0.00e+00	0	41	0	682622976	55	4079
2026-01-22 00:14:45.32	31.40	27.06	-42.3	-43.2	21.8	0.00e+00	0	41	0	685768704	55	4157
2026-01-22 00:14:46.33	31.48	27.23	-42.3	-43.1	21.8	0.00e+00	0	41	0	688914432	55	4142
2026-01-22 00:14:47.33	31.55	27.40	-42.3	-43.1	21.8	0.00e+00	0	41	0	692060160	55	4144
2026-01-22 00:14:48.34	31.63	27.57	-42.5	-43.3	21.7	0.00e+00	0	41	0	695205888	55	4214
2026-01-22 00:14:49.35	31.70	27.74	-42.5	-43.3	21.7	0.00e+00	0	41	0	698351616	55	4234
2026-01-22 00:14:50.36	31.78	27.91	-42.7	-43.5	21.5	0.00e+00	0	41	0	701497344	55	4315
2026-01-22 00:14:51.37	31.86	28.08	-42.9	-43.7	21.4	0.00e+00	0	40	0	704643072	56	4175
2026-01-22 00:14:52.38	31.94	28.26	-42.9	-43.8	21.4	0.00e+00	0	41	0	707788800	56	4215
2026-01-22 00:14:53.39	32.02	28.43	-43.1	-44.0	21.2	0.00e+00	0	41	0	710934528	56	4311
2026-01-22 00:14:54.39	32.10	28.61	-43.1	-44.0	21.1	0.00e+00	0	41	0	714080256	56	4332
2026-01-22 00:14:55.40	32.18	28.78	-43.3	-44.2	21.0	0.00e+00	0	40	0	717225984	57	4169
2026-01-22 00:14:56.41	32.26	28.96	-43.3	-44.2	20.9	0.00e+00	0	41	0	720371712	57	4192
2026-01-22 00:14:57.42	32.34	29.14	-43.4	-44.3	20.8	0.00e+00	0	41	0	723517440	57	4235
2026-01-22 00:14:58.43	32.43	29.32	-43.4	-44.3	20.9	0.00e+00	0	41	0	726663168	57	4217
2026-01-22 00:14:59.44	32.51	29.51	-43.4	-44.3	20.9	0.00e+00	0	40	0	729808896	57	4218
2026-01-22 00:15:00.45	32.60	29.69	-43.1	-44.0	21.2	0.00e+00	0	40	0	732954624	57	4069
2026-01-22 00:15:01.45	32.69	29.87	-43.0	-43.9	21.3	0.00e+00	0	41	0	736100352	57	4009
2026-01-22 00:15:02.46	32.77	30.06	-42.9	-43.8	21.4	0.00e+00	0	41	0	739246080	57	3974
2026-01-22 00:15:03.47	32.86	30.24	-43.0	-43.8	21.3	0.00e+00	0	41	0	742391808	57	4004
2026-01-22 00:15:04.48	32.95	30.43	-42.9	-43.7	21.5	0.00e+00	0	40	0	745537536	57	3952
2026-01-22 00:15:05.49	33.04	30.62	-42.9	-43.7	21.5	0.00e+00	0	41	0	748683264	57	3945
2026-01-22 00:15:06.50	33.13	30.81	-42.5	-43.4	21.8	0.00e+00	0	41	0	751828992	57	3788
2026-01-22 00:15:07.51	33.23	31.00	-42.4	-43.2	21.9	0.00e+00	0	41	0	754974720	56	3951
2026-01-22 00:15:08.51	33.32	31.19	-42.3	-43.1	22.1	0.00e+00	0	41	0	758120448	56	3877
2026-01-22 00:15:09.52	33.42	31.38	-42.4	-43.2	22.0	0.00e+00	0	41	0	761266176	56	3948
2026-01-22 00:15:10.53	33.51	31.58	-42.4	-43.3	22.0	0.00e+00	0	41	0	764411904	56	3959
2026-01-22 00:15:11.54	33.61	31.77	-42.5	-43.3	21.9	0.00e+00	0	41	0	767557632	56	3980
2026-01-22 00:15:12.55	33.71	31.97	-42.6	-43.4	21.8	0.00e+00	0	41	0	770703360	56	4044
2026-01-22 00:15:13.55	33.81	32.17	-42.5	-43.4	21.9	0.00e+00	0	41	0	773849088	56	4015
2026-01-22 00:15:14.56	33.91	32.37	-42.6	-43.5	21.8	0.00e+00	0	40	0	776994816	56	4062
2026-01-22 00:15:15.57	34.01	32.57	-42.5	-43.3	21.9	0.00e+00	0	41	0	780140544	56	3987
2026-01-22 00:15:16.58	34.11	32.77	-42.4	-43.2	22.1	0.00e+00	0	41	0	783286272	56	3933
2026-01-22 00:15:17.59	34.22	32.97	-42.4	-43.3	22.0	0.00e+00	0	41	0	786432000	56	3963
2026-01-22 00:15:18.59	34.32	33.18	-42.6	-43.4	21.9	0.00e+00	0	40	0	789577728	56	4028
2026-01-22 00:15:19.60	34.43	33.38	-42.6	-43.5	21.8	0.00e+00	0	41	0	792723456	56	4065
2026-01-22 00:15:20.61	34.53	33.59	-42.8	-43.6	21.8	0.00e+00	0	40	0	795869184	56	4112
2026-01-22 00:15:21.62	34.64	33.80	-42.8	-43.6	21.8	0.00e+00	0	41	0	799014912	56	4124
2026-01-22 00:15:22.63	34.75	34.01	-42.8	-43.6	21.7	0.00e+00	0	41	0	802160640	56	4135
2026-01-22 00:15:23.63	34.87	34.22	-43.0	-43.9	21.5	0.00e+00	0	41	0	805306368	56	4248
2026-01-22 00:15:24.64	34.98	34.43	-43.2	-44.0	21.4	0.00e+00	0	41	0	808452096	56	4337
2026-01-22 00:15:25.65	35.09	34.64	-43.5	-44.4	21.1	0.00e+00	0	40	0	811597824	57	4254
2026-01-22 00:15:26.66	35.21	34.86	-43.7	-44.6	20.9	0.00e+00	0	41	0	814743552	57	4352
2026-01-22 00:15:27.67	35.33	35.07	-43.8	-44.7	20.8	0.00e+00	0	41	0	817889280	58	4188
2026-01-22 00:15:28.68	35.45	35.29	-43.9	-44.9	20.7	0.00e+00	0	41	0	821035008	58	4248
2026-01-22 00:15:29.68	35.57	35.51	-43.9	-44.8	20.7	0.00e+00	0	40	0	824180736	58	4241
2026-01-22 00:15:30.69	35.69	35.73	-43.9	-44.8	20.7	0.00e+00	0	41	0	827326464	58	4233
2026-01-22 00:15:31.70	35.81	35.95	-43.8	-44.7	20.8	0.00e+00	0	41	0	830472192	58	4179
2026-01-22 00:15:32.71	35.94	36.17	-43.8	-44.7	20.8	0.00e+00	0	40	0	833617920	58	4191
2026-01-22 00:15:33.71	36.07	36.40	-43.9	-44.8	20.7	0.00e+00	0	41	0	836763648	58	4202
2026-01-22 00:15:34.72	36.20	36.62	-43.9	-44.9	20.6	0.00e+00	0	41	0	839909376	58	4250
2026-01-22 00:15:35.73	36.33	36.85	-43.8	-44.7	20.7	0.00e+00	0	41	0	843055104	58	4191
2026-01-22 00:15:36.74	36.46	37.08	-43.9	-44.8	20.7	0.00e+00	0	41	0	846200832	58	4212
2026-01-22 00:15:37.75	36.59	37.31	-44.0	-44.9	20.6	0.00e+00	0	41	0	849346560	58	4290
2026-01-22 00:15:38.75	36.73	37.54	-44.1	-45.0	20.5	0.00e+00	0	41	0	852492288	58	4324
2026-01-22 00:15:39.76	36.87	37.77	-44.2	-45.2	20.4	0.00e+00	0	41	0	855638016	59	4155
2026-01-22 00:15:40.77	37.01	38.01	-44.4	-45.4	20.2	0.00e+00	0	41	0	858783744	59	4268
2026-01-22 00:15:41.78	37.15	38.25	-44.5	-45.5	20.1	0.00e+00	0	41	0	861929472	59	4324
2026-01-22 00:15:42.79	37.29	38.48	-44.4	-45.3	20.3	0.00e+00	0	41	0	865075200	59	4233
2026-01-22 00:15:43.79	37.44	38.72	-44.2	-45.2	20.5	0.00e+00	0	40	0	868220928	59	4152
2026-01-22 00:15:44.80	37.59	38.96	-44.2	-45.2	20.5	0.00e+00	0	41	0	871366656	59	4146
2026-01-22 00:15:45.81	37.74	39.20	-44.3	-45.3	20.3	0.00e+00	0	40	0	874512384	59	4219
2026-01-22 00:15:46.82	37.89	39.45	-44.3	-45.2	20.3	0.00e+00	0	41	0	877658112	59	4191
2026-01-22 00:15:47.83	38.05	39.69	-44.2	-45.2	20.3	0.00e+00	0	41	0	880803840	59	4153
2026-01-22 00:15:48.83	38.20	39.94	-44.3	-45.2	20.3	0.00e+00	0	41	0	883949568	59	4176
2026-01-22 00:15:49.84	38.36	40.19	-44.3	-45.3	20.2	0.00e+00	0	41	0	887095296	59	4223
2026-01-22 00:15:50.85	38.52	40.44	-44.5	-45.5	20.1	0.00e+00	0	41	0	890241024	59	4298
2026-01-22 00:15:51.86	38.69	40.69	-44.4	-45.4	19.8	0.00e+00	0	41	0	893386752	60	4024
2026-01-22 00:15:52.87	38.86	40.94	-44.5	-45.5	19.8	0.00e+00	0	41	0	896532480	60	4075
2026-01-22 00:15:53.87	39.02	41.19	-44.7	-45.7	19.6	0.00e+00	0	41	0	899678208	60	4172
2026-01-22 00:15:54.88	39.20	41.45	-44.8	-45.9	19.5	0.00e+00	0	41	0	902823936	60	4276
2026-01-22 00:15:55.89	39.37	41.71	-45.0	-46.1	19.3	0.00e+00	0	41	0	905969664	60	4344
2026-01-22 00:15:56.90	39.55	41.96	-44.8	-45.8	19.5	0.00e+00	0	40	0	909115392	60	4223
2026-01-22 00:15:57.91	39.73	42.23	-44.7	-45.8	19.5	0.00e+00	0	41	0	912261120	60	4207
2026-01-22 00:15:58.91	39.91	42.48	-44.8	-45.8	19.6	0.00e+00	0	41	0	915406848	60	4216
2026-01-22 00:15:59.92	40.10	42.75	-44.9	-45.9	19.4	0.00e+00	0	41	0	918552576	60	4281
2026-01-22 00:16:00.93	40.29	43.01	-44.9	-45.9	19.4	0.00e+00	0	41	0	921698304	60	4269
2026-01-22 00:16:01.94	40.48	43.28	-44.9	-45.9	19.4	0.00e+00	0	41	0	924844032	60	4279
2026-01-22 00:16:02.95	40.67	43.55	-45.3	-46.4	19.1	0.00e+00	0	41	0	927989760	61	4255
2026-01-22 00:16:03.95	40.87	43.82	-45.5	-46.6	18.9	0.00e+00	0	41	0	931135488	61	4378
2026-01-22 00:16:04.96	41.07	44.09	-45.4	-46.6	18.9	0.00e+00	0	41	0	934281216	61	4355
2026-01-22 00:16:05.97	41.28	44.36	-45.3	-46.4	19.1	0.00e+00	0	41	0	937426944	61	4290
2026-01-22 00:16:06.98	41.49	44.63	-45.3	-46.4	19.0	0.00e+00	0	41	0	940572672	61	4275
2026-01-22 00:16:07.99	41.70	44.91	-45.3	-46.4	19.0	0.00e+00	0	41	0	943718400	61	4249
2026-01-22 00:16:08.99	41.91	45.19	-44.9	-46.0	19.4	0.00e+00	0	40	0	946864128	61	4052
2026-01-22 00:16:10.00	42.13	45.46	-44.8	-45.8	19.4	0.00e+00	0	41	0	950009856	61	4002
2026-01-22 00:16:11.01	42.36	45.74	-44.7	-45.8	19.6	0.00e+00	0	41	0	953155584	61	3966
2026-01-22 00:16:12.02	42.58	46.03	-45.1	-46.1	19.2	0.00e+00	0	41	0	956301312	61	4142
2026-01-22 00:16:13.03	42.82	46.31	-45.0	-46.0	19.4	0.00e+00	0	41	0	959447040	61	4084
2026-01-22 00:16:14.04	43.05	46.59	-44.7	-45.7	19.7	0.00e+00	0	41	0	962592768	61	3950
2026-01-22 00:16:15.05	43.29	46.88	-44.7	-45.7	19.7	0.00e+00	0	41	0	965738496	61	3949
2026-01-22 00:16:16.06	43.54	47.17	-44.5	-45.5	19.9	0.00e+00	0	40	0	968884224	61	3857
2026-01-22 00:16:17.06	43.78	47.46	-44.3	-45.3	20.1	0.00e+00	0	41	0	972029952	60	3972
2026-01-22 00:16:18.07	44.04	47.75	-44.4	-45.4	19.9	0.00e+00	0	41	0	975175680	60	4036
2026-01-22 00:16:19.08	44.29	48.04	-44.3	-45.3	20.1	0.00e+00	0	41	0	978321408	60	3976
2026-01-22 00:16:20.09	44.56	48.33	-44.3	-45.3	20.0	0.00e+00	0	40	0	981467136	60	3975
2026-01-22 00:16:21.09	44.82	48.62	-44.2	-45.2	20.2	0.00e+00	0	40	0	984612864	60	3938
2026-01-22 00:16:22.10	45.10	48.92	-44.4	-45.4	20.3	0.00e+00	0	41	0	987758592	59	4247
2026-01-22 00:16:23.11	45.37	49.22	-43.9	-44.8	20.8	0.00e+00	0	41	0	990904320	59	3975
2026-01-22 00:16:24.12	45.66	49.51	-43.8	-44.8	20.8	0.00e+00	0	41	0	994050048	59	3962
2026-01-22 00:16:25.13	45.95	49.81	-44.1	-45.0	20.6	0.00e+00	0	40	0	997195776	59	4090
2026-01-22 00:16:26.13	46.24	50.11	-44.3	-45.3	20.3	0.00e+00	0	41	0	1000341504	59	4220
2026-01-22 00:16:27.14	46.54	50.41	-44.5	-45.4	20.3	0.00e+00	0	41	0	1003487232	59	4288
2026-01-22 00:16:28.15	46.85	50.72	-44.5	-45.5	20.3	0.00e+00	0	40	0	1006632960	59	4300
2026-01-22 00:16:29.16	47.16	51.02	-44.5	-45.5	20.2	0.00e+00	0	41	0	1009778688	59	4334
2026-01-22 00:16:30.17	47.48	51.33	-44.4	-45.4	20.3	0.00e+00	0	41	0	1012924416	59	4259
2026-01-22 00:16:31.17	47.80	51.63	-44.2	-45.1	20.6	0.00e+00	0	41	0	1016070144	59	4135
2026-01-22 00:16:32.18	48.13	51.94	-43.8	-44.7	20.9	0.00e+00	0	41	0	1019215872	59	3958
2026-01-22 00:16:33.19	48.47	52.25	-43.8	-44.7	21.0	0.00e+00	0	41	0	1022361600	59	3941
2026-01-22 00:16:34.20	48.82	52.56	-43.7	-44.6	21.0	0.00e+00	0	41	0	1025507328	59	3913
2026-01-22 00:16:35.21	49.17	52.87	-43.8	-44.7	21.0	0.00e+00	0	40	0	1028653056	59	3929
2026-01-22 00:16:36.21	49.53	53.18	-44.0	-44.9	20.8	0.00e+00	0	41	0	1031798784	59	4045
2026-01-22 00:16:37.22	49.90	53.49	-44.2	-45.1	20.5	0.00e+00	0	40	0	1034944512	59	4138
2026-01-22 00:16:38.23	50.27	53.80	-44.3	-45.3	20.3	0.00e+00	0	41	0	1038090240	59	4217
2026-01-22 00:16:39.24	50.66	54.12	-44.1	-45.1	20.4	0.00e+00	0	40	0	1041235968	59	4121
2026-01-22 00:16:40.25	51.05	54.43	-43.8	-44.7	20.7	0.00e+00	0	41	0	1045430272	59	3948
2026-01-22 00:16:41.25	51.45	54.74	-43.4	-44.3	21.3	0.00e+00	0	41	0	1047527424	58	3983
2026-01-22 00:16:42.26	51.86	55.06	-43.1	-44.0	21.6	0.00e+00	0	41	0	1050673152	58	3838
2026-01-22 00:16:43.27	52.28	55.37	-43.1	-44.0	21.6	0.00e+00	0	40	0	1053818880	58	3839
2026-01-22 00:16:44.28	52.71	55.69	-43.2	-44.1	21.5	0.00e+00	0	41	0	1056964608	58	3887
2026-01-22 00:16:45.29	53.15	56.01	-43.5	-44.4	21.2	0.00e+00	0	41	0	1060110336	58	4015
2026-01-22 00:16:46.30	53.60	56.32	-43.8	-44.7	21.0	0.00e+00	0	41	0	1063256064	58	4163
2026-01-22 00:16:47.30	54.05	56.64	-43.5	-44.4	21.3	0.00e+00	0	41	0	1066401792	58	4014
2026-01-22 00:16:48.31	54.52	56.95	-43.3	-44.2	21.5	0.00e+00	0	40	0	1069547520	58	3924
2026-01-22 00:16:49.32	55.00	57.27	-42.9	-43.8	21.7	0.00e+00	0	41	0	1072693248	57	3968
2026-01-22 00:16:50.33	55.49	57.59	-42.6	-43.5	22.1	0.00e+00	0	40	0	1075838976	57	3826
2026-01-22 00:16:51.34	56.00	57.90	-42.0	-42.8	22.6	0.00e+00	0	40	0	1078984704	56	3744
2026-01-22 00:16:52.35	56.51	58.22	-41.5	-42.2	23.0	0.00e+00	0	41	0	1083179008	54	3929
2026-01-22 00:16:53.35	57.03	58.53	-41.5	-42.2	23.0	0.00e+00	0	41	0	1086324736	54	3932
2026-01-22 00:16:54.36	57.57	58.85	-41.7	-42.5	22.8	0.00e+00	0	41	0	1089470464	54	4071
2026-01-22 00:16:55.37	58.13	59.16	-42.1	-42.8	22.5	0.00e+00	0	41	0	1092616192	54	4241
2026-01-22 00:16:56.38	58.69	59.47	-42.0	-42.8	22.5	0.00e+00	0	41	0	1094713344	54	4237
2026-01-22 00:16:57.39	59.27	59.79	-41.9	-42.6	22.7	0.00e+00	0	41	0	1097859072	54	4134
2026-01-22 00:16:58.39	59.86	60.10	-41.6	-42.3	22.9	0.00e+00	0	41	0	1101004800	54	4001
2026-01-22 00:16:59.40	60.47	60.41	-41.5	-42.3	22.8	0.00e+00	0	41	0	1104150528	54	3971
2026-01-22 00:17:00.41	61.09	60.71	-41.5	-42.3	22.8	0.00e+00	0	41	0	1107296256	54	3970
2026-01-22 00:17:01.42	61.73	61.02	-41.5	-42.3	22.9	0.00e+00	0	41	0	1110441984	54	3977
2026-01-22 00:17:02.43	62.38	61.33	-41.7	-42.5	22.8	0.00e+00	0	41	0	1113587712	54	4068
2026-01-22 00:17:03.43	63.05	61.63	-41.8	-42.6	22.6	0.00e+00	0	41	0	1116733440	54	4125
2026-01-22 00:17:04.44	63.73	61.93	-41.7	-42.4	22.8	0.00e+00	0	41	0	1119879168	54	4044
2026-01-22 00:17:05.45	64.44	62.23	-41.8	-42.6	22.7	0.00e+00	0	41	0	1124073472	54	4117
2026-01-22 00:17:06.46	65.16	62.53	-41.8	-42.6	22.7	0.00e+00	0	41	0	1127219200	54	4132
2026-01-22 00:17:07.47	65.89	62.82	-41.7	-42.5	22.8	0.00e+00	0	41	0	1130364928	54	4072
2026-01-22 00:17:08.48	66.65	63.11	-41.5	-42.2	23.0	0.00e+00	0	41	0	1133510656	54	3956
2026-01-22 00:17:09.49	67.43	63.40	-41.2	-41.9	23.0	0.00e+00	0	41	0	1136656384	54	3805
2026-01-22 00:17:10.50	68.22	63.69	-40.9	-41.6	23.0	0.00e+00	0	40	0	1139802112	53	3898
2026-01-22 00:17:11.51	69.03	63.97	-40.8	-41.5	23.2	0.00e+00	0	41	0	1141899264	53	3854
2026-01-22 00:17:12.51	69.86	64.24	-40.8	-41.5	23.4	0.00e+00	0	40	0	1145044992	53	3839
2026-01-22 00:17:13.53	70.72	64.52	-40.9	-41.6	23.4	0.00e+00	0	41	0	1148190720	53	3872
2026-01-22 00:17:14.53	71.58	64.79	-40.8	-41.5	23.4	0.00e+00	0	41	0	1151336448	53	3864
2026-01-22 00:17:15.54	72.48	65.05	-41.1	-41.8	23.2	0.00e+00	0	41	0	1155530752	53	3989
2026-01-22 00:17:16.55	73.39	65.32	-41.4	-42.1	22.8	0.00e+00	0	41	0	1158676480	53	4131
2026-01-22 00:17:17.56	74.33	65.57	-41.6	-42.3	22.8	0.00e+00	0	40	0	1161822208	53	4240
2026-01-22 00:17:18.57	75.29	65.82	-41.3	-42.0	23.0	0.00e+00	0	40	0	1164967936	53	4073
2026-01-22 00:17:19.58	76.27	66.07	-41.0	-41.7	23.4	0.00e+00	0	40	0	1168113664	53	3925
2026-01-22 00:17:20.58	77.26	66.31	-40.8	-41.5	23.6	0.00e+00	0	41	0	1171259392	53	3836
2026-01-22 00:17:21.59	78.29	66.54	-40.7	-41.4	23.6	0.00e+00	0	41	0	1174405120	53	3785
2026-01-22 00:17:22.60	79.34	66.77	-40.7	-41.4	23.4	0.00e+00	0	41	0	1177550848	53	3810
2026-01-22 00:17:23.61	80.41	66.99	-40.8	-41.5	23.4	0.00e+00	0	41	0	1180696576	53	3835
2026-01-22 00:17:24.62	81.50	67.21	-40.7	-41.4	23.6	0.00e+00	0	41	0	1183842304	53	3815
2026-01-22 00:17:25.63	82.61	67.41	-40.6	-41.3	23.6	0.00e+00	0	40	0	1186988032	53	3749
2026-01-22 00:17:26.64	83.75	67.61	-40.6	-41.3	23.7	0.00e+00	0	40	0	1189085184	53	3766
2026-01-22 00:17:27.64	84.90	67.80	-40.8	-41.5	23.6	0.00e+00	0	41	0	1193279488	53	3838
2026-01-22 00:17:28.65	86.08	67.99	-40.8	-41.5	23.4	0.00e+00	0	41	0	1196425216	53	3837
2026-01-22 00:17:29.66	87.28	68.17	-40.9	-41.6	23.3	0.00e+00	0	41	0	1199570944	53	3890
2026-01-22 00:17:30.67	88.50	68.33	-40.4	-41.1	23.8	0.00e+00	0	41	0	1202716672	52	3905
2026-01-22 00:17:31.68	89.74	68.49	-40.4	-41.1	23.9	0.00e+00	0	40	0	1205862400	52	3873
2026-01-22 00:17:32.69	91.00	68.64	-40.3	-41.0	23.7	0.00e+00	0	41	0	1209008128	52	3840
2026-01-22 00:17:33.69	92.27	68.78	-40.7	-41.4	23.4	0.00e+00	0	41	0	1212153856	52	4038
2026-01-22 00:17:34.70	93.56	68.91	-40.7	-41.4	23.5	0.00e+00	0	41	0	1215299584	52	4046
2026-01-22 00:17:35.71	94.88	69.03	-40.6	-41.3	23.7	0.00e+00	0	41	0	1218445312	52	3969
2026-01-22 00:17:36.72	96.21	69.14	-40.5	-41.2	23.7	0.00e+00	0	41	0	1221591040	52	3919
2026-01-22 00:17:37.73	97.55	69.24	-40.8	-41.6	23.2	0.00e+00	0	41	0	1224736768	52	4107
2026-01-22 00:17:38.73	98.89	69.33	-41.1	-41.8	23.1	0.00e+00	0	40	0	1227882496	52	4235
2026-01-22 00:17:39.74	100.26	69.41	-41.1	-41.8	23.2	0.00e+00	0	41	0	1231028224	53	4000
2026-01-22 00:17:40.75	101.64	69.48	-41.2	-42.0	22.9	0.00e+00	0	41	0	1234173952	53	4065
2026-01-22 00:17:41.76	103.03	69.54	-41.3	-42.0	22.8	0.00e+00	0	41	0	1237319680	53	4073
2026-01-22 00:17:42.77	104.43	69.58	-41.2	-41.9	23.0	0.00e+00	0	41	0	1240465408	53	4032
2026-01-22 00:17:43.78	105.83	69.62	-41.1	-41.9	23.1	0.00e+00	0	41	0	1243611136	53	4019
2026-01-22 00:17:44.79	107.24	69.64	-41.3	-42.0	22.8	0.00e+00	0	41	0	1246756864	53	4097
2026-01-22 00:17:45.80	108.65	69.65	-42.0	-42.8	22.3	0.00e+00	0	41	0	1249902592	54	4222
2026-01-22 00:17:46.80	110.04	69.65	-41.9	-42.8	22.4	0.00e+00	0	41	0	1253048320	54	4194
2026-01-22 00:17:47.81	111.45	69.64	-41.6	-42.4	22.8	0.00e+00	0	41	0	1256194048	54	4018
2026-01-22 00:17:48.82	112.86	69.62	-41.4	-42.2	22.9	0.00e+00	0	40	0	1259339776	54	3940
2026-01-22 00:17:49.83	114.26	69.59	-41.4	-42.2	23.0	0.00e+00	0	41	0	1262485504	54	3943
2026-01-22 00:17:50.84	115.66	69.54	-41.4	-42.1	23.0	0.00e+00	0	41	0	1265631232	54	3910
2026-01-22 00:17:51.85	117.05	69.49	-41.2	-41.9	23.2	0.00e+00	0	41	0	1268776960	54	3820
2026-01-22 00:17:52.86	118.43	69.42	-41.0	-41.7	23.4	0.00e+00	0	41	0	1271922688	54	3725
2026-01-22 00:17:53.87	119.80	69.34	-40.7	-41.4	23.5	0.00e+00	0	41	0	1275068416	53	3790
2026-01-22 00:17:54.87	121.15	69.25	-40.8	-41.5	23.5	0.00e+00	0	41	0	1278214144	53	3836
2026-01-22 00:17:55.88	122.49	69.15	-40.9	-41.6	23.4	0.00e+00	0	41	0	1281359872	53	3895
2026-01-22 00:17:56.89	123.82	69.05	-41.2	-42.0	23.0	0.00e+00	0	41	0	1284505600	53	4055
2026-01-22 00:17:57.90	125.14	68.93	-41.4	-42.2	22.8	0.00e+00	0	41	0	1287651328	53	4152
2026-01-22 00:17:58.91	126.44	68.80	-41.6	-42.4	22.8	0.00e+00	0	41	0	1290797056	53	4250
2026-01-22 00:17:59.91	127.71	68.66	-41.0	-41.7	23.3	0.00e+00	0	41	0	1293942784	53	3956
2026-01-22 00:18:00.92	128.97	68.51	-40.7	-41.4	23.6	0.00e+00	0	41	0	1297088512	53	3789
2026-01-22 00:18:01.93	130.22	68.35	-40.8	-41.5	23.4	0.00e+00	0	41	0	1300234240	53	3830
2026-01-22 00:18:02.94	131.44	68.19	-41.1	-41.8	23.2	0.00e+00	0	41	0	1303379968	53	3989
2026-01-22 00:18:03.95	132.65	68.01	-41.0	-41.8	23.3	0.00e+00	0	41	0	1306525696	53	3965
2026-01-22 00:18:04.95	133.82	67.83	-41.0	-41.8	23.3	0.00e+00	0	40	0	1309671424	53	3961
2026-01-22 00:18:05.96	134.98	67.64	-41.0	-41.8	23.3	0.00e+00	0	41	0	1312817152	53	3960
2026-01-22 00:18:06.97	136.12	67.44	-40.8	-41.5	23.5	0.00e+00	0	41	0	1315962880	53	3849
2026-01-22 00:18:07.98	137.24	67.23	-40.6	-41.3	23.6	0.00e+00	0	41	0	1319108608	53	3753
2026-01-22 00:18:08.99	138.33	67.02	-40.7	-41.4	23.6	0.00e+00	0	41	0	1322254336	53	3791
2026-01-22 00:18:10.00	139.41	66.80	-41.3	-42.0	23.1	0.00e+00	0	41	0	1325400064	53	4072
2026-01-22 00:18:11.01	140.46	66.57	-41.2	-42.0	23.0	0.00e+00	0	41	0	1328545792	53	4061
2026-01-22 00:18:12.01	141.48	66.34	-41.0	-41.7	23.3	0.00e+00	0	41	0	1331691520	53	3931
2026-01-22 00:18:13.02	142.48	66.10	-40.6	-41.4	23.6	0.00e+00	0	41	0	1334837248	53	3782
2026-01-22 00:18:14.03	143.47	65.85	-40.6	-41.3	23.7	0.00e+00	0	41	0	1337982976	53	3763
2026-01-22 00:18:15.03	144.42	65.60	-40.6	-41.3	23.7	0.00e+00	0	41	0	1341128704	53	3768
2026-01-22 00:18:16.04	145.36	65.35	-40.9	-41.6	23.4	0.00e+00	0	41	0	1344274432	53	3900
2026-01-22 00:18:17.05	146.28	65.08	-41.2	-41.9	23.2	0.00e+00	0	40	0	1347420160	53	4037
2026-01-22 00:18:18.06	147.18	64.82	-40.8	-41.5	23.5	0.00e+00	0	41	0	1350565888	53	3844
2026-01-22 00:18:19.07	148.06	64.55	-40.4	-41.1	23.7	0.00e+00	0	41	0	1353711616	52	3900
2026-01-22 00:18:20.08	148.91	64.27	-40.4	-41.1	23.8	0.00e+00	0	41	0	1356857344	52	3877
2026-01-22 00:18:21.09	149.75	63.99	-40.8	-41.5	23.5	0.00e+00	0	41	0	1360003072	52	4071
2026-01-22 00:18:22.09	150.56	63.72	-41.4	-42.2	22.9	0.00e+00	0	41	0	1363148800	53	4171
2026-01-22 00:18:23.10	151.36	63.43	-42.2	-43.1	22.0	0.00e+00	0	41	0	1366294528	54	4341
2026-01-22 00:18:24.11	152.13	63.14	-42.0	-42.9	21.9	0.00e+00	0	40	0	1369440256	55	4016
2026-01-22 00:18:25.12	152.89	62.85	-41.4	-42.1	22.5	0.00e+00	0	41	0	1372585984	54	3897
2026-01-22 00:18:26.13	153.64	62.55	-41.4	-42.1	22.8	0.00e+00	0	41	0	1375731712	54	3896
2026-01-22 00:18:27.14	154.36	62.26	-41.4	-42.2	22.7	0.00e+00	0	41	0	1378877440	54	3937
2026-01-22 00:18:28.14	155.06	61.96	-42.1	-42.9	22.0	0.00e+00	0	41	0	1382023168	54	4266
2026-01-22 00:18:29.15	155.75	61.66	-42.6	-43.4	21.7	0.00e+00	0	41	0	1385168896	55	4268
2026-01-22 00:18:30.16	156.42	61.35	-42.6	-43.5	21.8	0.00e+00	0	41	0	1388314624	55	4301
2026-01-22 00:18:31.17	157.08	61.05	-42.1	-42.9	22.0	0.00e+00	0	41	0	1391460352	55	4043
2026-01-22 00:18:32.18	157.72	60.74	-41.4	-42.2	22.8	0.00e+00	0	41	0	1394606080	54	3917
2026-01-22 00:18:33.19	158.34	60.43	-41.3	-42.0	23.0	0.00e+00	0	41	0	1397751808	54	3838
2026-01-22 00:18:34.20	158.95	60.12	-40.9	-41.6	23.4	0.00e+00	0	41	0	1400897536	53	3877
2026-01-22 00:18:35.21	159.55	59.81	-41.3	-42.0	23.0	0.00e+00	0	41	0	1404043264	53	4094
2026-01-22 00:18:36.22	160.13	59.49	-42.5	-43.3	22.1	0.00e+00	0	41	0	1407188992	55	4213
2026-01-22 00:18:37.23	160.70	59.18	-43.5	-44.4	21.1	0.00e+00	0	41	0	1410334720	57	4259
2026-01-22 00:18:38.24	161.25	58.87	-43.5	-44.5	20.5	0.00e+00	0	41	0	1413480448	57	4295
2026-01-22 00:18:39.24	161.79	58.55	-42.5	-43.3	21.0	0.00e+00	0	41	0	1416626176	57	3776
2026-01-22 00:18:40.25	162.32	58.24	-41.7	-42.4	21.9	0.00e+00	0	41	0	1419771904	55	3824
2026-01-22 00:18:41.26	162.84	57.92	-41.1	-41.8	22.8	0.00e+00	0	41	0	1422917632	54	3765
2026-01-22 00:18:42.27	163.34	57.60	-41.2	-41.9	22.8	0.00e+00	0	41	0	1426063360	53	4019
2026-01-22 00:18:43.28	163.83	57.29	-42.1	-42.8	22.2	0.00e+00	0	40	0	1429209088	54	4234
2026-01-22 00:18:44.29	164.32	56.97	-43.4	-44.3	21.2	0.00e+00	0	41	0	1432354816	57	4223
2026-01-22 00:18:45.29	164.78	56.65	-43.8	-44.8	20.7	0.00e+00	0	41	0	1435500544	58	4215
2026-01-22 00:18:46.30	165.24	56.34	-43.7	-44.6	19.9	0.00e+00	0	41	0	1438646272	58	4132
2026-01-22 00:18:47.31	165.69	56.02	-43.5	-44.4	19.7	0.00e+00	0	41	0	1441792000	58	4023
2026-01-22 00:18:48.32	166.13	55.70	-43.3	-44.2	20.7	0.00e+00	0	41	0	1444937728	58	3916
2026-01-22 00:18:49.33	166.57	55.38	-42.7	-43.5	21.5	0.00e+00	0	41	0	1448083456	57	3868
2026-01-22 00:18:50.33	166.98	55.07	-42.4	-43.2	21.9	0.00e+00	0	41	0	1451229184	56	3931
2026-01-22 00:18:51.34	167.39	54.75	-43.4	-44.2	20.8	0.00e+00	0	41	0	1454374912	57	4186
2026-01-22 00:18:52.35	167.80	54.44	-44.3	-45.3	19.6	0.00e+00	0	41	0	1457520640	59	4214
2026-01-22 00:18:53.36	168.19	54.12	-44.5	-45.5	19.7	0.00e+00	0	41	0	1460666368	60	4079
2026-01-22 00:18:54.37	168.58	53.81	-44.2	-45.3	19.6	0.00e+00	0	41	0	1463812096	60	3964
2026-01-22 00:18:55.38	168.96	53.49	-43.9	-44.9	19.4	0.00e+00	0	41	0	1466957824	59	4010
2026-01-22 00:18:56.39	169.33	53.18	-43.5	-44.4	20.3	0.00e+00	0	41	0	1470103552	58	4024
2026-01-22 00:18:57.39	169.68	52.87	-42.8	-43.7	21.4	0.00e+00	0	41	0	1473249280	57	3921
2026-01-22 00:18:58.40	170.04	52.56	-42.3	-43.0	22.2	0.00e+00	0	41	0	1476395008	56	3854
2026-01-22 00:18:59.41	170.39	52.25	-42.3	-43.1	22.2	0.00e+00	0	41	0	1479540736	56	3879
2026-01-22 00:19:00.42	170.73	51.94	-43.0	-43.9	21.3	0.00e+00	0	41	0	1482686464	56	4253
2026-01-22 00:19:01.43	171.06	51.63	-44.1	-45.0	19.9	0.00e+00	0	41	0	1485832192	58	4317
2026-01-22 00:19:02.44	171.39	51.32	-45.0	-46.2	18.8	0.00e+00	0	41	0	1488977920	60	4395
2026-01-22 00:19:03.45	171.71	51.01	-46.4	-47.9	17.6	0.00e+00	0	41	0	1492123648	63	4497
2026-01-22 00:19:04.45	172.02	50.71	-46.4	-47.8	17.1	0.00e+00	0	41	0	1495269376	64	4229
2026-01-22 00:19:05.46	172.32	50.41	-45.9	-47.1	17.3	0.00e+00	0	41	0	1498415104	63	4144
2026-01-22 00:19:06.47	172.63	50.10	-45.4	-46.5	18.2	0.00e+00	0	41	0	1501560832	62	4082
2026-01-22 00:19:07.48	172.92	49.80	-45.2	-46.3	19.0	0.00e+00	0	41	0	1504706560	62	3962
2026-01-22 00:19:08.49	173.21	49.50	-44.2	-45.1	20.1	0.00e+00	0	41	0	1507852288	60	3911
2026-01-22 00:19:09.50	173.50	49.20	-44.5	-45.5	19.8	0.00e+00	0	41	0	1510998016	60	4081
2026-01-22 00:19:10.50	173.77	48.91	-44.6	-45.6	19.3	0.00e+00	0	41	0	1514143744	60	4141
2026-01-22 00:19:11.51	174.05	48.61	-44.3	-45.3	19.8	0.00e+00	0	41	0	1517289472	59	4210
2026-01-22 00:19:12.52	174.31	48.31	-44.3	-45.2	20.2	0.00e+00	0	41	0	1520435200	59	4182
2026-01-22 00:19:13.53	174.58	48.02	-44.6	-45.5	19.9	0.00e+00	0	41	0	1523580928	60	4095
2026-01-22 00:19:14.53	174.83	47.73	-45.6	-46.9	18.7	0.00e+00	0	41	0	1526726656	61	4496
2026-01-22 00:19:15.54	175.09	47.44	-46.0	-47.3	18.0	0.00e+00	0	41	0	1529872384	62	4467
2026-01-22 00:19:16.55	175.34	47.15	-45.0	-46.1	19.3	0.00e+00	0	41	0	1533018112	62	3894
2026-01-22 00:19:17.55	175.58	46.86	-44.0	-44.9	20.3	0.00e+00	0	40	0	1536163840	60	3818
2026-01-22 00:19:18.56	175.82	46.57	-44.2	-45.1	20.4	0.00e+00	0	41	0	1539309568	59	4127
2026-01-22 00:19:19.57	176.06	46.29	-43.9	-44.8	20.7	0.00e+00	0	41	0	1542455296	59	3994
2026-01-22 00:19:20.58	176.29	46.00	-43.9	-44.8	20.8	0.00e+00	0	41	0	1545601024	59	3985
2026-01-22 00:19:21.59	176.52	45.72	-44.2	-45.2	20.5	0.00e+00	0	41	0	1548746752	59	4158
2026-01-22 00:19:22.60	176.74	45.44	-44.5	-45.5	20.2	0.00e+00	0	41	0	1551892480	59	4321
2026-01-22 00:19:23.60	176.96	45.16	-44.6	-45.6	19.8	0.00e+00	0	41	0	1555038208	60	4110
2026-01-22 00:19:24.61	177.18	44.88	-44.8	-45.8	19.6	0.00e+00	0	41	0	1558183936	60	4232
2026-01-22 00:19:25.62	177.39	44.61	-44.7	-45.8	19.7	0.00e+00	0	41	0	1561329664	60	4203
2026-01-22 00:19:26.63	177.60	44.33	-44.2	-45.1	20.2	0.00e+00	0	41	0	1564475392	60	3913
2026-01-22 00:19:27.63	177.80	44.06	-44.3	-45.3	20.4	0.00e+00	0	41	0	1567621120	59	4194
2026-01-22 00:19:28.64	178.00	43.79	-44.5	-45.5	19.8	0.00e+00	0	41	0	1570766848	60	4064
2026-01-22 00:19:29.65	178.20	43.52	-45.3	-46.4	19.0	0.00e+00	0	41	0	1573912576	61	4260
2026-01-22 00:19:30.66	178.40	43.25	-45.8	-47.0	18.2	0.00e+00	0	41	0	1577058304	62	4337
2026-01-22 00:19:31.67	178.59	42.98	-46.1	-47.4	17.8	0.00e+00	0	41	0	1580204032	62	4528
2026-01-22 00:19:32.67	178.78	42.71	-46.0	-47.3	18.0	0.00e+00	0	41	0	1583349760	62	4446
2026-01-22 00:19:33.68	178.97	42.45	-45.1	-46.3	19.1	0.00e+00	0	41	0	1586495488	62	3967
2026-01-22 00:19:34.69	179.15	42.19	-44.5	-45.5	19.7	0.00e+00	0	41	0	1589641216	61	3858
2026-01-22 00:19:35.70	179.33	41.92	-44.4	-45.4	19.8	0.00e+00	0	41	0	1592786944	60	4019
2026-01-22 00:19:36.71	179.51	41.66	-44.6	-45.6	19.7	0.00e+00	0	41	0	1595932672	60	4135
2026-01-22 00:19:37.71	179.68	41.41	-44.6	-45.6	19.6	0.00e+00	0	41	0	1599078400	60	4133
2026-01-22 00:19:38.72	179.85	41.15	-44.6	-45.7	19.6	0.00e+00	0	41	0	1602224128	60	4150
2026-01-22 00:19:39.73	180.02	40.90	-44.8	-45.9	19.5	0.00e+00	0	41	0	1605369856	60	4247
2026-01-22 00:19:40.74	180.19	40.64	-44.8	-45.9	19.5	0.00e+00	0	41	0	1608515584	60	4252
2026-01-22 00:19:41.75	180.36	40.39	-44.6	-45.7	19.7	0.00e+00	0	41	0	1611661312	60	4151
2026-01-22 00:19:42.76	180.52	40.14	-44.4	-45.4	19.9	0.00e+00	0	41	0	1614807040	60	4048
2026-01-22 00:19:43.77	180.68	39.89	-44.0	-45.0	20.3	0.00e+00	0	41	0	1617952768	60	3838
2026-01-22 00:19:44.77	180.83	39.64	-44.1	-45.0	20.3	0.00e+00	0	41	0	1621098496	60	3844
2026-01-22 00:19:45.78	180.99	39.40	-44.3	-45.2	20.1	0.00e+00	0	41	0	1624244224	60	3946
2026-01-22 00:19:46.79	181.14	39.15	-44.5	-45.5	19.8	0.00e+00	0	41	0	1627389952	60	4056
2026-01-22 00:19:47.79	181.29	38.91	-44.8	-45.9	19.5	0.00e+00	0	41	0	1630535680	60	4247
2026-01-22 00:19:48.80	181.44	38.67	-45.1	-46.3	19.1	0.00e+00	0	41	0	1633681408	60	4448
2026-01-22 00:19:49.81	181.59	38.43	-45.2	-46.4	19.0	0.00e+00	0	41	0	1636827136	61	4264
2026-01-22 00:19:50.82	181.73	38.19	-44.9	-46.0	19.4	0.00e+00	0	40	0	1639972864	61	4073
2026-01-22 00:19:51.83	181.87	37.95	-44.5	-45.5	19.8	0.00e+00	0	41	0	1643118592	61	3856
2026-01-22 00:19:52.84	182.01	37.72	-44.1	-45.1	20.1	0.00e+00	0	40	0	1646264320	60	3878
2026-01-22 00:19:53.85	182.15	37.48	-43.9	-44.8	20.5	0.00e+00	0	41	0	1649410048	59	3983
2026-01-22 00:19:54.85	182.29	37.25	-43.9	-44.8	20.5	0.00e+00	0	41	0	1652555776	59	3987
2026-01-22 00:19:55.86	182.42	37.02	-43.9	-44.8	20.6	0.00e+00	0	41	0	1655701504	59	3991
2026-01-22 00:19:56.87	182.55	36.79	-44.1	-45.0	20.5	0.00e+00	0	41	0	1658847232	59	4087
2026-01-22 00:19:57.88	182.69	36.56	-44.1	-45.0	20.5	0.00e+00	0	41	0	1661992960	59	4092
2026-01-22 00:19:58.89	182.81	36.34	-44.2	-45.2	20.3	0.00e+00	0	41	0	1665138688	59	4170
2026-01-22 00:19:59.89	182.94	36.11	-44.2	-45.1	20.4	0.00e+00	0	40	0	1668284416	59	4144
2026-01-22 00:20:00.90	183.07	35.89	-43.7	-44.6	20.8	0.00e+00	0	40	0	1671430144	59	3907
2026-01-22 00:20:01.91	183.19	35.66	-43.4	-44.2	21.0	0.00e+00	0	40	0	1674575872	58	3950
2026-01-22 00:20:02.92	183.31	35.44	-43.3	-44.2	20.9	0.00e+00	0	41	0	1677721600	58	3937
2026-01-22 00:20:03.92	183.43	35.22	-43.4	-44.3	20.7	0.00e+00	0	41	0	1680867328	58	4003
2026-01-22 00:20:04.93	183.55	35.01	-43.4	-44.2	20.8	0.00e+00	0	41	0	1684013056	58	3955
2026-01-22 00:20:05.94	183.67	34.79	-43.4	-44.3	20.8	0.00e+00	0	41	0	1687158784	58	3985
2026-01-22 00:20:06.95	183.79	34.57	-43.7	-44.7	20.6	0.00e+00	0	41	0	1691353088	58	4160
2026-01-22 00:20:07.96	183.90	34.36	-43.9	-44.9	20.5	0.00e+00	0	40	0	1694498816	58	4245
2026-01-22 00:20:08.96	184.01	34.15	-43.9	-44.9	20.4	0.00e+00	0	41	0	1696595968	58	4262
2026-01-22 00:20:09.97	184.13	33.94	-43.9	-44.8	20.4	0.00e+00	0	41	0	1699741696	58	4229
2026-01-22 00:20:10.98	184.24	33.72	-43.8	-44.7	20.5	0.00e+00	0	41	0	1702887424	58	4170
2026-01-22 00:20:11.99	184.35	33.52	-43.7	-44.7	20.6	0.00e+00	0	41	0	1706033152	58	4156
2026-01-22 00:20:13.00	184.45	33.31	-43.8	-44.8	20.7	0.00e+00	0	41	0	1709178880	58	4196
2026-01-22 00:20:14.01	184.56	33.10	-43.7	-44.7	20.8	0.00e+00	0	41	0	1712324608	58	4163
2026-01-22 00:20:15.01	184.67	32.90	-43.8	-44.8	20.6	0.00e+00	0	41	0	1715470336	58	4224
2026-01-22 00:20:16.02	184.77	32.69	-43.9	-44.9	20.5	0.00e+00	0	41	0	1718616064	58	4279
2026-01-22 00:20:17.03	184.87	32.49	-44.1	-45.1	20.3	0.00e+00	0	40	0	1721761792	58	4380
2026-01-22 00:20:18.04	184.97	32.29	-44.2	-45.2	20.2	0.00e+00	0	41	0	1724907520	59	4183
2026-01-22 00:20:19.05	185.08	32.09	-43.9	-44.9	20.5	0.00e+00	0	41	0	1729101824	59	4041
2026-01-22 00:20:20.05	185.17	31.89	-43.8	-44.8	20.6	0.00e+00	0	41	0	1732247552	59	3973
2026-01-22 00:20:21.06	185.27	31.69	-43.6	-44.5	20.8	0.00e+00	0	41	0	1735393280	59	3867
2026-01-22 00:20:22.07	185.37	31.50	-43.6	-44.5	20.9	0.00e+00	0	40	0	1738539008	59	3858
2026-01-22 00:20:23.08	185.46	31.30	-43.3	-44.2	21.2	0.00e+00	0	41	0	1741684736	58	3925
2026-01-22 00:20:24.09	185.56	31.11	-43.1	-44.0	21.4	0.00e+00	0	41	0	1743781888	58	3825
2026-01-22 00:20:25.09	185.65	30.92	-43.1	-44.0	21.3	0.00e+00	0	41	0	1746927616	58	3845
2026-01-22 00:20:26.10	185.75	30.72	-43.1	-44.0	21.3	0.00e+00	0	41	0	1750073344	58	3834
2026-01-22 00:20:27.11	185.84	30.53	-42.8	-43.7	21.5	0.00e+00	0	40	0	1753219072	57	3932
2026-01-22 00:20:28.12	185.93	30.34	-42.7	-43.5	21.6	0.00e+00	0	41	0	1756364800	57	3863
2026-01-22 00:20:29.13	186.02	30.16	-42.4	-43.2	21.7	0.00e+00	0	41	0	1759510528	56	3954
2026-01-22 00:20:30.14	186.11	29.97	-42.5	-43.3	21.7	0.00e+00	0	41	0	1762656256	56	3995
2026-01-22 00:20:31.14	186.19	29.78	-42.6	-43.4	21.6	0.00e+00	0	41	0	1766850560	56	4051
2026-01-22 00:20:32.15	186.28	29.60	-42.6	-43.4	21.7	0.00e+00	0	40	0	1769996288	56	4040
2026-01-22 00:20:33.16	186.37	29.42	-42.5	-43.3	21.8	0.00e+00	0	41	0	1773142016	56	3985
2026-01-22 00:20:34.17	186.45	29.23	-42.5	-43.4	21.8	0.00e+00	0	40	0	1776287744	56	4013
2026-01-22 00:20:35.18	186.53	29.05	-42.4	-43.2	21.9	0.00e+00	0	41	0	1779433472	56	3939
2026-01-22 00:20:36.19	186.62	28.87	-42.1	-42.9	22.1	0.00e+00	0	41	0	1782579200	56	3818
2026-01-22 00:20:37.20	186.70	28.69	-41.8	-42.6	22.3	0.00e+00	0	40	0	1785724928	55	3880
2026-01-22 00:20:38.20	186.78	28.52	-41.6	-42.4	22.4	0.00e+00	0	40	0	1788870656	55	3797
2026-01-22 00:20:39.21	186.86	28.34	-41.7	-42.5	22.4	0.00e+00	0	41	0	1790967808	55	3834
2026-01-22 00:20:40.22	186.94	28.16	-41.8	-42.5	22.3	0.00e+00	0	41	0	1794113536	55	3862
2026-01-22 00:20:41.23	187.02	27.99	-41.8	-42.6	22.3	0.00e+00	0	41	0	1797259264	55	3897
2026-01-22 00:20:42.23	187.10	27.82	-41.9	-42.7	22.2	0.00e+00	0	41	0	1800404992	55	3918
2026-01-22 00:20:43.24	187.17	27.64	-42.0	-42.8	22.1	0.00e+00	0	41	0	1803550720	55	3979
2026-01-22 00:20:44.25	187.25	27.47	-42.0	-42.8	22.2	0.00e+00	0	41	0	1807745024	55	3970
2026-01-22 00:20:45.26	187.33	27.30	-41.8	-42.6	22.3	0.00e+00	0	41	0	1810890752	55	3906
2026-01-22 00:20:46.27	187.40	27.13	-41.9	-42.6	22.3	0.00e+00	0	41	0	1814036480	55	3910
2026-01-22 00:20:47.27	187.47	26.96	-41.9	-42.7	22.3	0.00e+00	0	41	0	1817182208	55	3923
2026-01-22 00:20:48.28	187.55	26.80	-42.1	-42.9	22.1	0.00e+00	0	41	0	1820327936	55	4012
2026-01-22 00:20:49.29	187.62	26.63	-42.0	-42.8	22.1	0.00e+00	0	41	0	1823473664	55	4004
2026-01-22 00:20:50.30	187.69	26.46	-42.0	-42.8	22.1	0.00e+00	0	41	0	1826619392	55	3998
2026-01-22 00:20:51.31	187.76	26.30	-42.0	-42.8	22.1	0.00e+00	0	41	0	1829765120	55	4004
2026-01-22 00:20:52.32	187.83	26.13	-42.1	-42.9	22.1	0.00e+00	0	40	0	1832910848	55	4021
2026-01-22 00:20:53.32	187.90	25.97	-41.9	-42.7	22.2	0.00e+00	0	41	0	1836056576	55	3939
2026-01-22 00:20:54.33	187.97	25.81	-41.8	-42.6	22.3	0.00e+00	0	40	0	1838153728	55	3897
2026-01-22 00:20:55.34	188.04	25.65	-41.6	-42.4	22.5	0.00e+00	0	41	0	1841299456	55	3793
2026-01-22 00:20:56.35	188.11	25.49	-41.7	-42.5	22.4	0.00e+00	0	41	0	1845493760	55	3828
2026-01-22 00:20:57.36	188.18	25.33	-41.8	-42.5	22.3	0.00e+00	0	41	0	1848639488	55	3868
2026-01-22 00:20:58.37	188.24	25.17	-41.7	-42.5	22.3	0.00e+00	0	40	0	1851785216	55	3836
2026-01-22 00:20:59.38	188.31	25.01	-41.9	-42.7	22.1	0.00e+00	0	41	0	1854930944	55	3943
2026-01-22 00:21:00.39	188.37	24.86	-41.9	-42.8	22.1	0.00e+00	0	41	0	1858076672	55	3960
2026-01-22 00:21:01.39	188.44	24.70	-42.1	-42.9	21.9	0.00e+00	0	40	0	1861222400	55	4028
2026-01-22 00:21:02.40	188.50	24.55	-42.1	-42.9	21.9	0.00e+00	0	41	0	1864368128	55	4021
2026-01-22 00:21:03.41	188.57	24.39	-42.1	-42.9	21.9	0.00e+00	0	41	0	1867513856	55	4023
2026-01-22 00:21:04.42	188.63	24.24	-42.1	-42.9	21.9	0.00e+00	0	41	0	1870659584	55	4046
2026-01-22 00:21:05.43	188.69	24.09	-41.9	-42.7	22.1	0.00e+00	0	41	0	1873805312	55	3945
2026-01-22 00:21:06.44	188.75	23.94	-41.7	-42.5	22.2	0.00e+00	0	41	0	1876951040	55	3860
2026-01-22 00:21:07.45	188.82	23.79	-41.7	-42.5	22.2	0.00e+00	0	41	0	1880096768	55	3837
2026-01-22 00:21:08.46	188.88	23.64	-41.8	-42.6	22.1	0.00e+00	0	41	0	1883242496	55	3876
2026-01-22 00:21:09.47	188.94	23.49	-41.9	-42.7	22.0	0.00e+00	0	41	0	1886388224	55	3924
2026-01-22 00:21:10.47	189.00	23.34	-41.8	-42.6	22.0	0.00e+00	0	41	0	1889533952	55	3883
2026-01-22 00:21:11.48	189.06	23.19	-42.0	-42.8	21.8	0.00e+00	0	41	0	1892679680	55	3972
2026-01-22 00:21:12.49	189.11	23.05	-42.1	-42.9	21.7	0.00e+00	0	41	0	1895825408	55	4019
2026-01-22 00:21:13.50	189.17	22.90	-42.0	-42.8	21.7	0.00e+00	0	41	0	1898971136	55	4004
2026-01-22 00:21:14.51	189.23	22.76	-42.1	-43.0	21.6	0.00e+00	0	41	0	1902116864	55	4060
2026-01-22 00:21:15.51	189.29	22.61	-42.2	-43.1	21.5	0.00e+00	0	40	0	1905262592	55	4118
2026-01-22 00:21:16.52	189.34	22.47	-42.3	-43.2	21.5	0.00e+00	0	41	0	1908408320	55	4146
2026-01-22 00:21:17.53	189.40	22.33	-42.3	-43.2	21.5	0.00e+00	0	40	0	1911554048	55	4164
2026-01-22 00:21:18.54	189.46	22.19	-42.4	-43.3	21.5	0.00e+00	0	41	0	1914699776	55	4206
2026-01-22 00:21:19.54	189.51	22.05	-42.4	-43.2	21.5	0.00e+00	0	41	0	1917845504	55	4179
2026-01-22 00:21:20.55	189.57	21.91	-42.4	-43.3	21.5	0.00e+00	0	41	0	1920991232	55	4200
2026-01-22 00:21:21.56	189.62	21.77	-42.4	-43.2	21.5	0.00e+00	0	41	0	1924136960	55	4186
2026-01-22 00:21:22.57	189.67	21.63	-42.2	-43.0	21.7	0.00e+00	0	41	0	1927282688	55	4098
2026-01-22 00:21:23.58	189.73	21.49	-42.1	-43.0	21.8	0.00e+00	0	41	0	1930428416	55	4065
2026-01-22 00:21:24.59	189.78	21.35	-42.1	-42.9	21.8	0.00e+00	0	41	0	1933574144	55	4045
2026-01-22 00:21:25.60	189.83	21.22	-41.9	-42.7	22.0	0.00e+00	0	40	0	1936719872	55	3928
2026-01-22 00:21:26.60	189.89	21.08	-41.8	-42.6	22.1	0.00e+00	0	41	0	1939865600	55	3883
2026-01-22 00:21:27.61	189.94	20.95	-41.8	-42.6	22.0	0.00e+00	0	40	0	1943011328	55	3912
2026-01-22 00:21:28.62	189.99	20.81	-41.7	-42.5	22.1	0.00e+00	0	41	0	1946157056	55	3851
2026-01-22 00:21:29.63	190.04	20.68	-41.5	-42.3	22.3	0.00e+00	0	41	0	1949302784	55	3766
2026-01-22 00:21:30.63	190.09	20.55	-41.6	-42.4	22.2	0.00e+00	0	40	0	1952448512	55	3805
2026-01-22 00:21:31.64	190.14	20.42	-41.6	-42.4	22.2	0.00e+00	0	41	0	1955594240	55	3808
2026-01-22 00:21:32.65	190.19	20.28	-41.6	-42.4	22.2	0.00e+00	0	41	0	1958739968	55	3803
2026-01-22 00:21:33.66	190.24	20.15	-41.6	-42.4	22.2	0.00e+00	0	41	0	1961885696	55	3815
2026-01-22 00:21:34.67	190.29	20.02	-41.7	-42.5	22.2	0.00e+00	0	40	0	1965031424	55	3829
2026-01-22 00:21:35.68	190.34	19.89	-41.7	-42.5	22.2	0.00e+00	0	41	0	1968177152	55	3844
2026-01-22 00:21:36.68	190.38	19.76	-41.8	-42.5	22.1	0.00e+00	0	41	0	1971322880	55	3867
2026-01-22 00:21:37.69	190.43	19.64	-41.8	-42.6	22.2	0.00e+00	0	41	0	1974468608	55	3871
2026-01-22 00:21:38.70	190.48	19.51	-41.8	-42.6	22.1	0.00e+00	0	40	0	1977614336	55	3880
2026-01-22 00:21:39.71	190.53	19.38	-41.8	-42.6	22.1	0.00e+00	0	41	0	1980760064	55	3898
2026-01-22 00:21:40.72	190.57	19.25	-41.8	-42.6	22.2	0.00e+00	0	41	0	1983905792	55	3874
2026-01-22 00:21:41.73	190.62	19.13	-41.8	-42.6	22.1	0.00e+00	0	41	0	1987051520	55	3896
2026-01-22 00:21:42.73	190.67	19.00	-41.9	-42.7	22.1	0.00e+00	0	41	0	1990197248	55	3918
2026-01-22 00:21:43.74	190.71	18.88	-41.8	-42.6	22.1	0.00e+00	0	40	0	1993342976	55	3901
2026-01-22 00:21:44.74	190.76	18.76	-41.9	-42.7	22.0	0.00e+00	0	40	0	1996488704	55	3956
2026-01-22 00:21:45.75	190.80	18.63	-41.9	-42.7	22.0	0.00e+00	0	41	0	1999634432	55	3951
2026-01-22 00:21:46.76	190.85	18.51	-42.0	-42.8	21.9	0.00e+00	0	41	0	2002780160	55	3991
2026-01-22 00:21:47.77	190.89	18.39	-42.1	-42.9	21.9	0.00e+00	0	41	0	2005925888	55	4015
2026-01-22 00:21:48.78	190.94	18.27	-42.1	-42.9	21.9	0.00e+00	0	41	0	2009071616	55	4035
2026-01-22 00:21:49.79	190.98	18.15	-42.2	-43.0	21.8	0.00e+00	0	40	0	2012217344	55	4071
2026-01-22 00:21:50.80	191.02	18.03	-42.2	-43.1	21.7	0.00e+00	0	40	0	2015363072	55	4108
2026-01-22 00:21:51.81	191.07	17.91	-42.2	-43.0	21.7	0.00e+00	0	41	0	2018508800	55	4087
2026-01-22 00:21:52.81	191.11	17.79	-42.3	-43.1	21.7	0.00e+00	0	41	0	2021654528	55	4117
2026-01-22 00:21:53.82	191.15	17.67	-42.4	-43.3	21.5	0.00e+00	0	41	0	2024800256	55	4204
2026-01-22 00:21:54.83	191.19	17.55	-42.4	-43.3	21.5	0.00e+00	0	41	0	2027945984	55	4199
2026-01-22 00:21:55.84	191.23	17.43	-42.5	-43.4	21.4	0.00e+00	0	41	0	2031091712	55	4245
2026-01-22 00:21:56.85	191.28	17.32	-42.6	-43.5	21.3	0.00e+00	0	40	0	2034237440	55	4303
2026-01-22 00:21:57.85	191.32	17.20	-42.7	-43.5	21.3	0.00e+00	0	41	0	2037383168	55	4329
2026-01-22 00:21:58.86	191.36	17.08	-42.6	-43.4	21.4	0.00e+00	0	41	0	2040528896	55	4288
2026-01-22 00:21:59.87	191.40	16.97	-42.6	-43.5	21.3	0.00e+00	0	41	0	2043674624	55	4325
2026-01-22 00:22:00.88	191.44	16.85	-42.9	-43.8	21.2	0.00e+00	0	41	0	2046820352	56	4201
2026-01-22 00:22:01.89	191.48	16.74	-43.0	-43.9	21.1	0.00e+00	0	41	0	2049966080	56	4262
2026-01-22 00:22:02.90	191.52	16.62	-43.0	-43.9	21.0	0.00e+00	0	41	0	2053111808	56	4286
2026-01-22 00:22:03.91	191.56	16.51	-43.1	-44.1	20.9	0.00e+00	0	41	0	2056257536	56	4350
