passes_logs/2026/01/22/R3.2S_Murmansk/R3.2S_Murmansk__20260122_132055_TY-42_rec.log

#Pass ID: 20260122_132055_TY-42
#Satellite: TY-42
#Configuration: TY-42_900M
#almurnet v.1.7.20251203
#Start time: 2026-01-22 13:20:54

#Version: 2.2.20231116
#Station: R3.2S_Murmansk
#Location: 33.079688 lon 68.888172 lat
#TLE: 1 64048U 25103A   26021.88848380  .00008008  00000-0  38191-3 0 09992
#TLE: 2 64048 097.4124 097.1764 0001786 094.9639 294.5154 15.19162210 37869

#Time	Az	El	Level	Level2	SNR	BER	BlckErr	Temp	State	Recorded	gain1	gain2
2026-01-22 13:20:54.93	38.10	1.98	-54.7	-56.8	6.2	0.00e+00	0	47	0	0	80	18994
2026-01-22 13:20:55.94	37.98	2.03	-54.6	-56.8	6.2	0.00e+00	0	47	104	0	81	17869
2026-01-22 13:20:56.95	37.86	2.09	-54.6	-56.7	6.2	0.00e+00	0	47	104	0	81	17744
2026-01-22 13:20:57.96	37.74	2.14	-54.5	-56.6	6.2	0.00e+00	0	47	104	0	81	17518
2026-01-22 13:20:58.97	37.62	2.19	-54.5	-56.6	6.2	0.00e+00	0	47	104	0	81	17539
2026-01-22 13:20:59.98	37.50	2.25	-54.5	-56.6	6.2	0.00e+00	0	47	104	0	80	18456
2026-01-22 13:21:00.99	37.37	2.30	-54.4	-56.6	6.2	0.00e+00	0	47	104	0	80	18395
2026-01-22 13:21:02.00	37.25	2.36	-54.4	-56.5	6.2	0.00e+00	0	48	104	0	80	18350
2026-01-22 13:21:03.00	37.13	2.41	-54.3	-56.5	6.2	0.00e+00	0	48	104	0	80	18216
2026-01-22 13:21:04.01	37.01	2.46	-54.3	-56.4	6.2	0.00e+00	0	48	104	0	80	18092
2026-01-22 13:21:05.02	36.88	2.52	-54.2	-56.4	6.2	0.00e+00	0	48	104	0	80	18006
2026-01-22 13:21:06.03	36.76	2.57	-54.1	-56.3	6.2	0.00e+00	0	48	104	0	80	17776
2026-01-22 13:21:07.04	36.63	2.63	-54.0	-56.1	6.2	0.00e+00	0	48	104	0	80	17517
2026-01-22 13:21:08.04	36.51	2.68	-53.9	-56.1	6.2	0.00e+00	0	48	104	0	79	18390
2026-01-22 13:21:09.05	36.38	2.73	-53.7	-55.8	6.2	0.00e+00	0	48	104	0	79	17943
2026-01-22 13:21:10.06	36.26	2.79	-53.4	-55.5	6.2	0.00e+00	0	48	104	0	78	18329
2026-01-22 13:21:11.07	36.13	2.84	-53.0	-55.1	6.2	0.00e+00	0	48	104	0	78	17538
2026-01-22 13:21:12.08	36.00	2.90	-52.9	-55.0	6.2	0.00e+00	0	48	104	0	77	18203
2026-01-22 13:21:13.08	35.87	2.95	-52.8	-55.0	6.2	0.00e+00	0	48	104	0	77	18205
2026-01-22 13:21:14.09	35.74	3.00	-52.8	-55.0	6.2	0.00e+00	0	48	104	0	77	18271
2026-01-22 13:21:15.10	35.61	3.06	-52.8	-55.0	6.2	0.00e+00	0	48	104	0	77	18262
2026-01-22 13:21:16.11	35.48	3.11	-52.8	-55.0	6.2	0.00e+00	0	48	104	0	77	18238
2026-01-22 13:21:17.12	35.35	3.17	-52.8	-54.9	6.2	0.00e+00	0	48	104	0	77	18177
2026-01-22 13:21:18.13	35.22	3.22	-52.8	-55.0	6.2	0.00e+00	0	48	104	0	77	18220
2026-01-22 13:21:19.14	35.09	3.28	-52.8	-55.0	6.2	0.00e+00	0	48	104	0	77	18256
2026-01-22 13:21:20.14	34.95	3.33	-52.8	-54.9	6.2	0.00e+00	0	48	104	0	77	18172
2026-01-22 13:21:21.15	34.82	3.38	-52.8	-54.9	6.2	0.00e+00	0	48	104	0	77	18178
2026-01-22 13:21:22.16	34.69	3.44	-52.8	-55.0	6.2	0.00e+00	0	48	104	0	77	18209
2026-01-22 13:21:23.17	34.55	3.49	-52.8	-55.0	6.2	0.00e+00	0	49	104	0	77	18211
2026-01-22 13:21:24.18	34.42	3.55	-52.8	-54.9	6.2	0.00e+00	0	49	104	0	77	18156
2026-01-22 13:21:25.18	34.28	3.60	-52.8	-55.0	6.2	0.00e+00	0	49	104	0	77	18204
2026-01-22 13:21:26.19	34.14	3.66	-52.8	-54.9	6.2	0.00e+00	0	49	104	0	77	18144
2026-01-22 13:21:27.20	34.01	3.71	-52.8	-54.9	6.2	0.00e+00	0	48	104	0	77	18151
2026-01-22 13:21:28.20	33.87	3.76	-52.8	-54.9	6.2	0.00e+00	0	49	104	0	77	18174
2026-01-22 13:21:29.21	33.73	3.82	-52.8	-54.9	6.2	0.00e+00	0	49	104	0	77	18165
2026-01-22 13:21:30.22	33.59	3.87	-52.8	-54.9	6.2	0.00e+00	0	49	104	0	77	18170
2026-01-22 13:21:31.23	33.45	3.93	-52.8	-55.0	6.2	0.00e+00	0	49	104	0	77	18183
2026-01-22 13:21:32.24	33.31	3.98	-52.8	-55.0	6.2	0.00e+00	0	49	104	0	77	18182
2026-01-22 13:21:33.25	33.17	4.04	-52.8	-54.9	6.2	0.00e+00	0	49	104	0	77	18140
2026-01-22 13:21:34.26	33.02	4.09	-52.8	-55.0	6.2	0.00e+00	0	49	104	0	77	18204
2026-01-22 13:21:35.27	32.88	4.15	-52.8	-54.9	6.2	0.00e+00	0	49	104	0	77	18121
2026-01-22 13:21:36.27	32.74	4.20	-52.8	-54.9	6.2	0.00e+00	0	49	104	0	77	18127
2026-01-22 13:21:37.28	32.59	4.26	-52.8	-54.9	6.2	0.00e+00	0	49	104	0	77	18140
2026-01-22 13:21:38.29	32.45	4.31	-52.8	-54.9	6.2	0.00e+00	0	49	104	0	77	18169
2026-01-22 13:21:39.30	32.30	4.36	-52.8	-54.9	6.2	0.00e+00	0	49	104	0	77	18172
2026-01-22 13:21:40.31	32.16	4.42	-52.8	-54.9	6.2	0.00e+00	0	49	104	0	77	18136
2026-01-22 13:21:41.32	32.01	4.47	-52.8	-54.9	6.2	0.00e+00	0	49	104	0	77	18167
2026-01-22 13:21:42.32	31.86	4.53	-52.8	-54.9	6.2	0.00e+00	0	49	104	0	77	18155
2026-01-22 13:21:43.33	31.71	4.58	-52.8	-54.9	6.2	0.00e+00	0	49	104	0	77	18146
2026-01-22 13:21:44.33	31.56	4.64	-52.8	-54.9	6.2	0.00e+00	0	49	104	0	77	18113
2026-01-22 13:21:45.35	31.41	4.69	-52.8	-54.9	6.2	0.00e+00	0	49	104	0	77	18178
2026-01-22 13:21:46.35	31.26	4.75	-52.8	-55.0	6.2	0.00e+00	0	49	104	0	77	18198
2026-01-22 13:21:47.36	31.11	4.80	-52.8	-54.9	6.2	0.00e+00	0	49	104	0	77	18171
2026-01-22 13:21:48.37	30.96	4.86	-52.8	-54.9	6.2	0.00e+00	0	49	104	0	77	18144
2026-01-22 13:21:49.38	30.81	4.91	-52.8	-54.9	6.2	0.00e+00	0	49	104	0	77	18123
2026-01-22 13:21:50.39	30.65	4.96	-52.8	-55.0	6.2	0.00e+00	0	49	104	0	77	18196
2026-01-22 13:21:51.39	30.50	5.02	-52.8	-54.9	6.2	0.00e+00	0	49	104	0	77	18132
2026-01-22 13:21:52.40	30.34	5.07	-52.8	-55.0	6.2	0.00e+00	0	49	104	0	77	18198
2026-01-22 13:21:53.41	30.19	5.13	-52.9	-55.0	6.2	0.00e+00	0	49	104	0	77	18296
2026-01-22 13:21:54.42	30.03	5.18	-52.9	-55.0	6.2	0.00e+00	0	49	104	0	77	18234
2026-01-22 13:21:55.43	29.87	5.24	-52.9	-55.0	6.2	0.00e+00	0	49	104	0	77	18271
2026-01-22 13:21:56.44	29.72	5.29	-52.9	-55.0	6.2	0.00e+00	0	49	104	0	77	18247
2026-01-22 13:21:57.44	29.56	5.34	-52.8	-54.9	6.2	0.00e+00	0	50	104	0	77	18076
2026-01-22 13:21:58.45	29.40	5.40	-52.9	-55.0	6.2	0.00e+00	0	49	104	0	77	18290
2026-01-22 13:21:59.46	29.24	5.45	-52.9	-55.0	6.2	0.00e+00	0	50	104	0	77	18320
2026-01-22 13:22:00.46	29.08	5.51	-52.9	-55.1	6.2	0.00e+00	0	50	104	0	77	18399
2026-01-22 13:22:01.47	28.92	5.56	-52.8	-55.0	6.2	0.00e+00	0	50	104	0	77	18230
2026-01-22 13:22:02.48	28.75	5.62	-52.9	-55.0	6.2	0.00e+00	0	50	104	0	77	18326
2026-01-22 13:22:03.49	28.59	5.67	-52.9	-55.1	6.2	0.00e+00	0	50	104	0	77	18407
2026-01-22 13:22:04.50	28.42	5.72	-52.9	-55.1	6.2	0.00e+00	0	50	104	0	77	18430
2026-01-22 13:22:05.50	28.26	5.78	-50.0	-50.9	6.8	0.00e+00	0	50	104	0	74	13520
2026-01-22 13:22:06.51	28.09	5.83	-41.3	-41.2	12.1	0.00e+00	0	52	0	41943040	54	14106
2026-01-22 13:22:07.52	27.93	5.89	-40.5	-40.3	11.7	0.00e+00	11021	52	104	100663296	53	13457
2026-01-22 13:22:08.53	27.76	5.94	-38.5	-38.4	12.9	9.74e-03	0	52	0	192937984	47	15289
2026-01-22 13:22:09.53	27.59	5.99	-41.5	-41.4	11.3	0.00e+00	6650	51	104	209715200	55	13590
2026-01-22 13:22:10.54	27.42	6.05	-35.8	-35.7	14.5	1.17e-02	0	52	0	285212672	43	14026
2026-01-22 13:22:11.55	27.25	6.10	-35.9	-35.7	14.5	1.17e-02	0	52	0	402653184	43	14104
2026-01-22 13:22:12.56	27.08	6.16	-35.7	-35.7	14.6	1.23e-02	0	52	0	511705088	43	13951
2026-01-22 13:22:13.57	26.91	6.21	-36.0	-35.9	14.5	1.23e-02	0	52	0	629145600	43	14364
2026-01-22 13:22:14.58	26.74	6.26	-36.0	-35.9	14.4	1.23e-02	0	52	0	738197504	43	14379
2026-01-22 13:22:15.59	26.57	6.32	-35.9	-35.9	14.5	1.30e-02	0	52	0	847249408	43	14285
2026-01-22 13:22:16.60	26.39	6.37	-35.5	-35.4	14.7	1.30e-02	0	52	0	964689920	43	13628
2026-01-22 13:22:17.60	26.22	6.42	-35.5	-35.4	14.7	1.30e-02	0	52	0	1073741824	42	14357
2026-01-22 13:22:18.61	26.04	6.48	-35.1	-35.1	14.9	1.13e-02	0	52	0	1191182336	42	13792
2026-01-22 13:22:19.62	25.87	6.53	-35.6	-35.5	14.7	1.13e-02	0	52	0	1300234240	42	14546
2026-01-22 13:22:20.63	25.69	6.58	-35.9	-35.8	14.5	9.72e-03	0	52	0	1417674752	42	15058
2026-01-22 13:22:21.64	25.51	6.64	-36.2	-36.2	14.3	9.72e-03	0	53	0	1535115264	43	14804
2026-01-22 13:22:22.65	25.33	6.69	-36.0	-35.9	14.4	9.72e-03	0	53	0	1652555776	43	14432
2026-01-22 13:22:23.66	25.15	6.74	-35.8	-35.7	14.6	1.50e-02	0	53	0	1761607680	43	13967
2026-01-22 13:22:24.66	24.97	6.80	-35.9	-35.8	14.5	1.50e-02	0	53	0	1879048192	43	14212
2026-01-22 13:22:25.67	24.79	6.85	-35.8	-35.8	14.6	1.23e-02	0	53	0	1988100096	43	14121
2026-01-22 13:22:26.68	24.61	6.90	-35.5	-35.4	14.8	1.23e-02	0	53	0	2097152000	43	13536
2026-01-22 13:22:27.69	24.43	6.96	-35.6	-35.5	14.6	1.23e-02	0	53	0	2214592512	43	13743
2026-01-22 13:22:28.70	24.24	7.01	-35.5	-35.5	14.7	1.23e-02	0	53	0	2323644416	43	13633
2026-01-22 13:22:29.71	24.06	7.06	-35.6	-35.5	14.6	1.06e-02	0	53	0	2441084928	42	14555
2026-01-22 13:22:30.72	23.87	7.11	-35.6	-35.5	14.6	1.06e-02	0	53	0	2550136832	42	14459
2026-01-22 13:22:31.73	23.69	7.17	-35.5	-35.4	14.7	1.06e-02	0	53	0	2659188736	42	14416
2026-01-22 13:22:32.74	23.50	7.22	-35.6	-35.5	14.6	1.06e-02	0	53	0	2785017856	42	14518
2026-01-22 13:22:33.75	23.31	7.27	-35.7	-35.6	14.6	1.06e-02	0	53	0	2902458368	42	14654
2026-01-22 13:22:34.75	23.12	7.32	-35.7	-35.6	14.6	1.20e-02	0	53	0	3011510272	42	14632
2026-01-22 13:22:35.76	22.93	7.37	-35.5	-35.4	14.7	1.20e-02	0	53	0	3120562176	42	14283
2026-01-22 13:22:36.77	22.74	7.43	-35.7	-35.6	14.6	1.20e-02	0	53	0	3238002688	42	14633
2026-01-22 13:22:37.78	22.55	7.48	-35.4	-35.3	14.7	1.14e-02	0	53	0	3347054592	42	14247
2026-01-22 13:22:38.79	22.36	7.53	-35.5	-35.4	14.7	1.14e-02	0	53	0	3464495104	42	14332
2026-01-22 13:22:39.80	22.16	7.58	-35.5	-35.4	14.7	1.14e-02	0	53	0	3573547008	42	14427
2026-01-22 13:22:40.81	21.97	7.63	-35.5	-35.4	14.7	1.06e-02	0	53	0	3682598912	42	14411
2026-01-22 13:22:41.82	21.77	7.68	-35.5	-35.4	14.7	1.06e-02	0	53	0	3800039424	42	14314
2026-01-22 13:22:42.83	21.58	7.73	-35.5	-35.4	14.7	1.06e-02	0	53	0	3909091328	42	14335
2026-01-22 13:22:43.84	21.38	7.79	-35.6	-35.5	14.7	1.03e-02	0	53	0	4034920448	42	14523
2026-01-22 13:22:44.84	21.19	7.84	-35.4	-35.3	14.8	1.03e-02	0	53	0	4143972352	42	14190
2026-01-22 13:22:45.85	20.99	7.89	-35.3	-35.2	14.8	1.03e-02	0	53	0	4261412864	42	14078
2026-01-22 13:22:46.86	20.79	7.94	-35.4	-35.3	14.8	1.03e-02	0	53	0	4370464768	42	14115
2026-01-22 13:22:47.87	20.59	7.99	-35.4	-35.3	14.7	9.59e-03	0	53	0	4487905280	42	14165
2026-01-22 13:22:48.88	20.39	8.04	-35.4	-35.3	14.8	9.59e-03	0	53	0	4596957184	42	14148
2026-01-22 13:22:49.89	20.18	8.09	-35.2	-35.1	14.8	9.59e-03	0	53	0	4706009088	42	13914
2026-01-22 13:22:50.90	19.98	8.14	-35.3	-35.2	14.8	1.01e-02	0	53	0	4823449600	42	13977
2026-01-22 13:22:51.90	19.78	8.19	-35.2	-35.1	14.8	1.01e-02	0	53	0	4932501504	42	13916
2026-01-22 13:22:52.91	19.58	8.24	-35.1	-35.0	14.9	8.96e-03	0	53	0	5049942016	42	13721
2026-01-22 13:22:53.92	19.37	8.29	-35.2	-35.1	14.8	8.96e-03	0	54	0	5158993920	42	13831
2026-01-22 13:22:54.93	19.16	8.34	-35.1	-35.0	14.9	8.96e-03	0	53	0	5276434432	42	13748
2026-01-22 13:22:55.94	18.96	8.39	-35.2	-35.1	14.8	8.96e-03	0	53	0	5393874944	42	13842
2026-01-22 13:22:56.95	18.75	8.43	-35.1	-35.0	14.9	8.36e-03	0	53	0	5511315456	42	13675
2026-01-22 13:22:57.96	18.54	8.48	-35.2	-35.1	14.8	8.36e-03	0	53	0	5620367360	42	13847
2026-01-22 13:22:58.96	18.33	8.53	-35.2	-35.1	14.8	8.36e-03	0	53	0	5737807872	42	13820
2026-01-22 13:22:59.97	18.12	8.58	-35.2	-35.1	14.8	9.36e-03	0	53	0	5846859776	42	13832
2026-01-22 13:23:00.98	17.91	8.63	-35.0	-34.9	15.0	9.36e-03	0	54	0	5955911680	42	13497
2026-01-22 13:23:01.99	17.70	8.68	-34.9	-34.8	15.0	8.01e-03	0	54	0	6073352192	41	14178
2026-01-22 13:23:02.99	17.48	8.72	-35.0	-34.9	14.9	8.01e-03	0	54	0	6182404096	41	14372
2026-01-22 13:23:04.00	17.27	8.77	-35.2	-35.1	14.8	8.01e-03	0	54	0	6299844608	41	14668
2026-01-22 13:23:05.01	17.05	8.82	-35.1	-35.0	14.8	7.83e-03	0	54	0	6408896512	41	14579
2026-01-22 13:23:06.02	16.84	8.87	-35.0	-35.0	14.9	7.83e-03	0	54	0	6517948416	41	14443
2026-01-22 13:23:07.02	16.62	8.91	-34.9	-34.8	15.0	7.83e-03	0	54	0	6635388928	41	14148
2026-01-22 13:23:08.03	16.41	8.96	-34.9	-34.8	15.0	7.83e-03	0	54	0	6744440832	41	14133
2026-01-22 13:23:09.04	16.19	9.01	-34.9	-34.9	14.9	7.46e-03	0	54	0	6870269952	41	14286
2026-01-22 13:23:10.05	15.97	9.05	-34.8	-34.7	15.0	7.46e-03	0	54	0	6979321856	41	14051
2026-01-22 13:23:11.06	15.75	9.10	-34.9	-34.8	15.0	7.46e-03	0	54	0	7096762368	41	14143
2026-01-22 13:23:12.06	15.53	9.15	-34.9	-34.8	15.0	6.64e-03	0	54	0	7205814272	41	14230
2026-01-22 13:23:13.07	15.31	9.19	-34.9	-34.8	15.0	6.64e-03	0	54	0	7323254784	41	14163
2026-01-22 13:23:14.08	15.08	9.24	-34.9	-34.8	15.0	6.64e-03	0	54	0	7432306688	41	14223
2026-01-22 13:23:15.09	14.86	9.28	-34.7	-34.6	15.1	6.64e-03	0	54	0	7541358592	41	13799
2026-01-22 13:23:16.10	14.63	9.33	-34.7	-34.6	15.0	7.54e-03	0	54	0	7658799104	41	13875
2026-01-22 13:23:17.11	14.41	9.37	-34.6	-34.5	15.1	7.54e-03	0	54	0	7767851008	41	13715
2026-01-22 13:23:18.12	14.18	9.42	-34.8	-34.7	15.0	7.54e-03	0	54	0	7885291520	41	13975
2026-01-22 13:23:19.12	13.96	9.46	-34.7	-34.6	15.2	5.84e-03	0	54	0	7994343424	41	13827
2026-01-22 13:23:20.13	13.73	9.50	-34.7	-34.6	15.2	5.84e-03	0	54	0	8120172544	41	13901
2026-01-22 13:23:21.14	13.50	9.55	-34.6	-34.5	15.2	5.84e-03	0	54	0	8229224448	41	13704
2026-01-22 13:23:22.15	13.27	9.59	-34.6	-34.5	15.2	6.19e-03	0	54	0	8346664960	41	13659
2026-01-22 13:23:23.16	13.04	9.63	-34.8	-34.7	15.1	6.19e-03	0	54	0	8455716864	41	14005
2026-01-22 13:23:24.17	12.81	9.68	-34.6	-34.5	15.2	6.01e-03	0	54	0	8564768768	41	13699
2026-01-22 13:23:25.17	12.58	9.72	-34.6	-34.5	15.2	6.01e-03	0	54	0	8682209280	41	13691
2026-01-22 13:23:26.18	12.35	9.76	-34.5	-34.4	15.2	6.01e-03	0	54	0	8791261184	41	13571
2026-01-22 13:23:27.19	12.11	9.80	-34.6	-34.5	15.1	4.98e-03	0	54	0	8908701696	40	14551
2026-01-22 13:23:28.20	11.88	9.84	-34.6	-34.5	15.1	4.98e-03	0	54	0	9017753600	40	14571
2026-01-22 13:23:29.21	11.64	9.89	-34.4	-34.3	15.2	4.98e-03	0	54	0	9135194112	40	14246
2026-01-22 13:23:30.22	11.40	9.93	-34.4	-34.3	15.2	5.01e-03	0	54	0	9244246016	40	14201
2026-01-22 13:23:31.22	11.17	9.97	-34.4	-34.3	15.2	5.01e-03	0	54	0	9353297920	40	14253
2026-01-22 13:23:32.23	10.93	10.01	-34.4	-34.3	15.2	5.01e-03	0	54	0	9470738432	40	14242
2026-01-22 13:23:33.24	10.69	10.05	-34.4	-34.3	15.2	4.55e-03	0	54	0	9596567552	40	14266
2026-01-22 13:23:34.25	10.45	10.09	-34.4	-34.3	15.2	4.55e-03	0	54	0	9705619456	40	14159
2026-01-22 13:23:35.26	10.21	10.13	-34.4	-34.3	15.1	4.55e-03	0	54	0	9814671360	40	14273
2026-01-22 13:23:36.26	9.97	10.17	-34.4	-34.4	15.1	4.66e-03	0	54	0	9932111872	40	14283
2026-01-22 13:23:37.27	9.73	10.21	-34.4	-34.4	15.1	4.66e-03	0	54	0	10041163776	40	14288
2026-01-22 13:23:38.28	9.49	10.24	-34.4	-34.3	15.2	4.97e-03	0	55	0	10158604288	40	14147
2026-01-22 13:23:39.29	9.24	10.28	-34.6	-34.5	15.1	4.97e-03	0	54	0	10267656192	40	14489
2026-01-22 13:23:40.30	9.00	10.32	-34.6	-34.5	15.1	4.97e-03	0	54	0	10376708096	40	14499
2026-01-22 13:23:41.31	8.75	10.36	-34.6	-34.5	15.1	5.15e-03	0	54	0	10494148608	40	14598
2026-01-22 13:23:42.32	8.51	10.39	-34.5	-34.4	15.1	5.15e-03	0	54	0	10603200512	40	14323
2026-01-22 13:23:43.32	8.26	10.43	-34.5	-34.4	15.2	5.15e-03	0	54	0	10720641024	40	14348
2026-01-22 13:23:44.33	8.02	10.47	-34.5	-34.4	15.2	5.30e-03	0	54	0	10829692928	40	14332
2026-01-22 13:23:45.34	7.77	10.50	-34.6	-34.5	15.1	5.30e-03	0	55	0	10955522048	40	14534
2026-01-22 13:23:46.35	7.52	10.54	-34.6	-34.4	15.1	5.15e-03	0	55	0	11064573952	40	14436
2026-01-22 13:23:47.36	7.27	10.57	-34.5	-34.4	15.2	5.15e-03	0	54	0	11182014464	40	14345
2026-01-22 13:23:48.37	7.02	10.61	-34.5	-34.3	15.2	5.15e-03	0	54	0	11291066368	40	14269
2026-01-22 13:23:49.38	6.77	10.64	-34.4	-34.3	15.2	4.87e-03	0	55	0	11400118272	40	14247
2026-01-22 13:23:50.38	6.52	10.68	-34.4	-34.3	15.2	4.87e-03	0	55	0	11517558784	40	14128
2026-01-22 13:23:51.39	6.26	10.71	-34.3	-34.2	15.2	4.87e-03	0	55	0	11626610688	40	14009
2026-01-22 13:23:52.40	6.01	10.74	-34.4	-34.3	15.2	4.87e-03	0	55	0	11744051200	40	14212
2026-01-22 13:23:53.41	5.76	10.78	-34.4	-34.3	15.2	4.23e-03	0	55	0	11853103104	40	14257
2026-01-22 13:23:54.42	5.50	10.81	-34.3	-34.2	15.2	4.23e-03	0	55	0	11962155008	40	14020
2026-01-22 13:23:55.43	5.25	10.84	-34.4	-34.3	15.2	4.35e-03	0	55	0	12079595520	40	14149
2026-01-22 13:23:56.44	4.99	10.87	-34.5	-34.4	15.1	4.35e-03	0	55	0	12205424640	40	14286
2026-01-22 13:23:57.44	4.74	10.90	-34.2	-34.1	15.2	4.41e-03	0	55	0	12314476544	40	13870
2026-01-22 13:23:58.45	4.48	10.93	-34.2	-34.1	15.2	4.41e-03	0	55	0	12423528448	40	13798
2026-01-22 13:23:59.46	4.22	10.96	-34.2	-34.1	15.2	4.41e-03	0	55	0	12540968960	40	13910
2026-01-22 13:24:00.47	3.96	10.99	-34.2	-34.1	15.2	4.41e-03	0	55	0	12650020864	40	13947
2026-01-22 13:24:01.48	3.70	11.02	-34.2	-34.1	15.2	3.88e-03	0	55	0	12767461376	40	13924
2026-01-22 13:24:02.48	3.44	11.05	-34.3	-34.1	15.2	3.88e-03	0	55	0	12876513280	40	13943
2026-01-22 13:24:03.49	3.18	11.08	-34.2	-34.1	15.1	3.72e-03	0	55	0	12993953792	40	13891
2026-01-22 13:24:04.50	2.92	11.11	-34.3	-34.2	15.1	3.72e-03	0	55	0	13103005696	40	14011
2026-01-22 13:24:05.51	2.66	11.14	-34.4	-34.3	15.1	3.72e-03	0	55	0	13212057600	40	14197
2026-01-22 13:24:06.51	2.40	11.16	-34.3	-34.2	15.1	3.72e-03	0	55	0	13329498112	40	14027
2026-01-22 13:24:07.52	2.14	11.19	-34.2	-34.1	15.1	4.61e-03	0	55	0	13438550016	40	13913
2026-01-22 13:24:08.53	1.87	11.22	-34.2	-34.1	15.1	4.61e-03	0	55	0	13555990528	40	13901
2026-01-22 13:24:09.54	1.61	11.24	-34.3	-34.2	15.1	4.61e-03	0	55	0	13673431040	40	14020
2026-01-22 13:24:10.54	1.35	11.27	-34.3	-34.2	15.1	4.35e-03	0	55	0	13790871552	40	14049
2026-01-22 13:24:11.55	1.08	11.29	-34.3	-34.2	15.1	4.35e-03	0	55	0	13899923456	40	14104
2026-01-22 13:24:12.56	0.81	11.32	-34.4	-34.3	15.0	4.35e-03	0	55	0	14017363968	40	14127
2026-01-22 13:24:13.57	0.55	11.34	-34.3	-34.2	15.1	4.53e-03	0	55	0	14126415872	40	14060
2026-01-22 13:24:14.58	0.28	11.37	-34.3	-34.2	15.0	4.53e-03	0	55	0	14235467776	40	14027
2026-01-22 13:24:15.58	0.02	11.39	-34.3	-34.2	15.0	4.53e-03	0	55	0	14352908288	40	14051
2026-01-22 13:24:16.59	359.75	11.41	-34.4	-34.3	15.0	4.75e-03	0	55	0	14461960192	40	14225
2026-01-22 13:24:17.60	359.48	11.43	-34.4	-34.3	15.0	4.75e-03	0	55	0	14579400704	40	14145
2026-01-22 13:24:18.61	359.21	11.45	-34.3	-34.2	15.0	4.75e-03	0	55	0	14688452608	40	14023
2026-01-22 13:24:19.61	358.94	11.47	-34.3	-34.2	15.0	4.84e-03	0	55	0	14797504512	40	13957
2026-01-22 13:24:20.62	358.67	11.50	-34.3	-34.2	15.1	4.84e-03	0	55	0	14914945024	40	14023
2026-01-22 13:24:21.63	358.40	11.52	-34.4	-34.3	15.0	4.84e-03	0	55	0	15040774144	40	14136
2026-01-22 13:24:22.64	358.13	11.53	-34.4	-34.3	14.9	4.88e-03	0	55	0	15149826048	40	14222
2026-01-22 13:24:23.65	357.86	11.55	-34.4	-34.2	15.0	4.88e-03	0	55	0	15258877952	40	14102
2026-01-22 13:24:24.66	357.59	11.57	-34.4	-34.3	15.0	5.46e-03	0	55	0	15376318464	40	14121
2026-01-22 13:24:25.67	357.32	11.59	-34.3	-34.2	15.0	5.46e-03	0	55	0	15485370368	40	14071
2026-01-22 13:24:26.68	357.04	11.61	-34.4	-34.3	15.0	5.46e-03	0	55	0	15602810880	40	14131
2026-01-22 13:24:27.69	356.77	11.62	-34.4	-34.3	14.9	5.54e-03	0	55	0	15711862784	40	14158
2026-01-22 13:24:28.70	356.50	11.64	-34.5	-34.4	14.9	5.54e-03	0	55	0	15820914688	40	14275
2026-01-22 13:24:29.70	356.23	11.66	-34.4	-34.3	14.9	5.64e-03	0	55	0	15938355200	40	14254
2026-01-22 13:24:30.71	355.95	11.67	-34.4	-34.3	14.9	5.64e-03	0	55	0	16047407104	40	14206
2026-01-22 13:24:31.72	355.68	11.69	-34.5	-34.4	14.8	5.64e-03	0	55	0	16164847616	40	14281
2026-01-22 13:24:32.73	355.40	11.70	-34.5	-34.4	14.8	6.59e-03	0	55	0	16273899520	40	14386
2026-01-22 13:24:33.73	355.13	11.71	-34.6	-34.5	14.8	6.59e-03	0	55	0	16399728640	40	14581
2026-01-22 13:24:34.74	354.86	11.73	-34.5	-34.4	14.9	6.59e-03	0	55	0	16508780544	40	14387
2026-01-22 13:24:35.75	354.58	11.74	-34.5	-34.4	14.8	8.03e-03	0	55	0	16626221056	40	14435
2026-01-22 13:24:36.76	354.30	11.75	-34.5	-34.4	14.9	8.03e-03	0	55	0	16735272960	40	14389
2026-01-22 13:24:37.77	354.03	11.76	-34.6	-34.5	14.8	8.03e-03	0	55	0	16852713472	40	14522
2026-01-22 13:24:38.77	353.75	11.77	-34.6	-34.5	14.8	6.90e-03	0	55	0	16961765376	40	14576
2026-01-22 13:24:39.78	353.48	11.78	-34.5	-34.4	14.9	6.90e-03	0	55	0	17070817280	40	14420
2026-01-22 13:24:40.79	353.20	11.79	-34.6	-34.5	14.8	6.90e-03	0	55	0	17188257792	40	14534
2026-01-22 13:24:41.80	352.92	11.80	-34.7	-34.6	14.8	7.60e-03	0	55	0	17297309696	40	14612
2026-01-22 13:24:42.81	352.65	11.81	-34.6	-34.5	14.9	7.60e-03	0	55	0	17414750208	40	14492
2026-01-22 13:24:43.82	352.37	11.82	-34.6	-34.5	14.9	7.60e-03	0	55	0	17523802112	40	14476
2026-01-22 13:24:44.82	352.09	11.83	-34.7	-34.6	14.8	7.31e-03	0	55	0	17632854016	40	14638
2026-01-22 13:24:45.83	351.81	11.83	-34.7	-34.6	14.8	7.31e-03	0	55	0	17750294528	40	14675
2026-01-22 13:24:46.84	351.54	11.84	-34.7	-34.6	14.8	7.63e-03	0	55	0	17876123648	40	14654
2026-01-22 13:24:47.85	351.26	11.85	-34.6	-34.5	14.9	7.63e-03	0	55	0	17985175552	40	14486
2026-01-22 13:24:48.86	350.98	11.85	-34.7	-34.5	14.9	7.63e-03	0	55	0	18094227456	40	14591
2026-01-22 13:24:49.86	350.70	11.86	-34.6	-34.4	14.9	7.60e-03	0	55	0	18211667968	40	14425
2026-01-22 13:24:50.87	350.43	11.86	-34.7	-34.6	14.9	7.60e-03	0	55	0	18320719872	40	14652
2026-01-22 13:24:51.88	350.15	11.86	-34.7	-34.6	14.9	7.60e-03	0	55	0	18438160384	40	14613
2026-01-22 13:24:52.89	349.87	11.87	-34.6	-34.5	14.9	7.64e-03	0	55	0	18547212288	40	14553
2026-01-22 13:24:53.90	349.59	11.87	-34.6	-34.5	14.9	7.64e-03	0	55	0	18656264192	40	14527
2026-01-22 13:24:54.90	349.31	11.87	-34.6	-34.5	15.0	7.64e-03	0	55	0	18773704704	40	14498
2026-01-22 13:24:55.91	349.03	11.87	-34.7	-34.6	14.9	7.14e-03	0	55	0	18882756608	40	14725
2026-01-22 13:24:56.92	348.76	11.87	-34.7	-34.6	15.0	7.14e-03	0	55	0	19000197120	40	14625
2026-01-22 13:24:57.93	348.48	11.87	-34.7	-34.6	14.9	7.14e-03	0	55	0	19109249024	40	14652
2026-01-22 13:24:58.93	348.20	11.87	-34.6	-34.5	15.0	6.73e-03	0	55	0	19235078144	40	14530
2026-01-22 13:24:59.94	347.92	11.87	-34.6	-34.5	15.0	6.73e-03	0	55	0	19344130048	40	14507
2026-01-22 13:25:00.95	347.64	11.87	-34.6	-34.5	15.0	6.73e-03	0	55	0	19461570560	40	14555
2026-01-22 13:25:01.96	347.36	11.87	-34.5	-34.4	15.0	6.29e-03	0	55	0	19570622464	40	14382
2026-01-22 13:25:02.97	347.08	11.87	-34.5	-34.4	15.1	6.29e-03	0	55	0	19679674368	40	14347
2026-01-22 13:25:03.98	346.81	11.86	-34.5	-34.4	15.1	6.29e-03	0	55	0	19797114880	40	14363
2026-01-22 13:25:04.98	346.53	11.86	-34.4	-34.3	15.1	5.67e-03	0	55	0	19906166784	40	14256
2026-01-22 13:25:05.99	346.25	11.86	-34.4	-34.3	15.2	5.67e-03	0	55	0	20023607296	40	14215
2026-01-22 13:25:07.00	345.97	11.85	-34.4	-34.3	15.1	5.67e-03	0	55	0	20132659200	40	14251
2026-01-22 13:25:08.01	345.69	11.85	-34.4	-34.3	15.1	5.27e-03	0	55	0	20250099712	40	14234
2026-01-22 13:25:09.02	345.42	11.84	-34.4	-34.3	15.2	5.27e-03	0	55	0	20359151616	40	14230
2026-01-22 13:25:10.03	345.14	11.83	-34.4	-34.3	15.2	5.27e-03	0	55	0	20484980736	40	14192
2026-01-22 13:25:11.04	344.86	11.83	-34.5	-34.4	15.1	5.03e-03	0	55	0	20594032640	40	14365
2026-01-22 13:25:12.05	344.58	11.82	-34.4	-34.3	15.2	5.03e-03	0	55	0	20711473152	40	14160
2026-01-22 13:25:13.05	344.31	11.81	-34.4	-34.3	15.2	5.03e-03	0	55	0	20820525056	40	14145
2026-01-22 13:25:14.06	344.03	11.80	-34.4	-34.3	15.2	4.98e-03	0	55	0	20929576960	40	14240
2026-01-22 13:25:15.07	343.75	11.79	-34.3	-34.2	15.2	4.98e-03	0	55	0	21047017472	40	14016
2026-01-22 13:25:16.08	343.48	11.78	-34.3	-34.2	15.2	4.98e-03	0	55	0	21156069376	40	14096
2026-01-22 13:25:17.09	343.20	11.77	-34.4	-34.3	15.2	4.69e-03	0	55	0	21273509888	40	14142
2026-01-22 13:25:18.10	342.92	11.76	-34.3	-34.2	15.2	4.69e-03	0	55	0	21382561792	40	14043
2026-01-22 13:25:19.11	342.65	11.75	-34.4	-34.3	15.2	4.69e-03	0	55	0	21491613696	40	14120
2026-01-22 13:25:20.12	342.37	11.74	-34.3	-34.2	15.2	4.69e-03	0	55	0	21609054208	40	14033
2026-01-22 13:25:21.12	342.10	11.73	-34.3	-34.2	15.2	4.31e-03	0	55	0	21718106112	40	14108
2026-01-22 13:25:22.13	341.82	11.71	-34.4	-34.3	15.2	4.31e-03	0	55	0	21835546624	40	14163
2026-01-22 13:25:23.14	341.55	11.70	-34.3	-34.2	15.2	4.09e-03	0	55	0	21952987136	40	14054
2026-01-22 13:25:24.15	341.27	11.68	-34.4	-34.3	15.3	4.09e-03	0	55	0	22070427648	40	14134
2026-01-22 13:25:25.16	341.00	11.67	-34.4	-34.3	15.2	4.09e-03	0	55	0	22179479552	40	14239
2026-01-22 13:25:26.16	340.73	11.65	-34.3	-34.2	15.3	4.40e-03	0	55	0	22296920064	40	14015
2026-01-22 13:25:27.17	340.45	11.64	-34.3	-34.2	15.3	4.40e-03	0	55	0	22405971968	40	13972
2026-01-22 13:25:28.18	340.18	11.62	-34.3	-34.2	15.3	4.40e-03	0	55	0	22515023872	40	14107
2026-01-22 13:25:29.19	339.91	11.61	-34.3	-34.2	15.3	3.74e-03	0	55	0	22632464384	40	13976
2026-01-22 13:25:30.20	339.63	11.59	-34.3	-34.2	15.3	3.74e-03	0	55	0	22741516288	40	14067
2026-01-22 13:25:31.21	339.36	11.57	-34.2	-34.2	15.3	3.74e-03	0	55	0	22858956800	40	13962
2026-01-22 13:25:32.22	339.09	11.55	-34.3	-34.2	15.3	3.57e-03	0	55	0	22968008704	40	13994
2026-01-22 13:25:33.23	338.82	11.53	-34.3	-34.2	15.3	3.57e-03	0	55	0	23085449216	40	13965
2026-01-22 13:25:34.23	338.55	11.51	-34.3	-34.2	15.3	3.57e-03	0	55	0	23202889728	40	14015
2026-01-22 13:25:35.24	338.28	11.49	-34.4	-34.3	15.3	3.57e-03	0	55	0	23320330240	40	14131
2026-01-22 13:25:36.25	338.01	11.47	-34.2	-34.1	15.3	3.68e-03	0	56	0	23429382144	40	13938
2026-01-22 13:25:37.26	337.74	11.45	-34.3	-34.2	15.3	3.68e-03	0	55	0	23538434048	40	14083
2026-01-22 13:25:38.26	337.47	11.43	-34.4	-34.3	15.2	3.68e-03	0	55	0	23655874560	40	14207
2026-01-22 13:25:39.27	337.20	11.41	-34.3	-34.2	15.3	3.59e-03	0	55	0	23764926464	40	14004
2026-01-22 13:25:40.28	336.94	11.39	-34.4	-34.3	15.2	3.59e-03	0	55	0	23882366976	40	14131
2026-01-22 13:25:41.29	336.67	11.36	-34.2	-34.2	15.2	4.16e-03	0	55	0	23991418880	40	13969
2026-01-22 13:25:42.30	336.40	11.34	-34.3	-34.2	15.2	4.16e-03	0	55	0	24108859392	40	14048
2026-01-22 13:25:43.30	336.14	11.32	-34.3	-34.2	15.2	4.16e-03	0	55	0	24217911296	40	14065
2026-01-22 13:25:44.31	335.87	11.29	-34.4	-34.3	15.2	3.76e-03	0	55	0	24326963200	40	14264
2026-01-22 13:25:45.32	335.60	11.27	-34.2	-34.2	15.2	3.76e-03	0	55	0	24444403712	40	13978
2026-01-22 13:25:46.33	335.34	11.24	-34.4	-34.3	15.2	3.90e-03	0	56	0	24553455616	40	14142
2026-01-22 13:25:47.34	335.07	11.21	-34.2	-34.2	15.2	3.90e-03	0	55	0	24679284736	40	13969
2026-01-22 13:25:48.34	334.81	11.19	-34.2	-34.1	15.2	3.90e-03	0	55	0	24788336640	40	13941
2026-01-22 13:25:49.35	334.55	11.16	-34.3	-34.2	15.2	3.90e-03	0	56	0	24905777152	40	13988
2026-01-22 13:25:50.36	334.29	11.13	-34.4	-34.3	15.2	3.87e-03	0	56	0	25014829056	40	14216
2026-01-22 13:25:51.37	334.03	11.11	-34.5	-34.4	15.1	3.87e-03	0	56	0	25132269568	40	14420
2026-01-22 13:25:52.38	333.76	11.08	-34.4	-34.3	15.2	4.25e-03	0	56	0	25241321472	40	14191
2026-01-22 13:25:53.39	333.50	11.05	-34.4	-34.3	15.2	4.25e-03	0	56	0	25350373376	40	14228
2026-01-22 13:25:54.40	333.24	11.02	-34.4	-34.3	15.1	4.25e-03	0	55	0	25467813888	40	14268
2026-01-22 13:25:55.40	332.99	10.99	-34.5	-34.4	15.1	4.40e-03	0	55	0	25576865792	40	14364
2026-01-22 13:25:56.41	332.73	10.96	-34.5	-34.4	15.1	4.40e-03	0	56	0	25694306304	40	14349
2026-01-22 13:25:57.42	332.47	10.93	-34.4	-34.4	15.1	4.40e-03	0	55	0	25803358208	40	14300
2026-01-22 13:25:58.43	332.21	10.90	-34.4	-34.4	15.1	4.68e-03	0	55	0	25912410112	40	14275
2026-01-22 13:25:59.44	331.95	10.87	-34.5	-34.4	15.1	4.68e-03	0	55	0	26038239232	40	14386
2026-01-22 13:26:00.44	331.70	10.84	-34.6	-34.5	15.0	4.68e-03	0	56	0	26155679744	40	14587
2026-01-22 13:26:01.45	331.44	10.81	-34.5	-34.4	15.1	5.45e-03	0	56	0	26264731648	40	14367
2026-01-22 13:26:02.46	331.19	10.77	-34.5	-34.4	15.1	5.45e-03	0	55	0	26373783552	40	14429
2026-01-22 13:26:03.47	330.93	10.74	-34.7	-34.6	15.0	5.45e-03	0	55	0	26491224064	40	14665
2026-01-22 13:26:04.48	330.68	10.71	-34.5	-34.5	15.1	5.45e-03	0	56	0	26600275968	40	14444
2026-01-22 13:26:05.49	330.43	10.67	-34.5	-34.4	15.1	5.53e-03	0	55	0	26717716480	40	14336
2026-01-22 13:26:06.50	330.18	10.64	-34.4	-34.4	15.1	5.53e-03	0	56	0	26826768384	40	14288
2026-01-22 13:26:07.51	329.92	10.60	-34.5	-34.4	15.1	5.53e-03	0	55	0	26944208896	40	14334
2026-01-22 13:26:08.52	329.67	10.57	-34.7	-34.6	15.0	5.41e-03	0	56	0	27053260800	40	14703
2026-01-22 13:26:09.52	329.43	10.53	-34.5	-34.4	15.1	5.41e-03	0	56	0	27162312704	40	14376
2026-01-22 13:26:10.53	329.18	10.50	-34.7	-34.6	15.0	5.41e-03	0	55	0	27288141824	40	14700
2026-01-22 13:26:11.54	328.93	10.46	-34.9	-34.8	14.9	6.13e-03	0	56	0	27397193728	40	14995
2026-01-22 13:26:12.55	328.68	10.43	-34.9	-34.8	14.9	6.13e-03	0	56	0	27514634240	40	14997
2026-01-22 13:26:13.56	328.43	10.39	-34.8	-34.7	15.0	6.13e-03	0	55	0	27623686144	40	14833
2026-01-22 13:26:14.56	328.19	10.35	-34.9	-34.8	14.9	6.13e-03	0	55	0	27741126656	40	15090
2026-01-22 13:26:15.57	327.95	10.32	-34.7	-34.6	15.0	5.89e-03	0	56	0	27850178560	40	14769
2026-01-22 13:26:16.58	327.70	10.28	-34.5	-34.4	15.1	5.89e-03	0	55	0	27967619072	40	14406
2026-01-22 13:26:17.59	327.46	10.24	-34.6	-34.5	15.1	5.89e-03	0	56	0	28076670976	40	14548
2026-01-22 13:26:18.60	327.21	10.20	-34.7	-34.6	15.0	5.19e-03	0	56	0	28185722880	40	14770
2026-01-22 13:26:19.60	326.97	10.16	-34.6	-34.5	15.1	5.19e-03	0	55	0	28303163392	40	14567
2026-01-22 13:26:20.61	326.73	10.12	-34.8	-34.7	15.0	5.34e-03	0	56	0	28412215296	40	14900
2026-01-22 13:26:21.62	326.49	10.08	-34.8	-34.7	15.0	5.34e-03	0	56	0	28529655808	40	14929
2026-01-22 13:26:22.63	326.25	10.04	-35.0	-34.9	14.9	6.01e-03	0	56	0	28638707712	40	15171
2026-01-22 13:26:23.64	326.01	10.00	-35.0	-34.9	14.8	6.01e-03	0	56	0	28764536832	40	15255
2026-01-22 13:26:24.64	325.78	9.96	-34.9	-34.8	14.9	6.01e-03	0	55	0	28873588736	40	15012
2026-01-22 13:26:25.65	325.54	9.92	-34.9	-34.8	14.9	6.50e-03	0	56	0	28991029248	40	15011
2026-01-22 13:26:26.66	325.30	9.88	-34.8	-34.7	15.0	6.50e-03	0	56	0	29100081152	40	14871
2026-01-22 13:26:27.67	325.07	9.84	-34.7	-34.6	15.0	6.50e-03	0	55	0	29209133056	40	14751
2026-01-22 13:26:28.68	324.83	9.80	-34.9	-34.8	15.0	6.63e-03	0	56	0	29326573568	40	14980
2026-01-22 13:26:29.68	324.60	9.76	-34.7	-34.6	15.0	6.63e-03	0	56	0	29435625472	40	14764
2026-01-22 13:26:30.69	324.37	9.71	-34.5	-34.5	15.1	5.76e-03	0	56	0	29553065984	40	14448
2026-01-22 13:26:31.70	324.13	9.67	-34.5	-34.4	15.1	5.76e-03	0	56	0	29662117888	40	14436
2026-01-22 13:26:32.71	323.90	9.63	-34.6	-34.5	15.1	5.76e-03	0	56	0	29771169792	40	14566
2026-01-22 13:26:33.72	323.67	9.58	-34.8	-34.7	15.1	4.57e-03	0	56	0	29888610304	40	14796
2026-01-22 13:26:34.72	323.44	9.54	-34.7	-34.6	15.1	4.57e-03	0	56	0	29997662208	40	14740
2026-01-22 13:26:35.73	323.21	9.50	-34.7	-34.6	15.1	4.57e-03	0	56	0	30123491328	40	14728
2026-01-22 13:26:36.74	322.99	9.45	-34.9	-34.8	15.0	4.88e-03	0	56	0	30232543232	40	15037
2026-01-22 13:26:37.75	322.76	9.41	-34.7	-34.6	15.1	4.88e-03	0	56	0	30349983744	40	14751
2026-01-22 13:26:38.76	322.53	9.37	-34.6	-34.5	15.2	4.88e-03	0	56	0	30459035648	40	14481
2026-01-22 13:26:39.76	322.31	9.32	-34.6	-34.6	15.1	4.88e-03	0	56	0	30576476160	40	14629
2026-01-22 13:26:40.77	322.08	9.28	-34.7	-34.6	15.1	4.62e-03	0	56	0	30685528064	40	14739
2026-01-22 13:26:41.78	321.86	9.23	-34.8	-34.7	15.0	4.62e-03	0	56	0	30802968576	40	14914
2026-01-22 13:26:42.79	321.64	9.18	-34.8	-34.7	15.0	4.62e-03	0	55	0	30912020480	40	14840
2026-01-22 13:26:43.80	321.41	9.14	-34.7	-34.7	15.1	5.06e-03	0	56	0	31021072384	40	14781
2026-01-22 13:26:44.80	321.19	9.09	-34.8	-34.7	15.1	5.06e-03	0	56	0	31138512896	40	14815
2026-01-22 13:26:45.81	320.97	9.05	-34.9	-34.8	15.0	4.56e-03	0	56	0	31247564800	40	15045
2026-01-22 13:26:46.82	320.75	9.00	-34.8	-34.7	15.1	4.56e-03	0	56	0	31365005312	40	14852
2026-01-22 13:26:47.83	320.54	8.95	-34.8	-34.7	15.1	4.56e-03	0	56	0	31474057216	40	14829
2026-01-22 13:26:48.84	320.32	8.91	-34.8	-34.7	15.1	4.87e-03	0	55	0	31599886336	40	14872
2026-01-22 13:26:49.85	320.10	8.86	-34.9	-34.9	15.0	4.87e-03	0	56	0	31708938240	40	15144
2026-01-22 13:26:50.86	319.88	8.81	-35.1	-35.0	14.9	4.87e-03	0	56	0	31826378752	40	15463
2026-01-22 13:26:51.87	319.67	8.77	-35.0	-34.9	15.0	4.87e-03	0	56	0	31935430656	40	15195
2026-01-22 13:26:52.88	319.45	8.72	-35.0	-34.9	15.0	5.54e-03	0	56	0	32044482560	40	15245
2026-01-22 13:26:53.89	319.24	8.67	-35.2	-35.1	14.9	5.54e-03	0	56	0	32161923072	40	15621
2026-01-22 13:26:54.90	319.03	8.62	-35.1	-35.1	14.9	5.54e-03	0	56	0	32270974976	40	15478
2026-01-22 13:26:55.90	318.82	8.57	-35.0	-35.0	14.9	5.97e-03	0	56	0	32388415488	40	15297
2026-01-22 13:26:56.91	318.61	8.52	-34.9	-34.8	15.0	5.97e-03	0	56	0	32497467392	40	15076
2026-01-22 13:26:57.92	318.40	8.48	-35.1	-35.0	14.9	5.97e-03	0	56	0	32606519296	40	15411
2026-01-22 13:26:58.93	318.19	8.43	-35.2	-35.1	14.9	5.65e-03	0	56	0	32723959808	40	15562
2026-01-22 13:26:59.94	317.98	8.38	-35.4	-35.3	14.8	5.65e-03	0	56	0	32849788928	41	15064
2026-01-22 13:27:00.95	317.77	8.33	-35.3	-35.2	14.8	5.65e-03	0	56	0	32958840832	41	14924
2026-01-22 13:27:01.96	317.57	8.28	-35.3	-35.2	14.8	6.91e-03	0	56	0	33067892736	41	14908
2026-01-22 13:27:02.97	317.36	8.23	-35.5	-35.4	14.7	6.91e-03	0	56	0	33185333248	41	15252
2026-01-22 13:27:03.98	317.16	8.18	-35.5	-35.4	14.7	6.91e-03	0	56	0	33294385152	41	15212
2026-01-22 13:27:04.99	316.95	8.13	-35.5	-35.4	14.7	8.21e-03	0	56	0	33411825664	41	15292
2026-01-22 13:27:05.99	316.75	8.08	-35.2	-35.2	14.9	8.21e-03	0	56	0	33520877568	41	14792
2026-01-22 13:27:07.00	316.55	8.03	-35.3	-35.2	14.9	8.21e-03	0	56	0	33629929472	41	14832
2026-01-22 13:27:08.01	316.35	7.98	-35.4	-35.3	14.8	8.21e-03	0	56	0	33747369984	41	15017
2026-01-22 13:27:09.02	316.15	7.93	-35.4	-35.3	14.8	7.28e-03	0	56	0	33856421888	41	15085
2026-01-22 13:27:10.03	315.95	7.88	-35.4	-35.4	14.8	7.28e-03	0	56	0	33973862400	41	15133
2026-01-22 13:27:11.04	315.75	7.83	-35.4	-35.4	14.8	7.28e-03	0	56	0	34091302912	41	15182
2026-01-22 13:27:12.04	315.55	7.78	-35.4	-35.4	14.8	7.08e-03	0	56	0	34208743424	41	15133
2026-01-22 13:27:13.05	315.35	7.73	-35.5	-35.4	14.8	7.08e-03	0	56	0	34317795328	41	15231
2026-01-22 13:27:14.06	315.16	7.67	-35.6	-35.6	14.7	7.08e-03	0	56	0	34435235840	41	15494
2026-01-22 13:27:15.07	314.96	7.62	-35.9	-35.8	14.5	8.44e-03	0	56	0	34544287744	42	15007
2026-01-22 13:27:16.08	314.77	7.57	-35.9	-35.8	14.5	8.44e-03	0	56	0	34653339648	42	15023
2026-01-22 13:27:17.08	314.58	7.52	-35.9	-35.9	14.5	8.44e-03	0	56	0	34770780160	42	15160
2026-01-22 13:27:18.09	314.38	7.47	-35.7	-35.7	14.6	1.13e-02	0	56	0	34879832064	42	14805
2026-01-22 13:27:19.10	314.19	7.42	-35.7	-35.7	14.6	1.13e-02	0	56	0	34997272576	42	14781
2026-01-22 13:27:20.11	314.00	7.36	-35.8	-35.8	14.6	1.13e-02	0	56	0	35106324480	42	14985
2026-01-22 13:27:21.12	313.81	7.31	-35.8	-35.8	14.5	9.70e-03	0	56	0	35223764992	42	14999
2026-01-22 13:27:22.12	313.62	7.26	-35.8	-35.7	14.6	9.70e-03	0	56	0	35332816896	42	14860
2026-01-22 13:27:23.13	313.44	7.21	-36.0	-35.9	14.5	9.70e-03	0	56	0	35441868800	42	15189
2026-01-22 13:27:24.14	313.25	7.16	-35.9	-35.8	14.5	1.10e-02	0	56	0	35567697920	42	15090
2026-01-22 13:27:25.15	313.06	7.10	-36.0	-35.9	14.5	1.10e-02	0	56	0	35685138432	42	15189
2026-01-22 13:27:26.16	312.88	7.05	-36.0	-35.9	14.5	1.10e-02	0	56	0	35794190336	42	15265
2026-01-22 13:27:27.16	312.69	7.00	-35.9	-35.9	14.5	1.15e-02	0	56	0	35903242240	42	15153
2026-01-22 13:27:28.17	312.51	6.95	-36.1	-36.0	14.4	1.15e-02	0	56	0	36020682752	42	15457
2026-01-22 13:27:29.18	312.33	6.89	-36.2	-36.1	14.4	1.15e-02	0	56	0	36129734656	42	15569
2026-01-22 13:27:30.19	312.14	6.84	-36.1	-36.0	14.4	1.31e-02	0	56	0	36247175168	42	15391
2026-01-22 13:27:31.20	311.96	6.79	-36.0	-35.9	14.5	1.31e-02	0	56	0	36356227072	42	15243
2026-01-22 13:27:32.21	311.78	6.73	-36.2	-36.1	14.4	1.31e-02	0	56	0	36465278976	43	14736
2026-01-22 13:27:33.21	311.60	6.68	-36.2	-36.1	14.4	1.34e-02	0	56	0	36582719488	43	14728
2026-01-22 13:27:34.22	311.42	6.63	-36.2	-36.1	14.4	1.34e-02	0	56	0	36691771392	43	14675
2026-01-22 13:27:35.23	311.24	6.57	-36.1	-36.0	14.5	1.34e-02	0	56	0	36817600512	43	14488
2026-01-22 13:27:36.24	311.07	6.52	-36.3	-36.2	14.3	1.32e-02	0	56	0	36926652416	43	14909
2026-01-22 13:27:37.25	310.89	6.47	-36.1	-36.1	14.4	1.32e-02	0	56	0	37044092928	43	14649
2026-01-22 13:27:38.26	310.71	6.41	-36.2	-36.1	14.4	1.41e-02	0	56	0	37153144832	43	14744
2026-01-22 13:27:39.26	310.54	6.36	-36.3	-36.2	14.3	1.41e-02	0	56	0	37270585344	43	14895
2026-01-22 13:27:40.27	310.37	6.31	-36.3	-36.2	14.3	1.41e-02	0	56	0	37379637248	43	14914
2026-01-22 13:27:41.28	310.19	6.25	-36.4	-36.3	14.2	1.52e-02	0	56	0	37488689152	43	15113
2026-01-22 13:27:42.29	310.02	6.20	-36.5	-36.5	14.1	1.52e-02	0	56	0	37606129664	43	15335
2026-01-22 13:27:43.30	309.85	6.15	-36.2	-36.1	14.3	1.52e-02	0	56	0	37715181568	43	14737
2026-01-22 13:27:44.30	309.68	6.09	-36.2	-36.1	14.3	1.69e-02	0	56	0	37832622080	43	14741
2026-01-22 13:27:45.31	309.51	6.04	-36.2	-36.1	14.4	1.69e-02	0	56	0	37941673984	43	14689
2026-01-22 13:27:46.32	309.34	5.98	-36.5	-36.4	14.2	1.52e-02	0	56	0	38050725888	43	15198
2026-01-22 13:27:47.33	309.17	5.93	-36.2	-36.2	14.3	1.52e-02	0	56	0	38176555008	43	14826
2026-01-22 13:27:48.34	309.00	5.88	-36.3	-36.3	14.3	1.52e-02	0	56	0	38293995520	43	14949
2026-01-22 13:27:49.35	308.84	5.82	-36.6	-36.5	14.1	1.52e-02	0	56	0	38403047424	44	14519
2026-01-22 13:27:50.36	308.67	5.77	-36.3	-36.2	14.3	1.74e-02	0	56	0	38512099328	44	14041
2026-01-22 13:27:51.37	308.50	5.71	-36.1	-36.0	14.4	1.74e-02	0	56	0	38629539840	44	13699
2026-01-22 13:27:52.38	308.34	5.66	-36.2	-36.2	14.3	1.74e-02	0	56	0	38738591744	44	13985
2026-01-22 13:27:53.38	308.18	5.61	-36.4	-36.3	14.2	1.74e-02	0	56	0	38856032256	44	14240
2026-01-22 13:27:54.39	308.01	5.55	-36.1	-36.0	14.4	1.59e-02	0	56	0	38965084160	44	13681
2026-01-22 13:27:55.40	307.85	5.50	-36.3	-36.2	14.3	1.59e-02	0	56	0	39082524672	43	14867
2026-01-22 13:27:56.41	307.69	5.44	-36.7	-36.6	14.0	1.59e-02	0	56	0	39191576576	43	15639
2026-01-22 13:27:57.42	307.53	5.39	-35.8	-35.7	14.6	1.64e-02	0	56	0	39300628480	43	14041
2026-01-22 13:27:58.42	307.37	5.33	-36.5	-36.4	14.2	1.64e-02	0	56	0	39418068992	43	15233
2026-01-22 13:27:59.43	307.21	5.28	-37.0	-37.0	13.7	1.64e-02	0	56	0	39527120896	44	15358
2026-01-22 13:28:00.44	307.05	5.23	-36.5	-36.4	14.1	1.64e-02	0	56	0	39652950016	44	14378
2026-01-22 13:28:01.44	306.90	5.17	-36.5	-36.4	14.1	2.02e-02	0	56	0	39762001920	44	14362
2026-01-22 13:28:02.46	306.74	5.12	-36.6	-36.6	14.0	2.02e-02	0	56	0	39879442432	44	14635
2026-01-22 13:28:03.46	306.58	5.06	-36.7	-36.6	14.0	2.02e-02	0	56	0	39988494336	44	14709
2026-01-22 13:28:04.47	306.43	5.01	-37.5	-37.4	13.5	2.53e-02	0	56	0	40105934848	45	15267
2026-01-22 13:28:05.48	306.27	4.95	-53.0	-55.3	6.2	2.53e-02	0	55	104	40139489280	76	19953
2026-01-22 13:28:06.49	306.12	4.90	-53.1	-55.2	6.2	2.53e-02	0	55	104	40139489280	76	19927
2026-01-22 13:28:07.50	305.97	4.84	-53.1	-55.2	6.2	2.53e-02	0	55	104	40139489280	76	19907
2026-01-22 13:28:08.50	305.82	4.79	-53.2	-55.3	6.2	2.53e-02	0	55	104	40139489280	76	20063
2026-01-22 13:28:09.51	305.66	4.73	-53.3	-55.5	6.2	2.53e-02	0	55	104	40139489280	77	19291
2026-01-22 13:28:10.52	305.51	4.68	-53.4	-55.5	6.2	1.86e-02	0	55	104	40139489280	77	19335
2026-01-22 13:28:11.53	305.36	4.63	-53.4	-55.5	6.2	1.86e-02	0	55	104	40139489280	77	19378
2026-01-22 13:28:12.54	305.21	4.57	-53.5	-55.6	6.2	1.86e-02	0	55	104	40139489280	77	19683
2026-01-22 13:28:13.55	305.06	4.52	-53.6	-55.6	6.2	1.86e-02	0	55	104	40139489280	77	19693
2026-01-22 13:28:14.56	304.91	4.46	-53.6	-55.7	6.2	1.86e-02	0	55	104	40139489280	77	19837
2026-01-22 13:28:15.56	304.77	4.41	-53.1	-54.9	6.2	1.86e-02	0	54	104	40139489280	77	18149
2026-01-22 13:28:16.57	304.62	4.35	-52.7	-54.4	6.2	1.86e-02	0	54	104	40139489280	76	18096
2026-01-22 13:28:17.58	304.48	4.30	-53.6	-55.5	6.2	1.86e-02	0	54	104	40139489280	77	19461
2026-01-22 13:28:18.59	304.33	4.24	-53.9	-56.0	6.2	1.86e-02	0	54	104	40139489280	78	19396
2026-01-22 13:28:19.60	304.19	4.19	-53.9	-56.0	6.2	1.86e-02	0	54	104	40139489280	78	19398
2026-01-22 13:28:20.61	304.04	4.13	-53.9	-56.0	6.2	1.86e-02	0	54	104	40139489280	78	19427
2026-01-22 13:28:21.62	303.90	4.08	-53.9	-56.0	6.2	1.86e-02	0	54	104	40139489280	78	19461
2026-01-22 13:28:22.62	303.76	4.03	-53.9	-56.1	6.2	0.00e+00	0	54	104	40139489280	78	19525
2026-01-22 13:28:23.63	303.62	3.97	-53.9	-56.0	6.2	0.00e+00	0	54	104	40139489280	78	19431
2026-01-22 13:28:24.64	303.47	3.92	-53.9	-56.1	6.2	0.00e+00	0	54	104	40139489280	78	19481
2026-01-22 13:28:25.65	303.33	3.86	-53.9	-56.0	6.2	0.00e+00	0	54	104	40139489280	78	19454
2026-01-22 13:28:26.66	303.19	3.81	-53.9	-56.0	6.2	0.00e+00	0	54	104	40139489280	78	19388
2026-01-22 13:28:27.67	303.05	3.75	-53.9	-56.1	6.2	0.00e+00	0	54	104	40139489280	78	19480
2026-01-22 13:28:28.68	302.92	3.70	-53.9	-56.0	6.2	0.00e+00	0	54	104	40139489280	78	19389
2026-01-22 13:28:29.69	302.78	3.64	-53.9	-56.0	6.2	0.00e+00	0	54	104	40139489280	78	19444
2026-01-22 13:28:30.70	302.64	3.59	-53.9	-56.0	6.2	0.00e+00	0	54	104	40139489280	78	19467
2026-01-22 13:28:31.70	302.50	3.53	-53.9	-56.0	6.2	0.00e+00	0	54	104	40139489280	78	19396
2026-01-22 13:28:32.71	302.37	3.48	-53.9	-56.0	6.2	0.00e+00	0	54	104	40139489280	78	19380
2026-01-22 13:28:33.72	302.23	3.43	-53.9	-56.0	6.2	0.00e+00	0	54	104	40139489280	78	19376
2026-01-22 13:28:34.73	302.10	3.37	-53.9	-56.0	6.2	0.00e+00	0	54	104	40139489280	78	19382
2026-01-22 13:28:35.74	301.97	3.32	-53.9	-56.0	6.2	0.00e+00	0	54	104	40139489280	78	19415
2026-01-22 13:28:36.75	301.83	3.26	-53.9	-56.0	6.2	0.00e+00	0	54	104	40139489280	78	19391
2026-01-22 13:28:37.76	301.70	3.21	-53.9	-56.0	6.2	0.00e+00	0	54	104	40139489280	78	19374
2026-01-22 13:28:38.77	301.57	3.15	-53.9	-56.0	6.2	0.00e+00	0	54	104	40139489280	78	19317
2026-01-22 13:28:39.78	301.44	3.10	-53.9	-56.0	6.2	0.00e+00	0	54	104	40139489280	78	19356
2026-01-22 13:28:40.78	301.31	3.04	-53.9	-56.0	6.2	0.00e+00	0	54	104	40139489280	78	19351
2026-01-22 13:28:41.79	301.18	2.99	-53.9	-56.0	6.2	0.00e+00	0	54	104	40139489280	78	19379
2026-01-22 13:28:42.80	301.05	2.94	-53.9	-56.0	6.2	0.00e+00	0	54	104	40139489280	78	19293
2026-01-22 13:28:43.81	300.92	2.88	-53.9	-56.0	6.2	0.00e+00	0	54	104	40139489280	78	19282
2026-01-22 13:28:44.82	300.79	2.83	-53.9	-56.0	6.2	0.00e+00	0	54	104	40139489280	78	19342
2026-01-22 13:28:45.83	300.66	2.77	-53.9	-56.0	6.2	0.00e+00	0	54	104	40139489280	78	19274
2026-01-22 13:28:46.84	300.53	2.72	-53.9	-56.0	6.2	0.00e+00	0	54	104	40139489280	78	19343
2026-01-22 13:28:47.85	300.41	2.66	-53.9	-56.0	6.2	0.00e+00	0	54	104	40139489280	78	19332
2026-01-22 13:28:48.86	300.28	2.61	-53.9	-56.0	6.2	0.00e+00	0	53	104	40139489280	78	19358
2026-01-22 13:28:49.86	300.16	2.56	-53.9	-56.0	6.2	0.00e+00	0	53	104	40139489280	78	19280
2026-01-22 13:28:50.87	300.03	2.50	-53.9	-56.0	6.2	0.00e+00	0	53	104	40139489280	78	19315
2026-01-22 13:28:51.88	299.91	2.45	-53.9	-56.0	6.2	0.00e+00	0	54	104	40139489280	78	19308
2026-01-22 13:28:52.89	299.78	2.39	-53.9	-56.0	6.2	0.00e+00	0	54	104	40139489280	78	19304
2026-01-22 13:28:53.90	299.66	2.34	-53.8	-55.9	6.2	0.00e+00	0	54	104	40139489280	78	19249
2026-01-22 13:28:54.91	299.54	2.29	-53.8	-56.0	6.2	0.00e+00	0	54	104	40139489280	78	19263
2026-01-22 13:28:55.92	299.42	2.23	-53.9	-56.0	6.2	0.00e+00	0	53	104	40139489280	78	19281
2026-01-22 13:28:56.92	299.30	2.18	-53.8	-56.0	6.2	0.00e+00	0	53	104	40139489280	78	19311
2026-01-22 13:28:57.93	299.18	2.13	-53.9	-56.0	6.2	0.00e+00	0	54	104	40139489280	78	19280
2026-01-22 13:28:58.94	299.06	2.07	-53.8	-56.0	6.2	0.00e+00	0	53	104	40139489280	78	19293
2026-01-22 13:28:59.95	298.94	2.02	-53.8	-56.0	6.2	0.00e+00	0	53	104	40139489280	78	19271
2026-01-22 13:29:00.96	298.82	1.96	-53.8	-56.0	6.2	0.00e+00	0	54	104	40139489280	78	19320
2026-01-22 13:29:01.97	298.70	1.91	-53.8	-56.0	6.2	0.00e+00	0	53	104	40139489280	78	19290

#Closed at: 2026-01-22 13:29:02
#Recorded file [40139 MB]: D:/lorett/data/31041_260122_162054.dat