passes_logs/2026/01/22/R3.2S_Murmansk/R3.2S_Murmansk__20260122_024105_NOAA_20_JPSS-1_rec.log

#Pass ID: 20260122_024105_NOAA 20 (JPSS-1)
#Satellite: NOAA 20 (JPSS-1)
#Configuration: NOAA 20
#almurnet v.1.7.20251203
#Start time: 2026-01-22 02:41:04

#Version: 2.2.20231116
#Station: R3.2S_Murmansk
#Location: 33.079688 lon 68.888172 lat
#TLE: 1 43013U 17073A   26021.46221703  .00000173  00000+0  10299-3 0  9999
#TLE: 2 43013  98.7644 322.3335 0001238  29.7597 330.3649 14.19538314423652

#Time	Az	El	Level	Level2	SNR	BER	BlckErr	Temp	State	Recorded	gain1	gain2
2026-01-22 02:41:04.72	35.23	1.98	-49.9	-64.9	3.8	1.49e+00	0	39	0	0	70	21319
2026-01-22 02:41:05.71	35.19	2.04	-49.9	-64.9	3.8	1.49e+00	0	39	104	0	70	21416
2026-01-22 02:41:06.72	35.14	2.11	-49.9	-64.9	3.8	1.49e+00	0	39	104	0	70	21357
2026-01-22 02:41:07.73	35.10	2.17	-49.9	-64.9	3.8	1.49e+00	0	39	104	0	70	21313
2026-01-22 02:41:08.74	35.06	2.23	-49.9	-64.9	3.8	1.49e+00	0	39	104	0	70	21338
2026-01-22 02:41:09.75	35.02	2.29	-49.9	-64.9	3.8	1.49e+00	0	39	104	0	70	21349
2026-01-22 02:41:10.75	34.98	2.35	-49.9	-64.8	3.8	1.49e+00	0	39	104	0	70	21258
2026-01-22 02:41:11.76	34.93	2.42	-49.9	-64.9	3.8	1.49e+00	0	39	104	0	70	21337
2026-01-22 02:41:12.77	34.89	2.48	-49.9	-64.9	3.8	1.49e+00	0	39	104	0	70	21321
2026-01-22 02:41:13.78	34.85	2.54	-49.9	-64.9	3.8	1.49e+00	0	39	104	0	70	21309
2026-01-22 02:41:14.79	34.80	2.60	-49.9	-64.9	3.8	1.49e+00	0	39	104	0	70	21272
2026-01-22 02:41:15.80	34.76	2.67	-49.9	-64.9	3.8	1.49e+00	0	39	104	0	70	21322
2026-01-22 02:41:16.81	34.71	2.73	-49.9	-64.9	3.8	1.49e+00	0	39	104	0	70	21278
2026-01-22 02:41:17.81	34.67	2.79	-49.9	-64.9	3.8	1.49e+00	0	39	104	0	70	21348
2026-01-22 02:41:18.82	34.63	2.85	-49.9	-64.9	3.8	1.49e+00	0	39	104	0	70	21366
2026-01-22 02:41:19.83	34.58	2.92	-49.9	-64.9	3.8	1.49e+00	0	39	104	0	70	21351
2026-01-22 02:41:20.84	34.54	2.98	-49.9	-64.9	3.8	1.49e+00	0	39	104	0	70	21352
2026-01-22 02:41:21.85	34.49	3.04	-49.9	-64.9	3.8	1.49e+00	0	39	104	0	70	21306
2026-01-22 02:41:22.85	34.45	3.11	-49.9	-64.9	3.8	1.49e+00	0	39	104	0	70	21290
2026-01-22 02:41:23.86	34.40	3.17	-49.9	-64.9	3.8	1.49e+00	0	39	104	0	70	21324
2026-01-22 02:41:24.87	34.36	3.23	-49.9	-64.9	3.8	1.49e+00	0	39	104	0	70	21340
2026-01-22 02:41:25.88	34.31	3.30	-49.9	-64.9	3.8	1.49e+00	0	39	104	0	70	21303
2026-01-22 02:41:26.89	34.27	3.36	-49.9	-64.9	3.8	1.49e+00	0	39	104	0	70	21335
2026-01-22 02:41:27.89	34.22	3.43	-49.9	-64.9	3.8	1.49e+00	0	39	104	0	70	21309
2026-01-22 02:41:28.90	34.17	3.49	-49.9	-64.9	3.8	1.49e+00	0	39	104	0	70	21354
2026-01-22 02:41:29.91	34.13	3.55	-49.9	-64.9	3.8	1.49e+00	0	40	104	0	70	21315
2026-01-22 02:41:30.92	34.08	3.62	-49.9	-64.9	3.8	1.49e+00	0	39	104	0	70	21328
2026-01-22 02:41:31.93	34.03	3.68	-49.9	-64.9	3.8	1.49e+00	0	40	104	0	70	21320
2026-01-22 02:41:32.94	33.98	3.75	-49.9	-64.9	3.8	1.49e+00	0	39	104	0	70	21296
2026-01-22 02:41:33.95	33.94	3.81	-49.9	-64.9	3.8	1.49e+00	0	40	104	0	70	21291
2026-01-22 02:41:34.96	33.89	3.88	-49.9	-64.9	3.8	1.49e+00	0	40	104	0	70	21283
2026-01-22 02:41:35.97	33.84	3.94	-49.9	-64.9	3.8	1.49e+00	0	40	104	0	70	21315
2026-01-22 02:41:36.97	33.79	4.01	-49.9	-64.9	3.8	1.49e+00	0	39	104	0	70	21342
2026-01-22 02:41:37.98	33.75	4.07	-49.9	-64.9	3.8	1.49e+00	0	40	104	0	70	21339
2026-01-22 02:41:38.99	33.70	4.14	-49.9	-64.9	3.8	1.49e+00	0	40	104	0	70	21319
2026-01-22 02:41:40.00	33.65	4.21	-49.9	-64.9	3.8	1.49e+00	0	39	104	0	70	21322
2026-01-22 02:41:41.01	33.60	4.27	-49.9	-64.9	3.8	1.49e+00	0	40	104	0	70	21354
2026-01-22 02:41:42.02	33.55	4.34	-49.9	-64.9	3.8	1.49e+00	0	40	104	0	70	21328
2026-01-22 02:41:43.02	33.50	4.40	-49.9	-64.9	3.8	1.49e+00	0	40	104	0	70	21323
2026-01-22 02:41:44.03	33.45	4.47	-49.9	-64.9	3.8	1.49e+00	0	40	104	0	70	21297
2026-01-22 02:41:45.04	33.40	4.54	-49.9	-64.9	3.8	1.49e+00	0	40	104	0	70	21300
2026-01-22 02:41:46.05	33.35	4.60	-49.9	-64.9	3.8	1.49e+00	0	40	104	0	70	21367
2026-01-22 02:41:47.06	33.30	4.67	-49.9	-64.9	3.8	1.49e+00	0	40	104	0	70	21309
2026-01-22 02:41:48.07	33.25	4.74	-49.9	-64.9	3.8	1.49e+00	0	40	104	0	70	21356
2026-01-22 02:41:49.07	33.20	4.80	-49.9	-64.9	3.8	1.49e+00	0	40	104	0	70	21324
2026-01-22 02:41:50.08	33.15	4.87	-49.9	-64.9	3.8	1.49e+00	0	40	104	0	70	21328
2026-01-22 02:41:51.09	33.09	4.94	-49.9	-64.9	3.8	1.49e+00	0	40	104	0	70	21328
2026-01-22 02:41:52.10	33.04	5.00	-49.9	-64.9	3.8	1.49e+00	0	40	104	0	70	21309
2026-01-22 02:41:53.11	32.99	5.07	-49.9	-64.9	3.8	1.49e+00	0	40	104	0	70	21336
2026-01-22 02:41:54.11	32.94	5.14	-49.9	-64.9	3.8	1.49e+00	0	40	104	0	70	21341
2026-01-22 02:41:55.12	32.88	5.21	-49.9	-64.9	3.8	1.49e+00	0	40	104	0	70	21297
2026-01-22 02:41:56.13	32.83	5.28	-49.9	-64.9	3.8	1.49e+00	0	40	104	0	70	21331
2026-01-22 02:41:57.14	32.78	5.34	-49.9	-64.9	3.8	1.49e+00	0	40	104	0	70	21271
2026-01-22 02:41:58.15	32.73	5.41	-49.9	-64.9	3.8	1.49e+00	0	40	104	0	70	21293
2026-01-22 02:41:59.15	32.67	5.48	-49.9	-64.9	3.8	1.49e+00	0	40	104	0	70	21315
2026-01-22 02:42:00.16	32.62	5.55	-49.9	-64.9	3.8	1.49e+00	0	40	104	0	70	21331
2026-01-22 02:42:01.17	32.56	5.62	-49.9	-64.9	3.8	1.49e+00	0	40	104	0	70	21331
2026-01-22 02:42:02.17	32.51	5.69	-49.9	-64.9	3.8	1.49e+00	0	40	104	0	70	21301
2026-01-22 02:42:03.18	32.45	5.76	-49.9	-64.9	3.8	1.49e+00	0	40	104	0	70	21326
2026-01-22 02:42:04.19	32.40	5.82	-49.9	-64.9	3.8	1.49e+00	0	40	104	0	70	21311
2026-01-22 02:42:05.20	32.34	5.89	-49.9	-64.9	3.8	1.49e+00	0	40	104	0	70	21327
2026-01-22 02:42:06.22	32.29	5.96	-49.9	-64.9	3.8	1.49e+00	0	40	104	0	70	21309
2026-01-22 02:42:07.23	32.23	6.03	-49.9	-64.9	3.8	1.49e+00	0	40	104	0	70	21304
2026-01-22 02:42:08.25	32.17	6.10	-49.9	-64.9	3.8	1.49e+00	0	40	104	0	70	21338
2026-01-22 02:42:09.27	32.12	6.18	-49.9	-64.9	3.8	1.49e+00	0	40	104	0	70	21330
2026-01-22 02:42:10.30	32.06	6.25	-49.9	-64.9	3.8	1.49e+00	0	40	104	0	70	21278
2026-01-22 02:42:11.31	32.00	6.32	-49.9	-64.9	3.8	1.49e+00	0	40	104	0	70	21316
2026-01-22 02:42:12.34	31.94	6.39	-49.9	-64.9	3.8	1.49e+00	0	40	104	0	70	21281
2026-01-22 02:42:13.36	31.89	6.46	-49.9	-64.9	3.8	1.49e+00	0	40	104	0	70	21299
2026-01-22 02:42:14.38	31.83	6.53	-49.9	-64.9	3.8	1.49e+00	0	40	104	0	70	21271
2026-01-22 02:42:15.40	31.77	6.60	-49.9	-64.9	3.8	1.49e+00	0	40	104	0	70	21338
2026-01-22 02:42:16.42	31.71	6.68	-49.9	-64.9	3.8	1.49e+00	0	40	104	0	70	21368
2026-01-22 02:42:17.44	31.65	6.75	-49.9	-64.9	3.8	1.49e+00	0	40	104	0	70	21314
2026-01-22 02:42:18.46	31.59	6.82	-49.9	-64.9	3.8	1.49e+00	0	40	104	0	70	21337
2026-01-22 02:42:19.49	31.53	6.89	-49.9	-64.9	3.8	1.49e+00	0	40	104	0	70	21297
2026-01-22 02:42:20.51	31.47	6.97	-49.9	-64.9	3.8	1.49e+00	0	40	104	0	70	21322
2026-01-22 02:42:21.52	31.41	7.04	-49.9	-64.9	3.8	1.49e+00	0	40	104	0	70	21317
2026-01-22 02:42:22.52	31.35	7.11	-49.9	-64.9	3.8	1.49e+00	0	40	104	0	70	21313
2026-01-22 02:42:23.53	31.29	7.18	-49.9	-64.9	3.8	1.49e+00	0	40	104	0	70	21391
2026-01-22 02:42:24.54	31.23	7.26	-49.9	-64.9	3.8	1.49e+00	0	40	104	0	70	21290
2026-01-22 02:42:25.55	31.16	7.33	-49.9	-64.9	3.8	1.49e+00	0	40	104	0	70	21369
2026-01-22 02:42:26.56	31.10	7.40	-49.9	-64.9	3.8	1.49e+00	0	40	104	0	70	21292
2026-01-22 02:42:27.56	31.04	7.47	-49.9	-64.9	3.8	1.49e+00	0	40	104	0	70	21355
2026-01-22 02:42:28.57	30.98	7.55	-49.9	-64.9	3.8	1.49e+00	0	40	104	0	70	21366
2026-01-22 02:42:29.58	30.91	7.62	-49.9	-64.9	3.8	1.49e+00	0	40	104	0	70	21339
2026-01-22 02:42:30.59	30.85	7.69	-49.9	-64.9	3.8	1.49e+00	0	40	104	0	70	21307
2026-01-22 02:42:31.60	30.79	7.77	-49.9	-64.9	3.8	1.49e+00	0	40	104	0	70	21375
2026-01-22 02:42:32.61	30.72	7.84	-49.9	-64.9	3.8	1.49e+00	0	40	104	0	70	21349
2026-01-22 02:42:33.62	30.66	7.92	-49.9	-64.9	3.8	1.49e+00	0	40	104	0	70	21377
2026-01-22 02:42:34.62	30.60	7.99	-49.9	-64.9	3.8	1.49e+00	0	40	104	0	70	21376
2026-01-22 02:42:35.63	30.53	8.07	-49.9	-64.9	3.8	1.49e+00	0	40	104	0	70	21308
2026-01-22 02:42:36.64	30.47	8.14	-49.9	-64.9	3.8	1.49e+00	0	40	104	0	70	21311
2026-01-22 02:42:37.65	30.40	8.21	-49.9	-64.9	3.8	1.49e+00	0	40	104	0	70	21374
2026-01-22 02:42:38.66	30.33	8.29	-50.0	-64.9	3.8	1.49e+00	0	40	104	0	70	21379
2026-01-22 02:42:39.67	30.27	8.37	-49.9	-64.9	3.8	1.49e+00	0	40	104	0	70	21353
2026-01-22 02:42:40.68	30.20	8.44	-50.0	-64.9	3.8	1.49e+00	0	40	104	0	70	21391
2026-01-22 02:42:41.69	30.13	8.52	-49.9	-64.9	3.8	1.49e+00	0	40	104	0	70	21409
2026-01-22 02:42:42.70	30.07	8.59	-49.9	-64.9	3.8	1.49e+00	0	40	104	0	70	21389
2026-01-22 02:42:43.71	30.00	8.67	-49.9	-64.9	3.8	1.49e+00	0	40	104	0	70	21338
2026-01-22 02:42:44.71	29.93	8.74	-49.9	-64.9	3.8	1.49e+00	0	40	104	0	70	21313
2026-01-22 02:42:45.72	29.86	8.82	-49.9	-64.9	3.8	1.49e+00	0	40	104	0	70	21297
2026-01-22 02:42:46.73	29.79	8.90	-49.9	-64.9	3.8	1.49e+00	0	40	104	0	70	21305
2026-01-22 02:42:47.74	29.72	8.97	-49.9	-64.9	3.8	1.49e+00	0	40	104	0	70	21377
2026-01-22 02:42:48.75	29.65	9.05	-49.9	-64.9	3.8	1.49e+00	0	40	104	0	70	21315
2026-01-22 02:42:49.75	29.58	9.13	-49.9	-64.9	3.8	1.49e+00	0	40	104	0	70	21368
2026-01-22 02:42:50.76	29.51	9.21	-49.9	-64.9	3.8	1.49e+00	0	40	104	0	70	21404
2026-01-22 02:42:51.77	29.44	9.28	-49.9	-64.9	3.8	1.49e+00	0	40	104	0	70	21322
2026-01-22 02:42:52.78	29.37	9.36	-49.9	-64.9	3.8	1.49e+00	0	40	104	0	70	21408
2026-01-22 02:42:53.79	29.30	9.44	-50.0	-64.9	3.8	1.49e+00	0	40	104	0	70	21423
2026-01-22 02:42:54.80	29.23	9.52	-49.9	-64.9	3.8	1.49e+00	0	40	104	0	70	21366
2026-01-22 02:42:55.81	29.15	9.60	-49.9	-64.9	3.8	1.49e+00	0	40	104	0	70	21302
2026-01-22 02:42:56.81	29.08	9.67	-49.9	-64.9	3.8	1.49e+00	0	40	104	0	70	21432
2026-01-22 02:42:57.82	29.01	9.75	-49.9	-64.9	3.8	1.49e+00	0	40	104	0	70	21402
2026-01-22 02:42:58.83	28.94	9.83	-49.9	-64.9	3.8	1.49e+00	0	40	104	0	70	21355
2026-01-22 02:42:59.84	28.86	9.91	-49.9	-64.9	3.8	1.49e+00	0	40	104	0	70	21374
2026-01-22 02:43:00.85	28.79	9.99	-49.9	-64.9	3.8	1.49e+00	0	40	104	0	70	21384
2026-01-22 02:43:01.85	28.71	10.07	-49.9	-64.9	3.8	1.49e+00	0	40	104	0	70	21418
2026-01-22 02:43:02.86	28.64	10.15	-49.9	-64.9	3.8	1.49e+00	0	40	104	0	70	21370
2026-01-22 02:43:03.87	28.56	10.23	-49.9	-64.9	3.8	1.49e+00	0	40	104	0	70	21328
2026-01-22 02:43:04.88	28.48	10.31	-49.9	-64.9	3.8	1.49e+00	0	40	104	0	70	21342
2026-01-22 02:43:05.89	28.41	10.39	-49.9	-64.9	3.8	1.49e+00	0	40	104	0	70	21366
2026-01-22 02:43:06.90	28.33	10.47	-49.9	-64.9	3.8	1.49e+00	0	41	104	0	70	21375
2026-01-22 02:43:07.91	28.25	10.55	-49.9	-64.9	3.8	1.49e+00	0	40	104	0	70	21341
2026-01-22 02:43:08.92	28.17	10.63	-49.9	-64.9	3.8	1.49e+00	0	40	104	0	70	21391
2026-01-22 02:43:09.92	28.10	10.71	-49.9	-64.9	3.8	1.49e+00	0	40	104	0	70	21367
2026-01-22 02:43:10.93	28.02	10.79	-49.9	-64.9	3.8	1.49e+00	0	40	104	0	70	21332
2026-01-22 02:43:11.94	27.94	10.88	-49.9	-64.9	3.8	1.49e+00	0	40	104	0	70	21300
2026-01-22 02:43:12.95	27.86	10.96	-49.9	-64.9	3.8	1.49e+00	0	40	104	0	70	21335
2026-01-22 02:43:13.96	27.78	11.04	-49.9	-64.9	3.8	1.49e+00	0	40	104	0	70	21331
2026-01-22 02:43:14.97	27.70	11.12	-49.9	-64.9	3.8	1.49e+00	0	40	104	0	70	21376
2026-01-22 02:43:15.98	27.62	11.20	-49.9	-64.9	3.8	1.49e+00	0	40	104	0	70	21397
2026-01-22 02:43:16.99	27.53	11.29	-49.9	-64.9	3.8	1.49e+00	0	40	104	0	70	21299
2026-01-22 02:43:17.99	27.45	11.37	-49.9	-64.9	3.8	1.49e+00	0	40	104	0	70	21344
2026-01-22 02:43:19.01	27.37	11.45	-49.9	-64.9	3.8	1.49e+00	0	40	104	0	70	21271
2026-01-22 02:43:20.01	27.29	11.54	-49.9	-64.9	3.8	1.49e+00	0	41	104	0	70	21351
2026-01-22 02:43:21.02	27.20	11.62	-49.9	-64.9	3.8	1.49e+00	0	40	104	0	70	21339
2026-01-22 02:43:22.03	27.12	11.70	-49.9	-64.9	3.8	1.49e+00	0	40	104	0	70	21295
2026-01-22 02:43:23.04	27.03	11.79	-49.9	-64.9	3.8	1.49e+00	0	40	104	0	70	21357
2026-01-22 02:43:24.05	26.95	11.87	-49.9	-64.9	3.8	1.49e+00	0	40	104	0	70	21373
2026-01-22 02:43:25.05	26.86	11.96	-49.9	-64.9	3.8	1.49e+00	0	40	104	0	70	21345
2026-01-22 02:43:26.06	26.78	12.04	-49.9	-64.9	3.8	1.49e+00	0	40	104	0	70	21398
2026-01-22 02:43:27.07	26.69	12.13	-49.9	-64.9	3.8	1.49e+00	0	41	104	0	70	21350
2026-01-22 02:43:28.08	26.60	12.21	-49.9	-64.9	3.8	1.49e+00	0	40	104	0	70	21376
2026-01-22 02:43:29.09	26.51	12.30	-49.9	-64.9	3.8	1.49e+00	0	40	104	0	70	21359
2026-01-22 02:43:30.09	26.43	12.38	-49.9	-64.9	3.8	1.49e+00	0	40	104	0	70	21353
2026-01-22 02:43:31.10	26.34	12.47	-49.9	-64.9	3.8	1.49e+00	0	41	104	0	70	21395
2026-01-22 02:43:32.11	26.25	12.55	-49.9	-64.9	3.8	1.49e+00	0	41	104	0	70	21375
2026-01-22 02:43:33.12	26.16	12.64	-49.9	-64.9	3.8	1.49e+00	0	40	104	0	70	21402
2026-01-22 02:43:34.13	26.07	12.73	-49.9	-64.9	3.8	1.49e+00	0	41	104	0	70	21391
2026-01-22 02:43:35.13	25.98	12.81	-49.9	-64.9	3.8	1.49e+00	0	40	104	0	70	21370
2026-01-22 02:43:36.14	25.88	12.90	-49.9	-64.9	3.8	1.49e+00	0	40	104	0	70	21369
2026-01-22 02:43:37.15	25.79	12.99	-49.9	-64.9	3.8	1.49e+00	0	40	104	0	70	21371
2026-01-22 02:43:38.16	25.70	13.08	-49.9	-64.9	3.8	1.49e+00	0	40	104	0	70	21376
2026-01-22 02:43:39.17	25.61	13.16	-49.9	-64.9	3.8	1.49e+00	0	41	104	0	70	21366
2026-01-22 02:43:40.17	25.51	13.25	-49.9	-64.9	3.8	1.49e+00	0	40	104	0	70	21336
2026-01-22 02:43:41.18	25.42	13.34	-49.9	-64.9	3.8	1.49e+00	0	40	104	0	70	21312
2026-01-22 02:43:42.19	25.32	13.43	-49.9	-64.9	3.8	1.49e+00	0	40	104	0	70	21352
2026-01-22 02:43:43.20	25.23	13.52	-49.9	-64.9	3.8	1.49e+00	0	40	104	0	70	21372
2026-01-22 02:43:44.21	25.13	13.61	-49.9	-64.9	3.8	1.49e+00	0	41	104	0	70	21329
2026-01-22 02:43:45.21	25.03	13.69	-49.9	-64.9	3.8	1.49e+00	0	41	104	0	70	21365
2026-01-22 02:43:46.22	24.94	13.78	-49.9	-64.9	3.8	1.49e+00	0	41	104	0	70	21381
2026-01-22 02:43:47.23	24.84	13.87	-49.9	-64.9	3.8	1.49e+00	0	41	104	0	70	21334
2026-01-22 02:43:48.24	24.74	13.96	-49.9	-64.9	3.8	1.49e+00	0	40	104	0	70	21392
2026-01-22 02:43:49.25	24.64	14.05	-49.9	-64.9	3.8	1.49e+00	0	40	104	0	70	21280
2026-01-22 02:43:50.25	24.54	14.14	-49.9	-64.9	3.8	1.49e+00	0	40	104	0	70	21321
2026-01-22 02:43:51.26	24.44	14.23	-49.9	-64.9	3.8	1.49e+00	0	40	104	0	70	21380
2026-01-22 02:43:52.27	24.34	14.32	-49.9	-64.9	3.8	1.49e+00	0	41	104	0	70	21349
2026-01-22 02:43:53.28	24.24	14.42	-49.9	-64.9	3.8	1.49e+00	0	40	104	0	70	21329
2026-01-22 02:43:54.28	24.13	14.51	-49.9	-64.9	3.8	1.49e+00	0	40	104	0	70	21313
2026-01-22 02:43:55.29	24.03	14.60	-49.9	-64.9	3.8	1.49e+00	0	40	104	0	70	21312
2026-01-22 02:43:56.30	23.93	14.69	-49.9	-64.9	3.8	1.49e+00	0	40	104	0	70	21319
2026-01-22 02:43:57.31	23.82	14.78	-49.9	-64.9	3.8	1.49e+00	0	40	104	0	70	21394
2026-01-22 02:43:58.32	23.72	14.88	-49.9	-64.9	3.8	1.49e+00	0	40	104	0	70	21292
2026-01-22 02:43:59.33	23.61	14.97	-49.9	-64.9	3.8	1.49e+00	0	40	104	0	70	21354
2026-01-22 02:44:00.33	23.51	15.06	-49.9	-64.9	3.8	1.49e+00	0	41	104	0	70	21342
2026-01-22 02:44:01.34	23.40	15.15	-49.9	-64.9	3.8	1.49e+00	0	40	104	0	70	21352
2026-01-22 02:44:02.35	23.29	15.25	-49.9	-64.9	3.8	1.49e+00	0	40	104	0	70	21352
2026-01-22 02:44:03.36	23.18	15.34	-49.9	-64.9	3.8	1.49e+00	0	40	104	0	70	21358
2026-01-22 02:44:04.37	23.07	15.43	-49.9	-64.9	3.8	1.49e+00	0	40	104	0	70	21310
2026-01-22 02:44:05.38	22.96	15.53	-49.9	-64.9	3.8	1.49e+00	0	40	104	0	70	21326
2026-01-22 02:44:06.38	22.85	15.62	-49.9	-64.9	3.8	1.49e+00	0	40	104	0	70	21358
2026-01-22 02:44:07.39	22.74	15.72	-49.9	-64.9	3.8	1.49e+00	0	40	104	0	70	21311
2026-01-22 02:44:08.40	22.63	15.81	-49.9	-64.9	3.8	1.49e+00	0	40	104	0	70	21298
2026-01-22 02:44:09.41	22.51	15.91	-49.9	-64.8	3.8	1.49e+00	0	40	104	0	70	21229
2026-01-22 02:44:10.42	22.40	16.00	-49.9	-64.9	3.8	1.49e+00	0	40	104	0	70	21333
2026-01-22 02:44:11.42	22.29	16.10	-49.9	-64.9	3.8	1.49e+00	0	40	104	0	70	21316
2026-01-22 02:44:12.43	22.17	16.19	-49.9	-64.9	3.8	1.49e+00	0	40	104	0	70	21315
2026-01-22 02:44:13.44	22.06	16.29	-49.9	-64.9	3.8	1.49e+00	0	40	104	0	70	21291
2026-01-22 02:44:14.45	21.94	16.39	-49.9	-64.9	3.8	1.49e+00	0	40	104	0	70	21353
2026-01-22 02:44:15.46	21.82	16.48	-49.9	-64.9	3.8	1.49e+00	0	40	104	0	70	21298
2026-01-22 02:44:16.47	21.70	16.58	-49.9	-64.9	3.8	1.49e+00	0	41	104	0	70	21350
2026-01-22 02:44:17.48	21.58	16.68	-49.9	-64.9	3.8	1.49e+00	0	40	104	0	70	21421
2026-01-22 02:44:18.49	21.46	16.78	-49.9	-64.9	3.8	1.49e+00	0	41	104	0	70	21327
2026-01-22 02:44:19.50	21.34	16.87	-49.9	-64.9	3.8	1.49e+00	0	40	104	0	70	21281
2026-01-22 02:44:20.51	21.22	16.97	-49.9	-64.9	3.8	1.49e+00	0	41	104	0	70	21280
2026-01-22 02:44:21.51	21.10	17.07	-49.9	-64.9	3.8	1.49e+00	0	41	104	0	70	21343
2026-01-22 02:44:22.52	20.98	17.17	-49.9	-64.9	3.8	1.49e+00	0	41	104	0	70	21295
2026-01-22 02:44:23.53	20.85	17.27	-49.9	-64.9	3.8	1.49e+00	0	41	104	0	70	21309
2026-01-22 02:44:24.54	20.73	17.37	-49.9	-64.9	3.8	1.49e+00	0	41	104	0	70	21298
2026-01-22 02:44:25.55	20.60	17.47	-49.9	-64.9	3.8	1.49e+00	0	41	104	0	70	21306
2026-01-22 02:44:26.56	20.47	17.56	-49.9	-64.9	3.8	1.49e+00	0	40	104	0	70	21355
2026-01-22 02:44:27.57	20.35	17.66	-49.9	-64.9	3.8	1.49e+00	0	40	104	0	70	21326
2026-01-22 02:44:28.57	20.22	17.76	-49.9	-64.9	3.8	1.49e+00	0	41	104	0	70	21313
2026-01-22 02:44:29.58	20.09	17.86	-49.9	-64.9	3.8	1.49e+00	0	41	104	0	70	21338
2026-01-22 02:44:30.59	19.96	17.97	-49.9	-64.9	3.8	1.49e+00	0	41	104	0	70	21304
2026-01-22 02:44:31.60	19.83	18.07	-49.9	-64.9	3.8	1.49e+00	0	41	104	0	70	21319
2026-01-22 02:44:32.61	19.70	18.17	-49.9	-64.9	3.8	1.49e+00	0	41	104	0	70	21301
2026-01-22 02:44:33.61	19.57	18.27	-49.9	-64.9	3.8	1.49e+00	0	41	104	0	70	21359
2026-01-22 02:44:34.62	19.43	18.37	-49.9	-64.9	3.8	1.49e+00	0	40	104	0	70	21334
2026-01-22 02:44:35.63	19.30	18.47	-49.9	-64.9	3.8	1.49e+00	0	41	104	0	70	21323
2026-01-22 02:44:36.64	19.16	18.57	-49.9	-64.9	3.8	1.49e+00	0	41	104	0	70	21328
2026-01-22 02:44:37.65	19.02	18.68	-49.9	-64.9	3.8	1.49e+00	0	41	104	0	70	21359
2026-01-22 02:44:38.65	18.89	18.78	-49.9	-64.9	3.8	1.49e+00	0	41	104	0	70	21328
2026-01-22 02:44:39.66	18.75	18.88	-49.9	-64.9	3.8	1.49e+00	0	41	104	0	70	21363
2026-01-22 02:44:40.67	18.61	18.98	-49.9	-64.9	3.8	1.49e+00	0	41	104	0	70	21341
2026-01-22 02:44:41.68	18.47	19.09	-49.9	-64.9	3.8	1.49e+00	0	40	104	0	70	21390
2026-01-22 02:44:42.69	18.33	19.19	-49.9	-64.9	3.8	1.49e+00	0	41	104	0	70	21348
2026-01-22 02:44:43.70	18.19	19.29	-49.9	-64.9	3.8	1.49e+00	0	41	104	0	70	21327
2026-01-22 02:44:44.71	18.04	19.40	-49.9	-64.9	3.8	1.49e+00	0	41	104	0	70	21278
2026-01-22 02:44:45.71	17.90	19.50	-49.9	-64.9	3.8	1.49e+00	0	41	104	0	70	21338
2026-01-22 02:44:46.72	17.75	19.61	-49.9	-64.9	3.8	1.49e+00	0	41	104	0	70	21362
2026-01-22 02:44:47.73	17.61	19.71	-49.9	-64.9	3.8	1.49e+00	0	41	104	0	70	21365
2026-01-22 02:44:48.74	17.46	19.82	-49.9	-64.9	3.8	1.49e+00	0	41	104	0	70	21328
2026-01-22 02:44:49.75	17.31	19.92	-49.9	-64.9	3.8	1.49e+00	0	41	104	0	70	21381
2026-01-22 02:44:50.76	17.16	20.03	-49.9	-64.9	3.8	1.49e+00	0	40	104	0	70	21347
2026-01-22 02:44:51.77	17.01	20.13	-49.9	-64.9	3.8	1.49e+00	0	41	104	0	70	21376
2026-01-22 02:44:52.77	16.86	20.24	-49.9	-64.9	3.8	1.49e+00	0	41	104	0	70	21362
2026-01-22 02:44:53.78	16.71	20.35	-49.9	-64.9	3.8	1.49e+00	0	41	104	0	70	21301
2026-01-22 02:44:54.79	16.56	20.45	-49.9	-64.9	3.8	1.49e+00	0	41	104	0	70	21291
2026-01-22 02:44:55.80	16.40	20.56	-49.9	-64.9	3.8	1.49e+00	0	41	104	0	70	21348
2026-01-22 02:44:56.81	16.25	20.67	-49.9	-64.9	3.8	1.49e+00	0	41	104	0	70	21350
2026-01-22 02:44:57.82	16.09	20.77	-49.9	-64.9	3.8	1.49e+00	0	41	104	0	70	21364
2026-01-22 02:44:58.83	15.93	20.88	-49.9	-64.9	3.8	1.49e+00	0	41	104	0	70	21290
2026-01-22 02:44:59.83	15.77	20.99	-49.9	-64.9	3.8	1.49e+00	0	41	104	0	70	21328
2026-01-22 02:45:00.84	15.61	21.10	-49.9	-64.9	3.8	1.49e+00	0	41	104	0	70	21395
2026-01-22 02:45:01.85	15.45	21.20	-49.9	-64.9	3.8	1.49e+00	0	41	104	0	70	21305
2026-01-22 02:45:02.86	15.29	21.31	-49.9	-64.9	3.8	1.49e+00	0	41	104	0	70	21319
2026-01-22 02:45:03.87	15.12	21.42	-49.9	-64.9	3.8	1.49e+00	0	41	104	0	70	21361
2026-01-22 02:45:04.87	14.96	21.53	-49.9	-64.9	3.8	1.49e+00	0	41	104	0	70	21331
2026-01-22 02:45:05.88	14.79	21.64	-49.9	-64.9	3.8	1.49e+00	0	40	104	0	70	21323
2026-01-22 02:45:06.89	14.63	21.75	-49.9	-64.9	3.8	1.49e+00	0	41	104	0	70	21314
2026-01-22 02:45:07.90	14.46	21.86	-49.9	-64.9	3.8	1.49e+00	0	41	104	0	70	21315
2026-01-22 02:45:08.91	14.29	21.97	-49.9	-64.9	3.8	1.49e+00	0	41	104	0	70	21290
2026-01-22 02:45:09.91	14.12	22.07	-49.9	-64.9	3.8	1.49e+00	0	40	104	0	70	21272
2026-01-22 02:45:10.92	13.95	22.18	-49.9	-64.9	3.8	1.49e+00	0	41	104	0	70	21294
2026-01-22 02:45:11.93	13.77	22.29	-49.9	-64.9	3.8	1.49e+00	0	41	104	0	70	21331
2026-01-22 02:45:12.94	13.60	22.40	-49.9	-64.9	3.8	1.49e+00	0	41	104	0	70	21347
2026-01-22 02:45:13.95	13.42	22.52	-49.9	-64.9	3.8	1.49e+00	0	41	104	0	70	21345
2026-01-22 02:45:14.96	13.24	22.63	-49.9	-64.9	3.8	1.49e+00	0	41	104	0	70	21325
2026-01-22 02:45:15.96	13.07	22.74	-49.9	-64.9	3.8	1.49e+00	0	41	104	0	70	21333
2026-01-22 02:45:16.97	12.89	22.85	-49.9	-64.9	3.8	1.49e+00	0	41	104	0	70	21349
2026-01-22 02:45:17.98	12.71	22.96	-49.9	-64.9	3.8	1.49e+00	0	41	104	0	70	21321
2026-01-22 02:45:18.99	12.52	23.07	-49.9	-64.9	3.8	1.49e+00	0	41	104	0	70	21281
2026-01-22 02:45:20.00	12.34	23.18	-49.9	-64.9	3.8	1.49e+00	0	41	104	0	70	21335
2026-01-22 02:45:21.01	12.15	23.29	-49.9	-64.9	3.8	1.49e+00	0	41	104	0	70	21325
2026-01-22 02:45:22.02	11.97	23.40	-49.9	-64.9	3.8	1.49e+00	0	41	104	0	70	21326
2026-01-22 02:45:23.03	11.78	23.52	-49.9	-64.9	3.8	1.49e+00	0	41	104	0	70	21361
2026-01-22 02:45:24.04	11.59	23.63	-49.9	-64.9	3.8	1.49e+00	0	41	104	0	70	21328
2026-01-22 02:45:25.05	11.40	23.74	-49.9	-64.9	3.8	1.49e+00	0	41	104	0	70	21285
2026-01-22 02:45:26.05	11.21	23.85	-49.9	-64.9	3.8	1.49e+00	0	41	104	0	70	21330
2026-01-22 02:45:27.06	11.01	23.97	-49.9	-64.9	3.8	1.49e+00	0	40	104	0	70	21320
2026-01-22 02:45:28.07	10.82	24.08	-49.9	-64.9	3.8	1.49e+00	0	41	104	0	70	21354
2026-01-22 02:45:29.08	10.62	24.19	-49.9	-64.9	3.8	1.49e+00	0	41	104	0	70	21286
2026-01-22 02:45:30.09	10.42	24.30	-49.9	-64.9	3.8	1.49e+00	0	41	104	0	70	21329
2026-01-22 02:45:31.10	10.23	24.42	-49.9	-64.9	3.8	1.49e+00	0	41	104	0	70	21347
2026-01-22 02:45:32.11	10.02	24.53	-49.9	-64.9	3.8	1.49e+00	0	41	104	0	70	21325
2026-01-22 02:45:33.12	9.82	24.64	-49.9	-64.9	3.8	1.49e+00	0	41	104	0	70	21348
2026-01-22 02:45:34.13	9.62	24.76	-49.9	-64.9	3.8	1.49e+00	0	41	104	0	70	21309
2026-01-22 02:45:35.14	9.41	24.87	-49.9	-64.9	3.8	1.49e+00	0	41	104	0	70	21356
2026-01-22 02:45:36.14	9.21	24.98	-49.9	-64.9	3.8	1.49e+00	0	41	104	0	70	21288
2026-01-22 02:45:37.15	9.00	25.10	-49.9	-64.8	3.8	1.49e+00	0	40	104	0	70	21259
2026-01-22 02:45:38.16	8.79	25.21	-49.9	-64.9	3.8	1.49e+00	0	41	104	0	70	21360
2026-01-22 02:45:39.17	8.58	25.32	-49.9	-64.9	3.8	1.49e+00	0	41	104	0	70	21389
2026-01-22 02:45:40.18	8.37	25.44	-49.9	-64.9	3.8	1.49e+00	0	41	104	0	70	21310
2026-01-22 02:45:41.19	8.15	25.55	-49.9	-64.9	3.8	1.49e+00	0	41	104	0	70	21348
2026-01-22 02:45:42.20	7.94	25.67	-49.9	-64.9	3.8	1.49e+00	0	41	104	0	70	21336
2026-01-22 02:45:43.21	7.72	25.78	-49.9	-64.9	3.8	1.49e+00	0	41	104	0	70	21342
2026-01-22 02:45:44.21	7.50	25.89	-49.9	-64.9	3.8	1.49e+00	0	41	104	0	70	21348
2026-01-22 02:45:45.22	7.28	26.01	-49.9	-64.9	3.8	1.49e+00	0	41	104	0	70	21357
2026-01-22 02:45:46.23	7.06	26.12	-49.9	-64.9	3.8	1.49e+00	0	41	104	0	70	21350
2026-01-22 02:45:47.24	6.83	26.23	-49.9	-64.9	3.8	1.49e+00	0	41	104	0	70	21389
2026-01-22 02:45:48.25	6.61	26.35	-49.9	-64.9	3.8	1.49e+00	0	41	104	0	70	21333
2026-01-22 02:45:49.25	6.38	26.46	-49.9	-64.9	3.8	1.49e+00	0	41	104	0	70	21291
2026-01-22 02:45:50.26	6.16	26.57	-49.9	-64.9	3.8	1.49e+00	0	41	104	0	70	21304
2026-01-22 02:45:51.27	5.92	26.69	-49.9	-64.9	3.8	1.49e+00	0	41	104	0	70	21325
2026-01-22 02:45:52.28	5.69	26.80	-49.9	-64.9	3.8	1.49e+00	0	41	104	0	70	21344
2026-01-22 02:45:53.28	5.46	26.92	-49.9	-64.9	3.8	1.49e+00	0	41	104	0	70	21342
2026-01-22 02:45:54.29	5.23	27.03	-49.9	-64.9	3.8	1.49e+00	0	41	104	0	70	21342
2026-01-22 02:45:55.30	4.99	27.14	-49.9	-64.9	3.8	1.49e+00	0	41	104	0	70	21337
2026-01-22 02:45:56.31	4.75	27.26	-49.9	-64.9	3.8	1.49e+00	0	41	104	0	70	21358
2026-01-22 02:45:57.32	4.51	27.37	-49.9	-64.9	3.8	1.49e+00	0	41	104	0	70	21300
2026-01-22 02:45:58.33	4.27	27.48	-49.9	-64.9	3.8	1.49e+00	0	41	104	0	70	21350
2026-01-22 02:45:59.33	4.02	27.60	-49.9	-64.9	3.8	1.49e+00	0	41	104	0	70	21354
2026-01-22 02:46:00.34	3.78	27.71	-49.9	-64.9	3.8	1.49e+00	0	41	104	0	70	21343
2026-01-22 02:46:01.35	3.53	27.82	-49.9	-64.9	3.8	1.49e+00	0	41	104	0	70	21304
2026-01-22 02:46:02.36	3.28	27.93	-49.9	-64.9	3.8	1.49e+00	0	41	104	0	70	21374
2026-01-22 02:46:03.36	3.03	28.05	-49.9	-64.9	3.8	1.49e+00	0	41	104	0	70	21287
2026-01-22 02:46:04.37	2.78	28.16	-49.9	-64.9	3.8	1.49e+00	0	41	104	0	70	21303
2026-01-22 02:46:05.38	2.52	28.27	-49.9	-64.9	3.8	1.49e+00	0	41	104	0	70	21338
2026-01-22 02:46:06.39	2.27	28.38	-49.9	-64.9	3.8	1.49e+00	0	41	104	0	70	21327
2026-01-22 02:46:07.40	2.01	28.50	-49.9	-64.9	3.8	1.49e+00	0	41	104	0	70	21367
2026-01-22 02:46:08.41	1.75	28.61	-49.9	-64.9	3.8	1.49e+00	0	41	104	0	70	21307
2026-01-22 02:46:09.41	1.49	28.72	-49.9	-64.9	3.8	1.49e+00	0	41	104	0	70	21337
2026-01-22 02:46:10.42	1.22	28.83	-49.9	-64.9	3.8	1.49e+00	0	41	104	0	70	21355
2026-01-22 02:46:11.43	0.96	28.94	-49.9	-64.9	3.8	1.49e+00	0	41	104	0	70	21342
2026-01-22 02:46:12.44	0.69	29.05	-49.9	-64.9	3.8	1.49e+00	0	41	104	0	70	21282
2026-01-22 02:46:13.45	0.42	29.16	-49.9	-64.9	3.8	1.49e+00	0	41	104	0	70	21304
2026-01-22 02:46:14.45	0.15	29.27	-49.9	-64.9	3.8	1.49e+00	0	41	104	0	70	21329
2026-01-22 02:46:15.46	359.88	29.38	-49.9	-64.9	3.8	1.49e+00	0	41	104	0	70	21314
2026-01-22 02:46:16.47	359.60	29.49	-49.9	-64.9	3.8	1.49e+00	0	41	104	0	70	21339
2026-01-22 02:46:17.48	359.33	29.60	-49.9	-64.9	3.8	1.49e+00	0	41	104	0	70	21377
2026-01-22 02:46:18.49	359.05	29.71	-49.9	-64.9	3.8	1.49e+00	0	41	104	0	70	21331
2026-01-22 02:46:19.49	358.77	29.82	-49.9	-64.9	3.8	1.49e+00	0	41	104	0	70	21317
2026-01-22 02:46:20.50	358.49	29.92	-49.9	-64.9	3.8	1.49e+00	0	41	104	0	70	21328
2026-01-22 02:46:21.51	358.20	30.03	-49.9	-64.9	3.8	1.49e+00	0	41	104	0	70	21294
2026-01-22 02:46:22.52	357.91	30.14	-49.9	-64.8	3.8	1.49e+00	0	41	104	0	70	21247
2026-01-22 02:46:23.53	357.63	30.25	-49.9	-64.9	3.8	1.49e+00	0	41	104	0	70	21293
2026-01-22 02:46:24.54	357.34	30.35	-49.9	-64.9	3.8	1.49e+00	0	41	104	0	70	21299
2026-01-22 02:46:25.55	357.04	30.46	-49.9	-64.9	3.8	1.49e+00	0	41	104	0	70	21309
2026-01-22 02:46:26.56	356.75	30.57	-49.9	-64.9	3.8	1.49e+00	0	41	104	0	70	21356
2026-01-22 02:46:27.57	356.45	30.67	-49.9	-64.9	3.8	1.49e+00	0	41	104	0	70	21303
2026-01-22 02:46:28.58	356.15	30.78	-49.9	-64.9	3.8	1.49e+00	0	41	104	0	70	21285
2026-01-22 02:46:29.59	355.85	30.88	-49.9	-64.9	3.8	1.49e+00	0	41	104	0	70	21291
2026-01-22 02:46:30.59	355.55	30.98	-49.9	-64.9	3.8	1.49e+00	0	41	104	0	70	21375
2026-01-22 02:46:31.60	355.25	31.09	-49.9	-64.9	3.8	1.49e+00	0	41	104	0	70	21295
2026-01-22 02:46:32.61	354.94	31.19	-49.9	-64.9	3.8	1.49e+00	0	41	104	0	70	21363
2026-01-22 02:46:33.62	354.64	31.29	-49.9	-64.9	3.8	1.49e+00	0	41	104	0	70	21352
2026-01-22 02:46:34.62	354.33	31.39	-49.9	-64.9	3.8	1.49e+00	0	41	104	0	70	21328
2026-01-22 02:46:35.63	354.02	31.49	-49.9	-64.9	3.8	1.49e+00	0	41	104	0	70	21354
2026-01-22 02:46:36.64	353.70	31.59	-49.9	-64.9	3.8	1.49e+00	0	41	104	0	70	21310
2026-01-22 02:46:37.65	353.39	31.69	-49.9	-64.9	3.8	1.49e+00	0	41	104	0	70	21359
2026-01-22 02:46:38.66	353.07	31.79	-49.9	-64.9	3.8	1.49e+00	0	41	104	0	70	21393
2026-01-22 02:46:39.67	352.75	31.89	-49.9	-64.9	3.8	1.49e+00	0	41	104	0	70	21282
2026-01-22 02:46:40.68	352.43	31.99	-49.9	-64.9	3.8	1.49e+00	0	41	104	0	70	21375
2026-01-22 02:46:41.69	352.10	32.08	-49.9	-64.9	3.8	1.49e+00	0	41	104	0	70	21338
2026-01-22 02:46:42.69	351.78	32.18	-49.9	-64.9	3.8	1.49e+00	0	41	104	0	70	21341
2026-01-22 02:46:43.70	351.45	32.28	-49.9	-64.9	3.8	1.49e+00	0	41	104	0	70	21345
2026-01-22 02:46:44.71	351.12	32.37	-49.9	-64.9	3.8	1.49e+00	0	41	104	0	70	21297
2026-01-22 02:46:45.72	350.79	32.46	-49.9	-64.9	3.8	1.49e+00	0	41	104	0	70	21352
2026-01-22 02:46:46.73	350.46	32.56	-49.9	-64.9	3.8	1.49e+00	0	41	104	0	70	21333
2026-01-22 02:46:47.73	350.13	32.65	-49.9	-64.9	3.8	1.49e+00	0	41	104	0	70	21280
2026-01-22 02:46:48.74	349.79	32.74	-49.9	-64.9	3.8	1.49e+00	0	41	104	0	70	21331
2026-01-22 02:46:49.75	349.45	32.83	-49.9	-64.9	3.8	1.49e+00	0	41	104	0	70	21305
2026-01-22 02:46:50.76	349.11	32.92	-49.9	-64.9	3.8	1.49e+00	0	41	104	0	70	21392
2026-01-22 02:46:51.77	348.76	33.01	-49.9	-64.9	3.8	1.49e+00	0	41	104	0	70	21333
2026-01-22 02:46:52.77	348.42	33.10	-49.9	-64.8	3.8	1.49e+00	0	40	104	0	70	21243
2026-01-22 02:46:53.78	348.08	33.18	-49.9	-64.9	3.8	1.49e+00	0	41	104	0	70	21320
2026-01-22 02:46:54.79	347.73	33.27	-49.9	-64.9	3.8	1.49e+00	0	41	104	0	70	21283
2026-01-22 02:46:55.80	347.38	33.35	-49.9	-64.9	3.8	1.49e+00	0	41	104	0	70	21299
2026-01-22 02:46:56.80	347.03	33.44	-49.9	-64.9	3.8	1.49e+00	0	41	104	0	70	21310
2026-01-22 02:46:57.81	346.67	33.52	-49.9	-64.9	3.8	1.49e+00	0	41	104	0	70	21377
2026-01-22 02:46:58.82	346.32	33.60	-49.9	-64.9	3.8	1.49e+00	0	41	104	0	70	21301
2026-01-22 02:46:59.83	345.96	33.68	-49.9	-64.9	3.8	1.49e+00	0	41	104	0	70	21297
2026-01-22 02:47:00.84	345.60	33.76	-49.9	-64.9	3.8	1.49e+00	0	41	104	0	70	21335
2026-01-22 02:47:01.85	345.24	33.84	-49.9	-64.9	3.8	1.49e+00	0	41	104	0	70	21352
2026-01-22 02:47:02.86	344.88	33.92	-49.9	-64.9	3.8	1.49e+00	0	41	104	0	70	21321
2026-01-22 02:47:03.87	344.51	33.99	-49.9	-64.9	3.8	1.49e+00	0	41	104	0	70	21283
2026-01-22 02:47:04.88	344.14	34.07	-49.9	-64.9	3.8	1.49e+00	0	41	104	0	70	21320
2026-01-22 02:47:05.89	343.78	34.14	-49.9	-64.9	3.8	1.49e+00	0	41	104	0	70	21305
2026-01-22 02:47:06.89	343.41	34.22	-49.9	-64.9	3.8	1.49e+00	0	41	104	0	70	21315
2026-01-22 02:47:07.90	343.04	34.29	-49.9	-64.9	3.8	1.49e+00	0	41	104	0	70	21310
2026-01-22 02:47:08.91	342.67	34.36	-49.9	-64.9	3.8	1.49e+00	0	41	104	0	70	21367
2026-01-22 02:47:09.92	342.29	34.43	-49.9	-64.9	3.8	1.49e+00	0	41	104	0	70	21326
2026-01-22 02:47:10.93	341.91	34.50	-49.9	-64.9	3.8	1.49e+00	0	41	104	0	70	21273
2026-01-22 02:47:11.94	341.54	34.56	-49.9	-64.9	3.8	1.49e+00	0	41	104	0	70	21313
2026-01-22 02:47:12.95	341.16	34.63	-49.9	-64.9	3.8	1.49e+00	0	41	104	0	70	21359
2026-01-22 02:47:13.95	340.78	34.69	-49.9	-64.9	3.8	1.49e+00	0	41	104	0	70	21402
2026-01-22 02:47:14.96	340.40	34.76	-49.9	-64.9	3.8	1.49e+00	0	41	104	0	70	21317
2026-01-22 02:47:15.97	340.01	34.82	-49.9	-64.9	3.8	1.49e+00	0	41	104	0	70	21308
2026-01-22 02:47:16.98	339.63	34.88	-49.9	-64.9	3.8	1.49e+00	0	41	104	0	70	21350
2026-01-22 02:47:17.99	339.24	34.94	-49.9	-64.9	3.8	1.49e+00	0	41	104	0	70	21318
2026-01-22 02:47:18.99	338.86	34.99	-49.9	-64.9	3.8	1.49e+00	0	41	104	0	70	21287
2026-01-22 02:47:20.00	338.47	35.05	-49.9	-64.9	3.8	1.49e+00	0	41	104	0	70	21343
2026-01-22 02:47:21.01	338.07	35.10	-49.9	-64.9	3.8	1.49e+00	0	41	104	0	70	21357
2026-01-22 02:47:22.02	337.68	35.16	-49.9	-64.9	3.8	1.49e+00	0	41	104	0	70	21370
2026-01-22 02:47:23.02	337.29	35.21	-49.9	-64.9	3.8	1.49e+00	0	40	104	0	70	21377
2026-01-22 02:47:24.03	336.90	35.26	-49.9	-64.9	3.8	1.49e+00	0	41	104	0	70	21297
2026-01-22 02:47:25.04	336.50	35.31	-49.9	-64.9	3.8	1.49e+00	0	41	104	0	70	21348
2026-01-22 02:47:26.05	336.10	35.36	-49.9	-64.9	3.8	1.49e+00	0	41	104	0	70	21303
2026-01-22 02:47:27.05	335.71	35.40	-49.9	-64.9	3.8	1.49e+00	0	41	104	0	70	21294
2026-01-22 02:47:28.06	335.31	35.45	-49.9	-64.9	3.8	1.49e+00	0	41	104	0	70	21334
2026-01-22 02:47:29.07	334.91	35.49	-49.9	-64.9	3.8	1.49e+00	0	41	104	0	70	21269
2026-01-22 02:47:30.08	334.51	35.53	-49.9	-64.9	3.8	1.49e+00	0	41	104	0	70	21265
2026-01-22 02:47:31.09	334.11	35.57	-49.9	-64.9	3.8	1.49e+00	0	40	104	0	70	21311
2026-01-22 02:47:32.10	333.70	35.61	-49.9	-64.9	3.8	1.49e+00	0	41	104	0	70	21279
2026-01-22 02:47:33.10	333.30	35.64	-49.9	-64.9	3.8	1.49e+00	0	41	104	0	70	21298
2026-01-22 02:47:34.11	332.90	35.68	-49.9	-64.9	3.8	1.49e+00	0	41	104	0	70	21367
2026-01-22 02:47:35.12	332.49	35.71	-49.9	-64.9	3.8	1.49e+00	0	41	104	0	70	21357
2026-01-22 02:47:36.13	332.08	35.74	-49.9	-64.9	3.8	1.49e+00	0	40	104	0	70	21331
2026-01-22 02:47:37.14	331.67	35.77	-49.9	-64.8	3.8	1.49e+00	0	41	104	0	70	21240
2026-01-22 02:47:38.15	331.27	35.80	-49.9	-64.9	3.8	1.49e+00	0	41	104	0	70	21280
2026-01-22 02:47:39.16	330.86	35.83	-49.9	-64.9	3.8	1.49e+00	0	41	104	0	70	21300
2026-01-22 02:47:40.17	330.45	35.85	-49.9	-64.9	3.8	1.49e+00	0	41	104	0	70	21306
2026-01-22 02:47:41.18	330.04	35.88	-49.9	-64.9	3.8	1.49e+00	0	41	104	0	70	21334
2026-01-22 02:47:42.19	329.62	35.90	-49.9	-64.9	3.8	1.49e+00	0	41	104	0	70	21279
2026-01-22 02:47:43.20	329.21	35.92	-49.9	-64.9	3.8	1.49e+00	0	41	104	0	70	21268
2026-01-22 02:47:44.21	328.80	35.94	-49.9	-64.9	3.8	1.49e+00	0	41	104	0	70	21299
2026-01-22 02:47:45.22	328.39	35.96	-49.9	-64.9	3.8	1.49e+00	0	41	104	0	70	21344
2026-01-22 02:47:46.23	327.97	35.97	-49.9	-64.9	3.8	1.49e+00	0	41	104	0	70	21322
2026-01-22 02:47:47.24	327.56	35.98	-49.9	-64.9	3.8	1.49e+00	0	41	104	0	70	21307
2026-01-22 02:47:48.24	327.15	36.00	-49.9	-64.9	3.8	1.49e+00	0	41	104	0	70	21336
2026-01-22 02:47:49.25	326.74	36.01	-49.9	-64.9	3.8	1.49e+00	0	41	104	0	70	21330
2026-01-22 02:47:50.26	326.32	36.01	-49.9	-64.9	3.8	1.49e+00	0	41	104	0	70	21286
2026-01-22 02:47:51.27	325.91	36.02	-49.9	-64.9	3.8	1.49e+00	0	41	104	0	70	21274
2026-01-22 02:47:52.28	325.49	36.03	-49.9	-64.9	3.8	1.49e+00	0	41	104	0	70	21273
2026-01-22 02:47:53.29	325.08	36.03	-49.9	-64.9	3.8	1.49e+00	0	41	104	0	70	21347
2026-01-22 02:47:54.29	324.67	36.03	-49.9	-64.9	3.8	1.49e+00	0	41	104	0	70	21292
2026-01-22 02:47:55.30	324.25	36.03	-49.9	-64.9	3.8	1.49e+00	0	41	104	0	70	21320
2026-01-22 02:47:56.31	323.84	36.03	-49.9	-64.9	3.8	1.49e+00	0	41	104	0	70	21269
2026-01-22 02:47:57.32	323.42	36.03	-49.9	-64.9	3.8	1.49e+00	0	41	104	0	70	21330
2026-01-22 02:47:58.33	323.01	36.02	-49.9	-64.9	3.8	1.49e+00	0	41	104	0	70	21350
2026-01-22 02:47:59.34	322.59	36.01	-49.9	-64.9	3.8	1.49e+00	0	41	104	0	70	21334
2026-01-22 02:48:00.34	322.18	36.00	-49.9	-64.9	3.8	1.49e+00	0	41	104	0	70	21314
2026-01-22 02:48:01.35	321.77	35.99	-49.9	-64.9	3.8	1.49e+00	0	41	104	0	70	21298
2026-01-22 02:48:02.36	321.36	35.98	-49.9	-64.9	3.8	1.49e+00	0	41	104	0	70	21277
2026-01-22 02:48:03.37	320.94	35.97	-49.9	-64.9	3.8	1.49e+00	0	41	104	0	70	21305
2026-01-22 02:48:04.38	320.53	35.95	-49.9	-64.9	3.8	1.49e+00	0	41	104	0	70	21367
2026-01-22 02:48:05.39	320.12	35.94	-49.9	-64.8	3.8	1.49e+00	0	41	104	0	70	21242
2026-01-22 02:48:06.40	319.70	35.92	-49.9	-64.9	3.8	1.49e+00	0	41	104	0	70	21264
2026-01-22 02:48:07.41	319.29	35.90	-49.9	-64.9	3.8	1.49e+00	0	41	104	0	70	21305
2026-01-22 02:48:08.41	318.89	35.87	-49.9	-64.9	3.8	1.49e+00	0	41	104	0	70	21263
2026-01-22 02:48:09.42	318.48	35.85	-49.9	-64.9	3.8	1.49e+00	0	41	104	0	70	21266
2026-01-22 02:48:10.43	318.07	35.82	-49.9	-64.9	3.8	1.49e+00	0	41	104	0	70	21288
2026-01-22 02:48:11.44	317.66	35.80	-49.9	-64.9	3.8	1.49e+00	0	41	104	0	70	21323
2026-01-22 02:48:12.45	317.25	35.77	-49.9	-64.8	3.8	1.49e+00	0	41	104	0	70	21253
2026-01-22 02:48:13.46	316.84	35.74	-49.9	-64.9	3.8	1.49e+00	0	41	104	0	70	21278
2026-01-22 02:48:14.46	316.44	35.71	-49.9	-64.9	3.8	1.49e+00	0	41	104	0	70	21261
2026-01-22 02:48:15.47	316.03	35.67	-49.9	-64.8	3.8	1.49e+00	0	41	104	0	70	21242
2026-01-22 02:48:16.48	315.62	35.64	-49.9	-64.9	3.8	1.49e+00	0	41	104	0	70	21375
2026-01-22 02:48:17.49	315.22	35.60	-49.9	-64.9	3.8	1.49e+00	0	41	104	0	70	21285
2026-01-22 02:48:18.50	314.82	35.56	-49.9	-64.9	3.8	1.49e+00	0	41	104	0	70	21280
2026-01-22 02:48:19.51	314.41	35.52	-49.9	-64.9	3.8	1.49e+00	0	41	104	0	70	21335
2026-01-22 02:48:20.52	314.01	35.48	-49.9	-64.9	3.8	1.49e+00	0	41	104	0	70	21311
2026-01-22 02:48:21.53	313.61	35.44	-49.9	-64.9	3.8	1.49e+00	0	41	104	0	70	21277
2026-01-22 02:48:22.54	313.21	35.39	-49.9	-64.9	3.8	1.49e+00	0	41	104	0	70	21261
2026-01-22 02:48:23.54	312.82	35.35	-49.9	-64.9	3.8	1.49e+00	0	41	104	0	70	21290
2026-01-22 02:48:24.55	312.42	35.30	-49.9	-64.9	3.8	1.49e+00	0	41	104	0	70	21278
2026-01-22 02:48:25.56	312.02	35.25	-49.9	-64.9	3.8	1.49e+00	0	41	104	0	70	21275
2026-01-22 02:48:26.57	311.63	35.20	-49.9	-64.9	3.8	1.49e+00	0	41	104	0	70	21282
2026-01-22 02:48:27.57	311.24	35.15	-49.9	-64.9	3.8	1.49e+00	0	41	104	0	70	21294
2026-01-22 02:48:28.58	310.85	35.09	-49.9	-64.9	3.8	1.49e+00	0	41	104	0	70	21308
2026-01-22 02:48:29.59	310.46	35.04	-49.9	-64.9	3.8	1.49e+00	0	41	104	0	70	21262
2026-01-22 02:48:30.60	310.07	34.98	-49.9	-64.9	3.8	1.49e+00	0	41	104	0	70	21270
2026-01-22 02:48:31.60	309.68	34.92	-49.9	-64.9	3.8	1.49e+00	0	41	104	0	70	21270
2026-01-22 02:48:32.61	309.29	34.87	-49.9	-64.9	3.8	1.49e+00	0	41	104	0	70	21332
2026-01-22 02:48:33.62	308.91	34.81	-49.9	-64.8	3.8	1.49e+00	0	41	104	0	70	21259
2026-01-22 02:48:34.63	308.52	34.74	-49.9	-64.9	3.8	1.49e+00	0	41	104	0	70	21324
2026-01-22 02:48:35.63	308.15	34.68	-49.9	-64.9	3.8	1.49e+00	0	41	104	0	70	21296
2026-01-22 02:48:36.64	307.76	34.62	-49.9	-64.9	3.8	1.49e+00	0	41	104	0	70	21304
2026-01-22 02:48:37.65	307.38	34.55	-49.9	-64.9	3.8	1.49e+00	0	41	104	0	70	21267
2026-01-22 02:48:38.66	307.01	34.48	-49.9	-64.9	3.8	1.49e+00	0	41	104	0	70	21280
2026-01-22 02:48:39.66	306.63	34.41	-49.9	-64.9	3.8	1.49e+00	0	41	104	0	70	21294
2026-01-22 02:48:40.67	306.26	34.35	-49.9	-64.9	3.8	1.49e+00	0	41	104	0	70	21309
2026-01-22 02:48:41.68	305.89	34.27	-49.9	-64.9	3.8	1.49e+00	0	41	104	0	70	21321
2026-01-22 02:48:42.69	305.51	34.20	-49.9	-64.9	3.8	1.49e+00	0	41	104	0	70	21302
2026-01-22 02:48:43.70	305.14	34.13	-49.9	-64.9	3.8	1.49e+00	0	41	104	0	70	21321
2026-01-22 02:48:44.71	304.78	34.05	-49.9	-64.8	3.8	1.49e+00	0	41	104	0	70	21255
2026-01-22 02:48:45.71	304.41	33.98	-49.9	-64.9	3.8	1.49e+00	0	41	104	0	70	21316
2026-01-22 02:48:46.72	304.05	33.90	-49.9	-64.8	3.8	1.49e+00	0	41	104	0	70	21232
2026-01-22 02:48:47.73	303.68	33.82	-49.9	-64.9	3.8	1.49e+00	0	41	104	0	70	21308
2026-01-22 02:48:48.74	303.32	33.75	-49.9	-64.8	3.8	1.49e+00	0	41	104	0	70	21246
2026-01-22 02:48:49.75	302.96	33.67	-49.9	-64.9	3.8	1.49e+00	0	41	104	0	70	21297
2026-01-22 02:48:50.75	302.61	33.59	-49.9	-64.9	3.8	1.49e+00	0	41	104	0	70	21315
2026-01-22 02:48:51.76	302.25	33.50	-49.9	-64.9	3.8	1.49e+00	0	41	104	0	70	21274
2026-01-22 02:48:52.77	301.90	33.42	-49.9	-64.8	3.8	1.49e+00	0	41	104	0	70	21253
2026-01-22 02:48:53.78	301.55	33.34	-49.9	-64.9	3.8	1.49e+00	0	41	104	0	70	21284
2026-01-22 02:48:54.79	301.20	33.25	-49.9	-64.9	3.8	1.49e+00	0	41	104	0	70	21263
2026-01-22 02:48:55.80	300.85	33.16	-49.9	-64.9	3.8	1.49e+00	0	41	104	0	70	21301
2026-01-22 02:48:56.80	300.50	33.08	-49.9	-64.9	3.8	1.49e+00	0	41	104	0	70	21282
2026-01-22 02:48:57.81	300.16	32.99	-49.9	-64.9	3.8	1.49e+00	0	41	104	0	70	21343
2026-01-22 02:48:58.82	299.82	32.90	-49.9	-64.9	3.8	1.49e+00	0	41	104	0	70	21325
2026-01-22 02:48:59.83	299.47	32.81	-49.9	-64.9	3.8	1.49e+00	0	41	104	0	70	21301
2026-01-22 02:49:00.84	299.13	32.72	-49.9	-64.9	3.8	1.49e+00	0	41	104	0	70	21293
2026-01-22 02:49:01.85	298.80	32.63	-49.9	-64.9	3.8	1.49e+00	0	41	104	0	70	21329
2026-01-22 02:49:02.86	298.46	32.54	-49.9	-64.9	3.8	1.49e+00	0	41	104	0	70	21343
2026-01-22 02:49:03.87	298.13	32.44	-49.9	-64.9	3.8	1.49e+00	0	41	104	0	70	21310
2026-01-22 02:49:04.87	297.80	32.35	-49.9	-64.9	3.8	1.49e+00	0	41	104	0	70	21330
2026-01-22 02:49:05.88	297.47	32.25	-49.9	-64.9	3.8	1.49e+00	0	41	104	0	70	21334
2026-01-22 02:49:06.89	297.14	32.16	-49.9	-64.9	3.8	1.49e+00	0	41	104	0	70	21310
2026-01-22 02:49:07.90	296.82	32.06	-49.9	-64.9	3.8	1.49e+00	0	41	104	0	70	21276
2026-01-22 02:49:08.91	296.49	31.96	-49.9	-64.9	3.8	1.49e+00	0	41	104	0	70	21311
2026-01-22 02:49:09.91	296.17	31.87	-49.9	-64.9	3.8	1.49e+00	0	41	104	0	70	21301
2026-01-22 02:49:10.92	295.85	31.77	-49.9	-64.9	3.8	1.49e+00	0	41	104	0	70	21290
2026-01-22 02:49:11.93	295.54	31.67	-49.9	-64.9	3.8	1.49e+00	0	41	104	0	70	21325
2026-01-22 02:49:12.94	295.22	31.57	-49.9	-64.9	3.8	1.49e+00	0	41	104	0	70	21263
2026-01-22 02:49:13.94	294.91	31.47	-49.9	-64.9	3.8	1.49e+00	0	41	104	0	70	21318
2026-01-22 02:49:14.95	294.60	31.37	-49.9	-64.9	3.8	1.49e+00	0	41	104	0	70	21319
2026-01-22 02:49:15.96	294.29	31.27	-49.9	-64.9	3.8	1.49e+00	0	41	104	0	70	21344
2026-01-22 02:49:16.97	293.98	31.16	-49.9	-64.8	3.8	1.49e+00	0	41	104	0	70	21255
2026-01-22 02:49:17.98	293.67	31.06	-49.9	-64.9	3.8	1.49e+00	0	41	104	0	70	21308
2026-01-22 02:49:18.99	293.37	30.96	-49.9	-64.9	3.8	1.49e+00	0	41	104	0	70	21299
2026-01-22 02:49:20.00	293.06	30.85	-49.9	-64.9	3.8	1.49e+00	0	41	104	0	70	21325
2026-01-22 02:49:21.01	292.76	30.75	-49.9	-64.9	3.8	1.49e+00	0	41	104	0	70	21353
2026-01-22 02:49:22.01	292.47	30.65	-49.9	-64.9	3.8	1.49e+00	0	41	104	0	70	21373
2026-01-22 02:49:23.02	292.17	30.54	-49.9	-64.9	3.8	1.49e+00	0	41	104	0	70	21311
2026-01-22 02:49:24.03	291.88	30.43	-49.9	-64.9	3.8	1.49e+00	0	41	104	0	70	21270
2026-01-22 02:49:25.04	291.58	30.33	-49.9	-64.9	3.8	1.49e+00	0	41	104	0	70	21303
2026-01-22 02:49:26.05	291.29	30.22	-49.9	-64.8	3.8	1.49e+00	0	41	104	0	70	21187
2026-01-22 02:49:27.05	291.01	30.11	-49.9	-64.9	3.8	1.49e+00	0	41	104	0	70	21269
2026-01-22 02:49:28.06	290.72	30.01	-49.9	-64.9	3.8	1.49e+00	0	41	104	0	70	21295
2026-01-22 02:49:29.07	290.44	29.90	-49.9	-64.9	3.8	1.49e+00	0	41	104	0	70	21298
2026-01-22 02:49:30.08	290.15	29.79	-49.9	-64.9	3.8	1.49e+00	0	41	104	0	70	21315
2026-01-22 02:49:31.09	289.87	29.68	-49.9	-64.9	3.8	1.49e+00	0	41	104	0	70	21297
2026-01-22 02:49:32.10	289.59	29.57	-49.9	-64.9	3.8	1.49e+00	0	41	104	0	70	21315
2026-01-22 02:49:33.11	289.32	29.46	-49.9	-64.9	3.8	1.49e+00	0	41	104	0	70	21353
2026-01-22 02:49:34.11	289.04	29.35	-49.9	-64.9	3.8	1.49e+00	0	41	104	0	70	21340
2026-01-22 02:49:35.13	288.77	29.24	-49.9	-64.9	3.8	1.49e+00	0	41	104	0	70	21363
2026-01-22 02:49:36.13	288.50	29.13	-49.9	-64.9	3.8	1.49e+00	0	41	104	0	70	21285
2026-01-22 02:49:37.14	288.23	29.02	-49.9	-64.9	3.8	1.49e+00	0	41	104	0	70	21287
2026-01-22 02:49:38.15	287.96	28.91	-49.9	-64.9	3.8	1.49e+00	0	41	104	0	70	21310
2026-01-22 02:49:39.16	287.69	28.80	-49.9	-64.9	3.8	1.49e+00	0	41	104	0	70	21405
2026-01-22 02:49:40.17	287.43	28.69	-49.9	-64.9	3.8	1.49e+00	0	41	104	0	70	21291
2026-01-22 02:49:41.18	287.17	28.58	-49.9	-64.9	3.8	1.49e+00	0	41	104	0	70	21315
2026-01-22 02:49:42.18	286.91	28.46	-49.9	-64.9	3.8	1.49e+00	0	41	104	0	70	21302
2026-01-22 02:49:43.19	286.65	28.35	-49.9	-64.9	3.8	1.49e+00	0	41	104	0	70	21308
2026-01-22 02:49:44.20	286.39	28.24	-49.9	-64.9	3.8	1.49e+00	0	41	104	0	70	21294
2026-01-22 02:49:45.21	286.14	28.13	-49.9	-64.9	3.8	1.49e+00	0	41	104	0	70	21300
2026-01-22 02:49:46.22	285.89	28.01	-49.9	-64.8	3.8	1.49e+00	0	41	104	0	70	21231
2026-01-22 02:49:47.23	285.63	27.90	-49.9	-64.9	3.8	1.49e+00	0	41	104	0	70	21351
2026-01-22 02:49:48.23	285.39	27.79	-49.9	-64.9	3.8	1.49e+00	0	41	104	0	70	21355
2026-01-22 02:49:49.25	285.14	27.67	-49.9	-64.9	3.8	1.49e+00	0	41	104	0	70	21264
2026-01-22 02:49:50.25	284.89	27.56	-49.9	-64.9	3.8	1.49e+00	0	41	104	0	70	21312
2026-01-22 02:49:51.26	284.65	27.45	-49.9	-64.9	3.8	1.49e+00	0	41	104	0	70	21281
2026-01-22 02:49:52.27	284.41	27.33	-49.9	-64.8	3.8	1.49e+00	0	41	104	0	70	21251
2026-01-22 02:49:53.28	284.16	27.22	-49.9	-64.8	3.8	1.49e+00	0	41	104	0	70	21246
2026-01-22 02:49:54.29	283.93	27.11	-49.9	-64.9	3.8	1.49e+00	0	41	104	0	70	21303
2026-01-22 02:49:55.29	283.69	26.99	-49.9	-64.8	3.8	1.49e+00	0	41	104	0	70	21258
2026-01-22 02:49:56.30	283.45	26.88	-49.9	-64.9	3.8	1.49e+00	0	41	104	0	70	21277
2026-01-22 02:49:57.31	283.22	26.77	-49.9	-64.8	3.8	1.49e+00	0	41	104	0	70	21248
2026-01-22 02:49:58.32	282.99	26.65	-49.9	-64.9	3.8	1.49e+00	0	41	104	0	70	21278
2026-01-22 02:49:59.33	282.76	26.54	-49.9	-64.9	3.8	1.49e+00	0	41	104	0	70	21288
2026-01-22 02:50:00.34	282.53	26.42	-49.9	-64.9	3.8	1.49e+00	0	41	104	0	70	21319
2026-01-22 02:50:01.35	282.30	26.31	-49.9	-64.9	3.8	1.49e+00	0	41	104	0	70	21286
2026-01-22 02:50:02.35	282.08	26.20	-49.9	-64.8	3.8	1.49e+00	0	41	104	0	70	21234
2026-01-22 02:50:03.36	281.85	26.08	-49.9	-64.9	3.8	1.49e+00	0	41	104	0	70	21264
2026-01-22 02:50:04.37	281.63	25.97	-49.9	-64.9	3.8	1.49e+00	0	41	104	0	70	21308
2026-01-22 02:50:05.38	281.41	25.85	-49.9	-64.9	3.8	1.49e+00	0	41	104	0	70	21299
2026-01-22 02:50:06.38	281.19	25.74	-49.9	-64.9	3.8	1.49e+00	0	41	104	0	70	21358
2026-01-22 02:50:07.39	280.98	25.63	-49.9	-64.9	3.8	1.49e+00	0	41	104	0	70	21266
2026-01-22 02:50:08.40	280.76	25.51	-49.9	-64.9	3.8	1.49e+00	0	41	104	0	70	21303
2026-01-22 02:50:09.41	280.54	25.40	-49.9	-64.8	3.8	1.49e+00	0	41	104	0	70	21242
2026-01-22 02:50:10.41	280.33	25.29	-49.9	-64.9	3.8	1.49e+00	0	41	104	0	70	21305
2026-01-22 02:50:11.42	280.12	25.17	-49.9	-64.8	3.8	1.49e+00	0	41	104	0	70	21253
2026-01-22 02:50:12.43	279.91	25.06	-49.9	-64.9	3.8	1.49e+00	0	41	104	0	70	21262
2026-01-22 02:50:13.44	279.70	24.94	-49.9	-64.9	3.8	1.49e+00	0	41	104	0	70	21272
2026-01-22 02:50:14.45	279.50	24.83	-49.9	-64.8	3.8	1.49e+00	0	41	104	0	70	21259
2026-01-22 02:50:15.45	279.29	24.72	-49.9	-64.9	3.8	1.49e+00	0	41	104	0	70	21301
2026-01-22 02:50:16.46	279.09	24.60	-49.9	-64.9	3.8	1.49e+00	0	41	104	0	70	21305
2026-01-22 02:50:17.47	278.89	24.49	-49.9	-64.9	3.8	1.49e+00	0	41	104	0	70	21281
2026-01-22 02:50:18.48	278.69	24.38	-49.9	-64.9	3.8	1.49e+00	0	41	104	0	70	21271
2026-01-22 02:50:19.49	278.49	24.26	-49.9	-64.9	3.8	1.49e+00	0	41	104	0	70	21274
2026-01-22 02:50:20.49	278.29	24.15	-49.9	-64.9	3.8	1.49e+00	0	41	104	0	70	21282
2026-01-22 02:50:21.50	278.09	24.04	-49.9	-64.9	3.8	1.49e+00	0	41	104	0	70	21273
2026-01-22 02:50:22.50	277.90	23.93	-49.9	-64.8	3.8	1.49e+00	0	41	104	0	70	21252
2026-01-22 02:50:23.51	277.71	23.81	-49.9	-64.9	3.8	1.49e+00	0	41	104	0	70	21305
2026-01-22 02:50:24.52	277.51	23.70	-49.9	-64.9	3.8	1.49e+00	0	41	104	0	70	21293
2026-01-22 02:50:25.53	277.32	23.59	-49.9	-64.8	3.8	1.49e+00	0	41	104	0	70	21253
2026-01-22 02:50:26.54	277.13	23.48	-49.9	-64.9	3.8	1.49e+00	0	41	104	0	70	21289
2026-01-22 02:50:27.55	276.95	23.36	-49.9	-64.8	3.8	1.49e+00	0	41	104	0	70	21238
2026-01-22 02:50:28.56	276.76	23.25	-49.9	-64.8	3.8	1.49e+00	0	41	104	0	70	21235
2026-01-22 02:50:29.57	276.57	23.14	-49.9	-64.9	3.8	1.49e+00	0	41	104	0	70	21276
2026-01-22 02:50:30.57	276.39	23.03	-49.9	-64.9	3.8	1.49e+00	0	41	104	0	70	21272
2026-01-22 02:50:31.58	276.21	22.92	-49.9	-64.9	3.8	1.49e+00	0	41	104	0	70	21306
2026-01-22 02:50:32.59	276.03	22.81	-49.9	-64.8	3.8	1.49e+00	0	41	104	0	70	21251
2026-01-22 02:50:33.60	275.85	22.70	-49.9	-64.9	3.8	1.49e+00	0	41	104	0	70	21296
2026-01-22 02:50:34.61	275.67	22.58	-49.9	-64.9	3.8	1.49e+00	0	41	104	0	70	21280
2026-01-22 02:50:35.61	275.49	22.47	-49.9	-64.9	3.8	1.49e+00	0	41	104	0	70	21264
2026-01-22 02:50:36.62	275.31	22.36	-49.9	-64.8	3.8	1.49e+00	0	41	104	0	70	21243
2026-01-22 02:50:37.63	275.14	22.25	-49.9	-64.9	3.8	1.49e+00	0	41	104	0	70	21288
2026-01-22 02:50:38.64	274.97	22.14	-49.9	-64.8	3.8	1.49e+00	0	41	104	0	70	21242
2026-01-22 02:50:39.65	274.79	22.03	-49.9	-64.9	3.8	1.49e+00	0	41	104	0	70	21300
2026-01-22 02:50:40.65	274.62	21.92	-49.9	-64.8	3.8	1.49e+00	0	41	104	0	70	21217
2026-01-22 02:50:41.66	274.45	21.81	-49.9	-64.9	3.8	1.49e+00	0	41	104	0	70	21316
2026-01-22 02:50:42.67	274.28	21.70	-49.9	-64.8	3.8	1.49e+00	0	41	104	0	70	21230
2026-01-22 02:50:43.68	274.12	21.59	-49.9	-64.8	3.8	1.49e+00	0	41	104	0	70	21254
2026-01-22 02:50:44.69	273.95	21.49	-49.9	-64.9	3.8	1.49e+00	0	41	104	0	70	21322
2026-01-22 02:50:45.69	273.79	21.38	-49.9	-64.8	3.8	1.49e+00	0	41	104	0	70	21252
2026-01-22 02:50:46.70	273.62	21.27	-49.9	-64.9	3.8	1.49e+00	0	41	104	0	70	21268
2026-01-22 02:50:47.71	273.46	21.16	-49.9	-64.9	3.8	1.49e+00	0	41	104	0	70	21277
2026-01-22 02:50:48.72	273.30	21.05	-49.9	-64.9	3.8	1.49e+00	0	41	104	0	70	21269
2026-01-22 02:50:49.73	273.14	20.94	-49.9	-64.8	3.8	1.49e+00	0	41	104	0	70	21214
2026-01-22 02:50:50.73	272.98	20.84	-49.9	-64.8	3.8	1.49e+00	0	41	104	0	70	21256
2026-01-22 02:50:51.74	272.82	20.73	-49.9	-64.8	3.8	1.49e+00	0	41	104	0	70	21247
2026-01-22 02:50:52.75	272.66	20.62	-49.9	-64.8	3.8	1.49e+00	0	41	104	0	70	21246
2026-01-22 02:50:53.76	272.51	20.51	-49.9	-64.9	3.8	1.49e+00	0	41	104	0	70	21314
2026-01-22 02:50:54.77	272.35	20.41	-49.9	-64.9	3.8	1.49e+00	0	41	104	0	70	21304
2026-01-22 02:50:55.78	272.20	20.30	-49.9	-64.9	3.8	1.49e+00	0	41	104	0	70	21325
2026-01-22 02:50:56.79	272.04	20.19	-49.9	-64.9	3.8	1.49e+00	0	41	104	0	70	21266
2026-01-22 02:50:57.79	271.89	20.09	-49.9	-64.9	3.8	1.49e+00	0	41	104	0	70	21287
2026-01-22 02:50:58.80	271.74	19.98	-49.9	-64.9	3.8	1.49e+00	0	41	104	0	70	21283
2026-01-22 02:50:59.81	271.59	19.88	-49.9	-64.9	3.8	1.49e+00	0	41	104	0	70	21279
2026-01-22 02:51:00.82	271.44	19.77	-49.9	-64.8	3.8	1.49e+00	0	41	104	0	70	21238
2026-01-22 02:51:01.83	271.30	19.67	-49.9	-64.9	3.8	1.49e+00	0	41	104	0	70	21270
2026-01-22 02:51:02.84	271.15	19.56	-49.9	-64.9	3.8	1.49e+00	0	41	104	0	70	21320
2026-01-22 02:51:03.85	271.00	19.46	-49.9	-64.9	3.8	1.49e+00	0	41	104	0	70	21275
2026-01-22 02:51:04.86	270.86	19.35	-49.9	-64.9	3.8	1.49e+00	0	41	104	0	70	21287
2026-01-22 02:51:05.87	270.72	19.25	-49.9	-64.9	3.8	1.49e+00	0	41	104	0	70	21288
2026-01-22 02:51:06.87	270.58	19.14	-49.9	-64.8	3.8	1.49e+00	0	41	104	0	70	21248
2026-01-22 02:51:07.88	270.43	19.04	-49.9	-64.8	3.8	1.49e+00	0	41	104	0	70	21259
2026-01-22 02:51:08.89	270.29	18.94	-49.9	-64.8	3.8	1.49e+00	0	41	104	0	70	21242
2026-01-22 02:51:09.90	270.15	18.83	-49.9	-64.9	3.8	1.49e+00	0	41	104	0	70	21287
2026-01-22 02:51:10.91	270.01	18.73	-49.9	-64.8	3.8	1.49e+00	0	41	104	0	70	21259
2026-01-22 02:51:11.92	269.88	18.63	-49.9	-64.9	3.8	1.49e+00	0	41	104	0	70	21280
2026-01-22 02:51:12.93	269.74	18.52	-49.9	-64.9	3.8	1.49e+00	0	41	104	0	70	21296
2026-01-22 02:51:13.94	269.60	18.42	-49.9	-64.9	3.8	1.49e+00	0	41	104	0	70	21336
2026-01-22 02:51:14.95	269.47	18.32	-49.9	-64.9	3.8	1.49e+00	0	41	104	0	70	21332
2026-01-22 02:51:15.96	269.34	18.22	-49.9	-64.9	3.8	1.49e+00	0	41	104	0	70	21302
2026-01-22 02:51:16.97	269.20	18.12	-49.9	-64.9	3.8	1.49e+00	0	41	104	0	70	21275
2026-01-22 02:51:17.97	269.07	18.02	-49.9	-64.8	3.8	1.49e+00	0	41	104	0	70	21255
2026-01-22 02:51:18.98	268.94	17.92	-49.9	-64.9	3.8	1.49e+00	0	41	104	0	70	21263
2026-01-22 02:51:19.99	268.81	17.81	-49.9	-64.9	3.8	1.49e+00	0	41	104	0	70	21315
2026-01-22 02:51:21.00	268.68	17.71	-49.9	-64.8	3.8	1.49e+00	0	41	104	0	70	21243
2026-01-22 02:51:22.01	268.55	17.61	-49.9	-64.9	3.8	1.49e+00	0	41	104	0	70	21274
2026-01-22 02:51:23.02	268.42	17.51	-49.9	-64.8	3.8	1.49e+00	0	41	104	0	70	21240
2026-01-22 02:51:24.03	268.30	17.41	-49.9	-64.8	3.8	1.49e+00	0	41	104	0	70	21256
2026-01-22 02:51:25.03	268.17	17.32	-49.9	-64.9	3.8	1.49e+00	0	41	104	0	70	21332
2026-01-22 02:51:26.04	268.05	17.22	-49.9	-64.9	3.8	1.49e+00	0	41	104	0	70	21297
2026-01-22 02:51:27.05	267.92	17.12	-49.9	-64.9	3.8	1.49e+00	0	41	104	0	70	21297
2026-01-22 02:51:28.06	267.80	17.02	-49.9	-64.9	3.8	1.49e+00	0	41	104	0	70	21316
2026-01-22 02:51:29.07	267.68	16.92	-49.9	-64.8	3.8	1.49e+00	0	41	104	0	70	21240
2026-01-22 02:51:30.08	267.55	16.82	-49.9	-64.9	3.8	1.49e+00	0	41	104	0	70	21265
2026-01-22 02:51:31.09	267.43	16.72	-49.9	-64.9	3.8	1.49e+00	0	41	104	0	70	21285
2026-01-22 02:51:32.09	267.31	16.63	-49.9	-64.9	3.8	1.49e+00	0	41	104	0	70	21325
2026-01-22 02:51:33.10	267.19	16.53	-49.9	-64.9	3.8	1.49e+00	0	41	104	0	70	21276
2026-01-22 02:51:34.11	267.07	16.43	-49.9	-64.9	3.8	1.49e+00	0	41	104	0	70	21340
2026-01-22 02:51:35.12	266.96	16.34	-49.9	-64.9	3.8	1.49e+00	0	41	104	0	70	21291
2026-01-22 02:51:36.13	266.84	16.24	-49.9	-64.9	3.8	1.49e+00	0	41	104	0	70	21277
2026-01-22 02:51:37.14	266.72	16.14	-49.9	-64.9	3.8	1.49e+00	0	41	104	0	70	21311
2026-01-22 02:51:38.15	266.61	16.05	-49.9	-64.9	3.8	1.49e+00	0	41	104	0	70	21272
2026-01-22 02:51:39.16	266.49	15.95	-49.9	-64.9	3.8	1.49e+00	0	41	104	0	70	21291
2026-01-22 02:51:40.17	266.38	15.85	-49.9	-64.9	3.8	1.49e+00	0	41	104	0	70	21289
2026-01-22 02:51:41.17	266.27	15.76	-49.9	-64.9	3.8	1.49e+00	0	41	104	0	70	21280
2026-01-22 02:51:42.18	266.15	15.66	-49.9	-64.8	3.8	1.49e+00	0	41	104	0	70	21251
2026-01-22 02:51:43.19	266.04	15.57	-49.9	-64.9	3.8	1.49e+00	0	41	104	0	70	21274
2026-01-22 02:51:44.20	265.93	15.48	-49.9	-64.9	3.8	1.49e+00	0	41	104	0	70	21298
2026-01-22 02:51:45.21	265.82	15.38	-49.9	-64.9	3.8	1.49e+00	0	41	104	0	70	21280
2026-01-22 02:51:46.22	265.71	15.29	-49.9	-64.9	3.8	1.49e+00	0	41	104	0	70	21298
2026-01-22 02:51:47.23	265.60	15.19	-49.9	-64.8	3.8	1.49e+00	0	41	104	0	70	21218
2026-01-22 02:51:48.23	265.49	15.10	-49.9	-64.8	3.8	1.49e+00	0	41	104	0	70	21248
2026-01-22 02:51:49.24	265.39	15.01	-49.9	-64.9	3.8	1.49e+00	0	41	104	0	70	21299
2026-01-22 02:51:50.25	265.28	14.91	-49.9	-64.9	3.8	1.49e+00	0	41	104	0	70	21294
2026-01-22 02:51:51.26	265.17	14.82	-49.9	-64.9	3.8	1.49e+00	0	41	104	0	70	21293
2026-01-22 02:51:52.27	265.07	14.73	-49.9	-64.9	3.8	1.49e+00	0	41	104	0	70	21305
2026-01-22 02:51:53.27	264.96	14.64	-49.9	-64.9	3.8	1.49e+00	0	41	104	0	70	21312
2026-01-22 02:51:54.28	264.86	14.54	-49.9	-64.9	3.8	1.49e+00	0	41	104	0	70	21299
2026-01-22 02:51:55.29	264.75	14.45	-49.9	-64.9	3.8	1.49e+00	0	41	104	0	70	21299
2026-01-22 02:51:56.30	264.65	14.36	-49.9	-64.8	3.8	1.49e+00	0	41	104	0	70	21252
2026-01-22 02:51:57.31	264.55	14.27	-49.9	-64.8	3.8	1.49e+00	0	41	104	0	70	21254
2026-01-22 02:51:58.32	264.45	14.18	-49.9	-64.9	3.8	1.49e+00	0	41	104	0	70	21294
2026-01-22 02:51:59.33	264.35	14.09	-49.9	-64.9	3.8	1.49e+00	0	41	104	0	70	21328
2026-01-22 02:52:00.33	264.25	14.00	-49.9	-64.9	3.8	1.49e+00	0	41	104	0	70	21376
2026-01-22 02:52:01.34	264.15	13.91	-49.9	-64.9	3.8	1.49e+00	0	41	104	0	70	21271
2026-01-22 02:52:02.35	264.05	13.82	-49.9	-64.8	3.8	1.49e+00	0	41	104	0	70	21241
2026-01-22 02:52:03.36	263.95	13.73	-49.9	-64.9	3.8	1.49e+00	0	41	104	0	70	21277
2026-01-22 02:52:04.37	263.85	13.64	-49.9	-64.9	3.8	1.49e+00	0	41	104	0	70	21299
2026-01-22 02:52:05.37	263.76	13.55	-49.9	-64.9	3.8	1.49e+00	0	41	104	0	70	21307
2026-01-22 02:52:06.38	263.66	13.46	-49.9	-64.9	3.8	1.49e+00	0	41	104	0	70	21282
2026-01-22 02:52:07.39	263.56	13.37	-49.9	-64.9	3.8	1.49e+00	0	41	104	0	70	21280
2026-01-22 02:52:08.40	263.47	13.28	-49.9	-64.9	3.8	1.49e+00	0	41	104	0	70	21265
2026-01-22 02:52:09.41	263.37	13.19	-49.9	-64.8	3.8	1.49e+00	0	41	104	0	70	21228
2026-01-22 02:52:10.41	263.28	13.11	-49.9	-64.9	3.8	1.49e+00	0	41	104	0	70	21302
2026-01-22 02:52:11.42	263.18	13.02	-49.9	-64.9	3.8	1.49e+00	0	41	104	0	70	21299
2026-01-22 02:52:12.43	263.09	12.93	-49.9	-64.9	3.8	1.49e+00	0	41	104	0	70	21293
2026-01-22 02:52:13.44	263.00	12.84	-49.9	-64.9	3.8	1.49e+00	0	41	104	0	70	21297
2026-01-22 02:52:14.45	262.91	12.76	-49.9	-64.9	3.8	1.49e+00	0	41	104	0	70	21277
2026-01-22 02:52:15.45	262.82	12.67	-49.9	-64.8	3.8	1.49e+00	0	41	104	0	70	21257
2026-01-22 02:52:16.46	262.72	12.58	-49.9	-64.8	3.8	1.49e+00	0	41	104	0	70	21254
2026-01-22 02:52:17.47	262.63	12.50	-49.9	-64.9	3.8	1.49e+00	0	41	104	0	70	21263
2026-01-22 02:52:18.48	262.54	12.41	-49.9	-64.9	3.8	1.49e+00	0	41	104	0	70	21275
2026-01-22 02:52:19.49	262.46	12.32	-49.9	-64.9	3.8	1.49e+00	0	41	104	0	70	21274
2026-01-22 02:52:20.49	262.37	12.24	-49.9	-64.8	3.8	1.49e+00	0	41	104	0	70	21223
2026-01-22 02:52:21.50	262.28	12.15	-49.9	-64.9	3.8	1.49e+00	0	41	104	0	70	21321
2026-01-22 02:52:22.51	262.19	12.07	-49.9	-64.9	3.8	1.49e+00	0	41	104	0	70	21269
2026-01-22 02:52:23.52	262.10	11.98	-49.9	-64.9	3.8	1.49e+00	0	41	104	0	70	21270
2026-01-22 02:52:24.53	262.02	11.90	-49.9	-64.8	3.8	1.49e+00	0	41	104	0	70	21255
2026-01-22 02:52:25.54	261.93	11.81	-49.9	-64.9	3.8	1.49e+00	0	41	104	0	70	21263
2026-01-22 02:52:26.55	261.85	11.73	-49.9	-64.8	3.8	1.49e+00	0	41	104	0	70	21229
2026-01-22 02:52:27.56	261.76	11.65	-49.9	-64.9	3.8	1.49e+00	0	41	104	0	70	21282
2026-01-22 02:52:28.57	261.68	11.56	-49.9	-64.8	3.8	1.49e+00	0	41	104	0	70	21241
2026-01-22 02:52:29.58	261.59	11.48	-49.9	-64.9	3.8	1.49e+00	0	41	104	0	70	21299
2026-01-22 02:52:30.59	261.51	11.39	-49.9	-64.9	3.8	1.49e+00	0	41	104	0	70	21261
2026-01-22 02:52:31.59	261.43	11.31	-49.9	-64.9	3.8	1.49e+00	0	41	104	0	70	21319
2026-01-22 02:52:32.60	261.34	11.23	-49.9	-64.9	3.8	1.49e+00	0	41	104	0	70	21263
2026-01-22 02:52:33.61	261.26	11.15	-49.9	-64.9	3.8	1.49e+00	0	41	104	0	70	21302
2026-01-22 02:52:34.62	261.18	11.06	-49.9	-64.9	3.8	1.49e+00	0	41	104	0	70	21294
2026-01-22 02:52:35.63	261.10	10.98	-49.9	-64.9	3.8	1.49e+00	0	41	104	0	70	21284
2026-01-22 02:52:36.64	261.02	10.90	-49.9	-64.9	3.8	1.49e+00	0	41	104	0	70	21280
2026-01-22 02:52:37.65	260.94	10.82	-49.9	-64.9	3.8	1.49e+00	0	41	104	0	70	21270
2026-01-22 02:52:38.65	260.86	10.73	-49.9	-64.8	3.8	1.49e+00	0	41	104	0	70	21257
2026-01-22 02:52:39.66	260.78	10.65	-49.9	-64.9	3.8	1.49e+00	0	41	104	0	70	21289
2026-01-22 02:52:40.67	260.70	10.57	-49.9	-64.9	3.8	1.49e+00	0	41	104	0	70	21310
2026-01-22 02:52:41.68	260.62	10.49	-49.9	-64.9	3.8	1.49e+00	0	41	104	0	70	21288
2026-01-22 02:52:42.69	260.54	10.41	-49.9	-64.8	3.8	1.49e+00	0	41	104	0	70	21255
2026-01-22 02:52:43.70	260.46	10.33	-49.9	-64.9	3.8	1.49e+00	0	41	104	0	70	21318
2026-01-22 02:52:44.71	260.39	10.25	-49.9	-64.8	3.8	1.49e+00	0	41	104	0	70	21258
2026-01-22 02:52:45.72	260.31	10.17	-49.9	-64.9	3.8	1.49e+00	0	41	104	0	70	21285
2026-01-22 02:52:46.73	260.23	10.09	-49.9	-64.8	3.8	1.49e+00	0	41	104	0	70	21231
2026-01-22 02:52:47.73	260.16	10.01	-49.9	-64.9	3.8	1.49e+00	0	41	104	0	70	21314
2026-01-22 02:52:48.74	260.08	9.93	-49.9	-64.9	3.8	1.49e+00	0	41	104	0	70	21320
2026-01-22 02:52:49.75	260.01	9.85	-49.9	-64.9	3.8	1.49e+00	0	41	104	0	70	21309
2026-01-22 02:52:50.76	259.93	9.77	-49.9	-64.9	3.8	1.49e+00	0	41	104	0	70	21359
2026-01-22 02:52:51.77	259.86	9.69	-49.9	-64.8	3.8	1.49e+00	0	41	104	0	70	21229
2026-01-22 02:52:52.78	259.79	9.61	-49.9	-64.9	3.8	1.49e+00	0	41	104	0	70	21304
2026-01-22 02:52:53.79	259.71	9.53	-49.9	-64.9	3.8	1.49e+00	0	41	104	0	70	21277
2026-01-22 02:52:54.79	259.64	9.46	-49.9	-64.9	3.8	1.49e+00	0	41	104	0	70	21291
2026-01-22 02:52:55.80	259.57	9.38	-49.9	-64.9	3.8	1.49e+00	0	41	104	0	70	21265
2026-01-22 02:52:56.81	259.50	9.30	-49.9	-64.9	3.8	1.49e+00	0	41	104	0	70	21298
2026-01-22 02:52:57.82	259.42	9.22	-49.9	-64.9	3.8	1.49e+00	0	41	104	0	70	21296
2026-01-22 02:52:58.83	259.35	9.14	-49.9	-64.9	3.8	1.49e+00	0	41	104	0	70	21301
2026-01-22 02:52:59.83	259.28	9.07	-49.9	-64.9	3.8	1.49e+00	0	41	104	0	70	21262
2026-01-22 02:53:00.85	259.21	8.99	-49.9	-64.8	3.8	1.49e+00	0	41	104	0	70	21247
2026-01-22 02:53:01.85	259.14	8.91	-49.9	-64.9	3.8	1.49e+00	0	41	104	0	70	21330
2026-01-22 02:53:02.86	259.07	8.84	-49.9	-64.9	3.8	1.49e+00	0	41	104	0	70	21261
2026-01-22 02:53:03.87	259.00	8.76	-49.9	-64.9	3.8	1.49e+00	0	41	104	0	70	21372
2026-01-22 02:53:04.88	258.93	8.68	-49.9	-64.9	3.8	1.49e+00	0	41	104	0	70	21265
2026-01-22 02:53:05.89	258.87	8.61	-49.9	-64.9	3.8	1.49e+00	0	41	104	0	70	21286
2026-01-22 02:53:06.89	258.80	8.53	-49.9	-64.8	3.8	1.49e+00	0	41	104	0	70	21236
2026-01-22 02:53:07.90	258.73	8.45	-49.9	-64.9	3.8	1.49e+00	0	41	104	0	70	21274
2026-01-22 02:53:08.91	258.66	8.38	-49.9	-64.9	3.8	1.49e+00	0	41	104	0	70	21279
2026-01-22 02:53:09.92	258.60	8.30	-49.9	-64.8	3.8	1.49e+00	0	41	104	0	70	21252
2026-01-22 02:53:10.93	258.53	8.23	-49.9	-64.9	3.8	1.49e+00	0	41	104	0	70	21272
2026-01-22 02:53:11.93	258.46	8.15	-49.9	-64.9	3.8	1.49e+00	0	41	104	0	70	21264
2026-01-22 02:53:12.94	258.40	8.08	-49.9	-64.9	3.8	1.49e+00	0	41	104	0	70	21295
2026-01-22 02:53:13.95	258.33	8.00	-49.9	-64.8	3.8	1.49e+00	0	41	104	0	70	21247
2026-01-22 02:53:14.96	258.27	7.93	-49.9	-64.8	3.8	1.49e+00	0	41	104	0	70	21249
2026-01-22 02:53:15.96	258.20	7.86	-49.9	-64.9	3.8	1.49e+00	0	41	104	0	70	21268
2026-01-22 02:53:16.97	258.14	7.78	-49.9	-64.8	3.8	1.49e+00	0	41	104	0	70	21246
2026-01-22 02:53:17.98	258.07	7.71	-49.9	-64.9	3.8	1.49e+00	0	41	104	0	70	21265
2026-01-22 02:53:18.99	258.01	7.63	-49.9	-64.9	3.8	1.49e+00	0	41	104	0	70	21270
2026-01-22 02:53:20.00	257.94	7.56	-49.9	-64.8	3.8	1.49e+00	0	41	104	0	70	21230
2026-01-22 02:53:21.01	257.88	7.49	-49.9	-64.8	3.8	1.49e+00	0	41	104	0	70	21248
2026-01-22 02:53:22.01	257.82	7.41	-49.9	-64.9	3.8	1.49e+00	0	41	104	0	70	21264
2026-01-22 02:53:23.02	257.76	7.34	-49.9	-64.8	3.8	1.49e+00	0	41	104	0	70	21223
2026-01-22 02:53:24.03	257.69	7.27	-49.9	-64.9	3.8	1.49e+00	0	41	104	0	70	21270
2026-01-22 02:53:25.04	257.63	7.19	-49.9	-64.9	3.8	1.49e+00	0	41	104	0	70	21268
2026-01-22 02:53:26.05	257.57	7.12	-49.9	-64.8	3.8	1.49e+00	0	41	104	0	70	21254
2026-01-22 02:53:27.06	257.51	7.05	-49.9	-64.9	3.8	1.49e+00	0	41	104	0	70	21287
2026-01-22 02:53:28.07	257.45	6.98	-49.9	-64.9	3.8	1.49e+00	0	41	104	0	70	21274
2026-01-22 02:53:29.07	257.39	6.90	-49.9	-64.8	3.8	1.49e+00	0	41	104	0	70	21225
2026-01-22 02:53:30.08	257.33	6.83	-49.9	-64.8	3.8	1.49e+00	0	41	104	0	70	21243
2026-01-22 02:53:31.09	257.27	6.76	-49.9	-64.8	3.8	1.49e+00	0	41	104	0	70	21255
