passes_logs/2026/01/22/R3.2S_Murmansk/R3.2S_Murmansk__20260122_045833_FENGYUN_3D_rec.log

#Pass ID: 20260122_045833_FENGYUN 3D
#Satellite: FENGYUN 3D
#Configuration: FENGYUN 3D
#almurnet v.1.7.20251203
#Start time: 2026-01-22 04:58:33

#Version: 2.2.20231116
#Station: R3.2S_Murmansk
#Location: 33.079688 lon 68.888172 lat
#TLE: 1 43010U 17072A   26021.48744220  .00000253  00000+0  14133-3 0  9991
#TLE: 2 43010  98.9948 353.4037 0002485  97.2578 262.8880 14.19697766424177

#Time	Az	El	Level	Level2	SNR	BER	BlckErr	Temp	State	Recorded	gain1	gain2
2026-01-22 04:58:33.93	37.39	2.02	-50.0	-61.9	3.8	8.46e-01	0	39	0	0	70	15136
2026-01-22 04:58:34.93	37.35	2.08	-50.0	-61.9	3.8	8.46e-01	0	39	104	0	70	15210
2026-01-22 04:58:35.94	37.30	2.14	-50.0	-61.9	3.8	8.45e-01	0	39	104	0	70	15158
2026-01-22 04:58:36.95	37.26	2.20	-50.0	-61.9	3.8	8.47e-01	0	39	104	0	70	15172
2026-01-22 04:58:37.95	37.21	2.26	-50.0	-61.9	3.8	8.46e-01	0	39	104	0	70	15140
2026-01-22 04:58:38.96	37.17	2.33	-50.0	-61.9	3.8	8.47e-01	0	39	104	0	70	15141
2026-01-22 04:58:39.97	37.12	2.39	-50.0	-61.9	3.8	8.46e-01	0	39	104	0	70	15147
2026-01-22 04:58:40.98	37.07	2.45	-50.0	-61.9	3.8	8.46e-01	0	39	104	0	70	15109
2026-01-22 04:58:41.98	37.03	2.51	-50.0	-61.9	3.8	8.46e-01	0	39	104	0	70	15141
2026-01-22 04:58:42.99	36.98	2.57	-50.0	-61.9	3.8	8.46e-01	0	39	104	0	70	15125
2026-01-22 04:58:44.00	36.94	2.64	-50.0	-61.9	3.8	8.46e-01	0	39	104	0	70	15118
2026-01-22 04:58:45.01	36.89	2.70	-50.0	-62.0	3.8	8.46e-01	0	39	104	0	70	15226
2026-01-22 04:58:46.02	36.84	2.76	-50.0	-61.9	3.8	8.46e-01	0	39	104	0	70	15129
2026-01-22 04:58:47.02	36.80	2.82	-50.0	-61.9	3.8	8.46e-01	0	39	104	0	70	15145
2026-01-22 04:58:48.03	36.75	2.89	-50.0	-61.9	3.8	8.46e-01	0	39	104	0	70	15132
2026-01-22 04:58:49.04	36.70	2.95	-50.0	-61.9	3.8	8.45e-01	0	39	104	0	70	15126
2026-01-22 04:58:50.05	36.65	3.01	-50.0	-61.9	3.8	8.46e-01	0	39	104	0	70	15132
2026-01-22 04:58:51.06	36.61	3.07	-50.0	-61.9	3.8	8.46e-01	0	39	104	0	70	15107
2026-01-22 04:58:52.07	36.56	3.14	-50.0	-61.9	3.8	8.46e-01	0	40	104	0	70	15146
2026-01-22 04:58:53.08	36.51	3.20	-50.0	-61.9	3.8	8.45e-01	0	39	104	0	70	15158
2026-01-22 04:58:54.09	36.46	3.26	-50.0	-61.9	3.8	8.48e-01	0	39	104	0	70	15132
2026-01-22 04:58:55.09	36.41	3.33	-50.0	-61.9	3.8	8.45e-01	0	39	104	0	70	15151
2026-01-22 04:58:56.10	36.36	3.39	-50.0	-61.9	3.8	8.46e-01	0	39	104	0	70	15119
2026-01-22 04:58:57.11	36.32	3.45	-50.0	-61.9	3.8	8.47e-01	0	40	104	0	70	15195
2026-01-22 04:58:58.12	36.27	3.52	-50.0	-61.9	3.8	8.46e-01	0	40	104	0	70	15154
2026-01-22 04:58:59.13	36.22	3.58	-50.0	-61.9	3.8	8.45e-01	0	40	104	0	70	15110
2026-01-22 04:59:00.14	36.17	3.65	-50.0	-61.9	3.8	8.46e-01	0	40	104	0	70	15088
2026-01-22 04:59:01.15	36.12	3.71	-50.0	-61.9	3.8	8.46e-01	0	40	104	0	70	15143
2026-01-22 04:59:02.15	36.07	3.77	-50.0	-61.9	3.8	8.46e-01	0	40	104	0	70	15164
2026-01-22 04:59:03.16	36.02	3.84	-50.0	-61.9	3.8	8.47e-01	0	40	104	0	70	15132
2026-01-22 04:59:04.17	35.96	3.90	-50.0	-61.9	3.8	8.47e-01	0	40	104	0	70	15119
2026-01-22 04:59:05.18	35.91	3.97	-50.0	-61.9	3.8	8.47e-01	0	40	104	0	70	15139
2026-01-22 04:59:06.19	35.86	4.03	-50.0	-61.9	3.8	8.45e-01	0	40	104	0	70	15125
2026-01-22 04:59:07.20	35.81	4.10	-50.0	-61.9	3.8	8.46e-01	0	40	104	0	70	15120
2026-01-22 04:59:08.20	35.76	4.16	-50.0	-61.9	3.8	8.45e-01	0	40	104	0	70	15095
2026-01-22 04:59:09.21	35.71	4.23	-50.0	-61.9	3.8	8.47e-01	0	40	104	0	70	15144
2026-01-22 04:59:10.22	35.65	4.29	-50.0	-61.9	3.8	8.46e-01	0	40	104	0	70	15150
2026-01-22 04:59:11.23	35.60	4.36	-50.0	-61.9	3.8	8.47e-01	0	40	104	0	70	15147
2026-01-22 04:59:12.24	35.55	4.43	-50.0	-61.9	3.8	8.46e-01	0	40	104	0	70	15134
2026-01-22 04:59:13.25	35.50	4.49	-50.0	-61.9	3.8	8.46e-01	0	40	104	0	70	15121
2026-01-22 04:59:14.26	35.44	4.56	-50.0	-61.9	3.8	8.47e-01	0	40	104	0	70	15112
2026-01-22 04:59:15.27	35.39	4.62	-50.0	-61.9	3.8	8.45e-01	0	40	104	0	70	15182
2026-01-22 04:59:16.28	35.33	4.69	-50.0	-61.9	3.8	8.46e-01	0	40	104	0	70	15134
2026-01-22 04:59:17.29	35.28	4.76	-50.0	-61.9	3.8	8.45e-01	0	40	104	0	70	15147
2026-01-22 04:59:18.30	35.23	4.82	-50.0	-61.9	3.8	8.45e-01	0	40	104	0	70	15145
2026-01-22 04:59:19.31	35.17	4.89	-50.0	-61.9	3.8	8.47e-01	0	40	104	0	70	15156
2026-01-22 04:59:20.31	35.12	4.96	-50.0	-61.9	3.8	8.47e-01	0	40	104	0	70	15174
2026-01-22 04:59:21.32	35.06	5.02	-50.0	-61.9	3.8	8.46e-01	0	40	104	0	70	15179
2026-01-22 04:59:22.33	35.01	5.09	-50.0	-61.9	3.8	8.46e-01	0	40	104	0	70	15131
2026-01-22 04:59:23.34	34.95	5.16	-50.0	-61.9	3.8	8.46e-01	0	40	104	0	70	15152
2026-01-22 04:59:24.35	34.89	5.23	-50.0	-61.9	3.8	8.46e-01	0	40	104	0	70	15145
2026-01-22 04:59:25.35	34.84	5.29	-50.0	-61.9	3.8	8.46e-01	0	40	104	0	70	15150
2026-01-22 04:59:26.36	34.78	5.36	-50.0	-61.9	3.8	8.46e-01	0	40	104	0	70	15138
2026-01-22 04:59:27.37	34.73	5.43	-50.0	-61.9	3.8	8.46e-01	0	40	104	0	70	15134
2026-01-22 04:59:28.38	34.67	5.50	-50.0	-61.9	3.8	8.46e-01	0	40	104	0	70	15097
2026-01-22 04:59:29.38	34.61	5.56	-50.0	-61.9	3.8	8.45e-01	0	40	104	0	70	15132
2026-01-22 04:59:30.39	34.55	5.63	-50.0	-61.9	3.8	8.46e-01	0	40	104	0	70	15149
2026-01-22 04:59:31.40	34.50	5.70	-50.0	-61.9	3.8	8.46e-01	0	40	104	0	70	15142
2026-01-22 04:59:32.41	34.44	5.77	-50.0	-61.9	3.8	8.46e-01	0	40	104	0	70	15115
2026-01-22 04:59:33.42	34.38	5.84	-50.0	-61.9	3.8	8.48e-01	0	40	104	0	70	15130
2026-01-22 04:59:34.43	34.32	5.91	-50.0	-61.9	3.8	8.46e-01	0	40	104	0	70	15162
2026-01-22 04:59:35.43	34.26	5.98	-50.0	-61.9	3.8	8.46e-01	0	40	104	0	70	15129
2026-01-22 04:59:36.44	34.20	6.05	-50.0	-61.9	3.8	8.45e-01	0	40	104	0	70	15150
2026-01-22 04:59:37.45	34.14	6.11	-50.0	-61.9	3.8	8.46e-01	0	40	104	0	70	15125
2026-01-22 04:59:38.46	34.08	6.18	-50.0	-61.9	3.8	8.47e-01	0	40	104	0	70	15083
2026-01-22 04:59:39.47	34.02	6.25	-50.0	-61.9	3.8	8.46e-01	0	40	104	0	70	15130
2026-01-22 04:59:40.48	33.96	6.32	-50.0	-61.9	3.8	8.45e-01	0	40	104	0	70	15128
2026-01-22 04:59:41.49	33.90	6.39	-50.0	-61.9	3.8	8.46e-01	0	40	104	0	70	15149
2026-01-22 04:59:42.49	33.84	6.46	-50.0	-61.9	3.8	8.46e-01	0	40	104	0	70	15094
2026-01-22 04:59:43.50	33.78	6.53	-50.0	-61.9	3.8	8.45e-01	0	40	104	0	70	15098
2026-01-22 04:59:44.51	33.71	6.60	-50.0	-61.9	3.8	8.47e-01	0	40	104	0	70	15073
2026-01-22 04:59:45.52	33.65	6.67	-50.0	-61.9	3.8	8.45e-01	0	40	104	0	70	15136
2026-01-22 04:59:46.53	33.59	6.75	-50.0	-61.9	3.8	8.47e-01	0	40	104	0	70	15129
2026-01-22 04:59:47.53	33.53	6.82	-50.0	-61.9	3.8	8.46e-01	0	40	104	0	70	15132
2026-01-22 04:59:48.54	33.46	6.89	-50.0	-61.9	3.8	8.47e-01	0	40	104	0	70	15129
2026-01-22 04:59:49.55	33.40	6.96	-50.0	-61.9	3.8	8.46e-01	0	40	104	0	70	15159
2026-01-22 04:59:50.56	33.34	7.03	-50.0	-61.9	3.8	8.46e-01	0	40	104	0	70	15138
2026-01-22 04:59:51.57	33.27	7.10	-50.0	-61.9	3.8	8.46e-01	0	40	104	0	70	15154
2026-01-22 04:59:52.57	33.21	7.17	-50.0	-61.9	3.8	8.46e-01	0	40	104	0	70	15148
2026-01-22 04:59:53.58	33.14	7.24	-50.0	-61.9	3.8	8.45e-01	0	40	104	0	70	15143
2026-01-22 04:59:54.59	33.08	7.32	-50.0	-61.9	3.8	8.46e-01	0	40	104	0	70	15154
2026-01-22 04:59:55.60	33.01	7.39	-50.0	-61.9	3.8	8.48e-01	0	40	104	0	70	15156
2026-01-22 04:59:56.60	32.95	7.46	-50.0	-61.9	3.8	8.46e-01	0	40	104	0	70	15140
2026-01-22 04:59:57.61	32.88	7.53	-50.0	-61.9	3.8	8.47e-01	0	41	104	0	70	15149
2026-01-22 04:59:58.62	32.81	7.61	-50.0	-61.9	3.8	8.47e-01	0	40	104	0	70	15146
2026-01-22 04:59:59.63	32.75	7.68	-50.0	-61.9	3.8	8.46e-01	0	40	104	0	70	15150
2026-01-22 05:00:00.64	32.68	7.75	-50.0	-61.9	3.8	8.47e-01	0	40	104	0	70	15124
2026-01-22 05:00:01.65	32.61	7.83	-50.0	-61.9	3.8	8.45e-01	0	40	104	0	70	15156
2026-01-22 05:00:02.65	32.54	7.90	-50.0	-61.9	3.8	8.46e-01	0	40	104	0	70	15155
2026-01-22 05:00:03.66	32.48	7.97	-50.0	-61.9	3.8	8.46e-01	0	40	104	0	70	15198
2026-01-22 05:00:04.67	32.41	8.05	-50.0	-61.9	3.8	8.46e-01	0	40	104	0	70	15172
2026-01-22 05:00:05.68	32.34	8.12	-50.0	-61.9	3.8	8.46e-01	0	40	104	0	70	15160
2026-01-22 05:00:06.68	32.27	8.19	-50.0	-61.9	3.8	8.45e-01	0	40	104	0	70	15157
2026-01-22 05:00:07.69	32.20	8.27	-50.0	-61.9	3.8	8.47e-01	0	40	104	0	70	15135
2026-01-22 05:00:08.70	32.13	8.34	-50.0	-61.9	3.8	8.46e-01	0	40	104	0	70	15102
2026-01-22 05:00:09.71	32.06	8.42	-50.0	-61.9	3.8	8.46e-01	0	40	104	0	70	15150
2026-01-22 05:00:10.72	31.99	8.49	-50.0	-61.9	3.8	8.47e-01	0	41	104	0	70	15102
2026-01-22 05:00:11.73	31.91	8.57	-50.0	-61.9	3.8	8.46e-01	0	40	104	0	70	15104
2026-01-22 05:00:12.73	31.84	8.64	-50.0	-61.9	3.8	8.46e-01	0	41	104	0	70	15154
2026-01-22 05:00:13.74	31.77	8.72	-50.0	-61.9	3.8	8.45e-01	0	41	104	0	70	15138
2026-01-22 05:00:14.75	31.70	8.79	-50.0	-61.9	3.8	8.46e-01	0	40	104	0	70	15177
2026-01-22 05:00:15.76	31.63	8.87	-50.0	-61.9	3.8	8.47e-01	0	40	104	0	70	15175
2026-01-22 05:00:16.77	31.55	8.94	-50.0	-61.9	3.8	8.46e-01	0	41	104	0	70	15104
2026-01-22 05:00:17.77	31.48	9.02	-50.0	-61.9	3.8	8.46e-01	0	41	104	0	70	15099
2026-01-22 05:00:18.78	31.40	9.10	-50.0	-61.9	3.8	8.46e-01	0	41	104	0	70	15157
2026-01-22 05:00:19.79	31.33	9.17	-50.0	-61.9	3.8	8.45e-01	0	41	104	0	70	15140
2026-01-22 05:00:20.80	31.25	9.25	-50.0	-61.9	3.8	8.46e-01	0	41	104	0	70	15159
2026-01-22 05:00:21.81	31.18	9.33	-50.0	-61.9	3.8	8.46e-01	0	40	104	0	70	15193
2026-01-22 05:00:22.81	31.10	9.40	-50.0	-61.9	3.8	8.46e-01	0	41	104	0	70	15150
2026-01-22 05:00:23.82	31.03	9.48	-50.0	-61.9	3.8	8.46e-01	0	41	104	0	70	15146
2026-01-22 05:00:24.83	30.95	9.56	-50.0	-61.9	3.8	8.46e-01	0	41	104	0	70	15132
2026-01-22 05:00:25.84	30.87	9.63	-50.0	-61.9	3.8	8.46e-01	0	41	104	0	70	15134
2026-01-22 05:00:26.85	30.80	9.71	-50.0	-61.9	3.8	8.48e-01	0	41	104	0	70	15191
2026-01-22 05:00:27.85	30.72	9.79	-50.0	-61.9	3.8	8.47e-01	0	41	104	0	70	15173
2026-01-22 05:00:28.86	30.64	9.87	-50.0	-61.9	3.8	8.46e-01	0	41	104	0	70	15157
2026-01-22 05:00:29.87	30.56	9.95	-50.0	-61.9	3.8	8.47e-01	0	41	104	0	70	15185
2026-01-22 05:00:30.88	30.48	10.02	-50.0	-61.9	3.8	8.47e-01	0	41	104	0	70	15168
2026-01-22 05:00:31.89	30.40	10.10	-50.0	-61.9	3.8	8.46e-01	0	40	104	0	70	15127
2026-01-22 05:00:32.89	30.32	10.18	-50.0	-61.9	3.8	8.45e-01	0	41	104	0	70	15162
2026-01-22 05:00:33.90	30.24	10.26	-50.0	-61.9	3.8	8.46e-01	0	40	104	0	70	15201
2026-01-22 05:00:34.91	30.16	10.34	-50.0	-61.9	3.8	8.45e-01	0	40	104	0	70	15133
2026-01-22 05:00:35.92	30.08	10.42	-50.0	-61.9	3.8	8.46e-01	0	41	104	0	70	15148
2026-01-22 05:00:36.93	30.00	10.50	-50.0	-61.9	3.8	8.46e-01	0	41	104	0	70	15176
2026-01-22 05:00:37.93	29.91	10.58	-50.0	-61.9	3.8	8.46e-01	0	41	104	0	70	15190
2026-01-22 05:00:38.95	29.83	10.66	-50.0	-61.9	3.8	8.46e-01	0	41	104	0	70	15141
2026-01-22 05:00:39.95	29.75	10.74	-50.0	-61.9	3.8	8.47e-01	0	41	104	0	70	15194
2026-01-22 05:00:40.96	29.66	10.82	-50.0	-61.9	3.8	8.48e-01	0	40	104	0	70	15196
2026-01-22 05:00:41.97	29.58	10.90	-50.0	-61.9	3.8	8.46e-01	0	41	104	0	70	15159
2026-01-22 05:00:42.98	29.49	10.98	-50.0	-61.9	3.8	8.46e-01	0	41	104	0	70	15121
2026-01-22 05:00:43.99	29.41	11.06	-50.0	-61.9	3.8	8.46e-01	0	41	104	0	70	15127
2026-01-22 05:00:44.99	29.32	11.14	-50.0	-61.9	3.8	8.45e-01	0	40	104	0	70	15140
2026-01-22 05:00:46.00	29.24	11.22	-50.0	-61.9	3.8	8.47e-01	0	41	104	0	70	15160
2026-01-22 05:00:47.01	29.15	11.31	-50.0	-61.9	3.8	8.46e-01	0	41	104	0	70	15129
2026-01-22 05:00:48.02	29.06	11.39	-50.0	-61.9	3.8	8.46e-01	0	41	104	0	70	15179
2026-01-22 05:00:49.03	28.97	11.47	-50.0	-61.9	3.8	8.47e-01	0	41	104	0	70	15157
2026-01-22 05:00:50.03	28.89	11.55	-50.0	-61.9	3.8	8.46e-01	0	41	104	0	70	15141
2026-01-22 05:00:51.04	28.80	11.63	-50.0	-61.9	3.8	8.45e-01	0	41	104	0	70	15147
2026-01-22 05:00:52.05	28.71	11.72	-50.0	-61.9	3.8	8.46e-01	0	40	104	0	70	15151
2026-01-22 05:00:53.06	28.62	11.80	-50.0	-61.9	3.8	8.46e-01	0	41	104	0	70	15177
2026-01-22 05:00:54.07	28.53	11.88	-50.0	-61.9	3.8	8.45e-01	0	41	104	0	70	15168
2026-01-22 05:00:55.08	28.44	11.97	-50.0	-61.9	3.8	8.46e-01	0	41	104	0	70	15188
2026-01-22 05:00:56.09	28.34	12.05	-50.0	-61.9	3.8	8.46e-01	0	41	104	0	70	15160
2026-01-22 05:00:57.09	28.25	12.13	-50.0	-61.9	3.8	8.45e-01	0	41	104	0	70	15146
2026-01-22 05:00:58.10	28.16	12.22	-50.0	-61.9	3.8	8.46e-01	0	41	104	0	70	15144
2026-01-22 05:00:59.11	28.07	12.30	-50.0	-61.9	3.8	8.46e-01	0	41	104	0	70	15154
2026-01-22 05:01:00.12	27.97	12.39	-50.0	-61.9	3.8	8.46e-01	0	41	104	0	70	15151
2026-01-22 05:01:01.13	27.88	12.47	-50.0	-61.9	3.8	8.45e-01	0	41	104	0	70	15155
2026-01-22 05:01:02.14	27.78	12.56	-50.0	-61.9	3.8	8.46e-01	0	41	104	0	70	15149
2026-01-22 05:01:03.15	27.69	12.64	-50.0	-61.9	3.8	8.45e-01	0	41	104	0	70	15158
2026-01-22 05:01:04.15	27.59	12.73	-50.0	-61.9	3.8	8.47e-01	0	41	104	0	70	15186
2026-01-22 05:01:05.16	27.50	12.81	-50.0	-61.9	3.8	8.47e-01	0	41	104	0	70	15169
2026-01-22 05:01:06.17	27.40	12.90	-50.0	-61.9	3.8	8.46e-01	0	41	104	0	70	15163
2026-01-22 05:01:07.18	27.30	12.98	-50.0	-61.9	3.8	8.46e-01	0	41	104	0	70	15180
2026-01-22 05:01:08.19	27.20	13.07	-50.0	-61.9	3.8	8.46e-01	0	41	104	0	70	15158
2026-01-22 05:01:09.19	27.10	13.16	-50.0	-61.9	3.8	8.46e-01	0	41	104	0	70	15180
2026-01-22 05:01:10.20	27.00	13.24	-50.0	-61.9	3.8	8.46e-01	0	41	104	0	70	15141
2026-01-22 05:01:11.21	26.90	13.33	-50.0	-61.9	3.8	8.45e-01	0	41	104	0	70	15135
2026-01-22 05:01:12.22	26.80	13.42	-50.0	-61.9	3.8	8.45e-01	0	41	104	0	70	15145
2026-01-22 05:01:13.22	26.70	13.50	-50.0	-61.9	3.8	8.47e-01	0	41	104	0	70	15112
2026-01-22 05:01:14.23	26.60	13.59	-50.0	-61.9	3.8	8.45e-01	0	41	104	0	70	15165
2026-01-22 05:01:15.24	26.50	13.68	-50.0	-61.9	3.8	8.45e-01	0	41	104	0	70	15176
2026-01-22 05:01:16.25	26.39	13.77	-50.0	-61.9	3.8	8.46e-01	0	41	104	0	70	15185
2026-01-22 05:01:17.26	26.29	13.85	-50.0	-61.9	3.8	8.46e-01	0	41	104	0	70	15184
2026-01-22 05:01:18.27	26.19	13.94	-50.0	-61.9	3.8	8.46e-01	0	41	104	0	70	15082
2026-01-22 05:01:19.27	26.08	14.03	-50.0	-61.9	3.8	8.46e-01	0	41	104	0	70	15157
2026-01-22 05:01:20.28	25.97	14.12	-50.0	-61.9	3.8	8.47e-01	0	41	104	0	70	15161
2026-01-22 05:01:21.29	25.87	14.21	-50.0	-61.9	3.8	8.46e-01	0	41	104	0	70	15174
2026-01-22 05:01:22.30	25.76	14.30	-50.0	-61.9	3.8	8.46e-01	0	41	104	0	70	15166
2026-01-22 05:01:23.31	25.65	14.39	-50.0	-61.9	3.8	8.46e-01	0	41	104	0	70	15130
2026-01-22 05:01:24.31	25.54	14.48	-50.0	-61.9	3.8	8.46e-01	0	41	104	0	70	15199
2026-01-22 05:01:25.32	25.44	14.57	-50.0	-61.9	3.8	8.45e-01	0	41	104	0	70	15175
2026-01-22 05:01:26.33	25.33	14.66	-50.0	-61.9	3.8	8.47e-01	0	41	104	0	70	15186
2026-01-22 05:01:27.33	25.22	14.75	-50.0	-61.9	3.8	8.46e-01	0	41	104	0	70	15182
2026-01-22 05:01:28.34	25.10	14.84	-50.0	-61.9	3.8	8.46e-01	0	41	104	0	70	15147
2026-01-22 05:01:29.35	24.99	14.93	-50.0	-61.9	3.8	8.46e-01	0	41	104	0	70	15167
2026-01-22 05:01:30.36	24.88	15.02	-50.0	-61.9	3.8	8.46e-01	0	41	104	0	70	15145
2026-01-22 05:01:31.37	24.77	15.11	-50.0	-61.9	3.8	8.46e-01	0	41	104	0	70	15214
2026-01-22 05:01:32.38	24.65	15.20	-50.0	-61.9	3.8	8.46e-01	0	41	104	0	70	15188
2026-01-22 05:01:33.39	24.54	15.29	-50.0	-61.9	3.8	8.46e-01	0	41	104	0	70	15181
2026-01-22 05:01:34.40	24.42	15.39	-50.0	-61.9	3.8	8.46e-01	0	41	104	0	70	15197
2026-01-22 05:01:35.41	24.30	15.48	-50.0	-61.9	3.8	8.46e-01	0	41	104	0	70	15207
2026-01-22 05:01:36.41	24.19	15.57	-50.0	-61.9	3.8	8.47e-01	0	41	104	0	70	15170
2026-01-22 05:01:37.42	24.07	15.66	-50.0	-61.9	3.8	8.46e-01	0	41	104	0	70	15168
2026-01-22 05:01:38.43	23.95	15.76	-50.0	-61.9	3.8	8.46e-01	0	41	104	0	70	15201
2026-01-22 05:01:39.44	23.83	15.85	-50.0	-61.9	3.8	8.46e-01	0	41	104	0	70	15171
2026-01-22 05:01:40.44	23.71	15.94	-50.0	-61.9	3.8	8.46e-01	0	41	104	0	70	15162
2026-01-22 05:01:41.45	23.59	16.04	-50.0	-61.9	3.8	8.45e-01	0	41	104	0	70	15177
2026-01-22 05:01:42.46	23.47	16.13	-50.0	-61.9	3.8	8.45e-01	0	41	104	0	70	15126
2026-01-22 05:01:43.47	23.35	16.22	-50.0	-61.9	3.8	8.46e-01	0	41	104	0	70	15148
2026-01-22 05:01:44.48	23.22	16.32	-50.0	-61.9	3.8	8.47e-01	0	41	104	0	70	15150
2026-01-22 05:01:45.49	23.10	16.41	-50.0	-61.9	3.8	8.47e-01	0	41	104	0	70	15117
2026-01-22 05:01:46.49	22.98	16.51	-50.0	-61.9	3.8	8.45e-01	0	41	104	0	70	15169
2026-01-22 05:01:47.50	22.85	16.60	-50.0	-61.9	3.8	8.45e-01	0	41	104	0	70	15140
2026-01-22 05:01:48.51	22.72	16.70	-50.0	-61.9	3.8	8.45e-01	0	41	104	0	70	15183
2026-01-22 05:01:49.52	22.60	16.79	-50.0	-61.9	3.8	8.46e-01	0	41	104	0	70	15200
2026-01-22 05:01:50.53	22.47	16.89	-50.0	-61.9	3.8	8.47e-01	0	41	104	0	70	15164
2026-01-22 05:01:51.53	22.34	16.98	-50.0	-62.0	3.8	8.47e-01	0	41	104	0	70	15249
2026-01-22 05:01:52.54	22.21	17.08	-50.0	-61.9	3.8	8.48e-01	0	41	104	0	70	15193
2026-01-22 05:01:53.55	22.08	17.17	-50.0	-61.9	3.8	8.46e-01	0	41	104	0	70	15178
2026-01-22 05:01:54.56	21.95	17.27	-50.0	-61.9	3.8	8.45e-01	0	41	104	0	70	15194
2026-01-22 05:01:55.57	21.81	17.37	-50.0	-61.9	3.8	8.47e-01	0	41	104	0	70	15222
2026-01-22 05:01:56.57	21.68	17.46	-50.0	-61.9	3.8	8.47e-01	0	41	104	0	70	15210
2026-01-22 05:01:57.58	21.55	17.56	-50.0	-62.0	3.8	8.46e-01	0	41	104	0	70	15235
2026-01-22 05:01:58.59	21.41	17.66	-50.0	-61.9	3.8	8.46e-01	0	41	104	0	70	15156
2026-01-22 05:01:59.59	21.28	17.76	-50.0	-61.9	3.8	8.48e-01	0	41	104	0	70	15195
2026-01-22 05:02:00.60	21.14	17.85	-50.0	-61.9	3.8	8.47e-01	0	41	104	0	70	15188
2026-01-22 05:02:01.61	21.00	17.95	-50.0	-61.9	3.8	8.46e-01	0	41	104	0	70	15125
2026-01-22 05:02:02.62	20.86	18.05	-50.0	-61.9	3.8	8.47e-01	0	41	104	0	70	15170
2026-01-22 05:02:03.63	20.72	18.15	-50.0	-61.9	3.8	8.46e-01	0	41	104	0	70	15188
2026-01-22 05:02:04.63	20.59	18.25	-50.0	-61.9	3.8	8.47e-01	0	41	104	0	70	15168
2026-01-22 05:02:05.64	20.44	18.35	-50.0	-61.9	3.8	8.46e-01	0	41	104	0	70	15204
2026-01-22 05:02:06.65	20.30	18.44	-50.0	-61.9	3.8	8.46e-01	0	41	104	0	70	15204
2026-01-22 05:02:07.66	20.16	18.54	-50.0	-61.9	3.8	8.47e-01	0	41	104	0	70	15174
2026-01-22 05:02:08.66	20.01	18.64	-50.0	-62.0	3.8	8.46e-01	0	41	104	0	70	15234
2026-01-22 05:02:09.67	19.87	18.74	-50.0	-61.9	3.8	8.46e-01	0	41	104	0	70	15152
2026-01-22 05:02:10.68	19.72	18.84	-50.0	-61.9	3.8	8.46e-01	0	41	104	0	70	15214
2026-01-22 05:02:11.69	19.58	18.94	-50.0	-61.9	3.8	8.46e-01	0	41	104	0	70	15174
2026-01-22 05:02:12.70	19.43	19.04	-50.0	-61.9	3.8	8.47e-01	0	41	104	0	70	15166
2026-01-22 05:02:13.71	19.28	19.14	-50.0	-61.9	3.8	8.46e-01	0	41	104	0	70	15157
2026-01-22 05:02:14.72	19.13	19.24	-50.0	-61.9	3.8	8.46e-01	0	41	104	0	70	15143
2026-01-22 05:02:15.73	18.98	19.35	-50.0	-61.9	3.8	8.47e-01	0	41	104	0	70	15157
2026-01-22 05:02:16.73	18.82	19.45	-50.0	-61.9	3.8	8.46e-01	0	41	104	0	70	15215
2026-01-22 05:02:17.74	18.67	19.55	-50.0	-61.9	3.8	8.46e-01	0	41	104	0	70	15207
2026-01-22 05:02:18.75	18.52	19.65	-50.0	-61.9	3.8	8.47e-01	0	41	104	0	70	15178
2026-01-22 05:02:19.76	18.36	19.75	-50.0	-61.9	3.8	8.47e-01	0	41	104	0	70	15196
2026-01-22 05:02:20.77	18.20	19.85	-50.0	-61.9	3.8	8.47e-01	0	41	104	0	70	15149
2026-01-22 05:02:21.77	18.05	19.95	-50.0	-61.9	3.8	8.45e-01	0	41	104	0	70	15182
2026-01-22 05:02:22.78	17.89	20.06	-50.0	-61.9	3.8	8.47e-01	0	41	104	0	70	15168
2026-01-22 05:02:23.79	17.73	20.16	-50.0	-61.9	3.8	8.46e-01	0	41	104	0	70	15112
2026-01-22 05:02:24.80	17.57	20.26	-50.0	-61.9	3.8	8.46e-01	0	41	104	0	70	15201
2026-01-22 05:02:25.81	17.41	20.36	-50.0	-61.9	3.8	8.44e-01	0	41	104	0	70	15178
2026-01-22 05:02:26.81	17.24	20.47	-50.0	-61.9	3.8	8.46e-01	0	41	104	0	70	15209
2026-01-22 05:02:27.82	17.08	20.57	-50.0	-61.9	3.8	8.46e-01	0	41	104	0	70	15171
2026-01-22 05:02:28.83	16.91	20.67	-50.0	-61.9	3.8	8.47e-01	0	41	104	0	70	15199
2026-01-22 05:02:29.84	16.75	20.78	-50.0	-61.9	3.8	8.47e-01	0	41	104	0	70	15193
2026-01-22 05:02:30.85	16.58	20.88	-50.0	-61.9	3.8	8.45e-01	0	41	104	0	70	15203
2026-01-22 05:02:31.86	16.41	20.98	-50.0	-61.9	3.8	8.46e-01	0	41	104	0	70	15195
2026-01-22 05:02:32.87	16.24	21.09	-50.0	-61.9	3.8	8.45e-01	0	41	104	0	70	15177
2026-01-22 05:02:33.87	16.07	21.19	-50.0	-61.9	3.8	8.46e-01	0	41	104	0	70	15155
2026-01-22 05:02:34.88	15.90	21.30	-50.0	-61.9	3.8	8.45e-01	0	41	104	0	70	15174
2026-01-22 05:02:35.89	15.73	21.40	-50.0	-61.9	3.8	8.46e-01	0	41	104	0	70	15174
2026-01-22 05:02:36.90	15.55	21.51	-50.0	-61.9	3.8	8.47e-01	0	41	104	0	70	15169
2026-01-22 05:02:37.91	15.38	21.61	-50.0	-61.9	3.8	8.47e-01	0	41	104	0	70	15175
2026-01-22 05:02:38.92	15.20	21.72	-50.0	-61.9	3.8	8.46e-01	0	41	104	0	70	15175
2026-01-22 05:02:39.93	15.02	21.82	-50.0	-61.9	3.8	8.45e-01	0	41	104	0	70	15157
2026-01-22 05:02:40.94	14.84	21.93	-50.0	-61.9	3.8	8.46e-01	0	41	104	0	70	15143
2026-01-22 05:02:41.95	14.66	22.03	-50.0	-62.0	3.8	8.47e-01	0	41	104	0	70	15227
2026-01-22 05:02:42.96	14.48	22.14	-50.0	-61.9	3.8	8.46e-01	0	41	104	0	70	15146
2026-01-22 05:02:43.97	14.29	22.24	-50.0	-61.9	3.8	8.46e-01	0	41	104	0	70	15147
2026-01-22 05:02:44.98	14.11	22.35	-50.0	-61.9	3.8	8.47e-01	0	41	104	0	70	15145
2026-01-22 05:02:45.99	13.92	22.45	-50.0	-61.9	3.8	8.46e-01	0	41	104	0	70	15140
2026-01-22 05:02:47.00	13.74	22.56	-50.0	-61.9	3.8	8.46e-01	0	41	104	0	70	15154
2026-01-22 05:02:48.01	13.55	22.67	-50.0	-61.9	3.8	8.46e-01	0	41	104	0	70	15145
2026-01-22 05:02:49.02	13.36	22.77	-50.0	-61.9	3.8	8.46e-01	0	41	104	0	70	15169
2026-01-22 05:02:50.03	13.17	22.88	-50.0	-61.9	3.8	8.45e-01	0	41	104	0	70	15183
2026-01-22 05:02:51.04	12.97	22.98	-50.0	-61.9	3.8	8.45e-01	0	41	104	0	70	15218
2026-01-22 05:02:52.04	12.78	23.09	-50.0	-61.9	3.8	8.47e-01	0	41	104	0	70	15142
2026-01-22 05:02:53.05	12.59	23.20	-50.0	-61.9	3.8	8.45e-01	0	41	104	0	70	15184
2026-01-22 05:02:54.06	12.39	23.30	-50.0	-61.9	3.8	8.47e-01	0	41	104	0	70	15181
2026-01-22 05:02:55.07	12.19	23.41	-50.0	-61.9	3.8	8.47e-01	0	41	104	0	70	15155
2026-01-22 05:02:56.08	11.99	23.52	-50.0	-61.9	3.8	8.47e-01	0	41	104	0	70	15205
2026-01-22 05:02:57.09	11.79	23.62	-50.0	-61.9	3.8	8.46e-01	0	41	104	0	70	15188
2026-01-22 05:02:58.09	11.59	23.73	-50.0	-61.9	3.8	8.46e-01	0	41	104	0	70	15162
2026-01-22 05:02:59.11	11.39	23.84	-50.0	-61.9	3.8	8.46e-01	0	41	104	0	70	15159
2026-01-22 05:03:00.11	11.18	23.94	-50.0	-61.9	3.8	8.46e-01	0	41	104	0	70	15132
2026-01-22 05:03:01.12	10.98	24.05	-50.0	-61.9	3.8	8.46e-01	0	41	104	0	70	15180
2026-01-22 05:03:02.13	10.77	24.16	-50.0	-61.9	3.8	8.46e-01	0	41	104	0	70	15151
2026-01-22 05:03:03.14	10.56	24.26	-50.0	-61.9	3.8	8.47e-01	0	41	104	0	70	15166
2026-01-22 05:03:04.15	10.35	24.37	-50.0	-61.9	3.8	8.46e-01	0	41	104	0	70	15134
2026-01-22 05:03:05.15	10.14	24.48	-50.0	-61.9	3.8	8.46e-01	0	41	104	0	70	15118
2026-01-22 05:03:06.16	9.92	24.58	-50.0	-61.9	3.8	8.46e-01	0	41	104	0	70	15155
2026-01-22 05:03:07.17	9.71	24.69	-50.0	-61.9	3.8	8.46e-01	0	41	104	0	70	15188
2026-01-22 05:03:08.18	9.49	24.80	-50.0	-61.9	3.8	8.46e-01	0	41	104	0	70	15152
2026-01-22 05:03:09.19	9.27	24.91	-50.0	-61.9	3.8	8.46e-01	0	41	104	0	70	15213
2026-01-22 05:03:10.19	9.06	25.01	-50.0	-61.9	3.8	8.46e-01	0	41	104	0	70	15166
2026-01-22 05:03:11.21	8.83	25.12	-50.0	-61.9	3.8	8.46e-01	0	41	104	0	70	15147
2026-01-22 05:03:12.21	8.61	25.23	-50.0	-61.9	3.8	8.45e-01	0	41	104	0	70	15176
2026-01-22 05:03:13.22	8.39	25.33	-50.0	-61.9	3.8	8.46e-01	0	41	104	0	70	15152
2026-01-22 05:03:14.23	8.16	25.44	-50.0	-61.9	3.8	8.46e-01	0	41	104	0	70	15181
2026-01-22 05:03:15.24	7.94	25.55	-50.0	-61.9	3.8	8.47e-01	0	41	104	0	70	15166
2026-01-22 05:03:16.25	7.71	25.65	-50.0	-61.9	3.8	8.45e-01	0	41	104	0	70	15149
2026-01-22 05:03:17.25	7.48	25.76	-50.0	-61.9	3.8	8.45e-01	0	41	104	0	70	15182
2026-01-22 05:03:18.26	7.25	25.86	-50.0	-61.9	3.8	8.47e-01	0	41	104	0	70	15186
2026-01-22 05:03:19.27	7.01	25.97	-50.0	-61.9	3.8	8.46e-01	0	41	104	0	70	15188
2026-01-22 05:03:20.28	6.78	26.08	-50.0	-61.9	3.8	8.47e-01	0	41	104	0	70	15116
2026-01-22 05:03:21.29	6.54	26.18	-50.0	-61.9	3.8	8.45e-01	0	41	104	0	70	15178
2026-01-22 05:03:22.30	6.30	26.29	-50.0	-61.9	3.8	8.47e-01	0	41	104	0	70	15176
2026-01-22 05:03:23.31	6.06	26.40	-50.0	-61.9	3.8	8.46e-01	0	41	104	0	70	15176
2026-01-22 05:03:24.32	5.82	26.50	-50.0	-61.9	3.8	8.47e-01	0	41	104	0	70	15185
2026-01-22 05:03:25.33	5.58	26.61	-50.0	-61.9	3.8	8.46e-01	0	41	104	0	70	15193
2026-01-22 05:03:26.33	5.34	26.71	-50.0	-61.9	3.8	8.46e-01	0	41	104	0	70	15170
2026-01-22 05:03:27.34	5.09	26.82	-50.0	-61.9	3.8	8.46e-01	0	41	104	0	70	15187
2026-01-22 05:03:28.35	4.84	26.92	-50.0	-61.9	3.8	8.46e-01	0	41	104	0	70	15192
2026-01-22 05:03:29.36	4.59	27.03	-50.0	-61.9	3.8	8.46e-01	0	41	104	0	70	15193
2026-01-22 05:03:30.37	4.34	27.13	-50.0	-61.9	3.8	8.46e-01	0	41	104	0	70	15180
2026-01-22 05:03:31.37	4.09	27.24	-50.0	-61.9	3.8	8.46e-01	0	41	104	0	70	15155
2026-01-22 05:03:32.38	3.84	27.34	-50.0	-61.9	3.8	8.46e-01	0	41	104	0	70	15183
2026-01-22 05:03:33.39	3.58	27.44	-50.0	-61.9	3.8	8.46e-01	0	41	104	0	70	15222
2026-01-22 05:03:34.40	3.32	27.55	-50.0	-61.9	3.8	8.47e-01	0	41	104	0	70	15155
2026-01-22 05:03:35.41	3.06	27.65	-50.0	-61.9	3.8	8.45e-01	0	41	104	0	70	15132
2026-01-22 05:03:36.42	2.80	27.75	-50.0	-61.9	3.8	8.47e-01	0	41	104	0	70	15163
2026-01-22 05:03:37.43	2.54	27.86	-50.0	-61.9	3.8	8.45e-01	0	41	104	0	70	15122
2026-01-22 05:03:38.43	2.27	27.96	-50.0	-61.9	3.8	8.46e-01	0	41	104	0	70	15206
2026-01-22 05:03:39.44	2.01	28.06	-50.0	-61.9	3.8	8.46e-01	0	41	104	0	70	15179
2026-01-22 05:03:40.45	1.74	28.16	-50.0	-61.9	3.8	8.47e-01	0	41	104	0	70	15173
2026-01-22 05:03:41.46	1.47	28.26	-50.0	-61.9	3.8	8.46e-01	0	41	104	0	70	15189
2026-01-22 05:03:42.47	1.20	28.37	-50.0	-61.9	3.8	8.45e-01	0	41	104	0	70	15144
2026-01-22 05:03:43.48	0.92	28.47	-50.0	-61.9	3.8	8.47e-01	0	41	104	0	70	15168
2026-01-22 05:03:44.49	0.65	28.57	-50.0	-61.9	3.8	8.47e-01	0	41	104	0	70	15181
2026-01-22 05:03:45.49	0.37	28.67	-50.0	-61.9	3.8	8.45e-01	0	41	104	0	70	15203
2026-01-22 05:03:46.50	0.09	28.77	-50.0	-61.9	3.8	8.47e-01	0	41	104	0	70	15141
2026-01-22 05:03:47.51	359.81	28.87	-50.0	-61.9	3.8	8.46e-01	0	41	104	0	70	15147
2026-01-22 05:03:48.52	359.53	28.97	-50.0	-61.9	3.8	8.45e-01	0	41	104	0	70	15140
2026-01-22 05:03:49.53	359.25	29.06	-50.0	-61.9	3.8	8.47e-01	0	41	104	0	70	15150
2026-01-22 05:03:50.53	358.96	29.16	-50.0	-61.9	3.8	8.45e-01	0	41	104	0	70	15202
2026-01-22 05:03:51.54	358.68	29.26	-50.0	-61.9	3.8	8.47e-01	0	41	104	0	70	15175
2026-01-22 05:03:52.55	358.39	29.36	-50.0	-61.9	3.8	8.47e-01	0	41	104	0	70	15178
2026-01-22 05:03:53.56	358.10	29.45	-50.0	-61.9	3.8	8.46e-01	0	41	104	0	70	15224
2026-01-22 05:03:54.57	357.80	29.55	-50.0	-61.9	3.8	8.47e-01	0	41	104	0	70	15176
2026-01-22 05:03:55.58	357.51	29.64	-50.0	-61.9	3.8	8.45e-01	0	41	104	0	70	15141
2026-01-22 05:03:56.59	357.21	29.74	-50.0	-61.9	3.8	8.47e-01	0	41	104	0	70	15190
2026-01-22 05:03:57.60	356.91	29.83	-50.0	-61.9	3.8	8.45e-01	0	41	104	0	70	15165
2026-01-22 05:03:58.61	356.61	29.93	-50.0	-61.9	3.8	8.46e-01	0	41	104	0	70	15162
2026-01-22 05:03:59.61	356.31	30.02	-50.0	-61.9	3.8	8.46e-01	0	41	104	0	70	15206
2026-01-22 05:04:00.62	356.01	30.11	-50.0	-61.9	3.8	8.45e-01	0	41	104	0	70	15179
2026-01-22 05:04:01.63	355.71	30.21	-50.0	-61.9	3.8	8.45e-01	0	41	104	0	70	15194
2026-01-22 05:04:02.64	355.40	30.30	-50.0	-61.9	3.8	8.46e-01	0	41	104	0	70	15160
2026-01-22 05:04:03.65	355.09	30.39	-50.0	-61.9	3.8	8.46e-01	0	41	104	0	70	15160
2026-01-22 05:04:04.65	354.78	30.48	-50.0	-61.9	3.8	8.45e-01	0	41	104	0	70	15170
2026-01-22 05:04:05.66	354.47	30.57	-50.0	-61.9	3.8	8.46e-01	0	41	104	0	70	15225
2026-01-22 05:04:06.67	354.16	30.66	-50.0	-61.9	3.8	8.46e-01	0	41	104	0	70	15171
2026-01-22 05:04:07.68	353.84	30.74	-50.0	-61.9	3.8	8.46e-01	0	41	104	0	70	15180
2026-01-22 05:04:08.69	353.52	30.83	-50.0	-61.9	3.8	8.47e-01	0	41	104	0	70	15173
2026-01-22 05:04:09.69	353.21	30.92	-50.0	-61.9	3.8	8.46e-01	0	41	104	0	70	15181
2026-01-22 05:04:10.70	352.88	31.00	-50.0	-61.9	3.8	8.46e-01	0	41	104	0	70	15170
2026-01-22 05:04:11.71	352.56	31.09	-50.0	-61.9	3.8	8.46e-01	0	41	104	0	70	15189
2026-01-22 05:04:12.72	352.24	31.17	-50.0	-61.9	3.8	8.46e-01	0	41	104	0	70	15185
2026-01-22 05:04:13.73	351.91	31.26	-50.0	-61.9	3.8	8.44e-01	0	41	104	0	70	15217
2026-01-22 05:04:14.73	351.59	31.34	-50.0	-61.9	3.8	8.46e-01	0	41	104	0	70	15183
2026-01-22 05:04:15.74	351.26	31.42	-50.0	-61.9	3.8	8.45e-01	0	41	104	0	70	15175
2026-01-22 05:04:16.75	350.93	31.50	-50.0	-61.9	3.8	8.45e-01	0	41	104	0	70	15167
2026-01-22 05:04:17.76	350.59	31.58	-50.0	-61.9	3.8	8.47e-01	0	41	104	0	70	15151
2026-01-22 05:04:18.76	350.26	31.66	-50.0	-61.9	3.8	8.46e-01	0	41	104	0	70	15124
2026-01-22 05:04:19.77	349.93	31.74	-50.0	-61.9	3.8	8.46e-01	0	41	104	0	70	15194
2026-01-22 05:04:20.78	349.59	31.82	-50.0	-61.9	3.8	8.45e-01	0	41	104	0	70	15177
2026-01-22 05:04:21.79	349.25	31.89	-50.0	-61.9	3.8	8.46e-01	0	41	104	0	70	15148
2026-01-22 05:04:22.80	348.91	31.97	-50.0	-61.9	3.8	8.47e-01	0	41	104	0	70	15189
2026-01-22 05:04:23.81	348.56	32.05	-50.0	-61.9	3.8	8.46e-01	0	41	104	0	70	15191
2026-01-22 05:04:24.81	348.22	32.12	-50.0	-61.9	3.8	8.45e-01	0	41	104	0	70	15152
2026-01-22 05:04:25.82	347.88	32.19	-50.0	-61.9	3.8	8.46e-01	0	41	104	0	70	15185
2026-01-22 05:04:26.83	347.53	32.26	-50.0	-61.9	3.8	8.45e-01	0	41	104	0	70	15178
2026-01-22 05:04:27.84	347.18	32.33	-50.0	-61.9	3.8	8.47e-01	0	41	104	0	70	15193
2026-01-22 05:04:28.85	346.83	32.40	-50.0	-61.9	3.8	8.47e-01	0	41	104	0	70	15171
2026-01-22 05:04:29.85	346.48	32.47	-50.0	-61.9	3.8	8.47e-01	0	41	104	0	70	15179
2026-01-22 05:04:30.86	346.13	32.54	-50.0	-61.9	3.8	8.47e-01	0	41	104	0	70	15179
2026-01-22 05:04:31.87	345.77	32.61	-50.0	-61.9	3.8	8.46e-01	0	41	104	0	70	15198
2026-01-22 05:04:32.88	345.42	32.67	-50.0	-61.9	3.8	8.45e-01	0	41	104	0	70	15215
2026-01-22 05:04:33.89	345.06	32.73	-50.0	-61.9	3.8	8.46e-01	0	41	104	0	70	15162
2026-01-22 05:04:34.89	344.71	32.80	-50.0	-61.9	3.8	8.46e-01	0	41	104	0	70	15174
2026-01-22 05:04:35.90	344.34	32.86	-50.0	-61.9	3.8	8.47e-01	0	41	104	0	70	15135
2026-01-22 05:04:36.91	343.98	32.92	-50.0	-61.9	3.8	8.47e-01	0	41	104	0	70	15168
2026-01-22 05:04:37.92	343.62	32.98	-50.0	-61.9	3.8	8.47e-01	0	41	104	0	70	15158
2026-01-22 05:04:38.93	343.25	33.04	-50.0	-61.9	3.8	8.47e-01	0	41	104	0	70	15217
2026-01-22 05:04:39.93	342.89	33.09	-50.0	-61.9	3.8	8.46e-01	0	41	104	0	70	15142
2026-01-22 05:04:40.94	342.52	33.15	-50.0	-61.9	3.8	8.47e-01	0	41	104	0	70	15141
2026-01-22 05:04:41.95	342.16	33.21	-50.0	-61.9	3.8	8.45e-01	0	41	104	0	70	15153
2026-01-22 05:04:42.96	341.79	33.26	-50.0	-61.9	3.8	8.46e-01	0	41	104	0	70	15192
2026-01-22 05:04:43.97	341.42	33.31	-50.0	-61.9	3.8	8.47e-01	0	41	104	0	70	15194
2026-01-22 05:04:44.97	341.05	33.36	-50.0	-61.9	3.8	8.47e-01	0	41	104	0	70	15142
2026-01-22 05:04:45.98	340.67	33.41	-50.0	-61.9	3.8	8.46e-01	0	41	104	0	70	15125
2026-01-22 05:04:46.99	340.30	33.46	-50.0	-61.9	3.8	8.47e-01	0	41	104	0	70	15152
2026-01-22 05:04:48.00	339.92	33.51	-50.0	-61.9	3.8	8.45e-01	0	41	104	0	70	15195
2026-01-22 05:04:49.00	339.55	33.55	-50.0	-61.9	3.8	8.47e-01	0	41	104	0	70	15155
2026-01-22 05:04:50.01	339.17	33.60	-50.0	-61.9	3.8	8.46e-01	0	41	104	0	70	15192
2026-01-22 05:04:51.02	338.79	33.64	-50.0	-61.9	3.8	8.46e-01	0	41	104	0	70	15132
2026-01-22 05:04:52.03	338.41	33.68	-50.0	-61.9	3.8	8.46e-01	0	41	104	0	70	15168
2026-01-22 05:04:53.04	338.03	33.72	-50.0	-61.9	3.8	8.47e-01	0	41	104	0	70	15140
2026-01-22 05:04:54.04	337.66	33.76	-50.0	-61.9	3.8	8.46e-01	0	41	104	0	70	15137
2026-01-22 05:04:55.05	337.27	33.80	-50.0	-61.9	3.8	8.47e-01	0	41	104	0	70	15178
2026-01-22 05:04:56.06	336.89	33.83	-50.0	-61.9	3.8	8.46e-01	0	41	104	0	70	15152
2026-01-22 05:04:57.07	336.51	33.87	-50.0	-61.9	3.8	8.47e-01	0	41	104	0	70	15192
2026-01-22 05:04:58.08	336.12	33.90	-50.0	-61.9	3.8	8.46e-01	0	41	104	0	70	15190
2026-01-22 05:04:59.09	335.74	33.93	-50.0	-61.9	3.8	8.45e-01	0	41	104	0	70	15175
2026-01-22 05:05:00.09	335.35	33.96	-50.0	-61.9	3.8	8.45e-01	0	41	104	0	70	15164
2026-01-22 05:05:01.10	334.97	33.99	-50.0	-61.9	3.8	8.46e-01	0	41	104	0	70	15118
2026-01-22 05:05:02.11	334.58	34.02	-50.0	-61.9	3.8	8.46e-01	0	41	104	0	70	15197
2026-01-22 05:05:03.11	334.19	34.04	-50.0	-61.9	3.8	8.45e-01	0	41	104	0	70	15108
2026-01-22 05:05:04.12	333.80	34.07	-50.0	-61.9	3.8	8.46e-01	0	41	104	0	70	15149
2026-01-22 05:05:05.13	333.41	34.09	-50.0	-61.9	3.8	8.46e-01	0	41	104	0	70	15134
2026-01-22 05:05:06.14	333.02	34.11	-50.0	-61.9	3.8	8.46e-01	0	41	104	0	70	15130
2026-01-22 05:05:07.15	332.63	34.13	-50.0	-61.9	3.8	8.45e-01	0	41	104	0	70	15194
2026-01-22 05:05:08.16	332.24	34.15	-50.0	-61.9	3.8	8.47e-01	0	41	104	0	70	15167
2026-01-22 05:05:09.17	331.85	34.17	-50.0	-61.9	3.8	8.45e-01	0	41	104	0	70	15204
2026-01-22 05:05:10.17	331.46	34.18	-50.0	-61.9	3.8	8.46e-01	0	41	104	0	70	15156
2026-01-22 05:05:11.18	331.07	34.20	-50.0	-61.9	3.8	8.46e-01	0	41	104	0	70	15199
2026-01-22 05:05:12.19	330.68	34.21	-50.0	-61.9	3.8	8.46e-01	0	41	104	0	70	15158
2026-01-22 05:05:13.20	330.28	34.22	-50.0	-61.9	3.8	8.47e-01	0	41	104	0	70	15142
2026-01-22 05:05:14.21	329.89	34.23	-50.0	-61.9	3.8	8.46e-01	0	41	104	0	70	15152
2026-01-22 05:05:15.22	329.50	34.24	-50.0	-61.9	3.8	8.46e-01	0	41	104	0	70	15212
2026-01-22 05:05:16.23	329.10	34.24	-50.0	-61.9	3.8	8.46e-01	0	41	104	0	70	15135
2026-01-22 05:05:17.23	328.71	34.25	-50.0	-61.9	3.8	8.46e-01	0	41	104	0	70	15140
2026-01-22 05:05:18.25	328.31	34.25	-50.0	-61.9	3.8	8.47e-01	0	41	104	0	70	15185
2026-01-22 05:05:19.25	327.92	34.25	-50.0	-61.9	3.8	8.46e-01	0	41	104	0	70	15145
2026-01-22 05:05:20.26	327.53	34.25	-50.0	-61.9	3.8	8.45e-01	0	41	104	0	70	15169
2026-01-22 05:05:21.27	327.14	34.25	-50.0	-61.9	3.8	8.46e-01	0	41	104	0	70	15151
2026-01-22 05:05:22.28	326.74	34.25	-50.0	-61.9	3.8	8.46e-01	0	41	104	0	70	15158
2026-01-22 05:05:23.29	326.35	34.25	-50.0	-61.9	3.8	8.45e-01	0	41	104	0	70	15115
2026-01-22 05:05:24.30	325.95	34.24	-50.0	-61.9	3.8	8.45e-01	0	41	104	0	70	15179
2026-01-22 05:05:25.31	325.56	34.23	-50.0	-61.9	3.8	8.47e-01	0	41	104	0	70	15188
2026-01-22 05:05:26.31	325.17	34.22	-50.0	-61.9	3.8	8.46e-01	0	41	104	0	70	15135
2026-01-22 05:05:27.32	324.78	34.21	-50.0	-61.9	3.8	8.47e-01	0	41	104	0	70	15179
2026-01-22 05:05:28.33	324.39	34.20	-50.0	-61.9	3.8	8.45e-01	0	41	104	0	70	15163
2026-01-22 05:05:29.34	323.99	34.19	-50.0	-61.9	3.8	8.46e-01	0	41	104	0	70	15158
2026-01-22 05:05:30.35	323.60	34.17	-50.0	-61.9	3.8	8.47e-01	0	41	104	0	70	15157
2026-01-22 05:05:31.35	323.21	34.15	-50.0	-61.9	3.8	8.46e-01	0	41	104	0	70	15165
2026-01-22 05:05:32.36	322.82	34.14	-50.0	-61.9	3.8	8.46e-01	0	41	104	0	70	15187
2026-01-22 05:05:33.37	322.43	34.12	-50.0	-61.9	3.8	8.45e-01	0	41	104	0	70	15184
2026-01-22 05:05:34.38	322.04	34.10	-50.0	-61.9	3.8	8.46e-01	0	41	104	0	70	15121
2026-01-22 05:05:35.39	321.65	34.07	-50.0	-61.9	3.8	8.46e-01	0	41	104	0	70	15183
2026-01-22 05:05:36.40	321.26	34.05	-50.0	-61.9	3.8	8.47e-01	0	41	104	0	70	15130
2026-01-22 05:05:37.40	320.88	34.02	-50.0	-61.9	3.8	8.47e-01	0	41	104	0	70	15184
2026-01-22 05:05:38.41	320.49	34.00	-50.0	-61.9	3.8	8.47e-01	0	41	104	0	70	15160
2026-01-22 05:05:39.42	320.10	33.97	-50.0	-61.9	3.8	8.46e-01	0	41	104	0	70	15136
2026-01-22 05:05:40.43	319.71	33.94	-50.0	-61.9	3.8	8.46e-01	0	41	104	0	70	15170
2026-01-22 05:05:41.44	319.33	33.91	-50.0	-61.9	3.8	8.46e-01	0	41	104	0	70	15148
2026-01-22 05:05:42.45	318.94	33.87	-50.0	-61.9	3.8	8.46e-01	0	41	104	0	70	15143
2026-01-22 05:05:43.45	318.56	33.84	-50.0	-61.9	3.8	8.45e-01	0	41	104	0	70	15165
2026-01-22 05:05:44.46	318.18	33.80	-50.0	-61.9	3.8	8.46e-01	0	41	104	0	70	15169
2026-01-22 05:05:45.47	317.79	33.76	-50.0	-61.9	3.8	8.47e-01	0	41	104	0	70	15144
2026-01-22 05:05:46.48	317.41	33.73	-50.0	-61.9	3.8	8.46e-01	0	41	104	0	70	15106
2026-01-22 05:05:47.49	317.03	33.69	-50.0	-61.9	3.8	8.46e-01	0	41	104	0	70	15138
2026-01-22 05:05:48.49	316.65	33.64	-50.0	-61.9	3.8	8.46e-01	0	41	104	0	70	15150
2026-01-22 05:05:49.50	316.28	33.60	-50.0	-61.9	3.8	8.47e-01	0	41	104	0	70	15111
2026-01-22 05:05:50.51	315.90	33.56	-50.0	-61.9	3.8	8.46e-01	0	41	104	0	70	15142
2026-01-22 05:05:51.52	315.52	33.51	-50.0	-61.9	3.8	8.47e-01	0	41	104	0	70	15142
2026-01-22 05:05:52.53	315.14	33.47	-50.0	-61.9	3.8	8.46e-01	0	41	104	0	70	15159
2026-01-22 05:05:53.54	314.77	33.42	-50.0	-61.9	3.8	8.47e-01	0	41	104	0	70	15140
2026-01-22 05:05:54.55	314.40	33.37	-50.0	-61.9	3.8	8.47e-01	0	41	104	0	70	15194
2026-01-22 05:05:55.55	314.03	33.32	-50.0	-61.9	3.8	8.46e-01	0	41	104	0	70	15142
2026-01-22 05:05:56.56	313.66	33.27	-50.0	-61.9	3.8	8.45e-01	0	41	104	0	70	15161
2026-01-22 05:05:57.57	313.29	33.21	-50.0	-61.9	3.8	8.46e-01	0	41	104	0	70	15152
2026-01-22 05:05:58.58	312.92	33.16	-50.0	-61.9	3.8	8.47e-01	0	41	104	0	70	15134
2026-01-22 05:05:59.59	312.55	33.10	-50.0	-61.9	3.8	8.46e-01	0	41	104	0	70	15176
2026-01-22 05:06:00.60	312.18	33.04	-50.0	-61.9	3.8	8.46e-01	0	41	104	0	70	15178
2026-01-22 05:06:01.61	311.82	32.99	-50.0	-61.9	3.8	8.46e-01	0	41	104	0	70	15165
2026-01-22 05:06:02.61	311.46	32.93	-50.0	-61.9	3.8	8.45e-01	0	41	104	0	70	15168
2026-01-22 05:06:03.62	311.09	32.87	-50.0	-61.9	3.8	8.47e-01	0	41	104	0	70	15139
2026-01-22 05:06:04.63	310.73	32.80	-50.0	-61.9	3.8	8.46e-01	0	41	104	0	70	15182
2026-01-22 05:06:05.64	310.37	32.74	-50.0	-61.9	3.8	8.46e-01	0	41	104	0	70	15131
2026-01-22 05:06:06.65	310.02	32.68	-50.0	-61.9	3.8	8.46e-01	0	41	104	0	70	15157
2026-01-22 05:06:07.66	309.66	32.61	-50.0	-61.9	3.8	8.45e-01	0	41	104	0	70	15133
2026-01-22 05:06:08.67	309.30	32.55	-50.0	-61.9	3.8	8.46e-01	0	41	104	0	70	15175
2026-01-22 05:06:09.68	308.95	32.48	-50.0	-61.9	3.8	8.45e-01	0	41	104	0	70	15191
2026-01-22 05:06:10.69	308.60	32.41	-50.0	-61.9	3.8	8.47e-01	0	41	104	0	70	15178
2026-01-22 05:06:11.69	308.25	32.34	-50.0	-61.9	3.8	8.47e-01	0	41	104	0	70	15172
2026-01-22 05:06:12.70	307.90	32.27	-50.0	-61.9	3.8	8.47e-01	0	41	104	0	70	15196
2026-01-22 05:06:13.71	307.55	32.20	-50.0	-61.9	3.8	8.45e-01	0	41	104	0	70	15185
2026-01-22 05:06:14.72	307.20	32.12	-50.0	-61.9	3.8	8.47e-01	0	41	104	0	70	15155
2026-01-22 05:06:15.72	306.86	32.05	-50.0	-61.9	3.8	8.47e-01	0	41	104	0	70	15119
2026-01-22 05:06:16.73	306.52	31.98	-50.0	-61.9	3.8	8.46e-01	0	41	104	0	70	15133
2026-01-22 05:06:17.74	306.18	31.90	-50.0	-61.9	3.8	8.46e-01	0	41	104	0	70	15141
2026-01-22 05:06:18.75	305.84	31.82	-50.0	-61.9	3.8	8.47e-01	0	41	104	0	70	15148
2026-01-22 05:06:19.76	305.50	31.75	-50.0	-61.9	3.8	8.47e-01	0	41	104	0	70	15141
2026-01-22 05:06:20.76	305.17	31.67	-50.0	-61.9	3.8	8.45e-01	0	41	104	0	70	15139
2026-01-22 05:06:21.77	304.83	31.59	-50.0	-61.9	3.8	8.46e-01	0	41	104	0	70	15143
2026-01-22 05:06:22.78	304.50	31.51	-50.0	-61.9	3.8	8.46e-01	0	41	104	0	70	15178
2026-01-22 05:06:23.79	304.17	31.43	-50.0	-61.9	3.8	8.46e-01	0	41	104	0	70	15186
2026-01-22 05:06:24.80	303.84	31.35	-50.0	-61.9	3.8	8.47e-01	0	41	104	0	70	15125
2026-01-22 05:06:25.81	303.51	31.26	-50.0	-61.9	3.8	8.46e-01	0	41	104	0	70	15148
2026-01-22 05:06:26.81	303.18	31.18	-50.0	-61.9	3.8	8.46e-01	0	41	104	0	70	15140
2026-01-22 05:06:27.82	302.86	31.10	-50.0	-61.9	3.8	8.46e-01	0	41	104	0	70	15195
2026-01-22 05:06:28.83	302.54	31.01	-50.0	-61.9	3.8	8.46e-01	0	41	104	0	70	15127
2026-01-22 05:06:29.84	302.21	30.92	-50.0	-61.9	3.8	8.47e-01	0	41	104	0	70	15126
2026-01-22 05:06:30.85	301.89	30.84	-50.0	-61.9	3.8	8.46e-01	0	41	104	0	70	15194
2026-01-22 05:06:31.85	301.58	30.75	-50.0	-61.9	3.8	8.45e-01	0	41	104	0	70	15132
2026-01-22 05:06:32.86	301.26	30.66	-50.0	-61.9	3.8	8.46e-01	0	41	104	0	70	15117
2026-01-22 05:06:33.87	300.95	30.57	-50.0	-61.9	3.8	8.47e-01	0	41	104	0	70	15141
2026-01-22 05:06:34.88	300.63	30.48	-50.0	-61.9	3.8	8.46e-01	0	41	104	0	70	15110
2026-01-22 05:06:35.89	300.32	30.39	-50.0	-61.9	3.8	8.45e-01	0	41	104	0	70	15148
2026-01-22 05:06:36.89	300.02	30.30	-50.0	-61.9	3.8	8.46e-01	0	41	104	0	70	15130
2026-01-22 05:06:37.90	299.71	30.21	-50.0	-61.9	3.8	8.47e-01	0	41	104	0	70	15176
2026-01-22 05:06:38.91	299.40	30.12	-50.0	-61.9	3.8	8.45e-01	0	41	104	0	70	15149
2026-01-22 05:06:39.92	299.10	30.03	-50.0	-61.9	3.8	8.46e-01	0	41	104	0	70	15177
2026-01-22 05:06:40.93	298.80	29.93	-50.0	-61.9	3.8	8.45e-01	0	41	104	0	70	15092
2026-01-22 05:06:41.93	298.50	29.84	-50.0	-61.9	3.8	8.47e-01	0	41	104	0	70	15116
2026-01-22 05:06:42.94	298.20	29.75	-50.0	-61.9	3.8	8.47e-01	0	41	104	0	70	15194
2026-01-22 05:06:43.95	297.90	29.65	-50.0	-61.9	3.8	8.47e-01	0	41	104	0	70	15158
2026-01-22 05:06:44.96	297.61	29.55	-50.0	-61.9	3.8	8.46e-01	0	41	104	0	70	15196
2026-01-22 05:06:45.97	297.31	29.46	-50.0	-61.9	3.8	8.46e-01	0	41	104	0	70	15183
2026-01-22 05:06:46.97	297.02	29.36	-50.0	-61.9	3.8	8.46e-01	0	41	104	0	70	15169
2026-01-22 05:06:47.98	296.73	29.26	-50.0	-61.9	3.8	8.46e-01	0	41	104	0	70	15123
2026-01-22 05:06:48.99	296.45	29.17	-50.0	-61.9	3.8	8.47e-01	0	41	104	0	70	15198
2026-01-22 05:06:50.00	296.16	29.07	-50.0	-61.9	3.8	8.46e-01	0	41	104	0	70	15181
2026-01-22 05:06:51.01	295.87	28.97	-50.0	-61.9	3.8	8.47e-01	0	41	104	0	70	15155
2026-01-22 05:06:52.01	295.59	28.87	-50.0	-61.9	3.8	8.45e-01	0	41	104	0	70	15161
2026-01-22 05:06:53.02	295.31	28.77	-50.0	-61.9	3.8	8.47e-01	0	41	104	0	70	15184
2026-01-22 05:06:54.03	295.03	28.67	-50.0	-61.9	3.8	8.45e-01	0	41	104	0	70	15128
2026-01-22 05:06:55.04	294.75	28.57	-50.0	-61.9	3.8	8.46e-01	0	41	104	0	70	15154
2026-01-22 05:06:56.05	294.48	28.47	-50.0	-61.9	3.8	8.46e-01	0	41	104	0	70	15144
2026-01-22 05:06:57.06	294.20	28.37	-50.0	-61.9	3.8	8.46e-01	0	41	104	0	70	15139
2026-01-22 05:06:58.07	293.93	28.27	-50.0	-61.9	3.8	8.47e-01	0	41	104	0	70	15198
2026-01-22 05:06:59.07	293.66	28.17	-50.0	-61.9	3.8	8.47e-01	0	41	104	0	70	15160
2026-01-22 05:07:00.08	293.39	28.07	-50.0	-61.9	3.8	8.47e-01	0	41	104	0	70	15167
2026-01-22 05:07:01.09	293.13	27.96	-50.0	-61.9	3.8	8.47e-01	0	41	104	0	70	15164
2026-01-22 05:07:02.10	292.86	27.86	-50.0	-61.9	3.8	8.46e-01	0	41	104	0	70	15175
2026-01-22 05:07:03.10	292.60	27.76	-50.0	-61.9	3.8	8.46e-01	0	41	104	0	70	15142
2026-01-22 05:07:04.11	292.34	27.65	-50.0	-61.9	3.8	8.46e-01	0	41	104	0	70	15146
2026-01-22 05:07:05.12	292.08	27.55	-50.0	-61.9	3.8	8.46e-01	0	41	104	0	70	15107
2026-01-22 05:07:06.13	291.82	27.45	-50.0	-61.9	3.8	8.46e-01	0	41	104	0	70	15205
2026-01-22 05:07:07.14	291.56	27.34	-50.0	-61.9	3.8	8.46e-01	0	41	104	0	70	15144
2026-01-22 05:07:08.15	291.31	27.24	-50.0	-61.9	3.8	8.46e-01	0	41	104	0	70	15107
2026-01-22 05:07:09.16	291.05	27.13	-50.0	-61.9	3.8	8.46e-01	0	41	104	0	70	15148
2026-01-22 05:07:10.17	290.80	27.03	-50.0	-61.9	3.8	8.46e-01	0	41	104	0	70	15161
2026-01-22 05:07:11.17	290.55	26.92	-50.0	-61.9	3.8	8.46e-01	0	41	104	0	70	15130
2026-01-22 05:07:12.18	290.30	26.82	-50.0	-61.9	3.8	8.45e-01	0	41	104	0	70	15188
2026-01-22 05:07:13.19	290.06	26.71	-50.0	-61.9	3.8	8.46e-01	0	41	104	0	70	15127
2026-01-22 05:07:14.20	289.81	26.61	-50.0	-61.9	3.8	8.46e-01	0	41	104	0	70	15168
2026-01-22 05:07:15.21	289.57	26.50	-50.0	-61.9	3.8	8.47e-01	0	41	104	0	70	15225
2026-01-22 05:07:16.22	289.32	26.40	-50.0	-61.9	3.8	8.47e-01	0	41	104	0	70	15189
2026-01-22 05:07:17.23	289.08	26.29	-50.0	-61.9	3.8	8.46e-01	0	41	104	0	70	15161
2026-01-22 05:07:18.24	288.84	26.18	-50.0	-61.9	3.8	8.46e-01	0	41	104	0	70	15185
2026-01-22 05:07:19.25	288.61	26.08	-50.0	-61.9	3.8	8.46e-01	0	41	104	0	70	15155
2026-01-22 05:07:20.25	288.37	25.97	-50.0	-61.9	3.8	8.46e-01	0	41	104	0	70	15133
2026-01-22 05:07:21.26	288.14	25.86	-50.0	-61.9	3.8	8.46e-01	0	41	104	0	70	15106
2026-01-22 05:07:22.27	287.91	25.76	-50.0	-61.9	3.8	8.47e-01	0	41	104	0	70	15129
2026-01-22 05:07:23.28	287.68	25.65	-50.0	-61.9	3.8	8.46e-01	0	41	104	0	70	15176
2026-01-22 05:07:24.29	287.45	25.54	-50.0	-61.9	3.8	8.46e-01	0	41	104	0	70	15148
2026-01-22 05:07:25.30	287.22	25.44	-50.0	-61.9	3.8	8.46e-01	0	41	104	0	70	15154
2026-01-22 05:07:26.31	286.99	25.33	-50.0	-61.9	3.8	8.45e-01	0	41	104	0	70	15146
2026-01-22 05:07:27.31	286.77	25.22	-50.0	-61.9	3.8	8.47e-01	0	41	104	0	70	15161
2026-01-22 05:07:28.32	286.55	25.12	-50.0	-61.9	3.8	8.47e-01	0	41	104	0	70	15149
2026-01-22 05:07:29.33	286.32	25.01	-50.0	-61.9	3.8	8.46e-01	0	41	104	0	70	15159
2026-01-22 05:07:30.34	286.10	24.90	-50.0	-61.9	3.8	8.46e-01	0	41	104	0	70	15155
2026-01-22 05:07:31.35	285.89	24.80	-50.0	-61.9	3.8	8.45e-01	0	41	104	0	70	15125
2026-01-22 05:07:32.36	285.67	24.69	-50.0	-61.9	3.8	8.46e-01	0	41	104	0	70	15146
2026-01-22 05:07:33.37	285.45	24.58	-50.0	-61.9	3.8	8.45e-01	0	41	104	0	70	15144
2026-01-22 05:07:34.38	285.24	24.47	-50.0	-61.9	3.8	8.45e-01	0	41	104	0	70	15161
2026-01-22 05:07:35.39	285.03	24.37	-50.0	-61.9	3.8	8.45e-01	0	41	104	0	70	15178
2026-01-22 05:07:36.39	284.82	24.26	-50.0	-61.9	3.8	8.46e-01	0	41	104	0	70	15153
2026-01-22 05:07:37.40	284.61	24.15	-50.0	-61.9	3.8	8.45e-01	0	41	104	0	70	15105
2026-01-22 05:07:38.41	284.40	24.05	-50.0	-61.9	3.8	8.46e-01	0	41	104	0	70	15147
2026-01-22 05:07:39.42	284.19	23.94	-50.0	-61.9	3.8	8.45e-01	0	41	104	0	70	15125
2026-01-22 05:07:40.43	283.98	23.83	-50.0	-61.9	3.8	8.46e-01	0	41	104	0	70	15138
2026-01-22 05:07:41.44	283.78	23.72	-50.0	-61.9	3.8	8.47e-01	0	41	104	0	70	15078
2026-01-22 05:07:42.45	283.58	23.62	-50.0	-61.9	3.8	8.46e-01	0	41	104	0	70	15131
2026-01-22 05:07:43.45	283.38	23.51	-50.0	-61.9	3.8	8.46e-01	0	41	104	0	70	15157
2026-01-22 05:07:44.46	283.18	23.40	-50.0	-61.9	3.8	8.46e-01	0	41	104	0	70	15162
2026-01-22 05:07:45.47	282.98	23.30	-50.0	-61.9	3.8	8.46e-01	0	41	104	0	70	15118
2026-01-22 05:07:46.48	282.78	23.19	-50.0	-61.9	3.8	8.46e-01	0	41	104	0	70	15150
2026-01-22 05:07:47.49	282.59	23.08	-50.0	-61.9	3.8	8.46e-01	0	41	104	0	70	15144
2026-01-22 05:07:48.49	282.39	22.98	-50.0	-61.9	3.8	8.46e-01	0	41	104	0	70	15136
2026-01-22 05:07:49.50	282.20	22.87	-50.0	-61.9	3.8	8.45e-01	0	41	104	0	70	15108
2026-01-22 05:07:50.51	282.01	22.76	-50.0	-61.9	3.8	8.46e-01	0	41	104	0	70	15167
2026-01-22 05:07:51.52	281.82	22.66	-50.0	-61.9	3.8	8.45e-01	0	41	104	0	70	15115
2026-01-22 05:07:52.53	281.63	22.55	-50.0	-61.9	3.8	8.47e-01	0	41	104	0	70	15173
2026-01-22 05:07:53.53	281.44	22.45	-50.0	-61.9	3.8	8.46e-01	0	41	104	0	70	15116
2026-01-22 05:07:54.54	281.26	22.34	-50.0	-61.9	3.8	8.45e-01	0	41	104	0	70	15128
2026-01-22 05:07:55.55	281.07	22.23	-50.0	-61.9	3.8	8.47e-01	0	41	104	0	70	15171
2026-01-22 05:07:56.56	280.89	22.13	-50.0	-61.9	3.8	8.46e-01	0	41	104	0	70	15122
2026-01-22 05:07:57.57	280.70	22.02	-50.0	-61.9	3.8	8.46e-01	0	41	104	0	70	15148
2026-01-22 05:07:58.57	280.52	21.92	-50.0	-61.9	3.8	8.47e-01	0	41	104	0	70	15142
2026-01-22 05:07:59.58	280.34	21.81	-50.0	-61.9	3.8	8.46e-01	0	41	104	0	70	15121
2026-01-22 05:08:00.59	280.17	21.71	-50.0	-61.9	3.8	8.47e-01	0	41	104	0	70	15140
2026-01-22 05:08:01.60	279.99	21.60	-50.0	-61.9	3.8	8.46e-01	0	41	104	0	70	15138
2026-01-22 05:08:02.60	279.81	21.50	-50.0	-61.9	3.8	8.45e-01	0	41	104	0	70	15159
2026-01-22 05:08:03.61	279.64	21.39	-50.0	-62.0	3.8	8.46e-01	0	41	104	0	70	15229
2026-01-22 05:08:04.62	279.46	21.29	-50.0	-61.9	3.8	8.46e-01	0	41	104	0	70	15154
2026-01-22 05:08:05.63	279.29	21.18	-50.0	-61.9	3.8	8.46e-01	0	41	104	0	70	15154
2026-01-22 05:08:06.63	279.12	21.08	-50.0	-61.9	3.8	8.47e-01	0	41	104	0	70	15204
2026-01-22 05:08:07.64	278.95	20.98	-50.0	-61.9	3.8	8.46e-01	0	41	104	0	70	15165
2026-01-22 05:08:08.65	278.78	20.87	-50.0	-61.9	3.8	8.46e-01	0	41	104	0	70	15148
2026-01-22 05:08:09.66	278.61	20.77	-50.0	-61.9	3.8	8.46e-01	0	41	104	0	70	15143
2026-01-22 05:08:10.67	278.44	20.66	-50.0	-61.9	3.8	8.46e-01	0	41	104	0	70	15161
2026-01-22 05:08:11.67	278.28	20.56	-50.0	-61.9	3.8	8.46e-01	0	41	104	0	70	15201
2026-01-22 05:08:12.68	278.11	20.46	-50.0	-61.9	3.8	8.47e-01	0	41	104	0	70	15113
2026-01-22 05:08:13.69	277.95	20.35	-50.0	-61.9	3.8	8.46e-01	0	41	104	0	70	15148
2026-01-22 05:08:14.70	277.79	20.25	-50.0	-61.9	3.8	8.46e-01	0	41	104	0	70	15107
2026-01-22 05:08:15.71	277.63	20.15	-50.0	-61.9	3.8	8.47e-01	0	41	104	0	70	15165
2026-01-22 05:08:16.71	277.47	20.05	-50.0	-61.9	3.8	8.46e-01	0	41	104	0	70	15170
2026-01-22 05:08:17.72	277.31	19.94	-50.0	-61.9	3.8	8.46e-01	0	41	104	0	70	15159
2026-01-22 05:08:18.73	277.15	19.84	-50.0	-61.9	3.8	8.47e-01	0	41	104	0	70	15163
2026-01-22 05:08:19.74	276.99	19.74	-50.0	-61.9	3.8	8.46e-01	0	41	104	0	70	15145
2026-01-22 05:08:20.74	276.84	19.64	-50.0	-61.9	3.8	8.46e-01	0	41	104	0	70	15187
2026-01-22 05:08:21.75	276.68	19.54	-50.0	-61.9	3.8	8.47e-01	0	41	104	0	70	15177
2026-01-22 05:08:22.76	276.53	19.43	-50.0	-61.9	3.8	8.46e-01	0	41	104	0	70	15120
2026-01-22 05:08:23.77	276.38	19.33	-50.0	-61.9	3.8	8.46e-01	0	41	104	0	70	15152
2026-01-22 05:08:24.78	276.22	19.23	-50.0	-61.9	3.8	8.46e-01	0	41	104	0	70	15116
2026-01-22 05:08:25.79	276.07	19.13	-50.0	-61.9	3.8	8.45e-01	0	41	104	0	70	15132
2026-01-22 05:08:26.80	275.92	19.03	-50.0	-61.9	3.8	8.46e-01	0	41	104	0	70	15132
2026-01-22 05:08:27.80	275.77	18.93	-50.0	-61.9	3.8	8.46e-01	0	41	104	0	70	15162
2026-01-22 05:08:28.81	275.63	18.83	-50.0	-61.9	3.8	8.46e-01	0	41	104	0	70	15127
2026-01-22 05:08:29.82	275.48	18.73	-50.0	-61.9	3.8	8.46e-01	0	41	104	0	70	15137
2026-01-22 05:08:30.83	275.33	18.63	-50.0	-61.9	3.8	8.46e-01	0	41	104	0	70	15139
2026-01-22 05:08:31.84	275.19	18.53	-50.0	-61.9	3.8	8.48e-01	0	41	104	0	70	15137
2026-01-22 05:08:32.85	275.04	18.43	-50.0	-61.9	3.8	8.46e-01	0	41	104	0	70	15148
2026-01-22 05:08:33.85	274.90	18.33	-50.0	-61.9	3.8	8.46e-01	0	41	104	0	70	15163
2026-01-22 05:08:34.86	274.76	18.23	-50.0	-61.9	3.8	8.46e-01	0	41	104	0	70	15124
2026-01-22 05:08:35.87	274.62	18.13	-50.0	-61.9	3.8	8.47e-01	0	41	104	0	70	15149
2026-01-22 05:08:36.88	274.48	18.03	-50.0	-61.9	3.8	8.46e-01	0	41	104	0	70	15161
2026-01-22 05:08:37.89	274.34	17.94	-50.0	-61.9	3.8	8.46e-01	0	41	104	0	70	15113
2026-01-22 05:08:38.89	274.20	17.84	-50.0	-61.9	3.8	8.47e-01	0	41	104	0	70	15160
2026-01-22 05:08:39.90	274.06	17.74	-50.0	-61.9	3.8	8.45e-01	0	41	104	0	70	15123
2026-01-22 05:08:40.91	273.93	17.64	-50.0	-61.9	3.8	8.47e-01	0	41	104	0	70	15152
2026-01-22 05:08:41.92	273.79	17.54	-50.0	-61.9	3.8	8.47e-01	0	41	104	0	70	15138
2026-01-22 05:08:42.92	273.66	17.45	-50.0	-61.9	3.8	8.46e-01	0	41	104	0	70	15123
2026-01-22 05:08:43.93	273.52	17.35	-50.0	-61.9	3.8	8.47e-01	0	41	104	0	70	15152
2026-01-22 05:08:44.94	273.39	17.25	-50.0	-61.9	3.8	8.47e-01	0	41	104	0	70	15180
2026-01-22 05:08:45.95	273.26	17.16	-50.0	-61.9	3.8	8.47e-01	0	41	104	0	70	15183
2026-01-22 05:08:46.96	273.13	17.06	-50.0	-61.9	3.8	8.46e-01	0	41	104	0	70	15118
2026-01-22 05:08:47.96	273.00	16.96	-50.0	-61.9	3.8	8.46e-01	0	41	104	0	70	15145
2026-01-22 05:08:48.97	272.87	16.87	-50.0	-61.9	3.8	8.45e-01	0	41	104	0	70	15165
2026-01-22 05:08:49.98	272.74	16.77	-50.0	-61.9	3.8	8.46e-01	0	41	104	0	70	15149
2026-01-22 05:08:50.99	272.61	16.68	-50.0	-61.9	3.8	8.46e-01	0	41	104	0	70	15196
2026-01-22 05:08:52.00	272.49	16.58	-50.0	-61.9	3.8	8.47e-01	0	41	104	0	70	15164
2026-01-22 05:08:53.00	272.36	16.49	-50.0	-61.9	3.8	8.46e-01	0	41	104	0	70	15129
2026-01-22 05:08:54.01	272.23	16.39	-50.0	-61.9	3.8	8.45e-01	0	41	104	0	70	15174
2026-01-22 05:08:55.02	272.11	16.30	-50.0	-61.9	3.8	8.46e-01	0	41	104	0	70	15127
2026-01-22 05:08:56.03	271.99	16.20	-50.0	-61.9	3.8	8.45e-01	0	41	104	0	70	15115
2026-01-22 05:08:57.04	271.86	16.11	-50.0	-61.9	3.8	8.44e-01	0	41	104	0	70	15120
2026-01-22 05:08:58.05	271.74	16.01	-50.0	-61.9	3.8	8.46e-01	0	41	104	0	70	15111
2026-01-22 05:08:59.06	271.62	15.92	-50.0	-61.9	3.8	8.46e-01	0	41	104	0	70	15126
2026-01-22 05:09:00.07	271.50	15.83	-50.0	-61.9	3.8	8.46e-01	0	41	104	0	70	15159
2026-01-22 05:09:01.08	271.38	15.73	-50.0	-61.9	3.8	8.46e-01	0	41	104	0	70	15114
2026-01-22 05:09:02.09	271.26	15.64	-50.0	-61.9	3.8	8.45e-01	0	41	104	0	70	15118
2026-01-22 05:09:03.09	271.14	15.55	-50.0	-61.9	3.8	8.46e-01	0	41	104	0	70	15184
2026-01-22 05:09:04.10	271.02	15.46	-50.0	-61.9	3.8	8.45e-01	0	41	104	0	70	15203
2026-01-22 05:09:05.11	270.91	15.36	-50.0	-61.9	3.8	8.46e-01	0	41	104	0	70	15089
2026-01-22 05:09:06.12	270.79	15.27	-50.0	-61.9	3.8	8.46e-01	0	41	104	0	70	15205
2026-01-22 05:09:07.12	270.68	15.18	-50.0	-61.9	3.8	8.46e-01	0	41	104	0	70	15146
2026-01-22 05:09:08.13	270.56	15.09	-50.0	-61.9	3.8	8.46e-01	0	41	104	0	70	15155
2026-01-22 05:09:09.14	270.45	15.00	-50.0	-61.9	3.8	8.45e-01	0	41	104	0	70	15152
2026-01-22 05:09:10.15	270.33	14.90	-50.0	-61.9	3.8	8.46e-01	0	41	104	0	70	15095
2026-01-22 05:09:11.16	270.22	14.81	-50.0	-61.9	3.8	8.46e-01	0	41	104	0	70	15116
2026-01-22 05:09:12.16	270.11	14.72	-50.0	-61.9	3.8	8.46e-01	0	41	104	0	70	15142
2026-01-22 05:09:13.17	270.00	14.63	-50.0	-61.9	3.8	8.46e-01	0	41	104	0	70	15145
2026-01-22 05:09:14.18	269.89	14.54	-50.0	-61.9	3.8	8.46e-01	0	41	104	0	70	15182
2026-01-22 05:09:15.19	269.78	14.45	-50.0	-61.9	3.8	8.46e-01	0	41	104	0	70	15130
2026-01-22 05:09:16.20	269.67	14.36	-50.0	-61.9	3.8	8.45e-01	0	41	104	0	70	15146
2026-01-22 05:09:17.21	269.56	14.27	-50.0	-61.9	3.8	8.45e-01	0	41	104	0	70	15173
2026-01-22 05:09:18.21	269.45	14.18	-50.0	-61.9	3.8	8.46e-01	0	41	104	0	70	15117
2026-01-22 05:09:19.22	269.35	14.09	-50.0	-61.9	3.8	8.46e-01	0	41	104	0	70	15111
2026-01-22 05:09:20.23	269.24	14.01	-50.0	-61.9	3.8	8.46e-01	0	41	104	0	70	15144
2026-01-22 05:09:21.24	269.13	13.92	-50.0	-61.9	3.8	8.46e-01	0	41	104	0	70	15157
2026-01-22 05:09:22.25	269.03	13.83	-50.0	-61.9	3.8	8.46e-01	0	41	104	0	70	15144
2026-01-22 05:09:23.25	268.93	13.74	-50.0	-61.9	3.8	8.46e-01	0	41	104	0	70	15155
2026-01-22 05:09:24.26	268.82	13.65	-50.0	-61.9	3.8	8.45e-01	0	41	104	0	70	15112
2026-01-22 05:09:25.27	268.72	13.56	-50.0	-61.9	3.8	8.46e-01	0	41	104	0	70	15172
2026-01-22 05:09:26.28	268.62	13.48	-50.0	-61.9	3.8	8.46e-01	0	41	104	0	70	15162
2026-01-22 05:09:27.29	268.51	13.39	-50.0	-61.9	3.8	8.47e-01	0	41	104	0	70	15122
2026-01-22 05:09:28.30	268.41	13.30	-50.0	-61.9	3.8	8.46e-01	0	41	104	0	70	15156
2026-01-22 05:09:29.31	268.31	13.21	-50.0	-61.9	3.8	8.46e-01	0	41	104	0	70	15114
2026-01-22 05:09:30.31	268.21	13.13	-50.0	-61.9	3.8	8.45e-01	0	41	104	0	70	15136
2026-01-22 05:09:31.32	268.11	13.04	-50.0	-61.9	3.8	8.46e-01	0	41	104	0	70	15158
2026-01-22 05:09:32.33	268.01	12.96	-50.0	-61.9	3.8	8.46e-01	0	41	104	0	70	15150
2026-01-22 05:09:33.34	267.91	12.87	-50.0	-61.9	3.8	8.46e-01	0	41	104	0	70	15170
2026-01-22 05:09:34.35	267.82	12.78	-50.0	-61.9	3.8	8.47e-01	0	41	104	0	70	15167
2026-01-22 05:09:35.35	267.72	12.70	-50.0	-61.9	3.8	8.45e-01	0	41	104	0	70	15136
2026-01-22 05:09:36.36	267.62	12.61	-50.0	-61.9	3.8	8.46e-01	0	41	104	0	70	15175
2026-01-22 05:09:37.37	267.53	12.53	-50.0	-61.9	3.8	8.46e-01	0	41	104	0	70	15118
2026-01-22 05:09:38.38	267.43	12.44	-50.0	-61.9	3.8	8.46e-01	0	41	104	0	70	15158
2026-01-22 05:09:39.39	267.34	12.36	-50.0	-61.9	3.8	8.46e-01	0	41	104	0	70	15166
2026-01-22 05:09:40.40	267.24	12.27	-50.0	-61.9	3.8	8.46e-01	0	41	104	0	70	15155
2026-01-22 05:09:41.41	267.15	12.19	-50.0	-61.9	3.8	8.45e-01	0	41	104	0	70	15154
2026-01-22 05:09:42.41	267.06	12.10	-50.0	-61.9	3.8	8.46e-01	0	41	104	0	70	15145
2026-01-22 05:09:43.42	266.96	12.02	-50.0	-61.9	3.8	8.46e-01	0	41	104	0	70	15206
2026-01-22 05:09:44.43	266.87	11.94	-50.0	-61.9	3.8	8.46e-01	0	41	104	0	70	15158
2026-01-22 05:09:45.44	266.78	11.85	-50.0	-61.9	3.8	8.47e-01	0	41	104	0	70	15171
2026-01-22 05:09:46.45	266.69	11.77	-50.0	-61.9	3.8	8.46e-01	0	41	104	0	70	15145
2026-01-22 05:09:47.45	266.60	11.69	-50.0	-61.9	3.8	8.47e-01	0	41	104	0	70	15123
2026-01-22 05:09:48.46	266.51	11.60	-50.0	-61.9	3.8	8.47e-01	0	41	104	0	70	15155
2026-01-22 05:09:49.47	266.42	11.52	-50.0	-61.9	3.8	8.46e-01	0	41	104	0	70	15136
2026-01-22 05:09:50.48	266.33	11.44	-50.0	-61.9	3.8	8.46e-01	0	41	104	0	70	15176
2026-01-22 05:09:51.49	266.24	11.36	-50.0	-61.9	3.8	8.45e-01	0	41	104	0	70	15163
2026-01-22 05:09:52.49	266.15	11.28	-50.0	-61.9	3.8	8.46e-01	0	41	104	0	70	15142
2026-01-22 05:09:53.50	266.07	11.19	-50.0	-61.9	3.8	8.46e-01	0	41	104	0	70	15156
2026-01-22 05:09:54.51	265.98	11.11	-50.0	-61.9	3.8	8.45e-01	0	41	104	0	70	15139
2026-01-22 05:09:55.52	265.89	11.03	-50.0	-61.9	3.8	8.47e-01	0	41	104	0	70	15117
2026-01-22 05:09:56.52	265.81	10.95	-50.0	-61.9	3.8	8.47e-01	0	41	104	0	70	15183
2026-01-22 05:09:57.53	265.72	10.87	-50.0	-61.9	3.8	8.46e-01	0	41	104	0	70	15143
2026-01-22 05:09:58.54	265.64	10.79	-50.0	-61.9	3.8	8.46e-01	0	41	104	0	70	15147
2026-01-22 05:09:59.55	265.55	10.71	-50.0	-61.9	3.8	8.46e-01	0	41	104	0	70	15178
2026-01-22 05:10:00.56	265.47	10.63	-50.0	-61.9	3.8	8.45e-01	0	41	104	0	70	15194
2026-01-22 05:10:01.57	265.39	10.55	-50.0	-61.9	3.8	8.46e-01	0	41	104	0	70	15131
2026-01-22 05:10:02.57	265.30	10.47	-50.0	-61.9	3.8	8.46e-01	0	41	104	0	70	15124
2026-01-22 05:10:03.58	265.22	10.39	-50.0	-61.9	3.8	8.45e-01	0	41	104	0	70	15107
2026-01-22 05:10:04.59	265.14	10.31	-50.0	-61.9	3.8	8.46e-01	0	41	104	0	70	15116
2026-01-22 05:10:05.60	265.06	10.23	-50.0	-61.9	3.8	8.45e-01	0	41	104	0	70	15109
2026-01-22 05:10:06.61	264.98	10.15	-50.0	-61.9	3.8	8.45e-01	0	41	104	0	70	15101
2026-01-22 05:10:07.61	264.90	10.07	-50.0	-61.9	3.8	8.46e-01	0	41	104	0	70	15145
2026-01-22 05:10:08.62	264.81	9.99	-50.0	-61.9	3.8	8.47e-01	0	41	104	0	70	15183
2026-01-22 05:10:09.63	264.74	9.91	-50.0	-61.9	3.8	8.47e-01	0	41	104	0	70	15172
2026-01-22 05:10:10.64	264.66	9.83	-50.0	-61.9	3.8	8.46e-01	0	41	104	0	70	15170
2026-01-22 05:10:11.65	264.58	9.75	-50.0	-61.9	3.8	8.45e-01	0	41	104	0	70	15146
2026-01-22 05:10:12.65	264.50	9.68	-50.0	-61.9	3.8	8.47e-01	0	41	104	0	70	15163
2026-01-22 05:10:13.66	264.42	9.60	-50.0	-61.9	3.8	8.46e-01	0	41	104	0	70	15121
2026-01-22 05:10:14.67	264.34	9.52	-50.0	-61.9	3.8	8.47e-01	0	41	104	0	70	15164
2026-01-22 05:10:15.68	264.27	9.44	-50.0	-61.9	3.8	8.46e-01	0	41	104	0	70	15154
2026-01-22 05:10:16.68	264.19	9.37	-50.0	-61.9	3.8	8.45e-01	0	41	104	0	70	15147
2026-01-22 05:10:17.69	264.11	9.29	-50.0	-61.9	3.8	8.47e-01	0	41	104	0	70	15128
2026-01-22 05:10:18.70	264.04	9.21	-50.0	-61.9	3.8	8.46e-01	0	41	104	0	70	15120
2026-01-22 05:10:19.71	263.96	9.14	-50.0	-61.9	3.8	8.47e-01	0	41	104	0	70	15118
2026-01-22 05:10:20.72	263.89	9.06	-50.0	-61.9	3.8	8.47e-01	0	41	104	0	70	15130
2026-01-22 05:10:21.73	263.81	8.98	-50.0	-61.9	3.8	8.46e-01	0	41	104	0	70	15127
2026-01-22 05:10:22.73	263.74	8.91	-50.0	-61.9	3.8	8.46e-01	0	41	104	0	70	15143
2026-01-22 05:10:23.74	263.66	8.83	-50.0	-61.9	3.8	8.46e-01	0	41	104	0	70	15123
2026-01-22 05:10:24.75	263.59	8.76	-50.0	-61.9	3.8	8.46e-01	0	41	104	0	70	15157
2026-01-22 05:10:25.76	263.52	8.68	-50.0	-61.9	3.8	8.47e-01	0	41	104	0	70	15145
2026-01-22 05:10:26.77	263.44	8.60	-50.0	-61.9	3.8	8.46e-01	0	41	104	0	70	15151
2026-01-22 05:10:27.77	263.37	8.53	-50.0	-61.9	3.8	8.46e-01	0	41	104	0	70	15161
2026-01-22 05:10:28.78	263.30	8.45	-50.0	-61.9	3.8	8.46e-01	0	41	104	0	70	15127
2026-01-22 05:10:29.79	263.23	8.38	-50.0	-61.9	3.8	8.46e-01	0	41	104	0	70	15184
2026-01-22 05:10:30.80	263.16	8.30	-50.0	-61.9	3.8	8.46e-01	0	41	104	0	70	15088
2026-01-22 05:10:31.81	263.09	8.23	-50.0	-61.9	3.8	8.46e-01	0	41	104	0	70	15124
2026-01-22 05:10:32.81	263.02	8.16	-50.0	-61.9	3.8	8.45e-01	0	41	104	0	70	15185
2026-01-22 05:10:33.82	262.95	8.08	-50.0	-61.9	3.8	8.46e-01	0	41	104	0	70	15103
2026-01-22 05:10:34.83	262.88	8.01	-50.0	-61.9	3.8	8.46e-01	0	41	104	0	70	15157
2026-01-22 05:10:35.84	262.81	7.93	-50.0	-61.9	3.8	8.46e-01	0	41	104	0	70	15166
2026-01-22 05:10:36.84	262.74	7.86	-50.0	-61.9	3.8	8.47e-01	0	41	104	0	70	15164
2026-01-22 05:10:37.85	262.67	7.79	-50.0	-61.9	3.8	8.45e-01	0	41	104	0	70	15099
2026-01-22 05:10:38.86	262.60	7.71	-50.0	-61.9	3.8	8.46e-01	0	41	104	0	70	15152
2026-01-22 05:10:39.87	262.53	7.64	-50.0	-61.9	3.8	8.47e-01	0	41	104	0	70	15143
2026-01-22 05:10:40.88	262.47	7.57	-50.0	-61.9	3.8	8.46e-01	0	41	104	0	70	15179
2026-01-22 05:10:41.89	262.40	7.49	-50.0	-61.9	3.8	8.46e-01	0	41	104	0	70	15138
2026-01-22 05:10:42.89	262.33	7.42	-50.0	-61.9	3.8	8.47e-01	0	41	104	0	70	15130
2026-01-22 05:10:43.90	262.27	7.35	-50.0	-61.9	3.8	8.47e-01	0	41	104	0	70	15124
2026-01-22 05:10:44.91	262.20	7.28	-50.0	-61.9	3.8	8.46e-01	0	41	104	0	70	15099
2026-01-22 05:10:45.92	262.14	7.21	-50.0	-61.9	3.8	8.47e-01	0	41	104	0	70	15136
2026-01-22 05:10:46.93	262.07	7.13	-50.0	-61.9	3.8	8.47e-01	0	41	104	0	70	15126
2026-01-22 05:10:47.93	262.01	7.06	-50.0	-61.9	3.8	8.46e-01	0	41	104	0	70	15168
2026-01-22 05:10:48.94	261.94	6.99	-50.0	-61.9	3.8	8.47e-01	0	41	104	0	70	15141
2026-01-22 05:10:49.95	261.88	6.92	-50.0	-61.9	3.8	8.46e-01	0	41	104	0	70	15153
2026-01-22 05:10:50.96	261.81	6.85	-50.0	-61.9	3.8	8.47e-01	0	41	104	0	70	15125
2026-01-22 05:10:51.97	261.75	6.78	-50.0	-61.9	3.8	8.47e-01	0	41	104	0	70	15143
2026-01-22 05:10:52.97	261.69	6.71	-50.0	-61.9	3.8	8.47e-01	0	41	104	0	70	15131
2026-01-22 05:10:53.98	261.62	6.63	-50.0	-61.9	3.8	8.46e-01	0	41	104	0	70	15166
2026-01-22 05:10:54.99	261.56	6.56	-50.0	-61.9	3.8	8.47e-01	0	41	104	0	70	15120
2026-01-22 05:10:56.00	261.50	6.49	-50.0	-61.9	3.8	8.45e-01	0	41	104	0	70	15146
2026-01-22 05:10:57.01	261.43	6.42	-50.0	-61.9	3.8	8.47e-01	0	41	104	0	70	15153
2026-01-22 05:10:58.02	261.37	6.35	-50.0	-61.9	3.8	8.46e-01	0	41	104	0	70	15186
2026-01-22 05:10:59.03	261.31	6.28	-50.0	-61.9	3.8	8.46e-01	0	41	104	0	70	15117
2026-01-22 05:11:00.04	261.25	6.21	-50.0	-61.9	3.8	8.45e-01	0	41	104	0	70	15115
