passes_logs/2026/01/22/R3.2S_Murmansk/R3.2S_Murmansk__20260122_114953_NOAA_21_JPSS-2_rec.log

#Pass ID: 20260122_114953_NOAA 21 (JPSS-2)
#Satellite: NOAA 21 (JPSS-2)
#Configuration: NOAA-21
#almurnet v.1.7.20251203
#Start time: 2026-01-22 11:50:01

#Version: 2.2.20231116
#Station: R3.2S_Murmansk
#Location: 33.079688 lon 68.888172 lat
#TLE: 1 54234U 22150A   26021.42686626  .00000211  00000+0  12107-3 0  9996
#TLE: 2 54234  98.7506 322.2490 0000636 241.9299 118.1812 14.19537149165725

#Time	Az	El	Level	Level2	SNR	BER	BlckErr	Temp	State	Recorded	gain1	gain2
2026-01-22 11:50:01.35	210.45	2.46	-53.5	-65.5	3.8	8.46e-01	0	40	0	0	77	15307
2026-01-22 11:50:02.35	210.52	2.52	-54.4	-67.2	3.8	1.49e+00	0	41	104	0	79	16621
2026-01-22 11:50:03.36	210.59	2.57	-54.4	-67.2	3.8	1.49e+00	0	41	104	0	79	16663
2026-01-22 11:50:04.37	210.67	2.63	-54.4	-67.3	3.8	1.49e+00	0	41	104	0	79	16705
2026-01-22 11:50:05.38	210.74	2.69	-54.5	-67.3	3.8	1.49e+00	0	41	104	0	79	16766
2026-01-22 11:50:06.38	210.81	2.75	-54.5	-67.3	3.8	1.49e+00	0	41	104	0	79	16813
2026-01-22 11:50:07.39	210.88	2.80	-54.5	-67.3	3.8	1.49e+00	0	41	104	0	79	16842
2026-01-22 11:50:08.40	210.95	2.86	-54.5	-67.4	3.8	1.49e+00	0	41	104	0	79	16894
2026-01-22 11:50:09.41	211.03	2.92	-54.5	-67.4	3.8	1.49e+00	0	41	104	0	79	16972
2026-01-22 11:50:10.42	211.10	2.98	-54.6	-67.4	3.8	1.49e+00	0	41	104	0	79	16979
2026-01-22 11:50:11.43	211.17	3.03	-54.6	-67.4	3.8	1.49e+00	0	41	104	0	79	16996
2026-01-22 11:50:12.44	211.24	3.09	-54.6	-67.4	3.8	1.49e+00	0	41	104	0	79	17027
2026-01-22 11:50:13.45	211.32	3.15	-54.6	-67.5	3.8	1.49e+00	0	41	104	0	79	17118
2026-01-22 11:50:14.45	211.39	3.21	-54.7	-67.5	3.8	1.49e+00	0	41	104	0	79	17129
2026-01-22 11:50:15.46	211.47	3.27	-54.7	-67.5	3.8	1.49e+00	0	41	104	0	79	17223
2026-01-22 11:50:16.47	211.54	3.32	-54.7	-67.5	3.8	1.49e+00	0	41	104	0	79	17172
2026-01-22 11:50:17.48	211.62	3.38	-54.7	-67.5	3.8	1.49e+00	0	41	104	0	79	17230
2026-01-22 11:50:18.49	211.69	3.44	-54.7	-67.5	3.8	1.49e+00	0	41	104	0	79	17220
2026-01-22 11:50:19.49	211.76	3.50	-54.7	-67.5	3.8	1.49e+00	0	41	104	0	79	17263
2026-01-22 11:50:20.50	211.84	3.56	-54.7	-67.5	3.8	1.49e+00	0	41	104	0	79	17218
2026-01-22 11:50:21.51	211.92	3.62	-54.7	-67.5	3.8	1.49e+00	0	41	104	0	79	17154
2026-01-22 11:50:22.52	211.99	3.67	-54.7	-67.5	3.8	1.49e+00	0	41	104	0	79	17102
2026-01-22 11:50:23.53	212.07	3.73	-54.6	-67.5	3.8	1.49e+00	0	41	104	0	79	17128
2026-01-22 11:50:24.54	212.15	3.79	-54.6	-67.5	3.8	1.49e+00	0	41	104	0	79	17104
2026-01-22 11:50:25.54	212.22	3.85	-54.6	-67.4	3.8	1.49e+00	0	41	104	0	79	17026
2026-01-22 11:50:26.55	212.30	3.91	-54.6	-67.4	3.8	1.49e+00	0	41	104	0	79	17033
2026-01-22 11:50:27.56	212.38	3.97	-54.6	-67.4	3.8	1.49e+00	0	41	104	0	79	16922
2026-01-22 11:50:28.57	212.45	4.03	-54.5	-67.4	3.8	1.49e+00	0	41	104	0	79	16962
2026-01-22 11:50:29.58	212.53	4.09	-54.5	-67.3	3.8	1.49e+00	0	41	104	0	79	16844
2026-01-22 11:50:30.59	212.61	4.15	-54.5	-67.3	3.8	1.49e+00	0	41	104	0	79	16850
2026-01-22 11:50:31.60	212.69	4.21	-54.5	-67.3	3.8	1.49e+00	0	41	104	0	79	16837
2026-01-22 11:50:32.61	212.77	4.27	-54.5	-67.4	3.8	1.49e+00	0	41	104	0	79	16939
2026-01-22 11:50:33.61	212.85	4.33	-54.5	-67.3	3.8	1.49e+00	0	41	104	0	79	16883
2026-01-22 11:50:34.62	212.93	4.39	-54.6	-67.4	3.8	1.49e+00	0	41	104	0	79	16921
2026-01-22 11:50:35.63	213.01	4.45	-54.5	-67.3	3.8	1.49e+00	0	41	104	0	79	16804
2026-01-22 11:50:36.64	213.09	4.51	-54.5	-67.3	3.8	1.49e+00	0	41	104	0	79	16814
2026-01-22 11:50:37.64	213.17	4.56	-54.5	-67.3	3.8	1.49e+00	0	41	104	0	79	16750
2026-01-22 11:50:38.65	213.25	4.62	-54.5	-67.3	3.8	1.49e+00	0	41	104	0	79	16728
2026-01-22 11:50:39.66	213.33	4.69	-54.5	-67.3	3.8	1.49e+00	0	41	104	0	79	16769
2026-01-22 11:50:40.67	213.41	4.75	-54.4	-67.2	3.8	1.49e+00	0	41	104	0	79	16684
2026-01-22 11:50:41.68	213.49	4.81	-54.4	-67.2	3.8	1.49e+00	0	41	104	0	79	16663
2026-01-22 11:50:42.69	213.58	4.87	-54.4	-67.2	3.8	1.49e+00	0	41	104	0	79	16681
2026-01-22 11:50:43.70	213.66	4.93	-54.4	-67.2	3.8	1.49e+00	0	41	104	0	79	16641
2026-01-22 11:50:44.71	213.74	4.99	-54.4	-67.2	3.8	1.49e+00	0	41	104	0	79	16580
2026-01-22 11:50:45.72	213.83	5.05	-54.4	-67.2	3.8	1.49e+00	0	41	104	0	79	16614
2026-01-22 11:50:46.73	213.91	5.11	-54.4	-67.2	3.8	1.49e+00	0	41	104	0	79	16564
2026-01-22 11:50:47.73	213.99	5.17	-54.4	-67.2	3.8	1.49e+00	0	41	104	0	79	16591
2026-01-22 11:50:48.74	214.08	5.23	-54.4	-67.2	3.8	1.49e+00	0	41	104	0	79	16582
2026-01-22 11:50:49.75	214.16	5.29	-54.4	-67.2	3.8	1.49e+00	0	41	104	0	79	16564
2026-01-22 11:50:50.76	214.25	5.35	-54.4	-67.2	3.8	1.49e+00	0	41	104	0	79	16531
2026-01-22 11:50:51.76	214.33	5.41	-54.4	-67.2	3.8	1.49e+00	0	41	104	0	79	16538
2026-01-22 11:50:52.77	214.42	5.48	-54.4	-67.2	3.8	1.49e+00	0	41	104	0	79	16578
2026-01-22 11:50:53.78	214.50	5.54	-54.4	-67.2	3.8	1.49e+00	0	41	104	0	79	16558
2026-01-22 11:50:54.79	214.59	5.60	-54.5	-67.3	3.8	1.49e+00	0	41	104	0	79	16816
2026-01-22 11:50:55.80	214.67	5.66	-54.6	-67.4	3.8	1.49e+00	0	41	104	0	79	17046
2026-01-22 11:50:56.80	214.76	5.72	-54.7	-67.5	3.8	1.49e+00	0	41	104	0	79	17174
2026-01-22 11:50:57.81	214.85	5.78	-54.7	-67.5	3.8	1.49e+00	0	41	104	0	79	17206
2026-01-22 11:50:58.82	214.94	5.85	-54.6	-67.5	3.8	1.49e+00	0	41	104	0	80	16166
2026-01-22 11:50:59.83	215.02	5.91	-54.6	-67.5	3.8	1.49e+00	0	41	104	0	80	16158
2026-01-22 11:51:00.84	215.11	5.97	-54.6	-67.4	3.8	1.49e+00	0	41	104	0	80	16071
2026-01-22 11:51:01.85	215.20	6.03	-54.6	-67.4	3.8	1.49e+00	0	41	104	0	80	15985
2026-01-22 11:51:02.85	215.29	6.09	-54.5	-67.3	3.8	1.49e+00	0	41	104	0	80	15929
2026-01-22 11:51:03.86	215.38	6.16	-54.5	-67.3	3.8	1.49e+00	0	41	104	0	80	15799
2026-01-22 11:51:04.87	215.47	6.22	-54.4	-67.2	3.8	1.49e+00	0	41	104	0	80	15723
2026-01-22 11:51:05.88	215.56	6.28	-54.4	-67.2	3.8	1.49e+00	0	41	104	0	80	15709
2026-01-22 11:51:06.89	215.65	6.34	-54.4	-67.2	3.8	1.49e+00	0	41	104	0	80	15645
2026-01-22 11:51:07.90	215.74	6.41	-54.3	-67.1	3.8	1.49e+00	0	41	104	0	80	15523
2026-01-22 11:51:08.91	215.83	6.47	-54.3	-67.1	3.8	1.49e+00	0	41	104	0	80	15439
2026-01-22 11:51:09.92	215.92	6.53	-54.2	-67.0	3.8	1.49e+00	0	41	104	0	80	15389
2026-01-22 11:51:10.92	216.01	6.59	-54.2	-66.9	3.8	1.49e+00	0	41	104	0	80	15224
2026-01-22 11:51:11.93	216.11	6.66	-54.1	-66.9	3.8	1.49e+00	0	41	104	0	80	15194
2026-01-22 11:51:12.94	216.20	6.72	-54.0	-66.8	3.8	1.49e+00	0	41	104	0	80	14989
2026-01-22 11:51:13.95	216.29	6.78	-54.0	-66.7	3.8	1.49e+00	0	41	104	0	79	15708
2026-01-22 11:51:14.96	216.39	6.85	-53.8	-66.5	3.8	1.49e+00	0	41	104	0	79	15389
2026-01-22 11:51:15.96	216.48	6.91	-53.6	-66.4	3.8	1.49e+00	0	41	104	0	79	15063
2026-01-22 11:51:16.97	216.57	6.97	-45.2	-46.2	17.9	6.71e-01	0	41	104	0	62	3950
2026-01-22 11:51:17.98	216.67	7.04	-49.9	-52.7	12.3	0.00e+00	0	41	0	2097152	70	5264
2026-01-22 11:51:18.99	216.76	7.10	-46.3	-47.7	17.2	0.00e+00	0	41	0	5242880	63	4405
2026-01-22 11:51:19.99	216.86	7.17	-51.3	-55.7	9.2	4.50e-05	0	41	0	8388608	73	6254
2026-01-22 11:51:21.00	216.95	7.23	-48.2	-50.2	14.8	0.00e+00	0	41	0	11534336	68	4408
2026-01-22 11:51:22.01	217.05	7.29	-46.4	-47.8	17.1	0.00e+00	0	41	0	14680064	63	4484
2026-01-22 11:51:23.02	217.15	7.36	-44.5	-45.6	19.1	0.00e+00	0	41	0	17825792	61	3900
2026-01-22 11:51:24.03	217.24	7.42	-44.4	-45.5	19.2	0.00e+00	0	41	0	20971520	60	4078
2026-01-22 11:51:25.04	217.34	7.49	-44.4	-45.5	19.2	0.00e+00	0	41	0	24117248	60	4074
2026-01-22 11:51:26.04	217.44	7.55	-44.5	-45.6	19.2	0.00e+00	0	41	0	27262976	60	4117
2026-01-22 11:51:27.05	217.54	7.62	-44.1	-45.1	19.6	0.00e+00	0	41	0	30408704	60	3913
2026-01-22 11:51:28.06	217.64	7.68	-44.6	-45.6	19.5	0.00e+00	0	41	0	33554432	59	4388
2026-01-22 11:51:29.07	217.74	7.74	-44.7	-45.8	19.3	0.00e+00	0	41	0	36700160	59	4451
2026-01-22 11:51:30.08	217.84	7.81	-44.6	-45.7	19.4	0.00e+00	0	41	0	39845888	59	4409
2026-01-22 11:51:31.09	217.94	7.87	-44.7	-45.8	19.4	0.00e+00	0	41	0	42991616	59	4447
2026-01-22 11:51:32.10	218.04	7.94	-44.5	-45.6	19.5	0.00e+00	0	41	0	46137344	59	4369
2026-01-22 11:51:33.10	218.14	8.00	-44.4	-45.5	19.6	0.00e+00	0	41	0	49283072	59	4296
2026-01-22 11:51:34.11	218.24	8.07	-44.4	-45.5	19.6	0.00e+00	0	41	0	52428800	59	4307
2026-01-22 11:51:35.12	218.34	8.13	-44.5	-45.6	19.5	0.00e+00	0	41	0	55574528	59	4362
2026-01-22 11:51:36.13	218.44	8.20	-44.3	-45.3	19.8	0.00e+00	0	41	0	58720256	59	4214
2026-01-22 11:51:37.14	218.54	8.27	-44.4	-45.4	19.7	0.00e+00	0	41	0	61865984	59	4286
2026-01-22 11:51:38.15	218.65	8.33	-44.3	-45.3	19.8	0.00e+00	0	41	0	65011712	59	4230
2026-01-22 11:51:39.16	218.75	8.40	-44.2	-45.2	19.9	0.00e+00	0	41	0	68157440	59	4187
2026-01-22 11:51:40.17	218.85	8.46	-44.5	-45.5	19.6	0.00e+00	0	41	0	71303168	59	4325
2026-01-22 11:51:41.18	218.96	8.53	-44.5	-45.6	19.6	0.00e+00	0	41	0	74448896	59	4363
2026-01-22 11:51:42.18	219.06	8.59	-44.1	-45.1	20.0	0.00e+00	0	41	0	77594624	59	4120
2026-01-22 11:51:43.19	219.17	8.66	-44.3	-45.3	19.8	0.00e+00	0	41	0	80740352	59	4233
2026-01-22 11:51:44.20	219.27	8.73	-44.3	-45.3	19.8	0.00e+00	0	41	0	83886080	59	4229
2026-01-22 11:51:45.21	219.38	8.79	-44.2	-45.2	19.9	0.00e+00	0	41	0	87031808	59	4192
2026-01-22 11:51:46.22	219.49	8.86	-44.2	-45.2	19.9	0.00e+00	0	41	0	90177536	59	4171
2026-01-22 11:51:47.23	219.59	8.93	-44.2	-45.2	19.9	0.00e+00	0	41	0	93323264	59	4172
2026-01-22 11:51:48.24	219.70	8.99	-44.2	-45.2	20.0	0.00e+00	0	41	0	96468992	59	4177
2026-01-22 11:51:49.24	219.81	9.06	-44.1	-45.1	20.1	0.00e+00	0	41	0	99614720	59	4109
2026-01-22 11:51:50.25	219.92	9.12	-44.1	-45.1	20.1	0.00e+00	0	41	0	102760448	59	4106
2026-01-22 11:51:51.26	220.03	9.19	-44.1	-45.1	20.0	0.00e+00	0	41	0	105906176	59	4133
2026-01-22 11:51:52.27	220.14	9.26	-44.3	-45.3	19.9	0.00e+00	0	41	0	109051904	59	4208
2026-01-22 11:51:53.28	220.25	9.33	-44.4	-45.4	19.7	0.00e+00	0	41	0	112197632	59	4272
2026-01-22 11:51:54.29	220.36	9.39	-44.3	-45.3	19.9	0.00e+00	0	41	0	115343360	59	4214
2026-01-22 11:51:55.30	220.47	9.46	-43.9	-44.9	20.2	0.00e+00	0	41	0	118489088	59	4034
2026-01-22 11:51:56.31	220.58	9.53	-44.1	-45.1	20.1	0.00e+00	0	41	0	121634816	59	4122
2026-01-22 11:51:57.31	220.69	9.59	-44.2	-45.2	20.0	0.00e+00	0	41	0	124780544	59	4156
2026-01-22 11:51:58.32	220.80	9.66	-44.0	-45.0	20.2	0.00e+00	0	41	0	127926272	59	4078
2026-01-22 11:51:59.33	220.92	9.73	-43.9	-44.9	20.3	0.00e+00	0	41	0	131072000	59	4026
2026-01-22 11:52:00.34	221.03	9.80	-43.9	-44.9	20.3	0.00e+00	0	41	0	134217728	59	4014
2026-01-22 11:52:01.35	221.14	9.86	-43.8	-44.8	20.3	0.00e+00	0	41	0	137363456	59	3987
2026-01-22 11:52:02.36	221.26	9.93	-43.9	-44.9	20.3	0.00e+00	0	41	0	140509184	59	4040
2026-01-22 11:52:03.36	221.37	10.00	-43.8	-44.7	20.4	0.00e+00	0	41	0	143654912	59	3952
2026-01-22 11:52:04.37	221.49	10.07	-43.6	-44.5	20.6	0.00e+00	0	41	0	146800640	59	3857
2026-01-22 11:52:05.38	221.60	10.13	-43.8	-44.7	20.5	0.00e+00	0	41	0	149946368	59	3948
2026-01-22 11:52:06.39	221.72	10.20	-43.8	-44.8	20.4	0.00e+00	0	41	0	153092096	59	3964
2026-01-22 11:52:07.40	221.84	10.27	-43.7	-44.6	20.5	0.00e+00	0	41	0	156237824	59	3906
2026-01-22 11:52:08.41	221.96	10.34	-43.7	-44.6	20.5	0.00e+00	0	41	0	159383552	59	3890
2026-01-22 11:52:09.42	222.07	10.41	-43.7	-44.6	20.6	0.00e+00	0	41	0	162529280	59	3902
2026-01-22 11:52:10.42	222.19	10.48	-43.7	-44.6	20.5	0.00e+00	0	41	0	165675008	59	3908
2026-01-22 11:52:11.43	222.31	10.54	-43.6	-44.6	20.6	0.00e+00	0	41	0	168820736	59	3889
2026-01-22 11:52:12.44	222.43	10.61	-43.6	-44.5	20.6	0.00e+00	0	41	0	171966464	59	3841
2026-01-22 11:52:13.45	222.55	10.68	-43.5	-44.5	20.7	0.00e+00	0	41	0	175112192	59	3828
2026-01-22 11:52:14.46	222.67	10.75	-43.6	-44.6	20.6	0.00e+00	0	41	0	178257920	59	3869
2026-01-22 11:52:15.46	222.79	10.82	-43.6	-44.5	20.7	0.00e+00	0	41	0	181403648	59	3859
2026-01-22 11:52:16.47	222.91	10.89	-43.5	-44.4	20.8	0.00e+00	0	41	0	184549376	58	4015
2026-01-22 11:52:17.48	223.04	10.96	-43.5	-44.4	20.8	0.00e+00	0	41	0	187695104	58	4040
2026-01-22 11:52:18.49	223.16	11.03	-43.4	-44.3	20.8	0.00e+00	0	41	0	190840832	58	3988
2026-01-22 11:52:19.49	223.28	11.09	-43.5	-44.4	20.8	0.00e+00	0	41	0	193986560	58	4028
2026-01-22 11:52:20.50	223.41	11.16	-43.4	-44.3	20.8	0.00e+00	0	41	0	197132288	58	3995
2026-01-22 11:52:21.51	223.53	11.23	-43.4	-44.3	20.9	0.00e+00	0	41	0	200278016	58	3970
2026-01-22 11:52:22.52	223.66	11.30	-43.4	-44.4	20.8	0.00e+00	0	41	0	203423744	58	4007
2026-01-22 11:52:23.53	223.78	11.37	-43.5	-44.4	20.8	0.00e+00	0	41	0	206569472	58	4034
2026-01-22 11:52:24.54	223.91	11.44	-43.5	-44.4	20.8	0.00e+00	0	41	0	209715200	58	4050
2026-01-22 11:52:25.54	224.03	11.51	-43.5	-44.4	20.8	0.00e+00	0	41	0	212860928	58	4020
2026-01-22 11:52:26.55	224.16	11.58	-43.4	-44.3	20.8	0.00e+00	0	41	0	216006656	58	3991
2026-01-22 11:52:27.56	224.29	11.65	-43.3	-44.2	21.0	0.00e+00	0	41	0	219152384	58	3932
2026-01-22 11:52:28.57	224.42	11.72	-43.4	-44.3	20.9	0.00e+00	0	41	0	222298112	58	3979
2026-01-22 11:52:29.58	224.55	11.79	-43.2	-44.1	21.1	0.00e+00	0	41	0	225443840	58	3903
2026-01-22 11:52:30.59	224.68	11.86	-43.3	-44.2	21.0	0.00e+00	0	41	0	228589568	58	3926
2026-01-22 11:52:31.59	224.81	11.93	-43.2	-44.1	21.1	0.00e+00	0	41	0	231735296	58	3903
2026-01-22 11:52:32.60	224.94	12.00	-43.2	-44.1	21.1	0.00e+00	0	41	0	234881024	58	3904
2026-01-22 11:52:33.61	225.07	12.07	-43.2	-44.1	21.1	0.00e+00	0	41	0	238026752	58	3883
2026-01-22 11:52:34.62	225.20	12.14	-43.2	-44.1	21.1	0.00e+00	0	41	0	241172480	58	3896
2026-01-22 11:52:35.62	225.33	12.21	-43.1	-44.0	21.2	0.00e+00	0	41	0	244318208	58	3842
2026-01-22 11:52:36.64	225.47	12.28	-43.2	-44.0	21.2	0.00e+00	0	41	0	247463936	58	3867
2026-01-22 11:52:37.65	225.60	12.35	-43.1	-44.0	21.2	0.00e+00	0	41	0	250609664	58	3826
2026-01-22 11:52:38.65	225.74	12.42	-43.2	-44.1	21.1	0.00e+00	0	41	0	253755392	58	3885
2026-01-22 11:52:39.66	225.87	12.49	-43.0	-43.9	21.2	0.00e+00	0	41	0	256901120	58	3812
2026-01-22 11:52:40.67	226.01	12.56	-43.0	-43.9	21.3	0.00e+00	0	41	0	260046848	58	3814
2026-01-22 11:52:41.68	226.14	12.63	-43.0	-43.9	21.3	0.00e+00	0	41	0	263192576	58	3806
2026-01-22 11:52:42.69	226.28	12.70	-43.1	-44.0	21.2	0.00e+00	0	41	0	266338304	58	3832
2026-01-22 11:52:43.69	226.42	12.77	-43.1	-44.0	21.2	0.00e+00	0	41	0	269484032	58	3866
2026-01-22 11:52:44.70	226.56	12.84	-43.0	-43.9	21.3	0.00e+00	0	41	0	272629760	58	3802
2026-01-22 11:52:45.71	226.70	12.92	-43.0	-43.9	21.3	0.00e+00	0	41	0	275775488	58	3809
2026-01-22 11:52:46.72	226.84	12.99	-43.0	-43.9	21.3	0.00e+00	0	41	0	278921216	57	4019
2026-01-22 11:52:47.73	226.98	13.06	-43.0	-43.8	21.4	0.00e+00	0	41	0	282066944	57	3995
2026-01-22 11:52:48.74	227.12	13.13	-43.0	-43.9	21.3	0.00e+00	0	41	0	285212672	57	4036
2026-01-22 11:52:49.74	227.26	13.20	-42.9	-43.8	21.5	0.00e+00	0	41	0	288358400	57	3971
2026-01-22 11:52:50.75	227.40	13.27	-43.0	-43.8	21.4	0.00e+00	0	41	0	291504128	57	3999
2026-01-22 11:52:51.76	227.54	13.34	-42.9	-43.8	21.4	0.00e+00	0	41	0	295698432	57	3969
2026-01-22 11:52:52.77	227.69	13.41	-42.9	-43.7	21.4	0.00e+00	0	41	0	298844160	57	3958
2026-01-22 11:52:53.78	227.83	13.48	-42.9	-43.8	21.4	0.00e+00	0	41	0	301989888	57	3966
2026-01-22 11:52:54.79	227.98	13.56	-43.0	-43.9	21.4	0.00e+00	0	41	0	305135616	57	4009
2026-01-22 11:52:55.80	228.12	13.63	-43.1	-44.0	21.2	0.00e+00	0	41	0	307232768	57	4074
2026-01-22 11:52:56.80	228.27	13.70	-42.9	-43.8	21.4	0.00e+00	0	41	0	310378496	57	3960
2026-01-22 11:52:57.81	228.42	13.77	-42.9	-43.8	21.4	0.00e+00	0	41	0	313524224	57	3967
2026-01-22 11:52:58.82	228.56	13.84	-42.9	-43.8	21.4	0.00e+00	0	41	0	316669952	57	3980
2026-01-22 11:52:59.83	228.71	13.91	-42.9	-43.7	21.5	0.00e+00	0	41	0	319815680	57	3945
2026-01-22 11:53:00.84	228.86	13.98	-43.0	-43.9	21.4	0.00e+00	0	41	0	322961408	57	4012
2026-01-22 11:53:01.85	229.01	14.06	-42.9	-43.8	21.4	0.00e+00	0	41	0	326107136	57	3966
2026-01-22 11:53:02.85	229.16	14.13	-42.9	-43.8	21.5	0.00e+00	0	41	0	329252864	57	3961
2026-01-22 11:53:03.86	229.31	14.20	-42.9	-43.8	21.4	0.00e+00	0	41	0	333447168	57	3983
2026-01-22 11:53:04.87	229.46	14.27	-43.1	-43.9	21.3	0.00e+00	0	41	0	336592896	57	4048
2026-01-22 11:53:05.87	229.61	14.34	-43.0	-43.8	21.4	0.00e+00	0	41	0	339738624	57	3994
2026-01-22 11:53:06.88	229.77	14.41	-42.9	-43.8	21.4	0.00e+00	0	41	0	342884352	57	3977
2026-01-22 11:53:07.89	229.92	14.49	-43.0	-43.9	21.3	0.00e+00	0	41	0	346030080	57	4032
2026-01-22 11:53:08.90	230.08	14.56	-43.0	-43.9	21.3	0.00e+00	0	41	0	349175808	57	4031
2026-01-22 11:53:09.91	230.23	14.63	-43.1	-44.0	21.2	0.00e+00	0	41	0	352321536	57	4089
2026-01-22 11:53:10.92	230.39	14.70	-43.1	-44.0	21.3	0.00e+00	0	41	0	354418688	57	4063
2026-01-22 11:53:11.92	230.54	14.77	-43.1	-43.9	21.3	0.00e+00	0	41	0	357564416	57	4049
2026-01-22 11:53:12.93	230.70	14.84	-43.1	-43.9	21.3	0.00e+00	0	41	0	360710144	57	4051
2026-01-22 11:53:13.94	230.86	14.92	-43.1	-44.0	21.3	0.00e+00	0	41	0	363855872	57	4053
2026-01-22 11:53:14.95	231.02	14.99	-43.1	-43.9	21.3	0.00e+00	0	41	0	367001600	57	4049
2026-01-22 11:53:15.96	231.18	15.06	-43.0	-43.9	21.3	0.00e+00	0	41	0	371195904	57	4006
2026-01-22 11:53:16.96	231.34	15.13	-43.1	-43.9	21.3	0.00e+00	0	41	0	374341632	57	4043
2026-01-22 11:53:17.97	231.50	15.20	-42.9	-43.8	21.4	0.00e+00	0	41	0	377487360	57	3978
2026-01-22 11:53:18.98	231.66	15.28	-43.1	-43.9	21.3	0.00e+00	0	41	0	380633088	57	4045
2026-01-22 11:53:19.99	231.83	15.35	-43.0	-43.9	21.3	0.00e+00	0	41	0	383778816	57	4023
2026-01-22 11:53:21.00	231.99	15.42	-43.0	-43.9	21.4	0.00e+00	0	41	0	386924544	57	4015
2026-01-22 11:53:22.00	232.15	15.49	-43.0	-43.9	21.3	0.00e+00	0	41	0	390070272	57	4028
2026-01-22 11:53:23.01	232.32	15.56	-43.1	-44.0	21.3	0.00e+00	0	41	0	393216000	57	4075
2026-01-22 11:53:24.02	232.48	15.63	-43.1	-44.0	21.3	0.00e+00	0	41	0	396361728	57	4074
2026-01-22 11:53:25.03	232.65	15.71	-43.1	-44.0	21.3	0.00e+00	0	41	0	399507456	57	4063
2026-01-22 11:53:26.04	232.82	15.78	-43.0	-43.9	21.3	0.00e+00	0	41	0	401604608	57	4025
2026-01-22 11:53:27.05	232.99	15.85	-43.0	-43.9	21.3	0.00e+00	0	41	0	404750336	57	4037
2026-01-22 11:53:28.06	233.16	15.92	-43.1	-44.0	21.3	0.00e+00	0	41	0	408944640	57	4062
2026-01-22 11:53:29.07	233.33	15.99	-43.0	-43.9	21.3	0.00e+00	0	41	0	412090368	57	4043
2026-01-22 11:53:30.07	233.50	16.06	-43.1	-44.0	21.2	0.00e+00	0	41	0	415236096	57	4091
2026-01-22 11:53:31.08	233.67	16.14	-43.2	-44.1	21.2	0.00e+00	0	41	0	418381824	57	4105
2026-01-22 11:53:32.09	233.84	16.21	-43.0	-43.9	21.3	0.00e+00	0	41	0	421527552	57	4023
2026-01-22 11:53:33.10	234.01	16.28	-43.1	-43.9	21.3	0.00e+00	0	41	0	424673280	57	4045
2026-01-22 11:53:34.11	234.19	16.35	-43.1	-44.0	21.3	0.00e+00	0	41	0	427819008	57	4065
2026-01-22 11:53:35.11	234.36	16.42	-43.0	-43.9	21.3	0.00e+00	0	41	0	430964736	57	4015
2026-01-22 11:53:36.12	234.54	16.49	-43.1	-44.0	21.3	0.00e+00	0	41	0	434110464	57	4064
2026-01-22 11:53:37.13	234.71	16.57	-43.2	-44.0	21.2	0.00e+00	0	41	0	437256192	57	4096
2026-01-22 11:53:38.14	234.89	16.64	-43.2	-44.1	21.1	0.00e+00	0	41	0	440401920	57	4124
2026-01-22 11:53:39.14	235.07	16.71	-43.3	-44.2	21.1	0.00e+00	0	41	0	443547648	57	4176
2026-01-22 11:53:40.15	235.24	16.78	-43.3	-44.2	21.0	0.00e+00	0	41	0	446693376	57	4178
2026-01-22 11:53:41.16	235.42	16.85	-43.3	-44.1	21.1	0.00e+00	0	41	0	449839104	57	4144
2026-01-22 11:53:42.17	235.61	16.92	-43.2	-44.0	21.2	0.00e+00	0	41	0	452984832	57	4096
2026-01-22 11:53:43.18	235.79	16.99	-43.1	-44.0	21.3	0.00e+00	0	41	0	456130560	57	4083
2026-01-22 11:53:44.18	235.97	17.06	-43.1	-44.0	21.3	0.00e+00	0	41	0	459276288	57	4057
2026-01-22 11:53:45.19	236.15	17.14	-43.0	-43.9	21.4	0.00e+00	0	41	0	462422016	57	4036
2026-01-22 11:53:46.20	236.33	17.21	-43.1	-44.0	21.3	0.00e+00	0	41	0	465567744	57	4057
2026-01-22 11:53:47.20	236.52	17.28	-43.0	-43.9	21.4	0.00e+00	0	41	0	468713472	57	4027
2026-01-22 11:53:48.21	236.70	17.35	-43.1	-44.0	21.3	0.00e+00	0	41	0	471859200	57	4053
2026-01-22 11:53:49.22	236.89	17.42	-43.1	-44.0	21.3	0.00e+00	0	41	0	475004928	57	4064
2026-01-22 11:53:50.23	237.08	17.49	-43.1	-44.0	21.3	0.00e+00	0	41	0	478150656	57	4065
2026-01-22 11:53:51.24	237.26	17.56	-42.9	-43.8	21.4	0.00e+00	0	41	0	481296384	57	3990
2026-01-22 11:53:52.25	237.45	17.63	-43.0	-43.8	21.4	0.00e+00	0	41	0	484442112	57	3996
2026-01-22 11:53:53.26	237.64	17.70	-42.9	-43.7	21.5	0.00e+00	0	41	0	487587840	57	3956
2026-01-22 11:53:54.26	237.83	17.77	-42.7	-43.6	21.7	0.00e+00	0	41	0	490733568	57	3875
2026-01-22 11:53:55.27	238.02	17.84	-42.8	-43.6	21.6	0.00e+00	0	41	0	493879296	57	3913
2026-01-22 11:53:56.28	238.21	17.91	-42.7	-43.6	21.6	0.00e+00	0	41	0	497025024	57	3887
2026-01-22 11:53:57.28	238.41	17.98	-42.8	-43.6	21.6	0.00e+00	0	41	0	500170752	57	3903
2026-01-22 11:53:58.29	238.60	18.05	-42.9	-43.7	21.5	0.00e+00	0	41	0	503316480	57	3949
2026-01-22 11:53:59.30	238.79	18.12	-42.9	-43.8	21.5	0.00e+00	0	41	0	506462208	57	3976
2026-01-22 11:54:00.31	238.99	18.19	-42.9	-43.7	21.6	0.00e+00	0	41	0	509607936	57	3942
2026-01-22 11:54:01.32	239.19	18.26	-42.9	-43.8	21.5	0.00e+00	0	41	0	512753664	57	3977
2026-01-22 11:54:02.32	239.38	18.33	-42.8	-43.6	21.7	0.00e+00	0	41	0	515899392	57	3898
2026-01-22 11:54:03.33	239.58	18.40	-42.8	-43.6	21.7	0.00e+00	0	41	0	519045120	57	3904
2026-01-22 11:54:04.34	239.78	18.47	-42.7	-43.6	21.7	0.00e+00	0	41	0	522190848	57	3881
2026-01-22 11:54:05.35	239.98	18.53	-42.6	-43.4	21.8	0.00e+00	0	41	0	525336576	57	3804
2026-01-22 11:54:06.36	240.18	18.60	-42.7	-43.5	21.7	0.00e+00	0	41	0	528482304	57	3838
2026-01-22 11:54:07.36	240.38	18.67	-42.6	-43.5	21.8	0.00e+00	0	41	0	531628032	57	3825
2026-01-22 11:54:08.37	240.58	18.74	-42.7	-43.5	21.8	0.00e+00	0	41	0	534773760	57	3845
2026-01-22 11:54:09.38	240.79	18.81	-42.7	-43.5	21.8	0.00e+00	0	41	0	537919488	57	3853
2026-01-22 11:54:10.39	240.99	18.88	-42.8	-43.6	21.7	0.00e+00	0	41	0	541065216	57	3893
2026-01-22 11:54:11.40	241.20	18.94	-42.9	-43.7	21.6	0.00e+00	0	41	0	544210944	57	3940
2026-01-22 11:54:12.40	241.40	19.01	-42.7	-43.6	21.7	0.00e+00	0	41	0	547356672	57	3884
2026-01-22 11:54:13.41	241.61	19.08	-42.8	-43.7	21.6	0.00e+00	0	41	0	550502400	57	3931
2026-01-22 11:54:14.42	241.82	19.15	-42.8	-43.7	21.6	0.00e+00	0	41	0	553648128	57	3925
2026-01-22 11:54:15.42	242.02	19.21	-42.8	-43.6	21.7	0.00e+00	0	41	0	556793856	57	3913
2026-01-22 11:54:16.43	242.23	19.28	-42.8	-43.7	21.6	0.00e+00	0	41	0	559939584	57	3930
2026-01-22 11:54:17.44	242.45	19.35	-42.9	-43.8	21.6	0.00e+00	0	41	0	563085312	57	3971
2026-01-22 11:54:18.45	242.66	19.41	-42.8	-43.7	21.7	0.00e+00	0	41	0	566231040	57	3927
2026-01-22 11:54:19.46	242.87	19.48	-42.8	-43.7	21.7	0.00e+00	0	41	0	569376768	57	3927
2026-01-22 11:54:20.46	243.08	19.55	-42.8	-43.6	21.7	0.00e+00	0	41	0	572522496	57	3895
2026-01-22 11:54:21.47	243.30	19.61	-42.8	-43.6	21.7	0.00e+00	0	41	0	575668224	57	3910
2026-01-22 11:54:22.48	243.51	19.68	-42.9	-43.8	21.6	0.00e+00	0	41	0	578813952	57	3962
2026-01-22 11:54:23.49	243.73	19.74	-42.9	-43.8	21.6	0.00e+00	0	41	0	581959680	57	3964
2026-01-22 11:54:24.50	243.94	19.81	-43.0	-43.8	21.5	0.00e+00	0	41	0	585105408	57	4002
2026-01-22 11:54:25.50	244.16	19.87	-43.0	-43.8	21.5	0.00e+00	0	41	0	588251136	57	3997
2026-01-22 11:54:26.51	244.38	19.94	-43.1	-44.0	21.4	0.00e+00	0	41	0	591396864	57	4067
2026-01-22 11:54:27.52	244.60	20.00	-43.0	-43.9	21.5	0.00e+00	0	41	0	594542592	57	4034
2026-01-22 11:54:28.53	244.82	20.07	-42.9	-43.8	21.6	0.00e+00	0	41	0	597688320	57	3984
2026-01-22 11:54:29.54	245.04	20.13	-43.0	-43.9	21.5	0.00e+00	0	41	0	600834048	57	4013
2026-01-22 11:54:30.54	245.26	20.20	-42.9	-43.8	21.6	0.00e+00	0	41	0	603979776	57	3983
2026-01-22 11:54:31.55	245.48	20.26	-42.9	-43.8	21.6	0.00e+00	0	41	0	607125504	57	3980
2026-01-22 11:54:32.56	245.71	20.32	-42.9	-43.7	21.7	0.00e+00	0	41	0	610271232	57	3942
2026-01-22 11:54:33.57	245.93	20.39	-42.9	-43.8	21.6	0.00e+00	0	41	0	613416960	57	3986
2026-01-22 11:54:34.58	246.16	20.45	-42.8	-43.7	21.7	0.00e+00	0	41	0	616562688	57	3935
2026-01-22 11:54:35.58	246.38	20.51	-42.8	-43.7	21.7	0.00e+00	0	41	0	619708416	57	3932
2026-01-22 11:54:36.59	246.61	20.57	-42.8	-43.7	21.7	0.00e+00	0	41	0	622854144	57	3914
2026-01-22 11:54:37.60	246.84	20.63	-42.8	-43.7	21.6	0.00e+00	0	41	0	625999872	57	3920
2026-01-22 11:54:38.61	247.07	20.70	-42.8	-43.6	21.6	0.00e+00	0	41	0	629145600	57	3912
2026-01-22 11:54:39.62	247.30	20.76	-42.9	-43.8	21.5	0.00e+00	0	41	0	632291328	57	3975
2026-01-22 11:54:40.63	247.53	20.82	-43.0	-43.8	21.5	0.00e+00	0	41	0	635437056	57	3998
2026-01-22 11:54:41.64	247.76	20.88	-43.0	-43.9	21.5	0.00e+00	0	41	0	638582784	57	4009
2026-01-22 11:54:42.64	248.00	20.94	-42.9	-43.8	21.5	0.00e+00	0	41	0	641728512	57	3987
2026-01-22 11:54:43.65	248.23	21.00	-43.0	-43.8	21.5	0.00e+00	0	41	0	644874240	57	3996
2026-01-22 11:54:44.66	248.46	21.06	-42.9	-43.7	21.6	0.00e+00	0	41	0	648019968	57	3946
2026-01-22 11:54:45.67	248.70	21.12	-42.8	-43.7	21.6	0.00e+00	0	41	0	651165696	57	3915
2026-01-22 11:54:46.68	248.94	21.18	-42.5	-43.4	21.9	0.00e+00	0	41	0	654311424	57	3792
2026-01-22 11:54:47.68	249.17	21.24	-42.4	-43.3	22.0	0.00e+00	0	41	0	657457152	56	3961
2026-01-22 11:54:48.69	249.41	21.29	-42.4	-43.2	22.0	0.00e+00	0	41	0	660602880	56	3942
2026-01-22 11:54:49.70	249.65	21.35	-42.4	-43.2	22.0	0.00e+00	0	41	0	663748608	56	3946
2026-01-22 11:54:50.71	249.89	21.41	-42.4	-43.2	22.0	0.00e+00	0	41	0	666894336	56	3922
2026-01-22 11:54:51.72	250.13	21.47	-42.4	-43.2	21.9	0.00e+00	0	41	0	670040064	56	3945
2026-01-22 11:54:52.72	250.37	21.52	-42.6	-43.4	21.8	0.00e+00	0	41	0	673185792	56	4026
2026-01-22 11:54:53.73	250.61	21.58	-42.6	-43.4	21.8	0.00e+00	0	41	0	676331520	56	4033
2026-01-22 11:54:54.74	250.86	21.64	-42.6	-43.4	21.8	0.00e+00	0	41	0	679477248	56	4049
2026-01-22 11:54:55.75	251.10	21.69	-42.6	-43.5	21.8	0.00e+00	0	41	0	682622976	56	4069
2026-01-22 11:54:56.76	251.35	21.75	-42.4	-43.3	22.0	0.00e+00	0	41	0	685768704	56	3963
2026-01-22 11:54:57.76	251.59	21.80	-42.5	-43.3	22.0	0.00e+00	0	41	0	688914432	56	3971
2026-01-22 11:54:58.77	251.84	21.86	-42.4	-43.2	22.1	0.00e+00	0	41	0	692060160	56	3927
2026-01-22 11:54:59.78	252.09	21.91	-42.3	-43.1	22.2	0.00e+00	0	41	0	695205888	56	3887
2026-01-22 11:55:00.79	252.34	21.96	-42.3	-43.1	22.1	0.00e+00	0	41	0	698351616	56	3909
2026-01-22 11:55:01.80	252.58	22.02	-42.4	-43.2	22.1	0.00e+00	0	41	0	701497344	56	3936
2026-01-22 11:55:02.81	252.84	22.07	-42.4	-43.2	22.0	0.00e+00	0	41	0	704643072	56	3957
2026-01-22 11:55:03.81	253.08	22.12	-42.4	-43.3	22.0	0.00e+00	0	41	0	707788800	56	3966
2026-01-22 11:55:04.82	253.34	22.17	-42.5	-43.3	22.0	0.00e+00	0	41	0	710934528	56	4003
2026-01-22 11:55:05.83	253.59	22.23	-42.5	-43.3	22.0	0.00e+00	0	41	0	714080256	56	3982
2026-01-22 11:55:06.84	253.84	22.28	-42.4	-43.2	22.1	0.00e+00	0	41	0	717225984	56	3943
2026-01-22 11:55:07.85	254.10	22.33	-42.3	-43.1	22.2	0.00e+00	0	41	0	720371712	56	3900
2026-01-22 11:55:08.86	254.35	22.38	-42.2	-43.0	22.2	0.00e+00	0	41	0	723517440	56	3854
2026-01-22 11:55:09.86	254.61	22.43	-42.2	-43.0	22.2	0.00e+00	0	41	0	726663168	56	3843
2026-01-22 11:55:10.87	254.86	22.47	-42.2	-43.0	22.2	0.00e+00	0	41	0	729808896	56	3862
2026-01-22 11:55:11.88	255.12	22.52	-42.1	-42.9	22.3	0.00e+00	0	41	0	732954624	56	3808
2026-01-22 11:55:12.89	255.38	22.57	-42.2	-43.0	22.2	0.00e+00	0	41	0	736100352	56	3836
2026-01-22 11:55:13.90	255.64	22.62	-42.3	-43.1	22.2	0.00e+00	0	41	0	739246080	56	3869
2026-01-22 11:55:14.90	255.90	22.67	-42.4	-43.2	22.1	0.00e+00	0	41	0	742391808	56	3927
2026-01-22 11:55:15.91	256.16	22.71	-42.4	-43.2	22.1	0.00e+00	0	41	0	745537536	56	3920
2026-01-22 11:55:16.92	256.42	22.76	-42.3	-43.1	22.2	0.00e+00	0	41	0	748683264	56	3874
2026-01-22 11:55:17.93	256.68	22.80	-42.2	-43.0	22.2	0.00e+00	0	41	0	751828992	56	3862
2026-01-22 11:55:18.94	256.94	22.85	-42.3	-43.1	22.2	0.00e+00	0	41	0	754974720	56	3890
2026-01-22 11:55:19.94	257.20	22.89	-42.3	-43.1	22.1	0.00e+00	0	41	0	758120448	56	3912
2026-01-22 11:55:20.95	257.47	22.94	-42.4	-43.2	22.1	0.00e+00	0	41	0	761266176	56	3949
2026-01-22 11:55:21.96	257.73	22.98	-42.4	-43.3	21.9	0.00e+00	0	41	0	764411904	56	3967
2026-01-22 11:55:22.97	258.00	23.02	-42.6	-43.5	21.8	0.00e+00	0	41	0	767557632	56	4055
2026-01-22 11:55:23.98	258.27	23.07	-42.6	-43.4	21.8	0.00e+00	0	41	0	770703360	56	4051
2026-01-22 11:55:24.98	258.53	23.11	-42.6	-43.4	21.9	0.00e+00	0	41	0	773849088	56	4018
2026-01-22 11:55:25.99	258.80	23.15	-42.5	-43.4	21.9	0.00e+00	0	41	0	776994816	56	4008
2026-01-22 11:55:27.00	259.07	23.19	-42.2	-43.0	22.2	0.00e+00	0	41	0	780140544	56	3858
2026-01-22 11:55:28.01	259.34	23.23	-42.3	-43.1	22.2	0.00e+00	0	41	0	783286272	56	3871
2026-01-22 11:55:29.02	259.61	23.27	-42.3	-43.1	22.2	0.00e+00	0	41	0	786432000	56	3879
2026-01-22 11:55:30.02	259.87	23.31	-42.4	-43.2	22.0	0.00e+00	0	41	0	789577728	56	3950
2026-01-22 11:55:31.03	260.15	23.34	-42.5	-43.3	21.9	0.00e+00	0	41	0	792723456	56	3992
2026-01-22 11:55:32.04	260.42	23.38	-42.6	-43.4	21.8	0.00e+00	0	41	0	795869184	56	4051
2026-01-22 11:55:33.05	260.69	23.42	-42.5	-43.4	21.9	0.00e+00	0	41	0	799014912	56	4009
2026-01-22 11:55:34.06	260.96	23.46	-42.4	-43.3	22.0	0.00e+00	0	41	0	802160640	56	3963
2026-01-22 11:55:35.06	261.23	23.49	-42.5	-43.3	22.0	0.00e+00	0	41	0	805306368	56	3987
2026-01-22 11:55:36.07	261.51	23.53	-42.4	-43.2	22.1	0.00e+00	0	41	0	808452096	56	3930
2026-01-22 11:55:37.08	261.78	23.56	-42.3	-43.1	22.1	0.00e+00	0	41	0	811597824	56	3899
2026-01-22 11:55:38.09	262.06	23.59	-42.3	-43.2	22.0	0.00e+00	0	41	0	814743552	56	3915
2026-01-22 11:55:39.10	262.33	23.63	-42.3	-43.2	22.0	0.00e+00	0	41	0	817889280	56	3916
2026-01-22 11:55:40.10	262.61	23.66	-42.4	-43.2	22.0	0.00e+00	0	41	0	821035008	56	3958
2026-01-22 11:55:41.11	262.89	23.69	-42.4	-43.2	22.0	0.00e+00	0	41	0	824180736	56	3937
2026-01-22 11:55:42.12	263.16	23.72	-42.4	-43.2	22.1	0.00e+00	0	41	0	827326464	56	3920
2026-01-22 11:55:43.13	263.44	23.75	-42.4	-43.2	22.1	0.00e+00	0	41	0	830472192	56	3934
2026-01-22 11:55:44.14	263.72	23.78	-42.3	-43.1	22.2	0.00e+00	0	41	0	833617920	56	3903
2026-01-22 11:55:45.14	264.00	23.81	-42.3	-43.1	22.2	0.00e+00	0	41	0	836763648	56	3885
2026-01-22 11:55:46.15	264.28	23.84	-42.5	-43.3	22.0	0.00e+00	0	41	0	839909376	56	3991
2026-01-22 11:55:47.16	264.56	23.87	-42.3	-43.1	22.1	0.00e+00	0	41	0	843055104	56	3881
2026-01-22 11:55:48.17	264.84	23.90	-42.3	-43.1	22.1	0.00e+00	0	41	0	846200832	56	3912
2026-01-22 11:55:49.17	265.12	23.92	-42.1	-42.9	22.3	0.00e+00	0	41	0	849346560	56	3797
2026-01-22 11:55:50.18	265.40	23.95	-42.1	-42.9	22.4	0.00e+00	0	41	0	852492288	56	3786
2026-01-22 11:55:51.19	265.68	23.97	-42.1	-42.9	22.4	0.00e+00	0	41	0	855638016	56	3789
2026-01-22 11:55:52.20	265.96	24.00	-42.2	-43.0	22.3	0.00e+00	0	41	0	858783744	56	3845
2026-01-22 11:55:53.21	266.25	24.02	-42.3	-43.1	22.2	0.00e+00	0	41	0	861929472	56	3884
2026-01-22 11:55:54.21	266.53	24.05	-42.3	-43.1	22.2	0.00e+00	0	41	0	865075200	56	3902
2026-01-22 11:55:55.22	266.81	24.07	-42.4	-43.2	22.2	0.00e+00	0	41	0	868220928	56	3925
2026-01-22 11:55:56.23	267.09	24.09	-42.3	-43.1	22.2	0.00e+00	0	41	0	871366656	56	3870
2026-01-22 11:55:57.24	267.38	24.11	-42.2	-43.0	22.3	0.00e+00	0	41	0	874512384	56	3837
2026-01-22 11:55:58.24	267.66	24.13	-42.2	-43.0	22.3	0.00e+00	0	41	0	877658112	56	3855
2026-01-22 11:55:59.25	267.95	24.15	-42.3	-43.1	22.2	0.00e+00	0	41	0	880803840	56	3899
2026-01-22 11:56:00.26	268.23	24.17	-42.1	-42.9	22.4	0.00e+00	0	41	0	883949568	56	3808
2026-01-22 11:56:01.27	268.52	24.19	-42.0	-42.8	22.4	0.00e+00	0	41	0	887095296	56	3754
2026-01-22 11:56:02.28	268.80	24.21	-42.1	-42.9	22.4	0.00e+00	0	41	0	890241024	56	3790
2026-01-22 11:56:03.29	269.09	24.22	-42.1	-42.8	22.5	0.00e+00	0	41	0	893386752	56	3780
2026-01-22 11:56:04.29	269.38	24.24	-41.8	-42.6	22.5	0.00e+00	0	41	0	896532480	55	3900
2026-01-22 11:56:05.30	269.66	24.26	-41.8	-42.6	22.5	0.00e+00	0	41	0	899678208	55	3895
2026-01-22 11:56:06.31	269.95	24.27	-41.8	-42.5	22.6	0.00e+00	0	41	0	902823936	55	3856
2026-01-22 11:56:07.32	270.24	24.28	-41.9	-42.7	22.4	0.00e+00	0	41	0	905969664	55	3946
2026-01-22 11:56:08.33	270.53	24.30	-42.0	-42.8	22.4	0.00e+00	0	41	0	909115392	55	3962
2026-01-22 11:56:09.33	270.81	24.31	-42.0	-42.8	22.3	0.00e+00	0	41	0	912261120	55	3982
2026-01-22 11:56:10.34	271.10	24.32	-42.0	-42.8	22.3	0.00e+00	0	41	0	915406848	55	3992
2026-01-22 11:56:11.35	271.39	24.33	-42.0	-42.8	22.4	0.00e+00	0	41	0	918552576	55	3965
2026-01-22 11:56:12.36	271.68	24.34	-41.9	-42.7	22.4	0.00e+00	0	41	0	921698304	55	3919
2026-01-22 11:56:13.37	271.96	24.35	-41.9	-42.7	22.4	0.00e+00	0	41	0	924844032	55	3914
2026-01-22 11:56:14.38	272.25	24.36	-42.0	-42.8	22.2	0.00e+00	0	41	0	927989760	55	3999
2026-01-22 11:56:15.38	272.54	24.37	-42.1	-42.9	22.1	0.00e+00	0	41	0	931135488	55	4046
2026-01-22 11:56:16.39	272.83	24.38	-42.2	-43.1	22.0	0.00e+00	0	41	0	934281216	55	4102
2026-01-22 11:56:17.40	273.12	24.38	-42.3	-43.2	22.0	0.00e+00	0	41	0	937426944	55	4155
2026-01-22 11:56:18.41	273.41	24.39	-42.3	-43.1	22.1	0.00e+00	0	41	0	940572672	55	4123
2026-01-22 11:56:19.42	273.70	24.39	-42.3	-43.1	22.0	0.00e+00	0	41	0	943718400	55	4138
2026-01-22 11:56:20.42	273.98	24.40	-42.3	-43.1	22.0	0.00e+00	0	41	0	946864128	55	4128
2026-01-22 11:56:21.43	274.27	24.40	-42.4	-43.2	22.0	0.00e+00	0	41	0	950009856	55	4175
2026-01-22 11:56:22.44	274.56	24.40	-42.3	-43.2	22.0	0.00e+00	0	41	0	953155584	55	4156
2026-01-22 11:56:23.45	274.85	24.41	-42.3	-43.1	22.1	0.00e+00	0	41	0	956301312	55	4127
2026-01-22 11:56:24.45	275.14	24.41	-42.3	-43.1	22.1	0.00e+00	0	41	0	959447040	55	4141
2026-01-22 11:56:25.46	275.43	24.41	-42.1	-42.9	22.4	0.00e+00	0	41	0	962592768	55	4016
2026-01-22 11:56:26.47	275.72	24.41	-42.0	-42.8	22.4	0.00e+00	0	41	0	965738496	55	3972
2026-01-22 11:56:27.48	276.01	24.41	-42.0	-42.7	22.4	0.00e+00	0	41	0	968884224	55	3951
2026-01-22 11:56:28.49	276.30	24.40	-42.0	-42.8	22.4	0.00e+00	0	41	0	972029952	55	3982
2026-01-22 11:56:29.50	276.59	24.40	-42.1	-42.9	22.3	0.00e+00	0	41	0	975175680	55	4013
2026-01-22 11:56:30.50	276.88	24.40	-42.2	-43.0	22.2	0.00e+00	0	41	0	978321408	55	4072
2026-01-22 11:56:31.51	277.17	24.39	-42.3	-43.1	22.2	0.00e+00	0	41	0	981467136	55	4108
2026-01-22 11:56:32.52	277.46	24.39	-42.1	-42.9	22.3	0.00e+00	0	41	0	984612864	55	4046
2026-01-22 11:56:33.53	277.75	24.38	-42.1	-42.9	22.3	0.00e+00	0	41	0	987758592	55	4023
2026-01-22 11:56:34.54	278.04	24.38	-42.1	-42.9	22.2	0.00e+00	0	41	0	990904320	55	4045
2026-01-22 11:56:35.54	278.32	24.37	-42.2	-43.0	22.2	0.00e+00	0	41	0	994050048	55	4071
2026-01-22 11:56:36.55	278.61	24.36	-42.2	-43.0	22.1	0.00e+00	0	41	0	997195776	55	4098
2026-01-22 11:56:37.56	278.90	24.35	-42.3	-43.1	22.1	0.00e+00	0	41	0	1001390080	55	4132
2026-01-22 11:56:38.57	279.19	24.35	-42.3	-43.1	22.1	0.00e+00	0	41	0	1003487232	55	4142
2026-01-22 11:56:39.58	279.48	24.34	-42.2	-43.0	22.2	0.00e+00	0	41	0	1006632960	55	4096
2026-01-22 11:56:40.59	279.77	24.32	-42.1	-43.0	22.3	0.00e+00	0	41	0	1009778688	55	4055
2026-01-22 11:56:41.60	280.05	24.31	-42.1	-42.9	22.3	0.00e+00	0	41	0	1012924416	55	4047
2026-01-22 11:56:42.61	280.34	24.30	-42.2	-43.0	22.3	0.00e+00	0	41	0	1016070144	55	4056
2026-01-22 11:56:43.62	280.63	24.29	-42.2	-43.0	22.2	0.00e+00	0	41	0	1019215872	55	4069
2026-01-22 11:56:44.62	280.91	24.27	-42.2	-42.9	22.3	0.00e+00	0	41	0	1022361600	55	4050
2026-01-22 11:56:45.63	281.20	24.26	-42.0	-42.7	22.5	0.00e+00	0	41	0	1025507328	55	3952
2026-01-22 11:56:46.64	281.49	24.25	-42.0	-42.8	22.5	0.00e+00	0	41	0	1028653056	55	3966
2026-01-22 11:56:47.65	281.77	24.23	-42.0	-42.8	22.4	0.00e+00	0	41	0	1031798784	55	3992
2026-01-22 11:56:48.66	282.06	24.21	-41.9	-42.6	22.6	0.00e+00	0	41	0	1035993088	55	3911
2026-01-22 11:56:49.66	282.34	24.20	-41.9	-42.6	22.6	0.00e+00	0	41	0	1039138816	55	3913
2026-01-22 11:56:50.67	282.63	24.18	-41.9	-42.6	22.6	0.00e+00	0	41	0	1042284544	55	3909
2026-01-22 11:56:51.68	282.92	24.16	-41.9	-42.7	22.5	0.00e+00	0	41	0	1045430272	55	3945
2026-01-22 11:56:52.69	283.20	24.14	-42.0	-42.8	22.5	0.00e+00	0	41	0	1048576000	55	3981
2026-01-22 11:56:53.70	283.49	24.12	-42.0	-42.7	22.5	0.00e+00	0	41	0	1050673152	55	3955
2026-01-22 11:56:54.70	283.77	24.10	-41.9	-42.6	22.6	0.00e+00	0	41	0	1053818880	55	3910
2026-01-22 11:56:55.71	284.05	24.08	-41.9	-42.7	22.6	0.00e+00	0	41	0	1056964608	55	3931
2026-01-22 11:56:56.72	284.33	24.05	-42.0	-42.8	22.5	0.00e+00	0	41	0	1060110336	55	3973
2026-01-22 11:56:57.73	284.62	24.03	-42.0	-42.8	22.5	0.00e+00	0	41	0	1063256064	55	3986
2026-01-22 11:56:58.74	284.90	24.01	-41.9	-42.7	22.6	0.00e+00	0	41	0	1066401792	55	3928
2026-01-22 11:56:59.75	285.18	23.98	-41.8	-42.6	22.7	0.00e+00	0	41	0	1069547520	55	3890
2026-01-22 11:57:00.76	285.46	23.96	-41.9	-42.7	22.6	0.00e+00	0	41	0	1073741824	55	3924
2026-01-22 11:57:01.77	285.75	23.93	-41.8	-42.5	22.7	0.00e+00	0	41	0	1076887552	55	3858
2026-01-22 11:57:02.78	286.03	23.91	-41.8	-42.6	22.7	0.00e+00	0	41	0	1080033280	55	3871
2026-01-22 11:57:03.78	286.31	23.88	-41.9	-42.7	22.6	0.00e+00	0	41	0	1083179008	55	3939
2026-01-22 11:57:04.79	286.59	23.85	-41.8	-42.6	22.7	0.00e+00	0	41	0	1086324736	55	3885
2026-01-22 11:57:05.80	286.86	23.82	-41.8	-42.6	22.7	0.00e+00	0	41	0	1089470464	55	3879
2026-01-22 11:57:06.81	287.14	23.79	-41.9	-42.6	22.7	0.00e+00	0	41	0	1092616192	55	3899
2026-01-22 11:57:07.82	287.42	23.76	-42.0	-42.7	22.6	0.00e+00	0	41	0	1095761920	55	3951
2026-01-22 11:57:08.82	287.70	23.73	-42.0	-42.7	22.5	0.00e+00	0	41	0	1097859072	55	3957
2026-01-22 11:57:09.83	287.97	23.70	-42.1	-42.9	22.4	0.00e+00	0	41	0	1101004800	55	4007
2026-01-22 11:57:10.84	288.25	23.67	-42.2	-42.9	22.3	0.00e+00	0	41	0	1104150528	55	4048
2026-01-22 11:57:11.85	288.53	23.64	-42.1	-42.9	22.4	0.00e+00	0	41	0	1107296256	55	4019
2026-01-22 11:57:12.86	288.80	23.61	-42.3	-43.1	22.3	0.00e+00	0	41	0	1111490560	55	4106
2026-01-22 11:57:13.87	289.08	23.57	-42.3	-43.1	22.3	0.00e+00	0	41	0	1114636288	55	4121
2026-01-22 11:57:14.88	289.35	23.54	-42.2	-43.0	22.4	0.00e+00	0	41	0	1117782016	55	4072
2026-01-22 11:57:15.89	289.63	23.50	-42.3	-43.1	22.3	0.00e+00	0	41	0	1120927744	55	4142
2026-01-22 11:57:16.90	289.90	23.47	-42.3	-43.1	22.3	0.00e+00	0	41	0	1124073472	55	4145
2026-01-22 11:57:17.90	290.17	23.43	-42.3	-43.1	22.3	0.00e+00	0	41	0	1127219200	55	4137
2026-01-22 11:57:18.91	290.44	23.40	-42.3	-43.1	22.3	0.00e+00	0	41	0	1130364928	55	4123
2026-01-22 11:57:19.92	290.71	23.36	-42.4	-43.2	22.2	0.00e+00	0	41	0	1133510656	55	4169
2026-01-22 11:57:20.93	290.99	23.32	-42.3	-43.1	22.3	0.00e+00	0	41	0	1136656384	55	4114
2026-01-22 11:57:21.94	291.26	23.28	-42.3	-43.1	22.3	0.00e+00	0	41	0	1139802112	55	4135
2026-01-22 11:57:22.95	291.53	23.24	-42.4	-43.2	22.3	0.00e+00	0	41	0	1142947840	55	4152
2026-01-22 11:57:23.96	291.79	23.20	-42.3	-43.1	22.3	0.00e+00	0	41	0	1145044992	55	4132
2026-01-22 11:57:24.96	292.06	23.16	-42.2	-43.1	22.4	0.00e+00	0	41	0	1149239296	55	4101
2026-01-22 11:57:25.97	292.33	23.12	-42.2	-43.0	22.4	0.00e+00	0	41	0	1152385024	55	4068
2026-01-22 11:57:26.98	292.59	23.08	-42.3	-43.1	22.3	0.00e+00	0	41	0	1155530752	55	4126
2026-01-22 11:57:27.99	292.86	23.04	-42.3	-43.1	22.3	0.00e+00	0	41	0	1158676480	55	4136
2026-01-22 11:57:29.00	293.13	23.00	-42.1	-42.9	22.4	0.00e+00	0	41	0	1161822208	55	4050
2026-01-22 11:57:30.01	293.39	22.95	-42.3	-43.2	22.3	0.00e+00	0	41	0	1164967936	55	4148
2026-01-22 11:57:31.02	293.65	22.91	-42.3	-43.1	22.4	0.00e+00	0	41	0	1168113664	55	4119
2026-01-22 11:57:32.03	293.92	22.87	-42.3	-43.2	22.3	0.00e+00	0	41	0	1171259392	55	4147
2026-01-22 11:57:33.04	294.18	22.82	-42.4	-43.3	22.2	0.00e+00	0	41	0	1174405120	55	4198
2026-01-22 11:57:34.04	294.44	22.78	-42.4	-43.3	22.2	0.00e+00	0	41	0	1177550848	55	4197
2026-01-22 11:57:35.05	294.70	22.73	-42.4	-43.2	22.2	0.00e+00	0	41	0	1180696576	55	4183
2026-01-22 11:57:36.06	294.96	22.68	-42.4	-43.2	22.3	0.00e+00	0	41	0	1183842304	55	4168
2026-01-22 11:57:37.07	295.22	22.64	-42.4	-43.2	22.2	0.00e+00	0	41	0	1186988032	55	4168
2026-01-22 11:57:38.08	295.48	22.59	-42.4	-43.2	22.2	0.00e+00	0	41	0	1190133760	55	4178
2026-01-22 11:57:39.08	295.73	22.54	-42.4	-43.3	22.2	0.00e+00	0	41	0	1193279488	55	4199
2026-01-22 11:57:40.09	295.99	22.50	-42.3	-43.1	22.3	0.00e+00	0	41	0	1196425216	55	4129
2026-01-22 11:57:41.10	296.25	22.45	-42.4	-43.2	22.2	0.00e+00	0	41	0	1199570944	55	4179
2026-01-22 11:57:42.11	296.50	22.40	-42.4	-43.3	22.2	0.00e+00	0	41	0	1202716672	55	4198
2026-01-22 11:57:43.12	296.76	22.35	-42.4	-43.2	22.2	0.00e+00	0	41	0	1205862400	55	4161
2026-01-22 11:57:44.13	297.01	22.30	-42.4	-43.3	22.1	0.00e+00	0	41	0	1209008128	55	4194
2026-01-22 11:57:45.14	297.27	22.25	-42.5	-43.3	22.1	0.00e+00	0	41	0	1212153856	55	4222
2026-01-22 11:57:46.15	297.52	22.20	-42.6	-43.4	22.0	0.00e+00	0	41	0	1215299584	55	4279
2026-01-22 11:57:47.15	297.77	22.15	-42.5	-43.3	22.0	0.00e+00	0	41	0	1218445312	55	4242
2026-01-22 11:57:48.16	298.02	22.09	-42.6	-43.4	22.0	0.00e+00	0	41	0	1221591040	55	4288
2026-01-22 11:57:49.17	298.27	22.04	-42.5	-43.3	22.1	0.00e+00	0	41	0	1224736768	55	4228
2026-01-22 11:57:50.17	298.52	21.99	-42.6	-43.4	22.0	0.00e+00	0	41	0	1227882496	55	4258
2026-01-22 11:57:51.18	298.76	21.94	-42.5	-43.3	22.1	0.00e+00	0	41	0	1231028224	55	4226
2026-01-22 11:57:52.19	299.01	21.88	-42.6	-43.4	22.0	0.00e+00	0	41	0	1234173952	55	4268
2026-01-22 11:57:53.20	299.26	21.83	-42.6	-43.5	21.9	0.00e+00	0	41	0	1237319680	55	4305
2026-01-22 11:57:54.21	299.50	21.77	-42.6	-43.5	21.9	0.00e+00	0	41	0	1240465408	55	4302
2026-01-22 11:57:55.22	299.75	21.72	-42.6	-43.4	22.0	0.00e+00	0	41	0	1243611136	55	4281
2026-01-22 11:57:56.22	299.99	21.66	-42.4	-43.2	22.1	0.00e+00	0	41	0	1246756864	55	4189
2026-01-22 11:57:57.23	300.23	21.61	-42.4	-43.2	22.1	0.00e+00	0	41	0	1249902592	55	4193
2026-01-22 11:57:58.24	300.48	21.55	-42.4	-43.2	22.1	0.00e+00	0	41	0	1253048320	55	4157
2026-01-22 11:57:59.25	300.72	21.49	-42.5	-43.3	22.0	0.00e+00	0	41	0	1256194048	55	4204
2026-01-22 11:58:00.26	300.96	21.44	-42.4	-43.2	22.1	0.00e+00	0	41	0	1259339776	55	4152
2026-01-22 11:58:01.27	301.20	21.38	-42.4	-43.2	22.0	0.00e+00	0	41	0	1262485504	55	4193
2026-01-22 11:58:02.28	301.44	21.32	-42.5	-43.3	22.0	0.00e+00	0	41	0	1265631232	55	4212
2026-01-22 11:58:03.28	301.67	21.27	-42.5	-43.4	21.9	0.00e+00	0	41	0	1268776960	55	4254
2026-01-22 11:58:04.29	301.91	21.21	-42.6	-43.5	21.9	0.00e+00	0	41	0	1271922688	55	4304
2026-01-22 11:58:05.30	302.15	21.15	-42.6	-43.4	21.9	0.00e+00	0	41	0	1275068416	55	4290
2026-01-22 11:58:06.31	302.38	21.09	-42.5	-43.3	22.0	0.00e+00	0	41	0	1278214144	55	4233
2026-01-22 11:58:07.32	302.62	21.03	-42.6	-43.4	21.9	0.00e+00	0	41	0	1281359872	55	4263
2026-01-22 11:58:08.33	302.85	20.97	-42.5	-43.3	22.0	0.00e+00	0	41	0	1284505600	55	4237
2026-01-22 11:58:09.34	303.08	20.91	-42.5	-43.3	22.0	0.00e+00	0	41	0	1287651328	55	4203
2026-01-22 11:58:10.34	303.31	20.85	-42.4	-43.2	22.0	0.00e+00	0	41	0	1290797056	55	4191
2026-01-22 11:58:11.35	303.54	20.79	-42.3	-43.1	22.2	0.00e+00	0	41	0	1293942784	55	4129
2026-01-22 11:58:12.36	303.77	20.73	-42.2	-43.0	22.2	0.00e+00	0	41	0	1297088512	55	4081
2026-01-22 11:58:13.37	304.00	20.67	-42.3	-43.1	22.1	0.00e+00	0	41	0	1300234240	55	4112
2026-01-22 11:58:14.38	304.23	20.61	-42.2	-43.0	22.2	0.00e+00	0	41	0	1303379968	55	4079
2026-01-22 11:58:15.39	304.46	20.54	-42.3	-43.1	22.1	0.00e+00	0	41	0	1306525696	55	4144
2026-01-22 11:58:16.40	304.68	20.48	-42.5	-43.3	21.9	0.00e+00	0	41	0	1309671424	55	4234
2026-01-22 11:58:17.40	304.91	20.42	-42.6	-43.4	21.8	0.00e+00	0	41	0	1312817152	55	4288
2026-01-22 11:58:18.41	305.13	20.36	-42.5	-43.4	21.9	0.00e+00	0	41	0	1315962880	55	4245
2026-01-22 11:58:19.42	305.36	20.30	-42.5	-43.3	22.0	0.00e+00	0	41	0	1319108608	55	4214
2026-01-22 11:58:20.43	305.58	20.23	-42.5	-43.3	21.9	0.00e+00	0	41	0	1322254336	55	4216
2026-01-22 11:58:21.44	305.80	20.17	-42.5	-43.3	21.9	0.00e+00	0	41	0	1325400064	55	4214
2026-01-22 11:58:22.45	306.02	20.10	-42.5	-43.3	21.9	0.00e+00	0	41	0	1328545792	55	4219
2026-01-22 11:58:23.46	306.24	20.04	-42.4	-43.2	22.0	0.00e+00	0	41	0	1331691520	55	4189
2026-01-22 11:58:24.46	306.46	19.98	-42.5	-43.3	21.9	0.00e+00	0	41	0	1334837248	55	4222
2026-01-22 11:58:25.47	306.68	19.91	-42.5	-43.4	21.9	0.00e+00	0	41	0	1337982976	55	4244
2026-01-22 11:58:26.48	306.90	19.85	-42.5	-43.3	21.9	0.00e+00	0	41	0	1341128704	55	4218
2026-01-22 11:58:27.49	307.11	19.78	-42.6	-43.4	21.9	0.00e+00	0	41	0	1344274432	55	4258
2026-01-22 11:58:28.50	307.33	19.72	-42.5	-43.3	22.0	0.00e+00	0	41	0	1347420160	55	4211
2026-01-22 11:58:29.50	307.54	19.65	-42.5	-43.3	21.9	0.00e+00	0	41	0	1350565888	55	4226
2026-01-22 11:58:30.51	307.75	19.59	-42.6	-43.4	21.8	0.00e+00	0	41	0	1353711616	55	4277
2026-01-22 11:58:31.52	307.97	19.52	-42.7	-43.5	21.7	0.00e+00	0	41	0	1356857344	55	4319
2026-01-22 11:58:32.53	308.18	19.46	-42.8	-43.7	21.7	0.00e+00	0	41	0	1360003072	56	4162
2026-01-22 11:58:33.54	308.39	19.39	-42.8	-43.7	21.7	0.00e+00	0	41	0	1363148800	56	4165
2026-01-22 11:58:34.55	308.60	19.32	-42.6	-43.4	21.8	0.00e+00	0	41	0	1366294528	56	4049
2026-01-22 11:58:35.56	308.81	19.26	-42.6	-43.4	21.8	0.00e+00	0	41	0	1369440256	56	4023
2026-01-22 11:58:36.56	309.02	19.19	-42.6	-43.4	21.7	0.00e+00	0	41	0	1372585984	56	4049
2026-01-22 11:58:37.57	309.23	19.12	-42.6	-43.4	21.7	0.00e+00	0	41	0	1375731712	56	4031
2026-01-22 11:58:38.58	309.43	19.06	-42.6	-43.4	21.7	0.00e+00	0	41	0	1378877440	56	4046
2026-01-22 11:58:39.59	309.64	18.99	-42.6	-43.4	21.7	0.00e+00	0	41	0	1382023168	56	4035
2026-01-22 11:58:40.60	309.84	18.92	-42.6	-43.5	21.7	0.00e+00	0	41	0	1385168896	56	4059
2026-01-22 11:58:41.61	310.05	18.85	-42.6	-43.4	21.8	0.00e+00	0	41	0	1388314624	56	4037
2026-01-22 11:58:42.61	310.25	18.79	-42.6	-43.4	21.8	0.00e+00	0	41	0	1391460352	56	4041
2026-01-22 11:58:43.62	310.45	18.72	-42.6	-43.4	21.8	0.00e+00	0	41	0	1394606080	56	4038
2026-01-22 11:58:44.63	310.65	18.65	-42.5	-43.4	21.8	0.00e+00	0	41	0	1397751808	56	4008
2026-01-22 11:58:45.64	310.85	18.58	-42.5	-43.3	21.9	0.00e+00	0	41	0	1400897536	56	4004
2026-01-22 11:58:46.65	311.05	18.51	-42.5	-43.4	21.9	0.00e+00	0	41	0	1404043264	56	4009
2026-01-22 11:58:47.66	311.25	18.44	-42.4	-43.3	21.9	0.00e+00	0	41	0	1407188992	56	3965
2026-01-22 11:58:48.67	311.45	18.38	-42.4	-43.3	21.9	0.00e+00	0	41	0	1410334720	56	3965
2026-01-22 11:58:49.68	311.65	18.31	-42.4	-43.2	21.9	0.00e+00	0	41	0	1413480448	56	3947
2026-01-22 11:58:50.69	311.84	18.24	-42.5	-43.3	21.8	0.00e+00	0	41	0	1416626176	56	3979
2026-01-22 11:58:51.70	312.04	18.17	-42.5	-43.3	21.8	0.00e+00	0	41	0	1419771904	56	3969
2026-01-22 11:58:52.71	312.23	18.10	-42.4	-43.2	21.8	0.00e+00	0	41	0	1422917632	56	3942
2026-01-22 11:58:53.71	312.43	18.03	-42.5	-43.3	21.8	0.00e+00	0	41	0	1426063360	56	3974
2026-01-22 11:58:54.72	312.62	17.96	-42.5	-43.3	21.8	0.00e+00	0	41	0	1429209088	56	3967
2026-01-22 11:58:55.73	312.81	17.89	-42.5	-43.3	21.8	0.00e+00	0	41	0	1432354816	56	3983
2026-01-22 11:58:56.74	313.00	17.82	-42.5	-43.3	21.8	0.00e+00	0	41	0	1435500544	56	3993
2026-01-22 11:58:57.75	313.19	17.75	-42.6	-43.4	21.7	0.00e+00	0	41	0	1438646272	56	4045
2026-01-22 11:58:58.76	313.38	17.68	-42.6	-43.4	21.7	0.00e+00	0	41	0	1441792000	56	4035
2026-01-22 11:58:59.77	313.57	17.61	-42.6	-43.4	21.7	0.00e+00	0	41	0	1444937728	56	4043
2026-01-22 11:59:00.77	313.75	17.54	-42.7	-43.6	21.6	0.00e+00	0	41	0	1448083456	56	4115
2026-01-22 11:59:01.78	313.94	17.47	-42.8	-43.7	21.5	0.00e+00	0	41	0	1451229184	56	4165
2026-01-22 11:59:02.79	314.13	17.40	-42.9	-43.8	21.4	0.00e+00	0	41	0	1454374912	56	4228
2026-01-22 11:59:03.80	314.31	17.33	-42.9	-43.8	21.4	0.00e+00	0	41	0	1457520640	56	4217
2026-01-22 11:59:04.80	314.50	17.26	-42.8	-43.7	21.5	0.00e+00	0	41	0	1460666368	56	4174
2026-01-22 11:59:05.81	314.68	17.19	-42.8	-43.7	21.5	0.00e+00	0	41	0	1463812096	56	4170
2026-01-22 11:59:06.82	314.86	17.12	-42.8	-43.6	21.4	0.00e+00	0	41	0	1466957824	56	4145
2026-01-22 11:59:07.83	315.04	17.05	-42.7	-43.5	21.6	0.00e+00	0	41	0	1470103552	56	4080
2026-01-22 11:59:08.84	315.22	16.98	-42.6	-43.4	21.7	0.00e+00	0	41	0	1473249280	56	4025
2026-01-22 11:59:09.84	315.40	16.91	-42.6	-43.4	21.7	0.00e+00	0	41	0	1476395008	56	4034
2026-01-22 11:59:10.85	315.58	16.84	-42.7	-43.5	21.7	0.00e+00	0	41	0	1479540736	56	4088
2026-01-22 11:59:11.86	315.76	16.77	-42.6	-43.5	21.6	0.00e+00	0	41	0	1482686464	56	4058
2026-01-22 11:59:12.87	315.94	16.70	-42.6	-43.5	21.4	0.00e+00	0	41	0	1485832192	56	4068
2026-01-22 11:59:13.88	316.12	16.63	-42.7	-43.6	21.1	0.00e+00	0	41	0	1488977920	56	4117
2026-01-22 11:59:14.89	316.29	16.55	-42.8	-43.6	21.1	0.00e+00	0	41	0	1492123648	56	4129
2026-01-22 11:59:15.89	316.47	16.48	-42.8	-43.7	21.3	0.00e+00	0	41	0	1495269376	56	4154
2026-01-22 11:59:16.90	316.64	16.41	-42.9	-43.8	21.4	0.00e+00	0	41	0	1498415104	56	4197
2026-01-22 11:59:17.91	316.81	16.34	-42.8	-43.7	21.5	0.00e+00	0	41	0	1501560832	56	4172
2026-01-22 11:59:18.92	316.99	16.27	-42.8	-43.7	21.5	0.00e+00	0	41	0	1504706560	56	4166
2026-01-22 11:59:19.93	317.16	16.20	-43.0	-43.8	21.4	0.00e+00	0	41	0	1507852288	56	4235
2026-01-22 11:59:20.93	317.33	16.13	-42.9	-43.8	21.4	0.00e+00	0	41	0	1510998016	56	4217
2026-01-22 11:59:21.94	317.50	16.06	-42.9	-43.8	21.4	0.00e+00	0	41	0	1514143744	56	4207
2026-01-22 11:59:22.95	317.67	15.99	-42.9	-43.8	21.2	0.00e+00	0	41	0	1517289472	56	4215
2026-01-22 11:59:23.96	317.84	15.91	-42.7	-43.6	21.5	0.00e+00	0	41	0	1520435200	56	4100
2026-01-22 11:59:24.97	318.01	15.84	-42.6	-43.4	21.8	0.00e+00	0	41	0	1523580928	56	4041
2026-01-22 11:59:25.98	318.17	15.77	-42.6	-43.4	21.8	0.00e+00	0	41	0	1526726656	56	4018
2026-01-22 11:59:26.99	318.34	15.70	-42.5	-43.4	21.7	0.00e+00	0	41	0	1529872384	56	4005
2026-01-22 11:59:28.00	318.51	15.63	-42.6	-43.4	21.6	0.00e+00	0	41	0	1533018112	56	4016
2026-01-22 11:59:29.01	318.67	15.56	-42.6	-43.5	21.5	0.00e+00	0	41	0	1536163840	56	4059
2026-01-22 11:59:30.02	318.84	15.49	-42.8	-43.6	21.4	0.00e+00	0	41	0	1539309568	56	4119
2026-01-22 11:59:31.02	319.00	15.42	-42.9	-43.7	21.2	0.00e+00	0	41	0	1542455296	56	4180
2026-01-22 11:59:32.03	319.16	15.34	-42.9	-43.8	21.2	0.00e+00	0	41	0	1545601024	56	4212
2026-01-22 11:59:33.04	319.32	15.27	-43.1	-44.0	21.0	0.00e+00	0	41	0	1548746752	56	4309
2026-01-22 11:59:34.05	319.48	15.20	-43.2	-44.1	20.9	0.00e+00	0	41	0	1551892480	56	4348
2026-01-22 11:59:35.06	319.64	15.13	-43.2	-44.2	20.9	0.00e+00	0	41	0	1555038208	57	4149
2026-01-22 11:59:36.07	319.80	15.06	-43.4	-44.3	20.9	0.00e+00	0	41	0	1558183936	57	4214
2026-01-22 11:59:37.07	319.96	14.99	-43.5	-44.4	20.8	0.00e+00	0	41	0	1561329664	57	4270
2026-01-22 11:59:38.09	320.12	14.92	-43.4	-44.4	20.8	0.00e+00	0	41	0	1564475392	57	4255
2026-01-22 11:59:39.09	320.28	14.84	-43.6	-44.5	20.6	0.00e+00	0	41	0	1567621120	57	4321
2026-01-22 11:59:40.10	320.43	14.77	-43.6	-44.5	20.7	0.00e+00	0	41	0	1570766848	57	4335
2026-01-22 11:59:41.11	320.59	14.70	-43.5	-44.5	20.8	0.00e+00	0	41	0	1573912576	57	4302
2026-01-22 11:59:42.12	320.75	14.63	-43.5	-44.5	20.7	0.00e+00	0	41	0	1577058304	57	4299
2026-01-22 11:59:43.13	320.90	14.56	-43.4	-44.3	20.9	0.00e+00	0	41	0	1580204032	57	4224
2026-01-22 11:59:44.14	321.06	14.49	-43.4	-44.3	20.9	0.00e+00	0	41	0	1583349760	57	4235
2026-01-22 11:59:45.15	321.21	14.42	-43.4	-44.3	20.9	0.00e+00	0	41	0	1586495488	57	4239
2026-01-22 11:59:46.15	321.36	14.35	-43.4	-44.3	20.9	0.00e+00	0	41	0	1589641216	57	4205
2026-01-22 11:59:47.16	321.51	14.27	-43.4	-44.3	20.8	0.00e+00	0	41	0	1593835520	57	4233
2026-01-22 11:59:48.17	321.66	14.20	-43.5	-44.4	20.7	0.00e+00	0	41	0	1596981248	57	4263
2026-01-22 11:59:49.18	321.81	14.13	-43.6	-44.5	20.6	0.00e+00	0	41	0	1600126976	57	4319
2026-01-22 11:59:50.19	321.96	14.06	-43.6	-44.6	20.5	0.00e+00	0	41	0	1602224128	57	4364
2026-01-22 11:59:51.20	322.11	13.99	-43.7	-44.7	20.4	0.00e+00	0	41	0	1605369856	58	4162
2026-01-22 11:59:52.21	322.26	13.92	-43.8	-44.7	20.4	0.00e+00	0	41	0	1608515584	58	4186
2026-01-22 11:59:53.22	322.41	13.85	-43.7	-44.7	20.4	0.00e+00	0	41	0	1611661312	58	4177
2026-01-22 11:59:54.22	322.55	13.78	-43.7	-44.6	20.6	0.00e+00	0	41	0	1614807040	58	4125
2026-01-22 11:59:55.23	322.70	13.71	-43.5	-44.4	20.7	0.00e+00	0	41	0	1617952768	58	4041
2026-01-22 11:59:56.24	322.85	13.64	-43.5	-44.4	20.7	0.00e+00	0	41	0	1621098496	58	4022
2026-01-22 11:59:57.25	322.99	13.56	-43.4	-44.3	20.8	0.00e+00	0	41	0	1624244224	58	3997
2026-01-22 11:59:58.26	323.14	13.49	-43.4	-44.3	20.9	0.00e+00	0	41	0	1628438528	58	3978
2026-01-22 11:59:59.26	323.28	13.42	-43.4	-44.3	20.8	0.00e+00	0	41	0	1631584256	58	3990
2026-01-22 12:00:00.27	323.42	13.35	-43.5	-44.4	20.7	0.00e+00	0	41	0	1634729984	58	4017
2026-01-22 12:00:01.28	323.56	13.28	-43.6	-44.5	20.6	0.00e+00	0	41	0	1637875712	58	4085
2026-01-22 12:00:02.29	323.71	13.21	-43.4	-44.3	20.8	0.00e+00	0	41	0	1641021440	58	3982
2026-01-22 12:00:03.30	323.85	13.14	-43.4	-44.3	20.8	0.00e+00	0	41	0	1644167168	58	3996
2026-01-22 12:00:04.30	323.99	13.07	-43.5	-44.5	20.6	0.00e+00	0	41	0	1647312896	58	4058
2026-01-22 12:00:05.31	324.13	13.00	-43.6	-44.5	20.6	0.00e+00	0	41	0	1649410048	58	4083
2026-01-22 12:00:06.32	324.26	12.93	-43.7	-44.7	20.4	0.00e+00	0	41	0	1652555776	58	4168
2026-01-22 12:00:07.33	324.40	12.86	-43.8	-44.8	20.3	0.00e+00	0	41	0	1655701504	58	4206
2026-01-22 12:00:08.33	324.54	12.79	-43.7	-44.7	20.4	0.00e+00	0	41	0	1658847232	58	4165
2026-01-22 12:00:09.34	324.68	12.72	-43.8	-44.8	20.3	0.00e+00	0	41	0	1661992960	58	4221
2026-01-22 12:00:10.35	324.81	12.65	-43.9	-44.9	20.2	0.00e+00	0	41	0	1665138688	58	4259
2026-01-22 12:00:11.36	324.95	12.58	-43.8	-44.8	20.3	0.00e+00	0	41	0	1669332992	58	4212
2026-01-22 12:00:12.36	325.08	12.51	-44.0	-45.0	20.1	0.00e+00	0	41	0	1672478720	58	4325
2026-01-22 12:00:13.37	325.22	12.44	-44.0	-45.0	20.1	0.00e+00	0	41	0	1675624448	58	4301
2026-01-22 12:00:14.38	325.35	12.37	-44.0	-44.9	20.1	0.00e+00	0	41	0	1678770176	58	4289
2026-01-22 12:00:15.39	325.49	12.30	-43.9	-44.9	20.2	0.00e+00	0	41	0	1681915904	58	4269
2026-01-22 12:00:16.40	325.62	12.23	-43.9	-44.9	20.2	0.00e+00	0	41	0	1685061632	58	4265
2026-01-22 12:00:17.41	325.75	12.16	-43.8	-44.8	20.3	0.00e+00	0	41	0	1688207360	58	4228
2026-01-22 12:00:18.42	325.88	12.09	-43.9	-44.8	20.2	0.00e+00	0	41	0	1691353088	58	4232
2026-01-22 12:00:19.42	326.01	12.02	-43.8	-44.8	20.2	0.00e+00	0	41	0	1694498816	58	4226
2026-01-22 12:00:20.43	326.14	11.95	-43.8	-44.7	20.3	0.00e+00	0	41	0	1696595968	58	4179
2026-01-22 12:00:21.44	326.27	11.88	-43.7	-44.6	20.4	0.00e+00	0	41	0	1699741696	58	4133
2026-01-22 12:00:22.45	326.40	11.81	-43.6	-44.6	20.5	0.00e+00	0	41	0	1702887424	58	4103
2026-01-22 12:00:23.46	326.53	11.74	-43.7	-44.7	20.4	0.00e+00	0	41	0	1707081728	58	4163
2026-01-22 12:00:24.46	326.66	11.67	-43.8	-44.8	20.3	0.00e+00	0	41	0	1710227456	58	4222
2026-01-22 12:00:25.47	326.79	11.61	-44.0	-45.0	20.1	0.00e+00	0	41	0	1713373184	58	4295
2026-01-22 12:00:26.48	326.91	11.54	-43.9	-44.9	20.2	0.00e+00	0	41	0	1716518912	58	4263
2026-01-22 12:00:27.49	327.04	11.47	-43.9	-44.9	20.2	0.00e+00	0	41	0	1719664640	58	4268
2026-01-22 12:00:28.49	327.16	11.40	-44.0	-45.0	20.1	0.00e+00	0	41	0	1722810368	58	4334
2026-01-22 12:00:29.50	327.29	11.33	-44.1	-45.1	20.0	0.00e+00	0	41	0	1725956096	58	4351
2026-01-22 12:00:30.51	327.41	11.26	-44.0	-45.0	20.1	0.00e+00	0	41	0	1729101824	58	4333
2026-01-22 12:00:31.52	327.54	11.19	-44.0	-45.0	20.1	0.00e+00	0	41	0	1732247552	58	4323
2026-01-22 12:00:32.53	327.66	11.12	-44.0	-45.1	20.0	0.00e+00	0	41	0	1735393280	58	4346
2026-01-22 12:00:33.54	327.79	11.05	-44.0	-45.1	20.0	0.00e+00	0	41	0	1738539008	58	4347
2026-01-22 12:00:34.54	327.91	10.99	-44.0	-45.0	20.0	0.00e+00	0	41	0	1741684736	58	4314
2026-01-22 12:00:35.55	328.03	10.92	-44.0	-45.0	20.0	0.00e+00	0	41	0	1743781888	58	4315
2026-01-22 12:00:36.56	328.15	10.85	-44.1	-45.1	19.9	0.00e+00	0	41	0	1747976192	58	4377
2026-01-22 12:00:37.57	328.27	10.78	-44.0	-45.1	19.9	0.00e+00	0	41	0	1751121920	58	4343
2026-01-22 12:00:38.58	328.39	10.71	-44.1	-45.2	19.8	0.00e+00	0	41	0	1754267648	58	4412
2026-01-22 12:00:39.59	328.51	10.65	-44.1	-45.1	19.8	0.00e+00	0	41	0	1757413376	58	4382
2026-01-22 12:00:40.59	328.63	10.58	-44.2	-45.2	19.8	0.00e+00	0	41	0	1760559104	58	4426
2026-01-22 12:00:41.60	328.75	10.51	-44.1	-45.1	19.8	0.00e+00	0	41	0	1763704832	58	4369
2026-01-22 12:00:42.61	328.87	10.44	-44.2	-45.2	19.8	0.00e+00	0	41	0	1766850560	58	4421
2026-01-22 12:00:43.62	328.99	10.37	-44.1	-45.1	19.8	0.00e+00	0	41	0	1769996288	58	4384
2026-01-22 12:00:44.63	329.10	10.31	-44.1	-45.1	19.9	0.00e+00	0	41	0	1773142016	58	4360
2026-01-22 12:00:45.64	329.22	10.24	-44.1	-45.1	19.8	0.00e+00	0	41	0	1776287744	58	4369
2026-01-22 12:00:46.64	329.33	10.17	-44.1	-45.1	19.8	0.00e+00	0	41	0	1779433472	58	4389
2026-01-22 12:00:47.65	329.45	10.10	-44.2	-45.2	19.7	0.00e+00	0	41	0	1782579200	59	4180
2026-01-22 12:00:48.66	329.56	10.04	-44.1	-45.1	19.8	0.00e+00	0	41	0	1785724928	59	4137
2026-01-22 12:00:49.67	329.68	9.97	-44.1	-45.2	19.8	0.00e+00	0	41	0	1788870656	59	4159
2026-01-22 12:00:50.68	329.79	9.90	-44.0	-45.1	19.8	0.00e+00	0	41	0	1792016384	59	4115
2026-01-22 12:00:51.68	329.91	9.84	-44.1	-45.1	19.8	0.00e+00	0	41	0	1795162112	59	4128
2026-01-22 12:00:52.69	330.02	9.77	-44.1	-45.2	19.8	0.00e+00	0	41	0	1798307840	59	4146
2026-01-22 12:00:53.70	330.13	9.70	-44.0	-45.1	19.9	0.00e+00	0	41	0	1801453568	59	4102
2026-01-22 12:00:54.71	330.24	9.63	-44.0	-45.1	19.8	0.00e+00	0	41	0	1804599296	59	4099
2026-01-22 12:00:55.72	330.36	9.57	-44.0	-45.0	19.9	0.00e+00	0	41	0	1807745024	59	4087
2026-01-22 12:00:56.72	330.47	9.50	-44.1	-45.2	19.7	0.00e+00	0	41	0	1810890752	59	4158
2026-01-22 12:00:57.73	330.58	9.44	-44.2	-45.3	19.6	0.00e+00	0	41	0	1814036480	59	4213
2026-01-22 12:00:58.74	330.69	9.37	-44.2	-45.3	19.6	0.00e+00	0	41	0	1817182208	59	4214
2026-01-22 12:00:59.75	330.80	9.30	-44.2	-45.3	19.6	0.00e+00	0	41	0	1820327936	59	4200
2026-01-22 12:01:00.76	330.91	9.24	-44.1	-45.2	19.7	0.00e+00	0	41	0	1823473664	59	4168
2026-01-22 12:01:01.76	331.01	9.17	-44.2	-45.3	19.6	0.00e+00	0	41	0	1826619392	59	4194
2026-01-22 12:01:02.77	331.12	9.10	-44.3	-45.3	19.6	0.00e+00	0	41	0	1829765120	59	4238
2026-01-22 12:01:03.78	331.23	9.04	-44.3	-45.3	19.6	0.00e+00	0	41	0	1832910848	59	4234
2026-01-22 12:01:04.79	331.34	8.97	-44.2	-45.3	19.6	0.00e+00	0	41	0	1836056576	59	4213
2026-01-22 12:01:05.80	331.45	8.91	-44.2	-45.2	19.7	0.00e+00	0	41	0	1839202304	59	4176
2026-01-22 12:01:06.80	331.55	8.84	-44.2	-45.3	19.6	0.00e+00	0	41	0	1842348032	59	4195
2026-01-22 12:01:07.81	331.66	8.77	-44.2	-45.2	19.7	0.00e+00	0	41	0	1845493760	59	4186
2026-01-22 12:01:08.82	331.76	8.71	-44.4	-45.4	19.4	0.00e+00	0	41	0	1848639488	59	4287
2026-01-22 12:01:09.83	331.87	8.64	-44.2	-45.3	19.6	0.00e+00	0	41	0	1851785216	59	4210
2026-01-22 12:01:10.84	331.97	8.58	-44.3	-45.4	19.5	0.00e+00	0	41	0	1854930944	59	4254
2026-01-22 12:01:11.84	332.08	8.51	-44.5	-45.6	19.3	0.00e+00	0	41	0	1858076672	59	4379
2026-01-22 12:01:12.85	332.18	8.45	-44.4	-45.5	19.4	0.00e+00	0	41	0	1861222400	59	4329
2026-01-22 12:01:13.86	332.28	8.38	-44.2	-45.3	19.6	0.00e+00	0	41	0	1864368128	59	4205
2026-01-22 12:01:14.87	332.39	8.32	-44.3	-45.3	19.6	0.00e+00	0	41	0	1867513856	59	4224
2026-01-22 12:01:15.87	332.49	8.25	-44.4	-45.5	19.4	0.00e+00	0	41	0	1870659584	59	4294
2026-01-22 12:01:16.88	332.59	8.19	-44.5	-45.6	19.2	0.00e+00	0	41	0	1873805312	59	4388
2026-01-22 12:01:17.89	332.69	8.12	-44.3	-45.4	19.4	0.00e+00	0	41	0	1876951040	59	4266
2026-01-22 12:01:18.90	332.79	8.06	-44.2	-45.3	19.6	0.00e+00	0	41	0	1880096768	59	4202
2026-01-22 12:01:19.91	332.89	7.99	-44.4	-45.5	19.4	0.00e+00	0	41	0	1883242496	59	4306
2026-01-22 12:01:20.91	332.99	7.93	-44.4	-45.5	19.3	0.00e+00	0	41	0	1886388224	59	4326
2026-01-22 12:01:21.92	333.09	7.87	-44.5	-45.6	19.3	0.00e+00	0	41	0	1889533952	59	4355
2026-01-22 12:01:22.93	333.19	7.80	-44.5	-45.6	19.2	0.00e+00	0	41	0	1892679680	59	4388
2026-01-22 12:01:23.94	333.29	7.74	-44.6	-45.7	19.1	0.00e+00	0	41	0	1895825408	59	4432
2026-01-22 12:01:24.94	333.39	7.67	-44.4	-45.6	19.0	0.00e+00	0	41	0	1898971136	60	4105
2026-01-22 12:01:25.95	333.49	7.61	-44.4	-45.6	18.9	0.00e+00	0	41	0	1902116864	60	4110
2026-01-22 12:01:26.96	333.59	7.55	-44.5	-45.6	18.9	0.00e+00	0	41	0	1905262592	60	4131
2026-01-22 12:01:27.97	333.68	7.48	-44.4	-45.5	19.0	0.00e+00	0	41	0	1908408320	60	4083
2026-01-22 12:01:28.98	333.78	7.42	-44.3	-45.4	19.0	0.00e+00	0	41	0	1911554048	60	4049
2026-01-22 12:01:29.98	333.88	7.36	-44.2	-45.3	19.2	0.00e+00	0	41	0	1914699776	60	3982
2026-01-22 12:01:30.99	333.97	7.29	-44.3	-45.4	19.0	0.00e+00	0	41	0	1917845504	60	4044
2026-01-22 12:01:32.00	334.07	7.23	-44.4	-45.5	19.0	0.00e+00	0	41	0	1920991232	60	4063
2026-01-22 12:01:33.01	334.16	7.16	-44.4	-45.5	18.9	0.00e+00	0	41	0	1924136960	60	4081
2026-01-22 12:01:34.02	334.26	7.10	-44.4	-45.6	18.8	0.00e+00	0	41	0	1927282688	60	4112
