passes_logs/2026/01/22/R3.2S_Murmansk/R3.2S_Murmansk__20260122_022033_SUOMI_NPP_rec.log

#Pass ID: 20260122_022033_SUOMI NPP
#Satellite: SUOMI NPP
#Configuration: NPP
#almurnet v.1.7.20251203
#Start time: 2026-01-22 02:20:35

#Version: 2.2.20231116
#Station: R3.2S_Murmansk
#Location: 33.079688 lon 68.888172 lat
#TLE: 1 37849U 11061A   26021.51818991  .00000201  00000+0  11636-3 0  9995
#TLE: 2 37849  98.7819 323.5108 0002300  52.3548 307.7836 14.19527793737637

#Time	Az	El	Level	Level2	SNR	BER	BlckErr	Temp	State	Recorded	gain1	gain2
2026-01-22 02:20:35.13	32.35	2.10	-54.3	-69.3	3.8	1.49e+00	0	39	0	0	79	21205
2026-01-22 02:20:36.15	32.32	2.16	-54.2	-69.2	3.8	1.49e+00	0	39	104	0	79	21013
2026-01-22 02:20:37.15	32.28	2.22	-54.2	-69.2	3.8	1.49e+00	0	39	104	0	79	20899
2026-01-22 02:20:38.16	32.25	2.29	-54.1	-69.2	3.8	1.49e+00	0	39	104	0	79	20843
2026-01-22 02:20:39.17	32.21	2.35	-54.1	-69.1	3.8	1.49e+00	0	39	104	0	79	20599
2026-01-22 02:20:40.18	32.18	2.41	-54.0	-69.0	3.8	1.49e+00	0	39	104	0	79	20424
2026-01-22 02:20:41.19	32.14	2.48	-53.9	-68.9	3.8	1.49e+00	0	39	104	0	79	20293
2026-01-22 02:20:42.20	32.11	2.54	-53.8	-68.8	3.8	1.49e+00	0	39	104	0	79	20061
2026-01-22 02:20:43.21	32.07	2.61	-53.8	-68.8	3.8	1.49e+00	0	39	104	0	79	19905
2026-01-22 02:20:44.21	32.04	2.67	-53.6	-68.6	3.8	1.49e+00	0	39	104	0	79	19588
2026-01-22 02:20:45.22	32.00	2.73	-53.5	-68.5	3.8	1.49e+00	0	39	104	0	79	19320
2026-01-22 02:20:46.23	31.97	2.80	-53.3	-68.3	3.8	1.49e+00	0	39	104	0	78	19943
2026-01-22 02:20:47.24	31.93	2.86	-52.9	-67.8	3.8	1.49e+00	0	39	104	0	77	19909
2026-01-22 02:20:48.25	31.90	2.93	-52.5	-67.5	3.8	1.49e+00	0	39	104	0	77	19225
2026-01-22 02:20:49.26	31.86	2.99	-52.4	-67.4	3.8	1.49e+00	0	39	104	0	76	20220
2026-01-22 02:20:50.27	31.82	3.05	-52.4	-67.4	3.8	1.49e+00	0	39	104	0	76	20217
2026-01-22 02:20:51.28	31.79	3.12	-52.4	-67.4	3.8	1.49e+00	0	39	104	0	76	20258
2026-01-22 02:20:52.29	31.75	3.18	-52.4	-67.4	3.8	1.49e+00	0	39	104	0	76	20206
2026-01-22 02:20:53.29	31.71	3.25	-52.4	-67.4	3.8	1.49e+00	0	39	104	0	76	20121
2026-01-22 02:20:54.30	31.68	3.31	-52.4	-67.3	3.8	1.49e+00	0	39	104	0	76	19915
2026-01-22 02:20:55.31	31.64	3.38	-52.4	-67.1	3.8	1.49e+00	0	39	104	0	76	19514
2026-01-22 02:20:56.32	31.60	3.44	-52.4	-66.8	3.8	1.49e+00	0	39	104	0	76	18921
2026-01-22 02:20:57.33	31.56	3.51	-52.4	-66.6	3.8	1.49e+00	0	39	104	0	76	18377
2026-01-22 02:20:58.34	31.52	3.58	-52.3	-66.0	3.8	1.49e+00	0	40	104	0	76	17131
2026-01-22 02:20:59.35	31.49	3.64	-52.3	-66.1	3.8	1.49e+00	0	39	104	0	76	17311
2026-01-22 02:21:00.35	31.45	3.71	-52.3	-66.2	3.8	1.49e+00	0	39	104	0	76	17676
2026-01-22 02:21:01.36	31.41	3.77	-52.4	-66.5	3.8	1.49e+00	0	40	104	0	76	18096
2026-01-22 02:21:02.37	31.37	3.84	-52.4	-66.9	3.8	1.49e+00	0	39	104	0	76	19080
2026-01-22 02:21:03.38	31.33	3.91	-52.4	-66.9	3.8	1.49e+00	0	40	104	0	76	19144
2026-01-22 02:21:04.39	31.29	3.97	-52.3	-66.0	3.8	1.49e+00	0	39	104	0	76	17259
2026-01-22 02:21:05.39	31.25	4.04	-52.2	-63.9	4.2	1.48e+00	0	39	104	0	76	13522
2026-01-22 02:21:06.40	31.21	4.11	-51.9	-60.9	5.6	6.21e-01	0	40	0	1048576	75	10081
2026-01-22 02:21:07.41	31.18	4.17	-51.5	-58.6	7.4	1.98e-01	0	40	0	3145728	75	7781
2026-01-22 02:21:08.42	31.14	4.24	-50.8	-56.3	9.8	3.98e-02	0	40	0	4194304	73	6648
2026-01-22 02:21:09.43	31.10	4.31	-50.3	-54.7	11.4	4.23e-03	0	39	0	6291456	72	5887
2026-01-22 02:21:10.44	31.05	4.38	-49.4	-52.8	13.5	5.18e-05	0	40	0	8388608	70	5280
2026-01-22 02:21:11.45	31.01	4.44	-48.6	-51.5	14.8	3.00e-06	0	40	0	10485760	69	4822
2026-01-22 02:21:12.45	30.97	4.51	-48.1	-50.7	15.6	0.00e+00	0	39	0	12582912	68	4661
2026-01-22 02:21:13.46	30.93	4.58	-47.4	-49.6	16.6	0.00e+00	0	40	0	14680064	66	4602
2026-01-22 02:21:14.47	30.89	4.65	-47.1	-49.3	16.9	0.00e+00	0	40	0	15728640	66	4448
2026-01-22 02:21:15.48	30.85	4.71	-47.1	-49.1	17.1	0.00e+00	0	39	0	17825792	66	4380
2026-01-22 02:21:16.49	30.81	4.78	-46.7	-48.6	17.5	0.00e+00	0	40	0	19922944	65	4358
2026-01-22 02:21:17.49	30.77	4.85	-46.9	-48.9	17.2	0.00e+00	0	40	0	22020096	65	4544
2026-01-22 02:21:18.50	30.73	4.92	-46.6	-48.5	17.6	0.00e+00	0	40	0	23068672	65	4302
2026-01-22 02:21:19.51	30.68	4.99	-47.4	-49.6	16.6	0.00e+00	0	40	0	25165824	65	4901
2026-01-22 02:21:20.52	30.64	5.06	-47.1	-49.2	17.0	0.00e+00	0	40	0	27262976	65	4663
2026-01-22 02:21:21.53	30.60	5.13	-46.7	-48.6	17.6	0.00e+00	0	40	0	29360128	65	4376
2026-01-22 02:21:22.53	30.56	5.20	-47.8	-50.3	16.2	0.00e+00	0	40	0	31457280	66	5031
2026-01-22 02:21:23.54	30.51	5.27	-48.3	-50.9	15.4	6.08e-02	0	40	0	33554432	68	4777
2026-01-22 02:21:24.55	30.47	5.34	-46.8	-48.7	17.5	0.00e+00	0	40	0	34603008	65	4426
2026-01-22 02:21:25.56	30.43	5.41	-46.4	-48.5	17.1	7.00e-07	0	40	0	36700160	65	4324
2026-01-22 02:21:26.57	30.38	5.48	-46.8	-48.7	17.4	0.00e+00	0	40	0	38797312	65	4437
2026-01-22 02:21:27.57	30.34	5.55	-46.4	-48.2	17.9	0.00e+00	0	40	0	40894464	64	4439
2026-01-22 02:21:28.58	30.29	5.62	-46.8	-48.7	17.5	0.00e+00	0	40	0	42991616	64	4672
2026-01-22 02:21:29.59	30.25	5.69	-46.5	-48.3	17.8	0.00e+00	0	40	0	44040192	64	4492
2026-01-22 02:21:30.60	30.21	5.76	-46.8	-48.8	17.5	0.00e+00	0	40	0	46137344	64	4739
2026-01-22 02:21:31.60	30.16	5.83	-46.5	-48.4	17.8	0.00e+00	0	40	0	48234496	64	4522
2026-01-22 02:21:32.61	30.12	5.90	-46.8	-48.8	17.5	0.00e+00	0	40	0	50331648	64	4716
2026-01-22 02:21:33.62	30.07	5.97	-46.8	-48.7	17.5	0.00e+00	0	40	0	51380224	64	4690
2026-01-22 02:21:34.63	30.02	6.04	-46.4	-48.2	18.0	0.00e+00	0	40	0	53477376	64	4431
2026-01-22 02:21:35.64	29.98	6.11	-46.7	-48.7	17.6	0.00e+00	0	40	0	55574528	64	4673
2026-01-22 02:21:36.65	29.93	6.19	-46.6	-48.5	17.8	0.00e+00	0	40	0	57671680	64	4576
2026-01-22 02:21:37.65	29.89	6.26	-46.5	-48.4	17.9	0.00e+00	0	40	0	59768832	64	4517
2026-01-22 02:21:38.66	29.84	6.33	-46.5	-48.4	17.9	0.00e+00	0	40	0	61865984	64	4519
2026-01-22 02:21:39.67	29.79	6.40	-46.5	-48.4	18.0	0.00e+00	0	40	0	62914560	64	4509
2026-01-22 02:21:40.68	29.75	6.47	-46.4	-48.2	18.1	0.00e+00	0	40	0	65011712	64	4414
2026-01-22 02:21:41.69	29.70	6.55	-46.8	-48.7	17.7	0.00e+00	0	40	0	67108864	64	4657
2026-01-22 02:21:42.69	29.65	6.62	-46.6	-48.5	17.9	0.00e+00	0	40	0	69206016	64	4552
2026-01-22 02:21:43.70	29.60	6.69	-46.7	-48.7	17.7	0.00e+00	0	40	0	71303168	64	4654
2026-01-22 02:21:44.71	29.56	6.77	-46.5	-48.3	18.0	0.00e+00	0	40	0	72351744	64	4483
2026-01-22 02:21:45.72	29.51	6.84	-46.6	-48.5	17.9	0.00e+00	0	40	0	74448896	64	4548
2026-01-22 02:21:46.73	29.46	6.91	-46.5	-48.4	18.0	0.00e+00	0	40	0	76546048	64	4500
2026-01-22 02:21:47.73	29.41	6.99	-46.5	-48.3	18.1	0.00e+00	0	40	0	78643200	64	4463
2026-01-22 02:21:48.74	29.36	7.06	-46.6	-48.5	18.0	0.00e+00	0	40	0	80740352	64	4569
2026-01-22 02:21:49.75	29.31	7.13	-46.7	-48.6	17.8	0.00e+00	0	40	0	81788928	64	4611
2026-01-22 02:21:50.76	29.26	7.21	-46.6	-48.5	17.9	0.00e+00	0	40	0	83886080	64	4568
2026-01-22 02:21:51.77	29.21	7.28	-46.8	-48.7	17.7	0.00e+00	0	40	0	85983232	64	4656
2026-01-22 02:21:52.77	29.16	7.36	-46.4	-48.2	18.1	0.00e+00	0	40	0	88080384	64	4407
2026-01-22 02:21:53.78	29.11	7.43	-46.6	-48.5	17.9	0.00e+00	0	40	0	90177536	64	4552
2026-01-22 02:21:54.79	29.06	7.51	-46.4	-48.2	18.2	0.00e+00	0	40	0	91226112	64	4433
2026-01-22 02:21:55.80	29.01	7.58	-46.5	-48.2	18.2	0.00e+00	0	40	0	93323264	64	4441
2026-01-22 02:21:56.80	28.96	7.66	-46.6	-48.4	18.1	0.00e+00	0	40	0	95420416	64	4518
2026-01-22 02:21:57.81	28.91	7.73	-46.7	-48.6	17.9	0.00e+00	0	40	0	97517568	64	4609
2026-01-22 02:21:58.82	28.85	7.81	-46.5	-48.3	18.2	0.00e+00	0	40	0	99614720	64	4469
2026-01-22 02:21:59.83	28.80	7.89	-46.5	-48.3	18.1	0.00e+00	0	40	0	100663296	64	4483
2026-01-22 02:22:00.83	28.75	7.96	-46.2	-47.9	18.5	0.00e+00	0	40	0	102760448	64	4281
2026-01-22 02:22:01.84	28.70	8.04	-46.5	-48.3	18.2	0.00e+00	0	40	0	104857600	64	4488
2026-01-22 02:22:02.85	28.64	8.12	-46.5	-48.2	18.3	0.00e+00	0	40	0	106954752	64	4430
2026-01-22 02:22:03.86	28.59	8.19	-46.5	-48.3	18.2	0.00e+00	0	40	0	109051904	64	4479
2026-01-22 02:22:04.87	28.54	8.27	-46.7	-48.6	18.0	0.00e+00	0	40	0	110100480	64	4625
2026-01-22 02:22:05.87	28.48	8.35	-46.4	-48.1	18.4	0.00e+00	0	40	0	112197632	64	4384
2026-01-22 02:22:06.88	28.43	8.42	-46.4	-48.2	18.3	0.00e+00	0	40	0	114294784	64	4409
2026-01-22 02:22:07.89	28.37	8.50	-46.5	-48.3	18.3	0.00e+00	0	40	0	116391936	64	4474
2026-01-22 02:22:08.90	28.32	8.58	-46.3	-48.0	18.5	0.00e+00	0	40	0	118489088	64	4314
2026-01-22 02:22:09.91	28.26	8.66	-46.4	-48.1	18.4	0.00e+00	0	40	0	119537664	64	4389
2026-01-22 02:22:10.91	28.21	8.74	-46.3	-48.1	18.5	0.00e+00	0	40	0	121634816	64	4354
2026-01-22 02:22:11.92	28.15	8.82	-46.2	-47.9	18.6	0.00e+00	0	40	0	123731968	64	4270
2026-01-22 02:22:12.93	28.10	8.90	-46.1	-47.7	18.8	0.00e+00	0	40	0	125829120	64	4180
2026-01-22 02:22:13.93	28.04	8.97	-46.2	-47.9	18.7	0.00e+00	0	40	0	127926272	63	4509
2026-01-22 02:22:14.94	27.98	9.05	-46.3	-47.9	18.7	0.00e+00	0	40	0	130023424	63	4538
2026-01-22 02:22:15.95	27.92	9.13	-46.3	-47.9	18.7	0.00e+00	0	40	0	131072000	63	4542
2026-01-22 02:22:16.96	27.87	9.21	-46.3	-48.0	18.7	0.00e+00	0	40	0	133169152	63	4570
2026-01-22 02:22:17.97	27.81	9.29	-46.2	-47.8	18.9	0.00e+00	0	40	0	135266304	63	4473
2026-01-22 02:22:18.97	27.75	9.37	-46.1	-47.7	18.9	0.00e+00	0	40	0	137363456	63	4436
2026-01-22 02:22:19.98	27.69	9.45	-46.1	-47.7	18.9	0.00e+00	0	40	0	138412032	63	4440
2026-01-22 02:22:20.99	27.63	9.53	-46.0	-47.6	19.0	0.00e+00	0	40	0	140509184	63	4360
2026-01-22 02:22:22.00	27.57	9.61	-46.0	-47.7	19.0	0.00e+00	0	40	0	142606336	63	4393
2026-01-22 02:22:23.01	27.51	9.70	-46.1	-47.7	18.9	0.00e+00	0	40	0	144703488	63	4440
2026-01-22 02:22:24.01	27.45	9.78	-46.1	-47.7	19.0	0.00e+00	0	40	0	146800640	63	4421
2026-01-22 02:22:25.02	27.39	9.86	-46.1	-47.7	19.0	0.00e+00	0	40	0	147849216	63	4430
2026-01-22 02:22:26.03	27.33	9.94	-46.0	-47.6	19.1	0.00e+00	0	40	0	149946368	63	4378
2026-01-22 02:22:27.04	27.27	10.02	-45.9	-47.4	19.2	0.00e+00	0	40	0	152043520	63	4289
2026-01-22 02:22:28.05	27.21	10.11	-45.9	-47.5	19.2	0.00e+00	0	40	0	154140672	63	4320
2026-01-22 02:22:29.05	27.15	10.19	-45.9	-47.5	19.2	0.00e+00	0	40	0	156237824	63	4325
2026-01-22 02:22:30.06	27.09	10.27	-45.8	-47.4	19.3	0.00e+00	0	40	0	158334976	63	4271
2026-01-22 02:22:31.07	27.02	10.35	-46.0	-47.6	19.2	0.00e+00	0	40	0	159383552	63	4352
2026-01-22 02:22:32.08	26.96	10.44	-45.8	-47.3	19.4	0.00e+00	0	40	0	161480704	63	4234
2026-01-22 02:22:33.08	26.90	10.52	-45.9	-47.4	19.3	0.00e+00	0	40	0	163577856	63	4268
2026-01-22 02:22:34.09	26.83	10.60	-46.0	-47.5	19.1	0.00e+00	0	40	0	165675008	63	4338
2026-01-22 02:22:35.10	26.77	10.69	-46.0	-47.6	19.1	0.00e+00	0	40	0	166723584	63	4346
2026-01-22 02:22:36.11	26.71	10.77	-45.9	-47.5	19.3	0.00e+00	0	40	0	168820736	63	4292
2026-01-22 02:22:37.12	26.64	10.86	-46.0	-47.6	19.2	0.00e+00	0	40	0	170917888	63	4345
2026-01-22 02:22:38.13	26.58	10.94	-46.0	-47.6	19.2	0.00e+00	0	40	0	173015040	63	4355
2026-01-22 02:22:39.13	26.51	11.03	-46.1	-47.6	19.1	0.00e+00	0	40	0	175112192	63	4389
2026-01-22 02:22:40.14	26.44	11.11	-46.3	-47.9	18.8	0.00e+00	0	40	0	177209344	63	4533
2026-01-22 02:22:41.15	26.38	11.20	-46.0	-47.5	19.2	0.00e+00	0	40	0	178257920	63	4329
2026-01-22 02:22:42.15	26.31	11.28	-46.0	-47.6	19.2	0.00e+00	0	40	0	180355072	63	4363
2026-01-22 02:22:43.16	26.24	11.37	-45.8	-47.3	19.4	0.00e+00	0	40	0	182452224	63	4229
2026-01-22 02:22:44.17	26.18	11.46	-46.1	-47.7	19.0	0.00e+00	0	40	0	184549376	63	4432
2026-01-22 02:22:45.18	26.11	11.54	-45.9	-47.5	19.3	0.00e+00	0	40	0	186646528	63	4293
2026-01-22 02:22:46.19	26.04	11.63	-46.1	-47.7	19.1	0.00e+00	0	40	0	187695104	63	4405
2026-01-22 02:22:47.20	25.97	11.72	-46.1	-47.7	19.0	0.00e+00	0	40	0	189792256	63	4417
2026-01-22 02:22:48.20	25.90	11.80	-46.1	-47.7	19.1	0.00e+00	0	40	0	191889408	63	4405
2026-01-22 02:22:49.21	25.83	11.89	-45.9	-47.4	19.3	0.00e+00	0	40	0	193986560	63	4275
2026-01-22 02:22:50.22	25.76	11.98	-46.1	-47.8	19.1	0.00e+00	0	40	0	195035136	63	4446
2026-01-22 02:22:51.23	25.69	12.07	-46.0	-47.6	19.2	0.00e+00	0	40	0	197132288	63	4360
2026-01-22 02:22:52.24	25.62	12.16	-46.1	-47.7	19.1	0.00e+00	0	40	0	199229440	63	4405
2026-01-22 02:22:53.25	25.55	12.25	-46.2	-47.8	19.0	0.00e+00	0	40	0	201326592	63	4468
2026-01-22 02:22:54.25	25.47	12.33	-46.1	-47.6	19.1	0.00e+00	0	40	0	203423744	63	4385
2026-01-22 02:22:55.26	25.40	12.42	-45.8	-47.4	19.4	0.00e+00	0	40	0	205520896	63	4244
2026-01-22 02:22:56.27	25.33	12.51	-45.8	-47.4	19.4	0.00e+00	0	40	0	206569472	63	4250
2026-01-22 02:22:57.28	25.25	12.60	-46.0	-47.6	19.3	0.00e+00	0	41	0	208666624	63	4343
2026-01-22 02:22:58.28	25.18	12.69	-45.8	-47.3	19.5	0.00e+00	0	40	0	210763776	63	4208
2026-01-22 02:22:59.29	25.11	12.78	-45.9	-47.4	19.3	0.00e+00	0	40	0	212860928	63	4277
2026-01-22 02:23:00.30	25.03	12.87	-45.8	-47.3	19.5	0.00e+00	0	40	0	214958080	63	4201
2026-01-22 02:23:01.31	24.96	12.97	-46.0	-47.5	19.3	0.00e+00	0	40	0	216006656	63	4326
2026-01-22 02:23:02.32	24.88	13.06	-45.8	-47.4	19.5	0.00e+00	0	40	0	218103808	63	4245
2026-01-22 02:23:03.32	24.80	13.15	-45.8	-47.3	19.5	0.00e+00	0	40	0	220200960	63	4208
2026-01-22 02:23:04.33	24.73	13.24	-45.8	-47.3	19.5	0.00e+00	0	40	0	222298112	63	4205
2026-01-22 02:23:05.34	24.65	13.33	-45.9	-47.4	19.5	0.00e+00	0	40	0	224395264	63	4266
2026-01-22 02:23:06.35	24.57	13.42	-45.8	-47.3	19.5	0.00e+00	0	40	0	225443840	63	4223
2026-01-22 02:23:07.36	24.49	13.52	-45.7	-47.1	19.7	0.00e+00	0	40	0	227540992	63	4141
2026-01-22 02:23:08.37	24.41	13.61	-45.6	-47.1	19.7	0.00e+00	0	40	0	229638144	63	4108
2026-01-22 02:23:09.37	24.33	13.70	-45.6	-47.1	19.8	0.00e+00	0	40	0	231735296	62	4352
2026-01-22 02:23:10.38	24.25	13.80	-45.5	-47.0	19.9	0.00e+00	0	40	0	233832448	62	4292
2026-01-22 02:23:11.39	24.17	13.89	-45.3	-46.7	20.1	0.00e+00	0	40	0	234881024	62	4183
2026-01-22 02:23:12.39	24.09	13.98	-45.6	-47.0	19.9	0.00e+00	0	40	0	236978176	62	4332
2026-01-22 02:23:13.40	24.01	14.08	-45.6	-47.0	19.8	0.00e+00	0	40	0	239075328	62	4336
2026-01-22 02:23:14.41	23.93	14.17	-45.7	-47.2	19.7	0.00e+00	0	40	0	241172480	62	4423
2026-01-22 02:23:15.42	23.85	14.27	-45.8	-47.2	19.7	0.00e+00	0	40	0	243269632	62	4434
2026-01-22 02:23:16.43	23.76	14.37	-45.7	-47.1	19.7	0.00e+00	0	40	0	244318208	62	4368
2026-01-22 02:23:17.44	23.68	14.46	-45.4	-46.8	20.0	0.00e+00	0	40	0	246415360	62	4221
2026-01-22 02:23:18.45	23.59	14.56	-45.6	-47.0	19.8	0.00e+00	0	40	0	248512512	62	4329
2026-01-22 02:23:19.45	23.51	14.65	-45.7	-47.1	19.8	0.00e+00	0	40	0	250609664	62	4367
2026-01-22 02:23:20.46	23.42	14.75	-45.5	-47.0	19.9	0.00e+00	0	40	0	252706816	62	4293
2026-01-22 02:23:21.47	23.34	14.85	-45.7	-47.2	19.7	0.00e+00	0	40	0	253755392	62	4429
2026-01-22 02:23:22.48	23.25	14.95	-46.0	-47.6	19.3	0.00e+00	0	40	0	255852544	62	4635
2026-01-22 02:23:23.49	23.16	15.04	-45.6	-47.1	19.8	0.00e+00	0	40	0	257949696	62	4348
2026-01-22 02:23:24.49	23.08	15.14	-45.5	-47.0	19.9	0.00e+00	0	40	0	260046848	62	4305
2026-01-22 02:23:25.50	22.99	15.24	-45.7	-47.2	19.7	0.00e+00	0	40	0	262144000	62	4400
2026-01-22 02:23:26.51	22.90	15.34	-45.7	-47.2	19.8	0.00e+00	0	40	0	263192576	62	4399
2026-01-22 02:23:27.52	22.81	15.44	-45.7	-47.2	19.7	0.00e+00	0	40	0	265289728	62	4429
2026-01-22 02:23:28.53	22.72	15.54	-45.8	-47.3	19.6	0.00e+00	0	40	0	267386880	62	4455
2026-01-22 02:23:29.54	22.63	15.64	-45.7	-47.2	19.7	0.00e+00	0	40	0	269484032	62	4412
2026-01-22 02:23:30.54	22.53	15.74	-45.7	-47.2	19.6	0.00e+00	0	41	0	271581184	62	4430
2026-01-22 02:23:31.55	22.44	15.84	-45.8	-47.3	19.6	0.00e+00	0	40	0	272629760	62	4464
2026-01-22 02:23:32.56	22.35	15.94	-45.5	-47.0	19.8	0.00e+00	0	40	0	274726912	62	4313
2026-01-22 02:23:33.57	22.26	16.04	-45.3	-46.7	20.1	0.00e+00	0	40	0	276824064	62	4165
2026-01-22 02:23:34.58	22.16	16.14	-45.6	-47.0	19.9	0.00e+00	0	40	0	278921216	62	4327
2026-01-22 02:23:35.58	22.07	16.24	-45.6	-47.0	19.8	0.00e+00	0	40	0	281018368	62	4316
2026-01-22 02:23:36.59	21.97	16.34	-45.4	-46.8	20.0	0.00e+00	0	40	0	282066944	62	4219
2026-01-22 02:23:37.60	21.87	16.45	-45.4	-46.8	20.0	0.00e+00	0	40	0	284164096	62	4224
2026-01-22 02:23:38.61	21.78	16.55	-45.9	-47.4	19.5	0.00e+00	0	40	0	286261248	62	4545
2026-01-22 02:23:39.62	21.68	16.65	-45.7	-47.2	19.7	0.00e+00	0	40	0	288358400	62	4396
2026-01-22 02:23:40.63	21.58	16.76	-45.9	-47.5	19.5	0.00e+00	0	40	0	290455552	62	4553
2026-01-22 02:23:41.63	21.48	16.86	-45.8	-47.4	19.6	0.00e+00	0	40	0	291504128	62	4494
2026-01-22 02:23:42.64	21.38	16.96	-45.9	-47.4	19.5	0.00e+00	0	40	0	293601280	62	4522
2026-01-22 02:23:43.65	21.28	17.07	-46.0	-47.6	19.4	0.00e+00	0	41	0	295698432	62	4599
2026-01-22 02:23:44.66	21.18	17.17	-45.8	-47.2	19.7	0.00e+00	0	40	0	297795584	62	4440
2026-01-22 02:23:45.67	21.08	17.28	-45.8	-47.3	19.6	0.00e+00	0	40	0	299892736	62	4483
2026-01-22 02:23:46.67	20.98	17.38	-45.9	-47.4	19.6	0.00e+00	0	40	0	300941312	62	4495
2026-01-22 02:23:47.68	20.87	17.49	-45.8	-47.2	19.7	0.00e+00	0	40	0	303038464	62	4436
2026-01-22 02:23:48.69	20.77	17.60	-45.7	-47.1	19.8	0.00e+00	0	40	0	305135616	62	4371
2026-01-22 02:23:49.70	20.66	17.70	-45.7	-47.1	19.8	0.00e+00	0	40	0	307232768	62	4391
2026-01-22 02:23:50.70	20.56	17.81	-45.7	-47.1	19.9	0.00e+00	0	40	0	309329920	62	4357
2026-01-22 02:23:51.71	20.45	17.92	-45.7	-47.1	19.9	0.00e+00	0	40	0	310378496	62	4384
2026-01-22 02:23:52.72	20.34	18.02	-45.7	-47.1	19.9	0.00e+00	0	41	0	312475648	62	4362
2026-01-22 02:23:53.73	20.24	18.13	-45.5	-46.9	20.1	0.00e+00	0	40	0	314572800	62	4276
2026-01-22 02:23:54.74	20.13	18.24	-45.5	-46.8	20.2	0.00e+00	0	40	0	316669952	63	3992
2026-01-22 02:23:55.74	20.02	18.35	-45.5	-46.8	20.1	0.00e+00	0	40	0	318767104	62	4229
2026-01-22 02:23:56.75	19.91	18.46	-45.8	-47.2	19.8	0.00e+00	0	40	0	320864256	62	4431
2026-01-22 02:23:57.76	19.80	18.57	-45.7	-47.1	19.9	0.00e+00	0	40	0	321912832	62	4360
2026-01-22 02:23:58.77	19.68	18.68	-45.7	-47.1	19.9	0.00e+00	0	40	0	324009984	62	4372
2026-01-22 02:23:59.77	19.57	18.79	-46.1	-47.6	19.5	0.00e+00	0	40	0	326107136	62	4635
2026-01-22 02:24:00.78	19.46	18.90	-45.8	-47.2	19.8	0.00e+00	0	40	0	328204288	62	4420
2026-01-22 02:24:01.79	19.34	19.01	-45.7	-47.1	20.0	0.00e+00	0	41	0	329252864	62	4356
2026-01-22 02:24:02.80	19.23	19.12	-45.8	-47.2	19.8	0.00e+00	0	40	0	331350016	62	4437
2026-01-22 02:24:03.80	19.11	19.23	-45.8	-47.2	19.8	0.00e+00	0	40	0	333447168	62	4419
2026-01-22 02:24:04.81	18.99	19.35	-45.9	-47.4	19.8	0.00e+00	0	41	0	335544320	62	4502
2026-01-22 02:24:05.82	18.87	19.46	-45.6	-47.0	20.0	0.00e+00	0	40	0	337641472	62	4316
2026-01-22 02:24:06.83	18.76	19.57	-45.8	-47.2	19.9	0.00e+00	0	40	0	338690048	62	4433
2026-01-22 02:24:07.84	18.64	19.68	-45.8	-47.3	19.8	0.00e+00	0	40	0	340787200	62	4443
2026-01-22 02:24:08.84	18.52	19.80	-45.8	-47.1	20.0	0.00e+00	0	40	0	342884352	62	4389
2026-01-22 02:24:09.85	18.39	19.91	-45.9	-47.4	19.8	0.00e+00	0	41	0	344981504	62	4496
2026-01-22 02:24:10.86	18.27	20.03	-45.8	-47.3	19.9	0.00e+00	0	40	0	347078656	63	4200
2026-01-22 02:24:11.87	18.15	20.14	-45.9	-47.4	19.7	0.00e+00	0	41	0	349175808	63	4256
2026-01-22 02:24:12.87	18.02	20.26	-45.9	-47.3	19.8	0.00e+00	0	40	0	350224384	63	4221
2026-01-22 02:24:13.88	17.90	20.37	-45.6	-46.9	20.2	0.00e+00	0	40	0	352321536	63	4024
2026-01-22 02:24:14.89	17.77	20.49	-45.6	-46.9	20.1	0.00e+00	0	40	0	354418688	63	4025
2026-01-22 02:24:15.90	17.64	20.60	-45.4	-46.7	20.3	0.00e+00	0	41	0	356515840	62	4169
2026-01-22 02:24:16.91	17.51	20.72	-45.3	-46.5	20.5	0.00e+00	0	40	0	357564416	62	4097
2026-01-22 02:24:17.91	17.38	20.84	-45.4	-46.8	20.3	0.00e+00	0	40	0	359661568	62	4195
2026-01-22 02:24:18.92	17.25	20.96	-45.3	-46.7	20.4	0.00e+00	0	40	0	361758720	62	4149
2026-01-22 02:24:19.93	17.12	21.07	-45.4	-46.7	20.4	0.00e+00	0	40	0	363855872	62	4180
2026-01-22 02:24:20.94	16.99	21.19	-45.7	-47.1	20.0	0.00e+00	0	41	0	365953024	62	4389
2026-01-22 02:24:21.95	16.85	21.31	-45.8	-47.2	19.9	0.00e+00	0	40	0	368050176	62	4399
2026-01-22 02:24:22.95	16.72	21.43	-45.8	-47.2	19.9	0.00e+00	0	40	0	369098752	62	4416
2026-01-22 02:24:23.96	16.58	21.55	-45.9	-47.3	19.9	0.00e+00	0	40	0	371195904	62	4461
2026-01-22 02:24:24.97	16.45	21.67	-46.1	-47.6	19.5	0.00e+00	0	40	0	373293056	62	4648
2026-01-22 02:24:25.98	16.31	21.79	-46.3	-47.9	19.3	0.00e+00	0	40	0	375390208	63	4498
2026-01-22 02:24:26.99	16.17	21.91	-46.3	-47.9	19.2	0.00e+00	0	41	0	377487360	63	4525
2026-01-22 02:24:28.00	16.03	22.03	-46.5	-48.1	19.1	0.00e+00	0	41	0	378535936	63	4611
2026-01-22 02:24:29.01	15.89	22.15	-46.3	-47.8	19.4	0.00e+00	0	41	0	380633088	63	4472
2026-01-22 02:24:30.01	15.75	22.27	-46.4	-47.9	19.2	0.00e+00	0	41	0	382730240	63	4537
2026-01-22 02:24:31.02	15.60	22.40	-46.3	-47.8	19.4	0.00e+00	0	40	0	384827392	63	4478
2026-01-22 02:24:32.03	15.46	22.52	-46.1	-47.6	19.6	0.00e+00	0	40	0	385875968	63	4353
2026-01-22 02:24:33.04	15.31	22.64	-46.2	-47.8	19.4	0.00e+00	0	41	0	387973120	63	4464
2026-01-22 02:24:34.05	15.16	22.77	-46.2	-47.8	19.4	0.00e+00	0	40	0	390070272	63	4473
2026-01-22 02:24:35.05	15.02	22.89	-46.3	-47.9	19.3	0.00e+00	0	40	0	392167424	63	4521
2026-01-22 02:24:36.06	14.87	23.01	-46.3	-47.9	19.3	0.00e+00	0	40	0	394264576	63	4523
2026-01-22 02:24:37.07	14.71	23.14	-46.3	-47.9	19.3	0.00e+00	0	40	0	396361728	63	4499
2026-01-22 02:24:38.08	14.56	23.26	-46.3	-47.9	19.3	0.00e+00	0	41	0	397410304	63	4504
2026-01-22 02:24:39.08	14.41	23.39	-46.4	-48.0	19.1	0.00e+00	0	40	0	399507456	63	4568
2026-01-22 02:24:40.09	14.26	23.51	-46.3	-47.9	19.3	0.00e+00	0	40	0	401604608	63	4522
2026-01-22 02:24:41.10	14.10	23.64	-46.3	-47.9	19.2	0.00e+00	0	41	0	403701760	63	4539
2026-01-22 02:24:42.11	13.94	23.77	-46.4	-48.1	19.1	0.00e+00	0	41	0	405798912	63	4607
2026-01-22 02:24:43.12	13.78	23.89	-46.5	-48.2	19.0	0.00e+00	0	40	0	406847488	63	4676
2026-01-22 02:24:44.12	13.62	24.02	-46.5	-48.1	19.1	0.00e+00	0	40	0	408944640	63	4632
2026-01-22 02:24:45.13	13.46	24.15	-46.1	-47.7	19.4	0.00e+00	0	41	0	411041792	63	4412
2026-01-22 02:24:46.14	13.30	24.28	-46.3	-47.9	19.2	0.00e+00	0	40	0	413138944	63	4542
2026-01-22 02:24:47.15	13.14	24.40	-46.2	-47.8	19.3	0.00e+00	0	41	0	415236096	63	4490
2026-01-22 02:24:48.16	12.97	24.53	-46.3	-47.9	19.3	0.00e+00	0	40	0	416284672	63	4534
2026-01-22 02:24:49.17	12.80	24.66	-46.2	-47.7	19.4	0.00e+00	0	41	0	418381824	63	4433
2026-01-22 02:24:50.17	12.64	24.79	-46.0	-47.5	19.6	0.00e+00	0	40	0	420478976	63	4312
2026-01-22 02:24:51.18	12.47	24.92	-46.2	-47.8	19.4	0.00e+00	0	40	0	422576128	63	4459
2026-01-22 02:24:52.19	12.30	25.05	-45.9	-47.4	19.8	0.00e+00	0	40	0	424673280	63	4268
2026-01-22 02:24:53.20	12.12	25.18	-45.8	-47.2	19.9	0.00e+00	0	40	0	425721856	63	4173
2026-01-22 02:24:54.20	11.95	25.31	-46.0	-47.5	19.7	0.00e+00	0	41	0	427819008	63	4316
2026-01-22 02:24:55.21	11.78	25.44	-46.1	-47.7	19.5	0.00e+00	0	41	0	429916160	63	4395
2026-01-22 02:24:56.22	11.60	25.57	-46.3	-47.9	19.3	0.00e+00	0	40	0	432013312	63	4519
2026-01-22 02:24:57.23	11.42	25.71	-46.2	-47.7	19.5	0.00e+00	0	40	0	434110464	63	4428
2026-01-22 02:24:58.24	11.24	25.84	-46.1	-47.6	19.5	0.00e+00	0	40	0	436207616	63	4385
2026-01-22 02:24:59.24	11.06	25.97	-46.4	-48.0	19.3	0.00e+00	0	40	0	437256192	63	4552
2026-01-22 02:25:00.25	10.88	26.10	-46.2	-47.8	19.5	0.00e+00	0	40	0	439353344	63	4449
2026-01-22 02:25:01.26	10.69	26.24	-46.4	-48.0	19.3	0.00e+00	0	40	0	441450496	63	4554
2026-01-22 02:25:02.27	10.51	26.37	-46.2	-47.7	19.5	0.00e+00	0	40	0	443547648	63	4438
2026-01-22 02:25:03.28	10.32	26.51	-46.0	-47.5	19.7	0.00e+00	0	41	0	444596224	63	4313
2026-01-22 02:25:04.29	10.13	26.64	-46.0	-47.4	19.7	0.00e+00	0	40	0	446693376	63	4289
2026-01-22 02:25:05.30	9.94	26.77	-46.2	-47.8	19.4	0.00e+00	0	40	0	448790528	63	4475
2026-01-22 02:25:06.31	9.74	26.91	-46.2	-47.7	19.4	0.00e+00	0	41	0	450887680	63	4434
2026-01-22 02:25:07.31	9.55	27.04	-46.4	-48.1	19.1	0.00e+00	0	41	0	452984832	63	4603
2026-01-22 02:25:08.32	9.36	27.18	-46.6	-48.3	18.9	0.00e+00	0	41	0	454033408	63	4738
2026-01-22 02:25:09.33	9.16	27.32	-46.8	-48.6	18.6	0.00e+00	0	41	0	456130560	64	4635
2026-01-22 02:25:10.34	8.96	27.45	-46.7	-48.5	18.6	0.00e+00	0	40	0	458227712	64	4572
2026-01-22 02:25:11.35	8.76	27.59	-46.4	-48.1	19.0	0.00e+00	0	41	0	460324864	64	4355
2026-01-22 02:25:12.35	8.56	27.72	-46.4	-48.1	19.0	0.00e+00	0	40	0	462422016	64	4347
2026-01-22 02:25:13.36	8.35	27.86	-46.3	-47.9	19.3	0.00e+00	0	41	0	464519168	64	4257
2026-01-22 02:25:14.37	8.14	28.00	-46.1	-47.7	19.5	0.00e+00	0	40	0	465567744	64	4155
2026-01-22 02:25:15.38	7.94	28.14	-46.4	-48.1	19.2	0.00e+00	0	40	0	467664896	64	4346
2026-01-22 02:25:16.39	7.73	28.27	-46.8	-48.5	18.8	0.00e+00	0	40	0	469762048	64	4561
2026-01-22 02:25:17.39	7.52	28.41	-46.9	-48.6	18.6	0.00e+00	0	41	0	471859200	64	4651
2026-01-22 02:25:18.40	7.30	28.55	-47.1	-48.9	18.4	0.00e+00	0	40	0	472907776	64	4779
2026-01-22 02:25:19.41	7.09	28.69	-47.3	-49.2	18.1	0.00e+00	0	41	0	475004928	65	4672
2026-01-22 02:25:20.42	6.87	28.83	-47.6	-49.6	17.7	0.00e+00	0	41	0	477102080	65	4891
2026-01-22 02:25:21.43	6.65	28.96	-47.4	-49.2	18.0	0.00e+00	0	41	0	479199232	65	4690
2026-01-22 02:25:22.43	6.43	29.10	-47.3	-49.2	18.1	0.00e+00	0	41	0	481296384	65	4659
2026-01-22 02:25:23.44	6.21	29.24	-47.1	-48.9	18.3	0.00e+00	0	40	0	483393536	65	4509
2026-01-22 02:25:24.45	5.98	29.38	-47.4	-49.3	18.0	0.00e+00	0	40	0	484442112	65	4751
2026-01-22 02:25:25.46	5.75	29.52	-47.7	-49.7	17.6	0.00e+00	0	40	0	486539264	66	4695
2026-01-22 02:25:26.46	5.53	29.66	-48.2	-50.5	16.9	0.00e+00	0	41	0	488636416	67	4840
2026-01-22 02:25:27.47	5.29	29.80	-48.7	-51.2	16.4	0.00e+00	0	40	0	490733568	67	5240
2026-01-22 02:25:28.48	5.06	29.94	-48.9	-51.5	16.0	0.00e+00	0	40	0	492830720	68	5107
2026-01-22 02:25:29.49	4.82	30.08	-48.6	-51.1	16.4	0.00e+00	0	41	0	493879296	68	4875
2026-01-22 02:25:30.50	4.59	30.22	-48.7	-51.2	16.2	0.00e+00	0	41	0	495976448	68	4983
2026-01-22 02:25:31.50	4.35	30.36	-48.2	-50.4	17.0	0.00e+00	0	40	0	498073600	68	4529
2026-01-22 02:25:32.51	4.11	30.50	-47.8	-49.8	17.6	0.00e+00	0	41	0	500170752	67	4484
2026-01-22 02:25:33.52	3.86	30.64	-47.8	-49.8	17.6	0.00e+00	0	40	0	501219328	67	4485
2026-01-22 02:25:34.53	3.62	30.78	-48.3	-50.5	16.9	0.00e+00	0	41	0	503316480	67	4857
2026-01-22 02:25:35.54	3.37	30.93	-48.8	-51.3	16.0	0.00e+00	0	41	0	505413632	68	5003
2026-01-22 02:25:36.54	3.12	31.07	-49.1	-51.7	15.8	0.00e+00	0	40	0	507510784	69	4972
2026-01-22 02:25:37.55	2.87	31.21	-49.3	-52.0	15.6	0.00e+00	0	40	0	509607936	69	5127
2026-01-22 02:25:38.56	2.61	31.35	-48.9	-51.4	16.0	0.00e+00	0	41	0	511705088	69	4785
2026-01-22 02:25:39.57	2.35	31.49	-48.5	-50.7	16.9	0.00e+00	0	40	0	512753664	68	4686
2026-01-22 02:25:40.58	2.10	31.63	-48.1	-50.1	17.4	0.00e+00	0	41	0	514850816	68	4372
2026-01-22 02:25:41.59	1.83	31.77	-47.8	-49.7	17.8	0.00e+00	0	40	0	516947968	67	4406
2026-01-22 02:25:42.60	1.57	31.91	-48.1	-50.1	17.4	0.00e+00	0	40	0	519045120	67	4599
2026-01-22 02:25:43.61	1.30	32.05	-48.8	-51.1	16.5	0.00e+00	0	41	0	521142272	68	4903
2026-01-22 02:25:44.61	1.04	32.19	-49.1	-51.6	16.1	0.00e+00	0	40	0	522190848	68	5205
2026-01-22 02:25:45.62	0.76	32.34	-49.6	-52.4	15.2	0.00e+00	0	41	0	524288000	69	5368
2026-01-22 02:25:46.63	0.49	32.48	-49.1	-51.6	16.0	0.00e+00	0	41	0	526385152	69	4872
2026-01-22 02:25:47.64	0.21	32.62	-48.0	-50.4	16.9	0.00e+00	0	40	0	528482304	68	4512
2026-01-22 02:25:48.65	359.94	32.76	-47.8	-49.6	17.7	0.00e+00	0	41	0	530579456	67	4384
2026-01-22 02:25:49.65	359.66	32.90	-47.6	-49.4	18.0	0.00e+00	0	41	0	531628032	66	4520
2026-01-22 02:25:50.66	359.37	33.04	-47.2	-48.9	18.5	0.00e+00	0	41	0	533725184	66	4272
2026-01-22 02:25:51.67	359.09	33.18	-47.2	-48.9	18.4	0.00e+00	0	41	0	535822336	66	4285
2026-01-22 02:25:52.68	358.80	33.32	-47.2	-48.9	18.4	0.00e+00	0	40	0	537919488	66	4291
2026-01-22 02:25:53.68	358.51	33.46	-47.4	-49.1	18.3	0.00e+00	0	40	0	540016640	66	4380
2026-01-22 02:25:54.69	358.22	33.60	-47.8	-49.8	17.7	0.00e+00	0	41	0	541065216	66	4755
2026-01-22 02:25:55.70	357.92	33.74	-47.5	-49.4	18.0	0.00e+00	0	41	0	543162368	66	4509
2026-01-22 02:25:56.71	357.62	33.88	-47.3	-49.1	18.3	0.00e+00	0	41	0	545259520	66	4391
2026-01-22 02:25:57.72	357.32	34.02	-47.4	-49.3	18.2	0.00e+00	0	40	0	547356672	66	4450
2026-01-22 02:25:58.73	357.02	34.16	-47.2	-48.9	18.5	0.00e+00	0	41	0	549453824	65	4525
2026-01-22 02:25:59.74	356.71	34.29	-47.5	-49.3	18.1	0.00e+00	0	41	0	550502400	65	4757
2026-01-22 02:26:00.74	356.41	34.43	-47.4	-49.2	18.2	0.00e+00	0	40	0	552599552	65	4695
2026-01-22 02:26:01.75	356.09	34.57	-47.5	-49.4	18.0	0.00e+00	0	41	0	554696704	65	4806
2026-01-22 02:26:02.76	355.78	34.71	-47.5	-49.4	18.0	0.00e+00	0	40	0	556793856	66	4505
2026-01-22 02:26:03.77	355.46	34.84	-47.2	-49.0	18.4	0.00e+00	0	41	0	558891008	66	4308
2026-01-22 02:26:04.78	355.14	34.98	-47.3	-49.2	18.4	0.00e+00	0	41	0	559939584	66	4410
2026-01-22 02:26:05.78	354.82	35.12	-47.3	-49.1	18.5	0.00e+00	0	41	0	562036736	66	4349
2026-01-22 02:26:06.79	354.50	35.25	-47.6	-49.5	18.1	0.00e+00	0	41	0	564133888	66	4549
2026-01-22 02:26:07.80	354.17	35.39	-47.5	-49.4	18.1	0.00e+00	0	41	0	566231040	66	4512
2026-01-22 02:26:08.81	353.84	35.52	-47.9	-50.0	17.5	0.00e+00	0	41	0	568328192	66	4859
2026-01-22 02:26:09.82	353.51	35.66	-48.2	-50.4	17.2	0.00e+00	0	41	0	569376768	67	4787
2026-01-22 02:26:10.82	353.17	35.79	-47.8	-49.8	17.7	0.00e+00	0	41	0	571473920	67	4448
2026-01-22 02:26:11.83	352.83	35.92	-47.4	-49.3	18.1	0.00e+00	0	41	0	573571072	66	4464
2026-01-22 02:26:12.84	352.49	36.05	-47.6	-49.6	17.7	0.00e+00	0	41	0	575668224	66	4605
2026-01-22 02:26:13.85	352.15	36.19	-47.7	-49.6	17.7	0.00e+00	0	41	0	577765376	66	4648
2026-01-22 02:26:14.86	351.80	36.32	-48.2	-50.5	16.9	0.00e+00	0	41	0	578813952	67	4869
2026-01-22 02:26:15.86	351.45	36.45	-48.9	-51.7	15.9	0.00e+00	0	41	0	580911104	68	5232
2026-01-22 02:26:16.87	351.10	36.58	-48.8	-51.5	16.0	0.00e+00	0	41	0	583008256	68	5159
2026-01-22 02:26:17.88	350.74	36.71	-48.9	-51.6	15.9	0.00e+00	0	41	0	585105408	68	5217
2026-01-22 02:26:18.89	350.39	36.83	-48.3	-50.7	16.9	0.00e+00	0	41	0	587202560	68	4673
2026-01-22 02:26:19.90	350.02	36.96	-47.9	-50.1	17.4	0.00e+00	0	40	0	588251136	67	4602
2026-01-22 02:26:20.90	349.66	37.09	-48.0	-50.2	17.3	0.00e+00	0	41	0	590348288	67	4689
2026-01-22 02:26:21.91	349.30	37.21	-48.3	-50.7	16.8	0.00e+00	0	41	0	592445440	67	4958
2026-01-22 02:26:22.92	348.93	37.34	-48.1	-50.3	17.1	0.00e+00	0	41	0	594542592	67	4752
2026-01-22 02:26:23.93	348.55	37.46	-47.2	-49.1	18.2	0.00e+00	0	41	0	596639744	66	4341
2026-01-22 02:26:24.93	348.18	37.58	-46.7	-48.4	19.0	0.00e+00	0	41	0	597688320	65	4250
2026-01-22 02:26:25.94	347.80	37.71	-46.2	-47.7	19.6	0.00e+00	0	41	0	599785472	64	4174
2026-01-22 02:26:26.95	347.42	37.83	-46.5	-48.1	19.3	0.00e+00	0	41	0	601882624	63	4617
2026-01-22 02:26:27.96	347.04	37.95	-47.3	-49.2	18.3	0.00e+00	0	40	0	603979776	65	4656
2026-01-22 02:26:28.97	346.65	38.07	-47.9	-50.0	17.5	0.00e+00	0	41	0	606076928	66	4838
2026-01-22 02:26:29.97	346.26	38.18	-47.7	-49.7	17.8	0.00e+00	0	41	0	607125504	67	4419
2026-01-22 02:26:30.98	345.87	38.30	-47.5	-49.5	18.0	0.00e+00	0	41	0	609222656	66	4564
2026-01-22 02:26:31.99	345.47	38.42	-46.6	-48.1	19.1	0.00e+00	0	41	0	611319808	65	4145
2026-01-22 02:26:33.00	345.07	38.53	-46.2	-47.6	19.7	0.00e+00	0	41	0	613416960	63	4387
2026-01-22 02:26:34.01	344.67	38.64	-46.0	-47.5	19.9	0.00e+00	0	41	0	615514112	63	4320
2026-01-22 02:26:35.02	344.27	38.76	-46.5	-48.1	19.2	0.00e+00	0	41	0	616562688	63	4650
2026-01-22 02:26:36.02	343.87	38.87	-46.9	-48.7	18.6	0.00e+00	0	41	0	618659840	64	4680
2026-01-22 02:26:37.03	343.46	38.98	-46.8	-48.6	18.5	0.00e+00	0	41	0	620756992	65	4370
2026-01-22 02:26:38.04	343.04	39.08	-46.6	-48.3	19.0	0.00e+00	0	41	0	622854144	65	4203
2026-01-22 02:26:39.05	342.63	39.19	-45.8	-47.3	19.9	0.00e+00	0	41	0	624951296	63	4217
2026-01-22 02:26:40.06	342.21	39.30	-45.4	-46.8	20.4	0.00e+00	0	41	0	627048448	62	4204
2026-01-22 02:26:41.07	341.79	39.40	-45.2	-46.5	20.7	0.00e+00	0	41	0	628097024	62	4092
2026-01-22 02:26:42.08	341.36	39.50	-45.3	-46.7	20.5	0.00e+00	0	41	0	630194176	62	4146
2026-01-22 02:26:43.08	340.94	39.60	-45.2	-46.6	20.6	0.00e+00	0	41	0	632291328	62	4119
2026-01-22 02:26:44.09	340.51	39.70	-45.6	-47.1	20.2	0.00e+00	0	41	0	634388480	62	4342
2026-01-22 02:26:45.10	340.08	39.80	-45.6	-47.1	20.1	0.00e+00	0	41	0	635437056	62	4364
2026-01-22 02:26:46.11	339.65	39.90	-45.6	-47.1	20.1	0.00e+00	0	41	0	637534208	62	4375
2026-01-22 02:26:47.12	339.21	39.99	-45.4	-46.9	20.4	0.00e+00	0	41	0	639631360	62	4248
2026-01-22 02:26:48.12	338.78	40.08	-45.6	-47.1	20.1	0.00e+00	0	41	0	641728512	62	4357
2026-01-22 02:26:49.13	338.33	40.18	-45.8	-47.4	19.9	0.00e+00	0	41	0	643825664	62	4498
2026-01-22 02:26:50.14	337.89	40.27	-45.9	-47.5	19.6	0.00e+00	0	41	0	645922816	62	4575
2026-01-22 02:26:51.15	337.44	40.35	-45.7	-47.3	20.0	0.00e+00	0	41	0	646971392	62	4452
2026-01-22 02:26:52.16	336.99	40.44	-45.3	-46.8	20.4	0.00e+00	0	41	0	649068544	62	4224
2026-01-22 02:26:53.16	336.55	40.52	-44.4	-45.6	21.4	0.00e+00	0	41	0	651165696	60	4124
2026-01-22 02:26:54.17	336.09	40.61	-44.3	-45.5	21.7	0.00e+00	0	41	0	653262848	59	4324
2026-01-22 02:26:55.18	335.64	40.69	-44.6	-45.9	21.5	0.00e+00	0	41	0	655360000	59	4498
2026-01-22 02:26:56.19	335.18	40.76	-44.4	-45.6	21.5	0.00e+00	0	41	0	656408576	60	4136
2026-01-22 02:26:57.20	334.72	40.84	-44.5	-45.7	21.4	0.00e+00	0	41	0	658505728	60	4178
2026-01-22 02:26:58.21	334.25	40.92	-44.2	-45.3	21.7	0.00e+00	0	41	0	660602880	60	4003
2026-01-22 02:26:59.21	333.79	40.99	-44.0	-45.2	22.0	0.00e+00	0	41	0	662700032	60	3918
2026-01-22 02:27:00.22	333.33	41.06	-44.3	-45.4	21.7	0.00e+00	0	41	0	663748608	60	4050
2026-01-22 02:27:01.22	332.86	41.13	-44.9	-46.2	21.1	0.00e+00	0	41	0	665845760	60	4415
2026-01-22 02:27:02.23	332.39	41.20	-45.7	-47.1	20.3	0.00e+00	0	41	0	667942912	62	4385
2026-01-22 02:27:03.24	331.92	41.26	-45.9	-47.4	20.0	0.00e+00	0	41	0	670040064	62	4494
2026-01-22 02:27:04.25	331.44	41.32	-45.7	-47.1	20.2	0.00e+00	0	41	0	672137216	62	4391
2026-01-22 02:27:05.26	330.97	41.38	-45.8	-47.3	20.2	0.00e+00	0	41	0	674234368	62	4453
2026-01-22 02:27:06.27	330.49	41.44	-46.0	-47.6	20.0	0.00e+00	0	41	0	675282944	62	4600
2026-01-22 02:27:07.27	330.01	41.50	-46.2	-47.7	19.7	0.00e+00	0	41	0	677380096	63	4414
2026-01-22 02:27:08.28	329.53	41.55	-46.5	-48.1	19.4	0.00e+00	0	41	0	679477248	63	4631
2026-01-22 02:27:09.29	329.05	41.60	-46.6	-48.3	19.3	0.00e+00	0	41	0	681574400	63	4711
2026-01-22 02:27:10.30	328.56	41.65	-46.4	-48.0	19.6	0.00e+00	0	41	0	683671552	63	4549
2026-01-22 02:27:11.31	328.08	41.70	-46.1	-47.6	19.9	0.00e+00	0	41	0	684720128	63	4358
2026-01-22 02:27:12.31	327.59	41.74	-45.5	-46.9	20.5	0.00e+00	0	41	0	686817280	62	4251
2026-01-22 02:27:13.32	327.10	41.79	-45.7	-47.1	20.3	0.00e+00	0	41	0	688914432	62	4373
2026-01-22 02:27:14.33	326.61	41.83	-46.5	-48.2	19.2	0.00e+00	0	41	0	691011584	63	4655
2026-01-22 02:27:15.34	326.12	41.87	-47.1	-48.9	18.6	0.00e+00	0	41	0	693108736	65	4521
2026-01-22 02:27:16.34	325.63	41.90	-47.1	-49.0	18.6	0.00e+00	0	41	0	694157312	65	4548
2026-01-22 02:27:17.35	325.14	41.93	-46.6	-48.2	19.4	0.00e+00	0	40	0	696254464	65	4156
2026-01-22 02:27:18.36	324.64	41.97	-46.0	-47.4	20.1	0.00e+00	0	41	0	698351616	63	4260
2026-01-22 02:27:19.37	324.15	41.99	-45.3	-46.5	20.9	0.00e+00	0	41	0	700448768	62	4094
2026-01-22 02:27:20.38	323.65	42.02	-45.2	-46.4	20.9	0.00e+00	0	41	0	702545920	62	4041
2026-01-22 02:27:21.39	323.15	42.04	-45.7	-47.0	20.5	0.00e+00	0	41	0	703594496	62	4329
2026-01-22 02:27:22.39	322.66	42.06	-46.2	-47.7	19.9	0.00e+00	0	41	0	705691648	63	4398
2026-01-22 02:27:23.40	322.16	42.08	-46.2	-47.6	19.9	0.00e+00	0	41	0	707788800	63	4374
2026-01-22 02:27:24.41	321.66	42.10	-46.1	-47.6	20.1	0.00e+00	0	41	0	709885952	63	4346
2026-01-22 02:27:25.42	321.16	42.11	-46.0	-47.4	20.1	0.00e+00	0	41	0	711983104	63	4269
2026-01-22 02:27:26.43	320.66	42.13	-46.5	-48.1	19.6	0.00e+00	0	41	0	713031680	63	4611
2026-01-22 02:27:27.44	320.16	42.13	-46.6	-48.3	19.1	0.00e+00	0	41	0	715128832	64	4456
2026-01-22 02:27:28.45	319.66	42.14	-47.0	-48.7	18.9	0.00e+00	0	41	0	717225984	64	4703
2026-01-22 02:27:29.45	319.17	42.15	-47.4	-49.3	18.4	0.00e+00	0	41	0	719323136	65	4754
2026-01-22 02:27:30.46	318.66	42.15	-47.8	-49.9	17.8	0.00e+00	0	41	0	721420288	66	4780
2026-01-22 02:27:31.47	318.16	42.15	-47.5	-49.5	18.1	0.00e+00	0	41	0	722468864	66	4547
2026-01-22 02:27:32.48	317.66	42.14	-47.1	-49.0	18.6	0.00e+00	0	41	0	724566016	66	4292
2026-01-22 02:27:33.49	317.16	42.14	-47.0	-48.9	18.6	0.00e+00	0	41	0	726663168	66	4251
2026-01-22 02:27:34.50	316.66	42.13	-47.3	-49.2	18.3	0.00e+00	0	41	0	728760320	66	4439
2026-01-22 02:27:35.50	316.17	42.12	-47.0	-48.8	18.5	0.00e+00	0	41	0	730857472	65	4461
2026-01-22 02:27:36.51	315.67	42.10	-46.7	-48.4	19.0	0.00e+00	0	41	0	731906048	65	4247
2026-01-22 02:27:37.52	315.17	42.09	-46.4	-48.0	19.4	0.00e+00	0	41	0	734003200	64	4317
2026-01-22 02:27:38.53	314.67	42.07	-46.7	-48.4	19.1	0.00e+00	0	40	0	736100352	64	4517
2026-01-22 02:27:39.54	314.17	42.05	-47.1	-48.9	18.5	0.00e+00	0	41	0	738197504	64	4808
2026-01-22 02:27:40.55	313.67	42.03	-47.8	-50.0	17.6	0.00e+00	0	41	0	740294656	66	4840
2026-01-22 02:27:41.55	313.18	42.00	-48.9	-51.6	16.0	0.00e+00	0	41	0	742391808	68	5213
2026-01-22 02:27:42.56	312.68	41.97	-49.0	-51.8	15.6	0.00e+00	0	40	0	743440384	69	4990
2026-01-22 02:27:43.57	312.19	41.94	-48.3	-50.6	17.0	0.00e+00	0	41	0	745537536	68	4619
2026-01-22 02:27:44.57	311.70	41.91	-47.8	-49.9	17.7	0.00e+00	0	41	0	747634688	67	4513
2026-01-22 02:27:45.58	311.20	41.88	-47.8	-49.9	17.6	0.00e+00	0	41	0	749731840	67	4508
2026-01-22 02:27:46.59	310.71	41.84	-48.0	-50.1	17.3	0.00e+00	0	41	0	750780416	67	4649
2026-01-22 02:27:47.59	310.23	41.80	-48.5	-51.0	16.5	0.00e+00	0	41	0	752877568	67	5116
2026-01-22 02:27:48.60	309.74	41.76	-48.9	-51.6	16.0	0.00e+00	0	41	0	754974720	68	5181
2026-01-22 02:27:49.61	309.25	41.72	-49.1	-52.0	15.3	0.00e+00	0	41	0	757071872	69	5105
2026-01-22 02:27:50.62	308.76	41.67	-48.9	-51.6	15.8	0.00e+00	0	41	0	759169024	69	4904
2026-01-22 02:27:51.63	308.27	41.62	-49.1	-52.0	15.7	0.00e+00	0	41	0	760217600	69	5153
2026-01-22 02:27:52.64	307.79	41.57	-49.2	-52.2	15.4	0.00e+00	0	41	0	762314752	69	5226
2026-01-22 02:27:53.65	307.31	41.52	-49.1	-52.1	15.5	0.00e+00	0	41	0	764411904	69	5173
2026-01-22 02:27:54.65	306.83	41.46	-48.8	-51.4	16.3	0.00e+00	0	40	0	766509056	68	5079
2026-01-22 02:27:55.66	306.35	41.40	-49.2	-52.0	15.5	0.00e+00	0	41	0	768606208	68	5443
2026-01-22 02:27:56.67	305.87	41.34	-49.5	-52.6	15.0	0.00e+00	0	41	0	770703360	69	5506
2026-01-22 02:27:57.68	305.40	41.28	-49.1	-52.1	15.5	1.50e-06	0	41	0	771751936	70	4877
2026-01-22 02:27:58.68	304.93	41.22	-48.6	-51.2	16.1	0.00e+00	0	41	0	773849088	69	4680
2026-01-22 02:27:59.69	304.46	41.15	-48.8	-51.7	15.8	0.00e+00	0	41	0	775946240	68	5223
2026-01-22 02:28:00.70	303.99	41.08	-48.6	-51.4	16.1	0.00e+00	0	41	0	778043392	68	5091
2026-01-22 02:28:01.71	303.52	41.01	-48.5	-51.2	16.3	0.00e+00	0	41	0	779091968	68	4979
2026-01-22 02:28:02.72	303.05	40.94	-48.5	-51.2	16.3	0.00e+00	0	41	0	781189120	68	4958
2026-01-22 02:28:03.72	302.59	40.87	-48.7	-51.6	15.8	0.00e+00	0	41	0	783286272	68	5175
2026-01-22 02:28:04.73	302.13	40.79	-48.5	-51.2	16.2	0.00e+00	0	41	0	785383424	68	4980
2026-01-22 02:28:05.74	301.67	40.71	-47.6	-49.7	17.6	0.00e+00	0	41	0	787480576	67	4419
2026-01-22 02:28:06.75	301.21	40.63	-46.8	-48.6	18.8	0.00e+00	0	41	0	789577728	65	4344
2026-01-22 02:28:07.75	300.76	40.55	-47.1	-48.9	18.5	0.00e+00	0	41	0	790626304	64	4805
2026-01-22 02:28:08.76	300.31	40.47	-46.0	-47.6	19.8	0.00e+00	0	41	0	792723456	63	4350
2026-01-22 02:28:09.77	299.86	40.38	-45.6	-47.0	20.5	0.00e+00	0	41	0	794820608	63	4061
2026-01-22 02:28:10.78	299.41	40.29	-45.0	-46.3	20.9	0.00e+00	0	41	0	796917760	61	4233
2026-01-22 02:28:11.79	298.97	40.20	-45.2	-46.6	20.8	0.00e+00	0	41	0	799014912	61	4359
2026-01-22 02:28:12.79	298.53	40.11	-45.4	-46.8	20.6	0.00e+00	0	41	0	800063488	61	4460
2026-01-22 02:28:13.80	298.09	40.02	-45.1	-46.5	20.8	0.00e+00	0	41	0	802160640	61	4304
2026-01-22 02:28:14.81	297.65	39.93	-45.0	-46.3	21.0	0.00e+00	0	41	0	804257792	61	4198
2026-01-22 02:28:15.81	297.22	39.83	-44.7	-46.0	21.2	0.00e+00	0	41	0	806354944	61	4062
2026-01-22 02:28:16.82	296.79	39.73	-44.8	-46.0	21.2	0.00e+00	0	41	0	807403520	61	4094
2026-01-22 02:28:17.83	296.35	39.64	-44.6	-45.9	21.3	0.00e+00	0	41	0	809500672	61	4020
2026-01-22 02:28:18.84	295.93	39.53	-44.1	-45.3	21.8	0.00e+00	0	41	0	811597824	60	3987
2026-01-22 02:28:19.85	295.50	39.43	-44.2	-45.4	21.7	0.00e+00	0	41	0	813694976	60	4007
2026-01-22 02:28:20.85	295.08	39.33	-44.3	-45.5	21.7	0.00e+00	0	41	0	815792128	60	4079
2026-01-22 02:28:21.86	294.66	39.22	-44.1	-45.3	21.9	0.00e+00	0	41	0	817889280	60	3969
2026-01-22 02:28:22.87	294.25	39.12	-44.2	-45.4	22.0	0.00e+00	0	41	0	818937856	59	4261
2026-01-22 02:28:23.88	293.83	39.01	-44.1	-45.2	22.1	0.00e+00	0	41	0	821035008	59	4184
2026-01-22 02:28:24.89	293.42	38.90	-44.1	-45.3	22.1	0.00e+00	0	41	0	823132160	59	4202
2026-01-22 02:28:25.89	293.02	38.79	-44.0	-45.1	22.2	0.00e+00	0	41	0	825229312	59	4144
2026-01-22 02:28:26.90	292.61	38.68	-43.9	-45.0	22.3	0.00e+00	0	41	0	827326464	59	4091
2026-01-22 02:28:27.91	292.21	38.57	-44.3	-45.4	21.9	0.00e+00	0	41	0	828375040	59	4284
2026-01-22 02:28:28.91	291.81	38.45	-44.4	-45.6	21.6	0.00e+00	0	41	0	830472192	60	4114
2026-01-22 02:28:29.92	291.42	38.34	-44.9	-46.2	21.1	0.00e+00	0	41	0	832569344	60	4397
2026-01-22 02:28:30.93	291.02	38.22	-45.1	-46.4	20.9	0.00e+00	0	41	0	834666496	60	4521
2026-01-22 02:28:31.94	290.63	38.10	-45.4	-46.8	20.6	0.00e+00	0	41	0	836763648	61	4449
2026-01-22 02:28:32.95	290.24	37.98	-45.1	-46.4	20.9	0.00e+00	0	41	0	837812224	61	4269
2026-01-22 02:28:33.96	289.85	37.86	-44.7	-46.0	21.3	0.00e+00	0	41	0	839909376	61	4061
2026-01-22 02:28:34.96	289.47	37.74	-44.5	-45.7	21.5	0.00e+00	0	41	0	842006528	60	4189
2026-01-22 02:28:35.97	289.09	37.62	-44.8	-46.0	21.3	0.00e+00	0	41	0	844103680	60	4303
2026-01-22 02:28:36.98	288.72	37.50	-45.2	-46.5	20.8	0.00e+00	0	41	0	846200832	61	4323
2026-01-22 02:28:37.99	288.34	37.38	-45.5	-46.9	20.5	0.00e+00	0	41	0	847249408	61	4506
2026-01-22 02:28:39.00	287.97	37.25	-45.2	-46.5	20.8	0.00e+00	0	41	0	849346560	61	4312
2026-01-22 02:28:40.01	287.60	37.12	-44.8	-46.0	21.2	0.00e+00	0	41	0	851443712	61	4083
2026-01-22 02:28:41.01	287.24	37.00	-44.4	-45.6	21.7	0.00e+00	0	40	0	853540864	60	4120
2026-01-22 02:28:42.02	286.88	36.87	-44.1	-45.2	22.2	0.00e+00	0	41	0	855638016	59	4193
2026-01-22 02:28:43.03	286.52	36.74	-44.2	-45.3	22.2	0.00e+00	0	41	0	856686592	59	4211
2026-01-22 02:28:44.04	286.16	36.61	-44.0	-45.0	22.5	0.00e+00	0	41	0	858783744	59	4088
2026-01-22 02:28:45.05	285.80	36.48	-44.3	-45.5	22.1	0.00e+00	0	41	0	860880896	59	4301
2026-01-22 02:28:46.05	285.46	36.35	-45.2	-46.5	21.0	0.00e+00	0	41	0	862978048	60	4584
2026-01-22 02:28:47.06	285.11	36.22	-46.2	-47.7	19.9	0.00e+00	0	41	0	865075200	62	4692
2026-01-22 02:28:48.07	284.76	36.09	-46.4	-47.9	19.8	0.00e+00	0	41	0	866123776	63	4524
2026-01-22 02:28:49.07	284.42	35.96	-45.6	-47.0	20.5	0.00e+00	0	41	0	868220928	63	4058
2026-01-22 02:28:50.08	284.08	35.83	-45.1	-46.3	21.1	0.00e+00	0	40	0	870318080	62	3988
2026-01-22 02:28:51.09	283.74	35.69	-45.2	-46.4	21.1	0.00e+00	0	40	0	872415232	62	4047
2026-01-22 02:28:52.10	283.41	35.56	-45.6	-46.9	20.6	0.00e+00	0	41	0	874512384	62	4276
2026-01-22 02:28:53.11	283.08	35.42	-45.5	-46.9	20.6	0.00e+00	0	41	0	875560960	62	4252
2026-01-22 02:28:54.12	282.75	35.29	-45.6	-46.9	20.6	0.00e+00	0	41	0	877658112	62	4278
2026-01-22 02:28:55.13	282.42	35.15	-45.8	-47.1	20.4	0.00e+00	0	41	0	879755264	62	4361
2026-01-22 02:28:56.14	282.10	35.02	-46.2	-47.6	20.0	0.00e+00	0	41	0	881852416	62	4631
2026-01-22 02:28:57.15	281.77	34.88	-46.2	-47.6	19.9	0.00e+00	0	41	0	883949568	63	4371
2026-01-22 02:28:58.15	281.46	34.74	-46.3	-47.8	19.6	0.00e+00	0	41	0	884998144	63	4482
2026-01-22 02:28:59.16	281.14	34.61	-46.5	-48.0	19.5	0.00e+00	0	41	0	887095296	64	4320
2026-01-22 02:29:00.17	280.83	34.47	-47.0	-48.7	18.8	0.00e+00	0	41	0	889192448	64	4688
2026-01-22 02:29:01.18	280.52	34.33	-47.2	-49.0	18.7	0.00e+00	0	41	0	891289600	65	4551
2026-01-22 02:29:02.18	280.21	34.19	-47.4	-49.1	18.4	0.00e+00	0	41	0	893386752	65	4643
2026-01-22 02:29:03.19	279.91	34.05	-47.1	-48.8	18.8	0.00e+00	0	41	0	894435328	65	4451
2026-01-22 02:29:04.20	279.61	33.91	-46.7	-48.2	19.3	0.00e+00	0	41	0	896532480	65	4184
2026-01-22 02:29:05.21	279.31	33.77	-46.6	-48.2	19.4	0.00e+00	0	40	0	898629632	65	4160
2026-01-22 02:29:06.22	279.01	33.63	-46.4	-47.9	19.5	0.00e+00	0	41	0	900726784	64	4274
2026-01-22 02:29:07.23	278.71	33.49	-46.1	-47.5	19.9	0.00e+00	0	41	0	902823936	64	4087
2026-01-22 02:29:08.23	278.42	33.35	-46.0	-47.3	20.2	0.00e+00	0	41	0	903872512	63	4234
2026-01-22 02:29:09.24	278.13	33.21	-46.1	-47.5	20.0	0.00e+00	0	41	0	905969664	63	4323
2026-01-22 02:29:10.25	277.85	33.07	-46.6	-48.1	19.5	0.00e+00	0	41	0	908066816	63	4612
2026-01-22 02:29:11.26	277.56	32.93	-47.2	-49.0	18.6	0.00e+00	0	41	0	910163968	65	4567
2026-01-22 02:29:12.27	277.28	32.79	-47.2	-49.0	18.6	0.00e+00	0	41	0	912261120	65	4566
2026-01-22 02:29:13.27	277.00	32.65	-47.1	-48.8	18.8	0.00e+00	0	41	0	913309696	65	4444
2026-01-22 02:29:14.28	276.73	32.51	-46.7	-48.2	19.1	0.00e+00	0	41	0	915406848	65	4179
2026-01-22 02:29:15.29	276.45	32.37	-46.3	-47.8	19.7	0.00e+00	0	41	0	917504000	64	4199
2026-01-22 02:29:16.30	276.18	32.23	-46.5	-48.0	19.5	0.00e+00	0	41	0	919601152	64	4329
2026-01-22 02:29:17.31	275.91	32.09	-46.9	-48.5	19.0	0.00e+00	0	41	0	921698304	64	4582
2026-01-22 02:29:18.32	275.64	31.94	-47.3	-49.0	18.5	0.00e+00	0	41	0	922746880	65	4593
2026-01-22 02:29:19.33	275.37	31.80	-47.8	-49.8	17.8	0.00e+00	0	41	0	924844032	66	4718
2026-01-22 02:29:20.33	275.11	31.66	-48.6	-50.9	16.7	0.00e+00	0	41	0	926941184	67	5052
2026-01-22 02:29:21.34	274.85	31.52	-49.5	-52.2	15.4	0.00e+00	0	41	0	929038336	69	5279
2026-01-22 02:29:22.35	274.59	31.38	-49.9	-53.1	14.6	0.00e+00	0	41	0	931135488	70	5497
2026-01-22 02:29:23.36	274.34	31.24	-49.5	-52.3	15.3	1.50e-06	0	41	0	933232640	70	5009
2026-01-22 02:29:24.36	274.09	31.10	-48.8	-51.1	16.5	0.00e+00	0	41	0	934281216	69	4638
2026-01-22 02:29:25.37	273.83	30.96	-48.2	-50.2	17.4	0.00e+00	0	41	0	936378368	68	4408
2026-01-22 02:29:26.38	273.58	30.81	-47.6	-49.4	18.2	0.00e+00	0	41	0	938475520	67	4252
2026-01-22 02:29:27.39	273.34	30.67	-47.7	-49.7	17.9	0.00e+00	0	41	0	940572672	66	4654
2026-01-22 02:29:28.40	273.09	30.53	-47.7	-49.7	17.9	0.00e+00	0	41	0	941621248	66	4657
2026-01-22 02:29:29.41	272.85	30.39	-47.8	-49.7	17.8	0.00e+00	0	41	0	943718400	66	4704
2026-01-22 02:29:30.41	272.61	30.25	-47.5	-49.3	18.1	0.00e+00	0	41	0	945815552	66	4481
2026-01-22 02:29:31.42	272.37	30.11	-47.3	-49.0	18.4	0.00e+00	0	41	0	947912704	66	4333
2026-01-22 02:29:32.43	272.13	29.97	-47.1	-48.8	18.6	0.00e+00	0	41	0	950009856	66	4214
2026-01-22 02:29:33.44	271.90	29.83	-47.3	-49.1	18.4	0.00e+00	0	41	0	952107008	65	4625
2026-01-22 02:29:34.45	271.67	29.69	-47.4	-49.2	18.3	0.00e+00	0	41	0	953155584	65	4698
2026-01-22 02:29:35.45	271.44	29.55	-47.5	-49.3	18.3	0.00e+00	0	41	0	955252736	65	4750
2026-01-22 02:29:36.46	271.21	29.41	-47.3	-49.1	18.3	0.00e+00	0	41	0	957349888	66	4386
2026-01-22 02:29:37.47	270.98	29.27	-47.3	-49.1	18.4	0.00e+00	0	41	0	959447040	66	4341
2026-01-22 02:29:38.48	270.76	29.13	-47.7	-49.7	17.9	0.00e+00	0	41	0	961544192	66	4652
2026-01-22 02:29:39.49	270.54	28.99	-47.5	-49.4	18.1	0.00e+00	0	41	0	962592768	66	4508
2026-01-22 02:29:40.49	270.32	28.85	-47.6	-49.4	18.1	0.00e+00	0	41	0	964689920	66	4541
2026-01-22 02:29:41.50	270.10	28.71	-47.8	-49.7	17.8	0.00e+00	0	41	0	966787072	66	4653
2026-01-22 02:29:42.51	269.88	28.57	-47.9	-49.7	17.8	0.00e+00	0	41	0	968884224	66	4705
2026-01-22 02:29:43.52	269.67	28.43	-47.3	-49.0	18.4	0.00e+00	0	41	0	969932800	66	4338
2026-01-22 02:29:44.53	269.45	28.30	-46.8	-48.4	19.0	0.00e+00	0	41	0	972029952	65	4266
2026-01-22 02:29:45.53	269.24	28.16	-46.4	-47.9	19.4	0.00e+00	0	41	0	974127104	64	4284
2026-01-22 02:29:46.54	269.03	28.02	-46.4	-47.9	19.5	0.00e+00	0	41	0	976224256	64	4272
2026-01-22 02:29:47.55	268.83	27.88	-46.1	-47.5	19.8	0.00e+00	0	41	0	978321408	64	4090
2026-01-22 02:29:48.56	268.62	27.75	-46.0	-47.4	20.0	0.00e+00	0	41	0	980418560	63	4252
2026-01-22 02:29:49.56	268.42	27.61	-45.9	-47.3	20.1	0.00e+00	0	41	0	981467136	63	4194
2026-01-22 02:29:50.57	268.22	27.47	-45.4	-46.7	20.6	0.00e+00	0	41	0	983564288	62	4158
2026-01-22 02:29:51.58	268.01	27.34	-45.3	-46.5	20.6	0.00e+00	0	41	0	985661440	62	4077
2026-01-22 02:29:52.59	267.82	27.20	-45.2	-46.4	20.8	0.00e+00	0	41	0	987758592	62	4038
2026-01-22 02:29:53.59	267.62	27.07	-45.4	-46.6	20.6	0.00e+00	0	41	0	989855744	62	4142
2026-01-22 02:29:54.60	267.43	26.93	-45.0	-46.2	21.0	0.00e+00	0	41	0	990904320	62	3926
2026-01-22 02:29:55.61	267.23	26.79	-45.5	-46.7	20.6	0.00e+00	0	41	0	993001472	62	4190
2026-01-22 02:29:56.62	267.04	26.66	-45.6	-46.9	20.4	0.00e+00	0	41	0	995098624	62	4252
2026-01-22 02:29:57.62	266.85	26.53	-46.1	-47.5	19.9	0.00e+00	0	41	0	997195776	62	4572
2026-01-22 02:29:58.63	266.66	26.39	-46.1	-47.6	19.8	0.00e+00	0	41	0	998244352	62	4621
2026-01-22 02:29:59.64	266.47	26.26	-46.8	-48.5	18.9	0.00e+00	0	41	0	1000341504	64	4578
2026-01-22 02:30:00.65	266.29	26.12	-46.9	-48.7	18.7	0.00e+00	0	41	0	1002438656	64	4684
2026-01-22 02:30:01.65	266.11	25.99	-47.2	-49.1	18.4	0.00e+00	0	41	0	1004535808	64	4874
2026-01-22 02:30:02.66	265.92	25.86	-47.0	-48.8	18.5	0.00e+00	0	41	0	1006632960	65	4473
2026-01-22 02:30:03.67	265.74	25.72	-47.4	-49.3	18.0	0.00e+00	0	41	0	1008730112	65	4752
2026-01-22 02:30:04.68	265.56	25.59	-47.3	-49.2	18.2	0.00e+00	0	41	0	1009778688	65	4659
2026-01-22 02:30:05.69	265.39	25.46	-47.3	-49.1	18.2	0.00e+00	0	41	0	1011875840	65	4628
2026-01-22 02:30:06.69	265.21	25.33	-47.2	-49.0	18.3	0.00e+00	0	41	0	1013972992	65	4596
2026-01-22 02:30:07.70	265.04	25.20	-47.2	-49.0	18.3	0.00e+00	0	41	0	1016070144	65	4595
2026-01-22 02:30:08.71	264.86	25.07	-46.9	-48.6	18.7	0.00e+00	0	41	0	1018167296	65	4386
2026-01-22 02:30:09.72	264.69	24.94	-46.7	-48.3	19.0	0.00e+00	0	41	0	1019215872	65	4225
2026-01-22 02:30:10.73	264.52	24.81	-46.8	-48.5	18.8	0.00e+00	0	41	0	1021313024	65	4335
2026-01-22 02:30:11.74	264.35	24.68	-46.5	-48.1	19.2	0.00e+00	0	40	0	1023410176	64	4358
2026-01-22 02:30:12.75	264.18	24.55	-46.3	-47.8	19.4	0.00e+00	0	41	0	1025507328	64	4235
2026-01-22 02:30:13.75	264.02	24.42	-46.1	-47.6	19.6	0.00e+00	0	41	0	1027604480	64	4123
2026-01-22 02:30:14.76	263.85	24.29	-46.3	-47.8	19.5	0.00e+00	0	41	0	1028653056	64	4221
2026-01-22 02:30:15.77	263.69	24.16	-46.1	-47.5	19.8	0.00e+00	0	41	0	1030750208	64	4081
2026-01-22 02:30:16.78	263.53	24.03	-46.5	-48.0	19.3	0.00e+00	0	41	0	1032847360	63	4598
2026-01-22 02:30:17.79	263.37	23.90	-46.6	-48.2	19.2	0.00e+00	0	41	0	1034944512	63	4687
2026-01-22 02:30:18.79	263.21	23.78	-46.3	-47.8	19.5	0.00e+00	0	41	0	1037041664	64	4214
2026-01-22 02:30:19.80	263.05	23.65	-46.5	-48.0	19.3	0.00e+00	0	41	0	1038090240	64	4321
2026-01-22 02:30:20.81	262.89	23.52	-46.2	-47.7	19.5	0.00e+00	0	41	0	1040187392	64	4186
2026-01-22 02:30:21.82	262.74	23.40	-46.2	-47.7	19.5	0.00e+00	0	40	0	1042284544	64	4189
2026-01-22 02:30:22.83	262.58	23.27	-45.9	-47.3	19.9	0.00e+00	0	41	0	1044381696	63	4240
2026-01-22 02:30:23.83	262.43	23.15	-45.8	-47.2	20.1	0.00e+00	0	41	0	1046478848	63	4165
2026-01-22 02:30:24.84	262.28	23.02	-45.4	-46.8	20.5	0.00e+00	0	41	0	1048576000	62	4198
2026-01-22 02:30:25.85	262.13	22.90	-45.5	-46.8	20.4	0.00e+00	0	41	0	1049624576	62	4236
2026-01-22 02:30:26.86	261.98	22.77	-45.6	-47.0	20.2	0.00e+00	0	41	0	1051721728	62	4317
2026-01-22 02:30:27.87	261.83	22.65	-46.0	-47.5	19.9	0.00e+00	0	41	0	1053818880	62	4549
2026-01-22 02:30:28.87	261.68	22.53	-46.7	-48.3	19.0	0.00e+00	0	41	0	1055916032	63	4739
2026-01-22 02:30:29.88	261.54	22.40	-47.1	-48.9	18.4	0.00e+00	0	41	0	1056964608	64	4777
2026-01-22 02:30:30.89	261.39	22.28	-47.8	-49.8	17.5	0.00e+00	0	41	0	1059061760	66	4751
2026-01-22 02:30:31.90	261.25	22.16	-48.2	-50.5	16.9	0.00e+00	0	41	0	1061158912	67	4823
2026-01-22 02:30:32.91	261.11	22.04	-48.6	-51.1	16.3	0.00e+00	0	41	0	1063256064	67	5179
2026-01-22 02:30:33.91	260.97	21.92	-48.4	-50.8	16.6	0.00e+00	0	41	0	1065353216	67	4988
2026-01-22 02:30:34.92	260.83	21.80	-48.2	-50.4	16.9	0.00e+00	0	41	0	1066401792	67	4804
2026-01-22 02:30:35.93	260.69	21.67	-47.7	-49.6	17.7	0.00e+00	0	41	0	1068498944	67	4373
2026-01-22 02:30:36.94	260.55	21.55	-47.6	-49.6	17.8	0.00e+00	0	41	0	1070596096	66	4599
2026-01-22 02:30:37.95	260.41	21.43	-47.3	-49.1	18.1	0.00e+00	0	41	0	1072693248	66	4383
2026-01-22 02:30:38.95	260.28	21.32	-47.1	-48.8	18.4	0.00e+00	0	41	0	1074790400	66	4231
2026-01-22 02:30:39.96	260.14	21.20	-47.0	-48.8	18.4	0.00e+00	0	41	0	1076887552	65	4457
2026-01-22 02:30:40.97	260.01	21.08	-47.1	-48.8	18.4	0.00e+00	0	41	0	1077936128	65	4458
2026-01-22 02:30:41.98	259.88	20.96	-46.9	-48.6	18.6	0.00e+00	0	41	0	1080033280	65	4351
2026-01-22 02:30:42.99	259.74	20.84	-46.7	-48.3	18.9	0.00e+00	0	41	0	1082130432	65	4196
2026-01-22 02:30:43.99	259.61	20.72	-46.9	-48.6	18.6	0.00e+00	0	41	0	1084227584	65	4359
2026-01-22 02:30:45.00	259.49	20.61	-46.7	-48.4	18.8	0.00e+00	0	41	0	1085276160	65	4255
2026-01-22 02:30:46.01	259.36	20.49	-46.7	-48.3	18.8	0.00e+00	0	41	0	1087373312	65	4223
2026-01-22 02:30:47.02	259.23	20.37	-46.8	-48.4	18.7	0.00e+00	0	41	0	1089470464	65	4283
2026-01-22 02:30:48.03	259.10	20.26	-46.7	-48.3	18.9	0.00e+00	0	41	0	1091567616	65	4212
2026-01-22 02:30:49.03	258.98	20.14	-46.8	-48.4	18.7	0.00e+00	0	41	0	1093664768	65	4286
2026-01-22 02:30:50.04	258.85	20.03	-46.5	-48.0	19.1	0.00e+00	0	41	0	1095761920	64	4325
2026-01-22 02:30:51.05	258.73	19.91	-46.3	-47.8	19.3	0.00e+00	0	41	0	1096810496	64	4212
2026-01-22 02:30:52.06	258.61	19.80	-46.0	-47.4	19.7	0.00e+00	0	41	0	1098907648	63	4290
2026-01-22 02:30:53.07	258.48	19.68	-45.9	-47.3	19.8	0.00e+00	0	41	0	1101004800	63	4209
2026-01-22 02:30:54.07	258.36	19.57	-45.5	-46.8	20.3	0.00e+00	0	41	0	1103101952	62	4210
2026-01-22 02:30:55.08	258.24	19.46	-45.2	-46.5	20.5	0.00e+00	0	41	0	1105199104	62	4065
2026-01-22 02:30:56.09	258.13	19.34	-45.5	-46.8	20.3	0.00e+00	0	41	0	1106247680	62	4215
2026-01-22 02:30:57.10	258.01	19.23	-45.4	-46.7	20.4	0.00e+00	0	41	0	1108344832	62	4158
2026-01-22 02:30:58.11	257.89	19.12	-45.4	-46.8	20.3	0.00e+00	0	41	0	1110441984	62	4213
2026-01-22 02:30:59.11	257.77	19.01	-45.6	-47.0	20.0	0.00e+00	0	41	0	1112539136	62	4317
2026-01-22 02:31:00.12	257.66	18.90	-46.1	-47.6	19.6	0.00e+00	0	40	0	1113587712	62	4610
2026-01-22 02:31:01.13	257.54	18.78	-46.4	-47.9	19.2	0.00e+00	0	41	0	1115684864	63	4520
2026-01-22 02:31:02.14	257.43	18.67	-46.5	-48.1	19.1	0.00e+00	0	41	0	1117782016	63	4640
2026-01-22 02:31:03.15	257.32	18.56	-46.7	-48.4	18.7	0.00e+00	0	41	0	1119879168	64	4496
2026-01-22 02:31:04.15	257.21	18.45	-46.7	-48.4	18.7	0.00e+00	0	41	0	1121976320	64	4524
2026-01-22 02:31:05.16	257.09	18.34	-46.7	-48.3	18.8	0.00e+00	0	41	0	1124073472	64	4490
2026-01-22 02:31:06.17	256.98	18.24	-46.7	-48.3	18.8	0.00e+00	0	41	0	1125122048	64	4480
2026-01-22 02:31:07.18	256.87	18.13	-46.6	-48.2	18.9	0.00e+00	0	40	0	1127219200	64	4412
2026-01-22 02:31:08.19	256.76	18.02	-46.3	-47.8	19.2	0.00e+00	0	41	0	1129316352	64	4236
2026-01-22 02:31:09.19	256.66	17.91	-46.2	-47.7	19.3	0.00e+00	0	40	0	1131413504	64	4182
2026-01-22 02:31:10.20	256.55	17.80	-46.2	-47.7	19.4	0.00e+00	0	41	0	1133510656	64	4158
2026-01-22 02:31:11.21	256.44	17.70	-46.1	-47.6	19.5	0.00e+00	0	41	0	1134559232	64	4109
2026-01-22 02:31:12.22	256.34	17.59	-46.1	-47.6	19.5	0.00e+00	0	40	0	1136656384	63	4361
2026-01-22 02:31:13.22	256.23	17.48	-46.1	-47.6	19.5	0.00e+00	0	41	0	1138753536	63	4357
2026-01-22 02:31:14.23	256.13	17.38	-46.2	-47.7	19.4	0.00e+00	0	40	0	1140850688	63	4394
2026-01-22 02:31:15.24	256.03	17.27	-46.4	-47.9	19.3	0.00e+00	0	40	0	1142947840	63	4511
2026-01-22 02:31:16.25	255.92	17.16	-46.3	-47.9	19.3	0.00e+00	0	41	0	1143996416	63	4505
2026-01-22 02:31:17.25	255.82	17.06	-46.6	-48.1	19.0	0.00e+00	0	41	0	1146093568	63	4646
2026-01-22 02:31:18.26	255.72	16.95	-46.5	-48.1	19.1	0.00e+00	0	41	0	1148190720	63	4602
2026-01-22 02:31:19.27	255.62	16.85	-46.6	-48.2	18.9	0.00e+00	0	41	0	1150287872	63	4695
2026-01-22 02:31:20.28	255.52	16.75	-46.6	-48.2	18.9	0.00e+00	0	41	0	1152385024	64	4431
2026-01-22 02:31:21.29	255.42	16.64	-46.7	-48.4	18.7	0.00e+00	0	41	0	1153433600	64	4499
2026-01-22 02:31:22.29	255.32	16.54	-46.8	-48.5	18.5	0.00e+00	0	41	0	1155530752	64	4585
2026-01-22 02:31:23.30	255.23	16.44	-47.1	-48.8	18.3	0.00e+00	0	41	0	1157627904	64	4757
2026-01-22 02:31:24.31	255.13	16.33	-47.1	-48.9	18.2	0.00e+00	0	41	0	1159725056	64	4770
2026-01-22 02:31:25.32	255.03	16.23	-47.0	-48.8	18.2	0.00e+00	0	41	0	1161822208	65	4481
2026-01-22 02:31:26.33	254.94	16.13	-47.2	-49.0	18.0	0.00e+00	0	41	0	1162870784	65	4568
2026-01-22 02:31:27.33	254.84	16.03	-47.3	-49.2	17.9	0.00e+00	0	41	0	1164967936	65	4678
2026-01-22 02:31:28.34	254.75	15.93	-47.1	-48.9	18.2	0.00e+00	0	40	0	1167065088	65	4505
2026-01-22 02:31:29.35	254.65	15.82	-47.0	-48.7	18.3	0.00e+00	0	41	0	1169162240	65	4437
2026-01-22 02:31:30.36	254.56	15.72	-46.7	-48.3	18.7	0.00e+00	0	41	0	1171259392	65	4241
2026-01-22 02:31:31.37	254.47	15.62	-46.5	-48.1	18.8	0.00e+00	0	41	0	1172307968	64	4360
2026-01-22 02:31:32.37	254.38	15.52	-46.3	-47.8	19.2	0.00e+00	0	40	0	1174405120	64	4223
2026-01-22 02:31:33.38	254.29	15.42	-46.1	-47.6	19.4	0.00e+00	0	41	0	1176502272	64	4142
2026-01-22 02:31:34.39	254.20	15.33	-46.0	-47.5	19.6	0.00e+00	0	41	0	1178599424	63	4298
2026-01-22 02:31:35.40	254.11	15.23	-45.8	-47.2	19.8	0.00e+00	0	41	0	1180696576	63	4164
2026-01-22 02:31:36.41	254.02	15.13	-45.6	-47.0	19.9	0.00e+00	0	41	0	1181745152	63	4093
2026-01-22 02:31:37.41	253.93	15.03	-45.5	-46.9	20.1	0.00e+00	0	40	0	1183842304	62	4248
2026-01-22 02:31:38.42	253.84	14.93	-45.7	-47.1	19.9	0.00e+00	0	41	0	1185939456	62	4378
2026-01-22 02:31:39.43	253.75	14.83	-45.6	-47.0	20.0	0.00e+00	0	41	0	1188036608	62	4330
2026-01-22 02:31:40.44	253.67	14.74	-45.6	-47.0	20.0	0.00e+00	0	40	0	1190133760	62	4318
2026-01-22 02:31:41.45	253.58	14.64	-45.7	-47.2	19.8	0.00e+00	0	41	0	1191182336	62	4397
2026-01-22 02:31:42.45	253.49	14.54	-45.8	-47.3	19.7	0.00e+00	0	41	0	1193279488	62	4447
2026-01-22 02:31:43.46	253.41	14.45	-45.9	-47.3	19.6	0.00e+00	0	41	0	1195376640	62	4482
2026-01-22 02:31:44.47	253.32	14.35	-46.1	-47.6	19.4	0.00e+00	0	41	0	1197473792	62	4617
2026-01-22 02:31:45.48	253.24	14.25	-46.2	-47.7	19.3	0.00e+00	0	41	0	1199570944	62	4672
2026-01-22 02:31:46.48	253.16	14.16	-46.2	-47.7	19.3	0.00e+00	0	40	0	1200619520	63	4417
2026-01-22 02:31:47.49	253.07	14.06	-46.3	-47.8	19.2	0.00e+00	0	41	0	1202716672	63	4475
2026-01-22 02:31:48.50	252.99	13.97	-46.2	-47.8	19.3	0.00e+00	0	41	0	1204813824	63	4444
2026-01-22 02:31:49.51	252.91	13.87	-46.2	-47.7	19.3	0.00e+00	0	41	0	1206910976	63	4418
2026-01-22 02:31:50.52	252.83	13.78	-46.2	-47.8	19.3	0.00e+00	0	41	0	1209008128	63	4450
2026-01-22 02:31:51.53	252.75	13.69	-46.2	-47.7	19.3	0.00e+00	0	41	0	1210056704	63	4404
2026-01-22 02:31:52.54	252.67	13.59	-46.2	-47.7	19.3	0.00e+00	0	41	0	1212153856	63	4432
2026-01-22 02:31:53.55	252.59	13.50	-46.2	-47.7	19.3	0.00e+00	0	41	0	1214251008	63	4419
2026-01-22 02:31:54.55	252.51	13.41	-46.2	-47.8	19.3	0.00e+00	0	41	0	1216348160	63	4444
2026-01-22 02:31:55.56	252.43	13.31	-46.3	-47.9	19.1	0.00e+00	0	41	0	1218445312	63	4522
2026-01-22 02:31:56.57	252.35	13.22	-46.5	-48.0	19.0	0.00e+00	0	41	0	1219493888	63	4593
2026-01-22 02:31:57.58	252.27	13.13	-46.4	-48.0	19.0	0.00e+00	0	41	0	1221591040	63	4570
2026-01-22 02:31:58.59	252.20	13.04	-46.7	-48.3	18.7	0.00e+00	0	41	0	1223688192	63	4752
2026-01-22 02:31:59.59	252.12	12.95	-46.7	-48.3	18.6	0.00e+00	0	41	0	1225785344	63	4736
2026-01-22 02:32:00.60	252.04	12.85	-46.7	-48.4	18.6	0.00e+00	0	40	0	1227882496	64	4497
2026-01-22 02:32:01.61	251.97	12.76	-46.8	-48.6	18.4	0.00e+00	0	41	0	1228931072	64	4602
2026-01-22 02:32:02.62	251.89	12.67	-47.0	-48.8	18.1	0.00e+00	0	41	0	1231028224	64	4736
2026-01-22 02:32:03.62	251.82	12.58	-47.0	-48.8	18.1	0.00e+00	0	41	0	1233125376	64	4749
2026-01-22 02:32:04.63	251.75	12.49	-47.1	-48.9	18.1	0.00e+00	0	41	0	1235222528	64	4778
2026-01-22 02:32:05.64	251.67	12.40	-47.1	-49.0	17.9	0.00e+00	0	41	0	1237319680	64	4840
2026-01-22 02:32:06.65	251.60	12.31	-47.1	-49.0	17.9	0.00e+00	0	41	0	1239416832	64	4830
2026-01-22 02:32:07.65	251.53	12.22	-47.1	-48.9	18.0	0.00e+00	0	41	0	1240465408	64	4791
2026-01-22 02:32:08.66	251.45	12.13	-47.1	-48.9	18.0	0.00e+00	0	41	0	1242562560	64	4794
2026-01-22 02:32:09.67	251.38	12.05	-47.1	-48.9	17.9	0.00e+00	0	41	0	1244659712	64	4809
2026-01-22 02:32:10.68	251.31	11.96	-47.0	-48.8	18.0	0.00e+00	0	41	0	1246756864	64	4751
