passes_logs/2026/01/22/R3.2S_Murmansk/R3.2S_Murmansk__20260122_071813_SUOMI_NPP_rec.log

#Pass ID: 20260122_071813_SUOMI NPP
#Satellite: SUOMI NPP
#Configuration: NPP
#almurnet v.1.7.20251203
#Start time: 2026-01-22 07:18:13

#Version: 2.2.20231116
#Station: R3.2S_Murmansk
#Location: 33.079688 lon 68.888172 lat
#TLE: 1 37849U 11061A   26021.51818991  .00000201  00000+0  11636-3 0  9995
#TLE: 2 37849  98.7819 323.5108 0002300  52.3548 307.7836 14.19527793737637

#Time	Az	El	Level	Level2	SNR	BER	BlckErr	Temp	State	Recorded	gain1	gain2
2026-01-22 07:18:13.35	99.65	2.02	-54.4	-69.4	3.8	1.49e+00	0	39	0	0	79	21362
2026-01-22 07:18:14.35	99.60	2.08	-54.3	-69.4	3.8	1.49e+00	0	39	104	0	79	21415
2026-01-22 07:18:15.36	99.55	2.14	-54.3	-69.4	3.8	1.49e+00	0	39	104	0	79	21328
2026-01-22 07:18:16.36	99.51	2.20	-54.3	-69.3	3.8	1.49e+00	0	39	104	0	79	21252
2026-01-22 07:18:17.37	99.46	2.26	-54.3	-69.4	3.8	1.49e+00	0	39	104	0	79	21271
2026-01-22 07:18:18.38	99.41	2.32	-54.3	-69.3	3.8	1.49e+00	0	39	104	0	79	21236
2026-01-22 07:18:19.39	99.36	2.38	-54.3	-69.3	3.8	1.49e+00	0	39	104	0	79	21252
2026-01-22 07:18:20.40	99.31	2.44	-54.3	-69.3	3.8	1.49e+00	0	39	104	0	79	21234
2026-01-22 07:18:21.41	99.26	2.50	-54.5	-69.5	3.8	1.49e+00	0	39	104	0	79	21724
2026-01-22 07:18:22.42	99.21	2.57	-54.5	-69.6	3.8	1.49e+00	0	39	104	0	79	21773
2026-01-22 07:18:23.42	99.16	2.63	-54.5	-69.6	3.8	1.49e+00	0	39	104	0	79	21779
2026-01-22 07:18:24.43	99.11	2.69	-54.5	-69.5	3.8	1.49e+00	0	39	104	0	79	21731
2026-01-22 07:18:25.44	99.06	2.75	-54.5	-69.5	3.8	1.49e+00	0	39	104	0	79	21739
2026-01-22 07:18:26.45	99.01	2.81	-54.5	-69.5	3.8	1.49e+00	0	39	104	0	79	21663
2026-01-22 07:18:27.46	98.96	2.88	-54.5	-69.5	3.8	1.49e+00	0	39	104	0	79	21676
2026-01-22 07:18:28.47	98.91	2.94	-54.4	-69.5	3.8	1.49e+00	0	39	104	0	79	21619
2026-01-22 07:18:29.48	98.86	3.00	-54.4	-69.4	3.8	1.49e+00	0	39	104	0	79	21439
2026-01-22 07:18:30.48	98.81	3.06	-54.3	-69.3	3.8	1.49e+00	0	39	104	0	79	21205
2026-01-22 07:18:31.49	98.76	3.13	-54.3	-69.3	3.8	1.49e+00	0	39	104	0	79	21083
2026-01-22 07:18:32.50	98.70	3.19	-54.2	-69.2	3.8	1.49e+00	0	39	104	0	79	20916
2026-01-22 07:18:33.51	98.65	3.25	-54.2	-69.2	3.8	1.49e+00	0	39	104	0	79	20810
2026-01-22 07:18:34.52	98.60	3.32	-54.1	-69.1	3.8	1.49e+00	0	39	104	0	79	20645
2026-01-22 07:18:35.52	98.55	3.38	-53.9	-69.0	3.8	1.49e+00	0	39	104	0	79	20321
2026-01-22 07:18:36.53	98.50	3.44	-53.8	-68.8	3.8	1.49e+00	0	39	104	0	79	20061
2026-01-22 07:18:37.54	98.44	3.50	-53.7	-68.7	3.8	1.49e+00	0	39	104	0	79	19780
2026-01-22 07:18:38.55	98.39	3.57	-53.5	-68.5	3.8	1.49e+00	0	39	104	0	78	20417
2026-01-22 07:18:39.56	98.34	3.63	-53.4	-68.4	3.8	1.49e+00	0	39	104	0	78	20179
2026-01-22 07:18:40.56	98.28	3.70	-53.3	-68.3	3.8	1.49e+00	0	39	104	0	78	19907
2026-01-22 07:18:41.57	98.23	3.76	-53.2	-68.2	3.8	1.49e+00	0	39	104	0	78	19798
2026-01-22 07:18:42.58	98.17	3.82	-53.1	-68.1	3.8	1.49e+00	0	40	104	0	78	19559
2026-01-22 07:18:43.58	98.12	3.89	-53.1	-68.1	3.8	1.49e+00	0	39	104	0	78	19391
2026-01-22 07:18:44.59	98.07	3.95	-53.0	-68.0	3.8	1.49e+00	0	40	104	0	78	19187
2026-01-22 07:18:45.60	98.01	4.02	-52.8	-67.8	3.8	1.49e+00	0	40	104	0	77	19974
2026-01-22 07:18:46.61	97.95	4.08	-52.7	-67.6	3.8	1.49e+00	0	39	104	0	77	19572
2026-01-22 07:18:47.62	97.90	4.15	-52.5	-67.1	3.8	1.49e+00	0	40	104	0	77	18327
2026-01-22 07:18:48.63	97.84	4.21	-52.4	-64.6	4.0	1.48e+00	0	39	104	0	76	14573
2026-01-22 07:18:49.63	97.79	4.28	-52.2	-63.0	4.5	1.39e+00	75	40	0	0	76	12167
2026-01-22 07:18:50.64	97.73	4.34	-52.0	-60.7	5.8	6.35e-01	0	40	0	2097152	75	9936
2026-01-22 07:18:51.65	97.67	4.41	-51.5	-58.4	7.6	1.81e-01	0	40	0	3145728	75	7618
2026-01-22 07:18:52.66	97.62	4.47	-51.4	-58.0	8.1	6.63e-02	0	40	0	5242880	74	7715
2026-01-22 07:18:53.67	97.56	4.54	-50.9	-56.3	9.9	2.60e-02	0	40	0	7340032	73	6687
2026-01-22 07:18:54.67	97.50	4.60	-50.6	-55.2	10.9	5.18e-03	0	40	0	9437184	73	5906
2026-01-22 07:18:55.68	97.45	4.67	-50.1	-54.1	12.3	1.99e-04	0	40	0	11534336	71	5827
2026-01-22 07:18:56.69	97.39	4.73	-49.5	-52.6	13.6	1.25e-04	0	40	0	12582912	70	5183
2026-01-22 07:18:57.70	97.33	4.80	-49.6	-53.0	13.4	9.90e-06	0	40	0	14680064	70	5448
2026-01-22 07:18:58.70	97.27	4.87	-49.5	-52.8	13.6	2.28e-05	0	40	0	16777216	70	5292
2026-01-22 07:18:59.71	97.21	4.93	-49.9	-53.7	12.7	8.30e-06	0	40	0	18874368	70	5863
2026-01-22 07:19:00.72	97.15	5.00	-49.8	-53.5	12.9	1.34e-04	0	40	0	20971520	70	5742
2026-01-22 07:19:01.73	97.09	5.07	-50.0	-53.9	12.5	4.50e-05	0	40	0	22020096	70	6032
2026-01-22 07:19:02.74	97.04	5.13	-50.2	-54.2	12.3	2.62e-04	0	40	0	24117248	71	5899
2026-01-22 07:19:03.75	96.98	5.20	-51.0	-56.6	9.9	2.40e-04	0	40	0	26214400	72	7339
2026-01-22 07:19:04.75	96.92	5.27	-48.3	-50.7	15.8	1.78e-02	0	40	0	28311552	68	4705
2026-01-22 07:19:05.76	96.85	5.33	-52.1	-61.3	6.0	3.00e-06	0	40	0	30408704	74	11210
2026-01-22 07:19:06.77	96.79	5.40	-48.5	-51.0	15.1	1.25e+00	0	40	0	30408704	69	4598
2026-01-22 07:19:07.78	96.73	5.47	-48.2	-50.6	15.9	0.00e+00	0	40	0	32505856	68	4633
2026-01-22 07:19:08.79	96.67	5.54	-48.4	-50.9	15.7	0.00e+00	0	40	0	33554432	68	4760
2026-01-22 07:19:09.80	96.61	5.60	-48.1	-50.3	16.2	0.00e+00	0	40	0	35651584	68	4487
2026-01-22 07:19:10.81	96.55	5.67	-48.2	-50.6	15.9	0.00e+00	0	40	0	37748736	68	4602
2026-01-22 07:19:11.82	96.49	5.74	-48.1	-50.4	16.1	0.00e+00	0	40	0	39845888	68	4529
2026-01-22 07:19:12.83	96.42	5.81	-47.9	-50.1	16.3	0.00e+00	0	40	0	40894464	67	4623
2026-01-22 07:19:13.84	96.36	5.88	-48.5	-51.0	15.4	0.00e+00	0	40	0	42991616	67	5153
2026-01-22 07:19:14.84	96.30	5.94	-47.6	-49.7	16.7	0.00e+00	0	40	0	45088768	67	4421
2026-01-22 07:19:15.85	96.23	6.01	-48.0	-50.3	16.1	0.00e+00	0	40	0	47185920	67	4748
2026-01-22 07:19:16.86	96.17	6.08	-48.3	-50.8	15.7	0.00e+00	0	40	0	49283072	67	4999
2026-01-22 07:19:17.87	96.11	6.15	-47.9	-50.2	16.3	0.00e+00	0	40	0	51380224	67	4675
2026-01-22 07:19:18.88	96.04	6.22	-47.9	-50.1	16.4	0.00e+00	0	40	0	52428800	67	4627
2026-01-22 07:19:19.89	95.98	6.29	-47.9	-50.2	16.3	0.00e+00	0	40	0	54525952	67	4683
2026-01-22 07:19:20.89	95.91	6.36	-47.5	-49.6	16.8	0.00e+00	0	40	0	56623104	66	4643
2026-01-22 07:19:21.90	95.85	6.43	-47.6	-49.6	16.8	0.00e+00	0	40	0	58720256	66	4651
2026-01-22 07:19:22.91	95.78	6.50	-47.5	-49.5	16.9	0.00e+00	0	40	0	60817408	66	4598
2026-01-22 07:19:23.92	95.71	6.57	-47.5	-49.6	16.9	0.00e+00	0	40	0	61865984	66	4628
2026-01-22 07:19:24.92	95.65	6.64	-47.5	-49.6	16.8	0.00e+00	0	40	0	63963136	66	4634
2026-01-22 07:19:25.93	95.58	6.71	-47.6	-49.7	16.8	0.00e+00	0	40	0	66060288	66	4698
2026-01-22 07:19:26.94	95.51	6.78	-47.4	-49.4	17.1	0.00e+00	0	40	0	68157440	66	4536
2026-01-22 07:19:27.95	95.45	6.85	-47.4	-49.4	17.0	0.00e+00	0	40	0	69206016	66	4540
2026-01-22 07:19:28.96	95.38	6.92	-47.5	-49.6	17.0	0.00e+00	0	40	0	71303168	66	4605
2026-01-22 07:19:29.97	95.31	6.99	-47.3	-49.3	17.2	0.00e+00	0	40	0	73400320	66	4464
2026-01-22 07:19:30.98	95.24	7.06	-47.3	-49.2	17.4	0.00e+00	0	40	0	75497472	66	4404
2026-01-22 07:19:31.98	95.17	7.13	-47.4	-49.4	17.1	0.00e+00	0	40	0	77594624	66	4532
2026-01-22 07:19:32.99	95.10	7.20	-47.4	-49.4	17.1	0.00e+00	0	40	0	79691776	66	4543
2026-01-22 07:19:34.00	95.04	7.27	-47.0	-48.8	17.7	0.00e+00	0	40	0	80740352	65	4479
2026-01-22 07:19:35.01	94.97	7.34	-47.4	-49.4	17.1	0.00e+00	0	40	0	82837504	65	4798
2026-01-22 07:19:36.02	94.90	7.41	-47.2	-49.0	17.5	0.00e+00	0	40	0	84934656	65	4594
2026-01-22 07:19:37.02	94.83	7.49	-47.1	-49.0	17.5	0.00e+00	0	40	0	87031808	65	4566
2026-01-22 07:19:38.03	94.75	7.56	-46.9	-48.7	17.8	0.00e+00	0	40	0	89128960	65	4433
2026-01-22 07:19:39.04	94.68	7.63	-47.3	-49.2	17.4	0.00e+00	0	40	0	90177536	65	4677
2026-01-22 07:19:40.05	94.61	7.70	-47.1	-49.0	17.5	0.00e+00	0	40	0	92274688	65	4596
2026-01-22 07:19:41.06	94.54	7.78	-47.5	-49.5	17.0	0.00e+00	0	40	0	94371840	65	4869
2026-01-22 07:19:42.06	94.47	7.85	-47.4	-49.4	17.2	0.00e+00	0	40	0	96468992	65	4794
2026-01-22 07:19:43.07	94.39	7.92	-47.3	-49.2	17.3	0.00e+00	0	40	0	98566144	65	4694
2026-01-22 07:19:44.08	94.32	7.99	-47.4	-49.4	17.2	0.00e+00	0	40	0	99614720	65	4791
2026-01-22 07:19:45.09	94.25	8.07	-47.4	-49.4	17.2	0.00e+00	0	40	0	101711872	65	4796
2026-01-22 07:19:46.10	94.17	8.14	-47.0	-48.8	17.7	0.00e+00	0	40	0	103809024	65	4489
2026-01-22 07:19:47.10	94.10	8.21	-47.1	-49.0	17.6	0.00e+00	0	40	0	105906176	65	4546
2026-01-22 07:19:48.11	94.02	8.29	-47.4	-49.3	17.3	0.00e+00	0	40	0	108003328	65	4749
2026-01-22 07:19:49.12	93.95	8.36	-47.4	-49.5	17.0	0.00e+00	0	40	0	109051904	65	4844
2026-01-22 07:19:50.13	93.87	8.43	-47.2	-49.3	17.2	0.00e+00	0	40	0	111149056	65	4750
2026-01-22 07:19:51.14	93.80	8.51	-47.5	-49.7	16.9	0.00e+00	0	40	0	113246208	65	4936
2026-01-22 07:19:52.14	93.72	8.58	-47.3	-49.4	17.2	0.00e+00	0	40	0	115343360	66	4500
2026-01-22 07:19:53.15	93.65	8.66	-47.2	-49.3	17.2	0.00e+00	0	40	0	117440512	66	4475
2026-01-22 07:19:54.16	93.57	8.73	-47.3	-49.4	17.2	0.00e+00	0	40	0	119537664	66	4508
2026-01-22 07:19:55.17	93.49	8.81	-47.3	-49.3	17.2	0.00e+00	0	40	0	120586240	66	4476
2026-01-22 07:19:56.18	93.41	8.88	-47.1	-49.1	17.5	0.00e+00	0	40	0	122683392	66	4378
2026-01-22 07:19:57.18	93.33	8.95	-47.0	-49.0	17.5	0.00e+00	0	40	0	124780544	65	4593
2026-01-22 07:19:58.19	93.26	9.03	-46.9	-48.8	17.7	0.00e+00	0	40	0	126877696	65	4450
2026-01-22 07:19:59.20	93.18	9.11	-46.8	-48.7	17.8	0.00e+00	0	40	0	127926272	65	4426
2026-01-22 07:20:00.21	93.10	9.18	-46.8	-48.6	17.9	0.00e+00	0	40	0	130023424	65	4380
2026-01-22 07:20:01.22	93.02	9.26	-47.0	-48.9	17.6	0.00e+00	0	40	0	132120576	65	4524
2026-01-22 07:20:02.22	92.94	9.33	-46.8	-48.7	17.9	0.00e+00	0	40	0	134217728	65	4422
2026-01-22 07:20:03.23	92.86	9.41	-46.9	-48.9	17.7	0.00e+00	0	40	0	136314880	65	4506
2026-01-22 07:20:04.24	92.77	9.49	-47.0	-49.0	17.5	0.00e+00	0	40	0	137363456	65	4591
2026-01-22 07:20:05.25	92.69	9.56	-47.2	-49.2	17.3	0.00e+00	0	40	0	139460608	65	4696
2026-01-22 07:20:06.26	92.61	9.64	-47.2	-49.2	17.4	0.00e+00	0	40	0	141557760	65	4694
2026-01-22 07:20:07.26	92.53	9.71	-47.1	-49.2	17.4	0.00e+00	0	40	0	143654912	65	4661
2026-01-22 07:20:08.27	92.44	9.79	-47.0	-48.9	17.7	0.00e+00	0	40	0	145752064	65	4528
2026-01-22 07:20:09.28	92.36	9.87	-47.2	-49.2	17.4	0.00e+00	0	40	0	147849216	65	4701
2026-01-22 07:20:10.29	92.28	9.95	-47.2	-49.3	17.4	0.00e+00	0	40	0	148897792	65	4721
2026-01-22 07:20:11.30	92.19	10.02	-47.1	-49.0	17.4	0.00e+00	0	40	0	150994944	65	4591
2026-01-22 07:20:12.30	92.11	10.10	-46.8	-48.6	18.0	0.00e+00	0	40	0	153092096	65	4376
2026-01-22 07:20:13.31	92.02	10.18	-46.8	-48.7	17.9	0.00e+00	0	40	0	155189248	65	4413
2026-01-22 07:20:14.32	91.94	10.26	-46.8	-48.6	18.0	0.00e+00	0	40	0	156237824	65	4384
2026-01-22 07:20:15.33	91.85	10.34	-46.7	-48.5	18.1	0.00e+00	0	40	0	158334976	65	4320
2026-01-22 07:20:16.33	91.76	10.41	-46.8	-48.6	18.0	0.00e+00	0	40	0	160432128	65	4370
2026-01-22 07:20:17.34	91.68	10.49	-46.9	-48.8	17.8	0.00e+00	0	40	0	162529280	65	4485
2026-01-22 07:20:18.35	91.59	10.57	-47.0	-49.0	17.6	0.00e+00	0	40	0	164626432	65	4575
2026-01-22 07:20:19.36	91.50	10.65	-46.7	-48.5	18.1	0.00e+00	0	40	0	166723584	65	4314
2026-01-22 07:20:20.37	91.41	10.73	-46.7	-48.6	18.0	0.00e+00	0	40	0	167772160	65	4354
2026-01-22 07:20:21.38	91.32	10.81	-46.6	-48.3	18.3	0.00e+00	0	40	0	169869312	65	4242
2026-01-22 07:20:22.38	91.23	10.89	-46.4	-48.2	18.4	0.00e+00	0	40	0	171966464	64	4411
2026-01-22 07:20:23.39	91.14	10.97	-46.3	-48.0	18.6	0.00e+00	0	40	0	174063616	64	4331
2026-01-22 07:20:24.40	91.05	11.05	-46.4	-48.1	18.4	0.00e+00	0	40	0	176160768	64	4387
2026-01-22 07:20:25.41	90.96	11.13	-46.3	-48.0	18.6	0.00e+00	0	40	0	177209344	64	4322
2026-01-22 07:20:26.42	90.87	11.21	-46.3	-48.0	18.6	0.00e+00	0	40	0	179306496	64	4328
2026-01-22 07:20:27.42	90.77	11.29	-46.1	-47.7	19.0	0.00e+00	0	40	0	181403648	63	4434
2026-01-22 07:20:28.43	90.68	11.37	-46.0	-47.6	19.0	0.00e+00	0	40	0	183500800	63	4363
2026-01-22 07:20:29.44	90.59	11.45	-46.2	-47.8	18.9	0.00e+00	0	40	0	184549376	63	4480
2026-01-22 07:20:30.45	90.49	11.53	-46.2	-47.9	18.8	0.00e+00	0	40	0	186646528	63	4523
2026-01-22 07:20:31.46	90.40	11.61	-46.2	-47.9	18.9	0.00e+00	0	40	0	188743680	63	4518
2026-01-22 07:20:32.46	90.30	11.69	-46.2	-47.8	18.9	0.00e+00	0	40	0	190840832	63	4476
2026-01-22 07:20:33.47	90.21	11.78	-46.3	-48.0	18.7	0.00e+00	0	40	0	192937984	63	4573
2026-01-22 07:20:34.48	90.11	11.86	-46.2	-47.9	18.8	0.00e+00	0	40	0	195035136	63	4501
2026-01-22 07:20:35.49	90.02	11.94	-46.2	-47.9	18.9	0.00e+00	0	40	0	196083712	63	4508
2026-01-22 07:20:36.50	89.92	12.02	-46.1	-47.7	19.0	0.00e+00	0	40	0	198180864	63	4413
2026-01-22 07:20:37.51	89.82	12.10	-46.0	-47.6	19.1	0.00e+00	0	40	0	200278016	63	4362
2026-01-22 07:20:38.52	89.72	12.19	-46.2	-47.8	19.0	0.00e+00	0	40	0	202375168	63	4450
2026-01-22 07:20:39.52	89.62	12.27	-46.1	-47.7	19.1	0.00e+00	0	40	0	204472320	63	4427
2026-01-22 07:20:40.53	89.52	12.35	-46.0	-47.6	19.2	0.00e+00	0	40	0	205520896	63	4347
2026-01-22 07:20:41.54	89.42	12.44	-46.2	-47.9	18.9	0.00e+00	0	40	0	207618048	63	4510
2026-01-22 07:20:42.55	89.32	12.52	-46.2	-47.8	19.0	0.00e+00	0	40	0	209715200	63	4467
2026-01-22 07:20:43.56	89.22	12.60	-46.1	-47.7	19.1	0.00e+00	0	40	0	211812352	63	4417
2026-01-22 07:20:44.56	89.12	12.69	-46.1	-47.7	19.1	0.00e+00	0	40	0	213909504	63	4420
2026-01-22 07:20:45.57	89.02	12.77	-46.2	-47.8	19.1	0.00e+00	0	40	0	214958080	63	4443
2026-01-22 07:20:46.58	88.91	12.85	-46.1	-47.7	19.1	0.00e+00	0	40	0	217055232	63	4412
2026-01-22 07:20:47.59	88.81	12.94	-46.1	-47.7	19.1	0.00e+00	0	40	0	219152384	63	4420
2026-01-22 07:20:48.60	88.71	13.02	-46.1	-47.6	19.2	0.00e+00	0	40	0	221249536	63	4371
2026-01-22 07:20:49.61	88.60	13.11	-46.1	-47.6	19.2	0.00e+00	0	40	0	223346688	63	4388
2026-01-22 07:20:50.61	88.50	13.19	-46.1	-47.6	19.2	0.00e+00	0	40	0	224395264	63	4366
2026-01-22 07:20:51.62	88.39	13.28	-46.1	-47.6	19.2	0.00e+00	0	40	0	226492416	63	4374
2026-01-22 07:20:52.63	88.28	13.36	-46.0	-47.5	19.3	0.00e+00	0	41	0	228589568	63	4339
2026-01-22 07:20:53.64	88.17	13.45	-46.2	-47.8	19.1	0.00e+00	0	40	0	230686720	63	4447
2026-01-22 07:20:54.64	88.07	13.53	-46.1	-47.6	19.2	0.00e+00	0	40	0	232783872	63	4372
2026-01-22 07:20:55.65	87.96	13.62	-45.9	-47.4	19.4	0.00e+00	0	40	0	233832448	63	4250
2026-01-22 07:20:56.66	87.85	13.71	-45.9	-47.4	19.5	0.00e+00	0	40	0	235929600	63	4248
2026-01-22 07:20:57.67	87.74	13.79	-46.1	-47.6	19.2	0.00e+00	0	40	0	238026752	63	4374
2026-01-22 07:20:58.68	87.63	13.88	-46.2	-47.7	19.1	0.00e+00	0	40	0	240123904	63	4431
2026-01-22 07:20:59.68	87.52	13.97	-46.3	-47.9	19.0	0.00e+00	0	40	0	242221056	63	4508
2026-01-22 07:21:00.69	87.40	14.05	-46.4	-48.0	18.9	0.00e+00	0	40	0	243269632	63	4568
2026-01-22 07:21:01.70	87.29	14.14	-46.2	-47.7	19.1	0.00e+00	0	40	0	245366784	63	4441
2026-01-22 07:21:02.71	87.18	14.23	-46.2	-47.7	19.1	0.00e+00	0	40	0	247463936	63	4439
2026-01-22 07:21:03.71	87.07	14.31	-46.1	-47.6	19.2	0.00e+00	0	40	0	249561088	63	4378
2026-01-22 07:21:04.72	86.95	14.40	-46.0	-47.6	19.3	0.00e+00	0	40	0	251658240	63	4351
2026-01-22 07:21:05.73	86.83	14.49	-46.2	-47.8	19.1	0.00e+00	0	40	0	252706816	63	4480
2026-01-22 07:21:06.74	86.72	14.58	-46.3	-47.9	19.0	0.00e+00	0	41	0	254803968	63	4517
2026-01-22 07:21:07.75	86.60	14.67	-46.1	-47.7	19.1	0.00e+00	0	40	0	256901120	63	4429
2026-01-22 07:21:08.75	86.48	14.75	-46.2	-47.8	19.0	0.00e+00	0	40	0	258998272	63	4450
2026-01-22 07:21:09.76	86.37	14.84	-46.2	-47.8	19.0	0.00e+00	0	40	0	261095424	63	4486
2026-01-22 07:21:10.77	86.25	14.93	-46.3	-48.0	18.9	0.00e+00	0	40	0	262144000	63	4573
2026-01-22 07:21:11.78	86.13	15.02	-45.8	-47.2	19.6	0.00e+00	0	40	0	264241152	63	4189
2026-01-22 07:21:12.78	86.01	15.11	-46.1	-47.6	19.2	0.00e+00	0	40	0	266338304	63	4389
2026-01-22 07:21:13.79	85.89	15.20	-46.0	-47.5	19.4	0.00e+00	0	40	0	268435456	63	4340
2026-01-22 07:21:14.80	85.76	15.29	-45.9	-47.4	19.5	0.00e+00	0	40	0	270532608	63	4273
2026-01-22 07:21:15.81	85.64	15.38	-46.3	-47.9	19.0	0.00e+00	0	40	0	271581184	63	4517
2026-01-22 07:21:16.82	85.52	15.47	-46.4	-48.1	18.8	0.00e+00	0	40	0	273678336	63	4614
2026-01-22 07:21:17.82	85.39	15.56	-46.5	-48.1	18.8	0.00e+00	0	41	0	275775488	63	4636
2026-01-22 07:21:18.83	85.27	15.65	-46.5	-48.2	18.8	0.00e+00	0	40	0	277872640	63	4676
2026-01-22 07:21:19.84	85.14	15.74	-45.7	-47.2	19.7	0.00e+00	0	40	0	279969792	63	4157
2026-01-22 07:21:20.85	85.02	15.83	-45.8	-47.2	19.6	0.00e+00	0	40	0	281018368	63	4171
2026-01-22 07:21:21.86	84.89	15.92	-45.6	-47.0	19.9	0.00e+00	0	40	0	283115520	63	4089
2026-01-22 07:21:22.86	84.76	16.01	-45.4	-46.7	20.1	0.00e+00	0	40	0	285212672	62	4193
2026-01-22 07:21:23.87	84.63	16.11	-45.5	-46.9	20.0	0.00e+00	0	40	0	287309824	62	4255
2026-01-22 07:21:24.88	84.50	16.20	-45.5	-47.0	19.9	0.00e+00	0	40	0	289406976	62	4293
2026-01-22 07:21:25.89	84.37	16.29	-45.7	-47.2	19.8	0.00e+00	0	41	0	290455552	62	4395
2026-01-22 07:21:26.90	84.24	16.38	-46.0	-47.5	19.5	0.00e+00	0	41	0	292552704	62	4561
2026-01-22 07:21:27.91	84.11	16.47	-46.1	-47.6	19.4	0.00e+00	0	41	0	294649856	62	4619
2026-01-22 07:21:28.91	83.97	16.57	-46.2	-47.7	19.3	0.00e+00	0	41	0	296747008	62	4681
2026-01-22 07:21:29.92	83.84	16.66	-46.2	-47.8	19.2	0.00e+00	0	41	0	298844160	63	4473
2026-01-22 07:21:30.93	83.71	16.75	-46.2	-47.8	19.2	0.00e+00	0	40	0	299892736	63	4444
2026-01-22 07:21:31.94	83.57	16.84	-46.2	-47.8	19.2	0.00e+00	0	40	0	301989888	63	4479
2026-01-22 07:21:32.94	83.43	16.94	-46.5	-48.1	18.9	0.00e+00	0	40	0	304087040	63	4629
2026-01-22 07:21:33.95	83.30	17.03	-46.8	-48.7	18.3	0.00e+00	0	40	0	306184192	64	4655
2026-01-22 07:21:34.96	83.16	17.12	-47.1	-48.9	18.1	0.00e+00	0	40	0	308281344	64	4809
2026-01-22 07:21:35.97	83.02	17.22	-47.1	-49.0	18.0	0.00e+00	0	40	0	310378496	64	4853
2026-01-22 07:21:36.98	82.88	17.31	-47.0	-48.8	18.2	0.00e+00	0	41	0	311427072	64	4744
2026-01-22 07:21:37.98	82.74	17.40	-46.9	-48.8	18.2	0.00e+00	0	40	0	313524224	64	4708
2026-01-22 07:21:38.99	82.60	17.50	-46.7	-48.4	18.5	0.00e+00	0	40	0	315621376	64	4529
2026-01-22 07:21:40.00	82.45	17.59	-46.7	-48.5	18.5	0.00e+00	0	41	0	317718528	64	4565
2026-01-22 07:21:41.01	82.31	17.69	-46.4	-48.0	18.9	0.00e+00	0	40	0	318767104	64	4319
2026-01-22 07:21:42.01	82.17	17.78	-46.5	-48.2	18.8	0.00e+00	0	41	0	320864256	64	4401
2026-01-22 07:21:43.02	82.02	17.88	-46.6	-48.3	18.6	0.00e+00	0	40	0	322961408	64	4478
2026-01-22 07:21:44.03	81.87	17.97	-46.5	-48.2	18.8	0.00e+00	0	40	0	325058560	64	4410
2026-01-22 07:21:45.04	81.73	18.07	-46.5	-48.1	18.9	0.00e+00	0	40	0	327155712	64	4380
2026-01-22 07:21:46.05	81.58	18.16	-46.2	-47.8	19.2	0.00e+00	0	40	0	328204288	64	4214
2026-01-22 07:21:47.05	81.43	18.26	-46.0	-47.5	19.5	0.00e+00	0	41	0	330301440	63	4325
2026-01-22 07:21:48.06	81.28	18.35	-46.0	-47.5	19.5	0.00e+00	0	40	0	332398592	63	4328
2026-01-22 07:21:49.07	81.13	18.45	-45.7	-47.2	19.8	0.00e+00	0	40	0	334495744	63	4147
2026-01-22 07:21:50.08	80.98	18.55	-46.1	-47.7	19.4	0.00e+00	0	40	0	336592896	63	4393
2026-01-22 07:21:51.08	80.83	18.64	-46.0	-47.6	19.5	0.00e+00	0	40	0	338690048	63	4361
2026-01-22 07:21:52.09	80.67	18.74	-46.3	-47.9	19.1	0.00e+00	0	40	0	339738624	63	4530
2026-01-22 07:21:53.10	80.52	18.84	-46.3	-47.9	19.2	0.00e+00	0	40	0	341835776	63	4508
2026-01-22 07:21:54.11	80.36	18.93	-46.0	-47.6	19.5	0.00e+00	0	41	0	343932928	63	4359
2026-01-22 07:21:55.12	80.20	19.03	-46.0	-47.5	19.6	0.00e+00	0	40	0	346030080	63	4308
2026-01-22 07:21:56.12	80.05	19.13	-45.9	-47.4	19.6	0.00e+00	0	40	0	347078656	63	4286
2026-01-22 07:21:57.13	79.89	19.22	-45.9	-47.4	19.6	0.00e+00	0	40	0	349175808	63	4269
2026-01-22 07:21:58.14	79.73	19.32	-45.9	-47.4	19.6	0.00e+00	0	40	0	351272960	63	4279
2026-01-22 07:21:59.15	79.56	19.42	-45.9	-47.3	19.7	0.00e+00	0	40	0	353370112	63	4234
2026-01-22 07:22:00.16	79.40	19.52	-46.0	-47.5	19.6	0.00e+00	0	41	0	355467264	63	4309
2026-01-22 07:22:01.16	79.24	19.61	-45.8	-47.3	19.8	0.00e+00	0	40	0	357564416	63	4196
2026-01-22 07:22:02.17	79.07	19.71	-45.7	-47.2	20.0	0.00e+00	0	41	0	358612992	63	4148
2026-01-22 07:22:03.18	78.91	19.81	-45.8	-47.2	19.9	0.00e+00	0	40	0	360710144	63	4161
2026-01-22 07:22:04.18	78.74	19.91	-46.1	-47.6	19.5	0.00e+00	0	41	0	362807296	63	4373
2026-01-22 07:22:05.19	78.58	20.01	-46.0	-47.5	19.6	0.00e+00	0	41	0	364904448	63	4299
2026-01-22 07:22:06.20	78.41	20.10	-46.3	-47.8	19.3	0.00e+00	0	40	0	367001600	63	4483
2026-01-22 07:22:07.21	78.24	20.20	-46.3	-47.9	19.3	0.00e+00	0	40	0	368050176	63	4513
2026-01-22 07:22:08.22	78.07	20.30	-46.4	-48.0	19.2	0.00e+00	0	41	0	370147328	63	4587
2026-01-22 07:22:09.22	77.90	20.40	-46.3	-47.8	19.3	0.00e+00	0	40	0	372244480	63	4471
2026-01-22 07:22:10.23	77.72	20.50	-46.4	-48.0	19.2	0.00e+00	0	40	0	374341632	63	4579
2026-01-22 07:22:11.24	77.55	20.60	-46.6	-48.2	19.0	0.00e+00	0	40	0	375390208	63	4689
2026-01-22 07:22:12.25	77.37	20.70	-46.6	-48.3	18.8	0.00e+00	0	41	0	377487360	64	4469
2026-01-22 07:22:13.26	77.20	20.80	-46.7	-48.4	18.7	0.00e+00	0	41	0	379584512	64	4544
2026-01-22 07:22:14.27	77.02	20.90	-46.8	-48.5	18.6	0.00e+00	0	40	0	381681664	64	4562
2026-01-22 07:22:15.28	76.84	21.00	-46.5	-48.1	19.0	0.00e+00	0	40	0	383778816	64	4355
2026-01-22 07:22:16.28	76.66	21.09	-46.4	-48.0	19.0	0.00e+00	0	40	0	385875968	64	4339
2026-01-22 07:22:17.29	76.48	21.19	-46.1	-47.6	19.4	0.00e+00	0	40	0	386924544	64	4116
2026-01-22 07:22:18.30	76.30	21.29	-46.1	-47.6	19.6	0.00e+00	0	41	0	389021696	63	4360
2026-01-22 07:22:19.31	76.11	21.39	-45.7	-47.1	19.9	0.00e+00	0	40	0	391118848	63	4127
2026-01-22 07:22:20.32	75.93	21.49	-45.5	-46.9	20.1	0.00e+00	0	40	0	393216000	63	4043
2026-01-22 07:22:21.32	75.74	21.59	-45.4	-46.8	20.2	0.00e+00	0	40	0	395313152	62	4220
2026-01-22 07:22:22.33	75.55	21.69	-45.6	-47.0	20.1	0.00e+00	0	40	0	396361728	62	4297
2026-01-22 07:22:23.34	75.37	21.79	-45.7	-47.2	19.9	0.00e+00	0	40	0	398458880	62	4397
2026-01-22 07:22:24.34	75.18	21.89	-45.9	-47.4	19.7	0.00e+00	0	41	0	400556032	62	4506
2026-01-22 07:22:25.35	74.99	21.99	-45.9	-47.4	19.7	0.00e+00	0	40	0	402653184	62	4524
2026-01-22 07:22:26.36	74.79	22.09	-46.1	-47.6	19.6	0.00e+00	0	40	0	404750336	62	4612
2026-01-22 07:22:27.37	74.60	22.19	-45.9	-47.4	19.8	0.00e+00	0	40	0	405798912	62	4496
2026-01-22 07:22:28.38	74.40	22.29	-45.7	-47.1	20.1	0.00e+00	0	40	0	407896064	62	4347
2026-01-22 07:22:29.39	74.21	22.39	-45.8	-47.2	19.9	0.00e+00	0	40	0	409993216	62	4432
2026-01-22 07:22:30.39	74.01	22.49	-45.8	-47.2	20.0	0.00e+00	0	40	0	412090368	62	4415
2026-01-22 07:22:31.40	73.81	22.59	-45.8	-47.2	19.9	0.00e+00	0	41	0	414187520	62	4435
2026-01-22 07:22:32.41	73.61	22.69	-45.9	-47.3	19.9	0.00e+00	0	41	0	415236096	62	4462
2026-01-22 07:22:33.42	73.41	22.80	-45.7	-47.1	20.1	0.00e+00	0	40	0	417333248	62	4369
2026-01-22 07:22:34.43	73.21	22.90	-45.9	-47.3	19.9	0.00e+00	0	40	0	419430400	62	4476
2026-01-22 07:22:35.44	73.01	23.00	-45.8	-47.2	19.9	0.00e+00	0	41	0	421527552	62	4426
2026-01-22 07:22:36.44	72.80	23.10	-45.8	-47.2	20.0	0.00e+00	0	40	0	423624704	62	4431
2026-01-22 07:22:37.45	72.59	23.20	-45.8	-47.1	20.0	0.00e+00	0	40	0	425721856	62	4382
2026-01-22 07:22:38.46	72.39	23.30	-45.7	-47.0	20.1	0.00e+00	0	41	0	426770432	62	4336
2026-01-22 07:22:39.47	72.18	23.40	-45.8	-47.2	20.0	0.00e+00	0	40	0	428867584	62	4426
2026-01-22 07:22:40.48	71.97	23.50	-45.7	-47.0	20.1	0.00e+00	0	41	0	430964736	62	4320
2026-01-22 07:22:41.48	71.76	23.60	-46.0	-47.5	19.7	0.00e+00	0	40	0	433061888	62	4546
2026-01-22 07:22:42.49	71.54	23.70	-46.4	-47.9	19.3	0.00e+00	0	41	0	434110464	63	4545
2026-01-22 07:22:43.50	71.33	23.80	-46.1	-47.6	19.7	0.00e+00	0	41	0	436207616	63	4349
2026-01-22 07:22:44.51	71.11	23.90	-46.1	-47.6	19.7	0.00e+00	0	40	0	438304768	63	4356
2026-01-22 07:22:45.52	70.89	24.00	-46.1	-47.6	19.6	0.00e+00	0	40	0	440401920	63	4381
2026-01-22 07:22:46.53	70.67	24.10	-46.3	-47.9	19.4	0.00e+00	0	40	0	442499072	63	4494
2026-01-22 07:22:47.54	70.45	24.20	-46.3	-47.9	19.4	0.00e+00	0	40	0	443547648	63	4519
2026-01-22 07:22:48.54	70.23	24.30	-46.1	-47.6	19.6	0.00e+00	0	40	0	445644800	63	4386
2026-01-22 07:22:49.55	70.01	24.40	-46.2	-47.7	19.6	0.00e+00	0	40	0	447741952	63	4421
2026-01-22 07:22:50.56	69.79	24.50	-46.4	-48.0	19.3	0.00e+00	0	40	0	449839104	63	4558
2026-01-22 07:22:51.57	69.56	24.60	-46.6	-48.2	19.2	0.00e+00	0	40	0	451936256	63	4671
2026-01-22 07:22:52.58	69.33	24.70	-46.5	-48.1	19.1	0.00e+00	0	41	0	454033408	64	4383
2026-01-22 07:22:53.58	69.10	24.80	-46.6	-48.2	19.0	0.00e+00	0	40	0	455081984	64	4433
2026-01-22 07:22:54.59	68.87	24.89	-46.3	-47.8	19.4	0.00e+00	0	40	0	457179136	64	4201
2026-01-22 07:22:55.60	68.64	24.99	-46.0	-47.4	19.7	0.00e+00	0	40	0	459276288	64	4045
2026-01-22 07:22:56.61	68.41	25.09	-46.0	-47.4	19.8	0.00e+00	0	40	0	461373440	63	4291
2026-01-22 07:22:57.62	68.17	25.19	-46.0	-47.4	19.9	0.00e+00	0	41	0	462422016	63	4283
2026-01-22 07:22:58.62	67.94	25.29	-46.3	-47.7	19.6	0.00e+00	0	41	0	464519168	63	4429
2026-01-22 07:22:59.63	67.70	25.39	-45.7	-47.1	20.2	0.00e+00	0	40	0	466616320	63	4121
2026-01-22 07:23:00.64	67.46	25.49	-45.5	-46.9	20.4	0.00e+00	0	41	0	468713472	63	4010
2026-01-22 07:23:01.65	67.22	25.58	-45.6	-46.9	20.4	0.00e+00	0	40	0	470810624	62	4263
2026-01-22 07:23:02.66	66.98	25.68	-45.3	-46.6	20.6	0.00e+00	0	40	0	472907776	62	4138
2026-01-22 07:23:03.66	66.74	25.78	-44.9	-46.1	21.0	0.00e+00	0	40	0	473956352	61	4138
2026-01-22 07:23:04.67	66.49	25.88	-44.6	-45.8	21.3	0.00e+00	0	40	0	476053504	61	3964
2026-01-22 07:23:05.68	66.24	25.97	-44.5	-45.7	21.4	0.00e+00	0	40	0	478150656	61	3926
2026-01-22 07:23:06.69	65.99	26.07	-44.6	-45.8	21.3	0.00e+00	0	40	0	480247808	60	4199
2026-01-22 07:23:07.70	65.74	26.17	-44.4	-45.6	21.4	0.00e+00	0	40	0	482344960	60	4130
2026-01-22 07:23:08.70	65.49	26.26	-44.6	-45.8	21.3	0.00e+00	0	41	0	483393536	60	4211
2026-01-22 07:23:09.71	65.24	26.36	-44.9	-46.2	21.0	0.00e+00	0	41	0	485490688	60	4404
2026-01-22 07:23:10.72	64.99	26.46	-45.1	-46.4	20.7	0.00e+00	0	40	0	487587840	61	4277
2026-01-22 07:23:11.73	64.73	26.55	-45.1	-46.4	20.7	0.00e+00	0	40	0	489684992	61	4269
2026-01-22 07:23:12.74	64.47	26.65	-45.3	-46.7	20.5	0.00e+00	0	41	0	490733568	61	4393
2026-01-22 07:23:13.74	64.22	26.74	-45.6	-47.0	20.2	0.00e+00	0	41	0	492830720	61	4563
2026-01-22 07:23:14.75	63.95	26.84	-45.7	-47.2	19.6	0.00e+00	0	41	0	494927872	62	4395
2026-01-22 07:23:15.76	63.69	26.93	-46.0	-47.6	19.7	0.00e+00	0	40	0	497025024	62	4601
2026-01-22 07:23:16.77	63.43	27.02	-46.3	-47.9	19.5	0.00e+00	0	40	0	499122176	63	4495
2026-01-22 07:23:17.78	63.16	27.12	-46.3	-47.8	19.4	0.00e+00	0	40	0	501219328	63	4485
2026-01-22 07:23:18.78	62.90	27.21	-46.3	-47.9	19.4	0.00e+00	0	40	0	502267904	63	4521
2026-01-22 07:23:19.79	62.63	27.30	-46.4	-48.0	19.4	0.00e+00	0	40	0	504365056	63	4558
2026-01-22 07:23:20.80	62.36	27.40	-46.4	-48.0	19.3	0.00e+00	0	40	0	506462208	63	4555
2026-01-22 07:23:21.81	62.09	27.49	-46.2	-47.7	19.6	0.00e+00	0	40	0	508559360	63	4414
2026-01-22 07:23:22.82	61.81	27.58	-46.1	-47.5	19.8	0.00e+00	0	41	0	510656512	63	4315
2026-01-22 07:23:23.82	61.54	27.67	-45.8	-47.1	20.1	0.00e+00	0	40	0	511705088	63	4126
2026-01-22 07:23:24.83	61.26	27.76	-45.9	-47.3	20.0	0.00e+00	0	41	0	513802240	63	4199
2026-01-22 07:23:25.84	60.98	27.85	-45.9	-47.3	19.9	0.00e+00	0	41	0	515899392	63	4233
2026-01-22 07:23:26.85	60.70	27.94	-46.0	-47.4	19.9	0.00e+00	0	40	0	517996544	63	4272
2026-01-22 07:23:27.86	60.42	28.03	-46.2	-47.6	19.6	0.00e+00	0	41	0	520093696	63	4383
2026-01-22 07:23:28.86	60.14	28.12	-46.2	-47.6	19.6	0.00e+00	0	41	0	521142272	63	4383
2026-01-22 07:23:29.87	59.86	28.21	-46.2	-47.7	19.5	0.00e+00	0	41	0	523239424	63	4419
2026-01-22 07:23:30.88	59.57	28.30	-46.1	-47.5	19.7	0.00e+00	0	40	0	525336576	63	4315
2026-01-22 07:23:31.89	59.28	28.38	-46.2	-47.7	19.6	0.00e+00	0	41	0	527433728	63	4439
2026-01-22 07:23:32.90	58.99	28.47	-46.2	-47.7	19.5	0.00e+00	0	40	0	529530880	63	4440
2026-01-22 07:23:33.91	58.70	28.56	-46.7	-48.4	18.9	0.00e+00	0	40	0	530579456	64	4510
2026-01-22 07:23:34.91	58.41	28.64	-47.1	-48.9	18.4	0.00e+00	0	40	0	532676608	64	4770
2026-01-22 07:23:35.92	58.12	28.73	-47.5	-49.5	17.9	0.00e+00	0	40	0	534773760	65	4844
2026-01-22 07:23:36.93	57.82	28.81	-47.6	-49.6	17.7	0.00e+00	0	41	0	536870912	66	4620
2026-01-22 07:23:37.94	57.53	28.89	-48.2	-50.4	16.9	0.00e+00	0	41	0	538968064	67	4811
2026-01-22 07:23:38.94	57.23	28.98	-48.7	-51.1	16.3	0.00e+00	0	40	0	540016640	67	5207
2026-01-22 07:23:39.95	56.93	29.06	-48.6	-51.0	16.4	0.00e+00	0	41	0	542113792	67	5131
2026-01-22 07:23:40.96	56.63	29.14	-49.1	-51.9	15.7	0.00e+00	0	41	0	544210944	68	5357
2026-01-22 07:23:41.96	56.33	29.22	-48.4	-50.6	16.9	0.00e+00	0	40	0	546308096	68	4641
2026-01-22 07:23:42.97	56.02	29.30	-48.0	-50.1	17.5	0.00e+00	0	41	0	548405248	68	4371
2026-01-22 07:23:43.98	55.72	29.38	-47.4	-49.3	18.1	0.00e+00	0	41	0	549453824	66	4475
2026-01-22 07:23:44.99	55.41	29.46	-47.1	-48.8	18.5	0.00e+00	0	40	0	551550976	66	4220
2026-01-22 07:23:46.00	55.10	29.54	-46.9	-48.5	18.8	0.00e+00	0	41	0	553648128	65	4331
2026-01-22 07:23:47.00	54.79	29.62	-46.5	-48.1	19.2	0.00e+00	0	40	0	555745280	64	4347
2026-01-22 07:23:48.01	54.48	29.70	-46.3	-47.8	19.5	0.00e+00	0	40	0	557842432	64	4208
2026-01-22 07:23:49.02	54.16	29.77	-46.7	-48.4	18.8	0.00e+00	0	40	0	558891008	64	4499
2026-01-22 07:23:50.03	53.85	29.85	-46.6	-48.3	18.9	0.00e+00	0	41	0	560988160	64	4461
2026-01-22 07:23:51.03	53.53	29.92	-46.7	-48.4	18.8	0.00e+00	0	41	0	563085312	64	4523
2026-01-22 07:23:52.04	53.22	30.00	-46.6	-48.3	18.9	0.00e+00	0	40	0	565182464	64	4476
2026-01-22 07:23:53.05	52.90	30.07	-46.3	-47.9	19.2	0.00e+00	0	41	0	567279616	64	4287
2026-01-22 07:23:54.06	52.57	30.14	-46.5	-48.1	19.1	0.00e+00	0	41	0	568328192	64	4379
2026-01-22 07:23:55.06	52.25	30.21	-46.3	-47.9	19.3	0.00e+00	0	40	0	570425344	64	4269
2026-01-22 07:23:56.07	51.93	30.28	-46.5	-48.1	19.1	0.00e+00	0	41	0	572522496	64	4371
2026-01-22 07:23:57.08	51.60	30.35	-46.5	-48.1	19.0	0.00e+00	0	40	0	574619648	64	4384
2026-01-22 07:23:58.09	51.28	30.42	-46.6	-48.2	18.9	0.00e+00	0	41	0	576716800	64	4426
2026-01-22 07:23:59.10	50.95	30.49	-46.6	-48.2	18.9	0.00e+00	0	40	0	577765376	64	4441
2026-01-22 07:24:00.10	50.62	30.56	-46.6	-48.3	18.9	0.00e+00	0	41	0	579862528	64	4445
2026-01-22 07:24:01.11	50.29	30.62	-46.3	-47.9	19.3	0.00e+00	0	40	0	581959680	64	4272
2026-01-22 07:24:02.12	49.96	30.69	-46.4	-48.0	19.2	0.00e+00	0	40	0	584056832	64	4300
2026-01-22 07:24:03.13	49.62	30.75	-46.6	-48.2	19.0	0.00e+00	0	41	0	586153984	64	4437
2026-01-22 07:24:04.14	49.29	30.82	-46.5	-48.2	19.1	0.00e+00	0	40	0	587202560	64	4424
2026-01-22 07:24:05.15	48.95	30.88	-46.2	-47.8	19.5	0.00e+00	0	40	0	589299712	64	4194
2026-01-22 07:24:06.15	48.62	30.94	-46.2	-47.8	19.4	0.00e+00	0	41	0	591396864	64	4203
2026-01-22 07:24:07.16	48.28	31.00	-46.6	-48.2	19.1	0.00e+00	0	40	0	593494016	64	4423
2026-01-22 07:24:08.17	47.94	31.06	-47.1	-49.0	18.3	0.00e+00	0	41	0	595591168	64	4833
2026-01-22 07:24:09.18	47.60	31.12	-47.7	-49.7	17.6	0.00e+00	0	41	0	596639744	65	4975
2026-01-22 07:24:10.18	47.26	31.18	-47.3	-49.3	18.1	0.00e+00	0	40	0	598736896	66	4462
2026-01-22 07:24:11.19	46.91	31.23	-46.7	-48.4	18.8	0.00e+00	0	41	0	600834048	65	4266
2026-01-22 07:24:12.20	46.57	31.29	-46.1	-47.7	19.5	0.00e+00	0	40	0	602931200	64	4152
2026-01-22 07:24:13.21	46.22	31.34	-46.1	-47.6	19.5	0.00e+00	0	41	0	605028352	64	4119
2026-01-22 07:24:14.22	45.87	31.40	-46.0	-47.5	19.8	0.00e+00	0	40	0	606076928	63	4311
2026-01-22 07:24:15.22	45.53	31.45	-45.9	-47.4	19.8	0.00e+00	0	41	0	608174080	63	4257
2026-01-22 07:24:16.23	45.18	31.50	-45.7	-47.1	20.1	0.00e+00	0	40	0	610271232	63	4139
2026-01-22 07:24:17.24	44.83	31.55	-45.9	-47.3	20.0	0.00e+00	0	40	0	612368384	63	4206
2026-01-22 07:24:18.25	44.47	31.60	-46.1	-47.6	19.7	0.00e+00	0	41	0	614465536	63	4348
2026-01-22 07:24:19.26	44.12	31.64	-46.1	-47.5	19.8	0.00e+00	0	40	0	616562688	63	4327
2026-01-22 07:24:20.27	43.77	31.69	-46.1	-47.6	19.8	0.00e+00	0	40	0	617611264	63	4361
2026-01-22 07:24:21.28	43.41	31.74	-46.1	-47.6	19.7	0.00e+00	0	41	0	619708416	63	4365
2026-01-22 07:24:22.29	43.06	31.78	-46.2	-47.7	19.6	0.00e+00	0	40	0	621805568	63	4419
2026-01-22 07:24:23.30	42.70	31.82	-46.6	-48.2	19.2	0.00e+00	0	40	0	623902720	63	4696
2026-01-22 07:24:24.30	42.34	31.86	-46.5	-48.1	19.2	0.00e+00	0	40	0	624951296	64	4360
2026-01-22 07:24:25.31	41.98	31.90	-46.2	-47.7	19.4	0.00e+00	0	40	0	627048448	64	4188
2026-01-22 07:24:26.32	41.62	31.94	-46.2	-47.7	19.6	0.00e+00	0	41	0	629145600	63	4422
2026-01-22 07:24:27.33	41.26	31.98	-45.6	-46.9	20.3	0.00e+00	0	41	0	631242752	63	4040
2026-01-22 07:24:28.34	40.90	32.02	-45.6	-47.0	20.3	0.00e+00	0	40	0	633339904	62	4318
2026-01-22 07:24:29.34	40.54	32.05	-45.9	-47.4	19.9	0.00e+00	0	41	0	634388480	62	4501
2026-01-22 07:24:30.35	40.18	32.09	-46.4	-48.0	19.4	0.00e+00	0	41	0	636485632	63	4560
2026-01-22 07:24:31.36	39.82	32.12	-47.1	-48.9	18.5	0.00e+00	0	41	0	638582784	64	4766
2026-01-22 07:24:32.37	39.45	32.15	-47.3	-49.2	18.1	0.00e+00	0	40	0	640679936	65	4661
2026-01-22 07:24:33.38	39.09	32.18	-46.9	-48.7	18.6	0.00e+00	0	40	0	642777088	65	4396
2026-01-22 07:24:34.38	38.72	32.21	-46.0	-47.4	19.7	0.00e+00	0	40	0	644874240	64	4046
2026-01-22 07:24:35.39	38.36	32.24	-45.9	-47.3	20.0	0.00e+00	0	41	0	645922816	63	4216
2026-01-22 07:24:36.40	37.99	32.27	-46.0	-47.4	19.9	0.00e+00	0	41	0	648019968	63	4274
2026-01-22 07:24:37.41	37.62	32.29	-46.6	-48.2	19.2	0.00e+00	0	41	0	650117120	63	4695
2026-01-22 07:24:38.42	37.25	32.32	-47.0	-48.8	18.6	0.00e+00	0	40	0	652214272	64	4708
2026-01-22 07:24:39.43	36.89	32.34	-47.0	-48.7	18.7	0.00e+00	0	41	0	653262848	64	4671
2026-01-22 07:24:40.44	36.52	32.36	-46.5	-48.0	19.4	0.00e+00	0	41	0	655360000	64	4321
2026-01-22 07:24:41.45	36.15	32.38	-46.1	-47.6	19.7	0.00e+00	0	40	0	657457152	64	4107
2026-01-22 07:24:42.45	35.78	32.40	-46.0	-47.3	20.0	0.00e+00	0	41	0	659554304	63	4238
2026-01-22 07:24:43.46	35.41	32.41	-45.8	-47.1	20.3	0.00e+00	0	40	0	661651456	63	4113
2026-01-22 07:24:44.47	35.04	32.43	-46.0	-47.4	19.9	0.00e+00	0	41	0	663748608	63	4275
2026-01-22 07:24:45.48	34.67	32.45	-46.2	-47.7	19.7	0.00e+00	0	41	0	664797184	63	4408
2026-01-22 07:24:46.49	34.30	32.46	-46.6	-48.2	19.2	0.00e+00	0	40	0	666894336	63	4688
2026-01-22 07:24:47.50	33.92	32.47	-46.9	-48.6	18.9	0.00e+00	0	41	0	668991488	64	4635
2026-01-22 07:24:48.51	33.55	32.48	-47.3	-49.2	18.2	0.00e+00	0	41	0	671088640	65	4681
2026-01-22 07:24:49.51	33.18	32.49	-47.9	-50.0	17.5	0.00e+00	0	41	0	673185792	66	4815
2026-01-22 07:24:50.52	32.81	32.50	-48.1	-50.3	17.2	0.00e+00	0	41	0	674234368	66	5005
2026-01-22 07:24:51.53	32.44	32.50	-48.2	-50.3	17.2	0.00e+00	0	41	0	676331520	67	4739
2026-01-22 07:24:52.54	32.06	32.51	-47.8	-49.8	17.6	0.00e+00	0	41	0	678428672	67	4482
2026-01-22 07:24:53.54	31.69	32.51	-47.7	-49.7	17.7	0.00e+00	0	40	0	680525824	67	4430
2026-01-22 07:24:54.55	31.32	32.51	-48.0	-50.1	17.4	0.00e+00	0	41	0	682622976	67	4618
2026-01-22 07:24:55.56	30.95	32.52	-47.8	-49.9	17.4	0.00e+00	0	41	0	683671552	67	4522
2026-01-22 07:24:56.57	30.58	32.51	-47.6	-49.5	17.9	0.00e+00	0	40	0	685768704	66	4581
2026-01-22 07:24:57.57	30.21	32.51	-46.8	-48.5	18.8	0.00e+00	0	41	0	687865856	65	4316
2026-01-22 07:24:58.58	29.83	32.51	-46.4	-47.9	19.3	0.00e+00	0	41	0	689963008	64	4283
2026-01-22 07:24:59.59	29.46	32.50	-46.1	-47.5	19.7	0.00e+00	0	41	0	692060160	64	4066
2026-01-22 07:25:00.60	29.09	32.50	-46.3	-47.7	19.6	0.00e+00	0	41	0	693108736	64	4181
2026-01-22 07:25:01.61	28.72	32.49	-46.1	-47.5	19.8	0.00e+00	0	41	0	695205888	64	4061
2026-01-22 07:25:02.62	28.34	32.48	-46.3	-47.7	19.6	0.00e+00	0	41	0	697303040	64	4190
2026-01-22 07:25:03.62	27.97	32.47	-46.4	-48.0	19.3	0.00e+00	0	41	0	699400192	64	4311
2026-01-22 07:25:04.63	27.60	32.46	-46.9	-48.6	18.8	0.00e+00	0	40	0	701497344	64	4644
2026-01-22 07:25:05.64	27.23	32.45	-47.4	-49.2	18.2	0.00e+00	0	40	0	702545920	65	4688
2026-01-22 07:25:06.65	26.86	32.43	-47.9	-49.9	17.6	0.00e+00	0	41	0	704643072	66	4783
2026-01-22 07:25:07.66	26.49	32.42	-47.5	-49.3	18.2	0.00e+00	0	40	0	706740224	66	4454
2026-01-22 07:25:08.67	26.12	32.40	-46.8	-48.5	18.9	0.00e+00	0	41	0	708837376	65	4310
2026-01-22 07:25:09.67	25.75	32.38	-46.8	-48.5	18.9	0.00e+00	0	41	0	710934528	65	4294
2026-01-22 07:25:10.68	25.38	32.36	-47.0	-48.7	18.7	0.00e+00	0	41	0	711983104	65	4392
2026-01-22 07:25:11.69	25.01	32.34	-46.9	-48.6	18.7	0.00e+00	0	41	0	714080256	65	4379
2026-01-22 07:25:12.69	24.65	32.32	-47.3	-49.1	18.3	0.00e+00	0	40	0	716177408	65	4648
2026-01-22 07:25:13.70	24.28	32.30	-47.4	-49.2	18.2	0.00e+00	0	41	0	718274560	65	4694
2026-01-22 07:25:14.71	23.91	32.27	-46.9	-48.6	18.8	0.00e+00	0	40	0	720371712	65	4345
2026-01-22 07:25:15.72	23.54	32.25	-46.6	-48.2	19.2	0.00e+00	0	41	0	721420288	65	4152
2026-01-22 07:25:16.72	23.18	32.22	-46.5	-48.1	19.3	0.00e+00	0	41	0	723517440	64	4353
2026-01-22 07:25:17.73	22.82	32.19	-46.6	-48.3	19.1	0.00e+00	0	41	0	725614592	64	4445
2026-01-22 07:25:18.74	22.45	32.16	-46.8	-48.5	18.9	0.00e+00	0	41	0	727711744	64	4574
2026-01-22 07:25:19.75	22.09	32.13	-46.8	-48.4	18.9	0.00e+00	0	41	0	729808896	64	4538
2026-01-22 07:25:20.75	21.73	32.10	-46.9	-48.6	18.8	0.00e+00	0	41	0	731906048	64	4621
2026-01-22 07:25:21.76	21.36	32.06	-46.7	-48.3	19.0	0.00e+00	0	40	0	732954624	64	4482
2026-01-22 07:25:22.77	21.00	32.03	-46.5	-48.1	19.2	0.00e+00	0	41	0	735051776	64	4362
2026-01-22 07:25:23.78	20.64	31.99	-46.9	-48.6	18.7	0.00e+00	0	40	0	737148928	64	4647
2026-01-22 07:25:24.79	20.28	31.95	-46.7	-48.4	18.9	0.00e+00	0	41	0	739246080	64	4537
2026-01-22 07:25:25.80	19.92	31.91	-46.7	-48.4	18.9	0.00e+00	0	41	0	740294656	64	4503
2026-01-22 07:25:26.81	19.56	31.87	-46.5	-48.1	19.2	0.00e+00	0	40	0	742391808	64	4378
2026-01-22 07:25:27.82	19.20	31.83	-46.6	-48.3	19.0	0.00e+00	0	41	0	744488960	64	4478
2026-01-22 07:25:28.82	18.85	31.79	-46.6	-48.3	19.0	0.00e+00	0	40	0	746586112	64	4464
2026-01-22 07:25:29.83	18.49	31.75	-47.0	-48.8	18.7	0.00e+00	0	41	0	748683264	64	4708
2026-01-22 07:25:30.84	18.14	31.70	-46.6	-48.2	19.1	0.00e+00	0	41	0	749731840	64	4431
2026-01-22 07:25:31.85	17.78	31.65	-46.7	-48.4	18.9	0.00e+00	0	41	0	751828992	64	4529
2026-01-22 07:25:32.86	17.43	31.61	-46.6	-48.3	18.9	0.00e+00	0	41	0	753926144	64	4483
2026-01-22 07:25:33.86	17.08	31.56	-46.8	-48.6	18.8	0.00e+00	0	41	0	756023296	64	4606
2026-01-22 07:25:34.87	16.73	31.51	-46.7	-48.5	18.8	0.00e+00	0	41	0	758120448	64	4579
2026-01-22 07:25:35.88	16.38	31.46	-46.8	-48.6	18.7	0.00e+00	0	41	0	760217600	64	4618
2026-01-22 07:25:36.89	16.03	31.41	-46.3	-47.9	19.4	0.00e+00	0	40	0	761266176	64	4251
2026-01-22 07:25:37.90	15.68	31.35	-46.2	-47.8	19.4	0.00e+00	0	40	0	763363328	64	4194
2026-01-22 07:25:38.91	15.34	31.30	-45.8	-47.2	20.0	0.00e+00	0	41	0	765460480	63	4183
2026-01-22 07:25:39.92	14.99	31.25	-46.0	-47.5	19.8	0.00e+00	0	41	0	767557632	63	4339
2026-01-22 07:25:40.93	14.65	31.19	-45.7	-47.1	20.0	0.00e+00	0	41	0	768606208	63	4118
2026-01-22 07:25:41.94	14.31	31.13	-46.0	-47.5	19.8	0.00e+00	0	41	0	770703360	63	4312
2026-01-22 07:25:42.94	13.97	31.07	-46.1	-47.6	19.8	0.00e+00	0	41	0	772800512	63	4372
2026-01-22 07:25:43.95	13.63	31.02	-46.2	-47.7	19.7	0.00e+00	0	41	0	774897664	63	4436
2026-01-22 07:25:44.96	13.29	30.96	-46.4	-47.9	19.5	0.00e+00	0	41	0	776994816	63	4535
2026-01-22 07:25:45.97	12.95	30.89	-46.4	-48.0	19.5	0.00e+00	0	41	0	779091968	63	4549
2026-01-22 07:25:46.98	12.61	30.83	-46.4	-48.0	19.4	0.00e+00	0	41	0	780140544	64	4302
2026-01-22 07:25:47.99	12.28	30.77	-46.8	-48.5	18.9	0.00e+00	0	41	0	782237696	64	4562
2026-01-22 07:25:48.99	11.95	30.71	-47.0	-48.7	18.6	0.00e+00	0	41	0	784334848	64	4704
2026-01-22 07:25:50.00	11.62	30.64	-47.4	-49.3	18.1	0.00e+00	0	40	0	786432000	65	4715
2026-01-22 07:25:51.01	11.28	30.57	-47.4	-49.3	18.1	0.00e+00	0	41	0	788529152	65	4706
2026-01-22 07:25:52.02	10.95	30.51	-47.4	-49.2	18.1	0.00e+00	0	41	0	789577728	65	4681
2026-01-22 07:25:53.02	10.63	30.44	-47.4	-49.3	18.0	0.00e+00	0	40	0	791674880	65	4746
2026-01-22 07:25:54.03	10.30	30.37	-47.7	-49.7	17.6	0.00e+00	0	41	0	793772032	66	4701
2026-01-22 07:25:55.04	9.98	30.30	-47.8	-49.8	17.7	0.00e+00	0	41	0	795869184	66	4742
2026-01-22 07:25:56.05	9.65	30.23	-47.8	-49.8	17.6	0.00e+00	0	40	0	796917760	66	4754
2026-01-22 07:25:57.06	9.33	30.16	-47.9	-49.9	17.6	0.00e+00	0	40	0	799014912	66	4789
2026-01-22 07:25:58.07	9.01	30.09	-47.4	-49.3	18.1	0.00e+00	0	41	0	801112064	66	4449
2026-01-22 07:25:59.07	8.69	30.01	-47.4	-49.2	18.3	0.00e+00	0	41	0	803209216	66	4410
2026-01-22 07:26:00.08	8.37	29.94	-46.8	-48.4	19.0	0.00e+00	0	41	0	805306368	65	4256
2026-01-22 07:26:01.08	8.06	29.87	-46.9	-48.6	18.8	0.00e+00	0	41	0	807403520	65	4355
2026-01-22 07:26:02.09	7.74	29.79	-47.0	-48.7	18.7	0.00e+00	0	41	0	808452096	65	4403
2026-01-22 07:26:03.10	7.43	29.72	-47.1	-48.9	18.4	0.00e+00	0	41	0	810549248	65	4525
2026-01-22 07:26:04.11	7.12	29.64	-46.9	-48.5	18.7	0.00e+00	0	41	0	812646400	65	4322
2026-01-22 07:26:05.12	6.81	29.56	-46.8	-48.4	18.9	0.00e+00	0	41	0	814743552	65	4263
2026-01-22 07:26:06.12	6.50	29.48	-46.5	-48.0	19.2	0.00e+00	0	40	0	816840704	64	4335
2026-01-22 07:26:07.13	6.19	29.40	-46.3	-47.9	19.3	0.00e+00	0	40	0	817889280	64	4258
2026-01-22 07:26:08.14	5.89	29.32	-45.9	-47.3	20.0	0.00e+00	0	40	0	819986432	63	4230
2026-01-22 07:26:09.15	5.58	29.24	-45.3	-46.5	20.6	0.00e+00	0	41	0	822083584	62	4098
2026-01-22 07:26:10.16	5.28	29.16	-44.6	-45.8	21.3	0.00e+00	0	40	0	824180736	61	3964
2026-01-22 07:26:11.17	4.98	29.08	-44.4	-45.6	21.5	0.00e+00	0	40	0	826277888	60	4122
2026-01-22 07:26:12.17	4.68	29.00	-44.6	-45.8	21.3	0.00e+00	0	41	0	827326464	60	4216
2026-01-22 07:26:13.18	4.38	28.92	-45.2	-46.4	20.7	0.00e+00	0	40	0	829423616	60	4536
2026-01-22 07:26:14.19	4.08	28.83	-45.1	-46.3	20.8	0.00e+00	0	41	0	831520768	60	4488
2026-01-22 07:26:15.20	3.79	28.75	-45.4	-46.7	20.5	0.00e+00	0	40	0	833617920	61	4415
2026-01-22 07:26:16.21	3.49	28.66	-46.0	-47.5	19.8	0.00e+00	0	40	0	835715072	62	4546
2026-01-22 07:26:17.22	3.20	28.58	-46.9	-48.7	18.6	0.00e+00	0	41	0	836763648	64	4677
2026-01-22 07:26:18.22	2.91	28.49	-47.1	-48.9	18.2	0.00e+00	0	41	0	838860800	65	4529
2026-01-22 07:26:19.23	2.63	28.41	-46.5	-48.0	19.1	0.00e+00	0	41	0	840957952	65	4089
2026-01-22 07:26:20.24	2.34	28.32	-45.6	-47.0	20.2	0.00e+00	0	41	0	843055104	63	4069
2026-01-22 07:26:21.25	2.05	28.23	-44.9	-46.1	20.9	0.00e+00	0	41	0	845152256	61	4131
2026-01-22 07:26:22.26	1.77	28.14	-44.9	-46.1	21.1	0.00e+00	0	41	0	846200832	61	4104
2026-01-22 07:26:23.26	1.49	28.05	-45.7	-47.1	20.2	0.00e+00	0	40	0	848297984	61	4640
2026-01-22 07:26:24.27	1.21	27.97	-47.1	-48.9	18.4	0.00e+00	0	41	0	850395136	64	4795
2026-01-22 07:26:25.28	0.93	27.88	-47.8	-49.9	17.5	0.00e+00	0	41	0	852492288	66	4798
2026-01-22 07:26:26.29	0.65	27.79	-47.8	-49.7	17.4	0.00e+00	0	40	0	854589440	66	4699
2026-01-22 07:26:27.30	0.37	27.70	-47.6	-49.5	17.9	0.00e+00	0	41	0	855638016	66	4572
2026-01-22 07:26:28.30	0.10	27.61	-47.4	-49.2	18.2	0.00e+00	0	40	0	857735168	66	4414
2026-01-22 07:26:29.31	359.83	27.51	-46.8	-48.4	18.9	0.00e+00	0	41	0	859832320	65	4268
2026-01-22 07:26:30.32	359.55	27.42	-46.3	-47.8	19.5	0.00e+00	0	41	0	861929472	64	4209
2026-01-22 07:26:31.33	359.28	27.33	-46.0	-47.4	19.9	0.00e+00	0	41	0	864026624	63	4285
2026-01-22 07:26:32.34	359.02	27.24	-45.9	-47.3	20.0	0.00e+00	0	40	0	865075200	63	4237
2026-01-22 07:26:33.34	358.75	27.14	-46.0	-47.4	19.9	0.00e+00	0	41	0	867172352	63	4289
2026-01-22 07:26:34.35	358.49	27.05	-46.1	-47.5	19.8	0.00e+00	0	41	0	869269504	63	4334
2026-01-22 07:26:35.36	358.22	26.96	-46.3	-47.8	19.6	0.00e+00	0	41	0	871366656	63	4450
2026-01-22 07:26:36.36	357.96	26.86	-46.0	-47.5	19.9	0.00e+00	0	40	0	873463808	63	4305
2026-01-22 07:26:37.37	357.70	26.77	-45.4	-46.7	20.5	0.00e+00	0	41	0	874512384	62	4188
2026-01-22 07:26:38.38	357.44	26.68	-45.3	-46.6	20.7	0.00e+00	0	40	0	876609536	62	4102
2026-01-22 07:26:39.39	357.18	26.58	-45.2	-46.5	20.8	0.00e+00	0	41	0	878706688	62	4057
2026-01-22 07:26:40.40	356.93	26.48	-45.2	-46.4	20.8	0.00e+00	0	40	0	880803840	62	4040
2026-01-22 07:26:41.41	356.67	26.39	-45.1	-46.4	20.8	0.00e+00	0	40	0	882900992	62	4020
2026-01-22 07:26:42.42	356.42	26.29	-45.3	-46.6	20.6	0.00e+00	0	41	0	883949568	62	4130
2026-01-22 07:26:43.42	356.17	26.20	-45.3	-46.6	20.6	0.00e+00	0	41	0	886046720	62	4112
2026-01-22 07:26:44.43	355.92	26.10	-45.4	-46.8	20.5	0.00e+00	0	41	0	888143872	62	4203
2026-01-22 07:26:45.44	355.67	26.00	-45.4	-46.7	20.5	0.00e+00	0	41	0	890241024	62	4184
2026-01-22 07:26:46.45	355.43	25.91	-45.5	-46.9	20.4	0.00e+00	0	41	0	892338176	62	4251
2026-01-22 07:26:47.46	355.18	25.81	-45.6	-47.0	20.2	0.00e+00	0	41	0	894435328	62	4317
2026-01-22 07:26:48.47	354.94	25.71	-45.8	-47.2	20.1	0.00e+00	0	41	0	895483904	62	4398
2026-01-22 07:26:49.48	354.69	25.62	-45.7	-47.1	20.1	0.00e+00	0	41	0	897581056	62	4386
2026-01-22 07:26:50.48	354.46	25.52	-45.6	-46.9	20.3	0.00e+00	0	41	0	899678208	62	4287
2026-01-22 07:26:51.49	354.22	25.42	-45.4	-46.8	20.4	0.00e+00	0	41	0	901775360	62	4207
2026-01-22 07:26:52.49	353.98	25.32	-45.5	-46.8	20.4	0.00e+00	0	41	0	902823936	62	4241
2026-01-22 07:26:53.50	353.74	25.22	-45.7	-47.1	20.2	0.00e+00	0	41	0	904921088	62	4361
2026-01-22 07:26:54.51	353.51	25.13	-45.6	-47.1	20.2	0.00e+00	0	41	0	907018240	62	4347
2026-01-22 07:26:55.52	353.28	25.03	-45.7	-47.1	20.2	0.00e+00	0	41	0	909115392	62	4375
2026-01-22 07:26:56.53	353.04	24.93	-45.6	-47.0	20.3	0.00e+00	0	40	0	911212544	62	4310
2026-01-22 07:26:57.54	352.81	24.83	-45.4	-46.8	20.4	0.00e+00	0	41	0	912261120	62	4229
2026-01-22 07:26:58.54	352.59	24.73	-45.2	-46.5	20.8	0.00e+00	0	40	0	914358272	62	4064
2026-01-22 07:26:59.55	352.36	24.63	-45.1	-46.4	20.8	0.00e+00	0	41	0	916455424	62	4039
2026-01-22 07:27:00.56	352.13	24.53	-44.6	-45.8	21.3	0.00e+00	0	40	0	918552576	61	3965
2026-01-22 07:27:01.56	351.91	24.43	-44.2	-45.3	21.7	0.00e+00	0	40	0	920649728	60	3985
2026-01-22 07:27:02.57	351.69	24.33	-44.2	-45.3	22.0	0.00e+00	0	41	0	922746880	59	4214
2026-01-22 07:27:03.58	351.47	24.23	-44.2	-45.4	22.0	0.00e+00	0	41	0	923795456	59	4244
2026-01-22 07:27:04.59	351.25	24.13	-44.1	-45.2	22.1	0.00e+00	0	41	0	925892608	59	4183
2026-01-22 07:27:05.60	351.03	24.03	-44.5	-45.7	21.7	0.00e+00	0	41	0	927989760	59	4404
2026-01-22 07:27:06.60	350.81	23.94	-44.7	-45.9	21.3	0.00e+00	0	40	0	930086912	60	4281
2026-01-22 07:27:07.61	350.60	23.84	-44.9	-46.2	21.0	0.00e+00	0	41	0	931135488	60	4423
2026-01-22 07:27:08.62	350.38	23.74	-45.1	-46.4	20.8	0.00e+00	0	41	0	933232640	60	4501
2026-01-22 07:27:09.63	350.17	23.64	-44.9	-46.2	21.0	0.00e+00	0	41	0	935329792	60	4418
2026-01-22 07:27:10.63	349.96	23.54	-44.9	-46.1	21.0	0.00e+00	0	41	0	937426944	60	4386
2026-01-22 07:27:11.64	349.75	23.44	-44.4	-45.5	21.6	0.00e+00	0	41	0	939524096	60	4086
2026-01-22 07:27:12.65	349.54	23.34	-44.2	-45.3	21.8	0.00e+00	0	41	0	941621248	60	3973
2026-01-22 07:27:13.66	349.33	23.24	-44.3	-45.4	21.6	0.00e+00	0	41	0	942669824	60	4038
2026-01-22 07:27:14.67	349.12	23.14	-44.5	-45.7	21.4	0.00e+00	0	41	0	944766976	60	4156
2026-01-22 07:27:15.68	348.92	23.04	-44.7	-45.9	21.2	0.00e+00	0	41	0	946864128	60	4282
2026-01-22 07:27:16.68	348.72	22.94	-44.7	-45.9	21.2	0.00e+00	0	41	0	948961280	60	4285
2026-01-22 07:27:17.69	348.51	22.84	-44.7	-45.9	21.2	0.00e+00	0	41	0	951058432	60	4252
2026-01-22 07:27:18.70	348.31	22.74	-44.7	-45.9	21.2	0.00e+00	0	41	0	952107008	60	4271
2026-01-22 07:27:19.71	348.11	22.64	-44.7	-45.9	21.2	0.00e+00	0	41	0	954204160	60	4274
2026-01-22 07:27:20.72	347.91	22.53	-44.9	-46.1	21.0	0.00e+00	0	40	0	956301312	60	4381
2026-01-22 07:27:21.73	347.72	22.43	-45.0	-46.3	20.9	0.00e+00	0	40	0	958398464	60	4445
2026-01-22 07:27:22.74	347.52	22.33	-44.7	-45.9	21.2	0.00e+00	0	41	0	959447040	60	4266
2026-01-22 07:27:23.74	347.33	22.24	-44.6	-45.8	21.3	0.00e+00	0	41	0	961544192	60	4235
2026-01-22 07:27:24.75	347.13	22.14	-44.5	-45.7	21.4	0.00e+00	0	41	0	963641344	60	4168
2026-01-22 07:27:25.76	346.94	22.04	-44.3	-45.4	21.6	0.00e+00	0	41	0	965738496	60	4028
2026-01-22 07:27:26.77	346.75	21.94	-44.2	-45.4	21.7	0.00e+00	0	41	0	967835648	60	4012
2026-01-22 07:27:27.78	346.56	21.84	-44.4	-45.5	21.5	0.00e+00	0	40	0	969932800	60	4082
2026-01-22 07:27:28.78	346.37	21.74	-44.6	-45.8	21.3	0.00e+00	0	41	0	970981376	60	4217
2026-01-22 07:27:29.79	346.19	21.64	-44.7	-45.9	21.2	0.00e+00	0	40	0	973078528	60	4262
2026-01-22 07:27:30.80	346.00	21.54	-45.2	-46.5	20.7	0.00e+00	0	41	0	975175680	60	4561
2026-01-22 07:27:31.81	345.82	21.44	-45.0	-46.3	20.8	0.00e+00	0	41	0	977272832	60	4476
2026-01-22 07:27:32.82	345.63	21.34	-45.0	-46.3	20.8	0.00e+00	0	41	0	979369984	60	4454
2026-01-22 07:27:33.83	345.45	21.24	-45.0	-46.2	20.9	0.00e+00	0	40	0	980418560	60	4439
2026-01-22 07:27:34.84	345.27	21.14	-45.0	-46.2	20.9	0.00e+00	0	41	0	982515712	60	4428
2026-01-22 07:27:35.85	345.09	21.04	-44.8	-46.0	21.1	0.00e+00	0	41	0	984612864	60	4333
2026-01-22 07:27:36.85	344.91	20.94	-44.9	-46.2	20.9	0.00e+00	0	41	0	986710016	60	4403
2026-01-22 07:27:37.86	344.73	20.84	-44.8	-46.0	21.1	0.00e+00	0	41	0	988807168	60	4321
2026-01-22 07:27:38.87	344.56	20.74	-44.7	-45.9	21.2	0.00e+00	0	41	0	989855744	60	4263
2026-01-22 07:27:39.88	344.38	20.64	-44.8	-45.9	21.1	0.00e+00	0	40	0	991952896	60	4291
2026-01-22 07:27:40.89	344.21	20.54	-44.8	-46.0	21.2	0.00e+00	0	40	0	994050048	60	4297
2026-01-22 07:27:41.90	344.03	20.45	-44.7	-45.9	21.1	0.00e+00	0	41	0	996147200	60	4266
2026-01-22 07:27:42.90	343.86	20.35	-44.6	-45.8	21.3	0.00e+00	0	41	0	998244352	60	4208
2026-01-22 07:27:43.91	343.69	20.25	-44.9	-46.1	20.9	0.00e+00	0	41	0	999292928	60	4383
2026-01-22 07:27:44.92	343.52	20.15	-45.1	-46.3	20.8	0.00e+00	0	40	0	1001390080	60	4491
2026-01-22 07:27:45.93	343.36	20.05	-45.6	-46.9	20.3	0.00e+00	0	41	0	1003487232	61	4524
2026-01-22 07:27:46.94	343.19	19.95	-45.8	-47.1	20.1	0.00e+00	0	41	0	1005584384	62	4387
2026-01-22 07:27:47.94	343.02	19.86	-46.1	-47.6	19.7	0.00e+00	0	41	0	1007681536	62	4615
2026-01-22 07:27:48.95	342.86	19.76	-46.1	-47.5	19.7	0.00e+00	0	41	0	1009778688	63	4332
2026-01-22 07:27:49.96	342.69	19.66	-45.9	-47.4	19.8	0.00e+00	0	41	0	1010827264	63	4269
2026-01-22 07:27:50.97	342.53	19.56	-45.6	-46.9	20.2	0.00e+00	0	41	0	1012924416	63	4048
2026-01-22 07:27:51.98	342.37	19.47	-45.3	-46.6	20.6	0.00e+00	0	40	0	1015021568	62	4121
2026-01-22 07:27:52.98	342.21	19.37	-45.1	-46.3	20.8	0.00e+00	0	41	0	1017118720	62	3980
2026-01-22 07:27:53.99	342.05	19.27	-44.7	-45.9	21.1	0.00e+00	0	41	0	1018167296	61	4045
2026-01-22 07:27:55.00	341.89	19.17	-44.9	-46.1	20.9	0.00e+00	0	41	0	1020264448	61	4114
2026-01-22 07:27:56.01	341.73	19.08	-44.8	-46.0	21.1	0.00e+00	0	41	0	1022361600	61	4059
2026-01-22 07:27:57.01	341.58	18.98	-45.2	-46.4	20.6	0.00e+00	0	41	0	1024458752	61	4278
2026-01-22 07:27:58.02	341.42	18.89	-45.2	-46.5	20.6	0.00e+00	0	41	0	1026555904	61	4318
2026-01-22 07:27:59.03	341.26	18.79	-45.3	-46.6	20.4	0.00e+00	0	41	0	1027604480	61	4388
2026-01-22 07:28:00.04	341.11	18.69	-45.4	-46.8	20.4	0.00e+00	0	41	0	1029701632	61	4445
2026-01-22 07:28:01.05	340.96	18.60	-45.5	-46.9	20.2	0.00e+00	0	40	0	1031798784	61	4511
2026-01-22 07:28:02.06	340.81	18.50	-45.5	-46.8	20.3	0.00e+00	0	41	0	1033895936	61	4466
2026-01-22 07:28:03.06	340.66	18.40	-45.3	-46.6	20.5	0.00e+00	0	41	0	1035993088	61	4367
2026-01-22 07:28:04.07	340.51	18.31	-45.2	-46.5	20.5	0.00e+00	0	41	0	1038090240	61	4336
2026-01-22 07:28:05.08	340.36	18.21	-45.1	-46.4	20.7	0.00e+00	0	41	0	1039138816	61	4256
2026-01-22 07:28:06.09	340.21	18.12	-44.7	-45.9	21.1	0.00e+00	0	41	0	1041235968	61	4042
2026-01-22 07:28:07.10	340.06	18.02	-44.7	-45.9	21.2	0.00e+00	0	41	0	1043333120	61	4011
2026-01-22 07:28:08.11	339.91	17.93	-44.7	-45.9	21.1	0.00e+00	0	41	0	1045430272	61	4011
2026-01-22 07:28:09.12	339.77	17.83	-44.5	-45.7	21.2	0.00e+00	0	40	0	1046478848	60	4167
2026-01-22 07:28:10.13	339.62	17.74	-44.5	-45.7	21.3	0.00e+00	0	41	0	1048576000	60	4156
2026-01-22 07:28:11.14	339.48	17.64	-44.6	-45.7	21.2	0.00e+00	0	41	0	1050673152	60	4183
2026-01-22 07:28:12.14	339.34	17.55	-44.8	-46.0	21.0	0.00e+00	0	40	0	1052770304	60	4299
2026-01-22 07:28:13.15	339.20	17.46	-45.1	-46.3	20.7	0.00e+00	0	40	0	1054867456	60	4487
2026-01-22 07:28:14.16	339.06	17.36	-45.2	-46.4	20.7	0.00e+00	0	40	0	1056964608	60	4522
2026-01-22 07:28:15.17	338.92	17.27	-45.2	-46.5	20.5	0.00e+00	0	41	0	1058013184	61	4325
2026-01-22 07:28:16.18	338.78	17.17	-45.2	-46.5	20.6	0.00e+00	0	41	0	1060110336	61	4302
2026-01-22 07:28:17.18	338.64	17.08	-45.4	-46.7	20.3	0.00e+00	0	41	0	1062207488	61	4415
2026-01-22 07:28:18.19	338.50	16.99	-45.3	-46.6	20.3	0.00e+00	0	40	0	1064304640	61	4388
2026-01-22 07:28:19.20	338.37	16.90	-45.4	-46.7	20.4	0.00e+00	0	41	0	1066401792	61	4405
2026-01-22 07:28:20.21	338.23	16.80	-45.4	-46.7	20.4	0.00e+00	0	41	0	1067450368	61	4414
2026-01-22 07:28:21.22	338.10	16.71	-45.2	-46.5	20.6	0.00e+00	0	41	0	1069547520	61	4301
2026-01-22 07:28:22.22	337.97	16.62	-45.0	-46.3	20.7	0.00e+00	0	41	0	1071644672	61	4203
2026-01-22 07:28:23.23	337.83	16.53	-45.1	-46.4	20.6	0.00e+00	0	41	0	1073741824	61	4282
2026-01-22 07:28:24.24	337.70	16.43	-45.3	-46.6	20.4	2.20e-06	0	41	0	1074790400	61	4384
2026-01-22 07:28:25.25	337.57	16.34	-45.5	-46.8	20.2	0.00e+00	0	41	0	1076887552	61	4477
2026-01-22 07:28:26.26	337.44	16.25	-45.9	-47.4	19.7	0.00e+00	0	41	0	1078984704	62	4515
2026-01-22 07:28:27.26	337.31	16.16	-46.3	-47.8	19.3	0.00e+00	0	41	0	1081081856	63	4484
2026-01-22 07:28:28.27	337.18	16.07	-46.8	-48.5	18.7	0.00e+00	0	41	0	1083179008	64	4552
2026-01-22 07:28:29.28	337.05	15.98	-47.1	-49.0	18.1	0.00e+00	0	41	0	1085276160	64	4831
2026-01-22 07:28:30.29	336.93	15.89	-47.5	-49.5	17.7	0.00e+00	0	40	0	1086324736	65	4817
2026-01-22 07:28:31.30	336.80	15.79	-47.3	-49.2	17.9	0.00e+00	0	40	0	1088421888	65	4686
2026-01-22 07:28:32.30	336.68	15.71	-47.0	-48.7	18.3	0.00e+00	0	40	0	1090519040	65	4438
2026-01-22 07:28:33.31	336.55	15.61	-46.7	-48.3	18.7	0.00e+00	0	40	0	1092616192	65	4230
2026-01-22 07:28:34.32	336.43	15.52	-46.0	-47.5	19.5	0.00e+00	0	41	0	1094713344	64	4080
2026-01-22 07:28:35.33	336.30	15.43	-45.7	-47.1	19.9	0.00e+00	0	41	0	1095761920	63	4131
2026-01-22 07:28:36.34	336.18	15.34	-45.4	-46.8	20.2	0.00e+00	0	41	0	1097859072	62	4199
2026-01-22 07:28:37.34	336.06	15.26	-45.0	-46.2	20.7	0.00e+00	0	40	0	1099956224	62	3955
2026-01-22 07:28:38.35	335.94	15.17	-44.6	-45.8	21.1	0.00e+00	0	40	0	1102053376	61	3990
2026-01-22 07:28:39.36	335.82	15.08	-44.6	-45.7	21.1	0.00e+00	0	40	0	1104150528	61	3958
2026-01-22 07:28:40.37	335.70	14.99	-44.8	-46.0	20.9	0.00e+00	0	41	0	1105199104	61	4079
2026-01-22 07:28:41.38	335.58	14.90	-44.7	-45.9	20.9	0.00e+00	0	40	0	1107296256	61	4049
2026-01-22 07:28:42.38	335.46	14.81	-45.1	-46.4	20.5	0.00e+00	0	40	0	1109393408	61	4262
2026-01-22 07:28:43.39	335.34	14.72	-45.3	-46.6	20.3	0.00e+00	0	40	0	1111490560	61	4378
2026-01-22 07:28:44.40	335.23	14.63	-45.7	-47.1	19.9	0.00e+00	0	40	0	1113587712	61	4624
2026-01-22 07:28:45.41	335.11	14.55	-46.1	-47.7	19.4	0.00e+00	0	40	0	1114636288	62	4664
2026-01-22 07:28:46.42	335.00	14.46	-46.3	-47.9	19.2	0.00e+00	0	40	0	1116733440	63	4515
2026-01-22 07:28:47.42	334.88	14.37	-46.5	-48.2	19.0	0.00e+00	0	40	0	1118830592	63	4665
2026-01-22 07:28:48.43	334.77	14.28	-46.4	-48.0	19.1	0.00e+00	0	40	0	1120927744	63	4574
2026-01-22 07:28:49.44	334.66	14.20	-46.6	-48.3	18.8	0.00e+00	0	40	0	1123024896	63	4710
2026-01-22 07:28:50.45	334.54	14.11	-46.4	-48.0	19.0	0.00e+00	0	40	0	1124073472	63	4590
2026-01-22 07:28:51.46	334.43	14.02	-46.6	-48.2	18.9	0.00e+00	0	40	0	1126170624	63	4677
2026-01-22 07:28:52.47	334.32	13.94	-46.4	-48.0	19.1	0.00e+00	0	40	0	1128267776	63	4564
2026-01-22 07:28:53.48	334.21	13.85	-46.3	-47.9	19.2	0.00e+00	0	40	0	1130364928	63	4529
2026-01-22 07:28:54.48	334.10	13.76	-46.3	-47.9	19.1	0.00e+00	0	40	0	1132462080	63	4524
2026-01-22 07:28:55.49	333.99	13.68	-46.3	-47.9	19.1	0.00e+00	0	40	0	1133510656	63	4523
2026-01-22 07:28:56.50	333.88	13.59	-46.3	-47.9	19.2	0.00e+00	0	41	0	1135607808	63	4509
2026-01-22 07:28:57.51	333.77	13.51	-46.5	-48.1	18.9	0.00e+00	0	41	0	1137704960	63	4641
2026-01-22 07:28:58.52	333.67	13.42	-46.5	-48.1	19.0	0.00e+00	0	40	0	1139802112	63	4616
2026-01-22 07:28:59.52	333.56	13.34	-46.4	-48.0	19.0	0.00e+00	0	40	0	1141899264	63	4576
2026-01-22 07:29:00.53	333.46	13.25	-46.5	-48.1	18.9	0.00e+00	0	40	0	1142947840	63	4635
2026-01-22 07:29:01.54	333.35	13.17	-46.4	-48.1	19.0	0.00e+00	0	40	0	1145044992	63	4599
2026-01-22 07:29:02.55	333.25	13.08	-46.6	-48.2	18.8	0.00e+00	0	41	0	1147142144	63	4680
2026-01-22 07:29:03.56	333.14	13.00	-46.5	-48.2	18.7	0.00e+00	0	41	0	1149239296	64	4418
2026-01-22 07:29:04.57	333.04	12.91	-46.6	-48.3	18.6	0.00e+00	0	41	0	1151336448	64	4493
2026-01-22 07:29:05.57	332.94	12.83	-46.8	-48.6	18.4	0.00e+00	0	41	0	1152385024	64	4600
2026-01-22 07:29:06.58	332.83	12.75	-46.9	-48.6	18.3	0.00e+00	0	41	0	1154482176	64	4648
2026-01-22 07:29:07.59	332.73	12.66	-46.9	-48.7	18.3	0.00e+00	0	41	0	1156579328	64	4665
2026-01-22 07:29:08.60	332.63	12.58	-47.0	-48.8	18.2	9.90e-06	0	41	0	1158676480	64	4711
2026-01-22 07:29:09.61	332.53	12.50	-47.1	-48.9	18.1	0.00e+00	0	40	0	1160773632	64	4776
2026-01-22 07:29:10.62	332.43	12.41	-47.0	-48.8	18.1	0.00e+00	0	41	0	1161822208	64	4752
2026-01-22 07:29:11.62	332.33	12.33	-47.0	-48.8	18.1	0.00e+00	0	41	0	1163919360	64	4734
2026-01-22 07:29:12.63	332.23	12.25	-46.6	-48.3	18.6	0.00e+00	0	41	0	1166016512	64	4477
2026-01-22 07:29:13.64	332.13	12.16	-46.4	-48.0	18.9	0.00e+00	0	41	0	1168113664	64	4305
2026-01-22 07:29:14.65	332.04	12.08	-46.4	-48.1	18.8	0.00e+00	0	41	0	1170210816	64	4342
2026-01-22 07:29:15.66	331.94	12.00	-46.2	-47.8	19.0	0.00e+00	0	41	0	1172307968	64	4219
2026-01-22 07:29:16.67	331.84	11.92	-46.0	-47.6	19.3	0.00e+00	0	41	0	1173356544	64	4105
2026-01-22 07:29:17.68	331.75	11.84	-46.1	-47.5	19.3	0.00e+00	0	41	0	1175453696	63	4339
2026-01-22 07:29:18.69	331.65	11.75	-45.9	-47.4	19.5	0.00e+00	0	40	0	1177550848	63	4256
2026-01-22 07:29:19.70	331.56	11.67	-46.1	-47.6	19.3	0.00e+00	0	41	0	1179648000	63	4362
2026-01-22 07:29:20.70	331.46	11.59	-45.9	-47.3	19.5	0.00e+00	0	41	0	1180696576	63	4235
2026-01-22 07:29:21.71	331.37	11.51	-46.1	-47.6	19.3	0.00e+00	0	41	0	1182793728	63	4352
2026-01-22 07:29:22.72	331.28	11.43	-46.2	-47.8	19.1	0.00e+00	0	41	0	1184890880	63	4448
2026-01-22 07:29:23.73	331.18	11.35	-46.4	-48.0	18.9	0.00e+00	0	41	0	1186988032	63	4576
2026-01-22 07:29:24.74	331.09	11.27	-46.6	-48.4	18.5	0.00e+00	0	41	0	1189085184	64	4495
2026-01-22 07:29:25.75	331.00	11.19	-46.8	-48.5	18.4	0.00e+00	0	41	0	1190133760	64	4580
2026-01-22 07:29:26.75	330.91	11.11	-47.2	-49.1	17.8	0.00e+00	0	41	0	1192230912	64	4880
2026-01-22 07:29:27.76	330.82	11.03	-47.5	-49.5	17.4	0.00e+00	0	40	0	1194328064	65	4822
2026-01-22 07:29:28.77	330.73	10.95	-47.7	-49.8	17.1	0.00e+00	0	40	0	1196425216	65	5015
2026-01-22 07:29:29.78	330.64	10.87	-48.0	-50.2	16.7	0.00e+00	0	40	0	1198522368	66	4945
2026-01-22 07:29:30.79	330.55	10.79	-48.1	-50.3	16.6	0.00e+00	0	41	0	1200619520	66	5036
2026-01-22 07:29:31.79	330.46	10.71	-48.2	-50.6	16.4	0.00e+00	0	41	0	1201668096	67	4880
2026-01-22 07:29:32.80	330.37	10.63	-48.4	-50.9	16.1	0.00e+00	0	41	0	1203765248	67	5043
2026-01-22 07:29:33.81	330.29	10.56	-48.4	-50.9	15.9	0.00e+00	0	41	0	1205862400	67	5083
2026-01-22 07:29:34.82	330.20	10.48	-48.5	-51.0	15.9	0.00e+00	0	41	0	1207959552	67	5142
2026-01-22 07:29:35.82	330.11	10.40	-48.3	-50.8	16.1	0.00e+00	0	41	0	1209008128	67	4985
2026-01-22 07:29:36.83	330.03	10.32	-48.2	-50.5	16.3	0.00e+00	0	41	0	1211105280	67	4863
2026-01-22 07:29:37.84	329.94	10.24	-48.4	-50.8	16.0	0.00e+00	0	41	0	1213202432	67	5040
2026-01-22 07:29:38.85	329.86	10.16	-48.1	-50.5	16.4	0.00e+00	0	40	0	1215299584	67	4843
2026-01-22 07:29:39.86	329.77	10.09	-48.0	-50.3	16.5	0.00e+00	0	40	0	1217396736	67	4755
2026-01-22 07:29:40.86	329.69	10.01	-47.9	-50.2	16.6	0.00e+00	0	41	0	1219493888	67	4669
2026-01-22 07:29:41.87	329.60	9.93	-47.9	-50.2	16.6	0.00e+00	0	41	0	1220542464	67	4691
2026-01-22 07:29:42.88	329.52	9.86	-47.8	-50.0	16.8	0.00e+00	0	41	0	1222639616	67	4574
2026-01-22 07:29:43.89	329.44	9.78	-47.7	-49.8	16.7	0.00e+00	0	41	0	1224736768	67	4485
2026-01-22 07:29:44.90	329.36	9.70	-47.6	-49.7	17.1	0.00e+00	0	41	0	1226833920	67	4405
2026-01-22 07:29:45.90	329.27	9.63	-47.4	-49.4	17.3	0.00e+00	0	41	0	1228931072	66	4503
2026-01-22 07:29:46.91	329.19	9.55	-47.2	-49.2	17.5	0.00e+00	0	41	0	1229979648	66	4404
2026-01-22 07:29:47.92	329.11	9.47	-47.2	-49.2	17.4	0.00e+00	0	41	0	1232076800	66	4434
2026-01-22 07:29:48.93	329.03	9.40	-46.9	-48.8	17.9	0.00e+00	0	41	0	1234173952	65	4456
2026-01-22 07:29:49.94	328.95	9.32	-46.8	-48.6	18.0	0.00e+00	0	41	0	1236271104	65	4380
2026-01-22 07:29:50.94	328.87	9.25	-46.8	-48.6	18.0	0.00e+00	0	41	0	1237319680	65	4345
