passes_logs/2026/01/04/R2.0S_Moscow/R2.0S_Moscow__20260104_012054_SUOMI_NPP_rec.log

#Pass ID: 20260104_012054_SUOMI NPP
#Satellite: SUOMI NPP
#Configuration: NPP
#almurnet v.1.7.20251203
#Start time: 2026-01-04 01:20:54

#Version: 2.2.20231116
#Station: R2.0S_Moscow
#Location: 37.707566 lon 55.798166 lat
#TLE: 1 37849U 11061A   26001.07732418  .00000182  00000+0  10735-3 0  9990
#TLE: 2 37849  98.7795 303.2470 0002580  87.2016 272.9455 14.19520779734739

#Time	Az	El	Level	Level2	SNR	BER	BlckErr	Temp	State	Recorded	gain1	gain2
2026-01-04 01:20:54.97	10.40	2.05	-39.8	-54.3	3.8	1.49e+00	0	47	0	0	51	18875
2026-01-04 01:20:55.97	10.34	2.11	-39.8	-54.3	3.8	1.49e+00	0	47	104	0	51	18908
2026-01-04 01:20:56.98	10.28	2.16	-39.8	-54.3	3.8	1.49e+00	0	47	104	0	51	18838
2026-01-04 01:20:57.99	10.21	2.22	-39.8	-54.3	3.8	1.49e+00	0	47	104	0	51	18886
2026-01-04 01:20:59.00	10.15	2.28	-39.8	-54.3	3.8	1.49e+00	0	48	104	0	51	18845
2026-01-04 01:21:00.01	10.08	2.34	-39.8	-54.3	3.8	1.49e+00	0	48	104	0	51	18891
2026-01-04 01:21:01.02	10.02	2.39	-39.8	-54.3	3.8	1.49e+00	0	48	104	0	51	18891
2026-01-04 01:21:02.03	9.96	2.45	-39.8	-54.3	3.8	1.49e+00	0	48	104	0	51	18847
2026-01-04 01:21:03.04	9.89	2.51	-39.8	-54.3	3.8	1.49e+00	0	48	104	0	51	18865
2026-01-04 01:21:04.05	9.83	2.57	-39.8	-54.3	3.8	1.49e+00	0	48	104	0	51	18852
2026-01-04 01:21:05.07	9.76	2.63	-39.8	-54.3	3.8	1.49e+00	0	48	104	0	51	18858
2026-01-04 01:21:06.08	9.70	2.69	-39.8	-54.3	3.8	1.49e+00	0	48	104	0	51	18848
2026-01-04 01:21:07.09	9.63	2.74	-39.8	-54.3	3.8	1.49e+00	0	48	104	0	51	18887
2026-01-04 01:21:08.10	9.56	2.80	-39.8	-54.3	3.8	1.49e+00	0	48	104	0	51	18854
2026-01-04 01:21:09.11	9.50	2.86	-39.8	-54.3	3.8	1.49e+00	0	48	104	0	51	18843
2026-01-04 01:21:10.12	9.43	2.92	-39.8	-54.3	3.8	1.49e+00	0	48	104	0	51	18875
2026-01-04 01:21:11.13	9.36	2.98	-39.8	-54.3	3.8	1.49e+00	0	48	104	0	51	18810
2026-01-04 01:21:12.14	9.30	3.04	-39.8	-54.3	3.8	1.49e+00	0	48	104	0	51	18835
2026-01-04 01:21:13.15	9.23	3.10	-39.8	-54.3	3.8	1.49e+00	0	48	104	0	51	18927
2026-01-04 01:21:14.16	9.16	3.16	-39.8	-54.3	3.8	1.49e+00	0	49	104	0	51	18893
2026-01-04 01:21:15.18	9.09	3.22	-39.8	-54.3	3.8	1.49e+00	0	49	104	0	51	18833
2026-01-04 01:21:16.19	9.02	3.27	-39.8	-54.3	3.8	1.49e+00	0	49	104	0	51	18827
2026-01-04 01:21:17.20	8.96	3.33	-39.8	-54.3	3.8	1.49e+00	0	49	104	0	51	18862
2026-01-04 01:21:18.21	8.89	3.39	-39.8	-54.3	3.8	1.49e+00	0	49	104	0	51	18860
2026-01-04 01:21:19.22	8.82	3.45	-39.8	-54.3	3.8	1.49e+00	0	49	104	0	51	18876
2026-01-04 01:21:20.23	8.75	3.51	-39.8	-54.3	3.8	1.49e+00	0	49	104	0	51	18821
2026-01-04 01:21:21.24	8.68	3.57	-39.8	-54.3	3.8	1.49e+00	0	49	104	0	51	18854
2026-01-04 01:21:22.25	8.61	3.63	-39.8	-54.3	3.8	1.49e+00	0	49	104	0	51	18829
2026-01-04 01:21:23.26	8.54	3.69	-39.8	-54.3	3.8	1.49e+00	0	49	104	0	51	18851
2026-01-04 01:21:24.27	8.47	3.75	-39.8	-54.3	3.8	1.49e+00	0	49	104	0	51	18843
2026-01-04 01:21:25.29	8.40	3.81	-39.8	-54.3	3.8	1.49e+00	0	49	104	0	51	18886
2026-01-04 01:21:26.30	8.32	3.87	-39.8	-54.3	3.8	1.49e+00	0	49	104	0	51	18860
2026-01-04 01:21:27.31	8.25	3.93	-39.8	-54.3	3.8	1.49e+00	0	49	104	0	51	18848
2026-01-04 01:21:28.32	8.18	3.99	-39.8	-54.3	3.8	1.49e+00	0	49	104	0	51	18801
2026-01-04 01:21:29.33	8.11	4.05	-39.8	-54.3	3.8	1.49e+00	0	49	104	0	51	18847
2026-01-04 01:21:30.34	8.04	4.11	-39.8	-54.3	3.8	1.49e+00	0	50	104	0	51	18830
2026-01-04 01:21:31.35	7.96	4.17	-39.8	-54.3	3.8	1.49e+00	0	50	104	0	51	18810
2026-01-04 01:21:32.36	7.89	4.24	-39.8	-54.3	3.8	1.49e+00	0	49	104	0	51	18836
2026-01-04 01:21:33.38	7.82	4.30	-39.8	-54.3	3.8	1.49e+00	0	50	104	0	51	18817
2026-01-04 01:21:34.39	7.74	4.36	-39.8	-54.3	3.8	1.49e+00	0	50	104	0	51	18777
2026-01-04 01:21:35.40	7.67	4.42	-39.8	-54.3	3.8	1.49e+00	0	50	104	0	51	18888
2026-01-04 01:21:36.41	7.59	4.48	-39.8	-54.3	3.8	1.49e+00	0	50	104	0	51	18865
2026-01-04 01:21:37.42	7.52	4.54	-39.8	-54.3	3.8	1.49e+00	0	50	104	0	51	18862
2026-01-04 01:21:38.43	7.44	4.60	-39.8	-54.3	3.8	1.49e+00	0	50	104	0	51	18811
2026-01-04 01:21:39.44	7.37	4.66	-39.8	-54.3	3.8	1.49e+00	0	50	104	0	51	18823
2026-01-04 01:21:40.45	7.29	4.72	-39.8	-54.3	3.8	1.49e+00	0	50	104	0	51	18810
2026-01-04 01:21:41.46	7.22	4.79	-39.8	-54.3	3.8	1.49e+00	0	50	104	0	51	18840
2026-01-04 01:21:42.48	7.14	4.85	-39.8	-54.3	3.8	1.49e+00	0	50	104	0	51	18822
2026-01-04 01:21:43.49	7.06	4.91	-39.8	-54.3	3.8	1.49e+00	0	50	104	0	51	18804
2026-01-04 01:21:44.50	6.98	4.97	-39.8	-54.3	3.8	1.49e+00	0	50	104	0	51	18834
2026-01-04 01:21:45.51	6.91	5.03	-39.8	-54.3	3.8	1.49e+00	0	50	104	0	51	18806
2026-01-04 01:21:46.52	6.83	5.10	-39.8	-54.3	3.8	1.49e+00	0	50	104	0	51	18789
2026-01-04 01:21:47.53	6.75	5.16	-39.8	-54.3	3.8	1.49e+00	0	51	104	0	51	18816
2026-01-04 01:21:48.54	6.67	5.22	-39.8	-54.3	3.8	1.49e+00	0	50	104	0	51	18791
2026-01-04 01:21:49.55	6.59	5.28	-39.8	-54.3	3.8	1.49e+00	0	51	104	0	51	18811
2026-01-04 01:21:50.56	6.51	5.34	-39.8	-54.3	3.8	1.49e+00	0	51	104	0	51	18879
2026-01-04 01:21:51.57	6.43	5.41	-39.8	-54.3	3.8	1.49e+00	0	51	104	0	51	18843
2026-01-04 01:21:52.59	6.35	5.47	-39.8	-54.3	3.8	1.49e+00	0	51	104	0	51	18795
2026-01-04 01:21:53.60	6.27	5.53	-39.8	-54.3	3.8	1.49e+00	0	51	104	0	51	18775
2026-01-04 01:21:54.61	6.19	5.59	-39.8	-54.3	3.8	1.49e+00	0	51	104	0	51	18819
2026-01-04 01:21:55.62	6.11	5.66	-39.8	-54.3	3.8	1.49e+00	0	51	104	0	51	18864
2026-01-04 01:21:56.63	6.03	5.72	-39.8	-54.3	3.8	1.49e+00	0	51	104	0	51	18849
2026-01-04 01:21:57.64	5.95	5.78	-39.8	-54.3	3.8	1.49e+00	0	51	104	0	51	18823
2026-01-04 01:21:58.65	5.87	5.85	-39.8	-54.3	3.8	1.49e+00	0	51	104	0	51	18812
2026-01-04 01:21:59.66	5.78	5.91	-39.8	-54.3	3.8	1.49e+00	0	51	104	0	51	18788
2026-01-04 01:22:00.67	5.70	5.97	-39.8	-54.3	3.8	1.49e+00	0	51	104	0	51	18771
2026-01-04 01:22:01.68	5.62	6.04	-39.8	-54.3	3.8	1.49e+00	0	51	104	0	51	18816
2026-01-04 01:22:02.69	5.53	6.10	-39.8	-54.3	3.8	1.49e+00	0	51	104	0	51	18821
2026-01-04 01:22:03.70	5.45	6.16	-39.8	-54.3	3.8	1.49e+00	0	51	104	0	51	18751
2026-01-04 01:22:04.71	5.36	6.23	-39.8	-54.3	3.8	1.49e+00	0	51	104	0	51	18819
2026-01-04 01:22:05.72	5.28	6.29	-39.8	-54.3	3.8	1.49e+00	0	51	104	0	51	18803
2026-01-04 01:22:06.74	5.19	6.36	-39.8	-54.3	3.8	1.49e+00	0	51	104	0	51	18796
2026-01-04 01:22:07.75	5.11	6.42	-39.8	-54.3	3.8	1.49e+00	0	52	104	0	51	18826
2026-01-04 01:22:08.76	5.02	6.48	-39.8	-54.3	3.8	1.49e+00	0	51	104	0	51	18812
2026-01-04 01:22:09.77	4.94	6.55	-39.8	-54.3	3.8	1.49e+00	0	52	104	0	51	18774
2026-01-04 01:22:10.78	4.85	6.61	-39.8	-54.3	3.8	1.49e+00	0	51	104	0	51	18809
2026-01-04 01:22:11.79	4.76	6.68	-39.8	-54.3	3.8	1.49e+00	0	52	104	0	51	18842
2026-01-04 01:22:12.80	4.67	6.74	-39.8	-54.3	3.8	1.49e+00	0	52	104	0	51	18780
2026-01-04 01:22:13.81	4.59	6.81	-39.8	-54.3	3.8	1.49e+00	0	52	104	0	51	18818
2026-01-04 01:22:14.83	4.50	6.87	-39.8	-54.3	3.8	1.49e+00	0	52	104	0	51	18783
2026-01-04 01:22:15.84	4.41	6.94	-39.8	-54.3	3.8	1.49e+00	0	51	104	0	51	18810
2026-01-04 01:22:16.85	4.32	7.00	-39.8	-54.3	3.8	1.49e+00	0	52	104	0	51	18761
2026-01-04 01:22:17.86	4.23	7.07	-39.8	-54.3	3.8	1.49e+00	0	52	104	0	51	18779
2026-01-04 01:22:18.87	4.14	7.13	-39.8	-54.3	3.8	1.49e+00	0	52	104	0	51	18813
2026-01-04 01:22:19.88	4.05	7.20	-39.8	-54.3	3.8	1.49e+00	0	52	104	0	51	18736
2026-01-04 01:22:20.89	3.96	7.26	-39.8	-54.3	3.8	1.49e+00	0	52	104	0	51	18839
2026-01-04 01:22:21.90	3.87	7.33	-39.8	-54.3	3.8	1.49e+00	0	52	104	0	51	18776
2026-01-04 01:22:22.91	3.77	7.39	-39.8	-54.3	3.8	1.49e+00	0	52	104	0	51	18807
2026-01-04 01:22:23.93	3.68	7.46	-39.8	-54.3	3.8	1.49e+00	0	52	104	0	51	18834
2026-01-04 01:22:24.94	3.59	7.52	-39.8	-54.3	3.8	1.49e+00	0	52	104	0	51	18780
2026-01-04 01:22:25.95	3.49	7.59	-39.8	-54.3	3.8	1.49e+00	0	52	104	0	51	18744
2026-01-04 01:22:26.96	3.40	7.65	-39.8	-54.3	3.8	1.49e+00	0	52	104	0	51	18775
2026-01-04 01:22:27.97	3.31	7.72	-39.8	-54.3	3.8	1.49e+00	0	53	104	0	51	18763
2026-01-04 01:22:28.98	3.21	7.79	-39.8	-54.3	3.8	1.49e+00	0	52	104	0	51	18844
2026-01-04 01:22:29.99	3.12	7.85	-39.8	-54.3	3.8	1.49e+00	0	52	104	0	51	18803
2026-01-04 01:22:31.00	3.02	7.92	-39.8	-54.3	3.8	1.49e+00	0	52	104	0	51	18808
2026-01-04 01:22:32.01	2.93	7.98	-39.8	-54.3	3.8	1.49e+00	0	52	104	0	51	18766
2026-01-04 01:22:33.02	2.83	8.05	-39.8	-54.3	3.8	1.49e+00	0	52	104	0	51	18793
2026-01-04 01:22:34.04	2.73	8.12	-39.8	-54.4	3.8	1.49e+00	0	52	104	0	51	19099
2026-01-04 01:22:35.04	2.64	8.18	-39.8	-54.3	3.8	1.49e+00	0	52	104	0	51	18906
2026-01-04 01:22:36.05	2.54	8.25	-39.8	-54.4	3.8	1.49e+00	0	53	104	0	51	19056
2026-01-04 01:22:37.06	2.44	8.32	-39.8	-54.5	3.8	1.49e+00	0	53	104	0	51	19243
2026-01-04 01:22:38.07	2.34	8.38	-39.8	-54.3	3.8	1.49e+00	0	53	104	0	51	18857
2026-01-04 01:22:39.08	2.24	8.45	-39.8	-54.4	3.8	1.49e+00	0	53	104	0	51	19143
2026-01-04 01:22:40.09	2.14	8.52	-39.8	-54.3	3.8	1.49e+00	0	53	104	0	51	18850
2026-01-04 01:22:41.10	2.04	8.59	-39.9	-54.4	3.8	1.49e+00	0	53	104	0	51	19064
2026-01-04 01:22:42.11	1.94	8.65	-39.6	-54.3	3.8	1.49e+00	0	53	104	0	51	18946
2026-01-04 01:22:43.12	1.84	8.72	-39.9	-54.4	3.8	1.49e+00	0	53	104	0	51	19094
2026-01-04 01:22:44.13	1.74	8.79	-39.6	-54.3	3.8	1.49e+00	0	53	104	0	51	18932
2026-01-04 01:22:45.14	1.64	8.85	-39.7	-54.4	3.8	1.49e+00	0	53	104	0	51	18985
2026-01-04 01:22:46.16	1.54	8.92	-39.8	-54.4	3.8	1.49e+00	0	53	104	0	51	19016
2026-01-04 01:22:47.17	1.43	8.99	-39.6	-54.4	3.8	1.49e+00	0	53	104	0	51	18954
2026-01-04 01:22:48.18	1.33	9.06	-39.8	-54.4	3.8	1.49e+00	0	53	104	0	51	19029
2026-01-04 01:22:49.18	1.23	9.13	-39.8	-54.3	3.8	1.49e+00	0	53	104	0	51	18945
2026-01-04 01:22:50.20	1.12	9.19	-39.4	-54.3	3.8	1.49e+00	0	53	104	0	50	19858
2026-01-04 01:22:51.20	1.02	9.26	-39.8	-54.4	3.8	1.49e+00	0	53	104	0	50	20137
2026-01-04 01:22:52.21	0.91	9.33	-39.5	-54.3	3.8	1.49e+00	0	53	104	0	50	19953
2026-01-04 01:22:53.22	0.81	9.40	-39.7	-54.4	3.8	1.49e+00	0	53	104	0	50	20140
2026-01-04 01:22:54.23	0.70	9.47	-39.6	-54.3	3.8	1.49e+00	0	53	104	0	50	20041
2026-01-04 01:22:55.24	0.59	9.53	-39.6	-54.4	3.8	1.49e+00	0	53	104	0	50	20130
2026-01-04 01:22:56.25	0.49	9.60	-39.6	-54.3	3.8	1.49e+00	0	53	104	0	50	19967
2026-01-04 01:22:57.26	0.38	9.67	-39.8	-54.4	3.8	1.49e+00	0	53	104	0	50	20196
2026-01-04 01:22:58.27	0.27	9.74	-39.5	-54.4	3.8	1.49e+00	0	53	104	0	50	20112
2026-01-04 01:22:59.28	0.16	9.81	-39.8	-54.4	3.8	1.49e+00	0	53	104	0	50	20211
2026-01-04 01:23:00.29	0.05	9.88	-39.5	-54.4	3.8	1.49e+00	0	53	104	0	50	20089
2026-01-04 01:23:01.30	359.94	9.95	-39.5	-54.3	3.8	1.49e+00	0	53	104	0	50	19970
2026-01-04 01:23:02.31	359.83	10.02	-39.7	-54.4	3.8	1.49e+00	0	53	104	0	50	20087
2026-01-04 01:23:03.32	359.72	10.09	-39.5	-54.3	3.8	1.49e+00	0	53	104	0	50	20009
2026-01-04 01:23:04.33	359.61	10.15	-39.7	-54.4	3.8	1.49e+00	0	53	104	0	50	20099
2026-01-04 01:23:05.34	359.49	10.22	-39.6	-54.4	3.8	1.49e+00	0	53	104	0	50	20209
2026-01-04 01:23:06.35	359.38	10.29	-39.3	-54.3	3.8	1.49e+00	0	53	104	0	50	19897
2026-01-04 01:23:07.36	359.27	10.36	-39.5	-54.4	3.8	1.49e+00	0	53	104	0	50	20198
2026-01-04 01:23:08.37	359.15	10.43	-39.4	-54.3	3.8	1.49e+00	0	53	104	0	50	19854
2026-01-04 01:23:09.38	359.04	10.50	-39.6	-54.4	3.8	1.49e+00	0	53	104	0	50	20111
2026-01-04 01:23:10.39	358.92	10.57	-39.4	-54.3	3.8	1.49e+00	0	54	104	0	50	19990
2026-01-04 01:23:11.40	358.81	10.64	-39.7	-54.4	3.8	1.49e+00	0	53	104	0	50	20206
2026-01-04 01:23:12.41	358.69	10.71	-39.5	-54.4	3.8	1.49e+00	0	54	104	0	50	20122
2026-01-04 01:23:13.42	358.58	10.78	-39.6	-54.4	3.8	1.49e+00	0	54	104	0	50	20239
2026-01-04 01:23:14.43	358.46	10.85	-39.6	-54.4	3.8	1.49e+00	0	54	104	0	50	20092
2026-01-04 01:23:15.44	358.34	10.92	-39.7	-54.4	3.8	1.49e+00	0	54	104	0	50	20282
2026-01-04 01:23:16.45	358.22	10.99	-39.6	-54.4	3.8	1.49e+00	0	54	104	0	50	20113
2026-01-04 01:23:17.45	358.10	11.06	-39.8	-54.5	3.8	1.49e+00	0	54	104	0	50	20355
2026-01-04 01:23:18.46	357.98	11.13	-39.8	-54.5	3.8	1.49e+00	0	54	104	0	50	20335
2026-01-04 01:23:19.47	357.86	11.20	-39.8	-54.4	3.8	1.49e+00	0	54	104	0	50	20287
2026-01-04 01:23:20.48	357.74	11.27	-39.8	-54.5	3.8	1.49e+00	0	54	104	0	50	20349
2026-01-04 01:23:21.49	357.62	11.34	-39.8	-54.4	3.8	1.49e+00	0	54	104	0	50	20133
2026-01-04 01:23:22.50	357.50	11.41	-39.8	-54.3	3.8	1.49e+00	0	54	104	0	50	20020
2026-01-04 01:23:23.51	357.38	11.49	-39.9	-54.4	3.8	1.49e+00	0	54	104	0	50	20081
2026-01-04 01:23:24.52	357.25	11.56	-39.8	-54.2	3.8	1.49e+00	0	54	104	0	50	19827
2026-01-04 01:23:25.53	357.13	11.63	-39.9	-54.2	3.8	1.49e+00	0	54	104	0	50	19683
2026-01-04 01:23:26.54	357.00	11.70	-39.9	-53.9	3.8	1.49e+00	0	54	104	0	50	19067
2026-01-04 01:23:27.55	356.88	11.77	-40.0	-53.6	3.8	1.49e+00	0	54	104	0	50	18320
2026-01-04 01:23:28.56	356.75	11.84	-40.0	-53.4	3.8	1.49e+00	0	54	104	0	50	17900
2026-01-04 01:23:29.57	356.63	11.91	-39.9	-52.7	3.8	1.43e+00	0	54	104	0	51	15646
2026-01-04 01:23:30.58	356.50	11.98	-39.9	-52.5	3.8	1.49e+00	0	54	104	0	51	15304
2026-01-04 01:23:31.59	356.37	12.05	-40.2	-50.9	4.6	9.98e-01	0	54	0	1048576	51	12694
2026-01-04 01:23:32.60	356.24	12.13	-40.3	-51.1	4.5	9.83e-01	0	54	0	3145728	51	13065
2026-01-04 01:23:33.61	356.12	12.20	-40.4	-51.8	4.3	1.21e+00	0	54	0	4194304	51	14121
2026-01-04 01:23:34.62	355.99	12.27	-40.5	-52.2	4.1	1.39e+00	0	54	0	4194304	51	14853
2026-01-04 01:23:35.63	355.86	12.34	-40.6	-52.4	4.1	1.42e+00	0	54	0	4194304	51	15107
2026-01-04 01:23:36.64	355.72	12.41	-40.5	-52.5	4.1	1.43e+00	0	54	0	4194304	51	15275
2026-01-04 01:23:37.65	355.59	12.48	-40.5	-52.8	4.0	1.46e+00	0	54	104	4194304	51	15927
2026-01-04 01:23:38.66	355.46	12.56	-40.4	-53.0	3.9	1.48e+00	0	54	104	4194304	51	16225
2026-01-04 01:23:39.67	355.33	12.63	-40.3	-53.2	3.8	1.48e+00	0	54	104	4194304	51	16661
2026-01-04 01:23:40.68	355.19	12.70	-40.3	-53.6	3.8	1.49e+00	0	54	104	4194304	51	17420
2026-01-04 01:23:41.69	355.06	12.77	-40.3	-54.0	3.8	1.49e+00	0	54	104	4194304	51	18249
2026-01-04 01:23:42.70	354.92	12.84	-40.2	-54.3	3.8	1.49e+00	0	54	104	4194304	51	18947
2026-01-04 01:23:43.71	354.79	12.91	-40.2	-54.5	3.8	1.49e+00	0	54	104	4194304	51	19208
2026-01-04 01:23:44.72	354.65	12.99	-40.3	-54.8	3.8	1.49e+00	0	54	104	4194304	51	19859
2026-01-04 01:23:45.73	354.52	13.06	-40.4	-54.8	3.8	1.49e+00	0	54	104	4194304	51	20022
2026-01-04 01:23:46.73	354.38	13.13	-40.1	-54.7	3.8	1.49e+00	0	54	104	4194304	51	19699
2026-01-04 01:23:47.74	354.24	13.20	-40.3	-54.8	3.8	1.49e+00	0	54	104	4194304	51	19921
2026-01-04 01:23:48.76	354.10	13.28	-40.2	-54.7	3.8	1.49e+00	0	54	104	4194304	51	19732
2026-01-04 01:23:49.77	353.96	13.35	-40.3	-54.8	3.8	1.49e+00	0	54	104	4194304	51	20058
2026-01-04 01:23:50.78	353.82	13.42	-40.2	-54.7	3.8	1.49e+00	0	54	104	4194304	51	19810
2026-01-04 01:23:51.79	353.68	13.49	-40.4	-54.9	3.8	1.49e+00	0	54	104	4194304	51	20120
2026-01-04 01:23:52.80	353.54	13.57	-40.1	-54.8	3.8	1.49e+00	0	54	104	4194304	51	20032
2026-01-04 01:23:53.81	353.40	13.64	-40.3	-54.9	3.8	1.49e+00	0	55	104	4194304	51	20195
2026-01-04 01:23:54.82	353.25	13.71	-40.2	-54.9	3.8	1.49e+00	0	54	104	4194304	51	20227
2026-01-04 01:23:55.83	353.11	13.78	-40.6	-55.2	3.8	1.49e+00	0	55	104	4194304	51	20978
2026-01-04 01:23:56.83	352.96	13.86	-40.3	-54.9	3.8	1.49e+00	0	54	104	4194304	51	20165
2026-01-04 01:23:57.84	352.82	13.93	-40.6	-55.2	3.8	1.49e+00	0	54	104	4194304	51	20807
2026-01-04 01:23:58.85	352.67	14.00	-40.4	-55.0	3.8	1.49e+00	0	55	104	4194304	51	20338
2026-01-04 01:23:59.86	352.53	14.07	-40.5	-55.1	3.8	1.49e+00	0	55	104	4194304	51	20574
2026-01-04 01:24:00.87	352.38	14.15	-40.6	-55.1	3.8	1.49e+00	0	55	104	4194304	51	20600
2026-01-04 01:24:01.88	352.23	14.22	-40.5	-55.1	3.8	1.49e+00	0	55	104	4194304	51	20656
2026-01-04 01:24:02.89	352.08	14.29	-40.6	-55.1	3.8	1.49e+00	0	55	104	4194304	51	20570
2026-01-04 01:24:03.90	351.93	14.36	-40.6	-55.1	3.8	1.49e+00	0	55	104	4194304	51	20749
2026-01-04 01:24:04.91	351.78	14.44	-40.6	-55.2	3.8	1.49e+00	0	55	104	4194304	51	20889
2026-01-04 01:24:05.92	351.63	14.51	-40.7	-55.2	3.8	1.49e+00	0	55	104	4194304	51	20964
2026-01-04 01:24:06.93	351.48	14.58	-40.6	-55.2	3.8	1.49e+00	0	55	104	4194304	51	20804
2026-01-04 01:24:07.94	351.32	14.66	-40.5	-55.1	3.8	1.49e+00	0	55	104	4194304	51	20738
2026-01-04 01:24:08.95	351.17	14.73	-40.6	-55.5	3.8	1.49e+00	0	55	104	4194304	52	20526
2026-01-04 01:24:09.96	351.02	14.80	-40.5	-55.1	3.8	1.49e+00	0	55	104	4194304	52	19536
2026-01-04 01:24:10.97	350.86	14.87	-40.7	-55.3	3.8	1.49e+00	0	54	104	4194304	52	19851
2026-01-04 01:24:11.98	350.70	14.95	-40.3	-55.3	3.8	1.49e+00	0	55	104	4194304	52	19960
2026-01-04 01:24:12.99	350.55	15.02	-40.5	-55.1	3.8	1.49e+00	0	55	104	4194304	52	19403
2026-01-04 01:24:14.00	350.39	15.09	-40.2	-55.3	3.8	1.49e+00	0	55	104	4194304	52	19986
2026-01-04 01:24:15.00	350.23	15.17	-40.6	-55.2	3.8	1.49e+00	0	55	104	4194304	52	19623
2026-01-04 01:24:16.01	350.07	15.24	-40.6	-55.2	3.8	1.49e+00	0	55	104	4194304	52	19691
2026-01-04 01:24:17.02	349.91	15.31	-40.4	-55.2	3.8	1.49e+00	0	55	104	4194304	52	19636
2026-01-04 01:24:18.03	349.75	15.38	-40.6	-55.1	3.8	1.49e+00	0	55	104	4194304	52	19521
2026-01-04 01:24:19.04	349.59	15.46	-40.6	-55.3	3.8	1.49e+00	0	55	104	4194304	52	19846
2026-01-04 01:24:20.05	349.43	15.53	-41.1	-55.7	3.8	1.49e+00	0	55	104	4194304	52	20993
2026-01-04 01:24:21.06	349.27	15.60	-40.3	-55.3	3.8	1.49e+00	0	55	104	4194304	52	19944
2026-01-04 01:24:22.07	349.10	15.68	-41.3	-55.9	3.8	1.49e+00	0	55	104	4194304	53	20161
2026-01-04 01:24:23.08	348.94	15.75	-40.2	-55.3	3.8	1.49e+00	0	55	104	4194304	52	19956
2026-01-04 01:24:24.09	348.77	15.82	-40.8	-55.3	3.8	1.49e+00	0	55	104	4194304	52	19914
2026-01-04 01:24:25.10	348.61	15.89	-41.0	-55.6	3.8	1.49e+00	0	55	104	4194304	52	20646
2026-01-04 01:24:26.11	348.44	15.97	-40.9	-55.6	3.8	1.49e+00	0	55	104	4194304	52	20658
2026-01-04 01:24:27.12	348.27	16.04	-41.1	-55.7	3.8	1.49e+00	0	55	104	4194304	52	20996
2026-01-04 01:24:28.13	348.10	16.11	-41.2	-55.8	3.8	1.49e+00	0	55	104	4194304	52	21165
2026-01-04 01:24:29.14	347.93	16.18	-41.6	-56.1	3.8	1.49e+00	0	55	104	4194304	53	20759
2026-01-04 01:24:30.15	347.76	16.26	-41.2	-55.8	3.8	1.49e+00	0	55	104	4194304	53	20021
2026-01-04 01:24:31.16	347.59	16.33	-41.4	-56.2	3.8	1.49e+00	0	55	104	4194304	53	20924
2026-01-04 01:24:32.17	347.42	16.40	-41.8	-56.4	3.8	1.49e+00	0	55	104	4194304	54	20146
2026-01-04 01:24:33.18	347.24	16.48	-41.4	-56.1	3.8	1.49e+00	0	55	104	4194304	54	19548
2026-01-04 01:24:34.19	347.07	16.55	-41.7	-56.3	3.8	1.49e+00	0	55	104	4194304	54	19909
2026-01-04 01:24:35.20	346.89	16.62	-41.3	-56.0	3.8	1.49e+00	0	55	104	4194304	54	19339
2026-01-04 01:24:36.21	346.72	16.69	-41.1	-55.8	3.8	1.49e+00	0	55	104	4194304	54	18915
2026-01-04 01:24:37.22	346.54	16.76	-41.5	-56.2	3.8	1.49e+00	0	55	104	4194304	54	19727
2026-01-04 01:24:38.23	346.36	16.84	-41.0	-55.6	3.8	1.49e+00	0	55	104	4194304	54	18464
2026-01-04 01:24:39.24	346.19	16.91	-41.4	-56.2	3.8	1.49e+00	0	55	104	4194304	54	19789
2026-01-04 01:24:40.25	346.01	16.98	-40.6	-55.3	3.8	1.49e+00	0	55	104	4194304	53	18907
2026-01-04 01:24:41.26	345.83	17.05	-40.5	-55.2	3.8	1.49e+00	0	55	104	4194304	52	19765
2026-01-04 01:24:42.27	345.65	17.12	-40.9	-55.5	3.8	1.49e+00	0	55	104	4194304	52	20394
2026-01-04 01:24:43.28	345.46	17.20	-40.9	-55.5	3.8	1.49e+00	0	55	104	4194304	52	20376
2026-01-04 01:24:44.29	345.28	17.27	-41.0	-55.5	3.8	1.49e+00	0	55	104	4194304	52	20492
2026-01-04 01:24:45.30	345.10	17.34	-40.7	-55.4	3.8	1.49e+00	0	55	104	4194304	52	20186
2026-01-04 01:24:46.31	344.91	17.41	-40.7	-55.3	3.8	1.49e+00	0	55	104	4194304	52	19944
2026-01-04 01:24:47.32	344.73	17.48	-40.4	-55.2	3.8	1.49e+00	0	55	104	4194304	52	19751
2026-01-04 01:24:48.34	344.54	17.55	-40.7	-55.4	3.8	1.49e+00	0	55	104	4194304	52	20111
2026-01-04 01:24:49.35	344.35	17.63	-40.9	-55.5	3.8	1.49e+00	0	55	104	4194304	52	20447
2026-01-04 01:24:50.35	344.17	17.70	-40.4	-55.2	3.8	1.49e+00	0	55	104	4194304	52	19782
2026-01-04 01:24:51.36	343.98	17.77	-40.8	-55.5	3.8	1.49e+00	0	55	104	4194304	52	20402
2026-01-04 01:24:52.37	343.79	17.84	-40.4	-55.1	3.8	1.49e+00	0	55	104	4194304	52	19514
2026-01-04 01:24:53.39	343.59	17.91	-40.1	-55.2	3.8	1.49e+00	0	55	104	4194304	52	19685
2026-01-04 01:24:54.39	343.40	17.98	-40.2	-55.0	3.8	1.49e+00	0	55	104	4194304	52	19315
2026-01-04 01:24:55.40	343.21	18.05	-39.9	-55.3	3.8	1.49e+00	0	55	104	4194304	51	21203
2026-01-04 01:24:56.41	343.02	18.12	-40.4	-55.2	3.8	1.49e+00	0	55	104	4194304	51	20889
2026-01-04 01:24:57.42	342.82	18.19	-40.2	-55.2	3.8	1.49e+00	0	55	104	4194304	51	20887
2026-01-04 01:24:58.43	342.63	18.26	-40.5	-55.2	3.8	1.49e+00	0	55	104	4194304	51	20831
2026-01-04 01:24:59.44	342.43	18.33	-40.3	-55.1	3.8	1.49e+00	0	55	104	4194304	51	20644
2026-01-04 01:25:00.45	342.24	18.40	-40.4	-55.1	3.8	1.49e+00	0	55	104	4194304	51	20604
2026-01-04 01:25:01.46	342.04	18.47	-40.4	-55.2	3.8	1.49e+00	0	55	104	4194304	51	20844
2026-01-04 01:25:02.47	341.84	18.54	-40.3	-55.1	3.8	1.49e+00	0	55	104	4194304	51	20616
2026-01-04 01:25:03.48	341.64	18.61	-40.4	-55.1	3.8	1.49e+00	0	55	104	4194304	51	20681
2026-01-04 01:25:04.48	341.44	18.68	-40.3	-55.1	3.8	1.49e+00	0	55	104	4194304	51	20625
2026-01-04 01:25:05.50	341.24	18.75	-40.3	-55.1	3.8	1.49e+00	0	55	104	4194304	51	20622
2026-01-04 01:25:06.51	341.03	18.81	-40.5	-55.0	3.8	1.49e+00	0	55	104	4194304	52	19302
2026-01-04 01:25:07.52	340.83	18.88	-40.2	-55.0	3.8	1.49e+00	0	55	104	4194304	52	19278
2026-01-04 01:25:08.53	340.62	18.95	-40.6	-54.8	3.8	1.49e+00	0	55	104	4194304	52	18807
2026-01-04 01:25:09.54	340.42	19.02	-40.6	-54.6	3.8	1.49e+00	0	56	104	4194304	52	18464
2026-01-04 01:25:10.55	340.21	19.09	-40.7	-54.3	3.8	1.49e+00	0	56	104	4194304	52	17769
2026-01-04 01:25:11.56	340.01	19.15	-41.2	-54.2	3.8	1.49e+00	0	56	104	4194304	52	17487
2026-01-04 01:25:12.57	339.80	19.22	-40.8	-53.7	3.8	1.15e+00	0	55	104	4194304	53	15613
2026-01-04 01:25:13.58	339.59	19.29	-40.9	-52.4	3.9	1.49e+00	0	55	104	4194304	53	13536
2026-01-04 01:25:14.59	339.38	19.36	-41.5	-48.6	7.2	4.55e-01	0	55	0	5242880	53	8731
2026-01-04 01:25:15.60	339.17	19.42	-41.2	-47.1	9.0	4.79e-02	0	56	0	6291456	53	7320
2026-01-04 01:25:16.61	338.95	19.49	-40.7	-45.5	10.7	8.43e-03	0	55	0	8388608	53	6107
2026-01-04 01:25:17.62	338.74	19.56	-40.2	-44.2	12.3	8.44e-04	0	55	0	10485760	52	5530
2026-01-04 01:25:18.62	338.53	19.62	-39.8	-43.3	13.3	1.98e-05	0	55	0	12582912	51	5333
2026-01-04 01:25:19.63	338.31	19.69	-39.7	-42.9	13.9	4.50e-06	0	55	0	14680064	51	5095
2026-01-04 01:25:20.64	338.10	19.75	-39.7	-42.9	14.0	1.50e-06	0	55	0	15728640	51	5074
2026-01-04 01:25:21.65	337.88	19.82	-39.6	-42.7	14.4	0.00e+00	0	55	0	17825792	51	4941
2026-01-04 01:25:22.66	337.66	19.88	-39.4	-42.4	14.8	7.00e-07	0	55	0	19922944	50	5061
2026-01-04 01:25:23.67	337.44	19.95	-39.4	-42.3	14.9	0.00e+00	0	56	0	22020096	50	4986
2026-01-04 01:25:24.68	337.23	20.01	-39.2	-41.9	15.3	0.00e+00	0	56	0	24117248	50	4800
2026-01-04 01:25:25.69	337.00	20.08	-39.2	-41.9	15.5	0.00e+00	0	56	0	25165824	50	4780
2026-01-04 01:25:26.70	336.78	20.14	-39.3	-42.0	15.5	0.00e+00	0	55	0	27262976	50	4862
2026-01-04 01:25:27.71	336.56	20.21	-39.3	-42.0	15.5	0.00e+00	0	56	0	29360128	50	4865
2026-01-04 01:25:28.71	336.34	20.27	-39.4	-42.1	15.5	0.00e+00	0	56	0	31457280	50	4906
2026-01-04 01:25:29.72	336.12	20.33	-39.6	-42.3	15.3	0.00e+00	0	56	0	33554432	50	5038
2026-01-04 01:25:30.73	335.89	20.39	-39.7	-42.5	15.2	0.00e+00	0	55	0	35651584	50	5150
2026-01-04 01:25:31.74	335.66	20.46	-39.7	-42.4	15.3	0.00e+00	0	56	0	36700160	50	5092
2026-01-04 01:25:32.75	335.44	20.52	-39.7	-42.4	15.4	0.00e+00	0	56	0	38797312	50	5081
2026-01-04 01:25:33.76	335.21	20.58	-39.6	-42.3	15.5	0.00e+00	0	56	0	40894464	50	4992
2026-01-04 01:25:34.77	334.98	20.64	-39.4	-42.1	15.8	0.00e+00	0	56	0	42991616	50	4875
2026-01-04 01:25:35.78	334.75	20.70	-39.5	-42.1	15.7	0.00e+00	0	55	0	45088768	50	4891
2026-01-04 01:25:36.79	334.52	20.77	-39.4	-42.0	15.8	0.00e+00	0	56	0	46137344	50	4848
2026-01-04 01:25:37.79	334.29	20.83	-39.3	-41.8	16.0	0.00e+00	0	56	0	48234496	50	4744
2026-01-04 01:25:38.81	334.05	20.89	-39.3	-41.8	16.1	0.00e+00	0	56	0	50331648	50	4723
2026-01-04 01:25:39.81	333.82	20.95	-39.5	-42.1	15.8	0.00e+00	0	56	0	52428800	50	4888
2026-01-04 01:25:40.82	333.59	21.00	-39.5	-42.1	15.8	0.00e+00	0	56	0	54525952	50	4921
2026-01-04 01:25:41.83	333.35	21.06	-39.4	-42.0	15.9	0.00e+00	0	56	0	55574528	50	4858
2026-01-04 01:25:42.84	333.12	21.12	-39.3	-41.9	16.1	0.00e+00	0	56	0	57671680	50	4760
2026-01-04 01:25:43.85	332.88	21.18	-39.2	-41.6	16.3	0.00e+00	0	56	0	59768832	50	4634
2026-01-04 01:25:44.86	332.64	21.24	-38.9	-41.3	16.6	0.00e+00	0	56	0	61865984	49	4715
2026-01-04 01:25:45.87	332.40	21.30	-38.8	-41.1	16.9	0.00e+00	0	56	0	63963136	49	4603
2026-01-04 01:25:46.88	332.16	21.35	-38.9	-41.2	16.8	0.00e+00	0	56	0	65011712	49	4659
2026-01-04 01:25:47.89	331.92	21.41	-38.8	-41.0	16.9	0.00e+00	0	56	0	67108864	49	4596
2026-01-04 01:25:48.90	331.68	21.47	-39.0	-41.3	16.7	0.00e+00	0	56	0	69206016	49	4731
2026-01-04 01:25:49.91	331.44	21.52	-39.1	-41.4	16.5	0.00e+00	0	56	0	71303168	49	4791
2026-01-04 01:25:50.92	331.19	21.58	-39.2	-41.6	16.4	0.00e+00	0	56	0	73400320	49	4888
2026-01-04 01:25:51.93	330.95	21.63	-39.0	-41.3	16.6	0.00e+00	0	56	0	74448896	49	4745
2026-01-04 01:25:52.94	330.70	21.69	-39.1	-41.4	16.6	0.00e+00	0	56	0	76546048	49	4799
2026-01-04 01:25:53.95	330.46	21.74	-39.0	-41.3	16.7	0.00e+00	0	56	0	78643200	49	4731
2026-01-04 01:25:54.96	330.21	21.80	-38.9	-41.1	16.9	0.00e+00	0	56	0	80740352	49	4629
2026-01-04 01:25:55.97	329.96	21.85	-38.9	-41.1	16.8	0.00e+00	0	56	0	82837504	49	4640
2026-01-04 01:25:56.98	329.71	21.90	-38.9	-41.1	16.9	0.00e+00	0	56	0	83886080	49	4616
2026-01-04 01:25:57.99	329.46	21.95	-39.0	-41.2	16.8	0.00e+00	0	56	0	85983232	49	4679
2026-01-04 01:25:59.00	329.21	22.01	-39.1	-41.3	16.6	0.00e+00	0	56	0	88080384	49	4757
2026-01-04 01:26:00.01	328.96	22.06	-39.2	-41.5	16.5	0.00e+00	0	56	0	90177536	49	4869
2026-01-04 01:26:01.02	328.71	22.11	-39.1	-41.4	16.6	0.00e+00	0	56	0	92274688	49	4806
2026-01-04 01:26:02.03	328.46	22.16	-39.0	-41.3	16.6	0.00e+00	0	56	0	93323264	49	4745
2026-01-04 01:26:03.04	328.20	22.21	-38.9	-41.1	16.9	0.00e+00	0	56	0	95420416	49	4623
2026-01-04 01:26:04.05	327.95	22.26	-38.7	-40.8	17.1	0.00e+00	0	56	0	97517568	49	4491
2026-01-04 01:26:05.06	327.69	22.31	-38.6	-40.7	17.3	0.00e+00	0	56	0	99614720	49	4399
2026-01-04 01:26:06.07	327.44	22.36	-38.8	-40.9	17.1	0.00e+00	0	56	0	101711872	49	4520
2026-01-04 01:26:07.08	327.18	22.40	-38.9	-41.1	16.9	0.00e+00	0	56	0	103809024	49	4618
2026-01-04 01:26:08.09	326.92	22.45	-38.9	-41.1	17.0	0.00e+00	0	56	0	104857600	49	4600
2026-01-04 01:26:09.10	326.66	22.50	-39.1	-41.4	16.6	0.00e+00	0	56	0	106954752	49	4796
2026-01-04 01:26:10.11	326.40	22.54	-39.3	-41.7	16.3	0.00e+00	0	56	0	109051904	49	4949
2026-01-04 01:26:11.12	326.14	22.59	-39.2	-41.5	16.5	0.00e+00	0	56	0	111149056	49	4845
2026-01-04 01:26:12.13	325.88	22.63	-39.2	-41.4	16.6	0.00e+00	0	56	0	113246208	49	4811
2026-01-04 01:26:13.14	325.62	22.68	-39.2	-41.5	16.5	0.00e+00	0	56	0	114294784	49	4835
2026-01-04 01:26:14.15	325.36	22.72	-38.8	-41.0	17.0	0.00e+00	0	56	0	116391936	49	4570
2026-01-04 01:26:15.16	325.09	22.77	-38.8	-41.0	17.1	0.00e+00	0	56	0	118489088	49	4568
2026-01-04 01:26:16.17	324.83	22.81	-38.9	-41.2	16.9	0.00e+00	0	56	0	120586240	49	4659
2026-01-04 01:26:17.18	324.57	22.85	-39.0	-41.2	16.9	0.00e+00	0	56	0	122683392	49	4685
2026-01-04 01:26:18.19	324.30	22.89	-39.1	-41.3	16.6	0.00e+00	0	56	0	123731968	49	4756
2026-01-04 01:26:19.20	324.03	22.93	-39.2	-41.5	16.5	0.00e+00	0	56	0	125829120	49	4833
2026-01-04 01:26:20.21	323.77	22.98	-39.1	-41.4	16.6	0.00e+00	0	56	0	127926272	49	4787
2026-01-04 01:26:21.22	323.50	23.02	-39.1	-41.3	16.7	0.00e+00	0	56	0	130023424	49	4758
2026-01-04 01:26:22.23	323.23	23.05	-38.9	-41.2	16.9	0.00e+00	0	56	0	132120576	49	4656
2026-01-04 01:26:23.24	322.96	23.09	-38.8	-41.0	17.1	0.00e+00	0	56	0	133169152	49	4547
2026-01-04 01:26:24.25	322.69	23.13	-38.6	-40.7	17.3	0.00e+00	0	56	0	135266304	49	4417
2026-01-04 01:26:25.26	322.42	23.17	-38.5	-40.5	17.6	0.00e+00	0	56	0	137363456	48	4550
2026-01-04 01:26:26.27	322.15	23.21	-38.4	-40.3	17.7	0.00e+00	0	56	0	139460608	48	4483
2026-01-04 01:26:27.28	321.88	23.24	-38.3	-40.2	17.8	0.00e+00	0	56	0	141557760	48	4436
2026-01-04 01:26:28.28	321.61	23.28	-38.4	-40.4	17.6	0.00e+00	0	56	0	142606336	48	4541
2026-01-04 01:26:29.29	321.34	23.31	-38.8	-40.9	17.2	0.00e+00	0	56	0	144703488	48	4799
2026-01-04 01:26:30.30	321.06	23.35	-39.0	-41.2	16.9	0.00e+00	0	56	0	146800640	48	4935
2026-01-04 01:26:31.31	320.79	23.38	-39.3	-41.6	16.5	0.00e+00	0	56	0	148897792	49	4905
2026-01-04 01:26:32.32	320.51	23.41	-39.3	-41.6	16.4	0.00e+00	0	56	0	150994944	49	4899
2026-01-04 01:26:33.33	320.24	23.44	-39.3	-41.6	16.4	0.00e+00	0	56	0	152043520	49	4919
2026-01-04 01:26:34.34	319.96	23.48	-39.3	-41.6	16.4	0.00e+00	0	56	0	154140672	49	4926
2026-01-04 01:26:35.35	319.69	23.51	-39.6	-42.1	15.9	0.00e+00	0	56	0	156237824	49	5208
2026-01-04 01:26:36.36	319.41	23.54	-40.0	-42.7	15.4	0.00e+00	0	56	0	158334976	50	5259
2026-01-04 01:26:37.37	319.13	23.57	-40.4	-43.3	14.8	0.00e+00	0	56	0	160432128	51	5311
2026-01-04 01:26:38.38	318.85	23.60	-40.7	-43.8	14.3	7.00e-07	0	56	0	161480704	51	5608
2026-01-04 01:26:39.39	318.57	23.62	-40.7	-43.9	14.1	1.50e-06	0	56	0	163577856	52	5384
2026-01-04 01:26:40.40	318.30	23.65	-40.6	-43.7	14.3	2.20e-06	0	56	0	165675008	52	5258
2026-01-04 01:26:41.41	318.02	23.68	-40.5	-43.5	14.5	7.00e-07	0	56	0	167772160	52	5134
2026-01-04 01:26:42.42	317.74	23.70	-40.4	-43.4	14.6	7.00e-07	0	56	0	169869312	52	5085
2026-01-04 01:26:43.43	317.46	23.73	-40.1	-42.9	15.1	0.00e+00	0	56	0	171966464	52	4790
2026-01-04 01:26:44.44	317.17	23.75	-40.0	-42.7	15.3	0.00e+00	0	56	0	173015040	51	4971
2026-01-04 01:26:45.44	316.90	23.78	-39.8	-42.4	15.6	0.00e+00	0	56	0	175112192	51	4809
2026-01-04 01:26:46.45	316.61	23.80	-39.8	-42.3	15.7	0.00e+00	0	56	0	177209344	51	4749
2026-01-04 01:26:47.46	316.33	23.82	-39.7	-42.3	15.8	0.00e+00	0	56	0	179306496	51	4707
2026-01-04 01:26:48.47	316.05	23.84	-39.7	-42.3	15.7	0.00e+00	0	56	0	181403648	51	4757
2026-01-04 01:26:49.48	315.77	23.86	-39.8	-42.5	15.6	0.00e+00	0	56	0	182452224	51	4836
2026-01-04 01:26:50.49	315.48	23.88	-39.9	-42.5	15.5	0.00e+00	0	56	0	184549376	51	4865
2026-01-04 01:26:51.50	315.20	23.90	-39.8	-42.5	15.5	0.00e+00	0	56	0	186646528	51	4855
2026-01-04 01:26:52.52	314.91	23.92	-39.9	-42.6	15.4	0.00e+00	0	56	0	188743680	51	4897
2026-01-04 01:26:53.52	314.63	23.94	-40.0	-42.8	15.2	0.00e+00	0	56	0	190840832	51	5022
2026-01-04 01:26:54.53	314.35	23.96	-40.1	-43.0	15.0	7.00e-07	0	56	0	191889408	51	5122
2026-01-04 01:26:55.54	314.06	23.97	-40.1	-43.0	15.0	0.00e+00	0	56	0	193986560	51	5124
2026-01-04 01:26:56.56	313.77	23.99	-40.1	-42.9	15.1	0.00e+00	0	56	0	196083712	51	5052
2026-01-04 01:26:57.56	313.49	24.00	-40.1	-42.8	15.2	0.00e+00	0	56	0	198180864	51	5033
2026-01-04 01:26:58.58	313.20	24.02	-40.1	-43.0	15.1	0.00e+00	0	56	0	200278016	51	5103
2026-01-04 01:26:59.59	312.91	24.03	-40.4	-43.4	14.6	0.00e+00	0	56	0	201326592	51	5388
2026-01-04 01:27:00.60	312.63	24.04	-40.7	-43.9	14.1	1.50e-06	0	56	0	203423744	51	5705
2026-01-04 01:27:01.60	312.34	24.06	-40.8	-44.3	13.6	3.80e-06	0	56	0	205520896	52	5612
2026-01-04 01:27:02.61	312.06	24.07	-40.9	-44.3	13.6	1.06e-05	0	56	0	207618048	52	5649
2026-01-04 01:27:03.62	311.77	24.08	-40.7	-44.1	13.8	3.80e-06	0	56	0	209715200	52	5486
2026-01-04 01:27:04.63	311.48	24.09	-40.7	-43.9	14.0	4.50e-06	0	56	0	210763776	52	5388
2026-01-04 01:27:05.64	311.20	24.10	-40.4	-43.5	14.5	0.00e+00	0	56	0	212860928	52	5140
2026-01-04 01:27:06.65	310.91	24.10	-40.3	-43.3	14.6	7.00e-07	0	56	0	214958080	52	5037
2026-01-04 01:27:07.66	310.62	24.11	-40.3	-43.3	14.7	0.00e+00	0	56	0	217055232	52	5029
2026-01-04 01:27:08.67	310.33	24.12	-40.5	-43.7	14.3	0.00e+00	0	56	0	219152384	52	5252
2026-01-04 01:27:09.68	310.04	24.12	-40.8	-44.1	13.8	7.00e-07	0	56	0	220200960	52	5522
2026-01-04 01:27:10.69	309.76	24.13	-40.8	-44.3	13.7	4.50e-06	0	56	0	222298112	52	5597
2026-01-04 01:27:11.70	309.47	24.13	-40.7	-44.0	13.9	9.10e-06	0	56	0	224395264	52	5437
2026-01-04 01:27:12.71	309.18	24.14	-40.8	-44.1	13.8	3.00e-06	0	56	0	226492416	52	5511
2026-01-04 01:27:13.72	308.89	24.14	-40.8	-44.2	13.8	5.30e-06	0	56	0	228589568	52	5537
2026-01-04 01:27:14.72	308.60	24.14	-40.8	-44.1	13.8	5.30e-06	0	56	0	229638144	52	5522
2026-01-04 01:27:15.73	308.32	24.14	-40.6	-43.9	14.0	1.50e-06	0	56	0	231735296	52	5361
2026-01-04 01:27:16.74	308.03	24.14	-40.5	-43.7	14.2	1.50e-06	0	56	0	233832448	52	5254
2026-01-04 01:27:17.75	307.74	24.14	-40.0	-42.9	15.0	7.00e-07	0	56	0	235929600	52	4796
2026-01-04 01:27:18.76	307.45	24.14	-39.7	-42.3	15.6	0.00e+00	0	56	0	238026752	51	4742
2026-01-04 01:27:19.77	307.16	24.14	-39.6	-42.2	15.8	0.00e+00	0	56	0	240123904	51	4659
2026-01-04 01:27:20.78	306.87	24.13	-39.6	-42.2	15.8	0.00e+00	0	56	0	241172480	51	4682
2026-01-04 01:27:21.79	306.59	24.13	-39.7	-42.4	15.6	0.00e+00	0	56	0	243269632	51	4786
2026-01-04 01:27:22.80	306.30	24.12	-39.9	-42.7	15.4	0.00e+00	0	56	0	245366784	51	4927
2026-01-04 01:27:23.81	306.01	24.12	-40.1	-43.0	14.9	0.00e+00	0	56	0	247463936	51	5137
2026-01-04 01:27:24.82	305.72	24.11	-40.1	-43.0	14.8	7.00e-07	0	56	0	249561088	51	5137
2026-01-04 01:27:25.83	305.43	24.11	-40.2	-43.3	14.7	7.00e-07	0	56	0	250609664	51	5294
2026-01-04 01:27:26.84	305.15	24.10	-40.3	-43.4	14.6	0.00e+00	0	56	0	252706816	51	5374
2026-01-04 01:27:27.85	304.86	24.09	-40.4	-43.5	14.5	0.00e+00	0	56	0	254803968	51	5406
2026-01-04 01:27:28.86	304.57	24.08	-40.5	-43.7	14.3	3.00e-06	0	56	0	256901120	51	5559
2026-01-04 01:27:29.87	304.28	24.07	-40.5	-43.7	14.3	3.80e-06	0	56	0	257949696	51	5543
2026-01-04 01:27:30.88	304.00	24.06	-40.5	-43.7	14.4	0.00e+00	0	56	0	260046848	51	5530
2026-01-04 01:27:31.89	303.71	24.05	-40.3	-43.3	14.6	0.00e+00	0	56	0	262144000	51	5332
2026-01-04 01:27:32.90	303.42	24.04	-39.9	-42.7	15.2	0.00e+00	0	56	0	264241152	51	4968
2026-01-04 01:27:33.91	303.14	24.02	-39.8	-42.5	15.5	0.00e+00	0	56	0	266338304	51	4823
2026-01-04 01:27:34.92	302.85	24.01	-39.7	-42.3	15.7	0.00e+00	0	56	0	268435456	51	4735
2026-01-04 01:27:35.93	302.56	23.99	-39.8	-42.4	15.6	0.00e+00	0	56	0	269484032	51	4809
2026-01-04 01:27:36.94	302.28	23.98	-39.9	-42.5	15.5	0.00e+00	0	56	0	271581184	51	4864
2026-01-04 01:27:37.95	301.99	23.96	-39.5	-42.0	16.0	0.00e+00	0	56	0	273678336	51	4594
2026-01-04 01:27:38.96	301.71	23.94	-39.4	-41.8	16.2	0.00e+00	0	56	0	275775488	50	4734
2026-01-04 01:27:39.97	301.42	23.93	-39.4	-41.9	16.1	0.00e+00	0	56	0	277872640	50	4781
2026-01-04 01:27:40.98	301.14	23.91	-39.5	-42.0	16.0	0.00e+00	0	56	0	278921216	50	4868
2026-01-04 01:27:41.99	300.85	23.89	-39.9	-42.6	15.4	0.00e+00	0	56	0	281018368	50	5204
2026-01-04 01:27:43.00	300.57	23.87	-40.1	-42.8	15.3	0.00e+00	0	56	0	283115520	50	5327
2026-01-04 01:27:44.01	300.29	23.85	-40.0	-42.7	15.3	0.00e+00	0	56	0	285212672	50	5252
2026-01-04 01:27:45.02	300.00	23.83	-39.8	-42.4	15.7	0.00e+00	0	56	0	287309824	50	5068
2026-01-04 01:27:46.03	299.72	23.81	-39.8	-42.1	15.9	0.00e+00	0	56	0	288358400	50	4925
2026-01-04 01:27:47.04	299.44	23.78	-39.8	-42.2	16.0	0.00e+00	0	56	0	290455552	50	4937
2026-01-04 01:27:48.05	299.16	23.76	-39.4	-41.7	16.4	0.00e+00	0	56	0	292552704	50	4684
2026-01-04 01:27:49.06	298.88	23.73	-39.4	-41.7	16.4	0.00e+00	0	56	0	294649856	50	4665
2026-01-04 01:27:50.07	298.59	23.71	-39.2	-41.3	16.8	0.00e+00	0	56	0	296747008	50	4484
2026-01-04 01:27:51.08	298.31	23.68	-38.7	-40.7	17.4	0.00e+00	0	56	0	297795584	49	4427
2026-01-04 01:27:52.09	298.03	23.66	-38.5	-40.4	17.7	0.00e+00	0	56	0	299892736	48	4498
2026-01-04 01:27:53.10	297.75	23.63	-38.3	-40.1	17.9	0.00e+00	0	56	0	301989888	48	4385
2026-01-04 01:27:54.11	297.48	23.60	-38.2	-40.1	18.0	0.00e+00	0	56	0	304087040	48	4350
2026-01-04 01:27:55.12	297.20	23.57	-38.2	-40.0	18.0	0.00e+00	0	56	0	306184192	48	4337
2026-01-04 01:27:56.13	296.92	23.54	-38.3	-40.2	17.9	0.00e+00	0	56	0	308281344	48	4418
2026-01-04 01:27:57.14	296.64	23.51	-38.4	-40.3	17.8	0.00e+00	0	56	0	309329920	48	4479
2026-01-04 01:27:58.15	296.36	23.48	-38.3	-40.2	17.9	0.00e+00	0	56	0	311427072	48	4405
2026-01-04 01:27:59.16	296.09	23.45	-38.6	-40.5	17.6	0.00e+00	0	56	0	313524224	48	4574
2026-01-04 01:28:00.17	295.81	23.42	-38.8	-40.8	17.3	0.00e+00	0	56	0	315621376	48	4731
2026-01-04 01:28:01.18	295.54	23.39	-38.9	-40.9	17.2	0.00e+00	0	56	0	317718528	48	4800
2026-01-04 01:28:02.19	295.26	23.35	-38.9	-40.9	17.2	0.00e+00	0	56	0	318767104	48	4770
2026-01-04 01:28:03.20	294.99	23.32	-39.0	-41.1	17.0	0.00e+00	0	56	0	320864256	48	4898
2026-01-04 01:28:04.21	294.71	23.28	-39.2	-41.3	16.9	0.00e+00	0	56	0	322961408	48	5001
2026-01-04 01:28:05.22	294.44	23.25	-39.2	-41.3	16.8	0.00e+00	0	56	0	325058560	49	4734
2026-01-04 01:28:06.23	294.17	23.21	-39.2	-41.4	16.7	0.00e+00	0	56	0	327155712	49	4768
2026-01-04 01:28:07.23	293.90	23.18	-39.1	-41.3	16.8	0.00e+00	0	56	0	328204288	49	4708
2026-01-04 01:28:08.24	293.63	23.14	-39.0	-41.1	17.0	0.00e+00	0	56	0	330301440	49	4626
2026-01-04 01:28:09.25	293.36	23.10	-39.1	-41.2	16.9	0.00e+00	0	56	0	332398592	49	4669
2026-01-04 01:28:10.26	293.09	23.06	-39.4	-41.6	16.5	0.00e+00	0	56	0	334495744	49	4926
2026-01-04 01:28:11.27	292.82	23.02	-39.7	-42.0	16.1	0.00e+00	0	56	0	336592896	49	5135
2026-01-04 01:28:12.28	292.55	22.98	-39.9	-42.4	15.8	0.00e+00	0	56	0	337641472	50	5050
2026-01-04 01:28:13.29	292.28	22.94	-39.8	-42.2	15.9	0.00e+00	0	56	0	339738624	50	4981
2026-01-04 01:28:14.30	292.02	22.90	-39.6	-41.9	16.3	0.00e+00	0	56	0	341835776	50	4762
2026-01-04 01:28:15.31	291.75	22.86	-39.5	-41.8	16.3	0.00e+00	0	57	0	343932928	50	4731
2026-01-04 01:28:16.32	291.48	22.82	-39.4	-41.6	16.5	0.00e+00	0	56	0	346030080	50	4639
2026-01-04 01:28:17.33	291.22	22.78	-39.6	-41.9	16.3	0.00e+00	0	56	0	347078656	50	4777
2026-01-04 01:28:18.34	290.95	22.73	-39.6	-41.9	16.3	0.00e+00	0	56	0	349175808	50	4792
2026-01-04 01:28:19.35	290.69	22.69	-39.7	-42.0	16.1	0.00e+00	0	56	0	351272960	50	4844
2026-01-04 01:28:20.36	290.43	22.64	-39.8	-42.2	15.9	0.00e+00	0	56	0	353370112	50	4960
2026-01-04 01:28:21.36	290.17	22.60	-40.0	-42.5	15.6	0.00e+00	0	56	0	355467264	50	5151
2026-01-04 01:28:22.38	289.91	22.55	-40.2	-42.8	15.4	0.00e+00	0	56	0	356515840	50	5287
2026-01-04 01:28:23.39	289.65	22.51	-40.3	-42.9	15.2	0.00e+00	0	56	0	358612992	51	5098
2026-01-04 01:28:24.40	289.39	22.46	-40.3	-43.0	15.2	0.00e+00	0	56	0	360710144	51	5125
2026-01-04 01:28:25.40	289.13	22.41	-40.5	-43.2	14.9	0.00e+00	0	56	0	362807296	51	5268
2026-01-04 01:28:26.41	288.87	22.37	-40.6	-43.3	14.8	0.00e+00	0	56	0	364904448	51	5338
2026-01-04 01:28:27.42	288.61	22.32	-40.7	-43.7	14.4	0.00e+00	0	56	0	365953024	52	5220
2026-01-04 01:28:28.43	288.36	22.27	-40.8	-43.8	14.3	1.50e-06	0	56	0	368050176	52	5312
2026-01-04 01:28:29.44	288.10	22.22	-40.7	-43.7	14.4	7.00e-07	0	56	0	370147328	52	5219
2026-01-04 01:28:30.45	287.85	22.17	-40.6	-43.5	14.6	7.00e-07	0	56	0	372244480	52	5113
2026-01-04 01:28:31.46	287.59	22.12	-40.5	-43.3	14.7	7.00e-07	0	56	0	374341632	52	5014
2026-01-04 01:28:32.47	287.34	22.07	-40.5	-43.2	14.8	7.00e-07	0	56	0	376438784	52	4982
2026-01-04 01:28:33.48	287.09	22.02	-40.3	-43.0	15.1	7.00e-07	0	56	0	377487360	52	4848
2026-01-04 01:28:34.49	286.84	21.96	-40.3	-43.0	15.1	0.00e+00	0	57	0	379584512	52	4826
2026-01-04 01:28:35.50	286.59	21.91	-40.3	-43.0	15.1	0.00e+00	0	56	0	381681664	52	4821
2026-01-04 01:28:36.51	286.34	21.86	-40.4	-43.3	14.8	0.00e+00	0	56	0	383778816	52	4984
2026-01-04 01:28:37.52	286.09	21.81	-40.7	-43.6	14.5	7.00e-07	0	56	0	385875968	52	5172
2026-01-04 01:28:38.53	285.84	21.75	-40.8	-43.9	14.2	0.00e+00	0	56	0	386924544	52	5363
2026-01-04 01:28:39.54	285.59	21.70	-40.8	-43.8	14.4	0.00e+00	0	57	0	389021696	52	5284
2026-01-04 01:28:40.55	285.35	21.64	-40.5	-43.4	14.7	0.00e+00	0	56	0	391118848	52	5062
2026-01-04 01:28:41.56	285.10	21.59	-40.4	-43.2	14.8	7.00e-07	0	56	0	393216000	52	4950
2026-01-04 01:28:42.57	284.86	21.53	-40.4	-43.1	14.9	0.00e+00	0	56	0	395313152	52	4910
2026-01-04 01:28:43.58	284.61	21.48	-40.3	-43.0	15.0	0.00e+00	0	57	0	396361728	52	4837
2026-01-04 01:28:44.59	284.37	21.42	-40.4	-43.1	14.9	0.00e+00	0	56	0	398458880	52	4926
2026-01-04 01:28:45.60	284.13	21.36	-40.4	-43.2	14.9	0.00e+00	0	56	0	400556032	52	4955
2026-01-04 01:28:46.61	283.89	21.31	-40.1	-42.8	15.3	7.00e-07	0	56	0	402653184	52	4713
2026-01-04 01:28:47.62	283.65	21.25	-40.2	-42.9	15.1	0.00e+00	0	56	0	404750336	52	4795
2026-01-04 01:28:48.63	283.41	21.19	-40.2	-42.8	15.2	0.00e+00	0	56	0	405798912	52	4723
2026-01-04 01:28:49.64	283.17	21.13	-40.3	-43.0	15.0	0.00e+00	0	56	0	407896064	52	4846
2026-01-04 01:28:50.65	282.93	21.07	-40.5	-43.3	14.7	7.00e-07	0	56	0	409993216	52	5022
2026-01-04 01:28:51.66	282.69	21.01	-40.8	-43.9	14.1	2.20e-06	0	56	0	412090368	52	5360
2026-01-04 01:28:52.67	282.46	20.95	-40.9	-44.0	14.0	1.50e-06	0	56	0	414187520	52	5425
2026-01-04 01:28:53.68	282.22	20.89	-41.0	-44.1	13.9	3.80e-06	0	56	0	415236096	52	5476
2026-01-04 01:28:54.69	281.99	20.83	-40.9	-43.9	14.0	1.50e-06	0	56	0	417333248	52	5392
2026-01-04 01:28:55.70	281.76	20.77	-40.9	-43.9	14.1	3.80e-06	0	56	0	419430400	52	5378
2026-01-04 01:28:56.71	281.53	20.71	-40.6	-43.6	14.4	2.20e-06	0	56	0	421527552	52	5173
2026-01-04 01:28:57.72	281.30	20.65	-40.5	-43.4	14.6	0.00e+00	0	56	0	423624704	52	5075
2026-01-04 01:28:58.73	281.07	20.59	-40.6	-43.5	14.4	3.00e-06	0	56	0	424673280	52	5138
2026-01-04 01:28:59.74	280.84	20.53	-40.6	-43.6	14.4	7.00e-07	0	56	0	426770432	52	5182
2026-01-04 01:29:00.75	280.61	20.46	-40.9	-44.1	13.9	7.00e-07	0	56	0	428867584	52	5481
2026-01-04 01:29:01.76	280.38	20.40	-41.3	-44.7	13.3	9.90e-06	0	56	0	430964736	53	5567
2026-01-04 01:29:02.77	280.15	20.34	-41.5	-45.1	12.9	5.03e-05	0	56	0	433061888	53	5796
2026-01-04 01:29:03.78	279.93	20.28	-41.4	-45.0	12.9	6.25e-05	0	56	0	434110464	53	5768
2026-01-04 01:29:04.79	279.70	20.21	-41.5	-45.2	12.7	5.34e-05	0	56	0	436207616	53	5907
2026-01-04 01:29:05.80	279.48	20.15	-41.4	-44.9	13.0	6.02e-05	0	56	0	438304768	53	5690
2026-01-04 01:29:06.81	279.26	20.08	-41.2	-44.6	13.3	9.90e-06	0	56	0	440401920	53	5487
2026-01-04 01:29:07.82	279.04	20.02	-40.7	-43.7	14.2	4.50e-06	0	56	0	442499072	53	4983
2026-01-04 01:29:08.83	278.82	19.95	-40.4	-43.2	14.7	0.00e+00	0	56	0	444596224	52	4960
2026-01-04 01:29:09.84	278.60	19.89	-40.3	-43.1	14.8	7.00e-07	0	56	0	445644800	52	4897
2026-01-04 01:29:10.85	278.38	19.82	-40.0	-42.7	15.3	0.00e+00	0	57	0	447741952	52	4657
2026-01-04 01:29:11.86	278.16	19.76	-40.1	-42.6	15.4	0.00e+00	0	56	0	449839104	51	4923
2026-01-04 01:29:12.87	277.94	19.69	-40.0	-42.6	15.4	0.00e+00	0	57	0	451936256	51	4891
2026-01-04 01:29:13.87	277.73	19.63	-40.0	-42.6	15.4	0.00e+00	0	56	0	454033408	51	4887
2026-01-04 01:29:14.88	277.51	19.56	-39.8	-42.2	15.7	0.00e+00	0	56	0	455081984	51	4702
2026-01-04 01:29:15.90	277.30	19.49	-39.8	-42.2	15.9	0.00e+00	0	57	0	457179136	51	4657
2026-01-04 01:29:16.91	277.08	19.43	-39.6	-41.9	16.0	0.00e+00	0	57	0	459276288	51	4536
2026-01-04 01:29:17.92	276.87	19.36	-39.6	-41.9	16.0	0.00e+00	0	56	0	461373440	51	4529
2026-01-04 01:29:18.93	276.66	19.29	-39.6	-41.9	16.1	0.00e+00	0	56	0	463470592	51	4521
2026-01-04 01:29:19.94	276.45	19.23	-39.5	-41.7	16.3	0.00e+00	0	57	0	464519168	50	4685
2026-01-04 01:29:20.95	276.24	19.16	-39.4	-41.7	16.3	0.00e+00	0	57	0	466616320	50	4685
2026-01-04 01:29:21.96	276.03	19.09	-39.0	-41.1	16.9	0.00e+00	0	56	0	468713472	50	4358
2026-01-04 01:29:22.97	275.82	19.02	-38.9	-41.0	17.0	0.00e+00	0	56	0	470810624	49	4559
2026-01-04 01:29:23.98	275.62	18.95	-38.9	-41.0	17.0	0.00e+00	0	56	0	472907776	49	4553
2026-01-04 01:29:24.99	275.41	18.88	-38.9	-41.0	17.0	0.00e+00	0	56	0	473956352	49	4546
2026-01-04 01:29:25.99	275.21	18.82	-39.2	-41.4	16.6	0.00e+00	0	56	0	476053504	49	4779
2026-01-04 01:29:27.00	275.01	18.75	-39.5	-41.8	16.2	0.00e+00	0	56	0	478150656	49	5011
2026-01-04 01:29:28.01	274.80	18.68	-39.7	-42.1	15.9	0.00e+00	0	56	0	480247808	49	5184
2026-01-04 01:29:29.02	274.60	18.61	-40.2	-42.8	15.2	0.00e+00	0	56	0	482344960	50	5334
2026-01-04 01:29:30.03	274.40	18.54	-40.4	-43.2	14.8	0.00e+00	0	56	0	483393536	51	5260
2026-01-04 01:29:31.04	274.20	18.47	-40.6	-43.4	14.6	0.00e+00	0	57	0	485490688	51	5390
2026-01-04 01:29:32.05	274.00	18.40	-40.6	-43.4	14.5	0.00e+00	0	56	0	487587840	51	5391
2026-01-04 01:29:33.06	273.80	18.33	-40.7	-43.7	14.2	0.00e+00	0	56	0	489684992	52	5219
2026-01-04 01:29:34.07	273.60	18.26	-40.7	-43.7	14.2	2.20e-06	0	57	0	491782144	52	5256
2026-01-04 01:29:35.08	273.41	18.19	-40.6	-43.6	14.3	1.50e-06	0	56	0	492830720	52	5208
2026-01-04 01:29:36.09	273.21	18.12	-40.5	-43.4	14.5	2.20e-06	0	56	0	494927872	52	5051
2026-01-04 01:29:37.10	273.02	18.05	-40.3	-43.0	14.8	7.00e-07	0	56	0	497025024	52	4864
2026-01-04 01:29:38.11	272.82	17.98	-40.3	-43.1	14.9	7.00e-07	0	56	0	499122176	52	4879
2026-01-04 01:29:39.12	272.63	17.91	-40.1	-42.7	15.1	0.00e+00	0	57	0	501219328	52	4698
2026-01-04 01:29:40.13	272.44	17.84	-40.0	-42.6	15.3	0.00e+00	0	56	0	502267904	52	4623
2026-01-04 01:29:41.14	272.25	17.77	-39.9	-42.4	15.6	0.00e+00	0	56	0	504365056	51	4783
2026-01-04 01:29:42.15	272.06	17.70	-39.7	-42.1	15.9	0.00e+00	0	57	0	506462208	51	4600
2026-01-04 01:29:43.16	271.87	17.62	-39.5	-41.9	16.1	0.00e+00	0	56	0	508559360	51	4522
2026-01-04 01:29:44.17	271.68	17.55	-39.5	-41.8	16.1	0.00e+00	0	57	0	510656512	50	4755
2026-01-04 01:29:45.18	271.49	17.48	-39.6	-41.9	16.0	0.00e+00	0	57	0	512753664	50	4814
2026-01-04 01:29:46.19	271.31	17.41	-39.8	-42.3	15.7	0.00e+00	0	56	0	513802240	50	4986
2026-01-04 01:29:47.19	271.12	17.34	-39.9	-42.5	15.5	0.00e+00	0	57	0	515899392	50	5106
2026-01-04 01:29:48.20	270.94	17.27	-40.2	-42.9	15.0	0.00e+00	0	56	0	517996544	51	5096
2026-01-04 01:29:49.21	270.75	17.19	-40.5	-43.4	14.5	7.00e-07	0	57	0	520093696	51	5367
2026-01-04 01:29:50.22	270.57	17.12	-40.6	-43.5	14.5	1.50e-06	0	56	0	522190848	51	5403
2026-01-04 01:29:51.23	270.39	17.05	-40.4	-43.2	14.7	0.00e+00	0	56	0	523239424	51	5274
2026-01-04 01:29:52.24	270.21	16.98	-40.3	-43.1	14.9	0.00e+00	0	56	0	525336576	51	5181
2026-01-04 01:29:53.25	270.03	16.91	-40.2	-42.8	15.1	0.00e+00	0	57	0	527433728	51	5025
2026-01-04 01:29:54.26	269.85	16.83	-40.1	-42.7	15.2	0.00e+00	0	56	0	529530880	51	4965
2026-01-04 01:29:55.27	269.67	16.76	-40.2	-42.9	15.0	0.00e+00	0	57	0	530579456	51	5097
2026-01-04 01:29:56.28	269.49	16.69	-40.4	-43.2	14.7	7.00e-07	0	56	0	532676608	51	5256
2026-01-04 01:29:57.29	269.31	16.62	-40.5	-43.4	14.6	7.00e-07	0	56	0	534773760	51	5348
2026-01-04 01:29:58.30	269.14	16.54	-40.5	-43.3	14.6	0.00e+00	0	56	0	536870912	51	5326
2026-01-04 01:29:59.31	268.96	16.47	-40.5	-43.3	14.6	0.00e+00	0	56	0	538968064	51	5339
2026-01-04 01:30:00.32	268.79	16.40	-40.4	-43.2	14.7	7.00e-07	0	57	0	541065216	51	5252
2026-01-04 01:30:01.32	268.62	16.33	-40.3	-43.0	14.9	7.00e-07	0	57	0	542113792	51	5134
2026-01-04 01:30:02.33	268.44	16.25	-40.1	-42.8	15.2	0.00e+00	0	56	0	544210944	51	4984
2026-01-04 01:30:03.34	268.27	16.18	-40.0	-42.6	15.3	0.00e+00	0	56	0	546308096	51	4892
2026-01-04 01:30:04.35	268.10	16.11	-39.9	-42.4	15.5	0.00e+00	0	56	0	548405248	51	4782
2026-01-04 01:30:05.36	267.93	16.04	-39.7	-42.1	15.8	0.00e+00	0	57	0	550502400	51	4651
2026-01-04 01:30:06.37	267.76	15.96	-39.7	-42.1	15.8	0.00e+00	0	57	0	551550976	51	4610
2026-01-04 01:30:07.38	267.59	15.89	-39.5	-41.9	16.0	0.00e+00	0	57	0	553648128	51	4496
2026-01-04 01:30:08.40	267.42	15.82	-39.4	-41.7	16.2	0.00e+00	0	57	0	555745280	50	4678
2026-01-04 01:30:09.41	267.26	15.74	-39.4	-41.7	16.2	0.00e+00	0	56	0	557842432	50	4668
2026-01-04 01:30:10.42	267.09	15.67	-39.4	-41.6	16.3	0.00e+00	0	57	0	559939584	50	4646
2026-01-04 01:30:11.43	266.93	15.60	-39.5	-41.9	16.0	0.00e+00	0	56	0	560988160	50	4772
2026-01-04 01:30:12.43	266.76	15.52	-39.6	-42.1	15.8	0.00e+00	0	57	0	563085312	50	4877
2026-01-04 01:30:13.44	266.60	15.45	-39.7	-42.2	15.7	0.00e+00	0	56	0	565182464	50	4933
2026-01-04 01:30:14.45	266.44	15.38	-39.5	-41.9	16.0	0.00e+00	0	56	0	567279616	50	4796
2026-01-04 01:30:15.46	266.27	15.30	-39.4	-41.7	16.1	0.00e+00	0	56	0	569376768	50	4691
2026-01-04 01:30:16.47	266.11	15.23	-39.2	-41.5	16.4	0.00e+00	0	56	0	570425344	50	4555
2026-01-04 01:30:17.48	265.95	15.16	-39.0	-41.2	16.7	0.00e+00	0	56	0	572522496	50	4395
2026-01-04 01:30:18.49	265.79	15.08	-38.9	-41.0	16.8	0.00e+00	0	56	0	574619648	49	4581
2026-01-04 01:30:19.50	265.63	15.01	-38.8	-40.9	16.9	0.00e+00	0	57	0	576716800	49	4539
2026-01-04 01:30:20.51	265.48	14.94	-38.8	-40.9	17.0	0.00e+00	0	57	0	578813952	49	4512
2026-01-04 01:30:21.52	265.32	14.87	-38.9	-41.1	16.7	0.00e+00	0	56	0	580911104	49	4605
2026-01-04 01:30:22.53	265.16	14.79	-39.0	-41.2	16.6	0.00e+00	0	57	0	581959680	49	4685
2026-01-04 01:30:23.54	265.01	14.72	-39.2	-41.4	16.3	0.00e+00	0	56	0	584056832	49	4798
2026-01-04 01:30:24.55	264.85	14.65	-39.3	-41.6	16.2	0.00e+00	0	57	0	586153984	49	4919
2026-01-04 01:30:25.56	264.70	14.57	-39.5	-41.9	15.9	0.00e+00	0	56	0	588251136	49	5088
2026-01-04 01:30:26.57	264.55	14.50	-39.4	-41.8	16.0	0.00e+00	0	57	0	590348288	49	4994
2026-01-04 01:30:27.58	264.39	14.43	-39.6	-42.1	15.8	0.00e+00	0	57	0	591396864	49	5163
2026-01-04 01:30:28.59	264.24	14.35	-39.6	-42.0	15.8	0.00e+00	0	57	0	593494016	49	5154
2026-01-04 01:30:29.60	264.09	14.28	-39.7	-42.1	15.7	0.00e+00	0	56	0	595591168	49	5211
2026-01-04 01:30:30.61	263.94	14.21	-39.7	-42.2	15.7	0.00e+00	0	56	0	597688320	50	4946
2026-01-04 01:30:31.62	263.79	14.13	-39.7	-42.2	15.6	0.00e+00	0	56	0	599785472	50	4956
2026-01-04 01:30:32.63	263.64	14.06	-39.6	-42.0	15.8	0.00e+00	0	56	0	600834048	50	4817
2026-01-04 01:30:33.64	263.49	13.99	-39.4	-41.7	16.1	0.00e+00	0	57	0	602931200	50	4687
2026-01-04 01:30:34.65	263.35	13.92	-39.4	-41.7	16.1	0.00e+00	0	57	0	605028352	50	4671
2026-01-04 01:30:35.66	263.20	13.84	-39.3	-41.5	16.3	0.00e+00	0	56	0	607125504	50	4583
2026-01-04 01:30:36.67	263.05	13.77	-39.3	-41.6	16.2	0.00e+00	0	56	0	609222656	50	4614
2026-01-04 01:30:37.68	262.91	13.70	-39.3	-41.7	16.1	0.00e+00	0	57	0	610271232	50	4654
2026-01-04 01:30:38.69	262.76	13.62	-39.4	-41.8	16.0	0.00e+00	0	56	0	612368384	50	4715
2026-01-04 01:30:39.70	262.62	13.55	-39.6	-42.1	15.7	0.00e+00	0	57	0	614465536	50	4891
2026-01-04 01:30:40.71	262.48	13.48	-39.9	-42.4	15.4	0.00e+00	0	57	0	616562688	50	5096
2026-01-04 01:30:41.72	262.33	13.41	-40.1	-42.8	15.0	0.00e+00	0	57	0	618659840	50	5320
2026-01-04 01:30:42.73	262.19	13.33	-40.1	-42.8	15.0	0.00e+00	0	56	0	619708416	50	5303
2026-01-04 01:30:43.74	262.05	13.26	-40.1	-42.9	14.9	7.00e-07	0	57	0	621805568	50	5358
2026-01-04 01:30:44.75	261.91	13.19	-40.1	-42.9	14.9	0.00e+00	0	56	0	623902720	50	5358
2026-01-04 01:30:45.76	261.77	13.11	-40.2	-42.9	14.8	0.00e+00	0	57	0	625999872	50	5385
2026-01-04 01:30:46.77	261.63	13.04	-40.2	-43.0	14.8	0.00e+00	0	57	0	628097024	50	5405
2026-01-04 01:30:47.78	261.50	12.97	-40.1	-42.9	14.9	7.00e-07	0	57	0	629145600	51	5071
2026-01-04 01:30:48.79	261.36	12.90	-40.0	-42.7	15.0	0.00e+00	0	57	0	631242752	51	4932
2026-01-04 01:30:49.80	261.22	12.83	-40.0	-42.6	15.1	0.00e+00	0	57	0	633339904	51	4921
2026-01-04 01:30:50.81	261.09	12.75	-40.1	-42.8	14.9	0.00e+00	0	57	0	635437056	51	5021
2026-01-04 01:30:51.82	260.95	12.68	-39.9	-42.5	15.3	7.00e-07	0	57	0	637534208	51	4837
2026-01-04 01:30:52.83	260.82	12.61	-39.8	-42.4	15.4	0.00e+00	0	56	0	638582784	51	4764
2026-01-04 01:30:53.84	260.68	12.54	-39.6	-42.1	15.6	0.00e+00	0	56	0	640679936	51	4640
2026-01-04 01:30:54.84	260.55	12.47	-39.5	-41.9	15.8	0.00e+00	0	56	0	642777088	51	4518
2026-01-04 01:30:55.85	260.42	12.39	-39.4	-41.8	15.9	0.00e+00	0	57	0	644874240	50	4755
2026-01-04 01:30:56.86	260.28	12.32	-39.4	-41.7	16.0	0.00e+00	0	56	0	646971392	50	4684
2026-01-04 01:30:57.87	260.15	12.25	-39.5	-41.9	15.9	0.00e+00	0	56	0	649068544	50	4761
2026-01-04 01:30:58.88	260.02	12.18	-39.4	-41.8	15.9	0.00e+00	0	56	0	650117120	50	4733
2026-01-04 01:30:59.89	259.89	12.11	-39.8	-42.4	15.3	0.00e+00	0	57	0	652214272	50	5072
2026-01-04 01:31:00.90	259.76	12.03	-40.0	-42.6	15.1	0.00e+00	0	57	0	654311424	50	5202
2026-01-04 01:31:01.91	259.63	11.96	-40.2	-43.0	14.8	0.00e+00	0	57	0	656408576	50	5421
2026-01-04 01:31:02.92	259.51	11.89	-40.4	-43.3	14.4	2.20e-06	0	57	0	657457152	51	5293
2026-01-04 01:31:03.93	259.38	11.82	-40.6	-43.7	14.0	7.00e-07	0	57	0	659554304	51	5564
2026-01-04 01:31:04.94	259.25	11.75	-40.5	-43.6	14.1	3.80e-06	0	56	0	661651456	52	5161
2026-01-04 01:31:05.95	259.13	11.68	-40.5	-43.6	14.1	1.50e-06	0	56	0	663748608	52	5163
2026-01-04 01:31:06.96	259.00	11.61	-40.5	-43.6	13.9	6.10e-06	0	57	0	665845760	52	5214
2026-01-04 01:31:07.97	258.87	11.53	-40.2	-43.1	14.6	3.00e-06	0	57	0	666894336	52	4881
2026-01-04 01:31:08.98	258.75	11.46	-40.1	-43.0	14.7	0.00e+00	0	57	0	668991488	52	4821
2026-01-04 01:31:09.99	258.63	11.39	-40.0	-42.7	14.9	0.00e+00	0	57	0	671088640	51	4982
2026-01-04 01:31:11.00	258.50	11.32	-40.0	-42.7	15.0	0.00e+00	0	57	0	673185792	51	4938
2026-01-04 01:31:12.00	258.38	11.25	-40.0	-42.8	14.9	0.00e+00	0	56	0	675282944	51	5001
2026-01-04 01:31:13.01	258.26	11.18	-40.1	-42.8	14.8	0.00e+00	0	57	0	677380096	51	5034
2026-01-04 01:31:14.03	258.14	11.11	-40.1	-42.9	14.8	0.00e+00	0	57	0	678428672	51	5047
2026-01-04 01:31:15.04	258.02	11.04	-40.1	-42.8	14.8	0.00e+00	0	56	0	680525824	51	5023
2026-01-04 01:31:16.05	257.90	10.97	-40.2	-43.1	14.6	7.00e-07	0	57	0	682622976	51	5180
2026-01-04 01:31:17.06	257.78	10.90	-40.0	-42.8	14.8	7.00e-07	0	56	0	684720128	51	5010
2026-01-04 01:31:18.07	257.66	10.83	-40.1	-43.0	14.7	0.00e+00	0	57	0	686817280	51	5115
2026-01-04 01:31:19.08	257.54	10.76	-40.2	-43.0	14.7	0.00e+00	0	57	0	687865856	51	5120
2026-01-04 01:31:20.08	257.42	10.69	-40.1	-42.9	14.8	0.00e+00	0	56	0	689963008	51	5074
2026-01-04 01:31:21.09	257.30	10.62	-40.2	-43.0	14.7	7.00e-07	0	57	0	692060160	51	5123
2026-01-04 01:31:22.10	257.19	10.55	-40.2	-43.1	14.6	7.00e-07	0	57	0	694157312	51	5166
2026-01-04 01:31:23.11	257.07	10.48	-40.3	-43.1	14.5	0.00e+00	0	57	0	696254464	51	5217
2026-01-04 01:31:24.12	256.96	10.41	-40.2	-43.1	14.5	7.00e-07	0	56	0	697303040	51	5188
2026-01-04 01:31:25.13	256.84	10.34	-40.3	-43.3	14.3	7.00e-07	0	56	0	699400192	51	5300
2026-01-04 01:31:26.14	256.73	10.27	-40.4	-43.3	14.3	7.00e-07	0	57	0	701497344	51	5321
2026-01-04 01:31:27.15	256.61	10.20	-40.5	-43.6	14.0	7.00e-07	0	56	0	703594496	51	5485
2026-01-04 01:31:28.16	256.50	10.13	-40.6	-43.8	13.8	4.50e-06	0	56	0	705691648	51	5597
2026-01-04 01:31:29.17	256.39	10.06	-40.6	-43.7	13.9	2.20e-06	0	56	0	706740224	51	5585
2026-01-04 01:31:30.18	256.27	9.99	-40.7	-43.9	13.6	6.10e-06	0	56	0	708837376	52	5371
2026-01-04 01:31:31.19	256.16	9.92	-40.6	-43.9	13.7	7.00e-07	0	57	0	710934528	52	5350
2026-01-04 01:31:32.20	256.05	9.85	-40.6	-43.8	13.6	5.30e-06	0	57	0	713031680	52	5338
2026-01-04 01:31:33.21	255.94	9.78	-40.5	-43.6	13.9	8.30e-06	0	56	0	715128832	52	5193
2026-01-04 01:31:34.22	255.83	9.71	-40.5	-43.7	13.7	6.10e-06	0	57	0	716177408	52	5271
2026-01-04 01:31:35.23	255.72	9.64	-40.6	-43.8	13.6	3.80e-06	0	57	0	718274560	52	5337
2026-01-04 01:31:36.23	255.61	9.58	-40.5	-43.7	13.8	4.50e-06	0	56	0	720371712	52	5238
2026-01-04 01:31:37.24	255.50	9.51	-40.6	-43.9	13.6	7.60e-06	0	57	0	722468864	52	5349
2026-01-04 01:31:38.25	255.40	9.44	-40.7	-44.0	13.5	1.37e-05	0	57	0	724566016	52	5437
2026-01-04 01:31:39.26	255.29	9.37	-41.0	-44.6	12.9	3.96e-05	0	57	0	725614592	52	5796
2026-01-04 01:31:40.27	255.18	9.30	-41.1	-44.9	12.6	5.49e-05	0	56	0	727711744	52	6013
2026-01-04 01:31:41.28	255.07	9.23	-41.2	-45.1	12.4	1.08e-04	0	57	0	729808896	52	6135
2026-01-04 01:31:42.29	254.97	9.16	-41.3	-45.2	12.2	2.32e-04	0	56	0	731906048	53	5890
2026-01-04 01:31:43.30	254.86	9.10	-41.4	-45.4	12.0	3.00e-04	0	57	0	734003200	53	6011
2026-01-04 01:31:44.31	254.76	9.03	-41.5	-45.6	11.8	3.95e-04	0	57	0	735051776	53	6163
2026-01-04 01:31:45.32	254.65	8.96	-41.4	-45.4	12.0	3.13e-04	0	57	0	737148928	53	6013
2026-01-04 01:31:46.33	254.55	8.89	-41.4	-45.4	11.9	2.29e-04	0	56	0	739246080	53	6041
2026-01-04 01:31:47.34	254.45	8.82	-41.2	-45.1	12.3	3.29e-04	0	57	0	741343232	53	5827
2026-01-04 01:31:48.35	254.34	8.76	-41.2	-45.0	12.3	1.65e-04	0	57	0	743440384	53	5781
2026-01-04 01:31:49.36	254.24	8.69	-41.0	-44.6	12.8	1.27e-04	0	57	0	745537536	53	5469
2026-01-04 01:31:50.37	254.14	8.62	-40.9	-44.4	12.9	3.58e-05	0	57	0	746586112	53	5376
2026-01-04 01:31:51.38	254.04	8.55	-40.7	-44.1	13.3	1.67e-05	0	57	0	748683264	53	5163
2026-01-04 01:31:52.39	253.93	8.49	-40.6	-43.9	13.5	5.30e-06	0	57	0	750780416	53	5066
2026-01-04 01:31:53.40	253.83	8.42	-40.5	-43.7	13.6	6.80e-06	0	57	0	752877568	53	4978
2026-01-04 01:31:54.41	253.73	8.35	-40.5	-43.8	13.6	6.80e-06	0	57	0	754974720	53	4997
2026-01-04 01:31:55.42	253.63	8.29	-40.5	-43.8	13.5	6.10e-06	0	56	0	756023296	52	5314
2026-01-04 01:31:56.43	253.54	8.22	-40.5	-43.7	13.6	8.30e-06	0	56	0	758120448	52	5243
2026-01-04 01:31:57.44	253.44	8.15	-40.4	-43.6	13.7	8.30e-06	0	56	0	760217600	52	5187
2026-01-04 01:31:58.45	253.34	8.08	-40.6	-43.9	13.5	1.52e-05	0	56	0	762314752	52	5351
2026-01-04 01:31:59.46	253.24	8.02	-41.0	-44.6	13.0	8.30e-06	0	57	0	764411904	52	5854
2026-01-04 01:32:00.47	253.14	7.95	-44.5	-59.0	3.8	1.49e+00	0	57	104	764411904	59	20520
2026-01-04 01:32:01.48	253.05	7.89	-44.6	-59.4	3.8	1.49e+00	0	57	104	764411904	60	20147
2026-01-04 01:32:02.49	252.95	7.82	-44.8	-59.6	3.8	1.49e+00	0	57	104	764411904	60	20566
2026-01-04 01:32:03.50	252.85	7.75	-44.9	-59.7	3.8	1.49e+00	0	57	104	764411904	60	20786
2026-01-04 01:32:04.51	252.76	7.69	-45.0	-59.7	3.8	1.49e+00	0	57	104	764411904	60	20952
2026-01-04 01:32:05.52	252.66	7.62	-45.0	-59.8	3.8	1.49e+00	0	57	104	764411904	60	21066
2026-01-04 01:32:06.53	252.57	7.55	-45.1	-59.8	3.8	1.49e+00	0	57	104	764411904	60	21204
2026-01-04 01:32:07.54	252.47	7.49	-45.1	-59.9	3.8	1.49e+00	0	57	104	764411904	60	21300
2026-01-04 01:32:08.55	252.38	7.42	-45.1	-59.9	3.8	1.49e+00	0	57	104	764411904	60	21287
2026-01-04 01:32:09.56	252.29	7.36	-45.1	-59.9	3.8	1.49e+00	0	57	104	764411904	60	21261
2026-01-04 01:32:10.57	252.19	7.29	-45.0	-59.8	3.8	1.49e+00	0	57	104	764411904	60	21220
2026-01-04 01:32:11.58	252.10	7.23	-45.0	-59.8	3.8	1.49e+00	0	57	104	764411904	60	21173
2026-01-04 01:32:12.59	252.01	7.16	-45.0	-59.8	3.8	1.49e+00	0	56	104	764411904	60	21083
2026-01-04 01:32:13.60	251.92	7.10	-45.0	-59.8	3.8	1.49e+00	0	57	104	764411904	60	21114
2026-01-04 01:32:14.62	251.82	7.03	-45.0	-59.8	3.8	1.49e+00	0	57	104	764411904	60	21082
2026-01-04 01:32:15.63	251.73	6.96	-45.0	-59.8	3.8	1.49e+00	0	57	104	764411904	60	21184
2026-01-04 01:32:16.64	251.64	6.90	-45.0	-59.8	3.8	1.49e+00	0	57	104	764411904	60	21091
2026-01-04 01:32:17.65	251.55	6.83	-45.0	-59.8	3.8	1.49e+00	0	57	104	764411904	60	21080
2026-01-04 01:32:18.66	251.46	6.77	-45.0	-59.8	3.8	1.49e+00	0	57	104	764411904	60	21112
2026-01-04 01:32:19.67	251.37	6.70	-45.0	-59.8	3.8	1.49e+00	0	56	104	764411904	60	21101
2026-01-04 01:32:20.68	251.29	6.64	-45.0	-59.8	3.8	1.49e+00	0	57	104	764411904	60	21041
2026-01-04 01:32:21.69	251.20	6.58	-45.0	-59.8	3.8	1.49e+00	0	57	104	764411904	60	21067
2026-01-04 01:32:22.70	251.11	6.51	-45.0	-59.7	3.8	1.49e+00	0	57	104	764411904	60	20999
2026-01-04 01:32:23.71	251.02	6.45	-45.0	-59.8	3.8	1.49e+00	0	57	104	764411904	60	21115
2026-01-04 01:32:24.72	250.93	6.38	-44.9	-59.8	3.8	1.49e+00	0	57	104	764411904	60	21083
2026-01-04 01:32:25.73	250.85	6.32	-44.9	-59.8	3.8	1.49e+00	0	57	104	764411904	60	21062
2026-01-04 01:32:26.75	250.76	6.25	-44.9	-59.8	3.8	1.49e+00	0	57	104	764411904	60	21063
2026-01-04 01:32:27.76	250.67	6.19	-44.9	-59.8	3.8	1.49e+00	0	57	104	764411904	60	21021
2026-01-04 01:32:28.77	250.59	6.13	-44.9	-59.7	3.8	1.49e+00	0	57	104	764411904	60	21016
2026-01-04 01:32:29.78	250.50	6.06	-44.9	-59.8	3.8	1.49e+00	0	57	104	764411904	60	21056
2026-01-04 01:32:30.79	250.42	6.00	-44.9	-59.8	3.8	1.49e+00	0	57	104	764411904	60	21031
2026-01-04 01:32:31.80	250.33	5.93	-44.9	-59.8	3.8	1.49e+00	0	57	104	764411904	60	21037
2026-01-04 01:32:32.81	250.25	5.87	-44.9	-59.7	3.8	1.49e+00	0	57	104	764411904	60	20990
2026-01-04 01:32:33.82	250.17	5.81	-44.9	-59.7	3.8	1.49e+00	0	57	104	764411904	60	20922
2026-01-04 01:32:34.83	250.08	5.74	-44.9	-59.8	3.8	1.49e+00	0	57	104	764411904	60	21052
2026-01-04 01:32:35.84	250.00	5.68	-44.9	-59.7	3.8	1.49e+00	0	57	104	764411904	60	20985
2026-01-04 01:32:36.86	249.92	5.62	-44.9	-59.8	3.8	1.49e+00	0	57	104	764411904	60	21056
2026-01-04 01:32:37.87	249.83	5.55	-44.9	-59.7	3.8	1.49e+00	0	57	104	764411904	60	21011
2026-01-04 01:32:38.88	249.75	5.49	-44.9	-59.7	3.8	1.49e+00	0	57	104	764411904	60	21004
2026-01-04 01:32:39.89	249.67	5.43	-44.9	-59.7	3.8	1.49e+00	0	57	104	764411904	60	20997
2026-01-04 01:32:40.90	249.59	5.37	-44.9	-59.7	3.8	1.49e+00	0	57	104	764411904	60	20960
