passes_logs/2026/01/04/R2.0S_Moscow/R2.0S_Moscow__20260104_004127_FENGYUN_3D_rec.log

#Pass ID: 20260104_004127_FENGYUN 3D
#Satellite: FENGYUN 3D
#Configuration: FENGYUN 3D
#almurnet v.1.7.20251203
#Start time: 2026-01-04 00:41:29

#Version: 2.2.20231116
#Station: R2.0S_Moscow
#Location: 37.707566 lon 55.798166 lat
#TLE: 1 43010U 17072A   26003.51579816  .00000092  00000+0  65324-4 0  9992
#TLE: 2 43010  98.9912 335.1548 0001916 128.4619 231.6729 14.19692074421623

#Time	Az	El	Level	Level2	SNR	BER	BlckErr	Temp	State	Recorded	gain1	gain2
2026-01-04 00:41:29.82	22.32	2.14	-42.2	-54.5	3.8	8.45e-01	0	48	0	0	56	14404
2026-01-04 00:41:30.82	22.37	2.20	-42.0	-54.3	3.8	8.47e-01	0	48	104	0	54	15861
2026-01-04 00:41:31.83	22.43	2.26	-42.1	-54.3	3.8	8.45e-01	0	48	104	0	54	15874
2026-01-04 00:41:32.84	22.48	2.32	-42.1	-54.3	3.8	8.46e-01	0	48	104	0	54	15880
2026-01-04 00:41:33.86	22.53	2.38	-42.1	-54.3	3.8	8.47e-01	0	48	104	0	54	15916
2026-01-04 00:41:34.87	22.58	2.44	-42.1	-54.3	3.8	8.46e-01	0	48	104	0	54	15891
2026-01-04 00:41:35.88	22.64	2.50	-42.0	-54.3	3.8	8.47e-01	0	48	104	0	54	15873
2026-01-04 00:41:36.89	22.69	2.56	-42.1	-54.3	3.8	8.46e-01	0	48	104	0	54	15877
2026-01-04 00:41:37.90	22.74	2.62	-42.0	-54.3	3.8	8.47e-01	0	48	104	0	54	15903
2026-01-04 00:41:38.91	22.79	2.68	-42.0	-54.3	3.8	8.46e-01	0	48	104	0	54	15887
2026-01-04 00:41:39.92	22.85	2.74	-42.1	-54.3	3.8	8.46e-01	0	48	104	0	54	15878
2026-01-04 00:41:40.93	22.90	2.80	-42.0	-54.3	3.8	8.46e-01	0	48	104	0	54	15889
2026-01-04 00:41:41.94	22.95	2.87	-42.0	-54.3	3.8	8.45e-01	0	48	104	0	54	15869
2026-01-04 00:41:42.96	23.01	2.93	-42.0	-54.3	3.8	8.46e-01	0	48	104	0	54	15871
2026-01-04 00:41:43.97	23.06	2.99	-42.0	-54.3	3.8	8.46e-01	0	49	104	0	54	15897
2026-01-04 00:41:44.98	23.12	3.05	-42.0	-54.3	3.8	8.45e-01	0	49	104	0	54	15867
2026-01-04 00:41:45.99	23.17	3.11	-42.0	-54.3	3.8	8.47e-01	0	49	104	0	54	15835
2026-01-04 00:41:47.00	23.23	3.17	-42.1	-54.3	3.8	8.46e-01	0	49	104	0	54	15847
2026-01-04 00:41:48.01	23.28	3.24	-42.0	-54.3	3.8	8.45e-01	0	49	104	0	54	15894
2026-01-04 00:41:49.02	23.34	3.30	-42.0	-54.3	3.8	8.47e-01	0	49	104	0	54	15849
2026-01-04 00:41:50.03	23.39	3.36	-42.0	-54.3	3.8	8.46e-01	0	49	104	0	54	15813
2026-01-04 00:41:51.04	23.45	3.42	-42.0	-54.3	3.8	8.45e-01	0	49	104	0	54	15865
2026-01-04 00:41:52.05	23.50	3.49	-42.0	-54.3	3.8	8.46e-01	0	49	104	0	54	15869
2026-01-04 00:41:53.06	23.56	3.55	-42.0	-54.3	3.8	8.46e-01	0	49	104	0	54	15880
2026-01-04 00:41:54.07	23.62	3.61	-42.1	-54.3	3.8	8.45e-01	0	49	104	0	54	15857
2026-01-04 00:41:55.09	23.67	3.68	-42.0	-54.3	3.8	8.46e-01	0	49	104	0	54	15853
2026-01-04 00:41:56.10	23.73	3.74	-42.0	-54.3	3.8	8.46e-01	0	50	104	0	54	15885
2026-01-04 00:41:57.11	23.79	3.80	-42.0	-54.3	3.8	8.44e-01	0	50	104	0	54	15902
2026-01-04 00:41:58.12	23.84	3.86	-42.0	-54.3	3.8	8.46e-01	0	50	104	0	54	15862
2026-01-04 00:41:59.13	23.90	3.93	-42.0	-54.3	3.8	8.46e-01	0	50	104	0	54	15835
2026-01-04 00:42:00.14	23.96	3.99	-42.0	-54.3	3.8	8.46e-01	0	49	104	0	54	15809
2026-01-04 00:42:01.15	24.02	4.06	-42.0	-54.3	3.8	8.46e-01	0	50	104	0	54	15842
2026-01-04 00:42:02.16	24.08	4.12	-42.0	-54.3	3.8	8.45e-01	0	50	104	0	54	15854
2026-01-04 00:42:03.17	24.13	4.18	-42.0	-54.3	3.8	8.46e-01	0	50	104	0	54	15855
2026-01-04 00:42:04.18	24.19	4.25	-42.0	-54.3	3.8	8.47e-01	0	50	104	0	54	15846
2026-01-04 00:42:05.19	24.25	4.31	-42.0	-54.3	3.8	8.47e-01	0	50	104	0	54	15859
2026-01-04 00:42:06.20	24.31	4.38	-42.0	-54.3	3.8	8.47e-01	0	50	104	0	54	15799
2026-01-04 00:42:07.22	24.37	4.44	-42.0	-54.3	3.8	8.45e-01	0	50	104	0	54	15854
2026-01-04 00:42:08.23	24.43	4.51	-42.0	-54.3	3.8	8.46e-01	0	50	104	0	54	15866
2026-01-04 00:42:09.24	24.49	4.57	-42.0	-54.3	3.8	8.47e-01	0	50	104	0	54	15873
2026-01-04 00:42:10.25	24.55	4.64	-42.0	-54.3	3.8	8.46e-01	0	50	104	0	54	15907
2026-01-04 00:42:11.26	24.61	4.70	-42.0	-54.3	3.8	8.46e-01	0	50	104	0	54	15858
2026-01-04 00:42:12.27	24.67	4.77	-42.1	-54.3	3.8	8.46e-01	0	51	104	0	54	15942
2026-01-04 00:42:13.28	24.73	4.83	-42.1	-54.3	3.8	8.47e-01	0	51	104	0	54	15903
2026-01-04 00:42:14.29	24.79	4.90	-42.1	-54.3	3.8	8.46e-01	0	50	104	0	54	15881
2026-01-04 00:42:15.31	24.85	4.96	-42.1	-54.3	3.8	8.46e-01	0	51	104	0	54	15860
2026-01-04 00:42:16.32	24.91	5.03	-42.1	-54.3	3.8	8.46e-01	0	51	104	0	54	15923
2026-01-04 00:42:17.33	24.98	5.09	-42.1	-54.3	3.8	8.46e-01	0	51	104	0	54	15913
2026-01-04 00:42:18.34	25.04	5.16	-42.1	-54.3	3.8	8.47e-01	0	50	104	0	54	15912
2026-01-04 00:42:19.35	25.10	5.23	-42.1	-54.3	3.8	8.45e-01	0	51	104	0	54	15894
2026-01-04 00:42:20.36	25.16	5.29	-42.1	-54.3	3.8	8.46e-01	0	51	104	0	54	15919
2026-01-04 00:42:21.37	25.23	5.36	-42.1	-54.3	3.8	8.46e-01	0	51	104	0	54	15904
2026-01-04 00:42:22.38	25.29	5.43	-42.1	-54.3	3.8	8.46e-01	0	51	104	0	54	15887
2026-01-04 00:42:23.39	25.35	5.49	-42.0	-54.3	3.8	8.46e-01	0	51	104	0	54	15872
2026-01-04 00:42:24.40	25.42	5.56	-42.0	-54.3	3.8	8.46e-01	0	51	104	0	54	15900
2026-01-04 00:42:25.41	25.48	5.63	-42.1	-54.3	3.8	8.46e-01	0	51	104	0	54	15857
2026-01-04 00:42:26.43	25.54	5.69	-42.1	-54.3	3.8	8.47e-01	0	51	104	0	54	15907
2026-01-04 00:42:27.44	25.61	5.76	-42.1	-54.3	3.8	8.46e-01	0	51	104	0	54	15883
2026-01-04 00:42:28.45	25.67	5.83	-42.1	-54.3	3.8	8.47e-01	0	52	104	0	54	15928
2026-01-04 00:42:29.46	25.74	5.90	-42.0	-54.3	3.8	8.46e-01	0	51	104	0	54	15858
2026-01-04 00:42:30.47	25.80	5.96	-42.1	-54.3	3.8	8.44e-01	0	52	104	0	54	15902
2026-01-04 00:42:31.48	25.87	6.03	-42.1	-54.3	3.8	8.46e-01	0	51	104	0	54	15875
2026-01-04 00:42:32.49	25.94	6.10	-42.1	-54.3	3.8	8.45e-01	0	51	104	0	54	15858
2026-01-04 00:42:33.50	26.00	6.17	-42.1	-54.3	3.8	8.46e-01	0	51	104	0	54	15820
2026-01-04 00:42:34.51	26.07	6.24	-42.0	-54.3	3.8	8.46e-01	0	52	104	0	54	15805
2026-01-04 00:42:35.52	26.13	6.30	-42.1	-54.3	3.8	8.46e-01	0	52	104	0	54	15886
2026-01-04 00:42:36.54	26.20	6.37	-42.1	-54.3	3.8	8.47e-01	0	52	104	0	54	15895
2026-01-04 00:42:37.55	26.27	6.44	-42.1	-54.3	3.8	8.46e-01	0	52	104	0	54	15903
2026-01-04 00:42:38.56	26.34	6.51	-42.0	-54.3	3.8	8.46e-01	0	52	104	0	54	15943
2026-01-04 00:42:39.57	26.40	6.58	-42.0	-54.2	3.8	8.47e-01	0	52	104	0	54	15738
2026-01-04 00:42:40.58	26.47	6.65	-42.0	-54.2	3.8	8.47e-01	0	52	104	0	54	15695
2026-01-04 00:42:41.59	26.54	6.72	-42.1	-54.3	3.8	8.47e-01	0	52	104	0	54	15798
2026-01-04 00:42:42.60	26.61	6.79	-42.0	-54.1	3.8	8.47e-01	0	52	104	0	54	15429
2026-01-04 00:42:43.61	26.68	6.86	-42.0	-53.7	3.8	8.47e-01	0	52	104	0	54	14784
2026-01-04 00:42:44.62	26.75	6.93	-42.0	-53.4	3.8	8.46e-01	0	52	104	0	54	14225
2026-01-04 00:42:45.64	26.82	7.00	-41.8	-52.2	3.8	8.45e-01	0	52	104	0	54	12487
2026-01-04 00:42:46.65	26.89	7.07	-41.6	-50.2	4.4	8.36e-01	0	52	0	0	54	9900
2026-01-04 00:42:47.66	26.96	7.14	-41.3	-48.4	5.2	7.91e-01	0	52	0	0	54	8036
2026-01-04 00:42:48.67	27.03	7.21	-40.8	-46.7	6.4	3.43e-01	0	52	0	3145728	53	7027
2026-01-04 00:42:49.68	27.10	7.28	-40.0	-44.5	8.5	6.91e-02	0	52	0	9437184	52	5741
2026-01-04 00:42:50.69	27.17	7.35	-39.2	-42.7	10.5	9.61e-03	0	52	0	14680064	50	5253
2026-01-04 00:42:51.70	27.24	7.42	-38.7	-41.8	11.4	2.27e-03	0	52	0	19922944	49	5020
2026-01-04 00:42:52.71	27.32	7.49	-38.4	-41.3	11.9	6.82e-04	0	52	0	26214400	48	5035
2026-01-04 00:42:53.72	27.39	7.56	-38.1	-40.8	12.4	3.12e-04	0	53	0	31457280	48	4749
2026-01-04 00:42:54.73	27.46	7.64	-37.5	-40.0	13.2	5.14e-05	0	52	0	37748736	47	4574
2026-01-04 00:42:55.74	27.53	7.71	-37.0	-39.3	14.0	6.80e-06	0	52	0	42991616	46	4444
2026-01-04 00:42:56.75	27.61	7.78	-36.9	-39.2	14.1	3.40e-06	0	53	0	48234496	45	4675
2026-01-04 00:42:57.76	27.68	7.85	-37.2	-39.6	13.7	1.14e-05	0	52	0	54525952	45	4891
2026-01-04 00:42:58.77	27.75	7.92	-37.1	-39.5	13.7	1.14e-05	0	52	0	59768832	45	4833
2026-01-04 00:42:59.78	27.83	8.00	-37.3	-39.7	13.6	6.80e-06	0	53	0	66060288	45	4952
2026-01-04 00:43:00.79	27.90	8.07	-37.3	-39.6	13.9	3.40e-06	0	52	0	71303168	45	4872
2026-01-04 00:43:01.80	27.98	8.14	-40.4	-47.5	5.4	1.36e-02	0	53	0	76546048	51	8585
2026-01-04 00:43:02.81	28.05	8.21	-37.6	-39.9	13.8	8.16e-02	0	53	0	80740352	46	4782
2026-01-04 00:43:03.82	28.13	8.29	-38.4	-40.9	12.8	1.02e-05	0	53	0	85983232	47	5046
2026-01-04 00:43:04.83	28.21	8.36	-39.0	-42.2	11.2	1.44e-04	0	53	0	92274688	48	5565
2026-01-04 00:43:05.84	28.28	8.43	-37.1	-39.2	14.3	8.58e-05	0	53	0	97517568	46	4440
2026-01-04 00:43:06.85	28.36	8.51	-36.9	-38.9	14.7	0.00e+00	0	53	0	102760448	45	4516
2026-01-04 00:43:07.86	28.44	8.58	-36.8	-38.8	14.7	0.00e+00	0	53	0	109051904	45	4490
2026-01-04 00:43:08.87	28.51	8.65	-36.8	-38.7	14.8	0.00e+00	0	53	0	114294784	45	4439
2026-01-04 00:43:09.88	28.59	8.73	-36.9	-38.8	14.8	0.00e+00	0	53	0	120586240	45	4485
2026-01-04 00:43:10.89	28.67	8.80	-36.7	-38.6	15.1	0.00e+00	0	53	0	125829120	45	4379
2026-01-04 00:43:11.90	28.75	8.88	-36.7	-38.5	15.2	0.00e+00	0	53	0	131072000	45	4319
2026-01-04 00:43:12.92	28.83	8.95	-36.8	-38.7	15.0	1.10e-06	0	53	0	137363456	45	4438
2026-01-04 00:43:13.93	28.91	9.03	-36.9	-38.8	14.9	0.00e+00	0	53	0	142606336	45	4479
2026-01-04 00:43:14.93	28.99	9.10	-36.8	-38.7	15.2	0.00e+00	0	53	0	148897792	45	4397
2026-01-04 00:43:15.94	29.07	9.18	-36.8	-38.7	15.2	0.00e+00	0	53	0	154140672	45	4396
2026-01-04 00:43:16.95	29.15	9.25	-37.0	-38.9	15.0	0.00e+00	0	53	0	160432128	45	4515
2026-01-04 00:43:17.97	29.23	9.33	-36.9	-38.7	15.2	0.00e+00	0	53	0	165675008	45	4399
2026-01-04 00:43:18.97	29.31	9.40	-36.8	-38.6	15.3	0.00e+00	0	53	0	171966464	45	4366
2026-01-04 00:43:19.99	29.39	9.48	-36.8	-38.5	15.4	0.00e+00	0	53	0	177209344	45	4334
2026-01-04 00:43:21.00	29.47	9.56	-36.7	-38.5	15.5	0.00e+00	0	53	0	182452224	45	4312
2026-01-04 00:43:22.01	29.56	9.63	-36.8	-38.5	15.4	0.00e+00	0	53	0	188743680	45	4331
2026-01-04 00:43:23.02	29.64	9.71	-36.7	-38.5	15.5	0.00e+00	0	53	0	193986560	45	4297
2026-01-04 00:43:24.03	29.72	9.79	-36.8	-38.6	15.5	0.00e+00	0	53	0	200278016	45	4347
2026-01-04 00:43:25.04	29.81	9.86	-36.7	-38.4	15.6	0.00e+00	0	53	0	205520896	45	4270
2026-01-04 00:43:26.05	29.89	9.94	-36.5	-38.2	15.8	0.00e+00	0	53	0	210763776	45	4173
2026-01-04 00:43:27.06	29.98	10.02	-36.5	-38.2	15.8	0.00e+00	0	54	0	217055232	44	4440
2026-01-04 00:43:28.07	30.06	10.09	-36.5	-38.2	15.8	0.00e+00	0	54	0	222298112	44	4438
2026-01-04 00:43:29.08	30.15	10.17	-36.4	-38.0	16.1	0.00e+00	0	53	0	228589568	44	4336
2026-01-04 00:43:30.09	30.23	10.25	-36.3	-37.9	16.1	0.00e+00	0	53	0	233832448	44	4288
2026-01-04 00:43:31.10	30.32	10.33	-36.3	-37.9	16.2	0.00e+00	0	54	0	239075328	44	4267
2026-01-04 00:43:32.11	30.41	10.40	-36.3	-37.9	16.2	0.00e+00	0	54	0	245366784	44	4244
2026-01-04 00:43:33.12	30.49	10.48	-36.1	-37.7	16.5	0.00e+00	0	54	0	250609664	44	4155
2026-01-04 00:43:34.13	30.58	10.56	-36.2	-37.8	16.4	0.00e+00	0	54	0	256901120	44	4206
2026-01-04 00:43:35.14	30.67	10.64	-36.2	-37.7	16.5	0.00e+00	0	54	0	262144000	44	4180
2026-01-04 00:43:36.15	30.76	10.72	-36.2	-37.7	16.5	0.00e+00	0	54	0	268435456	44	4193
2026-01-04 00:43:37.16	30.85	10.80	-36.2	-37.8	16.4	0.00e+00	0	54	0	273678336	44	4202
2026-01-04 00:43:38.17	30.94	10.88	-36.1	-37.6	16.6	0.00e+00	0	54	0	278921216	44	4134
2026-01-04 00:43:39.18	31.03	10.96	-36.2	-37.8	16.5	0.00e+00	0	54	0	285212672	44	4209
2026-01-04 00:43:40.19	31.12	11.04	-36.2	-37.7	16.6	0.00e+00	0	54	0	290455552	44	4175
2026-01-04 00:43:41.20	31.21	11.12	-36.3	-38.0	16.3	0.00e+00	0	54	0	296747008	44	4296
2026-01-04 00:43:42.21	31.30	11.20	-36.3	-37.9	16.4	0.00e+00	0	54	0	301989888	44	4243
2026-01-04 00:43:43.22	31.39	11.28	-36.2	-37.8	16.5	0.00e+00	0	54	0	308281344	44	4212
2026-01-04 00:43:44.23	31.48	11.36	-36.2	-37.8	16.6	0.00e+00	0	54	0	313524224	44	4196
2026-01-04 00:43:45.24	31.58	11.44	-36.2	-37.7	16.6	0.00e+00	0	54	0	318767104	44	4179
2026-01-04 00:43:46.25	31.67	11.52	-36.1	-37.7	16.7	0.00e+00	0	54	0	325058560	44	4171
2026-01-04 00:43:47.26	31.76	11.60	-36.2	-37.7	16.6	0.00e+00	0	54	0	330301440	44	4178
2026-01-04 00:43:48.27	31.86	11.68	-36.1	-37.6	16.8	0.00e+00	0	54	0	335544320	44	4117
2026-01-04 00:43:49.28	31.95	11.76	-36.1	-37.6	16.8	0.00e+00	0	54	0	341835776	44	4113
2026-01-04 00:43:50.29	32.05	11.85	-36.0	-37.5	16.9	0.00e+00	0	54	0	347078656	44	4082
2026-01-04 00:43:51.30	32.14	11.93	-36.1	-37.6	16.8	0.00e+00	0	54	0	353370112	44	4133
2026-01-04 00:43:52.31	32.24	12.01	-36.2	-37.7	16.7	0.00e+00	0	54	0	358612992	44	4173
2026-01-04 00:43:53.32	32.34	12.09	-36.0	-37.5	16.9	0.00e+00	0	54	0	364904448	44	4067
2026-01-04 00:43:54.34	32.44	12.17	-36.0	-37.5	16.9	0.00e+00	0	54	0	370147328	44	4075
2026-01-04 00:43:55.35	32.53	12.26	-36.0	-37.5	16.9	0.00e+00	0	54	0	376438784	44	4092
2026-01-04 00:43:56.36	32.63	12.34	-36.0	-37.6	16.9	0.00e+00	0	54	0	381681664	44	4099
2026-01-04 00:43:57.37	32.73	12.42	-36.0	-37.5	16.9	0.00e+00	0	54	0	386924544	44	4086
2026-01-04 00:43:58.38	32.83	12.51	-36.0	-37.5	16.9	0.00e+00	0	54	0	393216000	44	4093
2026-01-04 00:43:59.39	32.93	12.59	-36.0	-37.5	17.0	0.00e+00	0	54	0	398458880	44	4056
2026-01-04 00:44:00.39	33.03	12.67	-35.8	-37.3	17.0	0.00e+00	0	54	0	404750336	43	4215
2026-01-04 00:44:01.41	33.13	12.76	-35.7	-37.2	17.1	0.00e+00	0	54	0	409993216	43	4171
2026-01-04 00:44:02.42	33.23	12.84	-35.7	-37.2	17.2	0.00e+00	0	54	0	415236096	43	4146
2026-01-04 00:44:03.42	33.33	12.93	-35.7	-37.2	17.1	0.00e+00	0	54	0	421527552	43	4169
2026-01-04 00:44:04.44	33.44	13.01	-35.7	-37.2	17.2	0.00e+00	0	54	0	426770432	43	4156
2026-01-04 00:44:05.45	33.54	13.10	-35.7	-37.1	17.2	0.00e+00	0	54	0	433061888	43	4142
2026-01-04 00:44:06.46	33.65	13.18	-35.6	-37.1	17.3	0.00e+00	0	54	0	438304768	43	4109
2026-01-04 00:44:07.47	33.75	13.27	-35.6	-37.1	17.3	0.00e+00	0	54	0	443547648	43	4103
2026-01-04 00:44:08.47	33.85	13.35	-35.5	-37.0	17.4	0.00e+00	0	55	0	449839104	43	4067
2026-01-04 00:44:09.49	33.96	13.44	-35.5	-36.9	17.4	0.00e+00	0	54	0	455081984	43	4038
2026-01-04 00:44:10.50	34.07	13.53	-35.5	-36.9	17.5	0.00e+00	0	55	0	461373440	42	4264
2026-01-04 00:44:11.51	34.17	13.61	-35.4	-36.8	17.6	0.00e+00	0	54	0	466616320	42	4230
2026-01-04 00:44:12.52	34.28	13.70	-35.4	-36.9	17.4	0.00e+00	0	55	0	472907776	42	4275
2026-01-04 00:44:13.53	34.39	13.78	-35.4	-36.9	17.5	0.00e+00	0	55	0	478150656	42	4259
2026-01-04 00:44:14.54	34.50	13.87	-35.5	-37.0	17.4	0.00e+00	0	55	0	484442112	42	4301
2026-01-04 00:44:15.55	34.61	13.96	-35.5	-36.9	17.4	0.00e+00	0	54	0	489684992	42	4279
2026-01-04 00:44:16.56	34.72	14.05	-35.4	-36.8	17.6	0.00e+00	0	55	0	494927872	42	4220
2026-01-04 00:44:17.57	34.83	14.13	-35.5	-36.9	17.5	0.00e+00	0	54	0	501219328	42	4268
2026-01-04 00:44:18.58	34.94	14.22	-35.5	-36.9	17.5	0.00e+00	0	55	0	506462208	42	4265
2026-01-04 00:44:19.59	35.05	14.31	-35.5	-36.9	17.5	0.00e+00	0	55	0	512753664	42	4284
2026-01-04 00:44:20.60	35.16	14.40	-35.5	-36.9	17.5	0.00e+00	0	55	0	517996544	42	4255
2026-01-04 00:44:21.61	35.28	14.49	-35.5	-36.9	17.5	0.00e+00	0	55	0	523239424	42	4267
2026-01-04 00:44:22.62	35.39	14.57	-35.5	-36.9	17.5	0.00e+00	0	55	0	529530880	42	4257
2026-01-04 00:44:23.63	35.50	14.66	-35.3	-36.7	17.8	0.00e+00	0	55	0	534773760	42	4165
2026-01-04 00:44:24.64	35.62	14.75	-35.4	-36.8	17.7	0.00e+00	0	55	0	541065216	42	4206
2026-01-04 00:44:25.65	35.74	14.84	-35.3	-36.7	17.8	0.00e+00	0	55	0	546308096	42	4171
2026-01-04 00:44:26.66	35.85	14.93	-35.3	-36.7	17.8	0.00e+00	0	55	0	551550976	42	4156
2026-01-04 00:44:27.67	35.97	15.02	-35.3	-36.6	17.9	0.00e+00	0	55	0	557842432	42	4139
2026-01-04 00:44:28.68	36.09	15.11	-35.2	-36.6	17.9	0.00e+00	0	55	0	563085312	42	4113
2026-01-04 00:44:29.69	36.20	15.20	-35.2	-36.6	17.9	0.00e+00	0	55	0	569376768	42	4122
2026-01-04 00:44:30.70	36.32	15.29	-35.2	-36.6	17.9	0.00e+00	0	55	0	574619648	42	4114
2026-01-04 00:44:31.71	36.44	15.38	-35.1	-36.4	18.0	0.00e+00	0	55	0	580911104	42	4051
2026-01-04 00:44:32.72	36.56	15.47	-35.0	-36.4	18.1	0.00e+00	0	55	0	586153984	42	4016
2026-01-04 00:44:33.73	36.69	15.56	-35.0	-36.3	18.1	0.00e+00	0	55	0	592445440	42	3999
2026-01-04 00:44:34.74	36.81	15.66	-34.9	-36.3	18.2	0.00e+00	0	55	0	597688320	41	4206
2026-01-04 00:44:35.75	36.93	15.75	-34.9	-36.3	18.2	0.00e+00	0	55	0	602931200	41	4195
2026-01-04 00:44:36.76	37.05	15.84	-34.9	-36.2	18.3	0.00e+00	0	55	0	609222656	41	4186
2026-01-04 00:44:37.77	37.18	15.93	-34.9	-36.2	18.3	0.00e+00	0	55	0	614465536	41	4163
2026-01-04 00:44:38.78	37.30	16.02	-35.0	-36.3	18.3	0.00e+00	0	55	0	620756992	41	4210
2026-01-04 00:44:39.79	37.43	16.12	-34.8	-36.2	18.4	0.00e+00	0	55	0	625999872	41	4150
2026-01-04 00:44:40.80	37.55	16.21	-34.9	-36.2	18.4	0.00e+00	0	55	0	631242752	41	4157
2026-01-04 00:44:41.81	37.68	16.30	-34.9	-36.2	18.4	0.00e+00	0	55	0	637534208	41	4157
2026-01-04 00:44:42.82	37.81	16.40	-34.8	-36.2	18.4	0.00e+00	0	55	0	642777088	41	4146
2026-01-04 00:44:43.83	37.94	16.49	-34.9	-36.2	18.3	0.00e+00	0	55	0	649068544	41	4177
2026-01-04 00:44:44.84	38.07	16.58	-34.9	-36.2	18.4	0.00e+00	0	55	0	654311424	41	4164
2026-01-04 00:44:45.85	38.20	16.68	-34.9	-36.2	18.4	0.00e+00	0	55	0	659554304	41	4175
2026-01-04 00:44:46.86	38.33	16.77	-34.8	-36.1	18.5	0.00e+00	0	55	0	665845760	41	4135
2026-01-04 00:44:47.87	38.46	16.87	-34.9	-36.2	18.4	0.00e+00	0	55	0	671088640	41	4161
2026-01-04 00:44:48.88	38.59	16.96	-34.9	-36.3	18.3	0.00e+00	0	55	0	677380096	41	4198
2026-01-04 00:44:49.89	38.73	17.05	-34.9	-36.2	18.4	0.00e+00	0	55	0	682622976	41	4167
2026-01-04 00:44:50.90	38.86	17.15	-34.9	-36.2	18.4	0.00e+00	0	55	0	688914432	41	4169
2026-01-04 00:44:51.92	39.00	17.25	-34.9	-36.3	18.4	0.00e+00	0	55	0	694157312	41	4198
2026-01-04 00:44:52.93	39.13	17.34	-34.9	-36.2	18.4	0.00e+00	0	55	0	700448768	41	4188
2026-01-04 00:44:53.93	39.27	17.44	-34.9	-36.2	18.4	0.00e+00	0	55	0	705691648	41	4175
2026-01-04 00:44:54.95	39.41	17.53	-34.9	-36.2	18.4	0.00e+00	0	55	0	710934528	41	4175
2026-01-04 00:44:55.96	39.55	17.63	-34.8	-36.1	18.5	0.00e+00	0	55	0	717225984	41	4133
2026-01-04 00:44:56.97	39.68	17.73	-34.9	-36.2	18.5	0.00e+00	0	55	0	722468864	41	4149
2026-01-04 00:44:57.98	39.82	17.82	-34.8	-36.2	18.5	0.00e+00	0	55	0	728760320	41	4149
2026-01-04 00:44:58.99	39.97	17.92	-34.8	-36.1	18.6	0.00e+00	0	55	0	734003200	41	4105
2026-01-04 00:45:00.00	40.11	18.02	-34.6	-35.9	18.8	0.00e+00	0	55	0	739246080	41	4024
2026-01-04 00:45:01.01	40.25	18.11	-34.5	-35.8	18.8	0.00e+00	0	55	0	745537536	41	3981
2026-01-04 00:45:02.02	40.39	18.21	-34.4	-35.7	19.0	0.00e+00	0	55	0	750780416	40	4147
2026-01-04 00:45:03.03	40.54	18.31	-34.4	-35.6	19.1	0.00e+00	0	55	0	757071872	40	4117
2026-01-04 00:45:04.04	40.68	18.41	-34.3	-35.5	19.1	0.00e+00	0	55	0	762314752	40	4079
2026-01-04 00:45:05.05	40.83	18.50	-34.3	-35.5	19.2	0.00e+00	0	55	0	767557632	40	4069
2026-01-04 00:45:06.06	40.98	18.60	-34.3	-35.6	19.1	0.00e+00	0	55	0	773849088	40	4101
2026-01-04 00:45:07.07	41.13	18.70	-34.3	-35.5	19.1	0.00e+00	0	55	0	779091968	40	4089
2026-01-04 00:45:08.08	41.27	18.80	-34.3	-35.6	19.1	0.00e+00	0	55	0	785383424	40	4108
2026-01-04 00:45:09.09	41.42	18.90	-34.4	-35.6	19.1	0.00e+00	0	55	0	790626304	40	4115
2026-01-04 00:45:10.10	41.58	19.00	-34.4	-35.6	19.0	0.00e+00	0	55	0	796917760	40	4122
2026-01-04 00:45:11.11	41.73	19.10	-34.4	-35.6	19.0	0.00e+00	0	55	0	802160640	40	4129
2026-01-04 00:45:12.12	41.88	19.20	-34.4	-35.6	19.1	0.00e+00	0	55	0	807403520	40	4117
2026-01-04 00:45:13.13	42.03	19.30	-34.3	-35.5	19.1	0.00e+00	0	55	0	813694976	40	4079
2026-01-04 00:45:14.14	42.19	19.40	-34.3	-35.5	19.2	0.00e+00	0	55	0	818937856	40	4074
2026-01-04 00:45:15.15	42.35	19.50	-34.2	-35.5	19.2	0.00e+00	0	55	0	825229312	40	4057
2026-01-04 00:45:16.16	42.50	19.60	-34.2	-35.4	19.3	0.00e+00	0	55	0	830472192	40	4031
2026-01-04 00:45:17.17	42.66	19.70	-34.2	-35.4	19.2	0.00e+00	0	55	0	835715072	40	4043
2026-01-04 00:45:18.18	42.82	19.80	-34.3	-35.5	19.2	0.00e+00	0	55	0	842006528	40	4068
2026-01-04 00:45:19.19	42.98	19.90	-34.3	-35.5	19.2	0.00e+00	0	56	0	847249408	40	4073
2026-01-04 00:45:20.20	43.14	20.00	-34.3	-35.6	19.1	0.00e+00	0	55	0	853540864	40	4112
2026-01-04 00:45:21.21	43.30	20.10	-34.4	-35.6	19.1	0.00e+00	0	55	0	858783744	40	4118
2026-01-04 00:45:22.22	43.47	20.20	-34.3	-35.5	19.2	0.00e+00	0	55	0	865075200	40	4060
2026-01-04 00:45:23.23	43.63	20.31	-34.2	-35.5	19.2	0.00e+00	0	55	0	870318080	40	4061
2026-01-04 00:45:24.24	43.79	20.41	-34.2	-35.4	19.3	0.00e+00	0	55	0	875560960	40	4043
2026-01-04 00:45:25.25	43.96	20.51	-34.3	-35.5	19.2	0.00e+00	0	55	0	881852416	40	4063
2026-01-04 00:45:26.26	44.13	20.61	-34.2	-35.4	19.3	0.00e+00	0	55	0	887095296	40	4032
2026-01-04 00:45:27.27	44.30	20.72	-34.2	-35.4	19.3	0.00e+00	0	55	0	893386752	40	4029
2026-01-04 00:45:28.28	44.47	20.82	-34.2	-35.4	19.3	0.00e+00	0	56	0	898629632	40	4020
2026-01-04 00:45:29.29	44.64	20.92	-34.1	-35.3	19.4	0.00e+00	0	56	0	904921088	40	3972
2026-01-04 00:45:30.30	44.81	21.02	-34.1	-35.3	19.5	0.00e+00	0	55	0	910163968	40	3960
2026-01-04 00:45:31.31	44.98	21.13	-34.1	-35.3	19.5	0.00e+00	0	56	0	915406848	40	3965
2026-01-04 00:45:32.32	45.16	21.23	-34.2	-35.4	19.4	0.00e+00	0	55	0	921698304	40	4011
2026-01-04 00:45:33.33	45.33	21.33	-34.2	-35.4	19.4	0.00e+00	0	55	0	926941184	40	4025
2026-01-04 00:45:34.34	45.51	21.44	-34.1	-35.3	19.4	0.00e+00	0	56	0	933232640	40	4000
2026-01-04 00:45:35.35	45.68	21.54	-34.1	-35.3	19.5	0.00e+00	0	55	0	938475520	40	3967
2026-01-04 00:45:36.36	45.86	21.65	-34.0	-35.2	19.5	0.00e+00	0	56	0	943718400	40	3957
2026-01-04 00:45:37.37	46.04	21.75	-34.0	-35.2	19.6	0.00e+00	0	55	0	950009856	39	4163
2026-01-04 00:45:38.39	46.23	21.86	-34.0	-35.2	19.7	0.00e+00	0	55	0	955252736	39	4155
2026-01-04 00:45:39.40	46.41	21.96	-33.9	-35.1	19.7	0.00e+00	0	56	0	961544192	39	4114
2026-01-04 00:45:40.41	46.59	22.06	-33.9	-35.1	19.8	0.00e+00	0	56	0	966787072	39	4107
2026-01-04 00:45:41.42	46.78	22.17	-33.9	-35.0	19.8	0.00e+00	0	55	0	972029952	39	4096
2026-01-04 00:45:42.43	46.96	22.27	-33.8	-35.0	19.8	0.00e+00	0	56	0	978321408	39	4078
2026-01-04 00:45:43.44	47.15	22.38	-33.8	-35.0	19.9	0.00e+00	0	56	0	983564288	39	4053
2026-01-04 00:45:44.45	47.34	22.48	-33.7	-34.8	20.0	0.00e+00	0	56	0	989855744	39	3993
2026-01-04 00:45:45.46	47.53	22.59	-33.7	-34.9	20.0	0.00e+00	0	56	0	995098624	39	4005
2026-01-04 00:45:46.47	47.72	22.70	-33.7	-34.9	20.0	0.00e+00	0	55	0	1001390080	39	4006
2026-01-04 00:45:47.48	47.91	22.80	-33.7	-34.9	20.0	0.00e+00	0	56	0	1006632960	39	4018
2026-01-04 00:45:48.49	48.10	22.91	-33.8	-34.9	19.9	0.00e+00	0	56	0	1012924416	39	4029
2026-01-04 00:45:49.50	48.30	23.01	-33.8	-34.9	19.9	0.00e+00	0	56	0	1018167296	39	4028
2026-01-04 00:45:50.51	48.49	23.12	-33.8	-35.0	19.8	0.00e+00	0	56	0	1023410176	39	4068
2026-01-04 00:45:51.52	48.69	23.22	-33.8	-34.9	19.9	0.00e+00	0	56	0	1029701632	39	4036
2026-01-04 00:45:52.53	48.89	23.33	-33.7	-34.9	19.9	0.00e+00	0	56	0	1034944512	39	4018
2026-01-04 00:45:53.54	49.09	23.44	-33.7	-34.9	20.0	0.00e+00	0	56	0	1041235968	39	4006
2026-01-04 00:45:54.55	49.29	23.54	-33.6	-34.8	20.1	0.00e+00	0	56	0	1046478848	39	3973
2026-01-04 00:45:55.56	49.49	23.65	-33.6	-34.7	20.1	0.00e+00	0	56	0	1051721728	39	3939
2026-01-04 00:45:56.58	49.70	23.76	-33.6	-34.8	20.1	0.00e+00	0	56	0	1058013184	39	3963
2026-01-04 00:45:57.59	49.90	23.86	-33.5	-34.7	20.2	0.00e+00	0	56	0	1063256064	39	3921
2026-01-04 00:45:58.60	50.11	23.97	-33.5	-34.6	20.2	0.00e+00	0	56	0	1069547520	39	3908
2026-01-04 00:45:59.61	50.32	24.08	-33.4	-34.5	20.3	0.00e+00	0	56	0	1074790400	38	4094
2026-01-04 00:46:00.62	50.53	24.18	-33.3	-34.4	20.4	0.00e+00	0	56	0	1080033280	38	4048
2026-01-04 00:46:01.63	50.74	24.29	-33.3	-34.5	20.4	0.00e+00	0	56	0	1086324736	38	4052
2026-01-04 00:46:02.64	50.95	24.40	-33.4	-34.5	20.3	0.00e+00	0	56	0	1091567616	38	4082
2026-01-04 00:46:03.65	51.16	24.50	-33.5	-34.6	20.2	0.00e+00	0	56	0	1097859072	38	4121
2026-01-04 00:46:04.66	51.38	24.61	-33.4	-34.5	20.3	0.00e+00	0	56	0	1103101952	38	4092
2026-01-04 00:46:05.67	51.60	24.72	-33.4	-34.5	20.3	0.00e+00	0	56	0	1109393408	38	4064
2026-01-04 00:46:06.68	51.81	24.82	-33.3	-34.5	20.4	0.00e+00	0	56	0	1114636288	38	4052
2026-01-04 00:46:07.69	52.03	24.93	-33.3	-34.4	20.4	0.00e+00	0	56	0	1120927744	38	4048
2026-01-04 00:46:08.70	52.25	25.04	-33.4	-34.5	20.3	0.00e+00	0	56	0	1126170624	38	4081
2026-01-04 00:46:09.71	52.48	25.14	-33.4	-34.5	20.3	0.00e+00	0	56	0	1131413504	38	4090
2026-01-04 00:46:10.72	52.70	25.25	-33.3	-34.4	20.4	0.00e+00	0	56	0	1137704960	38	4039
2026-01-04 00:46:11.73	52.93	25.36	-33.2	-34.3	20.5	0.00e+00	0	56	0	1142947840	38	3993
2026-01-04 00:46:12.74	53.15	25.47	-33.0	-34.3	20.0	0.00e+00	0	56	0	1149239296	38	3972
2026-01-04 00:46:13.75	53.38	25.57	-33.0	-34.3	20.1	0.00e+00	0	56	0	1154482176	38	3960
2026-01-04 00:46:14.76	53.61	25.68	-33.0	-34.3	20.1	0.00e+00	0	56	0	1159725056	38	3962
2026-01-04 00:46:15.77	53.84	25.79	-33.0	-34.2	20.1	0.00e+00	0	56	0	1166016512	38	3953
2026-01-04 00:46:16.79	54.08	25.89	-33.1	-34.3	20.0	0.00e+00	0	56	0	1171259392	38	3996
2026-01-04 00:46:17.80	54.31	26.00	-33.1	-34.4	20.0	0.00e+00	0	56	0	1177550848	38	4012
2026-01-04 00:46:18.81	54.55	26.11	-33.1	-34.4	19.9	0.00e+00	0	56	0	1182793728	38	4009
2026-01-04 00:46:19.82	54.79	26.21	-33.0	-34.3	20.1	0.00e+00	0	56	0	1188036608	38	3964
2026-01-04 00:46:20.83	55.02	26.32	-32.8	-34.1	20.3	0.00e+00	0	56	0	1194328064	37	4099
2026-01-04 00:46:21.84	55.27	26.42	-32.8	-34.0	20.3	0.00e+00	0	56	0	1199570944	37	4086
2026-01-04 00:46:22.85	55.51	26.53	-32.9	-34.1	20.3	0.00e+00	0	56	0	1205862400	37	4114
2026-01-04 00:46:23.86	55.75	26.64	-33.0	-34.3	20.1	0.00e+00	0	56	0	1211105280	37	4215
2026-01-04 00:46:24.87	56.00	26.74	-33.1	-34.4	20.0	0.00e+00	0	56	0	1217396736	37	4269
2026-01-04 00:46:25.88	56.24	26.85	-33.2	-34.5	19.9	0.00e+00	0	56	0	1222639616	37	4306
2026-01-04 00:46:26.89	56.49	26.95	-33.1	-34.4	20.0	0.00e+00	0	56	0	1228931072	37	4248
2026-01-04 00:46:27.91	56.75	27.06	-33.0	-34.3	20.1	0.00e+00	0	56	0	1234173952	37	4196
2026-01-04 00:46:28.92	57.00	27.17	-32.9	-34.1	20.2	0.00e+00	0	56	0	1239416832	37	4124
2026-01-04 00:46:29.93	57.25	27.27	-32.9	-34.1	20.3	0.00e+00	0	56	0	1245708288	37	4112
2026-01-04 00:46:30.93	57.50	27.38	-32.8	-34.0	20.4	0.00e+00	0	56	0	1250951168	37	4075
2026-01-04 00:46:31.94	57.76	27.48	-32.7	-33.9	20.5	0.00e+00	0	56	0	1257242624	37	4015
2026-01-04 00:46:32.95	58.02	27.58	-32.7	-33.9	20.5	0.00e+00	0	56	0	1262485504	37	4022
2026-01-04 00:46:33.96	58.28	27.69	-32.7	-33.9	20.4	0.00e+00	0	56	0	1267728384	37	4042
2026-01-04 00:46:34.97	58.54	27.79	-32.8	-34.0	20.3	0.00e+00	0	56	0	1274019840	37	4066
2026-01-04 00:46:35.98	58.81	27.90	-32.7	-33.9	20.4	0.00e+00	0	56	0	1279262720	37	4047
2026-01-04 00:46:36.99	59.07	28.00	-32.8	-34.0	20.4	0.00e+00	0	56	0	1285554176	37	4062
2026-01-04 00:46:38.00	59.34	28.10	-32.7	-33.9	20.4	0.00e+00	0	56	0	1290797056	37	4044
2026-01-04 00:46:39.01	59.61	28.21	-32.6	-33.8	20.5	0.00e+00	0	56	0	1296039936	37	4004
2026-01-04 00:46:40.02	59.88	28.31	-32.7	-33.9	20.4	0.00e+00	0	56	0	1302331392	37	4017
2026-01-04 00:46:41.03	60.15	28.41	-32.6	-33.8	20.5	0.00e+00	0	56	0	1307574272	37	3986
2026-01-04 00:46:42.04	60.42	28.51	-32.6	-33.8	20.5	0.00e+00	0	56	0	1313865728	37	3982
2026-01-04 00:46:43.05	60.70	28.62	-32.6	-33.8	20.5	0.00e+00	0	56	0	1319108608	37	3988
2026-01-04 00:46:44.06	60.98	28.72	-32.6	-33.8	20.5	0.00e+00	0	56	0	1325400064	37	3985
2026-01-04 00:46:45.07	61.26	28.82	-32.6	-33.8	20.5	0.00e+00	0	56	0	1330642944	37	3973
2026-01-04 00:46:46.08	61.54	28.92	-32.5	-33.7	20.6	0.00e+00	0	56	0	1335885824	37	3919
2026-01-04 00:46:47.09	61.82	29.02	-32.4	-33.6	20.7	0.00e+00	0	56	0	1342177280	36	4111
2026-01-04 00:46:48.10	62.10	29.12	-32.4	-33.6	20.7	0.00e+00	0	56	0	1347420160	36	4127
2026-01-04 00:46:49.11	62.39	29.22	-32.6	-33.8	20.5	0.00e+00	0	56	0	1353711616	36	4198
2026-01-04 00:46:50.12	62.68	29.32	-32.7	-34.0	20.4	0.00e+00	0	56	0	1358954496	36	4302
2026-01-04 00:46:51.13	62.97	29.42	-32.8	-34.1	20.2	0.00e+00	0	56	0	1365245952	36	4367
2026-01-04 00:46:52.14	63.26	29.52	-32.7	-34.0	20.4	0.00e+00	0	56	0	1370488832	36	4297
2026-01-04 00:46:53.15	63.55	29.61	-32.6	-33.8	20.5	0.00e+00	0	56	0	1375731712	36	4230
2026-01-04 00:46:54.16	63.85	29.71	-32.6	-33.8	20.5	0.00e+00	0	56	0	1382023168	36	4202
2026-01-04 00:46:55.17	64.14	29.81	-32.5	-33.7	20.6	0.00e+00	0	56	0	1387266048	36	4175
2026-01-04 00:46:56.19	64.44	29.91	-32.6	-33.8	20.6	0.00e+00	0	56	0	1393557504	36	4195
2026-01-04 00:46:57.20	64.74	30.00	-32.6	-33.8	20.6	0.00e+00	0	56	0	1398800384	36	4196
2026-01-04 00:46:58.21	65.05	30.10	-32.6	-33.8	20.6	0.00e+00	0	56	0	1404043264	36	4194
2026-01-04 00:46:59.22	65.35	30.19	-32.6	-33.8	20.5	0.00e+00	0	56	0	1410334720	36	4241
2026-01-04 00:47:00.23	65.65	30.29	-32.7	-33.9	20.4	0.00e+00	0	56	0	1415577600	36	4286
2026-01-04 00:47:01.24	65.96	30.38	-32.8	-34.0	20.3	0.00e+00	0	56	0	1421869056	36	4337
2026-01-04 00:47:02.25	66.27	30.47	-32.8	-34.0	20.3	0.00e+00	0	56	0	1427111936	36	4328
2026-01-04 00:47:03.26	66.58	30.57	-32.7	-33.9	20.4	0.00e+00	0	56	0	1433403392	36	4283
2026-01-04 00:47:04.27	66.89	30.66	-32.6	-33.9	20.5	0.00e+00	0	56	0	1438646272	36	4250
2026-01-04 00:47:05.28	67.21	30.75	-32.7	-33.9	20.4	0.00e+00	0	56	0	1444937728	36	4282
2026-01-04 00:47:06.29	67.52	30.84	-32.7	-33.9	20.4	0.00e+00	0	56	0	1450180608	36	4262
2026-01-04 00:47:07.30	67.84	30.93	-32.7	-33.9	20.4	0.00e+00	0	56	0	1455423488	36	4288
2026-01-04 00:47:08.31	68.16	31.02	-32.6	-33.9	20.5	0.00e+00	0	56	0	1461714944	36	4246
2026-01-04 00:47:09.32	68.48	31.11	-32.6	-33.8	20.5	0.00e+00	0	56	0	1466957824	36	4234
2026-01-04 00:47:10.33	68.81	31.20	-32.6	-33.8	20.5	0.00e+00	0	57	0	1473249280	36	4203
2026-01-04 00:47:11.34	69.13	31.28	-32.5	-33.7	20.7	0.00e+00	0	56	0	1478492160	36	4149
2026-01-04 00:47:12.35	69.46	31.37	-32.4	-33.6	20.7	0.00e+00	0	56	0	1483735040	36	4125
2026-01-04 00:47:13.36	69.78	31.46	-32.4	-33.6	20.7	0.00e+00	0	56	0	1490026496	36	4143
2026-01-04 00:47:14.36	70.11	31.54	-32.5	-33.7	20.6	0.00e+00	0	56	0	1495269376	36	4184
2026-01-04 00:47:15.37	70.44	31.62	-32.5	-33.7	20.5	0.00e+00	0	56	0	1501560832	36	4186
2026-01-04 00:47:16.38	70.78	31.71	-32.4	-33.6	20.7	0.00e+00	0	56	0	1506803712	36	4132
2026-01-04 00:47:17.39	71.11	31.79	-32.2	-33.4	20.9	0.00e+00	0	56	0	1512046592	36	4017
2026-01-04 00:47:18.40	71.45	31.87	-32.0	-33.2	21.1	0.00e+00	0	56	0	1518338048	36	3930
2026-01-04 00:47:19.41	71.79	31.95	-32.2	-33.4	20.9	0.00e+00	0	56	0	1523580928	36	4007
2026-01-04 00:47:20.42	72.13	32.03	-32.4	-33.6	20.6	0.00e+00	0	56	0	1529872384	36	4129
2026-01-04 00:47:21.43	72.47	32.11	-32.6	-33.8	20.5	0.00e+00	0	56	0	1535115264	36	4219
2026-01-04 00:47:22.44	72.81	32.19	-32.6	-33.8	20.5	0.00e+00	0	56	0	1540358144	36	4234
2026-01-04 00:47:23.45	73.16	32.27	-32.6	-33.8	20.6	0.00e+00	0	56	0	1546649600	36	4203
2026-01-04 00:47:24.46	73.50	32.34	-32.6	-33.8	20.5	0.00e+00	0	56	0	1551892480	36	4232
2026-01-04 00:47:25.47	73.85	32.42	-32.6	-33.9	20.5	0.00e+00	0	56	0	1558183936	36	4248
2026-01-04 00:47:26.48	74.20	32.49	-32.5	-33.8	20.6	0.00e+00	0	56	0	1563426816	36	4201
2026-01-04 00:47:27.49	74.55	32.57	-32.4	-33.6	20.7	0.00e+00	0	56	0	1569718272	36	4121
2026-01-04 00:47:28.50	74.90	32.64	-32.3	-33.5	20.8	0.00e+00	0	56	0	1574961152	36	4075
2026-01-04 00:47:29.51	75.26	32.71	-32.4	-33.6	20.8	0.00e+00	0	56	0	1580204032	36	4109
2026-01-04 00:47:30.52	75.61	32.78	-32.5	-33.7	20.7	0.00e+00	0	56	0	1586495488	36	4183
2026-01-04 00:47:31.53	75.97	32.85	-32.5	-33.7	20.6	0.00e+00	0	56	0	1591738368	36	4192
2026-01-04 00:47:32.54	76.33	32.92	-32.4	-33.6	20.7	0.00e+00	0	57	0	1598029824	36	4145
2026-01-04 00:47:33.55	76.69	32.99	-32.4	-33.6	20.8	0.00e+00	0	56	0	1603272704	36	4103
2026-01-04 00:47:34.56	77.05	33.05	-32.4	-33.6	20.7	0.00e+00	0	56	0	1608515584	36	4116
2026-01-04 00:47:35.57	77.42	33.12	-32.6	-33.8	20.6	0.00e+00	0	56	0	1614807040	36	4200
2026-01-04 00:47:36.58	77.78	33.18	-32.6	-33.8	20.5	0.00e+00	0	56	0	1620049920	36	4237
2026-01-04 00:47:37.59	78.15	33.25	-32.5	-33.8	20.5	0.00e+00	0	56	0	1626341376	36	4194
2026-01-04 00:47:38.61	78.52	33.31	-32.4	-33.5	20.7	0.00e+00	0	56	0	1631584256	36	4091
2026-01-04 00:47:39.62	78.89	33.37	-32.2	-33.4	20.9	0.00e+00	0	56	0	1636827136	36	4018
2026-01-04 00:47:40.63	79.26	33.43	-32.1	-33.2	21.1	0.00e+00	0	56	0	1643118592	36	3954
2026-01-04 00:47:41.64	79.63	33.49	-32.1	-33.3	21.0	0.00e+00	0	56	0	1648361472	36	3971
2026-01-04 00:47:42.65	80.00	33.54	-32.3	-33.4	20.9	0.00e+00	0	56	0	1654652928	36	4050
2026-01-04 00:47:43.65	80.37	33.60	-32.5	-33.7	20.7	0.00e+00	0	56	0	1659895808	36	4149
2026-01-04 00:47:44.66	80.75	33.65	-32.5	-33.7	20.6	0.00e+00	0	56	0	1666187264	36	4181
2026-01-04 00:47:45.67	81.13	33.71	-32.4	-33.6	20.7	0.00e+00	0	56	0	1671430144	36	4124
2026-01-04 00:47:46.68	81.51	33.76	-32.4	-33.6	20.8	0.00e+00	0	56	0	1677721600	36	4109
2026-01-04 00:47:47.69	81.88	33.81	-32.4	-33.5	20.8	0.00e+00	0	56	0	1682964480	36	4097
2026-01-04 00:47:48.70	82.27	33.86	-32.3	-33.5	20.9	0.00e+00	0	56	0	1688207360	36	4057
2026-01-04 00:47:49.72	82.65	33.91	-32.3	-33.5	20.9	0.00e+00	0	56	0	1694498816	36	4063
2026-01-04 00:47:50.73	83.03	33.95	-32.3	-33.5	20.8	0.00e+00	0	56	0	1699741696	36	4079
2026-01-04 00:47:51.74	83.42	34.00	-32.4	-33.5	20.8	0.00e+00	0	56	0	1706033152	36	4097
2026-01-04 00:47:52.75	83.80	34.04	-32.5	-33.6	20.7	0.00e+00	0	56	0	1711276032	36	4138
2026-01-04 00:47:53.76	84.19	34.09	-32.5	-33.7	20.7	0.00e+00	0	56	0	1716518912	36	4148
2026-01-04 00:47:54.77	84.57	34.13	-32.4	-33.6	20.8	0.00e+00	0	56	0	1722810368	36	4105
2026-01-04 00:47:55.78	84.96	34.17	-32.3	-33.5	20.9	0.00e+00	0	56	0	1728053248	36	4064
2026-01-04 00:47:56.79	85.35	34.21	-32.3	-33.4	20.9	0.00e+00	0	56	0	1734344704	36	4041
2026-01-04 00:47:57.80	85.74	34.24	-32.2	-33.4	21.0	0.00e+00	0	56	0	1739587584	36	4025
2026-01-04 00:47:58.81	86.13	34.28	-32.3	-33.4	20.9	0.00e+00	0	57	0	1744830464	36	4042
2026-01-04 00:47:59.82	86.52	34.31	-32.2	-33.4	20.9	0.00e+00	0	57	0	1751121920	36	4034
2026-01-04 00:48:00.83	86.92	34.35	-32.3	-33.4	20.9	0.00e+00	0	56	0	1756364800	36	4051
2026-01-04 00:48:01.84	87.31	34.38	-32.3	-33.4	20.9	0.00e+00	0	56	0	1762656256	36	4044
2026-01-04 00:48:02.85	87.70	34.41	-32.2	-33.4	20.9	0.00e+00	0	56	0	1767899136	36	4023
2026-01-04 00:48:03.86	88.10	34.44	-32.2	-33.3	21.0	0.00e+00	0	57	0	1774190592	36	3994
2026-01-04 00:48:04.87	88.49	34.46	-32.1	-33.3	21.0	0.00e+00	0	56	0	1779433472	36	3982
2026-01-04 00:48:05.88	88.89	34.49	-32.2	-33.3	21.0	0.00e+00	0	56	0	1785724928	36	3986
2026-01-04 00:48:06.89	89.28	34.51	-32.3	-33.5	20.9	0.00e+00	0	56	0	1790967808	36	4063
2026-01-04 00:48:07.90	89.68	34.54	-32.4	-33.6	20.8	0.00e+00	0	56	0	1796210688	36	4112
2026-01-04 00:48:08.91	90.08	34.56	-32.3	-33.5	20.9	0.00e+00	0	56	0	1802502144	36	4075
2026-01-04 00:48:09.92	90.48	34.58	-32.2	-33.3	21.0	0.00e+00	0	56	0	1807745024	36	4000
2026-01-04 00:48:10.93	90.87	34.59	-32.2	-33.3	21.0	0.00e+00	0	56	0	1814036480	36	3981
2026-01-04 00:48:11.94	91.27	34.61	-32.3	-33.4	20.9	0.00e+00	0	57	0	1819279360	36	4029
2026-01-04 00:48:12.95	91.67	34.63	-32.4	-33.6	20.8	0.00e+00	0	56	0	1824522240	36	4135
2026-01-04 00:48:13.96	92.07	34.64	-32.6	-33.8	20.6	0.00e+00	0	56	0	1830813696	36	4194
2026-01-04 00:48:14.97	92.47	34.65	-32.5	-33.7	20.7	0.00e+00	0	56	0	1836056576	36	4177
2026-01-04 00:48:15.98	92.87	34.66	-32.4	-33.6	20.8	0.00e+00	0	57	0	1842348032	36	4123
2026-01-04 00:48:16.99	93.27	34.67	-32.4	-33.5	20.9	0.00e+00	0	56	0	1847590912	36	4084
2026-01-04 00:48:18.01	93.68	34.68	-32.4	-33.6	20.8	0.00e+00	0	56	0	1852833792	36	4130
2026-01-04 00:48:19.01	94.07	34.69	-32.4	-33.6	20.8	0.00e+00	0	56	0	1859125248	36	4125
2026-01-04 00:48:20.02	94.48	34.69	-32.3	-33.5	20.9	0.00e+00	0	56	0	1864368128	36	4054
2026-01-04 00:48:21.03	94.88	34.69	-32.2	-33.4	21.0	0.00e+00	0	56	0	1870659584	36	4023
2026-01-04 00:48:22.04	95.28	34.69	-32.3	-33.5	20.9	0.00e+00	0	57	0	1875902464	36	4069
2026-01-04 00:48:23.05	95.68	34.69	-32.5	-33.7	20.7	0.00e+00	0	56	0	1882193920	36	4150
2026-01-04 00:48:24.06	96.08	34.69	-32.5	-33.7	20.7	0.00e+00	0	56	0	1887436800	36	4170
2026-01-04 00:48:25.07	96.48	34.69	-32.3	-33.5	20.9	0.00e+00	0	56	0	1893728256	36	4074
2026-01-04 00:48:26.09	96.89	34.68	-32.2	-33.3	21.0	0.00e+00	0	56	0	1898971136	36	3983
2026-01-04 00:48:27.09	97.28	34.68	-32.2	-33.3	21.0	0.00e+00	0	56	0	1904214016	36	3984
2026-01-04 00:48:28.11	97.69	34.67	-32.4	-33.5	20.8	0.00e+00	0	57	0	1910505472	36	4092
2026-01-04 00:48:29.12	98.09	34.66	-32.6	-33.8	20.6	0.00e+00	0	57	0	1915748352	36	4201
2026-01-04 00:48:30.13	98.49	34.65	-32.6	-33.8	20.6	0.00e+00	0	56	0	1922039808	36	4223
2026-01-04 00:48:31.13	98.89	34.64	-32.5	-33.7	20.7	0.00e+00	0	56	0	1927282688	36	4186
2026-01-04 00:48:32.15	99.29	34.62	-32.4	-33.6	20.8	0.00e+00	0	56	0	1932525568	36	4132
2026-01-04 00:48:33.16	99.69	34.61	-32.4	-33.6	20.8	0.00e+00	0	56	0	1938817024	36	4111
2026-01-04 00:48:34.17	100.09	34.59	-32.4	-33.6	20.8	0.00e+00	0	56	0	1944059904	36	4128
2026-01-04 00:48:35.18	100.49	34.57	-32.4	-33.6	20.8	0.00e+00	0	56	0	1950351360	36	4129
2026-01-04 00:48:36.19	100.89	34.55	-32.4	-33.6	20.8	0.00e+00	0	57	0	1955594240	36	4118
2026-01-04 00:48:37.20	101.28	34.53	-32.3	-33.4	20.9	0.00e+00	0	56	0	1960837120	36	4046
2026-01-04 00:48:38.21	101.68	34.51	-32.1	-33.3	21.1	0.00e+00	0	56	0	1967128576	36	3968
2026-01-04 00:48:39.22	102.08	34.48	-32.2	-33.4	21.0	0.00e+00	0	56	0	1972371456	36	4012
2026-01-04 00:48:40.23	102.47	34.46	-32.4	-33.6	20.8	0.00e+00	0	56	0	1978662912	36	4128
2026-01-04 00:48:41.24	102.87	34.43	-32.6	-33.8	20.6	0.00e+00	0	56	0	1983905792	36	4206
2026-01-04 00:48:42.25	103.26	34.40	-32.5	-33.7	20.7	0.00e+00	0	56	0	1990197248	36	4166
2026-01-04 00:48:43.26	103.66	34.37	-32.4	-33.6	20.8	0.00e+00	0	56	0	1995440128	36	4122
2026-01-04 00:48:44.27	104.05	34.34	-32.3	-33.5	20.8	0.00e+00	0	56	0	2000683008	36	4083
2026-01-04 00:48:45.27	104.44	34.30	-32.4	-33.6	20.8	0.00e+00	0	56	0	2006974464	36	4101
2026-01-04 00:48:46.28	104.83	34.27	-32.4	-33.6	20.7	0.00e+00	0	56	0	2012217344	36	4136
2026-01-04 00:48:47.29	105.22	34.23	-32.6	-33.8	20.6	0.00e+00	0	56	0	2018508800	36	4204
2026-01-04 00:48:48.30	105.61	34.20	-32.6	-33.8	20.5	0.00e+00	0	57	0	2023751680	36	4234
2026-01-04 00:48:49.31	106.00	34.16	-32.5	-33.7	20.7	0.00e+00	0	56	0	2028994560	36	4154
2026-01-04 00:48:50.32	106.39	34.12	-32.5	-33.6	20.7	0.00e+00	0	56	0	2035286016	36	4145
2026-01-04 00:48:51.33	106.78	34.07	-32.6	-33.8	20.5	0.00e+00	0	56	0	2040528896	36	4230
2026-01-04 00:48:52.34	107.16	34.03	-32.8	-34.1	20.3	0.00e+00	0	56	0	2046820352	36	4356
2026-01-04 00:48:53.35	107.55	33.99	-32.9	-34.1	20.2	0.00e+00	0	57	0	2052063232	36	4374
2026-01-04 00:48:54.36	107.93	33.94	-32.7	-33.9	20.4	0.00e+00	0	56	0	2057306112	36	4277
2026-01-04 00:48:55.37	108.32	33.89	-32.4	-33.6	20.8	0.00e+00	0	57	0	2063597568	36	4114
2026-01-04 00:48:56.38	108.70	33.85	-32.3	-33.5	20.9	0.00e+00	0	56	0	2068840448	36	4052
2026-01-04 00:48:57.39	109.08	33.80	-32.4	-33.5	20.8	0.00e+00	0	57	0	2075131904	36	4094
2026-01-04 00:48:58.40	109.46	33.74	-32.5	-33.7	20.7	0.00e+00	0	56	0	2080374784	36	4170
2026-01-04 00:48:59.41	109.84	33.69	-32.5	-33.7	20.7	0.00e+00	0	56	0	2086666240	36	4150
2026-01-04 00:49:00.42	110.21	33.64	-32.4	-33.6	20.8	0.00e+00	0	57	0	2091909120	36	4108
2026-01-04 00:49:01.43	110.59	33.58	-32.3	-33.4	20.9	0.00e+00	0	56	0	2098200576	36	4042
2026-01-04 00:49:02.44	110.97	33.53	-32.3	-33.5	20.9	0.00e+00	0	56	0	2103443456	36	4066
2026-01-04 00:49:03.45	111.34	33.47	-32.4	-33.6	20.7	0.00e+00	0	57	0	2108686336	36	4139
2026-01-04 00:49:04.46	111.71	33.41	-32.5	-33.7	20.6	0.00e+00	0	56	0	2114977792	36	4158
2026-01-04 00:49:05.47	112.08	33.35	-32.4	-33.6	20.7	0.00e+00	0	57	0	2120220672	36	4133
2026-01-04 00:49:06.48	112.45	33.29	-32.5	-33.7	20.6	0.00e+00	0	57	0	2126512128	36	4190
2026-01-04 00:49:07.49	112.82	33.23	-32.7	-33.9	20.4	0.00e+00	0	57	0	2131755008	36	4279
2026-01-04 00:49:08.50	113.19	33.16	-32.8	-34.1	20.3	0.00e+00	0	56	0	2136997888	36	4349
2026-01-04 00:49:09.51	113.55	33.10	-32.8	-34.0	20.3	0.00e+00	0	57	0	2143289344	36	4335
2026-01-04 00:49:10.52	113.92	33.03	-32.6	-33.8	20.5	0.00e+00	0	57	0	2148532224	36	4230
2026-01-04 00:49:11.53	114.28	32.97	-32.6	-33.8	20.6	0.00e+00	0	57	0	2154823680	36	4197
2026-01-04 00:49:12.54	114.64	32.90	-32.6	-33.9	20.5	0.00e+00	0	57	0	2160066560	36	4249
2026-01-04 00:49:13.55	115.00	32.83	-32.8	-34.0	20.3	0.00e+00	0	57	0	2165309440	36	4326
2026-01-04 00:49:14.56	115.36	32.76	-32.8	-34.1	20.3	0.00e+00	0	57	0	2171600896	36	4343
2026-01-04 00:49:15.57	115.71	32.69	-32.7	-33.9	20.3	0.00e+00	0	57	0	2176843776	36	4288
2026-01-04 00:49:16.58	116.07	32.62	-32.6	-33.8	20.5	0.00e+00	0	56	0	2183135232	36	4238
2026-01-04 00:49:17.59	116.42	32.54	-32.6	-33.8	20.4	0.00e+00	0	57	0	2188378112	36	4239
2026-01-04 00:49:18.60	116.78	32.47	-32.7	-33.9	20.3	0.00e+00	0	57	0	2194669568	36	4290
2026-01-04 00:49:19.60	117.12	32.40	-32.7	-33.9	20.4	0.00e+00	0	57	0	2199912448	36	4285
2026-01-04 00:49:20.61	117.47	32.32	-32.7	-34.0	20.4	0.00e+00	0	56	0	2205155328	36	4293
2026-01-04 00:49:21.62	117.82	32.24	-32.7	-33.9	20.4	0.00e+00	0	56	0	2211446784	36	4274
2026-01-04 00:49:22.63	118.16	32.17	-32.8	-34.0	20.3	0.00e+00	0	56	0	2216689664	36	4322
2026-01-04 00:49:23.64	118.51	32.09	-32.8	-34.1	20.3	0.00e+00	0	57	0	2222981120	36	4359
2026-01-04 00:49:24.65	118.85	32.01	-32.9	-34.1	20.2	0.00e+00	0	57	0	2228224000	36	4382
2026-01-04 00:49:25.67	119.19	31.93	-33.0	-34.2	20.2	0.00e+00	0	57	0	2233466880	36	4415
2026-01-04 00:49:26.68	119.53	31.84	-32.9	-34.2	20.2	0.00e+00	0	56	0	2239758336	36	4416
2026-01-04 00:49:27.69	119.87	31.76	-32.9	-34.2	20.2	0.00e+00	0	57	0	2245001216	36	4420
2026-01-04 00:49:28.70	120.21	31.68	-32.9	-34.1	20.2	0.00e+00	0	56	0	2251292672	36	4383
2026-01-04 00:49:29.71	120.54	31.59	-32.9	-34.1	20.3	0.00e+00	0	57	0	2256535552	36	4371
2026-01-04 00:49:30.72	120.87	31.51	-32.8	-34.1	20.3	0.00e+00	0	57	0	2261778432	36	4350
2026-01-04 00:49:31.73	121.20	31.42	-32.8	-34.1	20.2	0.00e+00	0	56	0	2268069888	36	4348
2026-01-04 00:49:32.74	121.53	31.34	-32.9	-34.1	20.2	0.00e+00	0	56	0	2273312768	36	4371
2026-01-04 00:49:33.75	121.86	31.25	-32.9	-34.1	20.1	0.00e+00	0	57	0	2279604224	36	4384
2026-01-04 00:49:34.76	122.18	31.16	-32.9	-34.2	20.1	0.00e+00	0	57	0	2284847104	36	4404
2026-01-04 00:49:35.77	122.51	31.07	-33.0	-34.2	20.1	0.00e+00	0	56	0	2291138560	36	4418
2026-01-04 00:49:36.78	122.83	30.98	-33.0	-34.2	20.1	0.00e+00	0	57	0	2296381440	36	4429
2026-01-04 00:49:37.79	123.15	30.89	-32.9	-34.1	20.2	0.00e+00	0	57	0	2302672896	36	4383
2026-01-04 00:49:38.80	123.47	30.80	-32.9	-34.1	20.3	0.00e+00	0	56	0	2307915776	36	4357
2026-01-04 00:49:39.81	123.79	30.71	-32.9	-34.1	20.3	0.00e+00	0	57	0	2313158656	36	4382
2026-01-04 00:49:40.82	124.10	30.62	-33.0	-34.2	20.2	0.00e+00	0	57	0	2319450112	36	4409
2026-01-04 00:49:41.83	124.41	30.53	-32.9	-34.1	20.3	0.00e+00	0	57	0	2324692992	36	4367
2026-01-04 00:49:42.84	124.72	30.43	-32.8	-34.0	20.4	0.00e+00	0	57	0	2330984448	36	4302
2026-01-04 00:49:43.85	125.03	30.34	-32.6	-33.8	20.5	0.00e+00	0	57	0	2336227328	36	4227
2026-01-04 00:49:44.86	125.34	30.25	-32.6	-33.8	20.5	0.00e+00	0	57	0	2341470208	36	4233
2026-01-04 00:49:45.87	125.65	30.15	-32.7	-33.9	20.4	0.00e+00	0	57	0	2347761664	36	4287
2026-01-04 00:49:46.88	125.95	30.05	-32.9	-34.1	20.2	0.00e+00	0	57	0	2353004544	36	4390
2026-01-04 00:49:47.89	126.25	29.96	-33.0	-34.3	20.1	0.00e+00	0	57	0	2359296000	36	4447
2026-01-04 00:49:48.90	126.56	29.86	-33.0	-34.2	20.1	0.00e+00	0	57	0	2364538880	36	4429
2026-01-04 00:49:49.91	126.85	29.76	-32.9	-34.2	20.2	0.00e+00	0	57	0	2369781760	36	4398
2026-01-04 00:49:50.92	127.15	29.67	-32.9	-34.1	20.3	0.00e+00	0	56	0	2376073216	36	4366
2026-01-04 00:49:51.93	127.45	29.57	-32.9	-34.1	20.2	0.00e+00	0	56	0	2381316096	36	4363
2026-01-04 00:49:52.94	127.74	29.47	-32.9	-34.2	20.2	0.00e+00	0	57	0	2387607552	36	4403
2026-01-04 00:49:53.95	128.03	29.37	-32.9	-34.2	20.2	0.00e+00	0	56	0	2392850432	36	4397
2026-01-04 00:49:54.96	128.32	29.27	-32.9	-34.2	20.2	0.00e+00	0	56	0	2399141888	36	4404
2026-01-04 00:49:55.98	128.61	29.17	-33.0	-34.2	20.2	0.00e+00	0	56	0	2404384768	36	4424
2026-01-04 00:49:56.99	128.90	29.07	-33.0	-34.2	20.2	0.00e+00	0	56	0	2410676224	36	4438
2026-01-04 00:49:58.00	129.19	28.97	-33.0	-34.2	20.2	0.00e+00	0	56	0	2415919104	36	4434
2026-01-04 00:49:59.01	129.47	28.87	-33.0	-34.2	20.1	0.00e+00	0	57	0	2421161984	36	4433
2026-01-04 00:50:00.02	129.75	28.77	-33.0	-34.3	20.1	0.00e+00	0	57	0	2427453440	36	4458
2026-01-04 00:50:01.03	130.03	28.66	-33.1	-34.3	20.1	0.00e+00	0	57	0	2432696320	36	4482
2026-01-04 00:50:02.04	130.31	28.56	-33.0	-34.3	20.1	0.00e+00	0	57	0	2438987776	36	4452
2026-01-04 00:50:03.05	130.58	28.46	-33.1	-34.3	20.0	0.00e+00	0	56	0	2444230656	36	4486
2026-01-04 00:50:04.05	130.86	28.36	-33.1	-34.4	20.0	0.00e+00	0	57	0	2449473536	36	4496
2026-01-04 00:50:05.06	131.13	28.25	-33.1	-34.3	20.0	0.00e+00	0	57	0	2455764992	36	4486
2026-01-04 00:50:06.07	131.40	28.15	-33.2	-34.4	20.0	0.00e+00	0	57	0	2461007872	36	4532
2026-01-04 00:50:07.08	131.67	28.05	-33.2	-34.5	19.9	0.00e+00	0	57	0	2467299328	37	4314
2026-01-04 00:50:08.09	131.94	27.94	-33.3	-34.5	19.9	0.00e+00	0	57	0	2472542208	37	4330
2026-01-04 00:50:09.10	132.20	27.84	-33.2	-34.5	20.0	0.00e+00	0	57	0	2477785088	37	4296
2026-01-04 00:50:10.11	132.47	27.73	-33.1	-34.3	20.1	0.00e+00	0	56	0	2484076544	37	4222
2026-01-04 00:50:11.12	132.73	27.63	-32.9	-34.1	20.3	0.00e+00	0	57	0	2489319424	37	4107
2026-01-04 00:50:12.13	132.99	27.52	-32.8	-34.0	20.4	0.00e+00	0	57	0	2495610880	37	4077
2026-01-04 00:50:13.15	133.25	27.42	-32.9	-34.1	20.3	0.00e+00	0	57	0	2500853760	37	4129
2026-01-04 00:50:14.16	133.51	27.31	-33.0	-34.2	20.2	0.00e+00	0	57	0	2507145216	37	4172
2026-01-04 00:50:15.17	133.76	27.21	-33.2	-34.4	20.0	0.00e+00	0	57	0	2512388096	37	4283
2026-01-04 00:50:16.18	134.02	27.10	-33.3	-34.6	19.8	0.00e+00	0	57	0	2518679552	37	4369
2026-01-04 00:50:17.19	134.27	26.99	-33.4	-34.7	19.7	0.00e+00	0	57	0	2523922432	37	4401
2026-01-04 00:50:18.20	134.52	26.89	-33.4	-34.7	19.7	0.00e+00	0	57	0	2529165312	37	4429
2026-01-04 00:50:19.21	134.77	26.78	-33.4	-34.7	19.7	0.00e+00	0	57	0	2535456768	37	4427
2026-01-04 00:50:20.22	135.02	26.67	-33.4	-34.6	19.8	0.00e+00	0	56	0	2540699648	37	4391
2026-01-04 00:50:21.23	135.26	26.57	-33.4	-34.6	19.8	0.00e+00	0	57	0	2546991104	37	4391
2026-01-04 00:50:22.24	135.51	26.46	-33.3	-34.6	19.8	0.00e+00	0	57	0	2552233984	37	4359
2026-01-04 00:50:23.25	135.75	26.35	-33.3	-34.6	19.9	0.00e+00	0	57	0	2557476864	37	4353
2026-01-04 00:50:24.26	135.99	26.25	-33.3	-34.6	19.9	0.00e+00	0	57	0	2563768320	37	4364
2026-01-04 00:50:25.27	136.23	26.14	-33.3	-34.6	19.9	0.00e+00	0	57	0	2569011200	37	4346
2026-01-04 00:50:26.28	136.47	26.03	-33.3	-34.6	19.8	0.00e+00	0	57	0	2575302656	37	4365
2026-01-04 00:50:27.29	136.71	25.92	-33.3	-34.6	19.8	0.00e+00	0	57	0	2580545536	37	4374
2026-01-04 00:50:28.30	136.94	25.82	-33.3	-34.6	19.9	0.00e+00	0	57	0	2585788416	37	4346
2026-01-04 00:50:29.31	137.18	25.71	-33.2	-34.5	19.9	0.00e+00	0	57	0	2592079872	37	4307
2026-01-04 00:50:30.33	137.41	25.60	-33.1	-34.4	20.0	0.00e+00	0	57	0	2597322752	37	4267
2026-01-04 00:50:31.34	137.64	25.49	-33.0	-34.3	20.2	0.00e+00	0	57	0	2603614208	37	4196
2026-01-04 00:50:32.35	137.87	25.39	-33.0	-34.3	20.2	0.00e+00	0	57	0	2608857088	37	4199
2026-01-04 00:50:33.36	138.10	25.28	-33.0	-34.2	20.2	0.00e+00	0	57	0	2615148544	37	4168
2026-01-04 00:50:34.36	138.32	25.17	-33.0	-34.3	20.1	0.00e+00	0	57	0	2620391424	37	4207
2026-01-04 00:50:35.37	138.54	25.06	-33.1	-34.4	20.0	0.00e+00	0	57	0	2626682880	37	4257
2026-01-04 00:50:36.38	138.77	24.96	-33.2	-34.5	20.0	0.00e+00	0	57	0	2631925760	37	4312
2026-01-04 00:50:37.39	138.99	24.85	-33.3	-34.6	19.9	0.00e+00	0	57	0	2637168640	37	4347
2026-01-04 00:50:38.40	139.21	24.74	-33.4	-34.6	19.8	0.00e+00	0	57	0	2643460096	37	4383
2026-01-04 00:50:39.41	139.42	24.63	-33.4	-34.7	19.8	0.00e+00	0	57	0	2648702976	37	4418
2026-01-04 00:50:40.42	139.64	24.53	-33.4	-34.7	19.8	0.00e+00	0	57	0	2654994432	37	4426
2026-01-04 00:50:41.43	139.86	24.42	-33.4	-34.7	19.8	0.00e+00	0	57	0	2660237312	37	4417
2026-01-04 00:50:42.44	140.07	24.31	-33.4	-34.6	19.9	0.00e+00	0	57	0	2665480192	37	4377
2026-01-04 00:50:43.45	140.28	24.20	-33.3	-34.6	19.9	0.00e+00	0	57	0	2671771648	37	4352
2026-01-04 00:50:44.46	140.49	24.10	-33.3	-34.6	19.9	0.00e+00	0	57	0	2677014528	37	4354
2026-01-04 00:50:45.47	140.70	23.99	-33.4	-34.6	19.9	0.00e+00	0	57	0	2682257408	37	4361
2026-01-04 00:50:46.48	140.91	23.88	-33.5	-34.7	19.7	0.00e+00	0	57	0	2688548864	37	4435
2026-01-04 00:50:47.49	141.12	23.77	-33.6	-34.9	19.6	0.00e+00	0	57	0	2693791744	37	4510
2026-01-04 00:50:48.50	141.33	23.67	-33.6	-34.9	19.6	0.00e+00	0	56	0	2700083200	37	4533
2026-01-04 00:50:49.51	141.53	23.56	-33.7	-35.0	19.5	0.00e+00	0	57	0	2705326080	37	4564
2026-01-04 00:50:50.52	141.73	23.45	-33.8	-35.1	19.4	0.00e+00	0	57	0	2711617536	38	4345
2026-01-04 00:50:51.53	141.93	23.34	-33.8	-35.2	19.3	0.00e+00	0	57	0	2716860416	38	4398
2026-01-04 00:50:52.54	142.13	23.24	-33.9	-35.2	19.3	0.00e+00	0	57	0	2723151872	38	4422
2026-01-04 00:50:53.55	142.33	23.13	-33.9	-35.2	19.3	0.00e+00	0	57	0	2728394752	38	4433
2026-01-04 00:50:54.56	142.53	23.02	-33.8	-35.2	19.3	0.00e+00	0	57	0	2733637632	38	4400
2026-01-04 00:50:55.57	142.73	22.92	-33.8	-35.2	19.4	0.00e+00	0	57	0	2739929088	38	4394
2026-01-04 00:50:56.58	142.92	22.81	-33.8	-35.1	19.4	0.00e+00	0	57	0	2745171968	38	4368
2026-01-04 00:50:57.59	143.11	22.70	-33.8	-35.1	19.4	0.00e+00	0	57	0	2751463424	38	4346
2026-01-04 00:50:58.59	143.30	22.60	-33.7	-35.0	19.5	0.00e+00	0	57	0	2756706304	38	4313
2026-01-04 00:50:59.61	143.50	22.49	-33.7	-35.0	19.5	0.00e+00	0	57	0	2761949184	38	4319
2026-01-04 00:51:00.62	143.69	22.38	-33.7	-35.0	19.5	0.00e+00	0	57	0	2768240640	38	4329
2026-01-04 00:51:01.63	143.88	22.28	-33.8	-35.1	19.4	0.00e+00	0	57	0	2773483520	38	4369
2026-01-04 00:51:02.64	144.06	22.17	-33.9	-35.2	19.3	0.00e+00	0	57	0	2779774976	38	4408
2026-01-04 00:51:03.65	144.25	22.07	-33.9	-35.2	19.2	0.00e+00	0	57	0	2785017856	38	4435
2026-01-04 00:51:04.66	144.43	21.96	-34.0	-35.3	19.2	0.00e+00	0	57	0	2790260736	38	4462
2026-01-04 00:51:05.67	144.62	21.86	-34.0	-35.3	19.1	0.00e+00	0	57	0	2796552192	38	4493
2026-01-04 00:51:06.68	144.80	21.75	-34.0	-35.4	19.1	0.00e+00	0	57	0	2801795072	38	4504
2026-01-04 00:51:07.69	144.98	21.65	-33.9	-35.3	19.2	0.00e+00	0	57	0	2808086528	38	4451
2026-01-04 00:51:08.70	145.16	21.54	-33.9	-35.2	19.2	0.00e+00	0	57	0	2813329408	38	4429
2026-01-04 00:51:09.71	145.34	21.44	-33.9	-35.2	19.3	0.00e+00	0	57	0	2819620864	38	4424
2026-01-04 00:51:10.72	145.52	21.33	-33.9	-35.2	19.2	0.00e+00	0	57	0	2824863744	38	4430
2026-01-04 00:51:11.73	145.69	21.23	-33.9	-35.2	19.3	0.00e+00	0	57	0	2831155200	38	4417
2026-01-04 00:51:12.74	145.87	21.12	-33.9	-35.2	19.2	0.00e+00	0	57	0	2836398080	38	4432
2026-01-04 00:51:13.75	146.04	21.02	-34.0	-35.3	19.1	0.00e+00	0	57	0	2841640960	38	4467
2026-01-04 00:51:14.76	146.22	20.91	-34.0	-35.4	19.0	0.00e+00	0	57	0	2847932416	38	4511
2026-01-04 00:51:15.77	146.39	20.81	-34.1	-35.4	19.0	0.00e+00	0	57	0	2853175296	38	4527
2026-01-04 00:51:16.78	146.56	20.71	-34.2	-35.5	18.9	0.00e+00	0	57	0	2859466752	38	4576
2026-01-04 00:51:17.79	146.73	20.60	-34.2	-35.5	18.9	0.00e+00	0	57	0	2864709632	38	4598
2026-01-04 00:51:18.80	146.90	20.50	-34.2	-35.6	18.9	0.00e+00	0	57	0	2869952512	39	4341
2026-01-04 00:51:19.81	147.06	20.40	-34.3	-35.6	18.8	0.00e+00	0	57	0	2876243968	39	4372
2026-01-04 00:51:20.82	147.23	20.29	-34.3	-35.6	18.8	0.00e+00	0	57	0	2881486848	39	4378
2026-01-04 00:51:21.83	147.39	20.19	-34.3	-35.7	18.7	0.00e+00	0	57	0	2887778304	39	4410
2026-01-04 00:51:22.84	147.56	20.09	-34.3	-35.7	18.7	0.00e+00	0	57	0	2893021184	39	4421
2026-01-04 00:51:23.85	147.72	19.98	-34.4	-35.8	18.7	0.00e+00	0	57	0	2898264064	39	4455
2026-01-04 00:51:24.86	147.88	19.88	-34.4	-35.8	18.6	0.00e+00	0	57	0	2904555520	39	4484
2026-01-04 00:51:25.87	148.04	19.78	-34.5	-35.9	18.6	0.00e+00	0	57	0	2909798400	39	4524
2026-01-04 00:51:26.88	148.20	19.68	-34.6	-36.0	18.5	0.00e+00	0	57	0	2916089856	39	4569
2026-01-04 00:51:27.89	148.36	19.58	-34.7	-36.1	18.4	0.00e+00	0	57	0	2921332736	39	4637
2026-01-04 00:51:28.90	148.52	19.48	-34.7	-36.1	18.2	0.00e+00	0	57	0	2927624192	40	4374
2026-01-04 00:51:29.91	148.68	19.37	-34.8	-36.2	18.2	0.00e+00	0	57	0	2932867072	40	4425
2026-01-04 00:51:30.92	148.83	19.27	-34.8	-36.2	18.2	0.00e+00	0	57	0	2939158528	40	4421
2026-01-04 00:51:31.93	148.99	19.17	-34.8	-36.2	18.2	0.00e+00	0	57	0	2944401408	40	4412
2026-01-04 00:51:32.94	149.14	19.07	-34.7	-36.1	18.3	0.00e+00	0	57	0	2949644288	40	4374
2026-01-04 00:51:33.95	149.30	18.97	-34.7	-36.1	18.3	0.00e+00	0	57	0	2955935744	40	4372
2026-01-04 00:51:34.96	149.45	18.87	-34.7	-36.1	18.3	0.00e+00	0	57	0	2961178624	40	4370
2026-01-04 00:51:35.97	149.60	18.77	-34.7	-36.1	18.3	0.00e+00	0	57	0	2967470080	40	4381
2026-01-04 00:51:36.98	149.75	18.67	-34.7	-36.1	18.3	0.00e+00	0	57	0	2972712960	40	4387
2026-01-04 00:51:37.99	149.90	18.57	-34.7	-36.2	18.3	0.00e+00	0	57	0	2977955840	40	4392
2026-01-04 00:51:39.01	150.05	18.47	-34.8	-36.2	18.3	0.00e+00	0	57	0	2984247296	40	4425
2026-01-04 00:51:40.02	150.19	18.37	-34.8	-36.3	18.1	0.00e+00	0	57	0	2989490176	40	4442
2026-01-04 00:51:41.03	150.34	18.27	-34.9	-36.4	18.1	0.00e+00	0	57	0	2995781632	40	4518
2026-01-04 00:51:42.04	150.49	18.18	-34.9	-36.4	18.0	0.00e+00	0	57	0	3001024512	40	4539
2026-01-04 00:51:43.05	150.63	18.08	-35.0	-36.4	18.0	0.00e+00	0	57	0	3006267392	40	4539
2026-01-04 00:51:44.05	150.77	17.98	-35.0	-36.5	17.9	0.00e+00	0	57	0	3012558848	40	4579
2026-01-04 00:51:45.06	150.91	17.88	-35.0	-36.5	17.9	0.00e+00	0	57	0	3017801728	40	4564
2026-01-04 00:51:46.08	151.06	17.78	-35.0	-36.5	18.0	0.00e+00	0	57	0	3024093184	40	4569
2026-01-04 00:51:47.09	151.20	17.69	-34.9	-36.4	18.0	0.00e+00	0	57	0	3029336064	40	4530
2026-01-04 00:51:48.10	151.34	17.59	-34.9	-36.4	18.0	0.00e+00	0	57	0	3035627520	40	4504
2026-01-04 00:51:49.11	151.48	17.49	-34.9	-36.3	18.0	0.00e+00	0	57	0	3040870400	40	4487
2026-01-04 00:51:50.12	151.62	17.39	-34.9	-36.3	18.1	0.00e+00	0	57	0	3046113280	40	4474
2026-01-04 00:51:51.13	151.75	17.30	-34.8	-36.3	18.1	0.00e+00	0	57	0	3052404736	40	4461
2026-01-04 00:51:52.14	151.89	17.20	-34.9	-36.3	18.1	0.00e+00	0	57	0	3057647616	40	4478
2026-01-04 00:51:53.15	152.02	17.11	-34.9	-36.3	18.0	0.00e+00	0	57	0	3063939072	40	4473
2026-01-04 00:51:54.16	152.16	17.01	-34.9	-36.4	18.0	0.00e+00	0	57	0	3069181952	40	4509
2026-01-04 00:51:55.17	152.29	16.91	-34.9	-36.4	18.0	0.00e+00	0	57	0	3074424832	40	4510
2026-01-04 00:51:56.18	152.43	16.82	-35.0	-36.5	17.9	0.00e+00	0	57	0	3080716288	40	4546
2026-01-04 00:51:57.19	152.56	16.72	-35.0	-36.5	17.9	0.00e+00	0	57	0	3085959168	40	4550
2026-01-04 00:51:58.20	152.69	16.63	-34.9	-36.4	18.0	0.00e+00	0	57	0	3092250624	40	4512
2026-01-04 00:51:59.21	152.82	16.53	-35.0	-36.5	17.9	0.00e+00	0	57	0	3097493504	40	4563
2026-01-04 00:52:00.22	152.95	16.44	-35.0	-36.5	17.9	0.00e+00	0	57	0	3102736384	40	4552
2026-01-04 00:52:01.23	153.08	16.34	-35.1	-36.5	17.8	0.00e+00	0	57	0	3109027840	40	4593
2026-01-04 00:52:02.24	153.21	16.25	-35.0	-36.5	17.9	0.00e+00	0	57	0	3114270720	40	4573
2026-01-04 00:52:03.25	153.34	16.16	-35.1	-36.6	17.8	0.00e+00	0	57	0	3120562176	40	4624
2026-01-04 00:52:04.26	153.46	16.06	-35.1	-36.6	17.8	0.00e+00	0	57	0	3125805056	40	4606
2026-01-04 00:52:05.27	153.59	15.97	-35.1	-36.6	17.8	0.00e+00	0	57	0	3132096512	40	4602
2026-01-04 00:52:06.28	153.71	15.88	-35.1	-36.5	17.8	0.00e+00	0	57	0	3137339392	40	4598
2026-01-04 00:52:07.29	153.84	15.78	-35.1	-36.6	17.8	0.00e+00	0	57	0	3143630848	40	4625
2026-01-04 00:52:08.30	153.96	15.69	-35.1	-36.6	17.8	0.00e+00	0	57	0	3148873728	40	4640
2026-01-04 00:52:09.31	154.09	15.60	-35.1	-36.6	17.8	0.00e+00	0	57	0	3154116608	40	4642
2026-01-04 00:52:10.32	154.21	15.51	-35.2	-36.7	17.7	0.00e+00	0	57	0	3160408064	40	4664
2026-01-04 00:52:11.33	154.33	15.41	-35.3	-36.8	17.6	0.00e+00	0	57	0	3165650944	41	4442
2026-01-04 00:52:12.34	154.45	15.32	-35.2	-36.7	17.7	0.00e+00	0	57	0	3171942400	41	4430
2026-01-04 00:52:13.35	154.57	15.23	-35.3	-36.8	17.6	0.00e+00	0	57	0	3177185280	41	4468
2026-01-04 00:52:14.36	154.69	15.14	-35.4	-36.9	17.5	0.00e+00	0	57	0	3182428160	41	4513
2026-01-04 00:52:15.37	154.81	15.05	-35.4	-36.9	17.4	0.00e+00	0	57	0	3188719616	41	4538
2026-01-04 00:52:16.38	154.93	14.96	-35.4	-36.9	17.5	0.00e+00	0	57	0	3193962496	41	4534
2026-01-04 00:52:17.39	155.04	14.87	-35.4	-36.9	17.5	0.00e+00	0	57	0	3200253952	41	4511
2026-01-04 00:52:18.40	155.16	14.78	-35.4	-37.0	17.4	0.00e+00	0	57	0	3205496832	41	4551
2026-01-04 00:52:19.41	155.28	14.68	-35.4	-36.9	17.4	0.00e+00	0	57	0	3210739712	41	4534
2026-01-04 00:52:20.43	155.39	14.59	-35.5	-37.0	17.4	0.00e+00	0	57	0	3217031168	41	4570
2026-01-04 00:52:21.44	155.51	14.50	-35.5	-37.0	17.4	0.00e+00	0	57	0	3222274048	41	4565
2026-01-04 00:52:22.45	155.62	14.41	-35.4	-36.9	17.4	0.00e+00	0	57	0	3228565504	41	4539
2026-01-04 00:52:23.46	155.74	14.33	-35.5	-37.0	17.3	0.00e+00	0	57	0	3233808384	41	4575
2026-01-04 00:52:24.47	155.85	14.24	-35.5	-37.1	17.3	0.00e+00	0	57	0	3240099840	41	4612
2026-01-04 00:52:25.48	155.96	14.15	-35.5	-37.1	17.3	0.00e+00	0	57	0	3245342720	41	4605
2026-01-04 00:52:26.49	156.07	14.06	-35.6	-37.1	17.2	0.00e+00	0	57	0	3251634176	41	4648
2026-01-04 00:52:27.50	156.18	13.97	-35.6	-37.2	17.1	0.00e+00	0	57	0	3256877056	41	4683
2026-01-04 00:52:28.51	156.29	13.88	-35.7	-37.2	17.1	0.00e+00	0	57	0	3262119936	41	4699
2026-01-04 00:52:29.52	156.40	13.79	-35.8	-37.4	17.0	0.00e+00	0	57	0	3268411392	42	4500
2026-01-04 00:52:30.53	156.51	13.71	-35.9	-37.5	16.9	0.00e+00	0	57	0	3273654272	42	4558
2026-01-04 00:52:31.54	156.62	13.62	-35.8	-37.4	16.9	0.00e+00	0	57	0	3279945728	42	4529
2026-01-04 00:52:32.55	156.73	13.53	-35.9	-37.5	16.8	0.00e+00	0	57	0	3285188608	42	4585
2026-01-04 00:52:33.56	156.83	13.44	-36.0	-37.6	16.7	0.00e+00	0	57	0	3290431488	42	4627
2026-01-04 00:52:34.57	156.94	13.36	-36.0	-37.6	16.7	0.00e+00	0	57	0	3296722944	42	4644
2026-01-04 00:52:35.58	157.04	13.27	-36.0	-37.7	16.7	0.00e+00	0	57	0	3301965824	42	4655
2026-01-04 00:52:36.59	157.15	13.18	-36.0	-37.7	16.6	0.00e+00	0	57	0	3308257280	42	4685
2026-01-04 00:52:37.60	157.25	13.10	-36.1	-37.7	16.6	0.00e+00	0	57	0	3313500160	42	4699
2026-01-04 00:52:38.61	157.36	13.01	-36.1	-37.8	16.5	0.00e+00	0	57	0	3318743040	42	4733
2026-01-04 00:52:39.62	157.46	12.93	-36.1	-37.8	16.5	0.00e+00	0	57	0	3325034496	42	4734
2026-01-04 00:52:40.63	157.56	12.84	-36.2	-37.8	16.5	0.00e+00	0	57	0	3330277376	42	4752
2026-01-04 00:52:41.64	157.67	12.76	-36.1	-37.8	16.6	0.00e+00	0	57	0	3336568832	42	4719
2026-01-04 00:52:42.65	157.77	12.67	-36.1	-37.8	16.5	0.00e+00	0	57	0	3341811712	42	4730
2026-01-04 00:52:43.66	157.87	12.59	-36.2	-37.8	16.5	0.00e+00	0	57	0	3348103168	42	4752
2026-01-04 00:52:44.67	157.97	12.50	-36.2	-37.9	16.5	0.00e+00	0	57	0	3353346048	42	4760
2026-01-04 00:52:45.68	158.07	12.42	-36.1	-37.8	16.5	0.00e+00	0	57	0	3359637504	43	4460
2026-01-04 00:52:46.69	158.17	12.33	-36.2	-37.8	16.5	0.00e+00	0	57	0	3364880384	43	4477
2026-01-04 00:52:47.70	158.27	12.25	-36.2	-37.8	16.5	0.00e+00	0	57	0	3370123264	43	4477
2026-01-04 00:52:48.71	158.37	12.17	-36.2	-37.8	16.5	0.00e+00	0	57	0	3376414720	43	4475
2026-01-04 00:52:49.72	158.46	12.08	-36.2	-37.8	16.4	0.00e+00	0	57	0	3381657600	43	4485
2026-01-04 00:52:50.73	158.56	12.00	-36.1	-37.8	16.5	0.00e+00	0	57	0	3387949056	43	4451
2026-01-04 00:52:51.74	158.66	11.91	-36.2	-37.8	16.5	0.00e+00	0	57	0	3393191936	43	4480
2026-01-04 00:52:52.75	158.76	11.83	-36.2	-37.9	16.4	0.00e+00	0	57	0	3398434816	43	4499
2026-01-04 00:52:53.76	158.85	11.75	-36.3	-37.9	16.3	0.00e+00	0	57	0	3404726272	43	4532
2026-01-04 00:52:54.77	158.95	11.67	-36.2	-37.9	16.3	0.00e+00	0	57	0	3409969152	43	4524
2026-01-04 00:52:55.78	159.04	11.58	-36.2	-37.9	16.3	0.00e+00	0	57	0	3416260608	43	4523
2026-01-04 00:52:56.79	159.13	11.50	-36.3	-38.0	16.2	0.00e+00	0	57	0	3421503488	43	4569
2026-01-04 00:52:57.80	159.23	11.42	-36.3	-38.0	16.2	0.00e+00	0	57	0	3426746368	43	4577
2026-01-04 00:52:58.81	159.32	11.34	-36.3	-38.0	16.2	0.00e+00	0	57	0	3433037824	43	4586
2026-01-04 00:52:59.82	159.41	11.26	-36.3	-38.0	16.2	0.00e+00	0	57	0	3438280704	43	4594
2026-01-04 00:53:00.83	159.51	11.18	-36.4	-38.1	16.1	0.00e+00	0	57	0	3444572160	43	4613
2026-01-04 00:53:01.84	159.60	11.10	-36.3	-38.0	16.2	0.00e+00	0	57	0	3449815040	43	4595
2026-01-04 00:53:02.85	159.69	11.01	-36.3	-38.0	16.2	0.00e+00	0	57	0	3456106496	43	4575
2026-01-04 00:53:03.86	159.78	10.93	-36.3	-38.0	16.2	0.00e+00	0	57	0	3461349376	43	4578
2026-01-04 00:53:04.87	159.87	10.85	-36.4	-38.1	16.1	0.00e+00	0	57	0	3467640832	43	4643
2026-01-04 00:53:05.88	159.96	10.77	-36.4	-38.1	16.1	0.00e+00	0	57	0	3472883712	43	4629
2026-01-04 00:53:06.89	160.05	10.69	-36.5	-38.2	15.9	0.00e+00	0	57	0	3478126592	43	4703
