passes_logs/2026/01/04/R2.0S_Moscow/R2.0S_Moscow__20260104_043426_FENGYUN_3G_rec.log

#Pass ID: 20260104_043426_FENGYUN 3G
#Satellite: FENGYUN 3G
#Configuration: FENGYUN 3G
#almurnet v.1.7.20251203
#Start time: 2026-01-04 04:34:28

#Version: 2.2.20231116
#Station: R2.0S_Moscow
#Location: 37.707566 lon 55.798166 lat
#TLE: 1 56232U 23055A   26003.53327032  .00047684  00000+0  75687-3 0  9993
#TLE: 2 56232  49.9936 115.0642 0004181 334.2418  25.8340 15.52822756154418

#Time	Az	El	Level	Level2	SNR	BER	BlckErr	Temp	State	Recorded	gain1	gain2
2026-01-04 04:34:28.37	258.07	2.11	-44.0	-62.3	3.8	8.46e-01	0	47	0	0	60	28326
2026-01-04 04:34:29.38	258.00	2.18	-44.0	-62.0	3.8	8.45e-01	0	48	104	0	60	27345
2026-01-04 04:34:30.39	257.94	2.24	-44.0	-62.2	3.8	8.46e-01	0	48	104	0	60	27959
2026-01-04 04:34:31.40	257.87	2.31	-44.0	-62.2	3.8	8.46e-01	0	48	104	0	60	28018
2026-01-04 04:34:32.41	257.81	2.37	-44.0	-62.2	3.8	8.46e-01	0	48	104	0	60	27925
2026-01-04 04:34:33.43	257.74	2.44	-44.0	-62.2	3.8	8.46e-01	0	48	104	0	60	27881
2026-01-04 04:34:34.44	257.67	2.51	-44.0	-62.2	3.8	8.47e-01	0	48	104	0	60	27984
2026-01-04 04:34:35.45	257.60	2.58	-44.0	-62.3	3.8	8.47e-01	0	48	104	0	60	28105
2026-01-04 04:34:36.46	257.54	2.64	-44.0	-62.3	3.8	8.47e-01	0	48	104	0	60	28108
2026-01-04 04:34:37.47	257.47	2.71	-44.0	-62.4	3.8	8.44e-01	0	48	104	0	60	28513
2026-01-04 04:34:38.48	257.40	2.78	-44.0	-62.4	3.8	8.44e-01	0	48	104	0	60	28552
2026-01-04 04:34:39.49	257.33	2.85	-44.0	-62.4	3.8	8.47e-01	0	48	104	0	60	28502
2026-01-04 04:34:40.50	257.26	2.92	-44.0	-62.4	3.8	8.46e-01	0	48	104	0	60	28371
2026-01-04 04:34:41.51	257.19	2.98	-44.0	-62.3	3.8	8.46e-01	0	48	104	0	60	28317
2026-01-04 04:34:42.53	257.12	3.05	-44.0	-62.4	3.8	8.45e-01	0	48	104	0	60	28366
2026-01-04 04:34:43.54	257.05	3.12	-44.0	-62.4	3.8	8.46e-01	0	48	104	0	60	28465
2026-01-04 04:34:44.55	256.97	3.19	-44.0	-62.4	3.8	8.46e-01	0	49	104	0	60	28529
2026-01-04 04:34:45.56	256.90	3.26	-44.0	-62.4	3.8	8.46e-01	0	49	104	0	60	28575
2026-01-04 04:34:46.57	256.83	3.33	-44.0	-62.4	3.8	8.45e-01	0	49	104	0	60	28479
2026-01-04 04:34:47.58	256.75	3.40	-44.0	-62.4	3.8	8.47e-01	0	49	104	0	60	28588
2026-01-04 04:34:48.59	256.68	3.47	-44.0	-62.4	3.8	8.47e-01	0	49	104	0	60	28507
2026-01-04 04:34:49.60	256.61	3.54	-44.0	-62.4	3.8	8.46e-01	0	49	104	0	60	28570
2026-01-04 04:34:50.61	256.53	3.61	-44.0	-62.4	3.8	8.46e-01	0	49	104	0	60	28507
2026-01-04 04:34:51.62	256.46	3.68	-44.0	-62.4	3.8	8.46e-01	0	49	104	0	60	28498
2026-01-04 04:34:52.63	256.38	3.76	-44.0	-62.4	3.8	8.46e-01	0	49	104	0	60	28474
2026-01-04 04:34:53.65	256.30	3.83	-44.0	-62.4	3.8	8.46e-01	0	49	104	0	60	28511
2026-01-04 04:34:54.66	256.23	3.90	-44.0	-62.4	3.8	8.47e-01	0	49	104	0	60	28482
2026-01-04 04:34:55.67	256.15	3.97	-44.0	-62.4	3.8	8.47e-01	0	49	104	0	60	28465
2026-01-04 04:34:56.68	256.07	4.04	-44.0	-62.4	3.8	8.46e-01	0	49	104	0	60	28480
2026-01-04 04:34:57.69	255.99	4.12	-44.0	-62.4	3.8	8.46e-01	0	49	104	0	60	28519
2026-01-04 04:34:58.70	255.91	4.19	-44.0	-62.4	3.8	8.46e-01	0	49	104	0	60	28519
2026-01-04 04:34:59.71	255.83	4.26	-44.0	-62.4	3.8	8.47e-01	0	49	104	0	60	28401
2026-01-04 04:35:00.72	255.75	4.33	-44.0	-62.4	3.8	8.46e-01	0	50	104	0	60	28379
2026-01-04 04:35:01.73	255.67	4.41	-44.0	-62.3	3.8	8.46e-01	0	50	104	0	60	28291
2026-01-04 04:35:02.74	255.59	4.48	-44.0	-62.3	3.8	8.47e-01	0	50	104	0	60	28159
2026-01-04 04:35:03.75	255.51	4.55	-44.0	-62.3	3.8	8.46e-01	0	50	104	0	60	28189
2026-01-04 04:35:04.76	255.42	4.63	-44.0	-62.3	3.8	8.46e-01	0	50	104	0	60	28337
2026-01-04 04:35:05.78	255.34	4.70	-44.0	-62.4	3.8	8.46e-01	0	50	104	0	60	28394
2026-01-04 04:35:06.79	255.25	4.78	-44.0	-62.3	3.8	8.46e-01	0	50	104	0	60	28316
2026-01-04 04:35:07.80	255.17	4.85	-44.0	-62.3	3.8	8.46e-01	0	50	104	0	60	28213
2026-01-04 04:35:08.81	255.08	4.93	-44.0	-62.2	3.8	8.46e-01	0	50	104	0	60	27725
2026-01-04 04:35:09.82	255.00	5.00	-44.0	-62.0	3.8	8.46e-01	0	50	104	0	60	27359
2026-01-04 04:35:10.83	254.91	5.08	-44.0	-61.7	3.8	8.46e-01	0	50	104	0	60	26334
2026-01-04 04:35:11.84	254.82	5.16	-44.0	-61.5	3.8	8.46e-01	0	50	104	0	60	25573
2026-01-04 04:35:12.85	254.73	5.23	-44.0	-61.2	3.8	8.47e-01	0	50	104	0	60	24909
2026-01-04 04:35:13.86	254.65	5.31	-44.0	-61.0	3.8	8.46e-01	0	50	104	0	60	24208
2026-01-04 04:35:14.87	254.56	5.39	-44.0	-60.8	3.8	8.46e-01	0	50	104	0	60	23815
2026-01-04 04:35:15.89	254.47	5.46	-44.0	-60.7	3.9	8.45e-01	0	50	104	0	60	23411
2026-01-04 04:35:16.90	254.37	5.54	-44.0	-60.6	3.8	8.45e-01	0	50	104	0	60	23154
2026-01-04 04:35:17.91	254.28	5.62	-44.0	-60.8	3.8	8.45e-01	0	51	104	0	60	23603
2026-01-04 04:35:18.92	254.19	5.70	-44.0	-60.9	3.8	8.46e-01	0	50	104	0	60	24055
2026-01-04 04:35:19.93	254.10	5.78	-44.0	-60.7	3.8	8.45e-01	0	51	104	0	60	23483
2026-01-04 04:35:20.94	254.00	5.85	-44.0	-60.3	3.9	8.46e-01	0	51	104	0	60	22435
2026-01-04 04:35:21.95	253.91	5.93	-44.1	-60.2	3.8	8.46e-01	0	50	104	0	59	23516
2026-01-04 04:35:22.96	253.82	6.01	-44.0	-59.9	3.8	8.46e-01	0	51	104	0	59	22648
2026-01-04 04:35:23.97	253.72	6.09	-44.1	-59.3	4.1	8.44e-01	0	51	0	0	59	21220
2026-01-04 04:35:24.98	253.62	6.17	-44.0	-58.8	4.2	8.44e-01	0	51	0	0	59	19886
2026-01-04 04:35:26.00	253.52	6.25	-44.0	-58.0	4.5	8.38e-01	0	51	0	0	59	18237
2026-01-04 04:35:27.01	253.43	6.33	-44.0	-57.4	4.7	8.22e-01	0	51	0	0	59	16938
2026-01-04 04:35:28.02	253.33	6.42	-43.9	-56.8	5.0	8.22e-01	0	51	0	0	59	15918
2026-01-04 04:35:29.03	253.23	6.50	-43.9	-56.1	5.5	7.87e-01	0	51	0	0	59	14643
2026-01-04 04:35:30.04	253.13	6.58	-43.8	-55.7	5.8	7.02e-01	0	51	0	0	59	13907
2026-01-04 04:35:31.05	253.03	6.66	-43.8	-55.5	5.9	4.38e-01	0	51	0	1572864	59	13659
2026-01-04 04:35:32.06	252.92	6.74	-43.8	-55.4	6.0	4.38e-01	0	51	0	2621440	59	13497
2026-01-04 04:35:33.07	252.82	6.82	-43.8	-55.7	5.8	3.68e-01	0	51	0	3670016	59	13915
2026-01-04 04:35:34.08	252.72	6.91	-43.9	-57.0	5.0	5.58e-01	0	51	0	4194304	59	16302
2026-01-04 04:35:35.09	252.61	6.99	-44.0	-59.0	4.1	5.58e-01	0	51	0	4194304	59	20493
2026-01-04 04:35:36.10	252.51	7.07	-44.1	-61.2	3.8	8.20e-01	0	51	104	4194304	59	26358
2026-01-04 04:35:37.11	252.40	7.16	-44.0	-59.7	3.9	8.45e-01	0	51	104	4194304	59	22124
2026-01-04 04:35:38.12	252.29	7.24	-43.8	-54.9	6.2	8.45e-01	0	51	0	4194304	59	12673
2026-01-04 04:35:39.14	252.19	7.33	-43.3	-51.4	9.7	6.69e-01	0	51	0	5242880	58	8980
2026-01-04 04:35:40.15	252.08	7.41	-42.6	-48.7	12.6	3.85e-02	0	51	0	6291456	57	6971
2026-01-04 04:35:41.16	251.97	7.50	-41.6	-46.3	14.9	3.85e-02	0	51	0	7340032	55	5972
2026-01-04 04:35:42.17	251.86	7.58	-40.9	-44.9	16.4	1.14e-04	0	52	0	8388608	53	5674
2026-01-04 04:35:43.18	251.74	7.67	-40.4	-43.9	17.4	1.10e-06	0	52	0	9961472	52	5349
2026-01-04 04:35:44.19	251.63	7.76	-40.0	-43.2	18.0	0.00e+00	0	52	0	11010048	52	4977
2026-01-04 04:35:45.20	251.52	7.84	-39.4	-42.3	19.1	0.00e+00	0	52	0	12058624	50	5013
2026-01-04 04:35:46.21	251.40	7.93	-39.3	-42.1	19.3	0.00e+00	0	52	0	13107200	50	4917
2026-01-04 04:35:47.22	251.29	8.02	-39.6	-42.5	18.9	0.00e+00	0	52	0	14155776	50	5144
2026-01-04 04:35:48.23	251.17	8.10	-39.3	-42.1	19.0	0.00e+00	0	52	0	15728640	50	4888
2026-01-04 04:35:49.24	251.05	8.19	-44.3	-60.4	3.8	0.00e+00	0	52	104	16252928	59	24058
2026-01-04 04:35:50.25	250.94	8.28	-40.0	-43.0	17.6	4.89e-01	0	52	0	16252928	51	5145
2026-01-04 04:35:51.26	250.82	8.37	-41.7	-46.6	13.9	4.89e-01	0	52	0	17301504	55	6197
2026-01-04 04:35:52.27	250.70	8.46	-39.8	-42.9	18.4	1.94e-05	0	52	0	18874368	51	5046
2026-01-04 04:35:53.28	250.57	8.55	-42.9	-49.8	10.4	5.14e-05	0	52	0	19922944	57	7903
2026-01-04 04:35:54.29	250.45	8.64	-39.1	-41.7	19.7	5.14e-05	0	52	0	20971520	49	4941
2026-01-04 04:35:55.30	250.33	8.73	-39.2	-41.9	19.5	8.94e-03	0	52	0	22020096	49	5096
2026-01-04 04:35:56.31	250.20	8.82	-39.3	-42.0	19.4	0.00e+00	0	52	0	23068672	49	5147
2026-01-04 04:35:57.32	250.08	8.91	-39.1	-41.7	19.7	0.00e+00	0	52	0	24117248	49	4977
2026-01-04 04:35:58.33	249.95	9.00	-39.0	-41.6	19.9	0.00e+00	0	52	0	25690112	49	4912
2026-01-04 04:35:59.34	249.82	9.10	-39.1	-41.7	19.8	0.00e+00	0	52	0	26738688	49	4983
2026-01-04 04:36:00.35	249.70	9.19	-39.0	-41.7	19.8	0.00e+00	0	52	0	27787264	49	4947
2026-01-04 04:36:01.36	249.57	9.28	-38.7	-41.2	20.3	0.00e+00	0	52	0	28835840	49	4657
2026-01-04 04:36:02.37	249.43	9.37	-38.5	-40.8	20.7	0.00e+00	0	52	0	29884416	48	4755
2026-01-04 04:36:03.38	249.30	9.47	-38.3	-40.7	20.8	0.00e+00	0	52	0	31457280	48	4663
2026-01-04 04:36:04.38	249.17	9.56	-38.2	-40.5	21.0	0.00e+00	0	52	0	32505856	48	4551
2026-01-04 04:36:05.39	249.03	9.66	-38.1	-40.3	21.2	0.00e+00	0	52	0	33554432	48	4463
2026-01-04 04:36:06.40	248.90	9.75	-38.1	-40.3	21.2	0.00e+00	0	52	0	34603008	48	4463
2026-01-04 04:36:07.41	248.76	9.85	-38.0	-40.2	21.3	0.00e+00	0	52	0	35651584	48	4439
2026-01-04 04:36:08.42	248.62	9.94	-38.0	-40.2	21.3	0.00e+00	0	52	0	36700160	48	4437
2026-01-04 04:36:09.43	248.48	10.04	-38.1	-40.3	21.3	0.00e+00	0	52	0	38273024	48	4476
2026-01-04 04:36:10.44	248.34	10.13	-38.2	-40.5	21.1	0.00e+00	0	53	0	39321600	48	4548
2026-01-04 04:36:11.45	248.20	10.23	-38.0	-40.2	21.3	0.00e+00	0	52	0	40370176	48	4428
2026-01-04 04:36:12.46	248.06	10.33	-38.0	-40.2	21.4	0.00e+00	0	53	0	41418752	47	4672
2026-01-04 04:36:13.47	247.91	10.43	-38.0	-40.3	21.3	0.00e+00	0	53	0	42467328	47	4711
2026-01-04 04:36:14.47	247.77	10.52	-37.9	-40.1	21.5	0.00e+00	0	53	0	43515904	47	4620
2026-01-04 04:36:15.48	247.62	10.62	-37.9	-40.2	21.4	0.00e+00	0	53	0	45088768	47	4657
2026-01-04 04:36:16.49	247.47	10.72	-38.0	-40.3	21.3	0.00e+00	0	53	0	46137344	47	4713
2026-01-04 04:36:17.50	247.32	10.82	-37.9	-40.1	21.5	0.00e+00	0	53	0	47185920	47	4634
2026-01-04 04:36:18.51	247.17	10.92	-38.0	-40.3	21.3	0.00e+00	0	53	0	48234496	47	4718
2026-01-04 04:36:19.52	247.02	11.02	-37.9	-40.1	21.4	0.00e+00	0	53	0	49283072	47	4637
2026-01-04 04:36:20.53	246.86	11.12	-37.9	-40.1	21.6	0.00e+00	0	52	0	50331648	47	4600
2026-01-04 04:36:21.54	246.71	11.22	-37.9	-40.0	21.5	0.00e+00	0	53	0	51904512	47	4591
2026-01-04 04:36:22.55	246.55	11.33	-37.6	-39.6	21.9	0.00e+00	0	53	0	52953088	47	4386
2026-01-04 04:36:23.56	246.39	11.43	-37.3	-39.3	22.3	0.00e+00	0	53	0	54001664	46	4470
2026-01-04 04:36:24.57	246.23	11.53	-37.3	-39.3	22.3	0.00e+00	0	53	0	55050240	46	4450
2026-01-04 04:36:25.57	246.07	11.63	-37.1	-39.1	22.5	0.00e+00	0	53	0	56098816	46	4380
2026-01-04 04:36:26.58	245.91	11.74	-37.1	-39.1	22.5	0.00e+00	0	53	0	57147392	46	4353
2026-01-04 04:36:27.59	245.74	11.84	-37.4	-39.4	22.3	0.00e+00	0	53	0	58195968	46	4515
2026-01-04 04:36:28.60	245.58	11.95	-37.3	-39.4	22.3	0.00e+00	0	53	0	59768832	46	4494
2026-01-04 04:36:29.61	245.41	12.05	-37.5	-39.5	22.1	0.00e+00	0	53	0	60817408	46	4587
2026-01-04 04:36:30.62	245.24	12.16	-37.6	-39.7	21.9	0.00e+00	0	53	0	61865984	46	4696
2026-01-04 04:36:31.63	245.07	12.26	-37.6	-39.7	21.9	0.00e+00	0	53	0	62914560	46	4685
2026-01-04 04:36:32.64	244.90	12.37	-37.5	-39.6	22.1	0.00e+00	0	53	0	63963136	46	4600
2026-01-04 04:36:33.66	244.72	12.48	-37.3	-39.3	22.4	0.00e+00	0	53	0	65011712	46	4463
2026-01-04 04:36:34.66	244.55	12.59	-37.1	-39.0	22.7	0.00e+00	0	53	0	66584576	46	4302
2026-01-04 04:36:35.67	244.37	12.69	-37.0	-39.0	22.7	0.00e+00	0	53	0	67633152	46	4303
2026-01-04 04:36:36.68	244.19	12.80	-36.9	-38.8	22.8	0.00e+00	0	53	0	68681728	45	4480
2026-01-04 04:36:37.69	244.01	12.91	-36.9	-38.9	22.7	0.00e+00	0	53	0	69730304	45	4496
2026-01-04 04:36:38.70	243.82	13.02	-37.0	-38.9	22.7	0.00e+00	0	53	0	70778880	45	4523
2026-01-04 04:36:39.72	243.64	13.13	-37.0	-38.9	22.7	0.00e+00	0	53	0	72351744	45	4536
2026-01-04 04:36:40.73	243.45	13.24	-37.1	-39.1	22.6	0.00e+00	0	53	0	73400320	45	4607
2026-01-04 04:36:41.74	243.26	13.35	-37.1	-39.1	22.6	0.00e+00	0	53	0	74448896	45	4604
2026-01-04 04:36:42.75	243.07	13.47	-37.2	-39.2	22.5	0.00e+00	0	53	0	75497472	45	4700
2026-01-04 04:36:43.76	242.88	13.58	-37.2	-39.2	22.5	0.00e+00	0	53	0	76546048	45	4686
2026-01-04 04:36:44.77	242.69	13.69	-37.1	-39.1	22.7	0.00e+00	0	53	0	77594624	45	4604
2026-01-04 04:36:45.78	242.49	13.80	-37.0	-38.9	22.8	0.00e+00	0	53	0	79167488	45	4534
2026-01-04 04:36:46.79	242.29	13.92	-36.9	-38.8	22.8	0.00e+00	0	53	0	80216064	45	4492
2026-01-04 04:36:47.80	242.09	14.03	-37.0	-38.9	22.8	0.00e+00	0	53	0	81264640	45	4509
2026-01-04 04:36:48.81	241.89	14.15	-37.1	-39.0	22.7	0.00e+00	0	53	0	82313216	45	4575
2026-01-04 04:36:49.82	241.69	14.26	-37.1	-39.1	22.7	0.00e+00	0	54	0	83361792	45	4620
2026-01-04 04:36:50.83	241.48	14.38	-37.3	-39.3	22.5	0.00e+00	0	54	0	84410368	45	4723
2026-01-04 04:36:51.84	241.27	14.49	-37.3	-39.3	22.4	0.00e+00	0	53	0	85983232	45	4746
2026-01-04 04:36:52.84	241.06	14.61	-37.4	-39.4	22.3	0.00e+00	0	54	0	87031808	45	4796
2026-01-04 04:36:53.86	240.85	14.73	-37.3	-39.3	22.5	0.00e+00	0	53	0	88080384	45	4726
2026-01-04 04:36:54.87	240.64	14.84	-37.2	-39.2	22.6	0.00e+00	0	53	0	89128960	45	4671
2026-01-04 04:36:55.87	240.42	14.96	-37.3	-39.2	22.6	0.00e+00	0	54	0	90177536	45	4684
2026-01-04 04:36:56.88	240.20	15.08	-37.3	-39.2	22.6	0.00e+00	0	54	0	91226112	45	4698
2026-01-04 04:36:57.89	239.98	15.20	-37.0	-38.9	22.9	0.00e+00	0	53	0	92798976	45	4496
2026-01-04 04:36:58.90	239.76	15.32	-36.6	-38.4	23.4	0.00e+00	0	54	0	93847552	45	4265
2026-01-04 04:36:59.91	239.53	15.44	-36.7	-38.5	23.3	0.00e+00	0	54	0	94896128	45	4320
2026-01-04 04:37:00.92	239.30	15.56	-36.8	-38.7	23.2	0.00e+00	0	54	0	95944704	45	4398
2026-01-04 04:37:01.93	239.07	15.68	-36.5	-38.3	23.5	0.00e+00	0	53	0	96993280	45	4224
2026-01-04 04:37:02.94	238.84	15.80	-36.4	-38.2	23.6	0.00e+00	0	54	0	98041856	44	4396
2026-01-04 04:37:03.96	238.60	15.92	-36.0	-37.7	24.0	0.00e+00	0	54	0	99090432	44	4189
2026-01-04 04:37:04.97	238.37	16.04	-36.0	-37.7	24.0	0.00e+00	0	54	0	100663296	44	4191
2026-01-04 04:37:05.98	238.13	16.17	-36.1	-37.8	24.0	0.00e+00	0	54	0	101711872	44	4208
2026-01-04 04:37:06.99	237.88	16.29	-36.4	-38.1	23.7	0.00e+00	0	54	0	102760448	44	4378
2026-01-04 04:37:08.00	237.64	16.41	-36.4	-38.2	23.6	0.00e+00	0	54	0	103809024	44	4393
2026-01-04 04:37:09.01	237.39	16.54	-36.5	-38.3	23.5	0.00e+00	0	54	0	104857600	44	4467
2026-01-04 04:37:10.01	237.14	16.66	-36.4	-38.2	23.6	0.00e+00	0	54	0	106430464	44	4400
2026-01-04 04:37:11.02	236.89	16.79	-36.4	-38.1	23.7	0.00e+00	0	54	0	107479040	44	4382
2026-01-04 04:37:12.03	236.64	16.91	-36.3	-38.1	23.7	0.00e+00	0	54	0	108527616	44	4348
2026-01-04 04:37:13.04	236.38	17.04	-36.1	-37.8	24.0	0.00e+00	0	54	0	109576192	44	4229
2026-01-04 04:37:14.05	236.12	17.16	-35.7	-37.4	24.2	0.00e+00	0	54	0	110624768	43	4273
2026-01-04 04:37:15.06	235.85	17.29	-35.6	-37.3	24.3	0.00e+00	0	54	0	111673344	43	4211
2026-01-04 04:37:16.07	235.59	17.42	-35.5	-37.1	24.4	0.00e+00	0	54	0	113246208	43	4133
2026-01-04 04:37:17.08	235.32	17.54	-35.4	-37.0	24.6	0.00e+00	0	54	0	114294784	42	4332
2026-01-04 04:37:18.10	235.04	17.67	-35.4	-37.0	24.6	0.00e+00	0	54	0	115343360	42	4338
2026-01-04 04:37:19.11	234.77	17.80	-35.3	-36.9	24.7	0.00e+00	0	54	0	116391936	42	4284
2026-01-04 04:37:20.11	234.49	17.93	-35.4	-37.0	24.6	0.00e+00	0	54	0	117440512	42	4320
2026-01-04 04:37:21.12	234.21	18.06	-35.3	-37.0	24.7	0.00e+00	0	54	0	118489088	42	4293
2026-01-04 04:37:22.13	233.93	18.19	-35.5	-37.1	24.6	0.00e+00	0	54	0	120061952	42	4375
2026-01-04 04:37:23.14	233.64	18.32	-35.5	-37.2	24.5	0.00e+00	0	54	0	121110528	42	4415
2026-01-04 04:37:24.16	233.35	18.45	-35.5	-37.1	24.5	0.00e+00	0	54	0	122159104	42	4378
2026-01-04 04:37:25.17	233.06	18.58	-35.6	-37.2	24.4	0.00e+00	0	54	0	123207680	42	4427
2026-01-04 04:37:26.18	232.76	18.71	-35.4	-37.0	24.7	0.00e+00	0	54	0	124256256	42	4325
2026-01-04 04:37:27.19	232.46	18.84	-35.5	-37.1	24.6	0.00e+00	0	54	0	125304832	42	4364
2026-01-04 04:37:28.20	232.16	18.97	-35.3	-36.9	24.7	0.00e+00	0	54	0	126877696	42	4286
2026-01-04 04:37:29.20	231.86	19.10	-35.2	-36.8	24.9	0.00e+00	0	54	0	127926272	42	4196
2026-01-04 04:37:30.22	231.55	19.23	-35.0	-36.6	25.1	0.00e+00	0	54	0	128974848	42	4100
2026-01-04 04:37:31.22	231.24	19.36	-35.0	-36.6	25.1	0.00e+00	0	54	0	130023424	42	4110
2026-01-04 04:37:32.23	230.93	19.49	-34.9	-36.5	25.2	0.00e+00	0	54	0	131072000	41	4292
2026-01-04 04:37:33.24	230.61	19.63	-35.0	-36.5	25.1	0.00e+00	0	54	0	132120576	41	4328
2026-01-04 04:37:34.26	230.28	19.76	-35.2	-36.8	24.9	0.00e+00	0	54	0	133693440	41	4454
2026-01-04 04:37:35.26	229.96	19.89	-35.0	-36.6	25.1	0.00e+00	0	54	0	134742016	41	4357
2026-01-04 04:37:36.27	229.63	20.02	-35.0	-36.6	25.1	0.00e+00	0	54	0	135790592	41	4348
2026-01-04 04:37:37.28	229.30	20.16	-35.0	-36.5	25.1	0.00e+00	0	54	0	136839168	41	4333
2026-01-04 04:37:38.30	228.96	20.29	-35.1	-36.7	25.0	0.00e+00	0	54	0	137887744	41	4412
2026-01-04 04:37:39.30	228.63	20.42	-35.2	-36.8	24.9	0.00e+00	0	54	0	138936320	41	4483
2026-01-04 04:37:40.31	228.28	20.56	-35.3	-36.9	24.8	0.00e+00	0	54	0	140509184	41	4510
2026-01-04 04:37:41.32	227.94	20.69	-35.0	-36.5	25.2	0.00e+00	0	54	0	141557760	41	4336
2026-01-04 04:37:42.33	227.59	20.82	-34.8	-36.3	25.3	0.00e+00	0	54	0	142606336	41	4209
2026-01-04 04:37:43.34	227.23	20.95	-34.7	-36.3	25.4	0.00e+00	0	54	0	143654912	41	4199
2026-01-04 04:37:44.35	226.88	21.09	-34.8	-36.4	25.3	0.00e+00	0	54	0	144703488	41	4257
2026-01-04 04:37:45.36	226.52	21.22	-34.9	-36.5	25.2	0.00e+00	0	54	0	145752064	41	4325
2026-01-04 04:37:46.37	226.15	21.35	-34.9	-36.5	25.2	0.00e+00	0	54	0	147324928	41	4309
2026-01-04 04:37:47.38	225.78	21.49	-34.8	-36.3	25.4	0.00e+00	0	54	0	148373504	41	4238
2026-01-04 04:37:48.39	225.41	21.62	-34.8	-36.3	25.4	0.00e+00	0	54	0	149422080	41	4227
2026-01-04 04:37:49.40	225.04	21.75	-34.7	-36.3	25.4	0.00e+00	0	54	0	150470656	41	4214
2026-01-04 04:37:50.41	224.66	21.88	-34.8	-36.4	25.3	0.00e+00	0	54	0	151519232	41	4251
2026-01-04 04:37:51.42	224.27	22.01	-34.9	-36.5	25.2	0.00e+00	0	54	0	152567808	41	4312
2026-01-04 04:37:52.43	223.89	22.15	-34.9	-36.4	25.3	0.00e+00	0	54	0	154140672	41	4285
2026-01-04 04:37:53.44	223.50	22.28	-34.8	-36.3	25.4	0.00e+00	0	54	0	155189248	41	4237
2026-01-04 04:37:54.45	223.10	22.41	-34.4	-35.9	25.8	0.00e+00	0	54	0	156237824	40	4245
2026-01-04 04:37:55.46	222.70	22.54	-34.4	-35.9	25.8	0.00e+00	0	54	0	157286400	40	4254
2026-01-04 04:37:56.47	222.30	22.67	-34.4	-35.9	25.8	0.00e+00	0	54	0	158334976	40	4280
2026-01-04 04:37:57.48	221.89	22.80	-34.4	-35.8	25.8	0.00e+00	0	54	0	159383552	40	4239
2026-01-04 04:37:58.49	221.48	22.93	-34.2	-35.6	26.0	0.00e+00	0	54	0	160956416	40	4142
2026-01-04 04:37:59.50	221.07	23.06	-34.2	-35.7	26.0	0.00e+00	0	54	0	162004992	40	4157
2026-01-04 04:38:00.51	220.65	23.18	-34.3	-35.8	26.0	0.00e+00	0	55	0	163053568	40	4215
2026-01-04 04:38:01.52	220.22	23.31	-34.3	-35.8	25.9	0.00e+00	0	54	0	164102144	40	4229
2026-01-04 04:38:02.53	219.80	23.44	-34.4	-35.9	25.9	0.00e+00	0	54	0	165150720	40	4265
2026-01-04 04:38:03.54	219.37	23.57	-34.2	-35.6	26.1	0.00e+00	0	54	0	166199296	40	4135
2026-01-04 04:38:04.55	218.93	23.69	-34.4	-35.9	25.9	0.00e+00	0	54	0	167772160	40	4262
2026-01-04 04:38:05.56	218.49	23.82	-34.3	-35.8	25.9	0.00e+00	0	55	0	168820736	40	4223
2026-01-04 04:38:06.57	218.05	23.94	-34.5	-36.0	25.8	0.00e+00	0	54	0	169869312	40	4297
2026-01-04 04:38:07.58	217.60	24.06	-34.6	-36.1	25.7	0.00e+00	0	54	0	170917888	40	4355
2026-01-04 04:38:08.59	217.15	24.18	-34.5	-36.0	25.7	0.00e+00	0	55	0	171966464	40	4324
2026-01-04 04:38:09.60	216.69	24.31	-34.7	-36.2	25.5	0.00e+00	0	54	0	173015040	40	4426
2026-01-04 04:38:10.61	216.23	24.43	-34.5	-36.0	25.7	0.00e+00	0	54	0	174063616	40	4322
2026-01-04 04:38:11.62	215.77	24.54	-34.4	-35.9	25.8	0.00e+00	0	55	0	175636480	40	4267
2026-01-04 04:38:12.63	215.30	24.66	-34.3	-35.8	25.9	0.00e+00	0	54	0	176685056	40	4229
2026-01-04 04:38:13.64	214.83	24.78	-34.3	-35.8	25.8	0.00e+00	0	54	0	177733632	40	4200
2026-01-04 04:38:14.65	214.35	24.90	-34.1	-35.5	26.2	0.00e+00	0	55	0	178782208	40	4081
2026-01-04 04:38:15.66	213.87	25.01	-33.8	-35.2	26.6	0.00e+00	0	55	0	179830784	39	4157
2026-01-04 04:38:16.67	213.39	25.12	-34.0	-35.5	26.4	0.00e+00	0	54	0	181403648	39	4292
2026-01-04 04:38:17.68	212.90	25.23	-33.8	-35.2	26.5	0.00e+00	0	55	0	182452224	39	4172
2026-01-04 04:38:18.69	212.41	25.34	-33.5	-34.9	26.9	0.00e+00	0	54	0	183500800	39	4020
2026-01-04 04:38:19.70	211.91	25.45	-33.6	-35.0	26.8	0.00e+00	0	55	0	184549376	39	4064
2026-01-04 04:38:20.71	211.41	25.56	-33.8	-35.2	26.5	0.00e+00	0	54	0	185597952	39	4169
2026-01-04 04:38:21.72	210.91	25.67	-33.8	-35.2	26.6	0.00e+00	0	54	0	186646528	39	4175
2026-01-04 04:38:22.73	210.40	25.77	-34.0	-35.5	26.3	0.00e+00	0	55	0	188219392	39	4309
2026-01-04 04:38:23.74	209.89	25.87	-34.3	-35.8	26.1	0.00e+00	0	55	0	189267968	39	4454
2026-01-04 04:38:24.75	209.38	25.97	-34.2	-35.6	26.1	0.00e+00	0	55	0	190316544	39	4388
2026-01-04 04:38:25.76	208.86	26.07	-34.0	-35.4	26.3	0.00e+00	0	54	0	191365120	39	4285
2026-01-04 04:38:26.77	208.33	26.17	-33.8	-35.2	26.5	0.00e+00	0	54	0	192413696	39	4188
2026-01-04 04:38:27.77	207.81	26.26	-33.4	-34.8	26.8	0.00e+00	0	55	0	193462272	38	4214
2026-01-04 04:38:28.78	207.28	26.36	-33.3	-34.7	27.0	0.00e+00	0	55	0	195035136	38	4146
2026-01-04 04:38:29.79	206.75	26.45	-33.5	-34.9	26.9	0.00e+00	0	55	0	196083712	38	4248
2026-01-04 04:38:30.80	206.21	26.54	-34.0	-35.4	26.4	0.00e+00	0	55	0	197132288	38	4514
2026-01-04 04:38:31.81	205.67	26.63	-33.5	-34.9	26.8	0.00e+00	0	55	0	198180864	38	4252
2026-01-04 04:38:32.82	205.13	26.71	-33.4	-34.8	26.9	0.00e+00	0	55	0	199229440	38	4214
2026-01-04 04:38:33.83	204.58	26.79	-33.7	-35.1	26.7	0.00e+00	0	55	0	200278016	38	4383
2026-01-04 04:38:34.84	204.03	26.87	-33.2	-34.6	27.1	0.00e+00	0	55	0	201850880	38	4121
2026-01-04 04:38:35.85	203.48	26.95	-33.1	-34.4	27.2	0.00e+00	0	55	0	202899456	38	4031
2026-01-04 04:38:36.86	202.92	27.03	-33.6	-35.0	26.7	0.00e+00	0	55	0	203948032	38	4333
2026-01-04 04:38:37.87	202.36	27.10	-33.4	-34.8	26.9	0.00e+00	0	55	0	204996608	38	4224
2026-01-04 04:38:38.88	201.80	27.17	-33.4	-34.8	26.7	0.00e+00	0	55	0	206045184	38	4216
2026-01-04 04:38:39.89	201.24	27.24	-33.7	-35.1	26.6	0.00e+00	0	55	0	207093760	38	4371
2026-01-04 04:38:40.90	200.67	27.31	-33.6	-35.0	26.8	0.00e+00	0	55	0	208666624	38	4315
2026-01-04 04:38:41.91	200.10	27.37	-33.7	-35.1	26.6	0.00e+00	0	55	0	209715200	38	4388
2026-01-04 04:38:42.92	199.52	27.43	-34.1	-35.5	26.3	0.00e+00	0	55	0	210763776	38	4570
2026-01-04 04:38:43.93	198.95	27.49	-34.1	-35.5	26.3	0.00e+00	0	55	0	211812352	38	4595
2026-01-04 04:38:44.94	198.37	27.54	-34.0	-35.5	26.4	0.00e+00	0	55	0	212860928	38	4548
2026-01-04 04:38:45.95	197.79	27.60	-33.9	-35.3	26.4	0.00e+00	0	55	0	213909504	38	4477
2026-01-04 04:38:46.96	197.21	27.65	-33.6	-35.0	26.7	0.00e+00	0	55	0	215482368	38	4306
2026-01-04 04:38:47.98	196.62	27.69	-33.6	-35.0	26.8	0.00e+00	0	55	0	216530944	38	4300
2026-01-04 04:38:48.98	196.04	27.74	-33.8	-35.2	26.5	0.00e+00	0	55	0	217579520	38	4429
2026-01-04 04:38:49.99	195.45	27.78	-33.9	-35.3	26.4	0.00e+00	0	55	0	218628096	38	4490
2026-01-04 04:38:51.00	194.86	27.82	-34.2	-35.7	25.9	0.00e+00	0	55	0	219676672	39	4419
2026-01-04 04:38:52.01	194.27	27.85	-34.0	-35.4	26.3	0.00e+00	0	55	0	220725248	39	4282
2026-01-04 04:38:53.02	193.68	27.89	-33.5	-34.9	26.8	0.00e+00	0	55	0	222298112	39	4039
2026-01-04 04:38:54.03	193.09	27.92	-33.8	-35.2	26.6	0.00e+00	0	55	0	223346688	39	4169
2026-01-04 04:38:55.04	192.49	27.94	-33.8	-35.3	26.5	0.00e+00	0	55	0	224395264	39	4198
2026-01-04 04:38:56.05	191.90	27.97	-33.7	-35.1	26.6	0.00e+00	0	55	0	225443840	39	4134
2026-01-04 04:38:57.07	191.29	27.99	-33.9	-35.3	26.4	0.00e+00	0	55	0	226492416	39	4235
2026-01-04 04:38:58.08	190.70	28.00	-33.4	-34.8	26.9	0.00e+00	0	55	0	227540992	38	4212
2026-01-04 04:38:59.09	190.10	28.02	-33.3	-34.7	27.0	0.00e+00	0	55	0	229113856	38	4151
2026-01-04 04:39:00.10	189.50	28.03	-33.5	-34.9	26.8	0.00e+00	0	55	0	230162432	38	4277
2026-01-04 04:39:01.11	188.90	28.04	-33.5	-34.9	26.8	0.00e+00	0	55	0	231211008	38	4243
2026-01-04 04:39:02.12	188.30	28.04	-33.4	-34.8	27.0	0.00e+00	0	55	0	232259584	38	4194
2026-01-04 04:39:03.13	187.70	28.04	-33.4	-34.8	26.9	0.00e+00	0	55	0	233308160	38	4220
2026-01-04 04:39:04.14	187.10	28.04	-33.2	-34.5	27.1	0.00e+00	0	55	0	234356736	38	4087
2026-01-04 04:39:05.15	186.50	28.04	-33.3	-34.7	27.0	0.00e+00	0	55	0	235929600	38	4164
2026-01-04 04:39:06.15	185.91	28.03	-33.6	-35.0	26.7	0.00e+00	0	55	0	236978176	38	4337
2026-01-04 04:39:07.16	185.31	28.02	-33.4	-34.8	26.9	0.00e+00	0	55	0	238026752	38	4232
2026-01-04 04:39:08.17	184.71	28.00	-33.6	-35.0	26.7	0.00e+00	0	55	0	239075328	38	4328
2026-01-04 04:39:09.18	184.12	27.99	-33.4	-34.8	26.8	0.00e+00	0	55	0	240123904	38	4235
2026-01-04 04:39:10.19	183.52	27.97	-33.4	-34.8	26.9	0.00e+00	0	55	0	241172480	38	4223
2026-01-04 04:39:11.20	182.92	27.95	-33.6	-35.0	26.7	0.00e+00	0	55	0	242745344	38	4317
2026-01-04 04:39:12.21	182.33	27.92	-33.6	-35.0	26.7	0.00e+00	0	55	0	243793920	38	4316
2026-01-04 04:39:13.22	181.73	27.89	-33.5	-34.9	26.7	0.00e+00	0	55	0	244842496	38	4285
2026-01-04 04:39:14.23	181.14	27.86	-33.3	-34.6	27.0	0.00e+00	0	55	0	245891072	38	4135
2026-01-04 04:39:15.24	180.55	27.82	-33.2	-34.5	27.2	0.00e+00	0	55	0	246939648	38	4086
2026-01-04 04:39:16.25	179.96	27.78	-33.3	-34.6	27.1	0.00e+00	0	55	0	247988224	38	4142
2026-01-04 04:39:17.26	179.37	27.74	-33.3	-34.7	27.0	0.00e+00	0	55	0	249561088	38	4183
2026-01-04 04:39:18.27	178.79	27.70	-33.6	-35.0	26.8	0.00e+00	0	55	0	250609664	38	4302
2026-01-04 04:39:19.28	178.20	27.65	-33.6	-35.0	26.8	0.00e+00	0	55	0	251658240	38	4294
2026-01-04 04:39:20.29	177.62	27.60	-33.5	-34.9	26.8	0.00e+00	0	55	0	252706816	38	4288
2026-01-04 04:39:21.30	177.04	27.55	-33.6	-35.0	26.7	0.00e+00	0	55	0	253755392	38	4328
2026-01-04 04:39:22.31	176.46	27.50	-34.0	-35.5	26.2	0.00e+00	0	55	0	254803968	38	4561
2026-01-04 04:39:23.32	175.89	27.44	-33.9	-35.4	26.3	0.00e+00	0	55	0	256376832	38	4519
2026-01-04 04:39:24.33	175.32	27.38	-33.9	-35.4	26.5	0.00e+00	0	55	0	257425408	38	4494
2026-01-04 04:39:25.34	174.75	27.32	-33.7	-35.2	26.6	0.00e+00	0	55	0	258473984	38	4402
2026-01-04 04:39:26.35	174.18	27.25	-33.2	-34.5	27.1	0.00e+00	0	55	0	259522560	38	4098
2026-01-04 04:39:27.36	173.61	27.18	-33.1	-34.5	27.2	0.00e+00	0	55	0	260571136	38	4087
2026-01-04 04:39:28.37	173.05	27.11	-33.4	-34.8	27.0	0.00e+00	0	55	0	261619712	38	4199
2026-01-04 04:39:29.38	172.49	27.04	-33.7	-35.1	26.7	0.00e+00	0	55	0	263192576	38	4364
2026-01-04 04:39:30.39	171.93	26.96	-34.0	-35.5	26.3	0.00e+00	0	55	0	264241152	38	4575
2026-01-04 04:39:31.40	171.38	26.88	-34.0	-35.5	26.3	0.00e+00	0	55	0	265289728	38	4574
2026-01-04 04:39:32.41	170.83	26.80	-33.8	-35.3	26.5	0.00e+00	0	55	0	266338304	38	4466
2026-01-04 04:39:33.42	170.28	26.72	-33.9	-35.3	26.5	0.00e+00	0	55	0	267386880	38	4491
2026-01-04 04:39:34.43	169.74	26.64	-33.7	-35.2	26.6	0.00e+00	0	55	0	268435456	38	4397
2026-01-04 04:39:35.44	169.20	26.55	-33.7	-35.2	26.7	0.00e+00	0	55	0	270008320	38	4402
2026-01-04 04:39:36.45	168.66	26.46	-33.7	-35.2	26.7	0.00e+00	0	55	0	271056896	38	4411
2026-01-04 04:39:37.46	168.13	26.37	-33.7	-35.2	26.7	0.00e+00	0	55	0	272105472	38	4399
2026-01-04 04:39:38.47	167.60	26.28	-33.6	-35.0	26.8	0.00e+00	0	55	0	273154048	38	4326
2026-01-04 04:39:39.48	167.07	26.18	-33.7	-35.1	26.7	0.00e+00	0	55	0	274202624	38	4366
2026-01-04 04:39:40.49	166.55	26.08	-34.1	-35.6	26.3	0.00e+00	0	55	0	275251200	38	4608
2026-01-04 04:39:41.50	166.03	25.99	-34.1	-35.5	26.4	0.00e+00	0	55	0	276824064	38	4595
2026-01-04 04:39:42.51	165.51	25.89	-34.4	-35.9	26.1	0.00e+00	0	55	0	277872640	39	4509
2026-01-04 04:39:43.52	165.00	25.78	-34.5	-36.0	25.8	0.00e+00	0	55	0	278921216	39	4593
2026-01-04 04:39:44.53	164.49	25.68	-34.1	-35.6	26.2	0.00e+00	0	55	0	279969792	39	4372
2026-01-04 04:39:45.54	163.99	25.57	-33.9	-35.3	26.5	0.00e+00	0	55	0	281018368	39	4222
2026-01-04 04:39:46.55	163.49	25.47	-33.8	-35.2	26.6	0.00e+00	0	55	0	282066944	39	4192
2026-01-04 04:39:47.56	162.99	25.36	-33.9	-35.4	26.4	0.00e+00	0	55	0	283639808	39	4266
2026-01-04 04:39:48.57	162.50	25.25	-33.8	-35.2	26.6	0.00e+00	0	55	0	284688384	39	4181
2026-01-04 04:39:49.58	162.01	25.14	-33.9	-35.4	26.5	0.00e+00	0	55	0	285736960	39	4253
2026-01-04 04:39:50.59	161.53	25.02	-33.9	-35.3	26.5	0.00e+00	0	55	0	286785536	39	4228
2026-01-04 04:39:51.60	161.05	24.91	-33.8	-35.2	26.6	0.00e+00	0	55	0	287834112	39	4189
2026-01-04 04:39:52.61	160.57	24.79	-33.9	-35.3	26.5	0.00e+00	0	55	0	288882688	39	4230
2026-01-04 04:39:53.62	160.10	24.68	-34.2	-35.7	26.1	0.00e+00	0	55	0	290455552	39	4418
2026-01-04 04:39:54.63	159.63	24.56	-34.1	-35.6	26.2	0.00e+00	0	55	0	291504128	39	4359
2026-01-04 04:39:55.64	159.17	24.44	-34.1	-35.6	26.2	0.00e+00	0	55	0	292552704	39	4369
2026-01-04 04:39:56.65	158.71	24.32	-34.0	-35.5	26.3	0.00e+00	0	55	0	293601280	39	4307
2026-01-04 04:39:57.66	158.25	24.20	-34.2	-35.7	26.1	0.00e+00	0	55	0	294649856	39	4392
2026-01-04 04:39:58.67	157.80	24.08	-34.0	-35.4	26.3	0.00e+00	0	55	0	295698432	39	4284
2026-01-04 04:39:59.68	157.35	23.96	-33.9	-35.4	26.4	0.00e+00	0	55	0	297271296	39	4268
2026-01-04 04:40:00.69	156.91	23.83	-33.9	-35.4	26.4	0.00e+00	0	55	0	298319872	39	4269
2026-01-04 04:40:01.70	156.47	23.71	-34.1	-35.6	26.2	0.00e+00	0	55	0	299368448	39	4380
2026-01-04 04:40:02.71	156.03	23.58	-34.4	-36.0	25.9	0.00e+00	0	55	0	300417024	39	4547
2026-01-04 04:40:03.72	155.60	23.46	-34.5	-36.0	25.8	0.00e+00	0	55	0	301465600	39	4563
2026-01-04 04:40:04.73	155.17	23.33	-34.1	-35.6	26.1	0.00e+00	0	55	0	302514176	39	4364
2026-01-04 04:40:05.74	154.75	23.20	-34.0	-35.5	26.3	0.00e+00	0	55	0	304087040	39	4296
2026-01-04 04:40:06.75	154.33	23.07	-33.9	-35.4	26.4	0.00e+00	0	55	0	305135616	39	4261
2026-01-04 04:40:07.76	153.91	22.95	-33.9	-35.4	26.3	0.00e+00	0	55	0	306184192	39	4245
2026-01-04 04:40:08.77	153.50	22.82	-34.2	-35.7	26.1	0.00e+00	0	55	0	307232768	39	4411
2026-01-04 04:40:09.78	153.10	22.69	-34.4	-35.9	25.9	0.00e+00	0	55	0	308281344	39	4501
2026-01-04 04:40:10.79	152.69	22.56	-34.6	-36.1	25.7	0.00e+00	0	55	0	309329920	39	4629
2026-01-04 04:40:11.80	152.29	22.43	-34.7	-36.2	25.6	0.00e+00	0	55	0	310902784	39	4684
2026-01-04 04:40:12.81	151.90	22.30	-34.4	-35.9	25.7	0.00e+00	0	55	0	311951360	40	4275
2026-01-04 04:40:13.82	151.51	22.16	-34.4	-35.9	25.8	0.00e+00	0	55	0	312999936	40	4246
2026-01-04 04:40:14.83	151.12	22.03	-34.2	-35.7	25.9	0.00e+00	0	55	0	314048512	40	4184
2026-01-04 04:40:15.84	150.73	21.90	-34.2	-35.7	25.9	0.00e+00	0	55	0	315097088	40	4176
2026-01-04 04:40:16.85	150.35	21.77	-34.4	-35.9	25.6	0.00e+00	0	55	0	316145664	40	4281
2026-01-04 04:40:17.86	149.98	21.64	-34.7	-36.2	25.4	0.00e+00	0	55	0	317718528	40	4439
2026-01-04 04:40:18.86	149.61	21.51	-34.9	-36.4	25.2	0.00e+00	0	55	0	318767104	40	4543
2026-01-04 04:40:19.87	149.24	21.37	-35.0	-36.6	25.0	0.00e+00	0	55	0	319815680	40	4617
2026-01-04 04:40:20.88	148.88	21.24	-34.9	-36.5	25.1	0.00e+00	0	55	0	320864256	40	4567
2026-01-04 04:40:21.89	148.52	21.11	-34.6	-36.1	25.4	0.00e+00	0	56	0	321912832	40	4386
2026-01-04 04:40:22.90	148.16	20.97	-34.5	-36.0	25.6	0.00e+00	0	56	0	322961408	40	4308
2026-01-04 04:40:23.91	147.80	20.84	-34.7	-36.2	25.4	0.00e+00	0	55	0	324534272	40	4434
2026-01-04 04:40:24.92	147.45	20.71	-35.0	-36.6	25.0	0.00e+00	0	55	0	325582848	40	4602
2026-01-04 04:40:25.93	147.11	20.58	-35.1	-36.7	24.9	0.00e+00	0	55	0	326631424	40	4681
2026-01-04 04:40:26.94	146.77	20.44	-35.2	-36.8	24.8	0.00e+00	0	55	0	327680000	40	4741
2026-01-04 04:40:27.95	146.43	20.31	-35.1	-36.7	24.8	0.00e+00	0	56	0	328728576	40	4688
2026-01-04 04:40:28.96	146.09	20.18	-34.9	-36.5	25.0	0.00e+00	0	55	0	329777152	40	4587
2026-01-04 04:40:29.97	145.76	20.05	-34.9	-36.5	25.1	0.00e+00	0	55	0	331350016	40	4563
2026-01-04 04:40:30.98	145.43	19.91	-35.0	-36.6	24.9	0.00e+00	0	56	0	332398592	40	4647
2026-01-04 04:40:31.99	145.10	19.78	-35.1	-36.7	24.9	0.00e+00	0	55	0	333447168	40	4666
2026-01-04 04:40:33.00	144.78	19.65	-35.1	-36.7	24.9	0.00e+00	0	55	0	334495744	40	4660
2026-01-04 04:40:34.01	144.46	19.52	-35.1	-36.7	24.8	0.00e+00	0	56	0	335544320	40	4690
2026-01-04 04:40:35.02	144.15	19.38	-35.2	-36.9	24.7	0.00e+00	0	56	0	336592896	41	4504
2026-01-04 04:40:36.03	143.84	19.25	-35.2	-36.8	24.7	0.00e+00	0	55	0	338165760	41	4479
2026-01-04 04:40:37.03	143.53	19.12	-35.3	-37.0	24.6	0.00e+00	0	55	0	339214336	41	4563
2026-01-04 04:40:38.04	143.23	18.99	-35.4	-37.1	24.4	0.00e+00	0	55	0	340262912	41	4623
2026-01-04 04:40:39.05	142.92	18.86	-35.3	-36.9	24.6	0.00e+00	0	55	0	341311488	41	4531
2026-01-04 04:40:40.06	142.62	18.73	-35.1	-36.7	24.8	0.00e+00	0	55	0	342360064	41	4408
2026-01-04 04:40:41.07	142.33	18.60	-35.0	-36.6	24.9	0.00e+00	0	56	0	343408640	41	4382
2026-01-04 04:40:42.08	142.04	18.47	-35.1	-36.7	24.8	0.00e+00	0	56	0	344981504	41	4407
2026-01-04 04:40:43.09	141.75	18.34	-35.1	-36.7	24.8	0.00e+00	0	55	0	346030080	41	4423
2026-01-04 04:40:44.10	141.46	18.21	-35.4	-37.0	24.5	0.00e+00	0	56	0	347078656	41	4576
2026-01-04 04:40:45.11	141.17	18.08	-35.6	-37.2	24.3	0.00e+00	0	55	0	348127232	41	4702
2026-01-04 04:40:46.12	140.89	17.95	-35.5	-37.2	24.3	0.00e+00	0	56	0	349175808	41	4670
2026-01-04 04:40:47.13	140.62	17.82	-35.4	-37.0	24.5	0.00e+00	0	56	0	350224384	41	4581
2026-01-04 04:40:48.14	140.34	17.69	-35.4	-37.1	24.4	0.00e+00	0	56	0	351797248	41	4612
2026-01-04 04:40:49.15	140.07	17.57	-35.6	-37.2	24.3	0.00e+00	0	55	0	352845824	41	4705
2026-01-04 04:40:50.17	139.80	17.44	-35.8	-37.5	24.0	0.00e+00	0	56	0	353894400	42	4562
2026-01-04 04:40:51.18	139.53	17.31	-35.8	-37.5	24.0	0.00e+00	0	56	0	354942976	42	4558
2026-01-04 04:40:52.18	139.27	17.19	-35.7	-37.4	24.1	0.00e+00	0	56	0	355991552	42	4536
2026-01-04 04:40:53.19	139.01	17.06	-35.7	-37.4	24.1	0.00e+00	0	56	0	357040128	42	4508
2026-01-04 04:40:54.20	138.75	16.93	-35.7	-37.4	24.1	0.00e+00	0	56	0	358612992	42	4515
2026-01-04 04:40:55.21	138.49	16.81	-35.6	-37.4	24.2	0.00e+00	0	56	0	359661568	42	4496
2026-01-04 04:40:56.22	138.24	16.68	-35.8	-37.5	24.0	0.00e+00	0	56	0	360710144	42	4560
2026-01-04 04:40:57.23	137.99	16.56	-35.8	-37.6	23.9	0.00e+00	0	55	0	361758720	42	4616
2026-01-04 04:40:58.24	137.74	16.44	-35.9	-37.6	23.8	0.00e+00	0	56	0	362807296	42	4643
2026-01-04 04:40:59.25	137.50	16.31	-35.8	-37.5	23.9	0.00e+00	0	56	0	363855872	42	4567
2026-01-04 04:41:00.26	137.25	16.19	-35.6	-37.3	24.1	0.00e+00	0	55	0	365428736	42	4478
2026-01-04 04:41:01.27	137.01	16.07	-35.6	-37.4	24.0	0.00e+00	0	55	0	366477312	42	4500
2026-01-04 04:41:02.28	136.78	15.94	-35.6	-37.3	24.1	0.00e+00	0	56	0	367525888	42	4467
2026-01-04 04:41:03.29	136.54	15.82	-35.7	-37.4	24.0	0.00e+00	0	56	0	368574464	41	4804
2026-01-04 04:41:04.30	136.31	15.70	-36.1	-37.9	23.5	0.00e+00	0	56	0	369623040	42	4785
2026-01-04 04:41:05.31	136.08	15.58	-36.4	-38.2	23.1	0.00e+00	0	56	0	370671616	43	4696
2026-01-04 04:41:06.32	135.85	15.46	-36.7	-38.6	22.8	2.20e-06	0	56	0	372244480	43	4891
2026-01-04 04:41:07.33	135.62	15.34	-36.7	-38.7	22.6	2.20e-06	0	56	0	373293056	43	4927
2026-01-04 04:41:08.34	135.40	15.22	-36.8	-38.7	22.6	5.70e-06	0	56	0	374341632	44	4674
2026-01-04 04:41:09.35	135.18	15.10	-36.6	-38.7	22.6	1.60e-05	0	56	0	375390208	44	4667
2026-01-04 04:41:10.36	134.96	14.98	-36.6	-38.6	22.7	1.60e-05	0	56	0	376438784	44	4615
2026-01-04 04:41:11.37	134.74	14.87	-36.4	-38.4	22.4	5.60e-05	0	56	0	377487360	43	4772
2026-01-04 04:41:12.38	134.53	14.75	-36.0	-38.0	22.7	1.40e-04	0	55	0	379060224	42	4836
2026-01-04 04:41:13.39	134.32	14.63	-36.0	-37.9	22.7	1.22e-04	0	56	0	380108800	42	4809
2026-01-04 04:41:14.40	134.11	14.51	-36.1	-38.1	22.2	1.22e-04	0	55	0	381157376	42	4919
2026-01-04 04:41:15.40	133.90	14.40	-36.1	-38.3	21.9	3.70e-04	0	55	0	382205952	42	5015
2026-01-04 04:41:16.41	133.69	14.28	-36.4	-38.7	21.6	5.00e-04	0	56	0	383254528	43	4940
2026-01-04 04:41:17.42	133.49	14.17	-36.0	-39.0	20.7	5.00e-04	0	56	0	384303104	43	5101
2026-01-04 04:41:18.43	133.29	14.05	-36.8	-39.3	19.4	8.38e-04	0	56	0	385875968	44	5022
2026-01-04 04:41:19.44	133.09	13.94	-36.6	-39.3	19.6	1.76e-03	0	56	0	386924544	43	5301
2026-01-04 04:41:20.46	132.89	13.83	-36.5	-39.4	19.7	1.76e-03	0	56	0	387973120	43	5341
2026-01-04 04:41:21.47	132.69	13.71	-36.1	-39.4	19.7	2.74e-03	0	56	0	389021696	43	5355
2026-01-04 04:41:22.48	132.50	13.60	-34.4	-39.3	18.8	4.45e-03	0	56	0	390070272	42	5613
2026-01-04 04:41:23.49	132.30	13.49	-35.1	-39.2	16.8	1.13e-02	0	56	0	391118848	40	6208
2026-01-04 04:41:24.50	132.11	13.38	-33.0	-39.1	15.1	1.13e-02	0	56	0	392691712	39	6561
2026-01-04 04:41:25.51	131.92	13.27	-34.8	-38.9	15.9	1.24e-02	0	56	0	393740288	40	6041
2026-01-04 04:41:26.52	131.74	13.15	-33.2	-38.8	15.7	2.08e-02	0	56	0	394788864	39	6300
2026-01-04 04:41:27.53	131.55	13.04	-32.5	-38.6	14.3	2.08e-02	0	56	0	395837440	37	6942
2026-01-04 04:41:28.54	131.37	12.94	-31.9	-38.6	12.0	2.92e-02	0	56	0	396886016	32	9210
2026-01-04 04:41:29.55	131.19	12.83	-31.7	-39.5	13.4	6.34e-02	0	56	0	397934592	36	8159
2026-01-04 04:41:30.56	131.01	12.72	-30.7	-39.1	11.8	6.34e-02	0	56	0	399507456	32	9795
2026-01-04 04:41:31.57	130.83	12.61	-30.3	-39.5	11.5	9.76e-02	0	56	0	400556032	35	8640
2026-01-04 04:41:32.58	130.65	12.50	-26.3	-38.8	11.5	1.23e-01	0	56	0	401604608	28	11821
2026-01-04 04:41:33.58	130.48	12.40	-28.4	-39.2	10.5	1.23e-01	0	56	0	402653184	29	11748
2026-01-04 04:41:34.59	130.31	12.29	-31.3	-39.4	13.4	1.75e-01	0	56	0	403701760	36	8077
2026-01-04 04:41:35.60	130.14	12.18	-31.3	-38.8	11.5	9.00e-02	0	56	0	404750336	33	8908
2026-01-04 04:41:36.61	129.97	12.08	-30.8	-38.8	11.3	9.94e-02	0	56	0	405798912	31	9978
2026-01-04 04:41:37.62	129.80	11.97	-30.8	-38.5	11.1	9.94e-02	0	56	0	406847488	31	9682
2026-01-04 04:41:38.63	129.63	11.87	-29.5	-39.4	11.3	1.42e-01	0	56	0	408420352	33	9529
2026-01-04 04:41:39.64	129.47	11.76	-28.9	-39.3	11.3	1.34e-01	0	56	0	409468928	32	10003
2026-01-04 04:41:40.65	129.30	11.66	-27.2	-39.0	10.1	1.34e-01	0	56	0	410517504	28	12202
2026-01-04 04:41:41.66	129.14	11.56	-29.7	-39.9	10.5	1.81e-01	0	56	0	411566080	32	10714
2026-01-04 04:41:42.66	128.98	11.45	-28.1	-39.7	9.1	1.76e-01	0	56	0	412614656	30	11779
2026-01-04 04:41:43.67	128.82	11.35	-27.1	-39.3	9.6	1.76e-01	0	56	0	413663232	29	11825
2026-01-04 04:41:44.68	128.67	11.25	-27.9	-38.9	9.6	2.60e-01	0	56	0	414711808	28	12047
2026-01-04 04:41:45.69	128.51	11.15	-22.0	-38.8	8.8	2.54e-01	0	56	0	415760384	24	14914
2026-01-04 04:41:46.70	128.36	11.05	-27.1	-40.0	8.4	2.54e-01	0	56	0	416284672	27	14433
2026-01-04 04:41:47.71	128.20	10.95	-28.0	-39.8	8.6	3.17e-01	0	56	0	417333248	27	14122
2026-01-04 04:41:48.72	128.05	10.85	-27.0	-39.0	10.7	3.52e-01	0	56	0	418381824	30	10894
2026-01-04 04:41:49.73	127.90	10.75	-27.4	-39.5	10.4	2.44e-01	0	56	0	419430400	30	11423
2026-01-04 04:41:50.74	127.75	10.65	-26.6	-38.9	8.5	2.44e-01	0	56	0	420478976	23	16008
2026-01-04 04:41:51.75	127.61	10.55	-28.9	-39.2	10.1	2.43e-01	0	55	0	421527552	32	9880
2026-01-04 04:41:52.76	127.46	10.45	-29.1	-39.5	10.1	2.04e-01	0	56	0	422576128	29	12119
2026-01-04 04:41:53.77	127.31	10.35	-27.6	-38.4	10.1	2.04e-01	0	56	0	423624704	30	10110
2026-01-04 04:41:54.78	127.17	10.25	-30.3	-39.1	10.1	1.71e-01	0	56	0	424673280	31	10350
2026-01-04 04:41:55.79	127.03	10.16	-29.7	-39.3	8.7	1.48e-01	0	56	0	425721856	25	14899
2026-01-04 04:41:56.80	126.89	10.06	-29.6	-39.4	10.9	1.48e-01	0	56	0	426770432	33	9532
2026-01-04 04:41:57.81	126.75	9.96	-29.1	-38.7	11.8	2.21e-01	0	56	0	427819008	32	9377
2026-01-04 04:41:58.82	126.61	9.87	-30.6	-40.0	11.5	1.42e-01	0	56	0	428867584	35	9146
2026-01-04 04:41:59.83	126.47	9.77	-30.3	-39.7	10.5	1.42e-01	0	56	0	429916160	33	9898
2026-01-04 04:42:00.84	126.34	9.68	-25.3	-39.3	8.5	1.59e-01	0	56	0	430964736	23	16767
2026-01-04 04:42:01.84	126.20	9.58	-29.6	-40.7	9.5	2.34e-01	0	56	0	432013312	28	14724
2026-01-04 04:42:02.86	126.07	9.49	-31.6	-40.7	11.9	2.33e-01	0	56	0	433061888	34	10513
2026-01-04 04:42:03.87	125.93	9.40	-27.1	-41.2	9.6	2.33e-01	0	56	0	434110464	34	11156
2026-01-04 04:42:04.88	125.80	9.30	-32.4	-41.6	11.4	2.04e-01	0	56	0	435159040	37	9822
2026-01-04 04:42:05.88	125.67	9.21	-31.7	-40.6	9.5	1.24e-01	0	56	0	436207616	25	17391
2026-01-04 04:42:06.89	125.55	9.12	-32.2	-41.9	9.8	1.24e-01	0	56	0	437256192	32	13435
2026-01-04 04:42:07.90	125.42	9.03	-30.6	-40.6	10.3	1.18e-01	0	56	0	438304768	32	11566
2026-01-04 04:42:08.91	125.29	8.93	-33.3	-41.9	13.4	6.47e-02	0	56	0	439877632	39	8980
2026-01-04 04:42:09.92	125.16	8.84	-34.9	-41.3	14.3	6.47e-02	0	56	0	440926208	40	7909
2026-01-04 04:42:10.93	125.04	8.75	-30.2	-40.7	14.2	2.80e-02	0	56	0	441974784	37	8817
2026-01-04 04:42:11.95	124.91	8.66	-35.0	-40.5	15.9	2.00e-02	0	56	0	443023360	42	6480
2026-01-04 04:42:12.96	124.79	8.57	-35.3	-39.7	17.5	2.00e-02	0	56	0	444071936	41	6260
2026-01-04 04:42:13.97	124.67	8.48	-34.5	-40.1	17.5	6.26e-03	0	56	0	445644800	42	6188
2026-01-04 04:42:14.97	124.55	8.39	-35.5	-40.0	16.2	3.45e-03	0	56	0	446693376	43	5781
2026-01-04 04:42:15.98	124.43	8.30	-33.3	-40.0	16.3	2.46e-03	0	56	0	447741952	39	7214
2026-01-04 04:42:16.99	124.31	8.22	-35.8	-40.6	17.3	2.46e-03	0	56	0	448790528	44	5800
2026-01-04 04:42:18.00	124.20	8.13	-37.2	-40.9	17.2	1.21e-03	0	56	0	449839104	45	5710
2026-01-04 04:42:19.01	124.08	8.04	-36.5	-41.6	16.7	1.48e-03	0	56	0	450887680	45	6186
2026-01-04 04:42:20.02	123.96	7.95	-39.6	-58.7	4.0	1.48e-03	0	56	104	451936256	50	33271
2026-01-04 04:42:21.03	123.85	7.87	-44.5	-62.9	3.8	3.73e-01	0	56	104	451936256	59	31977
2026-01-04 04:42:22.04	123.73	7.78	-44.9	-63.1	3.8	8.45e-01	0	56	104	451936256	60	31005
2026-01-04 04:42:23.05	123.62	7.69	-45.1	-63.4	3.8	8.45e-01	0	56	104	451936256	60	31816
2026-01-04 04:42:24.06	123.51	7.61	-45.2	-63.5	3.9	8.46e-01	0	56	104	451936256	61	30577
2026-01-04 04:42:25.07	123.40	7.52	-45.3	-63.6	3.8	8.46e-01	0	56	104	451936256	61	30903
2026-01-04 04:42:26.08	123.29	7.44	-45.4	-63.7	3.8	8.46e-01	0	56	104	451936256	61	31201
2026-01-04 04:42:27.09	123.18	7.35	-45.5	-63.7	3.8	8.46e-01	0	56	104	451936256	61	31440
2026-01-04 04:42:28.10	123.07	7.27	-45.5	-63.8	3.8	8.46e-01	0	56	104	451936256	61	31748
2026-01-04 04:42:29.11	122.96	7.18	-45.5	-63.8	3.8	8.46e-01	0	56	104	451936256	61	31628
2026-01-04 04:42:30.12	122.86	7.10	-45.4	-63.8	3.8	8.46e-01	0	56	104	451936256	61	31479
2026-01-04 04:42:31.13	122.75	7.01	-45.3	-63.7	3.8	8.46e-01	0	56	104	451936256	61	31248
2026-01-04 04:42:32.14	122.65	6.93	-45.3	-63.6	3.8	8.45e-01	0	56	104	451936256	61	31084
2026-01-04 04:42:33.16	122.54	6.85	-45.2	-63.6	3.8	8.45e-01	0	56	104	451936256	61	31008
2026-01-04 04:42:34.17	122.44	6.76	-45.2	-63.6	3.8	8.46e-01	0	56	104	451936256	61	30981
2026-01-04 04:42:35.18	122.34	6.68	-45.2	-63.6	3.8	8.47e-01	0	56	104	451936256	61	30979
2026-01-04 04:42:36.19	122.24	6.60	-45.1	-63.6	3.8	8.47e-01	0	56	104	451936256	61	30785
2026-01-04 04:42:37.20	122.14	6.52	-45.1	-63.5	3.8	8.47e-01	0	56	104	451936256	61	30729
2026-01-04 04:42:38.21	122.04	6.44	-45.1	-63.6	3.8	8.45e-01	0	56	104	451936256	61	30748
2026-01-04 04:42:39.22	121.94	6.36	-45.1	-63.5	3.8	8.46e-01	0	56	104	451936256	61	30686
2026-01-04 04:42:40.23	121.84	6.28	-45.1	-63.5	3.8	8.46e-01	0	56	104	451936256	61	30658
2026-01-04 04:42:41.24	121.74	6.20	-45.1	-63.5	3.8	8.45e-01	0	56	104	451936256	61	30698
2026-01-04 04:42:42.26	121.64	6.12	-45.1	-63.5	3.8	8.46e-01	0	56	104	451936256	61	30679
2026-01-04 04:42:43.27	121.55	6.04	-45.1	-63.5	3.8	8.46e-01	0	56	104	451936256	61	30696
2026-01-04 04:42:44.28	121.45	5.96	-45.1	-63.6	3.8	8.46e-01	0	56	104	451936256	61	30824
2026-01-04 04:42:45.29	121.36	5.88	-45.0	-63.6	3.8	8.48e-01	0	56	104	451936256	60	32576
2026-01-04 04:42:46.30	121.26	5.80	-44.8	-63.5	3.8	8.48e-01	0	56	104	451936256	60	32468
2026-01-04 04:42:47.31	121.17	5.72	-44.9	-63.5	3.8	8.45e-01	0	56	104	451936256	60	32484
2026-01-04 04:42:48.32	121.08	5.64	-44.9	-63.5	3.8	8.46e-01	0	56	104	451936256	60	32497
2026-01-04 04:42:49.33	120.99	5.56	-45.1	-63.5	3.8	8.46e-01	0	56	104	451936256	60	32459
2026-01-04 04:42:50.34	120.90	5.49	-45.1	-63.5	3.8	8.47e-01	0	56	104	451936256	60	32494
2026-01-04 04:42:51.35	120.81	5.41	-45.1	-63.5	3.8	8.46e-01	0	56	104	451936256	60	32450
2026-01-04 04:42:52.36	120.72	5.33	-45.1	-63.5	3.8	8.46e-01	0	56	104	451936256	60	32466
2026-01-04 04:42:53.37	120.63	5.26	-45.1	-63.5	3.8	8.46e-01	0	56	104	451936256	60	32387
2026-01-04 04:42:54.39	120.54	5.18	-45.1	-63.5	3.8	8.46e-01	0	56	104	451936256	60	32394
2026-01-04 04:42:55.40	120.45	5.10	-45.1	-63.5	3.8	8.46e-01	0	56	104	451936256	60	32549
2026-01-04 04:42:56.41	120.36	5.03	-45.1	-63.5	3.8	8.46e-01	0	56	104	451936256	60	32417
2026-01-04 04:42:57.42	120.28	4.95	-45.1	-63.5	3.8	8.45e-01	0	56	104	451936256	60	32438
2026-01-04 04:42:58.43	120.19	4.88	-45.1	-63.5	3.8	8.46e-01	0	56	104	451936256	60	32450
2026-01-04 04:42:59.44	120.11	4.80	-45.1	-63.5	3.8	8.46e-01	0	56	104	451936256	60	32408
2026-01-04 04:43:00.45	120.02	4.73	-45.1	-63.5	3.8	8.47e-01	0	56	104	451936256	60	32438
2026-01-04 04:43:01.46	119.94	4.65	-45.1	-63.5	3.8	8.46e-01	0	56	104	451936256	60	32454
2026-01-04 04:43:02.47	119.86	4.58	-45.1	-63.5	3.8	8.46e-01	0	56	104	451936256	60	32418
2026-01-04 04:43:03.49	119.77	4.50	-45.1	-63.5	3.8	8.46e-01	0	56	104	451936256	60	32308
2026-01-04 04:43:04.50	119.69	4.43	-45.1	-63.5	3.8	8.47e-01	0	56	104	451936256	60	32368
2026-01-04 04:43:05.51	119.61	4.36	-44.4	-63.5	3.8	8.46e-01	0	56	104	451936256	60	32438
2026-01-04 04:43:06.52	119.53	4.28	-44.4	-63.5	3.8	8.46e-01	0	56	104	451936256	60	32402
2026-01-04 04:43:07.53	119.45	4.21	-44.6	-63.5	3.8	8.46e-01	0	56	104	451936256	60	32400
2026-01-04 04:43:08.54	119.37	4.14	-44.8	-63.5	3.8	8.46e-01	0	56	104	451936256	60	32452
2026-01-04 04:43:09.55	119.29	4.07	-45.1	-63.5	3.8	8.46e-01	0	56	104	451936256	60	32321
2026-01-04 04:43:10.56	119.21	3.99	-45.1	-63.5	3.8	8.46e-01	0	56	104	451936256	60	32330
2026-01-04 04:43:11.57	119.13	3.92	-45.1	-63.5	3.8	8.46e-01	0	56	104	451936256	60	32371
2026-01-04 04:43:12.58	119.06	3.85	-45.1	-63.5	3.8	8.46e-01	0	56	104	451936256	60	32364
2026-01-04 04:43:13.60	118.98	3.78	-45.1	-63.5	3.8	8.46e-01	0	56	104	451936256	60	32351
2026-01-04 04:43:14.61	118.90	3.71	-45.1	-63.5	3.8	8.47e-01	0	56	104	451936256	60	32312
2026-01-04 04:43:15.62	118.83	3.64	-45.1	-63.5	3.8	8.45e-01	0	56	104	451936256	60	32380
2026-01-04 04:43:16.63	118.75	3.57	-45.0	-63.5	3.8	8.45e-01	0	56	104	451936256	60	32195
2026-01-04 04:43:17.64	118.68	3.49	-45.0	-63.5	3.8	8.46e-01	0	56	104	451936256	60	32333
2026-01-04 04:43:18.65	118.60	3.42	-45.1	-63.5	3.8	8.47e-01	0	56	104	451936256	60	32400
2026-01-04 04:43:19.66	118.53	3.35	-45.1	-63.5	3.8	8.47e-01	0	56	104	451936256	60	32399
2026-01-04 04:43:20.67	118.46	3.28	-45.1	-63.5	3.8	8.46e-01	0	56	104	451936256	60	32387
2026-01-04 04:43:21.68	118.38	3.22	-45.1	-63.5	3.8	8.46e-01	0	56	104	451936256	60	32301
2026-01-04 04:43:22.69	118.31	3.15	-45.1	-63.5	3.8	8.46e-01	0	56	104	451936256	60	32349
2026-01-04 04:43:23.71	118.24	3.08	-45.1	-63.5	3.8	8.46e-01	0	56	104	451936256	60	32298
2026-01-04 04:43:24.72	118.17	3.01	-45.1	-63.5	3.8	8.46e-01	0	56	104	451936256	60	32341
2026-01-04 04:43:25.73	118.10	2.94	-44.9	-63.5	3.8	8.46e-01	0	56	104	451936256	60	32351
2026-01-04 04:43:26.74	118.03	2.87	-44.5	-63.5	3.8	8.46e-01	0	56	104	451936256	60	32304
2026-01-04 04:43:27.75	117.96	2.80	-44.6	-63.5	3.8	8.46e-01	0	56	104	451936256	60	32262
2026-01-04 04:43:28.76	117.89	2.73	-44.3	-63.5	3.8	8.46e-01	0	56	104	451936256	60	32310
2026-01-04 04:43:29.77	117.82	2.67	-44.9	-63.5	3.8	8.46e-01	0	56	104	451936256	60	32238
2026-01-04 04:43:30.78	117.75	2.60	-45.0	-63.5	3.8	8.46e-01	0	56	104	451936256	60	32291
2026-01-04 04:43:31.79	117.68	2.53	-45.0	-63.5	3.8	8.46e-01	0	56	104	451936256	60	32286
2026-01-04 04:43:32.80	117.62	2.46	-45.0	-63.5	3.8	8.46e-01	0	56	104	451936256	60	32270
2026-01-04 04:43:33.82	117.55	2.40	-45.0	-63.5	3.8	8.46e-01	0	56	104	451936256	60	32351
2026-01-04 04:43:34.83	117.48	2.33	-45.0	-63.5	3.8	8.46e-01	0	56	104	451936256	60	32330
2026-01-04 04:43:35.84	117.42	2.26	-45.1	-63.5	3.8	8.46e-01	0	56	104	451936256	60	32420
2026-01-04 04:43:36.85	117.35	2.20	-45.0	-63.5	3.8	8.45e-01	0	56	104	451936256	60	32409
2026-01-04 04:43:37.86	117.29	2.13	-45.0	-63.5	3.8	8.46e-01	0	56	104	451936256	60	32380
2026-01-04 04:43:38.87	117.22	2.07	-45.0	-63.5	3.8	8.46e-01	0	56	104	451936256	60	32343
2026-01-04 04:43:39.88	117.16	2.00	-45.0	-63.5	3.8	8.45e-01	0	56	104	451936256	60	32344
2026-01-04 04:43:40.89	117.09	1.93	-45.0	-63.5	3.8	8.46e-01	0	56	104	451936256	60	32387

#Closed at: 2026-01-04 04:43:41
#Recorded file [451 MB]: D:/lorett/data/31039_260104_073428.dat