passes_logs/2026/01/04/R2.0S_Moscow/R2.0S_Moscow__20260104_095143_NOAA_20_JPSS-1_rec.log

#Pass ID: 20260104_095143_NOAA 20 (JPSS-1)
#Satellite: NOAA 20 (JPSS-1)
#Configuration: NOAA 20
#almurnet v.1.7.20251203
#Start time: 2026-01-04 09:51:43

#Version: 2.2.20231116
#Station: R2.0S_Moscow
#Location: 37.707566 lon 55.798166 lat
#TLE: 1 43013U 17073A   26003.41800368  .00000169  00000+0  10117-3 0  9998
#TLE: 2 43013  98.7624 304.4804 0001884  56.1176 304.0179 14.19532918421092

#Time	Az	El	Level	Level2	SNR	BER	BlckErr	Temp	State	Recorded	gain1	gain2
2026-01-04 09:51:43.88	158.95	2.04	-43.9	-58.4	3.8	1.49e+00	0	48	0	0	59	18992
2026-01-04 09:51:44.89	158.95	2.11	-43.9	-58.4	3.8	1.49e+00	0	48	104	0	59	18995
2026-01-04 09:51:45.90	158.94	2.17	-43.9	-58.4	3.8	1.49e+00	0	48	104	0	59	18954
2026-01-04 09:51:46.91	158.94	2.24	-43.9	-58.4	3.8	1.49e+00	0	48	104	0	59	19002
2026-01-04 09:51:47.92	158.94	2.30	-43.9	-58.4	3.8	1.49e+00	0	48	104	0	59	19002
2026-01-04 09:51:48.93	158.94	2.37	-43.9	-58.4	3.8	1.49e+00	0	48	104	0	59	18987
2026-01-04 09:51:49.94	158.94	2.44	-43.9	-58.3	3.8	1.49e+00	0	49	104	0	59	18926
2026-01-04 09:51:50.95	158.94	2.50	-43.9	-58.4	3.8	1.49e+00	0	49	104	0	59	18950
2026-01-04 09:51:51.96	158.94	2.57	-43.9	-58.3	3.8	1.49e+00	0	49	104	0	59	18895
2026-01-04 09:51:52.98	158.94	2.64	-43.9	-58.3	3.8	1.49e+00	0	49	104	0	59	18891
2026-01-04 09:51:53.99	158.94	2.70	-43.9	-58.4	3.8	1.49e+00	0	49	104	0	59	18982
2026-01-04 09:51:55.00	158.94	2.77	-43.9	-58.3	3.8	1.49e+00	0	49	104	0	59	18933
2026-01-04 09:51:56.01	158.94	2.84	-43.9	-58.4	3.8	1.49e+00	0	49	104	0	59	18955
2026-01-04 09:51:57.02	158.94	2.90	-43.9	-58.3	3.8	1.49e+00	0	49	104	0	59	18925
2026-01-04 09:51:58.03	158.94	2.97	-43.9	-58.4	3.8	1.49e+00	0	49	104	0	59	18979
2026-01-04 09:51:59.04	158.94	3.04	-43.9	-58.3	3.8	1.49e+00	0	49	104	0	59	18945
2026-01-04 09:52:00.05	158.94	3.11	-43.9	-58.3	3.8	1.49e+00	0	49	104	0	59	18920
2026-01-04 09:52:01.07	158.94	3.17	-43.9	-58.4	3.8	1.49e+00	0	49	104	0	59	18956
2026-01-04 09:52:02.08	158.94	3.24	-43.9	-58.3	3.8	1.49e+00	0	49	104	0	59	18948
2026-01-04 09:52:03.09	158.94	3.31	-43.9	-58.3	3.8	1.49e+00	0	49	104	0	59	18883
2026-01-04 09:52:04.10	158.94	3.38	-43.9	-58.3	3.8	1.49e+00	0	49	104	0	59	18940
2026-01-04 09:52:05.11	158.94	3.45	-43.9	-58.3	3.8	1.49e+00	0	50	104	0	59	18916
2026-01-04 09:52:06.12	158.94	3.51	-43.9	-58.3	3.8	1.49e+00	0	50	104	0	59	18916
2026-01-04 09:52:07.13	158.94	3.58	-43.9	-58.3	3.8	1.49e+00	0	50	104	0	59	18859
2026-01-04 09:52:08.14	158.94	3.65	-43.9	-58.3	3.8	1.49e+00	0	50	104	0	59	18920
2026-01-04 09:52:09.15	158.94	3.72	-43.9	-58.3	3.8	1.49e+00	0	50	104	0	59	18901
2026-01-04 09:52:10.17	158.94	3.79	-43.9	-58.3	3.8	1.49e+00	0	50	104	0	59	18926
2026-01-04 09:52:11.18	158.94	3.86	-43.9	-58.3	3.8	1.49e+00	0	50	104	0	59	18898
2026-01-04 09:52:12.19	158.94	3.93	-43.9	-58.3	3.8	1.49e+00	0	50	104	0	59	18903
2026-01-04 09:52:13.20	158.94	4.00	-43.9	-58.3	3.8	1.49e+00	0	50	104	0	59	18917
2026-01-04 09:52:14.21	158.94	4.07	-43.9	-58.4	3.8	1.49e+00	0	50	104	0	59	18977
2026-01-04 09:52:15.22	158.94	4.14	-43.9	-58.3	3.8	1.49e+00	0	50	104	0	59	18940
2026-01-04 09:52:16.23	158.94	4.21	-43.9	-58.3	3.8	1.49e+00	0	50	104	0	59	18893
2026-01-04 09:52:17.24	158.93	4.28	-43.9	-58.3	3.8	1.49e+00	0	50	104	0	59	18917
2026-01-04 09:52:18.25	158.93	4.35	-43.9	-58.3	3.8	1.49e+00	0	50	104	0	59	18926
2026-01-04 09:52:19.26	158.93	4.42	-43.9	-58.3	3.8	1.49e+00	0	50	104	0	59	18908
2026-01-04 09:52:20.27	158.93	4.49	-43.9	-58.3	3.8	1.49e+00	0	50	104	0	59	18865
2026-01-04 09:52:21.28	158.93	4.57	-43.9	-58.3	3.8	1.49e+00	0	51	104	0	59	18840
2026-01-04 09:52:22.29	158.93	4.64	-43.9	-58.3	3.8	1.49e+00	0	50	104	0	59	18929
2026-01-04 09:52:23.31	158.93	4.71	-43.9	-58.3	3.8	1.49e+00	0	51	104	0	59	18943
2026-01-04 09:52:24.32	158.93	4.78	-43.9	-58.3	3.8	1.49e+00	0	51	104	0	59	18881
2026-01-04 09:52:25.33	158.93	4.85	-43.9	-58.3	3.8	1.49e+00	0	51	104	0	59	18852
2026-01-04 09:52:26.34	158.93	4.93	-43.9	-58.3	3.8	1.49e+00	0	51	104	0	59	18878
2026-01-04 09:52:27.35	158.93	5.00	-43.9	-58.3	3.8	1.49e+00	0	51	104	0	59	18814
2026-01-04 09:52:28.36	158.93	5.07	-43.9	-58.3	3.8	1.49e+00	0	51	104	0	59	18816
2026-01-04 09:52:29.37	158.93	5.14	-43.9	-58.3	3.8	1.49e+00	0	51	104	0	59	18779
2026-01-04 09:52:30.38	158.93	5.22	-43.9	-58.2	3.8	1.49e+00	0	51	104	0	59	18718
2026-01-04 09:52:31.39	158.93	5.29	-43.9	-58.2	3.8	1.49e+00	0	51	104	0	59	18638
2026-01-04 09:52:32.40	158.92	5.36	-43.9	-58.2	3.8	1.49e+00	0	51	104	0	59	18557
2026-01-04 09:52:33.41	158.92	5.44	-43.9	-58.2	3.8	1.49e+00	0	51	104	0	59	18616
2026-01-04 09:52:34.43	158.92	5.51	-43.9	-58.2	3.8	1.49e+00	0	51	104	0	59	18551
2026-01-04 09:52:35.44	158.92	5.59	-43.9	-58.2	3.8	1.49e+00	0	51	104	0	59	18543
2026-01-04 09:52:36.45	158.92	5.66	-43.9	-58.2	3.8	1.49e+00	0	51	104	0	59	18534
2026-01-04 09:52:37.46	158.92	5.73	-43.9	-58.1	3.8	1.49e+00	0	51	104	0	59	18517
2026-01-04 09:52:38.47	158.92	5.81	-43.9	-58.1	3.8	1.49e+00	0	51	104	0	59	18515
2026-01-04 09:52:39.48	158.92	5.88	-43.9	-58.2	3.8	1.49e+00	0	51	104	0	59	18553
2026-01-04 09:52:40.49	158.92	5.96	-43.9	-58.1	3.8	1.49e+00	0	51	104	0	59	18490
2026-01-04 09:52:41.50	158.92	6.03	-43.9	-58.2	3.8	1.49e+00	0	51	104	0	59	18561
2026-01-04 09:52:42.51	158.92	6.11	-43.9	-58.1	3.8	1.49e+00	0	51	104	0	59	18501
2026-01-04 09:52:43.52	158.91	6.19	-43.9	-58.2	3.8	1.49e+00	0	51	104	0	59	18569
2026-01-04 09:52:44.54	158.91	6.26	-43.9	-58.2	3.8	1.49e+00	0	51	104	0	59	18568
2026-01-04 09:52:45.55	158.91	6.34	-43.8	-58.2	3.8	1.49e+00	0	51	104	0	59	18541
2026-01-04 09:52:46.56	158.91	6.42	-43.9	-58.2	3.8	1.49e+00	0	52	104	0	59	18585
2026-01-04 09:52:47.57	158.91	6.49	-43.8	-58.2	3.8	1.49e+00	0	52	104	0	59	18592
2026-01-04 09:52:48.58	158.91	6.57	-43.8	-58.1	3.8	1.49e+00	0	52	104	0	59	18436
2026-01-04 09:52:49.59	158.91	6.65	-43.8	-58.1	3.8	1.49e+00	0	52	104	0	59	18311
2026-01-04 09:52:50.60	158.91	6.72	-43.8	-57.7	3.8	1.49e+00	0	52	104	0	59	17638
2026-01-04 09:52:51.61	158.91	6.80	-43.8	-57.4	3.8	1.49e+00	0	52	104	0	59	17037
2026-01-04 09:52:52.63	158.91	6.88	-43.8	-56.7	3.8	1.49e+00	0	52	104	0	59	15708
2026-01-04 09:52:53.64	158.90	6.96	-43.7	-56.2	3.8	1.49e+00	0	52	104	0	59	14782
2026-01-04 09:52:54.65	158.90	7.04	-43.7	-55.1	4.1	1.47e+00	0	52	104	0	59	13061
2026-01-04 09:52:55.66	158.90	7.12	-43.6	-54.2	4.3	1.38e+00	32	52	0	0	59	11804
2026-01-04 09:52:56.67	158.90	7.19	-43.5	-53.3	4.7	9.30e-01	0	52	0	2097152	59	10552
2026-01-04 09:52:57.68	158.90	7.27	-43.4	-52.4	5.2	6.70e-01	0	52	0	3145728	58	10116
2026-01-04 09:52:58.69	158.90	7.35	-43.2	-51.4	5.9	4.89e-01	0	52	0	5242880	58	9048
2026-01-04 09:52:59.70	158.90	7.43	-43.0	-50.5	6.6	2.34e-01	0	52	0	7340032	58	8147
2026-01-04 09:53:00.71	158.90	7.51	-42.8	-49.7	7.3	1.61e-01	0	52	0	9437184	57	7885
2026-01-04 09:53:01.72	158.89	7.59	-42.7	-49.0	8.0	9.67e-02	0	52	0	11534336	57	7250
2026-01-04 09:53:02.73	158.89	7.67	-42.5	-48.5	8.5	4.81e-02	0	52	0	12582912	57	6861
2026-01-04 09:53:03.74	158.89	7.75	-42.3	-47.8	9.2	2.64e-02	0	52	0	14680064	56	6699
2026-01-04 09:53:04.75	158.89	7.83	-42.2	-47.5	9.6	1.91e-02	0	52	0	16777216	56	6441
2026-01-04 09:53:05.76	158.89	7.91	-42.0	-47.0	10.1	7.37e-03	0	52	0	18874368	56	6099
2026-01-04 09:53:06.77	158.89	8.00	-41.8	-46.7	10.2	6.72e-03	0	52	0	20971520	55	6258
2026-01-04 09:53:07.78	158.89	8.08	-44.0	-56.9	3.8	1.42e-02	0	52	104	22020096	58	16969
2026-01-04 09:53:08.79	158.88	8.16	-43.3	-51.5	5.9	7.73e-01	0	53	0	22020096	58	9087
2026-01-04 09:53:09.81	158.88	8.24	-41.7	-46.5	10.6	3.78e-02	0	52	0	23068672	55	6068
2026-01-04 09:53:10.81	158.88	8.32	-43.5	-52.1	5.6	1.73e-02	0	53	0	25165824	57	10410
2026-01-04 09:53:11.82	158.88	8.41	-42.2	-48.2	8.7	4.04e-01	0	53	0	27262976	55	7391
2026-01-04 09:53:12.83	158.88	8.49	-41.7	-46.4	10.4	4.54e-02	0	53	0	29360128	55	6060
2026-01-04 09:53:13.84	158.88	8.57	-41.5	-46.0	10.9	2.02e-03	0	53	0	31457280	55	5774
2026-01-04 09:53:14.85	158.87	8.66	-41.5	-46.0	11.0	1.93e-03	0	53	0	32505856	55	5761
2026-01-04 09:53:15.86	158.87	8.74	-41.6	-46.1	10.8	2.25e-03	0	53	0	34603008	55	5851
2026-01-04 09:53:16.87	158.87	8.82	-41.7	-46.2	10.7	2.65e-03	0	53	0	36700160	55	5916
2026-01-04 09:53:17.88	158.87	8.91	-41.6	-46.2	10.8	2.79e-03	0	53	0	38797312	55	5863
2026-01-04 09:53:18.89	158.87	8.99	-41.6	-46.0	11.0	2.37e-03	0	53	0	40894464	55	5752
2026-01-04 09:53:19.90	158.87	9.08	-41.5	-45.7	11.4	1.23e-03	0	53	0	42991616	54	5894
2026-01-04 09:53:20.91	158.86	9.16	-41.4	-45.6	11.5	1.03e-03	0	53	0	44040192	54	5818
2026-01-04 09:53:21.92	158.86	9.25	-41.4	-45.6	11.5	8.89e-04	0	53	0	46137344	54	5849
2026-01-04 09:53:22.93	158.86	9.34	-41.4	-45.5	11.6	8.20e-04	0	53	0	48234496	54	5761
2026-01-04 09:53:23.94	158.86	9.42	-41.4	-45.4	11.7	4.44e-04	0	53	0	50331648	54	5715
2026-01-04 09:53:24.95	158.86	9.51	-41.4	-45.4	11.8	5.06e-04	0	53	0	52428800	54	5685
2026-01-04 09:53:25.96	158.86	9.59	-41.3	-45.3	11.9	3.46e-04	0	53	0	53477376	54	5605
2026-01-04 09:53:26.97	158.85	9.68	-41.3	-45.3	12.0	3.12e-04	0	53	0	55574528	54	5618
2026-01-04 09:53:27.98	158.85	9.77	-41.4	-45.3	11.9	4.63e-04	0	53	0	57671680	54	5645
2026-01-04 09:53:28.98	158.85	9.86	-41.3	-45.2	12.1	2.97e-04	0	53	0	59768832	54	5535
2026-01-04 09:53:29.99	158.85	9.94	-41.3	-45.1	12.1	2.55e-04	0	53	0	61865984	54	5525
2026-01-04 09:53:31.00	158.85	10.03	-41.3	-45.1	12.2	2.45e-04	0	53	0	62914560	54	5522
2026-01-04 09:53:32.01	158.84	10.12	-41.3	-45.1	12.2	2.16e-04	0	53	0	65011712	54	5479
2026-01-04 09:53:33.02	158.84	10.21	-41.3	-45.2	12.2	2.12e-04	0	53	0	67108864	54	5529
2026-01-04 09:53:34.03	158.84	10.30	-41.2	-44.9	12.5	1.63e-04	0	53	0	69206016	54	5363
2026-01-04 09:53:35.04	158.84	10.39	-41.3	-45.0	12.3	1.75e-04	0	53	0	71303168	54	5455
2026-01-04 09:53:36.05	158.83	10.48	-41.3	-45.0	12.3	1.76e-04	0	53	0	72351744	54	5456
2026-01-04 09:53:37.06	158.83	10.57	-41.3	-45.1	12.3	1.53e-04	0	53	0	74448896	54	5467
2026-01-04 09:53:38.06	158.83	10.66	-41.2	-45.0	12.4	1.33e-04	0	53	0	76546048	54	5411
2026-01-04 09:53:39.07	158.83	10.75	-41.3	-45.0	12.4	1.45e-04	0	53	0	78643200	54	5455
2026-01-04 09:53:40.08	158.83	10.84	-41.2	-44.9	12.5	1.14e-04	0	53	0	80740352	54	5395
2026-01-04 09:53:41.09	158.82	10.93	-41.2	-44.9	12.6	1.12e-04	0	53	0	81788928	54	5350
2026-01-04 09:53:42.10	158.82	11.02	-41.2	-44.9	12.6	8.23e-05	0	53	0	83886080	54	5352
2026-01-04 09:53:43.11	158.82	11.12	-41.2	-44.9	12.6	1.33e-04	0	53	0	85983232	54	5383
2026-01-04 09:53:44.12	158.82	11.21	-41.2	-44.8	12.7	8.85e-05	0	53	0	88080384	54	5331
2026-01-04 09:53:45.13	158.81	11.30	-41.3	-44.9	12.6	7.17e-05	0	54	0	90177536	54	5366
2026-01-04 09:53:46.14	158.81	11.39	-41.2	-44.9	12.6	7.78e-05	0	54	0	91226112	54	5347
2026-01-04 09:53:47.15	158.81	11.49	-41.2	-44.8	12.8	8.08e-05	0	54	0	93323264	54	5282
2026-01-04 09:53:48.16	158.81	11.58	-41.2	-44.8	12.7	8.08e-05	0	54	0	95420416	54	5311
2026-01-04 09:53:49.17	158.80	11.68	-41.2	-44.7	12.8	5.49e-05	0	53	0	97517568	54	5251
2026-01-04 09:53:50.18	158.80	11.77	-41.2	-44.7	12.8	7.47e-05	0	54	0	99614720	54	5256
2026-01-04 09:53:51.19	158.80	11.87	-41.2	-44.7	12.8	4.50e-05	0	54	0	100663296	54	5272
2026-01-04 09:53:52.20	158.80	11.96	-41.2	-44.7	12.8	6.86e-05	0	54	0	102760448	54	5267
2026-01-04 09:53:53.21	158.79	12.06	-41.2	-44.8	12.8	5.87e-05	0	54	0	104857600	54	5283
2026-01-04 09:53:54.22	158.79	12.15	-41.2	-44.7	12.8	7.55e-05	0	54	0	106954752	54	5268
2026-01-04 09:53:55.23	158.79	12.25	-41.2	-44.7	12.9	5.11e-05	0	54	0	109051904	54	5270
2026-01-04 09:53:56.24	158.78	12.35	-41.2	-44.7	13.0	4.65e-05	0	54	0	111149056	54	5231
2026-01-04 09:53:57.26	158.78	12.45	-41.2	-44.6	13.0	4.73e-05	0	54	0	112197632	54	5217
2026-01-04 09:53:58.26	158.78	12.54	-41.1	-44.6	13.1	4.19e-05	0	54	0	114294784	54	5163
2026-01-04 09:53:59.27	158.78	12.64	-41.2	-44.7	13.0	3.20e-05	0	54	0	116391936	54	5257
2026-01-04 09:54:00.28	158.77	12.74	-41.2	-44.6	13.0	3.43e-05	0	54	0	118489088	54	5194
2026-01-04 09:54:01.29	158.77	12.84	-41.1	-44.5	13.1	3.50e-05	0	54	0	120586240	54	5154
2026-01-04 09:54:02.30	158.77	12.94	-41.1	-44.6	13.1	2.82e-05	0	54	0	121634816	54	5161
2026-01-04 09:54:03.31	158.76	13.04	-41.1	-44.5	13.2	2.44e-05	0	54	0	123731968	54	5136
2026-01-04 09:54:04.32	158.76	13.14	-41.0	-44.4	13.4	1.06e-05	0	54	0	125829120	54	5044
2026-01-04 09:54:05.33	158.76	13.24	-41.0	-44.4	13.4	9.10e-06	0	54	0	127926272	54	5046
2026-01-04 09:54:06.34	158.75	13.34	-41.0	-44.3	13.4	1.67e-05	0	54	0	130023424	54	5008
2026-01-04 09:54:07.35	158.75	13.44	-41.0	-44.3	13.4	9.10e-06	0	54	0	131072000	54	5022
2026-01-04 09:54:08.36	158.75	13.54	-41.0	-44.3	13.4	9.90e-06	0	54	0	133169152	54	5038
2026-01-04 09:54:09.37	158.74	13.65	-41.0	-44.3	13.5	1.06e-05	0	54	0	135266304	54	4986
2026-01-04 09:54:10.38	158.74	13.75	-41.0	-44.3	13.5	1.22e-05	0	54	0	137363456	54	5006
2026-01-04 09:54:11.39	158.74	13.85	-41.0	-44.2	13.6	1.06e-05	0	54	0	139460608	54	4953
2026-01-04 09:54:12.40	158.73	13.96	-40.9	-44.1	13.6	9.90e-06	0	54	0	140509184	53	5211
2026-01-04 09:54:13.41	158.73	14.06	-40.9	-44.1	13.7	9.90e-06	0	54	0	142606336	53	5191
2026-01-04 09:54:14.42	158.73	14.16	-41.0	-44.2	13.6	9.10e-06	0	54	0	144703488	53	5257
2026-01-04 09:54:15.43	158.72	14.27	-40.9	-44.2	13.6	6.80e-06	0	54	0	146800640	53	5220
2026-01-04 09:54:16.44	158.72	14.37	-41.0	-44.2	13.6	8.30e-06	0	54	0	148897792	53	5238
2026-01-04 09:54:17.45	158.72	14.48	-41.0	-44.2	13.6	6.10e-06	0	54	0	149946368	53	5231
2026-01-04 09:54:18.46	158.71	14.59	-40.9	-44.2	13.6	8.30e-06	0	54	0	152043520	53	5223
2026-01-04 09:54:19.47	158.71	14.69	-40.9	-44.1	13.7	5.30e-06	0	54	0	154140672	53	5183
2026-01-04 09:54:20.48	158.70	14.80	-40.9	-44.1	13.7	6.80e-06	0	54	0	156237824	53	5183
2026-01-04 09:54:21.49	158.70	14.91	-40.8	-43.9	13.9	3.00e-06	0	54	0	158334976	53	5086
2026-01-04 09:54:22.50	158.70	15.02	-40.8	-43.8	14.0	5.30e-06	0	54	0	159383552	53	5036
2026-01-04 09:54:23.51	158.69	15.13	-40.8	-43.8	14.0	2.20e-06	0	54	0	161480704	53	5008
2026-01-04 09:54:24.52	158.69	15.24	-40.8	-43.8	14.0	4.50e-06	0	55	0	163577856	53	5041
2026-01-04 09:54:25.53	158.68	15.34	-40.8	-43.8	14.0	3.00e-06	0	54	0	165675008	53	5004
2026-01-04 09:54:26.54	158.68	15.46	-40.7	-43.7	14.1	2.20e-06	0	54	0	167772160	53	4966
2026-01-04 09:54:27.55	158.68	15.57	-40.7	-43.7	14.2	2.20e-06	0	55	0	168820736	53	4936
2026-01-04 09:54:28.56	158.67	15.68	-40.7	-43.6	14.2	1.50e-06	0	54	0	170917888	53	4918
2026-01-04 09:54:29.57	158.67	15.79	-40.6	-43.5	14.3	3.00e-06	0	54	0	173015040	53	4863
2026-01-04 09:54:30.58	158.66	15.90	-40.7	-43.6	14.3	0.00e+00	0	55	0	175112192	53	4911
2026-01-04 09:54:31.59	158.66	16.01	-40.6	-43.6	14.3	7.00e-07	0	54	0	177209344	53	4891
2026-01-04 09:54:32.60	158.65	16.13	-40.7	-43.7	14.2	2.20e-06	0	55	0	179306496	53	4946
2026-01-04 09:54:33.61	158.65	16.24	-40.6	-43.5	14.4	7.00e-07	0	54	0	180355072	53	4866
2026-01-04 09:54:34.61	158.64	16.35	-40.6	-43.6	14.3	4.50e-06	0	55	0	182452224	53	4899
2026-01-04 09:54:35.62	158.64	16.47	-40.6	-43.5	14.4	1.50e-06	0	54	0	184549376	53	4834
2026-01-04 09:54:36.63	158.64	16.58	-40.6	-43.5	14.4	7.00e-07	0	55	0	186646528	53	4821
2026-01-04 09:54:37.64	158.63	16.70	-40.6	-43.4	14.5	0.00e+00	0	54	0	188743680	53	4810
2026-01-04 09:54:38.65	158.63	16.82	-40.5	-43.4	14.5	7.00e-07	0	55	0	189792256	53	4791
2026-01-04 09:54:39.66	158.62	16.93	-40.5	-43.4	14.5	0.00e+00	0	55	0	191889408	53	4774
2026-01-04 09:54:40.67	158.62	17.05	-40.5	-43.3	14.6	0.00e+00	0	55	0	193986560	53	4737
2026-01-04 09:54:41.68	158.61	17.17	-40.5	-43.3	14.7	0.00e+00	0	55	0	196083712	52	5001
2026-01-04 09:54:42.69	158.61	17.29	-40.5	-43.3	14.7	7.00e-07	0	54	0	198180864	52	5003
2026-01-04 09:54:43.70	158.60	17.41	-40.4	-43.2	14.7	1.50e-06	0	55	0	199229440	52	4953
2026-01-04 09:54:44.71	158.60	17.53	-40.4	-43.2	14.8	0.00e+00	0	55	0	201326592	52	4930
2026-01-04 09:54:45.72	158.59	17.65	-40.4	-43.1	14.9	0.00e+00	0	55	0	203423744	52	4902
2026-01-04 09:54:46.73	158.58	17.77	-40.3	-43.1	14.9	0.00e+00	0	55	0	205520896	52	4872
2026-01-04 09:54:47.74	158.58	17.89	-40.3	-43.0	14.9	0.00e+00	0	55	0	207618048	52	4868
2026-01-04 09:54:48.75	158.57	18.01	-40.3	-43.1	14.9	0.00e+00	0	55	0	208666624	52	4877
2026-01-04 09:54:49.76	158.57	18.14	-40.3	-43.0	15.0	0.00e+00	0	55	0	210763776	52	4848
2026-01-04 09:54:50.77	158.56	18.26	-40.3	-43.0	15.0	0.00e+00	0	55	0	212860928	52	4864
2026-01-04 09:54:51.78	158.56	18.39	-40.3	-43.0	15.0	0.00e+00	0	55	0	214958080	52	4837
2026-01-04 09:54:52.78	158.55	18.51	-40.3	-42.9	15.1	0.00e+00	0	55	0	217055232	52	4812
2026-01-04 09:54:53.79	158.55	18.63	-40.3	-43.0	15.0	0.00e+00	0	55	0	218103808	52	4824
2026-01-04 09:54:54.80	158.54	18.76	-40.3	-42.9	15.1	0.00e+00	0	55	0	220200960	52	4798
2026-01-04 09:54:55.81	158.53	18.89	-40.2	-42.9	15.1	7.00e-07	0	55	0	222298112	52	4789
2026-01-04 09:54:56.82	158.53	19.02	-40.2	-42.9	15.1	0.00e+00	0	55	0	224395264	52	4781
2026-01-04 09:54:57.83	158.52	19.14	-40.3	-42.9	15.1	0.00e+00	0	55	0	226492416	52	4797
2026-01-04 09:54:58.84	158.52	19.27	-40.3	-43.0	15.0	0.00e+00	0	55	0	227540992	52	4841
2026-01-04 09:54:59.85	158.51	19.40	-40.3	-42.9	15.1	0.00e+00	0	55	0	229638144	52	4811
2026-01-04 09:55:00.86	158.50	19.53	-40.3	-43.0	15.0	0.00e+00	0	55	0	231735296	52	4865
2026-01-04 09:55:01.87	158.50	19.66	-40.3	-43.0	15.0	0.00e+00	0	55	0	233832448	52	4840
2026-01-04 09:55:02.88	158.49	19.79	-40.2	-42.8	15.2	0.00e+00	0	55	0	235929600	52	4756
2026-01-04 09:55:03.89	158.48	19.93	-40.2	-42.8	15.2	7.00e-07	0	55	0	236978176	52	4754
2026-01-04 09:55:04.90	158.48	20.06	-40.2	-42.9	15.2	0.00e+00	0	55	0	239075328	52	4762
2026-01-04 09:55:05.91	158.47	20.19	-40.2	-42.8	15.2	0.00e+00	0	55	0	241172480	52	4739
2026-01-04 09:55:06.92	158.46	20.33	-40.2	-42.9	15.2	0.00e+00	0	55	0	243269632	52	4764
2026-01-04 09:55:07.93	158.46	20.46	-40.2	-42.8	15.2	7.00e-07	0	55	0	245366784	52	4758
2026-01-04 09:55:08.94	158.45	20.60	-40.1	-42.7	15.3	0.00e+00	0	55	0	247463936	52	4703
2026-01-04 09:55:09.95	158.44	20.74	-40.2	-42.8	15.3	0.00e+00	0	55	0	248512512	52	4734
2026-01-04 09:55:10.96	158.44	20.87	-40.1	-42.7	15.4	0.00e+00	0	55	0	250609664	52	4661
2026-01-04 09:55:11.97	158.43	21.01	-40.1	-42.7	15.4	0.00e+00	0	55	0	252706816	52	4671
2026-01-04 09:55:12.98	158.42	21.15	-40.1	-42.7	15.3	0.00e+00	0	55	0	254803968	52	4685
2026-01-04 09:55:13.99	158.41	21.29	-40.1	-42.7	15.4	0.00e+00	0	55	0	256901120	52	4667
2026-01-04 09:55:15.00	158.41	21.43	-40.1	-42.7	15.4	0.00e+00	0	55	0	257949696	52	4680
2026-01-04 09:55:16.01	158.40	21.57	-40.2	-42.8	15.3	0.00e+00	0	55	0	260046848	52	4723
2026-01-04 09:55:17.02	158.39	21.71	-40.1	-42.7	15.4	0.00e+00	0	55	0	262144000	52	4663
2026-01-04 09:55:18.03	158.38	21.86	-40.2	-42.8	15.3	0.00e+00	0	55	0	264241152	52	4740
2026-01-04 09:55:19.03	158.38	22.00	-40.1	-42.7	15.4	0.00e+00	0	55	0	265289728	52	4693
2026-01-04 09:55:20.04	158.37	22.14	-40.1	-42.6	15.5	0.00e+00	0	55	0	267386880	52	4635
2026-01-04 09:55:21.05	158.36	22.29	-40.1	-42.6	15.5	0.00e+00	0	55	0	269484032	52	4642
2026-01-04 09:55:22.06	158.35	22.43	-40.1	-42.6	15.5	0.00e+00	0	55	0	271581184	52	4626
2026-01-04 09:55:23.07	158.34	22.58	-40.1	-42.6	15.5	0.00e+00	0	55	0	273678336	52	4646
2026-01-04 09:55:24.08	158.33	22.73	-40.1	-42.6	15.5	0.00e+00	0	55	0	275775488	52	4649
2026-01-04 09:55:25.09	158.33	22.88	-40.1	-42.7	15.5	0.00e+00	0	55	0	276824064	52	4661
2026-01-04 09:55:26.10	158.32	23.03	-40.1	-42.7	15.5	0.00e+00	0	55	0	278921216	52	4663
2026-01-04 09:55:27.11	158.31	23.18	-40.0	-42.5	15.6	0.00e+00	0	55	0	281018368	52	4561
2026-01-04 09:55:28.12	158.30	23.33	-40.0	-42.5	15.7	0.00e+00	0	55	0	283115520	51	4853
2026-01-04 09:55:29.13	158.29	23.48	-40.1	-42.6	15.6	0.00e+00	0	55	0	285212672	51	4901
2026-01-04 09:55:30.14	158.28	23.63	-40.1	-42.6	15.6	0.00e+00	0	55	0	286261248	51	4892
2026-01-04 09:55:31.15	158.27	23.79	-40.2	-42.7	15.5	0.00e+00	0	55	0	288358400	51	4967
2026-01-04 09:55:32.16	158.26	23.94	-40.2	-42.7	15.5	0.00e+00	0	55	0	290455552	51	4950
2026-01-04 09:55:33.17	158.25	24.10	-40.3	-42.9	15.4	0.00e+00	0	55	0	292552704	51	5050
2026-01-04 09:55:34.18	158.24	24.25	-40.4	-43.0	15.2	0.00e+00	0	55	0	294649856	51	5120
2026-01-04 09:55:35.19	158.23	24.41	-40.4	-43.0	15.2	0.00e+00	0	55	0	295698432	51	5114
2026-01-04 09:55:36.20	158.22	24.57	-40.3	-42.9	15.3	0.00e+00	0	55	0	297795584	51	5083
2026-01-04 09:55:37.21	158.21	24.73	-40.3	-42.9	15.3	0.00e+00	0	55	0	299892736	51	5081
2026-01-04 09:55:38.22	158.20	24.89	-40.3	-42.9	15.3	0.00e+00	0	55	0	301989888	51	5100
2026-01-04 09:55:39.23	158.19	25.05	-40.4	-43.0	15.3	0.00e+00	0	55	0	304087040	51	5110
2026-01-04 09:55:40.24	158.18	25.21	-40.3	-42.9	15.4	7.00e-07	0	55	0	305135616	51	5064
2026-01-04 09:55:41.25	158.17	25.38	-40.3	-42.9	15.3	0.00e+00	0	55	0	307232768	51	5100
2026-01-04 09:55:42.26	158.16	25.54	-40.4	-43.0	15.2	0.00e+00	0	55	0	309329920	51	5131
2026-01-04 09:55:43.26	158.15	25.70	-40.4	-43.1	15.2	0.00e+00	0	55	0	311427072	51	5162
2026-01-04 09:55:44.27	158.14	25.87	-40.4	-43.0	15.3	0.00e+00	0	55	0	313524224	51	5125
2026-01-04 09:55:45.28	158.13	26.04	-40.4	-43.1	15.2	0.00e+00	0	55	0	314572800	51	5163
2026-01-04 09:55:46.29	158.12	26.21	-40.4	-43.1	15.2	0.00e+00	0	55	0	316669952	51	5178
2026-01-04 09:55:47.30	158.11	26.38	-40.4	-43.1	15.2	0.00e+00	0	55	0	318767104	51	5167
2026-01-04 09:55:48.31	158.10	26.55	-40.3	-42.9	15.3	0.00e+00	0	55	0	320864256	51	5084
2026-01-04 09:55:49.32	158.08	26.72	-40.4	-43.0	15.3	0.00e+00	0	55	0	322961408	51	5136
2026-01-04 09:55:50.33	158.07	26.89	-40.4	-43.0	15.2	0.00e+00	0	55	0	324009984	51	5149
2026-01-04 09:55:51.34	158.06	27.07	-40.5	-43.1	15.1	0.00e+00	0	55	0	326107136	51	5203
2026-01-04 09:55:52.35	158.05	27.24	-40.5	-43.1	15.1	0.00e+00	0	55	0	328204288	51	5216
2026-01-04 09:55:53.36	158.04	27.42	-40.5	-43.2	15.1	0.00e+00	0	55	0	330301440	51	5222
2026-01-04 09:55:54.37	158.02	27.60	-40.6	-43.3	15.0	0.00e+00	0	55	0	332398592	51	5298
2026-01-04 09:55:55.38	158.01	27.77	-40.5	-43.2	15.0	7.00e-07	0	55	0	333447168	51	5259
2026-01-04 09:55:56.39	158.00	27.95	-40.6	-43.4	14.9	0.00e+00	0	56	0	335544320	51	5369
2026-01-04 09:55:57.40	157.98	28.13	-40.7	-43.5	14.7	0.00e+00	0	55	0	337641472	52	5136
2026-01-04 09:55:58.41	157.97	28.32	-40.7	-43.6	14.6	0.00e+00	0	55	0	339738624	52	5196
2026-01-04 09:55:59.42	157.96	28.50	-40.9	-43.8	14.4	7.00e-07	0	55	0	341835776	52	5312
2026-01-04 09:56:00.43	157.94	28.68	-41.0	-44.0	14.2	0.00e+00	0	55	0	343932928	52	5419
2026-01-04 09:56:01.44	157.93	28.87	-41.1	-44.1	14.1	0.00e+00	0	55	0	344981504	52	5506
2026-01-04 09:56:02.45	157.92	29.06	-41.2	-44.3	13.9	2.20e-06	0	55	0	347078656	52	5604
2026-01-04 09:56:03.46	157.90	29.25	-41.2	-44.3	14.0	3.00e-06	0	55	0	349175808	53	5287
2026-01-04 09:56:04.47	157.89	29.43	-41.3	-44.4	13.8	6.10e-06	0	56	0	351272960	53	5396
2026-01-04 09:56:05.48	157.87	29.63	-41.4	-44.7	13.5	8.30e-06	0	55	0	353370112	53	5556
2026-01-04 09:56:06.49	157.86	29.82	-41.5	-44.8	13.4	4.50e-06	0	55	0	354418688	53	5655
2026-01-04 09:56:07.50	157.84	30.01	-41.6	-45.1	13.1	3.12e-05	0	55	0	356515840	53	5792
2026-01-04 09:56:08.51	157.83	30.21	-41.8	-45.4	12.8	4.04e-05	0	55	0	358612992	54	5661
2026-01-04 09:56:09.52	157.81	30.40	-41.9	-45.6	12.7	6.48e-05	0	56	0	360710144	54	5794
2026-01-04 09:56:10.53	157.80	30.60	-41.9	-45.6	12.6	7.09e-05	0	55	0	362807296	54	5846
2026-01-04 09:56:11.54	157.78	30.80	-41.9	-45.7	12.5	9.15e-05	0	55	0	363855872	54	5872
2026-01-04 09:56:12.55	157.76	31.00	-41.9	-45.6	12.6	1.56e-04	0	56	0	365953024	54	5848
2026-01-04 09:56:13.56	157.75	31.20	-42.0	-45.8	12.5	1.05e-04	0	56	0	368050176	54	5945
2026-01-04 09:56:14.57	157.73	31.40	-42.0	-45.7	12.5	9.53e-05	0	55	0	370147328	54	5887
2026-01-04 09:56:15.58	157.71	31.61	-41.9	-45.6	12.6	8.23e-05	0	56	0	372244480	54	5833
2026-01-04 09:56:16.59	157.70	31.81	-41.9	-45.6	12.6	1.01e-04	0	56	0	373293056	54	5833
2026-01-04 09:56:17.60	157.68	32.02	-42.0	-45.8	12.4	1.31e-04	0	56	0	375390208	54	5952
2026-01-04 09:56:18.61	157.66	32.23	-42.0	-45.8	12.4	1.72e-04	0	56	0	377487360	54	5965
2026-01-04 09:56:19.62	157.64	32.44	-42.1	-46.1	12.2	2.32e-04	0	56	0	379584512	54	6136
2026-01-04 09:56:20.63	157.63	32.65	-42.1	-46.0	12.2	2.71e-04	0	56	0	381681664	54	6104
2026-01-04 09:56:21.63	157.61	32.86	-42.1	-46.0	12.2	2.08e-04	0	56	0	382730240	54	6105
2026-01-04 09:56:22.65	157.59	33.08	-42.1	-45.9	12.3	2.23e-04	0	56	0	384827392	54	6010
2026-01-04 09:56:23.65	157.57	33.29	-41.9	-45.7	12.6	8.01e-05	0	56	0	386924544	54	5871
2026-01-04 09:56:24.66	157.55	33.51	-41.9	-45.6	12.7	7.55e-05	0	56	0	389021696	54	5814
2026-01-04 09:56:25.67	157.53	33.73	-41.9	-45.5	12.7	6.17e-05	0	56	0	391118848	54	5758
2026-01-04 09:56:26.68	157.51	33.95	-41.7	-45.2	13.0	6.25e-05	0	56	0	392167424	54	5587
2026-01-04 09:56:27.69	157.49	34.17	-41.6	-45.1	13.2	2.44e-05	0	56	0	394264576	54	5476
2026-01-04 09:56:28.70	157.47	34.39	-41.6	-44.9	13.4	2.36e-05	0	56	0	396361728	54	5367
2026-01-04 09:56:29.71	157.45	34.62	-41.5	-44.8	13.5	1.52e-05	0	56	0	398458880	54	5294
2026-01-04 09:56:30.72	157.43	34.85	-41.2	-44.4	13.9	3.00e-06	0	56	0	400556032	54	5043
2026-01-04 09:56:31.73	157.41	35.07	-41.1	-44.2	14.1	2.20e-06	0	56	0	401604608	54	4930
2026-01-04 09:56:32.74	157.39	35.31	-40.9	-43.8	14.5	0.00e+00	0	56	0	403701760	53	5021
2026-01-04 09:56:33.76	157.36	35.54	-40.8	-43.6	14.7	0.00e+00	0	56	0	405798912	53	4885
2026-01-04 09:56:34.76	157.34	35.77	-40.5	-43.1	15.2	0.00e+00	0	56	0	407896064	53	4641
2026-01-04 09:56:35.77	157.32	36.01	-40.3	-42.9	15.5	0.00e+00	0	56	0	409993216	52	4783
2026-01-04 09:56:36.79	157.29	36.25	-40.2	-42.8	15.6	0.00e+00	0	56	0	412090368	52	4720
2026-01-04 09:56:37.80	157.27	36.49	-40.0	-42.5	15.9	0.00e+00	0	56	0	413138944	52	4563
2026-01-04 09:56:38.81	157.25	36.73	-40.1	-42.5	16.0	0.00e+00	0	56	0	415236096	51	4824
2026-01-04 09:56:39.82	157.22	36.97	-40.0	-42.4	16.1	0.00e+00	0	56	0	417333248	51	4792
2026-01-04 09:56:40.83	157.20	37.21	-40.0	-42.3	16.1	0.00e+00	0	56	0	419430400	51	4754
2026-01-04 09:56:41.84	157.17	37.46	-39.9	-42.2	16.2	0.00e+00	0	56	0	421527552	51	4701
2026-01-04 09:56:42.85	157.14	37.71	-39.9	-42.2	16.3	0.00e+00	0	56	0	422576128	51	4688
2026-01-04 09:56:43.86	157.12	37.96	-39.9	-42.2	16.2	0.00e+00	0	56	0	424673280	51	4702
2026-01-04 09:56:44.87	157.09	38.21	-39.8	-42.1	16.3	0.00e+00	0	56	0	426770432	51	4647
2026-01-04 09:56:45.88	157.06	38.46	-39.8	-42.1	16.3	0.00e+00	0	56	0	428867584	51	4641
2026-01-04 09:56:46.89	157.04	38.72	-40.0	-42.3	16.2	0.00e+00	0	56	0	430964736	51	4733
2026-01-04 09:56:47.90	157.01	38.97	-40.0	-42.3	16.2	0.00e+00	0	56	0	432013312	51	4739
2026-01-04 09:56:48.91	156.98	39.23	-40.0	-42.4	16.1	0.00e+00	0	56	0	434110464	51	4770
2026-01-04 09:56:49.92	156.95	39.50	-40.0	-42.4	16.1	0.00e+00	0	56	0	436207616	51	4762
2026-01-04 09:56:50.93	156.92	39.76	-40.1	-42.5	16.0	0.00e+00	0	56	0	438304768	51	4822
2026-01-04 09:56:51.94	156.89	40.02	-40.2	-42.7	15.8	0.00e+00	0	56	0	440401920	51	4940
2026-01-04 09:56:52.95	156.86	40.29	-40.3	-42.8	15.6	0.00e+00	0	56	0	441450496	51	5010
2026-01-04 09:56:53.96	156.83	40.56	-40.3	-42.7	15.7	0.00e+00	0	56	0	443547648	51	4979
2026-01-04 09:56:54.97	156.80	40.83	-40.4	-42.9	15.5	0.00e+00	0	56	0	445644800	51	5088
2026-01-04 09:56:55.98	156.76	41.10	-40.4	-43.0	15.5	0.00e+00	0	56	0	447741952	51	5129
2026-01-04 09:56:56.99	156.73	41.38	-40.5	-43.0	15.4	0.00e+00	0	56	0	449839104	51	5148
2026-01-04 09:56:58.00	156.70	41.66	-40.5	-43.1	15.3	0.00e+00	0	56	0	451936256	51	5207
2026-01-04 09:56:59.01	156.66	41.94	-40.6	-43.2	15.2	0.00e+00	0	56	0	452984832	51	5267
2026-01-04 09:57:00.02	156.63	42.22	-40.6	-43.3	15.2	0.00e+00	0	56	0	455081984	51	5294
2026-01-04 09:57:01.03	156.59	42.50	-40.7	-43.4	15.2	0.00e+00	0	56	0	457179136	51	5342
2026-01-04 09:57:02.04	156.55	42.79	-40.6	-43.3	15.1	0.00e+00	0	56	0	459276288	52	5004
2026-01-04 09:57:03.05	156.52	43.08	-40.5	-43.2	15.2	0.00e+00	0	56	0	461373440	52	4927
2026-01-04 09:57:04.05	156.48	43.36	-40.5	-43.1	15.3	0.00e+00	0	56	0	462422016	52	4913
2026-01-04 09:57:05.06	156.44	43.66	-40.5	-43.2	15.2	0.00e+00	0	56	0	464519168	52	4956
2026-01-04 09:57:06.08	156.40	43.95	-40.6	-43.4	15.0	0.00e+00	0	56	0	466616320	52	5057
2026-01-04 09:57:07.08	156.36	44.25	-40.8	-43.6	14.9	0.00e+00	0	56	0	468713472	52	5160
2026-01-04 09:57:08.09	156.32	44.55	-40.8	-43.6	14.8	0.00e+00	0	56	0	470810624	52	5166
2026-01-04 09:57:09.10	156.28	44.85	-40.9	-43.8	14.6	0.00e+00	0	56	0	471859200	52	5321
2026-01-04 09:57:10.11	156.24	45.15	-41.3	-44.4	14.0	1.50e-06	0	56	0	473956352	53	5390
2026-01-04 09:57:11.12	156.19	45.46	-41.5	-44.7	13.6	1.50e-06	0	56	0	476053504	53	5557
2026-01-04 09:57:12.13	156.15	45.77	-41.7	-45.1	13.3	1.14e-05	0	56	0	478150656	53	5808
2026-01-04 09:57:13.14	156.10	46.08	-41.9	-45.5	12.8	5.95e-05	0	56	0	480247808	54	5779
2026-01-04 09:57:14.15	156.06	46.39	-42.1	-45.8	12.6	7.17e-05	0	56	0	481296384	54	5986
2026-01-04 09:57:15.16	156.01	46.71	-42.3	-46.3	12.0	1.32e-04	0	56	0	483393536	55	5939
2026-01-04 09:57:16.17	155.96	47.02	-42.5	-46.8	11.6	6.01e-04	0	56	0	485490688	55	6302
2026-01-04 09:57:17.18	155.91	47.34	-42.4	-46.4	11.9	5.03e-04	0	56	0	487587840	55	6060
2026-01-04 09:57:18.19	155.86	47.67	-42.3	-46.4	12.0	3.97e-04	0	56	0	489684992	55	5995
2026-01-04 09:57:19.20	155.81	47.99	-42.4	-46.4	11.9	4.77e-04	0	56	0	490733568	55	6039
2026-01-04 09:57:20.21	155.75	48.32	-42.2	-46.0	12.2	2.19e-04	0	56	0	492830720	55	5771
2026-01-04 09:57:21.22	155.70	48.65	-42.0	-45.7	12.7	1.40e-04	0	56	0	494927872	55	5529
2026-01-04 09:57:22.23	155.64	48.98	-41.8	-45.2	13.1	4.88e-05	0	56	0	497025024	55	5271
2026-01-04 09:57:23.24	155.59	49.32	-41.5	-44.8	13.5	1.90e-05	0	56	0	499122176	55	5018
2026-01-04 09:57:24.25	155.53	49.65	-41.4	-44.7	13.7	6.80e-06	0	56	0	500170752	54	5230
2026-01-04 09:57:25.26	155.47	49.99	-41.4	-44.6	13.8	3.00e-06	0	56	0	502267904	54	5172
2026-01-04 09:57:26.27	155.41	50.34	-41.1	-44.1	14.2	1.50e-06	0	56	0	504365056	54	4898
2026-01-04 09:57:27.28	155.35	50.68	-40.6	-43.3	15.0	0.00e+00	0	56	0	506462208	53	4753
2026-01-04 09:57:28.29	155.28	51.03	-40.3	-42.8	15.6	0.00e+00	0	56	0	508559360	52	4722
2026-01-04 09:57:29.30	155.22	51.38	-40.0	-42.4	16.0	0.00e+00	0	56	0	509607936	52	4503
2026-01-04 09:57:30.31	155.15	51.73	-39.7	-42.0	16.5	0.00e+00	0	56	0	511705088	51	4575
2026-01-04 09:57:31.32	155.08	52.09	-39.3	-41.4	17.1	0.00e+00	0	56	0	513802240	50	4501
2026-01-04 09:57:32.33	155.01	52.44	-39.3	-41.3	17.2	0.00e+00	0	56	0	515899392	50	4493
2026-01-04 09:57:33.34	154.94	52.80	-39.4	-41.5	17.0	0.00e+00	0	56	0	517996544	50	4553
2026-01-04 09:57:34.35	154.87	53.17	-39.4	-41.6	16.9	0.00e+00	0	56	0	520093696	50	4604
2026-01-04 09:57:35.36	154.79	53.53	-39.4	-41.6	16.9	0.00e+00	0	56	0	521142272	50	4617
2026-01-04 09:57:36.37	154.71	53.90	-39.5	-41.7	16.9	0.00e+00	0	56	0	523239424	50	4654
2026-01-04 09:57:37.37	154.63	54.27	-39.6	-41.7	16.8	0.00e+00	0	56	0	525336576	50	4703
2026-01-04 09:57:38.38	154.55	54.64	-39.5	-41.7	16.8	0.00e+00	0	56	0	527433728	50	4681
2026-01-04 09:57:39.39	154.46	55.02	-39.7	-41.9	16.7	0.00e+00	0	56	0	529530880	50	4773
2026-01-04 09:57:40.40	154.38	55.40	-39.8	-42.1	16.4	0.00e+00	0	56	0	530579456	50	4918
2026-01-04 09:57:41.41	154.29	55.78	-40.2	-42.6	16.0	0.00e+00	0	56	0	532676608	50	5168
2026-01-04 09:57:42.42	154.20	56.16	-40.6	-43.3	15.2	0.00e+00	0	56	0	534773760	51	5290
2026-01-04 09:57:43.43	154.10	56.55	-41.0	-43.9	14.6	0.00e+00	0	56	0	536870912	52	5358
2026-01-04 09:57:44.44	154.00	56.94	-41.5	-44.9	13.5	4.50e-06	0	56	0	538968064	53	5660
2026-01-04 09:57:45.45	153.90	57.33	-41.9	-45.6	12.8	3.81e-05	0	56	0	540016640	54	5816
2026-01-04 09:57:46.46	153.80	57.72	-42.3	-46.2	12.1	1.65e-04	0	56	0	542113792	55	5907
2026-01-04 09:57:47.47	153.69	58.12	-42.4	-46.6	11.8	3.80e-04	0	56	0	544210944	55	6162
2026-01-04 09:57:48.48	153.58	58.52	-42.6	-47.0	11.3	7.42e-04	0	56	0	546308096	55	6429
2026-01-04 09:57:49.48	153.47	58.91	-42.5	-46.8	11.5	1.09e-03	0	56	0	548405248	55	6301
2026-01-04 09:57:50.49	153.35	59.32	-42.3	-46.4	12.0	6.55e-04	0	56	0	549453824	55	6011
2026-01-04 09:57:51.50	153.23	59.73	-42.1	-46.0	12.4	1.77e-04	0	56	0	551550976	55	5750
2026-01-04 09:57:52.51	153.11	60.14	-41.8	-45.3	13.2	5.64e-05	0	56	0	553648128	55	5285
2026-01-04 09:57:53.52	152.98	60.55	-41.4	-44.7	13.7	1.22e-05	0	56	0	555745280	54	5242
2026-01-04 09:57:54.53	152.85	60.96	-41.2	-44.2	14.2	6.10e-06	0	56	0	557842432	54	4980
2026-01-04 09:57:55.54	152.71	61.38	-40.5	-43.2	15.2	7.00e-07	0	56	0	558891008	53	4688
2026-01-04 09:57:56.56	152.56	61.80	-40.1	-42.6	15.8	0.00e+00	0	56	0	560988160	52	4611
2026-01-04 09:57:57.57	152.42	62.22	-40.1	-42.5	16.1	0.00e+00	0	56	0	563085312	51	4834
2026-01-04 09:57:58.58	152.26	62.65	-40.1	-42.4	16.1	0.00e+00	0	56	0	565182464	51	4806
2026-01-04 09:57:59.59	152.11	63.08	-39.7	-42.0	16.5	0.00e+00	0	56	0	567279616	51	4549
2026-01-04 09:58:00.60	151.94	63.51	-39.7	-41.9	16.7	0.00e+00	0	56	0	568328192	51	4532
2026-01-04 09:58:01.61	151.77	63.94	-39.8	-42.0	16.5	0.00e+00	0	56	0	570425344	51	4592
2026-01-04 09:58:02.62	151.59	64.37	-39.8	-42.1	16.4	0.00e+00	0	56	0	572522496	51	4610
2026-01-04 09:58:03.63	151.41	64.81	-39.9	-42.2	16.3	0.00e+00	0	56	0	574619648	51	4700
2026-01-04 09:58:04.64	151.22	65.25	-40.4	-42.9	15.7	0.00e+00	0	56	0	576716800	51	5058
2026-01-04 09:58:05.65	151.02	65.69	-40.8	-43.6	14.9	0.00e+00	0	56	0	577765376	52	5166
2026-01-04 09:58:06.66	150.81	66.13	-40.8	-43.6	14.7	0.00e+00	0	56	0	579862528	52	5218
2026-01-04 09:58:07.67	150.59	66.57	-40.8	-43.6	14.8	0.00e+00	0	56	0	581959680	52	5212
2026-01-04 09:58:08.68	150.36	67.02	-40.8	-43.6	14.8	0.00e+00	0	56	0	584056832	52	5191
2026-01-04 09:58:09.69	150.13	67.47	-40.9	-43.8	14.6	0.00e+00	0	56	0	586153984	52	5310
2026-01-04 09:58:10.70	149.88	67.92	-41.1	-44.2	14.2	0.00e+00	0	56	0	588251136	52	5548
2026-01-04 09:58:11.71	149.62	68.37	-41.1	-44.2	14.2	3.00e-06	0	56	0	589299712	53	5233
2026-01-04 09:58:12.71	149.36	68.82	-41.4	-44.6	13.7	3.80e-06	0	56	0	591396864	53	5519
2026-01-04 09:58:13.72	149.07	69.28	-41.3	-44.5	13.8	5.30e-06	0	56	0	593494016	53	5444
2026-01-04 09:58:14.73	148.77	69.74	-41.2	-44.3	14.1	1.50e-06	0	56	0	595591168	53	5294
2026-01-04 09:58:15.74	148.46	70.20	-41.0	-44.0	14.3	7.00e-07	0	56	0	597688320	53	5135
2026-01-04 09:58:16.75	148.13	70.66	-40.9	-43.8	14.6	0.00e+00	0	56	0	598736896	53	5028
2026-01-04 09:58:17.76	147.79	71.13	-40.8	-43.6	14.8	0.00e+00	0	56	0	600834048	53	4889
2026-01-04 09:58:18.77	147.42	71.59	-40.9	-43.9	14.5	0.00e+00	0	56	0	602931200	53	5079
2026-01-04 09:58:19.78	147.04	72.06	-41.1	-44.2	14.2	1.50e-06	0	56	0	605028352	53	5225
2026-01-04 09:58:20.79	146.63	72.52	-40.8	-43.7	14.6	7.00e-07	0	56	0	607125504	53	4964
2026-01-04 09:58:21.80	146.20	72.99	-40.8	-43.7	14.7	0.00e+00	0	56	0	608174080	53	4938
2026-01-04 09:58:22.81	145.75	73.46	-41.3	-44.5	13.7	2.20e-06	0	56	0	610271232	53	5440
2026-01-04 09:58:23.82	145.26	73.93	-41.5	-44.9	13.4	1.22e-05	0	56	0	612368384	53	5715
2026-01-04 09:58:24.83	144.75	74.40	-41.6	-45.1	13.1	2.74e-05	0	56	0	614465536	54	5475
2026-01-04 09:58:25.84	144.20	74.87	-41.6	-45.1	13.2	2.82e-05	0	56	0	616562688	54	5500
2026-01-04 09:58:26.85	143.61	75.34	-41.2	-44.3	14.0	1.98e-05	0	56	0	617611264	54	5036
2026-01-04 09:58:27.86	142.99	75.81	-40.7	-43.5	14.9	0.00e+00	0	56	0	619708416	53	4817
2026-01-04 09:58:28.87	142.32	76.28	-40.8	-43.7	14.6	0.00e+00	0	56	0	621805568	53	4958
2026-01-04 09:58:29.88	141.60	76.76	-41.2	-44.3	14.0	0.00e+00	0	56	0	623902720	53	5320
2026-01-04 09:58:30.89	140.82	77.23	-41.3	-44.5	13.8	1.50e-06	0	56	0	625999872	53	5408
2026-01-04 09:58:31.90	139.98	77.69	-41.5	-44.8	13.4	3.00e-06	0	56	0	627048448	53	5649
2026-01-04 09:58:32.91	139.08	78.16	-41.8	-45.4	12.7	1.98e-05	0	56	0	629145600	54	5720
2026-01-04 09:58:33.92	138.10	78.63	-41.6	-45.1	13.1	4.57e-05	0	56	0	631242752	54	5512
2026-01-04 09:58:34.93	137.03	79.09	-41.2	-44.3	14.0	1.29e-05	0	56	0	633339904	54	5036
2026-01-04 09:58:35.94	135.87	79.55	-40.5	-43.3	15.0	0.00e+00	0	56	0	635437056	53	4727
2026-01-04 09:58:36.95	134.60	80.01	-40.2	-42.7	15.6	0.00e+00	0	56	0	636485632	52	4705
2026-01-04 09:58:37.96	133.20	80.46	-40.4	-43.1	15.3	0.00e+00	0	56	0	638582784	52	4909
2026-01-04 09:58:38.97	131.66	80.91	-41.2	-44.4	13.8	7.00e-07	0	56	0	640679936	53	5378
2026-01-04 09:58:39.98	129.97	81.35	-41.6	-45.0	13.3	6.80e-06	0	56	0	642777088	53	5768
2026-01-04 09:58:40.99	128.08	81.78	-41.9	-45.6	12.8	4.65e-05	0	56	0	644874240	54	5802
2026-01-04 09:58:42.00	125.99	82.21	-41.4	-44.7	13.5	2.21e-05	0	56	0	645922816	54	5245
2026-01-04 09:58:43.00	123.69	82.62	-40.9	-43.9	14.4	3.80e-06	0	56	0	648019968	53	5069
2026-01-04 09:58:44.01	121.08	83.02	-40.0	-42.5	15.8	0.00e+00	0	56	0	650117120	52	4559
2026-01-04 09:58:45.02	118.17	83.40	-39.5	-41.7	16.7	0.00e+00	0	56	0	652214272	51	4395
2026-01-04 09:58:46.03	114.89	83.77	-39.3	-41.5	16.9	0.00e+00	0	56	0	654311424	50	4555
2026-01-04 09:58:47.04	111.22	84.11	-39.3	-41.4	17.0	0.00e+00	0	56	0	656408576	50	4513
2026-01-04 09:58:48.05	107.11	84.43	-38.9	-40.9	17.5	0.00e+00	0	56	0	657457152	49	4524
2026-01-04 09:58:49.06	102.53	84.72	-38.7	-40.6	17.8	0.00e+00	0	56	0	659554304	49	4364
2026-01-04 09:58:50.07	97.45	84.97	-39.1	-41.1	17.3	0.00e+00	0	56	0	661651456	49	4638
2026-01-04 09:58:51.08	91.89	85.17	-39.6	-41.9	16.5	0.00e+00	0	56	0	663748608	49	5045
2026-01-04 09:58:52.09	85.90	85.33	-40.1	-42.6	15.9	0.00e+00	0	56	0	665845760	50	5167
2026-01-04 09:58:53.10	79.56	85.43	-40.6	-43.2	15.2	0.00e+00	0	56	0	666894336	51	5278
2026-01-04 09:58:54.11	73.02	85.48	-40.7	-43.6	14.8	0.00e+00	0	56	0	668991488	52	5182
2026-01-04 09:58:55.12	66.44	85.46	-41.0	-44.0	14.3	7.00e-07	0	56	0	671088640	52	5406
2026-01-04 09:58:56.13	59.98	85.39	-40.8	-43.7	14.6	7.00e-07	0	56	0	673185792	52	5278
2026-01-04 09:58:57.14	53.80	85.26	-40.9	-43.8	14.6	7.00e-07	0	56	0	675282944	52	5316
2026-01-04 09:58:58.15	48.02	85.08	-40.6	-43.4	15.0	0.00e+00	0	56	0	676331520	52	5062
2026-01-04 09:58:59.16	42.70	84.85	-40.2	-42.7	15.7	0.00e+00	0	56	0	678428672	52	4688
2026-01-04 09:59:00.17	37.87	84.58	-40.0	-42.4	16.0	0.00e+00	0	56	0	680525824	52	4517
2026-01-04 09:59:01.18	33.52	84.28	-39.8	-42.1	16.3	0.00e+00	0	56	0	682622976	51	4644
2026-01-04 09:59:02.19	29.63	83.95	-40.3	-42.8	15.7	0.00e+00	0	56	0	684720128	51	5002
2026-01-04 09:59:03.20	26.17	83.59	-40.7	-43.5	14.9	0.00e+00	0	56	0	685768704	52	5117
2026-01-04 09:59:04.21	23.08	83.21	-41.1	-44.1	14.3	0.00e+00	0	56	0	687865856	52	5496
2026-01-04 09:59:05.22	20.32	82.82	-41.3	-44.5	13.9	2.20e-06	0	56	0	689963008	53	5423
2026-01-04 09:59:06.23	17.86	82.41	-41.7	-45.2	13.2	1.37e-05	0	56	0	692060160	53	5858
2026-01-04 09:59:07.24	15.66	81.99	-41.4	-44.7	13.7	1.29e-05	0	56	0	694157312	53	5540
2026-01-04 09:59:08.25	13.68	81.57	-41.2	-44.4	14.1	7.00e-07	0	56	0	695205888	53	5353
2026-01-04 09:59:09.26	11.90	81.13	-40.8	-43.7	14.7	1.50e-06	0	56	0	697303040	53	4958
2026-01-04 09:59:10.27	10.28	80.68	-40.9	-43.8	14.5	7.00e-07	0	56	0	699400192	53	5018
2026-01-04 09:59:11.28	8.82	80.23	-40.5	-43.1	15.3	0.00e+00	0	56	0	701497344	52	4918
2026-01-04 09:59:12.29	7.49	79.78	-40.0	-42.4	16.1	0.00e+00	0	56	0	703594496	51	4778
2026-01-04 09:59:13.30	6.27	79.32	-39.7	-41.9	16.5	0.00e+00	0	56	0	704643072	51	4543
2026-01-04 09:59:14.30	5.17	78.87	-39.9	-42.2	16.3	0.00e+00	0	56	0	706740224	51	4681
2026-01-04 09:59:15.32	4.14	78.40	-40.0	-42.4	16.1	0.00e+00	0	56	0	708837376	51	4798
2026-01-04 09:59:16.32	3.21	77.94	-40.2	-42.6	15.9	0.00e+00	0	56	0	710934528	51	4926
2026-01-04 09:59:17.33	2.34	77.47	-40.9	-43.7	14.7	0.00e+00	0	56	0	713031680	52	5272
2026-01-04 09:59:18.34	1.53	77.00	-41.5	-44.8	13.5	3.80e-06	0	56	0	714080256	53	5647
2026-01-04 09:59:19.35	0.79	76.53	-41.5	-44.8	13.6	1.44e-05	0	56	0	716177408	53	5655
2026-01-04 09:59:20.36	0.09	76.06	-41.3	-44.5	13.9	3.00e-06	0	56	0	718274560	53	5445
2026-01-04 09:59:21.37	359.44	75.59	-41.4	-44.6	13.8	2.20e-06	0	56	0	720371712	53	5473
2026-01-04 09:59:22.38	358.84	75.12	-41.8	-45.3	13.1	1.98e-05	0	56	0	722468864	54	5642
2026-01-04 09:59:23.39	358.27	74.65	-42.4	-46.6	11.8	3.00e-04	0	56	0	724566016	55	6141
2026-01-04 09:59:24.40	357.74	74.18	-42.3	-46.5	11.8	4.58e-04	0	56	0	725614592	55	6084
2026-01-04 09:59:25.41	357.24	73.71	-42.1	-45.9	12.5	1.69e-04	0	56	0	727711744	55	5698
2026-01-04 09:59:26.42	356.77	73.24	-41.3	-44.5	13.8	7.60e-06	0	56	0	729808896	54	5120
2026-01-04 09:59:27.43	356.33	72.77	-41.0	-43.9	14.5	1.50e-06	0	56	0	731906048	53	5072
2026-01-04 09:59:28.44	355.91	72.31	-40.9	-43.8	14.6	0.00e+00	0	56	0	734003200	53	5004
2026-01-04 09:59:29.45	355.52	71.84	-40.5	-43.1	15.3	0.00e+00	0	56	0	735051776	53	4636
2026-01-04 09:59:30.46	355.14	71.38	-40.5	-43.1	15.4	0.00e+00	0	56	0	737148928	52	4913
2026-01-04 09:59:31.47	354.79	70.91	-40.9	-43.8	14.6	0.00e+00	0	56	0	739246080	52	5316
2026-01-04 09:59:32.47	354.45	70.46	-41.3	-44.5	14.0	2.20e-06	0	56	0	741343232	53	5459
2026-01-04 09:59:33.48	354.13	70.00	-41.6	-45.0	13.4	9.90e-06	0	56	0	742391808	53	5772
2026-01-04 09:59:34.49	353.83	69.54	-41.4	-44.6	13.7	9.10e-06	0	56	0	744488960	53	5518
2026-01-04 09:59:35.50	353.54	69.08	-41.3	-44.5	13.9	5.30e-06	0	56	0	746586112	53	5433
2026-01-04 09:59:36.51	353.26	68.63	-41.8	-45.3	13.1	1.22e-05	0	56	0	748683264	54	5649
2026-01-04 09:59:37.52	353.00	68.17	-42.1	-46.0	12.5	9.23e-05	0	56	0	750780416	54	6068
2026-01-04 09:59:38.53	352.75	67.72	-42.3	-46.4	12.0	1.91e-04	0	56	0	752877568	55	6027
2026-01-04 09:59:39.54	352.50	67.27	-42.4	-46.5	11.9	5.11e-04	0	56	0	753926144	55	6096
2026-01-04 09:59:40.55	352.27	66.83	-42.2	-46.1	12.3	4.61e-04	0	56	0	756023296	55	5817
2026-01-04 09:59:41.56	352.05	66.38	-41.8	-45.5	13.1	1.11e-04	0	57	0	758120448	55	5449
2026-01-04 09:59:42.57	351.84	65.94	-41.7	-45.1	13.3	4.65e-05	0	56	0	760217600	54	5516
2026-01-04 09:59:43.58	351.64	65.50	-41.2	-44.3	14.1	6.80e-06	0	56	0	762314752	53	5332
2026-01-04 09:59:44.59	351.44	65.06	-40.6	-43.3	15.2	9.53e-05	0	57	0	763363328	52	4989
2026-01-04 09:59:45.60	351.25	64.62	-40.1	-42.5	16.0	4.50e-06	0	56	0	765460480	51	4868
2026-01-04 09:59:46.61	351.07	64.19	-39.8	-42.0	16.6	0.00e+00	0	56	0	767557632	51	4573
2026-01-04 09:59:47.62	350.90	63.76	-39.5	-41.7	16.9	0.00e+00	0	56	0	769654784	51	4426
2026-01-04 09:59:48.63	350.73	63.33	-39.4	-41.5	17.0	0.00e+00	0	56	0	771751936	50	4581
2026-01-04 09:59:49.64	350.57	62.90	-39.3	-41.3	17.2	0.00e+00	0	56	0	772800512	50	4486
2026-01-04 09:59:50.65	350.41	62.48	-38.9	-40.9	17.6	0.00e+00	0	56	0	774897664	49	4524
2026-01-04 09:59:51.65	350.26	62.06	-38.8	-40.7	17.9	0.00e+00	0	56	0	776994816	49	4406
2026-01-04 09:59:52.66	350.12	61.64	-38.7	-40.6	18.0	0.00e+00	0	56	0	779091968	49	4364
2026-01-04 09:59:53.67	349.98	61.22	-39.2	-41.3	17.3	0.00e+00	0	56	0	781189120	49	4708
2026-01-04 09:59:54.68	349.84	60.81	-40.3	-42.8	15.8	0.00e+00	0	56	0	782237696	51	4997
2026-01-04 09:59:55.69	349.71	60.40	-41.3	-44.4	14.1	7.00e-07	0	56	0	784334848	53	5376
2026-01-04 09:59:56.70	349.59	59.99	-41.3	-44.4	14.1	7.60e-06	0	56	0	786432000	53	5348
2026-01-04 09:59:57.71	349.46	59.58	-40.9	-43.7	14.8	7.00e-07	0	57	0	788529152	53	4967
2026-01-04 09:59:58.72	349.34	59.18	-41.0	-43.9	14.5	7.00e-07	0	56	0	790626304	52	5394
2026-01-04 09:59:59.73	349.23	58.77	-41.4	-44.6	13.8	7.00e-07	0	57	0	791674880	53	5503
2026-01-04 10:00:00.75	349.12	58.37	-41.6	-44.9	13.6	6.80e-06	0	56	0	793772032	53	5682
2026-01-04 10:00:01.76	349.01	57.97	-42.0	-45.6	12.8	4.04e-05	0	56	0	795869184	54	5808
2026-01-04 10:00:02.77	348.90	57.58	-42.4	-46.5	11.9	2.65e-04	0	57	0	797966336	55	6078
2026-01-04 10:00:03.77	348.80	57.19	-42.3	-46.2	12.2	5.36e-04	0	56	0	800063488	55	5885
2026-01-04 10:00:04.79	348.70	56.80	-41.4	-44.6	13.9	1.44e-05	0	57	0	801112064	54	5166
2026-01-04 10:00:05.80	348.61	56.41	-40.6	-43.3	15.2	0.00e+00	0	57	0	803209216	53	4725
2026-01-04 10:00:06.81	348.51	56.03	-40.3	-42.7	15.7	0.00e+00	0	56	0	805306368	52	4700
2026-01-04 10:00:07.82	348.42	55.65	-40.2	-42.6	15.8	2.20e-06	0	56	0	807403520	52	4625
2026-01-04 10:00:08.83	348.34	55.27	-40.1	-42.5	15.9	0.00e+00	0	56	0	809500672	52	4597
2026-01-04 10:00:09.84	348.25	54.89	-39.9	-42.2	16.4	0.00e+00	0	57	0	811597824	51	4663
2026-01-04 10:00:10.84	348.17	54.52	-39.9	-42.1	16.4	0.00e+00	0	56	0	812646400	51	4626
2026-01-04 10:00:11.85	348.09	54.15	-39.7	-42.0	16.6	0.00e+00	0	56	0	814743552	51	4559
2026-01-04 10:00:12.86	348.01	53.79	-39.5	-41.7	16.9	0.00e+00	0	57	0	816840704	51	4407
2026-01-04 10:00:13.87	347.93	53.42	-39.4	-41.5	17.1	0.00e+00	0	56	0	818937856	50	4546
2026-01-04 10:00:14.88	347.86	53.06	-39.3	-41.3	17.3	0.00e+00	0	56	0	821035008	50	4468
2026-01-04 10:00:15.89	347.78	52.70	-39.5	-41.6	16.9	0.00e+00	0	56	0	822083584	50	4651
2026-01-04 10:00:16.90	347.71	52.34	-40.3	-42.8	15.8	0.00e+00	0	56	0	824180736	51	5002
2026-01-04 10:00:17.91	347.64	51.98	-41.1	-44.1	14.4	7.00e-07	0	56	0	826277888	52	5467
2026-01-04 10:00:18.92	347.57	51.63	-41.5	-44.7	13.8	5.30e-06	0	56	0	828375040	53	5548
2026-01-04 10:00:19.93	347.51	51.28	-41.3	-44.5	13.9	3.80e-06	0	56	0	830472192	53	5429
2026-01-04 10:00:20.94	347.44	50.93	-41.1	-44.0	14.4	0.00e+00	0	57	0	831520768	53	5154
2026-01-04 10:00:21.95	347.38	50.59	-41.1	-44.1	14.3	0.00e+00	0	56	0	833617920	53	5198
2026-01-04 10:00:22.96	347.32	50.25	-41.3	-44.3	14.2	1.50e-06	0	56	0	835715072	53	5327
2026-01-04 10:00:23.97	347.26	49.91	-41.5	-44.7	13.8	3.80e-06	0	56	0	837812224	53	5537
2026-01-04 10:00:24.98	347.20	49.57	-41.7	-45.2	13.3	9.10e-06	0	56	0	839909376	54	5571
2026-01-04 10:00:25.99	347.15	49.23	-42.0	-45.7	12.7	3.58e-05	0	56	0	840957952	54	5856
2026-01-04 10:00:27.00	347.09	48.90	-42.7	-47.1	11.3	7.77e-04	0	56	0	843055104	55	6496
2026-01-04 10:00:28.01	347.03	48.57	-43.4	-48.7	9.8	5.19e-03	0	56	0	845152256	57	7005
2026-01-04 10:00:29.02	346.98	48.24	-43.3	-48.5	9.9	1.55e-02	0	56	0	847249408	57	6830
2026-01-04 10:00:30.03	346.93	47.92	-42.4	-46.3	12.2	2.79e-03	0	57	0	849346560	56	5649
2026-01-04 10:00:31.04	346.88	47.60	-41.3	-44.3	14.1	9.90e-06	0	56	0	850395136	54	5017
2026-01-04 10:00:32.05	346.83	47.28	-40.6	-43.2	15.2	0.00e+00	0	57	0	852492288	53	4700
2026-01-04 10:00:33.06	346.78	46.96	-40.6	-43.2	15.2	0.00e+00	0	57	0	854589440	53	4694
2026-01-04 10:00:34.07	346.73	46.64	-40.7	-43.4	15.0	0.00e+00	0	56	0	856686592	53	4794
2026-01-04 10:00:35.08	346.69	46.33	-41.4	-44.5	13.9	7.00e-07	0	56	0	858783744	53	5449
2026-01-04 10:00:36.09	346.64	46.02	-41.8	-45.4	13.1	9.90e-06	0	57	0	860880896	54	5674
2026-01-04 10:00:37.10	346.60	45.71	-42.2	-46.1	12.3	1.18e-04	0	56	0	861929472	54	6144
2026-01-04 10:00:38.11	346.55	45.40	-42.2	-46.0	12.4	1.70e-04	0	56	0	864026624	55	5743
2026-01-04 10:00:39.12	346.51	45.10	-42.1	-46.0	12.3	1.58e-04	0	56	0	866123776	55	5754
2026-01-04 10:00:40.12	346.47	44.80	-41.8	-45.3	13.1	1.07e-04	0	56	0	868220928	55	5313
2026-01-04 10:00:41.13	346.43	44.50	-41.3	-44.4	14.1	3.00e-06	0	56	0	869269504	54	5055
2026-01-04 10:00:42.14	346.39	44.20	-40.6	-43.2	15.2	7.00e-07	0	57	0	871366656	53	4663
2026-01-04 10:00:43.15	346.35	43.91	-40.3	-42.8	15.6	0.00e+00	0	56	0	873463808	52	4724
2026-01-04 10:00:44.16	346.31	43.62	-40.2	-42.6	15.8	0.00e+00	0	57	0	875560960	52	4637
2026-01-04 10:00:45.17	346.27	43.33	-40.4	-42.9	15.5	0.00e+00	0	56	0	877658112	52	4799
2026-01-04 10:00:46.18	346.23	43.04	-40.8	-43.5	14.9	0.00e+00	0	56	0	878706688	52	5121
2026-01-04 10:00:47.19	346.20	42.75	-41.3	-44.4	14.0	0.00e+00	0	56	0	880803840	53	5350
2026-01-04 10:00:48.20	346.16	42.47	-41.7	-45.2	13.2	1.75e-05	0	57	0	882900992	54	5556
2026-01-04 10:00:49.21	346.12	42.19	-42.4	-46.5	11.8	8.92e-05	0	56	0	884998144	55	6067
2026-01-04 10:00:50.22	346.09	41.91	-43.0	-47.7	10.7	1.79e-03	0	56	0	887095296	56	6605
2026-01-04 10:00:51.23	346.06	41.63	-43.0	-47.8	10.7	3.53e-03	0	56	0	889192448	56	6669
2026-01-04 10:00:52.24	346.02	41.35	-42.8	-47.2	11.3	2.66e-03	0	56	0	890241024	56	6220
2026-01-04 10:00:53.25	345.99	41.08	-42.4	-46.3	12.2	3.05e-04	0	56	0	892338176	56	5619
2026-01-04 10:00:54.26	345.96	40.81	-42.0	-45.6	12.9	1.12e-04	0	56	0	894435328	56	5191
2026-01-04 10:00:55.26	345.93	40.54	-41.4	-44.5	13.8	1.52e-05	0	56	0	896532480	54	5122
2026-01-04 10:00:56.27	345.90	40.28	-41.1	-44.1	14.3	1.50e-06	0	56	0	898629632	54	4871
2026-01-04 10:00:57.28	345.87	40.01	-41.0	-43.9	14.5	2.20e-06	0	57	0	899678208	54	4813
2026-01-04 10:00:58.29	345.84	39.75	-41.2	-44.3	14.2	2.20e-06	0	56	0	901775360	54	4990
2026-01-04 10:00:59.30	345.81	39.49	-41.5	-44.7	13.6	4.50e-06	0	56	0	903872512	54	5263
2026-01-04 10:01:00.31	345.78	39.23	-42.0	-45.6	12.7	4.57e-05	0	56	0	905969664	54	5833
2026-01-04 10:01:01.32	345.75	38.97	-42.4	-46.5	11.9	2.09e-04	0	56	0	908066816	55	6107
2026-01-04 10:01:02.33	345.72	38.71	-42.7	-47.2	11.0	9.38e-04	0	56	0	909115392	55	6645
2026-01-04 10:01:03.34	345.70	38.46	-43.2	-48.2	10.2	4.68e-03	0	56	0	911212544	56	6979
2026-01-04 10:01:04.35	345.67	38.21	-43.4	-48.8	9.6	8.43e-03	0	56	0	913309696	57	7058
2026-01-04 10:01:05.36	345.64	37.96	-43.3	-48.6	9.8	1.19e-02	0	56	0	915406848	57	6885
2026-01-04 10:01:06.37	345.62	37.71	-43.1	-48.0	10.3	6.67e-03	0	57	0	917504000	57	6493
2026-01-04 10:01:07.38	345.59	37.46	-43.0	-47.7	10.7	4.20e-03	0	57	0	918552576	57	6261
2026-01-04 10:01:08.39	345.57	37.22	-42.8	-47.2	11.2	2.03e-03	0	56	0	920649728	57	5877
2026-01-04 10:01:09.40	345.54	36.98	-42.6	-46.8	11.5	7.54e-04	0	56	0	922746880	57	5655
2026-01-04 10:01:10.41	345.52	36.74	-42.5	-46.5	11.9	4.75e-04	0	57	0	924844032	56	5761
2026-01-04 10:01:11.42	345.50	36.50	-42.4	-46.3	12.2	2.73e-04	0	56	0	926941184	56	5613
2026-01-04 10:01:12.43	345.47	36.26	-42.3	-46.1	12.3	2.12e-04	0	57	0	927989760	56	5521
2026-01-04 10:01:13.44	345.45	36.02	-42.3	-46.1	12.3	2.39e-04	0	56	0	930086912	56	5516
2026-01-04 10:01:14.45	345.43	35.79	-42.3	-46.2	12.2	1.90e-04	0	57	0	932184064	56	5567
2026-01-04 10:01:15.46	345.41	35.56	-42.4	-46.4	12.0	2.20e-04	0	56	0	934281216	56	5675
2026-01-04 10:01:16.47	345.38	35.33	-42.5	-46.6	11.8	5.48e-04	0	56	0	936378368	56	5839
2026-01-04 10:01:17.48	345.36	35.10	-42.6	-46.9	11.5	6.13e-04	0	57	0	937426944	56	6033
2026-01-04 10:01:18.49	345.34	34.87	-42.9	-47.6	10.8	1.43e-03	0	56	0	939524096	56	6514
2026-01-04 10:01:19.50	345.32	34.65	-43.1	-48.0	10.3	4.32e-03	0	57	0	941621248	56	6852
2026-01-04 10:01:20.51	345.30	34.42	-43.3	-48.8	9.5	9.44e-03	0	57	0	943718400	57	7049
2026-01-04 10:01:21.52	345.28	34.20	-43.4	-49.1	9.2	1.71e-02	0	56	0	945815552	57	7313
2026-01-04 10:01:22.53	345.26	33.98	-43.5	-49.5	8.7	2.96e-02	0	57	0	946864128	57	7647
2026-01-04 10:01:23.54	345.24	33.76	-43.5	-49.3	8.9	3.28e-02	0	57	0	948961280	57	7539
2026-01-04 10:01:24.55	345.22	33.54	-43.5	-49.4	8.8	2.94e-02	0	57	0	951058432	57	7589
2026-01-04 10:01:25.56	345.20	33.33	-43.5	-49.3	8.8	3.04e-02	0	57	0	953155584	57	7462
2026-01-04 10:01:26.57	345.19	33.11	-43.4	-48.8	9.3	2.37e-02	0	56	0	955252736	57	7105
2026-01-04 10:01:27.58	345.17	32.90	-43.2	-48.4	9.9	1.29e-02	0	57	0	957349888	57	6724
2026-01-04 10:01:28.59	345.15	32.69	-42.9	-47.7	10.6	6.58e-03	0	57	0	958398464	57	6240
2026-01-04 10:01:29.60	345.13	32.48	-42.7	-47.1	11.2	1.88e-03	0	56	0	960495616	57	5825
2026-01-04 10:01:30.60	345.12	32.27	-42.5	-46.7	11.6	9.35e-04	0	57	0	962592768	57	5577
2026-01-04 10:01:31.61	345.10	32.06	-42.4	-46.4	11.9	5.77e-04	0	57	0	964689920	56	5678
2026-01-04 10:01:32.62	345.08	31.86	-42.2	-46.0	12.3	2.27e-04	0	56	0	966787072	56	5418
2026-01-04 10:01:33.64	345.06	31.65	-42.1	-45.8	12.6	1.11e-04	0	57	0	967835648	56	5302
2026-01-04 10:01:34.65	345.05	31.45	-41.8	-45.5	12.7	8.46e-05	0	57	0	969932800	55	5428
2026-01-04 10:01:35.66	345.03	31.25	-41.9	-45.6	12.6	9.07e-05	0	56	0	972029952	55	5486
2026-01-04 10:01:36.67	345.02	31.05	-42.0	-45.9	12.2	1.52e-04	0	57	0	974127104	55	5696
2026-01-04 10:01:37.68	345.00	30.85	-42.1	-46.1	12.1	2.48e-04	0	57	0	976224256	55	5819
2026-01-04 10:01:38.69	344.99	30.65	-42.3	-46.4	11.7	5.59e-04	0	57	0	977272832	55	6030
2026-01-04 10:01:39.69	344.97	30.46	-42.4	-46.7	11.4	7.33e-04	0	57	0	979369984	55	6209
2026-01-04 10:01:40.70	344.96	30.26	-42.5	-47.0	11.0	1.21e-03	0	57	0	981467136	55	6470
2026-01-04 10:01:41.71	344.94	30.07	-42.5	-47.0	11.1	1.98e-03	0	57	0	983564288	55	6452
2026-01-04 10:01:42.72	344.93	29.88	-42.5	-47.0	11.1	1.88e-03	0	56	0	985661440	55	6425
2026-01-04 10:01:43.73	344.91	29.69	-42.5	-47.0	11.1	1.65e-03	0	56	0	986710016	55	6447
2026-01-04 10:01:44.74	344.90	29.50	-42.4	-46.8	11.3	1.39e-03	0	57	0	988807168	55	6317
2026-01-04 10:01:45.75	344.89	29.31	-42.3	-46.6	11.5	1.03e-03	0	57	0	990904320	55	6148
2026-01-04 10:01:46.76	344.87	29.12	-42.2	-46.4	11.7	7.12e-04	0	56	0	993001472	55	6018
2026-01-04 10:01:47.77	344.86	28.94	-42.0	-46.0	12.0	4.10e-04	0	56	0	995098624	55	5779
2026-01-04 10:01:48.78	344.85	28.75	-41.9	-45.7	12.4	1.55e-04	0	56	0	996147200	55	5571
2026-01-04 10:01:49.79	344.83	28.57	-41.7	-45.5	12.6	1.17e-04	0	56	0	998244352	55	5405
2026-01-04 10:01:50.80	344.82	28.39	-41.6	-45.1	13.0	5.41e-05	0	57	0	1000341504	55	5182
2026-01-04 10:01:51.81	344.81	28.20	-41.4	-44.7	13.3	1.44e-05	0	57	0	1002438656	54	5276
2026-01-04 10:01:52.82	344.79	28.02	-41.2	-44.4	13.6	1.44e-05	0	56	0	1004535808	54	5098
2026-01-04 10:01:53.83	344.78	27.85	-41.0	-44.0	14.1	7.60e-06	0	56	0	1005584384	54	4850
2026-01-04 10:01:54.84	344.77	27.67	-40.8	-43.7	14.4	1.50e-06	0	56	0	1007681536	53	4964
2026-01-04 10:01:55.85	344.76	27.49	-40.6	-43.5	14.6	7.00e-07	0	57	0	1009778688	53	4824
2026-01-04 10:01:56.86	344.75	27.32	-40.5	-43.3	14.8	0.00e+00	0	56	0	1011875840	52	4999
2026-01-04 10:01:57.87	344.74	27.14	-40.4	-43.1	15.0	0.00e+00	0	56	0	1013972992	52	4921
2026-01-04 10:01:58.88	344.72	26.97	-40.3	-43.1	15.0	0.00e+00	0	56	0	1015021568	52	4873
2026-01-04 10:01:59.89	344.71	26.80	-40.3	-43.1	15.0	7.00e-07	0	57	0	1017118720	52	4876
2026-01-04 10:02:00.90	344.70	26.63	-40.3	-43.0	15.1	0.00e+00	0	57	0	1019215872	52	4832
2026-01-04 10:02:01.91	344.69	26.46	-40.3	-43.1	15.0	0.00e+00	0	56	0	1021313024	52	4881
2026-01-04 10:02:02.92	344.68	26.29	-40.2	-42.9	15.1	0.00e+00	0	56	0	1023410176	52	4802
2026-01-04 10:02:03.93	344.67	26.12	-40.3	-42.9	15.1	0.00e+00	0	57	0	1025507328	52	4812
2026-01-04 10:02:04.94	344.66	25.95	-40.3	-43.0	15.0	0.00e+00	0	56	0	1026555904	52	4829
2026-01-04 10:02:05.95	344.65	25.79	-40.3	-43.0	15.1	0.00e+00	0	57	0	1028653056	52	4816
2026-01-04 10:02:06.96	344.64	25.62	-40.2	-42.9	15.1	0.00e+00	0	56	0	1030750208	52	4808
2026-01-04 10:02:07.97	344.63	25.46	-40.2	-42.9	15.1	0.00e+00	0	56	0	1032847360	52	4796
2026-01-04 10:02:08.98	344.62	25.30	-40.2	-42.9	15.1	0.00e+00	0	56	0	1034944512	52	4778
2026-01-04 10:02:09.99	344.61	25.14	-40.2	-42.8	15.1	0.00e+00	0	57	0	1035993088	52	4759
2026-01-04 10:02:11.00	344.60	24.98	-40.1	-42.8	15.1	0.00e+00	0	57	0	1038090240	52	4740
2026-01-04 10:02:12.01	344.59	24.82	-40.1	-42.8	15.1	0.00e+00	0	56	0	1040187392	52	4757
2026-01-04 10:02:13.02	344.58	24.66	-40.1	-42.8	15.1	0.00e+00	0	57	0	1042284544	52	4747
2026-01-04 10:02:14.03	344.57	24.50	-40.1	-42.8	15.1	0.00e+00	0	57	0	1044381696	52	4754
2026-01-04 10:02:15.04	344.56	24.34	-40.0	-42.7	15.2	0.00e+00	0	56	0	1045430272	52	4679
2026-01-04 10:02:16.05	344.55	24.19	-40.0	-42.5	15.4	0.00e+00	0	57	0	1047527424	51	4865
2026-01-04 10:02:17.06	344.54	24.03	-40.0	-42.6	15.3	0.00e+00	0	56	0	1049624576	51	4904
2026-01-04 10:02:18.07	344.54	23.88	-39.9	-42.4	15.5	0.00e+00	0	57	0	1051721728	51	4800
2026-01-04 10:02:19.08	344.53	23.73	-39.8	-42.3	15.6	0.00e+00	0	56	0	1053818880	51	4724
2026-01-04 10:02:20.09	344.52	23.57	-39.7	-42.3	15.6	0.00e+00	0	57	0	1054867456	51	4720
2026-01-04 10:02:21.10	344.51	23.42	-39.7	-42.3	15.5	0.00e+00	0	56	0	1056964608	51	4721
2026-01-04 10:02:22.11	344.50	23.27	-39.5	-42.0	15.7	0.00e+00	0	57	0	1059061760	51	4554
2026-01-04 10:02:23.12	344.49	23.12	-39.3	-41.7	15.9	0.00e+00	0	56	0	1061158912	50	4680
2026-01-04 10:02:24.13	344.49	22.98	-39.4	-41.9	15.7	0.00e+00	0	56	0	1063256064	50	4783
2026-01-04 10:02:25.13	344.48	22.83	-39.5	-42.2	15.3	0.00e+00	0	57	0	1064304640	50	4934
2026-01-04 10:02:26.15	344.47	22.68	-39.4	-42.1	15.2	0.00e+00	0	57	0	1066401792	50	4907
2026-01-04 10:02:27.15	344.46	22.54	-39.2	-41.7	15.5	0.00e+00	0	57	0	1068498944	50	4700
2026-01-04 10:02:28.17	344.46	22.39	-39.0	-41.6	15.6	0.00e+00	0	57	0	1070596096	50	4607
2026-01-04 10:02:29.17	344.45	22.25	-39.0	-41.5	15.5	0.00e+00	0	57	0	1072693248	50	4592
2026-01-04 10:02:30.18	344.44	22.10	-38.9	-41.5	15.5	0.00e+00	0	56	0	1073741824	49	4838
2026-01-04 10:02:31.19	344.43	21.96	-38.9	-41.5	15.4	0.00e+00	0	56	0	1075838976	49	4863
2026-01-04 10:02:32.20	344.43	21.82	-38.9	-41.5	15.3	7.00e-07	0	57	0	1077936128	49	4854
2026-01-04 10:02:33.21	344.42	21.68	-39.1	-41.9	14.7	0.00e+00	0	56	0	1080033280	49	5079
2026-01-04 10:02:34.22	344.41	21.54	-39.4	-42.6	13.9	0.00e+00	0	56	0	1082130432	49	5499
2026-01-04 10:02:35.23	344.41	21.40	-39.8	-43.4	12.9	1.67e-05	0	56	0	1083179008	50	5686
2026-01-04 10:02:36.24	344.40	21.26	-40.3	-44.7	11.2	2.81e-04	0	57	0	1085276160	51	6220
2026-01-04 10:02:37.25	344.39	21.12	-40.6	-45.9	9.6	7.34e-03	0	57	0	1087373312	51	7193
2026-01-04 10:02:38.26	344.39	20.98	-40.7	-47.2	7.9	3.77e-02	0	56	0	1089470464	52	7855
2026-01-04 10:02:39.27	344.38	20.85	-40.8	-48.6	6.3	1.43e-01	0	56	0	1091567616	52	9266
2026-01-04 10:02:40.28	344.37	20.71	-40.9	-50.1	5.1	3.73e-01	0	57	0	1093664768	52	10939
2026-01-04 10:02:41.29	344.37	20.58	-40.8	-51.5	4.4	9.41e-01	76	56	0	1094713344	52	12839
2026-01-04 10:02:42.30	344.36	20.44	-40.7	-52.5	4.1	1.38e+00	0	57	0	1095761920	52	14427
2026-01-04 10:02:43.31	344.36	20.31	-40.6	-53.3	3.9	1.48e+00	0	57	104	1095761920	52	15925
2026-01-04 10:02:44.32	344.35	20.17	-40.5	-54.0	3.8	1.49e+00	0	57	104	1095761920	52	17149
2026-01-04 10:02:45.33	344.34	20.04	-40.4	-54.4	3.8	1.49e+00	0	57	104	1095761920	52	17936
2026-01-04 10:02:46.34	344.34	19.91	-40.4	-54.6	3.8	1.49e+00	0	56	104	1095761920	52	18471
2026-01-04 10:02:47.35	344.33	19.78	-40.3	-54.9	3.8	1.49e+00	0	57	104	1095761920	52	18957
2026-01-04 10:02:48.36	344.33	19.65	-40.3	-54.9	3.8	1.49e+00	0	57	104	1095761920	52	19120
2026-01-04 10:02:49.37	344.32	19.52	-40.3	-55.0	3.8	1.49e+00	0	57	104	1095761920	52	19268
2026-01-04 10:02:50.38	344.32	19.39	-40.5	-55.0	3.8	1.49e+00	0	56	104	1095761920	52	19327
2026-01-04 10:02:51.39	344.31	19.26	-40.4	-55.0	3.8	1.49e+00	0	57	104	1095761920	52	19344
2026-01-04 10:02:52.40	344.31	19.14	-40.5	-55.0	3.8	1.49e+00	0	57	104	1095761920	52	19264
2026-01-04 10:02:53.41	344.30	19.01	-40.5	-55.0	3.8	1.49e+00	0	57	104	1095761920	52	19365
2026-01-04 10:02:54.42	344.29	18.88	-40.4	-55.0	3.8	1.49e+00	0	57	104	1095761920	52	19275
2026-01-04 10:02:55.43	344.29	18.76	-40.4	-55.0	3.8	1.49e+00	0	57	104	1095761920	52	19239
2026-01-04 10:02:56.45	344.28	18.63	-40.4	-55.0	3.8	1.49e+00	0	57	104	1095761920	52	19324
2026-01-04 10:02:57.45	344.28	18.51	-40.4	-55.0	3.8	1.49e+00	0	57	104	1095761920	52	19313
2026-01-04 10:02:58.46	344.27	18.38	-40.7	-55.3	3.8	1.49e+00	0	57	104	1095761920	52	20056
2026-01-04 10:02:59.47	344.27	18.26	-40.7	-55.3	3.8	1.49e+00	0	57	104	1095761920	52	19993
2026-01-04 10:03:00.48	344.27	18.14	-40.5	-55.1	3.8	1.49e+00	0	57	104	1095761920	52	19520
2026-01-04 10:03:01.50	344.26	18.02	-40.8	-55.3	3.8	1.49e+00	0	57	104	1095761920	52	20043
2026-01-04 10:03:02.51	344.26	17.90	-40.4	-55.1	3.8	1.49e+00	0	57	104	1095761920	52	19407
2026-01-04 10:03:03.52	344.25	17.77	-40.8	-55.4	3.8	1.49e+00	0	57	104	1095761920	52	20136
2026-01-04 10:03:04.53	344.25	17.65	-40.9	-55.5	3.8	1.49e+00	0	56	104	1095761920	52	20384
2026-01-04 10:03:05.54	344.24	17.54	-41.0	-55.5	3.8	1.49e+00	0	57	104	1095761920	52	20364
2026-01-04 10:03:06.55	344.24	17.42	-40.8	-55.4	3.8	1.49e+00	0	57	104	1095761920	52	20183
2026-01-04 10:03:07.56	344.23	17.30	-40.9	-55.5	3.8	1.49e+00	0	57	104	1095761920	52	20387
2026-01-04 10:03:08.57	344.23	17.18	-40.8	-55.4	3.8	1.49e+00	0	57	104	1095761920	52	20183
2026-01-04 10:03:09.58	344.23	17.06	-40.9	-55.4	3.8	1.49e+00	0	57	104	1095761920	52	20233
2026-01-04 10:03:10.59	344.22	16.95	-40.3	-55.3	3.8	1.49e+00	0	57	104	1095761920	52	19886
2026-01-04 10:03:11.60	344.22	16.83	-40.8	-55.4	3.8	1.49e+00	0	57	104	1095761920	52	20104
2026-01-04 10:03:12.61	344.21	16.72	-40.6	-55.2	3.8	1.49e+00	0	57	104	1095761920	52	19805
2026-01-04 10:03:13.62	344.21	16.60	-40.7	-55.3	3.8	1.49e+00	0	57	104	1095761920	52	20007
2026-01-04 10:03:14.63	344.21	16.49	-40.8	-55.4	3.8	1.49e+00	0	57	104	1095761920	52	20198
2026-01-04 10:03:15.64	344.20	16.37	-40.7	-55.3	3.8	1.49e+00	0	57	104	1095761920	52	19934
2026-01-04 10:03:16.65	344.20	16.26	-40.8	-55.4	3.8	1.49e+00	0	57	104	1095761920	52	20144
2026-01-04 10:03:17.66	344.20	16.15	-40.7	-55.3	3.8	1.49e+00	0	57	104	1095761920	52	19886
2026-01-04 10:03:18.67	344.19	16.03	-40.5	-55.2	3.8	1.49e+00	0	57	104	1095761920	52	19645
2026-01-04 10:03:19.68	344.19	15.92	-40.7	-55.4	3.8	1.49e+00	0	57	104	1095761920	52	20229
