passes_logs/2026/01/04/R2.0S_Moscow/R2.0S_Moscow__20260104_005115_NOAA_21_JPSS-2_rec.log

#Pass ID: 20260104_005115_NOAA 21 (JPSS-2)
#Satellite: NOAA 21 (JPSS-2)
#Configuration: NOAA-21
#almurnet v.1.7.20251203
#Start time: 2026-01-04 00:55:20

#Version: 2.2.20231116
#Station: R2.0S_Moscow
#Location: 37.707566 lon 55.798166 lat
#TLE: 1 54234U 22150A   26003.45311712  .00000198  00000+0  11468-3 0  9993
#TLE: 2 54234  98.7487 304.4932 0001159 347.5017  12.6130 14.19531745163172

#Time	Az	El	Level	Level2	SNR	BER	BlckErr	Temp	State	Recorded	gain1	gain2
2026-01-04 00:55:20.63	348.84	21.26	-44.9	-56.8	3.8	8.47e-01	0	57	0	0	60	14971
2026-01-04 00:55:21.63	348.66	21.36	-45.2	-57.8	3.8	1.49e+00	0	57	104	0	62	14894
2026-01-04 00:55:22.64	348.48	21.46	-45.2	-57.7	3.8	1.49e+00	0	57	104	0	62	14878
2026-01-04 00:55:23.65	348.30	21.56	-45.2	-57.8	3.8	1.49e+00	0	57	104	0	62	14894
2026-01-04 00:55:24.66	348.12	21.66	-45.1	-57.7	3.8	1.49e+00	0	57	104	0	62	14787
2026-01-04 00:55:25.67	347.93	21.76	-45.1	-57.7	3.8	1.49e+00	0	57	104	0	62	14712
2026-01-04 00:55:26.68	347.74	21.86	-45.1	-57.6	3.8	1.49e+00	0	57	104	0	62	14626
2026-01-04 00:55:27.69	347.56	21.97	-45.0	-57.5	3.8	1.49e+00	0	57	104	0	62	14534
2026-01-04 00:55:28.71	347.36	22.07	-44.8	-57.3	3.8	1.49e+00	0	57	104	0	61	15022
2026-01-04 00:55:29.72	347.17	22.17	-44.8	-57.4	3.8	1.49e+00	0	57	104	0	61	15080
2026-01-04 00:55:30.73	346.98	22.27	-44.8	-57.4	3.8	1.49e+00	0	57	104	0	61	15054
2026-01-04 00:55:31.74	346.79	22.37	-44.8	-57.3	3.8	1.49e+00	0	57	104	0	61	14956
2026-01-04 00:55:32.75	346.59	22.47	-44.8	-57.2	3.8	1.49e+00	0	57	104	0	61	14841
2026-01-04 00:55:33.76	346.40	22.57	-44.8	-57.1	3.8	1.49e+00	0	57	104	0	61	14707
2026-01-04 00:55:34.77	346.20	22.68	-44.8	-57.1	3.8	1.49e+00	0	57	104	0	61	14628
2026-01-04 00:55:35.78	346.00	22.78	-44.8	-57.2	3.8	1.49e+00	0	57	104	0	61	14841
2026-01-04 00:55:36.80	345.80	22.88	-44.8	-57.3	3.8	1.49e+00	0	57	104	0	61	15039
2026-01-04 00:55:37.81	345.60	22.98	-44.8	-57.3	3.8	1.49e+00	0	57	104	0	61	15048
2026-01-04 00:55:38.82	345.40	23.08	-44.8	-57.3	3.8	1.49e+00	0	57	104	0	61	14933
2026-01-04 00:55:39.83	345.20	23.18	-44.8	-57.1	3.8	1.49e+00	0	57	104	0	61	14658
2026-01-04 00:55:40.84	344.99	23.29	-44.8	-57.0	3.8	1.49e+00	0	57	104	0	61	14484
2026-01-04 00:55:41.85	344.79	23.39	-44.8	-57.1	3.8	1.49e+00	0	57	104	0	61	14567
2026-01-04 00:55:42.86	344.58	23.49	-44.8	-57.2	3.8	1.49e+00	0	57	104	0	61	14749
2026-01-04 00:55:43.87	344.37	23.59	-44.8	-57.3	3.8	1.49e+00	0	57	104	0	61	14949
2026-01-04 00:55:44.88	344.16	23.69	-44.8	-57.3	3.8	1.49e+00	0	57	104	0	61	15008
2026-01-04 00:55:45.90	343.94	23.79	-44.8	-57.3	3.8	1.49e+00	0	57	104	0	61	15015
2026-01-04 00:55:46.91	343.73	23.90	-44.8	-57.3	3.8	1.49e+00	0	57	104	0	61	14989
2026-01-04 00:55:47.92	343.52	24.00	-44.8	-57.3	3.8	1.49e+00	0	57	104	0	61	14947
2026-01-04 00:55:48.93	343.30	24.10	-44.8	-57.3	3.8	1.49e+00	0	57	104	0	61	14961
2026-01-04 00:55:49.94	343.08	24.20	-44.8	-57.3	3.8	1.49e+00	0	57	104	0	61	15033
2026-01-04 00:55:50.95	342.86	24.30	-44.8	-57.3	3.8	1.49e+00	0	57	104	0	61	15016
2026-01-04 00:55:51.96	342.64	24.40	-44.8	-57.3	3.8	1.49e+00	0	57	104	0	61	14929
2026-01-04 00:55:52.97	342.42	24.50	-44.8	-57.2	3.8	1.49e+00	0	57	104	0	61	14858
2026-01-04 00:55:53.98	342.20	24.60	-44.8	-57.0	3.8	1.49e+00	0	57	104	0	61	14375
2026-01-04 00:55:54.99	341.98	24.71	-44.7	-56.5	3.8	1.49e+00	0	57	104	0	61	13637
2026-01-04 00:55:56.01	341.75	24.81	-44.7	-56.1	3.8	1.49e+00	0	57	104	0	61	12989
2026-01-04 00:55:57.02	341.52	24.91	-44.7	-55.8	3.8	1.49e+00	0	57	104	0	61	12661
2026-01-04 00:55:58.03	341.29	25.01	-44.7	-55.9	3.8	1.49e+00	0	57	104	0	61	12788
2026-01-04 00:55:59.04	341.06	25.11	-44.7	-55.9	3.8	1.49e+00	0	57	104	0	61	12807
2026-01-04 00:56:00.05	340.83	25.21	-44.6	-55.6	3.8	1.49e+00	0	57	104	0	61	12357
2026-01-04 00:56:01.06	340.59	25.31	-44.5	-54.5	4.0	1.49e+00	0	57	104	0	61	10869
2026-01-04 00:56:02.07	340.36	25.41	-44.4	-53.7	3.9	1.46e+00	0	57	104	0	60	10489
2026-01-04 00:56:03.08	340.12	25.51	-44.1	-51.8	5.0	8.18e-01	0	57	0	0	60	8422
2026-01-04 00:56:04.09	339.89	25.61	-43.9	-50.4	5.8	4.52e-01	0	57	0	3145728	59	7609
2026-01-04 00:56:05.10	339.65	25.71	-43.8	-49.9	6.2	2.97e-01	0	57	0	6291456	59	7145
2026-01-04 00:56:06.11	339.40	25.81	-43.9	-50.2	5.9	3.22e-01	0	57	0	9437184	59	7446
2026-01-04 00:56:07.12	339.16	25.91	-44.2	-51.9	4.9	6.66e-01	0	57	0	12582912	59	9023
2026-01-04 00:56:08.14	338.92	26.01	-44.6	-54.2	4.1	1.47e+00	0	57	104	12582912	59	11698
2026-01-04 00:56:09.15	338.67	26.11	-44.1	-51.5	5.1	1.26e+00	0	57	0	12582912	59	8627
2026-01-04 00:56:10.16	338.42	26.21	-42.6	-46.9	9.1	8.06e-02	0	57	0	15728640	57	5658
2026-01-04 00:56:11.17	338.17	26.30	-40.5	-43.1	12.8	3.50e-04	0	57	0	18874368	53	4647
2026-01-04 00:56:12.18	337.92	26.40	-39.0	-40.9	15.1	0.00e+00	0	57	0	22020096	50	4289
2026-01-04 00:56:13.19	337.67	26.50	-37.9	-39.5	16.4	0.00e+00	0	57	0	25165824	47	4337
2026-01-04 00:56:14.20	337.42	26.60	-37.5	-39.0	16.9	0.00e+00	0	57	0	28311552	46	4338
2026-01-04 00:56:15.21	337.16	26.69	-37.6	-39.2	16.7	0.00e+00	0	57	0	31457280	46	4421
2026-01-04 00:56:16.22	336.91	26.79	-37.6	-39.2	16.7	0.00e+00	0	57	0	34603008	46	4430
2026-01-04 00:56:17.23	336.65	26.89	-40.3	-42.8	13.0	5.68e-04	0	57	0	37748736	52	4724
2026-01-04 00:56:18.24	336.39	26.99	-42.3	-46.1	9.8	2.17e-02	0	57	0	40894464	56	5518
2026-01-04 00:56:19.25	336.13	27.08	-39.2	-41.1	14.9	1.37e-05	0	57	0	44040192	50	4383
2026-01-04 00:56:20.26	335.86	27.18	-41.5	-44.7	11.1	3.10e-03	0	57	0	47185920	54	5258
2026-01-04 00:56:21.26	335.60	27.27	-38.1	-39.7	16.3	0.00e+00	0	57	0	50331648	48	4178
2026-01-04 00:56:22.27	335.34	27.37	-38.0	-39.7	16.4	0.00e+00	0	57	0	53477376	48	4149
2026-01-04 00:56:23.28	335.07	27.46	-37.8	-39.4	16.5	0.00e+00	0	57	0	56623104	47	4287
2026-01-04 00:56:24.29	334.80	27.56	-37.4	-39.0	16.9	0.00e+00	0	57	0	59768832	46	4319
2026-01-04 00:56:25.30	334.53	27.65	-37.1	-38.6	17.3	0.00e+00	0	57	0	62914560	46	4128
2026-01-04 00:56:26.31	334.25	27.74	-36.9	-38.4	17.5	0.00e+00	0	57	0	66060288	45	4265
2026-01-04 00:56:27.32	333.98	27.84	-37.0	-38.4	17.4	0.00e+00	0	57	0	69206016	45	4285
2026-01-04 00:56:28.34	333.70	27.93	-37.0	-38.5	17.4	0.00e+00	0	57	0	72351744	45	4331
2026-01-04 00:56:29.34	333.43	28.02	-37.1	-38.6	17.3	0.00e+00	0	57	0	75497472	45	4364
2026-01-04 00:56:30.36	333.14	28.12	-37.2	-38.7	17.3	0.00e+00	0	57	0	78643200	45	4414
2026-01-04 00:56:31.37	332.86	28.21	-37.3	-38.8	17.1	0.00e+00	0	57	0	81788928	45	4493
2026-01-04 00:56:32.38	332.58	28.30	-37.4	-39.0	17.0	0.00e+00	0	57	0	84934656	45	4567
2026-01-04 00:56:33.39	332.30	28.39	-37.4	-39.0	17.0	0.00e+00	0	57	0	88080384	45	4549
2026-01-04 00:56:34.40	332.01	28.48	-37.4	-38.9	17.1	0.00e+00	0	57	0	91226112	45	4520
2026-01-04 00:56:35.41	331.72	28.57	-37.4	-38.9	17.1	0.00e+00	0	57	0	94371840	45	4521
2026-01-04 00:56:36.42	331.44	28.66	-37.4	-39.0	17.0	0.00e+00	0	57	0	97517568	45	4564
2026-01-04 00:56:37.43	331.15	28.75	-37.3	-38.8	17.1	0.00e+00	0	57	0	100663296	45	4491
2026-01-04 00:56:38.44	330.85	28.83	-37.3	-38.9	17.1	0.00e+00	0	57	0	103809024	45	4516
2026-01-04 00:56:39.45	330.56	28.92	-37.2	-38.7	17.3	0.00e+00	0	57	0	106954752	45	4397
2026-01-04 00:56:40.46	330.26	29.01	-37.1	-38.6	17.3	0.00e+00	0	57	0	110100480	45	4382
2026-01-04 00:56:41.47	329.97	29.09	-37.2	-38.7	17.3	0.00e+00	0	57	0	113246208	45	4411
2026-01-04 00:56:42.48	329.67	29.18	-37.3	-38.8	17.2	0.00e+00	0	57	0	116391936	45	4464
2026-01-04 00:56:43.49	329.37	29.26	-37.4	-39.0	17.0	0.00e+00	0	57	0	119537664	45	4554
2026-01-04 00:56:44.50	329.07	29.35	-37.3	-38.9	17.1	0.00e+00	0	57	0	122683392	45	4499
2026-01-04 00:56:45.51	328.76	29.43	-37.1	-38.6	17.4	0.00e+00	0	57	0	125829120	45	4342
2026-01-04 00:56:46.52	328.46	29.51	-37.2	-38.7	17.3	0.00e+00	0	57	0	128974848	45	4406
2026-01-04 00:56:47.53	328.15	29.60	-37.2	-38.7	17.2	0.00e+00	0	57	0	132120576	45	4433
2026-01-04 00:56:48.53	327.85	29.68	-37.1	-38.6	17.4	0.00e+00	0	57	0	135266304	45	4383
2026-01-04 00:56:49.54	327.54	29.76	-37.1	-38.6	17.4	0.00e+00	0	57	0	138412032	45	4375
2026-01-04 00:56:50.55	327.22	29.84	-37.1	-38.6	17.4	0.00e+00	0	57	0	141557760	45	4366
2026-01-04 00:56:51.56	326.91	29.92	-37.2	-38.7	17.3	0.00e+00	0	57	0	144703488	45	4409
2026-01-04 00:56:52.57	326.60	30.00	-37.3	-38.8	17.2	0.00e+00	0	57	0	147849216	45	4474
2026-01-04 00:56:53.58	326.28	30.08	-37.5	-39.0	17.0	0.00e+00	0	57	0	150994944	45	4575
2026-01-04 00:56:54.59	325.96	30.15	-37.5	-39.1	16.9	0.00e+00	0	57	0	154140672	45	4627
2026-01-04 00:56:55.60	325.65	30.23	-37.6	-39.1	16.9	0.00e+00	0	57	0	157286400	45	4646
2026-01-04 00:56:56.61	325.32	30.30	-37.5	-39.1	17.0	0.00e+00	0	57	0	160432128	45	4608
2026-01-04 00:56:57.62	325.00	30.38	-37.4	-38.9	17.1	0.00e+00	0	57	0	163577856	45	4536
2026-01-04 00:56:58.64	324.68	30.45	-37.6	-39.1	16.9	0.00e+00	0	57	0	166723584	45	4646
2026-01-04 00:56:59.65	324.35	30.53	-37.6	-39.2	16.8	0.00e+00	0	57	0	169869312	45	4680
2026-01-04 00:57:00.66	324.02	30.60	-37.8	-39.4	16.6	0.00e+00	0	57	0	173015040	46	4543
2026-01-04 00:57:01.67	323.70	30.67	-37.7	-39.3	16.7	0.00e+00	0	57	0	176160768	46	4483
2026-01-04 00:57:02.68	323.37	30.74	-37.6	-39.2	16.8	0.00e+00	0	57	0	179306496	46	4401
2026-01-04 00:57:03.69	323.04	30.81	-37.5	-39.1	17.0	0.00e+00	0	57	0	182452224	46	4355
2026-01-04 00:57:04.70	322.70	30.88	-37.4	-39.0	17.1	0.00e+00	0	57	0	185597952	46	4296
2026-01-04 00:57:05.71	322.37	30.95	-37.5	-39.1	17.0	0.00e+00	0	57	0	188743680	46	4351
2026-01-04 00:57:06.72	322.03	31.01	-37.7	-39.3	16.8	0.00e+00	0	57	0	191889408	46	4449
2026-01-04 00:57:07.73	321.70	31.08	-37.8	-39.4	16.6	0.00e+00	0	57	0	195035136	46	4532
2026-01-04 00:57:08.74	321.36	31.15	-37.9	-39.6	16.5	0.00e+00	0	57	0	198180864	46	4611
2026-01-04 00:57:09.75	321.02	31.21	-37.9	-39.5	16.5	0.00e+00	0	57	0	201326592	46	4591
2026-01-04 00:57:10.76	320.68	31.27	-37.9	-39.5	16.6	0.00e+00	0	57	0	204472320	46	4583
2026-01-04 00:57:11.77	320.34	31.33	-37.9	-39.6	16.5	0.00e+00	0	57	0	207618048	46	4621
2026-01-04 00:57:12.78	319.99	31.40	-37.9	-39.6	16.5	0.00e+00	0	57	0	210763776	46	4615
2026-01-04 00:57:13.79	319.65	31.46	-38.1	-39.7	16.3	0.00e+00	0	57	0	213909504	46	4704
2026-01-04 00:57:14.80	319.30	31.51	-38.2	-39.9	16.2	0.00e+00	0	57	0	217055232	46	4779
2026-01-04 00:57:15.81	318.96	31.57	-38.3	-40.1	16.0	0.00e+00	0	57	0	220200960	47	4620
2026-01-04 00:57:16.82	318.61	31.63	-38.4	-40.1	15.9	0.00e+00	0	57	0	223346688	47	4642
2026-01-04 00:57:17.83	318.26	31.68	-38.3	-40.1	16.0	0.00e+00	0	57	0	226492416	47	4616
2026-01-04 00:57:18.84	317.91	31.74	-38.3	-40.0	16.0	0.00e+00	0	57	0	229638144	47	4595
2026-01-04 00:57:19.85	317.56	31.79	-38.4	-40.1	15.9	0.00e+00	0	57	0	232783872	47	4651
2026-01-04 00:57:20.86	317.20	31.84	-38.4	-40.2	15.9	0.00e+00	0	57	0	235929600	47	4657
2026-01-04 00:57:21.87	316.85	31.89	-38.5	-40.4	15.7	0.00e+00	0	57	0	239075328	47	4768
2026-01-04 00:57:22.88	316.49	31.94	-38.6	-40.4	15.7	0.00e+00	0	57	0	242221056	47	4806
2026-01-04 00:57:23.89	316.14	31.99	-38.7	-40.5	15.6	0.00e+00	0	57	0	246415360	47	4862
2026-01-04 00:57:24.90	315.78	32.04	-38.7	-40.5	15.7	0.00e+00	0	57	0	249561088	48	4553
2026-01-04 00:57:25.91	315.42	32.09	-38.5	-40.3	15.9	0.00e+00	0	57	0	252706816	48	4456
2026-01-04 00:57:26.92	315.06	32.13	-38.4	-40.1	16.0	0.00e+00	0	57	0	254803968	48	4382
2026-01-04 00:57:27.93	314.70	32.18	-38.4	-40.1	16.1	0.00e+00	0	57	0	257949696	48	4381
2026-01-04 00:57:28.94	314.34	32.22	-38.4	-40.1	16.0	0.00e+00	0	57	0	262144000	48	4387
2026-01-04 00:57:29.95	313.97	32.26	-38.6	-40.4	15.8	0.00e+00	0	57	0	265289728	48	4498
2026-01-04 00:57:30.96	313.61	32.30	-38.6	-40.4	15.8	0.00e+00	0	57	0	268435456	48	4506
2026-01-04 00:57:31.97	313.25	32.34	-38.7	-40.6	15.6	0.00e+00	0	57	0	271581184	48	4609
2026-01-04 00:57:32.98	312.88	32.38	-38.8	-40.7	15.6	0.00e+00	0	57	0	274726912	48	4654
2026-01-04 00:57:33.99	312.51	32.41	-38.6	-40.4	15.8	0.00e+00	0	57	0	277872640	48	4513
2026-01-04 00:57:35.00	312.15	32.45	-38.4	-40.1	16.1	0.00e+00	0	57	0	281018368	48	4377
2026-01-04 00:57:36.01	311.78	32.48	-38.4	-40.1	16.1	0.00e+00	0	57	0	284164096	48	4352
2026-01-04 00:57:37.02	311.41	32.52	-38.1	-39.8	16.4	0.00e+00	0	57	0	287309824	48	4200
2026-01-04 00:57:38.03	311.04	32.55	-38.0	-39.7	16.5	0.00e+00	0	57	0	290455552	48	4164
2026-01-04 00:57:39.04	310.67	32.58	-38.0	-39.6	16.5	0.00e+00	0	57	0	293601280	47	4376
2026-01-04 00:57:40.05	310.30	32.61	-37.9	-39.6	16.5	0.00e+00	0	57	0	296747008	47	4362
2026-01-04 00:57:41.06	309.93	32.63	-38.1	-39.7	16.3	0.00e+00	0	57	0	299892736	47	4437
2026-01-04 00:57:42.07	309.56	32.66	-38.0	-39.7	16.4	0.00e+00	0	57	0	303038464	47	4413
2026-01-04 00:57:43.08	309.19	32.68	-37.8	-39.4	16.6	0.00e+00	0	57	0	306184192	47	4277
2026-01-04 00:57:44.09	308.81	32.71	-37.9	-39.5	16.5	0.00e+00	0	57	0	309329920	47	4333
2026-01-04 00:57:45.10	308.44	32.73	-38.0	-39.7	16.4	0.00e+00	0	57	0	312475648	47	4414
2026-01-04 00:57:46.11	308.06	32.75	-38.1	-39.8	16.3	0.00e+00	0	57	0	315621376	47	4443
2026-01-04 00:57:47.12	307.69	32.77	-38.1	-39.8	16.2	0.00e+00	0	57	0	318767104	47	4492
2026-01-04 00:57:48.13	307.31	32.79	-38.3	-40.0	16.1	0.00e+00	0	57	0	321912832	47	4564
2026-01-04 00:57:49.14	306.94	32.80	-38.2	-40.0	16.1	0.00e+00	0	57	0	325058560	47	4559
2026-01-04 00:57:50.15	306.56	32.82	-38.2	-39.9	16.2	0.00e+00	0	57	0	328204288	47	4529
2026-01-04 00:57:51.16	306.19	32.83	-38.4	-40.1	16.0	0.00e+00	0	57	0	331350016	47	4631
2026-01-04 00:57:52.17	305.81	32.84	-38.6	-40.4	15.7	0.00e+00	0	57	0	334495744	47	4793
2026-01-04 00:57:53.18	305.43	32.85	-38.6	-40.4	15.7	0.00e+00	0	57	0	337641472	47	4793
2026-01-04 00:57:54.19	305.06	32.86	-38.4	-40.2	15.8	0.00e+00	0	57	0	340787200	47	4695
2026-01-04 00:57:55.20	304.68	32.87	-38.3	-40.1	15.9	0.00e+00	0	57	0	343932928	47	4626
2026-01-04 00:57:56.21	304.30	32.88	-38.3	-40.1	16.0	0.00e+00	0	57	0	347078656	47	4629
2026-01-04 00:57:57.22	303.92	32.88	-38.2	-39.9	16.1	0.00e+00	0	57	0	350224384	47	4538
2026-01-04 00:57:58.23	303.55	32.89	-38.1	-39.8	16.3	0.00e+00	0	57	0	353370112	47	4467
2026-01-04 00:57:59.24	303.17	32.89	-38.1	-39.7	16.3	0.00e+00	0	57	0	356515840	47	4433
2026-01-04 00:58:00.25	302.79	32.89	-38.1	-39.8	16.3	0.00e+00	0	57	0	359661568	47	4455
2026-01-04 00:58:01.26	302.41	32.89	-38.3	-40.0	16.0	0.00e+00	0	57	0	362807296	47	4590
2026-01-04 00:58:02.27	302.04	32.89	-38.3	-40.1	16.0	0.00e+00	0	57	0	365953024	47	4616
2026-01-04 00:58:03.28	301.66	32.88	-38.5	-40.3	15.8	0.00e+00	0	57	0	369098752	47	4717
2026-01-04 00:58:04.29	301.28	32.88	-38.5	-40.4	15.7	0.00e+00	0	57	0	372244480	47	4769
2026-01-04 00:58:05.30	300.90	32.87	-38.6	-40.4	15.7	0.00e+00	0	57	0	375390208	47	4784
2026-01-04 00:58:06.31	300.53	32.87	-38.5	-40.4	15.7	0.00e+00	0	57	0	378535936	47	4765
2026-01-04 00:58:07.32	300.15	32.86	-38.5	-40.4	15.7	0.00e+00	0	57	0	381681664	47	4768
2026-01-04 00:58:08.33	299.77	32.85	-38.5	-40.3	15.8	0.00e+00	0	57	0	384827392	47	4744
2026-01-04 00:58:09.34	299.39	32.83	-38.3	-40.1	16.0	0.00e+00	0	57	0	387973120	47	4611
2026-01-04 00:58:10.35	299.02	32.82	-38.3	-40.1	16.1	0.00e+00	0	57	0	391118848	47	4599
2026-01-04 00:58:11.36	298.64	32.81	-38.1	-39.7	16.3	0.00e+00	0	57	0	394264576	47	4441
2026-01-04 00:58:12.37	298.27	32.79	-37.9	-39.6	16.5	0.00e+00	0	57	0	397410304	47	4362
2026-01-04 00:58:13.38	297.89	32.77	-37.9	-39.6	16.5	0.00e+00	0	57	0	400556032	47	4354
2026-01-04 00:58:14.39	297.52	32.76	-38.0	-39.7	16.3	0.00e+00	0	57	0	403701760	47	4422
2026-01-04 00:58:15.40	297.14	32.74	-38.0	-39.7	16.4	0.00e+00	0	57	0	406847488	47	4394
2026-01-04 00:58:16.41	296.77	32.71	-38.0	-39.6	16.4	0.00e+00	0	57	0	409993216	47	4382
2026-01-04 00:58:17.42	296.39	32.69	-38.1	-39.8	16.3	0.00e+00	0	57	0	413138944	47	4478
2026-01-04 00:58:18.43	296.02	32.67	-38.3	-40.1	16.0	0.00e+00	0	57	0	416284672	47	4617
2026-01-04 00:58:19.43	295.65	32.64	-38.5	-40.3	15.8	0.00e+00	0	57	0	419430400	47	4721
2026-01-04 00:58:20.44	295.28	32.61	-38.4	-40.2	15.9	0.00e+00	0	57	0	422576128	47	4669
2026-01-04 00:58:21.45	294.91	32.59	-38.5	-40.3	15.8	0.00e+00	0	57	0	425721856	47	4717
2026-01-04 00:58:22.46	294.54	32.56	-38.5	-40.3	15.8	0.00e+00	0	57	0	428867584	47	4749
2026-01-04 00:58:23.47	294.17	32.53	-38.4	-40.2	15.9	0.00e+00	0	57	0	432013312	47	4676
2026-01-04 00:58:24.48	293.80	32.49	-38.4	-40.2	15.8	0.00e+00	0	57	0	435159040	47	4687
2026-01-04 00:58:25.49	293.43	32.46	-38.3	-40.0	16.0	0.00e+00	0	57	0	438304768	47	4583
2026-01-04 00:58:26.50	293.06	32.43	-38.1	-39.8	16.3	0.00e+00	0	57	0	441450496	47	4443
2026-01-04 00:58:27.51	292.69	32.39	-38.0	-39.7	16.3	0.00e+00	0	57	0	444596224	47	4421
2026-01-04 00:58:28.52	292.33	32.35	-38.0	-39.6	16.4	0.00e+00	0	57	0	447741952	47	4377
2026-01-04 00:58:29.53	291.96	32.31	-37.8	-39.5	16.6	0.00e+00	0	57	0	450887680	47	4302
2026-01-04 00:58:30.54	291.60	32.27	-37.8	-39.4	16.6	0.00e+00	0	57	0	454033408	47	4270
2026-01-04 00:58:31.55	291.24	32.23	-37.9	-39.5	16.5	0.00e+00	0	57	0	457179136	47	4327
2026-01-04 00:58:32.56	290.87	32.19	-38.1	-39.8	16.3	0.00e+00	0	57	0	460324864	47	4470
2026-01-04 00:58:33.57	290.51	32.15	-38.2	-39.9	16.1	0.00e+00	0	57	0	463470592	47	4528
2026-01-04 00:58:34.58	290.15	32.10	-38.0	-39.7	16.3	0.00e+00	0	57	0	466616320	47	4417
2026-01-04 00:58:35.59	289.79	32.06	-37.9	-39.6	16.5	0.00e+00	0	57	0	469762048	47	4352
2026-01-04 00:58:36.60	289.43	32.01	-38.0	-39.7	16.4	0.00e+00	0	57	0	472907776	47	4414
2026-01-04 00:58:37.61	289.07	31.96	-38.1	-39.8	16.3	0.00e+00	0	57	0	476053504	47	4469
2026-01-04 00:58:38.62	288.72	31.91	-38.0	-39.7	16.4	0.00e+00	0	57	0	479199232	47	4414
2026-01-04 00:58:39.63	288.36	31.86	-37.9	-39.6	16.5	0.00e+00	0	57	0	482344960	47	4344
2026-01-04 00:58:40.64	288.01	31.81	-37.9	-39.5	16.5	0.00e+00	0	57	0	485490688	47	4327
2026-01-04 00:58:41.65	287.66	31.76	-37.9	-39.5	16.5	0.00e+00	0	57	0	488636416	47	4305
2026-01-04 00:58:42.66	287.30	31.70	-38.0	-39.7	16.3	0.00e+00	0	57	0	491782144	47	4424
2026-01-04 00:58:43.68	286.95	31.65	-38.2	-40.0	16.0	0.00e+00	0	57	0	494927872	47	4556
2026-01-04 00:58:44.69	286.60	31.59	-38.3	-40.1	15.9	0.00e+00	0	57	0	498073600	47	4627
2026-01-04 00:58:45.70	286.25	31.53	-38.3	-40.0	16.0	0.00e+00	0	57	0	501219328	47	4574
2026-01-04 00:58:46.71	285.90	31.47	-38.1	-39.8	16.2	0.00e+00	0	57	0	504365056	47	4483
2026-01-04 00:58:47.72	285.56	31.41	-38.1	-39.8	16.2	0.00e+00	0	57	0	507510784	47	4481
2026-01-04 00:58:48.73	285.21	31.35	-38.0	-39.7	16.4	0.00e+00	0	57	0	510656512	47	4408
2026-01-04 00:58:49.73	284.87	31.29	-37.9	-39.6	16.4	0.00e+00	0	57	0	513802240	47	4347
2026-01-04 00:58:50.74	284.53	31.23	-37.9	-39.5	16.5	0.00e+00	0	57	0	516947968	47	4333
2026-01-04 00:58:51.75	284.19	31.17	-38.0	-39.6	16.4	0.00e+00	0	57	0	520093696	47	4391
2026-01-04 00:58:52.77	283.85	31.10	-38.2	-40.0	16.0	0.00e+00	0	57	0	523239424	47	4574
2026-01-04 00:58:53.77	283.51	31.03	-38.5	-40.3	15.7	0.00e+00	0	57	0	526385152	47	4750
2026-01-04 00:58:54.78	283.18	30.97	-38.4	-40.3	15.8	0.00e+00	0	57	0	529530880	47	4710
2026-01-04 00:58:55.79	282.84	30.90	-38.4	-40.2	15.9	0.00e+00	0	57	0	532676608	47	4660
2026-01-04 00:58:56.81	282.51	30.83	-38.4	-40.2	15.9	0.00e+00	0	57	0	535822336	47	4657
2026-01-04 00:58:57.82	282.17	30.76	-38.1	-39.8	16.2	0.00e+00	0	57	0	538968064	47	4459
2026-01-04 00:58:58.82	281.85	30.69	-37.6	-39.2	16.8	0.00e+00	0	57	0	542113792	47	4165
2026-01-04 00:58:59.83	281.52	30.62	-37.4	-39.0	17.0	0.00e+00	0	57	0	545259520	46	4308
2026-01-04 00:59:00.84	281.19	30.55	-37.7	-39.3	16.7	0.00e+00	0	57	0	548405248	46	4492
2026-01-04 00:59:01.85	280.86	30.48	-38.0	-39.7	16.3	0.00e+00	0	57	0	551550976	46	4680
2026-01-04 00:59:02.86	280.54	30.40	-38.4	-40.2	15.9	0.00e+00	0	57	0	554696704	47	4658
2026-01-04 00:59:03.87	280.21	30.33	-38.5	-40.3	15.7	0.00e+00	0	57	0	557842432	47	4758
2026-01-04 00:59:04.88	279.89	30.25	-38.4	-40.3	15.7	0.00e+00	0	56	0	562036736	47	4721
2026-01-04 00:59:05.89	279.57	30.17	-38.2	-39.9	16.1	0.00e+00	0	57	0	565182464	47	4535
2026-01-04 00:59:06.90	279.25	30.10	-38.1	-39.9	16.1	0.00e+00	0	57	0	568328192	47	4511
2026-01-04 00:59:07.91	278.93	30.02	-37.8	-39.5	16.5	0.00e+00	0	57	0	570425344	47	4303
2026-01-04 00:59:08.92	278.62	29.94	-37.5	-39.0	16.9	0.00e+00	0	57	0	573571072	47	4098
2026-01-04 00:59:09.93	278.30	29.86	-37.5	-39.1	16.9	0.00e+00	0	57	0	577765376	46	4348
2026-01-04 00:59:10.94	277.99	29.78	-37.7	-39.3	16.7	0.00e+00	0	57	0	580911104	46	4485
2026-01-04 00:59:11.96	277.68	29.70	-37.9	-39.6	16.4	0.00e+00	0	57	0	584056832	46	4619
2026-01-04 00:59:12.97	277.37	29.62	-38.0	-39.7	16.4	0.00e+00	0	57	0	587202560	46	4659
2026-01-04 00:59:13.98	277.06	29.53	-37.8	-39.5	16.5	0.00e+00	0	57	0	590348288	46	4573
2026-01-04 00:59:14.99	276.75	29.45	-37.6	-39.2	16.8	0.00e+00	0	57	0	593494016	46	4408
2026-01-04 00:59:16.00	276.45	29.37	-37.5	-39.0	16.9	0.00e+00	0	57	0	596639744	46	4340
2026-01-04 00:59:17.01	276.15	29.28	-37.3	-38.8	17.1	0.00e+00	0	57	0	599785472	46	4231
2026-01-04 00:59:18.02	275.84	29.20	-37.2	-38.7	17.3	0.00e+00	0	57	0	602931200	46	4168
2026-01-04 00:59:19.03	275.54	29.11	-37.3	-38.8	17.1	0.00e+00	0	57	0	606076928	46	4242
2026-01-04 00:59:20.04	275.24	29.03	-37.5	-39.0	16.9	0.00e+00	0	57	0	609222656	46	4338
2026-01-04 00:59:21.04	274.95	28.94	-37.6	-39.2	16.8	0.00e+00	0	57	0	612368384	46	4425
2026-01-04 00:59:22.05	274.66	28.85	-37.7	-39.3	16.7	0.00e+00	0	57	0	615514112	46	4491
2026-01-04 00:59:23.06	274.36	28.77	-37.5	-39.1	16.8	0.00e+00	0	57	0	618659840	46	4346
2026-01-04 00:59:24.07	274.07	28.68	-37.3	-38.9	16.9	0.00e+00	0	57	0	621805568	46	4244
2026-01-04 00:59:25.08	273.78	28.59	-37.1	-38.7	17.1	0.00e+00	0	57	0	624951296	46	4148
2026-01-04 00:59:26.09	273.49	28.50	-37.0	-38.4	17.3	0.00e+00	0	57	0	628097024	46	4049
2026-01-04 00:59:27.10	273.20	28.41	-37.1	-38.6	17.2	0.00e+00	0	57	0	631242752	46	4108
2026-01-04 00:59:28.12	272.91	28.32	-37.4	-38.9	17.0	0.00e+00	0	57	0	634388480	46	4267
2026-01-04 00:59:29.12	272.63	28.23	-37.9	-39.5	16.5	0.00e+00	0	57	0	637534208	46	4581
2026-01-04 00:59:30.14	272.35	28.13	-38.3	-40.0	15.9	0.00e+00	0	57	0	640679936	47	4597
2026-01-04 00:59:31.15	272.07	28.04	-38.6	-40.4	15.5	0.00e+00	0	57	0	643825664	47	4813
2026-01-04 00:59:32.16	271.79	27.95	-38.6	-40.6	15.4	0.00e+00	0	57	0	646971392	47	4871
2026-01-04 00:59:33.17	271.51	27.86	-38.6	-40.4	15.6	0.00e+00	0	57	0	650117120	47	4805
2026-01-04 00:59:34.18	271.24	27.76	-38.4	-40.3	15.7	0.00e+00	0	57	0	653262848	47	4721
2026-01-04 00:59:35.19	270.96	27.67	-38.3	-40.1	15.8	0.00e+00	0	57	0	656408576	47	4643
2026-01-04 00:59:36.20	270.69	27.57	-38.3	-40.0	15.9	0.00e+00	0	57	0	659554304	47	4580
2026-01-04 00:59:37.20	270.42	27.48	-38.1	-39.8	16.2	0.00e+00	0	56	0	662700032	47	4461
2026-01-04 00:59:38.21	270.15	27.39	-38.0	-39.7	16.3	0.00e+00	0	57	0	665845760	47	4420
2026-01-04 00:59:39.22	269.88	27.29	-37.9	-39.6	16.4	0.00e+00	0	57	0	668991488	47	4358
2026-01-04 00:59:40.23	269.62	27.19	-37.7	-39.3	16.7	0.00e+00	0	57	0	672137216	47	4212
2026-01-04 00:59:41.24	269.35	27.10	-37.5	-39.1	16.8	0.00e+00	0	57	0	675282944	47	4121
2026-01-04 00:59:42.25	269.09	27.00	-37.4	-38.9	17.0	0.00e+00	0	57	0	678428672	46	4284
2026-01-04 00:59:43.26	268.83	26.90	-37.3	-38.8	17.1	0.00e+00	0	57	0	681574400	46	4238
2026-01-04 00:59:44.27	268.57	26.81	-37.1	-38.6	17.4	0.00e+00	0	56	0	684720128	46	4109
2026-01-04 00:59:45.28	268.31	26.71	-36.9	-38.3	17.6	0.00e+00	0	57	0	687865856	45	4231
2026-01-04 00:59:46.29	268.05	26.61	-36.8	-38.2	17.7	0.00e+00	0	57	0	691011584	45	4170
2026-01-04 00:59:47.30	267.80	26.51	-36.8	-38.2	17.7	0.00e+00	0	57	0	694157312	45	4163
2026-01-04 00:59:48.31	267.54	26.42	-36.9	-38.4	17.5	0.00e+00	0	57	0	697303040	45	4266
2026-01-04 00:59:49.32	267.29	26.32	-37.1	-38.7	17.3	0.00e+00	0	57	0	700448768	45	4392
2026-01-04 00:59:50.33	267.04	26.22	-37.3	-38.9	17.0	0.00e+00	0	57	0	703594496	45	4508
2026-01-04 00:59:51.34	266.79	26.12	-37.5	-39.0	16.9	0.00e+00	0	57	0	706740224	45	4596
2026-01-04 00:59:52.36	266.54	26.02	-37.6	-39.2	16.7	0.00e+00	0	57	0	709885952	45	4659
2026-01-04 00:59:53.36	266.30	25.92	-37.5	-39.0	16.8	0.00e+00	0	57	0	713031680	45	4594
2026-01-04 00:59:54.38	266.05	25.82	-37.3	-38.8	17.1	0.00e+00	0	57	0	716177408	45	4471
2026-01-04 00:59:55.39	265.81	25.72	-37.2	-38.7	17.2	0.00e+00	0	57	0	719323136	45	4421
2026-01-04 00:59:56.40	265.57	25.62	-37.2	-38.7	17.3	0.00e+00	0	57	0	722468864	45	4400
2026-01-04 00:59:57.41	265.33	25.52	-36.8	-38.2	17.7	0.00e+00	0	57	0	725614592	45	4178
2026-01-04 00:59:58.42	265.09	25.42	-36.7	-38.1	17.8	0.00e+00	0	57	0	728760320	45	4112
2026-01-04 00:59:59.43	264.86	25.32	-36.7	-38.1	17.7	0.00e+00	0	57	0	731906048	45	4121
2026-01-04 01:00:00.44	264.62	25.22	-36.8	-38.3	17.5	0.00e+00	0	57	0	735051776	45	4214
2026-01-04 01:00:01.45	264.39	25.12	-37.1	-38.6	17.2	0.00e+00	0	57	0	738197504	45	4358
2026-01-04 01:00:02.46	264.15	25.02	-37.4	-38.9	16.9	0.00e+00	0	57	0	741343232	45	4545
2026-01-04 01:00:03.47	263.92	24.92	-37.5	-39.1	16.7	0.00e+00	0	57	0	744488960	45	4650
2026-01-04 01:00:04.48	263.70	24.82	-37.5	-39.0	16.8	0.00e+00	0	57	0	747634688	45	4595
2026-01-04 01:00:05.49	263.47	24.71	-37.4	-39.0	16.9	0.00e+00	0	57	0	750780416	45	4563
2026-01-04 01:00:06.50	263.24	24.61	-37.4	-39.0	16.9	0.00e+00	0	57	0	753926144	45	4560
2026-01-04 01:00:07.51	263.02	24.51	-37.4	-39.0	16.9	0.00e+00	0	57	0	757071872	45	4579
2026-01-04 01:00:08.52	262.79	24.41	-37.4	-38.9	17.0	0.00e+00	0	57	0	760217600	45	4523
2026-01-04 01:00:09.53	262.57	24.31	-37.0	-38.5	17.4	0.00e+00	0	57	0	763363328	45	4316
2026-01-04 01:00:10.54	262.35	24.21	-37.0	-38.5	17.4	0.00e+00	0	57	0	766509056	45	4300
2026-01-04 01:00:11.55	262.13	24.11	-37.1	-38.6	17.2	0.00e+00	0	57	0	769654784	45	4362
2026-01-04 01:00:12.56	261.92	24.00	-37.4	-38.9	16.9	0.00e+00	0	57	0	772800512	45	4545
2026-01-04 01:00:13.57	261.70	23.90	-37.6	-39.3	16.6	0.00e+00	0	57	0	775946240	45	4711
2026-01-04 01:00:14.59	261.48	23.80	-37.8	-39.5	16.4	0.00e+00	0	57	0	779091968	46	4555
2026-01-04 01:00:15.60	261.27	23.70	-37.7	-39.3	16.5	0.00e+00	0	57	0	782237696	46	4484
2026-01-04 01:00:16.61	261.06	23.59	-37.6	-39.2	16.6	0.00e+00	0	57	0	785383424	46	4413
2026-01-04 01:00:17.62	260.85	23.49	-37.4	-39.0	16.8	0.00e+00	0	57	0	788529152	46	4301
2026-01-04 01:00:18.63	260.64	23.39	-37.2	-38.8	17.1	0.00e+00	0	57	0	791674880	46	4213
2026-01-04 01:00:19.64	260.43	23.29	-37.2	-38.7	17.2	0.00e+00	0	57	0	794820608	46	4163
2026-01-04 01:00:20.65	260.22	23.19	-37.3	-38.9	17.0	0.00e+00	0	57	0	797966336	46	4266
2026-01-04 01:00:21.65	260.02	23.09	-37.5	-39.1	16.8	0.00e+00	0	57	0	801112064	46	4355
2026-01-04 01:00:22.66	259.82	22.98	-37.8	-39.4	16.4	0.00e+00	0	56	0	804257792	46	4531
2026-01-04 01:00:23.68	259.61	22.88	-38.1	-39.9	16.1	0.00e+00	0	56	0	807403520	46	4766
2026-01-04 01:00:24.69	259.41	22.78	-38.0	-39.7	16.2	0.00e+00	0	57	0	810549248	46	4689
2026-01-04 01:00:25.69	259.21	22.68	-38.0	-39.7	16.2	0.00e+00	0	57	0	813694976	46	4665
2026-01-04 01:00:26.70	259.02	22.58	-37.4	-39.0	16.8	0.00e+00	0	57	0	816840704	46	4322
2026-01-04 01:00:27.71	258.82	22.47	-37.0	-38.5	17.3	0.00e+00	0	57	0	819986432	46	4073
2026-01-04 01:00:28.72	258.62	22.37	-36.7	-38.2	17.6	0.00e+00	0	57	0	823132160	45	4162
2026-01-04 01:00:29.73	258.43	22.27	-36.7	-38.1	17.7	0.00e+00	0	57	0	826277888	45	4135
2026-01-04 01:00:30.74	258.24	22.17	-36.9	-38.4	17.4	0.00e+00	0	57	0	829423616	45	4268
2026-01-04 01:00:31.75	258.04	22.07	-37.2	-38.8	17.0	0.00e+00	0	57	0	832569344	45	4469
2026-01-04 01:00:32.77	257.85	21.96	-37.5	-39.1	16.7	0.00e+00	0	57	0	835715072	45	4644
2026-01-04 01:00:33.77	257.66	21.86	-37.4	-39.0	16.8	0.00e+00	0	57	0	838860800	45	4590
2026-01-04 01:00:34.78	257.48	21.76	-37.2	-38.8	17.0	0.00e+00	0	57	0	842006528	45	4457
2026-01-04 01:00:35.79	257.29	21.66	-37.0	-38.5	17.2	0.00e+00	0	57	0	845152256	45	4335
2026-01-04 01:00:36.80	257.10	21.56	-36.9	-38.3	17.4	0.00e+00	0	57	0	848297984	45	4238
2026-01-04 01:00:37.81	256.92	21.46	-36.7	-38.1	17.6	0.00e+00	0	57	0	851443712	45	4140
2026-01-04 01:00:38.82	256.74	21.36	-36.7	-38.2	17.6	0.00e+00	0	57	0	854589440	45	4171
2026-01-04 01:00:39.83	256.55	21.26	-36.9	-38.4	17.4	0.00e+00	0	57	0	858783744	45	4253
2026-01-04 01:00:40.84	256.37	21.16	-37.1	-38.6	17.1	0.00e+00	0	57	0	860880896	45	4385
2026-01-04 01:00:41.85	256.19	21.05	-37.2	-38.8	17.0	0.00e+00	0	57	0	864026624	45	4457
2026-01-04 01:00:42.86	256.01	20.95	-37.4	-38.9	16.8	0.00e+00	0	57	0	867172352	45	4536
2026-01-04 01:00:43.87	255.84	20.85	-37.1	-38.7	17.1	0.00e+00	0	57	0	870318080	45	4394
2026-01-04 01:00:44.88	255.66	20.75	-37.0	-38.5	17.2	0.00e+00	0	57	0	874512384	45	4317
2026-01-04 01:00:45.89	255.49	20.65	-36.8	-38.3	17.5	0.00e+00	0	57	0	877658112	45	4211
2026-01-04 01:00:46.90	255.31	20.55	-36.6	-38.0	17.7	0.00e+00	0	57	0	880803840	45	4088
2026-01-04 01:00:47.91	255.14	20.45	-36.4	-37.8	17.9	0.00e+00	0	57	0	883949568	44	4234
2026-01-04 01:00:48.92	254.97	20.35	-36.4	-37.8	17.9	0.00e+00	0	57	0	886046720	44	4238
2026-01-04 01:00:49.93	254.80	20.25	-36.6	-38.0	17.8	0.00e+00	0	57	0	890241024	44	4307
2026-01-04 01:00:50.94	254.63	20.15	-36.7	-38.2	17.6	0.00e+00	0	57	0	893386752	44	4397
2026-01-04 01:00:51.95	254.46	20.05	-36.9	-38.4	17.4	0.00e+00	0	57	0	896532480	44	4527
2026-01-04 01:00:52.97	254.29	19.95	-37.1	-38.7	17.1	0.00e+00	0	57	0	899678208	44	4663
2026-01-04 01:00:53.97	254.13	19.85	-37.3	-38.8	16.9	0.00e+00	0	57	0	902823936	45	4486
2026-01-04 01:00:54.99	253.96	19.75	-37.4	-39.0	16.8	0.00e+00	0	57	0	905969664	45	4565
2026-01-04 01:00:55.99	253.80	19.66	-37.4	-39.0	16.8	0.00e+00	0	57	0	909115392	45	4587
2026-01-04 01:00:57.00	253.63	19.56	-37.4	-39.1	16.7	0.00e+00	0	57	0	912261120	45	4603
2026-01-04 01:00:58.01	253.47	19.46	-37.2	-38.8	17.0	0.00e+00	0	57	0	915406848	45	4466
2026-01-04 01:00:59.03	253.31	19.36	-37.1	-38.6	17.1	0.00e+00	0	57	0	918552576	45	4364
2026-01-04 01:01:00.04	253.15	19.26	-37.1	-38.6	17.1	0.00e+00	0	57	0	921698304	45	4380
2026-01-04 01:01:01.04	252.99	19.16	-37.0	-38.5	17.2	0.00e+00	0	57	0	924844032	45	4326
2026-01-04 01:01:02.05	252.84	19.06	-37.1	-38.6	17.1	0.00e+00	0	57	0	927989760	45	4359
2026-01-04 01:01:03.06	252.68	18.97	-37.1	-38.7	17.1	0.00e+00	0	57	0	931135488	45	4399
2026-01-04 01:01:04.07	252.52	18.87	-37.4	-38.9	16.8	0.00e+00	0	57	0	934281216	45	4541
2026-01-04 01:01:05.08	252.37	18.77	-37.5	-39.2	16.6	0.00e+00	0	57	0	937426944	45	4658
2026-01-04 01:01:06.09	252.22	18.67	-37.7	-39.4	16.4	0.00e+00	0	57	0	940572672	45	4761
2026-01-04 01:01:07.10	252.06	18.58	-37.9	-39.6	16.2	0.00e+00	0	57	0	943718400	46	4617
2026-01-04 01:01:08.12	251.91	18.48	-38.0	-39.8	16.0	0.00e+00	0	57	0	946864128	46	4709
2026-01-04 01:01:09.12	251.76	18.38	-38.1	-39.9	15.8	0.00e+00	0	57	0	950009856	46	4801
2026-01-04 01:01:10.14	251.61	18.28	-38.2	-40.0	15.8	0.00e+00	0	57	0	953155584	46	4839
2026-01-04 01:01:11.15	251.46	18.19	-37.9	-39.7	16.1	0.00e+00	0	57	0	956301312	46	4652
2026-01-04 01:01:12.16	251.31	18.09	-37.7	-39.4	16.4	0.00e+00	0	57	0	959447040	46	4498
2026-01-04 01:01:13.17	251.17	17.99	-37.5	-39.1	16.6	0.00e+00	0	57	0	962592768	46	4376
2026-01-04 01:01:14.18	251.02	17.90	-37.4	-39.0	16.8	0.00e+00	0	57	0	965738496	46	4297
2026-01-04 01:01:15.19	250.88	17.80	-37.4	-39.0	16.7	0.00e+00	0	57	0	968884224	46	4332
2026-01-04 01:01:16.20	250.73	17.71	-37.3	-38.9	16.8	0.00e+00	0	57	0	972029952	46	4267
2026-01-04 01:01:17.21	250.59	17.61	-37.2	-38.8	16.9	0.00e+00	0	57	0	975175680	46	4213
2026-01-04 01:01:18.22	250.45	17.52	-37.3	-38.8	16.9	0.00e+00	0	57	0	978321408	46	4224
2026-01-04 01:01:19.23	250.31	17.42	-37.3	-38.9	16.8	0.00e+00	0	57	0	981467136	46	4263
2026-01-04 01:01:20.24	250.17	17.33	-37.5	-39.1	16.6	0.00e+00	0	57	0	984612864	46	4355
2026-01-04 01:01:21.25	250.03	17.23	-37.6	-39.3	16.5	0.00e+00	0	57	0	987758592	46	4448
2026-01-04 01:01:22.25	249.89	17.14	-37.8	-39.5	16.3	0.00e+00	0	57	0	990904320	46	4551
2026-01-04 01:01:23.26	249.75	17.04	-37.8	-39.6	16.2	0.00e+00	0	57	0	994050048	46	4600
2026-01-04 01:01:24.28	249.61	16.95	-38.0	-39.7	16.0	0.00e+00	0	57	0	997195776	46	4694
2026-01-04 01:01:25.29	249.48	16.85	-37.9	-39.7	16.1	0.00e+00	0	57	0	1000341504	46	4667
2026-01-04 01:01:26.30	249.34	16.76	-37.9	-39.7	16.0	0.00e+00	0	57	0	1003487232	46	4667
2026-01-04 01:01:27.31	249.21	16.67	-37.9	-39.7	16.1	0.00e+00	0	57	0	1006632960	46	4661
2026-01-04 01:01:28.32	249.07	16.57	-37.7	-39.3	16.4	0.00e+00	0	57	0	1009778688	46	4489
2026-01-04 01:01:29.33	248.94	16.48	-37.5	-39.1	16.6	0.00e+00	0	57	0	1012924416	46	4359
2026-01-04 01:01:30.34	248.81	16.39	-37.4	-39.0	16.7	0.00e+00	0	57	0	1016070144	46	4314
2026-01-04 01:01:31.35	248.68	16.29	-37.4	-39.0	16.7	0.00e+00	0	57	0	1019215872	46	4325
2026-01-04 01:01:32.36	248.55	16.20	-37.3	-38.9	16.8	0.00e+00	0	57	0	1022361600	46	4254
2026-01-04 01:01:33.37	248.42	16.11	-37.3	-38.9	16.8	0.00e+00	0	57	0	1025507328	46	4253
2026-01-04 01:01:34.39	248.29	16.02	-37.4	-39.0	16.7	0.00e+00	0	56	0	1028653056	46	4294
2026-01-04 01:01:35.40	248.16	15.92	-37.4	-39.0	16.7	0.00e+00	0	57	0	1031798784	46	4297
2026-01-04 01:01:36.41	248.04	15.83	-37.4	-39.1	16.6	0.00e+00	0	57	0	1034944512	46	4352
2026-01-04 01:01:37.42	247.91	15.74	-37.6	-39.3	16.4	0.00e+00	0	57	0	1038090240	46	4444
2026-01-04 01:01:38.43	247.78	15.65	-37.8	-39.5	16.1	0.00e+00	0	57	0	1041235968	46	4595
2026-01-04 01:01:39.43	247.66	15.56	-37.9	-39.7	16.0	0.00e+00	0	57	0	1044381696	46	4656
2026-01-04 01:01:40.45	247.54	15.47	-38.0	-39.8	15.9	0.00e+00	0	57	0	1047527424	46	4748
2026-01-04 01:01:41.46	247.41	15.38	-38.1	-39.9	15.8	0.00e+00	0	57	0	1050673152	46	4794
2026-01-04 01:01:42.47	247.29	15.29	-38.2	-40.0	15.7	0.00e+00	0	57	0	1053818880	46	4827
2026-01-04 01:01:43.48	247.17	15.19	-38.2	-40.0	15.7	0.00e+00	0	57	0	1056964608	47	4577
2026-01-04 01:01:44.49	247.05	15.10	-38.1	-39.8	15.8	0.00e+00	0	57	0	1060110336	47	4488
2026-01-04 01:01:45.50	246.93	15.01	-38.0	-39.8	15.9	0.00e+00	0	57	0	1063256064	47	4447
2026-01-04 01:01:46.51	246.81	14.92	-37.9	-39.6	16.0	0.00e+00	0	57	0	1066401792	47	4387
2026-01-04 01:01:47.52	246.69	14.84	-37.7	-39.4	16.2	0.00e+00	0	57	0	1069547520	47	4259
2026-01-04 01:01:48.53	246.57	14.75	-37.7	-39.4	16.2	0.00e+00	0	57	0	1072693248	47	4263
2026-01-04 01:01:49.54	246.46	14.66	-37.6	-39.2	16.4	0.00e+00	0	57	0	1075838976	47	4183
2026-01-04 01:01:50.55	246.34	14.57	-37.5	-39.1	16.5	0.00e+00	0	57	0	1078984704	47	4124
2026-01-04 01:01:51.56	246.22	14.48	-37.5	-39.2	16.5	0.00e+00	0	57	0	1082130432	47	4149
2026-01-04 01:01:52.57	246.11	14.39	-37.5	-39.2	16.4	0.00e+00	0	57	0	1085276160	47	4167
2026-01-04 01:01:53.58	245.99	14.30	-37.7	-39.3	16.3	0.00e+00	0	57	0	1088421888	47	4240
2026-01-04 01:01:54.58	245.88	14.21	-37.8	-39.5	16.2	0.00e+00	0	57	0	1091567616	47	4305
2026-01-04 01:01:55.60	245.77	14.13	-37.8	-39.5	16.1	0.00e+00	0	57	0	1094713344	47	4336
2026-01-04 01:01:56.61	245.66	14.04	-37.8	-39.6	16.1	0.00e+00	0	57	0	1097859072	47	4354
2026-01-04 01:01:57.62	245.54	13.95	-38.0	-39.7	15.9	0.00e+00	0	57	0	1101004800	47	4433
2026-01-04 01:01:58.63	245.43	13.86	-38.0	-39.7	15.9	0.00e+00	0	56	0	1104150528	47	4436
2026-01-04 01:01:59.64	245.32	13.78	-37.9	-39.6	16.0	0.00e+00	0	57	0	1107296256	47	4389
2026-01-04 01:02:00.65	245.21	13.69	-38.0	-39.8	15.8	0.00e+00	0	57	0	1110441984	47	4475
2026-01-04 01:02:01.65	245.10	13.60	-38.1	-40.0	15.7	0.00e+00	0	57	0	1113587712	47	4553
2026-01-04 01:02:02.66	245.00	13.52	-38.1	-39.9	15.7	0.00e+00	0	56	0	1116733440	47	4540
2026-01-04 01:02:03.68	244.89	13.43	-38.1	-40.0	15.7	0.00e+00	0	57	0	1119879168	47	4554
2026-01-04 01:02:04.69	244.78	13.34	-38.2	-40.1	15.5	0.00e+00	0	57	0	1123024896	47	4610
2026-01-04 01:02:05.69	244.68	13.26	-38.3	-40.2	15.5	0.00e+00	0	57	0	1126170624	47	4654
2026-01-04 01:02:06.70	244.57	13.17	-38.3	-40.2	15.4	0.00e+00	0	57	0	1129316352	47	4665
2026-01-04 01:02:07.71	244.46	13.09	-38.3	-40.1	15.4	7.00e-07	0	57	0	1132462080	47	4648
2026-01-04 01:02:08.72	244.36	13.00	-38.2	-40.1	15.5	0.00e+00	0	56	0	1135607808	47	4627
2026-01-04 01:02:09.73	244.26	12.92	-38.3	-40.2	15.4	0.00e+00	0	56	0	1138753536	47	4659
2026-01-04 01:02:10.74	244.15	12.83	-38.2	-40.1	15.5	0.00e+00	0	57	0	1141899264	47	4616
2026-01-04 01:02:11.75	244.05	12.75	-38.1	-39.9	15.7	0.00e+00	0	57	0	1145044992	47	4504
2026-01-04 01:02:12.76	243.95	12.66	-38.0	-39.8	15.7	0.00e+00	0	57	0	1148190720	47	4486
2026-01-04 01:02:13.77	243.85	12.58	-38.0	-39.8	15.8	0.00e+00	0	57	0	1151336448	47	4451
2026-01-04 01:02:14.78	243.75	12.49	-38.0	-39.8	15.8	0.00e+00	0	57	0	1154482176	47	4446
2026-01-04 01:02:15.79	243.65	12.41	-38.1	-39.9	15.7	0.00e+00	0	57	0	1157627904	47	4527
2026-01-04 01:02:16.80	243.55	12.33	-38.2	-40.0	15.5	0.00e+00	0	57	0	1160773632	47	4570
2026-01-04 01:02:17.81	243.45	12.24	-38.1	-40.0	15.6	0.00e+00	0	56	0	1163919360	47	4552
2026-01-04 01:02:18.82	243.35	12.16	-38.2	-40.0	15.5	0.00e+00	0	57	0	1167065088	47	4582
2026-01-04 01:02:19.83	243.25	12.08	-38.3	-40.1	15.4	0.00e+00	0	57	0	1171259392	47	4645
2026-01-04 01:02:20.84	243.15	11.99	-38.4	-40.3	15.3	0.00e+00	0	57	0	1174405120	47	4712
2026-01-04 01:02:21.85	243.06	11.91	-38.4	-40.3	15.3	0.00e+00	0	57	0	1176502272	47	4723
2026-01-04 01:02:22.86	242.96	11.83	-38.5	-40.4	15.1	0.00e+00	0	57	0	1179648000	47	4814
2026-01-04 01:02:23.87	242.86	11.75	-38.6	-40.6	15.0	0.00e+00	0	57	0	1182793728	47	4906
2026-01-04 01:02:24.88	242.77	11.67	-38.7	-40.8	14.8	0.00e+00	0	57	0	1185939456	47	4984
2026-01-04 01:02:25.89	242.67	11.58	-38.8	-40.9	14.7	7.00e-07	0	57	0	1190133760	48	4779
2026-01-04 01:02:26.90	242.58	11.50	-39.0	-41.1	14.6	0.00e+00	0	57	0	1193279488	48	4875
2026-01-04 01:02:27.91	242.49	11.42	-39.0	-41.1	14.5	0.00e+00	0	57	0	1196425216	48	4925
2026-01-04 01:02:28.92	242.39	11.34	-39.0	-41.1	14.6	7.00e-07	0	57	0	1199570944	48	4874
2026-01-04 01:02:29.93	242.30	11.26	-38.9	-41.0	14.6	7.00e-07	0	56	0	1201668096	48	4840
2026-01-04 01:02:30.94	242.21	11.18	-38.9	-41.0	14.6	3.00e-06	0	57	0	1205862400	48	4849
2026-01-04 01:02:31.95	242.12	11.10	-38.9	-41.0	14.6	7.00e-07	0	57	0	1209008128	48	4858
2026-01-04 01:02:32.96	242.03	11.02	-39.0	-41.1	14.4	0.00e+00	0	57	0	1212153856	48	4925
2026-01-04 01:02:33.97	241.93	10.94	-39.0	-41.1	14.4	7.00e-07	0	57	0	1215299584	48	4923
2026-01-04 01:02:34.98	241.84	10.86	-39.0	-41.1	14.5	1.50e-06	0	57	0	1218445312	48	4918
2026-01-04 01:02:35.99	241.76	10.78	-38.9	-41.0	14.6	1.50e-06	0	57	0	1221591040	48	4849
2026-01-04 01:02:37.00	241.67	10.70	-38.9	-41.0	14.6	0.00e+00	0	57	0	1224736768	48	4838
2026-01-04 01:02:38.01	241.58	10.62	-38.9	-41.0	14.5	1.50e-06	0	57	0	1227882496	48	4863
2026-01-04 01:02:39.02	241.49	10.54	-38.7	-40.7	14.8	1.50e-06	0	57	0	1231028224	48	4680
2026-01-04 01:02:40.03	241.40	10.46	-38.7	-40.7	14.9	0.00e+00	0	57	0	1234173952	48	4658
2026-01-04 01:02:41.04	241.32	10.38	-38.7	-40.7	14.8	0.00e+00	0	57	0	1237319680	48	4700
2026-01-04 01:02:42.05	241.23	10.30	-38.7	-40.6	14.9	0.00e+00	0	56	0	1240465408	48	4648
2026-01-04 01:02:43.06	241.14	10.22	-38.6	-40.5	15.0	0.00e+00	0	57	0	1243611136	48	4591
2026-01-04 01:02:44.06	241.06	10.14	-38.5	-40.5	15.0	0.00e+00	0	57	0	1246756864	48	4554
2026-01-04 01:02:45.07	240.97	10.07	-38.6	-40.6	14.9	0.00e+00	0	57	0	1249902592	48	4623
2026-01-04 01:02:46.09	240.89	9.99	-38.6	-40.6	14.9	0.00e+00	0	57	0	1253048320	48	4629
2026-01-04 01:02:47.09	240.80	9.91	-38.7	-40.8	14.7	7.00e-07	0	57	0	1256194048	48	4714
2026-01-04 01:02:48.10	240.72	9.83	-38.8	-40.9	14.7	7.00e-07	0	56	0	1259339776	48	4772
2026-01-04 01:02:49.11	240.64	9.75	-38.7	-40.8	14.7	0.00e+00	0	57	0	1262485504	48	4712
2026-01-04 01:02:50.12	240.55	9.68	-38.9	-41.0	14.5	0.00e+00	0	57	0	1265631232	48	4833
2026-01-04 01:02:51.13	240.47	9.60	-38.9	-41.0	14.5	0.00e+00	0	57	0	1268776960	48	4840
2026-01-04 01:02:52.14	240.39	9.52	-39.0	-41.1	14.4	7.00e-07	0	57	0	1271922688	48	4919
2026-01-04 01:02:53.15	240.31	9.45	-39.1	-41.2	14.2	1.50e-06	0	57	0	1275068416	48	4983
2026-01-04 01:02:54.16	240.23	9.37	-39.1	-41.3	14.2	2.20e-06	0	57	0	1278214144	48	5005
2026-01-04 01:02:55.17	240.15	9.29	-39.2	-41.4	14.0	2.20e-06	0	57	0	1281359872	48	5084
2026-01-04 01:02:56.18	240.07	9.22	-39.3	-41.5	13.9	2.20e-06	0	57	0	1284505600	49	4861
2026-01-04 01:02:57.19	239.99	9.14	-39.4	-41.7	13.8	3.80e-06	0	57	0	1287651328	49	4942
2026-01-04 01:02:58.20	239.91	9.06	-39.3	-41.6	13.8	5.30e-06	0	57	0	1290797056	49	4908
2026-01-04 01:02:59.21	239.83	8.99	-39.4	-41.7	13.7	6.80e-06	0	57	0	1293942784	49	4957
2026-01-04 01:03:00.22	239.75	8.91	-39.3	-41.6	13.8	4.50e-06	0	57	0	1297088512	49	4901
2026-01-04 01:03:01.23	239.67	8.84	-39.3	-41.7	13.8	3.00e-06	0	57	0	1300234240	49	4931
2026-01-04 01:03:02.24	239.59	8.76	-39.3	-41.6	13.8	7.60e-06	0	57	0	1303379968	49	4883
2026-01-04 01:03:03.25	239.52	8.69	-39.2	-41.5	13.9	3.00e-06	0	57	0	1306525696	49	4838
2026-01-04 01:03:04.26	239.44	8.61	-39.3	-41.5	13.8	4.50e-06	0	57	0	1309671424	49	4858
2026-01-04 01:03:05.27	239.36	8.54	-39.2	-41.5	13.9	1.50e-06	0	57	0	1312817152	49	4842
2026-01-04 01:03:06.28	239.29	8.46	-39.1	-41.2	14.1	4.50e-06	0	57	0	1315962880	49	4704
2026-01-04 01:03:07.29	239.21	8.39	-39.1	-41.3	14.0	4.50e-06	0	56	0	1319108608	49	4729
2026-01-04 01:03:08.30	239.14	8.32	-39.2	-41.4	13.9	1.50e-06	0	56	0	1322254336	49	4793
2026-01-04 01:03:09.31	239.06	8.24	-39.1	-41.3	14.0	2.20e-06	0	57	0	1325400064	49	4726
2026-01-04 01:03:10.32	238.99	8.17	-39.0	-41.2	14.1	0.00e+00	0	57	0	1328545792	49	4676
2026-01-04 01:03:11.33	238.91	8.09	-39.0	-41.2	14.2	1.50e-06	0	57	0	1331691520	49	4657
2026-01-04 01:03:12.34	238.84	8.02	-38.9	-41.0	14.3	0.00e+00	0	57	0	1334837248	49	4589
2026-01-04 01:03:13.36	238.76	7.95	-44.6	-56.8	3.8	1.49e+00	0	57	104	1335885824	59	15858
2026-01-04 01:03:14.37	238.69	7.87	-44.7	-57.3	3.8	1.49e+00	0	57	104	1335885824	60	15790
2026-01-04 01:03:15.38	238.62	7.80	-44.9	-57.4	3.8	1.49e+00	0	57	104	1335885824	60	16051
2026-01-04 01:03:16.39	238.55	7.73	-45.0	-57.5	3.8	1.49e+00	0	57	104	1335885824	60	16214
2026-01-04 01:03:17.40	238.47	7.66	-45.0	-57.6	3.8	1.49e+00	0	57	104	1335885824	60	16369
2026-01-04 01:03:18.41	238.40	7.58	-45.1	-57.6	3.8	1.49e+00	0	57	104	1335885824	60	16484
2026-01-04 01:03:19.42	238.33	7.51	-45.2	-57.7	3.8	1.49e+00	0	57	104	1335885824	60	16573
2026-01-04 01:03:20.43	238.26	7.44	-45.2	-57.8	3.8	1.49e+00	0	57	104	1335885824	60	16697
2026-01-04 01:03:21.44	238.19	7.37	-45.2	-57.7	3.8	1.49e+00	0	57	104	1335885824	60	16646
2026-01-04 01:03:22.45	238.12	7.29	-45.1	-57.7	3.8	1.49e+00	0	57	104	1335885824	60	16640
2026-01-04 01:03:23.46	238.05	7.22	-45.1	-57.7	3.8	1.49e+00	0	57	104	1335885824	60	16589
2026-01-04 01:03:24.47	237.98	7.15	-45.1	-57.7	3.8	1.49e+00	0	57	104	1335885824	60	16595
2026-01-04 01:03:25.48	237.91	7.08	-45.1	-57.7	3.8	1.49e+00	0	57	104	1335885824	60	16544
2026-01-04 01:03:26.49	237.84	7.01	-45.1	-57.6	3.8	1.49e+00	0	57	104	1335885824	60	16491
2026-01-04 01:03:27.50	237.78	6.94	-45.1	-57.6	3.8	1.49e+00	0	57	104	1335885824	60	16440
2026-01-04 01:03:28.51	237.71	6.87	-45.1	-57.7	3.8	1.49e+00	0	57	104	1335885824	60	16568
2026-01-04 01:03:29.52	237.64	6.80	-45.1	-57.6	3.8	1.49e+00	0	57	104	1335885824	60	16493
2026-01-04 01:03:30.54	237.57	6.73	-45.1	-57.7	3.8	1.49e+00	0	57	104	1335885824	60	16507
2026-01-04 01:03:31.54	237.51	6.66	-45.1	-57.6	3.8	1.49e+00	0	57	104	1335885824	60	16487
2026-01-04 01:03:32.56	237.44	6.58	-45.0	-57.6	3.8	1.49e+00	0	57	104	1335885824	60	16476
2026-01-04 01:03:33.57	237.37	6.51	-45.1	-57.6	3.8	1.49e+00	0	57	104	1335885824	60	16476
2026-01-04 01:03:34.58	237.31	6.44	-45.1	-57.7	3.8	1.49e+00	0	57	104	1335885824	60	16504
2026-01-04 01:03:35.59	237.24	6.37	-45.0	-57.6	3.8	1.49e+00	0	57	104	1335885824	60	16460
2026-01-04 01:03:36.60	237.18	6.31	-45.0	-57.7	3.8	1.49e+00	0	57	104	1335885824	60	16515
2026-01-04 01:03:37.61	237.11	6.24	-45.0	-57.6	3.8	1.49e+00	0	57	104	1335885824	60	16469
2026-01-04 01:03:38.62	237.05	6.17	-45.0	-57.6	3.8	1.49e+00	0	57	104	1335885824	60	16493
2026-01-04 01:03:39.63	236.98	6.10	-45.0	-57.6	3.8	1.49e+00	0	57	104	1335885824	60	16426
2026-01-04 01:03:40.65	236.92	6.03	-45.0	-57.6	3.8	1.49e+00	0	57	104	1335885824	60	16457
2026-01-04 01:03:41.66	236.85	5.96	-45.0	-57.6	3.8	1.49e+00	0	57	104	1335885824	60	16410
2026-01-04 01:03:42.67	236.79	5.89	-45.0	-57.6	3.8	1.49e+00	0	57	104	1335885824	60	16451
2026-01-04 01:03:43.68	236.73	5.82	-45.0	-57.6	3.8	1.49e+00	0	57	104	1335885824	60	16461
2026-01-04 01:03:44.69	236.66	5.75	-44.8	-57.6	3.8	1.49e+00	0	57	104	1335885824	60	16443
2026-01-04 01:03:45.70	236.60	5.68	-45.0	-57.6	3.8	1.49e+00	0	57	104	1335885824	60	16413
2026-01-04 01:03:46.71	236.54	5.62	-45.0	-57.6	3.8	1.49e+00	0	57	104	1335885824	60	16453
2026-01-04 01:03:47.72	236.48	5.55	-45.0	-57.6	3.8	1.49e+00	0	57	104	1335885824	60	16444
2026-01-04 01:03:48.73	236.42	5.48	-45.0	-57.6	3.8	1.49e+00	0	57	104	1335885824	60	16433
2026-01-04 01:03:49.74	236.36	5.41	-45.0	-57.6	3.8	1.49e+00	0	57	104	1335885824	60	16442
2026-01-04 01:03:50.75	236.29	5.35	-45.0	-57.6	3.8	1.49e+00	0	57	104	1335885824	60	16462
2026-01-04 01:03:51.77	236.23	5.28	-45.0	-57.6	3.8	1.49e+00	0	57	104	1335885824	60	16423
2026-01-04 01:03:52.78	236.17	5.21	-45.0	-57.6	3.8	1.49e+00	0	57	104	1335885824	60	16425
2026-01-04 01:03:53.79	236.11	5.14	-45.0	-57.6	3.8	1.49e+00	0	57	104	1335885824	60	16452
2026-01-04 01:03:54.80	236.05	5.08	-45.0	-57.6	3.8	1.49e+00	0	57	104	1335885824	60	16428
2026-01-04 01:03:55.81	235.99	5.01	-45.0	-57.6	3.8	1.49e+00	0	57	104	1335885824	60	16438
2026-01-04 01:03:56.82	235.93	4.94	-45.0	-57.6	3.8	1.49e+00	0	57	104	1335885824	60	16386
2026-01-04 01:03:57.83	235.88	4.88	-45.0	-57.6	3.8	1.49e+00	0	57	104	1335885824	60	16353
2026-01-04 01:03:58.84	235.82	4.81	-45.0	-57.6	3.8	1.49e+00	0	57	104	1335885824	60	16409
2026-01-04 01:03:59.85	235.76	4.74	-45.0	-57.6	3.8	1.49e+00	0	57	104	1335885824	60	16451
2026-01-04 01:04:00.86	235.70	4.68	-45.0	-57.6	3.8	1.49e+00	0	57	104	1335885824	60	16374
2026-01-04 01:04:01.88	235.64	4.61	-45.0	-57.6	3.8	1.49e+00	0	57	104	1335885824	60	16403
2026-01-04 01:04:02.89	235.58	4.54	-45.0	-57.6	3.8	1.49e+00	0	57	104	1335885824	60	16362
2026-01-04 01:04:03.90	235.53	4.48	-45.0	-57.6	3.8	1.49e+00	0	57	104	1335885824	60	16397
2026-01-04 01:04:04.91	235.47	4.41	-45.0	-57.6	3.8	1.49e+00	0	57	104	1335885824	60	16372
2026-01-04 01:04:05.92	235.41	4.35	-45.0	-57.6	3.8	1.49e+00	0	57	104	1335885824	60	16360
2026-01-04 01:04:06.93	235.36	4.28	-45.0	-57.6	3.8	1.49e+00	0	57	104	1335885824	60	16361
2026-01-04 01:04:07.94	235.30	4.22	-45.0	-57.6	3.8	1.49e+00	0	57	104	1335885824	60	16396
2026-01-04 01:04:08.95	235.24	4.15	-45.0	-57.6	3.8	1.49e+00	0	57	104	1335885824	60	16374
2026-01-04 01:04:09.97	235.19	4.09	-45.0	-57.6	3.8	1.49e+00	0	57	104	1335885824	60	16391
2026-01-04 01:04:10.98	235.13	4.02	-45.0	-57.6	3.8	1.49e+00	0	57	104	1335885824	60	16414
2026-01-04 01:04:11.99	235.08	3.96	-45.0	-57.6	3.8	1.49e+00	0	57	104	1335885824	60	16373
2026-01-04 01:04:13.00	235.02	3.89	-45.0	-57.6	3.8	1.49e+00	0	57	104	1335885824	60	16339
2026-01-04 01:04:14.01	234.97	3.83	-45.0	-57.6	3.8	1.49e+00	0	57	104	1335885824	60	16374
2026-01-04 01:04:15.02	234.91	3.76	-45.0	-57.6	3.8	1.49e+00	0	57	104	1335885824	60	16379
2026-01-04 01:04:16.03	234.86	3.70	-45.0	-57.6	3.8	1.49e+00	0	57	104	1335885824	60	16340
2026-01-04 01:04:17.04	234.80	3.63	-45.0	-57.6	3.8	1.49e+00	0	57	104	1335885824	60	16325
2026-01-04 01:04:18.05	234.75	3.57	-45.0	-57.6	3.8	1.49e+00	0	57	104	1335885824	60	16324
2026-01-04 01:04:19.07	234.70	3.51	-45.0	-57.6	3.8	1.49e+00	0	57	104	1335885824	60	16328
2026-01-04 01:04:20.08	234.64	3.44	-45.0	-57.6	3.8	1.49e+00	0	57	104	1335885824	60	16321
2026-01-04 01:04:21.09	234.59	3.38	-45.0	-57.6	3.8	1.49e+00	0	57	104	1335885824	60	16389
2026-01-04 01:04:22.10	234.54	3.32	-45.0	-57.6	3.8	1.49e+00	0	57	104	1335885824	60	16352
2026-01-04 01:04:23.11	234.49	3.25	-45.0	-57.6	3.8	1.49e+00	0	57	104	1335885824	60	16334
2026-01-04 01:04:24.12	234.43	3.19	-45.0	-57.6	3.8	1.49e+00	0	57	104	1335885824	60	16342
2026-01-04 01:04:25.13	234.38	3.13	-45.0	-57.6	3.8	1.49e+00	0	57	104	1335885824	60	16347
2026-01-04 01:04:26.14	234.33	3.06	-45.0	-57.6	3.8	1.49e+00	0	57	104	1335885824	60	16337
2026-01-04 01:04:27.15	234.28	3.00	-45.0	-57.6	3.8	1.49e+00	0	57	104	1335885824	60	16336
2026-01-04 01:04:28.17	234.23	2.94	-45.0	-57.5	3.8	1.49e+00	0	57	104	1335885824	60	16310
2026-01-04 01:04:29.18	234.17	2.87	-45.0	-57.5	3.8	1.49e+00	0	57	104	1335885824	60	16284
2026-01-04 01:04:30.19	234.12	2.81	-44.9	-57.5	3.8	1.49e+00	0	57	104	1335885824	60	16309
2026-01-04 01:04:31.20	234.07	2.75	-45.0	-57.5	3.8	1.49e+00	0	57	104	1335885824	60	16314
2026-01-04 01:04:32.21	234.02	2.69	-45.0	-57.6	3.8	1.49e+00	0	57	104	1335885824	60	16341
2026-01-04 01:04:33.22	233.97	2.62	-45.0	-57.6	3.8	1.49e+00	0	57	104	1335885824	60	16319
2026-01-04 01:04:34.23	233.92	2.56	-45.0	-57.6	3.8	1.49e+00	0	57	104	1335885824	60	16337
2026-01-04 01:04:35.24	233.87	2.50	-44.9	-57.6	3.8	1.49e+00	0	57	104	1335885824	60	16320
2026-01-04 01:04:36.25	233.82	2.44	-44.9	-57.6	3.8	1.49e+00	0	57	104	1335885824	60	16339
2026-01-04 01:04:37.26	233.77	2.38	-45.0	-57.5	3.8	1.49e+00	0	57	104	1335885824	60	16303
2026-01-04 01:04:38.27	233.72	2.32	-45.0	-57.5	3.8	1.49e+00	0	57	104	1335885824	60	16291
2026-01-04 01:04:39.28	233.68	2.25	-44.9	-57.6	3.8	1.49e+00	0	57	104	1335885824	60	16330
2026-01-04 01:04:40.30	233.63	2.19	-45.0	-57.5	3.8	1.49e+00	0	57	104	1335885824	60	16289
2026-01-04 01:04:41.31	233.58	2.13	-44.9	-57.5	3.8	1.49e+00	0	57	104	1335885824	60	16307
2026-01-04 01:04:42.32	233.53	2.07	-44.9	-57.6	3.8	1.49e+00	0	57	104	1335885824	60	16321
2026-01-04 01:04:43.33	233.48	2.01	-45.0	-57.5	3.8	1.49e+00	0	57	104	1335885824	60	16302
2026-01-04 01:04:44.34	233.43	1.95	-44.9	-57.5	3.8	1.49e+00	0	57	104	1335885824	60	16296
2026-01-04 01:04:45.35	233.39	1.89	-44.9	-57.6	3.8	1.49e+00	0	57	104	1335885824	60	16318

#Closed at: 2026-01-04 01:04:46
#Recorded file [1335 MB]: D:/lorett/data/31039_260104_035520.dat