passes_logs/2026/01/04/R2.0S_Moscow/R2.0S_Moscow__20260104_040835_FENGYUN_3E_rec.log

#Pass ID: 20260104_040835_FENGYUN 3E
#Satellite: FENGYUN 3E
#Configuration: FENGYUN 3E
#almurnet v.1.7.20251203
#Start time: 2026-01-04 04:08:36

#Version: 2.2.20231116
#Station: R2.0S_Moscow
#Location: 37.707566 lon 55.798166 lat
#TLE: 1 49008U 21062A   26003.51942929 -.00000034  00000+0  45519-5 0  9990
#TLE: 2 49008  98.7472   8.7829 0001426 160.7926 199.3304 14.19883272233213

#Time	Az	El	Level	Level2	SNR	BER	BlckErr	Temp	State	Recorded	gain1	gain2
2026-01-04 04:08:36.46	15.29	2.07	-43.4	-54.6	3.8	8.46e-01	0	48	0	0	57	12989
2026-01-04 04:08:37.47	15.28	2.13	-43.4	-54.6	3.8	8.46e-01	0	48	104	0	57	12980
2026-01-04 04:08:38.48	15.28	2.20	-43.4	-54.6	3.8	8.45e-01	0	48	104	0	57	12962
2026-01-04 04:08:39.49	15.27	2.26	-43.4	-54.6	3.8	8.47e-01	0	48	104	0	57	12961
2026-01-04 04:08:40.50	15.27	2.33	-43.4	-54.5	3.8	8.46e-01	0	48	104	0	57	12953
2026-01-04 04:08:41.51	15.26	2.39	-43.4	-54.6	3.8	8.47e-01	0	48	104	0	57	12968
2026-01-04 04:08:42.52	15.26	2.46	-43.4	-54.5	3.8	8.47e-01	0	48	104	0	57	12914
2026-01-04 04:08:43.53	15.25	2.52	-43.4	-54.6	3.8	8.45e-01	0	48	104	0	57	12966
2026-01-04 04:08:44.54	15.25	2.59	-43.4	-54.5	3.8	8.46e-01	0	48	104	0	57	12940
2026-01-04 04:08:45.55	15.24	2.66	-43.4	-54.5	3.8	8.47e-01	0	49	104	0	57	12953
2026-01-04 04:08:46.57	15.24	2.72	-43.4	-54.6	3.8	8.46e-01	0	49	104	0	57	12977
2026-01-04 04:08:47.58	15.23	2.79	-43.4	-54.6	3.8	8.47e-01	0	49	104	0	57	12974
2026-01-04 04:08:48.59	15.23	2.85	-43.4	-54.5	3.8	8.46e-01	0	49	104	0	57	12959
2026-01-04 04:08:49.60	15.22	2.92	-43.5	-54.5	3.8	8.46e-01	0	49	104	0	57	12939
2026-01-04 04:08:50.61	15.22	2.99	-43.4	-54.5	3.8	8.46e-01	0	49	104	0	57	12900
2026-01-04 04:08:51.62	15.21	3.05	-43.4	-54.5	3.8	8.46e-01	0	49	104	0	57	12948
2026-01-04 04:08:52.63	15.21	3.12	-43.4	-54.5	3.8	8.46e-01	0	49	104	0	57	12942
2026-01-04 04:08:53.64	15.20	3.19	-43.4	-54.6	3.8	8.45e-01	0	49	104	0	57	12971
2026-01-04 04:08:54.65	15.19	3.26	-43.4	-54.5	3.8	8.47e-01	0	49	104	0	57	12948
2026-01-04 04:08:55.66	15.19	3.32	-43.4	-54.5	3.8	8.46e-01	0	50	104	0	57	12920
2026-01-04 04:08:56.67	15.18	3.39	-43.5	-54.5	3.8	8.46e-01	0	49	104	0	57	12935
2026-01-04 04:08:57.69	15.18	3.46	-43.5	-54.5	3.8	8.46e-01	0	50	104	0	57	12959
2026-01-04 04:08:58.70	15.17	3.53	-43.5	-54.5	3.8	8.47e-01	0	50	104	0	57	12946
2026-01-04 04:08:59.70	15.17	3.59	-43.4	-54.5	3.8	8.46e-01	0	50	104	0	57	12938
2026-01-04 04:09:00.72	15.16	3.66	-43.5	-54.6	3.8	8.45e-01	0	50	104	0	57	12981
2026-01-04 04:09:01.73	15.15	3.73	-43.5	-54.5	3.8	8.47e-01	0	50	104	0	57	12952
2026-01-04 04:09:02.74	15.15	3.80	-43.4	-54.5	3.8	8.46e-01	0	50	104	0	57	12933
2026-01-04 04:09:03.75	15.14	3.87	-43.4	-54.5	3.8	8.48e-01	0	50	104	0	57	12867
2026-01-04 04:09:04.76	15.14	3.94	-43.5	-54.5	3.8	8.46e-01	0	50	104	0	57	12959
2026-01-04 04:09:05.77	15.13	4.01	-43.5	-54.5	3.8	8.47e-01	0	50	104	0	57	12955
2026-01-04 04:09:06.78	15.12	4.08	-43.5	-54.5	3.8	8.47e-01	0	50	104	0	57	12874
2026-01-04 04:09:07.79	15.12	4.15	-43.5	-54.5	3.8	8.46e-01	0	50	104	0	57	12915
2026-01-04 04:09:08.80	15.11	4.21	-43.4	-54.5	3.8	8.46e-01	0	50	104	0	57	12936
2026-01-04 04:09:09.81	15.11	4.28	-43.4	-54.5	3.8	8.45e-01	0	50	104	0	57	12918
2026-01-04 04:09:10.82	15.10	4.35	-43.5	-54.5	3.8	8.45e-01	0	50	104	0	57	12888
2026-01-04 04:09:11.84	15.09	4.43	-43.4	-54.6	3.8	8.46e-01	0	50	104	0	57	12979
2026-01-04 04:09:12.85	15.09	4.50	-43.4	-54.5	3.8	8.47e-01	0	50	104	0	57	12852
2026-01-04 04:09:13.86	15.08	4.57	-43.4	-54.6	3.8	8.47e-01	0	51	104	0	57	12991
2026-01-04 04:09:14.87	15.07	4.64	-43.5	-54.5	3.8	8.45e-01	0	51	104	0	57	12946
2026-01-04 04:09:15.88	15.07	4.71	-43.4	-54.5	3.8	8.46e-01	0	50	104	0	57	12864
2026-01-04 04:09:16.89	15.06	4.78	-43.4	-54.6	3.8	8.45e-01	0	51	104	0	57	12985
2026-01-04 04:09:17.90	15.05	4.85	-43.4	-54.5	3.8	8.47e-01	0	51	104	0	57	12822
2026-01-04 04:09:18.91	15.05	4.92	-43.4	-54.5	3.8	8.46e-01	0	51	104	0	57	12886
2026-01-04 04:09:19.92	15.04	4.99	-43.4	-54.5	3.8	8.47e-01	0	51	104	0	57	12922
2026-01-04 04:09:20.93	15.03	5.06	-43.4	-54.4	3.8	8.46e-01	0	51	104	0	57	12773
2026-01-04 04:09:21.94	15.03	5.14	-43.4	-54.5	3.8	8.46e-01	0	51	104	0	57	12854
2026-01-04 04:09:22.95	15.02	5.21	-43.4	-54.5	3.8	8.47e-01	0	51	104	0	57	12890
2026-01-04 04:09:23.96	15.01	5.28	-43.4	-54.3	3.8	8.46e-01	0	51	104	0	57	12651
2026-01-04 04:09:24.98	15.01	5.35	-43.4	-54.2	3.8	8.47e-01	0	51	104	0	57	12500
2026-01-04 04:09:25.99	15.00	5.43	-43.4	-54.4	3.8	8.45e-01	0	51	104	0	57	12743
2026-01-04 04:09:27.00	14.99	5.50	-43.4	-54.4	3.8	8.47e-01	0	51	104	0	57	12738
2026-01-04 04:09:28.01	14.98	5.57	-43.4	-53.9	3.8	8.46e-01	0	51	104	0	57	12092
2026-01-04 04:09:29.02	14.98	5.65	-43.4	-53.9	3.8	8.45e-01	0	51	104	0	57	11971
2026-01-04 04:09:30.03	14.97	5.72	-43.4	-54.2	3.8	8.45e-01	0	52	104	0	57	12459
2026-01-04 04:09:31.04	14.96	5.79	-43.4	-54.3	3.8	8.46e-01	0	52	104	0	57	12657
2026-01-04 04:09:32.05	14.95	5.87	-43.4	-53.9	3.8	8.46e-01	0	51	104	0	57	12073
2026-01-04 04:09:33.06	14.95	5.94	-43.3	-53.4	3.8	8.47e-01	0	52	104	0	57	11408
2026-01-04 04:09:34.08	14.94	6.02	-43.3	-53.6	3.8	8.46e-01	0	52	104	0	57	11565
2026-01-04 04:09:35.09	14.93	6.09	-43.4	-53.9	3.8	8.46e-01	0	51	104	0	57	11987
2026-01-04 04:09:36.10	14.92	6.17	-43.4	-54.0	3.8	8.46e-01	0	52	104	0	57	12106
2026-01-04 04:09:37.11	14.92	6.24	-43.3	-53.6	3.8	8.47e-01	0	52	104	0	57	11631
2026-01-04 04:09:38.12	14.91	6.32	-43.3	-53.0	3.8	8.45e-01	0	52	104	0	57	10863
2026-01-04 04:09:39.13	14.90	6.39	-43.2	-52.3	3.9	8.45e-01	0	52	104	0	57	10032
2026-01-04 04:09:40.14	14.89	6.47	-43.1	-51.9	3.9	8.44e-01	0	52	104	0	57	9543
2026-01-04 04:09:41.15	14.88	6.55	-43.1	-51.5	4.1	8.44e-01	0	52	104	0	57	9131
2026-01-04 04:09:42.16	14.88	6.62	-43.0	-51.1	4.2	8.39e-01	0	52	0	0	57	8682
2026-01-04 04:09:43.17	14.87	6.70	-42.9	-50.5	4.3	8.32e-01	0	52	0	0	56	8571
2026-01-04 04:09:44.18	14.86	6.77	-42.7	-49.5	4.7	8.11e-01	0	52	0	0	56	7700
2026-01-04 04:09:45.19	14.85	6.85	-42.2	-48.0	5.5	7.42e-01	0	52	0	0	55	6871
2026-01-04 04:09:46.21	14.84	6.93	-41.7	-46.7	6.6	2.63e-01	0	52	0	5242880	54	6218
2026-01-04 04:09:47.22	14.84	7.01	-40.8	-44.6	8.5	6.90e-02	0	52	0	12582912	52	5498
2026-01-04 04:09:48.23	14.83	7.08	-40.1	-43.1	10.1	1.15e-02	0	52	0	19922944	51	4925
2026-01-04 04:09:49.24	14.82	7.16	-39.1	-41.6	11.7	1.15e-03	0	52	0	27262976	49	4628
2026-01-04 04:09:50.25	14.81	7.24	-38.3	-40.5	12.8	9.84e-05	0	52	0	34603008	47	4559
2026-01-04 04:09:51.26	14.80	7.32	-37.5	-39.4	13.9	1.02e-05	0	52	0	41943040	46	4269
2026-01-04 04:09:52.27	14.79	7.40	-37.1	-38.9	14.3	2.20e-06	0	52	0	49283072	45	4282
2026-01-04 04:09:53.28	14.78	7.48	-36.9	-38.6	14.6	1.10e-06	0	52	0	56623104	44	4373
2026-01-04 04:09:54.29	14.77	7.55	-37.0	-38.7	14.6	0.00e+00	0	52	0	63963136	44	4430
2026-01-04 04:09:55.30	14.77	7.63	-37.5	-39.5	13.8	4.50e-06	0	53	0	71303168	44	4832
2026-01-04 04:09:56.32	14.76	7.71	-38.0	-40.1	13.1	2.97e-05	0	53	0	78643200	45	4926
2026-01-04 04:09:57.32	14.75	7.79	-37.9	-39.9	13.3	2.28e-05	0	53	0	85983232	45	4786
2026-01-04 04:09:58.33	14.74	7.87	-37.6	-39.5	13.7	1.25e-05	0	53	0	93323264	45	4583
2026-01-04 04:09:59.35	14.73	7.95	-37.5	-39.5	13.8	9.10e-06	0	53	0	100663296	45	4555
2026-01-04 04:10:00.36	14.72	8.03	-38.5	-40.7	12.6	5.26e-05	0	53	0	108003328	46	4954
2026-01-04 04:10:01.37	14.71	8.12	-39.4	-41.9	11.7	3.05e-04	0	53	0	115343360	48	5069
2026-01-04 04:10:02.38	14.70	8.20	-39.0	-41.3	12.2	1.02e-02	0	53	0	122683392	49	4451
2026-01-04 04:10:03.39	14.69	8.28	-38.8	-40.9	12.7	6.65e-04	0	53	0	130023424	48	4544
2026-01-04 04:10:04.40	14.68	8.36	-37.6	-39.4	14.3	6.29e-05	0	53	0	136314880	46	4243
2026-01-04 04:10:05.41	14.67	8.44	-40.9	-45.1	7.7	5.68e-01	0	53	0	140509184	52	5833
2026-01-04 04:10:06.42	14.66	8.52	-37.4	-39.2	14.5	0.00e+00	0	53	0	147849216	45	4398
2026-01-04 04:10:07.43	14.65	8.61	-37.5	-39.2	14.4	0.00e+00	0	53	0	155189248	45	4436
2026-01-04 04:10:08.44	14.64	8.69	-37.5	-39.3	14.4	0.00e+00	0	53	0	162529280	45	4471
2026-01-04 04:10:09.45	14.63	8.77	-37.4	-39.1	14.6	0.00e+00	0	53	0	169869312	45	4350
2026-01-04 04:10:10.46	14.62	8.85	-37.3	-38.9	14.8	0.00e+00	0	53	0	177209344	45	4278
2026-01-04 04:10:11.47	14.61	8.94	-37.4	-39.1	14.7	0.00e+00	0	53	0	184549376	45	4362
2026-01-04 04:10:12.48	14.60	9.02	-37.4	-39.1	14.7	1.10e-06	0	53	0	191889408	45	4356
2026-01-04 04:10:13.49	14.59	9.11	-37.7	-39.5	14.3	1.10e-06	0	53	0	199229440	45	4553
2026-01-04 04:10:14.50	14.58	9.19	-37.4	-39.1	14.7	0.00e+00	0	53	0	206569472	45	4355
2026-01-04 04:10:15.51	14.57	9.27	-37.3	-38.9	14.9	0.00e+00	0	53	0	213909504	45	4273
2026-01-04 04:10:16.52	14.56	9.36	-37.2	-38.9	15.0	0.00e+00	0	53	0	221249536	45	4252
2026-01-04 04:10:17.53	14.55	9.44	-37.1	-38.7	15.2	0.00e+00	0	53	0	228589568	45	4165
2026-01-04 04:10:18.54	14.54	9.53	-37.1	-38.6	15.2	0.00e+00	0	53	0	234881024	45	4140
2026-01-04 04:10:19.55	14.53	9.62	-37.2	-38.9	15.0	0.00e+00	0	53	0	242221056	45	4252
2026-01-04 04:10:20.57	14.52	9.70	-37.1	-38.7	15.2	0.00e+00	0	53	0	250609664	45	4182
2026-01-04 04:10:21.58	14.50	9.79	-37.0	-38.5	15.4	0.00e+00	0	54	0	256901120	45	4097
2026-01-04 04:10:22.59	14.49	9.88	-37.2	-38.8	15.1	0.00e+00	0	54	0	264241152	44	4473
2026-01-04 04:10:23.59	14.48	9.96	-37.0	-38.5	15.4	0.00e+00	0	54	0	271581184	44	4331
2026-01-04 04:10:24.60	14.47	10.05	-36.9	-38.4	15.5	0.00e+00	0	54	0	278921216	44	4287
2026-01-04 04:10:25.61	14.46	10.14	-37.1	-38.6	15.3	0.00e+00	0	54	0	286261248	44	4390
2026-01-04 04:10:26.62	14.45	10.22	-36.8	-38.3	15.7	0.00e+00	0	54	0	293601280	44	4212
2026-01-04 04:10:27.64	14.44	10.31	-36.9	-38.5	15.5	0.00e+00	0	54	0	300941312	44	4292
2026-01-04 04:10:28.65	14.42	10.40	-36.8	-38.3	15.7	0.00e+00	0	54	0	308281344	44	4199
2026-01-04 04:10:29.66	14.41	10.49	-36.9	-38.4	15.6	0.00e+00	0	54	0	315621376	44	4290
2026-01-04 04:10:30.67	14.40	10.58	-36.9	-38.4	15.7	0.00e+00	0	54	0	322961408	44	4256
2026-01-04 04:10:31.68	14.39	10.67	-37.0	-38.5	15.5	0.00e+00	0	54	0	330301440	44	4316
2026-01-04 04:10:32.69	14.38	10.76	-36.9	-38.4	15.6	0.00e+00	0	54	0	337641472	44	4273
2026-01-04 04:10:33.70	14.36	10.85	-36.9	-38.4	15.7	0.00e+00	0	54	0	344981504	44	4263
2026-01-04 04:10:34.71	14.35	10.94	-36.8	-38.3	15.7	0.00e+00	0	54	0	352321536	44	4225
2026-01-04 04:10:35.72	14.34	11.03	-36.7	-38.2	15.9	0.00e+00	0	54	0	359661568	44	4170
2026-01-04 04:10:36.73	14.33	11.12	-36.8	-38.3	15.7	0.00e+00	0	54	0	367001600	44	4229
2026-01-04 04:10:37.74	14.31	11.21	-36.8	-38.3	15.8	0.00e+00	0	54	0	374341632	44	4227
2026-01-04 04:10:38.75	14.30	11.30	-36.9	-38.4	15.7	0.00e+00	0	54	0	381681664	44	4249
2026-01-04 04:10:39.76	14.29	11.40	-36.6	-38.1	16.1	0.00e+00	0	54	0	389021696	44	4102
2026-01-04 04:10:40.77	14.28	11.49	-36.7	-38.2	15.9	0.00e+00	0	54	0	396361728	44	4171
2026-01-04 04:10:41.78	14.26	11.58	-36.7	-38.1	16.0	0.00e+00	0	54	0	403701760	44	4141
2026-01-04 04:10:42.79	14.25	11.68	-36.8	-38.2	15.9	0.00e+00	0	54	0	409993216	44	4187
2026-01-04 04:10:43.80	14.24	11.77	-36.7	-38.1	16.0	0.00e+00	0	54	0	417333248	44	4144
2026-01-04 04:10:44.81	14.22	11.86	-36.6	-38.0	16.2	0.00e+00	0	54	0	425721856	44	4075
2026-01-04 04:10:45.82	14.21	11.96	-36.6	-38.0	16.1	0.00e+00	0	54	0	432013312	44	4098
2026-01-04 04:10:46.82	14.20	12.05	-36.3	-37.7	16.3	0.00e+00	0	54	0	439353344	43	4180
2026-01-04 04:10:47.83	14.18	12.15	-36.4	-37.8	16.1	0.00e+00	0	54	0	446693376	43	4238
2026-01-04 04:10:48.84	14.17	12.24	-36.2	-37.6	16.3	1.10e-06	0	54	0	454033408	43	4130
2026-01-04 04:10:49.85	14.15	12.34	-36.2	-37.6	16.4	0.00e+00	0	54	0	461373440	43	4110
2026-01-04 04:10:50.86	14.14	12.43	-36.3	-37.7	16.3	0.00e+00	0	54	0	468713472	43	4176
2026-01-04 04:10:51.87	14.13	12.53	-36.3	-37.7	16.3	0.00e+00	0	54	0	476053504	43	4163
2026-01-04 04:10:52.88	14.11	12.63	-36.2	-37.6	16.4	0.00e+00	0	54	0	483393536	43	4116
2026-01-04 04:10:53.89	14.10	12.72	-36.0	-37.4	16.7	0.00e+00	0	54	0	490733568	43	4010
2026-01-04 04:10:54.90	14.08	12.82	-36.1	-37.5	16.5	0.00e+00	0	54	0	498073600	42	4313
2026-01-04 04:10:55.91	14.07	12.92	-36.1	-37.5	16.6	0.00e+00	0	54	0	505413632	42	4297
2026-01-04 04:10:56.92	14.05	13.02	-36.1	-37.5	16.6	0.00e+00	0	54	0	512753664	42	4299
2026-01-04 04:10:57.93	14.04	13.12	-36.1	-37.4	16.7	0.00e+00	0	54	0	520093696	42	4286
2026-01-04 04:10:58.94	14.02	13.22	-36.0	-37.4	16.8	0.00e+00	0	54	0	527433728	42	4246
2026-01-04 04:10:59.95	14.01	13.32	-36.1	-37.4	16.7	0.00e+00	0	55	0	533725184	42	4266
2026-01-04 04:11:00.97	13.99	13.42	-35.9	-37.2	16.9	0.00e+00	0	54	0	542113792	42	4192
2026-01-04 04:11:01.98	13.98	13.52	-36.0	-37.3	16.9	0.00e+00	0	54	0	549453824	42	4228
2026-01-04 04:11:02.98	13.96	13.62	-35.9	-37.3	17.0	0.00e+00	0	54	0	555745280	42	4195
2026-01-04 04:11:03.99	13.95	13.72	-35.8	-37.1	17.1	0.00e+00	0	54	0	563085312	42	4140
2026-01-04 04:11:05.00	13.93	13.82	-35.7	-37.0	17.3	0.00e+00	0	55	0	570425344	42	4062
2026-01-04 04:11:06.01	13.91	13.92	-35.8	-37.1	17.1	0.00e+00	0	55	0	577765376	42	4125
2026-01-04 04:11:07.02	13.90	14.02	-35.7	-37.0	17.2	0.00e+00	0	55	0	585105408	42	4083
2026-01-04 04:11:08.03	13.88	14.13	-35.8	-37.0	17.2	0.00e+00	0	55	0	592445440	42	4083
2026-01-04 04:11:09.04	13.87	14.23	-35.7	-37.0	17.3	0.00e+00	0	55	0	599785472	42	4079
2026-01-04 04:11:10.05	13.85	14.33	-35.7	-36.9	17.3	0.00e+00	0	55	0	607125504	42	4037
2026-01-04 04:11:11.06	13.83	14.44	-35.6	-36.9	17.4	0.00e+00	0	55	0	614465536	42	4006
2026-01-04 04:11:12.06	13.82	14.54	-35.6	-36.9	17.4	0.00e+00	0	55	0	621805568	42	4023
2026-01-04 04:11:13.07	13.80	14.65	-35.7	-37.0	17.3	0.00e+00	0	55	0	629145600	42	4055
2026-01-04 04:11:14.09	13.78	14.76	-35.6	-36.9	17.4	0.00e+00	0	55	0	636485632	42	4005
2026-01-04 04:11:15.10	13.76	14.86	-35.5	-36.8	17.5	0.00e+00	0	55	0	643825664	42	3968
2026-01-04 04:11:16.11	13.75	14.97	-35.6	-36.8	17.5	0.00e+00	0	55	0	651165696	42	3976
2026-01-04 04:11:17.12	13.73	15.07	-35.5	-36.7	17.6	0.00e+00	0	55	0	658505728	42	3944
2026-01-04 04:11:18.13	13.71	15.18	-35.5	-36.8	17.5	0.00e+00	0	55	0	665845760	41	4205
2026-01-04 04:11:19.14	13.69	15.29	-35.5	-36.7	17.6	0.00e+00	0	55	0	673185792	41	4191
2026-01-04 04:11:20.15	13.68	15.40	-35.4	-36.7	17.6	0.00e+00	0	55	0	680525824	41	4151
2026-01-04 04:11:21.16	13.66	15.51	-35.4	-36.7	17.6	0.00e+00	0	55	0	687865856	41	4160
2026-01-04 04:11:22.17	13.64	15.62	-35.4	-36.7	17.7	0.00e+00	0	55	0	695205888	41	4160
2026-01-04 04:11:23.18	13.62	15.73	-35.4	-36.6	17.8	0.00e+00	0	55	0	702545920	41	4121
2026-01-04 04:11:24.19	13.60	15.84	-35.3	-36.5	17.9	0.00e+00	0	55	0	708837376	41	4081
2026-01-04 04:11:25.20	13.58	15.95	-35.2	-36.4	17.9	0.00e+00	0	55	0	716177408	41	4051
2026-01-04 04:11:26.21	13.56	16.06	-35.3	-36.5	17.9	0.00e+00	0	55	0	724566016	41	4073
2026-01-04 04:11:27.21	13.54	16.17	-35.3	-36.5	17.9	0.00e+00	0	55	0	730857472	41	4097
2026-01-04 04:11:28.22	13.52	16.28	-35.3	-36.5	17.9	0.00e+00	0	55	0	738197504	41	4083
2026-01-04 04:11:29.23	13.51	16.40	-35.3	-36.5	17.9	0.00e+00	0	55	0	745537536	41	4060
2026-01-04 04:11:30.24	13.49	16.51	-35.2	-36.4	18.0	0.00e+00	0	55	0	752877568	41	4019
2026-01-04 04:11:31.25	13.47	16.62	-35.1	-36.2	18.2	0.00e+00	0	55	0	760217600	41	3948
2026-01-04 04:11:32.26	13.45	16.74	-35.3	-36.4	18.0	0.00e+00	0	55	0	767557632	41	4046
2026-01-04 04:11:33.27	13.43	16.85	-35.1	-36.3	18.2	0.00e+00	0	55	0	774897664	41	3970
2026-01-04 04:11:34.28	13.40	16.97	-35.2	-36.3	18.1	0.00e+00	0	55	0	782237696	41	4003
2026-01-04 04:11:35.29	13.38	17.09	-35.1	-36.3	18.1	0.00e+00	0	55	0	789577728	41	3993
2026-01-04 04:11:36.30	13.36	17.20	-35.2	-36.4	18.1	0.00e+00	0	55	0	796917760	41	4013
2026-01-04 04:11:37.31	13.34	17.32	-34.9	-36.1	18.4	0.00e+00	0	55	0	804257792	40	4104
2026-01-04 04:11:38.32	13.32	17.44	-34.9	-36.0	18.5	0.00e+00	0	55	0	811597824	40	4091
2026-01-04 04:11:39.34	13.30	17.56	-34.9	-36.1	18.4	0.00e+00	0	55	0	818937856	40	4127
2026-01-04 04:11:40.35	13.28	17.68	-34.9	-36.0	18.5	0.00e+00	0	55	0	826277888	40	4095
2026-01-04 04:11:41.36	13.26	17.80	-35.0	-36.1	18.4	0.00e+00	0	55	0	833617920	40	4134
2026-01-04 04:11:42.37	13.23	17.92	-34.8	-35.9	18.6	0.00e+00	0	55	0	840957952	40	4038
2026-01-04 04:11:43.38	13.21	18.04	-34.8	-35.9	18.6	0.00e+00	0	55	0	848297984	40	4021
2026-01-04 04:11:44.38	13.19	18.16	-34.7	-35.8	18.8	0.00e+00	0	55	0	854589440	40	3972
2026-01-04 04:11:45.39	13.17	18.28	-34.7	-35.8	18.8	0.00e+00	0	55	0	861929472	40	3970
2026-01-04 04:11:46.40	13.14	18.40	-34.7	-35.8	18.8	0.00e+00	0	55	0	869269504	40	3974
2026-01-04 04:11:47.41	13.12	18.52	-34.7	-35.8	18.7	0.00e+00	0	55	0	876609536	40	4000
2026-01-04 04:11:48.42	13.10	18.65	-34.7	-35.8	18.8	0.00e+00	0	55	0	883949568	40	3967
2026-01-04 04:11:49.43	13.07	18.77	-34.6	-35.8	18.8	0.00e+00	0	55	0	891289600	40	3969
2026-01-04 04:11:50.44	13.05	18.90	-34.6	-35.7	18.9	0.00e+00	0	55	0	898629632	40	3942
2026-01-04 04:11:51.45	13.02	19.02	-34.6	-35.7	18.9	0.00e+00	0	55	0	905969664	40	3927
2026-01-04 04:11:52.46	13.00	19.15	-34.5	-35.6	18.9	0.00e+00	0	55	0	913309696	40	3910
2026-01-04 04:11:53.48	12.98	19.28	-34.6	-35.7	18.9	0.00e+00	0	55	0	920649728	40	3919
2026-01-04 04:11:54.48	12.95	19.40	-34.6	-35.7	18.9	0.00e+00	0	55	0	927989760	40	3930
2026-01-04 04:11:55.50	12.93	19.53	-34.5	-35.6	19.0	0.00e+00	0	55	0	935329792	40	3908
2026-01-04 04:11:56.51	12.90	19.66	-34.6	-35.8	18.9	0.00e+00	0	55	0	942669824	40	3965
2026-01-04 04:11:57.52	12.87	19.79	-34.6	-35.7	18.8	1.10e-06	0	55	0	950009856	40	3950
2026-01-04 04:11:58.53	12.85	19.92	-34.6	-35.7	18.9	0.00e+00	0	55	0	957349888	40	3930
2026-01-04 04:11:59.54	12.82	20.05	-34.5	-35.6	19.0	0.00e+00	0	55	0	964689920	40	3895
2026-01-04 04:12:00.52	12.80	20.18	-34.7	-35.8	18.9	0.00e+00	0	55	0	972029952	39	4199
2026-01-04 04:12:01.53	12.77	20.31	-34.6	-35.8	18.9	0.00e+00	0	55	0	979369984	39	4194
2026-01-04 04:12:02.54	12.74	20.45	-34.6	-35.8	18.9	0.00e+00	0	56	0	985661440	39	4202
2026-01-04 04:12:03.55	12.72	20.58	-34.7	-35.8	18.9	0.00e+00	0	55	0	993001472	39	4201
2026-01-04 04:12:04.56	12.69	20.72	-34.7	-35.8	18.9	0.00e+00	0	55	0	1001390080	39	4208
2026-01-04 04:12:05.57	12.66	20.85	-34.6	-35.7	19.0	0.00e+00	0	55	0	1007681536	39	4181
2026-01-04 04:12:06.58	12.63	20.99	-34.6	-35.8	18.9	0.00e+00	0	55	0	1015021568	39	4195
2026-01-04 04:12:07.59	12.61	21.12	-34.7	-35.8	18.9	1.10e-06	0	56	0	1022361600	39	4215
2026-01-04 04:12:08.60	12.58	21.26	-34.6	-35.7	19.0	0.00e+00	0	56	0	1029701632	39	4149
2026-01-04 04:12:09.61	12.55	21.40	-34.5	-35.6	19.1	0.00e+00	0	56	0	1037041664	39	4142
2026-01-04 04:12:10.62	12.52	21.54	-34.6	-35.7	19.0	0.00e+00	0	55	0	1044381696	39	4165
2026-01-04 04:12:11.63	12.49	21.68	-34.6	-35.7	19.1	0.00e+00	0	56	0	1051721728	39	4152
2026-01-04 04:12:12.63	12.46	21.82	-34.5	-35.6	19.1	0.00e+00	0	56	0	1059061760	39	4140
2026-01-04 04:12:13.64	12.43	21.96	-34.5	-35.6	19.1	0.00e+00	0	56	0	1066401792	39	4117
2026-01-04 04:12:14.65	12.40	22.10	-34.5	-35.6	19.1	0.00e+00	0	56	0	1073741824	39	4128
2026-01-04 04:12:15.66	12.37	22.24	-34.5	-35.6	19.1	0.00e+00	0	56	0	1081081856	39	4122
2026-01-04 04:12:16.67	12.34	22.38	-34.6	-35.7	19.1	0.00e+00	0	56	0	1088421888	39	4153
2026-01-04 04:12:17.68	12.31	22.53	-34.5	-35.7	19.1	0.00e+00	0	56	0	1095761920	39	4146
2026-01-04 04:12:18.69	12.28	22.67	-34.6	-35.7	19.0	0.00e+00	0	56	0	1103101952	39	4166
2026-01-04 04:12:19.71	12.24	22.82	-34.6	-35.7	19.1	0.00e+00	0	56	0	1109393408	39	4161
2026-01-04 04:12:20.72	12.21	22.97	-34.6	-35.7	19.1	0.00e+00	0	56	0	1117782016	39	4153
2026-01-04 04:12:21.73	12.18	23.12	-34.5	-35.6	19.1	0.00e+00	0	56	0	1125122048	39	4118
2026-01-04 04:12:22.74	12.15	23.26	-34.5	-35.6	19.2	0.00e+00	0	56	0	1131413504	39	4105
2026-01-04 04:12:23.75	12.11	23.41	-34.4	-35.5	19.3	0.00e+00	0	56	0	1138753536	39	4074
2026-01-04 04:12:24.76	12.08	23.56	-34.5	-35.6	19.2	0.00e+00	0	56	0	1147142144	39	4099
2026-01-04 04:12:25.77	12.05	23.72	-34.4	-35.5	19.3	0.00e+00	0	56	0	1153433600	39	4083
2026-01-04 04:12:26.78	12.01	23.87	-34.4	-35.5	19.3	0.00e+00	0	56	0	1160773632	39	4087
2026-01-04 04:12:27.79	11.98	24.02	-34.4	-35.4	19.3	0.00e+00	0	56	0	1168113664	39	4050
2026-01-04 04:12:28.79	11.94	24.17	-34.3	-35.4	19.3	0.00e+00	0	56	0	1175453696	39	4041
2026-01-04 04:12:29.80	11.91	24.33	-34.2	-35.3	19.4	0.00e+00	0	56	0	1182793728	39	3984
2026-01-04 04:12:30.81	11.87	24.48	-34.2	-35.3	19.5	0.00e+00	0	56	0	1190133760	39	3979
2026-01-04 04:12:31.82	11.83	24.64	-34.2	-35.3	19.5	0.00e+00	0	56	0	1197473792	39	3975
2026-01-04 04:12:32.83	11.80	24.80	-34.2	-35.2	19.6	0.00e+00	0	56	0	1204813824	39	3947
2026-01-04 04:12:33.84	11.76	24.95	-34.1	-35.2	19.6	0.00e+00	0	56	0	1212153856	39	3925
2026-01-04 04:12:34.85	11.72	25.11	-34.1	-35.1	19.6	0.00e+00	0	56	0	1219493888	39	3891
2026-01-04 04:12:35.86	11.69	25.27	-34.0	-35.0	19.7	0.00e+00	0	56	0	1226833920	38	4096
2026-01-04 04:12:36.87	11.65	25.43	-34.0	-35.0	19.8	0.00e+00	0	56	0	1234173952	38	4084
2026-01-04 04:12:37.88	11.61	25.60	-34.0	-35.0	19.8	0.00e+00	0	56	0	1241513984	38	4077
2026-01-04 04:12:38.89	11.57	25.76	-34.0	-35.0	19.7	0.00e+00	0	56	0	1248854016	38	4096
2026-01-04 04:12:39.90	11.53	25.92	-34.0	-35.0	19.7	0.00e+00	0	56	0	1256194048	38	4095
2026-01-04 04:12:40.91	11.49	26.09	-33.9	-35.0	19.8	0.00e+00	0	56	0	1263534080	38	4077
2026-01-04 04:12:41.92	11.45	26.25	-34.0	-35.0	19.8	0.00e+00	0	56	0	1270874112	38	4083
2026-01-04 04:12:42.93	11.41	26.42	-34.0	-35.1	19.7	0.00e+00	0	56	0	1278214144	38	4108
2026-01-04 04:12:43.94	11.37	26.59	-34.0	-35.1	19.8	0.00e+00	0	56	0	1284505600	38	4101
2026-01-04 04:12:44.95	11.32	26.76	-34.0	-35.0	19.8	0.00e+00	0	56	0	1291845632	38	4077
2026-01-04 04:12:45.96	11.28	26.93	-34.0	-35.1	19.7	0.00e+00	0	56	0	1300234240	38	4105
2026-01-04 04:12:46.97	11.24	27.10	-34.0	-35.1	19.7	0.00e+00	0	56	0	1306525696	38	4118
2026-01-04 04:12:47.98	11.20	27.27	-34.1	-35.2	19.7	0.00e+00	0	56	0	1313865728	38	4156
2026-01-04 04:12:48.99	11.15	27.45	-34.1	-35.2	19.7	0.00e+00	0	56	0	1321205760	38	4146
2026-01-04 04:12:50.00	11.11	27.62	-34.0	-35.0	19.8	0.00e+00	0	56	0	1328545792	38	4097
2026-01-04 04:12:51.01	11.06	27.80	-34.0	-35.0	19.8	0.00e+00	0	56	0	1335885824	38	4074
2026-01-04 04:12:52.02	11.02	27.97	-33.9	-35.0	19.9	0.00e+00	0	56	0	1343225856	38	4057
2026-01-04 04:12:53.03	10.97	28.15	-33.9	-34.9	19.9	0.00e+00	0	56	0	1350565888	38	4043
2026-01-04 04:12:54.04	10.92	28.33	-33.8	-34.8	20.0	0.00e+00	0	56	0	1357905920	38	4001
2026-01-04 04:12:55.05	10.88	28.51	-33.8	-34.8	20.0	0.00e+00	0	56	0	1365245952	38	3980
2026-01-04 04:12:56.06	10.83	28.69	-33.9	-34.9	19.9	0.00e+00	0	56	0	1372585984	38	4022
2026-01-04 04:12:57.07	10.78	28.87	-33.8	-34.8	20.0	0.00e+00	0	56	0	1379926016	38	3982
2026-01-04 04:12:58.08	10.73	29.06	-33.7	-34.7	20.1	0.00e+00	0	56	0	1387266048	38	3929
2026-01-04 04:12:59.09	10.68	29.24	-33.7	-34.7	20.1	0.00e+00	0	56	0	1394606080	38	3937
2026-01-04 04:13:00.10	10.63	29.43	-33.6	-34.6	20.2	0.00e+00	0	56	0	1401946112	38	3894
2026-01-04 04:13:01.11	10.58	29.62	-33.7	-34.7	20.1	0.00e+00	0	56	0	1409286144	38	3954
2026-01-04 04:13:02.11	10.53	29.80	-33.6	-34.7	20.2	0.00e+00	0	56	0	1416626176	38	3916
2026-01-04 04:13:03.13	10.48	29.99	-33.6	-34.6	20.2	0.00e+00	0	56	0	1423966208	38	3904
2026-01-04 04:13:04.14	10.42	30.18	-33.6	-34.6	20.2	0.00e+00	0	56	0	1431306240	38	3904
2026-01-04 04:13:05.15	10.37	30.38	-33.7	-34.7	20.2	0.00e+00	0	56	0	1437597696	38	3931
2026-01-04 04:13:06.16	10.32	30.57	-33.7	-34.7	20.2	0.00e+00	0	56	0	1445986304	38	3931
2026-01-04 04:13:07.17	10.26	30.76	-33.7	-34.8	20.1	0.00e+00	0	56	0	1453326336	38	3968
2026-01-04 04:13:08.17	10.21	30.96	-33.8	-34.8	20.0	0.00e+00	0	56	0	1459617792	38	4002
2026-01-04 04:13:09.19	10.15	31.16	-33.9	-34.9	20.0	0.00e+00	0	56	0	1466957824	38	4037
2026-01-04 04:13:10.20	10.09	31.36	-33.8	-34.9	20.0	0.00e+00	0	56	0	1474297856	38	4006
2026-01-04 04:13:11.21	10.03	31.56	-33.9	-34.9	20.0	0.00e+00	0	56	0	1481637888	38	4035
2026-01-04 04:13:12.22	9.98	31.76	-33.9	-34.9	20.0	0.00e+00	0	56	0	1488977920	38	4048
2026-01-04 04:13:13.23	9.92	31.96	-34.0	-35.1	19.8	0.00e+00	0	56	0	1496317952	38	4116
2026-01-04 04:13:14.24	9.86	32.16	-34.1	-35.1	19.8	0.00e+00	0	56	0	1503657984	38	4132
2026-01-04 04:13:15.25	9.80	32.37	-34.1	-35.2	19.7	0.00e+00	0	56	0	1510998016	38	4165
2026-01-04 04:13:16.26	9.73	32.58	-34.1	-35.2	19.7	0.00e+00	0	56	0	1518338048	38	4168
2026-01-04 04:13:17.27	9.67	32.78	-34.1	-35.2	19.7	0.00e+00	0	56	0	1525678080	38	4163
2026-01-04 04:13:18.28	9.61	32.99	-34.2	-35.2	19.7	0.00e+00	0	56	0	1533018112	38	4176
2026-01-04 04:13:19.29	9.54	33.20	-34.1	-35.1	19.8	0.00e+00	0	56	0	1540358144	38	4141
2026-01-04 04:13:20.30	9.48	33.42	-33.9	-35.0	19.9	0.00e+00	0	56	0	1547698176	38	4063
2026-01-04 04:13:21.31	9.41	33.63	-33.9	-34.9	20.0	0.00e+00	0	56	0	1555038208	38	4045
2026-01-04 04:13:22.32	9.34	33.85	-33.9	-35.0	19.9	0.00e+00	0	56	0	1562378240	38	4061
2026-01-04 04:13:23.33	9.28	34.06	-34.0	-35.0	19.9	0.00e+00	0	56	0	1569718272	38	4087
2026-01-04 04:13:24.33	9.21	34.28	-33.8	-34.9	20.0	0.00e+00	0	56	0	1577058304	38	4021
2026-01-04 04:13:25.34	9.14	34.50	-33.8	-34.9	20.1	0.00e+00	0	56	0	1583349760	38	4009
2026-01-04 04:13:26.35	9.07	34.72	-33.8	-34.9	20.0	0.00e+00	0	56	0	1590689792	38	4017
2026-01-04 04:13:27.36	8.99	34.94	-33.7	-34.7	20.2	0.00e+00	0	56	0	1599078400	38	3954
2026-01-04 04:13:28.38	8.92	35.17	-33.7	-34.7	20.2	0.00e+00	0	56	0	1605369856	38	3924
2026-01-04 04:13:29.39	8.85	35.39	-33.6	-34.7	20.2	0.00e+00	0	56	0	1612709888	38	3922
2026-01-04 04:13:30.40	8.77	35.62	-33.7	-34.7	20.2	0.00e+00	0	56	0	1620049920	38	3949
2026-01-04 04:13:31.41	8.69	35.85	-33.8	-34.8	20.1	0.00e+00	0	56	0	1627389952	38	3976
2026-01-04 04:13:32.42	8.62	36.08	-33.7	-34.8	20.2	0.00e+00	0	56	0	1634729984	38	3966
2026-01-04 04:13:33.42	8.54	36.31	-33.8	-34.8	20.1	0.00e+00	0	56	0	1642070016	38	3985
2026-01-04 04:13:34.43	8.46	36.55	-33.7	-34.8	20.1	0.00e+00	0	56	0	1649410048	38	3962
2026-01-04 04:13:35.45	8.38	36.78	-33.7	-34.7	20.2	0.00e+00	0	56	0	1656750080	38	3958
2026-01-04 04:13:36.46	8.30	37.02	-33.7	-34.7	20.2	0.00e+00	0	57	0	1664090112	38	3955
2026-01-04 04:13:37.46	8.21	37.26	-33.7	-34.7	20.2	0.00e+00	0	57	0	1671430144	38	3937
2026-01-04 04:13:38.47	8.13	37.50	-33.7	-34.7	20.2	0.00e+00	0	56	0	1678770176	38	3920
2026-01-04 04:13:39.48	8.04	37.74	-33.6	-34.6	20.2	0.00e+00	0	56	0	1686110208	38	3909
2026-01-04 04:13:40.49	7.95	37.98	-33.6	-34.6	20.3	0.00e+00	0	56	0	1693450240	38	3886
2026-01-04 04:13:41.50	7.87	38.23	-33.5	-34.5	20.4	0.00e+00	0	56	0	1700790272	38	3842
2026-01-04 04:13:42.51	7.78	38.48	-33.5	-34.5	20.4	0.00e+00	0	56	0	1708130304	37	4082
2026-01-04 04:13:43.52	7.68	38.73	-33.6	-34.6	20.3	0.00e+00	0	56	0	1715470336	37	4110
2026-01-04 04:13:44.53	7.59	38.98	-33.7	-34.8	20.2	0.00e+00	0	56	0	1722810368	37	4200
2026-01-04 04:13:45.54	7.50	39.23	-33.7	-34.7	20.2	0.00e+00	0	57	0	1730150400	37	4174
2026-01-04 04:13:46.55	7.40	39.48	-33.8	-34.9	20.0	0.00e+00	0	57	0	1736441856	37	4261
2026-01-04 04:13:47.57	7.30	39.74	-34.0	-35.1	19.8	0.00e+00	0	56	0	1744830464	37	4348
2026-01-04 04:13:48.58	7.20	40.00	-34.0	-35.0	19.9	0.00e+00	0	56	0	1752170496	37	4335
2026-01-04 04:13:49.58	7.10	40.26	-34.0	-35.1	19.8	0.00e+00	0	56	0	1758461952	37	4360
2026-01-04 04:13:50.59	7.00	40.52	-34.1	-35.2	19.8	0.00e+00	0	56	0	1765801984	37	4401
2026-01-04 04:13:51.60	6.89	40.78	-34.2	-35.3	19.7	0.00e+00	0	56	0	1773142016	38	4199
2026-01-04 04:13:52.61	6.79	41.05	-34.2	-35.3	19.7	0.00e+00	0	56	0	1780482048	38	4203
2026-01-04 04:13:53.62	6.68	41.31	-34.1	-35.1	19.8	0.00e+00	0	56	0	1787822080	38	4143
2026-01-04 04:13:54.63	6.57	41.58	-34.0	-35.1	19.9	0.00e+00	0	56	0	1795162112	38	4109
2026-01-04 04:13:55.64	6.46	41.85	-33.9	-35.0	19.9	0.00e+00	0	57	0	1802502144	38	4060
2026-01-04 04:13:56.65	6.34	42.13	-33.9	-34.9	20.0	0.00e+00	0	57	0	1809842176	38	4040
2026-01-04 04:13:57.66	6.23	42.40	-33.8	-34.8	20.1	0.00e+00	0	56	0	1817182208	38	3994
2026-01-04 04:13:58.67	6.11	42.68	-33.7	-34.7	20.2	0.00e+00	0	57	0	1824522240	38	3920
2026-01-04 04:13:59.68	5.99	42.95	-33.8	-34.8	20.1	0.00e+00	0	56	0	1831862272	38	3974
2026-01-04 04:14:00.69	5.87	43.24	-33.8	-34.8	20.1	0.00e+00	0	57	0	1839202304	38	3992
2026-01-04 04:14:01.69	5.74	43.51	-34.0	-35.0	19.9	0.00e+00	0	57	0	1846542336	38	4092
2026-01-04 04:14:02.70	5.62	43.80	-34.1	-35.2	19.8	0.00e+00	0	57	0	1853882368	38	4175
2026-01-04 04:14:03.71	5.49	44.08	-34.2	-35.3	19.7	0.00e+00	0	57	0	1861222400	38	4213
2026-01-04 04:14:04.73	5.35	44.38	-34.3	-35.4	19.6	0.00e+00	0	57	0	1868562432	38	4248
2026-01-04 04:14:05.74	5.22	44.67	-34.4	-35.5	19.5	0.00e+00	0	57	0	1875902464	38	4320
2026-01-04 04:14:06.75	5.08	44.96	-34.5	-35.5	19.4	0.00e+00	0	57	0	1882193920	38	4340
2026-01-04 04:14:07.76	4.95	45.25	-34.5	-35.6	19.4	0.00e+00	0	57	0	1890582528	38	4380
2026-01-04 04:14:08.77	4.80	45.55	-34.5	-35.5	19.5	1.14e-05	0	57	0	1897922560	38	4332
2026-01-04 04:14:09.77	4.66	45.84	-34.6	-35.7	19.4	0.00e+00	0	57	0	1904214016	38	4395
2026-01-04 04:14:10.78	4.51	46.14	-34.6	-35.6	19.4	0.00e+00	0	57	0	1911554048	38	4391
2026-01-04 04:14:11.79	4.36	46.44	-34.7	-35.7	19.2	0.00e+00	0	57	0	1918894080	38	4439
2026-01-04 04:14:12.80	4.21	46.75	-34.6	-35.7	19.3	0.00e+00	0	57	0	1926234112	39	4159
2026-01-04 04:14:13.81	4.05	47.05	-34.7	-35.8	19.2	0.00e+00	0	57	0	1933574144	39	4205
2026-01-04 04:14:14.82	3.89	47.36	-34.7	-35.7	19.2	0.00e+00	0	57	0	1940914176	39	4185
2026-01-04 04:14:15.83	3.73	47.67	-34.7	-35.8	19.2	0.00e+00	0	57	0	1948254208	39	4196
2026-01-04 04:14:16.84	3.56	47.98	-35.0	-36.1	18.9	0.00e+00	0	57	0	1955594240	39	4371
2026-01-04 04:14:17.86	3.39	48.30	-35.1	-36.2	18.8	0.00e+00	0	57	0	1962934272	39	4410
2026-01-04 04:14:18.86	3.22	48.61	-35.2	-36.3	18.6	0.00e+00	0	57	0	1970274304	40	4228
2026-01-04 04:14:19.87	3.04	48.93	-35.3	-36.5	18.4	0.00e+00	0	57	0	1977614336	40	4317
2026-01-04 04:14:20.89	2.86	49.26	-35.3	-36.4	18.5	0.00e+00	0	57	0	1984954368	40	4271
2026-01-04 04:14:21.90	2.68	49.58	-35.3	-36.4	18.4	0.00e+00	0	56	0	1992294400	40	4286
2026-01-04 04:14:22.91	2.49	49.90	-35.2	-36.3	18.6	0.00e+00	0	57	0	1999634432	40	4235
2026-01-04 04:14:23.92	2.30	50.23	-35.3	-36.5	18.4	0.00e+00	0	57	0	2006974464	40	4304
2026-01-04 04:14:24.93	2.10	50.56	-34.8	-35.8	19.1	0.00e+00	0	57	0	2014314496	40	4004
2026-01-04 04:14:25.94	1.90	50.89	-35.1	-36.2	18.7	0.00e+00	0	57	0	2021654528	40	4191
2026-01-04 04:14:26.95	1.69	51.22	-35.0	-36.1	18.8	1.94e-05	0	57	0	2028994560	40	4135
2026-01-04 04:14:27.96	1.48	51.55	-35.0	-36.2	18.7	0.00e+00	0	57	0	2036334592	40	4161
2026-01-04 04:14:28.97	1.26	51.89	-35.1	-36.2	18.7	0.00e+00	0	57	0	2043674624	40	4174
2026-01-04 04:14:29.98	1.04	52.22	-35.1	-36.3	18.6	0.00e+00	0	57	0	2051014656	40	4205
2026-01-04 04:14:30.99	0.82	52.56	-35.1	-36.3	18.7	0.00e+00	0	57	0	2057306112	40	4197
2026-01-04 04:14:32.00	0.59	52.91	-35.1	-36.2	18.7	0.00e+00	0	57	0	2064646144	40	4176
2026-01-04 04:14:33.01	0.35	53.25	-35.1	-36.2	18.7	0.00e+00	0	57	0	2073034752	40	4178
2026-01-04 04:14:34.02	0.11	53.59	-35.1	-36.2	18.7	0.00e+00	0	57	0	2079326208	40	4172
2026-01-04 04:14:35.03	359.86	53.94	-35.2	-36.4	18.5	0.00e+00	0	57	0	2086666240	40	4247
2026-01-04 04:14:36.04	359.60	54.29	-35.4	-36.5	18.4	0.00e+00	0	57	0	2094006272	40	4339
2026-01-04 04:14:37.05	359.34	54.64	-35.3	-36.5	18.4	2.20e-06	0	57	0	2101346304	40	4314
2026-01-04 04:14:38.06	359.07	54.99	-35.3	-36.4	18.5	0.00e+00	0	57	0	2108686336	40	4276
2026-01-04 04:14:39.07	358.80	55.35	-35.2	-36.3	18.6	0.00e+00	0	57	0	2116026368	40	4236
2026-01-04 04:14:40.08	358.52	55.70	-35.4	-36.6	18.2	0.00e+00	0	57	0	2123366400	40	4368
2026-01-04 04:14:41.09	358.23	56.06	-35.3	-36.4	18.5	0.00e+00	0	57	0	2130706432	40	4270
2026-01-04 04:14:42.10	357.93	56.42	-35.5	-36.6	18.3	2.20e-06	0	57	0	2138046464	40	4391
2026-01-04 04:14:43.11	357.63	56.78	-35.6	-36.8	18.1	0.00e+00	0	57	0	2145386496	40	4464
2026-01-04 04:14:44.12	357.31	57.14	-35.7	-36.9	18.1	0.00e+00	0	57	0	2152726528	40	4503
2026-01-04 04:14:45.13	356.99	57.51	-35.6	-36.8	18.0	2.20e-06	0	57	0	2160066560	41	4238
2026-01-04 04:14:46.14	356.66	57.87	-35.3	-36.5	18.5	0.00e+00	0	57	0	2167406592	41	4064
2026-01-04 04:14:47.15	356.32	58.24	-35.2	-36.4	18.5	0.00e+00	0	57	0	2174746624	41	4024
2026-01-04 04:14:48.16	355.97	58.61	-34.9	-36.1	18.9	0.00e+00	0	57	0	2182086656	40	4103
2026-01-04 04:14:49.17	355.62	58.98	-34.9	-36.0	18.9	1.02e-05	0	57	0	2189426688	40	4093
2026-01-04 04:14:50.18	355.25	59.35	-35.2	-36.3	18.5	0.00e+00	0	57	0	2196766720	40	4224
2026-01-04 04:14:51.19	354.87	59.72	-35.3	-36.5	18.4	0.00e+00	0	57	0	2203058176	40	4297
2026-01-04 04:14:52.20	354.48	60.09	-34.9	-36.0	18.9	2.20e-06	0	57	0	2210398208	40	4068
2026-01-04 04:14:53.20	354.08	60.46	-34.6	-35.7	19.2	0.00e+00	0	57	0	2217738240	40	3952
2026-01-04 04:14:54.22	353.66	60.84	-34.7	-35.8	19.2	1.10e-06	0	57	0	2225078272	39	4195
2026-01-04 04:14:55.22	353.24	61.21	-34.5	-35.6	19.3	0.00e+00	0	57	0	2232418304	39	4129
2026-01-04 04:14:56.24	352.79	61.59	-34.4	-35.4	19.5	6.18e-04	0	57	0	2239758336	39	4030
2026-01-04 04:14:57.25	352.34	61.96	-35.0	-36.2	18.8	0.00e+00	0	57	0	2247098368	39	4402
2026-01-04 04:14:58.26	351.87	62.34	-35.1	-36.2	18.7	0.00e+00	0	57	0	2254438400	39	4434
2026-01-04 04:14:59.27	351.38	62.72	-34.7	-35.8	19.1	3.40e-06	0	57	0	2261778432	39	4195
2026-01-04 04:15:00.28	350.89	63.10	-34.4	-35.4	19.5	4.50e-06	0	57	0	2269118464	39	4041
2026-01-04 04:15:01.28	350.37	63.47	-34.3	-35.4	19.5	0.00e+00	0	57	0	2276458496	38	4253
2026-01-04 04:15:02.29	349.84	63.85	-34.0	-35.0	19.9	0.00e+00	0	57	0	2283798528	38	4084
2026-01-04 04:15:03.30	349.29	64.23	-34.0	-35.0	19.9	0.00e+00	0	57	0	2291138560	38	4086
2026-01-04 04:15:04.31	348.73	64.60	-34.1	-35.1	19.8	0.00e+00	0	57	0	2298478592	38	4116
2026-01-04 04:15:05.32	348.14	64.98	-34.1	-35.1	19.8	0.00e+00	0	57	0	2305818624	38	4128
2026-01-04 04:15:06.33	347.53	65.36	-33.4	-34.4	20.5	1.10e-06	0	57	0	2313158656	37	4019
2026-01-04 04:15:07.34	346.90	65.73	-33.6	-34.6	20.3	0.00e+00	0	57	0	2320498688	37	4110
2026-01-04 04:15:08.35	346.25	66.11	-33.6	-34.6	20.2	0.00e+00	0	57	0	2327838720	37	4124
2026-01-04 04:15:09.36	345.58	66.48	-33.8	-34.8	20.0	0.00e+00	0	57	0	2335178752	37	4218
2026-01-04 04:15:10.37	344.88	66.85	-33.7	-34.7	20.1	0.00e+00	0	57	0	2342518784	37	4170
2026-01-04 04:15:11.38	344.16	67.22	-33.8	-34.9	20.0	0.00e+00	0	57	0	2349858816	37	4252
2026-01-04 04:15:12.39	343.41	67.59	-33.4	-34.4	20.3	3.40e-06	0	57	0	2356150272	37	4013
2026-01-04 04:15:13.40	342.63	67.96	-33.6	-34.5	20.2	2.97e-05	0	57	0	2363490304	37	4098
2026-01-04 04:15:14.41	341.83	68.32	-33.7	-34.7	20.1	0.00e+00	0	57	0	2371878912	37	4176
2026-01-04 04:15:15.42	340.99	68.68	-33.8	-34.9	20.0	0.00e+00	0	57	0	2378170368	37	4256
2026-01-04 04:15:16.43	340.13	69.04	-33.8	-34.8	20.0	0.00e+00	0	57	0	2385510400	37	4201
2026-01-04 04:15:17.44	339.23	69.40	-34.2	-35.3	19.5	0.00e+00	0	57	0	2392850432	38	4209
2026-01-04 04:15:18.45	338.29	69.75	-34.3	-35.3	19.5	0.00e+00	0	57	0	2400190464	38	4227
2026-01-04 04:15:19.46	337.33	70.10	-34.4	-35.5	19.2	0.00e+00	0	57	0	2407530496	38	4313
2026-01-04 04:15:20.47	336.32	70.44	-34.8	-35.9	18.9	5.95e-05	0	57	0	2414870528	39	4257
2026-01-04 04:15:21.48	335.28	70.78	-34.6	-35.7	19.0	9.10e-06	0	57	0	2422210560	39	4189
2026-01-04 04:15:22.49	334.20	71.11	-34.3	-35.4	19.4	0.00e+00	0	57	0	2429550592	39	4027
2026-01-04 04:15:23.51	333.06	71.45	-34.0	-35.0	19.8	2.20e-06	0	57	0	2436890624	38	4084
2026-01-04 04:15:24.51	331.91	71.76	-34.1	-35.2	19.6	0.00e+00	0	57	0	2444230656	38	4158
2026-01-04 04:15:25.52	330.70	72.08	-34.1	-35.2	19.6	3.31e-05	0	57	0	2451570688	38	4152
2026-01-04 04:15:26.54	329.43	72.39	-34.2	-35.3	19.5	1.10e-06	0	57	0	2458910720	38	4204
2026-01-04 04:15:27.54	328.14	72.69	-33.8	-34.8	19.8	4.50e-06	0	57	0	2466250752	38	3995
2026-01-04 04:15:28.56	326.77	72.99	-33.5	-34.6	20.1	2.20e-06	0	57	0	2473590784	38	3885
2026-01-04 04:15:29.57	325.37	73.27	-33.8	-34.8	20.0	0.00e+00	0	57	0	2480930816	38	3979
2026-01-04 04:15:30.58	323.92	73.55	-34.0	-35.1	19.7	0.00e+00	0	57	0	2488270848	38	4113
2026-01-04 04:15:31.59	322.42	73.81	-34.1	-35.2	19.6	0.00e+00	0	57	0	2495610880	38	4169
2026-01-04 04:15:32.59	320.88	74.06	-33.7	-34.8	20.0	0.00e+00	0	57	0	2501902336	38	3965
2026-01-04 04:15:33.60	319.27	74.31	-33.7	-34.7	20.0	0.00e+00	0	57	0	2509242368	38	3939
2026-01-04 04:15:34.61	317.62	74.54	-33.8	-34.8	20.0	0.00e+00	0	57	0	2517630976	38	3978
2026-01-04 04:15:35.62	315.91	74.76	-33.8	-34.8	19.9	3.40e-06	0	57	0	2523922432	38	3990
2026-01-04 04:15:36.63	314.15	74.97	-33.6	-34.6	20.1	0.00e+00	0	57	0	2531262464	38	3910
2026-01-04 04:15:37.64	312.34	75.16	-33.4	-34.4	20.3	0.00e+00	0	57	0	2538602496	37	4035
2026-01-04 04:15:38.66	310.47	75.34	-33.4	-34.5	20.2	0.00e+00	0	57	0	2545942528	37	4059
2026-01-04 04:15:39.67	308.57	75.50	-33.4	-34.4	20.4	0.00e+00	0	57	0	2553282560	37	4006
2026-01-04 04:15:40.68	306.62	75.65	-33.2	-34.2	20.5	0.00e+00	0	57	0	2560622592	37	3949
2026-01-04 04:15:41.69	304.64	75.78	-33.0	-34.0	20.7	0.00e+00	0	57	0	2567962624	36	4083
2026-01-04 04:15:42.70	302.62	75.90	-32.8	-33.8	20.9	0.00e+00	0	57	0	2575302656	36	3978
2026-01-04 04:15:43.71	300.57	75.99	-33.1	-34.1	20.7	0.00e+00	0	57	0	2582642688	36	4104
2026-01-04 04:15:44.72	298.49	76.07	-33.1	-34.1	20.6	0.00e+00	0	57	0	2589982720	36	4126
2026-01-04 04:15:45.73	296.39	76.14	-33.1	-34.1	20.5	0.00e+00	0	57	0	2597322752	36	4121
2026-01-04 04:15:46.74	294.27	76.18	-33.1	-34.1	20.6	0.00e+00	0	57	0	2604662784	36	4127
2026-01-04 04:15:47.75	292.14	76.21	-33.2	-34.2	20.5	0.00e+00	0	57	0	2612002816	36	4155
2026-01-04 04:15:48.76	290.01	76.21	-33.2	-34.2	20.5	0.00e+00	0	57	0	2619342848	36	4150
2026-01-04 04:15:49.77	287.87	76.20	-33.1	-34.1	20.6	0.00e+00	0	57	0	2626682880	36	4106
2026-01-04 04:15:50.78	285.75	76.17	-33.0	-34.0	20.7	0.00e+00	0	57	0	2634022912	36	4060
2026-01-04 04:15:51.79	283.63	76.12	-33.0	-34.0	20.7	0.00e+00	0	57	0	2641362944	36	4087
2026-01-04 04:15:52.80	281.54	76.05	-32.9	-33.9	20.8	0.00e+00	0	57	0	2648702976	36	4039
2026-01-04 04:15:53.81	279.46	75.97	-32.8	-33.7	20.9	0.00e+00	0	57	0	2656043008	36	3945
2026-01-04 04:15:54.82	277.42	75.87	-32.7	-33.6	21.0	0.00e+00	0	57	0	2663383040	36	3888
2026-01-04 04:15:55.83	275.41	75.75	-32.8	-33.8	20.9	3.40e-06	0	57	0	2670723072	36	3971
2026-01-04 04:15:56.84	273.43	75.61	-32.9	-33.9	20.8	0.00e+00	0	57	0	2677014528	36	4011
2026-01-04 04:15:57.85	271.50	75.46	-33.0	-34.0	20.6	1.10e-06	0	57	0	2684354560	36	4063
2026-01-04 04:15:58.86	269.61	75.29	-33.1	-34.1	20.5	0.00e+00	0	57	0	2692743168	36	4125
2026-01-04 04:15:59.87	267.76	75.11	-33.0	-34.0	20.7	0.00e+00	0	57	0	2699034624	36	4082
2026-01-04 04:16:00.88	265.97	74.91	-32.9	-33.9	20.8	0.00e+00	0	57	0	2706374656	36	4024
2026-01-04 04:16:01.89	264.22	74.70	-33.0	-34.0	20.6	0.00e+00	0	57	0	2713714688	36	4081
2026-01-04 04:16:02.90	262.52	74.48	-33.3	-34.3	20.4	0.00e+00	0	57	0	2721054720	36	4205
2026-01-04 04:16:03.91	260.88	74.24	-33.6	-34.6	20.1	0.00e+00	0	57	0	2728394752	36	4361
2026-01-04 04:16:04.92	259.29	74.00	-33.7	-34.7	20.0	0.00e+00	0	57	0	2735734784	37	4193
2026-01-04 04:16:05.93	257.74	73.74	-33.7	-34.7	20.1	0.00e+00	0	57	0	2743074816	37	4163
2026-01-04 04:16:06.94	256.25	73.47	-33.7	-34.8	19.9	8.81e-05	0	57	0	2750414848	37	4208
2026-01-04 04:16:07.95	254.82	73.19	-33.6	-34.6	20.0	0.00e+00	0	57	0	2757754880	37	4141
2026-01-04 04:16:08.96	253.43	72.91	-33.6	-34.6	20.0	0.00e+00	0	57	0	2765094912	37	4136
2026-01-04 04:16:09.97	252.09	72.61	-33.8	-34.8	19.9	0.00e+00	0	57	0	2772434944	37	4223
2026-01-04 04:16:10.98	250.79	72.31	-33.6	-34.6	20.1	0.00e+00	0	57	0	2779774976	37	4119
2026-01-04 04:16:12.00	249.54	71.99	-33.4	-34.4	20.3	0.00e+00	0	57	0	2787115008	37	4012
2026-01-04 04:16:13.00	248.35	71.68	-33.2	-34.2	20.4	0.00e+00	0	57	0	2794455040	37	3945
2026-01-04 04:16:14.01	247.19	71.35	-33.3	-34.2	20.5	0.00e+00	0	57	0	2801795072	37	3957
2026-01-04 04:16:15.02	246.08	71.02	-33.5	-34.4	20.3	0.00e+00	0	57	0	2809135104	37	4048
2026-01-04 04:16:16.03	245.00	70.69	-33.9	-34.9	19.7	1.37e-05	0	57	0	2816475136	37	4265
2026-01-04 04:16:17.04	243.97	70.35	-34.0	-35.0	19.7	0.00e+00	0	57	0	2822766592	37	4312
2026-01-04 04:16:18.05	242.97	70.00	-33.7	-34.7	20.0	0.00e+00	0	57	0	2830106624	37	4152
2026-01-04 04:16:19.06	242.02	69.65	-33.5	-34.5	20.2	0.00e+00	0	57	0	2838495232	37	4090
2026-01-04 04:16:20.07	241.09	69.30	-33.4	-34.4	20.3	0.00e+00	0	57	0	2844786688	37	4031
2026-01-04 04:16:21.08	240.20	68.94	-33.7	-34.7	20.1	0.00e+00	0	57	0	2852126720	37	4174
2026-01-04 04:16:22.09	239.34	68.58	-34.0	-35.1	19.7	0.00e+00	0	57	0	2859466752	37	4341
2026-01-04 04:16:23.11	238.51	68.21	-34.1	-35.1	19.3	0.00e+00	0	57	0	2866806784	38	4120
2026-01-04 04:16:24.12	237.71	67.85	-33.9	-34.9	19.9	0.00e+00	0	57	0	2874146816	38	4034
2026-01-04 04:16:25.13	236.94	67.48	-33.8	-34.8	20.0	0.00e+00	0	57	0	2881486848	38	3969
2026-01-04 04:16:26.14	236.20	67.11	-33.7	-34.7	20.0	0.00e+00	0	57	0	2888826880	38	3954
2026-01-04 04:16:27.15	235.48	66.74	-33.7	-34.7	20.1	0.00e+00	0	57	0	2896166912	38	3927
2026-01-04 04:16:28.16	234.79	66.36	-33.4	-34.4	20.3	0.00e+00	0	57	0	2903506944	37	4034
2026-01-04 04:16:29.17	234.12	65.99	-33.5	-34.5	20.3	0.00e+00	0	57	0	2910846976	37	4054
2026-01-04 04:16:30.18	233.47	65.61	-33.6	-34.6	19.9	0.00e+00	0	57	0	2918187008	37	4132
2026-01-04 04:16:31.19	232.85	65.24	-34.0	-35.0	19.8	0.00e+00	0	57	0	2925527040	37	4307
2026-01-04 04:16:32.20	232.25	64.86	-34.0	-35.0	19.7	0.00e+00	0	57	0	2932867072	37	4331
2026-01-04 04:16:33.21	231.66	64.48	-33.7	-34.7	20.0	0.00e+00	0	57	0	2940207104	37	4166
2026-01-04 04:16:34.23	231.10	64.10	-33.8	-34.8	20.0	0.00e+00	0	57	0	2947547136	37	4236
2026-01-04 04:16:35.24	230.55	63.72	-34.2	-35.3	19.5	0.00e+00	0	57	0	2954887168	38	4212
2026-01-04 04:16:36.25	230.02	63.34	-34.5	-35.5	19.3	0.00e+00	0	57	0	2962227200	38	4339
2026-01-04 04:16:37.26	229.51	62.96	-34.5	-35.6	19.1	0.00e+00	0	57	0	2969567232	38	4373
2026-01-04 04:16:38.27	229.02	62.58	-34.4	-35.5	19.3	0.00e+00	0	57	0	2976907264	38	4301
2026-01-04 04:16:39.28	228.54	62.20	-34.6	-35.7	19.2	0.00e+00	0	57	0	2984247296	38	4393
2026-01-04 04:16:40.29	228.07	61.83	-34.8	-35.9	19.0	0.00e+00	0	57	0	2991587328	39	4253
2026-01-04 04:16:41.30	227.62	61.45	-35.0	-36.2	18.7	0.00e+00	0	57	0	2997878784	39	4406
2026-01-04 04:16:42.31	227.18	61.07	-35.0	-36.2	18.6	0.00e+00	0	57	0	3006267392	39	4402
2026-01-04 04:16:43.32	226.76	60.70	-35.0	-36.1	18.8	0.00e+00	0	57	0	3013607424	39	4344
2026-01-04 04:16:44.33	226.35	60.32	-35.1	-36.2	18.6	0.00e+00	0	57	0	3019898880	39	4435
2026-01-04 04:16:45.34	225.95	59.95	-35.2	-36.4	18.4	0.00e+00	0	57	0	3027238912	40	4250
2026-01-04 04:16:46.35	225.56	59.57	-35.5	-36.7	18.1	0.00e+00	0	57	0	3034578944	40	4412
2026-01-04 04:16:47.36	225.18	59.20	-35.5	-36.7	18.1	0.00e+00	0	57	0	3041918976	40	4406
2026-01-04 04:16:48.37	224.82	58.83	-35.4	-36.6	18.2	0.00e+00	0	57	0	3049259008	40	4357
2026-01-04 04:16:49.38	224.46	58.46	-35.5	-36.7	18.1	0.00e+00	0	57	0	3056599040	40	4421
2026-01-04 04:16:50.39	224.11	58.09	-35.4	-36.6	18.2	0.00e+00	0	57	0	3063939072	40	4371
2026-01-04 04:16:51.40	223.78	57.72	-35.4	-36.6	18.1	0.00e+00	0	57	0	3071279104	40	4380
2026-01-04 04:16:52.41	223.45	57.36	-35.6	-36.8	18.1	0.00e+00	0	57	0	3078619136	40	4446
2026-01-04 04:16:53.42	223.13	56.99	-35.4	-36.5	18.2	0.00e+00	0	57	0	3085959168	40	4339
2026-01-04 04:16:54.42	222.82	56.63	-35.1	-36.3	18.4	0.00e+00	0	57	0	3093299200	40	4218
2026-01-04 04:16:55.44	222.51	56.27	-34.8	-35.9	18.9	0.00e+00	0	57	0	3100639232	40	4041
2026-01-04 04:16:56.45	222.22	55.91	-34.7	-35.8	18.9	0.00e+00	0	57	0	3107979264	40	3981
2026-01-04 04:16:57.46	221.93	55.55	-34.7	-35.8	19.0	0.00e+00	0	57	0	3115319296	40	3960
2026-01-04 04:16:58.47	221.65	55.19	-34.6	-35.7	19.1	0.00e+00	0	57	0	3122659328	40	3928
2026-01-04 04:16:59.47	221.38	54.84	-34.6	-35.7	19.1	0.00e+00	0	57	0	3129999360	39	4151
2026-01-04 04:17:00.49	221.11	54.49	-34.5	-35.6	19.2	0.00e+00	0	57	0	3137339392	39	4123
2026-01-04 04:17:01.49	220.86	54.14	-34.5	-35.6	19.3	0.00e+00	0	57	0	3143630848	39	4103
2026-01-04 04:17:02.50	220.60	53.79	-34.6	-35.7	19.2	0.00e+00	0	57	0	3150970880	39	4153
2026-01-04 04:17:03.51	220.36	53.44	-34.8	-35.9	18.9	0.00e+00	0	57	0	3159359488	39	4285
2026-01-04 04:17:04.52	220.11	53.09	-35.1	-36.2	18.7	0.00e+00	0	57	0	3165650944	39	4425
2026-01-04 04:17:05.53	219.88	52.75	-35.2	-36.3	18.5	0.00e+00	0	57	0	3172990976	39	4462
2026-01-04 04:17:06.54	219.65	52.41	-35.1	-36.3	18.5	0.00e+00	0	57	0	3180331008	39	4459
2026-01-04 04:17:07.55	219.42	52.07	-34.9	-36.1	18.8	0.00e+00	0	57	0	3187671040	39	4344
2026-01-04 04:17:08.56	219.20	51.73	-35.0	-36.1	18.7	0.00e+00	0	57	0	3195011072	39	4374
2026-01-04 04:17:09.57	218.99	51.39	-35.1	-36.3	18.6	0.00e+00	0	57	0	3202351104	40	4194
2026-01-04 04:17:10.58	218.78	51.06	-35.3	-36.4	18.4	0.00e+00	0	57	0	3209691136	40	4286
2026-01-04 04:17:11.58	218.58	50.73	-35.3	-36.5	18.2	0.00e+00	0	57	0	3217031168	40	4315
2026-01-04 04:17:12.59	218.38	50.40	-35.4	-36.5	18.3	0.00e+00	0	57	0	3224371200	40	4330
2026-01-04 04:17:13.60	218.18	50.07	-35.3	-36.5	18.3	0.00e+00	0	57	0	3231711232	40	4296
2026-01-04 04:17:14.61	217.99	49.74	-35.0	-36.2	18.6	0.00e+00	0	57	0	3239051264	40	4149
2026-01-04 04:17:15.62	217.80	49.42	-34.8	-35.9	18.9	0.00e+00	0	57	0	3246391296	40	4019
2026-01-04 04:17:16.63	217.62	49.09	-34.8	-36.0	18.7	0.00e+00	0	57	0	3253731328	40	4053
2026-01-04 04:17:17.64	217.43	48.77	-34.9	-36.0	18.8	0.00e+00	0	57	0	3261071360	40	4059
2026-01-04 04:17:18.65	217.26	48.46	-34.7	-35.8	18.9	0.00e+00	0	57	0	3268411392	40	4001
2026-01-04 04:17:19.66	217.09	48.14	-34.7	-35.8	19.0	0.00e+00	0	57	0	3275751424	40	4000
2026-01-04 04:17:20.67	216.92	47.82	-34.5	-35.6	19.2	0.00e+00	0	57	0	3283091456	40	3886
2026-01-04 04:17:21.68	216.75	47.51	-34.4	-35.4	19.4	0.00e+00	0	57	0	3290431488	39	4035
2026-01-04 04:17:22.69	216.59	47.20	-34.2	-35.3	19.4	0.00e+00	0	57	0	3296722944	39	3975
2026-01-04 04:17:23.70	216.43	46.89	-34.3	-35.3	19.5	0.00e+00	0	57	0	3304062976	39	3989
2026-01-04 04:17:24.71	216.27	46.59	-34.4	-35.5	19.2	0.00e+00	0	57	0	3312451584	39	4058
2026-01-04 04:17:25.72	216.12	46.28	-34.5	-35.6	19.2	0.00e+00	0	57	0	3318743040	39	4128
2026-01-04 04:17:26.73	215.97	45.98	-34.5	-35.6	19.3	0.00e+00	0	57	0	3326083072	39	4112
2026-01-04 04:17:27.74	215.82	45.68	-34.1	-35.1	18.9	0.00e+00	0	57	0	3333423104	39	3907
2026-01-04 04:17:28.75	215.68	45.38	-34.1	-35.2	19.6	0.00e+00	0	57	0	3340763136	39	3926
2026-01-04 04:17:29.76	215.54	45.08	-34.0	-35.0	19.8	0.00e+00	0	57	0	3348103168	39	3851
2026-01-04 04:17:30.77	215.40	44.79	-33.9	-34.9	20.0	0.00e+00	0	57	0	3355443200	38	4008
2026-01-04 04:17:31.78	215.26	44.50	-33.9	-34.9	20.0	0.00e+00	0	57	0	3362783232	38	4012
2026-01-04 04:17:32.79	215.13	44.21	-33.9	-34.9	19.9	0.00e+00	0	57	0	3370123264	38	4048
2026-01-04 04:17:33.80	215.00	43.92	-33.9	-34.9	20.0	0.00e+00	0	57	0	3377463296	38	4016
2026-01-04 04:17:34.81	214.87	43.63	-33.9	-34.9	19.9	0.00e+00	0	57	0	3384803328	38	4039
2026-01-04 04:17:35.83	214.74	43.34	-34.0	-35.0	19.8	0.00e+00	0	57	0	3392143360	38	4077
2026-01-04 04:17:36.84	214.62	43.06	-33.9	-34.9	19.9	0.00e+00	0	57	0	3399483392	38	4032
2026-01-04 04:17:37.85	214.49	42.78	-33.9	-34.9	19.6	0.00e+00	0	57	0	3406823424	38	4031
2026-01-04 04:17:38.86	214.37	42.50	-33.7	-34.7	20.0	0.00e+00	0	57	0	3414163456	38	3918
2026-01-04 04:17:39.87	214.26	42.22	-33.6	-34.6	20.2	0.00e+00	0	57	0	3421503488	38	3888
2026-01-04 04:17:40.88	214.14	41.95	-33.6	-34.6	20.2	0.00e+00	0	57	0	3428843520	38	3901
2026-01-04 04:17:41.89	214.03	41.67	-33.7	-34.7	20.1	0.00e+00	0	57	0	3436183552	38	3915
2026-01-04 04:17:42.90	213.92	41.40	-33.8	-34.8	20.0	0.00e+00	0	57	0	3442475008	38	3994
2026-01-04 04:17:43.91	213.81	41.13	-33.9	-35.0	19.8	0.00e+00	0	57	0	3450863616	38	4064
2026-01-04 04:17:44.92	213.70	40.87	-34.1	-35.1	19.7	0.00e+00	0	57	0	3458203648	38	4125
2026-01-04 04:17:45.93	213.59	40.60	-34.2	-35.2	19.6	0.00e+00	0	57	0	3464495104	38	4171
2026-01-04 04:17:46.94	213.49	40.34	-34.2	-35.2	19.6	0.00e+00	0	57	0	3471835136	38	4189
2026-01-04 04:17:47.95	213.38	40.08	-34.1	-35.1	19.4	0.00e+00	0	57	0	3479175168	38	4131
2026-01-04 04:17:48.97	213.28	39.81	-34.0	-35.1	19.7	0.00e+00	0	57	0	3486515200	38	4121
2026-01-04 04:17:49.98	213.18	39.55	-33.9	-35.0	19.8	0.00e+00	0	57	0	3493855232	38	4071
2026-01-04 04:17:50.99	213.08	39.30	-34.0	-35.1	19.8	0.00e+00	0	57	0	3501195264	38	4118
2026-01-04 04:17:52.00	212.99	39.04	-33.8	-34.8	20.0	0.00e+00	0	57	0	3508535296	38	3997
2026-01-04 04:17:53.01	212.89	38.79	-33.8	-34.9	20.0	0.00e+00	0	57	0	3515875328	38	4008
2026-01-04 04:17:54.02	212.80	38.54	-33.8	-34.8	20.0	0.00e+00	0	57	0	3523215360	38	3967
2026-01-04 04:17:55.03	212.71	38.29	-33.6	-34.6	20.2	0.00e+00	0	57	0	3530555392	38	3893
2026-01-04 04:17:56.04	212.62	38.04	-33.5	-34.6	20.3	0.00e+00	0	57	0	3537895424	38	3875
2026-01-04 04:17:57.05	212.53	37.80	-33.7	-34.7	20.2	0.00e+00	0	57	0	3545235456	38	3929
2026-01-04 04:17:58.05	212.44	37.55	-33.7	-34.8	19.9	0.00e+00	0	57	0	3552575488	38	3969
2026-01-04 04:17:59.06	212.36	37.31	-33.9	-34.9	19.9	0.00e+00	0	57	0	3559915520	38	4031
2026-01-04 04:18:00.07	212.27	37.07	-34.0	-35.0	19.8	0.00e+00	0	57	0	3567255552	38	4080
2026-01-04 04:18:01.09	212.19	36.83	-34.0	-35.0	19.7	0.00e+00	0	57	0	3574595584	38	4078
2026-01-04 04:18:02.09	212.11	36.59	-34.0	-35.1	19.7	0.00e+00	0	57	0	3581935616	38	4099
2026-01-04 04:18:03.11	212.02	36.36	-34.0	-35.1	19.8	0.00e+00	0	57	0	3589275648	38	4107
2026-01-04 04:18:04.12	211.94	36.12	-33.9	-35.0	19.9	0.00e+00	0	57	0	3596615680	38	4058
2026-01-04 04:18:05.13	211.87	35.89	-33.8	-34.8	20.0	0.00e+00	0	57	0	3603955712	38	4004
2026-01-04 04:18:06.14	211.79	35.66	-33.7	-34.7	20.1	0.00e+00	0	57	0	3611295744	38	3940
2026-01-04 04:18:07.15	211.71	35.43	-33.6	-34.6	20.2	0.00e+00	0	57	0	3617587200	38	3872
2026-01-04 04:18:08.16	211.64	35.20	-33.4	-34.4	20.4	0.00e+00	0	57	0	3625975808	37	4024
2026-01-04 04:18:09.17	211.56	34.97	-33.3	-34.3	20.3	0.00e+00	0	57	0	3633315840	37	3976
2026-01-04 04:18:10.18	211.49	34.75	-33.3	-34.2	20.5	0.00e+00	0	57	0	3639607296	37	3956
2026-01-04 04:18:11.19	211.42	34.53	-33.1	-34.1	20.6	0.00e+00	0	57	0	3646947328	37	3899
2026-01-04 04:18:12.20	211.35	34.30	-33.1	-34.1	20.6	0.00e+00	0	57	0	3654287360	37	3885
2026-01-04 04:18:13.20	211.28	34.09	-33.1	-34.1	20.7	0.00e+00	0	57	0	3661627392	37	3892
2026-01-04 04:18:14.21	211.21	33.87	-33.1	-34.1	20.7	0.00e+00	0	57	0	3668967424	37	3875
2026-01-04 04:18:15.22	211.14	33.65	-33.1	-34.1	20.7	0.00e+00	0	57	0	3676307456	37	3878
2026-01-04 04:18:16.23	211.07	33.44	-33.2	-34.2	20.6	0.00e+00	0	57	0	3683647488	37	3918
2026-01-04 04:18:17.24	211.00	33.22	-33.3	-34.3	20.5	0.00e+00	0	57	0	3690987520	37	3966
2026-01-04 04:18:18.25	210.94	33.01	-33.4	-34.4	20.4	0.00e+00	0	57	0	3698327552	37	4005
2026-01-04 04:18:19.26	210.87	32.80	-33.4	-34.4	19.9	0.00e+00	0	57	0	3705667584	37	4024
2026-01-04 04:18:20.27	210.81	32.59	-33.5	-34.5	20.3	0.00e+00	0	57	0	3713007616	37	4075
2026-01-04 04:18:21.28	210.75	32.38	-33.5	-34.5	20.3	0.00e+00	0	57	0	3720347648	37	4088
2026-01-04 04:18:22.29	210.69	32.17	-33.6	-34.6	20.2	0.00e+00	0	57	0	3727687680	37	4115
2026-01-04 04:18:23.30	210.62	31.97	-33.5	-34.6	20.2	0.00e+00	0	57	0	3735027712	37	4105
2026-01-04 04:18:24.31	210.56	31.76	-33.5	-34.5	20.3	0.00e+00	0	57	0	3742367744	37	4076
2026-01-04 04:18:25.33	210.50	31.56	-33.5	-34.5	20.3	0.00e+00	0	57	0	3749707776	37	4072
2026-01-04 04:18:26.34	210.44	31.36	-33.4	-34.4	20.3	0.00e+00	0	57	0	3757047808	37	4041
2026-01-04 04:18:27.35	210.39	31.15	-33.4	-34.4	20.4	0.00e+00	0	57	0	3763339264	37	4027
2026-01-04 04:18:28.36	210.33	30.96	-33.4	-34.4	20.4	0.00e+00	0	57	0	3771727872	37	4018
2026-01-04 04:18:29.37	210.27	30.76	-33.3	-34.3	20.4	0.00e+00	0	57	0	3779067904	37	4001
2026-01-04 04:18:30.38	210.22	30.56	-33.3	-34.3	20.4	0.00e+00	0	57	0	3785359360	37	3998
2026-01-04 04:18:31.39	210.16	30.37	-33.4	-34.4	20.4	0.00e+00	0	57	0	3792699392	37	4016
2026-01-04 04:18:32.40	210.11	30.17	-33.5	-34.5	20.2	0.00e+00	0	57	0	3800039424	37	4060
2026-01-04 04:18:33.41	210.05	29.98	-33.7	-34.7	20.0	0.00e+00	0	57	0	3807379456	37	4170
2026-01-04 04:18:34.42	210.00	29.79	-33.7	-34.7	20.0	0.00e+00	0	57	0	3814719488	37	4191
2026-01-04 04:18:35.43	209.95	29.60	-33.7	-34.8	20.0	0.00e+00	0	57	0	3822059520	37	4197
2026-01-04 04:18:36.44	209.90	29.41	-33.9	-34.9	19.9	0.00e+00	0	58	0	3829399552	37	4266
2026-01-04 04:18:37.44	209.84	29.23	-34.0	-35.0	19.7	0.00e+00	0	57	0	3836739584	37	4327
2026-01-04 04:18:38.46	209.79	29.04	-34.0	-35.0	19.7	0.00e+00	0	57	0	3844079616	37	4340
2026-01-04 04:18:39.47	209.74	28.85	-34.1	-35.1	19.7	0.00e+00	0	57	0	3851419648	37	4369
2026-01-04 04:18:40.47	209.69	28.67	-34.1	-35.2	19.6	0.00e+00	0	57	0	3858759680	37	4408
2026-01-04 04:18:41.48	209.65	28.49	-34.3	-35.4	19.4	0.00e+00	0	57	0	3866099712	38	4250
2026-01-04 04:18:42.50	209.60	28.30	-34.1	-35.1	19.7	0.00e+00	0	58	0	3873439744	38	4126
2026-01-04 04:18:43.50	209.55	28.13	-34.0	-35.0	19.7	0.00e+00	0	57	0	3880779776	38	4078
2026-01-04 04:18:44.51	209.50	27.95	-33.9	-34.9	19.9	0.00e+00	0	57	0	3888119808	38	4027
2026-01-04 04:18:45.52	209.46	27.77	-33.9	-34.9	19.9	0.00e+00	0	57	0	3895459840	38	4037
2026-01-04 04:18:46.54	209.41	27.59	-33.9	-34.9	19.8	0.00e+00	0	57	0	3902799872	38	4047
2026-01-04 04:18:47.55	209.36	27.41	-33.8	-34.9	19.9	0.00e+00	0	57	0	3910139904	38	4010
2026-01-04 04:18:48.55	209.32	27.24	-33.9	-34.9	19.8	0.00e+00	0	57	0	3916431360	38	4044
2026-01-04 04:18:49.56	209.28	27.07	-33.9	-34.9	19.9	0.00e+00	0	57	0	3924819968	38	4029
2026-01-04 04:18:50.58	209.23	26.89	-34.0	-35.0	19.7	0.00e+00	0	57	0	3932160000	38	4089
2026-01-04 04:18:51.59	209.19	26.72	-33.9	-35.0	19.8	0.00e+00	0	57	0	3938451456	38	4053
2026-01-04 04:18:52.60	209.14	26.55	-34.0	-35.0	19.8	0.00e+00	0	57	0	3945791488	38	4073
2026-01-04 04:18:53.60	209.10	26.38	-34.1	-35.2	19.6	0.00e+00	0	57	0	3953131520	38	4153
2026-01-04 04:18:54.61	209.06	26.21	-34.1	-35.1	19.6	0.00e+00	0	57	0	3960471552	38	4145
2026-01-04 04:18:55.62	209.02	26.05	-34.1	-35.1	19.6	0.00e+00	0	57	0	3967811584	38	4125
2026-01-04 04:18:56.63	208.98	25.88	-34.1	-35.2	19.5	0.00e+00	0	57	0	3975151616	38	4175
2026-01-04 04:18:57.65	208.94	25.71	-34.2	-35.2	19.5	0.00e+00	0	57	0	3982491648	38	4193
2026-01-04 04:18:58.66	208.90	25.55	-34.2	-35.3	19.5	0.00e+00	0	57	0	3989831680	38	4208
2026-01-04 04:18:59.67	208.86	25.39	-34.3	-35.4	19.4	0.00e+00	0	57	0	3997171712	38	4254
2026-01-04 04:19:00.68	208.82	25.22	-34.3	-35.4	19.3	0.00e+00	0	57	0	4004511744	38	4260
2026-01-04 04:19:01.69	208.78	25.06	-34.4	-35.5	19.3	0.00e+00	0	57	0	4011851776	38	4305
2026-01-04 04:19:02.70	208.74	24.90	-34.4	-35.5	19.3	0.00e+00	0	57	0	4019191808	38	4324
2026-01-04 04:19:03.70	208.70	24.74	-34.4	-35.5	19.3	0.00e+00	0	57	0	4026531840	38	4299
2026-01-04 04:19:04.72	208.67	24.58	-34.4	-35.5	19.3	0.00e+00	0	57	0	4033871872	38	4300
2026-01-04 04:19:05.73	208.63	24.43	-34.4	-35.5	19.2	0.00e+00	0	57	0	4041211904	38	4336
2026-01-04 04:19:06.74	208.59	24.27	-34.4	-35.5	19.3	0.00e+00	0	57	0	4048551936	38	4296
2026-01-04 04:19:07.75	208.56	24.11	-34.4	-35.5	19.3	0.00e+00	0	57	0	4055891968	38	4299
2026-01-04 04:19:08.76	208.52	23.96	-34.5	-35.6	19.2	0.00e+00	0	57	0	4063232000	38	4354
2026-01-04 04:19:09.77	208.48	23.81	-34.6	-35.6	19.1	0.00e+00	0	57	0	4070572032	38	4390
2026-01-04 04:19:10.78	208.45	23.65	-34.6	-35.6	19.1	0.00e+00	0	57	0	4077912064	38	4387
2026-01-04 04:19:11.79	208.41	23.50	-34.4	-35.5	19.2	0.00e+00	0	57	0	4084203520	38	4313
2026-01-04 04:19:12.80	208.38	23.35	-34.3	-35.4	19.4	0.00e+00	0	57	0	4091543552	38	4254
2026-01-04 04:19:13.81	208.35	23.20	-34.3	-35.4	19.3	0.00e+00	0	57	0	4099932160	38	4258
2026-01-04 04:19:14.82	208.31	23.05	-34.3	-35.4	19.3	0.00e+00	0	57	0	4106223616	38	4257
2026-01-04 04:19:15.83	208.28	22.90	-34.2	-35.3	19.5	0.00e+00	0	57	0	4113563648	38	4195
2026-01-04 04:19:16.84	208.24	22.75	-34.1	-35.1	19.6	0.00e+00	0	57	0	4120903680	38	4137
2026-01-04 04:19:17.85	208.21	22.61	-34.1	-35.1	19.6	0.00e+00	0	57	0	4128243712	38	4131
2026-01-04 04:19:18.86	208.18	22.46	-34.1	-35.1	19.6	0.00e+00	0	57	0	4135583744	38	4125
2026-01-04 04:19:19.87	208.15	22.32	-34.1	-35.2	19.5	0.00e+00	0	57	0	4142923776	38	4153
2026-01-04 04:19:20.88	208.12	22.17	-34.2	-35.2	19.5	0.00e+00	0	57	0	4150263808	38	4187
2026-01-04 04:19:21.89	208.08	22.03	-34.2	-35.2	19.5	0.00e+00	0	57	0	4157603840	38	4181
2026-01-04 04:19:22.90	208.05	21.88	-34.2	-35.3	19.3	0.00e+00	0	57	0	4164943872	38	4213
2026-01-04 04:19:23.91	208.02	21.74	-34.2	-35.2	19.5	0.00e+00	0	57	0	4172283904	38	4176
2026-01-04 04:19:24.92	207.99	21.60	-34.2	-35.2	19.4	0.00e+00	0	57	0	4179623936	38	4187
2026-01-04 04:19:25.93	207.96	21.46	-34.1	-35.2	19.5	0.00e+00	0	57	0	4186963968	38	4149
2026-01-04 04:19:26.94	207.93	21.32	-34.2	-35.2	19.5	0.00e+00	0	57	0	4194304000	38	4186
2026-01-04 04:19:27.95	207.90	21.18	-34.3	-35.3	19.4	0.00e+00	0	57	0	4201644032	38	4232
2026-01-04 04:19:28.96	207.87	21.04	-34.2	-35.2	19.5	0.00e+00	0	57	0	4208984064	38	4190
2026-01-04 04:19:29.97	207.84	20.91	-34.2	-35.3	19.4	0.00e+00	0	57	0	4216324096	38	4218
2026-01-04 04:19:30.98	207.81	20.77	-34.3	-35.4	19.3	0.00e+00	0	57	0	4223664128	38	4259
2026-01-04 04:19:31.99	207.79	20.63	-34.4	-35.5	19.2	0.00e+00	0	57	0	4231004160	38	4294
2026-01-04 04:19:33.00	207.76	20.50	-34.3	-35.4	19.3	0.00e+00	0	57	0	4237295616	38	4270
2026-01-04 04:19:34.01	207.73	20.36	-34.4	-35.5	19.2	0.00e+00	0	57	0	4245684224	38	4307
2026-01-04 04:19:35.02	207.70	20.23	-34.5	-35.6	19.1	0.00e+00	0	57	0	4253024256	38	4344
2026-01-04 04:19:36.03	207.67	20.10	-34.5	-35.5	19.1	0.00e+00	0	57	0	4259315712	38	4340
2026-01-04 04:19:37.04	207.65	19.96	-34.6	-35.7	19.0	0.00e+00	0	57	0	4266655744	38	4392
2026-01-04 04:19:38.05	207.62	19.83	-34.6	-35.7	19.0	0.00e+00	0	58	0	4273995776	38	4401
2026-01-04 04:19:39.06	207.59	19.70	-34.5	-35.6	19.0	0.00e+00	0	57	0	4281335808	38	4390
2026-01-04 04:19:40.07	207.57	19.57	-34.5	-35.6	19.0	0.00e+00	0	57	0	4288675840	38	4384
2026-01-04 04:19:41.08	207.54	19.44	-34.5	-35.6	19.0	0.00e+00	0	57	0	4296015872	38	4375
2026-01-04 04:19:42.09	207.52	19.31	-34.6	-35.7	18.9	0.00e+00	0	57	0	4303355904	38	4438
2026-01-04 04:19:43.10	207.49	19.18	-34.7	-35.8	18.9	0.00e+00	0	57	0	4310695936	38	4462
2026-01-04 04:19:44.11	207.46	19.05	-34.6	-35.8	18.9	0.00e+00	0	57	0	4318035968	38	4445
2026-01-04 04:19:45.12	207.44	18.93	-34.7	-35.8	18.8	0.00e+00	0	58	0	4325376000	38	4477
2026-01-04 04:19:46.13	207.41	18.80	-34.7	-35.8	18.8	0.00e+00	0	57	0	4332716032	39	4229
2026-01-04 04:19:47.14	207.39	18.68	-34.8	-35.9	18.7	0.00e+00	0	58	0	4340056064	39	4263
2026-01-04 04:19:48.16	207.36	18.55	-34.8	-36.0	18.7	0.00e+00	0	58	0	4347396096	39	4302
2026-01-04 04:19:49.17	207.34	18.42	-34.9	-36.0	18.6	0.00e+00	0	57	0	4354736128	39	4337
2026-01-04 04:19:50.18	207.32	18.30	-35.0	-36.1	18.5	0.00e+00	0	57	0	4362076160	39	4363
2026-01-04 04:19:51.19	207.29	18.18	-35.0	-36.1	18.5	0.00e+00	0	57	0	4369416192	39	4366
2026-01-04 04:19:52.19	207.27	18.06	-35.0	-36.1	18.5	0.00e+00	0	57	0	4376756224	39	4366
2026-01-04 04:19:53.20	207.25	17.93	-35.1	-36.2	18.2	0.00e+00	0	57	0	4383047680	39	4421
2026-01-04 04:19:54.21	207.22	17.81	-35.0	-36.2	18.4	0.00e+00	0	58	0	4391436288	39	4403
2026-01-04 04:19:55.22	207.20	17.69	-35.0	-36.2	18.5	0.00e+00	0	57	0	4398776320	39	4394
2026-01-04 04:19:56.23	207.18	17.57	-35.0	-36.1	18.4	0.00e+00	0	57	0	4405067776	39	4387
2026-01-04 04:19:57.24	207.15	17.45	-35.1	-36.2	18.2	0.00e+00	0	57	0	4412407808	39	4431
2026-01-04 04:19:58.25	207.13	17.33	-35.1	-36.3	18.3	0.00e+00	0	57	0	4419747840	39	4463
2026-01-04 04:19:59.26	207.11	17.21	-35.2	-36.4	18.1	0.00e+00	0	57	0	4427087872	40	4255
2026-01-04 04:20:00.27	207.09	17.10	-35.3	-36.5	18.0	0.00e+00	0	57	0	4434427904	40	4312
2026-01-04 04:20:01.28	207.07	16.98	-35.2	-36.4	18.1	0.00e+00	0	57	0	4441767936	40	4275
2026-01-04 04:20:02.29	207.04	16.86	-35.1	-36.3	18.2	0.00e+00	0	57	0	4449107968	40	4222
2026-01-04 04:20:03.30	207.02	16.74	-35.2	-36.4	18.1	0.00e+00	0	57	0	4456448000	40	4265
2026-01-04 04:20:04.31	207.00	16.63	-35.3	-36.5	18.0	0.00e+00	0	57	0	4463788032	40	4294
2026-01-04 04:20:05.32	206.98	16.51	-35.3	-36.5	18.0	0.00e+00	0	57	0	4471128064	40	4320
2026-01-04 04:20:06.33	206.96	16.40	-35.3	-36.5	17.9	0.00e+00	0	57	0	4478468096	40	4335
2026-01-04 04:20:07.34	206.94	16.28	-35.3	-36.5	18.0	0.00e+00	0	57	0	4485808128	40	4305
2026-01-04 04:20:08.35	206.92	16.17	-35.4	-36.6	17.9	0.00e+00	0	57	0	4493148160	40	4357
2026-01-04 04:20:09.36	206.90	16.06	-35.4	-36.6	17.9	0.00e+00	0	57	0	4500488192	40	4358
2026-01-04 04:20:10.37	206.88	15.95	-35.5	-36.7	17.8	0.00e+00	0	57	0	4507828224	40	4413
2026-01-04 04:20:11.38	206.86	15.83	-35.5	-36.7	17.7	0.00e+00	0	58	0	4515168256	40	4441
2026-01-04 04:20:12.39	206.84	15.72	-35.5	-36.7	17.8	0.00e+00	0	57	0	4522508288	40	4400
