passes_logs/2026/01/04/R2.0S_Moscow/R2.0S_Moscow__20260104_054910_FENGYUN_3E_rec.log

#Pass ID: 20260104_054910_FENGYUN 3E
#Satellite: FENGYUN 3E
#Configuration: FENGYUN 3E
#almurnet v.1.7.20251203
#Start time: 2026-01-04 05:49:11

#Version: 2.2.20231116
#Station: R2.0S_Moscow
#Location: 37.707566 lon 55.798166 lat
#TLE: 1 49008U 21062A   26003.51942929 -.00000034  00000+0  45519-5 0  9990
#TLE: 2 49008  98.7472   8.7829 0001426 160.7926 199.3304 14.19883272233213

#Time	Az	El	Level	Level2	SNR	BER	BlckErr	Temp	State	Recorded	gain1	gain2
2026-01-04 05:49:11.56	9.54	2.07	-39.9	-51.2	3.8	8.47e-01	0	47	0	0	50	13195
2026-01-04 05:49:12.58	9.47	2.13	-39.9	-51.2	3.8	8.47e-01	0	47	104	0	50	13204
2026-01-04 05:49:13.59	9.39	2.18	-39.9	-51.2	3.8	8.47e-01	0	47	104	0	50	13181
2026-01-04 05:49:14.60	9.32	2.24	-39.9	-51.2	3.8	8.46e-01	0	47	104	0	50	13200
2026-01-04 05:49:15.61	9.25	2.29	-39.9	-51.2	3.8	8.46e-01	0	47	104	0	50	13192
2026-01-04 05:49:16.62	9.17	2.35	-39.9	-51.2	3.8	8.46e-01	0	48	104	0	50	13203
2026-01-04 05:49:17.64	9.10	2.40	-39.9	-51.2	3.8	8.46e-01	0	48	104	0	50	13176
2026-01-04 05:49:18.65	9.02	2.46	-39.9	-51.2	3.8	8.46e-01	0	48	104	0	50	13190
2026-01-04 05:49:19.66	8.95	2.51	-39.9	-51.2	3.8	8.46e-01	0	48	104	0	50	13200
2026-01-04 05:49:20.67	8.87	2.57	-39.9	-51.2	3.8	8.46e-01	0	48	104	0	50	13185
2026-01-04 05:49:21.68	8.80	2.62	-39.9	-51.2	3.8	8.45e-01	0	48	104	0	50	13220
2026-01-04 05:49:22.69	8.72	2.68	-39.9	-51.2	3.8	8.46e-01	0	48	104	0	50	13197
2026-01-04 05:49:23.70	8.65	2.74	-39.9	-51.2	3.8	8.45e-01	0	48	104	0	50	13196
2026-01-04 05:49:24.71	8.57	2.79	-39.9	-51.2	3.8	8.45e-01	0	48	104	0	50	13203
2026-01-04 05:49:25.72	8.49	2.85	-39.9	-51.2	3.8	8.46e-01	0	48	104	0	50	13173
2026-01-04 05:49:26.74	8.42	2.90	-39.9	-51.2	3.8	8.46e-01	0	48	104	0	50	13215
2026-01-04 05:49:27.75	8.34	2.96	-39.9	-51.2	3.8	8.46e-01	0	49	104	0	50	13166
2026-01-04 05:49:28.76	8.26	3.01	-39.9	-51.2	3.8	8.47e-01	0	48	104	0	50	13158
2026-01-04 05:49:29.77	8.18	3.07	-39.9	-51.2	3.8	8.46e-01	0	49	104	0	50	13221
2026-01-04 05:49:30.78	8.11	3.13	-39.9	-51.2	3.8	8.47e-01	0	49	104	0	50	13198
2026-01-04 05:49:31.79	8.03	3.18	-39.9	-51.2	3.8	8.47e-01	0	49	104	0	50	13137
2026-01-04 05:49:32.80	7.95	3.24	-39.9	-51.2	3.8	8.47e-01	0	49	104	0	50	13163
2026-01-04 05:49:33.81	7.87	3.30	-39.9	-51.2	3.8	8.45e-01	0	49	104	0	50	13189
2026-01-04 05:49:34.83	7.79	3.35	-39.9	-51.2	3.8	8.46e-01	0	49	104	0	50	13194
2026-01-04 05:49:35.84	7.71	3.41	-39.9	-51.2	3.8	8.46e-01	0	49	104	0	50	13187
2026-01-04 05:49:36.85	7.63	3.47	-39.9	-51.2	3.8	8.46e-01	0	49	104	0	50	13196
2026-01-04 05:49:37.86	7.55	3.52	-39.9	-51.2	3.8	8.47e-01	0	49	104	0	50	13161
2026-01-04 05:49:38.87	7.47	3.58	-39.9	-51.2	3.8	8.45e-01	0	49	104	0	50	13156
2026-01-04 05:49:39.88	7.39	3.64	-39.9	-51.2	3.8	8.45e-01	0	49	104	0	50	13172
2026-01-04 05:49:40.89	7.31	3.69	-39.9	-51.2	3.8	8.45e-01	0	49	104	0	50	13151
2026-01-04 05:49:41.90	7.23	3.75	-39.9	-51.2	3.8	8.45e-01	0	49	104	0	50	13173
2026-01-04 05:49:42.91	7.15	3.81	-39.9	-51.2	3.8	8.47e-01	0	50	104	0	50	13148
2026-01-04 05:49:43.92	7.06	3.86	-39.9	-51.2	3.8	8.46e-01	0	49	104	0	50	13175
2026-01-04 05:49:44.93	6.98	3.92	-39.9	-51.2	3.8	8.46e-01	0	49	104	0	50	13166
2026-01-04 05:49:45.95	6.90	3.98	-39.9	-51.2	3.8	8.47e-01	0	50	104	0	50	13138
2026-01-04 05:49:46.96	6.81	4.03	-39.9	-51.2	3.8	8.46e-01	0	50	104	0	50	13111
2026-01-04 05:49:47.97	6.73	4.09	-39.9	-51.2	3.8	8.45e-01	0	50	104	0	50	13136
2026-01-04 05:49:48.98	6.65	4.15	-39.9	-51.2	3.8	8.46e-01	0	50	104	0	50	13161
2026-01-04 05:49:49.99	6.56	4.21	-39.9	-51.2	3.8	8.48e-01	0	50	104	0	50	13182
2026-01-04 05:49:51.00	6.48	4.26	-39.9	-51.2	3.8	8.47e-01	0	50	104	0	50	13175
2026-01-04 05:49:52.01	6.39	4.32	-39.9	-51.2	3.8	8.46e-01	0	50	104	0	50	13190
2026-01-04 05:49:53.02	6.31	4.38	-39.9	-51.2	3.8	8.46e-01	0	50	104	0	50	13165
2026-01-04 05:49:54.03	6.22	4.44	-39.9	-51.2	3.8	8.47e-01	0	50	104	0	50	13174
2026-01-04 05:49:55.04	6.14	4.49	-39.9	-51.2	3.8	8.46e-01	0	50	104	0	50	13145
2026-01-04 05:49:56.05	6.05	4.55	-39.9	-51.2	3.8	8.45e-01	0	50	104	0	50	13120
2026-01-04 05:49:57.07	5.96	4.61	-39.9	-51.2	3.8	8.46e-01	0	50	104	0	50	13137
2026-01-04 05:49:58.08	5.88	4.67	-39.9	-51.2	3.8	8.46e-01	0	50	104	0	50	13169
2026-01-04 05:49:59.09	5.79	4.72	-39.9	-51.2	3.8	8.48e-01	0	50	104	0	50	13137
2026-01-04 05:50:00.10	5.70	4.78	-39.9	-51.2	3.8	8.46e-01	0	50	104	0	50	13174
2026-01-04 05:50:01.11	5.61	4.84	-39.9	-51.2	3.8	8.45e-01	0	51	104	0	50	13169
2026-01-04 05:50:02.12	5.52	4.90	-39.9	-51.2	3.8	8.46e-01	0	50	104	0	50	13152
2026-01-04 05:50:03.13	5.43	4.96	-39.9	-51.2	3.8	8.46e-01	0	51	104	0	50	13153
2026-01-04 05:50:04.14	5.35	5.02	-39.9	-51.2	3.8	8.46e-01	0	51	104	0	50	13192
2026-01-04 05:50:05.15	5.26	5.07	-39.9	-51.2	3.8	8.47e-01	0	51	104	0	50	13167
2026-01-04 05:50:06.17	5.16	5.13	-39.9	-51.2	3.8	8.47e-01	0	51	104	0	50	13142
2026-01-04 05:50:07.18	5.07	5.19	-39.9	-51.2	3.8	8.46e-01	0	51	104	0	50	13144
2026-01-04 05:50:08.19	4.98	5.25	-39.9	-51.2	3.8	8.46e-01	0	51	104	0	50	13114
2026-01-04 05:50:09.20	4.89	5.31	-39.9	-51.2	3.8	8.45e-01	0	51	104	0	50	13145
2026-01-04 05:50:10.21	4.80	5.37	-39.9	-51.2	3.8	8.47e-01	0	51	104	0	50	13184
2026-01-04 05:50:11.22	4.71	5.42	-39.9	-51.2	3.8	8.46e-01	0	51	104	0	50	13157
2026-01-04 05:50:12.23	4.62	5.48	-39.9	-51.2	3.8	8.47e-01	0	51	104	0	50	13165
2026-01-04 05:50:13.24	4.52	5.54	-39.9	-51.2	3.8	8.46e-01	0	51	104	0	50	13115
2026-01-04 05:50:14.25	4.43	5.60	-39.9	-51.2	3.8	8.45e-01	0	51	104	0	50	13160
2026-01-04 05:50:15.26	4.34	5.66	-39.9	-51.2	3.8	8.47e-01	0	51	104	0	50	13131
2026-01-04 05:50:16.28	4.24	5.72	-39.9	-51.2	3.8	8.46e-01	0	51	104	0	50	13169
2026-01-04 05:50:17.29	4.15	5.78	-39.9	-51.2	3.8	8.45e-01	0	52	104	0	50	13154
2026-01-04 05:50:18.30	4.05	5.84	-39.9	-51.2	3.8	8.45e-01	0	51	104	0	50	13169
2026-01-04 05:50:19.31	3.96	5.90	-39.9	-51.2	3.8	8.46e-01	0	51	104	0	50	13113
2026-01-04 05:50:20.32	3.86	5.95	-39.9	-51.2	3.8	8.46e-01	0	52	104	0	50	13151
2026-01-04 05:50:21.33	3.77	6.01	-39.9	-51.2	3.8	8.46e-01	0	52	104	0	50	13149
2026-01-04 05:50:22.34	3.67	6.07	-39.9	-51.2	3.8	8.45e-01	0	52	104	0	50	13122
2026-01-04 05:50:23.35	3.57	6.13	-39.9	-51.2	3.8	8.46e-01	0	52	104	0	50	13130
2026-01-04 05:50:24.36	3.48	6.19	-39.9	-51.2	3.8	8.45e-01	0	52	104	0	50	13122
2026-01-04 05:50:25.37	3.38	6.25	-39.9	-51.2	3.8	8.47e-01	0	52	104	0	50	13161
2026-01-04 05:50:26.38	3.28	6.31	-39.9	-51.2	3.8	8.46e-01	0	52	104	0	50	13120
2026-01-04 05:50:27.40	3.18	6.37	-39.9	-51.2	3.8	8.46e-01	0	52	104	0	50	13164
2026-01-04 05:50:28.41	3.08	6.43	-39.9	-51.2	3.8	8.46e-01	0	52	104	0	50	13159
2026-01-04 05:50:29.42	2.99	6.49	-39.9	-51.2	3.8	8.46e-01	0	52	104	0	50	13137
2026-01-04 05:50:30.43	2.89	6.55	-39.9	-51.2	3.8	8.46e-01	0	52	104	0	50	13191
2026-01-04 05:50:31.44	2.79	6.61	-39.9	-51.2	3.8	8.47e-01	0	52	104	0	50	13144
2026-01-04 05:50:32.45	2.69	6.67	-39.9	-51.2	3.8	8.46e-01	0	52	104	0	50	13156
2026-01-04 05:50:33.46	2.58	6.73	-39.9	-51.2	3.8	8.46e-01	0	52	104	0	50	13125
2026-01-04 05:50:34.47	2.48	6.79	-39.9	-51.1	3.8	8.46e-01	0	52	104	0	50	13084
2026-01-04 05:50:35.48	2.38	6.85	-39.9	-51.2	3.8	8.45e-01	0	52	104	0	50	13162
2026-01-04 05:50:36.49	2.28	6.91	-39.9	-51.2	3.8	8.46e-01	0	52	104	0	50	13149
2026-01-04 05:50:37.51	2.18	6.97	-39.9	-51.1	3.8	8.47e-01	0	52	104	0	50	13099
2026-01-04 05:50:38.52	2.07	7.03	-39.9	-51.2	3.8	8.46e-01	0	52	104	0	50	13144
2026-01-04 05:50:39.53	1.97	7.09	-39.9	-51.1	3.8	8.46e-01	0	52	104	0	50	13099
2026-01-04 05:50:40.54	1.87	7.15	-39.9	-51.2	3.8	8.45e-01	0	52	104	0	50	13130
2026-01-04 05:50:41.55	1.76	7.21	-39.9	-51.2	3.8	8.46e-01	0	53	104	0	50	13233
2026-01-04 05:50:42.56	1.66	7.27	-39.9	-51.2	3.8	8.46e-01	0	52	104	0	50	13114
2026-01-04 05:50:43.57	1.55	7.33	-39.9	-51.2	3.8	8.46e-01	0	53	104	0	50	13110
2026-01-04 05:50:44.58	1.45	7.39	-39.9	-51.2	3.8	8.46e-01	0	53	104	0	50	13134
2026-01-04 05:50:45.60	1.34	7.45	-39.9	-51.2	3.8	8.45e-01	0	53	104	0	50	13144
2026-01-04 05:50:46.61	1.23	7.51	-39.8	-51.2	3.8	8.47e-01	0	53	104	0	50	13134
2026-01-04 05:50:47.62	1.12	7.57	-39.9	-51.2	3.8	8.45e-01	0	53	104	0	50	13116
2026-01-04 05:50:48.63	1.02	7.63	-39.9	-51.2	3.8	8.46e-01	0	53	104	0	50	13135
2026-01-04 05:50:49.64	0.91	7.69	-39.9	-51.2	3.8	8.46e-01	0	53	104	0	50	13150
2026-01-04 05:50:50.65	0.80	7.76	-39.9	-51.2	3.8	8.46e-01	0	53	104	0	50	13154
2026-01-04 05:50:51.66	0.69	7.82	-39.9	-51.2	3.8	8.46e-01	0	53	104	0	50	13136
2026-01-04 05:50:52.67	0.58	7.88	-39.9	-51.2	3.8	8.46e-01	0	53	104	0	50	13162
2026-01-04 05:50:53.68	0.47	7.94	-39.9	-51.2	3.8	8.46e-01	0	53	104	0	50	13146
2026-01-04 05:50:54.70	0.36	8.00	-39.9	-51.2	3.8	8.46e-01	0	53	104	0	50	13118
2026-01-04 05:50:55.71	0.25	8.06	-39.9	-51.2	3.8	8.45e-01	0	53	104	0	50	13221
2026-01-04 05:50:56.72	0.14	8.12	-39.9	-51.3	3.8	8.46e-01	0	53	104	0	50	13360
2026-01-04 05:50:57.73	0.03	8.18	-39.9	-51.3	3.8	8.46e-01	0	53	104	0	50	13316
2026-01-04 05:50:58.74	359.91	8.24	-39.9	-51.3	3.8	8.46e-01	0	53	104	0	50	13414
2026-01-04 05:50:59.75	359.80	8.30	-40.0	-51.3	3.8	8.46e-01	0	53	104	0	50	13316
2026-01-04 05:51:00.76	359.69	8.37	-39.9	-51.3	3.8	8.47e-01	0	53	104	0	50	13387
2026-01-04 05:51:01.77	359.57	8.43	-39.9	-51.3	3.8	8.46e-01	0	53	104	0	50	13368
2026-01-04 05:51:02.78	359.46	8.49	-39.9	-51.4	3.8	8.46e-01	0	53	104	0	50	13441
2026-01-04 05:51:03.79	359.35	8.55	-39.8	-51.3	3.8	8.46e-01	0	53	104	0	50	13326
2026-01-04 05:51:04.79	359.23	8.61	-39.8	-51.3	3.8	8.45e-01	0	54	104	0	50	13367
2026-01-04 05:51:05.80	359.12	8.67	-39.8	-51.2	3.8	8.46e-01	0	53	104	0	50	13199
2026-01-04 05:51:06.81	359.00	8.73	-39.6	-51.2	3.8	8.45e-01	0	53	104	0	50	13246
2026-01-04 05:51:07.82	358.88	8.79	-39.8	-51.3	3.8	8.46e-01	0	53	104	0	50	13340
2026-01-04 05:51:08.83	358.76	8.86	-39.5	-51.2	3.8	8.46e-01	0	53	104	0	50	13257
2026-01-04 05:51:09.84	358.65	8.92	-39.8	-51.3	3.8	8.46e-01	0	53	104	0	49	14073
2026-01-04 05:51:10.85	358.53	8.98	-39.8	-51.3	3.8	8.47e-01	0	53	104	0	49	14082
2026-01-04 05:51:11.86	358.41	9.04	-39.1	-51.1	3.8	8.46e-01	0	54	104	0	49	13881
2026-01-04 05:51:12.87	358.29	9.10	-39.9	-51.2	3.8	8.47e-01	0	54	104	0	49	14037
2026-01-04 05:51:13.88	358.17	9.16	-38.8	-51.1	3.8	8.47e-01	0	53	104	0	48	14663
2026-01-04 05:51:14.89	358.05	9.22	-39.4	-51.3	3.8	8.46e-01	0	53	104	0	48	14888
2026-01-04 05:51:15.90	357.93	9.29	-39.6	-51.2	3.8	8.46e-01	0	54	104	0	48	14778
2026-01-04 05:51:16.91	357.81	9.35	-39.5	-51.2	3.8	8.46e-01	0	54	104	0	48	14858
2026-01-04 05:51:17.92	357.69	9.41	-39.5	-51.2	3.8	8.47e-01	0	54	104	0	48	14805
2026-01-04 05:51:18.93	357.56	9.47	-39.9	-51.3	3.8	8.46e-01	0	54	104	0	49	14185
2026-01-04 05:51:19.94	357.44	9.53	-39.3	-51.1	3.8	8.46e-01	0	54	104	0	49	13857
2026-01-04 05:51:20.95	357.32	9.60	-39.8	-51.3	3.8	8.45e-01	0	54	104	0	49	14158
2026-01-04 05:51:21.96	357.19	9.66	-39.6	-51.1	3.8	8.45e-01	0	54	104	0	49	13845
2026-01-04 05:51:22.97	357.07	9.72	-39.3	-51.2	3.8	8.45e-01	0	54	104	0	49	13952
2026-01-04 05:51:23.98	356.94	9.78	-39.4	-51.2	3.8	8.46e-01	0	54	104	0	49	14020
2026-01-04 05:51:24.99	356.82	9.84	-39.4	-51.2	3.8	8.46e-01	0	54	104	0	49	13991
2026-01-04 05:51:26.00	356.69	9.90	-39.4	-51.2	3.8	8.46e-01	0	54	104	0	49	14046
2026-01-04 05:51:27.01	356.56	9.97	-39.9	-51.2	3.8	8.47e-01	0	54	104	0	49	14038
2026-01-04 05:51:28.02	356.44	10.03	-39.8	-51.2	3.8	8.45e-01	0	54	104	0	49	13900
2026-01-04 05:51:29.03	356.31	10.09	-40.0	-51.2	3.8	8.44e-01	0	54	104	0	49	14043
2026-01-04 05:51:30.04	356.18	10.15	-39.8	-51.2	3.8	8.47e-01	0	54	104	0	49	13944
2026-01-04 05:51:31.05	356.05	10.21	-40.2	-51.3	3.8	8.47e-01	0	54	104	0	49	14148
2026-01-04 05:51:32.06	355.92	10.28	-39.3	-51.2	3.8	8.46e-01	0	54	104	0	49	13924
2026-01-04 05:51:33.07	355.79	10.34	-40.2	-51.4	3.8	8.46e-01	0	54	104	0	49	14230
2026-01-04 05:51:34.08	355.66	10.40	-39.3	-51.2	3.8	8.45e-01	0	54	104	0	49	13949
2026-01-04 05:51:35.09	355.53	10.46	-40.2	-51.4	3.8	8.46e-01	0	54	104	0	50	13493
2026-01-04 05:51:36.10	355.40	10.52	-40.1	-51.3	3.8	8.47e-01	0	54	104	0	50	13265
2026-01-04 05:51:37.11	355.26	10.59	-40.3	-51.5	3.8	8.46e-01	0	54	104	0	50	13626
2026-01-04 05:51:38.12	355.13	10.65	-40.2	-51.2	3.8	8.46e-01	0	54	104	0	50	13258
2026-01-04 05:51:39.13	355.00	10.71	-40.3	-51.4	3.8	8.45e-01	0	54	104	0	50	13502
2026-01-04 05:51:40.14	354.86	10.77	-40.1	-51.3	3.8	8.46e-01	0	54	104	0	50	13341
2026-01-04 05:51:41.15	354.73	10.83	-40.2	-51.4	3.8	8.47e-01	0	54	104	0	50	13468
2026-01-04 05:51:42.16	354.59	10.90	-40.2	-51.3	3.8	8.46e-01	0	54	104	0	50	13402
2026-01-04 05:51:43.17	354.46	10.96	-40.5	-51.6	3.8	8.46e-01	0	54	104	0	50	13777
2026-01-04 05:51:44.18	354.32	11.02	-40.2	-51.3	3.8	8.47e-01	0	54	104	0	50	13318
2026-01-04 05:51:45.19	354.18	11.08	-40.5	-51.6	3.8	8.46e-01	0	54	104	0	50	13786
2026-01-04 05:51:46.20	354.05	11.15	-40.2	-51.3	3.8	8.47e-01	0	54	104	0	50	13384
2026-01-04 05:51:47.21	353.91	11.21	-40.1	-51.6	3.8	8.47e-01	0	54	104	0	50	13807
2026-01-04 05:51:48.22	353.77	11.27	-40.3	-51.4	3.8	8.47e-01	0	54	104	0	50	13493
2026-01-04 05:51:49.23	353.63	11.33	-40.1	-51.8	3.8	8.46e-01	0	54	104	0	50	14072
2026-01-04 05:51:50.25	353.49	11.39	-40.3	-51.4	3.8	8.45e-01	0	55	104	0	50	13538
2026-01-04 05:51:51.26	353.35	11.46	-40.2	-51.6	3.8	8.46e-01	0	54	104	0	50	13870
2026-01-04 05:51:52.26	353.21	11.52	-40.3	-51.5	3.8	8.46e-01	0	54	104	0	50	13653
2026-01-04 05:51:53.27	353.06	11.58	-40.2	-51.7	3.8	8.46e-01	0	55	104	0	50	14038
2026-01-04 05:51:54.28	352.92	11.64	-40.5	-51.7	3.8	8.47e-01	0	55	104	0	50	13901
2026-01-04 05:51:55.29	352.78	11.70	-40.7	-52.0	3.8	8.47e-01	0	54	104	0	51	13695
2026-01-04 05:51:56.30	352.63	11.77	-40.1	-51.7	3.8	8.47e-01	0	55	104	0	51	13164
2026-01-04 05:51:57.31	352.49	11.83	-40.8	-52.0	3.8	8.46e-01	0	55	104	0	51	13644
2026-01-04 05:51:58.32	352.34	11.89	-40.2	-51.8	3.8	8.46e-01	0	54	104	0	51	13314
2026-01-04 05:51:59.33	352.20	11.95	-40.6	-51.9	3.8	8.46e-01	0	55	104	0	51	13510
2026-01-04 05:52:00.34	352.05	12.01	-40.8	-51.9	3.8	8.46e-01	0	54	104	0	51	13443
2026-01-04 05:52:01.35	351.90	12.07	-40.8	-51.9	3.8	8.47e-01	0	55	104	0	51	13513
2026-01-04 05:52:02.36	351.76	12.14	-40.9	-51.9	3.8	8.47e-01	0	55	104	0	51	13456
2026-01-04 05:52:03.37	351.61	12.20	-40.9	-51.9	3.8	8.47e-01	0	55	104	0	51	13539
2026-01-04 05:52:04.38	351.46	12.26	-40.9	-51.9	3.8	8.46e-01	0	55	104	0	51	13519
2026-01-04 05:52:05.39	351.31	12.32	-41.0	-52.0	3.8	8.46e-01	0	55	104	0	51	13596
2026-01-04 05:52:06.40	351.16	12.38	-40.8	-51.9	3.8	8.45e-01	0	55	104	0	51	13488
2026-01-04 05:52:07.41	351.01	12.44	-40.9	-51.9	3.8	8.45e-01	0	55	104	0	51	13549
2026-01-04 05:52:08.42	350.86	12.51	-41.0	-52.0	3.8	8.47e-01	0	55	104	0	51	13676
2026-01-04 05:52:09.43	350.71	12.57	-41.0	-52.0	3.8	8.46e-01	0	55	104	0	51	13714
2026-01-04 05:52:10.43	350.55	12.63	-40.9	-52.0	3.8	8.47e-01	0	55	104	0	51	13724
2026-01-04 05:52:11.44	350.40	12.69	-40.9	-52.0	3.8	8.46e-01	0	55	104	0	51	13701
2026-01-04 05:52:12.45	350.25	12.75	-40.9	-52.0	3.8	8.46e-01	0	55	104	0	51	13693
2026-01-04 05:52:13.46	350.09	12.81	-40.8	-52.0	3.8	8.47e-01	0	55	104	0	51	13693
2026-01-04 05:52:14.47	349.94	12.87	-41.0	-52.1	3.8	8.46e-01	0	55	104	0	51	13769
2026-01-04 05:52:15.48	349.78	12.94	-40.9	-52.0	3.8	8.47e-01	0	55	104	0	51	13716
2026-01-04 05:52:16.49	349.62	13.00	-40.8	-52.0	3.8	8.46e-01	0	55	104	0	51	13625
2026-01-04 05:52:17.50	349.47	13.06	-40.9	-52.1	3.8	8.46e-01	0	55	104	0	51	13744
2026-01-04 05:52:18.51	349.31	13.12	-41.0	-52.2	3.8	8.46e-01	0	55	104	0	51	14042
2026-01-04 05:52:19.53	349.15	13.18	-40.9	-52.1	3.8	8.46e-01	0	55	104	0	52	13097
2026-01-04 05:52:20.54	348.99	13.24	-41.0	-52.2	3.8	8.46e-01	0	55	104	0	52	13165
2026-01-04 05:52:21.55	348.83	13.30	-41.2	-52.3	3.8	8.46e-01	0	55	104	0	52	13318
2026-01-04 05:52:22.56	348.67	13.36	-41.0	-52.1	3.8	8.47e-01	0	55	104	0	52	13074
2026-01-04 05:52:23.57	348.51	13.42	-41.4	-52.4	3.8	8.46e-01	0	55	104	0	52	13514
2026-01-04 05:52:24.57	348.34	13.48	-41.4	-52.4	3.8	8.46e-01	0	55	104	0	52	13484
2026-01-04 05:52:25.59	348.18	13.54	-41.5	-52.4	3.8	8.47e-01	0	55	104	0	52	13553
2026-01-04 05:52:26.59	348.02	13.60	-41.5	-52.5	3.8	8.47e-01	0	55	104	0	52	13661
2026-01-04 05:52:27.60	347.85	13.66	-41.5	-52.5	3.8	8.47e-01	0	55	104	0	52	13658
2026-01-04 05:52:28.61	347.69	13.72	-41.5	-52.5	3.8	8.46e-01	0	55	104	0	52	13675
2026-01-04 05:52:29.62	347.52	13.78	-41.5	-52.5	3.8	8.46e-01	0	55	104	0	52	13634
2026-01-04 05:52:30.63	347.36	13.85	-41.6	-52.6	3.8	8.46e-01	0	55	104	0	52	13742
2026-01-04 05:52:31.64	347.19	13.91	-41.5	-52.5	3.8	8.46e-01	0	55	104	0	52	13650
2026-01-04 05:52:32.65	347.02	13.96	-41.6	-52.6	3.8	8.45e-01	0	55	104	0	52	13858
2026-01-04 05:52:33.66	346.85	14.02	-41.5	-52.4	3.8	8.47e-01	0	55	104	0	53	12797
2026-01-04 05:52:34.67	346.69	14.08	-41.4	-52.3	3.8	8.47e-01	0	55	104	0	53	12646
2026-01-04 05:52:35.68	346.52	14.14	-41.6	-52.6	3.8	8.46e-01	0	55	104	0	53	12998
2026-01-04 05:52:36.69	346.35	14.20	-41.4	-52.4	3.8	8.46e-01	0	55	104	0	53	12694
2026-01-04 05:52:37.70	346.17	14.26	-41.6	-52.5	3.8	8.46e-01	0	55	104	0	53	12958
2026-01-04 05:52:38.71	346.00	14.32	-41.7	-52.7	3.8	8.45e-01	0	55	104	0	53	13257
2026-01-04 05:52:39.72	345.83	14.38	-41.1	-52.1	3.8	8.46e-01	0	55	104	0	53	12287
2026-01-04 05:52:40.73	345.66	14.44	-41.4	-52.3	3.8	8.45e-01	0	55	104	0	53	12645
2026-01-04 05:52:41.74	345.48	14.50	-41.0	-52.0	3.8	8.46e-01	0	55	104	0	52	12882
2026-01-04 05:52:42.75	345.31	14.56	-40.9	-52.1	3.8	8.47e-01	0	55	104	0	52	13016
2026-01-04 05:52:43.76	345.13	14.62	-41.1	-52.2	3.8	8.46e-01	0	55	104	0	52	13126
2026-01-04 05:52:44.77	344.96	14.68	-41.0	-52.2	3.8	8.46e-01	0	55	104	0	52	13221
2026-01-04 05:52:45.78	344.78	14.73	-41.0	-52.1	3.8	8.46e-01	0	55	104	0	52	13009
2026-01-04 05:52:46.79	344.60	14.79	-41.1	-52.3	3.8	8.45e-01	0	55	104	0	52	13366
2026-01-04 05:52:47.80	344.42	14.85	-41.0	-52.1	3.8	8.47e-01	0	55	104	0	52	13094
2026-01-04 05:52:48.81	344.25	14.91	-41.2	-52.3	3.8	8.46e-01	0	55	104	0	52	13382
2026-01-04 05:52:49.82	344.07	14.97	-40.9	-52.1	3.8	8.46e-01	0	55	104	0	52	12988
2026-01-04 05:52:50.83	343.89	15.02	-40.9	-52.1	3.8	8.46e-01	0	55	104	0	52	12980
2026-01-04 05:52:51.84	343.70	15.08	-41.0	-52.2	3.8	8.47e-01	0	55	104	0	52	13208
2026-01-04 05:52:52.85	343.52	15.14	-41.0	-52.1	3.8	8.46e-01	0	56	104	0	52	13069
2026-01-04 05:52:53.86	343.34	15.20	-41.0	-52.1	3.8	8.47e-01	0	56	104	0	52	13104
2026-01-04 05:52:54.87	343.16	15.25	-40.9	-52.0	3.8	8.46e-01	0	55	104	0	52	12888
2026-01-04 05:52:55.88	342.97	15.31	-40.9	-52.0	3.8	8.46e-01	0	55	104	0	52	12959
2026-01-04 05:52:56.89	342.79	15.37	-40.9	-52.0	3.8	8.46e-01	0	55	104	0	52	12951
2026-01-04 05:52:57.90	342.60	15.42	-41.0	-52.0	3.8	8.46e-01	0	55	104	0	52	12889
2026-01-04 05:52:58.92	342.42	15.48	-40.9	-51.9	3.8	8.46e-01	0	56	104	0	52	12746
2026-01-04 05:52:59.93	342.23	15.54	-41.0	-52.1	3.8	8.45e-01	0	56	104	0	52	13053
2026-01-04 05:53:00.93	342.04	15.59	-40.8	-51.9	3.8	8.47e-01	0	56	104	0	52	12728
2026-01-04 05:53:01.94	341.85	15.65	-41.1	-52.1	3.8	8.45e-01	0	56	104	0	52	13056
2026-01-04 05:53:02.96	341.66	15.70	-40.6	-51.9	3.8	8.46e-01	0	56	104	0	52	12790
2026-01-04 05:53:03.97	341.47	15.76	-40.7	-51.8	3.8	8.46e-01	0	55	104	0	52	12556
2026-01-04 05:53:04.98	341.28	15.81	-40.5	-51.8	3.8	8.46e-01	0	55	104	0	52	12659
2026-01-04 05:53:05.99	341.09	15.87	-40.7	-51.8	3.8	8.47e-01	0	56	104	0	52	12549
2026-01-04 05:53:07.00	340.90	15.92	-40.9	-51.6	3.8	8.46e-01	0	56	104	0	52	12313
2026-01-04 05:53:08.01	340.71	15.98	-40.8	-51.9	3.8	8.46e-01	0	56	104	0	52	12703
2026-01-04 05:53:09.02	340.52	16.03	-41.1	-50.8	3.8	8.45e-01	0	56	104	0	52	11271
2026-01-04 05:53:10.03	340.32	16.09	-40.8	-51.9	3.8	8.46e-01	0	56	104	0	52	12712
2026-01-04 05:53:11.04	340.13	16.14	-41.4	-52.0	3.8	8.46e-01	0	56	104	0	52	12820
2026-01-04 05:53:12.05	339.93	16.20	-41.9	-51.4	3.8	8.42e-01	0	56	104	0	53	11399
2026-01-04 05:53:13.06	339.74	16.25	-40.9	-46.7	5.5	7.74e-01	0	56	0	0	52	6960
2026-01-04 05:53:14.07	339.54	16.30	-40.8	-45.4	7.1	1.91e-01	0	56	0	6291456	52	6003
2026-01-04 05:53:15.08	339.34	16.36	-40.6	-44.6	8.1	8.07e-02	0	56	0	13631488	52	5466
2026-01-04 05:53:16.09	339.14	16.41	-40.3	-43.7	9.3	2.80e-02	0	56	0	20971520	51	5255
2026-01-04 05:53:17.10	338.94	16.46	-39.6	-42.4	10.8	4.97e-03	0	56	0	28311552	50	4766
2026-01-04 05:53:18.11	338.74	16.51	-38.8	-41.2	12.1	3.54e-04	0	56	0	35651584	48	4657
2026-01-04 05:53:19.12	338.54	16.57	-37.5	-40.0	13.3	3.31e-05	0	56	0	42991616	46	4574
2026-01-04 05:53:20.14	338.34	16.62	-37.6	-39.5	13.8	4.50e-06	0	56	0	50331648	46	4330
2026-01-04 05:53:21.15	338.14	16.67	-37.4	-39.2	14.1	1.10e-06	0	56	0	57671680	45	4439
2026-01-04 05:53:22.15	337.94	16.72	-37.0	-38.6	14.8	0.00e+00	0	56	0	65011712	45	4141
2026-01-04 05:53:23.17	337.73	16.77	-36.6	-38.1	15.4	0.00e+00	0	56	0	72351744	44	4143
2026-01-04 05:53:24.18	337.53	16.82	-36.9	-38.6	15.1	0.00e+00	0	56	0	79691776	44	4348
2026-01-04 05:53:25.19	337.33	16.88	-37.0	-38.6	15.2	0.00e+00	0	56	0	87031808	44	4349
2026-01-04 05:53:26.20	337.12	16.93	-36.6	-38.1	15.7	0.00e+00	0	56	0	94371840	44	4104
2026-01-04 05:53:27.21	336.91	16.98	-36.6	-38.1	15.8	0.00e+00	0	56	0	100663296	44	4121
2026-01-04 05:53:28.22	336.71	17.03	-36.0	-37.4	16.4	0.00e+00	0	56	0	109051904	43	4014
2026-01-04 05:53:29.23	336.50	17.08	-35.6	-36.9	17.0	0.00e+00	0	56	0	116391936	42	4008
2026-01-04 05:53:30.24	336.29	17.12	-35.7	-37.1	16.9	0.00e+00	0	56	0	122683392	42	4103
2026-01-04 05:53:31.25	336.08	17.17	-35.4	-36.6	17.3	0.00e+00	0	56	0	130023424	41	4145
2026-01-04 05:53:32.26	335.87	17.22	-35.5	-36.8	17.2	0.00e+00	0	56	0	137363456	41	4200
2026-01-04 05:53:33.27	335.66	17.27	-35.4	-36.7	17.3	0.00e+00	0	56	0	144703488	41	4169
2026-01-04 05:53:34.28	335.45	17.32	-35.6	-36.9	17.2	0.00e+00	0	56	0	152043520	41	4256
2026-01-04 05:53:35.29	335.24	17.37	-35.4	-36.6	17.5	0.00e+00	0	56	0	159383552	41	4124
2026-01-04 05:53:36.30	335.03	17.41	-35.2	-36.4	17.7	0.00e+00	0	56	0	166723584	41	4016
2026-01-04 05:53:37.31	334.82	17.46	-35.2	-36.5	17.7	0.00e+00	0	56	0	174063616	41	4058
2026-01-04 05:53:38.32	334.60	17.51	-35.3	-36.5	17.7	0.00e+00	0	56	0	181403648	41	4076
2026-01-04 05:53:39.33	334.39	17.56	-35.1	-36.3	17.8	0.00e+00	0	56	0	188743680	41	4001
2026-01-04 05:53:40.34	334.17	17.60	-35.2	-36.4	17.7	0.00e+00	0	56	0	196083712	41	4046
2026-01-04 05:53:41.35	333.96	17.65	-35.2	-36.4	17.8	0.00e+00	0	56	0	203423744	41	4045
2026-01-04 05:53:42.37	333.74	17.69	-35.3	-36.5	17.7	0.00e+00	0	56	0	210763776	41	4072
2026-01-04 05:53:43.38	333.52	17.74	-35.2	-36.4	17.8	0.00e+00	0	56	0	218103808	41	4047
2026-01-04 05:53:44.39	333.31	17.78	-35.2	-36.5	17.8	0.00e+00	0	56	0	225443840	41	4054
2026-01-04 05:53:45.40	333.09	17.83	-35.3	-36.5	17.7	0.00e+00	0	56	0	232783872	41	4081
2026-01-04 05:53:46.41	332.87	17.87	-35.4	-36.6	17.6	0.00e+00	0	56	0	240123904	41	4117
2026-01-04 05:53:47.42	332.65	17.92	-35.4	-36.6	17.7	0.00e+00	0	56	0	247463936	41	4126
2026-01-04 05:53:48.43	332.43	17.96	-35.3	-36.5	17.7	0.00e+00	0	56	0	254803968	41	4092
2026-01-04 05:53:49.44	332.21	18.00	-35.3	-36.5	17.7	0.00e+00	0	56	0	262144000	41	4085
2026-01-04 05:53:50.45	331.99	18.05	-35.3	-36.5	17.8	0.00e+00	0	56	0	269484032	41	4079
2026-01-04 05:53:51.46	331.76	18.09	-35.2	-36.4	17.9	0.00e+00	0	56	0	275775488	41	4044
2026-01-04 05:53:52.47	331.54	18.13	-35.1	-36.3	18.0	0.00e+00	0	56	0	284164096	41	3976
2026-01-04 05:53:53.48	331.32	18.17	-35.0	-36.2	18.1	0.00e+00	0	56	0	290455552	41	3932
2026-01-04 05:53:54.49	331.09	18.21	-35.0	-36.2	18.1	0.00e+00	0	56	0	297795584	41	3945
2026-01-04 05:53:55.50	330.87	18.25	-34.9	-36.1	18.2	0.00e+00	0	56	0	305135616	40	4126
2026-01-04 05:53:56.51	330.64	18.29	-35.0	-36.1	18.2	0.00e+00	0	56	0	312475648	40	4144
2026-01-04 05:53:57.52	330.42	18.33	-35.0	-36.1	18.2	0.00e+00	0	56	0	319815680	40	4136
2026-01-04 05:53:58.53	330.19	18.37	-35.0	-36.2	18.2	0.00e+00	0	56	0	327155712	40	4147
2026-01-04 05:53:59.54	329.97	18.41	-35.0	-36.2	18.2	0.00e+00	0	56	0	334495744	40	4146
2026-01-04 05:54:00.55	329.74	18.45	-34.9	-36.0	18.3	0.00e+00	0	56	0	341835776	40	4094
2026-01-04 05:54:01.56	329.51	18.49	-34.9	-36.1	18.3	0.00e+00	0	56	0	349175808	40	4107
2026-01-04 05:54:02.57	329.28	18.53	-34.9	-36.0	18.3	0.00e+00	0	56	0	356515840	40	4092
2026-01-04 05:54:03.58	329.05	18.57	-34.9	-36.0	18.3	0.00e+00	0	56	0	363855872	40	4092
2026-01-04 05:54:04.59	328.82	18.60	-34.8	-36.0	18.4	0.00e+00	0	56	0	371195904	40	4074
2026-01-04 05:54:05.60	328.59	18.64	-34.9	-36.0	18.3	0.00e+00	0	56	0	378535936	40	4083
2026-01-04 05:54:06.61	328.36	18.68	-34.9	-36.1	18.3	0.00e+00	0	56	0	385875968	40	4119
2026-01-04 05:54:07.62	328.13	18.71	-34.8	-36.0	18.4	0.00e+00	0	56	0	393216000	40	4060
2026-01-04 05:54:08.63	327.90	18.75	-34.8	-35.9	18.4	0.00e+00	0	56	0	400556032	40	4045
2026-01-04 05:54:09.64	327.66	18.78	-34.8	-35.9	18.4	0.00e+00	0	56	0	407896064	40	4035
2026-01-04 05:54:10.65	327.43	18.82	-34.7	-35.8	18.5	0.00e+00	0	56	0	415236096	40	3991
2026-01-04 05:54:11.66	327.20	18.85	-34.7	-35.8	18.5	0.00e+00	0	56	0	421527552	40	3996
2026-01-04 05:54:12.67	326.96	18.89	-34.6	-35.7	18.7	0.00e+00	0	56	0	429916160	40	3935
2026-01-04 05:54:13.68	326.73	18.92	-34.6	-35.7	18.7	0.00e+00	0	56	0	437256192	40	3930
2026-01-04 05:54:14.69	326.49	18.95	-34.6	-35.7	18.7	0.00e+00	0	56	0	443547648	40	3934
2026-01-04 05:54:15.70	326.26	18.98	-34.6	-35.7	18.7	0.00e+00	0	56	0	450887680	40	3929
2026-01-04 05:54:16.71	326.02	19.02	-34.6	-35.7	18.7	0.00e+00	0	56	0	458227712	40	3927
2026-01-04 05:54:17.72	325.78	19.05	-34.6	-35.7	18.7	0.00e+00	0	56	0	465567744	40	3934
2026-01-04 05:54:18.73	325.55	19.08	-34.6	-35.8	18.6	0.00e+00	0	56	0	472907776	40	3964
2026-01-04 05:54:19.74	325.31	19.11	-34.7	-35.8	18.6	0.00e+00	0	56	0	480247808	40	3985
2026-01-04 05:54:20.75	325.07	19.14	-34.7	-35.9	18.5	0.00e+00	0	56	0	487587840	40	4014
2026-01-04 05:54:21.76	324.83	19.17	-34.8	-35.9	18.5	0.00e+00	0	56	0	494927872	40	4043
2026-01-04 05:54:22.77	324.59	19.20	-34.9	-36.0	18.4	0.00e+00	0	56	0	502267904	40	4081
2026-01-04 05:54:23.78	324.35	19.23	-34.9	-36.1	18.3	0.00e+00	0	56	0	509607936	40	4103
2026-01-04 05:54:24.79	324.11	19.25	-34.9	-36.0	18.3	0.00e+00	0	56	0	516947968	40	4096
2026-01-04 05:54:25.80	323.87	19.28	-34.9	-36.1	18.3	0.00e+00	0	56	0	524288000	40	4099
2026-01-04 05:54:26.81	323.63	19.31	-34.8	-36.0	18.4	0.00e+00	0	56	0	531628032	40	4067
2026-01-04 05:54:27.82	323.39	19.34	-34.8	-36.0	18.4	0.00e+00	0	56	0	538968064	40	4070
2026-01-04 05:54:28.83	323.15	19.36	-34.8	-36.0	18.4	0.00e+00	0	56	0	546308096	40	4072
2026-01-04 05:54:29.84	322.90	19.39	-34.8	-35.9	18.4	0.00e+00	0	56	0	553648128	40	4050
2026-01-04 05:54:30.85	322.66	19.41	-34.9	-36.0	18.4	0.00e+00	0	56	0	560988160	40	4091
2026-01-04 05:54:31.86	322.42	19.44	-34.8	-35.9	18.4	0.00e+00	0	56	0	568328192	40	4043
2026-01-04 05:54:32.87	322.17	19.46	-34.7	-35.9	18.5	0.00e+00	0	56	0	575668224	40	4019
2026-01-04 05:54:33.88	321.93	19.48	-34.7	-35.8	18.6	0.00e+00	0	56	0	583008256	40	4004
2026-01-04 05:54:34.89	321.68	19.51	-34.6	-35.7	18.6	0.00e+00	0	56	0	590348288	40	3957
2026-01-04 05:54:35.90	321.44	19.53	-34.6	-35.7	18.6	0.00e+00	0	56	0	596639744	40	3954
2026-01-04 05:54:36.91	321.19	19.55	-34.6	-35.7	18.7	0.00e+00	0	56	0	603979776	40	3931
2026-01-04 05:54:37.92	320.95	19.57	-34.6	-35.7	18.7	0.00e+00	0	56	0	612368384	40	3939
2026-01-04 05:54:38.93	320.70	19.59	-34.5	-35.6	18.8	0.00e+00	0	56	0	618659840	40	3894
2026-01-04 05:54:39.94	320.46	19.61	-34.6	-35.7	18.7	0.00e+00	0	56	0	625999872	40	3934
2026-01-04 05:54:40.95	320.21	19.63	-34.6	-35.7	18.7	0.00e+00	0	56	0	633339904	40	3942
2026-01-04 05:54:41.96	319.96	19.65	-34.7	-35.8	18.6	0.00e+00	0	56	0	640679936	40	3980
2026-01-04 05:54:42.97	319.72	19.67	-34.7	-35.9	18.5	0.00e+00	0	56	0	648019968	40	4015
2026-01-04 05:54:43.98	319.47	19.69	-34.7	-35.8	18.5	0.00e+00	0	56	0	655360000	40	4001
2026-01-04 05:54:44.99	319.22	19.71	-34.7	-35.8	18.6	0.00e+00	0	56	0	662700032	40	4002
2026-01-04 05:54:46.00	318.97	19.73	-34.7	-35.8	18.6	0.00e+00	0	56	0	670040064	40	3995
2026-01-04 05:54:47.01	318.73	19.74	-34.6	-35.7	18.7	0.00e+00	0	56	0	677380096	40	3936
2026-01-04 05:54:48.02	318.48	19.76	-34.5	-35.6	18.8	0.00e+00	0	56	0	684720128	40	3911
2026-01-04 05:54:49.03	318.23	19.77	-34.5	-35.7	18.7	0.00e+00	0	56	0	692060160	40	3917
2026-01-04 05:54:50.04	317.98	19.79	-34.6	-35.7	18.7	0.00e+00	0	56	0	699400192	40	3952
2026-01-04 05:54:51.05	317.73	19.80	-34.6	-35.7	18.7	0.00e+00	0	56	0	706740224	40	3953
2026-01-04 05:54:52.06	317.48	19.82	-34.6	-35.7	18.7	0.00e+00	0	56	0	714080256	40	3942
2026-01-04 05:54:53.07	317.23	19.83	-34.6	-35.7	18.7	0.00e+00	0	56	0	721420288	40	3948
2026-01-04 05:54:54.08	316.98	19.84	-34.5	-35.7	18.7	0.00e+00	0	57	0	728760320	40	3922
2026-01-04 05:54:55.09	316.73	19.85	-34.5	-35.6	18.8	0.00e+00	0	56	0	736100352	40	3912
2026-01-04 05:54:56.10	316.48	19.87	-34.6	-35.7	18.7	0.00e+00	0	56	0	742391808	40	3936
2026-01-04 05:54:57.11	316.23	19.88	-34.6	-35.8	18.6	0.00e+00	0	56	0	749731840	40	3966
2026-01-04 05:54:58.12	315.98	19.89	-34.7	-35.8	18.6	0.00e+00	0	56	0	758120448	40	3992
2026-01-04 05:54:59.13	315.73	19.90	-34.6	-35.8	18.6	0.00e+00	0	56	0	764411904	40	3965
2026-01-04 05:55:00.14	315.48	19.91	-34.7	-35.8	18.6	0.00e+00	0	56	0	771751936	40	3974
2026-01-04 05:55:01.15	315.22	19.91	-34.6	-35.7	18.7	0.00e+00	0	56	0	779091968	40	3953
2026-01-04 05:55:02.16	314.97	19.92	-34.5	-35.7	18.7	0.00e+00	0	56	0	786432000	40	3916
2026-01-04 05:55:03.17	314.72	19.93	-34.5	-35.6	18.8	0.00e+00	0	57	0	793772032	40	3898
2026-01-04 05:55:04.18	314.47	19.94	-34.6	-35.7	18.8	0.00e+00	0	57	0	801112064	39	4154
2026-01-04 05:55:05.19	314.22	19.94	-34.6	-35.7	18.8	0.00e+00	0	56	0	808452096	39	4150
2026-01-04 05:55:06.20	313.97	19.95	-34.6	-35.7	18.7	0.00e+00	0	56	0	815792128	39	4190
2026-01-04 05:55:07.21	313.71	19.95	-34.5	-35.6	18.8	0.00e+00	0	57	0	823132160	39	4141
2026-01-04 05:55:08.22	313.46	19.96	-34.5	-35.6	18.9	0.00e+00	0	57	0	830472192	39	4137
2026-01-04 05:55:09.23	313.21	19.96	-34.5	-35.6	18.9	0.00e+00	0	57	0	837812224	39	4132
2026-01-04 05:55:10.24	312.96	19.97	-34.5	-35.6	18.9	0.00e+00	0	56	0	845152256	39	4114
2026-01-04 05:55:11.25	312.71	19.97	-34.5	-35.6	18.9	0.00e+00	0	56	0	852492288	39	4103
2026-01-04 05:55:12.26	312.45	19.97	-34.5	-35.6	18.9	0.00e+00	0	56	0	859832320	39	4121
2026-01-04 05:55:13.28	312.20	19.97	-34.5	-35.6	18.9	0.00e+00	0	57	0	867172352	39	4133
2026-01-04 05:55:14.29	311.95	19.97	-34.5	-35.6	18.9	0.00e+00	0	56	0	874512384	39	4141
2026-01-04 05:55:15.30	311.69	19.97	-34.5	-35.6	18.8	0.00e+00	0	56	0	881852416	39	4143
2026-01-04 05:55:16.31	311.44	19.97	-34.5	-35.6	18.8	0.00e+00	0	56	0	889192448	39	4130
2026-01-04 05:55:17.32	311.19	19.97	-34.5	-35.6	18.9	0.00e+00	0	56	0	896532480	39	4139
2026-01-04 05:55:18.33	310.94	19.97	-34.5	-35.6	18.9	0.00e+00	0	57	0	903872512	39	4129
2026-01-04 05:55:19.34	310.68	19.97	-34.5	-35.6	18.9	0.00e+00	0	57	0	911212544	39	4124
2026-01-04 05:55:20.35	310.43	19.97	-34.5	-35.6	18.9	0.00e+00	0	57	0	917504000	39	4124
2026-01-04 05:55:21.36	310.18	19.97	-34.5	-35.7	18.8	0.00e+00	0	56	0	924844032	39	4150
2026-01-04 05:55:22.37	309.93	19.96	-34.6	-35.7	18.8	0.00e+00	0	56	0	933232640	39	4158
2026-01-04 05:55:23.38	309.67	19.96	-34.6	-35.7	18.8	0.00e+00	0	56	0	939524096	39	4178
2026-01-04 05:55:24.39	309.42	19.95	-34.6	-35.7	18.8	0.00e+00	0	56	0	946864128	39	4156
2026-01-04 05:55:25.40	309.17	19.95	-34.5	-35.6	18.9	0.00e+00	0	57	0	954204160	39	4120
2026-01-04 05:55:26.41	308.92	19.94	-34.5	-35.6	18.9	0.00e+00	0	56	0	961544192	39	4109
2026-01-04 05:55:27.41	308.67	19.94	-34.5	-35.6	18.9	0.00e+00	0	56	0	968884224	39	4116
2026-01-04 05:55:28.42	308.42	19.93	-34.5	-35.6	18.9	0.00e+00	0	56	0	976224256	39	4126
2026-01-04 05:55:29.43	308.17	19.92	-34.6	-35.7	18.8	0.00e+00	0	57	0	983564288	39	4176
2026-01-04 05:55:30.45	307.91	19.91	-34.6	-35.7	18.8	0.00e+00	0	57	0	990904320	39	4187
2026-01-04 05:55:31.45	307.66	19.90	-34.6	-35.7	18.7	0.00e+00	0	56	0	998244352	39	4179
2026-01-04 05:55:32.46	307.41	19.90	-34.6	-35.7	18.8	0.00e+00	0	56	0	1005584384	39	4174
2026-01-04 05:55:33.47	307.16	19.89	-34.6	-35.7	18.8	0.00e+00	0	57	0	1012924416	39	4166
2026-01-04 05:55:34.48	306.91	19.87	-34.5	-35.7	18.8	0.00e+00	0	56	0	1020264448	39	4147
2026-01-04 05:55:35.49	306.66	19.86	-34.5	-35.6	18.9	0.00e+00	0	57	0	1027604480	39	4121
2026-01-04 05:55:36.50	306.41	19.85	-34.4	-35.5	19.0	0.00e+00	0	56	0	1034944512	39	4055
2026-01-04 05:55:37.51	306.16	19.84	-34.4	-35.5	19.0	0.00e+00	0	56	0	1041235968	39	4058
2026-01-04 05:55:38.52	305.91	19.83	-34.4	-35.6	18.9	0.00e+00	0	56	0	1049624576	39	4102
2026-01-04 05:55:39.53	305.66	19.81	-34.5	-35.7	18.8	0.00e+00	0	56	0	1056964608	39	4148
2026-01-04 05:55:40.54	305.41	19.80	-34.6	-35.7	18.7	0.00e+00	0	57	0	1063256064	39	4191
2026-01-04 05:55:41.55	305.16	19.79	-34.6	-35.7	18.8	0.00e+00	0	56	0	1070596096	39	4180
2026-01-04 05:55:42.56	304.91	19.77	-34.6	-35.8	18.7	0.00e+00	0	56	0	1077936128	39	4199
2026-01-04 05:55:43.57	304.66	19.76	-34.6	-35.7	18.8	0.00e+00	0	57	0	1085276160	39	4177
2026-01-04 05:55:44.58	304.41	19.74	-34.6	-35.7	18.8	0.00e+00	0	57	0	1092616192	39	4153
2026-01-04 05:55:45.59	304.16	19.72	-34.5	-35.6	18.8	0.00e+00	0	57	0	1099956224	39	4141
2026-01-04 05:55:46.60	303.91	19.71	-34.4	-35.5	18.9	0.00e+00	0	57	0	1107296256	39	4091
2026-01-04 05:55:47.61	303.66	19.69	-34.4	-35.4	19.0	0.00e+00	0	57	0	1114636288	39	4049
2026-01-04 05:55:48.62	303.42	19.67	-34.3	-35.4	19.0	0.00e+00	0	57	0	1121976320	39	4046
2026-01-04 05:55:49.63	303.17	19.65	-34.4	-35.5	19.0	0.00e+00	0	57	0	1129316352	39	4056
2026-01-04 05:55:50.64	302.92	19.63	-34.4	-35.5	18.9	0.00e+00	0	57	0	1136656384	39	4090
2026-01-04 05:55:51.65	302.68	19.61	-34.5	-35.6	18.8	0.00e+00	0	57	0	1143996416	39	4128
2026-01-04 05:55:52.66	302.43	19.59	-34.6	-35.8	18.7	0.00e+00	0	57	0	1151336448	39	4206
2026-01-04 05:55:53.67	302.18	19.57	-34.7	-35.8	18.7	0.00e+00	0	57	0	1158676480	39	4206
2026-01-04 05:55:54.68	301.94	19.55	-34.7	-35.9	18.6	0.00e+00	0	57	0	1166016512	39	4249
2026-01-04 05:55:55.69	301.69	19.53	-34.6	-35.8	18.7	0.00e+00	0	57	0	1173356544	39	4201
2026-01-04 05:55:56.70	301.45	19.50	-34.5	-35.7	18.8	0.00e+00	0	57	0	1180696576	39	4151
2026-01-04 05:55:57.71	301.20	19.48	-34.5	-35.6	18.9	0.00e+00	0	57	0	1188036608	39	4113
2026-01-04 05:55:58.72	300.96	19.46	-34.4	-35.6	18.9	0.00e+00	0	57	0	1195376640	39	4103
2026-01-04 05:55:59.73	300.71	19.43	-34.5	-35.6	18.9	0.00e+00	0	57	0	1202716672	39	4107
2026-01-04 05:56:00.74	300.47	19.41	-34.5	-35.6	18.9	0.00e+00	0	57	0	1210056704	39	4115
2026-01-04 05:56:01.75	300.23	19.38	-34.6	-35.7	18.8	0.00e+00	0	57	0	1216348160	39	4155
2026-01-04 05:56:02.76	299.98	19.36	-34.6	-35.7	18.7	0.00e+00	0	57	0	1223688192	39	4174
2026-01-04 05:56:03.77	299.74	19.33	-34.6	-35.7	18.7	0.00e+00	0	56	0	1231028224	39	4193
2026-01-04 05:56:04.77	299.50	19.30	-34.7	-35.8	18.6	0.00e+00	0	57	0	1238368256	39	4218
2026-01-04 05:56:05.78	299.26	19.28	-34.6	-35.8	18.7	0.00e+00	0	57	0	1245708288	39	4195
2026-01-04 05:56:06.79	299.02	19.25	-34.7	-35.8	18.6	0.00e+00	0	57	0	1253048320	39	4211
2026-01-04 05:56:07.80	298.78	19.22	-34.7	-35.8	18.6	0.00e+00	0	56	0	1260388352	39	4222
2026-01-04 05:56:08.81	298.54	19.19	-34.5	-35.6	18.8	0.00e+00	0	57	0	1267728384	39	4133
2026-01-04 05:56:09.82	298.30	19.16	-34.5	-35.6	18.8	0.00e+00	0	57	0	1275068416	39	4126
2026-01-04 05:56:10.83	298.06	19.13	-34.5	-35.6	18.8	0.00e+00	0	56	0	1282408448	39	4117
2026-01-04 05:56:11.84	297.82	19.10	-34.4	-35.5	18.9	0.00e+00	0	57	0	1289748480	39	4075
2026-01-04 05:56:12.85	297.58	19.07	-34.5	-35.6	18.8	0.00e+00	0	57	0	1297088512	39	4108
2026-01-04 05:56:13.86	297.34	19.04	-34.5	-35.7	18.7	0.00e+00	0	57	0	1304428544	39	4150
2026-01-04 05:56:14.87	297.11	19.01	-34.7	-35.8	18.6	0.00e+00	0	57	0	1311768576	39	4212
2026-01-04 05:56:15.88	296.87	18.98	-34.6	-35.7	18.7	0.00e+00	0	57	0	1319108608	39	4159
2026-01-04 05:56:16.89	296.63	18.95	-34.6	-35.8	18.6	0.00e+00	0	57	0	1326448640	39	4202
2026-01-04 05:56:17.90	296.40	18.91	-34.6	-35.8	18.6	0.00e+00	0	57	0	1333788672	39	4199
2026-01-04 05:56:18.91	296.16	18.88	-34.6	-35.7	18.7	0.00e+00	0	57	0	1340080128	39	4184
2026-01-04 05:56:19.92	295.93	18.85	-34.6	-35.7	18.7	0.00e+00	0	57	0	1348468736	39	4158
2026-01-04 05:56:20.93	295.69	18.81	-34.5	-35.6	18.7	0.00e+00	0	57	0	1355808768	39	4140
2026-01-04 05:56:21.94	295.46	18.78	-34.5	-35.6	18.8	0.00e+00	0	57	0	1362100224	39	4139
2026-01-04 05:56:22.95	295.22	18.74	-34.6	-35.7	18.7	0.00e+00	0	57	0	1369440256	39	4168
2026-01-04 05:56:23.96	294.99	18.71	-34.7	-35.9	18.5	0.00e+00	0	57	0	1376780288	39	4258
2026-01-04 05:56:24.97	294.76	18.67	-34.9	-36.1	18.3	0.00e+00	0	57	0	1384120320	39	4351
2026-01-04 05:56:25.98	294.53	18.63	-35.0	-36.2	18.2	0.00e+00	0	57	0	1391460352	39	4416
2026-01-04 05:56:26.98	294.30	18.60	-34.9	-36.1	18.2	0.00e+00	0	57	0	1398800384	39	4356
2026-01-04 05:56:27.99	294.07	18.56	-35.0	-36.2	18.1	0.00e+00	0	57	0	1406140416	40	4168
2026-01-04 05:56:29.00	293.84	18.52	-35.1	-36.3	18.1	0.00e+00	0	57	0	1413480448	40	4194
2026-01-04 05:56:30.01	293.61	18.48	-35.1	-36.3	18.0	0.00e+00	0	57	0	1420820480	40	4204
2026-01-04 05:56:31.02	293.38	18.44	-35.1	-36.3	18.1	0.00e+00	0	57	0	1428160512	40	4202
2026-01-04 05:56:32.03	293.15	18.41	-35.0	-36.2	18.1	0.00e+00	0	57	0	1435500544	40	4155
2026-01-04 05:56:33.04	292.92	18.37	-34.9	-36.1	18.2	0.00e+00	0	57	0	1442840576	40	4124
2026-01-04 05:56:34.05	292.70	18.33	-34.9	-36.0	18.3	0.00e+00	0	57	0	1450180608	40	4097
2026-01-04 05:56:35.06	292.47	18.29	-34.8	-36.0	18.3	0.00e+00	0	57	0	1457520640	40	4070
2026-01-04 05:56:36.07	292.25	18.25	-34.8	-36.0	18.3	0.00e+00	0	57	0	1464860672	40	4067
2026-01-04 05:56:37.08	292.02	18.20	-34.8	-36.0	18.3	0.00e+00	0	57	0	1472200704	40	4082
2026-01-04 05:56:38.09	291.80	18.16	-34.9	-36.1	18.2	0.00e+00	0	57	0	1479540736	40	4112
2026-01-04 05:56:39.10	291.57	18.12	-34.9	-36.1	18.2	0.00e+00	0	57	0	1486880768	40	4099
2026-01-04 05:56:40.10	291.35	18.08	-35.0	-36.2	18.1	0.00e+00	0	57	0	1493172224	40	4176
2026-01-04 05:56:41.12	291.13	18.04	-35.0	-36.2	18.0	0.00e+00	0	57	0	1501560832	40	4193
2026-01-04 05:56:42.13	290.90	17.99	-35.0	-36.2	18.1	0.00e+00	0	57	0	1508900864	40	4158
2026-01-04 05:56:43.14	290.68	17.95	-35.0	-36.2	18.1	0.00e+00	0	57	0	1515192320	40	4162
2026-01-04 05:56:44.15	290.46	17.91	-35.0	-36.2	18.1	0.00e+00	0	57	0	1522532352	40	4181
2026-01-04 05:56:45.16	290.24	17.86	-35.0	-36.2	18.1	0.00e+00	0	57	0	1529872384	40	4176
2026-01-04 05:56:46.17	290.02	17.82	-35.0	-36.2	18.1	0.00e+00	0	57	0	1537212416	40	4172
2026-01-04 05:56:47.18	289.80	17.77	-35.1	-36.3	18.0	0.00e+00	0	57	0	1544552448	40	4197
2026-01-04 05:56:48.19	289.58	17.73	-35.0	-36.1	18.1	0.00e+00	0	57	0	1551892480	40	4138
2026-01-04 05:56:49.20	289.37	17.68	-35.0	-36.2	18.1	0.00e+00	0	57	0	1559232512	40	4164
2026-01-04 05:56:50.20	289.15	17.64	-35.0	-36.2	18.1	0.00e+00	0	57	0	1566572544	40	4153
2026-01-04 05:56:51.22	288.93	17.59	-35.0	-36.2	18.1	0.00e+00	0	57	0	1573912576	40	4174
2026-01-04 05:56:52.22	288.72	17.55	-35.0	-36.2	18.1	0.00e+00	0	57	0	1581252608	40	4170
2026-01-04 05:56:53.23	288.50	17.50	-35.0	-36.2	18.1	0.00e+00	0	57	0	1588592640	40	4154
2026-01-04 05:56:54.24	288.29	17.45	-35.0	-36.2	18.1	0.00e+00	0	57	0	1595932672	40	4172
2026-01-04 05:56:55.25	288.08	17.40	-35.0	-36.2	18.0	0.00e+00	0	57	0	1603272704	40	4174
2026-01-04 05:56:56.26	287.86	17.36	-35.1	-36.3	17.9	0.00e+00	0	57	0	1610612736	40	4221
2026-01-04 05:56:57.27	287.65	17.31	-35.1	-36.3	17.9	0.00e+00	0	57	0	1617952768	40	4237
2026-01-04 05:56:58.28	287.44	17.26	-35.2	-36.5	17.8	0.00e+00	0	57	0	1625292800	40	4305
2026-01-04 05:56:59.29	287.23	17.21	-35.1	-36.3	17.9	0.00e+00	0	57	0	1632632832	40	4216
2026-01-04 05:57:00.30	287.02	17.16	-35.1	-36.3	18.0	0.00e+00	0	57	0	1638924288	40	4202
2026-01-04 05:57:01.31	286.81	17.11	-35.1	-36.3	17.9	0.00e+00	0	57	0	1646264320	40	4219
2026-01-04 05:57:02.32	286.60	17.06	-35.1	-36.2	18.0	0.00e+00	0	57	0	1654652928	40	4181
2026-01-04 05:57:03.33	286.39	17.01	-35.0	-36.1	18.1	0.00e+00	0	57	0	1660944384	40	4142
2026-01-04 05:57:04.34	286.18	16.96	-35.0	-36.1	18.1	0.00e+00	0	56	0	1668284416	40	4135
2026-01-04 05:57:05.35	285.98	16.91	-35.0	-36.2	18.0	0.00e+00	0	57	0	1675624448	40	4176
2026-01-04 05:57:06.36	285.77	16.86	-35.0	-36.2	18.0	0.00e+00	0	57	0	1682964480	40	4173
2026-01-04 05:57:07.37	285.57	16.81	-35.1	-36.3	17.9	0.00e+00	0	57	0	1690304512	40	4210
2026-01-04 05:57:08.38	285.36	16.76	-35.1	-36.3	17.9	0.00e+00	0	57	0	1697644544	40	4221
2026-01-04 05:57:09.39	285.16	16.71	-35.1	-36.3	17.9	0.00e+00	0	57	0	1704984576	40	4229
2026-01-04 05:57:10.40	284.95	16.66	-35.2	-36.4	17.8	0.00e+00	0	57	0	1712324608	40	4275
2026-01-04 05:57:11.41	284.75	16.61	-35.2	-36.4	17.7	0.00e+00	0	57	0	1719664640	40	4289
2026-01-04 05:57:12.42	284.55	16.55	-35.1	-36.3	17.9	0.00e+00	0	57	0	1727004672	40	4217
2026-01-04 05:57:13.43	284.35	16.50	-35.1	-36.3	17.9	0.00e+00	0	57	0	1734344704	40	4194
2026-01-04 05:57:14.44	284.15	16.45	-35.1	-36.3	17.9	0.00e+00	0	57	0	1741684736	40	4214
2026-01-04 05:57:15.45	283.95	16.40	-35.1	-36.3	17.9	0.00e+00	0	57	0	1749024768	40	4212
2026-01-04 05:57:16.46	283.75	16.34	-35.2	-36.4	17.8	0.00e+00	0	57	0	1756364800	40	4250
2026-01-04 05:57:17.46	283.55	16.29	-35.1	-36.3	17.8	0.00e+00	0	57	0	1763704832	40	4220
2026-01-04 05:57:18.47	283.35	16.24	-35.1	-36.3	17.8	0.00e+00	0	57	0	1771044864	40	4223
2026-01-04 05:57:19.48	283.16	16.18	-35.1	-36.3	17.9	0.00e+00	0	57	0	1778384896	40	4233
2026-01-04 05:57:20.50	282.96	16.13	-35.2	-36.5	17.7	0.00e+00	0	57	0	1785724928	40	4300
2026-01-04 05:57:21.50	282.77	16.07	-35.3	-36.5	17.6	0.00e+00	0	57	0	1792016384	40	4335
2026-01-04 05:57:22.51	282.57	16.02	-35.4	-36.7	17.5	0.00e+00	0	57	0	1799356416	40	4406
2026-01-04 05:57:23.52	282.38	15.96	-35.6	-36.8	17.3	0.00e+00	0	57	0	1807745024	40	4480
2026-01-04 05:57:24.53	282.18	15.91	-35.6	-36.9	17.2	0.00e+00	0	57	0	1814036480	40	4518
2026-01-04 05:57:25.54	281.99	15.85	-35.7	-36.9	17.2	0.00e+00	0	57	0	1821376512	40	4533
2026-01-04 05:57:26.55	281.80	15.80	-35.7	-37.0	17.2	0.00e+00	0	57	0	1828716544	41	4315
2026-01-04 05:57:27.56	281.61	15.74	-35.8	-37.1	17.0	0.00e+00	0	57	0	1836056576	41	4366
2026-01-04 05:57:28.57	281.42	15.69	-35.7	-37.0	17.1	0.00e+00	0	57	0	1843396608	41	4314
2026-01-04 05:57:29.58	281.23	15.63	-35.5	-36.8	17.3	0.00e+00	0	57	0	1850736640	41	4206
2026-01-04 05:57:30.59	281.04	15.58	-35.7	-36.9	17.2	0.00e+00	0	57	0	1858076672	41	4291
2026-01-04 05:57:31.60	280.85	15.52	-35.7	-36.9	17.2	0.00e+00	0	57	0	1865416704	41	4286
2026-01-04 05:57:32.61	280.66	15.46	-35.6	-36.8	17.3	0.00e+00	0	57	0	1872756736	41	4234
2026-01-04 05:57:33.62	280.48	15.41	-35.5	-36.7	17.4	0.00e+00	0	57	0	1880096768	41	4168
2026-01-04 05:57:34.62	280.29	15.35	-35.4	-36.6	17.4	0.00e+00	0	57	0	1887436800	41	4145
2026-01-04 05:57:35.63	280.11	15.29	-35.5	-36.7	17.4	0.00e+00	0	57	0	1894776832	41	4193
2026-01-04 05:57:36.64	279.92	15.24	-35.6	-36.8	17.3	0.00e+00	0	57	0	1902116864	41	4233
2026-01-04 05:57:37.65	279.74	15.18	-35.6	-36.9	17.2	0.00e+00	0	57	0	1909456896	41	4268
2026-01-04 05:57:38.67	279.55	15.12	-35.8	-37.1	17.0	0.00e+00	0	57	0	1915748352	41	4373
2026-01-04 05:57:39.67	279.37	15.06	-35.8	-37.1	17.0	0.00e+00	0	57	0	1924136960	41	4350
2026-01-04 05:57:40.69	279.19	15.01	-35.9	-37.2	16.9	0.00e+00	0	57	0	1931476992	41	4433
2026-01-04 05:57:41.69	279.01	14.95	-35.8	-37.1	17.0	0.00e+00	0	57	0	1937768448	41	4374
2026-01-04 05:57:42.70	278.83	14.89	-35.9	-37.2	16.9	0.00e+00	0	57	0	1945108480	41	4406
2026-01-04 05:57:43.72	278.64	14.83	-35.9	-37.2	16.9	0.00e+00	0	57	0	1953497088	41	4409
2026-01-04 05:57:44.73	278.47	14.77	-35.9	-37.2	16.8	0.00e+00	0	57	0	1959788544	41	4438
2026-01-04 05:57:45.74	278.29	14.71	-35.9	-37.2	16.9	0.00e+00	0	57	0	1967128576	41	4407
2026-01-04 05:57:46.75	278.11	14.66	-35.9	-37.2	16.9	0.00e+00	0	57	0	1974468608	41	4412
2026-01-04 05:57:47.76	277.93	14.60	-35.9	-37.3	16.8	0.00e+00	0	57	0	1981808640	41	4442
2026-01-04 05:57:48.77	277.76	14.54	-35.9	-37.3	16.8	0.00e+00	0	57	0	1989148672	41	4451
2026-01-04 05:57:49.78	277.58	14.48	-35.7	-37.0	17.0	0.00e+00	0	57	0	1996488704	41	4329
2026-01-04 05:57:50.78	277.41	14.42	-35.8	-37.1	17.0	0.00e+00	0	57	0	2003828736	41	4346
2026-01-04 05:57:51.79	277.23	14.36	-35.8	-37.1	17.0	0.00e+00	0	57	0	2011168768	41	4354
2026-01-04 05:57:52.80	277.06	14.30	-35.8	-37.1	17.0	0.00e+00	0	57	0	2018508800	41	4358
2026-01-04 05:57:53.81	276.89	14.24	-35.8	-37.1	17.0	0.00e+00	0	57	0	2025848832	41	4372
2026-01-04 05:57:54.82	276.71	14.18	-35.8	-37.1	16.9	0.00e+00	0	57	0	2033188864	41	4377
2026-01-04 05:57:55.83	276.54	14.12	-35.8	-37.1	17.0	0.00e+00	0	57	0	2040528896	41	4363
2026-01-04 05:57:56.84	276.37	14.06	-35.7	-37.0	17.1	0.00e+00	0	57	0	2047868928	41	4297
2026-01-04 05:57:57.85	276.20	14.00	-35.8	-37.1	17.0	0.00e+00	0	57	0	2055208960	41	4357
2026-01-04 05:57:58.85	276.03	13.94	-35.8	-37.1	16.9	0.00e+00	0	57	0	2062548992	41	4367
2026-01-04 05:57:59.86	275.87	13.88	-35.9	-37.2	16.9	0.00e+00	0	57	0	2068840448	41	4411
2026-01-04 05:58:00.87	275.70	13.82	-35.8	-37.1	16.9	0.00e+00	0	57	0	2077229056	41	4391
2026-01-04 05:58:01.88	275.53	13.76	-35.9	-37.2	16.8	0.00e+00	0	57	0	2084569088	41	4415
2026-01-04 05:58:02.89	275.36	13.70	-35.9	-37.2	16.9	0.00e+00	0	57	0	2090860544	41	4405
2026-01-04 05:58:03.90	275.20	13.64	-35.8	-37.2	16.9	0.00e+00	0	57	0	2098200576	41	4395
2026-01-04 05:58:04.91	275.03	13.58	-35.9	-37.2	16.8	0.00e+00	0	57	0	2105540608	41	4407
2026-01-04 05:58:05.92	274.87	13.52	-35.9	-37.2	16.8	0.00e+00	0	57	0	2112880640	41	4421
2026-01-04 05:58:06.93	274.70	13.46	-36.0	-37.3	16.7	0.00e+00	0	57	0	2120220672	41	4485
2026-01-04 05:58:07.94	274.54	13.40	-35.9	-37.2	16.8	0.00e+00	0	57	0	2127560704	41	4425
2026-01-04 05:58:08.95	274.38	13.34	-35.9	-37.3	16.7	0.00e+00	0	57	0	2134900736	41	4464
2026-01-04 05:58:09.96	274.22	13.28	-35.9	-37.2	16.8	0.00e+00	0	57	0	2142240768	41	4421
2026-01-04 05:58:10.97	274.06	13.22	-36.0	-37.3	16.7	0.00e+00	0	57	0	2149580800	41	4477
2026-01-04 05:58:11.98	273.90	13.15	-35.9	-37.2	16.7	0.00e+00	0	57	0	2156920832	41	4441
2026-01-04 05:58:12.99	273.74	13.09	-36.0	-37.4	16.6	0.00e+00	0	57	0	2164260864	41	4497
2026-01-04 05:58:14.00	273.58	13.03	-36.0	-37.4	16.6	0.00e+00	0	57	0	2171600896	41	4497
2026-01-04 05:58:15.01	273.42	12.97	-36.1	-37.4	16.5	0.00e+00	0	57	0	2178940928	41	4526
2026-01-04 05:58:16.02	273.26	12.91	-36.1	-37.5	16.5	0.00e+00	0	57	0	2186280960	41	4557
2026-01-04 05:58:17.04	273.10	12.85	-36.2	-37.6	16.3	0.00e+00	0	57	0	2193620992	42	4386
2026-01-04 05:58:18.05	272.95	12.79	-36.3	-37.7	16.3	0.00e+00	0	57	0	2200961024	42	4405
2026-01-04 05:58:19.06	272.79	12.72	-36.2	-37.6	16.4	0.00e+00	0	57	0	2208301056	42	4349
2026-01-04 05:58:20.06	272.64	12.66	-36.3	-37.7	16.3	0.00e+00	0	57	0	2214592512	42	4393
2026-01-04 05:58:21.07	272.48	12.60	-36.3	-37.8	16.2	0.00e+00	0	57	0	2222981120	42	4444
2026-01-04 05:58:22.08	272.33	12.54	-36.4	-37.9	16.1	0.00e+00	0	57	0	2230321152	42	4508
2026-01-04 05:58:23.10	272.17	12.48	-36.5	-38.0	16.0	0.00e+00	0	57	0	2236612608	42	4560
2026-01-04 05:58:24.10	272.02	12.42	-36.4	-37.8	16.1	0.00e+00	0	57	0	2243952640	42	4466
2026-01-04 05:58:25.11	271.87	12.35	-36.4	-37.8	16.1	0.00e+00	0	57	0	2251292672	42	4489
2026-01-04 05:58:26.12	271.72	12.29	-36.5	-37.9	16.0	0.00e+00	0	57	0	2258632704	42	4519
2026-01-04 05:58:27.13	271.57	12.23	-36.5	-37.9	16.0	0.00e+00	0	57	0	2265972736	42	4544
2026-01-04 05:58:28.14	271.42	12.17	-36.2	-37.6	16.2	0.00e+00	0	57	0	2273312768	42	4387
2026-01-04 05:58:29.15	271.27	12.11	-36.1	-37.5	16.4	0.00e+00	0	57	0	2280652800	42	4312
2026-01-04 05:58:30.16	271.12	12.04	-36.0	-37.4	16.4	0.00e+00	0	57	0	2287992832	42	4276
2026-01-04 05:58:31.17	270.97	11.98	-36.0	-37.4	16.5	0.00e+00	0	57	0	2295332864	42	4252
2026-01-04 05:58:32.18	270.82	11.92	-36.0	-37.4	16.5	0.00e+00	0	57	0	2302672896	42	4246
2026-01-04 05:58:33.19	270.68	11.86	-36.1	-37.4	16.4	0.00e+00	0	57	0	2310012928	42	4286
2026-01-04 05:58:34.20	270.53	11.80	-36.2	-37.6	16.3	0.00e+00	0	57	0	2317352960	42	4351
2026-01-04 05:58:35.21	270.39	11.73	-36.2	-37.6	16.2	0.00e+00	0	57	0	2324692992	42	4363
2026-01-04 05:58:36.22	270.24	11.67	-36.3	-37.7	16.1	0.00e+00	0	57	0	2332033024	42	4433
2026-01-04 05:58:37.23	270.10	11.61	-36.4	-37.9	15.9	0.00e+00	0	57	0	2339373056	42	4501
2026-01-04 05:58:38.24	269.95	11.55	-36.5	-37.9	15.8	0.00e+00	0	57	0	2346713088	42	4539
2026-01-04 05:58:39.25	269.81	11.49	-36.6	-38.1	15.7	0.00e+00	0	57	0	2354053120	42	4611
2026-01-04 05:58:40.26	269.67	11.42	-36.6	-38.1	15.6	0.00e+00	0	57	0	2361393152	42	4625
2026-01-04 05:58:41.27	269.53	11.36	-36.6	-38.1	15.7	0.00e+00	0	57	0	2368733184	42	4623
2026-01-04 05:58:42.28	269.38	11.30	-36.5	-38.0	15.8	0.00e+00	0	57	0	2376073216	42	4568
2026-01-04 05:58:43.29	269.24	11.24	-36.4	-37.8	15.9	0.00e+00	0	57	0	2383413248	42	4477
2026-01-04 05:58:44.30	269.10	11.17	-36.4	-37.9	15.8	0.00e+00	0	57	0	2389704704	42	4527
2026-01-04 05:58:45.31	268.96	11.11	-36.4	-37.8	15.8	0.00e+00	0	57	0	2397044736	42	4490
2026-01-04 05:58:46.32	268.83	11.05	-36.4	-37.9	15.8	0.00e+00	0	57	0	2405433344	42	4519
2026-01-04 05:58:47.33	268.69	10.99	-36.4	-37.9	15.8	0.00e+00	0	57	0	2411724800	42	4518
2026-01-04 05:58:48.34	268.55	10.92	-36.5	-38.0	15.7	0.00e+00	0	57	0	2419064832	42	4574
2026-01-04 05:58:49.35	268.41	10.86	-36.5	-38.0	15.7	0.00e+00	0	57	0	2426404864	42	4562
2026-01-04 05:58:50.36	268.28	10.80	-36.6	-38.2	15.6	0.00e+00	0	57	0	2433744896	42	4661
2026-01-04 05:58:51.37	268.14	10.74	-36.6	-38.1	15.6	0.00e+00	0	57	0	2441084928	42	4619
2026-01-04 05:58:52.38	268.00	10.68	-36.5	-38.0	15.7	0.00e+00	0	57	0	2448424960	42	4556
2026-01-04 05:58:53.39	267.87	10.61	-36.6	-38.1	15.6	0.00e+00	0	57	0	2455764992	42	4617
2026-01-04 05:58:54.40	267.74	10.55	-36.3	-37.8	15.8	0.00e+00	0	57	0	2463105024	42	4451
2026-01-04 05:58:55.41	267.60	10.49	-36.4	-37.9	15.7	0.00e+00	0	57	0	2470445056	42	4496
2026-01-04 05:58:56.41	267.47	10.43	-36.2	-37.7	15.9	0.00e+00	0	57	0	2477785088	42	4414
2026-01-04 05:58:57.42	267.34	10.36	-36.3	-37.8	15.8	0.00e+00	0	57	0	2485125120	42	4446
2026-01-04 05:58:58.43	267.21	10.30	-36.2	-37.7	15.9	0.00e+00	0	57	0	2492465152	42	4404
2026-01-04 05:58:59.44	267.08	10.24	-36.2	-37.6	15.9	0.00e+00	0	57	0	2499805184	42	4380
2026-01-04 05:59:00.45	266.94	10.18	-36.2	-37.6	15.9	0.00e+00	0	57	0	2507145216	42	4366
2026-01-04 05:59:01.46	266.81	10.12	-36.4	-37.9	15.6	0.00e+00	0	57	0	2513436672	42	4494
2026-01-04 05:59:02.47	266.68	10.05	-36.2	-37.7	15.8	0.00e+00	0	57	0	2521825280	42	4410
2026-01-04 05:59:03.48	266.56	9.99	-36.4	-37.9	15.6	0.00e+00	0	57	0	2529165312	42	4510
2026-01-04 05:59:04.49	266.43	9.93	-36.3	-37.9	15.6	0.00e+00	0	57	0	2535456768	42	4495
2026-01-04 05:59:05.51	266.30	9.87	-36.5	-38.0	15.4	0.00e+00	0	57	0	2542796800	42	4594
2026-01-04 05:59:06.52	266.17	9.80	-36.6	-38.1	15.3	0.00e+00	0	57	0	2551185408	42	4636
2026-01-04 05:59:07.53	266.04	9.74	-36.6	-38.1	15.3	0.00e+00	0	57	0	2557476864	42	4649
2026-01-04 05:59:08.54	265.92	9.68	-36.4	-38.0	15.4	0.00e+00	0	57	0	2564816896	42	4566
2026-01-04 05:59:09.55	265.79	9.62	-36.6	-38.2	15.2	0.00e+00	0	57	0	2572156928	42	4679
2026-01-04 05:59:10.56	265.67	9.56	-36.6	-38.2	15.2	0.00e+00	0	57	0	2579496960	42	4669
2026-01-04 05:59:11.57	265.54	9.49	-36.6	-38.3	15.1	0.00e+00	0	57	0	2586836992	42	4707
2026-01-04 05:59:12.58	265.42	9.43	-36.7	-38.3	15.0	0.00e+00	0	57	0	2594177024	43	4483
2026-01-04 05:59:13.59	265.29	9.37	-36.8	-38.5	14.8	0.00e+00	0	57	0	2601517056	43	4549
2026-01-04 05:59:14.60	265.17	9.31	-36.7	-38.4	14.9	0.00e+00	0	57	0	2608857088	43	4508
2026-01-04 05:59:15.61	265.05	9.25	-36.9	-38.5	14.7	1.10e-06	0	57	0	2616197120	43	4587
2026-01-04 05:59:16.62	264.93	9.18	-37.0	-38.7	14.6	1.10e-06	0	57	0	2623537152	43	4665
2026-01-04 05:59:17.63	264.81	9.12	-37.0	-38.7	14.6	0.00e+00	0	57	0	2630877184	43	4678
2026-01-04 05:59:18.64	264.69	9.06	-36.9	-38.6	14.7	1.10e-06	0	57	0	2638217216	43	4619
2026-01-04 05:59:19.64	264.57	9.00	-37.1	-38.8	14.5	1.10e-06	0	57	0	2645557248	43	4734
2026-01-04 05:59:20.65	264.45	8.94	-37.2	-39.0	14.3	0.00e+00	0	57	0	2652897280	43	4817
2026-01-04 05:59:21.67	264.33	8.87	-37.5	-39.3	14.1	2.20e-06	0	57	0	2660237312	44	4709
2026-01-04 05:59:22.67	264.21	8.81	-37.6	-39.4	14.0	3.40e-06	0	57	0	2667577344	44	4790
2026-01-04 05:59:23.69	264.09	8.75	-37.6	-39.4	14.0	4.50e-06	0	57	0	2674917376	44	4800
2026-01-04 05:59:24.69	263.97	8.69	-37.6	-39.4	14.1	0.00e+00	0	57	0	2682257408	44	4764
2026-01-04 05:59:25.70	263.85	8.63	-37.5	-39.3	14.1	2.20e-06	0	57	0	2688548864	44	4737
2026-01-04 05:59:26.71	263.74	8.57	-37.5	-39.3	14.2	1.10e-06	0	57	0	2695888896	44	4707
2026-01-04 05:59:27.72	263.62	8.51	-37.5	-39.3	14.2	3.40e-06	0	57	0	2704277504	44	4728
2026-01-04 05:59:28.73	263.51	8.44	-37.3	-39.0	14.4	1.10e-06	0	57	0	2710568960	44	4557
2026-01-04 05:59:29.74	263.39	8.38	-37.3	-39.0	14.4	0.00e+00	0	57	0	2717908992	44	4583
2026-01-04 05:59:30.75	263.28	8.32	-37.2	-38.9	14.6	0.00e+00	0	57	0	2725249024	44	4513
2026-01-04 05:59:31.77	263.16	8.26	-37.2	-38.9	14.6	0.00e+00	0	57	0	2732589056	44	4520
2026-01-04 05:59:32.77	263.05	8.20	-37.1	-38.8	14.6	1.10e-06	0	57	0	2739929088	44	4463
2026-01-04 05:59:33.79	262.93	8.14	-37.1	-38.8	14.7	0.00e+00	0	57	0	2747269120	44	4455
2026-01-04 05:59:34.80	262.82	8.08	-37.1	-38.8	14.7	0.00e+00	0	57	0	2754609152	44	4477
2026-01-04 05:59:35.81	262.71	8.01	-37.1	-38.8	14.7	0.00e+00	0	57	0	2761949184	44	4454
2026-01-04 05:59:36.82	262.60	7.95	-44.4	-54.9	3.8	7.12e-03	0	57	104	2768240640	58	12675
2026-01-04 05:59:37.83	262.48	7.89	-44.9	-55.7	3.8	8.45e-01	0	57	104	2768240640	59	13158
2026-01-04 05:59:38.84	262.37	7.83	-45.2	-55.9	3.8	8.46e-01	0	57	104	2768240640	59	13516
2026-01-04 05:59:39.85	262.26	7.77	-45.2	-56.3	3.8	8.46e-01	0	57	104	2768240640	60	13294
2026-01-04 05:59:40.86	262.15	7.71	-45.3	-56.4	3.8	8.47e-01	0	57	104	2768240640	60	13502
2026-01-04 05:59:41.87	262.04	7.65	-45.4	-56.4	3.8	8.47e-01	0	57	104	2768240640	60	13547
2026-01-04 05:59:42.88	261.93	7.59	-45.4	-56.5	3.8	8.47e-01	0	57	104	2768240640	60	13585
2026-01-04 05:59:43.89	261.83	7.53	-45.4	-56.5	3.8	8.45e-01	0	57	104	2768240640	60	13679
2026-01-04 05:59:44.90	261.72	7.47	-45.4	-56.5	3.8	8.46e-01	0	57	104	2768240640	60	13612
2026-01-04 05:59:45.91	261.61	7.40	-45.4	-56.5	3.8	8.46e-01	0	57	104	2768240640	60	13622
2026-01-04 05:59:46.92	261.50	7.34	-45.4	-56.5	3.8	8.45e-01	0	57	104	2768240640	60	13649
2026-01-04 05:59:47.93	261.40	7.28	-45.4	-56.5	3.8	8.45e-01	0	57	104	2768240640	60	13606
2026-01-04 05:59:48.94	261.29	7.22	-45.4	-56.5	3.8	8.46e-01	0	57	104	2768240640	60	13624
2026-01-04 05:59:49.96	261.18	7.16	-45.4	-56.5	3.8	8.47e-01	0	57	104	2768240640	60	13620
2026-01-04 05:59:50.97	261.08	7.10	-45.4	-56.5	3.8	8.46e-01	0	57	104	2768240640	60	13579
2026-01-04 05:59:51.98	260.97	7.04	-45.4	-56.6	3.8	8.46e-01	0	57	104	2768240640	60	13727
2026-01-04 05:59:52.99	260.87	6.98	-45.4	-56.5	3.8	8.46e-01	0	57	104	2768240640	60	13668
2026-01-04 05:59:54.00	260.76	6.92	-45.4	-56.5	3.8	8.46e-01	0	57	104	2768240640	60	13625
2026-01-04 05:59:55.01	260.66	6.86	-45.4	-56.5	3.8	8.46e-01	0	57	104	2768240640	60	13601
2026-01-04 05:59:56.02	260.56	6.80	-43.6	-55.4	3.9	8.46e-01	0	57	104	2768240640	59	12741
2026-01-04 05:59:57.03	260.45	6.74	-45.4	-56.4	3.8	8.45e-01	0	57	104	2768240640	60	13526
2026-01-04 05:59:58.04	260.35	6.68	-45.4	-56.4	3.8	8.46e-01	0	57	104	2768240640	60	13531
2026-01-04 05:59:59.05	260.25	6.62	-45.4	-56.4	3.8	8.47e-01	0	57	104	2768240640	60	13527
2026-01-04 06:00:00.06	260.15	6.56	-45.4	-56.4	3.8	8.47e-01	0	58	104	2768240640	60	13508
2026-01-04 06:00:01.07	260.05	6.50	-45.3	-56.4	3.8	8.46e-01	0	58	104	2768240640	60	13490
2026-01-04 06:00:02.08	259.95	6.44	-45.3	-56.4	3.8	8.47e-01	0	57	104	2768240640	60	13422
2026-01-04 06:00:03.09	259.85	6.38	-45.3	-56.4	3.8	8.46e-01	0	57	104	2768240640	60	13483
2026-01-04 06:00:04.10	259.75	6.32	-45.3	-56.4	3.8	8.46e-01	0	57	104	2768240640	60	13488
2026-01-04 06:00:05.11	259.65	6.26	-45.3	-56.4	3.8	8.46e-01	0	57	104	2768240640	60	13487
2026-01-04 06:00:06.12	259.55	6.20	-45.3	-56.4	3.8	8.46e-01	0	57	104	2768240640	60	13459
2026-01-04 06:00:07.13	259.45	6.14	-45.3	-56.4	3.8	8.46e-01	0	57	104	2768240640	60	13432
2026-01-04 06:00:08.15	259.35	6.08	-45.4	-56.4	3.8	8.46e-01	0	57	104	2768240640	60	13495
2026-01-04 06:00:09.16	259.25	6.02	-45.3	-56.4	3.8	8.48e-01	0	57	104	2768240640	60	13472
2026-01-04 06:00:10.17	259.15	5.96	-45.3	-56.4	3.8	8.46e-01	0	57	104	2768240640	60	13420
2026-01-04 06:00:11.18	259.06	5.90	-45.3	-56.4	3.8	8.46e-01	0	57	104	2768240640	60	13482
2026-01-04 06:00:12.19	258.96	5.84	-45.3	-56.4	3.8	8.46e-01	0	57	104	2768240640	60	13446
2026-01-04 06:00:13.20	258.87	5.78	-45.3	-56.4	3.8	8.46e-01	0	57	104	2768240640	60	13496
2026-01-04 06:00:14.21	258.77	5.72	-45.3	-56.4	3.8	8.46e-01	0	57	104	2768240640	60	13427
2026-01-04 06:00:15.22	258.67	5.67	-45.3	-56.4	3.8	8.45e-01	0	57	104	2768240640	60	13431
2026-01-04 06:00:16.23	258.58	5.61	-45.3	-56.4	3.8	8.46e-01	0	57	104	2768240640	60	13458
2026-01-04 06:00:17.24	258.48	5.55	-45.3	-56.4	3.8	8.46e-01	0	57	104	2768240640	60	13482
2026-01-04 06:00:18.25	258.39	5.49	-45.3	-56.4	3.8	8.45e-01	0	57	104	2768240640	60	13434
2026-01-04 06:00:19.27	258.30	5.43	-45.3	-56.4	3.8	8.46e-01	0	57	104	2768240640	60	13438
2026-01-04 06:00:20.28	258.20	5.37	-45.3	-56.4	3.8	8.45e-01	0	57	104	2768240640	60	13421
2026-01-04 06:00:21.29	258.11	5.31	-45.3	-56.4	3.8	8.47e-01	0	57	104	2768240640	60	13455
2026-01-04 06:00:22.30	258.02	5.25	-45.3	-56.4	3.8	8.46e-01	0	57	104	2768240640	60	13460
2026-01-04 06:00:23.31	257.92	5.19	-45.3	-56.4	3.8	8.48e-01	0	57	104	2768240640	60	13442
2026-01-04 06:00:24.32	257.83	5.14	-45.3	-56.4	3.8	8.47e-01	0	57	104	2768240640	60	13429
2026-01-04 06:00:25.33	257.74	5.08	-45.3	-56.3	3.8	8.45e-01	0	58	104	2768240640	60	13407
2026-01-04 06:00:26.34	257.65	5.02	-45.3	-56.4	3.8	8.47e-01	0	57	104	2768240640	60	13460
2026-01-04 06:00:27.36	257.56	4.96	-45.3	-56.3	3.8	8.46e-01	0	57	104	2768240640	60	13401
2026-01-04 06:00:28.36	257.47	4.90	-45.3	-56.3	3.8	8.45e-01	0	57	104	2768240640	60	13380
2026-01-04 06:00:29.38	257.38	4.84	-45.3	-56.4	3.8	8.47e-01	0	57	104	2768240640	60	13447
2026-01-04 06:00:30.39	257.29	4.78	-45.3	-56.4	3.8	8.46e-01	0	57	104	2768240640	60	13418
2026-01-04 06:00:31.40	257.20	4.73	-45.3	-56.4	3.8	8.46e-01	0	57	104	2768240640	60	13453
2026-01-04 06:00:32.41	257.11	4.67	-45.3	-56.3	3.8	8.46e-01	0	57	104	2768240640	60	13377
2026-01-04 06:00:33.42	257.02	4.61	-45.3	-56.4	3.8	8.46e-01	0	57	104	2768240640	60	13427
2026-01-04 06:00:34.43	256.93	4.55	-45.3	-56.4	3.8	8.46e-01	0	57	104	2768240640	60	13465
2026-01-04 06:00:35.44	256.85	4.49	-45.3	-56.3	3.8	8.46e-01	0	57	104	2768240640	60	13388
2026-01-04 06:00:36.46	256.76	4.44	-45.3	-56.3	3.8	8.45e-01	0	57	104	2768240640	60	13389
2026-01-04 06:00:37.47	256.67	4.38	-45.3	-56.4	3.8	8.45e-01	0	57	104	2768240640	60	13434
2026-01-04 06:00:38.48	256.58	4.32	-45.3	-56.4	3.8	8.47e-01	0	57	104	2768240640	60	13424
2026-01-04 06:00:39.49	256.50	4.26	-45.3	-56.3	3.8	8.44e-01	0	57	104	2768240640	60	13405
2026-01-04 06:00:40.50	256.41	4.21	-45.3	-56.4	3.8	8.46e-01	0	57	104	2768240640	60	13437
2026-01-04 06:00:41.51	256.33	4.15	-45.3	-56.3	3.8	8.46e-01	0	57	104	2768240640	60	13387
2026-01-04 06:00:42.52	256.24	4.09	-45.3	-56.4	3.8	8.47e-01	0	58	104	2768240640	60	13438
2026-01-04 06:00:43.53	256.16	4.03	-45.3	-56.3	3.8	8.46e-01	0	58	104	2768240640	60	13379
2026-01-04 06:00:44.54	256.07	3.98	-45.3	-56.3	3.8	8.47e-01	0	57	104	2768240640	60	13409
2026-01-04 06:00:45.55	255.99	3.92	-45.3	-56.3	3.8	8.46e-01	0	57	104	2768240640	60	13305
2026-01-04 06:00:46.56	255.90	3.86	-45.3	-56.3	3.8	8.46e-01	0	57	104	2768240640	60	13409
2026-01-04 06:00:47.57	255.82	3.80	-45.3	-56.3	3.8	8.47e-01	0	57	104	2768240640	60	13371
2026-01-04 06:00:48.58	255.74	3.75	-45.3	-56.3	3.8	8.45e-01	0	57	104	2768240640	60	13402
2026-01-04 06:00:49.59	255.65	3.69	-45.3	-56.4	3.8	8.46e-01	0	58	104	2768240640	60	13446
2026-01-04 06:00:50.61	255.57	3.63	-45.3	-56.3	3.8	8.46e-01	0	57	104	2768240640	60	13346
2026-01-04 06:00:51.62	255.49	3.58	-45.3	-56.3	3.8	8.46e-01	0	57	104	2768240640	60	13403
2026-01-04 06:00:52.63	255.41	3.52	-45.3	-56.3	3.8	8.47e-01	0	57	104	2768240640	60	13407
2026-01-04 06:00:53.64	255.32	3.46	-45.3	-56.3	3.8	8.46e-01	0	57	104	2768240640	60	13387
2026-01-04 06:00:54.65	255.24	3.41	-45.3	-56.3	3.8	8.47e-01	0	58	104	2768240640	60	13397
2026-01-04 06:00:55.66	255.16	3.35	-45.3	-56.3	3.8	8.47e-01	0	57	104	2768240640	60	13413
2026-01-04 06:00:56.67	255.08	3.29	-45.3	-56.3	3.8	8.47e-01	0	57	104	2768240640	60	13372
2026-01-04 06:00:57.68	255.00	3.24	-45.3	-56.3	3.8	8.47e-01	0	57	104	2768240640	60	13398
