passes_logs/2026/01/04/R2.0S_Moscow/R2.0S_Moscow__20260104_075310_SUOMI_NPP_rec.log

#Pass ID: 20260104_075310_SUOMI NPP
#Satellite: SUOMI NPP
#Configuration: NPP
#almurnet v.1.7.20251203
#Start time: 2026-01-04 07:53:11

#Version: 2.2.20231116
#Station: R2.0S_Moscow
#Location: 37.707566 lon 55.798166 lat
#TLE: 1 37849U 11061A   26001.07732418  .00000182  00000+0  10735-3 0  9990
#TLE: 2 37849  98.7795 303.2470 0002580  87.2016 272.9455 14.19520779734739

#Time	Az	El	Level	Level2	SNR	BER	BlckErr	Temp	State	Recorded	gain1	gain2
2026-01-04 07:53:11.75	98.30	2.06	-39.9	-54.6	3.8	1.49e+00	0	47	0	0	51	19447
2026-01-04 07:53:12.75	98.21	2.11	-40.0	-54.6	3.8	1.49e+00	0	47	104	0	51	19426
2026-01-04 07:53:13.76	98.13	2.17	-40.0	-54.5	3.8	1.49e+00	0	47	104	0	51	19377
2026-01-04 07:53:14.77	98.05	2.22	-39.9	-54.6	3.8	1.49e+00	0	47	104	0	51	19487
2026-01-04 07:53:15.78	97.96	2.27	-40.0	-54.6	3.8	1.49e+00	0	47	104	0	51	19462
2026-01-04 07:53:16.79	97.88	2.32	-40.0	-54.6	3.8	1.49e+00	0	47	104	0	51	19441
2026-01-04 07:53:17.81	97.79	2.38	-39.9	-54.6	3.8	1.49e+00	0	47	104	0	51	19486
2026-01-04 07:53:18.82	97.71	2.43	-40.0	-54.6	3.8	1.49e+00	0	48	104	0	51	19479
2026-01-04 07:53:19.83	97.62	2.48	-40.0	-54.6	3.8	1.49e+00	0	47	104	0	51	19449
2026-01-04 07:53:20.84	97.54	2.53	-39.9	-54.6	3.8	1.49e+00	0	48	104	0	51	19481
2026-01-04 07:53:21.85	97.45	2.58	-40.0	-54.6	3.8	1.49e+00	0	48	104	0	51	19448
2026-01-04 07:53:22.86	97.36	2.64	-39.9	-54.6	3.8	1.49e+00	0	48	104	0	51	19466
2026-01-04 07:53:23.87	97.28	2.69	-39.9	-54.6	3.8	1.49e+00	0	48	104	0	51	19411
2026-01-04 07:53:24.88	97.19	2.74	-40.0	-54.6	3.8	1.49e+00	0	48	104	0	51	19420
2026-01-04 07:53:25.90	97.10	2.79	-40.0	-54.6	3.8	1.49e+00	0	48	104	0	51	19489
2026-01-04 07:53:26.91	97.01	2.85	-40.0	-54.6	3.8	1.49e+00	0	48	104	0	51	19499
2026-01-04 07:53:27.92	96.92	2.90	-39.9	-54.6	3.8	1.49e+00	0	48	104	0	51	19484
2026-01-04 07:53:28.93	96.84	2.95	-40.0	-54.6	3.8	1.49e+00	0	48	104	0	51	19467
2026-01-04 07:53:29.94	96.75	3.01	-39.9	-54.6	3.8	1.49e+00	0	48	104	0	51	19478
2026-01-04 07:53:30.95	96.66	3.06	-40.0	-54.6	3.8	1.49e+00	0	48	104	0	51	19462
2026-01-04 07:53:31.96	96.57	3.11	-39.9	-54.6	3.8	1.49e+00	0	48	104	0	51	19432
2026-01-04 07:53:32.97	96.48	3.16	-40.0	-54.6	3.8	1.49e+00	0	48	104	0	51	19429
2026-01-04 07:53:33.98	96.39	3.22	-40.0	-54.6	3.8	1.49e+00	0	48	104	0	51	19456
2026-01-04 07:53:34.99	96.30	3.27	-40.0	-54.6	3.8	1.49e+00	0	49	104	0	51	19420
2026-01-04 07:53:36.00	96.21	3.32	-39.9	-54.6	3.8	1.49e+00	0	48	104	0	51	19467
2026-01-04 07:53:37.01	96.12	3.38	-39.9	-54.6	3.8	1.49e+00	0	49	104	0	51	19473
2026-01-04 07:53:38.02	96.03	3.43	-39.9	-54.6	3.8	1.49e+00	0	49	104	0	51	19491
2026-01-04 07:53:39.03	95.93	3.48	-40.0	-54.6	3.8	1.49e+00	0	49	104	0	51	19449
2026-01-04 07:53:40.05	95.84	3.54	-40.0	-54.6	3.8	1.49e+00	0	49	104	0	51	19435
2026-01-04 07:53:41.06	95.75	3.59	-40.0	-54.6	3.8	1.49e+00	0	49	104	0	51	19405
2026-01-04 07:53:42.07	95.66	3.64	-39.9	-54.6	3.8	1.49e+00	0	49	104	0	51	19457
2026-01-04 07:53:43.08	95.56	3.69	-39.9	-54.6	3.8	1.49e+00	0	49	104	0	51	19406
2026-01-04 07:53:44.09	95.47	3.75	-40.0	-54.6	3.8	1.49e+00	0	49	104	0	51	19449
2026-01-04 07:53:45.10	95.37	3.80	-40.0	-54.6	3.8	1.49e+00	0	49	104	0	51	19431
2026-01-04 07:53:46.11	95.28	3.85	-39.9	-54.6	3.8	1.49e+00	0	49	104	0	51	19420
2026-01-04 07:53:47.12	95.19	3.91	-40.0	-54.6	3.8	1.49e+00	0	49	104	0	51	19497
2026-01-04 07:53:48.14	95.09	3.96	-40.0	-54.6	3.8	1.49e+00	0	50	104	0	51	19488
2026-01-04 07:53:49.15	94.99	4.01	-40.0	-54.6	3.8	1.49e+00	0	49	104	0	51	19411
2026-01-04 07:53:50.16	94.90	4.07	-40.0	-54.6	3.8	1.49e+00	0	49	104	0	51	19448
2026-01-04 07:53:51.17	94.80	4.12	-40.0	-54.6	3.8	1.49e+00	0	50	104	0	51	19444
2026-01-04 07:53:52.18	94.71	4.17	-39.9	-54.6	3.8	1.49e+00	0	50	104	0	51	19496
2026-01-04 07:53:53.19	94.61	4.23	-39.9	-54.6	3.8	1.49e+00	0	50	104	0	51	19472
2026-01-04 07:53:54.20	94.51	4.28	-39.9	-54.6	3.8	1.49e+00	0	50	104	0	51	19425
2026-01-04 07:53:55.21	94.42	4.34	-39.9	-54.6	3.8	1.49e+00	0	50	104	0	51	19505
2026-01-04 07:53:56.22	94.32	4.39	-40.0	-54.6	3.8	1.49e+00	0	50	104	0	51	19462
2026-01-04 07:53:57.23	94.22	4.44	-40.0	-54.6	3.8	1.49e+00	0	50	104	0	51	19500
2026-01-04 07:53:58.25	94.12	4.50	-39.9	-54.6	3.8	1.49e+00	0	50	104	0	51	19507
2026-01-04 07:53:59.26	94.02	4.55	-39.9	-54.6	3.8	1.49e+00	0	50	104	0	51	19493
2026-01-04 07:54:00.27	93.92	4.60	-40.0	-54.6	3.8	1.49e+00	0	50	104	0	51	19466
2026-01-04 07:54:01.28	93.82	4.66	-40.0	-54.6	3.8	1.49e+00	0	50	104	0	51	19446
2026-01-04 07:54:02.29	93.72	4.71	-40.0	-54.6	3.8	1.49e+00	0	50	104	0	51	19449
2026-01-04 07:54:03.30	93.62	4.77	-40.0	-54.6	3.8	1.49e+00	0	50	104	0	51	19505
2026-01-04 07:54:04.31	93.52	4.82	-39.9	-54.6	3.8	1.49e+00	0	50	104	0	51	19462
2026-01-04 07:54:05.32	93.42	4.87	-40.0	-54.6	3.8	1.49e+00	0	50	104	0	51	19422
2026-01-04 07:54:06.33	93.32	4.93	-39.8	-54.6	3.8	1.49e+00	0	50	104	0	51	19406
2026-01-04 07:54:07.34	93.22	4.98	-40.0	-54.6	3.8	1.49e+00	0	50	104	0	51	19515
2026-01-04 07:54:08.36	93.11	5.04	-40.0	-54.6	3.8	1.49e+00	0	51	104	0	51	19435
2026-01-04 07:54:09.37	93.01	5.09	-40.0	-54.6	3.8	1.49e+00	0	50	104	0	51	19446
2026-01-04 07:54:10.38	92.91	5.14	-40.0	-54.6	3.8	1.49e+00	0	50	104	0	51	19535
2026-01-04 07:54:11.39	92.80	5.20	-40.0	-54.6	3.8	1.49e+00	0	50	104	0	51	19508
2026-01-04 07:54:12.40	92.70	5.25	-40.0	-54.6	3.8	1.49e+00	0	50	104	0	51	19430
2026-01-04 07:54:13.41	92.60	5.31	-39.9	-54.6	3.8	1.49e+00	0	51	104	0	51	19501
2026-01-04 07:54:14.42	92.49	5.36	-39.9	-54.6	3.8	1.49e+00	0	51	104	0	51	19504
2026-01-04 07:54:15.43	92.39	5.41	-40.0	-54.6	3.8	1.49e+00	0	51	104	0	51	19501
2026-01-04 07:54:16.44	92.28	5.47	-40.0	-54.6	3.8	1.49e+00	0	51	104	0	51	19507
2026-01-04 07:54:17.46	92.17	5.52	-40.0	-54.6	3.8	1.49e+00	0	51	104	0	51	19537
2026-01-04 07:54:18.47	92.07	5.58	-40.0	-54.6	3.8	1.49e+00	0	51	104	0	51	19550
2026-01-04 07:54:19.48	91.96	5.63	-39.9	-54.6	3.8	1.49e+00	0	51	104	0	51	19512
2026-01-04 07:54:20.49	91.85	5.68	-40.0	-54.6	3.8	1.49e+00	0	51	104	0	51	19572
2026-01-04 07:54:21.50	91.75	5.74	-40.0	-54.6	3.8	1.49e+00	0	51	104	0	51	19552
2026-01-04 07:54:22.51	91.64	5.79	-40.0	-54.6	3.8	1.49e+00	0	51	104	0	51	19576
2026-01-04 07:54:23.52	91.53	5.85	-40.0	-54.6	3.8	1.49e+00	0	51	104	0	51	19518
2026-01-04 07:54:24.53	91.42	5.90	-40.0	-54.6	3.8	1.49e+00	0	51	104	0	51	19469
2026-01-04 07:54:25.54	91.31	5.96	-40.0	-54.6	3.8	1.49e+00	0	51	104	0	51	19572
2026-01-04 07:54:26.56	91.20	6.01	-40.0	-54.6	3.8	1.49e+00	0	51	104	0	51	19549
2026-01-04 07:54:27.57	91.09	6.06	-40.0	-54.6	3.8	1.49e+00	0	51	104	0	51	19542
2026-01-04 07:54:28.58	90.98	6.12	-40.0	-54.6	3.8	1.49e+00	0	51	104	0	51	19552
2026-01-04 07:54:29.59	90.87	6.17	-40.0	-54.6	3.8	1.49e+00	0	51	104	0	51	19539
2026-01-04 07:54:30.60	90.76	6.23	-40.1	-54.6	3.8	1.49e+00	0	51	104	0	51	19564
2026-01-04 07:54:31.61	90.65	6.28	-40.0	-54.6	3.8	1.49e+00	0	51	104	0	51	19535
2026-01-04 07:54:32.62	90.54	6.34	-40.0	-54.6	3.8	1.49e+00	0	51	104	0	51	19556
2026-01-04 07:54:33.63	90.42	6.39	-40.0	-54.6	3.8	1.49e+00	0	51	104	0	51	19527
2026-01-04 07:54:34.64	90.31	6.45	-40.0	-54.6	3.8	1.49e+00	0	52	104	0	51	19517
2026-01-04 07:54:35.65	90.20	6.50	-40.0	-54.6	3.8	1.49e+00	0	52	104	0	51	19568
2026-01-04 07:54:36.67	90.08	6.55	-40.0	-54.6	3.8	1.49e+00	0	52	104	0	51	19588
2026-01-04 07:54:37.68	89.97	6.61	-40.0	-54.6	3.8	1.49e+00	0	52	104	0	51	19579
2026-01-04 07:54:38.69	89.85	6.66	-40.0	-54.6	3.8	1.49e+00	0	52	104	0	51	19581
2026-01-04 07:54:39.70	89.74	6.72	-40.0	-54.6	3.8	1.49e+00	0	52	104	0	51	19519
2026-01-04 07:54:40.71	89.62	6.77	-40.0	-54.6	3.8	1.49e+00	0	52	104	0	51	19536
2026-01-04 07:54:41.72	89.51	6.83	-40.0	-54.6	3.8	1.49e+00	0	52	104	0	51	19562
2026-01-04 07:54:42.73	89.39	6.88	-40.0	-54.6	3.8	1.49e+00	0	52	104	0	51	19577
2026-01-04 07:54:43.74	89.27	6.94	-40.0	-54.6	3.8	1.49e+00	0	52	104	0	51	19602
2026-01-04 07:54:44.75	89.16	6.99	-40.0	-54.6	3.8	1.49e+00	0	52	104	0	51	19506
2026-01-04 07:54:45.76	89.04	7.04	-40.0	-54.6	3.8	1.49e+00	0	52	104	0	51	19544
2026-01-04 07:54:46.77	88.92	7.10	-40.0	-54.6	3.8	1.49e+00	0	52	104	0	51	19542
2026-01-04 07:54:47.78	88.80	7.15	-40.0	-54.7	3.8	1.49e+00	0	52	104	0	51	19620
2026-01-04 07:54:48.79	88.68	7.21	-40.1	-54.6	3.8	1.49e+00	0	52	104	0	51	19602
2026-01-04 07:54:49.81	88.56	7.26	-40.0	-54.7	3.8	1.49e+00	0	52	104	0	51	19620
2026-01-04 07:54:50.82	88.44	7.32	-40.0	-54.6	3.8	1.49e+00	0	52	104	0	51	19584
2026-01-04 07:54:51.83	88.32	7.37	-40.0	-54.6	3.8	1.49e+00	0	52	104	0	51	19600
2026-01-04 07:54:52.84	88.20	7.43	-40.0	-54.6	3.8	1.49e+00	0	52	104	0	51	19585
2026-01-04 07:54:53.85	88.08	7.48	-40.0	-54.6	3.8	1.49e+00	0	52	104	0	51	19536
2026-01-04 07:54:54.86	87.96	7.54	-40.0	-54.6	3.8	1.49e+00	0	52	104	0	51	19591
2026-01-04 07:54:55.87	87.83	7.59	-40.0	-54.7	3.8	1.49e+00	0	52	104	0	51	19627
2026-01-04 07:54:56.88	87.71	7.64	-40.0	-54.7	3.8	1.49e+00	0	52	104	0	51	19615
2026-01-04 07:54:57.90	87.59	7.70	-40.0	-54.6	3.8	1.49e+00	0	52	104	0	51	19611
2026-01-04 07:54:58.91	87.46	7.75	-40.0	-54.6	3.8	1.49e+00	0	52	104	0	51	19594
2026-01-04 07:54:59.92	87.34	7.81	-40.0	-54.6	3.8	1.49e+00	0	53	104	0	51	19606
2026-01-04 07:55:00.93	87.21	7.86	-40.0	-54.7	3.8	1.49e+00	0	52	104	0	51	19656
2026-01-04 07:55:01.94	87.09	7.92	-40.0	-54.6	3.8	1.49e+00	0	52	104	0	51	19581
2026-01-04 07:55:02.95	86.96	7.97	-40.0	-54.6	3.8	1.49e+00	0	52	104	0	51	19597
2026-01-04 07:55:03.96	86.84	8.03	-40.0	-54.7	3.8	1.49e+00	0	53	104	0	51	19638
2026-01-04 07:55:04.97	86.71	8.08	-40.2	-54.9	3.8	1.49e+00	0	53	104	0	51	20279
2026-01-04 07:55:05.98	86.58	8.13	-40.2	-54.9	3.8	1.49e+00	0	53	104	0	51	20177
2026-01-04 07:55:06.99	86.45	8.19	-39.9	-54.6	3.8	1.49e+00	0	52	104	0	51	19466
2026-01-04 07:55:08.00	86.33	8.24	-40.0	-54.8	3.8	1.49e+00	0	52	104	0	51	19975
2026-01-04 07:55:09.01	86.20	8.30	-40.0	-54.6	3.8	1.49e+00	0	53	104	0	51	19583
2026-01-04 07:55:10.02	86.07	8.35	-40.0	-54.8	3.8	1.49e+00	0	53	104	0	51	19855
2026-01-04 07:55:11.03	85.94	8.41	-39.9	-54.6	3.8	1.49e+00	0	53	104	0	51	19570
2026-01-04 07:55:12.04	85.81	8.46	-40.3	-55.0	3.8	1.49e+00	0	53	104	0	51	20359
2026-01-04 07:55:13.05	85.68	8.51	-40.0	-54.6	3.8	1.49e+00	0	53	104	0	51	19474
2026-01-04 07:55:14.06	85.55	8.57	-40.2	-54.9	3.8	1.49e+00	0	53	104	0	51	20283
2026-01-04 07:55:15.06	85.42	8.62	-40.0	-54.6	3.8	1.49e+00	0	53	104	0	51	19493
2026-01-04 07:55:16.07	85.29	8.68	-40.0	-54.6	3.8	1.49e+00	0	53	104	0	51	19569
2026-01-04 07:55:17.09	85.15	8.73	-40.0	-54.7	3.8	1.49e+00	0	53	104	0	51	19830
2026-01-04 07:55:18.10	85.02	8.78	-40.0	-54.6	3.8	1.49e+00	0	53	104	0	51	19447
2026-01-04 07:55:19.11	84.89	8.84	-40.0	-54.7	3.8	1.49e+00	0	53	104	0	51	19830
2026-01-04 07:55:20.12	84.75	8.89	-40.1	-54.7	3.8	1.49e+00	0	53	104	0	51	19787
2026-01-04 07:55:21.13	84.62	8.95	-40.0	-54.5	3.8	1.49e+00	0	53	104	0	51	19380
2026-01-04 07:55:22.14	84.48	9.00	-40.1	-54.7	3.8	1.49e+00	0	53	104	0	51	19675
2026-01-04 07:55:23.15	84.35	9.05	-40.0	-54.5	3.8	1.49e+00	0	53	104	0	51	19320
2026-01-04 07:55:24.16	84.21	9.11	-39.9	-54.5	3.8	1.49e+00	0	53	104	0	51	19304
2026-01-04 07:55:25.17	84.07	9.16	-40.0	-54.6	3.8	1.49e+00	0	53	104	0	51	19563
2026-01-04 07:55:26.18	83.94	9.22	-40.0	-54.5	3.8	1.49e+00	0	53	104	0	51	19178
2026-01-04 07:55:27.19	83.80	9.27	-40.0	-54.6	3.8	1.49e+00	0	53	104	0	51	19441
2026-01-04 07:55:28.20	83.66	9.32	-40.1	-54.6	3.8	1.49e+00	0	53	104	0	51	19523
2026-01-04 07:55:29.21	83.52	9.38	-40.0	-54.4	3.8	1.49e+00	0	53	104	0	51	19167
2026-01-04 07:55:30.22	83.38	9.43	-40.1	-54.6	3.8	1.49e+00	0	53	104	0	51	19514
2026-01-04 07:55:31.23	83.24	9.48	-40.0	-54.4	3.8	1.49e+00	0	53	104	0	51	19151
2026-01-04 07:55:32.23	83.11	9.54	-40.0	-54.5	3.8	1.49e+00	0	53	104	0	51	19262
2026-01-04 07:55:33.24	82.96	9.59	-40.0	-54.5	3.8	1.49e+00	0	53	104	0	51	19230
2026-01-04 07:55:34.25	82.82	9.64	-40.0	-54.5	3.8	1.49e+00	0	53	104	0	51	19283
2026-01-04 07:55:35.26	82.68	9.70	-40.0	-54.5	3.8	1.49e+00	0	53	104	0	51	19233
2026-01-04 07:55:36.27	82.54	9.75	-40.1	-54.6	3.8	1.49e+00	0	53	104	0	51	19398
2026-01-04 07:55:37.28	82.40	9.80	-39.9	-54.5	3.8	1.49e+00	0	53	104	0	51	19197
2026-01-04 07:55:38.29	82.25	9.86	-40.1	-54.6	3.8	1.49e+00	0	54	104	0	51	19435
2026-01-04 07:55:39.30	82.11	9.91	-40.0	-54.5	3.8	1.49e+00	0	53	104	0	51	19201
2026-01-04 07:55:40.31	81.97	9.96	-40.1	-54.5	3.8	1.49e+00	0	53	104	0	51	19387
2026-01-04 07:55:41.32	81.82	10.02	-40.0	-54.5	3.8	1.49e+00	0	54	104	0	51	19204
2026-01-04 07:55:42.33	81.68	10.07	-40.1	-54.6	3.8	1.49e+00	0	54	104	0	51	19402
2026-01-04 07:55:43.34	81.53	10.12	-40.0	-54.5	3.8	1.49e+00	0	54	104	0	51	19264
2026-01-04 07:55:44.35	81.38	10.17	-40.1	-54.6	3.8	1.49e+00	0	54	104	0	51	19472
2026-01-04 07:55:45.37	81.23	10.23	-40.0	-54.5	3.8	1.49e+00	0	54	104	0	51	19333
2026-01-04 07:55:46.38	81.09	10.28	-40.1	-54.6	3.8	1.49e+00	0	54	104	0	51	19539
2026-01-04 07:55:47.39	80.94	10.33	-40.0	-54.6	3.8	1.49e+00	0	54	104	0	51	19431
2026-01-04 07:55:48.40	80.79	10.39	-40.1	-54.6	3.8	1.49e+00	0	54	104	0	51	19574
2026-01-04 07:55:49.41	80.64	10.44	-40.1	-54.6	3.8	1.49e+00	0	54	104	0	51	19452
2026-01-04 07:55:50.42	80.49	10.49	-40.1	-54.7	3.8	1.49e+00	0	54	104	0	51	19617
2026-01-04 07:55:51.43	80.34	10.54	-40.1	-54.6	3.8	1.49e+00	0	54	104	0	51	19445
2026-01-04 07:55:52.44	80.19	10.59	-40.2	-54.7	3.8	1.49e+00	0	54	104	0	51	19744
2026-01-04 07:55:53.45	80.04	10.65	-40.1	-54.7	3.8	1.49e+00	0	54	104	0	51	19670
2026-01-04 07:55:54.45	79.89	10.70	-40.3	-54.7	3.8	1.49e+00	0	54	104	0	51	19755
2026-01-04 07:55:55.46	79.74	10.75	-40.3	-54.7	3.8	1.49e+00	0	54	104	0	51	19817
2026-01-04 07:55:56.48	79.58	10.80	-40.3	-54.7	3.8	1.49e+00	0	54	104	0	51	19818
2026-01-04 07:55:57.49	79.43	10.85	-40.3	-54.7	3.8	1.49e+00	0	54	104	0	51	19770
2026-01-04 07:55:58.50	79.27	10.91	-40.3	-54.8	3.8	1.49e+00	0	54	104	0	51	19961
2026-01-04 07:55:59.51	79.12	10.96	-40.3	-54.8	3.8	1.49e+00	0	54	104	0	51	19907
2026-01-04 07:56:00.52	78.96	11.01	-40.3	-54.8	3.8	1.49e+00	0	54	104	0	51	20018
2026-01-04 07:56:01.53	78.81	11.06	-40.4	-54.9	3.8	1.49e+00	0	54	104	0	51	20130
2026-01-04 07:56:02.54	78.65	11.11	-40.4	-54.9	3.8	1.49e+00	0	54	104	0	51	20232
2026-01-04 07:56:03.55	78.49	11.16	-40.5	-55.1	3.8	1.49e+00	0	54	104	0	51	20605
2026-01-04 07:56:04.56	78.34	11.21	-40.5	-55.0	3.8	1.49e+00	0	54	104	0	51	20422
2026-01-04 07:56:05.57	78.18	11.27	-40.6	-55.1	3.8	1.49e+00	0	54	104	0	51	20575
2026-01-04 07:56:06.58	78.02	11.32	-40.6	-55.1	3.8	1.49e+00	0	54	104	0	51	20594
2026-01-04 07:56:07.59	77.86	11.37	-40.5	-55.0	3.8	1.49e+00	0	54	104	0	51	20531
2026-01-04 07:56:08.60	77.70	11.42	-40.7	-55.2	3.8	1.49e+00	0	54	104	0	51	20792
2026-01-04 07:56:09.61	77.54	11.47	-40.6	-55.1	3.8	1.49e+00	0	54	104	0	51	20739
2026-01-04 07:56:10.62	77.38	11.52	-40.7	-55.2	3.8	1.49e+00	0	54	104	0	51	20877
2026-01-04 07:56:11.63	77.22	11.57	-40.8	-55.3	3.8	1.49e+00	0	54	104	0	52	19874
2026-01-04 07:56:12.64	77.06	11.62	-40.6	-55.1	3.8	1.49e+00	0	54	104	0	52	19523
2026-01-04 07:56:13.65	76.90	11.67	-40.7	-55.2	3.8	1.49e+00	0	54	104	0	52	19802
2026-01-04 07:56:14.66	76.73	11.72	-40.7	-55.1	3.8	1.49e+00	0	54	104	0	52	19573
2026-01-04 07:56:15.67	76.57	11.77	-40.7	-55.1	3.8	1.49e+00	0	54	104	0	52	19576
2026-01-04 07:56:16.68	76.40	11.82	-40.8	-55.4	3.8	1.49e+00	0	54	104	0	52	20109
2026-01-04 07:56:17.69	76.24	11.87	-40.8	-55.3	3.8	1.49e+00	0	54	104	0	52	20008
2026-01-04 07:56:18.70	76.07	11.92	-40.9	-55.4	3.8	1.49e+00	0	54	104	0	52	20290
2026-01-04 07:56:19.71	75.91	11.97	-41.0	-55.5	3.8	1.49e+00	0	54	104	0	52	20384
2026-01-04 07:56:20.72	75.74	12.02	-40.8	-55.4	3.8	1.49e+00	0	54	104	0	52	20155
2026-01-04 07:56:21.73	75.58	12.07	-40.9	-55.4	3.8	1.49e+00	0	54	104	0	52	20269
2026-01-04 07:56:22.74	75.41	12.11	-40.9	-55.4	3.8	1.49e+00	0	54	104	0	52	20215
2026-01-04 07:56:23.75	75.24	12.16	-40.9	-55.4	3.8	1.49e+00	0	54	104	0	52	20147
2026-01-04 07:56:24.76	75.07	12.21	-40.9	-55.5	3.8	1.49e+00	0	54	104	0	52	20317
2026-01-04 07:56:25.77	74.90	12.26	-40.9	-55.4	3.8	1.49e+00	0	54	104	0	52	20158
2026-01-04 07:56:26.78	74.73	12.31	-40.9	-55.4	3.8	1.49e+00	0	55	104	0	52	20210
2026-01-04 07:56:27.79	74.56	12.36	-40.7	-55.3	3.8	1.49e+00	0	55	104	0	52	19897
2026-01-04 07:56:28.80	74.39	12.41	-40.9	-55.4	3.8	1.49e+00	0	54	104	0	52	20241
2026-01-04 07:56:29.81	74.22	12.45	-40.6	-55.2	3.8	1.49e+00	0	54	104	0	52	19697
2026-01-04 07:56:30.82	74.05	12.50	-40.8	-55.4	3.8	1.49e+00	0	55	104	0	52	20140
2026-01-04 07:56:31.83	73.88	12.55	-40.8	-55.3	3.8	1.49e+00	0	54	104	0	52	19945
2026-01-04 07:56:32.84	73.70	12.60	-40.7	-55.2	3.8	1.49e+00	0	55	104	0	52	19640
2026-01-04 07:56:33.84	73.53	12.64	-40.7	-55.2	3.8	1.49e+00	0	54	104	0	52	19720
2026-01-04 07:56:34.85	73.36	12.69	-40.6	-55.1	3.8	1.49e+00	0	55	104	0	52	19554
2026-01-04 07:56:35.86	73.18	12.74	-40.6	-55.0	3.8	1.49e+00	0	55	104	0	52	19364
2026-01-04 07:56:36.87	73.01	12.78	-40.6	-55.2	3.8	1.49e+00	0	55	104	0	52	19652
2026-01-04 07:56:37.88	72.83	12.83	-40.6	-55.1	3.8	1.49e+00	0	55	104	0	52	19446
2026-01-04 07:56:38.89	72.65	12.88	-40.5	-55.1	3.8	1.49e+00	0	55	104	0	52	19435
2026-01-04 07:56:39.91	72.47	12.92	-40.6	-54.9	3.8	1.49e+00	0	55	104	0	52	18953
2026-01-04 07:56:40.92	72.30	12.97	-40.7	-55.2	3.8	1.49e+00	0	55	104	0	52	19708
2026-01-04 07:56:41.93	72.12	13.02	-40.6	-55.1	3.8	1.49e+00	0	55	104	0	52	19397
2026-01-04 07:56:42.94	71.94	13.06	-40.8	-55.2	3.8	1.49e+00	0	55	104	0	52	19812
2026-01-04 07:56:43.95	71.76	13.11	-40.8	-55.3	3.8	1.49e+00	0	55	104	0	52	20000
2026-01-04 07:56:44.96	71.58	13.15	-40.6	-55.1	3.8	1.49e+00	0	55	104	0	52	19434
2026-01-04 07:56:45.97	71.40	13.20	-40.8	-55.4	3.8	1.49e+00	0	55	104	0	52	20212
2026-01-04 07:56:46.98	71.22	13.24	-40.6	-55.1	3.8	1.49e+00	0	55	104	0	52	19453
2026-01-04 07:56:47.99	71.04	13.29	-40.9	-55.2	3.8	1.49e+00	0	55	104	0	52	19646
2026-01-04 07:56:49.00	70.86	13.33	-40.8	-55.3	3.8	1.49e+00	0	55	104	0	52	19986
2026-01-04 07:56:50.00	70.68	13.37	-41.0	-55.5	3.8	1.49e+00	0	55	104	0	52	20415
2026-01-04 07:56:51.01	70.49	13.42	-40.8	-55.3	3.8	1.49e+00	0	55	104	0	52	20065
2026-01-04 07:56:52.02	70.31	13.46	-41.1	-55.5	3.8	1.49e+00	0	55	104	0	52	20422
2026-01-04 07:56:53.03	70.12	13.51	-40.8	-55.2	3.8	1.49e+00	0	55	104	0	52	19765
2026-01-04 07:56:54.04	69.94	13.55	-41.1	-55.2	3.8	1.49e+00	0	55	104	0	52	19790
2026-01-04 07:56:55.05	69.75	13.59	-40.9	-55.2	3.8	1.49e+00	0	55	104	0	52	19809
2026-01-04 07:56:56.06	69.57	13.64	-41.4	-54.8	3.8	1.49e+00	0	55	104	0	53	17829
2026-01-04 07:56:57.07	69.38	13.68	-40.9	-55.4	3.8	1.49e+00	0	55	104	0	53	18956
2026-01-04 07:56:58.08	69.20	13.72	-41.2	-53.8	3.8	1.49e+00	0	55	104	0	53	15786
2026-01-04 07:56:59.09	69.01	13.76	-41.1	-53.2	4.0	1.49e+00	0	55	104	0	53	14715
2026-01-04 07:57:00.10	68.82	13.81	-41.1	-52.6	4.1	1.47e+00	0	55	104	0	53	13782
2026-01-04 07:57:01.11	68.63	13.85	-41.0	-51.9	4.3	1.40e+00	0	55	0	0	53	12794
2026-01-04 07:57:02.12	68.44	13.89	-41.0	-51.1	4.6	1.24e+00	0	55	0	1048576	53	11640
2026-01-04 07:57:03.13	68.25	13.93	-41.0	-50.4	5.0	7.92e-01	0	55	0	3145728	53	10693
2026-01-04 07:57:04.14	68.06	13.97	-40.9	-49.4	5.7	5.37e-01	0	55	0	5242880	53	9502
2026-01-04 07:57:05.15	67.87	14.01	-40.8	-48.4	6.5	3.24e-01	0	55	0	7340032	53	8512
2026-01-04 07:57:06.16	67.68	14.05	-40.8	-48.2	6.9	1.82e-01	0	55	0	8388608	53	8273
2026-01-04 07:57:07.17	67.49	14.09	-40.7	-47.5	7.6	1.20e-01	0	55	0	10485760	53	7692
2026-01-04 07:57:08.18	67.30	14.13	-40.6	-47.0	8.1	8.21e-02	0	55	0	12582912	53	7238
2026-01-04 07:57:09.19	67.10	14.17	-40.6	-46.8	8.3	5.21e-02	0	55	0	14680064	53	7054
2026-01-04 07:57:10.20	66.91	14.21	-40.3	-45.8	9.4	2.44e-02	0	55	0	16777216	52	6712
2026-01-04 07:57:11.21	66.72	14.25	-40.2	-45.5	9.8	1.08e-02	0	55	0	17825792	52	6463
2026-01-04 07:57:12.22	66.52	14.29	-40.3	-45.4	10.1	9.46e-03	0	55	0	19922944	52	6380
2026-01-04 07:57:13.23	66.33	14.33	-40.0	-44.4	11.3	2.79e-03	0	55	0	22020096	51	6013
2026-01-04 07:57:14.24	66.13	14.37	-39.5	-43.4	12.5	3.24e-04	0	55	0	24117248	50	5662
2026-01-04 07:57:15.25	65.94	14.41	-39.3	-42.9	13.0	6.17e-05	0	55	0	26214400	50	5370
2026-01-04 07:57:16.26	65.74	14.44	-39.0	-42.3	13.7	6.10e-06	0	55	0	27262976	50	5029
2026-01-04 07:57:17.26	65.54	14.48	-39.1	-42.5	13.7	3.00e-06	0	55	0	29360128	49	5413
2026-01-04 07:57:18.27	65.35	14.52	-39.5	-43.1	13.3	8.30e-06	0	55	0	31457280	49	5810
2026-01-04 07:57:19.29	65.15	14.56	-39.8	-43.5	13.0	3.73e-05	0	55	0	33554432	50	5744
2026-01-04 07:57:20.29	64.95	14.59	-39.9	-43.5	13.1	2.67e-05	0	55	0	35651584	50	5755
2026-01-04 07:57:21.30	64.75	14.63	-39.8	-43.3	13.4	1.90e-05	0	55	0	36700160	50	5633
2026-01-04 07:57:22.31	64.55	14.67	-39.7	-43.1	13.8	5.30e-06	0	55	0	38797312	50	5473
2026-01-04 07:57:23.32	64.35	14.70	-39.8	-43.0	13.9	4.50e-06	0	55	0	40894464	50	5446
2026-01-04 07:57:24.33	64.15	14.74	-39.9	-43.1	13.9	3.80e-06	0	55	0	42991616	50	5510
2026-01-04 07:57:25.34	63.95	14.77	-39.9	-43.1	13.9	3.80e-06	0	55	0	45088768	50	5526
2026-01-04 07:57:26.35	63.75	14.81	-39.7	-42.7	14.4	2.20e-06	0	55	0	46137344	50	5268
2026-01-04 07:57:27.36	63.55	14.84	-39.5	-42.3	14.9	0.00e+00	0	55	0	48234496	50	5037
2026-01-04 07:57:28.37	63.35	14.88	-39.3	-42.0	15.2	0.00e+00	0	55	0	50331648	50	4856
2026-01-04 07:57:29.38	63.14	14.91	-39.2	-41.8	15.3	0.00e+00	0	55	0	52428800	50	4742
2026-01-04 07:57:30.39	62.94	14.95	-39.3	-41.9	15.3	0.00e+00	0	55	0	54525952	50	4790
2026-01-04 07:57:31.40	62.74	14.98	-39.2	-41.9	15.4	0.00e+00	0	55	0	55574528	50	4770
2026-01-04 07:57:32.41	62.53	15.01	-39.3	-41.9	15.4	0.00e+00	0	55	0	57671680	50	4805
2026-01-04 07:57:33.42	62.33	15.05	-39.4	-42.1	15.2	0.00e+00	0	55	0	59768832	50	4916
2026-01-04 07:57:34.43	62.12	15.08	-39.4	-42.1	15.3	0.00e+00	0	55	0	61865984	50	4896
2026-01-04 07:57:35.44	61.92	15.11	-39.6	-42.4	15.0	0.00e+00	0	55	0	63963136	50	5053
2026-01-04 07:57:36.45	61.71	15.14	-39.6	-42.4	15.1	0.00e+00	0	55	0	66060288	50	5051
2026-01-04 07:57:37.46	61.51	15.17	-39.7	-42.5	14.9	0.00e+00	0	55	0	67108864	50	5138
2026-01-04 07:57:38.47	61.30	15.21	-39.6	-42.3	15.1	0.00e+00	0	55	0	69206016	50	5002
2026-01-04 07:57:39.48	61.09	15.24	-39.6	-42.4	15.0	0.00e+00	0	55	0	71303168	50	5043
2026-01-04 07:57:40.49	60.88	15.27	-39.6	-42.4	15.1	0.00e+00	0	55	0	73400320	50	5053
2026-01-04 07:57:41.49	60.68	15.30	-39.6	-42.2	15.2	0.00e+00	0	55	0	74448896	50	4975
2026-01-04 07:57:42.50	60.47	15.33	-39.6	-42.4	15.1	0.00e+00	0	55	0	76546048	50	5053
2026-01-04 07:57:43.51	60.26	15.36	-39.8	-42.7	14.8	7.00e-07	0	55	0	78643200	50	5228
2026-01-04 07:57:44.52	60.05	15.39	-40.0	-43.0	14.5	1.50e-06	0	55	0	80740352	50	5419
2026-01-04 07:57:45.53	59.84	15.41	-40.3	-43.5	14.0	1.50e-06	0	55	0	82837504	51	5425
2026-01-04 07:57:46.54	59.63	15.44	-40.3	-43.6	13.9	1.50e-06	0	55	0	83886080	51	5469
2026-01-04 07:57:47.55	59.42	15.47	-40.3	-43.4	14.1	2.20e-06	0	55	0	85983232	51	5375
2026-01-04 07:57:48.56	59.21	15.50	-40.2	-43.3	14.2	3.00e-06	0	55	0	88080384	51	5323
2026-01-04 07:57:49.57	59.00	15.53	-40.2	-43.3	14.2	7.00e-07	0	55	0	90177536	51	5322
2026-01-04 07:57:50.58	58.79	15.55	-40.1	-43.2	14.3	7.00e-07	0	55	0	92274688	51	5241
2026-01-04 07:57:51.59	58.57	15.58	-40.2	-43.3	14.2	1.50e-06	0	55	0	94371840	51	5316
2026-01-04 07:57:52.60	58.36	15.61	-40.3	-43.5	14.0	3.00e-06	0	55	0	95420416	51	5422
2026-01-04 07:57:53.61	58.15	15.63	-40.3	-43.4	14.1	3.00e-06	0	55	0	97517568	51	5371
2026-01-04 07:57:54.62	57.94	15.66	-40.1	-43.2	14.3	0.00e+00	0	55	0	99614720	51	5233
2026-01-04 07:57:55.63	57.72	15.68	-40.0	-43.0	14.5	1.50e-06	0	56	0	101711872	51	5144
2026-01-04 07:57:56.64	57.51	15.71	-40.0	-42.9	14.6	0.00e+00	0	55	0	103809024	51	5066
2026-01-04 07:57:57.65	57.29	15.73	-39.8	-42.7	14.9	0.00e+00	0	55	0	104857600	51	4931
2026-01-04 07:57:58.65	57.08	15.76	-39.8	-42.7	14.8	0.00e+00	0	55	0	106954752	51	4939
2026-01-04 07:57:59.66	56.87	15.78	-39.8	-42.6	15.0	0.00e+00	0	56	0	109051904	51	4873
2026-01-04 07:58:00.67	56.65	15.80	-39.7	-42.5	15.0	0.00e+00	0	55	0	111149056	51	4830
2026-01-04 07:58:01.68	56.44	15.83	-39.7	-42.5	15.0	0.00e+00	0	56	0	113246208	51	4831
2026-01-04 07:58:02.69	56.22	15.85	-39.7	-42.4	15.1	0.00e+00	0	55	0	114294784	51	4808
2026-01-04 07:58:03.71	56.00	15.87	-39.7	-42.4	15.1	0.00e+00	0	55	0	116391936	51	4782
2026-01-04 07:58:04.71	55.79	15.89	-39.5	-42.2	15.3	0.00e+00	0	56	0	118489088	51	4676
2026-01-04 07:58:05.72	55.57	15.91	-39.5	-42.1	15.4	0.00e+00	0	55	0	120586240	51	4646
2026-01-04 07:58:06.73	55.35	15.94	-39.5	-42.2	15.3	0.00e+00	0	56	0	122683392	50	4949
2026-01-04 07:58:07.74	55.14	15.96	-39.4	-42.0	15.5	0.00e+00	0	56	0	123731968	50	4830
2026-01-04 07:58:08.75	54.92	15.98	-39.6	-42.3	15.2	0.00e+00	0	56	0	125829120	50	5029
2026-01-04 07:58:09.77	54.70	16.00	-39.7	-42.4	15.1	0.00e+00	0	55	0	127926272	50	5098
2026-01-04 07:58:10.77	54.48	16.02	-39.7	-42.5	15.0	0.00e+00	0	56	0	130023424	50	5151
2026-01-04 07:58:11.78	54.26	16.03	-39.7	-42.5	15.0	0.00e+00	0	56	0	132120576	50	5115
2026-01-04 07:58:12.79	54.04	16.05	-39.8	-42.6	14.9	7.00e-07	0	56	0	133169152	50	5204
2026-01-04 07:58:13.80	53.82	16.07	-39.8	-42.6	14.9	0.00e+00	0	56	0	135266304	50	5212
2026-01-04 07:58:14.81	53.60	16.09	-39.9	-42.8	14.7	0.00e+00	0	56	0	137363456	50	5324
2026-01-04 07:58:15.82	53.38	16.11	-40.1	-43.2	14.3	0.00e+00	0	56	0	139460608	50	5554
2026-01-04 07:58:16.83	53.16	16.12	-40.1	-43.2	14.3	0.00e+00	0	56	0	141557760	50	5553
2026-01-04 07:58:17.84	52.94	16.14	-40.1	-43.1	14.4	0.00e+00	0	55	0	142606336	50	5523
2026-01-04 07:58:18.85	52.72	16.16	-40.1	-43.2	14.3	7.00e-07	0	56	0	144703488	51	5251
2026-01-04 07:58:19.86	52.50	16.17	-40.2	-43.4	14.1	7.00e-07	0	56	0	146800640	51	5364
2026-01-04 07:58:20.87	52.28	16.19	-40.3	-43.6	13.8	3.00e-06	0	56	0	148897792	51	5513
2026-01-04 07:58:21.88	52.06	16.20	-40.4	-43.8	13.8	6.80e-06	0	56	0	150994944	51	5615
2026-01-04 07:58:22.89	51.84	16.22	-40.4	-43.8	13.8	6.10e-06	0	56	0	152043520	51	5612
2026-01-04 07:58:23.90	51.62	16.23	-40.3	-43.6	14.0	6.10e-06	0	56	0	154140672	51	5492
2026-01-04 07:58:24.91	51.40	16.24	-40.3	-43.5	14.0	3.00e-06	0	56	0	156237824	51	5457
2026-01-04 07:58:25.92	51.17	16.26	-40.2	-43.4	14.1	1.50e-06	0	56	0	158334976	51	5386
2026-01-04 07:58:26.93	50.95	16.27	-40.2	-43.3	14.2	3.00e-06	0	55	0	160432128	51	5334
2026-01-04 07:58:27.93	50.73	16.28	-40.2	-43.3	14.2	0.00e+00	0	56	0	162529280	51	5318
2026-01-04 07:58:28.95	50.51	16.29	-40.1	-43.2	14.4	1.50e-06	0	56	0	163577856	51	5277
2026-01-04 07:58:29.96	50.28	16.31	-40.0	-43.1	14.4	0.00e+00	0	56	0	165675008	51	5185
2026-01-04 07:58:30.97	50.06	16.32	-40.0	-43.0	14.5	7.00e-07	0	56	0	167772160	51	5146
2026-01-04 07:58:31.97	49.84	16.33	-40.0	-43.0	14.5	7.00e-07	0	56	0	169869312	51	5156
2026-01-04 07:58:32.98	49.62	16.34	-40.1	-43.1	14.4	1.50e-06	0	56	0	171966464	51	5214
2026-01-04 07:58:33.99	49.39	16.35	-40.1	-43.1	14.4	7.00e-07	0	55	0	173015040	51	5215
2026-01-04 07:58:35.00	49.17	16.36	-40.1	-43.1	14.4	0.00e+00	0	55	0	175112192	51	5194
2026-01-04 07:58:36.01	48.95	16.36	-40.0	-43.0	14.6	0.00e+00	0	56	0	177209344	51	5107
2026-01-04 07:58:37.02	48.72	16.37	-39.9	-42.7	14.8	0.00e+00	0	56	0	179306496	51	4982
2026-01-04 07:58:38.03	48.50	16.38	-39.9	-42.9	14.8	0.00e+00	0	56	0	181403648	51	5047
2026-01-04 07:58:39.04	48.28	16.39	-39.9	-42.8	14.8	0.00e+00	0	56	0	182452224	51	5007
2026-01-04 07:58:40.05	48.05	16.40	-40.0	-43.0	14.6	0.00e+00	0	56	0	184549376	51	5118
2026-01-04 07:58:41.06	47.83	16.40	-40.2	-43.2	14.4	0.00e+00	0	56	0	186646528	51	5241
2026-01-04 07:58:42.07	47.60	16.41	-40.1	-43.2	14.4	7.00e-07	0	56	0	188743680	51	5235
2026-01-04 07:58:43.08	47.38	16.41	-40.3	-43.4	14.2	0.00e+00	0	56	0	190840832	51	5379
2026-01-04 07:58:44.09	47.16	16.42	-40.2	-43.3	14.3	1.50e-06	0	56	0	191889408	51	5325
2026-01-04 07:58:45.10	46.93	16.42	-40.3	-43.4	14.2	0.00e+00	0	56	0	193986560	51	5360
2026-01-04 07:58:46.10	46.71	16.43	-40.2	-43.3	14.3	1.50e-06	0	56	0	196083712	51	5314
2026-01-04 07:58:47.11	46.48	16.43	-40.3	-43.4	14.2	2.20e-06	0	56	0	198180864	51	5370
2026-01-04 07:58:48.12	46.26	16.44	-40.2	-43.4	14.2	7.00e-07	0	56	0	200278016	51	5342
2026-01-04 07:58:49.13	46.03	16.44	-40.1	-43.1	14.5	1.50e-06	0	56	0	201326592	51	5181
2026-01-04 07:58:50.14	45.81	16.44	-39.9	-42.8	14.7	0.00e+00	0	56	0	203423744	51	5034
2026-01-04 07:58:51.15	45.58	16.44	-39.8	-42.6	15.0	0.00e+00	0	56	0	205520896	51	4888
2026-01-04 07:58:52.16	45.36	16.45	-39.7	-42.5	15.1	0.00e+00	0	56	0	207618048	51	4863
2026-01-04 07:58:53.17	45.14	16.45	-39.7	-42.5	15.1	0.00e+00	0	56	0	209715200	51	4866
2026-01-04 07:58:54.18	44.91	16.45	-39.8	-42.6	15.0	0.00e+00	0	56	0	210763776	51	4905
2026-01-04 07:58:55.19	44.69	16.45	-39.9	-42.8	14.7	1.50e-06	0	56	0	212860928	51	5032
2026-01-04 07:58:56.20	44.46	16.45	-40.0	-43.0	14.6	7.00e-07	0	56	0	214958080	51	5149
2026-01-04 07:58:57.21	44.24	16.45	-40.0	-43.0	14.5	0.00e+00	0	56	0	217055232	51	5147
2026-01-04 07:58:58.22	44.01	16.45	-40.2	-43.2	14.4	0.00e+00	0	56	0	219152384	51	5275
2026-01-04 07:58:59.23	43.79	16.44	-40.2	-43.3	14.4	0.00e+00	0	56	0	220200960	51	5289
2026-01-04 07:59:00.24	43.56	16.44	-40.4	-43.6	14.0	1.50e-06	0	56	0	222298112	51	5515
2026-01-04 07:59:01.25	43.34	16.44	-40.5	-43.8	13.9	6.80e-06	0	56	0	224395264	51	5605
2026-01-04 07:59:02.26	43.11	16.44	-40.6	-44.0	13.6	6.10e-06	0	56	0	226492416	51	5748
2026-01-04 07:59:03.27	42.89	16.43	-40.7	-44.2	13.3	1.83e-05	0	56	0	228589568	52	5562
2026-01-04 07:59:04.28	42.66	16.43	-40.7	-44.2	13.2	1.60e-05	0	56	0	230686720	52	5586
2026-01-04 07:59:05.29	42.44	16.43	-40.7	-44.2	13.3	2.44e-05	0	56	0	231735296	52	5573
2026-01-04 07:59:06.30	42.21	16.42	-40.5	-44.0	13.5	9.90e-06	0	56	0	233832448	52	5425
2026-01-04 07:59:07.31	41.99	16.42	-40.4	-43.8	13.8	9.10e-06	0	56	0	235929600	52	5285
2026-01-04 07:59:08.32	41.77	16.41	-40.3	-43.7	13.8	4.50e-06	0	56	0	238026752	52	5242
2026-01-04 07:59:09.33	41.54	16.41	-40.2	-43.4	14.1	3.00e-06	0	56	0	240123904	52	5093
2026-01-04 07:59:10.34	41.32	16.40	-40.2	-43.4	14.1	7.00e-07	0	56	0	241172480	52	5049
2026-01-04 07:59:11.35	41.09	16.39	-40.2	-43.4	14.2	0.00e+00	0	56	0	243269632	52	5057
2026-01-04 07:59:12.36	40.87	16.39	-40.2	-43.4	14.1	7.00e-07	0	56	0	245366784	52	5061
2026-01-04 07:59:13.37	40.65	16.38	-40.1	-43.3	14.3	7.00e-07	0	56	0	247463936	52	4991
2026-01-04 07:59:14.37	40.42	16.37	-39.9	-42.8	14.8	0.00e+00	0	56	0	249561088	51	5000
2026-01-04 07:59:15.38	40.20	16.36	-39.9	-42.8	14.8	7.00e-07	0	56	0	250609664	51	5013
2026-01-04 07:59:16.39	39.98	16.35	-39.9	-42.8	14.9	7.00e-07	0	56	0	252706816	51	4985
2026-01-04 07:59:17.40	39.75	16.34	-40.0	-43.0	14.6	0.00e+00	0	56	0	254803968	51	5118
2026-01-04 07:59:18.41	39.53	16.33	-40.1	-43.1	14.6	0.00e+00	0	56	0	256901120	51	5185
2026-01-04 07:59:19.42	39.31	16.32	-40.1	-43.2	14.5	0.00e+00	0	56	0	258998272	51	5232
2026-01-04 07:59:20.43	39.09	16.31	-40.1	-43.2	14.5	1.50e-06	0	56	0	260046848	51	5225
2026-01-04 07:59:21.44	38.86	16.30	-40.0	-42.9	14.7	0.00e+00	0	56	0	262144000	51	5096
2026-01-04 07:59:22.45	38.64	16.29	-39.8	-42.7	14.9	0.00e+00	0	56	0	264241152	51	4941
2026-01-04 07:59:23.46	38.42	16.28	-39.5	-42.1	15.5	0.00e+00	0	56	0	266338304	51	4630
2026-01-04 07:59:24.46	38.20	16.26	-39.3	-41.9	15.8	0.00e+00	0	56	0	268435456	50	4762
2026-01-04 07:59:25.47	37.98	16.25	-39.4	-41.9	15.8	0.00e+00	0	56	0	269484032	50	4776
2026-01-04 07:59:26.48	37.76	16.24	-39.3	-41.8	15.8	0.00e+00	0	56	0	271581184	50	4755
2026-01-04 07:59:27.49	37.53	16.23	-39.4	-42.0	15.7	0.00e+00	0	56	0	273678336	50	4825
2026-01-04 07:59:28.50	37.31	16.21	-39.5	-42.1	15.6	0.00e+00	0	56	0	275775488	50	4885
2026-01-04 07:59:29.51	37.09	16.20	-39.6	-42.3	15.4	0.00e+00	0	56	0	277872640	50	4995
2026-01-04 07:59:30.52	36.87	16.18	-39.7	-42.3	15.3	0.00e+00	0	56	0	278921216	50	5039
2026-01-04 07:59:31.53	36.65	16.17	-39.6	-42.2	15.5	0.00e+00	0	56	0	281018368	50	4952
2026-01-04 07:59:32.54	36.43	16.15	-39.6	-42.3	15.4	0.00e+00	0	56	0	283115520	50	4994
2026-01-04 07:59:33.55	36.21	16.13	-39.6	-42.3	15.4	0.00e+00	0	56	0	285212672	50	4991
2026-01-04 07:59:34.56	35.99	16.12	-39.6	-42.3	15.4	0.00e+00	0	56	0	287309824	50	5006
2026-01-04 07:59:35.57	35.77	16.10	-39.8	-42.5	15.1	0.00e+00	0	56	0	288358400	50	5146
2026-01-04 07:59:36.58	35.55	16.08	-39.8	-42.5	15.2	0.00e+00	0	56	0	290455552	50	5107
2026-01-04 07:59:37.59	35.33	16.06	-39.8	-42.5	15.2	0.00e+00	0	56	0	292552704	50	5143
2026-01-04 07:59:38.59	35.12	16.05	-39.9	-42.8	14.9	0.00e+00	0	56	0	294649856	50	5297
2026-01-04 07:59:39.60	34.90	16.03	-40.0	-42.9	14.8	0.00e+00	0	56	0	296747008	50	5354
2026-01-04 07:59:40.61	34.68	16.01	-40.0	-42.9	14.8	0.00e+00	0	56	0	298844160	50	5352
2026-01-04 07:59:41.62	34.46	15.99	-40.2	-43.2	14.5	1.50e-06	0	56	0	299892736	50	5537
2026-01-04 07:59:42.63	34.24	15.97	-40.2	-43.1	14.5	0.00e+00	0	56	0	301989888	50	5524
2026-01-04 07:59:43.64	34.03	15.95	-40.0	-42.8	14.8	0.00e+00	0	56	0	304087040	50	5323
2026-01-04 07:59:44.65	33.81	15.93	-40.0	-42.9	14.8	0.00e+00	0	56	0	306184192	50	5356
2026-01-04 07:59:45.66	33.59	15.91	-39.8	-42.6	15.0	0.00e+00	0	56	0	308281344	50	5193
2026-01-04 07:59:46.67	33.38	15.89	-39.7	-42.4	15.3	0.00e+00	0	56	0	309329920	50	5059
2026-01-04 07:59:47.68	33.16	15.86	-39.7	-42.3	15.3	0.00e+00	0	56	0	311427072	50	5041
2026-01-04 07:59:48.69	32.94	15.84	-39.8	-42.4	15.2	0.00e+00	0	56	0	313524224	50	5096
2026-01-04 07:59:49.70	32.73	15.82	-39.7	-42.3	15.3	0.00e+00	0	56	0	315621376	50	5023
2026-01-04 07:59:50.71	32.51	15.80	-39.7	-42.4	15.3	0.00e+00	0	56	0	317718528	50	5058
2026-01-04 07:59:51.72	32.30	15.77	-39.7	-42.4	15.3	0.00e+00	0	56	0	318767104	50	5068
2026-01-04 07:59:52.73	32.08	15.75	-39.7	-42.3	15.3	0.00e+00	0	56	0	320864256	50	5010
2026-01-04 07:59:53.74	31.87	15.72	-39.6	-42.2	15.4	0.00e+00	0	56	0	322961408	50	4963
2026-01-04 07:59:54.75	31.66	15.70	-39.5	-42.0	15.6	0.00e+00	0	56	0	325058560	50	4867
2026-01-04 07:59:55.76	31.44	15.67	-39.7	-42.3	15.3	0.00e+00	0	56	0	327155712	50	5041
2026-01-04 07:59:56.77	31.23	15.65	-39.8	-42.6	15.0	0.00e+00	0	56	0	328204288	50	5174
2026-01-04 07:59:57.78	31.02	15.62	-39.9	-42.8	14.8	0.00e+00	0	56	0	330301440	50	5305
2026-01-04 07:59:58.79	30.80	15.60	-39.9	-42.8	14.8	7.00e-07	0	56	0	332398592	50	5297
2026-01-04 07:59:59.80	30.59	15.57	-40.0	-42.9	14.7	0.00e+00	0	56	0	334495744	50	5364
2026-01-04 08:00:00.81	30.38	15.54	-40.0	-42.9	14.6	7.00e-07	0	56	0	336592896	50	5400
2026-01-04 08:00:01.82	30.17	15.52	-40.0	-42.9	14.6	7.00e-07	0	56	0	337641472	50	5391
2026-01-04 08:00:02.83	29.96	15.49	-40.1	-43.1	14.4	7.00e-07	0	56	0	339738624	50	5507
2026-01-04 08:00:03.84	29.75	15.46	-40.1	-43.1	14.5	0.00e+00	0	56	0	341835776	50	5506
2026-01-04 08:00:04.85	29.54	15.43	-40.2	-43.4	14.3	7.00e-07	0	56	0	343932928	51	5355
2026-01-04 08:00:05.86	29.33	15.40	-40.3	-43.4	14.2	1.50e-06	0	56	0	346030080	51	5377
2026-01-04 08:00:06.87	29.12	15.38	-40.4	-43.7	13.9	2.20e-06	0	56	0	347078656	51	5538
2026-01-04 08:00:07.88	28.91	15.35	-40.6	-43.9	13.7	5.30e-06	0	56	0	349175808	51	5695
2026-01-04 08:00:08.89	28.70	15.32	-40.6	-44.0	13.5	1.22e-05	0	56	0	351272960	51	5774
2026-01-04 08:00:09.90	28.50	15.29	-40.6	-43.9	13.7	9.10e-06	0	56	0	353370112	51	5693
2026-01-04 08:00:10.91	28.29	15.26	-40.5	-43.8	13.8	5.30e-06	0	56	0	355467264	51	5619
2026-01-04 08:00:11.91	28.08	15.23	-40.4	-43.6	13.9	5.30e-06	0	56	0	356515840	51	5520
2026-01-04 08:00:12.92	27.88	15.19	-40.3	-43.4	14.1	2.20e-06	0	56	0	358612992	51	5387
2026-01-04 08:00:13.93	27.67	15.16	-40.2	-43.3	14.3	0.00e+00	0	56	0	360710144	51	5294
2026-01-04 08:00:14.94	27.47	15.13	-40.1	-43.2	14.4	2.20e-06	0	56	0	362807296	51	5220
2026-01-04 08:00:15.95	27.26	15.10	-40.2	-43.3	14.3	1.50e-06	0	56	0	364904448	51	5290
2026-01-04 08:00:16.96	27.06	15.07	-40.2	-43.3	14.3	0.00e+00	0	56	0	367001600	51	5282
2026-01-04 08:00:17.97	26.85	15.03	-40.2	-43.3	14.3	7.00e-07	0	56	0	368050176	51	5284
2026-01-04 08:00:18.98	26.65	15.00	-40.1	-43.2	14.4	0.00e+00	0	56	0	370147328	51	5228
2026-01-04 08:00:19.99	26.44	14.97	-40.0	-43.0	14.6	7.00e-07	0	56	0	372244480	51	5102
2026-01-04 08:00:21.00	26.24	14.93	-40.1	-43.1	14.5	7.00e-07	0	56	0	374341632	51	5208
2026-01-04 08:00:22.01	26.04	14.90	-40.0	-43.0	14.5	7.00e-07	0	56	0	376438784	51	5133
2026-01-04 08:00:23.02	25.84	14.87	-39.9	-42.8	14.7	0.00e+00	0	56	0	377487360	51	5024
2026-01-04 08:00:24.02	25.64	14.83	-39.8	-42.6	14.9	0.00e+00	0	56	0	379584512	51	4925
2026-01-04 08:00:25.03	25.44	14.80	-39.5	-42.1	15.4	0.00e+00	0	56	0	381681664	51	4626
2026-01-04 08:00:26.04	25.24	14.76	-39.4	-42.0	15.5	0.00e+00	0	56	0	383778816	50	4834
2026-01-04 08:00:27.05	25.04	14.73	-39.3	-41.9	15.6	0.00e+00	0	56	0	385875968	50	4784
2026-01-04 08:00:28.06	24.84	14.69	-39.5	-42.1	15.4	0.00e+00	0	56	0	386924544	50	4903
2026-01-04 08:00:29.07	24.64	14.66	-39.4	-41.9	15.6	0.00e+00	0	56	0	389021696	50	4795
2026-01-04 08:00:30.08	24.44	14.62	-39.5	-42.2	15.3	0.00e+00	0	56	0	391118848	50	4966
2026-01-04 08:00:31.09	24.24	14.58	-39.7	-42.5	15.0	0.00e+00	0	56	0	393216000	50	5128
2026-01-04 08:00:32.10	24.04	14.55	-40.0	-42.9	14.6	0.00e+00	0	56	0	395313152	50	5382
2026-01-04 08:00:33.11	23.85	14.51	-39.9	-42.8	14.7	0.00e+00	0	56	0	396361728	50	5315
2026-01-04 08:00:34.12	23.65	14.47	-39.9	-42.9	14.6	7.00e-07	0	56	0	398458880	50	5343
2026-01-04 08:00:35.13	23.45	14.43	-40.0	-43.0	14.5	7.00e-07	0	56	0	400556032	50	5456
2026-01-04 08:00:36.14	23.26	14.39	-40.2	-43.4	14.1	7.00e-07	0	56	0	402653184	51	5344
2026-01-04 08:00:37.15	23.06	14.36	-40.4	-43.8	13.7	6.80e-06	0	56	0	404750336	51	5608
2026-01-04 08:00:38.16	22.87	14.32	-40.6	-44.1	13.4	9.10e-06	0	56	0	405798912	51	5806
2026-01-04 08:00:39.17	22.67	14.28	-40.6	-44.2	13.3	1.67e-05	0	56	0	407896064	51	5884
2026-01-04 08:00:40.18	22.48	14.24	-40.6	-44.2	13.3	1.14e-05	0	56	0	409993216	51	5875
2026-01-04 08:00:41.19	22.29	14.20	-40.7	-44.2	13.3	1.52e-05	0	56	0	412090368	51	5878
2026-01-04 08:00:42.20	22.10	14.16	-40.5	-44.0	13.6	1.52e-05	0	56	0	414187520	51	5747
2026-01-04 08:00:43.21	21.90	14.12	-40.5	-43.9	13.6	6.80e-06	0	56	0	415236096	51	5657
2026-01-04 08:00:44.22	21.71	14.08	-40.5	-43.9	13.5	1.29e-05	0	56	0	417333248	51	5694
2026-01-04 08:00:45.23	21.52	14.04	-40.5	-43.9	13.6	9.10e-06	0	56	0	419430400	51	5669
2026-01-04 08:00:46.24	21.33	14.00	-40.5	-44.0	13.5	6.10e-06	0	56	0	421527552	51	5744
2026-01-04 08:00:47.25	21.14	13.96	-40.5	-43.9	13.5	1.06e-05	0	56	0	423624704	51	5691
2026-01-04 08:00:48.26	20.95	13.92	-40.5	-44.0	13.3	3.35e-05	0	56	0	424673280	52	5457
2026-01-04 08:00:49.27	20.76	13.88	-40.5	-44.0	13.3	1.06e-05	0	56	0	426770432	52	5442
2026-01-04 08:00:50.28	20.57	13.84	-40.5	-44.0	13.3	5.30e-06	0	56	0	428867584	52	5439
2026-01-04 08:00:51.29	20.39	13.79	-40.4	-43.8	13.6	9.90e-06	0	56	0	430964736	52	5288
2026-01-04 08:00:52.30	20.20	13.75	-40.4	-43.9	13.5	1.29e-05	0	56	0	433061888	52	5351
2026-01-04 08:00:53.31	20.01	13.71	-40.2	-43.5	13.8	1.14e-05	0	56	0	435159040	52	5115
2026-01-04 08:00:54.32	19.83	13.67	-40.2	-43.4	13.8	4.50e-06	0	56	0	436207616	52	5095
2026-01-04 08:00:55.33	19.64	13.62	-40.2	-43.5	13.8	7.00e-07	0	56	0	438304768	52	5152
2026-01-04 08:00:56.34	19.46	13.58	-40.2	-43.5	13.8	7.00e-07	0	56	0	440401920	52	5152
2026-01-04 08:00:57.35	19.27	13.54	-40.2	-43.6	13.7	7.00e-07	0	56	0	442499072	52	5189
2026-01-04 08:00:58.36	19.09	13.49	-40.2	-43.6	13.6	6.80e-06	0	56	0	444596224	52	5193
2026-01-04 08:00:59.37	18.91	13.45	-40.1	-43.3	13.9	4.50e-06	0	56	0	445644800	52	5024
2026-01-04 08:01:00.38	18.72	13.41	-40.0	-43.1	14.1	3.00e-06	0	56	0	447741952	52	4923
2026-01-04 08:01:01.39	18.54	13.36	-40.1	-43.2	14.1	3.00e-06	0	56	0	449839104	51	5278
2026-01-04 08:01:02.39	18.36	13.32	-39.9	-42.9	14.5	7.00e-07	0	56	0	451936256	51	5055
2026-01-04 08:01:03.41	18.18	13.27	-39.9	-42.9	14.4	7.00e-07	0	56	0	454033408	51	5087
2026-01-04 08:01:04.42	18.00	13.23	-39.9	-42.9	14.4	0.00e+00	0	56	0	455081984	51	5069
2026-01-04 08:01:05.43	17.82	13.18	-39.9	-43.0	14.4	1.50e-06	0	56	0	457179136	51	5117
2026-01-04 08:01:06.43	17.64	13.14	-40.1	-43.3	14.1	3.00e-06	0	56	0	459276288	51	5323
2026-01-04 08:01:07.44	17.46	13.10	-40.3	-43.6	13.7	3.00e-06	0	56	0	461373440	51	5502
2026-01-04 08:01:08.45	17.28	13.05	-40.4	-43.8	13.5	8.30e-06	0	56	0	463470592	51	5640
2026-01-04 08:01:09.46	17.11	13.00	-40.4	-43.8	13.5	1.06e-05	0	56	0	464519168	51	5647
2026-01-04 08:01:10.47	16.93	12.96	-40.4	-43.9	13.4	1.98e-05	0	56	0	466616320	51	5675
2026-01-04 08:01:11.48	16.75	12.91	-40.4	-43.8	13.4	1.44e-05	0	56	0	468713472	51	5630
2026-01-04 08:01:12.49	16.58	12.87	-40.4	-43.9	13.4	1.22e-05	0	56	0	470810624	51	5667
2026-01-04 08:01:13.50	16.40	12.82	-40.3	-43.6	13.7	1.14e-05	0	56	0	472907776	51	5522
2026-01-04 08:01:14.51	16.22	12.77	-40.3	-43.7	13.6	6.10e-06	0	56	0	473956352	51	5564
2026-01-04 08:01:15.52	16.05	12.73	-40.1	-43.3	14.0	1.14e-05	0	56	0	476053504	51	5294
2026-01-04 08:01:16.53	15.88	12.68	-40.0	-43.2	14.1	1.50e-06	0	56	0	478150656	51	5257
2026-01-04 08:01:17.54	15.70	12.63	-40.2	-43.5	13.7	5.30e-06	0	56	0	480247808	51	5456
2026-01-04 08:01:18.55	15.53	12.59	-40.4	-43.8	13.5	5.30e-06	0	56	0	482344960	51	5614
2026-01-04 08:01:19.56	15.36	12.54	-40.6	-44.3	12.8	3.12e-05	0	56	0	483393536	52	5656
2026-01-04 08:01:20.57	15.19	12.49	-40.9	-45.0	12.2	9.91e-05	0	56	0	485490688	52	6075
2026-01-04 08:01:21.58	15.02	12.44	-41.2	-45.7	11.4	4.27e-04	0	56	0	487587840	53	6265
2026-01-04 08:01:22.59	14.85	12.40	-41.4	-46.1	11.0	1.74e-03	0	56	0	489684992	53	6549
2026-01-04 08:01:23.60	14.68	12.35	-41.7	-47.1	9.9	5.78e-03	0	56	0	491782144	53	7356
2026-01-04 08:01:24.61	14.51	12.30	-41.7	-47.0	10.0	9.40e-03	0	56	0	492830720	54	6820
2026-01-04 08:01:25.62	14.34	12.25	-41.7	-47.0	10.0	7.65e-03	0	56	0	494927872	54	6804
2026-01-04 08:01:26.63	14.17	12.20	-41.6	-46.8	10.1	5.90e-03	0	56	0	497025024	54	6690
2026-01-04 08:01:27.64	14.00	12.15	-41.6	-46.8	10.2	5.59e-03	0	56	0	499122176	54	6704
2026-01-04 08:01:28.65	13.84	12.11	-41.4	-46.1	10.8	2.94e-03	0	56	0	501219328	54	6190
2026-01-04 08:01:29.66	13.67	12.06	-41.3	-46.1	10.8	1.89e-03	0	56	0	503316480	54	6191
2026-01-04 08:01:30.67	13.50	12.01	-41.3	-45.9	11.0	2.47e-03	0	56	0	504365056	54	6061
2026-01-04 08:01:31.68	13.34	11.96	-41.2	-45.8	11.1	1.55e-03	0	56	0	506462208	54	5934
2026-01-04 08:01:32.69	13.17	11.91	-41.2	-45.8	11.1	1.48e-03	0	56	0	508559360	54	5974
2026-01-04 08:01:33.70	13.01	11.86	-41.2	-45.8	11.1	1.46e-03	0	56	0	510656512	54	5936
2026-01-04 08:01:34.71	12.84	11.81	-41.0	-45.4	11.4	1.52e-03	0	56	0	512753664	54	5695
2026-01-04 08:01:35.72	12.68	11.76	-40.7	-44.9	11.9	6.26e-04	0	56	0	513802240	53	5659
2026-01-04 08:01:36.73	12.52	11.71	-40.6	-44.7	12.0	2.96e-04	0	56	0	515899392	53	5554
2026-01-04 08:01:37.74	12.36	11.66	-40.5	-44.6	12.0	3.42e-04	0	56	0	517996544	53	5500
2026-01-04 08:01:38.75	12.20	11.61	-40.4	-44.3	12.3	1.70e-04	0	56	0	520093696	52	5643
2026-01-04 08:01:39.76	12.04	11.56	-40.3	-44.3	12.2	2.10e-04	0	56	0	522190848	52	5649
2026-01-04 08:01:40.77	11.87	11.51	-40.4	-44.4	12.0	2.87e-04	0	56	0	523239424	52	5706
2026-01-04 08:01:41.78	11.72	11.46	-40.3	-44.3	12.1	4.11e-04	0	57	0	525336576	52	5649
2026-01-04 08:01:42.79	11.56	11.41	-40.2	-44.3	11.9	4.39e-04	0	56	0	527433728	52	5643
2026-01-04 08:01:43.80	11.40	11.36	-40.3	-44.6	11.6	4.03e-04	0	56	0	529530880	52	5805
2026-01-04 08:01:44.81	11.24	11.31	-40.3	-44.8	11.3	8.50e-04	0	56	0	531628032	52	5945
2026-01-04 08:01:45.82	11.08	11.26	-40.4	-45.2	10.7	2.23e-03	0	56	0	532676608	52	6244
2026-01-04 08:01:46.82	10.93	11.21	-40.6	-45.8	9.9	5.64e-03	0	56	0	534773760	52	6697
2026-01-04 08:01:47.83	10.77	11.16	-40.6	-46.2	9.2	1.30e-02	0	56	0	536870912	52	6984
2026-01-04 08:01:48.84	10.61	11.10	-40.6	-46.8	8.3	3.91e-02	0	56	0	538968064	52	7538
2026-01-04 08:01:49.85	10.46	11.05	-40.7	-47.8	7.1	9.26e-02	0	56	0	541065216	52	8425
2026-01-04 08:01:50.86	10.30	11.00	-40.7	-48.5	6.3	1.79e-01	0	56	0	542113792	52	9143
2026-01-04 08:01:51.87	10.15	10.95	-40.7	-49.6	5.4	4.35e-01	0	56	0	544210944	52	10339
2026-01-04 08:01:52.88	10.00	10.90	-40.7	-50.6	4.7	7.20e-01	0	56	0	546308096	52	11668
2026-01-04 08:01:53.89	9.84	10.85	-40.6	-52.0	4.2	1.20e+00	0	57	0	547356672	52	13576
2026-01-04 08:01:54.90	9.69	10.80	-40.6	-53.1	3.9	1.48e+00	0	56	104	547356672	52	15456
2026-01-04 08:01:55.91	9.54	10.74	-40.5	-53.5	3.8	1.49e+00	0	57	104	547356672	52	16167
2026-01-04 08:01:56.92	9.39	10.69	-40.4	-53.4	3.8	1.49e+00	0	56	104	547356672	52	16084
2026-01-04 08:01:57.93	9.24	10.64	-40.4	-53.3	3.8	1.49e+00	0	56	104	547356672	52	15766
2026-01-04 08:01:58.94	9.09	10.59	-40.3	-53.5	3.8	1.49e+00	0	56	104	547356672	52	16167
2026-01-04 08:01:59.95	8.94	10.54	-40.2	-53.8	3.8	1.49e+00	0	56	104	547356672	52	16721
2026-01-04 08:02:00.96	8.79	10.48	-40.2	-54.1	3.8	1.49e+00	0	56	104	547356672	52	17331
2026-01-04 08:02:01.97	8.64	10.43	-40.2	-54.2	3.8	1.49e+00	0	56	104	547356672	52	17496
2026-01-04 08:02:02.98	8.49	10.38	-40.2	-54.2	3.8	1.49e+00	0	56	104	547356672	52	17625
2026-01-04 08:02:03.98	8.35	10.33	-40.2	-54.3	3.8	1.49e+00	0	57	104	547356672	52	17858
2026-01-04 08:02:04.99	8.20	10.28	-40.2	-54.3	3.8	1.49e+00	0	56	104	547356672	52	17757
2026-01-04 08:02:06.00	8.05	10.22	-40.3	-54.1	3.8	1.49e+00	0	56	104	547356672	52	17369
2026-01-04 08:02:07.01	7.91	10.17	-40.3	-54.1	3.8	1.49e+00	0	56	104	547356672	52	17447
2026-01-04 08:02:08.02	7.76	10.12	-39.9	-54.3	3.8	1.49e+00	0	56	104	547356672	51	18927
2026-01-04 08:02:09.03	7.62	10.06	-39.9	-54.4	3.8	1.49e+00	0	56	104	547356672	51	19148
2026-01-04 08:02:10.04	7.47	10.01	-40.0	-54.5	3.8	1.49e+00	0	56	104	547356672	51	19219
2026-01-04 08:02:11.05	7.33	9.96	-39.9	-54.4	3.8	1.49e+00	0	57	104	547356672	51	19043
2026-01-04 08:02:12.06	7.18	9.91	-40.0	-54.4	3.8	1.49e+00	0	56	104	547356672	51	19143
2026-01-04 08:02:13.07	7.04	9.85	-40.2	-54.6	3.8	1.49e+00	0	57	104	547356672	51	19601
2026-01-04 08:02:14.08	6.90	9.80	-39.8	-54.3	3.8	1.49e+00	0	57	104	547356672	51	18771
2026-01-04 08:02:15.09	6.76	9.75	-40.2	-54.7	3.8	1.49e+00	0	56	104	547356672	51	19646
2026-01-04 08:02:16.10	6.62	9.69	-39.7	-54.2	3.8	1.49e+00	0	56	104	547356672	51	18679
2026-01-04 08:02:17.11	6.48	9.64	-39.8	-54.3	3.8	1.49e+00	0	56	104	547356672	51	18763
2026-01-04 08:02:18.12	6.34	9.59	-39.9	-54.4	3.8	1.49e+00	0	57	104	547356672	51	19020
2026-01-04 08:02:19.12	6.20	9.53	-39.7	-54.2	3.8	1.49e+00	0	57	104	547356672	51	18670
2026-01-04 08:02:20.14	6.06	9.48	-39.9	-54.3	3.8	1.49e+00	0	56	104	547356672	51	18905
2026-01-04 08:02:21.15	5.92	9.43	-40.0	-54.6	3.8	1.49e+00	0	56	104	547356672	51	19421
2026-01-04 08:02:22.16	5.78	9.37	-39.7	-54.2	3.8	1.49e+00	0	56	104	547356672	51	18558
2026-01-04 08:02:23.17	5.64	9.32	-39.9	-54.5	3.8	1.49e+00	0	56	104	547356672	51	19221
2026-01-04 08:02:24.18	5.51	9.27	-39.7	-54.2	3.8	1.49e+00	0	57	104	547356672	51	18558
2026-01-04 08:02:25.19	5.37	9.21	-39.7	-54.2	3.8	1.49e+00	0	56	104	547356672	51	18577
2026-01-04 08:02:26.20	5.23	9.16	-39.7	-54.2	3.8	1.49e+00	0	57	104	547356672	51	18691
2026-01-04 08:02:27.21	5.10	9.11	-39.7	-54.2	3.8	1.49e+00	0	56	104	547356672	51	18547
2026-01-04 08:02:28.22	4.96	9.05	-39.7	-54.2	3.8	1.49e+00	0	56	104	547356672	51	18642
2026-01-04 08:02:29.23	4.83	9.00	-39.8	-54.3	3.8	1.49e+00	0	56	104	547356672	51	18882
2026-01-04 08:02:30.23	4.70	8.95	-39.7	-54.2	3.8	1.49e+00	0	57	104	547356672	51	18610
2026-01-04 08:02:31.24	4.56	8.89	-39.8	-54.4	3.8	1.49e+00	0	56	104	547356672	51	18950
2026-01-04 08:02:32.25	4.43	8.84	-39.7	-54.2	3.8	1.49e+00	0	56	104	547356672	51	18700
2026-01-04 08:02:33.26	4.30	8.78	-39.7	-54.2	3.8	1.49e+00	0	57	104	547356672	51	18702
2026-01-04 08:02:34.27	4.17	8.73	-39.7	-54.1	3.8	1.49e+00	0	57	104	547356672	51	18507
2026-01-04 08:02:35.28	4.03	8.68	-39.7	-54.2	3.8	1.49e+00	0	56	104	547356672	51	18625
2026-01-04 08:02:36.29	3.90	8.62	-39.7	-54.2	3.8	1.49e+00	0	56	104	547356672	51	18583
2026-01-04 08:02:37.30	3.77	8.57	-39.8	-54.3	3.8	1.49e+00	0	56	104	547356672	51	18816
2026-01-04 08:02:38.31	3.64	8.51	-39.7	-54.2	3.8	1.49e+00	0	56	104	547356672	51	18688
2026-01-04 08:02:39.32	3.51	8.46	-39.7	-54.3	3.8	1.49e+00	0	56	104	547356672	51	18747
2026-01-04 08:02:40.33	3.39	8.41	-39.7	-54.2	3.8	1.49e+00	0	57	104	547356672	51	18588
2026-01-04 08:02:41.34	3.26	8.35	-39.6	-54.2	3.8	1.49e+00	0	56	104	547356672	51	18575
2026-01-04 08:02:42.35	3.13	8.30	-39.7	-54.2	3.8	1.49e+00	0	56	104	547356672	51	18644
2026-01-04 08:02:43.36	3.00	8.24	-39.7	-54.2	3.8	1.49e+00	0	56	104	547356672	51	18601
2026-01-04 08:02:44.37	2.87	8.19	-39.7	-54.2	3.8	1.49e+00	0	56	104	547356672	51	18579
2026-01-04 08:02:45.38	2.75	8.14	-39.7	-54.2	3.8	1.49e+00	0	57	104	547356672	51	18631
2026-01-04 08:02:46.39	2.62	8.08	-39.7	-54.2	3.8	1.49e+00	0	56	104	547356672	51	18596
2026-01-04 08:02:47.40	2.50	8.03	-39.7	-54.3	3.8	1.49e+00	0	57	104	547356672	51	18751
2026-01-04 08:02:48.41	2.37	7.97	-42.6	-57.3	3.8	1.49e+00	0	56	104	547356672	55	21040
2026-01-04 08:02:49.42	2.25	7.92	-44.5	-59.0	3.8	1.49e+00	0	56	104	547356672	59	20451
2026-01-04 08:02:50.43	2.12	7.86	-44.7	-59.4	3.8	1.49e+00	0	56	104	547356672	60	20282
2026-01-04 08:02:51.44	2.00	7.81	-44.8	-59.5	3.8	1.49e+00	0	56	104	547356672	60	20433
2026-01-04 08:02:52.45	1.88	7.76	-44.9	-59.6	3.8	1.49e+00	0	56	104	547356672	60	20691
2026-01-04 08:02:53.46	1.75	7.70	-45.0	-59.7	3.8	1.49e+00	0	56	104	547356672	60	20844
2026-01-04 08:02:54.47	1.63	7.65	-45.0	-59.7	3.8	1.49e+00	0	56	104	547356672	60	20954
2026-01-04 08:02:55.48	1.51	7.59	-45.0	-59.8	3.8	1.49e+00	0	57	104	547356672	60	21069
2026-01-04 08:02:56.50	1.39	7.54	-45.0	-59.8	3.8	1.49e+00	0	57	104	547356672	60	21019
2026-01-04 08:02:57.51	1.27	7.48	-44.8	-59.7	3.8	1.49e+00	0	57	104	547356672	60	20995
2026-01-04 08:02:58.52	1.15	7.43	-44.9	-59.7	3.8	1.49e+00	0	56	104	547356672	60	20894
2026-01-04 08:02:59.53	1.03	7.38	-44.9	-59.7	3.8	1.49e+00	0	56	104	547356672	60	20837
2026-01-04 08:03:00.54	0.91	7.32	-44.8	-59.6	3.8	1.49e+00	0	57	104	547356672	60	20772
2026-01-04 08:03:01.55	0.79	7.27	-44.8	-59.6	3.8	1.49e+00	0	57	104	547356672	60	20754
2026-01-04 08:03:02.56	0.67	7.21	-44.8	-59.6	3.8	1.49e+00	0	57	104	547356672	60	20712
2026-01-04 08:03:03.57	0.55	7.16	-44.8	-59.6	3.8	1.49e+00	0	57	104	547356672	60	20705
2026-01-04 08:03:04.58	0.43	7.10	-44.8	-59.6	3.8	1.49e+00	0	56	104	547356672	60	20660
2026-01-04 08:03:05.59	0.32	7.05	-44.8	-59.6	3.8	1.49e+00	0	56	104	547356672	60	20669
2026-01-04 08:03:06.60	0.20	7.00	-44.8	-59.6	3.8	1.49e+00	0	57	104	547356672	60	20627
2026-01-04 08:03:07.61	0.08	6.94	-44.8	-59.6	3.8	1.49e+00	0	57	104	547356672	60	20711
2026-01-04 08:03:08.62	359.97	6.89	-44.8	-59.6	3.8	1.49e+00	0	57	104	547356672	60	20702
2026-01-04 08:03:09.64	359.85	6.83	-44.8	-59.6	3.8	1.49e+00	0	57	104	547356672	60	20633
2026-01-04 08:03:10.65	359.74	6.78	-44.8	-59.6	3.8	1.49e+00	0	57	104	547356672	60	20654
2026-01-04 08:03:11.66	359.62	6.72	-44.7	-59.6	3.8	1.49e+00	0	57	104	547356672	60	20603
2026-01-04 08:03:12.67	359.51	6.67	-44.7	-59.6	3.8	1.49e+00	0	57	104	547356672	60	20630
2026-01-04 08:03:13.68	359.39	6.61	-44.7	-59.6	3.8	1.49e+00	0	57	104	547356672	60	20653
2026-01-04 08:03:14.69	359.28	6.56	-44.7	-59.6	3.8	1.49e+00	0	57	104	547356672	60	20626
2026-01-04 08:03:15.70	359.17	6.51	-44.7	-59.6	3.8	1.49e+00	0	57	104	547356672	60	20572
2026-01-04 08:03:16.71	359.06	6.45	-44.7	-59.6	3.8	1.49e+00	0	57	104	547356672	60	20554
2026-01-04 08:03:17.72	358.94	6.40	-44.7	-59.6	3.8	1.49e+00	0	57	104	547356672	60	20585
2026-01-04 08:03:18.73	358.83	6.34	-44.7	-59.6	3.8	1.49e+00	0	56	104	547356672	60	20611
2026-01-04 08:03:19.75	358.72	6.29	-44.7	-59.6	3.8	1.49e+00	0	57	104	547356672	60	20576
2026-01-04 08:03:20.76	358.61	6.23	-44.7	-59.6	3.8	1.49e+00	0	56	104	547356672	60	20611
2026-01-04 08:03:21.77	358.50	6.18	-44.7	-59.6	3.8	1.49e+00	0	56	104	547356672	60	20599
2026-01-04 08:03:22.78	358.39	6.13	-44.8	-59.6	3.8	1.49e+00	0	57	104	547356672	60	20580
2026-01-04 08:03:23.79	358.28	6.07	-44.8	-59.6	3.8	1.49e+00	0	57	104	547356672	60	20615
2026-01-04 08:03:24.80	358.17	6.02	-44.7	-59.6	3.8	1.49e+00	0	57	104	547356672	60	20574
2026-01-04 08:03:25.81	358.06	5.96	-44.7	-59.6	3.8	1.49e+00	0	57	104	547356672	60	20576
2026-01-04 08:03:26.83	357.96	5.91	-44.7	-59.6	3.8	1.49e+00	0	57	104	547356672	60	20576
2026-01-04 08:03:27.84	357.85	5.85	-44.7	-59.6	3.8	1.49e+00	0	57	104	547356672	60	20616
2026-01-04 08:03:28.85	357.74	5.80	-44.7	-59.6	3.8	1.49e+00	0	56	104	547356672	60	20591
2026-01-04 08:03:29.86	357.63	5.75	-44.7	-59.6	3.8	1.49e+00	0	57	104	547356672	60	20575
2026-01-04 08:03:30.87	357.53	5.69	-44.7	-59.6	3.8	1.49e+00	0	57	104	547356672	60	20635
2026-01-04 08:03:31.88	357.42	5.64	-44.7	-59.6	3.8	1.49e+00	0	57	104	547356672	60	20601
2026-01-04 08:03:32.89	357.32	5.58	-44.7	-59.6	3.8	1.49e+00	0	57	104	547356672	60	20633
2026-01-04 08:03:33.90	357.21	5.53	-44.7	-59.6	3.8	1.49e+00	0	56	104	547356672	60	20567
2026-01-04 08:03:34.91	357.11	5.48	-44.7	-59.6	3.8	1.49e+00	0	57	104	547356672	60	20556
2026-01-04 08:03:35.93	357.00	5.42	-44.7	-59.6	3.8	1.49e+00	0	57	104	547356672	60	20575
2026-01-04 08:03:36.94	356.90	5.37	-44.7	-59.6	3.8	1.49e+00	0	56	104	547356672	60	20595
2026-01-04 08:03:37.95	356.79	5.31	-44.7	-59.6	3.8	1.49e+00	0	57	104	547356672	60	20577
2026-01-04 08:03:38.96	356.69	5.26	-44.7	-59.6	3.8	1.49e+00	0	57	104	547356672	60	20575
2026-01-04 08:03:39.97	356.59	5.21	-44.7	-59.6	3.8	1.49e+00	0	56	104	547356672	60	20633
2026-01-04 08:03:40.98	356.48	5.15	-44.7	-59.6	3.8	1.49e+00	0	57	104	547356672	60	20584
2026-01-04 08:03:41.99	356.38	5.10	-44.7	-59.6	3.8	1.49e+00	0	57	104	547356672	60	20544
2026-01-04 08:03:43.01	356.28	5.04	-44.7	-59.6	3.8	1.49e+00	0	57	104	547356672	60	20565
2026-01-04 08:03:44.02	356.18	4.99	-44.7	-59.6	3.8	1.49e+00	0	57	104	547356672	60	20607
2026-01-04 08:03:45.03	356.08	4.94	-44.7	-59.6	3.8	1.49e+00	0	57	104	547356672	60	20559
2026-01-04 08:03:46.04	355.98	4.88	-44.7	-59.5	3.8	1.49e+00	0	57	104	547356672	60	20531
2026-01-04 08:03:47.05	355.88	4.83	-44.7	-59.6	3.8	1.49e+00	0	57	104	547356672	60	20565
2026-01-04 08:03:48.06	355.78	4.78	-44.7	-59.5	3.8	1.49e+00	0	57	104	547356672	60	20501
2026-01-04 08:03:49.07	355.68	4.72	-44.7	-59.6	3.8	1.49e+00	0	57	104	547356672	60	20540
2026-01-04 08:03:50.09	355.58	4.67	-44.7	-59.5	3.8	1.49e+00	0	57	104	547356672	60	20527
2026-01-04 08:03:51.10	355.48	4.61	-44.7	-59.5	3.8	1.49e+00	0	57	104	547356672	60	20474
2026-01-04 08:03:52.11	355.38	4.56	-44.7	-59.5	3.8	1.49e+00	0	57	104	547356672	60	20534
2026-01-04 08:03:53.12	355.28	4.51	-44.7	-59.5	3.8	1.49e+00	0	57	104	547356672	60	20521
2026-01-04 08:03:54.13	355.19	4.45	-44.7	-59.6	3.8	1.49e+00	0	56	104	547356672	60	20558
2026-01-04 08:03:55.14	355.09	4.40	-44.7	-59.6	3.8	1.49e+00	0	57	104	547356672	60	20558
2026-01-04 08:03:56.15	354.99	4.35	-44.7	-59.6	3.8	1.49e+00	0	57	104	547356672	60	20553
2026-01-04 08:03:57.16	354.90	4.29	-44.7	-59.6	3.8	1.49e+00	0	56	104	547356672	60	20581
2026-01-04 08:03:58.17	354.80	4.24	-44.7	-59.6	3.8	1.49e+00	0	57	104	547356672	60	20547
2026-01-04 08:03:59.18	354.71	4.19	-44.7	-59.6	3.8	1.49e+00	0	57	104	547356672	60	20550
2026-01-04 08:04:00.20	354.61	4.13	-44.7	-59.5	3.8	1.49e+00	0	57	104	547356672	60	20533
2026-01-04 08:04:01.21	354.51	4.08	-44.7	-59.5	3.8	1.49e+00	0	57	104	547356672	60	20514
2026-01-04 08:04:02.22	354.42	4.03	-44.7	-59.5	3.8	1.49e+00	0	57	104	547356672	60	20534
2026-01-04 08:04:03.23	354.33	3.97	-44.7	-59.6	3.8	1.49e+00	0	57	104	547356672	60	20573
2026-01-04 08:04:04.24	354.23	3.92	-44.7	-59.6	3.8	1.49e+00	0	57	104	547356672	60	20566
2026-01-04 08:04:05.25	354.14	3.87	-44.7	-59.6	3.8	1.49e+00	0	57	104	547356672	60	20542
2026-01-04 08:04:06.26	354.05	3.81	-44.7	-59.6	3.8	1.49e+00	0	56	104	547356672	60	20552
2026-01-04 08:04:07.27	353.95	3.76	-44.7	-59.6	3.8	1.49e+00	0	57	104	547356672	60	20552
2026-01-04 08:04:08.28	353.86	3.71	-44.7	-59.5	3.8	1.49e+00	0	57	104	547356672	60	20518
2026-01-04 08:04:09.29	353.77	3.65	-44.7	-59.5	3.8	1.49e+00	0	57	104	547356672	60	20498
2026-01-04 08:04:10.31	353.68	3.60	-44.7	-59.7	3.8	1.49e+00	0	57	104	547356672	60	20807
2026-01-04 08:04:11.32	353.59	3.55	-44.7	-59.5	3.8	1.49e+00	0	57	104	547356672	60	20509
2026-01-04 08:04:12.33	353.49	3.49	-44.7	-59.5	3.8	1.49e+00	0	57	104	547356672	60	20502
2026-01-04 08:04:13.34	353.40	3.44	-44.7	-59.5	3.8	1.49e+00	0	57	104	547356672	60	20522
2026-01-04 08:04:14.35	353.31	3.39	-44.7	-59.6	3.8	1.49e+00	0	57	104	547356672	60	20598
2026-01-04 08:04:15.36	353.22	3.34	-44.7	-59.6	3.8	1.49e+00	0	57	104	547356672	60	20577
2026-01-04 08:04:16.37	353.13	3.28	-44.7	-59.6	3.8	1.49e+00	0	57	104	547356672	60	20549
2026-01-04 08:04:17.38	353.04	3.23	-44.7	-59.6	3.8	1.49e+00	0	57	104	547356672	60	20540
2026-01-04 08:04:18.39	352.96	3.18	-44.7	-59.5	3.8	1.49e+00	0	57	104	547356672	60	20524
2026-01-04 08:04:19.40	352.87	3.13	-44.7	-59.5	3.8	1.49e+00	0	57	104	547356672	60	20520
2026-01-04 08:04:20.42	352.78	3.07	-44.7	-59.5	3.8	1.49e+00	0	57	104	547356672	60	20525
2026-01-04 08:04:21.43	352.69	3.02	-44.7	-59.5	3.8	1.49e+00	0	57	104	547356672	60	20535
2026-01-04 08:04:22.44	352.60	2.97	-44.7	-59.5	3.8	1.49e+00	0	57	104	547356672	60	20496
2026-01-04 08:04:23.45	352.51	2.91	-44.7	-59.6	3.8	1.49e+00	0	57	104	547356672	60	20611
2026-01-04 08:04:24.46	352.43	2.86	-44.7	-59.6	3.8	1.49e+00	0	56	104	547356672	60	20555
2026-01-04 08:04:25.47	352.34	2.81	-44.7	-59.5	3.8	1.49e+00	0	57	104	547356672	60	20523
2026-01-04 08:04:26.48	352.25	2.76	-44.7	-59.5	3.8	1.49e+00	0	57	104	547356672	60	20508
2026-01-04 08:04:27.49	352.17	2.70	-44.7	-59.5	3.8	1.49e+00	0	56	104	547356672	60	20525
2026-01-04 08:04:28.50	352.08	2.65	-44.7	-59.6	3.8	1.49e+00	0	57	104	547356672	60	20604
2026-01-04 08:04:29.52	352.00	2.60	-44.7	-59.5	3.8	1.49e+00	0	57	104	547356672	60	20528
2026-01-04 08:04:30.53	351.91	2.55	-44.7	-59.6	3.8	1.49e+00	0	57	104	547356672	60	20544
2026-01-04 08:04:31.54	351.83	2.49	-44.7	-59.5	3.8	1.49e+00	0	57	104	547356672	60	20508
2026-01-04 08:04:32.55	351.74	2.44	-44.7	-59.5	3.8	1.49e+00	0	57	104	547356672	60	20494
2026-01-04 08:04:33.56	351.66	2.39	-44.7	-59.5	3.8	1.49e+00	0	57	104	547356672	60	20537
2026-01-04 08:04:34.57	351.57	2.34	-44.7	-59.5	3.8	1.49e+00	0	57	104	547356672	60	20538
2026-01-04 08:04:35.58	351.49	2.29	-44.7	-59.5	3.8	1.49e+00	0	57	104	547356672	60	20481
2026-01-04 08:04:36.59	351.41	2.23	-44.7	-59.6	3.8	1.49e+00	0	57	104	547356672	60	20543
2026-01-04 08:04:37.60	351.33	2.18	-44.7	-59.5	3.8	1.49e+00	0	57	104	547356672	60	20499
2026-01-04 08:04:38.61	351.24	2.13	-44.7	-59.5	3.8	1.49e+00	0	56	104	547356672	60	20494
2026-01-04 08:04:39.63	351.16	2.08	-44.7	-59.6	3.8	1.49e+00	0	57	104	547356672	60	20567
2026-01-04 08:04:40.64	351.08	2.03	-44.7	-59.6	3.8	1.49e+00	0	57	104	547356672	60	20544
2026-01-04 08:04:41.65	351.00	1.97	-44.7	-59.5	3.8	1.49e+00	0	57	104	547356672	60	20534
2026-01-04 08:04:42.66	350.91	1.92	-44.7	-59.6	3.9	1.49e+00	0	57	104	547356672	60	20549

#Closed at: 2026-01-04 08:04:43
#Recorded file [547 MB]: D:/lorett/data/31039_260104_105311.dat