passes_logs/2026/01/04/R2.0S_Moscow/R2.0S_Moscow__20260104_025819_FENGYUN_3G_rec.log

#Pass ID: 20260104_025819_FENGYUN 3G
#Satellite: FENGYUN 3G
#Configuration: FENGYUN 3G
#almurnet v.1.7.20251203
#Start time: 2026-01-04 02:58:18

#Version: 2.2.20231116
#Station: R2.0S_Moscow
#Location: 37.707566 lon 55.798166 lat
#TLE: 1 56232U 23055A   26003.53327032  .00047684  00000+0  75687-3 0  9993
#TLE: 2 56232  49.9936 115.0642 0004181 334.2418  25.8340 15.52822756154418

#Time	Az	El	Level	Level2	SNR	BER	BlckErr	Temp	State	Recorded	gain1	gain2
2026-01-04 02:58:18.53	237.13	1.97	-44.1	-62.5	3.8	8.47e-01	0	47	0	0	59	30604
2026-01-04 02:58:19.55	237.06	2.03	-44.1	-62.5	3.8	8.44e-01	0	47	104	0	59	30528
2026-01-04 02:58:20.56	236.99	2.10	-44.1	-62.4	3.8	8.46e-01	0	48	104	0	59	30269
2026-01-04 02:58:21.57	236.91	2.17	-44.1	-62.4	3.8	8.45e-01	0	48	104	0	59	30097
2026-01-04 02:58:22.58	236.84	2.23	-44.1	-62.3	3.8	8.45e-01	0	48	104	0	59	29839
2026-01-04 02:58:23.59	236.77	2.30	-44.0	-62.2	3.8	8.46e-01	0	48	104	0	59	29607
2026-01-04 02:58:24.60	236.70	2.36	-44.1	-62.3	3.8	8.45e-01	0	48	104	0	59	29784
2026-01-04 02:58:25.61	236.63	2.43	-44.1	-62.3	3.8	8.45e-01	0	48	104	0	59	29849
2026-01-04 02:58:26.62	236.55	2.50	-44.1	-62.2	3.8	8.47e-01	0	48	104	0	59	29466
2026-01-04 02:58:27.63	236.48	2.56	-44.1	-62.2	3.8	8.46e-01	0	48	104	0	59	29589
2026-01-04 02:58:28.64	236.40	2.63	-44.1	-62.3	3.8	8.46e-01	0	48	104	0	59	29688
2026-01-04 02:58:29.66	236.33	2.70	-44.1	-62.2	3.8	8.47e-01	0	48	104	0	59	29671
2026-01-04 02:58:30.67	236.25	2.76	-44.1	-62.2	3.8	8.47e-01	0	48	104	0	59	29592
2026-01-04 02:58:31.68	236.18	2.83	-44.1	-62.2	3.8	8.47e-01	0	48	104	0	59	29509
2026-01-04 02:58:32.69	236.10	2.90	-44.1	-62.3	3.8	8.45e-01	0	49	104	0	59	29942
2026-01-04 02:58:33.70	236.03	2.97	-44.1	-62.4	3.8	8.46e-01	0	48	104	0	59	30102
2026-01-04 02:58:34.71	235.95	3.04	-44.1	-62.4	3.8	8.46e-01	0	48	104	0	59	30378
2026-01-04 02:58:35.72	235.87	3.10	-44.1	-62.5	3.8	8.46e-01	0	49	104	0	59	30383
2026-01-04 02:58:36.74	235.79	3.17	-44.1	-62.5	3.8	8.45e-01	0	49	104	0	59	30395
2026-01-04 02:58:37.75	235.71	3.24	-44.1	-62.4	3.8	8.46e-01	0	49	104	0	59	30309
2026-01-04 02:58:38.76	235.63	3.31	-44.1	-62.4	3.8	8.46e-01	0	49	104	0	59	30358
2026-01-04 02:58:39.77	235.55	3.38	-44.1	-62.4	3.8	8.47e-01	0	49	104	0	59	30333
2026-01-04 02:58:40.78	235.47	3.45	-44.1	-62.5	3.8	8.46e-01	0	49	104	0	59	30526
2026-01-04 02:58:41.79	235.39	3.52	-44.1	-62.4	3.8	8.46e-01	0	49	104	0	59	30337
2026-01-04 02:58:42.80	235.31	3.59	-44.1	-62.5	3.8	8.46e-01	0	49	104	0	59	30396
2026-01-04 02:58:43.81	235.23	3.66	-44.1	-62.4	3.8	8.45e-01	0	49	104	0	59	30344
2026-01-04 02:58:44.82	235.14	3.73	-44.1	-62.4	3.8	8.47e-01	0	49	104	0	59	30354
2026-01-04 02:58:45.83	235.06	3.80	-44.1	-62.5	3.8	8.47e-01	0	49	104	0	59	30408
2026-01-04 02:58:46.85	234.98	3.87	-44.1	-62.4	3.8	8.45e-01	0	49	104	0	59	30168
2026-01-04 02:58:47.86	234.89	3.94	-44.1	-62.4	3.8	8.46e-01	0	49	104	0	59	30245
2026-01-04 02:58:48.87	234.81	4.01	-44.1	-62.4	3.8	8.46e-01	0	49	104	0	59	30350
2026-01-04 02:58:49.88	234.72	4.09	-44.1	-62.4	3.8	8.47e-01	0	50	104	0	59	30356
2026-01-04 02:58:50.89	234.63	4.16	-44.1	-62.4	3.8	8.47e-01	0	49	104	0	59	30344
2026-01-04 02:58:51.90	234.55	4.23	-44.1	-62.5	3.8	8.47e-01	0	50	104	0	59	30439
2026-01-04 02:58:52.91	234.46	4.30	-44.1	-62.5	3.8	8.47e-01	0	50	104	0	59	30473
2026-01-04 02:58:53.92	234.37	4.37	-44.1	-62.5	3.8	8.46e-01	0	50	104	0	59	30514
2026-01-04 02:58:54.93	234.28	4.45	-44.1	-62.4	3.8	8.46e-01	0	50	104	0	59	30261
2026-01-04 02:58:55.95	234.19	4.52	-44.1	-62.4	3.8	8.46e-01	0	50	104	0	59	30212
2026-01-04 02:58:56.96	234.10	4.59	-44.0	-62.4	3.8	8.46e-01	0	50	104	0	59	30158
2026-01-04 02:58:57.97	234.01	4.67	-44.1	-62.4	3.8	8.46e-01	0	50	104	0	59	30183
2026-01-04 02:58:58.98	233.92	4.74	-44.1	-62.4	3.8	8.46e-01	0	50	104	0	59	30095
2026-01-04 02:58:59.99	233.83	4.81	-44.1	-62.4	3.8	8.46e-01	0	50	104	0	59	30054
2026-01-04 02:59:01.00	233.73	4.89	-44.1	-62.3	3.8	8.46e-01	0	50	104	0	59	29894
2026-01-04 02:59:02.01	233.64	4.96	-44.1	-62.3	3.8	8.46e-01	0	50	104	0	59	29820
2026-01-04 02:59:03.02	233.55	5.04	-44.1	-62.3	3.8	8.47e-01	0	50	104	0	59	29758
2026-01-04 02:59:04.03	233.45	5.11	-44.1	-62.1	3.8	8.46e-01	0	51	104	0	59	29335
2026-01-04 02:59:05.04	233.36	5.19	-44.1	-61.9	3.8	8.46e-01	0	50	104	0	59	28574
2026-01-04 02:59:06.06	233.26	5.26	-44.0	-61.6	3.8	8.45e-01	0	50	104	0	59	27447
2026-01-04 02:59:07.07	233.16	5.34	-44.0	-61.3	3.8	8.46e-01	0	51	104	0	59	26582
2026-01-04 02:59:08.08	233.06	5.42	-44.0	-61.1	3.8	8.46e-01	0	51	104	0	59	26077
2026-01-04 02:59:09.09	232.96	5.49	-44.0	-61.0	3.8	8.46e-01	0	51	104	0	59	25745
2026-01-04 02:59:10.10	232.87	5.57	-44.0	-61.0	3.8	8.46e-01	0	51	104	0	59	25609
2026-01-04 02:59:11.11	232.77	5.65	-44.0	-60.9	3.8	8.46e-01	0	51	104	0	59	25284
2026-01-04 02:59:12.12	232.66	5.72	-44.0	-61.0	3.8	8.46e-01	0	51	104	0	59	25618
2026-01-04 02:59:13.13	232.56	5.80	-44.0	-61.1	3.8	8.47e-01	0	51	104	0	59	25994
2026-01-04 02:59:14.14	232.46	5.88	-44.0	-60.9	3.8	8.45e-01	0	51	104	0	59	25299
2026-01-04 02:59:15.15	232.36	5.96	-44.0	-61.0	3.8	8.45e-01	0	51	104	0	59	25650
2026-01-04 02:59:16.17	232.25	6.04	-44.0	-60.5	3.8	8.46e-01	0	51	104	0	59	24399
2026-01-04 02:59:17.18	232.15	6.11	-44.0	-60.2	3.9	8.45e-01	0	51	104	0	59	23491
2026-01-04 02:59:18.19	232.04	6.19	-44.0	-59.8	4.0	8.45e-01	0	51	104	0	59	22478
2026-01-04 02:59:19.20	231.94	6.27	-44.0	-59.1	4.1	8.45e-01	0	51	0	0	59	20584
2026-01-04 02:59:20.21	231.83	6.35	-44.0	-58.5	4.3	8.38e-01	0	51	0	0	59	19210
2026-01-04 02:59:21.22	231.72	6.43	-43.9	-57.7	4.6	8.38e-01	0	51	0	0	59	17502
2026-01-04 02:59:22.23	231.61	6.51	-43.8	-56.6	5.2	8.25e-01	0	51	0	0	59	15515
2026-01-04 02:59:23.24	231.50	6.59	-43.8	-56.1	5.6	7.67e-01	0	51	0	0	59	14645
2026-01-04 02:59:24.25	231.39	6.67	-43.8	-55.7	5.8	6.42e-01	0	51	0	0	59	14021
2026-01-04 02:59:25.26	231.28	6.75	-43.8	-55.8	5.7	6.42e-01	0	51	0	1048576	59	14123
2026-01-04 02:59:26.27	231.17	6.84	-43.8	-55.8	5.7	4.36e-01	0	51	0	2097152	59	14200
2026-01-04 02:59:27.28	231.06	6.92	-43.9	-56.8	5.1	5.93e-01	0	52	0	2621440	59	15827
2026-01-04 02:59:28.29	230.94	7.00	-43.9	-58.4	4.4	5.93e-01	0	52	0	2621440	59	19140
2026-01-04 02:59:29.30	230.83	7.08	-44.0	-60.8	3.8	7.97e-01	0	52	104	2621440	59	25131
2026-01-04 02:59:30.32	230.71	7.16	-44.0	-61.3	3.8	8.45e-01	0	52	104	2621440	59	26724
2026-01-04 02:59:31.33	230.59	7.25	-43.9	-57.6	4.6	8.45e-01	0	52	0	2621440	59	17314
2026-01-04 02:59:32.34	230.47	7.33	-43.5	-52.9	8.1	8.36e-01	0	52	0	3145728	59	10077
2026-01-04 02:59:33.35	230.36	7.41	-42.8	-49.6	11.6	2.29e-01	0	52	0	4194304	57	7784
2026-01-04 02:59:34.36	230.24	7.50	-42.1	-47.4	14.0	1.39e-03	0	52	0	5242880	56	6373
2026-01-04 02:59:35.37	230.12	7.58	-41.2	-45.5	15.7	1.39e-03	0	52	0	6291456	54	5755
2026-01-04 02:59:36.38	229.99	7.67	-40.4	-44.0	17.3	1.10e-06	0	52	0	7864320	52	5445
2026-01-04 02:59:37.39	229.87	7.75	-39.9	-43.0	18.4	0.00e+00	0	52	0	8912896	51	5109
2026-01-04 02:59:38.40	229.75	7.84	-39.5	-42.3	19.1	0.00e+00	0	52	0	9961472	50	5040
2026-01-04 02:59:39.41	229.62	7.92	-39.5	-42.4	19.1	0.00e+00	0	52	0	11010048	50	5044
2026-01-04 02:59:40.42	229.50	8.01	-39.4	-42.2	19.2	0.00e+00	0	52	0	12058624	50	4976
2026-01-04 02:59:41.43	229.37	8.09	-39.1	-41.7	19.6	0.00e+00	0	52	0	13107200	50	4698
2026-01-04 02:59:42.44	229.24	8.18	-39.8	-42.7	18.8	0.00e+00	0	52	0	14680064	50	5277
2026-01-04 02:59:43.45	229.11	8.27	-38.9	-41.5	20.0	0.00e+00	0	52	0	15728640	49	4843
2026-01-04 02:59:44.46	228.98	8.35	-42.0	-47.2	13.1	0.00e+00	0	52	0	16777216	56	6228
2026-01-04 02:59:45.47	228.85	8.44	-39.2	-41.9	19.5	5.18e-02	0	52	0	17825792	50	4763
2026-01-04 02:59:46.48	228.72	8.53	-40.9	-44.7	16.2	0.00e+00	0	52	0	18874368	53	5592
2026-01-04 02:59:47.48	228.59	8.62	-39.2	-41.8	19.7	1.10e-06	0	52	0	19922944	50	4757
2026-01-04 02:59:48.49	228.46	8.71	-38.9	-41.5	20.0	1.10e-06	0	52	0	21495808	49	4838
2026-01-04 02:59:49.50	228.32	8.80	-38.8	-41.3	20.2	0.00e+00	0	52	0	22544384	49	4728
2026-01-04 02:59:50.51	228.18	8.88	-39.0	-41.5	20.0	0.00e+00	0	52	0	23592960	49	4869
2026-01-04 02:59:51.52	228.05	8.97	-38.8	-41.3	20.3	0.00e+00	0	52	0	24641536	49	4724
2026-01-04 02:59:52.53	227.91	9.06	-38.6	-41.1	20.4	0.00e+00	0	53	0	25690112	49	4632
2026-01-04 02:59:53.54	227.77	9.15	-38.5	-40.9	20.7	0.00e+00	0	52	0	26738688	48	4768
2026-01-04 02:59:54.55	227.63	9.25	-38.3	-40.6	20.9	0.00e+00	0	52	0	28311552	48	4638
2026-01-04 02:59:55.56	227.48	9.34	-38.2	-40.5	21.1	0.00e+00	0	53	0	29360128	48	4555
2026-01-04 02:59:56.57	227.34	9.43	-38.2	-40.5	21.1	0.00e+00	0	53	0	30408704	48	4573
2026-01-04 02:59:57.58	227.20	9.52	-38.1	-40.4	21.2	0.00e+00	0	52	0	31457280	48	4503
2026-01-04 02:59:58.59	227.05	9.61	-38.2	-40.4	21.2	0.00e+00	0	53	0	32505856	48	4533
2026-01-04 02:59:59.60	226.90	9.70	-38.3	-40.6	21.0	0.00e+00	0	53	0	33554432	48	4614
2026-01-04 03:00:00.61	226.75	9.80	-38.5	-40.8	20.8	0.00e+00	0	53	0	35127296	48	4748
2026-01-04 03:00:01.62	226.60	9.89	-38.4	-40.7	20.9	0.00e+00	0	53	0	36175872	48	4684
2026-01-04 03:00:02.63	226.45	9.98	-38.6	-41.0	20.7	0.00e+00	0	53	0	37224448	48	4819
2026-01-04 03:00:03.64	226.30	10.08	-38.4	-40.7	20.9	0.00e+00	0	53	0	38273024	48	4682
2026-01-04 03:00:04.65	226.15	10.17	-38.4	-40.8	20.9	0.00e+00	0	53	0	39321600	48	4706
2026-01-04 03:00:05.65	225.99	10.27	-38.0	-40.3	21.4	0.00e+00	0	53	0	40370176	48	4443
2026-01-04 03:00:06.66	225.84	10.36	-37.9	-40.1	21.5	0.00e+00	0	53	0	41943040	47	4648
2026-01-04 03:00:07.67	225.68	10.46	-37.7	-39.8	21.8	0.00e+00	0	53	0	42991616	47	4465
2026-01-04 03:00:08.68	225.52	10.55	-37.5	-39.6	22.0	0.00e+00	0	53	0	44040192	47	4347
2026-01-04 03:00:09.69	225.36	10.65	-37.6	-39.7	21.9	0.00e+00	0	53	0	45088768	46	4685
2026-01-04 03:00:10.70	225.19	10.75	-37.6	-39.7	21.9	0.00e+00	0	53	0	46137344	46	4693
2026-01-04 03:00:11.71	225.03	10.84	-37.6	-39.7	22.0	0.00e+00	0	53	0	47185920	46	4677
2026-01-04 03:00:12.72	224.87	10.94	-37.6	-39.7	21.9	0.00e+00	0	53	0	48758784	46	4693
2026-01-04 03:00:13.73	224.70	11.04	-37.8	-39.9	21.7	0.00e+00	0	53	0	49807360	46	4804
2026-01-04 03:00:14.74	224.53	11.14	-37.7	-39.9	21.8	0.00e+00	0	53	0	50855936	46	4761
2026-01-04 03:00:15.75	224.36	11.24	-37.6	-39.7	22.0	0.00e+00	0	53	0	51904512	46	4664
2026-01-04 03:00:16.76	224.19	11.34	-37.6	-39.7	22.0	0.00e+00	0	53	0	52953088	46	4668
2026-01-04 03:00:17.77	224.02	11.44	-37.4	-39.5	22.2	0.00e+00	0	53	0	54001664	46	4549
2026-01-04 03:00:18.78	223.84	11.54	-37.5	-39.6	22.1	0.00e+00	0	53	0	55050240	46	4621
2026-01-04 03:00:19.79	223.67	11.64	-37.4	-39.5	22.2	0.00e+00	0	53	0	56623104	46	4563
2026-01-04 03:00:20.80	223.49	11.74	-37.3	-39.3	22.3	0.00e+00	0	53	0	57671680	46	4462
2026-01-04 03:00:21.81	223.31	11.84	-37.4	-39.5	22.2	0.00e+00	0	53	0	58720256	46	4558
2026-01-04 03:00:22.82	223.13	11.94	-37.6	-39.7	22.0	0.00e+00	0	53	0	59768832	46	4667
2026-01-04 03:00:23.83	222.95	12.04	-37.7	-39.8	21.9	0.00e+00	0	53	0	60817408	46	4743
2026-01-04 03:00:24.84	222.76	12.14	-38.0	-40.2	21.6	0.00e+00	0	53	0	62390272	46	4940
2026-01-04 03:00:25.84	222.58	12.25	-37.8	-39.9	21.9	0.00e+00	0	53	0	63438848	46	4769
2026-01-04 03:00:26.85	222.39	12.35	-37.5	-39.6	22.2	0.00e+00	0	53	0	64487424	46	4601
2026-01-04 03:00:27.86	222.20	12.45	-37.6	-39.7	22.1	0.00e+00	0	53	0	65536000	46	4660
2026-01-04 03:00:28.87	222.01	12.56	-37.6	-39.6	22.1	0.00e+00	0	53	0	66584576	46	4648
2026-01-04 03:00:29.88	221.82	12.66	-37.3	-39.3	22.5	0.00e+00	0	54	0	67633152	46	4450
2026-01-04 03:00:30.89	221.62	12.77	-37.3	-39.2	22.5	0.00e+00	0	53	0	69206016	46	4430
2026-01-04 03:00:31.90	221.43	12.87	-37.2	-39.2	22.6	0.00e+00	0	54	0	70254592	46	4403
2026-01-04 03:00:32.91	221.23	12.98	-37.1	-39.0	22.8	0.00e+00	0	54	0	71303168	46	4310
2026-01-04 03:00:33.92	221.03	13.08	-37.1	-39.0	22.8	0.00e+00	0	54	0	72351744	46	4319
2026-01-04 03:00:34.93	220.83	13.19	-37.1	-39.0	22.8	0.00e+00	0	53	0	73400320	46	4320
2026-01-04 03:00:35.94	220.62	13.30	-37.1	-39.0	22.8	0.00e+00	0	54	0	74448896	46	4300
2026-01-04 03:00:36.95	220.42	13.40	-37.1	-39.0	22.8	0.00e+00	0	54	0	76021760	46	4320
2026-01-04 03:00:37.96	220.21	13.51	-37.1	-39.0	22.8	0.00e+00	0	54	0	77070336	46	4327
2026-01-04 03:00:38.97	220.00	13.62	-37.2	-39.2	22.6	0.00e+00	0	54	0	78118912	46	4396
2026-01-04 03:00:39.98	219.79	13.73	-37.0	-38.9	22.9	0.00e+00	0	54	0	79167488	46	4257
2026-01-04 03:00:40.99	219.58	13.84	-37.0	-39.0	22.8	0.00e+00	0	54	0	80216064	45	4548
2026-01-04 03:00:42.00	219.36	13.94	-37.2	-39.1	22.7	0.00e+00	0	54	0	81264640	45	4631
2026-01-04 03:00:43.01	219.14	14.05	-37.1	-39.0	22.8	0.00e+00	0	54	0	82837504	45	4589
2026-01-04 03:00:44.02	218.92	14.16	-37.4	-39.4	22.4	0.00e+00	0	54	0	83886080	45	4774
2026-01-04 03:00:45.03	218.70	14.27	-37.2	-39.2	22.6	0.00e+00	0	54	0	84934656	45	4666
2026-01-04 03:00:46.03	218.48	14.38	-37.1	-39.0	22.8	0.00e+00	0	54	0	85983232	45	4590
2026-01-04 03:00:47.05	218.25	14.50	-36.9	-38.8	22.9	0.00e+00	0	54	0	87031808	45	4490
2026-01-04 03:00:48.05	218.02	14.61	-36.8	-38.7	23.1	0.00e+00	0	54	0	88080384	45	4400
2026-01-04 03:00:49.06	217.79	14.72	-36.8	-38.7	23.1	0.00e+00	0	54	0	89653248	45	4400
2026-01-04 03:00:50.07	217.56	14.83	-36.7	-38.5	23.3	0.00e+00	0	54	0	90701824	45	4316
2026-01-04 03:00:51.08	217.32	14.94	-36.9	-38.8	23.1	0.00e+00	0	54	0	91750400	45	4450
2026-01-04 03:00:52.09	217.09	15.05	-36.7	-38.6	23.2	0.00e+00	0	54	0	92798976	45	4369
2026-01-04 03:00:53.10	216.85	15.17	-36.5	-38.3	23.5	0.00e+00	0	54	0	93847552	45	4223
2026-01-04 03:00:54.11	216.60	15.28	-36.2	-37.9	23.9	0.00e+00	0	54	0	94896128	44	4251
2026-01-04 03:00:55.12	216.36	15.39	-35.6	-37.2	24.4	0.00e+00	0	54	0	95944704	43	4156
2026-01-04 03:00:56.13	216.11	15.51	-35.5	-37.1	24.5	0.00e+00	0	54	0	97517568	42	4377
2026-01-04 03:00:57.14	215.86	15.62	-35.8	-37.4	24.1	0.00e+00	0	54	0	98566144	42	4529
2026-01-04 03:00:58.15	215.61	15.74	-35.7	-37.4	24.3	0.00e+00	0	54	0	99614720	42	4516
2026-01-04 03:00:59.16	215.36	15.85	-36.2	-38.0	23.6	0.00e+00	0	54	0	100663296	43	4577
2026-01-04 03:01:00.17	215.10	15.97	-36.0	-37.8	23.8	0.00e+00	0	54	0	101711872	43	4459
2026-01-04 03:01:01.18	214.84	16.08	-36.1	-37.9	23.8	0.00e+00	0	54	0	102760448	43	4519
2026-01-04 03:01:02.19	214.58	16.20	-35.9	-37.6	24.1	0.00e+00	0	54	0	104333312	43	4343
2026-01-04 03:01:03.20	214.32	16.32	-35.8	-37.4	24.2	0.00e+00	0	54	0	105381888	43	4282
2026-01-04 03:01:04.21	214.05	16.43	-35.8	-37.6	24.1	0.00e+00	0	54	0	106430464	43	4342
2026-01-04 03:01:05.22	213.78	16.55	-35.7	-37.4	24.3	0.00e+00	0	54	0	107479040	43	4262
2026-01-04 03:01:06.23	213.51	16.67	-35.8	-37.4	24.3	0.00e+00	0	54	0	108527616	43	4281
2026-01-04 03:01:07.24	213.23	16.78	-35.7	-37.4	24.3	0.00e+00	0	54	0	110100480	43	4259
2026-01-04 03:01:08.25	212.96	16.90	-35.7	-37.4	24.3	0.00e+00	0	54	0	111149056	43	4249
2026-01-04 03:01:09.26	212.68	17.02	-35.8	-37.5	24.2	0.00e+00	0	54	0	112197632	43	4326
2026-01-04 03:01:10.27	212.39	17.14	-35.5	-37.2	24.5	0.00e+00	0	54	0	113246208	43	4155
2026-01-04 03:01:11.28	212.11	17.26	-35.5	-37.2	24.5	0.00e+00	0	54	0	114294784	42	4412
2026-01-04 03:01:12.29	211.82	17.37	-35.5	-37.2	24.5	0.00e+00	0	54	0	115343360	42	4397
2026-01-04 03:01:13.30	211.53	17.49	-35.3	-36.9	24.8	0.00e+00	0	54	0	116916224	42	4271
2026-01-04 03:01:14.31	211.24	17.61	-35.2	-36.7	24.9	0.00e+00	0	54	0	117964800	42	4190
2026-01-04 03:01:15.32	210.94	17.73	-35.1	-36.7	25.0	0.00e+00	0	54	0	119013376	42	4153
2026-01-04 03:01:16.32	210.64	17.85	-35.0	-36.5	25.1	0.00e+00	0	54	0	120061952	42	4090
2026-01-04 03:01:17.33	210.34	17.97	-35.1	-36.7	25.0	0.00e+00	0	54	0	121110528	41	4404
2026-01-04 03:01:18.34	210.03	18.09	-35.4	-36.9	24.8	0.00e+00	0	54	0	122159104	41	4544
2026-01-04 03:01:19.35	209.73	18.20	-35.6	-37.2	24.5	0.00e+00	0	55	0	123731968	41	4698
2026-01-04 03:01:20.36	209.41	18.32	-35.4	-37.0	24.7	0.00e+00	0	54	0	124780544	41	4575
2026-01-04 03:01:21.37	209.10	18.44	-35.5	-37.2	24.6	0.00e+00	0	54	0	125829120	41	4660
2026-01-04 03:01:22.38	208.78	18.56	-35.4	-37.0	24.8	0.00e+00	0	54	0	126877696	41	4568
2026-01-04 03:01:23.39	208.46	18.68	-35.7	-37.3	24.4	0.00e+00	0	54	0	127926272	41	4739
2026-01-04 03:01:24.40	208.14	18.80	-35.5	-37.1	24.6	0.00e+00	0	55	0	128974848	41	4647
2026-01-04 03:01:25.41	207.81	18.92	-35.6	-37.2	24.5	0.00e+00	0	54	0	130547712	41	4686
2026-01-04 03:01:26.42	207.48	19.04	-35.5	-37.1	24.6	0.00e+00	0	54	0	131596288	41	4648
2026-01-04 03:01:27.43	207.15	19.16	-35.0	-36.5	25.2	0.00e+00	0	54	0	132644864	41	4321
2026-01-04 03:01:28.44	206.81	19.28	-34.7	-36.3	25.4	0.00e+00	0	54	0	133693440	41	4207
2026-01-04 03:01:29.45	206.47	19.40	-34.7	-36.3	25.4	0.00e+00	0	55	0	134742016	41	4206
2026-01-04 03:01:30.46	206.13	19.52	-35.0	-36.5	25.2	0.00e+00	0	55	0	135790592	41	4336
2026-01-04 03:01:31.47	205.78	19.64	-35.1	-36.7	25.0	0.00e+00	0	55	0	136839168	41	4415
2026-01-04 03:01:32.48	205.43	19.76	-35.2	-36.8	25.0	0.00e+00	0	55	0	138412032	41	4459
2026-01-04 03:01:33.49	205.08	19.88	-35.2	-36.8	24.9	0.00e+00	0	55	0	139460608	41	4465
2026-01-04 03:01:34.49	204.73	19.99	-35.0	-36.6	25.1	0.00e+00	0	55	0	140509184	41	4372
2026-01-04 03:01:35.51	204.36	20.11	-35.0	-36.5	25.2	0.00e+00	0	55	0	141557760	41	4318
2026-01-04 03:01:36.52	204.00	20.23	-34.8	-36.3	25.4	0.00e+00	0	54	0	142606336	41	4226
2026-01-04 03:01:37.53	203.64	20.35	-34.8	-36.3	25.4	0.00e+00	0	55	0	143654912	41	4238
2026-01-04 03:01:38.53	203.27	20.46	-34.6	-36.1	25.5	0.00e+00	0	55	0	145227776	41	4144
2026-01-04 03:01:39.55	202.89	20.58	-34.5	-35.9	25.8	0.00e+00	0	55	0	146276352	40	4290
2026-01-04 03:01:40.56	202.52	20.70	-34.3	-35.8	25.9	0.00e+00	0	55	0	147324928	40	4226
2026-01-04 03:01:41.57	202.14	20.82	-34.5	-36.0	25.7	0.00e+00	0	55	0	148373504	40	4312
2026-01-04 03:01:42.57	201.76	20.93	-34.6	-36.1	25.7	0.00e+00	0	55	0	149422080	40	4349
2026-01-04 03:01:43.58	201.37	21.05	-34.7	-36.2	25.5	0.00e+00	0	55	0	150470656	40	4416
2026-01-04 03:01:44.59	200.98	21.16	-34.8	-36.3	25.4	0.00e+00	0	55	0	152043520	40	4480
2026-01-04 03:01:45.60	200.59	21.28	-34.9	-36.4	25.3	0.00e+00	0	55	0	153092096	40	4528
2026-01-04 03:01:46.61	200.19	21.39	-34.7	-36.2	25.5	0.00e+00	0	55	0	154140672	40	4428
2026-01-04 03:01:47.62	199.79	21.50	-34.8	-36.3	25.4	0.00e+00	0	55	0	155189248	40	4478
2026-01-04 03:01:48.63	199.39	21.62	-34.7	-36.2	25.5	0.00e+00	0	55	0	156237824	40	4425
2026-01-04 03:01:49.64	198.98	21.73	-34.6	-36.1	25.6	0.00e+00	0	55	0	157810688	40	4384
2026-01-04 03:01:50.65	198.57	21.84	-34.6	-36.1	25.7	0.00e+00	0	55	0	158859264	40	4363
2026-01-04 03:01:51.66	198.16	21.95	-34.4	-35.9	25.8	0.00e+00	0	55	0	159907840	40	4283
2026-01-04 03:01:52.67	197.74	22.06	-34.3	-35.8	25.9	0.00e+00	0	55	0	160956416	40	4223
2026-01-04 03:01:53.68	197.32	22.17	-34.1	-35.6	26.1	0.00e+00	0	55	0	162004992	40	4124
2026-01-04 03:01:54.69	196.89	22.28	-34.0	-35.4	26.3	0.00e+00	0	55	0	163053568	40	4029
2026-01-04 03:01:55.69	196.47	22.39	-34.2	-35.6	26.1	0.00e+00	0	55	0	164626432	39	4382
2026-01-04 03:01:56.70	196.03	22.49	-34.1	-35.6	26.2	0.00e+00	0	55	0	165675008	39	4352
2026-01-04 03:01:57.71	195.60	22.60	-34.2	-35.7	26.1	0.00e+00	0	55	0	166723584	39	4401
2026-01-04 03:01:58.72	195.16	22.70	-34.3	-35.8	25.9	0.00e+00	0	55	0	167772160	39	4479
2026-01-04 03:01:59.73	194.72	22.81	-34.4	-35.9	25.7	0.00e+00	0	55	0	168820736	39	4542
2026-01-04 03:02:00.74	194.27	22.91	-34.4	-35.9	25.8	0.00e+00	0	55	0	169869312	39	4512
2026-01-04 03:02:01.75	193.82	23.01	-34.4	-35.9	25.9	0.00e+00	0	55	0	171442176	39	4522
2026-01-04 03:02:02.76	193.37	23.11	-34.4	-35.9	25.9	0.00e+00	0	55	0	172490752	39	4520
2026-01-04 03:02:03.77	192.91	23.21	-34.4	-35.9	25.9	0.00e+00	0	55	0	173539328	39	4514
2026-01-04 03:02:04.78	192.46	23.31	-34.1	-35.6	26.1	0.00e+00	0	55	0	174587904	39	4363
2026-01-04 03:02:05.79	191.99	23.41	-34.3	-35.8	26.0	0.00e+00	0	55	0	175636480	39	4460
2026-01-04 03:02:06.80	191.53	23.50	-34.4	-35.9	25.9	0.00e+00	0	55	0	176685056	39	4495
2026-01-04 03:02:07.81	191.06	23.60	-34.0	-35.5	26.3	0.00e+00	0	55	0	177733632	39	4301
2026-01-04 03:02:08.82	190.58	23.69	-33.9	-35.3	26.4	0.00e+00	0	55	0	179306496	39	4231
2026-01-04 03:02:09.84	190.10	23.78	-34.0	-35.4	26.4	0.00e+00	0	55	0	180355072	39	4267
2026-01-04 03:02:10.85	189.62	23.87	-33.9	-35.3	26.3	0.00e+00	0	55	0	181403648	39	4232
2026-01-04 03:02:11.85	189.15	23.96	-33.6	-35.1	26.6	0.00e+00	0	55	0	182452224	39	4102
2026-01-04 03:02:12.86	188.66	24.05	-33.5	-34.9	26.7	0.00e+00	0	55	0	183500800	38	4268
2026-01-04 03:02:13.87	188.17	24.13	-34.1	-35.6	26.2	0.00e+00	0	55	0	184549376	38	4601
2026-01-04 03:02:14.88	187.68	24.22	-33.9	-35.4	26.3	0.00e+00	0	55	0	186122240	38	4505
2026-01-04 03:02:15.89	187.19	24.30	-33.8	-35.3	26.4	0.00e+00	0	55	0	187170816	38	4475
2026-01-04 03:02:16.90	186.69	24.38	-34.0	-35.5	26.2	0.00e+00	0	55	0	188219392	38	4576
2026-01-04 03:02:17.91	186.19	24.46	-34.2	-35.7	26.0	0.00e+00	0	55	0	189267968	38	4670
2026-01-04 03:02:18.92	185.68	24.53	-33.9	-35.4	26.3	0.00e+00	0	55	0	190316544	38	4525
2026-01-04 03:02:19.93	185.18	24.61	-33.7	-35.1	26.5	0.00e+00	0	55	0	191365120	38	4387
2026-01-04 03:02:20.94	184.67	24.68	-33.9	-35.4	26.4	0.00e+00	0	55	0	192937984	38	4501
2026-01-04 03:02:21.94	184.16	24.75	-33.7	-35.1	26.6	0.00e+00	0	55	0	193986560	38	4383
2026-01-04 03:02:22.95	183.65	24.82	-33.7	-35.1	26.6	0.00e+00	0	55	0	195035136	38	4372
2026-01-04 03:02:23.96	183.13	24.89	-33.8	-35.2	26.4	0.00e+00	0	55	0	196083712	38	4432
2026-01-04 03:02:24.97	182.61	24.96	-33.5	-34.9	26.7	0.00e+00	0	55	0	197132288	38	4275
2026-01-04 03:02:25.98	182.09	25.02	-33.3	-34.6	26.6	0.00e+00	0	55	0	198180864	38	4142
2026-01-04 03:02:26.99	181.57	25.08	-33.4	-34.7	26.9	0.00e+00	0	55	0	199753728	38	4191
2026-01-04 03:02:28.00	181.04	25.14	-33.5	-34.9	26.7	0.00e+00	0	55	0	200802304	38	4274
2026-01-04 03:02:29.01	180.51	25.20	-33.5	-34.9	26.8	0.00e+00	0	55	0	201850880	38	4291
2026-01-04 03:02:30.02	179.98	25.25	-33.7	-35.2	26.6	0.00e+00	0	55	0	202899456	38	4392
2026-01-04 03:02:31.03	179.45	25.30	-33.6	-35.0	26.7	0.00e+00	0	55	0	203948032	38	4327
2026-01-04 03:02:32.04	178.91	25.36	-33.3	-34.7	27.0	0.00e+00	0	55	0	205520896	38	4152
2026-01-04 03:02:33.05	178.37	25.40	-33.3	-34.6	27.1	0.00e+00	0	55	0	206569472	38	4134
2026-01-04 03:02:34.06	177.83	25.45	-33.5	-34.9	26.8	0.00e+00	0	55	0	207618048	38	4254
2026-01-04 03:02:35.06	177.30	25.49	-33.3	-34.7	27.0	0.00e+00	0	55	0	208666624	38	4155
2026-01-04 03:02:36.07	176.76	25.53	-33.5	-34.9	26.9	0.00e+00	0	55	0	209715200	38	4247
2026-01-04 03:02:37.09	176.21	25.57	-33.4	-34.8	26.9	0.00e+00	0	55	0	210763776	38	4207
2026-01-04 03:02:38.10	175.66	25.61	-33.1	-34.5	27.1	0.00e+00	0	55	0	212336640	38	4074
2026-01-04 03:02:39.10	175.12	25.64	-33.5	-34.9	26.8	0.00e+00	0	55	0	213385216	38	4279
2026-01-04 03:02:40.11	174.57	25.67	-33.9	-35.3	26.5	0.00e+00	0	55	0	214433792	38	4484
2026-01-04 03:02:41.13	174.02	25.70	-33.8	-35.2	26.7	0.00e+00	0	55	0	215482368	38	4412
2026-01-04 03:02:42.14	173.47	25.73	-34.2	-35.7	26.2	0.00e+00	0	55	0	216530944	38	4659
2026-01-04 03:02:43.15	172.92	25.75	-34.4	-35.9	26.0	0.00e+00	0	55	0	217579520	39	4514
2026-01-04 03:02:44.16	172.37	25.77	-34.1	-35.5	26.3	0.00e+00	0	55	0	218628096	39	4326
2026-01-04 03:02:45.17	171.81	25.79	-34.0	-35.5	26.4	0.00e+00	0	55	0	220200960	39	4301
2026-01-04 03:02:46.18	171.26	25.81	-34.0	-35.4	26.5	0.00e+00	0	55	0	221249536	39	4286
2026-01-04 03:02:47.19	170.71	25.82	-34.2	-35.6	26.3	0.00e+00	0	55	0	222298112	39	4379
2026-01-04 03:02:48.19	170.16	25.83	-34.3	-35.8	26.2	0.00e+00	0	55	0	223346688	39	4449
2026-01-04 03:02:49.21	169.60	25.84	-34.6	-36.1	25.8	0.00e+00	0	55	0	224395264	39	4640
2026-01-04 03:02:50.22	169.04	25.85	-34.2	-35.6	26.3	0.00e+00	0	55	0	225443840	39	4371
2026-01-04 03:02:51.23	168.49	25.85	-34.1	-35.6	26.4	0.00e+00	0	55	0	227016704	39	4343
2026-01-04 03:02:52.24	167.93	25.85	-33.7	-35.2	26.7	0.00e+00	0	55	0	228065280	39	4149
2026-01-04 03:02:53.25	167.38	25.85	-33.7	-35.1	26.8	0.00e+00	0	55	0	229113856	39	4107
2026-01-04 03:02:54.25	166.83	25.84	-34.0	-35.5	26.5	0.00e+00	0	55	0	230162432	39	4298
2026-01-04 03:02:55.26	166.27	25.83	-34.1	-35.6	26.4	0.00e+00	0	55	0	231211008	39	4345
2026-01-04 03:02:56.27	165.72	25.83	-34.0	-35.4	26.5	0.00e+00	0	55	0	232259584	39	4281
2026-01-04 03:02:57.29	165.16	25.81	-34.1	-35.6	26.3	0.00e+00	0	55	0	233832448	39	4361
2026-01-04 03:02:58.30	164.60	25.80	-34.1	-35.5	26.4	0.00e+00	0	55	0	234881024	38	4589
2026-01-04 03:02:59.31	164.05	25.78	-33.9	-35.4	26.5	0.00e+00	0	55	0	235929600	38	4527
2026-01-04 03:03:00.32	163.50	25.76	-34.3	-35.8	26.1	0.00e+00	0	55	0	236978176	39	4461
2026-01-04 03:03:01.33	162.95	25.74	-34.3	-35.8	26.1	0.00e+00	0	55	0	238026752	39	4485
2026-01-04 03:03:02.34	162.40	25.71	-34.3	-35.8	26.1	0.00e+00	0	55	0	239599616	39	4476
2026-01-04 03:03:03.35	161.85	25.68	-34.4	-35.9	26.1	0.00e+00	0	55	0	240648192	39	4530
2026-01-04 03:03:04.36	161.30	25.65	-34.2	-35.7	26.2	0.00e+00	0	55	0	241696768	39	4427
2026-01-04 03:03:05.37	160.75	25.62	-34.1	-35.5	26.3	0.00e+00	0	55	0	242745344	39	4331
2026-01-04 03:03:06.37	160.21	25.59	-34.1	-35.5	26.4	0.00e+00	0	55	0	243793920	39	4333
2026-01-04 03:03:07.39	159.66	25.55	-33.8	-35.3	26.6	0.00e+00	0	55	0	244842496	39	4201
2026-01-04 03:03:08.40	159.12	25.51	-33.7	-35.1	26.7	0.00e+00	0	56	0	246415360	39	4133
2026-01-04 03:03:09.41	158.58	25.47	-33.9	-35.3	26.6	0.00e+00	0	55	0	247463936	39	4222
2026-01-04 03:03:10.41	158.05	25.42	-33.8	-35.2	26.6	0.00e+00	0	56	0	248512512	39	4171
2026-01-04 03:03:11.42	157.51	25.37	-33.7	-35.2	26.6	0.00e+00	0	56	0	249561088	39	4157
2026-01-04 03:03:12.43	156.97	25.32	-34.0	-35.4	26.4	0.00e+00	0	55	0	250609664	39	4279
2026-01-04 03:03:13.44	156.44	25.27	-34.2	-35.6	26.2	0.00e+00	0	56	0	251658240	39	4385
2026-01-04 03:03:14.45	155.91	25.22	-34.2	-35.7	26.2	0.00e+00	0	56	0	253231104	39	4400
2026-01-04 03:03:15.46	155.38	25.16	-34.3	-35.8	26.0	0.00e+00	0	55	0	254279680	39	4472
2026-01-04 03:03:16.47	154.85	25.10	-34.2	-35.7	26.2	0.00e+00	0	56	0	255328256	39	4414
2026-01-04 03:03:17.48	154.33	25.04	-33.9	-35.4	26.4	0.00e+00	0	55	0	256376832	39	4254
2026-01-04 03:03:18.49	153.81	24.98	-33.7	-35.1	26.7	0.00e+00	0	55	0	257425408	39	4115
2026-01-04 03:03:19.50	153.29	24.92	-33.9	-35.3	26.5	0.00e+00	0	55	0	258473984	39	4221
2026-01-04 03:03:20.51	152.77	24.85	-33.7	-35.1	26.6	0.00e+00	0	56	0	259522560	39	4143
2026-01-04 03:03:21.52	152.26	24.78	-33.7	-35.2	26.6	0.00e+00	0	56	0	261095424	39	4151
2026-01-04 03:03:22.53	151.74	24.71	-33.5	-34.9	26.8	0.00e+00	0	56	0	262144000	39	4051
2026-01-04 03:03:23.54	151.23	24.64	-33.7	-35.1	26.7	0.00e+00	0	56	0	263192576	39	4108
2026-01-04 03:03:24.55	150.73	24.56	-33.9	-35.4	26.4	0.00e+00	0	56	0	264241152	39	4255
2026-01-04 03:03:25.56	150.22	24.49	-34.2	-35.7	26.1	0.00e+00	0	56	0	265289728	39	4428
2026-01-04 03:03:26.57	149.72	24.41	-34.2	-35.6	26.2	0.00e+00	0	55	0	266338304	39	4390
2026-01-04 03:03:27.57	149.23	24.33	-34.2	-35.7	26.0	0.00e+00	0	55	0	267911168	39	4426
2026-01-04 03:03:28.58	148.74	24.25	-34.0	-35.5	26.3	0.00e+00	0	56	0	268959744	39	4300
2026-01-04 03:03:29.59	148.24	24.17	-33.8	-35.2	26.5	0.00e+00	0	56	0	270008320	39	4189
2026-01-04 03:03:30.60	147.75	24.08	-33.7	-35.1	26.6	0.00e+00	0	56	0	271056896	39	4133
2026-01-04 03:03:31.61	147.27	24.00	-33.8	-35.2	26.5	0.00e+00	0	56	0	272105472	39	4192
2026-01-04 03:03:32.62	146.79	23.91	-33.7	-35.1	26.6	0.00e+00	0	56	0	273154048	39	4120
2026-01-04 03:03:33.63	146.31	23.82	-33.6	-35.0	26.6	0.00e+00	0	56	0	274726912	39	4093
2026-01-04 03:03:34.64	145.83	23.73	-33.9	-35.4	26.4	0.00e+00	0	56	0	275775488	39	4245
2026-01-04 03:03:35.65	145.36	23.64	-34.1	-35.5	26.2	0.00e+00	0	56	0	276824064	39	4328
2026-01-04 03:03:36.66	144.89	23.54	-33.9	-35.4	26.3	0.00e+00	0	56	0	277872640	39	4268
2026-01-04 03:03:37.67	144.42	23.45	-33.9	-35.3	26.4	0.00e+00	0	56	0	278921216	39	4226
2026-01-04 03:03:38.68	143.96	23.35	-33.9	-35.4	26.3	0.00e+00	0	56	0	279969792	39	4247
2026-01-04 03:03:39.69	143.50	23.25	-34.0	-35.4	26.2	0.00e+00	0	56	0	281542656	39	4285
2026-01-04 03:03:40.70	143.04	23.15	-34.0	-35.5	26.2	0.00e+00	0	55	0	282591232	39	4319
2026-01-04 03:03:41.71	142.59	23.05	-34.1	-35.6	26.1	0.00e+00	0	56	0	283639808	39	4360
2026-01-04 03:03:42.72	142.14	22.95	-34.1	-35.6	26.1	0.00e+00	0	56	0	284688384	39	4344
2026-01-04 03:03:43.73	141.69	22.85	-34.0	-35.5	26.2	0.00e+00	0	56	0	285736960	39	4315
2026-01-04 03:03:44.74	141.25	22.75	-34.0	-35.5	26.2	0.00e+00	0	56	0	287309824	39	4313
2026-01-04 03:03:45.75	140.81	22.64	-34.3	-35.8	25.9	0.00e+00	0	56	0	288358400	39	4483
2026-01-04 03:03:46.76	140.38	22.54	-34.5	-36.1	25.7	0.00e+00	0	56	0	289406976	39	4601
2026-01-04 03:03:47.77	139.94	22.43	-34.4	-35.9	25.7	0.00e+00	0	56	0	290455552	39	4543
2026-01-04 03:03:48.78	139.52	22.33	-34.1	-35.6	26.0	0.00e+00	0	56	0	291504128	39	4367
2026-01-04 03:03:49.79	139.09	22.22	-34.1	-35.6	26.1	0.00e+00	0	56	0	292552704	39	4378
2026-01-04 03:03:50.80	138.67	22.11	-34.3	-35.8	25.8	0.00e+00	0	56	0	294125568	39	4480
2026-01-04 03:03:51.81	138.25	22.00	-34.5	-36.0	25.6	0.00e+00	0	56	0	295174144	39	4566
2026-01-04 03:03:52.82	137.84	21.89	-34.5	-36.0	25.6	0.00e+00	0	56	0	296222720	39	4562
2026-01-04 03:03:53.83	137.42	21.78	-34.4	-35.9	25.8	0.00e+00	0	55	0	297271296	39	4520
2026-01-04 03:03:54.84	137.02	21.67	-34.4	-35.9	25.7	0.00e+00	0	56	0	298319872	39	4521
2026-01-04 03:03:55.85	136.61	21.56	-34.4	-35.9	25.8	0.00e+00	0	56	0	299368448	39	4515
2026-01-04 03:03:56.86	136.21	21.44	-34.7	-36.2	25.5	0.00e+00	0	56	0	300417024	39	4673
2026-01-04 03:03:57.87	135.81	21.33	-34.7	-36.2	25.4	0.00e+00	0	56	0	301989888	39	4683
2026-01-04 03:03:58.88	135.42	21.21	-34.6	-36.2	25.5	0.00e+00	0	56	0	303038464	39	4661
2026-01-04 03:03:59.89	135.03	21.10	-34.6	-36.1	25.5	0.00e+00	0	56	0	304087040	39	4642
2026-01-04 03:04:00.90	134.64	20.99	-34.4	-35.9	25.7	0.00e+00	0	56	0	305135616	39	4523
2026-01-04 03:04:01.91	134.26	20.87	-34.6	-36.1	25.5	0.00e+00	0	56	0	306184192	39	4642
2026-01-04 03:04:02.91	133.88	20.76	-34.6	-36.2	25.5	0.00e+00	0	56	0	307232768	39	4663
2026-01-04 03:04:03.93	133.50	20.64	-34.8	-36.4	25.2	0.00e+00	0	56	0	308805632	40	4516
2026-01-04 03:04:04.93	133.14	20.52	-34.8	-36.4	25.1	0.00e+00	0	56	0	309854208	40	4521
2026-01-04 03:04:05.94	132.77	20.41	-34.8	-36.3	25.2	0.00e+00	0	56	0	310902784	40	4481
2026-01-04 03:04:06.95	132.40	20.29	-34.9	-36.5	25.0	0.00e+00	0	56	0	311951360	40	4587
2026-01-04 03:04:07.96	132.04	20.17	-35.0	-36.7	24.9	0.00e+00	0	56	0	312999936	40	4652
2026-01-04 03:04:08.97	131.68	20.05	-35.2	-36.8	24.7	0.00e+00	0	56	0	314048512	40	4742
2026-01-04 03:04:09.98	131.32	19.93	-35.3	-37.0	24.5	0.00e+00	0	56	0	315621376	41	4560
2026-01-04 03:04:10.99	130.97	19.82	-35.0	-36.6	24.9	0.00e+00	0	56	0	316669952	41	4353
2026-01-04 03:04:12.00	130.62	19.70	-34.9	-36.4	25.0	0.00e+00	0	56	0	317718528	41	4281
2026-01-04 03:04:13.01	130.27	19.58	-34.7	-36.2	25.3	0.00e+00	0	56	0	318767104	41	4179
2026-01-04 03:04:14.02	129.93	19.46	-34.9	-36.4	25.1	0.00e+00	0	56	0	319815680	41	4290
2026-01-04 03:04:15.03	129.59	19.34	-34.9	-36.5	25.1	0.00e+00	0	56	0	320864256	41	4293
2026-01-04 03:04:16.04	129.25	19.22	-35.0	-36.6	24.9	0.00e+00	0	56	0	322437120	41	4358
2026-01-04 03:04:17.05	128.92	19.10	-34.7	-36.2	25.3	0.00e+00	0	56	0	323485696	41	4183
2026-01-04 03:04:18.06	128.59	18.98	-34.7	-36.3	25.2	0.00e+00	0	56	0	324534272	41	4203
2026-01-04 03:04:19.06	128.26	18.87	-35.0	-36.6	24.9	0.00e+00	0	56	0	325582848	41	4354
2026-01-04 03:04:20.07	127.94	18.75	-35.3	-36.9	24.6	0.00e+00	0	56	0	326631424	41	4536
2026-01-04 03:04:21.08	127.62	18.63	-35.4	-37.1	24.5	0.00e+00	0	56	0	327680000	41	4604
2026-01-04 03:04:22.09	127.30	18.51	-35.4	-37.0	24.5	0.00e+00	0	56	0	329252864	41	4594
2026-01-04 03:04:23.10	126.99	18.39	-35.2	-36.8	24.6	0.00e+00	0	56	0	330301440	41	4476
2026-01-04 03:04:24.11	126.68	18.27	-35.1	-36.7	24.8	0.00e+00	0	56	0	331350016	41	4398
2026-01-04 03:04:25.12	126.37	18.15	-35.1	-36.7	24.7	0.00e+00	0	56	0	332398592	41	4439
2026-01-04 03:04:26.13	126.06	18.03	-35.3	-36.9	24.6	0.00e+00	0	56	0	333447168	41	4503
2026-01-04 03:04:27.14	125.76	17.92	-35.6	-37.2	24.3	0.00e+00	0	56	0	335020032	41	4695
2026-01-04 03:04:28.15	125.46	17.80	-35.8	-37.5	23.9	0.00e+00	0	56	0	336068608	42	4556
2026-01-04 03:04:29.16	125.16	17.68	-35.9	-37.6	23.9	0.00e+00	0	56	0	337117184	42	4633
2026-01-04 03:04:30.17	124.87	17.56	-35.9	-37.6	23.9	0.00e+00	0	56	0	338165760	42	4631
2026-01-04 03:04:31.18	124.58	17.44	-35.8	-37.5	23.9	0.00e+00	0	56	0	339214336	42	4565
2026-01-04 03:04:32.19	124.29	17.32	-35.6	-37.3	24.1	0.00e+00	0	56	0	340262912	42	4482
2026-01-04 03:04:33.20	124.00	17.21	-35.4	-37.1	24.3	0.00e+00	0	56	0	341311488	42	4359
2026-01-04 03:04:34.21	123.72	17.09	-35.4	-37.0	24.4	0.00e+00	0	56	0	342884352	42	4326
2026-01-04 03:04:35.21	123.44	16.97	-35.4	-37.1	24.4	0.00e+00	0	56	0	343932928	42	4341
2026-01-04 03:04:36.22	123.16	16.86	-35.5	-37.2	24.3	0.00e+00	0	56	0	344981504	42	4423
2026-01-04 03:04:37.23	122.89	16.74	-35.5	-37.2	24.2	0.00e+00	0	56	0	346030080	42	4416
2026-01-04 03:04:38.24	122.62	16.62	-35.6	-37.3	24.1	0.00e+00	0	56	0	347078656	42	4454
2026-01-04 03:04:39.25	122.35	16.51	-35.6	-37.3	24.1	0.00e+00	0	56	0	348127232	42	4492
2026-01-04 03:04:40.26	122.08	16.39	-35.8	-37.5	24.0	0.00e+00	0	56	0	349700096	42	4567
2026-01-04 03:04:41.27	121.82	16.27	-35.9	-37.6	23.8	0.00e+00	0	56	0	350748672	42	4647
2026-01-04 03:04:42.28	121.55	16.16	-36.2	-38.0	23.5	0.00e+00	0	56	0	351797248	42	4833
2026-01-04 03:04:43.29	121.29	16.04	-36.3	-38.2	23.3	0.00e+00	0	56	0	352845824	43	4656
2026-01-04 03:04:44.30	121.04	15.93	-36.4	-38.3	23.1	0.00e+00	0	56	0	353894400	43	4759
2026-01-04 03:04:45.31	120.78	15.81	-36.3	-38.4	23.1	0.00e+00	0	56	0	354942976	43	4782
2026-01-04 03:04:46.32	120.53	15.70	-36.3	-38.4	23.1	0.00e+00	0	56	0	356515840	43	4765
2026-01-04 03:04:47.33	120.28	15.58	-36.2	-38.2	23.2	0.00e+00	0	56	0	357564416	43	4676
2026-01-04 03:04:48.34	120.04	15.47	-36.1	-38.0	23.4	0.00e+00	0	56	0	358612992	43	4549
2026-01-04 03:04:49.35	119.79	15.36	-36.0	-37.8	23.5	0.00e+00	0	56	0	359661568	42	4753
2026-01-04 03:04:50.35	119.55	15.24	-36.1	-37.8	23.5	0.00e+00	0	56	0	360710144	42	4756
2026-01-04 03:04:51.36	119.31	15.13	-36.0	-37.9	23.6	0.00e+00	0	56	0	361758720	42	4777
2026-01-04 03:04:52.37	119.07	15.02	-36.0	-37.9	23.5	0.00e+00	0	56	0	363331584	42	4771
2026-01-04 03:04:53.39	118.84	14.91	-35.4	-38.0	23.3	0.00e+00	0	56	0	364380160	42	4852
2026-01-04 03:04:54.39	118.60	14.80	-35.2	-38.2	23.1	0.00e+00	0	56	0	365428736	42	4955
2026-01-04 03:04:55.40	118.37	14.68	-36.5	-38.4	23.0	0.00e+00	0	56	0	366477312	43	4780
2026-01-04 03:04:56.41	118.15	14.57	-36.9	-38.9	22.7	0.00e+00	0	56	0	367525888	44	4777
2026-01-04 03:04:57.42	117.92	14.46	-37.0	-38.9	22.6	0.00e+00	0	56	0	368574464	44	4802
2026-01-04 03:04:58.43	117.69	14.35	-36.5	-38.8	22.7	0.00e+00	0	56	0	370147328	44	4720
2026-01-04 03:04:59.44	117.47	14.24	-35.2	-38.6	22.4	0.00e+00	0	56	0	371195904	42	5161
2026-01-04 03:05:00.45	117.25	14.13	-36.6	-38.5	22.8	0.00e+00	0	56	0	372244480	43	4870
2026-01-04 03:05:01.46	117.03	14.02	-36.6	-38.6	22.7	0.00e+00	0	56	0	373293056	43	4889
2026-01-04 03:05:02.47	116.82	13.91	-36.5	-38.6	22.6	0.00e+00	0	56	0	374341632	43	4911
2026-01-04 03:05:03.48	116.60	13.81	-36.5	-38.7	22.6	0.00e+00	0	56	0	375390208	43	4949
2026-01-04 03:05:04.49	116.39	13.70	-35.3	-39.0	22.1	0.00e+00	0	56	0	376963072	43	5104
2026-01-04 03:05:05.50	116.18	13.59	-36.3	-38.9	22.0	0.00e+00	0	56	0	378011648	43	5096
2026-01-04 03:05:06.51	115.98	13.48	-36.7	-39.1	22.0	0.00e+00	0	56	0	379060224	43	5198
2026-01-04 03:05:07.51	115.77	13.38	-35.6	-39.6	21.8	0.00e+00	0	56	0	380108800	44	5195
2026-01-04 03:05:08.52	115.57	13.27	-37.3	-39.9	21.3	0.00e+00	0	56	0	381157376	45	5051
2026-01-04 03:05:09.53	115.37	13.16	-37.2	-39.9	21.4	9.10e-06	0	56	0	382205952	45	5075
2026-01-04 03:05:10.54	115.17	13.06	-36.7	-40.1	21.3	9.10e-06	0	56	0	383778816	45	5211
2026-01-04 03:05:11.55	114.97	12.95	-36.0	-39.3	21.6	0.00e+00	0	56	0	384827392	43	5295
2026-01-04 03:05:12.56	114.77	12.85	-37.2	-39.8	21.5	1.10e-06	0	56	0	385875968	45	4997
2026-01-04 03:05:13.57	114.58	12.74	-37.4	-39.8	21.6	1.10e-06	0	56	0	386924544	45	5025
2026-01-04 03:05:14.58	114.38	12.64	-36.9	-39.8	21.7	1.10e-06	0	56	0	387973120	45	4988
2026-01-04 03:05:15.59	114.19	12.54	-37.4	-39.7	21.6	3.40e-06	0	56	0	389021696	45	4970
2026-01-04 03:05:16.60	114.00	12.43	-37.4	-39.9	21.3	0.00e+00	0	56	0	390594560	45	5097
2026-01-04 03:05:17.61	113.81	12.33	-36.3	-39.8	21.4	0.00e+00	0	56	0	391643136	44	5318
2026-01-04 03:05:18.62	113.63	12.23	-37.6	-39.9	21.4	0.00e+00	0	56	0	392691712	45	5046
2026-01-04 03:05:19.63	113.44	12.12	-37.7	-40.1	21.2	0.00e+00	0	56	0	393740288	46	4894
2026-01-04 03:05:20.64	113.26	12.02	-37.9	-40.3	21.0	0.00e+00	0	56	0	394788864	46	5034
2026-01-04 03:05:21.65	113.08	11.92	-37.8	-40.2	21.1	0.00e+00	0	56	0	395837440	46	4970
2026-01-04 03:05:22.66	112.90	11.82	-38.0	-40.5	20.7	0.00e+00	0	56	0	397410304	46	5123
2026-01-04 03:05:23.67	112.72	11.72	-37.9	-40.6	20.3	0.00e+00	0	56	0	398458880	46	5200
2026-01-04 03:05:24.68	112.55	11.62	-37.8	-40.2	21.1	0.00e+00	0	56	0	399507456	45	5264
2026-01-04 03:05:25.69	112.37	11.52	-37.5	-40.0	21.1	0.00e+00	0	56	0	400556032	45	5144
2026-01-04 03:05:26.70	112.20	11.42	-36.7	-39.9	21.2	0.00e+00	0	56	0	401604608	45	5072
2026-01-04 03:05:27.71	112.03	11.32	-38.2	-41.0	19.9	0.00e+00	0	56	0	402653184	47	5150
2026-01-04 03:05:28.71	111.86	11.22	-36.9	-40.0	20.8	0.00e+00	0	56	0	404226048	45	5122
2026-01-04 03:05:29.72	111.69	11.13	-35.2	-39.3	20.3	0.00e+00	0	56	0	405274624	42	5602
2026-01-04 03:05:30.73	111.53	11.03	-36.5	-39.8	20.6	0.00e+00	0	56	0	406323200	45	4993
2026-01-04 03:05:31.74	111.36	10.93	-33.8	-39.8	19.5	1.10e-06	0	56	0	407371776	39	7057
2026-01-04 03:05:32.75	111.20	10.83	-37.4	-40.2	20.6	0.00e+00	0	56	0	408420352	45	5254
2026-01-04 03:05:33.76	111.04	10.74	-36.7	-40.9	19.5	0.00e+00	0	56	0	409468928	45	5657
2026-01-04 03:05:34.77	110.88	10.64	-38.2	-41.8	18.8	0.00e+00	0	56	0	411041792	47	5603
2026-01-04 03:05:35.78	110.72	10.54	-34.9	-41.1	17.9	9.10e-06	0	56	0	412090368	42	6952
2026-01-04 03:05:36.79	110.56	10.45	-35.9	-41.7	19.0	9.10e-06	0	56	0	413138944	46	5878
2026-01-04 03:05:37.80	110.40	10.35	-38.0	-41.8	18.9	4.50e-06	0	56	0	414187520	46	5950
2026-01-04 03:05:38.81	110.25	10.26	-37.3	-41.9	18.9	1.48e-05	0	56	0	415236096	47	5664
2026-01-04 03:05:39.82	110.09	10.16	-38.2	-41.3	19.6	1.48e-05	0	56	0	416284672	46	5619
2026-01-04 03:05:40.83	109.94	10.07	-37.8	-41.3	19.4	1.60e-05	0	56	0	417857536	46	5606
2026-01-04 03:05:41.84	109.79	9.98	-38.0	-41.4	19.2	5.03e-05	0	56	0	418906112	46	5710
2026-01-04 03:05:42.85	109.64	9.88	-37.9	-41.5	19.1	6.80e-06	0	56	0	419954688	46	5725
2026-01-04 03:05:43.86	109.49	9.79	-32.7	-40.6	14.7	6.80e-06	0	56	0	421003264	40	7328
2026-01-04 03:05:44.87	109.34	9.70	-35.6	-40.7	18.6	1.54e-03	0	56	0	422051840	43	6242
2026-01-04 03:05:45.88	109.20	9.61	-37.5	-40.8	19.7	2.05e-05	0	56	0	423100416	45	5611
2026-01-04 03:05:46.89	109.05	9.51	-37.3	-40.7	19.5	2.05e-05	0	56	0	424673280	45	5564
2026-01-04 03:05:47.90	108.91	9.42	-36.9	-40.6	19.6	1.14e-05	0	56	0	425721856	45	5497
2026-01-04 03:05:48.91	108.77	9.33	-37.0	-40.6	19.5	1.94e-05	0	56	0	426770432	44	5841
2026-01-04 03:05:49.92	108.62	9.24	-32.1	-40.5	18.8	1.94e-05	0	56	0	427819008	41	6840
2026-01-04 03:05:50.93	108.48	9.15	-37.2	-41.2	18.6	3.20e-05	0	56	0	428867584	45	5887
2026-01-04 03:05:51.94	108.35	9.06	-37.3	-41.4	18.6	5.60e-05	0	56	0	429916160	45	6002
2026-01-04 03:05:52.95	108.21	8.97	-36.0	-41.6	18.3	5.60e-05	0	57	0	431489024	44	6504
2026-01-04 03:05:53.96	108.07	8.88	-37.4	-41.7	18.0	1.13e-04	0	56	0	432537600	45	6217
2026-01-04 03:05:54.96	107.94	8.79	-37.7	-41.9	17.9	1.65e-04	0	56	0	433586176	45	6389
2026-01-04 03:05:55.97	107.80	8.71	-37.9	-42.2	17.2	1.80e-04	0	56	0	434634752	45	6635
2026-01-04 03:05:56.98	107.67	8.62	-36.2	-42.5	17.3	1.80e-04	0	56	0	435683328	45	6824
2026-01-04 03:05:57.99	107.54	8.53	-37.8	-42.9	17.1	4.30e-04	0	56	0	436731904	46	6755
2026-01-04 03:05:59.00	107.41	8.44	-38.0	-42.7	17.1	2.47e-04	0	56	0	438304768	46	6582
2026-01-04 03:06:00.01	107.28	8.36	-38.3	-42.8	16.9	2.47e-04	0	56	0	439353344	46	6688
2026-01-04 03:06:01.02	107.15	8.27	-37.4	-42.7	16.3	3.16e-04	0	56	0	440401920	46	6583
2026-01-04 03:06:02.03	107.02	8.18	-38.2	-42.5	16.6	5.73e-03	0	56	0	441450496	46	6490
2026-01-04 03:06:03.04	106.89	8.10	-38.0	-42.5	17.0	5.73e-03	0	56	0	442499072	46	6483
2026-01-04 03:06:04.05	106.77	8.01	-38.0	-41.8	17.2	3.91e-03	0	56	0	443547648	46	5992
2026-01-04 03:06:05.06	106.64	7.93	-42.2	-58.4	4.1	1.77e-04	0	56	104	444596224	54	25309
2026-01-04 03:06:06.07	106.52	7.84	-44.6	-62.7	3.8	1.77e-04	0	57	104	444596224	59	31322
2026-01-04 03:06:07.08	106.40	7.76	-44.7	-63.0	3.8	8.24e-01	0	56	104	444596224	60	30536
2026-01-04 03:06:08.09	106.28	7.67	-45.0	-63.2	3.8	8.46e-01	0	57	104	444596224	60	31396
2026-01-04 03:06:09.10	106.16	7.59	-45.2	-63.6	3.8	8.46e-01	0	56	104	444596224	61	30743
2026-01-04 03:06:10.11	106.04	7.50	-45.3	-63.6	3.8	8.46e-01	0	56	104	444596224	61	30934
2026-01-04 03:06:11.12	105.92	7.42	-45.4	-63.7	3.8	8.46e-01	0	56	104	444596224	61	31226
2026-01-04 03:06:12.13	105.80	7.34	-45.5	-63.8	3.8	8.45e-01	0	56	104	444596224	61	31502
2026-01-04 03:06:13.14	105.68	7.25	-45.5	-63.8	3.8	8.45e-01	0	56	104	444596224	61	31732
2026-01-04 03:06:14.15	105.57	7.17	-45.6	-63.8	3.8	8.47e-01	0	56	104	444596224	61	31788
2026-01-04 03:06:15.15	105.45	7.09	-45.5	-63.8	3.8	8.46e-01	0	56	104	444596224	61	31712
2026-01-04 03:06:16.16	105.34	7.01	-45.4	-63.8	3.8	8.46e-01	0	56	104	444596224	61	31578
2026-01-04 03:06:17.17	105.23	6.93	-45.3	-63.7	3.8	8.45e-01	0	56	104	444596224	61	31217
2026-01-04 03:06:18.18	105.11	6.85	-45.3	-63.6	3.8	8.46e-01	0	56	104	444596224	61	31074
2026-01-04 03:06:19.19	105.00	6.76	-45.2	-63.6	3.8	8.46e-01	0	56	104	444596224	61	31037
2026-01-04 03:06:20.21	104.89	6.68	-45.2	-63.6	3.8	8.46e-01	0	56	104	444596224	61	30964
2026-01-04 03:06:21.22	104.78	6.60	-45.2	-63.6	3.8	8.47e-01	0	56	104	444596224	61	30852
2026-01-04 03:06:22.23	104.67	6.52	-45.2	-63.6	3.8	8.46e-01	0	56	104	444596224	61	30815
2026-01-04 03:06:23.24	104.56	6.44	-45.1	-63.6	3.8	8.46e-01	0	56	104	444596224	61	30797
2026-01-04 03:06:24.25	104.46	6.36	-45.1	-63.5	3.8	8.46e-01	0	56	104	444596224	61	30659
2026-01-04 03:06:25.26	104.35	6.29	-45.1	-63.5	3.8	8.45e-01	0	57	104	444596224	61	30703
2026-01-04 03:06:26.27	104.25	6.21	-45.1	-63.5	3.8	8.45e-01	0	56	104	444596224	61	30624
2026-01-04 03:06:27.28	104.14	6.13	-45.1	-63.5	3.8	8.47e-01	0	57	104	444596224	61	30564
2026-01-04 03:06:28.29	104.04	6.05	-45.1	-63.5	3.8	8.46e-01	0	56	104	444596224	61	30648
2026-01-04 03:06:29.30	103.93	5.97	-45.1	-63.5	3.8	8.46e-01	0	56	104	444596224	61	30694
2026-01-04 03:06:30.31	103.83	5.89	-45.1	-63.5	3.8	8.46e-01	0	57	104	444596224	61	30641
2026-01-04 03:06:31.33	103.73	5.82	-45.1	-63.5	3.8	8.47e-01	0	56	104	444596224	61	30591
2026-01-04 03:06:32.34	103.63	5.74	-45.1	-63.5	3.8	8.46e-01	0	57	104	444596224	61	30584
2026-01-04 03:06:33.35	103.53	5.66	-45.1	-63.5	3.8	8.46e-01	0	57	104	444596224	61	30572
2026-01-04 03:06:34.36	103.43	5.59	-45.1	-63.5	3.8	8.46e-01	0	56	104	444596224	61	30575
2026-01-04 03:06:35.37	103.33	5.51	-45.1	-63.5	3.8	8.46e-01	0	56	104	444596224	61	30491
2026-01-04 03:06:36.38	103.23	5.43	-45.1	-63.5	3.8	8.46e-01	0	57	104	444596224	61	30560
2026-01-04 03:06:37.39	103.14	5.36	-45.1	-63.5	3.8	8.46e-01	0	56	104	444596224	61	30517
2026-01-04 03:06:38.40	103.04	5.28	-45.1	-63.5	3.8	8.47e-01	0	56	104	444596224	61	30559
2026-01-04 03:06:39.41	102.94	5.21	-45.1	-63.5	3.8	8.47e-01	0	56	104	444596224	61	30583
2026-01-04 03:06:40.43	102.85	5.13	-45.1	-63.5	3.8	8.47e-01	0	56	104	444596224	61	30582
2026-01-04 03:06:41.44	102.75	5.06	-45.1	-63.5	3.8	8.46e-01	0	57	104	444596224	61	30661
2026-01-04 03:06:42.45	102.66	4.98	-45.1	-63.5	3.8	8.46e-01	0	57	104	444596224	61	30609
2026-01-04 03:06:43.46	102.57	4.91	-45.1	-63.5	3.8	8.46e-01	0	57	104	444596224	61	30577
2026-01-04 03:06:44.47	102.48	4.83	-45.1	-63.5	3.8	8.47e-01	0	57	104	444596224	61	30559
2026-01-04 03:06:45.48	102.39	4.76	-45.1	-63.5	3.8	8.47e-01	0	57	104	444596224	61	30642
2026-01-04 03:06:46.49	102.29	4.69	-45.1	-63.5	3.8	8.47e-01	0	57	104	444596224	61	30508
2026-01-04 03:06:47.50	102.20	4.61	-45.1	-63.5	3.8	8.45e-01	0	57	104	444596224	61	30610
2026-01-04 03:06:48.51	102.11	4.54	-45.1	-63.5	3.8	8.45e-01	0	57	104	444596224	61	30493
2026-01-04 03:06:49.52	102.03	4.47	-45.1	-63.5	3.8	8.45e-01	0	57	104	444596224	61	30580
2026-01-04 03:06:50.54	101.94	4.39	-45.1	-63.5	3.8	8.45e-01	0	57	104	444596224	61	30553
2026-01-04 03:06:51.55	101.85	4.32	-45.1	-63.5	3.8	8.45e-01	0	57	104	444596224	61	30568
2026-01-04 03:06:52.56	101.76	4.25	-45.1	-63.5	3.8	8.45e-01	0	57	104	444596224	61	30503
2026-01-04 03:06:53.57	101.68	4.18	-45.1	-63.5	3.8	8.45e-01	0	57	104	444596224	61	30588
2026-01-04 03:06:54.58	101.59	4.11	-45.1	-63.5	3.8	8.47e-01	0	56	104	444596224	61	30625
2026-01-04 03:06:55.59	101.51	4.04	-45.1	-63.5	3.8	8.47e-01	0	57	104	444596224	61	30554
2026-01-04 03:06:56.60	101.42	3.97	-45.1	-63.5	3.8	8.46e-01	0	57	104	444596224	61	30544
2026-01-04 03:06:57.61	101.34	3.89	-45.1	-63.5	3.8	8.47e-01	0	57	104	444596224	61	30506
2026-01-04 03:06:58.62	101.25	3.82	-45.1	-63.5	3.8	8.47e-01	0	57	104	444596224	61	30574
2026-01-04 03:06:59.63	101.17	3.75	-45.1	-63.5	3.8	8.47e-01	0	57	104	444596224	61	30583
2026-01-04 03:07:00.64	101.09	3.68	-45.1	-63.5	3.8	8.46e-01	0	57	104	444596224	61	30598
2026-01-04 03:07:01.65	101.01	3.61	-45.1	-63.5	3.8	8.47e-01	0	56	104	444596224	61	30519
2026-01-04 03:07:02.67	100.93	3.54	-45.1	-63.5	3.8	8.47e-01	0	57	104	444596224	61	30592
2026-01-04 03:07:03.68	100.84	3.47	-45.1	-63.5	3.8	8.45e-01	0	56	104	444596224	61	30480
2026-01-04 03:07:04.69	100.77	3.41	-45.1	-63.5	3.8	8.46e-01	0	57	104	444596224	61	30600
2026-01-04 03:07:05.70	100.69	3.34	-45.1	-63.5	3.8	8.46e-01	0	57	104	444596224	61	30524
2026-01-04 03:07:06.71	100.61	3.27	-45.1	-63.5	3.8	8.46e-01	0	57	104	444596224	61	30522
2026-01-04 03:07:07.72	100.53	3.20	-45.1	-63.5	3.8	8.47e-01	0	57	104	444596224	61	30493
2026-01-04 03:07:08.73	100.45	3.13	-45.1	-63.5	3.8	8.46e-01	0	57	104	444596224	61	30503
2026-01-04 03:07:09.74	100.37	3.06	-45.1	-63.5	3.8	8.46e-01	0	57	104	444596224	61	30649
2026-01-04 03:07:10.75	100.30	2.99	-45.1	-63.5	3.8	8.46e-01	0	57	104	444596224	61	30535
2026-01-04 03:07:11.77	100.22	2.93	-45.1	-63.5	3.8	8.46e-01	0	56	104	444596224	61	30507
2026-01-04 03:07:12.78	100.14	2.86	-45.1	-63.5	3.8	8.46e-01	0	57	104	444596224	61	30500
2026-01-04 03:07:13.79	100.07	2.79	-45.1	-63.5	3.8	8.45e-01	0	57	104	444596224	61	30555
2026-01-04 03:07:14.80	99.99	2.72	-45.1	-63.5	3.8	8.46e-01	0	57	104	444596224	61	30573
2026-01-04 03:07:15.81	99.92	2.66	-45.1	-63.5	3.8	8.46e-01	0	57	104	444596224	61	30493
2026-01-04 03:07:16.82	99.85	2.59	-45.1	-63.5	3.8	8.46e-01	0	57	104	444596224	61	30524
2026-01-04 03:07:17.83	99.77	2.52	-45.1	-63.5	3.8	8.46e-01	0	57	104	444596224	61	30438
2026-01-04 03:07:18.84	99.70	2.46	-45.0	-63.5	3.8	8.46e-01	0	57	104	444596224	61	30527
2026-01-04 03:07:19.85	99.63	2.39	-45.0	-63.5	3.8	8.47e-01	0	57	104	444596224	61	30561
2026-01-04 03:07:20.87	99.56	2.33	-45.0	-63.5	3.8	8.45e-01	0	57	104	444596224	61	30492
2026-01-04 03:07:21.88	99.49	2.26	-45.0	-63.5	3.8	8.47e-01	0	57	104	444596224	61	30464
2026-01-04 03:07:22.89	99.42	2.19	-45.0	-63.5	3.8	8.47e-01	0	57	104	444596224	61	30482
2026-01-04 03:07:23.90	99.34	2.13	-45.0	-63.5	3.8	8.46e-01	0	57	104	444596224	61	30546
2026-01-04 03:07:24.91	99.27	2.06	-45.0	-63.5	3.8	8.46e-01	0	57	104	444596224	61	30461
2026-01-04 03:07:25.92	99.21	2.00	-45.0	-63.5	3.8	8.46e-01	0	57	104	444596224	61	30415

#Closed at: 2026-01-04 03:07:26
#Recorded file [444 MB]: D:/lorett/data/31039_260104_055818.dat