passes_logs/2026/01/04/R2.0S_Moscow/R2.0S_Moscow__20260104_022142_FENGYUN_3D_rec.log

#Pass ID: 20260104_022142_FENGYUN 3D
#Satellite: FENGYUN 3D
#Configuration: FENGYUN 3D
#almurnet v.1.7.20251203
#Start time: 2026-01-04 02:21:42

#Version: 2.2.20231116
#Station: R2.0S_Moscow
#Location: 37.707566 lon 55.798166 lat
#TLE: 1 43010U 17072A   26003.51579816  .00000092  00000+0  65324-4 0  9992
#TLE: 2 43010  98.9912 335.1548 0001916 128.4619 231.6729 14.19692074421623

#Time	Az	El	Level	Level2	SNR	BER	BlckErr	Temp	State	Recorded	gain1	gain2
2026-01-04 02:21:42.49	14.05	2.00	-42.1	-53.7	3.8	8.47e-01	0	47	0	0	55	13924
2026-01-04 02:21:43.49	14.02	2.07	-42.3	-53.9	3.8	8.46e-01	0	48	104	0	56	13449
2026-01-04 02:21:44.50	14.00	2.13	-42.3	-53.9	3.8	8.46e-01	0	48	104	0	56	13424
2026-01-04 02:21:45.51	13.98	2.19	-42.2	-53.9	3.8	8.46e-01	0	48	104	0	56	13416
2026-01-04 02:21:46.52	13.95	2.26	-42.2	-53.8	3.8	8.47e-01	0	48	104	0	56	13353
2026-01-04 02:21:47.53	13.93	2.32	-42.2	-53.9	3.8	8.46e-01	0	48	104	0	56	13418
2026-01-04 02:21:48.54	13.90	2.39	-42.2	-53.8	3.8	8.46e-01	0	48	104	0	56	13392
2026-01-04 02:21:49.55	13.88	2.45	-42.2	-53.8	3.8	8.47e-01	0	48	104	0	56	13397
2026-01-04 02:21:50.57	13.86	2.52	-42.2	-53.8	3.8	8.46e-01	0	48	104	0	56	13367
2026-01-04 02:21:51.58	13.83	2.58	-42.3	-53.8	3.8	8.46e-01	0	48	104	0	56	13377
2026-01-04 02:21:52.59	13.81	2.65	-42.3	-53.9	3.8	8.47e-01	0	48	104	0	56	13420
2026-01-04 02:21:53.60	13.78	2.71	-42.2	-53.9	3.8	8.46e-01	0	48	104	0	56	13432
2026-01-04 02:21:54.61	13.76	2.78	-42.2	-53.8	3.8	8.46e-01	0	49	104	0	56	13404
2026-01-04 02:21:55.62	13.73	2.84	-42.2	-53.8	3.8	8.47e-01	0	49	104	0	56	13384
2026-01-04 02:21:56.63	13.71	2.91	-42.2	-53.8	3.8	8.46e-01	0	49	104	0	56	13409
2026-01-04 02:21:57.64	13.68	2.97	-42.2	-53.8	3.8	8.47e-01	0	49	104	0	56	13344
2026-01-04 02:21:58.65	13.66	3.04	-42.2	-53.8	3.8	8.46e-01	0	49	104	0	56	13382
2026-01-04 02:21:59.66	13.63	3.10	-42.2	-53.8	3.8	8.46e-01	0	49	104	0	56	13401
2026-01-04 02:22:00.68	13.60	3.17	-42.2	-53.8	3.8	8.45e-01	0	49	104	0	56	13362
2026-01-04 02:22:01.69	13.58	3.24	-42.2	-53.8	3.8	8.45e-01	0	49	104	0	56	13361
2026-01-04 02:22:02.70	13.55	3.30	-42.2	-53.8	3.8	8.47e-01	0	49	104	0	56	13267
2026-01-04 02:22:03.71	13.53	3.37	-42.2	-53.7	3.8	8.46e-01	0	49	104	0	56	13232
2026-01-04 02:22:04.72	13.50	3.43	-42.2	-53.7	3.8	8.47e-01	0	49	104	0	56	13143
2026-01-04 02:22:05.73	13.47	3.50	-42.2	-53.6	3.8	8.47e-01	0	49	104	0	56	12994
2026-01-04 02:22:06.74	13.45	3.57	-42.2	-53.5	3.8	8.47e-01	0	49	104	0	56	12881
2026-01-04 02:22:07.75	13.42	3.64	-42.2	-53.5	3.8	8.47e-01	0	50	104	0	56	12925
2026-01-04 02:22:08.77	13.39	3.70	-42.2	-53.5	3.8	8.47e-01	0	50	104	0	56	12860
2026-01-04 02:22:09.78	13.37	3.77	-42.2	-53.4	3.8	8.47e-01	0	50	104	0	56	12801
2026-01-04 02:22:10.79	13.34	3.84	-42.2	-53.5	3.8	8.46e-01	0	50	104	0	56	12956
2026-01-04 02:22:11.80	13.31	3.91	-42.2	-53.5	3.8	8.46e-01	0	50	104	0	56	12941
2026-01-04 02:22:12.81	13.29	3.97	-42.2	-53.5	3.8	8.45e-01	0	50	104	0	56	12825
2026-01-04 02:22:13.82	13.26	4.04	-42.2	-53.5	3.8	8.45e-01	0	50	104	0	56	12814
2026-01-04 02:22:14.83	13.23	4.11	-42.2	-53.4	3.8	8.46e-01	0	50	104	0	56	12799
2026-01-04 02:22:15.84	13.20	4.18	-42.2	-53.4	3.8	8.46e-01	0	50	104	0	56	12673
2026-01-04 02:22:16.85	13.17	4.25	-42.2	-53.4	3.8	8.45e-01	0	50	104	0	56	12708
2026-01-04 02:22:17.86	13.15	4.32	-42.2	-53.4	3.8	8.47e-01	0	50	104	0	56	12799
2026-01-04 02:22:18.87	13.12	4.38	-42.2	-53.3	3.8	8.45e-01	0	50	104	0	56	12631
2026-01-04 02:22:19.88	13.09	4.45	-42.2	-53.2	3.8	8.46e-01	0	50	104	0	56	12446
2026-01-04 02:22:20.90	13.06	4.52	-42.2	-53.3	3.8	8.46e-01	0	50	104	0	56	12544
2026-01-04 02:22:21.91	13.03	4.59	-42.2	-53.3	3.8	8.46e-01	0	50	104	0	56	12524
2026-01-04 02:22:22.92	13.00	4.66	-42.2	-53.1	3.8	8.46e-01	0	50	104	0	56	12337
2026-01-04 02:22:23.93	12.97	4.73	-42.1	-53.0	3.8	8.45e-01	0	51	104	0	56	12187
2026-01-04 02:22:24.94	12.95	4.80	-42.2	-53.0	3.8	8.47e-01	0	51	104	0	56	12170
2026-01-04 02:22:25.95	12.92	4.87	-42.1	-52.9	3.8	8.46e-01	0	51	104	0	56	11972
2026-01-04 02:22:26.96	12.89	4.94	-42.1	-52.6	3.8	8.46e-01	0	50	104	0	56	11569
2026-01-04 02:22:27.97	12.86	5.01	-42.1	-52.4	3.8	8.45e-01	0	51	104	0	56	11397
2026-01-04 02:22:28.98	12.83	5.08	-42.1	-52.4	3.8	8.46e-01	0	51	104	0	56	11408
2026-01-04 02:22:29.99	12.80	5.15	-42.0	-52.0	3.9	8.47e-01	0	51	104	0	56	10864
2026-01-04 02:22:31.01	12.77	5.23	-42.0	-52.0	3.8	8.45e-01	0	51	104	0	56	10823
2026-01-04 02:22:32.02	12.74	5.30	-42.0	-51.7	3.9	8.45e-01	0	51	104	0	56	10514
2026-01-04 02:22:33.03	12.71	5.37	-42.0	-51.8	3.9	8.45e-01	0	51	104	0	56	10549
2026-01-04 02:22:34.04	12.67	5.44	-42.0	-51.6	3.8	8.45e-01	0	51	104	0	56	10325
2026-01-04 02:22:35.05	12.64	5.51	-41.8	-51.5	3.8	8.44e-01	0	51	104	0	55	10892
2026-01-04 02:22:36.06	12.61	5.58	-41.9	-51.8	3.8	8.44e-01	0	51	104	0	55	11216
2026-01-04 02:22:37.07	12.58	5.65	-41.9	-51.8	3.8	8.44e-01	0	51	104	0	55	11206
2026-01-04 02:22:38.08	12.55	5.73	-41.9	-51.8	3.8	8.46e-01	0	52	104	0	55	11190
2026-01-04 02:22:39.09	12.52	5.80	-41.9	-51.9	3.8	8.45e-01	0	51	104	0	55	11364
2026-01-04 02:22:40.11	12.49	5.87	-41.9	-52.0	3.8	8.46e-01	0	51	104	0	55	11532
2026-01-04 02:22:41.12	12.45	5.95	-41.9	-52.3	3.8	8.46e-01	0	52	104	0	55	11931
2026-01-04 02:22:42.13	12.42	6.02	-41.9	-52.6	3.8	8.45e-01	0	51	104	0	55	12282
2026-01-04 02:22:43.14	12.39	6.09	-42.0	-53.0	3.8	8.46e-01	0	52	104	0	55	12875
2026-01-04 02:22:44.15	12.36	6.17	-42.0	-53.3	3.8	8.46e-01	0	52	104	0	55	13283
2026-01-04 02:22:45.16	12.33	6.24	-42.0	-53.4	3.8	8.46e-01	0	52	104	0	55	13569
2026-01-04 02:22:46.17	12.29	6.31	-42.1	-53.4	3.8	8.46e-01	0	51	104	0	55	13513
2026-01-04 02:22:47.19	12.26	6.39	-42.0	-53.2	3.8	8.46e-01	0	52	104	0	55	13231
2026-01-04 02:22:48.20	12.23	6.46	-41.9	-52.4	3.8	8.45e-01	0	52	104	0	55	11967
2026-01-04 02:22:49.21	12.19	6.54	-41.8	-51.1	4.0	8.46e-01	0	52	104	0	55	10323
2026-01-04 02:22:50.22	12.16	6.61	-41.6	-49.6	4.3	8.37e-01	0	52	0	0	55	8754
2026-01-04 02:22:51.23	12.13	6.69	-41.2	-48.0	5.1	7.96e-01	0	52	0	0	54	7655
2026-01-04 02:22:52.24	12.09	6.76	-40.7	-46.3	6.2	4.31e-01	0	52	0	1048576	53	6715
2026-01-04 02:22:53.25	12.06	6.84	-40.2	-44.9	7.4	1.92e-01	0	52	0	7340032	52	6061
2026-01-04 02:22:54.26	12.02	6.91	-39.8	-43.9	8.6	5.54e-02	0	52	0	12582912	51	5668
2026-01-04 02:22:55.27	11.99	6.99	-39.3	-42.8	9.6	2.30e-02	0	52	0	18874368	50	5326
2026-01-04 02:22:56.28	11.95	7.06	-38.8	-42.0	10.5	6.78e-03	0	52	0	24117248	49	5103
2026-01-04 02:22:57.29	11.92	7.14	-38.4	-41.2	11.3	2.40e-03	0	52	0	30408704	48	4974
2026-01-04 02:22:58.30	11.88	7.22	-38.1	-40.7	11.8	7.63e-04	0	52	0	35651584	48	4704
2026-01-04 02:22:59.31	11.85	7.29	-37.6	-40.2	12.4	2.86e-04	0	52	0	40894464	47	4658
2026-01-04 02:23:00.32	11.81	7.37	-37.3	-39.7	12.8	1.50e-04	0	52	0	47185920	46	4686
2026-01-04 02:23:01.34	11.78	7.45	-37.3	-39.6	12.9	5.72e-05	0	53	0	52428800	46	4636
2026-01-04 02:23:02.35	11.74	7.52	-37.2	-39.6	13.0	8.01e-05	0	53	0	58720256	46	4606
2026-01-04 02:23:03.36	11.70	7.60	-37.2	-39.6	13.0	6.06e-05	0	53	0	63963136	46	4610
2026-01-04 02:23:04.37	11.67	7.68	-37.4	-39.7	12.8	7.66e-05	0	52	0	69206016	46	4700
2026-01-04 02:23:05.38	11.63	7.76	-37.5	-40.0	12.5	1.73e-04	0	52	0	75497472	46	4843
2026-01-04 02:23:06.39	11.59	7.83	-37.7	-40.3	12.2	3.42e-04	0	53	0	80740352	46	5021
2026-01-04 02:23:07.40	11.56	7.91	-38.1	-40.9	11.6	9.37e-04	0	52	0	87031808	46	5388
2026-01-04 02:23:08.41	11.52	7.99	-38.4	-41.4	11.0	1.86e-03	0	53	0	92274688	47	5367
2026-01-04 02:23:09.42	11.48	8.07	-38.8	-42.2	9.9	6.09e-03	0	53	0	97517568	48	5582
2026-01-04 02:23:10.43	11.44	8.15	-38.8	-42.5	9.0	2.17e-01	0	53	0	103809024	49	5444
2026-01-04 02:23:11.44	11.41	8.23	-39.2	-42.4	10.4	8.20e-03	0	53	0	109051904	50	5080
2026-01-04 02:23:12.45	11.37	8.31	-39.2	-43.9	7.2	8.04e-01	0	53	0	112197632	50	6060
2026-01-04 02:23:13.46	11.33	8.39	-39.0	-42.5	9.7	4.08e-02	0	53	0	118489088	49	5429
2026-01-04 02:23:14.47	11.29	8.47	-41.4	-48.1	5.0	8.45e-01	0	53	104	119537664	54	7762
2026-01-04 02:23:15.48	11.25	8.55	-39.5	-43.6	8.6	5.13e-02	0	53	0	123731968	51	5487
2026-01-04 02:23:16.49	11.21	8.63	-39.6	-43.7	8.5	4.74e-02	0	53	0	130023424	51	5535
2026-01-04 02:23:17.50	11.17	8.71	-39.6	-43.7	8.4	5.90e-02	0	53	0	135266304	51	5582
2026-01-04 02:23:18.51	11.13	8.79	-39.6	-44.0	8.1	7.27e-02	0	53	0	141557760	51	5736
2026-01-04 02:23:19.52	11.09	8.87	-39.7	-44.1	7.8	7.99e-02	0	53	0	146800640	51	5812
2026-01-04 02:23:20.53	11.05	8.95	-39.8	-44.3	7.6	1.12e-01	0	53	0	152043520	51	5970
2026-01-04 02:23:21.55	11.01	9.03	-39.8	-44.5	7.4	1.37e-01	0	53	0	158334976	51	6107
2026-01-04 02:23:22.56	10.97	9.12	-39.9	-44.7	7.2	1.37e-01	0	53	0	163577856	51	6218
2026-01-04 02:23:23.57	10.93	9.20	-39.9	-44.7	7.2	1.62e-01	0	53	0	169869312	51	6219
2026-01-04 02:23:24.58	10.89	9.28	-40.0	-44.9	7.0	1.66e-01	0	53	0	175112192	51	6404
2026-01-04 02:23:25.59	10.85	9.36	-40.1	-45.3	6.6	2.01e-01	0	54	0	181403648	51	6696
2026-01-04 02:23:26.60	10.81	9.45	-40.2	-45.7	6.3	2.74e-01	0	53	0	186646528	51	6976
2026-01-04 02:23:27.61	10.76	9.53	-40.2	-45.9	6.1	3.26e-01	0	54	0	191889408	51	7167
2026-01-04 02:23:28.61	10.72	9.61	-40.3	-46.2	5.9	4.03e-01	0	53	0	198180864	51	7455
2026-01-04 02:23:29.63	10.68	9.70	-40.4	-46.7	5.5	6.42e-01	0	54	0	202375168	51	7845
2026-01-04 02:23:30.64	10.64	9.78	-40.5	-47.0	5.3	7.20e-01	0	53	0	203423744	51	8107
2026-01-04 02:23:31.65	10.59	9.87	-40.6	-47.4	5.0	7.56e-01	0	54	0	204472320	51	8467
2026-01-04 02:23:32.66	10.55	9.95	-40.6	-47.6	4.9	7.81e-01	0	54	0	204472320	51	8701
2026-01-04 02:23:33.67	10.51	10.04	-40.6	-47.7	4.8	7.92e-01	0	54	0	205520896	51	8856
2026-01-04 02:23:34.68	10.46	10.12	-40.5	-47.6	4.8	7.99e-01	0	54	0	205520896	51	8722
2026-01-04 02:23:35.69	10.42	10.21	-40.4	-47.2	5.0	7.77e-01	0	54	0	205520896	51	8338
2026-01-04 02:23:36.70	10.37	10.29	-40.3	-46.8	5.2	7.54e-01	0	54	0	206569472	51	7978
2026-01-04 02:23:37.71	10.33	10.38	-40.3	-46.7	5.3	7.33e-01	0	54	0	207618048	51	7893
2026-01-04 02:23:38.72	10.28	10.46	-40.2	-46.8	5.2	7.47e-01	0	54	0	208666624	51	7918
2026-01-04 02:23:39.73	10.24	10.55	-40.2	-46.7	5.2	7.40e-01	0	53	0	209715200	51	7870
2026-01-04 02:23:40.74	10.19	10.64	-40.3	-47.1	5.0	7.60e-01	0	54	0	210763776	51	8240
2026-01-04 02:23:41.75	10.15	10.72	-40.3	-47.5	4.8	7.88e-01	0	54	0	210763776	51	8614
2026-01-04 02:23:42.76	10.10	10.81	-40.4	-47.9	4.6	8.08e-01	0	54	0	210763776	51	9049
2026-01-04 02:23:43.77	10.05	10.90	-40.5	-48.2	4.5	8.21e-01	0	54	0	210763776	51	9302
2026-01-04 02:23:44.78	10.01	10.99	-40.6	-48.3	4.5	8.23e-01	0	54	0	210763776	51	9449
2026-01-04 02:23:45.79	9.96	11.08	-40.4	-47.3	4.9	7.92e-01	0	54	0	210763776	51	8433
2026-01-04 02:23:46.80	9.91	11.16	-40.2	-45.9	6.0	6.38e-01	0	54	0	213909504	51	7197
2026-01-04 02:23:47.81	9.87	11.25	-39.8	-44.6	7.3	1.63e-01	0	54	0	219152384	51	6161
2026-01-04 02:23:48.82	9.82	11.34	-39.3	-43.2	9.0	4.98e-02	0	54	0	225443840	50	5549
2026-01-04 02:23:49.83	9.77	11.43	-38.8	-42.0	10.5	1.10e-02	0	54	0	230686720	49	5126
2026-01-04 02:23:50.84	9.72	11.52	-38.3	-41.0	11.9	1.07e-03	0	54	0	236978176	48	4828
2026-01-04 02:23:51.85	9.67	11.61	-37.8	-40.2	12.8	1.53e-04	0	54	0	242221056	47	4700
2026-01-04 02:23:52.86	9.62	11.70	-37.8	-40.0	13.2	5.03e-05	0	54	0	247463936	47	4595
2026-01-04 02:23:53.87	9.57	11.79	-37.3	-39.4	14.0	1.25e-05	0	54	0	253755392	46	4512
2026-01-04 02:23:54.88	9.52	11.88	-36.7	-38.7	14.7	2.20e-06	0	54	0	258998272	45	4402
2026-01-04 02:23:55.89	9.47	11.97	-36.4	-38.2	15.2	0.00e+00	0	54	0	265289728	44	4435
2026-01-04 02:23:56.90	9.42	12.07	-36.1	-37.9	15.5	0.00e+00	0	54	0	270532608	44	4266
2026-01-04 02:23:57.91	9.37	12.16	-36.1	-37.9	15.5	0.00e+00	0	54	0	276824064	44	4266
2026-01-04 02:23:58.92	9.32	12.25	-36.2	-38.0	15.5	0.00e+00	0	54	0	282066944	44	4304
2026-01-04 02:23:59.93	9.27	12.34	-36.2	-37.9	15.6	0.00e+00	0	54	0	287309824	44	4289
2026-01-04 02:24:00.94	9.22	12.44	-36.2	-38.0	15.7	0.00e+00	0	54	0	293601280	44	4297
2026-01-04 02:24:01.95	9.16	12.53	-36.3	-38.0	15.6	0.00e+00	0	54	0	298844160	44	4334
2026-01-04 02:24:02.96	9.11	12.62	-36.3	-38.1	15.6	0.00e+00	0	54	0	305135616	44	4349
2026-01-04 02:24:03.97	9.06	12.72	-36.5	-38.2	15.5	0.00e+00	0	54	0	310378496	44	4436
2026-01-04 02:24:04.98	9.00	12.81	-36.6	-38.4	15.4	0.00e+00	0	54	0	315621376	44	4507
2026-01-04 02:24:05.99	8.95	12.91	-36.8	-38.6	15.3	0.00e+00	0	54	0	321912832	44	4605
2026-01-04 02:24:07.00	8.90	13.00	-36.6	-38.3	15.6	0.00e+00	0	54	0	327155712	44	4462
2026-01-04 02:24:08.01	8.84	13.10	-36.3	-38.0	15.9	0.00e+00	0	55	0	333447168	44	4297
2026-01-04 02:24:09.02	8.79	13.19	-36.2	-37.8	16.1	0.00e+00	0	55	0	338690048	44	4220
2026-01-04 02:24:10.03	8.73	13.29	-36.1	-37.8	16.1	0.00e+00	0	55	0	343932928	44	4205
2026-01-04 02:24:11.04	8.68	13.38	-36.2	-37.9	16.1	0.00e+00	0	55	0	350224384	44	4248
2026-01-04 02:24:12.05	8.62	13.48	-36.3	-38.0	16.0	0.00e+00	0	55	0	355467264	44	4316
2026-01-04 02:24:13.06	8.56	13.58	-36.5	-38.2	15.8	0.00e+00	0	54	0	361758720	44	4397
2026-01-04 02:24:14.06	8.51	13.67	-36.4	-38.1	15.9	0.00e+00	0	55	0	367001600	44	4372
2026-01-04 02:24:15.07	8.45	13.77	-36.4	-38.1	15.9	0.00e+00	0	55	0	373293056	44	4363
2026-01-04 02:24:16.09	8.39	13.87	-36.5	-38.2	15.9	0.00e+00	0	54	0	378535936	44	4404
2026-01-04 02:24:17.10	8.33	13.97	-36.5	-38.1	16.0	0.00e+00	0	55	0	384827392	44	4366
2026-01-04 02:24:18.11	8.27	14.07	-36.4	-38.1	16.1	0.00e+00	0	55	0	390070272	44	4346
2026-01-04 02:24:19.12	8.21	14.17	-36.3	-37.9	16.4	0.00e+00	0	54	0	395313152	44	4261
2026-01-04 02:24:20.13	8.16	14.27	-36.2	-37.7	16.7	0.00e+00	0	55	0	401604608	44	4171
2026-01-04 02:24:21.14	8.10	14.37	-36.2	-37.7	16.8	0.00e+00	0	55	0	406847488	44	4154
2026-01-04 02:24:22.15	8.04	14.47	-36.3	-37.8	16.7	0.00e+00	0	55	0	413138944	44	4216
2026-01-04 02:24:23.16	7.97	14.57	-36.3	-37.8	16.7	0.00e+00	0	55	0	418381824	44	4236
2026-01-04 02:24:24.16	7.91	14.67	-36.3	-37.8	16.7	0.00e+00	0	55	0	423624704	44	4211
2026-01-04 02:24:25.17	7.85	14.77	-36.2	-37.7	16.8	0.00e+00	0	55	0	429916160	44	4157
2026-01-04 02:24:26.18	7.79	14.87	-36.2	-37.7	16.9	0.00e+00	0	55	0	435159040	44	4148
2026-01-04 02:24:27.19	7.73	14.98	-36.2	-37.7	16.8	0.00e+00	0	55	0	441450496	44	4177
2026-01-04 02:24:28.20	7.66	15.08	-36.2	-37.7	16.8	0.00e+00	0	55	0	446693376	44	4183
2026-01-04 02:24:29.21	7.60	15.18	-36.1	-37.6	17.0	0.00e+00	0	55	0	451936256	44	4116
2026-01-04 02:24:30.22	7.54	15.28	-36.1	-37.6	17.0	0.00e+00	0	55	0	458227712	44	4117
2026-01-04 02:24:31.23	7.47	15.39	-36.1	-37.6	17.1	0.00e+00	0	55	0	463470592	44	4100
2026-01-04 02:24:32.23	7.41	15.49	-36.1	-37.6	17.1	0.00e+00	0	55	0	469762048	44	4101
2026-01-04 02:24:33.24	7.34	15.60	-35.8	-37.2	17.3	0.00e+00	0	55	0	475004928	43	4172
2026-01-04 02:24:34.25	7.28	15.70	-35.7	-37.1	17.4	0.00e+00	0	55	0	481296384	43	4136
2026-01-04 02:24:35.27	7.21	15.81	-35.7	-37.1	17.4	0.00e+00	0	55	0	486539264	43	4140
2026-01-04 02:24:36.28	7.14	15.91	-35.7	-37.1	17.4	0.00e+00	0	55	0	491782144	43	4135
2026-01-04 02:24:37.29	7.08	16.02	-35.7	-37.1	17.4	0.00e+00	0	55	0	498073600	43	4104
2026-01-04 02:24:38.30	7.01	16.13	-35.7	-37.1	17.4	0.00e+00	0	55	0	503316480	43	4136
2026-01-04 02:24:39.31	6.94	16.24	-35.5	-36.9	17.6	0.00e+00	0	55	0	509607936	43	4044
2026-01-04 02:24:40.32	6.87	16.34	-35.5	-36.9	17.7	0.00e+00	0	55	0	514850816	43	4010
2026-01-04 02:24:41.33	6.80	16.45	-35.4	-36.8	17.8	0.00e+00	0	55	0	520093696	42	4207
2026-01-04 02:24:42.34	6.73	16.56	-35.4	-36.8	17.8	0.00e+00	0	55	0	526385152	42	4214
2026-01-04 02:24:43.35	6.66	16.67	-35.4	-36.8	17.8	0.00e+00	0	55	0	531628032	42	4205
2026-01-04 02:24:44.36	6.59	16.78	-35.2	-36.5	18.1	0.00e+00	0	55	0	537919488	42	4082
2026-01-04 02:24:45.37	6.52	16.89	-35.2	-36.5	18.2	0.00e+00	0	55	0	543162368	42	4066
2026-01-04 02:24:46.38	6.45	17.00	-35.2	-36.5	18.2	0.00e+00	0	55	0	549453824	42	4070
2026-01-04 02:24:47.39	6.38	17.11	-35.1	-36.4	18.2	0.00e+00	0	55	0	554696704	42	4049
2026-01-04 02:24:48.40	6.30	17.22	-34.9	-36.2	18.4	0.00e+00	0	55	0	559939584	41	4166
2026-01-04 02:24:49.41	6.23	17.33	-34.9	-36.1	18.5	0.00e+00	0	55	0	566231040	41	4137
2026-01-04 02:24:50.42	6.15	17.45	-34.8	-36.1	18.6	0.00e+00	0	55	0	571473920	41	4102
2026-01-04 02:24:51.43	6.08	17.56	-34.9	-36.2	18.5	0.00e+00	0	55	0	577765376	41	4158
2026-01-04 02:24:52.44	6.00	17.67	-34.9	-36.1	18.5	0.00e+00	0	55	0	583008256	41	4144
2026-01-04 02:24:53.45	5.93	17.78	-34.8	-36.1	18.5	0.00e+00	0	55	0	589299712	41	4124
2026-01-04 02:24:54.46	5.85	17.90	-34.8	-36.1	18.6	0.00e+00	0	55	0	594542592	41	4118
2026-01-04 02:24:55.47	5.77	18.01	-34.9	-36.2	18.4	0.00e+00	0	55	0	599785472	41	4189
2026-01-04 02:24:56.48	5.70	18.13	-35.0	-36.3	18.4	0.00e+00	0	55	0	606076928	41	4211
2026-01-04 02:24:57.49	5.62	18.24	-35.0	-36.3	18.4	0.00e+00	0	55	0	611319808	41	4237
2026-01-04 02:24:58.50	5.54	18.36	-35.0	-36.2	18.5	0.00e+00	0	55	0	617611264	41	4191
2026-01-04 02:24:59.51	5.46	18.48	-35.0	-36.3	18.4	0.00e+00	0	55	0	622854144	41	4223
2026-01-04 02:25:00.52	5.38	18.59	-35.0	-36.3	18.4	0.00e+00	0	55	0	628097024	41	4225
2026-01-04 02:25:01.53	5.30	18.71	-34.9	-36.2	18.5	0.00e+00	0	55	0	634388480	41	4174
2026-01-04 02:25:02.54	5.21	18.83	-34.9	-36.2	18.5	0.00e+00	0	55	0	639631360	41	4173
2026-01-04 02:25:03.55	5.13	18.95	-34.9	-36.2	18.6	0.00e+00	0	55	0	645922816	41	4176
2026-01-04 02:25:04.56	5.05	19.07	-34.9	-36.2	18.6	0.00e+00	0	55	0	651165696	41	4151
2026-01-04 02:25:05.57	4.97	19.19	-34.9	-36.2	18.6	0.00e+00	0	55	0	657457152	41	4146
2026-01-04 02:25:06.58	4.88	19.31	-34.9	-36.2	18.6	0.00e+00	0	55	0	662700032	41	4169
2026-01-04 02:25:07.59	4.80	19.43	-35.0	-36.3	18.4	0.00e+00	0	55	0	667942912	41	4235
2026-01-04 02:25:08.60	4.71	19.55	-35.1	-36.4	18.4	0.00e+00	0	55	0	674234368	41	4261
2026-01-04 02:25:09.61	4.62	19.67	-35.0	-36.3	18.4	0.00e+00	0	56	0	679477248	41	4237
2026-01-04 02:25:10.62	4.54	19.79	-34.8	-36.1	18.7	0.00e+00	0	55	0	685768704	41	4116
2026-01-04 02:25:11.63	4.45	19.91	-34.8	-36.0	18.7	0.00e+00	0	56	0	691011584	41	4089
2026-01-04 02:25:12.64	4.36	20.04	-34.7	-35.9	18.8	0.00e+00	0	56	0	697303040	41	4038
2026-01-04 02:25:13.65	4.27	20.16	-34.7	-35.9	18.9	0.00e+00	0	55	0	702545920	41	4037
2026-01-04 02:25:14.66	4.18	20.29	-34.7	-35.9	18.9	0.00e+00	0	55	0	707788800	41	4038
2026-01-04 02:25:15.67	4.09	20.41	-34.7	-36.0	18.8	0.00e+00	0	55	0	714080256	41	4061
2026-01-04 02:25:16.68	4.00	20.54	-34.7	-36.0	18.8	0.00e+00	0	55	0	719323136	41	4062
2026-01-04 02:25:17.69	3.90	20.66	-34.8	-36.1	18.7	0.00e+00	0	55	0	725614592	41	4134
2026-01-04 02:25:18.70	3.81	20.79	-34.9	-36.2	18.6	0.00e+00	0	55	0	730857472	41	4157
2026-01-04 02:25:19.71	3.72	20.91	-35.0	-36.2	18.6	0.00e+00	0	56	0	736100352	41	4189
2026-01-04 02:25:20.72	3.62	21.04	-34.9	-36.2	18.6	0.00e+00	0	56	0	742391808	41	4159
2026-01-04 02:25:21.73	3.53	21.17	-34.9	-36.2	18.7	0.00e+00	0	55	0	747634688	41	4149
2026-01-04 02:25:22.74	3.43	21.30	-34.6	-35.9	18.9	0.00e+00	0	56	0	753926144	41	4005
2026-01-04 02:25:23.75	3.33	21.43	-34.5	-35.7	19.1	0.00e+00	0	56	0	759169024	40	4167
2026-01-04 02:25:24.76	3.23	21.56	-34.3	-35.6	19.3	0.00e+00	0	56	0	764411904	40	4101
2026-01-04 02:25:25.77	3.13	21.69	-34.3	-35.5	19.3	0.00e+00	0	56	0	770703360	40	4078
2026-01-04 02:25:26.78	3.03	21.82	-34.3	-35.5	19.4	0.00e+00	0	56	0	775946240	40	4059
2026-01-04 02:25:27.79	2.93	21.95	-34.3	-35.5	19.3	0.00e+00	0	56	0	782237696	40	4090
2026-01-04 02:25:28.80	2.83	22.08	-34.3	-35.5	19.3	0.00e+00	0	56	0	787480576	40	4091
2026-01-04 02:25:29.81	2.73	22.22	-34.1	-35.3	19.5	0.00e+00	0	56	0	793772032	40	3999
2026-01-04 02:25:30.82	2.62	22.35	-34.1	-35.3	19.5	0.00e+00	0	56	0	799014912	40	3987
2026-01-04 02:25:31.83	2.52	22.48	-34.1	-35.3	19.5	0.00e+00	0	56	0	804257792	40	3975
2026-01-04 02:25:32.84	2.41	22.62	-34.1	-35.3	19.6	0.00e+00	0	56	0	810549248	40	3968
2026-01-04 02:25:33.85	2.31	22.75	-34.1	-35.3	19.6	0.00e+00	0	56	0	815792128	40	3961
2026-01-04 02:25:34.85	2.20	22.89	-34.0	-35.2	19.6	0.00e+00	0	56	0	822083584	40	3943
2026-01-04 02:25:35.86	2.09	23.02	-34.0	-35.2	19.7	0.00e+00	0	56	0	827326464	40	3933
2026-01-04 02:25:36.87	1.98	23.16	-34.1	-35.2	19.6	0.00e+00	0	56	0	832569344	40	3949
2026-01-04 02:25:37.88	1.87	23.30	-34.0	-35.2	19.7	0.00e+00	0	56	0	838860800	40	3926
2026-01-04 02:25:38.89	1.76	23.44	-34.0	-35.2	19.7	0.00e+00	0	56	0	844103680	40	3928
2026-01-04 02:25:39.91	1.65	23.58	-34.0	-35.2	19.7	0.00e+00	0	56	0	850395136	40	3925
2026-01-04 02:25:40.92	1.53	23.72	-34.0	-35.2	19.7	0.00e+00	0	56	0	855638016	39	4176
2026-01-04 02:25:41.93	1.42	23.86	-34.0	-35.2	19.7	0.00e+00	0	56	0	860880896	39	4164
2026-01-04 02:25:42.94	1.30	24.00	-34.0	-35.2	19.8	0.00e+00	0	56	0	867172352	39	4149
2026-01-04 02:25:43.95	1.19	24.14	-33.9	-35.1	19.8	0.00e+00	0	56	0	872415232	39	4126
2026-01-04 02:25:44.96	1.07	24.28	-33.9	-35.1	19.9	0.00e+00	0	56	0	878706688	39	4104
2026-01-04 02:25:45.97	0.95	24.42	-33.9	-35.0	19.9	0.00e+00	0	56	0	883949568	39	4091
2026-01-04 02:25:46.98	0.83	24.57	-33.8	-35.0	20.0	0.00e+00	0	56	0	890241024	39	4065
2026-01-04 02:25:47.99	0.71	24.71	-33.9	-35.0	19.9	0.00e+00	0	56	0	895483904	39	4084
2026-01-04 02:25:49.00	0.59	24.86	-33.9	-35.0	19.9	0.00e+00	0	56	0	901775360	39	4084
2026-01-04 02:25:50.00	0.46	25.00	-33.9	-35.1	19.9	0.00e+00	0	56	0	907018240	39	4104
2026-01-04 02:25:51.01	0.34	25.15	-33.9	-35.1	19.9	0.00e+00	0	56	0	912261120	39	4124
2026-01-04 02:25:52.02	0.21	25.29	-34.0	-35.1	19.8	0.00e+00	0	56	0	918552576	39	4128
2026-01-04 02:25:53.03	0.09	25.44	-34.0	-35.1	19.9	0.00e+00	0	56	0	923795456	39	4131
2026-01-04 02:25:54.04	359.96	25.59	-33.9	-35.1	19.9	0.00e+00	0	56	0	930086912	39	4126
2026-01-04 02:25:55.05	359.83	25.74	-33.9	-35.1	19.9	0.00e+00	0	56	0	935329792	39	4119
2026-01-04 02:25:56.06	359.70	25.89	-33.9	-35.1	19.9	0.00e+00	0	56	0	940572672	39	4104
2026-01-04 02:25:57.07	359.57	26.04	-33.8	-35.0	20.0	0.00e+00	0	56	0	946864128	39	4061
2026-01-04 02:25:58.08	359.43	26.19	-33.8	-35.0	20.0	0.00e+00	0	56	0	952107008	39	4064
2026-01-04 02:25:59.09	359.30	26.34	-33.8	-34.9	20.1	0.00e+00	0	56	0	958398464	39	4038
2026-01-04 02:26:00.10	359.16	26.49	-33.7	-34.9	20.1	0.00e+00	0	56	0	963641344	39	4009
2026-01-04 02:26:01.11	359.03	26.64	-33.8	-34.9	20.1	0.00e+00	0	56	0	968884224	39	4042
2026-01-04 02:26:02.12	358.89	26.80	-33.8	-34.9	20.1	0.00e+00	0	56	0	975175680	39	4048
2026-01-04 02:26:03.13	358.75	26.95	-33.8	-34.9	20.1	0.00e+00	0	56	0	980418560	39	4040
2026-01-04 02:26:04.13	358.61	27.10	-33.8	-35.0	20.1	0.00e+00	0	56	0	986710016	39	4057
2026-01-04 02:26:05.14	358.46	27.26	-33.8	-34.9	20.1	0.00e+00	0	56	0	991952896	39	4041
2026-01-04 02:26:06.15	358.32	27.41	-33.8	-34.9	20.1	0.00e+00	0	56	0	998244352	39	4033
2026-01-04 02:26:07.17	358.17	27.57	-33.7	-34.8	20.2	0.00e+00	0	56	0	1003487232	39	3989
2026-01-04 02:26:08.17	358.03	27.73	-33.7	-34.8	20.2	0.00e+00	0	56	0	1008730112	39	3977
2026-01-04 02:26:09.19	357.88	27.89	-33.7	-34.8	20.2	0.00e+00	0	56	0	1015021568	39	3988
2026-01-04 02:26:10.20	357.73	28.05	-33.7	-34.8	20.2	0.00e+00	0	56	0	1020264448	39	3978
2026-01-04 02:26:11.21	357.57	28.21	-33.7	-34.8	20.2	0.00e+00	0	56	0	1026555904	39	3992
2026-01-04 02:26:12.22	357.42	28.37	-33.7	-34.8	20.2	0.00e+00	0	56	0	1031798784	39	3999
2026-01-04 02:26:13.23	357.27	28.53	-33.7	-34.9	20.1	0.00e+00	0	56	0	1037041664	39	4017
2026-01-04 02:26:14.24	357.11	28.69	-33.8	-34.9	20.2	0.00e+00	0	56	0	1043333120	39	4019
2026-01-04 02:26:15.25	356.95	28.85	-33.8	-34.9	20.1	0.00e+00	0	56	0	1048576000	39	4040
2026-01-04 02:26:16.26	356.79	29.01	-33.8	-34.9	20.1	0.00e+00	0	56	0	1054867456	39	4041
2026-01-04 02:26:17.27	356.63	29.18	-33.8	-34.9	20.1	0.00e+00	0	56	0	1060110336	39	4048
2026-01-04 02:26:18.28	356.47	29.34	-33.7	-34.9	20.2	0.00e+00	0	56	0	1066401792	39	4017
2026-01-04 02:26:19.29	356.30	29.51	-33.7	-34.8	20.3	0.00e+00	0	56	0	1071644672	39	3976
2026-01-04 02:26:20.30	356.14	29.67	-33.5	-34.7	20.4	0.00e+00	0	56	0	1076887552	39	3914
2026-01-04 02:26:21.31	355.97	29.84	-33.4	-34.5	20.5	0.00e+00	0	56	0	1083179008	38	4097
2026-01-04 02:26:22.32	355.80	30.01	-33.4	-34.5	20.6	0.00e+00	0	56	0	1088421888	38	4055
2026-01-04 02:26:23.33	355.63	30.17	-33.3	-34.4	20.7	0.00e+00	0	56	0	1094713344	38	4032
2026-01-04 02:26:24.34	355.45	30.34	-33.3	-34.4	20.6	0.00e+00	0	56	0	1099956224	38	4024
2026-01-04 02:26:25.35	355.28	30.51	-33.3	-34.4	20.7	0.00e+00	0	56	0	1106247680	38	4032
2026-01-04 02:26:26.36	355.10	30.68	-33.3	-34.4	20.6	0.00e+00	0	56	0	1111490560	38	4030
2026-01-04 02:26:27.36	354.92	30.85	-33.3	-34.4	20.7	0.00e+00	0	56	0	1116733440	38	4027
2026-01-04 02:26:28.37	354.74	31.02	-33.3	-34.4	20.7	0.00e+00	0	56	0	1123024896	38	4030
2026-01-04 02:26:29.38	354.56	31.19	-33.3	-34.4	20.7	0.00e+00	0	56	0	1128267776	38	4031
2026-01-04 02:26:30.39	354.37	31.37	-33.3	-34.4	20.7	0.00e+00	0	56	0	1134559232	38	4030
2026-01-04 02:26:31.40	354.18	31.54	-33.3	-34.4	20.7	0.00e+00	0	56	0	1139802112	38	4013
2026-01-04 02:26:32.41	353.99	31.71	-33.2	-34.2	20.8	0.00e+00	0	56	0	1145044992	38	3954
2026-01-04 02:26:33.42	353.80	31.89	-33.1	-34.2	20.9	0.00e+00	0	56	0	1151336448	38	3915
2026-01-04 02:26:34.43	353.61	32.06	-32.9	-34.0	21.1	0.00e+00	0	56	0	1156579328	37	4059
2026-01-04 02:26:35.44	353.41	32.24	-32.9	-33.9	21.1	0.00e+00	0	56	0	1162870784	37	4036
2026-01-04 02:26:36.45	353.22	32.42	-32.9	-34.0	21.1	0.00e+00	0	56	0	1168113664	37	4068
2026-01-04 02:26:37.46	353.02	32.59	-33.0	-34.1	21.0	0.00e+00	0	56	0	1173356544	37	4099
2026-01-04 02:26:38.47	352.81	32.77	-33.1	-34.2	20.8	0.00e+00	0	56	0	1179648000	37	4177
2026-01-04 02:26:39.48	352.61	32.95	-33.2	-34.2	20.8	0.00e+00	0	56	0	1184890880	37	4192
2026-01-04 02:26:40.49	352.40	33.13	-33.2	-34.3	20.8	0.00e+00	0	56	0	1191182336	37	4230
2026-01-04 02:26:41.50	352.19	33.31	-33.2	-34.3	20.7	0.00e+00	0	56	0	1196425216	37	4232
2026-01-04 02:26:42.51	351.98	33.49	-33.2	-34.3	20.8	0.00e+00	0	56	0	1202716672	37	4217
2026-01-04 02:26:43.52	351.77	33.67	-33.1	-34.2	20.9	0.00e+00	0	56	0	1207959552	37	4151
2026-01-04 02:26:44.53	351.55	33.85	-32.8	-33.9	21.2	0.00e+00	0	56	0	1213202432	37	4023
2026-01-04 02:26:45.54	351.33	34.04	-32.6	-33.6	21.4	0.00e+00	0	56	0	1219493888	37	3904
2026-01-04 02:26:46.55	351.11	34.22	-32.6	-33.6	21.5	0.00e+00	0	56	0	1224736768	37	3893
2026-01-04 02:26:47.56	350.89	34.40	-32.6	-33.6	21.4	0.00e+00	0	56	0	1231028224	37	3908
2026-01-04 02:26:48.57	350.66	34.59	-32.8	-33.8	21.3	0.00e+00	0	56	0	1236271104	37	3993
2026-01-04 02:26:49.58	350.43	34.77	-32.9	-34.0	21.1	0.00e+00	0	56	0	1241513984	37	4054
2026-01-04 02:26:50.59	350.20	34.96	-32.9	-34.0	21.1	0.00e+00	0	56	0	1247805440	37	4077
2026-01-04 02:26:51.60	349.96	35.14	-32.9	-34.0	21.1	0.00e+00	0	56	0	1253048320	37	4059
2026-01-04 02:26:52.61	349.73	35.33	-32.9	-34.0	21.1	0.00e+00	0	56	0	1259339776	37	4058
2026-01-04 02:26:53.62	349.49	35.51	-32.9	-33.9	21.2	0.00e+00	0	56	0	1264582656	37	4051
2026-01-04 02:26:54.63	349.24	35.70	-32.9	-34.0	21.2	0.00e+00	0	56	0	1269825536	37	4052
2026-01-04 02:26:55.64	349.00	35.89	-32.9	-33.9	21.2	0.00e+00	0	56	0	1276116992	37	4031
2026-01-04 02:26:56.64	348.75	36.08	-32.8	-33.9	21.2	0.00e+00	0	56	0	1281359872	37	4026
2026-01-04 02:26:57.65	348.50	36.27	-32.9	-34.0	21.1	0.00e+00	0	56	0	1287651328	37	4069
2026-01-04 02:26:58.66	348.25	36.45	-33.0	-34.1	21.0	0.00e+00	0	56	0	1292894208	37	4126
2026-01-04 02:26:59.67	347.99	36.64	-33.2	-34.2	20.9	0.00e+00	0	56	0	1299185664	37	4192
2026-01-04 02:27:00.68	347.73	36.83	-33.2	-34.2	20.9	0.00e+00	0	56	0	1304428544	37	4186
2026-01-04 02:27:01.69	347.46	37.03	-33.1	-34.1	21.0	0.00e+00	0	56	0	1310720000	37	4131
2026-01-04 02:27:02.70	347.20	37.22	-33.0	-34.0	21.1	0.00e+00	0	56	0	1315962880	37	4086
2026-01-04 02:27:03.71	346.93	37.41	-32.9	-34.0	21.2	0.00e+00	0	56	0	1321205760	37	4052
2026-01-04 02:27:04.72	346.65	37.60	-32.9	-34.0	21.2	0.00e+00	0	56	0	1327497216	37	4066
2026-01-04 02:27:05.73	346.38	37.79	-33.0	-34.1	21.1	0.00e+00	0	56	0	1332740096	37	4119
2026-01-04 02:27:06.74	346.10	37.98	-33.0	-34.1	21.0	0.00e+00	0	56	0	1339031552	37	4121
2026-01-04 02:27:07.75	345.81	38.18	-32.9	-34.0	21.2	0.00e+00	0	56	0	1344274432	37	4052
2026-01-04 02:27:08.76	345.53	38.37	-32.9	-34.0	21.2	0.00e+00	0	56	0	1349517312	37	4063
2026-01-04 02:27:09.77	345.24	38.56	-33.1	-34.2	21.0	0.00e+00	0	57	0	1355808768	37	4150
2026-01-04 02:27:10.78	344.94	38.76	-33.2	-34.2	20.9	0.00e+00	0	56	0	1361051648	37	4189
2026-01-04 02:27:11.79	344.65	38.95	-33.1	-34.2	20.9	0.00e+00	0	57	0	1367343104	37	4173
2026-01-04 02:27:12.80	344.35	39.15	-33.0	-34.1	21.0	0.00e+00	0	56	0	1372585984	37	4129
2026-01-04 02:27:13.81	344.04	39.34	-33.0	-34.0	21.1	0.00e+00	0	56	0	1377828864	37	4081
2026-01-04 02:27:14.82	343.73	39.53	-32.9	-34.0	21.2	0.00e+00	0	56	0	1384120320	37	4067
2026-01-04 02:27:15.83	343.42	39.73	-33.0	-34.1	21.1	0.00e+00	0	57	0	1389363200	37	4100
2026-01-04 02:27:16.84	343.11	39.92	-32.9	-34.0	21.2	0.00e+00	0	57	0	1395654656	37	4073
2026-01-04 02:27:17.85	342.79	40.12	-33.0	-34.0	21.1	0.00e+00	0	57	0	1400897536	37	4097
2026-01-04 02:27:18.86	342.46	40.31	-33.1	-34.2	21.0	0.00e+00	0	56	0	1407188992	37	4146
2026-01-04 02:27:19.87	342.14	40.51	-33.1	-34.1	21.0	0.00e+00	0	56	0	1412431872	37	4137
2026-01-04 02:27:20.88	341.80	40.70	-33.0	-34.1	21.1	0.00e+00	0	57	0	1417674752	37	4124
2026-01-04 02:27:21.89	341.47	40.90	-33.1	-34.2	21.0	0.00e+00	0	56	0	1423966208	37	4147
2026-01-04 02:27:22.90	341.13	41.09	-33.3	-34.3	20.9	0.00e+00	0	56	0	1429209088	37	4235
2026-01-04 02:27:23.91	340.79	41.29	-33.4	-34.5	20.7	0.00e+00	0	57	0	1435500544	37	4315
2026-01-04 02:27:24.92	340.44	41.48	-33.3	-34.4	20.9	0.00e+00	0	57	0	1440743424	37	4243
2026-01-04 02:27:25.93	340.09	41.68	-33.1	-34.1	21.1	0.00e+00	0	56	0	1445986304	37	4131
2026-01-04 02:27:26.94	339.73	41.87	-32.9	-34.0	21.2	0.00e+00	0	57	0	1452277760	37	4076
2026-01-04 02:27:27.95	339.37	42.06	-32.9	-33.9	21.3	0.00e+00	0	56	0	1457520640	37	4039
2026-01-04 02:27:28.96	339.00	42.26	-32.9	-34.0	21.2	0.00e+00	0	57	0	1463812096	37	4068
2026-01-04 02:27:29.97	338.63	42.45	-33.0	-34.1	21.1	0.00e+00	0	56	0	1469054976	37	4101
2026-01-04 02:27:30.98	338.26	42.64	-33.1	-34.2	21.0	0.00e+00	0	56	0	1474297856	37	4172
2026-01-04 02:27:31.99	337.88	42.84	-33.2	-34.3	21.0	0.00e+00	0	57	0	1480589312	37	4196
2026-01-04 02:27:33.00	337.50	43.03	-33.1	-34.1	21.1	0.00e+00	0	56	0	1485832192	37	4142
2026-01-04 02:27:34.01	337.11	43.22	-32.9	-33.9	21.2	0.00e+00	0	56	0	1492123648	37	4044
2026-01-04 02:27:35.02	336.72	43.41	-32.7	-33.7	21.4	0.00e+00	0	56	0	1497366528	37	3947
2026-01-04 02:27:36.03	336.32	43.60	-32.8	-33.8	21.4	0.00e+00	0	57	0	1503657984	37	3991
2026-01-04 02:27:37.04	335.92	43.79	-32.9	-34.0	21.2	0.00e+00	0	57	0	1508900864	37	4055
2026-01-04 02:27:38.05	335.51	43.98	-33.0	-34.0	21.2	0.00e+00	0	57	0	1515192320	37	4091
2026-01-04 02:27:39.06	335.10	44.17	-32.9	-33.9	21.3	0.00e+00	0	57	0	1520435200	37	4050
2026-01-04 02:27:40.07	334.68	44.36	-32.9	-34.0	21.2	0.00e+00	0	57	0	1525678080	37	4078
2026-01-04 02:27:41.08	334.26	44.54	-33.1	-34.2	21.0	0.00e+00	0	57	0	1531969536	37	4175
2026-01-04 02:27:42.09	333.83	44.73	-33.3	-34.4	20.8	0.00e+00	0	57	0	1537212416	37	4283
2026-01-04 02:27:43.10	333.40	44.91	-33.2	-34.3	20.9	0.00e+00	0	57	0	1543503872	37	4236
2026-01-04 02:27:44.11	332.96	45.10	-33.1	-34.2	21.1	0.00e+00	0	56	0	1548746752	37	4148
2026-01-04 02:27:45.12	332.52	45.28	-32.9	-34.0	21.2	0.00e+00	0	57	0	1553989632	37	4065
2026-01-04 02:27:46.13	332.07	45.46	-32.9	-33.9	21.2	0.00e+00	0	57	0	1560281088	37	4048
2026-01-04 02:27:47.14	331.62	45.64	-33.1	-34.2	21.0	0.00e+00	0	57	0	1565523968	37	4175
2026-01-04 02:27:48.15	331.16	45.82	-33.4	-34.5	20.7	0.00e+00	0	57	0	1571815424	37	4320
2026-01-04 02:27:49.16	330.70	46.00	-33.5	-34.6	20.6	0.00e+00	0	57	0	1577058304	37	4375
2026-01-04 02:27:50.17	330.23	46.18	-33.3	-34.4	20.8	0.00e+00	0	56	0	1582301184	37	4270
2026-01-04 02:27:51.19	329.75	46.36	-33.2	-34.3	20.9	0.00e+00	0	57	0	1588592640	37	4228
2026-01-04 02:27:52.20	329.28	46.53	-33.3	-34.4	20.9	0.00e+00	0	57	0	1593835520	37	4245
2026-01-04 02:27:53.21	328.79	46.70	-33.3	-34.4	20.8	0.00e+00	0	57	0	1600126976	37	4285
2026-01-04 02:27:54.22	328.30	46.87	-33.2	-34.3	20.9	0.00e+00	0	57	0	1605369856	37	4232
2026-01-04 02:27:55.23	327.81	47.04	-33.1	-34.1	21.1	0.00e+00	0	56	0	1611661312	37	4139
2026-01-04 02:27:56.24	327.31	47.21	-33.1	-34.1	21.1	0.00e+00	0	57	0	1616904192	37	4126
2026-01-04 02:27:57.25	326.80	47.38	-33.3	-34.4	20.8	0.00e+00	0	57	0	1623195648	37	4264
2026-01-04 02:27:58.26	326.29	47.54	-33.6	-34.7	20.5	0.00e+00	0	57	0	1628438528	37	4420
2026-01-04 02:27:59.27	325.77	47.70	-33.8	-34.9	20.4	0.00e+00	0	57	0	1633681408	38	4273
2026-01-04 02:28:00.28	325.25	47.86	-33.7	-34.9	20.4	0.00e+00	0	57	0	1639972864	38	4252
2026-01-04 02:28:01.28	324.73	48.02	-33.7	-34.8	20.5	0.00e+00	0	57	0	1645215744	38	4219
2026-01-04 02:28:02.30	324.19	48.18	-33.7	-34.8	20.4	0.00e+00	0	57	0	1651507200	38	4240
2026-01-04 02:28:03.31	323.65	48.33	-33.8	-35.0	20.3	0.00e+00	0	57	0	1656750080	38	4308
2026-01-04 02:28:04.32	323.10	48.48	-33.9	-35.0	20.2	0.00e+00	0	57	0	1661992960	38	4338
2026-01-04 02:28:05.33	322.56	48.63	-33.9	-35.1	20.2	0.00e+00	0	57	0	1668284416	38	4344
2026-01-04 02:28:06.34	322.00	48.78	-33.9	-35.0	20.3	0.00e+00	0	57	0	1673527296	38	4312
2026-01-04 02:28:07.35	321.44	48.93	-33.7	-34.8	20.5	0.00e+00	0	57	0	1679818752	38	4206
2026-01-04 02:28:08.36	320.88	49.07	-33.7	-34.8	20.5	0.00e+00	0	57	0	1685061632	38	4219
2026-01-04 02:28:09.36	320.31	49.21	-34.0	-35.1	20.2	0.00e+00	0	57	0	1690304512	38	4369
2026-01-04 02:28:10.38	319.73	49.34	-34.0	-35.2	20.1	0.00e+00	0	57	0	1696595968	38	4409
2026-01-04 02:28:11.39	319.15	49.48	-33.9	-35.0	20.3	0.00e+00	0	57	0	1701838848	38	4319
2026-01-04 02:28:12.40	318.56	49.61	-33.8	-34.9	20.3	0.00e+00	0	57	0	1708130304	38	4281
2026-01-04 02:28:13.41	317.97	49.74	-33.7	-34.9	20.4	0.00e+00	0	57	0	1713373184	38	4246
2026-01-04 02:28:14.42	317.37	49.87	-33.8	-34.9	20.3	0.00e+00	0	57	0	1719664640	38	4278
2026-01-04 02:28:15.42	316.78	49.99	-33.9	-35.0	20.3	0.00e+00	0	57	0	1724907520	38	4312
2026-01-04 02:28:16.43	316.17	50.11	-33.9	-35.1	20.2	0.00e+00	0	57	0	1730150400	38	4344
2026-01-04 02:28:17.44	315.56	50.22	-34.0	-35.2	20.1	0.00e+00	0	57	0	1736441856	38	4394
2026-01-04 02:28:18.45	314.95	50.34	-34.0	-35.1	20.2	0.00e+00	0	57	0	1741684736	38	4369
2026-01-04 02:28:19.46	314.33	50.45	-34.0	-35.2	20.1	0.00e+00	0	57	0	1747976192	38	4405
2026-01-04 02:28:20.47	313.70	50.55	-34.2	-35.4	19.9	0.00e+00	0	57	0	1753219072	39	4261
2026-01-04 02:28:21.48	313.07	50.66	-34.2	-35.4	19.8	0.00e+00	0	57	0	1758461952	39	4271
2026-01-04 02:28:22.49	312.44	50.76	-34.1	-35.3	20.0	0.00e+00	0	57	0	1764753408	39	4215
2026-01-04 02:28:23.50	311.80	50.85	-33.8	-34.9	20.3	0.00e+00	0	57	0	1769996288	39	4020
2026-01-04 02:28:24.51	311.16	50.95	-33.8	-34.8	20.4	0.00e+00	0	57	0	1776287744	39	4004
2026-01-04 02:28:25.52	310.52	51.04	-34.0	-35.2	20.1	0.00e+00	0	57	0	1781530624	39	4169
2026-01-04 02:28:26.53	309.87	51.12	-34.1	-35.3	20.0	0.00e+00	0	57	0	1786773504	39	4212
2026-01-04 02:28:27.54	309.21	51.20	-34.0	-35.1	20.2	0.00e+00	0	57	0	1793064960	39	4115
2026-01-04 02:28:28.55	308.56	51.28	-33.7	-34.8	20.4	0.00e+00	0	57	0	1798307840	39	4000
2026-01-04 02:28:29.57	307.89	51.36	-33.7	-34.8	20.5	0.00e+00	0	57	0	1804599296	39	3964
2026-01-04 02:28:30.58	307.23	51.43	-33.7	-34.8	20.4	0.00e+00	0	57	0	1809842176	39	3998
2026-01-04 02:28:31.59	306.56	51.49	-33.7	-34.8	20.4	0.00e+00	0	57	0	1816133632	39	4001
2026-01-04 02:28:32.60	305.89	51.55	-33.6	-34.7	20.5	0.00e+00	0	57	0	1821376512	39	3947
2026-01-04 02:28:33.61	305.22	51.61	-33.5	-34.6	20.7	0.00e+00	0	57	0	1827667968	39	3880
2026-01-04 02:28:34.62	304.55	51.67	-33.6	-34.7	20.6	0.00e+00	0	57	0	1832910848	38	4172
2026-01-04 02:28:35.63	303.87	51.72	-33.7	-34.8	20.5	0.00e+00	0	57	0	1838153728	38	4205
2026-01-04 02:28:36.64	303.19	51.76	-33.6	-34.7	20.6	0.00e+00	0	57	0	1844445184	38	4156
2026-01-04 02:28:37.64	302.52	51.81	-33.9	-35.0	20.3	0.00e+00	0	57	0	1849688064	38	4300
2026-01-04 02:28:38.65	301.84	51.84	-34.1	-35.2	20.1	0.00e+00	0	57	0	1855979520	38	4429
2026-01-04 02:28:39.66	301.15	51.88	-33.8	-34.9	20.3	0.00e+00	0	57	0	1861222400	38	4266
2026-01-04 02:28:40.67	300.47	51.91	-33.5	-34.6	20.6	0.00e+00	0	57	0	1866465280	38	4119
2026-01-04 02:28:41.68	299.78	51.93	-33.3	-34.4	20.8	0.00e+00	0	57	0	1872756736	38	4035
2026-01-04 02:28:42.70	299.08	51.95	-33.3	-34.4	20.8	0.00e+00	0	57	0	1877999616	38	4028
2026-01-04 02:28:43.71	298.39	51.97	-33.6	-34.7	20.6	0.00e+00	0	57	0	1884291072	38	4160
2026-01-04 02:28:44.72	297.70	51.98	-33.6	-34.7	20.5	0.00e+00	0	57	0	1889533952	38	4183
2026-01-04 02:28:45.73	297.01	51.99	-33.5	-34.6	20.6	0.00e+00	0	57	0	1894776832	38	4137
2026-01-04 02:28:46.74	296.32	51.99	-33.5	-34.6	20.6	0.00e+00	0	57	0	1901068288	38	4130
2026-01-04 02:28:47.75	295.63	51.99	-33.8	-35.0	20.3	0.00e+00	0	57	0	1906311168	38	4300
2026-01-04 02:28:48.76	294.94	51.98	-33.7	-34.9	20.4	0.00e+00	0	57	0	1912602624	38	4250
2026-01-04 02:28:49.76	294.26	51.98	-33.5	-34.6	20.6	0.00e+00	0	57	0	1917845504	38	4129
2026-01-04 02:28:50.77	293.57	51.96	-33.8	-34.9	20.3	0.00e+00	0	57	0	1924136960	38	4284
2026-01-04 02:28:51.78	292.88	51.94	-34.0	-35.2	20.1	0.00e+00	0	57	0	1929379840	38	4423
2026-01-04 02:28:52.79	292.19	51.92	-34.0	-35.2	20.1	0.00e+00	0	57	0	1935671296	38	4403
2026-01-04 02:28:53.81	291.50	51.89	-34.0	-35.1	20.1	0.00e+00	0	57	0	1940914176	38	4378
2026-01-04 02:28:54.81	290.82	51.86	-33.7	-34.9	20.4	0.00e+00	0	57	0	1946157056	38	4248
2026-01-04 02:28:55.82	290.14	51.83	-33.5	-34.6	20.6	0.00e+00	0	57	0	1952448512	38	4136
2026-01-04 02:28:56.83	289.45	51.79	-33.5	-34.6	20.6	0.00e+00	0	57	0	1957691392	38	4145
2026-01-04 02:28:57.84	288.77	51.75	-33.6	-34.7	20.5	0.00e+00	0	57	0	1963982848	38	4185
2026-01-04 02:28:58.85	288.09	51.70	-33.6	-34.8	20.5	0.00e+00	0	57	0	1969225728	38	4204
2026-01-04 02:28:59.86	287.42	51.65	-33.6	-34.7	20.6	0.00e+00	0	57	0	1974468608	38	4147
2026-01-04 02:29:00.87	286.74	51.59	-33.5	-34.6	20.6	0.00e+00	0	57	0	1980760064	38	4142
2026-01-04 02:29:01.88	286.07	51.53	-33.4	-34.5	20.7	0.00e+00	0	57	0	1986002944	38	4094
2026-01-04 02:29:02.89	285.40	51.47	-33.3	-34.4	20.8	0.00e+00	0	57	0	1992294400	38	4026
2026-01-04 02:29:03.90	284.74	51.40	-33.4	-34.5	20.8	0.00e+00	0	57	0	1997537280	38	4054
2026-01-04 02:29:04.91	284.08	51.33	-33.5	-34.6	20.6	0.00e+00	0	57	0	2002780160	38	4137
2026-01-04 02:29:05.92	283.42	51.25	-33.5	-34.6	20.6	0.00e+00	0	57	0	2009071616	38	4132
2026-01-04 02:29:06.93	282.76	51.17	-33.5	-34.6	20.7	0.00e+00	0	57	0	2014314496	38	4105
2026-01-04 02:29:07.94	282.11	51.09	-33.3	-34.4	20.8	0.00e+00	0	57	0	2020605952	38	4039
2026-01-04 02:29:08.95	281.46	51.00	-33.3	-34.4	20.8	0.00e+00	0	57	0	2025848832	38	4042
2026-01-04 02:29:09.96	280.82	50.91	-33.4	-34.6	20.7	0.00e+00	0	57	0	2032140288	38	4102
2026-01-04 02:29:10.97	280.18	50.81	-33.5	-34.7	20.6	0.00e+00	0	57	0	2037383168	38	4155
2026-01-04 02:29:11.98	279.54	50.72	-33.5	-34.6	20.6	0.00e+00	0	57	0	2042626048	38	4111
2026-01-04 02:29:12.99	278.91	50.61	-33.3	-34.4	20.8	0.00e+00	0	57	0	2048917504	38	4037
2026-01-04 02:29:14.00	278.28	50.51	-33.3	-34.4	20.8	0.00e+00	0	57	0	2054160384	38	4040
2026-01-04 02:29:15.01	277.66	50.40	-33.6	-34.7	20.5	0.00e+00	0	57	0	2060451840	38	4161
2026-01-04 02:29:16.02	277.04	50.29	-33.7	-34.8	20.4	0.00e+00	0	57	0	2065694720	38	4229
2026-01-04 02:29:17.03	276.42	50.17	-33.5	-34.6	20.6	0.00e+00	0	57	0	2070937600	38	4133
2026-01-04 02:29:18.04	275.81	50.06	-33.4	-34.5	20.7	0.00e+00	0	57	0	2077229056	38	4067
2026-01-04 02:29:19.05	275.21	49.93	-33.5	-34.6	20.7	0.00e+00	0	57	0	2082471936	38	4104
2026-01-04 02:29:20.06	274.61	49.81	-33.5	-34.6	20.6	0.00e+00	0	57	0	2088763392	38	4139
2026-01-04 02:29:21.07	274.01	49.68	-33.5	-34.6	20.6	0.00e+00	0	57	0	2094006272	38	4121
2026-01-04 02:29:22.08	273.42	49.55	-33.5	-34.6	20.6	0.00e+00	0	57	0	2099249152	38	4111
2026-01-04 02:29:23.09	272.84	49.42	-33.4	-34.5	20.7	0.00e+00	0	57	0	2105540608	38	4065
2026-01-04 02:29:24.10	272.26	49.28	-33.3	-34.4	20.8	0.00e+00	0	57	0	2110783488	38	4039
2026-01-04 02:29:25.11	271.68	49.15	-33.3	-34.4	20.8	0.00e+00	0	57	0	2117074944	38	4015
2026-01-04 02:29:26.12	271.11	49.00	-33.2	-34.3	20.9	0.00e+00	0	57	0	2122317824	38	3980
2026-01-04 02:29:27.13	270.55	48.86	-33.0	-34.1	21.1	0.00e+00	0	57	0	2128609280	38	3885
2026-01-04 02:29:28.14	269.99	48.71	-33.1	-34.1	21.0	0.00e+00	0	57	0	2133852160	38	3907
2026-01-04 02:29:29.16	269.43	48.56	-33.1	-34.2	21.0	0.00e+00	0	57	0	2140143616	38	3937
2026-01-04 02:29:30.17	268.88	48.41	-33.1	-34.2	21.0	0.00e+00	0	57	0	2145386496	38	3943
2026-01-04 02:29:31.18	268.34	48.26	-33.2	-34.3	20.9	0.00e+00	0	57	0	2150629376	38	3962
2026-01-04 02:29:32.19	267.80	48.10	-33.3	-34.4	20.8	0.00e+00	0	57	0	2156920832	38	4006
2026-01-04 02:29:33.19	267.27	47.95	-33.3	-34.4	20.8	0.00e+00	0	57	0	2162163712	38	4020
2026-01-04 02:29:34.20	266.75	47.79	-33.3	-34.3	20.8	0.00e+00	0	57	0	2168455168	38	3989
2026-01-04 02:29:35.21	266.23	47.63	-33.3	-34.4	20.8	0.00e+00	0	57	0	2173698048	38	4032
2026-01-04 02:29:36.22	265.71	47.46	-33.3	-34.4	20.7	0.00e+00	0	57	0	2178940928	38	4042
2026-01-04 02:29:37.23	265.20	47.30	-33.2	-34.3	20.9	0.00e+00	0	57	0	2185232384	38	3993
2026-01-04 02:29:38.24	264.70	47.13	-33.0	-34.1	21.1	0.00e+00	0	57	0	2190475264	38	3888
2026-01-04 02:29:39.25	264.20	46.96	-32.9	-34.0	21.2	0.00e+00	0	57	0	2196766720	37	4058
2026-01-04 02:29:40.26	263.70	46.79	-32.7	-33.8	21.4	0.00e+00	0	57	0	2202009600	37	3969
2026-01-04 02:29:41.27	263.21	46.62	-32.6	-33.6	21.5	0.00e+00	0	57	0	2207252480	37	3901
2026-01-04 02:29:42.28	262.73	46.44	-32.6	-33.6	21.5	0.00e+00	0	57	0	2213543936	37	3913
2026-01-04 02:29:43.29	262.25	46.27	-32.7	-33.8	21.4	0.00e+00	0	57	0	2218786816	37	3979
2026-01-04 02:29:44.30	261.78	46.09	-32.8	-33.9	21.3	0.00e+00	0	57	0	2225078272	37	4016
2026-01-04 02:29:45.31	261.31	45.91	-32.8	-33.9	21.3	0.00e+00	0	57	0	2230321152	37	4029
2026-01-04 02:29:46.32	260.85	45.73	-33.0	-34.0	21.1	0.00e+00	0	57	0	2236612608	37	4083
2026-01-04 02:29:47.33	260.39	45.55	-33.1	-34.2	21.0	0.00e+00	0	57	0	2241855488	37	4162
2026-01-04 02:29:48.34	259.94	45.37	-33.1	-34.2	21.0	0.00e+00	0	57	0	2248146944	37	4165
2026-01-04 02:29:49.35	259.50	45.19	-32.9	-33.9	21.2	0.00e+00	0	57	0	2253389824	37	4046
2026-01-04 02:29:50.36	259.05	45.00	-32.7	-33.8	21.3	0.00e+00	0	57	0	2258632704	37	3967
2026-01-04 02:29:51.37	258.62	44.82	-32.7	-33.7	21.4	0.00e+00	0	57	0	2264924160	37	3935
2026-01-04 02:29:52.38	258.19	44.63	-32.6	-33.7	21.4	0.00e+00	0	57	0	2270167040	37	3925
2026-01-04 02:29:53.39	257.76	44.45	-32.6	-33.7	21.4	0.00e+00	0	57	0	2276458496	37	3921
2026-01-04 02:29:54.41	257.34	44.26	-32.5	-33.6	21.5	0.00e+00	0	57	0	2281701376	37	3885
2026-01-04 02:29:55.42	256.92	44.07	-32.4	-33.4	21.6	0.00e+00	0	57	0	2286944256	36	4045
2026-01-04 02:29:56.42	256.51	43.88	-32.4	-33.4	21.7	0.00e+00	0	57	0	2293235712	36	4025
2026-01-04 02:29:57.43	256.11	43.69	-32.4	-33.4	21.7	0.00e+00	0	57	0	2298478592	36	4022
2026-01-04 02:29:58.44	255.71	43.50	-32.4	-33.4	21.7	0.00e+00	0	57	0	2304770048	36	4039
2026-01-04 02:29:59.45	255.31	43.31	-32.5	-33.5	21.6	0.00e+00	0	57	0	2310012928	36	4094
2026-01-04 02:30:00.46	254.92	43.12	-32.6	-33.6	21.5	0.00e+00	0	57	0	2315255808	36	4113
2026-01-04 02:30:01.47	254.53	42.92	-32.6	-33.6	21.5	0.00e+00	0	57	0	2321547264	36	4135
2026-01-04 02:30:02.48	254.15	42.73	-32.6	-33.7	21.4	0.00e+00	0	57	0	2326790144	36	4168
2026-01-04 02:30:03.49	253.77	42.54	-32.7	-33.8	21.3	0.00e+00	0	57	0	2333081600	36	4200
2026-01-04 02:30:04.50	253.40	42.34	-32.6	-33.6	21.5	0.00e+00	0	57	0	2338324480	36	4125
2026-01-04 02:30:05.51	253.03	42.15	-32.5	-33.6	21.5	0.00e+00	0	57	0	2344615936	36	4100
2026-01-04 02:30:06.52	252.66	41.95	-32.5	-33.5	21.6	0.00e+00	0	57	0	2349858816	36	4086
2026-01-04 02:30:07.53	252.30	41.76	-32.5	-33.5	21.6	0.00e+00	0	57	0	2355101696	36	4085
2026-01-04 02:30:08.54	251.95	41.56	-32.5	-33.6	21.5	0.00e+00	0	57	0	2361393152	36	4104
2026-01-04 02:30:09.56	251.59	41.37	-32.6	-33.7	21.4	0.00e+00	0	57	0	2366636032	36	4148
2026-01-04 02:30:10.57	251.24	41.17	-32.7	-33.8	21.3	0.00e+00	0	57	0	2372927488	36	4201
2026-01-04 02:30:11.58	250.90	40.98	-32.7	-33.8	21.3	0.00e+00	0	57	0	2378170368	36	4221
2026-01-04 02:30:12.59	250.56	40.78	-32.8	-33.8	21.3	0.00e+00	0	57	0	2384461824	36	4229
2026-01-04 02:30:13.60	250.23	40.59	-32.7	-33.8	21.3	0.00e+00	0	57	0	2389704704	36	4213
2026-01-04 02:30:14.61	249.90	40.39	-32.7	-33.8	21.3	0.00e+00	0	57	0	2394947584	36	4210
2026-01-04 02:30:15.62	249.57	40.19	-32.7	-33.8	21.3	0.00e+00	0	57	0	2401239040	36	4205
2026-01-04 02:30:16.63	249.25	40.00	-32.7	-33.8	21.3	0.00e+00	0	57	0	2406481920	36	4195
2026-01-04 02:30:17.64	248.93	39.80	-32.7	-33.7	21.4	0.00e+00	0	57	0	2411724800	36	4192
2026-01-04 02:30:18.65	248.61	39.61	-32.6	-33.7	21.4	0.00e+00	0	57	0	2418016256	36	4160
2026-01-04 02:30:19.65	248.31	39.41	-32.6	-33.6	21.5	0.00e+00	0	57	0	2423259136	36	4129
2026-01-04 02:30:20.66	248.00	39.22	-32.5	-33.5	21.5	0.00e+00	0	57	0	2429550592	36	4098
2026-01-04 02:30:21.68	247.69	39.02	-32.4	-33.5	21.6	0.00e+00	0	57	0	2434793472	36	4062
2026-01-04 02:30:22.69	247.39	38.83	-32.4	-33.5	21.6	0.00e+00	0	57	0	2441084928	36	4052
2026-01-04 02:30:23.70	247.09	38.63	-32.4	-33.4	21.7	0.00e+00	0	57	0	2446327808	36	4033
2026-01-04 02:30:24.71	246.80	38.44	-32.4	-33.5	21.6	0.00e+00	0	57	0	2452619264	36	4056
2026-01-04 02:30:25.72	246.51	38.24	-32.4	-33.5	21.6	0.00e+00	0	57	0	2457862144	36	4057
2026-01-04 02:30:26.73	246.23	38.05	-32.5	-33.5	21.5	0.00e+00	0	57	0	2463105024	36	4086
2026-01-04 02:30:27.74	245.94	37.86	-32.5	-33.6	21.5	0.00e+00	0	57	0	2469396480	36	4110
2026-01-04 02:30:28.75	245.66	37.66	-32.6	-33.6	21.4	0.00e+00	0	57	0	2474639360	36	4131
2026-01-04 02:30:29.76	245.39	37.47	-32.7	-33.7	21.3	0.00e+00	0	57	0	2480930816	36	4190
2026-01-04 02:30:30.76	245.12	37.28	-32.8	-33.8	21.2	0.00e+00	0	57	0	2486173696	36	4242
2026-01-04 02:30:31.77	244.85	37.09	-32.7	-33.8	21.3	0.00e+00	0	57	0	2491416576	36	4227
2026-01-04 02:30:32.79	244.58	36.89	-32.7	-33.7	21.4	0.00e+00	0	57	0	2497708032	36	4183
2026-01-04 02:30:33.80	244.31	36.70	-32.5	-33.6	21.5	0.00e+00	0	57	0	2502950912	36	4104
2026-01-04 02:30:34.81	244.05	36.51	-32.5	-33.5	21.6	0.00e+00	0	57	0	2509242368	36	4058
2026-01-04 02:30:35.81	243.80	36.32	-32.4	-33.4	21.7	0.00e+00	0	57	0	2514485248	36	4010
2026-01-04 02:30:36.83	243.54	36.13	-32.4	-33.4	21.6	0.00e+00	0	57	0	2519728128	36	4033
2026-01-04 02:30:37.84	243.29	35.94	-32.5	-33.5	21.5	0.00e+00	0	57	0	2526019584	36	4074
2026-01-04 02:30:38.85	243.04	35.75	-32.5	-33.5	21.5	0.00e+00	0	57	0	2531262464	36	4091
2026-01-04 02:30:39.86	242.80	35.56	-32.5	-33.5	21.5	0.00e+00	0	57	0	2537553920	36	4091
2026-01-04 02:30:40.87	242.56	35.38	-32.4	-33.4	21.6	0.00e+00	0	57	0	2542796800	36	4034
2026-01-04 02:30:41.88	242.32	35.19	-32.3	-33.4	21.7	0.00e+00	0	57	0	2549088256	36	4012
2026-01-04 02:30:42.89	242.08	35.00	-32.4	-33.4	21.6	0.00e+00	0	57	0	2554331136	36	4034
2026-01-04 02:30:43.90	241.85	34.82	-32.4	-33.5	21.6	0.00e+00	0	57	0	2560622592	36	4059
2026-01-04 02:30:44.91	241.61	34.63	-32.4	-33.4	21.6	0.00e+00	0	57	0	2565865472	36	4047
2026-01-04 02:30:45.92	241.38	34.44	-32.4	-33.4	21.6	0.00e+00	0	57	0	2571108352	36	4028
2026-01-04 02:30:46.93	241.16	34.26	-32.2	-33.3	21.8	0.00e+00	0	57	0	2577399808	36	3961
2026-01-04 02:30:47.94	240.93	34.08	-32.1	-33.2	21.9	0.00e+00	0	57	0	2582642688	36	3916
2026-01-04 02:30:48.95	240.71	33.89	-32.2	-33.2	21.8	0.00e+00	0	57	0	2588934144	36	3919
2026-01-04 02:30:49.96	240.49	33.71	-32.3	-33.3	21.7	0.00e+00	0	57	0	2594177024	36	3969
2026-01-04 02:30:50.97	240.28	33.53	-32.4	-33.4	21.7	0.00e+00	0	57	0	2599419904	36	4026
2026-01-04 02:30:51.98	240.06	33.34	-32.4	-33.5	21.5	0.00e+00	0	57	0	2605711360	36	4070
2026-01-04 02:30:52.99	239.85	33.16	-32.5	-33.5	21.5	0.00e+00	0	57	0	2610954240	36	4091
2026-01-04 02:30:54.00	239.64	32.98	-32.6	-33.6	21.4	0.00e+00	0	57	0	2617245696	36	4134
2026-01-04 02:30:55.01	239.44	32.80	-32.6	-33.7	21.4	0.00e+00	0	57	0	2622488576	36	4162
2026-01-04 02:30:56.02	239.23	32.62	-32.7	-33.7	21.3	0.00e+00	0	57	0	2627731456	36	4191
2026-01-04 02:30:57.03	239.03	32.45	-32.8	-33.8	21.2	0.00e+00	0	57	0	2634022912	36	4234
2026-01-04 02:30:58.04	238.83	32.27	-32.8	-33.8	21.2	0.00e+00	0	57	0	2639265792	36	4235
2026-01-04 02:30:59.04	238.63	32.09	-32.7	-33.7	21.3	0.00e+00	0	57	0	2645557248	36	4193
2026-01-04 02:31:00.05	238.44	31.92	-32.5	-33.6	21.5	0.00e+00	0	57	0	2650800128	36	4107
2026-01-04 02:31:01.06	238.25	31.74	-32.4	-33.4	21.6	0.00e+00	0	57	0	2657091584	36	4026
2026-01-04 02:31:02.07	238.05	31.57	-32.3	-33.3	21.7	0.00e+00	0	57	0	2662334464	36	3988
2026-01-04 02:31:03.08	237.86	31.39	-32.3	-33.3	21.7	0.00e+00	0	57	0	2667577344	36	3998
2026-01-04 02:31:04.09	237.68	31.22	-32.4	-33.4	21.6	0.00e+00	0	57	0	2673868800	36	4031
2026-01-04 02:31:05.10	237.49	31.04	-32.6	-33.6	21.4	0.00e+00	0	57	0	2679111680	36	4131
2026-01-04 02:31:06.11	237.31	30.87	-32.7	-33.8	21.3	0.00e+00	0	57	0	2685403136	36	4217
2026-01-04 02:31:07.12	237.13	30.70	-32.8	-33.9	21.1	0.00e+00	0	57	0	2690646016	36	4272
2026-01-04 02:31:08.13	236.95	30.53	-32.9	-33.9	21.1	0.00e+00	0	57	0	2695888896	36	4281
2026-01-04 02:31:09.15	236.77	30.36	-32.9	-33.9	21.1	0.00e+00	0	57	0	2702180352	36	4287
2026-01-04 02:31:10.16	236.59	30.19	-32.9	-33.9	21.1	0.00e+00	0	57	0	2707423232	36	4286
2026-01-04 02:31:11.17	236.42	30.02	-32.9	-33.9	21.1	0.00e+00	0	57	0	2713714688	36	4283
2026-01-04 02:31:12.18	236.25	29.85	-32.9	-34.0	21.1	0.00e+00	0	57	0	2718957568	36	4298
2026-01-04 02:31:13.19	236.08	29.68	-33.0	-34.1	21.0	0.00e+00	0	57	0	2724200448	36	4343
2026-01-04 02:31:14.20	235.91	29.52	-33.0	-34.1	20.9	0.00e+00	0	57	0	2730491904	36	4363
2026-01-04 02:31:15.20	235.74	29.35	-33.1	-34.1	20.9	0.00e+00	0	57	0	2735734784	36	4389
2026-01-04 02:31:16.21	235.58	29.19	-33.1	-34.2	20.9	0.00e+00	0	57	0	2742026240	36	4399
2026-01-04 02:31:17.22	235.42	29.02	-33.1	-34.2	20.9	0.00e+00	0	57	0	2747269120	36	4397
2026-01-04 02:31:18.23	235.25	28.86	-33.1	-34.2	20.8	0.00e+00	0	57	0	2753560576	36	4428
2026-01-04 02:31:19.24	235.10	28.69	-33.2	-34.3	20.8	0.00e+00	0	57	0	2758803456	36	4446
2026-01-04 02:31:20.25	234.94	28.53	-33.2	-34.3	20.7	0.00e+00	0	57	0	2765094912	37	4237
2026-01-04 02:31:21.26	234.78	28.37	-33.3	-34.4	20.7	0.00e+00	0	57	0	2770337792	37	4250
2026-01-04 02:31:22.27	234.63	28.21	-33.3	-34.4	20.7	0.00e+00	0	57	0	2775580672	37	4255
2026-01-04 02:31:23.28	234.47	28.05	-33.3	-34.4	20.7	0.00e+00	0	57	0	2781872128	37	4256
2026-01-04 02:31:24.29	234.32	27.89	-33.2	-34.3	20.7	0.00e+00	0	57	0	2787115008	37	4233
2026-01-04 02:31:25.30	234.17	27.73	-33.2	-34.3	20.7	0.00e+00	0	57	0	2793406464	37	4224
2026-01-04 02:31:26.31	234.02	27.57	-33.2	-34.2	20.8	0.00e+00	0	57	0	2798649344	37	4189
2026-01-04 02:31:27.32	233.87	27.41	-33.2	-34.3	20.7	0.00e+00	0	57	0	2803892224	37	4210
2026-01-04 02:31:28.33	233.73	27.25	-33.1	-34.2	20.8	0.00e+00	0	57	0	2810183680	37	4168
2026-01-04 02:31:29.34	233.58	27.10	-33.1	-34.2	20.8	0.00e+00	0	57	0	2815426560	37	4180
2026-01-04 02:31:30.35	233.44	26.94	-33.2	-34.3	20.7	0.00e+00	0	57	0	2821718016	37	4209
2026-01-04 02:31:31.36	233.30	26.79	-33.1	-34.2	20.8	0.00e+00	0	57	0	2826960896	37	4164
2026-01-04 02:31:32.37	233.16	26.63	-33.1	-34.2	20.8	0.00e+00	0	57	0	2832203776	37	4175
2026-01-04 02:31:33.38	233.02	26.48	-33.1	-34.1	20.9	0.00e+00	0	57	0	2838495232	37	4140
2026-01-04 02:31:34.39	232.88	26.33	-33.0	-34.1	20.9	0.00e+00	0	57	0	2843738112	37	4127
2026-01-04 02:31:35.40	232.75	26.17	-33.1	-34.1	20.9	0.00e+00	0	58	0	2850029568	37	4137
2026-01-04 02:31:36.41	232.61	26.02	-33.1	-34.2	20.8	0.00e+00	0	57	0	2855272448	37	4162
2026-01-04 02:31:37.42	232.48	25.87	-33.1	-34.2	20.8	0.00e+00	0	57	0	2861563904	37	4160
2026-01-04 02:31:38.43	232.35	25.72	-33.1	-34.2	20.8	0.00e+00	0	58	0	2866806784	37	4179
2026-01-04 02:31:39.44	232.21	25.57	-33.2	-34.3	20.7	0.00e+00	0	57	0	2872049664	37	4206
2026-01-04 02:31:40.44	232.09	25.42	-33.2	-34.3	20.7	0.00e+00	0	57	0	2878341120	37	4221
2026-01-04 02:31:41.45	231.96	25.28	-33.2	-34.3	20.7	0.00e+00	0	57	0	2883584000	37	4238
2026-01-04 02:31:42.47	231.83	25.13	-33.2	-34.3	20.7	0.00e+00	0	57	0	2889875456	37	4226
2026-01-04 02:31:43.47	231.70	24.98	-33.2	-34.3	20.6	0.00e+00	0	58	0	2895118336	37	4228
2026-01-04 02:31:44.48	231.58	24.83	-33.2	-34.3	20.7	0.00e+00	0	57	0	2900361216	37	4224
2026-01-04 02:31:45.50	231.45	24.69	-33.2	-34.3	20.7	0.00e+00	0	58	0	2906652672	37	4218
2026-01-04 02:31:46.51	231.33	24.54	-33.2	-34.3	20.6	0.00e+00	0	57	0	2911895552	37	4232
2026-01-04 02:31:47.52	231.21	24.40	-33.3	-34.4	20.6	0.00e+00	0	57	0	2918187008	37	4244
2026-01-04 02:31:48.53	231.09	24.26	-33.3	-34.4	20.6	0.00e+00	0	57	0	2923429888	37	4252
2026-01-04 02:31:49.54	230.97	24.11	-33.3	-34.4	20.6	0.00e+00	0	57	0	2929721344	37	4252
2026-01-04 02:31:50.55	230.85	23.97	-33.4	-34.5	20.5	0.00e+00	0	57	0	2934964224	37	4300
2026-01-04 02:31:51.56	230.74	23.83	-33.4	-34.5	20.4	0.00e+00	0	57	0	2940207104	37	4335
2026-01-04 02:31:52.57	230.62	23.69	-33.4	-34.5	20.5	0.00e+00	0	57	0	2946498560	37	4330
2026-01-04 02:31:53.58	230.51	23.55	-33.5	-34.6	20.4	0.00e+00	0	57	0	2951741440	37	4370
2026-01-04 02:31:54.59	230.39	23.41	-33.5	-34.6	20.3	0.00e+00	0	57	0	2958032896	37	4376
2026-01-04 02:31:55.60	230.28	23.27	-33.5	-34.7	20.3	0.00e+00	0	57	0	2963275776	37	4393
2026-01-04 02:31:56.61	230.17	23.13	-33.5	-34.7	20.3	0.00e+00	0	57	0	2969567232	37	4393
2026-01-04 02:31:57.62	230.06	22.99	-33.6	-34.7	20.3	0.00e+00	0	57	0	2974810112	37	4401
2026-01-04 02:31:58.63	229.95	22.85	-33.6	-34.7	20.3	0.00e+00	0	57	0	2980052992	37	4408
2026-01-04 02:31:59.64	229.84	22.72	-33.5	-34.6	20.3	0.00e+00	0	57	0	2986344448	37	4380
2026-01-04 02:32:00.66	229.73	22.58	-33.5	-34.6	20.4	0.00e+00	0	57	0	2991587328	37	4355
2026-01-04 02:32:01.67	229.62	22.44	-33.5	-34.6	20.4	0.00e+00	0	57	0	2997878784	37	4354
2026-01-04 02:32:02.68	229.52	22.31	-33.4	-34.5	20.4	0.00e+00	0	58	0	3003121664	37	4331
2026-01-04 02:32:03.69	229.41	22.18	-33.4	-34.5	20.5	0.00e+00	0	57	0	3009413120	37	4309
2026-01-04 02:32:04.70	229.31	22.04	-33.4	-34.5	20.5	0.00e+00	0	57	0	3014656000	37	4302
2026-01-04 02:32:05.71	229.20	21.91	-33.4	-34.4	20.5	0.00e+00	0	57	0	3019898880	37	4291
2026-01-04 02:32:06.72	229.10	21.78	-33.3	-34.4	20.5	0.00e+00	0	57	0	3026190336	37	4275
2026-01-04 02:32:07.73	229.00	21.64	-33.3	-34.4	20.5	0.00e+00	0	57	0	3031433216	37	4289
2026-01-04 02:32:08.74	228.90	21.51	-33.4	-34.5	20.5	0.00e+00	0	57	0	3037724672	37	4305
2026-01-04 02:32:09.75	228.80	21.38	-33.4	-34.5	20.5	0.00e+00	0	57	0	3042967552	37	4300
2026-01-04 02:32:10.76	228.70	21.25	-33.4	-34.5	20.4	0.00e+00	0	57	0	3048210432	37	4336
2026-01-04 02:32:11.77	228.60	21.12	-33.4	-34.5	20.4	0.00e+00	0	57	0	3054501888	37	4333
2026-01-04 02:32:12.78	228.51	20.99	-33.5	-34.6	20.3	0.00e+00	0	57	0	3059744768	37	4373
2026-01-04 02:32:13.79	228.41	20.87	-33.5	-34.6	20.3	0.00e+00	0	57	0	3066036224	37	4389
2026-01-04 02:32:14.80	228.31	20.74	-33.6	-34.7	20.2	0.00e+00	0	57	0	3071279104	37	4417
2026-01-04 02:32:15.81	228.22	20.61	-33.6	-34.8	20.2	0.00e+00	0	57	0	3077570560	37	4448
2026-01-04 02:32:16.81	228.13	20.48	-33.8	-34.9	20.1	0.00e+00	0	58	0	3082813440	38	4262
2026-01-04 02:32:17.82	228.03	20.36	-33.9	-35.0	19.9	0.00e+00	0	57	0	3088056320	38	4331
2026-01-04 02:32:18.83	227.94	20.23	-34.0	-35.1	19.8	0.00e+00	0	57	0	3094347776	38	4383
2026-01-04 02:32:19.84	227.85	20.11	-34.0	-35.2	19.8	0.00e+00	0	57	0	3099590656	38	4394
2026-01-04 02:32:20.85	227.76	19.98	-34.1	-35.3	19.7	0.00e+00	0	58	0	3105882112	38	4469
2026-01-04 02:32:21.86	227.67	19.86	-34.2	-35.4	19.6	0.00e+00	0	57	0	3111124992	38	4494
2026-01-04 02:32:22.87	227.58	19.74	-34.3	-35.5	19.5	0.00e+00	0	58	0	3116367872	39	4295
2026-01-04 02:32:23.88	227.49	19.61	-34.3	-35.5	19.4	0.00e+00	0	57	0	3122659328	39	4322
2026-01-04 02:32:24.89	227.40	19.49	-34.3	-35.6	19.4	0.00e+00	0	57	0	3127902208	39	4344
2026-01-04 02:32:25.90	227.32	19.37	-34.3	-35.6	19.4	0.00e+00	0	58	0	3134193664	39	4350
2026-01-04 02:32:26.91	227.23	19.25	-34.4	-35.6	19.3	0.00e+00	0	57	0	3139436544	39	4390
2026-01-04 02:32:27.92	227.15	19.13	-34.4	-35.7	19.3	0.00e+00	0	57	0	3144679424	39	4394
2026-01-04 02:32:28.93	227.06	19.01	-34.4	-35.6	19.4	0.00e+00	0	58	0	3150970880	39	4356
2026-01-04 02:32:29.94	226.98	18.89	-34.3	-35.5	19.4	0.00e+00	0	57	0	3156213760	39	4327
2026-01-04 02:32:30.95	226.89	18.77	-34.4	-35.6	19.4	0.00e+00	0	57	0	3162505216	39	4352
2026-01-04 02:32:31.96	226.81	18.65	-34.4	-35.6	19.3	0.00e+00	0	57	0	3167748096	39	4361
2026-01-04 02:32:32.97	226.73	18.53	-34.4	-35.6	19.3	0.00e+00	0	57	0	3174039552	39	4361
2026-01-04 02:32:33.98	226.65	18.41	-34.4	-35.6	19.3	0.00e+00	0	57	0	3179282432	39	4357
2026-01-04 02:32:34.99	226.56	18.30	-34.4	-35.6	19.3	0.00e+00	0	57	0	3185573888	39	4370
2026-01-04 02:32:36.00	226.48	18.18	-34.4	-35.6	19.3	0.00e+00	0	58	0	3190816768	39	4362
2026-01-04 02:32:37.01	226.40	18.06	-34.5	-35.7	19.2	0.00e+00	0	57	0	3196059648	39	4394
2026-01-04 02:32:38.02	226.33	17.95	-34.4	-35.6	19.3	0.00e+00	0	58	0	3202351104	39	4385
2026-01-04 02:32:39.03	226.25	17.83	-34.5	-35.7	19.2	0.00e+00	0	58	0	3207593984	39	4434
2026-01-04 02:32:40.04	226.17	17.72	-34.6	-35.8	19.1	0.00e+00	0	57	0	3212836864	39	4455
2026-01-04 02:32:41.04	226.09	17.60	-34.5	-35.7	19.2	0.00e+00	0	58	0	3219128320	39	4436
2026-01-04 02:32:42.06	226.02	17.49	-34.6	-35.8	19.1	0.00e+00	0	57	0	3224371200	39	4482
2026-01-04 02:32:43.06	225.94	17.38	-34.6	-35.8	19.1	0.00e+00	0	57	0	3230662656	39	4484
2026-01-04 02:32:44.08	225.86	17.26	-34.6	-35.8	19.1	0.00e+00	0	57	0	3235905536	39	4480
2026-01-04 02:32:45.09	225.79	17.15	-34.6	-35.9	19.0	0.00e+00	0	57	0	3241148416	39	4501
2026-01-04 02:32:46.10	225.71	17.04	-34.7	-35.9	19.0	0.00e+00	0	57	0	3247439872	39	4519
2026-01-04 02:32:47.11	225.64	16.93	-34.7	-35.9	19.0	0.00e+00	0	58	0	3252682752	39	4527
2026-01-04 02:32:48.12	225.57	16.82	-34.7	-35.9	19.0	0.00e+00	0	58	0	3258974208	39	4518
2026-01-04 02:32:49.12	225.50	16.71	-34.7	-35.9	19.0	0.00e+00	0	58	0	3264217088	39	4533
2026-01-04 02:32:50.13	225.42	16.60	-34.7	-35.9	18.9	0.00e+00	0	57	0	3270508544	40	4262
2026-01-04 02:32:51.14	225.35	16.49	-34.7	-35.9	18.9	0.00e+00	0	57	0	3275751424	40	4268
2026-01-04 02:32:52.15	225.28	16.38	-34.7	-35.9	18.9	0.00e+00	0	57	0	3282042880	40	4287
2026-01-04 02:32:53.17	225.21	16.27	-34.8	-36.0	18.8	0.00e+00	0	58	0	3287285760	40	4330
2026-01-04 02:32:54.18	225.14	16.16	-34.9	-36.2	18.6	0.00e+00	0	58	0	3292528640	40	4405
2026-01-04 02:32:55.19	225.07	16.05	-34.9	-36.1	18.6	0.00e+00	0	57	0	3298820096	40	4383
2026-01-04 02:32:56.20	225.00	15.94	-35.0	-36.2	18.5	0.00e+00	0	58	0	3304062976	40	4433
2026-01-04 02:32:57.21	224.93	15.84	-35.0	-36.3	18.4	0.00e+00	0	57	0	3310354432	40	4491
2026-01-04 02:32:58.22	224.87	15.73	-35.1	-36.4	18.3	0.00e+00	0	58	0	3315597312	40	4545
2026-01-04 02:32:59.22	224.80	15.63	-35.1	-36.5	18.3	0.00e+00	0	57	0	3320840192	40	4548
2026-01-04 02:33:00.23	224.73	15.52	-35.2	-36.6	18.2	0.00e+00	0	57	0	3327131648	41	4349
2026-01-04 02:33:01.24	224.67	15.41	-35.3	-36.7	18.1	0.00e+00	0	58	0	3332374528	41	4406
2026-01-04 02:33:02.25	224.60	15.31	-35.4	-36.8	18.0	0.00e+00	0	57	0	3338665984	41	4460
2026-01-04 02:33:03.26	224.53	15.20	-35.6	-37.0	17.8	0.00e+00	0	57	0	3343908864	41	4559
2026-01-04 02:33:04.27	224.47	15.10	-35.7	-37.1	17.7	0.00e+00	0	57	0	3349151744	41	4613
2026-01-04 02:33:05.28	224.40	15.00	-35.7	-37.1	17.7	0.00e+00	0	57	0	3355443200	42	4360
2026-01-04 02:33:06.29	224.34	14.89	-35.6	-37.0	17.8	0.00e+00	0	58	0	3360686080	42	4300
2026-01-04 02:33:07.30	224.28	14.79	-35.5	-36.9	17.8	0.00e+00	0	57	0	3366977536	42	4279
2026-01-04 02:33:08.31	224.21	14.69	-35.5	-36.9	17.8	0.00e+00	0	57	0	3372220416	42	4274
2026-01-04 02:33:09.32	224.15	14.59	-35.6	-37.0	17.8	0.00e+00	0	58	0	3378511872	42	4296
2026-01-04 02:33:10.33	224.09	14.48	-35.6	-37.0	17.7	0.00e+00	0	57	0	3383754752	42	4336
2026-01-04 02:33:11.34	224.03	14.38	-35.5	-36.9	17.9	0.00e+00	0	58	0	3390046208	42	4269
2026-01-04 02:33:12.35	223.97	14.28	-35.5	-36.9	17.9	0.00e+00	0	58	0	3395289088	42	4257
2026-01-04 02:33:13.36	223.90	14.18	-35.5	-36.9	17.8	0.00e+00	0	57	0	3400531968	42	4259
2026-01-04 02:33:14.37	223.84	14.08	-35.5	-36.9	17.9	0.00e+00	0	58	0	3406823424	42	4249
2026-01-04 02:33:15.38	223.78	13.98	-35.5	-36.8	17.9	0.00e+00	0	58	0	3412066304	42	4237
2026-01-04 02:33:16.39	223.72	13.88	-35.4	-36.8	17.9	0.00e+00	0	57	0	3418357760	42	4209
2026-01-04 02:33:17.40	223.66	13.78	-35.5	-36.9	17.8	0.00e+00	0	57	0	3423600640	42	4258
2026-01-04 02:33:18.41	223.61	13.68	-35.5	-36.9	17.8	0.00e+00	0	58	0	3428843520	42	4252
