passes_logs/2026/01/04/R2.0S_Moscow/R2.0S_Moscow__20260104_090152_NOAA_21_JPSS-2_rec.log

#Pass ID: 20260104_090152_NOAA 21 (JPSS-2)
#Satellite: NOAA 21 (JPSS-2)
#Configuration: NOAA-21
#almurnet v.1.7.20251203
#Start time: 2026-01-04 09:01:53

#Version: 2.2.20231116
#Station: R2.0S_Moscow
#Location: 37.707566 lon 55.798166 lat
#TLE: 1 54234U 22150A   26003.45311712  .00000198  00000+0  11468-3 0  9993
#TLE: 2 54234  98.7487 304.4932 0001159 347.5017  12.6130 14.19531745163172

#Time	Az	El	Level	Level2	SNR	BER	BlckErr	Temp	State	Recorded	gain1	gain2
2026-01-04 09:01:53.25	134.77	2.05	-15.8	-27.7	3.7	1.51e+00	0	47	0	0	2	14740
2026-01-04 09:01:54.26	134.73	2.11	-15.3	-30.6	3.8	1.51e+00	0	47	104	0	12	11630
2026-01-04 09:01:55.27	134.69	2.17	-13.5	-26.3	3.7	1.51e+00	0	47	104	0	1	13343
2026-01-04 09:01:56.28	134.66	2.24	-16.2	-28.7	4.2	1.52e+00	0	47	104	0	2	16516
2026-01-04 09:01:57.29	134.62	2.30	-22.0	-35.2	3.7	1.51e+00	0	47	104	0	15	16549
2026-01-04 09:01:58.30	134.58	2.36	-23.3	-35.7	3.7	1.51e+00	0	47	104	0	10	23466
2026-01-04 09:01:59.31	134.54	2.43	-13.9	-25.6	3.9	1.51e+00	0	47	104	0	2	11665
2026-01-04 09:02:00.33	134.51	2.49	-15.6	-25.3	4.0	1.52e+00	0	47	104	0	4	10001
2026-01-04 09:02:01.34	134.47	2.55	-23.4	-37.1	3.6	1.51e+00	0	48	104	0	17	18336
2026-01-04 09:02:02.35	134.43	2.62	-19.9	-32.5	3.5	1.51e+00	0	48	104	0	14	12910
2026-01-04 09:02:03.36	134.39	2.68	-19.3	-30.0	3.7	1.51e+00	0	48	104	0	10	12178
2026-01-04 09:02:04.37	134.35	2.75	-16.8	-27.9	3.8	1.52e+00	0	48	104	0	4	13484
2026-01-04 09:02:05.38	134.32	2.81	-18.6	-29.6	3.9	1.52e+00	0	48	104	0	12	10329
2026-01-04 09:02:06.39	134.28	2.87	-20.5	-31.4	3.7	1.52e+00	0	48	104	0	4	20160
2026-01-04 09:02:07.40	134.24	2.94	-19.6	-32.4	4.0	1.51e+00	0	48	104	0	4	22742
2026-01-04 09:02:08.41	134.20	3.00	-24.8	-36.9	3.6	1.52e+00	0	48	104	0	17	17896
2026-01-04 09:02:09.42	134.16	3.07	-22.9	-35.0	3.6	1.51e+00	0	48	104	0	15	16210
2026-01-04 09:02:10.44	134.12	3.13	-23.7	-36.1	3.9	1.51e+00	0	48	104	0	12	21873
2026-01-04 09:02:11.45	134.08	3.20	-25.7	-38.0	3.6	1.51e+00	0	48	104	0	17	20465
2026-01-04 09:02:12.46	134.04	3.26	-18.0	-30.8	3.7	1.52e+00	0	48	104	0	10	13313
2026-01-04 09:02:13.47	134.00	3.33	-22.2	-34.7	3.5	1.50e+00	0	49	104	0	14	16544
2026-01-04 09:02:14.48	133.96	3.40	-14.8	-34.1	3.4	1.51e+00	0	48	104	0	2	30852
2026-01-04 09:02:15.49	133.92	3.46	-20.2	-33.1	3.8	1.51e+00	0	49	104	0	15	13083
2026-01-04 09:02:16.50	133.88	3.53	-15.1	-27.5	4.1	1.52e+00	0	49	104	0	4	12845
2026-01-04 09:02:17.51	133.84	3.59	-23.0	-35.8	3.6	1.51e+00	0	49	104	0	13	19895
2026-01-04 09:02:18.52	133.80	3.66	-23.3	-36.4	3.6	1.50e+00	0	49	104	0	15	19049
2026-01-04 09:02:19.54	133.76	3.73	-17.4	-31.9	3.7	1.51e+00	0	49	104	0	6	19166
2026-01-04 09:02:20.55	133.71	3.79	-15.1	-27.2	3.7	1.51e+00	0	49	104	0	0	15673
2026-01-04 09:02:21.56	133.67	3.86	-22.2	-33.3	3.5	1.51e+00	0	49	104	0	14	14129
2026-01-04 09:02:22.57	133.63	3.93	-14.2	-34.1	3.6	1.51e+00	0	49	104	0	8	21765
2026-01-04 09:02:23.58	133.59	3.99	-24.6	-38.7	3.6	1.51e+00	0	49	104	0	16	23338
2026-01-04 09:02:24.59	133.55	4.06	-19.9	-31.2	4.1	1.52e+00	0	49	104	0	13	11775
2026-01-04 09:02:25.60	133.51	4.13	-23.1	-36.7	3.5	1.51e+00	0	49	104	0	14	20901
2026-01-04 09:02:26.61	133.46	4.19	-15.0	-26.1	3.6	1.51e+00	0	49	104	0	0	13804
2026-01-04 09:02:27.62	133.42	4.26	-18.1	-33.2	3.7	1.51e+00	0	49	104	0	7	20983
2026-01-04 09:02:28.64	133.38	4.33	-20.9	-36.3	3.4	1.51e+00	0	49	104	0	14	20025
2026-01-04 09:02:29.65	133.33	4.40	-24.6	-35.9	3.6	1.51e+00	0	49	104	0	10	23976
2026-01-04 09:02:30.66	133.29	4.47	-19.1	-31.6	3.6	1.51e+00	0	50	104	0	14	11575
2026-01-04 09:02:31.67	133.25	4.53	-18.1	-32.7	3.6	1.51e+00	0	49	104	0	10	16645
2026-01-04 09:02:32.68	133.20	4.60	-19.2	-32.8	3.6	1.51e+00	0	49	104	0	5	22413
2026-01-04 09:02:33.69	133.16	4.67	-19.4	-31.5	3.8	1.51e+00	0	50	104	0	10	14513
2026-01-04 09:02:34.70	133.11	4.74	-13.8	-30.6	3.9	1.51e+00	0	50	104	0	1	21781
2026-01-04 09:02:35.71	133.07	4.81	-23.1	-33.1	3.6	1.51e+00	0	50	104	0	11	16424
2026-01-04 09:02:36.73	133.02	4.88	-15.1	-35.8	3.5	1.51e+00	0	50	104	0	13	20053
2026-01-04 09:02:37.74	132.98	4.95	-18.2	-28.6	4.0	1.52e+00	0	50	104	0	8	11657
2026-01-04 09:02:38.75	132.93	5.02	-21.2	-33.1	3.7	1.52e+00	0	50	104	0	9	18420
2026-01-04 09:02:39.76	132.89	5.09	-15.8	-26.5	3.9	1.52e+00	0	50	104	0	6	10230
2026-01-04 09:02:40.77	132.84	5.16	-15.6	-29.7	3.8	1.52e+00	0	50	104	0	4	16578
2026-01-04 09:02:41.78	132.80	5.23	-18.1	-29.8	3.9	1.51e+00	0	50	104	0	14	9421
2026-01-04 09:02:42.79	132.75	5.30	-19.4	-31.3	3.9	1.51e+00	0	50	104	0	0	25084
2026-01-04 09:02:43.80	132.71	5.37	-16.8	-27.3	3.6	1.51e+00	0	50	104	0	7	10618
2026-01-04 09:02:44.81	132.66	5.44	-22.7	-35.5	3.5	1.52e+00	0	50	104	0	14	18149
2026-01-04 09:02:45.82	132.61	5.51	-21.5	-33.4	3.7	1.52e+00	0	50	104	0	13	15142
2026-01-04 09:02:46.83	132.57	5.58	-14.9	-27.5	3.6	1.52e+00	0	50	104	0	3	13654
2026-01-04 09:02:47.85	132.52	5.65	-21.1	-33.7	3.7	1.52e+00	0	50	104	0	13	15750
2026-01-04 09:02:48.86	132.47	5.72	-15.5	-31.1	3.8	1.51e+00	0	50	104	0	6	17313
2026-01-04 09:02:49.87	132.42	5.79	-20.5	-33.3	3.8	1.51e+00	0	51	104	0	13	15000
2026-01-04 09:02:50.88	132.37	5.86	-20.0	-32.6	3.7	1.52e+00	0	50	104	0	13	13761
2026-01-04 09:02:51.89	132.33	5.93	-17.9	-27.9	3.8	1.52e+00	0	51	104	0	6	11990
2026-01-04 09:02:52.90	132.28	6.00	-14.8	-26.7	3.7	1.52e+00	0	51	104	0	2	13223
2026-01-04 09:02:53.91	132.23	6.08	-17.6	-29.5	3.8	1.52e+00	0	51	104	0	7	13590
2026-01-04 09:02:54.92	132.18	6.15	-22.3	-33.1	3.8	1.51e+00	0	51	104	0	12	15459
2026-01-04 09:02:55.93	132.13	6.22	-18.2	-30.1	3.9	1.51e+00	0	51	104	0	8	13835
2026-01-04 09:02:56.95	132.08	6.29	-18.8	-31.4	4.0	1.51e+00	0	51	104	0	7	17053
2026-01-04 09:02:57.96	132.03	6.37	-21.5	-33.9	3.8	1.52e+00	0	51	104	0	11	17946
2026-01-04 09:02:58.97	131.98	6.44	-18.9	-29.8	4.1	1.51e+00	0	51	104	0	7	14145
2026-01-04 09:02:59.98	131.93	6.51	-20.4	-34.3	3.6	1.52e+00	0	51	104	0	9	21070
2026-01-04 09:03:00.99	131.88	6.58	-21.9	-34.1	3.5	1.51e+00	0	51	104	0	15	14611
2026-01-04 09:03:02.00	131.83	6.66	-23.0	-35.1	3.6	1.51e+00	0	51	104	0	12	19598
2026-01-04 09:03:03.01	131.78	6.73	-19.4	-31.0	3.7	1.51e+00	0	51	104	0	6	17098
2026-01-04 09:03:04.02	131.73	6.80	-15.4	-27.6	3.8	1.51e+00	0	51	104	0	6	11672
2026-01-04 09:03:05.03	131.68	6.88	-19.6	-30.6	3.7	1.51e+00	0	51	104	0	5	17426
2026-01-04 09:03:06.04	131.62	6.95	-15.3	-27.9	3.5	1.51e+00	0	51	104	0	6	12055
2026-01-04 09:03:07.06	131.57	7.03	-23.1	-34.0	3.9	1.51e+00	0	51	104	0	14	15401
2026-01-04 09:03:08.07	131.52	7.10	-18.5	-29.0	3.6	1.51e+00	0	51	104	0	7	12881
2026-01-04 09:03:09.08	131.47	7.18	-15.6	-31.5	3.8	1.52e+00	0	51	104	0	12	12877
2026-01-04 09:03:10.09	131.41	7.25	-15.8	-28.7	3.6	1.52e+00	0	51	104	0	6	13258
2026-01-04 09:03:11.10	131.36	7.33	-21.6	-33.2	3.9	1.51e+00	0	51	104	0	13	14741
2026-01-04 09:03:12.11	131.31	7.40	-22.0	-33.1	3.9	1.51e+00	0	51	104	0	11	16416
2026-01-04 09:03:13.12	131.25	7.48	-22.4	-33.9	3.8	1.52e+00	0	51	104	0	13	16010
2026-01-04 09:03:14.13	131.20	7.55	-22.9	-34.9	3.6	1.51e+00	0	51	104	0	13	18042
2026-01-04 09:03:15.14	131.14	7.63	-17.1	-28.6	3.9	1.51e+00	0	51	104	0	7	12323
2026-01-04 09:03:16.15	131.09	7.70	-17.2	-27.9	3.7	1.51e+00	0	51	104	0	5	12743
2026-01-04 09:03:17.17	131.03	7.78	-20.6	-32.9	3.7	1.51e+00	0	52	104	0	15	12786
2026-01-04 09:03:18.18	130.98	7.86	-15.4	-26.8	3.9	1.51e+00	0	52	104	0	5	11248
2026-01-04 09:03:19.19	130.92	7.93	-17.5	-27.8	3.9	1.52e+00	0	52	104	0	9	10008
2026-01-04 09:03:20.20	130.87	8.01	-17.3	-28.2	3.8	1.52e+00	0	52	104	0	6	12508
2026-01-04 09:03:21.21	130.81	8.09	-18.8	-29.4	3.7	1.52e+00	0	52	104	0	9	11979
2026-01-04 09:03:22.22	130.75	8.17	-21.7	-36.0	3.6	1.52e+00	0	52	104	0	15	18242
2026-01-04 09:03:23.23	130.70	8.24	-15.6	-26.4	3.8	1.52e+00	0	52	104	0	2	12728
2026-01-04 09:03:24.24	130.64	8.32	-16.5	-28.3	3.8	1.51e+00	0	52	104	0	5	13392
2026-01-04 09:03:25.25	130.58	8.40	-22.8	-34.7	3.8	1.51e+00	0	52	104	0	15	15695
2026-01-04 09:03:26.26	130.52	8.48	-16.9	-30.1	3.8	1.51e+00	0	52	104	0	7	14548
2026-01-04 09:03:27.26	130.47	8.55	-21.3	-35.8	3.5	1.51e+00	0	52	104	0	14	18944
2026-01-04 09:03:28.27	130.41	8.63	-18.0	-28.5	4.0	1.51e+00	0	52	104	0	6	12829
2026-01-04 09:03:29.28	130.35	8.71	-20.7	-32.2	3.9	1.51e+00	0	52	104	0	10	15617
2026-01-04 09:03:30.29	130.29	8.79	-21.1	-33.2	3.8	1.51e+00	0	52	104	0	13	14825
2026-01-04 09:03:31.30	130.23	8.87	-14.2	-31.0	3.5	1.52e+00	0	52	104	0	4	19280
2026-01-04 09:03:32.31	130.17	8.95	-18.6	-28.9	3.8	1.52e+00	0	52	104	0	6	13448
2026-01-04 09:03:33.32	130.11	9.03	-19.2	-28.4	4.1	1.51e+00	0	52	104	0	3	15160
2026-01-04 09:03:34.33	130.05	9.11	-18.9	-29.8	3.8	1.52e+00	0	52	104	0	8	13330
2026-01-04 09:03:35.34	129.99	9.19	-18.0	-29.1	3.9	1.51e+00	0	52	104	0	4	15498
2026-01-04 09:03:36.35	129.93	9.27	-18.2	-27.7	3.8	1.52e+00	0	52	104	0	6	11768
2026-01-04 09:03:37.36	129.87	9.35	-19.2	-31.9	3.8	1.52e+00	0	53	104	0	13	12729
2026-01-04 09:03:38.37	129.80	9.43	-21.6	-32.3	3.5	1.52e+00	0	52	104	0	11	14986
2026-01-04 09:03:39.38	129.74	9.51	-20.9	-33.2	3.5	1.52e+00	0	53	104	0	15	13128
2026-01-04 09:03:40.40	129.68	9.59	-21.9	-32.9	4.0	1.51e+00	0	52	104	0	14	13437
2026-01-04 09:03:41.41	129.62	9.67	-20.1	-30.1	3.7	1.52e+00	0	53	104	0	8	13799
2026-01-04 09:03:42.41	129.55	9.76	-16.1	-27.2	3.6	1.52e+00	0	53	104	0	2	14046
2026-01-04 09:03:43.42	129.49	9.84	-19.7	-32.3	3.9	1.52e+00	0	53	104	0	10	15866
2026-01-04 09:03:44.43	129.43	9.92	-18.3	-32.4	3.9	1.52e+00	0	53	104	0	6	20155
2026-01-04 09:03:45.44	129.36	10.00	-23.0	-33.2	3.7	1.51e+00	0	53	104	0	12	15657
2026-01-04 09:03:46.45	129.30	10.08	-22.7	-35.3	3.7	1.51e+00	0	53	104	0	12	20002
2026-01-04 09:03:47.46	129.23	10.17	-19.0	-31.4	3.6	1.51e+00	0	53	104	0	9	15098
2026-01-04 09:03:48.47	129.17	10.25	-21.8	-37.6	3.7	1.51e+00	0	53	104	0	17	19572
2026-01-04 09:03:49.48	129.10	10.33	-23.5	-36.0	3.7	1.51e+00	0	53	104	0	12	21652
2026-01-04 09:03:50.49	129.03	10.42	-19.9	-30.1	3.9	1.51e+00	0	53	104	0	9	13079
2026-01-04 09:03:51.51	128.97	10.50	-20.9	-32.6	4.0	1.50e+00	0	53	104	0	14	13051
2026-01-04 09:03:52.52	128.90	10.59	-19.3	-32.7	3.9	1.50e+00	0	53	104	0	12	14816
2026-01-04 09:03:53.53	128.83	10.67	-25.6	-39.0	4.5	1.48e+00	0	53	104	0	21	18193
2026-01-04 09:03:54.54	128.76	10.75	-23.2	-37.1	4.0	1.51e+00	0	53	104	0	20	15486
2026-01-04 09:03:55.55	128.70	10.84	-22.0	-35.3	4.9	1.48e+00	0	53	104	0	20	12594
2026-01-04 09:03:56.56	128.63	10.92	-24.1	-37.3	4.1	1.49e+00	0	53	104	0	16	20015
2026-01-04 09:03:57.57	128.56	11.01	-25.1	-35.7	4.5	1.49e+00	0	53	104	0	16	16545
2026-01-04 09:03:58.58	128.49	11.10	-22.6	-34.9	4.2	1.50e+00	0	53	104	0	12	19161
2026-01-04 09:03:59.59	128.42	11.18	-23.0	-35.3	4.3	1.48e+00	0	53	104	0	18	14159
2026-01-04 09:04:00.60	128.35	11.27	-21.6	-34.7	4.0	1.50e+00	0	53	104	0	13	17607
2026-01-04 09:04:01.61	128.28	11.35	-23.4	-35.6	4.5	1.48e+00	0	53	104	0	18	14553
2026-01-04 09:04:02.62	128.20	11.44	-22.3	-35.4	4.4	1.47e+00	0	53	104	0	17	15091
2026-01-04 09:04:03.63	128.13	11.53	-27.7	-37.4	4.7	1.45e+00	0	53	104	0	22	14370
2026-01-04 09:04:04.64	128.06	11.61	-27.0	-39.5	4.7	1.47e+00	0	53	104	0	23	17100
2026-01-04 09:04:05.65	127.99	11.70	-25.1	-39.9	4.5	1.45e+00	0	53	104	0	21	20074
2026-01-04 09:04:06.66	127.91	11.79	-21.5	-36.5	3.8	1.50e+00	0	53	104	0	19	15323
2026-01-04 09:04:07.67	127.84	11.88	-24.0	-38.0	3.9	1.50e+00	0	53	104	0	18	19270
2026-01-04 09:04:08.68	127.77	11.97	-21.5	-33.2	3.6	1.51e+00	0	54	104	0	16	12455
2026-01-04 09:04:09.69	127.69	12.05	-25.3	-37.6	3.9	1.50e+00	0	53	104	0	17	19402
2026-01-04 09:04:10.70	127.62	12.14	-26.7	-37.8	5.0	1.47e+00	0	54	104	0	24	13371
2026-01-04 09:04:11.72	127.54	12.23	-29.1	-40.4	6.5	1.43e+00	3	53	104	0	30	12776
2026-01-04 09:04:12.73	127.47	12.32	-27.9	-43.3	3.9	1.47e+00	0	54	104	0	31	16834
2026-01-04 09:04:13.74	127.39	12.41	-27.7	-38.5	6.5	9.54e-01	0	53	0	0	30	10293
2026-01-04 09:04:14.74	127.31	12.50	-25.1	-38.5	4.6	1.46e+00	0	53	104	0	23	15264
2026-01-04 09:04:15.76	127.24	12.59	-23.9	-37.6	4.6	1.44e+00	0	53	104	0	21	15431
2026-01-04 09:04:16.77	127.16	12.68	-25.2	-39.4	4.7	1.43e+00	0	54	104	0	28	12778
2026-01-04 09:04:17.78	127.08	12.77	-33.9	-39.9	8.0	7.61e-01	4	54	0	0	30	11960
2026-01-04 09:04:18.79	127.00	12.86	-29.3	-40.2	6.4	8.78e-01	0	54	0	0	29	13113
2026-01-04 09:04:19.80	126.92	12.96	-39.3	-42.8	10.8	4.61e-01	0	54	0	0	45	7097
2026-01-04 09:04:20.81	126.84	13.05	-38.7	-48.0	4.1	1.44e+00	0	54	104	1048576	45	12900
2026-01-04 09:04:21.82	126.76	13.14	-26.4	-38.2	8.9	2.29e-01	18	54	0	1048576	34	7851
2026-01-04 09:04:22.83	126.68	13.23	-34.4	-41.1	8.7	7.66e-01	11	54	0	1048576	35	10337
2026-01-04 09:04:23.84	126.60	13.32	-32.9	-41.1	8.1	4.21e-01	6	54	0	2097152	38	8734
2026-01-04 09:04:24.85	126.52	13.42	-33.0	-40.7	7.9	6.04e-01	5	54	0	2097152	36	9314
2026-01-04 09:04:25.86	126.43	13.51	-27.1	-40.5	4.8	7.17e-01	0	54	104	3145728	30	12895
2026-01-04 09:04:26.86	126.35	13.60	-33.3	-41.0	9.7	4.41e-01	5	54	0	3145728	42	6836
2026-01-04 09:04:27.88	126.27	13.70	-36.3	-41.3	11.5	1.12e-01	6	54	0	6291456	45	5982
2026-01-04 09:04:28.89	126.18	13.79	-38.0	-41.6	11.0	2.24e-01	3	54	0	7340032	44	6553
2026-01-04 09:04:29.90	126.10	13.88	-32.9	-41.4	9.0	2.80e-01	8	54	0	9437184	40	8072
2026-01-04 09:04:30.91	126.01	13.98	-37.6	-42.7	5.0	1.38e+00	0	54	104	11534336	45	6993
2026-01-04 09:04:31.92	125.93	14.07	-38.1	-41.9	11.0	7.80e-02	2	54	0	13631488	47	5664
2026-01-04 09:04:32.93	125.84	14.17	-37.4	-41.6	10.3	1.35e-01	2	54	0	15728640	44	6517
2026-01-04 09:04:33.94	125.76	14.26	-36.4	-41.2	12.7	1.97e-01	1	54	0	18874368	47	5261
2026-01-04 09:04:34.95	125.67	14.36	-37.5	-40.2	11.7	5.11e-02	0	54	0	22020096	42	6211
2026-01-04 09:04:35.96	125.58	14.46	-30.8	-39.4	11.4	3.68e-02	0	54	0	25165824	40	6364
2026-01-04 09:04:36.97	125.49	14.55	-31.5	-39.7	9.9	9.71e-02	0	54	0	28311552	38	7385
2026-01-04 09:04:37.98	125.40	14.65	-32.1	-39.7	14.6	9.73e-03	0	54	0	31457280	45	4965
2026-01-04 09:04:38.99	125.31	14.75	-38.5	-40.2	14.5	2.06e-02	0	54	0	34603008	41	6576
2026-01-04 09:04:40.00	125.22	14.84	-37.6	-40.1	14.2	3.45e-03	0	54	0	37748736	46	4915
2026-01-04 09:04:41.01	125.13	14.94	-37.8	-39.8	15.2	4.02e-03	0	54	0	40894464	46	4728
2026-01-04 09:04:42.02	125.04	15.04	-37.7	-39.8	15.1	9.99e-05	0	54	0	44040192	46	4725
2026-01-04 09:04:43.02	124.95	15.14	-37.7	-39.7	15.3	3.45e-04	0	54	0	47185920	46	4675
2026-01-04 09:04:44.03	124.86	15.23	-37.9	-39.8	15.2	2.85e-03	0	54	0	50331648	46	4725
2026-01-04 09:04:45.04	124.76	15.33	-37.8	-39.7	15.4	1.45e-04	0	54	0	53477376	46	4704
2026-01-04 09:04:46.05	124.67	15.43	-38.0	-40.0	15.2	1.31e-04	0	54	0	56623104	46	4834
2026-01-04 09:04:47.06	124.57	15.53	-37.9	-40.0	15.1	2.31e-04	0	54	0	59768832	46	4815
2026-01-04 09:04:48.07	124.48	15.63	-36.4	-39.6	15.0	1.24e-03	0	54	0	62914560	46	4643
2026-01-04 09:04:49.08	124.38	15.73	-37.7	-39.7	15.1	2.32e-03	0	54	0	66060288	46	4675
2026-01-04 09:04:50.09	124.29	15.83	-37.7	-39.7	14.5	1.07e-03	0	54	0	69206016	46	4686
2026-01-04 09:04:51.10	124.19	15.93	-34.8	-39.3	10.3	6.18e-02	0	54	0	72351744	40	6276
2026-01-04 09:04:52.11	124.09	16.04	-35.9	-39.5	13.3	3.06e-02	0	54	0	75497472	44	5144
2026-01-04 09:04:53.12	123.99	16.14	-37.8	-39.7	15.3	2.72e-04	0	54	0	78643200	46	4686
2026-01-04 09:04:54.13	123.89	16.24	-37.7	-39.7	15.5	2.97e-05	0	54	0	81788928	46	4656
2026-01-04 09:04:55.14	123.79	16.34	-37.8	-39.6	15.7	2.16e-03	0	54	0	84934656	46	4608
2026-01-04 09:04:56.15	123.69	16.44	-37.0	-39.6	13.4	9.87e-03	0	54	0	88080384	45	4883
2026-01-04 09:04:57.16	123.59	16.55	-37.7	-39.6	15.5	5.85e-03	0	54	0	91226112	46	4644
2026-01-04 09:04:58.17	123.49	16.65	-37.9	-39.7	15.3	3.39e-03	0	54	0	94371840	46	4680
2026-01-04 09:04:59.18	123.38	16.75	-37.4	-39.6	14.7	3.52e-03	0	54	0	97517568	45	4906
2026-01-04 09:05:00.19	123.28	16.86	-36.6	-39.6	14.0	5.07e-03	0	54	0	100663296	45	4879
2026-01-04 09:05:01.20	123.18	16.96	-37.8	-39.6	15.7	3.00e-06	0	54	0	103809024	46	4617
2026-01-04 09:05:02.21	123.07	17.07	-37.7	-39.6	15.7	7.35e-04	0	54	0	106954752	46	4632
2026-01-04 09:05:03.22	122.97	17.17	-37.8	-39.6	15.8	6.56e-05	0	54	0	110100480	46	4608
2026-01-04 09:05:04.23	122.86	17.28	-36.5	-39.5	13.2	7.12e-03	0	54	0	113246208	44	5154
2026-01-04 09:05:05.24	122.75	17.38	-36.3	-39.1	15.3	1.77e-03	0	54	0	116391936	45	4614
2026-01-04 09:05:06.25	122.64	17.49	-36.8	-39.5	14.3	6.80e-03	0	54	0	119537664	44	5133
2026-01-04 09:05:07.25	122.54	17.59	-37.6	-39.6	15.2	2.43e-03	0	54	0	123731968	45	4875
2026-01-04 09:05:08.26	122.43	17.70	-36.6	-39.5	14.0	5.69e-03	0	54	0	125829120	44	5155
2026-01-04 09:05:09.27	122.31	17.81	-36.9	-39.6	14.8	1.65e-04	0	54	0	128974848	45	4882
2026-01-04 09:05:10.28	122.20	17.91	-37.3	-39.5	14.6	5.22e-04	0	55	0	132120576	45	4868
2026-01-04 09:05:11.29	122.09	18.02	-37.4	-39.7	14.8	4.58e-04	0	54	0	135266304	45	4928
2026-01-04 09:05:12.30	121.98	18.13	-37.4	-39.7	14.9	7.92e-04	0	55	0	139460608	45	4932
2026-01-04 09:05:13.31	121.86	18.24	-37.2	-39.7	14.8	3.18e-04	0	54	0	142606336	46	4703
2026-01-04 09:05:14.32	121.75	18.35	-37.3	-39.6	15.0	7.55e-05	0	55	0	145752064	45	4895
2026-01-04 09:05:15.33	121.63	18.46	-37.9	-39.7	15.7	1.68e-04	0	55	0	148897792	46	4697
2026-01-04 09:05:16.34	121.52	18.57	-37.9	-39.7	15.7	0.00e+00	0	55	0	150994944	46	4680
2026-01-04 09:05:17.35	121.40	18.68	-37.9	-39.7	15.7	1.50e-06	0	55	0	155189248	46	4683
2026-01-04 09:05:18.36	121.28	18.79	-37.9	-39.7	15.7	0.00e+00	0	55	0	158334976	46	4686
2026-01-04 09:05:19.37	121.16	18.90	-38.0	-39.8	15.6	1.75e-05	0	55	0	161480704	46	4748
2026-01-04 09:05:20.38	121.04	19.01	-37.8	-39.7	15.7	3.05e-05	0	54	0	164626432	46	4667
2026-01-04 09:05:21.39	120.92	19.12	-37.6	-39.3	16.2	0.00e+00	0	55	0	167772160	45	4716
2026-01-04 09:05:22.40	120.80	19.23	-37.3	-39.0	16.5	0.00e+00	0	55	0	170917888	45	4548
2026-01-04 09:05:23.41	120.68	19.34	-37.2	-38.9	16.6	0.00e+00	0	54	0	174063616	45	4525
2026-01-04 09:05:24.42	120.56	19.46	-37.1	-38.7	16.7	7.00e-07	0	55	0	177209344	45	4424
2026-01-04 09:05:25.43	120.43	19.57	-37.2	-38.8	16.7	0.00e+00	0	55	0	180355072	45	4461
2026-01-04 09:05:26.44	120.31	19.68	-37.3	-38.9	16.6	0.00e+00	0	55	0	183500800	45	4498
2026-01-04 09:05:27.45	120.18	19.80	-37.4	-39.0	16.5	0.00e+00	0	55	0	186646528	45	4559
2026-01-04 09:05:28.46	120.05	19.91	-37.3	-39.0	16.5	0.00e+00	0	55	0	189792256	45	4546
2026-01-04 09:05:29.47	119.93	20.03	-37.3	-38.9	16.5	0.00e+00	0	54	0	192937984	45	4524
2026-01-04 09:05:30.48	119.80	20.14	-37.3	-38.9	16.6	0.00e+00	0	55	0	196083712	45	4509
2026-01-04 09:05:31.49	119.67	20.26	-37.3	-39.0	16.5	0.00e+00	0	55	0	199229440	45	4559
2026-01-04 09:05:32.50	119.53	20.37	-37.3	-38.9	16.6	0.00e+00	0	55	0	202375168	45	4496
2026-01-04 09:05:33.51	119.40	20.49	-37.2	-38.8	16.7	0.00e+00	0	55	0	205520896	45	4488
2026-01-04 09:05:34.52	119.27	20.60	-37.3	-38.9	16.6	0.00e+00	0	55	0	208666624	45	4497
2026-01-04 09:05:35.53	119.14	20.72	-37.3	-38.9	16.6	0.00e+00	0	55	0	211812352	45	4515
2026-01-04 09:05:36.54	119.00	20.84	-37.2	-38.8	16.7	0.00e+00	0	55	0	214958080	45	4477
2026-01-04 09:05:37.55	118.86	20.95	-37.2	-38.7	16.8	0.00e+00	0	55	0	218103808	45	4435
2026-01-04 09:05:38.56	118.73	21.07	-37.2	-38.8	16.7	0.00e+00	0	55	0	221249536	45	4481
2026-01-04 09:05:39.57	118.59	21.19	-37.3	-38.9	16.7	0.00e+00	0	55	0	224395264	45	4498
2026-01-04 09:05:40.58	118.45	21.31	-37.3	-38.9	16.6	0.00e+00	0	55	0	227540992	45	4545
2026-01-04 09:05:41.60	118.31	21.43	-37.3	-38.9	16.6	0.00e+00	0	55	0	230686720	45	4531
2026-01-04 09:05:42.61	118.17	21.55	-37.1	-38.7	16.9	0.00e+00	0	55	0	233832448	45	4394
2026-01-04 09:05:43.62	118.02	21.67	-37.0	-38.6	16.9	0.00e+00	0	55	0	236978176	45	4341
2026-01-04 09:05:44.63	117.88	21.79	-36.9	-38.4	17.1	0.00e+00	0	55	0	240123904	45	4277
2026-01-04 09:05:45.64	117.73	21.91	-36.8	-38.3	17.2	0.00e+00	0	55	0	243269632	45	4208
2026-01-04 09:05:46.65	117.59	22.03	-36.8	-38.3	17.2	0.00e+00	0	55	0	246415360	45	4212
2026-01-04 09:05:47.66	117.44	22.15	-36.7	-38.2	17.3	0.00e+00	0	55	0	249561088	45	4188
2026-01-04 09:05:48.67	117.29	22.27	-36.7	-38.3	17.3	0.00e+00	0	55	0	252706816	45	4195
2026-01-04 09:05:49.68	117.14	22.39	-36.7	-38.2	17.4	0.00e+00	0	55	0	255852544	45	4173
2026-01-04 09:05:50.69	116.99	22.51	-36.6	-38.1	17.4	0.00e+00	0	55	0	258998272	45	4123
2026-01-04 09:05:51.70	116.84	22.64	-36.6	-38.0	17.5	0.00e+00	0	55	0	262144000	45	4087
2026-01-04 09:05:52.71	116.69	22.76	-36.6	-38.0	17.5	0.00e+00	0	55	0	265289728	45	4092
2026-01-04 09:05:53.72	116.53	22.88	-36.5	-37.9	17.6	0.00e+00	0	55	0	268435456	45	4047
2026-01-04 09:05:54.73	116.38	23.01	-36.5	-38.0	17.6	0.00e+00	0	55	0	271581184	45	4064
2026-01-04 09:05:55.74	116.22	23.13	-36.5	-37.9	17.6	0.00e+00	0	55	0	274726912	44	4283
2026-01-04 09:05:56.75	116.06	23.26	-36.6	-38.0	17.6	0.00e+00	0	55	0	277872640	44	4323
2026-01-04 09:05:57.76	115.90	23.38	-36.6	-38.1	17.5	0.00e+00	0	55	0	281018368	44	4345
2026-01-04 09:05:58.78	115.74	23.51	-36.6	-38.0	17.5	0.00e+00	0	55	0	284164096	44	4338
2026-01-04 09:05:59.78	115.58	23.63	-36.6	-38.0	17.6	0.00e+00	0	55	0	287309824	44	4329
2026-01-04 09:06:00.80	115.41	23.76	-36.6	-38.0	17.5	0.00e+00	0	55	0	290455552	44	4336
2026-01-04 09:06:01.81	115.25	23.88	-36.6	-38.0	17.6	0.00e+00	0	55	0	293601280	44	4327
2026-01-04 09:06:02.82	115.08	24.01	-36.6	-38.1	17.5	0.00e+00	0	55	0	296747008	44	4351
2026-01-04 09:06:03.83	114.91	24.14	-36.7	-38.1	17.5	0.00e+00	0	55	0	299892736	44	4370
2026-01-04 09:06:04.84	114.75	24.26	-36.8	-38.2	17.4	0.00e+00	0	55	0	303038464	44	4437
2026-01-04 09:06:05.85	114.58	24.39	-36.8	-38.3	17.3	0.00e+00	0	55	0	306184192	44	4445
2026-01-04 09:06:06.86	114.40	24.52	-36.9	-38.4	17.3	0.00e+00	0	55	0	309329920	44	4494
2026-01-04 09:06:07.87	114.23	24.65	-36.9	-38.4	17.2	0.00e+00	0	55	0	312475648	44	4525
2026-01-04 09:06:08.88	114.06	24.78	-36.9	-38.4	17.2	0.00e+00	0	55	0	315621376	44	4529
2026-01-04 09:06:09.89	113.88	24.91	-36.9	-38.4	17.2	0.00e+00	0	55	0	318767104	44	4537
2026-01-04 09:06:10.90	113.70	25.04	-36.8	-38.3	17.3	0.00e+00	0	55	0	321912832	44	4467
2026-01-04 09:06:11.91	113.52	25.16	-36.9	-38.4	17.2	0.00e+00	0	55	0	325058560	44	4538
2026-01-04 09:06:12.92	113.34	25.29	-37.0	-38.6	17.1	0.00e+00	0	55	0	328204288	44	4610
2026-01-04 09:06:13.93	113.16	25.42	-37.1	-38.7	17.0	0.00e+00	0	55	0	331350016	44	4674
2026-01-04 09:06:14.93	112.98	25.55	-37.2	-38.8	16.9	0.00e+00	0	55	0	334495744	45	4447
2026-01-04 09:06:15.94	112.79	25.68	-37.4	-38.9	16.7	0.00e+00	0	55	0	337641472	45	4541
2026-01-04 09:06:16.95	112.61	25.82	-37.5	-39.1	16.6	0.00e+00	0	55	0	340787200	45	4601
2026-01-04 09:06:17.96	112.42	25.95	-37.6	-39.3	16.4	0.00e+00	0	55	0	343932928	45	4730
2026-01-04 09:06:18.97	112.23	26.08	-37.8	-39.5	16.2	0.00e+00	0	55	0	347078656	46	4557
2026-01-04 09:06:19.98	112.04	26.21	-38.0	-39.7	16.0	0.00e+00	0	55	0	350224384	46	4694
2026-01-04 09:06:20.99	111.85	26.34	-37.9	-39.7	16.0	0.00e+00	0	55	0	353370112	46	4652
2026-01-04 09:06:22.00	111.65	26.48	-37.9	-39.7	16.1	0.00e+00	0	55	0	356515840	46	4659
2026-01-04 09:06:23.01	111.46	26.61	-37.8	-39.5	16.2	0.00e+00	0	55	0	359661568	46	4582
2026-01-04 09:06:24.02	111.26	26.74	-37.7	-39.3	16.4	0.00e+00	0	55	0	362807296	46	4463
2026-01-04 09:06:25.03	111.06	26.88	-37.5	-39.1	16.6	0.00e+00	0	55	0	365953024	46	4350
2026-01-04 09:06:26.04	110.86	27.01	-37.3	-38.8	16.9	0.00e+00	0	55	0	369098752	46	4231
2026-01-04 09:06:27.05	110.65	27.14	-37.4	-38.9	16.7	0.00e+00	0	56	0	372244480	46	4277
2026-01-04 09:06:28.06	110.45	27.28	-37.5	-39.1	16.6	0.00e+00	0	55	0	375390208	46	4356
2026-01-04 09:06:29.07	110.24	27.41	-37.4	-39.0	16.7	0.00e+00	0	55	0	378535936	46	4317
2026-01-04 09:06:30.08	110.04	27.55	-37.5	-39.1	16.6	0.00e+00	0	55	0	381681664	46	4369
2026-01-04 09:06:31.09	109.83	27.68	-37.6	-39.2	16.5	0.00e+00	0	55	0	384827392	46	4418
2026-01-04 09:06:32.10	109.61	27.82	-37.6	-39.2	16.5	0.00e+00	0	55	0	387973120	46	4426
2026-01-04 09:06:33.12	109.40	27.95	-37.7	-39.3	16.4	0.00e+00	0	55	0	391118848	46	4467
2026-01-04 09:06:34.13	109.18	28.09	-37.6	-39.2	16.5	0.00e+00	0	56	0	394264576	46	4427
2026-01-04 09:06:35.14	108.97	28.23	-37.5	-39.2	16.6	0.00e+00	0	55	0	397410304	46	4395
2026-01-04 09:06:36.15	108.75	28.36	-37.4	-39.0	16.7	0.00e+00	0	55	0	400556032	46	4313
2026-01-04 09:06:37.16	108.53	28.50	-37.4	-39.0	16.7	0.00e+00	0	55	0	403701760	46	4299
2026-01-04 09:06:38.17	108.30	28.64	-37.4	-39.0	16.8	0.00e+00	0	55	0	406847488	46	4297
2026-01-04 09:06:39.18	108.08	28.77	-37.5	-39.0	16.7	0.00e+00	0	55	0	409993216	46	4335
2026-01-04 09:06:40.19	107.85	28.91	-37.5	-39.1	16.6	0.00e+00	0	56	0	414187520	46	4376
2026-01-04 09:06:41.20	107.62	29.05	-37.6	-39.2	16.4	0.00e+00	0	55	0	417333248	46	4441
2026-01-04 09:06:42.21	107.39	29.18	-37.6	-39.3	16.4	0.00e+00	0	55	0	419430400	46	4463
2026-01-04 09:06:43.22	107.16	29.32	-37.7	-39.4	16.4	0.00e+00	0	55	0	422576128	46	4508
2026-01-04 09:06:44.23	106.92	29.46	-37.8	-39.5	16.2	0.00e+00	0	55	0	425721856	46	4564
2026-01-04 09:06:45.24	106.69	29.59	-37.5	-39.1	16.6	0.00e+00	0	55	0	429916160	46	4383
2026-01-04 09:06:46.25	106.45	29.73	-37.4	-38.9	16.8	0.00e+00	0	55	0	433061888	46	4289
2026-01-04 09:06:47.26	106.21	29.87	-37.3	-38.9	16.8	0.00e+00	0	56	0	436207616	46	4248
2026-01-04 09:06:48.27	105.97	30.01	-37.3	-38.8	16.9	0.00e+00	0	56	0	439353344	46	4240
2026-01-04 09:06:49.28	105.72	30.15	-37.3	-38.9	16.9	0.00e+00	0	55	0	442499072	46	4247
2026-01-04 09:06:50.29	105.47	30.28	-37.3	-38.9	16.8	0.00e+00	0	55	0	444596224	46	4250
2026-01-04 09:06:51.30	105.22	30.42	-37.3	-38.8	16.9	0.00e+00	0	56	0	448790528	46	4219
2026-01-04 09:06:52.30	104.98	30.56	-37.3	-38.8	16.9	0.00e+00	0	56	0	451936256	46	4236
2026-01-04 09:06:53.31	104.72	30.70	-37.4	-38.9	16.8	0.00e+00	0	56	0	455081984	46	4288
2026-01-04 09:06:54.33	104.46	30.84	-37.4	-39.0	16.7	0.00e+00	0	56	0	458227712	46	4314
2026-01-04 09:06:55.34	104.21	30.97	-37.5	-39.1	16.6	0.00e+00	0	55	0	461373440	46	4381
2026-01-04 09:06:56.35	103.95	31.11	-37.6	-39.3	16.5	0.00e+00	0	56	0	464519168	46	4453
2026-01-04 09:06:57.36	103.68	31.25	-37.6	-39.3	16.5	0.00e+00	0	55	0	467664896	46	4449
2026-01-04 09:06:58.36	103.42	31.39	-37.6	-39.2	16.6	0.00e+00	0	56	0	470810624	46	4428
2026-01-04 09:06:59.38	103.15	31.53	-37.5	-39.1	16.7	0.00e+00	0	56	0	473956352	46	4370
2026-01-04 09:07:00.39	102.88	31.66	-37.6	-39.3	16.5	0.00e+00	0	56	0	477102080	46	4450
2026-01-04 09:07:01.39	102.61	31.80	-37.8	-39.4	16.3	0.00e+00	0	56	0	480247808	46	4541
2026-01-04 09:07:02.40	102.34	31.94	-37.8	-39.5	16.3	0.00e+00	0	55	0	483393536	46	4547
2026-01-04 09:07:03.42	102.06	32.08	-37.8	-39.5	16.3	0.00e+00	0	56	0	486539264	46	4574
2026-01-04 09:07:04.43	101.78	32.21	-37.9	-39.5	16.3	0.00e+00	0	56	0	489684992	46	4593
2026-01-04 09:07:05.44	101.50	32.35	-37.8	-39.5	16.3	0.00e+00	0	56	0	492830720	46	4557
2026-01-04 09:07:06.45	101.22	32.49	-37.9	-39.6	16.2	0.00e+00	0	56	0	495976448	46	4607
2026-01-04 09:07:07.46	100.93	32.63	-38.0	-39.7	16.1	0.00e+00	0	56	0	499122176	46	4687
2026-01-04 09:07:08.47	100.65	32.76	-38.1	-39.8	16.0	0.00e+00	0	56	0	502267904	46	4728
2026-01-04 09:07:09.48	100.36	32.90	-38.0	-39.7	16.0	0.00e+00	0	56	0	505413632	46	4694
2026-01-04 09:07:10.49	100.06	33.04	-38.2	-39.9	15.9	0.00e+00	0	56	0	508559360	46	4806
2026-01-04 09:07:11.50	99.77	33.17	-38.3	-40.1	15.7	0.00e+00	0	56	0	511705088	47	4602
2026-01-04 09:07:12.51	99.47	33.31	-38.4	-40.2	15.5	0.00e+00	0	56	0	514850816	47	4699
2026-01-04 09:07:13.52	99.17	33.44	-38.5	-40.3	15.5	0.00e+00	0	56	0	517996544	47	4726
2026-01-04 09:07:14.53	98.87	33.58	-38.5	-40.3	15.4	0.00e+00	0	56	0	521142272	47	4759
2026-01-04 09:07:15.54	98.56	33.71	-38.4	-40.3	15.5	0.00e+00	0	56	0	524288000	47	4716
2026-01-04 09:07:16.55	98.25	33.85	-38.4	-40.2	15.6	0.00e+00	0	56	0	527433728	47	4676
2026-01-04 09:07:17.56	97.94	33.98	-38.4	-40.2	15.6	0.00e+00	0	56	0	530579456	47	4685
2026-01-04 09:07:18.57	97.63	34.12	-38.4	-40.3	15.6	0.00e+00	0	56	0	533725184	47	4707
2026-01-04 09:07:19.58	97.31	34.25	-38.4	-40.2	15.6	0.00e+00	0	56	0	536870912	47	4680
2026-01-04 09:07:20.59	96.99	34.38	-38.4	-40.2	15.6	0.00e+00	0	56	0	540016640	47	4664
2026-01-04 09:07:21.60	96.67	34.52	-38.5	-40.4	15.4	0.00e+00	0	56	0	543162368	47	4777
2026-01-04 09:07:22.61	96.35	34.65	-38.6	-40.5	15.3	0.00e+00	0	56	0	546308096	47	4843
2026-01-04 09:07:23.62	96.02	34.78	-38.9	-40.8	15.1	0.00e+00	0	56	0	549453824	48	4726
2026-01-04 09:07:24.63	95.69	34.91	-38.8	-40.6	15.3	0.00e+00	0	56	0	552599552	48	4638
2026-01-04 09:07:25.64	95.36	35.04	-38.8	-40.6	15.3	0.00e+00	0	56	0	555745280	48	4626
2026-01-04 09:07:26.65	95.03	35.17	-38.9	-40.8	15.1	0.00e+00	0	56	0	558891008	48	4754
2026-01-04 09:07:27.66	94.69	35.30	-39.0	-40.9	14.9	0.00e+00	0	56	0	562036736	48	4797
2026-01-04 09:07:28.67	94.35	35.43	-39.1	-41.0	14.9	0.00e+00	0	56	0	565182464	48	4863
2026-01-04 09:07:29.68	94.01	35.56	-38.9	-40.8	15.0	0.00e+00	0	56	0	568328192	48	4754
2026-01-04 09:07:30.69	93.66	35.69	-38.8	-40.6	15.3	0.00e+00	0	56	0	571473920	48	4637
2026-01-04 09:07:31.70	93.32	35.81	-38.7	-40.6	15.3	0.00e+00	0	56	0	574619648	48	4602
2026-01-04 09:07:32.71	92.97	35.94	-38.7	-40.6	15.3	0.00e+00	0	56	0	577765376	48	4605
2026-01-04 09:07:33.72	92.61	36.06	-38.8	-40.6	15.3	0.00e+00	0	56	0	580911104	48	4647
2026-01-04 09:07:34.73	92.26	36.19	-38.7	-40.5	15.4	0.00e+00	0	56	0	584056832	48	4580
2026-01-04 09:07:35.74	91.90	36.31	-38.7	-40.5	15.4	0.00e+00	0	56	0	587202560	48	4592
2026-01-04 09:07:36.75	91.54	36.43	-38.8	-40.6	15.3	0.00e+00	0	56	0	590348288	48	4650
2026-01-04 09:07:37.76	91.17	36.56	-38.6	-40.5	15.5	0.00e+00	0	56	0	593494016	48	4546
2026-01-04 09:07:38.77	90.81	36.68	-38.5	-40.3	15.6	0.00e+00	0	56	0	596639744	48	4487
2026-01-04 09:07:39.78	90.44	36.80	-38.4	-40.2	15.7	0.00e+00	0	56	0	599785472	48	4416
2026-01-04 09:07:40.79	90.06	36.92	-38.4	-40.2	15.7	0.00e+00	0	56	0	602931200	48	4402
2026-01-04 09:07:41.80	89.69	37.04	-38.4	-40.2	15.8	0.00e+00	0	56	0	606076928	48	4396
2026-01-04 09:07:42.81	89.31	37.15	-38.5	-40.3	15.6	0.00e+00	0	56	0	609222656	48	4475
2026-01-04 09:07:43.82	88.93	37.27	-38.7	-40.5	15.4	0.00e+00	0	56	0	612368384	48	4569
2026-01-04 09:07:44.83	88.55	37.39	-38.7	-40.5	15.5	0.00e+00	0	56	0	615514112	48	4561
2026-01-04 09:07:45.84	88.16	37.50	-38.7	-40.5	15.5	7.00e-07	0	56	0	618659840	48	4557
2026-01-04 09:07:46.85	87.77	37.61	-38.5	-40.3	15.6	0.00e+00	0	56	0	621805568	48	4472
2026-01-04 09:07:47.85	87.39	37.72	-38.7	-40.5	15.4	0.00e+00	0	56	0	624951296	48	4573
2026-01-04 09:07:48.86	86.99	37.83	-38.9	-40.9	15.1	0.00e+00	0	56	0	628097024	48	4761
2026-01-04 09:07:49.87	86.59	37.94	-39.1	-41.1	14.8	0.00e+00	0	56	0	631242752	48	4918
2026-01-04 09:07:50.88	86.20	38.05	-39.3	-41.4	14.6	0.00e+00	0	56	0	634388480	49	4768
2026-01-04 09:07:51.89	85.79	38.16	-39.2	-41.1	14.8	0.00e+00	0	56	0	637534208	49	4644
2026-01-04 09:07:52.90	85.39	38.27	-39.1	-41.0	15.0	0.00e+00	0	56	0	640679936	49	4566
2026-01-04 09:07:53.91	84.98	38.37	-39.0	-40.9	15.0	0.00e+00	0	56	0	643825664	49	4533
2026-01-04 09:07:54.92	84.57	38.47	-39.1	-41.0	14.9	0.00e+00	0	56	0	646971392	49	4585
2026-01-04 09:07:55.94	84.16	38.58	-39.1	-41.0	14.9	0.00e+00	0	56	0	650117120	49	4596
2026-01-04 09:07:56.95	83.74	38.68	-39.1	-41.0	14.9	0.00e+00	0	56	0	653262848	49	4567
2026-01-04 09:07:57.96	83.32	38.78	-39.1	-41.1	14.9	0.00e+00	0	56	0	656408576	49	4627
2026-01-04 09:07:58.97	82.90	38.87	-39.1	-41.0	14.9	0.00e+00	0	56	0	659554304	49	4582
2026-01-04 09:07:59.98	82.48	38.97	-39.0	-40.9	15.0	0.00e+00	0	56	0	662700032	49	4536
2026-01-04 09:08:00.99	82.06	39.06	-38.9	-40.8	15.1	0.00e+00	0	56	0	665845760	49	4465
2026-01-04 09:08:02.00	81.63	39.16	-39.0	-41.0	15.0	0.00e+00	0	56	0	668991488	49	4551
2026-01-04 09:08:03.01	81.20	39.25	-39.0	-40.9	15.0	0.00e+00	0	56	0	672137216	49	4541
2026-01-04 09:08:04.02	80.77	39.34	-38.9	-40.8	15.2	0.00e+00	0	56	0	675282944	49	4465
2026-01-04 09:08:05.03	80.33	39.43	-39.0	-40.9	15.0	0.00e+00	0	56	0	678428672	49	4530
2026-01-04 09:08:06.04	79.89	39.51	-39.2	-41.2	14.7	0.00e+00	0	56	0	681574400	49	4686
2026-01-04 09:08:07.05	79.45	39.60	-39.4	-41.5	14.5	0.00e+00	0	56	0	684720128	49	4830
2026-01-04 09:08:08.06	79.01	39.68	-39.5	-41.6	14.4	1.50e-06	0	56	0	687865856	49	4883
2026-01-04 09:08:09.07	78.57	39.76	-39.4	-41.5	14.5	0.00e+00	0	56	0	691011584	49	4829
2026-01-04 09:08:10.08	78.12	39.84	-39.4	-41.4	14.5	7.00e-07	0	56	0	694157312	49	4793
2026-01-04 09:08:11.09	77.67	39.92	-39.4	-41.4	14.6	0.00e+00	0	56	0	697303040	49	4800
2026-01-04 09:08:12.10	77.22	40.00	-39.3	-41.3	14.7	1.50e-06	0	56	0	700448768	49	4716
2026-01-04 09:08:13.11	76.77	40.07	-38.9	-40.8	15.2	0.00e+00	0	56	0	703594496	49	4455
2026-01-04 09:08:14.12	76.32	40.14	-38.8	-40.6	15.4	0.00e+00	0	56	0	706740224	49	4359
2026-01-04 09:08:15.13	75.86	40.21	-38.8	-40.7	15.3	0.00e+00	0	56	0	709885952	49	4406
2026-01-04 09:08:16.14	75.40	40.28	-38.9	-40.7	15.3	0.00e+00	0	56	0	713031680	49	4414
2026-01-04 09:08:17.15	74.94	40.35	-39.1	-41.0	15.1	0.00e+00	0	56	0	716177408	49	4569
2026-01-04 09:08:18.16	74.48	40.41	-39.2	-41.2	14.9	0.00e+00	0	56	0	719323136	49	4654
2026-01-04 09:08:19.17	74.02	40.47	-39.2	-41.1	14.9	7.00e-07	0	56	0	722468864	49	4624
2026-01-04 09:08:20.18	73.55	40.53	-39.1	-41.0	15.0	0.00e+00	0	56	0	725614592	49	4591
2026-01-04 09:08:21.19	73.08	40.59	-39.2	-41.1	14.9	0.00e+00	0	56	0	729808896	49	4650
2026-01-04 09:08:22.20	72.61	40.65	-39.0	-40.9	15.1	0.00e+00	0	56	0	732954624	49	4508
2026-01-04 09:08:23.21	72.14	40.70	-39.0	-40.9	15.2	0.00e+00	0	56	0	735051776	49	4514
2026-01-04 09:08:24.23	71.67	40.75	-39.1	-41.1	14.9	0.00e+00	0	56	0	738197504	49	4615
2026-01-04 09:08:25.23	71.20	40.80	-39.3	-41.3	14.7	0.00e+00	0	56	0	741343232	49	4715
2026-01-04 09:08:26.24	70.72	40.85	-39.5	-41.5	14.5	7.00e-07	0	56	0	745537536	49	4843
2026-01-04 09:08:27.25	70.24	40.90	-39.6	-41.7	14.3	0.00e+00	0	56	0	748683264	49	4974
2026-01-04 09:08:28.26	69.77	40.94	-39.8	-41.9	14.1	2.20e-06	0	56	0	751828992	50	4808
2026-01-04 09:08:29.27	69.29	40.98	-39.9	-42.1	14.0	1.50e-06	0	56	0	754974720	50	4876
2026-01-04 09:08:30.28	68.81	41.02	-39.8	-42.0	14.1	7.00e-07	0	56	0	758120448	50	4819
2026-01-04 09:08:31.29	68.33	41.06	-39.7	-41.8	14.3	2.20e-06	0	56	0	761266176	50	4756
2026-01-04 09:08:32.30	67.84	41.09	-39.7	-41.8	14.3	0.00e+00	0	56	0	764411904	50	4721
2026-01-04 09:08:33.32	67.36	41.12	-39.9	-42.1	14.0	2.20e-06	0	56	0	767557632	50	4902
2026-01-04 09:08:34.33	66.87	41.15	-40.0	-42.3	13.8	3.80e-06	0	56	0	770703360	50	4986
2026-01-04 09:08:35.34	66.39	41.18	-40.0	-42.2	13.8	2.20e-06	0	56	0	773849088	50	4969
2026-01-04 09:08:36.35	65.90	41.21	-40.1	-42.3	13.7	5.30e-06	0	56	0	776994816	50	5040
2026-01-04 09:08:37.36	65.41	41.23	-40.0	-42.2	13.8	7.60e-06	0	56	0	780140544	50	4976
2026-01-04 09:08:38.37	64.93	41.25	-39.8	-41.9	14.1	7.00e-07	0	56	0	783286272	50	4798
2026-01-04 09:08:39.38	64.44	41.27	-39.7	-41.8	14.2	7.00e-07	0	56	0	786432000	50	4740
2026-01-04 09:08:40.39	63.95	41.28	-39.8	-41.9	14.1	7.00e-07	0	56	0	789577728	50	4783
2026-01-04 09:08:41.40	63.46	41.30	-40.0	-42.2	13.9	3.80e-06	0	56	0	792723456	50	4961
2026-01-04 09:08:42.41	62.97	41.31	-39.9	-42.1	13.9	5.30e-06	0	56	0	795869184	50	4877
2026-01-04 09:08:43.42	62.48	41.32	-39.8	-41.9	14.1	3.00e-06	0	56	0	799014912	50	4805
2026-01-04 09:08:44.43	61.99	41.32	-39.6	-41.7	14.3	1.50e-06	0	56	0	802160640	50	4678
2026-01-04 09:08:45.44	61.50	41.33	-39.6	-41.6	14.4	1.50e-06	0	56	0	805306368	50	4647
2026-01-04 09:08:46.45	61.01	41.33	-39.5	-41.5	14.6	0.00e+00	0	56	0	808452096	50	4587
2026-01-04 09:08:47.46	60.52	41.33	-39.4	-41.5	14.6	7.00e-07	0	56	0	811597824	50	4552
2026-01-04 09:08:48.47	60.03	41.33	-39.5	-41.5	14.5	0.00e+00	0	56	0	814743552	50	4593
2026-01-04 09:08:49.48	59.54	41.32	-39.6	-41.7	14.4	2.20e-06	0	56	0	817889280	50	4676
2026-01-04 09:08:50.49	59.05	41.31	-39.8	-41.9	14.1	7.00e-07	0	56	0	821035008	50	4813
2026-01-04 09:08:51.50	58.57	41.30	-39.7	-41.9	14.1	3.00e-06	0	56	0	824180736	50	4777
2026-01-04 09:08:52.51	58.08	41.29	-39.7	-41.8	14.2	1.50e-06	0	56	0	827326464	50	4709
2026-01-04 09:08:53.53	57.58	41.27	-39.6	-41.8	14.3	0.00e+00	0	56	0	830472192	50	4707
2026-01-04 09:08:54.53	57.10	41.26	-39.6	-41.7	14.4	1.50e-06	0	56	0	833617920	50	4667
2026-01-04 09:08:55.55	56.61	41.24	-39.5	-41.6	14.5	0.00e+00	0	56	0	836763648	50	4618
2026-01-04 09:08:56.56	56.12	41.22	-39.6	-41.7	14.4	2.20e-06	0	56	0	839909376	50	4668
2026-01-04 09:08:57.57	55.64	41.19	-39.6	-41.7	14.3	2.20e-06	0	56	0	843055104	50	4694
2026-01-04 09:08:58.58	55.15	41.16	-39.7	-41.8	14.3	0.00e+00	0	56	0	846200832	50	4724
2026-01-04 09:08:59.59	54.67	41.14	-39.8	-42.0	14.1	2.20e-06	0	56	0	849346560	50	4835
2026-01-04 09:09:00.60	54.18	41.10	-39.7	-41.7	14.3	1.50e-06	0	56	0	852492288	50	4702
2026-01-04 09:09:01.61	53.70	41.07	-39.5	-41.5	14.6	7.00e-07	0	56	0	855638016	50	4564
2026-01-04 09:09:02.62	53.22	41.04	-39.4	-41.3	14.7	0.00e+00	0	56	0	858783744	50	4481
2026-01-04 09:09:03.63	52.74	41.00	-39.4	-41.4	14.7	0.00e+00	0	56	0	861929472	50	4529
2026-01-04 09:09:04.64	52.26	40.96	-39.6	-41.7	14.4	2.20e-06	0	56	0	865075200	50	4686
2026-01-04 09:09:05.65	51.78	40.91	-40.0	-42.2	13.9	4.50e-06	0	56	0	868220928	50	4963
2026-01-04 09:09:06.66	51.31	40.87	-40.4	-42.9	13.2	2.97e-05	0	56	0	871366656	51	5069
2026-01-04 09:09:07.67	50.83	40.82	-40.6	-43.1	13.0	3.96e-05	0	56	0	874512384	51	5169
2026-01-04 09:09:08.68	50.36	40.77	-40.0	-42.3	13.8	1.06e-05	0	56	0	877658112	51	4733
2026-01-04 09:09:09.69	49.89	40.72	-39.7	-41.8	14.3	2.20e-06	0	56	0	880803840	51	4452
2026-01-04 09:09:10.70	49.41	40.67	-39.3	-41.3	14.8	0.00e+00	0	56	0	883949568	50	4464
2026-01-04 09:09:11.71	48.95	40.62	-39.4	-41.3	14.8	7.00e-07	0	56	0	887095296	50	4481
2026-01-04 09:09:12.72	48.48	40.56	-39.3	-41.3	14.8	7.00e-07	0	56	0	890241024	50	4469
2026-01-04 09:09:13.73	48.01	40.50	-39.5	-41.5	14.6	0.00e+00	0	56	0	893386752	50	4589
2026-01-04 09:09:14.74	47.55	40.44	-39.6	-41.6	14.5	1.50e-06	0	56	0	896532480	50	4633
2026-01-04 09:09:15.75	47.09	40.37	-39.6	-41.7	14.4	0.00e+00	0	56	0	899678208	50	4657
2026-01-04 09:09:16.76	46.63	40.31	-39.8	-42.0	14.1	0.00e+00	0	56	0	902823936	50	4847
2026-01-04 09:09:17.77	46.17	40.24	-39.9	-42.2	13.9	7.00e-07	0	56	0	905969664	50	4938
2026-01-04 09:09:18.78	45.71	40.17	-39.9	-42.1	14.0	6.10e-06	0	56	0	909115392	50	4907
2026-01-04 09:09:19.79	45.26	40.10	-39.8	-42.0	14.1	3.00e-06	0	56	0	912261120	50	4824
2026-01-04 09:09:20.80	44.80	40.03	-39.6	-41.7	14.4	7.00e-07	0	56	0	915406848	50	4673
2026-01-04 09:09:21.81	44.35	39.95	-39.5	-41.6	14.5	0.00e+00	0	56	0	918552576	50	4620
2026-01-04 09:09:22.82	43.91	39.87	-39.3	-41.3	14.8	0.00e+00	0	56	0	921698304	50	4487
2026-01-04 09:09:23.83	43.46	39.80	-39.2	-41.2	14.9	0.00e+00	0	56	0	924844032	50	4392
2026-01-04 09:09:24.84	43.02	39.72	-39.3	-41.3	14.8	7.00e-07	0	56	0	927989760	50	4454
2026-01-04 09:09:25.85	42.57	39.63	-39.7	-41.8	14.4	7.00e-07	0	56	0	931135488	50	4709
2026-01-04 09:09:26.86	42.13	39.55	-40.0	-42.2	13.9	3.00e-06	0	56	0	934281216	50	4970
2026-01-04 09:09:27.87	41.70	39.46	-40.4	-42.8	13.2	1.44e-05	0	56	0	937426944	51	5039
2026-01-04 09:09:28.88	41.26	39.38	-40.6	-43.1	13.0	4.11e-05	0	56	0	940572672	51	5176
2026-01-04 09:09:29.89	40.83	39.29	-40.3	-42.6	13.4	1.98e-05	0	56	0	943718400	51	4904
2026-01-04 09:09:30.90	40.40	39.20	-39.8	-42.0	14.1	3.00e-06	0	56	0	946864128	51	4564
2026-01-04 09:09:31.91	39.97	39.11	-39.6	-41.7	14.3	7.00e-07	0	56	0	950009856	51	4428
2026-01-04 09:09:32.92	39.55	39.01	-39.3	-41.3	14.8	0.00e+00	0	56	0	953155584	50	4458
2026-01-04 09:09:33.93	39.13	38.92	-39.1	-41.0	15.0	0.00e+00	0	56	0	956301312	50	4339
2026-01-04 09:09:34.94	38.71	38.82	-39.4	-41.4	14.6	0.00e+00	0	56	0	959447040	50	4541
2026-01-04 09:09:35.95	38.29	38.72	-39.8	-42.0	14.1	0.00e+00	0	56	0	962592768	50	4852
2026-01-04 09:09:36.96	37.87	38.62	-40.0	-42.2	13.9	1.50e-06	0	56	0	965738496	50	4962
2026-01-04 09:09:37.97	37.46	38.52	-39.7	-41.8	14.3	3.00e-06	0	56	0	968884224	50	4724
2026-01-04 09:09:38.98	37.05	38.42	-39.2	-41.1	15.0	0.00e+00	0	56	0	972029952	50	4377
2026-01-04 09:09:39.99	36.64	38.31	-38.8	-40.7	15.4	0.00e+00	0	56	0	975175680	49	4396
2026-01-04 09:09:41.00	36.24	38.21	-38.8	-40.6	15.5	0.00e+00	0	56	0	978321408	49	4367
2026-01-04 09:09:42.02	35.83	38.10	-39.1	-41.0	15.0	0.00e+00	0	56	0	981467136	49	4575
2026-01-04 09:09:43.03	35.43	37.99	-39.5	-41.6	14.5	0.00e+00	0	56	0	984612864	49	4904
2026-01-04 09:09:44.04	35.04	37.89	-39.8	-41.9	14.1	0.00e+00	0	56	0	987758592	50	4785
2026-01-04 09:09:45.05	34.64	37.78	-39.6	-41.7	14.4	7.00e-07	0	56	0	990904320	50	4673
2026-01-04 09:09:46.06	34.25	37.66	-39.2	-41.1	14.9	7.00e-07	0	56	0	994050048	50	4387
2026-01-04 09:09:47.07	33.86	37.55	-38.7	-40.6	15.5	0.00e+00	0	56	0	997195776	49	4346
2026-01-04 09:09:48.08	33.48	37.44	-38.6	-40.4	15.6	0.00e+00	0	56	0	1000341504	49	4284
2026-01-04 09:09:49.09	33.10	37.32	-39.0	-40.9	15.1	7.00e-07	0	56	0	1003487232	49	4541
2026-01-04 09:09:50.10	32.71	37.21	-39.6	-41.7	14.3	0.00e+00	0	56	0	1006632960	49	4981
2026-01-04 09:09:51.11	32.34	37.09	-40.0	-42.3	13.7	5.30e-06	0	56	0	1009778688	50	5024
2026-01-04 09:09:52.12	31.96	36.97	-40.1	-42.4	13.6	1.14e-05	0	56	0	1012924416	50	5080
2026-01-04 09:09:53.13	31.59	36.86	-39.8	-42.0	14.0	3.00e-06	0	56	0	1016070144	50	4825
2026-01-04 09:09:54.14	31.22	36.74	-39.3	-41.3	14.7	0.00e+00	0	56	0	1020264448	50	4455
2026-01-04 09:09:55.15	30.85	36.62	-39.2	-41.2	14.9	0.00e+00	0	56	0	1023410176	50	4397
2026-01-04 09:09:56.16	30.49	36.50	-38.7	-40.5	15.5	0.00e+00	0	56	0	1026555904	49	4329
2026-01-04 09:09:57.17	30.13	36.37	-38.5	-40.3	15.7	0.00e+00	0	56	0	1028653056	49	4214
2026-01-04 09:09:58.18	29.77	36.25	-39.0	-40.9	15.2	0.00e+00	0	56	0	1031798784	49	4511
2026-01-04 09:09:59.19	29.41	36.13	-39.5	-41.5	14.7	0.00e+00	0	56	0	1035993088	49	4838
2026-01-04 09:10:00.20	29.06	36.00	-39.6	-41.7	14.4	7.00e-07	0	56	0	1039138816	49	4932
2026-01-04 09:10:01.21	28.71	35.88	-39.4	-41.4	14.6	0.00e+00	0	56	0	1042284544	49	4777
2026-01-04 09:10:02.22	28.36	35.75	-39.1	-41.1	15.0	0.00e+00	0	56	0	1045430272	49	4604
2026-01-04 09:10:03.23	28.02	35.62	-39.1	-41.0	15.1	0.00e+00	0	56	0	1048576000	49	4572
2026-01-04 09:10:04.24	27.68	35.50	-38.6	-40.4	15.7	0.00e+00	0	56	0	1051721728	49	4272
2026-01-04 09:10:05.25	27.34	35.37	-38.9	-40.8	15.3	0.00e+00	0	56	0	1054867456	49	4447
2026-01-04 09:10:06.26	27.00	35.24	-39.5	-41.6	14.5	7.00e-07	0	56	0	1058013184	49	4906
2026-01-04 09:10:07.27	26.67	35.11	-40.1	-42.4	13.7	3.00e-06	0	56	0	1061158912	50	5070
2026-01-04 09:10:08.28	26.33	34.98	-40.2	-42.5	13.6	9.10e-06	0	56	0	1064304640	51	4854
2026-01-04 09:10:09.29	26.01	34.85	-39.8	-42.0	14.0	2.20e-06	0	56	0	1067450368	51	4583
2026-01-04 09:10:10.30	25.68	34.72	-39.3	-41.4	14.7	7.00e-07	0	56	0	1070596096	50	4532
2026-01-04 09:10:11.31	25.36	34.59	-39.0	-40.9	15.1	0.00e+00	0	56	0	1073741824	50	4281
2026-01-04 09:10:12.32	25.04	34.46	-38.9	-40.8	15.3	0.00e+00	0	56	0	1076887552	49	4475
2026-01-04 09:10:13.33	24.72	34.32	-39.0	-40.9	15.2	0.00e+00	0	56	0	1080033280	49	4503
2026-01-04 09:10:14.34	24.40	34.19	-38.9	-40.8	15.2	0.00e+00	0	56	0	1083179008	49	4475
2026-01-04 09:10:15.35	24.09	34.06	-38.9	-40.8	15.2	0.00e+00	0	56	0	1086324736	49	4485
2026-01-04 09:10:16.36	23.78	33.93	-39.0	-40.9	15.2	0.00e+00	0	56	0	1089470464	49	4504
2026-01-04 09:10:17.37	23.47	33.79	-38.8	-40.6	15.5	0.00e+00	0	56	0	1092616192	49	4376
2026-01-04 09:10:18.38	23.17	33.66	-38.5	-40.3	15.8	0.00e+00	0	56	0	1095761920	49	4200
2026-01-04 09:10:19.39	22.86	33.52	-38.1	-39.8	16.3	0.00e+00	0	56	0	1098907648	48	4217
2026-01-04 09:10:20.40	22.56	33.39	-37.9	-39.5	16.5	0.00e+00	0	56	0	1102053376	47	4318
2026-01-04 09:10:21.41	22.26	33.25	-37.8	-39.4	16.6	0.00e+00	0	56	0	1105199104	47	4258
2026-01-04 09:10:22.42	21.97	33.12	-37.8	-39.5	16.5	0.00e+00	0	56	0	1108344832	47	4304
2026-01-04 09:10:23.43	21.68	32.98	-38.1	-39.8	16.1	0.00e+00	0	56	0	1111490560	47	4480
2026-01-04 09:10:24.44	21.39	32.85	-38.4	-40.1	15.8	0.00e+00	0	56	0	1114636288	47	4643
2026-01-04 09:10:25.45	21.10	32.71	-38.7	-40.6	15.5	0.00e+00	0	56	0	1117782016	47	4871
2026-01-04 09:10:26.46	20.81	32.57	-38.7	-40.6	15.4	0.00e+00	0	56	0	1120927744	47	4878
2026-01-04 09:10:27.47	20.53	32.44	-38.5	-40.3	15.6	0.00e+00	0	57	0	1124073472	47	4756
2026-01-04 09:10:28.48	20.25	32.30	-38.1	-39.9	16.1	0.00e+00	0	56	0	1127219200	47	4494
2026-01-04 09:10:29.49	19.97	32.16	-38.0	-39.6	16.3	0.00e+00	0	56	0	1130364928	47	4379
2026-01-04 09:10:30.50	19.69	32.03	-37.9	-39.5	16.5	0.00e+00	0	56	0	1133510656	47	4316
2026-01-04 09:10:31.51	19.42	31.89	-38.0	-39.7	16.3	0.00e+00	0	56	0	1136656384	47	4415
2026-01-04 09:10:32.52	19.15	31.75	-38.2	-39.9	16.0	0.00e+00	0	57	0	1139802112	47	4515
2026-01-04 09:10:33.53	18.88	31.62	-38.3	-40.1	15.8	0.00e+00	0	56	0	1142947840	47	4636
2026-01-04 09:10:34.54	18.61	31.48	-38.4	-40.2	15.7	0.00e+00	0	56	0	1146093568	47	4694
2026-01-04 09:10:35.55	18.35	31.34	-38.4	-40.2	15.8	0.00e+00	0	56	0	1149239296	47	4668
2026-01-04 09:10:36.56	18.09	31.20	-38.3	-40.1	15.9	0.00e+00	0	56	0	1152385024	47	4599
2026-01-04 09:10:37.57	17.83	31.07	-38.1	-39.9	16.0	0.00e+00	0	56	0	1155530752	47	4501
2026-01-04 09:10:38.58	17.57	30.93	-38.1	-39.8	16.1	0.00e+00	0	57	0	1158676480	47	4465
2026-01-04 09:10:39.59	17.32	30.79	-38.1	-39.8	16.1	0.00e+00	0	56	0	1161822208	47	4479
2026-01-04 09:10:40.60	17.06	30.65	-38.1	-39.8	16.2	0.00e+00	0	57	0	1164967936	47	4454
2026-01-04 09:10:41.61	16.81	30.52	-38.0	-39.7	16.2	0.00e+00	0	56	0	1168113664	47	4419
2026-01-04 09:10:42.62	16.56	30.38	-38.1	-39.8	16.1	0.00e+00	0	56	0	1171259392	47	4469
2026-01-04 09:10:43.63	16.32	30.24	-38.2	-39.9	16.0	0.00e+00	0	57	0	1174405120	47	4525
2026-01-04 09:10:44.64	16.07	30.10	-38.1	-39.8	16.0	0.00e+00	0	56	0	1177550848	47	4492
2026-01-04 09:10:45.65	15.83	29.97	-38.1	-39.8	16.1	0.00e+00	0	56	0	1180696576	47	4453
2026-01-04 09:10:46.66	15.59	29.83	-37.6	-39.1	16.7	0.00e+00	0	56	0	1183842304	47	4143
2026-01-04 09:10:47.67	15.35	29.69	-37.0	-38.5	17.3	0.00e+00	0	56	0	1186988032	46	4069
2026-01-04 09:10:48.68	15.11	29.56	-36.6	-38.0	17.7	0.00e+00	0	56	0	1190133760	45	4089
2026-01-04 09:10:49.70	14.88	29.42	-36.6	-37.9	17.9	0.00e+00	0	56	0	1193279488	45	4038
2026-01-04 09:10:50.71	14.64	29.28	-36.6	-38.0	17.9	0.00e+00	0	56	0	1196425216	45	4055
2026-01-04 09:10:51.72	14.41	29.15	-36.7	-38.2	17.6	0.00e+00	0	56	0	1199570944	45	4154
2026-01-04 09:10:52.73	14.19	29.01	-37.0	-38.5	17.3	0.00e+00	0	56	0	1202716672	45	4326
2026-01-04 09:10:53.74	13.96	28.87	-37.4	-39.0	16.9	0.00e+00	0	56	0	1205862400	45	4555
2026-01-04 09:10:54.75	13.73	28.74	-37.7	-39.3	16.6	0.00e+00	0	56	0	1209008128	45	4733
2026-01-04 09:10:55.76	13.51	28.60	-37.9	-39.6	16.2	0.00e+00	0	57	0	1212153856	46	4648
2026-01-04 09:10:56.77	13.29	28.47	-38.1	-39.8	16.1	0.00e+00	0	56	0	1215299584	46	4733
2026-01-04 09:10:57.78	13.07	28.33	-37.8	-39.5	16.4	0.00e+00	0	57	0	1218445312	46	4564
2026-01-04 09:10:58.79	12.86	28.19	-37.6	-39.2	16.6	0.00e+00	0	56	0	1221591040	46	4435
2026-01-04 09:10:59.80	12.64	28.06	-37.6	-39.2	16.6	0.00e+00	0	56	0	1224736768	46	4437
2026-01-04 09:11:00.81	12.43	27.92	-37.7	-39.3	16.5	0.00e+00	0	56	0	1227882496	46	4478
2026-01-04 09:11:01.82	12.22	27.79	-37.7	-39.3	16.6	0.00e+00	0	56	0	1231028224	46	4454
2026-01-04 09:11:02.83	12.01	27.66	-37.5	-39.1	16.7	0.00e+00	0	56	0	1234173952	46	4382
2026-01-04 09:11:03.84	11.80	27.52	-37.4	-39.0	16.8	0.00e+00	0	56	0	1237319680	46	4316
2026-01-04 09:11:04.85	11.59	27.39	-37.5	-39.1	16.8	0.00e+00	0	56	0	1240465408	46	4352
2026-01-04 09:11:05.86	11.39	27.25	-37.6	-39.2	16.7	0.00e+00	0	56	0	1243611136	46	4396
2026-01-04 09:11:06.87	11.19	27.12	-37.7	-39.4	16.5	0.00e+00	0	56	0	1246756864	46	4510
2026-01-04 09:11:07.88	10.99	26.99	-37.8	-39.5	16.4	0.00e+00	0	56	0	1249902592	46	4563
2026-01-04 09:11:08.89	10.79	26.85	-37.8	-39.4	16.4	0.00e+00	0	56	0	1253048320	46	4540
2026-01-04 09:11:09.90	10.59	26.72	-37.6	-39.2	16.6	0.00e+00	0	56	0	1256194048	46	4416
2026-01-04 09:11:10.90	10.40	26.59	-37.5	-39.1	16.7	0.00e+00	0	56	0	1259339776	46	4369
2026-01-04 09:11:11.91	10.20	26.46	-37.3	-38.9	16.9	0.00e+00	0	56	0	1262485504	46	4266
2026-01-04 09:11:12.92	10.01	26.33	-37.1	-38.6	17.2	0.00e+00	0	56	0	1265631232	46	4134
2026-01-04 09:11:13.94	9.82	26.19	-36.9	-38.4	17.4	0.00e+00	0	56	0	1268776960	45	4262
2026-01-04 09:11:14.94	9.63	26.06	-36.8	-38.3	17.5	0.00e+00	0	56	0	1271922688	45	4214
2026-01-04 09:11:15.96	9.44	25.93	-36.7	-38.1	17.6	0.00e+00	0	56	0	1275068416	45	4138
2026-01-04 09:11:16.97	9.25	25.80	-36.6	-38.0	17.7	0.00e+00	0	56	0	1278214144	45	4088
2026-01-04 09:11:17.98	9.07	25.67	-36.6	-38.1	17.7	0.00e+00	0	56	0	1281359872	45	4105
2026-01-04 09:11:18.98	8.89	25.54	-36.7	-38.2	17.6	0.00e+00	0	56	0	1284505600	45	4147
2026-01-04 09:11:19.99	8.71	25.41	-36.8	-38.3	17.4	0.00e+00	0	56	0	1287651328	45	4214
2026-01-04 09:11:21.00	8.53	25.28	-36.9	-38.5	17.2	0.00e+00	0	56	0	1290797056	45	4302
2026-01-04 09:11:22.02	8.35	25.15	-36.9	-38.4	17.3	0.00e+00	0	56	0	1293942784	45	4284
2026-01-04 09:11:23.03	8.17	25.02	-36.9	-38.5	17.2	0.00e+00	0	56	0	1297088512	45	4322
2026-01-04 09:11:24.04	7.99	24.90	-37.0	-38.6	17.1	0.00e+00	0	56	0	1300234240	45	4357
2026-01-04 09:11:25.05	7.82	24.77	-37.0	-38.6	17.1	0.00e+00	0	56	0	1303379968	45	4362
2026-01-04 09:11:26.06	7.65	24.64	-37.0	-38.6	17.1	0.00e+00	0	56	0	1306525696	45	4375
2026-01-04 09:11:27.06	7.48	24.51	-37.1	-38.7	17.0	0.00e+00	0	56	0	1309671424	45	4441
2026-01-04 09:11:28.07	7.31	24.39	-37.3	-38.9	16.8	0.00e+00	0	56	0	1312817152	45	4529
2026-01-04 09:11:29.08	7.14	24.26	-37.4	-39.0	16.7	0.00e+00	0	56	0	1315962880	45	4573
2026-01-04 09:11:30.10	6.97	24.13	-37.5	-39.2	16.5	0.00e+00	0	56	0	1319108608	45	4686
2026-01-04 09:11:31.10	6.81	24.01	-37.6	-39.2	16.5	0.00e+00	0	56	0	1322254336	45	4701
2026-01-04 09:11:32.12	6.64	23.88	-37.6	-39.3	16.4	0.00e+00	0	57	0	1325400064	45	4741
2026-01-04 09:11:33.13	6.48	23.75	-37.6	-39.4	16.3	0.00e+00	0	56	0	1328545792	45	4783
2026-01-04 09:11:34.14	6.31	23.63	-37.6	-39.4	16.3	0.00e+00	0	56	0	1331691520	45	4801
2026-01-04 09:11:35.15	6.15	23.51	-37.7	-39.4	16.3	0.00e+00	0	56	0	1335885824	45	4803
2026-01-04 09:11:36.16	6.00	23.38	-37.6	-39.3	16.4	0.00e+00	0	57	0	1339031552	45	4716
2026-01-04 09:11:37.17	5.84	23.26	-37.5	-39.1	16.5	0.00e+00	0	56	0	1342177280	45	4635
2026-01-04 09:11:38.18	5.68	23.13	-37.5	-39.1	16.5	0.00e+00	0	56	0	1344274432	45	4633
2026-01-04 09:11:39.19	5.53	23.01	-37.4	-39.0	16.6	0.00e+00	0	56	0	1347420160	45	4594
2026-01-04 09:11:40.20	5.37	22.89	-37.3	-39.0	16.6	0.00e+00	0	56	0	1351614464	45	4554
2026-01-04 09:11:41.21	5.22	22.77	-37.3	-38.9	16.6	0.00e+00	0	56	0	1354760192	45	4507
2026-01-04 09:11:42.22	5.07	22.64	-37.3	-38.9	16.6	0.00e+00	0	57	0	1357905920	45	4504
2026-01-04 09:11:43.23	4.92	22.52	-37.2	-38.9	16.7	0.00e+00	0	56	0	1361051648	45	4494
2026-01-04 09:11:44.24	4.77	22.40	-37.3	-38.9	16.7	0.00e+00	0	56	0	1364197376	45	4516
2026-01-04 09:11:45.25	4.62	22.28	-37.3	-38.9	16.7	0.00e+00	0	56	0	1367343104	45	4540
2026-01-04 09:11:46.26	4.47	22.16	-37.4	-39.1	16.5	0.00e+00	0	56	0	1370488832	45	4601
2026-01-04 09:11:47.27	4.33	22.04	-37.5	-39.2	16.4	0.00e+00	0	56	0	1373634560	45	4661
2026-01-04 09:11:48.28	4.18	21.92	-37.6	-39.3	16.2	0.00e+00	0	57	0	1376780288	45	4711
2026-01-04 09:11:49.29	4.04	21.80	-37.4	-39.0	16.3	0.00e+00	0	56	0	1379926016	45	4581
2026-01-04 09:11:50.30	3.90	21.68	-37.2	-38.7	16.6	0.00e+00	0	56	0	1383071744	45	4441
2026-01-04 09:11:51.31	3.76	21.56	-37.1	-38.6	16.8	0.00e+00	0	56	0	1386217472	45	4373
2026-01-04 09:11:52.32	3.62	21.44	-37.1	-38.7	16.8	0.00e+00	0	56	0	1389363200	45	4403
2026-01-04 09:11:53.33	3.48	21.32	-37.1	-38.6	16.9	0.00e+00	0	57	0	1392508928	45	4387
2026-01-04 09:11:54.34	3.34	21.21	-37.1	-38.7	16.8	0.00e+00	0	57	0	1395654656	45	4403
2026-01-04 09:11:55.35	3.20	21.09	-37.1	-38.6	16.9	0.00e+00	0	56	0	1398800384	45	4390
2026-01-04 09:11:56.36	3.07	20.97	-37.1	-38.7	16.8	0.00e+00	0	56	0	1401946112	45	4423
2026-01-04 09:11:57.37	2.93	20.86	-37.2	-38.8	16.7	0.00e+00	0	56	0	1405091840	45	4473
2026-01-04 09:11:58.38	2.80	20.74	-37.3	-38.9	16.6	0.00e+00	0	56	0	1408237568	45	4537
2026-01-04 09:11:59.39	2.67	20.62	-37.4	-39.0	16.5	0.00e+00	0	56	0	1411383296	45	4570
2026-01-04 09:12:00.38	2.54	20.51	-37.2	-38.8	16.7	0.00e+00	0	56	0	1414529024	45	4450
2026-01-04 09:12:01.39	2.41	20.39	-37.0	-38.6	16.9	0.00e+00	0	56	0	1417674752	45	4342
2026-01-04 09:12:02.40	2.28	20.28	-37.0	-38.6	16.9	0.00e+00	0	56	0	1420820480	45	4345
2026-01-04 09:12:03.41	2.15	20.17	-37.0	-38.6	16.9	0.00e+00	0	57	0	1423966208	45	4359
2026-01-04 09:12:04.42	2.02	20.05	-37.1	-38.7	16.8	0.00e+00	0	56	0	1427111936	45	4420
2026-01-04 09:12:05.43	1.89	19.94	-37.2	-38.8	16.7	0.00e+00	0	56	0	1430257664	45	4457
2026-01-04 09:12:06.44	1.77	19.82	-37.3	-39.0	16.5	0.00e+00	0	57	0	1433403392	45	4548
2026-01-04 09:12:07.45	1.64	19.71	-37.4	-39.0	16.4	0.00e+00	0	56	0	1436549120	45	4585
2026-01-04 09:12:08.46	1.52	19.60	-37.2	-38.9	16.6	0.00e+00	0	56	0	1439694848	45	4500
2026-01-04 09:12:09.47	1.40	19.49	-37.1	-38.7	16.7	0.00e+00	0	56	0	1442840576	45	4430
2026-01-04 09:12:10.48	1.27	19.38	-37.1	-38.7	16.8	0.00e+00	0	57	0	1445986304	45	4393
2026-01-04 09:12:11.49	1.15	19.26	-37.1	-38.7	16.7	0.00e+00	0	57	0	1449132032	45	4423
2026-01-04 09:12:12.50	1.03	19.15	-37.0	-38.5	16.8	0.00e+00	0	56	0	1452277760	45	4330
2026-01-04 09:12:13.51	0.91	19.04	-36.9	-38.5	16.9	0.00e+00	0	57	0	1455423488	45	4299
2026-01-04 09:12:14.52	0.80	18.93	-36.9	-38.4	16.9	0.00e+00	0	56	0	1458569216	45	4263
2026-01-04 09:12:15.53	0.68	18.82	-36.8	-38.3	17.0	0.00e+00	0	56	0	1461714944	45	4220
2026-01-04 09:12:16.54	0.56	18.71	-36.8	-38.4	16.9	0.00e+00	0	56	0	1464860672	45	4262
2026-01-04 09:12:17.55	0.45	18.60	-36.8	-38.3	17.0	0.00e+00	0	56	0	1468006400	45	4216
2026-01-04 09:12:18.56	0.33	18.49	-36.6	-38.1	17.2	0.00e+00	0	57	0	1471152128	45	4140
2026-01-04 09:12:19.57	0.22	18.39	-36.8	-38.3	17.0	0.00e+00	0	56	0	1474297856	45	4210
2026-01-04 09:12:20.58	0.10	18.28	-36.7	-38.2	17.1	0.00e+00	0	57	0	1477443584	45	4155
2026-01-04 09:12:21.59	359.99	18.17	-36.7	-38.2	17.1	0.00e+00	0	56	0	1480589312	45	4182
2026-01-04 09:12:22.60	359.88	18.06	-36.9	-38.4	16.9	0.00e+00	0	56	0	1483735040	45	4279
2026-01-04 09:12:23.61	359.77	17.96	-37.0	-38.6	16.7	0.00e+00	0	56	0	1486880768	45	4342
2026-01-04 09:12:24.62	359.66	17.85	-37.1	-38.7	16.6	0.00e+00	0	56	0	1490026496	45	4412
2026-01-04 09:12:25.63	359.55	17.74	-37.3	-39.0	16.3	0.00e+00	0	56	0	1493172224	45	4556
2026-01-04 09:12:26.64	359.44	17.64	-37.4	-39.1	16.2	0.00e+00	0	57	0	1496317952	45	4626
2026-01-04 09:12:27.65	359.33	17.53	-37.5	-39.2	16.0	0.00e+00	0	56	0	1499463680	45	4703
2026-01-04 09:12:28.66	359.23	17.42	-37.6	-39.4	15.8	0.00e+00	0	56	0	1502609408	45	4773
2026-01-04 09:12:29.67	359.12	17.32	-37.8	-39.6	15.6	0.00e+00	0	56	0	1505755136	46	4627
2026-01-04 09:12:30.68	359.02	17.22	-37.9	-39.7	15.5	0.00e+00	0	56	0	1508900864	46	4687
2026-01-04 09:12:31.69	358.91	17.11	-37.6	-39.4	15.8	0.00e+00	0	56	0	1512046592	46	4514
2026-01-04 09:12:32.70	358.81	17.01	-37.6	-39.4	15.7	0.00e+00	0	56	0	1515192320	46	4520
2026-01-04 09:12:33.72	358.70	16.90	-37.6	-39.4	15.7	0.00e+00	0	56	0	1518338048	46	4498
2026-01-04 09:12:34.73	358.60	16.80	-37.6	-39.4	15.6	0.00e+00	0	56	0	1521483776	46	4516
2026-01-04 09:12:35.74	358.50	16.70	-37.5	-39.3	15.6	0.00e+00	0	56	0	1524629504	46	4488
2026-01-04 09:12:36.75	358.40	16.59	-37.5	-39.3	15.6	0.00e+00	0	56	0	1527775232	46	4468
2026-01-04 09:12:37.76	358.30	16.49	-37.4	-39.2	15.7	0.00e+00	0	56	0	1530920960	46	4425
2026-01-04 09:12:38.76	358.20	16.39	-37.3	-39.1	15.8	0.00e+00	0	56	0	1534066688	46	4374
2026-01-04 09:12:39.77	358.10	16.29	-37.3	-39.1	15.7	0.00e+00	0	56	0	1537212416	46	4385
2026-01-04 09:12:40.79	358.00	16.19	-37.4	-39.2	15.5	0.00e+00	0	56	0	1540358144	46	4425
2026-01-04 09:12:41.80	357.91	16.09	-37.4	-39.3	15.4	0.00e+00	0	56	0	1543503872	46	4486
2026-01-04 09:12:42.81	357.81	15.98	-37.5	-39.5	15.2	0.00e+00	0	56	0	1546649600	46	4549
2026-01-04 09:12:43.82	357.71	15.88	-37.5	-39.4	15.2	7.00e-07	0	56	0	1549795328	46	4517
2026-01-04 09:12:44.83	357.62	15.78	-37.5	-39.5	15.1	0.00e+00	0	57	0	1552941056	46	4564
2026-01-04 09:12:45.84	357.52	15.68	-37.5	-39.5	15.1	0.00e+00	0	56	0	1556086784	46	4570
2026-01-04 09:12:46.85	357.43	15.59	-37.7	-39.7	14.9	0.00e+00	0	56	0	1559232512	46	4652
2026-01-04 09:12:47.86	357.34	15.49	-37.6	-39.6	14.9	0.00e+00	0	56	0	1562378240	46	4609
2026-01-04 09:12:48.87	357.24	15.39	-37.6	-39.6	14.9	0.00e+00	0	56	0	1565523968	46	4606
2026-01-04 09:12:49.88	357.15	15.29	-37.6	-39.6	14.8	0.00e+00	0	57	0	1568669696	46	4637
2026-01-04 09:12:50.88	357.06	15.19	-37.5	-39.6	14.8	0.00e+00	0	56	0	1571815424	46	4599
2026-01-04 09:12:51.89	356.97	15.09	-37.4	-39.5	14.8	0.00e+00	0	56	0	1574961152	46	4565
2026-01-04 09:12:52.90	356.88	15.00	-37.5	-39.5	14.7	0.00e+00	0	56	0	1578106880	46	4584
2026-01-04 09:12:53.92	356.79	14.90	-37.5	-39.6	14.5	7.00e-07	0	56	0	1581252608	46	4634
2026-01-04 09:12:54.93	356.70	14.80	-37.6	-39.8	14.3	7.00e-07	0	56	0	1584398336	46	4728
2026-01-04 09:12:55.94	356.61	14.71	-37.8	-40.1	13.8	3.00e-06	0	56	0	1587544064	46	4925
2026-01-04 09:12:56.95	356.52	14.61	-37.9	-40.4	13.3	1.60e-05	0	56	0	1590689792	46	5080
2026-01-04 09:12:57.96	356.44	14.51	-38.2	-40.9	12.6	5.41e-05	0	56	0	1593835520	47	5096
2026-01-04 09:12:58.97	356.35	14.42	-38.6	-41.7	11.7	4.29e-04	0	56	0	1596981248	47	5540
2026-01-04 09:12:59.98	356.26	14.32	-39.0	-42.3	11.0	1.51e-03	0	56	0	1600126976	48	5605
2026-01-04 09:13:00.99	356.18	14.23	-39.3	-43.0	10.0	5.04e-03	0	57	0	1603272704	49	5763
2026-01-04 09:13:01.99	356.09	14.14	-39.5	-43.8	9.1	1.56e-02	0	56	0	1606418432	49	6295
2026-01-04 09:13:03.00	356.01	14.04	-39.8	-44.6	8.1	4.61e-02	0	57	0	1609564160	50	6508
2026-01-04 09:13:04.01	355.92	13.95	-40.1	-45.6	6.9	1.29e-01	0	57	0	1612709888	50	7348
2026-01-04 09:13:05.02	355.84	13.85	-40.3	-46.6	6.0	3.02e-01	0	56	0	1615855616	51	7730
2026-01-04 09:13:06.03	355.76	13.76	-40.4	-47.4	5.3	5.22e-01	0	57	0	1619001344	51	8545
2026-01-04 09:13:07.04	355.68	13.67	-40.4	-48.8	4.0	7.58e-01	2	56	104	1622147072	51	10004
2026-01-04 09:13:08.05	355.59	13.57	-40.4	-49.4	4.0	1.20e+00	2	57	104	1622147072	51	10671
2026-01-04 09:13:09.06	355.51	13.48	-40.5	-49.5	4.2	1.43e+00	0	57	104	1622147072	51	10830
2026-01-04 09:13:10.07	355.43	13.39	-40.4	-50.6	3.8	1.47e+00	0	57	104	1622147072	51	12304
2026-01-04 09:13:11.08	355.35	13.30	-40.4	-50.7	3.9	1.48e+00	0	57	104	1622147072	51	12408
2026-01-04 09:13:12.09	355.27	13.21	-41.1	-51.0	3.9	1.47e+00	0	57	104	1622147072	52	12112
2026-01-04 09:13:13.10	355.19	13.11	-40.0	-52.3	3.8	1.49e+00	0	57	104	1622147072	52	14084
2026-01-04 09:13:14.11	355.12	13.02	-40.4	-52.4	3.8	1.49e+00	0	57	104	1622147072	52	14244
2026-01-04 09:13:15.12	355.04	12.93	-40.1	-51.9	3.8	1.49e+00	0	57	104	1622147072	52	13430
2026-01-04 09:13:16.13	354.96	12.84	-40.1	-51.6	3.8	1.49e+00	0	57	104	1622147072	52	12965
2026-01-04 09:13:17.14	354.88	12.75	-40.1	-51.8	3.8	1.49e+00	0	57	104	1622147072	52	13299
2026-01-04 09:13:18.15	354.81	12.66	-40.0	-52.0	3.8	1.49e+00	0	57	104	1622147072	52	13615
2026-01-04 09:13:19.16	354.73	12.57	-40.0	-52.3	3.8	1.49e+00	0	57	104	1622147072	52	14056
2026-01-04 09:13:20.17	354.65	12.48	-40.2	-52.4	3.8	1.49e+00	0	57	104	1622147072	52	14256
2026-01-04 09:13:21.18	354.58	12.39	-40.0	-52.4	3.8	1.49e+00	0	57	104	1622147072	51	15085
2026-01-04 09:13:22.19	354.51	12.30	-40.1	-52.4	3.8	1.49e+00	0	57	104	1622147072	51	15220
2026-01-04 09:13:23.20	354.43	12.22	-40.0	-52.4	3.8	1.49e+00	0	57	104	1622147072	51	15054
2026-01-04 09:13:24.21	354.36	12.13	-40.1	-52.4	3.8	1.49e+00	0	57	104	1622147072	51	15194
2026-01-04 09:13:25.22	354.28	12.04	-40.0	-52.3	3.8	1.49e+00	0	57	104	1622147072	51	14880
2026-01-04 09:13:26.23	354.21	11.95	-39.8	-52.3	3.8	1.49e+00	0	57	104	1622147072	51	14935
2026-01-04 09:13:27.24	354.14	11.86	-40.1	-52.5	3.8	1.49e+00	0	57	104	1622147072	51	15256
2026-01-04 09:13:28.25	354.07	11.78	-39.7	-52.2	3.8	1.49e+00	0	57	104	1622147072	51	14861
2026-01-04 09:13:29.26	354.00	11.69	-40.1	-52.4	3.8	1.49e+00	0	57	104	1622147072	51	15166
2026-01-04 09:13:30.27	353.92	11.60	-39.9	-52.4	3.8	1.49e+00	0	57	104	1622147072	51	15198
2026-01-04 09:13:31.28	353.85	11.52	-39.9	-52.2	3.8	1.49e+00	0	57	104	1622147072	51	14760
2026-01-04 09:13:32.29	353.78	11.43	-39.9	-52.5	3.8	1.49e+00	0	57	104	1622147072	51	15278
2026-01-04 09:13:33.30	353.71	11.35	-39.8	-52.1	3.8	1.49e+00	0	57	104	1622147072	51	14708
2026-01-04 09:13:34.31	353.65	11.26	-39.8	-52.2	3.8	1.49e+00	0	57	104	1622147072	51	14840
2026-01-04 09:13:35.32	353.58	11.17	-39.9	-52.3	3.8	1.49e+00	0	57	104	1622147072	51	14966
2026-01-04 09:13:36.33	353.51	11.09	-39.9	-52.2	3.8	1.49e+00	0	57	104	1622147072	51	14817
2026-01-04 09:13:37.34	353.44	11.00	-39.9	-52.3	3.8	1.49e+00	0	57	104	1622147072	51	14974
