passes_logs/2026/01/04/R2.0S_Moscow/R2.0S_Moscow__20260104_103302_FENGYUN_3D_rec.log

#Pass ID: 20260104_103302_FENGYUN 3D
#Satellite: FENGYUN 3D
#Configuration: FENGYUN 3D
#almurnet v.1.7.20251203
#Start time: 2026-01-04 10:33:03

#Version: 2.2.20231116
#Station: R2.0S_Moscow
#Location: 37.707566 lon 55.798166 lat
#TLE: 1 43010U 17072A   26003.51579816  .00000092  00000+0  65324-4 0  9992
#TLE: 2 43010  98.9912 335.1548 0001916 128.4619 231.6729 14.19692074421623

#Time	Az	El	Level	Level2	SNR	BER	BlckErr	Temp	State	Recorded	gain1	gain2
2026-01-04 10:33:03.94	119.68	2.11	-24.1	-39.4	3.8	7.96e-01	0	47	0	0	17	23954
2026-01-04 10:33:04.94	119.62	2.17	-21.6	-37.8	3.8	7.84e-01	0	47	104	0	16	21146
2026-01-04 10:33:05.95	119.56	2.23	-23.7	-38.2	3.5	8.41e-01	0	47	104	0	17	20955
2026-01-04 10:33:06.96	119.51	2.29	-24.7	-42.0	4.0	7.77e-01	0	47	104	0	20	27255
2026-01-04 10:33:07.97	119.45	2.35	-22.1	-39.3	4.1	7.92e-01	0	47	104	0	17	23714
2026-01-04 10:33:08.99	119.39	2.41	-22.4	-37.8	3.7	7.74e-01	0	48	104	0	15	22424
2026-01-04 10:33:10.00	119.33	2.47	-22.7	-38.2	3.9	7.78e-01	0	48	104	0	17	20978
2026-01-04 10:33:11.01	119.27	2.53	-23.4	-40.2	3.7	7.90e-01	0	48	104	0	15	29684
2026-01-04 10:33:12.02	119.22	2.59	-24.0	-38.6	3.7	7.80e-01	0	48	104	0	17	21999
2026-01-04 10:33:13.03	119.16	2.65	-23.6	-37.2	4.0	8.16e-01	0	48	104	0	16	19738
2026-01-04 10:33:14.04	119.10	2.71	-23.5	-39.8	4.1	7.93e-01	0	48	104	0	18	23825
2026-01-04 10:33:15.05	119.04	2.77	-23.7	-39.3	3.5	7.86e-01	0	48	104	0	14	28227
2026-01-04 10:33:16.06	118.98	2.83	-21.5	-34.4	3.5	7.90e-01	0	48	104	0	2	31932
2026-01-04 10:33:17.07	118.92	2.89	-21.1	-40.4	3.7	7.86e-01	0	48	104	0	15	30091
2026-01-04 10:33:18.09	118.86	2.96	-23.4	-39.7	3.9	7.98e-01	0	48	104	0	17	24777
2026-01-04 10:33:19.10	118.80	3.02	-20.3	-35.3	3.7	7.93e-01	0	48	104	0	14	17806
2026-01-04 10:33:20.11	118.74	3.08	-23.0	-37.7	4.0	7.79e-01	0	49	104	0	17	19667
2026-01-04 10:33:21.12	118.68	3.14	-20.2	-32.0	3.7	7.87e-01	0	49	104	0	18	9697
2026-01-04 10:33:22.13	118.61	3.20	-23.1	-35.5	3.9	7.87e-01	0	49	104	0	11	21549
2026-01-04 10:33:23.14	118.55	3.26	-22.7	-38.6	3.8	8.05e-01	0	49	104	0	17	21862
2026-01-04 10:33:24.15	118.49	3.32	-23.8	-38.6	3.7	8.12e-01	0	49	104	0	17	21910
2026-01-04 10:33:25.16	118.43	3.39	-18.8	-36.3	3.8	7.94e-01	0	49	104	0	12	22415
2026-01-04 10:33:26.17	118.37	3.45	-24.5	-40.8	3.7	7.80e-01	0	49	104	0	17	28193
2026-01-04 10:33:27.19	118.30	3.51	-23.7	-40.1	4.1	7.89e-01	0	49	104	0	19	23138
2026-01-04 10:33:28.20	118.24	3.57	-24.1	-41.7	4.6	7.98e-01	0	49	104	0	15	35125
2026-01-04 10:33:29.21	118.18	3.63	-23.9	-40.6	4.5	7.96e-01	0	49	104	0	19	24563
2026-01-04 10:33:30.22	118.11	3.70	-23.4	-41.0	4.0	7.99e-01	0	49	104	0	17	28690
2026-01-04 10:33:31.23	118.05	3.76	-21.7	-38.6	3.6	7.99e-01	0	49	104	0	10	32927
2026-01-04 10:33:32.24	117.99	3.82	-24.7	-41.6	4.0	7.81e-01	0	49	104	0	18	29328
2026-01-04 10:33:33.25	117.92	3.88	-24.6	-41.8	4.0	7.90e-01	0	49	104	0	20	26648
2026-01-04 10:33:34.26	117.86	3.95	-23.9	-39.6	3.4	7.95e-01	0	49	104	0	13	30904
2026-01-04 10:33:35.27	117.79	4.01	-14.9	-35.9	3.1	8.03e-01	0	49	104	0	11	22760
2026-01-04 10:33:36.28	117.73	4.07	-19.2	-35.5	3.6	8.15e-01	0	49	104	0	14	18267
2026-01-04 10:33:37.30	117.66	4.13	-20.2	-35.0	3.7	8.14e-01	0	50	104	0	11	20384
2026-01-04 10:33:38.31	117.59	4.20	-14.6	-32.4	3.5	8.08e-01	0	50	104	0	0	28570
2026-01-04 10:33:39.32	117.53	4.26	-21.6	-36.6	3.8	8.01e-01	0	50	104	0	15	19530
2026-01-04 10:33:40.33	117.46	4.32	-23.2	-36.9	3.8	7.98e-01	0	50	104	0	16	19152
2026-01-04 10:33:41.34	117.40	4.39	-24.0	-40.6	3.7	7.91e-01	0	50	104	0	14	32830
2026-01-04 10:33:42.35	117.33	4.45	-21.1	-36.2	3.6	8.05e-01	0	50	104	0	14	19626
2026-01-04 10:33:43.36	117.26	4.51	-22.3	-36.4	4.0	8.14e-01	0	50	104	0	15	19109
2026-01-04 10:33:44.37	117.19	4.58	-25.2	-39.4	3.7	7.96e-01	0	50	104	0	16	25383
2026-01-04 10:33:45.38	117.13	4.64	-23.5	-39.7	3.7	7.88e-01	0	50	104	0	18	23470
2026-01-04 10:33:46.39	117.06	4.71	-23.4	-36.0	3.7	7.89e-01	0	50	104	0	12	21552
2026-01-04 10:33:47.41	116.99	4.77	-23.7	-35.0	3.8	7.92e-01	0	50	0	0	13	18188
2026-01-04 10:33:48.42	116.92	4.83	-24.3	-39.0	4.0	8.18e-01	0	50	104	0	18	21533
2026-01-04 10:33:49.43	116.85	4.90	-20.0	-32.2	3.9	8.08e-01	0	50	104	0	12	13976
2026-01-04 10:33:50.44	116.78	4.96	-21.9	-37.3	3.8	7.99e-01	0	50	104	0	18	17809
2026-01-04 10:33:51.45	116.71	5.03	-21.2	-35.9	4.2	7.99e-01	0	50	104	0	17	16102
2026-01-04 10:33:52.46	116.64	5.09	-23.1	-36.9	3.6	7.89e-01	0	50	104	0	17	18049
2026-01-04 10:33:53.47	116.57	5.16	-23.3	-39.6	3.0	7.87e-01	0	50	104	0	18	23247
2026-01-04 10:33:54.48	116.50	5.22	-17.6	-36.0	5.6	7.84e-01	0	50	104	0	13	20367
2026-01-04 10:33:55.49	116.43	5.29	-24.0	-36.3	3.9	7.91e-01	0	51	104	0	14	20067
2026-01-04 10:33:56.50	116.36	5.35	-25.0	-39.7	4.3	7.77e-01	0	51	104	0	19	22030
2026-01-04 10:33:57.52	116.29	5.42	-24.3	-40.6	4.3	7.80e-01	0	51	104	0	19	24599
2026-01-04 10:33:58.53	116.21	5.48	-23.3	-36.8	3.6	8.00e-01	0	51	104	0	8	29860
2026-01-04 10:33:59.54	116.14	5.55	-21.5	-37.8	3.6	7.81e-01	0	51	104	0	13	25153
2026-01-04 10:34:00.55	116.07	5.61	-24.6	-40.5	3.7	7.90e-01	0	51	104	0	18	25709
2026-01-04 10:34:01.56	116.00	5.68	-25.2	-41.4	4.0	7.79e-01	0	51	104	0	18	28594
2026-01-04 10:34:02.57	115.92	5.75	-24.3	-39.7	3.5	7.75e-01	0	51	104	0	15	27940
2026-01-04 10:34:03.58	115.85	5.81	-22.6	-39.6	3.8	7.83e-01	0	51	104	0	15	27390
2026-01-04 10:34:04.59	115.78	5.88	-22.3	-37.5	3.6	7.93e-01	0	51	0	0	16	20379
2026-01-04 10:34:05.60	115.70	5.94	-23.7	-35.4	3.6	7.98e-01	0	51	104	0	13	19085
2026-01-04 10:34:06.61	115.63	6.01	-24.2	-40.2	3.6	7.86e-01	0	51	104	0	15	29621
2026-01-04 10:34:07.62	115.55	6.08	-24.2	-39.6	4.3	7.96e-01	0	51	104	0	18	23289
2026-01-04 10:34:08.64	115.47	6.14	-24.8	-41.4	4.2	8.01e-01	0	51	104	0	16	31969
2026-01-04 10:34:09.65	115.40	6.21	-24.2	-39.9	3.7	7.82e-01	0	51	104	0	16	26974
2026-01-04 10:34:10.66	115.32	6.28	-23.5	-39.8	3.7	7.99e-01	0	51	104	0	14	29950
2026-01-04 10:34:11.67	115.25	6.34	-17.6	-29.3	3.7	7.91e-01	0	51	104	0	12	10024
2026-01-04 10:34:12.68	115.17	6.41	-24.6	-40.7	3.2	7.94e-01	0	51	104	0	18	26284
2026-01-04 10:34:13.69	115.09	6.48	-22.2	-35.8	3.5	7.88e-01	0	51	104	0	11	22457
2026-01-04 10:34:14.70	115.01	6.55	-24.0	-38.1	4.0	7.79e-01	0	51	104	0	17	20608
2026-01-04 10:34:15.71	114.94	6.61	-24.0	-38.4	3.8	7.97e-01	0	52	104	0	16	22768
2026-01-04 10:34:16.72	114.86	6.68	-24.4	-40.0	3.7	7.84e-01	0	52	104	0	18	24247
2026-01-04 10:34:17.74	114.78	6.75	-12.3	-31.2	3.7	8.36e-01	0	52	104	0	0	24860
2026-01-04 10:34:18.75	114.70	6.82	-24.0	-35.8	3.5	7.75e-01	0	51	104	0	16	16778
2026-01-04 10:34:19.76	114.62	6.89	-23.6	-40.5	4.1	7.80e-01	0	52	104	0	19	24263
2026-01-04 10:34:20.77	114.54	6.95	-24.2	-39.3	5.2	7.89e-01	0	52	104	0	18	22405
2026-01-04 10:34:21.78	114.46	7.02	-23.6	-39.9	3.5	7.96e-01	0	52	104	0	14	30258
2026-01-04 10:34:22.79	114.38	7.09	-24.0	-40.1	4.4	8.00e-01	0	52	104	0	17	25966
2026-01-04 10:34:23.80	114.30	7.16	-24.8	-40.1	4.3	7.88e-01	0	52	104	0	19	23294
2026-01-04 10:34:24.81	114.22	7.23	-22.9	-36.9	4.1	8.06e-01	0	52	104	0	15	20300
2026-01-04 10:34:25.82	114.13	7.30	-19.8	-33.6	3.7	8.05e-01	0	52	104	0	9	19587
2026-01-04 10:34:26.84	114.05	7.37	-24.6	-40.3	4.1	8.00e-01	0	52	104	0	18	25072
2026-01-04 10:34:27.85	113.97	7.43	-24.1	-40.0	4.1	8.18e-01	0	52	104	0	18	24193
2026-01-04 10:34:28.86	113.89	7.50	-23.8	-39.4	4.5	8.14e-01	0	52	104	0	17	24104
2026-01-04 10:34:29.87	113.80	7.57	-24.1	-40.1	5.0	8.16e-01	0	52	104	0	19	23179
2026-01-04 10:34:30.88	113.72	7.64	-19.1	-31.6	4.2	8.19e-01	0	52	0	0	13	12246
2026-01-04 10:34:31.89	113.63	7.71	-23.8	-38.1	4.9	8.23e-01	0	52	104	0	16	21759
2026-01-04 10:34:32.90	113.55	7.78	-22.4	-33.4	3.7	8.33e-01	0	52	104	0	5	24104
2026-01-04 10:34:33.91	113.46	7.85	-23.9	-36.9	4.6	8.33e-01	0	52	104	0	16	19125
2026-01-04 10:34:34.92	113.38	7.92	-22.1	-35.5	4.4	8.24e-01	0	52	104	0	12	20310
2026-01-04 10:34:35.93	113.29	7.99	-24.2	-36.5	5.0	8.15e-01	0	52	104	0	17	17143
2026-01-04 10:34:36.94	113.21	8.06	-23.5	-35.9	4.9	8.14e-01	0	52	104	0	16	16975
2026-01-04 10:34:37.96	113.12	8.13	-42.1	-54.6	3.9	8.39e-01	0	52	104	0	54	16441
2026-01-04 10:34:38.97	113.03	8.20	-27.1	-43.0	4.5	8.05e-01	0	52	104	0	24	24317
2026-01-04 10:34:39.97	112.95	8.27	-21.0	-35.7	4.7	8.15e-01	0	53	104	0	17	15758
2026-01-04 10:34:40.98	112.86	8.34	-29.4	-39.4	4.7	8.25e-01	0	53	104	0	25	15145
2026-01-04 10:34:41.99	112.77	8.41	-22.6	-36.3	4.1	8.17e-01	0	53	104	0	12	22430
2026-01-04 10:34:43.00	112.68	8.48	-24.4	-38.1	5.3	8.18e-01	0	53	104	0	18	19567
2026-01-04 10:34:44.01	112.59	8.56	-23.8	-34.3	4.4	8.23e-01	0	53	104	0	14	15860
2026-01-04 10:34:45.02	112.50	8.63	-23.0	-36.3	4.4	8.22e-01	0	52	104	0	15	18856
2026-01-04 10:34:46.03	112.41	8.70	-13.3	-31.3	4.0	8.19e-01	0	53	104	0	17	9451
2026-01-04 10:34:47.04	112.32	8.77	-25.5	-38.7	5.1	8.18e-01	0	53	104	0	22	16631
2026-01-04 10:34:48.05	112.23	8.84	-26.1	-36.9	5.4	8.25e-01	0	53	104	0	24	11976
2026-01-04 10:34:49.06	112.14	8.91	-27.1	-39.5	5.4	8.19e-01	0	53	104	0	20	20507
2026-01-04 10:34:50.07	112.04	8.99	-18.4	-34.9	4.4	8.28e-01	0	53	104	0	21	11367
2026-01-04 10:34:51.08	111.95	9.06	-25.6	-38.0	4.5	8.19e-01	0	53	104	0	18	19213
2026-01-04 10:34:52.09	111.86	9.13	-28.4	-39.1	5.0	8.25e-01	0	53	104	0	25	14620
2026-01-04 10:34:53.11	111.76	9.20	-29.9	-39.3	4.9	8.17e-01	0	53	104	0	30	11280
2026-01-04 10:34:54.12	111.67	9.28	-28.7	-39.3	5.2	8.12e-01	0	53	104	0	27	13317
2026-01-04 10:34:55.13	111.58	9.35	-31.3	-40.5	5.2	8.07e-01	0	53	104	0	33	10853
2026-01-04 10:34:56.13	111.48	9.42	-31.8	-39.9	7.0	8.06e-01	0	53	104	0	33	10071
2026-01-04 10:34:57.14	111.39	9.49	-34.6	-41.4	7.2	4.62e-01	0	53	0	1048576	37	9534
2026-01-04 10:34:58.15	111.29	9.57	-35.5	-41.4	8.3	4.20e-01	0	53	0	4194304	40	8045
2026-01-04 10:34:59.16	111.19	9.64	-36.5	-42.2	8.4	4.13e-01	0	53	0	8388608	42	7833
2026-01-04 10:35:00.17	111.10	9.71	-33.4	-41.0	7.1	3.35e-01	0	53	0	12582912	40	7648
2026-01-04 10:35:01.18	111.00	9.79	-37.2	-41.7	9.7	2.29e-01	0	53	0	16777216	45	6250
2026-01-04 10:35:02.19	110.90	9.86	-37.5	-41.5	10.4	1.61e-01	0	53	0	22020096	45	6102
2026-01-04 10:35:03.20	110.80	9.93	-38.4	-41.8	9.1	1.62e-01	0	53	0	27262976	45	6328
2026-01-04 10:35:04.22	110.70	10.01	-37.7	-41.4	10.2	1.82e-01	0	53	0	32505856	43	6734
2026-01-04 10:35:05.23	110.60	10.08	-35.2	-41.5	10.3	9.73e-02	0	53	0	37748736	46	5738
2026-01-04 10:35:06.24	110.50	10.16	-37.6	-41.8	9.8	1.05e-01	0	53	0	42991616	43	7081
2026-01-04 10:35:07.25	110.40	10.23	-37.0	-41.7	10.7	9.40e-02	0	53	0	48234496	47	5541
2026-01-04 10:35:08.26	110.30	10.30	-38.0	-41.4	11.4	7.32e-02	0	53	0	53477376	46	5695
2026-01-04 10:35:09.27	110.20	10.38	-37.6	-41.1	12.1	3.12e-02	0	53	0	58720256	46	5476
2026-01-04 10:35:10.28	110.10	10.45	-37.1	-40.6	11.7	1.17e-01	0	53	0	65011712	44	5846
2026-01-04 10:35:11.29	109.99	10.53	-37.2	-39.9	13.4	1.37e-02	0	54	0	70254592	44	5392
2026-01-04 10:35:12.30	109.89	10.60	-35.8	-38.7	13.8	6.72e-03	0	53	0	76546048	43	4965
2026-01-04 10:35:13.31	109.79	10.68	-36.2	-38.7	14.5	8.13e-03	0	54	0	81788928	43	4945
2026-01-04 10:35:14.32	109.68	10.75	-34.6	-38.8	12.7	4.40e-03	0	53	0	87031808	41	5642
2026-01-04 10:35:15.33	109.58	10.83	-36.4	-39.0	14.3	4.65e-03	0	54	0	93323264	43	5141
2026-01-04 10:35:16.34	109.47	10.90	-36.4	-38.9	13.9	5.88e-03	0	54	0	98566144	42	5394
2026-01-04 10:35:17.35	109.37	10.98	-36.2	-39.0	14.2	4.40e-03	0	54	0	104857600	43	5106
2026-01-04 10:35:18.36	109.26	11.05	-36.8	-39.0	14.3	3.83e-03	0	54	0	110100480	43	5135
2026-01-04 10:35:19.37	109.15	11.13	-37.1	-39.6	13.0	5.20e-02	0	54	0	115343360	44	5175
2026-01-04 10:35:20.38	109.05	11.21	-36.9	-39.2	14.5	2.62e-03	0	54	0	121634816	44	4966
2026-01-04 10:35:21.39	108.94	11.28	-36.8	-39.1	14.6	2.33e-03	0	53	0	126877696	44	4908
2026-01-04 10:35:22.40	108.83	11.36	-36.5	-38.7	14.4	2.33e-03	0	54	0	133169152	43	4975
2026-01-04 10:35:23.41	108.72	11.44	-37.3	-39.4	14.4	6.31e-03	0	54	0	138412032	45	4798
2026-01-04 10:35:24.42	108.61	11.51	-35.8	-39.2	14.6	5.24e-03	0	54	0	144703488	44	4965
2026-01-04 10:35:25.44	108.50	11.59	-36.9	-38.9	15.1	2.49e-03	0	54	0	149946368	44	4796
2026-01-04 10:35:26.45	108.39	11.67	-34.5	-38.8	14.5	8.68e-03	0	54	0	156237824	42	5282
2026-01-04 10:35:27.46	108.28	11.74	-36.9	-38.9	14.5	3.79e-03	0	54	0	161480704	44	4800
2026-01-04 10:35:28.47	108.16	11.82	-36.2	-38.5	15.2	2.00e-03	0	54	0	166723584	43	4853
2026-01-04 10:35:29.48	108.05	11.90	-36.5	-38.5	15.0	3.95e-03	0	54	0	173015040	43	4816
2026-01-04 10:35:30.49	107.94	11.98	-36.4	-38.3	15.5	1.03e-03	0	54	0	178257920	43	4731
2026-01-04 10:35:31.50	107.82	12.05	-36.4	-38.3	15.5	2.08e-04	0	54	0	184549376	43	4750
2026-01-04 10:35:32.51	107.71	12.13	-36.4	-38.1	15.8	3.02e-04	0	54	0	189792256	43	4649
2026-01-04 10:35:33.52	107.59	12.21	-34.3	-38.1	14.0	6.61e-03	0	54	0	195035136	41	5177
2026-01-04 10:35:34.53	107.48	12.29	-36.1	-38.0	15.4	2.16e-03	0	54	0	201326592	43	4595
2026-01-04 10:35:35.54	107.36	12.36	-36.3	-38.1	15.7	4.57e-05	0	54	0	206569472	43	4637
2026-01-04 10:35:36.55	107.24	12.44	-35.9	-37.9	16.0	9.61e-05	0	54	0	212860928	43	4545
2026-01-04 10:35:37.56	107.12	12.52	-36.2	-38.2	15.8	1.23e-04	0	54	0	218103808	43	4654
2026-01-04 10:35:38.57	107.01	12.60	-35.9	-38.0	15.6	5.26e-05	0	54	0	223346688	43	4548
2026-01-04 10:35:39.58	106.89	12.68	-34.8	-37.9	14.6	3.01e-03	0	54	0	229638144	41	5095
2026-01-04 10:35:40.59	106.77	12.76	-34.6	-37.6	15.5	8.54e-04	0	54	0	234881024	42	4619
2026-01-04 10:35:41.60	106.65	12.84	-35.7	-37.8	15.0	6.85e-03	0	54	0	241172480	42	4709
2026-01-04 10:35:42.61	106.52	12.91	-35.7	-37.6	14.3	9.91e-04	0	54	0	246415360	42	4628
2026-01-04 10:35:43.62	106.40	12.99	-35.8	-37.7	16.4	5.55e-04	0	54	0	252706816	42	4655
2026-01-04 10:35:44.63	106.28	13.07	-36.0	-37.7	15.0	1.16e-03	0	54	0	257949696	42	4683
2026-01-04 10:35:45.64	106.16	13.15	-36.1	-37.8	16.3	1.80e-04	0	54	0	264241152	42	4719
2026-01-04 10:35:46.65	106.03	13.23	-35.6	-37.5	15.2	4.55e-04	0	54	0	269484032	42	4568
2026-01-04 10:35:47.66	105.91	13.31	-35.9	-37.6	16.4	2.45e-04	0	54	0	274726912	42	4650
2026-01-04 10:35:48.67	105.78	13.39	-35.9	-37.6	16.4	4.92e-05	0	54	0	281018368	42	4611
2026-01-04 10:35:49.68	105.66	13.47	-35.2	-37.4	16.2	1.92e-04	0	54	0	286261248	42	4543
2026-01-04 10:35:50.69	105.53	13.55	-35.7	-37.5	16.3	2.05e-04	0	54	0	292552704	42	4548
2026-01-04 10:35:51.70	105.40	13.63	-35.8	-37.5	16.3	1.09e-03	0	54	0	297795584	42	4550
2026-01-04 10:35:52.71	105.28	13.71	-35.8	-37.4	16.5	5.95e-05	0	54	0	303038464	42	4523
2026-01-04 10:35:53.73	105.15	13.79	-35.8	-37.5	16.5	8.32e-04	0	54	0	309329920	42	4566
2026-01-04 10:35:54.74	105.02	13.87	-35.5	-37.2	16.7	1.81e-03	0	55	0	314572800	41	4692
2026-01-04 10:35:55.75	104.89	13.95	-35.7	-37.4	16.6	2.43e-04	0	54	0	320864256	42	4508
2026-01-04 10:35:56.76	104.76	14.03	-35.7	-37.3	16.6	1.76e-04	0	54	0	326107136	41	4737
2026-01-04 10:35:57.76	104.63	14.11	-35.8	-37.4	16.5	1.02e-05	0	54	0	331350016	42	4538
2026-01-04 10:35:58.77	104.49	14.19	-35.8	-37.4	16.6	1.03e-04	0	54	0	337641472	42	4505
2026-01-04 10:35:59.79	104.36	14.28	-35.6	-37.3	16.7	1.13e-04	0	55	0	342884352	41	4734
2026-01-04 10:36:00.79	104.23	14.36	-35.4	-37.1	16.7	6.29e-05	0	54	0	349175808	41	4611
2026-01-04 10:36:01.81	104.09	14.44	-35.5	-37.1	16.9	3.89e-04	0	55	0	354418688	41	4644
2026-01-04 10:36:02.81	103.96	14.52	-35.4	-37.0	17.1	4.80e-05	0	55	0	360710144	41	4570
2026-01-04 10:36:03.83	103.82	14.60	-35.5	-37.1	16.9	4.50e-06	0	54	0	365953024	41	4638
2026-01-04 10:36:04.84	103.68	14.68	-35.6	-37.2	16.8	4.00e-05	0	54	0	371195904	41	4666
2026-01-04 10:36:05.85	103.55	14.77	-35.5	-37.1	17.0	0.00e+00	0	54	0	377487360	41	4609
2026-01-04 10:36:06.86	103.41	14.85	-35.4	-37.0	17.0	3.31e-05	0	55	0	382730240	41	4556
2026-01-04 10:36:07.87	103.27	14.93	-35.5	-37.1	17.0	5.14e-05	0	55	0	389021696	41	4623
2026-01-04 10:36:08.88	103.13	15.01	-35.4	-37.0	17.1	4.50e-06	0	54	0	394264576	41	4598
2026-01-04 10:36:09.89	102.99	15.09	-35.4	-36.9	17.1	0.00e+00	0	55	0	399507456	41	4530
2026-01-04 10:36:10.89	102.85	15.17	-35.4	-37.0	17.0	3.40e-06	0	54	0	405798912	41	4571
2026-01-04 10:36:11.91	102.70	15.26	-35.5	-37.0	17.1	6.80e-06	0	54	0	411041792	41	4597
2026-01-04 10:36:12.92	102.56	15.34	-35.3	-36.9	17.2	0.00e+00	0	54	0	417333248	41	4508
2026-01-04 10:36:13.93	102.42	15.42	-35.6	-37.1	17.0	4.50e-06	0	55	0	422576128	41	4649
2026-01-04 10:36:14.94	102.27	15.51	-35.4	-36.9	17.2	2.20e-06	0	55	0	428867584	41	4535
2026-01-04 10:36:15.95	102.13	15.59	-35.5	-37.0	17.1	1.10e-06	0	55	0	434110464	41	4594
2026-01-04 10:36:16.96	101.98	15.67	-35.4	-37.0	17.2	0.00e+00	0	55	0	439353344	41	4582
2026-01-04 10:36:17.97	101.83	15.75	-35.4	-37.0	17.2	0.00e+00	0	55	0	445644800	41	4567
2026-01-04 10:36:18.98	101.69	15.84	-35.4	-37.0	17.2	0.00e+00	0	55	0	450887680	41	4563
2026-01-04 10:36:19.99	101.54	15.92	-35.4	-37.0	17.2	1.10e-06	0	55	0	457179136	41	4548
2026-01-04 10:36:20.99	101.39	16.00	-35.4	-36.9	17.2	0.00e+00	0	55	0	462422016	41	4536
2026-01-04 10:36:22.00	101.24	16.09	-35.2	-36.8	17.4	8.00e-06	0	55	0	468713472	41	4450
2026-01-04 10:36:23.01	101.09	16.17	-35.2	-36.7	17.5	3.40e-06	0	55	0	473956352	41	4419
2026-01-04 10:36:24.02	100.94	16.25	-35.2	-36.7	17.4	0.00e+00	0	55	0	479199232	41	4439
2026-01-04 10:36:25.03	100.78	16.34	-35.1	-36.5	17.6	0.00e+00	0	55	0	485490688	41	4339
2026-01-04 10:36:26.04	100.63	16.42	-34.9	-36.4	17.7	0.00e+00	0	55	0	490733568	41	4275
2026-01-04 10:36:27.05	100.47	16.50	-34.9	-36.4	17.8	0.00e+00	0	55	0	497025024	41	4272
2026-01-04 10:36:28.06	100.32	16.59	-35.0	-36.6	17.5	0.00e+00	0	55	0	502267904	41	4347
2026-01-04 10:36:29.07	100.16	16.67	-35.0	-36.5	17.7	0.00e+00	0	55	0	507510784	41	4303
2026-01-04 10:36:30.08	100.00	16.75	-34.9	-36.4	17.8	1.10e-06	0	55	0	513802240	41	4263
2026-01-04 10:36:31.09	99.85	16.84	-34.9	-36.4	17.6	0.00e+00	0	55	0	519045120	41	4251
2026-01-04 10:36:32.10	99.69	16.92	-35.0	-36.5	17.7	0.00e+00	0	55	0	525336576	41	4311
2026-01-04 10:36:33.12	99.53	17.01	-35.0	-36.5	17.8	0.00e+00	0	55	0	530579456	41	4302
2026-01-04 10:36:34.13	99.36	17.09	-35.0	-36.5	17.8	0.00e+00	0	55	0	535822336	41	4295
2026-01-04 10:36:35.14	99.20	17.18	-35.0	-36.4	17.8	0.00e+00	0	55	0	542113792	41	4288
2026-01-04 10:36:36.15	99.04	17.26	-34.9	-36.4	17.9	0.00e+00	0	55	0	547356672	41	4244
2026-01-04 10:36:37.16	98.88	17.34	-34.9	-36.3	17.9	0.00e+00	0	55	0	553648128	41	4230
2026-01-04 10:36:38.16	98.71	17.43	-34.8	-36.3	18.0	0.00e+00	0	55	0	558891008	41	4223
2026-01-04 10:36:39.17	98.55	17.51	-34.8	-36.2	18.0	0.00e+00	0	55	0	565182464	41	4171
2026-01-04 10:36:40.18	98.38	17.60	-34.7	-36.2	18.1	0.00e+00	0	55	0	570425344	41	4146
2026-01-04 10:36:41.19	98.21	17.68	-34.7	-36.1	18.1	0.00e+00	0	55	0	576716800	41	4122
2026-01-04 10:36:42.21	98.04	17.77	-34.7	-36.2	18.1	0.00e+00	0	55	0	581959680	41	4152
2026-01-04 10:36:43.22	97.87	17.85	-34.8	-36.2	18.0	0.00e+00	0	55	0	587202560	41	4184
2026-01-04 10:36:44.23	97.70	17.94	-34.9	-36.4	17.9	0.00e+00	0	55	0	593494016	41	4251
2026-01-04 10:36:45.23	97.53	18.02	-34.9	-36.3	17.9	0.00e+00	0	55	0	598736896	41	4226
2026-01-04 10:36:46.24	97.36	18.10	-34.9	-36.4	17.9	0.00e+00	0	55	0	605028352	41	4274
2026-01-04 10:36:47.25	97.19	18.19	-34.9	-36.4	17.9	0.00e+00	0	55	0	610271232	41	4261
2026-01-04 10:36:48.27	97.01	18.27	-35.1	-36.5	17.7	0.00e+00	0	55	0	615514112	41	4337
2026-01-04 10:36:49.27	96.84	18.36	-34.9	-36.4	17.9	0.00e+00	0	55	0	621805568	41	4269
2026-01-04 10:36:50.28	96.66	18.44	-34.9	-36.3	17.9	0.00e+00	0	55	0	627048448	41	4238
2026-01-04 10:36:51.29	96.49	18.53	-34.8	-36.2	18.1	0.00e+00	0	55	0	633339904	41	4173
2026-01-04 10:36:52.30	96.31	18.61	-34.7	-36.1	18.1	0.00e+00	0	55	0	638582784	41	4135
2026-01-04 10:36:53.31	96.13	18.70	-34.8	-36.2	18.1	0.00e+00	0	55	0	643825664	41	4179
2026-01-04 10:36:54.32	95.95	18.78	-34.7	-36.2	18.1	0.00e+00	0	55	0	650117120	41	4161
2026-01-04 10:36:55.33	95.77	18.87	-34.7	-36.1	18.1	0.00e+00	0	55	0	655360000	41	4118
2026-01-04 10:36:56.35	95.58	18.95	-34.6	-36.0	18.2	0.00e+00	0	55	0	661651456	41	4093
2026-01-04 10:36:57.35	95.40	19.03	-34.6	-36.0	18.2	0.00e+00	0	55	0	666894336	41	4079
2026-01-04 10:36:58.36	95.22	19.12	-34.6	-36.1	18.2	0.00e+00	0	55	0	673185792	41	4101
2026-01-04 10:36:59.38	95.03	19.20	-34.6	-36.0	18.2	0.00e+00	0	55	0	678428672	41	4087
2026-01-04 10:37:00.39	94.85	19.29	-34.5	-36.0	18.3	0.00e+00	0	55	0	684720128	41	4054
2026-01-04 10:37:01.39	94.66	19.37	-34.4	-35.8	18.4	0.00e+00	0	55	0	689963008	40	4220
2026-01-04 10:37:02.41	94.47	19.46	-34.4	-35.8	18.5	0.00e+00	0	55	0	695205888	40	4195
2026-01-04 10:37:03.42	94.28	19.54	-34.4	-35.8	18.4	0.00e+00	0	55	0	701497344	40	4210
2026-01-04 10:37:04.43	94.09	19.63	-34.5	-35.9	18.3	0.00e+00	0	55	0	706740224	40	4277
2026-01-04 10:37:05.44	93.90	19.71	-34.5	-35.9	18.2	0.00e+00	0	55	0	713031680	40	4287
2026-01-04 10:37:06.45	93.71	19.80	-34.6	-36.0	18.2	0.00e+00	0	55	0	718274560	40	4311
2026-01-04 10:37:07.46	93.51	19.88	-34.6	-36.0	18.2	0.00e+00	0	55	0	723517440	40	4310
2026-01-04 10:37:08.47	93.32	19.96	-34.5	-35.9	18.2	0.00e+00	0	55	0	729808896	40	4261
2026-01-04 10:37:09.48	93.12	20.05	-34.5	-35.9	18.3	0.00e+00	0	55	0	735051776	40	4259
2026-01-04 10:37:10.49	92.92	20.13	-34.4	-35.8	18.2	0.00e+00	0	55	0	741343232	40	4239
2026-01-04 10:37:11.50	92.73	20.22	-34.4	-35.8	18.3	0.00e+00	0	55	0	746586112	40	4212
2026-01-04 10:37:12.51	92.53	20.30	-34.5	-35.9	18.2	0.00e+00	0	55	0	751828992	40	4268
2026-01-04 10:37:13.52	92.33	20.38	-34.5	-35.9	18.1	0.00e+00	0	55	0	758120448	40	4262
2026-01-04 10:37:14.53	92.13	20.47	-34.5	-35.9	18.1	0.00e+00	0	55	0	763363328	40	4262
2026-01-04 10:37:15.54	91.92	20.55	-34.3	-35.8	18.2	0.00e+00	0	56	0	769654784	40	4199
2026-01-04 10:37:16.55	91.72	20.64	-34.3	-35.7	18.3	0.00e+00	0	55	0	774897664	40	4177
2026-01-04 10:37:17.56	91.51	20.72	-34.3	-35.7	18.3	0.00e+00	0	55	0	781189120	40	4153
2026-01-04 10:37:18.57	91.31	20.80	-34.3	-35.7	18.2	0.00e+00	0	55	0	786432000	40	4153
2026-01-04 10:37:19.58	91.10	20.89	-34.4	-35.8	18.1	0.00e+00	0	55	0	792723456	40	4224
2026-01-04 10:37:20.59	90.89	20.97	-34.4	-35.9	18.0	0.00e+00	0	55	0	797966336	40	4252
2026-01-04 10:37:21.60	90.68	21.05	-34.5	-35.9	17.9	0.00e+00	0	55	0	803209216	40	4273
2026-01-04 10:37:22.61	90.47	21.13	-34.4	-35.9	17.9	0.00e+00	0	55	0	809500672	40	4272
2026-01-04 10:37:23.62	90.26	21.22	-34.4	-35.9	17.9	0.00e+00	0	56	0	814743552	40	4243
2026-01-04 10:37:24.63	90.05	21.30	-34.4	-35.9	17.9	0.00e+00	0	55	0	821035008	40	4259
2026-01-04 10:37:25.64	89.84	21.38	-34.5	-36.0	17.8	0.00e+00	0	56	0	826277888	40	4297
2026-01-04 10:37:26.65	89.62	21.46	-34.5	-36.0	17.7	0.00e+00	0	56	0	831520768	40	4306
2026-01-04 10:37:27.66	89.41	21.55	-34.5	-36.0	17.7	0.00e+00	0	55	0	837812224	40	4296
2026-01-04 10:37:28.67	89.19	21.63	-34.5	-36.0	17.7	0.00e+00	0	55	0	843055104	40	4320
2026-01-04 10:37:29.68	88.97	21.71	-34.5	-36.0	17.7	0.00e+00	0	56	0	849346560	40	4311
2026-01-04 10:37:30.69	88.75	21.79	-34.4	-35.9	17.7	0.00e+00	0	55	0	854589440	40	4280
2026-01-04 10:37:31.70	88.53	21.87	-34.5	-36.0	17.7	0.00e+00	0	56	0	859832320	40	4296
2026-01-04 10:37:32.71	88.31	21.95	-34.5	-36.0	17.7	0.00e+00	0	55	0	866123776	40	4307
2026-01-04 10:37:33.72	88.09	22.03	-34.5	-35.9	17.7	0.00e+00	0	55	0	871366656	40	4281
2026-01-04 10:37:34.73	87.86	22.12	-34.6	-36.1	17.5	0.00e+00	0	55	0	877658112	40	4348
2026-01-04 10:37:35.74	87.64	22.20	-34.6	-36.1	17.5	0.00e+00	0	55	0	882900992	40	4344
2026-01-04 10:37:36.74	87.41	22.28	-34.6	-36.1	17.5	0.00e+00	0	55	0	889192448	40	4359
2026-01-04 10:37:37.75	87.18	22.36	-34.5	-36.0	17.6	0.00e+00	0	56	0	894435328	40	4334
2026-01-04 10:37:38.76	86.96	22.44	-34.5	-36.0	17.7	0.00e+00	0	56	0	899678208	40	4322
2026-01-04 10:37:39.77	86.73	22.52	-34.5	-36.0	17.7	0.00e+00	0	55	0	905969664	40	4304
2026-01-04 10:37:40.78	86.49	22.59	-34.4	-35.9	17.8	0.00e+00	0	56	0	911212544	40	4259
2026-01-04 10:37:41.79	86.26	22.67	-34.3	-35.8	18.0	0.00e+00	0	56	0	917504000	40	4219
2026-01-04 10:37:42.80	86.03	22.75	-34.3	-35.7	18.1	0.00e+00	0	56	0	922746880	40	4192
2026-01-04 10:37:43.81	85.79	22.83	-34.3	-35.8	18.1	0.00e+00	0	55	0	927989760	40	4207
2026-01-04 10:37:44.83	85.55	22.91	-34.4	-35.8	18.1	0.00e+00	0	55	0	934281216	40	4231
2026-01-04 10:37:45.84	85.32	22.99	-34.4	-35.8	18.1	0.00e+00	0	56	0	939524096	40	4210
2026-01-04 10:37:46.85	85.08	23.07	-34.2	-35.6	18.4	0.00e+00	0	56	0	945815552	40	4136
2026-01-04 10:37:47.86	84.84	23.14	-34.1	-35.5	18.5	0.00e+00	0	56	0	951058432	40	4095
2026-01-04 10:37:48.87	84.60	23.22	-34.1	-35.5	18.5	0.00e+00	0	55	0	956301312	40	4090
2026-01-04 10:37:49.88	84.36	23.30	-34.1	-35.5	18.5	0.00e+00	0	56	0	962592768	40	4080
2026-01-04 10:37:50.89	84.11	23.37	-34.1	-35.5	18.5	0.00e+00	0	56	0	967835648	40	4095
2026-01-04 10:37:51.90	83.87	23.45	-34.0	-35.4	18.6	0.00e+00	0	56	0	974127104	40	4048
2026-01-04 10:37:52.91	83.62	23.52	-34.0	-35.4	18.7	0.00e+00	0	55	0	979369984	39	4257
2026-01-04 10:37:53.92	83.38	23.60	-33.9	-35.3	18.8	0.00e+00	0	56	0	985661440	39	4225
2026-01-04 10:37:54.93	83.13	23.68	-33.9	-35.3	18.9	0.00e+00	0	56	0	990904320	39	4201
2026-01-04 10:37:55.94	82.88	23.75	-33.8	-35.1	19.0	0.00e+00	0	56	0	997195776	39	4137
2026-01-04 10:37:56.95	82.63	23.82	-33.9	-35.2	18.9	0.00e+00	0	55	0	1002438656	39	4182
2026-01-04 10:37:57.96	82.38	23.90	-34.0	-35.3	18.9	0.00e+00	0	56	0	1007681536	39	4228
2026-01-04 10:37:58.97	82.13	23.97	-34.0	-35.4	18.8	0.00e+00	0	55	0	1013972992	39	4270
2026-01-04 10:37:59.98	81.87	24.04	-34.0	-35.3	18.9	0.00e+00	0	56	0	1019215872	39	4225
2026-01-04 10:38:00.99	81.62	24.12	-34.0	-35.3	18.9	0.00e+00	0	56	0	1025507328	39	4235
2026-01-04 10:38:02.00	81.36	24.19	-33.9	-35.2	19.0	0.00e+00	0	56	0	1030750208	39	4181
2026-01-04 10:38:03.01	81.10	24.26	-33.8	-35.1	19.1	0.00e+00	0	56	0	1035993088	39	4144
2026-01-04 10:38:04.02	80.84	24.33	-33.8	-35.1	19.2	0.00e+00	0	56	0	1042284544	39	4105
2026-01-04 10:38:05.03	80.58	24.40	-33.7	-35.0	19.2	0.00e+00	0	56	0	1047527424	39	4084
2026-01-04 10:38:06.04	80.32	24.47	-33.7	-35.0	19.2	0.00e+00	0	56	0	1053818880	39	4057
2026-01-04 10:38:07.05	80.06	24.54	-33.6	-34.9	19.3	0.00e+00	0	56	0	1059061760	39	4029
2026-01-04 10:38:08.06	79.80	24.61	-33.5	-34.8	19.4	0.00e+00	0	56	0	1064304640	39	3983
2026-01-04 10:38:09.07	79.53	24.68	-33.5	-34.8	19.5	0.00e+00	0	56	0	1070596096	38	4199
2026-01-04 10:38:10.08	79.27	24.75	-33.5	-34.8	19.5	0.00e+00	0	56	0	1075838976	38	4196
2026-01-04 10:38:11.09	79.00	24.82	-33.5	-34.8	19.4	0.00e+00	0	56	0	1082130432	38	4238
2026-01-04 10:38:12.10	78.73	24.89	-33.6	-35.0	19.3	0.00e+00	0	56	0	1087373312	38	4292
2026-01-04 10:38:13.11	78.46	24.95	-33.6	-34.9	19.3	0.00e+00	0	56	0	1093664768	38	4278
2026-01-04 10:38:14.12	78.19	25.02	-33.6	-34.9	19.4	0.00e+00	0	56	0	1098907648	38	4278
2026-01-04 10:38:15.13	77.92	25.09	-33.5	-34.8	19.5	0.00e+00	0	56	0	1105199104	38	4225
2026-01-04 10:38:16.14	77.65	25.15	-33.6	-34.9	19.3	0.00e+00	0	56	0	1110441984	38	4282
2026-01-04 10:38:17.15	77.38	25.22	-33.7	-35.0	19.2	0.00e+00	0	56	0	1115684864	38	4335
2026-01-04 10:38:18.16	77.10	25.28	-33.8	-35.1	19.2	0.00e+00	0	56	0	1121976320	38	4372
2026-01-04 10:38:19.17	76.83	25.35	-33.7	-35.0	19.2	0.00e+00	0	56	0	1127219200	38	4325
2026-01-04 10:38:20.18	76.55	25.41	-33.6	-34.9	19.4	0.00e+00	0	56	0	1133510656	38	4275
2026-01-04 10:38:21.19	76.27	25.47	-33.6	-34.9	19.4	0.00e+00	0	56	0	1138753536	38	4251
2026-01-04 10:38:22.20	75.99	25.53	-33.5	-34.8	19.5	0.00e+00	0	56	0	1143996416	38	4215
2026-01-04 10:38:23.21	75.71	25.60	-33.5	-34.8	19.5	0.00e+00	0	56	0	1150287872	38	4240
2026-01-04 10:38:24.23	75.43	25.66	-33.6	-34.9	19.4	0.00e+00	0	56	0	1155530752	38	4267
2026-01-04 10:38:25.24	75.14	25.72	-33.5	-34.8	19.5	0.00e+00	0	56	0	1161822208	38	4210
2026-01-04 10:38:26.24	74.86	25.78	-33.3	-34.6	19.7	0.00e+00	0	56	0	1167065088	38	4122
2026-01-04 10:38:27.25	74.58	25.84	-33.2	-34.5	19.8	0.00e+00	0	56	0	1172307968	38	4069
2026-01-04 10:38:28.26	74.29	25.89	-33.3	-34.5	19.8	0.00e+00	0	56	0	1178599424	38	4080
2026-01-04 10:38:29.27	74.01	25.95	-33.4	-34.7	19.6	0.00e+00	0	56	0	1183842304	38	4173
2026-01-04 10:38:30.28	73.72	26.01	-33.5	-34.8	19.5	0.00e+00	0	56	0	1190133760	38	4200
2026-01-04 10:38:31.29	73.43	26.06	-33.5	-34.8	19.5	0.00e+00	0	56	0	1195376640	38	4222
2026-01-04 10:38:32.30	73.14	26.12	-33.5	-34.8	19.5	0.00e+00	0	56	0	1201668096	38	4210
2026-01-04 10:38:33.31	72.85	26.18	-33.5	-34.8	19.6	0.00e+00	0	56	0	1206910976	38	4199
2026-01-04 10:38:34.32	72.56	26.23	-33.5	-34.7	19.6	0.00e+00	0	56	0	1212153856	38	4193
2026-01-04 10:38:35.33	72.27	26.28	-33.3	-34.6	19.7	0.00e+00	0	56	0	1218445312	38	4120
2026-01-04 10:38:36.34	71.97	26.34	-33.3	-34.5	19.8	0.00e+00	0	56	0	1223688192	38	4086
2026-01-04 10:38:37.35	71.68	26.39	-33.4	-34.6	19.7	0.00e+00	0	56	0	1229979648	38	4134
2026-01-04 10:38:38.36	71.38	26.44	-33.4	-34.7	19.6	0.00e+00	0	56	0	1235222528	38	4179
2026-01-04 10:38:39.37	71.08	26.49	-33.5	-34.8	19.5	0.00e+00	0	56	0	1240465408	38	4231
2026-01-04 10:38:40.38	70.79	26.54	-33.5	-34.8	19.6	0.00e+00	0	56	0	1246756864	38	4201
2026-01-04 10:38:41.39	70.49	26.59	-33.4	-34.7	19.7	0.00e+00	0	56	0	1251999744	38	4159
2026-01-04 10:38:42.40	70.19	26.64	-33.4	-34.6	19.7	0.00e+00	0	56	0	1258291200	38	4134
2026-01-04 10:38:43.41	69.89	26.68	-33.3	-34.6	19.8	0.00e+00	0	56	0	1263534080	38	4108
2026-01-04 10:38:44.42	69.59	26.73	-33.2	-34.5	19.9	0.00e+00	0	56	0	1268776960	38	4068
2026-01-04 10:38:45.43	69.28	26.78	-33.2	-34.4	20.0	0.00e+00	0	56	0	1275068416	38	4044
2026-01-04 10:38:46.44	68.98	26.82	-33.2	-34.4	20.0	0.00e+00	0	56	0	1280311296	38	4038
2026-01-04 10:38:47.45	68.68	26.87	-33.2	-34.4	20.0	0.00e+00	0	56	0	1286602752	38	4035
2026-01-04 10:38:48.46	68.37	26.91	-33.2	-34.4	20.0	0.00e+00	0	56	0	1291845632	38	4028
2026-01-04 10:38:49.47	68.07	26.95	-33.3	-34.5	19.9	0.00e+00	0	56	0	1298137088	38	4082
2026-01-04 10:38:50.48	67.76	26.99	-33.3	-34.6	19.9	0.00e+00	0	56	0	1303379968	38	4100
2026-01-04 10:38:51.49	67.45	27.04	-33.3	-34.6	19.9	0.00e+00	0	56	0	1309671424	38	4102
2026-01-04 10:38:52.50	67.15	27.08	-33.2	-34.4	20.0	0.00e+00	0	56	0	1314914304	38	4048
2026-01-04 10:38:53.51	66.84	27.12	-33.1	-34.4	20.0	0.00e+00	0	56	0	1320157184	38	4024
2026-01-04 10:38:54.52	66.53	27.15	-33.2	-34.4	20.0	0.00e+00	0	56	0	1326448640	38	4021
2026-01-04 10:38:55.53	66.22	27.19	-33.2	-34.5	20.0	0.00e+00	0	56	0	1331691520	38	4058
2026-01-04 10:38:56.54	65.91	27.23	-33.3	-34.6	19.9	0.00e+00	0	56	0	1337982976	38	4100
2026-01-04 10:38:57.55	65.60	27.26	-33.2	-34.5	19.9	0.00e+00	0	56	0	1343225856	38	4076
2026-01-04 10:38:58.56	65.28	27.30	-33.2	-34.5	19.9	0.00e+00	0	56	0	1348468736	38	4079
2026-01-04 10:38:59.57	64.97	27.33	-33.2	-34.5	19.9	0.00e+00	0	56	0	1354760192	38	4065
2026-01-04 10:39:00.58	64.66	27.37	-33.2	-34.4	19.9	0.00e+00	0	56	0	1360003072	38	4050
2026-01-04 10:39:01.59	64.34	27.40	-33.2	-34.5	19.9	0.00e+00	0	56	0	1366294528	38	4072
2026-01-04 10:39:02.60	64.03	27.43	-33.3	-34.6	19.8	0.00e+00	0	56	0	1371537408	38	4127
2026-01-04 10:39:03.61	63.71	27.46	-33.4	-34.6	19.8	0.00e+00	0	56	0	1376780288	38	4137
2026-01-04 10:39:04.62	63.40	27.49	-33.2	-34.5	20.0	0.00e+00	0	56	0	1383071744	38	4077
2026-01-04 10:39:05.63	63.08	27.52	-33.0	-34.3	20.2	0.00e+00	0	56	0	1388314624	38	3966
2026-01-04 10:39:06.64	62.76	27.54	-33.0	-34.2	20.2	0.00e+00	0	56	0	1394606080	38	3945
2026-01-04 10:39:07.65	62.44	27.57	-33.0	-34.3	20.2	0.00e+00	0	56	0	1399848960	38	3970
2026-01-04 10:39:08.66	62.13	27.60	-33.0	-34.3	20.2	0.00e+00	0	56	0	1406140416	38	3970
2026-01-04 10:39:09.67	61.81	27.62	-33.0	-34.2	20.2	0.00e+00	0	56	0	1411383296	38	3958
2026-01-04 10:39:10.68	61.49	27.65	-32.9	-34.1	20.4	0.00e+00	0	56	0	1416626176	37	4114
2026-01-04 10:39:11.69	61.17	27.67	-32.8	-34.0	20.4	0.00e+00	0	56	0	1422917632	37	4074
2026-01-04 10:39:12.70	60.85	27.69	-32.7	-33.9	20.5	0.00e+00	0	56	0	1428160512	37	4038
2026-01-04 10:39:13.71	60.53	27.71	-32.8	-34.0	20.4	0.00e+00	0	56	0	1434451968	37	4096
2026-01-04 10:39:14.71	60.21	27.73	-32.9	-34.2	20.3	0.00e+00	0	56	0	1439694848	37	4158
2026-01-04 10:39:15.73	59.89	27.75	-33.0	-34.3	20.1	0.00e+00	0	56	0	1444937728	37	4204
2026-01-04 10:39:16.74	59.56	27.77	-32.9	-34.2	20.2	0.00e+00	0	56	0	1451229184	37	4156
2026-01-04 10:39:17.75	59.24	27.78	-32.9	-34.1	20.3	0.00e+00	0	56	0	1456472064	37	4124
2026-01-04 10:39:18.76	58.92	27.80	-32.8	-34.0	20.4	0.00e+00	0	56	0	1462763520	37	4097
2026-01-04 10:39:19.77	58.60	27.81	-32.8	-34.0	20.4	0.00e+00	0	56	0	1468006400	37	4094
2026-01-04 10:39:20.78	58.27	27.83	-32.9	-34.1	20.4	0.00e+00	0	56	0	1473249280	37	4109
2026-01-04 10:39:21.79	57.95	27.84	-32.9	-34.1	20.4	0.00e+00	0	56	0	1479540736	37	4127
2026-01-04 10:39:22.80	57.63	27.85	-33.0	-34.2	20.3	0.00e+00	0	56	0	1484783616	37	4170
2026-01-04 10:39:23.81	57.30	27.86	-33.1	-34.3	20.2	0.00e+00	0	56	0	1491075072	37	4220
2026-01-04 10:39:24.82	56.98	27.87	-33.2	-34.4	20.1	0.00e+00	0	56	0	1496317952	37	4266
2026-01-04 10:39:25.83	56.66	27.88	-33.2	-34.4	20.1	0.00e+00	0	56	0	1502609408	37	4282
2026-01-04 10:39:26.84	56.33	27.89	-33.2	-34.5	20.1	0.00e+00	0	56	0	1507852288	37	4298
2026-01-04 10:39:27.85	56.01	27.90	-33.2	-34.5	20.0	0.00e+00	0	56	0	1514143744	37	4292
2026-01-04 10:39:28.86	55.68	27.90	-33.2	-34.4	20.1	0.00e+00	0	56	0	1519386624	37	4271
2026-01-04 10:39:29.87	55.36	27.91	-33.1	-34.3	20.2	0.00e+00	0	56	0	1524629504	37	4216
2026-01-04 10:39:30.88	55.03	27.91	-33.0	-34.2	20.2	0.00e+00	0	56	0	1530920960	37	4187
2026-01-04 10:39:31.89	54.71	27.91	-33.0	-34.2	20.2	0.00e+00	0	56	0	1536163840	37	4168
2026-01-04 10:39:32.90	54.38	27.92	-32.9	-34.1	20.3	0.00e+00	0	56	0	1542455296	37	4145
2026-01-04 10:39:33.91	54.06	27.92	-32.9	-34.1	20.3	0.00e+00	0	56	0	1547698176	37	4117
2026-01-04 10:39:34.92	53.73	27.92	-32.8	-34.0	20.4	0.00e+00	0	56	0	1552941056	37	4097
2026-01-04 10:39:35.93	53.41	27.91	-32.9	-34.1	20.4	0.00e+00	0	56	0	1559232512	37	4116
2026-01-04 10:39:36.94	53.09	27.91	-33.0	-34.2	20.3	0.00e+00	0	56	0	1564475392	37	4164
2026-01-04 10:39:37.95	52.76	27.91	-33.0	-34.2	20.3	0.00e+00	0	56	0	1570766848	37	4157
2026-01-04 10:39:38.95	52.44	27.90	-32.9	-34.1	20.3	0.00e+00	0	56	0	1576009728	37	4139
2026-01-04 10:39:39.96	52.11	27.90	-33.0	-34.2	20.3	0.00e+00	0	56	0	1581252608	37	4151
2026-01-04 10:39:40.97	51.79	27.89	-33.1	-34.3	20.2	0.00e+00	0	56	0	1587544064	37	4224
2026-01-04 10:39:41.99	51.46	27.89	-33.1	-34.3	20.3	0.00e+00	0	56	0	1592786944	37	4201
2026-01-04 10:39:42.99	51.14	27.88	-33.1	-34.3	20.3	0.00e+00	0	56	0	1599078400	37	4212
2026-01-04 10:39:44.00	50.82	27.87	-33.0	-34.3	20.3	0.00e+00	0	56	0	1604321280	37	4199
2026-01-04 10:39:45.01	50.50	27.86	-33.1	-34.3	20.2	0.00e+00	0	56	0	1610612736	37	4207
2026-01-04 10:39:46.02	50.17	27.85	-33.1	-34.3	20.2	0.00e+00	0	56	0	1615855616	37	4214
2026-01-04 10:39:47.03	49.85	27.83	-33.1	-34.3	20.2	0.00e+00	0	56	0	1622147072	37	4205
2026-01-04 10:39:48.04	49.53	27.82	-33.1	-34.3	20.2	0.00e+00	0	56	0	1627389952	37	4232
2026-01-04 10:39:49.05	49.20	27.80	-33.2	-34.4	20.1	0.00e+00	0	56	0	1632632832	37	4281
2026-01-04 10:39:50.06	48.88	27.79	-33.3	-34.5	20.0	0.00e+00	0	56	0	1638924288	37	4328
2026-01-04 10:39:51.07	48.56	27.77	-33.2	-34.4	20.1	0.00e+00	0	56	0	1644167168	37	4281
2026-01-04 10:39:52.08	48.24	27.76	-33.1	-34.4	20.1	0.00e+00	0	56	0	1650458624	37	4246
2026-01-04 10:39:53.09	47.92	27.74	-33.1	-34.3	20.2	0.00e+00	0	56	0	1655701504	37	4215
2026-01-04 10:39:54.10	47.60	27.72	-33.2	-34.3	20.8	0.00e+00	0	56	0	1660944384	37	4203
2026-01-04 10:39:55.11	47.28	27.70	-33.2	-34.3	20.8	0.00e+00	0	56	0	1667235840	37	4221
2026-01-04 10:39:56.12	46.96	27.68	-33.2	-34.3	20.7	0.00e+00	0	56	0	1672478720	37	4234
2026-01-04 10:39:57.13	46.64	27.65	-33.2	-34.3	20.7	0.00e+00	0	56	0	1678770176	37	4225
2026-01-04 10:39:58.14	46.32	27.63	-33.3	-34.4	20.7	0.00e+00	0	56	0	1684013056	37	4250
2026-01-04 10:39:59.15	46.00	27.61	-33.3	-34.4	20.7	0.00e+00	0	56	0	1689255936	37	4255
2026-01-04 10:40:00.16	45.68	27.58	-33.2	-34.3	20.8	0.00e+00	0	56	0	1695547392	37	4199
2026-01-04 10:40:01.17	45.36	27.55	-33.1	-34.2	20.9	0.00e+00	0	56	0	1700790272	37	4165
2026-01-04 10:40:02.18	45.05	27.53	-33.1	-34.1	20.9	0.00e+00	0	56	0	1707081728	37	4137
2026-01-04 10:40:03.19	44.73	27.50	-33.2	-34.2	20.8	0.00e+00	0	56	0	1712324608	37	4183
2026-01-04 10:40:04.19	44.42	27.47	-33.3	-34.4	20.7	0.00e+00	0	56	0	1718616064	37	4251
2026-01-04 10:40:05.20	44.10	27.44	-33.3	-34.4	20.7	0.00e+00	0	56	0	1723858944	37	4271
2026-01-04 10:40:06.21	43.79	27.41	-33.2	-34.2	20.8	0.00e+00	0	56	0	1729101824	37	4190
2026-01-04 10:40:07.22	43.47	27.38	-33.2	-34.3	20.8	0.00e+00	0	56	0	1735393280	37	4209
2026-01-04 10:40:08.23	43.16	27.34	-33.1	-34.2	20.9	0.00e+00	0	56	0	1740636160	37	4160
2026-01-04 10:40:09.25	42.84	27.31	-33.1	-34.2	20.8	0.00e+00	0	56	0	1746927616	37	4193
2026-01-04 10:40:10.26	42.53	27.28	-33.1	-34.2	20.9	0.00e+00	0	56	0	1752170496	37	4182
2026-01-04 10:40:11.27	42.22	27.24	-33.0	-34.1	21.0	0.00e+00	0	56	0	1757413376	37	4127
2026-01-04 10:40:12.28	41.91	27.20	-32.9	-33.9	21.1	0.00e+00	0	56	0	1763704832	37	4050
2026-01-04 10:40:13.29	41.60	27.17	-33.0	-34.0	21.0	0.00e+00	0	56	0	1768947712	37	4083
2026-01-04 10:40:14.30	41.29	27.13	-33.0	-34.1	21.0	0.00e+00	0	56	0	1775239168	37	4108
2026-01-04 10:40:15.31	40.98	27.09	-33.0	-34.0	21.0	0.00e+00	0	56	0	1780482048	37	4098
2026-01-04 10:40:16.32	40.67	27.05	-33.0	-34.1	21.0	0.00e+00	0	56	0	1785724928	37	4111
2026-01-04 10:40:17.33	40.37	27.01	-33.1	-34.2	20.9	0.00e+00	0	56	0	1792016384	37	4166
2026-01-04 10:40:18.34	40.06	26.97	-33.1	-34.2	20.9	0.00e+00	0	56	0	1797259264	37	4157
2026-01-04 10:40:19.35	39.76	26.93	-33.2	-34.3	20.8	0.00e+00	0	56	0	1803550720	37	4196
2026-01-04 10:40:20.35	39.45	26.88	-33.3	-34.4	20.7	0.00e+00	0	56	0	1808793600	37	4265
2026-01-04 10:40:21.36	39.15	26.84	-33.4	-34.5	20.6	0.00e+00	0	56	0	1815085056	37	4299
2026-01-04 10:40:22.37	38.85	26.79	-33.5	-34.6	20.5	0.00e+00	0	56	0	1820327936	37	4361
2026-01-04 10:40:23.38	38.55	26.75	-33.5	-34.6	20.5	0.00e+00	0	56	0	1826619392	37	4356
2026-01-04 10:40:24.39	38.25	26.70	-33.5	-34.6	20.6	0.00e+00	0	56	0	1831862272	37	4343
2026-01-04 10:40:25.40	37.95	26.65	-33.4	-34.5	20.6	0.00e+00	0	56	0	1837105152	37	4296
2026-01-04 10:40:26.41	37.65	26.61	-33.4	-34.5	20.6	0.00e+00	0	56	0	1843396608	37	4315
2026-01-04 10:40:27.42	37.35	26.56	-33.3	-34.4	20.7	0.00e+00	0	56	0	1848639488	37	4266
2026-01-04 10:40:28.43	37.05	26.51	-33.3	-34.4	20.7	0.00e+00	0	56	0	1854930944	37	4288
2026-01-04 10:40:29.44	36.75	26.46	-33.3	-34.4	20.7	0.00e+00	0	56	0	1860173824	37	4265
2026-01-04 10:40:30.45	36.46	26.41	-33.3	-34.3	20.7	0.00e+00	0	56	0	1865416704	37	4242
2026-01-04 10:40:31.46	36.16	26.36	-33.2	-34.3	20.8	0.00e+00	0	56	0	1871708160	37	4231
2026-01-04 10:40:32.47	35.87	26.30	-33.2	-34.3	20.8	0.00e+00	0	56	0	1876951040	37	4221
2026-01-04 10:40:33.48	35.58	26.25	-33.2	-34.3	20.8	0.00e+00	0	56	0	1882193920	37	4228
2026-01-04 10:40:34.49	35.29	26.20	-33.3	-34.4	20.7	0.00e+00	0	56	0	1888485376	37	4254
2026-01-04 10:40:35.50	35.00	26.14	-33.3	-34.4	20.7	0.00e+00	0	56	0	1893728256	37	4283
2026-01-04 10:40:36.51	34.71	26.09	-33.4	-34.5	20.6	0.00e+00	0	56	0	1900019712	37	4307
2026-01-04 10:40:37.52	34.42	26.03	-33.3	-34.4	20.7	0.00e+00	0	56	0	1905262592	37	4265
2026-01-04 10:40:38.53	34.13	25.97	-33.2	-34.3	20.8	0.00e+00	0	56	0	1911554048	37	4233
2026-01-04 10:40:39.54	33.85	25.92	-33.3	-34.4	20.8	0.00e+00	0	56	0	1916796928	37	4247
2026-01-04 10:40:40.55	33.56	25.86	-33.2	-34.3	20.8	0.00e+00	0	56	0	1923088384	37	4227
2026-01-04 10:40:41.56	33.28	25.80	-33.3	-34.3	20.7	0.00e+00	0	56	0	1928331264	37	4240
2026-01-04 10:40:42.57	32.99	25.74	-33.2	-34.3	20.8	0.00e+00	0	56	0	1933574144	37	4231
2026-01-04 10:40:43.58	32.71	25.68	-33.4	-34.5	20.6	0.00e+00	0	56	0	1939865600	37	4298
2026-01-04 10:40:44.59	32.43	25.62	-33.4	-34.5	20.5	0.00e+00	0	57	0	1945108480	37	4334
2026-01-04 10:40:45.60	32.15	25.56	-33.5	-34.6	20.5	0.00e+00	0	56	0	1951399936	37	4370
2026-01-04 10:40:46.61	31.87	25.50	-33.5	-34.6	20.5	0.00e+00	0	57	0	1956642816	37	4376
2026-01-04 10:40:47.62	31.59	25.43	-33.6	-34.7	20.4	0.00e+00	0	57	0	1961885696	37	4424
2026-01-04 10:40:48.63	31.32	25.37	-33.7	-34.9	20.3	0.00e+00	0	56	0	1968177152	38	4249
2026-01-04 10:40:49.64	31.04	25.31	-33.8	-34.9	20.3	0.00e+00	0	56	0	1973420032	38	4254
2026-01-04 10:40:50.65	30.77	25.24	-33.8	-34.9	20.2	0.00e+00	0	56	0	1979711488	38	4273
2026-01-04 10:40:51.66	30.49	25.18	-33.8	-34.9	20.2	0.00e+00	0	56	0	1984954368	38	4262
2026-01-04 10:40:52.67	30.22	25.11	-33.7	-34.8	20.3	0.00e+00	0	57	0	1990197248	38	4209
2026-01-04 10:40:53.68	29.95	25.05	-33.6	-34.7	20.5	0.00e+00	0	57	0	1996488704	38	4151
2026-01-04 10:40:54.69	29.68	24.98	-33.6	-34.7	20.4	0.00e+00	0	56	0	2001731584	38	4185
2026-01-04 10:40:55.70	29.41	24.92	-33.6	-34.8	20.4	0.00e+00	0	56	0	2008023040	38	4196
2026-01-04 10:40:56.71	29.14	24.85	-33.7	-34.8	20.3	0.00e+00	0	56	0	2013265920	38	4222
2026-01-04 10:40:57.72	28.88	24.78	-33.7	-34.8	20.3	0.00e+00	0	56	0	2019557376	38	4199
2026-01-04 10:40:58.74	28.61	24.71	-33.7	-34.8	20.3	0.00e+00	0	56	0	2024800256	38	4232
2026-01-04 10:40:59.75	28.35	24.64	-33.8	-34.9	20.2	0.00e+00	0	56	0	2031091712	38	4264
2026-01-04 10:41:00.76	28.08	24.57	-33.8	-34.9	20.2	0.00e+00	0	56	0	2036334592	38	4261
2026-01-04 10:41:01.77	27.82	24.50	-33.8	-34.9	20.2	0.00e+00	0	56	0	2041577472	38	4281
2026-01-04 10:41:02.78	27.56	24.43	-33.8	-34.9	20.2	0.00e+00	0	56	0	2047868928	38	4269
2026-01-04 10:41:03.79	27.30	24.36	-33.7	-34.8	20.3	0.00e+00	0	56	0	2053111808	38	4231
2026-01-04 10:41:04.80	27.04	24.29	-33.6	-34.8	20.4	0.00e+00	0	57	0	2059403264	38	4194
2026-01-04 10:41:05.81	26.79	24.22	-33.6	-34.7	20.4	0.00e+00	0	57	0	2064646144	38	4155
2026-01-04 10:41:06.82	26.53	24.15	-33.5	-34.6	20.5	0.00e+00	0	56	0	2069889024	38	4139
2026-01-04 10:41:07.83	26.28	24.08	-33.5	-34.6	20.5	0.00e+00	0	57	0	2076180480	38	4111
2026-01-04 10:41:08.84	26.02	24.00	-33.4	-34.5	20.6	0.00e+00	0	56	0	2081423360	38	4086
2026-01-04 10:41:09.85	25.77	23.93	-33.5	-34.6	20.5	0.00e+00	0	56	0	2087714816	38	4124
2026-01-04 10:41:10.86	25.52	23.86	-33.6	-34.8	20.3	0.00e+00	0	56	0	2092957696	38	4195
2026-01-04 10:41:11.87	25.27	23.78	-33.8	-34.9	20.2	0.00e+00	0	57	0	2098200576	38	4274
2026-01-04 10:41:12.88	25.02	23.71	-33.8	-35.0	20.1	0.00e+00	0	57	0	2104492032	38	4298
2026-01-04 10:41:13.89	24.77	23.63	-33.7	-34.9	20.2	0.00e+00	0	57	0	2109734912	38	4249
2026-01-04 10:41:14.90	24.53	23.56	-33.6	-34.7	20.4	0.00e+00	0	56	0	2116026368	38	4163
2026-01-04 10:41:15.91	24.28	23.48	-33.6	-34.7	20.4	0.00e+00	0	57	0	2121269248	38	4172
2026-01-04 10:41:16.92	24.04	23.41	-33.7	-34.8	20.3	0.00e+00	0	56	0	2127560704	38	4202
2026-01-04 10:41:17.93	23.80	23.33	-33.8	-34.9	20.1	0.00e+00	0	57	0	2132803584	38	4285
2026-01-04 10:41:18.94	23.56	23.26	-33.9	-35.0	20.1	0.00e+00	0	57	0	2139095040	38	4339
2026-01-04 10:41:19.95	23.32	23.18	-33.8	-35.0	20.1	0.00e+00	0	57	0	2144337920	38	4310
2026-01-04 10:41:20.96	23.08	23.10	-33.8	-34.9	20.1	0.00e+00	0	57	0	2149580800	38	4284
2026-01-04 10:41:21.97	22.84	23.02	-33.9	-35.0	20.1	0.00e+00	0	56	0	2155872256	38	4311
2026-01-04 10:41:22.98	22.60	22.95	-33.9	-35.0	20.0	0.00e+00	0	56	0	2161115136	38	4334
2026-01-04 10:41:23.99	22.37	22.87	-34.0	-35.1	19.9	0.00e+00	0	57	0	2167406592	38	4369
2026-01-04 10:41:25.00	22.13	22.79	-33.9	-35.1	20.0	0.00e+00	0	57	0	2172649472	38	4352
2026-01-04 10:41:26.01	21.90	22.71	-33.9	-35.1	20.0	0.00e+00	0	57	0	2177892352	38	4347
2026-01-04 10:41:27.02	21.67	22.63	-33.9	-35.0	20.0	0.00e+00	0	57	0	2184183808	38	4335
2026-01-04 10:41:28.03	21.44	22.55	-33.9	-35.0	20.0	0.00e+00	0	57	0	2189426688	38	4331
2026-01-04 10:41:29.04	21.21	22.48	-34.0	-35.1	19.9	0.00e+00	0	57	0	2195718144	38	4375
2026-01-04 10:41:30.04	20.98	22.40	-34.1	-35.2	19.9	0.00e+00	0	57	0	2200961024	38	4423
2026-01-04 10:41:31.06	20.75	22.32	-34.2	-35.4	19.7	0.00e+00	0	56	0	2206203904	38	4520
2026-01-04 10:41:32.07	20.53	22.24	-34.2	-35.4	19.7	0.00e+00	0	56	0	2212495360	39	4266
2026-01-04 10:41:33.08	20.30	22.16	-34.2	-35.4	19.7	0.00e+00	0	56	0	2217738240	39	4257
2026-01-04 10:41:34.09	20.08	22.08	-34.3	-35.5	19.7	0.00e+00	0	56	0	2224029696	39	4300
2026-01-04 10:41:35.10	19.86	22.00	-34.3	-35.5	19.6	0.00e+00	0	57	0	2229272576	39	4329
2026-01-04 10:41:36.11	19.63	21.91	-34.4	-35.6	19.5	0.00e+00	0	57	0	2235564032	39	4362
2026-01-04 10:41:37.12	19.41	21.83	-34.3	-35.5	19.6	0.00e+00	0	56	0	2240806912	39	4318
2026-01-04 10:41:38.14	19.19	21.75	-34.3	-35.5	19.6	0.00e+00	0	57	0	2247098368	39	4309
2026-01-04 10:41:39.15	18.97	21.67	-34.3	-35.4	19.6	0.00e+00	0	57	0	2252341248	39	4281
2026-01-04 10:41:40.16	18.76	21.59	-34.4	-35.6	19.5	0.00e+00	0	56	0	2257584128	39	4345
2026-01-04 10:41:41.17	18.54	21.51	-34.4	-35.6	19.5	0.00e+00	0	57	0	2263875584	39	4345
2026-01-04 10:41:42.18	18.33	21.43	-34.4	-35.6	19.4	0.00e+00	0	57	0	2269118464	39	4368
2026-01-04 10:41:43.19	18.12	21.34	-34.4	-35.6	19.4	0.00e+00	0	57	0	2275409920	39	4364
2026-01-04 10:41:44.19	17.91	21.26	-34.4	-35.6	19.4	0.00e+00	0	57	0	2280652800	39	4374
2026-01-04 10:41:45.20	17.69	21.18	-34.3	-35.5	19.5	0.00e+00	0	56	0	2285895680	39	4298
2026-01-04 10:41:46.21	17.49	21.10	-34.3	-35.5	19.5	0.00e+00	0	57	0	2292187136	39	4299
2026-01-04 10:41:47.22	17.28	21.01	-34.3	-35.4	19.6	0.00e+00	0	56	0	2297430016	39	4288
2026-01-04 10:41:48.23	17.07	20.93	-34.3	-35.5	19.5	0.00e+00	0	57	0	2303721472	39	4325
2026-01-04 10:41:49.24	16.86	20.85	-34.4	-35.6	19.4	0.00e+00	0	56	0	2308964352	39	4348
2026-01-04 10:41:50.25	16.66	20.77	-34.4	-35.6	19.4	0.00e+00	0	57	0	2314207232	39	4378
2026-01-04 10:41:51.26	16.45	20.68	-34.4	-35.6	19.4	0.00e+00	0	57	0	2320498688	39	4360
2026-01-04 10:41:52.27	16.25	20.60	-34.4	-35.6	19.4	0.00e+00	0	57	0	2325741568	39	4354
2026-01-04 10:41:53.28	16.05	20.52	-34.5	-35.7	19.4	0.00e+00	0	57	0	2332033024	39	4401
2026-01-04 10:41:54.29	15.85	20.43	-34.4	-35.6	19.4	0.00e+00	0	57	0	2337275904	39	4386
2026-01-04 10:41:55.30	15.65	20.35	-34.5	-35.7	19.3	0.00e+00	0	57	0	2343567360	39	4404
2026-01-04 10:41:56.31	15.45	20.27	-34.5	-35.7	19.3	0.00e+00	0	57	0	2348810240	39	4415
2026-01-04 10:41:57.32	15.25	20.18	-34.4	-35.6	19.4	0.00e+00	0	57	0	2354053120	39	4365
2026-01-04 10:41:58.33	15.06	20.10	-34.2	-35.4	19.6	0.00e+00	0	57	0	2360344576	39	4275
2026-01-04 10:41:59.34	14.86	20.01	-34.2	-35.3	19.6	0.00e+00	0	57	0	2365587456	39	4232
2026-01-04 10:42:00.34	14.67	19.93	-34.2	-35.4	19.6	0.00e+00	0	57	0	2371878912	39	4256
2026-01-04 10:42:01.36	14.47	19.85	-34.2	-35.3	19.7	0.00e+00	0	57	0	2377121792	39	4226
2026-01-04 10:42:02.36	14.28	19.76	-34.3	-35.5	19.5	0.00e+00	0	57	0	2382364672	39	4293
2026-01-04 10:42:03.37	14.09	19.68	-34.4	-35.6	19.4	0.00e+00	0	57	0	2388656128	39	4344
2026-01-04 10:42:04.38	13.90	19.60	-34.4	-35.7	19.3	0.00e+00	0	57	0	2393899008	39	4392
2026-01-04 10:42:05.39	13.71	19.51	-34.4	-35.6	19.3	0.00e+00	0	57	0	2400190464	39	4384
2026-01-04 10:42:06.40	13.53	19.43	-34.5	-35.7	19.3	0.00e+00	0	57	0	2405433344	39	4415
2026-01-04 10:42:07.41	13.34	19.34	-34.5	-35.7	19.3	0.00e+00	0	56	0	2410676224	39	4421
2026-01-04 10:42:08.42	13.15	19.26	-34.6	-35.8	19.2	0.00e+00	0	57	0	2416967680	39	4466
2026-01-04 10:42:09.43	12.97	19.17	-34.6	-35.8	19.2	0.00e+00	0	57	0	2422210560	39	4485
2026-01-04 10:42:10.44	12.79	19.09	-34.6	-35.8	19.2	0.00e+00	0	57	0	2428502016	39	4462
2026-01-04 10:42:11.45	12.60	19.01	-34.6	-35.9	19.1	0.00e+00	0	56	0	2433744896	39	4496
2026-01-04 10:42:12.46	12.42	18.92	-34.7	-35.9	19.1	0.00e+00	0	57	0	2440036352	39	4523
2026-01-04 10:42:13.47	12.24	18.84	-34.7	-35.9	19.1	0.00e+00	0	57	0	2445279232	39	4525
2026-01-04 10:42:14.48	12.06	18.75	-34.7	-35.9	19.0	0.00e+00	0	56	0	2451570688	40	4272
2026-01-04 10:42:15.49	11.88	18.67	-34.7	-35.9	18.9	0.00e+00	0	57	0	2456813568	40	4286
2026-01-04 10:42:16.50	11.71	18.58	-34.8	-36.1	18.8	0.00e+00	0	56	0	2462056448	40	4349
2026-01-04 10:42:17.51	11.53	18.50	-34.8	-36.1	18.8	0.00e+00	0	56	0	2468347904	40	4363
2026-01-04 10:42:18.52	11.35	18.42	-34.8	-36.1	18.7	0.00e+00	0	57	0	2473590784	40	4376
2026-01-04 10:42:19.53	11.18	18.33	-34.9	-36.1	18.7	0.00e+00	0	57	0	2479882240	40	4387
2026-01-04 10:42:20.54	11.01	18.25	-34.9	-36.2	18.7	0.00e+00	0	56	0	2485125120	40	4401
2026-01-04 10:42:21.55	10.83	18.16	-34.8	-36.1	18.8	0.00e+00	0	57	0	2490368000	40	4349
2026-01-04 10:42:22.56	10.66	18.08	-34.7	-36.0	18.8	0.00e+00	0	56	0	2496659456	40	4308
2026-01-04 10:42:23.57	10.49	17.99	-34.7	-36.0	18.9	0.00e+00	0	57	0	2501902336	40	4292
2026-01-04 10:42:24.58	10.32	17.91	-34.8	-36.0	18.8	0.00e+00	0	57	0	2508193792	40	4328
2026-01-04 10:42:25.59	10.15	17.83	-34.7	-36.0	18.8	0.00e+00	0	57	0	2513436672	40	4298
2026-01-04 10:42:26.60	9.98	17.74	-34.8	-36.1	18.7	0.00e+00	0	57	0	2518679552	40	4361
2026-01-04 10:42:27.61	9.82	17.66	-34.9	-36.2	18.6	0.00e+00	0	57	0	2524971008	40	4411
2026-01-04 10:42:28.62	9.65	17.57	-34.9	-36.2	18.6	0.00e+00	0	57	0	2530213888	40	4402
2026-01-04 10:42:29.63	9.49	17.49	-35.0	-36.3	18.4	0.00e+00	0	57	0	2536505344	40	4488
2026-01-04 10:42:30.64	9.32	17.40	-34.9	-36.2	18.5	0.00e+00	0	57	0	2541748224	40	4421
2026-01-04 10:42:31.65	9.16	17.32	-35.0	-36.3	18.5	0.00e+00	0	57	0	2548039680	40	4443
2026-01-04 10:42:32.66	9.00	17.24	-35.0	-36.3	18.4	0.00e+00	0	57	0	2553282560	40	4481
2026-01-04 10:42:33.67	8.84	17.15	-35.2	-36.5	18.2	0.00e+00	0	57	0	2558525440	40	4592
2026-01-04 10:42:34.68	8.68	17.07	-35.1	-36.4	18.3	0.00e+00	0	57	0	2564816896	40	4529
2026-01-04 10:42:35.69	8.52	16.99	-35.2	-36.5	18.2	0.00e+00	0	56	0	2570059776	40	4586
2026-01-04 10:42:36.70	8.36	16.90	-35.2	-36.5	18.2	0.00e+00	0	57	0	2576351232	40	4561
2026-01-04 10:42:37.71	8.20	16.82	-35.2	-36.5	18.1	0.00e+00	0	57	0	2581594112	40	4573
2026-01-04 10:42:38.73	8.04	16.73	-35.2	-36.6	18.1	0.00e+00	0	56	0	2586836992	41	4342
2026-01-04 10:42:39.74	7.89	16.65	-35.1	-36.4	18.2	0.00e+00	0	57	0	2593128448	41	4282
2026-01-04 10:42:40.75	7.73	16.57	-35.2	-36.6	18.0	0.00e+00	0	57	0	2598371328	41	4347
2026-01-04 10:42:41.76	7.58	16.48	-35.2	-36.5	18.1	0.00e+00	0	57	0	2604662784	41	4333
2026-01-04 10:42:42.77	7.43	16.40	-35.3	-36.6	18.0	0.00e+00	0	57	0	2609905664	41	4370
2026-01-04 10:42:43.78	7.27	16.32	-35.2	-36.5	18.0	0.00e+00	0	56	0	2615148544	41	4333
2026-01-04 10:42:44.79	7.12	16.23	-35.2	-36.5	18.0	0.00e+00	0	57	0	2621440000	41	4340
2026-01-04 10:42:45.80	6.97	16.15	-35.3	-36.6	17.9	0.00e+00	0	57	0	2626682880	41	4391
2026-01-04 10:42:46.81	6.82	16.07	-35.3	-36.7	17.8	0.00e+00	0	57	0	2632974336	41	4416
2026-01-04 10:42:47.82	6.67	15.98	-35.3	-36.7	17.8	0.00e+00	0	56	0	2638217216	41	4415
2026-01-04 10:42:48.83	6.52	15.90	-35.4	-36.8	17.7	0.00e+00	0	57	0	2644508672	41	4465
2026-01-04 10:42:49.84	6.38	15.82	-35.4	-36.8	17.7	0.00e+00	0	57	0	2649751552	41	4480
2026-01-04 10:42:50.85	6.23	15.74	-35.5	-36.9	17.6	0.00e+00	0	57	0	2656043008	41	4509
2026-01-04 10:42:51.86	6.09	15.65	-35.5	-36.9	17.5	0.00e+00	0	57	0	2661285888	41	4544
2026-01-04 10:42:52.87	5.94	15.57	-35.6	-37.0	17.4	0.00e+00	0	56	0	2666528768	41	4581
2026-01-04 10:42:53.88	5.80	15.49	-35.4	-36.8	17.5	0.00e+00	0	57	0	2672820224	41	4493
2026-01-04 10:42:54.89	5.65	15.41	-35.4	-36.8	17.5	0.00e+00	0	57	0	2678063104	41	4491
2026-01-04 10:42:55.90	5.51	15.32	-35.4	-36.7	17.6	0.00e+00	0	57	0	2684354560	41	4436
2026-01-04 10:42:56.92	5.37	15.24	-35.3	-36.7	17.6	0.00e+00	0	57	0	2689597440	41	4422
2026-01-04 10:42:57.92	5.23	15.16	-35.3	-36.7	17.6	0.00e+00	0	57	0	2694840320	41	4418
2026-01-04 10:42:58.94	5.09	15.08	-35.4	-36.8	17.4	0.00e+00	0	57	0	2701131776	41	4468
2026-01-04 10:42:59.95	4.95	15.00	-35.5	-36.9	17.3	0.00e+00	0	57	0	2706374656	41	4514
2026-01-04 10:43:00.96	4.81	14.91	-35.5	-36.9	17.2	0.00e+00	0	57	0	2712666112	41	4524
2026-01-04 10:43:01.97	4.67	14.83	-35.6	-37.2	16.9	0.00e+00	0	57	0	2717908992	41	4653
2026-01-04 10:43:02.98	4.54	14.75	-35.5	-37.0	16.9	0.00e+00	0	57	0	2724200448	41	4589
2026-01-04 10:43:03.99	4.40	14.67	-35.4	-36.9	16.9	0.00e+00	0	57	0	2729443328	41	4541
2026-01-04 10:43:05.00	4.26	14.59	-35.3	-36.7	17.1	0.00e+00	0	57	0	2734686208	41	4427
2026-01-04 10:43:06.01	4.13	14.51	-35.2	-36.7	17.1	0.00e+00	0	57	0	2740977664	41	4427
2026-01-04 10:43:07.02	4.00	14.43	-35.3	-36.8	16.9	0.00e+00	0	57	0	2746220544	41	4488
2026-01-04 10:43:08.03	3.86	14.35	-35.5	-37.0	16.6	0.00e+00	0	57	0	2752512000	41	4575
2026-01-04 10:43:09.04	3.73	14.27	-35.7	-37.3	16.3	0.00e+00	0	57	0	2757754880	41	4719
2026-01-04 10:43:10.05	3.60	14.18	-35.7	-37.3	16.3	0.00e+00	0	57	0	2762997760	42	4485
2026-01-04 10:43:11.06	3.47	14.10	-35.5	-37.1	16.4	0.00e+00	0	57	0	2769289216	42	4378
2026-01-04 10:43:12.08	3.34	14.02	-35.5	-37.1	16.4	0.00e+00	0	57	0	2774532096	42	4360
2026-01-04 10:43:13.08	3.21	13.94	-35.3	-36.8	16.6	0.00e+00	0	57	0	2780823552	42	4242
2026-01-04 10:43:14.10	3.08	13.86	-35.1	-36.6	16.8	0.00e+00	0	57	0	2786066432	42	4127
2026-01-04 10:43:15.11	2.95	13.78	-35.1	-36.6	16.7	0.00e+00	0	57	0	2792357888	42	4137
2026-01-04 10:43:16.12	2.82	13.70	-35.1	-36.7	16.5	0.00e+00	0	57	0	2797600768	42	4153
2026-01-04 10:43:17.13	2.70	13.62	-35.3	-36.9	16.1	0.00e+00	0	57	0	2802843648	42	4291
2026-01-04 10:43:18.14	2.57	13.54	-35.7	-37.4	15.4	0.00e+00	0	57	0	2809135104	42	4533
2026-01-04 10:43:19.15	2.45	13.46	-36.2	-38.1	14.6	0.00e+00	0	57	0	2814377984	42	4912
2026-01-04 10:43:20.16	2.32	13.38	-36.9	-39.1	13.6	6.80e-06	0	57	0	2820669440	44	4916
2026-01-04 10:43:21.17	2.20	13.30	-37.8	-40.5	12.0	9.49e-05	0	56	0	2825912320	46	5119
2026-01-04 10:43:22.18	2.08	13.22	-38.6	-41.9	10.2	3.90e-03	0	56	0	2831155200	47	5715
2026-01-04 10:43:23.19	1.95	13.15	-39.4	-43.5	8.6	2.39e-02	0	57	0	2837446656	49	6073
2026-01-04 10:43:24.19	1.83	13.07	-39.9	-44.8	7.1	1.22e-01	0	57	0	2842689536	50	6694
2026-01-04 10:43:25.20	1.71	12.99	-40.0	-45.5	6.3	2.33e-01	0	57	0	2848980992	50	7272
2026-01-04 10:43:26.21	1.59	12.91	-40.2	-46.5	5.5	5.40e-01	0	57	0	2854223872	50	8093
2026-01-04 10:43:27.22	1.47	12.83	-40.3	-47.2	4.9	7.61e-01	0	57	0	2854223872	51	8355
2026-01-04 10:43:28.23	1.35	12.75	-40.4	-48.2	4.4	8.18e-01	0	57	0	2855272448	51	9381
2026-01-04 10:43:29.24	1.23	12.67	-40.5	-49.4	4.1	8.38e-01	0	57	0	2855272448	51	10681
2026-01-04 10:43:30.25	1.12	12.60	-40.5	-50.3	3.8	8.45e-01	0	57	104	2855272448	51	11847
2026-01-04 10:43:31.26	1.00	12.52	-40.5	-50.8	3.8	8.46e-01	0	57	104	2855272448	51	12632
2026-01-04 10:43:32.27	0.88	12.44	-40.4	-50.9	3.8	8.45e-01	0	57	104	2855272448	51	12805
2026-01-04 10:43:33.28	0.77	12.36	-40.4	-50.9	3.8	8.46e-01	0	57	104	2855272448	51	12780
2026-01-04 10:43:34.29	0.65	12.28	-40.3	-50.8	3.8	8.46e-01	0	57	104	2855272448	51	12610
2026-01-04 10:43:35.30	0.54	12.21	-40.2	-50.9	3.8	8.45e-01	0	57	104	2855272448	51	12677
2026-01-04 10:43:36.31	0.42	12.13	-40.2	-51.1	3.8	8.46e-01	0	57	104	2855272448	51	13049
2026-01-04 10:43:37.32	0.31	12.05	-40.1	-51.3	3.8	8.45e-01	0	57	104	2855272448	51	13269
2026-01-04 10:43:38.33	0.20	11.98	-40.1	-51.5	3.8	8.46e-01	0	57	104	2855272448	51	13677
2026-01-04 10:43:39.34	0.08	11.90	-40.0	-51.5	3.8	8.46e-01	0	57	104	2855272448	51	13682
2026-01-04 10:43:40.35	359.97	11.82	-40.0	-51.6	3.8	8.46e-01	0	57	104	2855272448	51	13785
2026-01-04 10:43:41.36	359.86	11.74	-40.0	-51.7	3.8	8.45e-01	0	57	104	2855272448	51	13908
2026-01-04 10:43:42.37	359.75	11.67	-39.8	-51.6	3.8	8.46e-01	0	57	104	2855272448	51	13756
2026-01-04 10:43:43.38	359.64	11.59	-39.7	-51.6	3.8	8.45e-01	0	57	104	2855272448	51	13803
2026-01-04 10:43:44.39	359.53	11.52	-39.9	-51.6	3.8	8.46e-01	0	57	104	2855272448	51	13879
2026-01-04 10:43:45.40	359.42	11.44	-39.6	-51.6	3.8	8.47e-01	0	57	104	2855272448	51	13753
2026-01-04 10:43:46.41	359.32	11.36	-39.9	-51.7	3.8	8.46e-01	0	57	104	2855272448	51	13915
2026-01-04 10:43:47.42	359.21	11.29	-39.8	-51.6	3.8	8.46e-01	0	57	104	2855272448	51	13822
2026-01-04 10:43:48.43	359.10	11.21	-39.6	-51.5	3.8	8.45e-01	0	57	104	2855272448	51	13673
2026-01-04 10:43:49.44	359.00	11.14	-39.7	-51.6	3.8	8.46e-01	0	57	104	2855272448	51	13797
2026-01-04 10:43:50.45	358.89	11.06	-39.6	-51.4	3.8	8.47e-01	0	57	104	2855272448	51	13512
2026-01-04 10:43:51.46	358.78	10.98	-39.7	-51.5	3.8	8.45e-01	0	57	104	2855272448	51	13640
2026-01-04 10:43:52.47	358.68	10.91	-39.6	-51.5	3.8	8.46e-01	0	57	104	2855272448	51	13637
2026-01-04 10:43:53.47	358.58	10.83	-39.7	-51.5	3.8	8.45e-01	0	57	104	2855272448	51	13612
2026-01-04 10:43:54.48	358.47	10.76	-39.7	-51.6	3.8	8.46e-01	0	57	104	2855272448	51	13761
2026-01-04 10:43:55.49	358.37	10.69	-39.8	-51.5	3.8	8.46e-01	0	57	104	2855272448	51	13661
2026-01-04 10:43:56.50	358.27	10.61	-39.7	-51.5	3.8	8.46e-01	0	57	104	2855272448	50	14475
2026-01-04 10:43:57.51	358.17	10.54	-39.7	-51.5	3.8	8.46e-01	0	57	104	2855272448	50	14513
2026-01-04 10:43:58.52	358.07	10.46	-39.2	-51.4	3.8	8.45e-01	0	57	104	2855272448	50	14285
2026-01-04 10:43:59.53	357.96	10.39	-39.6	-51.5	3.8	8.45e-01	0	57	104	2855272448	50	14450
2026-01-04 10:44:00.54	357.86	10.31	-39.4	-51.4	3.8	8.46e-01	0	57	104	2855272448	50	14351
2026-01-04 10:44:01.55	357.76	10.24	-39.4	-51.4	3.8	8.45e-01	0	57	104	2855272448	49	15218
2026-01-04 10:44:02.56	357.67	10.16	-39.8	-51.5	3.8	8.45e-01	0	57	104	2855272448	50	14468
2026-01-04 10:44:03.57	357.57	10.09	-39.2	-51.4	3.8	8.46e-01	0	57	104	2855272448	50	14334
2026-01-04 10:44:04.58	357.47	10.02	-39.2	-51.4	3.8	8.46e-01	0	57	104	2855272448	50	14307
2026-01-04 10:44:05.59	357.37	9.94	-39.0	-51.4	3.8	8.46e-01	0	57	104	2855272448	50	14325
2026-01-04 10:44:06.60	357.27	9.87	-39.2	-51.4	3.8	8.46e-01	0	57	104	2855272448	49	15071
2026-01-04 10:44:07.61	357.18	9.80	-39.1	-51.4	3.8	8.45e-01	0	57	104	2855272448	49	15088
2026-01-04 10:44:08.62	357.08	9.72	-39.2	-51.3	3.8	8.46e-01	0	57	104	2855272448	49	14990
2026-01-04 10:44:09.63	356.99	9.65	-39.0	-51.4	3.8	8.46e-01	0	57	104	2855272448	49	15070
2026-01-04 10:44:10.64	356.89	9.58	-39.1	-51.4	3.8	8.46e-01	0	57	104	2855272448	49	15089
2026-01-04 10:44:11.65	356.80	9.51	-39.3	-51.3	3.8	8.46e-01	0	57	104	2855272448	49	15003
2026-01-04 10:44:12.66	356.70	9.43	-39.0	-51.3	3.8	8.45e-01	0	57	104	2855272448	49	15029
2026-01-04 10:44:13.67	356.61	9.36	-39.4	-51.3	3.8	8.46e-01	0	57	104	2855272448	49	14974
2026-01-04 10:44:14.68	356.51	9.29	-39.7	-51.4	3.8	8.45e-01	0	57	104	2855272448	49	15066
2026-01-04 10:44:15.69	356.42	9.22	-39.2	-51.3	3.8	8.46e-01	0	57	104	2855272448	49	14969
2026-01-04 10:44:16.70	356.33	9.14	-39.6	-51.4	3.8	8.46e-01	0	57	104	2855272448	49	15069
2026-01-04 10:44:17.71	356.24	9.07	-39.4	-51.3	3.8	8.46e-01	0	57	104	2855272448	49	14947
2026-01-04 10:44:18.72	356.15	9.00	-39.2	-51.3	3.8	8.46e-01	0	57	104	2855272448	49	15006
2026-01-04 10:44:19.73	356.06	8.93	-39.6	-51.3	3.8	8.46e-01	0	57	104	2855272448	49	15008
2026-01-04 10:44:20.74	355.96	8.86	-39.5	-51.4	3.8	8.45e-01	0	57	104	2855272448	49	15141
2026-01-04 10:44:21.75	355.87	8.79	-39.7	-51.4	3.8	8.46e-01	0	57	104	2855272448	49	15154
2026-01-04 10:44:22.76	355.79	8.71	-39.8	-51.5	3.8	8.44e-01	0	57	104	2855272448	50	14510
2026-01-04 10:44:23.77	355.70	8.64	-39.7	-51.4	3.8	8.46e-01	0	57	104	2855272448	50	14264
2026-01-04 10:44:24.78	355.61	8.57	-39.9	-51.6	3.8	8.46e-01	0	57	104	2855272448	50	14563
2026-01-04 10:44:25.79	355.52	8.50	-39.7	-51.4	3.8	8.46e-01	0	57	104	2855272448	50	14255
2026-01-04 10:44:26.80	355.43	8.43	-39.7	-51.4	3.8	8.47e-01	0	57	104	2855272448	50	14373
2026-01-04 10:44:27.81	355.34	8.36	-39.8	-51.4	3.8	8.45e-01	0	57	104	2855272448	50	14364
2026-01-04 10:44:28.82	355.26	8.29	-39.8	-51.5	3.8	8.46e-01	0	57	104	2855272448	50	14515
2026-01-04 10:44:29.83	355.17	8.22	-39.9	-51.5	3.8	8.45e-01	0	57	104	2855272448	50	14437
2026-01-04 10:44:30.84	355.09	8.15	-39.9	-51.5	3.8	8.46e-01	0	57	104	2855272448	50	14475
2026-01-04 10:44:31.85	355.00	8.08	-39.7	-51.5	3.8	8.46e-01	0	57	104	2855272448	50	14509
2026-01-04 10:44:32.86	354.92	8.01	-39.9	-51.5	3.8	8.47e-01	0	57	104	2855272448	50	14420
2026-01-04 10:44:33.87	354.83	7.94	-39.7	-51.4	3.8	8.44e-01	0	57	104	2855272448	50	14349
2026-01-04 10:44:34.88	354.75	7.87	-42.7	-54.4	3.8	8.46e-01	0	57	104	2855272448	55	15164
2026-01-04 10:44:35.89	354.66	7.80	-44.2	-55.8	3.8	8.46e-01	0	57	104	2855272448	58	15018
2026-01-04 10:44:36.90	354.58	7.73	-44.7	-56.5	3.8	8.46e-01	0	57	104	2855272448	60	14490
2026-01-04 10:44:37.91	354.50	7.66	-44.9	-56.7	3.8	8.46e-01	0	57	104	2855272448	60	14814
2026-01-04 10:44:38.92	354.41	7.59	-45.0	-56.8	3.8	8.46e-01	0	57	104	2855272448	60	14968
2026-01-04 10:44:39.94	354.33	7.52	-45.1	-56.9	3.8	8.45e-01	0	57	104	2855272448	60	15107
2026-01-04 10:44:40.95	354.25	7.46	-45.1	-56.9	3.8	8.46e-01	0	57	104	2855272448	60	15117
2026-01-04 10:44:41.96	354.17	7.39	-45.1	-56.9	3.8	8.47e-01	0	57	104	2855272448	60	15188
2026-01-04 10:44:42.97	354.09	7.32	-45.1	-57.0	3.8	8.47e-01	0	57	104	2855272448	60	15241
