passes_logs/2026/01/04/R2.0S_Moscow/R2.0S_Moscow__20260104_000109_NOAA_20_JPSS-1_rec.log

#Pass ID: 20260104_000109_NOAA 20 (JPSS-1)
#Satellite: NOAA 20 (JPSS-1)
#Configuration: NOAA 20
#almurnet v.1.7.20251203
#Start time: 2026-01-04 00:01:11

#Version: 2.2.20231116
#Station: R2.0S_Moscow
#Location: 37.707566 lon 55.798166 lat
#TLE: 1 43013U 17073A   26003.41800368  .00000169  00000+0  10117-3 0  9998
#TLE: 2 43013  98.7624 304.4804 0001884  56.1176 304.0179 14.19532918421092

#Time	Az	El	Level	Level2	SNR	BER	BlckErr	Temp	State	Recorded	gain1	gain2
2026-01-04 00:01:11.07	14.67	2.10	-43.3	-57.9	3.8	1.49e+00	0	49	0	0	58	19008
2026-01-04 00:01:12.08	14.66	2.17	-43.3	-57.9	3.8	1.49e+00	0	49	104	0	58	18953
2026-01-04 00:01:13.09	14.65	2.23	-43.3	-57.9	3.8	1.49e+00	0	49	104	0	58	19019
2026-01-04 00:01:14.10	14.63	2.29	-43.3	-57.9	3.8	1.49e+00	0	49	104	0	58	19012
2026-01-04 00:01:15.11	14.62	2.36	-43.3	-57.9	3.8	1.49e+00	0	49	104	0	58	19006
2026-01-04 00:01:16.13	14.61	2.43	-43.3	-57.9	3.8	1.49e+00	0	49	104	0	58	19069
2026-01-04 00:01:17.14	14.60	2.49	-43.3	-57.9	3.8	1.49e+00	0	49	104	0	58	19024
2026-01-04 00:01:18.15	14.59	2.56	-43.3	-57.8	3.8	1.49e+00	0	49	104	0	58	18922
2026-01-04 00:01:19.16	14.57	2.62	-43.3	-57.9	3.8	1.49e+00	0	50	104	0	58	18994
2026-01-04 00:01:20.17	14.56	2.69	-43.3	-57.9	3.8	1.49e+00	0	50	104	0	58	18974
2026-01-04 00:01:21.18	14.55	2.75	-43.3	-57.9	3.8	1.49e+00	0	49	104	0	58	18986
2026-01-04 00:01:22.19	14.54	2.82	-43.3	-57.9	3.8	1.49e+00	0	50	104	0	58	19022
2026-01-04 00:01:23.20	14.53	2.88	-43.3	-57.9	3.8	1.49e+00	0	50	104	0	58	18986
2026-01-04 00:01:24.21	14.51	2.95	-43.3	-57.9	3.8	1.49e+00	0	50	104	0	58	18971
2026-01-04 00:01:25.22	14.50	3.02	-43.3	-57.8	3.8	1.49e+00	0	50	104	0	58	18895
2026-01-04 00:01:26.24	14.49	3.08	-43.3	-57.9	3.8	1.49e+00	0	50	104	0	58	19025
2026-01-04 00:01:27.25	14.47	3.15	-43.3	-57.9	3.8	1.49e+00	0	50	104	0	58	18980
2026-01-04 00:01:28.26	14.46	3.22	-43.3	-57.9	3.8	1.49e+00	0	50	104	0	58	18959
2026-01-04 00:01:29.27	14.45	3.29	-43.3	-57.8	3.8	1.49e+00	0	50	104	0	58	18935
2026-01-04 00:01:30.28	14.44	3.35	-43.3	-57.8	3.8	1.49e+00	0	50	104	0	58	18880
2026-01-04 00:01:31.29	14.42	3.42	-43.3	-57.8	3.8	1.49e+00	0	50	104	0	58	18929
2026-01-04 00:01:32.30	14.41	3.49	-43.3	-57.8	3.8	1.49e+00	0	50	104	0	58	18864
2026-01-04 00:01:33.31	14.40	3.56	-43.3	-57.8	3.8	1.49e+00	0	50	104	0	58	18879
2026-01-04 00:01:34.33	14.38	3.62	-43.3	-57.8	3.8	1.49e+00	0	50	104	0	58	18931
2026-01-04 00:01:35.34	14.37	3.69	-43.3	-57.8	3.8	1.49e+00	0	51	104	0	58	18847
2026-01-04 00:01:36.35	14.36	3.76	-43.2	-57.8	3.8	1.49e+00	0	51	104	0	58	18902
2026-01-04 00:01:37.36	14.34	3.83	-43.3	-57.8	3.8	1.49e+00	0	50	104	0	58	18912
2026-01-04 00:01:38.37	14.33	3.90	-43.3	-57.8	3.8	1.49e+00	0	50	104	0	58	18879
2026-01-04 00:01:39.38	14.32	3.97	-43.2	-57.8	3.8	1.49e+00	0	51	104	0	58	18902
2026-01-04 00:01:40.39	14.30	4.03	-43.2	-57.8	3.8	1.49e+00	0	51	104	0	58	18880
2026-01-04 00:01:41.40	14.29	4.10	-43.2	-57.8	3.8	1.49e+00	0	51	104	0	58	18844
2026-01-04 00:01:42.41	14.27	4.17	-43.2	-57.8	3.8	1.49e+00	0	51	104	0	58	18761
2026-01-04 00:01:43.42	14.26	4.24	-43.3	-57.8	3.8	1.49e+00	0	51	104	0	58	18788
2026-01-04 00:01:44.43	14.25	4.31	-43.2	-57.8	3.8	1.49e+00	0	51	104	0	58	18797
2026-01-04 00:01:45.44	14.23	4.38	-43.3	-57.7	3.8	1.49e+00	0	51	104	0	58	18617
2026-01-04 00:01:46.46	14.22	4.45	-43.2	-57.7	3.8	1.49e+00	0	51	104	0	58	18580
2026-01-04 00:01:47.47	14.20	4.52	-43.2	-57.7	3.8	1.49e+00	0	51	104	0	58	18644
2026-01-04 00:01:48.48	14.19	4.59	-43.2	-57.6	3.8	1.49e+00	0	51	104	0	58	18471
2026-01-04 00:01:49.49	14.17	4.66	-43.2	-57.6	3.8	1.49e+00	0	51	104	0	58	18438
2026-01-04 00:01:50.50	14.16	4.73	-43.2	-57.6	3.8	1.49e+00	0	51	104	0	58	18356
2026-01-04 00:01:51.51	14.14	4.81	-43.2	-57.4	3.8	1.49e+00	0	51	104	0	58	18076
2026-01-04 00:01:52.52	14.13	4.88	-43.2	-57.4	3.8	1.49e+00	0	52	104	0	58	18035
2026-01-04 00:01:53.53	14.11	4.95	-43.2	-57.4	3.8	1.49e+00	0	52	104	0	58	17976
2026-01-04 00:01:54.54	14.10	5.02	-43.2	-57.2	3.8	1.49e+00	0	52	104	0	58	17514
2026-01-04 00:01:55.55	14.08	5.09	-43.2	-57.1	3.8	1.49e+00	0	52	104	0	58	17396
2026-01-04 00:01:56.56	14.07	5.16	-43.2	-57.1	3.8	1.49e+00	0	52	104	0	58	17440
2026-01-04 00:01:57.57	14.05	5.23	-43.2	-57.0	3.8	1.49e+00	0	52	104	0	58	17265
2026-01-04 00:01:58.58	14.04	5.31	-43.2	-56.8	3.8	1.49e+00	0	51	104	0	58	16742
2026-01-04 00:01:59.60	14.02	5.38	-43.2	-56.6	3.8	1.49e+00	0	52	104	0	58	16498
2026-01-04 00:02:00.61	14.01	5.45	-43.2	-56.8	3.8	1.49e+00	0	52	104	0	58	16743
2026-01-04 00:02:01.62	13.99	5.52	-43.2	-56.6	3.8	1.49e+00	0	52	104	0	58	16497
2026-01-04 00:02:02.63	13.97	5.60	-43.2	-56.5	3.8	1.49e+00	0	52	104	0	58	16292
2026-01-04 00:02:03.64	13.96	5.67	-43.2	-56.4	3.8	1.49e+00	0	52	104	0	58	16021
2026-01-04 00:02:04.65	13.94	5.74	-43.2	-56.6	3.8	1.49e+00	0	52	104	0	58	16411
2026-01-04 00:02:05.66	13.93	5.82	-43.2	-56.7	3.8	1.49e+00	0	52	104	0	58	16553
2026-01-04 00:02:06.67	13.91	5.89	-43.2	-56.9	3.8	1.49e+00	0	52	104	0	58	17055
2026-01-04 00:02:07.68	13.89	5.97	-43.2	-57.1	3.8	1.49e+00	0	52	104	0	58	17321
2026-01-04 00:02:08.69	13.88	6.04	-43.2	-57.2	3.8	1.49e+00	0	52	104	0	58	17515
2026-01-04 00:02:09.70	13.86	6.11	-43.2	-57.2	3.8	1.49e+00	0	52	104	0	58	17585
2026-01-04 00:02:10.71	13.84	6.19	-43.2	-57.3	3.8	1.49e+00	0	52	104	0	58	17822
2026-01-04 00:02:11.72	13.83	6.26	-43.2	-57.4	3.8	1.49e+00	0	52	104	0	58	17914
2026-01-04 00:02:12.73	13.81	6.34	-43.2	-57.2	3.8	1.49e+00	0	52	104	0	58	17482
2026-01-04 00:02:13.74	13.79	6.41	-43.2	-56.6	3.8	1.49e+00	0	52	104	0	58	16496
2026-01-04 00:02:14.75	13.78	6.49	-43.1	-55.9	3.8	1.49e+00	0	52	104	0	58	15127
2026-01-04 00:02:15.76	13.76	6.57	-43.0	-54.7	4.1	1.47e+00	0	53	0	0	58	13153
2026-01-04 00:02:16.78	13.74	6.64	-42.9	-53.3	4.5	1.21e+00	3	52	0	0	57	11869
2026-01-04 00:02:17.79	13.72	6.72	-42.8	-52.1	5.1	7.82e-01	0	53	0	2097152	57	10315
2026-01-04 00:02:18.80	13.71	6.79	-42.6	-51.0	5.8	5.12e-01	0	53	0	4194304	57	9106
2026-01-04 00:02:19.81	13.69	6.87	-42.4	-49.9	6.7	2.94e-01	0	53	0	6291456	56	8535
2026-01-04 00:02:20.82	13.67	6.95	-42.2	-48.9	7.6	1.25e-01	0	53	0	7340032	56	7621
2026-01-04 00:02:21.83	13.65	7.03	-41.8	-47.9	8.4	6.86e-02	0	53	0	9437184	55	7203
2026-01-04 00:02:22.84	13.64	7.10	-41.6	-47.2	9.1	3.75e-02	0	53	0	11534336	55	6637
2026-01-04 00:02:23.85	13.62	7.18	-41.4	-46.6	9.8	1.30e-02	0	53	0	13631488	54	6505
2026-01-04 00:02:24.86	13.60	7.26	-41.2	-46.2	10.2	7.40e-03	0	53	0	15728640	54	6218
2026-01-04 00:02:25.87	13.58	7.34	-41.0	-45.7	10.7	3.72e-03	0	53	0	16777216	54	5888
2026-01-04 00:02:26.88	13.56	7.41	-40.8	-45.3	11.1	1.95e-03	0	53	0	18874368	53	5963
2026-01-04 00:02:27.89	13.54	7.49	-40.7	-45.0	11.5	1.11e-03	0	53	0	20971520	53	5723
2026-01-04 00:02:28.90	13.52	7.57	-40.6	-44.8	11.7	7.01e-04	0	53	0	23068672	53	5596
2026-01-04 00:02:29.91	13.51	7.65	-40.7	-45.1	11.4	8.24e-04	0	53	0	25165824	53	5804
2026-01-04 00:02:30.92	13.49	7.73	-40.8	-45.1	11.4	9.94e-04	0	53	0	27262976	53	5817
2026-01-04 00:02:31.93	13.47	7.81	-40.8	-45.1	11.3	1.03e-03	0	53	0	28311552	53	5816
2026-01-04 00:02:32.94	13.45	7.89	-40.8	-45.2	11.2	1.41e-03	0	53	0	30408704	53	5920
2026-01-04 00:02:33.95	13.43	7.97	-41.0	-45.6	10.8	2.02e-03	0	53	0	32505856	53	6190
2026-01-04 00:02:34.96	13.41	8.05	-41.1	-46.0	10.5	3.25e-03	0	53	0	34603008	53	6434
2026-01-04 00:02:35.98	13.39	8.13	-41.3	-46.2	10.5	2.02e-03	0	53	0	36700160	53	6597
2026-01-04 00:02:36.99	13.37	8.21	-42.0	-48.1	8.5	9.76e-03	0	53	0	37748736	54	7750
2026-01-04 00:02:38.00	13.35	8.29	-42.0	-49.7	6.6	9.68e-03	0	53	0	39845888	54	9282
2026-01-04 00:02:39.01	13.33	8.37	-41.7	-47.2	9.4	5.00e-02	0	53	0	41943040	54	6993
2026-01-04 00:02:40.02	13.31	8.45	-42.7	-55.3	3.8	4.13e-01	0	53	104	42991616	55	16831
2026-01-04 00:02:41.03	13.29	8.54	-40.8	-44.9	11.7	1.94e-01	0	53	0	42991616	53	5679
2026-01-04 00:02:42.04	13.27	8.62	-40.8	-44.9	11.7	4.17e-04	0	53	0	45088768	53	5693
2026-01-04 00:02:43.05	13.25	8.70	-40.6	-44.7	12.0	3.97e-04	0	53	0	47185920	53	5535
2026-01-04 00:02:44.06	13.23	8.78	-40.6	-44.5	12.1	2.56e-04	0	53	0	49283072	53	5460
2026-01-04 00:02:45.07	13.21	8.87	-40.6	-44.6	12.1	3.12e-04	0	54	0	51380224	53	5487
2026-01-04 00:02:46.08	13.19	8.95	-40.6	-44.6	12.1	2.78e-04	0	53	0	52428800	53	5467
2026-01-04 00:02:47.09	13.16	9.03	-40.5	-44.3	12.4	1.65e-04	0	53	0	54525952	53	5319
2026-01-04 00:02:48.10	13.14	9.11	-40.6	-44.5	12.2	1.87e-04	0	54	0	56623104	53	5407
2026-01-04 00:02:49.11	13.12	9.20	-40.5	-44.3	12.4	1.37e-04	0	54	0	58720256	53	5307
2026-01-04 00:02:50.12	13.10	9.28	-40.6	-44.4	12.3	1.88e-04	0	53	0	60817408	53	5396
2026-01-04 00:02:51.13	13.08	9.37	-40.5	-44.3	12.4	1.52e-04	0	54	0	61865984	53	5330
2026-01-04 00:02:52.14	13.06	9.45	-40.5	-44.3	12.4	1.35e-04	0	54	0	63963136	53	5295
2026-01-04 00:02:53.15	13.03	9.54	-40.5	-44.3	12.4	1.36e-04	0	54	0	66060288	52	5631
2026-01-04 00:02:54.16	13.01	9.62	-40.6	-44.4	12.3	1.30e-04	0	54	0	68157440	52	5695
2026-01-04 00:02:55.17	12.99	9.71	-40.5	-44.3	12.5	1.27e-04	0	54	0	70254592	52	5623
2026-01-04 00:02:56.18	12.97	9.79	-40.4	-44.1	12.6	1.07e-04	0	53	0	71303168	52	5517
2026-01-04 00:02:57.19	12.95	9.88	-40.5	-44.2	12.6	1.08e-04	0	54	0	73400320	52	5543
2026-01-04 00:02:58.20	12.92	9.97	-40.3	-43.9	12.8	7.40e-05	0	54	0	75497472	52	5396
2026-01-04 00:02:59.21	12.90	10.05	-40.3	-43.9	12.9	4.34e-05	0	54	0	77594624	52	5371
2026-01-04 00:03:00.22	12.88	10.14	-40.3	-43.8	13.0	4.50e-05	0	54	0	79691776	52	5300
2026-01-04 00:03:01.23	12.85	10.23	-40.2	-43.7	13.1	4.50e-05	0	54	0	81788928	52	5230
2026-01-04 00:03:02.24	12.83	10.32	-40.2	-43.7	13.1	2.21e-05	0	54	0	82837504	52	5245
2026-01-04 00:03:03.24	12.81	10.40	-40.2	-43.7	13.1	2.13e-05	0	54	0	84934656	52	5233
2026-01-04 00:03:04.25	12.78	10.49	-40.2	-43.7	13.1	3.43e-05	0	54	0	87031808	52	5246
2026-01-04 00:03:05.26	12.76	10.58	-40.2	-43.7	13.1	3.35e-05	0	54	0	89128960	52	5266
2026-01-04 00:03:06.27	12.73	10.67	-40.3	-43.8	13.1	3.43e-05	0	54	0	91226112	52	5294
2026-01-04 00:03:07.28	12.71	10.76	-40.3	-43.9	12.9	2.59e-05	0	54	0	92274688	52	5348
2026-01-04 00:03:08.30	12.68	10.85	-40.3	-43.8	13.0	3.28e-05	0	54	0	94371840	52	5320
2026-01-04 00:03:09.31	12.66	10.94	-40.4	-43.9	12.9	4.11e-05	0	54	0	96468992	52	5365
2026-01-04 00:03:10.32	12.64	11.03	-40.3	-43.9	13.0	5.11e-05	0	54	0	98566144	52	5347
2026-01-04 00:03:11.32	12.61	11.12	-40.3	-43.8	13.1	3.81e-05	0	54	0	100663296	52	5304
2026-01-04 00:03:12.33	12.59	11.21	-40.3	-43.7	13.2	2.59e-05	0	54	0	101711872	52	5270
2026-01-04 00:03:13.34	12.56	11.30	-40.3	-43.7	13.2	3.73e-05	0	54	0	103809024	52	5271
2026-01-04 00:03:14.35	12.53	11.39	-40.3	-43.7	13.2	2.89e-05	0	54	0	105906176	52	5261
2026-01-04 00:03:15.36	12.51	11.48	-40.3	-43.7	13.1	2.89e-05	0	54	0	108003328	52	5279
2026-01-04 00:03:16.38	12.48	11.58	-40.2	-43.6	13.3	1.83e-05	0	54	0	110100480	52	5184
2026-01-04 00:03:17.39	12.46	11.67	-40.1	-43.5	13.4	1.60e-05	0	54	0	111149056	52	5126
2026-01-04 00:03:18.39	12.43	11.76	-40.1	-43.5	13.4	9.90e-06	0	54	0	113246208	52	5128
2026-01-04 00:03:19.40	12.40	11.85	-40.1	-43.4	13.5	1.06e-05	0	54	0	115343360	52	5075
2026-01-04 00:03:20.41	12.38	11.95	-40.1	-43.3	13.6	1.22e-05	0	54	0	117440512	52	5029
2026-01-04 00:03:21.42	12.35	12.04	-40.1	-43.3	13.7	6.10e-06	0	54	0	119537664	52	5032
2026-01-04 00:03:22.43	12.32	12.13	-40.1	-43.3	13.7	5.30e-06	0	54	0	120586240	52	5017
2026-01-04 00:03:23.44	12.30	12.23	-40.1	-43.3	13.8	5.30e-06	0	55	0	122683392	52	5008
2026-01-04 00:03:24.45	12.27	12.32	-40.0	-43.2	13.9	5.30e-06	0	55	0	124780544	52	4953
2026-01-04 00:03:25.46	12.24	12.42	-40.0	-43.1	14.1	7.00e-07	0	54	0	126877696	51	5167
2026-01-04 00:03:26.47	12.21	12.52	-40.0	-43.1	14.1	1.50e-06	0	54	0	128974848	51	5199
2026-01-04 00:03:27.48	12.18	12.61	-40.1	-43.1	14.1	1.50e-06	0	54	0	130023424	51	5193
2026-01-04 00:03:28.49	12.16	12.71	-40.1	-43.1	14.2	2.20e-06	0	54	0	132120576	51	5200
2026-01-04 00:03:29.50	12.13	12.80	-40.0	-43.1	14.3	1.50e-06	0	54	0	134217728	51	5162
2026-01-04 00:03:30.51	12.10	12.90	-40.0	-43.0	14.3	0.00e+00	0	55	0	136314880	51	5144
2026-01-04 00:03:31.52	12.07	13.00	-40.0	-43.0	14.4	2.20e-06	0	55	0	138412032	51	5124
2026-01-04 00:03:32.53	12.04	13.10	-40.0	-42.9	14.5	0.00e+00	0	54	0	139460608	51	5079
2026-01-04 00:03:33.54	12.01	13.20	-40.0	-42.9	14.6	7.00e-07	0	55	0	141557760	51	5051
2026-01-04 00:03:34.55	11.98	13.29	-39.9	-42.8	14.6	0.00e+00	0	55	0	143654912	51	5017
2026-01-04 00:03:35.56	11.95	13.39	-39.9	-42.7	14.7	1.50e-06	0	54	0	145752064	51	4968
2026-01-04 00:03:36.57	11.92	13.49	-39.9	-42.8	14.7	7.00e-07	0	55	0	147849216	51	4986
2026-01-04 00:03:37.57	11.89	13.59	-39.8	-42.6	14.9	0.00e+00	0	55	0	149946368	51	4899
2026-01-04 00:03:38.58	11.86	13.69	-39.8	-42.6	14.9	0.00e+00	0	55	0	150994944	51	4898
2026-01-04 00:03:39.59	11.83	13.79	-39.8	-42.5	15.0	0.00e+00	0	55	0	153092096	51	4859
2026-01-04 00:03:40.60	11.80	13.89	-39.7	-42.4	15.1	0.00e+00	0	55	0	155189248	51	4772
2026-01-04 00:03:41.61	11.77	14.00	-39.7	-42.4	15.1	0.00e+00	0	55	0	157286400	51	4797
2026-01-04 00:03:42.62	11.74	14.10	-39.7	-42.4	15.1	0.00e+00	0	55	0	159383552	51	4792
2026-01-04 00:03:43.63	11.70	14.20	-39.7	-42.4	15.1	0.00e+00	0	55	0	160432128	51	4777
2026-01-04 00:03:44.64	11.67	14.30	-39.7	-42.3	15.2	0.00e+00	0	55	0	162529280	51	4747
2026-01-04 00:03:45.65	11.64	14.41	-39.6	-42.3	15.3	0.00e+00	0	55	0	164626432	51	4714
2026-01-04 00:03:46.66	11.61	14.51	-39.6	-42.2	15.3	0.00e+00	0	55	0	166723584	51	4679
2026-01-04 00:03:47.67	11.57	14.61	-39.6	-42.2	15.4	0.00e+00	0	55	0	168820736	51	4663
2026-01-04 00:03:48.68	11.54	14.72	-39.6	-42.1	15.4	0.00e+00	0	55	0	169869312	51	4647
2026-01-04 00:03:49.69	11.51	14.82	-39.6	-42.2	15.4	0.00e+00	0	55	0	171966464	51	4672
2026-01-04 00:03:50.69	11.47	14.93	-39.6	-42.1	15.5	0.00e+00	0	55	0	174063616	51	4636
2026-01-04 00:03:51.71	11.44	15.04	-39.5	-42.1	15.5	0.00e+00	0	55	0	176160768	51	4602
2026-01-04 00:03:52.72	11.41	15.14	-39.5	-42.0	15.6	0.00e+00	0	55	0	178257920	51	4579
2026-01-04 00:03:53.73	11.37	15.25	-39.5	-42.0	15.7	0.00e+00	0	55	0	179306496	51	4556
2026-01-04 00:03:54.74	11.34	15.36	-39.5	-41.9	15.8	0.00e+00	0	55	0	181403648	50	4796
2026-01-04 00:03:55.75	11.30	15.46	-39.5	-41.9	15.8	0.00e+00	0	55	0	183500800	50	4805
2026-01-04 00:03:56.76	11.27	15.57	-39.5	-41.9	15.8	0.00e+00	0	55	0	185597952	50	4801
2026-01-04 00:03:57.76	11.23	15.68	-39.4	-41.9	15.8	0.00e+00	0	55	0	187695104	50	4770
2026-01-04 00:03:58.77	11.20	15.79	-39.4	-41.8	15.9	0.00e+00	0	55	0	188743680	50	4733
2026-01-04 00:03:59.79	11.16	15.90	-39.3	-41.7	16.0	0.00e+00	0	55	0	190840832	50	4689
2026-01-04 00:04:00.80	11.12	16.01	-39.3	-41.7	16.1	0.00e+00	0	55	0	192937984	50	4674
2026-01-04 00:04:01.81	11.09	16.12	-39.3	-41.7	16.1	0.00e+00	0	55	0	195035136	50	4672
2026-01-04 00:04:02.82	11.05	16.23	-39.3	-41.7	16.0	0.00e+00	0	55	0	197132288	50	4695
2026-01-04 00:04:03.83	11.01	16.34	-39.3	-41.7	16.1	0.00e+00	0	55	0	198180864	50	4656
2026-01-04 00:04:04.84	10.97	16.45	-39.3	-41.6	16.1	0.00e+00	0	55	0	200278016	50	4649
2026-01-04 00:04:05.85	10.94	16.57	-39.3	-41.6	16.2	0.00e+00	0	55	0	202375168	50	4626
2026-01-04 00:04:06.86	10.90	16.68	-39.3	-41.6	16.2	0.00e+00	0	55	0	204472320	50	4632
2026-01-04 00:04:07.87	10.86	16.79	-39.2	-41.6	16.3	0.00e+00	0	55	0	206569472	50	4602
2026-01-04 00:04:08.88	10.82	16.91	-39.2	-41.5	16.3	0.00e+00	0	55	0	207618048	50	4571
2026-01-04 00:04:09.89	10.78	17.02	-39.2	-41.5	16.3	0.00e+00	0	56	0	209715200	50	4563
2026-01-04 00:04:10.90	10.74	17.14	-39.2	-41.4	16.4	0.00e+00	0	55	0	211812352	50	4533
2026-01-04 00:04:11.91	10.70	17.25	-39.1	-41.4	16.4	0.00e+00	0	55	0	213909504	50	4502
2026-01-04 00:04:12.92	10.66	17.37	-39.2	-41.4	16.4	0.00e+00	0	55	0	216006656	50	4526
2026-01-04 00:04:13.93	10.62	17.49	-39.0	-41.3	16.6	0.00e+00	0	55	0	218103808	50	4450
2026-01-04 00:04:14.94	10.58	17.60	-39.1	-41.3	16.5	0.00e+00	0	55	0	219152384	50	4475
2026-01-04 00:04:15.95	10.54	17.72	-39.1	-41.3	16.6	0.00e+00	0	55	0	221249536	50	4461
2026-01-04 00:04:16.96	10.50	17.84	-39.0	-41.2	16.7	0.00e+00	0	55	0	223346688	50	4419
2026-01-04 00:04:17.97	10.46	17.96	-39.1	-41.3	16.6	0.00e+00	0	55	0	225443840	50	4450
2026-01-04 00:04:18.98	10.41	18.08	-39.0	-41.2	16.6	0.00e+00	0	55	0	227540992	50	4425
2026-01-04 00:04:19.99	10.37	18.20	-39.0	-41.2	16.7	0.00e+00	0	55	0	228589568	50	4399
2026-01-04 00:04:21.00	10.33	18.32	-39.0	-41.2	16.7	0.00e+00	0	55	0	230686720	50	4398
2026-01-04 00:04:22.01	10.29	18.44	-39.0	-41.1	16.7	0.00e+00	0	55	0	232783872	50	4388
2026-01-04 00:04:23.02	10.24	18.56	-39.0	-41.1	16.8	0.00e+00	0	55	0	234881024	50	4389
2026-01-04 00:04:24.03	10.20	18.68	-39.0	-41.1	16.7	0.00e+00	0	55	0	236978176	49	4650
2026-01-04 00:04:25.04	10.15	18.81	-39.0	-41.1	16.8	0.00e+00	0	55	0	238026752	49	4644
2026-01-04 00:04:26.05	10.11	18.93	-38.9	-41.1	16.8	0.00e+00	0	55	0	240123904	49	4617
2026-01-04 00:04:27.06	10.06	19.06	-38.9	-41.0	16.9	0.00e+00	0	55	0	242221056	49	4590
2026-01-04 00:04:28.06	10.02	19.18	-38.9	-41.1	16.9	0.00e+00	0	55	0	244318208	49	4602
2026-01-04 00:04:29.08	9.97	19.31	-38.9	-41.0	16.9	0.00e+00	0	55	0	246415360	49	4577
2026-01-04 00:04:30.08	9.92	19.43	-38.9	-41.0	17.0	0.00e+00	0	55	0	247463936	49	4551
2026-01-04 00:04:31.09	9.88	19.56	-38.8	-40.9	17.0	0.00e+00	0	55	0	249561088	49	4522
2026-01-04 00:04:32.10	9.83	19.68	-38.9	-41.0	17.0	0.00e+00	0	56	0	251658240	49	4557
2026-01-04 00:04:33.11	9.78	19.81	-38.8	-40.9	17.0	0.00e+00	0	55	0	253755392	49	4545
2026-01-04 00:04:34.12	9.73	19.94	-38.8	-40.9	17.0	0.00e+00	0	55	0	255852544	49	4528
2026-01-04 00:04:35.13	9.69	20.07	-38.7	-40.8	17.1	0.00e+00	0	56	0	256901120	49	4469
2026-01-04 00:04:36.14	9.64	20.20	-38.8	-40.8	17.1	0.00e+00	0	56	0	258998272	49	4492
2026-01-04 00:04:37.15	9.59	20.33	-38.7	-40.7	17.2	0.00e+00	0	56	0	261095424	49	4436
2026-01-04 00:04:38.16	9.54	20.46	-38.7	-40.7	17.3	0.00e+00	0	56	0	263192576	49	4419
2026-01-04 00:04:39.17	9.49	20.59	-38.7	-40.7	17.3	0.00e+00	0	56	0	265289728	49	4411
2026-01-04 00:04:40.18	9.43	20.73	-38.7	-40.7	17.3	0.00e+00	0	56	0	266338304	49	4417
2026-01-04 00:04:41.19	9.38	20.86	-38.7	-40.7	17.3	0.00e+00	0	56	0	268435456	49	4400
2026-01-04 00:04:42.20	9.33	20.99	-38.6	-40.6	17.3	0.00e+00	0	55	0	270532608	49	4379
2026-01-04 00:04:43.20	9.28	21.13	-38.6	-40.6	17.4	0.00e+00	0	55	0	272629760	49	4357
2026-01-04 00:04:44.21	9.23	21.26	-38.6	-40.6	17.3	0.00e+00	0	56	0	274726912	49	4387
2026-01-04 00:04:45.22	9.17	21.40	-38.6	-40.6	17.4	0.00e+00	0	56	0	275775488	49	4345
2026-01-04 00:04:46.23	9.12	21.53	-38.6	-40.6	17.4	0.00e+00	0	56	0	277872640	49	4346
2026-01-04 00:04:47.24	9.06	21.67	-38.6	-40.6	17.4	0.00e+00	0	56	0	279969792	49	4350
2026-01-04 00:04:48.25	9.01	21.81	-38.6	-40.5	17.4	0.00e+00	0	56	0	282066944	49	4337
2026-01-04 00:04:49.26	8.95	21.95	-38.6	-40.5	17.5	0.00e+00	0	56	0	284164096	49	4335
2026-01-04 00:04:50.27	8.90	22.09	-38.6	-40.6	17.4	0.00e+00	0	56	0	285212672	49	4351
2026-01-04 00:04:51.28	8.84	22.23	-38.5	-40.4	17.5	0.00e+00	0	56	0	287309824	49	4290
2026-01-04 00:04:52.29	8.78	22.37	-38.6	-40.5	17.5	0.00e+00	0	56	0	289406976	49	4330
2026-01-04 00:04:53.30	8.73	22.51	-38.6	-40.6	17.4	0.00e+00	0	56	0	291504128	49	4361
2026-01-04 00:04:54.31	8.67	22.65	-38.6	-40.6	17.4	0.00e+00	0	56	0	293601280	49	4360
2026-01-04 00:04:55.32	8.61	22.80	-38.6	-40.6	17.4	0.00e+00	0	56	0	294649856	49	4368
2026-01-04 00:04:56.32	8.55	22.94	-38.6	-40.5	17.4	0.00e+00	0	56	0	296747008	49	4335
2026-01-04 00:04:57.33	8.49	23.08	-38.6	-40.5	17.5	0.00e+00	0	56	0	298844160	49	4336
2026-01-04 00:04:58.34	8.43	23.23	-38.6	-40.6	17.4	0.00e+00	0	56	0	300941312	49	4361
2026-01-04 00:04:59.35	8.37	23.38	-38.6	-40.6	17.5	0.00e+00	0	56	0	303038464	49	4348
2026-01-04 00:05:00.36	8.31	23.52	-38.7	-40.7	17.4	0.00e+00	0	56	0	304087040	49	4402
2026-01-04 00:05:01.37	8.24	23.67	-38.7	-40.7	17.3	0.00e+00	0	56	0	306184192	49	4433
2026-01-04 00:05:02.38	8.18	23.82	-38.7	-40.8	17.2	0.00e+00	0	56	0	308281344	49	4463
2026-01-04 00:05:03.39	8.12	23.97	-38.8	-40.8	17.2	0.00e+00	0	56	0	310378496	49	4477
2026-01-04 00:05:04.40	8.05	24.12	-38.8	-40.8	17.1	0.00e+00	0	56	0	312475648	49	4486
2026-01-04 00:05:05.41	7.99	24.27	-38.9	-41.0	17.1	0.00e+00	0	56	0	314572800	49	4553
2026-01-04 00:05:06.42	7.92	24.42	-39.0	-41.1	17.0	0.00e+00	0	56	0	315621376	49	4609
2026-01-04 00:05:07.43	7.86	24.58	-39.0	-41.1	16.9	0.00e+00	0	56	0	317718528	49	4623
2026-01-04 00:05:08.44	7.79	24.73	-39.1	-41.2	16.8	0.00e+00	0	56	0	319815680	49	4682
2026-01-04 00:05:09.45	7.72	24.89	-39.1	-41.3	16.7	0.00e+00	0	56	0	321912832	49	4737
2026-01-04 00:05:10.46	7.65	25.04	-39.2	-41.4	16.6	0.00e+00	0	56	0	324009984	49	4788
2026-01-04 00:05:11.47	7.58	25.20	-39.3	-41.5	16.5	0.00e+00	0	56	0	325058560	49	4850
2026-01-04 00:05:12.48	7.51	25.36	-39.3	-41.6	16.5	0.00e+00	0	56	0	327155712	49	4874
2026-01-04 00:05:13.49	7.44	25.51	-39.4	-41.7	16.4	0.00e+00	0	56	0	329252864	49	4938
2026-01-04 00:05:14.50	7.37	25.67	-39.5	-41.8	16.3	0.00e+00	0	56	0	331350016	49	4995
2026-01-04 00:05:15.51	7.30	25.83	-39.5	-41.8	16.3	0.00e+00	0	56	0	333447168	49	4992
2026-01-04 00:05:16.52	7.23	25.99	-39.5	-41.9	16.2	0.00e+00	0	56	0	334495744	49	5054
2026-01-04 00:05:17.53	7.15	26.16	-39.6	-41.9	16.1	0.00e+00	0	56	0	336592896	49	5094
2026-01-04 00:05:18.53	7.08	26.32	-39.6	-42.0	16.1	0.00e+00	0	56	0	338690048	49	5118
2026-01-04 00:05:19.55	7.00	26.48	-39.7	-42.1	16.0	0.00e+00	0	56	0	340787200	49	5160
2026-01-04 00:05:20.55	6.93	26.65	-39.7	-42.0	16.0	0.00e+00	0	56	0	342884352	49	5158
2026-01-04 00:05:21.57	6.85	26.81	-39.8	-42.2	15.8	0.00e+00	0	56	0	343932928	50	4972
2026-01-04 00:05:22.58	6.77	26.98	-39.9	-42.3	15.8	0.00e+00	0	56	0	346030080	50	5024
2026-01-04 00:05:23.59	6.69	27.15	-39.9	-42.4	15.6	0.00e+00	0	56	0	348127232	50	5100
2026-01-04 00:05:24.60	6.62	27.32	-40.1	-42.6	15.5	0.00e+00	0	56	0	350224384	50	5189
2026-01-04 00:05:25.60	6.54	27.48	-40.1	-42.7	15.4	0.00e+00	0	56	0	352321536	50	5226
2026-01-04 00:05:26.61	6.45	27.65	-40.2	-42.8	15.2	0.00e+00	0	56	0	353370112	50	5326
2026-01-04 00:05:27.62	6.37	27.83	-40.3	-43.0	15.1	0.00e+00	0	56	0	355467264	51	5132
2026-01-04 00:05:28.63	6.29	28.00	-40.4	-43.1	15.0	0.00e+00	0	56	0	357564416	51	5166
2026-01-04 00:05:29.64	6.21	28.17	-40.4	-43.2	14.9	0.00e+00	0	56	0	359661568	51	5249
2026-01-04 00:05:30.65	6.12	28.35	-40.6	-43.4	14.7	7.00e-07	0	56	0	361758720	51	5359
2026-01-04 00:05:31.66	6.03	28.52	-40.7	-43.6	14.5	0.00e+00	0	56	0	362807296	51	5505
2026-01-04 00:05:32.67	5.95	28.70	-40.7	-43.6	14.3	0.00e+00	0	56	0	364904448	52	5205
2026-01-04 00:05:33.68	5.86	28.88	-40.8	-43.8	14.2	7.00e-07	0	56	0	367001600	52	5320
2026-01-04 00:05:34.69	5.77	29.06	-40.9	-44.0	14.0	3.00e-06	0	56	0	369098752	52	5438
2026-01-04 00:05:35.70	5.68	29.24	-40.9	-44.1	13.9	4.50e-06	0	56	0	371195904	52	5476
2026-01-04 00:05:36.71	5.59	29.42	-41.1	-44.2	13.8	7.00e-07	0	56	0	372244480	52	5588
2026-01-04 00:05:37.72	5.50	29.60	-41.1	-44.4	13.6	7.60e-06	0	56	0	374341632	52	5666
2026-01-04 00:05:38.73	5.40	29.78	-41.1	-44.4	13.6	9.90e-06	0	56	0	376438784	52	5673
2026-01-04 00:05:39.74	5.31	29.97	-41.2	-44.5	13.5	7.60e-06	0	56	0	378535936	53	5432
2026-01-04 00:05:40.75	5.21	30.15	-41.2	-44.6	13.4	9.90e-06	0	56	0	380633088	53	5475
2026-01-04 00:05:41.76	5.12	30.34	-41.3	-44.6	13.4	1.44e-05	0	56	0	382730240	53	5491
2026-01-04 00:05:42.77	5.02	30.53	-41.3	-44.6	13.3	1.83e-05	0	56	0	383778816	53	5513
2026-01-04 00:05:43.78	4.92	30.71	-41.3	-44.7	13.3	1.60e-05	0	56	0	385875968	53	5576
2026-01-04 00:05:44.79	4.82	30.90	-41.4	-44.8	13.2	2.44e-05	0	56	0	387973120	53	5628
2026-01-04 00:05:45.80	4.72	31.09	-41.4	-44.9	13.1	1.83e-05	0	56	0	390070272	53	5660
2026-01-04 00:05:46.81	4.62	31.29	-41.5	-45.0	13.1	2.36e-05	0	56	0	392167424	53	5732
2026-01-04 00:05:47.82	4.51	31.48	-41.6	-45.2	12.8	5.18e-05	0	56	0	393216000	53	5916
2026-01-04 00:05:48.83	4.41	31.67	-41.7	-45.4	12.5	8.62e-05	0	56	0	395313152	53	6039
2026-01-04 00:05:49.84	4.30	31.87	-41.9	-45.8	12.2	1.40e-04	0	56	0	397410304	54	5990
2026-01-04 00:05:50.84	4.19	32.06	-42.0	-45.9	12.1	2.76e-04	0	56	0	399507456	54	6045
2026-01-04 00:05:51.85	4.08	32.26	-42.0	-46.0	11.9	4.10e-04	0	56	0	401604608	54	6110
2026-01-04 00:05:52.86	3.97	32.46	-42.1	-46.3	11.7	5.52e-04	0	56	0	402653184	54	6313
2026-01-04 00:05:53.87	3.86	32.66	-42.2	-46.4	11.6	6.55e-04	0	56	0	404750336	54	6409
2026-01-04 00:05:54.88	3.75	32.86	-42.2	-46.4	11.5	7.57e-04	0	56	0	406847488	55	6046
2026-01-04 00:05:55.90	3.63	33.07	-42.1	-46.3	11.7	1.02e-03	0	56	0	408944640	55	5957
2026-01-04 00:05:56.91	3.52	33.27	-42.1	-46.3	11.7	5.62e-04	0	56	0	411041792	55	5969
2026-01-04 00:05:57.92	3.40	33.48	-42.2	-46.5	11.5	8.00e-04	0	56	0	412090368	55	6082
2026-01-04 00:05:58.92	3.28	33.68	-42.3	-46.5	11.5	8.19e-04	0	56	0	414187520	55	6109
2026-01-04 00:05:59.93	3.16	33.89	-42.3	-46.5	11.4	8.73e-04	0	57	0	416284672	55	6131
2026-01-04 00:06:00.94	3.04	34.10	-42.2	-46.5	11.5	9.17e-04	0	56	0	418381824	55	6081
2026-01-04 00:06:01.95	2.91	34.31	-42.2	-46.4	11.6	7.29e-04	0	56	0	420478976	55	5998
2026-01-04 00:06:02.96	2.78	34.52	-42.3	-46.5	11.5	6.55e-04	0	56	0	421527552	55	6098
2026-01-04 00:06:03.97	2.66	34.73	-42.2	-46.3	11.7	5.34e-04	0	56	0	423624704	55	5984
2026-01-04 00:06:04.98	2.53	34.95	-42.2	-46.3	11.7	5.52e-04	0	56	0	425721856	55	5988
2026-01-04 00:06:05.99	2.40	35.16	-42.0	-46.0	12.1	3.71e-04	0	56	0	427819008	55	5725
2026-01-04 00:06:07.00	2.26	35.38	-42.0	-45.9	12.1	2.46e-04	0	56	0	429916160	55	5659
2026-01-04 00:06:08.01	2.13	35.60	-42.0	-45.9	12.1	3.01e-04	0	56	0	430964736	55	5699
2026-01-04 00:06:09.01	1.99	35.82	-42.0	-45.9	12.1	2.54e-04	0	56	0	433061888	55	5688
2026-01-04 00:06:10.02	1.85	36.04	-42.1	-46.1	12.0	2.94e-04	0	56	0	435159040	55	5808
2026-01-04 00:06:11.03	1.71	36.26	-42.0	-46.0	12.0	3.71e-04	0	56	0	437256192	55	5744
2026-01-04 00:06:12.04	1.57	36.48	-42.2	-46.3	11.7	3.66e-04	0	56	0	439353344	55	5983
2026-01-04 00:06:13.05	1.43	36.71	-42.2	-46.4	11.7	6.06e-04	0	56	0	440401920	55	5993
2026-01-04 00:06:14.06	1.28	36.93	-42.3	-46.5	11.5	7.31e-04	0	56	0	442499072	55	6126
2026-01-04 00:06:15.06	1.13	37.16	-42.4	-46.8	11.2	1.18e-03	0	56	0	444596224	55	6310
2026-01-04 00:06:16.07	0.98	37.39	-42.4	-46.8	11.2	1.22e-03	0	56	0	446693376	55	6296
2026-01-04 00:06:17.08	0.83	37.62	-42.5	-47.0	11.0	1.50e-03	0	56	0	448790528	55	6440
2026-01-04 00:06:18.09	0.67	37.85	-42.4	-46.9	11.1	1.92e-03	0	57	0	450887680	55	6401
2026-01-04 00:06:19.10	0.52	38.08	-42.5	-47.1	10.9	1.64e-03	0	57	0	451936256	55	6529
2026-01-04 00:06:20.11	0.36	38.32	-42.4	-46.7	11.2	1.34e-03	0	56	0	454033408	55	6273
2026-01-04 00:06:21.12	0.19	38.55	-42.4	-46.7	11.3	8.74e-04	0	56	0	456130560	55	6250
2026-01-04 00:06:22.13	0.03	38.79	-42.4	-46.7	11.3	1.19e-03	0	57	0	458227712	55	6268
2026-01-04 00:06:23.14	359.86	39.03	-42.3	-46.6	11.5	1.17e-03	0	57	0	460324864	55	6141
2026-01-04 00:06:24.15	359.69	39.27	-42.3	-46.6	11.4	9.71e-04	0	56	0	461373440	55	6182
2026-01-04 00:06:25.16	359.52	39.51	-42.3	-46.5	11.5	8.01e-04	0	56	0	463470592	55	6104
2026-01-04 00:06:26.17	359.35	39.75	-42.2	-46.3	11.7	6.42e-04	0	57	0	465567744	55	5945
2026-01-04 00:06:27.18	359.17	39.99	-42.1	-46.1	12.0	3.58e-04	0	57	0	467664896	55	5833
2026-01-04 00:06:28.19	358.99	40.24	-42.1	-46.1	12.0	3.32e-04	0	56	0	469762048	55	5850
2026-01-04 00:06:29.19	358.81	40.48	-42.0	-46.0	12.1	3.29e-04	0	56	0	470810624	55	5727
2026-01-04 00:06:30.20	358.62	40.73	-41.9	-45.7	12.5	1.77e-04	0	56	0	472907776	55	5546
2026-01-04 00:06:31.21	358.43	40.98	-41.9	-45.8	12.3	1.62e-04	0	57	0	475004928	55	5610
2026-01-04 00:06:32.22	358.24	41.23	-41.7	-45.3	12.8	9.15e-05	0	57	0	477102080	55	5311
2026-01-04 00:06:33.23	358.05	41.48	-41.6	-45.0	13.1	3.35e-05	0	57	0	479199232	55	5152
2026-01-04 00:06:34.24	357.85	41.74	-41.5	-45.0	13.1	3.43e-05	0	57	0	480247808	55	5124
2026-01-04 00:06:35.25	357.65	41.99	-41.5	-44.9	13.3	2.44e-05	0	56	0	482344960	54	5345
2026-01-04 00:06:36.26	357.44	42.25	-41.5	-44.9	13.2	1.75e-05	0	57	0	484442112	54	5381
2026-01-04 00:06:37.27	357.23	42.51	-41.4	-44.7	13.4	2.13e-05	0	57	0	486539264	54	5268
2026-01-04 00:06:38.28	357.02	42.77	-41.3	-44.6	13.6	1.14e-05	0	57	0	488636416	54	5198
2026-01-04 00:06:39.29	356.81	43.03	-41.2	-44.3	13.8	1.06e-05	0	56	0	489684992	54	5019
2026-01-04 00:06:40.30	356.59	43.29	-41.1	-44.2	14.0	7.00e-07	0	57	0	491782144	54	4934
2026-01-04 00:06:41.31	356.37	43.55	-40.9	-43.8	14.3	6.10e-06	0	56	0	493879296	53	5027
2026-01-04 00:06:42.32	356.14	43.81	-40.7	-43.5	14.7	7.00e-07	0	57	0	495976448	53	4823
2026-01-04 00:06:43.33	355.91	44.08	-40.7	-43.6	14.6	7.00e-07	0	57	0	498073600	53	4900
2026-01-04 00:06:44.34	355.68	44.35	-40.5	-43.2	15.0	7.00e-07	0	57	0	499122176	52	4941
2026-01-04 00:06:45.35	355.44	44.62	-40.5	-43.2	15.0	0.00e+00	0	57	0	501219328	52	4937
2026-01-04 00:06:46.36	355.20	44.88	-40.5	-43.2	15.0	0.00e+00	0	57	0	503316480	52	4956
2026-01-04 00:06:47.37	354.95	45.16	-40.5	-43.3	14.9	7.00e-07	0	57	0	505413632	52	4989
2026-01-04 00:06:48.38	354.70	45.43	-40.4	-43.0	15.2	0.00e+00	0	57	0	507510784	52	4864
2026-01-04 00:06:49.39	354.45	45.70	-40.3	-43.0	15.2	0.00e+00	0	56	0	508559360	52	4830
2026-01-04 00:06:50.39	354.19	45.97	-40.3	-42.9	15.3	0.00e+00	0	57	0	510656512	52	4800
2026-01-04 00:06:51.40	353.93	46.25	-40.1	-42.7	15.6	0.00e+00	0	57	0	512753664	52	4664
2026-01-04 00:06:52.41	353.66	46.52	-40.3	-43.0	15.2	0.00e+00	0	57	0	514850816	52	4834
2026-01-04 00:06:53.42	353.39	46.80	-40.3	-43.0	15.3	0.00e+00	0	56	0	516947968	52	4825
2026-01-04 00:06:54.43	353.11	47.08	-40.2	-42.8	15.4	0.00e+00	0	57	0	519045120	52	4748
2026-01-04 00:06:55.44	352.83	47.36	-40.2	-42.8	15.4	0.00e+00	0	57	0	520093696	52	4737
2026-01-04 00:06:56.45	352.54	47.64	-40.3	-42.9	15.3	0.00e+00	0	57	0	522190848	52	4792
2026-01-04 00:06:57.46	352.24	47.93	-40.4	-43.0	15.2	0.00e+00	0	56	0	524288000	52	4832
2026-01-04 00:06:58.47	351.94	48.21	-40.3	-42.9	15.4	0.00e+00	0	57	0	526385152	52	4761
2026-01-04 00:06:59.48	351.64	48.49	-40.4	-43.0	15.2	0.00e+00	0	57	0	528482304	52	4848
2026-01-04 00:07:00.49	351.33	48.78	-40.3	-43.0	15.3	0.00e+00	0	57	0	529530880	52	4817
2026-01-04 00:07:01.50	351.01	49.06	-40.4	-43.0	15.3	0.00e+00	0	57	0	531628032	52	4836
2026-01-04 00:07:02.50	350.69	49.35	-40.3	-42.9	15.4	0.00e+00	0	57	0	533725184	52	4767
2026-01-04 00:07:03.51	350.36	49.64	-40.1	-42.6	15.6	0.00e+00	0	57	0	535822336	52	4649
2026-01-04 00:07:04.52	350.03	49.93	-40.0	-42.4	15.9	0.00e+00	0	57	0	537919488	51	4810
2026-01-04 00:07:05.53	349.69	50.21	-39.8	-42.2	16.2	0.00e+00	0	56	0	538968064	51	4672
2026-01-04 00:07:06.54	349.34	50.51	-39.6	-41.9	16.4	0.00e+00	0	57	0	541065216	51	4506
2026-01-04 00:07:07.55	348.98	50.80	-39.4	-41.6	16.8	0.00e+00	0	57	0	543162368	50	4611
2026-01-04 00:07:08.56	348.62	51.09	-39.5	-41.7	16.7	0.00e+00	0	57	0	545259520	50	4670
2026-01-04 00:07:09.57	348.25	51.38	-39.6	-41.8	16.5	0.00e+00	0	57	0	547356672	50	4724
2026-01-04 00:07:10.58	347.88	51.67	-39.5	-41.7	16.7	0.00e+00	0	57	0	548405248	50	4678
2026-01-04 00:07:11.59	347.49	51.97	-39.3	-41.4	17.0	0.00e+00	0	57	0	550502400	50	4506
2026-01-04 00:07:12.60	347.10	52.26	-39.0	-41.0	17.3	0.00e+00	0	57	0	552599552	50	4321
2026-01-04 00:07:13.61	346.70	52.55	-39.0	-41.0	17.4	0.00e+00	0	57	0	554696704	49	4555
2026-01-04 00:07:14.62	346.29	52.85	-38.9	-40.9	17.5	0.00e+00	0	56	0	556793856	49	4524
2026-01-04 00:07:15.63	345.88	53.14	-38.8	-40.8	17.6	0.00e+00	0	57	0	557842432	49	4452
2026-01-04 00:07:16.63	345.46	53.43	-39.0	-41.0	17.3	0.00e+00	0	57	0	559939584	49	4590
2026-01-04 00:07:17.64	345.02	53.73	-39.3	-41.5	16.9	0.00e+00	0	57	0	562036736	49	4825
2026-01-04 00:07:18.66	344.57	54.03	-39.5	-41.6	16.7	0.00e+00	0	56	0	564133888	49	4926
2026-01-04 00:07:19.67	344.12	54.32	-39.6	-41.8	16.5	0.00e+00	0	57	0	566231040	49	5012
2026-01-04 00:07:20.68	343.66	54.61	-40.0	-42.4	15.9	0.00e+00	0	57	0	567279616	50	5095
2026-01-04 00:07:21.69	343.19	54.91	-40.4	-43.0	15.4	0.00e+00	0	57	0	569376768	51	5104
2026-01-04 00:07:22.70	342.71	55.20	-40.5	-43.2	15.1	0.00e+00	0	56	0	571473920	51	5241
2026-01-04 00:07:23.71	342.22	55.50	-40.7	-43.5	14.7	0.00e+00	0	57	0	573571072	52	5138
2026-01-04 00:07:24.72	341.72	55.79	-41.1	-44.2	14.2	1.50e-06	0	57	0	575668224	52	5542
2026-01-04 00:07:25.73	341.20	56.08	-41.5	-44.9	13.4	7.60e-06	0	57	0	576716800	53	5680
2026-01-04 00:07:26.74	340.68	56.37	-41.7	-45.3	12.9	3.20e-05	0	57	0	578813952	53	5963
2026-01-04 00:07:27.75	340.15	56.66	-41.7	-45.2	13.0	3.96e-05	0	57	0	580911104	54	5586
2026-01-04 00:07:28.76	339.60	56.95	-41.7	-45.2	13.0	4.80e-05	0	57	0	583008256	54	5545
2026-01-04 00:07:29.77	339.04	57.24	-41.7	-45.3	13.0	3.50e-05	0	57	0	585105408	54	5627
2026-01-04 00:07:30.78	338.47	57.53	-41.6	-45.1	13.1	3.96e-05	0	57	0	587202560	54	5473
2026-01-04 00:07:31.79	337.89	57.82	-41.6	-45.2	13.0	2.97e-05	0	57	0	588251136	54	5546
2026-01-04 00:07:32.79	337.30	58.10	-41.6	-45.1	13.1	3.50e-05	0	57	0	590348288	54	5494
2026-01-04 00:07:33.80	336.70	58.38	-41.4	-44.6	13.6	2.36e-05	0	57	0	592445440	54	5208
2026-01-04 00:07:34.81	336.08	58.66	-41.0	-44.1	14.2	1.50e-06	0	57	0	594542592	54	4879
2026-01-04 00:07:35.82	335.44	58.94	-41.0	-44.0	14.3	3.00e-06	0	57	0	596639744	53	5114
2026-01-04 00:07:36.83	334.80	59.22	-40.9	-43.9	14.3	7.00e-07	0	57	0	597688320	53	5093
2026-01-04 00:07:37.84	334.14	59.49	-40.7	-43.6	14.6	7.00e-07	0	57	0	599785472	53	4916
2026-01-04 00:07:38.85	333.46	59.77	-40.3	-42.8	15.4	0.00e+00	0	57	0	601882624	52	4755
2026-01-04 00:07:39.86	332.77	60.04	-40.0	-42.5	15.7	0.00e+00	0	57	0	603979776	52	4549
2026-01-04 00:07:40.87	332.07	60.31	-39.8	-42.2	16.2	0.00e+00	0	57	0	606076928	51	4682
2026-01-04 00:07:41.88	331.35	60.57	-39.4	-41.5	16.8	0.00e+00	0	57	0	607125504	50	4572
2026-01-04 00:07:42.89	330.62	60.83	-39.0	-41.0	17.3	0.00e+00	0	57	0	609222656	50	4318
2026-01-04 00:07:43.90	329.87	61.09	-38.8	-40.8	17.5	0.00e+00	0	57	0	611319808	49	4478
2026-01-04 00:07:44.91	329.10	61.35	-38.9	-40.9	17.4	0.00e+00	0	57	0	613416960	49	4501
2026-01-04 00:07:45.92	328.32	61.60	-38.9	-40.9	17.5	0.00e+00	0	57	0	615514112	49	4501
2026-01-04 00:07:46.93	327.52	61.85	-38.7	-40.7	17.6	0.00e+00	0	57	0	616562688	49	4414
2026-01-04 00:07:47.94	326.71	62.09	-38.9	-41.0	17.4	0.00e+00	0	57	0	618659840	49	4557
2026-01-04 00:07:48.95	325.88	62.33	-38.8	-40.8	17.5	0.00e+00	0	57	0	620756992	49	4480
2026-01-04 00:07:49.96	325.03	62.57	-38.4	-40.3	18.0	0.00e+00	0	57	0	622854144	48	4466
2026-01-04 00:07:50.97	324.17	62.80	-38.4	-40.3	18.0	0.00e+00	0	57	0	624951296	48	4456
2026-01-04 00:07:51.98	323.29	63.02	-38.3	-40.2	18.2	0.00e+00	0	57	0	625999872	48	4410
2026-01-04 00:07:52.99	322.40	63.24	-38.3	-40.2	18.1	0.00e+00	0	57	0	628097024	48	4405
2026-01-04 00:07:54.00	321.48	63.46	-38.2	-40.0	18.3	0.00e+00	0	57	0	630194176	48	4307
2026-01-04 00:07:55.01	320.56	63.67	-38.5	-40.4	17.9	0.00e+00	0	57	0	632291328	48	4538
2026-01-04 00:07:56.02	319.61	63.87	-38.9	-40.9	17.4	0.00e+00	0	57	0	634388480	48	4797
2026-01-04 00:07:57.03	318.65	64.07	-39.0	-41.0	17.3	0.00e+00	0	57	0	635437056	48	4870
2026-01-04 00:07:58.04	317.67	64.27	-39.1	-41.1	17.2	0.00e+00	0	57	0	637534208	48	4920
2026-01-04 00:07:59.04	316.68	64.45	-38.8	-40.8	17.4	0.00e+00	0	57	0	639631360	48	4745
2026-01-04 00:08:00.05	315.67	64.63	-39.0	-41.1	17.2	0.00e+00	0	57	0	641728512	48	4897
2026-01-04 00:08:01.06	314.64	64.80	-39.4	-41.7	16.7	0.00e+00	0	57	0	643825664	49	4936
2026-01-04 00:08:02.07	313.60	64.97	-39.7	-42.1	16.3	0.00e+00	0	57	0	644874240	49	5165
2026-01-04 00:08:03.08	312.54	65.13	-39.9	-42.3	16.0	0.00e+00	0	57	0	646971392	50	4998
2026-01-04 00:08:04.09	311.47	65.28	-40.1	-42.7	15.6	0.00e+00	0	57	0	649068544	50	5229
2026-01-04 00:08:05.10	310.38	65.42	-40.1	-42.6	15.7	0.00e+00	0	57	0	651165696	50	5209
2026-01-04 00:08:06.11	309.28	65.56	-40.3	-42.9	15.4	0.00e+00	0	57	0	653262848	51	5090
2026-01-04 00:08:07.12	308.17	65.68	-40.5	-43.2	15.2	0.00e+00	0	57	0	655360000	51	5222
2026-01-04 00:08:08.13	307.04	65.80	-40.5	-43.3	15.1	0.00e+00	0	57	0	656408576	51	5289
2026-01-04 00:08:09.14	305.90	65.91	-40.6	-43.4	14.9	0.00e+00	0	57	0	658505728	51	5382
2026-01-04 00:08:10.15	304.75	66.02	-40.6	-43.3	14.9	0.00e+00	0	57	0	660602880	51	5313
2026-01-04 00:08:11.16	303.59	66.11	-40.7	-43.7	14.5	0.00e+00	0	57	0	662700032	52	5221
2026-01-04 00:08:12.18	302.41	66.19	-40.7	-43.6	14.6	0.00e+00	0	57	0	664797184	52	5198
2026-01-04 00:08:13.19	301.23	66.27	-40.6	-43.5	14.6	0.00e+00	0	57	0	665845760	52	5146
2026-01-04 00:08:14.19	300.05	66.33	-40.4	-43.2	15.1	0.00e+00	0	57	0	667942912	52	4931
2026-01-04 00:08:15.20	298.86	66.39	-40.3	-43.0	15.2	0.00e+00	0	57	0	670040064	52	4837
2026-01-04 00:08:16.21	297.66	66.44	-40.2	-42.8	15.5	0.00e+00	0	57	0	672137216	52	4752
2026-01-04 00:08:17.22	296.45	66.48	-40.1	-42.7	15.6	0.00e+00	0	57	0	674234368	52	4658
2026-01-04 00:08:18.23	295.25	66.51	-40.3	-43.0	15.2	0.00e+00	0	57	0	675282944	52	4847
2026-01-04 00:08:19.24	294.04	66.53	-40.5	-43.2	15.0	0.00e+00	0	57	0	677380096	52	4970
2026-01-04 00:08:20.25	292.82	66.53	-40.4	-43.2	15.0	0.00e+00	0	57	0	679477248	52	4957
2026-01-04 00:08:21.26	291.61	66.53	-40.0	-42.5	15.8	0.00e+00	0	57	0	681574400	51	4848
2026-01-04 00:08:22.27	290.40	66.53	-40.0	-42.5	15.8	0.00e+00	0	57	0	683671552	51	4851
2026-01-04 00:08:23.28	289.19	66.51	-40.2	-42.7	15.5	0.00e+00	0	57	0	684720128	51	4980
2026-01-04 00:08:24.29	287.98	66.48	-40.2	-42.8	15.5	0.00e+00	0	57	0	686817280	51	5016
2026-01-04 00:08:25.30	286.77	66.44	-40.3	-42.9	15.4	0.00e+00	0	57	0	688914432	51	5055
2026-01-04 00:08:26.31	285.57	66.39	-40.1	-42.6	15.7	0.00e+00	0	57	0	691011584	51	4892
2026-01-04 00:08:27.32	284.38	66.33	-40.5	-43.3	15.0	0.00e+00	0	57	0	693108736	51	5309
2026-01-04 00:08:28.33	283.19	66.27	-40.6	-43.5	14.8	0.00e+00	0	57	0	694157312	51	5423
2026-01-04 00:08:29.34	282.01	66.19	-40.5	-43.2	15.1	0.00e+00	0	57	0	696254464	51	5233
2026-01-04 00:08:30.35	280.84	66.11	-40.2	-42.8	15.5	0.00e+00	0	57	0	698351616	51	5022
2026-01-04 00:08:31.36	279.68	66.01	-40.2	-42.8	15.6	0.00e+00	0	57	0	700448768	51	5008
2026-01-04 00:08:32.37	278.53	65.91	-40.3	-42.9	15.4	0.00e+00	0	57	0	702545920	51	5062
2026-01-04 00:08:33.38	277.39	65.80	-40.2	-42.8	15.5	0.00e+00	0	57	0	703594496	51	5024
2026-01-04 00:08:34.39	276.26	65.68	-40.3	-43.0	15.3	0.00e+00	0	57	0	705691648	51	5108
2026-01-04 00:08:35.40	275.15	65.55	-40.0	-42.5	15.8	0.00e+00	0	57	0	707788800	51	4829
2026-01-04 00:08:36.41	274.05	65.42	-39.9	-42.4	15.9	0.00e+00	0	57	0	709885952	51	4766
2026-01-04 00:08:37.42	272.96	65.27	-39.6	-41.9	16.4	0.00e+00	0	57	0	711983104	51	4532
2026-01-04 00:08:38.43	271.89	65.12	-39.6	-41.8	16.5	0.00e+00	0	57	0	713031680	50	4742
2026-01-04 00:08:39.44	270.83	64.96	-39.3	-41.5	16.7	0.00e+00	0	57	0	715128832	50	4584
2026-01-04 00:08:40.44	269.79	64.80	-39.0	-41.0	17.2	0.00e+00	0	57	0	717225984	50	4331
2026-01-04 00:08:41.45	268.77	64.62	-38.8	-40.8	17.5	0.00e+00	0	57	0	719323136	49	4467
2026-01-04 00:08:42.46	267.75	64.44	-38.4	-40.4	17.9	0.00e+00	0	57	0	721420288	48	4496
2026-01-04 00:08:43.48	266.75	64.26	-38.1	-39.9	18.3	0.00e+00	0	57	0	723517440	48	4244
2026-01-04 00:08:44.48	265.78	64.06	-37.9	-39.6	18.5	0.00e+00	0	57	0	724566016	47	4391
2026-01-04 00:08:45.49	264.81	63.87	-37.9	-39.7	18.4	0.00e+00	0	57	0	726663168	47	4417
2026-01-04 00:08:46.50	263.87	63.66	-37.9	-39.8	18.4	0.00e+00	0	57	0	728760320	47	4442
2026-01-04 00:08:47.51	262.94	63.45	-38.0	-39.8	18.3	0.00e+00	0	57	0	730857472	47	4476
2026-01-04 00:08:48.52	262.02	63.23	-38.0	-39.8	18.4	0.00e+00	0	57	0	732954624	47	4471
2026-01-04 00:08:49.53	261.13	63.01	-38.0	-39.9	18.2	0.00e+00	0	57	0	734003200	47	4508
2026-01-04 00:08:50.54	260.25	62.79	-38.3	-40.2	18.0	0.00e+00	0	57	0	736100352	47	4653
2026-01-04 00:08:51.55	259.38	62.55	-38.6	-40.5	17.6	0.00e+00	0	57	0	738197504	47	4863
2026-01-04 00:08:52.56	258.54	62.32	-39.3	-41.5	16.8	0.00e+00	0	57	0	740294656	49	4835
2026-01-04 00:08:53.57	257.71	62.08	-39.7	-42.0	16.3	0.00e+00	0	57	0	742391808	49	5135
2026-01-04 00:08:54.58	256.89	61.83	-39.6	-41.9	16.4	0.00e+00	0	57	0	743440384	49	5051
2026-01-04 00:08:55.59	256.10	61.58	-39.5	-41.8	16.5	0.00e+00	0	57	0	745537536	49	4994
2026-01-04 00:08:56.60	255.32	61.33	-40.0	-42.5	15.8	0.00e+00	0	57	0	747634688	50	5145
2026-01-04 00:08:57.60	254.56	61.08	-40.7	-43.6	14.7	7.00e-07	0	57	0	749731840	51	5498
2026-01-04 00:08:58.61	253.81	60.82	-41.2	-44.5	13.7	7.00e-07	0	57	0	751828992	53	5454
2026-01-04 00:08:59.62	253.07	60.56	-41.5	-45.0	13.0	3.20e-05	0	57	0	752877568	53	5770
2026-01-04 00:09:00.63	252.35	60.29	-41.5	-44.9	13.1	3.58e-05	0	57	0	754974720	53	5722
2026-01-04 00:09:01.64	251.65	60.02	-41.5	-45.0	13.1	2.13e-05	0	57	0	757071872	53	5733
2026-01-04 00:09:02.65	250.96	59.75	-41.5	-45.0	13.1	3.89e-05	0	57	0	759169024	53	5770
2026-01-04 00:09:03.66	250.28	59.48	-41.6	-45.2	12.9	4.57e-05	0	57	0	761266176	53	5873
2026-01-04 00:09:04.67	249.62	59.20	-41.7	-45.3	12.7	5.18e-05	0	57	0	762314752	54	5647
2026-01-04 00:09:05.68	248.97	58.92	-42.0	-46.0	12.2	1.85e-04	0	57	0	764411904	54	6105
2026-01-04 00:09:06.69	248.34	58.64	-42.1	-46.1	12.0	3.58e-04	0	57	0	766509056	54	6166
2026-01-04 00:09:07.70	247.72	58.36	-41.8	-45.5	12.6	1.75e-04	0	57	0	768606208	54	5733
2026-01-04 00:09:08.71	247.11	58.08	-41.5	-45.0	13.2	2.67e-05	0	57	0	770703360	54	5439
2026-01-04 00:09:09.72	246.52	57.79	-41.4	-44.9	13.2	1.06e-05	0	57	0	771751936	54	5345
2026-01-04 00:09:10.73	245.93	57.50	-41.5	-45.0	13.2	2.21e-05	0	57	0	773849088	54	5413
2026-01-04 00:09:11.73	245.37	57.22	-41.7	-45.3	12.8	4.11e-05	0	57	0	775946240	54	5605
2026-01-04 00:09:12.74	244.81	56.93	-41.6	-45.1	13.0	4.19e-05	0	57	0	778043392	54	5518
2026-01-04 00:09:13.76	244.26	56.64	-41.0	-44.1	14.0	6.10e-06	0	57	0	780140544	54	4910
2026-01-04 00:09:14.77	243.72	56.34	-40.5	-43.3	14.8	7.00e-07	0	57	0	781189120	53	4718
2026-01-04 00:09:15.78	243.20	56.05	-40.1	-42.7	15.5	0.00e+00	0	57	0	783286272	52	4665
2026-01-04 00:09:16.79	242.69	55.76	-39.6	-41.9	16.4	0.00e+00	0	57	0	785383424	51	4501
2026-01-04 00:09:17.80	242.19	55.46	-39.4	-41.6	16.7	0.00e+00	0	57	0	787480576	50	4629
2026-01-04 00:09:18.81	241.69	55.17	-39.6	-41.8	16.5	0.00e+00	0	57	0	789577728	50	4738
2026-01-04 00:09:19.82	241.21	54.88	-39.8	-42.1	16.2	0.00e+00	0	57	0	791674880	50	4922
2026-01-04 00:09:20.82	240.75	54.58	-39.9	-42.2	16.0	0.00e+00	0	57	0	792723456	50	4979
2026-01-04 00:09:21.84	240.28	54.29	-40.2	-42.8	15.5	0.00e+00	0	57	0	794820608	51	5023
2026-01-04 00:09:22.84	239.83	53.99	-40.3	-42.9	15.3	0.00e+00	0	57	0	796917760	51	5065
2026-01-04 00:09:23.85	239.39	53.70	-40.2	-42.8	15.5	0.00e+00	0	57	0	799014912	51	5019
2026-01-04 00:09:24.86	238.95	53.40	-40.1	-42.6	15.7	0.00e+00	0	57	0	801112064	51	4924
2026-01-04 00:09:25.88	238.53	53.10	-40.1	-42.6	15.6	0.00e+00	0	57	0	802160640	51	4921
2026-01-04 00:09:26.89	238.11	52.81	-40.3	-43.0	15.3	0.00e+00	0	57	0	804257792	51	5116
2026-01-04 00:09:27.90	237.70	52.51	-40.5	-43.2	15.0	0.00e+00	0	57	0	806354944	51	5277
2026-01-04 00:09:28.91	237.30	52.22	-40.7	-43.6	14.6	0.00e+00	0	57	0	808452096	52	5180
2026-01-04 00:09:29.92	236.91	51.92	-41.0	-44.1	14.0	0.00e+00	0	57	0	810549248	52	5511
2026-01-04 00:09:30.93	236.52	51.63	-41.1	-44.2	14.0	7.00e-07	0	57	0	811597824	52	5556
2026-01-04 00:09:31.94	236.15	51.34	-40.9	-43.9	14.2	1.50e-06	0	57	0	813694976	52	5399
2026-01-04 00:09:32.94	235.78	51.05	-40.8	-43.6	14.5	7.00e-07	0	57	0	815792128	52	5214
2026-01-04 00:09:33.95	235.42	50.75	-40.8	-43.7	14.4	0.00e+00	0	57	0	817889280	52	5265
2026-01-04 00:09:34.96	235.06	50.46	-40.8	-43.7	14.5	7.00e-07	0	57	0	819986432	52	5229
2026-01-04 00:09:35.97	234.71	50.17	-40.6	-43.5	14.7	7.00e-07	0	57	0	821035008	52	5122
2026-01-04 00:09:36.98	234.37	49.88	-40.7	-43.6	14.6	0.00e+00	0	57	0	823132160	52	5193
2026-01-04 00:09:37.99	234.03	49.59	-40.9	-43.9	14.3	0.00e+00	0	57	0	825229312	52	5359
2026-01-04 00:09:39.00	233.71	49.30	-41.1	-44.3	13.9	7.00e-07	0	57	0	827326464	52	5627
2026-01-04 00:09:40.01	233.38	49.01	-41.3	-44.5	13.6	6.10e-06	0	57	0	829423616	53	5453
2026-01-04 00:09:41.02	233.07	48.73	-41.2	-44.4	13.8	1.29e-05	0	57	0	830472192	53	5346
2026-01-04 00:09:42.03	232.75	48.44	-40.9	-43.9	14.2	1.50e-06	0	57	0	832569344	53	5091
2026-01-04 00:09:43.04	232.45	48.15	-40.7	-43.6	14.5	7.00e-07	0	57	0	834666496	53	4924
2026-01-04 00:09:44.05	232.15	47.87	-40.6	-43.4	14.8	7.00e-07	0	57	0	836763648	53	4766
2026-01-04 00:09:45.06	231.86	47.59	-40.5	-43.2	14.9	0.00e+00	0	57	0	838860800	52	4981
2026-01-04 00:09:46.07	231.57	47.30	-40.4	-43.1	15.1	0.00e+00	0	57	0	839909376	52	4888
2026-01-04 00:09:47.08	231.28	47.02	-40.4	-43.1	15.1	0.00e+00	0	57	0	842006528	52	4891
2026-01-04 00:09:48.09	231.00	46.74	-40.6	-43.4	14.8	0.00e+00	0	57	0	844103680	52	5046
2026-01-04 00:09:49.10	230.73	46.46	-40.8	-43.7	14.4	7.00e-07	0	57	0	846200832	52	5274
2026-01-04 00:09:50.11	230.46	46.19	-40.8	-43.8	14.4	0.00e+00	0	57	0	848297984	52	5291
2026-01-04 00:09:51.12	230.20	45.91	-40.8	-43.8	14.3	7.00e-07	0	57	0	849346560	52	5329
2026-01-04 00:09:52.13	229.94	45.63	-40.8	-43.8	14.4	0.00e+00	0	57	0	851443712	52	5309
2026-01-04 00:09:53.14	229.68	45.36	-40.8	-43.8	14.4	7.00e-07	0	57	0	853540864	52	5311
2026-01-04 00:09:54.15	229.43	45.09	-40.9	-43.9	14.2	7.00e-07	0	57	0	855638016	52	5361
2026-01-04 00:09:55.16	229.19	44.82	-40.9	-43.9	14.2	2.20e-06	0	57	0	857735168	52	5391
2026-01-04 00:09:56.17	228.94	44.55	-41.1	-44.2	13.9	7.00e-07	0	57	0	859832320	52	5589
2026-01-04 00:09:57.18	228.71	44.28	-41.2	-44.5	13.6	4.50e-06	0	57	0	860880896	53	5452
2026-01-04 00:09:58.19	228.47	44.01	-41.3	-44.6	13.5	9.90e-06	0	57	0	862978048	53	5490
2026-01-04 00:09:59.20	228.24	43.74	-41.3	-44.7	13.4	1.29e-05	0	57	0	865075200	53	5550
2026-01-04 00:10:00.21	228.02	43.48	-41.5	-44.9	13.1	1.75e-05	0	57	0	867172352	53	5717
2026-01-04 00:10:01.22	227.79	43.21	-41.6	-45.2	13.0	4.95e-05	0	57	0	869269504	53	5872
2026-01-04 00:10:02.23	227.58	42.95	-41.8	-45.5	12.6	5.41e-05	0	57	0	870318080	54	5754
2026-01-04 00:10:03.24	227.36	42.69	-41.7	-45.4	12.7	1.04e-04	0	57	0	872415232	54	5701
2026-01-04 00:10:04.25	227.15	42.43	-41.9	-45.8	12.3	1.41e-04	0	57	0	874512384	54	5973
2026-01-04 00:10:05.26	226.94	42.17	-42.0	-46.0	12.1	2.43e-04	0	57	0	876609536	54	6103
2026-01-04 00:10:06.27	226.74	41.91	-42.1	-46.1	11.9	2.75e-04	0	57	0	878706688	54	6170
2026-01-04 00:10:07.28	226.53	41.66	-42.2	-46.3	11.7	5.05e-04	0	57	0	879755264	54	6336
2026-01-04 00:10:08.29	226.34	41.40	-42.3	-46.6	11.5	5.91e-04	0	57	0	881852416	55	6137
2026-01-04 00:10:09.30	226.14	41.15	-42.3	-46.6	11.5	9.24e-04	0	57	0	883949568	55	6137
2026-01-04 00:10:10.31	225.95	40.90	-42.4	-46.7	11.3	8.55e-04	0	57	0	886046720	55	6269
2026-01-04 00:10:11.31	225.76	40.65	-42.5	-47.0	11.1	1.40e-03	0	57	0	888143872	55	6430
2026-01-04 00:10:12.32	225.57	40.40	-42.6	-47.3	10.6	1.76e-03	0	57	0	889192448	55	6697
2026-01-04 00:10:13.33	225.39	40.16	-42.9	-47.8	10.4	3.66e-03	0	57	0	891289600	56	6662
2026-01-04 00:10:14.34	225.21	39.91	-42.7	-47.4	10.8	2.99e-03	0	57	0	893386752	56	6393
2026-01-04 00:10:15.35	225.03	39.66	-42.8	-47.6	10.5	4.44e-03	0	57	0	895483904	56	6527
2026-01-04 00:10:16.36	224.86	39.42	-42.7	-47.3	10.9	3.34e-03	0	57	0	897581056	56	6330
2026-01-04 00:10:17.37	224.68	39.18	-42.6	-47.2	11.1	2.01e-03	0	57	0	898629632	56	6218
2026-01-04 00:10:18.38	224.51	38.94	-42.6	-47.1	11.1	1.79e-03	0	57	0	900726784	56	6161
2026-01-04 00:10:19.39	224.35	38.70	-42.6	-47.0	11.2	1.36e-03	0	57	0	902823936	56	6111
2026-01-04 00:10:20.40	224.18	38.46	-42.5	-46.9	11.3	1.27e-03	0	57	0	904921088	56	6015
2026-01-04 00:10:21.41	224.02	38.23	-42.5	-46.8	11.4	1.07e-03	0	57	0	907018240	56	5954
2026-01-04 00:10:22.42	223.86	37.99	-42.4	-46.6	11.6	9.92e-04	0	57	0	908066816	56	5821
2026-01-04 00:10:23.43	223.70	37.76	-42.4	-46.6	11.5	7.78e-04	0	57	0	910163968	56	5845
2026-01-04 00:10:24.44	223.54	37.52	-42.2	-46.3	11.9	6.16e-04	0	57	0	912261120	56	5607
2026-01-04 00:10:25.45	223.39	37.29	-42.1	-46.0	12.2	2.17e-04	0	57	0	914358272	56	5445
2026-01-04 00:10:26.46	223.24	37.06	-42.0	-45.7	12.5	1.95e-04	0	57	0	916455424	56	5265
2026-01-04 00:10:27.47	223.09	36.84	-41.6	-45.1	12.9	4.19e-05	0	57	0	917504000	55	5208
2026-01-04 00:10:28.48	222.94	36.61	-41.4	-44.7	13.3	4.04e-05	0	57	0	919601152	54	5268
2026-01-04 00:10:29.49	222.80	36.38	-41.2	-44.5	13.6	1.14e-05	0	57	0	921698304	54	5105
2026-01-04 00:10:30.50	222.66	36.16	-40.9	-44.0	14.1	3.80e-06	0	57	0	923795456	53	5116
2026-01-04 00:10:31.50	222.52	35.94	-40.9	-43.8	14.3	2.20e-06	0	57	0	925892608	53	5032
2026-01-04 00:10:32.52	222.38	35.72	-40.9	-43.9	14.2	1.50e-06	0	57	0	927989760	53	5046
2026-01-04 00:10:33.52	222.24	35.50	-41.0	-44.1	14.0	3.80e-06	0	57	0	929038336	53	5175
2026-01-04 00:10:34.53	222.11	35.28	-41.2	-44.4	13.7	2.20e-06	0	57	0	931135488	53	5352
2026-01-04 00:10:35.54	221.97	35.06	-41.2	-44.5	13.6	9.10e-06	0	57	0	933232640	53	5445
2026-01-04 00:10:36.55	221.84	34.85	-41.3	-44.7	13.4	1.52e-05	0	57	0	935329792	53	5546
2026-01-04 00:10:37.56	221.71	34.63	-41.3	-44.6	13.4	1.14e-05	0	57	0	937426944	53	5497
2026-01-04 00:10:38.57	221.58	34.42	-41.2	-44.5	13.6	7.60e-06	0	57	0	938475520	53	5420
2026-01-04 00:10:39.58	221.46	34.20	-41.1	-44.3	13.8	9.10e-06	0	57	0	940572672	53	5323
2026-01-04 00:10:40.59	221.33	33.99	-41.1	-44.3	13.8	2.20e-06	0	57	0	942669824	53	5311
2026-01-04 00:10:41.60	221.21	33.78	-41.1	-44.2	13.9	9.10e-06	0	57	0	944766976	53	5247
2026-01-04 00:10:42.61	221.09	33.58	-41.1	-44.3	13.7	7.60e-06	0	57	0	946864128	53	5340
2026-01-04 00:10:43.62	220.97	33.37	-41.3	-44.7	13.4	1.06e-05	0	57	0	947912704	53	5532
2026-01-04 00:10:44.63	220.85	33.16	-41.4	-44.9	13.2	1.52e-05	0	57	0	950009856	53	5699
2026-01-04 00:10:45.64	220.73	32.96	-41.6	-45.2	12.9	3.35e-05	0	57	0	952107008	53	5870
2026-01-04 00:10:46.64	220.62	32.76	-41.8	-45.5	12.6	9.00e-05	0	57	0	954204160	54	5740
2026-01-04 00:10:47.65	220.50	32.55	-41.9	-45.7	12.3	1.40e-04	0	57	0	956301312	54	5900
2026-01-04 00:10:48.67	220.39	32.35	-42.0	-46.0	12.1	1.88e-04	0	57	0	957349888	54	6088
2026-01-04 00:10:49.67	220.28	32.15	-42.0	-45.9	12.1	2.49e-04	0	57	0	959447040	54	6025
2026-01-04 00:10:50.68	220.17	31.95	-41.9	-45.8	12.2	2.01e-04	0	57	0	961544192	54	5980
2026-01-04 00:10:51.69	220.06	31.76	-42.0	-46.1	11.9	3.16e-04	0	57	0	963641344	54	6135
2026-01-04 00:10:52.71	219.95	31.56	-42.0	-46.1	11.9	3.49e-04	0	57	0	965738496	54	6153
2026-01-04 00:10:53.71	219.85	31.37	-42.1	-46.3	11.7	4.71e-04	0	57	0	966787072	54	6293
2026-01-04 00:10:54.72	219.74	31.17	-42.1	-46.2	11.8	4.97e-04	0	57	0	968884224	54	6226
2026-01-04 00:10:55.73	219.64	30.98	-42.2	-46.3	11.7	5.68e-04	0	57	0	970981376	54	6319
2026-01-04 00:10:56.74	219.54	30.79	-42.1	-46.3	11.7	5.77e-04	0	57	0	973078528	54	6312
2026-01-04 00:10:57.75	219.44	30.60	-42.1	-46.2	11.8	5.04e-04	0	57	0	975175680	54	6214
2026-01-04 00:10:58.76	219.34	30.41	-42.0	-46.1	12.0	3.94e-04	0	57	0	976224256	54	6135
2026-01-04 00:10:59.77	219.24	30.22	-42.0	-45.9	12.1	2.69e-04	0	57	0	978321408	54	6038
2026-01-04 00:11:00.78	219.14	30.03	-42.0	-45.9	12.2	2.32e-04	0	57	0	980418560	54	6021
2026-01-04 00:11:01.79	219.05	29.85	-41.9	-45.7	12.3	2.02e-04	0	57	0	982515712	54	5919
2026-01-04 00:11:02.79	218.95	29.66	-41.9	-45.9	12.1	2.34e-04	0	57	0	984612864	54	6001
2026-01-04 00:11:03.81	218.86	29.48	-42.0	-45.9	12.1	2.55e-04	0	57	0	985661440	54	6033
2026-01-04 00:11:04.81	218.77	29.30	-42.0	-46.1	11.9	3.42e-04	0	57	0	987758592	54	6172
2026-01-04 00:11:05.82	218.67	29.12	-42.1	-46.3	11.7	5.98e-04	0	57	0	989855744	54	6286
2026-01-04 00:11:06.83	218.58	28.94	-42.3	-46.6	11.3	7.13e-04	0	57	0	991952896	55	6152
2026-01-04 00:11:07.84	218.49	28.76	-42.3	-46.6	11.3	1.26e-03	0	57	0	994050048	55	6179
2026-01-04 00:11:08.85	218.41	28.58	-42.4	-46.8	11.1	1.15e-03	0	57	0	995098624	55	6308
2026-01-04 00:11:09.86	218.32	28.40	-42.4	-46.9	11.1	1.58e-03	0	57	0	997195776	55	6369
2026-01-04 00:11:10.87	218.23	28.23	-42.4	-46.8	11.2	1.33e-03	0	57	0	999292928	55	6308
2026-01-04 00:11:11.88	218.15	28.05	-42.2	-46.5	11.5	1.34e-03	0	57	0	1001390080	55	6073
2026-01-04 00:11:12.89	218.06	27.88	-41.9	-45.8	12.1	3.51e-04	0	57	0	1003487232	55	5645
2026-01-04 00:11:13.90	217.98	27.70	-41.8	-45.6	12.3	2.03e-04	0	57	0	1004535808	55	5527
2026-01-04 00:11:14.91	217.90	27.53	-41.7	-45.4	12.6	1.38e-04	0	57	0	1006632960	55	5392
2026-01-04 00:11:15.92	217.81	27.36	-41.6	-45.2	12.7	8.23e-05	0	57	0	1008730112	55	5267
2026-01-04 00:11:16.93	217.73	27.19	-41.4	-44.8	13.2	3.81e-05	0	57	0	1010827264	54	5332
2026-01-04 00:11:17.93	217.65	27.02	-41.3	-44.6	13.4	1.75e-05	0	57	0	1012924416	54	5210
2026-01-04 00:11:18.95	217.57	26.85	-41.2	-44.4	13.6	8.30e-06	0	57	0	1013972992	54	5068
2026-01-04 00:11:19.96	217.50	26.69	-41.1	-44.2	13.8	6.10e-06	0	57	0	1016070144	54	4979
2026-01-04 00:11:20.97	217.42	26.52	-41.1	-44.3	13.7	6.80e-06	0	57	0	1018167296	54	5019
2026-01-04 00:11:21.97	217.34	26.36	-41.1	-44.3	13.7	1.29e-05	0	57	0	1020264448	54	5039
2026-01-04 00:11:22.98	217.27	26.19	-41.3	-44.6	13.4	9.90e-06	0	57	0	1022361600	54	5214
2026-01-04 00:11:23.99	217.19	26.03	-41.4	-44.8	13.2	2.13e-05	0	57	0	1024458752	54	5303
2026-01-04 00:11:25.00	217.12	25.87	-41.5	-45.0	13.0	3.58e-05	0	57	0	1025507328	54	5459
2026-01-04 00:11:26.01	217.04	25.70	-41.6	-45.1	12.9	4.04e-05	0	57	0	1027604480	54	5511
2026-01-04 00:11:27.02	216.97	25.54	-41.6	-45.2	12.8	4.95e-05	0	57	0	1029701632	54	5572
2026-01-04 00:11:28.03	216.90	25.38	-41.6	-45.3	12.7	5.41e-05	0	57	0	1031798784	54	5601
2026-01-04 00:11:29.04	216.83	25.23	-41.5	-45.1	12.9	4.57e-05	0	57	0	1033895936	54	5478
2026-01-04 00:11:30.05	216.76	25.07	-41.6	-45.2	12.8	5.18e-05	0	57	0	1034944512	54	5530
2026-01-04 00:11:31.06	216.69	24.91	-41.5	-45.0	13.0	5.03e-05	0	57	0	1037041664	54	5443
2026-01-04 00:11:32.07	216.62	24.76	-41.5	-45.0	13.0	3.50e-05	0	57	0	1039138816	54	5449
2026-01-04 00:11:33.08	216.55	24.60	-41.4	-44.8	13.2	3.50e-05	0	57	0	1041235968	54	5283
2026-01-04 00:11:34.09	216.48	24.45	-41.3	-44.6	13.4	1.44e-05	0	57	0	1043333120	54	5176
2026-01-04 00:11:35.10	216.42	24.29	-41.1	-44.4	13.7	1.83e-05	0	57	0	1044381696	54	5042
2026-01-04 00:11:36.11	216.35	24.14	-41.0	-44.1	13.9	3.80e-06	0	57	0	1046478848	54	4909
2026-01-04 00:11:37.12	216.28	23.99	-40.9	-44.0	14.0	4.50e-06	0	57	0	1048576000	53	5118
2026-01-04 00:11:38.13	216.22	23.84	-40.7	-43.6	14.4	1.50e-06	0	57	0	1050673152	53	4879
2026-01-04 00:11:39.14	216.15	23.69	-40.6	-43.5	14.5	0.00e+00	0	57	0	1052770304	53	4853
2026-01-04 00:11:40.15	216.09	23.54	-40.6	-43.4	14.6	7.00e-07	0	57	0	1053818880	53	4797
2026-01-04 00:11:41.16	216.03	23.39	-40.5	-43.3	14.7	2.20e-06	0	57	0	1055916032	52	4990
2026-01-04 00:11:42.17	215.97	23.24	-40.5	-43.4	14.6	0.00e+00	0	57	0	1058013184	52	5064
2026-01-04 00:11:43.18	215.90	23.09	-40.5	-43.3	14.7	7.00e-07	0	57	0	1060110336	52	4990
2026-01-04 00:11:44.19	215.84	22.95	-40.5	-43.3	14.6	0.00e+00	0	57	0	1062207488	52	5039
2026-01-04 00:11:45.20	215.78	22.80	-40.4	-43.3	14.7	0.00e+00	0	57	0	1063256064	52	4984
2026-01-04 00:11:46.20	215.72	22.66	-40.5	-43.4	14.6	0.00e+00	0	57	0	1065353216	52	5047
2026-01-04 00:11:47.21	215.66	22.52	-40.5	-43.3	14.6	0.00e+00	0	57	0	1067450368	52	5035
2026-01-04 00:11:48.22	215.60	22.37	-40.5	-43.4	14.6	0.00e+00	0	57	0	1069547520	52	5059
2026-01-04 00:11:49.23	215.55	22.23	-40.4	-43.2	14.7	0.00e+00	0	57	0	1071644672	52	4977
2026-01-04 00:11:50.24	215.49	22.09	-40.3	-43.1	14.9	0.00e+00	0	57	0	1072693248	52	4892
2026-01-04 00:11:51.25	215.43	21.95	-40.3	-43.1	14.9	0.00e+00	0	57	0	1074790400	52	4898
2026-01-04 00:11:52.26	215.37	21.81	-40.2	-42.9	15.1	0.00e+00	0	57	0	1076887552	52	4764
2026-01-04 00:11:53.27	215.32	21.67	-40.2	-42.9	15.1	0.00e+00	0	57	0	1078984704	52	4787
2026-01-04 00:11:54.28	215.26	21.53	-40.1	-42.8	15.2	0.00e+00	0	57	0	1081081856	52	4720
2026-01-04 00:11:55.29	215.21	21.39	-40.1	-42.7	15.3	0.00e+00	0	57	0	1082130432	52	4680
2026-01-04 00:11:56.30	215.15	21.26	-40.1	-42.6	15.3	0.00e+00	0	57	0	1084227584	52	4651
2026-01-04 00:11:57.31	215.10	21.12	-40.0	-42.5	15.4	0.00e+00	0	57	0	1086324736	52	4597
2026-01-04 00:11:58.32	215.04	20.99	-40.1	-42.7	15.3	0.00e+00	0	57	0	1088421888	52	4657
2026-01-04 00:11:59.33	214.99	20.85	-40.0	-42.6	15.4	0.00e+00	0	57	0	1090519040	52	4631
2026-01-04 00:12:00.32	214.94	20.72	-40.1	-42.7	15.2	0.00e+00	0	57	0	1091567616	52	4691
2026-01-04 00:12:01.33	214.89	20.59	-40.1	-42.7	15.2	0.00e+00	0	57	0	1093664768	52	4690
2026-01-04 00:12:02.34	214.84	20.45	-40.1	-42.7	15.2	0.00e+00	0	57	0	1095761920	52	4684
2026-01-04 00:12:03.35	214.78	20.32	-40.2	-42.9	15.1	0.00e+00	0	57	0	1097859072	52	4790
2026-01-04 00:12:04.36	214.73	20.19	-40.2	-42.9	15.0	0.00e+00	0	57	0	1099956224	52	4808
2026-01-04 00:12:05.37	214.68	20.06	-40.3	-43.1	14.9	0.00e+00	0	57	0	1102053376	52	4881
2026-01-04 00:12:06.38	214.63	19.93	-40.4	-43.1	14.8	0.00e+00	0	57	0	1103101952	52	4916
2026-01-04 00:12:07.39	214.58	19.80	-40.4	-43.1	14.8	0.00e+00	0	57	0	1105199104	52	4923
2026-01-04 00:12:08.39	214.54	19.67	-40.4	-43.2	14.7	0.00e+00	0	57	0	1107296256	52	4928
2026-01-04 00:12:09.40	214.49	19.54	-40.5	-43.3	14.6	0.00e+00	0	57	0	1109393408	52	5031
2026-01-04 00:12:10.41	214.44	19.41	-40.5	-43.4	14.5	7.00e-07	0	57	0	1111490560	52	5060
2026-01-04 00:12:11.42	214.39	19.29	-40.5	-43.4	14.5	0.00e+00	0	57	0	1112539136	52	5095
2026-01-04 00:12:12.43	214.34	19.16	-40.5	-43.5	14.5	7.00e-07	0	57	0	1114636288	52	5109
2026-01-04 00:12:13.44	214.30	19.04	-40.6	-43.6	14.3	0.00e+00	0	57	0	1116733440	52	5187
2026-01-04 00:12:14.45	214.25	18.91	-40.5	-43.5	14.5	1.50e-06	0	57	0	1118830592	52	5116
2026-01-04 00:12:15.46	214.20	18.79	-40.6	-43.5	14.4	0.00e+00	0	57	0	1120927744	52	5154
2026-01-04 00:12:16.47	214.16	18.66	-40.5	-43.5	14.4	1.50e-06	0	57	0	1121976320	52	5118
2026-01-04 00:12:17.48	214.11	18.54	-40.6	-43.6	14.3	7.00e-07	0	57	0	1124073472	52	5172
2026-01-04 00:12:18.49	214.07	18.42	-40.6	-43.6	14.3	7.00e-07	0	57	0	1126170624	52	5160
2026-01-04 00:12:19.50	214.02	18.29	-40.5	-43.5	14.4	0.00e+00	0	57	0	1128267776	52	5104
2026-01-04 00:12:20.51	213.98	18.17	-40.5	-43.5	14.4	0.00e+00	0	57	0	1130364928	52	5110
2026-01-04 00:12:21.52	213.94	18.05	-40.5	-43.4	14.5	7.00e-07	0	57	0	1131413504	52	5047
2026-01-04 00:12:22.53	213.89	17.93	-40.5	-43.4	14.5	7.00e-07	0	57	0	1133510656	52	5052
2026-01-04 00:12:23.54	213.85	17.81	-40.4	-43.3	14.6	0.00e+00	0	57	0	1135607808	52	5012
2026-01-04 00:12:24.55	213.81	17.69	-40.4	-43.3	14.6	7.00e-07	0	57	0	1137704960	52	5002
2026-01-04 00:12:25.56	213.76	17.57	-40.3	-43.1	14.8	7.00e-07	0	57	0	1139802112	52	4905
2026-01-04 00:12:26.57	213.72	17.45	-40.3	-43.1	14.8	7.00e-07	0	57	0	1140850688	52	4879
2026-01-04 00:12:27.57	213.68	17.34	-40.3	-43.1	14.7	7.00e-07	0	57	0	1142947840	52	4910
2026-01-04 00:12:28.58	213.64	17.22	-40.3	-43.1	14.8	1.50e-06	0	57	0	1145044992	52	4873
2026-01-04 00:12:29.59	213.60	17.10	-40.3	-43.1	14.7	0.00e+00	0	57	0	1147142144	52	4901
2026-01-04 00:12:30.60	213.56	16.99	-40.3	-43.1	14.7	1.50e-06	0	57	0	1149239296	52	4892
2026-01-04 00:12:31.61	213.52	16.87	-40.3	-43.1	14.8	7.00e-07	0	57	0	1150287872	52	4882
2026-01-04 00:12:32.62	213.48	16.76	-40.3	-43.1	14.7	0.00e+00	0	57	0	1152385024	52	4919
2026-01-04 00:12:33.63	213.44	16.64	-40.4	-43.2	14.6	7.00e-07	0	57	0	1154482176	52	4956
2026-01-04 00:12:34.64	213.40	16.53	-40.4	-43.3	14.6	0.00e+00	0	57	0	1156579328	52	4990
2026-01-04 00:12:35.65	213.36	16.42	-40.4	-43.4	14.4	0.00e+00	0	57	0	1158676480	52	5044
2026-01-04 00:12:36.66	213.32	16.30	-40.5	-43.4	14.4	7.00e-07	0	57	0	1159725056	52	5078
2026-01-04 00:12:37.67	213.28	16.19	-40.5	-43.5	14.3	7.00e-07	0	57	0	1161822208	52	5133
2026-01-04 00:12:38.68	213.25	16.08	-40.5	-43.4	14.3	1.50e-06	0	57	0	1163919360	52	5098
2026-01-04 00:12:39.69	213.21	15.97	-40.6	-43.6	14.2	1.50e-06	0	57	0	1166016512	52	5180
2026-01-04 00:12:40.70	213.17	15.86	-40.6	-43.6	14.2	1.50e-06	0	57	0	1168113664	52	5176
2026-01-04 00:12:41.71	213.13	15.75	-40.7	-43.7	14.0	1.50e-06	0	57	0	1170210816	52	5276
2026-01-04 00:12:42.72	213.10	15.64	-40.6	-43.7	14.0	5.30e-06	0	57	0	1171259392	52	5251
2026-01-04 00:12:43.73	213.06	15.53	-40.6	-43.7	14.1	7.00e-07	0	57	0	1173356544	52	5271
2026-01-04 00:12:44.74	213.02	15.42	-40.7	-43.9	13.9	3.00e-06	0	57	0	1175453696	52	5344
2026-01-04 00:12:45.75	212.99	15.31	-40.7	-43.8	13.9	3.80e-06	0	57	0	1177550848	52	5333
2026-01-04 00:12:46.76	212.95	15.20	-40.7	-43.9	13.9	1.50e-06	0	57	0	1179648000	52	5355
2026-01-04 00:12:47.77	212.92	15.10	-40.7	-43.9	13.9	1.50e-06	0	57	0	1180696576	52	5358
2026-01-04 00:12:48.78	212.88	14.99	-40.7	-43.9	13.9	1.50e-06	0	57	0	1182793728	52	5346
2026-01-04 00:12:49.79	212.85	14.88	-40.8	-44.0	13.8	6.10e-06	0	57	0	1184890880	52	5411
2026-01-04 00:12:50.80	212.81	14.78	-40.8	-44.0	13.8	3.80e-06	0	57	0	1186988032	52	5409
