passes_logs/2026/01/04/R2.0S_Moscow/R2.0S_Moscow__20260104_014147_NOAA_20_JPSS-1_rec.log

#Pass ID: 20260104_014147_NOAA 20 (JPSS-1)
#Satellite: NOAA 20 (JPSS-1)
#Configuration: NOAA 20
#almurnet v.1.7.20251203
#Start time: 2026-01-04 01:41:46

#Version: 2.2.20231116
#Station: R2.0S_Moscow
#Location: 37.707566 lon 55.798166 lat
#TLE: 1 43013U 17073A   26003.41800368  .00000169  00000+0  10117-3 0  9998
#TLE: 2 43013  98.7624 304.4804 0001884  56.1176 304.0179 14.19532918421092

#Time	Az	El	Level	Level2	SNR	BER	BlckErr	Temp	State	Recorded	gain1	gain2
2026-01-04 01:41:46.69	9.30	1.98	-39.2	-54.2	3.8	1.49e+00	0	47	0	0	50	19715
2026-01-04 01:41:47.69	9.22	2.03	-39.1	-54.2	3.8	1.49e+00	0	47	104	0	48	22058
2026-01-04 01:41:48.71	9.14	2.08	-39.2	-54.2	3.8	1.49e+00	0	47	104	0	48	22052
2026-01-04 01:41:49.72	9.07	2.14	-39.2	-54.2	3.8	1.49e+00	0	48	104	0	48	22082
2026-01-04 01:41:50.73	8.99	2.19	-39.2	-54.1	3.8	1.49e+00	0	48	104	0	48	21991
2026-01-04 01:41:51.74	8.91	2.24	-39.1	-54.2	3.8	1.49e+00	0	48	104	0	48	22009
2026-01-04 01:41:52.74	8.83	2.30	-39.1	-54.2	3.8	1.49e+00	0	48	104	0	48	22049
2026-01-04 01:41:53.76	8.75	2.35	-39.2	-54.2	3.8	1.49e+00	0	48	104	0	48	22065
2026-01-04 01:41:54.77	8.67	2.40	-39.1	-54.2	3.8	1.49e+00	0	48	104	0	48	22071
2026-01-04 01:41:55.78	8.59	2.46	-39.2	-54.2	3.8	1.49e+00	0	48	104	0	48	22097
2026-01-04 01:41:56.79	8.51	2.51	-39.1	-54.1	3.8	1.49e+00	0	48	104	0	48	21998
2026-01-04 01:41:57.80	8.43	2.57	-39.1	-54.2	3.8	1.49e+00	0	48	104	0	48	22033
2026-01-04 01:41:58.81	8.35	2.62	-39.2	-54.2	3.8	1.49e+00	0	48	104	0	48	22107
2026-01-04 01:41:59.82	8.27	2.67	-39.1	-54.2	3.8	1.49e+00	0	48	104	0	48	22059
2026-01-04 01:42:00.83	8.19	2.73	-39.1	-54.2	3.8	1.49e+00	0	48	104	0	48	22088
2026-01-04 01:42:01.84	8.11	2.78	-39.2	-54.2	3.8	1.49e+00	0	49	104	0	48	22013
2026-01-04 01:42:02.85	8.02	2.83	-39.2	-54.2	3.8	1.49e+00	0	49	104	0	48	22022
2026-01-04 01:42:03.87	7.94	2.89	-39.1	-54.2	3.8	1.49e+00	0	48	104	0	48	22098
2026-01-04 01:42:04.88	7.86	2.94	-39.2	-54.2	3.8	1.49e+00	0	49	104	0	48	22097
2026-01-04 01:42:05.89	7.78	3.00	-39.2	-54.2	3.8	1.49e+00	0	49	104	0	48	22111
2026-01-04 01:42:06.90	7.69	3.05	-39.2	-54.2	3.8	1.49e+00	0	49	104	0	48	22051
2026-01-04 01:42:07.91	7.61	3.11	-39.2	-54.2	3.8	1.49e+00	0	49	104	0	48	22036
2026-01-04 01:42:08.92	7.53	3.16	-39.2	-54.2	3.8	1.49e+00	0	49	104	0	48	22082
2026-01-04 01:42:09.93	7.44	3.21	-39.2	-54.2	3.8	1.49e+00	0	49	104	0	48	22088
2026-01-04 01:42:10.94	7.36	3.27	-39.2	-54.2	3.8	1.49e+00	0	49	104	0	48	22077
2026-01-04 01:42:11.95	7.27	3.32	-39.2	-54.2	3.8	1.49e+00	0	49	104	0	48	22025
2026-01-04 01:42:12.96	7.19	3.38	-39.1	-54.2	3.8	1.49e+00	0	49	104	0	48	22029
2026-01-04 01:42:13.98	7.10	3.43	-39.2	-54.2	3.8	1.49e+00	0	49	104	0	48	22040
2026-01-04 01:42:14.99	7.01	3.49	-39.2	-54.1	3.8	1.49e+00	0	49	104	0	48	21992
2026-01-04 01:42:16.00	6.93	3.54	-39.2	-54.2	3.8	1.49e+00	0	49	104	0	48	22015
2026-01-04 01:42:17.01	6.84	3.60	-39.2	-54.2	3.8	1.49e+00	0	49	104	0	48	22055
2026-01-04 01:42:18.02	6.76	3.65	-39.1	-54.2	3.8	1.49e+00	0	50	104	0	48	22015
2026-01-04 01:42:19.03	6.67	3.71	-39.2	-54.2	3.8	1.49e+00	0	49	104	0	48	22018
2026-01-04 01:42:20.04	6.58	3.76	-39.2	-54.2	3.8	1.49e+00	0	50	104	0	48	22120
2026-01-04 01:42:21.05	6.49	3.82	-39.2	-54.2	3.8	1.49e+00	0	50	104	0	48	22045
2026-01-04 01:42:22.06	6.40	3.87	-39.1	-54.2	3.8	1.49e+00	0	50	104	0	48	22022
2026-01-04 01:42:23.07	6.32	3.93	-39.2	-54.2	3.8	1.49e+00	0	50	104	0	48	22048
2026-01-04 01:42:24.08	6.23	3.98	-39.2	-54.2	3.8	1.49e+00	0	50	104	0	48	22069
2026-01-04 01:42:25.10	6.14	4.04	-39.2	-54.2	3.8	1.49e+00	0	50	104	0	48	22014
2026-01-04 01:42:26.11	6.05	4.09	-39.2	-54.2	3.8	1.49e+00	0	50	104	0	48	22057
2026-01-04 01:42:27.12	5.96	4.15	-39.1	-54.2	3.8	1.49e+00	0	50	104	0	48	22033
2026-01-04 01:42:28.13	5.87	4.20	-39.2	-54.2	3.8	1.49e+00	0	50	104	0	48	22057
2026-01-04 01:42:29.14	5.78	4.26	-39.1	-54.2	3.8	1.49e+00	0	50	104	0	48	22026
2026-01-04 01:42:30.15	5.69	4.31	-39.2	-54.1	3.8	1.49e+00	0	50	104	0	48	21992
2026-01-04 01:42:31.16	5.59	4.37	-39.2	-54.2	3.8	1.49e+00	0	50	104	0	48	22024
2026-01-04 01:42:32.17	5.50	4.42	-39.2	-54.2	3.8	1.49e+00	0	50	104	0	48	22125
2026-01-04 01:42:33.18	5.41	4.48	-39.1	-54.1	3.8	1.49e+00	0	50	104	0	48	21981
2026-01-04 01:42:34.20	5.32	4.54	-39.2	-54.2	3.8	1.49e+00	0	51	104	0	48	22059
2026-01-04 01:42:35.21	5.22	4.59	-39.1	-54.2	3.8	1.49e+00	0	50	104	0	48	22012
2026-01-04 01:42:36.22	5.13	4.65	-39.2	-54.1	3.8	1.49e+00	0	50	104	0	48	21965
2026-01-04 01:42:37.23	5.04	4.70	-39.2	-54.2	3.8	1.49e+00	0	51	104	0	48	22046
2026-01-04 01:42:38.24	4.94	4.76	-39.1	-54.2	3.8	1.49e+00	0	51	104	0	48	22071
2026-01-04 01:42:39.25	4.85	4.81	-39.2	-54.2	3.8	1.49e+00	0	51	104	0	48	22102
2026-01-04 01:42:40.26	4.75	4.87	-39.1	-54.1	3.8	1.49e+00	0	51	104	0	48	22006
2026-01-04 01:42:41.27	4.66	4.92	-39.2	-54.2	3.8	1.49e+00	0	51	104	0	48	22035
2026-01-04 01:42:42.28	4.56	4.98	-39.1	-54.2	3.8	1.49e+00	0	51	104	0	48	22018
2026-01-04 01:42:43.29	4.47	5.04	-39.1	-54.2	3.8	1.49e+00	0	51	104	0	48	22072
2026-01-04 01:42:44.31	4.37	5.09	-39.2	-54.1	3.8	1.49e+00	0	51	104	0	48	21997
2026-01-04 01:42:45.32	4.27	5.15	-39.2	-54.2	3.8	1.49e+00	0	51	104	0	48	22058
2026-01-04 01:42:46.33	4.18	5.20	-39.2	-54.2	3.8	1.49e+00	0	51	104	0	48	22033
2026-01-04 01:42:47.34	4.08	5.26	-39.2	-54.2	3.8	1.49e+00	0	51	104	0	48	22012
2026-01-04 01:42:48.35	3.98	5.32	-39.2	-54.2	3.8	1.49e+00	0	51	104	0	48	22064
2026-01-04 01:42:49.36	3.88	5.37	-39.1	-54.1	3.8	1.49e+00	0	51	104	0	48	21996
2026-01-04 01:42:50.37	3.79	5.43	-39.1	-54.2	3.8	1.49e+00	0	51	104	0	48	22066
2026-01-04 01:42:51.38	3.69	5.49	-39.1	-54.1	3.8	1.49e+00	0	51	104	0	48	21986
2026-01-04 01:42:52.39	3.59	5.54	-39.2	-54.2	3.8	1.49e+00	0	51	104	0	48	22072
2026-01-04 01:42:53.41	3.49	5.60	-39.2	-54.2	3.8	1.49e+00	0	51	104	0	48	22047
2026-01-04 01:42:54.42	3.39	5.65	-39.1	-54.2	3.8	1.49e+00	0	51	104	0	48	22044
2026-01-04 01:42:55.42	3.29	5.71	-39.1	-54.2	3.8	1.49e+00	0	51	104	0	48	22017
2026-01-04 01:42:56.44	3.18	5.77	-39.2	-54.2	3.8	1.49e+00	0	51	104	0	48	22062
2026-01-04 01:42:57.45	3.08	5.82	-39.2	-54.1	3.8	1.49e+00	0	52	104	0	48	21993
2026-01-04 01:42:58.46	2.98	5.88	-39.2	-54.2	3.8	1.49e+00	0	52	104	0	48	22038
2026-01-04 01:42:59.47	2.88	5.94	-39.1	-54.2	3.8	1.49e+00	0	52	104	0	48	22016
2026-01-04 01:43:00.48	2.78	5.99	-39.2	-54.2	3.8	1.49e+00	0	51	104	0	48	22065
2026-01-04 01:43:01.49	2.67	6.05	-39.2	-54.2	3.8	1.49e+00	0	52	104	0	48	22039
2026-01-04 01:43:02.50	2.57	6.11	-39.1	-54.1	3.8	1.49e+00	0	52	104	0	48	22002
2026-01-04 01:43:03.52	2.47	6.16	-39.2	-54.1	3.8	1.49e+00	0	52	104	0	48	21981
2026-01-04 01:43:04.53	2.36	6.22	-39.2	-54.1	3.8	1.49e+00	0	52	104	0	48	21985
2026-01-04 01:43:05.54	2.26	6.28	-39.2	-54.1	3.8	1.49e+00	0	52	104	0	48	21972
2026-01-04 01:43:06.55	2.15	6.33	-39.1	-54.2	3.8	1.49e+00	0	52	104	0	48	22021
2026-01-04 01:43:07.56	2.05	6.39	-39.2	-54.2	3.8	1.49e+00	0	52	104	0	48	22021
2026-01-04 01:43:08.57	1.94	6.45	-39.2	-54.2	3.8	1.49e+00	0	52	104	0	48	22021
2026-01-04 01:43:09.58	1.83	6.50	-39.1	-54.1	3.8	1.49e+00	0	52	104	0	48	22006
2026-01-04 01:43:10.59	1.73	6.56	-39.2	-54.1	3.8	1.49e+00	0	52	104	0	48	21989
2026-01-04 01:43:11.60	1.62	6.62	-39.1	-54.1	3.8	1.49e+00	0	52	104	0	48	22002
2026-01-04 01:43:12.61	1.51	6.67	-39.1	-54.2	3.8	1.49e+00	0	52	104	0	48	22038
2026-01-04 01:43:13.62	1.40	6.73	-39.2	-54.1	3.8	1.49e+00	0	52	104	0	48	21971
2026-01-04 01:43:14.64	1.29	6.79	-39.1	-54.1	3.8	1.49e+00	0	52	104	0	48	21932
2026-01-04 01:43:15.65	1.18	6.85	-39.2	-54.2	3.8	1.49e+00	0	52	104	0	48	22075
2026-01-04 01:43:16.66	1.08	6.90	-39.1	-54.1	3.8	1.49e+00	0	52	104	0	48	22004
2026-01-04 01:43:17.67	0.97	6.96	-39.1	-54.1	3.8	1.49e+00	0	52	104	0	48	21976
2026-01-04 01:43:18.68	0.86	7.02	-39.1	-54.2	3.8	1.49e+00	0	52	104	0	48	22025
2026-01-04 01:43:19.69	0.74	7.07	-39.2	-54.2	3.8	1.49e+00	0	52	104	0	48	22077
2026-01-04 01:43:20.70	0.63	7.13	-39.1	-54.1	3.8	1.49e+00	0	53	104	0	48	21970
2026-01-04 01:43:21.71	0.52	7.19	-39.1	-54.1	3.8	1.49e+00	0	53	104	0	48	21973
2026-01-04 01:43:22.72	0.41	7.25	-39.1	-54.1	3.8	1.49e+00	0	53	104	0	48	21928
2026-01-04 01:43:23.74	0.30	7.30	-39.1	-54.1	3.8	1.49e+00	0	53	104	0	48	21991
2026-01-04 01:43:24.75	0.18	7.36	-39.2	-54.1	3.8	1.49e+00	0	53	104	0	48	21988
2026-01-04 01:43:25.76	0.07	7.42	-39.2	-54.1	3.8	1.49e+00	0	53	104	0	48	21972
2026-01-04 01:43:26.77	359.96	7.47	-39.1	-54.1	3.8	1.49e+00	0	53	104	0	48	21918
2026-01-04 01:43:27.78	359.84	7.53	-39.1	-54.1	3.8	1.49e+00	0	53	104	0	48	21974
2026-01-04 01:43:28.79	359.73	7.59	-39.1	-54.1	3.8	1.49e+00	0	53	104	0	48	21971
2026-01-04 01:43:29.80	359.61	7.65	-39.1	-54.1	3.8	1.49e+00	0	53	104	0	48	21988
2026-01-04 01:43:30.81	359.49	7.70	-39.1	-54.1	3.8	1.49e+00	0	53	104	0	48	21987
2026-01-04 01:43:31.82	359.38	7.76	-39.1	-54.1	3.8	1.49e+00	0	53	104	0	48	21932
2026-01-04 01:43:32.83	359.26	7.82	-39.1	-54.1	3.8	1.49e+00	0	53	104	0	48	21980
2026-01-04 01:43:33.84	359.14	7.88	-39.1	-54.1	3.8	1.49e+00	0	53	104	0	48	21958
2026-01-04 01:43:34.86	359.03	7.93	-39.1	-54.1	3.8	1.49e+00	0	53	104	0	48	21913
2026-01-04 01:43:35.87	358.91	7.99	-39.1	-54.1	3.8	1.49e+00	0	53	104	0	48	21941
2026-01-04 01:43:36.88	358.79	8.05	-39.1	-54.2	3.8	1.49e+00	0	53	104	0	48	22049
2026-01-04 01:43:37.89	358.67	8.11	-38.4	-54.1	3.8	1.49e+00	0	53	104	0	48	21860
2026-01-04 01:43:38.90	358.55	8.16	-39.4	-54.2	3.8	1.49e+00	0	53	104	0	49	20955
2026-01-04 01:43:39.91	358.43	8.22	-38.7	-54.1	3.8	1.49e+00	0	53	104	0	49	20635
2026-01-04 01:43:40.92	358.31	8.28	-38.8	-54.2	3.8	1.49e+00	0	53	104	0	48	22015
2026-01-04 01:43:41.93	358.19	8.34	-39.2	-54.2	3.8	1.49e+00	0	53	104	0	48	22049
2026-01-04 01:43:42.94	358.07	8.39	-38.9	-54.2	3.8	1.49e+00	0	53	104	0	49	20876
2026-01-04 01:43:43.95	357.94	8.45	-39.0	-54.1	3.8	1.49e+00	0	53	104	0	49	20717
2026-01-04 01:43:44.96	357.82	8.51	-39.1	-54.2	3.8	1.49e+00	0	53	104	0	49	20952
2026-01-04 01:43:45.97	357.70	8.57	-38.6	-54.0	3.8	1.49e+00	0	53	104	0	48	21753
2026-01-04 01:43:46.98	357.58	8.62	-39.0	-54.2	3.8	1.49e+00	0	53	104	0	48	22178
2026-01-04 01:43:47.99	357.45	8.68	-38.7	-54.0	3.8	1.49e+00	0	53	104	0	48	21700
2026-01-04 01:43:49.00	357.33	8.74	-39.4	-54.2	3.8	1.49e+00	0	53	104	0	49	20781
2026-01-04 01:43:50.02	357.20	8.80	-38.6	-54.1	3.8	1.49e+00	0	53	104	0	49	20674
2026-01-04 01:43:51.02	357.08	8.85	-39.4	-54.2	3.8	1.49e+00	0	53	104	0	49	20808
2026-01-04 01:43:52.03	356.95	8.91	-38.8	-54.1	3.8	1.49e+00	0	54	104	0	49	20723
2026-01-04 01:43:53.04	356.82	8.97	-38.9	-54.2	3.8	1.49e+00	0	53	104	0	49	20868
2026-01-04 01:43:54.05	356.70	9.03	-39.4	-54.1	3.8	1.49e+00	0	53	104	0	49	20631
2026-01-04 01:43:55.06	356.57	9.08	-38.8	-54.1	3.8	1.49e+00	0	53	104	0	49	20759
2026-01-04 01:43:56.07	356.44	9.14	-39.4	-54.1	3.8	1.49e+00	0	54	104	0	49	20753
2026-01-04 01:43:57.08	356.31	9.20	-39.4	-54.2	3.8	1.49e+00	0	54	104	0	49	20899
2026-01-04 01:43:58.09	356.18	9.26	-39.4	-54.1	3.8	1.49e+00	0	54	104	0	49	20743
2026-01-04 01:43:59.10	356.05	9.31	-39.5	-54.2	3.8	1.49e+00	0	54	104	0	49	20994
2026-01-04 01:44:00.11	355.92	9.37	-39.4	-54.1	3.8	1.49e+00	0	54	104	0	49	20669
2026-01-04 01:44:01.12	355.79	9.43	-39.2	-54.2	3.8	1.49e+00	0	54	104	0	49	20854
2026-01-04 01:44:02.13	355.66	9.49	-39.6	-54.3	3.8	1.49e+00	0	54	104	0	49	21129
2026-01-04 01:44:03.14	355.53	9.54	-39.4	-54.2	3.8	1.49e+00	0	54	104	0	49	20898
2026-01-04 01:44:04.15	355.40	9.60	-39.6	-54.3	3.8	1.49e+00	0	54	104	0	49	21212
2026-01-04 01:44:05.17	355.26	9.66	-39.8	-54.3	3.8	1.49e+00	0	54	104	0	50	19966
2026-01-04 01:44:06.18	355.13	9.72	-39.3	-54.2	3.8	1.49e+00	0	54	104	0	50	19770
2026-01-04 01:44:07.18	354.99	9.77	-39.8	-54.3	3.8	1.49e+00	0	54	104	0	50	19920
2026-01-04 01:44:08.19	354.86	9.83	-39.4	-54.2	3.8	1.49e+00	0	54	104	0	50	19811
2026-01-04 01:44:09.20	354.73	9.89	-39.7	-54.3	3.8	1.49e+00	0	54	104	0	50	19963
2026-01-04 01:44:10.21	354.59	9.94	-39.7	-54.3	3.8	1.49e+00	0	54	104	0	50	19946
2026-01-04 01:44:11.22	354.45	10.00	-39.8	-54.3	3.8	1.49e+00	0	54	104	0	50	20013
2026-01-04 01:44:12.23	354.32	10.06	-39.7	-54.3	3.8	1.49e+00	0	54	104	0	50	19996
2026-01-04 01:44:13.24	354.18	10.12	-39.8	-54.4	3.8	1.49e+00	0	54	104	0	50	20139
2026-01-04 01:44:14.25	354.04	10.17	-39.8	-54.3	3.8	1.49e+00	0	54	104	0	50	19955
2026-01-04 01:44:15.26	353.90	10.23	-39.8	-54.4	3.8	1.49e+00	0	54	104	0	50	20227
2026-01-04 01:44:16.27	353.76	10.29	-39.7	-54.3	3.8	1.49e+00	0	54	104	0	50	19939
2026-01-04 01:44:17.27	353.63	10.34	-39.7	-54.4	3.8	1.49e+00	0	54	104	0	50	20172
2026-01-04 01:44:18.29	353.48	10.40	-39.9	-54.5	3.8	1.49e+00	0	54	104	0	50	20354
2026-01-04 01:44:19.30	353.34	10.46	-39.6	-54.4	3.8	1.49e+00	0	54	104	0	50	20254
2026-01-04 01:44:20.31	353.20	10.52	-40.1	-54.6	3.8	1.49e+00	0	54	104	0	50	20755
2026-01-04 01:44:21.31	353.06	10.57	-40.1	-54.7	3.8	1.49e+00	0	54	104	0	50	20863
2026-01-04 01:44:22.33	352.92	10.63	-39.8	-54.4	3.8	1.49e+00	0	54	104	0	50	20243
2026-01-04 01:44:23.34	352.78	10.69	-40.2	-54.7	3.8	1.49e+00	0	54	104	0	51	19764
2026-01-04 01:44:24.35	352.63	10.74	-39.8	-54.5	3.8	1.49e+00	0	54	104	0	51	19170
2026-01-04 01:44:25.36	352.49	10.80	-40.1	-54.8	3.8	1.49e+00	0	54	104	0	51	20049
2026-01-04 01:44:26.37	352.34	10.86	-40.1	-54.6	3.8	1.49e+00	0	54	104	0	51	19542
2026-01-04 01:44:27.38	352.20	10.91	-40.3	-54.9	3.8	1.49e+00	0	54	104	0	51	20271
2026-01-04 01:44:28.39	352.05	10.97	-40.1	-54.6	3.8	1.49e+00	0	54	104	0	51	19453
2026-01-04 01:44:29.40	351.91	11.03	-40.3	-54.8	3.8	1.49e+00	0	54	104	0	51	19943
2026-01-04 01:44:30.41	351.76	11.08	-40.2	-54.7	3.8	1.49e+00	0	54	104	0	51	19841
2026-01-04 01:44:31.41	351.61	11.14	-40.4	-54.9	3.8	1.49e+00	0	54	104	0	51	20126
2026-01-04 01:44:32.42	351.47	11.19	-40.3	-54.8	3.8	1.49e+00	0	54	104	0	51	20046
2026-01-04 01:44:33.43	351.32	11.25	-40.4	-54.9	3.8	1.49e+00	0	55	104	0	51	20239
2026-01-04 01:44:34.44	351.17	11.31	-40.2	-54.8	3.8	1.49e+00	0	54	104	0	51	19859
2026-01-04 01:44:35.45	351.02	11.36	-40.5	-55.0	3.8	1.49e+00	0	54	104	0	51	20475
2026-01-04 01:44:36.46	350.87	11.42	-40.3	-54.9	3.8	1.49e+00	0	54	104	0	51	20168
2026-01-04 01:44:37.47	350.72	11.48	-40.6	-55.2	3.8	1.49e+00	0	55	104	0	51	20880
2026-01-04 01:44:38.48	350.56	11.53	-40.5	-55.2	3.8	1.49e+00	0	55	104	0	51	20786
2026-01-04 01:44:39.49	350.41	11.59	-40.5	-55.1	3.8	1.49e+00	0	55	104	0	51	20746
2026-01-04 01:44:40.50	350.26	11.64	-40.5	-55.1	3.8	1.49e+00	0	54	104	0	51	20693
2026-01-04 01:44:41.51	350.11	11.70	-40.5	-55.1	3.8	1.49e+00	0	54	104	0	51	20591
2026-01-04 01:44:42.53	349.95	11.76	-40.5	-55.0	3.8	1.49e+00	0	55	104	0	51	20494
2026-01-04 01:44:43.53	349.80	11.81	-40.4	-55.0	3.8	1.49e+00	0	55	104	0	51	20332
2026-01-04 01:44:44.54	349.64	11.87	-40.6	-55.1	3.8	1.49e+00	0	55	104	0	51	20599
2026-01-04 01:44:45.55	349.49	11.92	-40.5	-55.0	3.8	1.49e+00	0	55	104	0	51	20415
2026-01-04 01:44:46.56	349.33	11.98	-40.5	-55.1	3.8	1.49e+00	0	55	104	0	51	20654
2026-01-04 01:44:47.57	349.17	12.03	-40.5	-55.1	3.8	1.49e+00	0	55	104	0	51	20707
2026-01-04 01:44:48.58	349.02	12.09	-40.3	-55.0	3.8	1.49e+00	0	55	104	0	51	20445
2026-01-04 01:44:49.59	348.86	12.14	-40.6	-55.3	3.8	1.49e+00	0	55	104	0	51	21165
2026-01-04 01:44:50.60	348.70	12.20	-40.6	-55.3	3.8	1.49e+00	0	55	104	0	51	21243
2026-01-04 01:44:51.61	348.54	12.25	-40.6	-55.3	3.8	1.49e+00	0	55	104	0	52	19936
2026-01-04 01:44:52.62	348.38	12.31	-40.7	-55.3	3.8	1.49e+00	0	55	104	0	52	20066
2026-01-04 01:44:53.63	348.22	12.36	-40.6	-55.4	3.8	1.49e+00	0	55	104	0	52	20094
2026-01-04 01:44:54.64	348.06	12.42	-40.8	-55.4	3.8	1.49e+00	0	55	104	0	52	20221
2026-01-04 01:44:55.65	347.90	12.47	-40.7	-55.4	3.8	1.49e+00	0	55	104	0	52	20203
2026-01-04 01:44:56.66	347.73	12.53	-40.9	-55.6	3.8	1.49e+00	0	55	104	0	52	20592
2026-01-04 01:44:57.67	347.57	12.58	-40.7	-55.3	3.8	1.49e+00	0	55	104	0	52	20032
2026-01-04 01:44:58.68	347.41	12.64	-40.9	-55.6	3.8	1.49e+00	0	55	104	0	52	20543
2026-01-04 01:44:59.69	347.24	12.69	-40.8	-55.4	3.8	1.49e+00	0	55	104	0	52	20136
2026-01-04 01:45:00.70	347.08	12.74	-40.7	-55.4	3.8	1.49e+00	0	55	104	0	52	20274
2026-01-04 01:45:01.71	346.91	12.80	-40.9	-55.5	3.8	1.49e+00	0	55	104	0	52	20406
2026-01-04 01:45:02.72	346.75	12.85	-40.7	-55.5	3.8	1.49e+00	0	55	104	0	52	20359
2026-01-04 01:45:03.73	346.58	12.90	-40.9	-55.5	3.8	1.49e+00	0	55	104	0	52	20458
2026-01-04 01:45:04.74	346.41	12.96	-41.0	-55.6	3.8	1.49e+00	0	55	104	0	52	20767
2026-01-04 01:45:05.75	346.24	13.01	-40.5	-55.3	3.8	1.49e+00	0	55	104	0	52	19934
2026-01-04 01:45:06.76	346.07	13.06	-40.8	-55.5	3.8	1.49e+00	0	55	104	0	52	20370
2026-01-04 01:45:07.78	345.90	13.12	-40.3	-55.1	3.8	1.49e+00	0	55	104	0	52	19462
2026-01-04 01:45:08.79	345.73	13.17	-40.5	-55.1	3.8	1.49e+00	0	55	104	0	52	19409
2026-01-04 01:45:09.80	345.56	13.22	-40.6	-55.4	3.8	1.49e+00	0	55	104	0	52	20151
2026-01-04 01:45:10.81	345.39	13.28	-40.6	-55.2	3.8	1.49e+00	0	55	104	0	52	19677
2026-01-04 01:45:11.82	345.22	13.33	-40.5	-55.2	3.8	1.49e+00	0	55	104	0	52	19709
2026-01-04 01:45:12.83	345.05	13.38	-40.4	-55.0	3.8	1.49e+00	0	55	104	0	52	19187
2026-01-04 01:45:13.84	344.87	13.43	-40.4	-55.0	3.8	1.49e+00	0	55	104	0	52	19243
2026-01-04 01:45:14.85	344.70	13.49	-40.3	-55.1	3.8	1.49e+00	0	55	104	0	52	19393
2026-01-04 01:45:15.86	344.53	13.54	-40.5	-55.0	3.8	1.49e+00	0	55	104	0	52	19384
2026-01-04 01:45:16.87	344.35	13.59	-40.4	-55.1	3.8	1.49e+00	0	55	104	0	52	19402
2026-01-04 01:45:17.88	344.18	13.64	-40.7	-55.2	3.8	1.49e+00	0	55	104	0	52	19657
2026-01-04 01:45:18.89	344.00	13.69	-40.3	-55.1	3.8	1.49e+00	0	55	104	0	52	19402
2026-01-04 01:45:19.90	343.82	13.75	-40.7	-55.3	3.8	1.49e+00	0	55	104	0	52	19851
2026-01-04 01:45:20.91	343.65	13.80	-40.3	-55.0	3.8	1.49e+00	0	55	104	0	52	19378
2026-01-04 01:45:21.92	343.47	13.85	-40.4	-55.0	3.8	1.49e+00	0	55	104	0	52	19197
2026-01-04 01:45:22.93	343.29	13.90	-40.2	-55.0	3.8	1.49e+00	0	55	104	0	52	19206
2026-01-04 01:45:23.94	343.11	13.95	-40.4	-55.0	3.8	1.49e+00	0	55	104	0	52	19225
2026-01-04 01:45:24.95	342.93	14.00	-40.4	-55.0	3.8	1.49e+00	0	55	104	0	52	19385
2026-01-04 01:45:25.96	342.75	14.05	-40.3	-55.0	3.8	1.49e+00	0	55	104	0	52	19331
2026-01-04 01:45:26.98	342.57	14.10	-40.3	-54.9	3.8	1.49e+00	0	55	104	0	52	19117
2026-01-04 01:45:27.99	342.39	14.15	-40.3	-55.0	3.8	1.49e+00	0	55	104	0	52	19350
2026-01-04 01:45:28.99	342.20	14.20	-40.5	-55.0	3.8	1.49e+00	0	55	104	0	52	19329
2026-01-04 01:45:30.01	342.02	14.25	-40.1	-54.8	3.8	1.49e+00	0	55	104	0	52	18857
2026-01-04 01:45:31.02	341.84	14.30	-40.4	-54.9	3.8	1.49e+00	0	55	104	0	52	19113
2026-01-04 01:45:32.03	341.65	14.35	-40.0	-54.8	3.8	1.49e+00	0	55	104	0	51	19973
2026-01-04 01:45:33.03	341.47	14.40	-40.3	-54.8	3.8	1.49e+00	0	55	104	0	51	19988
2026-01-04 01:45:34.04	341.28	14.45	-40.5	-55.0	3.8	1.49e+00	0	55	104	0	51	20526
2026-01-04 01:45:35.05	341.10	14.50	-40.4	-54.8	3.8	1.49e+00	0	55	104	0	51	20029
2026-01-04 01:45:36.06	340.91	14.54	-40.3	-54.9	3.8	1.49e+00	0	55	104	0	51	20228
2026-01-04 01:45:37.07	340.72	14.59	-40.3	-54.8	3.8	1.49e+00	0	55	104	0	51	20044
2026-01-04 01:45:38.08	340.54	14.64	-40.4	-55.0	3.8	1.49e+00	0	55	104	0	51	20359
2026-01-04 01:45:39.09	340.35	14.69	-40.4	-54.9	3.8	1.49e+00	0	55	104	0	51	20196
2026-01-04 01:45:40.10	340.16	14.74	-40.7	-55.0	3.8	1.49e+00	0	55	104	0	51	20406
2026-01-04 01:45:41.11	339.97	14.78	-41.1	-52.6	4.1	1.45e+00	0	55	0	0	52	14659
2026-01-04 01:45:42.12	339.78	14.83	-40.3	-54.4	3.8	1.49e+00	0	55	104	0	52	17914
2026-01-04 01:45:43.13	339.59	14.88	-40.7	-50.0	5.1	1.43e+00	0	55	0	0	52	10779
2026-01-04 01:45:44.14	339.39	14.92	-40.6	-48.1	6.7	2.61e-01	0	55	0	2097152	52	8730
2026-01-04 01:45:45.15	339.20	14.97	-40.3	-46.2	8.8	6.78e-02	0	55	0	4194304	52	6985
2026-01-04 01:45:46.16	339.01	15.02	-39.9	-44.7	10.7	1.11e-02	0	55	0	5242880	51	6233
2026-01-04 01:45:47.17	338.82	15.06	-39.4	-43.3	12.4	2.84e-04	0	55	0	7340032	50	5600
2026-01-04 01:45:48.18	338.62	15.11	-39.0	-42.4	13.6	1.67e-05	0	56	0	9437184	50	5058
2026-01-04 01:45:49.18	338.43	15.15	-38.8	-42.0	14.2	1.50e-06	0	55	0	11534336	49	5117
2026-01-04 01:45:50.20	338.23	15.20	-39.0	-42.0	14.4	3.00e-06	0	55	0	13631488	49	5151
2026-01-04 01:45:51.20	338.04	15.24	-39.3	-42.6	14.0	3.80e-06	0	55	0	14680064	49	5487
2026-01-04 01:45:52.21	337.84	15.29	-39.6	-43.0	13.6	3.80e-06	0	55	0	16777216	49	5760
2026-01-04 01:45:53.22	337.64	15.33	-39.7	-43.1	13.6	6.80e-06	0	56	0	18874368	50	5503
2026-01-04 01:45:54.23	337.45	15.38	-39.7	-42.9	13.9	3.80e-06	0	55	0	20971520	50	5359
2026-01-04 01:45:55.24	337.25	15.42	-39.7	-42.8	14.0	1.50e-06	0	55	0	23068672	50	5328
2026-01-04 01:45:56.25	337.05	15.46	-39.7	-42.6	14.4	3.00e-06	0	55	0	24117248	50	5212
2026-01-04 01:45:57.26	336.85	15.51	-40.0	-43.2	14.0	1.50e-06	0	55	0	26214400	50	5544
2026-01-04 01:45:58.27	336.65	15.55	-40.0	-43.1	14.2	4.50e-06	0	55	0	28311552	50	5479
2026-01-04 01:45:59.28	336.45	15.59	-40.1	-43.1	14.3	2.20e-06	0	56	0	30408704	50	5475
2026-01-04 01:46:00.29	336.25	15.64	-40.2	-43.3	14.1	2.20e-06	0	56	0	32505856	51	5294
2026-01-04 01:46:01.30	336.05	15.68	-40.0	-42.8	14.6	0.00e+00	0	55	0	33554432	51	5033
2026-01-04 01:46:02.31	335.84	15.72	-40.0	-42.8	14.7	0.00e+00	0	56	0	35651584	51	5031
2026-01-04 01:46:03.32	335.64	15.76	-39.8	-42.6	15.0	0.00e+00	0	56	0	37748736	51	4891
2026-01-04 01:46:04.33	335.44	15.80	-39.8	-42.5	15.1	0.00e+00	0	55	0	39845888	51	4833
2026-01-04 01:46:05.34	335.23	15.84	-39.8	-42.5	15.1	0.00e+00	0	56	0	41943040	51	4843
2026-01-04 01:46:06.35	335.03	15.88	-39.8	-42.5	15.1	0.00e+00	0	56	0	44040192	51	4838
2026-01-04 01:46:07.36	334.82	15.93	-39.9	-42.6	15.0	0.00e+00	0	56	0	45088768	51	4920
2026-01-04 01:46:08.37	334.62	15.97	-39.9	-42.6	15.1	1.50e-06	0	56	0	47185920	51	4892
2026-01-04 01:46:09.38	334.41	16.01	-39.9	-42.6	15.1	7.00e-07	0	56	0	49283072	51	4894
2026-01-04 01:46:10.39	334.20	16.04	-39.9	-42.6	15.1	0.00e+00	0	55	0	51380224	51	4924
2026-01-04 01:46:11.40	334.00	16.08	-39.9	-42.6	15.1	0.00e+00	0	56	0	53477376	51	4895
2026-01-04 01:46:12.41	333.79	16.12	-39.9	-42.6	15.1	0.00e+00	0	55	0	54525952	51	4888
2026-01-04 01:46:13.42	333.58	16.16	-39.7	-42.2	15.5	0.00e+00	0	56	0	56623104	51	4700
2026-01-04 01:46:14.43	333.37	16.20	-39.6	-42.0	15.7	0.00e+00	0	56	0	58720256	51	4587
2026-01-04 01:46:15.44	333.16	16.24	-39.6	-42.0	15.8	0.00e+00	0	56	0	60817408	51	4589
2026-01-04 01:46:16.45	332.95	16.28	-39.6	-42.1	15.6	0.00e+00	0	56	0	62914560	51	4633
2026-01-04 01:46:17.46	332.74	16.31	-39.5	-41.9	15.9	0.00e+00	0	56	0	63963136	51	4522
2026-01-04 01:46:18.46	332.53	16.35	-39.6	-42.0	15.8	0.00e+00	0	56	0	66060288	51	4598
2026-01-04 01:46:19.48	332.32	16.39	-39.6	-42.0	15.8	0.00e+00	0	55	0	68157440	51	4577
2026-01-04 01:46:20.48	332.11	16.42	-39.6	-42.0	15.8	0.00e+00	0	56	0	70254592	51	4598
2026-01-04 01:46:21.49	331.89	16.46	-39.5	-41.9	15.9	0.00e+00	0	56	0	72351744	51	4543
2026-01-04 01:46:22.50	331.68	16.49	-39.5	-41.9	16.0	0.00e+00	0	55	0	73400320	50	4776
2026-01-04 01:46:23.51	331.47	16.53	-39.4	-41.8	16.0	0.00e+00	0	56	0	75497472	50	4747
2026-01-04 01:46:24.52	331.25	16.56	-39.4	-41.7	16.1	0.00e+00	0	56	0	77594624	50	4705
2026-01-04 01:46:25.53	331.04	16.60	-39.4	-41.8	16.1	0.00e+00	0	55	0	79691776	50	4727
2026-01-04 01:46:26.54	330.82	16.63	-39.4	-41.8	16.1	0.00e+00	0	56	0	81788928	50	4710
2026-01-04 01:46:27.55	330.61	16.67	-39.5	-41.8	16.1	0.00e+00	0	56	0	82837504	50	4738
2026-01-04 01:46:28.56	330.39	16.70	-39.4	-41.7	16.2	0.00e+00	0	56	0	84934656	50	4698
2026-01-04 01:46:29.57	330.17	16.73	-39.4	-41.8	16.1	0.00e+00	0	56	0	87031808	50	4719
2026-01-04 01:46:30.58	329.96	16.77	-39.4	-41.8	16.1	0.00e+00	0	56	0	89128960	50	4724
2026-01-04 01:46:31.59	329.74	16.80	-39.4	-41.8	16.2	0.00e+00	0	56	0	91226112	50	4709
2026-01-04 01:46:32.60	329.52	16.83	-39.4	-41.7	16.2	0.00e+00	0	56	0	92274688	50	4695
2026-01-04 01:46:33.61	329.30	16.86	-39.4	-41.7	16.2	0.00e+00	0	56	0	94371840	50	4696
2026-01-04 01:46:34.62	329.08	16.89	-39.4	-41.7	16.2	0.00e+00	0	56	0	96468992	50	4698
2026-01-04 01:46:35.63	328.86	16.92	-39.4	-41.8	16.1	0.00e+00	0	55	0	98566144	50	4712
2026-01-04 01:46:36.64	328.64	16.95	-39.4	-41.7	16.2	0.00e+00	0	56	0	100663296	50	4666
2026-01-04 01:46:37.65	328.42	16.98	-39.4	-41.8	16.1	0.00e+00	0	56	0	101711872	50	4731
2026-01-04 01:46:38.66	328.20	17.01	-39.5	-41.8	16.1	0.00e+00	0	56	0	103809024	50	4755
2026-01-04 01:46:39.67	327.98	17.04	-39.6	-42.0	16.0	0.00e+00	0	56	0	105906176	50	4840
2026-01-04 01:46:40.68	327.76	17.07	-39.6	-42.0	15.9	0.00e+00	0	55	0	108003328	50	4863
2026-01-04 01:46:41.69	327.54	17.10	-39.7	-42.1	15.8	0.00e+00	0	56	0	110100480	50	4920
2026-01-04 01:46:42.70	327.31	17.13	-39.7	-42.2	15.8	0.00e+00	0	56	0	112197632	50	4956
2026-01-04 01:46:43.71	327.09	17.15	-39.7	-42.2	15.8	0.00e+00	0	56	0	113246208	50	4951
2026-01-04 01:46:44.72	326.87	17.18	-39.8	-42.2	15.7	0.00e+00	0	56	0	115343360	50	4974
2026-01-04 01:46:45.73	326.64	17.21	-39.7	-42.1	15.9	0.00e+00	0	56	0	117440512	50	4884
2026-01-04 01:46:46.73	326.42	17.23	-39.6	-42.0	16.0	0.00e+00	0	56	0	119537664	50	4836
2026-01-04 01:46:47.74	326.19	17.26	-39.6	-41.9	16.0	0.00e+00	0	56	0	120586240	50	4812
2026-01-04 01:46:48.75	325.97	17.29	-39.6	-42.0	16.0	0.00e+00	0	56	0	122683392	50	4825
2026-01-04 01:46:49.76	325.74	17.31	-39.6	-42.0	16.0	0.00e+00	0	56	0	124780544	50	4851
2026-01-04 01:46:50.77	325.52	17.34	-39.7	-42.1	15.9	0.00e+00	0	56	0	126877696	50	4914
2026-01-04 01:46:51.78	325.29	17.36	-39.6	-42.1	15.9	0.00e+00	0	56	0	128974848	50	4871
2026-01-04 01:46:52.79	325.06	17.38	-39.7	-42.1	15.8	0.00e+00	0	56	0	130023424	50	4914
2026-01-04 01:46:53.80	324.84	17.41	-39.6	-42.1	15.9	0.00e+00	0	56	0	132120576	50	4885
2026-01-04 01:46:54.81	324.61	17.43	-39.7	-42.1	15.9	0.00e+00	0	56	0	134217728	50	4912
2026-01-04 01:46:55.82	324.38	17.45	-39.7	-42.2	15.8	0.00e+00	0	56	0	136314880	50	4934
2026-01-04 01:46:56.83	324.15	17.47	-39.7	-42.2	15.8	0.00e+00	0	56	0	138412032	50	4943
2026-01-04 01:46:57.84	323.93	17.49	-39.7	-42.2	15.8	0.00e+00	0	56	0	140509184	50	4956
2026-01-04 01:46:58.84	323.70	17.52	-39.9	-42.4	15.6	0.00e+00	0	56	0	141557760	50	5050
2026-01-04 01:46:59.85	323.47	17.54	-40.0	-42.5	15.5	0.00e+00	0	56	0	143654912	50	5152
2026-01-04 01:47:00.86	323.24	17.56	-40.0	-42.6	15.4	0.00e+00	0	56	0	145752064	50	5211
2026-01-04 01:47:01.87	323.01	17.58	-40.2	-42.9	15.1	0.00e+00	0	56	0	147849216	50	5369
2026-01-04 01:47:02.88	322.78	17.60	-40.3	-43.1	14.9	0.00e+00	0	56	0	149946368	51	5167
2026-01-04 01:47:03.89	322.55	17.61	-40.3	-43.1	14.9	0.00e+00	0	56	0	150994944	51	5169
2026-01-04 01:47:04.90	322.32	17.63	-40.2	-42.9	15.1	0.00e+00	0	56	0	153092096	51	5058
2026-01-04 01:47:05.91	322.09	17.65	-40.1	-42.8	15.2	0.00e+00	0	56	0	155189248	51	5020
2026-01-04 01:47:06.92	321.86	17.67	-40.2	-42.9	15.1	0.00e+00	0	56	0	157286400	51	5042
2026-01-04 01:47:07.93	321.63	17.68	-40.2	-42.9	15.1	7.00e-07	0	56	0	159383552	51	5046
2026-01-04 01:47:08.94	321.40	17.70	-40.1	-42.7	15.3	0.00e+00	0	56	0	160432128	51	4961
2026-01-04 01:47:09.95	321.16	17.72	-40.0	-42.6	15.4	0.00e+00	0	56	0	162529280	51	4917
2026-01-04 01:47:10.96	320.93	17.73	-40.1	-42.8	15.2	0.00e+00	0	56	0	164626432	51	5010
2026-01-04 01:47:11.97	320.70	17.75	-40.1	-42.8	15.2	0.00e+00	0	56	0	166723584	51	5013
2026-01-04 01:47:12.98	320.47	17.76	-40.1	-42.8	15.2	0.00e+00	0	56	0	168820736	51	4991
2026-01-04 01:47:13.99	320.23	17.78	-40.2	-42.9	15.1	0.00e+00	0	56	0	169869312	51	5048
2026-01-04 01:47:15.00	320.00	17.79	-40.3	-43.1	14.9	0.00e+00	0	56	0	171966464	51	5171
2026-01-04 01:47:16.01	319.77	17.80	-40.3	-43.1	15.0	7.00e-07	0	56	0	174063616	51	5166
2026-01-04 01:47:17.01	319.54	17.82	-40.4	-43.2	14.8	0.00e+00	0	56	0	176160768	51	5264
2026-01-04 01:47:18.02	319.30	17.83	-40.4	-43.2	14.8	0.00e+00	0	56	0	178257920	51	5278
2026-01-04 01:47:19.03	319.07	17.84	-40.5	-43.3	14.7	7.00e-07	0	56	0	179306496	51	5301
2026-01-04 01:47:20.04	318.83	17.85	-40.6	-43.5	14.5	0.00e+00	0	56	0	181403648	51	5404
2026-01-04 01:47:21.05	318.60	17.86	-40.6	-43.6	14.4	7.00e-07	0	56	0	183500800	51	5507
2026-01-04 01:47:22.06	318.37	17.87	-40.7	-43.6	14.4	0.00e+00	0	56	0	185597952	51	5496
2026-01-04 01:47:23.07	318.13	17.88	-40.6	-43.5	14.5	7.00e-07	0	56	0	187695104	51	5419
2026-01-04 01:47:24.08	317.90	17.89	-40.6	-43.5	14.5	0.00e+00	0	56	0	188743680	51	5432
2026-01-04 01:47:25.09	317.66	17.90	-40.6	-43.5	14.5	0.00e+00	0	56	0	190840832	51	5410
2026-01-04 01:47:26.10	317.43	17.91	-40.6	-43.4	14.6	0.00e+00	0	56	0	192937984	51	5393
2026-01-04 01:47:27.11	317.19	17.91	-40.5	-43.4	14.6	0.00e+00	0	56	0	195035136	51	5363
2026-01-04 01:47:28.12	316.96	17.92	-40.5	-43.3	14.7	0.00e+00	0	56	0	197132288	51	5305
2026-01-04 01:47:29.13	316.72	17.93	-40.5	-43.4	14.7	7.00e-07	0	56	0	198180864	51	5355
2026-01-04 01:47:30.14	316.49	17.93	-40.5	-43.3	14.7	7.00e-07	0	56	0	200278016	51	5304
2026-01-04 01:47:31.15	316.25	17.94	-40.4	-43.2	14.8	0.00e+00	0	56	0	202375168	51	5244
2026-01-04 01:47:32.16	316.01	17.95	-40.4	-43.1	14.9	0.00e+00	0	56	0	204472320	51	5210
2026-01-04 01:47:33.17	315.78	17.95	-40.4	-43.2	14.8	7.00e-07	0	56	0	206569472	51	5239
2026-01-04 01:47:34.18	315.54	17.95	-40.4	-43.2	14.8	0.00e+00	0	56	0	208666624	51	5263
2026-01-04 01:47:35.19	315.31	17.96	-40.4	-43.2	14.8	0.00e+00	0	56	0	209715200	51	5272
2026-01-04 01:47:36.20	315.07	17.96	-40.4	-43.3	14.8	0.00e+00	0	56	0	211812352	51	5290
2026-01-04 01:47:37.21	314.84	17.96	-40.5	-43.3	14.7	7.00e-07	0	56	0	213909504	51	5314
2026-01-04 01:47:38.22	314.60	17.97	-40.5	-43.3	14.8	0.00e+00	0	56	0	216006656	51	5297
2026-01-04 01:47:39.23	314.36	17.97	-40.5	-43.4	14.7	0.00e+00	0	56	0	218103808	51	5341
2026-01-04 01:47:40.24	314.13	17.97	-40.5	-43.4	14.7	0.00e+00	0	56	0	219152384	51	5341
2026-01-04 01:47:41.25	313.89	17.97	-40.5	-43.3	14.8	1.50e-06	0	56	0	221249536	51	5300
2026-01-04 01:47:42.26	313.65	17.97	-40.5	-43.3	14.7	0.00e+00	0	56	0	223346688	51	5313
2026-01-04 01:47:43.27	313.42	17.97	-40.5	-43.3	14.7	7.00e-07	0	56	0	225443840	51	5312
2026-01-04 01:47:44.28	313.18	17.97	-40.5	-43.4	14.6	0.00e+00	0	56	0	227540992	51	5365
2026-01-04 01:47:45.29	312.95	17.97	-40.4	-43.2	14.8	0.00e+00	0	56	0	228589568	51	5273
2026-01-04 01:47:46.30	312.71	17.97	-40.5	-43.3	14.7	7.00e-07	0	56	0	230686720	51	5324
2026-01-04 01:47:47.30	312.48	17.96	-40.6	-43.4	14.5	0.00e+00	0	56	0	232783872	51	5398
2026-01-04 01:47:48.31	312.24	17.96	-40.7	-43.7	14.4	0.00e+00	0	56	0	234881024	51	5531
2026-01-04 01:47:49.32	312.00	17.96	-40.6	-43.6	14.3	0.00e+00	0	56	0	236978176	52	5200
2026-01-04 01:47:50.33	311.77	17.96	-40.6	-43.5	14.4	0.00e+00	0	56	0	238026752	52	5137
2026-01-04 01:47:51.34	311.53	17.95	-40.5	-43.4	14.5	0.00e+00	0	56	0	240123904	52	5070
2026-01-04 01:47:52.35	311.30	17.95	-40.4	-43.2	14.7	0.00e+00	0	56	0	242221056	52	4957
2026-01-04 01:47:53.36	311.06	17.94	-40.4	-43.2	14.8	1.50e-06	0	56	0	244318208	52	4936
2026-01-04 01:47:54.37	310.83	17.94	-40.3	-43.1	14.8	7.00e-07	0	56	0	246415360	52	4914
2026-01-04 01:47:55.38	310.59	17.93	-40.3	-43.1	14.8	7.00e-07	0	56	0	247463936	52	4921
2026-01-04 01:47:56.39	310.35	17.92	-40.3	-43.0	14.9	0.00e+00	0	56	0	249561088	52	4869
2026-01-04 01:47:57.40	310.12	17.91	-40.2	-43.0	15.0	0.00e+00	0	56	0	251658240	52	4833
2026-01-04 01:47:58.41	309.88	17.91	-40.1	-42.8	15.1	0.00e+00	0	56	0	253755392	52	4733
2026-01-04 01:47:59.42	309.65	17.90	-40.1	-42.8	15.2	0.00e+00	0	56	0	255852544	52	4707
2026-01-04 01:48:00.43	309.41	17.89	-40.1	-42.7	15.2	0.00e+00	0	56	0	256901120	52	4700
2026-01-04 01:48:01.44	309.18	17.88	-40.2	-42.9	15.1	0.00e+00	0	56	0	258998272	52	4764
2026-01-04 01:48:02.45	308.94	17.87	-40.2	-42.9	15.1	0.00e+00	0	56	0	261095424	52	4778
2026-01-04 01:48:03.46	308.71	17.86	-40.2	-42.9	15.1	7.00e-07	0	56	0	263192576	52	4762
2026-01-04 01:48:04.47	308.48	17.85	-40.2	-42.9	15.1	0.00e+00	0	56	0	265289728	52	4762
2026-01-04 01:48:05.48	308.24	17.84	-40.2	-42.8	15.1	0.00e+00	0	56	0	266338304	52	4756
2026-01-04 01:48:06.49	308.01	17.83	-40.1	-42.8	15.1	0.00e+00	0	56	0	268435456	52	4733
2026-01-04 01:48:07.50	307.77	17.82	-40.1	-42.8	15.2	0.00e+00	0	56	0	270532608	52	4726
2026-01-04 01:48:08.51	307.54	17.80	-40.1	-42.8	15.2	0.00e+00	0	56	0	272629760	52	4726
2026-01-04 01:48:09.52	307.31	17.79	-40.1	-42.7	15.2	0.00e+00	0	56	0	274726912	52	4686
2026-01-04 01:48:10.53	307.07	17.78	-40.0	-42.6	15.3	0.00e+00	0	56	0	276824064	52	4649
2026-01-04 01:48:11.54	306.84	17.76	-40.0	-42.6	15.5	0.00e+00	0	56	0	277872640	51	4879
2026-01-04 01:48:12.55	306.61	17.75	-39.9	-42.5	15.5	0.00e+00	0	56	0	279969792	51	4838
2026-01-04 01:48:13.56	306.37	17.73	-39.9	-42.4	15.6	0.00e+00	0	56	0	282066944	51	4782
2026-01-04 01:48:14.57	306.14	17.72	-39.8	-42.3	15.7	0.00e+00	0	56	0	284164096	51	4741
2026-01-04 01:48:15.58	305.91	17.70	-39.8	-42.3	15.8	0.00e+00	0	56	0	286261248	51	4714
2026-01-04 01:48:16.59	305.68	17.69	-39.8	-42.2	15.8	0.00e+00	0	56	0	287309824	51	4692
2026-01-04 01:48:17.60	305.45	17.67	-39.7	-42.2	15.8	0.00e+00	0	56	0	289406976	51	4676
2026-01-04 01:48:18.61	305.21	17.65	-39.7	-42.2	15.8	0.00e+00	0	56	0	291504128	51	4665
2026-01-04 01:48:19.62	304.98	17.63	-39.7	-42.1	15.9	0.00e+00	0	56	0	293601280	51	4638
2026-01-04 01:48:20.63	304.75	17.61	-39.7	-42.1	15.9	0.00e+00	0	56	0	295698432	51	4624
2026-01-04 01:48:21.64	304.52	17.60	-39.7	-42.2	15.8	0.00e+00	0	56	0	296747008	51	4673
2026-01-04 01:48:22.65	304.29	17.58	-39.7	-42.1	15.9	0.00e+00	0	56	0	298844160	51	4626
2026-01-04 01:48:23.66	304.06	17.56	-39.7	-42.1	15.9	0.00e+00	0	56	0	300941312	51	4624
2026-01-04 01:48:24.67	303.83	17.54	-39.7	-42.1	15.9	0.00e+00	0	56	0	303038464	51	4622
2026-01-04 01:48:25.68	303.60	17.52	-39.6	-42.0	15.9	0.00e+00	0	56	0	305135616	51	4594
2026-01-04 01:48:26.68	303.38	17.50	-39.6	-42.0	16.0	0.00e+00	0	56	0	306184192	51	4579
2026-01-04 01:48:27.69	303.15	17.47	-39.6	-41.9	16.0	0.00e+00	0	56	0	308281344	51	4540
2026-01-04 01:48:28.70	302.92	17.45	-39.6	-41.9	16.0	0.00e+00	0	56	0	310378496	51	4537
2026-01-04 01:48:29.71	302.69	17.43	-39.5	-41.8	16.2	0.00e+00	0	56	0	312475648	50	4755
2026-01-04 01:48:30.72	302.46	17.41	-39.5	-41.9	16.1	0.00e+00	0	56	0	314572800	50	4788
2026-01-04 01:48:31.73	302.23	17.38	-39.5	-41.9	16.1	0.00e+00	0	56	0	315621376	50	4773
2026-01-04 01:48:32.74	302.01	17.36	-39.5	-41.9	16.1	0.00e+00	0	56	0	317718528	50	4765
2026-01-04 01:48:33.75	301.78	17.34	-39.6	-42.0	16.0	0.00e+00	0	56	0	319815680	50	4815
2026-01-04 01:48:34.76	301.55	17.31	-39.6	-42.0	16.0	0.00e+00	0	56	0	321912832	50	4859
2026-01-04 01:48:35.77	301.33	17.29	-39.7	-42.1	15.9	0.00e+00	0	56	0	324009984	50	4900
2026-01-04 01:48:36.78	301.10	17.26	-39.6	-42.0	15.9	0.00e+00	0	56	0	325058560	50	4868
2026-01-04 01:48:37.79	300.88	17.23	-39.6	-42.1	15.9	0.00e+00	0	56	0	327155712	50	4885
2026-01-04 01:48:38.80	300.65	17.21	-39.7	-42.1	15.9	0.00e+00	0	56	0	329252864	50	4915
2026-01-04 01:48:39.81	300.43	17.18	-39.7	-42.2	15.8	0.00e+00	0	56	0	331350016	50	4944
2026-01-04 01:48:40.81	300.21	17.16	-39.7	-42.2	15.8	0.00e+00	0	56	0	333447168	50	4949
2026-01-04 01:48:41.82	299.98	17.13	-39.8	-42.3	15.7	0.00e+00	0	56	0	334495744	50	5020
2026-01-04 01:48:42.83	299.76	17.10	-39.9	-42.5	15.5	0.00e+00	0	56	0	336592896	50	5125
2026-01-04 01:48:43.84	299.54	17.07	-40.0	-42.5	15.4	0.00e+00	0	56	0	338690048	50	5143
2026-01-04 01:48:44.85	299.31	17.04	-40.0	-42.5	15.4	0.00e+00	0	56	0	340787200	50	5157
2026-01-04 01:48:45.86	299.09	17.01	-39.9	-42.5	15.4	0.00e+00	0	56	0	342884352	50	5144
2026-01-04 01:48:46.87	298.87	16.98	-40.0	-42.5	15.4	0.00e+00	0	56	0	344981504	50	5158
2026-01-04 01:48:47.88	298.65	16.95	-39.9	-42.5	15.5	0.00e+00	0	56	0	346030080	50	5101
2026-01-04 01:48:48.89	298.43	16.92	-39.9	-42.5	15.4	0.00e+00	0	56	0	348127232	50	5139
2026-01-04 01:48:49.90	298.21	16.89	-39.8	-42.3	15.6	0.00e+00	0	56	0	350224384	50	5041
2026-01-04 01:48:50.91	297.99	16.86	-39.9	-42.4	15.6	0.00e+00	0	56	0	352321536	50	5064
2026-01-04 01:48:51.92	297.77	16.83	-39.9	-42.4	15.5	0.00e+00	0	56	0	354418688	50	5095
2026-01-04 01:48:52.93	297.55	16.80	-40.0	-42.6	15.3	0.00e+00	0	56	0	355467264	50	5170
2026-01-04 01:48:53.94	297.33	16.77	-40.0	-42.7	15.2	0.00e+00	0	56	0	357564416	50	5234
2026-01-04 01:48:54.95	297.12	16.73	-40.1	-42.7	15.2	0.00e+00	0	56	0	359661568	50	5252
2026-01-04 01:48:55.96	296.90	16.70	-40.2	-42.9	15.0	0.00e+00	0	56	0	361758720	50	5365
2026-01-04 01:48:56.97	296.68	16.67	-40.2	-42.9	15.0	0.00e+00	0	56	0	363855872	50	5386
2026-01-04 01:48:57.98	296.46	16.63	-40.2	-42.9	15.0	0.00e+00	0	56	0	364904448	51	5077
2026-01-04 01:48:58.98	296.25	16.60	-40.3	-43.0	14.9	0.00e+00	0	56	0	367001600	51	5158
2026-01-04 01:48:59.99	296.04	16.56	-40.3	-43.1	14.9	0.00e+00	0	56	0	369098752	51	5162
2026-01-04 01:49:01.00	295.82	16.53	-40.3	-43.0	14.9	7.00e-07	0	56	0	371195904	51	5155
2026-01-04 01:49:02.01	295.61	16.49	-40.3	-43.1	14.8	0.00e+00	0	56	0	373293056	51	5177
2026-01-04 01:49:03.02	295.39	16.46	-40.3	-43.1	14.8	0.00e+00	0	56	0	374341632	51	5171
2026-01-04 01:49:04.03	295.18	16.42	-40.2	-43.0	14.8	0.00e+00	0	56	0	376438784	51	5141
2026-01-04 01:49:05.04	294.97	16.39	-40.2	-42.9	14.9	0.00e+00	0	56	0	378535936	51	5098
2026-01-04 01:49:06.05	294.75	16.35	-40.2	-42.9	14.9	0.00e+00	0	56	0	380633088	51	5084
2026-01-04 01:49:07.06	294.54	16.31	-40.1	-42.9	15.0	0.00e+00	0	56	0	382730240	51	5043
2026-01-04 01:49:08.07	294.33	16.28	-40.0	-42.6	15.2	0.00e+00	0	56	0	383778816	51	4926
2026-01-04 01:49:09.08	294.12	16.24	-40.0	-42.6	15.3	0.00e+00	0	56	0	385875968	51	4892
2026-01-04 01:49:10.09	293.91	16.20	-40.0	-42.6	15.3	7.00e-07	0	56	0	387973120	51	4887
2026-01-04 01:49:11.10	293.70	16.16	-39.9	-42.6	15.3	0.00e+00	0	56	0	390070272	51	4881
2026-01-04 01:49:12.11	293.49	16.12	-39.9	-42.5	15.3	0.00e+00	0	56	0	392167424	51	4870
2026-01-04 01:49:13.12	293.28	16.08	-40.0	-42.6	15.2	0.00e+00	0	56	0	393216000	51	4910
2026-01-04 01:49:14.13	293.07	16.04	-40.1	-42.8	15.1	0.00e+00	0	56	0	395313152	51	4988
2026-01-04 01:49:15.14	292.87	16.00	-40.0	-42.7	15.1	0.00e+00	0	56	0	397410304	51	4977
2026-01-04 01:49:16.15	292.66	15.96	-40.1	-42.8	15.0	0.00e+00	0	56	0	399507456	51	5019
2026-01-04 01:49:17.16	292.45	15.92	-40.2	-42.9	14.9	0.00e+00	0	56	0	401604608	51	5080
2026-01-04 01:49:18.17	292.25	15.88	-40.1	-42.9	14.9	7.00e-07	0	56	0	402653184	51	5060
2026-01-04 01:49:19.18	292.04	15.84	-40.1	-42.8	15.0	0.00e+00	0	56	0	404750336	51	5015
2026-01-04 01:49:20.19	291.84	15.80	-40.0	-42.7	15.1	0.00e+00	0	56	0	406847488	51	4962
2026-01-04 01:49:21.20	291.63	15.76	-40.0	-42.7	15.2	0.00e+00	0	56	0	408944640	51	4934
2026-01-04 01:49:22.21	291.43	15.72	-40.0	-42.6	15.2	0.00e+00	0	56	0	411041792	51	4907
2026-01-04 01:49:23.22	291.23	15.68	-39.9	-42.5	15.3	0.00e+00	0	56	0	413138944	51	4867
2026-01-04 01:49:24.22	291.02	15.63	-39.9	-42.6	15.2	0.00e+00	0	56	0	414187520	51	4894
2026-01-04 01:49:25.23	290.82	15.59	-40.0	-42.7	15.1	0.00e+00	0	56	0	416284672	51	4951
2026-01-04 01:49:26.24	290.62	15.55	-40.1	-42.8	14.9	0.00e+00	0	56	0	418381824	51	5039
2026-01-04 01:49:27.25	290.42	15.51	-40.1	-42.9	14.9	0.00e+00	0	56	0	420478976	51	5057
2026-01-04 01:49:28.26	290.22	15.46	-40.1	-42.9	14.9	0.00e+00	0	56	0	422576128	51	5065
2026-01-04 01:49:29.27	290.02	15.42	-40.1	-42.8	14.9	0.00e+00	0	56	0	423624704	51	5021
2026-01-04 01:49:30.28	289.82	15.37	-40.1	-42.9	14.9	0.00e+00	0	56	0	425721856	51	5046
2026-01-04 01:49:31.29	289.62	15.33	-40.1	-42.9	14.9	7.00e-07	0	56	0	427819008	51	5045
2026-01-04 01:49:32.30	289.43	15.29	-40.1	-42.9	14.8	0.00e+00	0	56	0	429916160	51	5068
2026-01-04 01:49:33.31	289.23	15.24	-40.1	-42.9	14.8	0.00e+00	0	56	0	432013312	51	5092
2026-01-04 01:49:34.32	289.03	15.20	-40.1	-42.9	14.9	0.00e+00	0	56	0	433061888	51	5059
2026-01-04 01:49:35.33	288.84	15.15	-40.0	-42.7	15.0	0.00e+00	0	56	0	435159040	51	4980
2026-01-04 01:49:36.34	288.64	15.10	-40.1	-42.8	14.9	0.00e+00	0	56	0	437256192	51	5028
2026-01-04 01:49:37.34	288.45	15.06	-40.1	-42.9	14.8	7.00e-07	0	56	0	439353344	51	5066
2026-01-04 01:49:38.35	288.25	15.01	-40.1	-42.9	14.7	0.00e+00	0	56	0	441450496	51	5092
2026-01-04 01:49:39.36	288.06	14.97	-40.2	-43.1	14.6	0.00e+00	0	56	0	442499072	51	5203
2026-01-04 01:49:40.37	287.87	14.92	-40.3	-43.2	14.5	0.00e+00	0	56	0	444596224	51	5248
2026-01-04 01:49:41.38	287.67	14.87	-40.3	-43.3	14.4	7.00e-07	0	56	0	446693376	51	5286
2026-01-04 01:49:42.39	287.48	14.83	-40.4	-43.4	14.2	0.00e+00	0	56	0	448790528	51	5370
2026-01-04 01:49:43.40	287.29	14.78	-40.4	-43.5	14.2	7.00e-07	0	56	0	450887680	51	5423
2026-01-04 01:49:44.41	287.10	14.73	-40.4	-43.4	14.3	3.00e-06	0	56	0	451936256	51	5346
2026-01-04 01:49:45.42	286.91	14.68	-40.3	-43.3	14.3	1.50e-06	0	56	0	454033408	51	5297
2026-01-04 01:49:46.43	286.72	14.64	-40.3	-43.3	14.2	7.00e-07	0	56	0	456130560	51	5340
2026-01-04 01:49:47.44	286.53	14.59	-40.4	-43.4	14.2	1.50e-06	0	56	0	458227712	51	5341
2026-01-04 01:49:48.45	286.34	14.54	-40.3	-43.3	14.3	0.00e+00	0	56	0	460324864	51	5331
2026-01-04 01:49:49.46	286.16	14.49	-40.3	-43.3	14.3	2.20e-06	0	56	0	461373440	51	5328
2026-01-04 01:49:50.47	285.97	14.44	-40.3	-43.3	14.3	1.50e-06	0	56	0	463470592	51	5335
2026-01-04 01:49:51.48	285.78	14.39	-40.3	-43.3	14.3	0.00e+00	0	56	0	465567744	51	5339
2026-01-04 01:49:52.49	285.60	14.34	-40.3	-43.4	14.3	7.00e-07	0	56	0	467664896	51	5348
2026-01-04 01:49:53.50	285.41	14.30	-40.4	-43.4	14.2	3.80e-06	0	56	0	469762048	51	5374
2026-01-04 01:49:54.51	285.23	14.25	-40.5	-43.6	14.0	7.00e-07	0	56	0	470810624	51	5469
2026-01-04 01:49:55.52	285.04	14.20	-40.4	-43.5	14.0	7.00e-07	0	56	0	472907776	51	5460
2026-01-04 01:49:56.53	284.86	14.15	-40.5	-43.7	13.9	3.00e-06	0	56	0	475004928	51	5557
2026-01-04 01:49:57.54	284.68	14.10	-40.6	-43.9	13.7	5.30e-06	0	56	0	477102080	51	5677
2026-01-04 01:49:58.55	284.50	14.05	-40.6	-43.9	13.7	7.60e-06	0	56	0	479199232	51	5669
2026-01-04 01:49:59.56	284.32	14.00	-40.6	-43.8	13.7	6.10e-06	0	56	0	481296384	51	5648
2026-01-04 01:50:00.57	284.14	13.94	-40.7	-43.9	13.7	8.30e-06	0	56	0	482344960	51	5713
2026-01-04 01:50:01.58	283.96	13.89	-40.7	-43.9	13.7	1.06e-05	0	56	0	484442112	51	5714
2026-01-04 01:50:02.58	283.78	13.84	-40.6	-43.9	13.7	8.30e-06	0	56	0	486539264	51	5682
2026-01-04 01:50:03.59	283.60	13.79	-40.7	-44.0	13.6	7.60e-06	0	56	0	488636416	51	5724
2026-01-04 01:50:04.60	283.42	13.74	-40.7	-44.0	13.6	9.90e-06	0	56	0	490733568	51	5744
2026-01-04 01:50:05.61	283.24	13.69	-40.6	-44.0	13.5	1.14e-05	0	56	0	491782144	52	5407
2026-01-04 01:50:06.63	283.06	13.64	-40.7	-44.1	13.4	1.90e-05	0	57	0	493879296	52	5506
2026-01-04 01:50:07.63	282.89	13.59	-40.9	-44.3	13.2	1.67e-05	0	56	0	495976448	52	5635
2026-01-04 01:50:08.64	282.71	13.53	-40.9	-44.5	13.0	4.27e-05	0	56	0	498073600	52	5758
2026-01-04 01:50:09.65	282.54	13.48	-41.0	-44.7	12.8	6.56e-05	0	56	0	500170752	52	5874
2026-01-04 01:50:10.66	282.36	13.43	-41.1	-44.8	12.7	6.86e-05	0	56	0	501219328	52	5951
2026-01-04 01:50:11.67	282.19	13.38	-41.2	-44.8	12.6	9.61e-05	0	56	0	503316480	52	5991
2026-01-04 01:50:12.68	282.02	13.32	-41.1	-44.7	12.8	7.17e-05	0	56	0	505413632	52	5898
2026-01-04 01:50:13.69	281.84	13.27	-41.0	-44.6	12.9	4.19e-05	0	56	0	507510784	52	5831
2026-01-04 01:50:14.70	281.67	13.22	-40.9	-44.3	13.2	3.05e-05	0	56	0	509607936	52	5650
2026-01-04 01:50:15.71	281.50	13.17	-40.8	-44.1	13.4	1.98e-05	0	56	0	510656512	52	5505
2026-01-04 01:50:16.72	281.33	13.11	-40.8	-44.1	13.4	1.22e-05	0	56	0	512753664	52	5497
2026-01-04 01:50:17.72	281.16	13.06	-40.8	-44.2	13.3	1.52e-05	0	56	0	514850816	52	5539
2026-01-04 01:50:18.74	280.99	13.01	-40.9	-44.3	13.2	2.36e-05	0	56	0	516947968	52	5647
2026-01-04 01:50:19.74	280.82	12.95	-41.0	-44.6	12.8	2.97e-05	0	56	0	519045120	52	5832
2026-01-04 01:50:20.75	280.66	12.90	-41.2	-45.0	12.5	9.15e-05	0	56	0	520093696	52	6087
2026-01-04 01:50:21.76	280.49	12.85	-41.2	-45.1	12.3	1.46e-04	0	56	0	522190848	53	5822
2026-01-04 01:50:22.77	280.32	12.79	-41.3	-45.2	12.2	1.49e-04	0	56	0	524288000	53	5897
2026-01-04 01:50:23.78	280.15	12.74	-41.3	-45.3	12.1	2.46e-04	0	56	0	526385152	53	5947
2026-01-04 01:50:24.79	279.99	12.68	-41.4	-45.4	12.0	3.06e-04	0	56	0	528482304	53	6002
2026-01-04 01:50:25.80	279.82	12.63	-41.4	-45.3	12.0	3.08e-04	0	56	0	529530880	53	5985
2026-01-04 01:50:26.81	279.66	12.57	-41.3	-45.3	12.1	3.26e-04	0	56	0	531628032	53	5955
2026-01-04 01:50:27.82	279.49	12.52	-41.3	-45.2	12.1	2.56e-04	0	56	0	533725184	53	5909
2026-01-04 01:50:28.83	279.33	12.47	-41.3	-45.2	12.1	2.57e-04	0	56	0	535822336	53	5881
2026-01-04 01:50:29.84	279.17	12.41	-41.2	-45.2	12.2	2.62e-04	0	56	0	537919488	53	5866
2026-01-04 01:50:30.85	279.01	12.36	-41.2	-45.2	12.1	2.81e-04	0	56	0	538968064	53	5868
2026-01-04 01:50:31.86	278.85	12.30	-41.2	-45.1	12.1	2.35e-04	0	56	0	541065216	53	5838
2026-01-04 01:50:32.86	278.69	12.25	-41.2	-45.1	12.2	2.19e-04	0	56	0	543162368	53	5819
2026-01-04 01:50:33.87	278.53	12.19	-41.2	-45.1	12.1	2.62e-04	0	56	0	545259520	53	5846
2026-01-04 01:50:34.88	278.37	12.14	-41.3	-45.3	12.0	2.94e-04	0	56	0	547356672	53	5955
2026-01-04 01:50:35.90	278.21	12.08	-41.2	-45.3	12.0	4.10e-04	0	56	0	549453824	53	5929
2026-01-04 01:50:36.91	278.05	12.02	-41.2	-45.3	11.9	3.59e-04	0	56	0	550502400	53	5985
2026-01-04 01:50:37.92	277.89	11.97	-41.2	-45.3	11.9	4.40e-04	0	56	0	552599552	53	5950
2026-01-04 01:50:38.92	277.73	11.91	-41.3	-45.4	11.7	4.80e-04	0	56	0	554696704	53	6040
2026-01-04 01:50:39.94	277.57	11.86	-41.2	-45.2	11.9	3.77e-04	0	56	0	556793856	53	5907
2026-01-04 01:50:40.94	277.42	11.80	-41.1	-45.1	12.1	2.79e-04	0	56	0	558891008	53	5794
2026-01-04 01:50:41.95	277.26	11.75	-41.0	-44.9	12.3	2.14e-04	0	56	0	559939584	53	5665
2026-01-04 01:50:42.96	277.11	11.69	-40.9	-44.6	12.5	1.51e-04	0	56	0	562036736	53	5526
2026-01-04 01:50:43.97	276.96	11.64	-40.9	-44.7	12.4	1.26e-04	0	56	0	564133888	53	5572
2026-01-04 01:50:44.98	276.80	11.58	-40.9	-44.7	12.4	1.35e-04	0	56	0	566231040	53	5589
2026-01-04 01:50:45.99	276.65	11.52	-40.9	-44.8	12.3	1.36e-04	0	56	0	567279616	53	5616
2026-01-04 01:50:47.00	276.50	11.47	-40.9	-44.8	12.3	1.81e-04	0	56	0	569376768	53	5654
2026-01-04 01:50:48.01	276.34	11.41	-40.9	-44.8	12.3	2.10e-04	0	56	0	571473920	53	5621
2026-01-04 01:50:49.02	276.19	11.35	-40.9	-44.8	12.2	2.36e-04	0	56	0	573571072	53	5652
2026-01-04 01:50:50.03	276.04	11.30	-40.8	-44.7	12.2	2.25e-04	0	56	0	575668224	53	5591
2026-01-04 01:50:51.04	275.89	11.24	-40.8	-44.8	12.2	2.53e-04	0	56	0	577765376	53	5620
2026-01-04 01:50:52.04	275.74	11.19	-40.8	-44.6	12.3	2.17e-04	0	56	0	578813952	53	5519
2026-01-04 01:50:53.05	275.59	11.13	-40.8	-44.7	12.3	1.69e-04	0	56	0	580911104	53	5555
2026-01-04 01:50:54.06	275.45	11.07	-40.7	-44.6	12.4	1.72e-04	0	56	0	583008256	53	5478
2026-01-04 01:50:55.07	275.30	11.02	-40.8	-44.7	12.2	1.80e-04	0	56	0	585105408	53	5573
2026-01-04 01:50:56.08	275.15	10.96	-40.7	-44.6	12.3	1.90e-04	0	56	0	587202560	53	5508
2026-01-04 01:50:57.09	275.00	10.90	-40.7	-44.6	12.3	1.78e-04	0	56	0	588251136	53	5479
2026-01-04 01:50:58.10	274.86	10.85	-40.7	-44.6	12.2	2.32e-04	0	56	0	590348288	53	5508
2026-01-04 01:50:59.11	274.71	10.79	-40.6	-44.5	12.2	2.06e-04	0	56	0	592445440	53	5421
2026-01-04 01:51:00.12	274.57	10.73	-40.6	-44.7	11.9	2.80e-04	0	56	0	594542592	53	5556
2026-01-04 01:51:01.13	274.42	10.67	-40.7	-44.8	11.8	4.33e-04	0	56	0	596639744	53	5627
2026-01-04 01:51:02.14	274.28	10.62	-40.7	-44.9	11.6	6.51e-04	0	56	0	597688320	53	5698
2026-01-04 01:51:03.15	274.14	10.56	-40.7	-45.1	11.3	1.09e-03	0	56	0	599785472	53	5822
2026-01-04 01:51:04.16	273.99	10.50	-40.8	-45.4	11.0	1.54e-03	0	56	0	601882624	53	6007
2026-01-04 01:51:05.16	273.85	10.45	-40.8	-45.6	10.6	2.53e-03	0	56	0	603979776	53	6186
2026-01-04 01:51:06.17	273.71	10.39	-40.9	-45.7	10.4	4.41e-03	0	56	0	606076928	53	6264
2026-01-04 01:51:07.19	273.57	10.33	-40.9	-46.0	10.1	5.27e-03	0	56	0	607125504	53	6426
2026-01-04 01:51:08.19	273.43	10.28	-40.9	-46.1	9.9	7.62e-03	0	56	0	609222656	53	6503
2026-01-04 01:51:09.21	273.29	10.22	-40.9	-46.0	9.9	8.06e-03	0	56	0	611319808	53	6494
2026-01-04 01:51:10.21	273.15	10.16	-40.9	-46.1	9.8	1.02e-02	0	56	0	613416960	53	6562
2026-01-04 01:51:11.22	273.01	10.10	-40.9	-46.2	9.6	1.10e-02	0	56	0	615514112	53	6641
2026-01-04 01:51:12.24	272.87	10.05	-40.9	-46.3	9.5	1.45e-02	0	56	0	616562688	53	6709
2026-01-04 01:51:13.25	272.73	9.99	-40.9	-46.5	9.2	1.74e-02	0	56	0	618659840	53	6819
2026-01-04 01:51:14.26	272.60	9.93	-40.9	-46.7	9.0	2.43e-02	0	56	0	620756992	53	6971
2026-01-04 01:51:15.27	272.46	9.87	-40.9	-46.7	8.9	2.81e-02	0	56	0	622854144	53	6974
2026-01-04 01:51:16.27	272.33	9.82	-40.9	-46.7	8.9	3.06e-02	0	56	0	624951296	53	7013
2026-01-04 01:51:17.28	272.19	9.76	-40.9	-46.6	9.0	2.45e-02	0	56	0	625999872	53	6957
2026-01-04 01:51:18.29	272.06	9.70	-41.0	-46.8	8.8	2.71e-02	0	57	0	628097024	53	7095
2026-01-04 01:51:19.30	271.92	9.64	-41.0	-46.9	8.7	3.26e-02	0	56	0	630194176	53	7164
2026-01-04 01:51:20.31	271.79	9.59	-41.1	-47.1	8.5	3.84e-02	0	56	0	632291328	53	7320
2026-01-04 01:51:21.32	271.65	9.53	-41.0	-46.9	8.7	3.97e-02	0	57	0	634388480	53	7139
2026-01-04 01:51:22.33	271.52	9.47	-40.9	-46.8	8.8	2.91e-02	0	57	0	635437056	53	7045
2026-01-04 01:51:23.35	271.39	9.41	-40.9	-46.7	8.8	2.87e-02	0	56	0	637534208	53	6980
2026-01-04 01:51:24.36	271.26	9.36	-40.8	-46.5	9.0	2.73e-02	0	56	0	639631360	53	6831
2026-01-04 01:51:25.36	271.13	9.30	-40.8	-46.5	8.9	2.64e-02	0	56	0	641728512	53	6854
2026-01-04 01:51:26.37	271.00	9.24	-40.7	-46.6	8.8	2.82e-02	0	56	0	643825664	53	6881
2026-01-04 01:51:27.38	270.86	9.18	-40.7	-46.7	8.7	3.17e-02	0	56	0	645922816	53	6972
2026-01-04 01:51:28.39	270.74	9.13	-40.7	-46.6	8.8	3.33e-02	0	56	0	646971392	53	6893
2026-01-04 01:51:29.40	270.61	9.07	-40.7	-46.6	8.7	3.32e-02	0	56	0	649068544	53	6929
2026-01-04 01:51:30.41	270.48	9.01	-40.7	-46.7	8.6	3.42e-02	0	56	0	651165696	53	6996
2026-01-04 01:51:31.42	270.35	8.95	-40.7	-46.8	8.5	3.77e-02	0	56	0	653262848	53	7057
2026-01-04 01:51:32.43	270.22	8.90	-40.8	-47.1	8.1	5.79e-02	0	56	0	655360000	53	7342
2026-01-04 01:51:33.44	270.09	8.84	-40.8	-47.3	7.9	6.78e-02	0	56	0	656408576	53	7502
2026-01-04 01:51:34.45	269.97	8.78	-40.8	-47.6	7.5	8.74e-02	0	56	0	658505728	53	7778
2026-01-04 01:51:35.46	269.84	8.72	-40.8	-47.9	7.2	1.30e-01	0	57	0	660602880	53	8042
2026-01-04 01:51:36.47	269.72	8.67	-40.8	-48.2	6.7	1.72e-01	0	56	0	662700032	53	8341
2026-01-04 01:51:37.48	269.59	8.61	-40.8	-48.6	6.4	2.21e-01	0	56	0	664797184	53	8723
2026-01-04 01:51:38.49	269.47	8.55	-40.8	-48.9	6.1	3.01e-01	0	57	0	665845760	53	9007
2026-01-04 01:51:39.51	269.34	8.49	-40.8	-49.3	5.7	3.73e-01	0	57	0	667942912	53	9404
2026-01-04 01:51:40.52	269.22	8.43	-40.8	-49.6	5.4	4.62e-01	0	57	0	670040064	53	9732
2026-01-04 01:51:41.53	269.09	8.38	-40.8	-50.1	5.1	6.15e-01	0	56	0	672137216	53	10306
2026-01-04 01:51:42.54	268.97	8.32	-40.7	-50.4	4.8	7.39e-01	0	56	0	674234368	53	10769
2026-01-04 01:51:43.55	268.85	8.26	-40.7	-50.7	4.7	8.37e-01	0	57	0	675282944	53	11060
2026-01-04 01:51:44.55	268.73	8.20	-40.7	-51.1	4.5	1.02e+00	20	56	0	677380096	53	11624
2026-01-04 01:51:45.57	268.61	8.15	-40.7	-51.3	4.4	1.23e+00	71	57	0	679477248	53	11859
2026-01-04 01:51:46.57	268.49	8.09	-40.6	-51.7	4.3	1.34e+00	0	57	0	679477248	53	12380
2026-01-04 01:51:47.58	268.37	8.03	-40.6	-52.0	4.1	1.38e+00	0	57	0	679477248	53	12827
2026-01-04 01:51:48.59	268.25	7.97	-42.5	-54.8	4.0	1.40e+00	0	56	0	680525824	55	15808
2026-01-04 01:51:49.60	268.13	7.92	-44.5	-59.1	3.8	1.49e+00	0	56	104	680525824	59	20587
2026-01-04 01:51:50.62	268.01	7.86	-44.7	-59.5	3.8	1.49e+00	0	57	104	680525824	60	20315
2026-01-04 01:51:51.63	267.89	7.80	-44.8	-59.6	3.8	1.49e+00	0	56	104	680525824	60	20568
2026-01-04 01:51:52.64	267.77	7.74	-44.9	-59.6	3.8	1.49e+00	0	57	104	680525824	60	20759
2026-01-04 01:51:53.65	267.66	7.69	-45.0	-59.7	3.8	1.49e+00	0	57	104	680525824	60	20945
2026-01-04 01:51:54.66	267.54	7.63	-45.0	-59.8	3.8	1.49e+00	0	57	104	680525824	60	21098
2026-01-04 01:51:55.67	267.42	7.57	-45.1	-59.8	3.8	1.49e+00	0	57	104	680525824	60	21157
2026-01-04 01:51:56.68	267.31	7.51	-45.1	-59.8	3.8	1.49e+00	0	57	104	680525824	60	21253
2026-01-04 01:51:57.69	267.19	7.46	-45.1	-59.8	3.8	1.49e+00	0	57	104	680525824	60	21228
2026-01-04 01:51:58.70	267.08	7.40	-45.0	-59.8	3.8	1.49e+00	0	57	104	680525824	60	21225
2026-01-04 01:51:59.71	266.96	7.34	-45.0	-59.8	3.8	1.49e+00	0	56	104	680525824	60	21197
2026-01-04 01:52:00.72	266.85	7.28	-45.0	-59.8	3.8	1.49e+00	0	57	104	680525824	60	21167
2026-01-04 01:52:01.73	266.73	7.23	-45.0	-59.8	3.8	1.49e+00	0	56	104	680525824	60	21157
2026-01-04 01:52:02.74	266.62	7.17	-45.0	-59.8	3.8	1.49e+00	0	56	104	680525824	60	21181
2026-01-04 01:52:03.75	266.51	7.11	-45.0	-59.8	3.8	1.49e+00	0	57	104	680525824	60	21152
2026-01-04 01:52:04.76	266.40	7.05	-45.0	-59.9	3.8	1.49e+00	0	57	104	680525824	60	21279
2026-01-04 01:52:05.78	266.28	7.00	-45.0	-59.8	3.8	1.49e+00	0	57	104	680525824	60	21176
2026-01-04 01:52:06.79	266.17	6.94	-45.0	-59.8	3.8	1.49e+00	0	57	104	680525824	60	21118
2026-01-04 01:52:07.80	266.06	6.88	-45.0	-59.8	3.8	1.49e+00	0	57	104	680525824	60	21073
2026-01-04 01:52:08.81	265.95	6.83	-45.0	-59.8	3.8	1.49e+00	0	57	104	680525824	60	21126
2026-01-04 01:52:09.82	265.84	6.77	-45.0	-59.8	3.8	1.49e+00	0	57	104	680525824	60	21142
2026-01-04 01:52:10.83	265.73	6.71	-45.0	-59.8	3.8	1.49e+00	0	57	104	680525824	60	21146
2026-01-04 01:52:11.84	265.62	6.65	-45.0	-59.8	3.8	1.49e+00	0	56	104	680525824	60	21128
2026-01-04 01:52:12.85	265.51	6.60	-44.9	-59.8	3.8	1.49e+00	0	57	104	680525824	60	21060
2026-01-04 01:52:13.86	265.40	6.54	-45.0	-59.8	3.8	1.49e+00	0	57	104	680525824	60	21111
2026-01-04 01:52:14.87	265.30	6.48	-45.0	-59.8	3.8	1.49e+00	0	56	104	680525824	60	21071
2026-01-04 01:52:15.89	265.19	6.43	-44.9	-59.8	3.8	1.49e+00	0	57	104	680525824	60	21098
2026-01-04 01:52:16.90	265.08	6.37	-44.9	-59.8	3.8	1.49e+00	0	57	104	680525824	60	21082
2026-01-04 01:52:17.91	264.97	6.31	-44.9	-59.8	3.8	1.49e+00	0	56	104	680525824	60	21067
2026-01-04 01:52:18.92	264.87	6.26	-45.0	-59.8	3.8	1.49e+00	0	57	104	680525824	60	21073
2026-01-04 01:52:19.93	264.76	6.20	-44.9	-59.8	3.8	1.49e+00	0	57	104	680525824	60	21078
2026-01-04 01:52:20.94	264.66	6.14	-44.9	-59.8	3.8	1.49e+00	0	57	104	680525824	60	21112
2026-01-04 01:52:21.95	264.55	6.08	-44.9	-59.8	3.8	1.49e+00	0	57	104	680525824	60	21083
2026-01-04 01:52:22.96	264.45	6.03	-44.9	-59.8	3.8	1.49e+00	0	57	104	680525824	60	21077
2026-01-04 01:52:23.98	264.34	5.97	-44.9	-59.8	3.8	1.49e+00	0	57	104	680525824	60	21093
2026-01-04 01:52:24.99	264.24	5.91	-45.0	-59.8	3.8	1.49e+00	0	57	104	680525824	60	21037
2026-01-04 01:52:26.00	264.14	5.86	-44.9	-59.8	3.8	1.49e+00	0	57	104	680525824	60	21076
2026-01-04 01:52:27.01	264.03	5.80	-44.9	-59.8	3.8	1.49e+00	0	57	104	680525824	60	21063
2026-01-04 01:52:28.02	263.93	5.74	-44.9	-59.8	3.8	1.49e+00	0	57	104	680525824	60	21054
2026-01-04 01:52:29.03	263.83	5.69	-44.9	-59.8	3.8	1.49e+00	0	57	104	680525824	60	21094
2026-01-04 01:52:30.04	263.73	5.63	-44.9	-59.8	3.8	1.49e+00	0	57	104	680525824	60	21026
2026-01-04 01:52:31.05	263.63	5.58	-44.9	-59.8	3.8	1.49e+00	0	57	104	680525824	60	21057
2026-01-04 01:52:32.06	263.53	5.52	-44.9	-59.8	3.8	1.49e+00	0	57	104	680525824	60	21051
2026-01-04 01:52:33.07	263.43	5.46	-44.9	-59.8	3.8	1.49e+00	0	57	104	680525824	60	21045
2026-01-04 01:52:34.08	263.33	5.41	-44.9	-59.8	3.8	1.49e+00	0	57	104	680525824	60	21027
2026-01-04 01:52:35.10	263.23	5.35	-44.9	-59.8	3.8	1.49e+00	0	57	104	680525824	60	21066
2026-01-04 01:52:36.11	263.13	5.29	-44.9	-59.7	3.8	1.49e+00	0	57	104	680525824	60	21015
2026-01-04 01:52:37.12	263.03	5.24	-44.9	-59.8	3.8	1.49e+00	0	57	104	680525824	60	21086
2026-01-04 01:52:38.13	262.93	5.18	-44.9	-59.8	3.8	1.49e+00	0	57	104	680525824	60	21026
2026-01-04 01:52:39.14	262.83	5.12	-44.9	-59.8	3.8	1.49e+00	0	57	104	680525824	60	21053
2026-01-04 01:52:40.15	262.73	5.07	-44.9	-59.7	3.8	1.49e+00	0	57	104	680525824	60	20917
2026-01-04 01:52:41.16	262.64	5.01	-44.9	-59.8	3.8	1.49e+00	0	57	104	680525824	60	21100
2026-01-04 01:52:42.17	262.54	4.96	-44.9	-59.8	3.8	1.49e+00	0	57	104	680525824	60	21038
2026-01-04 01:52:43.18	262.44	4.90	-44.9	-59.7	3.8	1.49e+00	0	57	104	680525824	60	21004
2026-01-04 01:52:44.20	262.35	4.84	-44.9	-59.8	3.8	1.49e+00	0	57	104	680525824	60	21061
2026-01-04 01:52:45.21	262.25	4.79	-44.9	-59.8	3.8	1.49e+00	0	57	104	680525824	60	21041
2026-01-04 01:52:46.22	262.15	4.73	-44.9	-59.8	3.8	1.49e+00	0	57	104	680525824	60	21066
2026-01-04 01:52:47.23	262.06	4.68	-44.9	-59.8	3.8	1.49e+00	0	57	104	680525824	60	21033
2026-01-04 01:52:48.24	261.96	4.62	-44.9	-59.8	3.8	1.49e+00	0	57	104	680525824	60	21048
2026-01-04 01:52:49.25	261.87	4.57	-44.9	-59.7	3.8	1.49e+00	0	57	104	680525824	60	21003
2026-01-04 01:52:50.26	261.78	4.51	-44.9	-59.8	3.8	1.49e+00	0	57	104	680525824	60	21043
2026-01-04 01:52:51.27	261.68	4.45	-44.9	-59.8	3.8	1.49e+00	0	57	104	680525824	60	21037
2026-01-04 01:52:52.28	261.59	4.40	-44.9	-59.8	3.8	1.49e+00	0	57	104	680525824	60	21132
2026-01-04 01:52:53.29	261.50	4.34	-44.9	-59.8	3.8	1.49e+00	0	57	104	680525824	60	21046
2026-01-04 01:52:54.30	261.40	4.29	-44.9	-59.8	3.8	1.49e+00	0	57	104	680525824	60	21019
2026-01-04 01:52:55.32	261.31	4.23	-44.9	-59.8	3.8	1.49e+00	0	57	104	680525824	60	21049
2026-01-04 01:52:56.33	261.22	4.18	-44.9	-59.8	3.8	1.49e+00	0	57	104	680525824	60	21032
2026-01-04 01:52:57.34	261.13	4.12	-44.9	-59.7	3.8	1.49e+00	0	57	104	680525824	60	21012
2026-01-04 01:52:58.35	261.04	4.07	-44.9	-59.7	3.8	1.49e+00	0	57	104	680525824	60	20984
2026-01-04 01:52:59.36	260.95	4.01	-44.9	-59.8	3.8	1.49e+00	0	57	104	680525824	60	21061
2026-01-04 01:53:00.37	260.86	3.96	-44.9	-59.8	3.8	1.49e+00	0	57	104	680525824	60	21020
2026-01-04 01:53:01.38	260.77	3.90	-44.9	-59.8	3.8	1.49e+00	0	57	104	680525824	60	21043
2026-01-04 01:53:02.39	260.68	3.85	-44.9	-59.8	3.8	1.49e+00	0	57	104	680525824	60	21046
2026-01-04 01:53:03.40	260.59	3.79	-44.9	-59.8	3.8	1.49e+00	0	57	104	680525824	60	21069
2026-01-04 01:53:04.42	260.50	3.73	-44.9	-59.7	3.8	1.49e+00	0	57	104	680525824	60	20978
2026-01-04 01:53:05.43	260.41	3.68	-44.9	-59.7	3.8	1.49e+00	0	57	104	680525824	60	20991
2026-01-04 01:53:06.44	260.32	3.62	-44.9	-59.8	3.8	1.49e+00	0	57	104	680525824	60	21021
2026-01-04 01:53:07.45	260.23	3.57	-44.9	-59.7	3.8	1.49e+00	0	57	104	680525824	60	20953
2026-01-04 01:53:08.46	260.15	3.52	-44.9	-59.7	3.8	1.49e+00	0	57	104	680525824	60	20989
2026-01-04 01:53:09.47	260.06	3.46	-44.9	-59.8	3.8	1.49e+00	0	57	104	680525824	60	21075
2026-01-04 01:53:10.48	259.97	3.41	-44.9	-59.8	3.8	1.49e+00	0	57	104	680525824	60	21069
2026-01-04 01:53:11.49	259.88	3.35	-44.9	-59.7	3.8	1.49e+00	0	57	104	680525824	60	20973
2026-01-04 01:53:12.50	259.80	3.30	-44.9	-59.7	3.8	1.49e+00	0	57	104	680525824	60	20987
2026-01-04 01:53:13.51	259.71	3.24	-44.9	-59.7	3.8	1.49e+00	0	57	104	680525824	60	20986
2026-01-04 01:53:14.53	259.63	3.19	-44.9	-59.8	3.8	1.49e+00	0	57	104	680525824	60	21026
2026-01-04 01:53:15.54	259.54	3.13	-44.9	-59.7	3.8	1.49e+00	0	57	104	680525824	60	20991
2026-01-04 01:53:16.55	259.46	3.08	-44.9	-59.7	3.8	1.49e+00	0	57	104	680525824	60	20980
2026-01-04 01:53:17.56	259.37	3.02	-44.9	-59.8	3.8	1.49e+00	0	57	104	680525824	60	21039
2026-01-04 01:53:18.57	259.29	2.97	-44.9	-59.7	3.8	1.49e+00	0	57	104	680525824	60	20983
2026-01-04 01:53:19.58	259.20	2.92	-44.9	-59.7	3.8	1.49e+00	0	57	104	680525824	60	20975
2026-01-04 01:53:20.59	259.12	2.86	-44.9	-59.7	3.8	1.49e+00	0	57	104	680525824	60	20977
2026-01-04 01:53:21.60	259.04	2.81	-44.9	-59.7	3.8	1.49e+00	0	57	104	680525824	60	20947
2026-01-04 01:53:22.61	258.95	2.75	-44.9	-59.7	3.8	1.49e+00	0	57	104	680525824	60	21004
2026-01-04 01:53:23.62	258.87	2.70	-44.9	-59.7	3.8	1.49e+00	0	57	104	680525824	60	20997
2026-01-04 01:53:24.64	258.79	2.64	-44.9	-59.8	3.8	1.49e+00	0	57	104	680525824	60	21035
2026-01-04 01:53:25.65	258.71	2.59	-44.9	-59.7	3.8	1.49e+00	0	57	104	680525824	60	21017
2026-01-04 01:53:26.66	258.62	2.54	-44.9	-59.8	3.8	1.49e+00	0	57	104	680525824	60	21031
2026-01-04 01:53:27.67	258.54	2.48	-44.9	-59.7	3.8	1.49e+00	0	57	104	680525824	60	20911
2026-01-04 01:53:28.68	258.46	2.43	-44.9	-59.7	3.8	1.49e+00	0	57	104	680525824	60	20957
2026-01-04 01:53:29.69	258.38	2.37	-44.9	-59.7	3.8	1.49e+00	0	57	104	680525824	60	20973
2026-01-04 01:53:30.70	258.30	2.32	-44.9	-59.7	3.8	1.49e+00	0	57	104	680525824	60	20948
2026-01-04 01:53:31.71	258.22	2.27	-44.9	-59.7	3.8	1.49e+00	0	57	104	680525824	60	20956
2026-01-04 01:53:32.72	258.14	2.21	-44.9	-59.7	3.8	1.49e+00	0	57	104	680525824	60	20962
2026-01-04 01:53:33.73	258.06	2.16	-44.9	-59.8	3.8	1.49e+00	0	57	104	680525824	60	21034
2026-01-04 01:53:34.75	257.98	2.11	-44.9	-59.7	3.8	1.49e+00	0	57	104	680525824	60	20944
2026-01-04 01:53:35.76	257.90	2.05	-44.9	-59.7	3.8	1.49e+00	0	57	104	680525824	60	20898
2026-01-04 01:53:36.77	257.82	2.00	-44.9	-59.7	3.8	1.49e+00	0	57	104	680525824	60	20902
