passes_logs/2026/01/04/R2.0S_Moscow/R2.0S_Moscow__20260104_001704_AQUA_rec.log

#Pass ID: 20260104_001704_AQUA
#Satellite: AQUA
#Configuration: AQUA
#almurnet v.1.7.20251203
#Start time: 2026-01-04 00:17:05

#Version: 2.2.20231116
#Station: R2.0S_Moscow
#Location: 37.707566 lon 55.798166 lat
#TLE: 1 27424U 02022A   25365.92641127  .00002078  00000+0  42628-3 0  9999
#TLE: 2 27424  98.4058 327.1196 0001962  94.7781 340.6230 14.61783896258835

#Time	Az	El	Level	Level2	SNR	BER	BlckErr	Temp	State	Recorded	gain1	gain2
2026-01-04 00:17:05.93	23.41	2.06	-43.0	-63.0	3.8	7.44e-01	0	53	0	0	57	36166
2026-01-04 00:17:06.93	23.47	2.12	-43.0	-63.0	3.8	7.41e-01	0	54	104	0	56	38278
2026-01-04 00:17:07.94	23.53	2.18	-43.0	-62.9	3.8	7.47e-01	0	54	104	0	56	38244
2026-01-04 00:17:08.96	23.60	2.25	-42.9	-63.0	3.8	7.46e-01	0	54	104	0	56	38324
2026-01-04 00:17:09.97	23.66	2.31	-43.0	-63.0	3.8	7.44e-01	0	54	104	0	56	38362
2026-01-04 00:17:10.98	23.72	2.37	-43.0	-63.0	3.8	7.45e-01	0	53	104	0	56	38273
2026-01-04 00:17:11.99	23.78	2.43	-43.0	-63.0	3.8	7.45e-01	0	54	104	0	56	38290
2026-01-04 00:17:13.00	23.85	2.49	-43.0	-63.0	3.8	7.46e-01	0	54	104	0	56	38293
2026-01-04 00:17:14.01	23.91	2.56	-43.0	-63.0	3.8	7.47e-01	0	54	104	0	56	38345
2026-01-04 00:17:15.02	23.97	2.62	-43.0	-62.9	3.8	7.46e-01	0	54	104	0	56	38227
2026-01-04 00:17:16.03	24.04	2.68	-43.0	-63.0	3.8	7.42e-01	0	54	104	0	56	38303
2026-01-04 00:17:17.04	24.10	2.74	-43.0	-63.0	3.8	7.43e-01	0	54	104	0	56	38334
2026-01-04 00:17:18.05	24.17	2.81	-43.0	-63.0	3.8	7.45e-01	0	54	104	0	56	38406
2026-01-04 00:17:19.07	24.23	2.87	-43.0	-63.0	3.8	7.42e-01	0	54	104	0	56	38253
2026-01-04 00:17:20.08	24.30	2.93	-43.0	-62.9	3.8	7.47e-01	0	54	104	0	56	38236
2026-01-04 00:17:21.09	24.36	3.00	-43.0	-63.0	3.8	7.45e-01	0	54	104	0	56	38320
2026-01-04 00:17:22.10	24.43	3.06	-43.0	-63.0	3.8	7.45e-01	0	54	104	0	56	38268
2026-01-04 00:17:23.11	24.49	3.12	-43.0	-63.0	3.8	7.48e-01	0	54	104	0	56	38252
2026-01-04 00:17:24.12	24.56	3.19	-43.0	-63.0	3.8	7.43e-01	0	54	104	0	56	38327
2026-01-04 00:17:25.13	24.63	3.25	-43.0	-63.0	3.8	7.46e-01	0	54	104	0	56	38303
2026-01-04 00:17:26.14	24.69	3.31	-42.9	-63.0	3.8	7.43e-01	0	54	104	0	56	38271
2026-01-04 00:17:27.15	24.76	3.38	-43.0	-63.0	3.8	7.46e-01	0	54	104	0	56	38270
2026-01-04 00:17:28.16	24.83	3.44	-43.0	-63.0	3.8	7.48e-01	0	54	104	0	56	38292
2026-01-04 00:17:29.17	24.90	3.51	-43.0	-62.9	3.8	7.43e-01	0	54	104	0	56	38242
2026-01-04 00:17:30.19	24.97	3.57	-43.0	-63.0	3.8	7.46e-01	0	54	104	0	56	38324
2026-01-04 00:17:31.20	25.03	3.64	-43.0	-63.0	3.8	7.45e-01	0	54	104	0	56	38269
2026-01-04 00:17:32.21	25.10	3.70	-43.0	-63.0	3.8	7.46e-01	0	54	104	0	56	38339
2026-01-04 00:17:33.22	25.17	3.76	-43.0	-63.0	3.8	7.47e-01	0	54	104	0	56	38255
2026-01-04 00:17:34.23	25.24	3.83	-43.0	-63.0	3.8	7.39e-01	0	54	104	0	56	38314
2026-01-04 00:17:35.24	25.31	3.90	-43.0	-62.9	3.8	7.46e-01	0	54	104	0	56	38239
2026-01-04 00:17:36.25	25.38	3.96	-42.9	-63.0	3.8	7.45e-01	0	54	104	0	56	38266
2026-01-04 00:17:37.26	25.45	4.03	-43.0	-63.0	3.8	7.43e-01	0	54	104	0	56	38278
2026-01-04 00:17:38.27	25.52	4.09	-42.9	-63.0	3.8	7.44e-01	0	54	104	0	56	38280
2026-01-04 00:17:39.29	25.59	4.16	-43.0	-62.9	3.8	7.48e-01	0	54	104	0	56	38186
2026-01-04 00:17:40.30	25.66	4.22	-43.0	-63.0	3.8	7.49e-01	0	54	104	0	56	38377
2026-01-04 00:17:41.31	25.74	4.29	-43.0	-63.0	3.8	7.46e-01	0	54	104	0	56	38311
2026-01-04 00:17:42.32	25.81	4.36	-42.9	-62.9	3.8	7.49e-01	0	54	104	0	56	38191
2026-01-04 00:17:43.33	25.88	4.42	-43.0	-62.9	3.8	7.44e-01	0	55	104	0	56	38174
2026-01-04 00:17:44.34	25.95	4.49	-43.0	-62.9	3.8	7.47e-01	0	54	104	0	56	38188
2026-01-04 00:17:45.35	26.03	4.55	-43.0	-63.0	3.8	7.42e-01	0	54	104	0	56	38308
2026-01-04 00:17:46.36	26.10	4.62	-43.0	-62.9	3.8	7.44e-01	0	55	104	0	56	38174
2026-01-04 00:17:47.37	26.17	4.69	-43.0	-62.9	3.8	7.48e-01	0	54	104	0	56	38129
2026-01-04 00:17:48.38	26.25	4.76	-43.0	-62.9	3.8	7.41e-01	0	55	104	0	56	38185
2026-01-04 00:17:49.39	26.32	4.82	-43.0	-62.9	3.8	7.44e-01	0	55	104	0	56	38173
2026-01-04 00:17:50.41	26.40	4.89	-43.0	-62.9	3.8	7.46e-01	0	55	104	0	56	38132
2026-01-04 00:17:51.42	26.47	4.96	-43.0	-62.9	3.8	7.47e-01	0	54	104	0	56	38167
2026-01-04 00:17:52.43	26.55	5.03	-43.0	-62.9	3.8	7.43e-01	0	54	104	0	56	38171
2026-01-04 00:17:53.44	26.62	5.09	-43.0	-62.9	3.8	7.44e-01	0	55	104	0	56	38044
2026-01-04 00:17:54.45	26.70	5.16	-43.0	-62.9	3.8	7.45e-01	0	55	104	0	56	38068
2026-01-04 00:17:55.46	26.78	5.23	-43.0	-62.9	3.8	7.48e-01	0	55	104	0	56	38220
2026-01-04 00:17:56.47	26.85	5.30	-43.0	-62.9	3.8	7.42e-01	0	55	104	0	56	38133
2026-01-04 00:17:57.48	26.93	5.37	-43.0	-62.9	3.8	7.45e-01	0	55	104	0	56	38168
2026-01-04 00:17:58.49	27.01	5.44	-43.0	-62.9	3.8	7.43e-01	0	55	104	0	56	38179
2026-01-04 00:17:59.50	27.08	5.50	-43.0	-62.9	3.8	7.44e-01	0	55	104	0	56	38152
2026-01-04 00:18:00.52	27.16	5.57	-43.0	-62.9	3.8	7.41e-01	0	55	104	0	56	38175
2026-01-04 00:18:01.53	27.24	5.64	-43.0	-62.9	3.8	7.45e-01	0	55	104	0	56	37968
2026-01-04 00:18:02.54	27.32	5.71	-43.0	-62.8	3.8	7.43e-01	0	55	104	0	56	37802
2026-01-04 00:18:03.55	27.40	5.78	-43.0	-62.9	3.8	7.44e-01	0	55	104	0	56	37870
2026-01-04 00:18:04.56	27.48	5.85	-43.0	-62.8	3.8	7.44e-01	0	55	104	0	56	37717
2026-01-04 00:18:05.57	27.56	5.92	-43.0	-62.8	3.8	7.43e-01	0	55	104	0	56	37798
2026-01-04 00:18:06.58	27.64	5.99	-42.9	-62.9	3.8	7.45e-01	0	55	104	0	56	37852
2026-01-04 00:18:07.59	27.72	6.06	-43.0	-62.9	3.8	7.49e-01	0	55	104	0	56	37975
2026-01-04 00:18:08.60	27.80	6.13	-43.0	-62.8	3.8	7.46e-01	0	55	104	0	56	37718
2026-01-04 00:18:09.61	27.89	6.20	-42.9	-62.7	3.8	7.43e-01	0	55	104	0	56	37352
2026-01-04 00:18:10.63	27.97	6.27	-42.9	-62.2	3.8	7.44e-01	0	55	104	0	56	35219
2026-01-04 00:18:11.64	28.05	6.34	-43.0	-61.8	3.8	7.43e-01	0	55	104	0	56	33540
2026-01-04 00:18:12.65	28.14	6.41	-43.0	-61.3	3.8	7.42e-01	0	55	104	0	56	31740
2026-01-04 00:18:13.66	28.22	6.49	-43.0	-61.0	3.8	7.46e-01	0	55	104	0	56	30432
2026-01-04 00:18:14.67	28.30	6.56	-42.9	-61.2	3.8	7.44e-01	0	55	104	0	56	31307
2026-01-04 00:18:15.68	28.39	6.63	-42.9	-60.3	4.0	7.35e-01	0	55	104	0	56	28121
2026-01-04 00:18:16.69	28.47	6.70	-43.0	-61.7	3.8	7.45e-01	0	55	104	0	56	32979
2026-01-04 00:18:17.70	28.56	6.77	-42.9	-60.8	3.9	7.43e-01	0	55	104	0	56	29994
2026-01-04 00:18:18.72	28.64	6.84	-42.9	-60.4	3.8	7.42e-01	0	55	104	0	56	28366
2026-01-04 00:18:19.73	28.73	6.92	-42.9	-61.9	3.8	7.46e-01	0	55	104	0	56	33846
2026-01-04 00:18:20.74	28.82	6.99	-42.9	-61.5	3.9	7.43e-01	0	55	104	0	56	32359
2026-01-04 00:18:21.75	28.90	7.06	-42.9	-59.3	4.2	7.31e-01	0	55	104	0	56	25108
2026-01-04 00:18:22.76	28.99	7.13	-42.9	-59.7	3.9	7.43e-01	0	55	104	0	56	26276
2026-01-04 00:18:23.77	29.08	7.21	-42.8	-57.7	4.8	7.14e-01	0	56	104	0	56	20824
2026-01-04 00:18:24.78	29.17	7.28	-42.7	-54.6	6.9	6.62e-01	91	55	0	524288	56	14705
2026-01-04 00:18:25.80	29.26	7.35	-42.3	-50.9	10.7	6.11e-01	0	55	0	2621440	56	9522
2026-01-04 00:18:26.81	29.35	7.43	-41.6	-48.3	13.3	6.02e-01	0	55	0	4194304	55	7530
2026-01-04 00:18:27.82	29.44	7.50	-41.0	-46.5	15.3	6.01e-01	0	55	0	6291456	54	6433
2026-01-04 00:18:28.83	29.53	7.58	-40.5	-45.2	16.5	6.02e-01	0	55	0	8388608	53	5909
2026-01-04 00:18:29.84	29.62	7.65	-40.1	-44.4	17.4	6.02e-01	0	55	0	9961472	52	5684
2026-01-04 00:18:30.85	29.71	7.72	-40.0	-44.1	17.7	6.01e-01	0	55	0	12058624	52	5519
2026-01-04 00:18:31.86	29.80	7.80	-39.9	-43.7	18.2	6.01e-01	0	55	0	13631488	51	5591
2026-01-04 00:18:32.87	29.89	7.87	-39.9	-43.9	18.1	6.00e-01	0	55	0	15728640	51	5674
2026-01-04 00:18:33.88	29.98	7.95	-40.0	-43.9	18.0	6.03e-01	0	55	0	17825792	51	5694
2026-01-04 00:18:34.89	30.08	8.02	-39.8	-43.6	18.3	5.99e-01	0	56	0	19398656	51	5513
2026-01-04 00:18:35.90	30.17	8.10	-43.6	-53.1	9.7	6.24e-01	0	56	0	21495808	57	11582
2026-01-04 00:18:36.91	30.27	8.17	-41.3	-53.8	7.7	6.63e-01	91	56	0	23592960	53	15866
2026-01-04 00:18:37.92	30.36	8.25	-41.0	-45.4	17.2	6.03e-01	0	55	0	25165824	52	6374
2026-01-04 00:18:38.93	30.46	8.32	-41.7	-47.0	15.4	6.04e-01	0	55	0	26738688	53	7224
2026-01-04 00:18:39.94	30.55	8.40	-41.5	-47.1	15.2	6.03e-01	0	55	0	28835840	53	7306
2026-01-04 00:18:40.95	30.65	8.48	-40.3	-44.3	17.9	6.00e-01	0	55	0	30932992	52	5594
2026-01-04 00:18:41.96	30.74	8.55	-40.0	-43.7	18.5	6.00e-01	0	55	0	32505856	52	5260
2026-01-04 00:18:42.97	30.84	8.63	-39.9	-43.5	18.8	6.01e-01	0	55	0	34603008	51	5419
2026-01-04 00:18:43.98	30.94	8.71	-40.1	-43.8	18.5	6.01e-01	0	56	0	36175872	51	5613
2026-01-04 00:18:44.99	31.04	8.78	-39.9	-43.4	18.9	6.02e-01	0	55	0	38273024	51	5392
2026-01-04 00:18:46.00	31.14	8.86	-39.9	-43.4	18.9	6.03e-01	0	55	0	40370176	51	5358
2026-01-04 00:18:47.01	31.23	8.94	-39.9	-43.5	18.9	6.02e-01	0	55	0	41943040	51	5405
2026-01-04 00:18:48.02	31.33	9.01	-39.9	-43.4	18.9	6.02e-01	0	56	0	44040192	51	5387
2026-01-04 00:18:49.03	31.44	9.09	-39.9	-43.3	19.2	5.99e-01	0	56	0	45613056	51	5292
2026-01-04 00:18:50.04	31.54	9.17	-39.8	-43.1	19.4	6.02e-01	0	55	0	47710208	51	5196
2026-01-04 00:18:51.05	31.64	9.25	-39.9	-43.2	19.3	6.03e-01	0	56	0	49807360	51	5228
2026-01-04 00:18:52.06	31.74	9.33	-39.8	-42.9	19.7	6.00e-01	0	56	0	51380224	51	5050
2026-01-04 00:18:53.07	31.84	9.40	-39.9	-42.9	19.7	6.01e-01	0	56	0	53477376	51	5086
2026-01-04 00:18:54.08	31.95	9.48	-39.8	-42.7	19.9	6.00e-01	0	56	0	55050240	51	4964
2026-01-04 00:18:55.09	32.05	9.56	-40.0	-43.0	19.7	6.00e-01	0	56	0	57147392	51	5115
2026-01-04 00:18:56.10	32.15	9.64	-39.7	-42.7	20.0	6.01e-01	0	56	0	59244544	51	4940
2026-01-04 00:18:57.11	32.26	9.72	-39.8	-42.7	19.9	6.02e-01	0	56	0	60817408	51	4970
2026-01-04 00:18:58.12	32.37	9.80	-39.8	-42.8	19.9	6.03e-01	0	56	0	62914560	51	5025
2026-01-04 00:18:59.13	32.47	9.88	-39.8	-42.7	20.0	6.02e-01	0	56	0	64487424	51	4945
2026-01-04 00:19:00.14	32.58	9.96	-39.8	-42.7	20.0	6.00e-01	0	56	0	66584576	51	4946
2026-01-04 00:19:01.15	32.69	10.04	-39.7	-42.6	20.1	6.00e-01	0	56	0	68681728	51	4902
2026-01-04 00:19:02.16	32.79	10.12	-39.7	-42.6	20.0	6.01e-01	0	56	0	70254592	51	4892
2026-01-04 00:19:03.17	32.90	10.20	-39.7	-42.6	20.2	6.00e-01	0	55	0	72351744	51	4881
2026-01-04 00:19:04.18	33.01	10.28	-39.7	-42.5	20.3	6.02e-01	0	56	0	74448896	51	4847
2026-01-04 00:19:05.19	33.12	10.36	-39.8	-42.5	20.3	6.02e-01	0	56	0	76021760	51	4859
2026-01-04 00:19:06.20	33.23	10.44	-39.8	-42.5	20.3	6.04e-01	0	56	0	78118912	51	4859
2026-01-04 00:19:07.21	33.34	10.53	-39.8	-42.5	20.4	6.01e-01	0	56	0	79691776	51	4831
2026-01-04 00:19:08.21	33.45	10.61	-39.8	-42.5	20.4	6.02e-01	0	56	0	81788928	51	4831
2026-01-04 00:19:09.22	33.57	10.69	-39.9	-42.6	20.3	6.02e-01	0	56	0	83886080	51	4907
2026-01-04 00:19:10.23	33.68	10.77	-39.8	-42.4	20.5	6.00e-01	0	56	0	85458944	51	4773
2026-01-04 00:19:11.24	33.79	10.85	-39.7	-42.3	20.6	6.01e-01	0	56	0	87556096	51	4736
2026-01-04 00:19:12.26	33.91	10.94	-39.7	-42.2	20.7	6.03e-01	0	56	0	89128960	51	4703
2026-01-04 00:19:13.27	34.02	11.02	-39.7	-42.3	20.6	6.01e-01	0	56	0	91226112	51	4739
2026-01-04 00:19:14.28	34.14	11.10	-39.7	-42.3	20.7	6.00e-01	0	56	0	93323264	51	4716
2026-01-04 00:19:15.28	34.26	11.18	-39.7	-42.3	20.7	6.01e-01	0	56	0	94896128	51	4721
2026-01-04 00:19:16.29	34.37	11.27	-39.7	-42.2	20.8	6.02e-01	0	56	0	96993280	51	4674
2026-01-04 00:19:17.31	34.49	11.35	-39.8	-42.3	20.7	6.01e-01	0	56	0	99090432	51	4721
2026-01-04 00:19:18.32	34.61	11.44	-39.7	-42.2	20.8	6.02e-01	0	56	0	100663296	51	4686
2026-01-04 00:19:19.33	34.73	11.52	-39.7	-42.3	20.7	6.03e-01	0	56	0	102760448	51	4713
2026-01-04 00:19:20.34	34.85	11.60	-39.7	-42.3	20.8	6.02e-01	0	56	0	104333312	51	4718
2026-01-04 00:19:21.35	34.97	11.69	-39.7	-42.2	20.8	6.01e-01	0	56	0	106430464	51	4703
2026-01-04 00:19:22.36	35.09	11.77	-39.6	-42.1	20.9	5.99e-01	0	56	0	108527616	51	4638
2026-01-04 00:19:23.37	35.21	11.86	-39.7	-42.2	20.8	6.01e-01	0	56	0	110100480	51	4682
2026-01-04 00:19:24.37	35.34	11.94	-39.6	-42.1	20.9	6.00e-01	0	56	0	112197632	51	4620
2026-01-04 00:19:25.38	35.46	12.03	-39.6	-42.0	21.0	6.01e-01	0	56	0	114294784	51	4585
2026-01-04 00:19:26.39	35.58	12.11	-39.6	-42.1	21.0	5.99e-01	0	56	0	115867648	51	4611
2026-01-04 00:19:27.40	35.71	12.20	-39.6	-42.0	21.0	6.02e-01	0	56	0	117964800	51	4590
2026-01-04 00:19:28.41	35.83	12.28	-39.6	-42.0	21.0	6.01e-01	0	56	0	119537664	51	4596
2026-01-04 00:19:29.42	35.96	12.37	-39.6	-42.1	21.0	6.01e-01	0	56	0	121634816	51	4628
2026-01-04 00:19:30.43	36.09	12.46	-39.6	-42.0	21.1	6.01e-01	0	56	0	123731968	51	4586
2026-01-04 00:19:31.44	36.22	12.54	-39.6	-42.0	21.1	6.01e-01	0	56	0	125304832	51	4597
2026-01-04 00:19:32.45	36.35	12.63	-39.7	-42.1	21.0	6.01e-01	0	56	0	127401984	51	4631
2026-01-04 00:19:33.46	36.48	12.72	-39.6	-42.1	21.0	6.01e-01	0	56	0	128974848	51	4623
2026-01-04 00:19:34.47	36.61	12.81	-39.6	-42.1	21.0	6.02e-01	0	56	0	131072000	51	4602
2026-01-04 00:19:35.48	36.74	12.89	-39.7	-42.1	21.1	6.01e-01	0	56	0	132644864	51	4614
2026-01-04 00:19:36.49	36.87	12.98	-39.6	-41.9	21.2	6.03e-01	0	56	0	134742016	51	4540
2026-01-04 00:19:37.50	37.00	13.07	-39.6	-42.0	21.2	6.00e-01	0	56	0	136839168	51	4553
2026-01-04 00:19:38.51	37.14	13.16	-39.6	-42.0	21.2	5.99e-01	0	56	0	138412032	51	4572
2026-01-04 00:19:39.52	37.27	13.25	-39.6	-42.0	21.2	6.01e-01	0	56	0	140509184	51	4554
2026-01-04 00:19:40.53	37.41	13.33	-39.6	-42.0	21.2	6.01e-01	0	56	0	142606336	51	4570
2026-01-04 00:19:41.54	37.54	13.42	-39.6	-42.0	21.2	6.01e-01	0	56	0	144179200	51	4569
2026-01-04 00:19:42.55	37.68	13.51	-39.6	-42.0	21.2	5.99e-01	0	56	0	146276352	51	4549
2026-01-04 00:19:43.56	37.82	13.60	-39.5	-41.9	21.3	6.02e-01	0	56	0	147849216	51	4496
2026-01-04 00:19:44.57	37.96	13.69	-39.6	-41.9	21.3	6.04e-01	0	56	0	149946368	51	4533
2026-01-04 00:19:45.58	38.10	13.78	-39.5	-41.8	21.4	6.02e-01	0	56	0	152043520	51	4487
2026-01-04 00:19:46.60	38.24	13.87	-39.6	-41.9	21.3	6.02e-01	0	56	0	153616384	51	4527
2026-01-04 00:19:47.60	38.38	13.96	-39.6	-42.0	21.2	5.99e-01	0	56	0	155713536	51	4551
2026-01-04 00:19:48.61	38.52	14.05	-39.5	-41.8	21.4	6.02e-01	0	56	0	157286400	51	4492
2026-01-04 00:19:49.62	38.67	14.14	-39.5	-41.9	21.3	5.99e-01	0	56	0	159383552	51	4496
2026-01-04 00:19:50.63	38.81	14.23	-39.5	-41.8	21.4	5.97e-01	0	56	0	161480704	50	4725
2026-01-04 00:19:51.64	38.96	14.32	-39.5	-41.9	21.4	6.01e-01	0	56	0	163053568	50	4783
2026-01-04 00:19:52.65	39.10	14.42	-39.4	-41.7	21.5	6.03e-01	0	56	0	165150720	50	4693
2026-01-04 00:19:53.66	39.25	14.51	-39.5	-41.9	21.4	5.98e-01	0	56	0	167247872	50	4779
2026-01-04 00:19:54.67	39.40	14.60	-39.5	-41.8	21.4	6.01e-01	0	56	0	168820736	50	4752
2026-01-04 00:19:55.68	39.55	14.69	-39.4	-41.7	21.5	6.01e-01	0	56	0	170917888	50	4703
2026-01-04 00:19:56.69	39.70	14.78	-39.4	-41.7	21.5	6.01e-01	0	56	0	172490752	50	4695
2026-01-04 00:19:57.70	39.85	14.88	-39.5	-41.8	21.5	6.02e-01	0	56	0	174587904	50	4711
2026-01-04 00:19:58.71	40.00	14.97	-39.5	-41.8	21.5	6.02e-01	0	56	0	176685056	50	4737
2026-01-04 00:19:59.72	40.15	15.06	-39.4	-41.7	21.5	6.02e-01	0	56	0	178257920	50	4683
2026-01-04 00:20:00.73	40.31	15.15	-39.4	-41.7	21.6	6.04e-01	0	56	0	180355072	50	4669
2026-01-04 00:20:01.74	40.46	15.25	-39.3	-41.6	21.7	6.01e-01	0	56	0	182452224	50	4617
2026-01-04 00:20:02.75	40.62	15.34	-39.3	-41.5	21.7	6.01e-01	0	56	0	184025088	50	4587
2026-01-04 00:20:03.76	40.77	15.44	-39.3	-41.6	21.7	6.03e-01	0	56	0	186122240	50	4629
2026-01-04 00:20:04.76	40.93	15.53	-39.3	-41.6	21.7	6.01e-01	0	56	0	187695104	50	4625
2026-01-04 00:20:05.77	41.09	15.62	-39.3	-41.5	21.8	6.00e-01	0	56	0	189792256	50	4558
2026-01-04 00:20:06.78	41.25	15.72	-39.3	-41.5	21.8	6.01e-01	0	56	0	191889408	50	4556
2026-01-04 00:20:07.79	41.41	15.81	-39.3	-41.5	21.8	6.02e-01	0	56	0	193462272	50	4570
2026-01-04 00:20:08.80	41.57	15.91	-39.3	-41.5	21.8	6.02e-01	0	56	0	195559424	50	4572
2026-01-04 00:20:09.81	41.73	16.00	-39.4	-41.6	21.7	5.99e-01	0	56	0	197132288	50	4635
2026-01-04 00:20:10.82	41.90	16.10	-39.3	-41.6	21.8	6.00e-01	0	56	0	199229440	50	4611
2026-01-04 00:20:11.83	42.06	16.19	-39.4	-41.6	21.7	6.00e-01	0	56	0	200802304	50	4647
2026-01-04 00:20:12.84	42.23	16.29	-39.3	-41.5	21.8	6.04e-01	0	56	0	202899456	50	4598
2026-01-04 00:20:13.85	42.40	16.38	-39.3	-41.5	21.8	6.01e-01	0	56	0	204996608	50	4565
2026-01-04 00:20:14.85	42.57	16.48	-39.2	-41.4	21.9	5.99e-01	0	56	0	206569472	50	4539
2026-01-04 00:20:15.86	42.74	16.57	-39.2	-41.4	21.9	6.01e-01	0	56	0	208666624	50	4525
2026-01-04 00:20:16.87	42.91	16.67	-39.2	-41.4	22.0	6.01e-01	0	56	0	210763776	50	4497
2026-01-04 00:20:17.88	43.08	16.77	-39.2	-41.4	22.0	6.02e-01	0	56	0	212336640	50	4495
2026-01-04 00:20:18.89	43.25	16.86	-39.1	-41.3	22.1	6.03e-01	0	56	0	214433792	50	4461
2026-01-04 00:20:19.90	43.43	16.96	-39.1	-41.3	22.1	6.02e-01	0	56	0	216006656	50	4453
2026-01-04 00:20:20.91	43.60	17.06	-39.2	-41.3	22.1	6.03e-01	0	56	0	218103808	50	4475
2026-01-04 00:20:21.92	43.78	17.16	-39.2	-41.4	22.0	6.02e-01	0	56	0	220200960	50	4504
2026-01-04 00:20:22.93	43.96	17.25	-39.2	-41.3	22.1	6.02e-01	0	56	0	221773824	50	4480
2026-01-04 00:20:23.94	44.14	17.35	-39.2	-41.4	22.0	5.98e-01	0	56	0	223870976	50	4504
2026-01-04 00:20:24.95	44.32	17.45	-39.3	-41.4	22.0	6.00e-01	0	56	0	225443840	50	4540
2026-01-04 00:20:25.96	44.50	17.55	-39.3	-41.5	21.9	5.99e-01	0	56	0	227540992	50	4551
2026-01-04 00:20:26.97	44.68	17.65	-39.3	-41.4	22.0	6.02e-01	0	56	0	229638144	50	4527
2026-01-04 00:20:27.98	44.86	17.74	-39.2	-41.4	22.0	6.00e-01	0	56	0	231211008	50	4523
2026-01-04 00:20:28.99	45.05	17.84	-39.2	-41.4	22.0	6.01e-01	0	56	0	233308160	50	4516
2026-01-04 00:20:30.00	45.24	17.94	-39.2	-41.4	22.0	6.02e-01	0	56	0	235405312	50	4496
2026-01-04 00:20:31.01	45.42	18.04	-39.1	-41.3	22.2	5.99e-01	0	56	0	236978176	50	4447
2026-01-04 00:20:32.01	45.61	18.14	-39.2	-41.3	22.0	5.99e-01	0	56	0	239075328	50	4491
2026-01-04 00:20:33.02	45.80	18.24	-39.2	-41.4	22.1	6.02e-01	0	56	0	240648192	50	4512
2026-01-04 00:20:34.03	45.99	18.34	-39.2	-41.3	22.1	6.00e-01	0	56	0	242745344	50	4489
2026-01-04 00:20:35.05	46.19	18.44	-39.2	-41.3	22.2	6.03e-01	0	56	0	244842496	50	4464
2026-01-04 00:20:36.05	46.38	18.54	-39.2	-41.3	22.1	6.01e-01	0	56	0	246415360	50	4486
2026-01-04 00:20:37.07	46.58	18.64	-39.2	-41.4	22.1	6.00e-01	0	56	0	248512512	50	4525
2026-01-04 00:20:38.08	46.77	18.74	-39.3	-41.5	22.0	6.07e-01	0	56	0	250085376	50	4582
2026-01-04 00:20:39.09	46.97	18.84	-39.3	-41.5	22.0	6.01e-01	0	56	0	252182528	50	4547
2026-01-04 00:20:40.09	47.17	18.94	-39.3	-41.5	22.0	6.02e-01	0	56	0	254279680	50	4562
2026-01-04 00:20:41.10	47.37	19.04	-39.4	-41.5	22.0	6.00e-01	0	56	0	255852544	50	4589
2026-01-04 00:20:42.11	47.57	19.14	-39.3	-41.4	22.1	6.00e-01	0	56	0	257949696	50	4530
2026-01-04 00:20:43.12	47.78	19.24	-39.3	-41.4	22.1	6.00e-01	0	57	0	259522560	50	4511
2026-01-04 00:20:44.13	47.98	19.34	-39.2	-41.4	22.1	6.02e-01	0	56	0	261619712	50	4499
2026-01-04 00:20:45.14	48.19	19.44	-39.3	-41.5	22.0	6.02e-01	0	56	0	263716864	50	4573
2026-01-04 00:20:46.15	48.40	19.54	-39.4	-41.5	22.0	6.00e-01	0	56	0	265289728	50	4592
2026-01-04 00:20:47.16	48.60	19.64	-39.4	-41.5	21.9	6.02e-01	0	56	0	267386880	50	4590
2026-01-04 00:20:48.17	48.82	19.74	-39.3	-41.4	22.1	5.99e-01	0	56	0	268959744	50	4525
2026-01-04 00:20:49.18	49.03	19.84	-39.2	-41.3	22.2	6.00e-01	0	56	0	271056896	50	4469
2026-01-04 00:20:50.18	49.24	19.94	-39.3	-41.5	22.0	6.00e-01	0	56	0	273154048	50	4584
2026-01-04 00:20:51.19	49.45	20.04	-39.4	-41.5	22.0	6.00e-01	0	56	0	274726912	50	4596
2026-01-04 00:20:52.20	49.67	20.15	-39.3	-41.5	22.0	6.01e-01	0	56	0	276824064	50	4561
2026-01-04 00:20:53.21	49.89	20.25	-39.2	-41.3	22.1	6.01e-01	0	56	0	278921216	50	4490
2026-01-04 00:20:54.22	50.11	20.35	-39.2	-41.4	22.2	6.00e-01	0	56	0	280494080	50	4499
2026-01-04 00:20:55.23	50.33	20.45	-39.3	-41.4	22.1	6.01e-01	0	56	0	282591232	50	4518
2026-01-04 00:20:56.24	50.55	20.55	-39.3	-41.5	22.1	6.03e-01	0	56	0	284164096	50	4552
2026-01-04 00:20:57.25	50.78	20.65	-39.3	-41.4	22.1	6.00e-01	0	56	0	286261248	50	4525
2026-01-04 00:20:58.26	51.00	20.75	-39.3	-41.5	22.0	6.03e-01	0	56	0	288358400	50	4573
2026-01-04 00:20:59.27	51.23	20.86	-39.4	-41.6	21.9	6.02e-01	0	56	0	289931264	50	4616
2026-01-04 00:21:00.28	51.46	20.96	-39.4	-41.6	21.9	6.03e-01	0	56	0	292028416	50	4611
2026-01-04 00:21:01.29	51.69	21.06	-39.3	-41.5	22.0	6.01e-01	0	56	0	293601280	50	4573
2026-01-04 00:21:02.30	51.92	21.16	-39.3	-41.5	22.0	6.02e-01	0	56	0	295698432	50	4558
2026-01-04 00:21:03.31	52.15	21.26	-39.4	-41.6	21.9	6.01e-01	0	56	0	297795584	50	4633
2026-01-04 00:21:04.32	52.39	21.37	-39.4	-41.6	21.9	6.01e-01	0	57	0	299368448	50	4631
2026-01-04 00:21:05.33	52.62	21.47	-39.3	-41.5	22.0	6.03e-01	0	56	0	301465600	50	4561
2026-01-04 00:21:06.34	52.86	21.57	-39.3	-41.5	22.1	6.00e-01	0	56	0	303562752	50	4552
2026-01-04 00:21:07.34	53.10	21.67	-39.4	-41.6	22.0	6.01e-01	0	56	0	305135616	50	4611
2026-01-04 00:21:08.35	53.34	21.77	-39.4	-41.6	21.9	6.02e-01	0	56	0	307232768	50	4632
2026-01-04 00:21:09.36	53.59	21.87	-39.4	-41.6	21.9	6.02e-01	0	56	0	308805632	50	4604
2026-01-04 00:21:10.37	53.83	21.97	-39.3	-41.5	22.0	6.01e-01	0	56	0	310902784	50	4593
2026-01-04 00:21:11.38	54.08	22.08	-39.4	-41.7	21.9	6.03e-01	0	56	0	312475648	50	4652
2026-01-04 00:21:12.39	54.32	22.18	-39.5	-41.7	21.8	6.04e-01	0	57	0	314572800	50	4680
2026-01-04 00:21:13.40	54.57	22.28	-39.4	-41.6	21.9	5.99e-01	0	56	0	316669952	50	4604
2026-01-04 00:21:14.41	54.83	22.38	-39.4	-41.5	22.0	6.01e-01	0	56	0	318242816	50	4592
2026-01-04 00:21:15.42	55.08	22.48	-39.4	-41.6	21.9	6.02e-01	0	56	0	320339968	50	4643
2026-01-04 00:21:16.43	55.33	22.58	-39.5	-41.6	21.9	6.00e-01	0	57	0	321912832	50	4649
2026-01-04 00:21:17.44	55.59	22.68	-39.4	-41.6	21.9	6.01e-01	0	56	0	324009984	50	4632
2026-01-04 00:21:18.45	55.85	22.78	-39.4	-41.6	22.0	6.01e-01	0	57	0	326107136	50	4636
2026-01-04 00:21:19.46	56.11	22.88	-39.5	-41.7	21.8	6.01e-01	0	56	0	327680000	50	4696
2026-01-04 00:21:20.47	56.37	22.98	-39.5	-41.7	21.9	6.00e-01	0	56	0	329777152	50	4681
2026-01-04 00:21:21.47	56.63	23.08	-39.4	-41.6	21.9	6.01e-01	0	56	0	331874304	50	4632
2026-01-04 00:21:22.48	56.90	23.18	-39.4	-41.6	22.0	6.00e-01	0	56	0	333447168	50	4605
2026-01-04 00:21:23.49	57.16	23.28	-39.5	-41.7	21.9	6.00e-01	0	57	0	335544320	50	4671
2026-01-04 00:21:24.51	57.43	23.38	-39.5	-41.7	21.9	6.03e-01	0	57	0	337117184	50	4683
2026-01-04 00:21:25.52	57.70	23.48	-39.5	-41.7	21.9	6.01e-01	0	57	0	339214336	50	4664
2026-01-04 00:21:26.53	57.98	23.58	-39.6	-41.8	21.8	6.00e-01	0	56	0	341311488	50	4743
2026-01-04 00:21:27.54	58.25	23.68	-39.6	-41.8	21.8	6.02e-01	0	56	0	342884352	50	4734
2026-01-04 00:21:28.55	58.53	23.78	-39.5	-41.7	21.9	6.03e-01	0	56	0	344981504	50	4681
2026-01-04 00:21:29.56	58.80	23.88	-39.6	-41.9	21.7	6.01e-01	0	56	0	347078656	50	4781
2026-01-04 00:21:30.57	59.08	23.98	-39.6	-41.9	21.7	6.02e-01	0	56	0	348651520	50	4763
2026-01-04 00:21:31.57	59.36	24.07	-39.6	-41.8	21.8	6.01e-01	0	56	0	350748672	50	4723
2026-01-04 00:21:32.58	59.65	24.17	-39.6	-41.9	21.7	6.02e-01	0	56	0	352321536	50	4772
2026-01-04 00:21:33.59	59.93	24.27	-39.6	-41.9	21.7	6.02e-01	0	56	0	354418688	50	4770
2026-01-04 00:21:34.60	60.22	24.37	-39.7	-42.0	21.6	6.01e-01	0	56	0	356515840	50	4821
2026-01-04 00:21:35.61	60.51	24.46	-39.7	-41.9	21.7	6.01e-01	0	56	0	358088704	50	4781
2026-01-04 00:21:36.62	60.80	24.56	-39.7	-42.0	21.6	6.01e-01	0	56	0	360185856	50	4821
2026-01-04 00:21:37.63	61.09	24.66	-39.7	-41.9	21.7	6.01e-01	0	56	0	361758720	50	4789
2026-01-04 00:21:38.65	61.39	24.75	-39.6	-41.8	21.8	6.00e-01	0	56	0	363855872	50	4712
2026-01-04 00:21:39.66	61.68	24.85	-39.6	-41.8	21.7	6.02e-01	0	56	0	365953024	50	4753
2026-01-04 00:21:40.66	61.98	24.94	-39.7	-41.9	21.7	6.01e-01	0	56	0	367525888	50	4804
2026-01-04 00:21:41.67	62.28	25.04	-39.7	-42.0	21.6	6.01e-01	0	56	0	369623040	50	4816
2026-01-04 00:21:42.68	62.58	25.13	-39.7	-41.9	21.7	6.01e-01	0	56	0	371720192	50	4778
2026-01-04 00:21:43.69	62.88	25.22	-39.6	-41.9	21.7	6.04e-01	0	56	0	373293056	50	4770
2026-01-04 00:21:44.70	63.19	25.32	-39.6	-41.9	21.7	6.01e-01	0	56	0	375390208	50	4761
2026-01-04 00:21:45.71	63.49	25.41	-39.6	-41.9	21.7	6.01e-01	0	57	0	376963072	50	4769
2026-01-04 00:21:46.72	63.80	25.50	-39.5	-41.7	21.9	6.01e-01	0	56	0	379060224	50	4687
2026-01-04 00:21:47.73	64.11	25.59	-39.6	-41.8	21.8	6.01e-01	0	56	0	380633088	50	4745
2026-01-04 00:21:48.74	64.42	25.69	-39.7	-42.0	21.6	6.02e-01	0	57	0	382730240	50	4827
2026-01-04 00:21:49.75	64.74	25.78	-39.6	-41.8	21.8	6.00e-01	0	57	0	384827392	50	4744
2026-01-04 00:21:50.76	65.06	25.87	-39.5	-41.6	22.0	6.00e-01	0	56	0	386400256	50	4641
2026-01-04 00:21:51.77	65.37	25.96	-39.5	-41.7	21.9	6.03e-01	0	57	0	388497408	50	4689
2026-01-04 00:21:52.78	65.69	26.05	-39.6	-41.8	21.8	6.00e-01	0	57	0	390070272	50	4749
2026-01-04 00:21:53.79	66.02	26.13	-39.7	-41.9	21.7	6.02e-01	0	56	0	392167424	50	4770
2026-01-04 00:21:54.80	66.34	26.22	-39.6	-41.9	21.8	5.99e-01	0	57	0	394264576	50	4767
2026-01-04 00:21:55.81	66.66	26.31	-39.7	-42.0	21.7	5.98e-01	0	57	0	395837440	50	4831
2026-01-04 00:21:56.82	66.99	26.40	-39.7	-41.9	21.7	6.03e-01	0	56	0	397934592	50	4812
2026-01-04 00:21:57.83	67.32	26.48	-39.5	-41.6	21.2	6.01e-01	0	57	0	400031744	50	4621
2026-01-04 00:21:58.83	67.65	26.57	-39.6	-41.9	21.8	6.04e-01	0	57	0	401604608	50	4761
2026-01-04 00:21:59.84	67.98	26.65	-39.7	-42.0	21.7	6.02e-01	0	57	0	403701760	50	4816
2026-01-04 00:22:00.85	68.32	26.73	-39.7	-41.9	21.7	6.00e-01	0	57	0	405274624	50	4794
2026-01-04 00:22:01.86	68.65	26.82	-39.7	-41.9	21.7	6.01e-01	0	56	0	407371776	50	4775
2026-01-04 00:22:02.87	68.99	26.90	-39.7	-41.9	21.8	6.02e-01	0	56	0	409468928	50	4770
2026-01-04 00:22:03.88	69.33	26.98	-39.7	-41.9	21.7	6.03e-01	0	56	0	411041792	50	4794
2026-01-04 00:22:04.89	69.67	27.06	-39.5	-41.7	22.0	6.02e-01	0	57	0	413138944	50	4683
2026-01-04 00:22:05.90	70.02	27.14	-39.5	-41.7	22.0	6.02e-01	0	56	0	415236096	50	4672
2026-01-04 00:22:06.91	70.36	27.22	-39.6	-41.8	21.8	6.02e-01	0	57	0	416808960	50	4750
2026-01-04 00:22:07.92	70.71	27.30	-39.7	-41.9	21.7	6.02e-01	0	57	0	418906112	50	4811
2026-01-04 00:22:08.93	71.06	27.38	-39.5	-41.7	21.9	6.03e-01	0	56	0	420478976	50	4691
2026-01-04 00:22:09.94	71.41	27.46	-39.5	-41.7	21.9	6.00e-01	0	56	0	422576128	50	4686
2026-01-04 00:22:10.95	71.76	27.53	-39.7	-41.9	21.8	6.04e-01	0	57	0	424673280	50	4801
2026-01-04 00:22:11.96	72.11	27.61	-39.6	-41.7	21.9	6.02e-01	0	57	0	426246144	50	4690
2026-01-04 00:22:12.97	72.47	27.68	-39.4	-41.6	22.1	6.02e-01	0	57	0	428343296	50	4608
2026-01-04 00:22:13.98	72.83	27.75	-39.6	-41.8	21.9	6.01e-01	0	57	0	429916160	50	4718
2026-01-04 00:22:14.99	73.19	27.83	-39.6	-41.7	21.9	6.02e-01	0	56	0	432013312	50	4693
2026-01-04 00:22:15.99	73.54	27.90	-39.5	-41.6	22.0	6.02e-01	0	56	0	434110464	50	4622
2026-01-04 00:22:17.00	73.91	27.97	-39.6	-41.8	21.8	6.01e-01	0	57	0	435683328	50	4727
2026-01-04 00:22:18.01	74.27	28.04	-39.4	-41.6	22.0	6.02e-01	0	56	0	437780480	50	4616
2026-01-04 00:22:19.02	74.64	28.10	-39.4	-41.6	22.1	6.01e-01	0	57	0	439353344	50	4607
2026-01-04 00:22:20.03	75.00	28.17	-39.6	-41.8	21.9	6.01e-01	0	56	0	441450496	50	4716
2026-01-04 00:22:21.04	75.37	28.24	-39.5	-41.6	22.0	6.04e-01	0	57	0	443547648	50	4626
2026-01-04 00:22:22.05	75.74	28.30	-39.4	-41.5	22.2	6.03e-01	0	56	0	445120512	50	4551
2026-01-04 00:22:23.06	76.12	28.37	-39.4	-41.6	22.1	6.03e-01	0	56	0	447217664	50	4619
2026-01-04 00:22:24.07	76.49	28.43	-39.6	-41.8	21.9	6.03e-01	0	56	0	448790528	50	4706
2026-01-04 00:22:25.08	76.86	28.49	-39.5	-41.7	22.0	6.01e-01	0	56	0	450887680	50	4664
2026-01-04 00:22:26.09	77.24	28.55	-39.5	-41.6	22.1	6.02e-01	0	57	0	452984832	50	4615
2026-01-04 00:22:27.10	77.62	28.61	-39.4	-41.5	22.2	6.02e-01	0	57	0	454557696	50	4574
2026-01-04 00:22:28.11	78.00	28.67	-39.4	-41.6	22.1	6.03e-01	0	56	0	456654848	50	4616
2026-01-04 00:22:29.12	78.38	28.73	-39.4	-41.6	22.1	6.01e-01	0	56	0	458227712	50	4619
2026-01-04 00:22:30.13	78.76	28.78	-39.4	-41.6	22.1	5.99e-01	0	56	0	460324864	50	4610
2026-01-04 00:22:31.14	79.14	28.84	-41.0	-43.7	21.2	6.01e-01	0	56	0	462422016	52	5252
2026-01-04 00:22:32.15	79.53	28.89	-39.4	-41.4	22.2	6.01e-01	0	56	0	463994880	50	4542
2026-01-04 00:22:33.16	79.92	28.94	-39.3	-41.4	22.3	5.99e-01	0	57	0	466092032	50	4499
2026-01-04 00:22:34.17	80.30	29.00	-39.3	-41.4	22.2	6.01e-01	0	56	0	468189184	50	4531
2026-01-04 00:22:35.18	80.69	29.04	-39.2	-41.3	22.4	6.01e-01	0	56	0	469762048	50	4476
2026-01-04 00:22:36.19	81.08	29.09	-39.3	-41.4	22.3	6.04e-01	0	57	0	471859200	50	4525
2026-01-04 00:22:37.20	81.47	29.14	-39.3	-41.4	22.3	6.02e-01	0	57	0	473432064	50	4516
2026-01-04 00:22:38.21	81.86	29.19	-39.2	-41.3	22.3	6.00e-01	0	56	0	475529216	50	4473
2026-01-04 00:22:39.22	82.26	29.23	-39.2	-41.2	22.5	6.01e-01	0	56	0	477626368	50	4407
2026-01-04 00:22:40.23	82.65	29.27	-39.3	-41.3	22.4	6.01e-01	0	57	0	479199232	50	4492
2026-01-04 00:22:41.24	83.05	29.32	-39.2	-41.2	22.5	6.02e-01	0	56	0	481296384	50	4437
2026-01-04 00:22:42.25	83.45	29.36	-39.3	-41.4	22.4	6.03e-01	0	56	0	483393536	50	4497
2026-01-04 00:22:43.26	83.84	29.40	-39.3	-41.4	22.3	6.00e-01	0	56	0	484966400	50	4514
2026-01-04 00:22:44.27	84.24	29.43	-39.1	-41.2	22.5	5.97e-01	0	56	0	487063552	50	4394
2026-01-04 00:22:45.28	84.64	29.47	-39.2	-41.2	22.4	6.03e-01	0	57	0	488636416	50	4437
2026-01-04 00:22:46.29	85.04	29.50	-39.2	-41.3	22.4	6.01e-01	0	56	0	490733568	50	4463
2026-01-04 00:22:47.30	85.44	29.54	-39.1	-41.1	22.6	6.00e-01	0	56	0	492830720	50	4360
2026-01-04 00:22:48.31	85.85	29.57	-39.2	-41.3	22.5	6.02e-01	0	57	0	494403584	50	4443
2026-01-04 00:22:49.32	86.25	29.60	-39.2	-41.3	22.5	6.01e-01	0	56	0	496500736	50	4447
2026-01-04 00:22:50.33	86.65	29.63	-39.2	-41.2	22.6	6.02e-01	0	57	0	498073600	50	4405
2026-01-04 00:22:51.34	87.06	29.66	-39.1	-41.1	22.6	6.01e-01	0	57	0	500170752	50	4381
2026-01-04 00:22:52.35	87.46	29.68	-39.1	-41.2	22.6	6.00e-01	0	56	0	502267904	50	4400
2026-01-04 00:22:53.36	87.87	29.71	-39.1	-41.1	22.6	5.99e-01	0	56	0	503840768	50	4388
2026-01-04 00:22:54.37	88.27	29.73	-39.2	-41.2	22.6	5.99e-01	0	57	0	505937920	50	4403
2026-01-04 00:22:55.38	88.68	29.75	-39.1	-41.2	22.6	5.99e-01	0	56	0	507510784	50	4392
2026-01-04 00:22:56.38	89.09	29.77	-39.1	-41.1	22.6	6.02e-01	0	57	0	509607936	50	4384
2026-01-04 00:22:57.39	89.49	29.79	-39.0	-41.0	22.8	6.01e-01	0	57	0	511705088	50	4296
2026-01-04 00:22:58.40	89.90	29.81	-39.1	-41.2	22.6	6.02e-01	0	56	0	513277952	49	4656
2026-01-04 00:22:59.41	90.31	29.82	-39.2	-41.3	22.4	6.03e-01	0	56	0	515375104	49	4715
2026-01-04 00:23:00.42	90.72	29.84	-39.0	-41.0	22.8	6.03e-01	0	57	0	516947968	49	4551
2026-01-04 00:23:01.43	91.13	29.85	-39.0	-41.0	22.7	6.03e-01	0	56	0	519045120	49	4588
2026-01-04 00:23:02.44	91.54	29.86	-39.1	-41.1	22.6	6.01e-01	0	56	0	521142272	49	4640
2026-01-04 00:23:03.45	91.95	29.87	-39.0	-41.0	22.8	6.04e-01	0	56	0	522715136	49	4560
2026-01-04 00:23:04.46	92.36	29.88	-39.0	-41.0	22.7	6.03e-01	0	56	0	524812288	49	4590
2026-01-04 00:23:05.47	92.77	29.89	-39.1	-41.1	22.7	5.99e-01	0	57	0	526385152	49	4601
2026-01-04 00:23:06.48	93.19	29.89	-39.0	-41.0	22.7	6.02e-01	0	56	0	528482304	49	4566
2026-01-04 00:23:07.49	93.60	29.89	-38.9	-40.8	22.9	6.00e-01	0	57	0	530579456	49	4491
2026-01-04 00:23:08.50	94.01	29.90	-39.2	-41.3	22.5	5.99e-01	0	56	0	532152320	49	4706
2026-01-04 00:23:09.51	94.42	29.90	-39.0	-40.9	22.8	6.04e-01	0	57	0	534249472	49	4531
2026-01-04 00:23:10.52	94.83	29.90	-39.0	-41.0	22.8	6.01e-01	0	57	0	536346624	49	4556
2026-01-04 00:23:11.53	95.24	29.89	-39.0	-41.0	22.7	6.02e-01	0	56	0	537919488	49	4579
2026-01-04 00:23:12.54	95.65	29.89	-39.1	-41.0	22.7	6.03e-01	0	57	0	540016640	49	4598
2026-01-04 00:23:13.55	96.06	29.88	-39.0	-41.0	22.7	6.01e-01	0	57	0	541589504	49	4595
2026-01-04 00:23:14.56	96.48	29.88	-39.0	-40.9	22.8	6.00e-01	0	56	0	543686656	49	4524
2026-01-04 00:23:15.57	96.89	29.87	-39.0	-40.9	22.8	6.01e-01	0	57	0	545783808	49	4538
2026-01-04 00:23:16.58	97.30	29.86	-39.0	-40.9	22.8	6.00e-01	0	57	0	547356672	49	4542
2026-01-04 00:23:17.59	97.71	29.84	-39.0	-41.0	22.7	6.01e-01	0	57	0	549453824	49	4591
2026-01-04 00:23:18.60	98.12	29.83	-39.0	-40.9	22.8	6.01e-01	0	56	0	551550976	49	4538
2026-01-04 00:23:19.61	98.53	29.81	-38.9	-40.9	22.9	6.01e-01	0	57	0	553123840	49	4522
2026-01-04 00:23:20.62	98.94	29.80	-39.0	-41.0	22.7	6.02e-01	0	56	0	555220992	49	4578
2026-01-04 00:23:21.62	99.34	29.78	-38.9	-40.9	22.9	6.03e-01	0	56	0	556793856	49	4502
2026-01-04 00:23:22.63	99.75	29.76	-39.1	-41.1	22.7	6.01e-01	0	57	0	558891008	49	4601
2026-01-04 00:23:23.64	100.16	29.74	-39.1	-41.1	22.7	6.01e-01	0	57	0	560988160	49	4627
2026-01-04 00:23:24.65	100.56	29.72	-38.8	-40.8	23.0	6.02e-01	0	56	0	562561024	49	4448
2026-01-04 00:23:25.66	100.97	29.69	-39.0	-41.0	22.8	6.02e-01	0	57	0	564658176	49	4559
2026-01-04 00:23:26.67	101.38	29.67	-39.1	-41.1	22.6	5.99e-01	0	56	0	566231040	49	4632
2026-01-04 00:23:27.68	101.78	29.64	-39.0	-40.9	22.8	6.00e-01	0	57	0	568328192	49	4533
2026-01-04 00:23:28.69	102.19	29.61	-39.0	-40.9	22.8	6.00e-01	0	57	0	570425344	49	4544
2026-01-04 00:23:29.70	102.59	29.58	-39.0	-40.9	22.8	6.01e-01	0	57	0	571998208	49	4540
2026-01-04 00:23:30.71	102.99	29.55	-38.9	-40.8	22.9	6.01e-01	0	57	0	574095360	49	4481
2026-01-04 00:23:31.72	103.40	29.52	-39.1	-41.1	22.7	6.02e-01	0	57	0	575668224	49	4605
2026-01-04 00:23:32.73	103.80	29.48	-39.0	-41.0	22.7	6.01e-01	0	57	0	577765376	49	4573
2026-01-04 00:23:33.74	104.20	29.44	-39.0	-40.9	22.8	6.02e-01	0	56	0	579862528	49	4530
2026-01-04 00:23:34.75	104.60	29.41	-39.0	-40.9	22.8	6.00e-01	0	57	0	581435392	49	4543
2026-01-04 00:23:35.76	105.00	29.37	-39.0	-40.9	22.8	6.00e-01	0	57	0	583532544	49	4532
2026-01-04 00:23:36.77	105.39	29.33	-38.9	-40.9	22.9	6.02e-01	0	57	0	585105408	49	4520
2026-01-04 00:23:37.78	105.79	29.29	-38.9	-40.9	22.8	6.00e-01	0	57	0	587202560	49	4517
2026-01-04 00:23:38.79	106.19	29.24	-38.9	-40.9	22.8	6.02e-01	0	56	0	589299712	49	4521
2026-01-04 00:23:39.80	106.58	29.20	-38.8	-40.8	23.0	6.01e-01	0	57	0	590872576	49	4447
2026-01-04 00:23:40.81	106.97	29.15	-38.9	-40.9	22.8	6.02e-01	0	57	0	592969728	49	4519
2026-01-04 00:23:41.82	107.37	29.11	-39.0	-41.0	22.7	6.02e-01	0	57	0	594542592	49	4569
2026-01-04 00:23:42.83	107.76	29.06	-38.9	-40.8	22.9	6.01e-01	0	57	0	596639744	49	4485
2026-01-04 00:23:43.84	108.15	29.01	-38.9	-40.8	22.9	6.03e-01	0	57	0	598736896	49	4484
2026-01-04 00:23:44.85	108.54	28.96	-39.0	-41.0	22.8	6.01e-01	0	57	0	600309760	49	4563
2026-01-04 00:23:45.86	108.92	28.91	-39.1	-41.1	22.6	6.00e-01	0	57	0	602406912	49	4620
2026-01-04 00:23:46.87	109.31	28.85	-39.0	-41.0	22.7	6.02e-01	0	56	0	604504064	49	4555
2026-01-04 00:23:47.87	109.69	28.80	-39.0	-41.0	22.7	6.01e-01	0	57	0	606076928	49	4572
2026-01-04 00:23:48.88	110.07	28.74	-39.0	-40.9	22.7	6.00e-01	0	57	0	608174080	49	4545
2026-01-04 00:23:49.89	110.46	28.69	-38.9	-40.9	21.8	6.02e-01	0	57	0	609746944	49	4508
2026-01-04 00:23:50.90	110.84	28.63	-39.1	-41.1	22.6	6.00e-01	0	57	0	611844096	49	4620
2026-01-04 00:23:51.91	111.22	28.57	-39.1	-41.1	22.6	5.99e-01	0	57	0	613941248	49	4636
2026-01-04 00:23:52.92	111.60	28.51	-39.1	-41.1	22.6	5.99e-01	0	57	0	615514112	49	4625
2026-01-04 00:23:53.94	111.98	28.45	-39.0	-41.0	22.7	6.03e-01	0	57	0	617611264	49	4563
2026-01-04 00:23:54.94	112.35	28.38	-38.9	-40.9	22.9	6.00e-01	0	57	0	619708416	49	4503
2026-01-04 00:23:55.95	112.72	28.32	-39.1	-41.0	22.7	5.99e-01	0	57	0	621281280	49	4597
2026-01-04 00:23:56.96	113.09	28.25	-39.1	-41.0	22.7	6.01e-01	0	57	0	623378432	49	4597
2026-01-04 00:23:57.97	113.46	28.19	-39.0	-40.9	22.8	6.03e-01	0	57	0	624951296	49	4536
2026-01-04 00:23:58.98	113.83	28.12	-39.0	-41.0	22.8	6.02e-01	0	57	0	627048448	49	4552
2026-01-04 00:23:59.99	114.20	28.05	-39.1	-41.0	22.6	6.01e-01	0	57	0	629145600	49	4597
2026-01-04 00:24:01.00	114.56	27.98	-39.0	-41.0	22.7	6.01e-01	0	56	0	630718464	49	4577
2026-01-04 00:24:02.01	114.93	27.91	-39.0	-41.0	22.7	6.02e-01	0	57	0	632815616	49	4572
2026-01-04 00:24:03.02	115.29	27.84	-39.0	-41.0	22.7	6.01e-01	0	57	0	634388480	49	4594
2026-01-04 00:24:04.03	115.65	27.77	-39.1	-41.1	22.6	6.00e-01	0	57	0	636485632	49	4633
2026-01-04 00:24:05.04	116.01	27.70	-39.1	-41.1	22.6	6.01e-01	0	57	0	638582784	49	4624
2026-01-04 00:24:06.05	116.37	27.62	-39.1	-41.0	22.6	6.02e-01	0	57	0	640155648	49	4583
2026-01-04 00:24:07.06	116.72	27.55	-39.1	-41.1	22.6	6.02e-01	0	57	0	642252800	49	4601
2026-01-04 00:24:08.07	117.08	27.47	-39.2	-41.2	22.5	6.02e-01	0	57	0	643825664	49	4681
2026-01-04 00:24:09.07	117.43	27.40	-39.2	-41.2	22.5	5.98e-01	0	56	0	645922816	49	4696
2026-01-04 00:24:10.08	117.78	27.32	-39.2	-41.2	22.5	6.01e-01	0	57	0	648019968	49	4683
2026-01-04 00:24:11.10	118.13	27.24	-39.2	-41.2	22.6	6.00e-01	0	56	0	649592832	49	4653
2026-01-04 00:24:12.10	118.47	27.16	-39.1	-41.1	22.7	5.99e-01	0	57	0	651689984	49	4620
2026-01-04 00:24:13.11	118.82	27.08	-39.3	-41.3	22.4	6.03e-01	0	57	0	653262848	49	4738
2026-01-04 00:24:14.12	119.16	27.00	-39.2	-41.2	22.5	6.01e-01	0	57	0	655360000	49	4688
2026-01-04 00:24:15.13	119.51	26.92	-39.3	-41.4	22.4	6.00e-01	0	57	0	657457152	49	4761
2026-01-04 00:24:16.14	119.85	26.83	-39.4	-41.5	22.3	6.00e-01	0	56	0	659030016	49	4851
2026-01-04 00:24:17.15	120.18	26.75	-39.2	-41.3	22.5	6.00e-01	0	56	0	661127168	49	4710
2026-01-04 00:24:18.16	120.52	26.67	-39.3	-41.3	22.5	5.99e-01	0	57	0	662700032	49	4726
2026-01-04 00:24:19.17	120.85	26.58	-39.4	-41.5	22.3	6.03e-01	0	57	0	664797184	49	4819
2026-01-04 00:24:20.18	121.19	26.50	-39.5	-41.6	22.2	6.00e-01	0	56	0	666894336	49	4889
2026-01-04 00:24:21.19	121.52	26.41	-39.4	-41.5	22.3	6.00e-01	0	57	0	668467200	49	4844
2026-01-04 00:24:22.20	121.85	26.32	-39.3	-41.3	22.5	5.99e-01	0	57	0	670564352	49	4720
2026-01-04 00:24:23.20	122.17	26.24	-39.2	-41.2	22.6	6.02e-01	0	57	0	672661504	49	4691
2026-01-04 00:24:24.22	122.50	26.15	-39.3	-41.4	22.4	6.03e-01	0	56	0	674234368	49	4785
2026-01-04 00:24:25.23	122.82	26.06	-39.4	-41.5	22.3	6.01e-01	0	57	0	676331520	49	4848
2026-01-04 00:24:26.24	123.15	25.97	-39.5	-41.6	22.2	6.01e-01	0	57	0	677904384	49	4886
2026-01-04 00:24:27.25	123.47	25.88	-39.5	-41.6	22.2	6.00e-01	0	56	0	680001536	49	4909
2026-01-04 00:24:28.26	123.78	25.79	-39.5	-41.5	22.3	6.00e-01	0	57	0	682098688	49	4864
2026-01-04 00:24:29.27	124.10	25.70	-39.4	-41.5	22.3	6.00e-01	0	57	0	683671552	49	4847
2026-01-04 00:24:30.27	124.41	25.61	-39.4	-41.5	22.3	5.99e-01	0	57	0	685768704	49	4837
2026-01-04 00:24:31.28	124.72	25.51	-39.3	-41.4	22.4	6.02e-01	0	57	0	687865856	49	4779
2026-01-04 00:24:32.29	125.03	25.42	-39.3	-41.4	22.5	6.02e-01	0	57	0	689438720	49	4776
2026-01-04 00:24:33.30	125.34	25.33	-39.4	-41.5	22.3	6.00e-01	0	57	0	691535872	49	4859
2026-01-04 00:24:34.31	125.65	25.23	-39.5	-41.7	22.2	6.03e-01	0	57	0	693108736	49	4927
2026-01-04 00:24:35.32	125.95	25.14	-39.5	-41.6	22.2	6.03e-01	0	57	0	695205888	49	4918
2026-01-04 00:24:36.33	126.26	25.04	-39.5	-41.6	22.2	6.00e-01	0	57	0	697303040	49	4879
2026-01-04 00:24:37.34	126.56	24.95	-39.5	-41.6	22.2	6.03e-01	0	57	0	698875904	49	4876
2026-01-04 00:24:38.35	126.86	24.85	-39.4	-41.5	22.3	6.03e-01	0	57	0	700973056	49	4838
2026-01-04 00:24:39.36	127.16	24.76	-39.5	-41.6	22.2	6.00e-01	0	57	0	702545920	49	4896
2026-01-04 00:24:40.37	127.45	24.66	-39.6	-41.7	22.1	6.01e-01	0	56	0	704643072	49	4949
2026-01-04 00:24:41.38	127.75	24.56	-39.5	-41.6	22.2	6.01e-01	0	57	0	706740224	49	4909
2026-01-04 00:24:42.39	128.04	24.47	-39.3	-41.4	22.4	6.03e-01	0	57	0	708313088	49	4775
2026-01-04 00:24:43.40	128.33	24.37	-39.4	-41.5	22.3	6.02e-01	0	57	0	710410240	49	4823
2026-01-04 00:24:44.41	128.62	24.27	-39.5	-41.7	22.2	6.01e-01	0	57	0	711983104	49	4927
2026-01-04 00:24:45.42	128.90	24.17	-39.5	-41.6	22.2	6.01e-01	0	57	0	714080256	49	4926
2026-01-04 00:24:46.43	129.19	24.08	-39.6	-41.8	22.1	5.98e-01	0	57	0	716177408	49	4987
2026-01-04 00:24:47.44	129.47	23.98	-39.6	-41.7	22.1	6.01e-01	0	56	0	717750272	49	4954
2026-01-04 00:24:48.45	129.75	23.88	-39.5	-41.6	22.2	6.02e-01	0	57	0	719847424	49	4901
2026-01-04 00:24:49.46	130.03	23.78	-39.5	-41.6	22.2	6.01e-01	0	57	0	721420288	49	4880
2026-01-04 00:24:50.47	130.31	23.68	-39.5	-41.6	22.2	6.02e-01	0	57	0	723517440	49	4891
2026-01-04 00:24:51.47	130.58	23.58	-39.6	-41.7	22.0	6.03e-01	0	57	0	725614592	49	4976
2026-01-04 00:24:52.48	130.86	23.48	-39.6	-41.8	22.0	6.02e-01	0	57	0	727187456	49	5001
2026-01-04 00:24:53.50	131.13	23.38	-39.6	-41.7	22.0	6.01e-01	0	57	0	729284608	49	4983
2026-01-04 00:24:54.51	131.40	23.28	-39.6	-41.7	22.1	6.02e-01	0	56	0	730857472	49	4945
2026-01-04 00:24:55.51	131.67	23.18	-39.5	-41.6	22.2	6.01e-01	0	57	0	732954624	49	4897
2026-01-04 00:24:56.52	131.93	23.08	-39.5	-41.6	22.1	6.02e-01	0	57	0	735051776	49	4913
2026-01-04 00:24:57.53	132.20	22.98	-39.5	-41.7	22.1	6.01e-01	0	57	0	736624640	49	4941
2026-01-04 00:24:58.55	132.46	22.88	-39.6	-41.7	22.0	6.01e-01	0	57	0	738721792	49	4961
2026-01-04 00:24:59.55	132.72	22.78	-39.5	-41.6	22.2	6.02e-01	0	57	0	740818944	49	4878
2026-01-04 00:25:00.56	132.98	22.67	-39.4	-41.5	22.3	6.02e-01	0	57	0	742391808	49	4823
2026-01-04 00:25:01.58	133.24	22.57	-39.4	-41.5	22.2	6.02e-01	0	57	0	744488960	49	4818
2026-01-04 00:25:02.59	133.50	22.47	-39.3	-41.6	21.9	6.00e-01	0	57	0	746061824	49	4906
2026-01-04 00:25:03.60	133.76	22.37	-39.4	-41.7	22.1	6.02e-01	0	57	0	748158976	49	4933
2026-01-04 00:25:04.60	134.01	22.27	-39.6	-41.7	21.9	6.00e-01	0	57	0	750256128	49	4963
2026-01-04 00:25:05.61	134.26	22.17	-39.5	-41.7	22.1	6.00e-01	0	57	0	751828992	49	4944
2026-01-04 00:25:06.62	134.51	22.06	-39.4	-41.7	21.9	6.02e-01	0	57	0	753926144	49	4962
2026-01-04 00:25:07.63	134.75	21.96	-39.6	-41.7	21.9	6.00e-01	0	57	0	756023296	49	4968
2026-01-04 00:25:08.64	135.00	21.86	-39.5	-41.6	22.1	6.02e-01	0	56	0	757596160	49	4920
2026-01-04 00:25:09.65	135.25	21.76	-39.5	-41.5	22.2	6.01e-01	0	56	0	759693312	49	4869
2026-01-04 00:25:10.66	135.49	21.65	-39.4	-41.5	21.7	5.99e-01	0	57	0	761266176	49	4837
2026-01-04 00:25:11.67	135.73	21.55	-39.5	-41.6	22.2	6.00e-01	0	56	0	763363328	49	4873
2026-01-04 00:25:12.68	135.97	21.45	-39.5	-41.6	22.1	6.02e-01	0	57	0	765460480	49	4886
2026-01-04 00:25:13.69	136.21	21.35	-39.5	-41.6	22.1	6.01e-01	0	57	0	767033344	49	4909
2026-01-04 00:25:14.70	136.44	21.24	-39.6	-41.7	22.0	6.00e-01	0	57	0	769130496	49	4956
2026-01-04 00:25:15.71	136.68	21.14	-39.5	-41.7	22.0	5.99e-01	0	57	0	770703360	49	4937
2026-01-04 00:25:16.72	136.91	21.04	-39.5	-41.6	22.1	6.02e-01	0	56	0	772800512	49	4884
2026-01-04 00:25:17.73	137.14	20.94	-39.4	-41.5	22.2	6.01e-01	0	57	0	774897664	49	4847
2026-01-04 00:25:18.74	137.37	20.83	-39.4	-41.5	22.2	6.01e-01	0	57	0	776470528	49	4832
2026-01-04 00:25:19.75	137.60	20.73	-39.3	-41.4	22.3	6.01e-01	0	57	0	778567680	49	4789
2026-01-04 00:25:20.76	137.83	20.63	-39.3	-41.4	22.3	6.01e-01	0	56	0	780140544	49	4798
2026-01-04 00:25:21.77	138.05	20.53	-39.4	-41.5	22.2	6.01e-01	0	56	0	782237696	49	4827
2026-01-04 00:25:22.78	138.28	20.42	-39.4	-41.5	22.2	6.00e-01	0	56	0	784334848	49	4844
2026-01-04 00:25:23.79	138.50	20.32	-39.4	-41.5	22.1	6.00e-01	0	56	0	785907712	49	4864
2026-01-04 00:25:24.80	138.72	20.22	-39.4	-41.5	22.2	6.00e-01	0	57	0	788004864	49	4822
2026-01-04 00:25:25.81	138.94	20.12	-39.4	-41.5	22.2	6.00e-01	0	57	0	789577728	49	4824
2026-01-04 00:25:26.82	139.16	20.01	-39.4	-41.5	22.2	6.03e-01	0	57	0	791674880	49	4829
2026-01-04 00:25:27.83	139.37	19.91	-39.3	-41.4	22.2	6.00e-01	0	56	0	793772032	49	4809
2026-01-04 00:25:28.84	139.59	19.81	-39.3	-41.4	22.3	6.02e-01	0	57	0	795344896	49	4770
2026-01-04 00:25:29.85	139.80	19.71	-39.3	-41.3	22.3	6.03e-01	0	56	0	797442048	49	4744
2026-01-04 00:25:30.86	140.01	19.61	-39.3	-41.4	22.3	6.01e-01	0	56	0	799014912	49	4778
2026-01-04 00:25:31.87	140.22	19.50	-39.3	-41.4	22.3	5.99e-01	0	57	0	801112064	49	4775
2026-01-04 00:25:32.88	140.43	19.40	-39.3	-41.4	22.2	6.01e-01	0	57	0	803209216	49	4809
2026-01-04 00:25:33.89	140.64	19.30	-39.4	-41.5	22.2	6.03e-01	0	57	0	804782080	49	4818
2026-01-04 00:25:34.90	140.85	19.20	-39.4	-41.5	22.2	6.04e-01	0	57	0	806879232	49	4838
2026-01-04 00:25:35.91	141.05	19.10	-39.4	-41.5	22.1	6.03e-01	0	57	0	808976384	49	4843
2026-01-04 00:25:36.92	141.25	19.00	-39.3	-41.4	22.2	6.00e-01	0	56	0	810549248	49	4794
2026-01-04 00:25:37.93	141.46	18.90	-39.3	-41.4	22.2	6.01e-01	0	57	0	812646400	49	4783
2026-01-04 00:25:38.94	141.66	18.80	-39.3	-41.4	22.2	6.00e-01	0	57	0	814219264	49	4779
2026-01-04 00:25:39.95	141.86	18.69	-39.3	-41.4	22.2	6.00e-01	0	57	0	816316416	49	4773
2026-01-04 00:25:40.95	142.05	18.59	-39.2	-41.4	22.2	6.01e-01	0	57	0	818413568	49	4763
2026-01-04 00:25:41.96	142.25	18.49	-39.3	-41.3	22.1	6.00e-01	0	57	0	819986432	49	4752
2026-01-04 00:25:42.97	142.44	18.39	-39.3	-41.3	22.2	6.01e-01	0	56	0	822083584	49	4759
2026-01-04 00:25:43.99	142.64	18.29	-39.3	-41.4	22.2	6.00e-01	0	56	0	823656448	49	4775
2026-01-04 00:25:44.99	142.83	18.19	-39.3	-41.4	22.2	6.00e-01	0	57	0	825753600	49	4775
2026-01-04 00:25:46.00	143.02	18.09	-39.3	-41.4	22.1	6.04e-01	0	57	0	827850752	49	4800
2026-01-04 00:25:47.01	143.21	17.99	-39.2	-41.3	22.2	6.03e-01	0	57	0	829423616	49	4744
2026-01-04 00:25:48.02	143.40	17.89	-39.2	-41.3	22.3	6.02e-01	0	57	0	831520768	49	4723
2026-01-04 00:25:49.03	143.59	17.79	-39.2	-41.3	22.3	6.00e-01	0	57	0	833093632	49	4730
2026-01-04 00:25:50.04	143.77	17.69	-39.1	-41.2	22.3	6.02e-01	0	56	0	835190784	49	4704
2026-01-04 00:25:51.05	143.96	17.59	-39.2	-41.3	22.3	5.99e-01	0	57	0	837287936	49	4712
2026-01-04 00:25:52.06	144.14	17.50	-39.2	-41.3	22.3	6.04e-01	0	57	0	838860800	49	4724
2026-01-04 00:25:53.07	144.32	17.40	-39.2	-41.2	22.3	5.99e-01	0	57	0	840957952	49	4692
2026-01-04 00:25:54.08	144.50	17.30	-39.2	-41.2	22.3	6.01e-01	0	57	0	842530816	49	4693
2026-01-04 00:25:55.09	144.68	17.20	-39.2	-41.2	22.3	5.99e-01	0	57	0	844627968	49	4693
2026-01-04 00:25:56.10	144.86	17.10	-39.2	-41.3	22.3	5.99e-01	0	57	0	846725120	49	4707
2026-01-04 00:25:57.11	145.04	17.00	-39.2	-41.3	22.2	6.03e-01	0	56	0	848297984	49	4717
2026-01-04 00:25:58.12	145.22	16.90	-39.1	-41.3	22.2	6.00e-01	0	57	0	850395136	49	4713
2026-01-04 00:25:59.13	145.39	16.81	-39.1	-41.3	22.1	6.00e-01	0	56	0	852492288	49	4735
2026-01-04 00:26:00.14	145.57	16.71	-39.3	-41.4	22.1	6.03e-01	0	56	0	854065152	49	4778
2026-01-04 00:26:01.15	145.74	16.61	-39.2	-41.4	22.1	6.00e-01	0	57	0	856162304	49	4764
2026-01-04 00:26:02.16	145.91	16.51	-39.3	-41.4	22.1	6.01e-01	0	57	0	857735168	49	4786
2026-01-04 00:26:03.17	146.08	16.42	-39.2	-41.4	22.1	6.02e-01	0	57	0	859832320	49	4768
2026-01-04 00:26:04.18	146.25	16.32	-39.2	-41.4	22.2	6.01e-01	0	57	0	861929472	49	4767
2026-01-04 00:26:05.19	146.42	16.22	-39.2	-41.3	22.2	6.01e-01	0	56	0	863502336	49	4759
2026-01-04 00:26:06.20	146.59	16.13	-39.2	-41.3	22.2	6.02e-01	0	57	0	865599488	49	4738
2026-01-04 00:26:07.21	146.75	16.03	-39.2	-41.3	22.2	6.02e-01	0	56	0	867172352	49	4735
2026-01-04 00:26:08.22	146.92	15.93	-38.9	-41.3	22.2	6.02e-01	0	57	0	869269504	49	4710
2026-01-04 00:26:09.23	147.08	15.84	-38.9	-41.2	22.2	6.01e-01	0	56	0	871366656	49	4694
2026-01-04 00:26:10.24	147.24	15.74	-39.2	-41.2	22.2	6.01e-01	0	57	0	872939520	49	4700
2026-01-04 00:26:11.25	147.40	15.65	-39.2	-41.2	22.2	6.00e-01	0	56	0	875036672	49	4705
2026-01-04 00:26:12.26	147.56	15.55	-39.2	-41.3	22.1	6.01e-01	0	57	0	877133824	49	4749
2026-01-04 00:26:13.27	147.72	15.46	-39.2	-41.3	22.1	6.01e-01	0	56	0	878706688	49	4746
2026-01-04 00:26:14.28	147.88	15.36	-39.3	-41.4	22.0	6.01e-01	0	57	0	880803840	49	4785
2026-01-04 00:26:15.29	148.04	15.27	-39.2	-41.4	22.1	6.02e-01	0	57	0	882376704	49	4769
2026-01-04 00:26:16.30	148.20	15.17	-39.2	-41.4	22.0	6.00e-01	0	57	0	884473856	49	4779
2026-01-04 00:26:17.31	148.35	15.08	-39.3	-41.5	21.9	5.99e-01	0	56	0	886571008	49	4816
2026-01-04 00:26:18.32	148.51	14.99	-39.3	-41.5	21.9	6.02e-01	0	56	0	888143872	49	4825
2026-01-04 00:26:19.33	148.66	14.89	-39.3	-41.5	21.9	6.01e-01	0	56	0	890241024	49	4832
2026-01-04 00:26:20.34	148.81	14.80	-39.3	-41.4	21.9	6.02e-01	0	57	0	892338176	49	4811
2026-01-04 00:26:21.35	148.96	14.71	-39.3	-41.4	22.0	6.01e-01	0	56	0	893911040	49	4791
2026-01-04 00:26:22.36	149.11	14.61	-39.2	-41.4	21.9	6.02e-01	0	57	0	896008192	49	4781
2026-01-04 00:26:23.37	149.26	14.52	-39.3	-41.4	21.9	6.01e-01	0	57	0	897581056	49	4792
2026-01-04 00:26:24.38	149.41	14.43	-39.2	-41.4	21.9	6.00e-01	0	56	0	899678208	49	4786
2026-01-04 00:26:25.39	149.56	14.33	-39.2	-41.4	22.0	6.02e-01	0	57	0	901775360	49	4771
2026-01-04 00:26:26.40	149.71	14.24	-39.3	-41.5	21.8	6.01e-01	0	56	0	903348224	49	4859
2026-01-04 00:26:27.41	149.85	14.15	-39.4	-41.6	21.8	6.00e-01	0	57	0	905445376	49	4888
2026-01-04 00:26:28.42	150.00	14.06	-39.4	-41.6	21.7	6.02e-01	0	57	0	907018240	49	4891
2026-01-04 00:26:29.43	150.14	13.97	-39.4	-41.6	21.8	6.01e-01	0	57	0	909115392	49	4879
2026-01-04 00:26:30.44	150.28	13.88	-39.4	-41.6	21.7	6.01e-01	0	57	0	911212544	49	4899
2026-01-04 00:26:31.45	150.42	13.78	-39.4	-41.6	21.7	6.03e-01	0	57	0	912785408	49	4926
2026-01-04 00:26:32.46	150.56	13.69	-39.4	-41.6	21.7	6.01e-01	0	57	0	914882560	49	4920
2026-01-04 00:26:33.47	150.70	13.60	-39.4	-41.7	21.6	6.01e-01	0	57	0	916455424	49	4946
2026-01-04 00:26:34.47	150.84	13.51	-39.5	-41.7	21.6	6.01e-01	0	57	0	918552576	49	4960
2026-01-04 00:26:35.48	150.98	13.42	-39.4	-41.6	21.6	6.00e-01	0	57	0	920649728	49	4923
2026-01-04 00:26:36.49	151.12	13.33	-39.5	-41.7	21.6	6.02e-01	0	57	0	922222592	49	4969
2026-01-04 00:26:37.50	151.26	13.24	-39.4	-41.7	21.6	6.03e-01	0	57	0	924319744	49	4939
2026-01-04 00:26:38.51	151.39	13.15	-39.5	-41.7	21.6	6.00e-01	0	57	0	925892608	49	4963
2026-01-04 00:26:39.52	151.53	13.07	-39.5	-41.7	21.5	6.00e-01	0	57	0	927989760	49	4968
2026-01-04 00:26:40.53	151.66	12.98	-39.4	-41.7	21.5	6.02e-01	0	57	0	930086912	49	4950
2026-01-04 00:26:41.54	151.79	12.89	-39.4	-41.6	21.6	6.02e-01	0	57	0	931659776	49	4922
2026-01-04 00:26:42.55	151.93	12.80	-39.4	-41.7	21.6	6.03e-01	0	57	0	933756928	49	4935
2026-01-04 00:26:43.56	152.06	12.71	-39.4	-41.7	21.5	6.00e-01	0	57	0	935329792	49	4956
2026-01-04 00:26:44.57	152.19	12.62	-39.4	-41.7	21.5	6.02e-01	0	56	0	937426944	49	4951
2026-01-04 00:26:45.58	152.32	12.53	-39.4	-41.7	21.5	6.03e-01	0	57	0	939524096	49	4962
2026-01-04 00:26:46.59	152.45	12.45	-39.4	-41.7	21.5	6.00e-01	0	57	0	941096960	49	4942
2026-01-04 00:26:47.60	152.58	12.36	-39.4	-41.6	21.6	6.01e-01	0	56	0	943194112	49	4916
2026-01-04 00:26:48.61	152.70	12.27	-39.5	-41.7	21.4	6.00e-01	0	57	0	945291264	49	4969
2026-01-04 00:26:49.62	152.83	12.19	-39.4	-41.7	21.5	5.99e-01	0	57	0	946864128	49	4956
2026-01-04 00:26:50.63	152.96	12.10	-39.4	-41.7	21.5	6.02e-01	0	57	0	948961280	49	4932
2026-01-04 00:26:51.63	153.08	12.01	-39.4	-41.7	21.5	6.01e-01	0	57	0	950534144	49	4957
2026-01-04 00:26:52.64	153.20	11.93	-39.5	-41.7	21.5	6.02e-01	0	57	0	952631296	49	4976
2026-01-04 00:26:53.65	153.33	11.84	-39.4	-41.7	21.5	6.00e-01	0	57	0	954728448	49	4937
2026-01-04 00:26:54.66	153.45	11.76	-39.5	-41.8	21.4	6.00e-01	0	56	0	956301312	49	5007
2026-01-04 00:26:55.67	153.57	11.67	-39.5	-41.8	21.3	6.01e-01	0	57	0	958398464	49	5025
2026-01-04 00:26:56.68	153.69	11.58	-39.4	-41.7	21.4	6.04e-01	0	57	0	959971328	49	4981
2026-01-04 00:26:57.69	153.81	11.50	-39.5	-41.9	21.3	6.00e-01	0	57	0	962068480	49	5056
2026-01-04 00:26:58.70	153.93	11.41	-39.6	-42.0	21.1	6.03e-01	0	57	0	964165632	49	5128
2026-01-04 00:26:59.71	154.05	11.33	-39.6	-42.0	21.2	6.01e-01	0	57	0	965738496	49	5107
2026-01-04 00:27:00.72	154.17	11.24	-39.7	-42.1	21.0	6.02e-01	0	56	0	967835648	49	5176
2026-01-04 00:27:01.73	154.29	11.16	-39.7	-42.1	21.0	6.01e-01	0	57	0	969932800	49	5191
2026-01-04 00:27:02.74	154.41	11.08	-39.7	-42.1	21.0	6.00e-01	0	57	0	971505664	49	5203
2026-01-04 00:27:03.75	154.52	10.99	-39.8	-42.3	20.8	6.01e-01	0	57	0	973602816	50	4986
2026-01-04 00:27:04.76	154.64	10.91	-39.8	-42.2	20.9	6.01e-01	0	56	0	975175680	50	4978
2026-01-04 00:27:05.77	154.76	10.83	-39.8	-42.3	20.8	6.02e-01	0	57	0	977272832	50	4999
2026-01-04 00:27:06.78	154.87	10.74	-39.8	-42.3	20.7	6.00e-01	0	56	0	978845696	50	5022
2026-01-04 00:27:07.79	154.98	10.66	-39.8	-42.3	20.8	6.03e-01	0	56	0	980942848	50	5002
2026-01-04 00:27:08.80	155.10	10.58	-39.8	-42.3	20.7	6.03e-01	0	57	0	983040000	50	5034
2026-01-04 00:27:09.81	155.21	10.49	-39.9	-42.4	20.6	6.03e-01	0	57	0	984612864	50	5068
2026-01-04 00:27:10.82	155.32	10.41	-39.8	-42.3	20.7	6.00e-01	0	57	0	986710016	50	5022
2026-01-04 00:27:11.83	155.43	10.33	-39.8	-42.3	20.7	6.01e-01	0	57	0	988282880	50	5024
2026-01-04 00:27:12.84	155.54	10.25	-39.9	-42.4	20.6	6.00e-01	0	56	0	990380032	50	5057
2026-01-04 00:27:13.85	155.65	10.17	-39.8	-42.3	20.7	6.03e-01	0	56	0	992477184	50	5003
2026-01-04 00:27:14.86	155.76	10.08	-39.8	-42.3	20.7	6.01e-01	0	57	0	994050048	50	4992
2026-01-04 00:27:15.87	155.87	10.00	-39.9	-42.4	20.6	6.03e-01	0	57	0	996147200	50	5051
2026-01-04 00:27:16.88	155.98	9.92	-39.9	-42.4	20.6	6.00e-01	0	57	0	998244352	50	5064
2026-01-04 00:27:17.89	156.08	9.84	-39.9	-42.4	20.5	6.03e-01	0	57	0	999817216	50	5061
2026-01-04 00:27:18.90	156.19	9.76	-39.9	-42.5	20.4	6.02e-01	0	57	0	1001914368	50	5119
2026-01-04 00:27:19.91	156.30	9.68	-39.9	-42.4	20.5	6.04e-01	0	57	0	1003487232	50	5070
2026-01-04 00:27:20.92	156.40	9.60	-39.8	-42.3	20.5	6.02e-01	0	57	0	1005584384	50	5038
2026-01-04 00:27:21.93	156.51	9.52	-39.9	-42.4	20.4	6.02e-01	0	57	0	1007681536	50	5096
2026-01-04 00:27:22.94	156.61	9.44	-39.9	-42.5	20.3	6.02e-01	0	57	0	1009254400	50	5157
2026-01-04 00:27:23.95	156.72	9.36	-39.9	-42.5	20.3	6.01e-01	0	57	0	1011351552	50	5150
2026-01-04 00:27:24.96	156.82	9.28	-39.9	-42.5	20.3	6.02e-01	0	57	0	1013448704	50	5135
2026-01-04 00:27:25.97	156.92	9.20	-39.9	-42.5	20.3	5.99e-01	0	57	0	1015021568	50	5134
2026-01-04 00:27:26.98	157.02	9.12	-39.9	-42.5	20.3	6.02e-01	0	57	0	1017118720	50	5141
2026-01-04 00:27:27.99	157.12	9.05	-40.0	-42.6	20.2	6.03e-01	0	57	0	1018691584	50	5173
2026-01-04 00:27:29.00	157.22	8.97	-40.0	-42.7	20.1	6.01e-01	0	57	0	1020788736	50	5251
2026-01-04 00:27:30.01	157.32	8.89	-40.1	-42.8	19.9	6.00e-01	0	57	0	1022885888	50	5323
2026-01-04 00:27:31.02	157.42	8.81	-40.1	-42.8	20.0	6.02e-01	0	56	0	1024458752	50	5280
2026-01-04 00:27:32.03	157.52	8.73	-40.1	-42.8	19.9	5.98e-01	0	57	0	1026555904	50	5333
2026-01-04 00:27:33.04	157.62	8.65	-40.1	-42.8	19.9	5.99e-01	0	56	0	1028128768	50	5312
2026-01-04 00:27:34.05	157.72	8.58	-40.1	-42.8	19.9	6.03e-01	0	56	0	1030225920	50	5337
2026-01-04 00:27:35.06	157.82	8.50	-40.2	-43.0	19.8	6.00e-01	0	57	0	1032323072	50	5424
2026-01-04 00:27:36.07	157.91	8.42	-40.1	-42.9	19.9	6.02e-01	0	57	0	1033895936	50	5355
2026-01-04 00:27:37.08	158.01	8.35	-40.2	-43.0	19.7	6.03e-01	0	57	0	1035993088	50	5408
2026-01-04 00:27:38.09	158.11	8.27	-40.2	-43.0	19.7	6.02e-01	0	57	0	1038090240	51	5118
2026-01-04 00:27:39.10	158.20	8.19	-40.3	-43.2	19.4	6.00e-01	0	57	0	1039663104	51	5277
2026-01-04 00:27:40.11	158.30	8.12	-40.3	-43.1	19.6	6.01e-01	0	57	0	1041760256	51	5202
2026-01-04 00:27:41.12	158.39	8.04	-40.3	-43.3	19.4	6.02e-01	0	57	0	1043333120	51	5292
2026-01-04 00:27:42.13	158.48	7.96	-45.0	-62.7	3.8	7.45e-01	0	56	104	1044905984	60	29534
2026-01-04 00:27:43.14	158.58	7.89	-45.5	-63.9	3.8	7.43e-01	0	57	104	1044905984	61	32079
2026-01-04 00:27:44.16	158.67	7.81	-45.7	-64.6	3.8	7.42e-01	0	56	104	1044905984	62	32799
2026-01-04 00:27:45.17	158.76	7.74	-45.9	-64.6	3.8	7.46e-01	0	56	104	1044905984	62	32901
2026-01-04 00:27:46.18	158.86	7.66	-46.0	-64.7	3.8	7.43e-01	0	57	104	1044905984	62	33205
2026-01-04 00:27:47.19	158.95	7.59	-46.1	-64.8	3.8	7.45e-01	0	57	104	1044905984	62	33489
2026-01-04 00:27:48.20	159.04	7.51	-46.1	-64.9	3.8	7.45e-01	0	57	104	1044905984	62	33924
2026-01-04 00:27:49.21	159.13	7.44	-46.1	-64.9	3.8	7.47e-01	0	57	104	1044905984	62	34021
2026-01-04 00:27:50.22	159.22	7.36	-46.1	-64.9	3.8	7.43e-01	0	57	104	1044905984	62	33731
2026-01-04 00:27:51.23	159.31	7.29	-46.1	-64.8	3.8	7.43e-01	0	57	104	1044905984	62	33690
2026-01-04 00:27:52.24	159.40	7.21	-46.0	-64.9	3.8	7.48e-01	0	57	104	1044905984	62	33760
2026-01-04 00:27:53.25	159.48	7.14	-46.0	-64.8	3.8	7.43e-01	0	57	104	1044905984	62	33580
2026-01-04 00:27:54.26	159.57	7.07	-46.0	-64.8	3.8	7.43e-01	0	57	104	1044905984	62	33643
2026-01-04 00:27:55.27	159.66	6.99	-46.0	-64.8	3.8	7.45e-01	0	57	104	1044905984	62	33599
2026-01-04 00:27:56.28	159.75	6.92	-46.0	-64.9	3.8	7.43e-01	0	57	104	1044905984	62	33821
2026-01-04 00:27:57.29	159.83	6.85	-46.0	-64.8	3.8	7.44e-01	0	57	104	1044905984	62	33686
2026-01-04 00:27:58.30	159.92	6.77	-46.0	-64.8	3.8	7.46e-01	0	57	104	1044905984	62	33693
2026-01-04 00:27:59.31	160.00	6.70	-45.9	-64.8	3.8	7.46e-01	0	57	104	1044905984	62	33674
2026-01-04 00:28:00.32	160.09	6.63	-46.0	-64.8	3.8	7.48e-01	0	57	104	1044905984	62	33555
2026-01-04 00:28:01.33	160.17	6.56	-46.0	-64.8	3.8	7.46e-01	0	57	104	1044905984	62	33628
2026-01-04 00:28:02.34	160.26	6.48	-46.0	-64.8	3.8	7.45e-01	0	57	104	1044905984	62	33563
2026-01-04 00:28:03.35	160.34	6.41	-46.0	-64.8	3.8	7.44e-01	0	57	104	1044905984	62	33523
2026-01-04 00:28:04.36	160.43	6.34	-46.0	-64.8	3.8	7.45e-01	0	57	104	1044905984	62	33623
2026-01-04 00:28:05.38	160.51	6.27	-45.9	-64.8	3.8	7.47e-01	0	57	104	1044905984	62	33526
2026-01-04 00:28:06.39	160.59	6.20	-45.9	-64.8	3.8	7.44e-01	0	57	104	1044905984	62	33602
2026-01-04 00:28:07.40	160.67	6.13	-45.9	-64.8	3.8	7.44e-01	0	57	104	1044905984	62	33453
2026-01-04 00:28:08.41	160.76	6.05	-45.9	-64.8	3.8	7.45e-01	0	57	104	1044905984	62	33493
2026-01-04 00:28:09.42	160.84	5.98	-45.9	-64.8	3.8	7.50e-01	0	57	104	1044905984	62	33498
2026-01-04 00:28:10.43	160.92	5.91	-45.9	-64.8	3.8	7.46e-01	0	57	104	1044905984	62	33389
2026-01-04 00:28:11.44	161.00	5.84	-45.9	-64.8	3.8	7.43e-01	0	57	104	1044905984	62	33552
2026-01-04 00:28:12.45	161.08	5.77	-45.9	-64.8	3.8	7.44e-01	0	57	104	1044905984	62	33462
2026-01-04 00:28:13.46	161.16	5.70	-45.9	-64.8	3.8	7.43e-01	0	57	104	1044905984	62	33490
2026-01-04 00:28:14.47	161.24	5.63	-45.9	-64.8	3.8	7.47e-01	0	57	104	1044905984	62	33456
2026-01-04 00:28:15.49	161.32	5.56	-45.9	-64.8	3.8	7.44e-01	0	57	104	1044905984	62	33509
2026-01-04 00:28:16.50	161.40	5.49	-45.9	-64.8	3.8	7.45e-01	0	57	104	1044905984	62	33389
2026-01-04 00:28:17.51	161.47	5.42	-45.9	-64.8	3.8	7.43e-01	0	57	104	1044905984	62	33434
2026-01-04 00:28:18.52	161.55	5.35	-45.9	-64.8	3.8	7.47e-01	0	57	104	1044905984	62	33354
2026-01-04 00:28:19.53	161.63	5.28	-45.9	-64.8	3.8	7.46e-01	0	57	104	1044905984	62	33393
2026-01-04 00:28:20.54	161.71	5.21	-45.9	-64.8	3.8	7.45e-01	0	57	104	1044905984	62	33375
2026-01-04 00:28:21.55	161.78	5.14	-45.9	-64.8	3.8	7.44e-01	0	57	104	1044905984	62	33376
2026-01-04 00:28:22.56	161.86	5.08	-45.9	-64.8	3.8	7.46e-01	0	57	104	1044905984	62	33371
2026-01-04 00:28:23.57	161.93	5.01	-45.9	-64.8	3.8	7.43e-01	0	57	104	1044905984	62	33344
2026-01-04 00:28:24.58	162.01	4.94	-45.9	-64.8	3.8	7.44e-01	0	57	104	1044905984	62	33410
2026-01-04 00:28:25.59	162.08	4.87	-45.9	-64.8	3.8	7.47e-01	0	57	104	1044905984	62	33365
2026-01-04 00:28:26.61	162.16	4.80	-45.9	-64.8	3.8	7.44e-01	0	57	104	1044905984	62	33367
2026-01-04 00:28:27.62	162.23	4.73	-45.9	-64.7	3.8	7.44e-01	0	57	104	1044905984	62	33268
2026-01-04 00:28:28.63	162.31	4.67	-45.9	-64.8	3.8	7.43e-01	0	57	104	1044905984	62	33325
2026-01-04 00:28:29.64	162.38	4.60	-45.9	-64.7	3.8	7.45e-01	0	57	104	1044905984	62	33281
2026-01-04 00:28:30.65	162.46	4.53	-45.9	-64.8	3.8	7.43e-01	0	57	104	1044905984	62	33323
2026-01-04 00:28:31.66	162.53	4.46	-45.9	-64.8	3.8	7.44e-01	0	57	104	1044905984	62	33359
2026-01-04 00:28:32.67	162.60	4.40	-45.9	-64.7	3.8	7.46e-01	0	57	104	1044905984	62	33266
2026-01-04 00:28:33.68	162.67	4.33	-45.9	-64.8	3.8	7.45e-01	0	57	104	1044905984	62	33317
2026-01-04 00:28:34.69	162.74	4.26	-45.9	-64.8	3.8	7.43e-01	0	57	104	1044905984	62	33318
2026-01-04 00:28:35.70	162.82	4.19	-45.9	-64.7	3.8	7.43e-01	0	57	104	1044905984	62	33218
2026-01-04 00:28:36.72	162.89	4.13	-45.9	-64.8	3.8	7.44e-01	0	57	104	1044905984	62	33339
2026-01-04 00:28:37.73	162.96	4.06	-45.9	-64.8	3.8	7.48e-01	0	57	104	1044905984	62	33347
2026-01-04 00:28:38.74	163.03	3.99	-45.9	-64.7	3.8	7.47e-01	0	57	104	1044905984	62	33226
2026-01-04 00:28:39.75	163.10	3.93	-45.9	-64.8	3.8	7.45e-01	0	57	104	1044905984	62	33340
2026-01-04 00:28:40.76	163.17	3.86	-45.9	-64.7	3.8	7.44e-01	0	57	104	1044905984	62	33269
2026-01-04 00:28:41.77	163.24	3.80	-45.9	-64.7	3.8	7.46e-01	0	57	104	1044905984	62	33277
2026-01-04 00:28:42.78	163.31	3.73	-45.9	-64.7	3.8	7.47e-01	0	57	104	1044905984	62	33232
2026-01-04 00:28:43.79	163.38	3.67	-45.9	-64.7	3.8	7.46e-01	0	57	104	1044905984	62	33270
2026-01-04 00:28:44.81	163.45	3.60	-45.9	-64.7	3.8	7.45e-01	0	57	104	1044905984	62	33259
2026-01-04 00:28:45.82	163.51	3.53	-45.9	-64.8	3.8	7.43e-01	0	57	104	1044905984	62	33316
