passes_logs/2026/01/04/R2.0S_Moscow/R2.0S_Moscow__20260104_015430_AQUA_rec.log

#Pass ID: 20260104_015430_AQUA
#Satellite: AQUA
#Configuration: AQUA
#almurnet v.1.7.20251203
#Start time: 2026-01-04 01:54:31

#Version: 2.2.20231116
#Station: R2.0S_Moscow
#Location: 37.707566 lon 55.798166 lat
#TLE: 1 27424U 02022A   25365.92641127  .00002078  00000+0  42628-3 0  9999
#TLE: 2 27424  98.4058 327.1196 0001962  94.7781 340.6230 14.61783896258835

#Time	Az	El	Level	Level2	SNR	BER	BlckErr	Temp	State	Recorded	gain1	gain2
2026-01-04 01:54:31.57	12.16	2.10	-40.6	-59.8	3.8	7.45e-01	0	56	0	0	53	31459
2026-01-04 01:54:32.57	12.13	2.17	-40.7	-59.8	3.8	7.48e-01	0	56	104	0	52	33360
2026-01-04 01:54:33.59	12.10	2.24	-40.6	-59.8	3.8	7.45e-01	0	56	104	0	52	33394
2026-01-04 01:54:34.60	12.07	2.30	-40.6	-59.8	3.8	7.45e-01	0	55	104	0	52	33347
2026-01-04 01:54:35.61	12.05	2.37	-40.6	-59.8	3.8	7.46e-01	0	55	104	0	52	33383
2026-01-04 01:54:36.62	12.02	2.43	-40.6	-59.7	3.8	7.45e-01	0	56	104	0	52	33302
2026-01-04 01:54:37.63	11.99	2.50	-40.6	-59.8	3.8	7.46e-01	0	56	104	0	52	33333
2026-01-04 01:54:38.64	11.96	2.57	-40.6	-59.8	3.8	7.44e-01	0	56	104	0	52	33330
2026-01-04 01:54:39.65	11.93	2.64	-40.6	-59.8	3.8	7.44e-01	0	56	104	0	52	33325
2026-01-04 01:54:40.66	11.90	2.70	-40.6	-59.7	3.8	7.51e-01	0	56	104	0	52	33304
2026-01-04 01:54:41.67	11.88	2.77	-40.6	-59.7	3.8	7.46e-01	0	56	104	0	52	33239
2026-01-04 01:54:42.69	11.85	2.84	-40.6	-59.8	3.8	7.46e-01	0	56	104	0	52	33329
2026-01-04 01:54:43.70	11.82	2.91	-40.6	-59.8	3.8	7.46e-01	0	56	104	0	52	33335
2026-01-04 01:54:44.71	11.79	2.97	-40.6	-59.8	3.8	7.47e-01	0	55	104	0	52	33365
2026-01-04 01:54:45.72	11.76	3.04	-40.6	-59.8	3.8	7.46e-01	0	56	104	0	52	33356
2026-01-04 01:54:46.73	11.73	3.11	-40.6	-59.8	3.8	7.45e-01	0	56	104	0	52	33325
2026-01-04 01:54:47.74	11.70	3.18	-40.6	-59.8	3.8	7.45e-01	0	55	104	0	52	33338
2026-01-04 01:54:48.75	11.67	3.25	-40.6	-59.8	3.8	7.49e-01	0	55	104	0	52	33341
2026-01-04 01:54:49.76	11.64	3.32	-40.6	-59.7	3.8	7.43e-01	0	56	104	0	52	33295
2026-01-04 01:54:50.77	11.61	3.39	-40.6	-59.8	3.8	7.44e-01	0	56	104	0	52	33324
2026-01-04 01:54:51.78	11.58	3.46	-40.6	-59.7	3.8	7.45e-01	0	56	104	0	52	33252
2026-01-04 01:54:52.80	11.54	3.53	-40.6	-59.7	3.8	7.44e-01	0	56	104	0	52	33203
2026-01-04 01:54:53.81	11.51	3.60	-40.6	-59.7	3.8	7.44e-01	0	56	104	0	52	33209
2026-01-04 01:54:54.82	11.48	3.67	-40.6	-59.7	3.8	7.46e-01	0	56	104	0	52	33053
2026-01-04 01:54:55.83	11.45	3.74	-40.6	-59.7	3.8	7.46e-01	0	56	104	0	52	33098
2026-01-04 01:54:56.84	11.42	3.81	-40.6	-59.7	3.8	7.43e-01	0	56	104	0	52	33058
2026-01-04 01:54:57.85	11.39	3.88	-40.6	-59.7	3.8	7.47e-01	0	56	104	0	52	33088
2026-01-04 01:54:58.86	11.35	3.95	-40.6	-59.7	3.8	7.48e-01	0	56	104	0	52	33074
2026-01-04 01:54:59.87	11.32	4.02	-40.6	-59.7	3.8	7.49e-01	0	56	104	0	52	33067
2026-01-04 01:55:00.88	11.29	4.09	-40.6	-59.7	3.8	7.43e-01	0	56	104	0	52	33165
2026-01-04 01:55:01.90	11.26	4.16	-40.6	-59.7	3.8	7.46e-01	0	56	104	0	52	33129
2026-01-04 01:55:02.91	11.22	4.23	-40.7	-59.7	3.8	7.42e-01	0	56	104	0	52	33122
2026-01-04 01:55:03.92	11.19	4.30	-40.6	-59.7	3.8	7.44e-01	0	56	104	0	52	33167
2026-01-04 01:55:04.93	11.16	4.38	-40.6	-59.7	3.8	7.46e-01	0	56	104	0	52	33259
2026-01-04 01:55:05.94	11.12	4.45	-40.6	-59.7	3.8	7.48e-01	0	56	104	0	52	33252
2026-01-04 01:55:06.95	11.09	4.52	-40.6	-59.7	3.8	7.46e-01	0	56	104	0	52	33228
2026-01-04 01:55:07.96	11.06	4.59	-40.6	-59.7	3.8	7.48e-01	0	56	104	0	52	33195
2026-01-04 01:55:08.97	11.02	4.67	-40.6	-59.7	3.8	7.45e-01	0	56	104	0	52	33258
2026-01-04 01:55:09.98	10.99	4.74	-40.6	-59.7	3.8	7.42e-01	0	56	104	0	52	33287
2026-01-04 01:55:10.99	10.95	4.81	-40.6	-59.7	3.8	7.43e-01	0	56	104	0	52	33238
2026-01-04 01:55:12.00	10.92	4.88	-40.6	-59.7	3.8	7.43e-01	0	56	104	0	52	33192
2026-01-04 01:55:13.02	10.88	4.96	-40.6	-59.7	3.8	7.45e-01	0	56	104	0	52	33213
2026-01-04 01:55:14.03	10.85	5.03	-40.6	-59.7	3.8	7.43e-01	0	56	104	0	52	33283
2026-01-04 01:55:15.04	10.81	5.11	-40.6	-59.7	3.8	7.44e-01	0	56	104	0	52	33205
2026-01-04 01:55:16.05	10.78	5.18	-40.6	-59.7	3.8	7.45e-01	0	56	104	0	52	33211
2026-01-04 01:55:17.06	10.74	5.25	-40.6	-59.7	3.8	7.47e-01	0	56	104	0	52	33244
2026-01-04 01:55:18.07	10.71	5.33	-40.6	-59.7	3.8	7.41e-01	0	56	104	0	52	33155
2026-01-04 01:55:19.08	10.67	5.40	-40.6	-59.7	3.8	7.47e-01	0	56	104	0	52	33186
2026-01-04 01:55:20.09	10.63	5.48	-40.6	-59.7	3.8	7.49e-01	0	56	104	0	52	33256
2026-01-04 01:55:21.10	10.60	5.55	-40.6	-59.7	3.8	7.49e-01	0	56	104	0	52	33198
2026-01-04 01:55:22.12	10.56	5.63	-40.6	-59.7	3.8	7.43e-01	0	56	104	0	52	33307
2026-01-04 01:55:23.13	10.52	5.71	-40.6	-59.7	3.8	7.44e-01	0	56	104	0	52	33271
2026-01-04 01:55:24.14	10.49	5.78	-40.6	-59.7	3.8	7.46e-01	0	56	104	0	52	33283
2026-01-04 01:55:25.15	10.45	5.86	-40.6	-59.7	3.8	7.47e-01	0	56	104	0	52	33257
2026-01-04 01:55:26.16	10.41	5.94	-40.6	-59.7	3.8	7.44e-01	0	56	104	0	52	33268
2026-01-04 01:55:27.17	10.37	6.01	-40.6	-59.7	3.8	7.45e-01	0	56	104	0	52	33247
2026-01-04 01:55:28.18	10.33	6.09	-40.6	-59.7	3.8	7.47e-01	0	56	104	0	52	33234
2026-01-04 01:55:29.19	10.29	6.17	-40.6	-59.7	3.8	7.45e-01	0	56	104	0	52	33287
2026-01-04 01:55:30.20	10.26	6.24	-40.6	-59.7	3.8	7.48e-01	0	56	104	0	52	33306
2026-01-04 01:55:31.21	10.22	6.32	-40.6	-59.7	3.8	7.43e-01	0	56	104	0	52	33272
2026-01-04 01:55:32.22	10.18	6.40	-40.6	-59.7	3.8	7.48e-01	0	56	104	0	52	33288
2026-01-04 01:55:33.23	10.14	6.48	-40.6	-59.8	3.8	7.43e-01	0	56	104	0	52	33335
2026-01-04 01:55:34.24	10.10	6.56	-40.6	-59.7	3.8	7.47e-01	0	56	104	0	52	33293
2026-01-04 01:55:35.26	10.06	6.63	-40.6	-59.7	3.8	7.45e-01	0	56	104	0	52	33269
2026-01-04 01:55:36.27	10.02	6.71	-40.6	-59.7	3.8	7.48e-01	0	56	104	0	52	33301
2026-01-04 01:55:37.28	9.98	6.79	-40.6	-59.7	3.8	7.49e-01	0	56	104	0	52	33245
2026-01-04 01:55:38.29	9.94	6.87	-40.6	-59.7	3.8	7.45e-01	0	56	104	0	52	33255
2026-01-04 01:55:39.30	9.89	6.95	-40.6	-59.7	3.8	7.43e-01	0	56	104	0	52	33235
2026-01-04 01:55:40.31	9.85	7.03	-40.6	-59.8	3.8	7.48e-01	0	56	104	0	52	33324
2026-01-04 01:55:41.32	9.81	7.11	-40.6	-59.8	3.8	7.44e-01	0	56	104	0	52	33355
2026-01-04 01:55:42.33	9.77	7.19	-40.6	-59.8	3.8	7.45e-01	0	56	104	0	52	33341
2026-01-04 01:55:43.34	9.73	7.27	-40.6	-59.7	3.8	7.43e-01	0	56	104	0	52	33305
2026-01-04 01:55:44.35	9.68	7.35	-40.6	-59.7	3.8	7.47e-01	0	56	104	0	52	33281
2026-01-04 01:55:45.37	9.64	7.44	-40.6	-59.7	3.8	7.45e-01	0	56	104	0	52	33239
2026-01-04 01:55:46.38	9.60	7.52	-40.6	-59.7	3.8	7.46e-01	0	56	104	0	52	33298
2026-01-04 01:55:47.39	9.55	7.60	-40.6	-59.7	3.8	7.44e-01	0	56	104	0	52	33307
2026-01-04 01:55:48.40	9.51	7.68	-40.7	-59.7	3.8	7.43e-01	0	56	104	0	52	33291
2026-01-04 01:55:49.41	9.47	7.76	-40.6	-59.7	3.8	7.46e-01	0	56	104	0	52	33288
2026-01-04 01:55:50.42	9.42	7.85	-40.6	-59.7	3.8	7.49e-01	0	56	104	0	52	33309
2026-01-04 01:55:51.43	9.38	7.93	-40.6	-59.8	3.8	7.45e-01	0	56	104	0	52	33416
2026-01-04 01:55:52.44	9.33	8.01	-40.6	-59.8	3.8	7.45e-01	0	56	104	0	52	33331
2026-01-04 01:55:53.45	9.29	8.10	-40.7	-59.8	3.8	7.46e-01	0	56	104	0	52	33465
2026-01-04 01:55:54.46	9.24	8.18	-40.8	-59.7	3.8	7.44e-01	0	56	104	0	52	33263
2026-01-04 01:55:55.47	9.20	8.27	-40.7	-59.8	3.8	7.43e-01	0	56	104	0	52	33372
2026-01-04 01:55:56.48	9.15	8.35	-40.7	-59.8	3.8	7.45e-01	0	56	104	0	52	33453
2026-01-04 01:55:57.49	9.10	8.43	-40.7	-59.8	3.8	7.47e-01	0	56	104	0	52	33389
2026-01-04 01:55:58.50	9.06	8.52	-40.7	-59.8	3.8	7.44e-01	0	56	104	0	52	33392
2026-01-04 01:55:59.51	9.01	8.60	-40.8	-59.7	3.8	7.44e-01	0	56	104	0	52	33238
2026-01-04 01:56:00.52	8.96	8.69	-40.8	-59.7	3.8	7.47e-01	0	56	104	0	52	33169
2026-01-04 01:56:01.53	8.92	8.78	-40.8	-59.8	3.8	7.45e-01	0	56	104	0	52	33317
2026-01-04 01:56:02.54	8.87	8.86	-40.8	-59.8	3.8	7.45e-01	0	56	104	0	52	33331
2026-01-04 01:56:03.55	8.82	8.95	-40.8	-59.7	3.8	7.44e-01	0	56	104	0	52	33272
2026-01-04 01:56:04.56	8.77	9.04	-40.8	-59.7	3.8	7.44e-01	0	56	104	0	52	33294
2026-01-04 01:56:05.57	8.72	9.12	-40.8	-59.7	3.8	7.44e-01	0	56	104	0	52	33182
2026-01-04 01:56:06.58	8.67	9.21	-40.8	-59.7	3.8	7.43e-01	0	56	104	0	52	33153
2026-01-04 01:56:07.59	8.62	9.30	-40.8	-59.7	3.8	7.44e-01	0	56	104	0	52	33092
2026-01-04 01:56:08.60	8.57	9.39	-40.9	-59.7	3.8	7.42e-01	0	56	104	0	52	33143
2026-01-04 01:56:09.61	8.52	9.48	-40.8	-59.7	3.8	7.44e-01	0	56	104	0	52	33148
2026-01-04 01:56:10.62	8.47	9.56	-40.9	-59.7	3.8	7.43e-01	0	56	104	0	52	33305
2026-01-04 01:56:11.63	8.42	9.65	-40.9	-59.7	3.8	7.46e-01	0	56	104	0	52	33249
2026-01-04 01:56:12.64	8.37	9.74	-40.9	-59.8	3.8	7.47e-01	0	56	104	0	52	33360
2026-01-04 01:56:13.65	8.32	9.83	-40.8	-59.7	3.8	7.44e-01	0	56	104	0	52	33077
2026-01-04 01:56:14.66	8.26	9.92	-40.9	-59.7	3.8	7.44e-01	0	56	104	0	52	33250
2026-01-04 01:56:15.67	8.21	10.01	-40.8	-59.7	3.8	7.43e-01	0	56	104	0	52	33068
2026-01-04 01:56:16.68	8.16	10.10	-41.0	-59.8	3.8	7.45e-01	0	56	104	0	52	33510
2026-01-04 01:56:17.69	8.10	10.20	-40.9	-59.7	3.8	7.47e-01	0	56	104	0	52	33287
2026-01-04 01:56:18.70	8.05	10.29	-41.0	-59.8	3.8	7.48e-01	0	56	104	0	52	33384
2026-01-04 01:56:19.71	8.00	10.38	-40.9	-59.7	3.8	7.42e-01	0	56	104	0	53	31323
2026-01-04 01:56:20.72	7.94	10.47	-41.1	-59.9	3.8	7.45e-01	0	56	104	0	53	31813
2026-01-04 01:56:21.73	7.89	10.56	-40.9	-59.7	3.8	7.43e-01	0	56	104	0	53	31264
2026-01-04 01:56:22.75	7.83	10.66	-41.2	-59.6	3.8	7.45e-01	0	57	104	0	53	30929
2026-01-04 01:56:23.76	7.77	10.75	-40.9	-59.7	3.8	7.44e-01	0	56	104	0	53	31239
2026-01-04 01:56:24.77	7.72	10.84	-41.4	-59.4	3.8	7.44e-01	0	56	104	0	53	30099
2026-01-04 01:56:25.78	7.66	10.94	-40.9	-59.7	3.8	7.47e-01	0	56	104	0	53	31297
2026-01-04 01:56:26.79	7.60	11.03	-41.0	-59.3	3.8	7.47e-01	0	56	104	0	53	29860
2026-01-04 01:56:27.80	7.55	11.13	-41.1	-58.8	3.8	7.42e-01	0	56	104	0	53	28335
2026-01-04 01:56:28.81	7.49	11.22	-41.1	-58.4	3.8	7.47e-01	0	56	104	0	53	26920
2026-01-04 01:56:29.82	7.43	11.32	-41.8	-57.9	3.8	7.44e-01	0	56	104	0	54	23987
2026-01-04 01:56:30.83	7.37	11.42	-42.1	-57.9	3.8	7.46e-01	0	56	104	0	54	23945
2026-01-04 01:56:31.84	7.31	11.51	-41.0	-59.0	3.8	7.47e-01	0	56	104	0	53	28858
2026-01-04 01:56:32.85	7.25	11.61	-41.9	-57.3	3.8	7.43e-01	0	56	104	0	54	22403
2026-01-04 01:56:33.86	7.19	11.71	-41.0	-58.2	3.8	7.45e-01	0	56	104	0	53	26443
2026-01-04 01:56:34.87	7.13	11.80	-40.5	-54.8	3.8	7.46e-01	0	57	104	0	53	17885
2026-01-04 01:56:35.88	7.07	11.90	-40.1	-53.5	3.8	7.41e-01	0	57	104	0	52	16200
2026-01-04 01:56:36.89	7.01	12.00	-40.0	-53.0	3.8	7.44e-01	0	57	104	0	51	16261
2026-01-04 01:56:37.90	6.95	12.10	-41.7	-55.6	3.8	7.47e-01	0	56	104	0	53	19606
2026-01-04 01:56:38.91	6.88	12.20	-41.2	-54.6	3.8	7.44e-01	0	56	104	0	54	16325
2026-01-04 01:56:39.92	6.82	12.30	-41.3	-57.5	3.7	7.48e-01	0	56	104	0	53	24266
2026-01-04 01:56:40.93	6.76	12.40	-41.3	-54.5	3.8	7.45e-01	0	56	104	0	53	17108
2026-01-04 01:56:41.94	6.69	12.50	-40.7	-55.4	3.8	7.46e-01	0	57	104	0	51	21412
2026-01-04 01:56:42.95	6.63	12.60	-39.6	-52.2	3.8	7.45e-01	0	56	104	0	51	14871
2026-01-04 01:56:43.96	6.56	12.70	-39.5	-51.9	3.8	7.50e-01	0	56	104	0	50	15114
2026-01-04 01:56:44.98	6.50	12.80	-39.7	-52.2	3.8	7.43e-01	0	56	104	0	50	15653
2026-01-04 01:56:45.99	6.43	12.91	-41.4	-55.8	3.8	7.46e-01	0	56	104	0	53	20035
2026-01-04 01:56:47.00	6.36	13.01	-42.0	-58.3	3.8	7.44e-01	0	56	104	0	54	25221
2026-01-04 01:56:48.01	6.30	13.11	-41.2	-54.2	3.8	7.44e-01	0	56	104	0	52	17506
2026-01-04 01:56:49.02	6.23	13.21	-42.1	-55.5	3.8	7.48e-01	0	57	104	0	54	18134
2026-01-04 01:56:50.03	6.16	13.32	-43.3	-59.9	3.8	7.47e-01	0	56	104	0	57	25377
2026-01-04 01:56:51.04	6.09	13.42	-40.0	-52.2	3.8	7.44e-01	0	57	104	0	51	14809
2026-01-04 01:56:52.05	6.02	13.53	-39.9	-52.0	3.8	7.47e-01	0	57	104	0	51	14519
2026-01-04 01:56:53.06	5.95	13.63	-40.0	-52.1	3.8	7.45e-01	0	57	104	0	51	14554
2026-01-04 01:56:54.07	5.88	13.74	-40.1	-52.1	3.8	7.42e-01	0	57	104	0	51	14653
2026-01-04 01:56:55.08	5.81	13.85	-40.8	-53.4	3.8	7.43e-01	0	56	104	0	52	16072
2026-01-04 01:56:56.09	5.74	13.95	-43.2	-59.4	3.8	7.43e-01	0	57	104	0	57	24125
2026-01-04 01:56:57.10	5.67	14.06	-41.3	-53.9	3.8	7.45e-01	0	56	104	0	53	16092
2026-01-04 01:56:58.11	5.60	14.17	-42.5	-57.4	3.8	7.41e-01	0	57	104	0	55	21389
2026-01-04 01:56:59.12	5.52	14.28	-39.9	-51.9	3.8	7.47e-01	0	56	104	0	51	14356
2026-01-04 01:57:00.13	5.45	14.39	-39.7	-51.6	3.8	7.45e-01	0	57	104	0	51	13836
2026-01-04 01:57:01.14	5.37	14.49	-39.9	-51.9	3.8	7.44e-01	0	56	104	0	51	14365
2026-01-04 01:57:02.15	5.30	14.60	-40.8	-53.0	3.8	7.45e-01	0	57	104	0	52	15343
2026-01-04 01:57:03.16	5.22	14.71	-40.7	-53.1	3.8	7.47e-01	0	57	104	0	52	15510
2026-01-04 01:57:04.17	5.15	14.83	-43.7	-59.7	3.8	7.45e-01	0	56	104	0	58	23568
2026-01-04 01:57:05.18	5.07	14.94	-40.7	-44.4	5.2	7.07e-01	0	57	104	0	53	5365
2026-01-04 01:57:06.19	4.99	15.05	-42.3	-47.7	14.4	6.02e-01	0	56	0	524288	55	6982
2026-01-04 01:57:07.20	4.91	15.16	-39.4	-41.7	21.2	5.99e-01	0	57	0	2621440	50	4698
2026-01-04 01:57:08.21	4.83	15.27	-39.1	-41.3	21.7	6.02e-01	0	57	0	4718592	50	4477
2026-01-04 01:57:09.23	4.75	15.39	-39.3	-41.6	21.5	6.00e-01	0	56	0	6291456	50	4609
2026-01-04 01:57:10.23	4.67	15.50	-39.1	-41.4	21.6	6.01e-01	0	56	0	8388608	50	4515
2026-01-04 01:57:11.24	4.59	15.61	-38.9	-41.0	22.1	6.03e-01	0	56	0	10485760	49	4583
2026-01-04 01:57:12.26	4.51	15.73	-38.9	-41.0	22.1	5.99e-01	0	57	0	12058624	49	4592
2026-01-04 01:57:13.27	4.43	15.85	-38.8	-40.9	22.2	6.00e-01	0	57	0	14155776	49	4537
2026-01-04 01:57:14.27	4.35	15.96	-38.8	-40.9	22.3	6.02e-01	0	57	0	15728640	49	4533
2026-01-04 01:57:15.28	4.26	16.08	-38.9	-41.0	22.2	6.02e-01	0	56	0	17825792	49	4568
2026-01-04 01:57:16.30	4.18	16.20	-38.8	-40.9	22.3	6.01e-01	0	57	0	19922944	49	4526
2026-01-04 01:57:17.31	4.09	16.31	-38.9	-41.0	22.3	6.01e-01	0	57	0	21495808	49	4558
2026-01-04 01:57:18.31	4.01	16.43	-38.8	-40.9	22.4	6.02e-01	0	57	0	23592960	49	4504
2026-01-04 01:57:19.32	3.92	16.55	-38.9	-41.0	22.3	6.01e-01	0	57	0	25165824	49	4552
2026-01-04 01:57:20.33	3.83	16.67	-38.8	-40.9	22.3	6.03e-01	0	56	0	27262976	49	4535
2026-01-04 01:57:21.34	3.74	16.79	-38.9	-41.0	22.3	6.00e-01	0	57	0	29360128	49	4547
2026-01-04 01:57:22.35	3.65	16.91	-38.9	-41.0	22.3	6.01e-01	0	56	0	30932992	49	4577
2026-01-04 01:57:23.36	3.56	17.03	-38.9	-41.0	22.3	6.03e-01	0	56	0	33030144	49	4561
2026-01-04 01:57:24.37	3.47	17.15	-38.9	-41.0	22.3	6.00e-01	0	57	0	34603008	49	4557
2026-01-04 01:57:25.39	3.38	17.28	-38.9	-41.0	22.3	6.00e-01	0	57	0	36700160	49	4565
2026-01-04 01:57:26.39	3.29	17.40	-39.0	-41.1	22.3	6.01e-01	0	57	0	38797312	49	4603
2026-01-04 01:57:27.41	3.19	17.52	-38.9	-41.0	22.3	6.01e-01	0	57	0	40370176	49	4567
2026-01-04 01:57:28.42	3.10	17.65	-39.0	-41.1	22.3	6.03e-01	0	56	0	42467328	49	4609
2026-01-04 01:57:29.43	3.01	17.77	-38.9	-41.0	22.3	6.00e-01	0	57	0	44564480	49	4588
2026-01-04 01:57:30.43	2.91	17.90	-39.0	-41.1	22.3	6.02e-01	0	57	0	46137344	49	4618
2026-01-04 01:57:31.44	2.81	18.02	-39.0	-41.1	22.3	5.98e-01	0	56	0	48234496	49	4629
2026-01-04 01:57:32.45	2.72	18.15	-39.0	-41.1	22.3	6.02e-01	0	56	0	49807360	49	4602
2026-01-04 01:57:33.46	2.62	18.28	-39.0	-41.1	22.3	6.03e-01	0	57	0	51904512	49	4639
2026-01-04 01:57:34.47	2.52	18.40	-39.0	-41.1	22.3	6.00e-01	0	56	0	53477376	49	4632
2026-01-04 01:57:35.48	2.42	18.53	-39.0	-41.1	22.3	6.02e-01	0	56	0	55574528	49	4615
2026-01-04 01:57:36.49	2.32	18.66	-39.0	-41.1	22.3	6.01e-01	0	56	0	57671680	49	4620
2026-01-04 01:57:37.50	2.21	18.79	-39.0	-41.1	22.3	6.01e-01	0	56	0	59244544	49	4640
2026-01-04 01:57:38.51	2.11	18.92	-39.0	-41.1	22.4	6.02e-01	0	56	0	61341696	49	4619
2026-01-04 01:57:39.52	2.01	19.05	-39.0	-41.1	22.4	6.01e-01	0	56	0	63438848	49	4611
2026-01-04 01:57:40.53	1.90	19.19	-39.0	-41.0	22.4	6.03e-01	0	57	0	65011712	49	4588
2026-01-04 01:57:41.54	1.80	19.32	-38.9	-41.0	22.5	6.00e-01	0	56	0	67108864	49	4581
2026-01-04 01:57:42.55	1.69	19.45	-38.9	-41.0	22.5	6.01e-01	0	56	0	68681728	49	4571
2026-01-04 01:57:43.56	1.58	19.59	-38.9	-40.9	22.6	6.03e-01	0	56	0	70778880	49	4526
2026-01-04 01:57:44.57	1.47	19.72	-38.9	-40.9	22.6	6.02e-01	0	57	0	72876032	49	4517
2026-01-04 01:57:45.58	1.36	19.86	-38.8	-40.9	22.6	6.02e-01	0	56	0	74448896	49	4495
2026-01-04 01:57:46.59	1.25	19.99	-38.8	-40.8	22.6	6.01e-01	0	56	0	76546048	49	4490
2026-01-04 01:57:47.60	1.14	20.13	-38.9	-40.9	22.6	6.03e-01	0	57	0	78118912	49	4524
2026-01-04 01:57:48.61	1.02	20.27	-38.9	-41.0	22.5	6.02e-01	0	57	0	80216064	49	4555
2026-01-04 01:57:49.62	0.91	20.41	-38.9	-41.0	22.5	6.01e-01	0	57	0	82313216	49	4561
2026-01-04 01:57:50.63	0.79	20.54	-39.0	-41.0	22.5	6.00e-01	0	57	0	83886080	49	4588
2026-01-04 01:57:51.64	0.67	20.68	-39.1	-41.1	22.4	6.01e-01	0	56	0	85983232	49	4635
2026-01-04 01:57:52.65	0.56	20.82	-39.1	-41.2	22.3	6.02e-01	0	57	0	88080384	49	4669
2026-01-04 01:57:53.66	0.44	20.97	-39.1	-41.2	22.3	6.01e-01	0	56	0	89653248	49	4695
2026-01-04 01:57:54.67	0.32	21.11	-39.2	-41.3	22.2	6.02e-01	0	57	0	91750400	49	4708
2026-01-04 01:57:55.68	0.20	21.25	-39.1	-41.2	22.3	5.99e-01	0	57	0	93323264	49	4700
2026-01-04 01:57:56.68	0.07	21.39	-39.1	-41.2	22.3	6.01e-01	0	57	0	95420416	49	4674
2026-01-04 01:57:57.69	359.95	21.54	-39.1	-41.2	22.4	6.00e-01	0	57	0	97517568	49	4667
2026-01-04 01:57:58.71	359.82	21.68	-39.1	-41.1	22.4	6.01e-01	0	56	0	99090432	49	4650
2026-01-04 01:57:59.71	359.70	21.83	-39.1	-41.2	22.4	6.02e-01	0	56	0	101187584	49	4660
2026-01-04 01:58:00.72	359.57	21.97	-39.1	-41.2	22.4	6.00e-01	0	56	0	102760448	49	4659
2026-01-04 01:58:01.73	359.44	22.12	-39.1	-41.2	22.3	5.99e-01	0	57	0	104857600	49	4682
2026-01-04 01:58:02.74	359.31	22.27	-39.1	-41.2	22.4	6.02e-01	0	57	0	106954752	49	4681
2026-01-04 01:58:03.75	359.18	22.42	-39.1	-41.2	22.4	6.02e-01	0	57	0	108527616	49	4659
2026-01-04 01:58:04.76	359.04	22.57	-39.1	-41.2	22.4	6.01e-01	0	56	0	110624768	49	4662
2026-01-04 01:58:05.77	358.91	22.72	-39.1	-41.2	22.4	6.01e-01	0	56	0	112197632	49	4668
2026-01-04 01:58:06.78	358.77	22.87	-39.1	-41.2	22.4	6.01e-01	0	56	0	114294784	49	4660
2026-01-04 01:58:07.79	358.64	23.02	-39.1	-41.2	22.4	6.02e-01	0	56	0	116391936	49	4672
2026-01-04 01:58:08.80	358.50	23.17	-39.2	-41.3	22.3	6.00e-01	0	56	0	117964800	49	4710
2026-01-04 01:58:09.81	358.36	23.33	-39.3	-41.4	22.2	6.02e-01	0	56	0	120061952	49	4792
2026-01-04 01:58:10.82	358.21	23.48	-39.4	-41.5	22.1	6.00e-01	0	57	0	121634816	49	4848
2026-01-04 01:58:11.83	358.07	23.64	-39.4	-41.5	22.1	6.00e-01	0	56	0	123731968	49	4866
2026-01-04 01:58:12.84	357.93	23.79	-39.4	-41.6	22.1	6.03e-01	0	56	0	125829120	49	4871
2026-01-04 01:58:13.85	357.78	23.95	-39.4	-41.5	22.1	6.00e-01	0	56	0	127401984	49	4852
2026-01-04 01:58:14.86	357.63	24.11	-39.4	-41.5	22.1	6.01e-01	0	56	0	129499136	49	4849
2026-01-04 01:58:15.87	357.48	24.26	-39.4	-41.5	22.2	6.01e-01	0	56	0	131596288	49	4845
2026-01-04 01:58:16.88	357.33	24.42	-39.3	-41.5	22.2	5.99e-01	0	56	0	133169152	49	4819
2026-01-04 01:58:17.89	357.18	24.58	-39.3	-41.4	22.2	6.01e-01	0	56	0	135266304	49	4789
2026-01-04 01:58:18.90	357.02	24.74	-39.3	-41.4	22.2	6.02e-01	0	57	0	136839168	49	4770
2026-01-04 01:58:19.91	356.87	24.91	-39.2	-41.3	22.3	6.00e-01	0	57	0	138936320	49	4744
2026-01-04 01:58:20.92	356.71	25.07	-39.2	-41.3	22.3	6.03e-01	0	57	0	141033472	49	4743
2026-01-04 01:58:21.93	356.55	25.23	-39.2	-41.3	22.3	6.04e-01	0	57	0	142606336	49	4746
2026-01-04 01:58:22.93	356.39	25.40	-39.2	-41.2	22.5	6.02e-01	0	57	0	144703488	49	4686
2026-01-04 01:58:23.94	356.22	25.56	-39.1	-41.2	22.5	6.02e-01	0	56	0	146276352	49	4660
2026-01-04 01:58:24.95	356.06	25.73	-39.0	-41.0	22.7	6.02e-01	0	57	0	148373504	49	4548
2026-01-04 01:58:25.96	355.89	25.89	-38.9	-40.9	22.8	6.03e-01	0	56	0	150470656	49	4517
2026-01-04 01:58:26.97	355.72	26.06	-38.9	-40.8	22.8	6.01e-01	0	56	0	152043520	49	4479
2026-01-04 01:58:27.98	355.55	26.23	-38.9	-40.9	22.8	6.01e-01	0	56	0	154140672	49	4495
2026-01-04 01:58:28.99	355.38	26.40	-39.0	-40.9	22.7	6.03e-01	0	56	0	156237824	49	4542
2026-01-04 01:58:30.00	355.20	26.57	-39.1	-41.1	22.5	6.01e-01	0	57	0	157810688	49	4651
2026-01-04 01:58:31.01	355.03	26.74	-39.2	-41.2	22.4	6.01e-01	0	57	0	159907840	49	4703
2026-01-04 01:58:32.02	354.85	26.91	-39.2	-41.2	22.5	6.01e-01	0	56	0	161480704	49	4686
2026-01-04 01:58:33.03	354.67	27.09	-39.1	-41.1	22.6	6.01e-01	0	57	0	163577856	49	4647
2026-01-04 01:58:34.04	354.48	27.26	-39.0	-41.0	22.7	6.03e-01	0	56	0	165675008	49	4563
2026-01-04 01:58:35.05	354.30	27.44	-38.9	-40.9	22.8	6.02e-01	0	56	0	167247872	49	4505
2026-01-04 01:58:36.06	354.11	27.61	-38.8	-40.7	23.0	5.98e-01	0	56	0	169345024	49	4413
2026-01-04 01:58:37.07	353.92	27.79	-38.7	-40.7	23.1	6.03e-01	0	57	0	170917888	49	4402
2026-01-04 01:58:38.08	353.73	27.97	-38.8	-40.7	23.1	5.99e-01	0	56	0	173015040	49	4412
2026-01-04 01:58:39.09	353.54	28.15	-38.8	-40.8	23.0	6.01e-01	0	57	0	175112192	49	4466
2026-01-04 01:58:40.09	353.34	28.32	-38.9	-40.8	22.9	6.04e-01	0	57	0	176685056	49	4468
2026-01-04 01:58:41.10	353.14	28.50	-38.8	-40.7	23.0	6.01e-01	0	56	0	178782208	49	4428
2026-01-04 01:58:42.11	352.94	28.68	-38.7	-40.6	23.1	6.00e-01	0	56	0	180355072	49	4382
2026-01-04 01:58:43.12	352.74	28.87	-38.7	-40.6	23.2	6.03e-01	0	56	0	182452224	49	4371
2026-01-04 01:58:44.13	352.53	29.05	-38.7	-40.6	23.2	6.00e-01	0	56	0	184549376	49	4361
2026-01-04 01:58:45.14	352.32	29.23	-38.7	-40.6	23.2	6.03e-01	0	56	0	186122240	49	4370
2026-01-04 01:58:46.15	352.11	29.42	-38.7	-40.5	23.2	6.00e-01	0	57	0	188219392	49	4335
2026-01-04 01:58:47.16	351.90	29.60	-38.6	-40.5	23.2	6.03e-01	0	56	0	189792256	49	4322
2026-01-04 01:58:48.17	351.68	29.79	-38.6	-40.5	23.2	6.03e-01	0	56	0	191889408	49	4328
2026-01-04 01:58:49.18	351.46	29.98	-38.6	-40.5	23.2	6.01e-01	0	57	0	193986560	49	4331
2026-01-04 01:58:50.19	351.24	30.16	-38.6	-40.5	23.3	6.03e-01	0	56	0	195559424	49	4322
2026-01-04 01:58:51.20	351.02	30.35	-38.6	-40.5	23.3	6.01e-01	0	56	0	197656576	49	4300
2026-01-04 01:58:52.21	350.79	30.54	-38.5	-40.4	23.4	6.02e-01	0	57	0	199753728	49	4262
2026-01-04 01:58:53.22	350.56	30.73	-38.5	-40.3	23.5	6.02e-01	0	57	0	201326592	49	4230
2026-01-04 01:58:54.23	350.33	30.92	-38.5	-40.3	23.5	6.00e-01	0	57	0	203423744	48	4476
2026-01-04 01:58:55.24	350.09	31.12	-38.6	-40.4	23.3	6.02e-01	0	56	0	204996608	48	4544
2026-01-04 01:58:56.25	349.86	31.31	-38.7	-40.5	23.2	5.99e-01	0	56	0	207093760	48	4597
2026-01-04 01:58:57.26	349.61	31.50	-38.6	-40.5	23.3	6.02e-01	0	56	0	209190912	48	4565
2026-01-04 01:58:58.27	349.37	31.70	-38.6	-40.5	23.3	6.03e-01	0	57	0	210763776	48	4572
2026-01-04 01:58:59.28	349.12	31.89	-38.7	-40.6	23.2	6.02e-01	0	56	0	212860928	48	4622
2026-01-04 01:59:00.29	348.87	32.09	-38.8	-40.7	23.1	6.04e-01	0	56	0	214433792	48	4700
2026-01-04 01:59:01.30	348.62	32.29	-39.0	-40.9	22.9	6.01e-01	0	56	0	216530944	48	4799
2026-01-04 01:59:02.31	348.36	32.49	-39.0	-40.9	22.9	6.01e-01	0	56	0	218628096	48	4799
2026-01-04 01:59:03.32	348.10	32.68	-38.8	-40.7	23.1	6.03e-01	0	57	0	220200960	48	4687
2026-01-04 01:59:04.33	347.84	32.88	-38.7	-40.6	23.3	6.01e-01	0	57	0	222298112	48	4609
2026-01-04 01:59:05.34	347.57	33.08	-38.7	-40.6	23.2	6.00e-01	0	57	0	224395264	48	4621
2026-01-04 01:59:06.35	347.30	33.28	-38.8	-40.7	23.1	6.02e-01	0	57	0	225968128	48	4698
2026-01-04 01:59:07.36	347.02	33.49	-39.1	-41.0	22.8	6.03e-01	0	56	0	228065280	48	4861
2026-01-04 01:59:08.37	346.75	33.69	-39.2	-41.3	22.6	6.01e-01	0	56	0	229638144	49	4710
2026-01-04 01:59:09.38	346.47	33.89	-39.4	-41.4	22.5	6.01e-01	0	56	0	231735296	49	4780
2026-01-04 01:59:10.39	346.18	34.09	-39.2	-41.2	22.6	5.97e-01	0	56	0	233832448	49	4698
2026-01-04 01:59:11.40	345.89	34.30	-39.1	-41.1	22.8	6.00e-01	0	57	0	235405312	49	4633
2026-01-04 01:59:12.40	345.60	34.50	-39.2	-41.2	22.7	5.98e-01	0	57	0	237502464	49	4694
2026-01-04 01:59:13.41	345.31	34.71	-39.4	-41.4	22.5	5.99e-01	0	57	0	239075328	49	4812
2026-01-04 01:59:14.42	345.01	34.91	-39.4	-41.5	22.5	6.01e-01	0	56	0	241172480	49	4822
2026-01-04 01:59:15.43	344.70	35.12	-39.6	-41.7	22.3	6.00e-01	0	56	0	243269632	49	4951
2026-01-04 01:59:16.44	344.39	35.33	-39.7	-41.8	22.1	6.02e-01	0	57	0	244842496	49	5020
2026-01-04 01:59:17.45	344.08	35.53	-39.8	-41.9	22.0	6.03e-01	0	57	0	246939648	50	4793
2026-01-04 01:59:18.46	343.77	35.74	-40.0	-42.2	21.7	6.03e-01	0	56	0	248512512	50	4966
2026-01-04 01:59:19.47	343.44	35.95	-40.0	-42.2	21.7	6.02e-01	0	56	0	250609664	50	4965
2026-01-04 01:59:20.48	343.12	36.16	-40.1	-42.3	21.7	6.02e-01	0	57	0	252706816	50	4995
2026-01-04 01:59:21.49	342.79	36.37	-40.1	-42.4	21.6	6.01e-01	0	57	0	254279680	50	5043
2026-01-04 01:59:22.50	342.46	36.58	-40.0	-42.2	21.8	6.02e-01	0	56	0	256376832	50	4961
2026-01-04 01:59:23.51	342.12	36.79	-40.0	-42.2	21.8	6.00e-01	0	57	0	257949696	50	4966
2026-01-04 01:59:24.52	341.78	37.00	-40.2	-42.4	21.5	6.00e-01	0	57	0	260046848	50	5096
2026-01-04 01:59:25.53	341.43	37.21	-40.5	-42.9	21.1	5.99e-01	0	56	0	262144000	51	5060
2026-01-04 01:59:26.54	341.08	37.42	-40.7	-43.2	20.7	6.01e-01	0	56	0	263716864	52	4961
2026-01-04 01:59:27.55	340.72	37.63	-40.3	-42.6	21.3	6.04e-01	0	56	0	265814016	52	4621
2026-01-04 01:59:28.56	340.36	37.84	-40.2	-42.5	21.5	6.00e-01	0	56	0	267911168	52	4560
2026-01-04 01:59:29.57	339.99	38.05	-40.1	-42.4	21.5	6.00e-01	0	57	0	269484032	52	4531
2026-01-04 01:59:30.58	339.62	38.26	-40.3	-42.6	21.3	6.00e-01	0	57	0	271581184	52	4647
2026-01-04 01:59:31.59	339.25	38.47	-40.7	-43.2	20.7	6.00e-01	0	57	0	273154048	52	4978
2026-01-04 01:59:32.60	338.86	38.68	-40.9	-43.4	20.5	6.00e-01	0	56	0	275251200	52	5082
2026-01-04 01:59:33.61	338.48	38.90	-40.7	-43.1	20.8	6.03e-01	0	56	0	277348352	52	4907
2026-01-04 01:59:34.62	338.09	39.11	-40.5	-42.9	21.0	6.00e-01	0	56	0	278921216	52	4789
2026-01-04 01:59:35.63	337.69	39.32	-40.6	-43.0	21.0	5.99e-01	0	56	0	281018368	52	4833
2026-01-04 01:59:36.64	337.29	39.53	-40.7	-43.1	20.9	6.02e-01	0	57	0	282591232	52	4915
2026-01-04 01:59:37.65	336.88	39.74	-40.9	-43.4	20.6	6.01e-01	0	57	0	284688384	52	5057
2026-01-04 01:59:38.66	336.47	39.95	-41.1	-43.8	20.2	6.03e-01	0	57	0	286785536	52	5312
2026-01-04 01:59:39.67	336.05	40.16	-41.0	-43.5	20.4	6.02e-01	0	57	0	288358400	52	5151
2026-01-04 01:59:40.68	335.62	40.37	-40.7	-43.2	20.8	6.00e-01	0	56	0	290455552	52	4956
2026-01-04 01:59:41.69	335.19	40.58	-40.4	-42.8	21.1	6.02e-01	0	57	0	292552704	52	4731
2026-01-04 01:59:42.70	334.76	40.79	-40.4	-42.8	21.2	6.00e-01	0	57	0	294125568	52	4708
2026-01-04 01:59:43.71	334.32	40.99	-40.6	-43.0	21.0	5.99e-01	0	57	0	296222720	52	4835
2026-01-04 01:59:44.72	333.87	41.20	-40.6	-43.1	20.9	6.02e-01	0	57	0	297795584	52	4881
2026-01-04 01:59:45.73	333.42	41.41	-40.2	-42.5	21.5	6.02e-01	0	56	0	299892736	52	4573
2026-01-04 01:59:46.74	332.96	41.61	-40.1	-42.3	21.6	6.03e-01	0	57	0	301989888	52	4482
2026-01-04 01:59:47.75	332.49	41.82	-40.2	-42.4	21.5	5.99e-01	0	56	0	303562752	52	4533
2026-01-04 01:59:48.76	332.02	42.02	-40.3	-42.7	21.3	6.01e-01	0	57	0	305659904	52	4669
2026-01-04 01:59:49.77	331.55	42.22	-40.3	-42.6	21.3	6.03e-01	0	57	0	307232768	52	4641
2026-01-04 01:59:50.78	331.06	42.43	-40.0	-42.2	21.8	5.99e-01	0	57	0	309329920	52	4413
2026-01-04 01:59:51.79	330.57	42.63	-40.0	-42.2	21.9	6.01e-01	0	57	0	311427072	51	4653
2026-01-04 01:59:52.80	330.08	42.83	-40.1	-42.3	21.8	6.02e-01	0	57	0	312999936	51	4738
2026-01-04 01:59:53.81	329.57	43.02	-40.0	-42.2	21.8	6.02e-01	0	57	0	315097088	51	4695
2026-01-04 01:59:54.82	329.07	43.22	-40.2	-42.4	21.6	6.03e-01	0	56	0	316669952	51	4778
2026-01-04 01:59:55.83	328.55	43.42	-40.2	-42.5	21.6	5.99e-01	0	57	0	318767104	51	4833
2026-01-04 01:59:56.84	328.03	43.61	-40.0	-42.2	21.8	6.01e-01	0	56	0	320864256	51	4668
2026-01-04 01:59:57.85	327.50	43.80	-39.9	-42.1	21.9	6.01e-01	0	56	0	322437120	51	4622
2026-01-04 01:59:58.86	326.97	43.99	-40.0	-42.2	21.9	6.01e-01	0	57	0	324534272	51	4674
2026-01-04 01:59:59.87	326.43	44.18	-40.2	-42.5	21.5	6.02e-01	0	56	0	326107136	51	4851
2026-01-04 02:00:00.87	325.88	44.36	-40.1	-42.3	21.7	6.01e-01	0	56	0	328204288	51	4718
2026-01-04 02:00:01.88	325.33	44.55	-40.0	-42.2	21.8	6.02e-01	0	57	0	330301440	51	4693
2026-01-04 02:00:02.89	324.77	44.73	-39.9	-42.1	21.9	6.02e-01	0	57	0	331874304	51	4615
2026-01-04 02:00:03.90	324.20	44.91	-39.9	-42.1	22.0	6.01e-01	0	57	0	333971456	51	4608
2026-01-04 02:00:04.91	323.63	45.09	-40.1	-42.3	21.7	6.02e-01	0	57	0	336068608	51	4727
2026-01-04 02:00:05.92	323.05	45.27	-40.0	-42.1	21.5	6.01e-01	0	56	0	337641472	51	4647
2026-01-04 02:00:06.93	322.46	45.44	-40.0	-42.1	21.9	6.02e-01	0	56	0	339738624	51	4641
2026-01-04 02:00:07.94	321.87	45.61	-40.0	-42.1	21.9	6.01e-01	0	56	0	341311488	51	4627
2026-01-04 02:00:08.95	321.27	45.78	-40.1	-42.3	21.8	5.99e-01	0	56	0	343408640	51	4710
2026-01-04 02:00:09.96	320.66	45.94	-40.3	-42.6	21.4	6.02e-01	0	56	0	345505792	51	4900
2026-01-04 02:00:10.97	320.05	46.11	-40.6	-43.0	21.1	6.02e-01	0	57	0	347078656	51	5130
2026-01-04 02:00:11.98	319.43	46.27	-40.6	-42.9	21.1	6.01e-01	0	56	0	349175808	51	5096
2026-01-04 02:00:12.99	318.80	46.42	-40.4	-42.7	21.5	6.01e-01	0	56	0	350748672	51	4930
2026-01-04 02:00:14.00	318.17	46.58	-40.7	-43.1	20.9	6.01e-01	0	56	0	352845824	51	5200
2026-01-04 02:00:15.01	317.53	46.73	-40.4	-42.8	21.2	6.00e-01	0	56	0	354942976	52	4726
2026-01-04 02:00:16.02	316.89	46.87	-40.1	-42.3	21.7	6.01e-01	0	57	0	356515840	52	4470
2026-01-04 02:00:17.03	316.24	47.02	-40.1	-42.3	21.8	6.00e-01	0	57	0	358612992	51	4726
2026-01-04 02:00:18.04	315.58	47.16	-40.3	-42.5	21.6	6.00e-01	0	57	0	360710144	51	4849
2026-01-04 02:00:19.05	314.92	47.29	-40.2	-42.5	21.5	6.01e-01	0	56	0	362283008	51	4835
2026-01-04 02:00:20.06	314.25	47.42	-40.3	-42.6	21.4	5.99e-01	0	57	0	364380160	51	4912
2026-01-04 02:00:21.07	313.58	47.55	-40.0	-42.2	21.7	6.03e-01	0	57	0	365953024	51	4691
2026-01-04 02:00:22.08	312.90	47.68	-40.0	-42.1	21.9	6.03e-01	0	57	0	368050176	51	4640
2026-01-04 02:00:23.09	312.21	47.80	-40.1	-42.4	21.6	6.02e-01	0	57	0	370147328	51	4774
2026-01-04 02:00:24.10	311.52	47.92	-40.2	-42.4	21.7	6.02e-01	0	56	0	371720192	51	4778
2026-01-04 02:00:25.11	310.83	48.03	-40.2	-42.4	21.6	6.01e-01	0	57	0	373817344	51	4802
2026-01-04 02:00:26.12	310.12	48.14	-39.9	-42.0	22.0	5.99e-01	0	57	0	375390208	51	4591
2026-01-04 02:00:27.13	309.42	48.24	-40.1	-42.3	21.8	5.99e-01	0	56	0	377487360	51	4723
2026-01-04 02:00:28.13	308.71	48.34	-40.4	-42.8	21.4	6.01e-01	0	57	0	379584512	51	4999
2026-01-04 02:00:29.14	308.00	48.43	-40.3	-42.6	21.5	6.01e-01	0	57	0	381157376	51	4912
2026-01-04 02:00:30.15	307.28	48.52	-40.6	-43.0	21.1	6.00e-01	0	57	0	383254528	51	5107
2026-01-04 02:00:31.16	306.56	48.61	-40.9	-43.4	20.7	6.01e-01	0	57	0	384827392	52	5096
2026-01-04 02:00:32.17	305.83	48.69	-40.9	-43.6	20.6	6.02e-01	0	56	0	386924544	52	5164
2026-01-04 02:00:33.18	305.10	48.77	-41.2	-44.0	20.0	6.01e-01	0	57	0	389021696	52	5430
2026-01-04 02:00:34.19	304.36	48.84	-40.7	-43.3	20.6	6.01e-01	0	56	0	390594560	52	5011
2026-01-04 02:00:35.20	303.62	48.90	-40.9	-43.7	20.4	6.00e-01	0	57	0	392691712	52	5221
2026-01-04 02:00:36.21	302.88	48.96	-40.8	-43.4	20.6	6.01e-01	0	57	0	394264576	52	5045
2026-01-04 02:00:37.22	302.14	49.02	-40.4	-42.7	21.3	6.05e-01	0	57	0	396361728	51	4973
2026-01-04 02:00:38.23	301.39	49.07	-40.2	-42.5	21.5	5.98e-01	0	57	0	398458880	50	5110
2026-01-04 02:00:39.24	300.64	49.12	-39.6	-41.6	22.4	6.02e-01	0	56	0	400031744	50	4626
2026-01-04 02:00:40.25	299.89	49.16	-39.2	-41.1	22.9	6.03e-01	0	57	0	402128896	50	4368
2026-01-04 02:00:41.26	299.13	49.19	-39.1	-40.9	23.0	6.00e-01	0	57	0	404226048	50	4288
2026-01-04 02:00:42.27	298.38	49.22	-39.0	-40.9	22.9	6.02e-01	0	57	0	405798912	50	4257
2026-01-04 02:00:43.28	297.62	49.25	-39.4	-41.4	22.3	6.00e-01	0	57	0	407896064	50	4505
2026-01-04 02:00:44.29	296.86	49.27	-40.3	-42.6	20.9	5.99e-01	0	56	0	409468928	52	4616
2026-01-04 02:00:45.30	296.11	49.28	-40.8	-43.5	20.2	6.01e-01	0	56	0	411566080	52	5103
2026-01-04 02:00:46.31	295.35	49.29	-40.8	-43.4	20.6	6.02e-01	0	57	0	413663232	52	5067
2026-01-04 02:00:47.32	294.59	49.30	-40.4	-42.7	21.3	6.00e-01	0	56	0	415236096	51	4965
2026-01-04 02:00:48.33	293.83	49.29	-40.3	-42.6	21.5	6.03e-01	0	56	0	417333248	51	4910
2026-01-04 02:00:49.34	293.07	49.29	-39.5	-41.5	22.5	6.00e-01	0	57	0	418906112	50	4567
2026-01-04 02:00:50.35	292.31	49.28	-39.3	-41.2	22.6	5.99e-01	0	56	0	421003264	50	4422
2026-01-04 02:00:51.35	291.56	49.26	-40.0	-42.2	21.5	6.01e-01	0	56	0	423100416	51	4666
2026-01-04 02:00:52.36	290.80	49.23	-40.7	-43.2	20.7	6.02e-01	0	57	0	424673280	52	4961
2026-01-04 02:00:53.37	290.04	49.21	-40.4	-42.8	21.2	6.01e-01	0	56	0	426770432	51	5001
2026-01-04 02:00:54.38	289.29	49.17	-39.4	-41.4	22.6	6.01e-01	0	57	0	428867584	50	4542
2026-01-04 02:00:55.39	288.54	49.13	-39.7	-41.8	22.1	6.02e-01	0	57	0	430440448	50	4736
2026-01-04 02:00:56.40	287.78	49.09	-40.5	-43.0	20.9	6.01e-01	0	56	0	432537600	51	5115
2026-01-04 02:00:57.41	287.04	49.04	-40.5	-43.0	21.1	6.02e-01	0	56	0	434110464	51	5120
2026-01-04 02:00:58.42	286.29	48.99	-39.6	-41.6	22.4	6.02e-01	0	56	0	436207616	51	4371
2026-01-04 02:00:59.43	285.55	48.93	-40.0	-42.1	21.8	6.02e-01	0	56	0	438304768	51	4636
2026-01-04 02:01:00.44	284.81	48.86	-40.5	-43.0	21.1	6.04e-01	0	56	0	439877632	51	5115
2026-01-04 02:01:01.45	284.07	48.79	-39.4	-41.4	22.6	6.02e-01	0	56	0	441974784	50	4537
2026-01-04 02:01:02.46	283.34	48.72	-39.4	-41.4	22.6	6.02e-01	0	56	0	443547648	50	4514
2026-01-04 02:01:03.47	282.61	48.64	-39.9	-42.2	21.9	6.02e-01	0	57	0	445644800	50	4932
2026-01-04 02:01:04.48	281.88	48.56	-39.6	-41.7	22.4	6.02e-01	0	57	0	447741952	50	4653
2026-01-04 02:01:05.49	281.16	48.47	-39.5	-41.6	22.2	6.04e-01	0	57	0	449314816	50	4620
2026-01-04 02:01:06.50	280.44	48.38	-39.6	-41.7	22.3	5.99e-01	0	57	0	451411968	50	4694
2026-01-04 02:01:07.51	279.73	48.28	-39.7	-41.8	22.2	6.02e-01	0	56	0	452984832	50	4731
2026-01-04 02:01:08.52	279.02	48.18	-39.9	-42.2	21.8	6.02e-01	0	56	0	455081984	50	4927
2026-01-04 02:01:09.53	278.31	48.07	-39.7	-41.7	22.3	6.00e-01	0	57	0	457179136	50	4703
2026-01-04 02:01:10.54	277.61	47.96	-39.7	-41.9	22.1	5.98e-01	0	57	0	458752000	50	4764
2026-01-04 02:01:11.55	276.92	47.84	-39.9	-42.1	21.9	6.02e-01	0	57	0	460849152	50	4922
2026-01-04 02:01:12.56	276.23	47.72	-39.6	-41.7	22.3	6.02e-01	0	57	0	462422016	50	4666
2026-01-04 02:01:13.57	275.55	47.60	-39.9	-42.1	21.9	6.01e-01	0	56	0	464519168	50	4902
2026-01-04 02:01:14.58	274.87	47.47	-39.5	-41.5	22.5	6.01e-01	0	56	0	466616320	50	4583
2026-01-04 02:01:15.59	274.20	47.34	-39.8	-41.9	22.1	6.01e-01	0	57	0	468189184	50	4807
2026-01-04 02:01:16.60	273.53	47.21	-39.7	-41.7	22.3	6.01e-01	0	57	0	470286336	50	4702
2026-01-04 02:01:17.61	272.87	47.07	-39.6	-41.7	22.3	6.02e-01	0	56	0	472383488	50	4652
2026-01-04 02:01:18.62	272.22	46.92	-39.6	-41.7	22.3	5.99e-01	0	57	0	473956352	50	4666
2026-01-04 02:01:19.63	271.57	46.78	-39.9	-42.2	21.9	6.00e-01	0	57	0	476053504	50	4932
2026-01-04 02:01:20.64	270.93	46.63	-39.6	-41.7	22.3	6.02e-01	0	57	0	477626368	50	4680
2026-01-04 02:01:21.65	270.29	46.48	-39.5	-41.6	22.4	6.03e-01	0	57	0	479723520	50	4611
2026-01-04 02:01:22.66	269.66	46.32	-39.4	-41.4	22.5	5.99e-01	0	56	0	481820672	50	4537
2026-01-04 02:01:23.67	269.04	46.16	-39.7	-41.8	22.2	6.01e-01	0	56	0	483393536	50	4725
2026-01-04 02:01:24.68	268.43	46.00	-39.7	-41.8	22.2	6.02e-01	0	56	0	485490688	50	4740
2026-01-04 02:01:25.69	267.81	45.84	-39.2	-41.2	22.8	6.01e-01	0	57	0	487063552	50	4401
2026-01-04 02:01:26.70	267.21	45.67	-39.6	-41.7	22.4	5.99e-01	0	57	0	489160704	50	4661
2026-01-04 02:01:27.71	266.61	45.50	-39.7	-41.8	22.1	5.99e-01	0	56	0	491257856	50	4733
2026-01-04 02:01:28.72	266.02	45.33	-39.3	-41.2	22.8	6.01e-01	0	57	0	492830720	50	4430
2026-01-04 02:01:29.73	265.44	45.15	-39.3	-41.3	22.7	6.01e-01	0	56	0	494927872	50	4477
2026-01-04 02:01:30.74	264.86	44.97	-39.3	-41.4	22.6	6.01e-01	0	56	0	497025024	50	4504
2026-01-04 02:01:31.75	264.29	44.79	-39.4	-41.5	22.5	6.00e-01	0	57	0	498597888	50	4562
2026-01-04 02:01:32.76	263.73	44.61	-39.4	-41.4	22.6	6.01e-01	0	56	0	500695040	50	4518
2026-01-04 02:01:33.77	263.17	44.43	-39.5	-41.5	22.4	6.01e-01	0	57	0	502267904	50	4590
2026-01-04 02:01:34.78	262.62	44.24	-39.2	-41.2	22.8	6.00e-01	0	56	0	504365056	50	4410
2026-01-04 02:01:35.79	262.07	44.05	-39.3	-41.3	22.7	6.03e-01	0	57	0	506462208	50	4460
2026-01-04 02:01:36.80	261.53	43.86	-39.5	-41.5	22.5	6.00e-01	0	56	0	508035072	50	4581
2026-01-04 02:01:37.82	261.00	43.67	-39.3	-41.3	22.6	6.01e-01	0	56	0	510132224	50	4483
2026-01-04 02:01:38.82	260.48	43.47	-38.9	-40.8	23.1	6.01e-01	0	57	0	511705088	49	4472
2026-01-04 02:01:39.83	259.96	43.28	-39.6	-41.7	22.3	6.02e-01	0	56	0	513802240	49	4943
2026-01-04 02:01:40.84	259.45	43.08	-39.5	-41.6	22.4	6.03e-01	0	57	0	515899392	49	4888
2026-01-04 02:01:41.85	258.94	42.88	-39.5	-41.6	22.4	6.02e-01	0	56	0	517472256	49	4890
2026-01-04 02:01:42.86	258.44	42.68	-39.5	-41.6	22.3	6.02e-01	0	56	0	519569408	49	4915
2026-01-04 02:01:43.87	257.95	42.48	-39.3	-41.4	22.6	6.01e-01	0	56	0	521142272	49	4760
2026-01-04 02:01:44.88	257.46	42.28	-39.4	-41.4	22.5	5.99e-01	0	56	0	523239424	49	4808
2026-01-04 02:01:45.89	256.98	42.08	-39.7	-41.8	22.1	5.99e-01	0	56	0	525336576	49	5038
2026-01-04 02:01:46.90	256.51	41.87	-39.7	-41.8	22.2	6.02e-01	0	56	0	526909440	50	4755
2026-01-04 02:01:47.91	256.04	41.67	-39.8	-42.0	22.0	6.00e-01	0	56	0	529006592	50	4821
2026-01-04 02:01:48.92	255.57	41.46	-39.4	-41.4	22.5	6.02e-01	0	57	0	530579456	50	4544
2026-01-04 02:01:49.93	255.12	41.26	-39.5	-41.5	22.5	6.03e-01	0	56	0	532676608	50	4581
2026-01-04 02:01:50.94	254.67	41.05	-39.9	-42.0	22.0	6.03e-01	0	56	0	534773760	50	4860
2026-01-04 02:01:51.95	254.22	40.84	-40.1	-42.4	21.6	6.00e-01	0	57	0	536346624	50	5045
2026-01-04 02:01:52.96	253.78	40.63	-39.8	-42.0	22.0	6.03e-01	0	57	0	538443776	50	4835
2026-01-04 02:01:53.97	253.35	40.42	-40.0	-42.3	21.8	6.02e-01	0	56	0	540540928	50	4987
2026-01-04 02:01:54.98	252.92	40.21	-40.1	-42.3	21.7	6.02e-01	0	57	0	542113792	50	5016
2026-01-04 02:01:55.99	252.50	40.00	-40.1	-42.3	21.7	6.01e-01	0	57	0	544210944	50	5013
2026-01-04 02:01:57.00	252.08	39.79	-40.3	-42.6	21.4	6.02e-01	0	56	0	545783808	51	4909
2026-01-04 02:01:58.01	251.67	39.58	-40.4	-42.7	21.3	5.99e-01	0	57	0	547880960	51	4977
2026-01-04 02:01:59.02	251.27	39.37	-40.2	-42.5	21.5	6.00e-01	0	57	0	549978112	51	4853
2026-01-04 02:02:00.03	250.87	39.15	-40.2	-42.4	21.6	6.02e-01	0	57	0	551550976	51	4799
2026-01-04 02:02:01.03	250.48	38.94	-40.6	-43.0	21.0	6.01e-01	0	56	0	553648128	51	5121
2026-01-04 02:02:02.04	250.09	38.73	-40.7	-43.3	20.7	6.00e-01	0	57	0	555220992	52	4990
2026-01-04 02:02:03.05	249.70	38.52	-40.5	-42.9	21.0	6.03e-01	0	56	0	557318144	52	4805
2026-01-04 02:02:04.06	249.32	38.31	-40.3	-42.6	21.3	5.98e-01	0	57	0	559415296	52	4626
2026-01-04 02:02:05.07	248.95	38.10	-40.4	-42.8	21.2	5.99e-01	0	57	0	560988160	52	4711
2026-01-04 02:02:06.09	248.58	37.88	-40.5	-42.9	21.1	6.00e-01	0	57	0	563085312	52	4764
2026-01-04 02:02:07.10	248.21	37.67	-40.3	-42.6	21.3	6.02e-01	0	57	0	565182464	52	4609
2026-01-04 02:02:08.10	247.86	37.46	-40.3	-42.7	21.2	6.03e-01	0	57	0	566755328	52	4684
2026-01-04 02:02:09.11	247.50	37.25	-40.5	-42.9	21.0	5.99e-01	0	57	0	568852480	52	4805
2026-01-04 02:02:10.12	247.15	37.04	-40.4	-42.8	21.1	6.02e-01	0	57	0	570425344	52	4742
2026-01-04 02:02:11.13	246.81	36.83	-40.5	-43.0	21.0	5.99e-01	0	57	0	572522496	52	4823
2026-01-04 02:02:12.14	246.47	36.61	-40.4	-42.8	21.1	6.01e-01	0	56	0	574619648	52	4713
2026-01-04 02:02:13.15	246.13	36.40	-40.2	-42.5	21.4	6.01e-01	0	57	0	576192512	52	4565
2026-01-04 02:02:14.16	245.80	36.19	-40.1	-42.3	21.5	6.02e-01	0	56	0	578289664	52	4481
2026-01-04 02:02:15.17	245.47	35.98	-40.1	-42.3	21.5	6.00e-01	0	57	0	579862528	52	4490
2026-01-04 02:02:16.18	245.15	35.77	-40.4	-42.8	21.2	6.03e-01	0	57	0	581959680	52	4716
2026-01-04 02:02:17.19	244.83	35.57	-40.4	-42.8	21.0	6.00e-01	0	57	0	584056832	52	4736
2026-01-04 02:02:18.20	244.51	35.36	-39.9	-42.1	21.8	6.01e-01	0	57	0	585629696	51	4616
2026-01-04 02:02:19.21	244.20	35.15	-39.8	-42.0	22.0	6.02e-01	0	57	0	587726848	51	4567
2026-01-04 02:02:20.22	243.90	34.94	-40.1	-42.3	21.6	6.01e-01	0	57	0	589299712	51	4755
2026-01-04 02:02:21.23	243.59	34.73	-40.2	-42.5	21.5	6.01e-01	0	56	0	591396864	51	4857
2026-01-04 02:02:22.24	243.29	34.53	-40.1	-42.3	21.6	5.99e-01	0	57	0	593494016	51	4741
2026-01-04 02:02:23.25	243.00	34.32	-40.0	-42.2	21.7	6.02e-01	0	57	0	595066880	51	4686
2026-01-04 02:02:24.26	242.71	34.12	-40.0	-42.3	21.7	6.03e-01	0	57	0	597164032	51	4725
2026-01-04 02:02:25.26	242.42	33.91	-39.9	-42.1	21.8	6.00e-01	0	57	0	598736896	51	4650
2026-01-04 02:02:26.27	242.14	33.71	-39.7	-41.9	22.1	6.03e-01	0	57	0	600834048	51	4502
2026-01-04 02:02:27.28	241.86	33.51	-39.6	-41.7	22.2	6.02e-01	0	56	0	602931200	51	4421
2026-01-04 02:02:28.29	241.58	33.30	-39.7	-41.8	22.1	6.00e-01	0	57	0	604504064	51	4493
2026-01-04 02:02:29.30	241.31	33.10	-39.6	-41.7	22.2	6.00e-01	0	56	0	606601216	51	4414
2026-01-04 02:02:30.31	241.04	32.90	-39.3	-41.4	22.5	6.03e-01	0	57	0	608698368	50	4509
2026-01-04 02:02:31.32	240.78	32.70	-39.3	-41.4	22.6	6.02e-01	0	56	0	610271232	50	4494
2026-01-04 02:02:32.33	240.51	32.50	-39.7	-41.9	22.0	6.03e-01	0	57	0	612368384	50	4792
2026-01-04 02:02:33.34	240.25	32.30	-40.0	-42.2	21.7	6.01e-01	0	57	0	613941248	50	4971
2026-01-04 02:02:34.35	240.00	32.10	-39.6	-41.8	22.1	6.02e-01	0	56	0	616038400	50	4710
2026-01-04 02:02:35.36	239.74	31.91	-39.4	-41.4	22.5	6.02e-01	0	57	0	618135552	50	4531
2026-01-04 02:02:36.37	239.50	31.71	-39.4	-41.5	22.5	6.03e-01	0	56	0	619708416	50	4547
2026-01-04 02:02:37.38	239.25	31.51	-39.6	-41.7	22.3	6.02e-01	0	56	0	621805568	50	4655
2026-01-04 02:02:38.39	239.01	31.32	-39.5	-41.6	22.3	5.98e-01	0	57	0	623378432	50	4637
2026-01-04 02:02:39.40	238.76	31.12	-39.3	-41.4	22.5	6.01e-01	0	56	0	625475584	50	4500
2026-01-04 02:02:40.41	238.53	30.93	-39.2	-41.2	22.7	6.00e-01	0	56	0	627572736	50	4401
2026-01-04 02:02:41.42	238.29	30.74	-39.3	-41.4	22.5	6.00e-01	0	56	0	629145600	50	4512
2026-01-04 02:02:42.43	238.06	30.55	-39.6	-41.7	22.2	6.02e-01	0	56	0	631242752	50	4668
2026-01-04 02:02:43.44	237.83	30.36	-39.4	-41.5	22.3	6.02e-01	0	57	0	633339904	50	4578
2026-01-04 02:02:44.45	237.61	30.17	-39.2	-41.2	22.6	6.01e-01	0	56	0	634912768	50	4412
2026-01-04 02:02:45.46	237.38	29.98	-39.3	-41.3	22.6	6.02e-01	0	56	0	637009920	50	4461
2026-01-04 02:02:46.47	237.16	29.79	-39.5	-41.6	22.3	6.02e-01	0	56	0	638582784	50	4636
2026-01-04 02:02:47.48	236.94	29.60	-39.7	-41.9	22.0	6.02e-01	0	57	0	640679936	50	4772
2026-01-04 02:02:48.49	236.73	29.41	-39.6	-41.7	22.2	5.99e-01	0	57	0	642777088	50	4672
2026-01-04 02:02:49.50	236.52	29.23	-39.2	-41.2	22.6	6.01e-01	0	56	0	644349952	50	4430
2026-01-04 02:02:50.51	236.31	29.04	-39.2	-41.2	22.6	6.02e-01	0	56	0	646447104	50	4427
2026-01-04 02:02:51.51	236.10	28.86	-39.4	-41.4	22.4	5.99e-01	0	57	0	648019968	50	4531
2026-01-04 02:02:52.52	235.90	28.68	-39.5	-41.6	22.2	6.01e-01	0	57	0	650117120	50	4650
2026-01-04 02:02:53.53	235.69	28.50	-39.5	-41.7	22.2	6.04e-01	0	56	0	652214272	50	4669
2026-01-04 02:02:54.54	235.49	28.31	-39.4	-41.4	22.4	5.99e-01	0	57	0	653787136	50	4533
2026-01-04 02:02:55.55	235.29	28.13	-39.4	-41.4	22.4	6.01e-01	0	57	0	655884288	50	4541
2026-01-04 02:02:56.56	235.10	27.95	-39.4	-41.4	22.4	6.02e-01	0	57	0	657457152	50	4527
2026-01-04 02:02:57.57	234.90	27.78	-39.4	-41.4	22.4	6.01e-01	0	56	0	659554304	50	4544
2026-01-04 02:02:58.58	234.71	27.60	-39.5	-41.6	22.2	5.99e-01	0	56	0	661651456	50	4616
2026-01-04 02:02:59.59	234.52	27.42	-39.4	-41.5	22.3	6.01e-01	0	57	0	663224320	50	4550
2026-01-04 02:03:00.60	234.34	27.24	-39.3	-41.3	22.4	6.02e-01	0	57	0	665321472	50	4489
2026-01-04 02:03:01.61	234.15	27.07	-39.2	-41.2	22.7	6.01e-01	0	57	0	666894336	50	4395
2026-01-04 02:03:02.62	233.97	26.90	-39.3	-41.3	22.5	5.98e-01	0	56	0	668991488	50	4482
2026-01-04 02:03:03.63	233.79	26.72	-39.5	-41.7	22.2	5.99e-01	0	57	0	671088640	50	4665
2026-01-04 02:03:04.64	233.61	26.55	-39.7	-41.9	21.9	6.01e-01	0	56	0	672661504	50	4800
2026-01-04 02:03:05.65	233.44	26.38	-39.7	-41.9	21.9	6.03e-01	0	57	0	674758656	50	4778
2026-01-04 02:03:06.66	233.26	26.21	-39.5	-41.7	22.1	6.02e-01	0	56	0	676855808	50	4658
2026-01-04 02:03:07.67	233.09	26.04	-39.6	-41.7	22.1	6.03e-01	0	57	0	678428672	50	4698
2026-01-04 02:03:08.68	232.92	25.87	-39.5	-41.5	22.3	6.04e-01	0	56	0	680525824	50	4598
2026-01-04 02:03:09.69	232.75	25.70	-39.5	-41.5	22.3	6.03e-01	0	57	0	682098688	50	4588
2026-01-04 02:03:10.70	232.58	25.53	-39.6	-41.8	22.0	6.00e-01	0	57	0	684195840	50	4726
2026-01-04 02:03:11.71	232.42	25.37	-39.8	-42.0	21.8	6.02e-01	0	57	0	686292992	50	4844
2026-01-04 02:03:12.72	232.25	25.20	-39.9	-42.1	21.7	6.01e-01	0	57	0	687865856	50	4913
2026-01-04 02:03:13.73	232.09	25.04	-39.9	-42.2	21.7	6.03e-01	0	57	0	689963008	50	4939
2026-01-04 02:03:14.74	231.93	24.87	-39.7	-41.8	21.9	6.01e-01	0	57	0	691535872	50	4754
2026-01-04 02:03:15.75	231.78	24.71	-39.6	-41.7	22.1	6.01e-01	0	57	0	693633024	50	4664
2026-01-04 02:03:16.76	231.62	24.55	-39.6	-41.7	22.1	6.01e-01	0	57	0	695730176	50	4702
2026-01-04 02:03:17.77	231.46	24.39	-39.7	-41.9	22.0	6.02e-01	0	57	0	697303040	50	4769
2026-01-04 02:03:18.78	231.31	24.23	-39.9	-42.2	21.7	6.00e-01	0	57	0	699400192	50	4933
2026-01-04 02:03:19.79	231.16	24.07	-40.0	-42.2	21.6	6.01e-01	0	57	0	701497344	50	4980
2026-01-04 02:03:20.80	231.01	23.91	-39.9	-42.2	21.6	6.03e-01	0	57	0	703070208	50	4952
2026-01-04 02:03:21.81	230.86	23.75	-39.9	-42.1	21.7	6.02e-01	0	57	0	705167360	50	4924
2026-01-04 02:03:22.82	230.72	23.59	-39.8	-42.0	21.8	6.03e-01	0	57	0	706740224	50	4848
2026-01-04 02:03:23.83	230.57	23.44	-39.7	-41.9	21.9	6.00e-01	0	56	0	708837376	50	4808
2026-01-04 02:03:24.84	230.43	23.28	-39.7	-41.9	21.9	6.01e-01	0	57	0	710934528	50	4798
2026-01-04 02:03:25.85	230.29	23.13	-39.7	-41.9	21.9	6.02e-01	0	57	0	712507392	50	4785
2026-01-04 02:03:26.86	230.15	22.97	-39.7	-41.9	21.9	6.02e-01	0	57	0	714604544	50	4789
2026-01-04 02:03:27.87	230.01	22.82	-39.7	-41.9	21.9	5.98e-01	0	57	0	716177408	50	4794
2026-01-04 02:03:28.88	229.87	22.67	-39.7	-41.9	21.9	6.02e-01	0	57	0	718274560	50	4788
2026-01-04 02:03:29.89	229.73	22.52	-39.8	-42.0	21.8	6.01e-01	0	57	0	720371712	50	4839
2026-01-04 02:03:30.90	229.60	22.37	-39.9	-42.2	21.6	6.01e-01	0	57	0	721944576	50	4927
2026-01-04 02:03:31.91	229.47	22.22	-40.0	-42.3	21.5	5.99e-01	0	57	0	724041728	50	4995
2026-01-04 02:03:32.92	229.33	22.07	-40.1	-42.4	21.4	6.04e-01	0	56	0	725614592	50	5065
2026-01-04 02:03:33.93	229.20	21.92	-40.1	-42.4	21.3	6.00e-01	0	56	0	727711744	50	5090
2026-01-04 02:03:34.94	229.07	21.77	-40.0	-42.4	21.4	6.01e-01	0	57	0	729808896	50	5053
2026-01-04 02:03:35.95	228.95	21.63	-40.1	-42.4	21.3	6.02e-01	0	57	0	731381760	50	5094
2026-01-04 02:03:36.96	228.82	21.48	-40.1	-42.5	21.3	6.03e-01	0	57	0	733478912	50	5104
2026-01-04 02:03:37.97	228.69	21.34	-40.1	-42.4	21.4	6.02e-01	0	57	0	735051776	50	5078
2026-01-04 02:03:38.98	228.57	21.19	-40.1	-42.4	21.4	6.01e-01	0	57	0	737148928	50	5074
2026-01-04 02:03:39.98	228.45	21.05	-39.9	-42.2	21.5	5.99e-01	0	56	0	739246080	50	4955
2026-01-04 02:03:40.99	228.33	20.91	-39.9	-42.2	21.6	6.02e-01	0	57	0	740818944	50	4931
2026-01-04 02:03:42.00	228.21	20.77	-39.9	-42.1	21.6	5.99e-01	0	56	0	742916096	50	4906
2026-01-04 02:03:43.01	228.09	20.63	-39.8	-42.1	21.7	6.02e-01	0	57	0	745013248	50	4874
2026-01-04 02:03:44.02	227.97	20.49	-39.8	-42.0	21.8	6.01e-01	0	56	0	746586112	50	4824
2026-01-04 02:03:45.03	227.85	20.35	-39.7	-41.9	21.9	6.01e-01	0	56	0	748683264	50	4771
2026-01-04 02:03:46.04	227.74	20.21	-39.5	-41.7	22.1	6.01e-01	0	57	0	750256128	50	4665
2026-01-04 02:03:47.05	227.62	20.07	-39.7	-41.8	22.0	6.02e-01	0	57	0	752353280	50	4740
2026-01-04 02:03:48.06	227.51	19.93	-39.6	-41.8	21.9	6.00e-01	0	56	0	754450432	50	4724
2026-01-04 02:03:49.07	227.40	19.79	-39.6	-41.8	22.0	6.02e-01	0	57	0	756023296	50	4742
2026-01-04 02:03:50.08	227.28	19.66	-39.7	-41.9	21.8	6.04e-01	0	57	0	758120448	50	4787
2026-01-04 02:03:51.09	227.17	19.52	-39.7	-41.9	21.8	6.02e-01	0	57	0	759693312	50	4786
2026-01-04 02:03:52.10	227.06	19.39	-39.8	-42.0	21.8	6.00e-01	0	57	0	761790464	50	4829
2026-01-04 02:03:53.11	226.96	19.25	-39.8	-42.1	21.7	6.02e-01	0	57	0	763887616	50	4876
2026-01-04 02:03:54.12	226.85	19.12	-39.8	-42.0	21.7	6.03e-01	0	57	0	765460480	50	4870
2026-01-04 02:03:55.13	226.74	18.99	-39.8	-42.0	21.7	6.03e-01	0	57	0	767557632	50	4861
2026-01-04 02:03:56.14	226.64	18.86	-39.8	-42.1	21.6	5.99e-01	0	57	0	769654784	50	4881
2026-01-04 02:03:57.15	226.53	18.72	-39.7	-41.9	21.8	6.01e-01	0	57	0	771227648	50	4799
2026-01-04 02:03:58.16	226.43	18.59	-39.7	-41.9	21.8	5.99e-01	0	56	0	773324800	50	4776
2026-01-04 02:03:59.17	226.33	18.46	-39.7	-41.9	21.8	6.01e-01	0	57	0	774897664	50	4780
2026-01-04 02:04:00.18	226.22	18.33	-39.7	-42.0	21.7	6.01e-01	0	57	0	776994816	50	4828
2026-01-04 02:04:01.19	226.12	18.21	-39.8	-42.0	21.7	5.99e-01	0	56	0	779091968	50	4857
2026-01-04 02:04:02.20	226.02	18.08	-39.8	-42.1	21.6	5.99e-01	0	56	0	780664832	50	4881
2026-01-04 02:04:03.21	225.93	17.95	-39.7	-42.0	21.7	6.02e-01	0	57	0	782761984	50	4818
2026-01-04 02:04:04.22	225.83	17.82	-39.8	-42.0	21.7	6.01e-01	0	57	0	784334848	50	4852
2026-01-04 02:04:05.23	225.73	17.70	-39.9	-42.1	21.6	6.00e-01	0	57	0	786432000	50	4912
2026-01-04 02:04:06.24	225.64	17.57	-39.8	-42.0	21.7	5.99e-01	0	57	0	788529152	50	4843
2026-01-04 02:04:07.25	225.54	17.45	-39.7	-41.9	21.7	6.01e-01	0	56	0	790102016	50	4813
2026-01-04 02:04:08.26	225.45	17.32	-39.7	-42.0	21.7	6.00e-01	0	57	0	792199168	50	4828
2026-01-04 02:04:09.27	225.35	17.20	-39.8	-42.0	21.6	5.99e-01	0	56	0	793772032	50	4859
2026-01-04 02:04:10.27	225.26	17.08	-39.8	-42.1	21.6	6.00e-01	0	57	0	795869184	50	4909
2026-01-04 02:04:11.28	225.17	16.95	-39.8	-42.1	21.6	6.00e-01	0	57	0	797966336	50	4887
2026-01-04 02:04:12.29	225.08	16.83	-39.8	-42.0	21.7	6.02e-01	0	57	0	799539200	50	4846
2026-01-04 02:04:13.30	224.99	16.71	-39.8	-42.0	21.6	6.00e-01	0	57	0	801636352	50	4869
2026-01-04 02:04:14.31	224.90	16.59	-39.8	-42.0	21.6	6.02e-01	0	56	0	803209216	50	4869
2026-01-04 02:04:15.32	224.81	16.47	-39.7	-42.0	21.7	6.02e-01	0	57	0	805306368	50	4820
2026-01-04 02:04:16.33	224.72	16.35	-39.8	-42.1	21.6	6.01e-01	0	57	0	807403520	50	4878
2026-01-04 02:04:17.34	224.63	16.23	-39.8	-42.1	21.6	5.99e-01	0	56	0	808976384	50	4880
2026-01-04 02:04:18.35	224.55	16.11	-39.8	-42.1	21.5	6.03e-01	0	57	0	811073536	50	4922
2026-01-04 02:04:19.36	224.46	16.00	-39.7	-42.0	21.6	6.02e-01	0	56	0	812646400	50	4825
2026-01-04 02:04:20.37	224.38	15.88	-39.7	-41.9	21.7	5.98e-01	0	56	0	814743552	50	4810
2026-01-04 02:04:21.38	224.29	15.76	-39.7	-42.0	21.6	6.00e-01	0	56	0	816840704	50	4822
2026-01-04 02:04:22.39	224.21	15.65	-39.7	-41.9	21.7	6.00e-01	0	57	0	818413568	50	4813
2026-01-04 02:04:23.40	224.13	15.53	-39.8	-42.0	21.6	6.02e-01	0	57	0	820510720	50	4862
2026-01-04 02:04:24.41	224.04	15.42	-39.8	-42.1	21.5	6.03e-01	0	57	0	822607872	50	4899
2026-01-04 02:04:25.42	223.96	15.30	-39.8	-42.1	21.5	6.02e-01	0	57	0	824180736	50	4886
2026-01-04 02:04:26.43	223.88	15.19	-39.8	-42.1	21.5	6.01e-01	0	57	0	826277888	50	4873
2026-01-04 02:04:27.43	223.80	15.07	-39.8	-42.1	21.5	6.01e-01	0	57	0	827850752	50	4896
2026-01-04 02:04:28.44	223.72	14.96	-39.8	-42.0	21.5	6.03e-01	0	57	0	829947904	50	4859
2026-01-04 02:04:29.45	223.64	14.85	-39.7	-42.0	21.6	6.02e-01	0	57	0	832045056	50	4823
2026-01-04 02:04:30.46	223.57	14.74	-39.8	-42.1	21.5	6.02e-01	0	57	0	833617920	50	4871
2026-01-04 02:04:31.47	223.49	14.63	-39.8	-42.0	21.5	6.00e-01	0	57	0	835715072	50	4864
2026-01-04 02:04:32.48	223.41	14.52	-39.8	-42.1	21.4	6.01e-01	0	57	0	837812224	50	4904
2026-01-04 02:04:33.49	223.33	14.41	-39.9	-42.2	21.3	6.02e-01	0	57	0	839385088	50	4946
2026-01-04 02:04:34.50	223.26	14.30	-39.9	-42.2	21.4	6.01e-01	0	57	0	841482240	50	4946
2026-01-04 02:04:35.51	223.18	14.19	-39.8	-42.1	21.5	6.01e-01	0	57	0	843055104	50	4878
2026-01-04 02:04:36.52	223.11	14.08	-39.7	-42.0	21.5	6.00e-01	0	57	0	845152256	50	4861
2026-01-04 02:04:37.53	223.04	13.97	-39.8	-42.1	21.4	6.02e-01	0	57	0	847249408	50	4912
2026-01-04 02:04:38.54	222.96	13.86	-39.8	-42.1	21.4	5.98e-01	0	57	0	848822272	50	4898
2026-01-04 02:04:39.55	222.89	13.75	-39.9	-42.2	21.3	6.02e-01	0	57	0	850919424	50	4964
2026-01-04 02:04:40.56	222.82	13.65	-39.9	-42.3	21.2	6.01e-01	0	56	0	852492288	50	5002
2026-01-04 02:04:41.57	222.75	13.54	-40.0	-42.5	21.1	6.01e-01	0	56	0	854589440	50	5101
2026-01-04 02:04:42.58	222.68	13.43	-39.9	-42.3	21.2	6.03e-01	0	57	0	856686592	50	4998
2026-01-04 02:04:43.59	222.61	13.33	-39.9	-42.2	21.3	6.01e-01	0	57	0	858259456	50	4960
2026-01-04 02:04:44.60	222.54	13.22	-39.8	-42.2	21.3	6.01e-01	0	56	0	860356608	50	4928
2026-01-04 02:04:45.61	222.47	13.12	-39.8	-42.1	21.4	6.01e-01	0	57	0	861929472	50	4896
2026-01-04 02:04:46.62	222.40	13.02	-39.8	-42.2	21.3	5.98e-01	0	57	0	864026624	50	4952
2026-01-04 02:04:47.63	222.33	12.91	-39.9	-42.3	21.2	6.02e-01	0	57	0	866123776	50	5004
2026-01-04 02:04:48.64	222.26	12.81	-40.1	-42.5	21.0	6.02e-01	0	57	0	867696640	50	5132
2026-01-04 02:04:49.65	222.19	12.71	-40.2	-42.6	20.9	5.99e-01	0	57	0	869793792	50	5209
2026-01-04 02:04:50.66	222.13	12.60	-40.2	-42.7	20.8	5.99e-01	0	57	0	871366656	50	5260
2026-01-04 02:04:51.67	222.06	12.50	-40.2	-42.6	20.8	6.03e-01	0	56	0	873463808	51	4926
2026-01-04 02:04:52.68	222.00	12.40	-40.0	-42.5	21.0	6.01e-01	0	56	0	875560960	51	4823
2026-01-04 02:04:53.69	221.93	12.30	-40.0	-42.5	21.0	6.00e-01	0	57	0	877133824	51	4817
2026-01-04 02:04:54.70	221.87	12.20	-40.0	-42.4	21.1	6.00e-01	0	57	0	879230976	51	4761
2026-01-04 02:04:55.71	221.80	12.10	-39.9	-42.3	21.1	6.02e-01	0	56	0	880803840	51	4737
2026-01-04 02:04:56.72	221.74	12.00	-40.0	-42.4	21.0	6.01e-01	0	57	0	882900992	51	4784
2026-01-04 02:04:57.73	221.68	11.90	-40.0	-42.4	21.0	6.01e-01	0	57	0	884998144	51	4796
2026-01-04 02:04:58.74	221.61	11.80	-40.0	-42.5	20.9	6.02e-01	0	57	0	886571008	51	4816
2026-01-04 02:04:59.75	221.55	11.70	-40.1	-42.6	20.8	6.00e-01	0	57	0	888668160	51	4891
2026-01-04 02:05:00.76	221.49	11.60	-40.1	-42.6	20.8	6.03e-01	0	56	0	890765312	51	4875
2026-01-04 02:05:01.76	221.43	11.51	-40.1	-42.6	20.8	6.02e-01	0	57	0	892338176	51	4880
2026-01-04 02:05:02.77	221.37	11.41	-40.0	-42.4	21.0	6.00e-01	0	57	0	894435328	51	4795
2026-01-04 02:05:03.79	221.31	11.31	-40.1	-42.5	20.8	6.00e-01	0	57	0	896008192	51	4862
2026-01-04 02:05:04.79	221.25	11.22	-40.1	-42.6	20.8	6.02e-01	0	57	0	898105344	51	4872
2026-01-04 02:05:05.80	221.19	11.12	-40.0	-42.5	20.9	6.03e-01	0	57	0	900202496	51	4851
2026-01-04 02:05:06.81	221.13	11.03	-40.1	-42.6	20.7	6.00e-01	0	56	0	901775360	51	4917
2026-01-04 02:05:07.82	221.07	10.93	-40.1	-42.6	20.7	6.01e-01	0	57	0	903872512	51	4910
2026-01-04 02:05:08.83	221.01	10.84	-40.2	-42.8	20.6	6.01e-01	0	57	0	905969664	51	4985
2026-01-04 02:05:09.84	220.95	10.74	-40.3	-42.9	20.3	6.00e-01	0	56	0	907542528	51	5051
2026-01-04 02:05:10.85	220.90	10.65	-40.2	-42.7	20.6	6.00e-01	0	57	0	909639680	51	4957
2026-01-04 02:05:11.86	220.84	10.55	-40.1	-42.6	20.7	5.99e-01	0	57	0	911212544	51	4919
2026-01-04 02:05:12.87	220.78	10.46	-40.1	-42.7	20.7	6.00e-01	0	57	0	913309696	51	4927
2026-01-04 02:05:13.88	220.73	10.37	-40.1	-42.6	20.7	6.01e-01	0	57	0	915406848	51	4886
2026-01-04 02:05:14.89	220.67	10.27	-40.1	-42.6	20.6	6.00e-01	0	57	0	916979712	51	4920
2026-01-04 02:05:15.90	220.62	10.18	-40.1	-42.6	20.7	6.00e-01	0	57	0	919076864	51	4910
2026-01-04 02:05:16.91	220.56	10.09	-40.0	-42.5	20.8	6.01e-01	0	57	0	920649728	51	4850
2026-01-04 02:05:17.92	220.51	10.00	-40.1	-42.6	20.6	6.01e-01	0	57	0	922746880	51	4910
2026-01-04 02:05:18.93	220.45	9.91	-40.1	-42.6	20.7	6.03e-01	0	57	0	924844032	51	4881
2026-01-04 02:05:19.94	220.40	9.82	-40.0	-42.6	20.7	6.01e-01	0	56	0	926416896	51	4871
2026-01-04 02:05:20.95	220.35	9.73	-40.0	-42.6	20.7	6.03e-01	0	57	0	928514048	51	4871
2026-01-04 02:05:21.96	220.29	9.63	-40.1	-42.7	20.6	6.01e-01	0	56	0	930086912	51	4931
2026-01-04 02:05:22.97	220.24	9.55	-40.2	-42.7	20.5	6.00e-01	0	57	0	932184064	51	4970
2026-01-04 02:05:23.98	220.19	9.46	-40.1	-42.7	20.5	6.02e-01	0	57	0	934281216	51	4937
2026-01-04 02:05:24.99	220.14	9.37	-40.3	-42.9	20.3	6.01e-01	0	57	0	935854080	51	5059
2026-01-04 02:05:25.99	220.09	9.28	-40.3	-43.0	20.2	6.02e-01	0	57	0	937951232	51	5131
2026-01-04 02:05:27.00	220.03	9.19	-40.4	-43.1	20.0	6.00e-01	0	57	0	939524096	51	5213
2026-01-04 02:05:28.01	219.98	9.10	-40.3	-43.0	20.2	6.01e-01	0	57	0	941621248	51	5130
2026-01-04 02:05:29.02	219.93	9.01	-40.4	-43.2	20.0	6.02e-01	0	56	0	943718400	51	5227
2026-01-04 02:05:30.03	219.88	8.93	-40.5	-43.2	20.0	6.00e-01	0	57	0	945291264	51	5261
2026-01-04 02:05:31.04	219.83	8.84	-40.5	-43.3	19.9	6.02e-01	0	57	0	947388416	51	5283
2026-01-04 02:05:32.05	219.78	8.75	-40.5	-43.4	19.8	5.99e-01	0	57	0	948961280	51	5344
2026-01-04 02:05:33.06	219.73	8.67	-40.5	-43.3	19.9	6.01e-01	0	57	0	951058432	51	5289
2026-01-04 02:05:34.07	219.68	8.58	-40.5	-43.3	19.9	6.02e-01	0	57	0	953155584	51	5288
2026-01-04 02:05:35.08	219.64	8.49	-40.6	-43.4	19.8	6.02e-01	0	56	0	954728448	51	5345
2026-01-04 02:05:36.09	219.59	8.41	-40.6	-43.5	19.6	6.00e-01	0	57	0	956825600	51	5419
2026-01-04 02:05:37.10	219.54	8.32	-40.6	-43.5	19.5	5.99e-01	0	57	0	958922752	51	5450
2026-01-04 02:05:38.11	219.49	8.24	-40.6	-43.4	19.6	6.02e-01	0	57	0	960495616	51	5390
2026-01-04 02:05:39.12	219.45	8.15	-40.6	-43.5	19.5	6.01e-01	0	57	0	962592768	51	5437
2026-01-04 02:05:40.13	219.40	8.07	-40.7	-43.7	19.4	6.00e-01	0	57	0	964165632	51	5533
2026-01-04 02:05:41.14	219.35	7.98	-45.1	-63.1	3.7	7.47e-01	0	57	104	965214208	60	30874
2026-01-04 02:05:42.14	219.31	7.90	-45.6	-64.4	3.8	7.44e-01	0	57	104	965214208	61	33918
2026-01-04 02:05:43.15	219.26	7.82	-45.7	-64.6	3.8	7.45e-01	0	57	104	965214208	61	34512
2026-01-04 02:05:44.16	219.21	7.73	-45.9	-64.7	3.8	7.46e-01	0	57	104	965214208	62	33259
2026-01-04 02:05:45.17	219.17	7.65	-46.0	-64.8	3.8	7.42e-01	0	57	104	965214208	62	33632
2026-01-04 02:05:46.19	219.12	7.57	-46.0	-64.9	3.8	7.46e-01	0	57	104	965214208	62	33921
2026-01-04 02:05:47.20	219.08	7.48	-46.1	-64.9	3.8	7.46e-01	0	57	104	965214208	62	34007
2026-01-04 02:05:48.20	219.03	7.40	-46.1	-65.0	3.8	7.46e-01	0	57	104	965214208	62	34211
2026-01-04 02:05:49.22	218.99	7.32	-46.1	-65.0	3.8	7.46e-01	0	57	104	965214208	62	34193
2026-01-04 02:05:50.23	218.95	7.24	-46.1	-65.0	3.8	7.44e-01	0	57	104	965214208	62	34122
2026-01-04 02:05:51.24	218.90	7.16	-46.0	-64.9	3.8	7.45e-01	0	57	104	965214208	62	33907
2026-01-04 02:05:52.25	218.86	7.08	-46.0	-64.9	3.8	7.48e-01	0	57	104	965214208	62	33953
2026-01-04 02:05:53.26	218.82	7.00	-46.0	-64.9	3.8	7.47e-01	0	57	104	965214208	62	33870
2026-01-04 02:05:54.27	218.77	6.92	-46.0	-64.9	3.8	7.46e-01	0	57	104	965214208	62	33835
2026-01-04 02:05:55.28	218.73	6.84	-46.0	-64.9	3.8	7.46e-01	0	57	104	965214208	62	33874
2026-01-04 02:05:56.29	218.69	6.76	-46.0	-64.9	3.8	7.47e-01	0	57	104	965214208	62	33937
2026-01-04 02:05:57.30	218.65	6.68	-46.0	-64.9	3.8	7.44e-01	0	57	104	965214208	62	33794
2026-01-04 02:05:58.31	218.60	6.60	-46.0	-64.9	3.8	7.46e-01	0	57	104	965214208	62	33794
2026-01-04 02:05:59.32	218.56	6.52	-46.0	-64.9	3.8	7.45e-01	0	57	104	965214208	62	33739
2026-01-04 02:06:00.33	218.52	6.44	-46.0	-64.8	3.8	7.45e-01	0	57	104	965214208	62	33681
2026-01-04 02:06:01.34	218.48	6.36	-46.0	-64.9	3.8	7.45e-01	0	57	104	965214208	62	33742
2026-01-04 02:06:02.35	218.44	6.28	-46.0	-64.9	3.8	7.47e-01	0	57	104	965214208	62	33748
2026-01-04 02:06:03.36	218.40	6.20	-46.0	-64.9	3.8	7.46e-01	0	57	104	965214208	62	33746
2026-01-04 02:06:04.38	218.36	6.12	-46.0	-64.9	3.8	7.43e-01	0	57	104	965214208	62	33750
2026-01-04 02:06:05.39	218.32	6.05	-46.0	-64.9	3.8	7.45e-01	0	57	104	965214208	62	33702
2026-01-04 02:06:06.40	218.28	5.97	-46.0	-64.9	3.8	7.46e-01	0	57	104	965214208	62	33755
2026-01-04 02:06:07.41	218.24	5.89	-46.0	-64.9	3.8	7.47e-01	0	57	104	965214208	62	33740
2026-01-04 02:06:08.42	218.20	5.81	-46.0	-64.9	3.8	7.47e-01	0	57	104	965214208	62	33718
2026-01-04 02:06:09.43	218.16	5.74	-46.0	-64.8	3.8	7.42e-01	0	57	104	965214208	62	33678
2026-01-04 02:06:10.44	218.12	5.66	-46.0	-64.8	3.8	7.45e-01	0	57	104	965214208	62	33688
2026-01-04 02:06:11.45	218.08	5.58	-46.0	-64.8	3.8	7.45e-01	0	57	104	965214208	62	33689
2026-01-04 02:06:12.46	218.05	5.51	-46.0	-64.8	3.8	7.43e-01	0	57	104	965214208	62	33647
2026-01-04 02:06:13.48	218.01	5.43	-46.0	-64.8	3.8	7.46e-01	0	57	104	965214208	62	33692
2026-01-04 02:06:14.47	217.97	5.36	-45.9	-64.9	3.8	7.47e-01	0	57	104	965214208	62	33715
2026-01-04 02:06:15.49	217.93	5.28	-46.0	-64.8	3.8	7.46e-01	0	57	104	965214208	62	33658
2026-01-04 02:06:16.50	217.89	5.21	-45.9	-64.8	3.8	7.45e-01	0	57	104	965214208	62	33613
2026-01-04 02:06:17.51	217.86	5.13	-46.0	-64.8	3.8	7.47e-01	0	57	104	965214208	62	33670
