passes_logs/2026/01/04/R2.0S_Moscow/R2.0S_Moscow__20260104_081306_NOAA_20_JPSS-1_rec.log

#Pass ID: 20260104_081306_NOAA 20 (JPSS-1)
#Satellite: NOAA 20 (JPSS-1)
#Configuration: NOAA 20
#almurnet v.1.7.20251203
#Start time: 2026-01-04 08:13:06

#Version: 2.2.20231116
#Station: R2.0S_Moscow
#Location: 37.707566 lon 55.798166 lat
#TLE: 1 43013U 17073A   26003.41800368  .00000169  00000+0  10117-3 0  9998
#TLE: 2 43013  98.7624 304.4804 0001884  56.1176 304.0179 14.19532918421092

#Time	Az	El	Level	Level2	SNR	BER	BlckErr	Temp	State	Recorded	gain1	gain2
2026-01-04 08:13:06.15	110.69	1.98	-27.0	-45.0	3.8	1.50e+00	0	47	0	0	31	20523
2026-01-04 08:13:07.16	110.62	2.04	-28.2	-43.3	4.0	1.50e+00	0	47	104	0	28	19914
2026-01-04 08:13:08.17	110.55	2.10	-29.3	-43.6	4.0	1.50e+00	0	47	104	0	24	26102
2026-01-04 08:13:09.18	110.48	2.15	-35.8	-49.8	4.2	1.50e+00	0	48	104	0	37	25081
2026-01-04 08:13:10.19	110.41	2.21	-33.9	-51.0	4.2	1.50e+00	0	48	104	0	43	20346
2026-01-04 08:13:11.20	110.34	2.27	-26.9	-44.6	4.1	1.50e+00	0	48	104	0	39	12349
2026-01-04 08:13:12.22	110.27	2.32	-30.2	-43.8	3.7	1.50e+00	0	48	0	0	34	14954
2026-01-04 08:13:13.23	110.20	2.38	-27.9	-44.1	3.6	1.50e+00	0	48	104	0	24	27421
2026-01-04 08:13:14.24	110.13	2.44	-36.4	-50.2	4.3	1.50e+00	0	48	104	0	42	19622
2026-01-04 08:13:15.25	110.06	2.50	-36.8	-51.4	4.1	1.50e+00	0	48	104	0	44	20173
2026-01-04 08:13:16.26	109.99	2.55	-36.7	-49.9	3.7	1.50e+00	0	48	104	0	39	22643
2026-01-04 08:13:17.27	109.91	2.61	-29.1	-42.0	4.1	1.50e+00	0	48	104	0	35	11537
2026-01-04 08:13:18.28	109.84	2.67	-26.5	-43.2	3.9	1.50e+00	0	48	104	0	24	24899
2026-01-04 08:13:19.29	109.77	2.72	-34.8	-50.7	3.7	1.50e+00	0	48	104	0	43	19831
2026-01-04 08:13:20.30	109.70	2.78	-35.0	-49.5	4.1	1.50e+00	0	48	104	0	41	19306
2026-01-04 08:13:21.31	109.62	2.84	-37.2	-52.0	4.1	1.50e+00	0	48	104	0	43	23021
2026-01-04 08:13:22.33	109.55	2.90	-25.7	-42.1	3.7	1.50e+00	0	48	104	0	31	14691
2026-01-04 08:13:23.34	109.48	2.95	-28.0	-43.2	3.8	1.50e+00	0	49	104	0	35	13232
2026-01-04 08:13:24.35	109.40	3.01	-34.0	-49.8	4.1	1.50e+00	0	49	104	0	38	23663
2026-01-04 08:13:25.36	109.33	3.07	-35.9	-50.7	4.2	1.50e+00	0	49	104	0	43	19714
2026-01-04 08:13:26.37	109.26	3.13	-36.0	-50.9	4.3	1.50e+00	0	49	104	0	43	20261
2026-01-04 08:13:27.38	109.18	3.19	-34.1	-44.9	3.4	1.50e+00	0	49	0	0	32	19076
2026-01-04 08:13:28.39	109.11	3.24	-29.2	-42.5	4.4	1.50e+00	0	49	104	0	32	14423
2026-01-04 08:13:29.40	109.03	3.30	-28.4	-43.6	3.8	1.50e+00	0	49	104	0	32	16400
2026-01-04 08:13:30.41	108.96	3.36	-38.3	-52.6	4.2	1.50e+00	0	49	104	0	44	23084
2026-01-04 08:13:31.42	108.88	3.42	-37.4	-52.1	4.2	1.50e+00	0	49	104	0	43	23278
2026-01-04 08:13:32.44	108.80	3.48	-26.0	-42.0	3.6	1.50e+00	0	49	104	0	26	19253
2026-01-04 08:13:33.45	108.73	3.54	-36.6	-50.0	4.1	1.50e+00	0	49	104	0	33	32331
2026-01-04 08:13:34.46	108.65	3.59	-31.0	-50.2	4.0	1.50e+00	0	49	104	0	43	18567
2026-01-04 08:13:35.47	108.57	3.65	-36.3	-50.7	4.2	1.50e+00	0	49	104	0	42	20780
2026-01-04 08:13:36.48	108.50	3.71	-32.3	-48.1	4.1	1.50e+00	0	49	104	0	33	26114
2026-01-04 08:13:37.49	108.42	3.77	-33.2	-49.1	3.8	1.50e+00	0	49	104	0	31	32856
2026-01-04 08:13:38.50	108.34	3.83	-33.3	-50.2	4.2	1.50e+00	0	50	104	0	35	29671
2026-01-04 08:13:39.51	108.26	3.89	-31.7	-50.1	4.1	1.50e+00	0	50	104	0	33	32609
2026-01-04 08:13:40.52	108.18	3.95	-27.6	-48.4	3.9	1.50e+00	0	50	104	0	36	22579
2026-01-04 08:13:41.53	108.11	4.01	-36.0	-48.1	3.6	1.50e+00	0	50	104	0	27	36905
2026-01-04 08:13:42.55	108.03	4.07	-28.2	-45.0	3.8	1.51e+00	0	50	104	0	28	24340
2026-01-04 08:13:43.56	107.95	4.12	-30.9	-50.6	3.7	1.50e+00	0	50	104	0	36	29183
2026-01-04 08:13:44.57	107.87	4.18	-30.5	-45.3	4.1	1.50e+00	0	50	104	0	38	14099
2026-01-04 08:13:45.58	107.79	4.24	-31.8	-47.5	4.1	1.50e+00	0	50	104	0	37	19234
2026-01-04 08:13:46.59	107.71	4.30	-27.2	-43.9	4.2	1.50e+00	0	50	104	0	40	10754
2026-01-04 08:13:47.60	107.62	4.36	-32.5	-49.4	3.8	1.50e+00	0	50	104	0	35	26790
2026-01-04 08:13:48.61	107.54	4.42	-32.2	-48.1	3.8	1.50e+00	0	50	104	0	39	18369
2026-01-04 08:13:49.62	107.46	4.48	-36.1	-49.6	4.2	1.50e+00	0	50	104	0	41	19416
2026-01-04 08:13:50.63	107.38	4.54	-36.8	-52.7	4.1	1.50e+00	0	50	104	0	44	23558
2026-01-04 08:13:51.64	107.30	4.60	-33.4	-49.1	4.0	1.50e+00	0	50	104	0	42	17339
2026-01-04 08:13:52.66	107.21	4.66	-32.3	-45.1	3.7	1.50e+00	0	50	104	0	24	31015
2026-01-04 08:13:53.67	107.13	4.72	-34.9	-45.2	4.0	1.50e+00	0	50	104	0	32	19783
2026-01-04 08:13:54.68	107.05	4.78	-33.2	-48.4	4.2	1.50e+00	0	50	104	0	40	17939
2026-01-04 08:13:55.69	106.96	4.84	-30.6	-48.8	4.2	1.50e+00	0	50	104	0	40	18878
2026-01-04 08:13:56.70	106.88	4.90	-35.3	-52.2	3.9	1.50e+00	0	51	104	0	41	26390
2026-01-04 08:13:57.71	106.80	4.96	-30.1	-45.2	3.5	1.50e+00	0	51	104	0	34	17589
2026-01-04 08:13:58.72	106.71	5.02	-28.5	-42.4	4.0	1.50e+00	0	51	104	0	28	17893
2026-01-04 08:13:59.73	106.63	5.08	-36.3	-51.8	4.0	1.50e+00	0	51	104	0	42	23702
2026-01-04 08:14:00.74	106.54	5.14	-28.4	-46.6	4.2	1.50e+00	0	51	104	0	39	15441
2026-01-04 08:14:01.75	106.45	5.20	-36.0	-49.1	4.3	1.50e+00	0	51	104	0	43	16485
2026-01-04 08:14:02.76	106.37	5.26	-24.6	-42.2	3.5	1.50e+00	0	51	104	0	19	29405
2026-01-04 08:14:03.77	106.28	5.33	-36.5	-51.6	4.1	1.50e+00	0	51	104	0	43	21784
2026-01-04 08:14:04.78	106.19	5.39	-32.9	-50.4	4.2	1.50e+00	0	51	104	0	40	22604
2026-01-04 08:14:05.79	106.11	5.45	-33.3	-51.4	4.1	1.50e+00	0	51	104	0	42	22594
2026-01-04 08:14:06.80	106.02	5.51	-28.1	-44.3	3.8	1.50e+00	0	51	104	0	30	20020
2026-01-04 08:14:07.81	105.93	5.57	-35.2	-50.7	4.1	1.50e+00	0	51	104	0	40	23558
2026-01-04 08:14:08.82	105.84	5.63	-31.3	-47.7	4.0	1.50e+00	0	51	104	0	38	18651
2026-01-04 08:14:09.83	105.75	5.69	-35.0	-50.7	4.1	1.50e+00	0	51	104	0	41	22160
2026-01-04 08:14:10.85	105.66	5.75	-34.8	-47.5	4.0	1.50e+00	0	51	104	0	39	17260
2026-01-04 08:14:11.86	105.57	5.81	-36.6	-52.4	4.0	1.50e+00	0	51	104	0	43	24004
2026-01-04 08:14:12.87	105.48	5.88	-29.7	-42.8	4.2	1.50e+00	0	51	104	0	36	11902
2026-01-04 08:14:13.88	105.39	5.94	-33.7	-46.9	3.8	1.50e+00	0	51	104	0	31	25280
2026-01-04 08:14:14.89	105.30	6.00	-35.3	-46.7	4.0	1.50e+00	0	51	104	0	36	18536
2026-01-04 08:14:15.90	105.21	6.06	-36.5	-51.8	4.1	1.50e+00	0	51	104	0	43	22508
2026-01-04 08:14:16.91	105.12	6.12	-26.2	-45.1	3.6	1.50e+00	0	51	104	0	29	23226
2026-01-04 08:14:17.93	105.03	6.19	-23.6	-41.8	4.2	1.50e+00	0	52	104	0	22	23751
2026-01-04 08:14:18.94	104.94	6.25	-32.6	-50.5	4.2	1.50e+00	0	52	104	0	40	23031
2026-01-04 08:14:19.95	104.84	6.31	-34.2	-52.2	4.2	1.50e+00	0	52	104	0	43	23348
2026-01-04 08:14:20.96	104.75	6.37	-36.6	-51.9	4.0	1.50e+00	0	51	104	0	44	21410
2026-01-04 08:14:21.97	104.66	6.43	-29.4	-43.7	3.8	1.50e+00	0	52	104	0	27	22027
2026-01-04 08:14:22.98	104.56	6.50	-27.6	-42.5	4.1	1.50e+00	0	52	0	0	28	18188
2026-01-04 08:14:23.99	104.47	6.56	-38.0	-51.8	4.1	1.50e+00	0	52	104	0	46	18861
2026-01-04 08:14:25.00	104.37	6.62	-35.6	-52.0	4.2	1.50e+00	0	52	104	0	43	22912
2026-01-04 08:14:26.02	104.28	6.68	-35.3	-49.1	4.1	1.50e+00	0	52	104	0	39	20617
2026-01-04 08:14:27.03	104.18	6.75	-27.1	-43.5	3.5	1.50e+00	0	52	104	0	27	21530
2026-01-04 08:14:28.04	104.09	6.81	-26.7	-42.8	3.8	1.50e+00	0	52	104	0	28	18842
2026-01-04 08:14:29.05	103.99	6.87	-35.5	-46.9	3.7	1.50e+00	0	52	104	0	31	25335
2026-01-04 08:14:30.06	103.89	6.93	-34.4	-50.9	4.0	1.50e+00	0	52	104	0	38	26995
2026-01-04 08:14:31.07	103.79	7.00	-35.6	-50.5	4.2	1.50e+00	0	52	104	0	43	19350
2026-01-04 08:14:32.08	103.70	7.06	-27.8	-45.8	4.5	1.50e+00	0	52	104	0	36	16845
2026-01-04 08:14:33.09	103.60	7.12	-32.3	-46.2	3.6	1.50e+00	0	52	104	0	27	29619
2026-01-04 08:14:34.10	103.50	7.19	-35.1	-53.0	3.9	1.50e+00	0	52	104	0	38	34099
2026-01-04 08:14:35.12	103.40	7.25	-34.0	-49.2	4.0	1.50e+00	0	52	104	0	41	18594
2026-01-04 08:14:36.13	103.30	7.31	-38.1	-52.7	4.0	1.50e+00	0	52	104	0	46	20851
2026-01-04 08:14:37.14	103.20	7.38	-36.0	-52.0	4.1	1.50e+00	0	52	104	0	41	25853
2026-01-04 08:14:38.15	103.10	7.44	-30.4	-43.2	4.0	1.50e+00	0	52	104	0	35	13127
2026-01-04 08:14:39.16	103.00	7.50	-30.8	-42.5	4.1	1.50e+00	0	52	104	0	29	17117
2026-01-04 08:14:40.17	102.90	7.57	-35.5	-50.3	3.9	1.50e+00	0	52	104	0	41	21055
2026-01-04 08:14:41.18	102.80	7.63	-30.2	-46.8	4.4	1.48e+00	0	52	104	0	44	11868
2026-01-04 08:14:42.19	102.69	7.69	-28.6	-41.7	4.3	1.48e+00	0	53	104	0	27	17534
2026-01-04 08:14:43.20	102.59	7.76	-27.0	-41.7	4.1	1.42e+00	0	53	104	0	26	18604
2026-01-04 08:14:44.22	102.49	7.82	-36.8	-44.5	4.7	1.36e+00	0	53	104	0	37	13681
2026-01-04 08:14:45.23	102.38	7.89	-28.9	-43.4	5.6	6.27e-01	23	53	0	0	35	13516
2026-01-04 08:14:46.24	102.28	7.95	-30.7	-45.0	6.0	6.48e-01	46	53	0	2097152	37	14464
2026-01-04 08:14:47.25	102.17	8.01	-28.3	-41.0	4.3	1.44e+00	0	53	104	2097152	27	16139
2026-01-04 08:14:48.26	102.07	8.08	-34.5	-43.9	4.2	1.44e+00	0	53	104	2097152	26	24130
2026-01-04 08:14:49.27	101.96	8.14	-35.7	-48.6	4.0	1.50e+00	0	53	104	2097152	40	18307
2026-01-04 08:14:50.28	101.86	8.21	-32.4	-45.7	4.6	1.50e+00	0	53	104	2097152	38	14715
2026-01-04 08:14:51.29	101.75	8.27	-35.0	-47.1	4.4	1.40e+00	0	53	104	2097152	39	16437
2026-01-04 08:14:52.30	101.64	8.34	-36.5	-45.7	4.1	1.48e+00	0	53	104	2097152	27	27946
2026-01-04 08:14:53.30	101.54	8.40	-28.1	-43.0	3.7	1.48e+00	0	53	104	2097152	29	18274
2026-01-04 08:14:54.32	101.43	8.46	-34.4	-47.9	4.1	1.50e+00	0	53	104	2097152	39	18015
2026-01-04 08:14:55.33	101.32	8.53	-36.2	-50.2	4.0	1.50e+00	0	53	104	2097152	39	23545
2026-01-04 08:14:56.34	101.21	8.59	-34.8	-49.0	4.6	1.50e+00	0	53	104	2097152	39	20515
2026-01-04 08:14:57.35	101.10	8.66	-31.9	-46.1	4.0	1.50e+00	0	53	104	2097152	29	26026
2026-01-04 08:14:58.36	100.99	8.72	-33.7	-48.3	4.3	1.50e+00	0	53	104	2097152	40	17877
2026-01-04 08:14:59.37	100.88	8.79	-33.2	-49.1	3.9	1.49e+00	0	53	104	2097152	38	21949
2026-01-04 08:15:00.38	100.77	8.85	-35.0	-51.5	3.6	1.50e+00	0	53	104	2097152	46	18167
2026-01-04 08:15:01.38	100.66	8.92	-32.6	-50.0	4.2	1.50e+00	0	53	104	2097152	39	22911
2026-01-04 08:15:02.39	100.55	8.98	-32.4	-48.5	4.3	1.50e+00	0	53	104	2097152	32	28743
2026-01-04 08:15:03.40	100.44	9.05	-34.1	-46.3	4.2	1.50e+00	0	53	104	2097152	37	16735
2026-01-04 08:15:04.41	100.32	9.11	-27.0	-47.0	4.2	1.50e+00	0	53	104	2097152	38	17236
2026-01-04 08:15:05.42	100.21	9.18	-30.3	-47.3	3.8	1.50e+00	0	53	104	2097152	28	31764
2026-01-04 08:15:06.43	100.10	9.24	-32.3	-46.3	4.5	1.50e+00	0	53	104	2097152	38	15904
2026-01-04 08:15:07.44	99.98	9.31	-25.4	-40.4	3.6	1.50e+00	0	53	0	2097152	23	18963
2026-01-04 08:15:08.46	99.87	9.37	-29.0	-46.4	4.0	1.50e+00	0	54	104	2097152	30	25525
2026-01-04 08:15:09.46	99.75	9.44	-28.3	-43.4	4.0	1.50e+00	0	53	104	2097152	29	19081
2026-01-04 08:15:10.47	99.64	9.51	-28.9	-48.2	3.8	1.50e+00	0	53	104	2097152	29	33265
2026-01-04 08:15:11.48	99.52	9.57	-35.6	-51.4	4.3	1.51e+00	0	53	104	2097152	44	20102
2026-01-04 08:15:12.49	99.40	9.64	-27.2	-42.1	3.9	1.50e+00	0	53	104	2097152	28	17385
2026-01-04 08:15:13.50	99.28	9.70	-29.7	-47.8	4.1	1.50e+00	0	53	104	2097152	30	29954
2026-01-04 08:15:14.52	99.17	9.77	-29.0	-43.2	5.2	1.35e+00	32	53	0	2097152	29	18682
2026-01-04 08:15:15.53	99.05	9.83	-34.1	-46.1	5.5	1.21e+00	5	53	0	2097152	34	19587
2026-01-04 08:15:16.54	98.93	9.90	-27.1	-41.3	4.2	1.49e+00	0	53	104	2097152	25	18859
2026-01-04 08:15:17.55	98.81	9.97	-27.4	-40.8	4.0	1.50e+00	0	53	104	2097152	23	19896
2026-01-04 08:15:18.56	98.69	10.03	-30.0	-45.5	3.9	1.49e+00	0	54	104	2097152	32	20517
2026-01-04 08:15:19.57	98.57	10.10	-31.9	-47.6	4.0	1.50e+00	0	54	104	2097152	38	18347
2026-01-04 08:15:20.58	98.44	10.16	-30.2	-46.3	4.1	1.50e+00	0	54	104	2097152	31	23825
2026-01-04 08:15:21.59	98.32	10.23	-29.0	-45.8	4.1	1.50e+00	0	54	104	2097152	30	23619
2026-01-04 08:15:22.60	98.20	10.30	-29.4	-43.9	3.4	1.50e+00	0	54	104	2097152	27	22571
2026-01-04 08:15:23.61	98.08	10.36	-29.7	-48.2	3.9	1.50e+00	0	54	104	2097152	34	24704
2026-01-04 08:15:24.62	97.95	10.43	-32.8	-47.4	4.4	1.49e+00	0	53	104	2097152	37	19001
2026-01-04 08:15:25.63	97.83	10.50	-30.8	-48.2	4.2	1.48e+00	0	54	104	2097152	37	20907
2026-01-04 08:15:26.64	97.70	10.56	-30.8	-47.9	4.2	1.48e+00	0	54	104	2097152	35	22674
2026-01-04 08:15:27.65	97.58	10.63	-33.0	-48.2	4.3	1.50e+00	0	54	104	2097152	39	18688
2026-01-04 08:15:28.66	97.45	10.70	-35.7	-49.9	4.2	1.50e+00	0	54	104	2097152	39	22597
2026-01-04 08:15:29.67	97.33	10.76	-37.2	-51.6	4.0	1.49e+00	0	54	104	2097152	46	18309
2026-01-04 08:15:30.68	97.20	10.83	-36.9	-51.8	4.1	1.49e+00	0	54	104	2097152	45	20008
2026-01-04 08:15:31.69	97.07	10.90	-35.4	-51.0	4.0	1.48e+00	0	54	104	2097152	50	13571
2026-01-04 08:15:32.70	96.94	10.96	-37.9	-49.4	4.2	1.49e+00	0	54	104	2097152	44	16027
2026-01-04 08:15:33.70	96.81	11.03	-40.9	-51.4	4.4	1.37e+00	0	54	0	2097152	50	14335
2026-01-04 08:15:34.72	96.68	11.10	-41.1	-52.8	4.1	1.47e+00	0	54	104	2097152	52	14928
2026-01-04 08:15:35.72	96.55	11.16	-40.7	-52.0	4.1	1.48e+00	0	54	104	2097152	46	19272
2026-01-04 08:15:36.73	96.42	11.23	-41.7	-53.1	4.1	1.48e+00	0	54	104	2097152	53	14698
2026-01-04 08:15:37.74	96.29	11.30	-34.7	-51.2	4.0	1.49e+00	0	54	104	2097152	53	11732
2026-01-04 08:15:38.75	96.16	11.36	-34.2	-50.0	4.4	1.48e+00	0	54	104	2097152	45	16164
2026-01-04 08:15:39.76	96.03	11.43	-37.4	-52.8	4.3	1.46e+00	0	54	104	2097152	49	17738
2026-01-04 08:15:40.77	95.89	11.50	-35.5	-51.4	3.9	1.48e+00	0	54	104	2097152	41	23915
2026-01-04 08:15:41.78	95.76	11.56	-41.7	-52.9	4.1	1.48e+00	0	54	104	2097152	53	14238
2026-01-04 08:15:42.79	95.63	11.63	-42.8	-53.0	4.5	1.44e+00	61	54	104	2097152	56	12208
2026-01-04 08:15:43.80	95.49	11.70	-43.0	-53.3	4.6	1.08e+00	12	54	0	3145728	57	11841
2026-01-04 08:15:44.81	95.36	11.77	-42.9	-51.2	5.8	7.64e-01	0	54	0	5242880	56	9902
2026-01-04 08:15:45.82	95.22	11.83	-42.7	-50.2	6.6	2.50e-01	0	54	0	6291456	56	8814
2026-01-04 08:15:46.84	95.08	11.90	-42.1	-48.9	7.5	1.40e-01	0	54	0	8388608	55	8003
2026-01-04 08:15:47.85	94.94	11.97	-42.1	-48.1	8.4	9.73e-02	0	54	0	10485760	54	7786
2026-01-04 08:15:48.86	94.80	12.03	-41.8	-47.5	9.1	2.75e-02	0	54	0	12582912	54	7223
2026-01-04 08:15:49.87	94.67	12.10	-41.6	-46.9	9.6	2.48e-02	0	54	0	14680064	53	7133
2026-01-04 08:15:50.88	94.53	12.17	-41.4	-46.4	10.1	9.03e-03	0	54	0	15728640	53	6734
2026-01-04 08:15:51.89	94.39	12.24	-41.2	-46.0	10.5	4.70e-03	0	54	0	17825792	53	6424
2026-01-04 08:15:52.90	94.25	12.30	-41.2	-45.8	10.7	3.58e-03	0	54	0	19922944	53	6328
2026-01-04 08:15:53.91	94.10	12.37	-41.0	-45.6	11.0	2.27e-03	0	54	0	22020096	53	6146
2026-01-04 08:15:54.92	93.96	12.44	-41.1	-45.7	10.9	2.79e-03	0	54	0	24117248	53	6215
2026-01-04 08:15:55.93	93.82	12.51	-40.9	-45.3	11.2	1.40e-03	0	54	0	26214400	53	5979
2026-01-04 08:15:56.94	93.68	12.57	-40.9	-45.1	11.4	1.43e-03	0	54	0	27262976	53	5847
2026-01-04 08:15:57.95	93.53	12.64	-40.8	-45.1	11.5	7.57e-04	0	54	0	29360128	53	5791
2026-01-04 08:15:58.96	93.39	12.71	-40.9	-45.1	11.4	1.01e-03	0	54	0	31457280	53	5852
2026-01-04 08:15:59.97	93.24	12.77	-40.8	-45.0	11.5	7.15e-04	0	54	0	33554432	53	5783
2026-01-04 08:16:00.98	93.09	12.84	-40.8	-45.1	11.5	9.59e-04	0	55	0	35651584	53	5811
2026-01-04 08:16:01.99	92.95	12.91	-41.0	-45.4	11.1	1.48e-03	0	55	0	36700160	53	6056
2026-01-04 08:16:03.00	92.80	12.98	-40.7	-44.9	11.5	9.12e-04	0	55	0	38797312	53	5684
2026-01-04 08:16:04.00	92.65	13.04	-40.7	-45.0	11.4	1.01e-03	0	54	0	40894464	53	5767
2026-01-04 08:16:05.01	92.50	13.11	-40.7	-44.9	11.5	7.12e-04	0	54	0	42991616	53	5660
2026-01-04 08:16:06.02	92.36	13.18	-40.8	-45.2	11.2	1.50e-03	0	54	0	45088768	53	5856
2026-01-04 08:16:07.03	92.20	13.25	-40.6	-44.8	11.5	9.58e-04	0	54	0	46137344	53	5616
2026-01-04 08:16:08.04	92.05	13.31	-40.7	-45.1	11.2	1.10e-03	0	55	0	48234496	53	5802
2026-01-04 08:16:09.05	91.90	13.38	-40.6	-44.9	11.3	1.34e-03	0	55	0	50331648	53	5692
2026-01-04 08:16:10.06	91.75	13.45	-40.6	-45.0	11.2	1.13e-03	0	54	0	52428800	53	5735
2026-01-04 08:16:11.07	91.60	13.52	-40.7	-45.1	11.1	1.13e-03	0	55	0	54525952	53	5845
2026-01-04 08:16:12.08	91.44	13.58	-40.8	-45.4	10.8	2.52e-03	0	54	0	55574528	53	6023
2026-01-04 08:16:13.09	91.29	13.65	-40.8	-45.4	10.7	2.73e-03	0	55	0	57671680	53	6017
2026-01-04 08:16:14.10	91.13	13.72	-40.6	-45.0	11.1	2.86e-03	0	55	0	59768832	53	5767
2026-01-04 08:16:15.11	90.98	13.78	-40.4	-44.7	11.5	9.80e-04	0	55	0	61865984	52	5861
2026-01-04 08:16:16.12	90.82	13.85	-40.4	-44.7	11.4	1.01e-03	0	55	0	63963136	52	5894
2026-01-04 08:16:17.13	90.66	13.92	-40.4	-44.8	11.2	1.10e-03	0	55	0	65011712	52	5954
2026-01-04 08:16:18.14	90.51	13.99	-40.4	-44.9	11.0	1.82e-03	0	55	0	67108864	52	6041
2026-01-04 08:16:19.15	90.35	14.05	-40.4	-44.9	11.1	1.95e-03	0	55	0	69206016	52	6015
2026-01-04 08:16:20.15	90.19	14.12	-40.4	-44.8	11.3	1.24e-03	0	55	0	71303168	52	5924
2026-01-04 08:16:21.16	90.03	14.19	-40.4	-44.6	11.5	9.62e-04	0	55	0	73400320	52	5853
2026-01-04 08:16:22.17	89.87	14.25	-40.3	-44.4	11.7	7.67e-04	0	54	0	74448896	52	5700
2026-01-04 08:16:23.18	89.71	14.32	-40.3	-44.6	11.5	6.73e-04	0	55	0	76546048	52	5789
2026-01-04 08:16:24.19	89.54	14.39	-40.4	-44.8	11.2	8.62e-04	0	55	0	78643200	52	5989
2026-01-04 08:16:25.20	89.38	14.45	-40.6	-45.1	10.9	1.92e-03	0	55	0	80740352	52	6192
2026-01-04 08:16:26.21	89.22	14.52	-40.7	-45.6	10.4	3.10e-03	0	55	0	82837504	52	6499
2026-01-04 08:16:27.22	89.05	14.59	-40.8	-45.8	10.1	5.27e-03	0	55	0	83886080	52	6715
2026-01-04 08:16:28.23	88.89	14.65	-40.9	-46.1	9.8	8.73e-03	0	55	0	85983232	52	6937
2026-01-04 08:16:29.24	88.72	14.72	-40.9	-46.1	9.8	1.19e-02	0	55	0	88080384	52	6912
2026-01-04 08:16:30.25	88.55	14.79	-40.9	-46.2	9.6	1.05e-02	0	55	0	90177536	52	6969
2026-01-04 08:16:31.26	88.38	14.85	-40.8	-46.2	9.6	1.25e-02	0	55	0	92274688	52	6994
2026-01-04 08:16:32.27	88.22	14.92	-40.8	-46.2	9.5	1.35e-02	0	55	0	94371840	52	6964
2026-01-04 08:16:33.28	88.05	14.99	-40.8	-46.3	9.3	1.78e-02	0	55	0	95420416	52	7045
2026-01-04 08:16:34.29	87.88	15.05	-40.7	-46.3	9.2	2.07e-02	0	55	0	97517568	52	7087
2026-01-04 08:16:35.30	87.71	15.12	-40.7	-46.4	8.9	2.27e-02	0	55	0	99614720	52	7186
2026-01-04 08:16:36.31	87.54	15.19	-40.6	-46.5	8.8	2.95e-02	0	55	0	101711872	52	7209
2026-01-04 08:16:37.32	87.36	15.25	-40.6	-46.7	8.5	3.86e-02	0	55	0	103809024	52	7374
2026-01-04 08:16:38.33	87.19	15.32	-40.6	-46.7	8.3	4.71e-02	0	55	0	104857600	52	7452
2026-01-04 08:16:39.34	87.02	15.38	-40.5	-46.8	8.2	5.06e-02	0	55	0	106954752	52	7459
2026-01-04 08:16:40.35	86.84	15.45	-40.5	-46.7	8.1	5.45e-02	0	55	0	109051904	52	7450
2026-01-04 08:16:41.36	86.67	15.51	-40.5	-46.9	7.9	6.84e-02	0	55	0	111149056	52	7599
2026-01-04 08:16:42.37	86.49	15.58	-40.4	-46.9	7.9	7.22e-02	0	55	0	113246208	52	7549
2026-01-04 08:16:43.38	86.31	15.65	-40.4	-47.0	7.7	8.15e-02	0	55	0	114294784	52	7666
2026-01-04 08:16:44.39	86.14	15.71	-40.4	-47.1	7.6	9.75e-02	0	55	0	116391936	52	7754
2026-01-04 08:16:45.40	85.96	15.78	-40.4	-47.2	7.4	1.06e-01	0	55	0	118489088	52	7852
2026-01-04 08:16:46.41	85.78	15.84	-40.4	-47.0	7.6	1.01e-01	0	55	0	120586240	52	7704
2026-01-04 08:16:47.42	85.60	15.91	-40.4	-46.9	7.7	9.07e-02	0	55	0	122683392	52	7622
2026-01-04 08:16:48.43	85.42	15.97	-40.4	-46.9	7.8	7.93e-02	0	55	0	123731968	52	7599
2026-01-04 08:16:49.44	85.23	16.04	-40.4	-46.8	7.9	7.78e-02	0	55	0	125829120	52	7502
2026-01-04 08:16:50.45	85.05	16.10	-40.4	-46.6	8.1	6.37e-02	0	55	0	127926272	52	7364
2026-01-04 08:16:51.46	84.87	16.17	-40.4	-46.5	8.3	5.37e-02	0	55	0	130023424	52	7224
2026-01-04 08:16:52.47	84.69	16.23	-40.4	-46.4	8.4	5.02e-02	0	55	0	132120576	52	7185
2026-01-04 08:16:53.48	84.50	16.30	-40.4	-46.3	8.8	3.83e-02	0	55	0	133169152	52	7045
2026-01-04 08:16:54.49	84.31	16.36	-40.4	-46.0	9.1	2.50e-02	0	55	0	135266304	52	6848
2026-01-04 08:16:55.50	84.13	16.42	-40.4	-45.8	9.4	2.02e-02	0	55	0	137363456	52	6677
2026-01-04 08:16:56.51	83.94	16.49	-40.3	-45.5	9.7	1.44e-02	0	55	0	139460608	52	6456
2026-01-04 08:16:57.52	83.75	16.55	-40.3	-45.5	9.8	1.14e-02	0	55	0	141557760	52	6432
2026-01-04 08:16:58.53	83.56	16.61	-40.3	-45.3	10.1	7.40e-03	0	55	0	142606336	52	6306
2026-01-04 08:16:59.54	83.37	16.68	-40.3	-45.1	10.5	5.79e-03	0	55	0	144703488	52	6132
2026-01-04 08:17:00.55	83.18	16.74	-40.3	-44.9	10.8	3.01e-03	0	55	0	146800640	52	5994
2026-01-04 08:17:01.56	82.99	16.80	-40.2	-44.6	11.2	2.02e-03	0	55	0	148897792	52	5802
2026-01-04 08:17:02.57	82.80	16.87	-40.0	-44.2	11.6	1.02e-03	0	55	0	150994944	52	5557
2026-01-04 08:17:03.58	82.61	16.93	-40.0	-44.0	11.9	4.25e-04	0	56	0	152043520	51	5759
2026-01-04 08:17:04.59	82.41	16.99	-40.0	-43.9	12.0	3.24e-04	0	55	0	154140672	51	5697
2026-01-04 08:17:05.60	82.22	17.06	-39.9	-43.8	12.2	2.33e-04	0	56	0	156237824	51	5603
2026-01-04 08:17:06.61	82.02	17.12	-39.9	-43.7	12.3	1.65e-04	0	55	0	158334976	51	5546
2026-01-04 08:17:07.62	81.83	17.18	-40.0	-43.9	12.0	2.64e-04	0	56	0	160432128	51	5721
2026-01-04 08:17:08.63	81.63	17.24	-39.9	-43.9	12.0	3.11e-04	0	55	0	162529280	51	5707
2026-01-04 08:17:09.64	81.43	17.30	-40.0	-44.1	11.7	3.82e-04	0	55	0	163577856	51	5819
2026-01-04 08:17:10.65	81.23	17.37	-40.0	-44.2	11.5	6.45e-04	0	55	0	165675008	51	5865
2026-01-04 08:17:11.66	81.04	17.43	-39.8	-44.0	11.6	7.37e-04	0	55	0	167772160	51	5727
2026-01-04 08:17:12.67	80.84	17.49	-39.8	-44.0	11.5	6.75e-04	0	56	0	169869312	51	5768
2026-01-04 08:17:13.68	80.63	17.55	-39.8	-44.2	11.2	1.14e-03	0	55	0	171966464	51	5864
2026-01-04 08:17:14.69	80.43	17.61	-39.7	-44.2	11.0	1.45e-03	0	55	0	173015040	51	5882
2026-01-04 08:17:15.70	80.23	17.67	-39.7	-44.2	10.9	1.84e-03	0	56	0	175112192	51	5887
2026-01-04 08:17:16.71	80.03	17.73	-39.7	-44.4	10.6	3.13e-03	0	56	0	177209344	51	6022
2026-01-04 08:17:17.72	79.82	17.79	-39.7	-44.5	10.4	3.80e-03	0	55	0	179306496	51	6119
2026-01-04 08:17:18.73	79.62	17.85	-39.8	-44.8	10.0	4.99e-03	0	56	0	181403648	51	6328
2026-01-04 08:17:19.74	79.41	17.91	-39.8	-44.9	9.9	8.96e-03	0	56	0	182452224	51	6413
2026-01-04 08:17:20.75	79.20	17.97	-39.8	-44.8	10.0	8.22e-03	0	55	0	184549376	51	6319
2026-01-04 08:17:21.76	79.00	18.03	-39.8	-44.8	10.0	7.88e-03	0	56	0	186646528	51	6343
2026-01-04 08:17:22.77	78.79	18.09	-39.8	-44.8	10.0	7.63e-03	0	55	0	188743680	51	6347
2026-01-04 08:17:23.78	78.58	18.15	-39.9	-44.8	10.1	6.95e-03	0	56	0	190840832	51	6337
2026-01-04 08:17:24.79	78.37	18.20	-40.0	-45.0	10.1	7.25e-03	0	56	0	191889408	51	6426
2026-01-04 08:17:25.80	78.16	18.26	-40.0	-45.0	10.1	6.19e-03	0	55	0	193986560	51	6433
2026-01-04 08:17:26.81	77.95	18.32	-40.0	-44.9	10.2	6.81e-03	0	56	0	196083712	51	6376
2026-01-04 08:17:27.82	77.73	18.38	-40.0	-44.9	10.2	5.93e-03	0	56	0	198180864	51	6358
2026-01-04 08:17:28.83	77.52	18.44	-40.0	-44.9	10.2	5.96e-03	0	56	0	200278016	51	6385
2026-01-04 08:17:29.84	77.31	18.49	-39.9	-44.7	10.5	4.55e-03	0	55	0	201326592	51	6234
2026-01-04 08:17:30.85	77.09	18.55	-40.0	-44.7	10.5	4.33e-03	0	56	0	203423744	51	6247
2026-01-04 08:17:31.86	76.88	18.61	-40.0	-44.8	10.4	4.31e-03	0	56	0	205520896	51	6289
2026-01-04 08:17:32.87	76.66	18.66	-39.9	-44.7	10.5	4.06e-03	0	56	0	207618048	51	6209
2026-01-04 08:17:33.87	76.44	18.72	-39.9	-44.5	10.7	3.42e-03	0	55	0	209715200	51	6126
2026-01-04 08:17:34.88	76.23	18.77	-39.9	-44.7	10.5	3.49e-03	0	56	0	210763776	51	6205
2026-01-04 08:17:35.89	76.01	18.83	-39.9	-44.7	10.4	4.16e-03	0	56	0	212860928	51	6227
2026-01-04 08:17:36.90	75.79	18.88	-39.9	-44.8	10.4	4.81e-03	0	56	0	214958080	51	6313
2026-01-04 08:17:37.91	75.57	18.94	-40.0	-44.9	10.3	5.26e-03	0	56	0	217055232	51	6351
2026-01-04 08:17:38.92	75.35	18.99	-39.9	-44.7	10.4	4.71e-03	0	56	0	219152384	51	6241
2026-01-04 08:17:39.93	75.12	19.05	-39.9	-44.6	10.6	3.61e-03	0	56	0	220200960	51	6133
2026-01-04 08:17:40.94	74.90	19.10	-39.8	-44.4	10.7	3.07e-03	0	56	0	222298112	51	6040
2026-01-04 08:17:41.95	74.68	19.15	-39.8	-44.1	11.1	1.94e-03	0	56	0	224395264	51	5854
2026-01-04 08:17:42.96	74.45	19.21	-39.8	-44.2	11.2	1.35e-03	0	56	0	226492416	51	5868
2026-01-04 08:17:43.97	74.23	19.26	-39.8	-44.0	11.4	1.12e-03	0	56	0	228589568	51	5783
2026-01-04 08:17:44.98	74.00	19.31	-39.8	-44.1	11.4	1.00e-03	0	56	0	230686720	51	5800
2026-01-04 08:17:45.99	73.78	19.36	-39.9	-44.1	11.4	9.11e-04	0	56	0	231735296	51	5825
2026-01-04 08:17:47.00	73.55	19.41	-39.8	-44.0	11.7	7.61e-04	0	55	0	233832448	51	5723
2026-01-04 08:17:48.01	73.32	19.47	-39.8	-43.8	11.8	5.61e-04	0	56	0	235929600	51	5637
2026-01-04 08:17:49.02	73.09	19.52	-39.7	-43.6	12.0	3.14e-04	0	56	0	238026752	51	5495
2026-01-04 08:17:50.03	72.86	19.57	-39.6	-43.5	12.2	2.07e-04	0	56	0	240123904	51	5403
2026-01-04 08:17:51.04	72.63	19.62	-39.6	-43.3	12.5	1.66e-04	0	56	0	241172480	51	5310
2026-01-04 08:17:52.05	72.40	19.67	-39.6	-43.2	12.6	9.68e-05	0	56	0	243269632	51	5259
2026-01-04 08:17:53.06	72.17	19.72	-39.6	-43.2	12.7	6.79e-05	0	56	0	245366784	51	5267
2026-01-04 08:17:54.07	71.93	19.76	-39.6	-43.2	12.8	6.71e-05	0	56	0	247463936	51	5231
2026-01-04 08:17:55.08	71.70	19.81	-39.6	-43.1	13.0	5.64e-05	0	56	0	249561088	51	5171
2026-01-04 08:17:56.09	71.47	19.86	-39.6	-43.1	13.1	3.20e-05	0	56	0	250609664	51	5189
2026-01-04 08:17:57.10	71.23	19.91	-39.6	-43.0	13.3	2.44e-05	0	56	0	252706816	51	5137
2026-01-04 08:17:58.11	71.00	19.96	-39.6	-42.9	13.4	1.29e-05	0	56	0	254803968	51	5088
2026-01-04 08:17:59.12	70.76	20.00	-39.6	-42.7	13.8	3.80e-06	0	56	0	256901120	51	4955
2026-01-04 08:18:00.13	70.52	20.05	-39.5	-42.5	14.1	3.00e-06	0	56	0	258998272	51	4858
2026-01-04 08:18:01.14	70.28	20.09	-39.5	-42.4	14.4	7.00e-07	0	56	0	260046848	50	5048
2026-01-04 08:18:02.15	70.05	20.14	-39.4	-42.3	14.7	0.00e+00	0	55	0	262144000	50	4984
2026-01-04 08:18:03.15	69.81	20.19	-39.3	-42.0	15.1	0.00e+00	0	56	0	264241152	50	4832
2026-01-04 08:18:04.16	69.57	20.23	-39.2	-41.7	15.4	0.00e+00	0	56	0	266338304	50	4691
2026-01-04 08:18:05.17	69.33	20.27	-39.1	-41.6	15.6	0.00e+00	0	56	0	268435456	50	4649
2026-01-04 08:18:06.18	69.09	20.32	-39.2	-41.7	15.6	0.00e+00	0	56	0	269484032	50	4704
2026-01-04 08:18:07.19	68.84	20.36	-39.3	-41.8	15.5	0.00e+00	0	56	0	271581184	50	4740
2026-01-04 08:18:08.20	68.60	20.40	-39.3	-41.7	15.7	0.00e+00	0	56	0	273678336	50	4694
2026-01-04 08:18:09.21	68.36	20.45	-39.2	-41.7	15.8	0.00e+00	0	56	0	275775488	50	4654
2026-01-04 08:18:10.22	68.11	20.49	-39.3	-41.7	15.8	0.00e+00	0	56	0	277872640	50	4680
2026-01-04 08:18:11.23	67.87	20.53	-39.4	-41.8	15.7	0.00e+00	0	56	0	278921216	50	4756
2026-01-04 08:18:12.24	67.62	20.57	-39.3	-41.7	15.8	0.00e+00	0	56	0	281018368	50	4689
2026-01-04 08:18:13.25	67.38	20.61	-39.3	-41.7	16.0	0.00e+00	0	56	0	283115520	50	4657
2026-01-04 08:18:14.26	67.13	20.65	-39.2	-41.6	16.1	0.00e+00	0	56	0	285212672	50	4619
2026-01-04 08:18:15.27	66.88	20.69	-39.3	-41.7	16.0	0.00e+00	0	56	0	287309824	50	4660
2026-01-04 08:18:16.28	66.64	20.73	-39.3	-41.7	16.0	0.00e+00	0	56	0	288358400	50	4672
2026-01-04 08:18:17.29	66.39	20.77	-39.4	-41.8	15.9	0.00e+00	0	56	0	290455552	50	4720
2026-01-04 08:18:18.30	66.14	20.81	-39.4	-41.7	16.0	0.00e+00	0	56	0	292552704	50	4698
2026-01-04 08:18:19.31	65.89	20.84	-39.4	-41.7	16.0	0.00e+00	0	56	0	294649856	50	4694
2026-01-04 08:18:20.32	65.64	20.88	-39.4	-41.8	16.0	0.00e+00	0	56	0	296747008	50	4711
2026-01-04 08:18:21.33	65.39	20.92	-39.4	-41.7	16.1	0.00e+00	0	56	0	298844160	50	4675
2026-01-04 08:18:22.34	65.14	20.95	-39.5	-41.9	15.9	0.00e+00	0	56	0	299892736	50	4767
2026-01-04 08:18:23.35	64.88	20.99	-39.6	-42.1	15.7	0.00e+00	0	56	0	301989888	50	4872
2026-01-04 08:18:24.35	64.63	21.02	-39.7	-42.1	15.6	0.00e+00	0	56	0	304087040	50	4913
2026-01-04 08:18:25.36	64.38	21.06	-39.8	-42.3	15.5	0.00e+00	0	56	0	306184192	50	5004
2026-01-04 08:18:26.37	64.13	21.09	-39.8	-42.4	15.4	0.00e+00	0	56	0	308281344	50	5066
2026-01-04 08:18:27.38	63.87	21.12	-39.9	-42.5	15.3	0.00e+00	0	56	0	309329920	50	5105
2026-01-04 08:18:28.39	63.62	21.15	-39.9	-42.5	15.3	0.00e+00	0	56	0	311427072	50	5130
2026-01-04 08:18:29.40	63.36	21.19	-39.9	-42.5	15.3	0.00e+00	0	56	0	313524224	50	5134
2026-01-04 08:18:30.41	63.10	21.22	-40.0	-42.6	15.2	0.00e+00	0	56	0	315621376	50	5182
2026-01-04 08:18:31.42	62.85	21.25	-40.1	-42.8	14.9	7.00e-07	0	56	0	317718528	50	5336
2026-01-04 08:18:32.43	62.59	21.28	-40.2	-43.0	14.8	7.00e-07	0	56	0	318767104	51	5124
2026-01-04 08:18:33.43	62.34	21.31	-40.2	-43.0	14.8	0.00e+00	0	56	0	320864256	51	5123
2026-01-04 08:18:34.44	62.08	21.34	-40.1	-42.8	15.0	0.00e+00	0	56	0	322961408	51	5019
2026-01-04 08:18:35.45	61.82	21.37	-40.0	-42.7	15.1	0.00e+00	0	56	0	325058560	51	4953
2026-01-04 08:18:36.46	61.56	21.39	-40.1	-42.9	14.9	7.00e-07	0	56	0	327155712	51	5043
2026-01-04 08:18:37.47	61.30	21.42	-40.2	-42.9	14.8	7.00e-07	0	56	0	328204288	51	5099
2026-01-04 08:18:38.48	61.04	21.45	-40.3	-43.1	14.7	0.00e+00	0	56	0	330301440	51	5167
2026-01-04 08:18:39.49	60.78	21.47	-40.3	-43.1	14.7	0.00e+00	0	56	0	332398592	51	5188
2026-01-04 08:18:40.50	60.52	21.50	-40.4	-43.3	14.6	7.00e-07	0	56	0	334495744	51	5281
2026-01-04 08:18:41.51	60.26	21.52	-40.5	-43.4	14.4	7.00e-07	0	56	0	336592896	51	5376
2026-01-04 08:18:42.52	60.00	21.55	-40.5	-43.5	14.3	7.00e-07	0	56	0	337641472	51	5428
2026-01-04 08:18:43.53	59.74	21.57	-40.7	-43.7	14.1	1.50e-06	0	56	0	339738624	51	5560
2026-01-04 08:18:44.54	59.47	21.60	-40.6	-43.6	14.2	1.50e-06	0	56	0	341835776	51	5472
2026-01-04 08:18:45.55	59.21	21.62	-40.5	-43.3	14.4	0.00e+00	0	56	0	343932928	51	5338
2026-01-04 08:18:46.56	58.95	21.64	-40.5	-43.4	14.4	7.00e-07	0	56	0	346030080	51	5365
2026-01-04 08:18:47.57	58.68	21.66	-40.4	-43.3	14.5	7.00e-07	0	56	0	347078656	51	5313
2026-01-04 08:18:48.58	58.42	21.68	-40.4	-43.3	14.5	7.00e-07	0	56	0	349175808	51	5309
2026-01-04 08:18:49.59	58.16	21.70	-40.5	-43.3	14.5	0.00e+00	0	56	0	351272960	51	5325
2026-01-04 08:18:50.60	57.89	21.72	-40.4	-43.2	14.6	0.00e+00	0	56	0	353370112	51	5259
2026-01-04 08:18:51.61	57.63	21.74	-40.4	-43.2	14.7	0.00e+00	0	56	0	355467264	51	5222
2026-01-04 08:18:52.62	57.36	21.76	-40.4	-43.2	14.6	7.00e-07	0	56	0	356515840	51	5275
2026-01-04 08:18:53.63	57.10	21.78	-40.4	-43.2	14.6	0.00e+00	0	56	0	358612992	51	5249
2026-01-04 08:18:54.64	56.83	21.79	-40.3	-43.1	14.8	7.00e-07	0	56	0	360710144	51	5175
2026-01-04 08:18:55.65	56.56	21.81	-40.3	-43.1	14.7	7.00e-07	0	56	0	362807296	51	5211
2026-01-04 08:18:56.66	56.30	21.82	-40.4	-43.2	14.6	0.00e+00	0	56	0	364904448	51	5279
2026-01-04 08:18:57.67	56.03	21.84	-40.5	-43.5	14.3	7.00e-07	0	56	0	367001600	51	5427
2026-01-04 08:18:58.68	55.76	21.85	-40.6	-43.6	14.3	0.00e+00	0	56	0	368050176	51	5493
2026-01-04 08:18:59.68	55.50	21.87	-40.6	-43.6	14.2	1.50e-06	0	56	0	370147328	51	5510
2026-01-04 08:19:00.69	55.23	21.88	-40.6	-43.5	14.4	7.00e-07	0	56	0	372244480	51	5420
2026-01-04 08:19:01.70	54.96	21.89	-40.4	-43.2	14.6	0.00e+00	0	56	0	374341632	51	5250
2026-01-04 08:19:02.71	54.70	21.90	-40.4	-43.2	14.6	0.00e+00	0	56	0	376438784	51	5269
2026-01-04 08:19:03.72	54.43	21.91	-40.5	-43.4	14.4	0.00e+00	0	56	0	377487360	51	5392
2026-01-04 08:19:04.73	54.16	21.92	-40.5	-43.5	14.4	7.00e-07	0	56	0	379584512	51	5430
2026-01-04 08:19:05.74	53.89	21.93	-40.5	-43.4	14.4	1.50e-06	0	56	0	381681664	51	5378
2026-01-04 08:19:06.75	53.62	21.94	-40.4	-43.3	14.6	0.00e+00	0	56	0	383778816	51	5312
2026-01-04 08:19:07.76	53.36	21.95	-40.5	-43.3	14.5	0.00e+00	0	56	0	385875968	51	5336
2026-01-04 08:19:08.77	53.09	21.96	-40.5	-43.4	14.5	1.50e-06	0	56	0	386924544	51	5366
2026-01-04 08:19:09.78	52.82	21.97	-40.5	-43.4	14.4	0.00e+00	0	56	0	389021696	51	5374
2026-01-04 08:19:10.79	52.55	21.97	-40.5	-43.5	14.4	7.00e-07	0	56	0	391118848	51	5403
2026-01-04 08:19:11.79	52.28	21.98	-40.5	-43.3	14.5	3.00e-06	0	56	0	393216000	51	5332
2026-01-04 08:19:12.81	52.01	21.98	-40.3	-43.0	14.8	0.00e+00	0	56	0	395313152	51	5149
2026-01-04 08:19:13.81	51.74	21.99	-40.2	-42.9	15.0	0.00e+00	0	56	0	396361728	51	5063
2026-01-04 08:19:14.82	51.48	21.99	-40.1	-42.8	15.1	0.00e+00	0	56	0	398458880	51	5020
2026-01-04 08:19:15.83	51.21	21.99	-40.1	-42.8	15.1	0.00e+00	0	56	0	400556032	51	5000
2026-01-04 08:19:16.84	50.94	22.00	-40.1	-42.8	15.1	0.00e+00	0	56	0	402653184	51	4991
2026-01-04 08:19:17.85	50.67	22.00	-40.1	-42.7	15.2	0.00e+00	0	56	0	404750336	51	4973
2026-01-04 08:19:18.86	50.40	22.00	-40.0	-42.6	15.3	0.00e+00	0	56	0	405798912	51	4875
2026-01-04 08:19:19.87	50.13	22.00	-39.9	-42.4	15.5	0.00e+00	0	56	0	407896064	51	4786
2026-01-04 08:19:20.88	49.86	22.00	-39.9	-42.4	15.5	0.00e+00	0	56	0	409993216	51	4769
2026-01-04 08:19:21.89	49.59	22.00	-39.9	-42.4	15.5	0.00e+00	0	56	0	412090368	51	4775
2026-01-04 08:19:22.90	49.32	21.99	-39.7	-42.2	15.7	0.00e+00	0	56	0	414187520	51	4667
2026-01-04 08:19:23.91	49.05	21.99	-39.8	-42.2	15.7	0.00e+00	0	56	0	415236096	51	4695
2026-01-04 08:19:24.92	48.78	21.99	-39.6	-42.0	15.9	0.00e+00	0	56	0	417333248	51	4587
2026-01-04 08:19:25.93	48.51	21.99	-39.6	-42.0	16.0	0.00e+00	0	56	0	419430400	51	4547
2026-01-04 08:19:26.94	48.24	21.98	-39.5	-41.8	16.1	0.00e+00	0	56	0	421527552	51	4486
2026-01-04 08:19:27.95	47.98	21.98	-39.6	-41.9	16.0	0.00e+00	0	56	0	423624704	51	4522
2026-01-04 08:19:28.96	47.71	21.97	-39.6	-42.0	16.0	0.00e+00	0	56	0	424673280	51	4554
2026-01-04 08:19:29.97	47.44	21.96	-39.5	-41.9	16.0	0.00e+00	0	56	0	426770432	51	4515
2026-01-04 08:19:30.97	47.17	21.96	-39.4	-41.7	16.2	0.00e+00	0	56	0	428867584	50	4684
2026-01-04 08:19:31.98	46.90	21.95	-39.3	-41.5	16.4	0.00e+00	0	56	0	430964736	50	4593
2026-01-04 08:19:33.00	46.63	21.94	-39.1	-41.3	16.6	0.00e+00	0	56	0	433061888	50	4476
2026-01-04 08:19:34.01	46.36	21.93	-39.1	-41.3	16.6	0.00e+00	0	56	0	435159040	50	4460
2026-01-04 08:19:35.02	46.10	21.92	-39.2	-41.4	16.5	0.00e+00	0	56	0	436207616	50	4520
2026-01-04 08:19:36.03	45.83	21.91	-39.2	-41.4	16.5	0.00e+00	0	56	0	438304768	50	4513
2026-01-04 08:19:37.04	45.56	21.90	-39.1	-41.3	16.6	0.00e+00	0	56	0	440401920	50	4455
2026-01-04 08:19:38.05	45.29	21.89	-38.9	-41.0	16.9	0.00e+00	0	56	0	442499072	49	4585
2026-01-04 08:19:39.06	45.03	21.87	-38.8	-40.8	17.0	0.00e+00	0	56	0	444596224	49	4493
2026-01-04 08:19:40.07	44.76	21.86	-38.6	-40.6	17.3	0.00e+00	0	56	0	445644800	49	4376
2026-01-04 08:19:41.08	44.49	21.85	-38.7	-40.7	17.2	0.00e+00	0	56	0	447741952	49	4407
2026-01-04 08:19:42.08	44.23	21.83	-38.7	-40.8	17.1	0.00e+00	0	56	0	449839104	49	4462
2026-01-04 08:19:43.09	43.96	21.82	-38.9	-41.0	16.9	0.00e+00	0	56	0	451936256	49	4546
2026-01-04 08:19:44.10	43.70	21.80	-38.9	-41.0	17.0	0.00e+00	0	56	0	454033408	49	4547
2026-01-04 08:19:45.11	43.43	21.79	-38.8	-40.9	17.0	0.00e+00	0	56	0	455081984	49	4523
2026-01-04 08:19:46.12	43.17	21.77	-38.7	-40.8	17.1	0.00e+00	0	56	0	457179136	49	4470
2026-01-04 08:19:47.13	42.90	21.75	-38.7	-40.7	17.2	0.00e+00	0	56	0	459276288	49	4430
2026-01-04 08:19:48.14	42.64	21.73	-38.6	-40.6	17.2	0.00e+00	0	56	0	461373440	49	4385
2026-01-04 08:19:49.15	42.37	21.71	-38.6	-40.6	17.3	0.00e+00	0	56	0	463470592	49	4378
2026-01-04 08:19:50.16	42.11	21.69	-38.6	-40.7	17.2	0.00e+00	0	56	0	464519168	49	4398
2026-01-04 08:19:51.17	41.84	21.67	-38.7	-40.7	17.2	0.00e+00	0	56	0	466616320	49	4414
2026-01-04 08:19:52.18	41.58	21.65	-38.8	-40.9	17.0	0.00e+00	0	56	0	468713472	49	4495
2026-01-04 08:19:53.19	41.32	21.63	-38.9	-41.0	16.9	0.00e+00	0	56	0	470810624	49	4576
2026-01-04 08:19:54.20	41.05	21.61	-38.9	-41.0	16.9	0.00e+00	0	56	0	472907776	49	4575
2026-01-04 08:19:55.21	40.79	21.59	-38.8	-40.9	17.0	0.00e+00	0	56	0	473956352	49	4531
2026-01-04 08:19:56.22	40.53	21.56	-38.8	-40.8	17.1	0.00e+00	0	56	0	476053504	49	4473
2026-01-04 08:19:57.23	40.27	21.54	-38.7	-40.8	17.1	0.00e+00	0	56	0	478150656	49	4449
2026-01-04 08:19:58.24	40.01	21.52	-38.8	-40.9	17.0	0.00e+00	0	56	0	480247808	49	4504
2026-01-04 08:19:59.25	39.75	21.49	-38.8	-40.9	17.0	0.00e+00	0	56	0	482344960	49	4535
2026-01-04 08:20:00.26	39.49	21.46	-38.9	-41.0	16.9	0.00e+00	0	56	0	483393536	49	4589
2026-01-04 08:20:01.27	39.23	21.44	-39.0	-41.2	16.7	0.00e+00	0	56	0	485490688	49	4665
2026-01-04 08:20:02.28	38.97	21.41	-39.1	-41.3	16.6	0.00e+00	0	56	0	487587840	49	4715
2026-01-04 08:20:03.29	38.71	21.38	-39.2	-41.5	16.5	0.00e+00	0	56	0	489684992	49	4820
2026-01-04 08:20:04.30	38.45	21.36	-39.2	-41.5	16.4	0.00e+00	0	56	0	491782144	49	4824
2026-01-04 08:20:05.31	38.19	21.33	-39.4	-41.6	16.3	0.00e+00	0	56	0	492830720	49	4919
2026-01-04 08:20:06.32	37.94	21.30	-39.5	-41.8	16.1	0.00e+00	0	56	0	494927872	49	5000
2026-01-04 08:20:07.32	37.68	21.27	-39.6	-42.0	15.9	0.00e+00	0	56	0	497025024	49	5124
2026-01-04 08:20:08.33	37.43	21.24	-39.6	-42.0	15.9	0.00e+00	0	56	0	499122176	49	5144
2026-01-04 08:20:09.34	37.17	21.21	-39.7	-42.1	15.8	0.00e+00	0	56	0	501219328	49	5192
2026-01-04 08:20:10.35	36.91	21.18	-39.7	-42.2	15.7	0.00e+00	0	56	0	503316480	50	4956
2026-01-04 08:20:11.36	36.66	21.14	-39.8	-42.2	15.7	0.00e+00	0	56	0	504365056	50	4970
2026-01-04 08:20:12.37	36.41	21.11	-39.8	-42.2	15.7	0.00e+00	0	56	0	506462208	50	4965
2026-01-04 08:20:13.38	36.15	21.08	-39.8	-42.3	15.6	0.00e+00	0	56	0	508559360	50	4993
2026-01-04 08:20:14.39	35.90	21.04	-39.8	-42.4	15.6	0.00e+00	0	56	0	510656512	50	5047
2026-01-04 08:20:15.40	35.65	21.01	-39.9	-42.3	15.6	0.00e+00	0	56	0	512753664	50	5039
2026-01-04 08:20:16.41	35.39	20.97	-39.9	-42.5	15.5	0.00e+00	0	56	0	513802240	50	5108
2026-01-04 08:20:17.42	35.14	20.94	-40.1	-42.7	15.2	0.00e+00	0	56	0	515899392	50	5243
2026-01-04 08:20:18.43	34.89	20.90	-40.1	-42.7	15.2	0.00e+00	0	56	0	517996544	50	5273
2026-01-04 08:20:19.44	34.64	20.87	-40.2	-42.8	15.1	0.00e+00	0	56	0	520093696	50	5328
2026-01-04 08:20:20.45	34.39	20.83	-40.1	-42.8	15.1	0.00e+00	0	56	0	522190848	50	5306
2026-01-04 08:20:21.46	34.14	20.79	-40.2	-42.8	15.1	0.00e+00	0	56	0	523239424	50	5316
2026-01-04 08:20:22.47	33.89	20.75	-40.1	-42.7	15.2	0.00e+00	0	56	0	525336576	50	5277
2026-01-04 08:20:23.48	33.65	20.72	-40.1	-42.7	15.2	0.00e+00	0	56	0	527433728	50	5252
2026-01-04 08:20:24.49	33.40	20.68	-40.1	-42.7	15.2	0.00e+00	0	56	0	529530880	50	5268
2026-01-04 08:20:25.49	33.16	20.64	-40.2	-42.8	15.1	0.00e+00	0	56	0	531628032	50	5316
2026-01-04 08:20:26.50	32.91	20.60	-40.2	-42.9	15.0	0.00e+00	0	56	0	532676608	50	5347
2026-01-04 08:20:27.52	32.66	20.56	-40.2	-42.9	15.0	0.00e+00	0	56	0	534773760	51	5099
2026-01-04 08:20:28.53	32.42	20.52	-40.3	-43.1	14.8	0.00e+00	0	56	0	536870912	51	5199
2026-01-04 08:20:29.53	32.18	20.47	-40.4	-43.2	14.7	0.00e+00	0	56	0	538968064	51	5245
2026-01-04 08:20:30.54	31.93	20.43	-40.4	-43.2	14.6	7.00e-07	0	56	0	541065216	51	5278
2026-01-04 08:20:31.55	31.69	20.39	-40.4	-43.2	14.6	0.00e+00	0	56	0	542113792	51	5264
2026-01-04 08:20:32.56	31.45	20.35	-40.3	-43.1	14.8	0.00e+00	0	56	0	544210944	51	5207
2026-01-04 08:20:33.57	31.21	20.30	-40.4	-43.2	14.7	0.00e+00	0	56	0	546308096	51	5222
2026-01-04 08:20:34.58	30.97	20.26	-40.4	-43.2	14.7	0.00e+00	0	56	0	548405248	51	5242
2026-01-04 08:20:35.59	30.73	20.22	-40.4	-43.3	14.6	0.00e+00	0	56	0	550502400	51	5298
2026-01-04 08:20:36.60	30.49	20.17	-40.4	-43.3	14.6	0.00e+00	0	56	0	551550976	51	5303
2026-01-04 08:20:37.61	30.25	20.13	-40.4	-43.3	14.6	7.00e-07	0	56	0	553648128	51	5302
2026-01-04 08:20:38.62	30.01	20.08	-40.2	-42.9	14.9	0.00e+00	0	56	0	555745280	51	5098
2026-01-04 08:20:39.63	29.78	20.03	-40.1	-42.8	15.0	0.00e+00	0	56	0	557842432	51	5022
2026-01-04 08:20:40.64	29.54	19.99	-40.2	-42.9	15.0	0.00e+00	0	56	0	559939584	51	5076
2026-01-04 08:20:41.65	29.31	19.94	-40.3	-43.1	14.8	0.00e+00	0	56	0	560988160	51	5165
2026-01-04 08:20:42.66	29.07	19.89	-40.4	-43.2	14.6	1.50e-06	0	56	0	563085312	51	5279
2026-01-04 08:20:43.67	28.84	19.85	-40.5	-43.4	14.5	0.00e+00	0	57	0	565182464	51	5362
2026-01-04 08:20:44.68	28.60	19.80	-40.5	-43.4	14.4	7.00e-07	0	56	0	567279616	51	5392
2026-01-04 08:20:45.69	28.37	19.75	-40.4	-43.2	14.7	0.00e+00	0	56	0	569376768	51	5236
2026-01-04 08:20:46.70	28.14	19.70	-40.3	-43.1	14.8	0.00e+00	0	56	0	571473920	51	5164
2026-01-04 08:20:47.71	27.91	19.65	-40.2	-42.9	14.9	7.00e-07	0	56	0	572522496	51	5093
2026-01-04 08:20:48.72	27.68	19.60	-40.2	-42.9	14.9	0.00e+00	0	57	0	574619648	51	5067
2026-01-04 08:20:49.73	27.45	19.55	-40.2	-42.9	15.0	0.00e+00	0	56	0	576716800	51	5069
2026-01-04 08:20:50.74	27.22	19.50	-40.2	-43.0	14.9	0.00e+00	0	57	0	578813952	51	5114
2026-01-04 08:20:51.75	26.99	19.45	-40.2	-43.0	14.8	0.00e+00	0	56	0	580911104	51	5138
2026-01-04 08:20:52.76	26.77	19.40	-40.1	-43.1	14.8	7.00e-07	0	56	0	581959680	51	5165
2026-01-04 08:20:53.77	26.54	19.35	-40.0	-43.1	14.7	0.00e+00	0	57	0	584056832	51	5193
2026-01-04 08:20:54.78	26.31	19.30	-40.0	-43.2	14.6	1.50e-06	0	56	0	586153984	51	5263
2026-01-04 08:20:55.79	26.09	19.24	-40.2	-43.3	14.5	0.00e+00	0	56	0	588251136	51	5309
2026-01-04 08:20:56.80	25.86	19.19	-40.3	-43.3	14.5	2.20e-06	0	56	0	590348288	51	5311
2026-01-04 08:20:57.81	25.64	19.14	-40.1	-43.2	14.6	0.00e+00	0	56	0	591396864	51	5233
2026-01-04 08:20:58.82	25.42	19.09	-39.4	-43.0	14.8	7.00e-07	0	56	0	593494016	50	5427
2026-01-04 08:20:59.83	25.20	19.03	-38.9	-42.9	14.7	7.00e-07	0	56	0	595591168	49	5696
2026-01-04 08:21:00.84	24.98	18.98	-38.7	-43.0	14.6	0.00e+00	0	56	0	597688320	49	5757
2026-01-04 08:21:01.85	24.76	18.92	-39.0	-43.1	14.5	7.00e-07	0	56	0	599785472	49	5841
2026-01-04 08:21:02.86	24.54	18.87	-39.5	-43.0	14.7	7.00e-07	0	56	0	600834048	49	5725
2026-01-04 08:21:03.87	24.32	18.81	-39.9	-42.9	14.8	0.00e+00	0	56	0	602931200	50	5397
2026-01-04 08:21:04.88	24.10	18.76	-40.1	-42.9	14.9	7.00e-07	0	56	0	605028352	50	5372
2026-01-04 08:21:05.89	23.88	18.70	-40.1	-42.9	14.9	7.00e-07	0	57	0	607125504	50	5373
2026-01-04 08:21:06.90	23.67	18.65	-40.1	-42.9	14.9	0.00e+00	0	56	0	609222656	50	5376
2026-01-04 08:21:07.91	23.45	18.59	-40.2	-43.0	14.8	0.00e+00	0	57	0	610271232	50	5458
2026-01-04 08:21:08.92	23.24	18.54	-40.2	-42.9	14.9	0.00e+00	0	56	0	612368384	50	5394
2026-01-04 08:21:09.93	23.02	18.48	-40.2	-42.9	14.9	0.00e+00	0	56	0	614465536	50	5398
2026-01-04 08:21:10.94	22.81	18.42	-40.2	-43.0	14.8	0.00e+00	0	56	0	616562688	51	5142
2026-01-04 08:21:11.95	22.60	18.36	-40.2	-42.9	14.9	0.00e+00	0	56	0	618659840	51	5091
2026-01-04 08:21:12.96	22.39	18.31	-40.1	-42.8	14.9	0.00e+00	0	56	0	619708416	51	5033
2026-01-04 08:21:13.97	22.18	18.25	-40.1	-42.8	15.0	0.00e+00	0	56	0	621805568	51	5002
2026-01-04 08:21:14.98	21.97	18.19	-40.1	-42.8	15.0	0.00e+00	0	56	0	623902720	51	4992
2026-01-04 08:21:15.99	21.76	18.13	-40.1	-42.8	14.9	0.00e+00	0	56	0	625999872	51	5009
2026-01-04 08:21:17.00	21.55	18.07	-40.1	-42.8	14.9	0.00e+00	0	56	0	628097024	51	5036
2026-01-04 08:21:18.01	21.35	18.02	-40.1	-42.8	15.0	0.00e+00	0	56	0	629145600	51	4993
2026-01-04 08:21:19.02	21.14	17.96	-40.0	-42.7	15.1	0.00e+00	0	56	0	631242752	51	4956
2026-01-04 08:21:20.03	20.93	17.90	-40.1	-42.7	15.0	0.00e+00	0	57	0	633339904	51	4972
2026-01-04 08:21:21.04	20.73	17.84	-40.1	-42.9	14.9	0.00e+00	0	56	0	635437056	51	5047
2026-01-04 08:21:22.05	20.53	17.78	-40.3	-43.1	14.7	1.50e-06	0	56	0	637534208	51	5162
2026-01-04 08:21:23.06	20.32	17.72	-40.3	-43.2	14.6	1.50e-06	0	56	0	639631360	51	5235
2026-01-04 08:21:24.07	20.12	17.66	-40.4	-43.3	14.5	7.00e-07	0	56	0	640679936	51	5295
2026-01-04 08:21:25.08	19.92	17.60	-40.4	-43.3	14.4	0.00e+00	0	56	0	642777088	51	5338
2026-01-04 08:21:26.09	19.72	17.54	-40.4	-43.4	14.3	7.00e-07	0	57	0	644874240	51	5355
2026-01-04 08:21:27.10	19.52	17.48	-40.5	-43.4	14.3	2.20e-06	0	56	0	646971392	51	5369
2026-01-04 08:21:28.11	19.32	17.42	-40.5	-43.5	14.2	1.50e-06	0	56	0	649068544	51	5457
2026-01-04 08:21:29.12	19.12	17.35	-40.6	-43.7	14.1	7.00e-07	0	56	0	650117120	51	5534
2026-01-04 08:21:30.13	18.92	17.29	-40.5	-43.5	14.2	7.00e-07	0	56	0	652214272	51	5437
2026-01-04 08:21:31.14	18.73	17.23	-40.5	-43.4	14.3	7.00e-07	0	56	0	654311424	51	5399
2026-01-04 08:21:32.15	18.53	17.17	-40.4	-43.3	14.4	7.00e-07	0	56	0	656408576	51	5317
2026-01-04 08:21:33.16	18.34	17.11	-40.4	-43.3	14.5	7.00e-07	0	56	0	658505728	51	5293
2026-01-04 08:21:34.17	18.14	17.05	-40.4	-43.3	14.4	0.00e+00	0	56	0	659554304	51	5289
2026-01-04 08:21:35.18	17.95	16.98	-40.4	-43.3	14.4	7.00e-07	0	56	0	661651456	51	5316
2026-01-04 08:21:36.19	17.76	16.92	-40.4	-43.3	14.3	7.00e-07	0	57	0	663748608	51	5331
2026-01-04 08:21:37.20	17.57	16.86	-40.5	-43.5	14.2	7.00e-07	0	57	0	665845760	51	5445
2026-01-04 08:21:38.21	17.38	16.79	-40.6	-43.7	14.0	2.20e-06	0	57	0	667942912	51	5536
2026-01-04 08:21:39.22	17.19	16.73	-40.6	-43.7	14.0	3.00e-06	0	56	0	668991488	51	5579
2026-01-04 08:21:40.23	17.00	16.67	-40.6	-43.8	13.8	4.50e-06	0	57	0	671088640	52	5303
2026-01-04 08:21:41.24	16.81	16.61	-40.7	-43.9	13.7	6.10e-06	0	56	0	673185792	52	5401
2026-01-04 08:21:42.25	16.62	16.54	-40.7	-43.9	13.7	3.80e-06	0	56	0	675282944	52	5353
2026-01-04 08:21:43.26	16.43	16.48	-40.5	-43.6	14.0	3.80e-06	0	56	0	677380096	52	5218
2026-01-04 08:21:44.27	16.25	16.41	-40.4	-43.4	14.2	2.20e-06	0	56	0	678428672	52	5065
2026-01-04 08:21:45.27	16.06	16.35	-40.3	-43.3	14.3	7.00e-07	0	56	0	680525824	52	5022
2026-01-04 08:21:46.28	15.88	16.29	-40.3	-43.3	14.3	0.00e+00	0	56	0	682622976	52	5009
2026-01-04 08:21:47.29	15.70	16.22	-40.3	-43.3	14.3	7.00e-07	0	57	0	684720128	52	4991
2026-01-04 08:21:48.30	15.51	16.16	-40.2	-43.1	14.4	1.50e-06	0	57	0	686817280	52	4922
2026-01-04 08:21:49.31	15.33	16.09	-40.2	-43.0	14.6	7.00e-07	0	56	0	687865856	52	4860
2026-01-04 08:21:50.32	15.15	16.03	-40.0	-42.8	14.7	0.00e+00	0	56	0	689963008	52	4751
2026-01-04 08:21:51.33	14.97	15.97	-40.0	-42.8	14.7	0.00e+00	0	56	0	692060160	52	4746
2026-01-04 08:21:52.34	14.79	15.90	-40.1	-42.9	14.6	7.00e-07	0	56	0	694157312	52	4793
2026-01-04 08:21:53.35	14.61	15.84	-40.0	-42.8	14.8	0.00e+00	0	56	0	696254464	51	5018
2026-01-04 08:21:54.36	14.43	15.77	-39.9	-42.7	15.0	0.00e+00	0	57	0	697303040	51	4939
2026-01-04 08:21:55.37	14.26	15.71	-40.0	-42.7	14.9	0.00e+00	0	56	0	699400192	51	4952
2026-01-04 08:21:56.38	14.08	15.64	-39.9	-42.6	15.0	0.00e+00	0	56	0	701497344	51	4878
2026-01-04 08:21:57.39	13.90	15.57	-39.9	-42.6	15.0	0.00e+00	0	56	0	703594496	51	4880
2026-01-04 08:21:58.40	13.73	15.51	-39.9	-42.6	15.0	0.00e+00	0	56	0	705691648	51	4912
2026-01-04 08:21:59.41	13.56	15.44	-39.8	-42.5	15.1	0.00e+00	0	57	0	707788800	51	4845
2026-01-04 08:22:00.42	13.38	15.38	-39.8	-42.5	15.1	0.00e+00	0	57	0	708837376	51	4819
2026-01-04 08:22:01.43	13.21	15.31	-39.8	-42.5	15.1	0.00e+00	0	57	0	710934528	51	4842
2026-01-04 08:22:02.44	13.04	15.25	-39.8	-42.5	15.0	0.00e+00	0	57	0	713031680	51	4838
2026-01-04 08:22:03.44	12.87	15.18	-39.8	-42.6	15.0	0.00e+00	0	56	0	715128832	51	4875
2026-01-04 08:22:04.45	12.70	15.12	-39.7	-42.3	15.2	0.00e+00	0	57	0	717225984	51	4738
2026-01-04 08:22:05.46	12.53	15.05	-39.6	-42.2	15.4	0.00e+00	0	56	0	718274560	51	4663
2026-01-04 08:22:06.47	12.36	14.98	-39.5	-42.1	15.5	0.00e+00	0	56	0	720371712	51	4614
2026-01-04 08:22:07.48	12.19	14.92	-39.4	-41.9	15.6	0.00e+00	0	57	0	722468864	50	4799
2026-01-04 08:22:08.49	12.03	14.85	-39.4	-41.9	15.6	0.00e+00	0	56	0	724566016	50	4785
2026-01-04 08:22:09.50	11.86	14.79	-39.4	-41.9	15.6	0.00e+00	0	56	0	726663168	50	4775
2026-01-04 08:22:10.51	11.69	14.72	-39.4	-41.8	15.6	0.00e+00	0	56	0	727711744	50	4755
2026-01-04 08:22:11.52	11.53	14.65	-39.4	-41.9	15.5	0.00e+00	0	56	0	729808896	50	4813
2026-01-04 08:22:12.53	11.36	14.59	-39.4	-41.9	15.5	0.00e+00	0	56	0	731906048	50	4785
2026-01-04 08:22:13.53	11.20	14.52	-39.4	-41.9	15.5	0.00e+00	0	56	0	734003200	50	4789
2026-01-04 08:22:14.54	11.04	14.45	-39.3	-41.9	15.6	0.00e+00	0	56	0	736100352	50	4762
2026-01-04 08:22:15.55	10.88	14.39	-39.4	-42.0	15.4	0.00e+00	0	56	0	737148928	50	4830
2026-01-04 08:22:16.56	10.72	14.32	-39.4	-41.9	15.4	0.00e+00	0	56	0	739246080	50	4797
2026-01-04 08:22:17.57	10.56	14.25	-39.4	-41.9	15.4	0.00e+00	0	57	0	741343232	50	4799
2026-01-04 08:22:18.58	10.40	14.19	-39.3	-41.8	15.5	0.00e+00	0	57	0	743440384	50	4740
2026-01-04 08:22:19.59	10.24	14.12	-39.2	-41.7	15.6	0.00e+00	0	57	0	745537536	50	4682
2026-01-04 08:22:20.60	10.08	14.05	-39.2	-41.7	15.5	0.00e+00	0	56	0	746586112	50	4704
2026-01-04 08:22:21.61	9.92	13.99	-39.3	-41.9	15.3	0.00e+00	0	57	0	748683264	50	4797
2026-01-04 08:22:22.62	9.77	13.92	-39.3	-42.0	15.2	0.00e+00	0	57	0	750780416	50	4821
2026-01-04 08:22:23.63	9.61	13.85	-39.1	-41.7	15.4	0.00e+00	0	57	0	752877568	50	4702
2026-01-04 08:22:24.64	9.45	13.79	-39.1	-41.7	15.3	0.00e+00	0	56	0	754974720	50	4689
2026-01-04 08:22:25.65	9.30	13.72	-39.1	-41.7	15.3	0.00e+00	0	56	0	756023296	50	4678
2026-01-04 08:22:26.66	9.15	13.65	-39.2	-41.9	15.0	0.00e+00	0	57	0	758120448	50	4805
2026-01-04 08:22:27.67	8.99	13.59	-39.3	-42.1	14.8	0.00e+00	0	57	0	760217600	50	4891
2026-01-04 08:22:28.68	8.84	13.52	-39.3	-42.2	14.6	0.00e+00	0	56	0	762314752	50	4941
2026-01-04 08:22:29.69	8.69	13.45	-39.3	-42.1	14.6	0.00e+00	0	57	0	764411904	50	4905
2026-01-04 08:22:30.69	8.54	13.38	-39.2	-42.0	14.7	0.00e+00	0	57	0	765460480	50	4842
2026-01-04 08:22:31.71	8.39	13.32	-39.2	-42.1	14.5	1.50e-06	0	57	0	767557632	50	4920
2026-01-04 08:22:32.72	8.24	13.25	-39.1	-41.9	14.6	7.00e-07	0	56	0	769654784	50	4813
2026-01-04 08:22:33.73	8.09	13.18	-39.2	-42.2	14.4	7.00e-07	0	57	0	771751936	50	4947
2026-01-04 08:22:34.74	7.94	13.12	-39.3	-42.4	14.1	1.50e-06	0	56	0	773849088	50	5067
2026-01-04 08:22:35.75	7.79	13.05	-39.4	-42.5	13.9	3.00e-06	0	57	0	775946240	50	5144
2026-01-04 08:22:36.76	7.65	12.98	-39.4	-42.6	13.8	1.50e-06	0	57	0	776994816	50	5187
2026-01-04 08:22:37.76	7.50	12.92	-39.5	-42.7	13.7	8.30e-06	0	57	0	779091968	50	5241
2026-01-04 08:22:38.77	7.36	12.85	-39.5	-42.7	13.6	6.10e-06	0	57	0	781189120	50	5255
2026-01-04 08:22:39.78	7.21	12.78	-39.4	-42.6	13.8	3.00e-06	0	57	0	783286272	50	5189
2026-01-04 08:22:40.79	7.07	12.71	-39.5	-42.8	13.5	8.30e-06	0	57	0	784334848	50	5305
2026-01-04 08:22:41.80	6.92	12.65	-39.2	-42.4	13.8	1.06e-05	0	56	0	786432000	50	5074
2026-01-04 08:22:42.81	6.78	12.58	-39.2	-42.5	13.7	3.80e-06	0	57	0	788529152	50	5108
2026-01-04 08:22:43.82	6.64	12.51	-39.1	-42.3	13.7	1.06e-05	0	57	0	790626304	50	5035
2026-01-04 08:22:44.83	6.50	12.45	-39.0	-42.2	13.7	9.90e-06	0	56	0	792723456	50	4968
2026-01-04 08:22:45.84	6.36	12.38	-39.1	-42.6	13.2	2.28e-05	0	57	0	793772032	50	5211
2026-01-04 08:22:46.85	6.22	12.31	-39.2	-42.9	12.8	4.11e-05	0	57	0	795869184	50	5354
2026-01-04 08:22:47.86	6.08	12.24	-39.3	-43.2	12.3	1.40e-04	0	57	0	797966336	50	5561
2026-01-04 08:22:48.87	5.94	12.18	-39.5	-43.7	11.6	4.31e-04	0	56	0	800063488	50	5897
2026-01-04 08:22:49.88	5.80	12.11	-39.7	-44.5	10.6	1.73e-03	0	57	0	802160640	50	6450
2026-01-04 08:22:50.89	5.66	12.04	-40.0	-45.4	9.5	1.07e-02	0	57	0	804257792	50	7165
2026-01-04 08:22:51.90	5.52	11.98	-40.2	-46.3	8.4	3.26e-02	0	57	0	805306368	50	7930
2026-01-04 08:22:52.91	5.39	11.91	-40.2	-47.0	7.5	7.41e-02	0	57	0	807403520	51	8144
2026-01-04 08:22:53.92	5.25	11.84	-40.3	-47.7	6.7	1.28e-01	0	57	0	809500672	51	8792
2026-01-04 08:22:54.93	5.12	11.78	-40.3	-48.5	5.9	2.84e-01	0	57	0	811597824	51	9696
2026-01-04 08:22:55.94	4.98	11.71	-40.3	-49.8	5.0	5.10e-01	0	56	0	813694976	51	11172
2026-01-04 08:22:56.95	4.85	11.64	-40.4	-51.3	4.3	8.97e-01	16	57	0	814743552	51	13289
2026-01-04 08:22:57.96	4.72	11.58	-40.4	-52.8	3.8	1.47e+00	0	57	104	814743552	51	15815
2026-01-04 08:22:58.97	4.58	11.51	-40.3	-53.7	3.8	1.49e+00	0	57	104	814743552	51	17487
2026-01-04 08:22:59.98	4.45	11.44	-40.3	-54.2	3.8	1.49e+00	0	57	104	814743552	51	18644
2026-01-04 08:23:00.99	4.32	11.38	-40.2	-54.4	3.8	1.49e+00	0	57	104	814743552	51	19151
2026-01-04 08:23:02.00	4.19	11.31	-39.9	-54.4	3.8	1.49e+00	0	57	104	814743552	51	19034
2026-01-04 08:23:03.01	4.06	11.24	-40.2	-54.6	3.8	1.49e+00	0	57	104	814743552	51	19569
2026-01-04 08:23:04.02	3.93	11.18	-40.2	-54.8	3.8	1.49e+00	0	57	104	814743552	51	19871
2026-01-04 08:23:05.03	3.80	11.11	-39.8	-54.3	3.8	1.49e+00	0	56	104	814743552	51	18826
2026-01-04 08:23:06.04	3.67	11.04	-40.1	-54.7	3.8	1.49e+00	0	56	104	814743552	51	19639
2026-01-04 08:23:07.05	3.54	10.98	-39.8	-54.3	3.8	1.49e+00	0	56	104	814743552	51	18796
2026-01-04 08:23:08.06	3.42	10.91	-39.7	-54.2	3.8	1.49e+00	0	57	104	814743552	51	18710
2026-01-04 08:23:09.07	3.29	10.84	-39.9	-54.4	3.8	1.49e+00	0	56	104	814743552	51	19054
2026-01-04 08:23:10.08	3.16	10.78	-39.7	-54.2	3.8	1.49e+00	0	57	104	814743552	51	18643
2026-01-04 08:23:11.09	3.04	10.71	-39.9	-54.4	3.8	1.49e+00	0	57	104	814743552	51	18958
2026-01-04 08:23:12.10	2.91	10.64	-39.9	-54.4	3.8	1.49e+00	0	57	104	814743552	51	19132
2026-01-04 08:23:13.11	2.79	10.58	-39.6	-54.2	3.8	1.49e+00	0	57	104	814743552	51	18534
2026-01-04 08:23:14.12	2.67	10.51	-39.8	-54.4	3.8	1.49e+00	0	57	104	814743552	51	19025
2026-01-04 08:23:15.13	2.54	10.45	-39.6	-54.1	3.8	1.49e+00	0	57	104	814743552	51	18464
2026-01-04 08:23:16.14	2.42	10.38	-39.6	-54.1	3.8	1.49e+00	0	57	104	814743552	51	18492
2026-01-04 08:23:17.15	2.30	10.31	-39.7	-54.3	3.8	1.49e+00	0	57	104	814743552	51	18743
2026-01-04 08:23:18.16	2.18	10.25	-39.5	-54.1	3.8	1.49e+00	0	57	104	814743552	51	18442
2026-01-04 08:23:19.17	2.06	10.18	-39.7	-54.2	3.8	1.49e+00	0	57	104	814743552	51	18662
2026-01-04 08:23:20.18	1.94	10.12	-39.7	-54.2	3.8	1.49e+00	0	56	104	814743552	51	18695
2026-01-04 08:23:21.19	1.82	10.05	-39.7	-54.2	3.8	1.49e+00	0	57	104	814743552	51	18552
2026-01-04 08:23:22.20	1.70	9.98	-39.7	-54.2	3.8	1.49e+00	0	57	104	814743552	51	18581
2026-01-04 08:23:23.21	1.58	9.92	-39.6	-54.2	3.8	1.49e+00	0	57	104	814743552	51	18564
2026-01-04 08:23:24.23	1.46	9.85	-39.5	-54.1	3.8	1.49e+00	0	57	104	814743552	50	19513
2026-01-04 08:23:25.24	1.34	9.79	-39.6	-54.1	3.8	1.49e+00	0	57	104	814743552	50	19580
2026-01-04 08:23:26.24	1.23	9.72	-39.4	-54.1	3.8	1.49e+00	0	57	104	814743552	50	19497
2026-01-04 08:23:27.25	1.11	9.66	-39.6	-54.1	3.8	1.49e+00	0	57	104	814743552	50	19559
2026-01-04 08:23:28.26	0.99	9.59	-39.6	-54.2	3.8	1.49e+00	0	57	104	814743552	50	19630
2026-01-04 08:23:29.28	0.88	9.52	-39.3	-54.1	3.8	1.49e+00	0	57	104	814743552	50	19527
2026-01-04 08:23:30.29	0.76	9.46	-39.6	-54.2	3.8	1.49e+00	0	57	104	814743552	50	19628
2026-01-04 08:23:31.30	0.65	9.39	-39.3	-54.1	3.8	1.49e+00	0	57	104	814743552	50	19478
2026-01-04 08:23:32.31	0.54	9.33	-39.3	-54.1	3.8	1.49e+00	0	57	104	814743552	50	19567
2026-01-04 08:23:33.32	0.42	9.26	-39.4	-54.1	3.8	1.49e+00	0	57	104	814743552	50	19492
2026-01-04 08:23:34.33	0.31	9.20	-39.3	-54.1	3.8	1.49e+00	0	57	104	814743552	50	19607
2026-01-04 08:23:35.34	0.20	9.13	-39.5	-54.1	3.8	1.49e+00	0	57	104	814743552	50	19506
2026-01-04 08:23:36.35	0.09	9.07	-39.3	-54.1	3.8	1.49e+00	0	57	104	814743552	50	19536
2026-01-04 08:23:37.36	359.97	9.00	-39.3	-54.1	3.8	1.49e+00	0	57	104	814743552	50	19599
2026-01-04 08:23:38.37	359.86	8.94	-39.3	-54.1	3.8	1.49e+00	0	57	104	814743552	50	19595
2026-01-04 08:23:39.38	359.75	8.87	-39.2	-54.1	3.8	1.49e+00	0	57	104	814743552	50	19570
2026-01-04 08:23:40.39	359.64	8.81	-39.1	-54.1	3.8	1.49e+00	0	57	104	814743552	50	19567
2026-01-04 08:23:41.40	359.54	8.75	-39.3	-54.1	3.8	1.49e+00	0	57	104	814743552	50	19573
2026-01-04 08:23:42.41	359.43	8.68	-39.2	-54.1	3.8	1.49e+00	0	57	104	814743552	50	19453
2026-01-04 08:23:43.42	359.32	8.62	-39.2	-54.1	3.8	1.49e+00	0	57	104	814743552	50	19560
2026-01-04 08:23:44.43	359.21	8.55	-39.1	-54.1	3.8	1.49e+00	0	57	104	814743552	50	19561
2026-01-04 08:23:45.44	359.10	8.49	-39.2	-54.1	3.8	1.49e+00	0	57	104	814743552	50	19537
2026-01-04 08:23:46.45	359.00	8.42	-39.1	-54.1	3.8	1.49e+00	0	57	104	814743552	50	19488
2026-01-04 08:23:47.46	358.89	8.36	-39.0	-54.0	3.8	1.49e+00	0	57	104	814743552	50	19305
2026-01-04 08:23:48.47	358.79	8.29	-38.8	-54.0	3.8	1.49e+00	0	57	104	814743552	48	21606
2026-01-04 08:23:49.48	358.68	8.23	-39.1	-54.0	3.8	1.49e+00	0	57	104	814743552	48	21684
2026-01-04 08:23:50.50	358.57	8.17	-38.5	-53.9	3.8	1.49e+00	0	56	104	814743552	48	21496
2026-01-04 08:23:51.51	358.47	8.10	-39.0	-54.0	3.8	1.49e+00	0	57	104	814743552	48	21717
2026-01-04 08:23:52.52	358.37	8.04	-38.6	-53.9	3.8	1.49e+00	0	57	104	814743552	48	21493
2026-01-04 08:23:53.53	358.26	7.97	-39.1	-54.0	3.8	1.49e+00	0	57	104	814743552	48	21633
2026-01-04 08:23:54.54	358.16	7.91	-39.8	-54.4	3.8	1.49e+00	0	57	104	814743552	50	20123
2026-01-04 08:23:55.55	358.06	7.85	-44.1	-58.6	3.8	1.49e+00	0	57	104	814743552	58	20689
2026-01-04 08:23:56.56	357.96	7.78	-44.5	-59.1	3.8	1.49e+00	0	57	104	814743552	59	20546
2026-01-04 08:23:57.57	357.85	7.72	-44.7	-59.2	3.8	1.49e+00	0	56	104	814743552	59	20902
2026-01-04 08:23:58.58	357.75	7.66	-44.7	-59.4	3.8	1.49e+00	0	57	104	814743552	60	20229
2026-01-04 08:23:59.59	357.65	7.59	-44.8	-59.5	3.8	1.49e+00	0	57	104	814743552	60	20522
2026-01-04 08:24:00.60	357.55	7.53	-44.8	-59.6	3.8	1.49e+00	0	57	104	814743552	60	20607
2026-01-04 08:24:01.61	357.45	7.47	-44.8	-59.6	3.8	1.49e+00	0	57	104	814743552	60	20650
2026-01-04 08:24:02.63	357.35	7.40	-44.8	-59.6	3.8	1.49e+00	0	57	104	814743552	60	20724
2026-01-04 08:24:03.64	357.25	7.34	-44.8	-59.6	3.8	1.49e+00	0	57	104	814743552	60	20647
2026-01-04 08:24:04.65	357.16	7.28	-44.8	-59.6	3.8	1.49e+00	0	57	104	814743552	60	20654
2026-01-04 08:24:05.66	357.06	7.21	-44.7	-59.5	3.8	1.49e+00	0	57	104	814743552	60	20509
2026-01-04 08:24:06.67	356.96	7.15	-44.6	-59.6	3.8	1.49e+00	0	57	104	814743552	60	20557
2026-01-04 08:24:07.68	356.86	7.09	-44.7	-59.5	3.8	1.49e+00	0	57	104	814743552	60	20421
2026-01-04 08:24:08.69	356.77	7.03	-44.7	-59.5	3.8	1.49e+00	0	57	104	814743552	60	20450
2026-01-04 08:24:09.70	356.67	6.96	-44.6	-59.5	3.8	1.49e+00	0	57	104	814743552	60	20341
2026-01-04 08:24:10.72	356.57	6.90	-44.7	-59.3	3.8	1.49e+00	0	57	104	814743552	59	21250
2026-01-04 08:24:11.73	356.48	6.84	-44.7	-59.4	3.8	1.49e+00	0	57	104	814743552	59	21312
2026-01-04 08:24:12.74	356.38	6.78	-44.7	-59.4	3.8	1.49e+00	0	57	104	814743552	59	21277
2026-01-04 08:24:13.75	356.29	6.71	-44.7	-59.3	3.8	1.49e+00	0	57	104	814743552	59	21254
2026-01-04 08:24:14.76	356.20	6.65	-44.7	-59.3	3.8	1.49e+00	0	57	104	814743552	59	21249
2026-01-04 08:24:15.77	356.10	6.59	-44.7	-59.3	3.8	1.49e+00	0	57	104	814743552	59	21224
2026-01-04 08:24:16.78	356.01	6.53	-44.7	-59.3	3.8	1.49e+00	0	57	104	814743552	59	21244
2026-01-04 08:24:17.79	355.92	6.46	-44.7	-59.3	3.8	1.49e+00	0	57	104	814743552	59	21208
2026-01-04 08:24:18.80	355.82	6.40	-44.7	-59.3	3.8	1.49e+00	0	57	104	814743552	59	21170
2026-01-04 08:24:19.81	355.73	6.34	-44.7	-59.3	3.8	1.49e+00	0	57	104	814743552	59	21191
2026-01-04 08:24:20.83	355.64	6.28	-44.7	-59.3	3.8	1.49e+00	0	57	104	814743552	59	21219
2026-01-04 08:24:21.84	355.55	6.22	-44.7	-59.3	3.8	1.49e+00	0	57	104	814743552	59	21173
2026-01-04 08:24:22.85	355.46	6.15	-44.7	-59.3	3.8	1.49e+00	0	57	104	814743552	59	21159
2026-01-04 08:24:23.86	355.37	6.09	-44.7	-59.3	3.8	1.49e+00	0	57	104	814743552	59	21202
2026-01-04 08:24:24.87	355.28	6.03	-44.7	-59.3	3.8	1.49e+00	0	57	104	814743552	59	21211
2026-01-04 08:24:25.88	355.19	5.97	-44.7	-59.3	3.8	1.49e+00	0	57	104	814743552	59	21188
2026-01-04 08:24:26.89	355.10	5.91	-44.7	-59.3	3.8	1.49e+00	0	57	104	814743552	59	21129
2026-01-04 08:24:27.90	355.01	5.85	-44.7	-59.3	3.8	1.49e+00	0	57	104	814743552	59	21156
2026-01-04 08:24:28.91	354.92	5.79	-44.7	-59.3	3.8	1.49e+00	0	57	104	814743552	59	21207
2026-01-04 08:24:29.93	354.83	5.73	-44.7	-59.3	3.8	1.49e+00	0	57	104	814743552	59	21206
2026-01-04 08:24:30.94	354.75	5.66	-44.7	-59.3	3.8	1.49e+00	0	57	104	814743552	59	21161
2026-01-04 08:24:31.95	354.66	5.60	-44.7	-59.3	3.8	1.49e+00	0	57	104	814743552	59	21175
2026-01-04 08:24:32.96	354.57	5.54	-44.7	-59.3	3.8	1.49e+00	0	57	104	814743552	59	21176
2026-01-04 08:24:33.97	354.49	5.48	-44.7	-59.3	3.8	1.49e+00	0	57	104	814743552	59	21186
2026-01-04 08:24:34.98	354.40	5.42	-44.7	-59.3	3.8	1.49e+00	0	57	104	814743552	59	21225
2026-01-04 08:24:35.99	354.31	5.36	-44.5	-59.3	3.8	1.49e+00	0	57	104	814743552	59	21156
2026-01-04 08:24:37.00	354.23	5.30	-44.7	-59.3	3.8	1.49e+00	0	57	104	814743552	59	21148
2026-01-04 08:24:38.01	354.14	5.24	-44.7	-59.3	3.8	1.49e+00	0	57	104	814743552	59	21175
2026-01-04 08:24:39.02	354.06	5.18	-44.7	-59.3	3.8	1.49e+00	0	57	104	814743552	59	21143
2026-01-04 08:24:40.04	353.97	5.12	-44.7	-59.3	3.8	1.49e+00	0	57	104	814743552	59	21169
2026-01-04 08:24:41.05	353.89	5.06	-44.6	-59.3	3.8	1.49e+00	0	57	104	814743552	59	21142
2026-01-04 08:24:42.06	353.81	5.00	-44.7	-59.3	3.8	1.49e+00	0	57	104	814743552	59	21106
2026-01-04 08:24:43.07	353.72	4.94	-44.7	-59.3	3.8	1.49e+00	0	57	104	814743552	59	21157
2026-01-04 08:24:44.08	353.64	4.88	-44.7	-59.3	3.8	1.49e+00	0	57	104	814743552	59	21125
2026-01-04 08:24:45.09	353.56	4.82	-44.7	-59.3	3.8	1.49e+00	0	57	104	814743552	59	21165
2026-01-04 08:24:46.10	353.48	4.76	-44.6	-59.3	3.8	1.49e+00	0	57	104	814743552	59	21132
2026-01-04 08:24:47.11	353.39	4.70	-44.7	-59.3	3.8	1.49e+00	0	57	104	814743552	59	21139
2026-01-04 08:24:48.13	353.31	4.64	-44.7	-59.3	3.8	1.49e+00	0	57	104	814743552	59	21141
2026-01-04 08:24:49.14	353.23	4.58	-44.6	-59.3	3.8	1.49e+00	0	57	104	814743552	59	21102
2026-01-04 08:24:50.15	353.15	4.52	-44.7	-59.3	3.8	1.49e+00	0	57	104	814743552	59	21108
2026-01-04 08:24:51.16	353.07	4.46	-44.7	-59.3	3.8	1.49e+00	0	57	104	814743552	59	21118
